passes_logs/2025/01/09/PPK-1/PPK-1__20250109_002520_TY-39_rec.log

#Pass ID: 20250109_002520_TY-39
#Satellite: TY-39
#Configuration: TY-39
#almurnet v.1.7.20230919.trace
#Start time: 2025-01-09 00:25:21

#Version: 2.2.20231116
#Station: PPK-1
#Location: 158.6 lon 53.06666 lat
#TLE: 1 51832U 22019J   25007.94199359  .00004615  00000+0  23732-3 0  9991
#TLE: 2 51832  97.4109  78.3043 0007692 262.2370  97.7990 15.16914621158070

#Time	Az	El	Level	Level2	SNR	BER	BlckErr	Temp	State
2025-01-09 00:25:21.27	6.70	8.10	-67.3	-72.8	3.6	0.00e+00	0	46	0
2025-01-09 00:25:22.17	6.66	8.18	-67.3	-73.0	3.7	0.00e+00	0	46	104
2025-01-09 00:25:23.16	6.61	8.27	-67.3	-72.9	3.6	0.00e+00	0	46	104
2025-01-09 00:25:24.07	6.57	8.36	-67.5	-73.4	3.6	0.00e+00	0	46	104
2025-01-09 00:25:25.06	6.53	8.45	-67.6	-73.5	3.6	0.00e+00	0	47	104
2025-01-09 00:25:25.97	6.49	8.53	-67.5	-73.5	3.6	0.00e+00	0	47	104
2025-01-09 00:25:26.96	6.44	8.63	-67.5	-73.3	3.7	0.00e+00	0	47	104
2025-01-09 00:25:27.87	6.40	8.71	-67.6	-73.5	3.6	0.00e+00	0	47	104
2025-01-09 00:25:28.86	6.35	8.81	-67.6	-73.5	3.7	0.00e+00	0	47	104
2025-01-09 00:25:29.77	6.31	8.89	-67.6	-73.6	3.6	0.00e+00	0	47	104
2025-01-09 00:25:30.75	6.26	8.99	-67.6	-73.6	3.7	0.00e+00	0	47	104
2025-01-09 00:25:31.66	6.22	9.07	-67.6	-73.5	3.6	0.00e+00	0	48	104
2025-01-09 00:25:32.65	6.17	9.17	-67.6	-73.6	3.6	0.00e+00	0	48	104
2025-01-09 00:25:33.56	6.13	9.26	-67.6	-73.6	3.7	0.00e+00	0	48	104
2025-01-09 00:25:34.55	6.08	9.35	-67.6	-73.5	3.6	0.00e+00	0	48	104
2025-01-09 00:25:35.46	6.04	9.44	-67.6	-73.5	3.7	0.00e+00	0	48	104
2025-01-09 00:25:36.45	5.99	9.54	-67.5	-73.4	3.6	0.00e+00	0	49	104
2025-01-09 00:25:37.36	5.94	9.63	-67.5	-73.3	3.7	0.00e+00	0	49	104
2025-01-09 00:25:38.35	5.89	9.73	-67.5	-73.4	3.7	0.00e+00	0	48	104
2025-01-09 00:25:39.25	5.84	9.82	-67.5	-73.3	3.6	0.00e+00	0	49	104
2025-01-09 00:25:40.24	5.79	9.92	-67.4	-73.1	3.7	0.00e+00	0	49	104
2025-01-09 00:25:41.15	5.75	10.01	-67.4	-73.1	3.6	0.00e+00	0	49	104
2025-01-09 00:25:42.14	5.69	10.11	-67.3	-72.8	3.6	0.00e+00	0	49	104
2025-01-09 00:25:43.05	5.65	10.20	-67.2	-72.5	3.6	0.00e+00	0	49	104
2025-01-09 00:25:44.04	5.59	10.30	-67.2	-72.6	3.6	0.00e+00	0	50	104
2025-01-09 00:25:44.95	5.54	10.39	-67.2	-72.5	3.7	0.00e+00	0	50	104
2025-01-09 00:25:45.94	5.49	10.49	-67.2	-72.4	3.5	0.00e+00	0	50	104
2025-01-09 00:25:46.85	5.44	10.59	-67.2	-72.5	3.7	0.00e+00	0	50	104
2025-01-09 00:25:47.83	5.39	10.69	-67.3	-72.7	3.5	0.00e+00	0	50	104
2025-01-09 00:25:48.74	5.34	10.79	-67.3	-72.8	3.6	0.00e+00	0	50	104
2025-01-09 00:25:49.73	5.28	10.89	-67.4	-72.9	3.7	0.00e+00	0	50	104
2025-01-09 00:25:50.64	5.23	10.99	-67.4	-73.0	3.6	0.00e+00	0	51	104
2025-01-09 00:25:51.63	5.17	11.09	-67.5	-73.1	3.6	0.00e+00	0	50	104
2025-01-09 00:25:52.54	5.12	11.19	-67.5	-73.2	3.6	0.00e+00	0	51	104
2025-01-09 00:25:53.53	5.06	11.29	-67.5	-73.3	3.7	0.00e+00	0	51	104
2025-01-09 00:25:54.44	5.01	11.39	-67.6	-73.4	3.6	0.00e+00	0	51	104
2025-01-09 00:25:55.43	4.95	11.50	-67.5	-73.3	3.6	0.00e+00	0	51	104
2025-01-09 00:25:56.34	4.90	11.60	-67.5	-73.3	3.7	0.00e+00	0	51	104
2025-01-09 00:25:57.33	4.84	11.71	-67.4	-73.1	3.6	0.00e+00	0	51	104
2025-01-09 00:25:58.24	4.78	11.81	-67.4	-73.0	3.7	0.00e+00	0	51	104
2025-01-09 00:25:59.23	4.72	11.92	-67.4	-72.9	3.6	0.00e+00	0	52	104
2025-01-09 00:26:00.14	4.66	12.02	-67.3	-72.8	3.7	0.00e+00	0	52	104
2025-01-09 00:26:01.13	4.60	12.13	-67.4	-72.9	3.7	0.00e+00	0	52	104
2025-01-09 00:26:02.03	4.55	12.23	-67.5	-73.1	3.6	0.00e+00	0	52	104
2025-01-09 00:26:03.02	4.48	12.34	-67.5	-73.2	3.7	0.00e+00	0	52	104
2025-01-09 00:26:03.93	4.42	12.45	-67.6	-73.4	3.6	0.00e+00	0	52	104
2025-01-09 00:26:04.92	4.36	12.56	-67.7	-73.6	3.7	0.00e+00	0	52	104
2025-01-09 00:26:05.82	4.30	12.66	-67.7	-73.6	3.6	0.00e+00	0	53	104
2025-01-09 00:26:06.81	4.24	12.78	-67.7	-73.7	3.6	0.00e+00	0	53	104
2025-01-09 00:26:07.72	4.17	12.88	-67.7	-73.7	3.7	0.00e+00	0	53	104
2025-01-09 00:26:08.71	4.11	13.00	-67.8	-73.8	3.6	0.00e+00	0	53	104
2025-01-09 00:26:09.62	4.05	13.10	-67.7	-73.9	3.7	0.00e+00	0	53	104
2025-01-09 00:26:10.61	3.98	13.22	-67.8	-73.9	3.6	0.00e+00	0	53	104
2025-01-09 00:26:11.52	3.92	13.33	-67.7	-73.9	3.7	0.00e+00	0	53	104
2025-01-09 00:26:12.51	3.85	13.45	-67.7	-74.0	3.7	0.00e+00	0	53	104
2025-01-09 00:26:13.42	3.78	13.56	-67.8	-73.4	3.6	0.00e+00	0	53	104
2025-01-09 00:26:14.41	3.71	13.68	-67.7	-73.4	3.7	0.00e+00	0	53	104
2025-01-09 00:26:15.32	3.65	13.79	-67.7	-73.3	3.6	0.00e+00	0	54	104
2025-01-09 00:26:16.31	3.57	13.91	-67.7	-73.2	3.7	0.00e+00	0	54	104
2025-01-09 00:26:17.22	3.51	14.02	-67.7	-73.2	3.6	0.00e+00	0	54	104
2025-01-09 00:26:18.21	3.43	14.14	-67.7	-73.2	3.6	0.00e+00	0	54	104
2025-01-09 00:26:19.12	3.37	14.26	-67.7	-73.3	3.7	0.00e+00	0	54	104
2025-01-09 00:26:20.11	3.29	14.38	-67.8	-73.4	3.6	0.00e+00	0	54	104
2025-01-09 00:26:21.02	3.22	14.50	-67.8	-73.4	3.7	0.00e+00	0	54	104
2025-01-09 00:26:22.01	3.15	14.62	-54.3	-56.9	12.8	0.00e+00	0	55	104
2025-01-09 00:26:22.91	3.07	14.74	-53.9	-56.7	13.1	2.08e-05	0	55	0
2025-01-09 00:26:23.91	3.00	14.86	-53.7	-56.1	13.3	2.77e-05	0	55	0
2025-01-09 00:26:24.81	2.92	14.98	-53.7	-56.1	10.4	8.95e-04	0	55	0
2025-01-09 00:26:25.81	2.84	15.11	-53.8	-56.4	10.3	4.26e-03	0	55	0
2025-01-09 00:26:26.71	2.77	15.23	-53.4	-56.0	10.4	4.04e-03	0	55	0
2025-01-09 00:26:27.71	2.69	15.36	-53.4	-56.0	10.3	4.06e-03	0	56	0
2025-01-09 00:26:28.61	2.62	15.48	-53.1	-55.4	10.4	4.24e-03	0	56	0
2025-01-09 00:26:29.60	2.53	15.61	-52.8	-55.4	10.5	4.58e-03	0	56	0
2025-01-09 00:26:30.50	2.46	15.73	-53.1	-55.9	10.4	4.12e-03	0	56	0
2025-01-09 00:26:31.49	2.37	15.86	-52.7	-55.1	13.5	2.37e-03	0	56	0
2025-01-09 00:26:32.39	2.29	15.99	-53.0	-55.7	13.5	6.90e-06	0	56	0
2025-01-09 00:26:33.39	2.21	16.12	-53.4	-56.5	13.3	6.90e-06	0	56	0
2025-01-09 00:26:34.29	2.13	16.25	-53.1	-55.9	13.5	0.00e+00	0	57	0
2025-01-09 00:26:35.29	2.04	16.38	-53.3	-56.3	13.5	0.00e+00	0	57	0
2025-01-09 00:26:36.19	1.96	16.51	-53.3	-56.3	13.5	0.00e+00	0	57	0
2025-01-09 00:26:37.19	1.87	16.65	-53.3	-56.3	13.5	0.00e+00	0	57	0
2025-01-09 00:26:38.09	1.78	16.78	-53.6	-57.0	13.3	0.00e+00	0	57	0
2025-01-09 00:26:39.08	1.69	16.92	-53.5	-56.7	13.3	0.00e+00	0	57	0
2025-01-09 00:26:39.98	1.61	17.05	-53.2	-56.2	13.5	0.00e+00	0	57	0
2025-01-09 00:26:40.97	1.51	17.19	-53.4	-56.6	13.4	0.00e+00	0	58	0
2025-01-09 00:26:41.87	1.43	17.32	-52.9	-55.5	13.7	6.90e-06	0	58	0
2025-01-09 00:26:42.87	1.33	17.46	-52.7	-55.1	13.8	0.00e+00	0	58	0
2025-01-09 00:26:43.77	1.24	17.60	-52.6	-55.4	13.8	0.00e+00	0	58	0
2025-01-09 00:26:44.77	1.14	17.74	-52.5	-55.2	13.9	0.00e+00	0	58	0
2025-01-09 00:26:45.67	1.05	17.88	-52.4	-55.0	14.0	0.00e+00	0	58	0
2025-01-09 00:26:46.66	0.95	18.02	-52.2	-54.6	14.1	0.00e+00	0	58	0
2025-01-09 00:26:47.56	0.86	18.16	-52.1	-54.4	14.2	0.00e+00	0	58	0
2025-01-09 00:26:48.55	0.76	18.31	-52.2	-55.1	14.1	0.00e+00	0	58	0
2025-01-09 00:26:49.45	0.66	18.45	-52.3	-55.3	14.1	0.00e+00	0	58	0
2025-01-09 00:26:50.44	0.56	18.60	-52.4	-55.5	14.1	0.00e+00	0	58	0
2025-01-09 00:26:51.34	0.46	18.74	-52.3	-55.3	14.1	0.00e+00	0	59	0
2025-01-09 00:26:52.33	0.35	18.89	-52.6	-56.0	13.9	0.00e+00	0	58	0
2025-01-09 00:26:53.24	0.25	19.04	-52.6	-55.9	13.9	0.00e+00	0	59	0
2025-01-09 00:26:54.22	0.15	19.19	-52.9	-56.1	13.6	0.00e+00	0	59	0
2025-01-09 00:26:55.13	0.04	19.34	-52.8	-55.8	13.6	0.00e+00	0	59	0
2025-01-09 00:26:56.12	359.93	19.49	-52.6	-55.3	13.8	0.00e+00	0	59	0
2025-01-09 00:26:57.03	359.83	19.64	-52.4	-55.0	14.0	0.00e+00	0	59	0
2025-01-09 00:26:58.01	359.71	19.80	-52.3	-54.7	14.1	0.00e+00	0	59	0
2025-01-09 00:26:58.92	359.61	19.95	-52.0	-54.7	14.3	0.00e+00	0	59	0
2025-01-09 00:26:59.91	359.49	20.11	-51.7	-54.2	14.5	0.00e+00	0	59	0
2025-01-09 00:27:00.82	359.38	20.26	-51.6	-53.9	14.4	0.00e+00	0	59	0
2025-01-09 00:27:01.80	359.26	20.43	-51.5	-54.2	14.4	0.00e+00	0	59	0
2025-01-09 00:27:02.71	359.15	20.58	-51.3	-53.8	14.4	0.00e+00	0	60	0
2025-01-09 00:27:03.69	359.02	20.75	-51.3	-53.8	14.4	6.90e-06	0	60	0
2025-01-09 00:27:04.60	358.91	20.90	-51.5	-54.2	14.4	0.00e+00	0	60	0
2025-01-09 00:27:05.58	358.78	21.07	-51.6	-54.3	14.4	0.00e+00	0	60	0
2025-01-09 00:27:06.49	358.66	21.23	-51.7	-54.7	14.4	0.00e+00	0	60	0
2025-01-09 00:27:07.48	358.53	21.40	-51.8	-54.7	14.4	0.00e+00	0	60	0
2025-01-09 00:27:08.38	358.42	21.56	-51.8	-54.7	14.4	0.00e+00	0	60	0
2025-01-09 00:27:09.37	358.28	21.73	-52.0	-55.2	14.3	0.00e+00	0	60	0
2025-01-09 00:27:10.27	358.16	21.89	-51.7	-54.6	14.4	0.00e+00	0	60	0
2025-01-09 00:27:11.27	358.02	22.07	-51.7	-54.6	14.4	0.00e+00	0	60	0
2025-01-09 00:27:12.17	357.90	22.24	-51.4	-54.0	14.5	0.00e+00	0	60	0
2025-01-09 00:27:13.17	357.75	22.42	-51.2	-53.6	14.7	0.00e+00	0	61	0
2025-01-09 00:27:14.07	357.63	22.58	-51.0	-53.7	14.8	0.00e+00	0	61	0
2025-01-09 00:27:15.06	357.48	22.77	-50.8	-53.2	15.0	0.00e+00	0	61	0
2025-01-09 00:27:15.96	357.35	22.94	-50.7	-53.1	15.0	0.00e+00	0	61	0
2025-01-09 00:27:16.96	357.20	23.12	-50.5	-53.3	15.1	0.00e+00	0	61	0
2025-01-09 00:27:17.86	357.06	23.29	-50.7	-53.6	15.0	0.00e+00	0	61	0
2025-01-09 00:27:18.85	356.91	23.48	-50.7	-53.7	15.0	0.00e+00	0	61	0
2025-01-09 00:27:19.75	356.77	23.66	-50.7	-53.6	15.0	0.00e+00	0	61	0
2025-01-09 00:27:20.74	356.62	23.85	-50.7	-53.7	14.9	0.00e+00	0	61	0
2025-01-09 00:27:21.65	356.47	24.03	-50.7	-53.7	15.0	0.00e+00	0	61	0
2025-01-09 00:27:22.64	356.31	24.22	-50.9	-54.1	14.9	0.00e+00	0	62	0
2025-01-09 00:27:23.54	356.17	24.40	-50.8	-53.7	15.0	0.00e+00	0	61	0
2025-01-09 00:27:24.54	356.00	24.60	-50.5	-53.2	15.1	0.00e+00	0	62	0
2025-01-09 00:27:25.44	355.85	24.78	-50.4	-53.0	15.2	0.00e+00	0	62	0
2025-01-09 00:27:26.44	355.68	24.98	-50.1	-52.4	15.2	0.00e+00	0	62	0
2025-01-09 00:27:27.34	355.52	25.17	-49.8	-52.3	15.3	0.00e+00	0	62	0
2025-01-09 00:27:28.33	355.35	25.37	-49.8	-52.4	15.3	0.00e+00	0	62	0
2025-01-09 00:27:29.23	355.19	25.56	-49.6	-52.3	15.3	0.00e+00	0	62	0
2025-01-09 00:27:30.22	355.01	25.76	-49.7	-52.6	15.2	0.00e+00	0	62	0
2025-01-09 00:27:31.12	354.85	25.95	-49.7	-52.6	15.2	0.00e+00	0	62	0
2025-01-09 00:27:32.11	354.66	26.16	-49.7	-52.7	15.3	0.00e+00	0	62	0
2025-01-09 00:27:33.01	354.50	26.35	-49.9	-52.9	15.3	0.00e+00	0	62	0
2025-01-09 00:27:34.00	354.31	26.57	-49.9	-53.1	15.3	0.00e+00	0	62	0
2025-01-09 00:27:34.91	354.13	26.77	-49.8	-52.7	15.3	0.00e+00	0	62	0
2025-01-09 00:27:35.90	353.94	26.98	-49.5	-52.2	15.4	0.00e+00	0	62	0
2025-01-09 00:27:36.81	353.76	27.18	-49.6	-52.3	15.3	0.00e+00	0	62	0
2025-01-09 00:27:37.80	353.56	27.40	-49.3	-51.7	15.4	0.00e+00	0	62	0
2025-01-09 00:27:38.71	353.37	27.61	-47.8	-50.4	15.3	0.00e+00	0	62	0
2025-01-09 00:27:39.70	353.16	27.83	-48.0	-50.6	15.3	0.00e+00	0	62	0
2025-01-09 00:27:40.61	352.97	28.04	-47.9	-50.6	15.3	0.00e+00	0	62	0
2025-01-09 00:27:41.60	352.76	28.26	-48.0	-50.7	15.4	0.00e+00	0	62	0
2025-01-09 00:27:42.51	352.56	28.47	-48.1	-50.9	15.3	0.00e+00	0	63	0
2025-01-09 00:27:43.50	352.34	28.70	-47.9	-50.5	15.3	0.00e+00	0	63	0
2025-01-09 00:27:44.41	352.14	28.92	-47.8	-50.4	15.3	0.00e+00	0	63	0
2025-01-09 00:27:45.40	351.91	29.15	-48.0	-50.7	15.2	0.00e+00	0	63	0
2025-01-09 00:27:46.31	351.70	29.37	-48.1	-50.9	15.2	0.00e+00	0	63	0
2025-01-09 00:27:47.30	351.47	29.60	-47.7	-50.2	15.4	0.00e+00	0	63	0
2025-01-09 00:27:48.21	351.25	29.82	-47.5	-50.2	15.5	0.00e+00	0	63	0
2025-01-09 00:27:49.20	351.01	30.06	-47.4	-49.9	15.5	0.00e+00	0	63	0
2025-01-09 00:27:50.10	350.79	30.29	-47.3	-49.8	15.6	0.00e+00	0	63	0
2025-01-09 00:27:51.10	350.54	30.53	-47.3	-49.7	15.5	0.00e+00	0	63	0
2025-01-09 00:27:52.00	350.31	30.76	-47.3	-49.9	15.5	0.00e+00	0	63	0
2025-01-09 00:27:52.99	350.06	31.00	-47.5	-50.1	15.5	0.00e+00	0	63	0
2025-01-09 00:27:53.89	349.82	31.23	-47.3	-49.9	15.6	0.00e+00	0	63	0
2025-01-09 00:27:54.89	349.56	31.49	-47.4	-49.9	15.6	0.00e+00	0	64	0
2025-01-09 00:27:55.79	349.31	31.72	-47.3	-49.7	15.7	0.00e+00	0	63	0
2025-01-09 00:27:56.79	349.04	31.97	-47.1	-49.5	15.7	0.00e+00	0	64	0
2025-01-09 00:27:57.69	348.78	32.21	-47.0	-49.6	15.7	0.00e+00	0	64	0
2025-01-09 00:27:58.69	348.50	32.47	-46.8	-49.3	15.8	0.00e+00	0	64	0
2025-01-09 00:27:59.59	348.24	32.71	-46.7	-49.1	15.8	0.00e+00	0	64	0
2025-01-09 00:28:00.59	347.94	32.97	-46.7	-49.0	15.7	0.00e+00	0	64	0
2025-01-09 00:28:01.49	347.68	33.21	-46.8	-49.3	15.6	0.00e+00	0	64	0
2025-01-09 00:28:02.49	347.37	33.48	-46.8	-49.3	15.7	0.00e+00	0	64	0
2025-01-09 00:28:03.39	347.09	33.72	-46.9	-49.4	15.7	0.00e+00	0	64	0
2025-01-09 00:28:04.39	346.78	34.00	-46.8	-49.4	15.8	0.00e+00	0	64	0
2025-01-09 00:28:05.29	346.49	34.24	-46.8	-49.2	15.8	0.00e+00	0	64	0
2025-01-09 00:28:06.29	346.16	34.52	-46.7	-49.1	15.8	0.00e+00	0	64	0
2025-01-09 00:28:07.19	345.86	34.77	-46.6	-48.8	15.8	0.00e+00	0	64	0
2025-01-09 00:28:08.19	345.53	35.05	-46.3	-48.8	16.0	0.00e+00	0	64	0
2025-01-09 00:28:09.09	345.22	35.30	-46.3	-48.7	15.9	0.00e+00	0	64	0
2025-01-09 00:28:10.09	344.87	35.58	-46.2	-48.6	15.9	0.00e+00	0	64	0
2025-01-09 00:28:10.99	344.55	35.84	-46.3	-48.8	15.9	0.00e+00	0	64	0
2025-01-09 00:28:11.99	344.19	36.12	-46.2	-48.6	15.9	0.00e+00	0	65	0
2025-01-09 00:28:12.89	343.86	36.38	-46.2	-48.6	15.9	0.00e+00	0	64	0
2025-01-09 00:28:13.88	343.48	36.67	-46.1	-48.5	16.0	0.00e+00	0	65	0
2025-01-09 00:28:14.78	343.14	36.93	-46.0	-48.7	16.0	0.00e+00	0	65	0
2025-01-09 00:28:15.78	342.75	37.22	-45.9	-48.5	16.0	0.00e+00	0	65	0
2025-01-09 00:28:16.68	342.39	37.49	-45.8	-48.3	16.0	0.00e+00	0	65	0
2025-01-09 00:28:17.68	341.99	37.78	-45.8	-48.3	16.0	0.00e+00	0	65	0
2025-01-09 00:28:18.58	341.62	38.05	-45.7	-48.1	16.1	0.00e+00	0	65	0
2025-01-09 00:28:19.58	341.20	38.34	-45.7	-48.1	16.0	0.00e+00	0	65	0
2025-01-09 00:28:20.48	340.82	38.61	-45.7	-48.0	16.0	0.00e+00	0	65	0
2025-01-09 00:28:21.48	340.39	38.91	-45.7	-48.1	16.0	0.00e+00	0	65	0
2025-01-09 00:28:22.38	339.99	39.18	-45.6	-47.9	16.2	0.00e+00	0	65	0
2025-01-09 00:28:23.38	339.54	39.49	-45.7	-48.0	16.2	0.00e+00	0	65	0
2025-01-09 00:28:24.28	339.13	39.76	-45.5	-48.1	16.2	0.00e+00	0	65	0
2025-01-09 00:28:25.27	338.66	40.06	-45.4	-47.9	16.2	0.00e+00	0	65	0
2025-01-09 00:28:26.18	338.23	40.34	-45.3	-47.8	16.2	0.00e+00	0	65	0
2025-01-09 00:28:27.17	337.75	40.64	-45.3	-47.8	16.1	0.00e+00	0	66	0
2025-01-09 00:28:28.08	337.30	40.92	-45.3	-47.8	16.2	0.00e+00	0	66	0
2025-01-09 00:28:29.07	336.80	41.22	-45.3	-47.8	16.2	0.00e+00	0	66	0
2025-01-09 00:28:29.98	336.33	41.50	-45.2	-47.6	16.2	0.00e+00	0	65	0
2025-01-09 00:28:30.97	335.81	41.80	-45.3	-47.7	16.2	0.00e+00	0	66	0
2025-01-09 00:28:31.88	335.33	42.08	-45.2	-47.6	16.3	0.00e+00	0	66	0
2025-01-09 00:28:32.87	334.79	42.39	-45.1	-47.4	16.3	0.00e+00	0	66	0
2025-01-09 00:28:33.78	334.29	42.67	-45.2	-47.6	16.3	0.00e+00	0	66	0
2025-01-09 00:28:34.77	333.73	42.97	-45.2	-48.0	16.3	0.00e+00	0	66	0
2025-01-09 00:28:35.67	333.21	43.25	-45.2	-48.1	16.2	0.00e+00	0	66	0
2025-01-09 00:28:36.66	332.63	43.55	-45.2	-48.1	16.3	0.00e+00	0	66	0
2025-01-09 00:28:37.57	332.08	43.83	-45.4	-48.4	16.2	0.00e+00	0	66	0
2025-01-09 00:28:38.56	331.48	44.13	-45.1	-47.9	16.2	0.00e+00	0	66	0
2025-01-09 00:28:39.47	330.92	44.41	-44.9	-47.6	16.3	0.00e+00	0	66	0
2025-01-09 00:28:40.46	330.29	44.71	-44.9	-47.5	16.3	0.00e+00	0	66	0
2025-01-09 00:28:41.37	329.70	44.99	-45.0	-47.6	16.3	0.00e+00	0	66	0
2025-01-09 00:28:42.35	329.06	45.28	-44.9	-47.5	16.3	0.00e+00	0	66	0
2025-01-09 00:28:43.26	328.45	45.55	-44.9	-47.4	16.4	0.00e+00	0	66	0
2025-01-09 00:28:44.25	327.77	45.85	-45.0	-47.6	16.3	0.00e+00	0	66	0
2025-01-09 00:28:45.16	327.14	46.12	-45.0	-47.7	16.2	0.00e+00	0	67	0
2025-01-09 00:28:46.15	326.44	46.41	-44.9	-47.4	16.3	0.00e+00	0	66	0
2025-01-09 00:28:47.06	325.78	46.68	-44.8	-47.2	16.3	0.00e+00	0	66	0
2025-01-09 00:28:48.05	325.06	46.96	-44.8	-47.4	16.3	0.00e+00	0	66	0
2025-01-09 00:28:48.96	324.38	47.22	-44.9	-47.4	16.3	0.00e+00	0	66	0
2025-01-09 00:28:49.95	323.62	47.50	-44.8	-47.2	16.3	0.00e+00	0	67	0
2025-01-09 00:28:50.86	322.92	47.76	-44.7	-47.0	16.3	0.00e+00	0	66	0
2025-01-09 00:28:51.85	322.14	48.03	-45.3	-48.2	16.1	0.00e+00	0	67	0
2025-01-09 00:28:52.76	321.41	48.28	-45.0	-47.6	16.2	0.00e+00	0	66	0
2025-01-09 00:28:53.75	320.60	48.55	-44.9	-47.4	16.2	0.00e+00	0	67	0
2025-01-09 00:28:54.66	319.84	48.79	-45.0	-47.8	16.2	0.00e+00	0	66	0
2025-01-09 00:28:55.65	319.01	49.05	-45.2	-48.0	16.2	0.00e+00	0	67	0
2025-01-09 00:28:56.56	318.23	49.28	-45.1	-47.8	16.2	0.00e+00	0	67	0
2025-01-09 00:28:57.55	317.36	49.53	-45.1	-47.8	16.2	0.00e+00	0	67	0
2025-01-09 00:28:58.45	316.57	49.75	-44.9	-47.4	16.3	0.00e+00	0	67	0
2025-01-09 00:28:59.45	315.67	49.99	-44.9	-47.4	16.2	0.00e+00	0	67	0
2025-01-09 00:29:00.35	314.84	50.20	-45.2	-48.2	16.0	0.00e+00	0	67	0
2025-01-09 00:29:01.34	313.92	50.42	-45.1	-47.8	16.0	0.00e+00	0	67	0
2025-01-09 00:29:02.24	313.08	50.62	-45.1	-47.9	16.2	0.00e+00	0	67	0
2025-01-09 00:29:03.24	312.12	50.84	-45.5	-48.6	16.0	0.00e+00	0	67	0
2025-01-09 00:29:04.14	311.25	51.03	-45.3	-48.2	16.1	0.00e+00	0	67	0
2025-01-09 00:29:05.14	310.27	51.23	-45.6	-48.9	16.0	0.00e+00	0	67	0
2025-01-09 00:29:06.04	309.37	51.40	-45.7	-48.5	16.0	0.00e+00	0	67	0
2025-01-09 00:29:07.04	308.37	51.59	-45.9	-49.0	16.0	0.00e+00	0	67	0
2025-01-09 00:29:07.94	307.45	51.75	-46.2	-49.1	16.0	0.00e+00	0	67	0
2025-01-09 00:29:08.94	306.42	51.92	-46.8	-50.3	15.7	0.00e+00	0	67	0
2025-01-09 00:29:09.84	305.48	52.06	-47.1	-50.3	15.6	0.00e+00	0	67	0
2025-01-09 00:29:10.84	304.43	52.22	-46.4	-49.1	15.8	0.00e+00	0	67	0
2025-01-09 00:29:11.74	303.48	52.35	-45.9	-48.5	16.1	0.00e+00	0	68	0
2025-01-09 00:29:12.74	302.40	52.48	-46.7	-49.6	15.8	0.00e+00	0	68	0
2025-01-09 00:29:13.64	301.43	52.59	-46.0	-48.8	16.0	0.00e+00	0	67	0
2025-01-09 00:29:14.64	300.34	52.71	-46.3	-49.2	16.0	0.00e+00	0	68	0
2025-01-09 00:29:15.54	299.35	52.80	-46.4	-49.6	15.8	0.00e+00	0	67	0
2025-01-09 00:29:16.54	298.24	52.90	-46.2	-49.1	15.9	0.00e+00	0	67	0
2025-01-09 00:29:17.44	297.24	52.98	-45.9	-48.6	15.9	0.00e+00	0	68	0
2025-01-09 00:29:18.44	296.12	53.05	-46.1	-48.9	15.9	0.00e+00	0	68	0
2025-01-09 00:29:19.34	295.11	53.11	-46.5	-49.6	15.8	0.00e+00	0	68	0
2025-01-09 00:29:20.34	293.98	53.17	-46.3	-49.3	15.7	0.00e+00	0	68	0
2025-01-09 00:29:21.24	292.96	53.21	-46.2	-49.2	15.8	0.00e+00	0	68	0
2025-01-09 00:29:22.23	291.84	53.24	-46.0	-48.7	16.0	0.00e+00	0	68	0
2025-01-09 00:29:23.14	290.80	53.26	-46.2	-49.0	16.0	0.00e+00	0	68	0
2025-01-09 00:29:24.13	289.67	53.27	-46.8	-49.7	15.8	0.00e+00	0	68	0
2025-01-09 00:29:25.03	288.65	53.27	-46.6	-49.4	15.9	0.00e+00	0	68	0
2025-01-09 00:29:26.02	287.52	53.27	-46.8	-49.8	15.7	0.00e+00	0	68	0
2025-01-09 00:29:26.93	286.48	53.25	-46.5	-49.2	15.8	0.00e+00	0	68	0
2025-01-09 00:29:27.92	285.36	53.22	-46.9	-49.9	15.6	0.00e+00	0	68	0
2025-01-09 00:29:28.83	284.33	53.18	-46.9	-49.9	15.5	0.00e+00	0	68	0
2025-01-09 00:29:29.82	283.21	53.13	-46.3	-49.2	15.7	0.00e+00	0	68	0
2025-01-09 00:29:30.73	282.18	53.07	-46.7	-50.1	15.7	0.00e+00	0	68	0
2025-01-09 00:29:31.72	281.07	53.00	-46.4	-49.4	15.9	0.00e+00	0	68	0
2025-01-09 00:29:32.63	280.06	52.92	-46.7	-50.0	15.8	0.00e+00	0	68	0
2025-01-09 00:29:33.62	278.96	52.83	-46.1	-48.8	16.0	0.00e+00	0	68	0
2025-01-09 00:29:34.53	277.96	52.74	-46.4	-49.5	15.9	0.00e+00	0	68	0
2025-01-09 00:29:35.51	276.88	52.62	-46.4	-49.4	15.9	0.00e+00	0	68	0
2025-01-09 00:29:36.42	275.90	52.51	-46.6	-49.9	15.8	0.00e+00	0	68	0
2025-01-09 00:29:37.41	274.83	52.38	-46.2	-49.1	16.0	0.00e+00	0	68	0
2025-01-09 00:29:38.32	273.86	52.25	-46.8	-49.2	15.8	0.00e+00	0	68	0
2025-01-09 00:29:39.31	272.81	52.10	-47.1	-50.0	15.7	0.00e+00	0	69	0
2025-01-09 00:29:40.22	271.86	51.96	-47.2	-50.1	15.7	0.00e+00	0	68	0
2025-01-09 00:29:41.21	270.83	51.79	-47.1	-50.4	15.7	0.00e+00	0	68	0
2025-01-09 00:29:42.12	269.90	51.63	-46.8	-49.8	15.8	0.00e+00	0	68	0
2025-01-09 00:29:43.11	268.90	51.45	-46.3	-48.8	15.9	0.00e+00	0	68	0
2025-01-09 00:29:44.02	267.99	51.27	-46.0	-48.7	16.1	0.00e+00	0	69	0
2025-01-09 00:29:45.01	267.01	51.08	-46.0	-48.6	16.1	0.00e+00	0	68	0
2025-01-09 00:29:45.92	266.13	50.89	-45.7	-48.5	16.1	0.00e+00	0	69	0
2025-01-09 00:29:46.91	265.18	50.68	-45.5	-48.2	16.2	0.00e+00	0	69	0
2025-01-09 00:29:47.81	264.32	50.48	-45.6	-48.5	16.2	0.00e+00	0	69	0
2025-01-09 00:29:48.80	263.40	50.25	-45.4	-48.0	16.3	0.00e+00	0	69	0
2025-01-09 00:29:49.71	262.56	50.04	-45.4	-48.0	16.2	0.00e+00	0	69	0
2025-01-09 00:29:50.70	261.66	49.80	-45.9	-48.9	16.2	0.00e+00	0	69	0
2025-01-09 00:29:51.61	260.85	49.58	-46.1	-49.4	16.0	0.00e+00	0	69	0
2025-01-09 00:29:52.59	259.99	49.33	-45.9	-48.9	16.2	0.00e+00	0	69	0
2025-01-09 00:29:53.50	259.20	49.10	-45.8	-48.8	16.1	0.00e+00	0	69	0
2025-01-09 00:29:54.49	258.36	48.84	-45.3	-47.9	16.3	0.00e+00	0	69	0
2025-01-09 00:29:55.40	257.60	48.60	-45.1	-47.9	16.3	0.00e+00	0	69	0
2025-01-09 00:29:56.39	256.78	48.34	-45.3	-48.3	16.3	0.00e+00	0	69	0
2025-01-09 00:29:57.30	256.05	48.09	-45.2	-48.0	16.4	0.00e+00	0	69	0
2025-01-09 00:29:58.29	255.26	47.81	-45.2	-48.2	16.3	0.00e+00	0	69	0
2025-01-09 00:29:59.20	254.55	47.56	-45.4	-48.5	16.3	0.00e+00	0	69	0
2025-01-09 00:30:00.19	253.79	47.28	-45.4	-48.6	16.3	0.00e+00	0	69	0
2025-01-09 00:30:01.10	253.10	47.01	-45.6	-48.4	16.2	0.00e+00	0	69	0
2025-01-09 00:30:02.09	252.37	46.73	-45.7	-48.6	16.2	0.00e+00	0	69	0
2025-01-09 00:30:03.00	251.71	46.46	-45.8	-48.7	16.2	0.00e+00	0	69	0
2025-01-09 00:30:03.99	251.00	46.17	-45.7	-48.5	16.2	0.00e+00	0	69	0
2025-01-09 00:30:04.90	250.36	45.90	-45.6	-48.3	16.2	0.00e+00	0	69	0
2025-01-09 00:30:05.89	249.68	45.60	-45.5	-48.1	16.1	0.00e+00	0	69	0
2025-01-09 00:30:06.80	249.07	45.33	-45.4	-48.0	16.2	0.00e+00	0	69	0
2025-01-09 00:30:07.79	248.41	45.03	-45.5	-48.1	16.1	0.00e+00	0	69	0
2025-01-09 00:30:08.70	247.82	44.75	-45.7	-48.5	16.1	0.00e+00	0	69	0
2025-01-09 00:30:09.68	247.20	44.45	-45.9	-48.9	15.9	0.00e+00	0	69	0
2025-01-09 00:30:10.59	246.63	44.17	-46.1	-49.5	15.8	0.00e+00	0	69	0
2025-01-09 00:30:11.58	246.02	43.87	-45.7	-48.5	16.0	0.00e+00	0	69	0
2025-01-09 00:30:12.49	245.47	43.59	-45.7	-48.5	16.1	0.00e+00	0	69	0
2025-01-09 00:30:13.48	244.88	43.28	-45.5	-48.3	16.1	0.00e+00	0	69	0
2025-01-09 00:30:14.38	244.36	43.01	-45.5	-48.1	16.1	0.00e+00	0	70	0
2025-01-09 00:30:15.37	243.79	42.70	-45.5	-48.2	16.0	0.00e+00	0	69	0
2025-01-09 00:30:16.28	243.29	42.42	-45.6	-48.3	16.0	0.00e+00	0	69	0
2025-01-09 00:30:17.27	242.74	42.11	-45.8	-48.7	15.9	0.00e+00	0	69	0
2025-01-09 00:30:18.18	242.25	41.83	-46.0	-49.2	15.8	0.00e+00	0	69	0
2025-01-09 00:30:19.17	241.73	41.52	-46.0	-49.1	15.8	0.00e+00	0	69	0
2025-01-09 00:30:20.08	241.26	41.24	-45.8	-48.8	15.9	0.00e+00	0	70	0
2025-01-09 00:30:21.07	240.75	40.94	-45.8	-48.7	16.0	0.00e+00	0	69	0
2025-01-09 00:30:21.98	240.30	40.66	-45.7	-48.6	16.0	0.00e+00	0	70	0
2025-01-09 00:30:22.97	239.82	40.35	-45.7	-48.6	16.0	0.00e+00	0	70	0
2025-01-09 00:30:23.88	239.38	40.07	-45.8	-48.9	15.9	0.00e+00	0	70	0
2025-01-09 00:30:24.87	238.91	39.77	-46.0	-49.1	15.8	0.00e+00	0	70	0
2025-01-09 00:30:25.78	238.49	39.49	-46.3	-49.7	15.8	0.00e+00	0	70	0
2025-01-09 00:30:26.77	238.04	39.19	-46.5	-49.7	15.7	0.00e+00	0	70	0
2025-01-09 00:30:27.67	237.64	38.92	-46.4	-49.4	15.8	0.00e+00	0	70	0
2025-01-09 00:30:28.67	237.20	38.62	-46.4	-49.5	15.8	0.00e+00	0	70	0
2025-01-09 00:30:29.57	236.81	38.35	-46.8	-49.7	15.7	0.00e+00	0	70	0
2025-01-09 00:30:30.57	236.39	38.05	-46.7	-49.5	15.8	0.00e+00	0	70	0
2025-01-09 00:30:31.47	236.02	37.78	-46.6	-49.4	15.7	0.00e+00	0	70	0
2025-01-09 00:30:32.47	235.61	37.48	-46.9	-50.0	15.7	0.00e+00	0	70	0
2025-01-09 00:30:33.37	235.25	37.21	-46.7	-49.5	15.7	0.00e+00	0	70	0
2025-01-09 00:30:34.37	234.86	36.92	-47.1	-50.4	15.5	0.00e+00	0	70	0
2025-01-09 00:30:35.27	234.51	36.66	-46.7	-49.6	15.6	0.00e+00	0	70	0
2025-01-09 00:30:36.26	234.14	36.37	-46.6	-49.4	15.6	0.00e+00	0	70	0
2025-01-09 00:30:37.17	233.80	36.10	-46.5	-49.3	15.6	0.00e+00	0	70	0
2025-01-09 00:30:38.16	233.44	35.82	-46.4	-48.9	15.5	0.00e+00	0	70	0
2025-01-09 00:30:39.06	233.12	35.56	-46.3	-48.7	15.7	0.00e+00	0	70	0
2025-01-09 00:30:40.05	232.77	35.28	-46.4	-49.0	15.6	0.00e+00	0	70	0
2025-01-09 00:30:40.96	232.45	35.02	-46.6	-49.4	15.6	0.00e+00	0	70	0
2025-01-09 00:30:41.95	232.11	34.74	-46.9	-49.9	15.6	0.00e+00	0	70	0
2025-01-09 00:30:42.86	231.81	34.49	-47.1	-50.4	15.6	0.00e+00	0	70	0
2025-01-09 00:30:43.85	231.49	34.21	-47.3	-50.8	15.6	0.00e+00	0	70	0
2025-01-09 00:30:44.75	231.19	33.96	-47.2	-50.1	15.6	0.00e+00	0	70	0
2025-01-09 00:30:45.75	230.88	33.69	-47.2	-50.1	15.6	0.00e+00	0	70	0
2025-01-09 00:30:46.65	230.60	33.44	-46.9	-49.4	15.7	0.00e+00	0	70	0
2025-01-09 00:30:47.65	230.29	33.17	-47.0	-49.6	15.7	0.00e+00	0	70	0
2025-01-09 00:30:48.55	230.02	32.93	-47.0	-49.7	15.7	0.00e+00	0	70	0
2025-01-09 00:30:49.55	229.72	32.66	-47.1	-49.8	15.7	0.00e+00	0	70	0
2025-01-09 00:30:50.45	229.46	32.42	-47.1	-49.8	15.7	0.00e+00	0	70	0
2025-01-09 00:30:51.45	229.17	32.16	-47.3	-50.3	15.6	0.00e+00	0	70	0
2025-01-09 00:30:52.35	228.92	31.92	-47.4	-50.5	15.6	0.00e+00	0	70	0
2025-01-09 00:30:53.35	228.64	31.66	-47.4	-50.6	15.6	0.00e+00	0	70	0
2025-01-09 00:30:54.25	228.39	31.43	-47.7	-51.1	15.5	0.00e+00	0	70	0
2025-01-09 00:30:55.25	228.12	31.18	-47.6	-50.8	15.6	0.00e+00	0	70	0
2025-01-09 00:30:56.15	227.88	30.95	-47.5	-50.7	15.6	0.00e+00	0	70	0
2025-01-09 00:30:57.15	227.62	30.69	-47.5	-50.2	15.6	0.00e+00	0	71	0
2025-01-09 00:30:58.05	227.39	30.47	-47.5	-50.2	15.6	0.00e+00	0	70	0
2025-01-09 00:30:59.05	227.14	30.22	-47.7	-50.5	15.6	0.00e+00	0	70	0
2025-01-09 00:30:59.95	226.92	30.00	-47.7	-50.6	15.5	0.00e+00	0	70	0
2025-01-09 00:31:00.94	226.68	29.75	-47.8	-50.7	15.5	0.00e+00	0	70	0
2025-01-09 00:31:01.85	226.46	29.53	-47.9	-51.0	15.4	0.00e+00	0	71	0
2025-01-09 00:31:02.84	226.22	29.29	-48.1	-51.5	15.4	0.00e+00	0	71	0
2025-01-09 00:31:03.74	226.01	29.08	-48.1	-51.4	15.4	0.00e+00	0	70	0
2025-01-09 00:31:04.73	225.79	28.84	-48.0	-50.8	15.4	0.00e+00	0	71	0
2025-01-09 00:31:05.64	225.58	28.63	-48.1	-50.9	15.4	0.00e+00	0	71	0
2025-01-09 00:31:06.63	225.36	28.39	-47.8	-50.4	15.5	0.00e+00	0	70	0
2025-01-09 00:31:07.54	225.16	28.18	-47.9	-50.6	15.5	0.00e+00	0	71	0
2025-01-09 00:31:08.53	224.95	27.95	-47.9	-50.5	15.6	0.00e+00	0	71	0
2025-01-09 00:31:09.44	224.75	27.74	-48.0	-50.6	15.5	0.00e+00	0	71	0
2025-01-09 00:31:10.43	224.54	27.52	-48.0	-50.8	15.4	0.00e+00	0	71	0
2025-01-09 00:31:11.34	224.36	27.31	-48.2	-51.0	15.4	0.00e+00	0	71	0
2025-01-09 00:31:12.33	224.15	27.09	-48.3	-51.4	15.3	0.00e+00	0	71	0
2025-01-09 00:31:13.24	223.97	26.89	-48.4	-51.5	15.3	0.00e+00	0	71	0
2025-01-09 00:31:14.23	223.78	26.67	-48.7	-52.2	15.2	0.00e+00	0	71	0
2025-01-09 00:31:15.14	223.60	26.47	-48.7	-52.0	15.2	0.00e+00	0	71	0
2025-01-09 00:31:16.13	223.41	26.26	-48.9	-51.9	15.1	0.00e+00	0	71	0
2025-01-09 00:31:17.04	223.24	26.06	-48.4	-51.0	15.3	0.00e+00	0	71	0
2025-01-09 00:31:18.03	223.05	25.85	-48.5	-51.1	15.3	0.00e+00	0	71	0
2025-01-09 00:31:18.94	222.88	25.65	-48.5	-51.2	15.3	0.00e+00	0	71	0
2025-01-09 00:31:19.92	222.71	25.45	-48.5	-51.2	15.4	0.00e+00	0	71	0
2025-01-09 00:31:20.83	222.54	25.26	-48.6	-51.4	15.3	0.00e+00	0	71	0
2025-01-09 00:31:21.82	222.37	25.05	-48.8	-51.7	15.3	0.00e+00	0	71	0
2025-01-09 00:31:22.73	222.21	24.87	-48.9	-52.0	15.2	0.00e+00	0	71	0
2025-01-09 00:31:23.72	222.04	24.66	-49.4	-52.4	15.0	0.00e+00	0	71	0
2025-01-09 00:31:24.63	221.88	24.48	-49.4	-52.6	15.0	0.00e+00	0	71	0
2025-01-09 00:31:25.62	221.72	24.28	-49.5	-52.6	15.0	0.00e+00	0	71	0
2025-01-09 00:31:26.52	221.57	24.10	-49.6	-52.9	14.9	0.00e+00	0	71	0
2025-01-09 00:31:27.51	221.41	23.90	-49.5	-52.8	14.9	0.00e+00	0	71	0
2025-01-09 00:31:28.42	221.26	23.72	-49.4	-52.5	14.9	0.00e+00	0	71	0
2025-01-09 00:31:29.41	221.11	23.53	-49.2	-52.1	15.1	0.00e+00	0	71	0
2025-01-09 00:31:30.32	220.96	23.36	-49.2	-52.2	15.0	0.00e+00	0	71	0
2025-01-09 00:31:31.31	220.81	23.16	-49.1	-51.9	15.1	0.00e+00	0	71	0
2025-01-09 00:31:32.22	220.67	22.99	-49.2	-52.1	15.0	0.00e+00	0	71	0
2025-01-09 00:31:33.21	220.52	22.80	-49.4	-52.5	14.9	0.00e+00	0	71	0
2025-01-09 00:31:34.12	220.39	22.63	-49.4	-52.5	14.9	0.00e+00	0	71	0
2025-01-09 00:31:35.11	220.24	22.45	-49.4	-52.6	14.9	0.00e+00	0	71	0
2025-01-09 00:31:36.02	220.11	22.28	-50.9	-55.0	14.8	0.00e+00	0	71	0
2025-01-09 00:31:37.01	219.97	22.10	-50.9	-54.1	15.0	0.00e+00	0	72	0
2025-01-09 00:31:37.91	219.84	21.93	-51.1	-54.3	15.0	0.00e+00	0	71	0
2025-01-09 00:31:38.91	219.71	21.75	-51.2	-54.6	14.9	0.00e+00	0	71	0
2025-01-09 00:31:39.81	219.58	21.59	-51.0	-54.2	15.0	0.00e+00	0	71	0
2025-01-09 00:31:40.81	219.45	21.41	-51.3	-54.7	14.9	0.00e+00	0	71	0
2025-01-09 00:31:41.71	219.33	21.25	-51.1	-53.9	15.0	0.00e+00	0	71	0
2025-01-09 00:31:42.71	219.19	21.08	-50.9	-53.6	15.0	0.00e+00	0	71	0
2025-01-09 00:31:43.61	219.08	20.92	-50.8	-53.3	15.1	0.00e+00	0	72	0
2025-01-09 00:31:44.61	218.95	20.75	-50.8	-53.3	15.1	0.00e+00	0	71	0
2025-01-09 00:31:45.51	218.83	20.59	-50.8	-53.4	15.1	0.00e+00	0	72	0
2025-01-09 00:31:46.51	218.71	20.42	-51.0	-53.7	15.0	0.00e+00	0	71	0
2025-01-09 00:31:47.41	218.59	20.27	-51.0	-53.7	15.0	0.00e+00	0	71	0
2025-01-09 00:31:48.40	218.47	20.10	-51.0	-53.8	15.0	0.00e+00	0	71	0
2025-01-09 00:31:49.30	218.36	19.95	-51.2	-54.1	14.9	0.00e+00	0	71	0
2025-01-09 00:31:50.30	218.24	19.79	-51.3	-54.4	14.8	0.00e+00	0	71	0
2025-01-09 00:31:51.20	218.14	19.64	-51.5	-54.8	14.7	0.00e+00	0	71	0
2025-01-09 00:31:52.20	218.02	19.47	-51.6	-54.9	14.7	0.00e+00	0	71	0
2025-01-09 00:31:53.10	217.91	19.33	-51.7	-55.1	14.7	0.00e+00	0	71	0
2025-01-09 00:31:54.10	217.80	19.17	-51.6	-55.0	14.7	0.00e+00	0	71	0
2025-01-09 00:31:55.00	217.70	19.02	-51.7	-55.2	14.6	0.00e+00	0	71	0
2025-01-09 00:31:56.00	217.58	18.86	-51.8	-55.3	14.6	0.00e+00	0	71	0
2025-01-09 00:31:56.90	217.49	18.72	-51.5	-54.8	14.7	0.00e+00	0	71	0
2025-01-09 00:31:57.90	217.38	18.56	-51.5	-54.7	14.8	0.00e+00	0	72	0
2025-01-09 00:31:58.80	217.28	18.42	-51.6	-54.9	14.7	0.00e+00	0	72	0
2025-01-09 00:31:59.80	217.17	18.27	-68.0	-74.0	3.7	0.00e+00	0	71	104
2025-01-09 00:32:00.70	217.08	18.13	-68.0	-74.0	3.6	0.00e+00	0	71	104
2025-01-09 00:32:01.70	216.97	17.98	-67.9	-74.0	3.6	0.00e+00	0	71	104
2025-01-09 00:32:02.60	216.88	17.84	-68.0	-74.1	3.6	0.00e+00	0	71	104
2025-01-09 00:32:03.60	216.78	17.69	-68.0	-74.0	3.6	0.00e+00	0	71	104
2025-01-09 00:32:04.50	216.69	17.56	-68.0	-74.0	3.7	0.00e+00	0	71	104
2025-01-09 00:32:05.50	216.58	17.41	-68.0	-74.0	3.6	0.00e+00	0	71	104
2025-01-09 00:32:06.40	216.50	17.28	-67.9	-73.9	3.7	0.00e+00	0	71	104
2025-01-09 00:32:07.40	216.40	17.13	-67.9	-73.9	3.6	0.00e+00	0	71	104
2025-01-09 00:32:08.30	216.31	17.00	-67.9	-73.8	3.7	0.00e+00	0	71	104
2025-01-09 00:32:09.29	216.22	16.86	-67.9	-73.8	3.7	0.00e+00	0	71	104
2025-01-09 00:32:10.19	216.13	16.73	-67.9	-73.7	3.6	0.00e+00	0	71	104
2025-01-09 00:32:11.19	216.04	16.58	-67.9	-73.7	3.7	0.00e+00	0	71	104
2025-01-09 00:32:12.09	215.95	16.46	-67.9	-73.8	3.6	0.00e+00	0	71	104
2025-01-09 00:32:13.09	215.86	16.32	-67.9	-73.9	3.6	0.00e+00	0	71	104
2025-01-09 00:32:13.99	215.78	16.19	-67.9	-73.8	3.6	0.00e+00	0	71	104
2025-01-09 00:32:14.99	215.69	16.05	-67.9	-73.8	3.6	0.00e+00	0	71	104
2025-01-09 00:32:15.89	215.61	15.93	-68.0	-73.9	3.7	0.00e+00	0	71	104
2025-01-09 00:32:16.89	215.52	15.79	-68.0	-73.9	3.6	0.00e+00	0	71	104
2025-01-09 00:32:17.79	215.44	15.67	-68.0	-73.9	3.7	0.00e+00	0	71	104
2025-01-09 00:32:18.79	215.36	15.53	-68.0	-73.9	3.6	0.00e+00	0	71	104
2025-01-09 00:32:19.69	215.28	15.41	-68.0	-73.9	3.7	0.00e+00	0	71	104
2025-01-09 00:32:20.69	215.20	15.28	-68.0	-73.8	3.7	0.00e+00	0	71	104
2025-01-09 00:32:21.59	215.12	15.16	-68.0	-73.8	3.6	0.00e+00	0	71	104
2025-01-09 00:32:22.59	215.04	15.02	-68.0	-73.8	3.7	0.00e+00	0	71	104
2025-01-09 00:32:23.49	214.96	14.91	-68.0	-73.9	3.6	0.00e+00	0	71	104
2025-01-09 00:32:24.49	214.88	14.78	-68.0	-73.8	3.7	0.00e+00	0	71	104
2025-01-09 00:32:25.39	214.81	14.66	-68.0	-73.8	3.6	0.00e+00	0	71	104
2025-01-09 00:32:26.39	214.73	14.53	-68.0	-73.7	3.6	0.00e+00	0	71	104
2025-01-09 00:32:27.29	214.66	14.41	-68.0	-73.7	3.7	0.00e+00	0	71	104
2025-01-09 00:32:28.29	214.58	14.29	-68.0	-73.8	3.6	0.00e+00	0	71	104
2025-01-09 00:32:29.19	214.51	14.17	-68.0	-73.8	3.7	0.00e+00	0	71	104
2025-01-09 00:32:30.18	214.44	14.05	-68.0	-73.8	3.6	0.00e+00	0	71	104
2025-01-09 00:32:31.09	214.37	13.93	-68.0	-73.7	3.6	0.00e+00	0	71	104
2025-01-09 00:32:32.08	214.29	13.81	-67.9	-73.6	3.7	0.00e+00	0	71	104
2025-01-09 00:32:32.98	214.23	13.70	-67.9	-73.6	3.6	0.00e+00	0	71	104
2025-01-09 00:32:33.97	214.15	13.58	-67.9	-73.6	3.7	0.00e+00	0	71	104
2025-01-09 00:32:34.88	214.09	13.47	-67.9	-73.5	3.6	0.00e+00	0	71	104
2025-01-09 00:32:35.87	214.02	13.35	-67.9	-73.5	3.6	0.00e+00	0	71	104
2025-01-09 00:32:36.78	213.95	13.24	-67.9	-73.6	3.6	0.00e+00	0	71	104
2025-01-09 00:32:37.77	213.88	13.12	-67.9	-73.6	3.6	0.00e+00	0	71	104
2025-01-09 00:32:38.68	213.82	13.01	-67.9	-73.6	3.7	0.00e+00	0	71	104
2025-01-09 00:32:39.67	213.75	12.89	-67.8	-73.6	3.6	0.00e+00	0	71	104
2025-01-09 00:32:40.58	213.69	12.78	-67.8	-73.6	3.7	0.00e+00	0	71	104
2025-01-09 00:32:41.57	213.62	12.67	-67.8	-73.6	3.6	0.00e+00	0	71	104
2025-01-09 00:32:42.48	213.56	12.56	-67.8	-73.7	3.7	0.00e+00	0	71	104
2025-01-09 00:32:43.47	213.49	12.45	-67.9	-73.7	3.6	0.00e+00	0	71	104
2025-01-09 00:32:44.38	213.43	12.34	-67.9	-73.7	3.6	0.00e+00	0	71	104
2025-01-09 00:32:45.37	213.36	12.23	-67.9	-73.7	3.7	0.00e+00	0	71	104
2025-01-09 00:32:46.28	213.31	12.12	-67.8	-73.6	3.6	0.00e+00	0	71	104
2025-01-09 00:32:47.26	213.24	12.01	-67.8	-73.6	3.7	0.00e+00	0	71	104
2025-01-09 00:32:48.17	213.18	11.91	-67.8	-73.5	3.6	0.00e+00	0	71	104
2025-01-09 00:32:49.16	213.12	11.80	-67.8	-73.5	3.6	0.00e+00	0	71	104
2025-01-09 00:32:50.07	213.06	11.70	-67.8	-73.6	3.6	0.00e+00	0	71	104
2025-01-09 00:32:51.06	213.00	11.59	-67.8	-73.5	3.6	0.00e+00	0	71	104
2025-01-09 00:32:51.97	212.95	11.49	-67.8	-73.5	3.7	0.00e+00	0	71	104
2025-01-09 00:32:52.96	212.89	11.38	-67.8	-73.5	3.6	0.00e+00	0	71	104
2025-01-09 00:32:53.87	212.83	11.28	-67.7	-73.5	3.7	0.00e+00	0	71	104
2025-01-09 00:32:54.86	212.77	11.17	-67.7	-73.5	3.6	0.00e+00	0	71	104
2025-01-09 00:32:55.76	212.72	11.07	-67.7	-73.3	3.7	0.00e+00	0	71	104
2025-01-09 00:32:56.75	212.66	10.97	-67.6	-73.1	3.6	0.00e+00	0	71	104
2025-01-09 00:32:57.66	212.61	10.87	-67.6	-73.0	3.6	0.00e+00	0	71	104
2025-01-09 00:32:58.65	212.55	10.76	-67.6	-73.1	3.7	0.00e+00	0	71	104
2025-01-09 00:32:59.56	212.50	10.67	-67.5	-72.9	3.6	0.00e+00	0	71	104
2025-01-09 00:33:00.55	212.44	10.56	-67.6	-73.1	3.7	0.00e+00	0	71	104
2025-01-09 00:33:01.46	212.39	10.47	-67.6	-73.0	3.6	0.00e+00	0	71	104
2025-01-09 00:33:02.45	212.33	10.36	-67.7	-73.2	3.6	0.00e+00	0	71	104
2025-01-09 00:33:03.36	212.28	10.27	-67.7	-73.2	3.7	0.00e+00	0	71	104
2025-01-09 00:33:04.35	212.23	10.17	-67.7	-73.2	3.6	0.00e+00	0	71	104
2025-01-09 00:33:05.25	212.18	10.07	-67.7	-73.2	3.7	0.00e+00	0	71	104
2025-01-09 00:33:06.25	212.12	9.97	-67.7	-73.2	3.6	0.00e+00	0	71	104
2025-01-09 00:33:07.15	212.08	9.88	-67.7	-73.0	3.6	0.00e+00	0	71	104
2025-01-09 00:33:08.15	212.02	9.78	-67.6	-72.9	3.7	0.00e+00	0	71	104
2025-01-09 00:33:09.05	211.97	9.69	-67.6	-72.8	3.6	0.00e+00	0	71	104
2025-01-09 00:33:10.05	211.92	9.59	-67.6	-72.7	3.7	0.00e+00	0	71	104
2025-01-09 00:33:10.95	211.88	9.50	-67.4	-72.4	3.6	0.00e+00	0	71	104
2025-01-09 00:33:11.95	211.82	9.40	-67.5	-72.5	3.6	0.00e+00	0	71	104
2025-01-09 00:33:12.85	211.78	9.31	-67.5	-72.5	3.6	0.00e+00	0	71	104
2025-01-09 00:33:13.85	211.73	9.21	-67.5	-72.6	3.6	0.00e+00	0	71	104
2025-01-09 00:33:14.75	211.68	9.12	-67.5	-72.7	3.7	0.00e+00	0	71	104
2025-01-09 00:33:15.75	211.63	9.02	-67.6	-72.9	3.6	0.00e+00	0	71	104
2025-01-09 00:33:16.65	211.59	8.94	-67.6	-73.0	3.7	0.00e+00	0	71	104
2025-01-09 00:33:17.64	211.54	8.84	-67.6	-73.0	3.6	0.00e+00	0	71	104
2025-01-09 00:33:18.54	211.50	8.76	-67.6	-73.0	3.7	0.00e+00	0	71	104
2025-01-09 00:33:19.54	211.45	8.66	-67.6	-73.0	3.7	0.00e+00	0	71	104
2025-01-09 00:33:20.44	211.40	8.57	-67.6	-73.0	3.6	0.00e+00	0	71	104
2025-01-09 00:33:21.44	211.36	8.48	-67.6	-72.9	3.7	0.00e+00	0	71	104
2025-01-09 00:33:22.34	211.31	8.39	-67.6	-72.9	3.6	0.00e+00	0	71	104
2025-01-09 00:33:23.34	211.27	8.30	-67.5	-72.7	3.7	0.00e+00	0	71	104
2025-01-09 00:33:24.24	211.23	8.22	-67.5	-72.9	3.6	0.00e+00	0	71	104
2025-01-09 00:33:25.24	211.18	8.12	-67.5	-72.7	3.6	0.00e+00	0	71	104
2025-01-09 00:33:26.14	211.14	8.04	-67.8	-73.4	3.7	0.00e+00	0	71	104
2025-01-09 00:33:27.14	211.09	7.95	-67.3	-72.6	3.6	0.00e+00	0	71	104

#Closed at: 2025-01-09 00:33:27
#Recorded file [25274 MB]: D:/data/31015_250109_123158.dat