passes_logs/2025/01/09/PPK-1/PPK-1__20250109_105735_TY-41_rec.log

#Pass ID: 20250109_105735_TY-41
#Satellite: TY-41
#Configuration: TY-39
#almurnet v.1.7.20230919.trace
#Start time: 2025-01-09 10:57:34

#Version: 2.2.20231116
#Station: PPK-1
#Location: 158.6 lon 53.06666 lat
#TLE: 1 61231U 24173E   25008.85676764  .00003832  00000+0  18544-3 0  9994
#TLE: 2 61231  97.4118  85.8617 0001777  86.7136 273.4302 15.19172156 16155

#Time	Az	El	Level	Level2	SNR	BER	BlckErr	Temp	State
2025-01-09 10:57:34.85	155.13	7.94	-63.7	-69.2	3.4	0.00e+00	0	46	0
2025-01-09 10:57:35.75	155.10	8.02	-62.4	-68.8	3.7	0.00e+00	0	46	104
2025-01-09 10:57:36.74	155.08	8.12	-62.1	-68.1	3.3	0.00e+00	0	46	104
2025-01-09 10:57:37.65	155.05	8.20	-62.4	-68.5	3.4	0.00e+00	0	46	104
2025-01-09 10:57:38.64	155.02	8.30	-63.0	-68.9	3.3	0.00e+00	0	46	104
2025-01-09 10:57:39.55	155.00	8.39	-63.0	-68.6	3.5	0.00e+00	0	47	104
2025-01-09 10:57:40.54	154.97	8.48	-63.0	-68.2	3.7	0.00e+00	0	47	104
2025-01-09 10:57:41.45	154.94	8.57	-63.8	-69.1	3.4	0.00e+00	0	47	104
2025-01-09 10:57:42.44	154.92	8.67	-64.2	-69.9	3.7	0.00e+00	0	47	104
2025-01-09 10:57:43.35	154.89	8.75	-64.3	-69.8	3.4	0.00e+00	0	47	104
2025-01-09 10:57:44.34	154.86	8.85	-64.6	-69.9	3.5	0.00e+00	0	47	104
2025-01-09 10:57:45.24	154.84	8.94	-65.1	-70.5	3.4	0.00e+00	0	47	104
2025-01-09 10:57:46.23	154.81	9.04	-65.5	-70.9	3.4	0.00e+00	0	48	104
2025-01-09 10:57:47.14	154.78	9.13	-65.9	-71.3	3.7	0.00e+00	0	48	104
2025-01-09 10:57:48.13	154.75	9.23	-66.0	-71.4	3.5	0.00e+00	0	48	104
2025-01-09 10:57:49.03	154.72	9.32	-66.1	-71.6	3.7	0.00e+00	0	48	104
2025-01-09 10:57:50.03	154.69	9.42	-66.1	-71.7	3.4	0.00e+00	0	48	104
2025-01-09 10:57:50.93	154.66	9.51	-66.0	-71.5	3.6	0.00e+00	0	49	104
2025-01-09 10:57:51.93	154.63	9.61	-65.9	-71.3	3.7	0.00e+00	0	49	104
2025-01-09 10:57:52.83	154.60	9.70	-65.7	-70.9	3.4	0.00e+00	0	49	104
2025-01-09 10:57:53.83	154.57	9.81	-65.4	-70.3	3.6	0.00e+00	0	49	104
2025-01-09 10:57:54.73	154.54	9.90	-65.1	-70.1	3.4	0.00e+00	0	49	104
2025-01-09 10:57:55.73	154.51	10.01	-64.6	-69.5	3.5	0.00e+00	0	49	104
2025-01-09 10:57:56.63	154.48	10.10	-64.1	-69.3	3.3	0.00e+00	0	49	104
2025-01-09 10:57:57.63	154.45	10.21	-63.5	-69.4	3.4	0.00e+00	0	50	104
2025-01-09 10:57:58.53	154.42	10.30	-63.1	-69.3	3.7	0.00e+00	0	50	104
2025-01-09 10:57:59.53	154.38	10.41	-62.5	-69.0	3.4	0.00e+00	0	50	104
2025-01-09 10:58:00.43	154.35	10.50	-62.1	-68.8	3.7	0.00e+00	0	50	104
2025-01-09 10:58:01.43	154.32	10.61	-61.7	-68.5	3.4	0.00e+00	0	50	104
2025-01-09 10:58:02.33	154.29	10.71	-61.6	-68.6	3.5	0.00e+00	0	50	104
2025-01-09 10:58:03.33	154.25	10.82	-61.7	-69.2	3.7	0.00e+00	0	50	104
2025-01-09 10:58:04.23	154.22	10.92	-61.9	-69.5	3.4	0.00e+00	0	51	104
2025-01-09 10:58:05.23	154.19	11.03	-62.1	-69.6	3.7	0.00e+00	0	51	104
2025-01-09 10:58:06.13	154.16	11.13	-62.4	-69.8	3.4	0.00e+00	0	51	104
2025-01-09 10:58:07.12	154.12	11.24	-62.8	-69.8	3.5	0.00e+00	0	51	104
2025-01-09 10:58:08.03	154.09	11.34	-63.4	-70.1	3.5	0.00e+00	0	51	104
2025-01-09 10:58:09.02	154.05	11.45	-63.7	-70.0	3.5	0.00e+00	0	51	104
2025-01-09 10:58:09.92	154.02	11.55	-64.0	-70.4	3.7	0.00e+00	0	51	104
2025-01-09 10:58:10.91	153.98	11.66	-64.4	-70.3	3.4	0.00e+00	0	52	104
2025-01-09 10:58:11.82	153.95	11.77	-55.2	-57.7	9.8	0.00e+00	498	52	104
2025-01-09 10:58:12.81	153.91	11.88	-55.4	-58.2	10.0	4.97e-03	0	52	0
2025-01-09 10:58:13.72	153.87	11.99	-54.0	-56.9	10.9	3.63e-03	0	52	0
2025-01-09 10:58:14.70	153.83	12.10	-54.9	-58.2	10.3	1.88e-03	0	53	0
2025-01-09 10:58:15.61	153.80	12.21	-56.7	-60.4	8.9	9.02e-03	0	53	0
2025-01-09 10:58:16.60	153.76	12.32	-56.4	-59.4	8.9	3.21e-02	0	53	0
2025-01-09 10:58:17.51	153.72	12.43	-54.1	-56.6	10.5	1.54e-02	0	53	0
2025-01-09 10:58:18.49	153.68	12.55	-53.5	-56.4	11.1	1.14e-03	0	53	0
2025-01-09 10:58:19.40	153.65	12.66	-53.3	-55.9	11.3	5.20e-04	0	53	0
2025-01-09 10:58:20.39	153.60	12.78	-53.1	-55.5	11.8	4.30e-04	0	54	0
2025-01-09 10:58:21.29	153.57	12.89	-52.8	-55.3	12.4	1.66e-04	0	54	0
2025-01-09 10:58:22.29	153.53	13.01	-52.5	-55.3	12.8	6.90e-06	0	54	0
2025-01-09 10:58:23.19	153.49	13.12	-52.5	-55.3	13.0	1.38e-05	0	54	0
2025-01-09 10:58:24.18	153.44	13.24	-52.4	-55.2	13.2	0.00e+00	0	54	0
2025-01-09 10:58:25.09	153.41	13.35	-52.4	-55.1	13.3	1.38e-05	0	54	0
2025-01-09 10:58:26.08	153.36	13.48	-52.3	-54.9	13.4	1.38e-05	0	55	0
2025-01-09 10:58:26.98	153.32	13.59	-52.3	-54.8	13.4	6.90e-06	0	54	0
2025-01-09 10:58:27.97	153.28	13.72	-52.3	-54.8	13.3	0.00e+00	0	55	0
2025-01-09 10:58:28.88	153.24	13.83	-52.3	-54.8	13.3	0.00e+00	0	55	0
2025-01-09 10:58:29.86	153.19	13.96	-52.3	-54.8	13.5	0.00e+00	0	55	0
2025-01-09 10:58:30.77	153.15	14.08	-52.2	-54.6	13.6	6.90e-06	0	55	0
2025-01-09 10:58:31.75	153.10	14.20	-52.3	-54.7	13.7	0.00e+00	0	55	0
2025-01-09 10:58:32.66	153.06	14.32	-52.3	-54.7	13.8	0.00e+00	0	55	0
2025-01-09 10:58:33.65	153.01	14.45	-52.2	-54.5	13.9	0.00e+00	0	55	0
2025-01-09 10:58:34.55	152.97	14.57	-52.2	-54.5	13.8	6.90e-06	0	55	0
2025-01-09 10:58:35.55	152.92	14.71	-52.1	-54.4	13.8	0.00e+00	0	55	0
2025-01-09 10:58:36.45	152.88	14.83	-52.0	-54.7	13.8	0.00e+00	0	56	0
2025-01-09 10:58:37.44	152.83	14.96	-52.0	-54.6	13.7	0.00e+00	0	56	0
2025-01-09 10:58:38.34	152.78	15.08	-52.0	-54.6	13.5	0.00e+00	0	56	0
2025-01-09 10:58:39.33	152.73	15.22	-51.9	-54.5	13.6	0.00e+00	0	56	0
2025-01-09 10:58:40.24	152.69	15.34	-51.8	-54.2	13.7	0.00e+00	0	56	0
2025-01-09 10:58:41.22	152.64	15.48	-51.7	-54.1	13.7	0.00e+00	0	56	0
2025-01-09 10:58:42.13	152.59	15.61	-51.7	-54.0	13.7	0.00e+00	0	56	0
2025-01-09 10:58:43.12	152.54	15.75	-51.7	-54.1	13.8	0.00e+00	0	57	0
2025-01-09 10:58:44.03	152.49	15.88	-51.7	-54.0	13.8	0.00e+00	0	57	0
2025-01-09 10:58:45.02	152.43	16.02	-51.6	-54.0	13.6	0.00e+00	0	57	0
2025-01-09 10:58:45.92	152.38	16.15	-51.5	-54.2	13.7	0.00e+00	0	57	0
2025-01-09 10:58:46.92	152.33	16.29	-51.5	-54.1	13.7	0.00e+00	0	57	0
2025-01-09 10:58:47.82	152.28	16.42	-51.4	-54.1	13.6	2.08e-05	0	57	0
2025-01-09 10:58:48.81	152.22	16.57	-51.4	-54.1	13.7	0.00e+00	0	57	0
2025-01-09 10:58:49.71	152.17	16.70	-51.4	-54.0	13.5	0.00e+00	0	57	0
2025-01-09 10:58:50.70	152.11	16.85	-51.4	-54.1	13.5	0.00e+00	0	58	0
2025-01-09 10:58:51.60	152.06	16.98	-51.4	-54.0	13.8	0.00e+00	0	58	0
2025-01-09 10:58:52.60	152.00	17.14	-51.4	-54.0	14.0	0.00e+00	0	58	0
2025-01-09 10:58:53.50	151.95	17.27	-51.3	-53.8	14.2	0.00e+00	0	58	0
2025-01-09 10:58:54.49	151.89	17.43	-51.2	-53.7	14.3	0.00e+00	0	58	0
2025-01-09 10:58:55.40	151.83	17.57	-51.2	-53.6	14.5	0.00e+00	0	58	0
2025-01-09 10:58:56.39	151.77	17.72	-51.2	-53.6	14.6	0.00e+00	0	58	0
2025-01-09 10:58:57.29	151.71	17.86	-51.2	-53.5	14.8	0.00e+00	0	58	0
2025-01-09 10:58:58.29	151.65	18.02	-51.1	-53.4	15.0	0.00e+00	0	58	0
2025-01-09 10:58:59.19	151.59	18.16	-51.1	-53.4	15.1	0.00e+00	0	58	0
2025-01-09 10:59:00.18	151.53	18.32	-51.1	-53.3	15.2	0.00e+00	0	58	0
2025-01-09 10:59:01.08	151.47	18.47	-51.1	-53.9	15.1	0.00e+00	0	59	0
2025-01-09 10:59:02.07	151.40	18.63	-51.0	-53.7	15.1	0.00e+00	0	59	0
2025-01-09 10:59:02.97	151.34	18.78	-51.0	-53.6	15.1	0.00e+00	0	58	0
2025-01-09 10:59:03.97	151.27	18.94	-51.0	-53.6	15.1	0.00e+00	0	59	0
2025-01-09 10:59:04.87	151.21	19.09	-50.9	-53.5	15.2	0.00e+00	0	59	0
2025-01-09 10:59:05.87	151.14	19.26	-50.9	-53.6	15.2	0.00e+00	0	59	0
2025-01-09 10:59:06.77	151.08	19.41	-51.0	-53.6	15.2	0.00e+00	0	59	0
2025-01-09 10:59:07.77	151.01	19.58	-50.9	-53.4	15.2	0.00e+00	0	59	0
2025-01-09 10:59:08.67	150.94	19.74	-50.9	-53.4	15.1	0.00e+00	0	59	0
2025-01-09 10:59:09.67	150.87	19.91	-50.8	-53.2	15.1	0.00e+00	0	60	0
2025-01-09 10:59:10.57	150.80	20.07	-50.8	-53.2	15.2	0.00e+00	0	60	0
2025-01-09 10:59:11.57	150.72	20.25	-50.7	-53.0	15.2	0.00e+00	0	60	0
2025-01-09 10:59:12.47	150.65	20.41	-50.6	-52.9	15.3	0.00e+00	0	60	0
2025-01-09 10:59:13.46	150.58	20.58	-50.6	-53.3	15.3	0.00e+00	0	60	0
2025-01-09 10:59:14.36	150.51	20.75	-50.5	-53.2	15.2	0.00e+00	0	60	0
2025-01-09 10:59:15.36	150.43	20.93	-50.5	-53.1	15.1	0.00e+00	0	60	0
2025-01-09 10:59:16.26	150.35	21.09	-50.4	-53.0	15.1	0.00e+00	0	60	0
2025-01-09 10:59:17.25	150.27	21.28	-50.3	-52.9	15.1	0.00e+00	0	60	0
2025-01-09 10:59:18.16	150.20	21.45	-50.4	-52.9	15.1	0.00e+00	0	60	0
2025-01-09 10:59:19.15	150.12	21.64	-50.3	-52.7	15.1	0.00e+00	0	61	0
2025-01-09 10:59:20.06	150.04	21.81	-50.3	-52.7	15.1	0.00e+00	0	60	0
2025-01-09 10:59:21.05	149.95	22.00	-50.3	-52.7	15.1	0.00e+00	0	61	0
2025-01-09 10:59:21.96	149.87	22.17	-50.2	-52.6	15.2	0.00e+00	0	61	0
2025-01-09 10:59:22.95	149.79	22.37	-50.2	-52.5	15.4	0.00e+00	0	61	0
2025-01-09 10:59:23.86	149.70	22.55	-50.1	-52.4	15.5	0.00e+00	0	61	0
2025-01-09 10:59:24.85	149.61	22.74	-50.0	-52.7	15.4	0.00e+00	0	61	0
2025-01-09 10:59:25.76	149.53	22.93	-50.0	-52.6	15.3	0.00e+00	0	61	0
2025-01-09 10:59:26.75	149.44	23.13	-49.9	-52.5	15.2	0.00e+00	0	61	0
2025-01-09 10:59:27.66	149.35	23.31	-49.9	-52.5	15.2	0.00e+00	0	61	0
2025-01-09 10:59:28.65	149.25	23.51	-49.8	-52.2	15.2	0.00e+00	0	61	0
2025-01-09 10:59:29.56	149.17	23.70	-49.7	-52.1	15.4	0.00e+00	0	61	0
2025-01-09 10:59:30.55	149.07	23.91	-49.7	-52.1	15.4	0.00e+00	0	61	0
2025-01-09 10:59:31.46	148.98	24.10	-49.7	-52.0	15.6	0.00e+00	0	61	0
2025-01-09 10:59:32.45	148.87	24.31	-49.7	-52.1	15.7	0.00e+00	0	61	0
2025-01-09 10:59:33.36	148.78	24.51	-49.8	-52.2	15.8	0.00e+00	0	62	0
2025-01-09 10:59:34.34	148.68	24.72	-49.7	-52.1	15.8	0.00e+00	0	62	0
2025-01-09 10:59:35.25	148.58	24.92	-49.7	-52.0	15.9	0.00e+00	0	62	0
2025-01-09 10:59:36.24	148.47	25.14	-49.7	-52.1	15.8	0.00e+00	0	62	0
2025-01-09 10:59:37.15	148.37	25.34	-49.7	-52.1	15.7	0.00e+00	0	62	0
2025-01-09 10:59:38.14	148.26	25.57	-49.5	-52.1	15.9	0.00e+00	0	62	0
2025-01-09 10:59:39.04	148.16	25.77	-49.5	-52.0	15.9	0.00e+00	0	62	0
2025-01-09 10:59:40.03	148.04	26.00	-49.4	-51.9	15.8	0.00e+00	0	62	0
2025-01-09 10:59:40.94	147.94	26.21	-49.4	-51.9	15.8	0.00e+00	0	62	0
2025-01-09 10:59:41.93	147.82	26.44	-49.3	-51.8	15.9	0.00e+00	0	62	0
2025-01-09 10:59:42.84	147.71	26.65	-49.3	-51.7	15.9	0.00e+00	0	62	0
2025-01-09 10:59:43.83	147.59	26.89	-49.3	-51.7	15.9	0.00e+00	0	62	0
2025-01-09 10:59:44.74	147.48	27.11	-49.3	-51.6	15.9	0.00e+00	0	62	0
2025-01-09 10:59:45.73	147.35	27.35	-49.1	-51.3	15.9	0.00e+00	0	62	0
2025-01-09 10:59:46.64	147.23	27.57	-48.0	-50.6	15.6	0.00e+00	0	62	0
2025-01-09 10:59:47.63	147.10	27.82	-47.8	-50.3	15.7	0.00e+00	0	62	0
2025-01-09 10:59:48.54	146.98	28.04	-47.8	-50.3	15.8	0.00e+00	0	62	0
2025-01-09 10:59:49.53	146.85	28.29	-47.8	-50.3	15.8	0.00e+00	0	62	0
2025-01-09 10:59:50.44	146.72	28.53	-47.8	-50.1	15.8	0.00e+00	0	63	0
2025-01-09 10:59:51.43	146.58	28.78	-47.8	-50.2	15.8	0.00e+00	0	63	0
2025-01-09 10:59:52.33	146.46	29.01	-47.7	-50.0	15.8	0.00e+00	0	63	0
2025-01-09 10:59:53.33	146.31	29.28	-47.9	-50.3	15.8	0.00e+00	0	63	0
2025-01-09 10:59:54.23	146.18	29.52	-47.7	-50.0	15.9	0.00e+00	0	63	0
2025-01-09 10:59:55.23	146.03	29.78	-47.7	-50.1	15.8	0.00e+00	0	63	0
2025-01-09 10:59:56.13	145.89	30.03	-47.7	-50.0	15.8	0.00e+00	0	63	0
2025-01-09 10:59:57.13	145.74	30.30	-47.5	-50.2	15.8	0.00e+00	0	63	0
2025-01-09 10:59:58.03	145.60	30.55	-47.6	-50.2	15.9	0.00e+00	0	63	0
2025-01-09 10:59:59.03	145.43	30.83	-47.5	-50.2	16.0	0.00e+00	0	63	0
2025-01-09 10:59:59.93	145.29	31.08	-47.6	-50.3	16.0	0.00e+00	0	63	0
2025-01-09 11:00:00.92	145.12	31.36	-47.5	-50.0	16.0	0.00e+00	0	63	0
2025-01-09 11:00:01.82	144.97	31.62	-47.4	-49.9	16.0	0.00e+00	0	64	0
2025-01-09 11:00:02.82	144.80	31.91	-47.4	-49.9	16.1	0.00e+00	0	64	0
2025-01-09 11:00:03.72	144.64	32.17	-47.3	-49.8	16.1	0.00e+00	0	64	0
2025-01-09 11:00:04.72	144.46	32.47	-47.3	-49.8	16.0	0.00e+00	0	63	0
2025-01-09 11:00:05.62	144.29	32.73	-47.3	-49.8	15.9	0.00e+00	0	64	0
2025-01-09 11:00:06.62	144.11	33.04	-47.4	-49.9	15.8	0.00e+00	0	64	0
2025-01-09 11:00:07.52	143.94	33.31	-47.4	-49.9	15.8	0.00e+00	0	64	0
2025-01-09 11:00:08.52	143.74	33.62	-47.3	-49.8	15.9	0.00e+00	0	64	0
2025-01-09 11:00:09.42	143.57	33.90	-47.3	-49.8	15.9	0.00e+00	0	64	0
2025-01-09 11:00:10.42	143.36	34.21	-47.5	-50.2	15.7	0.00e+00	0	64	0
2025-01-09 11:00:11.32	143.18	34.49	-47.7	-50.4	15.6	0.00e+00	0	64	0
2025-01-09 11:00:12.32	142.97	34.81	-47.6	-50.3	15.8	0.00e+00	0	64	0
2025-01-09 11:00:13.22	142.78	35.11	-47.5	-50.2	16.0	0.00e+00	0	64	0
2025-01-09 11:00:14.22	142.56	35.43	-47.4	-50.0	16.0	0.00e+00	0	64	0
2025-01-09 11:00:15.12	142.36	35.73	-47.6	-50.4	16.0	0.00e+00	0	64	0
2025-01-09 11:00:16.12	142.13	36.06	-47.7	-50.5	16.0	0.00e+00	0	64	0
2025-01-09 11:00:17.02	141.92	36.36	-47.7	-50.4	16.0	0.00e+00	0	64	0
2025-01-09 11:00:18.02	141.69	36.70	-47.5	-50.2	16.0	0.00e+00	0	64	0
2025-01-09 11:00:18.92	141.47	37.01	-47.7	-50.5	15.9	0.00e+00	0	64	0
2025-01-09 11:00:19.92	141.22	37.36	-48.2	-51.5	15.7	0.00e+00	0	64	0
2025-01-09 11:00:20.82	140.99	37.67	-51.4	-55.3	15.1	0.00e+00	0	65	0
2025-01-09 11:00:21.81	140.74	38.02	-51.5	-54.7	14.8	0.00e+00	0	65	0
2025-01-09 11:00:22.71	140.50	38.34	-51.4	-54.4	14.8	0.00e+00	0	65	0
2025-01-09 11:00:23.71	140.23	38.70	-51.4	-54.5	15.0	0.00e+00	0	65	0
2025-01-09 11:00:24.61	139.98	39.03	-51.6	-54.9	14.9	0.00e+00	0	65	0
2025-01-09 11:00:25.61	139.70	39.40	-51.8	-55.2	14.9	0.00e+00	0	65	0
2025-01-09 11:00:26.51	139.44	39.73	-51.8	-54.8	14.8	0.00e+00	0	65	0
2025-01-09 11:00:27.51	139.15	40.11	-52.3	-55.7	14.5	0.00e+00	0	65	0
2025-01-09 11:00:28.41	138.87	40.45	-52.0	-54.7	14.7	0.00e+00	0	65	0
2025-01-09 11:00:29.41	138.56	40.83	-51.6	-53.8	14.8	0.00e+00	0	65	0
2025-01-09 11:00:30.31	138.28	41.17	-51.4	-54.0	14.7	0.00e+00	0	65	0
2025-01-09 11:00:31.31	137.95	41.56	-51.5	-54.3	14.6	0.00e+00	0	65	0
2025-01-09 11:00:32.21	137.66	41.91	-52.0	-55.1	14.4	0.00e+00	0	65	0
2025-01-09 11:00:33.21	137.32	42.31	-52.0	-55.1	14.4	0.00e+00	0	65	0
2025-01-09 11:00:34.11	137.00	42.67	-52.3	-55.4	14.2	0.00e+00	0	65	0
2025-01-09 11:00:35.11	136.64	43.07	-52.1	-54.9	14.4	0.00e+00	0	66	0
2025-01-09 11:00:36.01	136.31	43.43	-52.2	-55.1	14.5	0.00e+00	0	65	0
2025-01-09 11:00:37.01	135.94	43.84	-52.0	-54.8	14.7	0.00e+00	0	66	0
2025-01-09 11:00:37.91	135.59	44.21	-52.5	-55.7	14.5	0.00e+00	0	66	0
2025-01-09 11:00:38.91	135.19	44.63	-52.9	-56.0	14.3	0.00e+00	0	66	0
2025-01-09 11:00:39.81	134.83	45.00	-53.1	-56.3	14.2	0.00e+00	0	66	0
2025-01-09 11:00:40.81	134.41	45.43	-53.3	-56.4	14.0	0.00e+00	0	66	0
2025-01-09 11:00:41.71	134.03	45.81	-52.4	-55.1	14.3	0.00e+00	0	66	0
2025-01-09 11:00:42.70	133.59	46.23	-52.3	-54.8	14.4	0.00e+00	0	66	0
2025-01-09 11:00:43.61	133.18	46.62	-52.7	-55.5	14.3	0.00e+00	0	66	0
2025-01-09 11:00:44.60	132.72	47.05	-52.8	-55.7	14.2	0.00e+00	0	66	0
2025-01-09 11:00:45.50	132.29	47.45	-53.3	-56.3	13.9	1.38e-05	0	66	0
2025-01-09 11:00:46.49	131.81	47.88	-53.3	-56.2	13.9	6.90e-06	0	66	0
2025-01-09 11:00:47.40	131.35	48.28	-52.6	-54.9	14.3	0.00e+00	0	66	0
2025-01-09 11:00:48.39	130.84	48.72	-52.6	-55.0	14.2	0.00e+00	0	66	0
2025-01-09 11:00:49.30	130.35	49.13	-52.9	-55.4	14.0	0.00e+00	0	66	0
2025-01-09 11:00:50.29	129.81	49.57	-53.0	-55.7	13.9	0.00e+00	0	66	0
2025-01-09 11:00:51.20	129.29	49.98	-53.4	-56.6	13.6	0.00e+00	0	66	0
2025-01-09 11:00:52.19	128.72	50.43	-53.0	-55.6	14.1	0.00e+00	0	66	0
2025-01-09 11:00:53.10	128.17	50.84	-53.0	-55.7	14.1	0.00e+00	0	66	0
2025-01-09 11:00:54.09	127.56	51.29	-52.8	-55.3	14.3	0.00e+00	0	66	0
2025-01-09 11:00:55.00	126.99	51.71	-53.2	-56.1	14.1	0.00e+00	0	67	0
2025-01-09 11:00:55.99	126.34	52.16	-53.3	-56.3	13.9	0.00e+00	0	67	0
2025-01-09 11:00:56.90	125.73	52.58	-53.8	-56.9	13.7	0.00e+00	0	67	0
2025-01-09 11:00:57.89	125.04	53.03	-53.5	-56.2	13.8	0.00e+00	0	67	0
2025-01-09 11:00:58.80	124.39	53.45	-53.2	-55.7	14.1	6.90e-06	0	67	0
2025-01-09 11:00:59.79	123.65	53.91	-53.2	-55.6	14.0	0.00e+00	0	67	0
2025-01-09 11:01:00.70	122.96	54.32	-53.4	-56.1	13.6	0.00e+00	0	67	0
2025-01-09 11:01:01.68	122.19	54.77	-53.8	-56.9	13.4	0.00e+00	0	67	0
2025-01-09 11:01:02.59	121.45	55.19	-54.1	-57.4	13.4	0.00e+00	0	67	0
2025-01-09 11:01:03.58	120.63	55.64	-53.6	-56.3	13.7	0.00e+00	0	67	0
2025-01-09 11:01:04.49	119.84	56.05	-53.4	-56.1	13.9	0.00e+00	0	67	0
2025-01-09 11:01:05.48	118.96	56.50	-53.7	-56.6	13.7	0.00e+00	0	67	0
2025-01-09 11:01:06.39	118.12	56.91	-53.5	-56.2	14.0	0.00e+00	0	67	0
2025-01-09 11:01:07.38	117.18	57.35	-54.0	-57.2	13.6	0.00e+00	0	67	0
2025-01-09 11:01:08.28	116.30	57.75	-54.0	-57.2	13.2	6.90e-06	0	67	0
2025-01-09 11:01:09.27	115.30	58.18	-53.7	-56.7	13.1	0.00e+00	0	67	0
2025-01-09 11:01:10.18	114.36	58.58	-53.6	-56.4	13.4	0.00e+00	0	67	0
2025-01-09 11:01:11.17	113.29	59.00	-53.9	-57.0	13.5	1.38e-05	0	67	0
2025-01-09 11:01:12.08	112.28	59.38	-54.0	-57.3	13.3	0.00e+00	0	67	0
2025-01-09 11:01:13.07	111.15	59.79	-54.3	-57.7	13.2	6.90e-06	0	67	0
2025-01-09 11:01:13.98	110.08	60.17	-54.2	-57.1	13.5	0.00e+00	0	67	0
2025-01-09 11:01:14.97	108.87	60.56	-54.1	-56.9	13.7	0.00e+00	0	67	0
2025-01-09 11:01:15.88	107.73	60.92	-54.2	-57.1	13.7	0.00e+00	0	68	0
2025-01-09 11:01:16.87	106.46	61.30	-54.2	-57.2	13.5	0.00e+00	0	67	0
2025-01-09 11:01:17.78	105.25	61.63	-54.3	-57.4	13.4	0.00e+00	0	68	0
2025-01-09 11:01:18.77	103.89	61.99	-54.5	-57.6	13.4	0.00e+00	0	68	0
2025-01-09 11:01:19.67	102.63	62.31	-54.7	-58.1	13.3	6.90e-06	0	68	0
2025-01-09 11:01:20.67	101.18	62.64	-54.6	-57.9	13.2	1.38e-05	0	68	0
2025-01-09 11:01:21.57	99.85	62.94	-54.9	-58.0	13.2	6.90e-06	0	68	0
2025-01-09 11:01:22.57	98.33	63.25	-55.0	-58.2	13.2	0.00e+00	0	68	0
2025-01-09 11:01:23.47	96.93	63.51	-55.0	-58.3	13.1	2.08e-05	0	68	0
2025-01-09 11:01:24.47	95.33	63.79	-55.0	-58.2	13.0	1.38e-05	0	68	0
2025-01-09 11:01:25.37	93.86	64.03	-55.1	-58.4	13.0	2.77e-05	0	68	0
2025-01-09 11:01:26.37	92.20	64.27	-55.0	-58.3	13.0	2.08e-05	0	68	0
2025-01-09 11:01:27.27	90.67	64.48	-55.1	-57.9	13.0	2.08e-05	0	68	0
2025-01-09 11:01:28.27	88.94	64.69	-55.4	-58.5	12.8	6.90e-06	0	68	0
2025-01-09 11:01:29.17	87.35	64.86	-55.2	-58.0	12.9	0.00e+00	0	68	0
2025-01-09 11:01:30.16	85.58	65.03	-55.1	-57.9	13.0	6.90e-06	0	68	0
2025-01-09 11:01:31.06	83.95	65.16	-55.4	-58.5	12.5	1.38e-05	0	68	0
2025-01-09 11:01:32.06	82.12	65.29	-55.0	-57.8	12.9	4.85e-05	0	68	0
2025-01-09 11:01:32.96	80.45	65.39	-54.9	-57.6	12.9	2.08e-05	0	68	0
2025-01-09 11:01:33.96	78.59	65.47	-54.8	-57.3	12.4	6.90e-06	0	68	0
2025-01-09 11:01:34.86	76.89	65.53	-54.6	-57.4	12.3	5.54e-05	0	68	0
2025-01-09 11:01:35.86	75.01	65.57	-54.4	-57.1	13.2	6.90e-06	0	68	0
2025-01-09 11:01:36.76	73.30	65.58	-53.6	-56.5	12.2	4.16e-05	0	68	0
2025-01-09 11:01:37.76	71.41	65.58	-53.5	-56.2	13.5	6.90e-06	0	68	0
2025-01-09 11:01:38.66	69.71	65.55	-53.5	-56.2	13.5	0.00e+00	0	68	0
2025-01-09 11:01:39.66	67.83	65.50	-53.1	-55.4	14.1	0.00e+00	0	68	0
2025-01-09 11:01:40.56	66.14	65.44	-52.6	-55.4	14.2	0.00e+00	0	68	0
2025-01-09 11:01:41.56	64.28	65.34	-52.2	-54.6	14.5	0.00e+00	0	69	0
2025-01-09 11:01:42.46	62.62	65.24	-51.8	-54.3	14.9	0.00e+00	0	68	0
2025-01-09 11:01:43.46	60.80	65.10	-51.2	-53.5	15.0	0.00e+00	0	69	0
2025-01-09 11:01:44.36	59.18	64.96	-50.8	-53.7	15.3	0.00e+00	0	68	0
2025-01-09 11:01:45.36	57.41	64.78	-50.4	-53.0	15.4	0.00e+00	0	69	0
2025-01-09 11:01:46.26	55.84	64.60	-50.2	-53.1	15.4	0.00e+00	0	69	0
2025-01-09 11:01:47.26	54.12	64.38	-49.9	-52.5	15.5	0.00e+00	0	69	0
2025-01-09 11:01:48.16	52.61	64.17	-49.7	-52.1	15.7	0.00e+00	0	69	0
2025-01-09 11:01:49.16	50.96	63.91	-49.4	-52.0	15.9	0.00e+00	0	69	0
2025-01-09 11:01:50.06	49.51	63.67	-48.0	-50.7	15.7	0.00e+00	0	69	0
2025-01-09 11:01:51.05	47.95	63.38	-48.1	-50.8	15.7	0.00e+00	0	69	0
2025-01-09 11:01:51.95	46.57	63.11	-48.2	-51.0	15.3	0.00e+00	0	69	0
2025-01-09 11:01:52.95	45.07	62.80	-48.4	-51.4	15.6	0.00e+00	0	69	0
2025-01-09 11:01:53.85	43.75	62.50	-47.9	-50.3	15.8	0.00e+00	0	69	0
2025-01-09 11:01:54.85	42.33	62.16	-48.0	-50.6	15.7	0.00e+00	0	69	0
2025-01-09 11:01:55.75	41.08	61.84	-47.9	-50.4	15.8	0.00e+00	0	69	0
2025-01-09 11:01:56.75	39.73	61.47	-47.4	-50.0	15.9	0.00e+00	0	69	0
2025-01-09 11:01:57.65	38.56	61.13	-46.7	-49.1	16.2	0.00e+00	0	69	0
2025-01-09 11:01:58.65	37.29	60.75	-47.0	-49.6	16.1	0.00e+00	0	69	0
2025-01-09 11:01:59.55	36.18	60.39	-47.1	-49.8	16.0	0.00e+00	0	69	0
2025-01-09 11:02:00.55	34.98	59.99	-47.0	-49.6	16.1	0.00e+00	0	69	0
2025-01-09 11:02:01.45	33.93	59.62	-46.9	-49.5	16.2	0.00e+00	0	69	0
2025-01-09 11:02:02.45	32.81	59.20	-46.9	-49.5	16.3	0.00e+00	0	69	0
2025-01-09 11:02:03.35	31.83	58.82	-46.3	-48.8	16.4	0.00e+00	0	69	0
2025-01-09 11:02:04.35	30.77	58.39	-46.1	-48.3	16.5	0.00e+00	0	69	0
2025-01-09 11:02:05.25	29.85	58.00	-46.1	-48.8	16.4	0.00e+00	0	69	0
2025-01-09 11:02:06.25	28.86	57.56	-46.1	-48.9	16.4	0.00e+00	0	69	0
2025-01-09 11:02:07.15	27.99	57.16	-46.1	-48.8	16.5	0.00e+00	0	69	0
2025-01-09 11:02:08.15	27.06	56.72	-46.2	-49.0	16.2	0.00e+00	0	69	0
2025-01-09 11:02:09.05	26.24	56.32	-45.7	-48.0	16.5	0.00e+00	0	69	0
2025-01-09 11:02:10.05	25.37	55.86	-45.2	-47.5	16.7	0.00e+00	0	69	0
2025-01-09 11:02:10.95	24.61	55.46	-45.5	-48.1	16.7	0.00e+00	0	70	0
2025-01-09 11:02:11.94	23.79	55.01	-45.2	-47.6	16.6	0.00e+00	0	70	0
2025-01-09 11:02:12.85	23.07	54.59	-45.5	-48.1	16.6	0.00e+00	0	70	0
2025-01-09 11:02:13.84	22.30	54.14	-45.3	-47.7	16.7	0.00e+00	0	69	0
2025-01-09 11:02:14.74	21.63	53.73	-45.0	-47.7	16.8	0.00e+00	0	70	0
2025-01-09 11:02:15.73	20.91	53.27	-45.0	-47.7	16.8	0.00e+00	0	69	0
2025-01-09 11:02:16.64	20.27	52.86	-45.3	-48.2	16.5	0.00e+00	0	70	0
2025-01-09 11:02:17.63	19.59	52.40	-45.2	-48.0	16.6	0.00e+00	0	70	0
2025-01-09 11:02:18.54	18.99	51.99	-45.4	-48.4	16.7	0.00e+00	0	70	0
2025-01-09 11:02:19.53	18.35	51.54	-45.2	-48.1	16.7	0.00e+00	0	70	0
2025-01-09 11:02:20.44	17.78	51.13	-45.1	-47.9	16.7	0.00e+00	0	70	0
2025-01-09 11:02:21.43	17.18	50.68	-45.2	-48.1	16.7	0.00e+00	0	70	0
2025-01-09 11:02:22.34	16.64	50.27	-45.2	-48.0	16.6	0.00e+00	0	70	0
2025-01-09 11:02:23.33	16.08	49.82	-45.4	-48.4	16.6	0.00e+00	0	70	0
2025-01-09 11:02:24.24	15.57	49.41	-45.3	-48.3	16.7	0.00e+00	0	70	0
2025-01-09 11:02:25.23	15.04	48.97	-45.3	-48.3	16.7	0.00e+00	0	70	0
2025-01-09 11:02:26.14	14.56	48.57	-45.4	-48.3	16.5	0.00e+00	0	69	0
2025-01-09 11:02:27.13	14.05	48.13	-45.4	-48.4	16.6	0.00e+00	0	70	0
2025-01-09 11:02:28.04	13.60	47.73	-45.4	-48.4	16.7	0.00e+00	0	70	0
2025-01-09 11:02:29.02	13.13	47.31	-45.6	-48.9	16.6	0.00e+00	0	70	0
2025-01-09 11:02:29.93	12.70	46.91	-45.6	-48.8	16.6	0.00e+00	0	70	0
2025-01-09 11:02:30.92	12.25	46.49	-45.4	-48.5	16.6	0.00e+00	0	70	0
2025-01-09 11:02:31.83	11.85	46.10	-45.5	-48.6	16.6	0.00e+00	0	70	0
2025-01-09 11:02:32.82	11.42	45.68	-45.6	-48.8	16.6	0.00e+00	0	70	0
2025-01-09 11:02:33.73	11.03	45.29	-45.5	-48.6	16.7	0.00e+00	0	70	0
2025-01-09 11:02:34.72	10.63	44.88	-45.8	-48.6	16.5	0.00e+00	0	70	0
2025-01-09 11:02:35.63	10.26	44.50	-45.7	-48.5	16.5	0.00e+00	0	70	0
2025-01-09 11:02:36.62	9.88	44.09	-45.6	-48.3	16.6	0.00e+00	0	70	0
2025-01-09 11:02:37.52	9.53	43.73	-45.6	-48.3	16.6	0.00e+00	0	70	0
2025-01-09 11:02:38.51	9.17	43.32	-45.5	-48.2	16.6	0.00e+00	0	70	0
2025-01-09 11:02:39.42	8.84	42.96	-45.5	-48.2	16.6	0.00e+00	0	70	0
2025-01-09 11:02:40.41	8.49	42.56	-45.7	-48.6	16.6	0.00e+00	0	70	0
2025-01-09 11:02:41.32	8.17	42.20	-45.7	-48.6	16.5	0.00e+00	0	70	0
2025-01-09 11:02:42.31	7.84	41.82	-45.7	-48.5	16.5	0.00e+00	0	70	0
2025-01-09 11:02:43.22	7.54	41.46	-45.7	-48.4	16.5	0.00e+00	0	70	0
2025-01-09 11:02:44.21	7.23	41.08	-45.7	-48.6	16.5	0.00e+00	0	70	0
2025-01-09 11:02:45.12	6.94	40.74	-45.8	-48.7	16.5	0.00e+00	0	70	0
2025-01-09 11:02:46.11	6.64	40.36	-45.9	-48.9	16.5	0.00e+00	0	70	0
2025-01-09 11:02:47.01	6.37	40.03	-46.0	-49.1	16.4	0.00e+00	0	70	0
2025-01-09 11:02:48.01	6.08	39.65	-45.9	-49.0	16.5	0.00e+00	0	70	0
2025-01-09 11:02:48.91	5.82	39.32	-45.9	-49.0	16.4	0.00e+00	0	70	0
2025-01-09 11:02:49.91	5.54	38.96	-45.8	-48.8	16.5	0.00e+00	0	70	0
2025-01-09 11:02:50.81	5.30	38.64	-45.9	-49.0	16.5	0.00e+00	0	70	0
2025-01-09 11:02:51.81	5.03	38.28	-46.0	-49.0	16.5	0.00e+00	0	70	0
2025-01-09 11:02:52.71	4.80	37.96	-46.0	-49.2	16.4	0.00e+00	0	70	0
2025-01-09 11:02:53.71	4.54	37.61	-46.1	-49.4	16.4	0.00e+00	0	70	0
2025-01-09 11:02:54.61	4.32	37.30	-46.2	-49.5	16.4	0.00e+00	0	70	0
2025-01-09 11:02:55.61	4.07	36.96	-46.1	-49.3	16.4	0.00e+00	0	71	0
2025-01-09 11:02:56.51	3.86	36.65	-46.1	-49.3	16.4	0.00e+00	0	70	0
2025-01-09 11:02:57.51	3.62	36.31	-46.1	-49.3	16.5	0.00e+00	0	70	0
2025-01-09 11:02:58.41	3.42	36.01	-46.1	-49.4	16.5	0.00e+00	0	71	0
2025-01-09 11:02:59.40	3.20	35.69	-46.2	-49.5	16.5	0.00e+00	0	71	0
2025-01-09 11:03:00.30	3.00	35.39	-46.3	-49.6	16.4	0.00e+00	0	71	0
2025-01-09 11:03:01.30	2.78	35.07	-46.4	-49.4	16.3	0.00e+00	0	70	0
2025-01-09 11:03:02.20	2.59	34.78	-46.4	-49.5	16.3	0.00e+00	0	70	0
2025-01-09 11:03:03.20	2.39	34.46	-46.4	-49.4	16.3	0.00e+00	0	70	0
2025-01-09 11:03:04.10	2.20	34.18	-46.4	-49.4	16.3	0.00e+00	0	71	0
2025-01-09 11:03:05.10	2.00	33.87	-46.5	-49.6	16.3	0.00e+00	0	71	0
2025-01-09 11:03:06.00	1.83	33.59	-46.5	-49.6	16.3	0.00e+00	0	71	0
2025-01-09 11:03:07.00	1.64	33.29	-46.5	-49.7	16.3	0.00e+00	0	71	0
2025-01-09 11:03:07.90	1.47	33.02	-46.5	-49.7	16.3	0.00e+00	0	71	0
2025-01-09 11:03:08.90	1.28	32.72	-46.7	-49.9	16.2	0.00e+00	0	71	0
2025-01-09 11:03:09.80	1.12	32.45	-46.7	-50.1	16.3	0.00e+00	0	71	0
2025-01-09 11:03:10.80	0.94	32.16	-46.7	-50.0	16.3	0.00e+00	0	71	0
2025-01-09 11:03:11.70	0.79	31.90	-46.7	-50.1	16.3	0.00e+00	0	71	0
2025-01-09 11:03:12.70	0.62	31.61	-46.8	-50.2	16.1	0.00e+00	0	71	0
2025-01-09 11:03:13.60	0.47	31.35	-46.9	-49.9	15.9	0.00e+00	0	71	0
2025-01-09 11:03:14.60	0.30	31.07	-46.9	-50.0	15.9	0.00e+00	0	71	0
2025-01-09 11:03:15.50	0.16	30.82	-47.0	-50.1	16.0	0.00e+00	0	71	0
2025-01-09 11:03:16.50	360.00	30.55	-47.0	-50.1	16.0	0.00e+00	0	71	0
2025-01-09 11:03:17.40	359.86	30.30	-47.1	-50.3	16.1	0.00e+00	0	71	0
2025-01-09 11:03:18.40	359.70	30.03	-47.1	-50.4	16.0	0.00e+00	0	71	0
2025-01-09 11:03:19.30	359.57	29.79	-47.2	-50.5	16.1	0.00e+00	0	71	0
2025-01-09 11:03:20.29	359.42	29.53	-47.2	-50.5	16.1	0.00e+00	0	71	0
2025-01-09 11:03:21.20	359.29	29.29	-47.2	-50.6	16.0	0.00e+00	0	71	0
2025-01-09 11:03:22.19	359.15	29.03	-47.4	-50.4	16.0	0.00e+00	0	71	0
2025-01-09 11:03:23.09	359.02	28.80	-47.5	-50.5	15.9	0.00e+00	0	71	0
2025-01-09 11:03:24.08	358.88	28.54	-47.5	-50.6	15.8	0.00e+00	0	71	0
2025-01-09 11:03:24.99	358.76	28.32	-47.5	-50.7	15.7	0.00e+00	0	71	0
2025-01-09 11:03:25.98	358.63	28.07	-47.5	-50.7	15.7	0.00e+00	0	71	0
2025-01-09 11:03:26.89	358.51	27.84	-47.5	-50.7	15.8	0.00e+00	0	71	0
2025-01-09 11:03:27.88	358.38	27.60	-47.6	-50.9	15.8	0.00e+00	0	71	0
2025-01-09 11:03:28.79	358.26	27.38	-47.7	-51.1	15.9	0.00e+00	0	71	0
2025-01-09 11:03:29.78	358.14	27.14	-47.7	-51.1	16.0	0.00e+00	0	71	0
2025-01-09 11:03:30.69	358.03	26.92	-47.9	-51.0	16.0	0.00e+00	0	71	0
2025-01-09 11:03:31.68	357.91	26.69	-47.9	-51.0	16.0	0.00e+00	0	71	0
2025-01-09 11:03:32.59	357.80	26.48	-48.0	-51.2	15.9	0.00e+00	0	71	0
2025-01-09 11:03:33.58	357.68	26.25	-67.9	-73.7	3.7	0.00e+00	0	71	104
2025-01-09 11:03:34.49	357.58	26.04	-67.9	-73.6	3.6	0.00e+00	0	71	104
2025-01-09 11:03:35.48	357.46	25.81	-67.8	-73.3	3.6	0.00e+00	0	71	104
2025-01-09 11:03:36.39	357.36	25.61	-67.8	-73.3	3.7	0.00e+00	0	71	104
2025-01-09 11:03:37.38	357.25	25.39	-67.5	-72.7	3.6	0.00e+00	0	71	104
2025-01-09 11:03:38.29	357.15	25.18	-67.4	-72.6	3.7	0.00e+00	0	71	104
2025-01-09 11:03:39.27	357.05	24.97	-67.6	-73.1	3.6	0.00e+00	0	71	104
2025-01-09 11:03:40.18	356.95	24.77	-67.7	-73.2	3.7	0.00e+00	0	71	104
2025-01-09 11:03:41.17	356.85	24.56	-67.7	-73.4	3.7	0.00e+00	0	71	104
2025-01-09 11:03:42.08	356.76	24.36	-68.0	-73.9	3.6	0.00e+00	0	71	104
2025-01-09 11:03:43.07	356.66	24.15	-68.1	-74.0	3.7	0.00e+00	0	71	104
2025-01-09 11:03:43.98	356.57	23.96	-68.0	-73.9	3.6	0.00e+00	0	71	104
2025-01-09 11:03:44.97	356.47	23.76	-67.9	-73.6	3.6	0.00e+00	0	71	104
2025-01-09 11:03:45.87	356.38	23.57	-67.8	-73.3	3.6	0.00e+00	0	71	104
2025-01-09 11:03:46.86	356.29	23.37	-67.7	-73.1	3.6	0.00e+00	0	71	104
2025-01-09 11:03:47.77	356.20	23.19	-67.7	-73.0	3.7	0.00e+00	0	71	104
2025-01-09 11:03:48.76	356.11	22.99	-67.7	-73.1	3.6	0.00e+00	0	71	104
2025-01-09 11:03:49.67	356.03	22.81	-67.8	-73.2	3.7	0.00e+00	0	71	104
2025-01-09 11:03:50.66	355.94	22.61	-67.8	-73.5	3.6	0.00e+00	0	71	104
2025-01-09 11:03:51.57	355.86	22.43	-67.8	-73.6	3.7	0.00e+00	0	71	104
2025-01-09 11:03:52.56	355.77	22.24	-67.8	-73.6	3.7	0.00e+00	0	71	104
2025-01-09 11:03:53.47	355.69	22.07	-67.9	-73.7	3.6	0.00e+00	0	71	104
2025-01-09 11:03:54.46	355.61	21.88	-68.0	-73.8	3.7	0.00e+00	0	71	104
2025-01-09 11:03:55.37	355.53	21.71	-68.0	-73.8	3.6	0.00e+00	0	71	104
2025-01-09 11:03:56.35	355.45	21.52	-67.9	-73.6	3.7	0.00e+00	0	71	104
2025-01-09 11:03:57.26	355.38	21.35	-67.7	-73.4	3.6	0.00e+00	0	71	104
2025-01-09 11:03:58.25	355.30	21.17	-67.6	-73.2	3.6	0.00e+00	0	71	104
2025-01-09 11:03:59.16	355.22	21.01	-67.5	-73.2	3.7	0.00e+00	0	71	104
2025-01-09 11:04:00.15	355.15	20.83	-67.4	-73.1	3.6	0.00e+00	0	71	104
2025-01-09 11:04:01.06	355.08	20.66	-67.4	-73.1	3.7	0.00e+00	0	71	104
2025-01-09 11:04:02.05	355.00	20.49	-67.3	-73.1	3.6	0.00e+00	0	71	104
2025-01-09 11:04:02.96	354.93	20.33	-67.4	-73.2	3.7	0.00e+00	0	71	104
2025-01-09 11:04:03.95	354.86	20.15	-67.5	-73.3	3.6	0.00e+00	0	71	104
2025-01-09 11:04:04.86	354.79	19.99	-67.5	-73.3	3.6	0.00e+00	0	71	104
2025-01-09 11:04:05.85	354.72	19.82	-67.6	-73.4	3.7	0.00e+00	0	71	104
2025-01-09 11:04:06.76	354.65	19.67	-67.7	-73.4	3.6	0.00e+00	0	71	104
2025-01-09 11:04:07.75	354.58	19.50	-67.7	-73.4	3.7	0.00e+00	0	71	104
2025-01-09 11:04:08.65	354.52	19.35	-67.6	-73.2	3.6	0.00e+00	0	71	104
2025-01-09 11:04:09.64	354.45	19.18	-67.4	-72.9	3.6	0.00e+00	0	71	104
2025-01-09 11:04:10.55	354.39	19.03	-67.3	-72.7	3.7	0.00e+00	0	71	104
2025-01-09 11:04:11.54	354.32	18.87	-67.2	-72.5	3.6	0.00e+00	0	71	104
2025-01-09 11:04:12.45	354.26	18.72	-67.1	-72.3	3.7	0.00e+00	0	71	104
2025-01-09 11:04:13.44	354.20	18.56	-67.1	-72.8	3.6	0.00e+00	0	71	104
2025-01-09 11:04:14.34	354.14	18.42	-67.1	-72.7	3.7	0.00e+00	0	71	104
2025-01-09 11:04:15.34	354.07	18.26	-67.1	-72.8	3.6	0.00e+00	0	71	104
2025-01-09 11:04:16.24	354.02	18.11	-67.2	-72.9	3.7	0.00e+00	0	71	104
2025-01-09 11:04:17.24	353.96	17.96	-67.2	-73.0	3.7	0.00e+00	0	71	104
2025-01-09 11:04:18.14	353.90	17.82	-67.3	-73.2	3.6	0.00e+00	0	71	104
2025-01-09 11:04:19.14	353.84	17.66	-67.4	-73.4	3.7	0.00e+00	0	71	104
2025-01-09 11:04:20.04	353.78	17.52	-67.4	-73.4	3.6	0.00e+00	0	71	104
2025-01-09 11:04:21.04	353.72	17.37	-67.5	-73.5	3.6	0.00e+00	0	71	104
2025-01-09 11:04:21.94	353.67	17.24	-67.6	-73.7	3.6	0.00e+00	0	71	104
2025-01-09 11:04:22.94	353.61	17.08	-67.7	-73.8	3.6	0.00e+00	0	71	104
2025-01-09 11:04:23.84	353.56	16.95	-67.7	-73.2	3.7	0.00e+00	0	71	104
2025-01-09 11:04:24.84	353.50	16.80	-67.8	-73.3	3.6	0.00e+00	0	71	104
2025-01-09 11:04:25.74	353.45	16.67	-67.8	-73.3	3.7	0.00e+00	0	71	104
2025-01-09 11:04:26.74	353.40	16.52	-67.7	-73.2	3.6	0.00e+00	0	71	104
2025-01-09 11:04:27.64	353.35	16.39	-67.5	-73.1	3.6	0.00e+00	0	71	104
2025-01-09 11:04:28.64	353.29	16.25	-67.4	-72.8	3.7	0.00e+00	0	71	104
2025-01-09 11:04:29.54	353.25	16.12	-67.3	-72.8	3.6	0.00e+00	0	71	104
2025-01-09 11:04:30.54	353.19	15.98	-67.2	-72.7	3.7	0.00e+00	0	71	104
2025-01-09 11:04:31.44	353.14	15.85	-67.3	-72.7	3.6	0.00e+00	0	71	104
2025-01-09 11:04:32.43	353.09	15.71	-67.4	-72.8	3.7	0.00e+00	0	71	104
2025-01-09 11:04:33.33	353.05	15.59	-67.4	-72.8	3.6	0.00e+00	0	71	104
2025-01-09 11:04:34.33	353.00	15.45	-67.5	-72.9	3.6	0.00e+00	0	71	104
2025-01-09 11:04:35.23	352.95	15.33	-67.5	-72.8	3.7	0.00e+00	0	71	104
2025-01-09 11:04:36.23	352.90	15.19	-67.6	-72.8	3.6	0.00e+00	0	71	104
2025-01-09 11:04:37.13	352.86	15.07	-67.6	-72.8	3.7	0.00e+00	0	71	104
2025-01-09 11:04:38.13	352.81	14.93	-67.5	-72.7	3.6	0.00e+00	0	71	104
2025-01-09 11:04:39.03	352.76	14.81	-67.5	-72.6	3.7	0.00e+00	0	71	104
2025-01-09 11:04:40.03	352.72	14.68	-67.4	-72.5	3.7	0.00e+00	0	71	104
2025-01-09 11:04:40.93	352.67	14.56	-67.4	-72.5	3.6	0.00e+00	0	71	104
2025-01-09 11:04:41.93	352.63	14.43	-67.3	-72.6	3.7	0.00e+00	0	71	104
2025-01-09 11:04:42.83	352.59	14.32	-67.3	-72.6	3.6	0.00e+00	0	71	104
2025-01-09 11:04:43.83	352.54	14.19	-67.3	-72.7	3.7	0.00e+00	0	71	104
2025-01-09 11:04:44.73	352.50	14.07	-67.3	-72.7	3.6	0.00e+00	0	71	104
2025-01-09 11:04:45.73	352.46	13.94	-67.3	-72.8	3.6	0.00e+00	0	71	104
2025-01-09 11:04:46.63	352.42	13.83	-67.3	-72.8	3.7	0.00e+00	0	71	104
2025-01-09 11:04:47.63	352.37	13.70	-67.4	-72.9	3.6	0.00e+00	0	71	104
2025-01-09 11:04:48.53	352.33	13.59	-67.5	-72.9	3.7	0.00e+00	0	71	104
2025-01-09 11:04:49.52	352.29	13.47	-67.5	-73.0	3.6	0.00e+00	0	71	104
2025-01-09 11:04:50.43	352.25	13.35	-67.6	-73.1	3.7	0.00e+00	0	71	104
2025-01-09 11:04:51.42	352.21	13.23	-67.6	-73.2	3.7	0.00e+00	0	71	104
2025-01-09 11:04:52.33	352.17	13.12	-67.7	-73.2	3.6	0.00e+00	0	71	104
2025-01-09 11:04:53.32	352.13	13.00	-67.6	-73.1	3.7	0.00e+00	0	71	104
2025-01-09 11:04:54.22	352.10	12.89	-67.6	-73.1	3.6	0.00e+00	0	71	104
2025-01-09 11:04:55.21	352.06	12.77	-67.6	-73.0	3.7	0.00e+00	0	71	104
2025-01-09 11:04:56.12	352.02	12.67	-67.6	-73.0	3.6	0.00e+00	0	71	104
2025-01-09 11:04:57.11	351.98	12.55	-67.6	-73.0	3.6	0.00e+00	0	71	104
2025-01-09 11:04:58.02	351.94	12.44	-67.6	-72.9	3.7	0.00e+00	0	71	104
2025-01-09 11:04:59.01	351.91	12.32	-67.6	-73.0	3.6	0.00e+00	0	71	104
2025-01-09 11:04:59.92	351.87	12.22	-67.7	-73.2	3.7	0.00e+00	0	71	104
2025-01-09 11:05:00.91	351.83	12.10	-67.7	-73.2	3.6	0.00e+00	0	71	104
2025-01-09 11:05:01.82	351.80	12.00	-67.7	-73.1	3.6	0.00e+00	0	71	104
2025-01-09 11:05:02.81	351.76	11.89	-67.7	-73.1	3.7	0.00e+00	0	71	104
2025-01-09 11:05:03.72	351.73	11.78	-67.7	-73.1	3.6	0.00e+00	0	71	104
2025-01-09 11:05:04.71	351.69	11.67	-67.6	-73.1	3.7	0.00e+00	0	71	104
2025-01-09 11:05:05.62	351.66	11.57	-67.6	-73.1	3.6	0.00e+00	0	71	104
2025-01-09 11:05:06.60	351.62	11.46	-67.6	-73.1	3.7	0.00e+00	0	71	104
2025-01-09 11:05:07.51	351.59	11.36	-67.7	-73.2	3.6	0.00e+00	0	71	104
2025-01-09 11:05:08.50	351.56	11.25	-67.7	-73.3	3.6	0.00e+00	0	71	104
2025-01-09 11:05:09.41	351.53	11.15	-67.7	-73.3	3.7	0.00e+00	0	71	104
2025-01-09 11:05:10.40	351.49	11.04	-67.7	-73.3	3.6	0.00e+00	0	71	104
2025-01-09 11:05:11.31	351.46	10.94	-67.7	-73.3	3.7	0.00e+00	0	71	104
2025-01-09 11:05:12.30	351.43	10.83	-67.7	-73.3	3.6	0.00e+00	0	71	104
2025-01-09 11:05:13.21	351.40	10.74	-67.7	-73.3	3.7	0.00e+00	0	71	104
2025-01-09 11:05:14.20	351.36	10.63	-67.7	-73.3	3.7	0.00e+00	0	71	104
2025-01-09 11:05:15.11	351.33	10.53	-67.7	-73.3	3.6	0.00e+00	0	71	104
2025-01-09 11:05:16.10	351.30	10.43	-67.7	-73.3	3.7	0.00e+00	0	71	104
2025-01-09 11:05:17.00	351.27	10.33	-67.7	-73.3	3.6	0.00e+00	0	71	104
2025-01-09 11:05:17.99	351.24	10.23	-67.7	-73.2	3.6	0.00e+00	0	71	104
2025-01-09 11:05:18.90	351.21	10.13	-67.6	-73.1	3.6	0.00e+00	0	71	104
2025-01-09 11:05:19.89	351.18	10.03	-67.6	-73.0	3.6	0.00e+00	0	71	104
2025-01-09 11:05:20.80	351.15	9.94	-67.5	-72.9	3.7	0.00e+00	0	71	104
2025-01-09 11:05:21.79	351.12	9.84	-67.4	-72.8	3.6	0.00e+00	0	71	104
2025-01-09 11:05:22.70	351.10	9.74	-67.4	-72.7	3.7	0.00e+00	0	71	104
2025-01-09 11:05:23.68	351.07	9.64	-67.3	-72.7	3.6	0.00e+00	0	71	104
2025-01-09 11:05:24.59	351.04	9.55	-67.3	-72.6	3.6	0.00e+00	0	71	104
2025-01-09 11:05:25.58	351.01	9.45	-67.3	-72.6	3.7	0.00e+00	0	71	104
2025-01-09 11:05:26.49	350.98	9.36	-67.3	-72.6	3.6	0.00e+00	0	71	104
2025-01-09 11:05:27.48	350.95	9.26	-67.3	-72.6	3.7	0.00e+00	0	71	104
2025-01-09 11:05:28.39	350.93	9.17	-67.3	-72.5	3.6	0.00e+00	0	71	104
2025-01-09 11:05:29.38	350.90	9.08	-67.3	-72.5	3.7	0.00e+00	0	71	104
2025-01-09 11:05:30.29	350.87	8.99	-67.2	-72.4	3.6	0.00e+00	0	71	104
2025-01-09 11:05:31.28	350.85	8.89	-67.2	-72.3	3.6	0.00e+00	0	71	104
2025-01-09 11:05:32.19	350.82	8.80	-67.2	-72.3	3.7	0.00e+00	0	71	104
2025-01-09 11:05:33.18	350.79	8.71	-67.2	-72.3	3.6	0.00e+00	0	71	104
2025-01-09 11:05:34.09	350.77	8.62	-67.2	-72.3	3.7	0.00e+00	0	71	104
2025-01-09 11:05:35.08	350.74	8.52	-67.2	-72.3	3.6	0.00e+00	0	71	104
2025-01-09 11:05:35.99	350.72	8.44	-67.2	-72.3	3.7	0.00e+00	0	71	104
2025-01-09 11:05:36.98	350.69	8.34	-67.2	-72.3	3.7	0.00e+00	0	71	104
2025-01-09 11:05:37.89	350.67	8.26	-67.2	-72.3	3.6	0.00e+00	0	71	104
2025-01-09 11:05:38.88	350.64	8.16	-67.2	-72.2	3.7	0.00e+00	0	71	104
2025-01-09 11:05:39.78	350.62	8.08	-67.2	-72.6	3.6	0.00e+00	0	71	104
2025-01-09 11:05:40.78	350.59	7.99	-67.4	-72.9	3.7	0.00e+00	0	71	104
2025-01-09 11:05:41.68	350.57	7.90	-67.1	-72.4	3.6	0.00e+00	0	71	104

#Closed at: 2025-01-09 11:05:41
#Recorded file [24075 MB]: D:/data/31015_250109_230333.dat