passes_logs/2026/01/10/R2.0S_Moscow/R2.0S_Moscow__20260110_101959_FENGYUN_3D_rec.log

#Pass ID: 20260110_101959_FENGYUN 3D
#Satellite: FENGYUN 3D
#Configuration: FENGYUN 3D
#almurnet v.1.7.20251203
#Start time: 2026-01-10 10:19:58

#Version: 2.2.20231116
#Station: R2.0S_Moscow
#Location: 37.707566 lon 55.798166 lat
#TLE: 1 43010U 17072A   26009.29492227  .00000158  00000+0  96483-4 0  9996
#TLE: 2 43010  98.9936 341.0229 0002153 117.3665 242.7729 14.19694440422446

#Time	Az	El	Level	Level2	SNR	BER	BlckErr	Temp	State	Recorded	gain1	gain2
2026-01-10 10:19:58.74	113.00	1.97	-41.9	-53.9	3.8	8.46e-01	0	47	0	0	54	15188
2026-01-10 10:19:59.73	112.93	2.02	-42.1	-54.0	3.7	8.46e-01	0	47	104	0	53	16173
2026-01-10 10:20:00.74	112.87	2.08	-41.7	-53.9	4.0	8.46e-01	0	47	104	0	51	18055
2026-01-10 10:20:01.75	112.80	2.14	-41.2	-53.7	3.9	8.47e-01	0	47	104	0	53	15723
2026-01-10 10:20:02.76	112.74	2.20	-38.7	-53.9	3.9	8.47e-01	0	47	104	0	53	16031
2026-01-10 10:20:03.77	112.67	2.25	-42.1	-53.9	3.9	8.45e-01	0	47	104	0	54	15187
2026-01-10 10:20:04.78	112.60	2.31	-41.5	-53.8	3.9	8.46e-01	0	48	104	0	53	15768
2026-01-10 10:20:05.79	112.54	2.37	-39.4	-52.6	3.8	8.45e-01	0	47	104	0	43	24420
2026-01-10 10:20:06.80	112.47	2.43	-41.7	-53.8	3.9	8.46e-01	0	48	104	0	54	14957
2026-01-10 10:20:07.81	112.40	2.49	-41.8	-53.9	3.8	8.46e-01	0	48	104	0	54	15151
2026-01-10 10:20:08.82	112.34	2.54	-42.5	-54.3	3.9	8.47e-01	0	47	104	0	54	15901
2026-01-10 10:20:09.83	112.27	2.60	-41.5	-53.9	3.9	8.45e-01	0	48	104	0	54	15116
2026-01-10 10:20:10.84	112.20	2.66	-41.2	-53.6	3.9	8.46e-01	0	48	104	0	53	15560
2026-01-10 10:20:11.84	112.13	2.72	-41.7	-53.9	3.8	8.45e-01	0	48	104	0	51	17955
2026-01-10 10:20:12.85	112.06	2.78	-35.8	-52.0	3.9	8.45e-01	0	48	104	0	47	18174
2026-01-10 10:20:13.86	111.99	2.83	-41.7	-53.9	3.8	8.46e-01	0	48	104	0	53	16039
2026-01-10 10:20:14.87	111.93	2.89	-40.7	-53.2	3.8	8.45e-01	0	48	104	0	53	14823
2026-01-10 10:20:15.88	111.86	2.95	-41.9	-53.8	3.8	8.46e-01	0	48	104	0	53	15921
2026-01-10 10:20:16.89	111.79	3.01	-42.0	-53.8	3.8	8.46e-01	0	48	104	0	53	15815
2026-01-10 10:20:17.90	111.72	3.07	-41.6	-53.5	3.8	8.46e-01	0	48	104	0	51	17244
2026-01-10 10:20:18.92	111.64	3.13	-42.0	-53.9	3.9	8.45e-01	0	48	104	0	54	15217
2026-01-10 10:20:19.92	111.57	3.19	-42.2	-53.8	3.9	8.45e-01	0	48	104	0	51	17729
2026-01-10 10:20:20.93	111.50	3.25	-41.9	-53.8	3.9	8.46e-01	0	48	104	0	53	15840
2026-01-10 10:20:21.94	111.43	3.31	-41.8	-54.0	3.8	8.46e-01	0	49	104	0	54	15263
2026-01-10 10:20:22.95	111.36	3.36	-37.8	-52.5	3.9	8.47e-01	0	49	104	0	40	28985
2026-01-10 10:20:23.95	111.29	3.42	-40.3	-53.8	3.8	8.45e-01	0	49	104	0	53	15815
2026-01-10 10:20:24.97	111.22	3.48	-41.9	-54.2	4.0	8.45e-01	0	49	104	0	48	22123
2026-01-10 10:20:25.97	111.14	3.54	-39.4	-53.7	3.8	8.46e-01	0	49	104	0	53	15694
2026-01-10 10:20:26.98	111.07	3.60	-41.7	-53.7	3.8	8.45e-01	0	49	104	0	53	15734
2026-01-10 10:20:27.99	111.00	3.66	-36.1	-53.9	3.8	8.46e-01	0	49	104	0	53	16023
2026-01-10 10:20:29.00	110.93	3.72	-41.6	-53.9	3.8	8.47e-01	0	49	104	0	54	15216
2026-01-10 10:20:30.01	110.85	3.78	-42.6	-54.3	3.9	8.45e-01	0	49	104	0	53	16824
2026-01-10 10:20:31.02	110.78	3.84	-42.0	-53.9	3.8	8.47e-01	0	49	104	0	54	15187
2026-01-10 10:20:32.02	110.70	3.90	-42.6	-54.3	3.7	8.46e-01	0	49	104	0	54	15849
2026-01-10 10:20:33.03	110.63	3.96	-42.0	-53.9	3.9	8.46e-01	0	49	104	0	53	15985
2026-01-10 10:20:34.04	110.55	4.02	-41.6	-53.9	3.8	8.46e-01	0	49	104	0	53	16032
2026-01-10 10:20:35.05	110.48	4.08	-41.1	-53.7	3.8	8.45e-01	0	49	104	0	53	15690
2026-01-10 10:20:36.06	110.40	4.14	-41.7	-53.9	3.8	8.45e-01	0	49	104	0	54	15166
2026-01-10 10:20:37.07	110.33	4.20	-41.8	-53.8	3.9	8.47e-01	0	50	104	0	53	15846
2026-01-10 10:20:38.08	110.25	4.26	-41.8	-53.8	3.8	8.45e-01	0	49	104	0	53	15861
2026-01-10 10:20:39.09	110.17	4.32	-38.3	-53.2	3.8	8.46e-01	0	50	104	0	50	17485
2026-01-10 10:20:40.10	110.10	4.38	-42.6	-54.4	3.8	8.46e-01	0	50	104	0	54	15978
2026-01-10 10:20:41.10	110.02	4.44	-41.7	-54.0	3.9	8.45e-01	0	50	104	0	54	15229
2026-01-10 10:20:42.11	109.94	4.50	-41.8	-54.1	3.6	8.45e-01	0	50	104	0	47	23066
2026-01-10 10:20:43.13	109.87	4.57	-42.4	-54.3	3.9	8.46e-01	0	50	104	0	53	16772
2026-01-10 10:20:44.13	109.79	4.63	-42.1	-53.5	3.8	8.45e-01	0	50	104	0	50	18180
2026-01-10 10:20:45.14	109.71	4.69	-40.6	-53.3	3.7	8.46e-01	0	50	104	0	47	21176
2026-01-10 10:20:46.15	109.63	4.75	-42.1	-53.7	3.6	8.45e-01	0	50	104	0	53	15581
2026-01-10 10:20:47.16	109.55	4.81	-41.0	-53.8	3.8	8.46e-01	0	50	104	0	52	16839
2026-01-10 10:20:48.17	109.47	4.87	-39.4	-53.4	3.9	8.46e-01	0	50	104	0	54	14221
2026-01-10 10:20:49.18	109.39	4.93	-41.4	-54.1	3.8	8.45e-01	0	50	104	0	54	15402
2026-01-10 10:20:50.19	109.31	5.00	-42.0	-53.8	3.8	8.47e-01	0	50	104	0	53	15763
2026-01-10 10:20:51.20	109.23	5.06	-41.3	-53.9	3.7	8.45e-01	0	50	104	0	53	16035
2026-01-10 10:20:52.21	109.15	5.12	-38.7	-53.1	3.9	8.45e-01	0	50	104	0	53	14616
2026-01-10 10:20:53.22	109.07	5.18	-33.2	-50.9	3.6	8.46e-01	0	50	104	0	42	21295
2026-01-10 10:20:54.23	108.99	5.24	-41.8	-53.8	3.8	8.46e-01	0	50	104	0	52	16875
2026-01-10 10:20:55.24	108.90	5.30	-42.0	-53.9	3.9	8.46e-01	0	50	104	0	53	16000
2026-01-10 10:20:56.25	108.82	5.37	-38.3	-52.8	4.0	8.47e-01	0	50	104	0	52	14953
2026-01-10 10:20:57.25	108.74	5.43	-41.2	-53.7	3.9	8.44e-01	0	51	104	0	53	15669
2026-01-10 10:20:58.26	108.66	5.49	-41.2	-53.7	4.0	8.45e-01	0	51	104	0	47	22160
2026-01-10 10:20:59.27	108.57	5.55	-37.3	-52.2	3.9	8.46e-01	0	51	104	0	42	24952
2026-01-10 10:21:00.28	108.49	5.62	-37.4	-50.6	3.4	8.44e-01	0	51	104	0	36	29146
2026-01-10 10:21:01.29	108.40	5.68	-35.1	-51.5	3.9	8.45e-01	0	51	104	0	38	28803
2026-01-10 10:21:02.30	108.32	5.74	-39.4	-52.2	3.9	8.46e-01	0	51	104	0	38	31205
2026-01-10 10:21:03.31	108.24	5.80	-34.0	-52.0	4.0	8.45e-01	0	51	104	0	50	15388
2026-01-10 10:21:04.32	108.15	5.87	-41.5	-53.5	3.9	8.45e-01	0	51	104	0	51	17212
2026-01-10 10:21:05.32	108.07	5.93	-37.8	-52.2	3.9	8.45e-01	0	51	104	0	41	26201
2026-01-10 10:21:06.33	107.98	5.99	-40.5	-53.6	3.8	8.46e-01	0	51	104	0	52	16434
2026-01-10 10:21:07.34	107.89	6.05	-42.0	-54.3	3.9	8.47e-01	0	51	104	0	51	18817
2026-01-10 10:21:08.35	107.81	6.12	-40.4	-53.5	4.0	8.45e-01	0	51	104	0	52	16150
2026-01-10 10:21:09.36	107.72	6.18	-41.5	-53.5	3.9	8.46e-01	0	51	104	0	53	15278
2026-01-10 10:21:10.37	107.63	6.24	-39.9	-53.4	3.9	8.45e-01	0	51	104	0	53	15065
2026-01-10 10:21:11.38	107.54	6.31	-41.2	-53.4	3.9	8.46e-01	0	51	104	0	52	16006
2026-01-10 10:21:12.39	107.45	6.37	-40.6	-52.6	4.2	8.45e-01	0	51	104	0	46	20587
2026-01-10 10:21:13.39	107.37	6.44	-40.7	-53.4	3.8	8.46e-01	0	51	104	0	51	17014
2026-01-10 10:21:14.40	107.28	6.50	-34.0	-51.9	3.9	8.45e-01	0	51	104	0	51	14345
2026-01-10 10:21:15.41	107.19	6.56	-41.0	-53.8	3.8	8.46e-01	0	52	104	0	52	16854
2026-01-10 10:21:16.42	107.10	6.63	-41.6	-54.1	3.8	8.45e-01	0	51	104	0	53	16412
2026-01-10 10:21:17.43	107.01	6.69	-39.1	-52.9	3.9	8.45e-01	0	52	104	0	51	16113
2026-01-10 10:21:18.44	106.92	6.76	-33.7	-50.0	3.9	8.46e-01	0	52	104	0	47	14438
2026-01-10 10:21:19.44	106.83	6.82	-35.3	-51.5	3.9	8.46e-01	0	52	104	0	41	24163
2026-01-10 10:21:20.45	106.73	6.88	-40.3	-53.6	3.8	8.45e-01	0	52	104	0	48	20602
2026-01-10 10:21:21.46	106.64	6.95	-41.8	-53.4	3.9	8.47e-01	0	52	104	0	53	15054
2026-01-10 10:21:22.47	106.55	7.01	-41.5	-52.9	3.9	8.46e-01	0	52	104	0	52	15106
2026-01-10 10:21:23.48	106.46	7.08	-41.2	-52.7	4.0	8.46e-01	0	52	104	0	42	26194
2026-01-10 10:21:24.49	106.36	7.14	-41.3	-52.1	3.8	8.45e-01	0	52	104	0	53	13025
2026-01-10 10:21:25.50	106.27	7.21	-40.2	-51.5	3.9	8.45e-01	0	52	104	0	53	12140
2026-01-10 10:21:26.51	106.17	7.27	-40.8	-50.2	4.0	8.41e-01	0	52	0	0	50	12513
2026-01-10 10:21:27.52	106.08	7.34	-39.3	-48.8	4.7	8.25e-01	0	52	0	0	52	9446
2026-01-10 10:21:28.53	105.98	7.40	-40.9	-47.1	5.8	7.53e-01	0	52	0	0	52	7762
2026-01-10 10:21:29.53	105.89	7.47	-40.5	-45.9	6.6	3.28e-01	0	52	0	4194304	50	7606
2026-01-10 10:21:30.54	105.79	7.53	-39.7	-44.4	7.7	1.54e-01	0	52	0	9437184	49	6788
2026-01-10 10:21:31.55	105.70	7.60	-39.0	-43.2	8.6	4.13e-02	0	52	0	14680064	47	6634
2026-01-10 10:21:32.56	105.60	7.66	-37.6	-42.0	10.1	4.49e-02	0	52	0	19922944	46	6079
2026-01-10 10:21:33.57	105.50	7.73	-38.0	-41.1	11.2	1.76e-02	0	52	0	26214400	46	5499
2026-01-10 10:21:34.58	105.41	7.79	-37.3	-40.6	11.6	2.46e-03	0	52	0	31457280	45	5514
2026-01-10 10:21:35.59	105.31	7.86	-37.6	-40.5	12.1	1.81e-02	0	52	0	37748736	45	5418
2026-01-10 10:21:36.60	105.21	7.92	-37.3	-40.3	12.3	2.93e-03	0	52	0	42991616	45	5293
2026-01-10 10:21:37.61	105.11	7.99	-37.7	-40.7	11.8	3.22e-03	0	52	0	48234496	45	5574
2026-01-10 10:21:38.62	105.01	8.06	-42.6	-52.5	3.9	1.17e-01	0	52	104	53477376	55	12108
2026-01-10 10:21:39.62	104.91	8.12	-39.3	-53.1	3.9	8.46e-01	0	53	104	53477376	53	14582
2026-01-10 10:21:40.63	104.81	8.19	-38.8	-42.3	10.5	8.96e-03	0	52	0	54525952	47	5928
2026-01-10 10:21:41.64	104.71	8.25	-39.5	-45.4	7.8	1.31e-01	0	52	0	58720256	51	6760
2026-01-10 10:21:42.64	104.61	8.32	-37.2	-40.8	10.6	1.32e-01	0	53	0	61865984	42	6674
2026-01-10 10:21:43.65	104.51	8.39	-37.4	-41.4	9.6	4.96e-01	0	53	0	66060288	43	6763
2026-01-10 10:21:44.66	104.40	8.45	-35.7	-40.2	11.8	1.48e-02	0	52	0	72351744	42	6236
2026-01-10 10:21:45.66	104.30	8.52	-36.2	-40.2	11.4	1.52e-02	0	53	0	77594624	43	5888
2026-01-10 10:21:46.67	104.20	8.59	-36.8	-40.3	11.4	3.85e-02	0	53	0	82837504	44	5636
2026-01-10 10:21:47.68	104.10	8.65	-27.0	-39.1	7.5	2.09e-01	0	52	0	88080384	25	14656
2026-01-10 10:21:48.69	103.99	8.72	-29.4	-40.4	8.8	5.49e-02	0	52	0	93323264	38	8017
2026-01-10 10:21:49.70	103.89	8.79	-37.0	-40.5	11.3	4.40e-02	0	53	0	98566144	44	5775
2026-01-10 10:21:50.70	103.78	8.85	-34.4	-40.4	10.7	1.67e-02	0	53	0	103809024	38	8012
2026-01-10 10:21:51.71	103.68	8.92	-36.8	-40.3	10.3	1.76e-02	0	53	0	110100480	41	6712
2026-01-10 10:21:52.72	103.57	8.99	-35.0	-39.9	9.2	6.71e-02	0	53	0	115343360	40	6746
2026-01-10 10:21:53.72	103.46	9.05	-35.8	-40.2	10.8	3.56e-01	0	53	0	120586240	39	7432
2026-01-10 10:21:54.73	103.36	9.12	-35.4	-39.6	11.5	6.42e-02	0	53	0	125829120	41	6158
2026-01-10 10:21:55.74	103.25	9.19	-36.5	-39.7	10.7	2.22e-02	0	53	0	131072000	41	6266
2026-01-10 10:21:56.75	103.14	9.26	-37.1	-40.4	11.8	1.17e-02	0	53	0	137363456	41	6756
2026-01-10 10:21:57.76	103.03	9.32	-35.7	-40.0	11.4	1.71e-02	0	53	0	142606336	43	5723
2026-01-10 10:21:58.77	102.92	9.39	-36.9	-40.6	10.3	1.36e-02	0	53	0	147849216	41	6886
2026-01-10 10:21:59.77	102.81	9.46	-36.4	-40.0	11.6	1.84e-02	0	53	0	154140672	41	6482
2026-01-10 10:22:00.78	102.70	9.53	-35.7	-40.1	11.0	2.94e-02	0	53	0	159383552	40	6890
2026-01-10 10:22:01.79	102.59	9.59	-35.3	-39.7	11.8	3.55e-02	0	53	0	164626432	40	6627
2026-01-10 10:22:02.80	102.48	9.66	-31.5	-39.7	11.2	2.78e-02	0	53	0	170917888	39	6981
2026-01-10 10:22:03.81	102.37	9.73	-30.7	-40.3	9.4	3.15e-02	0	53	0	176160768	35	9390
2026-01-10 10:22:04.82	102.26	9.80	-35.3	-39.3	10.5	2.82e-02	0	53	0	181403648	34	8939
2026-01-10 10:22:05.83	102.14	9.87	-27.3	-37.4	7.1	1.42e-01	0	53	0	187695104	28	10076
2026-01-10 10:22:06.84	102.03	9.94	-36.2	-39.2	11.8	6.59e-03	0	53	0	192937984	42	5581
2026-01-10 10:22:07.85	101.92	10.00	-34.4	-40.5	10.3	1.93e-02	0	53	0	199229440	42	6478
2026-01-10 10:22:08.86	101.80	10.07	-35.6	-41.6	9.7	9.25e-02	0	53	0	204472320	41	7726
2026-01-10 10:22:09.87	101.69	10.14	-32.5	-40.4	8.1	9.27e-02	0	53	0	209715200	33	10688
2026-01-10 10:22:10.87	101.57	10.21	-36.1	-40.6	9.7	7.36e-02	0	53	0	214958080	41	6953
2026-01-10 10:22:11.88	101.45	10.28	-34.8	-40.9	9.9	7.83e-02	0	53	0	220200960	41	7123
2026-01-10 10:22:12.89	101.34	10.35	-35.3	-40.6	8.2	1.25e-01	0	53	0	226492416	35	9733
2026-01-10 10:22:13.90	101.22	10.42	-34.2	-41.8	8.3	2.58e-01	0	53	0	230686720	41	7903
2026-01-10 10:22:14.90	101.10	10.48	-35.8	-41.0	8.7	1.18e-01	0	53	0	236978176	36	9653
2026-01-10 10:22:15.91	100.99	10.55	-33.1	-39.9	9.5	2.34e-01	0	53	0	241172480	35	9026
2026-01-10 10:22:16.92	100.87	10.62	-36.0	-41.4	9.0	1.41e-01	0	53	0	246415360	40	8029
2026-01-10 10:22:17.93	100.75	10.69	-35.9	-42.6	7.5	4.51e-01	0	53	0	250609664	41	8729
2026-01-10 10:22:18.93	100.63	10.76	-35.0	-41.1	8.3	2.14e-01	0	54	0	255852544	41	7322
2026-01-10 10:22:19.94	100.51	10.83	-35.8	-42.0	5.7	1.79e-01	0	54	0	261095424	34	12176
2026-01-10 10:22:20.95	100.38	10.90	-36.1	-41.8	8.4	2.21e-01	0	53	0	265289728	41	7926
2026-01-10 10:22:21.95	100.26	10.97	-36.2	-40.4	9.6	9.69e-02	0	54	0	270532608	40	7131
2026-01-10 10:22:22.96	100.14	11.04	-34.4	-39.2	10.9	1.57e-01	0	54	0	275775488	37	7422
2026-01-10 10:22:23.97	100.02	11.11	-33.7	-37.8	7.4	1.21e-01	0	54	0	279969792	30	9442
2026-01-10 10:22:24.97	99.90	11.18	-35.3	-38.9	11.0	3.01e-02	0	54	0	285212672	40	6055
2026-01-10 10:22:25.98	99.77	11.25	-35.7	-39.4	11.0	4.32e-02	0	54	0	290455552	37	7615
2026-01-10 10:22:26.99	99.65	11.32	-35.5	-39.5	11.5	4.15e-02	0	54	0	296747008	41	6063
2026-01-10 10:22:28.00	99.52	11.39	-35.2	-39.6	10.6	7.02e-02	0	54	0	301989888	38	7368
2026-01-10 10:22:29.00	99.40	11.45	-34.9	-39.0	11.6	9.30e-02	0	54	0	307232768	39	6443
2026-01-10 10:22:30.01	99.27	11.52	-35.0	-39.3	11.4	4.12e-02	0	54	0	313524224	39	6708
2026-01-10 10:22:31.02	99.14	11.59	-35.8	-39.3	12.1	6.37e-02	0	54	0	318767104	41	5981
2026-01-10 10:22:32.03	99.01	11.67	-34.5	-38.9	12.1	1.21e-02	0	54	0	324009984	38	6726
2026-01-10 10:22:33.03	98.89	11.73	-35.7	-39.2	12.1	1.60e-02	0	54	0	330301440	39	6634
2026-01-10 10:22:34.04	98.76	11.80	-27.0	-38.0	6.3	4.50e-02	0	54	0	335544320	36	6852
2026-01-10 10:22:35.05	98.63	11.88	-36.1	-38.7	12.3	1.01e-02	0	54	0	340787200	41	5536
2026-01-10 10:22:36.05	98.50	11.94	-35.7	-39.0	12.9	2.76e-01	0	54	0	346030080	41	5739
2026-01-10 10:22:37.06	98.37	12.02	-36.3	-39.1	13.0	4.40e-03	0	54	0	352321536	43	5211
2026-01-10 10:22:38.07	98.23	12.09	-35.8	-38.8	13.9	3.84e-03	0	54	0	357564416	43	5020
2026-01-10 10:22:39.08	98.10	12.16	-36.4	-38.8	14.1	2.56e-03	0	54	0	362807296	43	5020
2026-01-10 10:22:40.08	97.97	12.23	-36.1	-38.8	14.1	8.04e-04	0	54	0	369098752	43	4994
2026-01-10 10:22:41.09	97.84	12.30	-36.5	-38.6	14.5	3.57e-04	0	54	0	374341632	43	4925
2026-01-10 10:22:42.10	97.70	12.37	-36.6	-38.7	14.6	2.36e-04	0	54	0	380633088	43	4934
2026-01-10 10:22:43.11	97.57	12.44	-36.4	-38.5	14.9	1.01e-04	0	54	0	385875968	43	4856
2026-01-10 10:22:44.11	97.43	12.51	-36.6	-38.7	14.5	1.44e-04	0	54	0	391118848	43	4936
2026-01-10 10:22:45.12	97.30	12.58	-35.8	-38.6	13.7	1.26e-03	0	54	0	397410304	41	5516
2026-01-10 10:22:46.13	97.16	12.65	-33.1	-38.6	12.7	3.13e-03	0	54	0	402653184	37	6941
2026-01-10 10:22:47.14	97.02	12.72	-33.6	-38.6	13.5	9.44e-04	0	54	0	408944640	39	6142
2026-01-10 10:22:48.14	96.88	12.79	-36.9	-38.9	15.0	2.20e-06	0	54	0	414187520	44	4788
2026-01-10 10:22:49.15	96.74	12.86	-36.8	-38.7	15.1	0.00e+00	0	54	0	420478976	44	4699
2026-01-10 10:22:50.15	96.61	12.93	-37.0	-38.9	15.0	2.20e-06	0	54	0	425721856	44	4800
2026-01-10 10:22:51.16	96.47	13.00	-37.0	-39.0	15.0	0.00e+00	0	54	0	430964736	44	4829
2026-01-10 10:22:52.17	96.32	13.08	-37.0	-38.9	15.1	0.00e+00	0	54	0	437256192	44	4780
2026-01-10 10:22:53.18	96.18	13.15	-36.7	-38.9	14.9	0.00e+00	0	54	0	442499072	44	4806
2026-01-10 10:22:54.19	96.04	13.22	-37.1	-39.0	14.9	0.00e+00	0	54	0	448790528	44	4861
2026-01-10 10:22:55.20	95.90	13.29	-37.1	-39.0	14.9	0.00e+00	0	54	0	454033408	44	4843
2026-01-10 10:22:56.21	95.75	13.36	-37.0	-38.9	15.1	0.00e+00	0	54	0	459276288	44	4794
2026-01-10 10:22:57.21	95.61	13.43	-37.1	-39.0	15.0	0.00e+00	0	54	0	465567744	44	4828
2026-01-10 10:22:58.23	95.46	13.50	-36.9	-38.7	15.3	0.00e+00	0	54	0	470810624	44	4705
2026-01-10 10:22:59.24	95.32	13.57	-36.8	-38.6	15.4	0.00e+00	0	54	0	477102080	44	4624
2026-01-10 10:23:00.24	95.17	13.65	-36.7	-38.5	15.4	0.00e+00	0	54	0	482344960	44	4597
2026-01-10 10:23:01.25	95.02	13.72	-36.7	-38.5	15.4	0.00e+00	0	54	0	487587840	44	4596
2026-01-10 10:23:02.26	94.88	13.79	-36.6	-38.5	15.5	0.00e+00	0	54	0	493879296	44	4550
2026-01-10 10:23:03.27	94.73	13.86	-36.6	-38.4	15.6	0.00e+00	0	54	0	499122176	44	4524
2026-01-10 10:23:04.28	94.58	13.93	-36.6	-38.3	15.6	0.00e+00	0	54	0	505413632	44	4493
2026-01-10 10:23:05.29	94.43	14.00	-36.6	-38.3	15.7	0.00e+00	0	54	0	510656512	44	4492
2026-01-10 10:23:06.30	94.28	14.07	-36.6	-38.4	15.6	0.00e+00	0	55	0	516947968	44	4532
2026-01-10 10:23:07.31	94.12	14.15	-36.5	-38.3	15.7	0.00e+00	0	54	0	522190848	44	4470
2026-01-10 10:23:08.32	93.97	14.22	-36.5	-38.3	15.7	0.00e+00	0	54	0	527433728	44	4462
2026-01-10 10:23:09.32	93.82	14.29	-36.6	-38.4	15.6	0.00e+00	0	54	0	533725184	44	4535
2026-01-10 10:23:10.33	93.66	14.36	-36.5	-38.3	15.7	0.00e+00	0	54	0	538968064	44	4474
2026-01-10 10:23:11.34	93.51	14.43	-36.7	-38.5	15.5	0.00e+00	0	55	0	545259520	44	4553
2026-01-10 10:23:12.34	93.36	14.50	-36.5	-38.3	15.8	0.00e+00	0	54	0	550502400	44	4451
2026-01-10 10:23:13.35	93.20	14.57	-36.5	-38.3	15.7	0.00e+00	0	55	0	555745280	44	4487
2026-01-10 10:23:14.36	93.04	14.65	-36.5	-38.3	15.8	0.00e+00	0	54	0	562036736	44	4449
2026-01-10 10:23:15.36	92.89	14.72	-36.5	-38.3	15.8	0.00e+00	0	55	0	567279616	44	4448
2026-01-10 10:23:16.37	92.73	14.79	-36.5	-38.2	15.8	0.00e+00	0	54	0	572522496	44	4440
2026-01-10 10:23:17.38	92.57	14.86	-36.4	-38.2	15.8	0.00e+00	0	54	0	578813952	44	4418
2026-01-10 10:23:18.38	92.41	14.93	-36.5	-38.2	15.8	0.00e+00	0	55	0	584056832	44	4433
2026-01-10 10:23:19.39	92.25	15.00	-36.4	-38.2	15.8	0.00e+00	0	55	0	590348288	44	4403
2026-01-10 10:23:20.40	92.09	15.07	-36.4	-38.1	15.9	0.00e+00	0	55	0	595591168	44	4373
2026-01-10 10:23:21.40	91.93	15.14	-36.4	-38.1	15.9	0.00e+00	0	55	0	601882624	44	4367
2026-01-10 10:23:22.41	91.76	15.21	-36.4	-38.1	15.8	0.00e+00	0	54	0	607125504	44	4383
2026-01-10 10:23:23.41	91.60	15.29	-36.4	-38.2	15.8	0.00e+00	0	55	0	612368384	44	4400
2026-01-10 10:23:24.42	91.43	15.36	-36.5	-38.3	15.5	0.00e+00	0	55	0	618659840	44	4493
2026-01-10 10:23:25.43	91.27	15.43	-36.6	-38.4	15.5	0.00e+00	0	55	0	623902720	44	4519
2026-01-10 10:23:26.43	91.10	15.50	-36.6	-38.4	15.4	0.00e+00	0	55	0	629145600	44	4544
2026-01-10 10:23:27.44	90.94	15.57	-36.6	-38.4	15.4	0.00e+00	0	55	0	635437056	44	4539
2026-01-10 10:23:28.45	90.77	15.64	-36.6	-38.5	15.3	0.00e+00	0	55	0	640679936	44	4582
2026-01-10 10:23:29.45	90.60	15.71	-36.7	-38.6	15.2	0.00e+00	0	55	0	646971392	44	4604
2026-01-10 10:23:30.46	90.43	15.78	-36.6	-38.5	15.2	0.00e+00	0	55	0	652214272	44	4571
2026-01-10 10:23:31.46	90.26	15.85	-36.5	-38.4	15.3	0.00e+00	0	55	0	657457152	44	4523
2026-01-10 10:23:32.47	90.09	15.92	-36.4	-38.2	15.5	0.00e+00	0	55	0	663748608	44	4429
2026-01-10 10:23:33.48	89.92	16.00	-36.4	-38.2	15.5	0.00e+00	0	55	0	668991488	44	4426
2026-01-10 10:23:34.48	89.75	16.07	-36.6	-38.4	15.2	0.00e+00	0	55	0	675282944	44	4542
2026-01-10 10:23:35.49	89.57	16.14	-36.5	-38.3	15.2	0.00e+00	0	55	0	680525824	44	4481
2026-01-10 10:23:36.50	89.40	16.21	-36.4	-38.2	15.2	0.00e+00	0	55	0	686817280	44	4434
2026-01-10 10:23:37.50	89.23	16.28	-36.6	-38.5	14.9	0.00e+00	0	55	0	692060160	44	4574
2026-01-10 10:23:38.51	89.05	16.35	-36.8	-38.9	14.5	0.00e+00	0	55	0	697303040	44	4761
2026-01-10 10:23:39.52	88.87	16.42	-36.9	-38.9	14.4	1.10e-06	0	55	0	703594496	44	4801
2026-01-10 10:23:40.52	88.70	16.49	-36.9	-38.9	14.4	0.00e+00	0	55	0	708837376	44	4793
2026-01-10 10:23:41.53	88.52	16.56	-37.0	-39.1	14.2	0.00e+00	0	55	0	714080256	44	4898
2026-01-10 10:23:42.53	88.34	16.63	-37.1	-39.2	14.0	0.00e+00	0	55	0	720371712	44	4974
2026-01-10 10:23:43.54	88.16	16.70	-37.1	-39.2	14.0	0.00e+00	0	55	0	725614592	44	4978
2026-01-10 10:23:44.54	87.98	16.77	-37.1	-39.3	13.9	2.20e-06	0	55	0	731906048	44	5024
2026-01-10 10:23:45.55	87.80	16.84	-37.2	-39.4	13.8	2.20e-06	0	55	0	737148928	44	5055
2026-01-10 10:23:46.56	87.61	16.91	-37.1	-39.3	13.7	6.80e-06	0	55	0	742391808	44	5030
2026-01-10 10:23:47.56	87.43	16.98	-37.1	-39.4	13.6	8.00e-06	0	55	0	748683264	44	5056
2026-01-10 10:23:48.57	87.25	17.05	-37.2	-39.5	13.4	6.80e-06	0	55	0	753926144	44	5101
2026-01-10 10:23:49.58	87.06	17.12	-37.2	-39.5	13.3	9.10e-06	0	55	0	760217600	44	5112
2026-01-10 10:23:50.58	86.88	17.19	-37.2	-39.6	13.2	2.17e-05	0	55	0	765460480	44	5167
2026-01-10 10:23:51.59	86.69	17.25	-37.2	-39.5	13.2	1.25e-05	0	55	0	771751936	45	4866
2026-01-10 10:23:52.60	86.50	17.32	-37.2	-39.5	13.2	1.60e-05	0	55	0	776994816	45	4860
2026-01-10 10:23:53.61	86.31	17.39	-37.2	-39.6	13.2	1.83e-05	0	55	0	782237696	45	4892
2026-01-10 10:23:54.62	86.12	17.46	-37.3	-39.7	13.1	1.94e-05	0	55	0	788529152	45	4935
2026-01-10 10:23:55.62	85.93	17.53	-37.3	-39.7	13.1	2.40e-05	0	55	0	793772032	45	4963
2026-01-10 10:23:56.63	85.74	17.60	-37.2	-39.6	13.3	1.83e-05	0	55	0	799014912	45	4873
2026-01-10 10:23:57.64	85.55	17.67	-37.1	-39.4	13.4	4.50e-06	0	55	0	805306368	45	4806
2026-01-10 10:23:58.65	85.35	17.74	-37.1	-39.3	13.5	5.70e-06	0	55	0	810549248	45	4748
2026-01-10 10:23:59.66	85.16	17.81	-36.9	-39.1	13.7	3.40e-06	0	55	0	816840704	45	4633
2026-01-10 10:24:00.67	84.96	17.87	-36.8	-39.0	13.8	3.40e-06	0	55	0	822083584	45	4584
2026-01-10 10:24:01.68	84.77	17.94	-36.7	-38.8	14.0	3.40e-06	0	55	0	827326464	45	4475
2026-01-10 10:24:02.68	84.57	18.01	-36.6	-38.7	14.2	1.10e-06	0	55	0	833617920	45	4396
2026-01-10 10:24:03.69	84.38	18.08	-36.5	-38.6	14.3	0.00e+00	0	55	0	838860800	45	4361
2026-01-10 10:24:04.69	84.18	18.14	-36.5	-38.5	14.5	1.10e-06	0	55	0	845152256	44	4563
2026-01-10 10:24:05.70	83.98	18.21	-36.5	-38.5	14.5	0.00e+00	0	55	0	850395136	44	4561
2026-01-10 10:24:06.71	83.78	18.28	-36.5	-38.5	14.6	0.00e+00	0	55	0	856686592	44	4549
2026-01-10 10:24:07.72	83.58	18.35	-36.4	-38.3	14.8	0.00e+00	0	55	0	861929472	44	4482
2026-01-10 10:24:08.72	83.38	18.41	-36.4	-38.3	14.9	0.00e+00	0	55	0	867172352	44	4467
2026-01-10 10:24:09.73	83.17	18.48	-36.2	-38.1	15.2	0.00e+00	0	55	0	873463808	44	4363
2026-01-10 10:24:10.74	82.97	18.54	-36.3	-38.1	15.1	0.00e+00	0	55	0	878706688	44	4380
2026-01-10 10:24:11.75	82.76	18.61	-36.3	-38.1	15.2	0.00e+00	0	55	0	884998144	44	4379
2026-01-10 10:24:12.75	82.56	18.68	-36.2	-38.0	15.3	0.00e+00	0	55	0	890241024	44	4326
2026-01-10 10:24:13.76	82.35	18.74	-36.2	-38.0	15.3	0.00e+00	0	55	0	895483904	44	4323
2026-01-10 10:24:14.76	82.15	18.81	-36.2	-38.1	15.3	0.00e+00	0	55	0	901775360	44	4345
2026-01-10 10:24:15.77	81.94	18.87	-36.2	-38.1	15.3	0.00e+00	0	55	0	907018240	44	4344
2026-01-10 10:24:16.78	81.73	18.94	-36.3	-38.1	15.2	0.00e+00	0	55	0	912261120	44	4387
2026-01-10 10:24:17.78	81.52	19.00	-36.2	-38.1	15.2	0.00e+00	0	55	0	918552576	44	4377
2026-01-10 10:24:18.79	81.31	19.07	-36.4	-38.3	15.0	0.00e+00	0	55	0	923795456	44	4469
2026-01-10 10:24:19.80	81.10	19.13	-36.4	-38.3	15.0	0.00e+00	0	55	0	930086912	44	4471
2026-01-10 10:24:20.81	80.88	19.20	-36.4	-38.4	14.8	0.00e+00	0	55	0	935329792	44	4521
2026-01-10 10:24:21.82	80.67	19.26	-36.5	-38.5	14.6	0.00e+00	0	55	0	941621248	44	4598
2026-01-10 10:24:22.82	80.46	19.32	-36.7	-38.8	14.3	0.00e+00	0	55	0	946864128	44	4713
2026-01-10 10:24:23.83	80.24	19.39	-36.7	-38.8	14.2	0.00e+00	0	55	0	952107008	44	4726
2026-01-10 10:24:24.84	80.02	19.45	-36.8	-39.0	14.0	0.00e+00	0	55	0	958398464	44	4817
2026-01-10 10:24:25.85	79.81	19.51	-36.9	-39.1	13.8	3.40e-06	0	55	0	963641344	44	4872
2026-01-10 10:24:26.85	79.59	19.57	-38.0	-40.6	12.0	3.40e-06	0	56	0	969932800	46	5217
2026-01-10 10:24:27.86	79.37	19.64	-37.0	-39.3	13.6	6.80e-06	0	55	0	975175680	45	4718
2026-01-10 10:24:28.87	79.15	19.70	-36.9	-39.1	13.7	4.50e-06	0	55	0	980418560	45	4649
2026-01-10 10:24:29.88	78.93	19.76	-36.9	-39.1	13.7	4.50e-06	0	55	0	986710016	45	4636
2026-01-10 10:24:30.89	78.71	19.82	-36.8	-39.0	13.9	2.20e-06	0	55	0	991952896	45	4581
2026-01-10 10:24:31.90	78.48	19.88	-36.8	-38.9	14.0	0.00e+00	0	56	0	998244352	45	4541
2026-01-10 10:24:32.91	78.26	19.94	-36.7	-38.8	14.2	0.00e+00	0	55	0	1003487232	45	4482
2026-01-10 10:24:33.92	78.03	20.01	-36.5	-38.5	14.6	1.10e-06	0	55	0	1008730112	45	4317
2026-01-10 10:24:34.93	77.81	20.07	-36.4	-38.3	14.9	0.00e+00	0	55	0	1015021568	44	4490
2026-01-10 10:24:35.94	77.58	20.13	-36.3	-38.2	15.1	0.00e+00	0	56	0	1020264448	44	4394
2026-01-10 10:24:36.95	77.35	20.19	-36.1	-38.0	15.4	0.00e+00	0	55	0	1026555904	44	4315
2026-01-10 10:24:37.96	77.13	20.24	-36.0	-37.8	15.5	0.00e+00	0	55	0	1031798784	44	4233
2026-01-10 10:24:38.96	76.90	20.30	-35.7	-37.4	15.7	0.00e+00	0	56	0	1038090240	43	4282
2026-01-10 10:24:39.98	76.67	20.36	-35.6	-37.3	15.9	0.00e+00	0	56	0	1043333120	43	4215
2026-01-10 10:24:40.98	76.44	20.42	-35.5	-37.2	16.1	0.00e+00	0	55	0	1048576000	43	4164
2026-01-10 10:24:41.99	76.21	20.48	-35.5	-37.2	16.1	0.00e+00	0	55	0	1054867456	43	4170
2026-01-10 10:24:43.00	75.97	20.54	-35.6	-37.3	16.0	0.00e+00	0	56	0	1060110336	43	4222
2026-01-10 10:24:44.01	75.74	20.59	-35.8	-37.5	15.8	0.00e+00	0	56	0	1066401792	43	4324
2026-01-10 10:24:45.02	75.50	20.65	-35.8	-37.6	15.8	0.00e+00	0	56	0	1071644672	43	4363
2026-01-10 10:24:46.03	75.27	20.71	-35.8	-37.6	15.8	0.00e+00	0	56	0	1076887552	43	4347
2026-01-10 10:24:47.04	75.03	20.76	-35.8	-37.5	15.9	0.00e+00	0	56	0	1083179008	43	4317
2026-01-10 10:24:48.04	74.80	20.82	-35.6	-37.3	16.1	0.00e+00	0	56	0	1088421888	43	4240
2026-01-10 10:24:49.05	74.56	20.87	-35.6	-37.3	16.2	0.00e+00	0	56	0	1094713344	43	4205
2026-01-10 10:24:50.06	74.32	20.93	-35.6	-37.3	16.2	0.00e+00	0	56	0	1099956224	43	4194
2026-01-10 10:24:51.07	74.08	20.98	-35.6	-37.3	16.2	0.00e+00	0	56	0	1105199104	43	4213
2026-01-10 10:24:52.08	73.84	21.04	-35.6	-37.3	16.2	0.00e+00	0	56	0	1111490560	43	4242
2026-01-10 10:24:53.09	73.60	21.09	-35.7	-37.4	16.2	0.00e+00	0	56	0	1116733440	43	4248
2026-01-10 10:24:54.10	73.36	21.14	-35.5	-37.2	16.4	0.00e+00	0	55	0	1123024896	43	4162
2026-01-10 10:24:55.11	73.11	21.19	-35.4	-37.0	16.6	0.00e+00	0	56	0	1128267776	42	4324
2026-01-10 10:24:56.13	72.87	21.25	-35.3	-36.9	16.7	0.00e+00	0	56	0	1134559232	42	4271
2026-01-10 10:24:57.13	72.62	21.30	-35.3	-36.9	16.8	0.00e+00	0	56	0	1139802112	42	4245
2026-01-10 10:24:58.14	72.38	21.35	-35.3	-36.9	16.7	0.00e+00	0	56	0	1146093568	42	4249
2026-01-10 10:24:59.15	72.13	21.40	-35.3	-36.9	16.7	0.00e+00	0	56	0	1151336448	42	4255
2026-01-10 10:25:00.16	71.89	21.45	-35.3	-36.9	16.7	0.00e+00	0	56	0	1156579328	42	4261
2026-01-10 10:25:01.17	71.64	21.50	-35.2	-36.8	16.8	0.00e+00	0	56	0	1162870784	42	4222
2026-01-10 10:25:02.18	71.39	21.55	-35.1	-36.7	16.9	0.00e+00	0	56	0	1168113664	42	4177
2026-01-10 10:25:03.18	71.14	21.60	-35.1	-36.6	17.0	0.00e+00	0	56	0	1173356544	42	4128
2026-01-10 10:25:04.19	70.89	21.65	-35.1	-36.7	17.1	0.00e+00	0	56	0	1179648000	42	4153
2026-01-10 10:25:05.20	70.64	21.70	-35.2	-36.7	17.1	0.00e+00	0	56	0	1184890880	42	4189
2026-01-10 10:25:06.20	70.39	21.74	-35.2	-36.7	17.1	0.00e+00	0	56	0	1191182336	42	4193
2026-01-10 10:25:07.21	70.14	21.79	-35.1	-36.7	17.3	0.00e+00	0	56	0	1196425216	42	4166
2026-01-10 10:25:08.22	69.88	21.84	-35.0	-36.6	17.4	0.00e+00	0	56	0	1201668096	42	4104
2026-01-10 10:25:09.23	69.63	21.88	-34.9	-36.4	17.6	0.00e+00	0	56	0	1207959552	41	4278
2026-01-10 10:25:10.23	69.38	21.93	-34.8	-36.3	17.8	0.00e+00	0	56	0	1213202432	41	4220
2026-01-10 10:25:11.24	69.12	21.97	-34.7	-36.2	17.9	0.00e+00	0	56	0	1219493888	41	4160
2026-01-10 10:25:12.25	68.87	22.02	-34.8	-36.2	17.9	0.00e+00	0	56	0	1224736768	41	4166
2026-01-10 10:25:13.27	68.61	22.06	-34.7	-36.2	18.0	0.00e+00	0	56	0	1231028224	41	4148
2026-01-10 10:25:14.27	68.35	22.11	-34.7	-36.1	18.1	0.00e+00	0	56	0	1236271104	41	4127
2026-01-10 10:25:15.28	68.09	22.15	-34.7	-36.1	18.1	0.00e+00	0	56	0	1241513984	41	4106
2026-01-10 10:25:16.29	67.83	22.19	-34.7	-36.1	18.1	0.00e+00	0	56	0	1247805440	41	4131
2026-01-10 10:25:17.30	67.57	22.23	-34.7	-36.1	18.1	0.00e+00	0	56	0	1253048320	41	4124
2026-01-10 10:25:18.31	67.31	22.27	-34.7	-36.2	18.1	0.00e+00	0	56	0	1259339776	41	4159
2026-01-10 10:25:19.31	67.05	22.31	-34.8	-36.2	18.1	0.00e+00	0	56	0	1264582656	41	4178
2026-01-10 10:25:20.32	66.79	22.35	-34.8	-36.3	18.0	0.00e+00	0	56	0	1269825536	41	4203
2026-01-10 10:25:21.33	66.53	22.39	-34.8	-36.2	18.1	0.00e+00	0	56	0	1276116992	41	4158
2026-01-10 10:25:22.34	66.26	22.43	-34.8	-36.2	18.1	0.00e+00	0	56	0	1281359872	41	4173
2026-01-10 10:25:23.34	66.00	22.47	-34.8	-36.3	18.0	0.00e+00	0	56	0	1287651328	41	4202
2026-01-10 10:25:24.35	65.74	22.51	-34.8	-36.3	18.0	0.00e+00	0	56	0	1292894208	41	4203
2026-01-10 10:25:25.36	65.47	22.55	-34.9	-36.4	18.0	0.00e+00	0	56	0	1298137088	41	4247
2026-01-10 10:25:26.37	65.21	22.58	-34.9	-36.4	18.0	0.00e+00	0	56	0	1304428544	41	4252
2026-01-10 10:25:27.38	64.94	22.62	-34.9	-36.4	18.0	0.00e+00	0	56	0	1309671424	41	4249
2026-01-10 10:25:28.38	64.68	22.65	-34.8	-36.3	18.1	0.00e+00	0	56	0	1315962880	41	4196
2026-01-10 10:25:29.39	64.41	22.69	-34.8	-36.2	18.1	0.00e+00	0	56	0	1321205760	41	4172
2026-01-10 10:25:30.40	64.14	22.72	-34.7	-36.1	18.2	0.00e+00	0	56	0	1327497216	41	4135
2026-01-10 10:25:31.41	63.87	22.76	-34.6	-36.0	18.3	0.00e+00	0	56	0	1332740096	41	4079
2026-01-10 10:25:32.41	63.60	22.79	-34.6	-36.0	18.3	0.00e+00	0	56	0	1337982976	41	4098
2026-01-10 10:25:33.42	63.33	22.82	-34.6	-36.1	18.3	0.00e+00	0	56	0	1344274432	41	4102
2026-01-10 10:25:34.43	63.06	22.85	-34.6	-36.0	18.4	0.00e+00	0	56	0	1349517312	41	4057
2026-01-10 10:25:35.44	62.79	22.88	-34.5	-35.9	18.5	0.00e+00	0	56	0	1355808768	41	4013
2026-01-10 10:25:36.44	62.52	22.91	-34.3	-35.7	18.6	0.00e+00	0	56	0	1361051648	40	4175
2026-01-10 10:25:37.45	62.25	22.94	-34.2	-35.5	18.8	0.00e+00	0	56	0	1366294528	40	4097
2026-01-10 10:25:38.46	61.98	22.97	-34.1	-35.4	18.9	0.00e+00	0	56	0	1372585984	40	4043
2026-01-10 10:25:39.46	61.71	23.00	-34.1	-35.4	19.0	0.00e+00	0	56	0	1377828864	40	4010
2026-01-10 10:25:40.47	61.43	23.03	-34.1	-35.5	18.9	0.00e+00	0	56	0	1383071744	40	4056
2026-01-10 10:25:41.48	61.16	23.05	-34.2	-35.5	18.8	0.00e+00	0	56	0	1389363200	40	4094
2026-01-10 10:25:42.48	60.89	23.08	-34.3	-35.6	18.7	0.00e+00	0	56	0	1394606080	40	4139
2026-01-10 10:25:43.49	60.61	23.10	-34.3	-35.7	18.7	0.00e+00	0	56	0	1400897536	40	4168
2026-01-10 10:25:44.50	60.33	23.13	-34.3	-35.7	18.6	0.00e+00	0	56	0	1406140416	40	4177
2026-01-10 10:25:45.51	60.06	23.15	-34.4	-35.7	18.7	0.00e+00	0	56	0	1412431872	40	4177
2026-01-10 10:25:46.52	59.78	23.18	-34.4	-35.8	18.6	0.00e+00	0	56	0	1417674752	40	4197
2026-01-10 10:25:47.52	59.51	23.20	-34.5	-35.9	18.5	0.00e+00	0	56	0	1422917632	40	4270
2026-01-10 10:25:48.53	59.23	23.22	-34.5	-35.9	18.5	0.00e+00	0	56	0	1429209088	40	4276
2026-01-10 10:25:49.54	58.95	23.24	-34.5	-35.9	18.5	0.00e+00	0	56	0	1434451968	40	4271
2026-01-10 10:25:50.54	58.68	23.26	-34.4	-35.7	18.7	0.00e+00	0	56	0	1440743424	40	4191
2026-01-10 10:25:51.55	58.40	23.28	-34.3	-35.6	18.8	0.00e+00	0	56	0	1445986304	40	4125
2026-01-10 10:25:52.56	58.12	23.30	-34.2	-35.6	18.9	0.00e+00	0	56	0	1451229184	40	4101
2026-01-10 10:25:53.57	57.84	23.32	-34.2	-35.6	18.9	0.00e+00	0	56	0	1457520640	40	4107
2026-01-10 10:25:54.57	57.57	23.34	-34.3	-35.6	18.8	0.00e+00	0	56	0	1462763520	40	4123
2026-01-10 10:25:55.58	57.29	23.36	-34.3	-35.6	18.8	0.00e+00	0	56	0	1468006400	40	4124
2026-01-10 10:25:56.59	57.01	23.37	-34.3	-35.6	18.8	0.00e+00	0	56	0	1474297856	40	4141
2026-01-10 10:25:57.60	56.73	23.39	-34.3	-35.7	18.7	0.00e+00	0	56	0	1479540736	40	4173
2026-01-10 10:25:58.61	56.44	23.40	-34.3	-35.7	18.7	0.00e+00	0	56	0	1485832192	40	4157
2026-01-10 10:25:59.62	56.16	23.42	-34.3	-35.7	18.7	0.00e+00	0	56	0	1491075072	40	4146
2026-01-10 10:26:00.63	55.88	23.43	-34.3	-35.6	18.8	0.00e+00	0	56	0	1497366528	40	4145
2026-01-10 10:26:01.64	55.60	23.44	-34.3	-35.6	18.8	0.00e+00	0	56	0	1502609408	40	4130
2026-01-10 10:26:02.65	55.32	23.45	-34.3	-35.6	18.8	0.00e+00	0	56	0	1508900864	40	4126
2026-01-10 10:26:03.66	55.04	23.47	-34.2	-35.5	18.9	0.00e+00	0	56	0	1514143744	40	4083
2026-01-10 10:26:04.67	54.76	23.48	-34.1	-35.5	19.0	0.00e+00	0	56	0	1519386624	40	4066
2026-01-10 10:26:05.68	54.47	23.49	-34.1	-35.5	19.0	0.00e+00	0	56	0	1525678080	40	4057
2026-01-10 10:26:06.69	54.19	23.50	-34.1	-35.5	19.0	0.00e+00	0	56	0	1530920960	40	4056
2026-01-10 10:26:07.70	53.91	23.50	-34.3	-35.5	19.4	0.00e+00	0	56	0	1537212416	40	4059
2026-01-10 10:26:08.71	53.63	23.51	-34.4	-35.6	19.3	0.00e+00	0	56	0	1542455296	40	4099
2026-01-10 10:26:09.72	53.34	23.52	-34.4	-35.7	19.2	0.00e+00	0	56	0	1547698176	40	4146
2026-01-10 10:26:10.73	53.06	23.52	-34.5	-35.7	19.2	0.00e+00	0	56	0	1553989632	40	4161
2026-01-10 10:26:11.74	52.78	23.53	-34.4	-35.6	19.2	0.00e+00	0	56	0	1559232512	40	4144
2026-01-10 10:26:12.75	52.50	23.53	-34.4	-35.6	19.3	0.00e+00	0	56	0	1565523968	40	4102
2026-01-10 10:26:13.75	52.22	23.54	-34.4	-35.6	19.3	0.00e+00	0	56	0	1570766848	40	4111
2026-01-10 10:26:14.76	51.93	23.54	-34.5	-35.7	19.2	0.00e+00	0	56	0	1576009728	40	4154
2026-01-10 10:26:15.77	51.65	23.54	-34.5	-35.7	19.2	0.00e+00	0	56	0	1582301184	40	4160
2026-01-10 10:26:16.78	51.37	23.54	-34.5	-35.7	19.2	0.00e+00	0	56	0	1587544064	40	4160
2026-01-10 10:26:17.79	51.08	23.54	-34.5	-35.7	19.1	0.00e+00	0	56	0	1593835520	40	4188
2026-01-10 10:26:18.79	50.80	23.54	-34.5	-35.7	19.2	0.00e+00	0	56	0	1599078400	40	4153
2026-01-10 10:26:19.80	50.52	23.54	-34.5	-35.7	19.2	0.00e+00	0	56	0	1605369856	40	4160
2026-01-10 10:26:20.81	50.24	23.54	-34.4	-35.7	19.2	0.00e+00	0	56	0	1610612736	40	4146
2026-01-10 10:26:21.82	49.95	23.54	-34.5	-35.7	19.2	0.00e+00	0	56	0	1615855616	40	4174
2026-01-10 10:26:22.83	49.67	23.54	-34.5	-35.7	19.2	0.00e+00	0	56	0	1622147072	40	4163
2026-01-10 10:26:23.84	49.39	23.53	-34.4	-35.6	19.3	0.00e+00	0	56	0	1627389952	40	4104
2026-01-10 10:26:24.84	49.11	23.53	-34.3	-35.5	19.4	0.00e+00	0	56	0	1633681408	40	4057
2026-01-10 10:26:25.85	48.83	23.52	-34.3	-35.5	19.4	0.00e+00	0	56	0	1638924288	40	4052
2026-01-10 10:26:26.86	48.54	23.52	-34.3	-35.5	19.4	0.00e+00	0	56	0	1644167168	40	4070
2026-01-10 10:26:27.86	48.26	23.51	-34.4	-35.6	19.3	0.00e+00	0	56	0	1650458624	40	4105
2026-01-10 10:26:28.87	47.98	23.50	-34.5	-35.7	19.2	0.00e+00	0	56	0	1655701504	40	4159
2026-01-10 10:26:29.88	47.70	23.50	-34.5	-35.7	19.2	0.00e+00	0	56	0	1660944384	40	4173
2026-01-10 10:26:30.89	47.42	23.49	-34.5	-35.7	19.2	0.00e+00	0	56	0	1667235840	40	4184
2026-01-10 10:26:31.90	47.13	23.48	-34.5	-35.7	19.2	0.00e+00	0	56	0	1672478720	40	4171
2026-01-10 10:26:32.91	46.85	23.47	-34.4	-35.7	19.2	0.00e+00	0	56	0	1678770176	40	4146
2026-01-10 10:26:33.92	46.57	23.45	-34.4	-35.7	19.2	0.00e+00	0	56	0	1684013056	40	4148
2026-01-10 10:26:34.92	46.29	23.44	-34.4	-35.6	19.3	0.00e+00	0	56	0	1690304512	40	4103
2026-01-10 10:26:35.93	46.01	23.43	-34.3	-35.5	19.4	0.00e+00	0	56	0	1695547392	40	4075
2026-01-10 10:26:36.93	45.73	23.42	-34.3	-35.5	19.4	0.00e+00	0	56	0	1700790272	40	4055
2026-01-10 10:26:37.94	45.45	23.40	-34.4	-35.6	19.3	0.00e+00	0	56	0	1707081728	40	4120
2026-01-10 10:26:38.95	45.17	23.39	-34.5	-35.8	19.2	0.00e+00	0	56	0	1712324608	40	4198
2026-01-10 10:26:39.96	44.89	23.37	-34.6	-35.8	19.1	0.00e+00	0	56	0	1718616064	40	4227
2026-01-10 10:26:40.97	44.61	23.36	-34.6	-35.8	19.1	0.00e+00	0	56	0	1723858944	40	4212
2026-01-10 10:26:41.98	44.33	23.34	-34.5	-35.7	19.2	0.00e+00	0	56	0	1729101824	40	4155
2026-01-10 10:26:42.98	44.06	23.32	-34.3	-35.5	19.3	0.00e+00	0	56	0	1735393280	40	4095
2026-01-10 10:26:44.00	43.78	23.30	-34.3	-35.5	19.4	0.00e+00	0	56	0	1740636160	40	4069
2026-01-10 10:26:45.00	43.50	23.28	-34.4	-35.6	19.3	0.00e+00	0	56	0	1746927616	40	4126
2026-01-10 10:26:46.01	43.22	23.26	-34.5	-35.7	19.2	0.00e+00	0	56	0	1752170496	40	4187
2026-01-10 10:26:47.02	42.94	23.24	-34.5	-35.8	19.1	0.00e+00	0	56	0	1757413376	40	4194
2026-01-10 10:26:48.03	42.67	23.22	-34.6	-35.8	19.1	0.00e+00	0	56	0	1763704832	40	4202
2026-01-10 10:26:49.04	42.39	23.20	-34.5	-35.7	19.2	0.00e+00	0	56	0	1768947712	40	4170
2026-01-10 10:26:50.05	42.11	23.18	-34.4	-35.6	19.3	0.00e+00	0	56	0	1775239168	40	4127
2026-01-10 10:26:51.05	41.84	23.15	-34.4	-35.6	19.2	0.00e+00	0	56	0	1780482048	40	4135
2026-01-10 10:26:52.06	41.56	23.13	-34.5	-35.7	19.1	0.00e+00	0	56	0	1786773504	40	4183
2026-01-10 10:26:53.07	41.29	23.10	-34.5	-35.8	19.1	0.00e+00	0	56	0	1792016384	40	4196
2026-01-10 10:26:54.08	41.01	23.08	-34.5	-35.7	19.1	0.00e+00	0	56	0	1797259264	40	4188
2026-01-10 10:26:55.09	40.74	23.05	-34.5	-35.7	19.2	0.00e+00	0	56	0	1803550720	40	4168
2026-01-10 10:26:56.10	40.47	23.03	-34.5	-35.7	19.2	0.00e+00	0	56	0	1808793600	40	4172
2026-01-10 10:26:57.11	40.19	23.00	-34.5	-35.7	19.2	0.00e+00	0	56	0	1815085056	40	4179
2026-01-10 10:26:58.11	39.92	22.97	-34.6	-35.8	19.1	0.00e+00	0	56	0	1820327936	40	4221
2026-01-10 10:26:59.12	39.65	22.94	-34.6	-35.8	19.1	0.00e+00	0	56	0	1825570816	40	4227
2026-01-10 10:27:00.13	39.38	22.91	-34.6	-35.8	19.1	0.00e+00	0	56	0	1831862272	40	4234
2026-01-10 10:27:01.14	39.11	22.88	-34.6	-35.9	19.0	0.00e+00	0	56	0	1837105152	40	4248
2026-01-10 10:27:02.14	38.84	22.85	-34.6	-35.9	19.1	0.00e+00	0	56	0	1843396608	40	4245
2026-01-10 10:27:03.15	38.57	22.82	-34.5	-35.7	19.2	0.00e+00	0	56	0	1848639488	40	4192
2026-01-10 10:27:04.15	38.30	22.79	-34.5	-35.7	19.2	0.00e+00	0	56	0	1853882368	40	4152
2026-01-10 10:27:05.16	38.03	22.76	-34.4	-35.6	19.3	0.00e+00	0	56	0	1860173824	40	4120
2026-01-10 10:27:06.17	37.76	22.72	-34.4	-35.6	19.3	0.00e+00	0	56	0	1865416704	40	4119
2026-01-10 10:27:07.18	37.50	22.69	-34.5	-35.7	19.2	0.00e+00	0	56	0	1871708160	40	4182
2026-01-10 10:27:08.18	37.23	22.65	-34.6	-35.8	19.1	0.00e+00	0	56	0	1876951040	40	4225
2026-01-10 10:27:09.19	36.96	22.62	-34.6	-35.8	19.1	0.00e+00	0	56	0	1883242496	40	4234
2026-01-10 10:27:10.20	36.70	22.58	-34.6	-35.9	19.1	0.00e+00	0	56	0	1888485376	40	4253
2026-01-10 10:27:11.21	36.43	22.55	-34.6	-35.8	19.1	0.00e+00	0	56	0	1893728256	40	4214
2026-01-10 10:27:12.22	36.17	22.51	-34.6	-35.8	19.1	0.00e+00	0	56	0	1900019712	40	4220
2026-01-10 10:27:13.22	35.91	22.47	-34.6	-35.8	19.1	0.00e+00	0	56	0	1905262592	40	4205
2026-01-10 10:27:14.23	35.64	22.43	-34.6	-35.8	19.1	0.00e+00	0	56	0	1910505472	40	4228
2026-01-10 10:27:15.24	35.38	22.40	-34.6	-35.8	19.1	0.00e+00	0	56	0	1916796928	40	4217
2026-01-10 10:27:16.24	35.12	22.36	-34.7	-35.9	19.0	0.00e+00	0	56	0	1922039808	40	4257
2026-01-10 10:27:17.25	34.86	22.32	-34.7	-35.9	19.0	0.00e+00	0	56	0	1928331264	40	4280
2026-01-10 10:27:18.26	34.60	22.28	-34.7	-35.9	19.0	0.00e+00	0	56	0	1933574144	40	4270
2026-01-10 10:27:19.27	34.34	22.23	-34.6	-35.8	19.1	0.00e+00	0	56	0	1938817024	40	4211
2026-01-10 10:27:20.27	34.08	22.19	-34.5	-35.7	19.2	0.00e+00	0	56	0	1945108480	40	4188
2026-01-10 10:27:21.28	33.82	22.15	-34.6	-35.8	19.1	0.00e+00	0	56	0	1950351360	40	4214
2026-01-10 10:27:22.28	33.57	22.11	-34.6	-35.8	19.1	0.00e+00	0	56	0	1956642816	40	4236
2026-01-10 10:27:23.29	33.31	22.07	-34.7	-35.9	19.0	0.00e+00	0	56	0	1961885696	40	4272
2026-01-10 10:27:24.30	33.05	22.02	-34.7	-35.9	19.0	0.00e+00	0	56	0	1968177152	40	4268
2026-01-10 10:27:25.31	32.80	21.98	-34.7	-35.9	19.1	0.00e+00	0	56	0	1973420032	40	4259
2026-01-10 10:27:26.32	32.54	21.93	-34.7	-35.9	19.0	0.00e+00	0	56	0	1978662912	40	4277
2026-01-10 10:27:27.33	32.29	21.89	-34.7	-36.0	19.0	0.00e+00	0	56	0	1984954368	40	4292
2026-01-10 10:27:28.34	32.03	21.84	-34.8	-36.1	18.9	0.00e+00	0	56	0	1990197248	40	4361
2026-01-10 10:27:29.35	31.78	21.79	-34.9	-36.2	18.7	0.00e+00	0	56	0	1996488704	40	4409
2026-01-10 10:27:30.36	31.53	21.75	-34.9	-36.1	18.8	0.00e+00	0	56	0	2001731584	40	4390
2026-01-10 10:27:31.37	31.28	21.70	-34.9	-36.1	18.8	0.00e+00	0	56	0	2006974464	40	4375
2026-01-10 10:27:32.37	31.03	21.65	-34.8	-36.0	18.9	0.00e+00	0	56	0	2013265920	40	4336
2026-01-10 10:27:33.38	30.78	21.60	-34.8	-36.0	19.0	0.00e+00	0	56	0	2018508800	40	4317
2026-01-10 10:27:34.39	30.53	21.55	-34.8	-36.1	18.8	0.00e+00	0	56	0	2024800256	40	4358
2026-01-10 10:27:35.40	30.28	21.50	-34.9	-36.2	18.7	0.00e+00	0	56	0	2030043136	40	4413
2026-01-10 10:27:36.40	30.04	21.46	-34.9	-36.2	18.8	0.00e+00	0	56	0	2035286016	40	4398
2026-01-10 10:27:37.41	29.79	21.41	-34.8	-36.0	19.0	0.00e+00	0	56	0	2041577472	40	4308
2026-01-10 10:27:38.42	29.55	21.35	-34.7	-35.9	19.0	0.00e+00	0	56	0	2046820352	40	4287
2026-01-10 10:27:39.43	29.30	21.30	-34.7	-35.9	19.1	0.00e+00	0	56	0	2053111808	40	4256
2026-01-10 10:27:40.43	29.06	21.25	-34.7	-35.9	19.0	0.00e+00	0	56	0	2058354688	40	4281
2026-01-10 10:27:41.44	28.82	21.20	-34.7	-36.0	19.0	0.00e+00	0	56	0	2064646144	40	4298
2026-01-10 10:27:42.45	28.57	21.15	-34.7	-35.9	19.0	0.00e+00	0	56	0	2069889024	40	4274
2026-01-10 10:27:43.45	28.33	21.09	-34.7	-35.9	19.0	0.00e+00	0	56	0	2075131904	40	4276
2026-01-10 10:27:44.46	28.09	21.04	-34.7	-36.0	19.0	0.00e+00	0	56	0	2081423360	40	4296
2026-01-10 10:27:45.46	27.86	20.99	-34.8	-36.0	18.9	0.00e+00	0	56	0	2086666240	40	4329
2026-01-10 10:27:46.47	27.62	20.93	-34.9	-36.2	18.8	0.00e+00	0	56	0	2091909120	40	4399
2026-01-10 10:27:47.48	27.38	20.88	-35.0	-36.2	18.7	0.00e+00	0	56	0	2098200576	40	4441
2026-01-10 10:27:48.48	27.14	20.82	-35.0	-36.2	18.7	0.00e+00	0	56	0	2103443456	40	4441
2026-01-10 10:27:49.49	26.91	20.77	-34.9	-36.2	18.8	0.00e+00	0	56	0	2109734912	40	4400
2026-01-10 10:27:50.50	26.67	20.71	-34.9	-36.1	18.8	0.00e+00	0	56	0	2114977792	40	4388
2026-01-10 10:27:51.50	26.44	20.66	-35.0	-36.2	18.7	0.00e+00	0	56	0	2120220672	40	4423
2026-01-10 10:27:52.51	26.21	20.60	-35.1	-36.3	18.6	0.00e+00	0	56	0	2126512128	40	4492
2026-01-10 10:27:53.52	25.97	20.54	-35.2	-36.5	18.4	0.00e+00	0	56	0	2131755008	40	4576
2026-01-10 10:27:54.53	25.74	20.49	-35.3	-36.6	18.3	0.00e+00	0	56	0	2138046464	41	4364
2026-01-10 10:27:55.53	25.51	20.43	-35.3	-36.6	18.3	0.00e+00	0	56	0	2143289344	41	4376
2026-01-10 10:27:56.54	25.28	20.37	-35.3	-36.6	18.4	0.00e+00	0	56	0	2149580800	41	4357
2026-01-10 10:27:57.55	25.05	20.31	-35.2	-36.5	18.4	0.00e+00	0	56	0	2154823680	41	4326
2026-01-10 10:27:58.55	24.83	20.25	-35.2	-36.5	18.4	0.00e+00	0	56	0	2160066560	41	4303
2026-01-10 10:27:59.56	24.60	20.19	-35.2	-36.5	18.4	0.00e+00	0	56	0	2166358016	41	4316
2026-01-10 10:28:00.57	24.37	20.14	-35.2	-36.5	18.4	0.00e+00	0	56	0	2171600896	41	4298
2026-01-10 10:28:01.57	24.15	20.08	-35.1	-36.4	18.5	0.00e+00	0	56	0	2176843776	41	4270
2026-01-10 10:28:02.58	23.92	20.02	-35.1	-36.4	18.5	0.00e+00	0	56	0	2183135232	41	4245
2026-01-10 10:28:03.59	23.70	19.96	-35.1	-36.4	18.5	0.00e+00	0	56	0	2188378112	41	4283
2026-01-10 10:28:04.60	23.47	19.89	-35.2	-36.5	18.4	0.00e+00	0	56	0	2194669568	41	4332
2026-01-10 10:28:05.60	23.25	19.83	-35.3	-36.6	18.3	0.00e+00	0	56	0	2199912448	41	4387
2026-01-10 10:28:06.61	23.03	19.77	-35.4	-36.7	18.2	0.00e+00	0	56	0	2205155328	41	4403
2026-01-10 10:28:07.62	22.81	19.71	-35.4	-36.7	18.2	0.00e+00	0	56	0	2211446784	41	4428
2026-01-10 10:28:08.63	22.59	19.65	-35.5	-36.8	18.1	0.00e+00	0	56	0	2216689664	41	4448
2026-01-10 10:28:09.64	22.37	19.59	-35.5	-36.8	18.0	0.00e+00	0	56	0	2222981120	41	4485
2026-01-10 10:28:10.65	22.16	19.52	-35.6	-37.0	17.9	0.00e+00	0	56	0	2228224000	41	4561
2026-01-10 10:28:11.65	21.94	19.46	-35.7	-37.0	17.9	0.00e+00	0	56	0	2234515456	41	4595
2026-01-10 10:28:12.66	21.73	19.40	-35.6	-37.0	17.9	0.00e+00	0	56	0	2239758336	41	4572
2026-01-10 10:28:13.67	21.51	19.34	-35.6	-37.0	17.9	0.00e+00	0	56	0	2245001216	41	4557
2026-01-10 10:28:14.68	21.30	19.27	-35.6	-36.9	18.0	0.00e+00	0	56	0	2251292672	41	4515
2026-01-10 10:28:15.69	21.08	19.21	-35.6	-36.9	18.0	0.00e+00	0	56	0	2256535552	41	4528
2026-01-10 10:28:16.70	20.87	19.15	-35.7	-37.0	17.9	0.00e+00	0	56	0	2262827008	41	4573
2026-01-10 10:28:17.71	20.66	19.08	-35.8	-37.1	17.7	0.00e+00	0	56	0	2268069888	42	4387
2026-01-10 10:28:18.72	20.45	19.02	-35.8	-37.2	17.7	0.00e+00	0	57	0	2273312768	42	4406
2026-01-10 10:28:19.73	20.24	18.95	-35.7	-37.1	17.8	0.00e+00	0	56	0	2279604224	42	4376
2026-01-10 10:28:20.74	20.03	18.89	-35.7	-37.0	17.9	0.00e+00	0	56	0	2284847104	42	4324
2026-01-10 10:28:21.74	19.82	18.82	-35.6	-36.9	17.9	0.00e+00	0	56	0	2291138560	42	4273
2026-01-10 10:28:22.75	19.62	18.76	-35.6	-36.9	18.0	0.00e+00	0	56	0	2296381440	42	4268
2026-01-10 10:28:23.76	19.41	18.69	-35.6	-37.0	17.9	0.00e+00	0	56	0	2301624320	42	4299
2026-01-10 10:28:24.77	19.21	18.63	-35.7	-37.0	17.8	0.00e+00	0	56	0	2307915776	42	4330
2026-01-10 10:28:25.78	19.00	18.56	-35.8	-37.1	17.7	0.00e+00	0	56	0	2313158656	42	4381
2026-01-10 10:28:26.78	18.80	18.49	-35.8	-37.2	17.7	0.00e+00	0	56	0	2319450112	42	4398
2026-01-10 10:28:27.79	18.60	18.43	-35.7	-37.1	17.7	0.00e+00	0	56	0	2324692992	42	4359
2026-01-10 10:28:28.80	18.40	18.36	-35.7	-37.0	17.9	0.00e+00	0	56	0	2330984448	42	4315
2026-01-10 10:28:29.80	18.20	18.29	-35.6	-37.0	17.9	0.00e+00	0	56	0	2336227328	42	4303
2026-01-10 10:28:30.81	18.00	18.23	-35.6	-36.9	18.0	0.00e+00	0	56	0	2341470208	42	4284
2026-01-10 10:28:31.82	17.80	18.16	-35.7	-37.1	17.9	0.00e+00	0	56	0	2347761664	42	4350
2026-01-10 10:28:32.83	17.60	18.09	-35.8	-37.2	17.7	0.00e+00	0	56	0	2353004544	42	4400
2026-01-10 10:28:33.83	17.41	18.03	-35.8	-37.2	17.7	0.00e+00	0	56	0	2358247424	42	4417
2026-01-10 10:28:34.84	17.21	17.96	-35.8	-37.2	17.7	0.00e+00	0	56	0	2364538880	42	4400
2026-01-10 10:28:35.85	17.01	17.89	-35.7	-37.0	17.9	0.00e+00	0	56	0	2369781760	42	4331
2026-01-10 10:28:36.85	16.82	17.82	-35.6	-37.0	17.9	0.00e+00	0	56	0	2376073216	42	4298
2026-01-10 10:28:37.86	16.63	17.75	-35.6	-37.0	17.9	0.00e+00	0	56	0	2381316096	42	4295
2026-01-10 10:28:38.87	16.44	17.69	-35.7	-37.0	17.9	0.00e+00	0	56	0	2386558976	42	4319
2026-01-10 10:28:39.87	16.25	17.62	-35.7	-37.1	17.8	0.00e+00	0	56	0	2392850432	42	4366
2026-01-10 10:28:40.88	16.06	17.55	-35.7	-37.1	17.8	0.00e+00	0	56	0	2398093312	42	4358
2026-01-10 10:28:41.89	15.87	17.48	-35.7	-37.0	17.8	0.00e+00	0	56	0	2404384768	42	4321
2026-01-10 10:28:42.89	15.68	17.41	-35.7	-37.1	17.8	0.00e+00	0	57	0	2409627648	42	4353
2026-01-10 10:28:43.90	15.49	17.34	-35.7	-37.1	17.8	0.00e+00	0	56	0	2415919104	42	4351
2026-01-10 10:28:44.91	15.30	17.28	-35.7	-37.1	17.7	0.00e+00	0	56	0	2421161984	42	4367
2026-01-10 10:28:45.91	15.12	17.21	-35.7	-37.1	17.7	0.00e+00	0	57	0	2426404864	42	4365
2026-01-10 10:28:46.92	14.93	17.14	-35.8	-37.2	17.6	0.00e+00	0	56	0	2432696320	42	4414
2026-01-10 10:28:47.93	14.75	17.07	-35.8	-37.2	17.6	0.00e+00	0	56	0	2437939200	42	4416
2026-01-10 10:28:48.93	14.56	17.00	-35.8	-37.2	17.6	0.00e+00	0	56	0	2443182080	42	4424
2026-01-10 10:28:49.94	14.38	16.93	-35.8	-37.2	17.6	0.00e+00	0	56	0	2449473536	42	4423
2026-01-10 10:28:50.94	14.20	16.86	-35.9	-37.3	17.5	0.00e+00	0	57	0	2454716416	42	4463
2026-01-10 10:28:51.95	14.02	16.79	-35.9	-37.3	17.5	0.00e+00	0	56	0	2461007872	42	4486
2026-01-10 10:28:52.95	13.84	16.72	-36.0	-37.4	17.4	0.00e+00	0	57	0	2466250752	42	4539
2026-01-10 10:28:53.96	13.66	16.65	-36.1	-37.5	17.3	0.00e+00	0	56	0	2471493632	42	4581
2026-01-10 10:28:54.97	13.48	16.58	-36.1	-37.6	17.2	0.00e+00	0	56	0	2477785088	42	4605
2026-01-10 10:28:55.97	13.31	16.51	-36.1	-37.6	17.2	0.00e+00	0	56	0	2483027968	42	4628
2026-01-10 10:28:56.98	13.13	16.44	-36.2	-37.7	17.1	0.00e+00	0	56	0	2489319424	42	4655
2026-01-10 10:28:57.99	12.95	16.37	-36.2	-37.7	17.1	0.00e+00	0	56	0	2494562304	42	4655
2026-01-10 10:28:59.00	12.78	16.30	-36.2	-37.6	17.1	0.00e+00	0	57	0	2500853760	42	4633
2026-01-10 10:29:00.00	12.60	16.23	-36.2	-37.7	17.1	0.00e+00	0	56	0	2506096640	42	4654
2026-01-10 10:29:01.01	12.43	16.16	-36.2	-37.7	17.1	0.00e+00	0	56	0	2511339520	43	4406
2026-01-10 10:29:02.01	12.26	16.09	-36.2	-37.7	17.1	0.00e+00	0	57	0	2517630976	43	4412
2026-01-10 10:29:03.02	12.09	16.02	-36.2	-37.7	17.0	0.00e+00	0	56	0	2522873856	43	4410
2026-01-10 10:29:04.03	11.92	15.95	-36.2	-37.7	17.1	0.00e+00	0	56	0	2528116736	43	4402
2026-01-10 10:29:05.04	11.75	15.88	-36.1	-37.6	17.1	0.00e+00	0	56	0	2534408192	43	4359
2026-01-10 10:29:06.04	11.58	15.81	-36.1	-37.5	17.2	0.00e+00	0	57	0	2539651072	43	4333
2026-01-10 10:29:07.05	11.41	15.74	-36.1	-37.5	17.2	0.00e+00	0	57	0	2545942528	43	4329
2026-01-10 10:29:08.05	11.24	15.67	-36.1	-37.6	17.1	0.00e+00	0	56	0	2551185408	43	4359
2026-01-10 10:29:09.06	11.08	15.60	-36.1	-37.6	17.1	0.00e+00	0	56	0	2556428288	43	4357
2026-01-10 10:29:10.07	10.91	15.53	-36.2	-37.6	17.0	0.00e+00	0	56	0	2562719744	43	4382
2026-01-10 10:29:11.08	10.74	15.45	-36.2	-37.7	16.9	0.00e+00	0	56	0	2567962624	43	4409
2026-01-10 10:29:12.09	10.58	15.38	-36.3	-37.7	16.9	0.00e+00	0	56	0	2574254080	43	4433
2026-01-10 10:29:13.09	10.42	15.31	-36.3	-37.8	16.8	0.00e+00	0	57	0	2579496960	43	4452
2026-01-10 10:29:14.10	10.25	15.24	-36.3	-37.8	16.8	0.00e+00	0	57	0	2585788416	43	4480
2026-01-10 10:29:15.11	10.09	15.17	-36.4	-37.9	16.7	0.00e+00	0	56	0	2591031296	43	4511
2026-01-10 10:29:16.12	9.93	15.10	-36.4	-37.9	16.7	0.00e+00	0	56	0	2596274176	43	4525
2026-01-10 10:29:17.12	9.77	15.03	-36.4	-38.0	16.6	0.00e+00	0	56	0	2602565632	43	4548
2026-01-10 10:29:18.13	9.61	14.96	-36.4	-37.9	16.6	0.00e+00	0	56	0	2607808512	43	4534
2026-01-10 10:29:19.14	9.45	14.89	-36.4	-38.0	16.5	0.00e+00	0	57	0	2614099968	43	4565
2026-01-10 10:29:20.15	9.29	14.82	-36.4	-37.9	16.6	0.00e+00	0	56	0	2619342848	43	4525
2026-01-10 10:29:21.16	9.13	14.74	-36.3	-37.8	16.6	0.00e+00	0	56	0	2624585728	43	4487
2026-01-10 10:29:22.16	8.98	14.67	-36.3	-37.8	16.6	0.00e+00	0	56	0	2630877184	43	4483
2026-01-10 10:29:23.17	8.82	14.60	-36.3	-37.8	16.6	0.00e+00	0	56	0	2636120064	43	4480
2026-01-10 10:29:24.17	8.67	14.53	-36.3	-37.9	16.5	0.00e+00	0	57	0	2641362944	43	4495
2026-01-10 10:29:25.18	8.51	14.46	-36.3	-37.9	16.5	0.00e+00	0	56	0	2647654400	43	4502
2026-01-10 10:29:26.19	8.36	14.39	-36.5	-38.0	16.3	0.00e+00	0	56	0	2652897280	43	4593
2026-01-10 10:29:27.19	8.21	14.32	-36.5	-38.1	16.2	0.00e+00	0	56	0	2659188736	43	4625
2026-01-10 10:29:28.20	8.06	14.25	-36.7	-38.3	16.0	0.00e+00	0	56	0	2664431616	43	4726
2026-01-10 10:29:29.21	7.90	14.18	-36.6	-38.2	16.1	0.00e+00	0	56	0	2670723072	43	4665
2026-01-10 10:29:30.22	7.75	14.10	-36.5	-38.1	16.2	0.00e+00	0	56	0	2675965952	43	4623
2026-01-10 10:29:31.22	7.60	14.03	-36.6	-38.2	16.0	0.00e+00	0	56	0	2681208832	43	4685
2026-01-10 10:29:32.23	7.45	13.96	-36.6	-38.2	16.0	0.00e+00	0	57	0	2687500288	43	4665
2026-01-10 10:29:33.24	7.31	13.89	-36.4	-38.0	16.1	0.00e+00	0	56	0	2692743168	43	4568
2026-01-10 10:29:34.25	7.16	13.82	-36.6	-38.3	15.7	0.00e+00	0	57	0	2699034624	43	4739
2026-01-10 10:29:35.26	7.01	13.75	-37.1	-38.8	15.3	0.00e+00	0	56	0	2704277504	44	4747
2026-01-10 10:29:36.27	6.86	13.68	-37.1	-38.9	15.1	0.00e+00	0	56	0	2709520384	44	4812
2026-01-10 10:29:37.28	6.72	13.61	-36.9	-38.7	15.2	0.00e+00	0	56	0	2715811840	44	4696
2026-01-10 10:29:38.29	6.57	13.54	-36.7	-38.5	15.3	0.00e+00	0	56	0	2721054720	44	4579
2026-01-10 10:29:39.30	6.43	13.46	-36.6	-38.4	15.4	0.00e+00	0	56	0	2727346176	44	4499
2026-01-10 10:29:40.30	6.29	13.39	-36.7	-38.5	15.2	0.00e+00	0	57	0	2732589056	44	4590
2026-01-10 10:29:41.31	6.14	13.32	-36.7	-38.5	15.1	0.00e+00	0	56	0	2737831936	44	4588
2026-01-10 10:29:42.33	6.00	13.25	-36.7	-38.5	15.0	0.00e+00	0	56	0	2744123392	44	4586
2026-01-10 10:29:43.34	5.86	13.18	-36.7	-38.6	14.9	0.00e+00	0	56	0	2749366272	44	4599
2026-01-10 10:29:44.35	5.72	13.11	-36.8	-38.8	14.6	0.00e+00	0	56	0	2755657728	44	4707
2026-01-10 10:29:45.36	5.58	13.04	-36.8	-38.8	14.6	0.00e+00	0	56	0	2760900608	44	4719
2026-01-10 10:29:46.37	5.44	12.97	-36.6	-38.5	14.8	0.00e+00	0	56	0	2767192064	44	4594
2026-01-10 10:29:47.38	5.30	12.90	-36.3	-38.1	15.2	0.00e+00	0	56	0	2772434944	44	4384
2026-01-10 10:29:48.39	5.16	12.83	-36.3	-38.1	15.2	0.00e+00	0	56	0	2778726400	44	4363
2026-01-10 10:29:49.40	5.02	12.75	-36.4	-38.4	14.8	0.00e+00	0	56	0	2783969280	44	4509
2026-01-10 10:29:50.41	4.89	12.68	-37.0	-39.1	13.9	2.20e-06	0	56	0	2789212160	44	4883
2026-01-10 10:29:51.43	4.75	12.61	-37.8	-40.4	12.4	3.31e-05	0	56	0	2795503616	46	5085
2026-01-10 10:29:52.44	4.61	12.54	-38.9	-42.1	10.4	9.78e-04	0	57	0	2800746496	48	5517
2026-01-10 10:29:53.45	4.48	12.47	-39.8	-44.2	8.1	2.64e-02	0	56	0	2807037952	50	6233
2026-01-10 10:29:54.46	4.34	12.40	-40.5	-46.2	6.1	2.51e-01	0	56	0	2812280832	51	7428
2026-01-10 10:29:55.47	4.21	12.33	-40.8	-48.2	4.7	7.70e-01	0	56	0	2814377984	52	8796
2026-01-10 10:29:56.48	4.08	12.26	-40.9	-49.9	4.1	8.36e-01	0	57	0	2814377984	52	10761
2026-01-10 10:29:57.48	3.95	12.19	-40.9	-51.0	3.8	8.45e-01	0	57	104	2814377984	52	12175
2026-01-10 10:29:58.50	3.81	12.12	-40.8	-51.4	3.8	8.45e-01	0	57	104	2814377984	52	12784
2026-01-10 10:29:59.51	3.68	12.05	-40.7	-51.9	3.8	8.47e-01	0	56	104	2814377984	52	13441
2026-01-10 10:30:00.52	3.55	11.98	-40.6	-51.8	3.8	8.46e-01	0	57	104	2814377984	52	13349
2026-01-10 10:30:01.53	3.42	11.91	-40.5	-51.9	3.8	8.45e-01	0	56	104	2814377984	52	13461
2026-01-10 10:30:02.54	3.29	11.84	-40.4	-52.0	3.8	8.46e-01	0	56	104	2814377984	52	13704
2026-01-10 10:30:03.55	3.17	11.77	-40.6	-52.0	3.8	8.46e-01	0	57	104	2814377984	52	13689
2026-01-10 10:30:04.56	3.04	11.70	-40.4	-52.0	3.8	8.47e-01	0	56	104	2814377984	52	13656
2026-01-10 10:30:05.57	2.91	11.63	-40.1	-51.7	3.8	8.47e-01	0	57	104	2814377984	52	13234
2026-01-10 10:30:06.58	2.78	11.56	-40.3	-51.9	3.8	8.45e-01	0	57	104	2814377984	52	13551
2026-01-10 10:30:07.59	2.66	11.49	-40.2	-51.8	3.8	8.46e-01	0	57	104	2814377984	52	13346
2026-01-10 10:30:08.61	2.53	11.42	-40.2	-51.9	3.8	8.46e-01	0	56	104	2814377984	52	13552
2026-01-10 10:30:09.62	2.41	11.35	-40.4	-52.1	3.8	8.46e-01	0	56	104	2814377984	52	13851
2026-01-10 10:30:10.63	2.28	11.28	-40.1	-51.8	3.8	8.45e-01	0	57	104	2814377984	52	13275
2026-01-10 10:30:11.63	2.16	11.21	-40.3	-51.9	3.8	8.46e-01	0	57	104	2814377984	51	14316
2026-01-10 10:30:12.65	2.04	11.14	-40.1	-51.7	3.8	8.46e-01	0	57	104	2814377984	51	13920
2026-01-10 10:30:13.66	1.91	11.07	-39.8	-51.5	3.8	8.47e-01	0	57	104	2814377984	51	13666
2026-01-10 10:30:14.66	1.79	11.00	-39.9	-51.6	3.8	8.46e-01	0	56	104	2814377984	51	13790
2026-01-10 10:30:15.68	1.67	10.93	-39.9	-51.6	3.8	8.46e-01	0	57	104	2814377984	51	13742
2026-01-10 10:30:16.68	1.55	10.86	-39.8	-51.5	3.8	8.46e-01	0	57	104	2814377984	51	13682
2026-01-10 10:30:17.70	1.43	10.79	-39.8	-51.5	3.8	8.46e-01	0	57	104	2814377984	51	13611
2026-01-10 10:30:18.71	1.31	10.72	-39.8	-51.5	3.8	8.45e-01	0	57	104	2814377984	51	13617
2026-01-10 10:30:19.72	1.19	10.66	-39.8	-51.5	3.8	8.45e-01	0	57	104	2814377984	51	13661
2026-01-10 10:30:20.73	1.08	10.59	-40.1	-51.7	3.8	8.45e-01	0	56	104	2814377984	51	13982
2026-01-10 10:30:21.74	0.96	10.52	-39.8	-51.6	3.8	8.45e-01	0	57	104	2814377984	51	13763
2026-01-10 10:30:22.75	0.84	10.45	-40.0	-51.6	3.8	8.48e-01	0	57	104	2814377984	51	13792
2026-01-10 10:30:23.76	0.72	10.38	-39.8	-51.5	3.8	8.46e-01	0	57	104	2814377984	51	13705
2026-01-10 10:30:24.77	0.61	10.31	-39.9	-51.6	3.8	8.45e-01	0	57	104	2814377984	51	13756
2026-01-10 10:30:25.78	0.49	10.24	-40.1	-51.8	3.8	8.46e-01	0	56	104	2814377984	51	14059
2026-01-10 10:30:26.79	0.38	10.17	-39.8	-51.5	3.8	8.45e-01	0	56	104	2814377984	51	13656
2026-01-10 10:30:27.79	0.27	10.11	-40.0	-51.7	3.8	8.47e-01	0	57	104	2814377984	51	13964
2026-01-10 10:30:28.80	0.15	10.04	-39.8	-51.5	3.8	8.45e-01	0	57	104	2814377984	51	13684
2026-01-10 10:30:29.81	0.04	9.97	-39.5	-51.5	3.8	8.48e-01	0	57	104	2814377984	51	13670
2026-01-10 10:30:30.81	359.93	9.90	-39.8	-51.5	3.8	8.48e-01	0	57	104	2814377984	51	13723
2026-01-10 10:30:31.82	359.82	9.83	-39.4	-51.5	3.8	8.46e-01	0	57	104	2814377984	50	14398
2026-01-10 10:30:32.83	359.70	9.77	-39.8	-51.5	3.8	8.46e-01	0	57	104	2814377984	50	14491
2026-01-10 10:30:33.84	359.59	9.70	-39.9	-51.6	3.8	8.47e-01	0	57	104	2814377984	50	14646
2026-01-10 10:30:34.85	359.48	9.63	-39.6	-51.6	3.8	8.47e-01	0	57	104	2814377984	50	14562
2026-01-10 10:30:35.87	359.37	9.56	-39.7	-51.5	3.8	8.47e-01	0	56	104	2814377984	50	14530
2026-01-10 10:30:36.88	359.26	9.49	-39.5	-51.5	3.8	8.46e-01	0	57	104	2814377984	50	14495
2026-01-10 10:30:37.89	359.15	9.43	-39.5	-51.4	3.8	8.46e-01	0	57	104	2814377984	50	14366
2026-01-10 10:30:38.90	359.05	9.36	-39.7	-51.5	3.8	8.46e-01	0	57	104	2814377984	50	14449
2026-01-10 10:30:39.91	358.94	9.29	-39.5	-51.4	3.8	8.46e-01	0	57	104	2814377984	50	14340
2026-01-10 10:30:40.92	358.83	9.22	-39.5	-51.5	3.8	8.46e-01	0	57	104	2814377984	50	14436
2026-01-10 10:30:41.93	358.72	9.16	-39.4	-51.5	3.8	8.48e-01	0	57	104	2814377984	50	14386
2026-01-10 10:30:42.94	358.62	9.09	-39.3	-51.5	3.8	8.46e-01	0	57	104	2814377984	50	14464
2026-01-10 10:30:43.95	358.51	9.02	-39.5	-51.5	3.8	8.46e-01	0	57	104	2814377984	50	14441
2026-01-10 10:30:44.96	358.41	8.96	-39.3	-51.5	3.8	8.46e-01	0	57	104	2814377984	50	14449
2026-01-10 10:30:45.97	358.30	8.89	-38.8	-51.4	3.8	8.47e-01	0	57	104	2814377984	49	15105
2026-01-10 10:30:46.98	358.20	8.82	-39.3	-51.4	3.8	8.45e-01	0	57	104	2814377984	49	15223
2026-01-10 10:30:48.00	358.09	8.75	-38.6	-51.4	3.8	8.46e-01	0	57	104	2814377984	49	15065
2026-01-10 10:30:49.00	357.99	8.69	-39.4	-51.4	3.8	8.46e-01	0	57	104	2814377984	49	15144
2026-01-10 10:30:50.01	357.89	8.62	-39.5	-51.4	3.8	8.46e-01	0	57	104	2814377984	49	15206
2026-01-10 10:30:51.01	357.79	8.56	-39.1	-51.4	3.8	8.46e-01	0	57	104	2814377984	49	15075
2026-01-10 10:30:52.02	357.68	8.49	-39.2	-51.4	3.8	8.46e-01	0	57	104	2814377984	49	15210
2026-01-10 10:30:53.03	357.58	8.42	-39.0	-51.4	3.8	8.47e-01	0	57	104	2814377984	49	15053
2026-01-10 10:30:54.03	357.48	8.36	-39.0	-51.4	3.8	8.46e-01	0	57	104	2814377984	49	15052
2026-01-10 10:30:55.04	357.38	8.29	-39.1	-51.3	3.8	8.46e-01	0	57	104	2814377984	49	15048
2026-01-10 10:30:56.06	357.28	8.23	-39.2	-51.3	3.8	8.46e-01	0	57	104	2814377984	49	14927
2026-01-10 10:30:57.06	357.18	8.16	-38.9	-51.3	3.8	8.45e-01	0	57	104	2814377984	49	14974
2026-01-10 10:30:58.07	357.08	8.09	-38.9	-51.4	3.8	8.46e-01	0	57	104	2814377984	49	15163
2026-01-10 10:30:59.09	356.98	8.03	-38.9	-51.3	3.8	8.46e-01	0	57	104	2814377984	49	15003
2026-01-10 10:31:00.10	356.89	7.96	-39.5	-51.4	3.8	8.47e-01	0	57	104	2814377984	49	15186
2026-01-10 10:31:01.11	356.79	7.90	-43.3	-54.9	3.8	8.46e-01	0	57	104	2814377984	57	14369
2026-01-10 10:31:02.12	356.69	7.83	-44.7	-56.4	3.8	8.46e-01	0	57	104	2814377984	60	14354
2026-01-10 10:31:03.13	356.60	7.77	-44.9	-56.7	3.8	8.44e-01	0	57	104	2814377984	60	14744
2026-01-10 10:31:04.14	356.50	7.70	-45.0	-56.8	3.8	8.46e-01	0	57	104	2814377984	60	15011
2026-01-10 10:31:05.15	356.40	7.63	-45.1	-56.9	3.8	8.46e-01	0	57	104	2814377984	60	15161
2026-01-10 10:31:06.16	356.31	7.57	-45.2	-57.0	3.8	8.46e-01	0	57	104	2814377984	60	15282
2026-01-10 10:31:07.17	356.21	7.50	-45.2	-57.1	3.8	8.47e-01	0	57	104	2814377984	60	15411
2026-01-10 10:31:08.19	356.12	7.44	-45.2	-57.0	3.8	8.46e-01	0	57	104	2814377984	61	14519
2026-01-10 10:31:09.20	356.02	7.37	-45.1	-57.1	3.8	8.47e-01	0	57	104	2814377984	61	14544
2026-01-10 10:31:10.21	355.93	7.31	-45.2	-57.0	3.8	8.47e-01	0	57	104	2814377984	61	14497
2026-01-10 10:31:11.22	355.84	7.24	-45.1	-57.0	3.8	8.45e-01	0	57	104	2814377984	61	14497
2026-01-10 10:31:12.23	355.74	7.18	-45.1	-57.0	3.8	8.47e-01	0	57	104	2814377984	61	14400
2026-01-10 10:31:13.24	355.65	7.12	-45.1	-56.9	3.8	8.46e-01	0	57	104	2814377984	61	14360
2026-01-10 10:31:14.25	355.56	7.05	-45.1	-56.9	3.8	8.46e-01	0	57	104	2814377984	61	14329
2026-01-10 10:31:15.26	355.47	6.99	-45.1	-57.0	3.8	8.47e-01	0	57	104	2814377984	61	14375
2026-01-10 10:31:16.27	355.38	6.92	-45.0	-56.9	3.8	8.46e-01	0	57	104	2814377984	61	14342
2026-01-10 10:31:17.28	355.29	6.86	-45.0	-56.9	3.8	8.46e-01	0	57	104	2814377984	61	14292
2026-01-10 10:31:18.29	355.20	6.79	-45.0	-56.9	3.8	8.47e-01	0	57	104	2814377984	61	14332
2026-01-10 10:31:19.30	355.11	6.73	-45.0	-56.9	3.8	8.46e-01	0	57	104	2814377984	61	14297
2026-01-10 10:31:20.31	355.02	6.67	-45.0	-56.9	3.8	8.46e-01	0	57	104	2814377984	61	14266
2026-01-10 10:31:21.32	354.93	6.60	-45.0	-56.9	3.8	8.47e-01	0	57	104	2814377984	61	14210
2026-01-10 10:31:22.33	354.84	6.54	-44.9	-56.8	3.8	8.46e-01	0	57	104	2814377984	61	14155
2026-01-10 10:31:23.34	354.75	6.48	-45.0	-56.8	3.8	8.46e-01	0	57	104	2814377984	61	14195
2026-01-10 10:31:24.35	354.66	6.41	-45.0	-56.8	3.8	8.46e-01	0	57	104	2814377984	61	14191
2026-01-10 10:31:25.36	354.58	6.35	-45.0	-56.9	3.8	8.46e-01	0	57	104	2814377984	61	14252
2026-01-10 10:31:26.37	354.49	6.28	-45.0	-56.9	3.8	8.46e-01	0	57	104	2814377984	61	14261
2026-01-10 10:31:27.38	354.40	6.22	-45.0	-56.9	3.8	8.46e-01	0	57	104	2814377984	61	14232
2026-01-10 10:31:28.39	354.32	6.16	-45.0	-56.8	3.8	8.46e-01	0	57	104	2814377984	61	14192
2026-01-10 10:31:29.40	354.23	6.10	-45.0	-56.9	3.8	8.46e-01	0	57	104	2814377984	61	14221
2026-01-10 10:31:30.41	354.15	6.03	-45.0	-56.9	3.8	8.44e-01	0	57	104	2814377984	61	14233
2026-01-10 10:31:31.42	354.06	5.97	-45.0	-56.8	3.8	8.47e-01	0	57	104	2814377984	61	14197
2026-01-10 10:31:32.43	353.98	5.91	-45.0	-56.9	3.8	8.45e-01	0	57	104	2814377984	61	14242
2026-01-10 10:31:33.44	353.89	5.84	-44.9	-56.9	3.8	8.46e-01	0	57	104	2814377984	61	14240
2026-01-10 10:31:34.45	353.81	5.78	-45.0	-56.9	3.8	8.46e-01	0	57	104	2814377984	61	14210
2026-01-10 10:31:35.46	353.72	5.72	-45.0	-56.8	3.8	8.46e-01	0	57	104	2814377984	61	14200
