passes_logs/2026/01/10/R2.0S_Moscow/R2.0S_Moscow__20260110_232952_NOAA_20_JPSS-1_rec.log

#Pass ID: 20260110_232952_NOAA 20 (JPSS-1)
#Satellite: NOAA 20 (JPSS-1)
#Configuration: NOAA 20
#almurnet v.1.7.20251203
#Start time: 2026-01-10 23:29:52

#Version: 2.2.20231116
#Station: R2.0S_Moscow
#Location: 37.707566 lon 55.798166 lat
#TLE: 1 43013U 17073A   26009.69119415  .00000109  00000+0  72598-4 0  9996
#TLE: 2 43013  98.7631 310.6868 0001678  46.7442 313.3874 14.19534878421981

#Time	Az	El	Level	Level2	SNR	BER	BlckErr	Temp	State	Recorded	gain1	gain2
2026-01-10 23:29:52.85	16.96	2.01	-41.1	-56.3	3.8	1.49e+00	0	48	0	0	54	19918
2026-01-10 23:29:53.86	16.97	2.07	-41.1	-56.3	3.8	1.49e+00	0	48	104	0	53	21097
2026-01-10 23:29:54.87	16.98	2.14	-41.1	-56.3	3.8	1.49e+00	0	48	104	0	53	21050
2026-01-10 23:29:55.88	16.99	2.20	-41.1	-56.3	3.8	1.49e+00	0	48	104	0	53	21054
2026-01-10 23:29:56.89	17.00	2.27	-41.1	-56.2	3.8	1.49e+00	0	48	104	0	53	20971
2026-01-10 23:29:57.91	17.02	2.33	-41.1	-56.2	3.8	1.49e+00	0	48	104	0	53	20981
2026-01-10 23:29:58.92	17.03	2.40	-41.1	-56.3	3.8	1.49e+00	0	48	104	0	53	21045
2026-01-10 23:29:59.93	17.04	2.46	-41.1	-56.2	3.8	1.49e+00	0	48	104	0	53	21004
2026-01-10 23:30:00.94	17.05	2.53	-41.1	-56.3	3.8	1.49e+00	0	48	104	0	53	21099
2026-01-10 23:30:01.95	17.06	2.59	-41.1	-56.3	3.8	1.49e+00	0	48	104	0	53	21049
2026-01-10 23:30:02.96	17.08	2.66	-41.1	-56.3	3.8	1.49e+00	0	49	104	0	53	21026
2026-01-10 23:30:03.97	17.09	2.73	-41.1	-56.3	3.8	1.49e+00	0	49	104	0	53	21032
2026-01-10 23:30:04.98	17.10	2.79	-41.1	-56.3	3.8	1.49e+00	0	49	104	0	53	21023
2026-01-10 23:30:05.99	17.11	2.86	-41.1	-56.2	3.8	1.49e+00	0	49	104	0	53	21013
2026-01-10 23:30:07.00	17.12	2.92	-41.1	-56.2	3.8	1.49e+00	0	49	104	0	53	20980
2026-01-10 23:30:08.01	17.14	2.99	-41.0	-56.2	3.8	1.49e+00	0	49	104	0	53	20973
2026-01-10 23:30:09.03	17.15	3.06	-41.1	-56.2	3.8	1.49e+00	0	49	104	0	53	20960
2026-01-10 23:30:10.04	17.16	3.12	-41.1	-56.3	3.8	1.49e+00	0	49	104	0	53	21062
2026-01-10 23:30:11.05	17.17	3.19	-41.1	-56.2	3.8	1.49e+00	0	49	104	0	53	20978
2026-01-10 23:30:12.06	17.19	3.26	-41.1	-56.3	3.8	1.49e+00	0	49	104	0	53	21041
2026-01-10 23:30:13.07	17.20	3.33	-41.1	-56.3	3.8	1.49e+00	0	49	104	0	53	21018
2026-01-10 23:30:14.08	17.21	3.39	-41.1	-56.2	3.8	1.49e+00	0	49	104	0	53	21005
2026-01-10 23:30:15.09	17.22	3.46	-41.1	-56.3	3.8	1.49e+00	0	49	104	0	53	21023
2026-01-10 23:30:16.10	17.23	3.53	-41.1	-56.2	3.8	1.49e+00	0	49	104	0	53	20996
2026-01-10 23:30:17.11	17.25	3.60	-41.0	-56.3	3.8	1.49e+00	0	49	104	0	53	21042
2026-01-10 23:30:18.12	17.26	3.66	-41.1	-56.2	3.8	1.49e+00	0	50	104	0	53	20999
2026-01-10 23:30:19.13	17.27	3.73	-41.0	-56.2	3.8	1.49e+00	0	49	104	0	53	21000
2026-01-10 23:30:20.14	17.28	3.80	-41.0	-56.3	3.8	1.49e+00	0	49	104	0	53	21032
2026-01-10 23:30:21.15	17.30	3.87	-41.1	-56.3	3.8	1.49e+00	0	50	104	0	53	21026
2026-01-10 23:30:22.17	17.31	3.94	-41.1	-56.2	3.8	1.49e+00	0	50	104	0	53	20979
2026-01-10 23:30:23.18	17.32	4.01	-41.0	-56.2	3.8	1.49e+00	0	50	104	0	53	20962
2026-01-10 23:30:24.19	17.34	4.08	-41.0	-56.2	3.8	1.49e+00	0	50	104	0	53	21001
2026-01-10 23:30:25.20	17.35	4.15	-41.0	-56.2	3.8	1.49e+00	0	50	104	0	53	20988
2026-01-10 23:30:26.21	17.36	4.21	-41.0	-56.2	3.8	1.49e+00	0	50	104	0	53	20941
2026-01-10 23:30:27.22	17.37	4.28	-41.1	-56.2	3.8	1.49e+00	0	50	104	0	53	20993
2026-01-10 23:30:28.23	17.39	4.35	-41.0	-56.2	3.8	1.49e+00	0	50	104	0	53	20959
2026-01-10 23:30:29.24	17.40	4.42	-41.0	-56.2	3.8	1.49e+00	0	50	104	0	53	21002
2026-01-10 23:30:30.26	17.41	4.49	-41.0	-56.2	3.8	1.49e+00	0	50	104	0	53	20990
2026-01-10 23:30:31.27	17.43	4.57	-41.0	-56.2	3.8	1.49e+00	0	50	104	0	53	21000
2026-01-10 23:30:32.28	17.44	4.64	-41.1	-56.3	3.8	1.49e+00	0	50	104	0	53	21036
2026-01-10 23:30:33.29	17.45	4.71	-41.1	-56.2	3.8	1.49e+00	0	51	104	0	53	21012
2026-01-10 23:30:34.30	17.47	4.78	-41.0	-56.3	3.8	1.49e+00	0	51	104	0	53	21023
2026-01-10 23:30:35.31	17.48	4.85	-41.1	-56.2	3.8	1.49e+00	0	50	104	0	53	20976
2026-01-10 23:30:36.32	17.49	4.92	-41.0	-56.2	3.8	1.49e+00	0	51	104	0	53	20949
2026-01-10 23:30:37.33	17.50	4.99	-41.1	-56.3	3.8	1.49e+00	0	51	104	0	53	21022
2026-01-10 23:30:38.34	17.52	5.06	-41.1	-56.2	3.8	1.49e+00	0	51	104	0	53	21004
2026-01-10 23:30:39.35	17.53	5.13	-41.0	-56.2	3.8	1.49e+00	0	51	104	0	53	21000
2026-01-10 23:30:40.37	17.55	5.21	-41.0	-56.2	3.8	1.49e+00	0	51	104	0	53	21016
2026-01-10 23:30:41.38	17.56	5.28	-41.1	-56.3	3.8	1.49e+00	0	51	104	0	53	21018
2026-01-10 23:30:42.39	17.57	5.35	-41.1	-56.2	3.8	1.49e+00	0	51	104	0	53	21017
2026-01-10 23:30:43.40	17.59	5.42	-41.1	-56.3	3.8	1.49e+00	0	51	104	0	53	21032
2026-01-10 23:30:44.41	17.60	5.50	-41.0	-56.2	3.8	1.49e+00	0	51	104	0	53	21003
2026-01-10 23:30:45.42	17.61	5.57	-41.0	-56.2	3.8	1.49e+00	0	51	104	0	53	20954
2026-01-10 23:30:46.43	17.63	5.64	-41.1	-56.2	3.8	1.49e+00	0	51	104	0	53	20955
2026-01-10 23:30:47.44	17.64	5.72	-41.0	-56.2	3.8	1.49e+00	0	51	104	0	53	20948
2026-01-10 23:30:48.45	17.65	5.79	-41.0	-56.2	3.8	1.49e+00	0	51	104	0	53	20897
2026-01-10 23:30:49.47	17.67	5.86	-41.0	-56.2	3.8	1.49e+00	0	51	104	0	53	20885
2026-01-10 23:30:50.48	17.68	5.94	-41.0	-56.2	3.8	1.49e+00	0	51	104	0	53	20917
2026-01-10 23:30:51.49	17.70	6.01	-41.0	-56.2	3.8	1.49e+00	0	51	104	0	53	20950
2026-01-10 23:30:52.50	17.71	6.09	-41.0	-56.2	3.8	1.49e+00	0	51	104	0	53	20970
2026-01-10 23:30:53.51	17.72	6.16	-41.0	-56.2	3.8	1.49e+00	0	51	104	0	53	20942
2026-01-10 23:30:54.52	17.74	6.24	-41.0	-56.2	3.8	1.49e+00	0	51	104	0	53	20908
2026-01-10 23:30:55.53	17.75	6.31	-41.0	-56.2	3.8	1.49e+00	0	52	104	0	53	20935
2026-01-10 23:30:56.54	17.77	6.39	-41.0	-56.2	3.8	1.49e+00	0	52	104	0	53	20973
2026-01-10 23:30:57.55	17.78	6.46	-41.1	-56.2	3.8	1.49e+00	0	52	104	0	53	20934
2026-01-10 23:30:58.57	17.79	6.54	-41.0	-56.2	3.8	1.49e+00	0	52	104	0	53	21001
2026-01-10 23:30:59.58	17.81	6.62	-41.1	-56.2	3.8	1.49e+00	0	52	104	0	53	20990
2026-01-10 23:31:00.59	17.82	6.69	-41.1	-56.2	3.8	1.49e+00	0	52	104	0	53	20991
2026-01-10 23:31:01.60	17.84	6.77	-41.1	-56.2	3.8	1.49e+00	0	52	104	0	53	20912
2026-01-10 23:31:02.61	17.85	6.84	-41.1	-56.1	3.8	1.49e+00	0	52	104	0	53	20684
2026-01-10 23:31:03.62	17.87	6.92	-41.0	-56.0	3.8	1.49e+00	0	52	104	0	53	20454
2026-01-10 23:31:04.63	17.88	7.00	-41.0	-55.9	3.8	1.49e+00	0	52	104	0	53	20151
2026-01-10 23:31:05.64	17.90	7.08	-41.0	-55.8	3.8	1.49e+00	0	52	104	0	53	19983
2026-01-10 23:31:06.65	17.91	7.15	-41.0	-55.8	3.8	1.49e+00	0	52	104	0	53	19944
2026-01-10 23:31:07.67	17.92	7.23	-41.0	-55.8	3.8	1.49e+00	0	52	104	0	53	20055
2026-01-10 23:31:08.68	17.94	7.31	-41.0	-55.7	3.8	1.49e+00	0	52	104	0	53	19620
2026-01-10 23:31:09.69	17.95	7.39	-41.0	-55.3	3.8	1.49e+00	0	52	104	0	53	18862
2026-01-10 23:31:10.70	17.97	7.47	-41.0	-54.7	3.8	1.49e+00	0	52	104	0	53	17552
2026-01-10 23:31:11.71	17.98	7.55	-40.9	-54.0	3.8	1.49e+00	0	52	104	0	53	16220
2026-01-10 23:31:12.72	18.00	7.62	-40.9	-53.0	4.1	1.45e+00	0	52	0	0	53	14491
2026-01-10 23:31:13.73	18.01	7.70	-40.8	-52.2	4.3	1.36e+00	92	52	0	0	53	13130
2026-01-10 23:31:14.74	18.03	7.78	-40.8	-51.4	4.7	9.88e-01	0	52	0	2097152	53	12012
2026-01-10 23:31:15.75	18.04	7.86	-40.6	-50.5	5.1	7.09e-01	0	53	0	4194304	53	10782
2026-01-10 23:31:16.76	18.06	7.94	-40.5	-49.5	5.7	5.34e-01	0	52	0	5242880	53	9704
2026-01-10 23:31:17.77	18.07	8.02	-40.3	-48.6	6.4	2.84e-01	0	52	0	7340032	52	9208
2026-01-10 23:31:18.79	18.09	8.11	-40.9	-48.9	6.6	1.94e-01	0	52	0	9437184	52	9578
2026-01-10 23:31:19.80	18.11	8.19	-42.1	-49.8	6.6	1.43e-01	0	52	0	11534336	54	9455
2026-01-10 23:31:20.81	18.12	8.27	-40.7	-52.3	4.3	3.43e-01	44	53	0	13631488	52	14196
2026-01-10 23:31:21.82	18.14	8.35	-40.8	-55.2	3.8	1.49e+00	0	53	104	13631488	52	19666
2026-01-10 23:31:22.83	18.15	8.43	-40.3	-44.6	11.4	1.05e+00	0	53	0	13631488	52	5840
2026-01-10 23:31:23.84	18.17	8.51	-40.8	-45.7	10.5	9.99e-04	0	53	0	15728640	52	6628
2026-01-10 23:31:24.84	18.18	8.59	-41.0	-46.1	10.2	6.06e-03	0	53	0	16777216	52	6952
2026-01-10 23:31:25.85	18.20	8.68	-41.0	-45.9	10.5	7.89e-03	0	53	0	18874368	52	6743
2026-01-10 23:31:26.86	18.22	8.76	-40.7	-44.9	11.6	1.92e-03	0	53	0	20971520	52	6049
2026-01-10 23:31:27.87	18.23	8.84	-40.5	-44.6	12.0	5.14e-04	0	53	0	23068672	52	5834
2026-01-10 23:31:28.88	18.25	8.92	-40.8	-45.1	11.5	7.04e-04	0	53	0	25165824	52	6170
2026-01-10 23:31:29.89	18.26	9.01	-40.9	-45.3	11.3	6.93e-04	0	53	0	26214400	52	6316
2026-01-10 23:31:30.90	18.28	9.09	-40.8	-45.2	11.5	8.62e-04	0	53	0	28311552	52	6249
2026-01-10 23:31:31.91	18.30	9.18	-40.7	-44.9	11.8	6.83e-04	0	53	0	30408704	52	6023
2026-01-10 23:31:32.92	18.31	9.26	-40.7	-44.9	11.8	7.59e-04	0	53	0	32505856	52	6011
2026-01-10 23:31:33.93	18.33	9.34	-40.8	-45.1	11.6	5.35e-04	0	53	0	34603008	52	6137
2026-01-10 23:31:34.95	18.34	9.43	-40.8	-45.1	11.6	6.76e-04	0	53	0	35651584	52	6194
2026-01-10 23:31:35.96	18.36	9.52	-40.7	-44.8	11.9	3.94e-04	0	53	0	37748736	52	5975
2026-01-10 23:31:36.97	18.38	9.60	-40.9	-45.1	11.7	4.08e-04	0	53	0	39845888	52	6187
2026-01-10 23:31:37.98	18.39	9.69	-40.8	-45.0	11.8	4.67e-04	0	53	0	41943040	52	6081
2026-01-10 23:31:38.99	18.41	9.77	-40.5	-44.4	12.5	2.74e-04	0	53	0	44040192	52	5673
2026-01-10 23:31:39.99	18.43	9.86	-40.8	-44.8	12.1	1.50e-04	0	53	0	45088768	52	5970
2026-01-10 23:31:41.00	18.44	9.94	-40.7	-44.6	12.3	2.51e-04	0	53	0	47185920	52	5807
2026-01-10 23:31:42.01	18.46	10.03	-40.6	-44.5	12.4	1.83e-04	0	53	0	49283072	52	5774
2026-01-10 23:31:43.02	18.48	10.12	-40.8	-44.7	12.2	1.68e-04	0	53	0	51380224	52	5873
2026-01-10 23:31:44.03	18.49	10.21	-40.7	-44.6	12.3	1.53e-04	0	54	0	53477376	52	5848
2026-01-10 23:31:45.04	18.51	10.29	-40.8	-44.7	12.3	1.89e-04	0	53	0	54525952	52	5868
2026-01-10 23:31:46.05	18.53	10.38	-40.8	-44.6	12.4	9.38e-05	0	53	0	56623104	52	5827
2026-01-10 23:31:47.06	18.55	10.47	-40.7	-44.5	12.6	9.53e-05	0	53	0	58720256	52	5740
2026-01-10 23:31:48.07	18.56	10.56	-40.8	-44.6	12.4	1.43e-04	0	53	0	60817408	52	5835
2026-01-10 23:31:49.08	18.58	10.65	-40.8	-44.5	12.5	1.70e-04	0	54	0	62914560	52	5748
2026-01-10 23:31:50.09	18.60	10.74	-40.8	-44.5	12.5	8.46e-05	0	53	0	63963136	52	5788
2026-01-10 23:31:51.10	18.62	10.83	-40.9	-44.6	12.5	1.43e-04	0	53	0	66060288	52	5843
2026-01-10 23:31:52.11	18.63	10.92	-40.9	-44.6	12.5	8.01e-05	0	53	0	68157440	52	5836
2026-01-10 23:31:53.12	18.65	11.01	-40.8	-44.5	12.7	9.38e-05	0	54	0	70254592	52	5747
2026-01-10 23:31:54.13	18.67	11.10	-40.8	-44.4	12.7	7.78e-05	0	54	0	72351744	52	5721
2026-01-10 23:31:55.14	18.69	11.19	-40.9	-44.6	12.5	9.30e-05	0	53	0	74448896	52	5838
2026-01-10 23:31:56.15	18.71	11.28	-40.9	-44.5	12.7	9.38e-05	0	54	0	75497472	52	5770
2026-01-10 23:31:57.16	18.72	11.37	-41.0	-44.7	12.6	8.92e-05	0	54	0	77594624	52	5863
2026-01-10 23:31:58.17	18.74	11.47	-40.8	-44.4	12.8	5.95e-05	0	54	0	79691776	52	5707
2026-01-10 23:31:59.18	18.76	11.56	-40.8	-44.3	12.9	4.42e-05	0	54	0	81788928	52	5642
2026-01-10 23:32:00.19	18.78	11.65	-40.8	-44.4	12.9	4.65e-05	0	54	0	83886080	52	5671
2026-01-10 23:32:01.20	18.80	11.75	-40.8	-44.3	12.9	3.96e-05	0	54	0	84934656	52	5649
2026-01-10 23:32:02.21	18.82	11.84	-40.8	-44.3	13.0	4.04e-05	0	54	0	87031808	52	5636
2026-01-10 23:32:03.22	18.83	11.93	-40.9	-44.4	12.9	4.34e-05	0	54	0	89128960	52	5679
2026-01-10 23:32:04.23	18.85	12.03	-40.7	-44.1	13.2	2.97e-05	0	54	0	91226112	52	5519
2026-01-10 23:32:05.23	18.87	12.12	-40.7	-44.1	13.3	1.90e-05	0	54	0	93323264	52	5467
2026-01-10 23:32:06.24	18.89	12.22	-40.6	-43.9	13.5	1.60e-05	0	54	0	94371840	52	5343
2026-01-10 23:32:07.25	18.91	12.31	-40.6	-43.8	13.5	6.10e-06	0	54	0	96468992	52	5340
2026-01-10 23:32:08.26	18.93	12.41	-40.5	-43.7	13.7	1.60e-05	0	54	0	98566144	52	5266
2026-01-10 23:32:09.27	18.95	12.50	-40.5	-43.7	13.7	5.30e-06	0	54	0	100663296	52	5251
2026-01-10 23:32:10.28	18.97	12.60	-40.6	-43.8	13.7	2.20e-06	0	54	0	102760448	52	5320
2026-01-10 23:32:11.29	18.99	12.70	-40.5	-43.7	13.8	3.80e-06	0	54	0	103809024	52	5234
2026-01-10 23:32:12.30	19.01	12.79	-40.5	-43.7	13.8	3.80e-06	0	54	0	105906176	52	5236
2026-01-10 23:32:13.31	19.03	12.89	-40.4	-43.6	13.9	5.30e-06	0	54	0	108003328	52	5171
2026-01-10 23:32:14.32	19.04	12.99	-40.6	-43.7	13.8	6.80e-06	0	54	0	110100480	52	5271
2026-01-10 23:32:15.33	19.06	13.09	-40.4	-43.5	14.0	4.50e-06	0	54	0	112197632	52	5129
2026-01-10 23:32:16.34	19.08	13.19	-40.5	-43.7	13.8	3.80e-06	0	54	0	113246208	52	5249
2026-01-10 23:32:17.35	19.10	13.29	-40.5	-43.6	13.9	5.30e-06	0	54	0	115343360	52	5183
2026-01-10 23:32:18.36	19.12	13.39	-40.5	-43.6	13.9	2.20e-06	0	54	0	117440512	52	5166
2026-01-10 23:32:19.37	19.14	13.49	-40.5	-43.6	13.9	3.80e-06	0	54	0	119537664	52	5193
2026-01-10 23:32:20.38	19.17	13.59	-40.5	-43.7	13.9	6.10e-06	0	54	0	121634816	52	5224
2026-01-10 23:32:21.39	19.19	13.69	-40.5	-43.6	14.0	6.80e-06	0	54	0	122683392	52	5161
2026-01-10 23:32:22.40	19.21	13.79	-40.4	-43.5	14.0	7.00e-07	0	54	0	124780544	52	5111
2026-01-10 23:32:23.41	19.23	13.89	-40.5	-43.6	13.9	1.50e-06	0	54	0	126877696	52	5179
2026-01-10 23:32:24.41	19.25	13.99	-40.4	-43.4	14.1	0.00e+00	0	54	0	128974848	52	5099
2026-01-10 23:32:25.42	19.27	14.09	-40.4	-43.5	14.1	3.00e-06	0	54	0	131072000	52	5105
2026-01-10 23:32:26.43	19.29	14.20	-40.4	-43.5	14.1	3.80e-06	0	54	0	132120576	52	5118
2026-01-10 23:32:27.44	19.31	14.30	-40.5	-43.7	13.9	1.50e-06	0	54	0	134217728	52	5224
2026-01-10 23:32:28.46	19.33	14.41	-40.5	-43.6	14.0	2.20e-06	0	54	0	136314880	52	5173
2026-01-10 23:32:29.47	19.35	14.51	-40.6	-43.7	13.9	3.00e-06	0	54	0	138412032	52	5237
2026-01-10 23:32:30.47	19.37	14.61	-40.4	-43.4	14.1	1.50e-06	0	54	0	140509184	52	5098
2026-01-10 23:32:31.48	19.40	14.72	-40.4	-43.4	14.2	2.20e-06	0	54	0	142606336	52	5047
2026-01-10 23:32:32.50	19.42	14.83	-40.5	-43.5	14.2	0.00e+00	0	54	0	143654912	52	5110
2026-01-10 23:32:33.50	19.44	14.93	-40.5	-43.5	14.2	2.20e-06	0	54	0	145752064	52	5109
2026-01-10 23:32:34.52	19.46	15.04	-40.4	-43.4	14.2	0.00e+00	0	54	0	147849216	52	5076
2026-01-10 23:32:35.52	19.48	15.15	-40.6	-43.7	14.0	7.00e-07	0	54	0	149946368	52	5231
2026-01-10 23:32:36.53	19.51	15.25	-40.5	-43.5	14.2	1.50e-06	0	54	0	152043520	52	5150
2026-01-10 23:32:37.55	19.53	15.36	-40.5	-43.5	14.2	7.00e-07	0	54	0	153092096	52	5125
2026-01-10 23:32:38.55	19.55	15.47	-40.6	-43.6	14.2	7.00e-07	0	54	0	155189248	52	5163
2026-01-10 23:32:39.56	19.57	15.58	-40.5	-43.4	14.3	2.20e-06	0	55	0	157286400	52	5082
2026-01-10 23:32:40.57	19.60	15.69	-40.6	-43.5	14.2	7.00e-07	0	54	0	159383552	52	5153
2026-01-10 23:32:41.58	19.62	15.80	-40.6	-43.6	14.1	2.20e-06	0	54	0	161480704	52	5205
2026-01-10 23:32:42.59	19.64	15.91	-40.7	-43.8	14.0	6.10e-06	0	54	0	162529280	52	5301
2026-01-10 23:32:43.60	19.67	16.02	-40.7	-43.9	13.9	4.50e-06	0	54	0	164626432	52	5350
2026-01-10 23:32:44.61	19.69	16.13	-40.7	-43.9	13.9	3.80e-06	0	54	0	166723584	52	5347
2026-01-10 23:32:45.62	19.71	16.24	-40.6	-43.7	14.0	2.20e-06	0	55	0	168820736	52	5250
2026-01-10 23:32:46.63	19.74	16.36	-40.6	-43.7	14.0	4.50e-06	0	54	0	170917888	52	5275
2026-01-10 23:32:47.64	19.76	16.47	-40.7	-43.8	13.9	3.80e-06	0	55	0	171966464	52	5308
2026-01-10 23:32:48.65	19.78	16.58	-40.7	-43.8	14.0	1.50e-06	0	55	0	174063616	52	5299
2026-01-10 23:32:49.66	19.81	16.70	-40.7	-43.7	14.0	3.80e-06	0	55	0	176160768	52	5276
2026-01-10 23:32:50.67	19.83	16.81	-40.7	-43.8	14.0	1.50e-06	0	54	0	178257920	52	5292
2026-01-10 23:32:51.68	19.86	16.93	-40.8	-43.9	13.9	3.00e-06	0	55	0	180355072	52	5371
2026-01-10 23:32:52.69	19.88	17.04	-40.7	-43.8	14.0	2.20e-06	0	54	0	181403648	52	5306
2026-01-10 23:32:53.70	19.90	17.16	-40.8	-43.9	13.9	3.00e-06	0	55	0	183500800	52	5372
2026-01-10 23:32:54.71	19.93	17.28	-40.8	-43.9	13.9	6.80e-06	0	55	0	185597952	52	5370
2026-01-10 23:32:55.72	19.95	17.39	-40.8	-44.0	13.8	6.80e-06	0	55	0	187695104	52	5433
2026-01-10 23:32:56.73	19.98	17.51	-41.0	-44.2	13.6	1.14e-05	0	55	0	189792256	52	5559
2026-01-10 23:32:57.74	20.01	17.63	-40.9	-44.1	13.7	3.00e-06	0	54	0	190840832	52	5482
2026-01-10 23:32:58.75	20.03	17.75	-40.9	-44.1	13.7	8.30e-06	0	55	0	192937984	52	5514
2026-01-10 23:32:59.76	20.06	17.87	-41.0	-44.2	13.5	1.14e-05	0	55	0	195035136	52	5590
2026-01-10 23:33:00.77	20.08	17.99	-41.1	-44.4	13.5	7.60e-06	0	55	0	197132288	52	5669
2026-01-10 23:33:01.79	20.11	18.11	-41.1	-44.4	13.4	1.90e-05	0	54	0	199229440	52	5662
2026-01-10 23:33:02.79	20.13	18.23	-41.2	-44.6	13.3	1.90e-05	0	55	0	200278016	52	5804
2026-01-10 23:33:03.80	20.16	18.35	-41.2	-44.6	13.3	9.10e-06	0	55	0	202375168	52	5804
2026-01-10 23:33:04.81	20.19	18.48	-41.2	-44.6	13.3	1.98e-05	0	55	0	204472320	53	5488
2026-01-10 23:33:05.82	20.21	18.60	-41.3	-44.7	13.2	2.67e-05	0	55	0	206569472	53	5559
2026-01-10 23:33:06.83	20.24	18.72	-41.3	-44.8	13.1	2.28e-05	0	55	0	208666624	53	5598
2026-01-10 23:33:07.84	20.27	18.85	-41.4	-44.9	13.0	5.72e-05	0	55	0	210763776	53	5701
2026-01-10 23:33:08.85	20.30	18.97	-41.5	-45.1	12.8	5.11e-05	0	55	0	211812352	53	5806
2026-01-10 23:33:09.86	20.32	19.10	-41.3	-44.7	13.2	3.12e-05	0	55	0	213909504	53	5540
2026-01-10 23:33:10.87	20.35	19.23	-41.4	-44.8	13.1	2.97e-05	0	55	0	216006656	53	5642
2026-01-10 23:33:11.88	20.38	19.35	-41.4	-44.9	13.0	3.20e-05	0	55	0	218103808	53	5689
2026-01-10 23:33:12.89	20.41	19.48	-41.4	-44.9	12.9	4.19e-05	0	55	0	220200960	53	5721
2026-01-10 23:33:13.90	20.43	19.61	-41.5	-45.1	12.8	4.50e-05	0	55	0	221249536	53	5796
2026-01-10 23:33:14.91	20.46	19.74	-41.5	-45.2	12.7	6.48e-05	0	55	0	223346688	53	5861
2026-01-10 23:33:15.92	20.49	19.87	-41.6	-45.2	12.7	1.14e-04	0	55	0	225443840	53	5882
2026-01-10 23:33:16.93	20.52	20.00	-41.6	-45.2	12.7	8.01e-05	0	55	0	227540992	53	5873
2026-01-10 23:33:17.94	20.55	20.13	-41.4	-44.9	13.0	4.27e-05	0	55	0	229638144	53	5709
2026-01-10 23:33:18.95	20.58	20.26	-41.5	-45.0	13.0	4.19e-05	0	55	0	230686720	53	5724
2026-01-10 23:33:19.96	20.61	20.39	-41.5	-45.1	12.8	5.64e-05	0	55	0	232783872	53	5814
2026-01-10 23:33:20.97	20.64	20.53	-41.5	-45.1	12.8	4.73e-05	0	55	0	234881024	53	5832
2026-01-10 23:33:21.98	20.67	20.66	-41.6	-45.1	12.8	5.11e-05	0	55	0	236978176	53	5847
2026-01-10 23:33:22.99	20.70	20.79	-41.6	-45.2	12.7	6.63e-05	0	55	0	239075328	53	5877
2026-01-10 23:33:24.00	20.73	20.93	-41.6	-45.2	12.8	7.01e-05	0	55	0	240123904	53	5869
2026-01-10 23:33:25.01	20.76	21.07	-41.6	-45.3	12.7	5.64e-05	0	55	0	242221056	53	5929
2026-01-10 23:33:26.02	20.79	21.20	-41.5	-45.0	13.0	4.27e-05	0	55	0	244318208	53	5737
2026-01-10 23:33:27.02	20.82	21.34	-41.5	-45.0	13.0	4.34e-05	0	55	0	246415360	53	5759
2026-01-10 23:33:28.03	20.85	21.48	-41.6	-45.1	12.9	4.73e-05	0	55	0	248512512	53	5815
2026-01-10 23:33:29.04	20.88	21.62	-41.5	-45.0	13.0	5.03e-05	0	55	0	249561088	53	5773
2026-01-10 23:33:30.05	20.92	21.76	-41.4	-44.9	13.1	3.05e-05	0	55	0	251658240	53	5681
2026-01-10 23:33:31.06	20.95	21.90	-41.4	-44.8	13.2	1.75e-05	0	55	0	253755392	53	5652
2026-01-10 23:33:32.07	20.98	22.04	-41.4	-44.9	13.1	2.82e-05	0	55	0	255852544	53	5673
2026-01-10 23:33:33.08	21.01	22.18	-41.5	-44.9	13.1	2.36e-05	0	55	0	257949696	53	5705
2026-01-10 23:33:34.10	21.05	22.32	-41.5	-44.9	13.1	2.51e-05	0	55	0	258998272	53	5679
2026-01-10 23:33:35.10	21.08	22.47	-41.4	-44.8	13.2	1.60e-05	0	55	0	261095424	53	5609
2026-01-10 23:33:36.11	21.11	22.61	-41.5	-45.0	13.1	2.28e-05	0	55	0	263192576	53	5724
2026-01-10 23:33:37.12	21.15	22.76	-41.5	-44.9	13.0	2.51e-05	0	55	0	265289728	53	5721
2026-01-10 23:33:38.13	21.18	22.90	-41.4	-44.7	13.3	2.67e-05	0	55	0	267386880	53	5577
2026-01-10 23:33:39.14	21.21	23.05	-41.4	-44.8	13.3	1.52e-05	0	55	0	268435456	53	5593
2026-01-10 23:33:40.15	21.25	23.20	-41.4	-44.7	13.3	1.98e-05	0	55	0	270532608	53	5571
2026-01-10 23:33:41.16	21.28	23.35	-41.3	-44.6	13.4	2.05e-05	0	55	0	272629760	53	5524
2026-01-10 23:33:42.17	21.32	23.50	-41.3	-44.5	13.5	1.52e-05	0	55	0	274726912	53	5455
2026-01-10 23:33:43.19	21.35	23.65	-41.3	-44.6	13.4	1.06e-05	0	55	0	276824064	53	5523
2026-01-10 23:33:44.19	21.39	23.80	-41.4	-44.7	13.3	1.22e-05	0	55	0	278921216	53	5577
2026-01-10 23:33:45.20	21.43	23.95	-41.2	-44.4	13.7	7.60e-06	0	55	0	279969792	53	5341
2026-01-10 23:33:46.21	21.46	24.10	-41.0	-44.1	13.9	6.10e-06	0	55	0	282066944	53	5194
2026-01-10 23:33:47.22	21.50	24.26	-41.0	-44.1	13.9	1.50e-06	0	55	0	284164096	53	5205
2026-01-10 23:33:48.23	21.54	24.41	-41.0	-44.1	14.0	1.50e-06	0	55	0	286261248	53	5200
2026-01-10 23:33:49.24	21.57	24.57	-41.0	-44.1	14.0	5.30e-06	0	55	0	288358400	53	5162
2026-01-10 23:33:50.26	21.61	24.73	-40.9	-43.9	14.1	7.00e-07	0	55	0	289406976	53	5085
2026-01-10 23:33:51.26	21.65	24.88	-41.0	-44.0	14.1	7.00e-07	0	55	0	291504128	53	5131
2026-01-10 23:33:52.28	21.69	25.04	-41.0	-44.0	14.1	1.50e-06	0	55	0	293601280	53	5112
2026-01-10 23:33:53.29	21.73	25.20	-41.0	-44.0	14.1	2.20e-06	0	55	0	295698432	53	5108
2026-01-10 23:33:54.30	21.76	25.36	-41.0	-44.0	14.1	0.00e+00	0	55	0	297795584	53	5123
2026-01-10 23:33:55.31	21.80	25.52	-41.0	-44.1	14.0	2.20e-06	0	55	0	298844160	53	5192
2026-01-10 23:33:56.32	21.84	25.69	-41.2	-44.3	13.8	2.20e-06	0	55	0	300941312	53	5327
2026-01-10 23:33:57.32	21.88	25.85	-41.2	-44.3	13.8	5.30e-06	0	55	0	303038464	53	5312
2026-01-10 23:33:58.33	21.92	26.01	-41.1	-44.2	13.9	3.80e-06	0	56	0	305135616	53	5220
2026-01-10 23:33:59.34	21.96	26.18	-41.2	-44.4	13.8	3.00e-06	0	55	0	307232768	53	5355
2026-01-10 23:34:00.35	22.01	26.34	-41.3	-44.4	13.6	8.30e-06	0	55	0	308281344	53	5400
2026-01-10 23:34:01.36	22.05	26.51	-41.3	-44.6	13.5	7.60e-06	0	56	0	310378496	53	5467
2026-01-10 23:34:02.38	22.09	26.68	-41.4	-44.7	13.4	1.22e-05	0	55	0	312475648	53	5553
2026-01-10 23:34:03.38	22.13	26.85	-41.5	-44.8	13.3	1.52e-05	0	55	0	314572800	53	5654
2026-01-10 23:34:04.40	22.18	27.02	-41.6	-45.1	13.1	1.98e-05	0	56	0	316669952	53	5798
2026-01-10 23:34:05.40	22.22	27.19	-41.7	-45.3	12.8	3.35e-05	0	55	0	318767104	53	5938
2026-01-10 23:34:06.41	22.26	27.36	-41.6	-45.2	13.0	3.50e-05	0	55	0	319815680	53	5867
2026-01-10 23:34:07.42	22.31	27.54	-41.8	-45.4	12.8	6.17e-05	0	55	0	321912832	54	5673
2026-01-10 23:34:08.43	22.35	27.71	-41.8	-45.5	12.7	8.85e-05	0	56	0	324009984	54	5746
2026-01-10 23:34:09.44	22.40	27.89	-41.9	-45.7	12.5	1.34e-04	0	55	0	326107136	54	5870
2026-01-10 23:34:10.45	22.44	28.07	-41.9	-45.6	12.5	1.27e-04	0	55	0	328204288	54	5853
2026-01-10 23:34:11.46	22.49	28.24	-42.0	-45.9	12.2	1.50e-04	0	56	0	329252864	54	5997
2026-01-10 23:34:12.47	22.53	28.42	-42.1	-46.0	12.1	1.90e-04	0	56	0	331350016	54	6104
2026-01-10 23:34:13.48	22.58	28.61	-42.2	-46.2	12.0	2.99e-04	0	55	0	333447168	54	6203
2026-01-10 23:34:14.49	22.63	28.79	-42.2	-46.2	12.0	3.89e-04	0	56	0	335544320	54	6204
2026-01-10 23:34:15.50	22.68	28.97	-42.2	-46.2	11.9	3.60e-04	0	55	0	337641472	55	5907
2026-01-10 23:34:16.51	22.72	29.15	-42.2	-46.3	11.9	3.76e-04	0	56	0	338690048	55	5934
2026-01-10 23:34:17.52	22.77	29.34	-42.2	-46.2	11.9	3.71e-04	0	56	0	340787200	55	5893
2026-01-10 23:34:18.53	22.82	29.53	-42.2	-46.2	11.9	3.91e-04	0	56	0	342884352	55	5900
2026-01-10 23:34:19.54	22.87	29.71	-42.2	-46.1	12.0	4.03e-04	0	55	0	344981504	55	5851
2026-01-10 23:34:20.55	22.92	29.90	-42.3	-46.3	11.8	3.71e-04	0	56	0	347078656	55	5967
2026-01-10 23:34:21.56	22.97	30.09	-42.3	-46.3	11.8	4.35e-04	0	56	0	348127232	55	5962
2026-01-10 23:34:22.57	23.02	30.28	-42.3	-46.4	11.8	4.97e-04	0	56	0	350224384	55	6008
2026-01-10 23:34:23.58	23.08	30.48	-42.4	-46.5	11.6	6.39e-04	0	55	0	352321536	55	6088
2026-01-10 23:34:24.59	23.13	30.67	-42.4	-46.5	11.5	6.06e-04	0	56	0	354418688	55	6121
2026-01-10 23:34:25.60	23.18	30.87	-42.4	-46.5	11.7	6.44e-04	0	56	0	356515840	55	6086
2026-01-10 23:34:26.61	23.24	31.06	-42.3	-46.4	11.7	5.84e-04	0	56	0	357564416	55	6029
2026-01-10 23:34:27.62	23.29	31.26	-42.3	-46.4	11.8	7.93e-04	0	56	0	359661568	55	6007
2026-01-10 23:34:28.63	23.35	31.46	-42.3	-46.4	11.8	4.95e-04	0	55	0	361758720	55	6005
2026-01-10 23:34:29.64	23.40	31.66	-42.4	-46.5	11.6	7.03e-04	0	56	0	363855872	55	6110
2026-01-10 23:34:30.65	23.46	31.86	-42.4	-46.5	11.7	5.80e-04	0	56	0	365953024	55	6093
2026-01-10 23:34:31.66	23.52	32.07	-42.4	-46.6	11.5	6.69e-04	0	56	0	367001600	55	6189
2026-01-10 23:34:32.66	23.57	32.27	-42.4	-46.5	11.7	7.26e-04	0	56	0	369098752	55	6083
2026-01-10 23:34:33.67	23.63	32.47	-42.4	-46.6	11.6	6.88e-04	0	56	0	371195904	55	6152
2026-01-10 23:34:34.68	23.69	32.68	-42.3	-46.3	11.8	5.44e-04	0	56	0	373293056	55	5991
2026-01-10 23:34:35.69	23.75	32.89	-42.3	-46.3	11.9	4.40e-04	0	56	0	375390208	55	5953
2026-01-10 23:34:36.70	23.81	33.10	-42.2	-46.1	12.1	3.33e-04	0	56	0	376438784	55	5851
2026-01-10 23:34:37.71	23.87	33.31	-42.1	-45.9	12.3	2.88e-04	0	56	0	378535936	55	5690
2026-01-10 23:34:38.72	23.93	33.53	-42.1	-45.9	12.3	1.56e-04	0	56	0	380633088	55	5722
2026-01-10 23:34:39.73	24.00	33.74	-42.0	-45.8	12.4	1.29e-04	0	56	0	382730240	55	5599
2026-01-10 23:34:40.74	24.06	33.96	-41.8	-45.3	12.9	6.79e-05	0	56	0	384827392	55	5320
2026-01-10 23:34:41.75	24.13	34.17	-41.7	-45.1	13.1	3.50e-05	0	56	0	386924544	55	5191
2026-01-10 23:34:42.76	24.19	34.39	-41.6	-44.9	13.3	1.83e-05	0	56	0	387973120	55	5077
2026-01-10 23:34:43.77	24.26	34.61	-41.0	-44.2	13.5	1.75e-05	0	56	0	390070272	54	4959
2026-01-10 23:34:44.78	24.32	34.84	-41.3	-44.4	13.9	6.10e-06	0	56	0	392167424	54	5077
2026-01-10 23:34:45.79	24.39	35.06	-41.2	-44.3	14.0	1.50e-06	0	56	0	394264576	54	4986
2026-01-10 23:34:46.80	24.46	35.29	-41.2	-44.2	14.0	3.00e-06	0	56	0	396361728	54	4976
2026-01-10 23:34:47.81	24.53	35.51	-41.1	-44.1	14.2	2.20e-06	0	56	0	397410304	54	4923
2026-01-10 23:34:48.81	24.60	35.74	-41.1	-44.1	14.2	0.00e+00	0	56	0	399507456	54	4902
2026-01-10 23:34:49.82	24.67	35.97	-41.1	-44.1	14.2	3.80e-06	0	56	0	401604608	54	4875
2026-01-10 23:34:50.83	24.74	36.20	-41.1	-44.1	14.2	7.00e-07	0	56	0	403701760	54	4871
2026-01-10 23:34:51.84	24.82	36.43	-41.1	-44.0	14.3	1.50e-06	0	56	0	404750336	54	4840
2026-01-10 23:34:52.85	24.89	36.67	-41.0	-43.9	14.4	0.00e+00	0	56	0	406847488	54	4779
2026-01-10 23:34:53.86	24.97	36.91	-40.9	-43.8	14.6	7.00e-07	0	56	0	408944640	53	4984
2026-01-10 23:34:54.87	25.04	37.14	-40.9	-43.8	14.5	0.00e+00	0	56	0	411041792	53	4996
2026-01-10 23:34:55.88	25.12	37.38	-40.9	-43.8	14.5	7.00e-07	0	56	0	413138944	53	5003
2026-01-10 23:34:56.89	25.20	37.63	-41.0	-43.8	14.5	7.00e-07	0	56	0	415236096	53	5033
2026-01-10 23:34:57.90	25.28	37.87	-41.1	-44.0	14.3	0.00e+00	0	56	0	416284672	53	5147
2026-01-10 23:34:58.91	25.36	38.11	-41.2	-44.3	14.0	2.20e-06	0	56	0	418381824	53	5303
2026-01-10 23:34:59.92	25.44	38.36	-41.4	-44.7	13.6	4.50e-06	0	56	0	420478976	53	5538
2026-01-10 23:35:00.93	25.53	38.61	-41.5	-44.7	13.6	1.37e-05	0	56	0	422576128	53	5554
2026-01-10 23:35:01.94	25.61	38.86	-41.4	-44.6	13.7	6.80e-06	0	56	0	424673280	53	5516
2026-01-10 23:35:02.95	25.70	39.11	-41.4	-44.7	13.7	5.30e-06	0	56	0	425721856	53	5536
2026-01-10 23:35:03.96	25.78	39.37	-41.3	-44.4	13.9	6.10e-06	0	56	0	427819008	53	5374
2026-01-10 23:35:04.97	25.87	39.62	-41.2	-44.3	14.1	1.50e-06	0	56	0	429916160	53	5304
2026-01-10 23:35:05.98	25.96	39.88	-41.3	-44.3	14.0	1.50e-06	0	56	0	432013312	53	5336
2026-01-10 23:35:06.99	26.05	40.14	-41.3	-44.5	13.9	1.50e-06	0	56	0	434110464	53	5419
2026-01-10 23:35:08.00	26.14	40.40	-41.4	-44.5	13.8	2.20e-06	0	56	0	435159040	53	5428
2026-01-10 23:35:09.01	26.24	40.67	-41.3	-44.4	13.8	5.30e-06	0	56	0	437256192	53	5402
2026-01-10 23:35:10.02	26.33	40.93	-41.5	-44.7	13.6	6.10e-06	0	56	0	439353344	53	5589
2026-01-10 23:35:11.03	26.43	41.20	-41.5	-44.8	13.5	1.22e-05	0	56	0	441450496	53	5639
2026-01-10 23:35:12.04	26.53	41.47	-41.6	-44.9	13.4	6.10e-06	0	56	0	443547648	53	5707
2026-01-10 23:35:13.05	26.63	41.74	-41.6	-45.0	13.3	1.52e-05	0	56	0	444596224	53	5744
2026-01-10 23:35:14.06	26.73	42.01	-41.6	-45.0	13.4	8.30e-06	0	56	0	446693376	53	5733
2026-01-10 23:35:15.07	26.83	42.29	-41.6	-45.0	13.4	1.60e-05	0	56	0	448790528	53	5729
2026-01-10 23:35:16.08	26.94	42.56	-41.6	-44.9	13.4	2.21e-05	0	56	0	450887680	54	5355
2026-01-10 23:35:17.09	27.05	42.84	-41.5	-44.6	13.6	1.22e-05	0	56	0	452984832	54	5215
2026-01-10 23:35:18.10	27.15	43.12	-41.5	-44.7	13.6	7.60e-06	0	56	0	455081984	54	5262
2026-01-10 23:35:19.11	27.26	43.40	-41.5	-44.8	13.6	7.00e-07	0	56	0	456130560	54	5285
2026-01-10 23:35:20.12	27.38	43.69	-41.7	-45.0	13.4	1.06e-05	0	56	0	458227712	54	5439
2026-01-10 23:35:21.13	27.49	43.98	-41.8	-45.2	13.2	2.05e-05	0	56	0	460324864	54	5550
2026-01-10 23:35:22.13	27.61	44.26	-42.0	-45.6	12.7	4.88e-05	0	56	0	462422016	54	5849
2026-01-10 23:35:23.14	27.73	44.55	-42.2	-46.0	12.3	1.20e-04	0	56	0	463470592	54	6110
2026-01-10 23:35:24.15	27.85	44.84	-42.2	-46.0	12.4	1.30e-04	0	56	0	465567744	54	6072
2026-01-10 23:35:25.16	27.97	45.14	-42.0	-45.7	12.7	1.11e-04	0	56	0	467664896	54	5870
2026-01-10 23:35:26.17	28.09	45.44	-42.0	-45.6	12.7	9.76e-05	0	56	0	469762048	54	5833
2026-01-10 23:35:27.18	28.22	45.74	-42.1	-45.8	12.5	7.93e-05	0	56	0	471859200	54	5989
2026-01-10 23:35:28.19	28.35	46.04	-42.1	-45.8	12.5	1.19e-04	0	56	0	472907776	54	5984
2026-01-10 23:35:29.20	28.48	46.34	-42.1	-45.7	12.6	9.23e-05	0	56	0	475004928	54	5908
2026-01-10 23:35:30.21	28.62	46.64	-42.0	-45.6	12.8	8.92e-05	0	56	0	477102080	54	5837
2026-01-10 23:35:31.22	28.75	46.95	-42.0	-45.7	12.7	5.95e-05	0	56	0	479199232	54	5874
2026-01-10 23:35:32.23	28.89	47.26	-42.1	-45.8	12.6	5.95e-05	0	56	0	481296384	54	5939
2026-01-10 23:35:33.24	29.04	47.57	-42.2	-46.0	12.4	1.02e-04	0	56	0	483393536	54	6117
2026-01-10 23:35:34.25	29.18	47.89	-42.2	-46.0	12.3	2.21e-04	0	56	0	484442112	55	5781
2026-01-10 23:35:35.26	29.33	48.20	-42.1	-45.7	12.6	1.26e-04	0	56	0	486539264	55	5592
2026-01-10 23:35:36.27	29.48	48.52	-42.1	-45.7	12.6	7.70e-05	0	56	0	488636416	55	5592
2026-01-10 23:35:37.28	29.64	48.84	-41.9	-45.4	13.0	5.26e-05	0	56	0	490733568	55	5381
2026-01-10 23:35:38.29	29.79	49.16	-41.7	-45.0	13.4	1.44e-05	0	56	0	492830720	55	5126
2026-01-10 23:35:39.30	29.95	49.49	-41.4	-44.5	13.9	8.30e-06	0	56	0	493879296	54	5120
2026-01-10 23:35:40.31	30.12	49.81	-41.2	-44.2	14.2	2.20e-06	0	56	0	495976448	54	4952
2026-01-10 23:35:41.32	30.29	50.14	-40.9	-43.7	14.7	7.00e-07	0	56	0	498073600	53	4972
2026-01-10 23:35:42.33	30.46	50.47	-40.6	-43.3	15.2	0.00e+00	0	56	0	500170752	53	4714
2026-01-10 23:35:43.34	30.63	50.81	-40.2	-42.6	15.9	0.00e+00	0	56	0	502267904	52	4623
2026-01-10 23:35:44.35	30.81	51.14	-39.9	-42.2	16.3	0.00e+00	0	56	0	503316480	51	4684
2026-01-10 23:35:45.36	30.99	51.48	-39.7	-41.9	16.6	0.00e+00	0	56	0	505413632	51	4496
2026-01-10 23:35:46.37	31.18	51.82	-39.5	-41.6	16.9	0.00e+00	0	56	0	507510784	51	4377
2026-01-10 23:35:47.38	31.37	52.16	-39.5	-41.6	16.9	0.00e+00	0	56	0	509607936	50	4620
2026-01-10 23:35:48.38	31.57	52.50	-39.3	-41.3	17.2	0.00e+00	0	56	0	511705088	50	4471
2026-01-10 23:35:49.39	31.77	52.84	-39.1	-41.1	17.4	0.00e+00	0	56	0	512753664	50	4345
2026-01-10 23:35:50.40	31.97	53.19	-39.0	-41.0	17.6	0.00e+00	0	56	0	514850816	50	4301
2026-01-10 23:35:51.41	32.18	53.54	-39.0	-40.9	17.6	0.00e+00	0	56	0	516947968	49	4544
2026-01-10 23:35:52.42	32.40	53.89	-38.8	-40.7	17.8	0.00e+00	0	56	0	519045120	49	4420
2026-01-10 23:35:53.43	32.61	54.25	-38.8	-40.7	17.9	0.00e+00	0	56	0	521142272	49	4400
2026-01-10 23:35:54.44	32.84	54.60	-38.8	-40.7	17.8	0.00e+00	0	56	0	522190848	49	4418
2026-01-10 23:35:55.45	33.07	54.96	-38.8	-40.7	17.8	0.00e+00	0	56	0	524288000	49	4430
2026-01-10 23:35:56.46	33.31	55.32	-39.0	-40.9	17.6	0.00e+00	0	56	0	526385152	49	4540
2026-01-10 23:35:57.47	33.55	55.68	-39.1	-41.1	17.4	0.00e+00	0	56	0	528482304	49	4640
2026-01-10 23:35:58.48	33.80	56.05	-39.3	-41.4	17.1	0.00e+00	0	56	0	530579456	49	4785
2026-01-10 23:35:59.49	34.05	56.41	-39.6	-41.8	16.7	0.00e+00	0	56	0	531628032	49	5030
2026-01-10 23:36:00.50	34.32	56.78	-39.9	-42.1	16.4	0.00e+00	0	56	0	533725184	50	4925
2026-01-10 23:36:01.51	34.59	57.15	-40.2	-42.6	15.9	0.00e+00	0	56	0	535822336	50	5173
2026-01-10 23:36:02.52	34.86	57.52	-40.3	-42.7	15.8	0.00e+00	0	56	0	537919488	51	4966
2026-01-10 23:36:03.53	35.15	57.89	-39.9	-42.2	16.3	0.00e+00	0	56	0	540016640	51	4692
2026-01-10 23:36:04.54	35.44	58.27	-39.8	-42.0	16.5	0.00e+00	0	56	0	541065216	51	4575
2026-01-10 23:36:05.54	35.74	58.64	-39.5	-41.6	16.9	0.00e+00	0	56	0	543162368	51	4378
2026-01-10 23:36:06.55	36.05	59.02	-39.5	-41.6	17.0	0.00e+00	0	56	0	545259520	50	4600
2026-01-10 23:36:07.56	36.36	59.40	-39.3	-41.4	17.2	0.00e+00	0	56	0	547356672	50	4512
2026-01-10 23:36:08.57	36.69	59.78	-39.1	-41.1	17.4	0.00e+00	0	56	0	549453824	50	4345
2026-01-10 23:36:09.58	37.03	60.16	-38.9	-40.9	17.7	0.00e+00	0	56	0	551550976	49	4498
2026-01-10 23:36:10.59	37.37	60.55	-39.0	-40.9	17.6	0.00e+00	0	56	0	552599552	49	4520
2026-01-10 23:36:11.60	37.73	60.93	-38.7	-40.6	17.9	0.00e+00	0	56	0	554696704	49	4356
2026-01-10 23:36:12.61	38.10	61.32	-38.5	-40.3	18.1	0.00e+00	0	56	0	556793856	49	4234
2026-01-10 23:36:13.62	38.48	61.71	-38.3	-40.0	18.4	0.00e+00	0	56	0	558891008	48	4337
2026-01-10 23:36:14.63	38.87	62.10	-38.1	-39.8	18.7	0.00e+00	0	56	0	560988160	48	4211
2026-01-10 23:36:15.64	39.28	62.49	-38.2	-39.9	18.6	0.00e+00	0	56	0	562036736	48	4260
2026-01-10 23:36:16.65	39.69	62.88	-38.6	-40.4	18.1	0.00e+00	0	56	0	564133888	48	4538
2026-01-10 23:36:17.66	40.12	63.27	-38.8	-40.7	17.8	0.00e+00	0	56	0	566231040	48	4677
2026-01-10 23:36:18.67	40.57	63.67	-39.1	-41.1	17.4	0.00e+00	0	56	0	568328192	48	4876
2026-01-10 23:36:19.68	41.03	64.06	-39.2	-41.3	17.2	0.00e+00	0	56	0	570425344	49	4719
2026-01-10 23:36:20.69	41.51	64.45	-39.4	-41.5	17.0	0.00e+00	0	56	0	571473920	49	4840
2026-01-10 23:36:21.70	42.00	64.85	-39.6	-41.7	16.8	0.00e+00	0	56	0	573571072	49	4956
2026-01-10 23:36:22.71	42.51	65.24	-39.6	-41.7	16.8	0.00e+00	0	56	0	575668224	49	4982
2026-01-10 23:36:23.72	43.04	65.64	-40.0	-42.3	16.2	0.00e+00	0	56	0	577765376	50	4998
2026-01-10 23:36:24.73	43.59	66.04	-40.4	-42.9	15.6	0.00e+00	0	56	0	579862528	51	5077
2026-01-10 23:36:25.74	44.16	66.43	-40.8	-43.6	14.9	0.00e+00	0	56	0	580911104	52	5173
2026-01-10 23:36:26.74	44.74	66.82	-41.2	-44.2	14.3	0.00e+00	0	56	0	583008256	52	5547
2026-01-10 23:36:27.75	45.36	67.22	-41.2	-44.3	14.1	2.20e-06	0	56	0	585105408	53	5316
2026-01-10 23:36:28.76	45.99	67.61	-41.1	-44.1	14.3	7.00e-07	0	56	0	587202560	53	5192
2026-01-10 23:36:29.77	46.65	68.01	-41.0	-43.9	14.5	0.00e+00	0	56	0	589299712	53	5082
2026-01-10 23:36:30.78	47.34	68.40	-41.4	-44.6	13.8	2.20e-06	0	56	0	590348288	53	5504
2026-01-10 23:36:31.79	48.05	68.79	-41.6	-45.0	13.4	7.60e-06	0	56	0	592445440	53	5757
2026-01-10 23:36:32.80	48.80	69.18	-41.6	-44.9	13.5	8.30e-06	0	56	0	594542592	53	5682
2026-01-10 23:36:33.81	49.57	69.57	-41.4	-44.5	13.8	3.80e-06	0	56	0	596639744	53	5444
2026-01-10 23:36:34.82	50.37	69.96	-41.3	-44.4	14.0	3.00e-06	0	56	0	598736896	53	5348
2026-01-10 23:36:35.83	51.21	70.34	-41.3	-44.5	13.9	5.30e-06	0	56	0	599785472	53	5418
2026-01-10 23:36:36.84	52.09	70.72	-41.1	-44.1	14.3	1.50e-06	0	56	0	601882624	53	5183
2026-01-10 23:36:37.85	53.00	71.10	-41.2	-44.2	14.2	1.50e-06	0	56	0	603979776	53	5258
2026-01-10 23:36:38.86	53.95	71.48	-41.4	-44.6	13.7	7.00e-07	0	56	0	606076928	53	5501
2026-01-10 23:36:39.87	54.94	71.85	-41.8	-45.3	13.1	1.37e-05	0	56	0	608174080	54	5649
2026-01-10 23:36:40.88	55.98	72.21	-42.2	-46.0	12.3	8.69e-05	0	56	0	609222656	54	6104
2026-01-10 23:36:41.89	57.06	72.58	-42.1	-46.0	12.4	2.27e-04	0	56	0	611319808	55	5752
2026-01-10 23:36:42.90	58.19	72.94	-42.0	-45.7	12.6	1.43e-04	0	56	0	613416960	55	5572
2026-01-10 23:36:43.91	59.37	73.29	-42.2	-46.0	12.2	1.45e-04	0	56	0	615514112	55	5788
2026-01-10 23:36:44.91	60.59	73.63	-42.3	-46.3	12.1	2.18e-04	0	56	0	617611264	55	5926
2026-01-10 23:36:45.92	61.88	73.97	-41.8	-45.3	13.1	9.61e-05	0	56	0	619708416	55	5286
2026-01-10 23:36:46.94	63.24	74.31	-41.3	-44.5	13.9	1.06e-05	0	56	0	620756992	54	5109
2026-01-10 23:36:47.94	64.63	74.63	-41.1	-44.1	14.3	1.50e-06	0	56	0	622854144	54	4921
2026-01-10 23:36:48.95	66.10	74.95	-41.0	-43.9	14.5	0.00e+00	0	56	0	624951296	54	4789
2026-01-10 23:36:49.96	67.63	75.26	-41.0	-44.0	14.4	0.00e+00	0	56	0	627048448	53	5108
2026-01-10 23:36:50.97	69.23	75.56	-41.3	-44.3	14.0	3.80e-06	0	56	0	629145600	53	5339
2026-01-10 23:36:51.98	70.90	75.84	-41.6	-45.0	13.4	6.80e-06	0	56	0	630194176	53	5724
2026-01-10 23:36:52.99	72.63	76.12	-41.9	-45.5	12.9	4.34e-05	0	56	0	632291328	54	5729
2026-01-10 23:36:54.00	74.44	76.38	-42.0	-45.8	12.5	8.62e-05	0	56	0	634388480	54	5951
2026-01-10 23:36:55.01	76.32	76.63	-42.2	-46.1	12.2	1.43e-04	0	56	0	636485632	54	6163
2026-01-10 23:36:56.02	78.28	76.87	-42.0	-45.8	12.5	1.52e-04	0	56	0	638582784	55	5633
2026-01-10 23:36:57.03	80.30	77.09	-41.8	-45.3	13.0	6.56e-05	0	56	0	639631360	55	5310
2026-01-10 23:36:58.04	82.40	77.30	-41.8	-45.3	13.1	4.50e-05	0	56	0	641728512	55	5284
2026-01-10 23:36:59.04	84.54	77.49	-41.5	-44.8	13.5	9.10e-06	0	56	0	643825664	54	5331
2026-01-10 23:37:00.05	86.76	77.66	-41.7	-45.1	13.2	1.90e-05	0	56	0	645922816	54	5518
2026-01-10 23:37:01.07	89.07	77.81	-42.2	-46.1	12.2	4.80e-05	0	56	0	648019968	54	6165
2026-01-10 23:37:02.08	91.42	77.95	-42.1	-45.9	12.4	1.77e-04	0	56	0	649068544	55	5666
2026-01-10 23:37:03.08	93.79	78.06	-41.8	-45.3	13.0	4.34e-05	0	56	0	651165696	55	5335
2026-01-10 23:37:04.10	96.25	78.15	-41.6	-44.9	13.5	9.90e-06	0	56	0	653262848	55	5097
2026-01-10 23:37:05.11	98.72	78.23	-42.0	-45.8	12.6	4.65e-05	0	56	0	655360000	55	5606
2026-01-10 23:37:06.12	101.22	78.28	-42.3	-46.4	11.8	2.75e-04	0	56	0	657457152	55	6020
2026-01-10 23:37:07.12	103.71	78.31	-42.1	-46.0	12.3	4.56e-04	0	56	0	658505728	55	5781
2026-01-10 23:37:08.14	106.26	78.31	-41.6	-45.0	13.3	8.16e-05	0	56	0	660602880	55	5120
2026-01-10 23:37:09.15	108.78	78.30	-41.4	-44.6	13.7	7.60e-06	0	56	0	662700032	54	5198
2026-01-10 23:37:10.16	111.29	78.26	-41.5	-44.7	13.6	8.30e-06	0	56	0	664797184	54	5250
2026-01-10 23:37:11.16	113.76	78.20	-41.8	-45.3	13.1	1.44e-05	0	56	0	666894336	54	5609
2026-01-10 23:37:12.17	116.22	78.12	-42.0	-45.6	12.6	5.87e-05	0	56	0	667942912	54	5851
2026-01-10 23:37:13.18	118.64	78.02	-42.4	-46.6	11.7	2.94e-04	0	56	0	670040064	55	6150
2026-01-10 23:37:14.20	121.04	77.90	-42.9	-47.5	10.9	1.44e-03	0	56	0	672137216	56	6445
2026-01-10 23:37:15.20	123.34	77.76	-43.0	-47.7	10.8	2.65e-03	0	56	0	674234368	56	6571
2026-01-10 23:37:16.21	125.61	77.60	-42.9	-47.4	11.0	2.25e-03	0	56	0	676331520	56	6380
2026-01-10 23:37:17.22	127.81	77.42	-43.2	-48.3	10.0	2.68e-03	0	56	0	677380096	56	7110
2026-01-10 23:37:18.23	129.95	77.22	-43.4	-48.7	9.6	1.13e-02	0	56	0	679477248	57	7015
2026-01-10 23:37:19.24	132.02	77.01	-43.1	-48.0	10.3	6.70e-03	0	56	0	681574400	57	6450
2026-01-10 23:37:20.25	134.02	76.78	-43.0	-47.8	10.4	6.13e-03	0	56	0	683671552	57	6333
2026-01-10 23:37:21.26	135.95	76.54	-43.1	-48.1	10.3	5.39e-03	0	56	0	685768704	57	6537
2026-01-10 23:37:22.27	137.80	76.28	-43.1	-47.9	10.5	4.55e-03	0	56	0	687865856	57	6399
2026-01-10 23:37:23.28	139.58	76.02	-43.0	-47.7	10.6	4.01e-03	0	56	0	688914432	57	6269
2026-01-10 23:37:24.29	141.30	75.73	-42.5	-46.7	11.8	1.69e-03	0	56	0	691011584	57	5536
2026-01-10 23:37:25.30	142.94	75.44	-42.4	-46.3	12.2	1.99e-04	0	57	0	693108736	56	5617
2026-01-10 23:37:26.31	144.51	75.14	-42.9	-47.4	10.8	9.98e-04	0	56	0	695205888	56	6418
2026-01-10 23:37:27.32	146.02	74.83	-43.2	-48.2	10.1	4.73e-03	0	56	0	697303040	57	6636
2026-01-10 23:37:28.32	147.45	74.51	-42.9	-47.6	10.8	3.21e-03	0	56	0	698351616	57	6168
2026-01-10 23:37:29.33	148.84	74.18	-42.9	-47.4	11.0	2.23e-03	0	56	0	700448768	57	6052
2026-01-10 23:37:30.35	150.18	73.84	-42.8	-47.3	11.2	1.82e-03	0	56	0	702545920	57	5937
2026-01-10 23:37:31.36	151.44	73.50	-42.9	-47.5	10.9	2.67e-03	0	56	0	704643072	57	6130
2026-01-10 23:37:32.36	152.64	73.15	-42.8	-47.4	11.0	1.80e-03	0	56	0	706740224	57	5993
2026-01-10 23:37:33.37	153.81	72.79	-42.5	-46.7	11.8	1.14e-03	0	56	0	707788800	57	5530
2026-01-10 23:37:34.38	154.92	72.43	-42.3	-46.1	12.3	1.45e-04	0	56	0	709885952	56	5526
2026-01-10 23:37:35.39	155.98	72.07	-41.8	-45.3	13.0	5.95e-05	0	56	0	711983104	55	5328
2026-01-10 23:37:36.39	156.99	71.70	-41.8	-45.4	13.0	5.64e-05	0	56	0	714080256	55	5358
2026-01-10 23:37:37.40	157.97	71.33	-41.6	-45.0	13.3	1.98e-05	0	56	0	716177408	55	5153
2026-01-10 23:37:38.41	158.91	70.95	-41.5	-44.7	13.7	1.14e-05	0	56	0	717225984	54	5251
2026-01-10 23:37:39.42	159.80	70.57	-41.4	-44.6	13.7	9.90e-06	0	56	0	719323136	54	5173
2026-01-10 23:37:40.43	160.67	70.19	-41.8	-45.3	13.1	1.22e-05	0	56	0	721420288	54	5594
2026-01-10 23:37:41.44	161.49	69.80	-42.1	-45.8	12.5	6.56e-05	0	56	0	723517440	54	5989
2026-01-10 23:37:42.45	162.29	69.41	-42.3	-46.4	11.9	2.78e-04	0	56	0	725614592	55	6013
2026-01-10 23:37:43.45	163.04	69.03	-42.5	-46.7	11.7	4.79e-04	0	56	0	726663168	55	6220
2026-01-10 23:37:44.46	163.77	68.64	-43.0	-47.7	10.8	1.63e-03	0	56	0	728760320	56	6571
2026-01-10 23:37:45.47	164.48	68.24	-42.8	-47.2	11.3	2.44e-03	0	56	0	730857472	56	6233
2026-01-10 23:37:46.48	165.16	67.85	-42.5	-46.6	11.9	5.26e-04	0	56	0	732954624	56	5843
2026-01-10 23:37:47.49	165.81	67.45	-42.7	-47.0	11.5	6.88e-04	0	57	0	735051776	56	6115
2026-01-10 23:37:48.50	166.43	67.06	-42.7	-47.0	11.5	1.12e-03	0	56	0	736100352	56	6077
2026-01-10 23:37:49.51	167.04	66.66	-42.1	-45.7	12.8	3.97e-04	0	57	0	738197504	56	5238
2026-01-10 23:37:50.52	167.62	66.27	-41.6	-44.8	13.5	1.60e-05	0	56	0	740294656	55	5041
2026-01-10 23:37:51.53	168.18	65.87	-41.5	-44.8	13.6	6.10e-06	0	56	0	742391808	54	5310
2026-01-10 23:37:52.54	168.72	65.47	-41.5	-44.7	13.6	8.30e-06	0	56	0	744488960	54	5267
2026-01-10 23:37:53.55	169.25	65.08	-40.9	-43.7	14.7	1.50e-06	0	56	0	745537536	53	4951
2026-01-10 23:37:54.56	169.75	64.68	-40.4	-43.0	15.3	0.00e+00	0	56	0	747634688	52	4850
2026-01-10 23:37:55.57	170.24	64.28	-39.8	-42.0	16.4	0.00e+00	0	56	0	749731840	51	4597
2026-01-10 23:37:56.58	170.71	63.89	-39.1	-41.2	17.3	0.00e+00	0	56	0	751828992	50	4395
2026-01-10 23:37:57.59	171.17	63.49	-39.4	-41.5	17.0	0.00e+00	0	56	0	753926144	50	4566
2026-01-10 23:37:58.60	171.61	63.10	-39.8	-42.1	16.4	0.00e+00	0	56	0	756023296	50	4903
2026-01-10 23:37:59.61	172.03	62.71	-39.2	-41.2	17.3	0.00e+00	0	56	0	757071872	50	4398
2026-01-10 23:38:00.62	172.45	62.31	-38.5	-40.4	18.1	0.00e+00	0	57	0	759169024	49	4244
2026-01-10 23:38:01.63	172.85	61.92	-38.7	-40.6	17.8	0.00e+00	0	56	0	761266176	48	4640
2026-01-10 23:38:02.64	173.23	61.53	-39.3	-41.4	17.1	0.00e+00	0	56	0	763363328	49	4805
2026-01-10 23:38:03.65	173.61	61.14	-40.0	-42.4	16.2	0.00e+00	0	57	0	765460480	50	5042
2026-01-10 23:38:04.66	173.97	60.76	-40.9	-43.7	14.7	0.00e+00	0	57	0	766509056	52	5259
2026-01-10 23:38:05.67	174.33	60.37	-41.3	-44.4	13.9	3.80e-06	0	56	0	768606208	53	5402
2026-01-10 23:38:06.68	174.67	59.98	-40.9	-43.8	14.6	2.20e-06	0	56	0	770703360	53	5005
2026-01-10 23:38:07.69	175.00	59.60	-40.3	-42.7	15.6	0.00e+00	0	57	0	772800512	52	4681
2026-01-10 23:38:08.70	175.33	59.22	-40.7	-43.4	14.9	0.00e+00	0	56	0	774897664	52	5094
2026-01-10 23:38:09.71	175.64	58.84	-41.7	-45.2	13.2	0.00e+00	0	57	0	775946240	53	5866
2026-01-10 23:38:10.72	175.95	58.46	-42.0	-45.8	12.5	1.40e-04	0	56	0	778043392	54	5929
2026-01-10 23:38:11.73	176.24	58.08	-41.9	-45.6	12.8	6.33e-05	0	57	0	780140544	54	5801
2026-01-10 23:38:12.74	176.53	57.71	-41.3	-44.5	13.9	6.80e-06	0	57	0	782237696	54	5114
2026-01-10 23:38:13.75	176.81	57.33	-41.1	-44.1	14.3	2.20e-06	0	57	0	784334848	54	4888
2026-01-10 23:38:14.76	177.09	56.96	-41.0	-43.9	14.5	1.50e-06	0	56	0	785383424	53	5062
2026-01-10 23:38:15.77	177.35	56.59	-40.6	-43.3	15.0	0.00e+00	0	56	0	787480576	53	4758
2026-01-10 23:38:16.77	177.61	56.23	-40.6	-43.3	15.1	0.00e+00	0	57	0	789577728	53	4709
2026-01-10 23:38:17.78	177.86	55.86	-40.6	-43.2	15.2	0.00e+00	0	57	0	791674880	53	4682
2026-01-10 23:38:18.79	178.11	55.50	-40.1	-42.6	15.8	0.00e+00	0	57	0	793772032	52	4608
2026-01-10 23:38:19.81	178.35	55.13	-39.6	-41.8	16.7	0.00e+00	0	57	0	794820608	51	4468
2026-01-10 23:38:20.81	178.58	54.78	-39.4	-41.5	16.9	0.00e+00	0	56	0	796917760	50	4594
2026-01-10 23:38:21.82	178.81	54.42	-39.7	-41.9	16.6	0.00e+00	0	56	0	799014912	50	4769
2026-01-10 23:38:22.83	179.04	54.06	-40.1	-42.6	15.9	0.00e+00	0	57	0	801112064	50	5187
2026-01-10 23:38:23.84	179.25	53.71	-40.4	-42.9	15.6	0.00e+00	0	56	0	803209216	51	5079
2026-01-10 23:38:24.85	179.47	53.35	-40.0	-42.4	16.1	0.00e+00	0	56	0	804257792	51	4767
2026-01-10 23:38:25.86	179.67	53.00	-40.1	-42.5	16.0	0.00e+00	0	57	0	806354944	51	4820
2026-01-10 23:38:26.87	179.88	52.66	-40.7	-43.3	15.1	0.00e+00	0	56	0	808452096	51	5338
2026-01-10 23:38:27.88	180.08	52.31	-41.0	-44.0	14.4	0.00e+00	0	56	0	810549248	52	5412
2026-01-10 23:38:28.89	180.27	51.97	-41.2	-44.3	14.0	4.50e-06	0	56	0	812646400	53	5314
2026-01-10 23:38:29.90	180.46	51.62	-41.4	-44.6	13.6	2.20e-06	0	56	0	813694976	53	5500
2026-01-10 23:38:30.91	180.64	51.29	-42.1	-46.0	12.3	4.04e-05	0	56	0	815792128	54	6106
2026-01-10 23:38:31.92	180.82	50.95	-43.2	-48.2	10.2	1.22e-03	0	56	0	817889280	56	6993
2026-01-10 23:38:32.93	181.00	50.61	-43.6	-49.5	8.8	2.98e-02	0	56	0	819986432	57	7663
2026-01-10 23:38:33.94	181.17	50.28	-43.4	-48.8	9.5	2.79e-02	0	56	0	822083584	57	7086
2026-01-10 23:38:34.95	181.34	49.95	-43.3	-48.6	9.7	1.10e-02	0	56	0	824180736	57	6918
2026-01-10 23:38:35.96	181.51	49.62	-43.3	-48.6	9.7	1.16e-02	0	56	0	825229312	57	6895
2026-01-10 23:38:36.97	181.67	49.29	-43.4	-48.9	9.4	1.47e-02	0	56	0	827326464	57	7157
2026-01-10 23:38:37.98	181.83	48.97	-43.4	-48.8	9.5	1.83e-02	0	56	0	829423616	57	7052
2026-01-10 23:38:38.99	181.99	48.65	-43.0	-47.7	10.5	5.16e-03	0	56	0	831520768	57	6269
2026-01-10 23:38:40.00	182.14	48.32	-42.8	-47.2	11.2	1.92e-03	0	56	0	833617920	57	5873
2026-01-10 23:38:41.01	182.29	48.01	-42.7	-47.0	11.3	1.22e-03	0	57	0	834666496	57	5766
2026-01-10 23:38:42.02	182.44	47.69	-43.0	-47.9	10.4	2.09e-03	0	57	0	836763648	57	6349
2026-01-10 23:38:43.03	182.58	47.38	-43.3	-48.4	9.8	8.64e-03	0	56	0	838860800	57	6792
2026-01-10 23:38:44.04	182.72	47.06	-43.1	-48.1	10.1	1.07e-02	0	57	0	840957952	57	6545
2026-01-10 23:38:45.05	182.86	46.75	-42.6	-46.8	11.5	2.75e-03	0	57	0	843055104	57	5627
2026-01-10 23:38:46.06	183.00	46.45	-42.2	-45.9	12.5	2.17e-04	0	57	0	844103680	56	5369
2026-01-10 23:38:47.07	183.13	46.14	-41.4	-44.6	13.7	3.28e-05	0	56	0	846200832	54	5173
2026-01-10 23:38:48.07	183.26	45.84	-41.1	-44.2	14.1	4.50e-06	0	57	0	848297984	54	4944
2026-01-10 23:38:49.09	183.39	45.54	-40.9	-43.8	14.5	1.50e-06	0	57	0	850395136	53	5002
2026-01-10 23:38:50.09	183.52	45.24	-40.6	-43.3	15.0	7.00e-07	0	56	0	852492288	53	4710
2026-01-10 23:38:51.10	183.64	44.94	-40.4	-43.0	15.3	7.00e-07	0	56	0	853540864	52	4861
2026-01-10 23:38:52.11	183.76	44.65	-40.6	-43.3	15.0	0.00e+00	0	57	0	855638016	52	4998
2026-01-10 23:38:53.12	183.88	44.36	-40.9	-43.8	14.4	2.20e-06	0	56	0	857735168	52	5304
2026-01-10 23:38:54.13	184.00	44.06	-41.2	-44.3	14.0	2.20e-06	0	56	0	859832320	52	5614
2026-01-10 23:38:55.14	184.11	43.78	-41.6	-45.0	13.3	3.00e-06	0	57	0	861929472	53	5754
2026-01-10 23:38:56.15	184.23	43.49	-41.5	-44.9	13.3	3.58e-05	0	57	0	862978048	53	5687
2026-01-10 23:38:57.16	184.34	43.20	-41.0	-43.9	14.3	7.60e-06	0	56	0	865075200	53	5083
2026-01-10 23:38:58.17	184.45	42.92	-40.1	-42.6	15.6	1.50e-06	0	57	0	867172352	52	4614
2026-01-10 23:38:59.18	184.56	42.64	-39.6	-41.9	16.5	0.00e+00	0	57	0	869269504	51	4498
2026-01-10 23:39:00.19	184.66	42.36	-39.4	-41.5	16.8	0.00e+00	0	57	0	871366656	50	4585
2026-01-10 23:39:01.20	184.77	42.08	-39.5	-41.6	16.7	0.00e+00	0	56	0	872415232	50	4637
2026-01-10 23:39:02.21	184.87	41.81	-40.0	-42.3	16.0	0.00e+00	0	57	0	874512384	50	5006
2026-01-10 23:39:03.22	184.97	41.54	-40.6	-43.3	15.1	0.00e+00	0	57	0	876609536	51	5284
2026-01-10 23:39:04.23	185.07	41.26	-41.1	-44.2	14.0	7.00e-07	0	57	0	878706688	52	5560
2026-01-10 23:39:05.24	185.17	41.00	-41.6	-45.1	13.1	1.83e-05	0	56	0	880803840	53	5846
2026-01-10 23:39:06.25	185.26	40.73	-42.0	-45.9	12.3	1.38e-04	0	57	0	881852416	54	6061
2026-01-10 23:39:07.26	185.36	40.46	-41.9	-45.5	12.7	2.24e-04	0	57	0	883949568	54	5783
2026-01-10 23:39:08.27	185.45	40.20	-41.7	-45.1	13.0	5.56e-05	0	57	0	886046720	54	5525
2026-01-10 23:39:09.28	185.54	39.94	-41.3	-44.5	13.7	1.52e-05	0	57	0	888143872	54	5126
2026-01-10 23:39:10.29	185.63	39.68	-40.9	-43.8	14.4	3.00e-06	0	57	0	890241024	53	5022
2026-01-10 23:39:11.30	185.72	39.42	-40.6	-43.4	14.8	0.00e+00	0	56	0	892338176	53	4761
2026-01-10 23:39:12.31	185.81	39.16	-40.8	-43.6	14.6	7.00e-07	0	57	0	893386752	53	4921
2026-01-10 23:39:13.32	185.89	38.91	-41.0	-44.0	14.2	2.20e-06	0	57	0	895483904	53	5110
2026-01-10 23:39:14.33	185.98	38.66	-41.3	-44.5	13.7	3.00e-06	0	57	0	897581056	53	5450
2026-01-10 23:39:15.34	186.06	38.41	-41.9	-45.6	12.6	5.49e-05	0	56	0	899678208	54	5812
2026-01-10 23:39:16.35	186.14	38.16	-42.4	-46.8	11.3	4.11e-04	0	56	0	901775360	55	6322
2026-01-10 23:39:17.36	186.23	37.91	-42.9	-47.8	10.4	2.59e-03	0	56	0	902823936	56	6704
2026-01-10 23:39:18.37	186.31	37.66	-43.3	-48.7	9.5	1.21e-02	0	56	0	904921088	57	7010
2026-01-10 23:39:19.38	186.38	37.42	-43.3	-48.7	9.4	1.55e-02	0	56	0	907018240	57	7004
2026-01-10 23:39:20.39	186.46	37.18	-42.9	-47.8	10.4	9.82e-03	0	57	0	909115392	57	6297
2026-01-10 23:39:21.40	186.54	36.94	-42.6	-46.9	11.3	1.62e-03	0	56	0	911212544	57	5669
2026-01-10 23:39:22.41	186.61	36.70	-42.2	-46.1	12.1	4.43e-04	0	56	0	912261120	56	5528
2026-01-10 23:39:23.42	186.69	36.46	-41.8	-45.3	12.8	1.05e-04	0	57	0	914358272	55	5333
2026-01-10 23:39:24.43	186.76	36.23	-41.5	-44.9	13.2	4.42e-05	0	57	0	916455424	55	5082
2026-01-10 23:39:25.44	186.84	35.99	-41.4	-44.7	13.5	1.14e-05	0	57	0	918552576	54	5222
2026-01-10 23:39:26.45	186.91	35.76	-41.3	-44.4	13.8	6.80e-06	0	57	0	920649728	54	5097
2026-01-10 23:39:27.45	186.98	35.53	-41.4	-44.6	13.5	4.50e-06	0	56	0	921698304	54	5208
2026-01-10 23:39:28.46	187.05	35.31	-41.6	-45.0	13.2	1.90e-05	0	57	0	923795456	54	5405
2026-01-10 23:39:29.47	187.12	35.08	-41.8	-45.5	12.7	5.18e-05	0	56	0	925892608	54	5735
2026-01-10 23:39:30.48	187.18	34.85	-42.1	-46.0	12.1	1.32e-04	0	56	0	927989760	54	6115
2026-01-10 23:39:31.49	187.25	34.63	-42.5	-46.8	11.2	9.61e-04	0	57	0	930086912	55	6329
2026-01-10 23:39:32.50	187.32	34.41	-42.9	-47.8	10.5	2.51e-03	0	57	0	931135488	56	6657
2026-01-10 23:39:33.51	187.38	34.19	-43.2	-48.6	9.5	8.15e-03	0	57	0	933232640	57	6942
2026-01-10 23:39:34.52	187.45	33.97	-43.5	-49.5	8.7	2.95e-02	0	57	0	935329792	57	7650
2026-01-10 23:39:35.52	187.51	33.75	-43.6	-49.9	8.2	5.20e-02	0	57	0	937426944	57	8061
2026-01-10 23:39:36.53	187.57	33.53	-43.6	-49.8	8.3	6.21e-02	0	57	0	939524096	57	7973
2026-01-10 23:39:37.54	187.63	33.32	-43.5	-49.4	8.7	3.62e-02	0	57	0	940572672	57	7591
2026-01-10 23:39:38.55	187.70	33.11	-43.3	-48.7	9.4	2.24e-02	0	57	0	942669824	57	7023
2026-01-10 23:39:39.56	187.76	32.89	-43.0	-48.1	10.0	1.03e-02	0	57	0	944766976	57	6529
2026-01-10 23:39:40.57	187.82	32.68	-42.8	-47.5	10.7	4.37e-03	0	57	0	946864128	57	6083
2026-01-10 23:39:41.58	187.88	32.47	-42.6	-47.0	11.2	1.91e-03	0	57	0	948961280	57	5761
2026-01-10 23:39:42.59	187.93	32.27	-42.4	-46.6	11.7	8.79e-04	0	57	0	950009856	56	5815
2026-01-10 23:39:43.60	187.99	32.06	-42.4	-46.5	11.8	5.90e-04	0	56	0	952107008	56	5747
2026-01-10 23:39:44.61	188.05	31.86	-42.4	-46.5	11.7	5.87e-04	0	56	0	954204160	56	5752
2026-01-10 23:39:45.61	188.10	31.65	-42.5	-46.7	11.5	7.22e-04	0	57	0	956301312	56	5867
2026-01-10 23:39:46.62	188.16	31.45	-42.5	-46.7	11.4	9.11e-04	0	56	0	958398464	56	5898
2026-01-10 23:39:47.63	188.21	31.25	-42.5	-46.8	11.4	1.02e-03	0	56	0	959447040	56	5938
2026-01-10 23:39:48.64	188.27	31.05	-42.5	-46.6	11.5	8.06e-04	0	57	0	961544192	56	5840
2026-01-10 23:39:49.65	188.32	30.85	-42.5	-46.7	11.6	6.89e-04	0	57	0	963641344	56	5856
2026-01-10 23:39:50.66	188.38	30.66	-42.3	-46.4	11.8	5.49e-04	0	57	0	965738496	56	5680
2026-01-10 23:39:51.67	188.43	30.46	-42.2	-46.1	12.1	3.46e-04	0	57	0	967835648	56	5507
2026-01-10 23:39:52.68	188.48	30.27	-42.1	-46.0	12.2	2.53e-04	0	57	0	968884224	56	5423
2026-01-10 23:39:53.69	188.53	30.07	-42.0	-45.8	12.4	2.00e-04	0	57	0	970981376	56	5289
2026-01-10 23:39:54.70	188.58	29.88	-41.8	-45.4	12.6	1.16e-04	0	57	0	973078528	55	5394
2026-01-10 23:39:55.71	188.63	29.69	-41.8	-45.5	12.5	1.36e-04	0	57	0	975175680	55	5439
2026-01-10 23:39:56.72	188.68	29.50	-41.7	-45.4	12.7	8.62e-05	0	56	0	977272832	55	5355
2026-01-10 23:39:57.73	188.73	29.32	-41.7	-45.3	12.7	7.93e-05	0	57	0	978321408	55	5327
2026-01-10 23:39:58.74	188.78	29.13	-41.7	-45.3	12.7	7.40e-05	0	57	0	980418560	55	5288
2026-01-10 23:39:59.75	188.83	28.94	-41.7	-45.3	12.8	5.95e-05	0	57	0	982515712	55	5281
2026-01-10 23:40:00.76	188.88	28.76	-41.6	-45.1	12.9	5.03e-05	0	57	0	984612864	55	5190
2026-01-10 23:40:01.77	188.92	28.58	-41.5	-45.0	13.1	4.27e-05	0	57	0	986710016	55	5115
2026-01-10 23:40:02.78	188.97	28.39	-41.4	-44.8	13.3	2.51e-05	0	57	0	988807168	54	5302
2026-01-10 23:40:03.79	189.02	28.21	-41.3	-44.6	13.4	1.90e-05	0	57	0	989855744	54	5198
2026-01-10 23:40:04.80	189.06	28.03	-41.2	-44.4	13.6	8.30e-06	0	57	0	991952896	54	5100
2026-01-10 23:40:05.81	189.11	27.86	-41.1	-44.2	13.9	3.80e-06	0	57	0	994050048	54	4959
2026-01-10 23:40:06.82	189.15	27.68	-41.1	-44.1	13.9	1.50e-06	0	57	0	996147200	54	4926
2026-01-10 23:40:07.83	189.20	27.50	-41.0	-44.0	14.0	5.30e-06	0	57	0	998244352	54	4851
2026-01-10 23:40:08.84	189.24	27.33	-40.9	-43.9	14.1	1.50e-06	0	57	0	999292928	53	5067
2026-01-10 23:40:09.85	189.28	27.15	-40.8	-43.8	14.3	7.00e-07	0	57	0	1001390080	53	4990
2026-01-10 23:40:10.86	189.33	26.98	-40.8	-43.8	14.4	2.20e-06	0	56	0	1003487232	53	4987
2026-01-10 23:40:11.87	189.37	26.81	-40.7	-43.6	14.4	0.00e+00	0	57	0	1005584384	53	4922
2026-01-10 23:40:12.87	189.41	26.64	-40.7	-43.5	14.6	0.00e+00	0	57	0	1007681536	53	4846
2026-01-10 23:40:13.88	189.45	26.47	-40.6	-43.5	14.5	0.00e+00	0	57	0	1008730112	53	4839
2026-01-10 23:40:14.89	189.49	26.30	-40.6	-43.4	14.6	1.50e-06	0	57	0	1010827264	53	4812
2026-01-10 23:40:15.90	189.53	26.13	-40.5	-43.3	14.7	7.00e-07	0	57	0	1012924416	53	4755
2026-01-10 23:40:16.91	189.58	25.97	-40.6	-43.5	14.6	0.00e+00	0	57	0	1015021568	53	4817
2026-01-10 23:40:17.92	189.62	25.80	-40.6	-43.4	14.6	7.00e-07	0	57	0	1017118720	53	4796
2026-01-10 23:40:18.93	189.66	25.64	-40.6	-43.5	14.6	0.00e+00	0	57	0	1018167296	53	4836
2026-01-10 23:40:19.94	189.69	25.47	-40.6	-43.3	14.7	0.00e+00	0	57	0	1020264448	53	4758
2026-01-10 23:40:20.95	189.73	25.31	-40.5	-43.3	14.7	0.00e+00	0	57	0	1022361600	53	4735
2026-01-10 23:40:21.96	189.77	25.15	-40.5	-43.2	14.8	0.00e+00	0	56	0	1024458752	52	4975
2026-01-10 23:40:22.97	189.81	24.99	-40.4	-43.2	14.9	0.00e+00	0	57	0	1026555904	52	4941
2026-01-10 23:40:23.98	189.85	24.83	-40.4	-43.1	15.0	0.00e+00	0	57	0	1027604480	52	4873
2026-01-10 23:40:24.99	189.89	24.67	-40.3	-42.9	15.1	0.00e+00	0	57	0	1029701632	52	4801
2026-01-10 23:40:26.00	189.92	24.51	-40.2	-42.8	15.2	0.00e+00	0	57	0	1031798784	52	4752
2026-01-10 23:40:27.01	189.96	24.36	-40.1	-42.7	15.4	0.00e+00	0	57	0	1033895936	52	4657
2026-01-10 23:40:28.02	190.00	24.20	-40.0	-42.5	15.5	0.00e+00	0	57	0	1035993088	52	4593
2026-01-10 23:40:29.02	190.03	24.05	-40.0	-42.5	15.5	0.00e+00	0	57	0	1037041664	52	4566
2026-01-10 23:40:30.03	190.07	23.89	-40.0	-42.5	15.7	0.00e+00	0	57	0	1039138816	51	4819
2026-01-10 23:40:31.04	190.10	23.74	-40.0	-42.4	15.7	0.00e+00	0	57	0	1041235968	51	4783
2026-01-10 23:40:32.06	190.14	23.59	-39.9	-42.3	15.8	0.00e+00	0	57	0	1043333120	51	4755
2026-01-10 23:40:33.07	190.17	23.43	-39.8	-42.2	15.9	0.00e+00	0	56	0	1045430272	51	4682
2026-01-10 23:40:34.08	190.21	23.28	-39.9	-42.3	15.8	0.00e+00	0	57	0	1046478848	51	4726
2026-01-10 23:40:35.09	190.24	23.13	-39.8	-42.2	15.9	7.00e-07	0	57	0	1048576000	51	4661
2026-01-10 23:40:36.10	190.28	22.98	-39.8	-42.1	15.9	0.00e+00	0	57	0	1050673152	51	4650
2026-01-10 23:40:37.11	190.31	22.84	-39.8	-42.1	16.0	0.00e+00	0	57	0	1052770304	51	4644
2026-01-10 23:40:38.12	190.34	22.69	-39.8	-42.2	15.8	0.00e+00	0	57	0	1054867456	51	4662
2026-01-10 23:40:39.13	190.38	22.54	-39.8	-42.2	15.9	0.00e+00	0	57	0	1056964608	51	4654
2026-01-10 23:40:40.14	190.41	22.40	-39.8	-42.2	15.9	0.00e+00	0	57	0	1058013184	51	4696
2026-01-10 23:40:41.14	190.44	22.25	-39.8	-42.2	15.8	0.00e+00	0	57	0	1060110336	51	4703
2026-01-10 23:40:42.15	190.48	22.11	-39.9	-42.3	15.7	0.00e+00	0	57	0	1062207488	51	4751
2026-01-10 23:40:43.16	190.51	21.97	-39.9	-42.3	15.7	0.00e+00	0	57	0	1064304640	51	4749
2026-01-10 23:40:44.17	190.54	21.83	-40.0	-42.5	15.6	0.00e+00	0	57	0	1066401792	51	4824
2026-01-10 23:40:45.18	190.57	21.68	-40.0	-42.5	15.6	0.00e+00	0	57	0	1067450368	51	4849
2026-01-10 23:40:46.19	190.60	21.54	-40.0	-42.5	15.5	0.00e+00	0	57	0	1069547520	51	4855
2026-01-10 23:40:47.20	190.63	21.40	-40.0	-42.5	15.6	0.00e+00	0	57	0	1071644672	51	4842
2026-01-10 23:40:48.21	190.66	21.26	-40.1	-42.6	15.5	0.00e+00	0	57	0	1073741824	51	4895
2026-01-10 23:40:49.22	190.69	21.13	-40.1	-42.6	15.5	0.00e+00	0	57	0	1075838976	51	4882
2026-01-10 23:40:50.23	190.73	20.99	-40.1	-42.6	15.5	0.00e+00	0	56	0	1076887552	51	4897
2026-01-10 23:40:51.24	190.76	20.85	-40.1	-42.6	15.4	0.00e+00	0	57	0	1078984704	51	4925
2026-01-10 23:40:52.25	190.79	20.71	-40.1	-42.7	15.3	0.00e+00	0	57	0	1081081856	51	4957
2026-01-10 23:40:53.26	190.81	20.58	-40.2	-42.8	15.3	0.00e+00	0	57	0	1083179008	51	5002
2026-01-10 23:40:54.27	190.84	20.44	-40.2	-42.8	15.2	0.00e+00	0	56	0	1085276160	51	5029
2026-01-10 23:40:55.28	190.87	20.31	-40.2	-42.8	15.3	0.00e+00	0	57	0	1086324736	51	5003
2026-01-10 23:40:56.29	190.90	20.18	-40.3	-42.9	15.1	0.00e+00	0	57	0	1088421888	51	5072
2026-01-10 23:40:57.30	190.93	20.04	-40.2	-42.9	15.2	0.00e+00	0	57	0	1090519040	51	5054
2026-01-10 23:40:58.30	190.96	19.91	-40.2	-42.8	15.2	0.00e+00	0	57	0	1092616192	51	5037
2026-01-10 23:40:59.32	190.99	19.78	-40.3	-43.0	15.1	0.00e+00	0	57	0	1094713344	51	5102
2026-01-10 23:41:00.33	191.02	19.65	-40.3	-42.9	15.1	0.00e+00	0	56	0	1095761920	51	5082
2026-01-10 23:41:01.34	191.04	19.52	-40.3	-42.9	15.1	0.00e+00	0	57	0	1097859072	51	5067
2026-01-10 23:41:02.34	191.07	19.39	-40.3	-43.0	15.1	0.00e+00	0	57	0	1099956224	51	5107
2026-01-10 23:41:03.35	191.10	19.26	-40.3	-43.0	15.0	0.00e+00	0	56	0	1102053376	51	5158
2026-01-10 23:41:04.36	191.13	19.14	-40.4	-43.1	14.9	0.00e+00	0	57	0	1104150528	51	5196
2026-01-10 23:41:05.37	191.15	19.01	-40.4	-43.2	14.8	0.00e+00	0	57	0	1105199104	51	5246
2026-01-10 23:41:06.38	191.18	18.88	-40.4	-43.2	14.8	0.00e+00	0	57	0	1107296256	51	5242
2026-01-10 23:41:07.39	191.21	18.76	-40.6	-43.4	14.5	0.00e+00	0	57	0	1109393408	51	5395
2026-01-10 23:41:08.40	191.23	18.63	-40.6	-43.4	14.6	0.00e+00	0	57	0	1111490560	51	5367
2026-01-10 23:41:09.41	191.26	18.51	-40.6	-43.4	14.5	0.00e+00	0	57	0	1113587712	51	5385
2026-01-10 23:41:10.42	191.28	18.38	-40.7	-43.6	14.4	0.00e+00	0	57	0	1114636288	51	5471
2026-01-10 23:41:11.43	191.31	18.26	-40.6	-43.6	14.4	0.00e+00	0	57	0	1116733440	51	5465
2026-01-10 23:41:12.44	191.34	18.14	-40.6	-43.6	14.3	3.00e-06	0	57	0	1118830592	52	5167
2026-01-10 23:41:13.45	191.36	18.01	-40.7	-43.6	14.3	7.00e-07	0	57	0	1120927744	52	5204
2026-01-10 23:41:14.46	191.39	17.89	-40.7	-43.6	14.2	7.00e-07	0	57	0	1123024896	52	5198
2026-01-10 23:41:15.47	191.41	17.77	-40.7	-43.7	14.2	1.50e-06	0	57	0	1125122048	52	5254
2026-01-10 23:41:16.48	191.44	17.65	-40.7	-43.8	14.1	1.50e-06	0	57	0	1126170624	52	5281
2026-01-10 23:41:17.49	191.46	17.53	-40.7	-43.7	14.2	7.00e-07	0	57	0	1128267776	52	5232
2026-01-10 23:41:18.50	191.49	17.41	-40.8	-43.8	14.0	2.20e-06	0	57	0	1130364928	52	5326
2026-01-10 23:41:19.51	191.51	17.29	-40.7	-43.8	14.1	1.50e-06	0	57	0	1132462080	52	5302
2026-01-10 23:41:20.51	191.54	17.18	-40.7	-43.8	14.1	3.00e-06	0	57	0	1134559232	52	5293
2026-01-10 23:41:21.52	191.56	17.06	-40.8	-43.8	14.0	4.50e-06	0	57	0	1135607808	52	5309
2026-01-10 23:41:22.53	191.58	16.94	-40.8	-43.8	14.0	3.00e-06	0	57	0	1137704960	52	5326
2026-01-10 23:41:23.54	191.61	16.83	-40.7	-43.8	14.0	2.20e-06	0	57	0	1139802112	52	5309
2026-01-10 23:41:24.55	191.63	16.71	-40.8	-43.8	14.0	3.00e-06	0	57	0	1141899264	52	5334
2026-01-10 23:41:25.56	191.65	16.59	-40.7	-43.8	14.0	3.00e-06	0	57	0	1143996416	52	5306
2026-01-10 23:41:26.57	191.68	16.48	-40.7	-43.8	14.1	3.00e-06	0	56	0	1145044992	52	5288
2026-01-10 23:41:27.58	191.70	16.37	-40.7	-43.8	14.0	3.00e-06	0	57	0	1147142144	52	5301
2026-01-10 23:41:28.59	191.72	16.25	-40.7	-43.7	14.1	7.00e-07	0	57	0	1149239296	52	5260
2026-01-10 23:41:29.60	191.75	16.14	-40.7	-43.7	14.1	2.20e-06	0	57	0	1151336448	52	5227
2026-01-10 23:41:30.61	191.77	16.03	-40.7	-43.8	14.0	1.50e-06	0	57	0	1153433600	52	5299
2026-01-10 23:41:31.62	191.79	15.91	-40.7	-43.7	14.0	3.00e-06	0	57	0	1154482176	52	5272
2026-01-10 23:41:32.63	191.81	15.80	-40.7	-43.7	14.1	3.00e-06	0	57	0	1156579328	52	5227
2026-01-10 23:41:33.64	191.84	15.69	-40.6	-43.6	14.2	3.00e-06	0	57	0	1158676480	52	5201
2026-01-10 23:41:34.65	191.86	15.58	-40.6	-43.6	14.2	7.00e-07	0	57	0	1160773632	52	5168
