passes_logs/2026/01/10/R2.0S_Moscow/R2.0S_Moscow__20260110_012916_NOAA_20_JPSS-1_rec.log

#Pass ID: 20260110_012916_NOAA 20 (JPSS-1)
#Satellite: NOAA 20 (JPSS-1)
#Configuration: NOAA 20
#almurnet v.1.7.20251203
#Start time: 2026-01-10 01:29:16

#Version: 2.2.20231116
#Station: R2.0S_Moscow
#Location: 37.707566 lon 55.798166 lat
#TLE: 1 43013U 17073A   26009.26828276  .00000112  00000+0  74203-4 0  9990
#TLE: 2 43013  98.7631 310.2683 0001700  47.4387 312.6933 14.19534764421920

#Time	Az	El	Level	Level2	SNR	BER	BlckErr	Temp	State	Recorded	gain1	gain2
2026-01-10 01:29:16.34	9.87	1.97	-39.6	-54.3	3.8	1.49e+00	0	47	0	0	51	18831
2026-01-10 01:29:17.35	9.80	2.03	-39.6	-54.3	3.8	1.49e+00	0	47	104	0	50	20000
2026-01-10 01:29:18.36	9.73	2.08	-39.6	-54.3	3.8	1.49e+00	0	47	104	0	50	20000
2026-01-10 01:29:19.37	9.66	2.14	-39.6	-54.3	3.8	1.49e+00	0	47	104	0	50	19991
2026-01-10 01:29:20.38	9.59	2.19	-39.6	-54.3	3.8	1.49e+00	0	47	104	0	50	19990
2026-01-10 01:29:21.39	9.52	2.25	-39.6	-54.3	3.8	1.49e+00	0	47	104	0	50	19997
2026-01-10 01:29:22.40	9.45	2.30	-39.6	-54.3	3.8	1.49e+00	0	47	104	0	50	20040
2026-01-10 01:29:23.41	9.38	2.36	-39.6	-54.3	3.8	1.49e+00	0	47	104	0	50	20031
2026-01-10 01:29:24.42	9.30	2.42	-39.6	-54.3	3.8	1.49e+00	0	48	104	0	50	20018
2026-01-10 01:29:25.43	9.23	2.47	-39.6	-54.3	3.8	1.49e+00	0	48	104	0	50	19946
2026-01-10 01:29:26.44	9.16	2.53	-39.6	-54.4	3.8	1.49e+00	0	48	104	0	50	20075
2026-01-10 01:29:27.45	9.09	2.58	-39.6	-54.3	3.8	1.49e+00	0	48	104	0	50	20036
2026-01-10 01:29:28.46	9.01	2.64	-39.6	-54.3	3.8	1.49e+00	0	48	104	0	50	20010
2026-01-10 01:29:29.46	8.94	2.70	-39.6	-54.3	3.8	1.49e+00	0	48	104	0	50	19988
2026-01-10 01:29:30.47	8.87	2.75	-39.6	-54.3	3.8	1.49e+00	0	48	104	0	50	20001
2026-01-10 01:29:31.48	8.79	2.81	-39.6	-54.3	3.8	1.49e+00	0	48	104	0	50	20003
2026-01-10 01:29:32.48	8.72	2.86	-39.5	-54.3	3.8	1.49e+00	0	48	104	0	50	20047
2026-01-10 01:29:33.49	8.64	2.92	-39.6	-54.3	3.8	1.49e+00	0	48	104	0	50	19986
2026-01-10 01:29:34.50	8.57	2.98	-39.6	-54.3	3.8	1.49e+00	0	48	104	0	50	20059
2026-01-10 01:29:35.51	8.49	3.03	-39.6	-54.3	3.8	1.49e+00	0	48	104	0	50	19998
2026-01-10 01:29:36.52	8.42	3.09	-39.6	-54.3	3.8	1.49e+00	0	48	104	0	50	20008
2026-01-10 01:29:37.53	8.34	3.15	-39.6	-54.3	3.8	1.49e+00	0	48	104	0	50	19996
2026-01-10 01:29:38.53	8.27	3.20	-39.6	-54.3	3.8	1.49e+00	0	48	104	0	50	20010
2026-01-10 01:29:39.54	8.19	3.26	-39.6	-54.3	3.8	1.49e+00	0	49	104	0	50	20008
2026-01-10 01:29:40.55	8.11	3.32	-39.6	-54.3	3.8	1.49e+00	0	49	104	0	50	20030
2026-01-10 01:29:41.56	8.04	3.37	-39.5	-54.3	3.8	1.49e+00	0	49	104	0	50	19987
2026-01-10 01:29:42.57	7.96	3.43	-39.5	-54.3	3.8	1.49e+00	0	49	104	0	50	20035
2026-01-10 01:29:43.58	7.88	3.49	-39.6	-54.3	3.8	1.49e+00	0	49	104	0	50	19956
2026-01-10 01:29:44.59	7.80	3.55	-39.6	-54.3	3.8	1.49e+00	0	49	104	0	50	19996
2026-01-10 01:29:45.60	7.72	3.60	-39.6	-54.3	3.8	1.49e+00	0	49	104	0	50	19972
2026-01-10 01:29:46.60	7.65	3.66	-39.6	-54.3	3.8	1.49e+00	0	49	104	0	50	19988
2026-01-10 01:29:47.61	7.57	3.72	-39.6	-54.3	3.8	1.49e+00	0	49	104	0	50	19969
2026-01-10 01:29:48.62	7.49	3.78	-39.6	-54.3	3.8	1.49e+00	0	49	104	0	50	20054
2026-01-10 01:29:49.63	7.41	3.83	-39.6	-54.3	3.8	1.49e+00	0	49	104	0	50	20000
2026-01-10 01:29:50.64	7.33	3.89	-39.6	-54.3	3.8	1.49e+00	0	49	104	0	50	20058
2026-01-10 01:29:51.65	7.25	3.95	-39.5	-54.3	3.8	1.49e+00	0	49	104	0	50	19948
2026-01-10 01:29:52.66	7.17	4.01	-39.6	-54.3	3.8	1.49e+00	0	49	104	0	50	20007
2026-01-10 01:29:53.67	7.09	4.06	-39.6	-54.3	3.8	1.49e+00	0	49	104	0	50	20016
2026-01-10 01:29:54.67	7.00	4.12	-39.6	-54.3	3.8	1.49e+00	0	49	104	0	50	19963
2026-01-10 01:29:55.68	6.92	4.18	-39.6	-54.3	3.8	1.49e+00	0	49	104	0	50	19952
2026-01-10 01:29:56.69	6.84	4.24	-39.6	-54.3	3.8	1.49e+00	0	49	104	0	50	19983
2026-01-10 01:29:57.70	6.76	4.30	-39.5	-54.3	3.8	1.49e+00	0	49	104	0	50	20017
2026-01-10 01:29:58.71	6.68	4.35	-39.6	-54.3	3.8	1.49e+00	0	50	104	0	50	19973
2026-01-10 01:29:59.72	6.59	4.41	-39.6	-54.3	3.8	1.49e+00	0	50	104	0	50	20024
2026-01-10 01:30:00.73	6.51	4.47	-39.6	-54.3	3.8	1.49e+00	0	50	104	0	50	19966
2026-01-10 01:30:01.74	6.43	4.53	-39.6	-54.3	3.8	1.49e+00	0	50	104	0	50	19914
2026-01-10 01:30:02.75	6.34	4.59	-39.6	-54.3	3.8	1.49e+00	0	50	104	0	50	19988
2026-01-10 01:30:03.76	6.26	4.65	-39.6	-54.3	3.8	1.49e+00	0	50	104	0	50	19964
2026-01-10 01:30:04.77	6.17	4.70	-39.6	-54.3	3.8	1.49e+00	0	50	104	0	50	20007
2026-01-10 01:30:05.77	6.09	4.76	-39.5	-54.3	3.8	1.49e+00	0	50	104	0	50	19958
2026-01-10 01:30:06.78	6.00	4.82	-39.5	-54.3	3.8	1.49e+00	0	50	104	0	50	19985
2026-01-10 01:30:07.79	5.92	4.88	-39.6	-54.3	3.8	1.49e+00	0	50	104	0	50	19991
2026-01-10 01:30:08.80	5.83	4.94	-39.6	-54.3	3.8	1.49e+00	0	50	104	0	50	19935
2026-01-10 01:30:09.81	5.74	5.00	-39.5	-54.3	3.8	1.49e+00	0	50	104	0	50	19986
2026-01-10 01:30:10.82	5.66	5.06	-39.6	-54.3	3.8	1.49e+00	0	50	104	0	50	19945
2026-01-10 01:30:11.83	5.57	5.12	-39.5	-54.3	3.8	1.49e+00	0	50	104	0	50	19944
2026-01-10 01:30:12.84	5.48	5.18	-39.6	-54.3	3.8	1.49e+00	0	50	104	0	50	19960
2026-01-10 01:30:13.85	5.39	5.23	-39.6	-54.3	3.8	1.49e+00	0	51	104	0	50	19955
2026-01-10 01:30:14.86	5.30	5.29	-39.6	-54.3	3.8	1.49e+00	0	50	104	0	50	19970
2026-01-10 01:30:15.87	5.22	5.35	-39.6	-54.3	3.8	1.49e+00	0	50	104	0	50	19949
2026-01-10 01:30:16.88	5.13	5.41	-39.6	-54.3	3.8	1.49e+00	0	50	104	0	50	19943
2026-01-10 01:30:17.89	5.04	5.47	-39.5	-54.3	3.8	1.49e+00	0	51	104	0	50	19906
2026-01-10 01:30:18.90	4.95	5.53	-39.6	-54.3	3.8	1.49e+00	0	51	104	0	50	19957
2026-01-10 01:30:19.91	4.86	5.59	-39.5	-54.3	3.8	1.49e+00	0	51	104	0	50	19971
2026-01-10 01:30:20.92	4.77	5.65	-39.6	-54.3	3.8	1.49e+00	0	51	104	0	50	19988
2026-01-10 01:30:21.92	4.68	5.71	-39.5	-54.3	3.8	1.49e+00	0	51	104	0	50	19986
2026-01-10 01:30:22.93	4.58	5.77	-39.6	-54.3	3.8	1.49e+00	0	51	104	0	50	19979
2026-01-10 01:30:23.94	4.49	5.83	-39.5	-54.3	3.8	1.49e+00	0	51	104	0	50	19968
2026-01-10 01:30:24.95	4.40	5.89	-39.6	-54.3	3.8	1.49e+00	0	51	104	0	50	19969
2026-01-10 01:30:25.95	4.31	5.95	-39.6	-54.3	3.8	1.49e+00	0	51	104	0	50	19939
2026-01-10 01:30:26.96	4.21	6.01	-39.6	-54.3	3.8	1.49e+00	0	51	104	0	50	19930
2026-01-10 01:30:27.97	4.12	6.07	-39.6	-54.3	3.8	1.49e+00	0	51	104	0	50	19928
2026-01-10 01:30:28.98	4.03	6.13	-39.5	-54.3	3.8	1.49e+00	0	51	104	0	50	19994
2026-01-10 01:30:29.99	3.93	6.19	-39.5	-54.3	3.8	1.49e+00	0	51	104	0	50	19937
2026-01-10 01:30:31.00	3.84	6.25	-39.6	-54.3	3.8	1.49e+00	0	51	104	0	50	19920
2026-01-10 01:30:32.01	3.74	6.31	-39.5	-54.3	3.8	1.49e+00	0	51	104	0	50	20001
2026-01-10 01:30:33.02	3.65	6.37	-39.5	-54.3	3.8	1.49e+00	0	51	104	0	50	19946
2026-01-10 01:30:34.03	3.55	6.43	-39.5	-54.3	3.8	1.49e+00	0	51	104	0	50	19935
2026-01-10 01:30:35.03	3.46	6.49	-39.5	-54.3	3.8	1.49e+00	0	51	104	0	50	19897
2026-01-10 01:30:36.03	3.36	6.55	-39.6	-54.3	3.8	1.49e+00	0	51	104	0	50	19926
2026-01-10 01:30:37.04	3.26	6.61	-39.6	-54.3	3.8	1.49e+00	0	51	104	0	50	19935
2026-01-10 01:30:38.04	3.17	6.67	-39.5	-54.3	3.8	1.49e+00	0	52	104	0	50	19927
2026-01-10 01:30:39.05	3.07	6.73	-39.5	-54.3	3.8	1.49e+00	0	51	104	0	50	19948
2026-01-10 01:30:40.06	2.97	6.80	-39.5	-54.3	3.8	1.49e+00	0	52	104	0	50	19935
2026-01-10 01:30:41.07	2.87	6.86	-39.5	-54.3	3.8	1.49e+00	0	51	104	0	50	19899
2026-01-10 01:30:42.08	2.77	6.92	-39.5	-54.3	3.8	1.49e+00	0	52	104	0	50	19911
2026-01-10 01:30:43.09	2.67	6.98	-39.5	-54.3	3.8	1.49e+00	0	52	104	0	50	19933
2026-01-10 01:30:44.09	2.57	7.04	-39.5	-54.3	3.8	1.49e+00	0	52	104	0	50	19900
2026-01-10 01:30:45.10	2.47	7.10	-39.5	-54.3	3.8	1.49e+00	0	52	104	0	50	19855
2026-01-10 01:30:46.11	2.37	7.16	-39.5	-54.3	3.8	1.49e+00	0	52	104	0	50	19962
2026-01-10 01:30:47.12	2.27	7.22	-39.5	-54.3	3.8	1.49e+00	0	52	104	0	50	19901
2026-01-10 01:30:48.13	2.17	7.28	-39.5	-54.3	3.8	1.49e+00	0	52	104	0	50	19955
2026-01-10 01:30:49.14	2.06	7.35	-39.5	-54.3	3.8	1.49e+00	0	52	104	0	50	19925
2026-01-10 01:30:50.15	1.96	7.41	-39.5	-54.3	3.8	1.49e+00	0	52	104	0	50	19900
2026-01-10 01:30:51.16	1.86	7.47	-39.5	-54.3	3.8	1.49e+00	0	52	104	0	50	19937
2026-01-10 01:30:52.17	1.75	7.53	-39.5	-54.3	3.8	1.49e+00	0	52	104	0	50	19950
2026-01-10 01:30:53.18	1.65	7.59	-39.5	-54.3	3.8	1.49e+00	0	52	104	0	50	19904
2026-01-10 01:30:54.18	1.55	7.65	-39.5	-54.3	3.8	1.49e+00	0	52	104	0	50	19947
2026-01-10 01:30:55.20	1.44	7.72	-39.5	-54.3	3.8	1.49e+00	0	52	104	0	50	19878
2026-01-10 01:30:56.20	1.34	7.78	-39.5	-54.3	3.8	1.49e+00	0	52	104	0	50	19897
2026-01-10 01:30:57.22	1.23	7.84	-39.5	-54.3	3.8	1.49e+00	0	52	104	0	50	19914
2026-01-10 01:30:58.23	1.12	7.90	-39.5	-54.3	3.8	1.49e+00	0	52	104	0	50	19870
2026-01-10 01:30:59.23	1.02	7.96	-39.5	-54.3	3.8	1.49e+00	0	52	104	0	50	19943
2026-01-10 01:31:00.25	0.91	8.03	-39.5	-54.3	3.8	1.49e+00	0	52	104	0	50	19909
2026-01-10 01:31:01.26	0.80	8.09	-39.6	-54.3	3.8	1.49e+00	0	52	104	0	50	19927
2026-01-10 01:31:02.27	0.69	8.15	-39.7	-54.4	3.8	1.49e+00	0	52	104	0	50	20126
2026-01-10 01:31:03.27	0.58	8.21	-39.7	-54.4	3.8	1.49e+00	0	52	104	0	50	20158
2026-01-10 01:31:04.28	0.47	8.27	-39.7	-54.4	3.8	1.49e+00	0	53	104	0	50	20132
2026-01-10 01:31:05.29	0.36	8.34	-39.6	-54.3	3.8	1.49e+00	0	52	104	0	50	19922
2026-01-10 01:31:06.30	0.25	8.40	-39.7	-54.4	3.8	1.49e+00	0	52	104	0	50	20184
2026-01-10 01:31:07.31	0.14	8.46	-39.5	-54.3	3.8	1.49e+00	0	53	104	0	50	19967
2026-01-10 01:31:08.32	0.03	8.52	-39.6	-54.4	3.8	1.49e+00	0	53	104	0	50	20192
2026-01-10 01:31:09.33	359.92	8.59	-39.6	-54.3	3.8	1.49e+00	0	53	104	0	50	20024
2026-01-10 01:31:10.34	359.81	8.65	-39.5	-54.4	3.8	1.49e+00	0	52	104	0	50	20202
2026-01-10 01:31:11.35	359.69	8.71	-39.7	-54.4	3.8	1.49e+00	0	53	104	0	50	20147
2026-01-10 01:31:12.36	359.58	8.78	-39.6	-54.4	3.8	1.49e+00	0	53	104	0	50	20134
2026-01-10 01:31:13.37	359.47	8.84	-39.4	-54.3	3.8	1.49e+00	0	53	104	0	50	20066
2026-01-10 01:31:14.38	359.35	8.90	-39.5	-54.4	3.8	1.49e+00	0	53	104	0	50	20107
2026-01-10 01:31:15.39	359.24	8.96	-39.4	-54.3	3.8	1.49e+00	0	53	104	0	50	20038
2026-01-10 01:31:16.40	359.12	9.03	-39.4	-54.4	3.8	1.49e+00	0	52	104	0	50	20118
2026-01-10 01:31:17.41	359.01	9.09	-39.4	-54.4	3.8	1.49e+00	0	53	104	0	50	20119
2026-01-10 01:31:18.41	358.89	9.15	-39.5	-54.3	3.8	1.49e+00	0	53	104	0	50	20022
2026-01-10 01:31:19.43	358.77	9.22	-39.4	-54.3	3.8	1.49e+00	0	53	104	0	50	20053
2026-01-10 01:31:20.43	358.66	9.28	-39.4	-54.3	3.8	1.49e+00	0	53	104	0	50	20021
2026-01-10 01:31:21.44	358.54	9.34	-39.5	-54.3	3.8	1.49e+00	0	53	104	0	50	19906
2026-01-10 01:31:22.45	358.42	9.40	-39.4	-54.3	3.8	1.49e+00	0	53	104	0	50	19873
2026-01-10 01:31:23.46	358.30	9.47	-39.2	-54.2	3.8	1.49e+00	0	53	104	0	50	19832
2026-01-10 01:31:24.46	358.18	9.53	-39.5	-54.3	3.8	1.49e+00	0	53	104	0	50	20028
2026-01-10 01:31:25.47	358.06	9.59	-39.5	-54.3	3.8	1.49e+00	0	53	104	0	50	19953
2026-01-10 01:31:26.48	357.94	9.66	-39.5	-54.3	3.8	1.49e+00	0	53	104	0	50	19964
2026-01-10 01:31:27.49	357.82	9.72	-39.5	-54.3	3.8	1.49e+00	0	53	104	0	50	19888
2026-01-10 01:31:28.50	357.70	9.78	-39.5	-54.3	3.8	1.49e+00	0	53	104	0	50	19974
2026-01-10 01:31:29.51	357.58	9.85	-39.3	-54.3	3.8	1.49e+00	0	53	104	0	49	21019
2026-01-10 01:31:30.52	357.45	9.91	-39.5	-54.3	3.8	1.49e+00	0	53	104	0	49	21172
2026-01-10 01:31:31.52	357.33	9.97	-38.8	-54.3	3.8	1.49e+00	0	53	104	0	49	21031
2026-01-10 01:31:32.53	357.21	10.04	-39.5	-54.3	3.8	1.49e+00	0	53	104	0	49	21230
2026-01-10 01:31:33.55	357.08	10.10	-39.5	-54.3	3.8	1.49e+00	0	53	104	0	49	21256
2026-01-10 01:31:34.55	356.96	10.17	-39.5	-54.3	3.8	1.49e+00	0	53	104	0	49	21192
2026-01-10 01:31:35.56	356.83	10.23	-39.8	-54.5	3.8	1.49e+00	0	53	104	0	50	20322
2026-01-10 01:31:36.57	356.71	10.29	-39.3	-54.3	3.8	1.49e+00	0	53	104	0	50	20020
2026-01-10 01:31:37.58	356.58	10.36	-39.5	-54.3	3.8	1.49e+00	0	53	104	0	49	21141
2026-01-10 01:31:38.58	356.45	10.42	-39.4	-54.3	3.8	1.49e+00	0	53	104	0	50	19994
2026-01-10 01:31:39.59	356.33	10.48	-39.5	-54.4	3.8	1.49e+00	0	53	104	0	49	21306
2026-01-10 01:31:40.60	356.20	10.55	-39.6	-54.4	3.8	1.49e+00	0	53	104	0	50	20110
2026-01-10 01:31:41.61	356.07	10.61	-39.8	-54.4	3.8	1.49e+00	0	53	104	0	50	20262
2026-01-10 01:31:42.62	355.94	10.67	-39.7	-54.4	3.8	1.49e+00	0	53	104	0	50	20167
2026-01-10 01:31:43.63	355.81	10.74	-39.9	-54.5	3.8	1.49e+00	0	53	104	0	50	20491
2026-01-10 01:31:44.64	355.68	10.80	-39.7	-54.4	3.8	1.49e+00	0	53	104	0	50	20173
2026-01-10 01:31:45.65	355.55	10.87	-39.4	-54.3	3.8	1.49e+00	0	53	104	0	50	20013
2026-01-10 01:31:46.66	355.41	10.93	-39.6	-54.4	3.8	1.49e+00	0	54	104	0	50	20135
2026-01-10 01:31:47.67	355.28	10.99	-39.7	-54.4	3.8	1.49e+00	0	54	104	0	50	20084
2026-01-10 01:31:48.68	355.15	11.06	-39.7	-54.4	3.8	1.49e+00	0	53	104	0	50	20194
2026-01-10 01:31:49.69	355.01	11.12	-39.8	-54.4	3.8	1.49e+00	0	54	104	0	50	20216
2026-01-10 01:31:50.70	354.88	11.19	-40.0	-54.8	3.8	1.49e+00	0	54	104	0	50	21106
2026-01-10 01:31:51.71	354.75	11.25	-40.2	-54.7	3.8	1.49e+00	0	54	104	0	51	19735
2026-01-10 01:31:52.72	354.61	11.31	-39.9	-54.6	3.8	1.49e+00	0	54	104	0	51	19579
2026-01-10 01:31:53.72	354.48	11.38	-40.1	-54.7	3.8	1.49e+00	0	53	104	0	51	19667
2026-01-10 01:31:54.74	354.34	11.44	-40.0	-54.7	3.8	1.49e+00	0	54	104	0	51	19646
2026-01-10 01:31:55.74	354.20	11.51	-40.2	-54.8	3.8	1.49e+00	0	54	104	0	51	19883
2026-01-10 01:31:56.75	354.06	11.57	-39.9	-54.5	3.8	1.49e+00	0	54	104	0	51	19272
2026-01-10 01:31:57.76	353.92	11.63	-40.2	-54.7	3.8	1.49e+00	0	54	104	0	51	19695
2026-01-10 01:31:58.77	353.79	11.70	-39.8	-54.6	3.8	1.49e+00	0	54	104	0	51	19394
2026-01-10 01:31:59.77	353.65	11.76	-39.9	-54.8	3.8	1.49e+00	0	54	104	0	51	20043
2026-01-10 01:32:00.78	353.51	11.82	-40.1	-54.7	3.8	1.49e+00	0	54	104	0	51	19707
2026-01-10 01:32:01.79	353.37	11.89	-40.1	-54.9	3.8	1.49e+00	0	54	104	0	51	20190
2026-01-10 01:32:02.80	353.22	11.95	-40.1	-54.7	3.8	1.49e+00	0	54	104	0	51	19683
2026-01-10 01:32:03.81	353.08	12.02	-40.3	-54.8	3.8	1.49e+00	0	54	104	0	51	19971
2026-01-10 01:32:04.82	352.94	12.08	-39.9	-54.9	3.8	1.49e+00	0	54	104	0	51	20155
2026-01-10 01:32:05.83	352.79	12.14	-40.4	-54.9	3.8	1.49e+00	0	54	104	0	51	20197
2026-01-10 01:32:06.84	352.65	12.21	-40.2	-55.0	3.8	1.49e+00	0	54	104	0	51	20455
2026-01-10 01:32:07.85	352.51	12.27	-40.4	-55.0	3.8	1.49e+00	0	54	104	0	51	20405
2026-01-10 01:32:08.86	352.36	12.34	-40.1	-54.9	3.8	1.49e+00	0	54	104	0	51	20117
2026-01-10 01:32:09.87	352.21	12.40	-40.5	-55.0	3.8	1.49e+00	0	54	104	0	51	20488
2026-01-10 01:32:10.88	352.07	12.46	-40.2	-54.9	3.8	1.49e+00	0	54	104	0	51	20287
2026-01-10 01:32:11.89	351.92	12.53	-40.6	-55.2	3.8	1.49e+00	0	54	104	0	51	20824
2026-01-10 01:32:12.90	351.77	12.59	-40.4	-54.9	3.8	1.49e+00	0	54	104	0	51	20248
2026-01-10 01:32:13.91	351.62	12.66	-40.6	-55.1	3.8	1.49e+00	0	54	104	0	51	20689
2026-01-10 01:32:14.92	351.47	12.72	-40.4	-55.0	3.8	1.49e+00	0	54	104	0	51	20377
2026-01-10 01:32:15.93	351.32	12.78	-40.6	-55.3	3.8	1.49e+00	0	54	104	0	51	21184
2026-01-10 01:32:16.94	351.17	12.85	-40.4	-55.0	3.8	1.49e+00	0	54	104	0	51	20471
2026-01-10 01:32:17.95	351.02	12.91	-40.6	-55.3	3.8	1.49e+00	0	54	104	0	51	21216
2026-01-10 01:32:18.95	350.87	12.97	-40.4	-55.0	3.8	1.49e+00	0	54	104	0	51	20488
2026-01-10 01:32:19.96	350.72	13.04	-40.5	-55.1	3.8	1.49e+00	0	54	104	0	51	20677
2026-01-10 01:32:20.97	350.56	13.10	-40.4	-55.1	3.8	1.49e+00	0	54	104	0	51	20541
2026-01-10 01:32:21.98	350.41	13.17	-40.5	-55.2	3.8	1.49e+00	0	54	104	0	51	20876
2026-01-10 01:32:22.99	350.25	13.23	-40.3	-55.0	3.8	1.49e+00	0	54	104	0	51	20471
2026-01-10 01:32:24.00	350.10	13.29	-40.2	-55.3	3.8	1.49e+00	0	54	104	0	51	21169
2026-01-10 01:32:25.01	349.94	13.36	-40.6	-55.3	3.8	1.49e+00	0	54	104	0	51	21147
2026-01-10 01:32:26.02	349.79	13.42	-40.4	-55.4	3.8	1.49e+00	0	54	104	0	51	21503
2026-01-10 01:32:27.03	349.63	13.48	-40.6	-55.3	3.8	1.49e+00	0	54	104	0	51	21249
2026-01-10 01:32:28.04	349.47	13.55	-40.2	-55.3	3.8	1.49e+00	0	54	104	0	51	21111
2026-01-10 01:32:29.05	349.31	13.61	-40.2	-55.4	3.8	1.49e+00	0	54	104	0	51	21284
2026-01-10 01:32:30.05	349.15	13.67	-40.3	-55.4	3.8	1.49e+00	0	54	104	0	51	21442
2026-01-10 01:32:31.06	348.99	13.74	-40.6	-55.5	3.8	1.49e+00	0	54	104	0	51	21724
2026-01-10 01:32:32.07	348.83	13.80	-41.0	-55.7	3.8	1.49e+00	0	54	104	0	52	20896
2026-01-10 01:32:33.08	348.67	13.86	-40.1	-55.2	3.8	1.49e+00	0	54	104	0	52	19709
2026-01-10 01:32:34.09	348.51	13.92	-41.0	-55.8	3.8	1.49e+00	0	54	104	0	52	21059
2026-01-10 01:32:35.09	348.35	13.99	-40.3	-55.4	3.8	1.49e+00	0	54	104	0	52	20079
2026-01-10 01:32:36.11	348.18	14.05	-41.1	-55.8	3.8	1.49e+00	0	54	104	0	52	21107
2026-01-10 01:32:37.12	348.02	14.11	-41.0	-55.6	3.8	1.49e+00	0	54	104	0	52	20683
2026-01-10 01:32:38.12	347.85	14.18	-41.2	-55.8	3.8	1.49e+00	0	54	104	0	52	21176
2026-01-10 01:32:39.13	347.69	14.24	-40.9	-55.6	3.8	1.49e+00	0	54	104	0	52	20564
2026-01-10 01:32:40.14	347.52	14.30	-41.2	-55.9	3.8	1.49e+00	0	54	104	0	52	21490
2026-01-10 01:32:41.15	347.35	14.36	-41.0	-55.7	3.8	1.49e+00	0	54	104	0	52	20877
2026-01-10 01:32:42.16	347.18	14.42	-41.2	-55.8	3.8	1.49e+00	0	54	104	0	53	20043
2026-01-10 01:32:43.17	347.01	14.49	-41.1	-55.7	3.8	1.49e+00	0	54	104	0	53	19817
2026-01-10 01:32:44.18	346.84	14.55	-41.3	-55.9	3.8	1.49e+00	0	54	104	0	53	20200
2026-01-10 01:32:45.19	346.67	14.61	-41.0	-55.6	3.8	1.49e+00	0	54	104	0	53	19512
2026-01-10 01:32:46.20	346.50	14.67	-41.3	-55.8	3.8	1.49e+00	0	54	104	0	53	20012
2026-01-10 01:32:47.21	346.33	14.74	-40.9	-55.4	3.8	1.49e+00	0	54	104	0	53	19095
2026-01-10 01:32:48.22	346.16	14.80	-40.7	-55.3	3.8	1.49e+00	0	55	104	0	53	18871
2026-01-10 01:32:49.23	345.99	14.86	-41.2	-55.9	3.8	1.49e+00	0	54	104	0	53	20201
2026-01-10 01:32:50.24	345.81	14.92	-40.6	-55.3	3.8	1.49e+00	0	55	104	0	53	18848
2026-01-10 01:32:51.25	345.64	14.98	-40.5	-55.3	3.8	1.49e+00	0	54	104	0	53	18756
2026-01-10 01:32:52.25	345.46	15.04	-40.5	-55.3	3.8	1.49e+00	0	54	104	0	53	18873
2026-01-10 01:32:53.26	345.29	15.10	-40.7	-55.3	3.8	1.49e+00	0	54	104	0	53	18750
2026-01-10 01:32:54.27	345.11	15.16	-40.7	-55.4	3.8	1.49e+00	0	55	104	0	53	19005
2026-01-10 01:32:55.28	344.93	15.23	-40.7	-55.3	3.8	1.49e+00	0	54	104	0	53	18874
2026-01-10 01:32:56.29	344.75	15.29	-40.2	-55.1	3.8	1.49e+00	0	54	104	0	52	19569
2026-01-10 01:32:57.30	344.57	15.35	-40.5	-55.3	3.8	1.49e+00	0	54	104	0	52	19972
2026-01-10 01:32:58.30	344.40	15.41	-40.4	-55.1	3.8	1.49e+00	0	54	104	0	52	19571
2026-01-10 01:32:59.31	344.22	15.47	-40.3	-55.2	3.8	1.49e+00	0	54	104	0	52	19664
2026-01-10 01:33:00.32	344.03	15.53	-40.5	-55.1	3.8	1.49e+00	0	55	104	0	52	19392
2026-01-10 01:33:01.33	343.85	15.59	-40.7	-55.3	3.8	1.49e+00	0	54	104	0	52	20059
2026-01-10 01:33:02.33	343.67	15.65	-40.4	-55.1	3.8	1.49e+00	0	54	104	0	52	19391
2026-01-10 01:33:03.34	343.49	15.71	-40.6	-55.2	3.8	1.49e+00	0	54	104	0	52	19644
2026-01-10 01:33:04.35	343.30	15.77	-40.1	-55.0	3.8	1.49e+00	0	55	104	0	52	19308
2026-01-10 01:33:05.36	343.12	15.83	-40.6	-55.1	3.8	1.49e+00	0	55	104	0	52	19502
2026-01-10 01:33:06.37	342.93	15.89	-40.2	-55.1	3.8	1.49e+00	0	55	104	0	51	20661
2026-01-10 01:33:07.37	342.75	15.94	-40.6	-55.1	3.8	1.49e+00	0	54	104	0	52	19554
2026-01-10 01:33:08.38	342.56	16.00	-40.4	-55.0	3.8	1.49e+00	0	55	104	0	52	19176
2026-01-10 01:33:09.38	342.37	16.06	-40.5	-55.1	3.8	1.49e+00	0	55	104	0	52	19405
2026-01-10 01:33:10.39	342.19	16.12	-40.3	-54.9	3.8	1.49e+00	0	55	104	0	52	19056
2026-01-10 01:33:11.40	342.00	16.18	-40.4	-55.0	3.8	1.49e+00	0	54	104	0	52	19307
2026-01-10 01:33:12.41	341.81	16.24	-40.2	-54.9	3.8	1.49e+00	0	55	104	0	52	19047
2026-01-10 01:33:13.42	341.61	16.30	-40.4	-55.0	3.8	1.49e+00	0	55	104	0	52	19177
2026-01-10 01:33:14.43	341.42	16.35	-40.2	-54.9	3.8	1.49e+00	0	55	104	0	52	19051
2026-01-10 01:33:15.43	341.23	16.41	-40.5	-55.1	3.8	1.49e+00	0	55	104	0	52	19432
2026-01-10 01:33:16.44	341.04	16.47	-40.4	-55.0	3.8	1.49e+00	0	55	104	0	52	19184
2026-01-10 01:33:17.45	340.84	16.53	-40.3	-54.9	3.8	1.49e+00	0	55	104	0	52	19124
2026-01-10 01:33:18.45	340.65	16.58	-40.5	-55.0	3.8	1.49e+00	0	55	104	0	52	19331
2026-01-10 01:33:19.46	340.46	16.64	-40.3	-55.0	3.8	1.49e+00	0	54	104	0	52	19177
2026-01-10 01:33:20.46	340.26	16.70	-40.7	-55.1	3.8	1.49e+00	0	55	104	0	52	19424
2026-01-10 01:33:21.47	340.06	16.75	-40.8	-54.6	3.8	1.49e+00	0	55	104	0	52	18515
2026-01-10 01:33:22.48	339.87	16.81	-41.0	-53.7	3.8	1.49e+00	0	55	104	0	52	16580
2026-01-10 01:33:23.49	339.67	16.87	-41.1	-52.3	4.2	1.44e+00	0	55	0	0	52	14094
2026-01-10 01:33:24.50	339.47	16.92	-41.2	-50.3	5.2	9.85e-01	0	55	0	1048576	52	11261
2026-01-10 01:33:25.51	339.27	16.98	-41.1	-48.3	6.9	4.08e-01	0	55	0	3145728	52	8955
2026-01-10 01:33:26.51	339.07	17.03	-40.8	-46.3	9.2	4.15e-02	0	55	0	4194304	52	7109
2026-01-10 01:33:27.52	338.87	17.09	-40.3	-44.7	11.3	4.39e-03	0	55	0	6291456	52	5895
2026-01-10 01:33:28.53	338.67	17.14	-39.9	-43.6	12.7	3.43e-04	0	55	0	8388608	51	5497
2026-01-10 01:33:29.54	338.46	17.20	-39.7	-43.1	13.4	2.28e-05	0	55	0	10485760	51	5210
2026-01-10 01:33:30.55	338.26	17.25	-39.8	-43.1	13.5	1.14e-05	0	55	0	12582912	51	5204
2026-01-10 01:33:31.55	338.06	17.30	-39.9	-43.3	13.4	9.90e-06	0	55	0	14680064	51	5291
2026-01-10 01:33:32.56	337.85	17.36	-39.8	-43.0	13.7	4.50e-06	0	55	0	15728640	51	5157
2026-01-10 01:33:33.57	337.64	17.41	-39.9	-43.3	13.6	6.10e-06	0	55	0	17825792	51	5280
2026-01-10 01:33:34.58	337.44	17.47	-40.1	-43.4	13.6	4.50e-06	0	55	0	19922944	51	5369
2026-01-10 01:33:35.59	337.23	17.52	-39.9	-43.0	14.1	2.20e-06	0	55	0	22020096	51	5123
2026-01-10 01:33:36.60	337.02	17.57	-39.8	-42.8	14.3	2.20e-06	0	55	0	24117248	51	5027
2026-01-10 01:33:37.61	336.81	17.62	-40.3	-43.5	13.8	3.80e-06	0	55	0	25165824	51	5417
2026-01-10 01:33:38.62	336.60	17.68	-40.2	-43.2	14.1	6.10e-06	0	55	0	27262976	51	5240
2026-01-10 01:33:39.62	336.39	17.73	-40.2	-43.2	14.2	3.80e-06	0	55	0	29360128	51	5241
2026-01-10 01:33:40.63	336.18	17.78	-40.3	-43.3	14.1	3.80e-06	0	55	0	31457280	51	5331
2026-01-10 01:33:41.64	335.97	17.83	-40.3	-43.3	14.2	1.50e-06	0	55	0	33554432	51	5310
2026-01-10 01:33:42.65	335.76	17.88	-40.1	-43.1	14.4	7.00e-07	0	55	0	34603008	51	5169
2026-01-10 01:33:43.66	335.54	17.93	-40.2	-43.1	14.4	7.00e-07	0	55	0	36700160	51	5191
2026-01-10 01:33:44.67	335.33	17.98	-40.2	-43.1	14.4	0.00e+00	0	55	0	38797312	51	5187
2026-01-10 01:33:45.67	335.12	18.03	-40.2	-43.2	14.4	0.00e+00	0	55	0	40894464	51	5241
2026-01-10 01:33:46.68	334.90	18.08	-40.3	-43.2	14.3	0.00e+00	0	55	0	42991616	51	5259
2026-01-10 01:33:47.68	334.69	18.13	-40.3	-43.2	14.3	7.00e-07	0	55	0	44040192	51	5269
2026-01-10 01:33:48.69	334.47	18.18	-40.4	-43.4	14.1	3.00e-06	0	55	0	46137344	51	5385
2026-01-10 01:33:49.70	334.25	18.23	-40.5	-43.5	14.1	2.20e-06	0	55	0	48234496	51	5452
2026-01-10 01:33:50.71	334.03	18.28	-40.5	-43.6	14.0	3.00e-06	0	55	0	50331648	51	5502
2026-01-10 01:33:51.72	333.82	18.33	-40.6	-43.7	13.9	1.50e-06	0	55	0	52428800	51	5554
2026-01-10 01:33:52.73	333.60	18.38	-40.5	-43.7	14.0	6.80e-06	0	55	0	53477376	51	5533
2026-01-10 01:33:53.74	333.37	18.42	-40.5	-43.6	14.0	3.00e-06	0	55	0	55574528	51	5487
2026-01-10 01:33:54.75	333.15	18.47	-40.5	-43.5	14.1	2.20e-06	0	55	0	57671680	51	5456
2026-01-10 01:33:55.76	332.93	18.52	-40.5	-43.6	14.0	3.80e-06	0	55	0	59768832	51	5512
2026-01-10 01:33:56.76	332.71	18.56	-40.6	-43.7	14.0	2.20e-06	0	55	0	61865984	51	5536
2026-01-10 01:33:57.77	332.49	18.61	-40.6	-43.7	14.0	1.50e-06	0	55	0	62914560	51	5531
2026-01-10 01:33:58.78	332.26	18.66	-40.5	-43.6	14.1	3.00e-06	0	55	0	65011712	51	5504
2026-01-10 01:33:59.78	332.04	18.70	-40.5	-43.4	14.3	2.20e-06	0	55	0	67108864	51	5397
2026-01-10 01:34:00.79	331.82	18.75	-40.4	-43.4	14.3	0.00e+00	0	55	0	69206016	51	5358
2026-01-10 01:34:01.80	331.59	18.79	-40.3	-43.2	14.5	1.50e-06	0	55	0	71303168	51	5261
2026-01-10 01:34:02.80	331.36	18.84	-40.2	-43.0	14.7	0.00e+00	0	55	0	72351744	51	5152
2026-01-10 01:34:03.81	331.14	18.88	-40.2	-43.0	14.7	0.00e+00	0	55	0	74448896	51	5139
2026-01-10 01:34:04.81	330.91	18.92	-40.1	-42.9	14.8	0.00e+00	0	55	0	76546048	51	5074
2026-01-10 01:34:05.82	330.68	18.97	-40.1	-42.9	14.9	0.00e+00	0	55	0	78643200	51	5053
2026-01-10 01:34:06.83	330.45	19.01	-40.0	-42.7	15.0	0.00e+00	0	55	0	80740352	51	4980
2026-01-10 01:34:07.83	330.23	19.05	-40.0	-42.7	15.0	0.00e+00	0	55	0	81788928	51	4948
2026-01-10 01:34:08.84	329.99	19.09	-40.0	-42.7	15.1	0.00e+00	0	55	0	83886080	51	4941
2026-01-10 01:34:09.84	329.77	19.13	-39.9	-42.6	15.2	0.00e+00	0	55	0	85983232	51	4892
2026-01-10 01:34:10.85	329.53	19.17	-39.9	-42.6	15.2	0.00e+00	0	55	0	88080384	51	4891
2026-01-10 01:34:11.86	329.30	19.21	-39.9	-42.6	15.2	0.00e+00	0	55	0	90177536	51	4883
2026-01-10 01:34:12.87	329.07	19.26	-39.9	-42.6	15.2	0.00e+00	0	55	0	91226112	51	4884
2026-01-10 01:34:13.88	328.83	19.29	-39.8	-42.4	15.3	7.00e-07	0	55	0	93323264	51	4805
2026-01-10 01:34:14.89	328.60	19.33	-39.8	-42.5	15.3	7.00e-07	0	55	0	95420416	51	4821
2026-01-10 01:34:15.90	328.36	19.37	-39.9	-42.5	15.3	0.00e+00	0	55	0	97517568	51	4827
2026-01-10 01:34:16.91	328.13	19.41	-39.9	-42.6	15.2	0.00e+00	0	55	0	99614720	51	4873
2026-01-10 01:34:17.91	327.89	19.45	-40.0	-42.6	15.1	0.00e+00	0	55	0	100663296	51	4914
2026-01-10 01:34:18.93	327.66	19.49	-39.9	-42.6	15.2	0.00e+00	0	55	0	102760448	51	4896
2026-01-10 01:34:19.93	327.42	19.52	-39.9	-42.6	15.2	0.00e+00	0	55	0	104857600	51	4886
2026-01-10 01:34:20.94	327.18	19.56	-39.8	-42.5	15.3	0.00e+00	0	55	0	106954752	51	4816
2026-01-10 01:34:21.95	326.94	19.60	-39.8	-42.4	15.4	0.00e+00	0	55	0	109051904	51	4795
2026-01-10 01:34:22.96	326.70	19.63	-39.7	-42.3	15.5	0.00e+00	0	55	0	110100480	51	4723
2026-01-10 01:34:23.97	326.46	19.67	-39.7	-42.2	15.6	0.00e+00	0	55	0	112197632	51	4673
2026-01-10 01:34:24.98	326.22	19.70	-39.7	-42.2	15.6	0.00e+00	0	55	0	114294784	51	4701
2026-01-10 01:34:25.98	325.99	19.74	-39.7	-42.3	15.5	0.00e+00	0	55	0	116391936	51	4710
2026-01-10 01:34:26.99	325.74	19.77	-39.8	-42.4	15.4	0.00e+00	0	55	0	118489088	51	4782
2026-01-10 01:34:28.00	325.50	19.80	-39.9	-42.5	15.3	0.00e+00	0	55	0	119537664	51	4831
2026-01-10 01:34:29.00	325.26	19.84	-39.9	-42.6	15.2	0.00e+00	0	55	0	121634816	51	4891
2026-01-10 01:34:30.01	325.02	19.87	-40.0	-42.7	15.1	7.00e-07	0	55	0	123731968	51	4936
2026-01-10 01:34:31.02	324.77	19.90	-40.0	-42.7	15.1	0.00e+00	0	55	0	125829120	51	4972
2026-01-10 01:34:32.03	324.53	19.93	-40.0	-42.7	15.1	0.00e+00	0	55	0	127926272	51	4957
2026-01-10 01:34:33.03	324.29	19.96	-40.0	-42.7	15.1	0.00e+00	0	55	0	128974848	51	4957
2026-01-10 01:34:34.04	324.04	19.99	-40.1	-42.8	15.0	0.00e+00	0	55	0	131072000	51	4997
2026-01-10 01:34:35.04	323.80	20.02	-40.2	-43.0	14.9	0.00e+00	0	55	0	133169152	51	5101
2026-01-10 01:34:36.05	323.55	20.05	-40.2	-42.9	14.9	7.00e-07	0	55	0	135266304	51	5094
2026-01-10 01:34:37.06	323.31	20.08	-40.3	-43.1	14.7	0.00e+00	0	55	0	137363456	51	5191
2026-01-10 01:34:38.07	323.06	20.11	-40.3	-43.0	14.8	7.00e-07	0	55	0	138412032	51	5157
2026-01-10 01:34:39.08	322.81	20.14	-40.3	-43.1	14.7	0.00e+00	0	55	0	140509184	51	5195
2026-01-10 01:34:40.09	322.57	20.16	-40.2	-43.0	14.8	0.00e+00	0	55	0	142606336	51	5155
2026-01-10 01:34:41.09	322.32	20.19	-40.2	-43.0	14.8	0.00e+00	0	55	0	144703488	51	5143
2026-01-10 01:34:42.10	322.07	20.22	-40.2	-43.0	14.8	0.00e+00	0	55	0	146800640	51	5129
2026-01-10 01:34:43.11	321.82	20.24	-40.2	-43.0	14.8	0.00e+00	0	55	0	147849216	51	5140
2026-01-10 01:34:44.12	321.57	20.27	-40.3	-43.1	14.7	0.00e+00	0	55	0	149946368	51	5192
2026-01-10 01:34:45.12	321.32	20.29	-40.4	-43.2	14.6	0.00e+00	0	55	0	152043520	51	5265
2026-01-10 01:34:46.13	321.07	20.32	-40.4	-43.3	14.5	0.00e+00	0	55	0	154140672	51	5286
2026-01-10 01:34:47.14	320.82	20.34	-40.5	-43.5	14.3	7.00e-07	0	55	0	156237824	51	5436
2026-01-10 01:34:48.14	320.57	20.36	-40.5	-43.5	14.3	0.00e+00	0	55	0	157286400	51	5434
2026-01-10 01:34:49.15	320.32	20.38	-40.6	-43.7	14.1	7.00e-07	0	55	0	159383552	51	5538
2026-01-10 01:34:50.16	320.07	20.41	-40.6	-43.7	14.1	1.50e-06	0	55	0	161480704	52	5232
2026-01-10 01:34:51.16	319.82	20.43	-40.7	-43.8	14.0	7.00e-07	0	55	0	163577856	52	5304
2026-01-10 01:34:52.17	319.57	20.45	-40.7	-43.8	13.9	4.50e-06	0	55	0	165675008	52	5327
2026-01-10 01:34:53.18	319.32	20.47	-40.7	-43.9	13.8	4.50e-06	0	55	0	166723584	52	5377
2026-01-10 01:34:54.18	319.06	20.49	-40.7	-43.8	13.9	3.80e-06	0	55	0	168820736	52	5335
2026-01-10 01:34:55.19	318.81	20.51	-40.7	-43.9	13.9	2.20e-06	0	55	0	170917888	52	5341
2026-01-10 01:34:56.21	318.55	20.52	-40.8	-44.0	13.8	2.20e-06	0	55	0	173015040	52	5414
2026-01-10 01:34:57.21	318.30	20.54	-40.8	-44.0	13.7	6.10e-06	0	55	0	175112192	52	5436
2026-01-10 01:34:58.22	318.05	20.56	-40.9	-44.2	13.6	8.30e-06	0	55	0	176160768	52	5539
2026-01-10 01:34:59.23	317.79	20.58	-41.0	-44.4	13.4	1.60e-05	0	55	0	178257920	52	5675
2026-01-10 01:35:00.24	317.54	20.59	-41.0	-44.3	13.5	1.90e-05	0	55	0	180355072	52	5613
2026-01-10 01:35:01.25	317.28	20.61	-41.0	-44.3	13.4	1.75e-05	0	55	0	182452224	52	5636
2026-01-10 01:35:02.26	317.03	20.62	-41.0	-44.4	13.4	1.06e-05	0	55	0	184549376	52	5692
2026-01-10 01:35:03.27	316.77	20.64	-41.0	-44.4	13.3	2.36e-05	0	55	0	185597952	52	5708
2026-01-10 01:35:04.28	316.51	20.65	-41.1	-44.5	13.3	1.06e-05	0	55	0	187695104	52	5728
2026-01-10 01:35:05.29	316.26	20.66	-41.0	-44.4	13.3	1.52e-05	0	55	0	189792256	52	5664
2026-01-10 01:35:06.30	316.00	20.68	-41.0	-44.4	13.3	9.10e-06	0	55	0	191889408	52	5708
2026-01-10 01:35:07.30	315.75	20.69	-41.1	-44.5	13.2	1.83e-05	0	55	0	193986560	52	5784
2026-01-10 01:35:08.31	315.49	20.70	-41.2	-44.7	13.1	2.13e-05	0	55	0	196083712	52	5863
2026-01-10 01:35:09.32	315.23	20.71	-41.2	-44.7	13.0	3.89e-05	0	55	0	197132288	52	5895
2026-01-10 01:35:10.33	314.98	20.72	-41.2	-44.7	13.0	3.35e-05	0	55	0	199229440	53	5566
2026-01-10 01:35:11.33	314.72	20.73	-41.2	-44.7	13.0	3.73e-05	0	55	0	201326592	53	5542
2026-01-10 01:35:12.34	314.46	20.74	-41.1	-44.5	13.2	3.35e-05	0	55	0	203423744	53	5411
2026-01-10 01:35:13.34	314.21	20.74	-40.9	-44.2	13.5	1.29e-05	0	55	0	205520896	53	5245
2026-01-10 01:35:14.35	313.95	20.75	-40.9	-44.2	13.6	6.10e-06	0	55	0	206569472	53	5225
2026-01-10 01:35:15.35	313.69	20.76	-40.9	-44.3	13.5	9.90e-06	0	55	0	208666624	53	5289
2026-01-10 01:35:16.36	313.44	20.77	-41.0	-44.4	13.3	1.22e-05	0	56	0	210763776	53	5361
2026-01-10 01:35:17.37	313.18	20.77	-41.1	-44.5	13.2	1.75e-05	0	56	0	212860928	53	5444
2026-01-10 01:35:18.37	312.92	20.78	-41.1	-44.6	13.1	2.44e-05	0	56	0	213909504	53	5483
2026-01-10 01:35:19.38	312.66	20.78	-41.2	-44.7	13.0	3.35e-05	0	55	0	216006656	53	5590
2026-01-10 01:35:20.38	312.41	20.79	-41.2	-44.8	12.9	5.18e-05	0	56	0	218103808	53	5613
2026-01-10 01:35:21.39	312.15	20.79	-41.3	-44.8	13.0	5.26e-05	0	55	0	220200960	53	5620
2026-01-10 01:35:22.40	311.89	20.79	-41.2	-44.7	13.0	4.42e-05	0	55	0	222298112	53	5581
2026-01-10 01:35:23.40	311.63	20.79	-41.2	-44.7	13.0	3.73e-05	0	55	0	224395264	53	5559
2026-01-10 01:35:24.41	311.37	20.79	-41.2	-44.7	13.0	4.19e-05	0	55	0	225443840	53	5549
2026-01-10 01:35:25.42	311.12	20.80	-41.1	-44.6	13.2	3.05e-05	0	55	0	227540992	53	5471
2026-01-10 01:35:26.43	310.86	20.80	-41.1	-44.5	13.3	2.74e-05	0	55	0	229638144	53	5436
2026-01-10 01:35:27.44	310.60	20.80	-41.1	-44.5	13.3	1.37e-05	0	55	0	231735296	53	5409
2026-01-10 01:35:28.44	310.34	20.79	-41.0	-44.4	13.4	1.44e-05	0	55	0	233832448	53	5361
2026-01-10 01:35:29.45	310.08	20.79	-40.9	-44.2	13.5	1.22e-05	0	55	0	234881024	53	5273
2026-01-10 01:35:30.46	309.82	20.79	-40.9	-44.1	13.6	6.10e-06	0	56	0	236978176	53	5207
2026-01-10 01:35:31.47	309.57	20.79	-40.9	-44.1	13.7	8.30e-06	0	56	0	239075328	53	5173
2026-01-10 01:35:32.48	309.31	20.78	-40.9	-44.1	13.6	1.29e-05	0	55	0	241172480	53	5195
2026-01-10 01:35:33.49	309.05	20.78	-40.8	-44.0	13.7	6.10e-06	0	56	0	242221056	53	5156
2026-01-10 01:35:34.49	308.79	20.78	-40.8	-44.1	13.7	6.10e-06	0	56	0	244318208	53	5168
2026-01-10 01:35:35.50	308.53	20.77	-40.9	-44.1	13.7	3.00e-06	0	56	0	246415360	53	5171
2026-01-10 01:35:36.51	308.28	20.76	-40.8	-44.1	13.7	6.10e-06	0	56	0	248512512	53	5163
2026-01-10 01:35:37.51	308.02	20.76	-40.8	-43.9	13.8	6.80e-06	0	56	0	250609664	53	5098
2026-01-10 01:35:38.52	307.76	20.75	-40.8	-44.0	13.8	5.30e-06	0	55	0	252706816	53	5120
2026-01-10 01:35:39.53	307.50	20.74	-40.9	-44.1	13.6	6.80e-06	0	55	0	253755392	53	5187
2026-01-10 01:35:40.54	307.25	20.74	-40.9	-44.3	13.5	6.10e-06	0	56	0	255852544	53	5280
2026-01-10 01:35:41.54	306.99	20.73	-41.0	-44.3	13.4	1.52e-05	0	55	0	257949696	53	5338
2026-01-10 01:35:42.55	306.73	20.72	-40.8	-44.0	13.8	1.06e-05	0	56	0	260046848	53	5124
2026-01-10 01:35:43.56	306.48	20.71	-40.7	-43.7	14.0	6.80e-06	0	55	0	262144000	53	4976
2026-01-10 01:35:44.56	306.22	20.70	-40.6	-43.6	14.1	1.50e-06	0	55	0	263192576	53	4907
2026-01-10 01:35:45.56	305.97	20.68	-40.6	-43.6	14.1	2.20e-06	0	55	0	265289728	53	4901
2026-01-10 01:35:46.57	305.71	20.67	-40.5	-43.6	14.2	4.50e-06	0	56	0	267386880	53	4871
2026-01-10 01:35:47.58	305.45	20.66	-40.5	-43.5	14.2	7.00e-07	0	55	0	269484032	53	4843
2026-01-10 01:35:48.58	305.20	20.65	-40.4	-43.3	14.5	7.00e-07	0	55	0	270532608	52	4994
2026-01-10 01:35:49.59	304.94	20.63	-40.3	-43.1	14.7	7.00e-07	0	56	0	272629760	52	4903
2026-01-10 01:35:50.60	304.69	20.62	-40.2	-43.0	14.8	7.00e-07	0	56	0	274726912	52	4825
2026-01-10 01:35:51.60	304.43	20.60	-40.2	-42.9	14.8	0.00e+00	0	56	0	276824064	52	4806
2026-01-10 01:35:52.61	304.18	20.59	-40.1	-42.9	14.8	0.00e+00	0	55	0	278921216	52	4800
2026-01-10 01:35:53.62	303.92	20.57	-40.2	-42.9	14.8	0.00e+00	0	56	0	281018368	52	4811
2026-01-10 01:35:54.62	303.67	20.56	-40.2	-42.9	14.8	0.00e+00	0	56	0	282066944	52	4812
2026-01-10 01:35:55.63	303.41	20.54	-40.1	-42.9	14.8	7.00e-07	0	55	0	284164096	52	4794
2026-01-10 01:35:56.64	303.16	20.52	-40.2	-42.9	14.8	0.00e+00	0	55	0	286261248	52	4795
2026-01-10 01:35:57.65	302.91	20.50	-40.1	-42.8	14.9	7.00e-07	0	55	0	288358400	52	4746
2026-01-10 01:35:58.66	302.65	20.48	-40.1	-42.9	14.9	0.00e+00	0	56	0	290455552	52	4773
2026-01-10 01:35:59.67	302.40	20.46	-40.0	-42.8	15.0	0.00e+00	0	56	0	291504128	52	4716
2026-01-10 01:36:00.67	302.15	20.44	-40.0	-42.6	15.1	0.00e+00	0	56	0	293601280	52	4646
2026-01-10 01:36:01.68	301.89	20.42	-40.0	-42.7	15.2	0.00e+00	0	56	0	295698432	51	4949
2026-01-10 01:36:02.69	301.64	20.40	-40.0	-42.6	15.2	0.00e+00	0	55	0	297795584	51	4918
2026-01-10 01:36:03.70	301.39	20.38	-40.0	-42.6	15.2	0.00e+00	0	56	0	299892736	51	4918
2026-01-10 01:36:04.71	301.14	20.36	-39.9	-42.5	15.3	0.00e+00	0	56	0	300941312	51	4866
2026-01-10 01:36:05.72	300.89	20.34	-39.9	-42.4	15.4	0.00e+00	0	56	0	303038464	51	4788
2026-01-10 01:36:06.72	300.64	20.31	-39.8	-42.4	15.5	0.00e+00	0	55	0	305135616	51	4781
2026-01-10 01:36:07.73	300.39	20.29	-39.7	-42.2	15.6	0.00e+00	0	56	0	307232768	51	4672
2026-01-10 01:36:08.74	300.14	20.26	-39.6	-42.1	15.7	0.00e+00	0	56	0	309329920	51	4624
2026-01-10 01:36:09.75	299.89	20.24	-39.6	-42.0	15.8	0.00e+00	0	55	0	310378496	51	4592
2026-01-10 01:36:10.76	299.64	20.21	-39.5	-42.0	15.9	0.00e+00	0	56	0	312475648	51	4551
2026-01-10 01:36:11.76	299.39	20.19	-39.5	-41.9	15.9	0.00e+00	0	56	0	314572800	51	4516
2026-01-10 01:36:12.77	299.14	20.16	-39.5	-41.9	15.9	0.00e+00	0	55	0	316669952	51	4531
2026-01-10 01:36:13.78	298.89	20.13	-39.6	-42.1	15.7	0.00e+00	0	56	0	318767104	51	4614
2026-01-10 01:36:14.78	298.65	20.10	-39.7	-42.3	15.5	0.00e+00	0	56	0	319815680	51	4710
2026-01-10 01:36:15.79	298.40	20.08	-39.9	-42.4	15.4	7.00e-07	0	56	0	321912832	51	4799
2026-01-10 01:36:16.80	298.15	20.05	-39.9	-42.6	15.2	0.00e+00	0	56	0	324009984	51	4876
2026-01-10 01:36:17.80	297.91	20.02	-40.0	-42.6	15.2	0.00e+00	0	56	0	326107136	51	4888
2026-01-10 01:36:18.81	297.66	19.99	-39.9	-42.5	15.3	0.00e+00	0	56	0	328204288	51	4849
2026-01-10 01:36:19.82	297.42	19.96	-39.8	-42.4	15.4	0.00e+00	0	55	0	329252864	51	4769
2026-01-10 01:36:20.82	297.18	19.93	-39.7	-42.2	15.6	7.00e-07	0	56	0	331350016	51	4693
2026-01-10 01:36:21.83	296.93	19.90	-39.7	-42.2	15.6	7.00e-07	0	56	0	333447168	51	4670
2026-01-10 01:36:22.84	296.69	19.86	-39.7	-42.2	15.6	0.00e+00	0	56	0	335544320	51	4684
2026-01-10 01:36:23.84	296.45	19.83	-39.7	-42.2	15.6	0.00e+00	0	56	0	337641472	51	4675
2026-01-10 01:36:24.85	296.20	19.80	-39.8	-42.3	15.5	0.00e+00	0	55	0	338690048	51	4726
2026-01-10 01:36:25.86	295.96	19.76	-39.8	-42.3	15.5	0.00e+00	0	56	0	340787200	51	4719
2026-01-10 01:36:26.87	295.72	19.73	-39.9	-42.4	15.4	0.00e+00	0	56	0	342884352	51	4809
2026-01-10 01:36:27.88	295.48	19.70	-40.0	-42.7	15.1	0.00e+00	0	56	0	344981504	51	4938
2026-01-10 01:36:28.89	295.24	19.66	-40.1	-42.8	15.0	0.00e+00	0	56	0	347078656	51	4996
2026-01-10 01:36:29.90	295.00	19.63	-40.2	-43.0	14.8	0.00e+00	0	56	0	348127232	51	5105
2026-01-10 01:36:30.91	294.76	19.59	-40.2	-43.0	14.8	0.00e+00	0	56	0	350224384	51	5143
2026-01-10 01:36:31.92	294.52	19.55	-40.3	-43.2	14.6	0.00e+00	0	56	0	352321536	51	5243
2026-01-10 01:36:32.93	294.28	19.52	-40.4	-43.3	14.5	0.00e+00	0	56	0	354418688	51	5282
2026-01-10 01:36:33.94	294.04	19.48	-40.4	-43.3	14.4	0.00e+00	0	56	0	356515840	51	5329
2026-01-10 01:36:34.95	293.80	19.44	-40.5	-43.4	14.4	7.00e-07	0	55	0	357564416	51	5362
2026-01-10 01:36:35.96	293.57	19.40	-40.5	-43.5	14.3	7.00e-07	0	56	0	359661568	51	5408
2026-01-10 01:36:36.97	293.33	19.36	-40.4	-43.4	14.4	2.20e-06	0	56	0	361758720	51	5367
2026-01-10 01:36:37.98	293.09	19.33	-40.4	-43.3	14.4	7.00e-07	0	56	0	363855872	51	5338
2026-01-10 01:36:38.99	292.86	19.29	-40.3	-43.2	14.5	0.00e+00	0	56	0	365953024	51	5255
2026-01-10 01:36:40.00	292.63	19.25	-40.4	-43.3	14.4	7.00e-07	0	56	0	367001600	51	5332
2026-01-10 01:36:41.01	292.39	19.21	-40.5	-43.5	14.2	1.50e-06	0	56	0	369098752	51	5447
2026-01-10 01:36:42.01	292.16	19.17	-40.7	-43.7	14.0	0.00e+00	0	56	0	371195904	51	5592
2026-01-10 01:36:43.02	291.93	19.12	-40.7	-43.9	13.8	3.00e-06	0	56	0	373293056	52	5355
2026-01-10 01:36:44.03	291.70	19.08	-40.8	-44.1	13.6	6.10e-06	0	55	0	375390208	52	5480
2026-01-10 01:36:45.04	291.46	19.04	-40.7	-43.9	13.7	3.80e-06	0	56	0	376438784	52	5376
2026-01-10 01:36:46.04	291.24	19.00	-40.7	-43.8	13.8	4.50e-06	0	56	0	378535936	52	5313
2026-01-10 01:36:47.05	291.01	18.96	-40.6	-43.7	13.9	5.30e-06	0	56	0	380633088	52	5255
2026-01-10 01:36:48.06	290.78	18.91	-40.7	-43.8	13.9	5.30e-06	0	56	0	382730240	52	5320
2026-01-10 01:36:49.07	290.55	18.87	-40.6	-43.8	13.9	3.80e-06	0	56	0	384827392	52	5298
2026-01-10 01:36:50.08	290.32	18.82	-40.6	-43.8	13.9	3.00e-06	0	56	0	385875968	52	5297
2026-01-10 01:36:51.09	290.09	18.78	-40.7	-43.8	13.8	4.50e-06	0	56	0	387973120	52	5320
2026-01-10 01:36:52.09	289.87	18.74	-40.7	-43.9	13.8	4.50e-06	0	56	0	390070272	52	5362
2026-01-10 01:36:53.10	289.64	18.69	-40.8	-44.0	13.7	6.10e-06	0	56	0	392167424	52	5421
2026-01-10 01:36:54.10	289.42	18.64	-40.7	-43.9	13.8	4.50e-06	0	55	0	394264576	52	5341
2026-01-10 01:36:55.11	289.19	18.60	-40.7	-43.9	13.7	5.30e-06	0	56	0	395313152	52	5374
2026-01-10 01:36:56.12	288.97	18.55	-40.7	-44.0	13.7	3.00e-06	0	56	0	397410304	52	5413
2026-01-10 01:36:57.12	288.75	18.51	-40.7	-43.9	13.7	7.60e-06	0	56	0	399507456	52	5400
2026-01-10 01:36:58.13	288.53	18.46	-40.8	-44.0	13.6	3.00e-06	0	56	0	401604608	52	5459
2026-01-10 01:36:59.14	288.31	18.41	-40.8	-44.2	13.4	1.14e-05	0	56	0	403701760	52	5535
2026-01-10 01:37:00.15	288.08	18.36	-41.0	-44.4	13.2	2.21e-05	0	56	0	405798912	52	5705
2026-01-10 01:37:01.16	287.86	18.32	-41.1	-44.6	13.0	3.43e-05	0	56	0	406847488	52	5802
2026-01-10 01:37:02.17	287.64	18.27	-41.1	-44.6	13.0	5.03e-05	0	55	0	408944640	52	5799
2026-01-10 01:37:03.18	287.42	18.22	-41.0	-44.4	13.2	2.59e-05	0	56	0	411041792	52	5690
2026-01-10 01:37:04.19	287.21	18.17	-40.9	-44.2	13.4	1.14e-05	0	56	0	413138944	52	5573
2026-01-10 01:37:05.20	286.99	18.12	-40.8	-44.1	13.5	2.05e-05	0	56	0	415236096	52	5476
2026-01-10 01:37:06.21	286.77	18.07	-40.7	-43.9	13.7	9.10e-06	0	56	0	416284672	52	5343
2026-01-10 01:37:07.21	286.56	18.02	-40.6	-43.8	13.8	4.50e-06	0	56	0	418381824	52	5318
2026-01-10 01:37:08.22	286.34	17.97	-40.7	-43.9	13.6	6.10e-06	0	56	0	420478976	52	5376
2026-01-10 01:37:09.23	286.13	17.92	-40.8	-44.0	13.5	6.80e-06	0	56	0	422576128	52	5457
2026-01-10 01:37:10.24	285.91	17.87	-40.8	-44.1	13.4	1.22e-05	0	56	0	424673280	52	5521
2026-01-10 01:37:11.25	285.70	17.82	-40.9	-44.3	13.2	1.83e-05	0	56	0	425721856	52	5611
2026-01-10 01:37:12.26	285.49	17.76	-40.9	-44.3	13.3	2.67e-05	0	56	0	427819008	52	5598
2026-01-10 01:37:13.27	285.28	17.71	-41.0	-44.5	13.0	2.97e-05	0	56	0	429916160	52	5781
2026-01-10 01:37:14.28	285.06	17.66	-41.1	-44.6	12.9	6.02e-05	0	56	0	432013312	52	5854
2026-01-10 01:37:15.28	284.86	17.61	-41.2	-44.9	12.6	6.33e-05	0	56	0	434110464	52	6000
2026-01-10 01:37:16.29	284.65	17.56	-41.2	-45.1	12.5	1.02e-04	0	56	0	435159040	53	5802
2026-01-10 01:37:17.30	284.44	17.50	-41.3	-45.1	12.4	1.41e-04	0	56	0	437256192	53	5799
2026-01-10 01:37:18.30	284.23	17.45	-41.2	-45.0	12.5	1.50e-04	0	56	0	439353344	53	5746
2026-01-10 01:37:19.31	284.02	17.40	-41.1	-44.8	12.7	7.55e-05	0	56	0	441450496	53	5625
2026-01-10 01:37:20.31	283.82	17.34	-41.2	-44.9	12.6	8.62e-05	0	56	0	443547648	53	5660
2026-01-10 01:37:21.32	283.61	17.29	-41.2	-44.9	12.6	7.93e-05	0	56	0	444596224	53	5682
2026-01-10 01:37:22.33	283.41	17.23	-41.2	-44.9	12.5	9.61e-05	0	56	0	446693376	53	5719
2026-01-10 01:37:23.33	283.20	17.18	-41.2	-44.9	12.6	1.34e-04	0	56	0	448790528	53	5687
2026-01-10 01:37:24.34	283.00	17.12	-41.2	-45.0	12.4	1.13e-04	0	56	0	450887680	53	5759
2026-01-10 01:37:25.35	282.80	17.07	-41.2	-44.9	12.6	1.36e-04	0	56	0	452984832	53	5660
2026-01-10 01:37:26.35	282.60	17.01	-41.1	-44.7	12.8	6.48e-05	0	56	0	454033408	53	5533
2026-01-10 01:37:27.36	282.40	16.96	-41.0	-44.6	12.9	4.50e-05	0	56	0	456130560	53	5471
2026-01-10 01:37:28.37	282.20	16.90	-41.1	-44.8	12.7	5.34e-05	0	56	0	458227712	53	5594
2026-01-10 01:37:29.37	282.00	16.85	-41.0	-44.6	12.8	8.39e-05	0	56	0	460324864	53	5514
2026-01-10 01:37:30.38	281.80	16.79	-41.0	-44.5	12.9	4.50e-05	0	56	0	462422016	53	5436
2026-01-10 01:37:31.39	281.60	16.73	-40.9	-44.5	12.9	3.28e-05	0	55	0	463470592	53	5423
2026-01-10 01:37:32.39	281.40	16.68	-40.8	-44.2	13.3	2.74e-05	0	56	0	465567744	53	5229
2026-01-10 01:37:33.40	281.21	16.62	-40.7	-44.0	13.5	9.90e-06	0	56	0	467664896	53	5125
2026-01-10 01:37:34.40	281.01	16.56	-40.7	-44.0	13.4	1.22e-05	0	56	0	469762048	53	5137
2026-01-10 01:37:35.41	280.82	16.51	-40.8	-44.2	13.3	1.29e-05	0	56	0	471859200	53	5227
2026-01-10 01:37:36.42	280.62	16.45	-40.8	-44.2	13.2	2.05e-05	0	56	0	472907776	53	5248
2026-01-10 01:37:37.42	280.43	16.39	-40.9	-44.4	13.0	3.05e-05	0	56	0	475004928	53	5372
2026-01-10 01:37:38.43	280.24	16.33	-41.0	-44.6	12.9	4.27e-05	0	56	0	477102080	53	5469
2026-01-10 01:37:39.43	280.05	16.28	-41.0	-44.7	12.7	6.10e-05	0	56	0	479199232	53	5542
2026-01-10 01:37:40.44	279.85	16.22	-41.1	-44.8	12.6	9.30e-05	0	56	0	481296384	53	5605
2026-01-10 01:37:41.45	279.66	16.16	-41.1	-44.8	12.5	1.13e-04	0	56	0	482344960	53	5642
2026-01-10 01:37:42.45	279.47	16.10	-41.1	-44.8	12.5	1.20e-04	0	56	0	484442112	53	5644
2026-01-10 01:37:43.46	279.28	16.04	-41.1	-44.9	12.5	9.46e-05	0	56	0	486539264	53	5657
2026-01-10 01:37:44.46	279.10	15.98	-41.0	-44.6	12.8	8.01e-05	0	56	0	488636416	53	5483
2026-01-10 01:37:45.47	278.91	15.93	-40.9	-44.4	13.0	6.56e-05	0	56	0	490733568	53	5361
2026-01-10 01:37:46.48	278.72	15.87	-40.8	-44.3	13.1	1.98e-05	0	56	0	491782144	53	5310
2026-01-10 01:37:47.48	278.54	15.81	-40.8	-44.2	13.1	2.89e-05	0	56	0	493879296	53	5256
2026-01-10 01:37:48.49	278.35	15.75	-40.9	-44.4	13.0	3.12e-05	0	56	0	495976448	53	5347
2026-01-10 01:37:49.50	278.17	15.69	-40.9	-44.4	13.0	3.66e-05	0	56	0	498073600	53	5342
2026-01-10 01:37:50.51	277.98	15.63	-41.0	-44.6	12.8	5.64e-05	0	56	0	500170752	53	5480
2026-01-10 01:37:51.52	277.80	15.57	-41.1	-44.7	12.6	8.46e-05	0	56	0	501219328	53	5591
2026-01-10 01:37:52.53	277.62	15.51	-41.2	-45.0	12.3	1.50e-04	0	56	0	503316480	53	5730
2026-01-10 01:37:53.54	277.43	15.45	-41.3	-45.2	12.1	2.70e-04	0	56	0	505413632	53	5880
2026-01-10 01:37:54.55	277.25	15.39	-41.3	-45.2	12.1	2.70e-04	0	56	0	507510784	53	5886
2026-01-10 01:37:55.56	277.07	15.32	-41.3	-45.2	12.1	2.46e-04	0	56	0	509607936	53	5862
2026-01-10 01:37:56.57	276.89	15.26	-41.3	-45.2	12.1	2.85e-04	0	56	0	510656512	53	5886
2026-01-10 01:37:57.57	276.71	15.20	-41.3	-45.2	12.1	2.81e-04	0	56	0	512753664	53	5871
2026-01-10 01:37:58.58	276.54	15.14	-41.3	-45.3	12.0	3.33e-04	0	56	0	514850816	53	5954
2026-01-10 01:37:59.59	276.36	15.08	-41.4	-45.5	11.8	4.05e-04	0	56	0	516947968	53	6090
2026-01-10 01:38:00.59	276.18	15.02	-41.4	-45.4	11.9	3.87e-04	0	56	0	519045120	53	6018
2026-01-10 01:38:01.60	276.01	14.96	-41.4	-45.4	11.8	4.07e-04	0	56	0	520093696	53	6047
2026-01-10 01:38:02.61	275.83	14.90	-41.4	-45.5	11.8	5.15e-04	0	56	0	522190848	53	6064
2026-01-10 01:38:03.61	275.66	14.84	-41.4	-45.6	11.7	6.16e-04	0	56	0	524288000	53	6152
2026-01-10 01:38:04.62	275.48	14.77	-41.4	-45.6	11.6	5.99e-04	0	56	0	526385152	53	6153
2026-01-10 01:38:05.63	275.31	14.71	-41.5	-45.6	11.6	6.26e-04	0	56	0	528482304	53	6182
2026-01-10 01:38:06.63	275.14	14.65	-41.4	-45.5	11.7	5.90e-04	0	56	0	529530880	53	6105
2026-01-10 01:38:07.64	274.97	14.59	-41.4	-45.5	11.8	5.38e-04	0	56	0	531628032	53	6080
2026-01-10 01:38:08.65	274.80	14.53	-41.4	-45.5	11.7	6.10e-04	0	56	0	533725184	53	6119
2026-01-10 01:38:09.66	274.63	14.46	-41.3	-45.4	11.8	5.23e-04	0	56	0	535822336	53	6026
2026-01-10 01:38:10.67	274.46	14.40	-41.3	-45.3	11.9	5.07e-04	0	56	0	537919488	53	5978
2026-01-10 01:38:11.67	274.29	14.34	-41.3	-45.3	12.0	3.12e-04	0	56	0	538968064	53	5924
2026-01-10 01:38:12.68	274.12	14.28	-41.3	-45.3	11.9	3.43e-04	0	56	0	541065216	53	5965
2026-01-10 01:38:13.68	273.96	14.21	-41.4	-45.5	11.8	4.43e-04	0	56	0	543162368	53	6076
2026-01-10 01:38:14.69	273.79	14.15	-41.4	-45.6	11.6	6.50e-04	0	56	0	545259520	53	6143
2026-01-10 01:38:15.70	273.62	14.09	-41.4	-45.5	11.7	6.77e-04	0	56	0	547356672	53	6103
2026-01-10 01:38:16.70	273.46	14.03	-41.4	-45.5	11.7	5.79e-04	0	56	0	548405248	53	6125
2026-01-10 01:38:17.71	273.29	13.96	-41.3	-45.4	11.8	4.88e-04	0	56	0	550502400	53	6037
2026-01-10 01:38:18.72	273.13	13.90	-41.3	-45.4	11.8	4.66e-04	0	56	0	552599552	53	6028
2026-01-10 01:38:19.72	272.97	13.84	-41.3	-45.2	12.0	3.83e-04	0	56	0	554696704	53	5908
2026-01-10 01:38:20.73	272.81	13.77	-41.2	-45.1	12.1	3.28e-04	0	56	0	556793856	53	5830
2026-01-10 01:38:21.74	272.64	13.71	-41.1	-44.9	12.3	2.30e-04	0	56	0	557842432	53	5698
2026-01-10 01:38:22.74	272.48	13.65	-41.1	-44.8	12.4	1.67e-04	0	56	0	559939584	53	5645
2026-01-10 01:38:23.75	272.32	13.58	-41.0	-44.8	12.4	1.26e-04	0	56	0	562036736	53	5600
2026-01-10 01:38:24.76	272.16	13.52	-41.0	-44.7	12.5	1.26e-04	0	56	0	564133888	53	5564
2026-01-10 01:38:25.77	272.00	13.46	-40.9	-44.6	12.7	9.84e-05	0	56	0	566231040	53	5471
2026-01-10 01:38:26.78	271.85	13.39	-40.8	-44.5	12.7	8.31e-05	0	56	0	567279616	53	5424
2026-01-10 01:38:27.78	271.69	13.33	-40.9	-44.5	12.7	7.32e-05	0	56	0	569376768	53	5447
2026-01-10 01:38:28.79	271.53	13.27	-40.9	-44.5	12.7	8.92e-05	0	56	0	571473920	53	5436
2026-01-10 01:38:29.79	271.38	13.20	-40.9	-44.6	12.6	1.03e-04	0	56	0	573571072	53	5492
2026-01-10 01:38:30.80	271.22	13.14	-40.8	-44.5	12.7	9.00e-05	0	56	0	575668224	53	5412
2026-01-10 01:38:31.80	271.07	13.08	-40.8	-44.5	12.7	8.08e-05	0	56	0	576716800	53	5408
2026-01-10 01:38:32.81	270.91	13.01	-40.8	-44.5	12.6	8.46e-05	0	56	0	578813952	53	5433
2026-01-10 01:38:33.82	270.76	12.95	-40.8	-44.5	12.6	8.16e-05	0	56	0	580911104	53	5430
2026-01-10 01:38:34.83	270.61	12.89	-40.8	-44.4	12.7	1.04e-04	0	56	0	583008256	53	5385
2026-01-10 01:38:35.84	270.46	12.82	-40.7	-44.3	12.8	5.11e-05	0	56	0	585105408	53	5299
2026-01-10 01:38:36.85	270.30	12.76	-40.7	-44.2	13.0	4.80e-05	0	56	0	586153984	53	5249
2026-01-10 01:38:37.86	270.15	12.69	-40.6	-44.1	13.0	3.81e-05	0	56	0	588251136	53	5209
2026-01-10 01:38:38.87	270.00	12.63	-40.6	-44.0	13.0	3.81e-05	0	56	0	590348288	53	5158
2026-01-10 01:38:39.88	269.85	12.57	-40.5	-43.9	13.2	1.60e-05	0	56	0	592445440	53	5073
2026-01-10 01:38:40.88	269.70	12.50	-40.5	-43.8	13.3	2.44e-05	0	56	0	594542592	52	5331
2026-01-10 01:38:41.89	269.56	12.44	-40.4	-43.8	13.3	1.67e-05	0	56	0	595591168	52	5321
2026-01-10 01:38:42.90	269.41	12.37	-40.4	-43.8	13.3	1.22e-05	0	56	0	597688320	52	5287
2026-01-10 01:38:43.91	269.26	12.31	-40.4	-43.8	13.3	1.44e-05	0	56	0	599785472	52	5323
2026-01-10 01:38:44.92	269.12	12.25	-40.5	-43.9	13.2	1.90e-05	0	56	0	601882624	52	5365
2026-01-10 01:38:45.93	268.97	12.18	-40.5	-44.0	13.1	2.51e-05	0	56	0	603979776	52	5404
2026-01-10 01:38:46.94	268.82	12.12	-40.5	-43.9	13.1	3.35e-05	0	56	0	605028352	52	5379
2026-01-10 01:38:47.95	268.68	12.05	-40.5	-44.0	13.0	4.11e-05	0	56	0	607125504	52	5435
2026-01-10 01:38:48.95	268.54	11.99	-40.5	-44.1	13.0	4.04e-05	0	56	0	609222656	52	5468
2026-01-10 01:38:49.97	268.39	11.92	-40.4	-43.8	13.2	2.67e-05	0	56	0	611319808	52	5324
2026-01-10 01:38:50.97	268.25	11.86	-40.4	-43.7	13.3	3.35e-05	0	56	0	613416960	52	5270
2026-01-10 01:38:51.98	268.11	11.80	-40.4	-43.8	13.3	3.05e-05	0	56	0	615514112	52	5303
2026-01-10 01:38:52.99	267.97	11.73	-40.5	-44.0	13.1	2.67e-05	0	56	0	616562688	52	5404
2026-01-10 01:38:54.00	267.83	11.67	-40.5	-44.0	13.1	2.36e-05	0	56	0	618659840	52	5410
2026-01-10 01:38:55.01	267.69	11.60	-40.5	-43.9	13.1	3.50e-05	0	56	0	620756992	52	5396
2026-01-10 01:38:56.01	267.55	11.54	-40.4	-43.8	13.2	2.67e-05	0	56	0	622854144	52	5287
2026-01-10 01:38:57.02	267.41	11.48	-40.4	-43.7	13.3	1.90e-05	0	56	0	623902720	52	5261
2026-01-10 01:38:58.03	267.27	11.41	-40.4	-43.7	13.3	2.21e-05	0	56	0	625999872	52	5271
2026-01-10 01:38:59.04	267.13	11.35	-40.3	-43.7	13.3	2.82e-05	0	56	0	628097024	52	5224
2026-01-10 01:39:00.05	267.00	11.28	-40.3	-43.7	13.3	2.36e-05	0	56	0	630194176	52	5267
2026-01-10 01:39:01.05	266.86	11.22	-40.4	-43.7	13.2	1.22e-05	0	56	0	632291328	52	5272
2026-01-10 01:39:02.06	266.73	11.16	-40.4	-43.8	13.2	1.29e-05	0	56	0	633339904	52	5318
2026-01-10 01:39:03.07	266.59	11.09	-40.4	-43.9	13.1	2.59e-05	0	56	0	635437056	52	5363
2026-01-10 01:39:04.07	266.46	11.03	-40.5	-44.0	13.0	3.66e-05	0	56	0	637534208	52	5413
2026-01-10 01:39:05.08	266.32	10.96	-40.3	-43.8	13.2	3.12e-05	0	56	0	639631360	52	5294
2026-01-10 01:39:06.09	266.19	10.90	-40.2	-43.5	13.4	1.90e-05	0	56	0	641728512	52	5154
2026-01-10 01:39:07.09	266.06	10.84	-40.2	-43.5	13.4	1.67e-05	0	56	0	643825664	52	5157
2026-01-10 01:39:08.10	265.93	10.77	-40.2	-43.6	13.3	1.60e-05	0	56	0	644874240	52	5179
2026-01-10 01:39:09.11	265.79	10.71	-40.2	-43.6	13.3	1.83e-05	0	56	0	646971392	52	5174
2026-01-10 01:39:10.11	265.66	10.64	-40.2	-43.5	13.3	2.13e-05	0	56	0	649068544	52	5141
2026-01-10 01:39:11.11	265.54	10.58	-40.2	-43.7	13.2	2.51e-05	0	56	0	651165696	52	5227
2026-01-10 01:39:12.12	265.41	10.52	-40.3	-43.8	13.1	3.05e-05	0	56	0	652214272	52	5304
2026-01-10 01:39:13.13	265.28	10.45	-40.3	-43.7	13.1	2.74e-05	0	56	0	654311424	52	5267
2026-01-10 01:39:14.13	265.15	10.39	-40.3	-43.8	12.9	4.50e-05	0	56	0	656408576	52	5340
2026-01-10 01:39:15.14	265.02	10.33	-40.3	-43.9	12.8	5.18e-05	0	56	0	658505728	52	5386
2026-01-10 01:39:16.15	264.89	10.26	-40.4	-44.0	12.7	4.65e-05	0	56	0	660602880	52	5449
2026-01-10 01:39:17.16	264.77	10.20	-40.4	-44.2	12.6	6.63e-05	0	56	0	662700032	52	5531
2026-01-10 01:39:18.17	264.64	10.13	-40.4	-44.1	12.7	9.30e-05	0	56	0	663748608	52	5472
2026-01-10 01:39:19.18	264.51	10.07	-40.4	-44.1	12.7	9.23e-05	0	56	0	665845760	52	5469
2026-01-10 01:39:20.19	264.39	10.01	-40.5	-44.2	12.6	7.32e-05	0	56	0	667942912	52	5552
2026-01-10 01:39:21.20	264.26	9.94	-40.4	-44.2	12.6	9.99e-05	0	56	0	670040064	52	5542
2026-01-10 01:39:22.20	264.14	9.88	-40.5	-44.3	12.5	1.30e-04	0	56	0	672137216	52	5595
2026-01-10 01:39:23.21	264.02	9.82	-40.4	-44.1	12.6	9.76e-05	0	56	0	673185792	52	5504
2026-01-10 01:39:24.22	263.89	9.75	-40.4	-44.1	12.6	9.91e-05	0	56	0	675282944	52	5490
2026-01-10 01:39:25.23	263.77	9.69	-40.4	-44.0	12.7	9.53e-05	0	56	0	677380096	52	5448
2026-01-10 01:39:26.24	263.65	9.63	-40.5	-44.2	12.5	1.22e-04	0	56	0	679477248	52	5564
2026-01-10 01:39:27.24	263.53	9.56	-40.4	-44.2	12.5	1.11e-04	0	56	0	681574400	52	5541
2026-01-10 01:39:28.25	263.41	9.50	-40.4	-44.1	12.6	1.02e-04	0	56	0	682622976	52	5475
2026-01-10 01:39:29.26	263.29	9.44	-40.4	-44.2	12.6	8.01e-05	0	56	0	684720128	52	5532
2026-01-10 01:39:30.27	263.17	9.37	-40.5	-44.1	12.6	8.92e-05	0	56	0	686817280	52	5525
2026-01-10 01:39:31.27	263.05	9.31	-40.4	-44.0	12.8	6.33e-05	0	56	0	688914432	52	5413
2026-01-10 01:39:32.28	262.93	9.25	-40.4	-44.0	12.7	4.73e-05	0	56	0	691011584	52	5446
2026-01-10 01:39:33.29	262.81	9.18	-40.4	-44.1	12.6	6.94e-05	0	56	0	692060160	52	5496
2026-01-10 01:39:34.30	262.69	9.12	-40.5	-44.2	12.6	9.23e-05	0	56	0	694157312	52	5552
2026-01-10 01:39:35.31	262.57	9.06	-40.5	-44.3	12.5	1.27e-04	0	56	0	696254464	52	5597
2026-01-10 01:39:36.31	262.46	8.99	-40.6	-44.5	12.3	1.84e-04	0	56	0	698351616	52	5757
2026-01-10 01:39:37.32	262.34	8.93	-40.7	-44.6	12.1	2.21e-04	0	56	0	700448768	52	5829
2026-01-10 01:39:38.33	262.23	8.87	-40.7	-44.6	12.1	3.26e-04	0	56	0	701497344	52	5827
2026-01-10 01:39:39.34	262.11	8.80	-40.6	-44.5	12.2	1.96e-04	0	56	0	703594496	52	5734
2026-01-10 01:39:40.35	262.00	8.74	-40.6	-44.6	12.1	1.98e-04	0	56	0	705691648	52	5794
2026-01-10 01:39:41.36	261.88	8.68	-40.8	-44.9	11.8	4.61e-04	0	56	0	707788800	52	6023
2026-01-10 01:39:42.36	261.77	8.62	-40.9	-45.1	11.6	5.77e-04	0	56	0	709885952	52	6156
2026-01-10 01:39:43.37	261.66	8.55	-40.9	-45.1	11.5	8.39e-04	0	56	0	710934528	52	6176
2026-01-10 01:39:44.38	261.54	8.49	-40.9	-45.2	11.5	8.67e-04	0	56	0	713031680	52	6254
2026-01-10 01:39:45.38	261.43	8.43	-41.0	-45.4	11.3	1.08e-03	0	56	0	715128832	52	6366
2026-01-10 01:39:46.39	261.32	8.37	-41.0	-45.4	11.3	1.27e-03	0	56	0	717225984	52	6372
2026-01-10 01:39:47.40	261.21	8.30	-40.9	-45.0	11.7	7.26e-04	0	56	0	719323136	52	6099
2026-01-10 01:39:48.41	261.10	8.24	-40.9	-45.2	11.5	7.51e-04	0	56	0	720371712	52	6218
2026-01-10 01:39:49.42	260.99	8.18	-41.0	-45.2	11.5	8.44e-04	0	56	0	722468864	52	6253
2026-01-10 01:39:50.42	260.88	8.12	-41.1	-45.4	11.2	9.85e-04	0	56	0	724566016	52	6401
2026-01-10 01:39:51.43	260.77	8.05	-41.1	-45.4	11.3	1.07e-03	0	56	0	726663168	52	6369
2026-01-10 01:39:52.44	260.66	7.99	-41.8	-47.2	9.8	1.49e-03	0	56	0	728760320	54	6996
2026-01-10 01:39:53.45	260.55	7.93	-44.1	-58.6	3.8	1.48e+00	0	56	104	728760320	58	20591
2026-01-10 01:39:54.46	260.44	7.87	-44.4	-58.9	3.8	1.49e+00	0	56	104	728760320	59	20205
2026-01-10 01:39:55.47	260.34	7.80	-44.6	-59.1	3.8	1.49e+00	0	56	104	728760320	59	20692
2026-01-10 01:39:56.48	260.23	7.74	-44.7	-59.4	3.8	1.49e+00	0	56	104	728760320	60	20132
2026-01-10 01:39:57.48	260.12	7.68	-44.7	-59.4	3.8	1.49e+00	0	56	104	728760320	60	20288
2026-01-10 01:39:58.49	260.02	7.62	-44.8	-59.5	3.8	1.49e+00	0	56	104	728760320	60	20528
2026-01-10 01:39:59.50	259.91	7.56	-44.9	-59.6	3.8	1.49e+00	0	56	104	728760320	60	20661
2026-01-10 01:40:00.51	259.81	7.50	-44.9	-59.6	3.8	1.49e+00	0	56	104	728760320	60	20742
2026-01-10 01:40:01.52	259.70	7.43	-44.9	-59.6	3.8	1.49e+00	0	56	104	728760320	60	20655
2026-01-10 01:40:02.53	259.60	7.37	-44.9	-59.6	3.8	1.49e+00	0	56	104	728760320	60	20673
2026-01-10 01:40:03.54	259.49	7.31	-44.9	-59.6	3.8	1.49e+00	0	56	104	728760320	60	20702
2026-01-10 01:40:04.55	259.39	7.25	-44.9	-59.6	3.8	1.49e+00	0	56	104	728760320	60	20687
2026-01-10 01:40:05.55	259.29	7.19	-44.9	-59.6	3.8	1.49e+00	0	56	104	728760320	60	20680
2026-01-10 01:40:06.56	259.19	7.13	-44.9	-59.6	3.8	1.49e+00	0	56	104	728760320	60	20651
2026-01-10 01:40:07.57	259.08	7.06	-44.9	-59.7	3.8	1.49e+00	0	56	104	728760320	60	20785
2026-01-10 01:40:08.58	258.98	7.00	-44.9	-59.6	3.8	1.49e+00	0	56	104	728760320	60	20743
2026-01-10 01:40:09.59	258.88	6.94	-44.9	-59.6	3.8	1.49e+00	0	56	104	728760320	60	20743
2026-01-10 01:40:10.60	258.78	6.88	-44.8	-59.7	3.8	1.49e+00	0	56	104	728760320	60	20781
2026-01-10 01:40:11.61	258.68	6.82	-44.9	-59.6	3.8	1.49e+00	0	56	104	728760320	60	20752
2026-01-10 01:40:12.62	258.58	6.76	-44.8	-59.6	3.8	1.49e+00	0	56	104	728760320	60	20706
2026-01-10 01:40:13.62	258.48	6.70	-44.8	-59.6	3.8	1.49e+00	0	56	104	728760320	60	20709
2026-01-10 01:40:14.63	258.38	6.64	-44.9	-59.7	3.8	1.49e+00	0	56	104	728760320	60	20783
2026-01-10 01:40:15.63	258.28	6.58	-44.9	-59.6	3.8	1.49e+00	0	56	104	728760320	60	20728
2026-01-10 01:40:16.64	258.19	6.51	-44.8	-59.6	3.8	1.49e+00	0	56	104	728760320	60	20715
2026-01-10 01:40:17.65	258.09	6.45	-44.8	-59.6	3.8	1.49e+00	0	56	104	728760320	60	20748
2026-01-10 01:40:18.66	257.99	6.39	-44.8	-59.6	3.8	1.49e+00	0	56	104	728760320	60	20691
2026-01-10 01:40:19.67	257.89	6.33	-44.8	-59.6	3.8	1.49e+00	0	56	104	728760320	60	20757
2026-01-10 01:40:20.68	257.80	6.27	-44.8	-59.6	3.8	1.49e+00	0	56	104	728760320	60	20690
2026-01-10 01:40:21.69	257.70	6.21	-44.8	-59.6	3.8	1.49e+00	0	56	104	728760320	60	20688
2026-01-10 01:40:22.70	257.60	6.15	-44.8	-59.6	3.8	1.49e+00	0	56	104	728760320	60	20738
2026-01-10 01:40:23.71	257.51	6.09	-44.8	-59.6	3.8	1.49e+00	0	56	104	728760320	60	20726
2026-01-10 01:40:24.72	257.41	6.03	-44.8	-59.6	3.8	1.49e+00	0	56	104	728760320	60	20675
2026-01-10 01:40:25.73	257.32	5.97	-44.8	-59.6	3.8	1.49e+00	0	56	104	728760320	60	20726
2026-01-10 01:40:26.74	257.23	5.91	-44.8	-59.6	3.8	1.49e+00	0	56	104	728760320	60	20699
2026-01-10 01:40:27.74	257.13	5.85	-44.8	-59.6	3.8	1.49e+00	0	56	104	728760320	60	20749
2026-01-10 01:40:28.76	257.04	5.79	-44.8	-59.6	3.8	1.49e+00	0	56	104	728760320	60	20700
2026-01-10 01:40:29.76	256.95	5.73	-44.8	-59.6	3.8	1.49e+00	0	56	104	728760320	60	20725
2026-01-10 01:40:30.77	256.85	5.67	-44.8	-59.6	3.8	1.49e+00	0	56	104	728760320	60	20633
2026-01-10 01:40:31.78	256.76	5.61	-44.8	-59.6	3.8	1.49e+00	0	56	104	728760320	60	20696
2026-01-10 01:40:32.79	256.67	5.55	-44.8	-59.6	3.8	1.49e+00	0	56	104	728760320	60	20682
2026-01-10 01:40:33.80	256.58	5.49	-44.8	-59.6	3.8	1.49e+00	0	56	104	728760320	60	20636
2026-01-10 01:40:34.80	256.49	5.43	-44.8	-59.6	3.8	1.49e+00	0	56	104	728760320	60	20571
2026-01-10 01:40:35.81	256.40	5.37	-44.8	-59.6	3.8	1.49e+00	0	56	104	728760320	60	20637
2026-01-10 01:40:36.82	256.31	5.31	-44.8	-59.6	3.8	1.49e+00	0	56	104	728760320	60	20597
2026-01-10 01:40:37.83	256.22	5.25	-44.8	-59.6	3.8	1.49e+00	0	56	104	728760320	60	20654
2026-01-10 01:40:38.84	256.13	5.19	-44.8	-59.6	3.8	1.49e+00	0	56	104	728760320	60	20620
2026-01-10 01:40:39.85	256.04	5.13	-44.8	-59.6	3.8	1.49e+00	0	56	104	728760320	60	20585
2026-01-10 01:40:40.85	255.95	5.07	-44.8	-59.6	3.8	1.49e+00	0	56	104	728760320	60	20610
2026-01-10 01:40:41.86	255.86	5.02	-44.8	-59.6	3.8	1.49e+00	0	56	104	728760320	60	20652
2026-01-10 01:40:42.86	255.78	4.96	-44.8	-59.6	3.8	1.49e+00	0	56	104	728760320	60	20576
2026-01-10 01:40:43.87	255.69	4.90	-44.8	-59.6	3.8	1.49e+00	0	56	104	728760320	60	20627
2026-01-10 01:40:44.88	255.60	4.84	-44.8	-59.6	3.8	1.49e+00	0	56	104	728760320	60	20593
2026-01-10 01:40:45.89	255.51	4.78	-44.8	-59.6	3.8	1.49e+00	0	56	104	728760320	60	20642
2026-01-10 01:40:46.90	255.43	4.72	-44.8	-59.6	3.8	1.49e+00	0	56	104	728760320	60	20614
2026-01-10 01:40:47.91	255.34	4.66	-44.8	-59.6	3.8	1.49e+00	0	56	104	728760320	60	20597
2026-01-10 01:40:48.92	255.25	4.60	-44.8	-59.6	3.8	1.49e+00	0	56	104	728760320	60	20628
2026-01-10 01:40:49.92	255.17	4.55	-44.8	-59.6	3.8	1.49e+00	0	56	104	728760320	60	20573
2026-01-10 01:40:50.93	255.08	4.49	-44.8	-59.6	3.8	1.49e+00	0	56	104	728760320	60	20623
2026-01-10 01:40:51.94	255.00	4.43	-44.8	-59.6	3.8	1.49e+00	0	56	104	728760320	60	20627
2026-01-10 01:40:52.95	254.92	4.37	-44.8	-59.6	3.8	1.49e+00	0	56	104	728760320	60	20633
2026-01-10 01:40:53.96	254.83	4.31	-44.8	-59.6	3.8	1.49e+00	0	56	104	728760320	60	20645
2026-01-10 01:40:54.96	254.75	4.25	-44.8	-59.6	3.8	1.49e+00	0	56	104	728760320	60	20641
2026-01-10 01:40:55.97	254.66	4.20	-44.8	-59.6	3.8	1.49e+00	0	56	104	728760320	60	20553
2026-01-10 01:40:56.98	254.58	4.14	-44.8	-59.6	3.8	1.49e+00	0	56	104	728760320	60	20591
2026-01-10 01:40:57.99	254.50	4.08	-44.8	-59.6	3.8	1.49e+00	0	56	104	728760320	60	20626
2026-01-10 01:40:59.00	254.42	4.02	-44.8	-59.6	3.8	1.49e+00	0	56	104	728760320	60	20611
2026-01-10 01:41:00.01	254.33	3.96	-44.8	-59.6	3.8	1.49e+00	0	56	104	728760320	60	20594
2026-01-10 01:41:01.02	254.25	3.91	-44.8	-59.6	3.8	1.49e+00	0	56	104	728760320	60	20580
2026-01-10 01:41:02.02	254.17	3.85	-44.8	-59.6	3.8	1.49e+00	0	56	104	728760320	60	20669
2026-01-10 01:41:03.03	254.09	3.79	-44.8	-59.6	3.8	1.49e+00	0	56	104	728760320	60	20580
2026-01-10 01:41:04.04	254.01	3.73	-44.8	-59.6	3.8	1.49e+00	0	56	104	728760320	60	20628
2026-01-10 01:41:05.05	253.93	3.67	-44.8	-59.6	3.8	1.49e+00	0	56	104	728760320	60	20595
2026-01-10 01:41:06.06	253.85	3.62	-44.8	-59.6	3.8	1.49e+00	0	56	104	728760320	60	20604
