passes_logs/2026/01/10/R2.0S_Moscow/R2.0S_Moscow__20260110_235122_AQUA_rec.log

#Pass ID: 20260110_235122_AQUA
#Satellite: AQUA
#Configuration: AQUA
#almurnet v.1.7.20251203
#Start time: 2026-01-10 23:51:24

#Version: 2.2.20231116
#Station: R2.0S_Moscow
#Location: 37.707566 lon 55.798166 lat
#TLE: 1 27424U 02022A   26009.89520876  .00001045  00000+0  21914-3 0  9996
#TLE: 2 27424  98.4076 336.2372 0002032  84.5955   1.0356 14.61811442260144

#Time	Az	El	Level	Level2	SNR	BER	BlckErr	Temp	State	Recorded	gain1	gain2
2026-01-10 23:51:24.02	27.94	2.08	-42.5	-62.7	3.8	7.45e-01	0	48	0	0	56	37160
2026-01-10 23:51:25.02	28.03	2.14	-42.3	-62.6	3.8	7.45e-01	0	48	104	0	55	39000
2026-01-10 23:51:26.04	28.11	2.19	-42.4	-62.6	3.8	7.45e-01	0	48	104	0	55	39001
2026-01-10 23:51:27.05	28.20	2.25	-42.3	-62.6	3.8	7.47e-01	0	48	104	0	55	38938
2026-01-10 23:51:28.06	28.29	2.31	-42.4	-62.6	3.8	7.45e-01	0	48	104	0	55	38921
2026-01-10 23:51:29.07	28.38	2.36	-42.4	-62.6	3.8	7.44e-01	0	48	104	0	55	38962
2026-01-10 23:51:30.08	28.46	2.42	-42.4	-62.6	3.8	7.47e-01	0	48	104	0	55	38916
2026-01-10 23:51:31.09	28.55	2.47	-42.4	-62.6	3.8	7.43e-01	0	49	104	0	55	38919
2026-01-10 23:51:32.10	28.64	2.53	-42.4	-62.6	3.8	7.42e-01	0	49	104	0	55	38898
2026-01-10 23:51:33.11	28.73	2.59	-42.4	-62.6	3.8	7.47e-01	0	49	104	0	55	38840
2026-01-10 23:51:34.13	28.82	2.64	-42.4	-62.6	3.8	7.44e-01	0	49	104	0	55	39009
2026-01-10 23:51:35.14	28.91	2.70	-42.4	-62.6	3.8	7.43e-01	0	49	104	0	55	38947
2026-01-10 23:51:36.15	29.00	2.75	-42.4	-62.6	3.8	7.47e-01	0	49	104	0	55	38926
2026-01-10 23:51:37.16	29.09	2.81	-42.4	-62.6	3.8	7.45e-01	0	49	104	0	55	38899
2026-01-10 23:51:38.17	29.18	2.87	-42.4	-62.6	3.8	7.43e-01	0	49	104	0	55	38969
2026-01-10 23:51:39.18	29.27	2.92	-42.4	-62.6	3.8	7.48e-01	0	49	104	0	55	38858
2026-01-10 23:51:40.19	29.36	2.98	-42.4	-62.6	3.8	7.46e-01	0	49	104	0	55	38997
2026-01-10 23:51:41.20	29.46	3.04	-42.4	-62.6	3.8	7.46e-01	0	49	104	0	55	38938
2026-01-10 23:51:42.21	29.55	3.09	-42.4	-62.6	3.8	7.48e-01	0	49	104	0	55	38945
2026-01-10 23:51:43.23	29.64	3.15	-42.4	-62.6	3.8	7.46e-01	0	50	104	0	55	38909
2026-01-10 23:51:44.24	29.73	3.21	-42.4	-62.6	3.8	7.44e-01	0	49	104	0	55	38931
2026-01-10 23:51:45.25	29.83	3.27	-42.4	-62.6	3.8	7.47e-01	0	49	104	0	55	38883
2026-01-10 23:51:46.26	29.92	3.32	-42.4	-62.6	3.8	7.44e-01	0	50	104	0	55	38889
2026-01-10 23:51:47.27	30.02	3.38	-42.4	-62.6	3.8	7.42e-01	0	50	104	0	55	38843
2026-01-10 23:51:48.28	30.11	3.44	-42.4	-62.6	3.8	7.45e-01	0	50	104	0	55	38858
2026-01-10 23:51:49.29	30.21	3.50	-42.4	-62.6	3.8	7.46e-01	0	50	104	0	55	38901
2026-01-10 23:51:50.30	30.30	3.55	-42.4	-62.6	3.8	7.45e-01	0	50	104	0	55	38988
2026-01-10 23:51:51.31	30.40	3.61	-42.4	-62.6	3.8	7.44e-01	0	50	104	0	55	38888
2026-01-10 23:51:52.32	30.49	3.67	-42.4	-62.6	3.8	7.44e-01	0	50	104	0	55	38916
2026-01-10 23:51:53.34	30.59	3.73	-42.4	-62.6	3.8	7.47e-01	0	50	104	0	55	38866
2026-01-10 23:51:54.35	30.69	3.78	-42.4	-62.6	3.8	7.47e-01	0	50	104	0	55	38867
2026-01-10 23:51:55.36	30.78	3.84	-42.4	-62.6	3.8	7.46e-01	0	50	104	0	55	38922
2026-01-10 23:51:56.37	30.88	3.90	-42.4	-62.6	3.8	7.45e-01	0	50	104	0	55	38836
2026-01-10 23:51:57.38	30.98	3.96	-42.4	-62.6	3.8	7.46e-01	0	50	104	0	55	38789
2026-01-10 23:51:58.39	31.08	4.02	-42.4	-62.6	3.8	7.43e-01	0	50	104	0	55	38833
2026-01-10 23:51:59.40	31.18	4.07	-42.4	-62.6	3.8	7.45e-01	0	50	104	0	55	38866
2026-01-10 23:52:00.41	31.28	4.13	-42.4	-62.6	3.8	7.44e-01	0	50	104	0	55	38907
2026-01-10 23:52:01.43	31.38	4.19	-42.4	-62.6	3.8	7.45e-01	0	50	104	0	55	38893
2026-01-10 23:52:02.43	31.48	4.25	-42.4	-62.6	3.8	7.43e-01	0	50	104	0	55	38861
2026-01-10 23:52:03.45	31.58	4.31	-42.4	-62.6	3.8	7.46e-01	0	50	104	0	55	38781
2026-01-10 23:52:04.46	31.68	4.37	-42.4	-62.6	3.8	7.45e-01	0	51	104	0	55	38815
2026-01-10 23:52:05.47	31.78	4.42	-42.4	-62.6	3.8	7.46e-01	0	51	104	0	55	38787
2026-01-10 23:52:06.48	31.88	4.48	-42.4	-62.6	3.8	7.46e-01	0	51	104	0	55	38871
2026-01-10 23:52:07.49	31.99	4.54	-42.4	-62.6	3.8	7.43e-01	0	51	104	0	55	38806
2026-01-10 23:52:08.50	32.09	4.60	-42.4	-62.6	3.8	7.44e-01	0	51	104	0	55	38753
2026-01-10 23:52:09.51	32.19	4.66	-42.4	-62.6	3.8	7.47e-01	0	51	104	0	55	38755
2026-01-10 23:52:10.52	32.30	4.72	-42.4	-62.6	3.8	7.47e-01	0	51	104	0	55	38770
2026-01-10 23:52:11.53	32.40	4.78	-42.4	-62.6	3.8	7.45e-01	0	51	104	0	55	38859
2026-01-10 23:52:12.55	32.50	4.84	-42.4	-62.6	3.8	7.47e-01	0	51	104	0	55	38814
2026-01-10 23:52:13.56	32.61	4.90	-42.4	-62.6	3.8	7.45e-01	0	51	104	0	55	38781
2026-01-10 23:52:14.57	32.72	4.96	-42.4	-62.6	3.8	7.42e-01	0	51	104	0	55	38822
2026-01-10 23:52:15.58	32.82	5.01	-42.4	-62.6	3.8	7.44e-01	0	51	104	0	55	38817
2026-01-10 23:52:16.59	32.93	5.07	-42.4	-62.6	3.8	7.44e-01	0	51	104	0	55	38739
2026-01-10 23:52:17.60	33.03	5.13	-42.4	-62.6	3.8	7.46e-01	0	51	104	0	55	38791
2026-01-10 23:52:18.61	33.14	5.19	-42.4	-62.6	3.8	7.43e-01	0	51	104	0	55	38759
2026-01-10 23:52:19.62	33.25	5.25	-42.4	-62.6	3.8	7.45e-01	0	51	104	0	55	38812
2026-01-10 23:52:20.63	33.36	5.31	-42.4	-62.6	3.8	7.47e-01	0	51	104	0	55	38746
2026-01-10 23:52:21.65	33.47	5.37	-42.4	-62.6	3.8	7.43e-01	0	51	104	0	55	38828
2026-01-10 23:52:22.66	33.58	5.43	-42.4	-62.6	3.8	7.43e-01	0	51	104	0	55	38883
2026-01-10 23:52:23.67	33.69	5.49	-42.4	-62.6	3.8	7.44e-01	0	51	104	0	55	38733
2026-01-10 23:52:24.68	33.80	5.55	-42.4	-62.6	3.8	7.45e-01	0	51	104	0	55	38823
2026-01-10 23:52:25.69	33.91	5.61	-42.4	-62.6	3.8	7.44e-01	0	52	104	0	55	38827
2026-01-10 23:52:26.70	34.02	5.67	-42.3	-62.6	3.8	7.43e-01	0	52	104	0	55	38826
2026-01-10 23:52:27.71	34.13	5.73	-42.4	-62.6	3.8	7.46e-01	0	52	104	0	55	38826
2026-01-10 23:52:28.72	34.24	5.79	-42.4	-62.6	3.8	7.40e-01	0	52	104	0	55	38826
2026-01-10 23:52:29.73	34.35	5.85	-42.4	-62.6	3.8	7.48e-01	0	52	104	0	55	38761
2026-01-10 23:52:30.74	34.47	5.91	-42.4	-62.6	3.8	7.48e-01	0	52	104	0	55	38764
2026-01-10 23:52:31.76	34.58	5.97	-42.4	-62.6	3.8	7.45e-01	0	52	104	0	55	38765
2026-01-10 23:52:32.77	34.69	6.04	-42.4	-62.5	3.8	7.43e-01	0	52	104	0	55	38667
2026-01-10 23:52:33.78	34.81	6.10	-42.4	-62.6	3.8	7.45e-01	0	52	104	0	55	38711
2026-01-10 23:52:34.79	34.92	6.16	-42.4	-62.6	3.8	7.42e-01	0	52	104	0	55	38810
2026-01-10 23:52:35.80	35.04	6.22	-42.4	-62.6	3.8	7.47e-01	0	52	104	0	55	38806
2026-01-10 23:52:36.81	35.15	6.28	-42.4	-62.6	3.8	7.44e-01	0	52	104	0	55	38742
2026-01-10 23:52:37.82	35.27	6.34	-42.4	-62.5	3.8	7.47e-01	0	52	104	0	55	38679
2026-01-10 23:52:38.83	35.39	6.40	-42.4	-62.6	3.8	7.44e-01	0	52	104	0	55	38689
2026-01-10 23:52:39.84	35.50	6.46	-42.4	-62.6	3.8	7.44e-01	0	52	104	0	55	38714
2026-01-10 23:52:40.85	35.62	6.52	-42.4	-62.6	3.8	7.48e-01	0	52	104	0	55	38700
2026-01-10 23:52:41.87	35.74	6.58	-42.4	-62.5	3.8	7.44e-01	0	52	104	0	55	38687
2026-01-10 23:52:42.87	35.86	6.64	-42.4	-62.6	3.8	7.46e-01	0	52	104	0	55	38775
2026-01-10 23:52:43.89	35.98	6.71	-42.3	-62.5	3.8	7.43e-01	0	52	104	0	55	38625
2026-01-10 23:52:44.90	36.10	6.77	-42.4	-62.6	3.8	7.43e-01	0	52	104	0	55	38693
2026-01-10 23:52:45.91	36.22	6.83	-42.3	-62.5	3.8	7.42e-01	0	52	104	0	55	38453
2026-01-10 23:52:46.92	36.34	6.89	-42.4	-62.4	3.8	7.45e-01	0	52	104	0	55	38101
2026-01-10 23:52:47.93	36.46	6.95	-42.3	-62.5	3.8	7.49e-01	0	53	104	0	55	38529
2026-01-10 23:52:48.94	36.59	7.01	-42.4	-62.5	3.8	7.42e-01	0	52	104	0	55	38640
2026-01-10 23:52:49.95	36.71	7.08	-42.4	-62.3	3.8	7.45e-01	0	53	104	0	55	37720
2026-01-10 23:52:50.97	36.83	7.14	-42.4	-62.3	3.8	7.44e-01	0	53	104	0	55	37647
2026-01-10 23:52:51.97	36.96	7.20	-42.3	-61.9	3.8	7.45e-01	0	53	104	0	55	35782
2026-01-10 23:52:52.98	37.08	7.26	-42.4	-61.2	3.8	7.43e-01	0	52	104	0	55	32950
2026-01-10 23:52:53.99	37.20	7.32	-42.4	-61.2	3.8	7.45e-01	0	53	104	0	55	32973
2026-01-10 23:52:55.01	37.33	7.39	-42.3	-60.2	3.9	7.43e-01	0	53	104	0	55	29608
2026-01-10 23:52:56.02	37.46	7.45	-42.4	-60.9	3.8	7.47e-01	0	53	104	0	55	31865
2026-01-10 23:52:57.03	37.58	7.51	-42.4	-60.9	3.8	7.44e-01	0	53	104	0	55	31969
2026-01-10 23:52:58.04	37.71	7.57	-42.3	-61.1	3.8	7.43e-01	0	53	104	0	55	32887
2026-01-10 23:52:59.05	37.84	7.63	-42.3	-60.3	3.9	7.40e-01	0	53	104	0	55	29821
2026-01-10 23:53:00.06	37.97	7.70	-42.2	-56.4	5.3	7.00e-01	0	53	0	0	55	19151
2026-01-10 23:53:01.07	38.10	7.76	-42.0	-53.5	7.8	6.52e-01	91	53	0	1048576	55	13579
2026-01-10 23:53:02.08	38.23	7.82	-41.6	-49.9	11.3	6.11e-01	0	53	0	2621440	55	9067
2026-01-10 23:53:03.09	38.36	7.88	-41.0	-47.3	14.1	6.02e-01	0	53	0	4718592	54	7114
2026-01-10 23:53:04.10	38.49	7.95	-40.7	-46.5	15.0	6.04e-01	0	53	0	6815744	53	6812
2026-01-10 23:53:05.11	38.62	8.01	-40.8	-46.8	14.7	6.05e-01	0	53	0	8388608	53	7104
2026-01-10 23:53:06.12	38.75	8.07	-41.2	-47.1	14.6	6.04e-01	0	53	0	10485760	53	7361
2026-01-10 23:53:07.13	38.88	8.13	-43.3	-54.5	6.6	6.67e-01	92	53	0	12582912	57	13607
2026-01-10 23:53:08.14	39.02	8.20	-40.6	-47.2	14.1	6.03e-01	0	53	0	14155776	53	7410
2026-01-10 23:53:09.15	39.15	8.26	-41.4	-57.4	4.2	7.27e-01	0	53	104	15204352	53	24127
2026-01-10 23:53:10.16	39.28	8.32	-41.3	-45.9	16.2	6.01e-01	0	53	0	16777216	53	6367
2026-01-10 23:53:11.17	39.42	8.39	-40.8	-44.9	17.1	6.04e-01	0	53	0	18350080	53	5707
2026-01-10 23:53:12.18	39.55	8.45	-40.6	-44.5	17.6	6.03e-01	0	53	0	20447232	53	5433
2026-01-10 23:53:13.19	39.69	8.51	-40.6	-44.5	17.6	6.03e-01	0	53	0	22020096	53	5451
2026-01-10 23:53:14.20	39.83	8.58	-40.4	-44.0	18.2	6.03e-01	0	53	0	24117248	52	5421
2026-01-10 23:53:15.21	39.96	8.64	-40.5	-44.2	18.0	6.04e-01	0	53	0	25690112	52	5538
2026-01-10 23:53:16.22	40.10	8.70	-40.6	-44.2	18.1	6.04e-01	0	53	0	27787264	52	5557
2026-01-10 23:53:17.23	40.24	8.76	-40.8	-44.6	17.7	6.01e-01	0	53	0	29884416	52	5799
2026-01-10 23:53:18.24	40.38	8.83	-40.8	-44.5	17.9	6.02e-01	0	54	0	31457280	52	5754
2026-01-10 23:53:19.25	40.52	8.89	-41.0	-44.8	17.6	6.04e-01	0	53	0	33554432	52	5983
2026-01-10 23:53:20.26	40.66	8.95	-40.9	-44.6	17.8	6.03e-01	0	53	0	35127296	52	5838
2026-01-10 23:53:21.27	40.80	9.02	-41.1	-44.9	17.6	6.03e-01	0	53	0	37224448	52	6025
2026-01-10 23:53:22.28	40.94	9.08	-41.0	-44.8	17.6	6.03e-01	0	54	0	39321600	52	5951
2026-01-10 23:53:23.29	41.08	9.14	-41.0	-44.8	17.6	6.03e-01	0	53	0	40894464	52	5980
2026-01-10 23:53:24.30	41.23	9.21	-41.0	-44.9	17.6	6.03e-01	0	53	0	42991616	52	6019
2026-01-10 23:53:25.31	41.37	9.27	-41.0	-44.9	17.5	6.03e-01	0	54	0	45088768	52	6026
2026-01-10 23:53:26.32	41.52	9.34	-40.9	-44.7	17.8	6.05e-01	0	53	0	46661632	52	5894
2026-01-10 23:53:27.32	41.66	9.40	-41.0	-44.8	17.8	6.03e-01	0	54	0	48758784	52	5931
2026-01-10 23:53:28.33	41.80	9.46	-40.8	-44.4	18.1	6.03e-01	0	54	0	50331648	52	5712
2026-01-10 23:53:29.34	41.95	9.53	-40.8	-44.5	17.9	6.03e-01	0	54	0	52428800	52	5779
2026-01-10 23:53:30.35	42.10	9.59	-40.9	-44.6	18.0	6.04e-01	0	54	0	54525952	52	5843
2026-01-10 23:53:31.36	42.25	9.65	-40.9	-44.7	17.9	6.01e-01	0	53	0	56098816	52	5864
2026-01-10 23:53:32.37	42.39	9.72	-40.9	-44.7	17.9	6.02e-01	0	54	0	58195968	52	5879
2026-01-10 23:53:33.38	42.54	9.78	-40.8	-44.4	18.1	6.05e-01	0	54	0	59768832	52	5695
2026-01-10 23:53:34.39	42.69	9.84	-40.5	-43.9	18.6	6.02e-01	0	54	0	61865984	52	5401
2026-01-10 23:53:35.40	42.84	9.91	-40.5	-43.8	18.8	6.03e-01	0	54	0	63963136	52	5320
2026-01-10 23:53:36.41	42.99	9.97	-40.4	-43.7	18.9	6.02e-01	0	54	0	65536000	52	5247
2026-01-10 23:53:37.42	43.15	10.04	-40.6	-43.9	18.8	6.02e-01	0	54	0	67633152	52	5354
2026-01-10 23:53:38.43	43.30	10.10	-40.6	-43.8	18.9	6.02e-01	0	54	0	69730304	52	5319
2026-01-10 23:53:39.44	43.45	10.16	-40.7	-44.0	18.7	6.05e-01	0	54	0	71303168	52	5446
2026-01-10 23:53:40.45	43.61	10.23	-40.6	-43.8	19.0	6.04e-01	0	54	0	73400320	52	5290
2026-01-10 23:53:41.46	43.76	10.29	-40.5	-43.6	19.2	6.06e-01	0	54	0	74973184	52	5204
2026-01-10 23:53:42.47	43.92	10.35	-40.5	-43.7	19.1	6.03e-01	0	54	0	77070336	52	5235
2026-01-10 23:53:43.48	44.07	10.42	-40.6	-43.7	19.0	6.03e-01	0	54	0	79167488	52	5278
2026-01-10 23:53:44.49	44.23	10.48	-40.4	-43.4	19.3	6.04e-01	0	54	0	80740352	52	5088
2026-01-10 23:53:45.50	44.39	10.55	-40.6	-43.7	19.1	6.03e-01	0	54	0	82837504	52	5274
2026-01-10 23:53:46.51	44.54	10.61	-40.6	-43.7	19.1	6.02e-01	0	54	0	84410368	52	5261
2026-01-10 23:53:47.52	44.70	10.67	-40.7	-43.9	19.0	6.01e-01	0	54	0	86507520	52	5354
2026-01-10 23:53:48.53	44.86	10.74	-40.6	-43.7	19.1	6.01e-01	0	54	0	88604672	52	5274
2026-01-10 23:53:49.54	45.02	10.80	-40.6	-43.7	19.2	6.04e-01	0	54	0	90177536	52	5242
2026-01-10 23:53:50.55	45.18	10.87	-40.5	-43.6	19.2	6.05e-01	0	54	0	92274688	52	5197
2026-01-10 23:53:51.56	45.35	10.93	-40.6	-43.7	19.3	6.03e-01	0	54	0	93847552	52	5240
2026-01-10 23:53:52.57	45.51	10.99	-40.6	-43.8	19.1	6.01e-01	0	54	0	95944704	52	5295
2026-01-10 23:53:53.58	45.67	11.06	-40.6	-43.6	19.2	6.04e-01	0	54	0	98041856	52	5217
2026-01-10 23:53:54.59	45.84	11.12	-40.5	-43.5	19.4	6.04e-01	0	54	0	99614720	52	5152
2026-01-10 23:53:55.60	46.00	11.19	-40.4	-43.4	19.5	6.03e-01	0	54	0	101711872	52	5092
2026-01-10 23:53:56.61	46.17	11.25	-40.4	-43.3	19.6	6.04e-01	0	54	0	103284736	52	5021
2026-01-10 23:53:57.62	46.33	11.31	-40.4	-43.3	19.6	6.04e-01	0	54	0	105381888	52	5033
2026-01-10 23:53:58.63	46.50	11.38	-40.4	-43.4	19.5	6.02e-01	0	54	0	107479040	52	5071
2026-01-10 23:53:59.64	46.67	11.44	-40.4	-43.4	19.5	6.04e-01	0	54	0	109051904	52	5088
2026-01-10 23:54:00.64	46.84	11.50	-40.5	-43.5	19.5	6.03e-01	0	54	0	111149056	52	5117
2026-01-10 23:54:01.65	47.01	11.57	-40.5	-43.5	19.6	6.03e-01	0	54	0	113246208	52	5104
2026-01-10 23:54:02.66	47.18	11.63	-40.5	-43.4	19.5	6.03e-01	0	54	0	114819072	52	5092
2026-01-10 23:54:03.67	47.35	11.70	-40.5	-43.5	19.5	6.02e-01	0	54	0	116916224	52	5109
2026-01-10 23:54:04.68	47.52	11.76	-40.6	-43.6	19.3	6.04e-01	0	54	0	118489088	52	5211
2026-01-10 23:54:05.69	47.69	11.82	-40.5	-43.5	19.5	6.03e-01	0	54	0	120586240	52	5124
2026-01-10 23:54:06.70	47.86	11.89	-40.6	-43.6	19.4	6.02e-01	0	54	0	122683392	52	5195
2026-01-10 23:54:07.71	48.04	11.95	-40.4	-43.3	19.7	6.02e-01	0	54	0	124256256	52	4999
2026-01-10 23:54:08.72	48.21	12.01	-40.4	-43.2	19.8	6.02e-01	0	55	0	126353408	52	4976
2026-01-10 23:54:09.73	48.39	12.08	-40.4	-43.3	19.7	6.05e-01	0	55	0	127926272	52	4985
2026-01-10 23:54:10.74	48.57	12.14	-40.3	-43.2	19.8	6.04e-01	0	54	0	130023424	52	4953
2026-01-10 23:54:11.75	48.74	12.20	-40.4	-43.2	19.8	6.03e-01	0	54	0	132120576	52	4968
2026-01-10 23:54:12.76	48.92	12.27	-40.3	-43.1	19.9	6.03e-01	0	55	0	133693440	52	4874
2026-01-10 23:54:13.76	49.10	12.33	-40.4	-43.2	19.5	6.03e-01	0	54	0	135790592	52	4977
2026-01-10 23:54:14.77	49.28	12.39	-40.3	-43.2	19.8	6.01e-01	0	55	0	137887744	52	4941
2026-01-10 23:54:15.78	49.46	12.46	-40.3	-43.2	19.8	6.01e-01	0	55	0	139460608	52	4946
2026-01-10 23:54:16.79	49.64	12.52	-40.3	-43.1	19.9	6.03e-01	0	55	0	141557760	52	4912
2026-01-10 23:54:17.81	49.82	12.58	-40.3	-43.2	19.8	6.04e-01	0	55	0	143130624	52	4953
2026-01-10 23:54:18.82	50.01	12.65	-40.4	-43.2	19.7	6.03e-01	0	54	0	145227776	52	4980
2026-01-10 23:54:19.83	50.19	12.71	-40.3	-43.2	19.8	6.04e-01	0	54	0	147324928	52	4946
2026-01-10 23:54:20.84	50.38	12.77	-40.3	-43.1	19.9	6.03e-01	0	54	0	148897792	52	4906
2026-01-10 23:54:21.84	50.56	12.84	-40.4	-43.2	19.8	6.05e-01	0	55	0	150994944	52	4979
2026-01-10 23:54:22.86	50.75	12.90	-40.3	-43.1	19.8	6.04e-01	0	54	0	152567808	52	4924
2026-01-10 23:54:23.86	50.93	12.96	-40.3	-43.2	19.9	6.02e-01	0	55	0	154664960	52	4933
2026-01-10 23:54:24.88	51.12	13.02	-40.3	-43.1	20.0	6.03e-01	0	55	0	156762112	52	4882
2026-01-10 23:54:25.89	51.31	13.09	-40.3	-43.0	20.0	6.03e-01	0	54	0	158334976	52	4868
2026-01-10 23:54:26.90	51.50	13.15	-40.3	-43.0	20.0	6.04e-01	0	55	0	160432128	52	4848
2026-01-10 23:54:27.91	51.69	13.21	-40.3	-43.1	20.0	6.01e-01	0	55	0	162004992	52	4895
2026-01-10 23:54:28.91	51.88	13.27	-40.3	-43.1	20.0	6.06e-01	0	55	0	164102144	52	4905
2026-01-10 23:54:29.92	52.07	13.33	-40.3	-43.1	19.9	6.02e-01	0	55	0	166199296	52	4902
2026-01-10 23:54:30.93	52.27	13.40	-40.3	-43.0	20.1	6.03e-01	0	55	0	167772160	52	4867
2026-01-10 23:54:31.94	52.46	13.46	-40.3	-43.0	20.1	6.02e-01	0	55	0	169869312	52	4830
2026-01-10 23:54:32.95	52.66	13.52	-40.3	-43.0	20.1	6.03e-01	0	55	0	171442176	52	4863
2026-01-10 23:54:33.96	52.85	13.58	-40.3	-43.0	20.1	6.03e-01	0	55	0	173539328	52	4821
2026-01-10 23:54:34.97	53.05	13.64	-40.2	-42.9	20.2	6.05e-01	0	55	0	175636480	52	4762
2026-01-10 23:54:35.98	53.25	13.70	-40.3	-43.0	20.1	6.01e-01	0	55	0	177209344	52	4815
2026-01-10 23:54:36.99	53.44	13.77	-40.2	-42.9	20.2	6.04e-01	0	55	0	179306496	52	4811
2026-01-10 23:54:38.00	53.64	13.83	-40.1	-42.8	20.3	6.04e-01	0	55	0	181403648	52	4731
2026-01-10 23:54:39.01	53.84	13.89	-40.1	-42.8	20.3	6.03e-01	0	55	0	182976512	52	4714
2026-01-10 23:54:40.02	54.04	13.95	-40.2	-42.8	20.3	6.04e-01	0	55	0	185073664	52	4746
2026-01-10 23:54:41.03	54.24	14.01	-40.1	-42.8	20.4	6.02e-01	0	55	0	186646528	52	4711
2026-01-10 23:54:42.04	54.45	14.07	-40.1	-42.8	20.3	6.03e-01	0	55	0	188743680	52	4712
2026-01-10 23:54:43.04	54.65	14.13	-40.1	-42.8	20.4	6.05e-01	0	55	0	190840832	52	4723
2026-01-10 23:54:44.05	54.85	14.19	-40.2	-42.8	20.3	6.02e-01	0	55	0	192413696	52	4744
2026-01-10 23:54:45.06	55.06	14.25	-40.1	-42.8	20.4	6.02e-01	0	55	0	194510848	52	4728
2026-01-10 23:54:46.07	55.26	14.31	-40.1	-42.7	20.4	6.03e-01	0	55	0	196083712	52	4672
2026-01-10 23:54:47.08	55.47	14.37	-40.0	-42.6	20.5	6.01e-01	0	55	0	198180864	52	4638
2026-01-10 23:54:48.09	55.68	14.43	-40.1	-42.7	20.5	6.05e-01	0	55	0	200278016	52	4663
2026-01-10 23:54:49.10	55.89	14.49	-40.1	-42.7	20.4	6.04e-01	0	55	0	201850880	52	4685
2026-01-10 23:54:50.11	56.10	14.55	-40.1	-42.7	20.4	6.03e-01	0	55	0	203948032	52	4702
2026-01-10 23:54:51.12	56.31	14.61	-40.1	-42.8	20.3	6.02e-01	0	55	0	206045184	52	4731
2026-01-10 23:54:52.13	56.52	14.67	-40.1	-42.7	20.4	6.03e-01	0	55	0	207618048	52	4675
2026-01-10 23:54:53.14	56.73	14.73	-40.1	-42.6	20.5	6.04e-01	0	55	0	209715200	52	4644
2026-01-10 23:54:54.15	56.94	14.79	-40.1	-42.7	20.4	6.02e-01	0	55	0	211288064	52	4688
2026-01-10 23:54:55.16	57.16	14.84	-40.2	-42.8	20.3	6.02e-01	0	55	0	213385216	52	4722
2026-01-10 23:54:56.17	57.37	14.90	-40.2	-42.8	20.4	6.04e-01	0	55	0	215482368	52	4726
2026-01-10 23:54:57.18	57.59	14.96	-40.1	-42.7	20.4	6.01e-01	0	55	0	217055232	52	4679
2026-01-10 23:54:58.18	57.80	15.02	-40.1	-42.8	20.4	6.04e-01	0	55	0	219152384	52	4719
2026-01-10 23:54:59.20	58.02	15.08	-40.1	-42.7	20.4	6.04e-01	0	55	0	220725248	52	4700
2026-01-10 23:55:00.21	58.24	15.13	-40.1	-42.7	20.5	6.03e-01	0	55	0	222822400	52	4660
2026-01-10 23:55:01.22	58.46	15.19	-40.1	-42.7	20.4	6.03e-01	0	55	0	224919552	52	4690
2026-01-10 23:55:02.23	58.68	15.25	-40.1	-42.7	20.5	6.03e-01	0	55	0	226492416	52	4678
2026-01-10 23:55:03.24	58.90	15.30	-40.2	-42.8	20.4	6.03e-01	0	55	0	228589568	52	4734
2026-01-10 23:55:04.25	59.12	15.36	-40.1	-42.7	20.4	6.04e-01	0	55	0	230162432	52	4684
2026-01-10 23:55:05.26	59.34	15.42	-40.1	-42.7	20.4	6.01e-01	0	55	0	232259584	52	4673
2026-01-10 23:55:06.26	59.57	15.47	-40.1	-42.6	20.5	6.02e-01	0	55	0	234356736	52	4645
2026-01-10 23:55:07.28	59.79	15.53	-40.1	-42.7	20.5	6.06e-01	0	55	0	235929600	52	4677
2026-01-10 23:55:08.28	60.02	15.58	-40.1	-42.8	20.4	6.05e-01	0	55	0	238026752	52	4719
2026-01-10 23:55:09.29	60.24	15.64	-40.1	-42.7	20.4	6.03e-01	0	55	0	239599616	52	4672
2026-01-10 23:55:10.30	60.47	15.69	-40.0	-42.6	20.5	6.05e-01	0	55	0	241696768	52	4622
2026-01-10 23:55:11.31	60.70	15.75	-40.0	-42.6	20.5	6.02e-01	0	55	0	243793920	52	4640
2026-01-10 23:55:12.32	60.93	15.80	-40.0	-42.6	20.5	6.03e-01	0	55	0	245366784	52	4644
2026-01-10 23:55:13.33	61.16	15.86	-40.0	-42.6	20.5	6.05e-01	0	55	0	247463936	52	4638
2026-01-10 23:55:14.34	61.39	15.91	-40.0	-42.6	20.5	6.02e-01	0	55	0	249561088	52	4619
2026-01-10 23:55:15.35	61.62	15.96	-40.0	-42.6	20.5	6.03e-01	0	55	0	251133952	52	4635
2026-01-10 23:55:16.36	61.85	16.02	-40.1	-42.7	20.5	6.02e-01	0	55	0	253231104	52	4672
2026-01-10 23:55:17.37	62.08	16.07	-40.0	-42.6	20.6	6.00e-01	0	55	0	254803968	51	4883
2026-01-10 23:55:18.37	62.32	16.12	-40.0	-42.6	20.6	6.04e-01	0	55	0	256901120	51	4889
2026-01-10 23:55:19.38	62.55	16.17	-40.0	-42.6	20.6	6.03e-01	0	55	0	258998272	51	4897
2026-01-10 23:55:20.39	62.79	16.23	-40.1	-42.6	20.5	6.03e-01	0	55	0	260571136	51	4915
2026-01-10 23:55:21.40	63.02	16.28	-40.1	-42.7	20.5	6.05e-01	0	55	0	262668288	51	4951
2026-01-10 23:55:22.41	63.26	16.33	-40.1	-42.7	20.4	6.03e-01	0	55	0	264241152	51	4957
2026-01-10 23:55:23.42	63.50	16.38	-40.0	-42.6	20.5	6.03e-01	0	55	0	266338304	51	4896
2026-01-10 23:55:24.43	63.74	16.43	-40.1	-42.7	20.4	6.04e-01	0	55	0	268435456	51	4929
2026-01-10 23:55:25.44	63.98	16.48	-40.1	-42.6	20.5	6.03e-01	0	55	0	270008320	51	4920
2026-01-10 23:55:26.45	64.22	16.53	-40.1	-42.8	20.3	6.02e-01	0	55	0	272105472	51	4993
2026-01-10 23:55:27.46	64.46	16.58	-40.1	-42.7	20.4	6.03e-01	0	55	0	273678336	51	4958
2026-01-10 23:55:28.47	64.70	16.63	-40.1	-42.7	20.3	6.03e-01	0	55	0	275775488	51	4977
2026-01-10 23:55:29.48	64.95	16.68	-40.1	-42.7	20.4	6.03e-01	0	55	0	277872640	51	4940
2026-01-10 23:55:30.49	65.19	16.73	-40.0	-42.6	20.4	6.00e-01	0	55	0	279445504	51	4911
2026-01-10 23:55:31.50	65.43	16.78	-40.0	-42.6	20.4	6.02e-01	0	55	0	281542656	51	4917
2026-01-10 23:55:32.51	65.68	16.82	-40.1	-42.8	20.2	6.03e-01	0	55	0	283115520	51	5024
2026-01-10 23:55:33.52	65.93	16.87	-40.1	-42.8	20.1	6.03e-01	0	55	0	285212672	51	5020
2026-01-10 23:55:34.53	66.18	16.92	-40.1	-42.8	20.1	6.03e-01	0	55	0	287309824	51	4984
2026-01-10 23:55:35.54	66.42	16.97	-40.1	-42.9	20.0	6.04e-01	0	55	0	288882688	51	5056
2026-01-10 23:55:36.55	66.67	17.01	-40.2	-43.0	19.9	6.01e-01	0	55	0	290979840	51	5106
2026-01-10 23:55:37.56	66.92	17.06	-40.3	-43.2	19.6	6.04e-01	0	55	0	292552704	51	5230
2026-01-10 23:55:38.57	67.17	17.10	-40.3	-43.2	19.4	6.02e-01	0	55	0	294649856	51	5276
2026-01-10 23:55:39.58	67.42	17.15	-40.1	-43.0	19.6	6.02e-01	0	55	0	296747008	51	5157
2026-01-10 23:55:40.59	67.68	17.19	-40.2	-43.2	19.4	6.03e-01	0	56	0	298319872	51	5231
2026-01-10 23:55:41.60	67.93	17.24	-40.3	-43.4	19.0	6.04e-01	0	55	0	300417024	51	5381
2026-01-10 23:55:42.61	68.18	17.28	-40.3	-43.4	18.9	6.02e-01	0	56	0	302514176	51	5384
2026-01-10 23:55:43.62	68.44	17.33	-40.2	-43.3	18.9	6.03e-01	0	55	0	304087040	51	5321
2026-01-10 23:55:44.63	68.69	17.37	-40.3	-43.6	18.4	6.02e-01	0	56	0	306184192	51	5523
2026-01-10 23:55:45.64	68.95	17.41	-40.4	-43.9	18.0	6.02e-01	0	55	0	307757056	51	5697
2026-01-10 23:55:46.65	69.21	17.45	-40.4	-44.1	17.7	6.04e-01	0	56	0	309854208	51	5838
2026-01-10 23:55:47.66	69.46	17.50	-40.4	-44.2	17.4	6.04e-01	0	55	0	311951360	51	5895
2026-01-10 23:55:48.67	69.72	17.54	-40.5	-44.5	16.9	6.04e-01	0	56	0	313524224	51	6117
2026-01-10 23:55:49.68	69.98	17.58	-40.6	-44.9	16.5	6.02e-01	0	56	0	315621376	51	6369
2026-01-10 23:55:50.69	70.24	17.62	-40.7	-45.2	15.9	6.03e-01	0	56	0	317718528	51	6635
2026-01-10 23:55:51.70	70.50	17.66	-40.7	-45.4	15.7	6.05e-01	0	55	0	319291392	51	6750
2026-01-10 23:55:52.71	70.76	17.70	-40.7	-45.5	15.4	6.04e-01	0	55	0	321388544	52	6440
2026-01-10 23:55:53.72	71.03	17.74	-40.7	-45.7	15.0	6.03e-01	0	55	0	322961408	52	6645
2026-01-10 23:55:54.73	71.29	17.77	-40.8	-46.0	14.7	6.03e-01	0	56	0	325058560	52	6832
2026-01-10 23:55:55.74	71.55	17.81	-40.8	-46.1	14.6	6.03e-01	0	55	0	327155712	52	6931
2026-01-10 23:55:56.75	71.82	17.85	-40.7	-45.8	15.0	6.03e-01	0	56	0	328728576	52	6670
2026-01-10 23:55:57.76	72.08	17.89	-40.7	-45.8	15.0	6.06e-01	0	56	0	330825728	52	6647
2026-01-10 23:55:58.77	72.35	17.92	-40.7	-45.8	14.9	6.02e-01	0	56	0	332398592	52	6690
2026-01-10 23:55:59.78	72.61	17.96	-40.7	-45.9	14.8	6.03e-01	0	56	0	334495744	52	6750
2026-01-10 23:56:00.79	72.88	17.99	-40.7	-45.9	14.8	6.04e-01	0	55	0	336592896	52	6735
2026-01-10 23:56:01.80	73.15	18.03	-40.7	-45.9	14.8	6.05e-01	0	55	0	338165760	52	6746
2026-01-10 23:56:02.81	73.41	18.06	-40.7	-45.7	15.0	6.04e-01	0	56	0	340262912	52	6612
2026-01-10 23:56:03.82	73.68	18.10	-40.7	-45.9	14.8	6.03e-01	0	56	0	342360064	52	6772
2026-01-10 23:56:04.83	73.95	18.13	-40.8	-46.0	14.8	6.04e-01	0	56	0	343932928	52	6807
2026-01-10 23:56:05.84	74.22	18.16	-40.8	-46.0	14.8	6.04e-01	0	56	0	346030080	52	6807
2026-01-10 23:56:06.85	74.49	18.19	-40.7	-45.7	15.0	6.04e-01	0	56	0	347602944	52	6628
2026-01-10 23:56:07.86	74.76	18.23	-40.7	-45.6	15.2	6.05e-01	0	56	0	349700096	52	6539
2026-01-10 23:56:08.87	75.04	18.26	-40.6	-45.3	15.6	6.03e-01	0	56	0	351797248	52	6337
2026-01-10 23:56:09.88	75.31	18.29	-40.5	-45.2	15.7	6.03e-01	0	56	0	353370112	52	6253
2026-01-10 23:56:10.89	75.58	18.32	-40.5	-45.3	15.6	6.03e-01	0	56	0	355467264	52	6303
2026-01-10 23:56:11.90	75.85	18.35	-40.6	-45.5	15.4	6.03e-01	0	56	0	357040128	52	6433
2026-01-10 23:56:12.92	76.13	18.38	-40.6	-45.2	15.7	6.03e-01	0	56	0	359137280	52	6254
2026-01-10 23:56:13.93	76.41	18.40	-40.6	-45.3	15.7	6.04e-01	0	56	0	361234432	52	6308
2026-01-10 23:56:14.94	76.68	18.43	-40.6	-45.2	15.9	6.01e-01	0	56	0	362807296	52	6247
2026-01-10 23:56:15.95	76.96	18.46	-40.6	-45.1	16.1	6.03e-01	0	56	0	364904448	52	6151
2026-01-10 23:56:16.95	77.23	18.49	-40.6	-45.0	16.1	6.04e-01	0	56	0	366477312	52	6117
2026-01-10 23:56:17.97	77.51	18.51	-40.7	-45.3	15.9	6.02e-01	0	56	0	368574464	52	6286
2026-01-10 23:56:18.98	77.79	18.54	-40.8	-45.6	15.5	6.01e-01	0	56	0	370671616	52	6499
2026-01-10 23:56:19.98	78.06	18.56	-40.8	-45.8	15.2	6.03e-01	0	56	0	372244480	52	6665
2026-01-10 23:56:20.99	78.34	18.59	-41.0	-46.1	14.8	6.03e-01	0	56	0	374341632	52	6951
2026-01-10 23:56:22.00	78.62	18.61	-41.0	-46.2	14.7	6.03e-01	0	56	0	375914496	52	7027
2026-01-10 23:56:23.01	78.90	18.63	-40.9	-45.9	15.1	6.05e-01	0	56	0	378011648	52	6757
2026-01-10 23:56:24.02	79.18	18.65	-40.8	-45.6	15.4	6.02e-01	0	56	0	380108800	52	6498
2026-01-10 23:56:25.03	79.46	18.68	-40.8	-45.4	15.7	6.01e-01	0	56	0	381681664	52	6371
2026-01-10 23:56:26.04	79.74	18.70	-40.8	-45.2	16.1	6.04e-01	0	56	0	383778816	52	6254
2026-01-10 23:56:27.05	80.02	18.72	-40.8	-45.1	16.3	6.03e-01	0	56	0	385875968	52	6174
2026-01-10 23:56:28.06	80.30	18.74	-40.9	-45.0	16.6	6.02e-01	0	56	0	387448832	52	6127
2026-01-10 23:56:29.07	80.58	18.76	-40.7	-44.5	17.2	6.04e-01	0	56	0	389545984	52	5748
2026-01-10 23:56:30.07	80.86	18.77	-40.5	-44.1	17.8	6.05e-01	0	56	0	391118848	52	5468
2026-01-10 23:56:31.08	81.14	18.79	-40.5	-43.9	18.1	6.03e-01	0	56	0	393216000	52	5392
2026-01-10 23:56:32.09	81.42	18.81	-40.5	-43.9	18.2	6.03e-01	0	56	0	395313152	52	5345
2026-01-10 23:56:33.10	81.71	18.83	-40.3	-43.5	18.6	6.01e-01	0	56	0	396886016	52	5147
2026-01-10 23:56:34.12	81.99	18.84	-40.3	-43.5	18.6	6.03e-01	0	56	0	398983168	52	5118
2026-01-10 23:56:35.13	82.28	18.86	-40.3	-43.6	18.6	6.02e-01	0	56	0	400556032	52	5185
2026-01-10 23:56:36.13	82.56	18.87	-40.4	-43.7	18.5	6.02e-01	0	56	0	402653184	52	5276
2026-01-10 23:56:37.15	82.84	18.89	-40.5	-43.9	18.4	6.02e-01	0	56	0	404750336	52	5342
2026-01-10 23:56:38.16	83.13	18.90	-40.4	-43.8	18.4	6.02e-01	0	56	0	406323200	52	5287
2026-01-10 23:56:39.17	83.41	18.91	-40.3	-43.7	18.5	6.04e-01	0	56	0	408420352	52	5226
2026-01-10 23:56:40.18	83.70	18.92	-40.3	-43.6	18.6	6.02e-01	0	56	0	410517504	52	5165
2026-01-10 23:56:41.19	83.98	18.93	-40.2	-43.6	18.4	6.03e-01	0	56	0	412090368	52	5195
2026-01-10 23:56:42.20	84.27	18.95	-40.3	-43.8	18.2	6.03e-01	0	56	0	414187520	52	5298
2026-01-10 23:56:43.21	84.55	18.96	-40.3	-43.8	18.0	6.03e-01	0	56	0	415760384	52	5339
2026-01-10 23:56:44.22	84.84	18.96	-40.5	-44.2	17.7	6.02e-01	0	56	0	417857536	52	5539
2026-01-10 23:56:45.23	85.13	18.97	-40.6	-44.5	17.3	6.01e-01	0	56	0	419954688	52	5723
2026-01-10 23:56:46.24	85.41	18.98	-40.7	-44.6	17.1	6.03e-01	0	56	0	421527552	52	5851
2026-01-10 23:56:47.25	85.70	18.99	-40.9	-44.9	16.7	6.03e-01	0	56	0	423624704	52	6060
2026-01-10 23:56:48.26	85.98	19.00	-40.8	-44.9	16.7	6.05e-01	0	56	0	425197568	52	6039
2026-01-10 23:56:49.27	86.27	19.00	-40.8	-45.0	16.6	6.02e-01	0	56	0	427294720	52	6088
2026-01-10 23:56:50.28	86.56	19.01	-40.9	-45.2	16.3	6.02e-01	0	56	0	429391872	52	6242
2026-01-10 23:56:51.28	86.84	19.01	-40.8	-45.1	16.3	6.04e-01	0	56	0	430964736	52	6181
2026-01-10 23:56:52.29	87.13	19.02	-40.8	-44.9	16.6	6.02e-01	0	56	0	433061888	52	6047
2026-01-10 23:56:53.30	87.41	19.02	-40.8	-44.9	16.6	6.01e-01	0	56	0	434634752	52	6058
2026-01-10 23:56:54.31	87.70	19.02	-40.9	-45.0	16.7	6.03e-01	0	56	0	436731904	52	6094
2026-01-10 23:56:55.32	87.99	19.02	-40.8	-44.6	17.2	6.02e-01	0	56	0	438829056	52	5847
2026-01-10 23:56:56.33	88.28	19.02	-40.6	-44.4	17.5	6.05e-01	0	56	0	440401920	52	5679
2026-01-10 23:56:57.34	88.56	19.03	-40.7	-44.3	17.6	6.02e-01	0	56	0	442499072	52	5650
2026-01-10 23:56:58.35	88.85	19.03	-40.6	-44.1	17.9	6.03e-01	0	56	0	444071936	52	5482
2026-01-10 23:56:59.36	89.14	19.02	-40.5	-44.0	18.1	6.02e-01	0	56	0	446169088	52	5437
2026-01-10 23:57:00.37	89.42	19.02	-40.6	-44.1	18.2	6.04e-01	0	56	0	448266240	52	5465
2026-01-10 23:57:01.38	89.71	19.02	-40.7	-44.0	18.4	6.04e-01	0	56	0	449839104	52	5427
2026-01-10 23:57:02.39	90.00	19.02	-40.6	-43.8	18.7	6.03e-01	0	56	0	451936256	52	5319
2026-01-10 23:57:03.40	90.29	19.01	-40.5	-43.5	19.1	6.02e-01	0	56	0	454033408	52	5142
2026-01-10 23:57:04.41	90.57	19.01	-40.4	-43.4	19.4	6.04e-01	0	56	0	455606272	52	5069
2026-01-10 23:57:05.42	90.86	19.01	-40.5	-43.4	19.5	6.03e-01	0	56	0	457703424	52	5081
2026-01-10 23:57:06.43	91.15	19.00	-40.5	-43.4	19.6	6.03e-01	0	56	0	459276288	52	5044
2026-01-10 23:57:07.44	91.43	18.99	-40.4	-43.2	19.8	6.04e-01	0	56	0	461373440	52	4936
2026-01-10 23:57:08.45	91.72	18.99	-40.3	-43.1	20.0	6.02e-01	0	56	0	463470592	52	4889
2026-01-10 23:57:09.46	92.01	18.98	-40.5	-43.3	19.8	6.03e-01	0	56	0	465043456	52	5007
2026-01-10 23:57:10.47	92.29	18.97	-40.6	-43.4	19.8	6.00e-01	0	56	0	467140608	52	5050
2026-01-10 23:57:11.48	92.58	18.96	-40.3	-42.9	20.3	6.03e-01	0	56	0	468713472	52	4795
2026-01-10 23:57:12.48	92.86	18.95	-40.3	-42.9	20.3	6.02e-01	0	56	0	470810624	52	4787
2026-01-10 23:57:13.49	93.15	18.94	-40.3	-43.0	20.3	6.01e-01	0	56	0	472907776	52	4824
2026-01-10 23:57:14.50	93.43	18.93	-40.3	-42.9	20.4	6.03e-01	0	56	0	474480640	52	4805
2026-01-10 23:57:15.51	93.72	18.92	-40.3	-43.0	20.4	6.03e-01	0	56	0	476577792	52	4817
2026-01-10 23:57:16.52	94.00	18.91	-40.3	-42.9	20.5	6.04e-01	0	56	0	478674944	52	4783
2026-01-10 23:57:17.53	94.29	18.90	-40.3	-42.9	20.5	6.02e-01	0	56	0	480247808	52	4764
2026-01-10 23:57:18.54	94.57	18.88	-40.2	-42.7	20.7	6.02e-01	0	56	0	482344960	52	4679
2026-01-10 23:57:19.55	94.86	18.87	-40.3	-42.9	20.5	6.02e-01	0	56	0	483917824	52	4786
2026-01-10 23:57:20.56	95.14	18.85	-40.3	-42.9	20.5	6.02e-01	0	56	0	486014976	52	4775
2026-01-10 23:57:21.57	95.42	18.84	-40.3	-42.8	20.6	6.03e-01	0	56	0	488112128	52	4725
2026-01-10 23:57:22.58	95.71	18.82	-40.3	-42.8	20.6	6.02e-01	0	56	0	489684992	52	4732
2026-01-10 23:57:23.59	95.99	18.80	-40.4	-43.0	20.5	6.02e-01	0	56	0	491782144	52	4815
2026-01-10 23:57:24.60	96.27	18.79	-40.4	-43.0	20.4	6.02e-01	0	56	0	493355008	52	4865
2026-01-10 23:57:25.61	96.56	18.77	-40.4	-43.0	20.4	6.04e-01	0	56	0	495452160	52	4861
2026-01-10 23:57:26.62	96.84	18.75	-40.3	-42.8	20.6	6.04e-01	0	56	0	497549312	52	4738
2026-01-10 23:57:27.63	97.12	18.73	-40.3	-42.8	20.6	6.02e-01	0	56	0	499122176	52	4753
2026-01-10 23:57:28.64	97.40	18.71	-40.3	-42.8	20.6	6.01e-01	0	56	0	501219328	52	4755
2026-01-10 23:57:29.64	97.68	18.69	-40.3	-42.9	20.5	6.03e-01	0	56	0	502792192	52	4786
2026-01-10 23:57:30.65	97.96	18.67	-40.3	-42.9	20.5	6.02e-01	0	56	0	504889344	52	4798
2026-01-10 23:57:31.66	98.24	18.65	-40.3	-42.9	20.7	6.03e-01	0	56	0	506986496	51	5047
2026-01-10 23:57:32.67	98.52	18.63	-40.4	-42.9	20.6	6.03e-01	0	56	0	508559360	51	5095
2026-01-10 23:57:33.68	98.80	18.60	-40.4	-42.9	20.6	6.04e-01	0	56	0	510656512	51	5075
2026-01-10 23:57:34.69	99.08	18.58	-40.4	-42.9	20.6	6.02e-01	0	56	0	512229376	51	5089
2026-01-10 23:57:35.70	99.36	18.55	-40.3	-42.8	20.7	6.03e-01	0	56	0	514326528	51	5010
2026-01-10 23:57:36.71	99.64	18.53	-39.3	-42.7	20.8	6.03e-01	0	56	0	516423680	51	4950
2026-01-10 23:57:37.72	99.91	18.50	-40.3	-42.8	20.7	6.03e-01	0	56	0	517996544	51	5035
2026-01-10 23:57:38.73	100.19	18.48	-40.4	-43.0	20.5	6.05e-01	0	56	0	520093696	51	5136
2026-01-10 23:57:39.74	100.47	18.45	-40.3	-42.9	20.6	6.03e-01	0	56	0	521666560	51	5051
2026-01-10 23:57:40.75	100.74	18.42	-40.3	-42.7	20.8	6.04e-01	0	56	0	523763712	51	4970
2026-01-10 23:57:41.76	101.02	18.40	-40.2	-42.7	20.8	6.02e-01	0	56	0	525860864	51	4971
2026-01-10 23:57:42.77	101.29	18.37	-40.2	-42.8	20.7	6.00e-01	0	56	0	527433728	51	5028
2026-01-10 23:57:43.78	101.57	18.34	-40.4	-43.0	20.5	6.03e-01	0	56	0	529530880	51	5125
2026-01-10 23:57:44.79	101.84	18.31	-40.5	-43.1	20.4	6.05e-01	0	56	0	531628032	51	5207
2026-01-10 23:57:45.80	102.12	18.28	-40.4	-42.9	20.6	6.02e-01	0	56	0	533200896	51	5096
2026-01-10 23:57:46.80	102.39	18.25	-40.3	-42.8	20.7	6.02e-01	0	56	0	535298048	51	5030
2026-01-10 23:57:47.81	102.66	18.22	-40.3	-42.9	20.7	6.03e-01	0	56	0	536870912	51	5065
2026-01-10 23:57:48.82	102.93	18.19	-40.5	-43.1	20.4	6.02e-01	0	56	0	538968064	51	5217
2026-01-10 23:57:49.83	103.20	18.15	-40.4	-42.9	20.6	6.03e-01	0	56	0	541065216	51	5094
2026-01-10 23:57:50.84	103.47	18.12	-40.2	-42.8	20.8	6.01e-01	0	56	0	542638080	51	4987
2026-01-10 23:57:51.85	103.74	18.09	-40.3	-42.8	20.7	6.04e-01	0	56	0	544735232	51	5041
2026-01-10 23:57:52.86	104.01	18.05	-40.3	-42.9	20.7	6.03e-01	0	56	0	546308096	51	5045
2026-01-10 23:57:53.87	104.28	18.02	-40.3	-42.8	20.8	6.02e-01	0	56	0	548405248	51	5003
2026-01-10 23:57:54.88	104.55	17.98	-40.3	-42.9	20.7	6.04e-01	0	56	0	550502400	51	5042
2026-01-10 23:57:55.89	104.82	17.95	-40.4	-42.9	20.7	6.04e-01	0	56	0	552075264	51	5082
2026-01-10 23:57:56.90	105.08	17.91	-40.3	-42.8	20.7	6.02e-01	0	56	0	554172416	51	5023
2026-01-10 23:57:57.91	105.35	17.87	-40.2	-42.7	20.9	6.02e-01	0	56	0	555745280	51	4940
2026-01-10 23:57:58.92	105.62	17.84	-40.3	-42.9	20.7	6.04e-01	0	56	0	557842432	51	5043
2026-01-10 23:57:59.93	105.88	17.80	-40.4	-43.0	20.6	6.05e-01	0	56	0	559939584	51	5134
2026-01-10 23:58:00.94	106.14	17.76	-40.4	-42.9	20.6	6.03e-01	0	56	0	561512448	51	5083
2026-01-10 23:58:01.95	106.41	17.72	-40.3	-42.8	20.8	6.03e-01	0	56	0	563609600	51	4992
2026-01-10 23:58:02.96	106.67	17.68	-40.4	-42.9	20.7	6.03e-01	0	56	0	565182464	51	5055
2026-01-10 23:58:03.97	106.93	17.64	-40.4	-42.9	20.6	6.01e-01	0	56	0	567279616	51	5082
2026-01-10 23:58:04.98	107.19	17.60	-40.3	-42.8	20.8	6.04e-01	0	56	0	569376768	51	5004
2026-01-10 23:58:05.99	107.45	17.56	-40.3	-42.9	20.7	6.03e-01	0	56	0	570949632	51	5042
2026-01-10 23:58:07.00	107.71	17.52	-40.4	-43.0	20.5	6.03e-01	0	56	0	573046784	51	5139
2026-01-10 23:58:08.01	107.97	17.48	-40.4	-43.0	20.5	6.03e-01	0	56	0	575143936	51	5125
2026-01-10 23:58:09.02	108.23	17.44	-40.3	-42.8	20.8	6.03e-01	0	56	0	576716800	51	5007
2026-01-10 23:58:10.03	108.49	17.40	-40.2	-42.6	20.9	6.04e-01	0	56	0	578813952	51	4926
2026-01-10 23:58:11.04	108.75	17.35	-40.3	-42.8	20.7	6.04e-01	0	56	0	580386816	51	5030
2026-01-10 23:58:12.05	109.00	17.31	-40.3	-42.8	20.7	6.02e-01	0	56	0	582483968	51	5018
2026-01-10 23:58:13.06	109.26	17.27	-40.3	-42.8	20.8	6.02e-01	0	56	0	584581120	51	5005
2026-01-10 23:58:14.07	109.51	17.22	-40.3	-42.8	20.5	6.05e-01	0	56	0	586153984	51	5041
2026-01-10 23:58:15.08	109.77	17.18	-40.3	-42.8	20.7	6.04e-01	0	56	0	588251136	51	5018
2026-01-10 23:58:16.09	110.02	17.13	-40.3	-42.9	20.6	6.05e-01	0	56	0	589824000	51	5049
2026-01-10 23:58:17.10	110.27	17.09	-40.4	-42.9	20.6	6.04e-01	0	56	0	591921152	51	5069
2026-01-10 23:58:18.12	110.53	17.04	-40.4	-42.9	20.6	6.04e-01	0	56	0	594018304	51	5095
2026-01-10 23:58:19.12	110.77	16.99	-40.4	-43.0	20.5	6.00e-01	0	56	0	595591168	51	5115
2026-01-10 23:58:20.13	111.02	16.95	-40.4	-43.0	20.5	6.02e-01	0	56	0	597688320	51	5115
2026-01-10 23:58:21.14	111.27	16.90	-40.4	-42.9	20.6	6.02e-01	0	56	0	599785472	51	5073
2026-01-10 23:58:22.15	111.52	16.85	-40.4	-43.0	20.5	6.04e-01	0	56	0	601358336	51	5131
2026-01-10 23:58:23.16	111.77	16.80	-40.3	-42.8	20.6	6.04e-01	0	56	0	603455488	51	5040
2026-01-10 23:58:24.17	112.02	16.76	-40.4	-42.9	20.5	6.04e-01	0	56	0	605028352	51	5090
2026-01-10 23:58:25.18	112.26	16.71	-40.4	-43.0	20.4	6.00e-01	0	56	0	607125504	51	5159
2026-01-10 23:58:26.19	112.51	16.66	-40.5	-43.1	20.3	6.04e-01	0	56	0	609222656	51	5198
2026-01-10 23:58:27.20	112.75	16.61	-40.4	-43.0	20.4	6.01e-01	0	56	0	610795520	51	5135
2026-01-10 23:58:28.21	112.99	16.56	-40.3	-42.8	20.4	6.05e-01	0	56	0	612892672	51	5017
2026-01-10 23:58:29.22	113.24	16.51	-40.3	-42.9	20.5	6.03e-01	0	56	0	614989824	51	5045
2026-01-10 23:58:30.23	113.48	16.46	-40.3	-42.9	20.3	6.02e-01	0	56	0	616562688	51	5047
2026-01-10 23:58:31.24	113.72	16.41	-40.3	-42.8	19.8	6.02e-01	0	56	0	618659840	51	5041
2026-01-10 23:58:32.25	113.96	16.36	-40.2	-42.8	19.9	6.05e-01	0	56	0	620232704	51	4991
2026-01-10 23:58:33.26	114.20	16.30	-40.3	-42.9	19.9	6.02e-01	0	56	0	622329856	51	5049
2026-01-10 23:58:34.27	114.44	16.25	-40.2	-42.9	19.7	6.04e-01	0	56	0	624427008	51	5053
2026-01-10 23:58:35.28	114.68	16.20	-40.0	-42.9	19.8	6.05e-01	0	56	0	625999872	51	5046
2026-01-10 23:58:36.28	114.91	16.15	-39.9	-42.8	19.5	6.01e-01	0	56	0	628097024	51	4991
2026-01-10 23:58:37.29	115.15	16.10	-39.0	-42.5	19.1	6.07e-01	0	56	0	629669888	49	5448
2026-01-10 23:58:38.30	115.38	16.04	-39.4	-42.8	18.2	6.02e-01	0	56	0	631767040	50	5300
2026-01-10 23:58:39.31	115.61	15.99	-40.2	-42.9	18.8	6.02e-01	0	56	0	633339904	50	5350
2026-01-10 23:58:40.32	115.85	15.93	-40.1	-42.8	18.0	6.04e-01	0	56	0	635437056	50	5334
2026-01-10 23:58:41.33	116.08	15.88	-39.9	-42.9	18.4	6.03e-01	0	56	0	637534208	50	5343
2026-01-10 23:58:42.34	116.31	15.83	-40.0	-42.9	18.3	6.05e-01	0	56	0	639107072	50	5402
2026-01-10 23:58:43.35	116.54	15.77	-39.8	-42.8	18.8	6.06e-01	0	56	0	641204224	50	5322
2026-01-10 23:58:44.36	116.77	15.72	-39.4	-42.7	17.7	6.03e-01	2	56	0	643301376	49	5591
2026-01-10 23:58:45.37	117.00	15.66	-39.9	-42.9	17.9	6.02e-01	0	56	0	644874240	50	5344
2026-01-10 23:58:46.38	117.23	15.61	-39.3	-42.9	18.3	6.04e-01	0	56	0	646971392	50	5359
2026-01-10 23:58:47.39	117.45	15.55	-39.8	-42.8	17.7	6.06e-01	0	56	0	648544256	50	5313
2026-01-10 23:58:48.40	117.68	15.49	-39.8	-42.8	18.7	6.02e-01	0	56	0	650641408	50	5326
2026-01-10 23:58:49.41	117.91	15.44	-39.9	-43.0	18.5	6.03e-01	0	56	0	652738560	50	5414
2026-01-10 23:58:50.42	118.13	15.38	-40.1	-43.2	16.5	6.04e-01	0	56	0	654311424	50	5530
2026-01-10 23:58:51.43	118.35	15.32	-39.8	-42.9	15.8	6.06e-01	0	56	0	656408576	50	5386
2026-01-10 23:58:52.44	118.58	15.27	-39.7	-42.9	18.4	6.06e-01	0	56	0	657981440	50	5348
2026-01-10 23:58:53.44	118.80	15.21	-39.4	-42.8	16.4	6.04e-01	0	56	0	660078592	48	5980
2026-01-10 23:58:54.45	119.02	15.15	-39.7	-43.0	17.3	6.05e-01	0	56	0	662175744	50	5407
2026-01-10 23:58:55.46	119.24	15.10	-39.6	-43.2	17.7	6.04e-01	0	56	0	663748608	50	5537
2026-01-10 23:58:56.47	119.46	15.04	-38.7	-42.7	16.5	6.05e-01	0	56	0	665845760	48	5862
2026-01-10 23:58:57.48	119.67	14.98	-39.8	-42.9	16.0	6.05e-01	0	56	0	667942912	49	5707
2026-01-10 23:58:58.49	119.89	14.92	-39.6	-43.1	13.3	6.05e-01	1	56	0	669515776	49	5831
2026-01-10 23:58:59.50	120.11	14.86	-39.5	-43.0	16.3	6.04e-01	3	56	0	671612928	50	5435
2026-01-10 23:59:00.51	120.32	14.80	-39.7	-42.9	15.6	6.06e-01	10	56	0	673185792	49	5712
2026-01-10 23:59:01.52	120.54	14.75	-39.3	-42.8	15.7	6.05e-01	3	56	0	675282944	48	5938
2026-01-10 23:59:02.53	120.75	14.69	-39.4	-42.8	15.4	6.06e-01	3	56	0	677380096	49	5652
2026-01-10 23:59:03.54	120.97	14.63	-36.1	-42.6	11.7	6.19e-01	59	56	0	678952960	45	6956
2026-01-10 23:59:04.55	121.18	14.57	-37.8	-42.1	10.1	6.23e-01	59	56	0	681050112	45	6567
2026-01-10 23:59:05.56	121.39	14.51	-39.1	-42.9	14.3	6.08e-01	4	56	0	682622976	49	5684
2026-01-10 23:59:06.57	121.60	14.45	-37.9	-42.9	12.2	6.11e-01	17	56	0	684720128	42	8487
2026-01-10 23:59:07.58	121.81	14.39	-38.5	-42.7	11.2	6.14e-01	13	56	0	686292992	42	8345
2026-01-10 23:59:08.59	122.02	14.33	-37.9	-42.9	13.9	6.10e-01	4	56	0	688390144	43	8030
2026-01-10 23:59:09.60	122.22	14.27	-36.9	-42.4	13.5	6.10e-01	9	56	0	690487296	43	7571
2026-01-10 23:59:10.61	122.43	14.21	-37.7	-42.4	13.3	6.15e-01	29	56	0	692060160	44	7172
2026-01-10 23:59:11.61	122.64	14.15	-37.3	-42.6	15.0	6.06e-01	4	56	0	694157312	46	6517
2026-01-10 23:59:12.62	122.84	14.09	-36.8	-42.2	15.1	6.09e-01	12	56	0	696254464	45	6624
2026-01-10 23:59:13.63	123.04	14.02	-38.4	-42.8	14.6	6.05e-01	3	56	0	697827328	47	6317
2026-01-10 23:59:14.64	123.25	13.96	-38.6	-42.7	15.6	6.07e-01	0	56	0	699924480	47	6230
2026-01-10 23:59:15.65	123.45	13.90	-39.3	-43.0	16.4	6.04e-01	0	56	0	701497344	49	5771
2026-01-10 23:59:16.66	123.65	13.84	-39.1	-42.7	16.6	6.06e-01	1	56	0	703594496	48	5900
2026-01-10 23:59:17.67	123.85	13.78	-39.7	-43.0	16.6	6.06e-01	0	56	0	705691648	49	5773
2026-01-10 23:59:18.68	124.05	13.72	-35.9	-43.0	15.5	6.04e-01	1	56	0	707264512	49	5733
2026-01-10 23:59:19.69	124.25	13.65	-38.5	-42.7	15.1	6.07e-01	3	56	0	709361664	46	6625
2026-01-10 23:59:20.70	124.45	13.59	-37.7	-42.7	15.0	6.02e-01	2	56	0	710934528	47	6239
2026-01-10 23:59:21.71	124.65	13.53	-37.0	-42.6	15.6	6.05e-01	2	56	0	713031680	44	7364
2026-01-10 23:59:22.72	124.84	13.47	-35.2	-42.3	14.8	6.08e-01	11	56	0	715128832	41	8397
2026-01-10 23:59:23.73	125.04	13.41	-35.1	-42.6	14.0	6.08e-01	7	56	0	716701696	42	8229
2026-01-10 23:59:24.74	125.23	13.34	-35.8	-42.5	14.4	6.08e-01	8	57	0	718798848	41	8647
2026-01-10 23:59:25.74	125.42	13.28	-32.7	-42.4	13.8	6.07e-01	26	56	0	720371712	38	10163
2026-01-10 23:59:26.75	125.62	13.22	-32.7	-42.5	12.4	6.12e-01	35	56	0	722468864	38	10205
2026-01-10 23:59:27.76	125.81	13.16	-30.9	-41.2	11.2	6.24e-01	75	56	0	724041728	33	11790
2026-01-10 23:59:28.77	126.00	13.09	-31.4	-41.3	10.5	6.38e-01	63	56	0	726138880	32	12527
2026-01-10 23:59:29.78	126.19	13.03	-33.4	-41.8	10.2	6.30e-01	70	57	0	728236032	32	13396
2026-01-10 23:59:30.79	126.38	12.97	-34.7	-42.3	12.4	6.14e-01	43	57	0	729808896	34	12551
2026-01-10 23:59:31.80	126.57	12.90	-30.4	-41.7	9.6	6.16e-01	36	56	0	731906048	26	18677
2026-01-10 23:59:32.81	126.76	12.84	-31.7	-41.4	11.5	6.17e-01	74	56	0	733478912	30	14334
2026-01-10 23:59:33.82	126.94	12.78	-29.5	-41.2	9.2	6.49e-01	87	56	0	735576064	26	17502
2026-01-10 23:59:34.83	127.13	12.71	-28.6	-41.3	8.9	6.36e-01	88	56	0	737148928	26	17742
2026-01-10 23:59:35.84	127.32	12.65	-28.3	-41.6	10.2	6.21e-01	91	56	0	738721792	28	16464
2026-01-10 23:59:36.85	127.50	12.59	-27.8	-41.2	8.5	6.29e-01	48	56	0	740818944	26	17497
2026-01-10 23:59:37.86	127.68	12.52	-25.6	-41.3	7.7	6.48e-01	75	56	0	742391808	23	21192
2026-01-10 23:59:38.87	127.87	12.46	-26.6	-41.2	8.5	6.44e-01	90	56	0	743964672	23	20800
2026-01-10 23:59:39.88	128.05	12.40	-26.4	-41.3	7.3	6.43e-01	46	56	0	745537536	22	22317
2026-01-10 23:59:40.89	128.23	12.33	-25.3	-41.0	7.8	6.43e-01	5	56	0	746061824	19	25759
2026-01-10 23:59:41.89	128.41	12.27	-23.9	-40.1	6.7	6.72e-01	16	56	0	746586112	18	24420
2026-01-10 23:59:42.90	128.59	12.20	-22.9	-40.9	4.8	7.25e-01	0	56	104	746586112	17	28580
2026-01-10 23:59:43.91	128.77	12.14	-18.8	-41.7	4.6	7.20e-01	0	56	104	746586112	18	29591
2026-01-10 23:59:44.92	128.94	12.08	-22.8	-40.4	6.4	6.68e-01	14	56	104	746586112	12	36006
2026-01-10 23:59:45.93	129.12	12.01	-23.4	-40.6	4.6	7.32e-01	0	56	104	746586112	14	32825
2026-01-10 23:59:46.94	129.30	11.95	-23.2	-39.0	4.6	7.33e-01	0	56	104	746586112	14	27210
2026-01-10 23:59:47.95	129.47	11.88	-24.2	-39.2	4.2	7.33e-01	0	56	104	746586112	13	29670
2026-01-10 23:59:48.96	129.65	11.82	-20.4	-38.7	5.6	7.04e-01	0	56	0	746586112	9	35018
2026-01-10 23:59:49.97	129.82	11.75	-18.7	-38.7	3.9	7.35e-01	0	57	104	746586112	9	35059
2026-01-10 23:59:50.98	129.99	11.69	-26.1	-50.6	4.2	7.54e-01	0	56	104	746586112	22	65510
2026-01-10 23:59:51.99	130.17	11.63	-19.8	-37.7	3.4	7.44e-01	0	57	104	746586112	10	29542
2026-01-10 23:59:53.00	130.34	11.56	-21.8	-42.6	4.2	7.42e-01	0	56	104	746586112	11	48711
2026-01-10 23:59:54.01	130.51	11.50	-20.5	-40.6	3.2	7.51e-01	0	57	104	746586112	13	34842
2026-01-10 23:59:55.02	130.68	11.43	-19.4	-39.0	3.5	7.50e-01	0	56	104	746586112	8	38589
2026-01-10 23:59:56.02	130.85	11.37	-19.4	-42.1	3.6	7.47e-01	0	56	104	746586112	12	43431
2026-01-10 23:59:57.03	131.01	11.30	-23.5	-42.0	3.7	7.53e-01	0	57	104	746586112	17	32417
2026-01-10 23:59:58.04	131.18	11.24	-24.8	-40.9	3.5	7.56e-01	0	57	104	746586112	16	30340
2026-01-10 23:59:59.05	131.35	11.18	-23.2	-39.4	4.4	7.35e-01	0	56	104	746586112	15	26870
2026-01-11 00:00:00.06	131.52	11.11	-22.4	-43.2	3.8	7.43e-01	0	56	104	746586112	14	44320
2026-01-11 00:00:01.07	131.68	11.05	-28.0	-50.5	3.6	7.54e-01	0	57	104	746586112	22	64654
2026-01-11 00:00:02.08	131.85	10.98	-22.7	-40.7	4.1	7.48e-01	0	56	104	746586112	14	33155
2026-01-11 00:00:03.09	132.01	10.92	-20.9	-38.8	3.8	7.56e-01	0	56	104	746586112	14	26708
2026-01-11 00:00:04.10	132.17	10.85	-20.6	-39.6	3.7	7.46e-01	0	57	104	746586112	12	32677
2026-01-11 00:00:05.11	132.33	10.79	-22.8	-43.9	3.6	7.46e-01	0	57	104	746586112	14	47847
2026-01-11 00:00:06.12	132.50	10.72	-26.8	-42.4	3.4	7.43e-01	0	57	104	746586112	17	33798
2026-01-11 00:00:07.13	132.66	10.66	-22.1	-40.3	4.2	7.43e-01	0	56	104	746586112	11	37781
2026-01-11 00:00:08.14	132.82	10.59	-21.2	-38.8	3.5	7.50e-01	0	56	104	746586112	10	33520
2026-01-11 00:00:09.15	132.98	10.53	-31.5	-52.4	3.9	7.58e-01	0	56	104	746586112	27	60600
2026-01-11 00:00:10.16	133.13	10.47	-19.7	-38.3	3.4	7.44e-01	0	56	104	746586112	8	35309
2026-01-11 00:00:11.17	133.29	10.40	-21.1	-40.5	4.0	7.43e-01	0	56	104	746586112	11	38339
2026-01-11 00:00:12.18	133.45	10.34	-19.8	-39.5	3.5	7.56e-01	0	56	104	746586112	12	32250
2026-01-11 00:00:13.18	133.60	10.27	-15.3	-38.2	3.6	7.41e-01	0	57	104	746586112	7	37250
2026-01-11 00:00:14.20	133.76	10.21	-21.3	-42.5	3.7	7.42e-01	0	57	104	746586112	15	38358
2026-01-11 00:00:15.20	133.91	10.14	-25.7	-46.0	3.9	7.60e-01	0	56	104	746586112	25	32183
2026-01-11 00:00:16.21	134.07	10.08	-19.4	-43.8	3.2	7.66e-01	0	57	104	746586112	14	47142
2026-01-11 00:00:17.22	134.22	10.01	-35.8	-55.0	4.1	7.52e-01	0	57	104	746586112	36	48460
2026-01-11 00:00:18.23	134.38	9.95	-29.4	-49.3	3.9	7.52e-01	0	57	104	746586112	21	59517
2026-01-11 00:00:19.24	134.53	9.88	-29.4	-50.1	3.7	7.63e-01	0	57	104	746586112	21	65379
2026-01-11 00:00:20.25	134.68	9.82	-29.4	-51.9	3.9	7.56e-01	0	57	104	746586112	27	57195
2026-01-11 00:00:21.26	134.83	9.76	-36.1	-57.2	3.9	7.46e-01	0	57	104	746586112	44	39171
2026-01-11 00:00:22.27	134.98	9.69	-37.5	-59.0	4.1	7.54e-01	0	56	104	746586112	46	43229
2026-01-11 00:00:23.28	135.13	9.63	-42.7	-61.5	4.0	7.45e-01	0	57	104	746586112	56	32501
2026-01-11 00:00:24.29	135.28	9.56	-40.4	-60.8	3.8	7.46e-01	0	57	104	746586112	53	35383
2026-01-11 00:00:25.30	135.43	9.50	-34.3	-55.7	4.4	7.37e-01	0	57	104	746586112	40	41616
2026-01-11 00:00:26.32	135.57	9.43	-26.8	-49.1	4.1	7.41e-01	0	57	104	746586112	28	39073
2026-01-11 00:00:27.33	135.72	9.37	-36.9	-58.2	4.2	7.54e-01	0	57	104	746586112	45	41493
2026-01-11 00:00:28.33	135.87	9.31	-31.1	-57.5	4.0	7.53e-01	0	57	104	746586112	43	42944
2026-01-11 00:00:29.34	136.01	9.24	-33.3	-55.6	4.1	7.46e-01	0	57	104	746586112	48	25926
2026-01-11 00:00:30.35	136.16	9.18	-42.9	-61.9	3.8	7.43e-01	0	57	104	746586112	56	33724
2026-01-11 00:00:31.36	136.30	9.11	-38.2	-59.3	4.3	7.58e-01	0	57	104	746586112	49	37507
2026-01-11 00:00:32.37	136.44	9.05	-43.0	-62.1	3.8	7.47e-01	0	57	104	746586112	56	34745
2026-01-11 00:00:33.38	136.58	8.99	-40.4	-62.1	3.9	7.53e-01	0	57	104	746586112	55	36714
2026-01-11 00:00:34.39	136.73	8.92	-42.8	-62.0	3.8	7.44e-01	0	57	104	746586112	56	34404
2026-01-11 00:00:35.40	136.87	8.86	-43.0	-62.1	3.8	7.46e-01	0	57	104	746586112	56	34728
2026-01-11 00:00:36.41	137.01	8.79	-42.8	-62.0	3.9	7.46e-01	0	57	104	746586112	56	34174
2026-01-11 00:00:37.42	137.15	8.73	-42.7	-61.0	3.9	7.50e-01	0	57	104	746586112	52	38261
2026-01-11 00:00:38.43	137.29	8.67	-42.6	-61.5	4.1	7.49e-01	0	57	104	746586112	53	38269
2026-01-11 00:00:39.44	137.43	8.60	-43.1	-62.1	3.8	7.44e-01	0	57	104	746586112	56	34795
2026-01-11 00:00:40.45	137.56	8.54	-43.3	-62.1	3.8	7.41e-01	0	57	104	746586112	56	34762
2026-01-11 00:00:41.46	137.70	8.47	-43.4	-61.3	3.8	7.47e-01	0	57	104	746586112	52	39727
2026-01-11 00:00:42.47	137.84	8.41	-43.0	-62.1	3.8	7.48e-01	0	57	104	746586112	56	34593
2026-01-11 00:00:43.48	137.98	8.35	-39.2	-60.5	3.9	7.39e-01	0	57	104	746586112	51	38641
2026-01-11 00:00:44.49	138.11	8.28	-42.4	-61.7	3.9	7.48e-01	0	57	104	746586112	54	37114
2026-01-11 00:00:45.50	138.25	8.22	-42.7	-61.8	3.8	7.47e-01	0	57	104	746586112	55	35690
2026-01-11 00:00:46.51	138.38	8.16	-42.8	-60.7	3.8	7.44e-01	0	57	104	746586112	55	31153
2026-01-11 00:00:47.53	138.51	8.09	-43.7	-61.9	3.8	7.44e-01	0	57	104	746586112	58	30174
2026-01-11 00:00:48.54	138.65	8.03	-43.0	-61.0	3.8	7.40e-01	0	57	104	746586112	56	30694
2026-01-11 00:00:49.55	138.78	7.97	-38.9	-59.8	4.1	7.56e-01	0	57	104	746586112	47	44700
2026-01-11 00:00:50.56	138.91	7.90	-45.1	-64.4	4.1	7.43e-01	0	57	104	746586112	60	35753
2026-01-11 00:00:51.57	139.04	7.84	-45.7	-64.4	3.8	7.43e-01	0	57	104	746586112	61	33738
2026-01-11 00:00:52.58	139.17	7.78	-45.9	-64.8	3.8	7.45e-01	0	57	104	746586112	62	33391
2026-01-11 00:00:53.59	139.30	7.71	-46.1	-64.9	3.8	7.46e-01	0	57	104	746586112	62	33889
2026-01-11 00:00:54.60	139.43	7.65	-46.2	-65.0	3.8	7.45e-01	0	57	104	746586112	62	34316
2026-01-11 00:00:55.61	139.56	7.59	-46.2	-65.1	3.8	7.46e-01	0	57	104	746586112	62	34492
2026-01-11 00:00:56.62	139.69	7.52	-46.3	-65.1	3.8	7.43e-01	0	57	104	746586112	63	32794
2026-01-11 00:00:57.63	139.82	7.46	-46.3	-65.1	3.8	7.43e-01	0	57	104	746586112	63	32854
2026-01-11 00:00:58.64	139.95	7.40	-46.3	-65.1	3.8	7.45e-01	0	57	104	746586112	63	32630
2026-01-11 00:00:59.66	140.07	7.33	-46.2	-65.1	3.8	7.45e-01	0	57	104	746586112	63	32653
2026-01-11 00:01:00.67	140.20	7.27	-46.1	-65.0	3.8	7.42e-01	0	57	104	746586112	63	32410
2026-01-11 00:01:01.68	140.32	7.21	-46.1	-65.0	3.8	7.41e-01	0	57	104	746586112	63	32371
2026-01-11 00:01:02.69	140.45	7.15	-46.1	-65.0	3.8	7.45e-01	0	57	104	746586112	63	32205
2026-01-11 00:01:03.70	140.57	7.08	-46.1	-65.0	3.8	7.44e-01	0	57	104	746586112	63	32182
2026-01-11 00:01:04.71	140.70	7.02	-46.0	-64.9	3.8	7.43e-01	0	57	104	746586112	63	31938
2026-01-11 00:01:05.72	140.82	6.96	-46.0	-64.8	3.8	7.46e-01	0	57	104	746586112	63	31773
2026-01-11 00:01:06.73	140.94	6.90	-46.0	-64.8	3.8	7.45e-01	0	57	104	746586112	63	31738
2026-01-11 00:01:07.74	141.07	6.83	-45.9	-64.8	3.8	7.46e-01	0	57	104	746586112	63	31751
2026-01-11 00:01:08.75	141.19	6.77	-46.0	-64.8	3.8	7.44e-01	0	57	104	746586112	63	31787
2026-01-11 00:01:09.77	141.31	6.71	-46.0	-64.9	3.8	7.47e-01	0	57	104	746586112	63	31839
2026-01-11 00:01:10.77	141.43	6.65	-46.0	-64.9	3.8	7.43e-01	0	57	104	746586112	63	31894
2026-01-11 00:01:11.79	141.55	6.59	-46.0	-64.9	3.8	7.42e-01	0	57	104	746586112	63	31848
2026-01-11 00:01:12.80	141.67	6.52	-46.0	-64.8	3.8	7.48e-01	0	57	104	746586112	63	31798
2026-01-11 00:01:13.81	141.79	6.46	-46.0	-64.8	3.8	7.50e-01	0	57	104	746586112	63	31790
2026-01-11 00:01:14.82	141.91	6.40	-46.0	-64.9	3.8	7.46e-01	0	57	104	746586112	63	31830
2026-01-11 00:01:15.83	142.02	6.34	-45.9	-64.8	3.8	7.46e-01	0	57	104	746586112	63	31772
2026-01-11 00:01:16.84	142.14	6.28	-45.9	-64.8	3.8	7.44e-01	0	57	104	746586112	63	31798
2026-01-11 00:01:17.85	142.26	6.22	-45.9	-64.9	3.8	7.45e-01	0	57	104	746586112	63	31830
2026-01-11 00:01:18.86	142.37	6.15	-46.0	-64.8	3.8	7.42e-01	0	57	104	746586112	63	31787
2026-01-11 00:01:19.87	142.49	6.09	-46.0	-64.8	3.8	7.47e-01	0	57	104	746586112	63	31801
2026-01-11 00:01:20.89	142.61	6.03	-46.0	-64.9	3.8	7.45e-01	0	57	104	746586112	63	31869
2026-01-11 00:01:21.90	142.72	5.97	-46.0	-64.8	3.8	7.43e-01	0	57	104	746586112	63	31734
2026-01-11 00:01:22.91	142.83	5.91	-45.9	-64.8	3.8	7.45e-01	0	57	104	746586112	63	31718
2026-01-11 00:01:23.92	142.95	5.85	-46.0	-64.8	3.8	7.43e-01	0	57	104	746586112	63	31772
2026-01-11 00:01:24.93	143.06	5.79	-45.9	-64.8	3.8	7.46e-01	0	57	104	746586112	63	31736
2026-01-11 00:01:25.94	143.17	5.72	-46.0	-64.8	3.8	7.45e-01	0	57	104	746586112	63	31781
2026-01-11 00:01:26.95	143.29	5.66	-46.0	-64.8	3.8	7.48e-01	0	57	104	746586112	63	31765
2026-01-11 00:01:27.97	143.40	5.60	-45.9	-64.8	3.8	7.45e-01	0	57	104	746586112	63	31774
2026-01-11 00:01:28.97	143.51	5.54	-45.9	-64.8	3.8	7.43e-01	0	57	104	746586112	63	31726
2026-01-11 00:01:29.99	143.62	5.48	-45.9	-64.8	3.8	7.46e-01	0	57	104	746586112	63	31772
2026-01-11 00:01:31.00	143.73	5.42	-45.9	-64.8	3.8	7.48e-01	0	57	104	746586112	63	31743
2026-01-11 00:01:32.01	143.84	5.36	-45.9	-64.8	3.8	7.44e-01	0	57	104	746586112	63	31762
2026-01-11 00:01:33.02	143.95	5.30	-45.9	-64.9	3.8	7.46e-01	0	57	104	746586112	63	31825
2026-01-11 00:01:34.03	144.06	5.24	-45.9	-64.8	3.8	7.48e-01	0	57	104	746586112	63	31702
2026-01-11 00:01:35.04	144.17	5.18	-45.9	-64.8	3.8	7.43e-01	0	57	104	746586112	63	31784
2026-01-11 00:01:36.05	144.27	5.12	-45.9	-64.8	3.8	7.45e-01	0	57	104	746586112	63	31697
2026-01-11 00:01:37.06	144.38	5.06	-45.9	-64.8	3.8	7.50e-01	0	57	104	746586112	63	31721
2026-01-11 00:01:38.07	144.49	5.00	-45.9	-64.8	3.8	7.44e-01	0	57	104	746586112	63	31755
2026-01-11 00:01:39.09	144.60	4.94	-45.9	-64.8	3.8	7.49e-01	0	57	104	746586112	63	31752
2026-01-11 00:01:40.10	144.70	4.88	-45.9	-64.8	3.8	7.45e-01	0	57	104	746586112	63	31683
2026-01-11 00:01:41.11	144.81	4.82	-45.9	-64.8	3.8	7.43e-01	0	57	104	746586112	63	31770
2026-01-11 00:01:42.12	144.91	4.76	-45.9	-64.8	3.8	7.45e-01	0	57	104	746586112	63	31787
2026-01-11 00:01:43.13	145.02	4.70	-45.9	-64.8	3.8	7.45e-01	0	57	104	746586112	63	31730
2026-01-11 00:01:44.14	145.12	4.64	-45.9	-64.8	3.8	7.49e-01	0	57	104	746586112	63	31704
2026-01-11 00:01:45.15	145.23	4.58	-45.9	-64.8	3.8	7.45e-01	0	57	104	746586112	63	31734
2026-01-11 00:01:46.16	145.33	4.52	-45.9	-64.8	3.8	7.46e-01	0	57	104	746586112	63	31677
2026-01-11 00:01:47.17	145.43	4.46	-45.9	-64.8	3.8	7.48e-01	0	57	104	746586112	63	31695
2026-01-11 00:01:48.19	145.53	4.40	-45.9	-64.8	3.8	7.47e-01	0	57	104	746586112	63	31712
2026-01-11 00:01:49.20	145.64	4.34	-45.9	-64.8	3.8	7.48e-01	0	57	104	746586112	63	31678
2026-01-11 00:01:50.21	145.74	4.28	-45.9	-64.8	3.8	7.48e-01	0	57	104	746586112	63	31710
2026-01-11 00:01:51.22	145.84	4.22	-45.9	-64.8	3.8	7.43e-01	0	57	104	746586112	63	31795
2026-01-11 00:01:52.23	145.94	4.16	-45.9	-64.8	3.8	7.47e-01	0	57	104	746586112	63	31739
2026-01-11 00:01:53.24	146.04	4.10	-45.9	-64.8	3.8	7.46e-01	0	57	104	746586112	63	31733
2026-01-11 00:01:54.25	146.14	4.05	-45.9	-64.8	3.8	7.44e-01	0	57	104	746586112	63	31650
2026-01-11 00:01:55.26	146.24	3.99	-45.9	-64.8	3.8	7.46e-01	0	57	104	746586112	63	31714
2026-01-11 00:01:56.27	146.34	3.93	-45.9	-64.8	3.8	7.45e-01	0	57	104	746586112	63	31684
2026-01-11 00:01:57.28	146.44	3.87	-45.9	-64.8	3.8	7.47e-01	0	57	104	746586112	63	31645
2026-01-11 00:01:58.30	146.54	3.81	-45.9	-64.8	3.8	7.43e-01	0	57	104	746586112	63	31697
2026-01-11 00:01:59.31	146.63	3.75	-45.9	-64.8	3.8	7.46e-01	0	57	104	746586112	63	31726
2026-01-11 00:02:00.32	146.73	3.69	-45.9	-64.8	3.8	7.45e-01	0	57	104	746586112	63	31690
2026-01-11 00:02:01.33	146.83	3.63	-45.9	-64.8	3.8	7.48e-01	0	57	104	746586112	63	31704
2026-01-11 00:02:02.34	146.92	3.58	-45.9	-64.8	3.8	7.44e-01	0	57	104	746586112	63	31718
2026-01-11 00:02:03.35	147.02	3.52	-45.9	-64.8	3.8	7.45e-01	0	57	104	746586112	63	31728
2026-01-11 00:02:04.36	147.11	3.46	-45.9	-64.8	3.8	7.45e-01	0	57	104	746586112	63	31708
2026-01-11 00:02:05.37	147.21	3.40	-45.9	-64.8	3.8	7.45e-01	0	57	104	746586112	63	31691
2026-01-11 00:02:06.38	147.31	3.34	-45.9	-64.8	3.8	7.44e-01	0	57	104	746586112	63	31769
2026-01-11 00:02:07.39	147.40	3.29	-45.9	-64.8	3.8	7.46e-01	0	57	104	746586112	63	31793
2026-01-11 00:02:08.41	147.49	3.23	-45.9	-64.8	3.8	7.44e-01	0	57	104	746586112	63	31750
2026-01-11 00:02:09.42	147.59	3.17	-45.9	-64.8	3.8	7.47e-01	0	57	104	746586112	63	31741
2026-01-11 00:02:10.43	147.68	3.11	-45.9	-64.8	3.8	7.45e-01	0	57	104	746586112	63	31759
2026-01-11 00:02:11.44	147.77	3.05	-45.9	-64.8	3.8	7.49e-01	0	57	104	746586112	63	31716
2026-01-11 00:02:12.45	147.87	3.00	-45.9	-64.8	3.8	7.44e-01	0	57	104	746586112	63	31734
2026-01-11 00:02:13.46	147.96	2.94	-45.9	-64.8	3.8	7.46e-01	0	57	104	746586112	63	31716
2026-01-11 00:02:14.47	148.05	2.88	-45.9	-64.8	3.8	7.46e-01	0	57	104	746586112	63	31715
2026-01-11 00:02:15.48	148.14	2.82	-45.9	-64.8	3.8	7.45e-01	0	57	104	746586112	63	31698
2026-01-11 00:02:16.50	148.23	2.77	-45.9	-64.8	3.8	7.46e-01	0	57	104	746586112	63	31726
2026-01-11 00:02:17.51	148.32	2.71	-45.9	-64.8	3.8	7.46e-01	0	57	104	746586112	63	31723
2026-01-11 00:02:18.52	148.41	2.65	-45.9	-64.8	3.8	7.48e-01	0	57	104	746586112	63	31730
2026-01-11 00:02:19.53	148.50	2.60	-45.9	-64.8	3.8	7.48e-01	0	57	104	746586112	63	31760
2026-01-11 00:02:20.54	148.59	2.54	-45.9	-64.8	3.8	7.46e-01	0	57	104	746586112	63	31762
2026-01-11 00:02:21.55	148.68	2.48	-45.9	-64.8	3.8	7.47e-01	0	57	104	746586112	63	31794
2026-01-11 00:02:22.56	148.77	2.42	-45.9	-64.8	3.8	7.44e-01	0	57	104	746586112	63	31695
2026-01-11 00:02:23.57	148.86	2.37	-45.9	-64.8	3.8	7.46e-01	0	57	104	746586112	63	31686
2026-01-11 00:02:24.58	148.95	2.31	-45.9	-64.8	3.8	7.48e-01	0	57	104	746586112	63	31670
2026-01-11 00:02:25.59	149.04	2.26	-45.9	-64.8	3.8	7.45e-01	0	57	104	746586112	63	31766
2026-01-11 00:02:26.61	149.12	2.20	-45.9	-64.8	3.8	7.45e-01	0	57	104	746586112	63	31712
2026-01-11 00:02:27.62	149.21	2.14	-45.9	-64.8	3.8	7.45e-01	0	57	104	746586112	63	31704
2026-01-11 00:02:28.63	149.30	2.09	-45.9	-64.8	3.8	7.46e-01	0	57	104	746586112	63	31688
2026-01-11 00:02:29.64	149.38	2.03	-45.9	-64.8	3.8	7.46e-01	0	57	104	746586112	63	31733
2026-01-11 00:02:30.65	149.47	1.97	-45.9	-64.8	3.8	7.43e-01	0	57	104	746586112	63	31707
2026-01-11 00:02:31.66	149.56	1.92	-45.9	-64.8	3.8	7.43e-01	0	57	104	746586112	63	31680

#Closed at: 2026-01-11 00:02:31
#Recorded file [746 MB]: D:/lorett/data/31039_260111_025123.dat