passes_logs/2026/01/10/R2.0S_Moscow/R2.0S_Moscow__20260110_105922_SUOMI_NPP_rec.log

#Pass ID: 20260110_105922_SUOMI NPP
#Satellite: SUOMI NPP
#Configuration: NPP
#almurnet v.1.7.20251203
#Start time: 2026-01-10 10:59:22

#Version: 2.2.20231116
#Station: R2.0S_Moscow
#Location: 37.707566 lon 55.798166 lat
#TLE: 1 37849U 11061A   26008.83076692  .00000095  00000+0  66074-4 0  9997
#TLE: 2 37849  98.7806 310.9327 0002533  74.3004 285.8451 14.19523607735834

#Time	Az	El	Level	Level2	SNR	BER	BlckErr	Temp	State	Recorded	gain1	gain2
2026-01-10 10:59:22.98	190.25	2.05	-44.0	-58.5	3.8	1.49e+00	0	47	0	0	59	19337
2026-01-10 10:59:23.99	190.30	2.11	-44.0	-58.5	3.8	1.49e+00	0	47	104	0	59	19336
2026-01-10 10:59:25.01	190.35	2.18	-44.0	-58.5	3.8	1.49e+00	0	47	104	0	59	19389
2026-01-10 10:59:26.02	190.39	2.24	-44.0	-58.5	3.8	1.49e+00	0	47	104	0	59	19324
2026-01-10 10:59:27.03	190.44	2.30	-44.0	-58.5	3.8	1.49e+00	0	47	104	0	59	19379
2026-01-10 10:59:28.04	190.49	2.36	-44.0	-58.5	3.8	1.49e+00	0	47	104	0	59	19369
2026-01-10 10:59:29.05	190.54	2.42	-44.0	-58.5	3.8	1.49e+00	0	47	104	0	59	19357
2026-01-10 10:59:30.06	190.59	2.48	-44.0	-58.5	3.8	1.49e+00	0	48	104	0	59	19370
2026-01-10 10:59:31.07	190.64	2.55	-44.0	-58.5	3.8	1.49e+00	0	48	104	0	59	19340
2026-01-10 10:59:32.08	190.69	2.61	-44.0	-58.5	3.8	1.49e+00	0	48	104	0	59	19355
2026-01-10 10:59:33.09	190.74	2.67	-44.0	-58.5	3.8	1.49e+00	0	48	104	0	59	19337
2026-01-10 10:59:34.11	190.79	2.73	-44.0	-58.5	3.8	1.49e+00	0	48	104	0	59	19365
2026-01-10 10:59:35.12	190.84	2.80	-44.0	-58.5	3.8	1.49e+00	0	48	104	0	59	19355
2026-01-10 10:59:36.13	190.89	2.86	-44.0	-58.5	3.8	1.49e+00	0	48	104	0	59	19351
2026-01-10 10:59:37.14	190.94	2.92	-44.0	-58.5	3.8	1.49e+00	0	48	104	0	59	19327
2026-01-10 10:59:38.15	190.99	2.99	-44.0	-58.5	3.8	1.49e+00	0	48	104	0	59	19333
2026-01-10 10:59:39.16	191.04	3.05	-44.0	-58.5	3.9	1.49e+00	0	48	104	0	59	19345
2026-01-10 10:59:40.17	191.10	3.11	-44.0	-58.5	3.8	1.49e+00	0	48	104	0	59	19369
2026-01-10 10:59:41.18	191.15	3.17	-44.0	-58.5	3.8	1.49e+00	0	48	104	0	59	19368
2026-01-10 10:59:42.19	191.20	3.24	-44.0	-58.5	3.8	1.49e+00	0	49	104	0	59	19355
2026-01-10 10:59:43.20	191.25	3.30	-44.0	-58.5	3.8	1.49e+00	0	49	104	0	59	19363
2026-01-10 10:59:44.21	191.30	3.37	-44.0	-58.5	3.8	1.49e+00	0	49	104	0	59	19332
2026-01-10 10:59:45.22	191.36	3.43	-44.0	-58.5	3.8	1.49e+00	0	49	104	0	59	19346
2026-01-10 10:59:46.23	191.41	3.49	-44.0	-58.5	3.8	1.49e+00	0	49	104	0	59	19380
2026-01-10 10:59:47.24	191.46	3.56	-44.0	-58.5	3.8	1.49e+00	0	49	104	0	59	19362
2026-01-10 10:59:48.26	191.52	3.62	-44.0	-58.6	3.8	1.49e+00	0	49	104	0	59	19441
2026-01-10 10:59:49.27	191.57	3.69	-44.0	-58.5	3.8	1.49e+00	0	49	104	0	59	19348
2026-01-10 10:59:50.28	191.62	3.75	-44.0	-58.5	3.8	1.49e+00	0	49	104	0	59	19346
2026-01-10 10:59:51.29	191.68	3.82	-44.0	-58.5	3.8	1.49e+00	0	49	104	0	59	19348
2026-01-10 10:59:52.30	191.73	3.88	-44.0	-58.5	3.8	1.49e+00	0	49	104	0	59	19337
2026-01-10 10:59:53.31	191.78	3.95	-44.0	-58.5	3.8	1.49e+00	0	49	104	0	59	19352
2026-01-10 10:59:54.32	191.84	4.01	-44.0	-58.5	3.8	1.49e+00	0	49	104	0	59	19361
2026-01-10 10:59:55.33	191.89	4.08	-44.0	-58.5	3.8	1.49e+00	0	49	104	0	59	19321
2026-01-10 10:59:56.34	191.95	4.14	-44.0	-58.5	3.8	1.49e+00	0	49	104	0	59	19336
2026-01-10 10:59:57.35	192.00	4.21	-44.0	-58.5	3.8	1.49e+00	0	50	104	0	59	19350
2026-01-10 10:59:58.36	192.06	4.27	-44.0	-58.5	3.8	1.49e+00	0	49	104	0	59	19371
2026-01-10 10:59:59.38	192.11	4.34	-44.0	-58.5	3.8	1.49e+00	0	49	104	0	59	19320
2026-01-10 11:00:00.39	192.17	4.40	-44.0	-58.5	3.8	1.49e+00	0	50	104	0	59	19337
2026-01-10 11:00:01.40	192.23	4.47	-44.0	-58.6	3.8	1.49e+00	0	50	104	0	59	19401
2026-01-10 11:00:02.41	192.28	4.54	-44.0	-58.5	3.8	1.49e+00	0	50	104	0	59	19298
2026-01-10 11:00:03.42	192.34	4.60	-44.0	-58.5	3.8	1.49e+00	0	50	104	0	59	19368
2026-01-10 11:00:04.43	192.40	4.67	-44.0	-58.5	3.8	1.49e+00	0	50	104	0	59	19360
2026-01-10 11:00:05.44	192.45	4.73	-44.0	-58.5	3.8	1.49e+00	0	50	104	0	59	19321
2026-01-10 11:00:06.45	192.51	4.80	-44.0	-58.5	3.8	1.49e+00	0	50	104	0	59	19351
2026-01-10 11:00:07.46	192.57	4.87	-44.0	-58.5	3.8	1.49e+00	0	50	104	0	59	19208
2026-01-10 11:00:08.47	192.63	4.94	-44.0	-58.4	3.8	1.49e+00	0	50	104	0	59	19093
2026-01-10 11:00:09.48	192.68	5.00	-44.0	-58.3	3.8	1.49e+00	0	50	104	0	59	18930
2026-01-10 11:00:10.50	192.74	5.07	-44.0	-58.2	3.8	1.49e+00	0	50	104	0	59	18598
2026-01-10 11:00:11.51	192.80	5.14	-44.0	-58.0	3.8	1.49e+00	0	50	104	0	59	18217
2026-01-10 11:00:12.52	192.86	5.21	-44.0	-57.9	3.8	1.49e+00	0	50	104	0	59	18066
2026-01-10 11:00:13.53	192.92	5.27	-44.0	-57.8	3.8	1.49e+00	0	50	104	0	59	17800
2026-01-10 11:00:14.54	192.98	5.34	-44.0	-57.7	3.8	1.49e+00	0	50	104	0	59	17498
2026-01-10 11:00:15.55	193.04	5.41	-44.0	-57.5	3.8	1.49e+00	0	50	104	0	59	17266
2026-01-10 11:00:16.56	193.10	5.48	-44.0	-57.3	3.8	1.49e+00	0	50	104	0	59	16864
2026-01-10 11:00:17.57	193.16	5.55	-44.0	-57.2	3.8	1.49e+00	0	50	104	0	59	16644
2026-01-10 11:00:18.58	193.22	5.61	-44.0	-57.1	3.8	1.49e+00	0	51	104	0	59	16440
2026-01-10 11:00:19.59	193.28	5.68	-43.9	-57.0	3.8	1.49e+00	0	50	104	0	59	16297
2026-01-10 11:00:20.61	193.34	5.75	-44.0	-57.1	3.8	1.49e+00	0	51	104	0	59	16499
2026-01-10 11:00:21.62	193.40	5.82	-43.9	-57.0	3.8	1.49e+00	0	51	104	0	59	16243
2026-01-10 11:00:22.63	193.46	5.89	-43.9	-57.0	3.8	1.49e+00	0	51	104	0	59	16243
2026-01-10 11:00:23.64	193.53	5.96	-43.9	-56.9	3.8	1.49e+00	0	51	104	0	59	16109
2026-01-10 11:00:24.65	193.59	6.03	-43.9	-56.9	3.8	1.49e+00	0	51	104	0	59	15978
2026-01-10 11:00:25.66	193.65	6.10	-43.9	-56.8	3.8	1.49e+00	0	51	104	0	59	15834
2026-01-10 11:00:26.67	193.71	6.17	-43.9	-56.7	3.8	1.48e+00	0	51	104	0	59	15728
2026-01-10 11:00:27.68	193.78	6.24	-43.9	-56.4	3.8	1.49e+00	0	51	104	0	59	15214
2026-01-10 11:00:28.69	193.84	6.31	-43.9	-56.1	4.0	1.48e+00	0	51	104	0	59	14571
2026-01-10 11:00:29.70	193.90	6.38	-43.9	-56.1	3.8	1.48e+00	0	51	104	0	59	14585
2026-01-10 11:00:30.71	193.97	6.45	-43.9	-55.7	3.9	1.46e+00	0	51	104	0	59	14007
2026-01-10 11:00:31.72	194.03	6.52	-43.8	-55.3	4.1	1.43e+00	0	51	0	0	59	13270
2026-01-10 11:00:32.74	194.10	6.59	-43.8	-54.7	4.3	1.35e+00	0	51	0	0	59	12411
2026-01-10 11:00:33.75	194.16	6.66	-43.7	-54.2	4.5	1.30e+00	0	51	0	1048576	59	11732
2026-01-10 11:00:34.76	194.23	6.73	-43.7	-53.5	4.8	9.54e-01	0	51	0	2097152	59	10788
2026-01-10 11:00:35.77	194.29	6.80	-43.6	-52.9	5.0	7.44e-01	0	51	0	4194304	59	10111
2026-01-10 11:00:36.78	194.36	6.88	-43.5	-52.0	5.6	6.00e-01	0	51	0	6291456	58	9712
2026-01-10 11:00:37.79	194.42	6.95	-43.4	-51.5	6.0	4.22e-01	0	51	0	8388608	58	9109
2026-01-10 11:00:38.80	194.49	7.02	-43.2	-50.7	6.6	2.26e-01	0	51	0	10485760	58	8330
2026-01-10 11:00:39.81	194.55	7.09	-43.0	-49.9	7.3	1.46e-01	0	52	0	12582912	58	7626
2026-01-10 11:00:40.82	194.62	7.16	-42.9	-49.5	7.7	9.62e-02	0	51	0	13631488	57	7641
2026-01-10 11:00:41.83	194.69	7.23	-42.7	-48.9	8.3	6.63e-02	0	52	0	15728640	57	7150
2026-01-10 11:00:42.84	194.76	7.31	-42.6	-48.3	8.9	3.03e-02	0	52	0	17825792	57	6658
2026-01-10 11:00:43.85	194.82	7.38	-42.4	-47.7	9.5	2.09e-02	0	52	0	19922944	56	6607
2026-01-10 11:00:44.86	194.89	7.45	-42.3	-47.5	9.7	1.23e-02	0	52	0	22020096	56	6447
2026-01-10 11:00:45.87	194.96	7.53	-42.1	-47.0	10.3	6.56e-03	0	52	0	23068672	56	6064
2026-01-10 11:00:46.88	195.03	7.60	-42.1	-47.0	10.3	6.12e-03	0	52	0	25165824	56	6086
2026-01-10 11:00:47.89	195.10	7.67	-42.0	-46.7	10.5	4.40e-03	0	52	0	27262976	56	5910
2026-01-10 11:00:48.90	195.17	7.75	-42.1	-47.0	10.2	4.97e-03	0	52	0	29360128	56	6130
2026-01-10 11:00:49.91	195.24	7.82	-42.1	-47.0	10.2	5.16e-03	0	52	0	31457280	56	6131
2026-01-10 11:00:50.93	195.31	7.89	-42.3	-47.6	9.7	6.29e-03	0	52	0	32505856	56	6507
2026-01-10 11:00:51.94	195.38	7.97	-42.4	-47.8	9.4	1.19e-02	0	52	0	34603008	56	6676
2026-01-10 11:00:52.95	195.45	8.04	-42.5	-48.2	9.0	1.91e-02	0	52	0	36700160	56	7038
2026-01-10 11:00:53.96	195.52	8.12	-42.1	-46.8	10.5	1.15e-02	0	52	0	38797312	56	5956
2026-01-10 11:00:54.97	195.59	8.19	-43.6	-54.5	4.4	3.23e-01	0	52	0	40894464	57	13647
2026-01-10 11:00:55.98	195.66	8.27	-43.9	-53.6	5.0	7.51e-02	0	52	0	41943040	58	11600
2026-01-10 11:00:56.99	195.74	8.34	-42.6	-48.0	9.4	3.22e-01	0	52	0	44040192	57	6422
2026-01-10 11:00:58.00	195.81	8.42	-44.0	-57.6	3.8	7.35e-01	0	52	104	45088768	58	18417
2026-01-10 11:00:59.01	195.88	8.49	-42.3	-47.3	10.0	7.23e-01	0	52	0	45088768	56	6321
2026-01-10 11:01:00.02	195.96	8.57	-42.2	-47.0	10.4	4.66e-03	0	52	0	47185920	56	6083
2026-01-10 11:01:01.03	196.03	8.64	-42.2	-47.2	10.2	5.61e-03	0	52	0	48234496	56	6218
2026-01-10 11:01:02.03	196.10	8.72	-42.1	-46.7	10.7	4.37e-03	0	52	0	50331648	56	5899
2026-01-10 11:01:03.04	196.18	8.79	-42.0	-46.5	10.9	2.88e-03	0	52	0	52428800	56	5761
2026-01-10 11:01:04.05	196.25	8.87	-41.6	-45.9	11.4	1.82e-03	0	52	0	54525952	55	5659
2026-01-10 11:01:05.06	196.33	8.95	-41.6	-45.8	11.5	9.54e-04	0	52	0	56623104	55	5640
2026-01-10 11:01:06.07	196.40	9.02	-41.5	-45.6	11.7	5.90e-04	0	52	0	57671680	54	5805
2026-01-10 11:01:07.08	196.48	9.10	-41.5	-45.6	11.7	6.44e-04	0	52	0	59768832	54	5824
2026-01-10 11:01:08.09	196.55	9.18	-41.5	-45.6	11.7	5.32e-04	0	52	0	61865984	54	5810
2026-01-10 11:01:09.10	196.63	9.25	-41.5	-45.6	11.6	6.81e-04	0	53	0	63963136	54	5829
2026-01-10 11:01:10.11	196.71	9.33	-41.3	-45.3	12.1	3.68e-04	0	52	0	66060288	54	5595
2026-01-10 11:01:11.12	196.78	9.41	-41.3	-45.2	12.1	2.16e-04	0	52	0	67108864	54	5583
2026-01-10 11:01:12.13	196.86	9.49	-41.3	-45.1	12.2	2.60e-04	0	53	0	69206016	54	5528
2026-01-10 11:01:13.14	196.94	9.56	-41.2	-44.9	12.4	1.60e-04	0	53	0	71303168	54	5402
2026-01-10 11:01:14.15	197.02	9.64	-41.1	-44.9	12.4	1.43e-04	0	53	0	73400320	54	5345
2026-01-10 11:01:15.16	197.10	9.72	-40.9	-44.7	12.3	1.36e-04	0	53	0	75497472	53	5532
2026-01-10 11:01:16.17	197.18	9.80	-40.8	-44.8	11.8	3.39e-04	0	53	0	76546048	53	5612
2026-01-10 11:01:17.18	197.26	9.88	-40.4	-44.5	11.5	7.25e-04	0	53	0	78643200	52	5754
2026-01-10 11:01:18.19	197.34	9.96	-40.1	-44.4	11.3	1.10e-03	0	53	0	80740352	52	5677
2026-01-10 11:01:19.20	197.42	10.04	-40.0	-44.6	10.7	2.39e-03	0	53	0	82837504	51	6185
2026-01-10 11:01:20.20	197.50	10.12	-39.7	-44.4	10.6	4.14e-03	0	53	0	84934656	51	6010
2026-01-10 11:01:21.21	197.58	10.19	-39.6	-44.5	10.2	6.14e-03	0	53	0	85983232	51	6072
2026-01-10 11:01:22.22	197.66	10.27	-39.3	-44.3	10.1	6.94e-03	0	53	0	88080384	50	6344
2026-01-10 11:01:23.23	197.75	10.35	-39.1	-44.2	9.9	8.51e-03	0	53	0	90177536	50	6253
2026-01-10 11:01:24.24	197.83	10.44	-39.0	-44.2	9.9	8.51e-03	0	53	0	92274688	50	6263
2026-01-10 11:01:25.25	197.91	10.52	-39.1	-44.4	9.8	1.00e-02	0	53	0	94371840	50	6355
2026-01-10 11:01:26.26	197.99	10.60	-39.1	-44.3	10.0	8.34e-03	0	53	0	95420416	50	6321
2026-01-10 11:01:27.27	198.08	10.68	-39.1	-43.9	10.5	5.12e-03	0	53	0	97517568	50	6045
2026-01-10 11:01:28.28	198.16	10.76	-39.3	-44.2	10.5	3.78e-03	0	53	0	99614720	50	6250
2026-01-10 11:01:29.29	198.25	10.84	-39.5	-44.2	10.9	2.53e-03	0	53	0	101711872	50	6228
2026-01-10 11:01:30.30	198.33	10.92	-39.8	-44.2	11.3	1.46e-03	0	53	0	103809024	50	6253
2026-01-10 11:01:31.31	198.42	11.00	-40.0	-44.3	11.6	9.15e-04	0	53	0	105906176	50	6304
2026-01-10 11:01:32.32	198.51	11.09	-40.2	-44.3	11.8	7.60e-04	0	53	0	106954752	50	6281
2026-01-10 11:01:33.33	198.59	11.17	-40.5	-44.4	12.0	4.45e-04	0	53	0	109051904	51	6058
2026-01-10 11:01:34.34	198.68	11.25	-40.6	-44.4	12.3	1.94e-04	0	53	0	111149056	51	6043
2026-01-10 11:01:35.35	198.77	11.33	-40.6	-44.4	12.4	1.82e-04	0	53	0	113246208	52	5707
2026-01-10 11:01:36.36	198.86	11.42	-40.7	-44.3	12.7	1.31e-04	0	53	0	115343360	52	5632
2026-01-10 11:01:37.37	198.95	11.50	-40.8	-44.4	12.8	5.72e-05	0	53	0	116391936	52	5677
2026-01-10 11:01:38.37	199.03	11.58	-40.9	-44.6	12.7	5.87e-05	0	53	0	118489088	52	5793
2026-01-10 11:01:39.38	199.12	11.66	-40.9	-44.6	12.5	6.71e-05	0	54	0	120586240	52	5837
2026-01-10 11:01:40.39	199.21	11.75	-40.6	-44.4	12.6	1.31e-04	0	53	0	122683392	52	5659
2026-01-10 11:01:41.40	199.30	11.83	-40.5	-44.4	12.4	1.50e-04	0	53	0	124780544	52	5675
2026-01-10 11:01:42.41	199.40	11.92	-40.4	-44.3	12.4	1.23e-04	0	53	0	125829120	52	5645
2026-01-10 11:01:43.42	199.49	12.00	-40.4	-44.6	11.9	3.12e-04	0	53	0	127926272	52	5791
2026-01-10 11:01:44.43	199.58	12.09	-40.3	-44.4	12.0	3.51e-04	0	54	0	130023424	52	5716
2026-01-10 11:01:45.44	199.67	12.17	-40.2	-44.6	11.6	4.78e-04	0	53	0	132120576	52	5792
2026-01-10 11:01:46.45	199.77	12.26	-40.1	-44.5	11.5	6.44e-04	0	54	0	134217728	52	5753
2026-01-10 11:01:47.45	199.86	12.34	-40.0	-44.4	11.7	6.42e-04	0	54	0	135266304	52	5664
2026-01-10 11:01:48.46	199.95	12.43	-40.1	-44.4	11.7	5.16e-04	0	54	0	137363456	52	5680
2026-01-10 11:01:49.47	200.05	12.51	-40.1	-44.2	12.0	4.17e-04	0	53	0	139460608	52	5567
2026-01-10 11:01:50.48	200.14	12.60	-40.2	-44.2	12.1	2.59e-04	0	54	0	141557760	52	5554
2026-01-10 11:01:51.49	200.24	12.68	-40.2	-43.9	12.5	1.82e-04	0	53	0	143654912	52	5369
2026-01-10 11:01:52.50	200.34	12.77	-40.3	-44.0	12.6	9.68e-05	0	54	0	144703488	52	5410
2026-01-10 11:01:53.51	200.43	12.86	-40.4	-44.1	12.6	9.91e-05	0	54	0	146800640	52	5470
2026-01-10 11:01:54.52	200.53	12.94	-40.4	-44.0	12.8	1.16e-04	0	54	0	148897792	52	5428
2026-01-10 11:01:55.53	200.63	13.03	-40.4	-43.9	12.9	6.48e-05	0	54	0	150994944	52	5365
2026-01-10 11:01:56.54	200.73	13.12	-40.4	-43.9	13.0	4.95e-05	0	54	0	153092096	52	5341
2026-01-10 11:01:57.55	200.83	13.21	-40.5	-43.9	13.0	4.27e-05	0	54	0	154140672	52	5372
2026-01-10 11:01:58.56	200.93	13.29	-40.4	-43.7	13.3	2.51e-05	0	54	0	156237824	52	5257
2026-01-10 11:01:59.57	201.03	13.38	-40.4	-43.6	13.5	7.60e-06	0	54	0	158334976	52	5204
2026-01-10 11:02:00.58	201.13	13.47	-40.6	-43.8	13.5	1.98e-05	0	54	0	160432128	52	5293
2026-01-10 11:02:01.59	201.23	13.56	-40.6	-43.8	13.6	6.10e-06	0	54	0	162529280	52	5302
2026-01-10 11:02:02.60	201.33	13.65	-40.6	-43.7	13.8	6.10e-06	0	54	0	163577856	52	5257
2026-01-10 11:02:03.61	201.43	13.74	-40.6	-43.6	14.1	3.00e-06	0	54	0	165675008	52	5166
2026-01-10 11:02:04.61	201.54	13.83	-40.7	-43.7	14.1	7.00e-07	0	54	0	167772160	52	5222
2026-01-10 11:02:05.62	201.64	13.92	-40.7	-43.6	14.2	0.00e+00	0	54	0	169869312	52	5218
2026-01-10 11:02:06.63	201.75	14.01	-40.7	-43.7	14.2	7.00e-07	0	54	0	171966464	52	5227
2026-01-10 11:02:07.64	201.85	14.10	-40.6	-43.5	14.3	1.50e-06	0	54	0	174063616	52	5148
2026-01-10 11:02:08.65	201.96	14.19	-40.6	-43.6	14.3	1.50e-06	0	54	0	175112192	52	5165
2026-01-10 11:02:09.66	202.06	14.28	-40.6	-43.4	14.4	0.00e+00	0	54	0	177209344	52	5096
2026-01-10 11:02:10.67	202.17	14.37	-40.7	-43.7	14.1	0.00e+00	0	54	0	179306496	52	5263
2026-01-10 11:02:11.68	202.28	14.46	-40.7	-43.7	14.2	7.00e-07	0	54	0	181403648	52	5244
2026-01-10 11:02:12.69	202.39	14.55	-40.7	-43.8	14.0	7.00e-07	0	54	0	183500800	52	5291
2026-01-10 11:02:13.70	202.49	14.64	-40.7	-43.7	14.1	1.50e-06	0	54	0	184549376	52	5238
2026-01-10 11:02:14.71	202.60	14.73	-40.6	-43.6	14.2	7.00e-07	0	54	0	186646528	52	5191
2026-01-10 11:02:15.72	202.71	14.83	-40.6	-43.6	14.2	7.00e-07	0	54	0	188743680	52	5167
2026-01-10 11:02:16.73	202.83	14.92	-40.5	-43.5	14.3	3.00e-06	0	54	0	190840832	52	5120
2026-01-10 11:02:17.74	202.94	15.01	-40.7	-43.7	14.2	7.00e-07	0	54	0	192937984	52	5257
2026-01-10 11:02:18.74	203.05	15.10	-40.8	-43.8	14.1	2.20e-06	0	54	0	193986560	52	5291
2026-01-10 11:02:19.75	203.16	15.20	-40.8	-43.8	14.1	1.50e-06	0	54	0	196083712	52	5338
2026-01-10 11:02:20.76	203.27	15.29	-40.8	-43.8	14.1	3.00e-06	0	54	0	198180864	52	5307
2026-01-10 11:02:21.77	203.39	15.38	-40.9	-44.0	14.0	3.80e-06	0	54	0	200278016	52	5420
2026-01-10 11:02:22.78	203.50	15.48	-40.7	-43.7	14.2	3.80e-06	0	54	0	202375168	52	5267
2026-01-10 11:02:23.79	203.62	15.57	-40.7	-43.7	14.3	7.00e-07	0	54	0	203423744	52	5228
2026-01-10 11:02:24.80	203.74	15.67	-41.0	-44.1	13.9	7.00e-07	0	54	0	205520896	52	5497
2026-01-10 11:02:25.81	203.85	15.76	-40.9	-44.0	13.9	3.00e-06	0	54	0	207618048	52	5447
2026-01-10 11:02:26.82	203.97	15.86	-40.8	-43.8	14.2	7.00e-07	0	54	0	209715200	52	5295
2026-01-10 11:02:27.83	204.09	15.95	-40.8	-43.8	14.1	2.20e-06	0	54	0	211812352	52	5338
2026-01-10 11:02:28.84	204.21	16.05	-40.9	-44.0	14.0	2.20e-06	0	54	0	212860928	52	5435
2026-01-10 11:02:29.85	204.33	16.14	-40.8	-43.9	14.1	3.00e-06	0	54	0	214958080	52	5353
2026-01-10 11:02:30.86	204.45	16.24	-40.9	-44.0	13.9	1.50e-06	0	54	0	217055232	52	5440
2026-01-10 11:02:31.87	204.57	16.34	-41.0	-44.1	13.8	5.30e-06	0	54	0	219152384	52	5508
2026-01-10 11:02:32.88	204.69	16.43	-41.0	-44.2	13.7	3.00e-06	0	54	0	221249536	52	5576
2026-01-10 11:02:33.89	204.82	16.53	-41.0	-44.1	13.8	1.50e-06	0	54	0	222298112	52	5523
2026-01-10 11:02:34.90	204.94	16.63	-41.1	-44.3	13.7	6.80e-06	0	54	0	224395264	52	5626
2026-01-10 11:02:35.90	205.06	16.72	-41.2	-44.4	13.6	3.00e-06	0	55	0	226492416	52	5710
2026-01-10 11:02:36.91	205.19	16.82	-41.1	-44.4	13.8	6.10e-06	0	54	0	228589568	52	5661
2026-01-10 11:02:37.92	205.32	16.92	-41.0	-44.2	13.8	4.50e-06	0	54	0	230686720	52	5563
2026-01-10 11:02:38.93	205.44	17.02	-41.0	-44.2	13.8	3.80e-06	0	55	0	231735296	52	5567
2026-01-10 11:02:39.94	205.57	17.11	-41.1	-44.3	13.7	7.60e-06	0	55	0	233832448	52	5598
2026-01-10 11:02:40.95	205.70	17.21	-41.1	-44.3	13.7	1.37e-05	0	54	0	235929600	53	5291
2026-01-10 11:02:41.96	205.83	17.31	-41.0	-44.2	13.9	4.50e-06	0	55	0	238026752	53	5224
2026-01-10 11:02:42.97	205.96	17.41	-41.1	-44.2	13.8	0.00e+00	0	55	0	240123904	53	5269
2026-01-10 11:02:43.98	206.09	17.51	-41.0	-44.1	14.0	5.30e-06	0	54	0	242221056	53	5171
2026-01-10 11:02:44.99	206.22	17.61	-40.9	-43.9	14.1	7.00e-07	0	54	0	243269632	53	5097
2026-01-10 11:02:46.00	206.35	17.71	-40.8	-43.8	14.2	7.00e-07	0	54	0	245366784	53	5029
2026-01-10 11:02:47.01	206.49	17.81	-40.8	-43.8	14.3	2.20e-06	0	55	0	247463936	53	5033
2026-01-10 11:02:48.02	206.62	17.91	-40.8	-43.8	14.3	0.00e+00	0	55	0	249561088	53	4995
2026-01-10 11:02:49.03	206.76	18.01	-40.7	-43.6	14.4	7.00e-07	0	55	0	250609664	53	4916
2026-01-10 11:02:50.03	206.89	18.11	-40.9	-43.9	14.1	1.50e-06	0	55	0	252706816	53	5090
2026-01-10 11:02:51.04	207.03	18.21	-40.6	-43.5	14.6	7.00e-07	0	55	0	254803968	53	4822
2026-01-10 11:02:52.05	207.17	18.31	-40.8	-43.8	14.3	2.20e-06	0	55	0	256901120	53	5019
2026-01-10 11:02:53.06	207.31	18.42	-41.0	-44.1	14.0	7.00e-07	0	55	0	258998272	53	5168
2026-01-10 11:02:54.07	207.45	18.52	-40.9	-43.9	14.2	3.00e-06	0	55	0	260046848	53	5056
2026-01-10 11:02:55.08	207.59	18.62	-41.1	-44.2	13.9	1.50e-06	0	55	0	262144000	53	5220
2026-01-10 11:02:56.09	207.73	18.72	-41.2	-44.3	13.7	2.20e-06	0	55	0	264241152	53	5326
2026-01-10 11:02:57.10	207.87	18.83	-41.2	-44.4	13.7	4.50e-06	0	55	0	266338304	53	5368
2026-01-10 11:02:58.11	208.02	18.93	-41.2	-44.4	13.7	7.60e-06	0	55	0	268435456	53	5389
2026-01-10 11:02:59.12	208.16	19.03	-41.3	-44.6	13.5	1.44e-05	0	55	0	270532608	53	5492
2026-01-10 11:03:00.13	208.31	19.14	-41.3	-44.5	13.5	1.67e-05	0	55	0	271581184	53	5446
2026-01-10 11:03:01.14	208.45	19.24	-41.3	-44.7	13.4	1.52e-05	0	55	0	273678336	53	5537
2026-01-10 11:03:02.15	208.60	19.34	-41.4	-44.7	13.3	1.83e-05	0	55	0	275775488	53	5570
2026-01-10 11:03:03.16	208.75	19.45	-41.3	-44.5	13.4	9.90e-06	0	55	0	277872640	53	5448
2026-01-10 11:03:04.17	208.90	19.55	-41.4	-44.7	13.3	1.06e-05	0	55	0	279969792	53	5587
2026-01-10 11:03:05.18	209.05	19.66	-41.3	-44.6	13.4	8.30e-06	0	55	0	281018368	53	5518
2026-01-10 11:03:06.19	209.20	19.76	-41.2	-44.4	13.6	1.14e-05	0	55	0	283115520	53	5390
2026-01-10 11:03:07.20	209.35	19.87	-41.2	-44.3	13.8	3.80e-06	0	55	0	285212672	53	5327
2026-01-10 11:03:08.21	209.50	19.97	-41.2	-44.3	13.8	5.30e-06	0	55	0	287309824	53	5322
2026-01-10 11:03:09.22	209.66	20.08	-41.1	-44.2	13.9	5.30e-06	0	55	0	289406976	53	5248
2026-01-10 11:03:10.23	209.81	20.19	-41.1	-44.2	13.9	4.50e-06	0	55	0	290455552	53	5269
2026-01-10 11:03:11.24	209.97	20.29	-41.2	-44.3	13.9	2.20e-06	0	55	0	292552704	53	5291
2026-01-10 11:03:12.25	210.13	20.40	-41.0	-44.1	14.1	4.50e-06	0	55	0	294649856	53	5173
2026-01-10 11:03:13.26	210.29	20.51	-41.1	-44.1	14.0	3.00e-06	0	55	0	296747008	53	5199
2026-01-10 11:03:14.27	210.45	20.61	-41.1	-44.2	13.8	1.50e-06	0	55	0	298844160	53	5267
2026-01-10 11:03:15.28	210.61	20.72	-41.1	-44.3	13.8	6.10e-06	0	55	0	299892736	53	5300
2026-01-10 11:03:16.29	210.77	20.83	-41.1	-44.2	13.9	6.10e-06	0	55	0	301989888	53	5277
2026-01-10 11:03:17.30	210.93	20.94	-41.1	-44.3	13.8	3.00e-06	0	55	0	304087040	53	5298
2026-01-10 11:03:18.31	211.10	21.04	-41.2	-44.3	13.8	8.30e-06	0	55	0	306184192	53	5310
2026-01-10 11:03:19.32	211.26	21.15	-41.3	-44.5	13.6	7.60e-06	0	55	0	308281344	53	5454
2026-01-10 11:03:20.33	211.43	21.26	-41.3	-44.5	13.6	6.10e-06	0	55	0	309329920	53	5408
2026-01-10 11:03:21.34	211.60	21.37	-41.3	-44.6	13.5	1.37e-05	0	55	0	311427072	53	5490
2026-01-10 11:03:22.35	211.76	21.48	-41.3	-44.6	13.6	1.14e-05	0	55	0	313524224	53	5478
2026-01-10 11:03:23.36	211.93	21.59	-41.4	-44.8	13.4	9.90e-06	0	55	0	315621376	53	5616
2026-01-10 11:03:24.37	212.11	21.70	-41.4	-44.6	13.5	6.10e-06	0	55	0	317718528	53	5520
2026-01-10 11:03:25.38	212.28	21.81	-41.4	-44.6	13.5	1.06e-05	0	55	0	318767104	53	5501
2026-01-10 11:03:26.39	212.45	21.92	-41.3	-44.5	13.7	3.80e-06	0	55	0	320864256	53	5408
2026-01-10 11:03:27.40	212.63	22.03	-41.1	-44.2	14.0	1.50e-06	0	55	0	322961408	53	5240
2026-01-10 11:03:28.41	212.80	22.14	-41.0	-44.1	14.1	3.00e-06	0	55	0	325058560	53	5170
2026-01-10 11:03:29.42	212.98	22.25	-41.0	-43.9	14.2	3.80e-06	0	55	0	327155712	53	5094
2026-01-10 11:03:30.42	213.15	22.36	-40.8	-43.7	14.5	1.50e-06	0	55	0	328204288	53	4930
2026-01-10 11:03:31.43	213.33	22.47	-40.9	-43.8	14.4	7.00e-07	0	55	0	330301440	53	4984
2026-01-10 11:03:32.44	213.51	22.58	-40.9	-43.8	14.3	7.00e-07	0	55	0	332398592	53	5015
2026-01-10 11:03:33.45	213.70	22.69	-41.0	-44.0	14.2	1.50e-06	0	55	0	334495744	53	5159
2026-01-10 11:03:34.46	213.88	22.80	-41.0	-44.1	14.1	3.80e-06	0	55	0	336592896	53	5160
2026-01-10 11:03:35.47	214.06	22.91	-41.1	-44.2	13.9	4.50e-06	0	55	0	338690048	53	5251
2026-01-10 11:03:36.48	214.25	23.02	-41.2	-44.3	13.9	1.50e-06	0	55	0	339738624	53	5293
2026-01-10 11:03:37.49	214.44	23.14	-41.2	-44.3	13.9	6.80e-06	0	55	0	341835776	53	5297
2026-01-10 11:03:38.50	214.63	23.25	-41.2	-44.2	13.9	3.00e-06	0	55	0	343932928	53	5274
2026-01-10 11:03:39.51	214.82	23.36	-41.0	-44.0	14.2	1.50e-06	0	55	0	346030080	53	5123
2026-01-10 11:03:40.52	215.01	23.47	-40.9	-43.8	14.4	7.00e-07	0	55	0	348127232	53	5014
2026-01-10 11:03:41.53	215.20	23.59	-40.7	-43.5	14.7	7.00e-07	0	55	0	349175808	53	4818
2026-01-10 11:03:42.54	215.39	23.70	-40.8	-43.6	14.6	0.00e+00	0	55	0	351272960	53	4882
2026-01-10 11:03:43.56	215.59	23.81	-40.9	-43.8	14.4	7.00e-07	0	55	0	353370112	53	4991
2026-01-10 11:03:44.57	215.79	23.93	-40.7	-43.5	14.7	0.00e+00	0	55	0	355467264	53	4846
2026-01-10 11:03:45.58	215.98	24.04	-40.7	-43.5	14.6	7.00e-07	0	55	0	357564416	53	4849
2026-01-10 11:03:46.58	216.18	24.15	-41.0	-44.0	14.1	1.50e-06	0	55	0	358612992	53	5148
2026-01-10 11:03:47.59	216.38	24.26	-41.1	-44.1	14.1	2.20e-06	0	55	0	360710144	53	5197
2026-01-10 11:03:48.60	216.58	24.38	-41.1	-44.2	14.0	2.20e-06	0	55	0	362807296	53	5269
2026-01-10 11:03:49.61	216.79	24.49	-41.4	-44.7	13.4	5.30e-06	0	55	0	364904448	53	5576
2026-01-10 11:03:50.62	216.99	24.61	-41.3	-44.6	13.6	1.37e-05	0	55	0	367001600	53	5482
2026-01-10 11:03:51.63	217.20	24.72	-41.4	-44.6	13.6	6.10e-06	0	55	0	368050176	53	5499
2026-01-10 11:03:52.64	217.41	24.83	-41.0	-44.0	14.1	6.10e-06	0	55	0	370147328	53	5150
2026-01-10 11:03:53.65	217.62	24.95	-41.0	-44.0	14.2	3.00e-06	0	55	0	372244480	53	5113
2026-01-10 11:03:54.66	217.83	25.06	-40.7	-43.6	14.6	1.50e-06	0	55	0	374341632	53	4873
2026-01-10 11:03:55.67	218.04	25.18	-40.7	-43.4	14.8	0.00e+00	0	55	0	376438784	53	4795
2026-01-10 11:03:56.68	218.25	25.29	-40.6	-43.3	14.9	0.00e+00	0	55	0	378535936	53	4710
2026-01-10 11:03:57.69	218.47	25.41	-40.7	-43.5	14.8	0.00e+00	0	55	0	379584512	53	4820
2026-01-10 11:03:58.70	218.69	25.52	-40.6	-43.4	14.8	0.00e+00	0	55	0	381681664	53	4788
2026-01-10 11:03:59.71	218.91	25.64	-40.6	-43.3	14.9	0.00e+00	0	55	0	383778816	53	4729
2026-01-10 11:04:00.71	219.12	25.75	-40.8	-43.6	14.6	7.00e-07	0	55	0	385875968	53	4913
2026-01-10 11:04:01.72	219.34	25.86	-40.7	-43.5	14.7	7.00e-07	0	55	0	386924544	53	4835
2026-01-10 11:04:02.73	219.57	25.98	-40.8	-43.6	14.6	0.00e+00	0	55	0	389021696	53	4882
2026-01-10 11:04:03.75	219.80	26.10	-40.7	-43.5	14.7	0.00e+00	0	55	0	391118848	53	4870
2026-01-10 11:04:04.75	220.02	26.21	-40.8	-43.6	14.6	7.00e-07	0	55	0	393216000	53	4915
2026-01-10 11:04:05.76	220.25	26.32	-40.7	-43.4	14.8	0.00e+00	0	55	0	395313152	53	4798
2026-01-10 11:04:06.77	220.48	26.44	-40.6	-43.3	14.9	0.00e+00	0	55	0	396361728	53	4719
2026-01-10 11:04:07.78	220.71	26.55	-40.6	-43.3	14.9	0.00e+00	0	55	0	398458880	53	4743
2026-01-10 11:04:08.79	220.94	26.67	-40.7	-43.5	14.7	0.00e+00	0	55	0	400556032	53	4843
2026-01-10 11:04:09.80	221.18	26.78	-40.5	-43.1	15.1	0.00e+00	0	55	0	402653184	53	4649
2026-01-10 11:04:10.81	221.41	26.90	-40.6	-43.4	14.9	7.00e-07	0	56	0	404750336	53	4767
2026-01-10 11:04:11.82	221.65	27.01	-40.4	-43.0	15.2	0.00e+00	0	55	0	406847488	52	4852
2026-01-10 11:04:12.83	221.89	27.13	-40.5	-43.1	15.1	0.00e+00	0	55	0	407896064	52	4926
2026-01-10 11:04:13.83	222.13	27.24	-40.5	-43.2	15.0	0.00e+00	0	56	0	409993216	52	4946
2026-01-10 11:04:14.84	222.37	27.36	-40.6	-43.3	14.9	0.00e+00	0	56	0	412090368	52	5032
2026-01-10 11:04:15.85	222.62	27.47	-40.4	-43.0	15.1	0.00e+00	0	55	0	414187520	52	4870
2026-01-10 11:04:16.86	222.86	27.59	-40.6	-43.2	15.0	0.00e+00	0	55	0	416284672	52	4983
2026-01-10 11:04:17.87	223.11	27.70	-40.7	-43.5	14.7	7.00e-07	0	56	0	417333248	52	5112
2026-01-10 11:04:18.88	223.36	27.82	-40.7	-43.5	14.7	0.00e+00	0	55	0	419430400	52	5114
2026-01-10 11:04:19.89	223.61	27.93	-41.0	-43.9	14.3	0.00e+00	0	55	0	421527552	52	5382
2026-01-10 11:04:20.90	223.87	28.04	-40.9	-43.8	14.4	1.50e-06	0	55	0	423624704	52	5289
2026-01-10 11:04:21.91	224.12	28.16	-41.0	-44.0	14.3	7.00e-07	0	55	0	425721856	52	5404
2026-01-10 11:04:22.92	224.38	28.27	-40.9	-43.9	14.4	0.00e+00	0	55	0	426770432	52	5352
2026-01-10 11:04:23.93	224.64	28.39	-40.9	-43.8	14.5	1.50e-06	0	55	0	428867584	52	5309
2026-01-10 11:04:24.94	224.90	28.50	-41.0	-44.0	14.2	7.00e-07	0	55	0	430964736	52	5439
2026-01-10 11:04:25.95	225.16	28.61	-41.0	-44.0	14.3	1.50e-06	0	55	0	433061888	52	5425
2026-01-10 11:04:26.96	225.42	28.73	-41.0	-43.9	14.4	0.00e+00	0	55	0	435159040	52	5371
2026-01-10 11:04:27.97	225.69	28.84	-41.0	-43.9	14.3	7.00e-07	0	55	0	436207616	52	5390
2026-01-10 11:04:28.98	225.96	28.95	-41.2	-44.2	14.0	2.20e-06	0	55	0	438304768	52	5582
2026-01-10 11:04:29.99	226.23	29.07	-41.1	-44.2	14.1	3.00e-06	0	56	0	440401920	53	5227
2026-01-10 11:04:31.00	226.50	29.18	-41.3	-44.4	13.8	3.80e-06	0	56	0	442499072	53	5392
2026-01-10 11:04:32.00	226.77	29.29	-41.5	-44.9	13.3	8.30e-06	0	56	0	444596224	53	5676
2026-01-10 11:04:33.01	227.04	29.40	-41.7	-45.1	13.1	2.13e-05	0	56	0	445644800	53	5842
2026-01-10 11:04:34.02	227.32	29.51	-41.7	-45.1	13.1	2.13e-05	0	56	0	447741952	54	5504
2026-01-10 11:04:35.03	227.60	29.63	-41.5	-44.9	13.4	2.97e-05	0	56	0	449839104	54	5351
2026-01-10 11:04:36.04	227.88	29.74	-41.5	-44.8	13.4	7.60e-06	0	55	0	451936256	54	5304
2026-01-10 11:04:37.05	228.16	29.85	-41.5	-44.8	13.4	1.60e-05	0	56	0	454033408	54	5333
2026-01-10 11:04:38.06	228.45	29.96	-41.6	-44.9	13.4	2.67e-05	0	55	0	455081984	54	5384
2026-01-10 11:04:39.07	228.74	30.07	-41.8	-45.3	13.0	3.05e-05	0	56	0	457179136	54	5634
2026-01-10 11:04:40.08	229.03	30.18	-42.0	-45.7	12.5	9.00e-05	0	56	0	459276288	54	5911
2026-01-10 11:04:41.09	229.32	30.29	-42.1	-45.9	12.3	1.30e-04	0	56	0	461373440	54	6055
2026-01-10 11:04:42.10	229.61	30.40	-42.4	-46.5	11.7	4.38e-04	0	56	0	463470592	55	6070
2026-01-10 11:04:43.11	229.90	30.50	-42.5	-46.8	11.3	5.56e-04	0	56	0	464519168	55	6326
2026-01-10 11:04:44.12	230.20	30.61	-42.5	-46.8	11.5	9.57e-04	0	56	0	466616320	55	6283
2026-01-10 11:04:45.13	230.50	30.72	-42.6	-47.0	11.2	1.26e-03	0	55	0	468713472	55	6425
2026-01-10 11:04:46.13	230.79	30.83	-42.9	-47.3	11.1	1.70e-03	0	56	0	470810624	56	6321
2026-01-10 11:04:47.15	231.10	30.94	-42.8	-47.1	11.3	1.34e-03	0	56	0	472907776	56	6181
2026-01-10 11:04:48.16	231.40	31.04	-42.6	-46.9	11.4	9.41e-04	0	56	0	475004928	56	5998
2026-01-10 11:04:49.16	231.71	31.15	-42.9	-47.5	10.9	1.93e-03	0	56	0	476053504	56	6437
2026-01-10 11:04:50.17	232.02	31.25	-43.3	-48.4	9.9	5.55e-03	0	56	0	478150656	57	6768
2026-01-10 11:04:51.18	232.33	31.36	-43.3	-48.5	9.7	1.34e-02	0	56	0	480247808	57	6861
2026-01-10 11:04:52.19	232.64	31.46	-43.3	-48.5	9.8	1.11e-02	0	56	0	482344960	57	6857
2026-01-10 11:04:53.20	232.95	31.57	-43.2	-48.1	10.2	8.08e-03	0	56	0	484442112	57	6532
2026-01-10 11:04:54.21	233.27	31.67	-42.9	-47.4	10.9	3.81e-03	0	56	0	485490688	57	6024
2026-01-10 11:04:55.22	233.59	31.77	-42.7	-47.0	11.5	1.40e-03	0	56	0	487587840	57	5732
2026-01-10 11:04:56.23	233.91	31.87	-42.6	-46.8	11.5	8.00e-04	0	56	0	489684992	57	5620
2026-01-10 11:04:57.24	234.23	31.97	-42.7	-47.1	11.4	9.35e-04	0	56	0	491782144	57	5819
2026-01-10 11:04:58.25	234.55	32.08	-42.8	-47.3	11.2	1.07e-03	0	56	0	493879296	57	5953
2026-01-10 11:04:59.25	234.87	32.17	-42.7	-46.9	11.4	1.31e-03	0	56	0	494927872	57	5698
2026-01-10 11:05:00.26	235.20	32.27	-42.8	-47.2	11.1	1.03e-03	0	56	0	497025024	57	5876
2026-01-10 11:05:01.27	235.53	32.37	-43.0	-47.8	10.5	2.31e-03	0	56	0	499122176	57	6318
2026-01-10 11:05:02.28	235.86	32.47	-43.2	-48.2	10.2	6.01e-03	0	56	0	501219328	57	6571
2026-01-10 11:05:03.29	236.20	32.57	-43.2	-48.3	10.0	7.33e-03	0	56	0	503316480	57	6676
2026-01-10 11:05:04.30	236.53	32.67	-43.2	-48.3	10.0	7.46e-03	0	56	0	504365056	57	6659
2026-01-10 11:05:05.31	236.87	32.76	-43.0	-47.8	10.6	5.77e-03	0	56	0	506462208	57	6282
2026-01-10 11:05:06.32	237.21	32.86	-43.0	-47.8	10.5	2.67e-03	0	56	0	508559360	57	6277
2026-01-10 11:05:07.33	237.55	32.95	-42.9	-47.4	11.1	2.51e-03	0	56	0	510656512	57	6006
2026-01-10 11:05:08.34	237.90	33.04	-42.7	-47.1	11.3	2.11e-03	0	56	0	512753664	57	5796
2026-01-10 11:05:09.36	238.24	33.14	-42.8	-47.3	11.0	1.34e-03	0	56	0	513802240	57	5951
2026-01-10 11:05:10.37	238.59	33.23	-42.8	-47.3	11.3	1.47e-03	0	56	0	515899392	57	5935
2026-01-10 11:05:11.38	238.94	33.32	-43.0	-47.7	10.7	2.72e-03	0	56	0	517996544	57	6247
2026-01-10 11:05:12.39	239.29	33.41	-43.1	-47.9	10.5	4.44e-03	0	56	0	520093696	57	6367
2026-01-10 11:05:13.40	239.65	33.50	-42.7	-47.0	11.4	2.81e-03	0	56	0	522190848	57	5765
2026-01-10 11:05:14.41	240.00	33.59	-42.5	-46.5	11.9	4.52e-04	0	56	0	523239424	56	5724
2026-01-10 11:05:15.42	240.36	33.67	-41.9	-45.5	12.8	6.86e-05	0	56	0	525336576	55	5409
2026-01-10 11:05:16.43	240.72	33.76	-41.7	-45.1	13.0	4.42e-05	0	56	0	527433728	55	5200
2026-01-10 11:05:17.44	241.08	33.84	-42.0	-45.6	12.6	4.19e-05	0	56	0	529530880	55	5518
2026-01-10 11:05:18.45	241.44	33.93	-42.1	-46.0	12.2	1.60e-04	0	56	0	531628032	55	5742
2026-01-10 11:05:19.46	241.80	34.01	-42.6	-46.9	11.4	7.31e-04	0	56	0	532676608	55	6399
2026-01-10 11:05:20.47	242.17	34.09	-43.1	-47.9	10.4	1.98e-03	0	56	0	534773760	56	6738
2026-01-10 11:05:21.48	242.54	34.17	-42.8	-47.2	11.2	1.71e-03	0	56	0	536870912	56	6229
2026-01-10 11:05:22.49	242.91	34.25	-42.6	-46.8	11.6	7.87e-04	0	56	0	538968064	56	5961
2026-01-10 11:05:23.50	243.28	34.33	-42.4	-46.4	12.1	4.98e-04	0	56	0	541065216	56	5674
2026-01-10 11:05:24.51	243.65	34.41	-41.8	-45.4	12.9	1.22e-04	0	56	0	543162368	55	5349
2026-01-10 11:05:25.52	244.03	34.49	-41.5	-44.8	13.5	4.04e-05	0	56	0	544210944	55	5007
2026-01-10 11:05:26.53	244.40	34.56	-41.3	-44.4	13.9	6.10e-06	0	56	0	546308096	54	5056
2026-01-10 11:05:27.54	244.78	34.64	-41.2	-44.2	13.9	3.00e-06	0	56	0	548405248	54	4973
2026-01-10 11:05:28.55	245.16	34.71	-41.3	-44.4	13.9	1.50e-06	0	56	0	550502400	54	5080
2026-01-10 11:05:29.56	245.54	34.78	-41.5	-44.7	13.5	5.30e-06	0	56	0	552599552	54	5271
2026-01-10 11:05:30.57	245.93	34.85	-41.9	-45.4	12.9	1.44e-05	0	56	0	553648128	54	5711
2026-01-10 11:05:31.58	246.31	34.92	-42.0	-45.7	12.5	9.00e-05	0	56	0	555745280	54	5901
2026-01-10 11:05:32.59	246.70	34.99	-41.8	-45.3	13.0	1.54e-04	0	56	0	557842432	54	5599
2026-01-10 11:05:33.60	247.09	35.05	-41.5	-44.7	13.6	2.67e-05	0	56	0	559939584	54	5256
2026-01-10 11:05:34.61	247.48	35.12	-41.3	-44.4	13.9	6.80e-06	0	56	0	562036736	54	5089
2026-01-10 11:05:35.62	247.87	35.18	-41.3	-44.4	13.9	2.20e-06	0	56	0	563085312	54	5079
2026-01-10 11:05:36.63	248.26	35.25	-41.4	-44.5	13.8	1.50e-06	0	56	0	565182464	54	5138
2026-01-10 11:05:37.64	248.65	35.31	-41.5	-44.7	13.5	9.90e-06	0	56	0	567279616	54	5270
2026-01-10 11:05:38.64	249.05	35.37	-41.4	-44.6	13.8	1.67e-05	0	56	0	569376768	54	5165
2026-01-10 11:05:39.65	249.44	35.43	-41.1	-44.1	14.2	6.80e-06	0	56	0	571473920	54	4881
2026-01-10 11:05:40.66	249.84	35.48	-40.9	-43.7	14.6	1.50e-06	0	56	0	572522496	53	4940
2026-01-10 11:05:41.67	250.24	35.54	-40.9	-43.8	14.5	0.00e+00	0	56	0	574619648	53	5020
2026-01-10 11:05:42.68	250.64	35.59	-41.3	-44.5	13.8	3.00e-06	0	56	0	576716800	53	5435
2026-01-10 11:05:43.69	251.04	35.65	-41.5	-44.8	13.5	9.10e-06	0	56	0	578813952	53	5616
2026-01-10 11:05:44.70	251.45	35.70	-41.4	-44.6	13.7	5.30e-06	0	56	0	580911104	53	5494
2026-01-10 11:05:45.71	251.85	35.75	-41.1	-44.1	14.2	2.20e-06	0	56	0	581959680	53	5163
2026-01-10 11:05:46.72	252.26	35.79	-41.0	-44.0	14.3	7.00e-07	0	56	0	584056832	53	5112
2026-01-10 11:05:47.73	252.66	35.84	-41.3	-44.4	14.0	6.10e-06	0	56	0	586153984	53	5346
2026-01-10 11:05:48.74	253.07	35.89	-41.7	-45.2	13.0	1.90e-05	0	56	0	588251136	54	5581
2026-01-10 11:05:49.75	253.48	35.93	-41.9	-45.5	12.7	6.02e-05	0	56	0	590348288	54	5783
2026-01-10 11:05:50.76	253.89	35.97	-41.7	-45.0	13.2	3.28e-05	0	56	0	591396864	54	5464
2026-01-10 11:05:51.77	254.30	36.01	-41.3	-44.5	13.8	1.67e-05	0	56	0	593494016	54	5113
2026-01-10 11:05:52.78	254.72	36.05	-41.3	-44.4	13.8	4.50e-06	0	56	0	595591168	54	5087
2026-01-10 11:05:53.79	255.13	36.09	-41.3	-44.4	13.8	1.50e-06	0	56	0	597688320	54	5098
2026-01-10 11:05:54.80	255.54	36.12	-41.3	-44.5	13.8	4.50e-06	0	56	0	599785472	54	5123
2026-01-10 11:05:55.80	255.95	36.16	-41.1	-44.1	14.2	1.50e-06	0	56	0	600834048	54	4882
2026-01-10 11:05:56.81	256.37	36.19	-41.1	-44.0	14.3	0.00e+00	0	56	0	602931200	54	4836
2026-01-10 11:05:57.82	256.79	36.22	-41.2	-44.2	14.1	1.50e-06	0	56	0	605028352	53	5237
2026-01-10 11:05:58.83	257.20	36.25	-41.7	-45.1	13.3	3.00e-06	0	56	0	607125504	53	5846
2026-01-10 11:05:59.84	257.62	36.28	-41.9	-45.6	12.7	5.95e-05	0	56	0	609222656	54	5805
2026-01-10 11:06:00.85	258.04	36.30	-42.1	-46.0	12.3	1.54e-04	0	56	0	611319808	54	6116
2026-01-10 11:06:01.86	258.46	36.33	-42.3	-46.2	12.0	2.66e-04	0	56	0	612368384	55	5908
2026-01-10 11:06:02.87	258.88	36.35	-42.0	-45.7	12.5	2.43e-04	0	56	0	614465536	55	5535
2026-01-10 11:06:03.88	259.30	36.37	-41.8	-45.3	13.0	4.27e-05	0	56	0	616562688	55	5290
2026-01-10 11:06:04.89	259.72	36.39	-41.6	-45.0	13.3	3.12e-05	0	56	0	618659840	55	5115
2026-01-10 11:06:05.90	260.14	36.41	-41.9	-45.4	12.8	3.43e-05	0	56	0	620756992	55	5397
2026-01-10 11:06:06.91	260.57	36.43	-42.0	-45.6	12.6	6.86e-05	0	56	0	621805568	55	5505
2026-01-10 11:06:07.92	260.99	36.44	-41.9	-45.5	12.7	6.10e-05	0	56	0	623902720	55	5423
2026-01-10 11:06:08.93	261.41	36.45	-42.2	-46.0	12.3	8.62e-05	0	56	0	625999872	55	5752
2026-01-10 11:06:09.94	261.83	36.46	-42.3	-46.3	11.9	2.87e-04	0	56	0	628097024	55	5957
2026-01-10 11:06:10.95	262.26	36.47	-42.4	-46.6	11.7	8.26e-04	0	56	0	630194176	55	6156
2026-01-10 11:06:11.96	262.68	36.48	-42.5	-46.8	11.4	7.72e-04	0	56	0	631242752	55	6305
2026-01-10 11:06:12.96	263.10	36.48	-42.3	-46.4	11.8	5.93e-04	0	56	0	633339904	55	6051
2026-01-10 11:06:13.98	263.53	36.49	-42.4	-46.5	11.8	4.10e-04	0	56	0	635437056	55	6094
2026-01-10 11:06:14.98	263.95	36.49	-41.9	-45.5	12.7	2.12e-04	0	56	0	637534208	55	5459
2026-01-10 11:06:15.99	264.37	36.49	-41.8	-45.4	12.9	6.94e-05	0	56	0	639631360	55	5346
2026-01-10 11:06:17.00	264.79	36.49	-41.6	-45.0	13.3	2.67e-05	0	56	0	640679936	55	5140
2026-01-10 11:06:18.01	265.22	36.49	-41.7	-45.2	13.1	1.90e-05	0	56	0	642777088	55	5240
2026-01-10 11:06:19.02	265.64	36.48	-41.9	-45.6	12.7	4.95e-05	0	56	0	644874240	55	5474
2026-01-10 11:06:20.03	266.07	36.47	-42.1	-45.8	12.4	1.20e-04	0	56	0	646971392	55	5645
2026-01-10 11:06:21.04	266.49	36.47	-42.2	-46.1	12.2	1.43e-04	0	56	0	649068544	55	5852
2026-01-10 11:06:22.05	266.91	36.46	-42.2	-46.0	12.2	2.92e-04	0	56	0	650117120	55	5774
2026-01-10 11:06:23.06	267.33	36.44	-42.3	-46.3	11.9	3.28e-04	0	56	0	652214272	55	5970
2026-01-10 11:06:24.07	267.76	36.43	-42.4	-46.5	11.8	4.03e-04	0	56	0	654311424	55	6085
2026-01-10 11:06:25.08	268.18	36.42	-42.4	-46.5	11.7	5.29e-04	0	56	0	656408576	55	6096
2026-01-10 11:06:26.09	268.60	36.40	-42.1	-45.9	12.4	2.11e-04	0	56	0	658505728	55	5710
2026-01-10 11:06:27.10	269.02	36.38	-41.8	-45.4	12.9	8.85e-05	0	56	0	659554304	55	5341
2026-01-10 11:06:28.11	269.44	36.36	-41.6	-44.9	13.4	2.82e-05	0	56	0	661651456	55	5068
2026-01-10 11:06:29.12	269.86	36.34	-41.7	-45.1	13.2	1.44e-05	0	56	0	663748608	55	5178
2026-01-10 11:06:30.13	270.28	36.32	-41.8	-45.2	13.0	6.25e-05	0	56	0	665845760	55	5262
2026-01-10 11:06:31.13	270.69	36.29	-41.9	-45.5	12.8	6.40e-05	0	56	0	667942912	55	5413
2026-01-10 11:06:32.14	271.11	36.26	-42.0	-45.6	12.6	7.01e-05	0	56	0	668991488	55	5517
2026-01-10 11:06:33.16	271.53	36.24	-42.4	-46.6	11.6	3.87e-04	0	56	0	671088640	55	6184
2026-01-10 11:06:34.17	271.95	36.21	-43.3	-48.5	9.9	3.17e-03	0	56	0	673185792	57	6879
2026-01-10 11:06:35.18	272.37	36.17	-43.5	-49.2	9.2	1.48e-02	0	56	0	675282944	57	7377
2026-01-10 11:06:36.19	272.78	36.14	-43.4	-48.6	9.8	1.20e-02	0	56	0	677380096	57	6944
2026-01-10 11:06:37.20	273.20	36.10	-42.8	-47.2	11.1	3.31e-03	0	56	0	679477248	57	5917
2026-01-10 11:06:38.21	273.61	36.07	-43.0	-47.7	10.7	1.54e-03	0	56	0	680525824	57	6219
2026-01-10 11:06:39.22	274.02	36.03	-43.2	-48.1	10.2	4.63e-03	0	56	0	682622976	57	6547
2026-01-10 11:06:40.23	274.43	35.99	-43.1	-47.9	10.5	7.86e-03	0	56	0	684720128	57	6406
2026-01-10 11:06:41.24	274.84	35.95	-42.9	-47.3	11.1	4.79e-03	0	56	0	686817280	57	5949
2026-01-10 11:06:42.25	275.25	35.91	-42.5	-46.5	12.0	3.20e-04	0	56	0	688914432	56	5773
2026-01-10 11:06:43.26	275.66	35.86	-42.4	-46.2	12.2	2.66e-04	0	56	0	689963008	56	5580
2026-01-10 11:06:44.27	276.07	35.82	-42.8	-47.2	11.3	5.16e-04	0	56	0	692060160	56	6203
2026-01-10 11:06:45.28	276.47	35.77	-43.2	-48.3	10.0	2.50e-03	0	56	0	694157312	57	6656
2026-01-10 11:06:46.29	276.88	35.72	-43.4	-48.8	9.5	9.36e-03	0	56	0	696254464	57	7053
2026-01-10 11:06:47.29	277.28	35.67	-43.1	-47.7	10.6	8.52e-03	0	56	0	698351616	57	6271
2026-01-10 11:06:48.30	277.68	35.62	-42.6	-46.7	11.7	1.45e-03	0	56	0	699400192	57	5555
2026-01-10 11:06:49.31	278.08	35.56	-42.7	-46.8	11.5	7.32e-04	0	56	0	701497344	57	5650
2026-01-10 11:06:50.32	278.48	35.51	-43.1	-48.0	10.4	2.00e-03	0	56	0	703594496	57	6429
2026-01-10 11:06:51.33	278.88	35.45	-43.6	-49.2	9.1	8.89e-03	0	56	0	705691648	57	7416
2026-01-10 11:06:52.34	279.27	35.40	-43.3	-48.4	10.0	1.07e-02	0	56	0	707788800	57	6755
2026-01-10 11:06:53.35	279.67	35.34	-43.2	-48.3	10.0	6.73e-03	0	56	0	708837376	57	6681
2026-01-10 11:06:54.36	280.06	35.28	-43.4	-48.9	9.4	7.74e-03	0	56	0	710934528	57	7168
2026-01-10 11:06:55.37	280.46	35.21	-43.7	-49.7	8.6	3.26e-02	0	56	0	713031680	57	7848
2026-01-10 11:06:56.38	280.85	35.15	-43.9	-50.3	8.0	8.09e-02	0	56	0	715128832	58	7958
2026-01-10 11:06:57.39	281.24	35.09	-43.9	-50.2	8.1	7.82e-02	0	56	0	717225984	58	7887
2026-01-10 11:06:58.40	281.62	35.02	-43.9	-50.2	8.0	4.98e-02	0	56	0	718274560	58	7882
2026-01-10 11:06:59.41	282.01	34.95	-43.8	-49.9	8.4	4.27e-02	0	56	0	720371712	58	7598
2026-01-10 11:07:00.42	282.40	34.89	-43.9	-50.2	8.0	4.40e-02	0	56	0	722468864	58	7843
2026-01-10 11:07:01.43	282.78	34.82	-43.9	-50.5	7.8	6.82e-02	0	56	0	724566016	58	8119
2026-01-10 11:07:02.44	283.16	34.74	-44.2	-51.4	6.9	1.72e-01	0	56	0	726663168	59	8560
2026-01-10 11:07:03.45	283.54	34.67	-44.1	-51.1	7.2	1.53e-01	0	56	0	727711744	59	8180
2026-01-10 11:07:04.45	283.91	34.60	-44.0	-50.7	7.5	1.21e-01	0	56	0	729808896	59	7868
2026-01-10 11:07:05.46	284.29	34.53	-44.0	-50.5	7.7	8.61e-02	0	56	0	731906048	59	7716
2026-01-10 11:07:06.47	284.67	34.45	-44.0	-50.7	7.5	7.65e-02	0	56	0	734003200	59	7841
2026-01-10 11:07:07.48	285.04	34.37	-43.5	-49.0	9.2	4.73e-02	0	56	0	736100352	59	6423
2026-01-10 11:07:08.49	285.41	34.30	-43.0	-47.5	10.7	8.46e-03	0	56	0	737148928	58	5782
2026-01-10 11:07:09.50	285.78	34.22	-42.4	-46.2	12.2	8.57e-04	0	56	0	739246080	56	5565
2026-01-10 11:07:10.51	286.15	34.14	-42.2	-46.0	12.4	1.60e-04	0	56	0	741343232	56	5442
2026-01-10 11:07:11.52	286.51	34.06	-42.3	-46.2	12.1	2.64e-04	0	56	0	743440384	56	5532
2026-01-10 11:07:12.53	286.88	33.97	-42.5	-46.5	11.9	2.91e-04	0	56	0	745537536	56	5727
2026-01-10 11:07:13.54	287.24	33.89	-42.3	-46.1	12.4	1.98e-04	0	56	0	747634688	56	5483
2026-01-10 11:07:14.55	287.60	33.81	-41.8	-45.2	13.0	5.03e-05	0	56	0	748683264	55	5269
2026-01-10 11:07:15.56	287.96	33.72	-42.0	-45.6	12.6	7.62e-05	0	56	0	750780416	55	5514
2026-01-10 11:07:16.57	288.31	33.63	-42.3	-46.2	12.1	1.81e-04	0	56	0	752877568	55	5887
2026-01-10 11:07:17.58	288.67	33.55	-42.9	-47.4	11.0	6.12e-04	0	56	0	754974720	56	6371
2026-01-10 11:07:18.59	289.02	33.46	-43.0	-47.7	10.7	3.28e-03	0	56	0	757071872	56	6586
2026-01-10 11:07:19.60	289.37	33.37	-42.9	-47.6	10.7	2.15e-03	0	56	0	758120448	56	6504
2026-01-10 11:07:20.60	289.72	33.28	-42.5	-46.6	11.8	9.13e-04	0	56	0	760217600	56	5827
2026-01-10 11:07:21.61	290.07	33.19	-42.3	-46.2	12.2	1.94e-04	0	56	0	762314752	56	5530
2026-01-10 11:07:22.62	290.41	33.10	-42.4	-46.4	12.0	2.23e-04	0	56	0	764411904	56	5713
2026-01-10 11:07:23.63	290.76	33.01	-42.8	-47.3	11.1	6.45e-04	0	56	0	766509056	56	6287
2026-01-10 11:07:24.64	291.10	32.91	-43.0	-47.8	10.6	5.23e-03	0	56	0	767557632	56	6693
2026-01-10 11:07:25.65	291.44	32.82	-42.9	-47.5	10.8	3.51e-03	0	56	0	769654784	56	6490
2026-01-10 11:07:26.66	291.77	32.72	-42.5	-46.5	11.8	9.73e-04	0	56	0	771751936	56	5758
2026-01-10 11:07:27.67	292.11	32.63	-41.7	-45.2	13.1	1.07e-04	0	56	0	773849088	55	5248
2026-01-10 11:07:28.68	292.44	32.53	-41.7	-45.0	13.3	3.89e-05	0	56	0	775946240	55	5150
2026-01-10 11:07:29.69	292.77	32.43	-42.0	-45.7	12.5	6.79e-05	0	56	0	776994816	55	5533
2026-01-10 11:07:30.69	293.10	32.34	-42.2	-46.1	12.0	1.27e-04	0	56	0	779091968	55	5846
2026-01-10 11:07:31.70	293.43	32.24	-42.3	-46.2	12.0	4.54e-04	0	56	0	781189120	55	5892
2026-01-10 11:07:32.71	293.75	32.14	-41.9	-45.5	12.7	1.32e-04	0	56	0	783286272	55	5454
2026-01-10 11:07:33.72	294.08	32.04	-41.6	-44.9	13.3	2.44e-05	0	57	0	785383424	55	5094
2026-01-10 11:07:34.73	294.40	31.94	-41.4	-44.7	13.6	7.60e-06	0	56	0	786432000	54	5221
2026-01-10 11:07:35.74	294.72	31.84	-41.7	-45.2	13.1	2.13e-05	0	57	0	788529152	54	5535
2026-01-10 11:07:36.75	295.04	31.74	-42.1	-46.1	12.2	3.89e-05	0	56	0	790626304	54	6139
2026-01-10 11:07:37.76	295.35	31.63	-42.2	-46.1	12.1	3.17e-04	0	56	0	792723456	55	5824
2026-01-10 11:07:38.77	295.67	31.53	-41.9	-45.5	12.7	2.31e-04	0	57	0	794820608	55	5413
2026-01-10 11:07:39.78	295.98	31.43	-41.1	-44.0	14.2	1.29e-05	0	57	0	795869184	54	4870
2026-01-10 11:07:40.78	296.29	31.32	-40.5	-43.2	15.0	0.00e+00	0	57	0	797966336	53	4680
2026-01-10 11:07:41.79	296.60	31.22	-40.5	-43.1	15.1	0.00e+00	0	56	0	800063488	52	4925
2026-01-10 11:07:42.80	296.90	31.12	-40.8	-43.7	14.6	0.00e+00	0	57	0	802160640	52	5247
2026-01-10 11:07:43.81	297.21	31.01	-41.4	-44.6	13.7	7.00e-07	0	56	0	804257792	53	5470
2026-01-10 11:07:44.82	297.51	30.90	-41.8	-45.3	12.9	3.96e-05	0	56	0	805306368	54	5628
2026-01-10 11:07:45.83	297.81	30.80	-41.7	-45.3	13.0	5.79e-05	0	57	0	807403520	54	5609
2026-01-10 11:07:46.84	298.11	30.69	-41.4	-44.7	13.6	1.22e-05	0	56	0	809500672	54	5224
2026-01-10 11:07:47.85	298.40	30.58	-41.1	-44.0	14.2	2.20e-06	0	56	0	811597824	54	4868
2026-01-10 11:07:48.86	298.70	30.47	-40.9	-43.7	14.4	0.00e+00	0	57	0	813694976	53	4974
2026-01-10 11:07:49.87	298.99	30.37	-41.3	-44.4	13.8	7.00e-07	0	56	0	814743552	53	5378
2026-01-10 11:07:50.88	299.28	30.26	-41.6	-45.0	13.2	1.75e-05	0	56	0	816840704	53	5765
2026-01-10 11:07:51.89	299.57	30.15	-41.8	-45.4	12.8	4.11e-05	0	56	0	818937856	54	5713
2026-01-10 11:07:52.90	299.86	30.04	-41.5	-44.8	13.4	5.41e-05	0	56	0	821035008	54	5331
2026-01-10 11:07:53.91	300.14	29.93	-40.6	-43.4	14.8	7.00e-07	0	57	0	823132160	53	4797
2026-01-10 11:07:54.92	300.42	29.82	-40.1	-42.6	15.6	0.00e+00	0	56	0	825229312	52	4614
2026-01-10 11:07:55.93	300.70	29.71	-39.9	-42.3	16.0	0.00e+00	0	56	0	826277888	51	4718
2026-01-10 11:07:56.94	300.98	29.60	-40.2	-42.7	15.6	0.00e+00	0	56	0	828375040	51	4931
2026-01-10 11:07:57.95	301.26	29.49	-40.7	-43.5	14.7	0.00e+00	0	56	0	830472192	52	5155
2026-01-10 11:07:58.96	301.54	29.38	-41.1	-44.2	14.0	0.00e+00	0	56	0	832569344	52	5580
2026-01-10 11:07:59.97	301.81	29.27	-41.2	-44.3	14.0	6.10e-06	0	56	0	834666496	53	5301
2026-01-10 11:08:00.98	302.08	29.15	-40.7	-43.5	14.8	0.00e+00	0	57	0	835715072	53	4824
2026-01-10 11:08:01.99	302.35	29.04	-40.3	-42.8	15.4	0.00e+00	0	56	0	837812224	52	4738
2026-01-10 11:08:03.00	302.62	28.93	-40.2	-42.7	15.5	0.00e+00	0	56	0	839909376	52	4692
2026-01-10 11:08:04.01	302.88	28.82	-40.6	-43.4	14.8	0.00e+00	0	56	0	842006528	52	5081
2026-01-10 11:08:05.02	303.15	28.71	-41.1	-44.1	14.1	0.00e+00	0	57	0	844103680	52	5493
2026-01-10 11:08:06.03	303.41	28.59	-41.3	-44.4	13.8	4.50e-06	0	56	0	845152256	53	5396
2026-01-10 11:08:07.04	303.67	28.48	-41.2	-44.4	13.8	3.00e-06	0	56	0	847249408	53	5369
2026-01-10 11:08:08.05	303.93	28.37	-40.8	-43.7	14.5	0.00e+00	0	57	0	849346560	53	4962
2026-01-10 11:08:09.06	304.19	28.25	-40.5	-43.2	14.9	0.00e+00	0	56	0	851443712	53	4674
2026-01-10 11:08:10.07	304.44	28.14	-40.6	-43.3	14.9	0.00e+00	0	56	0	853540864	52	5011
2026-01-10 11:08:11.08	304.70	28.03	-41.1	-44.2	14.0	0.00e+00	0	56	0	854589440	52	5546
2026-01-10 11:08:12.09	304.95	27.91	-41.4	-44.7	13.5	3.80e-06	0	56	0	856686592	53	5564
2026-01-10 11:08:13.09	305.19	27.80	-41.5	-44.9	13.3	1.44e-05	0	56	0	858783744	53	5688
2026-01-10 11:08:14.10	305.44	27.69	-41.5	-44.8	13.3	1.67e-05	0	57	0	860880896	53	5629
2026-01-10 11:08:15.11	305.69	27.57	-40.7	-43.5	14.6	4.50e-06	0	56	0	862978048	53	4834
2026-01-10 11:08:16.12	305.93	27.46	-40.3	-42.9	15.3	7.00e-07	0	56	0	864026624	52	4760
2026-01-10 11:08:17.13	306.18	27.35	-39.9	-42.3	16.0	0.00e+00	0	56	0	866123776	51	4718
2026-01-10 11:08:18.14	306.42	27.23	-39.9	-42.3	16.0	0.00e+00	0	56	0	868220928	51	4714
2026-01-10 11:08:19.15	306.66	27.12	-40.5	-43.2	15.1	0.00e+00	0	57	0	870318080	51	5244
2026-01-10 11:08:20.16	306.90	27.00	-41.0	-44.1	14.1	0.00e+00	0	56	0	872415232	52	5489
2026-01-10 11:08:21.17	307.13	26.89	-41.5	-44.9	13.3	9.90e-06	0	56	0	873463808	53	5693
2026-01-10 11:08:22.18	307.37	26.78	-41.6	-45.0	13.1	3.28e-05	0	56	0	875560960	53	5760
2026-01-10 11:08:23.19	307.60	26.66	-41.4	-44.7	13.4	1.67e-05	0	56	0	877658112	53	5557
2026-01-10 11:08:24.20	307.83	26.55	-40.9	-43.9	14.2	5.30e-06	0	56	0	879755264	53	5087
2026-01-10 11:08:25.21	308.06	26.43	-41.0	-44.1	14.1	1.50e-06	0	56	0	881852416	53	5188
2026-01-10 11:08:26.22	308.29	26.32	-41.3	-44.5	13.7	7.00e-07	0	56	0	882900992	53	5439
2026-01-10 11:08:27.22	308.51	26.21	-41.2	-44.5	13.7	5.30e-06	0	56	0	884998144	53	5407
2026-01-10 11:08:28.23	308.74	26.09	-41.7	-45.2	12.9	1.83e-05	0	56	0	887095296	53	5916
2026-01-10 11:08:29.24	308.96	25.98	-41.6	-45.0	13.2	4.57e-05	0	56	0	889192448	54	5418
2026-01-10 11:08:30.25	309.18	25.86	-41.3	-44.5	13.7	1.44e-05	0	56	0	891289600	54	5123
2026-01-10 11:08:31.26	309.40	25.75	-41.0	-44.1	14.1	1.50e-06	0	56	0	892338176	54	4871
2026-01-10 11:08:32.27	309.62	25.64	-40.8	-43.6	14.5	7.00e-07	0	57	0	894435328	53	4903
2026-01-10 11:08:33.28	309.84	25.52	-40.8	-43.8	14.4	7.00e-07	0	56	0	896532480	53	4992
2026-01-10 11:08:34.29	310.06	25.41	-41.2	-44.4	13.7	3.00e-06	0	56	0	898629632	53	5361
2026-01-10 11:08:35.30	310.27	25.29	-41.6	-45.2	13.0	7.60e-06	0	56	0	900726784	53	5876
2026-01-10 11:08:36.31	310.48	25.18	-42.2	-46.3	11.8	2.37e-04	0	56	0	901775360	54	6315
2026-01-10 11:08:37.32	310.69	25.07	-42.4	-46.8	11.2	5.87e-04	0	56	0	903872512	55	6305
2026-01-10 11:08:38.33	310.90	24.95	-42.1	-46.1	12.0	5.19e-04	0	56	0	905969664	55	5835
2026-01-10 11:08:39.34	311.11	24.84	-41.6	-45.1	13.0	9.99e-05	0	56	0	908066816	55	5198
2026-01-10 11:08:40.35	311.32	24.73	-41.1	-44.2	13.9	1.37e-05	0	56	0	910163968	54	4983
2026-01-10 11:08:41.36	311.52	24.61	-40.8	-43.8	14.3	3.80e-06	0	56	0	911212544	53	4986
2026-01-10 11:08:42.37	311.73	24.50	-40.7	-43.5	14.6	7.00e-07	0	56	0	913309696	53	4833
2026-01-10 11:08:43.38	311.93	24.39	-40.6	-43.4	14.7	0.00e+00	0	56	0	915406848	52	5059
2026-01-10 11:08:44.39	312.13	24.28	-40.8	-43.7	14.4	0.00e+00	0	57	0	917504000	52	5264
2026-01-10 11:08:45.40	312.33	24.16	-41.1	-44.3	13.8	2.20e-06	0	56	0	919601152	52	5627
2026-01-10 11:08:46.41	312.53	24.05	-41.3	-44.7	13.4	1.67e-05	0	56	0	921698304	53	5537
2026-01-10 11:08:47.42	312.72	23.94	-41.4	-44.7	13.4	1.90e-05	0	57	0	922746880	53	5560
2026-01-10 11:08:48.42	312.92	23.83	-41.2	-44.4	13.7	1.67e-05	0	56	0	924844032	53	5357
2026-01-10 11:08:49.44	313.11	23.71	-40.7	-43.6	14.4	2.20e-06	0	56	0	926941184	53	4912
2026-01-10 11:08:50.44	313.30	23.60	-40.3	-42.9	15.2	0.00e+00	0	56	0	929038336	52	4783
2026-01-10 11:08:51.46	313.50	23.49	-40.1	-42.6	15.5	0.00e+00	0	56	0	931135488	52	4623
2026-01-10 11:08:52.46	313.69	23.38	-39.9	-42.3	15.9	0.00e+00	0	56	0	932184064	51	4727
2026-01-10 11:08:53.47	313.88	23.27	-39.9	-42.3	15.9	0.00e+00	0	56	0	934281216	51	4723
2026-01-10 11:08:54.48	314.06	23.16	-40.0	-42.5	15.7	0.00e+00	0	56	0	936378368	51	4828
2026-01-10 11:08:55.49	314.25	23.05	-40.5	-43.2	15.0	0.00e+00	0	56	0	938475520	51	5231
2026-01-10 11:08:56.50	314.43	22.94	-40.6	-43.4	14.7	0.00e+00	0	56	0	940572672	52	5057
2026-01-10 11:08:57.51	314.62	22.83	-40.6	-43.5	14.6	0.00e+00	0	56	0	941621248	52	5138
2026-01-10 11:08:58.52	314.80	22.71	-40.6	-43.4	14.7	7.00e-07	0	56	0	943718400	52	5049
2026-01-10 11:08:59.53	314.98	22.60	-40.4	-43.2	14.9	0.00e+00	0	56	0	945815552	52	4951
2026-01-10 11:09:00.54	315.16	22.49	-40.3	-42.9	15.2	0.00e+00	0	56	0	947912704	52	4769
2026-01-10 11:09:01.55	315.34	22.38	-40.2	-42.8	15.4	0.00e+00	0	56	0	950009856	51	5011
2026-01-10 11:09:02.56	315.52	22.27	-40.1	-42.6	15.6	0.00e+00	0	56	0	951058432	51	4894
2026-01-10 11:09:03.57	315.69	22.17	-40.1	-42.7	15.5	0.00e+00	0	56	0	953155584	51	4936
2026-01-10 11:09:04.57	315.87	22.06	-40.3	-42.9	15.2	0.00e+00	0	56	0	955252736	51	5097
2026-01-10 11:09:05.59	316.04	21.95	-40.4	-43.1	15.1	0.00e+00	0	56	0	957349888	51	5182
2026-01-10 11:09:06.59	316.21	21.84	-40.6	-43.4	14.8	1.50e-06	0	56	0	959447040	51	5346
2026-01-10 11:09:07.60	316.38	21.73	-40.6	-43.5	14.6	0.00e+00	0	56	0	960495616	51	5418
2026-01-10 11:09:08.61	316.55	21.62	-40.6	-43.4	14.7	0.00e+00	0	56	0	962592768	51	5350
2026-01-10 11:09:09.62	316.72	21.51	-40.5	-43.3	14.9	0.00e+00	0	56	0	964689920	51	5301
2026-01-10 11:09:10.63	316.89	21.41	-40.4	-43.1	15.0	0.00e+00	0	56	0	966787072	51	5184
2026-01-10 11:09:11.64	317.06	21.30	-40.3	-43.0	15.1	0.00e+00	0	56	0	968884224	51	5123
2026-01-10 11:09:12.65	317.22	21.19	-40.2	-42.8	15.3	0.00e+00	0	56	0	969932800	51	5006
2026-01-10 11:09:13.66	317.39	21.08	-40.0	-42.6	15.6	0.00e+00	0	56	0	972029952	51	4876
2026-01-10 11:09:14.67	317.55	20.98	-40.1	-42.7	15.4	0.00e+00	0	56	0	974127104	51	4946
2026-01-10 11:09:15.68	317.71	20.87	-40.2	-42.7	15.4	0.00e+00	0	56	0	976224256	51	4966
2026-01-10 11:09:16.69	317.87	20.76	-40.2	-42.7	15.4	0.00e+00	0	56	0	978321408	51	4967
2026-01-10 11:09:17.70	318.03	20.66	-40.2	-42.8	15.3	0.00e+00	0	56	0	979369984	51	5038
2026-01-10 11:09:18.71	318.19	20.55	-40.2	-42.9	15.2	0.00e+00	0	56	0	981467136	51	5045
2026-01-10 11:09:19.72	318.35	20.44	-40.3	-43.0	15.1	0.00e+00	0	56	0	983564288	51	5107
2026-01-10 11:09:20.73	318.51	20.34	-40.4	-43.1	15.0	0.00e+00	0	57	0	985661440	51	5194
2026-01-10 11:09:21.74	318.66	20.23	-40.4	-43.1	14.9	0.00e+00	0	56	0	987758592	51	5213
2026-01-10 11:09:22.75	318.82	20.13	-40.5	-43.3	14.8	0.00e+00	0	56	0	989855744	51	5298
2026-01-10 11:09:23.76	318.97	20.02	-40.5	-43.2	14.8	0.00e+00	0	56	0	990904320	51	5258
2026-01-10 11:09:24.77	319.12	19.92	-40.4	-43.1	15.0	0.00e+00	0	56	0	993001472	51	5197
2026-01-10 11:09:25.78	319.28	19.81	-40.3	-42.9	15.2	0.00e+00	0	57	0	995098624	51	5060
2026-01-10 11:09:26.79	319.43	19.71	-40.3	-42.9	15.1	0.00e+00	0	56	0	997195776	51	5091
2026-01-10 11:09:27.80	319.58	19.61	-40.1	-42.6	15.3	0.00e+00	0	56	0	999292928	51	4923
2026-01-10 11:09:28.81	319.73	19.50	-40.1	-42.7	15.4	0.00e+00	0	56	0	1000341504	51	4937
2026-01-10 11:09:29.82	319.87	19.40	-40.1	-42.6	15.4	0.00e+00	0	56	0	1002438656	51	4919
2026-01-10 11:09:30.82	320.02	19.30	-40.1	-42.7	15.4	0.00e+00	0	56	0	1004535808	51	4954
2026-01-10 11:09:31.83	320.17	19.19	-40.2	-42.8	15.3	0.00e+00	0	56	0	1006632960	51	4998
2026-01-10 11:09:32.84	320.31	19.09	-40.3	-43.0	15.1	0.00e+00	0	56	0	1008730112	51	5121
2026-01-10 11:09:33.85	320.45	18.99	-40.2	-42.9	15.2	0.00e+00	0	56	0	1009778688	51	5043
2026-01-10 11:09:34.86	320.60	18.89	-40.3	-43.0	15.0	0.00e+00	0	56	0	1011875840	51	5136
2026-01-10 11:09:35.87	320.74	18.78	-40.2	-42.9	15.2	0.00e+00	0	56	0	1013972992	51	5054
2026-01-10 11:09:36.88	320.88	18.68	-40.1	-42.7	15.4	0.00e+00	0	56	0	1016070144	51	4964
2026-01-10 11:09:37.89	321.02	18.58	-40.1	-42.7	15.3	0.00e+00	0	56	0	1018167296	51	4982
2026-01-10 11:09:38.90	321.16	18.48	-40.0	-42.5	15.5	0.00e+00	0	57	0	1019215872	51	4850
2026-01-10 11:09:39.91	321.30	18.38	-40.0	-42.5	15.6	0.00e+00	0	56	0	1021313024	51	4825
2026-01-10 11:09:40.92	321.44	18.28	-40.2	-42.7	15.2	0.00e+00	0	56	0	1023410176	51	4973
2026-01-10 11:09:41.93	321.57	18.18	-40.1	-42.7	15.4	0.00e+00	0	56	0	1025507328	51	4927
2026-01-10 11:09:42.94	321.71	18.08	-40.2	-42.8	15.2	0.00e+00	0	56	0	1027604480	51	5029
2026-01-10 11:09:43.95	321.84	17.98	-40.3	-42.9	15.0	0.00e+00	0	57	0	1028653056	51	5090
2026-01-10 11:09:44.96	321.98	17.88	-40.4	-43.2	14.9	0.00e+00	0	57	0	1030750208	51	5224
2026-01-10 11:09:45.97	322.11	17.78	-40.7	-43.6	14.3	7.00e-07	0	56	0	1032847360	52	5216
2026-01-10 11:09:46.98	322.24	17.68	-40.8	-43.8	14.1	2.20e-06	0	56	0	1034944512	52	5315
2026-01-10 11:09:47.98	322.37	17.58	-41.1	-44.3	13.6	4.50e-06	0	57	0	1037041664	52	5634
2026-01-10 11:09:48.99	322.51	17.48	-41.2	-44.6	13.2	2.44e-05	0	57	0	1038090240	53	5513
2026-01-10 11:09:50.00	322.64	17.38	-41.3	-44.7	13.2	1.98e-05	0	56	0	1040187392	53	5558
2026-01-10 11:09:51.01	322.76	17.29	-41.6	-45.4	12.5	8.39e-05	0	56	0	1042284544	53	6017
2026-01-10 11:09:52.02	322.89	17.19	-41.6	-45.4	12.5	1.47e-04	0	56	0	1044381696	54	5668
2026-01-10 11:09:53.03	323.02	17.09	-41.8	-45.8	12.0	1.11e-04	0	56	0	1046478848	54	5965
2026-01-10 11:09:54.04	323.15	16.99	-41.8	-45.8	12.1	2.63e-04	0	57	0	1047527424	54	5926
2026-01-10 11:09:55.05	323.27	16.90	-41.7	-45.5	12.3	1.69e-04	0	56	0	1049624576	54	5757
2026-01-10 11:09:56.06	323.40	16.80	-41.8	-45.7	12.2	1.59e-04	0	57	0	1051721728	54	5887
2026-01-10 11:09:57.07	323.52	16.70	-41.6	-45.3	12.5	1.37e-04	0	56	0	1053818880	54	5655
2026-01-10 11:09:58.08	323.65	16.61	-41.4	-44.9	12.9	5.11e-05	0	57	0	1055916032	54	5401
2026-01-10 11:09:59.09	323.77	16.51	-41.4	-44.9	12.9	5.34e-05	0	56	0	1058013184	54	5352
2026-01-10 11:10:00.10	323.89	16.42	-41.0	-44.3	13.6	3.35e-05	0	57	0	1059061760	54	5001
2026-01-10 11:10:01.11	324.01	16.32	-41.0	-44.2	13.6	3.00e-06	0	56	0	1061158912	53	5234
2026-01-10 11:10:02.12	324.13	16.23	-41.0	-44.2	13.6	6.80e-06	0	56	0	1063256064	53	5238
2026-01-10 11:10:03.13	324.25	16.13	-40.7	-43.7	14.1	4.50e-06	0	57	0	1065353216	53	4948
2026-01-10 11:10:04.14	324.37	16.04	-40.8	-43.8	14.0	1.50e-06	0	56	0	1067450368	53	5041
2026-01-10 11:10:05.15	324.49	15.94	-40.9	-44.0	13.8	5.30e-06	0	56	0	1068498944	53	5118
2026-01-10 11:10:06.16	324.61	15.85	-40.8	-43.9	13.9	1.50e-06	0	57	0	1070596096	53	5073
2026-01-10 11:10:07.17	324.73	15.75	-41.0	-44.3	13.5	8.30e-06	0	57	0	1072693248	53	5314
2026-01-10 11:10:08.18	324.84	15.66	-41.0	-44.3	13.5	2.13e-05	0	57	0	1074790400	53	5289
2026-01-10 11:10:09.19	324.96	15.57	-41.3	-44.8	13.0	2.82e-05	0	57	0	1076887552	53	5606
2026-01-10 11:10:10.20	325.07	15.47	-41.3	-44.8	12.9	5.03e-05	0	57	0	1077936128	53	5653
2026-01-10 11:10:11.21	325.19	15.38	-41.3	-44.8	13.0	3.50e-05	0	57	0	1080033280	53	5604
2026-01-10 11:10:12.22	325.30	15.29	-41.3	-44.9	12.9	5.49e-05	0	56	0	1082130432	53	5689
2026-01-10 11:10:13.23	325.41	15.19	-41.3	-44.8	13.0	4.65e-05	0	56	0	1084227584	53	5603
2026-01-10 11:10:14.24	325.53	15.10	-41.2	-44.7	13.1	2.82e-05	0	56	0	1086324736	53	5563
2026-01-10 11:10:15.25	325.64	15.01	-41.2	-44.6	13.1	2.82e-05	0	56	0	1087373312	53	5504
2026-01-10 11:10:16.26	325.75	14.92	-40.9	-44.0	13.7	1.44e-05	0	56	0	1089470464	53	5138
2026-01-10 11:10:17.27	325.86	14.83	-40.8	-43.9	13.8	5.30e-06	0	57	0	1091567616	53	5097
2026-01-10 11:10:18.28	325.97	14.74	-40.7	-43.7	14.0	3.00e-06	0	57	0	1093664768	53	4983
2026-01-10 11:10:19.29	326.08	14.65	-40.7	-43.7	14.0	2.20e-06	0	57	0	1095761920	53	4946
2026-01-10 11:10:20.30	326.19	14.55	-40.7	-43.8	13.9	3.80e-06	0	57	0	1096810496	53	5040
2026-01-10 11:10:21.31	326.29	14.46	-40.7	-43.8	13.9	3.00e-06	0	57	0	1098907648	53	4996
2026-01-10 11:10:22.32	326.40	14.37	-40.8	-43.9	13.8	3.00e-06	0	57	0	1101004800	53	5073
2026-01-10 11:10:23.33	326.51	14.28	-40.8	-44.0	13.8	3.00e-06	0	57	0	1103101952	53	5110
2026-01-10 11:10:24.34	326.61	14.19	-40.8	-43.9	13.8	3.80e-06	0	56	0	1105199104	53	5085
2026-01-10 11:10:25.35	326.72	14.11	-40.9	-44.2	13.5	6.10e-06	0	57	0	1106247680	53	5234
2026-01-10 11:10:26.36	326.82	14.02	-41.0	-44.4	13.3	1.22e-05	0	56	0	1108344832	53	5372
2026-01-10 11:10:27.37	326.93	13.93	-41.0	-44.4	13.4	1.29e-05	0	56	0	1110441984	53	5356
2026-01-10 11:10:28.38	327.03	13.84	-41.1	-44.5	13.2	1.83e-05	0	57	0	1112539136	53	5452
2026-01-10 11:10:29.39	327.13	13.75	-41.0	-44.4	13.3	2.44e-05	0	57	0	1114636288	53	5386
2026-01-10 11:10:30.40	327.24	13.66	-41.0	-44.4	13.3	1.37e-05	0	57	0	1115684864	53	5379
2026-01-10 11:10:31.41	327.34	13.57	-41.0	-44.3	13.4	1.67e-05	0	56	0	1117782016	53	5309
2026-01-10 11:10:32.42	327.44	13.49	-40.9	-44.1	13.6	1.44e-05	0	57	0	1119879168	53	5207
2026-01-10 11:10:33.43	327.54	13.40	-40.8	-44.0	13.6	6.80e-06	0	56	0	1121976320	53	5139
2026-01-10 11:10:34.44	327.64	13.31	-40.8	-43.9	13.8	4.50e-06	0	57	0	1124073472	53	5082
2026-01-10 11:10:35.45	327.74	13.22	-40.8	-43.9	13.7	6.80e-06	0	56	0	1126170624	53	5088
2026-01-10 11:10:36.46	327.84	13.14	-40.6	-43.7	13.9	0.00e+00	0	57	0	1127219200	53	4968
2026-01-10 11:10:37.46	327.94	13.05	-40.6	-43.7	14.0	7.00e-07	0	57	0	1129316352	53	4928
2026-01-10 11:10:38.47	328.03	12.97	-40.6	-43.6	14.0	3.00e-06	0	57	0	1131413504	52	5200
2026-01-10 11:10:39.48	328.13	12.88	-40.6	-43.6	14.0	3.80e-06	0	57	0	1133510656	52	5212
2026-01-10 11:10:40.49	328.23	12.79	-40.6	-43.7	14.0	3.80e-06	0	56	0	1135607808	52	5230
2026-01-10 11:10:41.50	328.32	12.71	-40.7	-43.9	13.8	4.50e-06	0	57	0	1136656384	52	5368
2026-01-10 11:10:42.51	328.42	12.62	-40.9	-44.1	13.5	7.60e-06	0	56	0	1138753536	52	5509
2026-01-10 11:10:43.52	328.51	12.54	-40.9	-44.3	13.4	8.30e-06	0	57	0	1140850688	52	5603
2026-01-10 11:10:44.53	328.61	12.45	-41.0	-44.5	13.2	2.13e-05	0	56	0	1142947840	52	5728
2026-01-10 11:10:45.54	328.70	12.37	-41.0	-44.4	13.2	2.89e-05	0	57	0	1145044992	52	5714
2026-01-10 11:10:46.55	328.80	12.28	-41.1	-44.5	13.1	3.05e-05	0	56	0	1146093568	52	5779
2026-01-10 11:10:47.56	328.89	12.20	-41.1	-44.6	13.0	3.73e-05	0	57	0	1148190720	52	5797
2026-01-10 11:10:48.57	328.98	12.12	-41.1	-44.7	12.9	6.86e-05	0	57	0	1150287872	53	5549
2026-01-10 11:10:49.58	329.07	12.03	-41.3	-44.9	12.7	5.72e-05	0	57	0	1152385024	53	5701
2026-01-10 11:10:50.59	329.17	11.95	-41.3	-45.0	12.5	1.01e-04	0	57	0	1154482176	53	5773
2026-01-10 11:10:51.60	329.26	11.87	-41.2	-44.9	12.7	8.01e-05	0	57	0	1155530752	53	5667
2026-01-10 11:10:52.61	329.35	11.78	-41.2	-44.9	12.6	8.23e-05	0	57	0	1157627904	53	5674
2026-01-10 11:10:53.62	329.44	11.70	-41.2	-44.8	12.7	9.00e-05	0	57	0	1159725056	53	5656
2026-01-10 11:10:54.63	329.53	11.62	-41.2	-44.8	12.8	8.08e-05	0	57	0	1161822208	53	5609
2026-01-10 11:10:55.63	329.61	11.54	-41.2	-44.8	12.7	5.49e-05	0	57	0	1163919360	53	5623
2026-01-10 11:10:56.64	329.70	11.45	-41.1	-44.7	12.8	5.18e-05	0	57	0	1164967936	53	5577
2026-01-10 11:10:57.65	329.79	11.37	-41.1	-44.7	12.8	5.87e-05	0	57	0	1167065088	53	5551
2026-01-10 11:10:58.66	329.88	11.29	-41.1	-44.7	12.8	5.79e-05	0	57	0	1169162240	53	5568
