passes_logs/2026/01/10/R2.0S_Moscow/R2.0S_Moscow__20260110_023915_FENGYUN_3G_rec.log

#Pass ID: 20260110_023915_FENGYUN 3G
#Satellite: FENGYUN 3G
#Configuration: FENGYUN 3G
#almurnet v.1.7.20251203
#Start time: 2026-01-10 02:40:06

#Version: 2.2.20231116
#Station: R2.0S_Moscow
#Location: 37.707566 lon 55.798166 lat
#TLE: 1 56232U 23055A   26009.25964270  .00031369  00000+0  49445-3 0  9995
#TLE: 2 56232  49.9935  85.5429 0004254   0.7108 359.3865 15.53213378155304

#Time	Az	El	Level	Level2	SNR	BER	BlckErr	Temp	State	Recorded	gain1	gain2
2026-01-10 02:40:06.34	257.27	5.50	-45.8	-64.7	3.8	7.46e-01	0	56	0	0	62	33040
2026-01-10 02:40:07.34	257.16	5.58	-45.0	-63.5	3.8	8.44e-01	0	57	104	0	62	28685
2026-01-10 02:40:08.35	257.06	5.66	-45.0	-63.4	3.8	8.46e-01	0	57	104	0	62	28625
2026-01-10 02:40:09.36	256.95	5.73	-45.0	-63.4	3.8	8.46e-01	0	57	104	0	62	28650
2026-01-10 02:40:10.37	256.85	5.81	-45.0	-63.4	3.8	8.46e-01	0	57	104	0	62	28543
2026-01-10 02:40:11.38	256.74	5.89	-45.0	-63.4	3.8	8.46e-01	0	57	104	0	62	28450
2026-01-10 02:40:12.39	256.63	5.96	-44.9	-63.3	3.8	8.47e-01	0	57	104	0	61	29929
2026-01-10 02:40:13.41	256.52	6.04	-44.9	-63.3	3.8	8.47e-01	0	57	104	0	61	29768
2026-01-10 02:40:14.42	256.41	6.12	-44.8	-63.1	3.8	8.46e-01	0	57	104	0	61	29346
2026-01-10 02:40:15.43	256.30	6.20	-44.7	-63.1	3.8	8.46e-01	0	57	104	0	61	29052
2026-01-10 02:40:16.44	256.19	6.27	-44.5	-62.9	3.8	8.46e-01	0	57	104	0	61	28483
2026-01-10 02:40:17.45	256.08	6.35	-44.3	-62.7	3.8	8.46e-01	0	57	104	0	60	29519
2026-01-10 02:40:18.46	255.97	6.43	-44.1	-62.4	3.8	8.46e-01	0	57	104	0	60	28542
2026-01-10 02:40:19.47	255.85	6.51	-44.1	-62.4	3.8	8.46e-01	0	57	104	0	60	28500
2026-01-10 02:40:20.48	255.74	6.59	-44.0	-62.4	3.8	8.45e-01	0	57	104	0	60	28497
2026-01-10 02:40:21.50	255.62	6.67	-44.0	-62.4	3.8	8.47e-01	0	57	104	0	60	28455
2026-01-10 02:40:22.51	255.51	6.75	-44.0	-62.3	3.8	8.46e-01	0	57	104	0	60	28294
2026-01-10 02:40:23.52	255.39	6.83	-44.0	-62.3	3.8	8.46e-01	0	57	104	0	60	28237
2026-01-10 02:40:24.52	255.27	6.91	-44.0	-62.3	3.8	8.47e-01	0	57	104	0	60	28136
2026-01-10 02:40:25.54	255.15	6.99	-44.0	-62.3	3.8	8.46e-01	0	57	104	0	60	28226
2026-01-10 02:40:26.55	255.03	7.07	-44.0	-62.4	3.8	8.46e-01	0	57	104	0	60	28370
2026-01-10 02:40:27.56	254.91	7.15	-44.0	-62.4	3.8	8.46e-01	0	57	104	0	60	28478
2026-01-10 02:40:28.57	254.79	7.24	-44.0	-62.4	3.8	8.46e-01	0	57	104	0	60	28429
2026-01-10 02:40:29.58	254.67	7.32	-44.0	-62.2	3.8	8.46e-01	0	57	104	0	60	27903
2026-01-10 02:40:30.59	254.54	7.40	-44.0	-61.8	3.8	8.47e-01	0	57	104	0	60	26688
2026-01-10 02:40:31.60	254.42	7.48	-44.0	-61.1	3.8	8.46e-01	0	57	104	0	60	24583
2026-01-10 02:40:32.61	254.29	7.57	-44.0	-60.4	3.8	8.46e-01	0	57	104	0	60	22675
2026-01-10 02:40:33.62	254.16	7.65	-44.0	-59.6	3.9	8.47e-01	0	57	104	0	59	21901
2026-01-10 02:40:34.64	254.04	7.73	-44.0	-58.8	4.2	8.43e-01	0	57	0	0	59	20062
2026-01-10 02:40:35.65	253.91	7.82	-44.0	-58.6	4.2	8.38e-01	0	57	0	0	59	19555
2026-01-10 02:40:36.66	253.78	7.90	-44.0	-58.5	4.3	8.38e-01	0	57	0	0	59	19292
2026-01-10 02:40:37.67	253.65	7.99	-44.0	-58.4	4.3	8.34e-01	0	57	0	0	59	18983
2026-01-10 02:40:38.68	253.51	8.07	-44.0	-58.4	4.3	8.32e-01	0	57	0	0	59	18985
2026-01-10 02:40:39.69	253.38	8.16	-44.0	-58.3	4.3	8.32e-01	0	57	0	0	59	18810
2026-01-10 02:40:40.70	253.25	8.24	-44.0	-58.2	4.4	8.30e-01	0	57	0	0	59	18646
2026-01-10 02:40:41.71	253.11	8.33	-44.0	-58.3	4.3	8.29e-01	0	57	0	0	59	18935
2026-01-10 02:40:42.72	252.97	8.41	-44.0	-59.1	4.1	8.29e-01	0	57	0	0	59	20754
2026-01-10 02:40:43.74	252.84	8.50	-44.1	-60.6	3.8	8.35e-01	0	57	104	0	59	24586
2026-01-10 02:40:44.75	252.70	8.59	-44.1	-61.9	3.8	8.44e-01	0	57	104	0	59	28430
2026-01-10 02:40:45.76	252.56	8.67	-44.0	-60.7	3.8	8.46e-01	0	57	104	0	59	24911
2026-01-10 02:40:46.77	252.42	8.76	-43.9	-57.4	4.7	8.46e-01	0	57	0	0	59	17075
2026-01-10 02:40:47.78	252.27	8.85	-43.7	-54.3	6.7	8.11e-01	0	56	0	0	59	11928
2026-01-10 02:40:48.79	252.13	8.94	-43.4	-52.2	8.8	2.07e-01	0	57	0	1572864	58	9928
2026-01-10 02:40:49.80	251.99	9.03	-43.2	-51.0	10.1	2.07e-01	0	57	0	2621440	58	8653
2026-01-10 02:40:50.81	251.84	9.11	-43.0	-50.4	10.8	1.73e-02	0	57	0	3670016	58	7995
2026-01-10 02:40:51.82	251.69	9.20	-43.0	-50.3	11.0	3.58e-03	0	57	0	4718592	58	7911
2026-01-10 02:40:52.83	251.54	9.29	-43.1	-50.9	10.4	3.58e-03	0	57	0	5767168	58	8479
2026-01-10 02:40:53.84	251.40	9.38	-43.5	-52.7	8.6	4.57e-03	0	56	0	7340032	58	10435
2026-01-10 02:40:54.85	251.24	9.47	-43.7	-55.0	6.3	6.01e-02	0	57	0	8388608	58	13612
2026-01-10 02:40:55.86	251.09	9.56	-43.7	-54.5	6.6	6.01e-02	0	57	0	9437184	58	12905
2026-01-10 02:40:56.87	250.94	9.65	-43.2	-50.9	10.1	3.00e-01	0	57	0	10485760	58	8560
2026-01-10 02:40:57.88	250.78	9.75	-42.3	-47.8	13.4	4.52e-02	0	57	0	11534336	56	6704
2026-01-10 02:40:58.89	250.63	9.84	-41.1	-45.2	15.8	4.00e-05	0	57	0	12582912	54	5589
2026-01-10 02:40:59.91	250.47	9.93	-40.3	-43.8	17.4	4.00e-05	0	57	0	14155776	52	5306
2026-01-10 02:41:00.92	250.31	10.02	-43.8	-54.3	6.8	0.00e+00	0	57	0	15204352	58	12577
2026-01-10 02:41:01.93	250.15	10.11	-43.8	-55.1	6.2	1.59e-01	0	56	0	16252928	58	13857
2026-01-10 02:41:02.94	249.99	10.21	-40.3	-43.8	17.8	1.59e-01	0	56	0	17301504	51	5593
2026-01-10 02:41:03.95	249.83	10.30	-40.0	-43.2	18.3	7.69e-02	0	57	0	18350080	50	5529
2026-01-10 02:41:04.96	249.66	10.39	-44.0	-61.2	3.8	0.00e+00	0	57	104	19398656	58	27708
2026-01-10 02:41:05.97	249.50	10.49	-39.5	-42.3	18.6	0.00e+00	0	57	0	19398656	51	4758
2026-01-10 02:41:06.98	249.33	10.58	-39.0	-41.7	19.6	3.09e-01	0	57	0	20971520	50	4674
2026-01-10 02:41:07.99	249.16	10.68	-39.1	-41.8	19.5	0.00e+00	0	56	0	22020096	50	4735
2026-01-10 02:41:09.00	248.99	10.77	-38.9	-41.4	19.8	0.00e+00	0	57	0	23068672	49	4806
2026-01-10 02:41:10.01	248.82	10.87	-38.7	-41.3	20.0	0.00e+00	0	56	0	24117248	49	4709
2026-01-10 02:41:11.02	248.65	10.96	-38.8	-41.3	20.1	0.00e+00	0	57	0	25165824	49	4722
2026-01-10 02:41:12.03	248.47	11.06	-38.8	-41.4	20.0	0.00e+00	0	56	0	26214400	49	4767
2026-01-10 02:41:13.04	248.30	11.15	-38.8	-41.4	20.0	0.00e+00	0	57	0	27787264	49	4778
2026-01-10 02:41:14.05	248.12	11.25	-38.7	-41.2	20.1	0.00e+00	0	57	0	28835840	49	4684
2026-01-10 02:41:15.06	247.94	11.35	-38.6	-41.1	20.3	0.00e+00	0	57	0	29884416	49	4629
2026-01-10 02:41:16.06	247.76	11.44	-38.6	-41.1	20.3	0.00e+00	0	57	0	30932992	49	4612
2026-01-10 02:41:17.07	247.58	11.54	-38.6	-41.1	20.3	0.00e+00	0	57	0	31981568	49	4642
2026-01-10 02:41:18.08	247.39	11.64	-38.7	-41.2	20.2	0.00e+00	0	56	0	33030144	49	4683
2026-01-10 02:41:19.09	247.21	11.74	-38.5	-41.0	20.4	0.00e+00	0	57	0	34603008	49	4550
2026-01-10 02:41:20.10	247.02	11.84	-38.3	-40.6	20.8	0.00e+00	0	57	0	35651584	48	4601
2026-01-10 02:41:21.11	246.83	11.94	-38.1	-40.4	21.0	0.00e+00	0	56	0	36700160	48	4530
2026-01-10 02:41:22.11	246.64	12.04	-38.2	-40.6	20.9	0.00e+00	0	57	0	37748736	48	4600
2026-01-10 02:41:23.12	246.45	12.14	-38.2	-40.5	20.9	0.00e+00	0	56	0	38797312	48	4559
2026-01-10 02:41:24.13	246.25	12.24	-38.2	-40.5	21.0	0.00e+00	0	57	0	39845888	48	4554
2026-01-10 02:41:25.13	246.06	12.34	-38.1	-40.4	21.1	0.00e+00	0	56	0	41418752	48	4516
2026-01-10 02:41:26.14	245.86	12.44	-38.1	-40.4	21.1	0.00e+00	0	56	0	42467328	48	4508
2026-01-10 02:41:27.14	245.67	12.54	-38.2	-40.5	21.0	0.00e+00	0	57	0	43515904	48	4555
2026-01-10 02:41:28.15	245.46	12.64	-38.2	-40.5	21.0	0.00e+00	0	56	0	44564480	48	4561
2026-01-10 02:41:29.15	245.26	12.74	-38.2	-40.4	21.0	0.00e+00	0	56	0	45613056	48	4539
2026-01-10 02:41:30.16	245.06	12.84	-38.1	-40.4	21.1	0.00e+00	0	57	0	46661632	48	4502
2026-01-10 02:41:31.17	244.85	12.94	-38.1	-40.4	21.1	0.00e+00	0	57	0	48234496	48	4494
2026-01-10 02:41:32.17	244.64	13.05	-38.0	-40.3	21.2	0.00e+00	0	57	0	49283072	47	4716
2026-01-10 02:41:33.18	244.43	13.15	-37.8	-40.0	21.4	0.00e+00	0	57	0	50331648	47	4587
2026-01-10 02:41:34.19	244.22	13.25	-37.7	-39.8	21.6	0.00e+00	0	57	0	51380224	47	4475
2026-01-10 02:41:35.20	244.01	13.36	-37.6	-39.8	21.7	0.00e+00	0	57	0	52428800	47	4442
2026-01-10 02:41:36.20	243.79	13.46	-37.5	-39.6	21.9	0.00e+00	0	57	0	53477376	47	4353
2026-01-10 02:41:37.21	243.57	13.56	-37.6	-39.7	21.8	0.00e+00	0	57	0	55050240	46	4658
2026-01-10 02:41:38.22	243.35	13.67	-37.7	-39.8	21.7	0.00e+00	0	57	0	56098816	46	4752
2026-01-10 02:41:39.23	243.13	13.77	-37.6	-39.7	21.7	0.00e+00	0	57	0	57147392	46	4691
2026-01-10 02:41:40.24	242.91	13.88	-37.6	-39.7	21.8	0.00e+00	0	56	0	58195968	46	4664
2026-01-10 02:41:41.24	242.68	13.99	-37.6	-39.7	21.8	0.00e+00	0	56	0	59244544	46	4682
2026-01-10 02:41:42.25	242.45	14.09	-37.7	-39.8	21.7	0.00e+00	0	56	0	60293120	46	4755
2026-01-10 02:41:43.26	242.22	14.20	-37.8	-40.0	21.5	0.00e+00	0	56	0	61341696	46	4840
2026-01-10 02:41:44.27	241.99	14.30	-37.7	-39.8	21.7	0.00e+00	0	57	0	62914560	46	4744
2026-01-10 02:41:45.28	241.75	14.41	-37.5	-39.6	21.9	0.00e+00	0	57	0	63963136	46	4618
2026-01-10 02:41:46.29	241.52	14.52	-37.5	-39.6	21.9	0.00e+00	0	56	0	65011712	46	4621
2026-01-10 02:41:47.30	241.28	14.63	-37.3	-39.4	22.2	0.00e+00	0	56	0	66060288	46	4500
2026-01-10 02:41:48.31	241.03	14.73	-37.2	-39.3	22.2	0.00e+00	0	56	0	67108864	46	4446
2026-01-10 02:41:49.32	240.79	14.84	-37.2	-39.2	22.3	0.00e+00	0	56	0	68157440	46	4416
2026-01-10 02:41:50.33	240.54	14.95	-37.2	-39.2	22.3	0.00e+00	0	57	0	69730304	46	4430
2026-01-10 02:41:51.33	240.30	15.06	-37.4	-39.4	22.1	0.00e+00	0	57	0	70778880	46	4536
2026-01-10 02:41:52.34	240.05	15.17	-37.5	-39.5	22.1	0.00e+00	0	56	0	71827456	46	4588
2026-01-10 02:41:53.35	239.79	15.28	-37.4	-39.5	22.1	0.00e+00	0	57	0	72876032	46	4567
2026-01-10 02:41:54.35	239.54	15.39	-37.2	-39.2	22.4	0.00e+00	0	56	0	73924608	46	4410
2026-01-10 02:41:55.36	239.28	15.50	-37.1	-39.1	22.5	0.00e+00	0	56	0	74973184	46	4355
2026-01-10 02:41:56.36	239.02	15.60	-37.1	-39.1	22.5	0.00e+00	0	56	0	76546048	46	4368
2026-01-10 02:41:57.37	238.76	15.71	-37.1	-39.0	22.5	0.00e+00	0	56	0	77594624	46	4333
2026-01-10 02:41:58.37	238.50	15.82	-36.9	-38.8	22.7	0.00e+00	0	56	0	78643200	45	4475
2026-01-10 02:41:59.38	238.23	15.93	-36.8	-38.7	22.8	0.00e+00	0	56	0	79691776	45	4423
2026-01-10 02:42:00.39	237.96	16.05	-36.8	-38.7	22.9	0.00e+00	0	56	0	80740352	45	4412
2026-01-10 02:42:01.39	237.69	16.16	-36.9	-38.8	22.8	0.00e+00	0	56	0	81788928	45	4473
2026-01-10 02:42:02.40	237.41	16.27	-37.0	-38.9	22.7	0.00e+00	0	57	0	83361792	45	4525
2026-01-10 02:42:03.41	237.13	16.38	-37.0	-38.9	22.7	0.00e+00	0	56	0	84410368	45	4531
2026-01-10 02:42:04.41	236.86	16.49	-37.1	-39.0	22.6	0.00e+00	0	56	0	85458944	45	4591
2026-01-10 02:42:05.42	236.57	16.60	-37.0	-39.0	22.7	0.00e+00	0	56	0	86507520	45	4562
2026-01-10 02:42:06.43	236.29	16.71	-37.0	-39.0	22.6	0.00e+00	0	56	0	87556096	45	4565
2026-01-10 02:42:07.43	236.00	16.82	-37.1	-39.1	22.6	0.00e+00	0	56	0	88604672	45	4600
2026-01-10 02:42:08.44	235.71	16.93	-36.9	-38.9	22.7	0.00e+00	0	57	0	90177536	45	4500
2026-01-10 02:42:09.45	235.41	17.05	-36.9	-38.8	22.8	0.00e+00	0	56	0	91226112	45	4448
2026-01-10 02:42:10.45	235.12	17.16	-36.7	-38.6	23.0	0.00e+00	0	56	0	92274688	45	4348
2026-01-10 02:42:11.46	234.82	17.27	-36.6	-38.5	23.1	0.00e+00	0	56	0	93323264	45	4299
2026-01-10 02:42:12.46	234.52	17.38	-36.5	-38.4	23.3	0.00e+00	0	56	0	94371840	45	4248
2026-01-10 02:42:13.47	234.22	17.49	-36.6	-38.4	23.2	0.00e+00	0	56	0	95420416	45	4262
2026-01-10 02:42:14.47	233.91	17.60	-36.6	-38.5	23.2	0.00e+00	0	56	0	96468992	45	4300
2026-01-10 02:42:15.48	233.60	17.72	-36.8	-38.6	23.1	0.00e+00	0	57	0	98041856	45	4367
2026-01-10 02:42:16.48	233.29	17.83	-36.9	-38.7	22.9	0.00e+00	0	57	0	99090432	45	4439
2026-01-10 02:42:17.49	232.97	17.94	-36.9	-38.8	22.8	0.00e+00	0	56	0	100139008	45	4490
2026-01-10 02:42:18.50	232.65	18.05	-36.7	-38.6	23.1	0.00e+00	0	56	0	101187584	45	4363
2026-01-10 02:42:19.51	232.33	18.16	-36.8	-38.6	23.0	0.00e+00	0	56	0	102236160	45	4379
2026-01-10 02:42:20.51	232.01	18.27	-36.6	-38.5	23.2	0.00e+00	0	56	0	103284736	45	4303
2026-01-10 02:42:21.52	231.68	18.39	-36.5	-38.4	23.3	0.00e+00	0	56	0	104857600	45	4251
2026-01-10 02:42:22.53	231.35	18.50	-36.4	-38.2	23.5	0.00e+00	0	56	0	105906176	44	4426
2026-01-10 02:42:23.53	231.02	18.61	-36.2	-38.0	23.6	0.00e+00	0	56	0	106954752	44	4307
2026-01-10 02:42:24.54	230.68	18.72	-36.1	-37.9	23.8	0.00e+00	0	56	0	108003328	44	4262
2026-01-10 02:42:25.55	230.34	18.83	-36.3	-38.1	23.6	0.00e+00	0	56	0	109051904	44	4348
2026-01-10 02:42:26.55	230.00	18.94	-36.2	-38.0	23.7	0.00e+00	0	57	0	110100480	44	4315
2026-01-10 02:42:27.56	229.66	19.05	-36.3	-38.1	23.6	0.00e+00	0	56	0	111673344	44	4359
2026-01-10 02:42:28.57	229.31	19.16	-36.4	-38.2	23.5	0.00e+00	0	56	0	112721920	44	4399
2026-01-10 02:42:29.58	228.95	19.27	-36.5	-38.4	23.3	0.00e+00	0	56	0	113770496	44	4502
2026-01-10 02:42:30.58	228.60	19.38	-36.5	-38.3	23.4	0.00e+00	0	56	0	114819072	44	4487
2026-01-10 02:42:31.59	228.24	19.49	-36.6	-38.5	23.2	0.00e+00	0	56	0	115867648	44	4570
2026-01-10 02:42:32.60	227.88	19.60	-36.5	-38.3	23.4	0.00e+00	0	56	0	116916224	44	4471
2026-01-10 02:42:33.60	227.52	19.71	-36.4	-38.2	23.6	0.00e+00	0	56	0	118489088	44	4394
2026-01-10 02:42:34.61	227.15	19.82	-36.2	-38.0	23.7	0.00e+00	0	56	0	119537664	44	4320
2026-01-10 02:42:35.61	226.78	19.93	-35.8	-37.5	23.9	0.00e+00	0	57	0	120586240	43	4310
2026-01-10 02:42:36.62	226.41	20.03	-35.7	-37.3	24.2	0.00e+00	0	56	0	121634816	43	4239
2026-01-10 02:42:37.63	226.03	20.14	-35.6	-37.3	24.2	0.00e+00	0	56	0	122683392	43	4205
2026-01-10 02:42:38.63	225.65	20.25	-35.6	-37.2	24.3	0.00e+00	0	56	0	123731968	43	4183
2026-01-10 02:42:39.64	225.27	20.35	-35.5	-37.1	24.4	0.00e+00	0	56	0	125304832	42	4371
2026-01-10 02:42:40.64	224.89	20.46	-35.5	-37.2	24.3	0.00e+00	0	57	0	126353408	42	4419
2026-01-10 02:42:41.65	224.49	20.57	-35.7	-37.4	24.2	0.00e+00	0	57	0	127401984	42	4509
2026-01-10 02:42:42.66	224.10	20.67	-35.7	-37.4	24.1	0.00e+00	0	56	0	128450560	42	4520
2026-01-10 02:42:43.66	223.71	20.77	-35.6	-37.3	24.2	0.00e+00	0	56	0	129499136	42	4475
2026-01-10 02:42:44.67	223.31	20.88	-35.8	-37.5	24.0	0.00e+00	0	56	0	130547712	42	4589
2026-01-10 02:42:45.68	222.90	20.98	-35.8	-37.5	24.1	0.00e+00	0	56	0	131596288	42	4557
2026-01-10 02:42:46.68	222.50	21.08	-35.8	-37.6	24.0	0.00e+00	0	56	0	133169152	42	4600
2026-01-10 02:42:47.69	222.09	21.18	-35.9	-37.7	23.9	0.00e+00	0	56	0	134217728	42	4670
2026-01-10 02:42:48.70	221.68	21.28	-35.9	-37.6	24.0	0.00e+00	0	57	0	135266304	42	4639
2026-01-10 02:42:49.70	221.27	21.38	-35.8	-37.5	24.1	0.00e+00	0	56	0	136314880	42	4578
2026-01-10 02:42:50.71	220.85	21.48	-35.8	-37.5	24.1	0.00e+00	0	56	0	137363456	42	4570
2026-01-10 02:42:51.71	220.43	21.58	-35.9	-37.6	24.0	0.00e+00	0	56	0	138412032	42	4608
2026-01-10 02:42:52.72	220.00	21.67	-35.9	-37.6	23.9	0.00e+00	0	56	0	139984896	42	4630
2026-01-10 02:42:53.72	219.58	21.77	-35.8	-37.5	24.1	0.00e+00	0	57	0	141033472	42	4560
2026-01-10 02:42:54.73	219.15	21.86	-35.7	-37.4	24.1	0.00e+00	0	56	0	142082048	42	4542
2026-01-10 02:42:55.74	218.71	21.96	-35.6	-37.2	24.3	0.00e+00	0	57	0	143130624	42	4429
2026-01-10 02:42:56.74	218.28	22.05	-35.4	-37.0	24.6	0.00e+00	0	57	0	144179200	42	4321
2026-01-10 02:42:57.75	217.84	22.14	-35.4	-37.0	24.6	0.00e+00	0	57	0	145227776	42	4332
2026-01-10 02:42:58.76	217.39	22.23	-35.3	-36.9	24.6	0.00e+00	0	56	0	146276352	42	4286
2026-01-10 02:42:59.76	216.95	22.32	-35.5	-37.2	24.5	0.00e+00	0	56	0	147849216	42	4394
2026-01-10 02:43:00.77	216.50	22.41	-35.5	-37.1	24.5	0.00e+00	0	56	0	148897792	42	4364
2026-01-10 02:43:01.78	216.04	22.50	-35.5	-37.2	24.4	0.00e+00	0	56	0	149946368	42	4404
2026-01-10 02:43:02.79	215.59	22.58	-35.4	-37.1	24.5	0.00e+00	0	56	0	150994944	42	4346
2026-01-10 02:43:03.80	215.13	22.67	-35.3	-37.0	24.6	0.00e+00	0	56	0	152043520	42	4297
2026-01-10 02:43:04.80	214.67	22.75	-35.1	-36.7	24.8	0.00e+00	0	56	0	153092096	42	4192
2026-01-10 02:43:05.81	214.20	22.83	-35.0	-36.6	25.0	0.00e+00	0	56	0	154664960	42	4125
2026-01-10 02:43:06.82	213.73	22.91	-35.1	-36.7	24.9	0.00e+00	0	56	0	155713536	42	4163
2026-01-10 02:43:07.83	213.26	22.99	-35.2	-36.8	24.8	0.00e+00	0	56	0	156762112	42	4194
2026-01-10 02:43:08.83	212.79	23.07	-35.2	-36.8	24.8	0.00e+00	0	56	0	157810688	42	4217
2026-01-10 02:43:09.84	212.32	23.15	-35.2	-36.8	24.8	0.00e+00	0	56	0	158859264	42	4221
2026-01-10 02:43:10.85	211.84	23.22	-35.2	-36.8	24.7	0.00e+00	0	56	0	159907840	42	4241
2026-01-10 02:43:11.86	211.36	23.29	-35.4	-37.0	24.6	0.00e+00	0	56	0	161480704	42	4326
2026-01-10 02:43:12.86	210.88	23.36	-35.3	-36.9	24.6	0.00e+00	0	56	0	162529280	42	4288
2026-01-10 02:43:13.87	210.39	23.43	-35.2	-36.8	24.8	0.00e+00	0	56	0	163577856	42	4217
2026-01-10 02:43:14.88	209.90	23.50	-35.2	-36.8	24.8	0.00e+00	0	56	0	164626432	42	4235
2026-01-10 02:43:15.88	209.41	23.57	-35.2	-36.8	24.8	0.00e+00	0	56	0	165675008	42	4209
2026-01-10 02:43:16.89	208.92	23.63	-35.1	-36.7	24.9	0.00e+00	0	57	0	166723584	42	4170
2026-01-10 02:43:17.89	208.43	23.69	-35.2	-36.8	24.8	0.00e+00	0	56	0	168296448	42	4209
2026-01-10 02:43:18.90	207.93	23.75	-35.1	-36.7	24.9	0.00e+00	0	56	0	169345024	42	4147
2026-01-10 02:43:19.91	207.43	23.81	-35.0	-36.6	24.8	0.00e+00	0	56	0	170393600	42	4128
2026-01-10 02:43:20.91	206.93	23.87	-35.1	-36.6	24.9	0.00e+00	0	56	0	171442176	42	4143
2026-01-10 02:43:21.92	206.42	23.92	-35.2	-36.8	24.8	0.00e+00	0	56	0	172490752	42	4217
2026-01-10 02:43:22.93	205.91	23.98	-35.4	-37.1	24.6	0.00e+00	0	56	0	173539328	42	4343
2026-01-10 02:43:23.93	205.41	24.03	-35.5	-37.2	24.5	0.00e+00	0	56	0	174587904	42	4403
2026-01-10 02:43:24.94	204.90	24.08	-35.2	-36.8	24.8	0.00e+00	0	56	0	176160768	42	4223
2026-01-10 02:43:25.95	204.38	24.12	-35.0	-36.5	25.0	0.00e+00	0	56	0	177209344	41	4335
2026-01-10 02:43:26.95	203.87	24.17	-35.2	-36.8	24.8	0.00e+00	0	56	0	178257920	41	4478
2026-01-10 02:43:27.96	203.36	24.21	-35.5	-37.1	24.6	0.00e+00	0	56	0	179306496	41	4631
2026-01-10 02:43:28.97	202.84	24.25	-35.6	-37.2	24.4	0.00e+00	0	56	0	180355072	41	4680
2026-01-10 02:43:29.97	202.32	24.29	-35.4	-37.1	24.6	0.00e+00	0	56	0	181403648	41	4601
2026-01-10 02:43:30.98	201.80	24.33	-35.4	-37.1	24.6	0.00e+00	0	56	0	182976512	41	4601
2026-01-10 02:43:31.99	201.28	24.36	-35.5	-37.2	24.5	0.00e+00	0	56	0	184025088	41	4656
2026-01-10 02:43:32.99	200.76	24.39	-35.2	-36.8	24.9	0.00e+00	0	56	0	185073664	41	4443
2026-01-10 02:43:34.00	200.24	24.42	-35.2	-36.7	24.9	0.00e+00	0	56	0	186122240	41	4441
2026-01-10 02:43:35.01	199.71	24.45	-35.5	-37.2	24.5	0.00e+00	0	56	0	187170816	41	4676
2026-01-10 02:43:36.02	199.18	24.48	-35.7	-37.3	24.3	0.00e+00	0	56	0	188219392	41	4743
2026-01-10 02:43:37.03	198.65	24.50	-35.5	-37.2	24.5	0.00e+00	0	56	0	189792256	41	4661
2026-01-10 02:43:38.03	198.13	24.52	-35.8	-37.5	24.2	0.00e+00	0	56	0	190840832	42	4570
2026-01-10 02:43:39.04	197.60	24.54	-35.4	-37.1	24.6	0.00e+00	0	56	0	191889408	42	4354
2026-01-10 02:43:40.05	197.07	24.55	-35.1	-36.7	24.9	0.00e+00	0	56	0	192937984	42	4186
2026-01-10 02:43:41.06	196.54	24.57	-35.2	-36.8	24.9	0.00e+00	0	56	0	193986560	42	4212
2026-01-10 02:43:42.07	196.01	24.58	-34.9	-36.4	25.2	0.00e+00	0	56	0	195035136	41	4276
2026-01-10 02:43:43.07	195.48	24.59	-34.8	-36.3	25.2	0.00e+00	0	56	0	196608000	41	4215
2026-01-10 02:43:44.08	194.95	24.60	-34.8	-36.4	25.1	0.00e+00	0	56	0	197656576	41	4256
2026-01-10 02:43:45.09	194.41	24.60	-34.7	-36.3	25.3	0.00e+00	0	56	0	198705152	41	4208
2026-01-10 02:43:46.09	193.89	24.60	-34.6	-36.2	25.4	0.00e+00	0	56	0	199753728	41	4146
2026-01-10 02:43:47.10	193.35	24.60	-34.7	-36.2	25.4	0.00e+00	0	56	0	200802304	41	4177
2026-01-10 02:43:48.10	192.83	24.60	-35.0	-36.5	25.1	0.00e+00	0	56	0	201850880	41	4329
2026-01-10 02:43:49.11	192.29	24.60	-34.9	-36.4	25.1	0.00e+00	0	56	0	203423744	41	4291
2026-01-10 02:43:50.12	191.76	24.59	-35.3	-36.9	24.7	0.00e+00	0	56	0	204472320	41	4503
2026-01-10 02:43:51.13	191.23	24.58	-35.3	-36.9	24.7	0.00e+00	0	56	0	205520896	41	4545
2026-01-10 02:43:52.14	190.70	24.57	-35.1	-36.6	24.9	0.00e+00	0	56	0	206569472	41	4391
2026-01-10 02:43:53.15	190.17	24.55	-35.1	-36.7	24.9	0.00e+00	0	56	0	207618048	41	4432
2026-01-10 02:43:54.16	189.64	24.54	-34.9	-36.5	25.0	0.00e+00	0	56	0	208666624	41	4321
2026-01-10 02:43:55.17	189.11	24.52	-35.0	-36.5	25.0	0.00e+00	0	56	0	210239488	41	4333
2026-01-10 02:43:56.18	188.58	24.50	-35.0	-36.6	24.9	0.00e+00	0	56	0	211288064	41	4373
2026-01-10 02:43:57.19	188.05	24.47	-34.8	-36.3	25.2	0.00e+00	0	56	0	212336640	41	4238
2026-01-10 02:43:58.19	187.53	24.45	-34.6	-36.2	25.4	0.00e+00	0	56	0	213385216	41	4147
2026-01-10 02:43:59.20	187.00	24.42	-34.8	-36.4	25.1	0.00e+00	0	56	0	214433792	41	4268
2026-01-10 02:44:00.21	186.48	24.39	-34.6	-36.1	25.4	0.00e+00	0	56	0	215482368	41	4118
2026-01-10 02:44:01.22	185.95	24.36	-34.8	-36.3	25.2	0.00e+00	0	56	0	216530944	41	4230
2026-01-10 02:44:02.23	185.43	24.32	-34.8	-36.4	25.1	0.00e+00	0	56	0	218103808	41	4259
2026-01-10 02:44:03.24	184.91	24.28	-34.9	-36.4	25.1	0.00e+00	0	56	0	219152384	41	4286
2026-01-10 02:44:04.25	184.39	24.25	-35.5	-37.1	24.4	0.00e+00	0	56	0	220200960	41	4641
2026-01-10 02:44:05.26	183.87	24.20	-35.7	-37.4	24.3	0.00e+00	0	56	0	221249536	41	4777
2026-01-10 02:44:06.27	183.35	24.16	-35.8	-37.5	24.2	0.00e+00	0	56	0	222298112	42	4558
2026-01-10 02:44:07.28	182.84	24.12	-35.7	-37.4	24.2	0.00e+00	0	56	0	223346688	42	4507
2026-01-10 02:44:08.28	182.33	24.07	-35.2	-36.7	24.8	0.00e+00	0	56	0	224919552	42	4189
2026-01-10 02:44:09.29	181.82	24.02	-35.2	-36.8	24.7	0.00e+00	0	56	0	225968128	42	4234
2026-01-10 02:44:10.30	181.31	23.97	-35.1	-36.7	24.8	0.00e+00	0	56	0	227016704	42	4159
2026-01-10 02:44:11.31	180.80	23.91	-35.4	-37.1	24.5	0.00e+00	0	56	0	228065280	42	4346
2026-01-10 02:44:12.31	180.30	23.86	-35.6	-37.3	24.2	0.00e+00	0	56	0	229113856	42	4479
2026-01-10 02:44:13.32	179.80	23.80	-35.2	-36.8	24.7	0.00e+00	0	56	0	230162432	42	4238
2026-01-10 02:44:14.33	179.30	23.74	-35.2	-36.8	24.7	0.00e+00	0	56	0	231735296	42	4221
2026-01-10 02:44:15.34	178.80	23.68	-35.0	-36.6	24.9	0.00e+00	0	56	0	232783872	42	4116
2026-01-10 02:44:16.35	178.30	23.62	-35.2	-36.8	24.7	0.00e+00	0	56	0	233832448	42	4224
2026-01-10 02:44:17.36	177.81	23.55	-35.0	-36.5	24.9	0.00e+00	0	56	0	234881024	42	4097
2026-01-10 02:44:18.36	177.32	23.49	-34.8	-36.4	25.1	0.00e+00	0	56	0	235929600	41	4251
2026-01-10 02:44:19.37	176.83	23.42	-34.9	-36.4	25.0	0.00e+00	0	56	0	236978176	41	4290
2026-01-10 02:44:20.38	176.35	23.35	-35.0	-36.5	24.9	0.00e+00	0	56	0	238551040	41	4337
2026-01-10 02:44:21.39	175.86	23.28	-35.1	-36.7	24.7	0.00e+00	0	56	0	239599616	41	4417
2026-01-10 02:44:22.40	175.38	23.21	-35.1	-36.7	24.8	0.00e+00	0	56	0	240648192	41	4417
2026-01-10 02:44:23.40	174.91	23.13	-35.0	-36.6	24.9	0.00e+00	0	56	0	241696768	41	4382
2026-01-10 02:44:24.42	174.43	23.05	-35.0	-36.6	25.1	0.00e+00	0	56	0	242745344	41	4363
2026-01-10 02:44:25.42	173.96	22.98	-34.8	-36.3	25.2	0.00e+00	0	56	0	243793920	41	4240
2026-01-10 02:44:26.43	173.49	22.90	-34.5	-36.1	25.4	0.00e+00	0	56	0	245366784	41	4113
2026-01-10 02:44:27.44	173.02	22.82	-34.8	-36.3	25.2	0.00e+00	0	56	0	246415360	40	4480
2026-01-10 02:44:28.45	172.55	22.74	-34.9	-36.5	25.1	0.00e+00	0	56	0	247463936	40	4580
2026-01-10 02:44:29.45	172.10	22.65	-34.9	-36.5	25.1	0.00e+00	0	56	0	248512512	40	4584
2026-01-10 02:44:30.46	171.64	22.57	-35.1	-36.7	24.9	0.00e+00	0	56	0	249561088	40	4664
2026-01-10 02:44:31.47	171.18	22.48	-35.1	-36.7	24.9	0.00e+00	0	56	0	250609664	40	4658
2026-01-10 02:44:32.47	170.73	22.39	-35.0	-36.6	24.9	0.00e+00	0	56	0	252182528	40	4649
2026-01-10 02:44:33.48	170.28	22.31	-35.2	-36.8	24.8	0.00e+00	0	56	0	253231104	40	4752
2026-01-10 02:44:34.49	169.84	22.22	-35.3	-36.9	24.7	0.00e+00	0	56	0	254279680	41	4516
2026-01-10 02:44:35.49	169.40	22.13	-35.1	-36.7	24.9	0.00e+00	0	56	0	255328256	41	4398
2026-01-10 02:44:36.50	168.96	22.03	-35.4	-37.1	24.5	0.00e+00	0	56	0	256376832	41	4612
2026-01-10 02:44:37.51	168.52	21.94	-35.8	-37.5	24.2	0.00e+00	0	56	0	257425408	42	4572
2026-01-10 02:44:38.52	168.08	21.85	-36.0	-37.7	24.0	0.00e+00	0	56	0	258998272	42	4689
2026-01-10 02:44:39.52	167.66	21.75	-35.7	-37.4	24.2	0.00e+00	0	56	0	260046848	42	4543
2026-01-10 02:44:40.53	167.23	21.66	-35.4	-37.0	24.6	0.00e+00	0	56	0	261095424	42	4338
2026-01-10 02:44:41.54	166.80	21.56	-35.1	-36.7	24.9	0.00e+00	0	56	0	262144000	42	4178
2026-01-10 02:44:42.55	166.38	21.46	-35.1	-36.7	25.0	0.00e+00	0	56	0	263192576	42	4157
2026-01-10 02:44:43.55	165.97	21.36	-35.3	-36.9	24.8	0.00e+00	0	56	0	264241152	42	4253
2026-01-10 02:44:44.56	165.55	21.26	-35.7	-37.4	24.3	0.00e+00	0	56	0	265814016	42	4534
2026-01-10 02:44:45.57	165.14	21.16	-36.1	-37.9	23.9	0.00e+00	0	56	0	266862592	42	4791
2026-01-10 02:44:46.58	164.73	21.06	-36.5	-38.3	23.4	0.00e+00	0	56	0	267911168	43	4747
2026-01-10 02:44:47.58	164.33	20.96	-36.5	-38.3	23.4	0.00e+00	0	56	0	268959744	43	4758
2026-01-10 02:44:48.59	163.92	20.86	-36.1	-37.8	23.8	0.00e+00	0	56	0	270008320	43	4490
2026-01-10 02:44:49.60	163.52	20.75	-35.8	-37.5	24.1	0.00e+00	0	56	0	271056896	43	4332
2026-01-10 02:44:50.60	163.13	20.65	-35.7	-37.3	24.3	0.00e+00	0	56	0	272105472	43	4238
2026-01-10 02:44:51.61	162.74	20.54	-35.6	-37.3	24.4	0.00e+00	0	56	0	273678336	43	4212
2026-01-10 02:44:52.62	162.35	20.44	-35.8	-37.5	24.2	0.00e+00	0	56	0	274726912	43	4305
2026-01-10 02:44:53.62	161.96	20.33	-35.9	-37.7	24.0	0.00e+00	0	56	0	275775488	43	4405
2026-01-10 02:44:54.63	161.58	20.23	-36.1	-37.9	23.8	0.00e+00	0	56	0	276824064	43	4507
2026-01-10 02:44:55.64	161.20	20.12	-36.1	-37.9	23.8	0.00e+00	0	56	0	277872640	43	4497
2026-01-10 02:44:56.64	160.83	20.01	-36.5	-38.3	23.4	0.00e+00	0	56	0	278921216	43	4715
2026-01-10 02:44:57.65	160.45	19.90	-36.6	-38.4	23.2	0.00e+00	0	56	0	280494080	43	4803
2026-01-10 02:44:58.66	160.08	19.80	-36.6	-38.4	23.2	0.00e+00	0	56	0	281542656	43	4813
2026-01-10 02:44:59.67	159.72	19.69	-36.4	-38.3	23.4	0.00e+00	0	56	0	282591232	43	4706
2026-01-10 02:45:00.67	159.35	19.58	-36.3	-38.0	23.6	0.00e+00	0	56	0	283639808	43	4594
2026-01-10 02:45:01.68	158.99	19.47	-36.2	-38.0	23.7	0.00e+00	0	56	0	284688384	43	4559
2026-01-10 02:45:02.69	158.63	19.36	-36.2	-38.0	23.6	0.00e+00	0	56	0	285736960	43	4587
2026-01-10 02:45:03.70	158.28	19.25	-36.4	-38.2	23.4	0.00e+00	0	56	0	287309824	43	4700
2026-01-10 02:45:04.70	157.93	19.14	-36.5	-38.4	23.2	0.00e+00	0	56	0	288358400	43	4768
2026-01-10 02:45:05.71	157.58	19.03	-36.6	-38.5	23.1	0.00e+00	0	56	0	289406976	43	4843
2026-01-10 02:45:06.72	157.24	18.92	-36.5	-38.4	23.2	0.00e+00	0	56	0	290455552	43	4774
2026-01-10 02:45:07.72	156.90	18.81	-36.4	-38.2	23.3	0.00e+00	0	56	0	291504128	43	4685
2026-01-10 02:45:08.73	156.56	18.70	-36.2	-38.0	23.5	0.00e+00	0	56	0	292552704	43	4570
2026-01-10 02:45:09.74	156.22	18.58	-36.2	-38.0	23.5	0.00e+00	0	56	0	294125568	43	4582
2026-01-10 02:45:10.75	155.89	18.47	-36.4	-38.2	23.4	0.00e+00	0	56	0	295174144	43	4669
2026-01-10 02:45:11.76	155.56	18.36	-36.5	-38.4	23.2	0.00e+00	0	56	0	296222720	43	4770
2026-01-10 02:45:12.77	155.23	18.25	-36.5	-38.3	23.3	0.00e+00	0	56	0	297271296	43	4739
2026-01-10 02:45:13.77	154.91	18.14	-36.4	-38.2	23.3	0.00e+00	0	56	0	298319872	43	4696
2026-01-10 02:45:14.78	154.59	18.03	-36.2	-38.0	23.5	0.00e+00	0	56	0	299368448	43	4585
2026-01-10 02:45:15.78	154.27	17.91	-36.2	-38.0	23.6	0.00e+00	0	56	0	300417024	43	4549
2026-01-10 02:45:16.79	153.95	17.80	-36.2	-38.0	23.5	0.00e+00	0	56	0	301989888	43	4573
2026-01-10 02:45:17.80	153.64	17.69	-36.5	-38.4	23.1	0.00e+00	0	56	0	303038464	43	4760
2026-01-10 02:45:18.81	153.33	17.58	-36.5	-38.3	23.2	0.00e+00	0	56	0	304087040	43	4730
2026-01-10 02:45:19.82	153.02	17.47	-36.5	-38.4	23.1	0.00e+00	0	56	0	305135616	43	4779
2026-01-10 02:45:20.82	152.72	17.35	-36.5	-38.4	23.1	0.00e+00	0	56	0	306184192	43	4791
2026-01-10 02:45:21.83	152.42	17.24	-36.4	-38.3	23.1	0.00e+00	0	56	0	307232768	43	4714
2026-01-10 02:45:22.84	152.12	17.13	-36.5	-38.4	23.0	0.00e+00	0	56	0	308805632	43	4778
2026-01-10 02:45:23.84	151.83	17.02	-36.6	-38.4	22.9	0.00e+00	0	56	0	309854208	43	4813
2026-01-10 02:45:24.86	151.53	16.91	-36.6	-38.5	22.9	0.00e+00	0	56	0	310902784	43	4817
2026-01-10 02:45:25.86	151.24	16.80	-36.5	-38.4	22.9	0.00e+00	0	56	0	311951360	43	4794
2026-01-10 02:45:26.86	150.96	16.68	-36.5	-38.3	23.0	0.00e+00	0	56	0	312999936	43	4748
2026-01-10 02:45:27.87	150.67	16.57	-36.5	-38.3	23.0	0.00e+00	0	56	0	314048512	43	4752
2026-01-10 02:45:28.88	150.39	16.46	-36.5	-38.4	22.9	0.00e+00	0	56	0	315621376	43	4773
2026-01-10 02:45:29.89	150.11	16.35	-36.5	-38.4	22.8	0.00e+00	0	56	0	316669952	43	4805
2026-01-10 02:45:30.89	149.83	16.24	-36.9	-38.8	22.6	0.00e+00	0	56	0	317718528	44	4756
2026-01-10 02:45:31.90	149.56	16.13	-37.1	-39.0	22.4	0.00e+00	0	56	0	318767104	44	4868
2026-01-10 02:45:32.91	149.29	16.02	-37.2	-39.2	22.2	0.00e+00	0	56	0	319815680	44	4955
2026-01-10 02:45:33.92	149.02	15.91	-37.2	-39.2	22.2	0.00e+00	0	56	0	320864256	45	4692
2026-01-10 02:45:34.93	148.75	15.80	-37.2	-39.2	22.2	0.00e+00	0	56	0	322437120	45	4682
2026-01-10 02:45:35.94	148.49	15.69	-37.3	-39.3	22.1	0.00e+00	0	56	0	323485696	45	4722
2026-01-10 02:45:36.94	148.23	15.58	-37.3	-39.4	22.1	0.00e+00	0	56	0	324534272	45	4764
2026-01-10 02:45:37.95	147.96	15.47	-37.4	-39.5	21.9	0.00e+00	0	56	0	325582848	45	4835
2026-01-10 02:45:38.96	147.71	15.36	-37.5	-39.6	21.8	0.00e+00	0	56	0	326631424	45	4894
2026-01-10 02:45:39.96	147.45	15.25	-37.4	-39.5	21.9	0.00e+00	0	56	0	327680000	45	4836
2026-01-10 02:45:40.96	147.20	15.14	-37.3	-39.4	22.0	0.00e+00	0	56	0	329252864	45	4774
2026-01-10 02:45:41.97	146.95	15.03	-37.2	-39.2	22.1	0.00e+00	0	56	0	330301440	45	4685
2026-01-10 02:45:42.98	146.71	14.92	-37.3	-39.4	22.0	0.00e+00	0	56	0	331350016	45	4778
2026-01-10 02:45:43.98	146.46	14.82	-37.4	-39.5	21.8	0.00e+00	0	56	0	332398592	45	4853
2026-01-10 02:45:44.99	146.22	14.71	-37.6	-39.7	21.6	0.00e+00	0	56	0	333447168	45	4980
2026-01-10 02:45:46.00	145.98	14.60	-37.6	-39.8	21.6	0.00e+00	0	56	0	334495744	45	4993
2026-01-10 02:45:47.00	145.74	14.49	-37.8	-39.9	21.4	0.00e+00	0	56	0	336068608	46	4809
2026-01-10 02:45:48.01	145.50	14.39	-37.7	-39.9	21.4	0.00e+00	0	56	0	337117184	46	4779
2026-01-10 02:45:49.02	145.27	14.28	-37.8	-40.0	21.3	0.00e+00	0	56	0	338165760	46	4831
2026-01-10 02:45:50.02	145.04	14.17	-37.7	-39.9	21.5	0.00e+00	0	56	0	339214336	46	4783
2026-01-10 02:45:51.03	144.81	14.07	-37.8	-40.0	21.3	0.00e+00	0	56	0	340262912	46	4845
2026-01-10 02:45:52.04	144.58	13.96	-37.8	-40.0	21.3	0.00e+00	0	56	0	341311488	46	4837
2026-01-10 02:45:53.04	144.35	13.86	-37.9	-40.1	21.2	0.00e+00	0	56	0	342360064	46	4902
2026-01-10 02:45:54.05	144.13	13.75	-37.9	-40.2	21.1	0.00e+00	0	56	0	343932928	46	4951
2026-01-10 02:45:55.06	143.91	13.65	-37.8	-40.0	21.2	0.00e+00	0	56	0	344981504	46	4865
2026-01-10 02:45:56.06	143.69	13.54	-38.0	-40.3	21.0	0.00e+00	0	56	0	346030080	46	5013
2026-01-10 02:45:57.07	143.47	13.44	-37.9	-40.2	21.1	0.00e+00	0	56	0	347078656	46	4950
2026-01-10 02:45:58.08	143.25	13.33	-38.0	-40.3	21.0	0.00e+00	0	56	0	348127232	46	4988
2026-01-10 02:45:59.08	143.04	13.23	-38.0	-40.4	20.9	0.00e+00	0	56	0	349175808	46	5045
2026-01-10 02:46:00.09	142.83	13.13	-38.1	-40.5	20.8	0.00e+00	0	56	0	350748672	46	5112
2026-01-10 02:46:01.10	142.62	13.02	-38.0	-40.4	20.9	0.00e+00	0	56	0	351797248	46	5049
2026-01-10 02:46:02.10	142.41	12.92	-38.0	-40.4	20.9	0.00e+00	0	56	0	352845824	46	5049
2026-01-10 02:46:03.11	142.21	12.82	-37.9	-40.2	21.0	0.00e+00	0	56	0	353894400	46	4956
2026-01-10 02:46:04.12	142.00	12.72	-37.9	-40.2	21.0	0.00e+00	0	56	0	354942976	46	4947
2026-01-10 02:46:05.12	141.80	12.62	-38.0	-40.2	20.9	0.00e+00	0	56	0	355991552	46	4983
2026-01-10 02:46:06.13	141.60	12.52	-38.0	-40.3	20.9	0.00e+00	0	56	0	357040128	46	4996
2026-01-10 02:46:07.14	141.40	12.41	-38.1	-40.5	20.7	0.00e+00	0	56	0	358612992	46	5125
2026-01-10 02:46:08.15	141.20	12.31	-38.1	-40.5	20.6	0.00e+00	0	56	0	359661568	47	4855
2026-01-10 02:46:09.15	141.01	12.21	-38.4	-40.8	20.3	0.00e+00	0	56	0	360710144	47	5041
2026-01-10 02:46:10.16	140.82	12.11	-38.6	-41.1	20.0	0.00e+00	0	56	0	361758720	47	5192
2026-01-10 02:46:11.16	140.63	12.01	-38.6	-41.2	19.9	0.00e+00	0	56	0	362807296	47	5225
2026-01-10 02:46:12.17	140.44	11.92	-38.6	-41.2	19.8	0.00e+00	0	56	0	363855872	47	5221
2026-01-10 02:46:13.17	140.25	11.82	-38.5	-41.1	19.8	0.00e+00	0	56	0	365428736	47	5203
2026-01-10 02:46:14.18	140.06	11.72	-38.5	-41.1	19.9	0.00e+00	0	56	0	366477312	47	5202
2026-01-10 02:46:15.19	139.88	11.62	-38.4	-41.0	19.9	0.00e+00	0	56	0	367525888	47	5142
2026-01-10 02:46:16.20	139.69	11.52	-38.6	-41.2	19.6	0.00e+00	0	56	0	368574464	47	5264
2026-01-10 02:46:17.20	139.51	11.43	-38.6	-41.3	19.5	0.00e+00	0	56	0	369623040	47	5327
2026-01-10 02:46:18.21	139.33	11.33	-38.7	-41.4	19.4	0.00e+00	0	56	0	370671616	47	5378
2026-01-10 02:46:19.22	139.15	11.23	-38.9	-41.7	19.1	0.00e+00	0	56	0	372244480	48	5235
2026-01-10 02:46:20.23	138.97	11.13	-38.4	-41.0	19.7	0.00e+00	0	56	0	373293056	48	4834
2026-01-10 02:46:21.24	138.80	11.04	-39.2	-42.2	18.5	0.00e+00	0	56	0	374341632	48	5578
2026-01-10 02:46:22.25	138.62	10.94	-38.6	-41.3	19.1	0.00e+00	0	56	0	375390208	48	5034
2026-01-10 02:46:23.26	138.45	10.85	-38.4	-41.3	19.2	0.00e+00	0	56	0	376438784	47	5300
2026-01-10 02:46:24.27	138.28	10.75	-39.6	-43.2	17.0	1.10e-06	0	56	0	377487360	49	5909
2026-01-10 02:46:25.28	138.11	10.66	-39.9	-43.7	16.4	9.72e-05	0	56	0	379060224	49	6250
2026-01-10 02:46:26.28	137.94	10.56	-40.4	-45.0	15.1	9.72e-05	0	56	0	380108800	51	6436
2026-01-10 02:46:27.29	137.78	10.47	-40.6	-45.4	14.5	6.52e-05	0	56	0	381157376	51	6788
2026-01-10 02:46:28.30	137.61	10.37	-40.8	-46.4	13.3	2.85e-04	0	56	0	382205952	52	7144
2026-01-10 02:46:29.31	137.45	10.28	-41.3	-48.2	11.1	2.85e-04	0	56	0	383254528	53	8275
2026-01-10 02:46:30.32	137.28	10.19	-41.9	-51.7	7.7	2.92e-03	0	56	0	384303104	54	11711
2026-01-10 02:46:31.32	137.12	10.10	-42.0	-52.6	6.7	8.81e-02	0	56	0	385875968	53	13784
2026-01-10 02:46:32.33	136.96	10.00	-42.1	-55.2	4.8	8.81e-02	0	56	0	385875968	54	17661
2026-01-10 02:46:33.34	136.81	9.91	-42.1	-57.0	4.2	5.22e-01	0	56	0	385875968	54	21675
2026-01-10 02:46:34.34	136.65	9.82	-40.3	-58.1	3.9	8.26e-01	0	56	104	385875968	54	24629
2026-01-10 02:46:35.35	136.49	9.73	-42.2	-59.2	3.9	8.45e-01	0	56	104	385875968	54	27724
2026-01-10 02:46:36.36	136.34	9.64	-41.6	-60.4	3.9	8.45e-01	0	56	104	385875968	54	31969
2026-01-10 02:46:37.37	136.19	9.55	-41.8	-59.6	3.8	8.45e-01	0	56	104	385875968	54	29082
2026-01-10 02:46:38.37	136.04	9.46	-41.9	-59.3	3.8	8.46e-01	0	56	104	385875968	52	31457
2026-01-10 02:46:39.38	135.89	9.37	-41.9	-60.5	3.8	8.46e-01	0	56	104	385875968	47	48345
2026-01-10 02:46:40.39	135.74	9.28	-41.4	-61.1	3.0	8.44e-01	0	56	104	385875968	54	34681
2026-01-10 02:46:41.40	135.59	9.19	-41.0	-59.1	3.7	8.43e-01	0	56	104	385875968	51	32585
2026-01-10 02:46:42.41	135.44	9.10	-41.7	-60.3	3.3	8.43e-01	0	56	104	385875968	53	33472
2026-01-10 02:46:43.42	135.29	9.01	-42.1	-60.3	3.8	8.44e-01	0	56	104	385875968	54	31521
2026-01-10 02:46:44.43	135.15	8.92	-40.6	-59.1	4.0	8.45e-01	0	56	104	385875968	49	36944
2026-01-10 02:46:45.44	135.01	8.84	-41.7	-59.9	3.9	8.45e-01	0	56	104	385875968	51	35861
2026-01-10 02:46:46.45	134.86	8.75	-37.4	-55.5	4.2	8.45e-01	0	56	104	385875968	42	36192
2026-01-10 02:46:47.45	134.73	8.66	-37.9	-57.3	3.9	8.42e-01	0	56	104	385875968	43	42220
2026-01-10 02:46:48.46	134.59	8.57	-37.2	-56.2	4.2	8.38e-01	0	56	104	385875968	41	41905
2026-01-10 02:46:49.48	134.45	8.49	-32.4	-53.7	4.2	8.38e-01	0	56	104	385875968	33	49361
2026-01-10 02:46:50.49	134.31	8.40	-38.3	-57.9	4.0	8.32e-01	0	56	104	385875968	42	47633
2026-01-10 02:46:51.50	134.17	8.32	-37.4	-56.1	4.2	8.37e-01	0	56	104	385875968	43	36883
2026-01-10 02:46:52.50	134.04	8.23	-17.8	-47.3	4.3	8.37e-01	0	56	104	385875968	28	31514
2026-01-10 02:46:53.51	133.90	8.14	-31.2	-45.6	3.5	8.19e-01	0	56	104	385875968	12	65535
2026-01-10 02:46:54.52	133.77	8.06	-15.9	-47.6	6.7	7.90e-01	0	56	104	385875968	23	43852
2026-01-10 02:46:55.53	133.64	7.98	-29.0	-50.3	4.4	7.90e-01	0	56	104	385875968	25	53387
2026-01-10 02:46:56.54	133.51	7.89	-31.8	-50.1	3.8	8.18e-01	0	56	104	385875968	28	43474
2026-01-10 02:46:57.55	133.38	7.81	-44.4	-62.6	3.8	8.07e-01	0	56	104	385875968	59	31055
2026-01-10 02:46:58.56	133.25	7.72	-44.7	-63.0	3.8	8.07e-01	0	56	104	385875968	60	30586
2026-01-10 02:46:59.57	133.12	7.64	-44.9	-63.2	3.8	8.46e-01	0	56	104	385875968	60	31375
2026-01-10 02:47:00.58	132.99	7.56	-45.1	-63.4	3.8	8.47e-01	0	56	104	385875968	60	31829
2026-01-10 02:47:01.59	132.87	7.47	-45.2	-63.5	3.8	8.45e-01	0	56	104	385875968	60	32183
2026-01-10 02:47:02.60	132.74	7.39	-45.3	-63.5	3.8	8.45e-01	0	56	104	385875968	61	30667
2026-01-10 02:47:03.61	132.62	7.31	-45.3	-63.6	3.8	8.46e-01	0	56	104	385875968	61	30963
2026-01-10 02:47:04.62	132.50	7.23	-45.4	-63.6	3.8	8.46e-01	0	57	104	385875968	61	31050
2026-01-10 02:47:05.63	132.37	7.14	-45.4	-63.7	3.8	8.46e-01	0	56	104	385875968	61	31156
2026-01-10 02:47:06.63	132.25	7.06	-45.3	-63.7	3.8	8.47e-01	0	56	104	385875968	61	31118
2026-01-10 02:47:07.64	132.13	6.98	-45.2	-63.6	3.8	8.46e-01	0	56	104	385875968	61	30945
2026-01-10 02:47:08.65	132.01	6.90	-45.2	-63.6	3.8	8.46e-01	0	56	104	385875968	61	30732
2026-01-10 02:47:09.66	131.90	6.82	-45.2	-63.6	3.8	8.46e-01	0	56	104	385875968	61	30874
2026-01-10 02:47:10.67	131.78	6.74	-45.1	-63.6	3.8	8.46e-01	0	56	104	385875968	61	30816
2026-01-10 02:47:11.68	131.66	6.66	-45.1	-63.5	3.8	8.46e-01	0	56	104	385875968	61	30673
2026-01-10 02:47:12.68	131.55	6.58	-45.1	-63.5	3.8	8.47e-01	0	56	104	385875968	61	30532
2026-01-10 02:47:13.69	131.43	6.50	-45.1	-63.5	3.8	8.46e-01	0	56	104	385875968	61	30536
2026-01-10 02:47:14.70	131.32	6.42	-45.0	-63.5	3.8	8.45e-01	0	56	104	385875968	61	30566
2026-01-10 02:47:15.71	131.21	6.35	-45.0	-63.5	3.8	8.45e-01	0	56	104	385875968	61	30434
2026-01-10 02:47:16.72	131.10	6.27	-45.1	-63.5	3.8	8.46e-01	0	56	104	385875968	61	30497
2026-01-10 02:47:17.73	130.98	6.19	-45.0	-63.5	3.8	8.46e-01	0	57	104	385875968	61	30558
2026-01-10 02:47:18.74	130.87	6.11	-45.0	-63.5	3.8	8.46e-01	0	56	104	385875968	61	30478
2026-01-10 02:47:19.75	130.76	6.03	-45.0	-63.5	3.8	8.47e-01	0	56	104	385875968	61	30503
2026-01-10 02:47:20.76	130.66	5.96	-45.0	-63.4	3.8	8.45e-01	0	57	104	385875968	61	30349
2026-01-10 02:47:21.77	130.55	5.88	-45.0	-63.5	3.8	8.45e-01	0	56	104	385875968	61	30496
2026-01-10 02:47:22.78	130.44	5.80	-45.0	-63.5	3.8	8.47e-01	0	57	104	385875968	61	30460
2026-01-10 02:47:23.79	130.33	5.73	-45.0	-63.5	3.8	8.46e-01	0	56	104	385875968	61	30465
2026-01-10 02:47:24.80	130.23	5.65	-45.0	-63.5	3.8	8.47e-01	0	56	104	385875968	61	30422
2026-01-10 02:47:25.81	130.12	5.57	-45.0	-63.5	3.8	8.47e-01	0	56	104	385875968	61	30422
2026-01-10 02:47:26.82	130.02	5.50	-45.0	-63.5	3.8	8.47e-01	0	56	104	385875968	61	30388
2026-01-10 02:47:27.83	129.92	5.42	-45.0	-63.5	3.8	8.46e-01	0	56	104	385875968	61	30413
2026-01-10 02:47:28.84	129.82	5.35	-45.0	-63.5	3.8	8.46e-01	0	56	104	385875968	61	30456
2026-01-10 02:47:29.84	129.71	5.27	-45.0	-63.5	3.8	8.46e-01	0	56	104	385875968	61	30415
2026-01-10 02:47:30.85	129.61	5.20	-45.0	-63.5	3.8	8.46e-01	0	56	104	385875968	61	30384
2026-01-10 02:47:31.86	129.51	5.12	-45.0	-63.5	3.8	8.46e-01	0	56	104	385875968	61	30404
2026-01-10 02:47:32.87	129.41	5.05	-45.0	-63.5	3.8	8.45e-01	0	56	104	385875968	61	30426
2026-01-10 02:47:33.88	129.32	4.98	-45.0	-63.5	3.8	8.46e-01	0	56	104	385875968	61	30420
2026-01-10 02:47:34.89	129.22	4.90	-45.0	-63.5	3.8	8.46e-01	0	56	104	385875968	61	30400
2026-01-10 02:47:35.90	129.12	4.83	-45.0	-63.5	3.8	8.46e-01	0	56	104	385875968	61	30399
2026-01-10 02:47:36.91	129.02	4.76	-45.0	-63.5	3.8	8.46e-01	0	57	104	385875968	61	30391
2026-01-10 02:47:37.92	128.93	4.68	-45.0	-63.4	3.8	8.46e-01	0	56	104	385875968	61	30368
2026-01-10 02:47:38.92	128.83	4.61	-45.0	-63.4	3.8	8.46e-01	0	56	104	385875968	61	30370
2026-01-10 02:47:39.93	128.74	4.54	-45.0	-63.4	3.8	8.46e-01	0	56	104	385875968	61	30344
2026-01-10 02:47:40.94	128.65	4.47	-45.0	-63.5	3.8	8.46e-01	0	56	104	385875968	61	30408
2026-01-10 02:47:41.95	128.55	4.39	-45.0	-63.5	3.8	8.46e-01	0	56	104	385875968	61	30396
2026-01-10 02:47:42.96	128.46	4.32	-45.0	-63.4	3.8	8.48e-01	0	56	104	385875968	61	30362
2026-01-10 02:47:43.96	128.37	4.25	-45.0	-63.4	3.8	8.46e-01	0	57	104	385875968	61	30360
2026-01-10 02:47:44.97	128.28	4.18	-45.0	-63.4	3.8	8.46e-01	0	56	104	385875968	61	30361
2026-01-10 02:47:45.98	128.19	4.11	-45.0	-63.4	3.8	8.46e-01	0	56	104	385875968	61	30376
2026-01-10 02:47:46.99	128.10	4.04	-45.0	-63.5	3.8	8.46e-01	0	56	104	385875968	61	30406
2026-01-10 02:47:48.01	128.01	3.97	-45.0	-63.5	3.8	8.46e-01	0	56	104	385875968	61	30406
2026-01-10 02:47:49.02	127.92	3.90	-45.0	-63.5	3.8	8.46e-01	0	57	104	385875968	61	30400
2026-01-10 02:47:50.03	127.83	3.83	-45.0	-63.5	3.8	8.46e-01	0	56	104	385875968	61	30383
2026-01-10 02:47:51.03	127.74	3.76	-45.0	-63.5	3.8	8.46e-01	0	56	104	385875968	61	30391
2026-01-10 02:47:52.04	127.66	3.69	-45.0	-63.5	3.8	8.45e-01	0	56	104	385875968	61	30418
2026-01-10 02:47:53.05	127.57	3.62	-45.0	-63.4	3.8	8.46e-01	0	56	104	385875968	61	30309
2026-01-10 02:47:54.06	127.49	3.55	-45.0	-63.4	3.8	8.46e-01	0	56	104	385875968	61	30286
2026-01-10 02:47:55.07	127.40	3.48	-45.0	-63.4	3.8	8.46e-01	0	56	104	385875968	61	30298
2026-01-10 02:47:56.08	127.32	3.41	-45.0	-63.4	3.8	8.47e-01	0	57	104	385875968	61	30262
2026-01-10 02:47:57.09	127.23	3.34	-45.0	-63.4	3.8	8.46e-01	0	56	104	385875968	61	30353
2026-01-10 02:47:58.10	127.15	3.27	-45.0	-63.4	3.8	8.46e-01	0	56	104	385875968	61	30291
2026-01-10 02:47:59.11	127.07	3.21	-45.0	-63.4	3.8	8.46e-01	0	56	104	385875968	61	30328
2026-01-10 02:48:00.12	126.98	3.14	-45.0	-63.4	3.8	8.46e-01	0	56	104	385875968	61	30330
2026-01-10 02:48:01.13	126.90	3.07	-45.0	-63.4	3.8	8.46e-01	0	56	104	385875968	61	30335
2026-01-10 02:48:02.14	126.82	3.00	-45.0	-63.4	3.8	8.45e-01	0	56	104	385875968	61	30339
2026-01-10 02:48:03.15	126.74	2.93	-45.0	-63.5	3.8	8.45e-01	0	56	104	385875968	61	30393
2026-01-10 02:48:04.16	126.66	2.87	-45.0	-63.4	3.8	8.46e-01	0	56	104	385875968	61	30361
2026-01-10 02:48:05.17	126.58	2.80	-45.0	-63.4	3.8	8.46e-01	0	57	104	385875968	61	30326
2026-01-10 02:48:06.18	126.50	2.73	-45.0	-63.5	3.8	8.46e-01	0	56	104	385875968	61	30411
2026-01-10 02:48:07.18	126.42	2.67	-45.0	-63.4	3.8	8.46e-01	0	56	104	385875968	61	30342
2026-01-10 02:48:08.19	126.35	2.60	-45.0	-63.4	3.8	8.46e-01	0	56	104	385875968	61	30301
2026-01-10 02:48:09.20	126.27	2.54	-45.0	-63.4	3.8	8.46e-01	0	56	104	385875968	61	30332
2026-01-10 02:48:10.21	126.19	2.47	-45.0	-63.4	3.8	8.46e-01	0	56	104	385875968	61	30243
2026-01-10 02:48:11.22	126.12	2.40	-45.0	-63.4	3.8	8.46e-01	0	56	104	385875968	61	30210
2026-01-10 02:48:12.22	126.04	2.34	-45.0	-63.4	3.8	8.47e-01	0	56	104	385875968	61	30310
2026-01-10 02:48:13.23	125.97	2.27	-45.0	-63.4	3.8	8.45e-01	0	56	104	385875968	61	30208
2026-01-10 02:48:14.24	125.89	2.21	-45.0	-63.4	3.8	8.45e-01	0	56	104	385875968	61	30263
2026-01-10 02:48:15.25	125.82	2.14	-45.0	-63.4	3.8	8.45e-01	0	56	104	385875968	61	30238
2026-01-10 02:48:16.26	125.74	2.08	-45.0	-63.4	3.8	8.45e-01	0	56	104	385875968	61	30271
2026-01-10 02:48:17.26	125.67	2.01	-45.0	-63.4	3.8	8.47e-01	0	56	104	385875968	61	30339
2026-01-10 02:48:18.27	125.60	1.95	-45.0	-63.4	3.8	8.47e-01	0	57	104	385875968	61	30259
2026-01-10 02:48:19.28	125.52	1.89	-45.0	-63.4	3.8	8.47e-01	0	56	104	385875968	61	30254

#Closed at: 2026-01-10 02:48:20
#Recorded file [385 MB]: D:/lorett/data/31039_260110_054006.dat