passes_logs/2026/01/10/R2.0S_Moscow/R2.0S_Moscow__20260110_134436_FENGYUN_3E_rec.log

#Pass ID: 20260110_134436_FENGYUN 3E
#Satellite: FENGYUN 3E
#Configuration: FENGYUN 3E
#almurnet v.1.7.20251203
#Start time: 2026-01-10 13:53:12

#Version: 2.2.20231116
#Station: R2.0S_Moscow
#Location: 37.707566 lon 55.798166 lat
#TLE: 1 49008U 21062A   26009.86154543 -.00000176  00000+0 -62220-4 0  9996
#TLE: 2 49008  98.7486  15.0498 0001782 147.3871 212.7416 14.19883371234110

#Time	Az	El	Level	Level2	SNR	BER	BlckErr	Temp	State	Recorded	gain1	gain2
2026-01-10 13:53:12.65	11.33	43.68	-44.9	-56.7	3.8	8.46e-01	0	56	0	0	60	14876
2026-01-10 13:53:13.66	11.03	43.44	-45.6	-56.7	3.8	8.46e-01	0	56	104	0	61	13151
2026-01-10 13:53:14.67	10.74	43.20	-45.6	-56.6	3.8	8.46e-01	0	56	104	0	61	13008
2026-01-10 13:53:15.68	10.45	42.96	-45.5	-56.1	3.8	8.46e-01	0	56	104	0	61	12341
2026-01-10 13:53:16.69	10.17	42.72	-45.3	-54.7	3.8	8.45e-01	0	56	104	0	61	10514
2026-01-10 13:53:17.70	9.89	42.49	-45.4	-55.3	3.8	8.43e-01	0	56	104	0	60	11870
2026-01-10 13:53:18.71	9.62	42.25	-45.4	-55.8	3.8	8.45e-01	0	56	104	0	60	12526
2026-01-10 13:53:19.72	9.35	42.01	-45.4	-56.3	3.8	8.47e-01	0	56	104	0	60	13301
2026-01-10 13:53:20.73	9.08	41.78	-45.4	-56.2	3.8	8.46e-01	0	56	104	0	60	13178
2026-01-10 13:53:21.75	8.82	41.54	-45.3	-56.1	3.8	8.46e-01	0	56	104	0	60	13066
2026-01-10 13:53:22.76	8.56	41.30	-45.3	-56.1	3.8	8.46e-01	0	56	104	0	60	13081
2026-01-10 13:53:23.77	8.30	41.07	-45.4	-56.2	3.8	8.45e-01	0	56	104	0	60	13217
2026-01-10 13:53:24.78	8.05	40.84	-45.3	-56.2	3.8	8.46e-01	0	56	104	0	60	13258
2026-01-10 13:53:25.79	7.81	40.61	-45.3	-56.2	3.8	8.45e-01	0	56	104	0	60	13240
2026-01-10 13:53:26.80	7.56	40.38	-45.3	-56.2	3.8	8.46e-01	0	56	104	0	60	13164
2026-01-10 13:53:27.81	7.32	40.15	-45.3	-56.1	3.8	8.45e-01	0	56	104	0	60	13020
2026-01-10 13:53:28.82	7.08	39.92	-45.3	-56.1	3.8	8.46e-01	0	56	104	0	60	12975
2026-01-10 13:53:29.83	6.85	39.69	-45.3	-56.1	3.8	8.45e-01	0	56	104	0	60	13104
2026-01-10 13:53:30.84	6.62	39.46	-45.3	-56.1	3.8	8.45e-01	0	56	104	0	60	13066
2026-01-10 13:53:31.85	6.39	39.24	-45.3	-56.1	3.8	8.47e-01	0	56	104	0	60	13031
2026-01-10 13:53:32.86	6.17	39.01	-45.3	-56.0	3.8	8.47e-01	0	56	104	0	60	12925
2026-01-10 13:53:33.87	5.95	38.79	-45.3	-55.9	3.8	8.46e-01	0	56	104	0	60	12758
2026-01-10 13:53:34.88	5.73	38.56	-45.3	-56.0	3.8	8.45e-01	0	56	104	0	60	12853
2026-01-10 13:53:35.89	5.52	38.34	-45.3	-55.9	3.8	8.46e-01	0	56	104	0	60	12753
2026-01-10 13:53:36.90	5.31	38.12	-45.3	-55.8	3.8	8.46e-01	0	56	104	0	60	12608
2026-01-10 13:53:37.92	5.09	37.90	-45.3	-55.7	3.8	8.47e-01	0	56	104	0	60	12458
2026-01-10 13:53:38.93	4.89	37.68	-45.3	-55.8	3.8	8.46e-01	0	56	104	0	60	12579
2026-01-10 13:53:39.93	4.69	37.46	-45.3	-56.0	3.8	8.46e-01	0	57	104	0	60	12901
2026-01-10 13:53:40.95	4.49	37.24	-45.3	-56.2	3.8	8.46e-01	0	57	104	0	60	13219
2026-01-10 13:53:41.96	4.29	37.03	-45.3	-56.3	3.8	8.45e-01	0	56	104	0	60	13365
2026-01-10 13:53:42.97	4.09	36.81	-45.3	-56.3	3.8	8.46e-01	0	56	104	0	60	13361
2026-01-10 13:53:43.98	3.90	36.60	-45.3	-56.4	3.8	8.47e-01	0	56	104	0	60	13440
2026-01-10 13:53:44.99	3.71	36.38	-45.3	-56.4	3.8	8.46e-01	0	56	104	0	60	13466
2026-01-10 13:53:46.00	3.52	36.17	-45.3	-56.3	3.8	8.46e-01	0	56	104	0	60	13376
2026-01-10 13:53:47.01	3.34	35.96	-45.3	-56.3	3.8	8.46e-01	0	56	104	0	60	13335
2026-01-10 13:53:48.02	3.15	35.75	-45.3	-56.4	3.8	8.45e-01	0	56	104	0	60	13459
2026-01-10 13:53:49.03	2.97	35.54	-45.3	-56.4	3.8	8.45e-01	0	56	104	0	60	13543
2026-01-10 13:53:50.04	2.80	35.33	-45.3	-56.4	3.8	8.45e-01	0	56	104	0	60	13562
2026-01-10 13:53:51.05	2.62	35.13	-45.3	-56.2	3.8	8.46e-01	0	56	104	0	60	13141
2026-01-10 13:53:52.06	2.45	34.92	-45.2	-55.3	3.8	8.46e-01	0	56	104	0	60	11952
2026-01-10 13:53:53.07	2.28	34.72	-44.9	-53.5	4.0	8.45e-01	0	56	104	0	60	9649
2026-01-10 13:53:54.08	2.11	34.51	-44.5	-51.0	4.8	8.15e-01	0	56	0	0	59	7642
2026-01-10 13:53:55.09	1.94	34.31	-44.0	-49.2	6.0	6.47e-01	0	56	0	1048576	59	6210
2026-01-10 13:53:56.10	1.78	34.11	-43.4	-47.7	7.2	1.71e-01	0	56	0	8388608	57	5891
2026-01-10 13:53:57.11	1.61	33.91	-42.9	-46.6	8.3	7.37e-02	0	56	0	15728640	56	5527
2026-01-10 13:53:58.12	1.45	33.71	-42.3	-45.5	9.3	2.39e-02	0	56	0	23068672	55	5127
2026-01-10 13:53:59.13	1.29	33.51	-41.6	-44.4	10.5	7.05e-03	0	56	0	30408704	54	4774
2026-01-10 13:54:00.14	1.14	33.31	-40.6	-42.9	12.1	5.09e-04	0	56	0	37748736	52	4504
2026-01-10 13:54:01.15	0.98	33.12	-39.3	-41.1	13.9	1.60e-05	0	57	0	45088768	49	4390
2026-01-10 13:54:02.17	0.83	32.92	-37.9	-39.4	15.6	0.00e+00	0	57	0	52428800	46	4261
2026-01-10 13:54:03.18	0.68	32.73	-36.5	-37.8	17.1	0.00e+00	0	57	0	59768832	44	3985
2026-01-10 13:54:04.19	0.53	32.53	-35.3	-36.5	18.2	0.00e+00	0	57	0	67108864	41	4080
2026-01-10 13:54:05.20	0.38	32.34	-34.8	-35.9	18.9	0.00e+00	0	57	0	74448896	40	4020
2026-01-10 13:54:06.21	0.24	32.15	-34.7	-35.8	18.9	0.00e+00	0	56	0	81788928	40	4000
2026-01-10 13:54:07.22	0.09	31.96	-35.2	-36.3	18.4	0.00e+00	0	57	0	89128960	40	4226
2026-01-10 13:54:08.23	359.95	31.77	-34.8	-35.9	18.9	0.00e+00	0	56	0	96468992	40	4019
2026-01-10 13:54:09.24	359.81	31.58	-37.0	-38.4	16.5	0.00e+00	0	56	0	103809024	45	4012
2026-01-10 13:54:10.25	359.67	31.39	-40.5	-42.6	12.4	2.71e-03	0	57	0	111149056	51	4634
2026-01-10 13:54:11.26	359.53	31.21	-35.4	-36.6	18.1	0.00e+00	0	56	0	118489088	41	4107
2026-01-10 13:54:12.27	359.40	31.02	-44.0	-49.3	5.9	5.28e-01	0	57	0	123731968	58	6679
2026-01-10 13:54:13.28	359.26	30.84	-35.1	-36.2	18.5	0.00e+00	0	57	0	131072000	41	3956
2026-01-10 13:54:14.29	359.13	30.66	-35.3	-36.5	18.3	0.00e+00	0	57	0	138412032	41	4077
2026-01-10 13:54:15.30	359.00	30.47	-35.2	-36.3	18.4	0.00e+00	0	56	0	145752064	41	3994
2026-01-10 13:54:16.31	358.87	30.29	-34.9	-36.1	18.7	0.00e+00	0	56	0	153092096	40	4109
2026-01-10 13:54:17.32	358.74	30.11	-34.7	-35.8	18.9	0.00e+00	0	57	0	160432128	40	4003
2026-01-10 13:54:18.33	358.62	29.93	-34.7	-35.8	19.0	0.00e+00	0	56	0	167772160	40	3965
2026-01-10 13:54:19.34	358.49	29.75	-34.6	-35.7	19.0	0.00e+00	0	56	0	175112192	40	3924
2026-01-10 13:54:20.35	358.37	29.58	-34.6	-35.7	19.0	0.00e+00	0	56	0	182452224	40	3947
2026-01-10 13:54:21.36	358.25	29.40	-34.5	-35.7	19.1	0.00e+00	0	56	0	189792256	40	3915
2026-01-10 13:54:22.36	358.13	29.23	-34.6	-35.8	19.0	0.00e+00	0	56	0	197132288	40	3960
2026-01-10 13:54:23.38	358.01	29.05	-34.7	-35.8	18.9	0.00e+00	0	56	0	204472320	40	3975
2026-01-10 13:54:24.39	357.89	28.88	-34.8	-35.9	18.8	0.00e+00	0	57	0	211812352	40	4019
2026-01-10 13:54:25.39	357.77	28.71	-34.8	-35.9	18.8	0.00e+00	0	56	0	219152384	40	4022
2026-01-10 13:54:26.40	357.66	28.53	-34.8	-35.9	18.8	0.00e+00	0	56	0	226492416	40	4049
2026-01-10 13:54:27.41	357.54	28.36	-35.0	-36.1	18.6	0.00e+00	0	56	0	233832448	40	4126
2026-01-10 13:54:28.42	357.43	28.19	-35.1	-36.3	18.4	0.00e+00	0	56	0	240123904	40	4221
2026-01-10 13:54:29.43	357.32	28.02	-35.2	-36.4	18.3	0.00e+00	0	57	0	247463936	40	4260
2026-01-10 13:54:30.44	357.21	27.86	-35.3	-36.5	18.2	0.00e+00	0	56	0	254803968	40	4322
2026-01-10 13:54:31.45	357.10	27.69	-35.3	-36.4	18.2	0.00e+00	0	57	0	262144000	40	4288
2026-01-10 13:54:32.46	356.99	27.52	-35.3	-36.5	18.1	0.00e+00	0	56	0	269484032	40	4324
2026-01-10 13:54:33.46	356.88	27.36	-35.3	-36.5	18.1	0.00e+00	0	57	0	276824064	40	4331
2026-01-10 13:54:34.47	356.78	27.19	-35.3	-36.5	18.1	0.00e+00	0	57	0	284164096	40	4313
2026-01-10 13:54:35.48	356.67	27.03	-35.2	-36.4	18.2	0.00e+00	0	57	0	291504128	40	4279
2026-01-10 13:54:36.49	356.57	26.87	-35.2	-36.4	18.2	0.00e+00	0	56	0	298844160	40	4257
2026-01-10 13:54:37.50	356.47	26.71	-35.1	-36.3	18.3	0.00e+00	0	57	0	306184192	40	4226
2026-01-10 13:54:38.51	356.36	26.54	-35.2	-36.4	18.3	0.00e+00	0	57	0	313524224	40	4247
2026-01-10 13:54:39.52	356.26	26.38	-35.1	-36.3	18.3	0.00e+00	0	57	0	320864256	40	4225
2026-01-10 13:54:40.53	356.16	26.22	-35.2	-36.4	18.2	0.00e+00	0	56	0	328204288	40	4251
2026-01-10 13:54:41.54	356.07	26.07	-35.1	-36.3	18.3	0.00e+00	0	56	0	335544320	40	4198
2026-01-10 13:54:42.55	355.97	25.91	-35.1	-36.3	18.3	0.00e+00	0	56	0	342884352	40	4221
2026-01-10 13:54:43.56	355.87	25.75	-35.1	-36.3	18.3	0.00e+00	0	57	0	350224384	40	4204
2026-01-10 13:54:44.57	355.78	25.60	-35.0	-36.2	18.4	0.00e+00	0	56	0	357564416	40	4163
2026-01-10 13:54:45.59	355.68	25.44	-34.9	-36.0	18.5	0.00e+00	0	56	0	363855872	40	4097
2026-01-10 13:54:46.59	355.59	25.29	-34.9	-36.1	18.5	0.00e+00	0	56	0	372244480	40	4112
2026-01-10 13:54:47.61	355.49	25.13	-34.9	-36.0	18.6	0.00e+00	0	56	0	379584512	40	4073
2026-01-10 13:54:48.62	355.40	24.98	-34.9	-36.1	18.5	0.00e+00	0	56	0	385875968	40	4099
2026-01-10 13:54:49.62	355.31	24.83	-35.0	-36.1	18.4	0.00e+00	0	57	0	393216000	40	4132
2026-01-10 13:54:50.63	355.22	24.68	-35.0	-36.1	18.4	0.00e+00	0	56	0	400556032	40	4139
2026-01-10 13:54:51.64	355.13	24.53	-35.0	-36.2	18.3	0.00e+00	0	56	0	407896064	40	4158
2026-01-10 13:54:52.65	355.05	24.38	-35.0	-36.2	18.3	0.00e+00	0	57	0	415236096	40	4154
2026-01-10 13:54:53.66	354.96	24.23	-35.0	-36.2	18.3	0.00e+00	0	57	0	422576128	40	4154
2026-01-10 13:54:54.67	354.87	24.08	-35.0	-36.2	18.3	0.00e+00	0	56	0	429916160	40	4172
2026-01-10 13:54:55.68	354.79	23.93	-35.1	-36.2	18.2	0.00e+00	0	56	0	437256192	40	4192
2026-01-10 13:54:56.69	354.70	23.79	-35.1	-36.3	18.1	0.00e+00	0	57	0	444596224	40	4219
2026-01-10 13:54:57.70	354.62	23.64	-35.2	-36.4	18.0	0.00e+00	0	57	0	451936256	40	4261
2026-01-10 13:54:58.71	354.53	23.50	-35.2	-36.4	17.9	0.00e+00	0	57	0	459276288	40	4273
2026-01-10 13:54:59.72	354.45	23.35	-35.3	-36.5	17.9	0.00e+00	0	56	0	466616320	40	4313
2026-01-10 13:55:00.74	354.37	23.21	-35.4	-36.6	17.7	0.00e+00	0	57	0	473956352	40	4372
2026-01-10 13:55:01.75	354.29	23.06	-35.1	-36.4	17.9	0.00e+00	0	57	0	481296384	40	4257
2026-01-10 13:55:02.75	354.21	22.92	-35.1	-36.3	18.0	0.00e+00	0	57	0	488636416	40	4212
2026-01-10 13:55:03.77	354.13	22.78	-35.3	-36.5	17.7	0.00e+00	0	56	0	495976448	40	4321
2026-01-10 13:55:04.78	354.05	22.64	-35.5	-36.8	17.3	0.00e+00	0	57	0	503316480	40	4469
2026-01-10 13:55:05.78	353.98	22.50	-35.3	-36.6	17.4	0.00e+00	0	57	0	510656512	40	4342
2026-01-10 13:55:06.79	353.90	22.36	-35.0	-36.3	17.6	0.00e+00	0	57	0	516947968	40	4207
2026-01-10 13:55:07.80	353.82	22.22	-35.0	-36.3	17.3	0.00e+00	0	57	0	525336576	40	4234
2026-01-10 13:55:08.81	353.75	22.09	-35.2	-36.5	17.0	0.00e+00	0	57	0	532676608	40	4332
2026-01-10 13:55:09.82	353.67	21.95	-35.3	-36.6	16.8	0.00e+00	0	57	0	538968064	40	4387
2026-01-10 13:55:10.83	353.60	21.81	-35.3	-36.7	16.7	0.00e+00	0	57	0	546308096	40	4420
2026-01-10 13:55:11.84	353.52	21.68	-35.4	-36.9	16.4	0.00e+00	0	57	0	553648128	40	4502
2026-01-10 13:55:12.85	353.45	21.54	-35.9	-37.4	15.7	0.00e+00	0	57	0	560988160	41	4521
2026-01-10 13:55:13.86	353.38	21.41	-36.6	-38.3	14.7	0.00e+00	0	57	0	568328192	42	4733
2026-01-10 13:55:14.87	353.31	21.27	-37.4	-39.4	13.5	5.70e-06	0	57	0	575668224	44	4794
2026-01-10 13:55:15.88	353.24	21.14	-38.2	-40.6	12.1	1.20e-04	0	57	0	583008256	45	5182
2026-01-10 13:55:16.88	353.17	21.01	-38.9	-41.9	10.4	2.97e-03	0	56	0	590348288	47	5341
2026-01-10 13:55:17.90	353.10	20.88	-39.8	-43.5	8.6	2.20e-02	0	56	0	597688320	49	5769
2026-01-10 13:55:18.91	353.03	20.74	-40.3	-44.9	7.1	1.27e-01	0	57	0	605028352	50	6375
2026-01-10 13:55:19.91	352.96	20.62	-40.7	-46.5	5.6	3.62e-01	0	57	0	612368384	50	7658
2026-01-10 13:55:20.92	352.89	20.49	-40.9	-47.8	4.7	7.93e-01	0	57	0	613416960	51	8374
2026-01-10 13:55:21.93	352.83	20.36	-41.1	-49.1	4.2	8.33e-01	0	57	0	613416960	51	9786
2026-01-10 13:55:22.94	352.76	20.23	-41.2	-50.2	3.9	8.44e-01	0	57	104	613416960	51	11089
2026-01-10 13:55:23.95	352.69	20.10	-41.2	-51.0	3.8	8.45e-01	0	57	104	613416960	51	12200
2026-01-10 13:55:24.96	352.63	19.97	-41.1	-51.5	3.8	8.45e-01	0	57	104	613416960	52	12131
2026-01-10 13:55:25.97	352.56	19.84	-41.1	-51.8	3.8	8.46e-01	0	57	104	613416960	52	12610
2026-01-10 13:55:26.98	352.50	19.72	-41.1	-52.0	3.8	8.46e-01	0	57	104	613416960	52	12842
2026-01-10 13:55:27.99	352.43	19.59	-41.0	-52.0	3.8	8.45e-01	0	57	104	613416960	52	12918
2026-01-10 13:55:29.00	352.37	19.47	-41.0	-52.0	3.8	8.47e-01	0	57	104	613416960	52	12928
2026-01-10 13:55:30.01	352.31	19.34	-40.8	-51.9	3.8	8.47e-01	0	57	104	613416960	52	12707
2026-01-10 13:55:31.02	352.25	19.22	-41.5	-52.4	3.8	8.46e-01	0	57	104	613416960	52	13439
2026-01-10 13:55:32.03	352.19	19.10	-41.2	-52.1	3.8	8.47e-01	0	57	104	613416960	52	13100
2026-01-10 13:55:33.04	352.12	18.97	-40.9	-51.9	3.8	8.45e-01	0	57	104	613416960	52	12789
2026-01-10 13:55:34.04	352.06	18.85	-41.1	-52.2	3.8	8.46e-01	0	57	104	613416960	52	13123
2026-01-10 13:55:35.05	352.00	18.73	-40.9	-51.9	3.8	8.46e-01	0	57	104	613416960	52	12800
2026-01-10 13:55:36.06	351.94	18.61	-40.8	-52.0	3.8	8.47e-01	0	57	104	613416960	52	12858
2026-01-10 13:55:37.08	351.89	18.49	-41.1	-52.2	3.8	8.46e-01	0	57	104	613416960	52	13168
2026-01-10 13:55:38.08	351.83	18.37	-40.8	-52.0	3.8	8.47e-01	0	57	104	613416960	52	12874
2026-01-10 13:55:39.09	351.77	18.25	-41.0	-52.1	3.8	8.48e-01	0	57	104	613416960	52	13046
2026-01-10 13:55:40.10	351.71	18.13	-40.9	-52.0	3.8	8.47e-01	0	57	104	613416960	52	12818
2026-01-10 13:55:41.11	351.65	18.01	-41.0	-52.1	3.8	8.45e-01	0	57	104	613416960	52	13016
2026-01-10 13:55:42.12	351.60	17.90	-40.9	-51.9	3.8	8.45e-01	0	57	104	613416960	52	12799
2026-01-10 13:55:43.13	351.54	17.78	-41.0	-52.1	3.8	8.46e-01	0	57	104	613416960	52	13053
2026-01-10 13:55:44.14	351.49	17.66	-40.6	-52.1	3.8	8.45e-01	0	57	104	613416960	52	13106
2026-01-10 13:55:45.15	351.43	17.55	-40.8	-51.9	3.8	8.46e-01	0	57	104	613416960	52	12767
2026-01-10 13:55:46.16	351.38	17.43	-40.5	-52.2	3.8	8.46e-01	0	57	104	613416960	51	13957
2026-01-10 13:55:47.17	351.32	17.32	-40.9	-52.0	3.8	8.46e-01	0	57	104	613416960	51	13615
2026-01-10 13:55:48.18	351.27	17.20	-41.0	-52.2	3.8	8.45e-01	0	57	104	613416960	51	13886
2026-01-10 13:55:49.19	351.22	17.09	-40.9	-52.1	3.8	8.46e-01	0	57	104	613416960	51	13855
2026-01-10 13:55:50.20	351.16	16.97	-41.0	-52.3	3.8	8.44e-01	0	57	104	613416960	51	14139
2026-01-10 13:55:51.21	351.11	16.86	-40.8	-52.1	3.8	8.46e-01	0	57	104	613416960	51	13846
2026-01-10 13:55:52.22	351.06	16.75	-40.6	-52.1	3.8	8.46e-01	0	57	104	613416960	51	13884
2026-01-10 13:55:53.24	351.01	16.63	-40.8	-52.1	3.8	8.46e-01	0	57	104	613416960	51	13825
2026-01-10 13:55:54.25	350.95	16.52	-40.7	-52.2	3.8	8.45e-01	0	57	104	613416960	51	13914
2026-01-10 13:55:55.26	350.90	16.41	-40.7	-52.1	3.8	8.45e-01	0	57	104	613416960	51	13857
2026-01-10 13:55:56.26	350.85	16.30	-40.8	-52.4	3.8	8.47e-01	0	57	104	613416960	51	14221
2026-01-10 13:55:57.27	350.80	16.19	-40.7	-52.1	3.8	8.46e-01	0	57	104	613416960	51	13828
2026-01-10 13:55:58.28	350.75	16.08	-40.8	-52.3	3.8	8.45e-01	0	57	104	613416960	51	14066
2026-01-10 13:55:59.30	350.70	15.97	-40.8	-52.1	3.8	8.47e-01	0	57	104	613416960	51	13859
2026-01-10 13:56:00.31	350.65	15.86	-40.8	-52.4	3.8	8.46e-01	0	57	104	613416960	51	14225
2026-01-10 13:56:01.31	350.61	15.76	-40.5	-52.2	3.8	8.46e-01	0	57	104	613416960	51	13933
2026-01-10 13:56:02.32	350.56	15.65	-40.8	-52.4	3.8	8.45e-01	0	57	104	613416960	51	14297
2026-01-10 13:56:03.33	350.51	15.54	-40.5	-52.2	3.8	8.47e-01	0	57	104	613416960	51	13994
2026-01-10 13:56:04.34	350.46	15.43	-40.9	-52.2	3.8	8.46e-01	0	57	104	613416960	51	13926
2026-01-10 13:56:05.35	350.42	15.33	-40.9	-52.3	3.8	8.46e-01	0	57	104	613416960	51	14161
2026-01-10 13:56:06.36	350.37	15.22	-40.9	-52.3	3.8	8.46e-01	0	57	104	613416960	51	14120
2026-01-10 13:56:07.37	350.32	15.12	-40.9	-52.2	3.8	8.45e-01	0	57	104	613416960	51	13921
2026-01-10 13:56:08.38	350.28	15.01	-40.7	-52.2	3.8	8.46e-01	0	57	104	613416960	51	14032
2026-01-10 13:56:09.39	350.23	14.91	-40.8	-52.4	3.8	8.47e-01	0	57	104	613416960	51	14217
2026-01-10 13:56:10.40	350.19	14.80	-40.7	-52.2	3.8	8.46e-01	0	57	104	613416960	51	13992
2026-01-10 13:56:11.41	350.14	14.70	-40.8	-52.3	3.8	8.46e-01	0	57	104	613416960	51	14168
2026-01-10 13:56:12.42	350.10	14.59	-40.7	-52.4	3.8	8.46e-01	0	57	104	613416960	51	14216
2026-01-10 13:56:13.43	350.05	14.49	-40.8	-52.2	3.8	8.47e-01	0	57	104	613416960	51	13902
2026-01-10 13:56:14.43	350.01	14.39	-40.7	-52.3	3.8	8.46e-01	0	57	104	613416960	51	14117
2026-01-10 13:56:15.44	349.97	14.29	-41.0	-52.1	3.8	8.46e-01	0	57	104	613416960	51	13870
2026-01-10 13:56:16.45	349.92	14.19	-40.8	-52.1	3.8	8.46e-01	0	57	104	613416960	51	13812
2026-01-10 13:56:17.46	349.88	14.08	-40.7	-52.2	3.8	8.46e-01	0	57	104	613416960	51	13888
2026-01-10 13:56:18.47	349.84	13.98	-40.9	-52.1	3.8	8.45e-01	0	57	104	613416960	51	13848
2026-01-10 13:56:19.48	349.79	13.88	-40.7	-52.3	3.8	8.47e-01	0	57	104	613416960	51	14055
2026-01-10 13:56:20.49	349.75	13.78	-40.8	-52.0	3.8	8.46e-01	0	57	104	613416960	52	12948
2026-01-10 13:56:21.50	349.71	13.68	-40.8	-52.1	3.8	8.46e-01	0	57	104	613416960	52	12973
2026-01-10 13:56:22.51	349.67	13.58	-40.8	-52.1	3.8	8.46e-01	0	57	104	613416960	52	12971
2026-01-10 13:56:23.52	349.63	13.48	-40.7	-52.1	3.8	8.46e-01	0	57	104	613416960	52	12975
2026-01-10 13:56:24.53	349.59	13.39	-40.8	-52.2	3.8	8.46e-01	0	57	104	613416960	51	13897
2026-01-10 13:56:25.54	349.55	13.29	-40.8	-52.1	3.8	8.46e-01	0	57	104	613416960	51	13835
2026-01-10 13:56:26.55	349.51	13.19	-40.8	-52.1	3.8	8.47e-01	0	57	104	613416960	51	13872
2026-01-10 13:56:27.56	349.47	13.09	-41.0	-52.2	3.8	8.46e-01	0	57	104	613416960	51	13889
2026-01-10 13:56:28.57	349.43	13.00	-40.7	-52.1	3.8	8.45e-01	0	57	104	613416960	51	13872
2026-01-10 13:56:29.58	349.39	12.90	-40.7	-52.1	3.8	8.45e-01	0	57	104	613416960	51	13873
2026-01-10 13:56:30.59	349.35	12.80	-40.6	-52.1	3.8	8.46e-01	0	57	104	613416960	51	13838
2026-01-10 13:56:31.60	349.31	12.71	-40.4	-52.0	3.8	8.46e-01	0	57	104	613416960	51	13614
2026-01-10 13:56:32.60	349.27	12.61	-40.6	-52.1	3.8	8.46e-01	0	57	104	613416960	51	13823
2026-01-10 13:56:33.61	349.23	12.52	-40.5	-52.1	3.8	8.46e-01	0	57	104	613416960	51	13808
2026-01-10 13:56:34.62	349.20	12.42	-40.6	-52.1	3.8	8.47e-01	0	57	104	613416960	51	13874
2026-01-10 13:56:35.63	349.16	12.33	-41.0	-52.3	3.8	8.45e-01	0	57	104	613416960	51	14084
2026-01-10 13:56:36.64	349.12	12.23	-40.4	-52.0	3.8	8.46e-01	0	57	104	613416960	51	13670
2026-01-10 13:56:37.65	349.08	12.14	-40.9	-52.2	3.8	8.46e-01	0	57	104	613416960	51	14045
2026-01-10 13:56:38.66	349.05	12.05	-40.4	-51.9	3.8	8.46e-01	0	57	104	613416960	51	13568
2026-01-10 13:56:39.67	349.01	11.95	-40.9	-52.1	3.8	8.46e-01	0	57	104	613416960	51	13832
2026-01-10 13:56:40.68	348.97	11.86	-40.5	-52.1	3.8	8.46e-01	0	57	104	613416960	51	13828
2026-01-10 13:56:41.69	348.94	11.77	-40.9	-52.2	3.8	8.45e-01	0	57	104	613416960	51	13913
2026-01-10 13:56:42.70	348.90	11.67	-40.5	-52.1	3.8	8.46e-01	0	57	104	613416960	51	13840
2026-01-10 13:56:43.71	348.87	11.58	-41.2	-52.4	3.8	8.47e-01	0	57	104	613416960	51	14218
2026-01-10 13:56:44.72	348.83	11.49	-40.7	-52.0	3.8	8.45e-01	0	57	104	613416960	52	12843
2026-01-10 13:56:45.73	348.79	11.40	-41.1	-52.2	3.8	8.46e-01	0	57	104	613416960	52	13160
2026-01-10 13:56:46.74	348.76	11.31	-40.9	-52.0	3.8	8.47e-01	0	57	104	613416960	52	12941
2026-01-10 13:56:47.75	348.73	11.22	-41.2	-52.2	3.8	8.46e-01	0	57	104	613416960	52	13153
2026-01-10 13:56:48.76	348.69	11.13	-40.6	-52.0	3.8	8.45e-01	0	57	104	613416960	52	12947
2026-01-10 13:56:49.77	348.66	11.04	-41.2	-52.2	3.8	8.45e-01	0	57	104	613416960	52	13142
2026-01-10 13:56:50.78	348.62	10.95	-40.8	-52.0	3.8	8.47e-01	0	57	104	613416960	52	12904
2026-01-10 13:56:51.79	348.59	10.86	-41.2	-52.2	3.8	8.46e-01	0	57	104	613416960	52	13179
2026-01-10 13:56:52.80	348.56	10.77	-41.0	-52.0	3.8	8.45e-01	0	57	104	613416960	52	12852
2026-01-10 13:56:53.81	348.52	10.68	-41.2	-52.2	3.8	8.46e-01	0	57	104	613416960	52	13215
2026-01-10 13:56:54.82	348.49	10.59	-41.0	-52.0	3.8	8.46e-01	0	57	104	613416960	52	12857
2026-01-10 13:56:55.83	348.46	10.51	-41.3	-52.3	3.8	8.45e-01	0	57	104	613416960	52	13261
2026-01-10 13:56:56.84	348.42	10.42	-41.1	-52.2	3.8	8.47e-01	0	57	104	613416960	52	13134
2026-01-10 13:56:57.85	348.39	10.33	-41.3	-52.3	3.8	8.46e-01	0	57	104	613416960	52	13314
2026-01-10 13:56:58.86	348.36	10.24	-41.1	-52.2	3.8	8.45e-01	0	57	104	613416960	52	13118
2026-01-10 13:56:59.87	348.33	10.16	-41.1	-52.2	3.8	8.46e-01	0	57	104	613416960	52	13203
2026-01-10 13:57:00.88	348.30	10.07	-41.1	-52.0	3.8	8.47e-01	0	57	104	613416960	52	12890
2026-01-10 13:57:01.89	348.26	9.98	-41.2	-52.2	3.8	8.45e-01	0	57	104	613416960	52	13196
2026-01-10 13:57:02.90	348.23	9.90	-41.1	-52.1	3.8	8.46e-01	0	57	104	613416960	52	12992
2026-01-10 13:57:03.91	348.20	9.81	-41.4	-52.3	3.8	8.47e-01	0	57	104	613416960	52	13321
2026-01-10 13:57:04.92	348.17	9.73	-41.2	-52.2	3.8	8.46e-01	0	57	104	613416960	52	13188
2026-01-10 13:57:05.93	348.14	9.64	-41.4	-52.2	3.8	8.46e-01	0	57	104	613416960	52	13249
2026-01-10 13:57:06.94	348.11	9.56	-41.2	-52.2	3.8	8.46e-01	0	57	104	613416960	52	13150
2026-01-10 13:57:07.95	348.08	9.47	-41.2	-52.2	3.8	8.46e-01	0	57	104	613416960	52	13160
2026-01-10 13:57:08.97	348.05	9.39	-41.3	-52.2	3.8	8.46e-01	0	57	104	613416960	52	13182
2026-01-10 13:57:09.98	348.02	9.30	-41.2	-52.2	3.8	8.46e-01	0	57	104	613416960	52	13145
2026-01-10 13:57:10.99	347.99	9.22	-41.3	-52.2	3.8	8.46e-01	0	57	104	613416960	52	13230
2026-01-10 13:57:11.99	347.96	9.14	-41.3	-52.2	3.8	8.45e-01	0	57	104	613416960	52	13181
2026-01-10 13:57:13.00	347.93	9.06	-41.3	-52.2	3.8	8.46e-01	0	57	104	613416960	52	13222
2026-01-10 13:57:14.01	347.90	8.97	-41.3	-52.1	3.8	8.47e-01	0	57	104	613416960	52	13100
2026-01-10 13:57:15.03	347.87	8.89	-41.3	-52.2	3.8	8.46e-01	0	57	104	613416960	52	13231
2026-01-10 13:57:16.03	347.84	8.81	-41.3	-52.2	3.8	8.46e-01	0	57	104	613416960	52	13163
2026-01-10 13:57:17.04	347.82	8.73	-41.3	-52.3	3.8	8.46e-01	0	57	104	613416960	52	13272
2026-01-10 13:57:18.05	347.79	8.64	-41.3	-52.2	3.8	8.48e-01	0	57	104	613416960	52	13164
2026-01-10 13:57:19.06	347.76	8.56	-41.3	-52.3	3.8	8.47e-01	0	57	104	613416960	52	13268
2026-01-10 13:57:20.07	347.73	8.48	-41.2	-52.1	3.8	8.45e-01	0	57	104	613416960	52	13082
2026-01-10 13:57:21.08	347.70	8.40	-41.4	-52.3	3.8	8.47e-01	0	57	104	613416960	52	13333
2026-01-10 13:57:22.09	347.67	8.32	-41.2	-52.1	3.8	8.45e-01	0	57	104	613416960	52	13002
2026-01-10 13:57:23.10	347.65	8.24	-41.4	-52.3	3.8	8.46e-01	0	57	104	613416960	52	13311
2026-01-10 13:57:24.11	347.62	8.16	-41.3	-52.2	3.8	8.47e-01	0	57	104	613416960	52	13146
2026-01-10 13:57:25.12	347.59	8.08	-41.3	-52.3	3.8	8.45e-01	0	57	104	613416960	52	13264
2026-01-10 13:57:26.13	347.57	8.00	-41.3	-52.2	3.8	8.46e-01	0	57	104	613416960	52	13140
2026-01-10 13:57:27.14	347.54	7.92	-41.2	-52.3	3.8	8.47e-01	0	57	104	613416960	52	13273
2026-01-10 13:57:28.15	347.51	7.84	-41.6	-52.6	3.8	8.46e-01	0	57	104	613416960	53	13014
2026-01-10 13:57:29.16	347.49	7.76	-43.9	-54.9	3.8	8.46e-01	0	57	104	613416960	57	13453
2026-01-10 13:57:30.17	347.46	7.68	-45.2	-56.3	3.8	8.48e-01	0	57	104	613416960	60	13368
2026-01-10 13:57:31.18	347.43	7.60	-45.3	-56.4	3.8	8.45e-01	0	57	104	613416960	60	13462
2026-01-10 13:57:32.19	347.41	7.52	-45.4	-56.4	3.8	8.46e-01	0	57	104	613416960	60	13560
2026-01-10 13:57:33.20	347.38	7.45	-45.4	-56.5	3.8	8.47e-01	0	57	104	613416960	60	13680
2026-01-10 13:57:34.21	347.36	7.37	-45.5	-56.6	3.8	8.46e-01	0	57	104	613416960	60	13736
2026-01-10 13:57:35.22	347.33	7.29	-45.5	-56.6	3.8	8.46e-01	0	57	104	613416960	60	13760
2026-01-10 13:57:36.24	347.31	7.21	-45.5	-56.6	3.8	8.46e-01	0	57	104	613416960	60	13758
2026-01-10 13:57:37.25	347.28	7.14	-45.3	-56.5	3.8	8.47e-01	0	57	104	613416960	60	13720
2026-01-10 13:57:38.26	347.25	7.06	-45.5	-56.5	3.8	8.46e-01	0	57	104	613416960	60	13714
2026-01-10 13:57:39.27	347.23	6.98	-45.4	-56.5	3.8	8.45e-01	0	57	104	613416960	60	13607
2026-01-10 13:57:40.28	347.21	6.91	-45.4	-56.5	3.8	8.46e-01	0	58	104	613416960	60	13597
2026-01-10 13:57:41.29	347.18	6.83	-45.4	-56.4	3.8	8.45e-01	0	57	104	613416960	60	13504
2026-01-10 13:57:42.30	347.16	6.75	-45.4	-56.4	3.8	8.47e-01	0	57	104	613416960	60	13461
2026-01-10 13:57:43.31	347.13	6.68	-45.3	-56.4	3.8	8.46e-01	0	57	104	613416960	60	13436
2026-01-10 13:57:44.32	347.11	6.60	-45.4	-56.3	3.8	8.46e-01	0	57	104	613416960	60	13402
2026-01-10 13:57:45.33	347.08	6.53	-45.3	-56.4	3.8	8.47e-01	0	58	104	613416960	60	13425
2026-01-10 13:57:46.35	347.06	6.45	-45.4	-56.4	3.8	8.46e-01	0	57	104	613416960	60	13449
2026-01-10 13:57:47.36	347.04	6.38	-45.4	-56.3	3.8	8.46e-01	0	57	104	613416960	60	13397
2026-01-10 13:57:48.37	347.01	6.30	-45.4	-56.4	3.8	8.46e-01	0	57	104	613416960	60	13440
2026-01-10 13:57:49.38	346.99	6.23	-45.3	-56.3	3.8	8.45e-01	0	58	104	613416960	60	13390
2026-01-10 13:57:50.39	346.97	6.15	-45.3	-56.3	3.8	8.46e-01	0	57	104	613416960	60	13366
2026-01-10 13:57:51.40	346.94	6.08	-45.3	-56.3	3.8	8.46e-01	0	57	104	613416960	60	13398
2026-01-10 13:57:52.41	346.92	6.00	-45.3	-56.3	3.8	8.47e-01	0	58	104	613416960	60	13376
2026-01-10 13:57:53.42	346.90	5.93	-45.3	-56.4	3.8	8.46e-01	0	57	104	613416960	60	13420
2026-01-10 13:57:54.43	346.87	5.86	-45.3	-56.3	3.8	8.46e-01	0	57	104	613416960	60	13384
2026-01-10 13:57:55.44	346.85	5.78	-45.3	-56.4	3.8	8.46e-01	0	57	104	613416960	60	13418
2026-01-10 13:57:56.45	346.83	5.71	-45.3	-56.3	3.8	8.46e-01	0	57	104	613416960	60	13382
2026-01-10 13:57:57.47	346.81	5.64	-45.3	-56.3	3.8	8.46e-01	0	57	104	613416960	60	13397
2026-01-10 13:57:58.48	346.78	5.56	-45.3	-56.4	3.8	8.46e-01	0	57	104	613416960	60	13425
2026-01-10 13:57:59.49	346.76	5.49	-45.3	-56.4	3.8	8.45e-01	0	57	104	613416960	60	13427
2026-01-10 13:58:00.50	346.74	5.42	-45.3	-56.4	3.8	8.46e-01	0	57	104	613416960	60	13419
2026-01-10 13:58:01.51	346.72	5.35	-45.3	-56.3	3.8	8.46e-01	0	57	104	613416960	60	13387
2026-01-10 13:58:02.52	346.70	5.27	-45.3	-56.3	3.8	8.47e-01	0	58	104	613416960	60	13348
2026-01-10 13:58:03.53	346.68	5.20	-45.3	-56.3	3.8	8.45e-01	0	57	104	613416960	60	13327
2026-01-10 13:58:04.54	346.65	5.13	-45.3	-56.3	3.8	8.46e-01	0	57	104	613416960	60	13340
2026-01-10 13:58:05.55	346.63	5.06	-45.3	-56.4	3.8	8.46e-01	0	57	104	613416960	60	13418
2026-01-10 13:58:06.57	346.61	4.99	-45.3	-56.3	3.8	8.45e-01	0	57	104	613416960	60	13347
2026-01-10 13:58:07.58	346.59	4.92	-45.3	-56.3	3.8	8.47e-01	0	57	104	613416960	60	13365
2026-01-10 13:58:08.59	346.57	4.85	-45.3	-56.3	3.8	8.47e-01	0	58	104	613416960	60	13353
2026-01-10 13:58:09.60	346.55	4.77	-45.3	-56.3	3.8	8.46e-01	0	57	104	613416960	60	13373
2026-01-10 13:58:10.61	346.53	4.70	-45.3	-56.3	3.8	8.46e-01	0	57	104	613416960	60	13380
2026-01-10 13:58:11.62	346.51	4.63	-45.3	-56.4	3.8	8.46e-01	0	58	104	613416960	60	13433
2026-01-10 13:58:12.63	346.49	4.56	-45.3	-56.3	3.8	8.47e-01	0	57	104	613416960	60	13387
2026-01-10 13:58:13.64	346.47	4.49	-45.3	-56.3	3.8	8.46e-01	0	58	104	613416960	60	13389
2026-01-10 13:58:14.65	346.45	4.42	-45.3	-56.3	3.8	8.46e-01	0	57	104	613416960	60	13369
2026-01-10 13:58:15.67	346.43	4.35	-45.3	-56.3	3.8	8.47e-01	0	57	104	613416960	60	13366
2026-01-10 13:58:16.68	346.41	4.28	-45.3	-56.3	3.8	8.45e-01	0	57	104	613416960	60	13405
2026-01-10 13:58:17.69	346.39	4.22	-45.3	-56.3	3.8	8.45e-01	0	57	104	613416960	60	13405
2026-01-10 13:58:18.70	346.37	4.15	-45.3	-56.3	3.8	8.46e-01	0	57	104	613416960	60	13397
2026-01-10 13:58:19.71	346.35	4.08	-45.3	-56.3	3.8	8.46e-01	0	57	104	613416960	60	13367
2026-01-10 13:58:20.72	346.33	4.01	-45.3	-56.3	3.8	8.45e-01	0	57	104	613416960	60	13349
2026-01-10 13:58:21.73	346.31	3.94	-45.3	-56.3	3.8	8.46e-01	0	58	104	613416960	60	13391
2026-01-10 13:58:22.74	346.29	3.87	-45.3	-56.3	3.8	8.45e-01	0	57	104	613416960	60	13351
2026-01-10 13:58:23.75	346.27	3.80	-45.3	-56.3	3.8	8.46e-01	0	57	104	613416960	60	13354
2026-01-10 13:58:24.76	346.25	3.74	-45.2	-56.3	3.8	8.45e-01	0	57	104	613416960	60	13373
2026-01-10 13:58:25.77	346.23	3.67	-45.3	-56.3	3.8	8.47e-01	0	58	104	613416960	60	13328
2026-01-10 13:58:26.78	346.21	3.60	-45.3	-56.3	3.8	8.47e-01	0	57	104	613416960	60	13386
2026-01-10 13:58:27.79	346.19	3.53	-45.3	-56.3	3.8	8.47e-01	0	57	104	613416960	60	13372
2026-01-10 13:58:28.80	346.18	3.46	-45.3	-56.3	3.8	8.47e-01	0	57	104	613416960	60	13372
2026-01-10 13:58:29.81	346.16	3.40	-45.3	-56.3	3.8	8.46e-01	0	57	104	613416960	60	13345
2026-01-10 13:58:30.83	346.14	3.33	-45.3	-56.3	3.8	8.46e-01	0	57	104	613416960	60	13378
2026-01-10 13:58:31.84	346.12	3.26	-45.3	-56.3	3.8	8.46e-01	0	57	104	613416960	60	13405
2026-01-10 13:58:32.85	346.10	3.20	-45.3	-56.3	3.8	8.46e-01	0	57	104	613416960	60	13343
2026-01-10 13:58:33.86	346.08	3.13	-45.3	-56.3	3.8	8.46e-01	0	57	104	613416960	60	13379
2026-01-10 13:58:34.87	346.07	3.06	-45.3	-56.3	3.8	8.45e-01	0	57	104	613416960	60	13338
2026-01-10 13:58:35.88	346.05	3.00	-45.3	-56.3	3.8	8.47e-01	0	57	104	613416960	60	13286
2026-01-10 13:58:36.89	346.03	2.93	-45.3	-56.3	3.8	8.46e-01	0	57	104	613416960	60	13354
2026-01-10 13:58:37.90	346.01	2.86	-45.3	-56.3	3.8	8.45e-01	0	57	104	613416960	60	13411
2026-01-10 13:58:38.91	346.00	2.80	-45.3	-56.3	3.8	8.45e-01	0	58	104	613416960	60	13379
2026-01-10 13:58:39.92	345.98	2.73	-45.3	-56.3	3.8	8.46e-01	0	57	104	613416960	60	13327
2026-01-10 13:58:40.94	345.96	2.67	-45.3	-56.3	3.8	8.47e-01	0	58	104	613416960	60	13345
2026-01-10 13:58:41.95	345.94	2.60	-45.3	-56.3	3.8	8.46e-01	0	58	104	613416960	60	13348
2026-01-10 13:58:42.96	345.93	2.54	-45.3	-56.3	3.8	8.48e-01	0	57	104	613416960	60	13384
2026-01-10 13:58:43.97	345.91	2.47	-45.3	-56.4	3.8	8.47e-01	0	58	104	613416960	60	13421
2026-01-10 13:58:44.98	345.89	2.41	-45.3	-56.3	3.8	8.46e-01	0	57	104	613416960	60	13372
2026-01-10 13:58:45.99	345.87	2.34	-45.3	-56.3	3.8	8.46e-01	0	57	104	613416960	60	13356
2026-01-10 13:58:47.00	345.86	2.28	-45.3	-56.4	3.8	8.44e-01	0	58	104	613416960	60	13428
2026-01-10 13:58:48.01	345.84	2.21	-45.3	-56.3	3.8	8.47e-01	0	57	104	613416960	60	13383
2026-01-10 13:58:49.02	345.82	2.15	-45.3	-56.3	3.8	8.46e-01	0	57	104	613416960	60	13407
2026-01-10 13:58:50.04	345.81	2.08	-45.3	-56.3	3.8	8.46e-01	0	57	104	613416960	60	13380
2026-01-10 13:58:51.05	345.79	2.02	-45.3	-56.3	3.8	8.48e-01	0	57	104	613416960	60	13361
2026-01-10 13:58:52.06	345.77	1.96	-45.3	-56.3	3.8	8.46e-01	0	57	104	613416960	60	13324

#Closed at: 2026-01-10 13:58:53
#Recorded file [613 MB]: D:/lorett/data/31039_260110_165312.dat