passes_logs/2026/01/10/R2.0S_Moscow/R2.0S_Moscow__20260110_035401_FENGYUN_3E_rec.log

#Pass ID: 20260110_035401_FENGYUN 3E
#Satellite: FENGYUN 3E
#Configuration: FENGYUN 3E
#almurnet v.1.7.20251203
#Start time: 2026-01-10 04:00:43

#Version: 2.2.20231116
#Station: R2.0S_Moscow
#Location: 37.707566 lon 55.798166 lat
#TLE: 1 49008U 21062A   26009.29780149 -.00000002  00000+0  19895-4 0  9997
#TLE: 2 49008  98.7484  14.4929 0001744 148.2300 211.8982 14.19883977234036

#Time	Az	El	Level	Level2	SNR	BER	BlckErr	Temp	State	Recorded	gain1	gain2
2026-01-10 04:00:43.07	27.18	72.98	-44.8	-56.6	3.8	8.45e-01	0	57	0	0	60	14665
2026-01-10 04:00:44.08	27.49	73.45	-45.2	-56.2	3.8	8.46e-01	0	57	104	0	61	12455
2026-01-10 04:00:45.09	27.82	73.93	-45.2	-56.2	3.8	8.46e-01	0	57	104	0	61	12510
2026-01-10 04:00:46.10	28.17	74.41	-45.2	-56.2	3.8	8.46e-01	0	57	104	0	61	12441
2026-01-10 04:00:47.10	28.54	74.89	-45.2	-56.2	3.8	8.45e-01	0	57	104	0	61	12462
2026-01-10 04:00:48.11	28.94	75.37	-45.2	-56.3	3.8	8.47e-01	0	57	104	0	61	12575
2026-01-10 04:00:49.12	29.37	75.86	-45.2	-56.2	3.8	8.47e-01	0	57	104	0	61	12479
2026-01-10 04:00:50.13	29.82	76.34	-45.2	-56.2	3.8	8.45e-01	0	57	104	0	61	12486
2026-01-10 04:00:51.14	30.32	76.83	-45.2	-56.2	3.8	8.45e-01	0	57	104	0	61	12478
2026-01-10 04:00:52.15	30.85	77.32	-45.2	-56.2	3.8	8.46e-01	0	57	104	0	61	12473
2026-01-10 04:00:53.17	31.43	77.81	-45.2	-56.2	3.8	8.45e-01	0	57	104	0	61	12437
2026-01-10 04:00:54.17	32.05	78.29	-45.2	-56.2	3.8	8.46e-01	0	57	104	0	61	12454
2026-01-10 04:00:55.18	32.73	78.78	-45.2	-56.2	3.8	8.46e-01	0	57	104	0	61	12472
2026-01-10 04:00:56.19	33.47	79.26	-45.2	-56.2	3.8	8.46e-01	0	57	104	0	61	12434
2026-01-10 04:00:57.21	34.29	79.75	-45.2	-56.2	3.8	8.46e-01	0	57	104	0	61	12468
2026-01-10 04:00:58.22	35.19	80.24	-45.2	-56.2	3.8	8.46e-01	0	57	104	0	61	12486
2026-01-10 04:00:59.23	36.18	80.72	-45.2	-56.2	3.8	8.46e-01	0	57	104	0	61	12473
2026-01-10 04:01:00.24	37.28	81.21	-45.2	-56.2	3.8	8.45e-01	0	57	104	0	61	12406
2026-01-10 04:01:01.25	38.51	81.68	-45.2	-56.1	3.8	8.46e-01	0	57	104	0	61	12289
2026-01-10 04:01:02.26	39.89	82.16	-45.2	-56.1	3.8	8.46e-01	0	57	104	0	61	12325
2026-01-10 04:01:03.27	41.45	82.63	-45.2	-56.2	3.8	8.45e-01	0	57	104	0	61	12405
2026-01-10 04:01:04.28	43.23	83.10	-45.2	-56.2	3.8	8.46e-01	0	57	104	0	61	12395
2026-01-10 04:01:05.29	45.26	83.56	-45.2	-56.2	3.8	8.47e-01	0	57	104	0	61	12466
2026-01-10 04:01:06.30	47.60	84.01	-45.2	-56.2	3.8	8.46e-01	0	57	104	0	61	12465
2026-01-10 04:01:07.31	50.33	84.45	-45.2	-56.2	3.8	8.47e-01	0	57	104	0	61	12415
2026-01-10 04:01:08.32	53.51	84.88	-45.2	-56.0	3.8	8.46e-01	0	57	104	0	61	12223
2026-01-10 04:01:09.33	57.27	85.29	-45.2	-56.1	3.8	8.46e-01	0	57	104	0	61	12239
2026-01-10 04:01:10.35	61.76	85.67	-45.2	-56.2	3.8	8.46e-01	0	57	104	0	61	12443
2026-01-10 04:01:11.36	67.04	86.03	-45.2	-56.2	3.8	8.46e-01	0	57	104	0	61	12402
2026-01-10 04:01:12.37	73.30	86.34	-45.2	-55.9	3.8	8.46e-01	0	57	104	0	61	12070
2026-01-10 04:01:13.38	80.62	86.61	-45.2	-55.7	3.8	8.48e-01	0	57	104	0	61	11780
2026-01-10 04:01:14.39	89.02	86.81	-45.2	-56.0	3.8	8.46e-01	0	57	104	0	61	12189
2026-01-10 04:01:15.40	98.31	86.93	-45.2	-56.1	3.8	8.47e-01	0	57	104	0	61	12359
2026-01-10 04:01:16.41	108.09	86.97	-45.2	-56.2	3.8	8.46e-01	0	57	104	0	61	12405
2026-01-10 04:01:17.42	117.83	86.91	-45.2	-55.6	3.8	8.47e-01	0	57	104	0	61	11679
2026-01-10 04:01:18.43	126.99	86.78	-45.1	-55.5	3.8	8.46e-01	0	57	104	0	61	11475
2026-01-10 04:01:19.44	135.22	86.57	-45.2	-56.1	3.8	8.46e-01	0	57	104	0	61	12281
2026-01-10 04:01:20.45	142.37	86.29	-45.2	-55.9	3.8	8.47e-01	0	57	104	0	61	11958
2026-01-10 04:01:21.46	148.46	85.97	-45.1	-55.6	3.8	8.46e-01	0	57	104	0	61	11587
2026-01-10 04:01:22.47	153.59	85.61	-45.2	-56.2	3.8	8.46e-01	0	57	104	0	61	12380
2026-01-10 04:01:23.48	157.92	85.22	-45.1	-55.7	3.8	8.46e-01	0	57	104	0	61	11743
2026-01-10 04:01:24.49	161.58	84.81	-45.1	-55.5	3.8	8.46e-01	0	57	104	0	61	11510
2026-01-10 04:01:25.50	164.69	84.38	-45.2	-55.8	3.8	8.46e-01	0	57	104	0	61	11950
2026-01-10 04:01:26.51	167.35	83.94	-45.1	-55.0	3.8	8.45e-01	0	57	104	0	61	10896
2026-01-10 04:01:27.52	169.64	83.49	-45.2	-56.0	3.8	8.46e-01	0	57	104	0	61	12193
2026-01-10 04:01:28.54	171.65	83.02	-45.1	-55.0	3.8	8.46e-01	0	57	104	0	61	10827
2026-01-10 04:01:29.55	173.38	82.55	-45.1	-55.5	3.8	8.47e-01	0	57	104	0	61	11521
2026-01-10 04:01:30.56	174.91	82.08	-44.9	-53.7	3.9	8.46e-01	0	57	104	0	60	9938
2026-01-10 04:01:31.57	176.27	81.60	-45.1	-55.7	3.8	8.45e-01	0	57	104	0	60	12395
2026-01-10 04:01:32.58	177.47	81.12	-43.1	-47.2	7.4	3.63e-01	0	57	0	1048576	57	5560
2026-01-10 04:01:33.59	178.56	80.64	-40.4	-42.6	12.2	7.57e-04	0	57	0	8388608	51	4646
2026-01-10 04:01:34.60	179.53	80.15	-42.8	-46.7	7.9	3.25e-02	0	57	0	15728640	55	5913
2026-01-10 04:01:35.61	180.41	79.67	-41.8	-44.8	9.7	3.71e-01	0	57	0	18874368	54	5024
2026-01-10 04:01:36.62	181.21	79.18	-35.0	-36.1	18.4	0.00e+00	0	57	0	26214400	41	3905
2026-01-10 04:01:37.63	181.95	78.69	-45.1	-54.2	3.8	3.08e-05	0	57	0	33554432	59	11084
2026-01-10 04:01:38.64	182.62	78.21	-38.3	-39.9	5.9	7.36e-01	0	57	104	33554432	47	4277
2026-01-10 04:01:39.65	183.23	77.72	-34.8	-35.9	18.7	0.00e+00	0	57	0	37748736	39	4264
2026-01-10 04:01:40.66	183.80	77.23	-42.3	-45.7	9.1	8.00e-06	0	57	0	45088768	53	5897
2026-01-10 04:01:41.67	184.33	76.74	-34.0	-35.1	19.4	0.00e+00	0	57	0	47185920	39	3885
2026-01-10 04:01:42.68	184.81	76.26	-35.7	-36.9	17.7	0.00e+00	0	57	0	54525952	41	4248
2026-01-10 04:01:43.69	185.27	75.77	-34.6	-35.7	18.9	0.00e+00	0	57	0	61865984	39	4169
2026-01-10 04:01:44.70	185.69	75.29	-34.8	-36.0	18.6	0.00e+00	0	57	0	68157440	39	4307
2026-01-10 04:01:45.71	186.08	74.80	-34.9	-36.0	18.6	0.00e+00	0	57	0	76546048	39	4306
2026-01-10 04:01:46.73	186.46	74.32	-35.0	-36.1	18.5	0.00e+00	0	57	0	83886080	39	4380
2026-01-10 04:01:47.74	186.80	73.83	-35.0	-36.1	18.5	0.00e+00	0	57	0	90177536	39	4377
2026-01-10 04:01:48.75	187.13	73.35	-35.0	-36.1	18.5	0.00e+00	0	57	0	97517568	39	4380
2026-01-10 04:01:49.76	187.44	72.88	-35.1	-36.3	18.4	0.00e+00	0	57	0	104857600	39	4447
2026-01-10 04:01:50.77	187.73	72.40	-35.4	-36.6	17.9	0.00e+00	0	57	0	112197632	40	4379
2026-01-10 04:01:51.78	188.00	71.92	-35.4	-36.6	18.0	0.00e+00	0	57	0	119537664	40	4382
2026-01-10 04:01:52.79	188.26	71.45	-35.5	-36.8	17.9	0.00e+00	0	57	0	126877696	40	4442
2026-01-10 04:01:53.80	188.51	70.98	-35.6	-36.9	17.7	0.00e+00	0	57	0	134217728	40	4504
2026-01-10 04:01:54.82	188.74	70.50	-35.6	-36.8	17.8	0.00e+00	0	57	0	141557760	40	4476
2026-01-10 04:01:55.83	188.97	70.04	-35.5	-36.6	18.0	0.00e+00	0	57	0	148897792	40	4382
2026-01-10 04:01:56.84	189.18	69.57	-35.3	-36.5	18.1	0.00e+00	0	57	0	156237824	40	4301
2026-01-10 04:01:57.85	189.38	69.11	-35.4	-36.6	18.0	0.00e+00	0	57	0	163577856	40	4361
2026-01-10 04:01:58.86	189.57	68.64	-35.3	-36.6	18.0	0.00e+00	0	57	0	170917888	40	4342
2026-01-10 04:01:59.87	189.76	68.18	-35.3	-36.4	18.1	0.00e+00	0	57	0	178257920	40	4289
2026-01-10 04:02:00.88	189.93	67.73	-34.9	-36.0	18.5	0.00e+00	0	57	0	185597952	40	4095
2026-01-10 04:02:01.89	190.10	67.27	-34.8	-35.9	18.7	0.00e+00	0	57	0	192937984	40	4032
2026-01-10 04:02:02.90	190.26	66.82	-35.0	-36.1	18.5	0.00e+00	0	57	0	200278016	40	4132
2026-01-10 04:02:03.91	190.41	66.37	-35.3	-36.5	18.2	0.00e+00	0	57	0	207618048	40	4303
2026-01-10 04:02:04.92	190.56	65.92	-35.6	-36.8	17.9	0.00e+00	0	57	0	214958080	40	4450
2026-01-10 04:02:05.94	190.71	65.47	-35.4	-36.6	18.1	0.00e+00	0	57	0	222298112	40	4343
2026-01-10 04:02:06.95	190.84	65.03	-35.5	-36.8	17.8	0.00e+00	0	57	0	229638144	40	4450
2026-01-10 04:02:07.96	190.98	64.58	-35.5	-36.7	18.0	0.00e+00	0	57	0	236978176	40	4406
2026-01-10 04:02:08.97	191.10	64.15	-35.3	-36.5	18.0	0.00e+00	0	57	0	244318208	40	4327
2026-01-10 04:02:09.98	191.22	63.71	-35.2	-36.3	18.3	0.00e+00	0	57	0	251658240	40	4232
2026-01-10 04:02:10.99	191.34	63.28	-35.2	-36.4	18.3	0.00e+00	0	57	0	258998272	40	4244
2026-01-10 04:02:12.00	191.46	62.84	-35.2	-36.4	18.2	0.00e+00	0	57	0	265289728	40	4267
2026-01-10 04:02:13.01	191.57	62.42	-35.4	-36.6	18.0	0.00e+00	0	57	0	273678336	40	4348
2026-01-10 04:02:14.03	191.67	61.99	-35.4	-36.6	18.0	0.00e+00	0	58	0	281018368	40	4356
2026-01-10 04:02:15.04	191.78	61.56	-35.4	-36.6	18.1	0.00e+00	0	57	0	287309824	40	4348
2026-01-10 04:02:16.05	191.88	61.14	-35.6	-36.8	17.9	0.00e+00	0	57	0	294649856	40	4483
2026-01-10 04:02:17.06	191.97	60.72	-35.9	-37.1	17.5	0.00e+00	0	57	0	301989888	41	4364
2026-01-10 04:02:18.07	192.07	60.31	-36.3	-37.6	17.2	0.00e+00	0	57	0	309329920	42	4355
2026-01-10 04:02:19.08	192.16	59.89	-36.6	-37.9	16.7	0.00e+00	0	57	0	316669952	42	4537
2026-01-10 04:02:20.09	192.24	59.48	-36.8	-38.2	16.5	0.00e+00	0	57	0	324009984	43	4396
2026-01-10 04:02:21.10	192.33	59.08	-36.8	-38.2	16.5	0.00e+00	0	57	0	331350016	43	4427
2026-01-10 04:02:22.11	192.41	58.67	-36.7	-38.1	16.6	0.00e+00	0	57	0	338690048	43	4356
2026-01-10 04:02:23.12	192.49	58.27	-36.6	-38.0	16.7	0.00e+00	0	57	0	346030080	43	4312
2026-01-10 04:02:24.13	192.57	57.87	-36.6	-37.9	16.8	0.00e+00	0	57	0	353370112	43	4283
2026-01-10 04:02:25.14	192.65	57.47	-36.6	-37.9	16.8	0.00e+00	0	57	0	360710144	43	4274
2026-01-10 04:02:26.15	192.72	57.08	-36.5	-37.8	16.9	0.00e+00	0	57	0	368050176	43	4207
2026-01-10 04:02:27.16	192.79	56.69	-36.3	-37.6	17.1	0.00e+00	0	57	0	375390208	43	4116
2026-01-10 04:02:28.17	192.86	56.30	-36.3	-37.6	16.9	0.00e+00	0	57	0	382730240	43	4134
2026-01-10 04:02:29.18	192.93	55.91	-36.4	-37.7	17.0	0.00e+00	0	57	0	390070272	43	4191
2026-01-10 04:02:30.19	193.00	55.53	-36.6	-37.9	16.8	0.00e+00	0	58	0	397410304	43	4288
2026-01-10 04:02:31.20	193.06	55.15	-36.5	-37.9	16.8	0.00e+00	0	57	0	404750336	43	4249
2026-01-10 04:02:32.22	193.12	54.76	-36.6	-37.9	16.8	0.00e+00	0	58	0	412090368	43	4256
2026-01-10 04:02:33.23	193.19	54.39	-36.4	-37.7	16.9	0.00e+00	0	57	0	419430400	43	4155
2026-01-10 04:02:34.24	193.24	54.02	-36.1	-37.4	17.3	0.00e+00	0	57	0	426770432	43	4012
2026-01-10 04:02:35.25	193.30	53.65	-36.0	-37.2	17.5	0.00e+00	0	57	0	433061888	42	4176
2026-01-10 04:02:36.26	193.36	53.28	-36.1	-37.4	17.2	0.00e+00	0	57	0	440401920	42	4271
2026-01-10 04:02:37.27	193.42	52.91	-36.2	-37.5	17.2	0.00e+00	0	57	0	448790528	42	4328
2026-01-10 04:02:38.28	193.47	52.55	-36.2	-37.5	16.8	0.00e+00	0	57	0	455081984	42	4294
2026-01-10 04:02:39.29	193.52	52.19	-36.5	-37.8	16.9	0.00e+00	0	57	0	462422016	42	4474
2026-01-10 04:02:40.30	193.58	51.83	-36.3	-37.7	17.0	0.00e+00	0	57	0	469762048	42	4401
2026-01-10 04:02:41.32	193.63	51.48	-36.2	-37.5	17.1	0.00e+00	0	57	0	477102080	42	4320
2026-01-10 04:02:42.33	193.68	51.12	-36.0	-37.3	17.4	0.00e+00	0	57	0	484442112	42	4208
2026-01-10 04:02:43.34	193.73	50.77	-35.9	-37.2	17.4	0.00e+00	0	57	0	491782144	42	4146
2026-01-10 04:02:44.35	193.77	50.43	-35.9	-37.2	17.5	0.00e+00	0	57	0	499122176	42	4147
2026-01-10 04:02:45.36	193.82	50.08	-36.1	-37.4	17.3	0.00e+00	0	57	0	506462208	42	4265
2026-01-10 04:02:46.37	193.87	49.74	-36.2	-37.6	17.1	0.00e+00	0	57	0	513802240	42	4341
2026-01-10 04:02:47.38	193.91	49.40	-36.2	-37.5	17.2	0.00e+00	0	57	0	521142272	42	4323
2026-01-10 04:02:48.39	193.95	49.07	-36.1	-37.4	17.2	0.00e+00	0	57	0	528482304	42	4276
2026-01-10 04:02:49.40	194.00	48.73	-36.0	-37.3	17.4	0.00e+00	0	57	0	535822336	42	4198
2026-01-10 04:02:50.41	194.04	48.40	-35.7	-36.9	17.8	0.00e+00	0	57	0	543162368	42	4032
2026-01-10 04:02:51.43	194.08	48.07	-35.6	-36.8	17.9	0.00e+00	0	57	0	550502400	42	3967
2026-01-10 04:02:52.44	194.12	47.74	-35.5	-36.7	18.0	0.00e+00	0	57	0	557842432	41	4151
2026-01-10 04:02:53.45	194.16	47.42	-35.3	-36.5	18.1	0.00e+00	0	57	0	565182464	41	4085
2026-01-10 04:02:54.46	194.20	47.10	-35.5	-36.7	17.9	0.00e+00	0	57	0	572522496	41	4171
2026-01-10 04:02:55.47	194.24	46.78	-35.5	-36.7	18.0	0.00e+00	0	57	0	579862528	41	4168
2026-01-10 04:02:56.48	194.28	46.46	-35.5	-36.7	17.9	0.00e+00	0	57	0	587202560	41	4177
2026-01-10 04:02:57.49	194.31	46.15	-35.6	-36.8	17.8	0.00e+00	0	58	0	594542592	41	4217
2026-01-10 04:02:58.51	194.35	45.83	-35.4	-36.6	17.9	0.00e+00	0	57	0	601882624	41	4135
2026-01-10 04:02:59.52	194.38	45.52	-35.5	-36.7	18.0	0.00e+00	0	57	0	609222656	41	4156
2026-01-10 04:03:00.53	194.42	45.21	-35.3	-36.5	18.1	0.00e+00	0	57	0	616562688	41	4082
2026-01-10 04:03:01.54	194.45	44.91	-35.2	-36.4	18.2	0.00e+00	0	57	0	623902720	41	4032
2026-01-10 04:03:02.55	194.49	44.61	-35.2	-36.3	18.3	0.00e+00	0	57	0	630194176	41	4001
2026-01-10 04:03:03.56	194.52	44.31	-35.2	-36.4	18.2	0.00e+00	0	57	0	637534208	41	4024
2026-01-10 04:03:04.57	194.55	44.01	-35.1	-36.3	18.2	0.00e+00	0	57	0	645922816	41	3982
2026-01-10 04:03:05.58	194.59	43.71	-35.1	-36.2	18.4	0.00e+00	0	57	0	652214272	41	3951
2026-01-10 04:03:06.59	194.62	43.42	-35.0	-36.2	18.4	0.00e+00	0	57	0	659554304	41	3923
2026-01-10 04:03:07.60	194.65	43.13	-34.9	-36.1	18.5	0.00e+00	0	57	0	666894336	40	4122
2026-01-10 04:03:08.62	194.68	42.84	-34.9	-36.1	18.5	0.00e+00	0	57	0	674234368	40	4115
2026-01-10 04:03:09.63	194.71	42.55	-34.9	-36.1	18.5	0.00e+00	0	57	0	681574400	40	4101
2026-01-10 04:03:10.64	194.74	42.26	-34.9	-36.0	18.5	0.00e+00	0	58	0	688914432	40	4090
2026-01-10 04:03:11.65	194.77	41.98	-34.9	-36.1	18.5	0.00e+00	0	57	0	696254464	40	4111
2026-01-10 04:03:12.66	194.80	41.70	-34.9	-36.0	18.6	0.00e+00	0	57	0	703594496	40	4093
2026-01-10 04:03:13.67	194.82	41.42	-34.9	-36.1	18.6	0.00e+00	0	58	0	710934528	40	4103
2026-01-10 04:03:14.68	194.85	41.15	-34.9	-36.0	18.6	0.00e+00	0	57	0	718274560	40	4065
2026-01-10 04:03:15.69	194.88	40.87	-34.8	-36.0	18.6	0.00e+00	0	57	0	725614592	40	4060
2026-01-10 04:03:16.70	194.91	40.60	-34.8	-35.9	18.7	0.00e+00	0	57	0	732954624	40	4018
2026-01-10 04:03:17.71	194.93	40.33	-34.7	-35.8	18.8	0.00e+00	0	57	0	740294656	40	3986
2026-01-10 04:03:18.73	194.96	40.06	-34.7	-35.8	18.8	0.00e+00	0	58	0	747634688	40	3973
2026-01-10 04:03:19.74	194.99	39.79	-34.5	-35.7	18.9	0.00e+00	0	57	0	754974720	40	3921
2026-01-10 04:03:20.75	195.01	39.53	-34.5	-35.6	19.0	0.00e+00	0	57	0	762314752	39	4135
2026-01-10 04:03:21.76	195.04	39.27	-34.5	-35.5	19.1	0.00e+00	0	57	0	769654784	39	4097
2026-01-10 04:03:22.77	195.06	39.01	-34.4	-35.5	19.1	0.00e+00	0	57	0	776994816	39	4098
2026-01-10 04:03:23.78	195.09	38.75	-34.5	-35.6	19.1	0.00e+00	0	57	0	784334848	39	4106
2026-01-10 04:03:24.79	195.11	38.49	-34.5	-35.6	19.0	0.00e+00	0	57	0	791674880	39	4139
2026-01-10 04:03:25.80	195.13	38.24	-34.6	-35.7	18.9	0.00e+00	0	57	0	797966336	39	4162
2026-01-10 04:03:26.82	195.16	37.98	-34.7	-35.8	18.8	0.00e+00	0	57	0	806354944	39	4213
2026-01-10 04:03:27.82	195.18	37.74	-34.7	-35.9	18.8	0.00e+00	0	58	0	813694976	39	4243
2026-01-10 04:03:28.84	195.20	37.49	-34.8	-35.9	18.7	0.00e+00	0	57	0	819986432	39	4282
2026-01-10 04:03:29.85	195.23	37.24	-34.9	-36.0	18.7	0.00e+00	0	57	0	827326464	39	4306
2026-01-10 04:03:30.86	195.25	36.99	-34.9	-36.0	18.6	0.00e+00	0	57	0	834666496	39	4316
2026-01-10 04:03:31.87	195.27	36.75	-34.9	-36.1	18.5	0.00e+00	0	58	0	842006528	39	4357
2026-01-10 04:03:32.88	195.29	36.51	-34.9	-36.0	18.6	0.00e+00	0	58	0	849346560	39	4328
2026-01-10 04:03:33.89	195.31	36.27	-34.9	-36.0	18.6	0.00e+00	0	57	0	856686592	39	4328
2026-01-10 04:03:34.90	195.33	36.03	-34.9	-36.0	18.6	0.00e+00	0	57	0	864026624	39	4333
2026-01-10 04:03:35.91	195.36	35.80	-34.8	-36.0	18.6	0.00e+00	0	57	0	871366656	39	4293
2026-01-10 04:03:36.92	195.38	35.56	-34.8	-35.9	18.7	0.00e+00	0	57	0	878706688	39	4274
2026-01-10 04:03:37.93	195.40	35.33	-34.8	-35.9	18.7	0.00e+00	0	57	0	886046720	39	4266
2026-01-10 04:03:38.94	195.42	35.10	-34.7	-35.8	18.7	0.00e+00	0	57	0	893386752	39	4233
2026-01-10 04:03:39.95	195.44	34.87	-34.7	-35.8	18.8	0.00e+00	0	58	0	900726784	39	4236
2026-01-10 04:03:40.96	195.46	34.64	-34.6	-35.8	18.7	0.00e+00	0	57	0	908066816	39	4199
2026-01-10 04:03:41.97	195.48	34.42	-34.6	-35.7	18.9	0.00e+00	0	57	0	915406848	39	4171
2026-01-10 04:03:42.99	195.50	34.19	-34.6	-35.8	18.8	0.00e+00	0	57	0	922746880	39	4203
2026-01-10 04:03:44.00	195.51	33.97	-34.6	-35.7	18.9	0.00e+00	0	57	0	930086912	39	4190
2026-01-10 04:03:45.01	195.53	33.74	-34.7	-35.8	18.8	0.00e+00	0	57	0	937426944	39	4208
2026-01-10 04:03:46.02	195.55	33.53	-34.7	-35.8	18.8	0.00e+00	0	57	0	944766976	39	4224
2026-01-10 04:03:47.03	195.57	33.31	-34.6	-35.8	18.8	0.00e+00	0	57	0	952107008	39	4205
2026-01-10 04:03:48.04	195.59	33.09	-34.6	-35.8	18.8	0.00e+00	0	57	0	959447040	39	4201
2026-01-10 04:03:49.05	195.61	32.88	-34.6	-35.8	18.8	0.00e+00	0	57	0	966787072	39	4199
2026-01-10 04:03:50.06	195.62	32.66	-34.7	-35.8	18.8	0.00e+00	0	57	0	973078528	39	4209
2026-01-10 04:03:51.07	195.64	32.45	-34.6	-35.7	18.9	0.00e+00	0	57	0	981467136	39	4177
2026-01-10 04:03:52.08	195.66	32.24	-34.6	-35.7	18.9	0.00e+00	0	57	0	988807168	39	4177
2026-01-10 04:03:53.09	195.68	32.03	-34.6	-35.7	18.9	0.00e+00	0	57	0	995098624	39	4169
2026-01-10 04:03:54.10	195.69	31.82	-34.5	-35.6	18.9	0.00e+00	0	58	0	1002438656	39	4126
2026-01-10 04:03:55.12	195.71	31.62	-34.5	-35.6	19.0	0.00e+00	0	57	0	1010827264	39	4114
2026-01-10 04:03:56.13	195.73	31.41	-34.4	-35.6	19.0	0.00e+00	0	57	0	1017118720	39	4101
2026-01-10 04:03:57.14	195.74	31.21	-34.4	-35.5	19.0	0.00e+00	0	57	0	1024458752	39	4078
2026-01-10 04:03:58.15	195.76	31.01	-34.4	-35.4	19.1	0.00e+00	0	58	0	1031798784	39	4051
2026-01-10 04:03:59.16	195.78	30.81	-34.3	-35.4	19.1	0.00e+00	0	57	0	1039138816	39	4029
2026-01-10 04:04:00.17	195.79	30.61	-34.3	-35.4	19.1	0.00e+00	0	57	0	1046478848	39	4046
2026-01-10 04:04:01.18	195.81	30.41	-34.3	-35.4	19.1	0.00e+00	0	58	0	1053818880	39	4008
2026-01-10 04:04:02.19	195.82	30.21	-34.3	-35.4	19.1	0.00e+00	0	57	0	1061158912	39	4036
2026-01-10 04:04:03.20	195.84	30.02	-34.4	-35.5	19.1	0.00e+00	0	57	0	1068498944	39	4060
2026-01-10 04:04:04.21	195.86	29.83	-34.4	-35.5	19.0	0.00e+00	0	58	0	1075838976	39	4061
2026-01-10 04:04:05.23	195.87	29.63	-34.5	-35.6	18.9	0.00e+00	0	57	0	1083179008	39	4120
2026-01-10 04:04:06.24	195.89	29.44	-34.6	-35.7	18.9	0.00e+00	0	58	0	1090519040	39	4151
2026-01-10 04:04:07.25	195.90	29.25	-34.6	-35.7	18.8	0.00e+00	0	57	0	1097859072	39	4164
2026-01-10 04:04:08.26	195.92	29.06	-34.6	-35.7	18.8	0.00e+00	0	57	0	1105199104	39	4190
2026-01-10 04:04:09.27	195.93	28.87	-34.7	-35.8	18.7	0.00e+00	0	57	0	1112539136	39	4222
2026-01-10 04:04:10.28	195.95	28.69	-34.8	-35.9	18.6	0.00e+00	0	57	0	1119879168	39	4277
2026-01-10 04:04:11.29	195.96	28.50	-34.8	-35.9	18.6	0.00e+00	0	57	0	1127219200	39	4289
2026-01-10 04:04:12.30	195.97	28.32	-34.9	-36.0	18.4	0.00e+00	0	57	0	1134559232	39	4328
2026-01-10 04:04:13.31	195.99	28.14	-34.9	-36.0	18.5	0.00e+00	0	57	0	1141899264	39	4321
2026-01-10 04:04:14.33	196.00	27.96	-34.9	-36.1	18.5	0.00e+00	0	57	0	1149239296	39	4344
2026-01-10 04:04:15.34	196.02	27.78	-34.9	-36.0	18.4	0.00e+00	0	57	0	1156579328	39	4331
2026-01-10 04:04:16.35	196.03	27.60	-34.9	-36.1	18.4	0.00e+00	0	57	0	1162870784	39	4342
2026-01-10 04:04:17.36	196.04	27.42	-34.9	-36.0	18.5	0.00e+00	0	57	0	1170210816	39	4332
2026-01-10 04:04:18.37	196.06	27.24	-34.9	-36.0	18.4	0.00e+00	0	57	0	1178599424	39	4336
2026-01-10 04:04:19.38	196.07	27.07	-34.9	-36.0	18.5	0.00e+00	0	57	0	1184890880	39	4328
2026-01-10 04:04:20.39	196.08	26.89	-34.9	-36.0	18.4	0.00e+00	0	57	0	1192230912	39	4340
2026-01-10 04:04:21.40	196.10	26.72	-34.9	-36.1	18.4	0.00e+00	0	58	0	1199570944	39	4348
2026-01-10 04:04:22.41	196.11	26.55	-34.9	-36.1	18.3	0.00e+00	0	58	0	1206910976	39	4364
2026-01-10 04:04:23.42	196.12	26.38	-35.0	-36.1	18.3	0.00e+00	0	57	0	1214251008	39	4380
2026-01-10 04:04:24.43	196.14	26.21	-35.0	-36.2	18.3	0.00e+00	0	57	0	1221591040	39	4403
2026-01-10 04:04:25.44	196.15	26.04	-35.0	-36.2	18.3	0.00e+00	0	58	0	1228931072	39	4396
2026-01-10 04:04:26.46	196.16	25.87	-35.0	-36.2	18.2	0.00e+00	0	57	0	1236271104	39	4426
2026-01-10 04:04:27.47	196.18	25.70	-35.1	-36.3	18.2	0.00e+00	0	57	0	1243611136	39	4447
2026-01-10 04:04:28.48	196.19	25.54	-35.2	-36.3	18.1	0.00e+00	0	57	0	1250951168	39	4491
2026-01-10 04:04:29.49	196.20	25.37	-35.2	-36.4	18.1	0.00e+00	0	57	0	1258291200	39	4503
2026-01-10 04:04:30.50	196.21	25.21	-35.1	-36.3	18.0	0.00e+00	0	57	0	1265631232	40	4240
2026-01-10 04:04:31.51	196.23	25.05	-35.2	-36.4	17.9	0.00e+00	0	58	0	1272971264	40	4266
2026-01-10 04:04:32.52	196.24	24.88	-35.3	-36.5	17.7	0.00e+00	0	58	0	1280311296	40	4306
2026-01-10 04:04:33.53	196.25	24.72	-35.3	-36.5	17.9	0.00e+00	0	58	0	1287651328	40	4317
2026-01-10 04:04:34.54	196.26	24.56	-35.2	-36.4	17.9	0.00e+00	0	58	0	1294991360	40	4288
2026-01-10 04:04:35.56	196.27	24.40	-35.3	-36.5	17.9	0.00e+00	0	57	0	1302331392	40	4322
2026-01-10 04:04:36.57	196.29	24.25	-35.3	-36.5	17.9	0.00e+00	0	58	0	1309671424	40	4301
2026-01-10 04:04:37.58	196.30	24.09	-35.2	-36.4	17.9	0.00e+00	0	57	0	1317011456	40	4290
2026-01-10 04:04:38.59	196.31	23.93	-35.3	-36.5	17.8	0.00e+00	0	57	0	1324351488	40	4313
2026-01-10 04:04:39.60	196.32	23.78	-35.3	-36.5	17.9	0.00e+00	0	58	0	1331691520	40	4299
2026-01-10 04:04:40.61	196.33	23.63	-35.3	-36.5	17.8	0.00e+00	0	57	0	1337982976	40	4325
2026-01-10 04:04:41.62	196.34	23.47	-35.3	-36.5	17.9	0.00e+00	0	57	0	1346371584	40	4293
2026-01-10 04:04:42.63	196.35	23.32	-35.3	-36.5	17.8	0.00e+00	0	57	0	1353711616	40	4333
2026-01-10 04:04:43.64	196.37	23.17	-35.3	-36.5	17.8	0.00e+00	0	57	0	1360003072	40	4306
2026-01-10 04:04:44.65	196.38	23.02	-35.3	-36.5	17.8	0.00e+00	0	58	0	1367343104	40	4321
2026-01-10 04:04:45.66	196.39	22.87	-35.3	-36.5	17.8	0.00e+00	0	57	0	1374683136	40	4312
2026-01-10 04:04:46.67	196.40	22.72	-35.3	-36.5	17.8	0.00e+00	0	57	0	1382023168	40	4303
2026-01-10 04:04:47.68	196.41	22.57	-35.3	-36.5	17.8	0.00e+00	0	58	0	1389363200	40	4303
2026-01-10 04:04:48.70	196.42	22.42	-35.3	-36.5	17.8	0.00e+00	0	58	0	1396703232	40	4322
2026-01-10 04:04:49.71	196.43	22.28	-35.3	-36.5	17.7	0.00e+00	0	58	0	1404043264	40	4339
2026-01-10 04:04:50.72	196.44	22.13	-35.3	-36.5	17.7	0.00e+00	0	57	0	1411383296	40	4339
2026-01-10 04:04:51.73	196.45	21.99	-35.4	-36.6	17.7	0.00e+00	0	58	0	1418723328	40	4362
2026-01-10 04:04:52.74	196.46	21.84	-35.3	-36.5	17.7	0.00e+00	0	57	0	1426063360	40	4331
2026-01-10 04:04:53.75	196.47	21.70	-35.3	-36.6	17.6	0.00e+00	0	57	0	1433403392	40	4348
2026-01-10 04:04:54.76	196.48	21.56	-35.3	-36.6	17.7	0.00e+00	0	57	0	1440743424	40	4348
2026-01-10 04:04:55.77	196.49	21.42	-35.4	-36.6	17.7	0.00e+00	0	57	0	1448083456	40	4367
2026-01-10 04:04:56.79	196.50	21.28	-35.3	-36.6	17.7	0.00e+00	0	57	0	1455423488	40	4357
2026-01-10 04:04:57.80	196.51	21.14	-35.4	-36.6	17.7	0.00e+00	0	57	0	1462763520	40	4380
2026-01-10 04:04:58.81	196.53	21.00	-35.5	-36.7	17.6	0.00e+00	0	58	0	1470103552	40	4414
2026-01-10 04:04:59.82	196.54	20.86	-35.4	-36.6	17.7	0.00e+00	0	57	0	1477443584	40	4375
2026-01-10 04:05:00.83	196.55	20.72	-35.5	-36.7	17.6	0.00e+00	0	58	0	1484783616	40	4430
2026-01-10 04:05:01.84	196.56	20.59	-35.5	-36.7	17.6	0.00e+00	0	58	0	1492123648	40	4435
2026-01-10 04:05:02.85	196.56	20.45	-35.5	-36.8	17.5	0.00e+00	0	57	0	1499463680	40	4442
2026-01-10 04:05:03.86	196.57	20.32	-35.5	-36.8	17.5	0.00e+00	0	57	0	1505755136	40	4455
2026-01-10 04:05:04.87	196.58	20.18	-35.6	-36.9	17.4	0.00e+00	0	57	0	1514143744	40	4501
2026-01-10 04:05:05.88	196.59	20.05	-35.6	-36.8	17.4	0.00e+00	0	57	0	1521483776	40	4476
2026-01-10 04:05:06.90	196.60	19.91	-35.6	-36.9	17.4	0.00e+00	0	57	0	1527775232	40	4514
2026-01-10 04:05:07.91	196.61	19.78	-35.6	-36.9	17.4	0.00e+00	0	57	0	1535115264	41	4265
2026-01-10 04:05:08.92	196.62	19.65	-35.7	-36.9	17.3	0.00e+00	0	58	0	1543503872	41	4286
2026-01-10 04:05:09.93	196.63	19.52	-35.8	-37.1	17.2	0.00e+00	0	57	0	1549795328	41	4356
2026-01-10 04:05:10.94	196.64	19.39	-35.7	-36.9	17.3	0.00e+00	0	57	0	1557135360	41	4280
2026-01-10 04:05:11.95	196.65	19.26	-35.6	-36.9	17.4	0.00e+00	0	57	0	1564475392	41	4251
2026-01-10 04:05:12.96	196.66	19.13	-35.7	-37.0	17.3	0.00e+00	0	57	0	1571815424	41	4315
2026-01-10 04:05:13.97	196.67	19.00	-35.7	-37.0	17.3	0.00e+00	0	57	0	1579155456	41	4295
2026-01-10 04:05:14.98	196.68	18.87	-35.7	-37.0	17.3	0.00e+00	0	58	0	1586495488	41	4300
2026-01-10 04:05:15.99	196.69	18.75	-35.7	-37.0	17.3	0.00e+00	0	58	0	1593835520	41	4318
2026-01-10 04:05:17.01	196.70	18.62	-35.8	-37.0	17.2	0.00e+00	0	57	0	1601175552	41	4335
2026-01-10 04:05:18.02	196.71	18.49	-35.7	-36.9	17.3	0.00e+00	0	57	0	1608515584	41	4285
2026-01-10 04:05:19.03	196.72	18.37	-35.7	-37.0	17.3	0.00e+00	0	57	0	1615855616	41	4311
2026-01-10 04:05:20.04	196.72	18.25	-35.7	-37.0	17.2	0.00e+00	0	57	0	1623195648	41	4321
2026-01-10 04:05:21.05	196.73	18.12	-35.8	-37.1	17.2	0.00e+00	0	58	0	1630535680	41	4347
2026-01-10 04:05:22.06	196.74	18.00	-35.7	-37.0	17.2	0.00e+00	0	57	0	1637875712	41	4328
2026-01-10 04:05:23.07	196.75	17.88	-35.8	-37.1	17.2	0.00e+00	0	58	0	1645215744	41	4345
2026-01-10 04:05:24.08	196.76	17.76	-35.8	-37.1	17.1	0.00e+00	0	58	0	1652555776	41	4380
2026-01-10 04:05:25.09	196.77	17.63	-35.8	-37.1	17.1	0.00e+00	0	57	0	1659895808	41	4389
2026-01-10 04:05:26.10	196.78	17.51	-35.8	-37.1	17.1	0.00e+00	0	57	0	1667235840	41	4364
2026-01-10 04:05:27.11	196.79	17.39	-35.8	-37.1	17.2	0.00e+00	0	57	0	1674575872	41	4342
2026-01-10 04:05:28.12	196.79	17.27	-35.8	-37.1	17.1	0.00e+00	0	57	0	1681915904	41	4388
2026-01-10 04:05:29.13	196.80	17.16	-35.8	-37.1	17.1	0.00e+00	0	58	0	1689255936	41	4365
2026-01-10 04:05:30.15	196.81	17.04	-35.8	-37.1	17.1	0.00e+00	0	57	0	1695547392	41	4384
2026-01-10 04:05:31.16	196.82	16.92	-35.8	-37.1	17.1	0.00e+00	0	58	0	1702887424	41	4378
2026-01-10 04:05:32.17	196.83	16.80	-35.8	-37.1	17.1	0.00e+00	0	58	0	1711276032	41	4361
2026-01-10 04:05:33.18	196.84	16.68	-35.9	-37.2	17.0	0.00e+00	0	58	0	1717567488	41	4424
2026-01-10 04:05:34.19	196.85	16.57	-35.9	-37.2	17.0	0.00e+00	0	58	0	1724907520	41	4416
2026-01-10 04:05:35.20	196.85	16.45	-35.9	-37.2	17.0	0.00e+00	0	58	0	1732247552	41	4421
2026-01-10 04:05:36.21	196.86	16.34	-35.9	-37.3	16.9	0.00e+00	0	58	0	1739587584	41	4443
2026-01-10 04:05:37.22	196.87	16.22	-36.0	-37.3	16.8	0.00e+00	0	57	0	1746927616	41	4488
2026-01-10 04:05:38.23	196.88	16.11	-36.1	-37.4	16.8	0.00e+00	0	57	0	1754267648	41	4517
2026-01-10 04:05:39.24	196.89	16.00	-36.1	-37.5	16.7	0.00e+00	0	58	0	1761607680	41	4552
2026-01-10 04:05:40.25	196.89	15.88	-36.2	-37.6	16.6	0.00e+00	0	58	0	1768947712	41	4613
2026-01-10 04:05:41.26	196.90	15.77	-36.2	-37.5	16.7	0.00e+00	0	57	0	1776287744	42	4323
2026-01-10 04:05:42.27	196.91	15.66	-36.1	-37.5	16.7	0.00e+00	0	57	0	1783627776	42	4306
2026-01-10 04:05:43.28	196.92	15.55	-36.2	-37.6	16.6	0.00e+00	0	58	0	1790967808	42	4351
2026-01-10 04:05:44.29	196.93	15.44	-36.3	-37.7	16.5	0.00e+00	0	58	0	1798307840	42	4393
2026-01-10 04:05:45.31	196.93	15.33	-36.3	-37.7	16.4	0.00e+00	0	57	0	1805647872	42	4411
2026-01-10 04:05:46.32	196.94	15.22	-36.3	-37.7	16.4	0.00e+00	0	58	0	1812987904	42	4417
2026-01-10 04:05:47.33	196.95	15.11	-36.5	-37.9	16.2	0.00e+00	0	57	0	1820327936	42	4522
2026-01-10 04:05:48.34	196.96	15.00	-36.6	-38.0	16.1	0.00e+00	0	58	0	1827667968	42	4581
2026-01-10 04:05:49.35	196.97	14.89	-36.5	-37.9	16.2	0.00e+00	0	58	0	1835008000	42	4517
2026-01-10 04:05:50.36	196.97	14.78	-36.5	-37.9	16.3	0.00e+00	0	57	0	1842348032	42	4508
2026-01-10 04:05:51.37	196.98	14.68	-36.6	-38.0	16.2	0.00e+00	0	58	0	1849688064	42	4570
2026-01-10 04:05:52.38	196.99	14.57	-36.6	-38.1	16.1	0.00e+00	0	58	0	1857028096	42	4601
2026-01-10 04:05:53.39	197.00	14.46	-36.7	-38.2	15.9	0.00e+00	0	57	0	1864368128	43	4400
2026-01-10 04:05:54.40	197.00	14.36	-36.9	-38.4	15.7	0.00e+00	0	57	0	1870659584	43	4512
2026-01-10 04:05:55.42	197.01	14.25	-36.9	-38.3	15.8	0.00e+00	0	57	0	1879048192	43	4485
2026-01-10 04:05:56.43	197.02	14.15	-36.8	-38.2	15.9	0.00e+00	0	57	0	1886388224	43	4421
2026-01-10 04:05:57.44	197.03	14.04	-36.8	-38.3	15.7	0.00e+00	0	58	0	1892679680	43	4476
2026-01-10 04:05:58.45	197.03	13.94	-36.9	-38.4	15.7	0.00e+00	0	58	0	1900019712	43	4522
2026-01-10 04:05:59.46	197.04	13.83	-37.0	-38.5	15.5	0.00e+00	0	57	0	1907359744	43	4596
2026-01-10 04:06:00.47	197.05	13.73	-37.1	-38.6	15.5	0.00e+00	0	57	0	1914699776	43	4627
2026-01-10 04:06:01.48	197.06	13.63	-37.1	-38.6	15.5	0.00e+00	0	58	0	1922039808	43	4626
2026-01-10 04:06:02.49	197.06	13.52	-37.1	-38.6	15.4	0.00e+00	0	58	0	1929379840	43	4623
2026-01-10 04:06:03.50	197.07	13.42	-37.1	-38.7	15.4	0.00e+00	0	58	0	1936719872	43	4658
2026-01-10 04:06:04.51	197.08	13.32	-37.4	-38.9	15.3	0.00e+00	0	58	0	1944059904	44	4540
2026-01-10 04:06:05.52	197.08	13.22	-37.4	-39.0	15.2	0.00e+00	0	58	0	1951399936	44	4574
2026-01-10 04:06:06.53	197.09	13.12	-37.6	-39.2	15.0	0.00e+00	0	58	0	1958739968	44	4658
2026-01-10 04:06:07.54	197.10	13.02	-37.6	-39.2	14.9	0.00e+00	0	58	0	1966080000	44	4701
2026-01-10 04:06:08.55	197.11	12.92	-37.7	-39.4	14.8	0.00e+00	0	58	0	1973420032	44	4761
2026-01-10 04:06:09.56	197.11	12.82	-37.6	-39.2	14.9	0.00e+00	0	58	0	1980760064	45	4420
2026-01-10 04:06:10.57	197.12	12.72	-37.5	-39.1	15.0	0.00e+00	0	58	0	1988100096	45	4366
2026-01-10 04:06:11.58	197.13	12.62	-37.6	-39.2	14.9	1.10e-06	0	58	0	1995440128	45	4405
2026-01-10 04:06:12.59	197.13	12.53	-37.5	-39.1	15.0	0.00e+00	0	58	0	2002780160	45	4380
2026-01-10 04:06:13.60	197.14	12.43	-37.7	-39.3	14.8	0.00e+00	0	58	0	2010120192	45	4471
2026-01-10 04:06:14.61	197.15	12.33	-37.6	-39.3	14.8	1.10e-06	0	57	0	2016411648	45	4468
2026-01-10 04:06:15.62	197.16	12.23	-37.8	-39.4	14.6	0.00e+00	0	57	0	2024800256	45	4542
2026-01-10 04:06:16.63	197.16	12.14	-37.8	-39.5	14.6	1.10e-06	0	57	0	2032140288	45	4560
2026-01-10 04:06:17.64	197.17	12.04	-37.7	-39.4	14.7	1.10e-06	0	58	0	2038431744	45	4521
2026-01-10 04:06:18.65	197.18	11.94	-37.7	-39.4	14.6	0.00e+00	0	58	0	2045771776	45	4522
2026-01-10 04:06:19.65	197.18	11.85	-37.7	-39.3	14.7	0.00e+00	0	57	0	2053111808	45	4482
2026-01-10 04:06:20.66	197.19	11.75	-37.7	-39.3	14.7	0.00e+00	0	57	0	2060451840	45	4485
2026-01-10 04:06:21.67	197.20	11.66	-37.7	-39.4	14.6	0.00e+00	0	57	0	2067791872	45	4538
2026-01-10 04:06:22.68	197.20	11.57	-37.8	-39.5	14.5	0.00e+00	0	57	0	2075131904	45	4596
2026-01-10 04:06:23.69	197.21	11.47	-37.8	-39.6	14.4	0.00e+00	0	58	0	2082471936	45	4608
2026-01-10 04:06:24.70	197.22	11.38	-37.8	-39.5	14.5	0.00e+00	0	57	0	2089811968	45	4588
2026-01-10 04:06:25.71	197.22	11.28	-37.9	-39.6	14.4	2.20e-06	0	58	0	2097152000	45	4613
2026-01-10 04:06:26.71	197.23	11.19	-37.9	-39.6	14.3	0.00e+00	0	58	0	2104492032	45	4639
2026-01-10 04:06:27.72	197.24	11.10	-37.7	-39.4	14.6	1.10e-06	0	57	0	2111832064	45	4524
2026-01-10 04:06:28.73	197.24	11.01	-37.9	-39.6	14.4	2.20e-06	0	57	0	2119172096	45	4624
2026-01-10 04:06:29.73	197.25	10.92	-37.8	-39.6	14.4	0.00e+00	0	57	0	2126512128	45	4603
2026-01-10 04:06:30.74	197.26	10.83	-37.9	-39.6	14.3	0.00e+00	0	57	0	2133852160	45	4642
2026-01-10 04:06:31.75	197.26	10.73	-37.8	-39.5	14.5	0.00e+00	0	57	0	2141192192	45	4571
2026-01-10 04:06:32.76	197.27	10.64	-37.9	-39.6	14.3	1.10e-06	0	58	0	2147483648	45	4642
2026-01-10 04:06:33.77	197.28	10.55	-38.0	-39.8	14.2	3.40e-06	0	58	0	2155872256	45	4717
2026-01-10 04:06:34.78	197.28	10.46	-37.9	-39.7	14.2	0.00e+00	0	57	0	2163212288	45	4666
2026-01-10 04:06:35.78	197.29	10.37	-38.1	-39.9	14.0	0.00e+00	0	58	0	2169503744	45	4812
2026-01-10 04:06:36.79	197.30	10.28	-38.1	-39.9	14.0	5.70e-06	0	58	0	2176843776	45	4779
2026-01-10 04:06:37.79	197.30	10.20	-38.2	-40.0	13.9	5.70e-06	0	58	0	2184183808	45	4857
2026-01-10 04:06:38.80	197.31	10.11	-38.3	-40.1	13.8	5.70e-06	0	57	0	2191523840	46	4635
2026-01-10 04:06:39.81	197.31	10.02	-38.0	-39.8	14.1	0.00e+00	0	58	0	2198863872	46	4459
2026-01-10 04:06:40.81	197.32	9.93	-38.1	-39.9	13.9	4.50e-06	0	58	0	2206203904	46	4543
2026-01-10 04:06:41.82	197.33	9.84	-38.2	-40.0	13.9	2.20e-06	0	57	0	2213543936	46	4564
2026-01-10 04:06:42.83	197.33	9.76	-38.0	-39.8	14.0	2.20e-06	0	57	0	2220883968	46	4473
2026-01-10 04:06:43.83	197.34	9.67	-37.9	-39.7	14.1	6.80e-06	0	58	0	2228224000	46	4433
2026-01-10 04:06:44.84	197.35	9.58	-38.1	-39.9	13.9	8.00e-06	0	57	0	2235564032	46	4527
2026-01-10 04:06:45.85	197.35	9.50	-38.0	-39.8	14.0	4.50e-06	0	58	0	2242904064	46	4487
2026-01-10 04:06:46.85	197.36	9.41	-38.0	-39.8	14.0	2.20e-06	0	58	0	2250244096	46	4471
2026-01-10 04:06:47.86	197.36	9.32	-38.0	-39.8	14.0	1.10e-06	0	57	0	2256535552	46	4477
2026-01-10 04:06:48.87	197.37	9.24	-38.0	-39.8	13.9	4.50e-06	0	57	0	2264924160	46	4479
2026-01-10 04:06:49.87	197.38	9.15	-38.0	-39.8	13.9	4.50e-06	0	58	0	2272264192	46	4490
2026-01-10 04:06:50.88	197.38	9.07	-38.1	-39.9	13.8	4.50e-06	0	57	0	2278555648	46	4531
2026-01-10 04:06:51.89	197.39	8.98	-38.1	-40.0	13.7	5.70e-06	0	58	0	2285895680	46	4556
2026-01-10 04:06:52.89	197.39	8.90	-38.1	-39.9	13.8	8.00e-06	0	57	0	2293235712	46	4540
2026-01-10 04:06:53.90	197.40	8.81	-38.1	-40.0	13.7	5.70e-06	0	58	0	2300575744	46	4572
2026-01-10 04:06:54.90	197.41	8.73	-38.1	-40.0	13.7	6.80e-06	0	57	0	2307915776	46	4550
2026-01-10 04:06:55.91	197.41	8.65	-38.0	-39.8	13.9	0.00e+00	0	58	0	2315255808	46	4472
2026-01-10 04:06:56.91	197.42	8.57	-38.1	-40.0	13.7	8.00e-06	0	58	0	2322595840	46	4565
2026-01-10 04:06:57.92	197.42	8.48	-38.0	-39.9	13.7	1.14e-05	0	58	0	2329935872	46	4515
2026-01-10 04:06:58.93	197.43	8.40	-38.1	-40.0	13.6	6.80e-06	0	57	0	2337275904	46	4594
2026-01-10 04:06:59.93	197.44	8.32	-38.2	-40.1	13.5	1.37e-05	0	58	0	2344615936	46	4604
2026-01-10 04:07:00.94	197.44	8.23	-38.1	-40.0	13.6	9.10e-06	0	57	0	2351955968	46	4586
2026-01-10 04:07:01.95	197.45	8.15	-38.2	-40.1	13.5	1.02e-05	0	58	0	2358247424	46	4628
2026-01-10 04:07:02.96	197.45	8.07	-38.0	-39.9	13.6	1.14e-05	0	57	0	2365587456	46	4533
2026-01-10 04:07:03.96	197.46	7.99	-44.0	-52.4	4.1	6.87e-01	0	57	0	2371878912	57	10149
2026-01-10 04:07:04.97	197.47	7.91	-44.8	-55.5	3.8	8.47e-01	0	57	104	2371878912	59	12958
2026-01-10 04:07:05.98	197.47	7.83	-45.1	-55.8	3.8	8.46e-01	0	57	104	2371878912	59	13325
2026-01-10 04:07:06.99	197.48	7.75	-45.2	-56.0	3.8	8.47e-01	0	57	104	2371878912	59	13651
2026-01-10 04:07:08.00	197.48	7.67	-45.3	-56.4	3.8	8.46e-01	0	58	104	2371878912	60	13443
2026-01-10 04:07:09.00	197.49	7.59	-45.3	-56.4	3.8	8.47e-01	0	58	104	2371878912	60	13476
2026-01-10 04:07:10.01	197.49	7.51	-45.4	-56.4	3.8	8.47e-01	0	57	104	2371878912	60	13531
2026-01-10 04:07:11.02	197.50	7.43	-45.4	-56.5	3.8	8.46e-01	0	58	104	2371878912	60	13602
2026-01-10 04:07:12.03	197.51	7.35	-45.4	-56.5	3.8	8.46e-01	0	58	104	2371878912	60	13591
2026-01-10 04:07:13.04	197.51	7.27	-45.4	-56.4	3.8	8.47e-01	0	58	104	2371878912	60	13547
2026-01-10 04:07:14.05	197.52	7.19	-45.4	-56.4	3.8	8.47e-01	0	57	104	2371878912	60	13480
2026-01-10 04:07:15.06	197.52	7.11	-45.3	-56.4	3.8	8.45e-01	0	58	104	2371878912	60	13454
2026-01-10 04:07:16.07	197.53	7.03	-45.3	-56.3	3.8	8.47e-01	0	58	104	2371878912	60	13376
2026-01-10 04:07:17.07	197.53	6.95	-45.3	-56.3	3.8	8.47e-01	0	58	104	2371878912	60	13396
2026-01-10 04:07:18.08	197.54	6.88	-45.3	-56.3	3.8	8.46e-01	0	58	104	2371878912	60	13342
2026-01-10 04:07:19.09	197.55	6.80	-45.3	-56.3	3.8	8.46e-01	0	57	104	2371878912	60	13333
2026-01-10 04:07:20.10	197.55	6.72	-45.3	-56.3	3.8	8.46e-01	0	58	104	2371878912	60	13365
2026-01-10 04:07:21.11	197.56	6.64	-45.3	-56.3	3.8	8.46e-01	0	58	104	2371878912	60	13353
2026-01-10 04:07:22.12	197.56	6.57	-45.3	-56.3	3.8	8.46e-01	0	57	104	2371878912	60	13337
2026-01-10 04:07:23.12	197.57	6.49	-45.3	-56.3	3.8	8.47e-01	0	58	104	2371878912	60	13269
2026-01-10 04:07:24.13	197.57	6.41	-45.3	-56.3	3.8	8.46e-01	0	57	104	2371878912	60	13346
2026-01-10 04:07:25.13	197.58	6.34	-45.3	-56.3	3.8	8.46e-01	0	58	104	2371878912	60	13337
2026-01-10 04:07:26.13	197.58	6.26	-45.3	-56.3	3.8	8.47e-01	0	57	104	2371878912	60	13294
2026-01-10 04:07:27.14	197.59	6.19	-45.3	-56.3	3.8	8.46e-01	0	57	104	2371878912	60	13308
2026-01-10 04:07:28.15	197.60	6.11	-45.3	-56.3	3.8	8.46e-01	0	57	104	2371878912	60	13297
2026-01-10 04:07:29.15	197.60	6.03	-45.3	-56.3	3.8	8.45e-01	0	58	104	2371878912	60	13340
2026-01-10 04:07:30.15	197.61	5.96	-45.3	-56.3	3.8	8.46e-01	0	57	104	2371878912	60	13290
2026-01-10 04:07:31.16	197.61	5.89	-45.3	-56.2	3.8	8.45e-01	0	57	104	2371878912	60	13252
2026-01-10 04:07:32.17	197.62	5.81	-45.3	-56.3	3.8	8.46e-01	0	57	104	2371878912	60	13300
2026-01-10 04:07:33.18	197.62	5.74	-45.3	-56.3	3.8	8.46e-01	0	57	104	2371878912	60	13330
2026-01-10 04:07:34.19	197.63	5.66	-45.3	-56.3	3.8	8.47e-01	0	58	104	2371878912	60	13306
2026-01-10 04:07:35.20	197.63	5.59	-45.2	-56.2	3.8	8.45e-01	0	57	104	2371878912	60	13243
2026-01-10 04:07:36.21	197.64	5.51	-45.3	-56.3	3.8	8.45e-01	0	58	104	2371878912	60	13315
2026-01-10 04:07:37.22	197.64	5.44	-45.3	-56.3	3.8	8.48e-01	0	57	104	2371878912	60	13318
2026-01-10 04:07:38.22	197.65	5.37	-45.3	-56.3	3.8	8.47e-01	0	57	104	2371878912	60	13291
2026-01-10 04:07:39.23	197.65	5.29	-45.3	-56.3	3.8	8.46e-01	0	58	104	2371878912	60	13284
2026-01-10 04:07:40.25	197.66	5.22	-45.3	-56.3	3.8	8.46e-01	0	58	104	2371878912	60	13342
2026-01-10 04:07:41.25	197.67	5.15	-45.3	-56.3	3.8	8.47e-01	0	58	104	2371878912	60	13306
2026-01-10 04:07:42.26	197.67	5.07	-45.3	-56.2	3.8	8.48e-01	0	57	104	2371878912	60	13253
2026-01-10 04:07:43.27	197.68	5.00	-45.3	-56.3	3.8	8.46e-01	0	57	104	2371878912	60	13322
2026-01-10 04:07:44.28	197.68	4.93	-45.3	-56.3	3.8	8.48e-01	0	57	104	2371878912	60	13310
2026-01-10 04:07:45.29	197.69	4.86	-45.3	-56.3	3.8	8.45e-01	0	58	104	2371878912	60	13310
2026-01-10 04:07:46.30	197.69	4.78	-45.3	-56.3	3.8	8.46e-01	0	57	104	2371878912	60	13294
2026-01-10 04:07:47.31	197.70	4.71	-45.2	-56.2	3.8	8.46e-01	0	58	104	2371878912	60	13244
2026-01-10 04:07:48.32	197.70	4.64	-45.2	-56.3	3.8	8.46e-01	0	58	104	2371878912	60	13265
2026-01-10 04:07:49.33	197.71	4.57	-45.2	-56.2	3.8	8.45e-01	0	58	104	2371878912	60	13237
2026-01-10 04:07:50.33	197.71	4.50	-45.2	-56.3	3.8	8.45e-01	0	58	104	2371878912	60	13285
2026-01-10 04:07:51.34	197.72	4.43	-45.2	-56.2	3.8	8.45e-01	0	57	104	2371878912	60	13237
2026-01-10 04:07:52.35	197.72	4.36	-45.2	-56.3	3.8	8.48e-01	0	58	104	2371878912	60	13285
2026-01-10 04:07:53.36	197.73	4.29	-45.2	-56.3	3.8	8.46e-01	0	58	104	2371878912	60	13279
2026-01-10 04:07:54.37	197.73	4.21	-45.2	-56.3	3.8	8.45e-01	0	58	104	2371878912	60	13274
2026-01-10 04:07:55.37	197.74	4.15	-45.2	-56.2	3.8	8.46e-01	0	58	104	2371878912	60	13216
2026-01-10 04:07:56.38	197.74	4.07	-45.2	-56.2	3.8	8.46e-01	0	58	104	2371878912	60	13231
2026-01-10 04:07:57.40	197.75	4.00	-45.2	-56.2	3.8	8.47e-01	0	57	104	2371878912	60	13242
2026-01-10 04:07:58.40	197.75	3.94	-45.2	-56.3	3.8	8.46e-01	0	58	104	2371878912	60	13270
2026-01-10 04:07:59.41	197.76	3.87	-45.2	-56.2	3.8	8.45e-01	0	58	104	2371878912	60	13250
2026-01-10 04:08:00.42	197.76	3.80	-45.2	-56.2	3.8	8.46e-01	0	58	104	2371878912	60	13249
2026-01-10 04:08:01.42	197.77	3.73	-45.2	-56.3	3.8	8.46e-01	0	58	104	2371878912	60	13299
2026-01-10 04:08:02.44	197.77	3.66	-45.2	-56.2	3.8	8.48e-01	0	58	104	2371878912	60	13233
2026-01-10 04:08:03.44	197.78	3.59	-45.2	-56.2	3.8	8.47e-01	0	58	104	2371878912	60	13254
2026-01-10 04:08:04.45	197.78	3.52	-45.2	-56.2	3.8	8.45e-01	0	58	104	2371878912	60	13233
2026-01-10 04:08:05.46	197.79	3.45	-45.2	-56.2	3.8	8.46e-01	0	58	104	2371878912	60	13229
2026-01-10 04:08:06.47	197.79	3.38	-45.2	-56.2	3.8	8.46e-01	0	58	104	2371878912	60	13225
2026-01-10 04:08:07.48	197.80	3.32	-45.2	-56.2	3.8	8.46e-01	0	58	104	2371878912	60	13218
2026-01-10 04:08:08.49	197.80	3.25	-45.2	-56.2	3.8	8.46e-01	0	57	104	2371878912	60	13209
2026-01-10 04:08:09.50	197.81	3.18	-45.2	-56.2	3.8	8.45e-01	0	58	104	2371878912	60	13237
2026-01-10 04:08:10.51	197.81	3.11	-45.2	-56.2	3.8	8.47e-01	0	58	104	2371878912	60	13208
2026-01-10 04:08:11.52	197.82	3.04	-45.2	-56.2	3.8	8.47e-01	0	57	104	2371878912	60	13216
2026-01-10 04:08:12.53	197.82	2.98	-45.2	-56.3	3.8	8.46e-01	0	58	104	2371878912	60	13289
2026-01-10 04:08:13.54	197.83	2.91	-45.2	-56.2	3.8	8.46e-01	0	57	104	2371878912	60	13237
2026-01-10 04:08:14.55	197.83	2.84	-45.2	-56.2	3.8	8.46e-01	0	58	104	2371878912	60	13232
2026-01-10 04:08:15.56	197.84	2.78	-45.2	-56.2	3.8	8.46e-01	0	58	104	2371878912	60	13228
2026-01-10 04:08:16.57	197.84	2.71	-45.2	-56.2	3.8	8.45e-01	0	58	104	2371878912	60	13229
2026-01-10 04:08:17.58	197.85	2.64	-45.2	-56.2	3.8	8.48e-01	0	58	104	2371878912	60	13210
2026-01-10 04:08:18.58	197.85	2.58	-45.2	-56.2	3.8	8.47e-01	0	57	104	2371878912	60	13176
2026-01-10 04:08:19.59	197.86	2.51	-45.2	-56.2	3.8	8.45e-01	0	58	104	2371878912	60	13219
2026-01-10 04:08:20.60	197.86	2.44	-45.2	-56.3	3.8	8.46e-01	0	58	104	2371878912	60	13267
2026-01-10 04:08:21.61	197.87	2.38	-45.2	-56.2	3.8	8.46e-01	0	58	104	2371878912	60	13246
2026-01-10 04:08:22.62	197.87	2.31	-45.2	-56.2	3.8	8.46e-01	0	58	104	2371878912	60	13251
2026-01-10 04:08:23.63	197.88	2.25	-45.2	-56.2	3.8	8.46e-01	0	58	104	2371878912	60	13204
2026-01-10 04:08:24.64	197.88	2.18	-45.2	-56.2	3.8	8.46e-01	0	57	104	2371878912	60	13212
2026-01-10 04:08:25.65	197.89	2.12	-45.2	-56.3	3.8	8.45e-01	0	58	104	2371878912	60	13279
2026-01-10 04:08:26.66	197.89	2.05	-45.2	-56.2	3.8	8.45e-01	0	57	104	2371878912	60	13213
2026-01-10 04:08:27.67	197.89	1.99	-45.2	-56.2	3.8	8.44e-01	0	58	104	2371878912	60	13146

#Closed at: 2026-01-10 04:08:28
#Recorded file [2371 MB]: D:/lorett/data/31039_260110_070042.dat