passes_logs/2026/01/10/R2.0S_Moscow/R2.0S_Moscow__20260110_005027_AQUA_rec.log

#Pass ID: 20260110_005027_AQUA
#Satellite: AQUA
#Configuration: AQUA
#almurnet v.1.7.20251203
#Start time: 2026-01-10 00:52:40

#Version: 2.2.20231116
#Station: R2.0S_Moscow
#Location: 37.707566 lon 55.798166 lat
#TLE: 1 27424U 02022A   26009.00333547  .00001046  00000+0  21942-3 0  9998
#TLE: 2 27424  98.4075 335.3304 0002025  85.7625 349.1392 14.61808998260011

#Time	Az	El	Level	Level2	SNR	BER	BlckErr	Temp	State	Recorded	gain1	gain2
2026-01-10 00:52:40.38	24.73	12.53	-44.7	-57.2	3.8	1.49e+00	0	57	0	0	60	15717
2026-01-10 00:52:41.39	24.79	12.63	-46.0	-64.8	3.8	7.45e-01	0	57	104	0	62	33611
2026-01-10 00:52:42.40	24.86	12.73	-46.0	-64.8	3.8	7.44e-01	0	57	104	0	62	33690
2026-01-10 00:52:43.41	24.92	12.84	-46.0	-64.8	3.8	7.43e-01	0	57	104	0	62	33455
2026-01-10 00:52:44.42	24.99	12.94	-45.9	-64.7	3.8	7.45e-01	0	57	104	0	62	33043
2026-01-10 00:52:45.44	25.05	13.04	-45.8	-64.6	3.8	7.47e-01	0	57	104	0	62	32627
2026-01-10 00:52:46.45	25.12	13.15	-45.7	-64.4	3.8	7.45e-01	0	57	104	0	62	31969
2026-01-10 00:52:47.46	25.18	13.25	-45.6	-64.2	3.8	7.47e-01	0	57	104	0	62	31202
2026-01-10 00:52:48.47	25.25	13.36	-45.4	-63.9	3.8	7.44e-01	0	57	104	0	62	30238
2026-01-10 00:52:49.48	25.32	13.46	-45.3	-63.5	3.8	7.42e-01	0	57	104	0	62	28764
2026-01-10 00:52:50.49	25.38	13.57	-45.3	-63.5	3.8	7.44e-01	0	57	104	0	62	28833
2026-01-10 00:52:51.50	25.45	13.67	-45.3	-63.6	3.8	7.46e-01	0	57	104	0	62	29187
2026-01-10 00:52:52.51	25.52	13.78	-45.3	-63.7	3.8	7.45e-01	0	57	104	0	62	29549
2026-01-10 00:52:53.52	25.59	13.89	-45.3	-63.8	3.8	7.46e-01	0	57	104	0	62	29855
2026-01-10 00:52:54.53	25.66	13.99	-45.3	-63.8	3.8	7.45e-01	0	57	104	0	62	30008
2026-01-10 00:52:55.54	25.72	14.10	-45.3	-63.9	3.8	7.45e-01	0	57	104	0	62	30302
2026-01-10 00:52:56.55	25.79	14.21	-45.3	-64.1	3.8	7.43e-01	0	57	104	0	62	30755
2026-01-10 00:52:57.56	25.87	14.32	-45.3	-64.1	3.8	7.46e-01	0	57	104	0	62	30943
2026-01-10 00:52:58.57	25.94	14.43	-45.3	-64.1	3.8	7.44e-01	0	57	104	0	62	30850
2026-01-10 00:52:59.58	26.01	14.54	-45.3	-64.0	3.8	7.42e-01	0	57	104	0	62	30583
2026-01-10 00:53:00.59	26.08	14.65	-45.3	-63.8	3.8	7.46e-01	0	57	104	0	62	29961
2026-01-10 00:53:01.60	26.15	14.76	-45.3	-63.7	3.8	7.47e-01	0	57	104	0	62	29545
2026-01-10 00:53:02.62	26.23	14.87	-45.3	-63.6	3.8	7.48e-01	0	57	104	0	62	29110
2026-01-10 00:53:03.63	26.30	14.98	-45.3	-63.6	3.8	7.45e-01	0	57	104	0	62	29131
2026-01-10 00:53:04.64	26.37	15.10	-45.3	-63.8	3.8	7.44e-01	0	57	104	0	62	29979
2026-01-10 00:53:05.65	26.45	15.21	-45.3	-64.0	3.8	7.49e-01	0	57	104	0	62	30567
2026-01-10 00:53:06.66	26.53	15.32	-45.3	-63.9	3.8	7.46e-01	0	57	104	0	62	30348
2026-01-10 00:53:07.67	26.60	15.44	-45.3	-63.6	3.8	7.46e-01	0	57	104	0	62	29128
2026-01-10 00:53:08.68	26.68	15.55	-45.2	-62.9	3.8	7.45e-01	0	57	104	0	62	27034
2026-01-10 00:53:09.69	26.76	15.67	-45.2	-62.4	3.8	7.44e-01	0	57	104	0	62	25432
2026-01-10 00:53:10.70	26.83	15.78	-45.2	-62.1	3.9	7.46e-01	0	57	104	0	62	24559
2026-01-10 00:53:11.71	26.91	15.90	-45.2	-61.9	3.9	7.46e-01	0	57	104	0	62	24129
2026-01-10 00:53:12.73	26.99	16.02	-45.2	-62.8	3.8	7.45e-01	0	57	104	0	62	26691
2026-01-10 00:53:13.74	27.07	16.14	-45.2	-63.8	3.8	7.47e-01	0	57	104	0	62	29807
2026-01-10 00:53:14.74	27.15	16.25	-45.3	-64.0	3.8	7.46e-01	0	57	104	0	62	30532
2026-01-10 00:53:15.75	27.23	16.37	-45.2	-62.1	3.8	7.44e-01	0	57	104	0	62	24630
2026-01-10 00:53:16.77	27.31	16.49	-45.1	-58.4	5.0	7.06e-01	0	57	0	0	62	16027
2026-01-10 00:53:17.78	27.40	16.61	-44.8	-55.5	7.2	6.56e-01	90	57	0	1048576	61	12187
2026-01-10 00:53:18.78	27.48	16.73	-44.6	-53.5	9.3	6.28e-01	0	57	0	3145728	61	9695
2026-01-10 00:53:19.79	27.56	16.85	-44.3	-52.1	10.8	6.16e-01	0	57	0	4718592	60	8702
2026-01-10 00:53:20.80	27.65	16.97	-44.1	-51.3	11.6	6.11e-01	0	57	0	6815744	60	7935
2026-01-10 00:53:21.81	27.73	17.10	-44.1	-51.2	11.8	6.12e-01	0	57	0	8388608	60	7846
2026-01-10 00:53:22.82	27.82	17.22	-44.2	-51.7	11.3	6.12e-01	0	57	0	10485760	60	8324
2026-01-10 00:53:23.83	27.90	17.34	-44.5	-53.2	9.8	6.25e-01	0	57	0	12582912	60	9841
2026-01-10 00:53:24.84	27.99	17.47	-44.8	-55.7	7.2	6.59e-01	92	56	0	14155776	60	13202
2026-01-10 00:53:25.84	28.08	17.59	-45.1	-59.0	4.8	7.16e-01	0	57	0	15728640	60	19275
2026-01-10 00:53:26.85	28.17	17.72	-45.0	-58.1	5.2	7.05e-01	0	57	104	15728640	60	17385
2026-01-10 00:53:27.86	28.26	17.84	-44.6	-53.5	9.2	6.31e-01	0	57	0	17301504	60	10287
2026-01-10 00:53:28.87	28.35	17.97	-43.9	-50.0	13.3	6.06e-01	0	57	0	18874368	59	7232
2026-01-10 00:53:29.88	28.44	18.10	-43.0	-47.4	15.9	6.02e-01	0	57	0	20971520	58	5722
2026-01-10 00:53:30.89	28.53	18.23	-42.1	-45.7	17.7	6.04e-01	0	57	0	22544384	56	5227
2026-01-10 00:53:31.90	28.62	18.36	-41.2	-44.2	19.1	6.03e-01	0	57	0	24641536	54	4970
2026-01-10 00:53:32.91	28.71	18.49	-40.7	-43.5	19.8	6.03e-01	0	57	0	26738688	53	4818
2026-01-10 00:53:33.92	28.81	18.62	-40.4	-43.0	20.3	6.05e-01	0	57	0	28311552	52	4857
2026-01-10 00:53:34.93	28.90	18.75	-42.2	-46.0	17.4	6.03e-01	0	57	0	30408704	55	5768
2026-01-10 00:53:35.94	29.00	18.88	-44.6	-53.6	9.5	6.28e-01	0	57	0	31981568	60	10335
2026-01-10 00:53:36.95	29.09	19.01	-42.2	-45.8	17.9	6.01e-01	0	57	0	34078720	54	5980
2026-01-10 00:53:37.96	29.19	19.14	-44.6	-53.4	9.9	6.23e-01	0	57	0	36175872	60	10082
2026-01-10 00:53:38.97	29.29	19.28	-41.6	-44.8	18.8	6.04e-01	0	57	0	37748736	53	5649
2026-01-10 00:53:39.98	29.39	19.41	-40.1	-42.6	20.6	6.03e-01	0	57	0	39845888	52	4647
2026-01-10 00:53:40.98	29.49	19.55	-40.0	-42.5	20.8	6.03e-01	0	57	0	41943040	52	4561
2026-01-10 00:53:41.99	29.59	19.68	-40.0	-42.4	20.9	6.04e-01	0	57	0	43515904	51	4804
2026-01-10 00:53:43.00	29.69	19.82	-40.1	-42.5	20.8	6.06e-01	0	57	0	45613056	51	4857
2026-01-10 00:53:44.01	29.79	19.96	-40.1	-42.5	20.9	6.03e-01	0	57	0	47185920	51	4847
2026-01-10 00:53:45.02	29.90	20.10	-40.1	-42.5	20.8	6.03e-01	0	57	0	49283072	51	4862
2026-01-10 00:53:46.02	30.00	20.23	-40.2	-42.7	20.7	6.02e-01	0	57	0	50855936	51	4966
2026-01-10 00:53:47.03	30.11	20.37	-40.3	-42.9	20.6	6.03e-01	0	57	0	52953088	51	5057
2026-01-10 00:53:48.04	30.21	20.51	-40.2	-42.8	20.7	6.03e-01	0	57	0	55050240	51	4987
2026-01-10 00:53:49.05	30.32	20.66	-40.3	-42.8	20.7	6.04e-01	0	57	0	56623104	51	4991
2026-01-10 00:53:50.05	30.43	20.80	-40.3	-42.8	20.6	6.03e-01	0	57	0	58720256	51	5022
2026-01-10 00:53:51.06	30.54	20.94	-40.3	-42.7	20.7	6.04e-01	0	57	0	60293120	51	4977
2026-01-10 00:53:52.07	30.65	21.08	-40.2	-42.7	20.8	6.03e-01	0	57	0	62390272	51	4929
2026-01-10 00:53:53.08	30.76	21.23	-40.2	-42.7	20.8	6.03e-01	0	57	0	64487424	51	4961
2026-01-10 00:53:54.08	30.87	21.37	-40.3	-42.7	20.8	6.02e-01	0	57	0	66060288	51	4971
2026-01-10 00:53:55.09	30.99	21.52	-40.3	-42.8	20.7	6.01e-01	0	57	0	68157440	51	5026
2026-01-10 00:53:56.10	31.10	21.66	-40.4	-42.9	20.6	6.03e-01	0	57	0	70254592	51	5078
2026-01-10 00:53:57.10	31.22	21.81	-40.4	-42.9	20.6	6.04e-01	0	57	0	71827456	51	5091
2026-01-10 00:53:58.11	31.33	21.96	-40.3	-42.8	20.8	6.03e-01	0	57	0	73924608	51	4996
2026-01-10 00:53:59.12	31.45	22.11	-40.2	-42.7	20.9	6.00e-01	0	57	0	75497472	51	4930
2026-01-10 00:54:00.12	31.57	22.26	-40.2	-42.7	20.9	6.03e-01	0	57	0	77594624	51	4943
2026-01-10 00:54:01.13	31.69	22.41	-40.3	-42.7	20.8	6.03e-01	0	57	0	79691776	51	4975
2026-01-10 00:54:02.14	31.81	22.56	-40.3	-42.8	20.8	6.04e-01	0	56	0	81264640	51	4989
2026-01-10 00:54:03.14	31.93	22.71	-40.4	-42.9	20.6	6.03e-01	0	57	0	83361792	51	5083
2026-01-10 00:54:04.15	32.06	22.87	-40.4	-43.0	20.5	6.05e-01	0	57	0	84934656	51	5118
2026-01-10 00:54:05.16	32.18	23.02	-40.4	-43.0	20.6	6.05e-01	0	57	0	87031808	51	5120
2026-01-10 00:54:06.16	32.31	23.17	-40.3	-42.7	20.8	6.03e-01	0	56	0	88604672	51	4961
2026-01-10 00:54:07.17	32.44	23.33	-40.2	-42.7	20.9	6.02e-01	0	56	0	90701824	51	4960
2026-01-10 00:54:08.18	32.57	23.49	-40.3	-42.8	20.8	6.04e-01	0	57	0	92798976	51	4997
2026-01-10 00:54:09.19	32.70	23.65	-40.3	-42.8	20.7	6.04e-01	0	57	0	94371840	51	5040
2026-01-10 00:54:10.19	32.83	23.80	-40.4	-42.9	20.7	6.03e-01	0	57	0	96468992	51	5083
2026-01-10 00:54:11.20	32.96	23.96	-40.4	-43.0	20.6	6.04e-01	0	57	0	98566144	51	5120
2026-01-10 00:54:12.21	33.10	24.13	-40.5	-43.1	20.5	6.01e-01	0	57	0	100139008	51	5162
2026-01-10 00:54:13.21	33.23	24.29	-40.5	-43.1	20.5	6.03e-01	0	57	0	102236160	51	5193
2026-01-10 00:54:14.22	33.37	24.45	-40.5	-43.1	20.4	6.04e-01	0	57	0	103809024	51	5171
2026-01-10 00:54:15.23	33.51	24.61	-40.3	-42.8	20.8	6.04e-01	0	57	0	105906176	51	5025
2026-01-10 00:54:16.23	33.65	24.78	-40.4	-42.8	20.8	6.03e-01	0	57	0	108003328	51	5027
2026-01-10 00:54:17.24	33.79	24.94	-40.3	-42.7	20.9	6.04e-01	0	57	0	109576192	51	4982
2026-01-10 00:54:18.25	33.93	25.11	-40.4	-42.8	20.8	6.02e-01	0	57	0	111673344	51	5034
2026-01-10 00:54:19.26	34.08	25.28	-40.3	-42.8	20.8	6.03e-01	0	57	0	113246208	51	4992
2026-01-10 00:54:20.26	34.22	25.44	-40.4	-42.9	20.8	6.04e-01	0	57	0	115343360	51	5044
2026-01-10 00:54:21.27	34.37	25.61	-40.4	-42.9	20.7	6.07e-01	0	57	0	117440512	51	5088
2026-01-10 00:54:22.28	34.52	25.78	-40.3	-42.7	20.9	6.02e-01	0	56	0	119013376	51	4941
2026-01-10 00:54:23.28	34.67	25.95	-40.1	-42.4	21.2	6.05e-01	0	57	0	121110528	51	4806
2026-01-10 00:54:24.29	34.82	26.13	-40.1	-42.5	21.1	6.04e-01	0	57	0	122683392	51	4843
2026-01-10 00:54:25.30	34.98	26.30	-40.2	-42.6	21.1	6.04e-01	0	57	0	124780544	51	4912
2026-01-10 00:54:26.30	35.13	26.47	-40.3	-42.8	20.9	6.03e-01	0	57	0	126877696	51	5013
2026-01-10 00:54:27.31	35.29	26.65	-40.4	-42.9	20.8	6.04e-01	0	57	0	128450560	51	5066
2026-01-10 00:54:28.32	35.45	26.83	-40.1	-42.5	21.2	6.02e-01	0	57	0	130547712	51	4836
2026-01-10 00:54:29.32	35.61	27.00	-39.9	-42.2	21.5	6.02e-01	0	57	0	132120576	51	4660
2026-01-10 00:54:30.33	35.78	27.18	-40.0	-42.3	21.4	6.05e-01	0	57	0	134217728	51	4725
2026-01-10 00:54:31.34	35.94	27.36	-40.2	-42.5	21.2	6.04e-01	0	57	0	136314880	51	4845
2026-01-10 00:54:32.35	36.11	27.54	-40.3	-42.7	21.0	6.02e-01	0	56	0	137887744	51	4931
2026-01-10 00:54:33.36	36.28	27.72	-40.2	-42.5	21.1	6.03e-01	0	57	0	139984896	51	4869
2026-01-10 00:54:34.37	36.45	27.91	-40.1	-42.4	21.3	6.03e-01	0	57	0	141557760	51	4770
2026-01-10 00:54:35.37	36.62	28.09	-39.9	-42.1	21.6	6.03e-01	0	56	0	143654912	51	4638
2026-01-10 00:54:36.38	36.80	28.27	-40.0	-42.3	21.4	6.03e-01	0	57	0	145752064	51	4713
2026-01-10 00:54:37.39	36.97	28.46	-40.1	-42.4	21.3	6.03e-01	0	56	0	147324928	51	4800
2026-01-10 00:54:38.40	37.15	28.65	-40.0	-42.3	21.4	6.03e-01	0	57	0	149422080	51	4708
2026-01-10 00:54:39.40	37.33	28.83	-39.9	-42.2	21.5	6.05e-01	0	56	0	150994944	51	4670
2026-01-10 00:54:40.41	37.52	29.02	-40.0	-42.2	21.5	6.04e-01	0	56	0	153092096	51	4699
2026-01-10 00:54:41.42	37.70	29.21	-40.0	-42.3	21.4	6.03e-01	0	57	0	155189248	51	4758
2026-01-10 00:54:42.43	37.89	29.40	-40.0	-42.3	21.3	6.04e-01	0	57	0	156762112	51	4753
2026-01-10 00:54:43.44	38.08	29.60	-40.0	-42.3	21.5	6.06e-01	0	56	0	158859264	51	4707
2026-01-10 00:54:44.45	38.28	29.79	-40.0	-42.3	21.4	6.04e-01	0	57	0	160432128	51	4741
2026-01-10 00:54:45.46	38.47	29.98	-40.1	-42.4	21.3	6.05e-01	0	57	0	162529280	51	4767
2026-01-10 00:54:46.46	38.67	30.18	-40.1	-42.4	21.3	6.04e-01	0	56	0	164626432	51	4804
2026-01-10 00:54:47.47	38.87	30.38	-40.1	-42.4	21.3	6.02e-01	0	57	0	166199296	51	4808
2026-01-10 00:54:48.48	39.07	30.57	-40.0	-42.3	21.4	6.04e-01	0	57	0	168296448	51	4733
2026-01-10 00:54:49.49	39.28	30.77	-40.1	-42.4	21.4	6.03e-01	0	56	0	170393600	51	4765
2026-01-10 00:54:50.50	39.48	30.97	-40.1	-42.5	21.3	6.04e-01	0	56	0	171966464	51	4831
2026-01-10 00:54:51.51	39.69	31.17	-40.3	-42.7	21.1	6.04e-01	0	57	0	174063616	51	4927
2026-01-10 00:54:52.52	39.91	31.38	-40.3	-42.6	21.1	6.04e-01	0	56	0	175636480	51	4920
2026-01-10 00:54:53.53	40.12	31.58	-40.3	-42.6	21.1	6.07e-01	0	57	0	177733632	51	4918
2026-01-10 00:54:54.54	40.34	31.78	-40.3	-42.7	21.0	6.04e-01	0	56	0	179830784	51	4932
2026-01-10 00:54:55.55	40.56	31.99	-40.3	-42.8	21.0	6.05e-01	0	57	0	181403648	51	4985
2026-01-10 00:54:56.56	40.79	32.20	-40.2	-42.6	21.2	6.02e-01	0	56	0	183500800	51	4877
2026-01-10 00:54:57.57	41.01	32.40	-40.3	-42.6	21.1	6.03e-01	0	56	0	185073664	51	4917
2026-01-10 00:54:58.57	41.24	32.61	-40.3	-42.7	21.0	6.02e-01	0	57	0	187170816	51	4975
2026-01-10 00:54:59.58	41.47	32.82	-40.4	-42.8	21.0	6.03e-01	0	56	0	189267968	51	4998
2026-01-10 00:55:00.59	41.71	33.03	-40.5	-43.0	20.8	6.04e-01	0	57	0	190840832	51	5119
2026-01-10 00:55:01.60	41.95	33.24	-40.5	-43.0	20.8	6.02e-01	0	56	0	192937984	51	5132
2026-01-10 00:55:02.61	42.19	33.46	-40.4	-42.9	20.9	6.03e-01	0	56	0	194510848	51	5047
2026-01-10 00:55:03.62	42.44	33.67	-40.4	-42.8	20.9	6.02e-01	0	56	0	196608000	51	5041
2026-01-10 00:55:04.63	42.69	33.89	-40.6	-43.1	20.7	6.02e-01	0	56	0	198705152	51	5165
2026-01-10 00:55:05.64	42.94	34.10	-40.5	-43.0	20.8	6.02e-01	0	56	0	200278016	51	5136
2026-01-10 00:55:06.65	43.19	34.32	-40.6	-43.1	20.6	6.03e-01	0	57	0	202375168	51	5218
2026-01-10 00:55:07.66	43.45	34.54	-40.7	-43.3	20.5	6.03e-01	0	57	0	203948032	52	5014
2026-01-10 00:55:08.67	43.72	34.76	-40.8	-43.4	20.4	6.03e-01	0	56	0	206045184	52	5043
2026-01-10 00:55:09.68	43.98	34.98	-40.7	-43.3	20.5	6.03e-01	0	57	0	208142336	52	5004
2026-01-10 00:55:10.69	44.25	35.20	-40.9	-43.5	20.3	6.02e-01	0	56	0	209715200	52	5139
2026-01-10 00:55:11.70	44.53	35.42	-40.8	-43.5	20.3	6.02e-01	0	57	0	211812352	52	5102
2026-01-10 00:55:12.71	44.80	35.65	-40.9	-43.5	20.3	6.02e-01	0	56	0	213909504	52	5123
2026-01-10 00:55:13.72	45.09	35.87	-41.0	-43.8	20.0	6.03e-01	0	56	0	215482368	52	5284
2026-01-10 00:55:14.73	45.37	36.09	-41.0	-43.7	20.0	6.02e-01	0	56	0	217579520	52	5270
2026-01-10 00:55:15.74	45.66	36.32	-40.9	-43.6	20.2	6.05e-01	0	57	0	219152384	52	5185
2026-01-10 00:55:16.75	45.95	36.55	-41.0	-43.8	20.0	6.02e-01	0	56	0	221249536	52	5286
2026-01-10 00:55:17.76	46.25	36.78	-40.8	-43.4	20.3	6.02e-01	0	56	0	223346688	52	5095
2026-01-10 00:55:18.77	46.55	37.00	-40.9	-43.5	20.3	6.03e-01	0	57	0	224919552	52	5132
2026-01-10 00:55:19.78	46.86	37.23	-41.1	-43.8	20.0	6.02e-01	0	56	0	227016704	52	5314
2026-01-10 00:55:20.79	47.17	37.46	-41.2	-43.9	19.8	6.03e-01	0	56	0	228589568	52	5395
2026-01-10 00:55:21.79	47.48	37.69	-41.1	-43.9	19.9	6.03e-01	0	56	0	230686720	52	5372
2026-01-10 00:55:22.80	47.80	37.92	-41.3	-44.1	19.7	6.04e-01	0	56	0	232783872	53	5202
2026-01-10 00:55:23.81	48.13	38.16	-41.3	-44.2	19.6	6.04e-01	0	56	0	234356736	53	5238
2026-01-10 00:55:24.82	48.46	38.39	-41.3	-44.1	19.7	6.04e-01	0	56	0	236453888	53	5167
2026-01-10 00:55:25.83	48.79	38.62	-41.4	-44.3	19.6	6.05e-01	0	56	0	238551040	53	5284
2026-01-10 00:55:26.84	49.13	38.86	-41.4	-44.3	19.5	6.04e-01	0	56	0	240123904	53	5295
2026-01-10 00:55:27.85	49.47	39.09	-41.2	-43.9	19.9	6.02e-01	0	57	0	242221056	53	5074
2026-01-10 00:55:28.86	49.82	39.33	-41.2	-44.0	19.8	6.01e-01	0	56	0	243793920	53	5111
2026-01-10 00:55:29.87	50.17	39.57	-41.1	-43.8	20.1	6.02e-01	0	56	0	245891072	53	4991
2026-01-10 00:55:30.88	50.53	39.80	-40.9	-43.5	20.4	6.03e-01	0	56	0	247988224	53	4829
2026-01-10 00:55:31.88	50.89	40.04	-41.2	-44.0	19.9	6.02e-01	0	56	0	249561088	53	5102
2026-01-10 00:55:32.89	51.26	40.28	-41.2	-44.0	19.8	6.02e-01	0	56	0	251658240	53	5129
2026-01-10 00:55:33.90	51.64	40.51	-41.0	-43.7	20.1	6.04e-01	0	56	0	253231104	53	4957
2026-01-10 00:55:34.91	52.02	40.75	-40.8	-43.3	20.5	6.02e-01	0	56	0	255328256	53	4748
2026-01-10 00:55:35.92	52.41	40.99	-40.6	-43.0	20.8	6.02e-01	0	56	0	256901120	53	4598
2026-01-10 00:55:36.93	52.80	41.23	-40.6	-43.0	20.8	6.03e-01	0	56	0	258998272	53	4589
2026-01-10 00:55:37.94	53.20	41.47	-40.4	-42.8	21.0	6.04e-01	0	56	0	261095424	52	4725
2026-01-10 00:55:38.95	53.60	41.71	-40.3	-42.7	21.2	6.04e-01	0	56	0	262668288	52	4659
2026-01-10 00:55:39.96	54.01	41.95	-40.3	-42.7	21.1	6.01e-01	0	56	0	264765440	52	4692
2026-01-10 00:55:40.97	54.43	42.19	-40.2	-42.5	21.4	6.02e-01	0	56	0	266862592	52	4554
2026-01-10 00:55:41.97	54.85	42.43	-40.2	-42.6	21.3	6.04e-01	0	56	0	268435456	52	4601
2026-01-10 00:55:42.98	55.28	42.66	-40.3	-42.7	21.2	6.01e-01	0	56	0	270532608	52	4677
2026-01-10 00:55:43.99	55.71	42.90	-40.2	-42.5	21.3	6.03e-01	0	56	0	272105472	52	4596
2026-01-10 00:55:45.00	56.15	43.14	-40.0	-42.2	21.6	6.03e-01	0	56	0	274202624	52	4421
2026-01-10 00:55:46.00	56.60	43.38	-39.8	-42.0	22.0	6.04e-01	0	56	0	276299776	51	4557
2026-01-10 00:55:47.02	57.06	43.62	-40.0	-42.1	21.7	6.04e-01	0	56	0	277872640	51	4648
2026-01-10 00:55:48.02	57.52	43.86	-39.7	-41.9	22.0	6.01e-01	0	56	0	279969792	51	4506
2026-01-10 00:55:49.03	57.98	44.09	-39.8	-41.9	22.0	6.03e-01	0	56	0	281542656	51	4525
2026-01-10 00:55:50.04	58.46	44.33	-39.7	-41.9	22.1	6.03e-01	0	56	0	283639808	51	4499
2026-01-10 00:55:51.05	58.94	44.57	-39.8	-41.9	22.0	6.04e-01	0	56	0	285736960	51	4540
2026-01-10 00:55:52.06	59.44	44.80	-39.9	-42.1	21.8	6.03e-01	0	56	0	287309824	51	4633
2026-01-10 00:55:53.08	59.94	45.04	-39.8	-42.0	21.9	6.03e-01	0	56	0	289406976	51	4565
2026-01-10 00:55:54.08	60.44	45.27	-39.8	-41.9	22.0	6.02e-01	0	56	0	291504128	51	4538
2026-01-10 00:55:55.09	60.95	45.50	-39.8	-41.9	22.1	6.04e-01	0	56	0	293076992	51	4511
2026-01-10 00:55:56.10	61.47	45.74	-39.8	-42.0	22.0	6.02e-01	0	56	0	295174144	51	4567
2026-01-10 00:55:57.11	62.00	45.97	-39.8	-41.9	22.0	6.02e-01	0	56	0	296747008	51	4537
2026-01-10 00:55:58.12	62.54	46.20	-39.8	-42.0	22.0	6.02e-01	0	56	0	298844160	51	4566
2026-01-10 00:55:59.13	63.08	46.42	-39.9	-42.1	21.8	6.04e-01	0	56	0	300941312	51	4643
2026-01-10 00:56:00.14	63.64	46.65	-39.9	-42.0	21.9	6.04e-01	0	56	0	302514176	51	4594
2026-01-10 00:56:01.15	64.20	46.88	-40.2	-42.4	21.6	6.06e-01	0	56	0	304611328	51	4797
2026-01-10 00:56:02.16	64.77	47.10	-40.0	-42.2	21.8	6.03e-01	0	56	0	306184192	51	4675
2026-01-10 00:56:03.16	65.34	47.32	-39.7	-41.8	22.2	6.02e-01	0	56	0	308281344	51	4464
2026-01-10 00:56:04.17	65.92	47.54	-39.8	-41.9	22.1	6.01e-01	0	56	0	310378496	51	4534
2026-01-10 00:56:05.18	66.52	47.76	-39.9	-42.0	22.0	6.03e-01	0	56	0	311951360	51	4580
2026-01-10 00:56:06.18	67.11	47.97	-39.8	-42.0	22.1	6.05e-01	0	56	0	314048512	51	4546
2026-01-10 00:56:07.19	67.72	48.18	-40.0	-42.3	21.8	6.02e-01	0	56	0	315621376	51	4708
2026-01-10 00:56:08.20	68.34	48.39	-39.8	-41.9	22.0	6.04e-01	0	56	0	317718528	51	4544
2026-01-10 00:56:09.20	68.96	48.60	-40.0	-42.2	21.8	6.04e-01	0	56	0	319815680	51	4702
2026-01-10 00:56:10.21	69.60	48.81	-40.0	-42.2	21.7	6.02e-01	0	56	0	321388544	51	4702
2026-01-10 00:56:11.22	70.24	49.01	-40.1	-42.4	21.7	6.05e-01	0	56	0	323485696	51	4763
2026-01-10 00:56:12.22	70.89	49.21	-40.0	-42.2	21.7	6.03e-01	0	56	0	325058560	51	4704
2026-01-10 00:56:13.23	71.55	49.40	-40.1	-42.3	21.7	6.04e-01	0	56	0	327155712	51	4735
2026-01-10 00:56:14.24	72.22	49.60	-40.1	-42.4	21.6	6.04e-01	0	56	0	329252864	51	4778
2026-01-10 00:56:15.24	72.89	49.79	-40.3	-42.5	21.4	6.01e-01	0	56	0	330825728	51	4869
2026-01-10 00:56:16.25	73.58	49.98	-40.3	-42.6	21.4	6.02e-01	0	56	0	332922880	51	4891
2026-01-10 00:56:17.26	74.27	50.16	-40.1	-42.4	21.6	6.02e-01	0	56	0	334495744	51	4773
2026-01-10 00:56:18.26	74.97	50.34	-40.2	-42.5	21.5	6.04e-01	0	56	0	336592896	51	4823
2026-01-10 00:56:19.27	75.68	50.51	-40.4	-42.8	21.2	6.03e-01	0	56	0	338690048	51	5012
2026-01-10 00:56:20.28	76.40	50.69	-40.1	-42.4	21.6	6.03e-01	0	57	0	340262912	51	4773
2026-01-10 00:56:21.28	77.13	50.85	-40.4	-42.7	21.4	6.04e-01	0	56	0	342360064	51	4933
2026-01-10 00:56:22.29	77.86	51.02	-40.5	-42.8	21.3	6.03e-01	0	56	0	343932928	51	5022
2026-01-10 00:56:23.30	78.61	51.18	-40.2	-42.5	21.6	6.04e-01	0	56	0	346030080	51	4828
2026-01-10 00:56:24.30	79.35	51.33	-40.0	-42.2	21.8	6.03e-01	0	56	0	348127232	51	4693
2026-01-10 00:56:25.31	80.11	51.49	-40.3	-42.6	21.4	6.02e-01	0	56	0	349700096	52	4644
2026-01-10 00:56:26.31	80.88	51.63	-40.2	-42.5	21.4	6.03e-01	0	56	0	351797248	52	4584
2026-01-10 00:56:27.32	81.65	51.77	-40.2	-42.5	21.5	6.01e-01	0	56	0	353370112	52	4548
2026-01-10 00:56:28.33	82.44	51.91	-40.1	-42.4	21.5	6.00e-01	0	56	0	355467264	52	4526
2026-01-10 00:56:29.33	83.22	52.04	-40.5	-43.0	21.0	6.04e-01	0	56	0	357564416	52	4817
2026-01-10 00:56:30.34	84.02	52.17	-40.2	-42.5	21.4	6.00e-01	0	56	0	359137280	52	4594
2026-01-10 00:56:31.35	84.82	52.29	-40.4	-42.7	21.2	6.05e-01	0	56	0	361234432	52	4703
2026-01-10 00:56:32.35	85.62	52.40	-40.6	-43.0	21.0	6.04e-01	0	56	0	362807296	52	4846
2026-01-10 00:56:33.36	86.44	52.51	-40.3	-42.7	21.3	6.04e-01	0	56	0	364904448	52	4666
2026-01-10 00:56:34.36	87.25	52.62	-40.2	-42.5	21.4	6.04e-01	0	56	0	367001600	52	4579
2026-01-10 00:56:35.37	88.08	52.72	-40.3	-42.6	21.4	6.01e-01	0	56	0	368574464	52	4645
2026-01-10 00:56:36.38	88.92	52.81	-40.5	-43.0	21.1	6.06e-01	0	56	0	370671616	52	4818
2026-01-10 00:56:37.38	89.75	52.90	-40.5	-42.8	21.2	6.03e-01	0	56	0	372244480	52	4752
2026-01-10 00:56:38.39	90.59	52.98	-40.5	-42.9	21.0	6.04e-01	0	56	0	374341632	52	4796
2026-01-10 00:56:39.39	91.43	53.05	-40.7	-43.2	20.8	6.04e-01	0	56	0	376438784	52	4963
2026-01-10 00:56:40.40	92.28	53.12	-40.6	-43.0	21.0	6.04e-01	0	56	0	378011648	52	4848
2026-01-10 00:56:41.41	93.14	53.18	-40.6	-43.0	21.0	6.03e-01	0	56	0	380108800	52	4848
2026-01-10 00:56:42.42	94.00	53.24	-40.8	-43.3	20.7	6.02e-01	0	56	0	381681664	52	5002
2026-01-10 00:56:43.43	94.87	53.29	-40.8	-43.3	20.7	6.03e-01	0	56	0	383778816	52	5012
2026-01-10 00:56:44.44	95.73	53.33	-40.7	-43.1	20.9	6.03e-01	0	56	0	385875968	52	4917
2026-01-10 00:56:45.44	96.59	53.37	-41.0	-43.6	20.5	6.04e-01	0	56	0	387448832	52	5195
2026-01-10 00:56:46.45	97.46	53.40	-40.7	-43.1	20.9	6.03e-01	0	56	0	389545984	52	4914
2026-01-10 00:56:47.45	98.33	53.42	-40.7	-43.1	20.9	6.03e-01	0	56	0	391118848	52	4901
2026-01-10 00:56:48.46	99.20	53.44	-40.7	-43.2	20.8	6.01e-01	0	56	0	393216000	52	4940
2026-01-10 00:56:49.47	100.08	53.45	-40.6	-43.0	21.1	6.01e-01	0	56	0	395313152	52	4824
2026-01-10 00:56:50.48	100.95	53.46	-40.5	-42.9	21.0	6.05e-01	0	56	0	396886016	52	4806
2026-01-10 00:56:51.48	101.82	53.45	-40.6	-43.1	20.9	6.03e-01	0	56	0	398983168	52	4876
2026-01-10 00:56:52.49	102.69	53.44	-40.6	-43.0	21.0	6.03e-01	0	56	0	400556032	52	4859
2026-01-10 00:56:53.50	103.57	53.43	-40.5	-42.8	21.2	6.04e-01	0	56	0	402653184	52	4755
2026-01-10 00:56:54.51	104.44	53.41	-40.5	-42.8	21.2	6.02e-01	0	56	0	404750336	52	4753
2026-01-10 00:56:55.52	105.31	53.38	-40.5	-42.9	21.1	6.04e-01	0	56	0	406323200	52	4775
2026-01-10 00:56:56.53	106.18	53.34	-40.5	-42.8	21.2	6.04e-01	0	56	0	408420352	52	4747
2026-01-10 00:56:57.54	107.05	53.30	-40.7	-43.1	20.9	6.05e-01	0	56	0	409993216	52	4913
2026-01-10 00:56:58.55	107.91	53.25	-40.4	-42.8	21.1	6.06e-01	0	56	0	412090368	52	4746
2026-01-10 00:56:59.56	108.77	53.20	-40.6	-43.0	21.0	6.00e-01	0	56	0	414187520	52	4835
2026-01-10 00:57:00.56	109.62	53.14	-40.9	-43.5	20.5	6.02e-01	0	56	0	415760384	52	5109
2026-01-10 00:57:01.57	110.48	53.07	-40.7	-43.2	20.8	6.03e-01	0	56	0	417857536	52	4938
2026-01-10 00:57:02.58	111.33	52.99	-40.6	-43.1	20.9	6.00e-01	0	56	0	419954688	52	4875
2026-01-10 00:57:03.59	112.18	52.91	-40.6	-43.0	21.0	6.03e-01	0	56	0	421527552	52	4846
2026-01-10 00:57:04.60	113.02	52.83	-40.9	-43.4	20.5	6.05e-01	0	56	0	423624704	52	5088
2026-01-10 00:57:05.61	113.85	52.74	-40.5	-42.9	21.1	6.01e-01	0	56	0	425197568	52	4760
2026-01-10 00:57:06.61	114.68	52.64	-40.5	-42.9	21.0	6.04e-01	0	56	0	427294720	52	4802
2026-01-10 00:57:07.62	115.50	52.54	-40.7	-43.2	20.8	6.02e-01	0	56	0	428867584	52	4952
2026-01-10 00:57:08.63	116.32	52.43	-40.7	-43.2	20.9	6.02e-01	0	56	0	430964736	52	4933
2026-01-10 00:57:09.64	117.13	52.31	-40.6	-43.0	21.0	6.04e-01	0	56	0	433061888	52	4850
2026-01-10 00:57:10.65	117.94	52.19	-40.2	-42.5	21.4	6.01e-01	0	56	0	434634752	52	4591
2026-01-10 00:57:11.65	118.73	52.07	-40.5	-42.9	21.2	6.04e-01	0	56	0	436731904	52	4760
2026-01-10 00:57:12.66	119.52	51.93	-40.8	-43.4	20.6	6.04e-01	0	56	0	438304768	52	5051
2026-01-10 00:57:13.67	120.31	51.80	-40.5	-42.9	21.1	6.04e-01	0	56	0	440401920	52	4782
2026-01-10 00:57:14.67	121.08	51.66	-40.5	-43.0	20.9	6.02e-01	0	56	0	442499072	52	4827
2026-01-10 00:57:15.68	121.85	51.51	-40.6	-43.1	20.8	6.02e-01	0	56	0	444071936	52	4903
2026-01-10 00:57:16.69	122.62	51.36	-40.7	-43.2	20.7	6.02e-01	0	56	0	446169088	52	4977
2026-01-10 00:57:17.69	123.36	51.21	-41.0	-43.6	20.4	6.05e-01	0	56	0	448266240	52	5170
2026-01-10 00:57:18.70	124.11	51.05	-40.6	-43.1	20.8	6.02e-01	0	56	0	449839104	52	4894
2026-01-10 00:57:19.71	124.85	50.88	-40.6	-43.1	20.9	6.03e-01	0	56	0	451936256	52	4884
2026-01-10 00:57:20.71	125.58	50.72	-40.9	-43.5	20.5	6.03e-01	0	56	0	453509120	52	5107
2026-01-10 00:57:21.72	126.30	50.55	-41.0	-43.6	20.4	6.03e-01	0	56	0	455606272	52	5170
2026-01-10 00:57:22.73	127.02	50.37	-40.8	-43.3	20.6	6.05e-01	0	56	0	457703424	52	4998
2026-01-10 00:57:23.74	127.72	50.19	-40.8	-43.4	20.5	6.04e-01	0	56	0	459276288	52	5092
2026-01-10 00:57:24.75	128.42	50.00	-40.7	-43.2	20.7	6.01e-01	0	56	0	461373440	52	4974
2026-01-10 00:57:25.76	129.11	49.82	-40.7	-43.2	20.7	6.00e-01	0	56	0	462946304	52	4962
2026-01-10 00:57:26.77	129.79	49.63	-40.8	-43.3	20.6	6.04e-01	0	56	0	465043456	52	5035
2026-01-10 00:57:27.78	130.47	49.43	-40.9	-43.5	20.4	6.05e-01	0	56	0	467140608	52	5112
2026-01-10 00:57:28.79	131.13	49.23	-40.7	-43.2	20.7	6.05e-01	0	56	0	468713472	52	4970
2026-01-10 00:57:29.80	131.79	49.03	-40.7	-43.2	20.7	6.02e-01	0	56	0	470810624	52	4947
2026-01-10 00:57:30.81	132.43	48.83	-40.7	-43.2	20.7	6.03e-01	0	56	0	472383488	52	4968
2026-01-10 00:57:31.82	133.07	48.62	-40.9	-43.5	20.4	6.02e-01	0	56	0	474480640	52	5107
2026-01-10 00:57:32.83	133.70	48.42	-41.0	-43.7	20.2	6.05e-01	0	56	0	476577792	52	5252
2026-01-10 00:57:33.84	134.32	48.20	-40.5	-43.0	20.9	6.03e-01	0	56	0	478150656	52	4831
2026-01-10 00:57:34.84	134.93	47.99	-40.6	-43.0	20.8	6.04e-01	0	56	0	480247808	52	4868
2026-01-10 00:57:35.85	135.53	47.78	-40.8	-43.4	20.5	6.03e-01	0	56	0	481820672	52	5078
2026-01-10 00:57:36.86	136.13	47.56	-40.7	-43.2	20.6	6.01e-01	0	56	0	483917824	52	4972
2026-01-10 00:57:37.87	136.72	47.34	-40.6	-43.1	20.7	6.02e-01	0	56	0	486014976	52	4923
2026-01-10 00:57:38.88	137.30	47.12	-40.5	-42.9	20.9	6.02e-01	0	56	0	487587840	52	4797
2026-01-10 00:57:39.88	137.86	46.89	-40.5	-43.0	20.9	6.02e-01	0	56	0	489684992	52	4828
2026-01-10 00:57:40.89	138.43	46.67	-40.7	-43.2	20.7	6.02e-01	0	56	0	491782144	52	4949
2026-01-10 00:57:41.91	138.99	46.44	-40.4	-42.8	21.0	6.04e-01	0	56	0	493355008	52	4745
2026-01-10 00:57:42.92	139.53	46.21	-40.6	-43.1	20.9	6.01e-01	0	56	0	495452160	52	4872
2026-01-10 00:57:43.93	140.07	45.98	-40.7	-43.2	20.6	6.03e-01	0	56	0	497025024	52	4979
2026-01-10 00:57:44.93	140.60	45.75	-40.3	-42.7	21.2	6.02e-01	0	56	0	499122176	52	4672
2026-01-10 00:57:45.94	141.12	45.52	-40.3	-42.7	21.1	6.03e-01	0	56	0	501219328	52	4669
2026-01-10 00:57:46.95	141.64	45.28	-40.6	-43.1	20.8	6.02e-01	0	56	0	502792192	52	4877
2026-01-10 00:57:47.96	142.15	45.05	-40.5	-43.0	20.8	6.02e-01	0	56	0	504889344	52	4839
2026-01-10 00:57:48.97	142.65	44.81	-40.4	-42.8	21.1	6.03e-01	0	56	0	506462208	52	4714
2026-01-10 00:57:49.98	143.14	44.58	-40.5	-42.9	20.9	6.05e-01	0	56	0	508559360	52	4808
2026-01-10 00:57:50.99	143.63	44.34	-40.6	-43.1	20.8	6.05e-01	0	56	0	510656512	52	4885
2026-01-10 00:57:52.00	144.11	44.10	-40.3	-42.6	21.3	6.03e-01	0	56	0	512229376	52	4615
2026-01-10 00:57:53.01	144.58	43.86	-40.3	-42.6	21.2	6.05e-01	0	56	0	514326528	52	4649
2026-01-10 00:57:54.02	145.04	43.62	-40.5	-43.0	20.9	6.02e-01	0	56	0	515899392	52	4816
2026-01-10 00:57:55.03	145.50	43.38	-40.6	-43.1	20.7	6.04e-01	0	56	0	517996544	52	4878
2026-01-10 00:57:56.04	145.95	43.14	-40.6	-43.0	20.9	6.05e-01	0	56	0	520093696	52	4853
2026-01-10 00:57:57.05	146.39	42.90	-40.5	-43.0	20.9	6.02e-01	0	56	0	521666560	52	4817
2026-01-10 00:57:58.05	146.83	42.67	-40.6	-43.0	20.8	6.04e-01	0	56	0	523763712	52	4851
2026-01-10 00:57:59.06	147.26	42.43	-40.7	-43.2	20.6	6.03e-01	0	56	0	525336576	52	4936
2026-01-10 00:58:00.07	147.68	42.18	-40.7	-43.2	20.6	6.01e-01	0	56	0	527433728	52	4950
2026-01-10 00:58:01.08	148.10	41.94	-40.7	-43.2	20.6	6.03e-01	0	56	0	529530880	52	4934
2026-01-10 00:58:02.08	148.51	41.71	-40.8	-43.4	20.5	6.06e-01	0	56	0	531103744	52	5054
2026-01-10 00:58:03.09	148.92	41.47	-41.0	-43.6	20.2	6.03e-01	0	56	0	533200896	52	5195
2026-01-10 00:58:04.09	149.31	41.23	-40.9	-43.6	20.2	6.02e-01	0	56	0	534773760	52	5181
2026-01-10 00:58:05.10	149.71	40.99	-41.0	-43.6	20.2	6.04e-01	0	56	0	536870912	52	5214
2026-01-10 00:58:06.11	150.09	40.75	-40.9	-43.5	20.3	6.04e-01	0	56	0	538968064	52	5125
2026-01-10 00:58:07.11	150.47	40.51	-40.7	-43.2	20.6	6.02e-01	0	56	0	540540928	52	4965
2026-01-10 00:58:08.12	150.85	40.27	-40.9	-43.4	20.3	6.05e-01	0	56	0	542638080	52	5098
2026-01-10 00:58:09.13	151.22	40.03	-41.1	-43.7	20.1	6.03e-01	0	56	0	544735232	52	5279
2026-01-10 00:58:10.14	151.59	39.79	-41.4	-44.3	19.4	6.02e-01	0	56	0	546308096	53	5337
2026-01-10 00:58:11.15	151.95	39.55	-41.4	-44.2	19.6	6.03e-01	0	56	0	548405248	53	5267
2026-01-10 00:58:12.15	152.30	39.32	-41.2	-44.0	19.8	6.01e-01	0	56	0	549978112	53	5104
2026-01-10 00:58:13.16	152.65	39.08	-41.0	-43.7	20.1	6.04e-01	0	56	0	552075264	53	4934
2026-01-10 00:58:14.17	152.99	38.85	-40.9	-43.5	20.3	6.03e-01	0	56	0	553648128	53	4821
2026-01-10 00:58:15.18	153.34	38.61	-40.9	-43.5	20.3	6.04e-01	0	56	0	555745280	53	4831
2026-01-10 00:58:16.19	153.67	38.37	-40.9	-43.5	20.3	6.05e-01	0	56	0	557842432	53	4820
2026-01-10 00:58:17.20	154.00	38.14	-41.0	-43.6	20.2	6.02e-01	0	56	0	559415296	53	4910
2026-01-10 00:58:18.21	154.33	37.91	-40.9	-43.5	20.3	6.03e-01	0	56	0	561512448	53	4831
2026-01-10 00:58:19.21	154.64	37.67	-40.7	-43.3	20.5	6.04e-01	0	56	0	563085312	53	4710
2026-01-10 00:58:20.22	154.96	37.44	-40.6	-43.1	20.7	6.03e-01	0	56	0	565182464	53	4610
2026-01-10 00:58:21.24	155.28	37.21	-40.5	-43.0	20.8	6.02e-01	0	56	0	567279616	53	4577
2026-01-10 00:58:22.25	155.58	36.98	-40.6	-43.1	20.7	6.03e-01	0	56	0	568852480	53	4601
2026-01-10 00:58:23.25	155.88	36.75	-40.6	-43.1	20.7	6.02e-01	0	56	0	570949632	52	4895
2026-01-10 00:58:24.26	156.18	36.52	-40.8	-43.4	20.3	6.04e-01	0	56	0	573046784	52	5060
2026-01-10 00:58:25.28	156.48	36.29	-40.7	-43.3	20.5	6.01e-01	0	56	0	574619648	52	4994
2026-01-10 00:58:26.28	156.77	36.06	-40.6	-43.1	20.6	6.04e-01	0	56	0	576716800	52	4924
2026-01-10 00:58:27.29	157.05	35.84	-40.4	-42.9	20.9	6.02e-01	0	56	0	578289664	52	4784
2026-01-10 00:58:28.30	157.34	35.61	-40.2	-42.6	21.1	6.03e-01	0	56	0	580386816	52	4623
2026-01-10 00:58:29.31	157.61	35.39	-40.2	-42.6	21.2	6.04e-01	0	56	0	582483968	52	4611
2026-01-10 00:58:30.31	157.89	35.17	-40.1	-42.5	21.3	6.02e-01	0	56	0	584056832	52	4569
2026-01-10 00:58:31.32	158.16	34.94	-40.2	-42.5	21.2	6.03e-01	0	56	0	586153984	52	4574
2026-01-10 00:58:32.33	158.43	34.72	-40.0	-42.3	21.4	6.03e-01	0	56	0	588251136	52	4484
2026-01-10 00:58:33.34	158.69	34.50	-39.9	-42.2	21.6	6.04e-01	0	56	0	589824000	51	4653
2026-01-10 00:58:34.34	158.95	34.28	-40.0	-42.2	21.6	6.03e-01	0	56	0	591921152	51	4690
2026-01-10 00:58:35.35	159.20	34.07	-40.0	-42.3	21.5	6.04e-01	0	56	0	593494016	51	4733
2026-01-10 00:58:36.36	159.46	33.85	-39.9	-42.2	21.6	6.05e-01	0	56	0	595591168	51	4657
2026-01-10 00:58:37.37	159.71	33.63	-39.9	-42.1	21.7	6.03e-01	0	56	0	597164032	51	4642
2026-01-10 00:58:38.37	159.95	33.42	-39.9	-42.1	21.7	6.04e-01	0	56	0	599261184	51	4617
2026-01-10 00:58:39.38	160.19	33.20	-39.8	-42.0	21.8	6.04e-01	0	56	0	601358336	51	4570
2026-01-10 00:58:40.39	160.43	32.99	-39.7	-41.8	21.9	6.01e-01	0	56	0	602931200	51	4488
2026-01-10 00:58:41.40	160.67	32.78	-39.6	-41.8	21.9	6.01e-01	0	56	0	605028352	51	4465
2026-01-10 00:58:42.40	160.90	32.57	-39.5	-41.6	22.2	6.03e-01	0	56	0	606601216	51	4354
2026-01-10 00:58:43.41	161.13	32.36	-39.5	-41.6	22.2	6.02e-01	0	56	0	608698368	50	4626
2026-01-10 00:58:44.42	161.36	32.15	-39.6	-41.7	22.1	6.02e-01	0	56	0	610795520	50	4674
2026-01-10 00:58:45.43	161.59	31.94	-39.5	-41.7	22.1	6.01e-01	0	56	0	612368384	50	4655
2026-01-10 00:58:46.44	161.81	31.73	-39.5	-41.7	22.1	6.02e-01	0	56	0	614465536	50	4656
2026-01-10 00:58:47.45	162.03	31.53	-39.6	-41.8	22.0	6.04e-01	0	56	0	616562688	50	4709
2026-01-10 00:58:48.46	162.24	31.32	-39.6	-41.7	22.0	6.05e-01	0	56	0	618135552	50	4670
2026-01-10 00:58:49.47	162.46	31.12	-39.6	-41.7	22.0	6.04e-01	0	56	0	620232704	50	4679
2026-01-10 00:58:50.48	162.67	30.92	-39.6	-41.8	22.0	6.03e-01	0	56	0	621805568	50	4728
2026-01-10 00:58:51.49	162.88	30.72	-39.6	-41.8	21.9	6.02e-01	0	56	0	623902720	50	4732
2026-01-10 00:58:52.50	163.08	30.52	-39.6	-41.7	22.0	6.03e-01	0	56	0	625999872	50	4679
2026-01-10 00:58:53.51	163.29	30.32	-39.5	-41.6	22.1	6.04e-01	0	56	0	627572736	50	4613
2026-01-10 00:58:54.51	163.48	30.12	-39.5	-41.7	22.0	6.02e-01	0	56	0	629669888	50	4668
2026-01-10 00:58:55.52	163.68	29.92	-39.5	-41.7	22.1	6.04e-01	0	56	0	631242752	50	4654
2026-01-10 00:58:56.53	163.88	29.73	-39.6	-41.8	21.9	6.01e-01	0	56	0	633339904	50	4727
2026-01-10 00:58:57.54	164.07	29.53	-39.5	-41.7	22.0	6.03e-01	0	56	0	635437056	50	4657
2026-01-10 00:58:58.55	164.26	29.34	-39.5	-41.6	22.1	6.00e-01	0	56	0	637009920	50	4620
2026-01-10 00:58:59.56	164.45	29.15	-39.6	-41.8	22.0	6.04e-01	0	56	0	639107072	50	4714
2026-01-10 00:59:00.56	164.64	28.96	-39.7	-41.9	21.7	6.03e-01	0	56	0	640679936	50	4810
2026-01-10 00:59:01.57	164.82	28.77	-39.7	-41.9	21.8	6.05e-01	0	56	0	642777088	50	4791
2026-01-10 00:59:02.58	165.00	28.58	-39.7	-41.8	21.8	6.05e-01	0	56	0	644874240	50	4757
2026-01-10 00:59:03.59	165.18	28.39	-39.5	-41.7	22.0	6.03e-01	0	56	0	646447104	50	4668
2026-01-10 00:59:04.60	165.36	28.20	-39.5	-41.6	22.0	6.02e-01	0	56	0	648544256	50	4643
2026-01-10 00:59:05.60	165.54	28.02	-39.5	-41.7	22.0	6.02e-01	0	56	0	650117120	50	4665
2026-01-10 00:59:06.61	165.71	27.83	-39.7	-41.9	21.8	6.05e-01	0	56	0	652214272	50	4763
2026-01-10 00:59:07.62	165.88	27.65	-39.7	-41.9	21.8	6.05e-01	0	56	0	654311424	50	4798
2026-01-10 00:59:08.63	166.05	27.46	-39.8	-42.0	21.6	6.01e-01	0	56	0	655884288	50	4868
2026-01-10 00:59:09.63	166.22	27.28	-39.8	-42.1	21.6	6.04e-01	0	56	0	657981440	50	4894
2026-01-10 00:59:10.64	166.38	27.10	-39.9	-42.1	21.5	6.05e-01	0	56	0	659554304	50	4911
2026-01-10 00:59:11.65	166.55	26.92	-39.9	-42.2	21.5	6.04e-01	0	56	0	661651456	50	4955
2026-01-10 00:59:12.65	166.71	26.75	-39.9	-42.2	21.4	6.03e-01	0	56	0	663748608	50	4969
2026-01-10 00:59:13.66	166.87	26.57	-39.9	-42.2	21.4	6.03e-01	0	56	0	665321472	50	4980
2026-01-10 00:59:14.67	167.03	26.39	-40.0	-42.3	21.4	6.01e-01	0	56	0	667418624	50	5004
2026-01-10 00:59:15.67	167.18	26.22	-39.9	-42.2	21.4	6.03e-01	0	56	0	668991488	50	4972
2026-01-10 00:59:16.68	167.34	26.04	-39.9	-42.2	21.4	6.02e-01	0	56	0	671088640	50	4969
2026-01-10 00:59:17.69	167.49	25.87	-39.9	-42.2	21.5	6.04e-01	0	56	0	673185792	50	4953
2026-01-10 00:59:18.70	167.64	25.70	-39.9	-42.2	21.4	6.03e-01	0	56	0	674758656	50	4953
2026-01-10 00:59:19.71	167.79	25.52	-40.1	-42.4	21.2	6.05e-01	0	56	0	676855808	50	5079
2026-01-10 00:59:20.72	167.94	25.35	-40.1	-42.4	21.2	6.03e-01	0	56	0	678428672	50	5081
2026-01-10 00:59:21.73	168.09	25.18	-40.1	-42.5	21.2	6.04e-01	0	56	0	680525824	50	5102
2026-01-10 00:59:22.74	168.23	25.02	-40.2	-42.6	21.0	6.04e-01	0	56	0	682622976	50	5216
2026-01-10 00:59:23.74	168.37	24.85	-40.3	-42.8	20.8	6.00e-01	0	56	0	684195840	51	4990
2026-01-10 00:59:24.75	168.52	24.68	-40.1	-42.5	21.1	6.04e-01	0	56	0	686292992	51	4861
2026-01-10 00:59:25.76	168.66	24.52	-40.2	-42.6	21.0	6.04e-01	0	56	0	687865856	51	4908
2026-01-10 00:59:26.77	168.80	24.35	-40.2	-42.6	21.0	6.01e-01	0	56	0	689963008	51	4908
2026-01-10 00:59:27.78	168.93	24.19	-40.3	-42.7	20.9	6.04e-01	0	56	0	692060160	51	4983
2026-01-10 00:59:28.79	169.07	24.02	-40.4	-42.9	20.6	6.03e-01	0	56	0	693633024	51	5089
2026-01-10 00:59:29.80	169.20	23.86	-40.4	-42.9	20.6	6.04e-01	0	56	0	695730176	51	5064
2026-01-10 00:59:30.81	169.34	23.70	-40.2	-42.6	20.9	6.02e-01	0	56	0	697827328	51	4904
2026-01-10 00:59:31.82	169.47	23.54	-40.1	-42.5	20.9	6.03e-01	0	56	0	699400192	51	4869
2026-01-10 00:59:32.83	169.60	23.38	-40.1	-42.4	21.1	6.02e-01	0	56	0	701497344	51	4810
2026-01-10 00:59:33.84	169.73	23.22	-40.0	-42.4	21.1	6.01e-01	0	56	0	703070208	51	4801
2026-01-10 00:59:34.85	169.86	23.07	-40.1	-42.5	21.0	6.04e-01	0	56	0	705167360	51	4860
2026-01-10 00:59:35.86	169.98	22.91	-40.0	-42.4	21.1	6.03e-01	0	56	0	707264512	51	4791
2026-01-10 00:59:36.86	170.11	22.76	-40.0	-42.4	21.1	6.02e-01	0	56	0	708837376	51	4780
2026-01-10 00:59:37.87	170.23	22.60	-40.0	-42.4	21.1	6.03e-01	0	56	0	710934528	51	4801
2026-01-10 00:59:38.87	170.35	22.45	-40.0	-42.3	21.2	6.05e-01	0	56	0	713031680	51	4747
2026-01-10 00:59:39.88	170.48	22.30	-39.9	-42.3	21.2	6.02e-01	0	56	0	714604544	51	4728
2026-01-10 00:59:40.89	170.60	22.14	-40.0	-42.3	21.2	6.04e-01	0	56	0	716701696	51	4754
2026-01-10 00:59:41.90	170.72	21.99	-39.9	-42.2	21.2	6.03e-01	0	56	0	718274560	51	4702
2026-01-10 00:59:42.90	170.83	21.84	-39.8	-42.2	21.3	6.04e-01	0	56	0	720371712	51	4666
2026-01-10 00:59:43.91	170.95	21.69	-39.9	-42.3	21.2	6.04e-01	0	56	0	721944576	51	4706
2026-01-10 00:59:44.92	171.07	21.55	-39.9	-42.2	21.2	6.04e-01	0	56	0	724041728	51	4685
2026-01-10 00:59:45.92	171.18	21.40	-39.9	-42.3	21.2	6.04e-01	0	56	0	726138880	51	4710
2026-01-10 00:59:46.93	171.29	21.25	-40.0	-42.4	21.1	6.05e-01	0	56	0	727711744	51	4767
2026-01-10 00:59:47.94	171.40	21.11	-40.1	-42.5	21.0	6.04e-01	0	56	0	729808896	51	4833
2026-01-10 00:59:48.95	171.52	20.96	-40.1	-42.5	20.9	6.03e-01	0	56	0	731381760	51	4849
2026-01-10 00:59:49.96	171.63	20.82	-40.2	-42.7	20.8	6.04e-01	0	56	0	733478912	51	4949
2026-01-10 00:59:50.97	171.74	20.67	-40.2	-42.7	20.7	6.04e-01	0	56	0	735576064	51	4950
2026-01-10 00:59:51.98	171.84	20.53	-40.2	-42.8	20.7	6.03e-01	0	56	0	737148928	51	4986
2026-01-10 00:59:52.99	171.95	20.39	-40.2	-42.6	20.7	6.03e-01	0	56	0	739246080	51	4926
2026-01-10 00:59:54.00	172.06	20.25	-40.1	-42.5	20.9	6.03e-01	0	56	0	741343232	51	4851
2026-01-10 00:59:55.00	172.16	20.11	-40.0	-42.5	20.9	6.03e-01	0	56	0	742916096	51	4837
2026-01-10 00:59:56.02	172.27	19.97	-40.1	-42.6	20.7	6.01e-01	0	56	0	745013248	51	4913
2026-01-10 00:59:57.02	172.37	19.83	-40.2	-42.8	20.6	6.04e-01	0	56	0	746586112	51	5012
2026-01-10 00:59:58.03	172.47	19.69	-40.2	-42.8	20.6	6.04e-01	0	56	0	748683264	51	5016
2026-01-10 00:59:59.04	172.57	19.55	-40.1	-42.6	20.8	6.02e-01	0	56	0	750780416	51	4905
2026-01-10 01:00:00.05	172.67	19.42	-40.0	-42.5	20.9	6.02e-01	0	56	0	752353280	51	4816
2026-01-10 01:00:01.06	172.77	19.28	-40.0	-42.4	21.0	6.03e-01	0	56	0	754450432	51	4774
2026-01-10 01:00:02.06	172.87	19.15	-39.9	-42.3	21.1	6.04e-01	0	56	0	756023296	51	4706
2026-01-10 01:00:03.07	172.97	19.01	-39.9	-42.4	21.0	6.00e-01	0	56	0	758120448	51	4761
2026-01-10 01:00:04.08	173.07	18.88	-39.9	-42.3	21.0	6.00e-01	0	56	0	760217600	51	4756
2026-01-10 01:00:05.09	173.16	18.74	-39.9	-42.4	21.0	6.03e-01	0	56	0	761790464	51	4765
2026-01-10 01:00:06.10	173.26	18.61	-40.0	-42.4	21.0	6.03e-01	0	56	0	763887616	51	4776
2026-01-10 01:00:07.11	173.35	18.48	-40.0	-42.4	20.9	6.03e-01	0	56	0	765460480	51	4804
2026-01-10 01:00:08.12	173.45	18.35	-40.0	-42.4	21.0	6.03e-01	0	56	0	767557632	51	4788
2026-01-10 01:00:09.13	173.54	18.22	-39.9	-42.4	21.0	6.02e-01	0	56	0	769654784	51	4764
2026-01-10 01:00:10.14	173.63	18.09	-39.9	-42.3	21.0	6.03e-01	0	56	0	771227648	51	4759
2026-01-10 01:00:11.14	173.72	17.96	-39.8	-42.2	21.1	6.02e-01	0	56	0	773324800	51	4689
2026-01-10 01:00:12.16	173.81	17.83	-39.7	-42.1	21.2	6.05e-01	0	56	0	774897664	51	4621
2026-01-10 01:00:13.16	173.90	17.71	-39.8	-42.1	21.2	6.02e-01	0	56	0	776994816	51	4638
2026-01-10 01:00:14.17	173.99	17.58	-39.7	-42.1	21.2	6.03e-01	0	56	0	779091968	51	4633
2026-01-10 01:00:15.18	174.08	17.45	-39.7	-42.1	21.2	6.04e-01	0	56	0	780664832	51	4626
2026-01-10 01:00:16.19	174.17	17.33	-39.8	-42.2	21.1	6.01e-01	0	56	0	782761984	51	4668
2026-01-10 01:00:17.19	174.25	17.20	-39.9	-42.3	21.0	6.01e-01	0	56	0	784334848	51	4720
2026-01-10 01:00:18.20	174.34	17.08	-39.9	-42.3	21.0	6.03e-01	0	56	0	786432000	51	4750
2026-01-10 01:00:19.21	174.42	16.95	-39.8	-42.2	21.0	6.03e-01	0	56	0	788529152	51	4693
2026-01-10 01:00:20.22	174.51	16.83	-39.7	-42.0	21.3	6.05e-01	0	56	0	790102016	51	4569
2026-01-10 01:00:21.23	174.59	16.71	-39.6	-42.0	21.3	6.03e-01	0	56	0	792199168	51	4563
2026-01-10 01:00:22.23	174.67	16.59	-39.7	-42.1	21.2	6.03e-01	0	56	0	794296320	51	4631
2026-01-10 01:00:23.24	174.76	16.47	-39.7	-42.1	21.2	6.04e-01	0	56	0	795869184	51	4622
2026-01-10 01:00:24.25	174.84	16.35	-39.8	-42.2	21.1	6.03e-01	0	56	0	797966336	51	4670
2026-01-10 01:00:25.26	174.92	16.23	-39.8	-42.2	21.1	6.03e-01	0	56	0	799539200	51	4670
2026-01-10 01:00:26.26	175.00	16.11	-39.9	-42.3	21.0	6.05e-01	0	56	0	801636352	51	4734
2026-01-10 01:00:27.27	175.08	15.99	-39.9	-42.3	20.9	6.02e-01	0	56	0	803209216	51	4742
2026-01-10 01:00:28.27	175.16	15.87	-39.8	-42.2	21.0	6.04e-01	0	56	0	805306368	51	4697
2026-01-10 01:00:29.28	175.24	15.75	-39.8	-42.3	21.0	6.00e-01	0	56	0	807403520	51	4718
2026-01-10 01:00:30.29	175.31	15.64	-39.8	-42.2	21.0	6.05e-01	0	56	0	808976384	51	4690
2026-01-10 01:00:31.30	175.39	15.52	-39.9	-42.3	20.9	6.05e-01	0	56	0	811073536	51	4752
2026-01-10 01:00:32.30	175.47	15.41	-39.9	-42.4	20.8	6.04e-01	0	56	0	812646400	51	4797
2026-01-10 01:00:33.31	175.54	15.29	-39.8	-42.3	20.9	6.00e-01	0	56	0	814743552	51	4725
2026-01-10 01:00:34.32	175.62	15.18	-39.8	-42.3	20.9	6.04e-01	0	56	0	816840704	51	4721
2026-01-10 01:00:35.33	175.69	15.06	-39.8	-42.2	20.9	6.02e-01	0	56	0	818413568	51	4702
2026-01-10 01:00:36.34	175.77	14.95	-39.8	-42.2	20.9	6.03e-01	0	56	0	820510720	51	4696
2026-01-10 01:00:37.34	175.84	14.84	-39.8	-42.2	20.9	6.01e-01	0	56	0	822607872	51	4696
2026-01-10 01:00:38.35	175.91	14.72	-39.9	-42.4	20.8	6.02e-01	0	56	0	824180736	51	4769
2026-01-10 01:00:39.36	175.99	14.61	-39.8	-42.3	20.8	6.04e-01	0	56	0	826277888	51	4735
2026-01-10 01:00:40.37	176.06	14.50	-39.8	-42.3	20.8	6.05e-01	0	56	0	827850752	51	4734
2026-01-10 01:00:41.38	176.13	14.39	-39.9	-42.3	20.8	5.98e-01	0	56	0	829947904	51	4753
2026-01-10 01:00:42.39	176.20	14.28	-39.9	-42.5	20.7	6.03e-01	0	56	0	832045056	51	4821
2026-01-10 01:00:43.39	176.27	14.17	-40.0	-42.6	20.6	6.03e-01	0	56	0	833617920	51	4871
2026-01-10 01:00:44.40	176.34	14.06	-40.1	-42.6	20.5	6.03e-01	0	56	0	835715072	51	4920
2026-01-10 01:00:45.40	176.41	13.95	-40.0	-42.6	20.5	6.03e-01	0	56	0	837287936	51	4907
2026-01-10 01:00:46.41	176.48	13.84	-40.0	-42.6	20.5	6.02e-01	0	56	0	839385088	51	4873
2026-01-10 01:00:47.42	176.55	13.74	-40.1	-42.7	20.5	6.05e-01	0	56	0	840957952	51	4946
2026-01-10 01:00:48.43	176.62	13.63	-40.1	-42.7	20.4	6.03e-01	0	56	0	843055104	51	4959
2026-01-10 01:00:49.44	176.68	13.52	-39.9	-42.5	20.6	6.04e-01	0	56	0	845152256	51	4839
2026-01-10 01:00:50.44	176.75	13.42	-39.9	-42.4	20.6	6.02e-01	0	56	0	846725120	51	4800
2026-01-10 01:00:51.45	176.82	13.31	-39.9	-42.5	20.6	6.03e-01	0	56	0	848822272	51	4825
2026-01-10 01:00:52.45	176.88	13.21	-39.9	-42.4	20.7	6.05e-01	0	56	0	850919424	51	4772
2026-01-10 01:00:53.46	176.95	13.10	-40.0	-42.6	20.4	6.02e-01	0	56	0	852492288	51	4905
2026-01-10 01:00:54.47	177.01	13.00	-39.9	-42.4	20.6	6.03e-01	0	56	0	854589440	51	4798
2026-01-10 01:00:55.48	177.08	12.89	-40.0	-42.6	20.4	6.03e-01	0	56	0	856162304	51	4910
2026-01-10 01:00:56.49	177.14	12.79	-40.0	-42.6	20.4	6.03e-01	0	56	0	858259456	51	4879
2026-01-10 01:00:57.50	177.20	12.69	-40.0	-42.6	20.4	6.03e-01	0	56	0	860356608	51	4881
2026-01-10 01:00:58.51	177.27	12.58	-40.0	-42.6	20.4	6.04e-01	0	56	0	861929472	51	4906
2026-01-10 01:00:59.52	177.33	12.48	-40.1	-42.7	20.3	6.02e-01	0	56	0	864026624	51	4952
2026-01-10 01:01:00.53	177.39	12.38	-40.0	-42.6	20.4	6.03e-01	0	56	0	865599488	51	4917
2026-01-10 01:01:01.54	177.45	12.28	-40.0	-42.7	20.3	6.03e-01	0	56	0	867696640	51	4937
2026-01-10 01:01:02.54	177.52	12.18	-40.1	-42.7	20.3	6.01e-01	0	56	0	869793792	51	4969
2026-01-10 01:01:03.54	177.58	12.08	-40.1	-42.8	20.2	6.04e-01	0	56	0	871366656	51	5024
2026-01-10 01:01:04.54	177.64	11.98	-40.1	-42.7	20.3	6.05e-01	0	56	0	873463808	51	4974
2026-01-10 01:01:05.55	177.70	11.88	-40.1	-42.8	20.2	6.02e-01	0	56	0	875036672	51	4985
2026-01-10 01:01:06.55	177.76	11.78	-40.0	-42.7	20.3	6.04e-01	0	56	0	877133824	51	4945
2026-01-10 01:01:07.56	177.81	11.68	-40.1	-42.8	20.3	6.01e-01	0	56	0	879230976	51	4993
2026-01-10 01:01:08.57	177.87	11.58	-40.2	-42.9	20.1	6.02e-01	0	56	0	880803840	51	5053
2026-01-10 01:01:09.57	177.93	11.49	-40.1	-42.8	20.1	6.02e-01	0	56	0	882900992	51	5015
2026-01-10 01:01:10.58	177.99	11.39	-40.1	-42.8	20.1	6.01e-01	0	56	0	884473856	51	5024
2026-01-10 01:01:11.59	178.05	11.29	-40.2	-43.0	20.0	6.02e-01	0	56	0	886571008	51	5116
2026-01-10 01:01:12.60	178.10	11.19	-40.1	-42.8	20.1	6.04e-01	0	56	0	888668160	51	5008
2026-01-10 01:01:13.60	178.16	11.10	-40.2	-42.9	20.0	6.01e-01	0	56	0	890241024	51	5100
2026-01-10 01:01:14.61	178.22	11.00	-40.2	-43.0	19.9	6.01e-01	0	56	0	892338176	51	5123
2026-01-10 01:01:15.62	178.27	10.91	-40.2	-43.0	19.9	6.04e-01	0	56	0	893911040	51	5124
2026-01-10 01:01:16.63	178.33	10.81	-40.3	-43.1	19.8	6.04e-01	0	56	0	896008192	51	5213
2026-01-10 01:01:17.64	178.39	10.72	-40.3	-43.0	19.9	6.03e-01	0	56	0	898105344	51	5139
2026-01-10 01:01:18.65	178.44	10.62	-40.3	-43.2	19.8	6.01e-01	0	56	0	899678208	51	5228
2026-01-10 01:01:19.66	178.50	10.53	-40.4	-43.2	19.7	6.02e-01	0	56	0	901775360	51	5275
2026-01-10 01:01:20.66	178.55	10.44	-40.3	-43.0	19.8	6.05e-01	0	56	0	903348224	51	5155
2026-01-10 01:01:21.67	178.60	10.34	-40.3	-43.2	19.7	5.99e-01	0	56	0	905445376	51	5228
2026-01-10 01:01:22.68	178.66	10.25	-40.4	-43.3	19.6	6.02e-01	0	56	0	907542528	51	5306
2026-01-10 01:01:23.69	178.71	10.16	-40.4	-43.4	19.5	6.01e-01	0	56	0	909115392	51	5348
2026-01-10 01:01:24.70	178.76	10.07	-40.4	-43.2	19.6	6.02e-01	0	56	0	911212544	51	5261
2026-01-10 01:01:25.71	178.82	9.97	-40.4	-43.2	19.6	6.04e-01	0	56	0	912785408	51	5267
2026-01-10 01:01:26.71	178.87	9.88	-40.4	-43.3	19.6	6.02e-01	0	56	0	914882560	51	5295
2026-01-10 01:01:27.72	178.92	9.79	-40.1	-42.9	19.9	6.02e-01	0	56	0	916979712	51	5069
2026-01-10 01:01:28.73	178.97	9.70	-40.2	-43.0	19.8	6.04e-01	0	56	0	918552576	51	5153
2026-01-10 01:01:29.74	179.02	9.61	-40.3	-43.1	19.8	6.04e-01	0	56	0	920649728	51	5172
2026-01-10 01:01:30.75	179.07	9.52	-40.4	-43.3	19.4	6.04e-01	0	56	0	922222592	51	5336
2026-01-10 01:01:31.75	179.12	9.43	-40.4	-43.3	19.5	6.02e-01	0	56	0	924319744	51	5293
2026-01-10 01:01:32.76	179.18	9.34	-40.4	-43.3	19.5	6.03e-01	0	56	0	926416896	51	5284
2026-01-10 01:01:33.76	179.22	9.25	-40.4	-43.3	19.5	6.06e-01	0	56	0	927989760	51	5305
2026-01-10 01:01:34.77	179.27	9.17	-40.4	-43.3	19.4	6.04e-01	0	56	0	930086912	51	5334
2026-01-10 01:01:35.78	179.32	9.08	-40.5	-43.4	19.3	6.02e-01	0	56	0	932184064	51	5394
2026-01-10 01:01:36.79	179.37	8.99	-40.5	-43.5	19.3	6.05e-01	0	56	0	933756928	51	5438
2026-01-10 01:01:37.80	179.42	8.90	-40.6	-43.6	19.1	6.04e-01	0	56	0	935854080	51	5499
2026-01-10 01:01:38.81	179.47	8.81	-40.6	-43.6	19.1	6.03e-01	0	56	0	937426944	51	5508
2026-01-10 01:01:39.81	179.52	8.73	-40.6	-43.7	19.0	6.04e-01	0	56	0	939524096	52	5237
2026-01-10 01:01:40.82	179.57	8.64	-40.5	-43.5	19.1	6.02e-01	0	56	0	941096960	52	5142
2026-01-10 01:01:41.83	179.61	8.56	-40.6	-43.7	19.0	6.03e-01	0	56	0	943194112	52	5230
2026-01-10 01:01:42.84	179.66	8.47	-40.6	-43.8	18.8	6.02e-01	0	56	0	945291264	52	5299
2026-01-10 01:01:43.84	179.71	8.38	-40.5	-43.6	19.0	6.03e-01	0	56	0	946864128	52	5165
2026-01-10 01:01:44.85	179.76	8.30	-40.5	-43.6	19.0	6.04e-01	0	56	0	948961280	52	5187
2026-01-10 01:01:45.86	179.80	8.21	-40.6	-43.7	18.8	6.02e-01	0	56	0	950534144	52	5260
2026-01-10 01:01:46.87	179.85	8.13	-40.6	-43.7	18.8	6.04e-01	0	56	0	952631296	52	5265
2026-01-10 01:01:47.88	179.89	8.04	-40.6	-43.7	18.8	6.01e-01	0	56	0	954728448	52	5271
2026-01-10 01:01:48.88	179.94	7.96	-44.7	-56.0	7.0	6.64e-01	92	56	0	956301312	59	14496
2026-01-10 01:01:49.90	179.99	7.88	-45.1	-63.9	3.8	7.49e-01	0	56	104	956825600	60	33890
2026-01-10 01:01:50.90	180.03	7.79	-45.3	-64.2	3.8	7.45e-01	0	56	104	956825600	61	33114
2026-01-10 01:01:51.91	180.08	7.71	-45.5	-64.3	3.8	7.49e-01	0	56	104	956825600	61	33678
2026-01-10 01:01:52.92	180.12	7.63	-45.6	-64.5	3.8	7.45e-01	0	56	104	956825600	61	34287
2026-01-10 01:01:53.93	180.16	7.54	-45.7	-64.7	3.8	7.46e-01	0	56	104	956825600	62	33079
2026-01-10 01:01:54.94	180.21	7.46	-45.8	-64.7	3.8	7.45e-01	0	56	104	956825600	62	33245
2026-01-10 01:01:55.95	180.25	7.38	-45.9	-64.8	3.8	7.47e-01	0	56	104	956825600	62	33489
2026-01-10 01:01:56.96	180.30	7.30	-45.9	-64.8	3.8	7.45e-01	0	56	104	956825600	62	33663
2026-01-10 01:01:57.97	180.34	7.22	-45.9	-64.9	3.8	7.45e-01	0	56	104	956825600	62	33696
2026-01-10 01:01:58.97	180.38	7.14	-45.9	-64.8	3.8	7.45e-01	0	56	104	956825600	62	33629
2026-01-10 01:01:59.98	180.43	7.05	-45.9	-64.8	3.8	7.42e-01	0	56	104	956825600	62	33591
2026-01-10 01:02:00.99	180.47	6.97	-45.9	-64.8	3.8	7.45e-01	0	56	104	956825600	62	33492
2026-01-10 01:02:02.00	180.51	6.89	-45.9	-64.8	3.8	7.45e-01	0	56	104	956825600	62	33415
2026-01-10 01:02:03.01	180.55	6.81	-45.9	-64.8	3.8	7.43e-01	0	56	104	956825600	62	33382
2026-01-10 01:02:04.02	180.60	6.73	-45.8	-64.7	3.8	7.45e-01	0	56	104	956825600	62	33300
2026-01-10 01:02:05.03	180.64	6.65	-45.8	-64.7	3.8	7.45e-01	0	56	104	956825600	62	33229
2026-01-10 01:02:06.04	180.68	6.57	-45.8	-64.7	3.8	7.45e-01	0	56	104	956825600	62	33140
2026-01-10 01:02:07.05	180.72	6.49	-45.8	-64.7	3.8	7.46e-01	0	56	104	956825600	62	33177
2026-01-10 01:02:08.06	180.76	6.42	-45.8	-64.7	3.8	7.47e-01	0	56	104	956825600	62	33100
2026-01-10 01:02:09.07	180.80	6.34	-45.8	-64.7	3.8	7.46e-01	0	56	104	956825600	62	33133
2026-01-10 01:02:10.07	180.84	6.26	-45.8	-64.7	3.8	7.46e-01	0	56	104	956825600	62	33119
2026-01-10 01:02:11.08	180.88	6.18	-45.8	-64.7	3.8	7.47e-01	0	56	104	956825600	62	33026
2026-01-10 01:02:12.09	180.92	6.10	-45.8	-64.7	3.8	7.44e-01	0	56	104	956825600	62	33085
2026-01-10 01:02:13.10	180.96	6.03	-45.8	-64.7	3.8	7.46e-01	0	56	104	956825600	62	33090
2026-01-10 01:02:14.11	181.00	5.95	-45.8	-64.7	3.8	7.47e-01	0	56	104	956825600	62	33052
2026-01-10 01:02:15.12	181.04	5.87	-45.8	-64.7	3.8	7.45e-01	0	56	104	956825600	62	33079
2026-01-10 01:02:16.13	181.08	5.79	-45.8	-64.7	3.8	7.45e-01	0	56	104	956825600	62	33028
2026-01-10 01:02:17.14	181.12	5.72	-45.8	-64.7	3.8	7.46e-01	0	56	104	956825600	62	33099
2026-01-10 01:02:18.14	181.16	5.64	-45.8	-64.7	3.8	7.49e-01	0	56	104	956825600	62	33085
2026-01-10 01:02:19.15	181.20	5.57	-45.8	-64.7	3.8	7.45e-01	0	56	104	956825600	62	33023
2026-01-10 01:02:20.16	181.24	5.49	-45.8	-64.7	3.8	7.40e-01	0	56	104	956825600	62	33042
2026-01-10 01:02:21.17	181.28	5.41	-45.8	-64.7	3.8	7.47e-01	0	56	104	956825600	62	32968
2026-01-10 01:02:22.18	181.31	5.34	-45.8	-64.7	3.8	7.47e-01	0	56	104	956825600	62	33027
2026-01-10 01:02:23.18	181.35	5.26	-45.8	-64.7	3.8	7.47e-01	0	56	104	956825600	62	33081
2026-01-10 01:02:24.20	181.39	5.19	-45.8	-64.7	3.8	7.46e-01	0	56	104	956825600	62	33005
2026-01-10 01:02:25.20	181.43	5.11	-45.8	-64.7	3.8	7.44e-01	0	56	104	956825600	62	32945
2026-01-10 01:02:26.21	181.46	5.04	-45.8	-64.7	3.8	7.46e-01	0	56	104	956825600	62	32955
2026-01-10 01:02:27.22	181.50	4.96	-45.8	-64.7	3.8	7.49e-01	0	56	104	956825600	62	32991
2026-01-10 01:02:28.23	181.54	4.89	-45.8	-64.7	3.8	7.47e-01	0	56	104	956825600	62	32979
2026-01-10 01:02:29.24	181.58	4.82	-45.7	-64.7	3.8	7.43e-01	0	56	104	956825600	62	33036
2026-01-10 01:02:30.25	181.61	4.74	-45.8	-64.7	3.8	7.45e-01	0	56	104	956825600	62	33025
2026-01-10 01:02:31.25	181.65	4.67	-45.7	-64.6	3.8	7.45e-01	0	56	104	956825600	62	32903
2026-01-10 01:02:32.25	181.68	4.60	-45.8	-64.7	3.8	7.41e-01	0	56	104	956825600	62	33053
2026-01-10 01:02:33.26	181.72	4.52	-45.7	-64.7	3.8	7.47e-01	0	56	104	956825600	62	32957
2026-01-10 01:02:34.26	181.76	4.45	-45.7	-64.7	3.8	7.46e-01	0	56	104	956825600	62	32934
2026-01-10 01:02:35.28	181.79	4.38	-45.8	-64.7	3.8	7.47e-01	0	56	104	956825600	62	32959
2026-01-10 01:02:36.28	181.83	4.31	-45.8	-64.7	3.8	7.43e-01	0	56	104	956825600	62	32957
2026-01-10 01:02:37.29	181.86	4.24	-45.7	-64.7	3.8	7.49e-01	0	56	104	956825600	62	32975
2026-01-10 01:02:38.30	181.90	4.16	-45.8	-64.7	3.8	7.46e-01	0	56	104	956825600	62	32962
2026-01-10 01:02:39.31	181.93	4.09	-45.7	-64.6	3.8	7.47e-01	0	56	104	956825600	62	32916
2026-01-10 01:02:40.32	181.97	4.02	-45.8	-64.7	3.8	7.49e-01	0	56	104	956825600	62	32991
2026-01-10 01:02:41.33	182.00	3.95	-45.8	-64.7	3.8	7.44e-01	0	56	104	956825600	62	32966
2026-01-10 01:02:42.34	182.04	3.88	-45.7	-64.7	3.8	7.45e-01	0	56	104	956825600	62	32985
2026-01-10 01:02:43.35	182.07	3.81	-45.7	-64.6	3.8	7.46e-01	0	56	104	956825600	62	32872
2026-01-10 01:02:44.36	182.10	3.74	-45.7	-64.7	3.8	7.45e-01	0	56	104	956825600	62	32981
2026-01-10 01:02:45.37	182.14	3.66	-45.7	-64.6	3.8	7.44e-01	0	56	104	956825600	62	32854
2026-01-10 01:02:46.37	182.17	3.60	-45.7	-64.6	3.8	7.45e-01	0	56	104	956825600	62	32920
2026-01-10 01:02:47.38	182.21	3.52	-45.7	-64.7	3.8	7.46e-01	0	56	104	956825600	62	32948
2026-01-10 01:02:48.39	182.24	3.45	-45.7	-64.6	3.8	7.46e-01	0	56	104	956825600	62	32861
2026-01-10 01:02:49.40	182.27	3.39	-45.7	-64.6	3.8	7.45e-01	0	57	104	956825600	62	32885
2026-01-10 01:02:50.41	182.31	3.32	-45.7	-64.6	3.8	7.48e-01	0	56	104	956825600	62	32869
2026-01-10 01:02:51.42	182.34	3.25	-45.7	-64.7	3.8	7.50e-01	0	56	104	956825600	62	32945
2026-01-10 01:02:52.43	182.37	3.18	-45.7	-64.6	3.8	7.44e-01	0	56	104	956825600	62	32851
2026-01-10 01:02:53.44	182.40	3.11	-45.7	-64.6	3.8	7.41e-01	0	56	104	956825600	62	32884
2026-01-10 01:02:54.45	182.44	3.04	-45.7	-64.6	3.8	7.47e-01	0	56	104	956825600	62	32852
2026-01-10 01:02:55.46	182.47	2.97	-45.7	-64.6	3.8	7.46e-01	0	56	104	956825600	62	32863
2026-01-10 01:02:56.47	182.50	2.90	-45.7	-64.6	3.8	7.44e-01	0	57	104	956825600	62	32884
2026-01-10 01:02:57.48	182.53	2.83	-45.7	-64.6	3.8	7.45e-01	0	56	104	956825600	62	32883
2026-01-10 01:02:58.49	182.57	2.77	-45.7	-64.6	3.8	7.44e-01	0	56	104	956825600	62	32831
2026-01-10 01:02:59.50	182.60	2.70	-45.7	-64.6	3.8	7.46e-01	0	56	104	956825600	62	32832
2026-01-10 01:03:00.51	182.63	2.63	-45.7	-64.6	3.8	7.44e-01	0	56	104	956825600	62	32838
2026-01-10 01:03:01.52	182.66	2.56	-45.7	-64.6	3.8	7.45e-01	0	57	104	956825600	62	32839
2026-01-10 01:03:02.53	182.69	2.49	-45.7	-64.6	3.8	7.42e-01	0	56	104	956825600	62	32882
2026-01-10 01:03:03.54	182.72	2.43	-45.7	-64.6	3.8	7.45e-01	0	56	104	956825600	62	32851
2026-01-10 01:03:04.54	182.75	2.36	-45.7	-64.6	3.8	7.45e-01	0	56	104	956825600	62	32885
2026-01-10 01:03:05.55	182.78	2.29	-45.7	-64.6	3.8	7.45e-01	0	57	104	956825600	62	32865
2026-01-10 01:03:06.56	182.82	2.23	-45.7	-64.6	3.8	7.45e-01	0	56	104	956825600	62	32906
2026-01-10 01:03:07.56	182.85	2.16	-45.7	-64.6	3.8	7.44e-01	0	56	104	956825600	62	32819
2026-01-10 01:03:08.57	182.88	2.09	-45.7	-64.6	3.8	7.45e-01	0	56	104	956825600	62	32841
2026-01-10 01:03:09.58	182.91	2.03	-45.7	-64.6	3.8	7.45e-01	0	56	104	956825600	62	32888
2026-01-10 01:03:10.59	182.94	1.96	-45.7	-64.6	3.8	7.44e-01	0	56	104	956825600	62	32874
2026-01-10 01:03:11.60	182.97	1.90	-45.7	-64.6	3.8	7.40e-01	0	56	104	956825600	62	32847
2026-01-10 01:03:12.62	183.00	1.83	-45.7	-64.6	3.8	7.46e-01	0	56	104	956825600	62	32869

#Closed at: 2026-01-10 01:03:12
#Recorded file [956 MB]: D:/lorett/data/31039_260110_035240.dat