passes_logs/2026/01/10/R2.0S_Moscow/R2.0S_Moscow__20260110_134043_FENGYUN_3D_rec.log

#Pass ID: 20260110_134043_FENGYUN 3D
#Satellite: FENGYUN 3D
#Configuration: FENGYUN 3D
#almurnet v.1.7.20251203
#Start time: 2026-01-10 13:40:45

#Version: 2.2.20231116
#Station: R2.0S_Moscow
#Location: 37.707566 lon 55.798166 lat
#TLE: 1 43010U 17072A   26009.85873963 -.00000290  00000+0 -11536-3 0  9992
#TLE: 2 43010  98.9936 341.5952 0002172 116.8419 243.2979 14.19692971422525

#Time	Az	El	Level	Level2	SNR	BER	BlckErr	Temp	State	Recorded	gain1	gain2
2026-01-10 13:40:45.83	213.39	2.11	-43.8	-55.4	3.8	8.46e-01	0	46	0	0	59	13537
2026-01-10 13:40:46.84	213.47	2.16	-43.8	-55.5	3.8	8.46e-01	0	46	104	0	59	13572
2026-01-10 13:40:47.85	213.55	2.22	-43.8	-55.4	3.8	8.46e-01	0	46	104	0	59	13553
2026-01-10 13:40:48.86	213.63	2.27	-43.8	-55.4	3.8	8.46e-01	0	47	104	0	59	13544
2026-01-10 13:40:49.87	213.71	2.32	-43.8	-55.4	3.8	8.45e-01	0	47	104	0	59	13533
2026-01-10 13:40:50.88	213.79	2.38	-43.8	-55.4	3.8	8.46e-01	0	47	104	0	59	13520
2026-01-10 13:40:51.89	213.88	2.43	-43.8	-55.4	3.8	8.45e-01	0	47	104	0	59	13528
2026-01-10 13:40:52.90	213.96	2.48	-43.8	-55.4	3.8	8.45e-01	0	47	104	0	59	13509
2026-01-10 13:40:53.92	214.04	2.54	-43.8	-55.4	3.8	8.48e-01	0	47	104	0	59	13509
2026-01-10 13:40:54.93	214.13	2.59	-43.8	-55.4	3.8	8.46e-01	0	47	104	0	59	13509
2026-01-10 13:40:55.94	214.21	2.65	-43.8	-55.4	3.8	8.45e-01	0	47	104	0	59	13477
2026-01-10 13:40:56.95	214.30	2.70	-43.8	-55.4	3.8	8.47e-01	0	47	104	0	59	13514
2026-01-10 13:40:57.96	214.38	2.75	-43.8	-55.4	3.8	8.46e-01	0	47	104	0	59	13523
2026-01-10 13:40:58.97	214.47	2.81	-43.8	-55.4	3.8	8.45e-01	0	48	104	0	59	13513
2026-01-10 13:40:59.98	214.55	2.86	-43.8	-55.4	3.8	8.47e-01	0	48	104	0	59	13508
2026-01-10 13:41:00.99	214.64	2.91	-43.8	-55.4	3.8	8.47e-01	0	48	104	0	59	13568
2026-01-10 13:41:02.01	214.72	2.97	-43.8	-55.4	3.8	8.45e-01	0	48	104	0	59	13503
2026-01-10 13:41:03.02	214.81	3.02	-43.8	-55.4	3.8	8.46e-01	0	48	104	0	59	13501
2026-01-10 13:41:04.03	214.89	3.08	-43.8	-55.4	3.8	8.46e-01	0	48	104	0	59	13517
2026-01-10 13:41:05.04	214.98	3.13	-43.8	-55.4	3.8	8.46e-01	0	48	104	0	59	13528
2026-01-10 13:41:06.05	215.07	3.19	-43.8	-55.4	3.8	8.47e-01	0	48	104	0	59	13535
2026-01-10 13:41:07.06	215.15	3.24	-43.8	-55.4	3.8	8.46e-01	0	48	104	0	59	13519
2026-01-10 13:41:08.07	215.24	3.29	-43.8	-55.4	3.8	8.46e-01	0	48	104	0	59	13533
2026-01-10 13:41:09.08	215.33	3.35	-43.8	-55.4	3.8	8.46e-01	0	48	104	0	59	13533
2026-01-10 13:41:10.09	215.42	3.40	-43.8	-55.4	3.8	8.46e-01	0	48	104	0	59	13530
2026-01-10 13:41:11.10	215.51	3.46	-43.8	-55.4	3.8	8.45e-01	0	48	104	0	59	13487
2026-01-10 13:41:12.12	215.60	3.51	-43.8	-55.4	3.8	8.45e-01	0	48	104	0	59	13500
2026-01-10 13:41:13.13	215.68	3.57	-43.8	-55.4	3.8	8.46e-01	0	48	104	0	59	13518
2026-01-10 13:41:14.14	215.77	3.62	-43.8	-55.4	3.8	8.47e-01	0	48	104	0	59	13526
2026-01-10 13:41:15.15	215.86	3.68	-43.8	-55.4	3.8	8.45e-01	0	48	104	0	59	13510
2026-01-10 13:41:16.16	215.95	3.73	-43.8	-55.4	3.8	8.47e-01	0	49	104	0	59	13494
2026-01-10 13:41:17.17	216.04	3.79	-43.8	-55.4	3.8	8.46e-01	0	48	104	0	59	13498
2026-01-10 13:41:18.18	216.13	3.84	-43.8	-55.4	3.8	8.45e-01	0	49	104	0	59	13498
2026-01-10 13:41:19.19	216.23	3.90	-43.8	-55.4	3.8	8.45e-01	0	49	104	0	59	13483
2026-01-10 13:41:20.20	216.32	3.95	-43.8	-55.4	3.8	8.46e-01	0	49	104	0	59	13513
2026-01-10 13:41:21.22	216.41	4.01	-43.8	-55.4	3.8	8.46e-01	0	49	104	0	59	13470
2026-01-10 13:41:22.23	216.50	4.06	-43.8	-55.4	3.8	8.46e-01	0	49	104	0	59	13480
2026-01-10 13:41:23.23	216.59	4.12	-43.8	-55.4	3.8	8.46e-01	0	49	104	0	59	13512
2026-01-10 13:41:24.25	216.69	4.17	-43.8	-55.4	3.8	8.46e-01	0	49	104	0	59	13530
2026-01-10 13:41:25.25	216.78	4.23	-43.8	-55.4	3.8	8.46e-01	0	49	104	0	59	13464
2026-01-10 13:41:26.26	216.87	4.28	-43.8	-55.4	3.8	8.47e-01	0	49	104	0	59	13461
2026-01-10 13:41:27.27	216.97	4.34	-43.8	-55.4	3.8	8.46e-01	0	49	104	0	59	13454
2026-01-10 13:41:28.28	217.06	4.39	-43.8	-55.4	3.8	8.45e-01	0	49	104	0	59	13507
2026-01-10 13:41:29.29	217.15	4.45	-43.8	-55.4	3.8	8.46e-01	0	49	104	0	59	13483
2026-01-10 13:41:30.30	217.25	4.50	-43.8	-55.4	3.8	8.46e-01	0	49	104	0	59	13472
2026-01-10 13:41:31.32	217.34	4.56	-43.8	-55.4	3.8	8.46e-01	0	49	104	0	59	13498
2026-01-10 13:41:32.33	217.44	4.61	-43.8	-55.4	3.8	8.47e-01	0	49	104	0	59	13436
2026-01-10 13:41:33.34	217.54	4.67	-43.8	-55.4	3.8	8.47e-01	0	50	104	0	59	13469
2026-01-10 13:41:34.35	217.63	4.72	-43.8	-55.4	3.8	8.46e-01	0	50	104	0	59	13421
2026-01-10 13:41:35.36	217.73	4.78	-43.8	-55.4	3.8	8.47e-01	0	50	104	0	59	13542
2026-01-10 13:41:36.37	217.82	4.84	-43.8	-55.4	3.8	8.46e-01	0	50	104	0	59	13481
2026-01-10 13:41:37.38	217.92	4.89	-43.8	-55.3	3.8	8.46e-01	0	50	104	0	59	13414
2026-01-10 13:41:38.39	218.02	4.95	-43.8	-55.4	3.8	8.46e-01	0	50	104	0	59	13457
2026-01-10 13:41:39.41	218.12	5.00	-43.8	-55.4	3.8	8.45e-01	0	50	104	0	59	13506
2026-01-10 13:41:40.42	218.22	5.06	-43.8	-55.4	3.8	8.46e-01	0	50	104	0	59	13534
2026-01-10 13:41:41.43	218.31	5.12	-43.8	-55.4	3.8	8.45e-01	0	50	104	0	59	13485
2026-01-10 13:41:42.44	218.41	5.17	-43.8	-55.4	3.8	8.47e-01	0	50	104	0	59	13460
2026-01-10 13:41:43.45	218.51	5.23	-43.8	-55.4	3.8	8.47e-01	0	50	104	0	59	13471
2026-01-10 13:41:44.46	218.61	5.28	-43.8	-55.3	3.8	8.45e-01	0	50	104	0	59	13403
2026-01-10 13:41:45.47	218.71	5.34	-43.8	-55.3	3.8	8.46e-01	0	50	104	0	59	13394
2026-01-10 13:41:46.48	218.81	5.40	-43.8	-55.4	3.8	8.45e-01	0	50	104	0	59	13455
2026-01-10 13:41:47.49	218.91	5.45	-43.8	-55.4	3.8	8.44e-01	0	50	104	0	59	13461
2026-01-10 13:41:48.51	219.02	5.51	-43.8	-55.3	3.8	8.45e-01	0	50	104	0	59	13396
2026-01-10 13:41:49.52	219.12	5.57	-43.8	-55.4	3.8	8.45e-01	0	50	104	0	59	13440
2026-01-10 13:41:50.53	219.22	5.62	-43.8	-55.4	3.8	8.45e-01	0	50	104	0	59	13454
2026-01-10 13:41:51.54	219.32	5.68	-43.8	-55.4	3.8	8.46e-01	0	50	104	0	59	13446
2026-01-10 13:41:52.55	219.42	5.74	-43.8	-55.4	3.8	8.46e-01	0	51	104	0	59	13477
2026-01-10 13:41:53.56	219.53	5.79	-43.8	-55.4	3.8	8.47e-01	0	51	104	0	59	13490
2026-01-10 13:41:54.57	219.63	5.85	-43.8	-55.4	3.8	8.46e-01	0	50	104	0	59	13524
2026-01-10 13:41:55.58	219.73	5.91	-43.8	-55.4	3.8	8.47e-01	0	51	104	0	59	13498
2026-01-10 13:41:56.59	219.84	5.96	-43.8	-55.4	3.8	8.46e-01	0	51	104	0	59	13492
2026-01-10 13:41:57.60	219.94	6.02	-43.8	-55.3	3.8	8.47e-01	0	51	104	0	59	13262
2026-01-10 13:41:58.62	220.05	6.08	-43.8	-55.2	3.8	8.47e-01	0	51	104	0	59	13168
2026-01-10 13:41:59.63	220.16	6.13	-43.7	-54.8	3.8	8.46e-01	0	51	104	0	59	12651
2026-01-10 13:42:00.64	220.26	6.19	-43.7	-54.4	3.8	8.47e-01	0	51	104	0	59	12073
2026-01-10 13:42:01.65	220.37	6.25	-43.7	-54.1	3.8	8.46e-01	0	51	104	0	59	11607
2026-01-10 13:42:02.66	220.47	6.30	-43.6	-53.5	3.8	8.45e-01	0	51	104	0	59	10869
2026-01-10 13:42:03.67	220.58	6.36	-43.5	-52.7	3.9	8.43e-01	0	51	104	0	59	9912
2026-01-10 13:42:04.68	220.69	6.42	-43.4	-52.2	4.1	8.43e-01	0	51	104	0	58	9936
2026-01-10 13:42:05.69	220.80	6.48	-43.3	-51.6	4.2	8.38e-01	0	51	0	0	58	9234
2026-01-10 13:42:06.70	220.90	6.53	-43.2	-51.1	4.4	8.31e-01	0	51	0	0	58	8738
2026-01-10 13:42:07.72	221.01	6.59	-43.2	-51.0	4.4	8.26e-01	0	51	0	0	58	8657
2026-01-10 13:42:08.73	221.12	6.65	-43.2	-51.0	4.5	8.22e-01	0	51	0	0	58	8622
2026-01-10 13:42:09.74	221.23	6.70	-43.1	-50.5	4.7	8.16e-01	0	51	0	0	58	8163
2026-01-10 13:42:10.75	221.34	6.76	-43.1	-50.4	4.7	8.07e-01	0	51	0	0	58	8026
2026-01-10 13:42:11.76	221.45	6.82	-43.0	-50.2	4.8	7.89e-01	0	51	0	0	58	7816
2026-01-10 13:42:12.77	221.56	6.88	-43.0	-49.9	5.0	7.77e-01	0	51	0	0	58	7566
2026-01-10 13:42:13.78	221.67	6.93	-42.9	-49.4	5.2	7.59e-01	0	52	0	0	57	7603
2026-01-10 13:42:14.79	221.79	6.99	-42.9	-49.6	5.2	7.53e-01	0	51	0	0	57	7724
2026-01-10 13:42:15.80	221.90	7.05	-42.8	-49.0	5.5	7.22e-01	0	51	0	0	57	7273
2026-01-10 13:42:16.81	222.01	7.11	-42.5	-48.3	6.1	3.87e-01	0	51	0	3145728	57	6665
2026-01-10 13:42:17.82	222.12	7.16	-42.3	-47.5	6.7	2.44e-01	0	52	0	9437184	56	6464
2026-01-10 13:42:18.84	222.24	7.22	-42.1	-46.9	7.2	1.65e-01	0	52	0	14680064	56	6053
2026-01-10 13:42:19.85	222.35	7.28	-41.5	-45.8	8.1	9.41e-02	0	52	0	20971520	55	5631
2026-01-10 13:42:20.86	222.47	7.34	-41.0	-44.7	9.2	2.84e-02	0	52	0	26214400	54	5267
2026-01-10 13:42:21.87	222.58	7.39	-40.5	-43.8	10.2	1.16e-02	0	52	0	31457280	53	5014
2026-01-10 13:42:22.88	222.70	7.45	-40.0	-42.9	11.3	2.18e-03	0	52	0	37748736	51	5057
2026-01-10 13:42:23.89	222.81	7.51	-39.3	-41.8	12.4	3.68e-04	0	52	0	42991616	50	4750
2026-01-10 13:42:24.90	222.93	7.57	-38.8	-41.1	13.1	9.49e-05	0	52	0	49283072	49	4635
2026-01-10 13:42:25.92	223.04	7.63	-38.6	-40.9	13.4	4.00e-05	0	52	0	54525952	49	4499
2026-01-10 13:42:26.93	223.16	7.68	-38.0	-40.0	14.3	3.40e-06	0	52	0	60817408	48	4294
2026-01-10 13:42:27.94	223.28	7.74	-37.9	-39.9	14.3	2.20e-06	0	52	0	66060288	47	4504
2026-01-10 13:42:28.95	223.40	7.80	-37.7	-39.6	14.6	0.00e+00	0	52	0	71303168	47	4369
2026-01-10 13:42:29.96	223.51	7.86	-37.8	-39.8	14.4	1.10e-06	0	52	0	77594624	47	4464
2026-01-10 13:42:30.97	223.63	7.92	-37.9	-39.9	14.3	4.50e-06	0	52	0	82837504	47	4512
2026-01-10 13:42:31.98	223.75	7.97	-38.4	-40.6	13.6	8.00e-06	0	52	0	89128960	47	4894
2026-01-10 13:42:32.99	223.87	8.03	-39.0	-41.3	12.9	3.54e-05	0	52	0	94371840	48	5028
2026-01-10 13:42:34.00	223.99	8.09	-44.2	-54.3	3.9	8.44e-01	0	52	104	96468992	58	12574
2026-01-10 13:42:35.01	224.11	8.15	-37.8	-39.8	14.4	3.23e-01	0	52	0	97517568	47	4474
2026-01-10 13:42:36.02	224.23	8.21	-43.6	-53.2	3.8	5.67e-01	0	52	104	102760448	57	11795
2026-01-10 13:42:37.03	224.35	8.26	-42.1	-47.7	6.4	1.17e-01	0	52	0	104857600	55	6973
2026-01-10 13:42:38.04	224.48	8.32	-41.8	-46.1	8.1	1.88e-02	0	52	0	110100480	54	6182
2026-01-10 13:42:39.04	224.60	8.38	-38.1	-40.1	14.3	1.25e-05	0	52	0	116391936	48	4375
2026-01-10 13:42:40.05	224.72	8.44	-38.0	-39.9	14.5	3.40e-06	0	52	0	121634816	48	4269
2026-01-10 13:42:41.06	224.84	8.50	-37.8	-39.8	14.5	0.00e+00	0	52	0	127926272	47	4453
2026-01-10 13:42:42.07	224.97	8.55	-37.9	-39.8	14.5	1.10e-06	0	53	0	133169152	47	4484
2026-01-10 13:42:43.08	225.09	8.61	-37.8	-39.7	14.6	0.00e+00	0	52	0	139460608	47	4400
2026-01-10 13:42:44.09	225.22	8.67	-37.8	-39.7	14.6	0.00e+00	0	52	0	144703488	47	4411
2026-01-10 13:42:45.10	225.34	8.73	-37.7	-39.6	14.7	0.00e+00	0	52	0	149946368	47	4369
2026-01-10 13:42:46.11	225.47	8.79	-37.7	-39.6	14.7	1.10e-06	0	53	0	156237824	47	4365
2026-01-10 13:42:47.12	225.59	8.85	-37.6	-39.5	14.9	0.00e+00	0	53	0	161480704	47	4301
2026-01-10 13:42:48.14	225.72	8.91	-37.5	-39.3	15.0	0.00e+00	0	53	0	167772160	47	4230
2026-01-10 13:42:49.14	225.85	8.96	-37.4	-39.2	15.1	0.00e+00	0	53	0	173015040	46	4422
2026-01-10 13:42:50.15	225.98	9.02	-37.2	-38.9	15.5	0.00e+00	0	53	0	178257920	46	4261
2026-01-10 13:42:51.16	226.10	9.08	-37.3	-39.0	15.4	0.00e+00	0	53	0	184549376	46	4328
2026-01-10 13:42:52.17	226.23	9.14	-37.2	-38.9	15.5	0.00e+00	0	53	0	189792256	46	4272
2026-01-10 13:42:53.18	226.36	9.20	-37.2	-38.9	15.5	0.00e+00	0	53	0	196083712	46	4263
2026-01-10 13:42:54.19	226.49	9.26	-37.1	-38.8	15.6	0.00e+00	0	53	0	201326592	46	4232
2026-01-10 13:42:55.20	226.62	9.31	-37.2	-38.9	15.5	0.00e+00	0	53	0	207618048	46	4275
2026-01-10 13:42:56.21	226.75	9.37	-37.2	-38.9	15.5	0.00e+00	0	53	0	212860928	46	4270
2026-01-10 13:42:57.22	226.88	9.43	-37.2	-38.9	15.5	0.00e+00	0	53	0	218103808	46	4269
2026-01-10 13:42:58.23	227.01	9.49	-37.2	-39.0	15.5	0.00e+00	0	53	0	224395264	46	4301
2026-01-10 13:42:59.24	227.15	9.55	-37.3	-39.1	15.3	0.00e+00	0	53	0	229638144	46	4379
2026-01-10 13:43:00.25	227.28	9.61	-37.4	-39.2	15.3	0.00e+00	0	53	0	235929600	46	4407
2026-01-10 13:43:01.26	227.41	9.66	-37.6	-39.5	15.0	0.00e+00	0	53	0	241172480	46	4562
2026-01-10 13:43:02.27	227.55	9.72	-37.5	-39.3	15.2	0.00e+00	0	53	0	246415360	46	4464
2026-01-10 13:43:03.28	227.68	9.78	-37.6	-39.4	15.1	0.00e+00	0	53	0	252706816	46	4526
2026-01-10 13:43:04.29	227.82	9.84	-37.5	-39.3	15.2	1.10e-06	0	53	0	257949696	46	4482
2026-01-10 13:43:05.30	227.95	9.90	-37.4	-39.2	15.3	0.00e+00	0	53	0	264241152	46	4426
2026-01-10 13:43:06.31	228.09	9.96	-37.4	-39.2	15.3	0.00e+00	0	53	0	269484032	46	4397
2026-01-10 13:43:07.32	228.22	10.02	-37.4	-39.2	15.3	0.00e+00	0	53	0	274726912	46	4407
2026-01-10 13:43:08.33	228.36	10.07	-37.3	-39.1	15.4	0.00e+00	0	53	0	281018368	46	4356
2026-01-10 13:43:09.34	228.50	10.13	-37.3	-39.1	15.4	0.00e+00	0	53	0	286261248	46	4367
2026-01-10 13:43:10.35	228.64	10.19	-37.4	-39.3	15.3	0.00e+00	0	53	0	292552704	46	4443
2026-01-10 13:43:11.36	228.77	10.25	-37.4	-39.1	15.4	0.00e+00	0	53	0	297795584	46	4379
2026-01-10 13:43:12.37	228.91	10.31	-37.3	-39.1	15.4	0.00e+00	0	53	0	304087040	46	4358
2026-01-10 13:43:13.37	229.05	10.37	-37.3	-39.1	15.4	0.00e+00	0	53	0	309329920	46	4362
2026-01-10 13:43:14.38	229.19	10.42	-37.4	-39.1	15.4	0.00e+00	0	53	0	314572800	46	4374
2026-01-10 13:43:15.39	229.33	10.48	-37.2	-38.9	15.6	0.00e+00	0	53	0	320864256	46	4268
2026-01-10 13:43:16.40	229.47	10.54	-37.2	-39.0	15.6	0.00e+00	0	53	0	326107136	46	4301
2026-01-10 13:43:17.41	229.61	10.60	-37.3	-39.0	15.6	0.00e+00	0	53	0	332398592	46	4308
2026-01-10 13:43:18.42	229.76	10.66	-37.3	-39.0	15.5	0.00e+00	0	53	0	337641472	46	4315
2026-01-10 13:43:19.44	229.90	10.72	-37.2	-38.9	15.7	0.00e+00	0	53	0	343932928	46	4254
2026-01-10 13:43:20.44	230.04	10.77	-37.1	-38.7	15.9	0.00e+00	0	53	0	349175808	46	4179
2026-01-10 13:43:21.45	230.19	10.83	-37.1	-38.8	15.8	0.00e+00	0	53	0	354418688	46	4211
2026-01-10 13:43:22.46	230.33	10.89	-37.1	-38.7	15.8	0.00e+00	0	53	0	360710144	46	4180
2026-01-10 13:43:23.47	230.48	10.95	-37.0	-38.6	15.9	0.00e+00	0	53	0	365953024	46	4140
2026-01-10 13:43:24.48	230.62	11.01	-36.9	-38.5	16.0	0.00e+00	0	53	0	372244480	45	4326
2026-01-10 13:43:25.49	230.77	11.07	-37.0	-38.7	15.9	0.00e+00	0	53	0	377487360	45	4405
2026-01-10 13:43:26.50	230.92	11.12	-37.1	-38.7	15.8	0.00e+00	0	53	0	382730240	45	4437
2026-01-10 13:43:27.51	231.06	11.18	-36.8	-38.4	16.1	0.00e+00	0	53	0	389021696	45	4279
2026-01-10 13:43:28.52	231.21	11.24	-36.8	-38.4	16.2	0.00e+00	0	53	0	394264576	45	4269
2026-01-10 13:43:29.53	231.36	11.30	-36.7	-38.3	16.3	0.00e+00	0	54	0	400556032	45	4215
2026-01-10 13:43:30.54	231.51	11.36	-36.6	-38.2	16.4	0.00e+00	0	54	0	405798912	45	4153
2026-01-10 13:43:31.55	231.66	11.41	-36.6	-38.1	16.5	0.00e+00	0	54	0	411041792	45	4130
2026-01-10 13:43:32.56	231.81	11.47	-36.6	-38.1	16.5	0.00e+00	0	54	0	417333248	45	4140
2026-01-10 13:43:33.57	231.96	11.53	-36.7	-38.2	16.4	0.00e+00	0	54	0	422576128	45	4183
2026-01-10 13:43:34.58	232.11	11.59	-36.8	-38.4	16.2	0.00e+00	0	54	0	428867584	45	4264
2026-01-10 13:43:35.60	232.26	11.65	-36.9	-38.5	16.1	0.00e+00	0	54	0	434110464	45	4300
2026-01-10 13:43:36.60	232.41	11.70	-36.9	-38.5	16.1	0.00e+00	0	54	0	440401920	45	4330
2026-01-10 13:43:37.61	232.57	11.76	-36.9	-38.5	16.1	0.00e+00	0	54	0	445644800	45	4321
2026-01-10 13:43:38.62	232.72	11.82	-36.9	-38.5	16.1	0.00e+00	0	54	0	450887680	45	4315
2026-01-10 13:43:39.63	232.87	11.88	-36.9	-38.5	16.1	0.00e+00	0	54	0	457179136	45	4332
2026-01-10 13:43:40.64	233.03	11.93	-36.9	-38.4	16.2	0.00e+00	0	54	0	462422016	45	4290
2026-01-10 13:43:41.65	233.18	11.99	-36.9	-38.5	16.1	0.00e+00	0	54	0	468713472	45	4332
2026-01-10 13:43:42.66	233.34	12.05	-36.9	-38.5	16.2	0.00e+00	0	54	0	473956352	45	4296
2026-01-10 13:43:43.67	233.50	12.11	-37.0	-38.6	16.1	0.00e+00	0	54	0	479199232	45	4367
2026-01-10 13:43:44.68	233.65	12.16	-37.1	-38.7	16.0	0.00e+00	0	54	0	485490688	45	4419
2026-01-10 13:43:45.68	233.81	12.22	-37.1	-38.8	15.9	0.00e+00	0	54	0	490733568	45	4469
2026-01-10 13:43:46.70	233.97	12.28	-37.0	-38.7	16.0	0.00e+00	0	54	0	497025024	45	4412
2026-01-10 13:43:47.71	234.13	12.34	-37.1	-38.7	15.9	0.00e+00	0	54	0	502267904	45	4438
2026-01-10 13:43:48.72	234.29	12.39	-37.0	-38.6	16.1	0.00e+00	0	54	0	507510784	45	4377
2026-01-10 13:43:49.72	234.45	12.45	-37.0	-38.6	16.0	0.00e+00	0	54	0	513802240	45	4389
2026-01-10 13:43:50.73	234.61	12.51	-36.9	-38.6	16.1	0.00e+00	0	54	0	519045120	45	4348
2026-01-10 13:43:51.74	234.77	12.56	-37.0	-38.6	16.1	0.00e+00	0	54	0	525336576	45	4361
2026-01-10 13:43:52.75	234.93	12.62	-36.9	-38.5	16.2	0.00e+00	0	54	0	530579456	45	4335
2026-01-10 13:43:53.76	235.09	12.68	-36.9	-38.5	16.2	0.00e+00	0	54	0	536870912	45	4320
2026-01-10 13:43:54.77	235.26	12.73	-37.0	-38.6	16.1	0.00e+00	0	54	0	542113792	45	4363
2026-01-10 13:43:55.78	235.42	12.79	-37.0	-38.7	16.1	0.00e+00	0	54	0	548405248	45	4399
2026-01-10 13:43:56.79	235.59	12.85	-36.9	-38.5	16.2	0.00e+00	0	54	0	553648128	45	4331
2026-01-10 13:43:57.80	235.75	12.90	-36.8	-38.4	16.3	0.00e+00	0	54	0	558891008	45	4263
2026-01-10 13:43:58.81	235.92	12.96	-36.8	-38.4	16.3	0.00e+00	0	54	0	565182464	45	4261
2026-01-10 13:43:59.82	236.08	13.02	-36.8	-38.4	16.3	0.00e+00	0	54	0	570425344	45	4279
2026-01-10 13:44:00.83	236.25	13.07	-36.7	-38.2	16.5	0.00e+00	0	54	0	575668224	45	4177
2026-01-10 13:44:01.84	236.42	13.13	-36.5	-38.1	16.7	0.00e+00	0	54	0	581959680	45	4099
2026-01-10 13:44:02.85	236.59	13.19	-36.5	-38.0	16.7	0.00e+00	0	54	0	587202560	44	4309
2026-01-10 13:44:03.85	236.75	13.24	-36.7	-38.2	16.5	0.00e+00	0	54	0	593494016	44	4423
2026-01-10 13:44:04.86	236.92	13.30	-36.7	-38.3	16.5	0.00e+00	0	54	0	598736896	44	4458
2026-01-10 13:44:05.87	237.09	13.35	-36.8	-38.4	16.4	0.00e+00	0	54	0	603979776	44	4504
2026-01-10 13:44:06.89	237.26	13.41	-36.6	-38.1	16.7	0.00e+00	0	54	0	610271232	44	4351
2026-01-10 13:44:07.89	237.43	13.46	-36.6	-38.2	16.6	0.00e+00	0	54	0	615514112	44	4392
2026-01-10 13:44:08.91	237.61	13.52	-36.6	-38.1	16.7	0.00e+00	0	54	0	621805568	44	4345
2026-01-10 13:44:09.92	237.78	13.57	-36.5	-38.0	16.8	0.00e+00	0	54	0	627048448	44	4308
2026-01-10 13:44:10.93	237.95	13.63	-36.5	-38.0	16.8	0.00e+00	0	54	0	633339904	44	4299
2026-01-10 13:44:11.94	238.13	13.68	-36.6	-38.2	16.6	0.00e+00	0	54	0	638582784	44	4392
2026-01-10 13:44:12.95	238.30	13.74	-36.5	-38.0	16.8	0.00e+00	0	54	0	644874240	44	4328
2026-01-10 13:44:13.96	238.48	13.79	-36.6	-38.1	16.8	0.00e+00	0	54	0	650117120	44	4343
2026-01-10 13:44:14.97	238.65	13.85	-36.6	-38.1	16.7	0.00e+00	0	54	0	655360000	44	4345
2026-01-10 13:44:15.98	238.83	13.90	-36.4	-37.9	16.9	0.00e+00	0	54	0	661651456	44	4287
2026-01-10 13:44:16.99	239.00	13.96	-36.4	-37.9	16.9	0.00e+00	0	54	0	666894336	44	4253
2026-01-10 13:44:18.00	239.18	14.01	-36.3	-37.8	17.0	0.00e+00	0	54	0	673185792	44	4201
2026-01-10 13:44:19.01	239.36	14.07	-36.3	-37.8	17.0	0.00e+00	0	54	0	678428672	44	4203
2026-01-10 13:44:20.01	239.54	14.12	-36.2	-37.7	17.1	0.00e+00	0	54	0	683671552	44	4147
2026-01-10 13:44:21.02	239.72	14.17	-36.2	-37.6	17.2	0.00e+00	0	54	0	689963008	44	4133
2026-01-10 13:44:22.03	239.90	14.23	-36.3	-37.7	17.0	0.00e+00	0	54	0	695205888	44	4187
2026-01-10 13:44:23.04	240.08	14.28	-36.2	-37.7	17.1	0.00e+00	0	54	0	701497344	44	4164
2026-01-10 13:44:24.05	240.26	14.34	-36.3	-37.8	17.0	0.00e+00	0	54	0	706740224	44	4199
2026-01-10 13:44:25.06	240.44	14.39	-36.3	-37.7	17.1	0.00e+00	0	54	0	713031680	44	4186
2026-01-10 13:44:26.07	240.62	14.44	-36.3	-37.8	17.0	0.00e+00	0	54	0	718274560	44	4211
2026-01-10 13:44:27.08	240.81	14.49	-36.4	-37.9	16.9	0.00e+00	0	54	0	723517440	44	4270
2026-01-10 13:44:28.09	240.99	14.55	-36.5	-38.0	16.8	0.00e+00	0	54	0	729808896	44	4334
2026-01-10 13:44:29.11	241.18	14.60	-36.5	-38.1	16.8	0.00e+00	0	54	0	735051776	44	4345
2026-01-10 13:44:30.12	241.36	14.65	-36.5	-37.9	16.9	0.00e+00	0	54	0	741343232	44	4285
2026-01-10 13:44:31.13	241.55	14.71	-36.4	-37.8	16.9	0.00e+00	0	54	0	746586112	44	4233
2026-01-10 13:44:32.14	241.73	14.76	-36.2	-37.6	17.2	0.00e+00	0	55	0	752877568	44	4140
2026-01-10 13:44:33.15	241.92	14.81	-36.2	-37.7	17.1	0.00e+00	0	54	0	758120448	44	4161
2026-01-10 13:44:34.16	242.11	14.86	-36.3	-37.7	17.1	0.00e+00	0	54	0	763363328	44	4190
2026-01-10 13:44:35.16	242.29	14.91	-36.2	-37.6	17.2	0.00e+00	0	54	0	769654784	44	4121
2026-01-10 13:44:36.17	242.48	14.96	-36.1	-37.6	17.2	0.00e+00	0	54	0	774897664	44	4110
2026-01-10 13:44:37.18	242.67	15.02	-36.2	-37.6	17.2	0.00e+00	0	54	0	781189120	44	4137
2026-01-10 13:44:38.19	242.86	15.07	-36.2	-37.6	17.2	0.00e+00	0	54	0	786432000	44	4130
2026-01-10 13:44:39.20	243.05	15.12	-36.1	-37.6	17.2	0.00e+00	0	54	0	791674880	44	4109
2026-01-10 13:44:40.21	243.25	15.17	-36.1	-37.5	17.3	0.00e+00	0	54	0	797966336	44	4071
2026-01-10 13:44:41.23	243.44	15.22	-36.1	-37.5	17.3	0.00e+00	0	55	0	803209216	44	4083
2026-01-10 13:44:42.23	243.63	15.27	-36.1	-37.5	17.3	0.00e+00	0	54	0	809500672	44	4068
2026-01-10 13:44:43.24	243.82	15.32	-36.1	-37.6	17.2	0.00e+00	0	54	0	814743552	44	4113
2026-01-10 13:44:44.25	244.02	15.37	-36.2	-37.6	17.2	0.00e+00	0	54	0	819986432	44	4135
2026-01-10 13:44:45.26	244.21	15.42	-36.3	-37.8	17.0	0.00e+00	0	55	0	826277888	44	4205
2026-01-10 13:44:46.27	244.41	15.47	-36.5	-38.0	16.9	0.00e+00	0	55	0	831520768	44	4301
2026-01-10 13:44:47.28	244.60	15.52	-36.4	-37.9	16.9	0.00e+00	0	54	0	837812224	44	4286
2026-01-10 13:44:48.30	244.80	15.57	-36.3	-37.8	17.1	0.00e+00	0	54	0	843055104	44	4197
2026-01-10 13:44:49.31	245.00	15.62	-36.2	-37.6	17.2	0.00e+00	0	55	0	849346560	44	4137
2026-01-10 13:44:50.32	245.20	15.67	-36.1	-37.5	17.2	0.00e+00	0	55	0	854589440	44	4098
2026-01-10 13:44:51.33	245.39	15.71	-36.1	-37.5	17.3	0.00e+00	0	55	0	860880896	44	4081
2026-01-10 13:44:52.34	245.59	15.76	-36.0	-37.4	17.4	0.00e+00	0	55	0	866123776	44	4046
2026-01-10 13:44:53.35	245.79	15.81	-35.8	-37.2	17.5	0.00e+00	0	55	0	871366656	43	4169
2026-01-10 13:44:54.36	245.99	15.86	-35.7	-37.1	17.5	0.00e+00	0	55	0	877658112	43	4132
2026-01-10 13:44:55.36	246.19	15.91	-35.8	-37.2	17.5	0.00e+00	0	55	0	882900992	43	4148
2026-01-10 13:44:56.37	246.39	15.95	-35.8	-37.2	17.5	0.00e+00	0	55	0	888143872	43	4165
2026-01-10 13:44:57.38	246.60	16.00	-35.7	-37.1	17.5	0.00e+00	0	55	0	894435328	43	4133
2026-01-10 13:44:58.39	246.80	16.05	-35.7	-37.1	17.6	0.00e+00	0	55	0	899678208	43	4121
2026-01-10 13:44:59.40	247.00	16.09	-35.8	-37.2	17.5	0.00e+00	0	55	0	905969664	43	4175
2026-01-10 13:45:00.41	247.21	16.14	-35.9	-37.3	17.4	0.00e+00	0	55	0	911212544	43	4231
2026-01-10 13:45:01.42	247.41	16.19	-35.8	-37.3	17.4	0.00e+00	0	55	0	916455424	43	4195
2026-01-10 13:45:02.43	247.62	16.23	-35.7	-37.1	17.5	0.00e+00	0	55	0	922746880	43	4126
2026-01-10 13:45:03.44	247.82	16.28	-35.6	-37.0	17.6	0.00e+00	0	55	0	927989760	43	4079
2026-01-10 13:45:04.45	248.03	16.32	-35.6	-37.0	17.7	0.00e+00	0	55	0	934281216	43	4068
2026-01-10 13:45:05.46	248.23	16.37	-35.6	-36.9	17.7	0.00e+00	0	55	0	939524096	43	4048
2026-01-10 13:45:06.47	248.44	16.41	-35.6	-37.0	17.6	0.00e+00	0	55	0	945815552	43	4076
2026-01-10 13:45:07.48	248.65	16.46	-35.6	-37.0	17.7	0.00e+00	0	55	0	951058432	43	4062
2026-01-10 13:45:08.49	248.86	16.50	-35.6	-37.0	17.6	0.00e+00	0	55	0	957349888	43	4076
2026-01-10 13:45:09.50	249.07	16.54	-35.7	-37.1	17.5	0.00e+00	0	55	0	962592768	43	4133
2026-01-10 13:45:10.51	249.28	16.59	-35.8	-37.1	17.5	0.00e+00	0	55	0	967835648	43	4144
2026-01-10 13:45:11.52	249.49	16.63	-35.7	-37.1	17.6	0.00e+00	0	55	0	974127104	43	4115
2026-01-10 13:45:12.53	249.70	16.67	-35.8	-37.2	17.5	0.00e+00	0	55	0	979369984	43	4156
2026-01-10 13:45:13.54	249.91	16.72	-35.7	-37.1	17.6	0.00e+00	0	55	0	985661440	43	4125
2026-01-10 13:45:14.55	250.12	16.76	-35.7	-37.1	17.6	0.00e+00	0	55	0	990904320	43	4120
2026-01-10 13:45:15.56	250.34	16.80	-35.7	-37.1	17.6	0.00e+00	0	55	0	996147200	43	4101
2026-01-10 13:45:16.57	250.55	16.84	-35.7	-37.1	17.6	0.00e+00	0	55	0	1002438656	43	4110
2026-01-10 13:45:17.58	250.76	16.89	-35.6	-37.0	17.6	0.00e+00	0	55	0	1007681536	43	4089
2026-01-10 13:45:18.59	250.98	16.93	-35.5	-36.9	17.7	0.00e+00	0	55	0	1013972992	43	4032
2026-01-10 13:45:19.60	251.19	16.97	-35.4	-36.8	17.9	0.00e+00	0	55	0	1019215872	42	4219
2026-01-10 13:45:20.61	251.41	17.01	-35.4	-36.8	17.9	0.00e+00	0	55	0	1024458752	42	4198
2026-01-10 13:45:21.62	251.63	17.05	-35.4	-36.8	17.9	0.00e+00	0	55	0	1030750208	42	4218
2026-01-10 13:45:22.63	251.84	17.09	-35.5	-36.9	17.7	0.00e+00	0	55	0	1035993088	42	4279
2026-01-10 13:45:23.64	252.06	17.13	-35.7	-37.1	17.6	0.00e+00	0	55	0	1042284544	42	4346
2026-01-10 13:45:24.65	252.28	17.17	-35.7	-37.1	17.6	0.00e+00	0	55	0	1047527424	42	4342
2026-01-10 13:45:25.66	252.50	17.21	-35.7	-37.1	17.6	0.00e+00	0	55	0	1053818880	42	4361
2026-01-10 13:45:26.67	252.72	17.24	-35.7	-37.1	17.6	0.00e+00	0	55	0	1059061760	42	4383
2026-01-10 13:45:27.68	252.93	17.28	-35.6	-36.9	17.7	0.00e+00	0	55	0	1065353216	42	4291
2026-01-10 13:45:28.69	253.15	17.32	-35.5	-36.9	17.8	0.00e+00	0	55	0	1070596096	42	4267
2026-01-10 13:45:29.70	253.38	17.36	-35.4	-36.8	17.9	0.00e+00	0	55	0	1075838976	42	4214
2026-01-10 13:45:30.72	253.60	17.40	-35.5	-36.9	17.8	0.00e+00	0	55	0	1082130432	42	4243
2026-01-10 13:45:31.73	253.82	17.43	-35.5	-36.9	17.8	0.00e+00	0	55	0	1087373312	42	4251
2026-01-10 13:45:32.73	254.04	17.47	-35.5	-36.9	17.8	0.00e+00	0	55	0	1093664768	42	4255
2026-01-10 13:45:33.75	254.27	17.50	-35.5	-36.9	17.8	0.00e+00	0	55	0	1098907648	42	4246
2026-01-10 13:45:34.76	254.49	17.54	-35.5	-36.8	17.9	0.00e+00	0	55	0	1104150528	42	4230
2026-01-10 13:45:35.77	254.71	17.58	-35.4	-36.8	17.9	0.00e+00	0	55	0	1110441984	42	4218
2026-01-10 13:45:36.78	254.94	17.61	-35.4	-36.7	17.9	0.00e+00	0	55	0	1115684864	42	4182
2026-01-10 13:45:37.78	255.16	17.65	-35.4	-36.7	18.0	0.00e+00	0	55	0	1121976320	42	4171
2026-01-10 13:45:38.79	255.38	17.68	-35.4	-36.7	18.0	0.00e+00	0	55	0	1127219200	42	4173
2026-01-10 13:45:39.80	255.61	17.71	-35.4	-36.7	18.0	0.00e+00	0	55	0	1132462080	42	4180
2026-01-10 13:45:40.81	255.84	17.75	-35.4	-36.7	18.0	0.00e+00	0	55	0	1138753536	42	4174
2026-01-10 13:45:41.82	256.06	17.78	-35.3	-36.7	18.0	0.00e+00	0	55	0	1143996416	42	4149
2026-01-10 13:45:42.83	256.29	17.81	-35.4	-36.7	18.0	0.00e+00	0	55	0	1150287872	42	4173
2026-01-10 13:45:43.84	256.52	17.84	-35.3	-36.6	18.1	0.00e+00	0	55	0	1155530752	42	4132
2026-01-10 13:45:44.85	256.75	17.88	-35.3	-36.6	18.1	0.00e+00	0	55	0	1161822208	42	4120
2026-01-10 13:45:45.86	256.98	17.91	-35.2	-36.5	18.2	0.00e+00	0	55	0	1167065088	42	4069
2026-01-10 13:45:46.87	257.20	17.94	-35.2	-36.5	18.2	0.00e+00	0	55	0	1172307968	42	4075
2026-01-10 13:45:47.88	257.43	17.97	-35.2	-36.6	18.2	0.00e+00	0	55	0	1178599424	42	4107
2026-01-10 13:45:48.89	257.66	18.00	-35.3	-36.6	18.1	0.00e+00	0	55	0	1183842304	42	4135
2026-01-10 13:45:49.90	257.89	18.03	-35.3	-36.6	18.1	0.00e+00	0	55	0	1190133760	42	4123
2026-01-10 13:45:50.91	258.13	18.06	-35.3	-36.7	18.0	0.00e+00	0	55	0	1195376640	42	4154
2026-01-10 13:45:51.92	258.36	18.09	-35.3	-36.6	18.1	0.00e+00	0	55	0	1200619520	42	4140
2026-01-10 13:45:52.93	258.59	18.12	-35.3	-36.6	18.1	0.00e+00	0	55	0	1206910976	42	4129
2026-01-10 13:45:53.94	258.82	18.15	-35.3	-36.6	18.1	0.00e+00	0	55	0	1212153856	42	4117
2026-01-10 13:45:54.95	259.05	18.17	-35.2	-36.5	18.2	0.00e+00	0	55	0	1218445312	42	4087
2026-01-10 13:45:55.96	259.29	18.20	-35.2	-36.5	18.2	0.00e+00	0	55	0	1223688192	42	4082
2026-01-10 13:45:56.97	259.52	18.23	-35.2	-36.6	18.1	0.00e+00	0	55	0	1228931072	42	4107
2026-01-10 13:45:57.98	259.75	18.25	-35.2	-36.5	18.2	0.00e+00	0	55	0	1235222528	42	4089
2026-01-10 13:45:58.99	259.99	18.28	-35.2	-36.5	18.2	0.00e+00	0	55	0	1240465408	42	4057
2026-01-10 13:46:00.00	260.22	18.31	-35.2	-36.5	18.2	0.00e+00	0	55	0	1246756864	42	4071
2026-01-10 13:46:01.01	260.46	18.33	-35.2	-36.5	18.2	0.00e+00	0	55	0	1251999744	42	4090
2026-01-10 13:46:02.02	260.69	18.36	-35.2	-36.5	18.2	0.00e+00	0	55	0	1258291200	42	4072
2026-01-10 13:46:03.03	260.93	18.38	-35.3	-36.6	18.1	0.00e+00	0	55	0	1263534080	42	4139
2026-01-10 13:46:04.04	261.16	18.40	-35.3	-36.6	18.0	0.00e+00	0	55	0	1269825536	42	4142
2026-01-10 13:46:05.05	261.40	18.43	-35.4	-36.7	18.0	0.00e+00	0	55	0	1275068416	42	4181
2026-01-10 13:46:06.06	261.64	18.45	-35.4	-36.7	18.0	0.00e+00	0	55	0	1280311296	42	4166
2026-01-10 13:46:07.07	261.87	18.47	-35.3	-36.7	18.1	0.00e+00	0	55	0	1286602752	42	4163
2026-01-10 13:46:08.08	262.11	18.50	-35.3	-36.7	18.1	0.00e+00	0	55	0	1291845632	42	4154
2026-01-10 13:46:09.09	262.35	18.52	-35.3	-36.6	18.1	0.00e+00	0	55	0	1298137088	42	4129
2026-01-10 13:46:10.10	262.59	18.54	-35.2	-36.5	18.2	0.00e+00	0	55	0	1303379968	42	4095
2026-01-10 13:46:11.11	262.83	18.56	-35.2	-36.5	18.2	0.00e+00	0	55	0	1308622848	42	4061
2026-01-10 13:46:12.12	263.06	18.58	-35.0	-36.3	18.4	0.00e+00	0	55	0	1314914304	42	3995
2026-01-10 13:46:13.13	263.30	18.60	-35.1	-36.4	18.3	0.00e+00	0	55	0	1320157184	42	4032
2026-01-10 13:46:14.14	263.54	18.62	-35.2	-36.5	18.2	0.00e+00	0	55	0	1326448640	42	4078
2026-01-10 13:46:15.16	263.78	18.64	-35.2	-36.5	18.3	0.00e+00	0	55	0	1331691520	42	4064
2026-01-10 13:46:16.17	264.02	18.66	-35.1	-36.4	18.3	0.00e+00	0	55	0	1336934400	42	4043
2026-01-10 13:46:17.18	264.26	18.67	-35.2	-36.5	18.2	0.00e+00	0	55	0	1343225856	42	4072
2026-01-10 13:46:18.19	264.50	18.69	-35.1	-36.4	18.3	0.00e+00	0	55	0	1348468736	42	4047
2026-01-10 13:46:19.20	264.74	18.71	-35.2	-36.5	18.3	0.00e+00	0	55	0	1354760192	42	4056
2026-01-10 13:46:20.21	264.99	18.72	-35.2	-36.5	18.2	0.00e+00	0	55	0	1360003072	42	4091
2026-01-10 13:46:21.22	265.23	18.74	-35.3	-36.6	18.1	0.00e+00	0	55	0	1366294528	42	4125
2026-01-10 13:46:22.23	265.47	18.75	-35.3	-36.6	18.2	0.00e+00	0	55	0	1371537408	42	4103
2026-01-10 13:46:23.24	265.71	18.77	-35.3	-36.6	18.2	0.00e+00	0	55	0	1377828864	42	4116
2026-01-10 13:46:24.24	265.95	18.78	-35.2	-36.5	18.2	0.00e+00	0	55	0	1383071744	42	4078
2026-01-10 13:46:25.25	266.19	18.80	-35.0	-36.3	18.5	0.00e+00	0	55	0	1388314624	42	3975
2026-01-10 13:46:26.26	266.43	18.81	-35.0	-36.3	18.5	0.00e+00	0	55	0	1394606080	42	3966
2026-01-10 13:46:27.27	266.68	18.82	-35.1	-36.4	18.4	0.00e+00	0	55	0	1399848960	42	4028
2026-01-10 13:46:28.28	266.92	18.84	-35.2	-36.5	18.3	0.00e+00	0	55	0	1406140416	42	4068
2026-01-10 13:46:29.29	267.16	18.85	-35.2	-36.6	18.2	0.00e+00	0	55	0	1411383296	42	4103
2026-01-10 13:46:30.30	267.40	18.86	-35.2	-36.5	18.3	0.00e+00	0	55	0	1416626176	42	4091
2026-01-10 13:46:31.31	267.65	18.87	-35.1	-36.4	18.3	0.00e+00	0	55	0	1422917632	42	4030
2026-01-10 13:46:32.32	267.89	18.88	-35.1	-36.4	18.4	0.00e+00	0	55	0	1428160512	42	4027
2026-01-10 13:46:33.33	268.13	18.89	-35.2	-36.5	18.2	0.00e+00	0	55	0	1434451968	42	4071
2026-01-10 13:46:34.34	268.38	18.90	-35.2	-36.5	18.3	0.00e+00	0	55	0	1439694848	42	4057
2026-01-10 13:46:35.35	268.62	18.91	-35.0	-36.3	18.4	0.00e+00	0	55	0	1444937728	42	3998
2026-01-10 13:46:36.36	268.87	18.92	-35.0	-36.3	18.5	0.00e+00	0	55	0	1451229184	42	3966
2026-01-10 13:46:37.37	269.11	18.93	-34.9	-36.2	18.5	0.00e+00	0	55	0	1456472064	41	4180
2026-01-10 13:46:38.38	269.35	18.93	-34.9	-36.2	18.5	0.00e+00	0	55	0	1462763520	41	4177
2026-01-10 13:46:39.39	269.60	18.94	-34.9	-36.2	18.5	0.00e+00	0	55	0	1468006400	41	4150
2026-01-10 13:46:40.40	269.84	18.95	-34.9	-36.2	18.5	0.00e+00	0	55	0	1474297856	41	4165
2026-01-10 13:46:41.40	270.08	18.95	-34.9	-36.2	18.5	0.00e+00	0	55	0	1479540736	41	4180
2026-01-10 13:46:42.41	270.33	18.96	-35.0	-36.3	18.4	0.00e+00	0	55	0	1484783616	41	4208
2026-01-10 13:46:43.42	270.57	18.96	-35.0	-36.3	18.4	0.00e+00	0	55	0	1491075072	41	4205
2026-01-10 13:46:44.43	270.82	18.97	-34.9	-36.2	18.5	0.00e+00	0	55	0	1496317952	41	4177
2026-01-10 13:46:45.44	271.06	18.97	-35.0	-36.3	18.5	0.00e+00	0	55	0	1502609408	41	4196
2026-01-10 13:46:46.45	271.31	18.98	-35.0	-36.3	18.4	0.00e+00	0	55	0	1507852288	41	4202
2026-01-10 13:46:47.46	271.55	18.98	-35.1	-36.3	18.4	0.00e+00	0	55	0	1513095168	41	4238
2026-01-10 13:46:48.47	271.80	18.98	-35.1	-36.4	18.3	0.00e+00	0	55	0	1519386624	41	4256
2026-01-10 13:46:49.48	272.04	18.98	-35.1	-36.4	18.4	0.00e+00	0	55	0	1524629504	41	4253
2026-01-10 13:46:50.49	272.29	18.98	-35.0	-36.3	18.4	0.00e+00	0	55	0	1530920960	41	4226
2026-01-10 13:46:51.50	272.53	18.99	-35.0	-36.3	18.4	0.00e+00	0	55	0	1536163840	41	4211
2026-01-10 13:46:52.51	272.78	18.99	-35.0	-36.3	18.4	0.00e+00	0	55	0	1541406720	41	4199
2026-01-10 13:46:53.52	273.02	18.99	-35.0	-36.3	18.4	0.00e+00	0	55	0	1547698176	41	4222
2026-01-10 13:46:54.53	273.27	18.98	-35.0	-36.3	18.4	0.00e+00	0	55	0	1552941056	41	4228
2026-01-10 13:46:55.54	273.51	18.98	-35.0	-36.3	18.4	0.00e+00	0	55	0	1559232512	41	4203
2026-01-10 13:46:56.55	273.76	18.98	-35.1	-36.4	18.4	0.00e+00	0	55	0	1564475392	41	4247
2026-01-10 13:46:57.56	274.00	18.98	-35.1	-36.5	18.2	0.00e+00	0	55	0	1570766848	41	4297
2026-01-10 13:46:58.57	274.25	18.98	-35.1	-36.5	18.2	0.00e+00	0	55	0	1576009728	41	4295
2026-01-10 13:46:59.57	274.49	18.97	-35.1	-36.4	18.3	0.00e+00	0	55	0	1581252608	41	4271
2026-01-10 13:47:00.58	274.73	18.97	-35.1	-36.4	18.3	0.00e+00	0	56	0	1587544064	41	4256
2026-01-10 13:47:01.59	274.98	18.97	-35.0	-36.3	18.4	0.00e+00	0	55	0	1592786944	41	4204
2026-01-10 13:47:02.60	275.22	18.96	-35.1	-36.4	18.3	0.00e+00	0	55	0	1599078400	41	4250
2026-01-10 13:47:03.61	275.47	18.96	-35.1	-36.4	18.3	0.00e+00	0	56	0	1604321280	41	4283
2026-01-10 13:47:04.62	275.71	18.95	-35.1	-36.4	18.3	0.00e+00	0	55	0	1609564160	41	4290
2026-01-10 13:47:05.63	275.96	18.94	-35.2	-36.5	18.2	0.00e+00	0	55	0	1615855616	41	4295
2026-01-10 13:47:06.64	276.20	18.94	-35.2	-36.5	18.2	0.00e+00	0	55	0	1621098496	41	4314
2026-01-10 13:47:07.65	276.44	18.93	-35.1	-36.4	18.3	0.00e+00	0	55	0	1627389952	41	4276
2026-01-10 13:47:08.66	276.69	18.92	-35.2	-36.5	18.2	0.00e+00	0	56	0	1632632832	41	4302
2026-01-10 13:47:09.67	276.93	18.91	-35.2	-36.5	18.2	0.00e+00	0	56	0	1637875712	41	4313
2026-01-10 13:47:10.68	277.17	18.90	-35.1	-36.5	18.2	0.00e+00	0	55	0	1644167168	41	4292
2026-01-10 13:47:11.69	277.42	18.90	-35.2	-36.5	18.2	0.00e+00	0	55	0	1649410048	41	4297
2026-01-10 13:47:12.70	277.66	18.89	-35.2	-36.5	18.2	0.00e+00	0	55	0	1655701504	41	4297
2026-01-10 13:47:13.71	277.90	18.88	-35.3	-36.6	18.1	0.00e+00	0	55	0	1660944384	41	4362
2026-01-10 13:47:14.72	278.15	18.86	-35.3	-36.6	18.1	0.00e+00	0	56	0	1667235840	41	4384
2026-01-10 13:47:15.73	278.39	18.85	-35.2	-36.6	18.1	0.00e+00	0	56	0	1672478720	41	4360
2026-01-10 13:47:16.74	278.63	18.84	-35.2	-36.5	18.2	0.00e+00	0	55	0	1678770176	41	4317
2026-01-10 13:47:17.75	278.88	18.83	-35.1	-36.4	18.3	0.00e+00	0	55	0	1684013056	41	4257
2026-01-10 13:47:18.76	279.12	18.82	-35.1	-36.4	18.3	0.00e+00	0	56	0	1689255936	41	4265
2026-01-10 13:47:19.77	279.36	18.80	-35.1	-36.3	18.3	0.00e+00	0	56	0	1695547392	41	4239
2026-01-10 13:47:20.78	279.60	18.79	-35.0	-36.3	18.3	0.00e+00	0	55	0	1700790272	41	4225
2026-01-10 13:47:21.79	279.84	18.77	-35.0	-36.3	18.3	0.00e+00	0	55	0	1707081728	41	4241
2026-01-10 13:47:22.80	280.08	18.76	-35.0	-36.3	18.3	0.00e+00	0	55	0	1712324608	41	4238
2026-01-10 13:47:23.81	280.33	18.74	-35.0	-36.3	18.3	0.00e+00	0	56	0	1717567488	41	4232
2026-01-10 13:47:24.82	280.57	18.73	-35.0	-36.3	18.3	0.00e+00	0	55	0	1723858944	41	4224
2026-01-10 13:47:25.83	280.81	18.71	-35.0	-36.3	18.4	0.00e+00	0	56	0	1729101824	41	4230
2026-01-10 13:47:26.84	281.05	18.70	-35.0	-36.3	18.3	0.00e+00	0	55	0	1735393280	41	4239
2026-01-10 13:47:27.85	281.29	18.68	-35.2	-36.5	18.1	0.00e+00	0	55	0	1740636160	41	4325
2026-01-10 13:47:28.86	281.53	18.66	-35.3	-36.7	18.0	0.00e+00	0	55	0	1745879040	41	4399
2026-01-10 13:47:29.87	281.77	18.64	-35.4	-36.7	17.9	0.00e+00	0	55	0	1752170496	41	4421
2026-01-10 13:47:30.88	282.01	18.62	-35.4	-36.7	17.9	0.00e+00	0	56	0	1757413376	41	4425
2026-01-10 13:47:31.89	282.25	18.61	-35.4	-36.8	17.8	0.00e+00	0	56	0	1763704832	41	4470
2026-01-10 13:47:32.90	282.48	18.59	-35.4	-36.7	17.9	0.00e+00	0	55	0	1768947712	41	4414
2026-01-10 13:47:33.91	282.72	18.57	-35.4	-36.7	17.9	0.00e+00	0	56	0	1775239168	41	4421
2026-01-10 13:47:34.92	282.96	18.55	-35.4	-36.7	17.9	0.00e+00	0	56	0	1780482048	41	4432
2026-01-10 13:47:35.93	283.20	18.52	-35.5	-36.9	17.8	0.00e+00	0	56	0	1786773504	41	4500
2026-01-10 13:47:36.94	283.44	18.50	-35.6	-36.9	17.7	0.00e+00	0	56	0	1792016384	41	4540
2026-01-10 13:47:37.95	283.67	18.48	-35.6	-37.0	17.6	0.00e+00	0	56	0	1797259264	41	4566
2026-01-10 13:47:38.96	283.91	18.46	-35.7	-37.1	17.6	0.00e+00	0	55	0	1803550720	41	4618
2026-01-10 13:47:39.97	284.15	18.44	-35.8	-37.2	17.5	0.00e+00	0	56	0	1808793600	42	4423
2026-01-10 13:47:40.99	284.38	18.41	-35.8	-37.2	17.5	0.00e+00	0	56	0	1815085056	42	4411
2026-01-10 13:47:41.99	284.62	18.39	-35.7	-37.2	17.5	0.00e+00	0	56	0	1820327936	42	4392
2026-01-10 13:47:43.00	284.85	18.37	-35.7	-37.2	17.5	0.00e+00	0	55	0	1825570816	42	4394
2026-01-10 13:47:44.01	285.09	18.34	-35.6	-37.1	17.6	0.00e+00	0	56	0	1831862272	42	4342
2026-01-10 13:47:45.02	285.32	18.32	-35.5	-36.9	17.7	0.00e+00	0	55	0	1837105152	42	4282
2026-01-10 13:47:46.03	285.56	18.29	-35.5	-36.8	17.8	0.00e+00	0	56	0	1843396608	42	4238
2026-01-10 13:47:47.04	285.79	18.27	-35.5	-36.8	17.8	0.00e+00	0	55	0	1848639488	42	4231
2026-01-10 13:47:48.05	286.02	18.24	-35.5	-36.8	17.8	0.00e+00	0	55	0	1853882368	42	4238
2026-01-10 13:47:49.06	286.26	18.21	-35.5	-36.9	17.8	0.00e+00	0	55	0	1860173824	42	4243
2026-01-10 13:47:50.07	286.49	18.19	-35.5	-36.9	17.7	0.00e+00	0	55	0	1865416704	42	4264
2026-01-10 13:47:51.08	286.72	18.16	-35.5	-36.9	17.8	0.00e+00	0	55	0	1871708160	42	4244
2026-01-10 13:47:52.09	286.95	18.13	-35.5	-36.9	17.7	0.00e+00	0	55	0	1876951040	42	4256
2026-01-10 13:47:53.10	287.18	18.10	-35.5	-36.9	17.8	0.00e+00	0	55	0	1883242496	42	4247
2026-01-10 13:47:54.11	287.41	18.07	-35.5	-36.9	17.7	0.00e+00	0	56	0	1888485376	42	4279
2026-01-10 13:47:55.12	287.64	18.04	-35.4	-36.8	17.8	0.00e+00	0	55	0	1893728256	42	4218
2026-01-10 13:47:56.13	287.87	18.01	-35.5	-36.9	17.7	0.00e+00	0	56	0	1900019712	42	4271
2026-01-10 13:47:57.14	288.10	17.98	-35.6	-37.0	17.6	0.00e+00	0	56	0	1905262592	42	4319
2026-01-10 13:47:58.15	288.33	17.95	-35.6	-37.0	17.6	0.00e+00	0	56	0	1911554048	42	4332
2026-01-10 13:47:59.16	288.56	17.92	-35.6	-37.1	17.6	0.00e+00	0	56	0	1916796928	42	4342
2026-01-10 13:48:00.17	288.79	17.89	-35.6	-37.0	17.6	0.00e+00	0	56	0	1922039808	42	4333
2026-01-10 13:48:01.18	289.02	17.86	-35.6	-37.0	17.6	0.00e+00	0	56	0	1928331264	42	4334
2026-01-10 13:48:02.19	289.24	17.83	-35.7	-37.1	17.6	0.00e+00	0	56	0	1933574144	42	4357
2026-01-10 13:48:03.20	289.47	17.80	-35.6	-37.0	17.6	0.00e+00	0	55	0	1939865600	42	4334
2026-01-10 13:48:04.20	289.69	17.76	-35.6	-36.9	17.7	0.00e+00	0	56	0	1945108480	42	4281
2026-01-10 13:48:05.21	289.92	17.73	-35.5	-36.9	17.7	0.00e+00	0	56	0	1950351360	42	4276
2026-01-10 13:48:06.22	290.15	17.70	-35.6	-36.9	17.7	0.00e+00	0	56	0	1956642816	42	4283
2026-01-10 13:48:07.23	290.37	17.66	-35.6	-37.0	17.6	0.00e+00	0	56	0	1961885696	42	4305
2026-01-10 13:48:08.24	290.60	17.63	-35.5	-36.9	17.7	0.00e+00	0	56	0	1968177152	42	4271
2026-01-10 13:48:09.25	290.82	17.59	-35.5	-36.9	17.8	0.00e+00	0	55	0	1973420032	42	4245
2026-01-10 13:48:10.26	291.04	17.56	-35.6	-36.9	17.7	0.00e+00	0	55	0	1979711488	42	4274
2026-01-10 13:48:11.27	291.26	17.52	-35.6	-37.0	17.6	0.00e+00	0	55	0	1984954368	42	4306
2026-01-10 13:48:12.28	291.49	17.49	-35.7	-37.0	17.6	0.00e+00	0	56	0	1991245824	42	4337
2026-01-10 13:48:13.29	291.71	17.45	-35.6	-37.0	17.6	0.00e+00	0	56	0	1996488704	42	4335
2026-01-10 13:48:14.30	291.93	17.41	-35.7	-37.1	17.5	0.00e+00	0	56	0	2001731584	42	4390
2026-01-10 13:48:15.31	292.15	17.38	-35.8	-37.2	17.5	0.00e+00	0	55	0	2008023040	42	4399
2026-01-10 13:48:16.32	292.37	17.34	-35.7	-37.1	17.5	0.00e+00	0	56	0	2013265920	42	4372
2026-01-10 13:48:17.33	292.59	17.30	-35.7	-37.1	17.5	0.00e+00	0	56	0	2019557376	42	4366
2026-01-10 13:48:18.34	292.81	17.26	-35.6	-37.0	17.6	0.00e+00	0	56	0	2024800256	42	4328
2026-01-10 13:48:19.35	293.03	17.23	-35.6	-37.0	17.6	0.00e+00	0	56	0	2030043136	42	4302
2026-01-10 13:48:20.36	293.25	17.19	-35.6	-37.0	17.7	0.00e+00	0	56	0	2036334592	42	4295
2026-01-10 13:48:21.37	293.46	17.15	-35.6	-36.9	17.7	0.00e+00	0	55	0	2041577472	42	4283
2026-01-10 13:48:22.38	293.68	17.11	-35.7	-37.1	17.5	0.00e+00	0	56	0	2047868928	42	4346
2026-01-10 13:48:23.39	293.90	17.07	-35.6	-37.0	17.6	0.00e+00	0	56	0	2053111808	42	4335
2026-01-10 13:48:24.40	294.11	17.03	-35.8	-37.2	17.4	0.00e+00	0	56	0	2058354688	42	4399
2026-01-10 13:48:25.41	294.33	16.99	-35.8	-37.2	17.4	0.00e+00	0	56	0	2064646144	42	4426
2026-01-10 13:48:26.42	294.54	16.95	-35.8	-37.2	17.4	0.00e+00	0	56	0	2069889024	42	4418
2026-01-10 13:48:27.43	294.76	16.91	-35.8	-37.2	17.4	0.00e+00	0	56	0	2076180480	42	4431
2026-01-10 13:48:28.44	294.97	16.87	-35.8	-37.2	17.4	0.00e+00	0	56	0	2081423360	42	4416
2026-01-10 13:48:29.45	295.18	16.83	-35.8	-37.2	17.4	0.00e+00	0	56	0	2087714816	42	4435
2026-01-10 13:48:30.46	295.39	16.79	-35.8	-37.2	17.4	0.00e+00	0	56	0	2092957696	42	4425
2026-01-10 13:48:31.47	295.61	16.74	-35.8	-37.3	17.3	0.00e+00	0	56	0	2098200576	42	4457
2026-01-10 13:48:32.47	295.82	16.70	-35.9	-37.4	17.3	0.00e+00	0	56	0	2104492032	42	4495
2026-01-10 13:48:33.48	296.03	16.66	-36.1	-37.5	17.1	0.00e+00	0	56	0	2109734912	42	4591
2026-01-10 13:48:34.49	296.24	16.62	-36.1	-37.6	17.1	0.00e+00	0	56	0	2116026368	42	4616
2026-01-10 13:48:35.50	296.44	16.57	-36.2	-37.7	17.0	0.00e+00	0	56	0	2121269248	42	4658
2026-01-10 13:48:36.52	296.66	16.53	-36.0	-37.5	17.1	0.00e+00	0	56	0	2126512128	42	4556
2026-01-10 13:48:37.52	296.86	16.49	-36.0	-37.4	17.2	0.00e+00	0	56	0	2132803584	42	4534
2026-01-10 13:48:38.54	297.07	16.44	-36.0	-37.5	17.2	0.00e+00	0	56	0	2138046464	42	4549
2026-01-10 13:48:39.55	297.28	16.40	-36.0	-37.5	17.1	0.00e+00	0	56	0	2144337920	42	4560
2026-01-10 13:48:40.56	297.48	16.35	-36.0	-37.4	17.2	0.00e+00	0	56	0	2149580800	42	4521
2026-01-10 13:48:41.57	297.69	16.31	-36.0	-37.4	17.2	0.00e+00	0	56	0	2154823680	42	4536
2026-01-10 13:48:42.58	297.90	16.26	-36.1	-37.5	17.1	0.00e+00	0	56	0	2161115136	42	4596
2026-01-10 13:48:43.59	298.10	16.22	-36.1	-37.6	17.0	0.00e+00	0	56	0	2166358016	42	4634
2026-01-10 13:48:44.60	298.30	16.17	-36.1	-37.6	17.1	0.00e+00	0	56	0	2172649472	42	4607
2026-01-10 13:48:45.60	298.51	16.13	-36.2	-37.7	17.0	0.00e+00	0	56	0	2177892352	42	4652
2026-01-10 13:48:46.61	298.71	16.08	-36.0	-37.5	17.1	0.00e+00	0	56	0	2184183808	42	4577
2026-01-10 13:48:47.62	298.91	16.03	-36.1	-37.6	17.1	0.00e+00	0	56	0	2189426688	42	4605
2026-01-10 13:48:48.63	299.11	15.99	-36.1	-37.6	17.0	0.00e+00	0	56	0	2195718144	42	4611
2026-01-10 13:48:49.64	299.31	15.94	-36.1	-37.6	17.0	0.00e+00	0	56	0	2200961024	42	4619
2026-01-10 13:48:50.65	299.51	15.89	-36.2	-37.7	16.9	0.00e+00	0	56	0	2206203904	42	4669
2026-01-10 13:48:51.66	299.71	15.85	-36.1	-37.6	17.0	0.00e+00	0	56	0	2212495360	42	4611
2026-01-10 13:48:52.67	299.91	15.80	-36.2	-37.7	16.9	0.00e+00	0	56	0	2217738240	42	4655
2026-01-10 13:48:53.68	300.11	15.75	-36.1	-37.6	17.0	0.00e+00	0	56	0	2224029696	42	4611
2026-01-10 13:48:54.69	300.31	15.70	-36.1	-37.6	17.0	0.00e+00	0	56	0	2229272576	42	4602
2026-01-10 13:48:55.70	300.51	15.65	-36.0	-37.5	17.1	0.00e+00	0	56	0	2234515456	42	4559
2026-01-10 13:48:56.71	300.70	15.61	-36.0	-37.4	17.2	0.00e+00	0	56	0	2240806912	42	4517
2026-01-10 13:48:57.72	300.90	15.56	-36.0	-37.5	17.1	0.00e+00	0	56	0	2246049792	42	4560
2026-01-10 13:48:58.73	301.09	15.51	-36.1	-37.6	17.1	0.00e+00	0	56	0	2252341248	42	4602
2026-01-10 13:48:59.74	301.29	15.46	-36.1	-37.6	17.0	0.00e+00	0	56	0	2257584128	42	4615
2026-01-10 13:49:00.75	301.48	15.41	-36.0	-37.5	17.1	0.00e+00	0	56	0	2262827008	42	4550
2026-01-10 13:49:01.76	301.68	15.36	-36.1	-37.6	17.0	0.00e+00	0	56	0	2269118464	42	4611
2026-01-10 13:49:02.77	301.87	15.31	-36.1	-37.6	17.0	0.00e+00	0	56	0	2274361344	42	4635
2026-01-10 13:49:03.78	302.06	15.26	-36.3	-37.7	16.9	0.00e+00	0	56	0	2280652800	43	4435
2026-01-10 13:49:04.79	302.25	15.21	-36.3	-37.8	16.8	0.00e+00	0	56	0	2285895680	43	4484
2026-01-10 13:49:05.80	302.44	15.16	-36.1	-37.6	17.0	0.00e+00	0	56	0	2292187136	43	4371
2026-01-10 13:49:06.81	302.63	15.11	-36.1	-37.6	17.0	0.00e+00	0	56	0	2297430016	43	4357
2026-01-10 13:49:07.82	302.82	15.06	-36.2	-37.7	16.9	0.00e+00	0	56	0	2302672896	43	4416
2026-01-10 13:49:08.83	303.01	15.01	-36.3	-37.8	16.7	0.00e+00	0	56	0	2308964352	43	4483
2026-01-10 13:49:09.83	303.20	14.96	-36.3	-37.8	16.8	0.00e+00	0	56	0	2314207232	43	4445
2026-01-10 13:49:10.84	303.39	14.91	-36.3	-37.8	16.8	0.00e+00	0	56	0	2320498688	43	4449
2026-01-10 13:49:11.85	303.57	14.85	-36.4	-37.9	16.7	0.00e+00	0	56	0	2325741568	43	4533
2026-01-10 13:49:12.86	303.76	14.80	-36.5	-38.0	16.6	0.00e+00	0	56	0	2330984448	43	4586
2026-01-10 13:49:13.87	303.95	14.75	-36.6	-38.2	16.4	0.00e+00	0	56	0	2337275904	43	4671
2026-01-10 13:49:14.88	304.13	14.70	-36.6	-38.2	16.4	0.00e+00	0	56	0	2342518784	43	4689
2026-01-10 13:49:15.89	304.32	14.65	-36.5	-38.1	16.5	0.00e+00	0	55	0	2348810240	43	4624
2026-01-10 13:49:16.90	304.50	14.60	-36.4	-38.0	16.6	0.00e+00	0	56	0	2354053120	43	4555
2026-01-10 13:49:17.91	304.68	14.54	-36.5	-38.0	16.5	0.00e+00	0	56	0	2359296000	43	4586
2026-01-10 13:49:18.92	304.87	14.49	-36.5	-38.0	16.5	0.00e+00	0	56	0	2365587456	43	4567
2026-01-10 13:49:19.93	305.05	14.44	-36.5	-38.0	16.5	0.00e+00	0	56	0	2370830336	43	4594
2026-01-10 13:49:20.94	305.23	14.39	-36.4	-38.0	16.6	0.00e+00	0	56	0	2377121792	43	4564
2026-01-10 13:49:21.95	305.41	14.33	-36.5	-38.0	16.5	0.00e+00	0	56	0	2382364672	43	4569
2026-01-10 13:49:22.96	305.59	14.28	-36.4	-38.0	16.5	0.00e+00	0	56	0	2388656128	43	4571
2026-01-10 13:49:23.97	305.77	14.23	-36.5	-38.1	16.5	0.00e+00	0	56	0	2393899008	43	4601
2026-01-10 13:49:24.98	305.95	14.17	-36.6	-38.1	16.4	0.00e+00	0	56	0	2400190464	43	4637
2026-01-10 13:49:25.99	306.13	14.12	-36.7	-38.3	16.2	0.00e+00	0	56	0	2405433344	43	4730
2026-01-10 13:49:27.00	306.30	14.07	-36.6	-38.2	16.3	0.00e+00	0	56	0	2410676224	43	4680
2026-01-10 13:49:28.00	306.48	14.01	-36.6	-38.1	16.4	0.00e+00	0	56	0	2416967680	43	4642
2026-01-10 13:49:29.01	306.66	13.96	-36.6	-38.2	16.4	0.00e+00	0	56	0	2422210560	43	4654
2026-01-10 13:49:30.02	306.83	13.90	-36.7	-38.3	16.2	0.00e+00	0	56	0	2427453440	43	4727
2026-01-10 13:49:31.03	307.01	13.85	-36.9	-38.5	16.2	0.00e+00	0	56	0	2433744896	44	4576
2026-01-10 13:49:32.04	307.18	13.80	-37.0	-38.6	16.1	0.00e+00	0	56	0	2438987776	44	4637
2026-01-10 13:49:33.05	307.36	13.74	-37.0	-38.6	16.1	0.00e+00	0	56	0	2445279232	44	4641
2026-01-10 13:49:34.06	307.53	13.69	-37.0	-38.6	16.1	0.00e+00	0	56	0	2450522112	44	4635
2026-01-10 13:49:35.07	307.70	13.63	-36.9	-38.5	16.1	0.00e+00	0	56	0	2455764992	44	4588
2026-01-10 13:49:36.08	307.87	13.58	-37.0	-38.6	16.1	0.00e+00	0	56	0	2462056448	44	4627
2026-01-10 13:49:37.09	308.05	13.52	-37.0	-38.6	16.0	0.00e+00	0	56	0	2467299328	44	4637
2026-01-10 13:49:38.10	308.22	13.47	-37.0	-38.7	16.0	0.00e+00	0	56	0	2473590784	44	4668
2026-01-10 13:49:39.11	308.39	13.41	-37.0	-38.7	16.0	0.00e+00	0	56	0	2478833664	44	4656
2026-01-10 13:49:40.12	308.56	13.36	-37.0	-38.7	16.0	0.00e+00	0	56	0	2485125120	44	4667
2026-01-10 13:49:41.13	308.72	13.30	-37.0	-38.6	16.0	0.00e+00	0	56	0	2490368000	44	4647
2026-01-10 13:49:42.14	308.89	13.25	-37.1	-38.7	15.9	0.00e+00	0	56	0	2496659456	44	4685
2026-01-10 13:49:43.15	309.06	13.19	-37.1	-38.8	15.8	0.00e+00	0	56	0	2501902336	44	4732
2026-01-10 13:49:44.16	309.23	13.14	-37.2	-38.9	15.8	0.00e+00	0	56	0	2507145216	44	4760
2026-01-10 13:49:45.17	309.39	13.08	-37.1	-38.8	15.9	0.00e+00	0	56	0	2513436672	44	4719
2026-01-10 13:49:46.18	309.56	13.02	-37.1	-38.7	16.0	0.00e+00	0	56	0	2518679552	44	4688
2026-01-10 13:49:47.19	309.73	12.97	-37.0	-38.6	16.0	0.00e+00	0	56	0	2524971008	44	4635
2026-01-10 13:49:48.20	309.89	12.91	-37.0	-38.7	15.9	0.00e+00	0	56	0	2530213888	44	4673
2026-01-10 13:49:49.21	310.05	12.86	-37.1	-38.8	15.9	0.00e+00	0	56	0	2535456768	44	4723
2026-01-10 13:49:50.22	310.22	12.80	-36.9	-38.5	16.1	0.00e+00	0	56	0	2541748224	44	4586
2026-01-10 13:49:51.23	310.38	12.74	-36.9	-38.5	16.2	0.00e+00	0	56	0	2546991104	44	4562
2026-01-10 13:49:52.24	310.54	12.69	-36.9	-38.5	16.1	0.00e+00	0	56	0	2553282560	44	4562
2026-01-10 13:49:53.25	310.70	12.63	-36.8	-38.4	16.2	0.00e+00	0	56	0	2558525440	44	4544
2026-01-10 13:49:54.26	310.87	12.58	-36.9	-38.5	16.1	0.00e+00	0	56	0	2563768320	44	4592
2026-01-10 13:49:55.27	311.03	12.52	-36.9	-38.6	16.1	0.00e+00	0	56	0	2570059776	44	4614
2026-01-10 13:49:56.28	311.19	12.46	-37.1	-38.8	15.8	0.00e+00	0	56	0	2575302656	44	4717
2026-01-10 13:49:57.29	311.35	12.41	-37.2	-38.9	15.7	0.00e+00	0	56	0	2581594112	44	4777
2026-01-10 13:49:58.30	311.50	12.35	-37.2	-38.9	15.7	0.00e+00	0	56	0	2586836992	44	4782
2026-01-10 13:49:59.31	311.66	12.29	-37.3	-39.0	15.6	0.00e+00	0	56	0	2593128448	45	4559
2026-01-10 13:50:00.31	311.82	12.24	-37.2	-38.9	15.7	0.00e+00	0	56	0	2598371328	45	4534
2026-01-10 13:50:01.33	311.98	12.18	-37.2	-38.9	15.7	0.00e+00	0	56	0	2603614208	45	4508
2026-01-10 13:50:02.34	312.13	12.12	-37.1	-38.8	15.8	0.00e+00	0	56	0	2609905664	45	4468
2026-01-10 13:50:03.35	312.29	12.07	-37.1	-38.7	15.8	0.00e+00	0	56	0	2615148544	45	4432
2026-01-10 13:50:04.36	312.44	12.01	-37.1	-38.7	15.9	0.00e+00	0	56	0	2621440000	45	4427
2026-01-10 13:50:05.37	312.60	11.95	-37.2	-38.9	15.7	0.00e+00	0	56	0	2626682880	45	4500
2026-01-10 13:50:06.38	312.75	11.89	-37.2	-38.9	15.7	0.00e+00	0	56	0	2632974336	45	4526
2026-01-10 13:50:07.39	312.91	11.84	-37.1	-38.8	15.8	0.00e+00	0	56	0	2638217216	45	4452
2026-01-10 13:50:08.40	313.06	11.78	-37.2	-38.8	15.7	0.00e+00	0	56	0	2643460096	45	4480
2026-01-10 13:50:09.41	313.21	11.72	-37.2	-38.9	15.6	0.00e+00	0	56	0	2649751552	45	4527
2026-01-10 13:50:10.42	313.36	11.67	-37.2	-39.0	15.6	0.00e+00	0	56	0	2654994432	45	4546
2026-01-10 13:50:11.43	313.51	11.61	-37.4	-39.1	15.4	0.00e+00	0	56	0	2660237312	45	4651
2026-01-10 13:50:12.44	313.66	11.55	-37.5	-39.3	15.3	0.00e+00	0	56	0	2666528768	45	4727
2026-01-10 13:50:13.45	313.81	11.49	-37.5	-39.3	15.2	0.00e+00	0	56	0	2671771648	45	4746
2026-01-10 13:50:14.46	313.96	11.44	-37.5	-39.3	15.2	0.00e+00	0	56	0	2678063104	45	4751
2026-01-10 13:50:15.47	314.11	11.38	-37.5	-39.4	15.2	0.00e+00	0	56	0	2683305984	45	4761
2026-01-10 13:50:16.48	314.26	11.32	-37.3	-39.1	15.4	0.00e+00	0	56	0	2689597440	45	4621
2026-01-10 13:50:17.49	314.41	11.26	-37.4	-39.1	15.4	0.00e+00	0	56	0	2694840320	45	4633
2026-01-10 13:50:18.50	314.56	11.21	-37.4	-39.1	15.4	0.00e+00	0	56	0	2701131776	45	4627
2026-01-10 13:50:19.51	314.70	11.15	-37.4	-39.2	15.3	0.00e+00	0	56	0	2706374656	45	4666
2026-01-10 13:50:20.52	314.85	11.09	-37.4	-39.2	15.3	0.00e+00	0	56	0	2711617536	45	4671
2026-01-10 13:50:21.53	314.99	11.03	-37.6	-39.3	15.2	0.00e+00	0	56	0	2717908992	45	4757
2026-01-10 13:50:22.54	315.14	10.98	-37.6	-39.4	15.2	1.10e-06	0	56	0	2723151872	45	4773
2026-01-10 13:50:23.55	315.28	10.92	-37.6	-39.4	15.1	0.00e+00	0	56	0	2729443328	45	4788
2026-01-10 13:50:24.56	315.43	10.86	-37.5	-39.2	15.3	0.00e+00	0	56	0	2734686208	45	4704
2026-01-10 13:50:25.57	315.57	10.80	-37.4	-39.1	15.4	0.00e+00	0	56	0	2739929088	45	4647
2026-01-10 13:50:26.58	315.71	10.74	-37.5	-39.3	15.3	0.00e+00	0	56	0	2746220544	45	4717
2026-01-10 13:50:27.59	315.85	10.69	-37.5	-39.2	15.3	0.00e+00	0	56	0	2751463424	45	4700
2026-01-10 13:50:28.60	316.00	10.63	-37.6	-39.4	15.2	0.00e+00	0	56	0	2757754880	45	4767
2026-01-10 13:50:29.61	316.14	10.57	-37.6	-39.4	15.0	0.00e+00	0	56	0	2762997760	45	4814
2026-01-10 13:50:30.62	316.28	10.51	-37.7	-39.5	15.0	0.00e+00	0	56	0	2768240640	45	4844
2026-01-10 13:50:31.62	316.42	10.46	-37.8	-39.6	14.9	0.00e+00	0	56	0	2774532096	46	4632
2026-01-10 13:50:32.63	316.56	10.40	-37.7	-39.6	14.9	0.00e+00	0	56	0	2779774976	46	4620
2026-01-10 13:50:33.64	316.69	10.34	-37.5	-39.3	15.2	0.00e+00	0	56	0	2786066432	46	4484
2026-01-10 13:50:34.65	316.83	10.28	-37.7	-39.5	15.0	1.10e-06	0	56	0	2791309312	46	4591
2026-01-10 13:50:35.66	316.97	10.22	-37.5	-39.3	15.2	0.00e+00	0	56	0	2797600768	46	4463
2026-01-10 13:50:36.67	317.11	10.17	-37.4	-39.2	15.3	0.00e+00	0	56	0	2802843648	46	4404
2026-01-10 13:50:37.68	317.25	10.11	-37.4	-39.2	15.3	0.00e+00	0	56	0	2809135104	46	4411
2026-01-10 13:50:38.69	317.38	10.05	-37.4	-39.2	15.3	0.00e+00	0	56	0	2814377984	46	4409
2026-01-10 13:50:39.70	317.52	9.99	-37.4	-39.1	15.4	0.00e+00	0	56	0	2819620864	46	4364
2026-01-10 13:50:40.72	317.65	9.93	-37.4	-39.2	15.4	0.00e+00	0	56	0	2825912320	46	4402
2026-01-10 13:50:41.73	317.79	9.88	-37.5	-39.3	15.3	0.00e+00	0	56	0	2831155200	46	4444
2026-01-10 13:50:42.74	317.92	9.82	-37.4	-39.1	15.4	0.00e+00	0	56	0	2837446656	46	4381
2026-01-10 13:50:43.75	318.06	9.76	-37.5	-39.3	15.3	1.10e-06	0	56	0	2842689536	46	4447
2026-01-10 13:50:44.76	318.19	9.70	-37.6	-39.4	15.1	0.00e+00	0	56	0	2847932416	46	4512
2026-01-10 13:50:45.77	318.32	9.65	-37.7	-39.5	14.9	0.00e+00	0	56	0	2854223872	46	4595
2026-01-10 13:50:46.78	318.45	9.59	-37.8	-39.7	14.8	0.00e+00	0	56	0	2859466752	46	4659
2026-01-10 13:50:47.79	318.59	9.53	-37.8	-39.7	14.8	0.00e+00	0	56	0	2865758208	46	4675
2026-01-10 13:50:48.79	318.72	9.47	-37.8	-39.6	14.8	1.10e-06	0	56	0	2871001088	46	4644
2026-01-10 13:50:49.80	318.85	9.41	-37.7	-39.5	15.0	0.00e+00	0	56	0	2876243968	46	4577
2026-01-10 13:50:50.81	318.98	9.36	-37.8	-39.7	14.8	0.00e+00	0	56	0	2882535424	46	4666
2026-01-10 13:50:51.82	319.11	9.30	-37.7	-39.5	14.9	1.10e-06	0	56	0	2887778304	46	4580
2026-01-10 13:50:52.83	319.24	9.24	-37.8	-39.7	14.7	0.00e+00	0	56	0	2894069760	46	4688
2026-01-10 13:50:53.84	319.36	9.18	-38.0	-39.9	14.6	0.00e+00	0	56	0	2899312640	46	4768
2026-01-10 13:50:54.85	319.49	9.13	-38.0	-39.9	14.5	0.00e+00	0	56	0	2905604096	46	4806
2026-01-10 13:50:55.86	319.62	9.07	-38.0	-39.9	14.5	1.10e-06	0	56	0	2910846976	46	4788
2026-01-10 13:50:56.87	319.75	9.01	-38.1	-40.0	14.4	4.50e-06	0	56	0	2916089856	46	4853
2026-01-10 13:50:57.87	319.87	8.95	-38.1	-40.2	14.3	3.40e-06	0	56	0	2922381312	46	4932
2026-01-10 13:50:58.88	320.00	8.90	-38.2	-40.3	14.1	1.10e-06	0	56	0	2927624192	47	4715
2026-01-10 13:50:59.90	320.13	8.84	-38.2	-40.2	14.2	3.40e-06	0	56	0	2933915648	47	4664
2026-01-10 13:51:00.91	320.25	8.78	-38.0	-40.0	14.4	1.10e-06	0	56	0	2939158528	47	4551
2026-01-10 13:51:01.91	320.38	8.72	-38.1	-40.1	14.3	2.20e-06	0	56	0	2944401408	47	4627
2026-01-10 13:51:02.92	320.50	8.66	-38.1	-40.0	14.4	3.40e-06	0	56	0	2950692864	47	4594
2026-01-10 13:51:03.94	320.63	8.61	-38.0	-39.9	14.5	1.10e-06	0	56	0	2955935744	47	4533
2026-01-10 13:51:04.95	320.75	8.55	-38.1	-40.0	14.3	3.40e-06	0	56	0	2962227200	47	4591
2026-01-10 13:51:05.96	320.87	8.49	-38.1	-40.0	14.3	2.20e-06	0	56	0	2967470080	47	4579
2026-01-10 13:51:06.96	320.99	8.43	-38.2	-40.2	14.2	3.40e-06	0	56	0	2972712960	47	4661
2026-01-10 13:51:07.97	321.11	8.38	-38.2	-40.3	14.1	2.20e-06	0	56	0	2979004416	47	4712
2026-01-10 13:51:08.98	321.24	8.32	-38.1	-40.0	14.3	2.20e-06	0	56	0	2984247296	47	4593
2026-01-10 13:51:09.99	321.36	8.26	-38.0	-40.0	14.3	0.00e+00	0	56	0	2990538752	47	4571
2026-01-10 13:51:11.00	321.48	8.20	-38.2	-40.2	14.2	2.20e-06	0	56	0	2995781632	47	4668
2026-01-10 13:51:12.01	321.60	8.15	-38.1	-40.1	14.3	1.10e-06	0	56	0	3002073088	47	4599
2026-01-10 13:51:13.02	321.72	8.09	-38.1	-40.0	14.3	5.70e-06	0	56	0	3007315968	47	4591
2026-01-10 13:51:14.03	321.84	8.03	-38.1	-40.1	14.2	2.20e-06	0	56	0	3013607424	47	4610
2026-01-10 13:51:15.04	321.96	7.97	-44.1	-54.2	3.8	7.34e-01	0	56	104	3016753152	58	12516
2026-01-10 13:51:16.05	322.07	7.92	-44.5	-55.5	3.8	8.46e-01	0	56	104	3016753152	59	13651
2026-01-10 13:51:17.06	322.19	7.86	-44.7	-56.3	3.8	8.47e-01	0	56	104	3016753152	59	14904
2026-01-10 13:51:18.07	322.31	7.80	-44.8	-56.6	3.8	8.48e-01	0	56	104	3016753152	60	14543
2026-01-10 13:51:19.08	322.43	7.74	-44.9	-56.7	3.8	8.46e-01	0	56	104	3016753152	60	14805
2026-01-10 13:51:20.09	322.54	7.69	-45.0	-56.8	3.8	8.45e-01	0	56	104	3016753152	60	14926
2026-01-10 13:51:21.10	322.66	7.63	-45.0	-56.9	3.8	8.46e-01	0	56	104	3016753152	60	15065
2026-01-10 13:51:22.11	322.78	7.57	-45.0	-56.9	3.8	8.46e-01	0	56	104	3016753152	60	15057
2026-01-10 13:51:23.12	322.89	7.52	-37.1	-52.6	3.6	8.47e-01	0	56	104	3016753152	45	21954
2026-01-10 13:51:24.13	323.01	7.46	-45.1	-56.9	3.8	8.46e-01	0	56	104	3016753152	60	15163
2026-01-10 13:51:25.14	323.12	7.40	-45.0	-56.9	3.8	8.46e-01	0	56	104	3016753152	60	15055
2026-01-10 13:51:26.15	323.23	7.35	-45.0	-56.9	3.8	8.44e-01	0	56	104	3016753152	60	15089
2026-01-10 13:51:27.17	323.35	7.29	-45.0	-56.8	3.8	8.46e-01	0	56	104	3016753152	60	14978
2026-01-10 13:51:28.18	323.46	7.23	-45.0	-56.8	3.8	8.46e-01	0	56	104	3016753152	60	14978
2026-01-10 13:51:29.19	323.57	7.17	-45.0	-56.8	3.8	8.46e-01	0	56	104	3016753152	60	14993
2026-01-10 13:51:30.20	323.69	7.12	-44.9	-56.8	3.8	8.45e-01	0	56	104	3016753152	60	15008
2026-01-10 13:51:31.21	323.80	7.06	-45.0	-56.8	3.8	8.46e-01	0	56	104	3016753152	60	14932
2026-01-10 13:51:32.22	323.91	7.00	-45.0	-56.8	3.8	8.47e-01	0	56	104	3016753152	60	14951
2026-01-10 13:51:33.23	324.02	6.95	-45.0	-56.8	3.8	8.46e-01	0	56	104	3016753152	60	14958
2026-01-10 13:51:34.24	324.13	6.89	-45.0	-56.8	3.8	8.46e-01	0	56	104	3016753152	60	14937
2026-01-10 13:51:35.25	324.24	6.83	-45.0	-56.8	3.8	8.46e-01	0	56	104	3016753152	60	14947
2026-01-10 13:51:36.26	324.35	6.78	-44.9	-56.8	3.8	8.46e-01	0	56	104	3016753152	60	14982
2026-01-10 13:51:37.27	324.46	6.72	-44.9	-56.8	3.8	8.46e-01	0	56	104	3016753152	60	14886
2026-01-10 13:51:38.28	324.57	6.66	-44.9	-56.8	3.8	8.46e-01	0	56	104	3016753152	60	14921
2026-01-10 13:51:39.29	324.68	6.61	-44.9	-56.8	3.8	8.46e-01	0	56	104	3016753152	60	14895
2026-01-10 13:51:40.30	324.79	6.55	-44.8	-56.8	3.8	8.46e-01	0	56	104	3016753152	60	14918
2026-01-10 13:51:41.31	324.89	6.49	-44.9	-56.8	3.8	8.45e-01	0	56	104	3016753152	60	14904
2026-01-10 13:51:42.32	325.00	6.44	-44.9	-56.8	3.8	8.47e-01	0	56	104	3016753152	60	14880
2026-01-10 13:51:43.33	325.11	6.38	-44.9	-56.8	3.8	8.47e-01	0	56	104	3016753152	60	14915
2026-01-10 13:51:44.34	325.22	6.32	-44.9	-56.8	3.8	8.46e-01	0	56	104	3016753152	60	14922
2026-01-10 13:51:45.35	325.32	6.27	-44.9	-56.8	3.8	8.46e-01	0	56	104	3016753152	60	14925
2026-01-10 13:51:46.37	325.43	6.21	-44.9	-56.8	3.8	8.46e-01	0	56	104	3016753152	60	14922
2026-01-10 13:51:47.38	325.53	6.16	-44.9	-56.8	3.8	8.46e-01	0	56	104	3016753152	60	14903
2026-01-10 13:51:48.39	325.64	6.10	-44.9	-56.8	3.8	8.46e-01	0	56	104	3016753152	60	14899
2026-01-10 13:51:49.40	325.74	6.04	-44.9	-56.8	3.8	8.46e-01	0	56	104	3016753152	60	14917
2026-01-10 13:51:50.41	325.85	5.99	-44.9	-56.8	3.8	8.46e-01	0	56	104	3016753152	60	14927
2026-01-10 13:51:51.42	325.95	5.93	-44.9	-56.8	3.8	8.46e-01	0	56	104	3016753152	60	14956
2026-01-10 13:51:52.43	326.06	5.87	-44.9	-56.8	3.8	8.47e-01	0	56	104	3016753152	60	14900
2026-01-10 13:51:53.44	326.16	5.82	-44.9	-56.8	3.8	8.46e-01	0	56	104	3016753152	60	14905
2026-01-10 13:51:54.46	326.26	5.76	-44.9	-56.8	3.8	8.45e-01	0	56	104	3016753152	60	14922
2026-01-10 13:51:55.47	326.36	5.71	-44.9	-56.7	3.8	8.46e-01	0	56	104	3016753152	60	14868
2026-01-10 13:51:56.48	326.47	5.65	-44.9	-56.8	3.8	8.46e-01	0	56	104	3016753152	60	14915
2026-01-10 13:51:57.49	326.57	5.60	-44.9	-56.8	3.8	8.45e-01	0	56	104	3016753152	60	14883
2026-01-10 13:51:58.50	326.67	5.54	-44.9	-56.8	3.8	8.47e-01	0	56	104	3016753152	60	14917
2026-01-10 13:51:59.51	326.77	5.48	-44.9	-56.7	3.8	8.45e-01	0	56	104	3016753152	60	14825
2026-01-10 13:52:00.52	326.87	5.43	-44.9	-56.7	3.8	8.47e-01	0	56	104	3016753152	60	14846
2026-01-10 13:52:01.53	326.97	5.37	-44.9	-56.8	3.8	8.47e-01	0	56	104	3016753152	60	14911
2026-01-10 13:52:02.54	327.07	5.32	-44.9	-56.8	3.8	8.46e-01	0	56	104	3016753152	60	14900
2026-01-10 13:52:03.55	327.17	5.26	-44.9	-56.8	3.8	8.47e-01	0	56	104	3016753152	60	14899
2026-01-10 13:52:04.57	327.27	5.21	-44.9	-56.8	3.8	8.46e-01	0	56	104	3016753152	60	14884
2026-01-10 13:52:05.58	327.37	5.15	-44.9	-56.7	3.8	8.46e-01	0	56	104	3016753152	60	14834
2026-01-10 13:52:06.59	327.47	5.10	-44.9	-56.7	3.8	8.46e-01	0	56	104	3016753152	60	14876
2026-01-10 13:52:07.60	327.57	5.04	-44.9	-56.8	3.8	8.46e-01	0	56	104	3016753152	60	14890
2026-01-10 13:52:08.61	327.66	4.98	-44.9	-56.8	3.8	8.45e-01	0	56	104	3016753152	60	14899
2026-01-10 13:52:09.62	327.76	4.93	-44.9	-56.8	3.8	8.46e-01	0	56	104	3016753152	60	14904
2026-01-10 13:52:10.63	327.86	4.87	-44.9	-56.8	3.8	8.47e-01	0	56	104	3016753152	60	14911
2026-01-10 13:52:11.64	327.95	4.82	-44.9	-56.8	3.8	8.46e-01	0	56	104	3016753152	60	14893
2026-01-10 13:52:12.65	328.05	4.76	-44.9	-56.7	3.8	8.47e-01	0	56	104	3016753152	60	14860
2026-01-10 13:52:13.66	328.15	4.71	-44.9	-56.8	3.8	8.45e-01	0	56	104	3016753152	60	14911
2026-01-10 13:52:14.68	328.24	4.65	-44.9	-56.8	3.8	8.46e-01	0	56	104	3016753152	60	14914
2026-01-10 13:52:15.69	328.34	4.60	-44.9	-56.8	3.8	8.45e-01	0	56	104	3016753152	60	14934
2026-01-10 13:52:16.70	328.43	4.54	-44.9	-56.8	3.8	8.46e-01	0	56	104	3016753152	60	14895
2026-01-10 13:52:17.71	328.53	4.49	-44.9	-56.8	3.8	8.45e-01	0	56	104	3016753152	60	14893
2026-01-10 13:52:18.72	328.62	4.43	-44.9	-56.7	3.8	8.47e-01	0	56	104	3016753152	60	14854
