passes_logs/2026/01/10/R2.0S_Moscow/R2.0S_Moscow__20260110_230911_SUOMI_NPP_rec.log

#Pass ID: 20260110_230911_SUOMI NPP
#Satellite: SUOMI NPP
#Configuration: NPP
#almurnet v.1.7.20251203
#Start time: 2026-01-10 23:09:11

#Version: 2.2.20231116
#Station: R2.0S_Moscow
#Location: 37.707566 lon 55.798166 lat
#TLE: 1 37849U 11061A   26009.81756760  .00000113  00000+0  74747-4 0  9994
#TLE: 2 37849  98.7806 311.9110 0002525  72.5604 287.5848 14.19524046735974

#Time	Az	El	Level	Level2	SNR	BER	BlckErr	Temp	State	Recorded	gain1	gain2
2026-01-10 23:09:11.59	19.14	2.03	-41.4	-56.1	3.8	1.49e+00	0	47	0	0	54	19585
2026-01-10 23:09:12.59	19.17	2.09	-41.3	-56.1	3.8	1.49e+00	0	47	104	0	54	19562
2026-01-10 23:09:13.60	19.20	2.16	-41.3	-56.1	3.8	1.49e+00	0	47	104	0	54	19511
2026-01-10 23:09:14.61	19.24	2.22	-41.3	-56.1	3.8	1.49e+00	0	47	104	0	54	19564
2026-01-10 23:09:15.62	19.27	2.28	-41.3	-56.1	3.8	1.49e+00	0	47	104	0	54	19553
2026-01-10 23:09:16.63	19.30	2.35	-41.3	-56.1	3.8	1.49e+00	0	47	104	0	54	19523
2026-01-10 23:09:17.64	19.33	2.41	-41.3	-56.1	3.8	1.49e+00	0	47	104	0	54	19507
2026-01-10 23:09:18.65	19.36	2.47	-41.3	-56.1	3.8	1.49e+00	0	47	104	0	54	19519
2026-01-10 23:09:19.66	19.39	2.54	-41.3	-56.1	3.8	1.49e+00	0	48	104	0	54	19558
2026-01-10 23:09:20.67	19.42	2.60	-41.3	-56.1	3.8	1.49e+00	0	47	104	0	54	19499
2026-01-10 23:09:21.68	19.46	2.67	-41.4	-56.1	3.8	1.49e+00	0	48	104	0	54	19611
2026-01-10 23:09:22.70	19.49	2.73	-41.3	-56.1	3.8	1.49e+00	0	48	104	0	54	19500
2026-01-10 23:09:23.71	19.52	2.80	-41.3	-56.1	3.8	1.49e+00	0	48	104	0	54	19525
2026-01-10 23:09:24.72	19.55	2.86	-41.3	-56.1	3.8	1.49e+00	0	48	104	0	54	19559
2026-01-10 23:09:25.73	19.58	2.92	-41.3	-56.1	3.8	1.49e+00	0	48	104	0	54	19581
2026-01-10 23:09:26.74	19.62	2.99	-41.3	-56.1	3.8	1.49e+00	0	48	104	0	54	19517
2026-01-10 23:09:27.75	19.65	3.05	-41.3	-56.1	3.8	1.49e+00	0	48	104	0	54	19539
2026-01-10 23:09:28.76	19.68	3.12	-41.3	-56.1	3.8	1.49e+00	0	48	104	0	54	19510
2026-01-10 23:09:29.77	19.71	3.19	-41.3	-56.1	3.8	1.49e+00	0	48	104	0	54	19531
2026-01-10 23:09:30.79	19.75	3.25	-41.3	-56.1	3.8	1.49e+00	0	48	104	0	54	19542
2026-01-10 23:09:31.80	19.78	3.32	-41.3	-56.1	3.8	1.49e+00	0	48	104	0	54	19572
2026-01-10 23:09:32.81	19.81	3.38	-41.3	-56.1	3.8	1.49e+00	0	49	104	0	54	19542
2026-01-10 23:09:33.82	19.85	3.45	-41.3	-56.1	3.8	1.49e+00	0	49	104	0	54	19508
2026-01-10 23:09:34.83	19.88	3.51	-41.3	-56.1	3.8	1.49e+00	0	49	104	0	54	19520
2026-01-10 23:09:35.84	19.91	3.58	-41.3	-56.1	3.8	1.49e+00	0	49	104	0	54	19570
2026-01-10 23:09:36.85	19.95	3.65	-41.3	-56.1	3.8	1.49e+00	0	49	104	0	54	19533
2026-01-10 23:09:37.86	19.98	3.71	-41.3	-56.1	3.8	1.49e+00	0	49	104	0	54	19476
2026-01-10 23:09:38.87	20.02	3.78	-41.3	-56.1	3.8	1.49e+00	0	49	104	0	54	19536
2026-01-10 23:09:39.88	20.05	3.85	-41.3	-56.1	3.8	1.49e+00	0	49	104	0	54	19559
2026-01-10 23:09:40.89	20.08	3.91	-41.3	-56.1	3.8	1.49e+00	0	49	104	0	54	19535
2026-01-10 23:09:41.90	20.12	3.98	-41.3	-56.1	3.8	1.49e+00	0	49	104	0	54	19507
2026-01-10 23:09:42.91	20.15	4.05	-41.3	-56.1	3.8	1.49e+00	0	49	104	0	54	19576
2026-01-10 23:09:43.93	20.19	4.12	-41.3	-56.1	3.8	1.49e+00	0	49	104	0	54	19532
2026-01-10 23:09:44.94	20.22	4.18	-41.3	-56.1	3.8	1.49e+00	0	49	104	0	54	19504
2026-01-10 23:09:45.95	20.26	4.25	-41.3	-56.1	3.8	1.49e+00	0	49	104	0	54	19462
2026-01-10 23:09:46.96	20.29	4.32	-41.3	-56.1	3.8	1.49e+00	0	49	104	0	54	19528
2026-01-10 23:09:47.97	20.33	4.39	-41.3	-56.1	3.8	1.49e+00	0	49	104	0	54	19556
2026-01-10 23:09:48.98	20.36	4.46	-41.3	-56.1	3.8	1.49e+00	0	50	104	0	54	19516
2026-01-10 23:09:49.99	20.40	4.53	-41.3	-56.1	3.8	1.49e+00	0	49	104	0	54	19542
2026-01-10 23:09:51.00	20.43	4.59	-41.3	-56.1	3.8	1.49e+00	0	50	104	0	54	19511
2026-01-10 23:09:52.01	20.47	4.66	-41.3	-56.1	3.8	1.49e+00	0	50	104	0	54	19523
2026-01-10 23:09:53.02	20.51	4.73	-41.3	-56.1	3.8	1.49e+00	0	50	104	0	54	19488
2026-01-10 23:09:54.04	20.54	4.80	-41.3	-56.1	3.8	1.49e+00	0	50	104	0	54	19532
2026-01-10 23:09:55.05	20.58	4.87	-41.3	-56.1	3.8	1.49e+00	0	50	104	0	54	19514
2026-01-10 23:09:56.06	20.61	4.94	-41.3	-56.1	3.8	1.49e+00	0	50	104	0	54	19499
2026-01-10 23:09:57.07	20.65	5.01	-41.3	-56.1	3.8	1.49e+00	0	50	104	0	54	19493
2026-01-10 23:09:58.08	20.69	5.08	-41.3	-56.1	3.8	1.49e+00	0	50	104	0	54	19484
2026-01-10 23:09:59.09	20.72	5.15	-41.3	-56.1	3.8	1.49e+00	0	50	104	0	54	19497
2026-01-10 23:10:00.10	20.76	5.22	-41.3	-56.1	3.8	1.49e+00	0	50	104	0	54	19439
2026-01-10 23:10:01.11	20.80	5.29	-41.3	-56.1	3.8	1.49e+00	0	50	104	0	54	19521
2026-01-10 23:10:02.12	20.84	5.36	-41.3	-56.1	3.8	1.49e+00	0	50	104	0	54	19522
2026-01-10 23:10:03.14	20.87	5.43	-41.3	-56.1	3.8	1.49e+00	0	50	104	0	54	19503
2026-01-10 23:10:04.15	20.91	5.50	-41.3	-56.1	3.8	1.49e+00	0	50	104	0	54	19500
2026-01-10 23:10:05.16	20.95	5.57	-41.3	-56.1	3.8	1.49e+00	0	50	104	0	54	19479
2026-01-10 23:10:06.17	20.99	5.65	-41.3	-56.1	3.8	1.49e+00	0	50	104	0	54	19521
2026-01-10 23:10:07.18	21.03	5.72	-41.3	-56.1	3.8	1.49e+00	0	50	104	0	54	19541
2026-01-10 23:10:08.19	21.06	5.79	-41.3	-56.1	3.8	1.49e+00	0	50	104	0	54	19449
2026-01-10 23:10:09.20	21.10	5.86	-41.3	-56.1	3.8	1.49e+00	0	50	104	0	54	19466
2026-01-10 23:10:10.21	21.14	5.93	-41.3	-56.1	3.8	1.49e+00	0	51	104	0	54	19518
2026-01-10 23:10:11.22	21.18	6.01	-41.3	-56.1	3.8	1.49e+00	0	51	104	0	54	19458
2026-01-10 23:10:12.23	21.22	6.08	-41.3	-56.1	3.8	1.49e+00	0	51	104	0	54	19513
2026-01-10 23:10:13.24	21.26	6.15	-41.3	-56.1	3.8	1.49e+00	0	51	104	0	54	19492
2026-01-10 23:10:14.25	21.30	6.22	-41.3	-56.1	3.8	1.49e+00	0	51	104	0	54	19500
2026-01-10 23:10:15.27	21.34	6.30	-41.3	-56.1	3.8	1.49e+00	0	51	104	0	54	19489
2026-01-10 23:10:16.28	21.38	6.37	-41.3	-56.1	3.8	1.49e+00	0	51	104	0	54	19463
2026-01-10 23:10:17.29	21.42	6.44	-41.3	-56.1	3.8	1.49e+00	0	51	104	0	54	19423
2026-01-10 23:10:18.30	21.46	6.52	-41.3	-56.1	3.8	1.49e+00	0	51	104	0	54	19498
2026-01-10 23:10:19.31	21.50	6.59	-41.3	-56.1	3.8	1.49e+00	0	51	104	0	54	19430
2026-01-10 23:10:20.32	21.54	6.66	-41.3	-56.1	3.8	1.49e+00	0	51	104	0	54	19533
2026-01-10 23:10:21.33	21.58	6.74	-41.3	-56.1	3.8	1.49e+00	0	51	104	0	54	19512
2026-01-10 23:10:22.34	21.62	6.81	-41.3	-56.1	3.8	1.49e+00	0	51	104	0	54	19466
2026-01-10 23:10:23.35	21.66	6.89	-41.3	-56.1	3.8	1.49e+00	0	51	104	0	54	19397
2026-01-10 23:10:24.36	21.70	6.96	-41.3	-56.0	3.8	1.49e+00	0	51	104	0	54	19355
2026-01-10 23:10:25.37	21.74	7.04	-41.3	-56.0	3.8	1.49e+00	0	51	104	0	54	19289
2026-01-10 23:10:26.39	21.78	7.11	-41.3	-55.9	3.8	1.49e+00	0	52	104	0	54	19051
2026-01-10 23:10:27.40	21.82	7.19	-41.3	-55.7	3.8	1.49e+00	0	51	104	0	54	18679
2026-01-10 23:10:28.41	21.87	7.27	-41.3	-55.7	3.8	1.49e+00	0	51	104	0	54	18595
2026-01-10 23:10:29.42	21.91	7.34	-41.3	-55.8	3.8	1.49e+00	0	51	104	0	54	18785
2026-01-10 23:10:30.43	21.95	7.42	-41.3	-55.8	3.8	1.49e+00	0	51	104	0	54	18902
2026-01-10 23:10:31.44	21.99	7.49	-41.3	-55.7	3.8	1.49e+00	0	52	104	0	54	18661
2026-01-10 23:10:32.45	22.04	7.57	-41.3	-55.5	3.8	1.49e+00	0	52	104	0	54	18159
2026-01-10 23:10:33.46	22.08	7.65	-41.3	-55.1	3.8	1.49e+00	0	52	104	0	54	17361
2026-01-10 23:10:34.48	22.12	7.72	-41.2	-54.4	3.8	1.49e+00	0	52	104	0	54	16112
2026-01-10 23:10:35.49	22.17	7.80	-41.1	-53.0	4.1	1.49e+00	0	52	0	0	54	13634
2026-01-10 23:10:36.50	22.21	7.88	-41.0	-51.5	4.5	1.39e+00	0	52	0	0	54	11434
2026-01-10 23:10:37.51	22.25	7.96	-40.9	-50.6	5.0	7.72e-01	0	52	0	2097152	53	10916
2026-01-10 23:10:38.52	22.30	8.03	-40.8	-49.7	5.5	5.55e-01	0	52	0	4194304	53	9932
2026-01-10 23:10:39.53	22.34	8.11	-40.9	-49.7	5.6	5.07e-01	0	52	0	5242880	53	9938
2026-01-10 23:10:40.54	22.38	8.19	-41.1	-53.4	4.0	7.31e-01	0	52	0	7340032	53	15160
2026-01-10 23:10:41.55	22.43	8.27	-40.7	-47.9	4.8	1.49e+00	0	52	104	7340032	53	8068
2026-01-10 23:10:42.56	22.47	8.35	-41.7	-47.7	8.9	6.73e-03	0	52	0	8388608	53	7863
2026-01-10 23:10:43.57	22.52	8.43	-40.3	-44.9	11.1	2.30e-01	0	52	0	9437184	52	5999
2026-01-10 23:10:44.58	22.56	8.51	-40.2	-45.5	9.8	8.04e-02	0	52	0	11534336	52	6478
2026-01-10 23:10:45.59	22.61	8.59	-40.2	-44.5	11.6	1.17e-03	0	52	0	13631488	52	5723
2026-01-10 23:10:46.60	22.66	8.67	-40.4	-44.9	11.2	1.00e-03	0	52	0	15728640	52	6034
2026-01-10 23:10:47.61	22.70	8.75	-40.8	-45.6	10.7	2.45e-03	0	52	0	17825792	52	6499
2026-01-10 23:10:48.62	22.75	8.83	-40.9	-45.8	10.4	4.02e-03	0	52	0	18874368	52	6715
2026-01-10 23:10:49.63	22.79	8.91	-40.8	-45.4	11.0	3.70e-03	0	52	0	20971520	52	6356
2026-01-10 23:10:50.64	22.84	8.99	-40.8	-45.3	11.1	1.69e-03	0	52	0	23068672	52	6304
2026-01-10 23:10:51.65	22.89	9.07	-40.9	-45.4	11.0	1.03e-03	0	52	0	25165824	52	6401
2026-01-10 23:10:52.66	22.93	9.15	-40.8	-45.2	11.3	1.20e-03	0	52	0	27262976	52	6242
2026-01-10 23:10:53.67	22.98	9.23	-40.9	-45.5	11.0	2.05e-03	0	52	0	28311552	52	6449
2026-01-10 23:10:54.68	23.03	9.31	-40.7	-45.0	11.5	1.21e-03	0	52	0	30408704	52	6097
2026-01-10 23:10:55.69	23.08	9.40	-41.0	-45.5	11.1	1.29e-03	0	52	0	32505856	52	6448
2026-01-10 23:10:56.70	23.12	9.48	-40.9	-45.3	11.3	1.47e-03	0	52	0	34603008	52	6345
2026-01-10 23:10:57.71	23.17	9.56	-41.0	-45.4	11.2	1.36e-03	0	52	0	36700160	52	6401
2026-01-10 23:10:58.72	23.22	9.64	-41.0	-45.5	11.2	1.05e-03	0	52	0	37748736	52	6429
2026-01-10 23:10:59.73	23.27	9.73	-40.9	-45.1	11.6	8.06e-04	0	53	0	39845888	52	6165
2026-01-10 23:11:00.74	23.32	9.81	-41.0	-45.4	11.3	1.05e-03	0	53	0	41943040	52	6352
2026-01-10 23:11:01.75	23.37	9.89	-41.0	-45.3	11.4	1.02e-03	0	53	0	44040192	52	6283
2026-01-10 23:11:02.76	23.42	9.98	-41.1	-45.3	11.5	7.32e-04	0	53	0	46137344	52	6337
2026-01-10 23:11:03.77	23.47	10.06	-41.0	-45.1	11.7	1.38e-03	0	53	0	47185920	53	5844
2026-01-10 23:11:04.78	23.52	10.15	-41.2	-45.5	11.3	8.56e-04	0	53	0	49283072	53	6099
2026-01-10 23:11:05.79	23.57	10.23	-41.0	-45.2	11.7	6.69e-04	0	53	0	51380224	53	5856
2026-01-10 23:11:06.80	23.62	10.32	-41.0	-45.1	11.8	6.21e-04	0	53	0	53477376	53	5808
2026-01-10 23:11:07.81	23.67	10.40	-41.1	-45.3	11.6	4.55e-04	0	53	0	55574528	53	5970
2026-01-10 23:11:08.82	23.72	10.49	-41.1	-45.2	11.8	6.91e-04	0	53	0	56623104	53	5861
2026-01-10 23:11:09.83	23.77	10.57	-41.1	-45.2	11.7	5.32e-04	0	53	0	58720256	53	5911
2026-01-10 23:11:10.84	23.82	10.66	-41.1	-45.1	11.9	3.58e-04	0	53	0	60817408	53	5818
2026-01-10 23:11:11.85	23.87	10.74	-41.1	-45.2	11.9	3.04e-04	0	53	0	62914560	53	5872
2026-01-10 23:11:12.86	23.93	10.83	-41.0	-45.0	12.1	3.11e-04	0	53	0	65011712	53	5729
2026-01-10 23:11:13.87	23.98	10.92	-41.0	-44.9	12.1	2.14e-04	0	53	0	67108864	53	5710
2026-01-10 23:11:14.88	24.03	11.01	-41.0	-44.8	12.2	2.97e-04	0	53	0	68157440	53	5643
2026-01-10 23:11:15.89	24.08	11.09	-41.1	-45.1	12.0	3.02e-04	0	53	0	70254592	53	5833
2026-01-10 23:11:16.89	24.14	11.18	-41.1	-45.0	12.1	2.88e-04	0	53	0	72351744	53	5765
2026-01-10 23:11:17.90	24.19	11.27	-40.9	-44.6	12.6	2.04e-04	0	53	0	74448896	53	5467
2026-01-10 23:11:18.91	24.24	11.36	-41.0	-44.8	12.3	3.04e-04	0	53	0	76546048	53	5626
2026-01-10 23:11:19.92	24.30	11.44	-41.0	-44.8	12.3	1.07e-04	0	53	0	77594624	53	5622
2026-01-10 23:11:20.93	24.35	11.53	-41.0	-44.8	12.3	1.20e-04	0	53	0	79691776	53	5638
2026-01-10 23:11:21.94	24.41	11.62	-40.9	-44.6	12.5	8.16e-05	0	53	0	81788928	53	5520
2026-01-10 23:11:22.95	24.46	11.71	-41.1	-45.0	12.2	1.59e-04	0	53	0	83886080	53	5750
2026-01-10 23:11:23.96	24.52	11.80	-41.0	-44.8	12.4	1.43e-04	0	53	0	85983232	53	5605
2026-01-10 23:11:24.97	24.57	11.89	-41.0	-44.7	12.4	6.63e-05	0	53	0	87031808	53	5559
2026-01-10 23:11:25.98	24.63	11.98	-40.9	-44.5	12.8	7.78e-05	0	53	0	89128960	53	5422
2026-01-10 23:11:26.99	24.69	12.07	-41.0	-44.6	12.6	7.62e-05	0	53	0	91226112	53	5520
2026-01-10 23:11:28.00	24.74	12.17	-40.8	-44.3	12.8	9.38e-05	0	53	0	93323264	53	5331
2026-01-10 23:11:29.01	24.80	12.26	-41.0	-44.6	12.6	7.24e-05	0	53	0	95420416	53	5520
2026-01-10 23:11:30.02	24.86	12.35	-40.8	-44.3	13.0	6.56e-05	0	53	0	96468992	53	5339
2026-01-10 23:11:31.03	24.92	12.44	-40.7	-44.0	13.2	3.96e-05	0	53	0	98566144	53	5152
2026-01-10 23:11:32.04	24.97	12.53	-40.7	-44.1	13.2	2.44e-05	0	53	0	100663296	53	5175
2026-01-10 23:11:33.05	25.03	12.63	-40.6	-43.9	13.4	1.44e-05	0	53	0	102760448	53	5042
2026-01-10 23:11:34.05	25.09	12.72	-40.7	-44.1	13.2	1.14e-05	0	53	0	104857600	53	5167
2026-01-10 23:11:35.07	25.15	12.81	-40.7	-44.0	13.3	1.44e-05	0	53	0	105906176	53	5128
2026-01-10 23:11:36.08	25.21	12.91	-40.6	-43.9	13.4	1.22e-05	0	53	0	108003328	53	5083
2026-01-10 23:11:37.08	25.27	13.00	-40.4	-43.6	13.7	9.90e-06	0	53	0	110100480	52	5186
2026-01-10 23:11:38.09	25.33	13.09	-40.5	-43.7	13.7	5.30e-06	0	53	0	112197632	52	5248
2026-01-10 23:11:39.10	25.39	13.19	-40.4	-43.4	14.0	4.50e-06	0	54	0	114294784	52	5084
2026-01-10 23:11:40.11	25.45	13.28	-40.3	-43.4	14.0	4.50e-06	0	53	0	115343360	52	5043
2026-01-10 23:11:41.12	25.51	13.38	-40.4	-43.4	14.0	2.20e-06	0	54	0	117440512	52	5065
2026-01-10 23:11:42.13	25.57	13.48	-40.3	-43.4	14.1	1.50e-06	0	54	0	119537664	52	5047
2026-01-10 23:11:43.14	25.63	13.57	-40.2	-43.1	14.4	3.00e-06	0	53	0	121634816	52	4894
2026-01-10 23:11:44.15	25.70	13.67	-40.4	-43.5	14.0	7.00e-07	0	54	0	123731968	52	5108
2026-01-10 23:11:45.16	25.76	13.77	-40.2	-43.1	14.4	7.00e-07	0	54	0	124780544	52	4906
2026-01-10 23:11:46.17	25.82	13.86	-40.2	-43.1	14.4	0.00e+00	0	54	0	126877696	52	4896
2026-01-10 23:11:47.18	25.89	13.96	-40.1	-42.9	14.6	1.50e-06	0	54	0	128974848	52	4772
2026-01-10 23:11:48.19	25.95	14.06	-40.1	-42.9	14.6	0.00e+00	0	54	0	131072000	52	4799
2026-01-10 23:11:49.20	26.01	14.16	-40.1	-42.8	14.6	1.50e-06	0	53	0	133169152	52	4759
2026-01-10 23:11:50.21	26.08	14.26	-40.1	-42.9	14.6	7.00e-07	0	54	0	135266304	52	4769
2026-01-10 23:11:51.22	26.14	14.36	-40.2	-43.1	14.6	7.00e-07	0	54	0	136314880	51	5184
2026-01-10 23:11:52.23	26.21	14.45	-40.2	-43.1	14.6	7.00e-07	0	54	0	138412032	51	5173
2026-01-10 23:11:53.23	26.27	14.55	-40.2	-43.0	14.7	0.00e+00	0	54	0	140509184	51	5124
2026-01-10 23:11:54.24	26.34	14.65	-40.2	-42.9	14.7	0.00e+00	0	54	0	142606336	51	5090
2026-01-10 23:11:55.26	26.41	14.76	-40.3	-43.1	14.5	0.00e+00	0	54	0	144703488	51	5200
2026-01-10 23:11:56.27	26.47	14.86	-40.0	-42.7	15.0	0.00e+00	0	54	0	145752064	51	4955
2026-01-10 23:11:57.28	26.54	14.96	-40.2	-43.1	14.6	0.00e+00	0	54	0	147849216	51	5163
2026-01-10 23:11:58.29	26.61	15.06	-40.1	-42.8	14.8	0.00e+00	0	54	0	149946368	51	5031
2026-01-10 23:11:59.29	26.68	15.16	-40.3	-43.1	14.6	0.00e+00	0	54	0	152043520	51	5192
2026-01-10 23:12:00.30	26.75	15.26	-40.0	-42.7	15.1	0.00e+00	0	54	0	154140672	51	4952
2026-01-10 23:12:01.31	26.82	15.37	-40.2	-43.0	14.6	7.00e-07	0	54	0	155189248	51	5152
2026-01-10 23:12:02.33	26.89	15.47	-40.0	-42.7	15.0	0.00e+00	0	54	0	157286400	51	4954
2026-01-10 23:12:03.33	26.96	15.57	-40.0	-42.6	15.1	0.00e+00	0	54	0	159383552	51	4924
2026-01-10 23:12:04.34	27.03	15.68	-40.1	-42.7	14.9	0.00e+00	0	54	0	161480704	51	4983
2026-01-10 23:12:05.35	27.10	15.78	-40.1	-42.8	14.9	0.00e+00	0	54	0	163577856	51	5039
2026-01-10 23:12:06.36	27.17	15.89	-40.1	-42.8	15.0	0.00e+00	0	54	0	164626432	51	4992
2026-01-10 23:12:07.37	27.24	15.99	-40.2	-43.1	14.7	0.00e+00	0	54	0	166723584	51	5168
2026-01-10 23:12:08.38	27.31	16.10	-40.2	-42.9	14.8	7.00e-07	0	54	0	168820736	51	5081
2026-01-10 23:12:09.39	27.39	16.21	-40.2	-43.0	14.8	0.00e+00	0	54	0	170917888	51	5127
2026-01-10 23:12:10.40	27.46	16.31	-40.2	-43.0	14.8	0.00e+00	0	54	0	173015040	51	5101
2026-01-10 23:12:11.41	27.53	16.42	-40.3	-43.1	14.7	0.00e+00	0	54	0	174063616	51	5180
2026-01-10 23:12:12.42	27.61	16.53	-40.3	-43.1	14.7	0.00e+00	0	54	0	176160768	51	5185
2026-01-10 23:12:13.43	27.68	16.64	-40.3	-43.1	14.7	0.00e+00	0	54	0	178257920	51	5203
2026-01-10 23:12:14.44	27.76	16.74	-40.1	-42.8	14.9	0.00e+00	0	54	0	180355072	51	5020
2026-01-10 23:12:15.45	27.84	16.85	-40.2	-42.9	14.9	0.00e+00	0	54	0	182452224	51	5086
2026-01-10 23:12:16.45	27.91	16.96	-40.2	-42.9	14.9	0.00e+00	0	54	0	183500800	51	5054
2026-01-10 23:12:17.46	27.99	17.07	-40.0	-42.6	15.3	0.00e+00	0	54	0	185597952	51	4877
2026-01-10 23:12:18.47	28.07	17.18	-40.1	-42.7	15.1	0.00e+00	0	54	0	187695104	51	4961
2026-01-10 23:12:19.48	28.14	17.29	-39.9	-42.5	15.3	0.00e+00	0	54	0	189792256	51	4854
2026-01-10 23:12:20.49	28.22	17.40	-39.8	-42.4	15.5	0.00e+00	0	54	0	191889408	51	4763
2026-01-10 23:12:21.50	28.30	17.52	-40.0	-42.6	15.3	0.00e+00	0	54	0	192937984	51	4917
2026-01-10 23:12:22.51	28.38	17.63	-40.0	-42.7	15.2	0.00e+00	0	54	0	195035136	51	4928
2026-01-10 23:12:23.52	28.46	17.74	-40.1	-42.8	15.1	0.00e+00	0	54	0	197132288	51	4993
2026-01-10 23:12:24.53	28.54	17.85	-40.1	-42.7	15.2	0.00e+00	0	55	0	199229440	51	4963
2026-01-10 23:12:25.54	28.62	17.97	-40.1	-42.8	15.1	0.00e+00	0	54	0	201326592	51	4996
2026-01-10 23:12:26.55	28.71	18.08	-40.2	-42.8	15.1	0.00e+00	0	54	0	203423744	51	5026
2026-01-10 23:12:27.56	28.79	18.20	-40.1	-42.7	15.2	0.00e+00	0	54	0	204472320	51	4949
2026-01-10 23:12:28.57	28.87	18.31	-40.2	-42.8	15.1	0.00e+00	0	55	0	206569472	51	5041
2026-01-10 23:12:29.58	28.96	18.43	-40.2	-42.8	15.1	0.00e+00	0	54	0	208666624	51	5009
2026-01-10 23:12:30.59	29.04	18.54	-39.9	-42.5	15.5	0.00e+00	0	54	0	210763776	51	4827
2026-01-10 23:12:31.60	29.13	18.66	-40.2	-42.9	15.1	0.00e+00	0	55	0	212860928	51	5055
2026-01-10 23:12:32.61	29.21	18.77	-40.2	-42.8	15.2	0.00e+00	0	54	0	213909504	51	5025
2026-01-10 23:12:33.62	29.30	18.89	-40.1	-42.7	15.3	0.00e+00	0	54	0	216006656	51	4931
2026-01-10 23:12:34.62	29.38	19.01	-40.1	-42.7	15.2	0.00e+00	0	55	0	218103808	51	4977
2026-01-10 23:12:35.63	29.47	19.13	-40.1	-42.7	15.3	0.00e+00	0	55	0	220200960	51	4940
2026-01-10 23:12:36.64	29.56	19.25	-40.1	-42.7	15.3	0.00e+00	0	55	0	222298112	51	4951
2026-01-10 23:12:37.65	29.65	19.37	-39.9	-42.4	15.6	0.00e+00	0	55	0	223346688	51	4774
2026-01-10 23:12:38.66	29.74	19.49	-40.0	-42.6	15.4	0.00e+00	0	55	0	225443840	51	4879
2026-01-10 23:12:39.67	29.83	19.61	-40.0	-42.6	15.4	0.00e+00	0	54	0	227540992	51	4878
2026-01-10 23:12:40.68	29.92	19.73	-39.8	-42.2	15.7	0.00e+00	0	55	0	229638144	51	4702
2026-01-10 23:12:41.69	30.01	19.85	-40.0	-42.5	15.5	0.00e+00	0	55	0	231735296	51	4865
2026-01-10 23:12:42.70	30.10	19.97	-40.0	-42.5	15.5	0.00e+00	0	55	0	232783872	51	4849
2026-01-10 23:12:43.71	30.20	20.09	-40.1	-42.6	15.3	0.00e+00	0	55	0	234881024	51	4923
2026-01-10 23:12:44.72	30.29	20.22	-40.0	-42.6	15.4	0.00e+00	0	55	0	236978176	51	4876
2026-01-10 23:12:45.73	30.38	20.34	-40.0	-42.4	15.5	0.00e+00	0	55	0	239075328	51	4800
2026-01-10 23:12:46.74	30.48	20.47	-40.0	-42.5	15.5	0.00e+00	0	54	0	241172480	51	4831
2026-01-10 23:12:47.74	30.57	20.59	-39.9	-42.4	15.6	0.00e+00	0	55	0	242221056	51	4795
2026-01-10 23:12:48.76	30.67	20.72	-40.0	-42.5	15.5	0.00e+00	0	55	0	244318208	51	4853
2026-01-10 23:12:49.77	30.77	20.84	-40.0	-42.5	15.5	0.00e+00	0	55	0	246415360	51	4818
2026-01-10 23:12:50.78	30.87	20.97	-40.1	-42.6	15.4	0.00e+00	0	55	0	248512512	51	4910
2026-01-10 23:12:51.79	30.97	21.09	-39.9	-42.4	15.7	0.00e+00	0	55	0	250609664	51	4769
2026-01-10 23:12:52.79	31.07	21.22	-40.0	-42.5	15.5	0.00e+00	0	55	0	251658240	51	4866
2026-01-10 23:12:53.80	31.17	21.35	-40.1	-42.7	15.4	0.00e+00	0	55	0	253755392	51	4946
2026-01-10 23:12:54.81	31.27	21.48	-39.9	-42.3	15.8	0.00e+00	0	55	0	255852544	51	4712
2026-01-10 23:12:55.82	31.37	21.61	-40.0	-42.5	15.5	0.00e+00	0	55	0	257949696	51	4847
2026-01-10 23:12:56.83	31.47	21.74	-40.2	-42.9	15.3	0.00e+00	0	55	0	260046848	51	5042
2026-01-10 23:12:57.84	31.58	21.87	-40.1	-42.6	15.6	0.00e+00	0	55	0	261095424	51	4879
2026-01-10 23:12:58.85	31.68	22.00	-40.1	-42.6	15.5	0.00e+00	0	55	0	263192576	51	4898
2026-01-10 23:12:59.86	31.79	22.13	-40.1	-42.6	15.5	0.00e+00	0	55	0	265289728	51	4892
2026-01-10 23:13:00.84	31.89	22.26	-40.1	-42.6	15.4	0.00e+00	0	55	0	267386880	51	4907
2026-01-10 23:13:01.85	32.00	22.39	-40.1	-42.7	15.5	0.00e+00	0	55	0	269484032	51	4950
2026-01-10 23:13:02.86	32.11	22.52	-40.1	-42.7	15.4	0.00e+00	0	55	0	270532608	51	4944
2026-01-10 23:13:03.87	32.21	22.66	-40.1	-42.6	15.5	0.00e+00	0	55	0	272629760	51	4889
2026-01-10 23:13:04.88	32.32	22.79	-40.1	-42.5	15.6	0.00e+00	0	55	0	274726912	51	4865
2026-01-10 23:13:05.89	32.44	22.93	-40.1	-42.7	15.5	0.00e+00	0	55	0	276824064	51	4937
2026-01-10 23:13:06.90	32.55	23.06	-40.1	-42.5	15.6	0.00e+00	0	55	0	278921216	51	4864
2026-01-10 23:13:07.91	32.66	23.20	-40.3	-42.9	15.3	0.00e+00	0	55	0	279969792	51	5042
2026-01-10 23:13:08.93	32.77	23.34	-40.3	-43.0	15.2	0.00e+00	0	55	0	282066944	51	5105
2026-01-10 23:13:09.93	32.89	23.48	-40.1	-42.7	15.4	0.00e+00	0	55	0	284164096	51	4929
2026-01-10 23:13:10.94	33.00	23.61	-40.3	-42.9	15.3	0.00e+00	0	55	0	286261248	51	5075
2026-01-10 23:13:11.95	33.12	23.75	-40.3	-42.9	15.3	0.00e+00	0	55	0	288358400	51	5046
2026-01-10 23:13:12.96	33.24	23.89	-40.2	-42.7	15.4	0.00e+00	0	55	0	289406976	51	4951
2026-01-10 23:13:13.97	33.36	24.03	-40.1	-42.6	15.5	0.00e+00	0	55	0	291504128	51	4918
2026-01-10 23:13:14.98	33.48	24.17	-40.4	-43.1	15.1	0.00e+00	0	55	0	293601280	51	5161
2026-01-10 23:13:15.99	33.60	24.32	-40.2	-42.8	15.3	0.00e+00	0	55	0	295698432	51	4994
2026-01-10 23:13:17.00	33.72	24.46	-40.3	-42.8	15.3	0.00e+00	0	55	0	297795584	51	5030
2026-01-10 23:13:18.01	33.84	24.60	-40.3	-42.9	15.3	7.00e-07	0	55	0	299892736	51	5057
2026-01-10 23:13:19.02	33.97	24.74	-40.3	-42.8	15.3	0.00e+00	0	55	0	300941312	51	5038
2026-01-10 23:13:20.03	34.09	24.89	-40.4	-42.9	15.2	0.00e+00	0	55	0	303038464	51	5096
2026-01-10 23:13:21.04	34.22	25.03	-40.3	-42.9	15.2	0.00e+00	0	55	0	305135616	51	5071
2026-01-10 23:13:22.05	34.34	25.18	-40.4	-43.0	15.2	0.00e+00	0	55	0	307232768	51	5152
2026-01-10 23:13:23.06	34.47	25.32	-40.3	-42.9	15.2	0.00e+00	0	55	0	309329920	51	5088
2026-01-10 23:13:24.07	34.60	25.47	-40.5	-43.2	15.0	0.00e+00	0	55	0	310378496	51	5239
2026-01-10 23:13:25.08	34.73	25.62	-40.6	-43.3	14.9	0.00e+00	0	55	0	312475648	51	5308
2026-01-10 23:13:26.09	34.86	25.77	-40.7	-43.4	14.8	0.00e+00	0	55	0	314572800	51	5380
2026-01-10 23:13:27.10	35.00	25.91	-40.6	-43.3	14.8	0.00e+00	0	55	0	316669952	52	5038
2026-01-10 23:13:28.11	35.13	26.06	-40.6	-43.4	14.7	0.00e+00	0	55	0	318767104	52	5062
2026-01-10 23:13:29.12	35.27	26.21	-40.5	-43.2	14.9	0.00e+00	0	55	0	319815680	52	4973
2026-01-10 23:13:30.13	35.40	26.37	-40.7	-43.4	14.7	0.00e+00	0	55	0	321912832	52	5099
2026-01-10 23:13:31.14	35.54	26.52	-40.7	-43.5	14.6	0.00e+00	0	55	0	324009984	52	5146
2026-01-10 23:13:32.15	35.68	26.67	-40.5	-43.2	14.9	0.00e+00	0	55	0	326107136	52	4981
2026-01-10 23:13:33.16	35.82	26.82	-40.6	-43.3	14.7	7.00e-07	0	55	0	328204288	52	5037
2026-01-10 23:13:34.17	35.96	26.98	-40.6	-43.4	14.7	0.00e+00	0	55	0	329252864	52	5061
2026-01-10 23:13:35.18	36.11	27.13	-40.7	-43.4	14.8	0.00e+00	0	55	0	331350016	52	5083
2026-01-10 23:13:36.19	36.25	27.28	-40.7	-43.5	14.6	0.00e+00	0	55	0	333447168	52	5153
2026-01-10 23:13:37.20	36.40	27.44	-40.7	-43.5	14.5	7.00e-07	0	55	0	335544320	52	5147
2026-01-10 23:13:38.21	36.54	27.60	-40.6	-43.4	14.7	0.00e+00	0	55	0	337641472	52	5052
2026-01-10 23:13:39.21	36.69	27.75	-40.8	-43.6	14.6	0.00e+00	0	55	0	338690048	52	5166
2026-01-10 23:13:40.22	36.84	27.91	-41.0	-43.9	14.2	1.50e-06	0	55	0	340787200	52	5380
2026-01-10 23:13:41.23	36.99	28.07	-41.1	-44.1	14.1	2.20e-06	0	55	0	342884352	52	5487
2026-01-10 23:13:42.24	37.15	28.23	-41.1	-44.1	14.1	7.00e-07	0	55	0	344981504	52	5498
2026-01-10 23:13:43.25	37.30	28.39	-41.2	-44.3	13.8	1.50e-06	0	55	0	347078656	52	5649
2026-01-10 23:13:44.26	37.46	28.55	-41.1	-44.1	14.1	3.00e-06	0	55	0	348127232	53	5165
2026-01-10 23:13:45.27	37.62	28.71	-41.4	-44.6	13.6	6.10e-06	0	55	0	350224384	53	5481
2026-01-10 23:13:46.28	37.77	28.87	-41.4	-44.7	13.4	1.37e-05	0	55	0	352321536	53	5569
2026-01-10 23:13:47.29	37.94	29.03	-41.6	-45.0	13.1	2.13e-05	0	55	0	354418688	53	5749
2026-01-10 23:13:48.30	38.10	29.20	-41.7	-45.2	13.0	7.01e-05	0	55	0	356515840	54	5542
2026-01-10 23:13:49.31	38.26	29.36	-42.0	-45.7	12.5	1.27e-04	0	55	0	357564416	54	5865
2026-01-10 23:13:50.32	38.43	29.53	-42.0	-45.7	12.5	1.82e-04	0	55	0	359661568	54	5884
2026-01-10 23:13:51.33	38.60	29.69	-42.2	-46.1	12.0	3.06e-04	0	55	0	361758720	55	5838
2026-01-10 23:13:52.34	38.76	29.86	-42.3	-46.3	11.9	2.97e-04	0	55	0	363855872	55	5940
2026-01-10 23:13:53.35	38.93	30.03	-42.0	-45.8	12.4	2.03e-04	0	55	0	365953024	55	5615
2026-01-10 23:13:54.36	39.11	30.19	-41.9	-45.5	12.7	1.27e-04	0	55	0	368050176	55	5439
2026-01-10 23:13:55.37	39.28	30.36	-41.9	-45.5	12.6	1.40e-04	0	55	0	369098752	55	5452
2026-01-10 23:13:56.38	39.46	30.53	-41.9	-45.6	12.5	7.93e-05	0	55	0	371195904	55	5497
2026-01-10 23:13:57.39	39.64	30.70	-41.9	-45.6	12.7	6.10e-05	0	55	0	373293056	55	5466
2026-01-10 23:13:58.40	39.81	30.87	-41.8	-45.4	12.8	6.94e-05	0	55	0	375390208	55	5363
2026-01-10 23:13:59.41	40.00	31.04	-41.9	-45.5	12.7	5.18e-05	0	56	0	377487360	55	5453
2026-01-10 23:14:00.42	40.18	31.22	-41.6	-44.9	13.2	6.63e-05	0	55	0	378535936	55	5082
2026-01-10 23:14:01.43	40.37	31.39	-41.7	-45.2	13.0	2.13e-05	0	55	0	380633088	55	5262
2026-01-10 23:14:02.44	40.55	31.56	-41.6	-44.9	13.3	9.90e-06	0	55	0	382730240	55	5053
2026-01-10 23:14:03.45	40.74	31.74	-41.7	-45.1	13.2	8.30e-06	0	55	0	384827392	54	5491
2026-01-10 23:14:04.46	40.93	31.91	-41.6	-44.9	13.4	6.80e-06	0	56	0	386924544	54	5345
2026-01-10 23:14:05.47	41.13	32.09	-41.5	-44.7	13.5	4.50e-06	0	55	0	387973120	54	5258
2026-01-10 23:14:06.48	41.32	32.26	-41.6	-45.0	13.3	1.83e-05	0	55	0	390070272	54	5447
2026-01-10 23:14:07.49	41.52	32.44	-41.6	-45.0	13.3	1.83e-05	0	56	0	392167424	54	5413
2026-01-10 23:14:08.50	41.72	32.62	-41.8	-45.3	13.0	3.43e-05	0	55	0	394264576	54	5601
2026-01-10 23:14:09.51	41.92	32.79	-41.6	-44.9	13.3	2.89e-05	0	56	0	396361728	54	5399
2026-01-10 23:14:10.52	42.12	32.97	-41.7	-45.1	13.2	2.74e-05	0	56	0	397410304	54	5483
2026-01-10 23:14:11.53	42.33	33.15	-41.5	-44.9	13.4	2.89e-05	0	55	0	399507456	54	5348
2026-01-10 23:14:12.54	42.54	33.33	-41.2	-44.2	13.9	4.50e-06	0	55	0	401604608	54	4949
2026-01-10 23:14:13.55	42.75	33.51	-40.9	-43.7	14.5	7.00e-07	0	55	0	403701760	53	4956
2026-01-10 23:14:14.56	42.96	33.70	-40.6	-43.3	14.9	7.00e-07	0	56	0	405798912	53	4729
2026-01-10 23:14:15.57	43.18	33.88	-40.6	-43.3	15.0	7.00e-07	0	56	0	406847488	53	4716
2026-01-10 23:14:16.58	43.40	34.06	-40.6	-43.3	15.0	0.00e+00	0	55	0	408944640	52	5003
2026-01-10 23:14:17.59	43.62	34.25	-40.9	-43.7	14.5	0.00e+00	0	56	0	411041792	52	5260
2026-01-10 23:14:18.60	43.84	34.43	-41.0	-43.9	14.3	7.00e-07	0	55	0	413138944	52	5396
2026-01-10 23:14:19.61	44.06	34.61	-41.1	-44.1	14.2	0.00e+00	0	56	0	415236096	52	5472
2026-01-10 23:14:20.62	44.29	34.80	-41.0	-43.9	14.4	7.00e-07	0	55	0	416284672	53	5091
2026-01-10 23:14:21.63	44.52	34.99	-41.2	-44.2	14.0	6.80e-06	0	56	0	418381824	53	5240
2026-01-10 23:14:22.64	44.75	35.17	-41.2	-44.3	14.1	5.30e-06	0	56	0	420478976	53	5287
2026-01-10 23:14:23.65	44.99	35.36	-41.1	-44.1	14.2	0.00e+00	0	55	0	422576128	53	5205
2026-01-10 23:14:24.66	45.23	35.55	-41.3	-44.3	14.0	6.10e-06	0	55	0	424673280	53	5330
2026-01-10 23:14:25.67	45.47	35.74	-41.1	-44.0	14.4	1.50e-06	0	55	0	425721856	53	5127
2026-01-10 23:14:26.68	45.71	35.93	-41.0	-43.9	14.4	2.20e-06	0	56	0	427819008	53	5076
2026-01-10 23:14:27.69	45.96	36.12	-41.0	-43.8	14.5	7.00e-07	0	56	0	429916160	53	5039
2026-01-10 23:14:28.70	46.21	36.31	-40.7	-43.4	14.9	0.00e+00	0	56	0	432013312	53	4764
2026-01-10 23:14:29.71	46.46	36.50	-40.5	-43.1	15.2	0.00e+00	0	56	0	434110464	53	4612
2026-01-10 23:14:30.72	46.71	36.69	-40.7	-43.3	15.0	0.00e+00	0	56	0	436207616	52	5031
2026-01-10 23:14:31.73	46.97	36.88	-40.8	-43.6	14.8	0.00e+00	0	56	0	437256192	52	5192
2026-01-10 23:14:32.74	47.23	37.07	-40.8	-43.6	14.7	0.00e+00	0	56	0	439353344	52	5203
2026-01-10 23:14:33.75	47.50	37.26	-40.8	-43.5	14.8	0.00e+00	0	56	0	441450496	52	5128
2026-01-10 23:14:34.76	47.76	37.46	-40.6	-43.2	15.1	0.00e+00	0	56	0	443547648	52	4962
2026-01-10 23:14:35.77	48.03	37.65	-40.4	-43.0	15.4	7.00e-07	0	56	0	445644800	52	4823
2026-01-10 23:14:36.78	48.31	37.84	-40.4	-42.9	15.3	0.00e+00	0	56	0	446693376	52	4804
2026-01-10 23:14:37.79	48.58	38.04	-40.2	-42.7	15.7	0.00e+00	0	56	0	448790528	52	4666
2026-01-10 23:14:38.80	48.86	38.23	-40.3	-42.8	15.6	0.00e+00	0	56	0	450887680	52	4716
2026-01-10 23:14:39.81	49.15	38.43	-40.1	-42.5	15.8	0.00e+00	0	56	0	452984832	52	4580
2026-01-10 23:14:40.82	49.43	38.62	-40.4	-42.9	15.5	0.00e+00	0	56	0	455081984	52	4782
2026-01-10 23:14:41.83	49.72	38.82	-40.5	-43.1	15.3	0.00e+00	0	56	0	456130560	52	4900
2026-01-10 23:14:42.84	50.02	39.02	-40.6	-43.3	15.0	0.00e+00	0	56	0	458227712	52	5020
2026-01-10 23:14:43.85	50.31	39.21	-40.9	-43.7	14.6	0.00e+00	0	56	0	460324864	52	5253
2026-01-10 23:14:44.85	50.61	39.41	-41.0	-43.9	14.5	0.00e+00	0	56	0	462422016	52	5357
2026-01-10 23:14:45.87	50.92	39.61	-41.0	-43.8	14.5	7.00e-07	0	56	0	464519168	52	5320
2026-01-10 23:14:46.87	51.22	39.80	-40.8	-43.5	14.9	0.00e+00	0	56	0	465567744	52	5130
2026-01-10 23:14:47.89	51.54	40.00	-40.6	-43.2	15.1	7.00e-07	0	56	0	467664896	52	4948
2026-01-10 23:14:48.90	51.85	40.20	-40.6	-43.3	15.1	0.00e+00	0	56	0	469762048	52	5005
2026-01-10 23:14:49.91	52.17	40.40	-40.6	-43.2	15.2	0.00e+00	0	56	0	471859200	52	4928
2026-01-10 23:14:50.92	52.49	40.59	-40.5	-43.0	15.3	0.00e+00	0	56	0	473956352	52	4862
2026-01-10 23:14:51.93	52.82	40.79	-40.5	-43.0	15.3	0.00e+00	0	56	0	475004928	52	4865
2026-01-10 23:14:52.94	53.15	40.99	-40.4	-42.9	15.4	0.00e+00	0	56	0	477102080	52	4776
2026-01-10 23:14:53.94	53.48	41.19	-40.2	-42.7	15.7	0.00e+00	0	56	0	479199232	52	4656
2026-01-10 23:14:54.95	53.82	41.39	-40.4	-42.9	15.5	0.00e+00	0	56	0	481296384	52	4790
2026-01-10 23:14:55.96	54.17	41.58	-40.5	-43.1	15.2	0.00e+00	0	56	0	483393536	52	4917
2026-01-10 23:14:56.97	54.51	41.78	-41.0	-43.8	14.7	0.00e+00	0	56	0	484442112	52	5309
2026-01-10 23:14:57.98	54.86	41.98	-41.0	-43.9	14.4	7.00e-07	0	56	0	486539264	52	5398
2026-01-10 23:14:58.99	55.22	42.18	-41.1	-43.9	14.4	7.00e-07	0	56	0	488636416	52	5380
2026-01-10 23:15:00.00	55.58	42.37	-40.7	-43.4	15.0	0.00e+00	0	56	0	490733568	52	5063
2026-01-10 23:15:01.00	55.94	42.57	-40.7	-43.3	15.0	0.00e+00	0	56	0	492830720	52	5041
2026-01-10 23:15:02.01	56.31	42.77	-40.6	-43.2	15.2	0.00e+00	0	56	0	493879296	52	4969
2026-01-10 23:15:03.02	56.68	42.96	-40.5	-43.1	15.3	0.00e+00	0	56	0	495976448	52	4898
2026-01-10 23:15:04.03	57.06	43.16	-40.6	-43.3	15.1	0.00e+00	0	56	0	498073600	52	5001
2026-01-10 23:15:05.04	57.44	43.36	-40.5	-43.1	15.3	0.00e+00	0	56	0	500170752	52	4878
2026-01-10 23:15:06.05	57.83	43.55	-40.4	-42.9	15.4	0.00e+00	0	56	0	502267904	52	4796
2026-01-10 23:15:07.05	58.22	43.75	-40.9	-43.6	14.8	0.00e+00	0	56	0	504365056	52	5206
2026-01-10 23:15:08.07	58.62	43.94	-41.0	-43.9	14.6	0.00e+00	0	56	0	505413632	52	5344
2026-01-10 23:15:09.07	59.02	44.14	-41.0	-43.8	14.6	0.00e+00	0	55	0	507510784	52	5319
2026-01-10 23:15:10.08	59.42	44.33	-40.9	-43.7	14.8	0.00e+00	0	56	0	509607936	52	5274
2026-01-10 23:15:11.09	59.84	44.52	-40.9	-43.6	14.6	0.00e+00	0	56	0	511705088	52	5195
2026-01-10 23:15:12.10	60.25	44.72	-40.8	-43.5	14.9	0.00e+00	0	56	0	513802240	52	5133
2026-01-10 23:15:13.11	60.67	44.91	-41.0	-43.8	14.6	0.00e+00	0	56	0	514850816	52	5337
2026-01-10 23:15:14.12	61.10	45.10	-41.1	-44.0	14.5	1.50e-06	0	56	0	516947968	52	5418
2026-01-10 23:15:15.13	61.53	45.29	-41.3	-44.3	14.2	0.00e+00	0	56	0	519045120	53	5289
2026-01-10 23:15:16.14	61.97	45.48	-41.4	-44.5	13.9	2.20e-06	0	56	0	521142272	53	5406
2026-01-10 23:15:17.15	62.41	45.67	-41.5	-44.7	13.7	7.60e-06	0	56	0	523239424	53	5548
2026-01-10 23:15:18.16	62.86	45.86	-41.8	-45.1	13.2	9.10e-06	0	56	0	524288000	54	5521
2026-01-10 23:15:19.16	63.31	46.04	-41.5	-44.6	13.9	6.80e-06	0	56	0	526385152	54	5199
2026-01-10 23:15:20.18	63.77	46.23	-41.3	-44.4	14.0	1.50e-06	0	56	0	528482304	54	5067
2026-01-10 23:15:21.18	64.23	46.41	-41.1	-44.0	14.4	0.00e+00	0	56	0	530579456	54	4859
2026-01-10 23:15:22.19	64.69	46.59	-41.1	-44.0	14.4	7.00e-07	0	56	0	532676608	54	4831
2026-01-10 23:15:23.20	65.17	46.78	-40.9	-43.6	14.7	0.00e+00	0	56	0	533725184	53	4901
2026-01-10 23:15:24.21	65.65	46.96	-40.7	-43.4	15.0	7.00e-07	0	56	0	535822336	53	4777
2026-01-10 23:15:25.22	66.13	47.14	-40.4	-42.9	15.5	0.00e+00	0	56	0	537919488	52	4787
2026-01-10 23:15:26.23	66.62	47.31	-40.4	-42.8	15.6	0.00e+00	0	56	0	540016640	52	4758
2026-01-10 23:15:27.24	67.12	47.49	-40.3	-42.7	15.7	0.00e+00	0	56	0	542113792	52	4696
2026-01-10 23:15:28.25	67.62	47.67	-40.3	-42.7	15.7	0.00e+00	0	56	0	543162368	52	4685
2026-01-10 23:15:29.26	68.13	47.84	-40.5	-43.0	15.4	0.00e+00	0	56	0	545259520	52	4838
2026-01-10 23:15:30.27	68.64	48.01	-40.5	-43.0	15.4	0.00e+00	0	56	0	547356672	52	4845
2026-01-10 23:15:31.28	69.16	48.18	-40.4	-42.8	15.6	0.00e+00	0	56	0	549453824	52	4742
2026-01-10 23:15:32.29	69.68	48.35	-40.7	-43.4	15.0	0.00e+00	0	56	0	551550976	52	5060
2026-01-10 23:15:33.30	70.21	48.51	-40.6	-43.2	15.2	0.00e+00	0	56	0	552599552	52	4973
2026-01-10 23:15:34.31	70.75	48.68	-40.8	-43.5	14.9	0.00e+00	0	56	0	554696704	52	5102
2026-01-10 23:15:35.32	71.29	48.84	-40.8	-43.6	14.8	0.00e+00	0	56	0	556793856	52	5178
2026-01-10 23:15:36.33	71.84	49.00	-40.7	-43.3	15.1	0.00e+00	0	56	0	558891008	52	4993
2026-01-10 23:15:37.34	72.39	49.16	-40.9	-43.6	14.9	0.00e+00	0	56	0	560988160	52	5186
2026-01-10 23:15:38.35	72.95	49.31	-41.0	-43.8	14.7	7.00e-07	0	56	0	562036736	52	5301
2026-01-10 23:15:39.36	73.51	49.46	-40.9	-43.7	14.6	1.50e-06	0	56	0	564133888	52	5257
2026-01-10 23:15:40.37	74.08	49.61	-40.7	-43.4	15.0	0.00e+00	0	56	0	566231040	52	5071
2026-01-10 23:15:41.38	74.66	49.76	-40.9	-43.7	14.7	0.00e+00	0	56	0	568328192	52	5253
2026-01-10 23:15:42.39	75.24	49.91	-41.4	-44.5	14.0	1.50e-06	0	56	0	570425344	53	5429
2026-01-10 23:15:43.40	75.82	50.05	-41.6	-44.8	13.6	1.37e-05	0	56	0	572522496	54	5321
2026-01-10 23:15:44.41	76.41	50.19	-41.4	-44.5	13.9	7.60e-06	0	56	0	573571072	54	5123
2026-01-10 23:15:45.42	77.01	50.33	-41.4	-44.4	14.0	3.80e-06	0	56	0	575668224	54	5082
2026-01-10 23:15:46.42	77.61	50.46	-41.7	-44.9	13.6	5.30e-06	0	56	0	577765376	54	5377
2026-01-10 23:15:47.43	78.21	50.59	-41.5	-44.7	13.7	3.80e-06	0	56	0	579862528	54	5228
2026-01-10 23:15:48.44	78.83	50.72	-41.3	-44.2	14.3	3.80e-06	0	56	0	581959680	54	4940
2026-01-10 23:15:49.45	79.44	50.85	-41.5	-44.6	13.8	8.30e-06	0	56	0	583008256	54	5165
2026-01-10 23:15:50.46	80.07	50.97	-42.3	-46.1	12.3	4.27e-05	0	56	0	585105408	55	5822
2026-01-10 23:15:51.47	80.69	51.09	-42.3	-46.1	12.2	1.40e-04	0	56	0	587202560	55	5793
2026-01-10 23:15:52.48	81.33	51.20	-41.9	-45.3	13.1	8.69e-05	0	56	0	589299712	55	5297
2026-01-10 23:15:53.49	81.96	51.32	-42.0	-45.5	12.9	1.83e-05	0	56	0	591396864	55	5436
2026-01-10 23:15:54.50	82.61	51.43	-41.7	-45.1	13.3	2.74e-05	0	56	0	592445440	55	5178
2026-01-10 23:15:55.51	83.25	51.53	-41.4	-44.4	14.0	4.50e-06	0	56	0	594542592	54	5073
2026-01-10 23:15:56.52	83.91	51.63	-41.0	-43.8	14.7	7.00e-07	0	56	0	596639744	53	4988
2026-01-10 23:15:57.53	84.56	51.73	-41.0	-43.9	14.5	7.00e-07	0	56	0	598736896	53	5056
2026-01-10 23:15:58.54	85.22	51.83	-40.9	-43.6	14.8	0.00e+00	0	56	0	600834048	53	4901
2026-01-10 23:15:59.55	85.89	51.92	-40.4	-42.8	15.6	0.00e+00	0	56	0	601882624	52	4745
2026-01-10 23:16:00.56	86.55	52.01	-40.0	-42.3	16.2	0.00e+00	0	56	0	603979776	52	4454
2026-01-10 23:16:01.57	87.23	52.09	-40.3	-42.6	15.9	0.00e+00	0	56	0	606076928	51	4918
2026-01-10 23:16:02.58	87.90	52.17	-40.7	-43.3	15.3	0.00e+00	0	56	0	608174080	51	5293
2026-01-10 23:16:03.59	88.58	52.24	-40.5	-42.9	15.5	0.00e+00	0	56	0	610271232	52	4807
2026-01-10 23:16:04.60	89.26	52.32	-40.7	-43.4	15.2	0.00e+00	0	56	0	611319808	52	5042
2026-01-10 23:16:05.61	89.95	52.38	-41.1	-44.0	14.6	7.00e-07	0	56	0	613416960	52	5444
2026-01-10 23:16:06.62	90.64	52.45	-41.4	-44.5	13.9	1.50e-06	0	56	0	615514112	53	5423
2026-01-10 23:16:07.63	91.33	52.51	-41.1	-44.0	14.5	3.00e-06	0	56	0	617611264	53	5111
2026-01-10 23:16:08.64	92.03	52.56	-40.7	-43.2	15.1	0.00e+00	0	56	0	619708416	53	4705
2026-01-10 23:16:09.65	92.72	52.61	-40.2	-42.6	15.9	0.00e+00	0	56	0	620756992	52	4613
2026-01-10 23:16:10.66	93.42	52.66	-40.6	-43.2	15.3	0.00e+00	0	56	0	622854144	52	4981
2026-01-10 23:16:11.67	94.12	52.70	-41.3	-44.3	14.2	7.00e-07	0	56	0	624951296	53	5305
2026-01-10 23:16:12.68	94.83	52.74	-41.4	-44.5	13.9	1.50e-06	0	56	0	627048448	53	5443
2026-01-10 23:16:13.69	95.53	52.78	-41.1	-44.0	14.4	2.20e-06	0	56	0	629145600	53	5128
2026-01-10 23:16:14.70	96.24	52.80	-41.2	-44.2	14.4	0.00e+00	0	56	0	630194176	53	5230
2026-01-10 23:16:15.71	96.95	52.83	-41.8	-45.2	13.2	4.50e-06	0	56	0	632291328	54	5578
2026-01-10 23:16:16.72	97.66	52.85	-41.6	-44.9	13.5	1.37e-05	0	56	0	634388480	54	5345
2026-01-10 23:16:17.72	98.36	52.87	-41.5	-44.6	13.9	2.20e-06	0	56	0	636485632	54	5204
2026-01-10 23:16:18.73	99.07	52.88	-41.4	-44.4	14.1	4.50e-06	0	56	0	638582784	54	5087
2026-01-10 23:16:19.74	99.78	52.89	-41.3	-44.4	14.1	1.50e-06	0	56	0	640679936	54	5042
2026-01-10 23:16:20.75	100.49	52.89	-41.1	-43.9	14.6	2.20e-06	0	56	0	641728512	54	4783
2026-01-10 23:16:21.76	101.21	52.89	-41.2	-44.1	14.4	0.00e+00	0	56	0	643825664	53	5179
2026-01-10 23:16:22.77	101.92	52.88	-41.8	-45.2	13.3	2.20e-06	0	56	0	645922816	54	5578
2026-01-10 23:16:23.78	102.63	52.87	-42.2	-46.0	12.5	7.01e-05	0	56	0	648019968	54	6064
2026-01-10 23:16:24.79	103.34	52.86	-41.8	-45.2	13.1	3.58e-05	0	56	0	649068544	55	5272
2026-01-10 23:16:25.80	104.05	52.84	-41.8	-45.1	13.4	9.90e-06	0	56	0	651165696	55	5175
2026-01-10 23:16:26.81	104.76	52.81	-41.6	-44.8	13.5	1.22e-05	0	56	0	653262848	54	5320
2026-01-10 23:16:27.82	105.46	52.79	-41.5	-44.6	13.8	7.60e-06	0	56	0	655360000	54	5171
2026-01-10 23:16:28.82	106.16	52.75	-41.2	-44.0	14.4	7.00e-07	0	56	0	657457152	54	4867
2026-01-10 23:16:29.84	106.88	52.72	-40.8	-43.4	15.0	0.00e+00	0	56	0	658505728	53	4809
2026-01-10 23:16:30.85	107.58	52.68	-41.2	-44.1	14.4	2.20e-06	0	56	0	660602880	53	5212
2026-01-10 23:16:31.86	108.28	52.63	-40.9	-43.7	14.8	0.00e+00	0	56	0	662700032	53	4937
2026-01-10 23:16:32.86	108.97	52.58	-40.6	-43.1	15.2	0.00e+00	0	56	0	664797184	53	4647
2026-01-10 23:16:33.87	109.67	52.53	-39.9	-42.2	16.3	0.00e+00	0	56	0	666894336	51	4654
2026-01-10 23:16:34.88	110.36	52.47	-39.7	-41.8	16.6	0.00e+00	0	56	0	668991488	51	4454
2026-01-10 23:16:35.89	111.05	52.41	-40.1	-42.4	16.1	0.00e+00	0	56	0	670040064	51	4808
2026-01-10 23:16:36.90	111.74	52.34	-41.0	-43.8	14.6	0.00e+00	0	56	0	672137216	52	5306
2026-01-10 23:16:37.91	112.42	52.27	-41.0	-43.9	14.6	0.00e+00	0	56	0	674234368	52	5342
2026-01-10 23:16:38.92	113.10	52.20	-41.1	-43.9	14.4	7.00e-07	0	56	0	676331520	52	5376
2026-01-10 23:16:39.93	113.78	52.12	-41.6	-44.8	13.6	2.20e-06	0	56	0	678428672	53	5625
2026-01-10 23:16:40.94	114.46	52.04	-42.0	-45.5	12.9	3.28e-05	0	56	0	679477248	54	5755
2026-01-10 23:16:41.95	115.13	51.95	-41.9	-45.3	13.1	2.82e-05	0	56	0	681574400	54	5619
2026-01-10 23:16:42.96	115.79	51.86	-41.7	-45.1	13.3	2.67e-05	0	56	0	683671552	54	5470
2026-01-10 23:16:43.97	116.45	51.77	-41.9	-45.4	13.0	4.88e-05	0	56	0	685768704	54	5665
2026-01-10 23:16:44.97	117.11	51.67	-41.3	-44.4	14.0	5.30e-06	0	56	0	687865856	54	5061
2026-01-10 23:16:45.98	117.76	51.57	-40.9	-43.6	14.8	0.00e+00	0	56	0	688914432	53	4902
2026-01-10 23:16:46.99	118.41	51.46	-40.8	-43.5	15.0	0.00e+00	0	56	0	691011584	53	4859
2026-01-10 23:16:48.01	119.06	51.35	-40.0	-42.4	16.0	0.00e+00	0	56	0	693108736	52	4498
2026-01-10 23:16:49.02	119.70	51.24	-39.6	-41.7	16.7	0.00e+00	0	56	0	695205888	51	4414
2026-01-10 23:16:50.03	120.34	51.13	-39.4	-41.4	17.0	0.00e+00	0	56	0	697303040	50	4530
2026-01-10 23:16:51.04	120.97	51.01	-40.2	-42.6	15.9	0.00e+00	0	56	0	698351616	50	5185
2026-01-10 23:16:52.04	121.59	50.89	-40.9	-43.7	14.7	0.00e+00	0	56	0	700448768	52	5250
2026-01-10 23:16:53.05	122.21	50.76	-41.2	-44.1	14.2	2.20e-06	0	56	0	702545920	53	5197
2026-01-10 23:16:54.06	122.82	50.64	-41.1	-44.0	14.4	3.00e-06	0	56	0	704643072	53	5144
2026-01-10 23:16:55.08	123.44	50.50	-40.9	-43.8	14.6	0.00e+00	0	56	0	706740224	53	4995
2026-01-10 23:16:56.09	124.04	50.37	-40.5	-43.0	15.4	0.00e+00	0	56	0	707788800	52	4844
2026-01-10 23:16:57.10	124.64	50.23	-40.4	-42.9	15.5	0.00e+00	0	56	0	709885952	52	4810
2026-01-10 23:16:58.10	125.23	50.10	-40.3	-42.8	15.6	0.00e+00	0	56	0	711983104	52	4708
2026-01-10 23:16:59.11	125.82	49.95	-40.7	-43.4	15.0	0.00e+00	0	56	0	714080256	52	5046
2026-01-10 23:17:00.12	126.40	49.81	-40.6	-43.2	15.2	0.00e+00	0	56	0	716177408	52	4966
2026-01-10 23:17:01.14	126.99	49.66	-40.7	-43.4	15.0	0.00e+00	0	56	0	717225984	52	5071
2026-01-10 23:17:02.14	127.55	49.51	-40.9	-43.7	14.7	7.00e-07	0	56	0	719323136	52	5258
2026-01-10 23:17:03.15	128.12	49.36	-41.4	-44.5	13.9	1.50e-06	0	56	0	721420288	53	5411
2026-01-10 23:17:04.16	128.68	49.20	-41.0	-43.9	14.5	3.00e-06	0	56	0	723517440	53	5050
2026-01-10 23:17:05.17	129.24	49.05	-40.0	-42.4	16.0	0.00e+00	0	56	0	725614592	52	4499
2026-01-10 23:17:06.18	129.79	48.89	-39.7	-41.9	16.6	0.00e+00	0	56	0	726663168	51	4509
2026-01-10 23:17:07.19	130.33	48.73	-40.3	-42.8	15.7	0.00e+00	0	56	0	728760320	51	4989
2026-01-10 23:17:08.20	130.87	48.56	-41.5	-44.6	13.9	7.00e-07	0	56	0	730857472	53	5513
2026-01-10 23:17:09.21	131.40	48.40	-41.7	-45.1	13.3	1.22e-05	0	56	0	732954624	54	5487
2026-01-10 23:17:10.22	131.93	48.23	-41.8	-45.2	13.3	1.06e-05	0	56	0	735051776	54	5534
2026-01-10 23:17:11.22	132.45	48.06	-41.5	-44.7	13.7	3.00e-06	0	56	0	737148928	54	5250
2026-01-10 23:17:12.23	132.96	47.89	-42.2	-45.8	12.5	2.82e-05	0	56	0	738197504	54	5977
2026-01-10 23:17:13.24	133.47	47.72	-42.2	-45.9	12.4	1.07e-04	0	56	0	740294656	55	5710
2026-01-10 23:17:14.25	133.98	47.54	-42.5	-46.5	11.7	1.65e-04	0	56	0	742391808	55	6128
2026-01-10 23:17:15.26	134.48	47.36	-43.1	-47.6	11.0	1.05e-03	0	56	0	744488960	56	6517
2026-01-10 23:17:16.27	134.97	47.19	-42.8	-47.0	11.5	1.13e-03	0	56	0	746586112	56	6107
2026-01-10 23:17:17.28	135.46	47.01	-42.7	-46.8	11.7	5.74e-04	0	56	0	747634688	56	5972
2026-01-10 23:17:18.29	135.94	46.83	-42.9	-47.3	11.4	6.43e-04	0	56	0	749731840	56	6279
2026-01-10 23:17:19.30	136.42	46.64	-43.0	-47.4	11.0	1.81e-03	0	56	0	751828992	56	6370
2026-01-10 23:17:20.31	136.89	46.46	-42.7	-46.8	11.7	1.27e-03	0	56	0	753926144	56	5950
2026-01-10 23:17:21.32	137.35	46.28	-41.8	-45.2	13.2	4.95e-05	0	56	0	756023296	55	5268
2026-01-10 23:17:22.33	137.81	46.09	-41.7	-45.0	13.4	1.14e-05	0	56	0	757071872	55	5148
2026-01-10 23:17:23.34	138.27	45.90	-42.1	-45.8	12.6	4.57e-05	0	56	0	759169024	55	5633
2026-01-10 23:17:24.35	138.72	45.72	-43.3	-48.2	10.4	9.22e-04	0	56	0	761266176	57	6579
2026-01-10 23:17:25.36	139.16	45.53	-43.7	-49.2	9.2	8.01e-03	0	56	0	763363328	57	7447
2026-01-10 23:17:26.37	139.60	45.34	-43.6	-48.8	9.6	2.17e-02	0	56	0	765460480	58	6719
2026-01-10 23:17:27.38	140.04	45.14	-43.3	-48.3	10.3	8.20e-03	0	56	0	766509056	58	6276
2026-01-10 23:17:28.39	140.47	44.95	-43.5	-48.7	9.8	7.33e-03	0	56	0	768606208	58	6587
2026-01-10 23:17:29.39	140.89	44.76	-43.6	-49.0	9.5	1.17e-02	0	56	0	770703360	58	6807
2026-01-10 23:17:30.40	141.31	44.57	-43.9	-49.8	8.5	3.25e-02	0	56	0	772800512	58	7518
2026-01-10 23:17:31.41	141.72	44.38	-44.0	-50.2	8.2	4.83e-02	0	57	0	774897664	58	7897
2026-01-10 23:17:32.42	142.13	44.18	-44.2	-51.1	7.1	1.07e-01	0	56	0	775946240	59	8205
2026-01-10 23:17:33.43	142.53	43.99	-44.2	-51.1	7.4	1.29e-01	0	56	0	778043392	59	8227
2026-01-10 23:17:34.44	142.93	43.79	-44.6	-52.9	5.8	2.41e-01	0	56	0	780140544	59	10086
2026-01-10 23:17:35.45	143.33	43.59	-44.8	-55.0	4.6	6.89e-01	0	56	0	782237696	60	12219
2026-01-10 23:17:36.46	143.72	43.40	-44.4	-52.6	6.0	5.38e-01	0	56	0	784334848	60	9279
2026-01-10 23:17:37.47	144.10	43.20	-44.0	-50.4	8.0	1.80e-01	0	56	0	785383424	59	7560
2026-01-10 23:17:38.48	144.48	43.00	-43.8	-49.5	8.9	4.52e-02	0	57	0	787480576	59	6856
2026-01-10 23:17:39.49	144.86	42.80	-43.8	-49.5	8.8	3.89e-02	0	56	0	789577728	59	6854
2026-01-10 23:17:40.50	145.23	42.61	-44.0	-50.2	8.2	5.78e-02	0	56	0	791674880	59	7413
2026-01-10 23:17:41.51	145.60	42.41	-44.4	-52.1	6.3	1.45e-01	0	56	0	793772032	59	9280
2026-01-10 23:17:42.52	145.96	42.21	-44.7	-54.1	5.1	6.04e-01	0	56	0	794820608	59	11569
2026-01-10 23:17:43.52	146.31	42.01	-44.2	-51.4	6.9	3.29e-01	0	56	0	796917760	60	8009
2026-01-10 23:17:44.53	146.67	41.81	-43.8	-49.7	8.7	4.51e-02	0	56	0	799014912	59	6976
2026-01-10 23:17:45.54	147.01	41.61	-43.8	-49.6	8.7	2.68e-02	0	56	0	801112064	59	6938
2026-01-10 23:17:46.55	147.36	41.42	-43.9	-50.2	8.3	4.16e-02	0	56	0	803209216	59	7407
2026-01-10 23:17:47.56	147.70	41.22	-44.4	-52.1	6.3	1.26e-01	0	56	0	805306368	59	9194
2026-01-10 23:17:48.57	148.04	41.02	-44.4	-52.0	6.3	2.12e-01	0	56	0	806354944	59	9141
2026-01-10 23:17:49.58	148.37	40.82	-43.9	-50.1	8.2	1.09e-01	0	56	0	808452096	59	7318
2026-01-10 23:17:50.59	148.70	40.62	-42.4	-46.2	12.3	4.16e-03	0	56	0	810549248	56	5532
2026-01-10 23:17:51.60	149.02	40.42	-41.3	-44.3	14.0	1.90e-05	0	56	0	812646400	54	5024
2026-01-10 23:17:52.61	149.35	40.22	-41.5	-44.6	13.9	7.00e-07	0	56	0	814743552	54	5199
2026-01-10 23:17:53.62	149.66	40.02	-42.1	-45.7	12.7	1.98e-05	0	56	0	815792128	54	5887
2026-01-10 23:17:54.63	149.98	39.82	-43.4	-48.6	9.8	6.34e-04	0	56	0	817889280	57	6890
2026-01-10 23:17:55.64	150.28	39.63	-43.7	-49.4	9.0	3.43e-02	0	56	0	819986432	58	7142
2026-01-10 23:17:56.65	150.59	39.43	-42.7	-47.0	11.5	5.25e-03	0	56	0	822083584	57	5730
2026-01-10 23:17:57.66	150.89	39.23	-41.6	-44.8	13.5	9.99e-05	0	56	0	824180736	55	5027
2026-01-10 23:17:58.67	151.19	39.03	-41.6	-44.8	13.6	6.80e-06	0	56	0	825229312	54	5285
2026-01-10 23:17:59.68	151.49	38.83	-41.9	-45.4	13.0	2.97e-05	0	56	0	827326464	54	5692
2026-01-10 23:18:00.69	151.78	38.64	-42.5	-46.7	11.5	2.66e-04	0	56	0	829423616	55	6251
2026-01-10 23:18:01.70	152.07	38.44	-43.0	-47.6	10.9	1.06e-03	0	56	0	831520768	56	6536
2026-01-10 23:18:02.71	152.35	38.24	-42.9	-47.3	11.1	3.26e-03	0	56	0	833617920	56	6304
2026-01-10 23:18:03.72	152.63	38.05	-42.5	-46.4	12.0	7.15e-04	0	56	0	834666496	56	5721
2026-01-10 23:18:04.73	152.91	37.85	-42.2	-45.9	12.7	2.36e-04	0	56	0	836763648	56	5342
2026-01-10 23:18:05.74	153.19	37.66	-41.4	-44.7	13.7	4.50e-06	0	56	0	838860800	54	5222
2026-01-10 23:18:06.74	153.45	37.47	-41.0	-43.9	14.4	2.20e-06	0	56	0	840957952	54	4803
2026-01-10 23:18:07.76	153.73	37.27	-40.8	-43.5	14.8	0.00e+00	0	56	0	843055104	53	4851
2026-01-10 23:18:08.77	153.99	37.08	-41.0	-43.8	14.5	7.00e-07	0	56	0	844103680	53	5030
2026-01-10 23:18:09.78	154.25	36.88	-41.3	-44.4	13.9	7.00e-07	0	56	0	846200832	53	5369
2026-01-10 23:18:10.79	154.51	36.69	-41.5	-44.8	13.5	6.80e-06	0	56	0	848297984	53	5646
2026-01-10 23:18:11.79	154.77	36.50	-41.7	-45.2	13.1	2.05e-05	0	56	0	850395136	54	5558
2026-01-10 23:18:12.80	155.02	36.31	-41.3	-44.4	13.9	8.30e-06	0	56	0	852492288	54	5044
2026-01-10 23:18:13.81	155.27	36.12	-40.6	-43.3	15.1	0.00e+00	0	56	0	853540864	53	4718
2026-01-10 23:18:14.82	155.52	35.92	-40.7	-43.4	14.9	0.00e+00	0	56	0	855638016	53	4771
2026-01-10 23:18:15.83	155.76	35.73	-40.8	-43.5	14.8	0.00e+00	0	56	0	857735168	53	4868
2026-01-10 23:18:16.84	156.00	35.55	-41.0	-43.9	14.4	0.00e+00	0	56	0	859832320	53	5093
2026-01-10 23:18:17.85	156.24	35.36	-41.7	-45.0	13.3	2.20e-06	0	56	0	861929472	53	5782
2026-01-10 23:18:18.86	156.48	35.17	-42.0	-45.6	12.7	5.18e-05	0	57	0	862978048	54	5817
2026-01-10 23:18:19.87	156.71	34.98	-42.2	-46.1	12.2	1.11e-04	0	56	0	865075200	55	5796
2026-01-10 23:18:20.88	156.94	34.79	-42.5	-46.6	11.6	5.40e-04	0	56	0	867172352	55	6194
2026-01-10 23:18:21.89	157.17	34.61	-42.6	-47.1	11.1	1.33e-03	0	56	0	869269504	55	6525
2026-01-10 23:18:22.90	157.40	34.42	-42.4	-46.6	11.7	8.02e-04	0	56	0	871366656	55	6172
2026-01-10 23:18:23.91	157.62	34.23	-42.2	-46.1	12.1	4.54e-04	0	57	0	873463808	55	5840
2026-01-10 23:18:24.91	157.84	34.05	-42.1	-45.9	12.3	2.64e-04	0	56	0	874512384	55	5665
2026-01-10 23:18:25.92	158.06	33.87	-41.8	-45.3	13.0	5.49e-05	0	56	0	876609536	55	5333
2026-01-10 23:18:26.93	158.28	33.68	-41.8	-45.3	13.0	1.90e-05	0	56	0	878706688	55	5283
2026-01-10 23:18:27.94	158.49	33.50	-41.8	-45.3	13.0	3.81e-05	0	57	0	880803840	55	5280
2026-01-10 23:18:28.95	158.70	33.32	-42.0	-45.7	12.5	5.79e-05	0	56	0	882900992	55	5589
2026-01-10 23:18:29.96	158.91	33.14	-42.3	-46.4	11.7	3.40e-04	0	56	0	883949568	55	6061
2026-01-10 23:18:30.97	159.12	32.96	-42.6	-47.0	11.3	6.51e-04	0	56	0	886046720	55	6423
2026-01-10 23:18:31.98	159.32	32.78	-42.9	-47.4	11.0	2.30e-03	0	56	0	888143872	56	6412
2026-01-10 23:18:32.99	159.53	32.60	-42.4	-46.5	11.9	1.37e-03	0	56	0	890241024	56	5782
2026-01-10 23:18:34.00	159.73	32.42	-41.8	-45.3	13.0	2.45e-04	0	57	0	892338176	55	5326
2026-01-10 23:18:35.01	159.92	32.24	-41.3	-44.5	13.7	6.80e-06	0	57	0	893386752	54	5133
2026-01-10 23:18:36.02	160.12	32.06	-41.1	-44.2	14.1	3.00e-06	0	56	0	895483904	54	4932
2026-01-10 23:18:37.03	160.31	31.89	-41.3	-44.4	13.9	2.20e-06	0	56	0	897581056	54	5066
2026-01-10 23:18:38.04	160.51	31.71	-41.2	-44.2	14.1	1.50e-06	0	56	0	899678208	54	4948
2026-01-10 23:18:39.05	160.70	31.53	-41.3	-44.5	13.8	6.10e-06	0	56	0	901775360	54	5111
2026-01-10 23:18:40.06	160.88	31.36	-41.4	-44.5	13.8	1.37e-05	0	56	0	902823936	54	5158
2026-01-10 23:18:41.07	161.07	31.19	-41.4	-44.5	13.7	6.80e-06	0	56	0	904921088	54	5144
2026-01-10 23:18:42.08	161.25	31.01	-41.4	-44.7	13.6	4.50e-06	0	56	0	907018240	54	5220
2026-01-10 23:18:43.09	161.44	30.84	-41.4	-44.7	13.5	6.10e-06	0	56	0	909115392	54	5246
2026-01-10 23:18:44.10	161.62	30.67	-41.8	-45.3	12.9	3.28e-05	0	56	0	911212544	54	5635
2026-01-10 23:18:45.11	161.79	30.50	-41.8	-45.4	12.7	8.01e-05	0	56	0	912261120	54	5681
2026-01-10 23:18:46.12	161.97	30.33	-42.0	-45.7	12.5	8.54e-05	0	56	0	914358272	54	5887
2026-01-10 23:18:47.13	162.15	30.16	-42.3	-46.4	11.7	2.11e-04	0	56	0	916455424	55	6043
2026-01-10 23:18:48.14	162.32	29.99	-42.3	-46.4	11.8	6.01e-04	0	56	0	918552576	55	6026
2026-01-10 23:18:49.15	162.49	29.82	-42.6	-47.1	11.0	1.24e-03	0	56	0	920649728	55	6535
2026-01-10 23:18:50.16	162.66	29.65	-42.5	-46.9	11.1	1.98e-03	0	56	0	921698304	55	6367
2026-01-10 23:18:51.17	162.83	29.49	-42.5	-46.8	11.4	1.39e-03	0	56	0	923795456	55	6297
2026-01-10 23:18:52.18	162.99	29.32	-42.1	-45.9	12.3	6.75e-04	0	56	0	925892608	55	5695
2026-01-10 23:18:53.19	163.16	29.15	-41.7	-45.3	12.9	3.81e-05	0	56	0	927989760	55	5280
2026-01-10 23:18:54.20	163.32	28.99	-41.2	-44.3	14.0	5.30e-06	0	56	0	930086912	54	4984
2026-01-10 23:18:55.21	163.48	28.83	-40.8	-43.6	14.6	0.00e+00	0	56	0	931135488	53	4887
2026-01-10 23:18:56.21	163.64	28.67	-40.7	-43.5	14.7	0.00e+00	0	56	0	933232640	53	4835
2026-01-10 23:18:57.22	163.80	28.50	-40.5	-43.3	15.0	0.00e+00	0	56	0	935329792	53	4706
2026-01-10 23:18:58.23	163.95	28.34	-40.5	-43.2	15.1	0.00e+00	0	56	0	937426944	52	4955
2026-01-10 23:18:59.24	164.11	28.18	-40.8	-43.6	14.6	0.00e+00	0	56	0	939524096	52	5210
2026-01-10 23:19:00.25	164.26	28.02	-40.5	-43.2	15.0	7.00e-07	0	57	0	941621248	52	4954
2026-01-10 23:19:01.26	164.42	27.86	-40.7	-43.5	14.7	7.00e-07	0	56	0	942669824	52	5120
2026-01-10 23:19:02.27	164.57	27.70	-40.5	-43.3	14.9	0.00e+00	0	56	0	944766976	52	5019
2026-01-10 23:19:03.28	164.71	27.54	-40.5	-43.2	15.0	7.00e-07	0	56	0	946864128	52	4965
2026-01-10 23:19:04.29	164.86	27.39	-40.8	-43.7	14.5	0.00e+00	0	56	0	948961280	52	5236
2026-01-10 23:19:05.30	165.01	27.23	-40.4	-43.1	15.1	0.00e+00	0	56	0	951058432	52	4883
2026-01-10 23:19:06.31	165.15	27.07	-40.5	-43.2	15.0	0.00e+00	0	56	0	952107008	52	4962
2026-01-10 23:19:07.32	165.30	26.92	-40.7	-43.5	14.6	0.00e+00	0	57	0	954204160	52	5153
2026-01-10 23:19:08.33	165.44	26.76	-40.8	-43.8	14.4	0.00e+00	0	56	0	956301312	52	5290
2026-01-10 23:19:09.34	165.58	26.61	-41.0	-44.1	14.2	3.80e-06	0	56	0	958398464	52	5482
2026-01-10 23:19:10.35	165.72	26.46	-41.0	-44.1	14.1	0.00e+00	0	56	0	960495616	52	5475
2026-01-10 23:19:11.36	165.86	26.30	-41.2	-44.5	13.7	3.00e-06	0	56	0	961544192	53	5408
2026-01-10 23:19:12.37	165.99	26.15	-41.3	-44.6	13.5	4.50e-06	0	56	0	963641344	53	5494
2026-01-10 23:19:13.38	166.13	26.00	-41.5	-44.8	13.3	3.80e-06	0	56	0	965738496	53	5652
2026-01-10 23:19:14.39	166.26	25.85	-41.4	-44.8	13.3	2.21e-05	0	56	0	967835648	53	5638
2026-01-10 23:19:15.40	166.40	25.70	-41.7	-45.2	12.9	4.19e-05	0	56	0	969932800	53	5912
2026-01-10 23:19:16.41	166.53	25.55	-42.0	-45.8	12.3	1.17e-04	0	56	0	970981376	54	5979
2026-01-10 23:19:17.42	166.66	25.40	-42.0	-45.8	12.3	1.13e-04	0	56	0	973078528	54	5925
2026-01-10 23:19:18.43	166.79	25.26	-42.2	-46.2	11.9	2.32e-04	0	56	0	975175680	54	6249
2026-01-10 23:19:19.44	166.92	25.11	-42.2	-46.3	11.7	4.26e-04	0	56	0	977272832	55	5946
2026-01-10 23:19:20.45	167.05	24.96	-41.8	-45.5	12.6	1.75e-04	0	56	0	979369984	55	5428
2026-01-10 23:19:21.46	167.17	24.82	-41.9	-45.7	12.3	2.16e-04	0	56	0	980418560	55	5571
2026-01-10 23:19:22.47	167.30	24.67	-41.6	-45.0	13.1	8.39e-05	0	56	0	982515712	55	5105
2026-01-10 23:19:23.48	167.42	24.53	-41.4	-44.6	13.5	1.29e-05	0	56	0	984612864	54	5190
2026-01-10 23:19:24.49	167.54	24.38	-41.1	-44.2	14.0	2.20e-06	0	56	0	986710016	54	4936
2026-01-10 23:19:25.49	167.66	24.24	-40.7	-43.5	14.6	1.50e-06	0	56	0	988807168	53	4850
2026-01-10 23:19:26.50	167.79	24.10	-40.8	-43.7	14.4	0.00e+00	0	56	0	989855744	53	4965
2026-01-10 23:19:27.51	167.91	23.96	-40.8	-43.6	14.4	0.00e+00	0	56	0	991952896	53	4909
2026-01-10 23:19:28.52	168.02	23.82	-40.8	-43.7	14.4	1.50e-06	0	56	0	994050048	53	4964
2026-01-10 23:19:29.53	168.14	23.68	-41.1	-44.2	13.8	3.80e-06	0	57	0	996147200	53	5267
2026-01-10 23:19:30.54	168.26	23.54	-41.3	-44.5	13.5	4.50e-06	0	56	0	998244352	53	5439
2026-01-10 23:19:31.55	168.37	23.40	-41.6	-45.1	13.0	3.80e-06	0	56	0	999292928	53	5816
2026-01-10 23:19:32.56	168.49	23.26	-41.7	-45.4	12.7	3.73e-05	0	57	0	1001390080	54	5703
2026-01-10 23:19:33.57	168.60	23.12	-41.8	-45.6	12.5	1.13e-04	0	56	0	1003487232	54	5811
2026-01-10 23:19:34.58	168.71	22.98	-42.0	-45.9	12.1	2.38e-04	0	56	0	1005584384	54	6038
2026-01-10 23:19:35.59	168.83	22.85	-41.9	-45.8	12.2	2.12e-04	0	56	0	1007681536	54	5941
2026-01-10 23:19:36.60	168.94	22.71	-41.6	-45.1	12.9	4.27e-05	0	56	0	1009778688	54	5507
2026-01-10 23:19:37.60	169.05	22.58	-41.4	-44.7	13.3	4.80e-05	0	56	0	1010827264	54	5263
2026-01-10 23:19:38.61	169.15	22.44	-41.1	-44.2	13.8	1.06e-05	0	56	0	1012924416	54	4973
2026-01-10 23:19:39.62	169.26	22.31	-40.9	-44.0	14.0	3.80e-06	0	56	0	1015021568	53	5130
2026-01-10 23:19:40.63	169.37	22.17	-40.8	-43.8	14.3	3.00e-06	0	56	0	1017118720	53	4991
2026-01-10 23:19:41.64	169.48	22.04	-40.6	-43.5	14.5	0.00e+00	0	56	0	1019215872	53	4819
2026-01-10 23:19:42.65	169.58	21.91	-40.6	-43.5	14.5	0.00e+00	0	57	0	1020264448	53	4832
2026-01-10 23:19:43.66	169.69	21.78	-40.6	-43.4	14.6	0.00e+00	0	56	0	1022361600	53	4803
2026-01-10 23:19:44.67	169.79	21.64	-40.6	-43.5	14.5	0.00e+00	0	56	0	1024458752	53	4842
2026-01-10 23:19:45.68	169.89	21.51	-40.8	-43.7	14.3	1.50e-06	0	56	0	1026555904	53	4967
2026-01-10 23:19:46.69	169.99	21.38	-41.0	-44.0	14.0	3.80e-06	0	56	0	1028653056	53	5146
2026-01-10 23:19:47.70	170.09	21.25	-40.9	-44.0	14.0	2.20e-06	0	56	0	1029701632	53	5127
2026-01-10 23:19:48.71	170.20	21.12	-41.0	-44.1	13.9	3.00e-06	0	56	0	1031798784	53	5194
2026-01-10 23:19:49.72	170.29	21.00	-41.1	-44.3	13.7	6.10e-06	0	56	0	1033895936	53	5313
2026-01-10 23:19:50.73	170.39	20.87	-41.2	-44.5	13.5	8.30e-06	0	56	0	1035993088	53	5431
2026-01-10 23:19:51.75	170.49	20.74	-41.2	-44.5	13.5	5.30e-06	0	57	0	1038090240	53	5411
2026-01-10 23:19:52.76	170.59	20.61	-41.0	-44.2	13.7	6.80e-06	0	56	0	1039138816	53	5241
2026-01-10 23:19:53.76	170.69	20.49	-40.8	-43.8	14.1	1.50e-06	0	57	0	1041235968	53	5001
2026-01-10 23:19:54.77	170.78	20.36	-40.7	-43.7	14.2	3.00e-06	0	56	0	1043333120	53	4968
2026-01-10 23:19:55.78	170.88	20.24	-40.6	-43.5	14.5	7.00e-07	0	56	0	1045430272	53	4843
2026-01-10 23:19:56.79	170.97	20.11	-40.5	-43.3	14.7	0.00e+00	0	57	0	1047527424	52	5009
2026-01-10 23:19:57.80	171.06	19.99	-40.4	-43.1	14.8	7.00e-07	0	56	0	1048576000	52	4920
2026-01-10 23:19:58.81	171.16	19.87	-40.1	-42.7	15.2	0.00e+00	0	56	0	1050673152	52	4693
2026-01-10 23:19:59.82	171.25	19.74	-40.2	-42.9	15.1	0.00e+00	0	56	0	1052770304	52	4788
2026-01-10 23:20:00.83	171.34	19.62	-40.1	-42.7	15.2	0.00e+00	0	56	0	1054867456	52	4678
2026-01-10 23:20:01.84	171.43	19.50	-40.1	-42.8	15.2	0.00e+00	0	56	0	1056964608	52	4707
2026-01-10 23:20:02.85	171.52	19.38	-40.2	-42.8	15.1	0.00e+00	0	56	0	1058013184	52	4748
2026-01-10 23:20:03.86	171.61	19.26	-40.1	-42.8	15.1	0.00e+00	0	57	0	1060110336	52	4734
2026-01-10 23:20:04.87	171.70	19.14	-40.2	-42.8	15.2	0.00e+00	0	57	0	1062207488	52	4754
2026-01-10 23:20:05.88	171.79	19.02	-40.1	-42.8	15.1	0.00e+00	0	56	0	1064304640	52	4710
2026-01-10 23:20:06.89	171.87	18.90	-40.2	-42.9	15.0	0.00e+00	0	56	0	1066401792	52	4802
2026-01-10 23:20:07.89	171.96	18.78	-40.5	-43.3	14.5	0.00e+00	0	57	0	1067450368	52	5030
2026-01-10 23:20:08.91	172.05	18.66	-40.5	-43.4	14.5	7.00e-07	0	57	0	1069547520	52	5078
2026-01-10 23:20:09.92	172.13	18.54	-40.8	-43.9	14.0	0.00e+00	0	56	0	1071644672	52	5373
2026-01-10 23:20:10.93	172.22	18.43	-41.0	-44.1	13.9	6.80e-06	0	57	0	1073741824	52	5515
2026-01-10 23:20:11.93	172.30	18.31	-41.1	-44.3	13.6	4.50e-06	0	57	0	1075838976	52	5634
2026-01-10 23:20:12.94	172.38	18.20	-41.1	-44.5	13.4	1.22e-05	0	57	0	1077936128	53	5412
2026-01-10 23:20:13.95	172.46	18.08	-41.4	-44.9	12.9	3.43e-05	0	56	0	1078984704	53	5669
2026-01-10 23:20:14.96	172.55	17.96	-41.5	-45.2	12.6	5.95e-05	0	57	0	1081081856	53	5869
2026-01-10 23:20:15.97	172.63	17.85	-41.7	-45.5	12.3	1.05e-04	0	56	0	1083179008	53	6076
2026-01-10 23:20:16.98	172.71	17.74	-41.5	-45.2	12.6	1.07e-04	0	56	0	1085276160	54	5553
2026-01-10 23:20:17.99	172.79	17.62	-41.6	-45.4	12.4	1.09e-04	0	57	0	1086324736	54	5678
2026-01-10 23:20:19.00	172.87	17.51	-41.7	-45.5	12.3	2.78e-04	0	56	0	1088421888	54	5736
2026-01-10 23:20:20.01	172.95	17.40	-41.7	-45.5	12.2	1.90e-04	0	57	0	1090519040	54	5779
2026-01-10 23:20:21.01	173.03	17.28	-41.7	-45.5	12.3	2.33e-04	0	57	0	1092616192	54	5752
2026-01-10 23:20:22.02	173.11	17.17	-41.5	-45.2	12.6	1.45e-04	0	57	0	1094713344	54	5564
2026-01-10 23:20:23.03	173.18	17.06	-41.4	-45.0	12.8	8.54e-05	0	56	0	1095761920	54	5429
2026-01-10 23:20:24.04	173.26	16.95	-41.4	-44.9	12.8	4.73e-05	0	56	0	1097859072	54	5387
2026-01-10 23:20:25.06	173.34	16.84	-41.2	-44.7	13.1	2.05e-05	0	56	0	1099956224	54	5228
2026-01-10 23:20:26.06	173.41	16.73	-41.2	-44.6	13.2	3.50e-05	0	56	0	1102053376	54	5201
2026-01-10 23:20:27.07	173.49	16.62	-41.1	-44.5	13.2	2.74e-05	0	57	0	1104150528	54	5156
2026-01-10 23:20:28.08	173.56	16.51	-41.0	-44.3	13.5	1.60e-05	0	57	0	1106247680	54	5007
2026-01-10 23:20:29.09	173.64	16.40	-41.0	-44.3	13.5	6.80e-06	0	56	0	1107296256	53	5280
2026-01-10 23:20:30.10	173.71	16.29	-40.8	-44.0	13.7	3.00e-06	0	57	0	1109393408	53	5121
2026-01-10 23:20:31.11	173.79	16.19	-40.7	-43.8	14.0	5.30e-06	0	56	0	1111490560	53	4992
2026-01-10 23:20:32.12	173.86	16.08	-40.6	-43.7	14.0	4.50e-06	0	56	0	1113587712	53	4940
2026-01-10 23:20:33.13	173.93	15.97	-40.5	-43.5	14.2	7.00e-07	0	57	0	1115684864	53	4841
2026-01-10 23:20:34.14	174.00	15.87	-40.6	-43.5	14.2	2.20e-06	0	56	0	1116733440	53	4869
2026-01-10 23:20:35.15	174.07	15.76	-40.4	-43.3	14.4	1.50e-06	0	56	0	1118830592	52	5027
2026-01-10 23:20:36.16	174.15	15.65	-40.5	-43.5	14.2	0.00e+00	0	57	0	1120927744	52	5117
2026-01-10 23:20:37.17	174.22	15.55	-40.5	-43.4	14.3	7.00e-07	0	57	0	1123024896	52	5061
2026-01-10 23:20:38.18	174.29	15.44	-40.4	-43.3	14.4	0.00e+00	0	56	0	1125122048	52	5028
2026-01-10 23:20:39.19	174.36	15.34	-40.4	-43.3	14.3	1.50e-06	0	56	0	1126170624	52	5035
2026-01-10 23:20:40.20	174.42	15.24	-40.2	-43.0	14.7	7.00e-07	0	56	0	1128267776	52	4851
2026-01-10 23:20:41.21	174.49	15.13	-40.2	-43.0	14.7	7.00e-07	0	56	0	1130364928	52	4829
2026-01-10 23:20:42.22	174.56	15.03	-40.2	-42.9	14.7	0.00e+00	0	56	0	1132462080	52	4783
2026-01-10 23:20:43.23	174.63	14.93	-40.3	-43.1	14.6	0.00e+00	0	56	0	1134559232	52	4886
2026-01-10 23:20:44.24	174.70	14.82	-40.3	-43.1	14.7	0.00e+00	0	57	0	1135607808	52	4877
2026-01-10 23:20:45.25	174.76	14.72	-40.3	-43.2	14.5	0.00e+00	0	57	0	1137704960	52	4928
2026-01-10 23:20:46.26	174.83	14.62	-40.2	-43.1	14.6	7.00e-07	0	57	0	1139802112	52	4872
2026-01-10 23:20:47.26	174.90	14.52	-40.3	-43.1	14.6	0.00e+00	0	57	0	1141899264	52	4889
2026-01-10 23:20:48.27	174.96	14.42	-40.2	-42.9	14.7	0.00e+00	0	57	0	1143996416	52	4809
2026-01-10 23:20:49.28	175.03	14.32	-40.3	-43.2	14.4	0.00e+00	0	57	0	1145044992	52	4954
2026-01-10 23:20:50.29	175.09	14.22	-40.2	-43.0	14.7	0.00e+00	0	56	0	1147142144	52	4838
2026-01-10 23:20:51.31	175.16	14.12	-40.3	-43.1	14.5	0.00e+00	0	57	0	1149239296	52	4905
2026-01-10 23:20:52.31	175.22	14.02	-40.3	-43.1	14.5	0.00e+00	0	57	0	1151336448	52	4891
2026-01-10 23:20:53.32	175.28	13.92	-40.3	-43.2	14.4	1.50e-06	0	57	0	1153433600	52	4952
