passes_logs/2026/01/10/R2.0S_Moscow/R2.0S_Moscow__20260110_093919_NOAA_20_JPSS-1_rec.log

#Pass ID: 20260110_093919_NOAA 20 (JPSS-1)
#Satellite: NOAA 20 (JPSS-1)
#Configuration: NOAA 20
#almurnet v.1.7.20251203
#Start time: 2026-01-10 09:39:19

#Version: 2.2.20231116
#Station: R2.0S_Moscow
#Location: 37.707566 lon 55.798166 lat
#TLE: 1 43013U 17073A   26009.26828276  .00000112  00000+0  74203-4 0  9990
#TLE: 2 43013  98.7631 310.2683 0001700  47.4387 312.6933 14.19534764421920

#Time	Az	El	Level	Level2	SNR	BER	BlckErr	Temp	State	Recorded	gain1	gain2
2026-01-10 09:39:19.30	152.89	2.01	-43.8	-58.2	3.8	1.49e+00	0	47	0	0	58	19705
2026-01-10 09:39:20.30	152.88	2.07	-43.7	-58.2	3.8	1.49e+00	0	47	104	0	59	18522
2026-01-10 09:39:21.31	152.87	2.14	-43.7	-58.2	3.8	1.49e+00	0	47	104	0	59	18599
2026-01-10 09:39:22.32	152.86	2.20	-43.7	-58.2	3.8	1.49e+00	0	48	104	0	59	18571
2026-01-10 09:39:23.32	152.85	2.27	-43.6	-58.2	3.8	1.49e+00	0	47	104	0	59	18553
2026-01-10 09:39:24.33	152.84	2.33	-43.5	-58.2	3.8	1.49e+00	0	48	104	0	58	19698
2026-01-10 09:39:25.34	152.83	2.40	-43.7	-58.2	3.8	1.49e+00	0	48	104	0	58	19680
2026-01-10 09:39:26.35	152.82	2.47	-43.8	-58.2	3.8	1.49e+00	0	48	104	0	58	19635
2026-01-10 09:39:27.36	152.81	2.53	-43.8	-58.2	3.8	1.49e+00	0	48	104	0	58	19695
2026-01-10 09:39:28.37	152.80	2.60	-43.8	-58.1	3.8	1.49e+00	0	48	104	0	58	19610
2026-01-10 09:39:29.37	152.79	2.66	-43.8	-58.2	3.8	1.49e+00	0	48	104	0	58	19672
2026-01-10 09:39:30.38	152.78	2.73	-43.8	-58.2	3.8	1.49e+00	0	48	104	0	58	19666
2026-01-10 09:39:31.39	152.77	2.80	-43.8	-58.2	3.8	1.49e+00	0	48	104	0	58	19672
2026-01-10 09:39:32.40	152.76	2.86	-43.7	-58.2	3.8	1.49e+00	0	48	104	0	58	19699
2026-01-10 09:39:33.41	152.75	2.93	-43.8	-58.2	3.8	1.49e+00	0	48	104	0	58	19733
2026-01-10 09:39:34.42	152.74	3.00	-43.8	-58.2	3.8	1.49e+00	0	49	104	0	58	19693
2026-01-10 09:39:35.43	152.73	3.06	-43.7	-58.2	3.8	1.49e+00	0	48	104	0	58	19683
2026-01-10 09:39:36.44	152.72	3.13	-43.7	-58.2	3.8	1.49e+00	0	48	104	0	58	19661
2026-01-10 09:39:37.45	152.71	3.20	-43.7	-58.2	3.8	1.49e+00	0	49	104	0	58	19668
2026-01-10 09:39:38.46	152.70	3.27	-43.8	-58.2	3.8	1.49e+00	0	49	104	0	58	19673
2026-01-10 09:39:39.46	152.69	3.33	-43.7	-58.2	3.8	1.49e+00	0	49	104	0	58	19692
2026-01-10 09:39:40.47	152.68	3.40	-43.7	-58.1	3.8	1.49e+00	0	49	104	0	58	19593
2026-01-10 09:39:41.48	152.67	3.47	-43.7	-58.2	3.8	1.49e+00	0	49	104	0	58	19639
2026-01-10 09:39:42.49	152.66	3.54	-43.7	-58.2	3.8	1.49e+00	0	49	104	0	58	19681
2026-01-10 09:39:43.50	152.65	3.61	-43.7	-58.2	3.8	1.49e+00	0	49	104	0	58	19660
2026-01-10 09:39:44.51	152.64	3.68	-43.7	-58.1	3.8	1.49e+00	0	49	104	0	58	19602
2026-01-10 09:39:45.52	152.63	3.75	-43.7	-58.2	3.8	1.49e+00	0	49	104	0	58	19615
2026-01-10 09:39:46.52	152.62	3.81	-43.7	-58.2	3.8	1.49e+00	0	49	104	0	58	19658
2026-01-10 09:39:47.53	152.60	3.88	-43.7	-58.2	3.8	1.49e+00	0	49	104	0	58	19624
2026-01-10 09:39:48.54	152.59	3.95	-43.7	-58.2	3.8	1.49e+00	0	49	104	0	58	19629
2026-01-10 09:39:49.55	152.58	4.02	-43.7	-58.2	3.8	1.49e+00	0	49	104	0	58	19645
2026-01-10 09:39:50.56	152.57	4.09	-43.8	-58.2	3.8	1.49e+00	0	49	104	0	58	19669
2026-01-10 09:39:51.57	152.56	4.16	-43.7	-58.2	3.8	1.49e+00	0	49	104	0	58	19655
2026-01-10 09:39:52.58	152.55	4.23	-43.7	-58.2	3.8	1.49e+00	0	49	104	0	58	19668
2026-01-10 09:39:53.59	152.54	4.30	-43.7	-58.2	3.8	1.49e+00	0	50	104	0	58	19675
2026-01-10 09:39:54.60	152.53	4.37	-43.7	-58.1	3.8	1.49e+00	0	50	104	0	58	19597
2026-01-10 09:39:55.60	152.51	4.44	-43.7	-58.2	3.8	1.49e+00	0	50	104	0	58	19689
2026-01-10 09:39:56.61	152.50	4.51	-43.7	-58.2	3.8	1.49e+00	0	49	104	0	58	19628
2026-01-10 09:39:57.63	152.49	4.59	-43.7	-58.1	3.8	1.49e+00	0	50	104	0	58	19600
2026-01-10 09:39:58.63	152.48	4.66	-43.7	-58.2	3.8	1.49e+00	0	50	104	0	58	19634
2026-01-10 09:39:59.65	152.47	4.73	-43.7	-58.1	3.8	1.49e+00	0	50	104	0	58	19605
2026-01-10 09:40:00.65	152.46	4.80	-43.7	-58.1	3.8	1.49e+00	0	50	104	0	58	19599
2026-01-10 09:40:01.66	152.44	4.87	-43.7	-58.1	3.8	1.49e+00	0	50	104	0	58	19567
2026-01-10 09:40:02.67	152.43	4.94	-43.7	-58.2	3.8	1.49e+00	0	50	104	0	58	19617
2026-01-10 09:40:03.68	152.42	5.02	-43.7	-58.1	3.8	1.49e+00	0	50	104	0	58	19583
2026-01-10 09:40:04.69	152.41	5.09	-43.7	-58.1	3.8	1.49e+00	0	50	104	0	58	19494
2026-01-10 09:40:05.70	152.39	5.16	-43.7	-58.1	3.8	1.49e+00	0	50	104	0	58	19430
2026-01-10 09:40:06.71	152.38	5.23	-43.7	-58.0	3.8	1.49e+00	0	50	104	0	58	19280
2026-01-10 09:40:07.72	152.37	5.31	-43.7	-57.9	3.8	1.49e+00	0	50	104	0	58	19107
2026-01-10 09:40:08.72	152.36	5.38	-43.7	-57.8	3.8	1.49e+00	0	50	104	0	58	18904
2026-01-10 09:40:09.74	152.34	5.45	-43.7	-57.7	3.8	1.49e+00	0	50	104	0	58	18704
2026-01-10 09:40:10.75	152.33	5.53	-43.7	-57.7	3.8	1.49e+00	0	50	104	0	58	18583
2026-01-10 09:40:11.76	152.32	5.60	-43.7	-57.7	3.8	1.49e+00	0	51	104	0	58	18537
2026-01-10 09:40:12.77	152.31	5.68	-43.7	-57.5	3.8	1.49e+00	0	51	104	0	58	18212
2026-01-10 09:40:13.77	152.29	5.75	-43.7	-57.4	3.8	1.49e+00	0	50	104	0	58	18078
2026-01-10 09:40:14.78	152.28	5.82	-43.7	-57.5	3.8	1.49e+00	0	51	104	0	58	18162
2026-01-10 09:40:15.79	152.27	5.90	-43.7	-57.6	3.8	1.49e+00	0	51	104	0	58	18350
2026-01-10 09:40:16.80	152.25	5.97	-43.7	-57.9	3.8	1.49e+00	0	51	104	0	58	18954
2026-01-10 09:40:17.81	152.24	6.05	-43.7	-57.9	3.8	1.49e+00	0	51	104	0	58	19128
2026-01-10 09:40:18.82	152.23	6.12	-43.7	-57.9	3.8	1.49e+00	0	51	104	0	58	19095
2026-01-10 09:40:19.82	152.22	6.20	-43.7	-57.9	3.8	1.49e+00	0	51	104	0	58	19040
2026-01-10 09:40:20.83	152.20	6.27	-43.7	-57.9	3.8	1.49e+00	0	51	104	0	58	19141
2026-01-10 09:40:21.84	152.19	6.35	-43.7	-58.1	3.8	1.49e+00	0	51	104	0	58	19485
2026-01-10 09:40:22.85	152.17	6.43	-43.7	-58.2	3.8	1.49e+00	0	51	104	0	58	19641
2026-01-10 09:40:23.86	152.16	6.50	-43.7	-58.1	3.8	1.49e+00	0	51	104	0	58	19548
2026-01-10 09:40:24.87	152.15	6.58	-43.7	-58.0	3.8	1.49e+00	0	51	104	0	58	19227
2026-01-10 09:40:25.88	152.13	6.66	-43.7	-57.6	3.8	1.49e+00	0	51	104	0	58	18373
2026-01-10 09:40:26.89	152.12	6.73	-43.7	-57.2	3.8	1.49e+00	0	51	104	0	58	17579
2026-01-10 09:40:27.90	152.11	6.81	-43.6	-56.5	3.8	1.49e+00	0	51	104	0	58	16301
2026-01-10 09:40:28.91	152.09	6.89	-43.6	-55.5	3.9	1.48e+00	0	51	104	0	58	14453
2026-01-10 09:40:29.92	152.08	6.97	-43.5	-54.6	4.2	1.42e+00	0	51	0	0	58	12991
2026-01-10 09:40:30.93	152.06	7.05	-43.4	-53.6	4.5	1.25e+00	0	51	0	1048576	58	11563
2026-01-10 09:40:31.94	152.05	7.12	-43.3	-52.7	5.0	8.42e-01	0	51	0	2097152	58	10443
2026-01-10 09:40:32.94	152.03	7.20	-43.2	-51.7	5.5	5.41e-01	0	51	0	4194304	58	9371
2026-01-10 09:40:33.95	152.02	7.28	-42.9	-50.4	6.5	3.03e-01	0	52	0	6291456	57	8533
2026-01-10 09:40:34.96	152.01	7.36	-42.7	-49.7	7.2	1.92e-01	0	51	0	8388608	57	7845
2026-01-10 09:40:35.97	151.99	7.44	-42.6	-49.0	7.8	9.42e-02	0	51	0	10485760	57	7260
2026-01-10 09:40:36.98	151.98	7.52	-42.4	-48.5	8.3	6.21e-02	0	52	0	11534336	56	7282
2026-01-10 09:40:37.98	151.96	7.60	-42.2	-47.8	9.0	4.06e-02	0	51	0	13631488	56	6722
2026-01-10 09:40:38.99	151.95	7.68	-42.1	-47.5	9.4	1.77e-02	0	52	0	15728640	56	6439
2026-01-10 09:40:40.00	151.93	7.76	-42.0	-47.1	9.8	1.39e-02	0	52	0	17825792	56	6180
2026-01-10 09:40:41.01	151.92	7.84	-41.7	-46.6	10.1	8.16e-03	0	52	0	19922944	55	6171
2026-01-10 09:40:42.02	151.90	7.92	-41.7	-46.6	10.1	7.23e-03	0	52	0	20971520	55	6164
2026-01-10 09:40:43.03	151.88	8.00	-41.7	-46.5	10.2	4.52e-03	0	52	0	23068672	55	6130
2026-01-10 09:40:44.03	151.87	8.08	-41.6	-46.5	10.2	6.72e-03	0	52	0	25165824	55	6100
2026-01-10 09:40:45.04	151.85	8.16	-44.1	-58.1	3.8	9.06e-02	0	52	104	26214400	58	19413
2026-01-10 09:40:46.04	151.84	8.24	-43.8	-56.8	3.8	1.26e+00	0	52	104	26214400	58	16887
2026-01-10 09:40:47.06	151.82	8.33	-41.1	-45.2	11.6	1.85e-02	0	52	0	27262976	54	5558
2026-01-10 09:40:48.07	151.81	8.41	-42.2	-47.6	9.3	6.05e-04	0	52	0	28311552	55	6911
2026-01-10 09:40:49.08	151.79	8.49	-43.3	-56.1	3.8	6.35e-01	0	52	104	30408704	57	16373
2026-01-10 09:40:50.08	151.77	8.57	-41.0	-45.0	11.9	5.18e-02	0	52	0	30408704	54	5414
2026-01-10 09:40:51.09	151.76	8.66	-40.9	-44.8	12.1	3.03e-04	0	52	0	32505856	53	5603
2026-01-10 09:40:52.10	151.74	8.74	-40.8	-44.4	12.5	1.50e-04	0	52	0	34603008	53	5400
2026-01-10 09:40:53.11	151.73	8.82	-40.9	-44.6	12.3	1.35e-04	0	52	0	36700160	53	5497
2026-01-10 09:40:54.12	151.71	8.91	-40.9	-44.6	12.3	1.58e-04	0	52	0	38797312	53	5514
2026-01-10 09:40:55.13	151.69	8.99	-40.9	-44.6	12.4	1.36e-04	0	52	0	39845888	53	5478
2026-01-10 09:40:56.14	151.68	9.08	-40.8	-44.5	12.6	7.62e-05	0	52	0	41943040	53	5419
2026-01-10 09:40:57.15	151.66	9.16	-40.8	-44.3	12.7	8.16e-05	0	52	0	44040192	53	5331
2026-01-10 09:40:58.15	151.64	9.24	-40.8	-44.4	12.7	9.38e-05	0	52	0	46137344	53	5374
2026-01-10 09:40:59.16	151.62	9.33	-40.8	-44.3	12.8	4.73e-05	0	52	0	48234496	53	5305
2026-01-10 09:41:00.17	151.61	9.42	-40.8	-44.3	12.8	6.33e-05	0	52	0	49283072	53	5315
2026-01-10 09:41:01.18	151.59	9.50	-40.8	-44.3	12.8	6.10e-05	0	52	0	51380224	53	5329
2026-01-10 09:41:02.18	151.57	9.59	-40.8	-44.2	12.9	4.50e-05	0	53	0	53477376	53	5273
2026-01-10 09:41:03.19	151.55	9.67	-40.8	-44.3	12.9	5.26e-05	0	53	0	55574528	53	5291
2026-01-10 09:41:04.20	151.54	9.76	-40.7	-44.2	13.0	4.88e-05	0	52	0	57671680	53	5235
2026-01-10 09:41:05.20	151.52	9.85	-40.7	-44.1	13.1	3.12e-05	0	52	0	58720256	53	5181
2026-01-10 09:41:06.21	151.50	9.93	-40.7	-44.0	13.2	2.67e-05	0	53	0	60817408	53	5148
2026-01-10 09:41:07.22	151.48	10.02	-40.7	-44.1	13.1	2.44e-05	0	53	0	62914560	53	5215
2026-01-10 09:41:08.23	151.46	10.11	-40.7	-44.1	13.2	1.60e-05	0	53	0	65011712	53	5183
2026-01-10 09:41:09.24	151.45	10.20	-40.7	-44.0	13.3	2.44e-05	0	53	0	67108864	53	5144
2026-01-10 09:41:10.25	151.43	10.29	-40.7	-44.0	13.3	1.29e-05	0	53	0	69206016	53	5125
2026-01-10 09:41:11.26	151.41	10.38	-40.7	-44.0	13.3	1.90e-05	0	53	0	70254592	53	5134
2026-01-10 09:41:12.27	151.39	10.47	-40.6	-43.9	13.5	1.52e-05	0	53	0	72351744	53	5054
2026-01-10 09:41:13.28	151.37	10.56	-40.7	-44.0	13.4	1.14e-05	0	53	0	74448896	53	5101
2026-01-10 09:41:14.28	151.35	10.65	-40.6	-43.9	13.5	1.52e-05	0	53	0	76546048	53	5051
2026-01-10 09:41:15.29	151.33	10.74	-40.6	-43.8	13.6	1.22e-05	0	53	0	77594624	53	5014
2026-01-10 09:41:16.30	151.31	10.83	-40.6	-43.8	13.5	1.22e-05	0	53	0	79691776	53	5035
2026-01-10 09:41:17.31	151.30	10.92	-40.6	-43.9	13.5	1.22e-05	0	53	0	81788928	53	5062
2026-01-10 09:41:18.31	151.28	11.01	-40.6	-43.9	13.5	1.22e-05	0	53	0	83886080	53	5052
2026-01-10 09:41:19.32	151.26	11.10	-40.6	-43.8	13.6	6.10e-06	0	53	0	85983232	53	5003
2026-01-10 09:41:20.33	151.24	11.19	-40.6	-43.8	13.6	5.30e-06	0	53	0	87031808	53	4994
2026-01-10 09:41:21.34	151.22	11.28	-40.6	-43.8	13.6	7.60e-06	0	53	0	89128960	53	5012
2026-01-10 09:41:22.34	151.20	11.38	-40.6	-43.7	13.8	3.00e-06	0	53	0	91226112	53	4942
2026-01-10 09:41:23.35	151.18	11.47	-40.5	-43.6	13.8	3.00e-06	0	53	0	93323264	53	4920
2026-01-10 09:41:24.35	151.16	11.56	-40.6	-43.7	13.8	5.30e-06	0	53	0	95420416	53	4961
2026-01-10 09:41:25.36	151.14	11.65	-40.6	-43.7	13.8	6.10e-06	0	53	0	97517568	53	4937
2026-01-10 09:41:26.37	151.12	11.75	-40.6	-43.7	13.8	3.00e-06	0	53	0	98566144	53	4964
2026-01-10 09:41:27.37	151.09	11.84	-40.6	-43.7	13.9	6.10e-06	0	53	0	100663296	53	4931
2026-01-10 09:41:28.38	151.07	11.94	-40.6	-43.6	13.9	3.80e-06	0	53	0	102760448	53	4921
2026-01-10 09:41:29.39	151.05	12.03	-40.5	-43.5	14.1	2.20e-06	0	53	0	104857600	53	4824
2026-01-10 09:41:30.39	151.03	12.13	-40.5	-43.5	14.1	4.50e-06	0	53	0	105906176	52	5118
2026-01-10 09:41:31.40	151.01	12.22	-40.5	-43.6	14.0	5.30e-06	0	53	0	108003328	52	5184
2026-01-10 09:41:32.41	150.99	12.32	-40.6	-43.6	14.0	2.20e-06	0	53	0	110100480	52	5191
2026-01-10 09:41:33.41	150.97	12.42	-40.5	-43.5	14.1	1.50e-06	0	53	0	112197632	52	5140
2026-01-10 09:41:34.42	150.94	12.51	-40.5	-43.5	14.1	7.00e-07	0	53	0	114294784	52	5103
2026-01-10 09:41:35.43	150.92	12.61	-40.5	-43.5	14.1	3.80e-06	0	53	0	115343360	52	5123
2026-01-10 09:41:36.43	150.90	12.71	-40.5	-43.5	14.1	7.00e-07	0	53	0	117440512	52	5142
2026-01-10 09:41:37.44	150.88	12.80	-40.4	-43.4	14.2	1.50e-06	0	53	0	119537664	52	5084
2026-01-10 09:41:38.45	150.86	12.90	-40.5	-43.5	14.1	7.00e-07	0	54	0	121634816	52	5154
2026-01-10 09:41:39.46	150.83	13.00	-40.5	-43.5	14.1	7.00e-07	0	53	0	123731968	52	5151
2026-01-10 09:41:40.47	150.81	13.10	-40.5	-43.4	14.3	1.50e-06	0	53	0	125829120	52	5084
2026-01-10 09:41:41.48	150.79	13.20	-40.4	-43.3	14.4	1.50e-06	0	53	0	126877696	52	5027
2026-01-10 09:41:42.49	150.76	13.30	-40.4	-43.3	14.4	7.00e-07	0	53	0	128974848	52	5021
2026-01-10 09:41:43.49	150.74	13.40	-40.3	-43.2	14.5	0.00e+00	0	54	0	131072000	52	4958
2026-01-10 09:41:44.50	150.72	13.50	-40.3	-43.1	14.6	7.00e-07	0	53	0	133169152	52	4922
2026-01-10 09:41:45.51	150.69	13.60	-40.3	-43.2	14.5	0.00e+00	0	54	0	135266304	52	4955
2026-01-10 09:41:46.52	150.67	13.71	-40.3	-43.1	14.6	1.50e-06	0	53	0	136314880	52	4915
2026-01-10 09:41:47.53	150.65	13.81	-40.3	-43.1	14.6	0.00e+00	0	53	0	138412032	52	4900
2026-01-10 09:41:48.53	150.62	13.91	-40.3	-43.1	14.6	0.00e+00	0	53	0	140509184	52	4905
2026-01-10 09:41:49.54	150.60	14.01	-40.3	-43.0	14.7	7.00e-07	0	53	0	142606336	52	4854
2026-01-10 09:41:50.55	150.57	14.12	-40.3	-43.1	14.6	7.00e-07	0	53	0	144703488	52	4909
2026-01-10 09:41:51.55	150.55	14.22	-40.3	-43.1	14.7	2.20e-06	0	54	0	145752064	52	4890
2026-01-10 09:41:52.56	150.52	14.32	-40.4	-43.2	14.5	1.50e-06	0	54	0	147849216	52	4960
2026-01-10 09:41:53.57	150.50	14.43	-40.3	-43.1	14.6	0.00e+00	0	53	0	149946368	52	4921
2026-01-10 09:41:54.58	150.47	14.53	-40.3	-43.1	14.7	7.00e-07	0	54	0	152043520	52	4889
2026-01-10 09:41:55.58	150.45	14.64	-40.3	-43.0	14.8	0.00e+00	0	53	0	154140672	52	4864
2026-01-10 09:41:56.59	150.42	14.75	-40.2	-42.9	14.9	0.00e+00	0	54	0	155189248	52	4807
2026-01-10 09:41:57.60	150.39	14.85	-40.2	-42.9	14.9	0.00e+00	0	53	0	157286400	52	4799
2026-01-10 09:41:58.60	150.37	14.96	-40.2	-42.9	14.9	0.00e+00	0	54	0	159383552	52	4792
2026-01-10 09:41:59.61	150.34	15.07	-40.2	-42.9	14.9	0.00e+00	0	54	0	161480704	52	4793
2026-01-10 09:42:00.62	150.31	15.17	-40.3	-43.0	14.8	0.00e+00	0	54	0	163577856	52	4848
2026-01-10 09:42:01.62	150.29	15.28	-40.2	-42.9	14.9	0.00e+00	0	54	0	164626432	52	4814
2026-01-10 09:42:02.63	150.26	15.39	-40.2	-42.9	14.9	0.00e+00	0	54	0	166723584	52	4808
2026-01-10 09:42:03.64	150.23	15.50	-40.2	-42.9	14.9	0.00e+00	0	54	0	168820736	52	4810
2026-01-10 09:42:04.64	150.21	15.61	-40.2	-43.0	14.9	0.00e+00	0	54	0	170917888	52	4826
2026-01-10 09:42:05.65	150.18	15.72	-40.3	-43.1	14.8	7.00e-07	0	54	0	173015040	52	4873
2026-01-10 09:42:06.65	150.15	15.83	-40.2	-43.0	14.9	0.00e+00	0	54	0	174063616	52	4824
2026-01-10 09:42:07.66	150.12	15.94	-40.2	-43.0	14.9	0.00e+00	0	54	0	176160768	52	4831
2026-01-10 09:42:08.67	150.09	16.05	-40.2	-43.0	14.9	0.00e+00	0	54	0	178257920	52	4826
2026-01-10 09:42:09.67	150.07	16.17	-40.2	-42.9	15.0	7.00e-07	0	54	0	180355072	52	4762
2026-01-10 09:42:10.68	150.04	16.28	-40.2	-42.9	15.0	0.00e+00	0	54	0	182452224	52	4762
2026-01-10 09:42:11.69	150.01	16.39	-40.1	-42.8	15.1	0.00e+00	0	54	0	183500800	52	4719
2026-01-10 09:42:12.69	149.98	16.50	-40.1	-42.7	15.2	0.00e+00	0	54	0	185597952	52	4663
2026-01-10 09:42:13.70	149.95	16.62	-40.1	-42.7	15.3	0.00e+00	0	54	0	187695104	52	4656
2026-01-10 09:42:14.71	149.92	16.73	-40.1	-42.6	15.3	0.00e+00	0	54	0	189792256	52	4641
2026-01-10 09:42:15.71	149.89	16.85	-40.0	-42.5	15.4	0.00e+00	0	54	0	191889408	52	4585
2026-01-10 09:42:16.72	149.86	16.97	-40.0	-42.6	15.3	7.00e-07	0	54	0	192937984	52	4624
2026-01-10 09:42:17.73	149.83	17.08	-40.0	-42.6	15.3	0.00e+00	0	54	0	195035136	52	4628
2026-01-10 09:42:18.73	149.80	17.20	-40.1	-42.7	15.3	0.00e+00	0	54	0	197132288	52	4668
2026-01-10 09:42:19.74	149.77	17.32	-40.1	-42.7	15.3	0.00e+00	0	54	0	199229440	52	4670
2026-01-10 09:42:20.75	149.73	17.43	-40.1	-42.7	15.2	0.00e+00	0	54	0	200278016	52	4694
2026-01-10 09:42:21.75	149.70	17.55	-40.2	-42.8	15.2	0.00e+00	0	54	0	202375168	52	4732
2026-01-10 09:42:22.77	149.67	17.67	-40.2	-42.8	15.2	0.00e+00	0	54	0	204472320	52	4737
2026-01-10 09:42:23.77	149.64	17.79	-40.1	-42.7	15.3	0.00e+00	0	54	0	206569472	52	4696
2026-01-10 09:42:24.78	149.61	17.91	-40.1	-42.7	15.3	0.00e+00	0	54	0	208666624	52	4681
2026-01-10 09:42:25.79	149.57	18.03	-40.0	-42.6	15.4	0.00e+00	0	54	0	210763776	52	4635
2026-01-10 09:42:26.80	149.54	18.16	-40.1	-42.6	15.3	0.00e+00	0	54	0	211812352	52	4651
2026-01-10 09:42:27.80	149.51	18.28	-40.0	-42.6	15.4	0.00e+00	0	54	0	213909504	52	4600
2026-01-10 09:42:28.81	149.47	18.40	-40.0	-42.5	15.5	0.00e+00	0	54	0	216006656	52	4573
2026-01-10 09:42:29.81	149.44	18.52	-40.0	-42.5	15.5	0.00e+00	0	54	0	218103808	51	4869
2026-01-10 09:42:30.82	149.40	18.65	-40.0	-42.5	15.6	0.00e+00	0	54	0	220200960	51	4860
2026-01-10 09:42:31.83	149.37	18.77	-40.1	-42.6	15.5	0.00e+00	0	54	0	221249536	51	4871
2026-01-10 09:42:32.84	149.33	18.90	-40.1	-42.6	15.5	0.00e+00	0	54	0	223346688	51	4905
2026-01-10 09:42:33.84	149.30	19.02	-40.1	-42.6	15.5	0.00e+00	0	54	0	225443840	51	4909
2026-01-10 09:42:34.85	149.26	19.15	-40.1	-42.6	15.5	0.00e+00	0	54	0	227540992	51	4921
2026-01-10 09:42:35.86	149.23	19.28	-40.1	-42.6	15.5	0.00e+00	0	54	0	229638144	51	4924
2026-01-10 09:42:36.87	149.19	19.41	-40.1	-42.6	15.5	0.00e+00	0	54	0	230686720	51	4913
2026-01-10 09:42:37.88	149.16	19.53	-40.1	-42.6	15.5	0.00e+00	0	54	0	232783872	51	4912
2026-01-10 09:42:38.89	149.12	19.66	-40.1	-42.6	15.6	0.00e+00	0	54	0	234881024	51	4884
2026-01-10 09:42:39.90	149.08	19.79	-40.0	-42.5	15.7	0.00e+00	0	54	0	236978176	51	4827
2026-01-10 09:42:40.91	149.04	19.92	-40.0	-42.4	15.7	0.00e+00	0	54	0	239075328	51	4806
2026-01-10 09:42:41.92	149.01	20.06	-39.9	-42.3	15.8	0.00e+00	0	54	0	240123904	51	4754
2026-01-10 09:42:42.93	148.97	20.19	-40.0	-42.4	15.8	0.00e+00	0	54	0	242221056	51	4782
2026-01-10 09:42:43.93	148.93	20.32	-39.9	-42.3	15.9	0.00e+00	0	54	0	244318208	51	4707
2026-01-10 09:42:44.94	148.89	20.45	-39.9	-42.3	15.9	0.00e+00	0	54	0	246415360	51	4734
2026-01-10 09:42:45.95	148.85	20.59	-39.9	-42.3	15.8	0.00e+00	0	54	0	248512512	51	4756
2026-01-10 09:42:46.95	148.81	20.72	-40.0	-42.4	15.7	0.00e+00	0	54	0	249561088	51	4814
2026-01-10 09:42:47.96	148.77	20.86	-40.0	-42.5	15.7	0.00e+00	0	54	0	251658240	51	4820
2026-01-10 09:42:48.97	148.73	20.99	-40.1	-42.5	15.7	0.00e+00	0	54	0	253755392	51	4854
2026-01-10 09:42:49.97	148.69	21.13	-40.1	-42.6	15.7	0.00e+00	0	54	0	255852544	51	4875
2026-01-10 09:42:50.98	148.65	21.27	-40.1	-42.6	15.6	0.00e+00	0	54	0	257949696	51	4892
2026-01-10 09:42:51.99	148.61	21.41	-40.0	-42.5	15.7	0.00e+00	0	54	0	258998272	51	4824
2026-01-10 09:42:52.99	148.57	21.54	-40.0	-42.4	15.8	0.00e+00	0	54	0	261095424	51	4808
2026-01-10 09:42:54.00	148.52	21.68	-40.0	-42.5	15.7	0.00e+00	0	54	0	263192576	51	4821
2026-01-10 09:42:55.01	148.48	21.82	-39.9	-42.2	16.0	0.00e+00	0	54	0	265289728	51	4701
2026-01-10 09:42:56.02	148.44	21.97	-39.9	-42.2	16.1	0.00e+00	0	54	0	267386880	51	4669
2026-01-10 09:42:57.02	148.40	22.11	-39.8	-42.1	16.1	0.00e+00	0	54	0	268435456	51	4620
2026-01-10 09:42:58.03	148.35	22.25	-39.8	-42.0	16.2	0.00e+00	0	54	0	270532608	51	4593
2026-01-10 09:42:59.04	148.31	22.39	-39.8	-42.1	16.1	0.00e+00	0	54	0	272629760	51	4624
2026-01-10 09:43:00.04	148.26	22.54	-39.8	-42.1	16.1	0.00e+00	0	54	0	274726912	51	4650
2026-01-10 09:43:01.05	148.22	22.68	-39.9	-42.2	16.0	0.00e+00	0	54	0	276824064	51	4699
2026-01-10 09:43:02.06	148.17	22.83	-40.0	-42.4	15.8	0.00e+00	0	55	0	277872640	51	4805
2026-01-10 09:43:03.06	148.13	22.97	-40.0	-42.5	15.8	0.00e+00	0	54	0	279969792	51	4826
2026-01-10 09:43:04.07	148.08	23.12	-40.1	-42.6	15.7	0.00e+00	0	55	0	282066944	51	4908
2026-01-10 09:43:05.07	148.03	23.27	-40.2	-42.7	15.6	0.00e+00	0	55	0	284164096	51	4957
2026-01-10 09:43:06.08	147.98	23.42	-40.2	-42.7	15.6	0.00e+00	0	54	0	286261248	51	4974
2026-01-10 09:43:07.09	147.94	23.57	-40.2	-42.7	15.6	0.00e+00	0	54	0	287309824	51	4946
2026-01-10 09:43:08.10	147.89	23.72	-40.2	-42.6	15.6	0.00e+00	0	55	0	289406976	51	4924
2026-01-10 09:43:09.10	147.84	23.87	-40.1	-42.6	15.7	0.00e+00	0	54	0	291504128	51	4893
2026-01-10 09:43:10.11	147.79	24.02	-40.2	-42.7	15.6	0.00e+00	0	55	0	293601280	51	4975
2026-01-10 09:43:11.11	147.74	24.18	-40.2	-42.6	15.7	0.00e+00	0	55	0	295698432	51	4911
2026-01-10 09:43:12.11	147.69	24.33	-40.3	-42.8	15.5	0.00e+00	0	54	0	296747008	51	5029
2026-01-10 09:43:13.12	147.64	24.48	-40.4	-42.9	15.4	7.00e-07	0	55	0	298844160	51	5085
2026-01-10 09:43:14.13	147.59	24.64	-40.4	-43.0	15.3	0.00e+00	0	55	0	300941312	51	5142
2026-01-10 09:43:15.13	147.53	24.80	-40.5	-43.1	15.2	0.00e+00	0	55	0	303038464	51	5182
2026-01-10 09:43:16.14	147.48	24.96	-40.5	-43.2	15.1	0.00e+00	0	55	0	305135616	51	5249
2026-01-10 09:43:17.15	147.43	25.12	-40.6	-43.2	15.1	0.00e+00	0	55	0	306184192	51	5260
2026-01-10 09:43:18.16	147.37	25.28	-40.6	-43.3	15.0	7.00e-07	0	55	0	308281344	51	5317
2026-01-10 09:43:19.16	147.32	25.43	-40.7	-43.3	15.0	0.00e+00	0	55	0	310378496	51	5339
2026-01-10 09:43:20.17	147.26	25.60	-40.7	-43.4	14.9	0.00e+00	0	55	0	312475648	51	5387
2026-01-10 09:43:21.18	147.21	25.76	-40.7	-43.4	14.8	0.00e+00	0	55	0	314572800	52	5085
2026-01-10 09:43:22.18	147.15	25.92	-40.7	-43.6	14.7	0.00e+00	0	55	0	315621376	52	5161
2026-01-10 09:43:23.19	147.10	26.09	-40.8	-43.7	14.6	7.00e-07	0	55	0	317718528	52	5230
2026-01-10 09:43:24.20	147.04	26.25	-40.9	-43.8	14.5	2.20e-06	0	55	0	319815680	52	5300
2026-01-10 09:43:25.21	146.98	26.42	-41.0	-44.0	14.3	1.50e-06	0	55	0	321912832	52	5423
2026-01-10 09:43:26.21	146.92	26.59	-41.1	-44.1	14.1	7.00e-07	0	55	0	324009984	52	5498
2026-01-10 09:43:27.22	146.86	26.76	-41.2	-44.2	14.0	3.00e-06	0	55	0	325058560	52	5575
2026-01-10 09:43:28.23	146.80	26.93	-41.2	-44.3	14.0	3.00e-06	0	55	0	327155712	53	5291
2026-01-10 09:43:29.24	146.74	27.10	-41.3	-44.4	13.9	2.20e-06	0	55	0	329252864	53	5351
2026-01-10 09:43:30.24	146.68	27.27	-41.3	-44.4	13.9	3.00e-06	0	55	0	331350016	53	5389
2026-01-10 09:43:31.25	146.62	27.44	-41.4	-44.6	13.6	6.10e-06	0	54	0	333447168	53	5511
2026-01-10 09:43:32.26	146.56	27.61	-41.4	-44.7	13.6	8.30e-06	0	55	0	334495744	53	5534
2026-01-10 09:43:33.26	146.49	27.79	-41.6	-44.9	13.3	9.10e-06	0	55	0	336592896	53	5718
2026-01-10 09:43:34.27	146.43	27.96	-41.7	-45.1	13.1	3.35e-05	0	55	0	338690048	53	5855
2026-01-10 09:43:35.28	146.36	28.14	-41.7	-45.2	13.1	3.43e-05	0	55	0	340787200	54	5566
2026-01-10 09:43:36.28	146.30	28.32	-41.8	-45.3	12.9	3.73e-05	0	55	0	342884352	54	5633
2026-01-10 09:43:37.29	146.23	28.50	-41.9	-45.5	12.8	7.17e-05	0	55	0	343932928	54	5756
2026-01-10 09:43:38.30	146.16	28.68	-41.9	-45.6	12.7	6.63e-05	0	55	0	346030080	54	5794
2026-01-10 09:43:39.30	146.10	28.86	-42.1	-45.8	12.5	9.53e-05	0	55	0	348127232	54	5945
2026-01-10 09:43:40.31	146.03	29.04	-42.1	-45.8	12.4	9.76e-05	0	55	0	350224384	54	5970
2026-01-10 09:43:41.32	145.96	29.23	-42.1	-45.9	12.3	1.59e-04	0	55	0	352321536	54	6035
2026-01-10 09:43:42.33	145.89	29.41	-42.2	-46.0	12.3	1.78e-04	0	55	0	353370112	54	6077
2026-01-10 09:43:43.33	145.82	29.60	-42.2	-46.1	12.1	2.08e-04	0	55	0	355467264	55	5827
2026-01-10 09:43:44.34	145.74	29.78	-42.3	-46.4	11.9	3.70e-04	0	55	0	357564416	55	5994
2026-01-10 09:43:45.35	145.67	29.97	-42.4	-46.6	11.7	6.05e-04	0	55	0	359661568	55	6147
2026-01-10 09:43:46.35	145.60	30.16	-42.5	-46.6	11.6	5.50e-04	0	55	0	361758720	55	6179
2026-01-10 09:43:47.36	145.52	30.35	-42.5	-46.6	11.6	5.52e-04	0	55	0	362807296	55	6197
2026-01-10 09:43:48.36	145.45	30.54	-42.5	-46.6	11.6	7.34e-04	0	55	0	364904448	55	6198
2026-01-10 09:43:49.37	145.37	30.74	-42.5	-46.6	11.6	6.97e-04	0	55	0	367001600	55	6164
2026-01-10 09:43:50.38	145.29	30.93	-42.5	-46.7	11.5	9.15e-04	0	55	0	369098752	55	6259
2026-01-10 09:43:51.39	145.21	31.13	-42.6	-46.8	11.4	9.11e-04	0	55	0	371195904	55	6336
2026-01-10 09:43:52.40	145.13	31.33	-42.7	-47.1	11.2	1.19e-03	0	55	0	372244480	55	6496
2026-01-10 09:43:53.40	145.05	31.52	-42.9	-47.3	11.0	1.83e-03	0	55	0	374341632	56	6330
2026-01-10 09:43:54.41	144.97	31.72	-43.0	-47.6	10.8	2.47e-03	0	55	0	376438784	56	6565
2026-01-10 09:43:55.43	144.89	31.93	-43.2	-48.0	10.4	3.63e-03	0	55	0	378535936	56	6862
2026-01-10 09:43:56.43	144.80	32.13	-43.1	-48.0	10.4	4.41e-03	0	55	0	380633088	56	6802
2026-01-10 09:43:57.44	144.72	32.33	-43.1	-47.9	10.5	3.64e-03	0	55	0	381681664	56	6778
2026-01-10 09:43:58.45	144.63	32.53	-43.2	-48.0	10.4	5.76e-03	0	55	0	383778816	57	6486
2026-01-10 09:43:59.46	144.54	32.74	-43.2	-48.1	10.3	5.19e-03	0	55	0	385875968	57	6542
2026-01-10 09:44:00.47	144.46	32.95	-43.3	-48.3	10.1	5.16e-03	0	55	0	387973120	57	6649
2026-01-10 09:44:01.48	144.37	33.16	-43.3	-48.3	10.1	5.93e-03	0	55	0	390070272	57	6695
2026-01-10 09:44:02.48	144.28	33.37	-43.3	-48.5	9.9	7.72e-03	0	55	0	391118848	57	6806
2026-01-10 09:44:03.49	144.18	33.58	-43.4	-48.6	9.8	1.25e-02	0	55	0	393216000	57	6906
2026-01-10 09:44:04.50	144.09	33.79	-43.3	-48.4	10.0	7.72e-03	0	55	0	395313152	57	6797
2026-01-10 09:44:05.51	144.00	34.01	-43.4	-48.6	9.8	9.12e-03	0	55	0	397410304	57	6904
2026-01-10 09:44:06.52	143.90	34.22	-43.3	-48.2	10.1	7.15e-03	0	55	0	399507456	57	6635
2026-01-10 09:44:07.53	143.80	34.44	-43.2	-48.1	10.2	5.30e-03	0	55	0	400556032	57	6567
2026-01-10 09:44:08.54	143.70	34.66	-43.1	-47.9	10.5	4.98e-03	0	55	0	402653184	57	6363
2026-01-10 09:44:09.55	143.60	34.88	-43.1	-47.8	10.6	4.05e-03	0	55	0	404750336	57	6307
2026-01-10 09:44:10.56	143.50	35.10	-43.0	-47.6	10.9	2.38e-03	0	55	0	406847488	57	6135
2026-01-10 09:44:11.56	143.40	35.32	-43.0	-47.5	10.9	2.16e-03	0	55	0	408944640	57	6081
2026-01-10 09:44:12.57	143.30	35.55	-43.0	-47.5	10.9	2.02e-03	0	55	0	409993216	57	6118
2026-01-10 09:44:13.58	143.19	35.77	-42.8	-47.1	11.4	1.57e-03	0	55	0	412090368	57	5850
2026-01-10 09:44:14.59	143.08	36.00	-42.9	-47.1	11.3	1.18e-03	0	55	0	414187520	57	5846
2026-01-10 09:44:15.60	142.97	36.23	-42.9	-47.3	11.2	1.34e-03	0	55	0	416284672	57	5938
2026-01-10 09:44:16.60	142.86	36.46	-42.9	-47.2	11.3	1.27e-03	0	55	0	418381824	57	5884
2026-01-10 09:44:17.61	142.75	36.69	-43.0	-47.5	10.9	1.82e-03	0	55	0	420478976	57	6118
2026-01-10 09:44:18.62	142.64	36.93	-43.2	-48.0	10.4	2.60e-03	0	55	0	421527552	57	6456
2026-01-10 09:44:19.62	142.52	37.16	-43.3	-48.3	10.1	4.24e-03	0	55	0	423624704	57	6720
2026-01-10 09:44:20.63	142.41	37.40	-43.3	-48.4	10.0	7.61e-03	0	55	0	425721856	57	6763
2026-01-10 09:44:21.63	142.29	37.63	-43.4	-48.6	9.8	8.21e-03	0	55	0	427819008	57	6921
2026-01-10 09:44:22.64	142.17	37.87	-43.4	-48.4	10.0	6.80e-03	0	55	0	428867584	57	6774
2026-01-10 09:44:23.65	142.05	38.11	-43.3	-48.3	10.1	7.38e-03	0	55	0	430964736	57	6716
2026-01-10 09:44:24.65	141.92	38.36	-43.3	-48.3	10.2	6.30e-03	0	55	0	433061888	57	6659
2026-01-10 09:44:25.66	141.80	38.60	-43.3	-48.3	10.1	7.07e-03	0	55	0	435159040	57	6690
2026-01-10 09:44:26.67	141.67	38.85	-43.4	-48.4	10.1	7.10e-03	0	55	0	437256192	57	6779
2026-01-10 09:44:27.67	141.54	39.09	-43.3	-48.3	10.1	7.63e-03	0	55	0	438304768	57	6710
2026-01-10 09:44:28.68	141.41	39.34	-43.3	-48.3	10.2	5.94e-03	0	55	0	440401920	57	6658
2026-01-10 09:44:29.68	141.28	39.59	-43.3	-48.3	10.2	6.93e-03	0	55	0	442499072	57	6671
2026-01-10 09:44:30.69	141.14	39.84	-43.3	-48.2	10.3	6.22e-03	0	55	0	444596224	57	6571
2026-01-10 09:44:31.70	141.00	40.10	-43.2	-48.1	10.4	5.83e-03	0	55	0	446693376	57	6513
2026-01-10 09:44:32.70	140.86	40.35	-43.2	-47.9	10.6	4.19e-03	0	55	0	448790528	57	6402
2026-01-10 09:44:33.71	140.72	40.61	-43.1	-47.8	10.7	3.28e-03	0	55	0	449839104	57	6304
2026-01-10 09:44:34.72	140.57	40.87	-42.9	-47.4	11.1	2.23e-03	0	55	0	451936256	57	5994
2026-01-10 09:44:35.72	140.43	41.13	-42.9	-47.3	11.3	1.69e-03	0	55	0	454033408	57	5947
2026-01-10 09:44:36.73	140.28	41.39	-42.9	-47.3	11.2	1.35e-03	0	55	0	456130560	57	5948
2026-01-10 09:44:37.74	140.12	41.65	-42.9	-47.3	11.2	1.38e-03	0	55	0	457179136	57	5965
2026-01-10 09:44:38.75	139.97	41.92	-42.9	-47.4	11.2	1.40e-03	0	55	0	459276288	57	6002
2026-01-10 09:44:39.76	139.81	42.19	-42.9	-47.2	11.3	1.21e-03	0	55	0	461373440	57	5908
2026-01-10 09:44:40.77	139.65	42.46	-42.7	-46.9	11.7	7.18e-04	0	55	0	463470592	57	5661
2026-01-10 09:44:41.77	139.49	42.73	-42.6	-46.5	12.1	3.58e-04	0	55	0	465567744	57	5416
2026-01-10 09:44:42.78	139.32	43.00	-42.5	-46.3	12.3	2.35e-04	0	55	0	466616320	56	5621
2026-01-10 09:44:43.79	139.15	43.27	-42.5	-46.3	12.2	2.04e-04	0	55	0	468713472	56	5643
2026-01-10 09:44:44.80	138.98	43.55	-42.5	-46.3	12.3	1.81e-04	0	55	0	470810624	56	5651
2026-01-10 09:44:45.81	138.80	43.83	-42.4	-46.1	12.5	1.07e-04	0	55	0	472907776	56	5504
2026-01-10 09:44:46.82	138.63	44.11	-42.1	-45.6	12.9	5.64e-05	0	55	0	475004928	56	5212
2026-01-10 09:44:47.82	138.45	44.39	-42.0	-45.4	13.2	2.51e-05	0	55	0	477102080	56	5057
2026-01-10 09:44:48.84	138.26	44.67	-41.7	-45.0	13.5	2.28e-05	0	55	0	478150656	55	5128
2026-01-10 09:44:49.84	138.07	44.95	-41.7	-45.1	13.4	1.52e-05	0	55	0	480247808	55	5175
2026-01-10 09:44:50.85	137.88	45.24	-41.7	-45.0	13.4	9.90e-06	0	55	0	482344960	55	5132
2026-01-10 09:44:51.86	137.69	45.53	-41.6	-44.8	13.7	7.60e-06	0	55	0	484442112	55	5011
2026-01-10 09:44:52.87	137.49	45.82	-41.4	-44.5	14.0	3.80e-06	0	55	0	486539264	54	5147
2026-01-10 09:44:53.87	137.29	46.11	-41.3	-44.3	14.2	3.00e-06	0	55	0	487587840	54	4993
2026-01-10 09:44:54.88	137.08	46.40	-41.2	-44.2	14.3	0.00e+00	0	56	0	489684992	54	4952
2026-01-10 09:44:55.89	136.87	46.69	-41.3	-44.3	14.2	1.50e-06	0	55	0	491782144	54	5005
2026-01-10 09:44:56.90	136.66	46.99	-41.3	-44.2	14.3	7.00e-07	0	55	0	493879296	54	4965
2026-01-10 09:44:57.91	136.44	47.29	-41.2	-44.1	14.4	1.50e-06	0	55	0	495976448	54	4874
2026-01-10 09:44:58.92	136.22	47.59	-41.2	-44.1	14.4	7.00e-07	0	55	0	497025024	54	4872
2026-01-10 09:44:59.92	135.99	47.89	-41.1	-44.0	14.4	7.00e-07	0	55	0	499122176	54	4866
2026-01-10 09:45:00.93	135.76	48.19	-41.2	-44.1	14.4	2.20e-06	0	55	0	501219328	54	4872
2026-01-10 09:45:01.94	135.52	48.49	-41.2	-44.0	14.5	0.00e+00	0	55	0	503316480	54	4868
2026-01-10 09:45:02.94	135.28	48.80	-41.3	-44.2	14.3	2.20e-06	0	56	0	505413632	54	4981
2026-01-10 09:45:03.95	135.04	49.10	-41.2	-44.2	14.3	7.00e-07	0	55	0	506462208	54	4939
2026-01-10 09:45:04.96	134.79	49.41	-41.3	-44.2	14.3	2.20e-06	0	55	0	508559360	54	4975
2026-01-10 09:45:05.97	134.53	49.72	-41.2	-44.1	14.4	3.00e-06	0	55	0	510656512	54	4895
2026-01-10 09:45:06.97	134.27	50.03	-41.1	-43.9	14.6	1.50e-06	0	55	0	512753664	54	4797
2026-01-10 09:45:07.98	134.00	50.35	-41.0	-43.8	14.7	7.00e-07	0	55	0	514850816	53	5026
2026-01-10 09:45:08.99	133.73	50.66	-40.8	-43.5	15.1	0.00e+00	0	55	0	515899392	53	4819
2026-01-10 09:45:10.00	133.45	50.98	-40.5	-43.0	15.4	0.00e+00	0	55	0	517996544	53	4594
2026-01-10 09:45:11.01	133.17	51.30	-40.3	-42.7	15.8	0.00e+00	0	55	0	520093696	52	4687
2026-01-10 09:45:12.02	132.88	51.62	-40.3	-42.8	15.7	0.00e+00	0	55	0	522190848	52	4739
2026-01-10 09:45:13.02	132.58	51.93	-40.3	-42.7	15.8	0.00e+00	0	56	0	524288000	52	4693
2026-01-10 09:45:14.03	132.28	52.26	-40.4	-42.9	15.6	0.00e+00	0	55	0	525336576	52	4778
2026-01-10 09:45:15.04	131.97	52.58	-40.4	-42.9	15.6	0.00e+00	0	55	0	527433728	52	4761
2026-01-10 09:45:16.04	131.66	52.90	-40.4	-42.9	15.6	0.00e+00	0	55	0	529530880	52	4784
2026-01-10 09:45:17.05	131.33	53.23	-40.4	-42.9	15.6	0.00e+00	0	55	0	531628032	52	4769
2026-01-10 09:45:18.06	131.00	53.55	-40.3	-42.7	15.7	0.00e+00	0	55	0	533725184	52	4687
2026-01-10 09:45:19.06	130.67	53.88	-40.2	-42.7	15.9	0.00e+00	0	55	0	534773760	52	4658
2026-01-10 09:45:20.07	130.32	54.21	-40.2	-42.6	15.9	0.00e+00	0	55	0	536870912	52	4631
2026-01-10 09:45:21.08	129.96	54.54	-40.3	-42.8	15.7	0.00e+00	0	55	0	538968064	52	4733
2026-01-10 09:45:22.08	129.60	54.86	-40.5	-43.1	15.4	0.00e+00	0	55	0	541065216	52	4877
2026-01-10 09:45:23.09	129.23	55.20	-40.7	-43.3	15.2	0.00e+00	0	55	0	543162368	52	5014
2026-01-10 09:45:24.10	128.85	55.53	-41.1	-44.1	14.4	7.00e-07	0	55	0	544210944	52	5481
2026-01-10 09:45:25.11	128.46	55.86	-41.5	-44.7	13.8	2.20e-06	0	56	0	546308096	53	5534
2026-01-10 09:45:26.12	128.06	56.20	-41.6	-44.8	13.7	3.00e-06	0	56	0	548405248	53	5621
2026-01-10 09:45:27.12	127.65	56.53	-41.7	-45.1	13.4	9.90e-06	0	55	0	550502400	53	5791
2026-01-10 09:45:28.13	127.24	56.86	-42.2	-45.9	12.5	2.74e-05	0	55	0	552599552	54	6032
2026-01-10 09:45:29.14	126.81	57.20	-42.5	-46.5	11.9	2.82e-04	0	55	0	553648128	55	6118
2026-01-10 09:45:30.15	126.36	57.54	-42.6	-46.9	11.4	7.29e-04	0	56	0	555745280	55	6400
2026-01-10 09:45:31.16	125.91	57.87	-43.1	-47.8	10.7	1.52e-03	0	55	0	557842432	56	6692
2026-01-10 09:45:32.17	125.45	58.21	-43.3	-48.2	10.2	5.59e-03	0	55	0	559939584	57	6644
2026-01-10 09:45:33.18	124.97	58.54	-43.1	-47.7	10.7	4.61e-03	0	55	0	562036736	57	6222
2026-01-10 09:45:34.19	124.49	58.88	-42.7	-46.9	11.5	1.67e-03	0	55	0	563085312	57	5720
2026-01-10 09:45:35.19	123.99	59.21	-42.7	-46.9	11.6	7.84e-04	0	55	0	565182464	57	5702
2026-01-10 09:45:36.20	123.48	59.55	-42.6	-46.6	11.9	5.16e-04	0	55	0	567279616	57	5484
2026-01-10 09:45:37.21	122.95	59.89	-42.1	-45.7	12.9	1.35e-04	0	55	0	569376768	56	5256
2026-01-10 09:45:38.22	122.41	60.22	-41.8	-45.1	13.3	3.05e-05	0	55	0	571473920	55	5194
2026-01-10 09:45:39.22	121.86	60.55	-41.6	-44.9	13.4	2.67e-05	0	55	0	572522496	55	5080
2026-01-10 09:45:40.23	121.29	60.89	-41.7	-45.1	13.3	1.75e-05	0	55	0	574619648	55	5175
2026-01-10 09:45:41.24	120.71	61.22	-41.4	-44.5	13.9	6.10e-06	0	55	0	576716800	54	5114
2026-01-10 09:45:42.25	120.11	61.55	-41.1	-43.9	14.4	7.00e-07	0	55	0	578813952	54	4802
2026-01-10 09:45:43.25	119.50	61.88	-40.7	-43.4	15.1	0.00e+00	0	55	0	580911104	53	4770
2026-01-10 09:45:44.26	118.86	62.21	-40.3	-42.8	15.6	0.00e+00	0	56	0	581959680	52	4747
2026-01-10 09:45:45.27	118.21	62.54	-40.1	-42.5	16.0	0.00e+00	0	55	0	584056832	52	4564
2026-01-10 09:45:46.28	117.54	62.87	-40.1	-42.5	16.0	0.00e+00	0	55	0	586153984	51	4833
2026-01-10 09:45:47.29	116.85	63.19	-40.3	-42.7	15.8	0.00e+00	0	56	0	588251136	51	4982
2026-01-10 09:45:48.30	116.15	63.52	-40.5	-43.0	15.5	0.00e+00	0	55	0	590348288	51	5146
2026-01-10 09:45:49.31	115.42	63.84	-40.5	-43.0	15.5	0.00e+00	0	55	0	591396864	51	5128
2026-01-10 09:45:50.31	114.68	64.15	-40.6	-43.2	15.2	0.00e+00	0	55	0	593494016	52	4971
2026-01-10 09:45:51.32	113.91	64.47	-40.7	-43.5	15.0	0.00e+00	0	56	0	595591168	52	5103
2026-01-10 09:45:52.33	113.12	64.78	-40.9	-43.7	14.8	0.00e+00	0	55	0	597688320	52	5220
2026-01-10 09:45:53.34	112.31	65.09	-41.0	-43.8	14.6	0.00e+00	0	55	0	599785472	52	5313
2026-01-10 09:45:54.35	111.48	65.39	-41.3	-44.4	14.0	0.00e+00	0	56	0	600834048	53	5362
2026-01-10 09:45:55.35	110.63	65.69	-41.7	-45.0	13.4	1.29e-05	0	56	0	602931200	53	5767
2026-01-10 09:45:56.36	109.75	65.99	-41.9	-45.4	13.0	4.19e-05	0	56	0	605028352	54	5715
2026-01-10 09:45:57.37	108.85	66.28	-42.2	-46.0	12.4	6.10e-05	0	55	0	607125504	54	6082
2026-01-10 09:45:58.38	107.92	66.57	-42.5	-46.7	11.7	5.65e-04	0	55	0	609222656	55	6229
2026-01-10 09:45:59.38	106.97	66.86	-42.6	-46.9	11.4	6.57e-04	0	55	0	610271232	55	6358
2026-01-10 09:46:00.39	105.99	67.14	-42.6	-46.7	11.6	6.22e-04	0	55	0	612368384	55	6273
2026-01-10 09:46:01.40	104.98	67.41	-42.6	-46.8	11.5	7.16e-04	0	55	0	614465536	55	6336
2026-01-10 09:46:02.40	103.96	67.68	-42.5	-46.6	11.8	6.91e-04	0	55	0	616562688	55	6145
2026-01-10 09:46:03.41	102.90	67.94	-42.3	-46.2	12.1	3.96e-04	0	55	0	618659840	55	5900
2026-01-10 09:46:04.42	101.81	68.19	-42.5	-46.6	11.7	3.33e-04	0	56	0	619708416	55	6142
2026-01-10 09:46:05.43	100.70	68.44	-42.2	-46.0	12.4	2.70e-04	0	55	0	621805568	55	5783
2026-01-10 09:46:06.43	99.56	68.68	-42.0	-45.6	12.8	9.61e-05	0	56	0	623902720	55	5495
2026-01-10 09:46:07.44	98.39	68.92	-42.1	-45.8	12.6	8.23e-05	0	55	0	625999872	55	5596
2026-01-10 09:46:08.45	97.19	69.15	-42.1	-45.8	12.6	1.43e-04	0	55	0	628097024	55	5613
2026-01-10 09:46:09.46	95.97	69.36	-41.6	-44.9	13.5	3.43e-05	0	55	0	630194176	55	5051
2026-01-10 09:46:10.47	94.71	69.57	-41.1	-44.1	14.3	2.20e-06	0	56	0	631242752	54	4886
2026-01-10 09:46:11.48	93.43	69.78	-40.9	-43.7	14.7	7.00e-07	0	55	0	633339904	53	4940
2026-01-10 09:46:12.49	92.12	69.97	-41.2	-44.3	14.2	0.00e+00	0	55	0	635437056	53	5288
2026-01-10 09:46:13.50	90.78	70.15	-41.4	-44.6	13.8	1.50e-06	0	56	0	637534208	53	5495
2026-01-10 09:46:14.51	89.42	70.32	-41.4	-44.6	13.8	5.30e-06	0	56	0	639631360	53	5490
2026-01-10 09:46:15.52	88.03	70.48	-41.2	-44.2	14.2	2.20e-06	0	55	0	640679936	53	5231
2026-01-10 09:46:16.53	86.62	70.64	-40.8	-43.5	14.8	0.00e+00	0	55	0	642777088	53	4860
2026-01-10 09:46:17.53	85.20	70.77	-40.9	-43.7	14.7	0.00e+00	0	55	0	644874240	53	4975
2026-01-10 09:46:18.54	83.75	70.90	-41.3	-44.4	14.0	7.00e-07	0	56	0	646971392	53	5383
2026-01-10 09:46:19.55	82.27	71.02	-41.5	-44.7	13.6	6.10e-06	0	55	0	649068544	53	5590
2026-01-10 09:46:20.56	80.78	71.13	-41.5	-44.6	13.8	7.60e-06	0	56	0	650117120	53	5520
2026-01-10 09:46:21.56	79.28	71.22	-41.3	-44.3	14.0	3.00e-06	0	56	0	652214272	53	5339
2026-01-10 09:46:22.58	77.74	71.30	-41.4	-44.5	13.9	2.20e-06	0	55	0	654311424	53	5444
2026-01-10 09:46:23.58	76.22	71.37	-41.4	-44.6	13.7	3.80e-06	0	56	0	656408576	53	5515
2026-01-10 09:46:24.59	74.67	71.42	-41.6	-45.0	13.4	1.06e-05	0	56	0	658505728	53	5731
2026-01-10 09:46:25.60	73.11	71.47	-41.5	-44.8	13.6	1.06e-05	0	55	0	659554304	53	5630
2026-01-10 09:46:26.60	71.56	71.50	-41.6	-45.0	13.4	1.22e-05	0	55	0	661651456	53	5726
2026-01-10 09:46:27.61	70.00	71.51	-41.6	-44.9	13.5	1.06e-05	0	56	0	663748608	53	5698
2026-01-10 09:46:28.62	68.43	71.52	-41.4	-44.6	13.8	9.10e-06	0	56	0	665845760	53	5506
2026-01-10 09:46:29.62	66.87	71.51	-41.5	-44.7	13.7	2.20e-06	0	55	0	667942912	53	5574
2026-01-10 09:46:30.63	65.31	71.48	-41.3	-44.3	14.1	3.00e-06	0	55	0	668991488	53	5307
2026-01-10 09:46:31.63	63.76	71.45	-41.1	-44.0	14.5	1.50e-06	0	56	0	671088640	53	5130
2026-01-10 09:46:32.64	62.21	71.40	-41.4	-44.5	14.0	1.50e-06	0	56	0	673185792	53	5430
2026-01-10 09:46:33.65	60.66	71.34	-41.4	-44.6	14.0	3.80e-06	0	56	0	675282944	53	5474
2026-01-10 09:46:34.65	59.15	71.27	-41.0	-43.9	14.6	2.20e-06	0	56	0	677380096	53	5042
2026-01-10 09:46:35.66	57.63	71.18	-40.8	-43.6	14.9	0.00e+00	0	55	0	678428672	53	4876
2026-01-10 09:46:36.66	56.14	71.08	-41.2	-44.1	14.4	0.00e+00	0	56	0	680525824	53	5195
2026-01-10 09:46:37.67	54.65	70.97	-41.2	-44.3	14.2	5.30e-06	0	56	0	682622976	53	5281
2026-01-10 09:46:38.68	53.19	70.85	-41.1	-44.1	14.3	1.50e-06	0	55	0	684720128	53	5187
2026-01-10 09:46:39.68	51.76	70.72	-41.1	-44.1	14.4	7.00e-07	0	55	0	686817280	53	5171
2026-01-10 09:46:40.69	50.33	70.57	-41.4	-44.6	13.8	7.00e-07	0	56	0	687865856	53	5489
2026-01-10 09:46:41.69	48.95	70.42	-41.8	-45.2	13.3	1.60e-05	0	55	0	689963008	54	5549
2026-01-10 09:46:42.70	47.57	70.25	-42.0	-45.6	12.8	2.97e-05	0	56	0	692060160	54	5800
2026-01-10 09:46:43.71	46.22	70.08	-42.2	-46.1	12.3	9.84e-05	0	56	0	694157312	55	5832
2026-01-10 09:46:44.72	44.90	69.89	-42.4	-46.4	12.0	3.36e-04	0	55	0	696254464	55	6035
2026-01-10 09:46:45.72	43.61	69.70	-42.7	-47.1	11.3	5.93e-04	0	56	0	697303040	55	6505
2026-01-10 09:46:46.73	42.34	69.49	-43.1	-47.8	10.7	1.74e-03	0	56	0	699400192	56	6714
2026-01-10 09:46:47.74	41.10	69.28	-43.1	-47.7	10.9	3.01e-03	0	56	0	701497344	56	6599
2026-01-10 09:46:48.74	39.90	69.06	-42.9	-47.3	11.2	1.35e-03	0	56	0	703594496	56	6309
2026-01-10 09:46:49.75	38.71	68.83	-42.8	-47.1	11.5	9.96e-04	0	56	0	704643072	56	6194
2026-01-10 09:46:50.75	37.56	68.59	-42.8	-47.0	11.5	7.71e-04	0	56	0	706740224	56	6129
2026-01-10 09:46:51.76	36.43	68.35	-43.3	-48.4	10.1	4.16e-03	0	56	0	708837376	57	6791
2026-01-10 09:46:52.77	35.33	68.10	-43.4	-48.7	9.8	9.24e-03	0	56	0	710934528	57	6970
2026-01-10 09:46:53.77	34.26	67.84	-43.4	-48.7	9.9	9.19e-03	0	55	0	713031680	57	6964
2026-01-10 09:46:54.78	33.21	67.58	-43.2	-47.9	10.7	5.66e-03	0	56	0	715128832	57	6354
2026-01-10 09:46:55.79	32.19	67.31	-42.8	-47.1	11.4	2.25e-03	0	55	0	716177408	57	5855
2026-01-10 09:46:56.79	31.21	67.04	-42.6	-46.7	11.9	6.05e-04	0	56	0	718274560	57	5565
2026-01-10 09:46:57.80	30.24	66.75	-42.6	-46.6	12.0	3.83e-04	0	56	0	720371712	57	5480
2026-01-10 09:46:58.80	29.30	66.47	-42.4	-46.3	12.3	2.33e-04	0	56	0	722468864	56	5625
2026-01-10 09:46:59.81	28.38	66.18	-42.3	-45.9	12.7	7.85e-05	0	55	0	724566016	56	5389
2026-01-10 09:47:00.82	27.49	65.89	-41.6	-44.8	13.6	1.14e-05	0	55	0	725614592	55	5014
2026-01-10 09:47:01.82	26.63	65.59	-41.1	-43.9	14.6	7.00e-07	0	56	0	727711744	54	4803
2026-01-10 09:47:02.83	25.78	65.29	-40.8	-43.6	15.0	0.00e+00	0	55	0	729808896	53	4879
2026-01-10 09:47:03.84	24.96	64.98	-40.5	-43.1	15.5	0.00e+00	0	56	0	731906048	53	4608
2026-01-10 09:47:04.84	24.16	64.67	-40.3	-42.8	15.7	0.00e+00	0	55	0	732954624	52	4723
2026-01-10 09:47:05.85	23.38	64.36	-40.2	-42.6	16.0	0.00e+00	0	56	0	735051776	52	4608
2026-01-10 09:47:06.86	22.62	64.05	-40.1	-42.5	16.1	0.00e+00	0	56	0	737148928	52	4569
2026-01-10 09:47:07.86	21.89	63.73	-40.1	-42.5	16.0	0.00e+00	0	55	0	739246080	52	4574
2026-01-10 09:47:08.87	21.17	63.41	-40.0	-42.3	16.3	0.00e+00	0	56	0	741343232	51	4758
2026-01-10 09:47:09.88	20.48	63.09	-40.1	-42.4	16.2	0.00e+00	0	56	0	743440384	51	4798
2026-01-10 09:47:10.89	19.80	62.76	-40.1	-42.5	16.2	0.00e+00	0	55	0	744488960	51	4820
2026-01-10 09:47:11.89	19.14	62.44	-40.2	-42.6	16.0	0.00e+00	0	56	0	746586112	51	4926
2026-01-10 09:47:12.90	18.50	62.11	-40.3	-42.8	15.9	0.00e+00	0	55	0	748683264	51	4990
2026-01-10 09:47:13.92	17.86	61.78	-40.5	-43.1	15.6	0.00e+00	0	56	0	750780416	51	5170
2026-01-10 09:47:14.92	17.26	61.45	-40.6	-43.2	15.3	0.00e+00	0	55	0	752877568	52	4982
2026-01-10 09:47:15.93	16.67	61.12	-40.9	-43.7	14.9	7.00e-07	0	55	0	753926144	52	5246
2026-01-10 09:47:16.94	16.09	60.79	-40.9	-43.6	15.0	0.00e+00	0	56	0	756023296	52	5192
2026-01-10 09:47:17.95	15.52	60.45	-41.0	-43.8	14.8	0.00e+00	0	56	0	758120448	52	5289
2026-01-10 09:47:18.96	14.98	60.12	-41.1	-44.0	14.7	7.00e-07	0	55	0	760217600	52	5417
2026-01-10 09:47:19.97	14.44	59.78	-41.6	-44.9	13.6	0.00e+00	0	55	0	762314752	53	5682
2026-01-10 09:47:20.98	13.92	59.45	-42.2	-45.9	12.7	6.02e-05	0	56	0	763363328	54	6032
2026-01-10 09:47:21.99	13.41	59.11	-42.3	-46.2	12.3	1.61e-04	0	56	0	765460480	55	5898
2026-01-10 09:47:22.99	12.92	58.78	-42.2	-45.9	12.6	1.03e-04	0	56	0	767557632	55	5697
2026-01-10 09:47:24.00	12.44	58.45	-42.2	-46.0	12.5	1.11e-04	0	56	0	769654784	55	5731
2026-01-10 09:47:25.01	11.97	58.11	-42.2	-46.0	12.4	9.76e-05	0	56	0	771751936	55	5769
2026-01-10 09:47:26.01	11.52	57.78	-42.3	-46.2	12.2	1.67e-04	0	56	0	772800512	55	5912
2026-01-10 09:47:27.02	11.07	57.44	-42.6	-46.7	11.6	4.80e-04	0	56	0	774897664	55	6271
2026-01-10 09:47:28.02	10.64	57.11	-42.5	-46.7	11.8	7.22e-04	0	56	0	776994816	55	6222
2026-01-10 09:47:29.04	10.21	56.77	-42.2	-46.0	12.4	2.82e-04	0	56	0	779091968	55	5787
2026-01-10 09:47:30.04	9.80	56.44	-41.8	-45.2	13.3	5.11e-05	0	56	0	781189120	55	5262
2026-01-10 09:47:31.05	9.39	56.11	-41.6	-44.9	13.7	6.80e-06	0	56	0	782237696	55	5071
2026-01-10 09:47:32.06	9.00	55.78	-41.3	-44.4	14.2	3.00e-06	0	56	0	784334848	54	5046
2026-01-10 09:47:33.07	8.61	55.44	-41.2	-44.1	14.5	7.00e-07	0	56	0	786432000	54	4898
2026-01-10 09:47:34.08	8.24	55.11	-40.9	-43.7	14.8	0.00e+00	0	56	0	788529152	53	4959
2026-01-10 09:47:35.08	7.87	54.79	-40.6	-43.1	15.3	0.00e+00	0	56	0	790626304	53	4645
2026-01-10 09:47:36.09	7.51	54.46	-40.4	-42.8	15.7	0.00e+00	0	56	0	791674880	52	4743
2026-01-10 09:47:37.10	7.16	54.13	-40.5	-43.0	15.5	0.00e+00	0	55	0	793772032	52	4867
2026-01-10 09:47:38.10	6.82	53.80	-40.6	-43.1	15.5	0.00e+00	0	56	0	795869184	51	5189
2026-01-10 09:47:39.11	6.48	53.48	-40.3	-42.8	15.8	0.00e+00	0	56	0	797966336	51	4999
2026-01-10 09:47:40.12	6.16	53.15	-40.2	-42.6	16.0	7.00e-07	0	56	0	800063488	51	4890
2026-01-10 09:47:41.12	5.84	52.83	-40.3	-42.8	15.8	0.00e+00	0	56	0	801112064	51	5011
2026-01-10 09:47:42.13	5.52	52.51	-40.5	-42.9	15.7	0.00e+00	0	56	0	803209216	51	5095
2026-01-10 09:47:43.14	5.22	52.19	-40.5	-43.0	15.5	1.50e-06	0	56	0	805306368	51	5148
2026-01-10 09:47:44.14	4.92	51.87	-40.7	-43.3	15.3	0.00e+00	0	56	0	807403520	51	5332
2026-01-10 09:47:45.15	4.62	51.55	-40.9	-43.7	14.8	0.00e+00	0	56	0	809500672	52	5259
2026-01-10 09:47:46.16	4.34	51.23	-40.1	-44.3	14.2	1.50e-06	0	56	0	810549248	53	5317
2026-01-10 09:47:47.17	4.05	50.92	-41.6	-44.8	13.7	6.80e-06	0	56	0	812646400	53	5638
2026-01-10 09:47:48.18	3.78	50.60	-41.7	-45.0	13.5	1.29e-05	0	56	0	814743552	53	5746
2026-01-10 09:47:49.18	3.51	50.29	-41.8	-45.2	13.3	9.10e-06	0	56	0	816840704	54	5563
2026-01-10 09:47:50.19	3.25	49.98	-41.9	-45.4	13.1	2.89e-05	0	56	0	818937856	54	5688
2026-01-10 09:47:51.20	2.99	49.67	-42.2	-46.0	12.5	8.77e-05	0	56	0	819986432	54	6079
2026-01-10 09:47:52.21	2.73	49.36	-42.3	-46.1	12.4	1.65e-04	0	56	0	822083584	55	5804
2026-01-10 09:47:53.22	2.49	49.05	-42.2	-46.0	12.5	1.53e-04	0	56	0	824180736	55	5740
2026-01-10 09:47:54.23	2.24	48.75	-42.2	-45.9	12.5	9.99e-05	0	55	0	826277888	55	5701
2026-01-10 09:47:55.24	2.00	48.44	-42.3	-46.2	12.2	1.25e-04	0	56	0	828375040	55	5903
2026-01-10 09:47:56.24	1.77	48.14	-42.4	-46.4	12.0	2.91e-04	0	56	0	829423616	55	6005
2026-01-10 09:47:57.25	1.54	47.84	-42.3	-46.2	12.1	2.66e-04	0	56	0	831520768	55	5905
2026-01-10 09:47:58.25	1.32	47.54	-42.1	-45.8	12.6	1.88e-04	0	56	0	833617920	55	5639
2026-01-10 09:47:59.26	1.10	47.25	-42.2	-45.9	12.5	1.44e-04	0	56	0	835715072	55	5716
2026-01-10 09:48:00.26	0.88	46.95	-42.2	-46.0	12.4	1.30e-04	0	55	0	837812224	55	5759
2026-01-10 09:48:01.28	0.67	46.66	-42.2	-46.0	12.4	1.46e-04	0	56	0	838860800	55	5743
2026-01-10 09:48:02.28	0.46	46.37	-42.0	-45.6	12.8	5.87e-05	0	56	0	840957952	55	5503
2026-01-10 09:48:03.29	0.26	46.07	-42.1	-45.7	12.7	4.42e-05	0	56	0	843055104	55	5585
2026-01-10 09:48:04.29	0.06	45.79	-42.1	-45.7	12.6	7.93e-05	0	55	0	845152256	55	5584
2026-01-10 09:48:05.30	359.86	45.50	-42.0	-45.7	12.7	7.78e-05	0	56	0	847249408	55	5567
2026-01-10 09:48:06.30	359.67	45.22	-42.0	-45.5	12.9	7.01e-05	0	56	0	848297984	55	5446
2026-01-10 09:48:07.31	359.48	44.93	-42.1	-45.9	12.5	1.12e-04	0	56	0	850395136	55	5687
2026-01-10 09:48:08.32	359.30	44.65	-42.1	-45.9	12.5	1.35e-04	0	56	0	852492288	55	5669
2026-01-10 09:48:09.32	359.11	44.37	-42.2	-46.0	12.5	1.01e-04	0	55	0	854589440	55	5741
2026-01-10 09:48:10.33	358.93	44.09	-42.0	-45.7	12.7	1.01e-04	0	56	0	856686592	55	5540
2026-01-10 09:48:11.33	358.76	43.81	-42.0	-45.6	12.8	6.79e-05	0	56	0	857735168	55	5502
2026-01-10 09:48:12.34	358.59	43.54	-42.1	-45.7	12.7	9.91e-05	0	56	0	859832320	55	5579
2026-01-10 09:48:13.35	358.41	43.26	-42.3	-46.2	12.2	1.15e-04	0	56	0	861929472	55	5881
2026-01-10 09:48:14.35	358.25	42.99	-42.5	-46.7	11.6	5.95e-04	0	56	0	864026624	55	6241
2026-01-10 09:48:15.36	358.08	42.72	-42.9	-47.3	11.2	1.09e-03	0	56	0	866123776	56	6283
2026-01-10 09:48:16.37	357.92	42.45	-42.8	-47.1	11.4	1.26e-03	0	56	0	867172352	56	6138
2026-01-10 09:48:17.38	357.76	42.19	-42.8	-47.1	11.3	9.02e-04	0	56	0	869269504	56	6177
2026-01-10 09:48:18.39	357.61	41.92	-42.8	-47.1	11.4	1.07e-03	0	56	0	871366656	56	6175
2026-01-10 09:48:19.40	357.45	41.65	-42.8	-47.2	11.4	9.16e-04	0	56	0	873463808	56	6234
2026-01-10 09:48:20.41	357.30	41.39	-42.8	-47.1	11.4	1.09e-03	0	56	0	875560960	56	6144
2026-01-10 09:48:21.41	357.15	41.13	-42.8	-47.1	11.4	8.92e-04	0	56	0	876609536	56	6139
2026-01-10 09:48:22.42	357.01	40.87	-42.8	-47.2	11.3	1.37e-03	0	56	0	878706688	56	6222
2026-01-10 09:48:23.43	356.86	40.62	-42.8	-47.1	11.3	1.18e-03	0	56	0	880803840	56	6197
2026-01-10 09:48:24.44	356.72	40.36	-42.7	-46.9	11.6	1.01e-03	0	56	0	882900992	56	6057
2026-01-10 09:48:25.45	356.58	40.10	-42.7	-46.9	11.6	6.81e-04	0	56	0	884998144	56	6016
2026-01-10 09:48:26.45	356.44	39.85	-42.7	-46.9	11.7	6.68e-04	0	56	0	886046720	56	6016
2026-01-10 09:48:27.46	356.31	39.60	-42.6	-46.6	11.9	3.52e-04	0	56	0	888143872	56	5818
2026-01-10 09:48:28.47	356.18	39.35	-42.5	-46.5	12.0	4.86e-04	0	56	0	890241024	56	5751
2026-01-10 09:48:29.48	356.05	39.11	-42.3	-46.1	12.2	2.59e-04	0	56	0	892338176	55	5848
2026-01-10 09:48:30.49	355.92	38.86	-42.2	-46.1	12.3	2.04e-04	0	56	0	894435328	55	5814
2026-01-10 09:48:31.50	355.79	38.61	-42.0	-45.6	12.8	7.70e-05	0	56	0	896532480	55	5486
2026-01-10 09:48:32.51	355.66	38.37	-42.0	-45.7	12.7	6.48e-05	0	56	0	897581056	55	5533
2026-01-10 09:48:33.51	355.54	38.13	-42.0	-45.6	12.8	5.95e-05	0	56	0	899678208	55	5487
2026-01-10 09:48:34.53	355.42	37.89	-42.0	-45.7	12.6	7.32e-05	0	56	0	901775360	55	5565
2026-01-10 09:48:35.53	355.30	37.65	-42.1	-45.7	12.6	9.15e-05	0	56	0	903872512	55	5592
2026-01-10 09:48:36.54	355.18	37.42	-42.0	-45.7	12.6	9.91e-05	0	56	0	904921088	55	5566
2026-01-10 09:48:37.55	355.07	37.18	-41.9	-45.5	12.8	4.73e-05	0	56	0	907018240	55	5456
2026-01-10 09:48:38.55	354.96	36.95	-41.9	-45.5	12.8	4.11e-05	0	56	0	909115392	55	5427
2026-01-10 09:48:39.56	354.84	36.72	-41.9	-45.5	12.8	5.41e-05	0	56	0	911212544	55	5443
2026-01-10 09:48:40.56	354.73	36.49	-42.1	-45.8	12.5	8.62e-05	0	56	0	913309696	55	5654
2026-01-10 09:48:41.57	354.62	36.26	-42.2	-46.2	12.1	1.95e-04	0	56	0	915406848	55	5857
2026-01-10 09:48:42.57	354.52	36.03	-42.3	-46.2	12.0	2.66e-04	0	56	0	916455424	55	5923
2026-01-10 09:48:43.58	354.41	35.81	-42.3	-46.4	11.8	4.15e-04	0	56	0	918552576	55	6007
2026-01-10 09:48:44.59	354.31	35.58	-42.3	-46.3	11.9	4.00e-04	0	56	0	920649728	55	5969
2026-01-10 09:48:45.60	354.20	35.36	-42.2	-46.0	12.2	3.27e-04	0	56	0	922746880	55	5785
2026-01-10 09:48:46.60	354.10	35.14	-42.2	-46.0	12.2	1.78e-04	0	56	0	924844032	55	5767
2026-01-10 09:48:47.61	354.00	34.92	-42.3	-46.3	12.0	2.51e-04	0	56	0	925892608	55	5925
2026-01-10 09:48:48.62	353.90	34.70	-42.3	-46.3	12.0	4.03e-04	0	56	0	927989760	55	5956
2026-01-10 09:48:49.62	353.81	34.48	-42.4	-46.6	11.7	6.05e-04	0	56	0	930086912	55	6134
2026-01-10 09:48:50.63	353.71	34.27	-42.4	-46.6	11.6	6.25e-04	0	56	0	932184064	55	6159
2026-01-10 09:48:51.64	353.61	34.05	-42.4	-46.7	11.5	8.47e-04	0	56	0	933232640	55	6206
2026-01-10 09:48:52.65	353.52	33.84	-42.5	-46.8	11.4	8.65e-04	0	56	0	935329792	55	6293
2026-01-10 09:48:53.65	353.43	33.63	-42.6	-47.0	11.2	1.03e-03	0	56	0	937426944	55	6426
2026-01-10 09:48:54.66	353.34	33.42	-42.5	-46.9	11.3	1.15e-03	0	56	0	939524096	55	6405
2026-01-10 09:48:55.66	353.25	33.21	-42.7	-47.2	11.0	1.49e-03	0	56	0	941621248	55	6590
2026-01-10 09:48:56.67	353.16	33.00	-42.6	-47.1	11.0	1.65e-03	0	56	0	943718400	55	6544
2026-01-10 09:48:57.68	353.07	32.80	-42.6	-47.1	11.0	1.39e-03	0	56	0	944766976	55	6525
2026-01-10 09:48:58.68	352.99	32.59	-42.5	-46.9	11.3	1.32e-03	0	56	0	946864128	55	6368
2026-01-10 09:48:59.69	352.90	32.39	-42.4	-46.7	11.5	9.84e-04	0	56	0	948961280	55	6217
2026-01-10 09:49:00.70	352.82	32.19	-42.4	-46.7	11.4	8.75e-04	0	56	0	951058432	55	6263
2026-01-10 09:49:01.71	352.73	31.98	-42.4	-46.6	11.5	7.99e-04	0	56	0	953155584	55	6184
2026-01-10 09:49:02.72	352.65	31.78	-42.5	-46.9	11.3	1.07e-03	0	56	0	954204160	55	6376
2026-01-10 09:49:03.72	352.57	31.59	-42.6	-47.0	11.2	1.25e-03	0	56	0	956301312	55	6425
2026-01-10 09:49:04.73	352.49	31.39	-42.6	-47.2	10.9	1.77e-03	0	56	0	958398464	55	6615
2026-01-10 09:49:05.74	352.41	31.19	-42.7	-47.3	10.8	2.43e-03	0	56	0	960495616	55	6689
2026-01-10 09:49:06.75	352.33	31.00	-42.9	-47.5	10.7	2.77e-03	0	56	0	961544192	56	6493
2026-01-10 09:49:07.75	352.26	30.81	-42.9	-47.6	10.7	3.05e-03	0	56	0	963641344	56	6511
2026-01-10 09:49:08.76	352.18	30.61	-42.9	-47.6	10.7	2.97e-03	0	56	0	965738496	56	6522
2026-01-10 09:49:09.77	352.11	30.42	-42.9	-47.6	10.6	3.23e-03	0	56	0	967835648	56	6543
2026-01-10 09:49:10.77	352.03	30.23	-42.9	-47.5	10.8	2.87e-03	0	56	0	969932800	56	6478
2026-01-10 09:49:11.78	351.96	30.04	-42.9	-47.5	10.7	3.09e-03	0	56	0	972029952	56	6484
2026-01-10 09:49:12.78	351.89	29.86	-42.8	-47.4	10.9	2.54e-03	0	56	0	973078528	56	6366
2026-01-10 09:49:13.79	351.82	29.67	-42.7	-47.2	11.0	2.09e-03	0	56	0	975175680	56	6227
2026-01-10 09:49:14.80	351.75	29.49	-42.6	-47.1	11.1	1.71e-03	0	56	0	977272832	56	6164
2026-01-10 09:49:15.81	351.68	29.30	-42.6	-47.0	11.2	1.39e-03	0	56	0	979369984	56	6104
2026-01-10 09:49:16.81	351.61	29.12	-42.6	-46.9	11.4	1.17e-03	0	56	0	981467136	56	6001
2026-01-10 09:49:17.82	351.54	28.94	-42.6	-47.0	11.2	1.23e-03	0	56	0	982515712	56	6119
2026-01-10 09:49:18.83	351.47	28.76	-42.6	-47.0	11.2	1.45e-03	0	56	0	984612864	56	6064
2026-01-10 09:49:19.84	351.40	28.58	-42.6	-47.0	11.3	1.25e-03	0	56	0	986710016	56	6071
2026-01-10 09:49:20.84	351.34	28.40	-42.6	-47.0	11.2	1.34e-03	0	56	0	988807168	56	6073
2026-01-10 09:49:21.85	351.27	28.22	-42.5	-46.9	11.3	1.33e-03	0	56	0	989855744	56	6011
2026-01-10 09:49:22.85	351.21	28.05	-42.4	-46.6	11.6	8.52e-04	0	56	0	991952896	56	5848
2026-01-10 09:49:23.86	351.15	27.87	-42.3	-46.4	11.9	4.58e-04	0	56	0	994050048	56	5665
2026-01-10 09:49:24.87	351.08	27.70	-42.3	-46.3	11.9	3.93e-04	0	56	0	996147200	56	5617
2026-01-10 09:49:25.88	351.02	27.53	-42.1	-46.1	12.2	2.26e-04	0	56	0	998244352	56	5465
2026-01-10 09:49:26.88	350.96	27.36	-42.1	-46.0	12.3	1.93e-04	0	56	0	1000341504	56	5403
2026-01-10 09:49:27.89	350.90	27.18	-42.1	-45.9	12.3	2.14e-04	0	56	0	1001390080	56	5359
2026-01-10 09:49:28.90	350.84	27.01	-42.0	-45.8	12.4	1.33e-04	0	56	0	1003487232	56	5291
2026-01-10 09:49:29.90	350.78	26.85	-42.0	-45.8	12.4	1.53e-04	0	56	0	1005584384	56	5314
2026-01-10 09:49:30.91	350.72	26.68	-41.8	-45.6	12.4	1.40e-04	0	56	0	1007681536	55	5505
2026-01-10 09:49:31.92	350.66	26.51	-41.9	-45.7	12.3	1.66e-04	0	56	0	1009778688	55	5540
2026-01-10 09:49:32.93	350.61	26.35	-41.8	-45.6	12.4	1.36e-04	0	56	0	1010827264	55	5494
2026-01-10 09:49:33.94	350.55	26.18	-41.8	-45.7	12.3	1.62e-04	0	56	0	1012924416	55	5549
2026-01-10 09:49:34.94	350.50	26.02	-41.8	-45.6	12.4	2.09e-04	0	56	0	1015021568	55	5504
2026-01-10 09:49:35.95	350.44	25.85	-41.8	-45.6	12.4	1.53e-04	0	56	0	1017118720	55	5488
2026-01-10 09:49:36.96	350.38	25.69	-41.8	-45.6	12.3	1.52e-04	0	56	0	1019215872	55	5516
2026-01-10 09:49:37.97	350.33	25.53	-41.7	-45.5	12.5	1.97e-04	0	56	0	1020264448	55	5425
2026-01-10 09:49:38.97	350.28	25.37	-41.8	-45.5	12.4	1.38e-04	0	56	0	1022361600	55	5461
2026-01-10 09:49:39.98	350.22	25.21	-41.6	-45.4	12.6	1.15e-04	0	56	0	1024458752	55	5347
2026-01-10 09:49:40.99	350.17	25.05	-41.6	-45.3	12.6	1.10e-04	0	56	0	1026555904	55	5334
2026-01-10 09:49:42.00	350.12	24.90	-41.6	-45.3	12.7	9.23e-05	0	56	0	1028653056	55	5283
2026-01-10 09:49:43.00	350.07	24.74	-41.6	-45.3	12.6	7.93e-05	0	56	0	1029701632	55	5288
2026-01-10 09:49:44.01	350.02	24.59	-41.5	-45.1	12.8	7.17e-05	0	56	0	1031798784	54	5505
2026-01-10 09:49:45.02	349.97	24.43	-41.4	-44.9	12.9	3.89e-05	0	56	0	1033895936	54	5379
2026-01-10 09:49:46.02	349.92	24.28	-41.3	-44.8	13.1	3.28e-05	0	56	0	1035993088	54	5294
2026-01-10 09:49:47.03	349.87	24.13	-41.2	-44.6	13.2	2.13e-05	0	56	0	1038090240	54	5172
2026-01-10 09:49:48.04	349.82	23.97	-41.2	-44.6	13.2	2.21e-05	0	56	0	1039138816	54	5203
2026-01-10 09:49:49.04	349.77	23.82	-41.1	-44.5	13.3	2.21e-05	0	56	0	1041235968	54	5138
2026-01-10 09:49:50.05	349.72	23.67	-41.0	-44.3	13.5	9.10e-06	0	56	0	1043333120	53	5301
2026-01-10 09:49:51.06	349.68	23.52	-41.0	-44.5	13.2	1.90e-05	0	56	0	1045430272	53	5426
2026-01-10 09:49:52.07	349.63	23.37	-41.0	-44.6	13.0	2.67e-05	0	56	0	1047527424	53	5465
2026-01-10 09:49:53.08	349.58	23.23	-40.8	-44.2	13.3	1.52e-05	0	56	0	1048576000	53	5250
2026-01-10 09:49:54.08	349.54	23.08	-40.7	-44.1	13.3	9.90e-06	0	56	0	1050673152	53	5197
2026-01-10 09:49:55.09	349.49	22.93	-40.9	-44.6	12.6	3.81e-05	0	56	0	1052770304	53	5504
2026-01-10 09:49:56.10	349.45	22.79	-40.9	-44.7	12.4	1.31e-04	0	56	0	1054867456	53	5583
2026-01-10 09:49:57.10	349.40	22.65	-40.6	-44.4	12.6	1.13e-04	0	56	0	1056964608	53	5368
2026-01-10 09:49:58.11	349.36	22.50	-40.5	-44.1	12.8	7.32e-05	0	56	0	1058013184	52	5514
2026-01-10 09:49:59.11	349.32	22.36	-40.3	-44.0	12.8	4.95e-05	0	56	0	1060110336	52	5439
2026-01-10 09:50:00.12	349.27	22.22	-40.4	-44.1	12.6	8.31e-05	0	56	0	1062207488	52	5517
2026-01-10 09:50:01.13	349.23	22.08	-40.4	-44.4	12.2	1.64e-04	0	56	0	1064304640	52	5659
2026-01-10 09:50:02.14	349.19	21.94	-40.4	-44.6	12.0	2.94e-04	0	56	0	1066401792	52	5805
2026-01-10 09:50:03.14	349.15	21.80	-40.6	-45.0	11.5	5.87e-04	0	56	0	1067450368	52	6085
2026-01-10 09:50:04.15	349.10	21.66	-40.8	-45.5	10.8	1.61e-03	0	56	0	1069547520	52	6484
2026-01-10 09:50:05.16	349.06	21.52	-41.0	-46.3	9.9	4.29e-03	0	56	0	1071644672	52	7097
2026-01-10 09:50:06.16	349.02	21.38	-41.3	-47.3	8.7	2.32e-02	0	56	0	1073741824	53	7506
2026-01-10 09:50:07.17	348.98	21.25	-41.5	-48.5	7.3	6.94e-02	0	56	0	1075838976	53	8601
2026-01-10 09:50:08.18	348.94	21.11	-41.6	-49.6	6.1	1.82e-01	0	56	0	1076887552	53	9812
2026-01-10 09:50:09.18	348.90	20.97	-41.6	-50.8	5.2	5.31e-01	0	56	0	1078984704	53	11242
2026-01-10 09:50:10.19	348.86	20.84	-41.5	-52.0	4.5	8.86e-01	21	56	0	1081081856	53	12891
2026-01-10 09:50:11.20	348.82	20.71	-41.4	-52.9	4.1	1.36e+00	0	56	0	1081081856	53	14356
2026-01-10 09:50:12.21	348.79	20.57	-41.2	-53.8	3.8	1.49e+00	0	56	104	1081081856	53	15845
2026-01-10 09:50:13.22	348.75	20.44	-41.0	-54.3	3.8	1.49e+00	0	56	104	1081081856	53	16800
2026-01-10 09:50:14.22	348.71	20.31	-40.8	-54.5	3.8	1.49e+00	0	56	104	1081081856	53	17242
2026-01-10 09:50:15.23	348.67	20.18	-40.6	-54.8	3.8	1.49e+00	0	56	104	1081081856	53	17801
2026-01-10 09:50:16.24	348.64	20.05	-40.5	-54.9	3.8	1.49e+00	0	56	104	1081081856	53	17945
2026-01-10 09:50:17.25	348.60	19.92	-40.4	-55.0	3.8	1.49e+00	0	56	104	1081081856	52	19186
2026-01-10 09:50:18.26	348.56	19.79	-40.4	-55.0	3.8	1.49e+00	0	56	104	1081081856	52	19389
2026-01-10 09:50:19.27	348.53	19.66	-40.6	-55.1	3.8	1.49e+00	0	56	104	1081081856	52	19401
2026-01-10 09:50:20.27	348.49	19.53	-40.7	-55.2	3.8	1.49e+00	0	56	104	1081081856	52	19761
2026-01-10 09:50:21.29	348.46	19.40	-40.8	-55.3	3.8	1.49e+00	0	56	104	1081081856	52	19862
2026-01-10 09:50:22.29	348.42	19.28	-40.5	-55.3	3.8	1.49e+00	0	56	104	1081081856	52	19910
2026-01-10 09:50:23.29	348.39	19.15	-40.8	-55.2	3.8	1.49e+00	0	56	104	1081081856	52	19815
2026-01-10 09:50:24.30	348.35	19.03	-40.4	-55.2	3.8	1.49e+00	0	56	104	1081081856	52	19841
2026-01-10 09:50:25.31	348.32	18.90	-40.6	-55.3	3.8	1.49e+00	0	56	104	1081081856	52	19959
2026-01-10 09:50:26.31	348.28	18.78	-40.7	-55.2	3.8	1.49e+00	0	56	104	1081081856	52	19716
2026-01-10 09:50:27.32	348.25	18.65	-40.7	-55.4	3.8	1.49e+00	0	56	104	1081081856	52	20108
2026-01-10 09:50:28.33	348.22	18.53	-40.6	-55.2	3.8	1.49e+00	0	56	104	1081081856	52	19690
2026-01-10 09:50:29.34	348.18	18.41	-40.9	-55.4	3.8	1.49e+00	0	56	104	1081081856	52	20261
2026-01-10 09:50:30.35	348.15	18.29	-40.7	-55.3	3.8	1.49e+00	0	56	104	1081081856	52	19907
2026-01-10 09:50:31.36	348.12	18.16	-40.9	-55.5	3.8	1.49e+00	0	56	104	1081081856	53	19317
2026-01-10 09:50:32.37	348.09	18.04	-40.6	-55.3	3.8	1.49e+00	0	56	104	1081081856	53	18832
2026-01-10 09:50:33.38	348.06	17.92	-40.7	-55.3	3.8	1.49e+00	0	56	104	1081081856	53	18885
2026-01-10 09:50:34.39	348.02	17.80	-40.6	-55.1	3.8	1.49e+00	0	56	104	1081081856	53	18514
2026-01-10 09:50:35.40	347.99	17.68	-40.7	-55.2	3.8	1.49e+00	0	56	104	1081081856	53	18636
2026-01-10 09:50:36.41	347.96	17.57	-40.7	-55.2	3.8	1.49e+00	0	56	104	1081081856	53	18640
2026-01-10 09:50:37.42	347.93	17.45	-40.7	-55.2	3.8	1.49e+00	0	56	104	1081081856	53	18671
2026-01-10 09:50:38.43	347.90	17.33	-40.8	-55.4	3.8	1.49e+00	0	56	104	1081081856	53	19075
2026-01-10 09:50:39.43	347.87	17.22	-41.3	-55.9	3.8	1.49e+00	0	56	104	1081081856	53	20141
2026-01-10 09:50:40.44	347.84	17.10	-41.4	-56.0	3.8	1.49e+00	0	56	104	1081081856	53	20517
2026-01-10 09:50:41.45	347.81	16.98	-41.5	-56.1	3.8	1.49e+00	0	56	104	1081081856	53	20713
2026-01-10 09:50:42.46	347.78	16.87	-40.8	-55.3	3.8	1.49e+00	0	56	104	1081081856	53	18921
2026-01-10 09:50:43.47	347.75	16.75	-40.9	-55.4	3.8	1.49e+00	0	56	104	1081081856	53	19088
2026-01-10 09:50:44.48	347.73	16.64	-40.9	-55.5	3.8	1.49e+00	0	56	104	1081081856	53	19196
2026-01-10 09:50:45.49	347.70	16.53	-40.9	-55.5	3.8	1.49e+00	0	56	104	1081081856	53	19226
2026-01-10 09:50:46.50	347.67	16.41	-41.1	-55.6	3.8	1.49e+00	0	56	104	1081081856	53	19474
2026-01-10 09:50:47.51	347.64	16.30	-41.4	-56.1	3.8	1.49e+00	0	56	104	1081081856	53	20774
2026-01-10 09:50:48.51	347.61	16.19	-41.4	-56.0	3.8	1.49e+00	0	56	104	1081081856	53	20520
2026-01-10 09:50:49.52	347.59	16.08	-41.4	-56.1	3.8	1.49e+00	0	56	104	1081081856	53	20626
2026-01-10 09:50:50.53	347.56	15.97	-41.3	-56.1	3.8	1.49e+00	0	56	104	1081081856	53	20580
2026-01-10 09:50:51.54	347.53	15.86	-41.3	-56.0	3.8	1.49e+00	0	56	104	1081081856	53	20502
2026-01-10 09:50:52.54	347.50	15.75	-41.3	-56.0	3.8	1.49e+00	0	56	104	1081081856	53	20345
2026-01-10 09:50:53.56	347.48	15.64	-41.3	-56.0	3.8	1.49e+00	0	56	104	1081081856	53	20503
2026-01-10 09:50:54.56	347.45	15.53	-41.3	-56.0	3.8	1.49e+00	0	56	104	1081081856	53	20370
