passes_logs/2026/01/10/R2.0S_Moscow/R2.0S_Moscow__20260110_010828_SUOMI_NPP_rec.log

#Pass ID: 20260110_010828_SUOMI NPP
#Satellite: SUOMI NPP
#Configuration: NPP
#almurnet v.1.7.20251203
#Start time: 2026-01-10 01:12:22

#Version: 2.2.20231116
#Station: R2.0S_Moscow
#Location: 37.707566 lon 55.798166 lat
#TLE: 1 37849U 11061A   26008.83076692  .00000095  00000+0  66074-4 0  9997
#TLE: 2 37849  98.7806 310.9327 0002533  74.3004 285.8451 14.19523607735834

#Time	Az	El	Level	Level2	SNR	BER	BlckErr	Temp	State	Recorded	gain1	gain2
2026-01-10 01:12:22.99	347.28	18.98	-44.9	-63.4	3.8	8.47e-01	0	55	0	0	60	31830
2026-01-10 01:12:24.00	347.10	19.07	-45.0	-59.8	3.8	1.49e+00	0	55	104	0	61	19844
2026-01-10 01:12:25.01	346.91	19.15	-45.0	-59.7	3.8	1.49e+00	0	56	104	0	61	19781
2026-01-10 01:12:26.02	346.73	19.24	-45.0	-59.7	3.8	1.49e+00	0	55	104	0	61	19799
2026-01-10 01:12:27.03	346.55	19.32	-45.0	-59.7	3.8	1.49e+00	0	55	104	0	61	19665
2026-01-10 01:12:28.04	346.36	19.41	-44.9	-59.7	3.8	1.49e+00	0	55	104	0	61	19717
2026-01-10 01:12:29.05	346.18	19.49	-44.8	-59.6	3.8	1.49e+00	0	55	104	0	61	19452
2026-01-10 01:12:30.06	345.99	19.58	-44.8	-59.5	3.8	1.49e+00	0	56	104	0	61	19305
2026-01-10 01:12:31.07	345.80	19.66	-44.6	-59.3	3.8	1.49e+00	0	55	104	0	61	18893
2026-01-10 01:12:32.08	345.61	19.75	-44.6	-59.3	3.8	1.49e+00	0	56	104	0	61	18911
2026-01-10 01:12:33.08	345.42	19.83	-44.6	-59.3	3.8	1.49e+00	0	55	104	0	61	18911
2026-01-10 01:12:34.09	345.23	19.91	-44.6	-59.3	3.8	1.49e+00	0	55	104	0	61	18874
2026-01-10 01:12:35.10	345.04	20.00	-44.6	-59.3	3.8	1.49e+00	0	55	104	0	61	18885
2026-01-10 01:12:36.11	344.84	20.08	-44.6	-59.3	3.8	1.49e+00	0	56	104	0	61	18844
2026-01-10 01:12:37.12	344.65	20.17	-44.6	-59.3	3.8	1.49e+00	0	56	104	0	61	18823
2026-01-10 01:12:38.13	344.45	20.25	-44.6	-59.3	3.8	1.49e+00	0	56	104	0	61	18776
2026-01-10 01:12:39.14	344.26	20.34	-44.6	-59.3	3.8	1.49e+00	0	56	104	0	61	18802
2026-01-10 01:12:40.15	344.06	20.42	-44.6	-59.3	3.8	1.49e+00	0	56	104	0	61	18825
2026-01-10 01:12:41.16	343.86	20.51	-44.6	-59.3	3.8	1.49e+00	0	55	104	0	61	18801
2026-01-10 01:12:42.17	343.66	20.59	-44.6	-59.3	3.8	1.49e+00	0	55	104	0	61	18860
2026-01-10 01:12:43.18	343.46	20.67	-44.6	-59.3	3.8	1.49e+00	0	56	104	0	61	18775
2026-01-10 01:12:44.19	343.25	20.76	-44.6	-59.3	3.8	1.49e+00	0	56	104	0	61	18845
2026-01-10 01:12:45.20	343.05	20.84	-44.6	-59.3	3.8	1.49e+00	0	56	104	0	61	18748
2026-01-10 01:12:46.20	342.85	20.92	-44.6	-59.3	3.8	1.49e+00	0	56	104	0	61	18758
2026-01-10 01:12:47.21	342.64	21.01	-44.5	-59.2	3.8	1.49e+00	0	56	104	0	61	18698
2026-01-10 01:12:48.22	342.43	21.09	-44.5	-59.3	3.8	1.49e+00	0	56	104	0	61	18746
2026-01-10 01:12:49.23	342.23	21.17	-44.6	-59.3	3.8	1.49e+00	0	55	104	0	61	18768
2026-01-10 01:12:50.24	342.02	21.26	-44.5	-59.3	3.8	1.49e+00	0	56	104	0	61	18787
2026-01-10 01:12:51.25	341.81	21.34	-44.5	-59.3	3.8	1.49e+00	0	56	104	0	61	18793
2026-01-10 01:12:52.26	341.59	21.42	-44.5	-59.3	3.8	1.49e+00	0	56	104	0	61	18752
2026-01-10 01:12:53.27	341.38	21.51	-44.5	-59.2	3.8	1.49e+00	0	56	104	0	61	18721
2026-01-10 01:12:54.28	341.17	21.59	-44.5	-59.2	3.8	1.49e+00	0	56	104	0	61	18671
2026-01-10 01:12:55.30	340.95	21.67	-44.5	-59.1	3.8	1.49e+00	0	56	104	0	61	18425
2026-01-10 01:12:56.31	340.73	21.76	-44.5	-59.1	3.8	1.49e+00	0	56	104	0	61	18316
2026-01-10 01:12:57.32	340.52	21.84	-44.5	-59.1	3.8	1.49e+00	0	56	104	0	61	18334
2026-01-10 01:12:58.33	340.30	21.92	-44.5	-59.1	3.8	1.49e+00	0	56	104	0	61	18514
2026-01-10 01:12:59.34	340.08	22.00	-44.5	-59.2	3.8	1.49e+00	0	56	104	0	61	18608
2026-01-10 01:13:00.35	339.86	22.08	-44.5	-59.1	3.8	1.49e+00	0	56	104	0	61	18448
2026-01-10 01:13:01.36	339.63	22.16	-44.5	-58.9	3.8	1.49e+00	0	56	104	0	61	17922
2026-01-10 01:13:02.37	339.41	22.25	-44.5	-58.8	3.8	1.49e+00	0	56	104	0	61	17805
2026-01-10 01:13:03.38	339.19	22.33	-44.5	-59.1	3.8	1.49e+00	0	56	104	0	61	18463
2026-01-10 01:13:04.39	338.96	22.41	-44.5	-59.2	3.8	1.49e+00	0	56	104	0	61	18669
2026-01-10 01:13:05.40	338.73	22.49	-44.5	-57.7	3.8	1.49e+00	0	56	104	0	60	16680
2026-01-10 01:13:06.41	338.50	22.57	-44.2	-55.0	4.4	1.37e+00	0	56	0	0	60	12191
2026-01-10 01:13:07.42	338.27	22.65	-44.0	-53.0	5.4	6.68e-01	0	56	0	1048576	60	9633
2026-01-10 01:13:08.43	338.04	22.73	-43.9	-51.9	6.1	3.67e-01	0	56	0	3145728	59	9042
2026-01-10 01:13:09.44	337.81	22.81	-44.0	-52.3	5.9	3.15e-01	0	56	0	5242880	59	9414
2026-01-10 01:13:10.45	337.58	22.89	-44.3	-54.4	4.6	6.61e-01	0	56	0	7340032	59	12077
2026-01-10 01:13:11.46	337.35	22.97	-44.6	-58.0	3.8	1.45e+00	0	56	104	7340032	59	18258
2026-01-10 01:13:12.48	337.11	23.05	-44.4	-55.4	4.2	1.49e+00	0	56	0	7340032	59	13568
2026-01-10 01:13:13.49	336.87	23.12	-43.5	-50.2	7.6	2.65e-01	0	56	0	8388608	59	7391
2026-01-10 01:13:14.50	336.63	23.20	-42.3	-46.9	11.0	1.34e-02	0	56	0	10485760	56	6022
2026-01-10 01:13:15.51	336.39	23.28	-41.2	-44.7	13.0	5.31e-04	0	56	0	12582912	54	5254
2026-01-10 01:13:16.52	336.15	23.36	-40.6	-43.7	14.0	7.00e-07	0	56	0	14680064	53	4967
2026-01-10 01:13:17.53	335.91	23.44	-40.7	-44.0	13.8	3.80e-06	0	56	0	15728640	52	5445
2026-01-10 01:13:18.54	335.67	23.51	-42.1	-46.5	11.4	6.10e-06	0	56	0	17825792	54	6482
2026-01-10 01:13:19.55	335.43	23.59	-40.7	-43.9	13.7	2.24e-02	0	56	0	19922944	53	5100
2026-01-10 01:13:20.56	335.18	23.67	-42.4	-47.3	10.5	5.03e-04	0	56	0	22020096	55	6709
2026-01-10 01:13:21.57	334.93	23.74	-40.5	-43.6	14.2	4.09e-01	0	56	0	24117248	53	4901
2026-01-10 01:13:22.58	334.69	23.82	-41.4	-45.1	12.6	2.22e-03	0	56	0	25165824	54	5527
2026-01-10 01:13:23.59	334.44	23.89	-40.2	-43.1	14.7	2.20e-06	0	56	0	27262976	52	4878
2026-01-10 01:13:24.60	334.19	23.97	-40.1	-42.9	14.9	0.00e+00	0	56	0	29360128	52	4773
2026-01-10 01:13:25.61	333.94	24.04	-40.1	-42.9	14.9	0.00e+00	0	56	0	31457280	52	4771
2026-01-10 01:13:26.62	333.68	24.12	-40.4	-43.3	14.5	7.00e-07	0	56	0	33554432	52	5024
2026-01-10 01:13:27.62	333.43	24.19	-40.4	-43.4	14.4	1.50e-06	0	56	0	34603008	52	5064
2026-01-10 01:13:28.63	333.18	24.26	-40.7	-43.9	13.9	1.50e-06	0	56	0	36700160	52	5371
2026-01-10 01:13:29.64	332.92	24.33	-40.8	-44.1	13.7	1.06e-05	0	56	0	38797312	52	5484
2026-01-10 01:13:30.65	332.67	24.41	-40.8	-44.1	13.7	7.60e-06	0	56	0	40894464	52	5525
2026-01-10 01:13:31.66	332.41	24.48	-40.6	-43.7	14.0	6.80e-06	0	56	0	42991616	52	5251
2026-01-10 01:13:32.67	332.15	24.55	-40.3	-43.2	14.6	2.20e-06	0	56	0	45088768	52	4982
2026-01-10 01:13:33.68	331.89	24.62	-40.2	-43.1	14.7	0.00e+00	0	56	0	46137344	52	4894
2026-01-10 01:13:34.68	331.63	24.69	-40.0	-42.7	15.2	0.00e+00	0	56	0	48234496	51	4935
2026-01-10 01:13:35.69	331.36	24.76	-40.1	-42.8	15.1	0.00e+00	0	56	0	50331648	51	5014
2026-01-10 01:13:36.70	331.10	24.83	-40.0	-42.7	15.3	0.00e+00	0	56	0	52428800	51	4927
2026-01-10 01:13:37.71	330.83	24.90	-40.0	-42.7	15.2	0.00e+00	0	56	0	54525952	51	4977
2026-01-10 01:13:38.71	330.57	24.97	-40.1	-42.8	15.1	0.00e+00	0	56	0	55574528	51	5025
2026-01-10 01:13:39.72	330.30	25.04	-40.2	-43.0	15.0	0.00e+00	0	56	0	57671680	51	5118
2026-01-10 01:13:40.73	330.03	25.11	-40.2	-43.0	14.9	0.00e+00	0	56	0	59768832	51	5148
2026-01-10 01:13:41.74	329.76	25.17	-40.1	-42.8	15.1	0.00e+00	0	56	0	61865984	51	5006
2026-01-10 01:13:42.74	329.49	25.24	-40.1	-42.7	15.2	0.00e+00	0	56	0	63963136	51	4969
2026-01-10 01:13:43.75	329.22	25.30	-39.9	-42.5	15.5	0.00e+00	0	56	0	65011712	51	4815
2026-01-10 01:13:44.76	328.95	25.37	-40.1	-42.7	15.2	0.00e+00	0	56	0	67108864	51	4973
2026-01-10 01:13:45.76	328.68	25.43	-40.1	-42.7	15.2	0.00e+00	0	56	0	69206016	51	4970
2026-01-10 01:13:46.77	328.40	25.50	-40.2	-42.9	15.0	0.00e+00	0	56	0	71303168	51	5099
2026-01-10 01:13:47.78	328.12	25.56	-40.5	-43.4	14.6	0.00e+00	0	56	0	73400320	51	5384
2026-01-10 01:13:48.79	327.85	25.63	-40.5	-43.4	14.5	1.50e-06	0	56	0	74448896	51	5398
2026-01-10 01:13:49.80	327.57	25.69	-40.6	-43.6	14.4	1.50e-06	0	56	0	76546048	51	5497
2026-01-10 01:13:50.80	327.29	25.75	-40.6	-43.6	14.4	7.00e-07	0	56	0	78643200	51	5480
2026-01-10 01:13:51.80	327.01	25.81	-40.6	-43.6	14.3	0.00e+00	0	56	0	80740352	52	5208
2026-01-10 01:13:52.81	326.73	25.87	-40.5	-43.5	14.4	0.00e+00	0	56	0	82837504	52	5116
2026-01-10 01:13:53.83	326.44	25.93	-40.4	-43.4	14.5	0.00e+00	0	56	0	83886080	52	5093
2026-01-10 01:13:54.83	326.16	25.99	-40.4	-43.4	14.4	1.50e-06	0	56	0	85983232	52	5066
2026-01-10 01:13:55.84	325.87	26.05	-40.5	-43.5	14.4	2.20e-06	0	56	0	88080384	52	5146
2026-01-10 01:13:56.85	325.59	26.11	-40.4	-43.4	14.3	0.00e+00	0	56	0	90177536	52	5065
2026-01-10 01:13:57.85	325.30	26.17	-40.5	-43.5	14.4	0.00e+00	0	56	0	92274688	52	5154
2026-01-10 01:13:58.86	325.01	26.22	-40.6	-43.7	14.2	1.50e-06	0	56	0	93323264	52	5241
2026-01-10 01:13:59.87	324.72	26.28	-40.6	-43.7	14.2	7.00e-07	0	56	0	95420416	52	5242
2026-01-10 01:14:00.86	324.44	26.34	-40.4	-43.4	14.5	1.50e-06	0	56	0	97517568	52	5080
2026-01-10 01:14:01.86	324.15	26.39	-40.1	-42.9	15.0	0.00e+00	0	56	0	99614720	52	4814
2026-01-10 01:14:02.87	323.85	26.44	-39.8	-42.4	15.5	0.00e+00	0	56	0	101711872	51	4794
2026-01-10 01:14:03.88	323.56	26.50	-39.6	-42.1	15.9	0.00e+00	0	56	0	102760448	51	4616
2026-01-10 01:14:04.89	323.26	26.55	-39.7	-42.3	15.6	0.00e+00	0	56	0	104857600	51	4725
2026-01-10 01:14:05.89	322.97	26.60	-40.0	-42.6	15.4	0.00e+00	0	56	0	106954752	51	4892
2026-01-10 01:14:06.90	322.67	26.65	-40.0	-42.6	15.4	0.00e+00	0	56	0	109051904	51	4909
2026-01-10 01:14:07.90	322.38	26.70	-40.3	-43.1	14.9	0.00e+00	0	56	0	111149056	51	5203
2026-01-10 01:14:08.91	322.08	26.75	-40.2	-43.0	14.9	0.00e+00	0	56	0	112197632	51	5128
2026-01-10 01:14:09.92	321.78	26.80	-40.3	-43.1	14.9	0.00e+00	0	56	0	114294784	51	5191
2026-01-10 01:14:10.92	321.48	26.85	-40.4	-43.3	14.6	7.00e-07	0	56	0	116391936	51	5335
2026-01-10 01:14:11.93	321.18	26.90	-40.3	-43.2	14.7	0.00e+00	0	56	0	118489088	51	5265
2026-01-10 01:14:12.94	320.88	26.94	-40.3	-43.1	14.9	0.00e+00	0	56	0	120586240	51	5192
2026-01-10 01:14:13.94	320.58	26.99	-40.3	-43.1	14.9	7.00e-07	0	56	0	121634816	51	5175
2026-01-10 01:14:14.95	320.27	27.03	-40.3	-43.1	14.9	0.00e+00	0	56	0	123731968	51	5172
2026-01-10 01:14:15.95	319.97	27.08	-40.4	-43.3	14.7	0.00e+00	0	56	0	125829120	51	5314
2026-01-10 01:14:16.96	319.66	27.12	-40.6	-43.6	14.4	0.00e+00	0	56	0	127926272	51	5488
2026-01-10 01:14:17.97	319.36	27.16	-40.7	-44.0	13.9	1.50e-06	0	56	0	130023424	52	5430
2026-01-10 01:14:18.98	319.05	27.21	-40.8	-44.1	13.7	3.00e-06	0	56	0	131072000	52	5507
2026-01-10 01:14:19.99	318.74	27.25	-40.8	-44.1	13.8	3.80e-06	0	56	0	133169152	52	5494
2026-01-10 01:14:21.00	318.43	27.29	-40.5	-43.6	14.3	3.80e-06	0	56	0	135266304	52	5197
2026-01-10 01:14:22.00	318.12	27.33	-40.6	-43.6	14.3	3.80e-06	0	56	0	137363456	52	5215
2026-01-10 01:14:23.01	317.81	27.36	-40.5	-43.5	14.4	7.00e-07	0	56	0	139460608	52	5148
2026-01-10 01:14:24.02	317.50	27.40	-40.5	-43.5	14.4	0.00e+00	0	56	0	140509184	52	5120
2026-01-10 01:14:25.02	317.19	27.44	-40.5	-43.6	14.3	7.00e-07	0	56	0	142606336	52	5174
2026-01-10 01:14:26.03	316.88	27.47	-40.7	-43.8	14.2	0.00e+00	0	56	0	144703488	52	5293
2026-01-10 01:14:27.04	316.56	27.51	-40.7	-43.9	14.0	1.50e-06	0	56	0	146800640	52	5372
2026-01-10 01:14:28.04	316.25	27.54	-40.8	-44.0	13.9	3.00e-06	0	56	0	148897792	52	5421
2026-01-10 01:14:29.05	315.94	27.57	-40.8	-44.0	13.8	5.30e-06	0	56	0	149946368	52	5448
2026-01-10 01:14:30.06	315.62	27.61	-40.8	-44.0	13.8	7.00e-07	0	56	0	152043520	52	5464
2026-01-10 01:14:31.07	315.30	27.64	-40.9	-44.1	13.7	3.80e-06	0	56	0	154140672	52	5520
2026-01-10 01:14:32.07	314.99	27.67	-41.1	-44.5	13.4	1.14e-05	0	56	0	156237824	52	5752
2026-01-10 01:14:33.08	314.67	27.70	-41.1	-44.6	13.2	1.83e-05	0	56	0	158334976	52	5845
2026-01-10 01:14:34.09	314.35	27.72	-41.1	-44.7	13.1	2.44e-05	0	56	0	159383552	52	5865
2026-01-10 01:14:35.09	314.04	27.75	-41.3	-44.9	12.9	7.70e-05	0	56	0	161480704	53	5702
2026-01-10 01:14:36.10	313.72	27.78	-41.4	-45.1	12.8	8.31e-05	0	56	0	163577856	53	5794
2026-01-10 01:14:37.11	313.40	27.80	-41.4	-45.1	12.8	6.25e-05	0	56	0	165675008	53	5811
2026-01-10 01:14:38.12	313.08	27.83	-41.6	-45.5	12.3	7.85e-05	0	56	0	167772160	53	6096
2026-01-10 01:14:39.12	312.76	27.85	-41.8	-45.9	11.9	3.90e-04	0	56	0	168820736	54	6047
2026-01-10 01:14:40.13	312.44	27.87	-41.7	-45.9	12.0	4.23e-04	0	56	0	170917888	54	5995
2026-01-10 01:14:41.13	312.12	27.89	-41.6	-45.6	12.2	4.19e-04	0	56	0	173015040	54	5840
2026-01-10 01:14:42.14	311.80	27.92	-41.4	-45.1	12.7	1.46e-04	0	56	0	175112192	54	5518
2026-01-10 01:14:43.15	311.47	27.93	-41.0	-44.5	13.4	2.28e-05	0	56	0	177209344	54	5120
2026-01-10 01:14:44.16	311.15	27.95	-40.8	-44.1	13.7	6.80e-06	0	56	0	178257920	53	5210
2026-01-10 01:14:45.17	310.83	27.97	-41.0	-44.4	13.5	1.14e-05	0	56	0	180355072	53	5366
2026-01-10 01:14:46.18	310.50	27.99	-41.1	-44.7	13.2	1.90e-05	0	56	0	182452224	53	5553
2026-01-10 01:14:47.19	310.18	28.00	-41.2	-44.9	12.9	2.59e-05	0	56	0	184549376	53	5689
2026-01-10 01:14:48.20	309.85	28.02	-41.4	-45.3	12.6	9.46e-05	0	56	0	186646528	53	5934
2026-01-10 01:14:49.20	309.53	28.03	-41.4	-45.3	12.5	1.14e-04	0	56	0	187695104	53	5924
2026-01-10 01:14:50.21	309.21	28.04	-41.3	-45.1	12.7	8.62e-05	0	56	0	189792256	53	5809
2026-01-10 01:14:51.21	308.89	28.05	-41.2	-45.0	12.8	5.34e-05	0	56	0	191889408	53	5746
2026-01-10 01:14:52.22	308.56	28.06	-41.2	-44.9	12.9	7.93e-05	0	56	0	193986560	53	5671
2026-01-10 01:14:53.23	308.23	28.07	-41.0	-44.6	13.2	5.03e-05	0	56	0	196083712	53	5521
2026-01-10 01:14:54.24	307.91	28.08	-40.9	-44.4	13.3	2.82e-05	0	56	0	197132288	53	5391
2026-01-10 01:14:55.24	307.59	28.09	-41.1	-44.8	13.0	3.96e-05	0	56	0	199229440	53	5617
2026-01-10 01:14:56.25	307.26	28.10	-41.3	-45.3	12.5	7.62e-05	0	56	0	201326592	53	5934
2026-01-10 01:14:57.25	306.94	28.10	-41.7	-46.1	11.7	2.53e-04	0	56	0	203423744	53	6513
2026-01-10 01:14:58.26	306.61	28.11	-41.8	-46.3	11.4	8.94e-04	0	56	0	205520896	54	6343
2026-01-10 01:14:59.26	306.29	28.11	-41.8	-46.2	11.5	1.04e-03	0	56	0	206569472	54	6243
2026-01-10 01:15:00.27	305.96	28.11	-41.7	-45.9	11.9	6.61e-04	0	56	0	208666624	54	6040
2026-01-10 01:15:01.27	305.64	28.11	-41.5	-45.5	12.2	3.38e-04	0	56	0	210763776	54	5784
2026-01-10 01:15:02.28	305.31	28.11	-41.3	-45.0	12.9	1.10e-04	0	56	0	212860928	54	5426
2026-01-10 01:15:03.29	304.98	28.11	-41.2	-44.8	13.0	4.11e-05	0	56	0	214958080	54	5327
2026-01-10 01:15:04.30	304.66	28.11	-41.2	-44.7	13.2	2.36e-05	0	56	0	216006656	54	5242
2026-01-10 01:15:05.30	304.33	28.11	-40.8	-44.0	13.9	3.00e-06	0	56	0	218103808	53	5130
2026-01-10 01:15:06.31	304.01	28.10	-40.5	-43.5	14.4	2.20e-06	0	56	0	220200960	52	5134
2026-01-10 01:15:07.32	303.68	28.10	-40.6	-43.7	14.2	0.00e+00	0	56	0	222298112	52	5232
2026-01-10 01:15:08.33	303.35	28.09	-40.6	-43.7	14.0	3.00e-06	0	56	0	224395264	52	5278
2026-01-10 01:15:09.34	303.03	28.08	-40.8	-44.0	13.8	3.80e-06	0	56	0	225443840	52	5463
2026-01-10 01:15:10.35	302.70	28.08	-40.9	-44.3	13.6	3.00e-06	0	56	0	227540992	52	5613
2026-01-10 01:15:11.35	302.38	28.07	-41.1	-44.6	13.3	2.36e-05	0	56	0	229638144	52	5822
2026-01-10 01:15:12.36	302.05	28.06	-41.2	-44.7	13.2	2.13e-05	0	56	0	231735296	53	5573
2026-01-10 01:15:13.37	301.73	28.05	-41.1	-44.6	13.3	1.98e-05	0	56	0	233832448	53	5482
2026-01-10 01:15:14.38	301.40	28.03	-40.9	-44.1	13.7	7.60e-06	0	56	0	234881024	53	5206
2026-01-10 01:15:15.38	301.08	28.02	-40.8	-43.9	13.9	4.50e-06	0	56	0	236978176	53	5094
2026-01-10 01:15:16.39	300.75	28.01	-40.8	-44.0	13.9	0.00e+00	0	56	0	239075328	53	5133
2026-01-10 01:15:17.40	300.43	27.99	-40.9	-44.2	13.7	7.00e-07	0	56	0	241172480	53	5245
2026-01-10 01:15:18.40	300.11	27.98	-41.0	-44.3	13.6	9.90e-06	0	56	0	243269632	53	5331
2026-01-10 01:15:19.41	299.79	27.96	-41.1	-44.6	13.3	8.30e-06	0	56	0	244318208	53	5497
2026-01-10 01:15:20.42	299.46	27.94	-41.1	-44.6	13.3	9.90e-06	0	56	0	246415360	53	5503
2026-01-10 01:15:21.42	299.14	27.92	-41.3	-44.9	12.9	3.05e-05	0	56	0	248512512	53	5715
2026-01-10 01:15:22.43	298.82	27.90	-41.1	-44.6	13.2	3.66e-05	0	56	0	250609664	53	5488
2026-01-10 01:15:23.44	298.50	27.88	-41.2	-44.9	13.0	3.05e-05	0	56	0	252706816	53	5690
2026-01-10 01:15:24.45	298.17	27.86	-41.1	-44.7	13.2	2.59e-05	0	56	0	253755392	53	5549
2026-01-10 01:15:25.45	297.86	27.83	-41.0	-44.4	13.4	1.67e-05	0	56	0	255852544	53	5377
2026-01-10 01:15:26.46	297.54	27.81	-40.9	-44.3	13.6	8.30e-06	0	56	0	257949696	53	5284
2026-01-10 01:15:27.47	297.22	27.78	-40.6	-43.8	14.2	7.00e-07	0	56	0	260046848	53	4985
2026-01-10 01:15:28.47	296.90	27.76	-40.3	-43.2	14.6	7.00e-07	0	56	0	262144000	52	4927
2026-01-10 01:15:29.48	296.58	27.73	-40.1	-42.9	15.0	7.00e-07	0	56	0	263192576	52	4782
2026-01-10 01:15:30.49	296.26	27.70	-40.0	-42.8	15.1	0.00e+00	0	56	0	265289728	52	4713
2026-01-10 01:15:31.49	295.94	27.68	-40.3	-43.3	14.6	0.00e+00	0	56	0	267386880	52	5015
2026-01-10 01:15:32.50	295.63	27.65	-40.4	-43.4	14.5	0.00e+00	0	56	0	269484032	52	5047
2026-01-10 01:15:33.51	295.31	27.61	-40.5	-43.5	14.3	0.00e+00	0	56	0	271581184	52	5151
2026-01-10 01:15:34.52	294.99	27.58	-40.3	-43.2	14.6	0.00e+00	0	56	0	272629760	52	4963
2026-01-10 01:15:35.52	294.68	27.55	-40.1	-43.0	14.8	0.00e+00	0	56	0	274726912	52	4843
2026-01-10 01:15:36.53	294.37	27.52	-40.0	-42.7	15.2	0.00e+00	0	56	0	276824064	51	4947
2026-01-10 01:15:37.54	294.05	27.48	-40.0	-42.7	15.3	0.00e+00	0	56	0	278921216	51	4941
2026-01-10 01:15:38.55	293.74	27.45	-40.1	-42.9	15.0	0.00e+00	0	56	0	281018368	51	5071
2026-01-10 01:15:39.56	293.42	27.41	-40.4	-43.3	14.7	0.00e+00	0	56	0	282066944	51	5295
2026-01-10 01:15:40.57	293.11	27.37	-40.5	-43.4	14.6	0.00e+00	0	56	0	284164096	51	5358
2026-01-10 01:15:41.58	292.80	27.34	-40.5	-43.5	14.4	0.00e+00	0	56	0	286261248	51	5415
2026-01-10 01:15:42.59	292.49	27.30	-40.6	-43.7	14.2	1.50e-06	0	56	0	288358400	51	5571
2026-01-10 01:15:43.60	292.18	27.26	-40.6	-43.6	14.3	1.50e-06	0	56	0	290455552	51	5474
2026-01-10 01:15:44.61	291.87	27.22	-40.5	-43.5	14.5	7.00e-07	0	56	0	291504128	51	5407
2026-01-10 01:15:45.61	291.56	27.17	-40.5	-43.4	14.6	0.00e+00	0	56	0	293601280	51	5353
2026-01-10 01:15:46.62	291.26	27.13	-40.6	-43.7	14.2	7.00e-07	0	56	0	295698432	52	5231
2026-01-10 01:15:47.63	290.95	27.09	-41.0	-44.3	13.5	8.30e-06	0	56	0	297795584	52	5622
2026-01-10 01:15:48.64	290.64	27.04	-41.1	-44.6	13.2	8.30e-06	0	56	0	299892736	52	5829
2026-01-10 01:15:49.64	290.34	27.00	-41.2	-44.7	13.2	2.44e-05	0	56	0	300941312	53	5552
2026-01-10 01:15:50.65	290.04	26.95	-41.1	-44.5	13.4	1.60e-05	0	56	0	303038464	53	5446
2026-01-10 01:15:51.66	289.73	26.91	-40.9	-44.2	13.7	9.90e-06	0	56	0	305135616	53	5229
2026-01-10 01:15:52.66	289.43	26.86	-41.1	-44.4	13.4	6.80e-06	0	56	0	307232768	53	5398
2026-01-10 01:15:53.67	289.13	26.81	-40.9	-44.1	13.7	9.90e-06	0	56	0	309329920	53	5211
2026-01-10 01:15:54.68	288.83	26.76	-40.6	-43.6	14.2	2.20e-06	0	56	0	310378496	53	4910
2026-01-10 01:15:55.68	288.53	26.71	-40.4	-43.3	14.6	0.00e+00	0	56	0	312475648	52	5010
2026-01-10 01:15:56.69	288.23	26.66	-40.2	-43.0	14.8	0.00e+00	0	56	0	314572800	52	4855
2026-01-10 01:15:57.69	287.94	26.61	-40.5	-43.4	14.4	7.00e-07	0	56	0	316669952	52	5095
2026-01-10 01:15:58.70	287.64	26.56	-40.3	-43.1	14.7	7.00e-07	0	56	0	318767104	52	4912
2026-01-10 01:15:59.70	287.35	26.51	-40.4	-43.3	14.5	0.00e+00	0	56	0	319815680	52	5019
2026-01-10 01:16:00.71	287.05	26.46	-40.3	-43.2	14.7	0.00e+00	0	56	0	321912832	52	4938
2026-01-10 01:16:01.72	286.76	26.40	-40.2	-43.1	14.8	0.00e+00	0	56	0	324009984	52	4874
2026-01-10 01:16:02.73	286.47	26.35	-40.4	-43.3	14.6	0.00e+00	0	56	0	326107136	52	4993
2026-01-10 01:16:03.73	286.18	26.29	-40.7	-43.8	14.0	7.00e-07	0	56	0	328204288	52	5303
2026-01-10 01:16:04.74	285.88	26.23	-40.9	-44.1	13.8	6.80e-06	0	56	0	329252864	52	5495
2026-01-10 01:16:05.75	285.59	26.18	-40.9	-44.1	13.7	6.10e-06	0	56	0	331350016	52	5503
2026-01-10 01:16:06.75	285.31	26.12	-40.9	-44.1	13.7	5.30e-06	0	56	0	333447168	52	5515
2026-01-10 01:16:07.76	285.02	26.06	-41.0	-44.4	13.4	9.10e-06	0	56	0	335544320	52	5711
2026-01-10 01:16:08.77	284.73	26.00	-41.1	-44.6	13.2	2.21e-05	0	56	0	337641472	52	5824
2026-01-10 01:16:09.78	284.45	25.94	-41.1	-44.5	13.3	2.28e-05	0	56	0	338690048	52	5781
2026-01-10 01:16:10.78	284.17	25.88	-41.0	-44.4	13.4	1.90e-05	0	56	0	340787200	52	5710
2026-01-10 01:16:11.79	283.88	25.82	-41.0	-44.4	13.4	1.75e-05	0	56	0	342884352	52	5695
2026-01-10 01:16:12.80	283.60	25.76	-41.1	-44.6	13.1	1.29e-05	0	56	0	344981504	52	5797
2026-01-10 01:16:13.80	283.32	25.70	-41.1	-44.7	13.1	4.27e-05	0	56	0	347078656	53	5549
2026-01-10 01:16:14.81	283.04	25.64	-41.3	-44.9	12.8	5.18e-05	0	56	0	348127232	53	5709
2026-01-10 01:16:15.82	282.76	25.57	-41.2	-44.8	12.9	4.95e-05	0	56	0	350224384	53	5623
2026-01-10 01:16:16.83	282.48	25.51	-41.4	-45.2	12.5	1.01e-04	0	56	0	352321536	53	5898
2026-01-10 01:16:17.83	282.21	25.45	-41.5	-45.4	12.3	1.75e-04	0	56	0	354418688	53	6039
2026-01-10 01:16:18.84	281.93	25.38	-41.4	-45.3	12.3	2.02e-04	0	56	0	356515840	53	5982
2026-01-10 01:16:19.84	281.66	25.32	-41.3	-45.1	12.6	1.33e-04	0	56	0	357564416	53	5837
2026-01-10 01:16:20.85	281.39	25.25	-41.1	-44.6	13.0	4.80e-05	0	56	0	359661568	53	5513
2026-01-10 01:16:21.86	281.11	25.18	-41.0	-44.5	13.2	4.27e-05	0	56	0	361758720	53	5451
2026-01-10 01:16:22.86	280.85	25.12	-41.0	-44.5	13.3	2.59e-05	0	56	0	363855872	53	5403
2026-01-10 01:16:23.87	280.58	25.05	-40.8	-44.1	13.6	1.52e-05	0	56	0	365953024	53	5205
2026-01-10 01:16:24.87	280.31	24.98	-40.8	-44.1	13.6	7.60e-06	0	56	0	367001600	53	5209
2026-01-10 01:16:25.88	280.04	24.91	-40.9	-44.3	13.4	5.30e-06	0	56	0	369098752	53	5325
2026-01-10 01:16:26.89	279.78	24.84	-40.7	-44.1	13.6	9.90e-06	0	56	0	371195904	53	5188
2026-01-10 01:16:27.90	279.51	24.77	-40.8	-44.2	13.4	7.60e-06	0	56	0	373293056	53	5265
2026-01-10 01:16:28.90	279.25	24.70	-40.7	-44.1	13.4	1.60e-05	0	56	0	375390208	53	5178
2026-01-10 01:16:29.91	278.99	24.63	-40.7	-44.1	13.6	1.52e-05	0	56	0	376438784	53	5175
2026-01-10 01:16:30.92	278.72	24.56	-40.5	-43.7	14.0	3.00e-06	0	56	0	378535936	53	4936
2026-01-10 01:16:31.92	278.47	24.49	-40.3	-43.3	14.4	2.20e-06	0	56	0	380633088	52	5002
2026-01-10 01:16:32.93	278.21	24.42	-40.2	-43.1	14.6	0.00e+00	0	56	0	382730240	52	4896
2026-01-10 01:16:33.94	277.95	24.34	-40.4	-43.6	14.1	3.80e-06	0	56	0	384827392	52	5184
2026-01-10 01:16:34.95	277.69	24.27	-40.7	-44.2	13.5	6.80e-06	0	56	0	385875968	52	5555
2026-01-10 01:16:35.95	277.44	24.20	-41.2	-45.0	12.7	3.66e-05	0	56	0	387973120	52	6088
2026-01-10 01:16:36.96	277.18	24.13	-41.2	-44.9	12.7	1.34e-04	0	56	0	390070272	53	5701
2026-01-10 01:16:37.97	276.93	24.05	-41.4	-45.4	12.2	1.70e-04	0	56	0	392167424	53	6030
2026-01-10 01:16:38.97	276.68	23.98	-41.6	-45.4	12.3	2.15e-04	0	56	0	394264576	53	6026
2026-01-10 01:16:39.98	276.43	23.90	-41.6	-45.4	12.3	2.41e-04	0	56	0	396361728	53	6047
2026-01-10 01:16:40.99	276.18	23.83	-41.4	-45.0	12.7	7.85e-05	0	56	0	397410304	53	5767
2026-01-10 01:16:41.99	275.93	23.75	-41.3	-44.9	12.8	9.99e-05	0	56	0	399507456	53	5662
2026-01-10 01:16:43.00	275.68	23.68	-41.2	-44.8	13.0	8.01e-05	0	56	0	401604608	53	5593
2026-01-10 01:16:44.01	275.44	23.60	-41.0	-44.3	13.4	1.83e-05	0	56	0	403701760	53	5307
2026-01-10 01:16:45.02	275.19	23.52	-40.8	-43.9	13.9	7.60e-06	0	56	0	404750336	53	5069
2026-01-10 01:16:46.03	274.95	23.45	-40.7	-43.8	13.9	2.20e-06	0	56	0	406847488	53	5026
2026-01-10 01:16:47.03	274.71	23.37	-40.7	-43.8	13.9	6.10e-06	0	56	0	408944640	53	5040
2026-01-10 01:16:48.04	274.47	23.29	-40.7	-43.7	14.0	1.50e-06	0	56	0	411041792	53	4978
2026-01-10 01:16:49.05	274.23	23.21	-41.0	-44.4	13.4	6.10e-06	0	56	0	413138944	53	5374
2026-01-10 01:16:50.06	273.99	23.13	-41.2	-44.7	13.0	1.90e-05	0	56	0	414187520	53	5563
2026-01-10 01:16:51.07	273.75	23.06	-41.3	-44.8	12.9	4.11e-05	0	56	0	416284672	53	5635
2026-01-10 01:16:52.07	273.51	22.98	-41.1	-44.5	13.2	2.51e-05	0	56	0	418381824	53	5445
2026-01-10 01:16:53.08	273.28	22.90	-41.1	-44.5	13.2	1.98e-05	0	56	0	420478976	53	5416
2026-01-10 01:16:54.09	273.04	22.82	-40.9	-44.1	13.6	1.22e-05	0	56	0	422576128	53	5192
2026-01-10 01:16:55.09	272.81	22.74	-40.7	-43.7	14.0	3.00e-06	0	56	0	424673280	53	4982
2026-01-10 01:16:56.10	272.58	22.66	-40.2	-42.9	14.8	0.00e+00	0	56	0	425721856	52	4800
2026-01-10 01:16:57.11	272.35	22.58	-40.0	-42.6	15.1	0.00e+00	0	56	0	427819008	52	4645
2026-01-10 01:16:58.11	272.12	22.50	-40.1	-42.7	15.2	0.00e+00	0	56	0	429916160	51	4948
2026-01-10 01:16:59.12	271.90	22.42	-40.0	-42.6	15.3	0.00e+00	0	56	0	432013312	51	4876
2026-01-10 01:17:00.13	271.67	22.34	-40.1	-42.8	15.1	0.00e+00	0	56	0	433061888	51	4988
2026-01-10 01:17:01.13	271.44	22.26	-40.1	-42.8	15.0	7.00e-07	0	56	0	435159040	51	5005
2026-01-10 01:17:02.14	271.22	22.18	-40.1	-42.8	15.0	0.00e+00	0	56	0	437256192	51	5017
2026-01-10 01:17:03.15	271.00	22.09	-40.1	-42.8	15.0	0.00e+00	0	56	0	439353344	51	4993
2026-01-10 01:17:04.15	270.78	22.01	-40.1	-42.8	15.0	0.00e+00	0	56	0	441450496	51	5027
2026-01-10 01:17:05.16	270.55	21.93	-40.0	-42.6	15.2	0.00e+00	0	56	0	442499072	51	4878
2026-01-10 01:17:06.17	270.33	21.85	-40.1	-42.8	15.1	0.00e+00	0	56	0	444596224	51	5015
2026-01-10 01:17:07.18	270.12	21.77	-40.0	-42.6	15.3	0.00e+00	0	56	0	446693376	51	4918
2026-01-10 01:17:08.19	269.90	21.68	-40.1	-42.8	15.0	0.00e+00	0	56	0	448790528	51	4994
2026-01-10 01:17:09.20	269.68	21.60	-40.0	-42.6	15.2	0.00e+00	0	56	0	450887680	51	4919
2026-01-10 01:17:10.21	269.47	21.52	-40.0	-42.6	15.2	0.00e+00	0	56	0	452984832	51	4895
2026-01-10 01:17:11.22	269.25	21.43	-40.0	-42.6	15.2	0.00e+00	0	56	0	454033408	51	4876
2026-01-10 01:17:12.23	269.04	21.35	-40.0	-42.5	15.3	0.00e+00	0	56	0	456130560	51	4866
2026-01-10 01:17:13.24	268.83	21.27	-40.0	-42.7	15.2	0.00e+00	0	56	0	458227712	51	4927
2026-01-10 01:17:14.25	268.62	21.18	-40.1	-42.8	15.0	0.00e+00	0	56	0	460324864	51	5023
2026-01-10 01:17:15.25	268.41	21.10	-40.2	-42.9	14.9	7.00e-07	0	56	0	462422016	51	5079
2026-01-10 01:17:16.26	268.20	21.02	-40.2	-42.9	14.9	0.00e+00	0	56	0	463470592	51	5069
2026-01-10 01:17:17.27	267.99	20.93	-40.3	-43.0	14.7	0.00e+00	0	56	0	465567744	51	5156
2026-01-10 01:17:18.28	267.79	20.85	-40.5	-43.5	14.3	7.00e-07	0	56	0	467664896	51	5420
2026-01-10 01:17:19.28	267.58	20.77	-40.7	-43.8	14.0	0.00e+00	0	56	0	469762048	51	5630
2026-01-10 01:17:20.29	267.38	20.68	-40.9	-44.1	13.6	3.80e-06	0	56	0	471859200	52	5516
2026-01-10 01:17:21.30	267.18	20.60	-40.9	-44.1	13.6	6.10e-06	0	56	0	472907776	52	5517
2026-01-10 01:17:22.30	266.98	20.51	-40.7	-43.8	13.9	5.30e-06	0	56	0	475004928	52	5281
2026-01-10 01:17:23.31	266.78	20.43	-40.6	-43.6	14.1	3.00e-06	0	56	0	477102080	52	5191
2026-01-10 01:17:24.32	266.58	20.35	-40.4	-43.3	14.4	1.50e-06	0	56	0	479199232	52	5018
2026-01-10 01:17:25.33	266.38	20.26	-40.3	-43.2	14.5	7.00e-07	0	56	0	481296384	52	4955
2026-01-10 01:17:26.33	266.18	20.18	-40.4	-43.2	14.4	0.00e+00	0	56	0	482344960	52	4980
2026-01-10 01:17:27.34	265.99	20.09	-40.5	-43.5	14.2	7.00e-07	0	56	0	484442112	52	5102
2026-01-10 01:17:28.35	265.79	20.01	-40.6	-43.7	14.0	3.80e-06	0	56	0	486539264	52	5226
2026-01-10 01:17:29.36	265.60	19.92	-40.6	-43.6	14.0	7.00e-07	0	56	0	488636416	52	5211
2026-01-10 01:17:30.37	265.40	19.84	-40.4	-43.4	14.3	3.00e-06	0	56	0	490733568	52	5065
2026-01-10 01:17:31.37	265.21	19.75	-40.0	-42.7	15.0	7.00e-07	0	56	0	491782144	52	4701
2026-01-10 01:17:32.38	265.02	19.67	-39.9	-42.5	15.2	0.00e+00	0	56	0	493879296	51	4859
2026-01-10 01:17:33.39	264.83	19.58	-39.6	-42.0	15.7	0.00e+00	0	56	0	495976448	51	4573
2026-01-10 01:17:34.40	264.64	19.50	-39.4	-41.7	16.0	0.00e+00	0	56	0	498073600	50	4676
2026-01-10 01:17:35.41	264.46	19.41	-39.3	-41.5	16.2	0.00e+00	0	56	0	500170752	50	4597
2026-01-10 01:17:36.42	264.27	19.33	-39.3	-41.6	16.2	0.00e+00	0	56	0	501219328	50	4606
2026-01-10 01:17:37.43	264.08	19.24	-39.4	-41.8	15.9	0.00e+00	0	56	0	503316480	50	4715
2026-01-10 01:17:38.44	263.90	19.16	-39.4	-41.8	15.9	0.00e+00	0	56	0	505413632	50	4735
2026-01-10 01:17:39.45	263.72	19.07	-39.5	-41.9	15.8	0.00e+00	0	56	0	507510784	50	4790
2026-01-10 01:17:40.45	263.54	18.99	-39.6	-42.1	15.6	0.00e+00	0	56	0	509607936	50	4895
2026-01-10 01:17:41.45	263.36	18.90	-39.8	-42.3	15.4	0.00e+00	0	56	0	510656512	50	5031
2026-01-10 01:17:42.46	263.18	18.82	-40.0	-42.6	15.1	0.00e+00	0	56	0	512753664	50	5190
2026-01-10 01:17:43.47	263.00	18.73	-40.0	-42.7	15.0	0.00e+00	0	56	0	514850816	50	5248
2026-01-10 01:17:44.48	262.82	18.65	-40.0	-42.7	15.0	0.00e+00	0	56	0	516947968	50	5258
2026-01-10 01:17:45.49	262.64	18.56	-39.9	-42.5	15.3	0.00e+00	0	56	0	519045120	50	5105
2026-01-10 01:17:46.49	262.47	18.48	-39.9	-42.5	15.3	0.00e+00	0	56	0	520093696	50	5115
2026-01-10 01:17:47.50	262.29	18.39	-39.8	-42.3	15.4	0.00e+00	0	56	0	522190848	50	5025
2026-01-10 01:17:48.51	262.12	18.31	-39.8	-42.3	15.4	0.00e+00	0	56	0	524288000	50	5023
2026-01-10 01:17:49.52	261.94	18.22	-39.7	-42.3	15.4	0.00e+00	0	56	0	526385152	50	5014
2026-01-10 01:17:50.52	261.77	18.14	-39.9	-42.5	15.2	0.00e+00	0	56	0	528482304	50	5140
2026-01-10 01:17:51.53	261.60	18.05	-40.0	-42.8	14.9	0.00e+00	0	56	0	529530880	50	5282
2026-01-10 01:17:52.53	261.43	17.97	-40.1	-42.9	14.8	0.00e+00	0	56	0	531628032	50	5341
2026-01-10 01:17:53.54	261.26	17.88	-40.2	-43.0	14.6	0.00e+00	0	56	0	533725184	50	5462
2026-01-10 01:17:54.55	261.09	17.80	-40.3	-43.1	14.6	7.00e-07	0	56	0	535822336	51	5193
2026-01-10 01:17:55.56	260.93	17.71	-40.3	-43.1	14.5	0.00e+00	0	56	0	537919488	51	5204
2026-01-10 01:17:56.56	260.76	17.63	-40.3	-43.2	14.5	0.00e+00	0	56	0	538968064	51	5224
2026-01-10 01:17:57.57	260.59	17.54	-40.4	-43.3	14.3	1.50e-06	0	56	0	541065216	51	5312
2026-01-10 01:17:58.58	260.43	17.46	-40.4	-43.3	14.4	7.00e-07	0	56	0	543162368	51	5309
2026-01-10 01:17:59.59	260.27	17.37	-40.2	-43.1	14.5	0.00e+00	0	56	0	545259520	51	5170
2026-01-10 01:18:00.59	260.10	17.29	-40.1	-42.8	14.8	0.00e+00	0	56	0	547356672	51	5030
2026-01-10 01:18:01.60	259.94	17.20	-39.8	-42.5	15.2	0.00e+00	0	56	0	548405248	51	4825
2026-01-10 01:18:02.61	259.78	17.12	-39.7	-42.2	15.4	0.00e+00	0	56	0	550502400	51	4680
2026-01-10 01:18:03.61	259.62	17.04	-39.6	-42.2	15.4	0.00e+00	0	56	0	552599552	51	4654
2026-01-10 01:18:04.62	259.46	16.95	-39.6	-42.1	15.5	0.00e+00	0	56	0	554696704	51	4648
2026-01-10 01:18:05.62	259.31	16.87	-39.7	-42.3	15.3	0.00e+00	0	56	0	556793856	51	4718
2026-01-10 01:18:06.64	259.15	16.78	-40.0	-42.8	14.8	0.00e+00	0	56	0	557842432	51	4998
2026-01-10 01:18:07.64	258.99	16.70	-40.2	-43.0	14.5	0.00e+00	0	56	0	559939584	51	5147
2026-01-10 01:18:08.65	258.84	16.62	-40.5	-43.5	14.1	0.00e+00	0	56	0	562036736	51	5445
2026-01-10 01:18:09.66	258.68	16.53	-40.7	-43.8	13.8	5.30e-06	0	56	0	564133888	51	5638
2026-01-10 01:18:10.67	258.53	16.45	-40.7	-43.9	13.7	4.50e-06	0	56	0	566231040	52	5358
2026-01-10 01:18:11.68	258.37	16.36	-40.5	-43.6	13.9	3.80e-06	0	56	0	567279616	52	5181
2026-01-10 01:18:12.69	258.22	16.28	-40.3	-43.3	14.3	7.00e-07	0	56	0	569376768	52	5010
2026-01-10 01:18:13.70	258.07	16.19	-40.3	-43.2	14.3	0.00e+00	0	56	0	571473920	52	4945
2026-01-10 01:18:14.71	257.92	16.11	-40.2	-43.1	14.4	7.00e-07	0	56	0	573571072	52	4900
2026-01-10 01:18:15.72	257.77	16.03	-40.2	-43.0	14.6	0.00e+00	0	56	0	575668224	51	5137
2026-01-10 01:18:16.73	257.62	15.94	-40.1	-42.9	14.7	7.00e-07	0	56	0	576716800	51	5064
2026-01-10 01:18:17.73	257.48	15.86	-40.1	-43.0	14.6	0.00e+00	0	56	0	578813952	51	5119
2026-01-10 01:18:18.74	257.33	15.78	-40.0	-42.8	14.8	0.00e+00	0	56	0	580911104	51	4988
2026-01-10 01:18:19.75	257.18	15.69	-40.1	-42.9	14.7	0.00e+00	0	56	0	583008256	51	5094
2026-01-10 01:18:20.76	257.04	15.61	-40.2	-43.0	14.5	2.20e-06	0	56	0	585105408	51	5151
2026-01-10 01:18:21.76	256.89	15.53	-40.2	-43.1	14.5	0.00e+00	0	56	0	586153984	51	5166
2026-01-10 01:18:22.77	256.75	15.45	-40.1	-43.0	14.6	7.00e-07	0	56	0	588251136	51	5121
2026-01-10 01:18:23.78	256.61	15.36	-40.2	-43.0	14.6	0.00e+00	0	56	0	590348288	51	5123
2026-01-10 01:18:24.78	256.47	15.28	-40.3	-43.2	14.3	7.00e-07	0	56	0	592445440	51	5244
2026-01-10 01:18:25.79	256.32	15.20	-40.5	-43.5	14.0	2.20e-06	0	56	0	594542592	51	5459
2026-01-10 01:18:26.80	256.18	15.12	-40.7	-44.0	13.4	7.60e-06	0	56	0	595591168	52	5451
2026-01-10 01:18:27.81	256.04	15.03	-40.6	-43.8	13.6	7.60e-06	0	56	0	597688320	52	5331
2026-01-10 01:18:28.81	255.91	14.95	-40.7	-43.9	13.6	1.14e-05	0	56	0	599785472	52	5377
2026-01-10 01:18:29.82	255.77	14.87	-40.7	-43.9	13.5	2.21e-05	0	56	0	601882624	52	5391
2026-01-10 01:18:30.83	255.63	14.79	-40.5	-43.7	13.8	7.60e-06	0	56	0	603979776	52	5231
2026-01-10 01:18:31.84	255.49	14.70	-40.5	-43.6	13.9	3.00e-06	0	56	0	606076928	52	5174
2026-01-10 01:18:32.84	255.36	14.62	-40.2	-43.2	14.3	2.20e-06	0	56	0	607125504	52	4933
2026-01-10 01:18:33.85	255.22	14.54	-40.1	-42.9	14.5	1.50e-06	0	56	0	609222656	52	4779
2026-01-10 01:18:34.86	255.09	14.46	-39.9	-42.6	14.9	7.00e-07	0	56	0	611319808	51	4918
2026-01-10 01:18:35.87	254.95	14.38	-40.0	-42.8	14.7	7.00e-07	0	56	0	613416960	51	5024
2026-01-10 01:18:36.88	254.82	14.30	-39.9	-42.6	14.8	1.50e-06	0	56	0	614465536	51	4920
2026-01-10 01:18:37.89	254.69	14.22	-40.1	-43.0	14.6	0.00e+00	0	56	0	616562688	51	5101
2026-01-10 01:18:38.90	254.56	14.13	-40.2	-43.1	14.4	7.00e-07	0	56	0	618659840	51	5160
2026-01-10 01:18:39.91	254.43	14.05	-40.3	-43.2	14.3	0.00e+00	0	56	0	620756992	51	5237
2026-01-10 01:18:40.92	254.30	13.97	-40.4	-43.4	14.0	1.50e-06	0	56	0	622854144	51	5380
2026-01-10 01:18:41.93	254.17	13.89	-40.5	-43.6	13.9	2.20e-06	0	56	0	623902720	51	5475
2026-01-10 01:18:42.94	254.04	13.81	-40.5	-43.6	13.9	6.10e-06	0	56	0	625999872	51	5468
2026-01-10 01:18:43.94	253.91	13.73	-40.4	-43.5	13.9	2.20e-06	0	56	0	628097024	51	5420
2026-01-10 01:18:44.96	253.78	13.65	-40.4	-43.5	14.0	4.50e-06	0	56	0	630194176	51	5413
2026-01-10 01:18:45.96	253.66	13.57	-40.3	-43.3	14.2	7.00e-07	0	56	0	632291328	51	5298
2026-01-10 01:18:46.97	253.53	13.49	-40.3	-43.3	14.1	7.00e-07	0	56	0	634388480	51	5339
2026-01-10 01:18:47.98	253.41	13.41	-40.5	-43.5	13.8	2.20e-06	0	56	0	635437056	51	5464
2026-01-10 01:18:48.99	253.28	13.33	-40.5	-43.6	13.8	2.20e-06	0	56	0	637534208	51	5503
2026-01-10 01:18:50.00	253.16	13.25	-40.6	-43.8	13.7	3.00e-06	0	56	0	639631360	51	5613
2026-01-10 01:18:51.00	253.04	13.17	-40.5	-43.7	13.8	4.50e-06	0	56	0	641728512	51	5549
2026-01-10 01:18:52.01	252.91	13.09	-40.6	-44.0	13.3	1.60e-05	0	56	0	643825664	52	5417
2026-01-10 01:18:53.02	252.79	13.01	-40.5	-43.7	13.6	9.10e-06	0	56	0	644874240	52	5271
2026-01-10 01:18:54.02	252.67	12.93	-40.6	-43.9	13.4	1.22e-05	0	56	0	646971392	52	5397
2026-01-10 01:18:55.03	252.55	12.85	-40.7	-44.0	13.3	1.67e-05	0	56	0	649068544	52	5441
2026-01-10 01:18:56.04	252.43	12.77	-40.6	-43.9	13.4	1.60e-05	0	56	0	651165696	52	5384
2026-01-10 01:18:57.05	252.31	12.69	-40.7	-44.0	13.3	1.98e-05	0	56	0	653262848	52	5442
2026-01-10 01:18:58.05	252.19	12.62	-40.7	-44.1	13.2	1.60e-05	0	56	0	654311424	52	5500
2026-01-10 01:18:59.06	252.08	12.54	-40.7	-44.1	13.2	3.43e-05	0	56	0	656408576	52	5486
2026-01-10 01:19:00.07	251.96	12.46	-40.7	-44.2	13.1	2.59e-05	0	56	0	658505728	52	5552
2026-01-10 01:19:01.08	251.84	12.38	-41.0	-44.6	12.6	5.64e-05	0	56	0	660602880	52	5831
2026-01-10 01:19:02.09	251.73	12.30	-40.9	-44.6	12.7	6.56e-05	0	56	0	662700032	52	5804
2026-01-10 01:19:03.10	251.61	12.22	-41.0	-44.7	12.5	9.76e-05	0	56	0	663748608	52	5903
2026-01-10 01:19:04.11	251.50	12.15	-41.2	-45.1	12.1	1.67e-04	0	56	0	665845760	53	5852
2026-01-10 01:19:05.12	251.38	12.07	-41.1	-44.9	12.3	1.72e-04	0	56	0	667942912	53	5688
2026-01-10 01:19:06.13	251.27	11.99	-41.0	-44.8	12.4	1.80e-04	0	56	0	670040064	53	5636
2026-01-10 01:19:07.14	251.16	11.91	-41.1	-44.8	12.4	1.50e-04	0	56	0	672137216	53	5648
2026-01-10 01:19:08.14	251.04	11.84	-41.0	-44.7	12.6	1.08e-04	0	56	0	673185792	53	5531
2026-01-10 01:19:09.15	250.93	11.76	-40.8	-44.4	12.7	9.00e-05	0	56	0	675282944	53	5388
2026-01-10 01:19:10.16	250.82	11.68	-40.7	-44.3	12.9	5.87e-05	0	56	0	677380096	53	5280
2026-01-10 01:19:11.16	250.71	11.61	-40.7	-44.2	13.0	2.36e-05	0	56	0	679477248	53	5243
2026-01-10 01:19:12.17	250.60	11.53	-40.6	-44.0	13.2	1.22e-05	0	56	0	681574400	53	5119
2026-01-10 01:19:13.18	250.49	11.45	-40.7	-44.1	13.0	2.89e-05	0	56	0	682622976	53	5211
2026-01-10 01:19:14.19	250.38	11.37	-40.6	-44.0	13.2	2.51e-05	0	56	0	684720128	53	5123
2026-01-10 01:19:15.20	250.28	11.30	-40.8	-44.3	12.9	4.42e-05	0	56	0	686817280	53	5290
2026-01-10 01:19:16.21	250.17	11.22	-40.9	-44.5	12.6	4.73e-05	0	56	0	688914432	53	5442
2026-01-10 01:19:17.22	250.06	11.15	-40.9	-44.5	12.7	7.40e-05	0	56	0	691011584	53	5434
2026-01-10 01:19:18.22	249.96	11.07	-41.0	-44.8	12.4	1.23e-04	0	56	0	692060160	53	5612
2026-01-10 01:19:19.23	249.85	10.99	-41.0	-44.9	12.3	1.75e-04	0	56	0	694157312	53	5663
2026-01-10 01:19:20.24	249.74	10.92	-41.2	-45.1	12.0	2.79e-04	0	56	0	696254464	53	5839
2026-01-10 01:19:21.25	249.64	10.84	-41.2	-45.2	11.9	3.81e-04	0	56	0	698351616	53	5904
2026-01-10 01:19:22.25	249.54	10.77	-41.3	-45.3	11.7	4.53e-04	0	56	0	700448768	53	5988
2026-01-10 01:19:23.26	249.43	10.69	-41.2	-45.2	11.9	5.40e-04	0	56	0	701497344	53	5885
2026-01-10 01:19:24.27	249.33	10.62	-41.1	-45.1	12.0	3.83e-04	0	56	0	703594496	53	5820
2026-01-10 01:19:25.27	249.23	10.54	-41.2	-45.1	11.9	3.67e-04	0	56	0	705691648	53	5836
2026-01-10 01:19:26.28	249.13	10.47	-41.0	-44.8	12.3	2.57e-04	0	56	0	707788800	53	5605
2026-01-10 01:19:27.29	249.02	10.39	-40.9	-44.6	12.5	1.66e-04	0	56	0	709885952	53	5499
2026-01-10 01:19:28.29	248.92	10.32	-40.7	-44.3	12.8	7.40e-05	0	56	0	710934528	53	5301
2026-01-10 01:19:29.30	248.82	10.24	-40.7	-44.3	12.8	5.95e-05	0	56	0	713031680	53	5280
2026-01-10 01:19:30.31	248.72	10.17	-40.6	-44.1	13.0	4.11e-05	0	56	0	715128832	53	5201
2026-01-10 01:19:31.31	248.62	10.10	-40.6	-44.1	13.0	4.11e-05	0	56	0	717225984	53	5185
2026-01-10 01:19:32.32	248.53	10.02	-40.7	-44.2	12.9	4.95e-05	0	56	0	719323136	53	5237
2026-01-10 01:19:33.33	248.43	9.95	-40.6	-44.1	13.0	6.48e-05	0	56	0	720371712	53	5161
2026-01-10 01:19:34.33	248.33	9.88	-40.8	-44.4	12.6	5.72e-05	0	56	0	722468864	53	5376
2026-01-10 01:19:35.34	248.23	9.80	-40.8	-44.4	12.6	7.01e-05	0	56	0	724566016	53	5369
2026-01-10 01:19:36.34	248.14	9.73	-41.0	-44.8	12.2	9.23e-05	0	56	0	726663168	53	5633
2026-01-10 01:19:37.35	248.04	9.65	-41.0	-44.9	12.2	1.92e-04	0	56	0	728760320	53	5661
2026-01-10 01:19:38.35	247.95	9.58	-41.1	-45.2	11.8	3.80e-04	0	56	0	729808896	53	5857
2026-01-10 01:19:39.36	247.85	9.51	-41.2	-45.3	11.7	5.07e-04	0	56	0	731906048	53	5967
2026-01-10 01:19:40.36	247.76	9.44	-41.3	-45.7	11.3	6.55e-04	0	56	0	734003200	53	6215
2026-01-10 01:19:41.37	247.66	9.36	-41.3	-45.6	11.4	1.01e-03	0	56	0	736100352	53	6148
2026-01-10 01:19:42.38	247.57	9.29	-41.4	-45.7	11.2	1.14e-03	0	56	0	738197504	53	6248
2026-01-10 01:19:43.39	247.47	9.22	-41.5	-46.0	11.0	1.57e-03	0	56	0	739246080	53	6456
2026-01-10 01:19:44.39	247.38	9.15	-41.5	-46.0	11.0	2.03e-03	0	56	0	741343232	53	6443
2026-01-10 01:19:45.40	247.29	9.07	-41.5	-46.0	10.8	2.73e-03	0	56	0	743440384	53	6487
2026-01-10 01:19:46.40	247.20	9.00	-41.5	-46.1	10.8	2.90e-03	0	56	0	745537536	53	6499
2026-01-10 01:19:47.41	247.11	8.93	-41.5	-46.1	10.8	2.39e-03	0	56	0	747634688	53	6549
2026-01-10 01:19:48.42	247.01	8.86	-41.5	-46.2	10.7	3.12e-03	0	56	0	748683264	53	6594
2026-01-10 01:19:49.42	246.92	8.79	-41.6	-46.3	10.4	4.50e-03	0	56	0	750780416	53	6722
2026-01-10 01:19:50.43	246.83	8.72	-41.7	-46.6	10.2	4.35e-03	0	56	0	752877568	53	6920
2026-01-10 01:19:51.44	246.74	8.64	-41.6	-46.5	10.3	6.11e-03	0	56	0	754974720	53	6876
2026-01-10 01:19:52.45	246.66	8.57	-41.7	-46.6	10.2	5.14e-03	0	56	0	757071872	54	6534
2026-01-10 01:19:53.45	246.57	8.50	-41.8	-46.8	9.9	7.33e-03	0	56	0	758120448	54	6704
2026-01-10 01:19:54.46	246.48	8.43	-41.8	-47.0	9.8	6.89e-03	0	56	0	760217600	54	6813
2026-01-10 01:19:55.47	246.39	8.36	-41.7	-46.8	9.9	7.04e-03	0	56	0	762314752	54	6701
2026-01-10 01:19:56.48	246.30	8.29	-41.7	-46.8	10.0	6.83e-03	0	56	0	764411904	54	6670
2026-01-10 01:19:57.49	246.22	8.22	-41.7	-46.6	10.2	5.46e-03	0	56	0	766509056	54	6533
2026-01-10 01:19:58.50	246.13	8.15	-41.7	-46.7	10.1	6.26e-03	0	56	0	767557632	54	6584
2026-01-10 01:19:59.51	246.04	8.08	-41.7	-46.7	10.1	6.86e-03	0	56	0	769654784	54	6605
2026-01-10 01:20:00.51	245.96	8.01	-42.5	-49.1	8.3	7.93e-03	0	56	0	771751936	55	8226
2026-01-10 01:20:01.52	245.87	7.94	-44.2	-58.7	3.9	1.49e+00	0	56	104	771751936	59	19775
2026-01-10 01:20:02.53	245.79	7.87	-44.5	-59.0	3.8	1.49e+00	0	56	104	771751936	59	20484
2026-01-10 01:20:03.54	245.70	7.80	-44.7	-59.2	3.8	1.49e+00	0	56	104	771751936	59	20954
2026-01-10 01:20:04.55	245.62	7.73	-44.7	-59.4	3.8	1.49e+00	0	56	104	771751936	60	20236
2026-01-10 01:20:05.56	245.53	7.66	-44.8	-59.5	3.8	1.49e+00	0	56	104	771751936	60	20470
2026-01-10 01:20:06.57	245.45	7.59	-44.9	-59.6	3.8	1.49e+00	0	56	104	771751936	60	20639
2026-01-10 01:20:07.58	245.37	7.52	-44.9	-59.7	3.8	1.49e+00	0	56	104	771751936	60	20801
2026-01-10 01:20:08.59	245.29	7.45	-45.0	-59.7	3.8	1.49e+00	0	56	104	771751936	60	20881
2026-01-10 01:20:09.59	245.20	7.38	-45.0	-59.7	3.8	1.49e+00	0	56	104	771751936	60	20864
2026-01-10 01:20:10.60	245.12	7.31	-44.9	-59.7	3.8	1.49e+00	0	56	104	771751936	60	20848
2026-01-10 01:20:11.61	245.04	7.24	-44.9	-59.7	3.8	1.49e+00	0	56	104	771751936	60	20867
2026-01-10 01:20:12.62	244.96	7.18	-44.9	-59.7	3.8	1.49e+00	0	56	104	771751936	60	20798
2026-01-10 01:20:13.63	244.88	7.11	-44.9	-59.7	3.8	1.49e+00	0	56	104	771751936	60	20784
2026-01-10 01:20:14.64	244.80	7.04	-44.9	-59.6	3.8	1.49e+00	0	56	104	771751936	60	20749
2026-01-10 01:20:15.65	244.72	6.97	-44.9	-59.7	3.8	1.49e+00	0	56	104	771751936	60	20905
2026-01-10 01:20:16.66	244.64	6.90	-44.9	-59.7	3.8	1.49e+00	0	56	104	771751936	60	20893
2026-01-10 01:20:17.67	244.56	6.83	-44.9	-59.7	3.8	1.49e+00	0	56	104	771751936	60	20778
2026-01-10 01:20:18.68	244.48	6.77	-44.9	-59.7	3.8	1.49e+00	0	56	104	771751936	60	20809
2026-01-10 01:20:19.69	244.40	6.70	-44.9	-59.7	3.8	1.49e+00	0	56	104	771751936	60	20808
2026-01-10 01:20:20.69	244.33	6.63	-44.9	-59.7	3.8	1.49e+00	0	56	104	771751936	60	20826
2026-01-10 01:20:21.70	244.25	6.56	-44.9	-59.7	3.8	1.49e+00	0	56	104	771751936	60	20809
2026-01-10 01:20:22.71	244.17	6.50	-44.9	-59.7	3.8	1.49e+00	0	56	104	771751936	60	20813
2026-01-10 01:20:23.72	244.09	6.43	-44.9	-59.6	3.8	1.49e+00	0	56	104	771751936	60	20748
2026-01-10 01:20:24.72	244.02	6.36	-44.9	-59.7	3.8	1.49e+00	0	56	104	771751936	60	20831
2026-01-10 01:20:25.73	243.94	6.29	-44.9	-59.7	3.8	1.49e+00	0	56	104	771751936	60	20796
2026-01-10 01:20:26.74	243.87	6.23	-44.9	-59.6	3.8	1.49e+00	0	56	104	771751936	60	20747
2026-01-10 01:20:27.75	243.79	6.16	-44.9	-59.6	3.8	1.49e+00	0	56	104	771751936	60	20769
2026-01-10 01:20:28.75	243.72	6.09	-44.9	-59.6	3.8	1.49e+00	0	56	104	771751936	60	20767
2026-01-10 01:20:29.76	243.64	6.03	-44.9	-59.7	3.8	1.49e+00	0	56	104	771751936	60	20798
2026-01-10 01:20:30.77	243.57	5.96	-44.9	-59.7	3.8	1.49e+00	0	56	104	771751936	60	20806
2026-01-10 01:20:31.78	243.49	5.90	-44.9	-59.6	3.8	1.49e+00	0	56	104	771751936	60	20771
2026-01-10 01:20:32.79	243.42	5.83	-44.8	-59.6	3.8	1.49e+00	0	56	104	771751936	60	20726
2026-01-10 01:20:33.80	243.35	5.76	-44.9	-59.6	3.8	1.49e+00	0	56	104	771751936	60	20747
2026-01-10 01:20:34.81	243.27	5.70	-44.8	-59.6	3.8	1.49e+00	0	56	104	771751936	60	20752
2026-01-10 01:20:35.81	243.20	5.63	-44.9	-59.6	3.8	1.49e+00	0	56	104	771751936	60	20744
2026-01-10 01:20:36.82	243.13	5.57	-44.8	-59.6	3.8	1.49e+00	0	56	104	771751936	60	20710
2026-01-10 01:20:37.83	243.06	5.50	-44.8	-59.6	3.8	1.49e+00	0	56	104	771751936	60	20753
2026-01-10 01:20:38.84	242.99	5.44	-44.8	-59.6	3.8	1.49e+00	0	56	104	771751936	60	20684
2026-01-10 01:20:39.84	242.92	5.37	-44.8	-59.6	3.8	1.49e+00	0	56	104	771751936	60	20738
2026-01-10 01:20:40.85	242.85	5.31	-44.8	-59.6	3.8	1.49e+00	0	56	104	771751936	60	20762
2026-01-10 01:20:41.86	242.77	5.24	-44.8	-59.6	3.8	1.49e+00	0	56	104	771751936	60	20689
2026-01-10 01:20:42.87	242.70	5.18	-44.8	-59.6	3.8	1.49e+00	0	56	104	771751936	60	20664
2026-01-10 01:20:43.88	242.63	5.11	-44.8	-59.6	3.8	1.49e+00	0	56	104	771751936	60	20698
2026-01-10 01:20:44.89	242.56	5.05	-44.8	-59.6	3.8	1.49e+00	0	56	104	771751936	60	20715
2026-01-10 01:20:45.90	242.50	4.98	-44.8	-59.6	3.8	1.49e+00	0	56	104	771751936	60	20713
2026-01-10 01:20:46.91	242.43	4.92	-44.8	-59.6	3.8	1.49e+00	0	56	104	771751936	60	20737
2026-01-10 01:20:47.92	242.36	4.85	-44.8	-59.6	3.8	1.49e+00	0	56	104	771751936	60	20725
2026-01-10 01:20:48.93	242.29	4.79	-44.8	-59.6	3.8	1.49e+00	0	56	104	771751936	60	20646
2026-01-10 01:20:49.93	242.22	4.72	-44.8	-59.6	3.8	1.49e+00	0	56	104	771751936	60	20683
2026-01-10 01:20:50.94	242.15	4.66	-44.8	-59.6	3.8	1.49e+00	0	56	104	771751936	60	20692
2026-01-10 01:20:51.95	242.09	4.60	-44.8	-59.6	3.8	1.49e+00	0	56	104	771751936	60	20696
2026-01-10 01:20:52.96	242.02	4.53	-44.8	-59.6	3.8	1.49e+00	0	56	104	771751936	60	20675
2026-01-10 01:20:53.97	241.95	4.47	-44.8	-59.6	3.8	1.49e+00	0	56	104	771751936	60	20700
2026-01-10 01:20:54.98	241.89	4.40	-44.8	-59.6	3.8	1.49e+00	0	56	104	771751936	60	20670
2026-01-10 01:20:55.99	241.82	4.34	-44.8	-59.6	3.8	1.49e+00	0	56	104	771751936	60	20699
2026-01-10 01:20:57.00	241.75	4.28	-44.8	-59.6	3.8	1.49e+00	0	56	104	771751936	60	20704
2026-01-10 01:20:58.01	241.69	4.21	-44.8	-59.6	3.8	1.49e+00	0	56	104	771751936	60	20711
2026-01-10 01:20:59.02	241.62	4.15	-44.8	-59.6	3.8	1.49e+00	0	56	104	771751936	60	20632
2026-01-10 01:21:00.02	241.56	4.09	-44.8	-59.6	3.8	1.49e+00	0	56	104	771751936	60	20689
2026-01-10 01:21:01.03	241.49	4.03	-44.8	-59.6	3.8	1.49e+00	0	56	104	771751936	60	20650
2026-01-10 01:21:02.04	241.43	3.96	-44.8	-59.6	3.8	1.49e+00	0	56	104	771751936	60	20656
2026-01-10 01:21:03.05	241.36	3.90	-44.8	-59.6	3.8	1.49e+00	0	56	104	771751936	60	20681
2026-01-10 01:21:04.06	241.30	3.84	-44.8	-59.6	3.8	1.49e+00	0	56	104	771751936	60	20704
2026-01-10 01:21:05.07	241.24	3.78	-44.8	-59.6	3.8	1.49e+00	0	56	104	771751936	60	20689
2026-01-10 01:21:06.08	241.17	3.71	-44.7	-59.6	3.8	1.49e+00	0	56	104	771751936	60	20677
2026-01-10 01:21:07.09	241.11	3.65	-44.8	-59.6	3.8	1.49e+00	0	56	104	771751936	60	20665
2026-01-10 01:21:08.10	241.05	3.59	-44.8	-59.6	3.8	1.49e+00	0	56	104	771751936	60	20681
2026-01-10 01:21:09.11	240.98	3.53	-44.8	-59.6	3.8	1.49e+00	0	56	104	771751936	60	20636
2026-01-10 01:21:10.12	240.92	3.47	-44.8	-59.6	3.8	1.49e+00	0	56	104	771751936	60	20636
2026-01-10 01:21:11.13	240.86	3.40	-44.8	-59.6	3.8	1.49e+00	0	56	104	771751936	60	20707
2026-01-10 01:21:12.14	240.80	3.34	-44.8	-59.6	3.8	1.49e+00	0	56	104	771751936	60	20652
2026-01-10 01:21:13.15	240.74	3.28	-44.8	-59.6	3.8	1.49e+00	0	56	104	771751936	60	20650
2026-01-10 01:21:14.16	240.68	3.22	-44.8	-59.6	3.8	1.49e+00	0	56	104	771751936	60	20624
2026-01-10 01:21:15.16	240.62	3.16	-44.8	-59.6	3.8	1.49e+00	0	56	104	771751936	60	20584
2026-01-10 01:21:16.17	240.56	3.10	-44.8	-59.6	3.8	1.49e+00	0	56	104	771751936	60	20659
2026-01-10 01:21:17.18	240.49	3.04	-44.8	-59.6	3.8	1.49e+00	0	56	104	771751936	60	20612
2026-01-10 01:21:18.19	240.43	2.97	-44.8	-59.6	3.8	1.49e+00	0	56	104	771751936	60	20601
2026-01-10 01:21:19.20	240.37	2.91	-44.8	-59.6	3.8	1.49e+00	0	56	104	771751936	60	20635
2026-01-10 01:21:20.21	240.32	2.85	-44.8	-59.6	3.8	1.49e+00	0	56	104	771751936	60	20598
2026-01-10 01:21:21.22	240.26	2.79	-44.8	-59.6	3.8	1.49e+00	0	56	104	771751936	60	20635
2026-01-10 01:21:22.23	240.20	2.73	-44.8	-59.6	3.8	1.49e+00	0	56	104	771751936	60	20589
2026-01-10 01:21:23.23	240.14	2.67	-44.8	-59.6	3.8	1.49e+00	0	56	104	771751936	60	20563
2026-01-10 01:21:24.24	240.08	2.61	-44.8	-59.6	3.8	1.49e+00	0	56	104	771751936	60	20628
2026-01-10 01:21:25.26	240.02	2.55	-44.8	-59.6	3.8	1.49e+00	0	56	104	771751936	60	20590
2026-01-10 01:21:26.26	239.96	2.49	-44.8	-59.6	3.8	1.49e+00	0	56	104	771751936	60	20621
2026-01-10 01:21:27.27	239.91	2.43	-44.8	-59.6	3.8	1.49e+00	0	56	104	771751936	60	20598
2026-01-10 01:21:28.29	239.85	2.37	-44.8	-59.6	3.8	1.49e+00	0	56	104	771751936	60	20639
2026-01-10 01:21:29.29	239.79	2.31	-44.8	-59.6	3.8	1.49e+00	0	56	104	771751936	60	20619
2026-01-10 01:21:30.30	239.73	2.25	-44.8	-59.6	3.8	1.49e+00	0	56	104	771751936	60	20624
2026-01-10 01:21:31.31	239.68	2.19	-44.8	-59.6	3.8	1.49e+00	0	56	104	771751936	60	20607
2026-01-10 01:21:32.32	239.62	2.13	-44.8	-59.6	3.8	1.49e+00	0	56	104	771751936	60	20596
2026-01-10 01:21:33.33	239.56	2.07	-44.8	-59.6	3.8	1.49e+00	0	56	104	771751936	60	20601
2026-01-10 01:21:34.34	239.51	2.01	-44.8	-59.6	3.8	1.49e+00	0	56	104	771751936	60	20574

#Closed at: 2026-01-10 01:21:34
#Recorded file [771 MB]: D:/lorett/data/31039_260110_041222.dat