passes_logs/2026/01/10/R2.0S_Moscow/R2.0S_Moscow__20260110_034850_FENGYUN_3D_rec.log

#Pass ID: 20260110_034850_FENGYUN 3D
#Satellite: FENGYUN 3D
#Configuration: FENGYUN 3D
#almurnet v.1.7.20251203
#Start time: 2026-01-10 03:48:50

#Version: 2.2.20231116
#Station: R2.0S_Moscow
#Location: 37.707566 lon 55.798166 lat
#TLE: 1 43010U 17072A   26009.29492227  .00000158  00000+0  96483-4 0  9996
#TLE: 2 43010  98.9936 341.0229 0002153 117.3665 242.7729 14.19694440422446

#Time	Az	El	Level	Level2	SNR	BER	BlckErr	Temp	State	Recorded	gain1	gain2
2026-01-10 03:48:50.76	9.65	2.04	-39.2	-51.5	3.8	8.46e-01	0	47	0	0	50	14384
2026-01-10 03:48:51.76	9.57	2.09	-39.2	-51.4	3.8	8.48e-01	0	47	104	0	49	15166
2026-01-10 03:48:52.77	9.49	2.15	-39.2	-51.4	3.8	8.47e-01	0	47	104	0	49	15219
2026-01-10 03:48:53.78	9.42	2.20	-39.2	-51.4	3.8	8.46e-01	0	47	104	0	49	15162
2026-01-10 03:48:54.79	9.34	2.25	-39.2	-51.4	3.8	8.46e-01	0	47	104	0	49	15165
2026-01-10 03:48:55.80	9.26	2.30	-39.2	-51.4	3.8	8.47e-01	0	48	104	0	49	15149
2026-01-10 03:48:56.81	9.17	2.36	-39.2	-51.4	3.8	8.45e-01	0	47	104	0	49	15169
2026-01-10 03:48:57.81	9.09	2.41	-39.2	-51.4	3.8	8.45e-01	0	48	104	0	49	15150
2026-01-10 03:48:58.82	9.01	2.46	-39.2	-51.4	3.8	8.46e-01	0	48	104	0	49	15161
2026-01-10 03:48:59.83	8.93	2.52	-39.2	-51.4	3.8	8.46e-01	0	48	104	0	49	15164
2026-01-10 03:49:00.84	8.85	2.57	-39.2	-51.4	3.8	8.46e-01	0	48	104	0	49	15191
2026-01-10 03:49:01.85	8.77	2.62	-39.2	-51.4	3.8	8.46e-01	0	48	104	0	49	15202
2026-01-10 03:49:02.86	8.69	2.68	-39.2	-51.4	3.8	8.46e-01	0	48	104	0	49	15207
2026-01-10 03:49:03.86	8.60	2.73	-39.2	-51.4	3.8	8.46e-01	0	48	104	0	49	15160
2026-01-10 03:49:04.87	8.52	2.78	-39.2	-51.4	3.8	8.46e-01	0	48	104	0	49	15147
2026-01-10 03:49:05.88	8.44	2.84	-39.2	-51.4	3.8	8.45e-01	0	48	104	0	49	15176
2026-01-10 03:49:06.89	8.35	2.89	-39.2	-51.4	3.8	8.46e-01	0	48	104	0	49	15167
2026-01-10 03:49:07.90	8.27	2.95	-39.2	-51.4	3.8	8.46e-01	0	49	104	0	49	15177
2026-01-10 03:49:08.91	8.19	3.00	-39.2	-51.4	3.8	8.46e-01	0	49	104	0	49	15164
2026-01-10 03:49:09.92	8.10	3.05	-39.2	-51.4	3.8	8.47e-01	0	48	104	0	49	15195
2026-01-10 03:49:10.92	8.02	3.11	-39.2	-51.4	3.8	8.46e-01	0	49	104	0	49	15165
2026-01-10 03:49:11.93	7.93	3.16	-39.2	-51.4	3.8	8.47e-01	0	49	104	0	49	15137
2026-01-10 03:49:12.94	7.85	3.21	-39.2	-51.4	3.8	8.47e-01	0	49	104	0	49	15166
2026-01-10 03:49:13.95	7.76	3.27	-39.2	-51.4	3.8	8.47e-01	0	49	104	0	49	15174
2026-01-10 03:49:14.96	7.68	3.32	-39.2	-51.4	3.8	8.45e-01	0	49	104	0	49	15199
2026-01-10 03:49:15.97	7.59	3.38	-39.2	-51.4	3.8	8.47e-01	0	49	104	0	49	15196
2026-01-10 03:49:16.98	7.50	3.43	-39.2	-51.4	3.8	8.46e-01	0	49	104	0	49	15182
2026-01-10 03:49:17.99	7.42	3.48	-39.2	-51.4	3.8	8.46e-01	0	49	104	0	49	15153
2026-01-10 03:49:19.00	7.33	3.54	-39.2	-51.4	3.8	8.46e-01	0	49	104	0	49	15178
2026-01-10 03:49:20.01	7.24	3.59	-39.2	-51.4	3.8	8.47e-01	0	49	104	0	49	15114
2026-01-10 03:49:21.02	7.15	3.65	-39.2	-51.4	3.8	8.46e-01	0	49	104	0	49	15122
2026-01-10 03:49:22.03	7.06	3.70	-39.2	-51.4	3.8	8.46e-01	0	49	104	0	49	15144
2026-01-10 03:49:23.04	6.97	3.76	-39.2	-51.4	3.8	8.46e-01	0	49	104	0	49	15158
2026-01-10 03:49:24.04	6.89	3.81	-39.2	-51.4	3.8	8.47e-01	0	50	104	0	49	15193
2026-01-10 03:49:25.05	6.80	3.86	-39.2	-51.4	3.8	8.46e-01	0	50	104	0	49	15123
2026-01-10 03:49:26.06	6.71	3.92	-39.2	-51.4	3.8	8.46e-01	0	50	104	0	49	15149
2026-01-10 03:49:27.07	6.62	3.97	-39.2	-51.4	3.8	8.45e-01	0	50	104	0	49	15132
2026-01-10 03:49:28.08	6.53	4.03	-39.2	-51.4	3.8	8.46e-01	0	50	104	0	49	15153
2026-01-10 03:49:29.09	6.43	4.08	-39.2	-51.4	3.8	8.46e-01	0	50	104	0	49	15216
2026-01-10 03:49:30.10	6.34	4.14	-39.2	-51.4	3.8	8.46e-01	0	50	104	0	49	15151
2026-01-10 03:49:31.11	6.25	4.19	-39.2	-51.4	3.8	8.46e-01	0	50	104	0	49	15154
2026-01-10 03:49:32.12	6.16	4.25	-39.2	-51.4	3.8	8.46e-01	0	50	104	0	49	15166
2026-01-10 03:49:33.13	6.07	4.30	-39.2	-51.4	3.8	8.47e-01	0	50	104	0	49	15133
2026-01-10 03:49:34.13	5.98	4.36	-39.2	-51.4	3.8	8.46e-01	0	50	104	0	49	15154
2026-01-10 03:49:35.14	5.88	4.41	-39.2	-51.4	3.8	8.47e-01	0	50	104	0	49	15118
2026-01-10 03:49:36.14	5.79	4.47	-39.2	-51.4	3.8	8.46e-01	0	50	104	0	49	15124
2026-01-10 03:49:37.15	5.70	4.52	-39.2	-51.4	3.8	8.46e-01	0	50	104	0	49	15169
2026-01-10 03:49:38.16	5.60	4.58	-39.2	-51.4	3.8	8.46e-01	0	51	104	0	49	15161
2026-01-10 03:49:39.17	5.51	4.63	-39.2	-51.4	3.8	8.47e-01	0	50	104	0	49	15166
2026-01-10 03:49:40.18	5.41	4.69	-39.2	-51.4	3.8	8.46e-01	0	50	104	0	49	15174
2026-01-10 03:49:41.19	5.32	4.74	-39.2	-51.4	3.8	8.46e-01	0	50	104	0	49	15169
2026-01-10 03:49:42.20	5.22	4.80	-39.2	-51.4	3.8	8.46e-01	0	51	104	0	49	15160
2026-01-10 03:49:43.21	5.13	4.85	-39.2	-51.4	3.8	8.46e-01	0	51	104	0	49	15128
2026-01-10 03:49:44.22	5.03	4.91	-39.2	-51.4	3.8	8.46e-01	0	51	104	0	49	15133
2026-01-10 03:49:45.23	4.93	4.96	-39.2	-51.4	3.8	8.45e-01	0	51	104	0	49	15179
2026-01-10 03:49:46.24	4.83	5.02	-39.2	-51.4	3.8	8.46e-01	0	51	104	0	49	15148
2026-01-10 03:49:47.25	4.74	5.07	-39.2	-51.4	3.8	8.45e-01	0	51	104	0	49	15179
2026-01-10 03:49:48.25	4.64	5.13	-39.2	-51.4	3.8	8.46e-01	0	51	104	0	49	15138
2026-01-10 03:49:49.26	4.54	5.18	-39.2	-51.4	3.8	8.47e-01	0	51	104	0	49	15127
2026-01-10 03:49:50.28	4.44	5.24	-39.2	-51.4	3.8	8.46e-01	0	51	104	0	49	15165
2026-01-10 03:49:51.28	4.34	5.29	-39.2	-51.4	3.8	8.46e-01	0	51	104	0	49	15159
2026-01-10 03:49:52.29	4.24	5.35	-39.2	-51.4	3.8	8.45e-01	0	51	104	0	49	15135
2026-01-10 03:49:53.30	4.14	5.40	-39.2	-51.4	3.8	8.46e-01	0	51	104	0	49	15165
2026-01-10 03:49:54.31	4.04	5.46	-39.2	-51.4	3.8	8.46e-01	0	51	104	0	49	15145
2026-01-10 03:49:55.32	3.94	5.52	-39.2	-51.4	3.8	8.47e-01	0	51	104	0	49	15149
2026-01-10 03:49:56.33	3.84	5.57	-39.2	-51.4	3.8	8.46e-01	0	51	104	0	49	15130
2026-01-10 03:49:57.33	3.74	5.63	-39.2	-51.4	3.8	8.46e-01	0	51	104	0	49	15179
2026-01-10 03:49:58.34	3.64	5.68	-39.2	-51.4	3.8	8.46e-01	0	51	104	0	49	15129
2026-01-10 03:49:59.35	3.54	5.74	-39.2	-51.4	3.8	8.46e-01	0	51	104	0	49	15135
2026-01-10 03:50:00.35	3.44	5.79	-39.2	-51.4	3.8	8.47e-01	0	51	104	0	49	15090
2026-01-10 03:50:01.36	3.33	5.85	-39.2	-51.4	3.8	8.46e-01	0	51	104	0	49	15108
2026-01-10 03:50:02.37	3.23	5.90	-39.2	-51.4	3.8	8.46e-01	0	51	104	0	49	15135
2026-01-10 03:50:03.38	3.13	5.96	-39.2	-51.4	3.8	8.47e-01	0	51	104	0	49	15139
2026-01-10 03:50:04.39	3.02	6.02	-39.2	-51.4	3.8	8.46e-01	0	52	104	0	49	15122
2026-01-10 03:50:05.40	2.92	6.07	-39.2	-51.4	3.8	8.47e-01	0	52	104	0	49	15146
2026-01-10 03:50:06.41	2.81	6.13	-39.2	-51.4	3.8	8.46e-01	0	52	104	0	49	15187
2026-01-10 03:50:07.42	2.71	6.18	-39.1	-51.4	3.8	8.47e-01	0	52	104	0	49	15124
2026-01-10 03:50:08.43	2.60	6.24	-39.2	-51.4	3.8	8.46e-01	0	52	104	0	49	15132
2026-01-10 03:50:09.44	2.49	6.30	-39.2	-51.4	3.8	8.46e-01	0	52	104	0	49	15096
2026-01-10 03:50:10.45	2.39	6.35	-39.2	-51.4	3.8	8.45e-01	0	52	104	0	49	15104
2026-01-10 03:50:11.46	2.28	6.41	-39.2	-51.4	3.8	8.45e-01	0	52	104	0	49	15114
2026-01-10 03:50:12.47	2.17	6.46	-39.2	-51.4	3.8	8.47e-01	0	52	104	0	49	15199
2026-01-10 03:50:13.48	2.06	6.52	-39.2	-51.4	3.8	8.46e-01	0	52	104	0	49	15154
2026-01-10 03:50:14.49	1.95	6.58	-39.2	-51.4	3.8	8.45e-01	0	52	104	0	49	15111
2026-01-10 03:50:15.49	1.85	6.63	-39.2	-51.4	3.8	8.47e-01	0	52	104	0	49	15139
2026-01-10 03:50:16.50	1.74	6.69	-39.2	-51.4	3.8	8.46e-01	0	52	104	0	49	15128
2026-01-10 03:50:17.51	1.63	6.75	-39.2	-51.4	3.8	8.44e-01	0	52	104	0	49	15144
2026-01-10 03:50:18.51	1.52	6.80	-39.2	-51.4	3.8	8.45e-01	0	52	104	0	49	15160
2026-01-10 03:50:19.52	1.41	6.86	-39.2	-51.4	3.8	8.45e-01	0	52	104	0	49	15141
2026-01-10 03:50:20.53	1.30	6.91	-39.2	-51.4	3.8	8.46e-01	0	52	104	0	49	15140
2026-01-10 03:50:21.54	1.18	6.97	-39.2	-51.4	3.8	8.46e-01	0	52	104	0	49	15144
2026-01-10 03:50:22.55	1.07	7.03	-39.2	-51.4	3.8	8.47e-01	0	52	104	0	49	15133
2026-01-10 03:50:23.56	0.96	7.08	-39.2	-51.4	3.8	8.44e-01	0	52	104	0	49	15174
2026-01-10 03:50:24.56	0.85	7.14	-39.2	-51.4	3.8	8.47e-01	0	53	104	0	49	15195
2026-01-10 03:50:25.58	0.73	7.20	-39.2	-51.4	3.8	8.46e-01	0	53	104	0	49	15170
2026-01-10 03:50:26.58	0.62	7.25	-39.2	-51.4	3.8	8.46e-01	0	52	104	0	49	15139
2026-01-10 03:50:27.59	0.50	7.31	-39.2	-51.3	3.8	8.46e-01	0	53	104	0	49	15032
2026-01-10 03:50:28.60	0.39	7.36	-39.2	-51.4	3.8	8.47e-01	0	53	104	0	49	15124
2026-01-10 03:50:29.61	0.27	7.42	-39.2	-51.4	3.8	8.45e-01	0	52	104	0	49	15187
2026-01-10 03:50:30.62	0.16	7.48	-39.2	-51.4	3.8	8.45e-01	0	53	104	0	49	15108
2026-01-10 03:50:31.63	0.04	7.53	-39.2	-51.4	3.8	8.45e-01	0	53	104	0	49	15094
2026-01-10 03:50:32.64	359.93	7.59	-39.2	-51.4	3.8	8.46e-01	0	53	104	0	49	15147
2026-01-10 03:50:33.65	359.81	7.65	-39.2	-51.4	3.8	8.47e-01	0	53	104	0	49	15166
2026-01-10 03:50:34.66	359.69	7.70	-39.2	-51.4	3.8	8.45e-01	0	53	104	0	49	15094
2026-01-10 03:50:35.67	359.57	7.76	-39.2	-51.4	3.8	8.46e-01	0	53	104	0	49	15108
2026-01-10 03:50:36.67	359.46	7.82	-39.2	-51.4	3.8	8.46e-01	0	53	104	0	49	15185
2026-01-10 03:50:37.68	359.34	7.87	-39.2	-51.4	3.8	8.47e-01	0	53	104	0	49	15152
2026-01-10 03:50:38.69	359.22	7.93	-39.2	-51.4	3.8	8.46e-01	0	53	104	0	49	15158
2026-01-10 03:50:39.70	359.10	7.99	-39.2	-51.4	3.8	8.47e-01	0	53	104	0	49	15108
2026-01-10 03:50:40.71	358.98	8.04	-39.2	-51.4	3.8	8.46e-01	0	53	104	0	49	15144
2026-01-10 03:50:41.72	358.86	8.10	-39.4	-51.5	3.8	8.47e-01	0	53	104	0	49	15253
2026-01-10 03:50:42.73	358.73	8.16	-39.2	-51.4	3.8	8.45e-01	0	53	104	0	49	15161
2026-01-10 03:50:43.74	358.61	8.21	-39.1	-51.4	3.8	8.47e-01	0	53	104	0	49	15093
2026-01-10 03:50:44.75	358.49	8.27	-39.3	-51.4	3.8	8.47e-01	0	53	104	0	49	15211
2026-01-10 03:50:45.76	358.37	8.33	-39.1	-51.3	3.8	8.47e-01	0	53	104	0	49	15008
2026-01-10 03:50:46.77	358.24	8.38	-39.3	-51.4	3.8	8.45e-01	0	53	104	0	49	15156
2026-01-10 03:50:47.78	358.12	8.44	-39.5	-51.4	3.8	8.47e-01	0	53	104	0	49	15154
2026-01-10 03:50:48.78	358.00	8.49	-38.9	-51.3	3.8	8.47e-01	0	53	104	0	49	15003
2026-01-10 03:50:49.79	357.87	8.55	-39.4	-51.4	3.8	8.46e-01	0	53	104	0	49	15065
2026-01-10 03:50:50.80	357.75	8.61	-38.8	-51.3	3.8	8.46e-01	0	53	104	0	49	14973
2026-01-10 03:50:51.81	357.62	8.66	-38.7	-51.4	3.8	8.46e-01	0	53	104	0	49	15149
2026-01-10 03:50:52.82	357.49	8.72	-39.1	-51.4	3.8	8.46e-01	0	53	104	0	49	15073
2026-01-10 03:50:53.83	357.37	8.78	-38.7	-51.4	3.8	8.46e-01	0	53	104	0	49	15096
2026-01-10 03:50:54.83	357.24	8.83	-38.9	-51.3	3.8	8.45e-01	0	53	104	0	49	15024
2026-01-10 03:50:55.84	357.11	8.89	-39.4	-51.4	3.8	8.47e-01	0	53	104	0	49	15113
2026-01-10 03:50:56.85	356.98	8.95	-39.1	-51.3	3.8	8.46e-01	0	53	104	0	49	14958
2026-01-10 03:50:57.86	356.85	9.00	-39.0	-51.4	3.8	8.46e-01	0	53	104	0	49	15144
2026-01-10 03:50:58.86	356.73	9.06	-39.2	-51.3	3.8	8.46e-01	0	53	104	0	49	14973
2026-01-10 03:50:59.87	356.60	9.12	-38.7	-51.4	3.8	8.47e-01	0	53	104	0	49	15073
2026-01-10 03:51:00.88	356.47	9.17	-38.7	-51.3	3.8	8.46e-01	0	53	104	0	49	15034
2026-01-10 03:51:01.89	356.33	9.23	-38.9	-51.4	3.8	8.46e-01	0	54	104	0	49	15131
2026-01-10 03:51:02.90	356.20	9.29	-38.7	-51.4	3.8	8.46e-01	0	54	104	0	49	15070
2026-01-10 03:51:03.91	356.07	9.34	-39.3	-51.4	3.8	8.47e-01	0	53	104	0	49	15205
2026-01-10 03:51:04.92	355.94	9.40	-39.3	-51.4	3.8	8.46e-01	0	54	104	0	49	15064
2026-01-10 03:51:05.92	355.81	9.45	-39.4	-51.4	3.8	8.45e-01	0	54	104	0	49	15174
2026-01-10 03:51:06.93	355.67	9.51	-39.4	-51.4	3.8	8.47e-01	0	54	104	0	49	15087
2026-01-10 03:51:07.94	355.54	9.57	-39.7	-51.5	3.8	8.46e-01	0	54	104	0	49	15355
2026-01-10 03:51:08.94	355.41	9.62	-38.5	-51.3	3.8	8.46e-01	0	54	104	0	49	15044
2026-01-10 03:51:09.95	355.27	9.68	-39.8	-51.6	3.8	8.47e-01	0	54	104	0	50	14573
2026-01-10 03:51:10.96	355.13	9.74	-38.8	-51.4	3.8	8.45e-01	0	54	104	0	49	15056
2026-01-10 03:51:11.97	355.00	9.79	-39.8	-51.6	3.8	8.46e-01	0	54	104	0	50	14666
2026-01-10 03:51:12.98	354.86	9.85	-39.7	-51.4	3.8	8.46e-01	0	54	104	0	50	14340
2026-01-10 03:51:13.99	354.72	9.90	-39.8	-51.7	3.8	8.48e-01	0	54	104	0	50	14718
2026-01-10 03:51:14.99	354.59	9.96	-39.7	-51.4	3.8	8.46e-01	0	54	104	0	50	14344
2026-01-10 03:51:16.00	354.45	10.02	-39.9	-51.6	3.8	8.46e-01	0	54	104	0	50	14655
2026-01-10 03:51:17.01	354.31	10.07	-39.6	-51.5	3.8	8.46e-01	0	54	104	0	50	14478
2026-01-10 03:51:18.02	354.17	10.13	-39.9	-51.6	3.8	8.47e-01	0	54	104	0	50	14683
2026-01-10 03:51:19.03	354.03	10.18	-39.8	-51.6	3.8	8.45e-01	0	54	104	0	50	14569
2026-01-10 03:51:20.04	353.89	10.24	-40.1	-51.7	3.8	8.46e-01	0	54	104	0	50	14770
2026-01-10 03:51:21.05	353.75	10.30	-39.9	-51.6	3.8	8.45e-01	0	54	104	0	50	14586
2026-01-10 03:51:22.06	353.61	10.35	-40.0	-51.7	3.8	8.47e-01	0	54	104	0	50	14810
2026-01-10 03:51:23.07	353.46	10.41	-39.9	-51.6	3.8	8.46e-01	0	54	104	0	50	14677
2026-01-10 03:51:24.07	353.32	10.46	-39.9	-51.9	3.8	8.47e-01	0	54	104	0	50	15162
2026-01-10 03:51:25.08	353.18	10.52	-39.9	-51.6	3.8	8.46e-01	0	54	104	0	50	14624
2026-01-10 03:51:26.09	353.03	10.57	-40.1	-52.0	3.8	8.46e-01	0	54	104	0	50	15399
2026-01-10 03:51:27.10	352.89	10.63	-39.9	-51.6	3.8	8.46e-01	0	54	104	0	50	14646
2026-01-10 03:51:28.11	352.74	10.69	-39.9	-52.0	3.8	8.45e-01	0	54	104	0	50	15235
2026-01-10 03:51:29.11	352.60	10.74	-40.2	-51.8	3.8	8.46e-01	0	54	104	0	50	15044
2026-01-10 03:51:30.12	352.45	10.80	-39.9	-52.0	3.8	8.45e-01	0	54	104	0	50	15333
2026-01-10 03:51:31.13	352.31	10.85	-40.2	-51.9	3.8	8.47e-01	0	54	104	0	50	15097
2026-01-10 03:51:32.13	352.16	10.91	-40.6	-52.1	3.8	8.47e-01	0	54	104	0	51	14678
2026-01-10 03:51:33.14	352.01	10.96	-39.9	-51.9	3.8	8.46e-01	0	54	104	0	51	14259
2026-01-10 03:51:34.15	351.86	11.02	-40.6	-52.2	3.8	8.46e-01	0	54	104	0	51	14717
2026-01-10 03:51:35.16	351.72	11.07	-40.1	-52.0	3.8	8.44e-01	0	54	104	0	51	14526
2026-01-10 03:51:36.17	351.57	11.13	-40.4	-52.1	3.8	8.47e-01	0	54	104	0	51	14590
2026-01-10 03:51:37.18	351.42	11.18	-40.3	-51.9	3.8	8.46e-01	0	54	104	0	51	14296
2026-01-10 03:51:38.19	351.26	11.24	-40.4	-52.0	3.8	8.46e-01	0	54	104	0	51	14531
2026-01-10 03:51:39.20	351.11	11.29	-40.3	-52.0	3.8	8.45e-01	0	54	104	0	51	14407
2026-01-10 03:51:40.21	350.96	11.35	-40.6	-52.3	3.8	8.47e-01	0	55	104	0	51	14947
2026-01-10 03:51:41.22	350.81	11.40	-40.6	-52.2	3.8	8.47e-01	0	54	104	0	51	14717
2026-01-10 03:51:42.24	350.65	11.46	-40.5	-52.2	3.8	8.46e-01	0	54	104	0	51	14861
2026-01-10 03:51:43.24	350.50	11.51	-40.6	-52.1	3.8	8.46e-01	0	54	104	0	51	14687
2026-01-10 03:51:44.25	350.35	11.57	-40.5	-52.2	3.8	8.46e-01	0	55	104	0	51	14800
2026-01-10 03:51:45.26	350.19	11.62	-40.6	-52.2	3.8	8.46e-01	0	55	104	0	51	14879
2026-01-10 03:51:46.27	350.04	11.67	-40.5	-52.2	3.8	8.45e-01	0	55	104	0	51	14786
2026-01-10 03:51:47.28	349.88	11.73	-40.6	-52.2	3.8	8.46e-01	0	55	104	0	51	14821
2026-01-10 03:51:48.29	349.72	11.78	-40.3	-52.3	3.8	8.46e-01	0	55	104	0	51	14911
2026-01-10 03:51:49.30	349.57	11.84	-40.5	-52.2	3.8	8.46e-01	0	55	104	0	51	14749
2026-01-10 03:51:50.31	349.41	11.89	-40.5	-52.4	3.8	8.45e-01	0	55	104	0	51	15189
2026-01-10 03:51:51.32	349.25	11.95	-40.4	-52.1	3.8	8.46e-01	0	55	104	0	51	14698
2026-01-10 03:51:52.33	349.09	12.00	-40.4	-52.4	3.8	8.47e-01	0	55	104	0	51	15126
2026-01-10 03:51:53.34	348.93	12.05	-40.5	-52.4	3.8	8.47e-01	0	55	104	0	51	15161
2026-01-10 03:51:54.35	348.77	12.11	-40.7	-52.6	3.8	8.47e-01	0	55	104	0	51	15424
2026-01-10 03:51:55.36	348.61	12.16	-40.7	-52.5	3.8	8.46e-01	0	55	104	0	52	14429
2026-01-10 03:51:56.37	348.45	12.21	-41.0	-52.7	3.8	8.46e-01	0	55	104	0	52	14729
2026-01-10 03:51:57.38	348.29	12.27	-40.6	-52.5	3.8	8.45e-01	0	55	104	0	52	14419
2026-01-10 03:51:58.38	348.12	12.32	-41.0	-52.7	3.8	8.46e-01	0	54	104	0	52	14785
2026-01-10 03:51:59.39	347.96	12.37	-40.8	-52.6	3.8	8.46e-01	0	55	104	0	52	14565
2026-01-10 03:52:00.40	347.80	12.43	-41.0	-52.7	3.8	8.46e-01	0	55	104	0	52	14796
2026-01-10 03:52:01.41	347.63	12.48	-40.8	-52.5	3.8	8.45e-01	0	55	104	0	52	14508
2026-01-10 03:52:02.42	347.47	12.53	-40.9	-52.7	3.8	8.47e-01	0	55	104	0	52	14810
2026-01-10 03:52:03.43	347.30	12.58	-40.8	-52.5	3.8	8.46e-01	0	55	104	0	52	14504
2026-01-10 03:52:04.44	347.14	12.64	-41.0	-52.8	3.8	8.46e-01	0	55	104	0	52	14900
2026-01-10 03:52:05.45	346.97	12.69	-40.9	-52.7	3.8	8.45e-01	0	55	104	0	52	14819
2026-01-10 03:52:06.45	346.80	12.74	-41.0	-52.8	3.8	8.47e-01	0	55	104	0	52	14886
2026-01-10 03:52:07.46	346.63	12.79	-41.0	-52.7	3.8	8.46e-01	0	55	104	0	52	14842
2026-01-10 03:52:08.47	346.47	12.84	-41.0	-52.7	3.8	8.46e-01	0	55	104	0	52	14824
2026-01-10 03:52:09.48	346.30	12.90	-40.9	-52.6	3.8	8.47e-01	0	55	104	0	52	14668
2026-01-10 03:52:10.49	346.13	12.95	-40.9	-52.6	3.8	8.47e-01	0	55	104	0	52	14610
2026-01-10 03:52:11.50	345.96	13.00	-40.6	-52.3	3.8	8.46e-01	0	55	104	0	52	14063
2026-01-10 03:52:12.51	345.79	13.05	-40.7	-52.3	3.8	8.47e-01	0	55	104	0	52	14207
2026-01-10 03:52:13.52	345.61	13.10	-40.6	-52.3	3.8	8.47e-01	0	55	104	0	52	14100
2026-01-10 03:52:14.53	345.44	13.15	-40.6	-52.2	3.8	8.47e-01	0	55	104	0	52	14027
2026-01-10 03:52:15.54	345.27	13.20	-40.7	-52.3	3.8	8.46e-01	0	55	104	0	52	14180
2026-01-10 03:52:16.55	345.09	13.25	-40.6	-52.2	3.8	8.46e-01	0	55	104	0	52	14036
2026-01-10 03:52:17.55	344.92	13.30	-40.7	-52.3	3.8	8.47e-01	0	55	104	0	52	14092
2026-01-10 03:52:18.56	344.75	13.36	-40.8	-52.4	3.8	8.46e-01	0	55	104	0	52	14280
2026-01-10 03:52:19.57	344.57	13.41	-40.7	-52.4	3.8	8.47e-01	0	55	104	0	52	14282
2026-01-10 03:52:20.58	344.40	13.46	-40.7	-52.4	3.8	8.46e-01	0	55	104	0	52	14223
2026-01-10 03:52:21.59	344.22	13.51	-40.5	-52.3	3.8	8.46e-01	0	55	104	0	52	14096
2026-01-10 03:52:22.59	344.04	13.56	-40.5	-52.3	3.8	8.45e-01	0	55	104	0	52	14154
2026-01-10 03:52:23.60	343.87	13.60	-40.3	-52.3	3.8	8.47e-01	0	55	104	0	52	14050
2026-01-10 03:52:24.61	343.69	13.65	-40.3	-52.2	3.8	8.46e-01	0	55	104	0	52	13897
2026-01-10 03:52:25.62	343.51	13.70	-40.1	-52.2	3.8	8.46e-01	0	55	104	0	52	13896
2026-01-10 03:52:26.63	343.33	13.75	-40.3	-52.2	3.8	8.46e-01	0	55	104	0	52	13931
2026-01-10 03:52:27.64	343.15	13.80	-40.6	-52.2	3.8	8.46e-01	0	55	104	0	52	14040
2026-01-10 03:52:28.64	342.97	13.85	-40.2	-52.1	3.8	8.45e-01	0	55	104	0	52	13865
2026-01-10 03:52:29.65	342.79	13.90	-40.5	-52.2	3.8	8.45e-01	0	55	104	0	52	13981
2026-01-10 03:52:30.66	342.61	13.95	-40.4	-52.2	3.8	8.46e-01	0	55	104	0	52	13901
2026-01-10 03:52:31.67	342.42	14.00	-40.6	-52.2	3.8	8.48e-01	0	55	104	0	52	13983
2026-01-10 03:52:32.68	342.24	14.04	-40.4	-52.2	3.8	8.46e-01	0	55	104	0	52	13894
2026-01-10 03:52:33.68	342.06	14.09	-40.5	-52.1	3.8	8.46e-01	0	55	104	0	52	13792
2026-01-10 03:52:34.69	341.87	14.14	-40.2	-52.0	3.8	8.46e-01	0	55	104	0	52	13703
2026-01-10 03:52:35.70	341.69	14.19	-40.4	-52.1	3.8	8.46e-01	0	55	104	0	52	13745
2026-01-10 03:52:36.71	341.50	14.23	-40.3	-52.0	3.8	8.45e-01	0	55	104	0	52	13712
2026-01-10 03:52:37.72	341.32	14.28	-40.4	-52.1	3.8	8.46e-01	0	55	104	0	52	13762
2026-01-10 03:52:38.73	341.13	14.33	-40.3	-52.0	3.8	8.47e-01	0	55	104	0	52	13624
2026-01-10 03:52:39.74	340.94	14.37	-40.5	-52.0	3.8	8.46e-01	0	56	104	0	52	13699
2026-01-10 03:52:40.74	340.75	14.42	-40.6	-52.2	3.8	8.47e-01	0	56	104	0	52	13886
2026-01-10 03:52:41.75	340.57	14.46	-40.5	-52.2	3.8	8.46e-01	0	55	104	0	52	13991
2026-01-10 03:52:42.75	340.38	14.51	-40.6	-51.8	3.8	8.46e-01	0	56	104	0	52	13289
2026-01-10 03:52:43.76	340.19	14.56	-41.0	-50.5	4.0	8.45e-01	0	55	104	0	52	11453
2026-01-10 03:52:44.77	340.00	14.60	-40.6	-51.5	3.8	8.46e-01	0	55	104	0	52	12864
2026-01-10 03:52:45.78	339.81	14.65	-40.5	-48.2	4.6	8.45e-01	0	55	104	0	52	8846
2026-01-10 03:52:46.79	339.61	14.69	-40.8	-46.6	6.2	3.65e-01	0	55	0	2097152	52	7293
2026-01-10 03:52:47.80	339.42	14.74	-40.6	-45.6	7.4	1.70e-01	0	55	0	7340032	52	6536
2026-01-10 03:52:48.80	339.23	14.78	-40.6	-45.2	8.0	9.78e-02	0	55	0	13631488	52	6238
2026-01-10 03:52:49.80	339.04	14.82	-40.6	-45.0	8.2	6.46e-02	0	56	0	18874368	52	6123
2026-01-10 03:52:50.81	338.85	14.87	-40.1	-43.9	9.5	2.73e-02	0	55	0	25165824	52	5349
2026-01-10 03:52:51.82	338.65	14.91	-39.6	-42.9	10.7	6.06e-03	0	55	0	30408704	51	5055
2026-01-10 03:52:52.83	338.46	14.96	-39.1	-41.9	11.8	1.40e-03	0	55	0	36700160	50	4768
2026-01-10 03:52:53.84	338.26	15.00	-38.5	-40.9	12.9	1.19e-04	0	55	0	41943040	49	4532
2026-01-10 03:52:54.85	338.06	15.04	-37.8	-39.9	13.9	1.14e-05	0	55	0	47185920	47	4542
2026-01-10 03:52:55.85	337.87	15.08	-37.2	-39.1	14.7	1.10e-06	0	55	0	53477376	46	4391
2026-01-10 03:52:56.86	337.67	15.13	-37.3	-39.2	14.8	0.00e+00	0	56	0	58720256	46	4401
2026-01-10 03:52:57.87	337.47	15.17	-37.6	-39.5	14.6	0.00e+00	0	56	0	65011712	46	4577
2026-01-10 03:52:58.88	337.27	15.21	-37.1	-38.9	15.3	0.00e+00	0	56	0	70254592	46	4280
2026-01-10 03:52:59.89	337.08	15.25	-36.7	-38.4	15.9	0.00e+00	0	55	0	75497472	45	4261
2026-01-10 03:53:00.90	336.88	15.29	-36.9	-38.6	15.7	0.00e+00	0	55	0	81788928	45	4365
2026-01-10 03:53:01.90	336.68	15.33	-36.9	-38.6	15.8	0.00e+00	0	55	0	87031808	45	4359
2026-01-10 03:53:02.91	336.48	15.37	-36.9	-38.5	15.9	0.00e+00	0	56	0	92274688	45	4339
2026-01-10 03:53:03.92	336.27	15.42	-36.7	-38.3	16.1	0.00e+00	0	56	0	98566144	45	4211
2026-01-10 03:53:04.93	336.07	15.46	-36.5	-38.1	16.4	0.00e+00	0	56	0	103809024	45	4106
2026-01-10 03:53:05.93	335.87	15.49	-36.3	-37.9	16.6	0.00e+00	0	55	0	110100480	44	4248
2026-01-10 03:53:06.94	335.67	15.53	-36.3	-37.9	16.6	0.00e+00	0	56	0	115343360	44	4246
2026-01-10 03:53:07.95	335.47	15.57	-36.2	-37.7	16.8	0.00e+00	0	56	0	121634816	44	4174
2026-01-10 03:53:08.96	335.26	15.61	-36.3	-37.8	16.7	0.00e+00	0	56	0	126877696	44	4228
2026-01-10 03:53:09.97	335.06	15.65	-36.3	-37.8	16.7	0.00e+00	0	56	0	133169152	44	4213
2026-01-10 03:53:10.98	334.85	15.69	-36.3	-37.9	16.7	0.00e+00	0	56	0	138412032	44	4243
2026-01-10 03:53:11.99	334.65	15.73	-36.3	-37.8	16.7	0.00e+00	0	56	0	143654912	44	4210
2026-01-10 03:53:13.00	334.44	15.77	-36.2	-37.7	16.8	0.00e+00	0	56	0	149946368	44	4156
2026-01-10 03:53:14.01	334.23	15.80	-36.2	-37.7	16.9	0.00e+00	0	56	0	155189248	44	4153
2026-01-10 03:53:15.02	334.02	15.84	-36.0	-37.5	17.0	0.00e+00	0	56	0	161480704	44	4088
2026-01-10 03:53:16.03	333.82	15.88	-35.8	-37.3	17.1	0.00e+00	0	56	0	166723584	43	4223
2026-01-10 03:53:17.04	333.61	15.91	-35.9	-37.3	17.1	0.00e+00	0	56	0	171966464	43	4232
2026-01-10 03:53:18.05	333.40	15.95	-35.9	-37.4	17.0	0.00e+00	0	56	0	178257920	43	4262
2026-01-10 03:53:19.06	333.19	15.99	-35.9	-37.4	17.0	0.00e+00	0	56	0	183500800	43	4253
2026-01-10 03:53:20.07	332.98	16.02	-35.8	-37.2	17.2	0.00e+00	0	56	0	189792256	43	4192
2026-01-10 03:53:21.07	332.77	16.06	-35.9	-37.4	17.1	0.00e+00	0	56	0	195035136	43	4243
2026-01-10 03:53:22.08	332.56	16.09	-35.8	-37.2	17.2	0.00e+00	0	56	0	200278016	43	4181
2026-01-10 03:53:23.08	332.35	16.12	-35.9	-37.3	17.1	0.00e+00	0	56	0	206569472	43	4235
2026-01-10 03:53:24.09	332.14	16.16	-35.8	-37.3	17.2	0.00e+00	0	56	0	211812352	43	4215
2026-01-10 03:53:25.10	331.93	16.19	-36.0	-37.4	17.0	0.00e+00	0	56	0	218103808	43	4286
2026-01-10 03:53:26.11	331.71	16.23	-35.9	-37.3	17.2	0.00e+00	0	56	0	223346688	43	4219
2026-01-10 03:53:27.11	331.50	16.26	-35.9	-37.3	17.2	0.00e+00	0	56	0	229638144	43	4226
2026-01-10 03:53:28.12	331.29	16.29	-35.7	-37.2	17.3	0.00e+00	0	56	0	234881024	43	4146
2026-01-10 03:53:29.13	331.07	16.32	-35.6	-37.0	17.5	0.00e+00	0	56	0	240123904	43	4080
2026-01-10 03:53:30.14	330.86	16.36	-35.6	-37.0	17.5	0.00e+00	0	56	0	246415360	43	4054
2026-01-10 03:53:31.14	330.65	16.39	-35.6	-37.0	17.5	0.00e+00	0	56	0	251658240	43	4089
2026-01-10 03:53:32.15	330.43	16.42	-35.6	-37.0	17.5	0.00e+00	0	56	0	256901120	43	4083
2026-01-10 03:53:33.16	330.21	16.45	-35.7	-37.1	17.4	0.00e+00	0	56	0	263192576	43	4134
2026-01-10 03:53:34.17	330.00	16.48	-35.7	-37.2	17.4	0.00e+00	0	56	0	268435456	43	4153
2026-01-10 03:53:35.18	329.78	16.51	-35.7	-37.1	17.4	0.00e+00	0	56	0	274726912	43	4134
2026-01-10 03:53:36.18	329.56	16.54	-35.8	-37.2	17.3	0.00e+00	0	56	0	279969792	43	4172
2026-01-10 03:53:37.19	329.35	16.57	-35.9	-37.3	17.2	0.00e+00	0	56	0	285212672	43	4215
2026-01-10 03:53:38.20	329.13	16.60	-35.9	-37.3	17.2	0.00e+00	0	56	0	291504128	43	4240
2026-01-10 03:53:39.20	328.91	16.63	-35.9	-37.4	17.1	0.00e+00	0	56	0	296747008	43	4274
2026-01-10 03:53:40.21	328.69	16.65	-36.1	-37.6	17.0	0.00e+00	0	56	0	303038464	43	4353
2026-01-10 03:53:41.22	328.47	16.68	-36.1	-37.5	17.0	0.00e+00	0	56	0	308281344	43	4337
2026-01-10 03:53:42.22	328.25	16.71	-36.0	-37.5	17.0	0.00e+00	0	56	0	314572800	43	4319
2026-01-10 03:53:43.23	328.03	16.74	-36.0	-37.5	17.0	0.00e+00	0	56	0	319815680	43	4309
2026-01-10 03:53:44.24	327.81	16.76	-35.9	-37.3	17.2	0.00e+00	0	56	0	325058560	43	4237
2026-01-10 03:53:45.24	327.59	16.79	-35.9	-37.3	17.2	0.00e+00	0	56	0	331350016	43	4240
2026-01-10 03:53:46.25	327.37	16.81	-35.8	-37.3	17.3	0.00e+00	0	56	0	336592896	43	4209
2026-01-10 03:53:47.26	327.15	16.84	-35.9	-37.3	17.2	0.00e+00	0	56	0	341835776	43	4224
2026-01-10 03:53:48.27	326.93	16.86	-35.9	-37.4	17.1	0.00e+00	0	56	0	348127232	43	4266
2026-01-10 03:53:49.27	326.71	16.89	-35.9	-37.4	17.1	0.00e+00	0	56	0	353370112	43	4263
2026-01-10 03:53:50.28	326.48	16.91	-35.9	-37.4	17.2	0.00e+00	0	56	0	359661568	43	4256
2026-01-10 03:53:51.29	326.26	16.94	-35.9	-37.3	17.2	0.00e+00	0	56	0	364904448	43	4229
2026-01-10 03:53:52.29	326.04	16.96	-35.9	-37.4	17.1	0.00e+00	0	56	0	370147328	43	4266
2026-01-10 03:53:53.30	325.81	16.98	-36.0	-37.4	17.1	0.00e+00	0	56	0	376438784	43	4286
2026-01-10 03:53:54.31	325.59	17.00	-35.8	-37.3	17.3	0.00e+00	0	56	0	381681664	43	4206
2026-01-10 03:53:55.32	325.36	17.03	-35.8	-37.2	17.3	0.00e+00	0	56	0	387973120	43	4182
2026-01-10 03:53:56.33	325.14	17.05	-35.7	-37.2	17.4	0.00e+00	0	56	0	393216000	43	4149
2026-01-10 03:53:57.33	324.92	17.07	-35.8	-37.2	17.4	0.00e+00	0	56	0	399507456	43	4171
2026-01-10 03:53:58.34	324.69	17.09	-35.7	-37.1	17.4	0.00e+00	0	56	0	404750336	43	4133
2026-01-10 03:53:59.35	324.46	17.11	-35.7	-37.1	17.4	0.00e+00	0	56	0	409993216	43	4133
2026-01-10 03:54:00.36	324.24	17.13	-35.8	-37.2	17.4	0.00e+00	0	56	0	416284672	43	4157
2026-01-10 03:54:01.37	324.01	17.15	-35.8	-37.3	17.3	0.00e+00	0	56	0	421527552	43	4200
2026-01-10 03:54:02.38	323.78	17.17	-35.6	-37.0	17.5	0.00e+00	0	56	0	427819008	43	4094
2026-01-10 03:54:03.39	323.56	17.19	-35.5	-36.9	17.7	0.00e+00	0	56	0	433061888	43	4037
2026-01-10 03:54:04.40	323.33	17.20	-35.6	-36.9	17.6	0.00e+00	0	56	0	438304768	43	4042
2026-01-10 03:54:05.41	323.10	17.22	-35.6	-37.0	17.5	0.00e+00	0	56	0	444596224	43	4098
2026-01-10 03:54:06.42	322.87	17.24	-35.6	-37.1	17.5	0.00e+00	0	56	0	449839104	43	4099
2026-01-10 03:54:07.42	322.65	17.26	-35.6	-37.0	17.5	0.00e+00	0	56	0	456130560	43	4093
2026-01-10 03:54:08.43	322.42	17.27	-35.6	-37.1	17.5	0.00e+00	0	56	0	461373440	43	4105
2026-01-10 03:54:09.44	322.19	17.29	-35.6	-37.0	17.6	0.00e+00	0	56	0	466616320	43	4054
2026-01-10 03:54:10.44	321.96	17.30	-35.5	-36.9	17.6	0.00e+00	0	56	0	472907776	43	4041
2026-01-10 03:54:11.46	321.73	17.32	-35.5	-36.9	17.7	0.00e+00	0	56	0	478150656	43	4031
2026-01-10 03:54:12.46	321.50	17.33	-35.6	-36.9	17.6	0.00e+00	0	56	0	484442112	43	4051
2026-01-10 03:54:13.47	321.27	17.35	-35.6	-37.0	17.6	0.00e+00	0	56	0	489684992	43	4078
2026-01-10 03:54:14.48	321.04	17.36	-35.6	-37.0	17.6	0.00e+00	0	56	0	495976448	43	4054
2026-01-10 03:54:15.49	320.81	17.37	-35.6	-37.0	17.6	0.00e+00	0	56	0	501219328	43	4080
2026-01-10 03:54:16.50	320.58	17.38	-35.5	-36.8	17.7	0.00e+00	0	56	0	506462208	43	4000
2026-01-10 03:54:17.51	320.35	17.40	-35.4	-36.8	17.8	0.00e+00	0	56	0	512753664	42	4220
2026-01-10 03:54:18.52	320.12	17.41	-35.4	-36.7	17.9	0.00e+00	0	56	0	517996544	42	4189
2026-01-10 03:54:19.53	319.89	17.42	-35.4	-36.7	17.9	0.00e+00	0	56	0	524288000	42	4188
2026-01-10 03:54:20.54	319.66	17.43	-35.4	-36.8	17.8	0.00e+00	0	56	0	529530880	42	4216
2026-01-10 03:54:21.55	319.43	17.44	-35.3	-36.7	17.9	0.00e+00	0	56	0	534773760	42	4165
2026-01-10 03:54:22.56	319.19	17.45	-35.4	-36.8	17.8	0.00e+00	0	56	0	541065216	42	4209
2026-01-10 03:54:23.56	318.96	17.46	-35.4	-36.8	17.8	0.00e+00	0	56	0	546308096	42	4199
2026-01-10 03:54:24.57	318.73	17.47	-35.4	-36.7	17.9	0.00e+00	0	56	0	552599552	42	4175
2026-01-10 03:54:25.58	318.50	17.48	-35.5	-36.9	17.8	0.00e+00	0	56	0	557842432	42	4245
2026-01-10 03:54:26.59	318.27	17.48	-35.6	-37.0	17.6	0.00e+00	0	56	0	563085312	42	4313
2026-01-10 03:54:27.60	318.04	17.49	-35.6	-37.0	17.6	0.00e+00	0	56	0	569376768	42	4321
2026-01-10 03:54:28.60	317.81	17.50	-35.6	-37.0	17.6	0.00e+00	0	56	0	574619648	42	4319
2026-01-10 03:54:29.61	317.57	17.50	-35.7	-37.1	17.5	0.00e+00	0	56	0	580911104	42	4376
2026-01-10 03:54:30.61	317.34	17.51	-35.7	-37.1	17.5	0.00e+00	0	56	0	586153984	42	4377
2026-01-10 03:54:31.62	317.11	17.52	-35.7	-37.1	17.5	0.00e+00	0	56	0	592445440	42	4348
2026-01-10 03:54:32.62	316.88	17.52	-35.5	-36.9	17.7	0.00e+00	0	56	0	597688320	42	4276
2026-01-10 03:54:33.63	316.65	17.52	-35.6	-37.0	17.6	0.00e+00	0	56	0	602931200	42	4315
2026-01-10 03:54:34.64	316.41	17.53	-35.7	-37.1	17.5	0.00e+00	0	56	0	609222656	42	4351
2026-01-10 03:54:35.64	316.18	17.53	-35.7	-37.1	17.5	0.00e+00	0	56	0	614465536	42	4382
2026-01-10 03:54:36.65	315.95	17.53	-35.7	-37.1	17.5	0.00e+00	0	56	0	619708416	42	4370
2026-01-10 03:54:37.66	315.72	17.54	-35.7	-37.1	17.5	0.00e+00	0	56	0	625999872	42	4381
2026-01-10 03:54:38.66	315.49	17.54	-35.5	-36.9	17.7	0.00e+00	0	56	0	631242752	42	4277
2026-01-10 03:54:39.67	315.25	17.54	-35.4	-36.8	17.8	0.00e+00	0	56	0	637534208	42	4211
2026-01-10 03:54:40.68	315.02	17.54	-35.1	-36.5	18.1	0.00e+00	0	56	0	642777088	42	4062
2026-01-10 03:54:41.69	314.79	17.54	-35.2	-36.5	18.1	0.00e+00	0	56	0	648019968	42	4069
2026-01-10 03:54:42.70	314.55	17.54	-35.1	-36.4	18.2	0.00e+00	0	56	0	654311424	42	4032
2026-01-10 03:54:43.71	314.32	17.54	-35.1	-36.4	18.2	0.00e+00	0	56	0	659554304	42	4037
2026-01-10 03:54:44.72	314.09	17.54	-35.1	-36.4	18.1	0.00e+00	0	56	0	665845760	42	4045
2026-01-10 03:54:45.73	313.85	17.54	-35.3	-36.6	18.0	0.00e+00	0	56	0	671088640	42	4126
2026-01-10 03:54:46.74	313.62	17.54	-35.3	-36.6	17.9	0.00e+00	0	56	0	677380096	42	4141
2026-01-10 03:54:47.75	313.39	17.54	-35.3	-36.7	17.9	0.00e+00	0	56	0	682622976	42	4150
2026-01-10 03:54:48.76	313.15	17.53	-35.3	-36.7	17.9	0.00e+00	0	56	0	687865856	42	4169
2026-01-10 03:54:49.77	312.92	17.53	-35.4	-36.8	17.8	0.00e+00	0	56	0	694157312	42	4219
2026-01-10 03:54:50.78	312.69	17.53	-35.6	-36.9	17.7	0.00e+00	0	56	0	699400192	42	4285
2026-01-10 03:54:51.79	312.45	17.52	-35.5	-36.9	17.7	0.00e+00	0	56	0	705691648	42	4276
2026-01-10 03:54:52.80	312.22	17.52	-35.5	-36.9	17.7	0.00e+00	0	56	0	710934528	42	4246
2026-01-10 03:54:53.81	311.99	17.51	-35.6	-36.9	17.6	0.00e+00	0	56	0	716177408	42	4285
2026-01-10 03:54:54.82	311.76	17.51	-35.7	-37.1	17.5	0.00e+00	0	56	0	722468864	42	4350
2026-01-10 03:54:55.83	311.52	17.50	-35.7	-37.2	17.4	0.00e+00	0	56	0	727711744	42	4392
2026-01-10 03:54:56.84	311.29	17.49	-35.7	-37.1	17.5	0.00e+00	0	56	0	734003200	42	4359
2026-01-10 03:54:57.85	311.06	17.49	-35.7	-37.1	17.5	0.00e+00	0	56	0	739246080	42	4376
2026-01-10 03:54:58.85	310.83	17.48	-35.7	-37.1	17.5	0.00e+00	0	56	0	744488960	42	4375
2026-01-10 03:54:59.86	310.60	17.47	-35.7	-37.1	17.5	0.00e+00	0	56	0	750780416	42	4372
2026-01-10 03:55:00.87	310.36	17.46	-35.7	-37.1	17.5	0.00e+00	0	56	0	756023296	42	4359
2026-01-10 03:55:01.87	310.13	17.45	-35.7	-37.1	17.5	0.00e+00	0	56	0	762314752	42	4352
2026-01-10 03:55:02.88	309.90	17.44	-35.7	-37.1	17.5	0.00e+00	0	56	0	767557632	42	4361
2026-01-10 03:55:03.89	309.67	17.43	-35.7	-37.1	17.5	0.00e+00	0	56	0	773849088	42	4371
2026-01-10 03:55:04.90	309.44	17.42	-35.4	-36.8	17.8	0.00e+00	0	56	0	779091968	42	4225
2026-01-10 03:55:05.91	309.21	17.41	-35.2	-36.6	18.0	0.00e+00	0	56	0	784334848	42	4122
2026-01-10 03:55:06.92	308.98	17.40	-35.3	-36.6	18.0	0.00e+00	0	56	0	790626304	42	4116
2026-01-10 03:55:07.93	308.75	17.39	-35.3	-36.7	17.9	0.00e+00	0	56	0	795869184	42	4155
2026-01-10 03:55:08.94	308.51	17.37	-35.4	-36.8	17.8	0.00e+00	0	56	0	802160640	42	4208
2026-01-10 03:55:09.95	308.28	17.36	-35.3	-36.6	17.9	0.00e+00	0	56	0	807403520	42	4144
2026-01-10 03:55:10.96	308.05	17.35	-35.3	-36.6	18.0	0.00e+00	0	56	0	812646400	42	4123
2026-01-10 03:55:11.97	307.82	17.33	-35.3	-36.6	18.0	0.00e+00	0	56	0	818937856	42	4126
2026-01-10 03:55:12.98	307.59	17.32	-35.3	-36.6	17.9	0.00e+00	0	56	0	824180736	42	4138
2026-01-10 03:55:13.98	307.37	17.31	-35.3	-36.6	18.0	0.00e+00	0	56	0	830472192	42	4128
2026-01-10 03:55:14.99	307.14	17.29	-35.3	-36.6	18.0	0.00e+00	0	56	0	835715072	42	4116
2026-01-10 03:55:16.00	306.91	17.27	-35.4	-36.8	17.9	0.00e+00	0	56	0	840957952	42	4196
2026-01-10 03:55:17.00	306.68	17.26	-35.4	-36.8	17.8	0.00e+00	0	56	0	847249408	42	4197
2026-01-10 03:55:18.01	306.45	17.24	-35.4	-36.8	17.8	0.00e+00	0	56	0	852492288	42	4217
2026-01-10 03:55:19.02	306.22	17.23	-35.5	-36.9	17.7	0.00e+00	0	56	0	858783744	42	4248
2026-01-10 03:55:20.03	305.99	17.21	-35.6	-37.0	17.6	0.00e+00	0	56	0	864026624	42	4296
2026-01-10 03:55:21.04	305.77	17.19	-35.7	-37.1	17.4	0.00e+00	0	56	0	870318080	42	4380
2026-01-10 03:55:22.05	305.54	17.17	-35.8	-37.3	17.3	0.00e+00	0	56	0	875560960	42	4443
2026-01-10 03:55:23.06	305.31	17.15	-35.7	-37.1	17.5	0.00e+00	0	56	0	880803840	42	4388
2026-01-10 03:55:24.06	305.09	17.13	-35.6	-37.1	17.5	0.00e+00	0	56	0	887095296	42	4342
2026-01-10 03:55:25.07	304.86	17.11	-35.6	-37.0	17.5	0.00e+00	0	56	0	892338176	42	4337
2026-01-10 03:55:26.08	304.63	17.09	-35.6	-37.0	17.5	0.00e+00	0	56	0	898629632	42	4327
2026-01-10 03:55:27.09	304.41	17.07	-35.7	-37.1	17.5	0.00e+00	0	56	0	903872512	42	4341
2026-01-10 03:55:28.10	304.18	17.05	-35.5	-36.9	17.7	0.00e+00	0	56	0	909115392	42	4261
2026-01-10 03:55:29.11	303.95	17.03	-35.5	-36.8	17.7	0.00e+00	0	56	0	915406848	42	4235
2026-01-10 03:55:30.12	303.73	17.01	-35.4	-36.8	17.8	0.00e+00	0	56	0	920649728	42	4214
2026-01-10 03:55:31.13	303.50	16.99	-35.5	-36.9	17.6	0.00e+00	0	56	0	926941184	42	4260
2026-01-10 03:55:32.14	303.28	16.96	-35.5	-36.9	17.6	0.00e+00	0	56	0	932184064	42	4286
2026-01-10 03:55:33.14	303.06	16.94	-35.7	-37.1	17.5	0.00e+00	0	56	0	937426944	42	4352
2026-01-10 03:55:34.15	302.83	16.92	-35.8	-37.3	17.3	0.00e+00	0	56	0	943718400	42	4456
2026-01-10 03:55:35.17	302.61	16.89	-36.0	-37.5	17.0	0.00e+00	0	56	0	948961280	42	4570
2026-01-10 03:55:36.17	302.39	16.87	-36.0	-37.5	17.0	0.00e+00	0	56	0	955252736	42	4562
2026-01-10 03:55:37.18	302.16	16.84	-36.1	-37.6	16.9	0.00e+00	0	56	0	960495616	42	4620
2026-01-10 03:55:38.19	301.94	16.82	-36.0	-37.5	17.1	0.00e+00	0	56	0	966787072	42	4546
2026-01-10 03:55:39.20	301.72	16.79	-35.8	-37.3	17.2	0.00e+00	0	56	0	972029952	42	4452
2026-01-10 03:55:40.21	301.50	16.77	-35.7	-37.1	17.4	0.00e+00	0	56	0	978321408	42	4352
2026-01-10 03:55:41.22	301.27	16.74	-35.6	-37.0	17.6	0.00e+00	0	56	0	983564288	42	4293
2026-01-10 03:55:42.23	301.05	16.71	-35.6	-37.0	17.5	0.00e+00	0	56	0	988807168	42	4325
2026-01-10 03:55:43.24	300.83	16.69	-35.8	-37.2	17.3	0.00e+00	0	56	0	995098624	42	4402
2026-01-10 03:55:44.24	300.61	16.66	-35.7	-37.2	17.3	0.00e+00	0	56	0	1000341504	42	4401
2026-01-10 03:55:45.25	300.39	16.63	-35.8	-37.3	17.2	0.00e+00	0	56	0	1005584384	42	4447
2026-01-10 03:55:46.26	300.18	16.60	-35.8	-37.3	17.2	0.00e+00	0	56	0	1011875840	42	4450
2026-01-10 03:55:47.27	299.96	16.57	-35.9	-37.3	17.2	0.00e+00	0	57	0	1017118720	42	4476
2026-01-10 03:55:48.28	299.74	16.54	-36.0	-37.5	17.0	0.00e+00	0	56	0	1023410176	42	4558
2026-01-10 03:55:49.29	299.52	16.51	-36.0	-37.5	17.0	0.00e+00	0	56	0	1028653056	42	4567
2026-01-10 03:55:50.30	299.30	16.48	-35.9	-37.4	17.1	0.00e+00	0	56	0	1033895936	42	4515
2026-01-10 03:55:51.31	299.08	16.45	-36.0	-37.4	17.1	0.00e+00	0	56	0	1040187392	42	4524
2026-01-10 03:55:52.31	298.87	16.42	-35.9	-37.4	17.1	0.00e+00	0	56	0	1045430272	42	4513
2026-01-10 03:55:53.32	298.65	16.39	-36.0	-37.5	17.0	0.00e+00	0	56	0	1051721728	42	4581
2026-01-10 03:55:54.33	298.44	16.36	-36.0	-37.5	17.0	0.00e+00	0	56	0	1056964608	42	4548
2026-01-10 03:55:55.34	298.22	16.33	-35.9	-37.3	17.2	0.00e+00	0	56	0	1063256064	42	4471
2026-01-10 03:55:56.35	298.01	16.29	-35.8	-37.2	17.2	0.00e+00	0	56	0	1068498944	42	4437
2026-01-10 03:55:57.36	297.79	16.26	-35.8	-37.2	17.2	0.00e+00	0	56	0	1073741824	42	4434
2026-01-10 03:55:58.37	297.58	16.23	-35.7	-37.1	17.4	0.00e+00	0	56	0	1080033280	42	4367
2026-01-10 03:55:59.37	297.37	16.20	-35.8	-37.2	17.3	0.00e+00	0	56	0	1085276160	42	4413
2026-01-10 03:56:00.38	297.15	16.16	-35.9	-37.4	17.1	0.00e+00	0	56	0	1091567616	42	4499
2026-01-10 03:56:01.39	296.94	16.13	-35.9	-37.4	17.1	0.00e+00	0	56	0	1096810496	42	4500
2026-01-10 03:56:02.40	296.73	16.09	-35.9	-37.3	17.1	0.00e+00	0	56	0	1102053376	42	4488
2026-01-10 03:56:03.41	296.52	16.06	-35.9	-37.4	17.0	0.00e+00	0	56	0	1108344832	42	4536
2026-01-10 03:56:04.41	296.31	16.02	-36.0	-37.5	17.0	0.00e+00	0	56	0	1113587712	42	4553
2026-01-10 03:56:05.42	296.10	15.99	-36.0	-37.5	16.9	0.00e+00	0	57	0	1119879168	42	4562
2026-01-10 03:56:06.43	295.89	15.95	-36.0	-37.5	16.9	0.00e+00	0	56	0	1125122048	42	4564
2026-01-10 03:56:07.43	295.68	15.92	-35.9	-37.4	17.0	0.00e+00	0	56	0	1130364928	42	4510
2026-01-10 03:56:08.44	295.47	15.88	-35.8	-37.3	17.1	0.00e+00	0	56	0	1136656384	42	4460
2026-01-10 03:56:09.44	295.26	15.84	-36.0	-37.5	16.9	0.00e+00	0	56	0	1141899264	42	4553
2026-01-10 03:56:10.45	295.06	15.81	-36.1	-37.6	16.8	0.00e+00	0	56	0	1148190720	42	4605
2026-01-10 03:56:11.46	294.85	15.77	-36.1	-37.6	16.7	0.00e+00	0	56	0	1153433600	42	4649
2026-01-10 03:56:12.46	294.64	15.73	-35.9	-37.4	17.0	0.00e+00	0	56	0	1159725056	42	4516
2026-01-10 03:56:13.47	294.44	15.69	-35.8	-37.2	17.1	0.00e+00	0	56	0	1164967936	42	4425
2026-01-10 03:56:14.48	294.23	15.66	-35.7	-37.2	17.2	0.00e+00	0	56	0	1170210816	42	4413
2026-01-10 03:56:15.49	294.02	15.62	-35.7	-37.2	17.2	0.00e+00	0	56	0	1176502272	42	4410
2026-01-10 03:56:16.49	293.82	15.58	-35.8	-37.2	17.1	0.00e+00	0	56	0	1181745152	42	4429
2026-01-10 03:56:17.50	293.62	15.54	-35.8	-37.3	17.0	0.00e+00	0	56	0	1186988032	42	4473
2026-01-10 03:56:18.50	293.42	15.50	-35.9	-37.4	16.9	0.00e+00	0	56	0	1193279488	42	4539
2026-01-10 03:56:19.51	293.21	15.46	-35.9	-37.4	16.9	0.00e+00	0	56	0	1198522368	42	4543
2026-01-10 03:56:20.52	293.01	15.42	-36.1	-37.6	16.7	0.00e+00	0	56	0	1204813824	42	4623
2026-01-10 03:56:21.53	292.81	15.38	-36.1	-37.6	16.7	0.00e+00	0	56	0	1210056704	42	4611
2026-01-10 03:56:22.54	292.61	15.34	-36.1	-37.7	16.6	0.00e+00	0	56	0	1215299584	42	4667
2026-01-10 03:56:23.55	292.40	15.30	-36.1	-37.7	16.6	0.00e+00	0	57	0	1221591040	42	4660
2026-01-10 03:56:24.56	292.20	15.26	-36.1	-37.6	16.7	0.00e+00	0	56	0	1226833920	42	4625
2026-01-10 03:56:25.57	292.00	15.21	-36.1	-37.6	16.7	0.00e+00	0	56	0	1233125376	42	4647
2026-01-10 03:56:26.58	291.80	15.17	-36.1	-37.6	16.7	0.00e+00	0	56	0	1238368256	42	4618
2026-01-10 03:56:27.59	291.60	15.13	-36.1	-37.7	16.6	0.00e+00	0	56	0	1244659712	42	4655
2026-01-10 03:56:28.60	291.41	15.09	-36.2	-37.7	16.5	0.00e+00	0	56	0	1249902592	43	4417
2026-01-10 03:56:29.61	291.21	15.04	-36.1	-37.7	16.6	0.00e+00	0	56	0	1255145472	43	4416
2026-01-10 03:56:30.62	291.01	15.00	-36.2	-37.7	16.5	0.00e+00	0	56	0	1261436928	43	4435
2026-01-10 03:56:31.63	290.81	14.96	-36.2	-37.8	16.4	0.00e+00	0	56	0	1266679808	43	4448
2026-01-10 03:56:32.64	290.62	14.91	-36.2	-37.8	16.4	0.00e+00	0	56	0	1272971264	43	4475
2026-01-10 03:56:33.65	290.42	14.87	-36.3	-37.9	16.3	0.00e+00	0	56	0	1278214144	43	4501
2026-01-10 03:56:34.66	290.23	14.83	-36.4	-38.0	16.2	0.00e+00	0	56	0	1283457024	43	4557
2026-01-10 03:56:35.66	290.04	14.78	-36.3	-37.9	16.2	0.00e+00	0	56	0	1289748480	43	4504
2026-01-10 03:56:36.67	289.84	14.74	-36.3	-37.9	16.3	0.00e+00	0	56	0	1294991360	43	4504
2026-01-10 03:56:37.68	289.65	14.69	-36.5	-38.2	16.0	0.00e+00	0	57	0	1301282816	43	4661
2026-01-10 03:56:38.69	289.46	14.65	-36.4	-38.0	16.1	0.00e+00	0	56	0	1306525696	43	4593
2026-01-10 03:56:39.70	289.26	14.60	-36.3	-37.9	16.2	0.00e+00	0	56	0	1311768576	43	4527
2026-01-10 03:56:40.71	289.07	14.56	-36.3	-37.9	16.2	0.00e+00	0	56	0	1318060032	43	4507
2026-01-10 03:56:41.72	288.88	14.51	-36.2	-37.8	16.3	0.00e+00	0	56	0	1323302912	43	4481
2026-01-10 03:56:42.73	288.69	14.47	-36.2	-37.8	16.3	0.00e+00	0	57	0	1329594368	43	4446
2026-01-10 03:56:43.73	288.50	14.42	-36.1	-37.6	16.4	0.00e+00	0	56	0	1334837248	43	4389
2026-01-10 03:56:44.74	288.32	14.37	-36.0	-37.6	16.4	0.00e+00	0	56	0	1341128704	43	4360
2026-01-10 03:56:45.75	288.13	14.33	-36.1	-37.7	16.3	0.00e+00	0	56	0	1346371584	43	4392
2026-01-10 03:56:46.76	287.94	14.28	-36.1	-37.6	16.3	0.00e+00	0	57	0	1351614464	43	4389
2026-01-10 03:56:47.76	287.75	14.23	-36.0	-37.6	16.3	0.00e+00	0	57	0	1357905920	43	4372
2026-01-10 03:56:48.77	287.57	14.19	-36.0	-37.6	16.3	0.00e+00	0	57	0	1363148800	43	4380
2026-01-10 03:56:49.78	287.38	14.14	-36.1	-37.7	16.2	0.00e+00	0	57	0	1369440256	43	4402
2026-01-10 03:56:50.79	287.20	14.09	-36.1	-37.7	16.2	0.00e+00	0	56	0	1374683136	43	4424
2026-01-10 03:56:51.80	287.01	14.04	-36.1	-37.7	16.2	0.00e+00	0	56	0	1379926016	43	4406
2026-01-10 03:56:52.80	286.83	13.99	-36.1	-37.7	16.1	0.00e+00	0	57	0	1386217472	43	4423
2026-01-10 03:56:53.81	286.64	13.95	-36.2	-37.8	16.0	0.00e+00	0	56	0	1391460352	43	4478
2026-01-10 03:56:54.82	286.46	13.90	-36.2	-37.8	16.0	0.00e+00	0	57	0	1397751808	43	4476
2026-01-10 03:56:55.83	286.28	13.85	-36.1	-37.7	16.2	0.00e+00	0	56	0	1402994688	43	4399
2026-01-10 03:56:56.84	286.10	13.80	-36.1	-37.8	16.1	0.00e+00	0	57	0	1408237568	43	4449
2026-01-10 03:56:57.85	285.92	13.75	-36.1	-37.8	16.1	0.00e+00	0	57	0	1414529024	43	4442
2026-01-10 03:56:58.86	285.74	13.70	-36.2	-37.9	15.9	0.00e+00	0	56	0	1419771904	43	4517
2026-01-10 03:56:59.86	285.56	13.65	-36.3	-38.0	15.8	0.00e+00	0	57	0	1426063360	43	4560
2026-01-10 03:57:00.87	285.38	13.60	-36.4	-38.1	15.7	0.00e+00	0	57	0	1431306240	43	4635
2026-01-10 03:57:01.88	285.20	13.55	-36.4	-38.1	15.7	0.00e+00	0	56	0	1437597696	43	4616
2026-01-10 03:57:02.89	285.02	13.50	-36.3	-38.0	15.9	0.00e+00	0	56	0	1442840576	43	4546
2026-01-10 03:57:03.90	284.84	13.45	-36.3	-37.9	15.9	0.00e+00	0	57	0	1448083456	43	4537
2026-01-10 03:57:04.91	284.67	13.40	-36.2	-37.9	15.9	0.00e+00	0	57	0	1454374912	43	4505
2026-01-10 03:57:05.91	284.49	13.35	-36.2	-37.9	15.8	0.00e+00	0	56	0	1459617792	43	4532
2026-01-10 03:57:06.92	284.32	13.30	-36.3	-37.9	15.8	0.00e+00	0	56	0	1465909248	43	4530
2026-01-10 03:57:07.93	284.14	13.25	-36.3	-38.0	15.8	0.00e+00	0	56	0	1471152128	43	4567
2026-01-10 03:57:08.94	283.97	13.20	-36.4	-38.0	15.8	0.00e+00	0	57	0	1476395008	43	4593
2026-01-10 03:57:09.95	283.79	13.15	-36.4	-38.1	15.7	0.00e+00	0	57	0	1482686464	43	4639
2026-01-10 03:57:10.95	283.62	13.10	-36.3	-38.0	15.9	0.00e+00	0	56	0	1487929344	43	4557
2026-01-10 03:57:11.96	283.45	13.05	-36.3	-38.0	15.9	0.00e+00	0	56	0	1493172224	43	4570
2026-01-10 03:57:12.97	283.28	13.00	-36.4	-38.0	15.8	0.00e+00	0	57	0	1499463680	43	4590
2026-01-10 03:57:13.98	283.10	12.94	-36.4	-38.0	15.8	0.00e+00	0	57	0	1504706560	43	4590
2026-01-10 03:57:14.98	282.93	12.89	-36.3	-38.0	15.9	0.00e+00	0	56	0	1510998016	43	4579
2026-01-10 03:57:15.99	282.76	12.84	-36.5	-38.2	15.7	0.00e+00	0	57	0	1516240896	43	4698
2026-01-10 03:57:17.00	282.59	12.79	-36.6	-38.4	15.6	0.00e+00	0	57	0	1522532352	43	4774
2026-01-10 03:57:18.00	282.43	12.74	-36.6	-38.4	15.5	0.00e+00	0	57	0	1527775232	43	4775
2026-01-10 03:57:19.01	282.26	12.69	-37.0	-38.7	15.4	0.00e+00	0	57	0	1533018112	44	4680
2026-01-10 03:57:20.02	282.09	12.63	-36.8	-38.5	15.6	0.00e+00	0	57	0	1539309568	44	4586
2026-01-10 03:57:21.02	281.92	12.58	-36.8	-38.5	15.6	0.00e+00	0	56	0	1544552448	44	4553
2026-01-10 03:57:22.03	281.76	12.53	-36.9	-38.6	15.5	0.00e+00	0	56	0	1550843904	44	4627
2026-01-10 03:57:23.04	281.59	12.47	-37.0	-38.7	15.3	0.00e+00	0	57	0	1556086784	44	4697
2026-01-10 03:57:24.05	281.43	12.42	-37.1	-38.9	15.2	0.00e+00	0	56	0	1561329664	44	4779
2026-01-10 03:57:25.05	281.26	12.37	-37.2	-39.1	15.0	0.00e+00	0	57	0	1567621120	45	4625
2026-01-10 03:57:26.06	281.10	12.32	-37.2	-39.0	15.0	0.00e+00	0	57	0	1572864000	45	4577
2026-01-10 03:57:27.07	280.93	12.26	-36.9	-38.7	15.4	0.00e+00	0	56	0	1579155456	45	4423
2026-01-10 03:57:28.08	280.77	12.21	-36.8	-38.5	15.5	0.00e+00	0	57	0	1584398336	45	4336
2026-01-10 03:57:29.09	280.61	12.16	-36.7	-38.4	15.7	0.00e+00	0	56	0	1589641216	45	4268
2026-01-10 03:57:30.09	280.45	12.10	-36.7	-38.4	15.7	0.00e+00	0	56	0	1595932672	45	4279
2026-01-10 03:57:31.10	280.29	12.05	-36.9	-38.6	15.5	0.00e+00	0	57	0	1601175552	45	4352
2026-01-10 03:57:32.11	280.13	11.99	-36.9	-38.7	15.4	0.00e+00	0	57	0	1607467008	45	4392
2026-01-10 03:57:33.11	279.97	11.94	-37.0	-38.7	15.4	0.00e+00	0	56	0	1612709888	45	4428
2026-01-10 03:57:34.12	279.81	11.89	-36.8	-38.6	15.5	0.00e+00	0	57	0	1619001344	45	4349
2026-01-10 03:57:35.13	279.65	11.83	-36.8	-38.5	15.5	0.00e+00	0	56	0	1624244224	45	4329
2026-01-10 03:57:36.14	279.49	11.78	-36.6	-38.3	15.7	0.00e+00	0	57	0	1629487104	45	4230
2026-01-10 03:57:37.15	279.33	11.72	-36.6	-38.3	15.6	0.00e+00	0	57	0	1635778560	45	4232
2026-01-10 03:57:38.16	279.18	11.67	-36.5	-38.2	15.7	0.00e+00	0	56	0	1641021440	45	4183
2026-01-10 03:57:39.17	279.02	11.62	-36.6	-38.3	15.6	0.00e+00	0	57	0	1647312896	45	4219
2026-01-10 03:57:40.17	278.87	11.56	-36.7	-38.4	15.6	0.00e+00	0	57	0	1652555776	45	4250
2026-01-10 03:57:41.18	278.71	11.51	-36.7	-38.4	15.5	0.00e+00	0	56	0	1657798656	45	4259
2026-01-10 03:57:42.19	278.56	11.45	-36.9	-38.6	15.3	0.00e+00	0	57	0	1664090112	45	4386
2026-01-10 03:57:43.20	278.40	11.40	-36.9	-38.7	15.2	0.00e+00	0	56	0	1669332992	45	4430
2026-01-10 03:57:44.21	278.25	11.34	-37.0	-38.9	15.0	0.00e+00	0	57	0	1674575872	45	4496
2026-01-10 03:57:45.22	278.09	11.29	-37.1	-39.0	14.8	0.00e+00	0	57	0	1680867328	45	4549
2026-01-10 03:57:46.23	277.94	11.23	-37.2	-39.2	14.6	1.10e-06	0	56	0	1686110208	45	4656
2026-01-10 03:57:47.24	277.79	11.18	-37.1	-39.0	14.7	1.10e-06	0	57	0	1692401664	45	4549
2026-01-10 03:57:48.25	277.64	11.12	-37.1	-39.1	14.6	0.00e+00	0	57	0	1697644544	45	4605
2026-01-10 03:57:49.26	277.49	11.07	-37.0	-38.9	14.7	0.00e+00	0	57	0	1703936000	45	4529
2026-01-10 03:57:50.27	277.34	11.01	-37.1	-39.0	14.6	1.10e-06	0	56	0	1709178880	45	4588
2026-01-10 03:57:51.27	277.19	10.96	-37.2	-39.1	14.5	2.20e-06	0	57	0	1715470336	45	4623
2026-01-10 03:57:52.28	277.04	10.90	-37.3	-39.3	14.3	0.00e+00	0	57	0	1720713216	45	4743
2026-01-10 03:57:53.29	276.89	10.85	-37.4	-39.5	14.1	6.80e-06	0	56	0	1725956096	45	4816
2026-01-10 03:57:54.30	276.74	10.79	-37.4	-39.5	14.0	8.00e-06	0	57	0	1732247552	45	4854
2026-01-10 03:57:55.31	276.60	10.73	-37.4	-39.5	13.9	6.80e-06	0	56	0	1737490432	45	4860
2026-01-10 03:57:56.32	276.45	10.68	-37.4	-39.5	13.9	6.80e-06	0	56	0	1743781888	45	4853
2026-01-10 03:57:57.32	276.30	10.62	-37.5	-39.6	13.8	4.50e-06	0	57	0	1749024768	45	4879
2026-01-10 03:57:58.33	276.16	10.57	-37.5	-39.7	13.7	1.25e-05	0	57	0	1754267648	45	4953
2026-01-10 03:57:59.34	276.01	10.51	-37.6	-39.7	13.6	6.80e-06	0	57	0	1760559104	45	4975
2026-01-10 03:58:00.35	275.87	10.46	-37.7	-40.0	13.2	1.83e-05	0	57	0	1765801984	46	4850
2026-01-10 03:58:01.36	275.73	10.40	-37.9	-40.3	12.9	5.14e-05	0	57	0	1771044864	46	4987
2026-01-10 03:58:02.37	275.58	10.34	-38.1	-40.6	12.6	9.72e-05	0	57	0	1777336320	46	5162
2026-01-10 03:58:03.38	275.44	10.29	-38.1	-40.6	12.5	1.97e-04	0	56	0	1782579200	46	5218
2026-01-10 03:58:04.38	275.30	10.23	-38.3	-40.9	12.2	2.28e-04	0	57	0	1788870656	47	5058
2026-01-10 03:58:05.39	275.16	10.18	-38.4	-41.1	11.9	4.77e-04	0	57	0	1794113536	47	5176
2026-01-10 03:58:06.40	275.01	10.12	-38.5	-41.3	11.7	7.29e-04	0	57	0	1800404992	47	5282
2026-01-10 03:58:07.41	274.87	10.06	-38.6	-41.5	11.4	1.18e-03	0	56	0	1805647872	47	5407
2026-01-10 03:58:08.41	274.74	10.01	-38.8	-41.8	11.1	2.00e-03	0	56	0	1811939328	48	5280
2026-01-10 03:58:09.42	274.60	9.95	-39.0	-42.0	10.8	3.27e-03	0	57	0	1817182208	48	5437
2026-01-10 03:58:10.42	274.46	9.90	-39.1	-42.4	10.3	5.90e-03	0	57	0	1822425088	48	5663
2026-01-10 03:58:11.43	274.32	9.84	-39.3	-42.8	9.8	9.48e-03	0	57	0	1828716544	49	5625
2026-01-10 03:58:12.44	274.18	9.78	-39.5	-43.2	9.2	2.12e-02	0	57	0	1833959424	49	5912
2026-01-10 03:58:13.45	274.04	9.73	-39.6	-43.5	8.9	2.96e-02	0	56	0	1839202304	49	6125
2026-01-10 03:58:14.45	273.91	9.67	-39.8	-43.9	8.4	4.50e-02	0	57	0	1845493760	50	6025
2026-01-10 03:58:15.46	273.77	9.61	-39.9	-44.3	7.9	8.38e-02	0	57	0	1850736640	50	6343
2026-01-10 03:58:16.47	273.64	9.56	-40.0	-44.8	7.4	1.11e-01	0	56	0	1857028096	50	6648
2026-01-10 03:58:17.48	273.50	9.50	-40.1	-45.0	7.1	1.61e-01	0	57	0	1862270976	50	6864
2026-01-10 03:58:18.49	273.37	9.44	-40.2	-45.4	6.7	1.97e-01	0	57	0	1867513856	50	7136
2026-01-10 03:58:19.50	273.23	9.39	-40.2	-45.8	6.2	2.75e-01	0	57	0	1873805312	51	7102
2026-01-10 03:58:20.50	273.10	9.33	-40.3	-46.2	6.0	3.54e-01	0	57	0	1879048192	51	7402
2026-01-10 03:58:21.51	272.97	9.27	-40.3	-46.4	5.7	4.58e-01	0	57	0	1885339648	51	7624
2026-01-10 03:58:22.52	272.83	9.22	-40.4	-46.7	5.5	6.67e-01	0	57	0	1888485376	51	7825
2026-01-10 03:58:23.53	272.70	9.16	-40.4	-46.8	5.3	7.22e-01	0	57	0	1890582528	51	7984
2026-01-10 03:58:24.54	272.57	9.10	-40.4	-47.1	5.2	7.47e-01	0	57	0	1891631104	51	8261
2026-01-10 03:58:25.55	272.44	9.05	-40.4	-46.9	5.3	7.44e-01	0	57	0	1891631104	51	8067
2026-01-10 03:58:26.56	272.31	8.99	-40.4	-46.8	5.4	7.27e-01	0	57	0	1893728256	51	7973
2026-01-10 03:58:27.56	272.18	8.93	-40.5	-46.5	5.7	6.03e-01	0	57	0	1895825408	51	7711
2026-01-10 03:58:28.57	272.05	8.88	-40.5	-46.7	5.5	6.04e-01	0	57	0	1900019712	51	7870
2026-01-10 03:58:29.58	271.92	8.82	-40.5	-46.7	5.6	6.52e-01	0	57	0	1903165440	51	7814
2026-01-10 03:58:30.59	271.79	8.76	-40.5	-46.8	5.4	7.06e-01	0	57	0	1905262592	51	7956
2026-01-10 03:58:31.60	271.66	8.71	-40.6	-46.9	5.3	7.25e-01	0	57	0	1906311168	51	8074
2026-01-10 03:58:32.61	271.54	8.65	-40.6	-47.0	5.3	7.28e-01	0	57	0	1907359744	51	8171
2026-01-10 03:58:33.61	271.41	8.60	-40.6	-47.1	5.2	7.32e-01	0	57	0	1908408320	51	8251
2026-01-10 03:58:34.62	271.29	8.54	-40.6	-47.3	5.1	7.53e-01	0	57	0	1909456896	51	8380
2026-01-10 03:58:35.63	271.16	8.48	-40.6	-47.3	5.0	7.64e-01	0	57	0	1910505472	51	8457
2026-01-10 03:58:36.63	271.03	8.43	-40.6	-47.5	4.9	7.73e-01	0	57	0	1910505472	51	8624
2026-01-10 03:58:37.64	270.91	8.37	-40.7	-47.6	4.9	7.79e-01	0	57	0	1910505472	51	8747
2026-01-10 03:58:38.65	270.79	8.31	-40.7	-47.9	4.7	7.99e-01	0	57	0	1910505472	51	9019
2026-01-10 03:58:39.66	270.66	8.25	-40.7	-48.2	4.6	8.14e-01	0	57	0	1910505472	51	9334
2026-01-10 03:58:40.67	270.54	8.20	-40.6	-48.3	4.5	8.22e-01	0	57	0	1911554048	51	9480
2026-01-10 03:58:41.68	270.41	8.14	-40.6	-48.5	4.4	8.28e-01	0	57	0	1911554048	51	9655
2026-01-10 03:58:42.68	270.29	8.09	-40.6	-48.8	4.3	8.31e-01	0	57	0	1911554048	51	9995
2026-01-10 03:58:43.69	270.17	8.03	-40.6	-49.0	4.2	8.35e-01	0	57	0	1911554048	51	10290
2026-01-10 03:58:44.70	270.05	7.97	-42.6	-53.8	3.8	8.39e-01	0	57	104	1911554048	55	14102
2026-01-10 03:58:45.70	269.93	7.92	-44.3	-55.8	3.8	8.45e-01	0	57	104	1911554048	59	14126
2026-01-10 03:58:46.71	269.81	7.86	-44.6	-56.1	3.8	8.46e-01	0	57	104	1911554048	59	14644
2026-01-10 03:58:47.72	269.69	7.80	-44.7	-56.4	3.8	8.47e-01	0	57	104	1911554048	60	14334
2026-01-10 03:58:48.73	269.57	7.75	-44.8	-56.6	3.8	8.46e-01	0	57	104	1911554048	60	14557
2026-01-10 03:58:49.74	269.45	7.69	-44.9	-56.6	3.8	8.47e-01	0	57	104	1911554048	60	14665
2026-01-10 03:58:50.75	269.33	7.63	-44.9	-56.7	3.8	8.45e-01	0	57	104	1911554048	60	14786
2026-01-10 03:58:51.75	269.21	7.58	-45.0	-56.8	3.8	8.47e-01	0	57	104	1911554048	60	14915
2026-01-10 03:58:52.76	269.10	7.52	-45.0	-56.8	3.8	8.46e-01	0	57	104	1911554048	60	14902
2026-01-10 03:58:53.77	268.98	7.46	-45.0	-56.8	3.8	8.46e-01	0	57	104	1911554048	60	14910
2026-01-10 03:58:54.78	268.86	7.41	-45.0	-56.8	3.8	8.46e-01	0	57	104	1911554048	60	14887
2026-01-10 03:58:55.79	268.75	7.35	-45.0	-56.7	3.8	8.46e-01	0	57	104	1911554048	60	14864
2026-01-10 03:58:56.80	268.63	7.29	-44.9	-56.7	3.8	8.46e-01	0	57	104	1911554048	60	14874
2026-01-10 03:58:57.81	268.51	7.24	-44.9	-56.7	3.8	8.46e-01	0	57	104	1911554048	60	14826
2026-01-10 03:58:58.82	268.40	7.18	-44.9	-56.7	3.8	8.46e-01	0	57	104	1911554048	60	14841
2026-01-10 03:58:59.83	268.28	7.12	-44.9	-56.7	3.8	8.46e-01	0	57	104	1911554048	60	14867
2026-01-10 03:59:00.84	268.17	7.07	-44.9	-56.7	3.8	8.45e-01	0	57	104	1911554048	60	14832
2026-01-10 03:59:01.85	268.06	7.01	-44.9	-56.7	3.8	8.46e-01	0	57	104	1911554048	60	14832
2026-01-10 03:59:02.86	267.94	6.95	-44.9	-56.7	3.8	8.47e-01	0	57	104	1911554048	60	14820
2026-01-10 03:59:03.87	267.83	6.90	-44.9	-56.7	3.8	8.47e-01	0	57	104	1911554048	60	14806
2026-01-10 03:59:04.88	267.72	6.84	-44.9	-56.7	3.8	8.45e-01	0	57	104	1911554048	60	14811
2026-01-10 03:59:05.89	267.61	6.78	-44.9	-56.7	3.8	8.46e-01	0	57	104	1911554048	60	14788
2026-01-10 03:59:06.90	267.49	6.73	-44.9	-56.7	3.8	8.46e-01	0	57	104	1911554048	60	14743
2026-01-10 03:59:07.91	267.38	6.67	-44.9	-56.7	3.8	8.45e-01	0	57	104	1911554048	60	14788
2026-01-10 03:59:08.91	267.27	6.61	-44.9	-56.7	3.8	8.46e-01	0	57	104	1911554048	60	14798
2026-01-10 03:59:09.92	267.16	6.56	-44.8	-56.7	3.8	8.46e-01	0	57	104	1911554048	60	14774
2026-01-10 03:59:10.93	267.05	6.50	-44.9	-56.7	3.8	8.47e-01	0	57	104	1911554048	60	14775
2026-01-10 03:59:11.94	266.95	6.45	-44.9	-56.7	3.8	8.46e-01	0	57	104	1911554048	60	14770
2026-01-10 03:59:12.95	266.84	6.39	-44.9	-56.7	3.8	8.46e-01	0	57	104	1911554048	60	14773
2026-01-10 03:59:13.96	266.73	6.33	-44.8	-56.7	3.8	8.45e-01	0	57	104	1911554048	60	14763
2026-01-10 03:59:14.97	266.62	6.28	-44.8	-56.7	3.8	8.46e-01	0	57	104	1911554048	60	14778
2026-01-10 03:59:15.97	266.51	6.22	-44.8	-56.7	3.8	8.47e-01	0	57	104	1911554048	60	14744
2026-01-10 03:59:16.98	266.41	6.16	-44.8	-56.7	3.8	8.46e-01	0	57	104	1911554048	60	14753
2026-01-10 03:59:17.99	266.30	6.11	-44.8	-56.7	3.8	8.46e-01	0	57	104	1911554048	60	14774
2026-01-10 03:59:18.99	266.19	6.05	-44.8	-56.7	3.8	8.47e-01	0	57	104	1911554048	60	14761
2026-01-10 03:59:20.00	266.09	6.00	-44.9	-56.7	3.8	8.46e-01	0	57	104	1911554048	60	14751
2026-01-10 03:59:21.01	265.98	5.94	-44.8	-56.6	3.8	8.46e-01	0	57	104	1911554048	60	14678
2026-01-10 03:59:22.02	265.88	5.88	-44.8	-56.7	3.8	8.45e-01	0	57	104	1911554048	60	14738
2026-01-10 03:59:23.03	265.77	5.83	-44.8	-56.7	3.8	8.47e-01	0	57	104	1911554048	60	14764
2026-01-10 03:59:24.04	265.67	5.77	-44.8	-56.7	3.8	8.46e-01	0	57	104	1911554048	60	14769
2026-01-10 03:59:25.04	265.57	5.72	-44.8	-56.7	3.8	8.46e-01	0	57	104	1911554048	60	14762
2026-01-10 03:59:26.05	265.46	5.66	-44.8	-56.7	3.8	8.48e-01	0	57	104	1911554048	60	14734
2026-01-10 03:59:27.06	265.36	5.61	-44.8	-56.6	3.8	8.47e-01	0	57	104	1911554048	60	14664
2026-01-10 03:59:28.07	265.26	5.55	-44.8	-56.7	3.8	8.46e-01	0	57	104	1911554048	60	14723
2026-01-10 03:59:29.08	265.15	5.49	-44.8	-56.6	3.8	8.48e-01	0	57	104	1911554048	60	14700
2026-01-10 03:59:30.09	265.05	5.44	-44.8	-56.6	3.8	8.48e-01	0	57	104	1911554048	60	14685
2026-01-10 03:59:31.10	264.95	5.38	-44.8	-56.7	3.8	8.46e-01	0	57	104	1911554048	60	14714
2026-01-10 03:59:32.11	264.85	5.33	-44.8	-56.7	3.8	8.46e-01	0	57	104	1911554048	60	14711
2026-01-10 03:59:33.12	264.75	5.27	-44.8	-56.6	3.8	8.45e-01	0	57	104	1911554048	60	14700
2026-01-10 03:59:34.13	264.65	5.22	-44.8	-56.7	3.8	8.46e-01	0	57	104	1911554048	60	14753
2026-01-10 03:59:35.14	264.55	5.16	-44.8	-56.7	3.8	8.46e-01	0	57	104	1911554048	60	14766
2026-01-10 03:59:36.15	264.45	5.10	-44.8	-56.7	3.8	8.46e-01	0	57	104	1911554048	60	14738
2026-01-10 03:59:37.16	264.35	5.05	-44.8	-56.6	3.8	8.46e-01	0	57	104	1911554048	60	14707
2026-01-10 03:59:38.17	264.25	4.99	-44.8	-56.6	3.8	8.47e-01	0	57	104	1911554048	60	14689
2026-01-10 03:59:39.18	264.15	4.94	-44.8	-56.6	3.8	8.47e-01	0	57	104	1911554048	60	14702
2026-01-10 03:59:40.19	264.06	4.88	-44.8	-56.7	3.8	8.46e-01	0	57	104	1911554048	60	14735
2026-01-10 03:59:41.20	263.96	4.83	-44.8	-56.7	3.8	8.46e-01	0	57	104	1911554048	60	14743
2026-01-10 03:59:42.20	263.86	4.77	-44.8	-56.7	3.8	8.46e-01	0	57	104	1911554048	60	14734
2026-01-10 03:59:43.21	263.77	4.72	-44.8	-56.6	3.8	8.45e-01	0	57	104	1911554048	60	14695
2026-01-10 03:59:44.22	263.67	4.66	-44.8	-56.7	3.8	8.46e-01	0	57	104	1911554048	60	14724
2026-01-10 03:59:45.23	263.57	4.61	-44.8	-56.6	3.8	8.46e-01	0	57	104	1911554048	60	14649
2026-01-10 03:59:46.24	263.48	4.55	-44.8	-56.7	3.8	8.46e-01	0	57	104	1911554048	60	14740
2026-01-10 03:59:47.25	263.38	4.50	-44.8	-56.7	3.8	8.48e-01	0	57	104	1911554048	60	14725
2026-01-10 03:59:48.26	263.29	4.44	-44.8	-56.6	3.8	8.45e-01	0	57	104	1911554048	60	14702
2026-01-10 03:59:49.27	263.19	4.39	-44.8	-56.6	3.8	8.45e-01	0	57	104	1911554048	60	14705
2026-01-10 03:59:50.28	263.10	4.33	-44.8	-56.7	3.8	8.45e-01	0	57	104	1911554048	60	14717
2026-01-10 03:59:51.29	263.00	4.28	-44.8	-56.6	3.8	8.46e-01	0	57	104	1911554048	60	14697
2026-01-10 03:59:52.30	262.91	4.22	-44.8	-56.6	3.8	8.47e-01	0	57	104	1911554048	60	14674
2026-01-10 03:59:53.31	262.82	4.17	-44.8	-56.6	3.8	8.47e-01	0	57	104	1911554048	60	14661
2026-01-10 03:59:54.31	262.73	4.11	-44.8	-56.6	3.8	8.45e-01	0	57	104	1911554048	60	14641
2026-01-10 03:59:55.32	262.63	4.06	-44.8	-56.6	3.8	8.47e-01	0	57	104	1911554048	60	14677
2026-01-10 03:59:56.33	262.54	4.00	-44.8	-56.6	3.8	8.46e-01	0	57	104	1911554048	60	14664
2026-01-10 03:59:57.34	262.45	3.95	-44.8	-56.6	3.8	8.45e-01	0	57	104	1911554048	60	14658
2026-01-10 03:59:58.34	262.36	3.89	-44.8	-56.6	3.8	8.45e-01	0	57	104	1911554048	60	14668
2026-01-10 03:59:59.35	262.27	3.84	-44.8	-56.6	3.8	8.47e-01	0	57	104	1911554048	60	14670
2026-01-10 04:00:00.36	262.18	3.78	-44.8	-56.6	3.8	8.47e-01	0	57	104	1911554048	60	14601
2026-01-10 04:00:01.36	262.09	3.73	-44.8	-56.6	3.8	8.46e-01	0	57	104	1911554048	60	14663
2026-01-10 04:00:02.38	262.00	3.67	-44.8	-56.6	3.8	8.45e-01	0	57	104	1911554048	60	14620
2026-01-10 04:00:03.38	261.91	3.62	-44.8	-56.6	3.8	8.46e-01	0	57	104	1911554048	60	14664
2026-01-10 04:00:04.40	261.82	3.57	-44.8	-56.6	3.8	8.45e-01	0	57	104	1911554048	60	14689
2026-01-10 04:00:05.40	261.73	3.51	-44.8	-56.6	3.8	8.45e-01	0	57	104	1911554048	60	14655
2026-01-10 04:00:06.41	261.64	3.46	-44.8	-56.6	3.8	8.46e-01	0	57	104	1911554048	60	14697
2026-01-10 04:00:07.42	261.55	3.40	-44.8	-56.6	3.8	8.46e-01	0	57	104	1911554048	60	14640
2026-01-10 04:00:08.43	261.47	3.35	-44.8	-56.6	3.8	8.46e-01	0	57	104	1911554048	60	14647
2026-01-10 04:00:09.44	261.38	3.29	-44.8	-56.6	3.8	8.45e-01	0	57	104	1911554048	60	14642
2026-01-10 04:00:10.45	261.29	3.24	-44.8	-56.6	3.8	8.46e-01	0	57	104	1911554048	60	14635
2026-01-10 04:00:11.46	261.20	3.19	-44.8	-56.6	3.8	8.45e-01	0	57	104	1911554048	60	14647
2026-01-10 04:00:12.47	261.12	3.13	-44.8	-56.6	3.8	8.45e-01	0	57	104	1911554048	60	14624
2026-01-10 04:00:13.47	261.03	3.08	-44.8	-56.6	3.8	8.47e-01	0	57	104	1911554048	60	14648
2026-01-10 04:00:14.48	260.95	3.02	-44.8	-56.6	3.8	8.47e-01	0	57	104	1911554048	60	14624
2026-01-10 04:00:15.48	260.86	2.97	-44.8	-56.6	3.8	8.46e-01	0	57	104	1911554048	60	14648
2026-01-10 04:00:16.49	260.77	2.92	-44.8	-56.6	3.8	8.46e-01	0	57	104	1911554048	60	14638
2026-01-10 04:00:17.50	260.69	2.86	-44.8	-56.6	3.8	8.45e-01	0	57	104	1911554048	60	14649
2026-01-10 04:00:18.51	260.61	2.81	-44.8	-56.6	3.8	8.46e-01	0	57	104	1911554048	60	14687
2026-01-10 04:00:19.52	260.52	2.76	-44.8	-56.6	3.8	8.46e-01	0	57	104	1911554048	60	14618
2026-01-10 04:00:20.53	260.44	2.70	-44.8	-56.6	3.8	8.46e-01	0	57	104	1911554048	60	14628
2026-01-10 04:00:21.54	260.35	2.65	-44.8	-56.6	3.8	8.47e-01	0	57	104	1911554048	60	14613
2026-01-10 04:00:22.55	260.27	2.59	-44.8	-56.6	3.8	8.47e-01	0	57	104	1911554048	60	14635
2026-01-10 04:00:23.56	260.19	2.54	-44.8	-56.6	3.8	8.46e-01	0	57	104	1911554048	60	14676
2026-01-10 04:00:24.57	260.10	2.49	-44.8	-56.6	3.8	8.47e-01	0	57	104	1911554048	60	14646
2026-01-10 04:00:25.58	260.02	2.43	-44.8	-56.6	3.8	8.46e-01	0	57	104	1911554048	60	14674
2026-01-10 04:00:26.59	259.94	2.38	-44.8	-56.6	3.8	8.46e-01	0	57	104	1911554048	60	14617
2026-01-10 04:00:27.59	259.86	2.33	-44.8	-56.6	3.8	8.46e-01	0	57	104	1911554048	60	14640
2026-01-10 04:00:28.60	259.78	2.27	-44.8	-56.6	3.8	8.47e-01	0	57	104	1911554048	60	14650
2026-01-10 04:00:29.60	259.70	2.22	-44.8	-56.6	3.8	8.46e-01	0	57	104	1911554048	60	14696
2026-01-10 04:00:30.61	259.61	2.17	-44.8	-56.6	3.8	8.46e-01	0	57	104	1911554048	60	14635
2026-01-10 04:00:31.61	259.53	2.12	-44.8	-56.6	3.8	8.45e-01	0	57	104	1911554048	60	14648
2026-01-10 04:00:32.62	259.45	2.06	-44.8	-56.6	3.8	8.46e-01	0	57	104	1911554048	60	14644
2026-01-10 04:00:33.63	259.37	2.01	-44.8	-56.6	3.8	8.47e-01	0	57	104	1911554048	60	14614
2026-01-10 04:00:34.64	259.29	1.96	-44.8	-56.6	3.8	8.46e-01	0	57	104	1911554048	60	14696
2026-01-10 04:00:35.65	259.21	1.90	-44.8	-56.6	3.8	8.46e-01	0	57	104	1911554048	60	14613

#Closed at: 2026-01-10 04:00:36
