passes_logs/2026/01/10/R2.0S_Moscow/R2.0S_Moscow__20260110_002805_FENGYUN_3D_rec.log

#Pass ID: 20260110_002805_FENGYUN 3D
#Satellite: FENGYUN 3D
#Configuration: FENGYUN 3D
#almurnet v.1.7.20251203
#Start time: 2026-01-10 00:28:08

#Version: 2.2.20231116
#Station: R2.0S_Moscow
#Location: 37.707566 lon 55.798166 lat
#TLE: 1 43010U 17072A   26009.29492227  .00000158  00000+0  96483-4 0  9996
#TLE: 2 43010  98.9936 341.0229 0002153 117.3665 242.7729 14.19694440422446

#Time	Az	El	Level	Level2	SNR	BER	BlckErr	Temp	State	Recorded	gain1	gain2
2026-01-10 00:28:08.16	24.02	2.13	-41.8	-54.1	3.8	8.46e-01	0	47	0	0	55	14694
2026-01-10 00:28:09.17	24.08	2.19	-41.8	-54.2	3.8	8.47e-01	0	47	104	0	54	15622
2026-01-10 00:28:10.17	24.14	2.25	-41.9	-54.1	3.8	8.45e-01	0	47	104	0	54	15565
2026-01-10 00:28:11.19	24.21	2.30	-41.8	-54.2	3.8	8.47e-01	0	47	104	0	54	15609
2026-01-10 00:28:12.19	24.27	2.36	-41.8	-54.2	3.8	8.46e-01	0	47	104	0	54	15593
2026-01-10 00:28:13.19	24.33	2.42	-41.9	-54.2	3.8	8.45e-01	0	47	104	0	54	15618
2026-01-10 00:28:14.20	24.39	2.48	-41.8	-54.1	3.8	8.47e-01	0	47	104	0	54	15562
2026-01-10 00:28:15.20	24.46	2.54	-41.8	-54.2	3.8	8.47e-01	0	47	104	0	54	15616
2026-01-10 00:28:16.21	24.52	2.59	-41.8	-54.2	3.8	8.47e-01	0	47	104	0	54	15590
2026-01-10 00:28:17.22	24.59	2.65	-41.8	-54.2	3.8	8.47e-01	0	47	104	0	54	15640
2026-01-10 00:28:18.23	24.65	2.71	-41.8	-54.1	3.8	8.46e-01	0	47	104	0	54	15519
2026-01-10 00:28:19.24	24.71	2.77	-41.9	-54.1	3.8	8.46e-01	0	47	104	0	54	15565
2026-01-10 00:28:20.25	24.78	2.83	-41.8	-54.1	3.8	8.46e-01	0	47	104	0	54	15552
2026-01-10 00:28:21.26	24.84	2.89	-41.8	-54.1	3.8	8.47e-01	0	48	104	0	54	15533
2026-01-10 00:28:22.27	24.91	2.95	-41.8	-54.1	3.8	8.46e-01	0	48	104	0	54	15567
2026-01-10 00:28:23.28	24.97	3.01	-41.8	-54.1	3.8	8.47e-01	0	48	104	0	54	15574
2026-01-10 00:28:24.29	25.04	3.07	-41.8	-54.1	3.8	8.47e-01	0	48	104	0	54	15552
2026-01-10 00:28:25.30	25.11	3.13	-41.8	-54.1	3.8	8.46e-01	0	48	104	0	54	15540
2026-01-10 00:28:26.31	25.17	3.18	-41.8	-54.1	3.8	8.45e-01	0	48	104	0	54	15565
2026-01-10 00:28:27.32	25.24	3.24	-41.8	-54.1	3.8	8.46e-01	0	48	104	0	54	15555
2026-01-10 00:28:28.33	25.31	3.30	-41.8	-54.2	3.8	8.46e-01	0	48	104	0	54	15583
2026-01-10 00:28:29.34	25.37	3.36	-41.8	-54.1	3.8	8.46e-01	0	48	104	0	54	15515
2026-01-10 00:28:30.35	25.44	3.42	-41.8	-54.1	3.8	8.45e-01	0	48	104	0	54	15570
2026-01-10 00:28:31.36	25.51	3.48	-41.8	-54.2	3.8	8.45e-01	0	48	104	0	54	15601
2026-01-10 00:28:32.37	25.58	3.54	-41.8	-54.1	3.8	8.46e-01	0	48	104	0	54	15532
2026-01-10 00:28:33.38	25.64	3.60	-41.8	-54.1	3.8	8.47e-01	0	48	104	0	54	15512
2026-01-10 00:28:34.39	25.71	3.66	-41.8	-54.1	3.8	8.45e-01	0	48	104	0	54	15550
2026-01-10 00:28:35.40	25.78	3.72	-41.8	-54.1	3.8	8.46e-01	0	49	104	0	54	15498
2026-01-10 00:28:36.40	25.85	3.78	-41.8	-54.1	3.8	8.46e-01	0	49	104	0	54	15498
2026-01-10 00:28:37.41	25.92	3.85	-41.8	-54.1	3.8	8.46e-01	0	49	104	0	54	15568
2026-01-10 00:28:38.42	25.99	3.91	-41.8	-54.1	3.8	8.46e-01	0	49	104	0	54	15562
2026-01-10 00:28:39.43	26.06	3.97	-41.8	-54.1	3.8	8.46e-01	0	49	104	0	54	15540
2026-01-10 00:28:40.44	26.13	4.03	-41.8	-54.1	3.8	8.46e-01	0	49	104	0	54	15520
2026-01-10 00:28:41.45	26.20	4.09	-41.8	-54.1	3.8	8.46e-01	0	49	104	0	54	15519
2026-01-10 00:28:42.46	26.27	4.15	-41.8	-54.1	3.8	8.46e-01	0	49	104	0	54	15554
2026-01-10 00:28:43.47	26.34	4.21	-41.8	-54.1	3.8	8.45e-01	0	49	104	0	54	15535
2026-01-10 00:28:44.48	26.41	4.27	-41.8	-54.1	3.8	8.45e-01	0	49	104	0	54	15526
2026-01-10 00:28:45.49	26.48	4.33	-41.8	-54.1	3.8	8.46e-01	0	49	104	0	54	15533
2026-01-10 00:28:46.50	26.55	4.40	-41.8	-54.1	3.8	8.45e-01	0	49	104	0	54	15494
2026-01-10 00:28:47.51	26.63	4.46	-41.8	-54.1	3.8	8.45e-01	0	49	104	0	54	15543
2026-01-10 00:28:48.51	26.70	4.52	-41.8	-54.1	3.8	8.47e-01	0	49	104	0	54	15523
2026-01-10 00:28:49.52	26.77	4.58	-41.8	-54.1	3.8	8.46e-01	0	49	104	0	54	15528
2026-01-10 00:28:50.53	26.84	4.64	-41.8	-54.1	3.8	8.46e-01	0	49	104	0	54	15526
2026-01-10 00:28:51.54	26.92	4.70	-41.8	-54.1	3.8	8.47e-01	0	50	104	0	54	15521
2026-01-10 00:28:52.55	26.99	4.77	-41.8	-54.1	3.8	8.46e-01	0	50	104	0	54	15485
2026-01-10 00:28:53.56	27.06	4.83	-41.8	-54.1	3.8	8.47e-01	0	50	104	0	54	15551
2026-01-10 00:28:54.57	27.14	4.89	-41.8	-54.1	3.8	8.46e-01	0	50	104	0	54	15499
2026-01-10 00:28:55.58	27.21	4.95	-41.8	-54.1	3.8	8.46e-01	0	50	104	0	54	15491
2026-01-10 00:28:56.59	27.28	5.02	-41.8	-54.1	3.8	8.45e-01	0	50	104	0	54	15481
2026-01-10 00:28:57.60	27.36	5.08	-41.8	-54.1	3.8	8.44e-01	0	50	104	0	54	15543
2026-01-10 00:28:58.61	27.43	5.14	-41.8	-54.1	3.8	8.46e-01	0	50	104	0	54	15465
2026-01-10 00:28:59.61	27.51	5.20	-41.8	-54.1	3.8	8.45e-01	0	50	104	0	54	15533
2026-01-10 00:29:00.62	27.59	5.27	-41.8	-54.1	3.8	8.46e-01	0	50	104	0	54	15491
2026-01-10 00:29:01.63	27.66	5.33	-41.8	-54.1	3.8	8.46e-01	0	50	104	0	54	15489
2026-01-10 00:29:02.64	27.74	5.39	-41.8	-54.1	3.8	8.46e-01	0	50	104	0	54	15452
2026-01-10 00:29:03.65	27.81	5.46	-41.8	-54.1	3.8	8.46e-01	0	50	104	0	54	15511
2026-01-10 00:29:04.66	27.89	5.52	-41.8	-54.1	3.8	8.46e-01	0	50	104	0	54	15499
2026-01-10 00:29:05.67	27.97	5.58	-41.8	-54.1	3.8	8.47e-01	0	50	104	0	54	15504
2026-01-10 00:29:06.68	28.05	5.65	-41.8	-54.1	3.8	8.47e-01	0	50	104	0	54	15518
2026-01-10 00:29:07.69	28.12	5.71	-41.8	-54.1	3.8	8.45e-01	0	51	104	0	54	15493
2026-01-10 00:29:08.70	28.20	5.78	-41.8	-54.1	3.8	8.46e-01	0	51	104	0	54	15467
2026-01-10 00:29:09.71	28.28	5.84	-41.8	-54.1	3.8	8.47e-01	0	51	104	0	54	15470
2026-01-10 00:29:10.72	28.36	5.90	-41.8	-54.1	3.8	8.47e-01	0	51	104	0	54	15505
2026-01-10 00:29:11.72	28.44	5.97	-41.8	-54.1	3.8	8.45e-01	0	51	104	0	54	15438
2026-01-10 00:29:12.73	28.52	6.03	-41.8	-54.1	3.8	8.46e-01	0	51	104	0	54	15455
2026-01-10 00:29:13.74	28.60	6.10	-41.8	-54.1	3.8	8.46e-01	0	51	104	0	54	15492
2026-01-10 00:29:14.75	28.68	6.16	-41.8	-54.1	3.8	8.46e-01	0	51	104	0	54	15414
2026-01-10 00:29:15.76	28.76	6.23	-41.8	-54.1	3.8	8.47e-01	0	51	104	0	54	15422
2026-01-10 00:29:16.77	28.84	6.29	-41.8	-54.1	3.8	8.46e-01	0	51	104	0	54	15432
2026-01-10 00:29:17.77	28.92	6.36	-41.8	-54.1	3.8	8.46e-01	0	51	104	0	54	15419
2026-01-10 00:29:18.78	29.00	6.42	-41.8	-54.0	3.8	8.46e-01	0	51	104	0	54	15353
2026-01-10 00:29:19.79	29.08	6.49	-41.8	-53.9	3.8	8.46e-01	0	51	104	0	54	15114
2026-01-10 00:29:20.80	29.17	6.55	-41.7	-53.7	3.8	8.47e-01	0	51	104	0	54	14774
2026-01-10 00:29:21.81	29.25	6.62	-41.7	-53.7	3.8	8.45e-01	0	51	104	0	54	14755
2026-01-10 00:29:22.82	29.33	6.68	-41.7	-53.6	3.8	8.46e-01	0	51	104	0	54	14640
2026-01-10 00:29:23.83	29.41	6.75	-41.7	-53.3	3.8	8.46e-01	0	51	104	0	54	14088
2026-01-10 00:29:24.84	29.50	6.81	-41.7	-52.8	3.8	8.46e-01	0	51	104	0	54	13390
2026-01-10 00:29:25.85	29.58	6.88	-41.7	-52.8	3.8	8.45e-01	0	51	104	0	54	13290
2026-01-10 00:29:26.86	29.67	6.95	-41.6	-52.0	3.8	8.46e-01	0	51	104	0	54	12153
2026-01-10 00:29:27.87	29.75	7.01	-41.5	-51.5	4.0	8.45e-01	0	51	104	0	54	11443
2026-01-10 00:29:28.88	29.84	7.08	-41.4	-50.2	4.3	8.35e-01	0	51	0	0	54	9942
2026-01-10 00:29:29.89	29.92	7.14	-41.5	-50.9	4.1	8.40e-01	0	51	0	0	54	10723
2026-01-10 00:29:30.89	30.01	7.21	-41.3	-49.8	4.4	8.29e-01	0	51	0	0	54	9393
2026-01-10 00:29:31.90	30.09	7.28	-41.6	-52.1	3.8	8.45e-01	0	52	104	0	54	12312
2026-01-10 00:29:32.91	30.18	7.34	-41.5	-51.6	3.9	8.45e-01	0	51	104	0	54	11629
2026-01-10 00:29:33.92	30.27	7.41	-41.6	-51.8	3.8	8.43e-01	0	51	104	0	54	11887
2026-01-10 00:29:34.93	30.35	7.48	-41.4	-50.4	4.2	8.43e-01	0	52	104	0	54	10066
2026-01-10 00:29:35.94	30.44	7.55	-40.8	-47.3	5.8	6.77e-01	0	52	0	0	53	7479
2026-01-10 00:29:36.95	30.53	7.61	-40.3	-45.5	7.3	1.82e-01	0	52	0	5242880	52	6453
2026-01-10 00:29:37.96	30.62	7.68	-40.1	-44.9	8.0	9.35e-02	0	52	0	11534336	51	6357
2026-01-10 00:29:38.96	30.71	7.75	-39.4	-43.3	9.6	2.78e-02	0	52	0	16777216	50	5643
2026-01-10 00:29:39.97	30.80	7.82	-39.0	-42.5	10.4	6.39e-03	0	52	0	23068672	50	5139
2026-01-10 00:29:40.98	30.89	7.88	-38.6	-41.9	11.0	2.30e-03	0	52	0	28311552	49	5080
2026-01-10 00:29:41.99	30.98	7.95	-38.5	-41.6	11.4	1.75e-03	0	52	0	33554432	48	5204
2026-01-10 00:29:43.00	31.07	8.02	-38.5	-41.8	11.2	1.66e-03	0	52	0	39845888	48	5287
2026-01-10 00:29:44.02	31.16	8.09	-41.2	-46.6	6.8	5.93e-03	0	52	0	45088768	53	6941
2026-01-10 00:29:45.03	31.25	8.16	-40.2	-51.4	3.8	5.72e-01	0	52	104	49283072	51	13545
2026-01-10 00:29:46.03	31.34	8.22	-39.9	-43.5	10.1	2.88e-04	0	52	0	51380224	50	5723
2026-01-10 00:29:47.05	31.43	8.29	-42.0	-49.4	4.8	5.33e-01	0	52	0	55574528	54	9017
2026-01-10 00:29:48.06	31.53	8.36	-37.9	-40.5	12.8	1.25e-05	0	52	0	60817408	46	5132
2026-01-10 00:29:49.07	31.62	8.43	-37.4	-39.9	13.5	2.97e-05	0	52	0	67108864	46	4760
2026-01-10 00:29:50.08	31.71	8.50	-37.3	-39.6	13.9	9.10e-06	0	52	0	72351744	46	4627
2026-01-10 00:29:51.08	31.80	8.57	-37.6	-39.9	13.6	1.02e-05	0	52	0	78643200	46	4792
2026-01-10 00:29:52.09	31.90	8.64	-37.5	-39.8	13.7	1.25e-05	0	52	0	83886080	46	4716
2026-01-10 00:29:53.10	31.99	8.71	-37.4	-39.7	13.8	4.50e-06	0	52	0	89128960	46	4666
2026-01-10 00:29:54.11	32.09	8.78	-37.4	-39.6	13.9	4.50e-06	0	52	0	95420416	46	4608
2026-01-10 00:29:55.11	32.18	8.85	-37.4	-39.6	14.0	3.40e-06	0	52	0	100663296	46	4607
2026-01-10 00:29:56.12	32.28	8.92	-37.4	-39.6	13.9	5.70e-06	0	52	0	106954752	46	4647
2026-01-10 00:29:57.13	32.37	8.98	-37.3	-39.4	14.1	1.10e-06	0	52	0	112197632	46	4522
2026-01-10 00:29:58.13	32.47	9.05	-37.3	-39.5	14.1	5.70e-06	0	52	0	117440512	46	4563
2026-01-10 00:29:59.14	32.57	9.12	-37.5	-39.7	13.9	3.40e-06	0	52	0	123731968	46	4677
2026-01-10 00:30:00.15	32.67	9.19	-37.3	-39.4	14.1	3.40e-06	0	52	0	128974848	46	4545
2026-01-10 00:30:01.15	32.76	9.26	-37.4	-39.6	14.0	4.50e-06	0	53	0	135266304	46	4634
2026-01-10 00:30:02.16	32.86	9.33	-37.3	-39.5	14.1	3.40e-06	0	52	0	140509184	46	4576
2026-01-10 00:30:03.17	32.96	9.41	-37.4	-39.6	14.0	1.10e-06	0	52	0	146800640	46	4636
2026-01-10 00:30:04.17	33.06	9.48	-37.3	-39.4	14.3	2.20e-06	0	53	0	152043520	46	4512
2026-01-10 00:30:05.18	33.16	9.55	-37.5	-39.6	14.1	6.80e-06	0	53	0	157286400	46	4623
2026-01-10 00:30:06.19	33.26	9.62	-37.4	-39.5	14.2	1.10e-06	0	53	0	163577856	46	4570
2026-01-10 00:30:07.19	33.36	9.69	-37.5	-39.6	14.1	6.80e-06	0	52	0	168820736	46	4632
2026-01-10 00:30:08.20	33.46	9.76	-37.4	-39.4	14.4	3.40e-06	0	53	0	174063616	46	4538
2026-01-10 00:30:09.20	33.56	9.83	-37.6	-39.7	14.1	1.10e-06	0	53	0	180355072	46	4663
2026-01-10 00:30:10.22	33.66	9.90	-37.5	-39.6	14.2	1.10e-06	0	53	0	185597952	46	4625
2026-01-10 00:30:11.22	33.77	9.97	-37.6	-39.6	14.2	2.20e-06	0	53	0	191889408	46	4648
2026-01-10 00:30:12.23	33.87	10.05	-37.8	-39.9	13.9	6.80e-06	0	53	0	197132288	46	4780
2026-01-10 00:30:13.24	33.97	10.12	-37.7	-39.8	14.0	5.70e-06	0	53	0	202375168	46	4745
2026-01-10 00:30:14.25	34.08	10.19	-37.6	-39.6	14.3	5.70e-06	0	53	0	208666624	46	4619
2026-01-10 00:30:15.26	34.18	10.26	-37.7	-39.8	14.2	0.00e+00	0	53	0	213909504	46	4714
2026-01-10 00:30:16.27	34.29	10.33	-38.0	-40.2	13.8	9.10e-06	0	53	0	220200960	46	4934
2026-01-10 00:30:17.28	34.39	10.41	-37.6	-39.7	14.3	2.20e-06	0	53	0	225443840	46	4658
2026-01-10 00:30:18.29	34.50	10.48	-37.6	-39.6	14.4	1.10e-06	0	53	0	231735296	46	4620
2026-01-10 00:30:19.29	34.61	10.55	-37.7	-39.7	14.2	1.10e-06	0	53	0	236978176	46	4704
2026-01-10 00:30:20.30	34.71	10.62	-37.6	-39.6	14.3	2.20e-06	0	53	0	242221056	46	4634
2026-01-10 00:30:21.31	34.82	10.70	-37.3	-39.2	14.8	0.00e+00	0	53	0	248512512	46	4421
2026-01-10 00:30:22.32	34.93	10.77	-37.2	-39.1	14.9	0.00e+00	0	53	0	253755392	46	4361
2026-01-10 00:30:23.33	35.04	10.84	-37.2	-39.1	14.9	0.00e+00	0	53	0	260046848	46	4377
2026-01-10 00:30:24.34	35.15	10.92	-37.3	-39.2	14.8	1.10e-06	0	53	0	265289728	46	4435
2026-01-10 00:30:25.35	35.26	10.99	-37.4	-39.3	14.7	0.00e+00	0	53	0	270532608	46	4488
2026-01-10 00:30:26.36	35.37	11.06	-37.3	-39.2	14.9	2.20e-06	0	53	0	276824064	46	4415
2026-01-10 00:30:27.36	35.48	11.14	-37.4	-39.3	14.8	0.00e+00	0	53	0	282066944	46	4464
2026-01-10 00:30:28.37	35.59	11.21	-37.4	-39.4	14.7	1.10e-06	0	53	0	288358400	46	4496
2026-01-10 00:30:29.38	35.70	11.28	-37.3	-39.2	14.9	0.00e+00	0	53	0	293601280	46	4429
2026-01-10 00:30:30.39	35.81	11.36	-37.2	-39.1	15.0	0.00e+00	0	53	0	298844160	46	4354
2026-01-10 00:30:31.40	35.93	11.43	-37.1	-39.0	15.2	0.00e+00	0	53	0	305135616	46	4295
2026-01-10 00:30:32.40	36.04	11.51	-37.1	-38.9	15.2	0.00e+00	0	53	0	310378496	46	4283
2026-01-10 00:30:33.41	36.15	11.58	-37.3	-39.1	15.0	0.00e+00	0	53	0	316669952	46	4359
2026-01-10 00:30:34.42	36.27	11.66	-37.1	-38.9	15.2	0.00e+00	0	53	0	321912832	46	4276
2026-01-10 00:30:35.43	36.38	11.73	-37.3	-39.1	15.0	0.00e+00	0	53	0	328204288	46	4388
2026-01-10 00:30:36.44	36.50	11.81	-37.1	-38.9	15.3	0.00e+00	0	53	0	333447168	46	4259
2026-01-10 00:30:37.45	36.62	11.88	-37.1	-38.8	15.3	0.00e+00	0	54	0	338690048	46	4227
2026-01-10 00:30:38.46	36.73	11.96	-37.0	-38.8	15.4	0.00e+00	0	53	0	344981504	46	4222
2026-01-10 00:30:39.47	36.85	12.03	-36.9	-38.6	15.6	0.00e+00	0	53	0	350224384	45	4374
2026-01-10 00:30:40.48	36.97	12.11	-37.0	-38.7	15.4	0.00e+00	0	53	0	356515840	45	4425
2026-01-10 00:30:41.49	37.09	12.18	-37.0	-38.7	15.5	1.10e-06	0	54	0	361758720	45	4410
2026-01-10 00:30:42.50	37.21	12.26	-37.1	-38.8	15.4	0.00e+00	0	53	0	367001600	45	4470
2026-01-10 00:30:43.51	37.33	12.33	-36.9	-38.7	15.5	0.00e+00	0	53	0	373293056	45	4407
2026-01-10 00:30:44.52	37.45	12.41	-37.0	-38.7	15.5	0.00e+00	0	53	0	378535936	45	4433
2026-01-10 00:30:45.53	37.57	12.49	-37.0	-38.8	15.5	0.00e+00	0	54	0	384827392	45	4446
2026-01-10 00:30:46.53	37.69	12.56	-37.0	-38.8	15.4	0.00e+00	0	54	0	390070272	45	4463
2026-01-10 00:30:47.54	37.81	12.64	-37.0	-38.8	15.4	0.00e+00	0	54	0	395313152	45	4468
2026-01-10 00:30:48.55	37.93	12.72	-37.1	-38.8	15.4	0.00e+00	0	54	0	401604608	45	4488
2026-01-10 00:30:49.56	38.06	12.79	-37.0	-38.7	15.5	0.00e+00	0	53	0	406847488	45	4436
2026-01-10 00:30:50.56	38.18	12.87	-36.9	-38.7	15.6	0.00e+00	0	54	0	413138944	45	4403
2026-01-10 00:30:51.57	38.31	12.94	-36.8	-38.5	15.8	0.00e+00	0	54	0	418381824	45	4303
2026-01-10 00:30:52.58	38.43	13.02	-36.8	-38.5	15.8	0.00e+00	0	53	0	424673280	45	4299
2026-01-10 00:30:53.59	38.56	13.10	-36.7	-38.4	15.9	0.00e+00	0	54	0	429916160	45	4275
2026-01-10 00:30:54.59	38.68	13.18	-36.8	-38.5	15.8	0.00e+00	0	54	0	435159040	45	4308
2026-01-10 00:30:55.60	38.81	13.25	-36.9	-38.6	15.7	0.00e+00	0	54	0	441450496	45	4369
2026-01-10 00:30:56.61	38.94	13.33	-37.0	-38.7	15.6	0.00e+00	0	54	0	446693376	45	4428
2026-01-10 00:30:57.61	39.06	13.41	-37.0	-38.7	15.6	0.00e+00	0	54	0	452984832	45	4424
2026-01-10 00:30:58.62	39.19	13.48	-37.0	-38.8	15.5	0.00e+00	0	54	0	458227712	45	4454
2026-01-10 00:30:59.62	39.32	13.56	-37.0	-38.7	15.6	0.00e+00	0	54	0	463470592	45	4412
2026-01-10 00:31:00.63	39.45	13.64	-36.9	-38.6	15.7	0.00e+00	0	54	0	469762048	45	4359
2026-01-10 00:31:01.64	39.58	13.72	-36.8	-38.4	15.9	0.00e+00	0	54	0	475004928	45	4288
2026-01-10 00:31:02.65	39.72	13.80	-36.6	-38.2	16.1	0.00e+00	0	54	0	480247808	45	4169
2026-01-10 00:31:03.65	39.85	13.87	-36.6	-38.2	16.1	0.00e+00	0	54	0	486539264	45	4169
2026-01-10 00:31:04.66	39.98	13.95	-36.6	-38.2	16.1	0.00e+00	0	54	0	491782144	45	4165
2026-01-10 00:31:05.67	40.12	14.03	-36.5	-38.1	16.2	0.00e+00	0	54	0	498073600	45	4139
2026-01-10 00:31:06.67	40.25	14.11	-36.5	-38.1	16.2	0.00e+00	0	54	0	503316480	45	4145
2026-01-10 00:31:07.68	40.38	14.19	-36.5	-38.1	16.2	0.00e+00	0	54	0	509607936	44	4372
2026-01-10 00:31:08.69	40.52	14.27	-36.4	-38.0	16.3	0.00e+00	0	54	0	514850816	44	4329
2026-01-10 00:31:09.70	40.66	14.34	-36.5	-38.1	16.3	0.00e+00	0	54	0	520093696	44	4344
2026-01-10 00:31:10.71	40.79	14.42	-36.5	-38.1	16.2	0.00e+00	0	54	0	526385152	44	4377
2026-01-10 00:31:11.72	40.93	14.50	-36.4	-38.0	16.3	0.00e+00	0	54	0	531628032	44	4337
2026-01-10 00:31:12.73	41.07	14.58	-36.5	-38.1	16.3	0.00e+00	0	54	0	537919488	44	4363
2026-01-10 00:31:13.74	41.21	14.66	-36.4	-38.0	16.3	0.00e+00	0	54	0	543162368	44	4328
2026-01-10 00:31:14.75	41.35	14.74	-36.4	-37.9	16.4	0.00e+00	0	54	0	548405248	44	4286
2026-01-10 00:31:15.75	41.49	14.82	-36.4	-38.0	16.4	0.00e+00	0	54	0	554696704	44	4292
2026-01-10 00:31:16.76	41.63	14.90	-36.4	-37.9	16.4	0.00e+00	0	54	0	559939584	44	4277
2026-01-10 00:31:17.77	41.78	14.98	-36.3	-37.8	16.6	0.00e+00	0	54	0	566231040	44	4227
2026-01-10 00:31:18.78	41.92	15.06	-36.3	-37.8	16.5	0.00e+00	0	54	0	571473920	44	4235
2026-01-10 00:31:19.79	42.06	15.14	-36.3	-37.9	16.5	0.00e+00	0	54	0	576716800	44	4268
2026-01-10 00:31:20.79	42.21	15.22	-36.4	-38.0	16.4	0.00e+00	0	54	0	583008256	44	4298
2026-01-10 00:31:21.80	42.35	15.30	-36.4	-37.9	16.4	0.00e+00	0	54	0	588251136	44	4285
2026-01-10 00:31:22.80	42.50	15.38	-36.3	-37.9	16.5	0.00e+00	0	54	0	594542592	44	4248
2026-01-10 00:31:23.81	42.64	15.46	-36.2	-37.8	16.6	0.00e+00	0	54	0	599785472	44	4209
2026-01-10 00:31:24.82	42.79	15.54	-36.2	-37.7	16.7	0.00e+00	0	54	0	606076928	44	4176
2026-01-10 00:31:25.82	42.94	15.62	-36.1	-37.6	16.8	0.00e+00	0	54	0	611319808	44	4100
2026-01-10 00:31:26.83	43.09	15.70	-36.1	-37.6	16.8	0.00e+00	0	54	0	616562688	44	4113
2026-01-10 00:31:27.83	43.24	15.78	-36.0	-37.5	16.9	0.00e+00	0	54	0	622854144	44	4090
2026-01-10 00:31:28.84	43.39	15.86	-36.2	-37.7	16.7	0.00e+00	0	54	0	628097024	44	4165
2026-01-10 00:31:29.85	43.54	15.94	-36.2	-37.7	16.7	0.00e+00	0	54	0	633339904	44	4179
2026-01-10 00:31:30.85	43.69	16.02	-36.2	-37.7	16.7	0.00e+00	0	54	0	639631360	44	4173
2026-01-10 00:31:31.86	43.84	16.10	-36.2	-37.7	16.7	0.00e+00	0	54	0	644874240	44	4182
2026-01-10 00:31:32.87	44.00	16.19	-36.2	-37.8	16.7	0.00e+00	0	54	0	651165696	44	4194
2026-01-10 00:31:33.87	44.15	16.27	-36.2	-37.7	16.7	0.00e+00	0	54	0	656408576	44	4188
2026-01-10 00:31:34.88	44.31	16.35	-36.2	-37.7	16.7	0.00e+00	0	54	0	661651456	44	4191
2026-01-10 00:31:35.89	44.46	16.43	-36.2	-37.7	16.7	0.00e+00	0	54	0	667942912	44	4175
2026-01-10 00:31:36.89	44.62	16.51	-36.2	-37.7	16.8	0.00e+00	0	54	0	673185792	44	4172
2026-01-10 00:31:37.90	44.78	16.59	-36.0	-37.5	16.9	0.00e+00	0	54	0	679477248	44	4093
2026-01-10 00:31:38.91	44.94	16.67	-36.0	-37.5	16.9	0.00e+00	0	54	0	684720128	44	4081
2026-01-10 00:31:39.91	45.09	16.75	-35.8	-37.3	17.0	0.00e+00	0	54	0	691011584	43	4202
2026-01-10 00:31:40.92	45.26	16.84	-35.7	-37.2	17.1	0.00e+00	0	54	0	696254464	43	4169
2026-01-10 00:31:41.92	45.42	16.92	-35.8	-37.3	17.0	0.00e+00	0	54	0	701497344	43	4215
2026-01-10 00:31:42.93	45.58	17.00	-35.8	-37.3	17.0	0.00e+00	0	54	0	707788800	43	4224
2026-01-10 00:31:43.94	45.74	17.08	-35.8	-37.3	17.0	0.00e+00	0	54	0	713031680	43	4223
2026-01-10 00:31:44.94	45.90	17.16	-35.8	-37.3	17.1	0.00e+00	0	54	0	718274560	43	4203
2026-01-10 00:31:45.95	46.07	17.24	-35.8	-37.2	17.1	0.00e+00	0	54	0	724566016	43	4191
2026-01-10 00:31:46.95	46.23	17.33	-35.7	-37.2	17.2	0.00e+00	0	55	0	729808896	43	4156
2026-01-10 00:31:47.96	46.40	17.41	-35.7	-37.1	17.2	0.00e+00	0	55	0	736100352	43	4140
2026-01-10 00:31:48.97	46.57	17.49	-35.6	-37.0	17.3	0.00e+00	0	54	0	741343232	43	4094
2026-01-10 00:31:49.97	46.73	17.57	-35.6	-37.0	17.4	0.00e+00	0	54	0	746586112	43	4059
2026-01-10 00:31:50.99	46.91	17.65	-35.5	-36.9	17.4	0.00e+00	0	54	0	752877568	43	4030
2026-01-10 00:31:51.99	47.07	17.74	-35.4	-36.8	17.6	0.00e+00	0	54	0	758120448	42	4207
2026-01-10 00:31:53.00	47.25	17.82	-35.4	-36.8	17.6	0.00e+00	0	54	0	764411904	42	4219
2026-01-10 00:31:54.00	47.42	17.90	-35.5	-36.9	17.4	0.00e+00	0	55	0	769654784	42	4287
2026-01-10 00:31:55.01	47.59	17.98	-35.5	-36.9	17.5	0.00e+00	0	54	0	775946240	42	4287
2026-01-10 00:31:56.02	47.76	18.06	-35.5	-36.9	17.5	0.00e+00	0	54	0	781189120	42	4271
2026-01-10 00:31:57.02	47.94	18.15	-35.6	-37.0	17.4	0.00e+00	0	55	0	786432000	42	4327
2026-01-10 00:31:58.03	48.11	18.23	-35.6	-37.0	17.4	0.00e+00	0	55	0	792723456	42	4313
2026-01-10 00:31:59.03	48.29	18.31	-35.6	-37.0	17.4	0.00e+00	0	55	0	797966336	42	4305
2026-01-10 00:32:00.04	48.47	18.39	-35.6	-37.0	17.4	0.00e+00	0	55	0	803209216	42	4327
2026-01-10 00:32:01.05	48.64	18.48	-35.5	-36.9	17.5	0.00e+00	0	55	0	809500672	42	4272
2026-01-10 00:32:02.06	48.82	18.56	-35.5	-36.9	17.5	0.00e+00	0	55	0	814743552	42	4257
2026-01-10 00:32:03.06	49.00	18.64	-35.4	-36.8	17.7	0.00e+00	0	55	0	821035008	42	4196
2026-01-10 00:32:04.07	49.18	18.72	-35.3	-36.7	17.7	0.00e+00	0	55	0	826277888	42	4182
2026-01-10 00:32:05.08	49.37	18.81	-35.3	-36.7	17.8	0.00e+00	0	55	0	831520768	42	4173
2026-01-10 00:32:06.09	49.55	18.89	-35.2	-36.6	17.9	0.00e+00	0	55	0	837812224	42	4122
2026-01-10 00:32:07.09	49.73	18.97	-35.3	-36.6	17.8	0.00e+00	0	55	0	843055104	42	4144
2026-01-10 00:32:08.10	49.92	19.05	-35.3	-36.7	17.8	0.00e+00	0	55	0	849346560	42	4148
2026-01-10 00:32:09.11	50.10	19.14	-35.2	-36.6	17.9	0.00e+00	0	54	0	854589440	42	4121
2026-01-10 00:32:10.12	50.29	19.22	-35.2	-36.6	17.8	0.00e+00	0	55	0	860880896	42	4122
2026-01-10 00:32:11.13	50.48	19.30	-35.2	-36.6	17.8	0.00e+00	0	55	0	866123776	42	4128
2026-01-10 00:32:12.14	50.67	19.38	-35.3	-36.7	17.8	0.00e+00	0	55	0	871366656	42	4164
2026-01-10 00:32:13.15	50.86	19.47	-35.4	-36.8	17.7	0.00e+00	0	55	0	877658112	42	4194
2026-01-10 00:32:14.15	51.05	19.55	-35.4	-36.7	17.7	0.00e+00	0	55	0	882900992	42	4184
2026-01-10 00:32:15.17	51.24	19.63	-35.3	-36.7	17.7	0.00e+00	0	55	0	889192448	42	4173
2026-01-10 00:32:16.18	51.44	19.71	-35.3	-36.6	17.8	0.00e+00	0	55	0	894435328	42	4134
2026-01-10 00:32:17.18	51.63	19.79	-35.2	-36.5	17.9	0.00e+00	0	55	0	899678208	42	4091
2026-01-10 00:32:18.19	51.83	19.88	-35.2	-36.5	18.0	0.00e+00	0	55	0	905969664	42	4074
2026-01-10 00:32:19.20	52.02	19.96	-35.2	-36.5	17.9	0.00e+00	0	55	0	911212544	42	4082
2026-01-10 00:32:20.20	52.22	20.04	-35.1	-36.4	18.0	0.00e+00	0	55	0	916455424	42	4031
2026-01-10 00:32:21.21	52.42	20.12	-35.1	-36.4	18.0	0.00e+00	0	55	0	922746880	42	4042
2026-01-10 00:32:22.22	52.62	20.20	-35.1	-36.5	18.0	0.00e+00	0	55	0	927989760	42	4052
2026-01-10 00:32:23.23	52.82	20.29	-35.1	-36.4	18.0	0.00e+00	0	55	0	934281216	42	4043
2026-01-10 00:32:24.24	53.02	20.37	-35.0	-36.3	18.1	0.00e+00	0	55	0	939524096	42	4002
2026-01-10 00:32:25.25	53.22	20.45	-35.1	-36.4	18.0	0.00e+00	0	55	0	945815552	42	4042
2026-01-10 00:32:26.26	53.42	20.53	-35.1	-36.4	18.0	0.00e+00	0	55	0	951058432	42	4049
2026-01-10 00:32:27.26	53.63	20.61	-35.3	-36.6	17.8	0.00e+00	0	55	0	957349888	42	4134
2026-01-10 00:32:28.28	53.84	20.70	-35.3	-36.7	17.7	0.00e+00	0	55	0	962592768	42	4178
2026-01-10 00:32:29.28	54.04	20.78	-35.2	-36.5	17.9	0.00e+00	0	55	0	967835648	42	4098
2026-01-10 00:32:30.29	54.25	20.86	-35.1	-36.5	17.9	0.00e+00	0	55	0	974127104	42	4072
2026-01-10 00:32:31.30	54.46	20.94	-35.0	-36.3	18.1	0.00e+00	0	55	0	979369984	41	4219
2026-01-10 00:32:32.30	54.67	21.02	-34.8	-36.1	18.4	0.00e+00	0	55	0	984612864	41	4101
2026-01-10 00:32:33.31	54.88	21.10	-34.7	-35.9	18.5	0.00e+00	0	55	0	990904320	41	4043
2026-01-10 00:32:34.32	55.09	21.18	-34.6	-35.8	18.6	0.00e+00	0	55	0	996147200	41	3989
2026-01-10 00:32:35.33	55.30	21.26	-34.6	-35.9	18.5	0.00e+00	0	55	0	1002438656	41	4033
2026-01-10 00:32:36.34	55.52	21.34	-34.7	-36.0	18.4	0.00e+00	0	55	0	1007681536	41	4086
2026-01-10 00:32:37.34	55.73	21.42	-34.9	-36.2	18.2	0.00e+00	0	55	0	1012924416	41	4158
2026-01-10 00:32:38.35	55.95	21.50	-34.8	-36.1	18.3	0.00e+00	0	55	0	1019215872	41	4128
2026-01-10 00:32:39.36	56.17	21.58	-34.7	-36.0	18.4	0.00e+00	0	55	0	1024458752	41	4087
2026-01-10 00:32:40.37	56.39	21.66	-34.6	-35.9	18.5	0.00e+00	0	55	0	1030750208	41	4037
2026-01-10 00:32:41.38	56.61	21.74	-34.7	-36.0	18.4	0.00e+00	0	55	0	1035993088	41	4071
2026-01-10 00:32:42.38	56.82	21.82	-34.7	-36.0	18.4	0.00e+00	0	55	0	1042284544	41	4089
2026-01-10 00:32:43.39	57.05	21.90	-34.8	-36.1	18.4	0.00e+00	0	55	0	1047527424	41	4122
2026-01-10 00:32:44.40	57.27	21.98	-34.8	-36.1	18.4	0.00e+00	0	55	0	1052770304	41	4132
2026-01-10 00:32:45.40	57.49	22.06	-34.8	-36.1	18.4	0.00e+00	0	55	0	1059061760	41	4112
2026-01-10 00:32:46.41	57.72	22.14	-34.8	-36.2	17.9	0.00e+00	0	55	0	1064304640	41	4187
2026-01-10 00:32:47.42	57.95	22.22	-34.8	-36.3	17.8	0.00e+00	0	55	0	1070596096	41	4236
2026-01-10 00:32:48.42	58.17	22.29	-34.8	-36.3	17.8	0.00e+00	0	55	0	1075838976	41	4233
2026-01-10 00:32:49.43	58.40	22.37	-34.8	-36.3	17.8	0.00e+00	0	55	0	1081081856	41	4221
2026-01-10 00:32:50.44	58.63	22.45	-34.7	-36.2	17.9	0.00e+00	0	55	0	1087373312	41	4155
2026-01-10 00:32:51.44	58.86	22.53	-34.5	-35.9	18.2	0.00e+00	0	55	0	1092616192	41	4046
2026-01-10 00:32:52.45	59.09	22.61	-34.3	-35.7	18.4	0.00e+00	0	55	0	1097859072	40	4179
2026-01-10 00:32:53.46	59.33	22.68	-34.2	-35.6	18.6	0.00e+00	0	55	0	1104150528	40	4099
2026-01-10 00:32:54.46	59.56	22.76	-34.2	-35.5	18.6	0.00e+00	0	55	0	1109393408	40	4093
2026-01-10 00:32:55.47	59.79	22.84	-34.4	-35.8	18.4	0.00e+00	0	55	0	1115684864	40	4203
2026-01-10 00:32:56.48	60.03	22.91	-34.6	-36.0	18.1	0.00e+00	0	55	0	1120927744	40	4323
2026-01-10 00:32:57.48	60.27	22.99	-34.6	-36.1	18.1	0.00e+00	0	55	0	1127219200	40	4357
2026-01-10 00:32:58.49	60.51	23.07	-34.6	-36.0	18.1	0.00e+00	0	55	0	1132462080	40	4326
2026-01-10 00:32:59.50	60.75	23.14	-34.5	-35.9	18.2	0.00e+00	0	55	0	1137704960	40	4284
2026-01-10 00:33:00.50	60.99	23.22	-34.4	-35.8	18.4	0.00e+00	0	55	0	1143996416	40	4206
2026-01-10 00:33:01.51	61.23	23.29	-34.1	-35.4	18.7	0.00e+00	0	55	0	1149239296	40	4046
2026-01-10 00:33:02.52	61.47	23.37	-34.0	-35.3	18.8	0.00e+00	0	55	0	1155530752	40	3993
2026-01-10 00:33:03.52	61.72	23.44	-34.1	-35.4	18.8	0.00e+00	0	55	0	1160773632	40	4019
2026-01-10 00:33:04.53	61.96	23.51	-34.1	-35.4	18.7	0.00e+00	0	55	0	1166016512	40	4051
2026-01-10 00:33:05.54	62.21	23.59	-34.2	-35.6	18.6	0.00e+00	0	55	0	1172307968	40	4110
2026-01-10 00:33:06.55	62.46	23.66	-34.3	-35.7	18.5	0.00e+00	0	55	0	1177550848	40	4165
2026-01-10 00:33:07.56	62.71	23.74	-34.3	-35.7	18.5	0.00e+00	0	55	0	1183842304	40	4160
2026-01-10 00:33:08.57	62.96	23.81	-34.2	-35.5	18.6	0.00e+00	0	55	0	1189085184	40	4085
2026-01-10 00:33:09.57	63.21	23.88	-34.0	-35.4	18.8	0.00e+00	0	55	0	1194328064	40	4021
2026-01-10 00:33:10.58	63.46	23.95	-34.0	-35.3	18.8	0.00e+00	0	55	0	1200619520	40	3988
2026-01-10 00:33:11.59	63.72	24.02	-34.0	-35.4	18.9	0.00e+00	0	55	0	1205862400	39	4246
2026-01-10 00:33:12.60	63.97	24.10	-34.1	-35.4	18.8	0.00e+00	0	55	0	1212153856	39	4272
2026-01-10 00:33:13.60	64.23	24.17	-34.1	-35.5	18.7	0.00e+00	0	55	0	1217396736	39	4307
2026-01-10 00:33:14.61	64.48	24.24	-34.2	-35.5	18.7	0.00e+00	0	55	0	1223688192	39	4332
2026-01-10 00:33:15.62	64.74	24.31	-34.2	-35.6	18.6	0.00e+00	0	55	0	1228931072	39	4366
2026-01-10 00:33:16.64	65.00	24.38	-34.2	-35.5	18.7	0.00e+00	0	55	0	1234173952	39	4331
2026-01-10 00:33:17.64	65.26	24.45	-34.1	-35.4	18.8	0.00e+00	0	55	0	1240465408	39	4280
2026-01-10 00:33:18.65	65.53	24.52	-34.1	-35.5	18.8	0.00e+00	0	55	0	1245708288	39	4293
2026-01-10 00:33:19.66	65.79	24.58	-34.1	-35.5	18.7	0.00e+00	0	55	0	1251999744	39	4309
2026-01-10 00:33:20.67	66.05	24.65	-34.1	-35.5	18.8	0.00e+00	0	55	0	1257242624	39	4295
2026-01-10 00:33:21.68	66.32	24.72	-34.1	-35.5	18.8	0.00e+00	0	55	0	1262485504	39	4300
2026-01-10 00:33:22.69	66.59	24.79	-34.1	-35.4	18.8	0.00e+00	0	55	0	1268776960	39	4272
2026-01-10 00:33:23.69	66.85	24.85	-34.0	-35.3	18.9	0.00e+00	0	55	0	1274019840	39	4235
2026-01-10 00:33:24.70	67.12	24.92	-34.0	-35.3	18.9	0.00e+00	0	55	0	1279262720	39	4226
2026-01-10 00:33:25.71	67.39	24.99	-34.1	-35.4	18.8	0.00e+00	0	55	0	1285554176	39	4281
2026-01-10 00:33:26.72	67.66	25.05	-34.1	-35.5	18.7	0.00e+00	0	55	0	1290797056	39	4306
2026-01-10 00:33:27.73	67.93	25.12	-34.2	-35.5	18.7	0.00e+00	0	55	0	1297088512	39	4339
2026-01-10 00:33:28.73	68.20	25.18	-34.1	-35.5	18.8	0.00e+00	0	55	0	1302331392	39	4297
2026-01-10 00:33:29.74	68.48	25.24	-34.2	-35.6	18.6	0.00e+00	0	55	0	1308622848	39	4341
2026-01-10 00:33:30.75	68.75	25.31	-34.1	-35.5	18.7	0.00e+00	0	55	0	1313865728	39	4308
2026-01-10 00:33:31.76	69.03	25.37	-34.1	-35.5	18.7	0.00e+00	0	55	0	1319108608	39	4316
2026-01-10 00:33:32.76	69.31	25.43	-34.1	-35.5	18.7	0.00e+00	0	55	0	1325400064	39	4317
2026-01-10 00:33:33.77	69.59	25.49	-34.0	-35.3	18.9	0.00e+00	0	55	0	1330642944	39	4210
2026-01-10 00:33:34.78	69.87	25.55	-34.0	-35.3	18.9	0.00e+00	0	55	0	1336934400	39	4205
2026-01-10 00:33:35.79	70.15	25.61	-33.8	-35.1	19.0	0.00e+00	0	55	0	1342177280	39	4138
2026-01-10 00:33:36.79	70.43	25.67	-33.8	-35.1	19.1	0.00e+00	0	55	0	1347420160	39	4104
2026-01-10 00:33:37.80	70.71	25.73	-33.8	-35.1	19.1	0.00e+00	0	55	0	1353711616	39	4112
2026-01-10 00:33:38.81	70.99	25.79	-33.8	-35.1	19.1	0.00e+00	0	55	0	1358954496	39	4104
2026-01-10 00:33:39.82	71.28	25.85	-33.9	-35.2	19.0	0.00e+00	0	55	0	1365245952	39	4165
2026-01-10 00:33:40.82	71.56	25.91	-34.0	-35.3	18.9	0.00e+00	0	55	0	1370488832	39	4212
2026-01-10 00:33:41.83	71.85	25.96	-33.9	-35.2	18.9	0.00e+00	0	55	0	1375731712	39	4184
2026-01-10 00:33:42.83	72.13	26.02	-33.9	-35.2	19.0	0.00e+00	0	55	0	1382023168	39	4163
2026-01-10 00:33:43.84	72.42	26.07	-33.8	-35.1	19.0	0.00e+00	0	55	0	1387266048	39	4134
2026-01-10 00:33:44.85	72.71	26.13	-33.9	-35.2	19.0	0.00e+00	0	55	0	1393557504	39	4166
2026-01-10 00:33:45.86	73.01	26.18	-33.9	-35.2	18.9	0.00e+00	0	55	0	1398800384	39	4187
2026-01-10 00:33:46.87	73.30	26.24	-33.9	-35.3	18.9	0.00e+00	0	55	0	1405091840	39	4196
2026-01-10 00:33:47.87	73.59	26.29	-33.9	-35.2	18.9	0.00e+00	0	55	0	1410334720	39	4186
2026-01-10 00:33:48.88	73.88	26.34	-33.9	-35.2	18.9	0.00e+00	0	55	0	1415577600	39	4186
2026-01-10 00:33:49.89	74.18	26.39	-33.9	-35.2	18.9	0.00e+00	0	55	0	1421869056	39	4189
2026-01-10 00:33:50.90	74.47	26.44	-33.9	-35.2	18.9	0.00e+00	0	55	0	1427111936	39	4189
2026-01-10 00:33:51.90	74.77	26.49	-33.9	-35.2	19.0	0.00e+00	0	55	0	1432354816	39	4156
2026-01-10 00:33:52.91	75.07	26.54	-33.9	-35.2	18.9	0.00e+00	0	56	0	1438646272	39	4182
2026-01-10 00:33:53.92	75.36	26.59	-33.8	-35.2	19.0	0.00e+00	0	56	0	1443889152	39	4150
2026-01-10 00:33:54.92	75.66	26.64	-33.9	-35.2	19.0	0.00e+00	0	55	0	1450180608	39	4177
2026-01-10 00:33:55.93	75.96	26.69	-33.8	-35.1	19.0	0.00e+00	0	55	0	1455423488	39	4140
2026-01-10 00:33:56.94	76.26	26.73	-33.8	-35.1	19.0	0.00e+00	0	55	0	1460666368	39	4140
2026-01-10 00:33:57.95	76.57	26.78	-33.9	-35.2	19.0	0.00e+00	0	55	0	1466957824	39	4157
2026-01-10 00:33:58.96	76.87	26.83	-33.9	-35.3	18.9	0.00e+00	0	55	0	1472200704	39	4198
2026-01-10 00:33:59.97	77.17	26.87	-34.0	-35.4	18.8	0.00e+00	0	55	0	1478492160	39	4255
2026-01-10 00:34:00.97	77.47	26.91	-34.0	-35.4	18.8	0.00e+00	0	55	0	1483735040	39	4252
2026-01-10 00:34:01.99	77.78	26.96	-33.8	-35.2	19.0	0.00e+00	0	55	0	1490026496	39	4152
2026-01-10 00:34:02.99	78.09	27.00	-33.8	-35.1	19.1	0.00e+00	0	55	0	1495269376	39	4103
2026-01-10 00:34:04.00	78.39	27.04	-33.7	-35.0	19.1	0.00e+00	0	55	0	1500512256	39	4086
2026-01-10 00:34:05.01	78.70	27.08	-33.8	-35.1	19.1	0.00e+00	0	55	0	1506803712	39	4129
2026-01-10 00:34:06.03	79.01	27.12	-33.8	-35.1	19.1	0.00e+00	0	55	0	1512046592	39	4107
2026-01-10 00:34:07.03	79.32	27.16	-33.6	-34.9	19.2	0.00e+00	0	56	0	1518338048	39	4051
2026-01-10 00:34:08.04	79.63	27.19	-33.6	-34.9	19.3	0.00e+00	0	56	0	1523580928	39	4024
2026-01-10 00:34:09.05	79.94	27.23	-33.5	-34.8	19.4	0.00e+00	0	55	0	1528823808	39	3980
2026-01-10 00:34:10.06	80.25	27.27	-33.5	-34.8	19.3	0.00e+00	0	55	0	1535115264	39	3992
2026-01-10 00:34:11.07	80.57	27.30	-33.6	-34.9	19.3	0.00e+00	0	56	0	1540358144	39	4031
2026-01-10 00:34:12.08	80.88	27.34	-33.5	-34.7	19.4	0.00e+00	0	56	0	1546649600	39	3947
2026-01-10 00:34:13.08	81.19	27.37	-33.4	-34.6	19.5	0.00e+00	0	55	0	1551892480	38	4140
2026-01-10 00:34:14.09	81.51	27.40	-33.4	-34.7	19.5	0.00e+00	0	56	0	1558183936	38	4149
2026-01-10 00:34:15.10	81.82	27.44	-33.6	-34.9	19.3	0.00e+00	0	55	0	1563426816	38	4243
2026-01-10 00:34:16.11	82.14	27.47	-33.8	-35.1	19.1	0.00e+00	0	56	0	1568669696	38	4359
2026-01-10 00:34:17.11	82.45	27.50	-33.9	-35.3	18.9	0.00e+00	0	56	0	1574961152	38	4459
2026-01-10 00:34:18.12	82.77	27.53	-33.9	-35.2	19.0	0.00e+00	0	55	0	1580204032	38	4416
2026-01-10 00:34:19.13	83.08	27.55	-33.8	-35.1	19.1	0.00e+00	0	55	0	1586495488	38	4356
2026-01-10 00:34:20.13	83.40	27.58	-33.7	-34.9	19.2	0.00e+00	0	56	0	1591738368	38	4290
2026-01-10 00:34:21.14	83.72	27.61	-33.8	-35.1	19.1	0.00e+00	0	56	0	1596981248	38	4374
2026-01-10 00:34:22.15	84.04	27.63	-33.8	-35.2	19.1	0.00e+00	0	56	0	1603272704	38	4398
2026-01-10 00:34:23.15	84.35	27.66	-33.9	-35.2	19.0	0.00e+00	0	55	0	1608515584	38	4438
2026-01-10 00:34:24.16	84.67	27.68	-33.9	-35.2	19.0	0.00e+00	0	55	0	1614807040	38	4416
2026-01-10 00:34:25.17	84.99	27.70	-33.8	-35.2	19.0	0.00e+00	0	56	0	1620049920	38	4399
2026-01-10 00:34:26.17	85.31	27.73	-33.8	-35.1	19.0	0.00e+00	0	56	0	1625292800	38	4391
2026-01-10 00:34:27.18	85.63	27.75	-33.8	-35.1	19.1	0.00e+00	0	56	0	1631584256	38	4377
2026-01-10 00:34:28.19	85.96	27.77	-33.7	-35.0	19.2	0.00e+00	0	56	0	1636827136	38	4310
2026-01-10 00:34:29.19	86.27	27.79	-33.7	-35.0	19.2	0.00e+00	0	55	0	1643118592	38	4316
2026-01-10 00:34:30.20	86.60	27.80	-33.6	-34.9	19.3	0.00e+00	0	56	0	1648361472	38	4251
2026-01-10 00:34:31.21	86.92	27.82	-33.6	-34.9	19.3	0.00e+00	0	56	0	1653604352	38	4248
2026-01-10 00:34:32.22	87.24	27.84	-33.7	-35.0	19.2	0.00e+00	0	56	0	1659895808	38	4302
2026-01-10 00:34:33.22	87.56	27.85	-33.7	-35.0	19.2	0.00e+00	0	55	0	1665138688	38	4301
2026-01-10 00:34:34.23	87.89	27.87	-33.7	-35.0	19.2	0.00e+00	0	56	0	1671430144	38	4309
2026-01-10 00:34:35.23	88.21	27.88	-33.7	-35.0	19.2	0.00e+00	0	56	0	1676673024	38	4302
2026-01-10 00:34:36.24	88.53	27.89	-33.7	-35.0	19.2	0.00e+00	0	56	0	1681915904	38	4310
2026-01-10 00:34:37.25	88.86	27.90	-33.6	-34.9	19.3	0.00e+00	0	56	0	1688207360	38	4259
2026-01-10 00:34:38.26	89.18	27.91	-33.6	-34.9	19.3	0.00e+00	0	56	0	1693450240	38	4259
2026-01-10 00:34:39.26	89.51	27.92	-33.6	-34.9	19.3	0.00e+00	0	55	0	1699741696	38	4269
2026-01-10 00:34:40.27	89.83	27.93	-33.7	-35.0	19.2	0.00e+00	0	56	0	1704984576	38	4313
2026-01-10 00:34:41.28	90.16	27.94	-33.8	-35.1	19.1	0.00e+00	0	56	0	1710227456	38	4389
2026-01-10 00:34:42.28	90.48	27.95	-33.8	-35.1	19.1	0.00e+00	0	56	0	1716518912	38	4383
2026-01-10 00:34:43.29	90.80	27.95	-33.8	-35.1	19.1	0.00e+00	0	56	0	1721761792	38	4374
2026-01-10 00:34:44.30	91.13	27.96	-33.8	-35.1	19.1	0.00e+00	0	56	0	1728053248	38	4379
2026-01-10 00:34:45.30	91.45	27.96	-33.7	-35.0	19.2	0.00e+00	0	56	0	1733296128	38	4335
2026-01-10 00:34:46.31	91.78	27.96	-33.6	-34.8	19.4	0.00e+00	0	56	0	1739587584	38	4237
2026-01-10 00:34:47.32	92.11	27.96	-33.6	-34.8	19.4	0.00e+00	0	56	0	1744830464	38	4238
2026-01-10 00:34:48.32	92.43	27.97	-33.6	-34.9	19.3	0.00e+00	0	56	0	1750073344	38	4273
2026-01-10 00:34:49.33	92.75	27.96	-33.6	-34.9	19.3	0.00e+00	0	56	0	1756364800	38	4289
2026-01-10 00:34:50.34	93.08	27.96	-33.7	-35.0	19.2	0.00e+00	0	56	0	1761607680	38	4326
2026-01-10 00:34:51.34	93.40	27.96	-33.7	-35.0	19.2	0.00e+00	0	56	0	1766850560	38	4320
2026-01-10 00:34:52.35	93.73	27.96	-33.6	-34.9	19.3	0.00e+00	0	56	0	1773142016	38	4264
2026-01-10 00:34:53.35	94.05	27.95	-33.6	-34.9	19.3	0.00e+00	0	56	0	1778384896	38	4265
2026-01-10 00:34:54.36	94.38	27.95	-33.6	-34.9	19.3	0.00e+00	0	56	0	1784676352	38	4256
2026-01-10 00:34:55.37	94.71	27.94	-33.6	-34.9	19.4	0.00e+00	0	56	0	1789919232	38	4246
2026-01-10 00:34:56.37	95.03	27.94	-33.6	-34.9	19.4	0.00e+00	0	56	0	1795162112	38	4257
2026-01-10 00:34:57.38	95.35	27.93	-33.6	-34.9	19.3	0.00e+00	0	56	0	1801453568	38	4288
2026-01-10 00:34:58.38	95.68	27.92	-33.7	-35.0	19.3	0.00e+00	0	56	0	1806696448	38	4314
2026-01-10 00:34:59.39	96.00	27.91	-33.8	-35.1	19.1	0.00e+00	0	56	0	1812987904	38	4365
2026-01-10 00:35:00.40	96.33	27.90	-33.8	-35.2	19.1	0.00e+00	0	56	0	1818230784	38	4392
2026-01-10 00:35:01.40	96.65	27.89	-33.8	-35.1	19.2	0.00e+00	0	55	0	1823473664	38	4371
2026-01-10 00:35:02.41	96.97	27.87	-33.8	-35.1	19.2	0.00e+00	0	56	0	1829765120	38	4365
2026-01-10 00:35:03.42	97.30	27.86	-33.9	-35.2	19.1	0.00e+00	0	56	0	1835008000	38	4401
2026-01-10 00:35:04.42	97.62	27.84	-33.9	-35.2	19.1	0.00e+00	0	56	0	1841299456	38	4419
2026-01-10 00:35:05.43	97.94	27.83	-33.9	-35.2	19.1	0.00e+00	0	55	0	1846542336	38	4423
2026-01-10 00:35:06.43	98.26	27.81	-33.9	-35.2	19.1	0.00e+00	0	56	0	1851785216	38	4413
2026-01-10 00:35:07.44	98.58	27.79	-33.8	-35.1	19.1	0.00e+00	0	56	0	1858076672	38	4369
2026-01-10 00:35:08.45	98.91	27.77	-33.7	-35.0	19.3	0.00e+00	0	56	0	1863319552	38	4322
2026-01-10 00:35:09.46	99.23	27.75	-33.7	-34.9	19.3	0.00e+00	0	56	0	1868562432	38	4291
2026-01-10 00:35:10.46	99.55	27.73	-33.7	-35.0	19.3	0.00e+00	0	56	0	1874853888	38	4308
2026-01-10 00:35:11.47	99.87	27.71	-33.7	-35.0	19.3	0.00e+00	0	56	0	1880096768	38	4313
2026-01-10 00:35:12.48	100.19	27.69	-33.8	-35.2	19.1	0.00e+00	0	56	0	1886388224	38	4397
2026-01-10 00:35:13.49	100.51	27.67	-33.8	-35.2	19.1	0.00e+00	0	56	0	1891631104	38	4395
2026-01-10 00:35:14.50	100.83	27.64	-33.9	-35.2	19.1	0.00e+00	0	56	0	1897922560	38	4408
2026-01-10 00:35:15.50	101.15	27.62	-33.8	-35.1	19.2	0.00e+00	0	56	0	1903165440	38	4360
2026-01-10 00:35:16.51	101.47	27.59	-33.7	-35.0	19.2	0.00e+00	0	56	0	1909456896	38	4323
2026-01-10 00:35:17.52	101.79	27.56	-33.7	-35.0	19.3	0.00e+00	0	56	0	1914699776	38	4319
2026-01-10 00:35:18.52	102.10	27.54	-33.8	-35.1	19.2	0.00e+00	0	56	0	1919942656	38	4355
2026-01-10 00:35:19.53	102.42	27.51	-33.7	-35.0	19.3	0.00e+00	0	56	0	1926234112	38	4336
2026-01-10 00:35:20.53	102.73	27.48	-33.7	-35.0	19.3	0.00e+00	0	56	0	1931476992	38	4317
2026-01-10 00:35:21.54	103.05	27.45	-33.6	-34.9	19.4	0.00e+00	0	56	0	1936719872	38	4244
2026-01-10 00:35:22.55	103.37	27.42	-33.6	-34.8	19.5	0.00e+00	0	56	0	1943011328	38	4224
2026-01-10 00:35:23.55	103.68	27.38	-33.6	-34.8	19.5	0.00e+00	0	56	0	1948254208	38	4230
2026-01-10 00:35:24.56	103.99	27.35	-33.7	-34.9	19.3	0.00e+00	0	56	0	1953497088	38	4288
2026-01-10 00:35:25.57	104.31	27.32	-33.8	-35.1	19.2	0.00e+00	0	56	0	1959788544	38	4368
2026-01-10 00:35:26.57	104.62	27.28	-34.0	-35.3	19.0	0.00e+00	0	56	0	1965031424	38	4466
2026-01-10 00:35:27.58	104.93	27.25	-34.0	-35.3	19.0	0.00e+00	0	56	0	1971322880	38	4491
2026-01-10 00:35:28.59	105.24	27.21	-34.0	-35.3	19.0	0.00e+00	0	56	0	1976565760	38	4491
2026-01-10 00:35:29.60	105.55	27.17	-34.0	-35.3	19.0	0.00e+00	0	56	0	1982857216	38	4452
2026-01-10 00:35:30.61	105.87	27.13	-33.9	-35.3	19.1	0.00e+00	0	56	0	1988100096	38	4447
2026-01-10 00:35:31.61	106.17	27.09	-33.9	-35.2	19.1	0.00e+00	0	56	0	1994391552	38	4421
2026-01-10 00:35:32.62	106.48	27.05	-34.0	-35.3	19.1	0.00e+00	0	56	0	1999634432	38	4453
2026-01-10 00:35:33.63	106.79	27.01	-34.0	-35.3	19.0	0.00e+00	0	56	0	2004877312	38	4463
2026-01-10 00:35:34.64	107.10	26.97	-34.0	-35.3	19.0	0.00e+00	0	56	0	2011168768	38	4462
2026-01-10 00:35:35.65	107.40	26.93	-34.0	-35.4	19.0	0.00e+00	0	56	0	2016411648	38	4495
2026-01-10 00:35:36.65	107.71	26.89	-34.0	-35.3	19.0	0.00e+00	0	56	0	2021654528	38	4492
2026-01-10 00:35:37.66	108.01	26.84	-34.0	-35.3	19.1	0.00e+00	0	56	0	2027945984	38	4462
2026-01-10 00:35:38.67	108.32	26.80	-33.8	-35.1	19.2	0.00e+00	0	56	0	2033188864	38	4387
2026-01-10 00:35:39.68	108.62	26.75	-33.8	-35.1	19.2	0.00e+00	0	56	0	2039480320	38	4366
2026-01-10 00:35:40.68	108.92	26.71	-33.9	-35.2	19.2	0.00e+00	0	56	0	2044723200	38	4425
2026-01-10 00:35:41.69	109.22	26.66	-34.0	-35.3	19.1	0.00e+00	0	56	0	2049966080	38	4465
2026-01-10 00:35:42.70	109.52	26.61	-34.0	-35.3	19.0	0.00e+00	0	56	0	2056257536	38	4488
2026-01-10 00:35:43.71	109.82	26.56	-34.0	-35.4	19.0	0.00e+00	0	56	0	2061500416	38	4497
2026-01-10 00:35:44.72	110.12	26.51	-34.0	-35.4	19.0	0.00e+00	0	56	0	2067791872	38	4496
2026-01-10 00:35:45.73	110.42	26.46	-34.0	-35.4	18.9	0.00e+00	0	56	0	2073034752	38	4512
2026-01-10 00:35:46.73	110.72	26.41	-34.0	-35.4	18.9	0.00e+00	0	56	0	2079326208	38	4506
2026-01-10 00:35:47.74	111.01	26.36	-34.1	-35.4	18.9	0.00e+00	0	56	0	2084569088	38	4530
2026-01-10 00:35:48.75	111.31	26.31	-34.1	-35.4	18.9	0.00e+00	0	56	0	2089811968	38	4532
2026-01-10 00:35:49.75	111.60	26.26	-34.1	-35.5	18.8	0.00e+00	0	56	0	2096103424	38	4557
2026-01-10 00:35:50.77	111.89	26.20	-34.1	-35.5	18.8	0.00e+00	0	56	0	2101346304	38	4563
2026-01-10 00:35:51.77	112.18	26.15	-34.1	-35.5	18.8	0.00e+00	0	56	0	2107637760	38	4565
2026-01-10 00:35:52.78	112.48	26.09	-34.0	-35.3	19.0	0.00e+00	0	56	0	2112880640	38	4486
2026-01-10 00:35:53.79	112.77	26.04	-33.9	-35.2	19.1	0.00e+00	0	56	0	2118123520	38	4414
2026-01-10 00:35:54.80	113.06	25.98	-33.8	-35.1	19.3	0.00e+00	0	56	0	2124414976	38	4342
2026-01-10 00:35:55.81	113.35	25.92	-33.8	-35.1	19.2	0.00e+00	0	56	0	2129657856	38	4353
2026-01-10 00:35:56.82	113.63	25.87	-34.0	-35.3	19.0	0.00e+00	0	56	0	2135949312	38	4477
2026-01-10 00:35:57.83	113.92	25.81	-34.1	-35.5	18.8	0.00e+00	0	56	0	2141192192	38	4574
2026-01-10 00:35:58.84	114.20	25.75	-34.2	-35.6	18.7	0.00e+00	0	56	0	2146435072	39	4353
2026-01-10 00:35:59.85	114.49	25.69	-34.1	-35.5	18.8	0.00e+00	0	56	0	2152726528	39	4308
2026-01-10 00:36:00.86	114.77	25.63	-34.1	-35.4	18.9	0.00e+00	0	56	0	2157969408	39	4257
2026-01-10 00:36:01.87	115.06	25.57	-34.0	-35.3	19.0	0.00e+00	0	56	0	2164260864	39	4241
2026-01-10 00:36:02.88	115.34	25.51	-34.0	-35.3	19.0	0.00e+00	0	56	0	2169503744	39	4208
2026-01-10 00:36:03.89	115.62	25.45	-34.0	-35.3	18.9	0.00e+00	0	56	0	2175795200	39	4241
2026-01-10 00:36:04.90	115.90	25.38	-34.1	-35.4	18.9	0.00e+00	0	56	0	2181038080	39	4277
2026-01-10 00:36:05.91	116.17	25.32	-34.2	-35.5	18.8	0.00e+00	0	56	0	2186280960	39	4317
2026-01-10 00:36:06.91	116.45	25.26	-34.3	-35.6	18.7	0.00e+00	0	56	0	2192572416	39	4369
2026-01-10 00:36:07.92	116.72	25.19	-34.3	-35.6	18.7	0.00e+00	0	56	0	2197815296	39	4379
2026-01-10 00:36:08.93	117.00	25.13	-34.3	-35.6	18.7	0.00e+00	0	56	0	2204106752	39	4389
2026-01-10 00:36:09.94	117.27	25.06	-34.3	-35.6	18.7	0.00e+00	0	56	0	2209349632	39	4374
2026-01-10 00:36:10.94	117.54	25.00	-34.2	-35.6	18.7	0.00e+00	0	56	0	2214592512	39	4362
2026-01-10 00:36:11.95	117.81	24.93	-34.2	-35.5	18.8	0.00e+00	0	56	0	2220883968	39	4328
2026-01-10 00:36:12.96	118.09	24.87	-34.2	-35.5	18.8	0.00e+00	0	56	0	2226126848	39	4338
2026-01-10 00:36:13.97	118.35	24.80	-34.2	-35.5	18.8	0.00e+00	0	56	0	2232418304	39	4336
2026-01-10 00:36:14.97	118.62	24.73	-34.2	-35.6	18.8	0.00e+00	0	56	0	2237661184	39	4358
2026-01-10 00:36:15.98	118.89	24.66	-34.3	-35.6	18.7	0.00e+00	0	56	0	2242904064	39	4383
2026-01-10 00:36:16.99	119.15	24.60	-34.3	-35.7	18.7	0.00e+00	0	56	0	2249195520	39	4407
2026-01-10 00:36:17.99	119.42	24.53	-34.4	-35.8	18.5	0.00e+00	0	56	0	2254438400	39	4471
2026-01-10 00:36:19.00	119.68	24.46	-34.4	-35.8	18.5	0.00e+00	0	56	0	2260729856	39	4483
2026-01-10 00:36:20.01	119.94	24.39	-34.4	-35.8	18.5	0.00e+00	0	56	0	2265972736	39	4458
2026-01-10 00:36:21.01	120.20	24.32	-34.4	-35.8	18.4	0.00e+00	0	56	0	2272264192	39	4490
2026-01-10 00:36:22.02	120.46	24.25	-34.4	-35.8	18.5	0.00e+00	0	56	0	2277507072	39	4477
2026-01-10 00:36:23.02	120.72	24.18	-34.5	-35.9	18.4	0.00e+00	0	56	0	2282749952	39	4506
2026-01-10 00:36:24.03	120.98	24.11	-34.5	-35.9	18.4	0.00e+00	0	56	0	2289041408	39	4516
2026-01-10 00:36:25.04	121.23	24.04	-34.4	-35.8	18.5	0.00e+00	0	56	0	2294284288	39	4482
2026-01-10 00:36:26.05	121.49	23.96	-34.4	-35.8	18.5	0.00e+00	0	56	0	2299527168	39	4469
2026-01-10 00:36:27.05	121.74	23.89	-34.4	-35.7	18.6	0.00e+00	0	56	0	2305818624	39	4428
2026-01-10 00:36:28.06	121.99	23.82	-34.4	-35.7	18.6	0.00e+00	0	56	0	2311061504	39	4433
2026-01-10 00:36:29.07	122.25	23.74	-34.4	-35.8	18.5	0.00e+00	0	56	0	2317352960	39	4473
2026-01-10 00:36:30.07	122.50	23.67	-34.5	-35.9	18.4	0.00e+00	0	56	0	2322595840	39	4501
2026-01-10 00:36:31.08	122.75	23.60	-34.6	-35.9	18.4	0.00e+00	0	56	0	2327838720	39	4544
2026-01-10 00:36:32.08	122.99	23.52	-34.5	-35.9	18.4	0.00e+00	0	56	0	2334130176	39	4528
2026-01-10 00:36:33.09	123.24	23.45	-34.5	-35.8	18.5	0.00e+00	0	56	0	2339373056	39	4474
2026-01-10 00:36:34.10	123.49	23.37	-34.4	-35.8	18.5	0.00e+00	0	56	0	2345664512	39	4457
2026-01-10 00:36:35.11	123.73	23.30	-34.4	-35.8	18.5	0.00e+00	0	56	0	2350907392	39	4454
2026-01-10 00:36:36.12	123.98	23.22	-34.4	-35.8	18.5	0.00e+00	0	56	0	2357198848	39	4456
2026-01-10 00:36:37.13	124.22	23.15	-34.5	-35.9	18.5	0.00e+00	0	56	0	2362441728	39	4496
2026-01-10 00:36:38.13	124.46	23.07	-34.5	-35.9	18.4	0.00e+00	0	56	0	2367684608	39	4519
2026-01-10 00:36:39.14	124.70	23.00	-34.5	-35.9	18.4	0.00e+00	0	56	0	2373976064	39	4498
2026-01-10 00:36:40.15	124.94	22.92	-34.5	-35.9	18.4	0.00e+00	0	56	0	2379218944	39	4514
2026-01-10 00:36:41.15	125.17	22.84	-34.5	-35.9	18.4	0.00e+00	0	56	0	2384461824	39	4498
2026-01-10 00:36:42.16	125.41	22.76	-34.5	-35.9	18.4	0.00e+00	0	56	0	2390753280	39	4520
2026-01-10 00:36:43.17	125.65	22.69	-34.5	-35.9	18.3	0.00e+00	0	56	0	2395996160	39	4542
2026-01-10 00:36:44.17	125.88	22.61	-34.5	-35.9	18.3	0.00e+00	0	56	0	2402287616	39	4544
2026-01-10 00:36:45.18	126.11	22.53	-34.5	-35.9	18.4	0.00e+00	0	56	0	2407530496	39	4528
2026-01-10 00:36:46.18	126.35	22.45	-34.5	-35.9	18.4	0.00e+00	0	56	0	2412773376	39	4515
2026-01-10 00:36:47.19	126.58	22.37	-34.5	-35.9	18.4	0.00e+00	0	56	0	2419064832	39	4526
2026-01-10 00:36:48.20	126.81	22.30	-34.6	-36.0	18.2	0.00e+00	0	56	0	2424307712	39	4581
2026-01-10 00:36:49.20	127.03	22.22	-34.7	-36.1	18.1	0.00e+00	0	56	0	2430599168	40	4381
2026-01-10 00:36:50.21	127.26	22.14	-34.8	-36.3	17.9	0.00e+00	0	56	0	2435842048	40	4451
2026-01-10 00:36:51.22	127.49	22.06	-35.0	-36.5	17.8	0.00e+00	0	56	0	2442133504	40	4546
2026-01-10 00:36:52.22	127.71	21.98	-35.0	-36.4	17.8	0.00e+00	0	56	0	2447376384	40	4545
2026-01-10 00:36:53.23	127.94	21.90	-34.9	-36.4	17.8	0.00e+00	0	56	0	2452619264	40	4534
2026-01-10 00:36:54.24	128.16	21.82	-34.9	-36.3	17.9	0.00e+00	0	56	0	2458910720	40	4487
2026-01-10 00:36:55.24	128.38	21.74	-34.8	-36.2	18.0	0.00e+00	0	56	0	2464153600	40	4440
2026-01-10 00:36:56.25	128.60	21.66	-34.7	-36.1	18.1	0.00e+00	0	56	0	2469396480	40	4375
2026-01-10 00:36:57.25	128.82	21.58	-34.7	-36.1	18.0	0.00e+00	0	56	0	2475687936	40	4373
2026-01-10 00:36:58.26	129.04	21.50	-34.7	-36.1	18.1	0.00e+00	0	56	0	2480930816	40	4376
2026-01-10 00:36:59.27	129.26	21.42	-34.7	-36.2	17.9	0.00e+00	0	56	0	2487222272	40	4393
2026-01-10 00:37:00.28	129.48	21.34	-34.8	-36.2	18.0	0.00e+00	0	56	0	2492465152	40	4421
2026-01-10 00:37:01.28	129.69	21.26	-34.8	-36.3	17.9	0.00e+00	0	56	0	2497708032	40	4444
2026-01-10 00:37:02.29	129.91	21.18	-34.9	-36.3	17.9	0.00e+00	0	56	0	2503999488	40	4474
2026-01-10 00:37:03.30	130.12	21.09	-34.9	-36.4	17.8	0.00e+00	0	56	0	2509242368	40	4510
2026-01-10 00:37:04.30	130.33	21.01	-34.9	-36.4	17.8	0.00e+00	0	56	0	2515533824	40	4505
2026-01-10 00:37:05.31	130.54	20.93	-34.9	-36.4	17.8	0.00e+00	0	56	0	2520776704	40	4498
2026-01-10 00:37:06.32	130.75	20.85	-34.9	-36.4	17.7	0.00e+00	0	56	0	2527068160	40	4522
2026-01-10 00:37:07.32	130.96	20.77	-34.9	-36.4	17.7	0.00e+00	0	56	0	2532311040	40	4519
2026-01-10 00:37:08.33	131.17	20.69	-35.0	-36.5	17.6	0.00e+00	0	56	0	2537553920	40	4559
2026-01-10 00:37:09.34	131.37	20.60	-35.0	-36.5	17.6	0.00e+00	0	56	0	2543845376	40	4573
2026-01-10 00:37:10.35	131.58	20.52	-35.1	-36.6	17.6	0.00e+00	0	56	0	2549088256	40	4609
2026-01-10 00:37:11.35	131.78	20.44	-35.0	-36.5	17.6	0.00e+00	0	56	0	2554331136	40	4587
2026-01-10 00:37:12.36	131.99	20.36	-35.1	-36.6	17.6	0.00e+00	0	56	0	2560622592	40	4617
2026-01-10 00:37:13.35	132.19	20.28	-35.1	-36.5	17.6	0.00e+00	0	56	0	2565865472	40	4598
2026-01-10 00:37:14.36	132.39	20.19	-35.1	-36.6	17.5	0.00e+00	0	56	0	2572156928	40	4618
2026-01-10 00:37:15.37	132.59	20.11	-35.1	-36.6	17.5	0.00e+00	0	56	0	2577399808	40	4627
2026-01-10 00:37:16.37	132.79	20.03	-35.2	-36.7	17.4	0.00e+00	0	56	0	2582642688	40	4681
2026-01-10 00:37:17.38	132.99	19.95	-35.3	-36.8	17.3	0.00e+00	0	56	0	2588934144	41	4466
2026-01-10 00:37:18.39	133.18	19.86	-35.3	-36.9	17.3	0.00e+00	0	56	0	2594177024	41	4507
2026-01-10 00:37:19.39	133.38	19.78	-35.4	-37.0	17.2	0.00e+00	0	56	0	2600468480	41	4550
2026-01-10 00:37:20.40	133.57	19.70	-35.4	-37.0	17.1	0.00e+00	0	56	0	2605711360	41	4570
2026-01-10 00:37:21.41	133.77	19.61	-35.4	-36.9	17.2	0.00e+00	0	56	0	2612002816	41	4529
2026-01-10 00:37:22.42	133.96	19.53	-35.4	-37.0	17.1	0.00e+00	0	56	0	2617245696	41	4570
2026-01-10 00:37:23.42	134.15	19.45	-35.4	-37.0	17.1	0.00e+00	0	56	0	2622488576	41	4598
2026-01-10 00:37:24.43	134.34	19.37	-35.5	-37.1	17.0	0.00e+00	0	56	0	2628780032	41	4624
2026-01-10 00:37:25.43	134.53	19.28	-35.5	-37.1	17.0	0.00e+00	0	56	0	2634022912	41	4642
2026-01-10 00:37:26.44	134.72	19.20	-35.5	-37.1	17.0	0.00e+00	0	56	0	2639265792	41	4641
2026-01-10 00:37:27.45	134.91	19.12	-35.5	-37.1	16.9	0.00e+00	0	56	0	2645557248	41	4642
2026-01-10 00:37:28.45	135.10	19.03	-35.5	-37.1	17.1	0.00e+00	0	56	0	2650800128	41	4601
2026-01-10 00:37:29.46	135.28	18.95	-35.5	-37.1	17.0	0.00e+00	0	56	0	2657091584	41	4602
2026-01-10 00:37:30.47	135.47	18.87	-35.4	-37.0	17.1	0.00e+00	0	56	0	2662334464	41	4571
2026-01-10 00:37:31.48	135.65	18.78	-35.5	-37.1	17.0	0.00e+00	0	56	0	2667577344	41	4614
2026-01-10 00:37:32.48	135.83	18.70	-35.6	-37.2	16.9	0.00e+00	0	56	0	2673868800	41	4687
2026-01-10 00:37:33.49	136.02	18.62	-35.7	-37.3	16.8	0.00e+00	0	56	0	2679111680	41	4755
2026-01-10 00:37:34.50	136.20	18.53	-35.8	-37.5	16.7	0.00e+00	0	56	0	2685403136	42	4547
2026-01-10 00:37:35.50	136.38	18.45	-35.8	-37.4	16.7	0.00e+00	0	56	0	2690646016	42	4545
2026-01-10 00:37:36.51	136.56	18.37	-35.8	-37.4	16.6	0.00e+00	0	56	0	2696937472	42	4545
2026-01-10 00:37:37.52	136.74	18.29	-35.8	-37.4	16.7	0.00e+00	0	56	0	2702180352	42	4534
2026-01-10 00:37:38.52	136.91	18.20	-35.7	-37.3	16.8	0.00e+00	0	56	0	2707423232	42	4470
2026-01-10 00:37:39.53	137.09	18.12	-35.6	-37.2	16.9	0.00e+00	0	56	0	2713714688	42	4433
2026-01-10 00:37:40.54	137.26	18.04	-35.5	-37.1	17.0	0.00e+00	0	56	0	2718957568	42	4371
2026-01-10 00:37:41.54	137.44	17.95	-35.5	-37.1	17.0	0.00e+00	0	56	0	2724200448	42	4365
2026-01-10 00:37:42.55	137.61	17.87	-35.5	-37.1	17.0	0.00e+00	0	56	0	2730491904	42	4374
2026-01-10 00:37:43.56	137.78	17.79	-35.5	-37.1	17.0	0.00e+00	0	56	0	2735734784	42	4372
2026-01-10 00:37:44.56	137.96	17.71	-35.6	-37.2	16.9	0.00e+00	0	56	0	2742026240	42	4401
2026-01-10 00:37:45.57	138.13	17.62	-35.6	-37.2	16.8	0.00e+00	0	56	0	2747269120	42	4422
2026-01-10 00:37:46.58	138.30	17.54	-35.6	-37.2	16.9	0.00e+00	0	56	0	2752512000	42	4433
2026-01-10 00:37:47.59	138.47	17.46	-35.6	-37.2	16.7	0.00e+00	0	56	0	2758803456	42	4435
2026-01-10 00:37:48.60	138.63	17.37	-35.6	-37.2	16.9	0.00e+00	0	56	0	2764046336	42	4408
2026-01-10 00:37:49.60	138.80	17.29	-35.5	-37.1	16.9	0.00e+00	0	56	0	2770337792	42	4376
2026-01-10 00:37:50.61	138.97	17.21	-35.5	-37.1	16.9	0.00e+00	0	56	0	2775580672	42	4380
2026-01-10 00:37:51.62	139.13	17.12	-35.6	-37.2	16.8	0.00e+00	0	56	0	2781872128	42	4415
2026-01-10 00:37:52.63	139.30	17.04	-35.6	-37.2	16.8	0.00e+00	0	56	0	2787115008	42	4432
2026-01-10 00:37:53.63	139.46	16.96	-35.7	-37.3	16.7	0.00e+00	0	56	0	2792357888	42	4492
2026-01-10 00:37:54.64	139.62	16.88	-35.8	-37.4	16.6	0.00e+00	0	56	0	2798649344	42	4529
2026-01-10 00:37:55.65	139.79	16.79	-35.8	-37.5	16.6	0.00e+00	0	56	0	2803892224	42	4564
2026-01-10 00:37:56.65	139.95	16.71	-35.9	-37.5	16.5	0.00e+00	0	56	0	2810183680	42	4592
2026-01-10 00:37:57.66	140.11	16.63	-36.0	-37.6	16.4	0.00e+00	0	56	0	2815426560	42	4641
2026-01-10 00:37:58.67	140.27	16.55	-36.1	-37.7	16.3	0.00e+00	0	56	0	2820669440	42	4702
2026-01-10 00:37:59.67	140.42	16.47	-36.1	-37.8	16.3	0.00e+00	0	56	0	2826960896	42	4711
2026-01-10 00:38:00.68	140.58	16.38	-36.1	-37.8	16.2	0.00e+00	0	56	0	2832203776	42	4733
2026-01-10 00:38:01.69	140.74	16.30	-36.2	-37.9	16.1	0.00e+00	0	56	0	2837446656	43	4537
2026-01-10 00:38:02.70	140.90	16.22	-36.3	-38.0	16.1	0.00e+00	0	56	0	2843738112	43	4557
2026-01-10 00:38:03.71	141.05	16.14	-36.2	-37.9	16.1	0.00e+00	0	56	0	2848980992	43	4543
2026-01-10 00:38:04.72	141.21	16.06	-36.3	-38.0	16.1	0.00e+00	0	56	0	2855272448	43	4561
2026-01-10 00:38:05.73	141.36	15.97	-36.3	-38.0	16.0	0.00e+00	0	56	0	2860515328	43	4596
2026-01-10 00:38:06.74	141.51	15.89	-36.2	-38.0	16.1	0.00e+00	0	56	0	2866806784	43	4553
2026-01-10 00:38:07.75	141.67	15.81	-36.3	-38.0	16.0	0.00e+00	0	56	0	2872049664	43	4582
2026-01-10 00:38:08.76	141.82	15.73	-36.4	-38.1	15.9	0.00e+00	0	56	0	2878341120	43	4649
2026-01-10 00:38:09.77	141.97	15.65	-36.5	-38.3	15.7	0.00e+00	0	56	0	2883584000	43	4747
2026-01-10 00:38:10.77	142.12	15.57	-36.6	-38.4	15.6	0.00e+00	0	56	0	2888826880	43	4808
2026-01-10 00:38:11.78	142.27	15.48	-36.9	-38.7	15.5	1.10e-06	0	56	0	2895118336	44	4693
2026-01-10 00:38:12.79	142.41	15.40	-36.9	-38.8	15.5	0.00e+00	0	56	0	2900361216	44	4714
2026-01-10 00:38:13.79	142.56	15.32	-36.9	-38.8	15.5	0.00e+00	0	56	0	2905604096	44	4706
2026-01-10 00:38:14.80	142.71	15.24	-36.9	-38.7	15.5	0.00e+00	0	56	0	2911895552	44	4679
2026-01-10 00:38:15.81	142.85	15.16	-37.0	-38.8	15.4	0.00e+00	0	56	0	2917138432	44	4739
2026-01-10 00:38:16.81	143.00	15.08	-37.0	-38.8	15.4	0.00e+00	0	56	0	2923429888	44	4737
2026-01-10 00:38:17.82	143.14	15.00	-36.7	-38.4	15.8	0.00e+00	0	56	0	2928672768	44	4542
2026-01-10 00:38:18.83	143.29	14.92	-36.5	-38.2	15.9	0.00e+00	0	56	0	2933915648	44	4441
2026-01-10 00:38:19.83	143.43	14.84	-36.4	-38.1	16.0	0.00e+00	0	56	0	2940207104	44	4385
2026-01-10 00:38:20.84	143.57	14.76	-36.4	-38.1	16.1	0.00e+00	0	56	0	2945449984	44	4362
2026-01-10 00:38:21.85	143.71	14.68	-36.4	-38.1	16.0	0.00e+00	0	56	0	2951741440	44	4376
2026-01-10 00:38:22.85	143.85	14.60	-36.4	-38.2	16.0	0.00e+00	0	56	0	2956984320	44	4395
2026-01-10 00:38:23.86	143.99	14.52	-36.5	-38.2	15.9	0.00e+00	0	56	0	2963275776	44	4437
2026-01-10 00:38:24.87	144.13	14.44	-36.5	-38.3	15.9	0.00e+00	0	56	0	2968518656	44	4463
2026-01-10 00:38:25.87	144.27	14.36	-36.6	-38.4	15.8	0.00e+00	0	56	0	2973761536	44	4507
2026-01-10 00:38:26.88	144.40	14.28	-36.6	-38.4	15.8	0.00e+00	0	56	0	2980052992	44	4501
2026-01-10 00:38:27.89	144.54	14.20	-36.5	-38.3	15.8	0.00e+00	0	56	0	2985295872	44	4462
2026-01-10 00:38:28.90	144.68	14.12	-36.5	-38.3	15.8	0.00e+00	0	56	0	2991587328	44	4451
2026-01-10 00:38:29.91	144.81	14.04	-36.6	-38.4	15.8	0.00e+00	0	56	0	2996830208	44	4505
2026-01-10 00:38:30.92	144.95	13.96	-36.6	-38.3	15.8	0.00e+00	0	56	0	3002073088	44	4472
2026-01-10 00:38:31.92	145.08	13.88	-36.5	-38.2	15.9	0.00e+00	0	56	0	3008364544	44	4429
2026-01-10 00:38:32.93	145.22	13.80	-36.4	-38.2	15.9	0.00e+00	0	56	0	3013607424	44	4397
2026-01-10 00:38:33.94	145.35	13.72	-36.6	-38.4	15.7	0.00e+00	0	56	0	3018850304	44	4502
2026-01-10 00:38:34.96	145.48	13.64	-36.5	-38.2	15.8	0.00e+00	0	56	0	3025141760	44	4426
2026-01-10 00:38:35.97	145.61	13.57	-36.5	-38.2	15.9	0.00e+00	0	56	0	3030384640	44	4409
2026-01-10 00:38:36.98	145.74	13.49	-36.5	-38.3	15.8	0.00e+00	0	56	0	3036676096	44	4467
2026-01-10 00:38:37.99	145.88	13.41	-36.7	-38.5	15.6	0.00e+00	0	56	0	3041918976	44	4578
2026-01-10 00:38:38.99	146.00	13.33	-36.7	-38.5	15.6	0.00e+00	0	56	0	3048210432	44	4568
2026-01-10 00:38:40.00	146.13	13.25	-36.8	-38.7	15.5	0.00e+00	0	56	0	3053453312	44	4658
2026-01-10 00:38:41.01	146.26	13.17	-36.9	-38.8	15.3	0.00e+00	0	56	0	3059744768	44	4710
2026-01-10 00:38:42.01	146.39	13.10	-37.0	-38.9	15.2	0.00e+00	0	56	0	3064987648	44	4772
2026-01-10 00:38:43.02	146.51	13.02	-36.9	-38.8	15.3	0.00e+00	0	56	0	3070230528	44	4718
2026-01-10 00:38:44.03	146.64	12.94	-36.9	-38.7	15.3	0.00e+00	0	56	0	3076521984	44	4702
2026-01-10 00:38:45.03	146.76	12.86	-36.9	-38.7	15.3	0.00e+00	0	56	0	3081764864	44	4693
2026-01-10 00:38:46.04	146.89	12.79	-37.0	-38.8	15.2	0.00e+00	0	56	0	3087007744	44	4753
2026-01-10 00:38:47.04	147.01	12.71	-37.0	-38.9	15.2	0.00e+00	0	56	0	3093299200	44	4763
2026-01-10 00:38:48.05	147.14	12.63	-36.9	-38.8	15.3	0.00e+00	0	56	0	3098542080	44	4724
2026-01-10 00:38:49.06	147.26	12.55	-36.9	-38.7	15.3	0.00e+00	0	56	0	3104833536	44	4681
2026-01-10 00:38:50.06	147.38	12.48	-36.9	-38.7	15.3	0.00e+00	0	56	0	3110076416	44	4677
2026-01-10 00:38:51.07	147.50	12.40	-36.9	-38.8	15.2	0.00e+00	0	56	0	3115319296	44	4713
2026-01-10 00:38:52.07	147.62	12.33	-37.1	-39.0	15.1	0.00e+00	0	56	0	3121610752	44	4835
2026-01-10 00:38:53.08	147.74	12.25	-37.0	-38.9	15.1	0.00e+00	0	56	0	3126853632	44	4782
2026-01-10 00:38:54.09	147.86	12.17	-37.0	-38.9	15.1	0.00e+00	0	56	0	3133145088	44	4771
2026-01-10 00:38:55.10	147.98	12.10	-36.9	-38.8	15.2	0.00e+00	0	56	0	3138387968	44	4723
2026-01-10 00:38:56.10	148.10	12.02	-37.0	-38.9	15.1	0.00e+00	0	56	0	3144679424	44	4791
2026-01-10 00:38:57.11	148.22	11.94	-37.1	-39.1	14.9	0.00e+00	0	56	0	3149922304	44	4877
2026-01-10 00:38:58.12	148.34	11.87	-37.1	-39.0	15.0	0.00e+00	0	56	0	3155165184	44	4831
2026-01-10 00:38:59.13	148.45	11.79	-37.1	-39.1	14.9	0.00e+00	0	56	0	3161456640	44	4879
2026-01-10 00:39:00.14	148.57	11.72	-37.2	-39.1	14.9	0.00e+00	0	56	0	3166699520	44	4897
2026-01-10 00:39:01.15	148.69	11.64	-37.2	-39.2	14.7	0.00e+00	0	56	0	3172990976	44	4953
2026-01-10 00:39:02.16	148.80	11.56	-37.3	-39.3	14.6	0.00e+00	0	56	0	3178233856	45	4746
2026-01-10 00:39:03.17	148.92	11.49	-37.4	-39.4	14.5	2.20e-06	0	56	0	3183476736	45	4785
2026-01-10 00:39:04.18	149.03	11.41	-37.3	-39.3	14.6	1.10e-06	0	56	0	3189768192	45	4724
2026-01-10 00:39:05.19	149.14	11.34	-37.3	-39.3	14.6	1.10e-06	0	56	0	3195011072	45	4734
2026-01-10 00:39:06.20	149.26	11.26	-37.3	-39.3	14.6	1.10e-06	0	56	0	3201302528	45	4717
2026-01-10 00:39:07.21	149.37	11.19	-37.3	-39.3	14.6	0.00e+00	0	56	0	3206545408	45	4711
2026-01-10 00:39:08.22	149.48	11.11	-37.4	-39.4	14.4	0.00e+00	0	56	0	3211788288	45	4789
2026-01-10 00:39:09.23	149.59	11.04	-37.4	-39.5	14.3	3.40e-06	0	56	0	3218079744	45	4826
2026-01-10 00:39:10.23	149.70	10.97	-37.4	-39.4	14.4	1.10e-06	0	56	0	3223322624	45	4812
2026-01-10 00:39:11.25	149.82	10.89	-37.5	-39.6	14.2	0.00e+00	0	56	0	3229614080	45	4925
2026-01-10 00:39:12.26	149.93	10.82	-37.4	-39.5	14.3	1.10e-06	0	56	0	3234856960	45	4847
2026-01-10 00:39:13.26	150.03	10.74	-37.5	-39.7	14.1	3.40e-06	0	56	0	3241148416	45	4929
2026-01-10 00:39:14.27	150.14	10.67	-37.6	-39.7	14.1	2.20e-06	0	56	0	3246391296	45	4965
2026-01-10 00:39:15.28	150.25	10.59	-37.7	-39.8	14.0	9.10e-06	0	56	0	3251634176	46	4743
2026-01-10 00:39:16.29	150.36	10.52	-37.6	-39.7	14.1	5.70e-06	0	56	0	3257925632	46	4669
2026-01-10 00:39:17.30	150.47	10.45	-37.6	-39.7	14.1	2.20e-06	0	56	0	3263168512	46	4679
2026-01-10 00:39:18.31	150.57	10.37	-37.6	-39.8	14.0	2.20e-06	0	56	0	3269459968	46	4733
2026-01-10 00:39:19.32	150.68	10.30	-37.6	-39.7	14.0	5.70e-06	0	56	0	3274702848	46	4697
2026-01-10 00:39:20.33	150.78	10.23	-37.5	-39.6	14.1	2.20e-06	0	56	0	3279945728	46	4646
2026-01-10 00:39:21.33	150.89	10.16	-37.7	-39.8	13.9	5.70e-06	0	56	0	3286237184	46	4757
2026-01-10 00:39:22.34	150.99	10.08	-37.5	-39.6	14.1	6.80e-06	0	56	0	3291480064	46	4626
2026-01-10 00:39:23.35	151.10	10.01	-37.5	-39.6	14.1	0.00e+00	0	56	0	3296722944	46	4619
2026-01-10 00:39:24.35	151.20	9.94	-37.5	-39.6	14.0	6.80e-06	0	56	0	3303014400	46	4637
2026-01-10 00:39:25.36	151.30	9.86	-37.6	-39.7	13.9	4.50e-06	0	56	0	3308257280	46	4686
2026-01-10 00:39:26.37	151.40	9.79	-37.5	-39.6	14.0	5.70e-06	0	56	0	3314548736	46	4649
2026-01-10 00:39:27.37	151.51	9.72	-37.6	-39.7	13.9	6.80e-06	0	56	0	3319791616	46	4677
2026-01-10 00:39:28.38	151.61	9.65	-37.6	-39.8	13.9	3.40e-06	0	56	0	3326083072	46	4711
2026-01-10 00:39:29.38	151.71	9.58	-37.7	-39.9	13.7	1.02e-05	0	56	0	3331325952	46	4767
2026-01-10 00:39:30.39	151.81	9.51	-37.8	-40.0	13.6	8.00e-06	0	56	0	3336568832	46	4851
2026-01-10 00:39:31.40	151.91	9.43	-37.7	-39.9	13.6	1.71e-05	0	56	0	3342860288	46	4806
2026-01-10 00:39:32.40	152.01	9.36	-37.8	-40.1	13.5	2.17e-05	0	56	0	3348103168	46	4896
2026-01-10 00:39:33.41	152.11	9.29	-37.9	-40.2	13.4	1.02e-05	0	56	0	3354394624	46	4933
2026-01-10 00:39:34.42	152.21	9.22	-37.9	-40.2	13.3	3.20e-05	0	56	0	3359637504	46	4948
2026-01-10 00:39:35.43	152.30	9.15	-37.8	-40.1	13.4	2.86e-05	0	56	0	3364880384	46	4896
2026-01-10 00:39:36.43	152.40	9.08	-37.9	-40.2	13.4	2.05e-05	0	56	0	3371171840	46	4929
2026-01-10 00:39:37.44	152.50	9.01	-37.9	-40.2	13.3	3.20e-05	0	56	0	3376414720	46	4966
2026-01-10 00:39:38.45	152.60	8.94	-37.8	-40.1	13.4	2.05e-05	0	56	0	3382706176	46	4894
2026-01-10 00:39:39.46	152.69	8.87	-37.8	-40.0	13.4	1.37e-05	0	56	0	3387949056	46	4844
2026-01-10 00:39:40.46	152.79	8.80	-37.8	-40.1	13.3	1.94e-05	0	56	0	3393191936	46	4891
2026-01-10 00:39:41.47	152.88	8.73	-37.8	-40.1	13.3	3.54e-05	0	56	0	3399483392	46	4914
2026-01-10 00:39:42.48	152.98	8.66	-37.8	-40.1	13.3	1.94e-05	0	56	0	3404726272	46	4913
2026-01-10 00:39:43.48	153.07	8.59	-37.8	-40.1	13.3	2.05e-05	0	56	0	3411017728	46	4884
2026-01-10 00:39:44.49	153.17	8.52	-37.8	-40.1	13.2	3.43e-05	0	56	0	3416260608	46	4914
