passes_logs/2026/01/10/R2.0S_Moscow/R2.0S_Moscow__20260110_053433_FENGYUN_3E_rec.log

#Pass ID: 20260110_053433_FENGYUN 3E
#Satellite: FENGYUN 3E
#Configuration: FENGYUN 3E
#almurnet v.1.7.20251203
#Start time: 2026-01-10 05:34:34

#Version: 2.2.20231116
#Station: R2.0S_Moscow
#Location: 37.707566 lon 55.798166 lat
#TLE: 1 49008U 21062A   26009.29780149 -.00000002  00000+0  19895-4 0  9997
#TLE: 2 49008  98.7484  14.4929 0001744 148.2300 211.8982 14.19883977234036

#Time	Az	El	Level	Level2	SNR	BER	BlckErr	Temp	State	Recorded	gain1	gain2
2026-01-10 05:34:34.31	10.29	2.03	-40.1	-51.2	3.8	8.46e-01	0	46	0	0	51	12397
2026-01-10 05:34:35.31	10.22	2.08	-40.1	-51.2	3.8	8.45e-01	0	47	104	0	51	12386
2026-01-10 05:34:36.32	10.16	2.14	-40.1	-51.2	3.8	8.45e-01	0	46	104	0	51	12400
2026-01-10 05:34:37.33	10.09	2.20	-40.1	-51.1	3.8	8.46e-01	0	47	104	0	51	12373
2026-01-10 05:34:38.34	10.03	2.26	-40.1	-51.2	3.8	8.47e-01	0	47	104	0	51	12408
2026-01-10 05:34:39.35	9.97	2.31	-40.1	-51.1	3.8	8.47e-01	0	47	104	0	51	12372
2026-01-10 05:34:40.36	9.90	2.37	-40.1	-51.1	3.8	8.46e-01	0	47	104	0	51	12355
2026-01-10 05:34:41.36	9.84	2.43	-40.1	-51.2	3.8	8.47e-01	0	47	104	0	51	12411
2026-01-10 05:34:42.37	9.77	2.49	-40.1	-51.2	3.8	8.45e-01	0	47	104	0	51	12390
2026-01-10 05:34:43.38	9.71	2.54	-40.1	-51.1	3.8	8.46e-01	0	47	104	0	51	12369
2026-01-10 05:34:44.39	9.64	2.60	-40.1	-51.2	3.8	8.45e-01	0	47	104	0	51	12385
2026-01-10 05:34:45.40	9.57	2.66	-40.1	-51.1	3.8	8.46e-01	0	47	104	0	51	12366
2026-01-10 05:34:46.41	9.51	2.72	-40.1	-51.1	3.8	8.46e-01	0	48	104	0	51	12353
2026-01-10 05:34:47.42	9.44	2.78	-40.1	-51.2	3.8	8.46e-01	0	47	104	0	51	12389
2026-01-10 05:34:48.43	9.37	2.83	-40.1	-51.1	3.8	8.45e-01	0	48	104	0	51	12360
2026-01-10 05:34:49.44	9.31	2.89	-40.1	-51.2	3.8	8.47e-01	0	48	104	0	51	12391
2026-01-10 05:34:50.45	9.24	2.95	-40.1	-51.2	3.8	8.46e-01	0	48	104	0	51	12423
2026-01-10 05:34:51.46	9.17	3.01	-40.1	-51.1	3.8	8.46e-01	0	48	104	0	51	12314
2026-01-10 05:34:52.47	9.10	3.07	-40.1	-51.1	3.8	8.46e-01	0	48	104	0	51	12349
2026-01-10 05:34:53.48	9.03	3.13	-40.1	-51.2	3.8	8.47e-01	0	48	104	0	51	12382
2026-01-10 05:34:54.48	8.96	3.19	-40.1	-51.1	3.8	8.46e-01	0	48	104	0	51	12364
2026-01-10 05:34:55.49	8.90	3.24	-40.1	-51.1	3.8	8.45e-01	0	48	104	0	51	12363
2026-01-10 05:34:56.50	8.83	3.30	-40.1	-51.2	3.8	8.46e-01	0	48	104	0	51	12408
2026-01-10 05:34:57.51	8.76	3.36	-40.1	-51.2	3.8	8.46e-01	0	48	104	0	51	12382
2026-01-10 05:34:58.52	8.69	3.42	-40.1	-51.1	3.8	8.46e-01	0	48	104	0	51	12370
2026-01-10 05:34:59.53	8.62	3.48	-40.1	-51.1	3.8	8.47e-01	0	48	104	0	51	12362
2026-01-10 05:35:00.53	8.55	3.54	-40.1	-51.2	3.8	8.46e-01	0	49	104	0	51	12397
2026-01-10 05:35:01.54	8.48	3.60	-40.1	-51.1	3.8	8.46e-01	0	49	104	0	51	12338
2026-01-10 05:35:02.55	8.40	3.66	-40.1	-51.2	3.8	8.46e-01	0	49	104	0	51	12419
2026-01-10 05:35:03.56	8.33	3.72	-40.1	-51.2	3.8	8.45e-01	0	49	104	0	51	12376
2026-01-10 05:35:04.57	8.26	3.78	-40.1	-51.2	3.8	8.45e-01	0	49	104	0	51	12376
2026-01-10 05:35:05.58	8.19	3.84	-40.1	-51.1	3.8	8.46e-01	0	49	104	0	51	12327
2026-01-10 05:35:06.59	8.12	3.90	-40.1	-51.2	3.8	8.46e-01	0	49	104	0	51	12384
2026-01-10 05:35:07.60	8.04	3.96	-40.1	-51.1	3.8	8.46e-01	0	49	104	0	51	12357
2026-01-10 05:35:08.61	7.97	4.02	-40.1	-51.1	3.8	8.46e-01	0	49	104	0	51	12368
2026-01-10 05:35:09.62	7.90	4.08	-40.1	-51.2	3.8	8.46e-01	0	49	104	0	51	12384
2026-01-10 05:35:10.63	7.82	4.14	-40.1	-51.2	3.8	8.47e-01	0	49	104	0	51	12402
2026-01-10 05:35:11.64	7.75	4.20	-40.1	-51.2	3.8	8.45e-01	0	49	104	0	51	12379
2026-01-10 05:35:12.65	7.67	4.26	-40.1	-51.1	3.8	8.47e-01	0	49	104	0	51	12336
2026-01-10 05:35:13.66	7.60	4.32	-40.1	-51.1	3.8	8.47e-01	0	49	104	0	51	12345
2026-01-10 05:35:14.67	7.53	4.38	-40.1	-51.1	3.8	8.47e-01	0	49	104	0	51	12339
2026-01-10 05:35:15.67	7.45	4.44	-40.1	-51.2	3.8	8.45e-01	0	49	104	0	51	12384
2026-01-10 05:35:16.68	7.38	4.50	-40.1	-51.1	3.8	8.46e-01	0	49	104	0	51	12367
2026-01-10 05:35:17.69	7.30	4.56	-40.1	-51.1	3.8	8.47e-01	0	49	104	0	51	12369
2026-01-10 05:35:18.70	7.22	4.62	-40.1	-51.1	3.8	8.46e-01	0	50	104	0	51	12347
2026-01-10 05:35:19.71	7.15	4.68	-40.1	-51.1	3.8	8.45e-01	0	50	104	0	51	12361
2026-01-10 05:35:20.72	7.07	4.74	-40.1	-51.1	3.8	8.46e-01	0	50	104	0	51	12365
2026-01-10 05:35:21.73	6.99	4.81	-40.1	-51.2	3.8	8.46e-01	0	50	104	0	51	12379
2026-01-10 05:35:22.73	6.91	4.87	-40.1	-51.2	3.8	8.45e-01	0	50	104	0	51	12389
2026-01-10 05:35:23.74	6.84	4.93	-40.1	-51.1	3.8	8.46e-01	0	50	104	0	51	12361
2026-01-10 05:35:24.75	6.76	4.99	-40.1	-51.2	3.8	8.46e-01	0	50	104	0	51	12398
2026-01-10 05:35:25.76	6.68	5.05	-40.1	-51.1	3.8	8.47e-01	0	50	104	0	51	12371
2026-01-10 05:35:26.77	6.60	5.11	-40.1	-51.1	3.8	8.46e-01	0	50	104	0	51	12329
2026-01-10 05:35:27.77	6.52	5.17	-40.1	-51.1	3.8	8.47e-01	0	50	104	0	51	12337
2026-01-10 05:35:28.78	6.44	5.24	-40.1	-51.1	3.8	8.46e-01	0	50	104	0	51	12326
2026-01-10 05:35:29.79	6.36	5.30	-40.1	-51.1	3.8	8.46e-01	0	50	104	0	51	12364
2026-01-10 05:35:30.80	6.28	5.36	-40.1	-51.1	3.8	8.46e-01	0	50	104	0	51	12349
2026-01-10 05:35:31.81	6.20	5.42	-40.1	-51.1	3.8	8.45e-01	0	50	104	0	51	12371
2026-01-10 05:35:32.82	6.12	5.48	-40.1	-51.2	3.8	8.46e-01	0	50	104	0	51	12400
2026-01-10 05:35:33.83	6.04	5.55	-40.1	-51.1	3.8	8.46e-01	0	51	104	0	51	12342
2026-01-10 05:35:34.83	5.96	5.61	-40.1	-51.1	3.8	8.47e-01	0	51	104	0	51	12357
2026-01-10 05:35:35.84	5.87	5.67	-40.1	-51.1	3.8	8.46e-01	0	51	104	0	51	12342
2026-01-10 05:35:36.85	5.79	5.73	-40.1	-51.1	3.8	8.46e-01	0	51	104	0	51	12358
2026-01-10 05:35:37.86	5.71	5.80	-40.1	-51.2	3.8	8.46e-01	0	51	104	0	51	12393
2026-01-10 05:35:38.87	5.63	5.86	-40.1	-51.1	3.8	8.46e-01	0	51	104	0	51	12359
2026-01-10 05:35:39.88	5.54	5.92	-40.1	-51.1	3.8	8.48e-01	0	51	104	0	51	12355
2026-01-10 05:35:40.89	5.46	5.98	-40.1	-51.1	3.8	8.46e-01	0	51	104	0	51	12352
2026-01-10 05:35:41.90	5.37	6.05	-40.1	-51.1	3.8	8.47e-01	0	51	104	0	51	12369
2026-01-10 05:35:42.91	5.29	6.11	-40.1	-51.1	3.8	8.46e-01	0	51	104	0	51	12319
2026-01-10 05:35:43.91	5.20	6.17	-40.1	-51.1	3.8	8.47e-01	0	51	104	0	51	12346
2026-01-10 05:35:44.92	5.12	6.24	-40.1	-51.1	3.8	8.47e-01	0	51	104	0	51	12336
2026-01-10 05:35:45.93	5.03	6.30	-40.1	-51.1	3.8	8.46e-01	0	51	104	0	51	12364
2026-01-10 05:35:46.94	4.95	6.36	-40.1	-51.1	3.8	8.46e-01	0	51	104	0	51	12372
2026-01-10 05:35:47.95	4.86	6.43	-40.1	-51.2	3.8	8.47e-01	0	51	104	0	51	12396
2026-01-10 05:35:48.96	4.77	6.49	-40.1	-51.2	3.8	8.46e-01	0	51	104	0	51	12387
2026-01-10 05:35:49.97	4.68	6.55	-40.1	-51.2	3.8	8.45e-01	0	51	104	0	51	12396
2026-01-10 05:35:50.97	4.60	6.62	-40.1	-51.1	3.8	8.46e-01	0	51	104	0	51	12327
2026-01-10 05:35:51.98	4.51	6.68	-40.1	-51.1	3.8	8.46e-01	0	51	104	0	51	12347
2026-01-10 05:35:52.99	4.42	6.75	-40.1	-51.2	3.8	8.47e-01	0	52	104	0	51	12406
2026-01-10 05:35:53.99	4.33	6.81	-40.1	-51.1	3.8	8.47e-01	0	52	104	0	51	12366
2026-01-10 05:35:55.00	4.24	6.87	-40.1	-51.1	3.8	8.47e-01	0	51	104	0	51	12350
2026-01-10 05:35:56.01	4.15	6.94	-40.1	-51.1	3.8	8.46e-01	0	52	104	0	51	12364
2026-01-10 05:35:57.03	4.06	7.00	-40.1	-51.1	3.8	8.47e-01	0	52	104	0	51	12361
2026-01-10 05:35:58.03	3.97	7.07	-40.1	-51.2	3.8	8.46e-01	0	52	104	0	51	12392
2026-01-10 05:35:59.04	3.88	7.13	-40.1	-51.2	3.8	8.46e-01	0	52	104	0	51	12397
2026-01-10 05:36:00.05	3.79	7.20	-40.1	-51.1	3.8	8.46e-01	0	51	104	0	51	12368
2026-01-10 05:36:01.06	3.69	7.26	-40.1	-51.1	3.8	8.46e-01	0	51	104	0	51	12356
2026-01-10 05:36:02.07	3.60	7.33	-40.1	-51.1	3.8	8.46e-01	0	52	104	0	51	12341
2026-01-10 05:36:03.08	3.51	7.39	-40.1	-51.1	3.8	8.46e-01	0	52	104	0	51	12349
2026-01-10 05:36:04.09	3.41	7.46	-40.1	-51.1	3.8	8.46e-01	0	52	104	0	51	12304
2026-01-10 05:36:05.10	3.32	7.52	-40.1	-51.2	3.8	8.47e-01	0	52	104	0	51	12382
2026-01-10 05:36:06.11	3.23	7.59	-40.1	-51.1	3.8	8.46e-01	0	52	104	0	51	12351
2026-01-10 05:36:07.12	3.13	7.65	-40.1	-51.1	3.8	8.46e-01	0	52	104	0	51	12326
2026-01-10 05:36:08.13	3.04	7.72	-40.1	-51.2	3.8	8.45e-01	0	52	104	0	51	12384
2026-01-10 05:36:09.13	2.94	7.78	-40.1	-51.1	3.8	8.45e-01	0	52	104	0	51	12346
2026-01-10 05:36:10.14	2.85	7.85	-40.1	-51.1	3.8	8.46e-01	0	52	104	0	51	12373
2026-01-10 05:36:11.15	2.75	7.91	-40.1	-51.1	3.8	8.47e-01	0	52	104	0	51	12315
2026-01-10 05:36:12.16	2.65	7.98	-40.1	-51.1	3.8	8.46e-01	0	52	104	0	51	12350
2026-01-10 05:36:13.17	2.55	8.04	-40.1	-51.2	3.8	8.45e-01	0	52	104	0	51	12408
2026-01-10 05:36:14.18	2.46	8.11	-40.1	-51.2	3.8	8.46e-01	0	52	104	0	51	12419
2026-01-10 05:36:15.19	2.36	8.18	-40.1	-51.2	3.8	8.46e-01	0	52	104	0	51	12460
2026-01-10 05:36:16.20	2.26	8.24	-40.2	-51.2	3.8	8.47e-01	0	53	104	0	51	12510
2026-01-10 05:36:17.21	2.16	8.31	-40.2	-51.3	3.8	8.47e-01	0	52	104	0	51	12609
2026-01-10 05:36:18.22	2.06	8.38	-40.1	-51.2	3.8	8.45e-01	0	53	104	0	51	12477
2026-01-10 05:36:19.23	1.96	8.44	-40.2	-51.3	3.8	8.46e-01	0	52	104	0	51	12632
2026-01-10 05:36:20.24	1.86	8.51	-40.1	-51.2	3.8	8.45e-01	0	53	104	0	51	12390
2026-01-10 05:36:21.24	1.76	8.57	-40.1	-51.3	3.8	8.46e-01	0	52	104	0	51	12542
2026-01-10 05:36:22.25	1.66	8.64	-40.1	-51.2	3.8	8.47e-01	0	53	104	0	51	12503
2026-01-10 05:36:23.26	1.55	8.71	-40.1	-51.3	3.8	8.46e-01	0	53	104	0	51	12597
2026-01-10 05:36:24.27	1.45	8.77	-40.0	-51.2	3.8	8.46e-01	0	53	104	0	51	12487
2026-01-10 05:36:25.28	1.35	8.84	-40.0	-51.3	3.8	8.46e-01	0	53	104	0	51	12527
2026-01-10 05:36:26.29	1.24	8.91	-40.2	-51.3	3.8	8.47e-01	0	53	104	0	51	12555
2026-01-10 05:36:27.30	1.14	8.98	-40.0	-51.2	3.8	8.45e-01	0	53	104	0	51	12496
2026-01-10 05:36:28.31	1.04	9.04	-40.1	-51.2	3.8	8.46e-01	0	53	104	0	51	12508
2026-01-10 05:36:29.32	0.93	9.11	-40.0	-51.2	3.8	8.45e-01	0	53	104	0	51	12490
2026-01-10 05:36:30.34	0.82	9.18	-39.9	-51.2	3.8	8.46e-01	0	53	104	0	50	13223
2026-01-10 05:36:31.34	0.72	9.25	-40.1	-51.2	3.8	8.46e-01	0	53	104	0	50	13215
2026-01-10 05:36:32.35	0.61	9.31	-39.9	-51.2	3.8	8.46e-01	0	53	104	0	50	13196
2026-01-10 05:36:33.36	0.50	9.38	-40.1	-51.3	3.8	8.47e-01	0	53	104	0	50	13293
2026-01-10 05:36:34.37	0.40	9.45	-40.0	-51.2	3.8	8.46e-01	0	53	104	0	50	13229
2026-01-10 05:36:35.38	0.29	9.52	-40.0	-51.3	3.8	8.45e-01	0	53	104	0	50	13291
2026-01-10 05:36:36.39	0.18	9.58	-40.0	-51.2	3.8	8.46e-01	0	53	104	0	50	13189
2026-01-10 05:36:37.40	0.07	9.65	-40.1	-51.3	3.8	8.46e-01	0	53	104	0	50	13309
2026-01-10 05:36:38.41	359.96	9.72	-40.0	-51.2	3.8	8.45e-01	0	53	104	0	50	13236
2026-01-10 05:36:39.42	359.85	9.79	-40.1	-51.3	3.8	8.47e-01	0	53	104	0	50	13310
2026-01-10 05:36:40.43	359.74	9.86	-39.7	-51.3	3.8	8.46e-01	0	53	104	0	50	13270
2026-01-10 05:36:41.43	359.63	9.92	-40.0	-51.3	3.8	8.45e-01	0	53	104	0	50	13297
2026-01-10 05:36:42.45	359.52	9.99	-40.0	-51.3	3.8	8.46e-01	0	53	104	0	50	13304
2026-01-10 05:36:43.45	359.40	10.06	-40.0	-51.3	3.8	8.47e-01	0	53	104	0	50	13279
2026-01-10 05:36:44.46	359.29	10.13	-40.1	-51.3	3.8	8.46e-01	0	53	104	0	50	13345
2026-01-10 05:36:45.46	359.18	10.20	-40.0	-51.3	3.8	8.45e-01	0	53	104	0	50	13337
2026-01-10 05:36:46.47	359.06	10.27	-39.7	-51.2	3.8	8.47e-01	0	53	104	0	50	13219
2026-01-10 05:36:47.48	358.95	10.34	-40.0	-51.3	3.8	8.46e-01	0	53	104	0	50	13311
2026-01-10 05:36:48.49	358.83	10.40	-39.6	-51.2	3.8	8.46e-01	0	53	104	0	50	13197
2026-01-10 05:36:49.50	358.72	10.47	-39.8	-51.3	3.8	8.46e-01	0	53	104	0	50	13391
2026-01-10 05:36:50.51	358.60	10.54	-39.8	-51.3	3.8	8.47e-01	0	54	104	0	50	13349
2026-01-10 05:36:51.52	358.48	10.61	-39.8	-51.3	3.8	8.46e-01	0	54	104	0	50	13336
2026-01-10 05:36:52.53	358.37	10.68	-40.0	-51.4	3.8	8.47e-01	0	53	104	0	50	13519
2026-01-10 05:36:53.53	358.25	10.75	-39.8	-51.4	3.8	8.46e-01	0	54	104	0	50	13474
2026-01-10 05:36:54.55	358.13	10.82	-39.8	-51.3	3.8	8.46e-01	0	53	104	0	50	13404
2026-01-10 05:36:55.55	358.01	10.89	-39.9	-51.4	3.8	8.47e-01	0	53	104	0	50	13417
2026-01-10 05:36:56.56	357.89	10.96	-40.1	-51.4	3.8	8.45e-01	0	53	104	0	50	13464
2026-01-10 05:36:57.57	357.77	11.03	-39.9	-51.5	3.8	8.46e-01	0	54	104	0	50	13580
2026-01-10 05:36:58.58	357.65	11.10	-40.0	-51.5	3.8	8.47e-01	0	54	104	0	50	13592
2026-01-10 05:36:59.59	357.53	11.17	-40.0	-51.5	3.8	8.46e-01	0	54	104	0	50	13592
2026-01-10 05:37:00.60	357.41	11.24	-40.2	-51.6	3.8	8.46e-01	0	53	104	0	50	13786
2026-01-10 05:37:01.61	357.28	11.31	-40.1	-51.4	3.8	8.46e-01	0	54	104	0	50	13473
2026-01-10 05:37:02.62	357.16	11.38	-40.1	-51.3	3.8	8.46e-01	0	54	104	0	50	13306
2026-01-10 05:37:03.63	357.04	11.45	-40.0	-51.3	3.8	8.47e-01	0	54	104	0	50	13267
2026-01-10 05:37:04.64	356.91	11.52	-40.0	-51.2	3.8	8.46e-01	0	54	104	0	50	13231
2026-01-10 05:37:05.65	356.79	11.59	-40.1	-51.2	3.8	8.47e-01	0	54	104	0	50	13123
2026-01-10 05:37:06.66	356.66	11.66	-40.1	-50.0	3.8	8.47e-01	0	54	104	0	50	11471
2026-01-10 05:37:07.67	356.53	11.73	-40.0	-50.8	3.8	8.42e-01	0	54	104	0	50	12586
2026-01-10 05:37:08.68	356.41	11.80	-41.0	-50.2	4.0	8.45e-01	0	54	104	0	51	11132
2026-01-10 05:37:09.69	356.28	11.87	-40.0	-49.1	4.0	8.36e-01	0	54	104	0	50	10388
2026-01-10 05:37:10.70	356.15	11.94	-40.1	-49.5	3.9	8.45e-01	0	54	104	0	50	10833
2026-01-10 05:37:11.71	356.02	12.01	-40.6	-49.8	4.0	8.44e-01	0	54	104	0	50	11181
2026-01-10 05:37:12.72	355.89	12.08	-40.7	-50.2	3.9	8.44e-01	0	54	104	0	50	11698
2026-01-10 05:37:13.73	355.76	12.15	-40.7	-50.4	3.8	8.45e-01	0	54	104	0	51	11302
2026-01-10 05:37:14.74	355.63	12.22	-40.7	-50.6	3.8	8.47e-01	0	54	104	0	51	11624
2026-01-10 05:37:15.74	355.50	12.29	-40.5	-50.6	3.8	8.47e-01	0	54	104	0	51	11680
2026-01-10 05:37:16.75	355.37	12.36	-41.3	-51.5	3.8	8.45e-01	0	54	104	0	52	12098
2026-01-10 05:37:17.76	355.23	12.43	-40.3	-50.9	3.8	8.46e-01	0	54	104	0	51	12000
2026-01-10 05:37:18.77	355.10	12.50	-40.4	-51.3	3.8	8.46e-01	0	54	104	0	51	12560
2026-01-10 05:37:19.78	354.97	12.57	-40.6	-51.2	3.8	8.47e-01	0	54	104	0	51	12482
2026-01-10 05:37:20.79	354.83	12.65	-40.5	-51.2	3.8	8.47e-01	0	54	104	0	51	12435
2026-01-10 05:37:21.80	354.70	12.72	-40.4	-51.3	3.8	8.47e-01	0	54	104	0	51	12619
2026-01-10 05:37:22.81	354.56	12.79	-40.4	-51.4	3.8	8.45e-01	0	54	104	0	51	12753
2026-01-10 05:37:23.82	354.42	12.86	-40.4	-51.6	3.8	8.48e-01	0	54	104	0	51	13007
2026-01-10 05:37:24.82	354.29	12.93	-40.6	-51.4	3.8	8.45e-01	0	54	104	0	51	12780
2026-01-10 05:37:25.82	354.15	13.00	-40.7	-51.7	3.8	8.46e-01	0	55	104	0	51	13235
2026-01-10 05:37:26.83	354.01	13.07	-40.9	-51.9	3.8	8.47e-01	0	54	104	0	51	13415
2026-01-10 05:37:27.85	353.87	13.14	-40.6	-51.7	3.8	8.46e-01	0	54	104	0	51	13114
2026-01-10 05:37:28.86	353.73	13.21	-40.8	-51.8	3.8	8.46e-01	0	54	104	0	51	13340
2026-01-10 05:37:29.86	353.59	13.28	-40.6	-51.7	3.8	8.46e-01	0	54	104	0	51	13184
2026-01-10 05:37:30.87	353.45	13.36	-40.9	-52.0	3.8	8.45e-01	0	54	104	0	51	13607
2026-01-10 05:37:31.88	353.31	13.43	-40.5	-51.7	3.8	8.45e-01	0	54	104	0	51	13193
2026-01-10 05:37:32.89	353.16	13.50	-41.0	-52.0	3.8	8.47e-01	0	54	104	0	51	13616
2026-01-10 05:37:33.90	353.02	13.57	-40.7	-51.7	3.8	8.46e-01	0	54	104	0	51	13205
2026-01-10 05:37:34.91	352.87	13.64	-40.9	-51.9	3.8	8.47e-01	0	54	104	0	51	13435
2026-01-10 05:37:35.92	352.73	13.71	-40.9	-51.9	3.8	8.46e-01	0	55	104	0	51	13533
2026-01-10 05:37:36.93	352.58	13.79	-40.9	-51.9	3.8	8.46e-01	0	54	104	0	51	13517
2026-01-10 05:37:37.93	352.44	13.86	-41.0	-52.0	3.8	8.47e-01	0	54	104	0	51	13630
2026-01-10 05:37:38.94	352.29	13.93	-40.9	-52.0	3.8	8.47e-01	0	54	104	0	51	13655
2026-01-10 05:37:39.95	352.14	14.00	-40.9	-52.0	3.8	8.46e-01	0	54	104	0	51	13578
2026-01-10 05:37:40.96	351.99	14.07	-40.9	-52.0	3.8	8.46e-01	0	54	104	0	51	13671
2026-01-10 05:37:41.97	351.84	14.14	-40.9	-52.0	3.8	8.46e-01	0	54	104	0	51	13632
2026-01-10 05:37:42.99	351.69	14.22	-40.9	-52.1	3.8	8.46e-01	0	55	104	0	51	13774
2026-01-10 05:37:44.00	351.54	14.29	-40.9	-52.0	3.8	8.47e-01	0	54	104	0	51	13587
2026-01-10 05:37:45.00	351.39	14.36	-40.9	-52.1	3.8	8.45e-01	0	55	104	0	51	13730
2026-01-10 05:37:46.01	351.24	14.43	-40.9	-52.0	3.8	8.45e-01	0	54	104	0	51	13637
2026-01-10 05:37:47.02	351.08	14.50	-40.8	-52.3	3.8	8.46e-01	0	55	104	0	51	14165
2026-01-10 05:37:48.02	350.93	14.57	-41.0	-52.0	3.8	8.46e-01	0	54	104	0	51	13639
2026-01-10 05:37:49.03	350.78	14.64	-40.6	-52.4	3.8	8.45e-01	0	55	104	0	51	14215
2026-01-10 05:37:50.04	350.62	14.72	-40.9	-52.0	3.8	8.46e-01	0	55	104	0	51	13610
2026-01-10 05:37:51.05	350.46	14.79	-40.9	-52.1	3.8	8.46e-01	0	55	104	0	51	13822
2026-01-10 05:37:52.06	350.31	14.86	-40.6	-52.1	3.8	8.46e-01	0	55	104	0	51	13807
2026-01-10 05:37:53.07	350.15	14.93	-41.0	-52.1	3.8	8.46e-01	0	55	104	0	51	13827
2026-01-10 05:37:54.07	349.99	15.00	-40.5	-52.1	3.8	8.47e-01	0	55	104	0	51	13766
2026-01-10 05:37:55.08	349.83	15.07	-40.8	-52.4	3.8	8.45e-01	0	55	104	0	51	14226
2026-01-10 05:37:56.09	349.67	15.15	-40.8	-52.3	3.8	8.46e-01	0	55	104	0	51	14167
2026-01-10 05:37:57.10	349.51	15.22	-41.1	-52.5	3.8	8.46e-01	0	54	104	0	51	14479
2026-01-10 05:37:58.11	349.35	15.29	-40.5	-52.3	3.8	8.45e-01	0	55	104	0	51	14188
2026-01-10 05:37:59.12	349.18	15.36	-40.9	-52.2	3.8	8.45e-01	0	55	104	0	51	13948
2026-01-10 05:38:00.13	349.02	15.43	-41.1	-52.5	3.8	8.47e-01	0	55	104	0	52	13580
2026-01-10 05:38:01.14	348.86	15.50	-41.1	-52.3	3.8	8.45e-01	0	55	104	0	52	13384
2026-01-10 05:38:02.15	348.69	15.58	-41.5	-52.6	3.8	8.44e-01	0	55	104	0	52	13752
2026-01-10 05:38:03.16	348.53	15.65	-41.3	-52.8	3.8	8.46e-01	0	55	104	0	52	14054
2026-01-10 05:38:04.17	348.36	15.72	-40.7	-52.3	3.8	8.46e-01	0	55	104	0	52	13340
2026-01-10 05:38:05.18	348.19	15.79	-41.4	-52.7	3.8	8.46e-01	0	55	104	0	52	14039
2026-01-10 05:38:06.18	348.02	15.86	-41.1	-52.5	3.8	8.47e-01	0	55	104	0	52	13599
2026-01-10 05:38:07.19	347.86	15.93	-41.7	-52.8	3.8	8.46e-01	0	55	104	0	52	14110
2026-01-10 05:38:08.21	347.68	16.00	-41.5	-52.7	3.8	8.46e-01	0	55	104	0	52	13931
2026-01-10 05:38:09.21	347.51	16.08	-41.7	-52.7	3.8	8.46e-01	0	55	104	0	52	14039
2026-01-10 05:38:10.22	347.34	16.15	-41.6	-52.7	3.8	8.46e-01	0	55	104	0	52	13953
2026-01-10 05:38:11.23	347.17	16.22	-41.6	-52.7	3.8	8.46e-01	0	55	104	0	52	13999
2026-01-10 05:38:12.24	347.00	16.29	-41.4	-52.8	3.8	8.46e-01	0	55	104	0	52	14077
2026-01-10 05:38:13.25	346.82	16.36	-41.5	-52.6	3.8	8.45e-01	0	55	104	0	52	13838
2026-01-10 05:38:14.26	346.65	16.43	-41.6	-52.8	3.8	8.46e-01	0	55	104	0	52	14066
2026-01-10 05:38:15.27	346.47	16.50	-41.4	-52.5	3.8	8.44e-01	0	55	104	0	52	13680
2026-01-10 05:38:16.28	346.29	16.57	-41.4	-52.4	3.8	8.45e-01	0	55	104	0	52	13533
2026-01-10 05:38:17.29	346.12	16.64	-41.3	-52.4	3.8	8.47e-01	0	55	104	0	52	13426
2026-01-10 05:38:18.29	345.94	16.71	-40.7	-52.2	3.8	8.46e-01	0	55	104	0	52	13118
2026-01-10 05:38:19.30	345.76	16.78	-41.0	-52.2	3.8	8.46e-01	0	55	104	0	52	13209
2026-01-10 05:38:20.31	345.58	16.85	-41.3	-52.5	3.8	8.46e-01	0	55	104	0	52	13629
2026-01-10 05:38:21.32	345.40	16.92	-41.1	-52.2	3.8	8.45e-01	0	55	104	0	52	13178
2026-01-10 05:38:22.33	345.22	17.00	-41.2	-52.4	3.8	8.46e-01	0	55	104	0	52	13446
2026-01-10 05:38:23.34	345.03	17.07	-41.0	-52.0	3.8	8.48e-01	0	55	104	0	52	12878
2026-01-10 05:38:24.35	344.85	17.14	-40.9	-52.2	3.8	8.46e-01	0	55	104	0	52	13181
2026-01-10 05:38:25.36	344.67	17.21	-40.9	-52.0	3.8	8.47e-01	0	55	104	0	52	12850
2026-01-10 05:38:26.37	344.48	17.28	-41.0	-52.1	3.8	8.46e-01	0	55	104	0	52	13083
2026-01-10 05:38:27.38	344.29	17.35	-40.7	-52.1	3.8	8.46e-01	0	55	104	0	51	13732
2026-01-10 05:38:28.38	344.11	17.41	-41.1	-52.2	3.8	8.46e-01	0	55	104	0	52	13173
2026-01-10 05:38:29.39	343.92	17.48	-40.5	-51.9	3.8	8.46e-01	0	55	104	0	51	13502
2026-01-10 05:38:30.40	343.73	17.55	-40.9	-52.0	3.8	8.46e-01	0	55	104	0	52	12859
2026-01-10 05:38:31.41	343.54	17.62	-40.5	-51.9	3.8	8.47e-01	0	55	104	0	51	13442
2026-01-10 05:38:32.42	343.35	17.69	-40.4	-52.0	3.8	8.46e-01	0	55	104	0	51	13617
2026-01-10 05:38:33.43	343.16	17.76	-40.5	-51.9	3.8	8.45e-01	0	55	104	0	51	13434
2026-01-10 05:38:34.44	342.97	17.83	-40.6	-52.1	3.8	8.46e-01	0	55	104	0	51	13753
2026-01-10 05:38:35.44	342.78	17.90	-40.7	-51.9	3.8	8.45e-01	0	55	104	0	51	13506
2026-01-10 05:38:36.46	342.58	17.97	-40.6	-51.9	3.8	8.47e-01	0	55	104	0	51	13502
2026-01-10 05:38:37.47	342.38	18.04	-40.7	-51.9	3.8	8.47e-01	0	55	104	0	51	13522
2026-01-10 05:38:38.48	342.19	18.10	-40.7	-51.8	3.8	8.46e-01	0	55	104	0	51	13380
2026-01-10 05:38:39.49	341.99	18.17	-40.6	-51.9	3.8	8.47e-01	0	55	104	0	51	13516
2026-01-10 05:38:40.50	341.79	18.24	-40.6	-52.0	3.8	8.46e-01	0	55	104	0	51	13590
2026-01-10 05:38:41.51	341.59	18.31	-40.6	-52.0	3.8	8.47e-01	0	55	104	0	51	13712
2026-01-10 05:38:42.52	341.40	18.38	-40.9	-52.1	3.8	8.46e-01	0	55	104	0	51	13792
2026-01-10 05:38:43.53	341.19	18.44	-40.8	-52.0	3.8	8.45e-01	0	55	104	0	52	12902
2026-01-10 05:38:44.53	341.00	18.51	-40.9	-52.0	3.8	8.46e-01	0	55	104	0	51	13676
2026-01-10 05:38:45.55	340.79	18.58	-41.0	-52.0	3.8	8.46e-01	0	55	104	0	52	12852
2026-01-10 05:38:46.55	340.59	18.64	-41.0	-51.6	3.8	8.46e-01	0	55	104	0	52	12267
2026-01-10 05:38:47.56	340.39	18.71	-41.3	-52.3	3.8	8.46e-01	0	55	104	0	52	13288
2026-01-10 05:38:48.57	340.18	18.78	-41.4	-52.3	3.8	8.46e-01	0	55	104	0	52	13339
2026-01-10 05:38:49.58	339.97	18.84	-41.8	-50.7	4.0	8.44e-01	0	55	104	0	53	10417
2026-01-10 05:38:50.58	339.77	18.91	-41.8	-50.7	3.8	8.43e-01	0	55	104	0	53	10511
2026-01-10 05:38:51.59	339.56	18.98	-42.0	-50.6	4.0	8.45e-01	0	56	104	0	53	10338
2026-01-10 05:38:52.60	339.35	19.04	-42.3	-50.5	4.1	8.41e-01	0	55	0	0	54	9641
2026-01-10 05:38:53.61	339.14	19.11	-42.6	-50.3	4.3	8.36e-01	0	55	0	0	54	9419
2026-01-10 05:38:54.62	338.93	19.17	-42.7	-49.9	4.5	8.28e-01	0	55	0	0	55	8524
2026-01-10 05:38:55.63	338.72	19.24	-42.7	-49.0	5.0	7.84e-01	0	56	0	0	55	7631
2026-01-10 05:38:56.64	338.51	19.30	-42.0	-46.6	6.8	2.86e-01	0	55	0	3145728	55	5853
2026-01-10 05:38:57.65	338.29	19.37	-40.9	-44.1	9.4	2.50e-02	0	55	0	10485760	52	5194
2026-01-10 05:38:58.66	338.08	19.43	-39.9	-42.3	11.5	2.03e-03	0	55	0	17825792	50	4759
2026-01-10 05:38:59.67	337.86	19.49	-39.1	-41.2	12.7	8.01e-05	0	56	0	25165824	49	4433
2026-01-10 05:39:00.68	337.65	19.56	-38.6	-40.5	13.5	5.70e-06	0	55	0	32505856	48	4336
2026-01-10 05:39:01.69	337.43	19.62	-38.0	-39.7	14.2	6.80e-06	0	55	0	39845888	47	4191
2026-01-10 05:39:02.69	337.22	19.68	-37.2	-38.8	15.3	0.00e+00	0	55	0	47185920	45	4212
2026-01-10 05:39:03.70	337.00	19.75	-36.5	-38.0	16.2	0.00e+00	0	55	0	54525952	44	4053
2026-01-10 05:39:04.71	336.78	19.81	-36.4	-37.7	16.3	0.00e+00	0	55	0	61865984	43	4192
2026-01-10 05:39:05.72	336.56	19.87	-35.9	-37.3	16.8	0.00e+00	0	56	0	69206016	42	4202
2026-01-10 05:39:06.72	336.34	19.93	-36.0	-37.3	16.8	0.00e+00	0	55	0	76546048	42	4231
2026-01-10 05:39:07.73	336.11	20.00	-36.1	-37.4	16.7	0.00e+00	0	55	0	83886080	42	4271
2026-01-10 05:39:08.74	335.89	20.06	-35.9	-37.2	16.9	0.00e+00	0	55	0	91226112	42	4193
2026-01-10 05:39:09.75	335.67	20.12	-35.9	-37.2	16.9	0.00e+00	0	55	0	98566144	42	4172
2026-01-10 05:39:10.75	335.44	20.18	-35.9	-37.2	17.0	0.00e+00	0	55	0	105906176	42	4175
2026-01-10 05:39:11.76	335.22	20.24	-35.7	-36.9	17.3	0.00e+00	0	55	0	113246208	42	4039
2026-01-10 05:39:12.76	334.99	20.30	-35.7	-37.0	17.2	0.00e+00	0	56	0	119537664	42	4072
2026-01-10 05:39:13.77	334.76	20.36	-35.7	-36.9	17.3	0.00e+00	0	55	0	126877696	42	4050
2026-01-10 05:39:14.78	334.54	20.42	-35.6	-36.9	17.3	0.00e+00	0	56	0	134217728	42	4032
2026-01-10 05:39:15.78	334.31	20.48	-35.8	-37.1	17.2	0.00e+00	0	55	0	141557760	42	4099
2026-01-10 05:39:16.79	334.08	20.54	-35.6	-36.9	17.3	0.00e+00	0	55	0	148897792	42	4025
2026-01-10 05:39:17.80	333.85	20.60	-35.7	-37.0	17.2	0.00e+00	0	55	0	156237824	42	4081
2026-01-10 05:39:18.80	333.62	20.65	-35.6	-36.9	17.4	0.00e+00	0	56	0	163577856	42	4022
2026-01-10 05:39:19.81	333.38	20.71	-35.7	-37.0	17.3	0.00e+00	0	55	0	170917888	42	4061
2026-01-10 05:39:20.82	333.15	20.77	-35.8	-37.0	17.2	0.00e+00	0	56	0	178257920	42	4090
2026-01-10 05:39:21.82	332.92	20.82	-35.6	-36.9	17.3	0.00e+00	0	56	0	185597952	42	4036
2026-01-10 05:39:22.83	332.68	20.88	-35.5	-36.8	17.5	0.00e+00	0	56	0	192937984	41	4203
2026-01-10 05:39:23.84	332.44	20.94	-35.6	-36.9	17.3	0.00e+00	0	55	0	199229440	41	4264
2026-01-10 05:39:24.85	332.21	20.99	-35.6	-36.9	17.4	0.00e+00	0	56	0	207618048	41	4256
2026-01-10 05:39:25.85	331.97	21.05	-35.6	-36.9	17.4	0.00e+00	0	55	0	214958080	41	4251
2026-01-10 05:39:26.86	331.73	21.10	-35.6	-36.9	17.4	0.00e+00	0	56	0	221249536	41	4256
2026-01-10 05:39:27.87	331.49	21.16	-35.5	-36.7	17.6	0.00e+00	0	56	0	228589568	41	4180
2026-01-10 05:39:28.87	331.25	21.21	-35.4	-36.6	17.7	0.00e+00	0	56	0	235929600	41	4130
2026-01-10 05:39:29.88	331.01	21.27	-35.4	-36.6	17.7	0.00e+00	0	56	0	243269632	41	4108
2026-01-10 05:39:30.89	330.77	21.32	-35.4	-36.7	17.6	0.00e+00	0	56	0	250609664	41	4165
2026-01-10 05:39:31.89	330.52	21.37	-35.5	-36.7	17.6	0.00e+00	0	56	0	257949696	41	4191
2026-01-10 05:39:32.90	330.28	21.42	-35.4	-36.6	17.7	0.00e+00	0	55	0	265289728	41	4138
2026-01-10 05:39:33.91	330.03	21.48	-35.3	-36.5	17.8	0.00e+00	0	56	0	272629760	41	4064
2026-01-10 05:39:34.92	329.79	21.53	-35.2	-36.4	17.9	0.00e+00	0	56	0	279969792	41	4050
2026-01-10 05:39:35.93	329.54	21.58	-35.3	-36.5	17.8	0.00e+00	0	56	0	287309824	41	4095
2026-01-10 05:39:36.94	329.29	21.63	-35.4	-36.6	17.7	0.00e+00	0	56	0	294649856	41	4140
2026-01-10 05:39:37.95	329.04	21.68	-35.3	-36.5	17.8	0.00e+00	0	56	0	301989888	41	4094
2026-01-10 05:39:38.95	328.80	21.73	-35.5	-36.7	17.6	0.00e+00	0	56	0	309329920	41	4192
2026-01-10 05:39:39.96	328.55	21.78	-35.3	-36.6	17.8	0.00e+00	0	56	0	316669952	41	4105
2026-01-10 05:39:40.97	328.29	21.83	-35.4	-36.6	17.7	0.00e+00	0	56	0	324009984	41	4113
2026-01-10 05:39:41.97	328.05	21.88	-35.3	-36.5	17.8	0.00e+00	0	56	0	330301440	41	4091
2026-01-10 05:39:42.97	327.80	21.92	-35.4	-36.6	17.7	0.00e+00	0	56	0	337641472	41	4114
2026-01-10 05:39:43.98	327.54	21.97	-35.4	-36.6	17.7	0.00e+00	0	56	0	344981504	41	4114
2026-01-10 05:39:44.99	327.29	22.02	-35.4	-36.6	17.7	0.00e+00	0	56	0	352321536	41	4131
2026-01-10 05:39:45.99	327.03	22.06	-35.3	-36.5	17.9	0.00e+00	0	56	0	359661568	41	4070
2026-01-10 05:39:47.00	326.78	22.11	-35.3	-36.5	17.8	0.00e+00	0	56	0	367001600	41	4091
2026-01-10 05:39:48.01	326.52	22.15	-35.2	-36.4	18.0	0.00e+00	0	56	0	374341632	41	4007
2026-01-10 05:39:49.01	326.27	22.20	-35.2	-36.4	18.0	0.00e+00	0	56	0	381681664	41	4028
2026-01-10 05:39:50.02	326.01	22.24	-35.0	-36.2	18.1	0.00e+00	0	56	0	389021696	41	3943
2026-01-10 05:39:51.03	325.75	22.29	-34.9	-36.1	18.3	0.00e+00	0	56	0	396361728	40	4108
2026-01-10 05:39:52.03	325.49	22.33	-34.8	-36.0	18.3	0.00e+00	0	56	0	403701760	40	4070
2026-01-10 05:39:53.04	325.23	22.37	-34.9	-36.1	18.3	0.00e+00	0	56	0	411041792	40	4101
2026-01-10 05:39:54.05	324.97	22.41	-34.9	-36.0	18.3	0.00e+00	0	56	0	418381824	40	4092
2026-01-10 05:39:55.05	324.71	22.45	-34.9	-36.1	18.3	0.00e+00	0	56	0	425721856	40	4113
2026-01-10 05:39:56.06	324.45	22.49	-35.1	-36.3	18.1	0.00e+00	0	56	0	433061888	40	4208
2026-01-10 05:39:57.07	324.19	22.53	-35.2	-36.4	18.0	0.00e+00	0	56	0	439353344	40	4254
2026-01-10 05:39:58.07	323.93	22.57	-35.2	-36.4	18.0	0.00e+00	0	56	0	446693376	40	4256
2026-01-10 05:39:59.08	323.66	22.61	-35.2	-36.4	17.9	0.00e+00	0	56	0	454033408	40	4273
2026-01-10 05:40:00.09	323.40	22.65	-35.2	-36.4	17.9	0.00e+00	0	56	0	461373440	40	4267
2026-01-10 05:40:01.09	323.13	22.69	-35.3	-36.5	17.9	0.00e+00	0	56	0	468713472	40	4313
2026-01-10 05:40:02.10	322.87	22.73	-35.2	-36.4	17.9	0.00e+00	0	56	0	476053504	40	4273
2026-01-10 05:40:03.11	322.60	22.76	-35.2	-36.5	17.9	0.00e+00	0	56	0	483393536	40	4292
2026-01-10 05:40:04.12	322.33	22.80	-35.1	-36.3	18.0	0.00e+00	0	56	0	490733568	40	4228
2026-01-10 05:40:05.13	322.06	22.83	-35.3	-36.5	17.9	0.00e+00	0	56	0	498073600	40	4319
2026-01-10 05:40:06.13	321.80	22.87	-35.2	-36.4	17.9	0.00e+00	0	56	0	505413632	40	4291
2026-01-10 05:40:07.14	321.53	22.90	-35.2	-36.4	18.0	0.00e+00	0	56	0	512753664	40	4280
2026-01-10 05:40:08.14	321.26	22.94	-35.2	-36.4	18.0	0.00e+00	0	56	0	520093696	40	4272
2026-01-10 05:40:09.15	320.99	22.97	-35.3	-36.5	17.9	0.00e+00	0	56	0	527433728	40	4294
2026-01-10 05:40:10.16	320.72	23.00	-35.2	-36.5	17.9	0.00e+00	0	56	0	534773760	40	4293
2026-01-10 05:40:11.17	320.44	23.03	-35.1	-36.3	18.0	0.00e+00	0	56	0	541065216	40	4236
2026-01-10 05:40:12.17	320.17	23.06	-35.0	-36.3	18.1	0.00e+00	0	56	0	548405248	40	4197
2026-01-10 05:40:13.18	319.90	23.09	-35.0	-36.2	18.2	0.00e+00	0	56	0	555745280	40	4168
2026-01-10 05:40:14.19	319.63	23.12	-34.9	-36.1	18.3	0.00e+00	0	56	0	563085312	40	4119
2026-01-10 05:40:15.20	319.35	23.15	-34.9	-36.1	18.3	0.00e+00	0	56	0	570425344	40	4112
2026-01-10 05:40:16.20	319.08	23.18	-34.8	-36.1	18.3	0.00e+00	0	56	0	577765376	40	4105
2026-01-10 05:40:17.21	318.81	23.21	-34.9	-36.2	18.2	0.00e+00	0	56	0	585105408	40	4152
2026-01-10 05:40:18.22	318.53	23.23	-34.8	-36.2	18.2	0.00e+00	0	56	0	592445440	40	4170
2026-01-10 05:40:19.22	318.26	23.26	-34.7	-36.2	18.1	0.00e+00	0	56	0	599785472	40	4161
2026-01-10 05:40:20.23	317.98	23.29	-34.6	-36.3	18.0	0.00e+00	0	56	0	607125504	40	4213
2026-01-10 05:40:21.24	317.70	23.31	-34.5	-36.4	18.0	0.00e+00	0	56	0	614465536	40	4245
2026-01-10 05:40:22.24	317.43	23.34	-34.5	-36.4	18.0	0.00e+00	0	56	0	621805568	39	4520
2026-01-10 05:40:23.25	317.15	23.36	-34.7	-36.4	18.0	0.00e+00	0	56	0	629145600	39	4519
2026-01-10 05:40:24.26	316.87	23.38	-34.8	-36.3	18.1	0.00e+00	0	56	0	636485632	39	4461
2026-01-10 05:40:25.26	316.60	23.40	-34.9	-36.2	18.2	0.00e+00	0	56	0	643825664	39	4439
2026-01-10 05:40:26.27	316.32	23.42	-35.1	-36.3	18.1	0.00e+00	0	56	0	650117120	39	4488
2026-01-10 05:40:27.28	316.04	23.44	-35.2	-36.4	18.0	0.00e+00	0	56	0	657457152	39	4533
2026-01-10 05:40:28.28	315.76	23.46	-35.0	-36.4	18.0	0.00e+00	0	56	0	664797184	39	4504
2026-01-10 05:40:29.29	315.48	23.48	-35.0	-36.3	18.1	0.00e+00	0	56	0	672137216	39	4484
2026-01-10 05:40:30.30	315.20	23.50	-35.0	-36.3	18.1	0.00e+00	0	56	0	679477248	39	4454
2026-01-10 05:40:31.31	314.92	23.52	-35.1	-36.3	18.1	0.00e+00	0	56	0	686817280	39	4489
2026-01-10 05:40:32.31	314.64	23.54	-35.0	-36.2	18.2	0.00e+00	0	56	0	694157312	39	4427
2026-01-10 05:40:33.32	314.36	23.55	-35.1	-36.3	18.2	0.00e+00	0	56	0	701497344	39	4442
2026-01-10 05:40:34.33	314.08	23.57	-35.0	-36.1	18.3	0.00e+00	0	56	0	708837376	39	4383
2026-01-10 05:40:35.34	313.80	23.58	-35.0	-36.2	18.2	0.00e+00	0	56	0	716177408	39	4404
2026-01-10 05:40:36.34	313.52	23.60	-35.1	-36.2	18.2	0.00e+00	0	56	0	723517440	39	4431
2026-01-10 05:40:37.36	313.23	23.61	-35.0	-36.2	18.2	0.00e+00	0	56	0	730857472	39	4397
2026-01-10 05:40:38.37	312.95	23.62	-35.0	-36.2	18.2	0.00e+00	0	56	0	738197504	39	4425
2026-01-10 05:40:39.38	312.67	23.64	-35.0	-36.2	18.3	0.00e+00	0	56	0	745537536	39	4393
2026-01-10 05:40:40.39	312.38	23.65	-35.0	-36.1	18.3	0.00e+00	0	56	0	751828992	39	4378
2026-01-10 05:40:41.40	312.10	23.66	-35.0	-36.1	18.3	0.00e+00	0	56	0	760217600	39	4383
2026-01-10 05:40:42.41	311.81	23.67	-35.0	-36.2	18.2	0.00e+00	0	56	0	767557632	39	4403
2026-01-10 05:40:43.41	311.53	23.67	-35.0	-36.1	18.3	0.00e+00	0	56	0	773849088	39	4381
2026-01-10 05:40:44.43	311.25	23.68	-35.0	-36.1	18.3	0.00e+00	0	56	0	781189120	39	4386
2026-01-10 05:40:45.43	310.97	23.69	-35.0	-36.2	18.2	0.00e+00	0	56	0	788529152	39	4428
2026-01-10 05:40:46.44	310.68	23.70	-35.1	-36.2	18.2	0.00e+00	0	56	0	795869184	39	4438
2026-01-10 05:40:47.45	310.40	23.70	-35.2	-36.4	18.0	0.00e+00	0	56	0	803209216	39	4515
2026-01-10 05:40:48.46	310.11	23.71	-35.2	-36.4	18.1	0.00e+00	0	56	0	810549248	39	4510
2026-01-10 05:40:49.47	309.83	23.71	-35.2	-36.5	17.9	0.00e+00	0	56	0	817889280	40	4295
2026-01-10 05:40:50.48	309.54	23.72	-35.2	-36.4	18.0	0.00e+00	0	56	0	825229312	40	4248
2026-01-10 05:40:51.49	309.26	23.72	-35.2	-36.4	18.0	0.00e+00	0	56	0	832569344	40	4267
2026-01-10 05:40:52.50	308.97	23.72	-35.2	-36.4	18.0	0.00e+00	0	56	0	839909376	40	4253
2026-01-10 05:40:53.50	308.69	23.72	-35.1	-36.3	18.0	0.00e+00	0	56	0	847249408	40	4223
2026-01-10 05:40:54.51	308.41	23.72	-35.1	-36.3	18.0	0.00e+00	0	56	0	854589440	40	4224
2026-01-10 05:40:55.52	308.12	23.72	-35.1	-36.3	18.1	0.00e+00	0	56	0	861929472	40	4205
2026-01-10 05:40:56.52	307.84	23.72	-35.0	-36.2	18.1	0.00e+00	0	56	0	869269504	40	4161
2026-01-10 05:40:57.53	307.55	23.72	-35.0	-36.2	18.2	0.00e+00	0	56	0	876609536	40	4152
2026-01-10 05:40:58.54	307.27	23.72	-35.1	-36.3	18.1	0.00e+00	0	56	0	882900992	40	4198
2026-01-10 05:40:59.54	306.99	23.71	-35.1	-36.3	18.1	0.00e+00	0	56	0	891289600	40	4212
2026-01-10 05:41:00.55	306.70	23.71	-35.0	-36.2	18.1	0.00e+00	0	56	0	898629632	40	4186
2026-01-10 05:41:01.55	306.42	23.70	-35.0	-36.1	18.2	0.00e+00	0	56	0	904921088	40	4130
2026-01-10 05:41:02.56	306.14	23.70	-35.0	-36.1	18.2	0.00e+00	0	56	0	912261120	40	4136
2026-01-10 05:41:03.57	305.85	23.69	-34.9	-36.1	18.2	0.00e+00	0	56	0	919601152	40	4124
2026-01-10 05:41:04.58	305.57	23.68	-34.9	-36.1	18.3	0.00e+00	0	56	0	926941184	40	4110
2026-01-10 05:41:05.58	305.29	23.68	-34.9	-36.0	18.3	0.00e+00	0	56	0	934281216	40	4080
2026-01-10 05:41:06.59	305.00	23.67	-34.9	-36.1	18.3	0.00e+00	0	56	0	941621248	40	4114
2026-01-10 05:41:07.60	304.72	23.66	-34.9	-36.1	18.3	0.00e+00	0	56	0	948961280	40	4128
2026-01-10 05:41:08.60	304.44	23.65	-35.0	-36.2	18.1	0.00e+00	0	56	0	956301312	40	4185
2026-01-10 05:41:09.61	304.15	23.64	-35.1	-36.3	18.0	0.00e+00	0	56	0	963641344	40	4225
2026-01-10 05:41:10.62	303.87	23.63	-35.0	-36.2	18.1	0.00e+00	0	56	0	970981376	40	4166
2026-01-10 05:41:11.63	303.59	23.61	-35.0	-36.1	18.2	0.00e+00	0	56	0	978321408	40	4145
2026-01-10 05:41:12.63	303.31	23.60	-35.0	-36.1	18.2	0.00e+00	0	56	0	984612864	40	4140
2026-01-10 05:41:13.64	303.02	23.59	-35.0	-36.2	18.2	0.00e+00	0	56	0	991952896	40	4161
2026-01-10 05:41:14.64	302.74	23.57	-35.1	-36.3	18.1	0.00e+00	0	56	0	1000341504	40	4206
2026-01-10 05:41:15.65	302.46	23.56	-35.0	-36.2	18.1	0.00e+00	0	56	0	1006632960	40	4181
2026-01-10 05:41:16.66	302.18	23.54	-35.1	-36.3	18.1	0.00e+00	0	56	0	1013972992	40	4196
2026-01-10 05:41:17.67	301.90	23.52	-34.9	-36.1	18.3	0.00e+00	0	56	0	1021313024	40	4101
2026-01-10 05:41:18.68	301.62	23.51	-34.9	-36.0	18.3	0.00e+00	0	56	0	1028653056	40	4087
2026-01-10 05:41:19.68	301.34	23.49	-34.9	-36.0	18.3	0.00e+00	0	56	0	1035993088	40	4094
2026-01-10 05:41:20.69	301.06	23.47	-35.0	-36.2	18.2	0.00e+00	0	56	0	1043333120	40	4149
2026-01-10 05:41:21.69	300.78	23.45	-35.1	-36.3	18.0	0.00e+00	0	56	0	1050673152	40	4229
2026-01-10 05:41:22.70	300.50	23.43	-35.2	-36.4	18.0	0.00e+00	0	56	0	1058013184	40	4258
2026-01-10 05:41:23.71	300.22	23.41	-35.2	-36.4	18.0	0.00e+00	0	56	0	1065353216	40	4248
2026-01-10 05:41:24.72	299.94	23.39	-35.1	-36.3	18.0	0.00e+00	0	56	0	1072693248	40	4234
2026-01-10 05:41:25.73	299.66	23.36	-35.0	-36.2	18.1	0.00e+00	0	56	0	1080033280	40	4187
2026-01-10 05:41:26.73	299.39	23.34	-35.1	-36.3	18.1	0.00e+00	0	56	0	1087373312	40	4199
2026-01-10 05:41:27.74	299.11	23.32	-35.0	-36.2	18.1	0.00e+00	0	56	0	1094713344	40	4172
2026-01-10 05:41:28.75	298.83	23.29	-35.1	-36.3	18.1	0.00e+00	0	56	0	1102053376	40	4216
2026-01-10 05:41:29.75	298.56	23.27	-35.0	-36.2	18.2	0.00e+00	0	56	0	1109393408	40	4158
2026-01-10 05:41:30.76	298.28	23.24	-34.9	-36.1	18.3	0.00e+00	0	56	0	1115684864	40	4124
2026-01-10 05:41:31.77	298.01	23.21	-35.0	-36.1	18.2	0.00e+00	0	56	0	1123024896	40	4142
2026-01-10 05:41:32.78	297.73	23.19	-34.9	-36.0	18.3	0.00e+00	0	56	0	1130364928	40	4080
2026-01-10 05:41:33.79	297.45	23.16	-34.9	-36.1	18.2	0.00e+00	0	56	0	1137704960	40	4127
2026-01-10 05:41:34.80	297.18	23.13	-34.8	-36.0	18.4	0.00e+00	0	56	0	1145044992	40	4081
2026-01-10 05:41:35.81	296.91	23.10	-34.8	-36.0	18.4	0.00e+00	0	56	0	1152385024	40	4054
2026-01-10 05:41:36.82	296.63	23.07	-34.8	-35.9	18.4	0.00e+00	0	56	0	1159725056	40	4037
2026-01-10 05:41:37.83	296.36	23.04	-34.8	-36.0	18.4	0.00e+00	0	56	0	1167065088	40	4065
2026-01-10 05:41:38.84	296.09	23.01	-34.8	-36.0	18.3	0.00e+00	0	56	0	1174405120	40	4075
2026-01-10 05:41:39.85	295.81	22.97	-34.9	-36.1	18.3	0.00e+00	0	56	0	1181745152	40	4113
2026-01-10 05:41:40.86	295.54	22.94	-34.9	-36.0	18.3	0.00e+00	0	56	0	1189085184	40	4094
2026-01-10 05:41:41.87	295.27	22.91	-34.9	-36.1	18.3	0.00e+00	0	56	0	1196425216	40	4121
2026-01-10 05:41:42.88	295.00	22.87	-35.0	-36.2	18.2	0.00e+00	0	56	0	1203765248	40	4160
2026-01-10 05:41:43.89	294.73	22.84	-34.9	-36.1	18.2	0.00e+00	0	56	0	1211105280	40	4121
2026-01-10 05:41:44.90	294.46	22.80	-35.0	-36.2	18.2	0.00e+00	0	56	0	1218445312	40	4149
2026-01-10 05:41:45.91	294.19	22.77	-34.9	-36.0	18.3	0.00e+00	0	56	0	1225785344	40	4096
2026-01-10 05:41:46.92	293.93	22.73	-34.9	-36.1	18.3	0.00e+00	0	56	0	1233125376	40	4103
2026-01-10 05:41:47.92	293.66	22.69	-34.8	-36.0	18.3	0.00e+00	0	56	0	1240465408	40	4075
2026-01-10 05:41:48.93	293.40	22.66	-34.8	-35.9	18.4	0.00e+00	0	56	0	1246756864	40	4045
2026-01-10 05:41:49.94	293.13	22.62	-34.8	-35.9	18.4	0.00e+00	0	56	0	1254096896	40	4039
2026-01-10 05:41:50.95	292.86	22.58	-34.7	-35.8	18.5	0.00e+00	0	56	0	1262485504	40	3988
2026-01-10 05:41:51.95	292.60	22.54	-34.8	-36.0	18.4	0.00e+00	0	56	0	1268776960	40	4059
2026-01-10 05:41:52.96	292.34	22.50	-34.9	-36.1	18.3	0.00e+00	0	56	0	1276116992	40	4100
2026-01-10 05:41:53.97	292.07	22.46	-34.9	-36.1	18.3	0.00e+00	0	56	0	1283457024	40	4106
2026-01-10 05:41:54.97	291.81	22.42	-34.9	-36.1	18.2	0.00e+00	0	56	0	1290797056	40	4128
2026-01-10 05:41:55.98	291.55	22.37	-34.8	-36.0	18.3	0.00e+00	0	56	0	1298137088	40	4069
2026-01-10 05:41:56.99	291.29	22.33	-35.0	-36.2	18.1	0.00e+00	0	56	0	1305477120	40	4174
2026-01-10 05:41:58.00	291.03	22.29	-35.2	-36.4	18.0	0.00e+00	0	56	0	1312817152	40	4259
2026-01-10 05:41:59.00	290.77	22.25	-35.1	-36.2	18.1	0.00e+00	0	56	0	1320157184	40	4193
2026-01-10 05:42:00.01	290.51	22.20	-35.2	-36.4	18.0	0.00e+00	0	56	0	1327497216	40	4256
2026-01-10 05:42:01.02	290.26	22.16	-35.2	-36.3	18.0	0.00e+00	0	56	0	1334837248	40	4238
2026-01-10 05:42:02.03	290.00	22.11	-35.2	-36.4	17.9	0.00e+00	0	56	0	1342177280	40	4263
2026-01-10 05:42:03.03	289.74	22.07	-35.2	-36.4	17.9	0.00e+00	0	56	0	1348468736	40	4272
2026-01-10 05:42:04.04	289.49	22.02	-35.3	-36.5	17.8	0.00e+00	0	56	0	1356857344	40	4300
2026-01-10 05:42:05.05	289.23	21.97	-35.1	-36.3	18.0	0.00e+00	0	56	0	1364197376	40	4232
2026-01-10 05:42:06.05	288.98	21.93	-35.1	-36.3	18.0	0.00e+00	0	56	0	1370488832	40	4220
2026-01-10 05:42:07.06	288.73	21.88	-35.1	-36.3	18.1	0.00e+00	0	56	0	1377828864	40	4214
2026-01-10 05:42:08.07	288.47	21.83	-35.0	-36.2	18.1	0.00e+00	0	56	0	1385168896	40	4169
2026-01-10 05:42:09.07	288.23	21.78	-35.1	-36.3	18.0	0.00e+00	0	56	0	1392508928	40	4222
2026-01-10 05:42:10.08	287.97	21.73	-35.1	-36.3	18.1	0.00e+00	0	56	0	1399848960	40	4201
2026-01-10 05:42:11.09	287.72	21.68	-35.1	-36.3	18.0	0.00e+00	0	56	0	1407188992	40	4201
2026-01-10 05:42:12.10	287.47	21.63	-35.1	-36.3	18.1	0.00e+00	0	56	0	1414529024	40	4202
2026-01-10 05:42:13.10	287.23	21.58	-35.0	-36.2	18.2	0.00e+00	0	56	0	1421869056	40	4154
2026-01-10 05:42:14.11	286.98	21.53	-35.0	-36.2	18.1	0.00e+00	0	56	0	1429209088	40	4155
2026-01-10 05:42:15.12	286.73	21.48	-35.1	-36.2	18.1	0.00e+00	0	56	0	1436549120	40	4190
2026-01-10 05:42:16.13	286.49	21.43	-35.1	-36.3	18.0	0.00e+00	0	56	0	1443889152	40	4208
2026-01-10 05:42:17.13	286.24	21.37	-35.2	-36.3	18.0	0.00e+00	0	56	0	1451229184	40	4238
2026-01-10 05:42:18.14	286.00	21.32	-35.2	-36.4	17.9	0.00e+00	0	56	0	1458569216	40	4276
2026-01-10 05:42:19.15	285.75	21.27	-35.3	-36.5	17.7	0.00e+00	0	56	0	1465909248	40	4339
2026-01-10 05:42:20.16	285.51	21.21	-35.4	-36.7	17.7	0.00e+00	0	56	0	1473249280	40	4395
2026-01-10 05:42:21.16	285.27	21.16	-35.5	-36.7	17.6	0.00e+00	0	56	0	1479540736	40	4429
2026-01-10 05:42:22.18	285.03	21.10	-35.5	-36.7	17.6	0.00e+00	0	56	0	1486880768	40	4433
2026-01-10 05:42:23.18	284.79	21.05	-35.4	-36.6	17.7	0.00e+00	0	56	0	1494220800	40	4384
2026-01-10 05:42:24.19	284.55	20.99	-35.3	-36.6	17.7	0.00e+00	0	56	0	1501560832	40	4345
2026-01-10 05:42:25.20	284.31	20.94	-35.3	-36.5	17.8	0.00e+00	0	56	0	1508900864	40	4320
2026-01-10 05:42:26.21	284.07	20.88	-35.2	-36.4	17.9	0.00e+00	0	56	0	1516240896	40	4267
2026-01-10 05:42:27.22	283.84	20.82	-35.1	-36.3	17.9	0.00e+00	0	56	0	1523580928	40	4230
2026-01-10 05:42:28.23	283.60	20.77	-35.1	-36.3	18.0	0.00e+00	0	56	0	1530920960	40	4207
2026-01-10 05:42:29.24	283.36	20.71	-35.1	-36.3	18.0	0.00e+00	0	56	0	1538260992	40	4224
2026-01-10 05:42:30.25	283.13	20.65	-35.2	-36.4	17.8	0.00e+00	0	56	0	1545601024	40	4279
2026-01-10 05:42:31.26	282.90	20.59	-35.2	-36.4	17.8	0.00e+00	0	56	0	1552941056	40	4287
2026-01-10 05:42:32.27	282.66	20.53	-35.2	-36.4	17.8	0.00e+00	0	56	0	1560281088	40	4288
2026-01-10 05:42:33.27	282.43	20.48	-35.2	-36.4	17.8	0.00e+00	0	56	0	1567621120	40	4279
2026-01-10 05:42:34.28	282.20	20.42	-35.2	-36.4	17.8	0.00e+00	0	56	0	1574961152	40	4289
2026-01-10 05:42:35.29	281.97	20.36	-35.2	-36.4	17.8	0.00e+00	0	56	0	1581252608	40	4273
2026-01-10 05:42:36.29	281.75	20.30	-35.3	-36.5	17.7	0.00e+00	0	56	0	1589641216	40	4330
2026-01-10 05:42:37.30	281.52	20.24	-35.3	-36.6	17.7	0.00e+00	0	56	0	1596981248	40	4352
2026-01-10 05:42:38.31	281.29	20.18	-35.4	-36.6	17.6	0.00e+00	0	56	0	1603272704	40	4377
2026-01-10 05:42:39.32	281.07	20.12	-35.5	-36.7	17.5	0.00e+00	0	56	0	1610612736	40	4434
2026-01-10 05:42:40.33	280.84	20.05	-35.5	-36.8	17.5	0.00e+00	0	56	0	1617952768	40	4447
2026-01-10 05:42:41.33	280.62	19.99	-35.5	-36.8	17.5	0.00e+00	0	56	0	1625292800	40	4453
2026-01-10 05:42:42.34	280.39	19.93	-35.5	-36.7	17.5	0.00e+00	0	56	0	1632632832	40	4433
2026-01-10 05:42:43.35	280.17	19.87	-35.5	-36.7	17.5	0.00e+00	0	56	0	1639972864	40	4432
2026-01-10 05:42:44.35	279.95	19.81	-35.5	-36.8	17.5	0.00e+00	0	56	0	1647312896	40	4457
2026-01-10 05:42:45.36	279.73	19.74	-35.5	-36.7	17.5	0.00e+00	0	56	0	1654652928	40	4421
2026-01-10 05:42:46.37	279.51	19.68	-35.4	-36.6	17.6	0.00e+00	0	56	0	1661992960	40	4361
2026-01-10 05:42:47.38	279.29	19.62	-35.4	-36.6	17.6	0.00e+00	0	56	0	1669332992	40	4368
2026-01-10 05:42:48.38	279.08	19.55	-35.4	-36.6	17.6	0.00e+00	0	56	0	1676673024	40	4378
2026-01-10 05:42:49.39	278.86	19.49	-35.4	-36.7	17.6	0.00e+00	0	56	0	1684013056	40	4402
2026-01-10 05:42:50.40	278.64	19.43	-35.5	-36.7	17.5	0.00e+00	0	56	0	1691353088	40	4429
2026-01-10 05:42:51.41	278.43	19.36	-35.5	-36.8	17.4	0.00e+00	0	56	0	1698693120	40	4450
2026-01-10 05:42:52.42	278.21	19.30	-35.6	-36.8	17.4	0.00e+00	0	56	0	1706033152	40	4469
2026-01-10 05:42:53.43	278.00	19.23	-35.6	-36.9	17.3	0.00e+00	0	56	0	1712324608	40	4523
2026-01-10 05:42:54.44	277.79	19.17	-35.7	-37.0	17.2	0.00e+00	0	56	0	1719664640	40	4564
2026-01-10 05:42:55.45	277.57	19.10	-35.8	-37.1	17.1	0.00e+00	0	56	0	1728053248	41	4354
2026-01-10 05:42:56.46	277.36	19.03	-35.9	-37.2	17.0	0.00e+00	0	56	0	1734344704	41	4408
2026-01-10 05:42:57.47	277.15	18.97	-35.8	-37.1	17.1	0.00e+00	0	56	0	1741684736	41	4375
2026-01-10 05:42:58.47	276.95	18.90	-35.8	-37.1	17.1	0.00e+00	0	56	0	1749024768	41	4359
2026-01-10 05:42:59.49	276.74	18.84	-35.8	-37.1	17.0	0.00e+00	0	56	0	1756364800	41	4387
2026-01-10 05:43:00.50	276.53	18.77	-35.8	-37.1	17.1	0.00e+00	0	56	0	1763704832	41	4361
2026-01-10 05:43:01.50	276.32	18.70	-35.7	-37.0	17.2	0.00e+00	0	56	0	1771044864	41	4292
2026-01-10 05:43:02.51	276.12	18.64	-35.7	-36.9	17.2	0.00e+00	0	56	0	1778384896	41	4285
2026-01-10 05:43:03.52	275.91	18.57	-35.7	-37.0	17.2	0.00e+00	0	56	0	1785724928	41	4319
2026-01-10 05:43:04.52	275.71	18.50	-35.8	-37.1	17.1	0.00e+00	0	56	0	1793064960	41	4370
2026-01-10 05:43:05.53	275.51	18.43	-35.7	-37.0	17.1	0.00e+00	0	56	0	1800404992	41	4331
2026-01-10 05:43:06.54	275.31	18.37	-35.8	-37.1	17.1	0.00e+00	0	56	0	1807745024	41	4352
2026-01-10 05:43:07.54	275.11	18.30	-35.8	-37.1	17.1	0.00e+00	0	56	0	1815085056	41	4353
2026-01-10 05:43:08.55	274.91	18.23	-35.8	-37.1	17.1	0.00e+00	0	56	0	1822425088	41	4348
2026-01-10 05:43:09.56	274.71	18.16	-35.8	-37.1	17.1	0.00e+00	0	56	0	1829765120	41	4369
2026-01-10 05:43:10.56	274.51	18.09	-35.8	-37.1	17.1	0.00e+00	0	56	0	1836056576	41	4377
2026-01-10 05:43:11.57	274.32	18.03	-35.9	-37.3	16.9	0.00e+00	0	56	0	1843396608	41	4456
2026-01-10 05:43:12.58	274.12	17.96	-36.0	-37.3	16.8	0.00e+00	0	56	0	1850736640	41	4475
2026-01-10 05:43:13.58	273.93	17.89	-36.0	-37.3	16.9	0.00e+00	0	56	0	1858076672	41	4457
2026-01-10 05:43:14.59	273.73	17.82	-35.9	-37.2	16.9	0.00e+00	0	56	0	1865416704	41	4440
2026-01-10 05:43:15.60	273.54	17.75	-36.0	-37.3	16.8	0.00e+00	0	56	0	1872756736	41	4482
2026-01-10 05:43:16.60	273.35	17.68	-36.0	-37.4	16.8	0.00e+00	0	56	0	1880096768	41	4496
2026-01-10 05:43:17.61	273.16	17.61	-36.0	-37.3	16.8	0.00e+00	0	56	0	1887436800	41	4489
2026-01-10 05:43:18.62	272.97	17.54	-36.1	-37.4	16.7	0.00e+00	0	56	0	1894776832	41	4538
2026-01-10 05:43:19.62	272.78	17.47	-36.0	-37.4	16.8	0.00e+00	0	56	0	1902116864	41	4497
2026-01-10 05:43:20.63	272.59	17.40	-36.1	-37.5	16.7	0.00e+00	0	56	0	1909456896	41	4550
2026-01-10 05:43:21.64	272.40	17.33	-35.9	-37.2	17.0	0.00e+00	0	56	0	1916796928	41	4393
2026-01-10 05:43:22.65	272.21	17.26	-36.0	-37.3	16.8	0.00e+00	0	56	0	1924136960	41	4480
2026-01-10 05:43:23.66	272.03	17.19	-35.8	-37.1	17.0	0.00e+00	0	56	0	1931476992	41	4386
2026-01-10 05:43:24.66	271.84	17.12	-36.0	-37.3	16.8	0.00e+00	0	56	0	1938817024	41	4468
2026-01-10 05:43:25.67	271.66	17.05	-36.0	-37.4	16.7	0.00e+00	0	56	0	1945108480	41	4497
2026-01-10 05:43:26.68	271.47	16.98	-35.9	-37.2	16.9	0.00e+00	0	56	0	1952448512	41	4437
2026-01-10 05:43:27.69	271.29	16.91	-36.1	-37.4	16.7	0.00e+00	0	56	0	1959788544	41	4541
2026-01-10 05:43:28.69	271.11	16.84	-36.1	-37.5	16.6	0.00e+00	0	56	0	1967128576	41	4557
2026-01-10 05:43:29.70	270.93	16.77	-36.1	-37.5	16.6	0.00e+00	0	57	0	1974468608	41	4572
2026-01-10 05:43:30.71	270.75	16.70	-36.1	-37.5	16.6	0.00e+00	0	56	0	1981808640	42	4312
2026-01-10 05:43:31.71	270.57	16.63	-36.2	-37.5	16.6	0.00e+00	0	56	0	1989148672	42	4328
2026-01-10 05:43:32.72	270.39	16.56	-36.2	-37.5	16.6	0.00e+00	0	57	0	1996488704	42	4319
2026-01-10 05:43:33.73	270.21	16.49	-36.0	-37.4	16.7	0.00e+00	0	56	0	2003828736	42	4249
2026-01-10 05:43:34.74	270.03	16.42	-36.1	-37.4	16.7	0.00e+00	0	56	0	2011168768	42	4283
2026-01-10 05:43:35.74	269.86	16.35	-36.0	-37.4	16.7	0.00e+00	0	56	0	2018508800	42	4251
2026-01-10 05:43:36.75	269.68	16.27	-36.1	-37.5	16.6	0.00e+00	0	56	0	2025848832	42	4304
2026-01-10 05:43:37.76	269.51	16.20	-36.2	-37.6	16.6	0.00e+00	0	56	0	2033188864	42	4341
2026-01-10 05:43:38.77	269.34	16.13	-36.3	-37.7	16.5	0.00e+00	0	56	0	2040528896	42	4401
2026-01-10 05:43:39.77	269.17	16.06	-36.4	-37.7	16.4	0.00e+00	0	56	0	2047868928	42	4439
2026-01-10 05:43:40.78	268.99	15.99	-36.5	-37.9	16.2	0.00e+00	0	56	0	2054160384	42	4536
2026-01-10 05:43:41.78	268.82	15.92	-36.6	-38.0	16.1	0.00e+00	0	56	0	2061500416	42	4578
2026-01-10 05:43:42.79	268.65	15.85	-36.6	-38.1	16.0	0.00e+00	0	57	0	2068840448	42	4606
2026-01-10 05:43:43.79	268.48	15.78	-36.6	-38.1	16.0	0.00e+00	0	56	0	2076180480	42	4612
2026-01-10 05:43:44.80	268.32	15.70	-36.6	-38.0	16.1	0.00e+00	0	56	0	2083520512	43	4322
2026-01-10 05:43:45.80	268.15	15.63	-36.6	-38.1	16.0	0.00e+00	0	56	0	2090860544	43	4349
2026-01-10 05:43:46.81	267.98	15.56	-36.7	-38.1	15.9	0.00e+00	0	57	0	2098200576	43	4384
2026-01-10 05:43:47.82	267.82	15.49	-36.8	-38.2	15.9	0.00e+00	0	56	0	2105540608	43	4425
2026-01-10 05:43:48.83	267.65	15.42	-36.8	-38.3	15.8	0.00e+00	0	56	0	2112880640	43	4460
2026-01-10 05:43:49.83	267.49	15.35	-36.8	-38.3	15.8	0.00e+00	0	56	0	2120220672	43	4475
2026-01-10 05:43:50.84	267.32	15.27	-36.9	-38.4	15.6	0.00e+00	0	57	0	2127560704	43	4545
2026-01-10 05:43:51.85	267.16	15.20	-36.9	-38.4	15.7	0.00e+00	0	56	0	2134900736	43	4516
2026-01-10 05:43:52.85	267.00	15.13	-36.8	-38.3	15.7	0.00e+00	0	57	0	2142240768	43	4486
2026-01-10 05:43:53.86	266.84	15.06	-36.8	-38.3	15.7	0.00e+00	0	56	0	2149580800	43	4475
2026-01-10 05:43:54.87	266.68	14.99	-36.8	-38.2	15.8	0.00e+00	0	56	0	2155872256	43	4441
2026-01-10 05:43:55.88	266.52	14.91	-36.7	-38.1	15.9	0.00e+00	0	56	0	2163212288	43	4381
2026-01-10 05:43:56.89	266.36	14.84	-36.7	-38.2	15.8	0.00e+00	0	57	0	2170552320	43	4406
2026-01-10 05:43:57.89	266.20	14.77	-36.5	-37.9	16.2	0.00e+00	0	56	0	2177892352	43	4251
2026-01-10 05:43:58.90	266.04	14.70	-36.5	-38.0	16.1	0.00e+00	0	56	0	2185232384	43	4298
2026-01-10 05:43:59.91	265.89	14.63	-36.5	-37.9	16.2	0.00e+00	0	56	0	2192572416	43	4255
2026-01-10 05:44:00.91	265.73	14.56	-36.5	-38.0	16.1	0.00e+00	0	56	0	2199912448	43	4297
2026-01-10 05:44:01.92	265.58	14.48	-36.5	-38.0	16.1	0.00e+00	0	56	0	2207252480	43	4301
2026-01-10 05:44:02.93	265.42	14.41	-36.6	-38.0	16.0	0.00e+00	0	56	0	2214592512	43	4324
2026-01-10 05:44:03.94	265.27	14.34	-36.7	-38.2	15.8	0.00e+00	0	56	0	2221932544	43	4400
2026-01-10 05:44:04.94	265.11	14.27	-36.7	-38.2	15.8	0.00e+00	0	57	0	2229272576	43	4419
2026-01-10 05:44:05.95	264.96	14.20	-36.8	-38.3	15.7	0.00e+00	0	56	0	2236612608	43	4473
2026-01-10 05:44:06.96	264.81	14.12	-36.9	-38.4	15.6	0.00e+00	0	56	0	2243952640	43	4532
2026-01-10 05:44:07.97	264.66	14.05	-36.8	-38.3	15.7	0.00e+00	0	57	0	2251292672	43	4446
2026-01-10 05:44:08.98	264.51	13.98	-36.8	-38.3	15.7	0.00e+00	0	56	0	2258632704	43	4451
2026-01-10 05:44:09.99	264.36	13.91	-36.8	-38.2	15.7	0.00e+00	0	56	0	2264924160	43	4441
2026-01-10 05:44:11.00	264.21	13.84	-36.8	-38.3	15.7	0.00e+00	0	56	0	2273312768	43	4460
2026-01-10 05:44:12.00	264.06	13.76	-36.9	-38.4	15.5	0.00e+00	0	56	0	2280652800	43	4528
2026-01-10 05:44:13.01	263.92	13.69	-37.0	-38.6	15.4	0.00e+00	0	56	0	2286944256	43	4602
2026-01-10 05:44:14.02	263.77	13.62	-37.1	-38.6	15.3	0.00e+00	0	56	0	2294284288	43	4624
2026-01-10 05:44:15.03	263.63	13.55	-37.1	-38.7	15.3	0.00e+00	0	57	0	2301624320	43	4658
2026-01-10 05:44:16.04	263.48	13.48	-37.2	-38.8	15.1	0.00e+00	0	57	0	2308964352	43	4731
2026-01-10 05:44:17.05	263.34	13.41	-37.5	-39.1	15.0	0.00e+00	0	57	0	2316304384	44	4600
2026-01-10 05:44:18.07	263.19	13.33	-37.5	-39.1	15.0	0.00e+00	0	57	0	2323644416	44	4648
2026-01-10 05:44:19.07	263.05	13.26	-37.5	-39.1	15.0	0.00e+00	0	57	0	2330984448	44	4614
2026-01-10 05:44:20.08	262.91	13.19	-37.5	-39.1	15.0	0.00e+00	0	57	0	2338324480	44	4635
2026-01-10 05:44:21.09	262.76	13.12	-37.5	-39.1	15.0	0.00e+00	0	57	0	2345664512	44	4628
2026-01-10 05:44:22.10	262.62	13.05	-37.5	-39.2	14.9	0.00e+00	0	56	0	2353004544	44	4653
2026-01-10 05:44:23.10	262.49	12.98	-37.6	-39.3	14.7	0.00e+00	0	56	0	2360344576	44	4735
2026-01-10 05:44:24.11	262.35	12.90	-37.6	-39.3	14.7	1.10e-06	0	57	0	2367684608	44	4725
2026-01-10 05:44:25.12	262.21	12.83	-37.4	-39.0	15.1	0.00e+00	0	57	0	2375024640	44	4560
2026-01-10 05:44:26.13	262.07	12.76	-37.5	-39.2	14.9	1.10e-06	0	56	0	2382364672	44	4653
2026-01-10 05:44:27.14	261.93	12.69	-37.5	-39.2	14.9	0.00e+00	0	56	0	2389704704	44	4664
2026-01-10 05:44:28.15	261.79	12.62	-37.6	-39.3	14.7	0.00e+00	0	57	0	2397044736	44	4733
2026-01-10 05:44:29.15	261.66	12.55	-37.8	-39.5	14.5	0.00e+00	0	57	0	2404384768	45	4558
2026-01-10 05:44:30.16	261.52	12.48	-37.7	-39.4	14.6	0.00e+00	0	56	0	2410676224	45	4512
2026-01-10 05:44:31.17	261.39	12.41	-37.6	-39.2	14.8	0.00e+00	0	57	0	2418016256	45	4437
2026-01-10 05:44:32.18	261.25	12.33	-37.6	-39.2	14.8	0.00e+00	0	56	0	2425356288	45	4428
2026-01-10 05:44:33.19	261.12	12.26	-37.5	-39.2	14.8	0.00e+00	0	56	0	2432696320	45	4404
2026-01-10 05:44:34.19	260.99	12.19	-37.4	-39.1	14.9	0.00e+00	0	56	0	2440036352	45	4351
2026-01-10 05:44:35.20	260.86	12.12	-37.6	-39.2	14.8	0.00e+00	0	56	0	2447376384	45	4411
2026-01-10 05:44:36.21	260.73	12.05	-37.5	-39.1	14.9	1.10e-06	0	57	0	2454716416	45	4355
2026-01-10 05:44:37.21	260.60	11.98	-37.5	-39.1	14.9	0.00e+00	0	56	0	2462056448	45	4352
2026-01-10 05:44:38.22	260.47	11.91	-37.4	-39.0	15.0	0.00e+00	0	56	0	2469396480	45	4297
2026-01-10 05:44:39.22	260.34	11.84	-37.4	-39.0	15.0	0.00e+00	0	57	0	2476736512	45	4314
2026-01-10 05:44:40.23	260.21	11.77	-37.3	-38.9	15.0	1.10e-06	0	56	0	2484076544	45	4286
2026-01-10 05:44:41.24	260.08	11.70	-37.5	-39.1	14.8	0.00e+00	0	56	0	2491416576	45	4361
2026-01-10 05:44:42.24	259.95	11.63	-37.5	-39.1	14.8	0.00e+00	0	56	0	2498756608	45	4358
2026-01-10 05:44:43.25	259.83	11.56	-37.6	-39.2	14.7	0.00e+00	0	56	0	2506096640	45	4419
2026-01-10 05:44:44.26	259.70	11.49	-37.7	-39.4	14.6	0.00e+00	0	56	0	2513436672	45	4496
2026-01-10 05:44:45.26	259.58	11.42	-37.7	-39.4	14.5	0.00e+00	0	56	0	2519728128	45	4544
2026-01-10 05:44:46.27	259.45	11.35	-37.8	-39.6	14.3	0.00e+00	0	57	0	2527068160	45	4625
2026-01-10 05:44:47.28	259.33	11.28	-38.0	-39.8	14.1	1.10e-06	0	56	0	2534408192	45	4714
2026-01-10 05:44:48.29	259.20	11.21	-38.1	-39.9	14.0	2.20e-06	0	57	0	2541748224	45	4789
2026-01-10 05:44:49.29	259.08	11.14	-38.2	-40.0	13.9	6.80e-06	0	56	0	2549088256	46	4597
2026-01-10 05:44:50.30	258.96	11.07	-37.9	-39.7	14.2	0.00e+00	0	56	0	2556428288	46	4393
2026-01-10 05:44:51.31	258.83	11.00	-37.8	-39.6	14.3	0.00e+00	0	56	0	2563768320	46	4354
2026-01-10 05:44:52.32	258.71	10.93	-37.9	-39.7	14.2	0.00e+00	0	57	0	2571108352	46	4399
2026-01-10 05:44:53.33	258.59	10.86	-37.8	-39.5	14.3	0.00e+00	0	56	0	2578448384	46	4332
2026-01-10 05:44:54.34	258.47	10.79	-37.7	-39.4	14.4	0.00e+00	0	56	0	2585788416	46	4279
2026-01-10 05:44:55.35	258.35	10.72	-37.5	-39.2	14.7	0.00e+00	0	56	0	2593128448	46	4165
2026-01-10 05:44:56.36	258.23	10.65	-37.5	-39.1	14.7	0.00e+00	0	57	0	2600468480	45	4373
2026-01-10 05:44:57.37	258.11	10.58	-37.6	-39.3	14.5	1.10e-06	0	57	0	2607808512	45	4471
2026-01-10 05:44:58.37	257.99	10.51	-37.6	-39.3	14.5	0.00e+00	0	56	0	2615148544	45	4476
2026-01-10 05:44:59.38	257.88	10.44	-37.7	-39.4	14.4	1.10e-06	0	56	0	2621440000	45	4540
2026-01-10 05:45:00.39	257.76	10.37	-37.8	-39.5	14.3	1.10e-06	0	56	0	2629828608	45	4553
2026-01-10 05:45:01.40	257.64	10.30	-37.9	-39.7	14.2	3.40e-06	0	56	0	2637168640	45	4662
2026-01-10 05:45:02.40	257.53	10.23	-38.2	-40.1	13.8	2.20e-06	0	57	0	2643460096	45	4874
2026-01-10 05:45:03.41	257.41	10.17	-38.4	-40.3	13.6	1.02e-05	0	57	0	2650800128	46	4715
2026-01-10 05:45:04.42	257.30	10.10	-38.4	-40.3	13.5	6.80e-06	0	57	0	2658140160	46	4732
2026-01-10 05:45:05.43	257.18	10.03	-38.4	-40.3	13.5	1.48e-05	0	56	0	2665480192	46	4743
2026-01-10 05:45:06.44	257.07	9.96	-38.4	-40.3	13.5	6.80e-06	0	56	0	2672820224	46	4741
2026-01-10 05:45:07.44	256.96	9.89	-38.4	-40.4	13.4	1.94e-05	0	56	0	2680160256	46	4770
2026-01-10 05:45:08.45	256.85	9.82	-38.4	-40.4	13.4	9.10e-06	0	57	0	2687500288	46	4762
2026-01-10 05:45:09.46	256.73	9.75	-38.4	-40.3	13.5	4.50e-06	0	56	0	2694840320	46	4711
2026-01-10 05:45:10.46	256.62	9.69	-38.2	-40.1	13.7	2.20e-06	0	56	0	2702180352	46	4607
2026-01-10 05:45:11.47	256.51	9.62	-38.3	-40.2	13.6	1.02e-05	0	57	0	2709520384	46	4657
2026-01-10 05:45:12.48	256.40	9.55	-38.1	-40.0	13.8	4.50e-06	0	56	0	2716860416	46	4562
2026-01-10 05:45:13.49	256.29	9.48	-38.3	-40.2	13.5	5.70e-06	0	57	0	2724200448	46	4653
2026-01-10 05:45:14.49	256.18	9.41	-38.1	-40.0	13.7	3.40e-06	0	56	0	2731540480	46	4568
2026-01-10 05:45:15.50	256.07	9.35	-38.1	-39.9	13.8	4.50e-06	0	57	0	2738880512	46	4515
2026-01-10 05:45:16.51	255.97	9.28	-37.9	-39.7	13.9	1.10e-06	0	57	0	2746220544	46	4438
2026-01-10 05:45:17.51	255.86	9.21	-38.0	-39.9	13.8	2.20e-06	0	57	0	2752512000	46	4500
2026-01-10 05:45:18.52	255.75	9.14	-38.2	-40.0	13.6	9.10e-06	0	56	0	2759852032	46	4593
2026-01-10 05:45:19.53	255.64	9.07	-38.0	-39.9	13.8	2.20e-06	0	56	0	2767192064	46	4515
2026-01-10 05:45:20.53	255.54	9.01	-38.1	-39.9	13.8	2.20e-06	0	56	0	2774532096	46	4516
2026-01-10 05:45:21.54	255.43	8.94	-38.0	-39.8	13.9	4.50e-06	0	57	0	2781872128	46	4468
2026-01-10 05:45:22.55	255.33	8.87	-38.1	-40.0	13.7	3.40e-06	0	57	0	2789212160	46	4549
2026-01-10 05:45:23.56	255.22	8.81	-37.9	-39.7	14.0	2.20e-06	0	56	0	2796552192	46	4424
2026-01-10 05:45:24.56	255.12	8.74	-38.0	-39.8	13.8	2.20e-06	0	57	0	2803892224	46	4492
2026-01-10 05:45:25.57	255.01	8.67	-38.0	-39.9	13.7	6.80e-06	0	57	0	2811232256	46	4519
2026-01-10 05:45:26.58	254.91	8.60	-38.0	-39.8	13.8	3.40e-06	0	56	0	2818572288	46	4490
2026-01-10 05:45:27.58	254.81	8.54	-37.9	-39.7	13.9	0.00e+00	0	57	0	2825912320	46	4431
2026-01-10 05:45:28.59	254.71	8.47	-38.0	-39.9	13.7	6.80e-06	0	56	0	2833252352	46	4505
2026-01-10 05:45:29.60	254.60	8.40	-37.8	-39.6	14.0	1.10e-06	0	56	0	2840592384	46	4377
2026-01-10 05:45:30.61	254.50	8.34	-37.9	-39.8	13.8	1.10e-06	0	57	0	2847932416	46	4448
2026-01-10 05:45:31.62	254.40	8.27	-37.9	-39.7	13.8	3.40e-06	0	57	0	2854223872	46	4439
2026-01-10 05:45:32.63	254.30	8.20	-38.2	-40.2	13.4	8.00e-06	0	57	0	2861563904	46	4664
2026-01-10 05:45:33.64	254.20	8.14	-38.5	-40.5	13.0	2.97e-05	0	57	0	2868903936	46	4839
2026-01-10 05:45:34.65	254.10	8.07	-38.0	-39.8	13.7	8.00e-06	0	56	0	2876243968	46	4491
2026-01-10 05:45:35.65	254.00	8.01	-43.0	-49.0	5.3	8.92e-05	0	57	0	2883584000	55	7658
2026-01-10 05:45:36.66	253.90	7.94	-44.7	-55.5	3.8	8.47e-01	0	56	104	2883584000	59	12865
2026-01-10 05:45:37.67	253.81	7.87	-45.0	-55.6	3.8	8.46e-01	0	56	104	2883584000	59	13017
2026-01-10 05:45:38.68	253.71	7.81	-45.1	-55.9	3.8	8.46e-01	0	57	104	2883584000	59	13557
2026-01-10 05:45:39.69	253.61	7.74	-45.2	-56.2	3.8	8.46e-01	0	57	104	2883584000	60	13232
2026-01-10 05:45:40.70	253.51	7.68	-45.3	-56.3	3.8	8.45e-01	0	57	104	2883584000	60	13336
2026-01-10 05:45:41.71	253.42	7.61	-45.3	-56.3	3.8	8.46e-01	0	57	104	2883584000	60	13406
2026-01-10 05:45:42.72	253.32	7.54	-45.4	-56.4	3.8	8.47e-01	0	57	104	2883584000	60	13542
2026-01-10 05:45:43.73	253.23	7.48	-45.4	-56.5	3.8	8.46e-01	0	56	104	2883584000	60	13603
2026-01-10 05:45:44.74	253.13	7.41	-45.4	-56.5	3.8	8.45e-01	0	57	104	2883584000	60	13582
2026-01-10 05:45:45.75	253.04	7.35	-45.4	-56.5	3.8	8.45e-01	0	57	104	2883584000	60	13587
2026-01-10 05:45:46.76	252.94	7.28	-45.4	-56.4	3.8	8.46e-01	0	56	104	2883584000	60	13473
2026-01-10 05:45:47.77	252.85	7.22	-45.3	-56.3	3.8	8.47e-01	0	57	104	2883584000	60	13384
2026-01-10 05:45:48.78	252.75	7.15	-45.3	-56.3	3.8	8.46e-01	0	57	104	2883584000	60	13392
2026-01-10 05:45:49.79	252.66	7.09	-45.3	-56.3	3.8	8.47e-01	0	56	104	2883584000	60	13390
2026-01-10 05:45:50.80	252.57	7.02	-45.3	-56.3	3.8	8.45e-01	0	57	104	2883584000	60	13348
2026-01-10 05:45:51.81	252.48	6.96	-45.3	-56.3	3.8	8.46e-01	0	57	104	2883584000	60	13397
2026-01-10 05:45:52.82	252.38	6.89	-45.2	-55.7	3.9	8.46e-01	0	57	104	2883584000	59	13225
2026-01-10 05:45:53.83	252.29	6.83	-44.9	-55.9	3.9	8.46e-01	0	57	104	2883584000	60	12707
2026-01-10 05:45:54.83	252.20	6.77	-45.3	-56.3	3.8	8.45e-01	0	57	104	2883584000	60	13363
2026-01-10 05:45:55.84	252.11	6.70	-45.3	-56.3	3.8	8.45e-01	0	57	104	2883584000	60	13354
2026-01-10 05:45:56.85	252.02	6.64	-45.3	-56.3	3.8	8.47e-01	0	57	104	2883584000	60	13337
2026-01-10 05:45:57.86	251.93	6.57	-45.3	-56.3	3.8	8.45e-01	0	57	104	2883584000	60	13331
2026-01-10 05:45:58.87	251.84	6.51	-45.3	-56.3	3.8	8.47e-01	0	57	104	2883584000	60	13282
2026-01-10 05:45:59.88	251.75	6.44	-45.3	-56.3	3.8	8.46e-01	0	57	104	2883584000	60	13315
2026-01-10 05:46:00.89	251.67	6.38	-45.3	-56.3	3.8	8.47e-01	0	57	104	2883584000	60	13275
2026-01-10 05:46:01.90	251.58	6.32	-45.3	-56.3	3.8	8.46e-01	0	57	104	2883584000	60	13319
2026-01-10 05:46:02.91	251.49	6.25	-45.3	-56.3	3.8	8.45e-01	0	57	104	2883584000	60	13317
2026-01-10 05:46:03.91	251.40	6.19	-45.3	-56.3	3.8	8.47e-01	0	57	104	2883584000	60	13269
2026-01-10 05:46:04.92	251.32	6.13	-45.3	-56.3	3.8	8.46e-01	0	57	104	2883584000	60	13311
2026-01-10 05:46:05.93	251.23	6.06	-45.2	-56.2	3.8	8.46e-01	0	57	104	2883584000	60	13240
2026-01-10 05:46:06.94	251.14	6.00	-45.2	-56.3	3.8	8.47e-01	0	57	104	2883584000	60	13285
2026-01-10 05:46:07.95	251.06	5.94	-45.3	-56.3	3.8	8.47e-01	0	57	104	2883584000	60	13310
2026-01-10 05:46:08.96	250.97	5.87	-45.2	-56.3	3.8	8.46e-01	0	57	104	2883584000	60	13309
2026-01-10 05:46:09.96	250.89	5.81	-45.3	-56.2	3.8	8.46e-01	0	57	104	2883584000	60	13253
2026-01-10 05:46:10.98	250.80	5.75	-45.3	-56.3	3.8	8.45e-01	0	57	104	2883584000	60	13315
2026-01-10 05:46:11.98	250.72	5.68	-45.2	-56.2	3.8	8.46e-01	0	57	104	2883584000	60	13234
2026-01-10 05:46:12.99	250.64	5.62	-45.2	-56.3	3.8	8.46e-01	0	56	104	2883584000	60	13311
2026-01-10 05:46:14.00	250.55	5.56	-45.3	-56.3	3.8	8.46e-01	0	57	104	2883584000	60	13276
2026-01-10 05:46:15.00	250.47	5.50	-45.2	-56.3	3.8	8.46e-01	0	57	104	2883584000	60	13289
2026-01-10 05:46:16.01	250.39	5.43	-45.3	-56.2	3.8	8.47e-01	0	57	104	2883584000	60	13237
2026-01-10 05:46:17.01	250.30	5.37	-45.2	-56.3	3.8	8.46e-01	0	57	104	2883584000	60	13300
2026-01-10 05:46:18.02	250.22	5.31	-45.2	-56.2	3.8	8.47e-01	0	57	104	2883584000	60	13259
2026-01-10 05:46:19.03	250.14	5.25	-45.2	-56.3	3.8	8.46e-01	0	56	104	2883584000	60	13262
2026-01-10 05:46:20.04	250.06	5.19	-45.2	-56.2	3.8	8.46e-01	0	56	104	2883584000	60	13250
2026-01-10 05:46:21.05	249.98	5.12	-45.3	-56.2	3.8	8.46e-01	0	57	104	2883584000	60	13252
2026-01-10 05:46:22.05	249.90	5.06	-45.2	-56.2	3.8	8.46e-01	0	57	104	2883584000	60	13152
