passes_logs/2026/01/10/R2.0S_Moscow/R2.0S_Moscow__20260110_112041_NOAA_20_JPSS-1_rec.log

#Pass ID: 20260110_112041_NOAA 20 (JPSS-1)
#Satellite: NOAA 20 (JPSS-1)
#Configuration: NOAA 20
#almurnet v.1.7.20251203
#Start time: 2026-01-10 11:20:41

#Version: 2.2.20231116
#Station: R2.0S_Moscow
#Location: 37.707566 lon 55.798166 lat
#TLE: 1 43013U 17073A   26009.26828276  .00000112  00000+0  74203-4 0  9990
#TLE: 2 43013  98.7631 310.2683 0001700  47.4387 312.6933 14.19534764421920

#Time	Az	El	Level	Level2	SNR	BER	BlckErr	Temp	State	Recorded	gain1	gain2
2026-01-10 11:20:41.26	203.58	1.97	-43.9	-58.5	3.8	1.49e+00	0	48	0	0	59	19228
2026-01-10 11:20:42.28	203.65	2.03	-44.0	-58.5	3.8	1.49e+00	0	48	104	0	59	19261
2026-01-10 11:20:43.29	203.71	2.09	-44.0	-58.5	3.8	1.49e+00	0	48	104	0	59	19284
2026-01-10 11:20:44.30	203.78	2.15	-44.0	-58.5	3.8	1.49e+00	0	48	104	0	59	19284
2026-01-10 11:20:45.31	203.85	2.20	-44.0	-58.5	3.8	1.49e+00	0	48	104	0	59	19277
2026-01-10 11:20:46.32	203.92	2.26	-44.0	-58.5	3.8	1.49e+00	0	48	104	0	59	19308
2026-01-10 11:20:47.33	203.99	2.32	-43.9	-58.5	3.8	1.49e+00	0	48	104	0	59	19290
2026-01-10 11:20:48.34	204.05	2.38	-44.0	-58.5	3.8	1.49e+00	0	48	104	0	59	19254
2026-01-10 11:20:49.36	204.12	2.43	-44.0	-58.5	3.8	1.49e+00	0	48	104	0	59	19255
2026-01-10 11:20:50.37	204.19	2.49	-44.0	-58.5	3.8	1.49e+00	0	49	104	0	59	19263
2026-01-10 11:20:51.38	204.26	2.55	-44.0	-58.5	3.8	1.49e+00	0	49	104	0	59	19275
2026-01-10 11:20:52.39	204.33	2.61	-44.0	-58.5	3.8	1.49e+00	0	48	104	0	59	19222
2026-01-10 11:20:53.40	204.40	2.66	-44.0	-58.5	3.8	1.49e+00	0	49	104	0	59	19237
2026-01-10 11:20:54.41	204.47	2.72	-44.0	-58.5	3.8	1.49e+00	0	49	104	0	59	19246
2026-01-10 11:20:55.42	204.54	2.78	-44.0	-58.5	3.8	1.49e+00	0	49	104	0	59	19279
2026-01-10 11:20:56.43	204.61	2.84	-44.0	-58.5	3.8	1.49e+00	0	49	104	0	59	19262
2026-01-10 11:20:57.44	204.68	2.90	-44.0	-58.5	3.8	1.49e+00	0	49	104	0	59	19229
2026-01-10 11:20:58.46	204.76	2.96	-44.0	-58.5	3.8	1.49e+00	0	49	104	0	59	19243
2026-01-10 11:20:59.47	204.83	3.01	-44.0	-58.5	3.8	1.49e+00	0	49	104	0	59	19244
2026-01-10 11:21:00.48	204.90	3.07	-44.0	-58.5	3.8	1.49e+00	0	49	104	0	59	19273
2026-01-10 11:21:01.49	204.97	3.13	-44.0	-58.5	3.8	1.49e+00	0	49	104	0	59	19287
2026-01-10 11:21:02.50	205.04	3.19	-44.0	-58.5	3.8	1.49e+00	0	49	104	0	59	19276
2026-01-10 11:21:03.51	205.12	3.25	-44.0	-58.5	3.8	1.49e+00	0	49	104	0	59	19301
2026-01-10 11:21:04.52	205.19	3.31	-44.0	-58.5	3.8	1.49e+00	0	50	104	0	59	19265
2026-01-10 11:21:05.53	205.26	3.37	-44.0	-58.5	3.8	1.49e+00	0	49	104	0	59	19278
2026-01-10 11:21:06.54	205.34	3.43	-44.0	-58.5	3.8	1.49e+00	0	50	104	0	59	19267
2026-01-10 11:21:07.55	205.41	3.48	-44.0	-58.5	3.8	1.49e+00	0	50	104	0	59	19271
2026-01-10 11:21:08.57	205.49	3.54	-44.0	-58.5	3.8	1.49e+00	0	50	104	0	59	19226
2026-01-10 11:21:09.58	205.56	3.60	-44.0	-58.5	3.8	1.49e+00	0	50	104	0	59	19232
2026-01-10 11:21:10.59	205.63	3.66	-44.0	-58.5	3.8	1.49e+00	0	50	104	0	59	19219
2026-01-10 11:21:11.60	205.71	3.72	-44.0	-58.5	3.8	1.49e+00	0	50	104	0	59	19257
2026-01-10 11:21:12.61	205.79	3.78	-44.0	-58.5	3.8	1.49e+00	0	50	104	0	59	19230
2026-01-10 11:21:13.62	205.86	3.84	-44.0	-58.5	3.8	1.49e+00	0	50	104	0	59	19231
2026-01-10 11:21:14.63	205.94	3.90	-44.0	-58.5	3.8	1.49e+00	0	50	104	0	59	19261
2026-01-10 11:21:15.64	206.01	3.96	-44.0	-58.5	3.8	1.49e+00	0	50	104	0	59	19254
2026-01-10 11:21:16.65	206.09	4.02	-44.0	-58.5	3.8	1.49e+00	0	50	104	0	59	19255
2026-01-10 11:21:17.67	206.17	4.08	-44.0	-58.5	3.8	1.49e+00	0	50	104	0	59	19283
2026-01-10 11:21:18.68	206.24	4.14	-44.0	-58.5	3.8	1.49e+00	0	50	104	0	59	19307
2026-01-10 11:21:19.69	206.32	4.20	-44.0	-58.5	3.8	1.49e+00	0	50	104	0	59	19290
2026-01-10 11:21:20.70	206.40	4.26	-44.0	-58.5	3.8	1.49e+00	0	50	104	0	59	19274
2026-01-10 11:21:21.71	206.48	4.32	-44.0	-58.5	3.8	1.49e+00	0	51	104	0	59	19220
2026-01-10 11:21:22.72	206.55	4.38	-44.0	-58.5	3.8	1.49e+00	0	50	104	0	59	19259
2026-01-10 11:21:23.73	206.63	4.44	-43.9	-58.5	3.8	1.49e+00	0	51	104	0	59	19273
2026-01-10 11:21:24.74	206.71	4.51	-44.0	-58.5	3.8	1.49e+00	0	51	104	0	59	19249
2026-01-10 11:21:25.75	206.79	4.57	-44.0	-58.5	3.8	1.49e+00	0	51	104	0	59	19198
2026-01-10 11:21:26.76	206.87	4.63	-44.0	-58.5	3.8	1.49e+00	0	51	104	0	59	19201
2026-01-10 11:21:27.77	206.95	4.69	-44.0	-58.5	3.8	1.49e+00	0	51	104	0	59	19257
2026-01-10 11:21:28.79	207.03	4.75	-44.0	-58.5	3.8	1.49e+00	0	51	104	0	59	19231
2026-01-10 11:21:29.80	207.11	4.81	-44.0	-58.5	3.8	1.49e+00	0	51	104	0	59	19215
2026-01-10 11:21:30.81	207.19	4.87	-44.0	-58.5	3.8	1.49e+00	0	51	104	0	59	19243
2026-01-10 11:21:31.82	207.27	4.93	-44.0	-58.5	3.8	1.49e+00	0	51	104	0	59	19196
2026-01-10 11:21:32.83	207.36	5.00	-44.0	-58.5	3.8	1.49e+00	0	51	104	0	59	19285
2026-01-10 11:21:33.84	207.44	5.06	-44.0	-58.5	3.8	1.49e+00	0	51	104	0	59	19246
2026-01-10 11:21:34.85	207.52	5.12	-44.0	-58.5	3.8	1.49e+00	0	51	104	0	59	19216
2026-01-10 11:21:35.86	207.60	5.18	-44.0	-58.5	3.8	1.49e+00	0	51	104	0	59	19229
2026-01-10 11:21:36.87	207.68	5.24	-44.0	-58.5	3.8	1.49e+00	0	51	104	0	59	19258
2026-01-10 11:21:37.89	207.77	5.30	-44.0	-58.5	3.8	1.49e+00	0	51	104	0	59	19221
2026-01-10 11:21:38.90	207.85	5.37	-44.0	-58.5	3.8	1.49e+00	0	51	104	0	59	19218
2026-01-10 11:21:39.91	207.94	5.43	-44.0	-58.5	3.8	1.49e+00	0	51	104	0	59	19222
2026-01-10 11:21:40.92	208.02	5.49	-44.0	-58.5	3.8	1.49e+00	0	51	104	0	59	19203
2026-01-10 11:21:41.93	208.10	5.55	-44.0	-58.4	3.8	1.49e+00	0	51	104	0	59	19051
2026-01-10 11:21:42.94	208.19	5.62	-43.9	-58.4	3.8	1.49e+00	0	52	104	0	59	18968
2026-01-10 11:21:43.95	208.27	5.68	-44.0	-58.2	3.8	1.49e+00	0	52	104	0	59	18688
2026-01-10 11:21:44.97	208.36	5.74	-43.9	-57.9	3.8	1.49e+00	0	52	104	0	59	18074
2026-01-10 11:21:45.98	208.45	5.80	-43.9	-57.7	3.8	1.49e+00	0	52	104	0	59	17571
2026-01-10 11:21:46.99	208.53	5.87	-43.9	-57.3	3.8	1.49e+00	0	52	104	0	59	16742
2026-01-10 11:21:48.00	208.62	5.93	-43.9	-56.9	3.8	1.49e+00	0	52	104	0	59	16102
2026-01-10 11:21:49.01	208.71	5.99	-43.9	-56.5	3.8	1.49e+00	0	52	104	0	59	15350
2026-01-10 11:21:50.02	208.79	6.06	-43.8	-56.3	3.8	1.49e+00	0	52	104	0	59	14918
2026-01-10 11:21:51.03	208.88	6.12	-43.8	-55.9	4.0	1.49e+00	0	52	104	0	59	14373
2026-01-10 11:21:52.04	208.97	6.18	-43.8	-56.0	3.8	1.48e+00	0	52	104	0	59	14518
2026-01-10 11:21:53.05	209.06	6.25	-43.8	-56.0	3.9	1.48e+00	0	52	104	0	59	14470
2026-01-10 11:21:54.06	209.15	6.31	-43.8	-56.0	4.0	1.48e+00	0	52	104	0	59	14531
2026-01-10 11:21:55.07	209.24	6.37	-43.8	-56.0	3.8	1.48e+00	0	52	104	0	59	14421
2026-01-10 11:21:56.09	209.33	6.44	-43.8	-55.6	4.0	1.47e+00	0	52	104	0	59	13826
2026-01-10 11:21:57.10	209.42	6.50	-43.8	-55.3	4.1	1.43e+00	0	52	0	0	59	13285
2026-01-10 11:21:58.11	209.51	6.56	-43.8	-55.2	4.1	1.41e+00	0	52	0	0	59	13147
2026-01-10 11:21:59.12	209.60	6.63	-43.7	-55.2	4.1	1.42e+00	0	52	0	0	59	13202
2026-01-10 11:22:00.13	209.69	6.69	-43.7	-55.0	4.2	1.41e+00	0	52	0	0	59	12858
2026-01-10 11:22:01.14	209.78	6.76	-43.7	-54.4	4.4	1.36e+00	92	52	0	0	59	11961
2026-01-10 11:22:02.15	209.87	6.82	-43.6	-53.8	4.6	1.11e+00	0	52	0	2097152	59	11253
2026-01-10 11:22:03.16	209.96	6.89	-43.6	-53.2	4.8	8.33e-01	0	52	0	3145728	59	10526
2026-01-10 11:22:04.17	210.06	6.95	-43.5	-52.8	5.1	7.56e-01	0	52	0	5242880	59	10026
2026-01-10 11:22:05.18	210.15	7.02	-43.4	-51.8	5.7	5.51e-01	0	52	0	7340032	58	9496
2026-01-10 11:22:06.20	210.24	7.08	-43.2	-51.1	6.2	3.15e-01	0	53	0	9437184	58	8744
2026-01-10 11:22:07.21	210.34	7.15	-43.1	-50.5	6.8	2.28e-01	0	53	0	11534336	58	8136
2026-01-10 11:22:08.22	210.43	7.21	-42.9	-49.5	7.7	1.33e-01	0	53	0	12582912	57	7684
2026-01-10 11:22:09.23	210.53	7.28	-42.6	-48.7	8.4	5.38e-02	0	53	0	14680064	57	7024
2026-01-10 11:22:10.24	210.62	7.34	-42.5	-48.1	9.1	2.88e-02	0	53	0	16777216	56	6938
2026-01-10 11:22:11.25	210.72	7.41	-42.3	-47.5	9.7	1.53e-02	0	53	0	18874368	56	6490
2026-01-10 11:22:12.26	210.81	7.47	-42.1	-47.1	10.2	9.46e-03	0	53	0	20971520	56	6168
2026-01-10 11:22:13.27	210.91	7.54	-41.8	-46.5	10.6	4.40e-03	0	53	0	23068672	55	6114
2026-01-10 11:22:14.28	211.01	7.60	-41.5	-45.9	11.3	1.99e-03	0	53	0	24117248	55	5670
2026-01-10 11:22:15.29	211.10	7.67	-41.4	-45.6	11.5	1.03e-03	0	53	0	26214400	54	5839
2026-01-10 11:22:16.30	211.20	7.73	-41.4	-45.7	11.5	6.43e-04	0	53	0	28311552	54	5889
2026-01-10 11:22:17.31	211.30	7.80	-41.3	-45.3	11.8	6.77e-04	0	53	0	30408704	54	5655
2026-01-10 11:22:18.32	211.40	7.86	-41.4	-45.5	11.7	4.12e-04	0	53	0	32505856	54	5782
2026-01-10 11:22:19.33	211.50	7.93	-41.5	-45.8	11.4	9.71e-04	0	53	0	33554432	54	5931
2026-01-10 11:22:20.34	211.60	8.00	-41.7	-46.4	10.8	1.65e-03	0	53	0	35651584	54	6351
2026-01-10 11:22:21.35	211.70	8.06	-41.7	-46.3	10.8	5.56e-03	0	53	0	37748736	54	6295
2026-01-10 11:22:22.36	211.80	8.13	-41.3	-45.2	12.1	1.33e-03	0	53	0	39845888	54	5579
2026-01-10 11:22:23.37	211.90	8.20	-42.7	-49.1	5.5	1.21e+00	1	53	104	40894464	57	7294
2026-01-10 11:22:24.38	212.00	8.26	-43.1	-49.8	7.2	2.53e-01	0	53	0	41943040	57	7989
2026-01-10 11:22:25.39	212.10	8.33	-41.5	-45.6	11.8	4.78e-03	0	53	0	44040192	54	5800
2026-01-10 11:22:26.39	212.20	8.40	-43.4	-51.8	5.5	1.47e+00	0	53	104	44040192	58	9391
2026-01-10 11:22:27.40	212.30	8.46	-41.4	-45.4	11.9	7.22e-04	0	53	0	45088768	54	5712
2026-01-10 11:22:28.41	212.41	8.53	-41.4	-45.3	12.0	3.73e-04	0	53	0	47185920	54	5641
2026-01-10 11:22:29.43	212.51	8.60	-41.2	-45.1	12.3	2.24e-04	0	53	0	49283072	54	5467
2026-01-10 11:22:30.43	212.61	8.66	-41.1	-44.9	12.5	1.73e-04	0	53	0	50331648	54	5355
2026-01-10 11:22:31.44	212.72	8.73	-41.1	-44.8	12.6	1.28e-04	0	53	0	52428800	54	5284
2026-01-10 11:22:32.45	212.82	8.80	-41.1	-44.9	12.5	8.54e-05	0	53	0	54525952	54	5360
2026-01-10 11:22:33.46	212.93	8.86	-41.2	-45.0	12.4	1.29e-04	0	53	0	56623104	54	5454
2026-01-10 11:22:34.47	213.03	8.93	-41.2	-44.9	12.5	1.59e-04	0	53	0	58720256	54	5357
2026-01-10 11:22:35.48	213.14	9.00	-41.2	-44.9	12.5	9.07e-05	0	53	0	59768832	54	5365
2026-01-10 11:22:36.49	213.24	9.07	-41.1	-44.7	12.7	7.70e-05	0	54	0	61865984	54	5269
2026-01-10 11:22:37.50	213.35	9.14	-41.1	-44.7	12.7	1.04e-04	0	53	0	63963136	54	5277
2026-01-10 11:22:38.51	213.46	9.20	-41.2	-44.9	12.6	7.01e-05	0	53	0	66060288	54	5355
2026-01-10 11:22:39.52	213.57	9.27	-41.1	-44.8	12.7	6.71e-05	0	54	0	68157440	54	5292
2026-01-10 11:22:40.53	213.68	9.34	-41.1	-44.8	12.6	8.69e-05	0	54	0	70254592	54	5307
2026-01-10 11:22:41.54	213.78	9.41	-41.2	-44.8	12.6	7.93e-05	0	54	0	71303168	54	5331
2026-01-10 11:22:42.55	213.89	9.48	-41.1	-44.7	12.7	9.99e-05	0	53	0	73400320	54	5279
2026-01-10 11:22:43.56	214.00	9.54	-41.2	-44.9	12.6	8.69e-05	0	54	0	75497472	54	5393
2026-01-10 11:22:44.57	214.11	9.61	-41.2	-44.9	12.7	1.06e-04	0	54	0	77594624	54	5343
2026-01-10 11:22:45.58	214.23	9.68	-41.2	-44.8	12.7	7.93e-05	0	54	0	79691776	54	5335
2026-01-10 11:22:46.59	214.34	9.75	-41.2	-44.8	12.7	1.01e-04	0	54	0	80740352	54	5334
2026-01-10 11:22:47.60	214.45	9.82	-41.2	-44.8	12.7	5.18e-05	0	54	0	82837504	54	5327
2026-01-10 11:22:48.61	214.56	9.89	-41.2	-44.8	12.7	6.86e-05	0	54	0	84934656	54	5325
2026-01-10 11:22:49.62	214.67	9.96	-41.1	-44.6	13.0	5.56e-05	0	54	0	87031808	54	5185
2026-01-10 11:22:50.62	214.79	10.03	-41.2	-44.7	12.8	5.41e-05	0	54	0	89128960	54	5265
2026-01-10 11:22:51.63	214.90	10.09	-41.1	-44.5	13.1	3.20e-05	0	54	0	90177536	54	5148
2026-01-10 11:22:52.64	215.02	10.16	-41.0	-44.5	13.1	3.35e-05	0	54	0	92274688	54	5123
2026-01-10 11:22:53.65	215.13	10.23	-41.0	-44.4	13.2	2.36e-05	0	54	0	94371840	54	5095
2026-01-10 11:22:54.66	215.25	10.30	-41.0	-44.4	13.2	2.67e-05	0	54	0	96468992	54	5069
2026-01-10 11:22:55.67	215.36	10.37	-40.9	-44.3	13.3	1.75e-05	0	54	0	98566144	53	5298
2026-01-10 11:22:56.68	215.48	10.44	-40.9	-44.3	13.4	1.29e-05	0	54	0	99614720	53	5288
2026-01-10 11:22:57.69	215.60	10.51	-40.9	-44.3	13.3	1.37e-05	0	54	0	101711872	53	5298
2026-01-10 11:22:58.70	215.71	10.58	-40.8	-44.1	13.5	6.10e-06	0	54	0	103809024	53	5184
2026-01-10 11:22:59.71	215.83	10.65	-40.9	-44.2	13.5	1.22e-05	0	54	0	105906176	53	5232
2026-01-10 11:23:00.72	215.95	10.72	-40.7	-43.9	13.7	6.80e-06	0	54	0	108003328	53	5085
2026-01-10 11:23:01.73	216.07	10.79	-40.9	-44.1	13.5	6.10e-06	0	54	0	109051904	53	5211
2026-01-10 11:23:02.74	216.19	10.86	-40.9	-44.2	13.5	5.30e-06	0	54	0	111149056	53	5224
2026-01-10 11:23:03.75	216.31	10.93	-40.8	-44.1	13.5	4.50e-06	0	54	0	113246208	53	5184
2026-01-10 11:23:04.76	216.43	11.00	-40.8	-44.0	13.6	6.10e-06	0	54	0	115343360	53	5152
2026-01-10 11:23:05.76	216.55	11.07	-40.9	-44.2	13.5	1.22e-05	0	54	0	117440512	53	5221
2026-01-10 11:23:06.77	216.68	11.14	-40.8	-44.1	13.6	3.80e-06	0	54	0	118489088	53	5160
2026-01-10 11:23:07.79	216.80	11.21	-40.9	-44.1	13.6	7.60e-06	0	54	0	120586240	53	5205
2026-01-10 11:23:08.79	216.92	11.28	-40.8	-44.1	13.6	5.30e-06	0	54	0	122683392	53	5163
2026-01-10 11:23:09.80	217.05	11.36	-40.8	-44.0	13.7	3.80e-06	0	54	0	124780544	53	5138
2026-01-10 11:23:10.81	217.17	11.43	-40.8	-44.0	13.7	5.30e-06	0	54	0	126877696	53	5117
2026-01-10 11:23:11.82	217.29	11.50	-40.8	-44.0	13.7	0.00e+00	0	54	0	127926272	53	5110
2026-01-10 11:23:12.83	217.42	11.57	-40.8	-44.0	13.7	5.30e-06	0	54	0	130023424	53	5131
2026-01-10 11:23:13.84	217.55	11.64	-40.8	-44.0	13.7	4.50e-06	0	54	0	132120576	53	5139
2026-01-10 11:23:14.85	217.67	11.71	-40.9	-44.2	13.5	1.44e-05	0	54	0	134217728	53	5266
2026-01-10 11:23:15.86	217.80	11.78	-41.0	-44.3	13.5	1.14e-05	0	54	0	136314880	53	5302
2026-01-10 11:23:16.87	217.93	11.85	-40.9	-44.2	13.5	1.37e-05	0	54	0	137363456	53	5236
2026-01-10 11:23:17.87	218.06	11.92	-41.0	-44.4	13.3	1.44e-05	0	54	0	139460608	53	5349
2026-01-10 11:23:18.89	218.19	12.00	-41.0	-44.4	13.4	1.75e-05	0	54	0	141557760	53	5350
2026-01-10 11:23:19.90	218.32	12.07	-41.1	-44.4	13.3	1.75e-05	0	55	0	143654912	53	5376
2026-01-10 11:23:20.90	218.45	12.14	-41.1	-44.4	13.3	1.83e-05	0	55	0	145752064	53	5388
2026-01-10 11:23:21.91	218.58	12.21	-41.0	-44.3	13.4	9.10e-06	0	54	0	146800640	53	5331
2026-01-10 11:23:22.92	218.71	12.28	-40.9	-44.2	13.6	1.29e-05	0	54	0	148897792	53	5243
2026-01-10 11:23:23.93	218.84	12.35	-40.9	-44.2	13.6	1.14e-05	0	54	0	150994944	53	5219
2026-01-10 11:23:24.94	218.97	12.43	-40.9	-44.1	13.6	1.06e-05	0	54	0	153092096	53	5211
2026-01-10 11:23:25.95	219.11	12.50	-40.9	-44.1	13.6	6.80e-06	0	55	0	155189248	53	5215
2026-01-10 11:23:26.96	219.24	12.57	-40.8	-43.9	13.9	3.00e-06	0	54	0	156237824	53	5057
2026-01-10 11:23:27.97	219.38	12.64	-40.7	-43.8	14.0	3.00e-06	0	54	0	158334976	53	5009
2026-01-10 11:23:28.98	219.51	12.72	-40.7	-43.8	14.0	1.50e-06	0	54	0	160432128	53	5034
2026-01-10 11:23:29.99	219.65	12.79	-40.8	-43.9	13.9	4.50e-06	0	54	0	162529280	53	5071
2026-01-10 11:23:31.00	219.79	12.86	-40.7	-43.7	14.1	5.30e-06	0	55	0	164626432	53	4965
2026-01-10 11:23:32.01	219.92	12.93	-40.7	-43.7	14.1	3.00e-06	0	55	0	166723584	53	4955
2026-01-10 11:23:33.02	220.06	13.01	-40.7	-43.8	14.1	7.00e-07	0	55	0	167772160	53	4985
2026-01-10 11:23:34.03	220.20	13.08	-40.7	-43.8	14.1	1.50e-06	0	55	0	169869312	53	5006
2026-01-10 11:23:35.04	220.34	13.15	-40.7	-43.7	14.2	7.00e-07	0	55	0	171966464	53	4947
2026-01-10 11:23:36.05	220.48	13.22	-40.7	-43.7	14.1	7.00e-07	0	55	0	174063616	53	4972
2026-01-10 11:23:37.06	220.62	13.30	-40.6	-43.6	14.2	3.80e-06	0	55	0	176160768	53	4922
2026-01-10 11:23:38.07	220.76	13.37	-40.6	-43.6	14.3	2.20e-06	0	55	0	177209344	53	4878
2026-01-10 11:23:39.08	220.90	13.44	-40.6	-43.6	14.3	0.00e+00	0	55	0	179306496	53	4871
2026-01-10 11:23:40.09	221.05	13.52	-40.5	-43.5	14.4	1.50e-06	0	55	0	181403648	53	4817
2026-01-10 11:23:41.09	221.19	13.59	-40.6	-43.6	14.3	0.00e+00	0	55	0	183500800	53	4882
2026-01-10 11:23:42.11	221.33	13.66	-40.6	-43.6	14.3	1.50e-06	0	55	0	185597952	53	4898
2026-01-10 11:23:43.11	221.48	13.73	-40.7	-43.7	14.2	7.00e-07	0	55	0	186646528	53	4963
2026-01-10 11:23:44.13	221.63	13.81	-40.7	-43.7	14.1	1.50e-06	0	55	0	188743680	53	4978
2026-01-10 11:23:45.14	221.77	13.88	-40.8	-43.8	14.1	7.00e-07	0	55	0	190840832	53	5038
2026-01-10 11:23:46.15	221.92	13.96	-40.8	-43.8	14.1	7.00e-07	0	55	0	192937984	53	5023
2026-01-10 11:23:47.16	222.07	14.03	-40.7	-43.8	14.1	2.20e-06	0	55	0	195035136	53	4994
2026-01-10 11:23:48.16	222.21	14.10	-40.8	-43.9	14.0	3.80e-06	0	55	0	196083712	53	5062
2026-01-10 11:23:49.17	222.36	14.17	-40.8	-43.8	14.1	2.20e-06	0	55	0	198180864	53	5011
2026-01-10 11:23:50.18	222.51	14.25	-40.8	-43.9	14.0	1.50e-06	0	55	0	200278016	53	5068
2026-01-10 11:23:51.19	222.66	14.32	-40.7	-43.8	14.2	1.50e-06	0	55	0	202375168	53	4992
2026-01-10 11:23:52.20	222.81	14.40	-40.7	-43.7	14.2	1.50e-06	0	55	0	204472320	53	4956
2026-01-10 11:23:53.21	222.97	14.47	-40.7	-43.6	14.3	7.00e-07	0	55	0	205520896	53	4911
2026-01-10 11:23:54.22	223.12	14.54	-40.7	-43.7	14.3	0.00e+00	0	55	0	207618048	53	4933
2026-01-10 11:23:55.23	223.27	14.62	-40.7	-43.6	14.3	7.00e-07	0	55	0	209715200	53	4918
2026-01-10 11:23:56.24	223.43	14.69	-40.7	-43.7	14.2	0.00e+00	0	55	0	211812352	53	4958
2026-01-10 11:23:57.25	223.58	14.76	-40.7	-43.6	14.3	7.00e-07	0	55	0	213909504	53	4919
2026-01-10 11:23:58.26	223.74	14.84	-40.6	-43.5	14.4	1.50e-06	0	55	0	214958080	53	4858
2026-01-10 11:23:59.27	223.89	14.91	-40.7	-43.6	14.3	0.00e+00	0	55	0	217055232	53	4918
2026-01-10 11:24:00.28	224.05	14.99	-40.6	-43.5	14.4	2.20e-06	0	55	0	219152384	53	4861
2026-01-10 11:24:01.29	224.21	15.06	-40.6	-43.5	14.4	0.00e+00	0	55	0	221249536	53	4870
2026-01-10 11:24:02.29	224.37	15.13	-40.6	-43.6	14.4	7.00e-07	0	55	0	223346688	53	4873
2026-01-10 11:24:03.30	224.53	15.21	-40.7	-43.6	14.3	1.50e-06	0	55	0	224395264	53	4911
2026-01-10 11:24:04.31	224.69	15.28	-40.6	-43.5	14.4	0.00e+00	0	55	0	226492416	53	4870
2026-01-10 11:24:05.32	224.85	15.35	-40.6	-43.6	14.4	7.00e-07	0	55	0	228589568	53	4880
2026-01-10 11:24:06.33	225.01	15.43	-40.6	-43.5	14.5	7.00e-07	0	55	0	230686720	53	4832
2026-01-10 11:24:07.34	225.17	15.50	-40.6	-43.5	14.5	0.00e+00	0	55	0	232783872	53	4819
2026-01-10 11:24:08.35	225.34	15.58	-40.6	-43.5	14.5	7.00e-07	0	55	0	234881024	53	4835
2026-01-10 11:24:09.36	225.50	15.65	-40.6	-43.4	14.5	7.00e-07	0	55	0	235929600	53	4806
2026-01-10 11:24:10.37	225.66	15.72	-40.6	-43.4	14.6	0.00e+00	0	55	0	238026752	53	4794
2026-01-10 11:24:11.38	225.83	15.80	-40.5	-43.3	14.7	0.00e+00	0	55	0	240123904	53	4744
2026-01-10 11:24:12.39	226.00	15.87	-40.5	-43.3	14.7	0.00e+00	0	55	0	242221056	53	4715
2026-01-10 11:24:13.40	226.16	15.95	-40.4	-43.2	14.8	0.00e+00	0	55	0	244318208	52	4951
2026-01-10 11:24:14.41	226.33	16.02	-40.4	-43.2	14.9	0.00e+00	0	55	0	245366784	52	4927
2026-01-10 11:24:15.42	226.50	16.09	-40.4	-43.1	14.9	1.50e-06	0	55	0	247463936	52	4921
2026-01-10 11:24:16.43	226.67	16.17	-40.3	-43.0	15.0	0.00e+00	0	55	0	249561088	52	4842
2026-01-10 11:24:17.44	226.84	16.24	-40.4	-43.1	14.9	0.00e+00	0	55	0	251658240	52	4904
2026-01-10 11:24:18.44	227.01	16.32	-40.4	-43.0	15.0	0.00e+00	0	55	0	253755392	52	4870
2026-01-10 11:24:19.45	227.18	16.39	-40.4	-43.1	15.0	0.00e+00	0	55	0	254803968	52	4893
2026-01-10 11:24:20.46	227.36	16.46	-40.2	-42.9	15.1	0.00e+00	0	56	0	256901120	52	4793
2026-01-10 11:24:21.47	227.53	16.54	-40.3	-43.0	15.0	0.00e+00	0	55	0	258998272	52	4858
2026-01-10 11:24:22.48	227.71	16.61	-40.2	-42.9	15.2	0.00e+00	0	55	0	261095424	52	4778
2026-01-10 11:24:23.49	227.88	16.69	-40.4	-43.1	15.0	0.00e+00	0	55	0	263192576	52	4874
2026-01-10 11:24:24.50	228.06	16.76	-40.3	-42.9	15.1	0.00e+00	0	55	0	264241152	52	4799
2026-01-10 11:24:25.51	228.23	16.83	-40.4	-43.1	15.0	0.00e+00	0	55	0	266338304	52	4875
2026-01-10 11:24:26.52	228.41	16.91	-40.3	-43.1	15.0	0.00e+00	0	55	0	268435456	52	4871
2026-01-10 11:24:27.53	228.59	16.98	-40.3	-43.0	15.0	0.00e+00	0	55	0	270532608	52	4867
2026-01-10 11:24:28.54	228.77	17.05	-40.4	-43.2	14.9	0.00e+00	0	55	0	272629760	52	4931
2026-01-10 11:24:29.55	228.95	17.13	-40.4	-43.2	14.8	0.00e+00	0	55	0	273678336	52	4953
2026-01-10 11:24:30.56	229.13	17.20	-40.5	-43.3	14.7	0.00e+00	0	56	0	275775488	52	5029
2026-01-10 11:24:31.57	229.32	17.27	-40.5	-43.3	14.8	0.00e+00	0	55	0	277872640	52	4991
2026-01-10 11:24:32.58	229.50	17.35	-40.5	-43.4	14.7	7.00e-07	0	55	0	279969792	52	5051
2026-01-10 11:24:33.59	229.68	17.42	-40.6	-43.4	14.6	0.00e+00	0	55	0	282066944	52	5079
2026-01-10 11:24:34.60	229.87	17.49	-40.7	-43.6	14.5	7.00e-07	0	55	0	283115520	52	5167
2026-01-10 11:24:35.61	230.05	17.57	-40.7	-43.6	14.5	0.00e+00	0	56	0	285212672	52	5161
2026-01-10 11:24:36.61	230.24	17.64	-40.7	-43.6	14.5	1.50e-06	0	55	0	287309824	52	5171
2026-01-10 11:24:37.62	230.43	17.71	-40.8	-43.7	14.3	0.00e+00	0	55	0	289406976	52	5261
2026-01-10 11:24:38.63	230.62	17.79	-40.8	-43.7	14.3	2.20e-06	0	55	0	291504128	52	5250
2026-01-10 11:24:39.64	230.80	17.86	-40.6	-43.5	14.5	0.00e+00	0	55	0	292552704	52	5147
2026-01-10 11:24:40.65	231.00	17.93	-40.6	-43.5	14.6	7.00e-07	0	55	0	294649856	52	5121
2026-01-10 11:24:41.66	231.19	18.01	-40.5	-43.3	14.8	0.00e+00	0	55	0	296747008	52	5007
2026-01-10 11:24:42.68	231.38	18.08	-40.4	-43.2	14.9	0.00e+00	0	55	0	298844160	52	4940
2026-01-10 11:24:43.68	231.57	18.15	-40.4	-43.0	15.1	0.00e+00	0	55	0	300941312	52	4857
2026-01-10 11:24:44.69	231.77	18.22	-40.3	-42.9	15.1	0.00e+00	0	56	0	303038464	52	4803
2026-01-10 11:24:45.70	231.96	18.30	-40.3	-43.0	15.1	0.00e+00	0	56	0	304087040	52	4822
2026-01-10 11:24:46.71	232.16	18.37	-40.4	-43.0	15.1	0.00e+00	0	56	0	306184192	52	4862
2026-01-10 11:24:47.72	232.35	18.44	-40.3	-42.9	15.2	0.00e+00	0	56	0	308281344	52	4797
2026-01-10 11:24:48.73	232.55	18.51	-40.3	-42.9	15.2	0.00e+00	0	56	0	310378496	52	4782
2026-01-10 11:24:49.74	232.75	18.58	-40.2	-42.8	15.3	0.00e+00	0	56	0	312475648	52	4753
2026-01-10 11:24:50.75	232.95	18.66	-40.2	-42.8	15.3	0.00e+00	0	56	0	313524224	52	4716
2026-01-10 11:24:51.76	233.15	18.73	-40.1	-42.7	15.4	0.00e+00	0	55	0	315621376	52	4673
2026-01-10 11:24:52.77	233.35	18.80	-40.1	-42.6	15.5	0.00e+00	0	55	0	317718528	52	4621
2026-01-10 11:24:53.78	233.55	18.87	-40.0	-42.5	15.7	0.00e+00	0	56	0	319815680	51	4831
2026-01-10 11:24:54.79	233.75	18.94	-39.9	-42.4	15.8	0.00e+00	0	56	0	321912832	51	4778
2026-01-10 11:24:55.80	233.96	19.01	-39.9	-42.3	15.9	0.00e+00	0	56	0	322961408	51	4736
2026-01-10 11:24:56.81	234.16	19.08	-39.8	-42.2	15.9	0.00e+00	0	56	0	325058560	51	4692
2026-01-10 11:24:57.82	234.37	19.15	-39.8	-42.2	16.0	0.00e+00	0	56	0	327155712	51	4669
2026-01-10 11:24:58.83	234.58	19.22	-39.8	-42.1	16.1	0.00e+00	0	56	0	329252864	51	4634
2026-01-10 11:24:59.84	234.78	19.29	-39.9	-42.3	15.9	0.00e+00	0	56	0	331350016	51	4712
2026-01-10 11:25:00.85	234.99	19.37	-39.9	-42.3	15.9	0.00e+00	0	56	0	332398592	51	4720
2026-01-10 11:25:01.85	235.20	19.43	-39.9	-42.3	15.9	0.00e+00	0	56	0	334495744	51	4733
2026-01-10 11:25:02.86	235.41	19.50	-39.9	-42.2	15.9	0.00e+00	0	56	0	336592896	51	4702
2026-01-10 11:25:03.87	235.62	19.57	-39.8	-42.1	16.1	0.00e+00	0	56	0	338690048	51	4647
2026-01-10 11:25:04.88	235.83	19.64	-39.7	-42.0	16.2	0.00e+00	0	56	0	340787200	51	4559
2026-01-10 11:25:05.89	236.05	19.71	-39.6	-41.9	16.3	0.00e+00	0	56	0	341835776	51	4531
2026-01-10 11:25:06.90	236.26	19.78	-39.7	-41.9	16.3	0.00e+00	0	56	0	343932928	51	4545
2026-01-10 11:25:07.91	236.48	19.85	-39.7	-42.0	16.1	0.00e+00	0	56	0	346030080	51	4595
2026-01-10 11:25:08.92	236.69	19.92	-39.8	-42.1	16.1	0.00e+00	0	56	0	348127232	51	4619
2026-01-10 11:25:09.93	236.91	19.99	-39.8	-42.1	16.1	0.00e+00	0	56	0	350224384	51	4635
2026-01-10 11:25:10.94	237.13	20.06	-39.8	-42.2	16.0	0.00e+00	0	55	0	351272960	51	4680
2026-01-10 11:25:11.95	237.35	20.12	-39.8	-42.2	16.0	0.00e+00	0	56	0	353370112	51	4666
2026-01-10 11:25:12.96	237.57	20.19	-39.9	-42.3	15.9	0.00e+00	0	56	0	355467264	51	4721
2026-01-10 11:25:13.97	237.79	20.26	-39.9	-42.2	16.0	0.00e+00	0	56	0	357564416	51	4695
2026-01-10 11:25:14.98	238.01	20.33	-39.9	-42.3	16.0	0.00e+00	0	56	0	359661568	51	4716
2026-01-10 11:25:15.99	238.23	20.39	-39.9	-42.2	16.0	0.00e+00	0	56	0	360710144	51	4690
2026-01-10 11:25:17.00	238.45	20.46	-39.9	-42.2	16.0	0.00e+00	0	56	0	362807296	51	4701
2026-01-10 11:25:18.01	238.68	20.53	-39.9	-42.2	16.0	0.00e+00	0	56	0	364904448	51	4693
2026-01-10 11:25:19.01	238.90	20.59	-39.9	-42.3	15.9	0.00e+00	0	56	0	367001600	51	4739
2026-01-10 11:25:20.02	239.13	20.66	-40.0	-42.4	15.8	0.00e+00	0	56	0	369098752	51	4792
2026-01-10 11:25:21.03	239.36	20.73	-40.0	-42.4	15.8	0.00e+00	0	56	0	371195904	51	4808
2026-01-10 11:25:22.04	239.58	20.79	-40.0	-42.5	15.8	0.00e+00	0	56	0	372244480	51	4826
2026-01-10 11:25:23.05	239.81	20.86	-40.0	-42.5	15.7	0.00e+00	0	56	0	374341632	51	4862
2026-01-10 11:25:24.06	240.04	20.92	-40.0	-42.5	15.7	0.00e+00	0	56	0	376438784	51	4840
2026-01-10 11:25:25.07	240.28	20.99	-40.0	-42.5	15.7	0.00e+00	0	56	0	378535936	51	4823
2026-01-10 11:25:26.08	240.51	21.05	-40.0	-42.4	15.8	0.00e+00	0	56	0	380633088	51	4799
2026-01-10 11:25:27.09	240.74	21.11	-40.1	-42.5	15.7	0.00e+00	0	56	0	381681664	51	4860
2026-01-10 11:25:28.10	240.97	21.18	-40.1	-42.6	15.6	0.00e+00	0	56	0	383778816	51	4917
2026-01-10 11:25:29.11	241.21	21.24	-40.2	-42.8	15.4	0.00e+00	0	56	0	385875968	51	4994
2026-01-10 11:25:30.12	241.45	21.30	-40.3	-42.9	15.3	0.00e+00	0	56	0	387973120	51	5084
2026-01-10 11:25:31.13	241.68	21.37	-40.4	-43.1	15.2	0.00e+00	0	56	0	390070272	51	5166
2026-01-10 11:25:32.14	241.92	21.43	-40.5	-43.2	15.0	0.00e+00	0	56	0	391118848	51	5230
2026-01-10 11:25:33.15	242.16	21.49	-40.5	-43.2	15.0	0.00e+00	0	56	0	393216000	51	5235
2026-01-10 11:25:34.16	242.40	21.55	-40.5	-43.2	15.0	0.00e+00	0	56	0	395313152	51	5271
2026-01-10 11:25:35.17	242.64	21.62	-40.6	-43.3	14.9	0.00e+00	0	56	0	397410304	51	5312
2026-01-10 11:25:36.18	242.88	21.68	-40.5	-43.2	15.0	0.00e+00	0	56	0	399507456	51	5266
2026-01-10 11:25:37.19	243.12	21.74	-40.6	-43.3	14.9	7.00e-07	0	56	0	400556032	51	5305
2026-01-10 11:25:38.20	243.37	21.80	-40.5	-43.2	15.0	7.00e-07	0	56	0	402653184	51	5278
2026-01-10 11:25:39.21	243.61	21.86	-40.6	-43.3	14.9	0.00e+00	0	56	0	404750336	51	5302
2026-01-10 11:25:40.22	243.86	21.92	-40.7	-43.5	14.8	7.00e-07	0	56	0	406847488	51	5410
2026-01-10 11:25:41.23	244.10	21.98	-40.7	-43.5	14.6	7.00e-07	0	56	0	408944640	52	5130
2026-01-10 11:25:42.24	244.35	22.03	-40.7	-43.5	14.6	7.00e-07	0	56	0	409993216	52	5159
2026-01-10 11:25:43.25	244.60	22.09	-40.7	-43.6	14.6	0.00e+00	0	56	0	412090368	52	5166
2026-01-10 11:25:44.26	244.85	22.15	-40.6	-43.4	14.8	0.00e+00	0	56	0	414187520	52	5071
2026-01-10 11:25:45.27	245.10	22.21	-40.6	-43.4	14.8	0.00e+00	0	56	0	416284672	52	5045
2026-01-10 11:25:46.28	245.35	22.26	-40.5	-43.2	14.9	7.00e-07	0	56	0	418381824	52	4973
2026-01-10 11:25:47.29	245.60	22.32	-40.4	-43.0	15.1	7.00e-07	0	56	0	419430400	52	4870
2026-01-10 11:25:48.30	245.85	22.38	-40.3	-43.0	15.2	0.00e+00	0	56	0	421527552	52	4832
2026-01-10 11:25:49.30	246.10	22.43	-40.3	-42.9	15.3	0.00e+00	0	56	0	423624704	52	4776
2026-01-10 11:25:50.31	246.36	22.49	-40.3	-42.9	15.2	0.00e+00	0	56	0	425721856	52	4794
2026-01-10 11:25:51.32	246.61	22.54	-40.4	-43.0	15.1	0.00e+00	0	56	0	427819008	52	4867
2026-01-10 11:25:52.33	246.87	22.60	-40.5	-43.2	15.0	0.00e+00	0	56	0	428867584	52	4947
2026-01-10 11:25:53.34	247.12	22.65	-40.6	-43.3	14.8	0.00e+00	0	55	0	430964736	52	5037
2026-01-10 11:25:54.35	247.38	22.70	-40.6	-43.4	14.7	0.00e+00	0	56	0	433061888	52	5100
2026-01-10 11:25:55.36	247.64	22.76	-40.7	-43.5	14.7	0.00e+00	0	56	0	435159040	52	5125
2026-01-10 11:25:56.37	247.90	22.81	-40.7	-43.6	14.6	0.00e+00	0	56	0	437256192	52	5172
2026-01-10 11:25:57.38	248.16	22.86	-40.7	-43.6	14.6	1.50e-06	0	56	0	439353344	52	5166
2026-01-10 11:25:58.39	248.42	22.91	-40.8	-43.8	14.4	0.00e+00	0	56	0	440401920	52	5286
2026-01-10 11:25:59.40	248.68	22.96	-40.8	-43.8	14.4	7.00e-07	0	56	0	442499072	52	5291
2026-01-10 11:26:00.41	248.94	23.02	-40.9	-43.8	14.3	1.50e-06	0	56	0	444596224	52	5308
2026-01-10 11:26:01.42	249.21	23.07	-40.9	-43.8	14.4	0.00e+00	0	56	0	446693376	52	5307
2026-01-10 11:26:02.43	249.47	23.11	-40.8	-43.8	14.3	7.00e-07	0	56	0	448790528	52	5309
2026-01-10 11:26:03.44	249.74	23.16	-41.0	-43.9	14.2	7.00e-07	0	56	0	449839104	52	5395
2026-01-10 11:26:04.45	250.00	23.21	-41.0	-44.0	14.1	1.50e-06	0	56	0	451936256	52	5463
2026-01-10 11:26:05.46	250.27	23.26	-41.2	-44.3	13.9	7.60e-06	0	56	0	454033408	52	5626
2026-01-10 11:26:06.47	250.54	23.31	-41.3	-44.5	13.6	3.80e-06	0	56	0	456130560	53	5457
2026-01-10 11:26:07.48	250.81	23.35	-41.4	-44.7	13.4	9.90e-06	0	56	0	458227712	53	5545
2026-01-10 11:26:08.49	251.08	23.40	-41.4	-44.7	13.4	1.75e-05	0	56	0	459276288	53	5569
2026-01-10 11:26:09.49	251.34	23.44	-41.3	-44.6	13.6	1.44e-05	0	56	0	461373440	53	5477
2026-01-10 11:26:10.50	251.61	23.49	-41.2	-44.4	13.7	1.22e-05	0	56	0	463470592	53	5399
2026-01-10 11:26:11.51	251.89	23.53	-41.2	-44.4	13.8	4.50e-06	0	56	0	465567744	53	5353
2026-01-10 11:26:12.52	252.16	23.58	-41.1	-44.2	13.9	3.00e-06	0	56	0	467664896	53	5256
2026-01-10 11:26:13.53	252.43	23.62	-41.0	-44.0	14.2	6.10e-06	0	56	0	468713472	53	5116
2026-01-10 11:26:14.54	252.70	23.66	-40.9	-43.9	14.2	0.00e+00	0	56	0	470810624	53	5081
2026-01-10 11:26:15.55	252.98	23.71	-40.9	-43.8	14.3	0.00e+00	0	56	0	472907776	53	5039
2026-01-10 11:26:16.56	253.25	23.75	-40.9	-43.9	14.3	7.00e-07	0	56	0	475004928	53	5061
2026-01-10 11:26:17.57	253.53	23.79	-41.0	-44.0	14.1	7.00e-07	0	56	0	477102080	53	5156
2026-01-10 11:26:18.58	253.81	23.83	-41.1	-44.2	14.0	1.50e-06	0	56	0	478150656	53	5240
2026-01-10 11:26:19.59	254.08	23.87	-41.2	-44.4	13.7	3.80e-06	0	56	0	480247808	53	5367
2026-01-10 11:26:20.60	254.36	23.91	-41.3	-44.6	13.6	1.06e-05	0	56	0	482344960	53	5481
2026-01-10 11:26:21.61	254.64	23.95	-41.4	-44.7	13.5	6.80e-06	0	56	0	484442112	53	5579
2026-01-10 11:26:22.62	254.92	23.98	-41.3	-44.6	13.5	1.60e-05	0	56	0	486539264	53	5501
2026-01-10 11:26:23.62	255.20	24.02	-41.3	-44.5	13.6	1.14e-05	0	56	0	487587840	53	5459
2026-01-10 11:26:24.63	255.48	24.06	-41.2	-44.5	13.7	9.10e-06	0	56	0	489684992	53	5408
2026-01-10 11:26:25.64	255.76	24.09	-41.2	-44.3	13.8	5.30e-06	0	56	0	491782144	53	5339
2026-01-10 11:26:26.65	256.04	24.13	-41.2	-44.3	13.9	3.80e-06	0	56	0	493879296	53	5307
2026-01-10 11:26:27.66	256.32	24.16	-41.3	-44.5	13.6	6.10e-06	0	56	0	495976448	53	5429
2026-01-10 11:26:28.67	256.60	24.19	-41.4	-44.7	13.5	1.22e-05	0	56	0	497025024	53	5538
2026-01-10 11:26:29.68	256.89	24.23	-41.4	-44.8	13.4	1.44e-05	0	56	0	499122176	53	5598
2026-01-10 11:26:30.69	257.17	24.26	-41.6	-45.0	13.2	2.67e-05	0	56	0	501219328	53	5760
2026-01-10 11:26:31.70	257.46	24.29	-41.7	-45.3	12.9	4.04e-05	0	56	0	503316480	53	5927
2026-01-10 11:26:32.71	257.74	24.32	-41.7	-45.3	12.9	4.88e-05	0	56	0	505413632	54	5621
2026-01-10 11:26:33.72	258.03	24.35	-41.7	-45.3	12.9	5.72e-05	0	56	0	507510784	54	5610
2026-01-10 11:26:34.73	258.31	24.38	-41.6	-45.2	12.9	5.49e-05	0	56	0	508559360	54	5535
2026-01-10 11:26:35.74	258.60	24.41	-41.6	-45.1	13.1	3.43e-05	0	56	0	510656512	54	5483
2026-01-10 11:26:36.74	258.88	24.44	-41.5	-44.8	13.3	1.90e-05	0	56	0	512753664	54	5323
2026-01-10 11:26:37.75	259.17	24.47	-41.4	-44.7	13.5	7.60e-06	0	56	0	514850816	54	5234
2026-01-10 11:26:38.76	259.46	24.49	-41.4	-44.7	13.5	1.14e-05	0	56	0	515899392	54	5253
2026-01-10 11:26:39.77	259.75	24.52	-41.4	-44.8	13.4	9.90e-06	0	56	0	517996544	54	5283
2026-01-10 11:26:40.78	260.04	24.55	-41.5	-45.0	13.2	2.21e-05	0	56	0	520093696	54	5403
2026-01-10 11:26:41.79	260.33	24.57	-41.6	-45.0	13.1	2.51e-05	0	56	0	522190848	54	5441
2026-01-10 11:26:42.80	260.62	24.59	-41.6	-45.1	13.0	3.73e-05	0	56	0	524288000	54	5520
2026-01-10 11:26:43.81	260.91	24.62	-41.6	-45.1	13.1	3.12e-05	0	56	0	525336576	54	5480
2026-01-10 11:26:44.82	261.20	24.64	-41.5	-44.9	13.2	2.21e-05	0	56	0	527433728	54	5382
2026-01-10 11:26:45.83	261.49	24.66	-41.4	-44.7	13.4	1.90e-05	0	56	0	529530880	54	5279
2026-01-10 11:26:46.84	261.78	24.68	-41.2	-44.4	13.8	8.30e-06	0	56	0	531628032	54	5058
2026-01-10 11:26:47.84	262.07	24.70	-41.1	-44.1	14.1	7.00e-07	0	56	0	533725184	54	4880
2026-01-10 11:26:48.85	262.36	24.72	-40.9	-43.8	14.4	1.50e-06	0	56	0	535822336	53	4989
2026-01-10 11:26:49.86	262.65	24.74	-40.7	-43.6	14.6	0.00e+00	0	56	0	536870912	53	4886
2026-01-10 11:26:50.87	262.95	24.76	-40.7	-43.5	14.7	0.00e+00	0	56	0	538968064	53	4851
2026-01-10 11:26:51.88	263.24	24.77	-40.7	-43.5	14.7	7.00e-07	0	56	0	541065216	53	4837
2026-01-10 11:26:52.89	263.53	24.79	-40.7	-43.5	14.7	0.00e+00	0	56	0	543162368	53	4828
2026-01-10 11:26:53.90	263.83	24.81	-40.8	-43.6	14.6	0.00e+00	0	56	0	545259520	53	4897
2026-01-10 11:26:54.91	264.12	24.82	-40.8	-43.7	14.5	0.00e+00	0	56	0	546308096	53	4927
2026-01-10 11:26:55.92	264.42	24.83	-40.8	-43.6	14.6	7.00e-07	0	56	0	548405248	53	4909
2026-01-10 11:26:56.93	264.71	24.85	-40.7	-43.6	14.6	3.00e-06	0	56	0	550502400	53	4886
2026-01-10 11:26:57.94	265.01	24.86	-40.7	-43.5	14.7	0.00e+00	0	56	0	552599552	53	4825
2026-01-10 11:26:58.95	265.30	24.87	-40.7	-43.5	14.7	7.00e-07	0	56	0	554696704	53	4816
2026-01-10 11:26:59.96	265.60	24.88	-40.7	-43.5	14.7	0.00e+00	0	56	0	555745280	53	4857
2026-01-10 11:27:00.97	265.89	24.89	-40.7	-43.6	14.7	0.00e+00	0	56	0	557842432	53	4877
2026-01-10 11:27:01.98	266.19	24.90	-40.8	-43.8	14.4	7.00e-07	0	56	0	559939584	53	4991
2026-01-10 11:27:02.99	266.48	24.91	-41.0	-43.9	14.2	1.50e-06	0	56	0	562036736	53	5097
2026-01-10 11:27:04.00	266.78	24.92	-41.2	-44.3	13.8	1.50e-06	0	56	0	564133888	53	5320
2026-01-10 11:27:05.00	267.07	24.92	-41.4	-44.6	13.5	6.80e-06	0	56	0	565182464	53	5522
2026-01-10 11:27:06.01	267.37	24.93	-41.4	-44.7	13.5	1.22e-05	0	56	0	567279616	53	5569
2026-01-10 11:27:07.02	267.66	24.94	-41.4	-44.7	13.4	1.29e-05	0	56	0	569376768	53	5573
2026-01-10 11:27:08.03	267.96	24.94	-41.2	-44.4	13.7	1.29e-05	0	56	0	571473920	53	5383
2026-01-10 11:27:09.04	268.26	24.94	-41.1	-44.1	14.1	3.00e-06	0	56	0	573571072	53	5210
2026-01-10 11:27:10.05	268.55	24.95	-41.0	-44.0	14.2	7.00e-07	0	56	0	574619648	53	5106
2026-01-10 11:27:11.06	268.85	24.95	-40.8	-43.7	14.5	7.00e-07	0	56	0	576716800	53	4961
2026-01-10 11:27:12.07	269.15	24.95	-40.8	-43.7	14.5	0.00e+00	0	56	0	578813952	53	4952
2026-01-10 11:27:13.08	269.44	24.95	-40.8	-43.6	14.6	7.00e-07	0	56	0	580911104	53	4886
2026-01-10 11:27:14.09	269.74	24.95	-40.8	-43.7	14.5	7.00e-07	0	56	0	583008256	53	4953
2026-01-10 11:27:15.10	270.03	24.95	-40.9	-43.9	14.3	7.00e-07	0	56	0	584056832	53	5054
2026-01-10 11:27:16.11	270.33	24.95	-41.0	-44.0	14.2	7.00e-07	0	56	0	586153984	53	5123
2026-01-10 11:27:17.12	270.63	24.95	-41.1	-44.1	14.1	0.00e+00	0	56	0	588251136	53	5179
2026-01-10 11:27:18.13	270.92	24.94	-41.0	-44.0	14.1	7.00e-07	0	56	0	590348288	53	5159
2026-01-10 11:27:19.14	271.22	24.94	-41.0	-44.0	14.2	3.00e-06	0	56	0	592445440	53	5107
2026-01-10 11:27:20.15	271.52	24.93	-40.9	-43.8	14.4	1.50e-06	0	56	0	593494016	53	4998
2026-01-10 11:27:21.16	271.81	24.93	-40.8	-43.7	14.5	7.00e-07	0	56	0	595591168	53	4948
2026-01-10 11:27:22.16	272.11	24.92	-40.7	-43.5	14.7	1.50e-06	0	56	0	597688320	53	4868
2026-01-10 11:27:23.17	272.40	24.91	-40.7	-43.5	14.7	7.00e-07	0	56	0	599785472	53	4815
2026-01-10 11:27:24.19	272.70	24.91	-40.6	-43.4	14.7	0.00e+00	0	56	0	601882624	53	4808
2026-01-10 11:27:25.20	272.99	24.90	-40.7	-43.6	14.6	1.50e-06	0	56	0	603979776	53	4896
2026-01-10 11:27:26.20	273.29	24.89	-40.8	-43.7	14.5	0.00e+00	0	56	0	605028352	53	4956
2026-01-10 11:27:27.21	273.58	24.88	-40.9	-43.9	14.3	2.20e-06	0	56	0	607125504	53	5068
2026-01-10 11:27:28.23	273.88	24.87	-41.0	-44.0	14.2	0.00e+00	0	56	0	609222656	53	5114
2026-01-10 11:27:29.23	274.17	24.85	-41.0	-44.0	14.2	7.00e-07	0	56	0	611319808	53	5158
2026-01-10 11:27:30.24	274.47	24.84	-40.9	-43.8	14.4	7.00e-07	0	56	0	613416960	53	5010
2026-01-10 11:27:31.25	274.76	24.83	-40.8	-43.6	14.5	0.00e+00	0	56	0	614465536	53	4908
2026-01-10 11:27:32.26	275.05	24.81	-40.7	-43.5	14.7	0.00e+00	0	56	0	616562688	53	4843
2026-01-10 11:27:33.27	275.35	24.80	-40.5	-43.3	14.9	0.00e+00	0	56	0	618659840	53	4711
2026-01-10 11:27:34.28	275.64	24.78	-40.5	-43.2	15.0	0.00e+00	0	56	0	620756992	53	4655
2026-01-10 11:27:35.29	275.93	24.76	-40.5	-43.2	15.0	7.00e-07	0	56	0	622854144	52	4939
2026-01-10 11:27:36.30	276.23	24.75	-40.6	-43.4	14.8	0.00e+00	0	56	0	623902720	52	5047
2026-01-10 11:27:37.31	276.52	24.73	-40.8	-43.7	14.5	0.00e+00	0	56	0	625999872	52	5233
2026-01-10 11:27:38.32	276.81	24.71	-41.0	-44.1	14.1	7.00e-07	0	56	0	628097024	52	5483
2026-01-10 11:27:39.33	277.10	24.69	-41.3	-44.5	13.7	4.50e-06	0	56	0	630194176	53	5405
2026-01-10 11:27:40.34	277.39	24.67	-41.3	-44.5	13.7	8.30e-06	0	56	0	632291328	53	5442
2026-01-10 11:27:41.35	277.69	24.65	-41.2	-44.4	13.8	8.30e-06	0	56	0	633339904	53	5348
2026-01-10 11:27:42.36	277.98	24.63	-41.1	-44.2	13.9	6.10e-06	0	56	0	635437056	53	5258
2026-01-10 11:27:43.37	278.27	24.60	-41.2	-44.3	13.9	4.50e-06	0	56	0	637534208	53	5284
2026-01-10 11:27:44.38	278.56	24.58	-41.1	-44.3	13.9	4.50e-06	0	56	0	639631360	53	5288
2026-01-10 11:27:45.39	278.84	24.56	-41.1	-44.2	13.9	1.50e-06	0	56	0	641728512	53	5270
2026-01-10 11:27:46.40	279.13	24.53	-41.0	-44.1	14.1	3.00e-06	0	56	0	642777088	53	5177
2026-01-10 11:27:47.40	279.42	24.51	-41.0	-43.9	14.2	1.50e-06	0	56	0	644874240	53	5096
2026-01-10 11:27:48.41	279.71	24.48	-40.9	-43.8	14.4	7.00e-07	0	56	0	646971392	53	5013
2026-01-10 11:27:49.42	279.99	24.45	-40.9	-43.8	14.3	1.50e-06	0	57	0	649068544	53	5040
2026-01-10 11:27:50.43	280.28	24.42	-40.9	-43.9	14.3	7.00e-07	0	56	0	651165696	53	5056
2026-01-10 11:27:51.44	280.57	24.40	-41.0	-44.0	14.2	7.00e-07	0	57	0	652214272	53	5122
2026-01-10 11:27:52.45	280.85	24.37	-41.1	-44.2	14.0	2.20e-06	0	56	0	654311424	53	5222
2026-01-10 11:27:53.46	281.14	24.34	-41.1	-44.2	13.9	1.50e-06	0	56	0	656408576	53	5276
2026-01-10 11:27:54.47	281.42	24.31	-41.2	-44.3	13.8	5.30e-06	0	56	0	658505728	53	5301
2026-01-10 11:27:55.48	281.71	24.28	-41.0	-44.0	14.1	3.80e-06	0	56	0	660602880	53	5148
2026-01-10 11:27:56.49	281.99	24.24	-40.9	-43.8	14.3	1.50e-06	0	56	0	661651456	53	5023
2026-01-10 11:27:57.49	282.27	24.21	-40.7	-43.6	14.5	7.00e-07	0	56	0	663748608	53	4898
2026-01-10 11:27:58.50	282.55	24.18	-40.7	-43.6	14.6	0.00e+00	0	57	0	665845760	53	4886
2026-01-10 11:27:59.51	282.84	24.14	-40.8	-43.6	14.6	0.00e+00	0	56	0	667942912	53	4909
2026-01-10 11:28:00.52	283.12	24.11	-40.8	-43.7	14.5	0.00e+00	0	56	0	670040064	53	4935
2026-01-10 11:28:01.53	283.40	24.07	-40.9	-43.8	14.4	7.00e-07	0	56	0	672137216	53	5006
2026-01-10 11:28:02.54	283.68	24.04	-40.9	-43.8	14.4	7.00e-07	0	57	0	673185792	53	4995
2026-01-10 11:28:03.55	283.96	24.00	-40.7	-43.5	14.6	0.00e+00	0	56	0	675282944	53	4870
2026-01-10 11:28:04.56	284.23	23.96	-40.5	-43.3	14.9	0.00e+00	0	56	0	677380096	53	4723
2026-01-10 11:28:05.57	284.51	23.93	-40.4	-43.1	15.1	0.00e+00	0	56	0	679477248	52	4880
2026-01-10 11:28:06.58	284.79	23.89	-40.4	-43.0	15.2	0.00e+00	0	56	0	681574400	52	4850
2026-01-10 11:28:07.59	285.07	23.85	-40.4	-43.0	15.2	0.00e+00	0	56	0	682622976	52	4848
2026-01-10 11:28:08.60	285.34	23.81	-40.4	-43.1	15.1	0.00e+00	0	56	0	684720128	52	4887
2026-01-10 11:28:09.61	285.62	23.77	-40.4	-43.1	15.1	0.00e+00	0	56	0	686817280	52	4880
2026-01-10 11:28:10.62	285.89	23.73	-40.4	-43.1	15.0	0.00e+00	0	56	0	688914432	52	4915
2026-01-10 11:28:11.63	286.17	23.69	-40.4	-43.1	15.0	0.00e+00	0	56	0	691011584	52	4916
2026-01-10 11:28:12.64	286.44	23.64	-40.5	-43.2	15.0	0.00e+00	0	56	0	692060160	52	4947
2026-01-10 11:28:13.65	286.71	23.60	-40.5	-43.2	14.9	0.00e+00	0	56	0	694157312	52	4978
2026-01-10 11:28:14.66	286.98	23.56	-40.4	-43.1	15.1	0.00e+00	0	56	0	696254464	52	4896
2026-01-10 11:28:15.67	287.25	23.51	-40.4	-43.0	15.1	0.00e+00	0	57	0	698351616	52	4868
2026-01-10 11:28:16.68	287.52	23.47	-40.3	-43.0	15.2	0.00e+00	0	57	0	700448768	52	4837
2026-01-10 11:28:17.69	287.79	23.42	-40.4	-43.0	15.2	0.00e+00	0	57	0	701497344	52	4852
2026-01-10 11:28:18.70	288.06	23.38	-40.2	-42.8	15.4	0.00e+00	0	56	0	703594496	52	4717
2026-01-10 11:28:19.71	288.33	23.33	-40.2	-42.8	15.4	0.00e+00	0	57	0	705691648	52	4706
2026-01-10 11:28:20.72	288.60	23.29	-40.1	-42.6	15.6	0.00e+00	0	56	0	707788800	52	4632
2026-01-10 11:28:21.73	288.86	23.24	-40.0	-42.5	15.6	0.00e+00	0	57	0	709885952	52	4598
2026-01-10 11:28:22.73	289.13	23.19	-40.0	-42.5	15.6	0.00e+00	0	56	0	710934528	52	4584
2026-01-10 11:28:23.74	289.39	23.14	-40.0	-42.5	15.7	0.00e+00	0	56	0	713031680	51	4841
2026-01-10 11:28:24.75	289.65	23.09	-40.0	-42.4	15.8	0.00e+00	0	57	0	715128832	51	4790
2026-01-10 11:28:25.77	289.92	23.04	-39.8	-42.2	16.1	0.00e+00	0	56	0	717225984	51	4663
2026-01-10 11:28:26.77	290.18	22.99	-39.7	-42.0	16.2	0.00e+00	0	56	0	719323136	51	4561
2026-01-10 11:28:27.78	290.44	22.94	-39.5	-41.7	16.5	0.00e+00	0	56	0	720371712	51	4415
2026-01-10 11:28:28.79	290.70	22.89	-39.5	-41.7	16.5	0.00e+00	0	56	0	722468864	50	4670
2026-01-10 11:28:29.81	290.96	22.84	-39.5	-41.7	16.5	0.00e+00	0	56	0	724566016	50	4692
2026-01-10 11:28:30.81	291.22	22.79	-39.6	-41.9	16.4	0.00e+00	0	56	0	726663168	50	4763
2026-01-10 11:28:31.82	291.48	22.74	-39.6	-41.8	16.4	0.00e+00	0	56	0	728760320	50	4758
2026-01-10 11:28:32.83	291.74	22.68	-39.6	-41.8	16.4	0.00e+00	0	57	0	729808896	50	4752
2026-01-10 11:28:33.84	291.99	22.63	-39.6	-41.8	16.5	0.00e+00	0	56	0	731906048	50	4722
2026-01-10 11:28:34.85	292.25	22.58	-39.5	-41.7	16.6	0.00e+00	0	56	0	734003200	50	4673
2026-01-10 11:28:35.86	292.50	22.52	-39.5	-41.7	16.5	0.00e+00	0	56	0	736100352	50	4680
2026-01-10 11:28:36.87	292.76	22.47	-39.5	-41.8	16.5	0.00e+00	0	56	0	738197504	50	4714
2026-01-10 11:28:37.88	293.01	22.41	-39.7	-42.0	16.3	0.00e+00	0	57	0	740294656	50	4815
2026-01-10 11:28:38.89	293.26	22.36	-39.8	-42.2	16.1	0.00e+00	0	56	0	741343232	50	4938
2026-01-10 11:28:39.90	293.51	22.30	-40.0	-42.5	15.7	0.00e+00	0	56	0	743440384	50	5124
2026-01-10 11:28:40.91	293.76	22.24	-40.2	-42.7	15.5	0.00e+00	0	56	0	745537536	50	5274
2026-01-10 11:28:41.92	294.01	22.19	-40.2	-42.8	15.4	0.00e+00	0	56	0	747634688	51	5017
2026-01-10 11:28:42.93	294.26	22.13	-40.2	-42.7	15.5	0.00e+00	0	57	0	749731840	51	4975
2026-01-10 11:28:43.94	294.51	22.07	-40.1	-42.6	15.6	0.00e+00	0	56	0	750780416	51	4910
2026-01-10 11:28:44.95	294.75	22.01	-40.0	-42.4	15.8	0.00e+00	0	56	0	752877568	51	4805
2026-01-10 11:28:45.96	295.00	21.96	-39.9	-42.3	15.9	0.00e+00	0	57	0	754974720	51	4743
2026-01-10 11:28:46.97	295.24	21.90	-39.8	-42.2	16.0	0.00e+00	0	56	0	757071872	51	4676
2026-01-10 11:28:47.98	295.49	21.84	-39.8	-42.2	16.0	0.00e+00	0	56	0	759169024	51	4681
2026-01-10 11:28:48.99	295.73	21.78	-39.9	-42.2	16.0	0.00e+00	0	57	0	760217600	51	4694
2026-01-10 11:28:50.00	295.97	21.72	-39.9	-42.3	15.9	0.00e+00	0	56	0	762314752	51	4711
2026-01-10 11:28:51.01	296.21	21.66	-39.9	-42.3	15.9	0.00e+00	0	56	0	764411904	51	4714
2026-01-10 11:28:52.02	296.45	21.60	-39.9	-42.3	15.9	0.00e+00	0	57	0	766509056	51	4729
2026-01-10 11:28:53.03	296.69	21.54	-40.1	-42.6	15.7	0.00e+00	0	56	0	768606208	51	4873
2026-01-10 11:28:54.04	296.93	21.47	-40.3	-42.9	15.3	0.00e+00	0	57	0	769654784	51	5043
2026-01-10 11:28:55.05	297.17	21.41	-40.5	-43.3	15.0	0.00e+00	0	56	0	771751936	51	5280
2026-01-10 11:28:56.05	297.40	21.35	-40.7	-43.6	14.6	7.00e-07	0	56	0	773849088	51	5474
2026-01-10 11:28:57.06	297.64	21.29	-40.9	-43.9	14.2	0.00e+00	0	56	0	775946240	52	5356
2026-01-10 11:28:58.08	297.87	21.23	-41.0	-44.0	14.0	7.00e-07	0	56	0	778043392	52	5460
2026-01-10 11:28:59.09	298.11	21.16	-41.0	-44.2	13.9	5.30e-06	0	57	0	779091968	52	5530
2026-01-10 11:29:00.10	298.34	21.10	-41.1	-44.2	13.9	1.50e-06	0	57	0	781189120	52	5582
2026-01-10 11:29:01.11	298.57	21.04	-41.1	-44.3	13.7	3.80e-06	0	56	0	783286272	52	5648
2026-01-10 11:29:02.12	298.80	20.97	-41.1	-44.2	13.9	1.50e-06	0	56	0	785383424	52	5549
2026-01-10 11:29:03.13	299.03	20.91	-41.0	-44.1	14.0	3.00e-06	0	56	0	787480576	52	5505
2026-01-10 11:29:04.14	299.26	20.84	-40.9	-43.9	14.1	3.00e-06	0	57	0	788529152	52	5387
2026-01-10 11:29:05.15	299.49	20.78	-40.7	-43.7	14.4	7.00e-07	0	56	0	790626304	52	5230
2026-01-10 11:29:06.16	299.71	20.71	-40.6	-43.4	14.6	0.00e+00	0	56	0	792723456	52	5099
2026-01-10 11:29:07.17	299.94	20.65	-40.4	-43.2	14.9	7.00e-07	0	57	0	794820608	52	4929
2026-01-10 11:29:08.18	300.16	20.58	-40.3	-43.0	15.1	0.00e+00	0	57	0	796917760	52	4834
2026-01-10 11:29:09.19	300.39	20.52	-40.3	-42.9	15.2	0.00e+00	0	57	0	797966336	52	4793
2026-01-10 11:29:10.20	300.61	20.45	-40.3	-43.0	15.1	0.00e+00	0	57	0	800063488	52	4852
2026-01-10 11:29:11.21	300.83	20.38	-40.4	-43.2	14.9	0.00e+00	0	56	0	802160640	52	4937
2026-01-10 11:29:12.21	301.05	20.32	-40.5	-43.3	14.8	0.00e+00	0	57	0	804257792	52	5010
2026-01-10 11:29:13.22	301.27	20.25	-40.6	-43.5	14.6	7.00e-07	0	57	0	806354944	52	5114
2026-01-10 11:29:14.23	301.49	20.18	-40.7	-43.6	14.4	1.50e-06	0	57	0	808452096	52	5213
2026-01-10 11:29:15.24	301.71	20.11	-40.7	-43.7	14.4	7.00e-07	0	56	0	809500672	52	5238
2026-01-10 11:29:16.25	301.93	20.05	-40.8	-43.7	14.4	7.00e-07	0	57	0	811597824	52	5261
2026-01-10 11:29:17.26	302.14	19.98	-40.8	-43.8	14.2	1.50e-06	0	56	0	813694976	52	5319
2026-01-10 11:29:18.27	302.36	19.91	-40.9	-43.9	14.1	1.50e-06	0	57	0	815792128	52	5400
2026-01-10 11:29:19.28	302.57	19.84	-41.0	-44.1	13.9	3.00e-06	0	57	0	817889280	52	5501
2026-01-10 11:29:20.29	302.79	19.77	-41.0	-44.1	13.9	5.30e-06	0	57	0	818937856	52	5503
2026-01-10 11:29:21.30	303.00	19.71	-41.0	-44.1	14.0	3.80e-06	0	57	0	821035008	52	5480
2026-01-10 11:29:22.31	303.21	19.64	-40.8	-43.8	14.2	3.00e-06	0	57	0	823132160	52	5335
2026-01-10 11:29:23.32	303.42	19.57	-40.6	-43.5	14.5	0.00e+00	0	57	0	825229312	52	5139
2026-01-10 11:29:24.33	303.63	19.50	-40.5	-43.3	14.7	0.00e+00	0	56	0	827326464	52	4997
2026-01-10 11:29:25.33	303.84	19.43	-40.4	-43.2	14.9	0.00e+00	0	56	0	828375040	52	4928
2026-01-10 11:29:26.34	304.05	19.36	-40.4	-43.0	15.0	0.00e+00	0	56	0	830472192	52	4867
2026-01-10 11:29:27.35	304.26	19.29	-40.4	-43.1	15.0	0.00e+00	0	57	0	832569344	52	4896
2026-01-10 11:29:28.36	304.46	19.22	-40.5	-43.2	14.8	1.50e-06	0	56	0	834666496	52	4981
2026-01-10 11:29:29.37	304.67	19.15	-40.5	-43.4	14.7	0.00e+00	0	57	0	836763648	52	5046
2026-01-10 11:29:30.38	304.87	19.08	-40.7	-43.6	14.5	7.00e-07	0	56	0	837812224	52	5168
2026-01-10 11:29:31.39	305.08	19.01	-40.6	-43.5	14.5	0.00e+00	0	56	0	839909376	52	5139
2026-01-10 11:29:32.40	305.28	18.94	-40.6	-43.5	14.6	0.00e+00	0	56	0	842006528	52	5105
2026-01-10 11:29:33.41	305.48	18.87	-40.6	-43.4	14.7	0.00e+00	0	57	0	844103680	52	5058
2026-01-10 11:29:34.42	305.68	18.80	-40.5	-43.3	14.7	1.50e-06	0	56	0	846200832	52	5012
2026-01-10 11:29:35.43	305.88	18.73	-40.5	-43.3	14.8	0.00e+00	0	57	0	847249408	52	4988
2026-01-10 11:29:36.44	306.08	18.66	-40.5	-43.4	14.7	7.00e-07	0	57	0	849346560	52	5052
2026-01-10 11:29:37.45	306.28	18.59	-40.7	-43.5	14.5	0.00e+00	0	57	0	851443712	52	5149
2026-01-10 11:29:38.46	306.47	18.51	-40.7	-43.6	14.5	1.50e-06	0	57	0	853540864	52	5171
2026-01-10 11:29:39.47	306.67	18.44	-40.7	-43.6	14.4	7.00e-07	0	57	0	855638016	52	5173
2026-01-10 11:29:40.48	306.87	18.37	-40.7	-43.5	14.4	7.00e-07	0	57	0	856686592	52	5158
2026-01-10 11:29:41.49	307.06	18.30	-40.7	-43.6	14.5	7.00e-07	0	57	0	858783744	52	5175
2026-01-10 11:29:42.49	307.25	18.23	-40.8	-43.8	14.2	7.00e-07	0	57	0	860880896	52	5321
2026-01-10 11:29:43.50	307.44	18.16	-40.8	-43.9	14.1	0.00e+00	0	57	0	862978048	52	5352
2026-01-10 11:29:44.51	307.64	18.08	-41.0	-44.2	13.8	3.00e-06	0	57	0	865075200	52	5555
2026-01-10 11:29:45.52	307.83	18.01	-41.2	-44.5	13.5	6.10e-06	0	57	0	866123776	52	5761
2026-01-10 11:29:46.53	308.02	17.94	-41.2	-44.6	13.4	7.60e-06	0	57	0	868220928	53	5483
2026-01-10 11:29:47.54	308.21	17.87	-41.3	-44.6	13.3	1.29e-05	0	57	0	870318080	53	5501
2026-01-10 11:29:48.55	308.39	17.80	-41.2	-44.4	13.6	9.10e-06	0	56	0	872415232	53	5383
2026-01-10 11:29:49.56	308.58	17.72	-40.9	-44.0	13.9	8.30e-06	0	57	0	874512384	53	5141
2026-01-10 11:29:50.57	308.77	17.65	-40.8	-43.8	14.2	1.50e-06	0	57	0	876609536	53	5022
2026-01-10 11:29:51.58	308.95	17.58	-40.6	-43.4	14.6	7.00e-07	0	57	0	877658112	53	4794
2026-01-10 11:29:52.59	309.14	17.51	-40.5	-43.3	14.7	0.00e+00	0	57	0	879755264	53	4709
2026-01-10 11:29:53.60	309.32	17.43	-40.6	-43.4	14.6	0.00e+00	0	57	0	881852416	52	5060
2026-01-10 11:29:54.61	309.50	17.36	-40.8	-43.8	14.2	0.00e+00	0	57	0	883949568	52	5313
2026-01-10 11:29:55.62	309.69	17.29	-41.0	-44.2	13.8	2.20e-06	0	57	0	884998144	52	5539
2026-01-10 11:29:56.63	309.87	17.22	-41.2	-44.5	13.4	7.00e-07	0	57	0	887095296	53	5457
2026-01-10 11:29:57.63	310.05	17.14	-41.3	-44.7	13.2	2.36e-05	0	57	0	889192448	53	5577
2026-01-10 11:29:58.64	310.23	17.07	-41.3	-44.7	13.3	1.90e-05	0	57	0	891289600	53	5545
2026-01-10 11:29:59.65	310.40	17.00	-41.2	-44.5	13.5	2.13e-05	0	57	0	893386752	53	5422
2026-01-10 11:30:00.66	310.58	16.92	-41.1	-44.3	13.7	1.22e-05	0	57	0	894435328	53	5310
2026-01-10 11:30:01.67	310.76	16.85	-40.9	-44.0	13.9	6.10e-06	0	56	0	896532480	53	5136
2026-01-10 11:30:02.68	310.94	16.78	-40.8	-43.8	14.1	3.80e-06	0	56	0	898629632	53	5026
2026-01-10 11:30:03.69	311.11	16.70	-40.7	-43.7	14.3	4.50e-06	0	57	0	900726784	53	4946
2026-01-10 11:30:04.70	311.28	16.63	-40.8	-43.8	14.1	7.00e-07	0	57	0	902823936	53	5023
2026-01-10 11:30:05.71	311.46	16.56	-41.0	-44.1	13.8	1.50e-06	0	57	0	904921088	53	5206
2026-01-10 11:30:06.72	311.63	16.49	-41.1	-44.3	13.7	4.50e-06	0	57	0	905969664	53	5302
2026-01-10 11:30:07.73	311.80	16.41	-41.1	-44.4	13.5	1.29e-05	0	57	0	908066816	53	5388
2026-01-10 11:30:08.74	311.97	16.34	-41.0	-44.2	13.7	5.30e-06	0	57	0	910163968	53	5272
2026-01-10 11:30:09.75	312.15	16.27	-40.9	-44.0	13.9	3.80e-06	0	57	0	912261120	53	5149
2026-01-10 11:30:10.76	312.31	16.19	-40.8	-43.9	14.0	3.00e-06	0	57	0	914358272	53	5052
2026-01-10 11:30:11.77	312.48	16.12	-40.7	-43.7	14.3	7.00e-07	0	57	0	915406848	53	4937
2026-01-10 11:30:12.78	312.65	16.05	-40.7	-43.7	14.3	7.00e-07	0	57	0	917504000	53	4948
2026-01-10 11:30:13.79	312.82	15.97	-40.7	-43.6	14.3	1.50e-06	0	56	0	919601152	53	4925
2026-01-10 11:30:14.79	312.98	15.90	-40.8	-43.8	14.1	1.50e-06	0	57	0	921698304	53	5030
2026-01-10 11:30:15.80	313.15	15.83	-40.9	-44.1	13.8	2.20e-06	0	57	0	923795456	53	5194
2026-01-10 11:30:16.81	313.31	15.75	-41.1	-44.4	13.5	6.10e-06	0	57	0	924844032	53	5368
2026-01-10 11:30:17.82	313.48	15.68	-41.2	-44.6	13.3	1.44e-05	0	57	0	926941184	53	5472
2026-01-10 11:30:18.83	313.64	15.61	-41.2	-44.6	13.2	1.98e-05	0	57	0	929038336	53	5513
2026-01-10 11:30:19.84	313.80	15.53	-41.1	-44.4	13.5	1.52e-05	0	57	0	931135488	53	5355
2026-01-10 11:30:20.85	313.97	15.46	-41.0	-44.2	13.6	4.50e-06	0	57	0	933232640	53	5276
2026-01-10 11:30:21.86	314.13	15.39	-40.9	-44.1	13.8	6.10e-06	0	57	0	934281216	53	5191
2026-01-10 11:30:22.87	314.29	15.31	-40.9	-43.9	13.9	2.20e-06	0	57	0	936378368	53	5099
2026-01-10 11:30:23.87	314.44	15.24	-40.8	-43.9	14.0	0.00e+00	0	57	0	938475520	53	5050
2026-01-10 11:30:24.88	314.60	15.17	-40.8	-43.9	14.0	2.20e-06	0	57	0	940572672	53	5075
2026-01-10 11:30:25.89	314.76	15.09	-40.9	-44.1	13.8	4.50e-06	0	57	0	942669824	53	5163
2026-01-10 11:30:26.90	314.92	15.02	-41.0	-44.3	13.6	9.10e-06	0	57	0	943718400	53	5304
2026-01-10 11:30:27.91	315.07	14.95	-41.2	-44.6	13.3	1.83e-05	0	57	0	945815552	53	5493
2026-01-10 11:30:28.92	315.23	14.88	-41.3	-44.8	13.1	2.97e-05	0	57	0	947912704	53	5604
2026-01-10 11:30:29.93	315.38	14.80	-41.4	-44.9	13.0	4.04e-05	0	57	0	950009856	53	5682
2026-01-10 11:30:30.94	315.54	14.73	-41.3	-44.8	13.0	3.35e-05	0	57	0	952107008	53	5632
2026-01-10 11:30:31.95	315.69	14.66	-41.2	-44.6	13.2	2.59e-05	0	57	0	953155584	53	5501
2026-01-10 11:30:32.96	315.85	14.58	-41.1	-44.5	13.4	1.90e-05	0	57	0	955252736	53	5404
2026-01-10 11:30:33.97	316.00	14.51	-41.0	-44.2	13.6	8.30e-06	0	57	0	957349888	53	5247
2026-01-10 11:30:34.98	316.15	14.44	-40.8	-44.0	13.9	6.10e-06	0	57	0	959447040	53	5105
2026-01-10 11:30:35.99	316.30	14.36	-40.9	-44.0	13.8	2.20e-06	0	57	0	961544192	53	5137
2026-01-10 11:30:37.00	316.45	14.29	-40.9	-44.1	13.7	3.00e-06	0	57	0	962592768	53	5174
2026-01-10 11:30:38.01	316.60	14.22	-41.0	-44.3	13.6	6.10e-06	0	56	0	964689920	53	5281
2026-01-10 11:30:39.02	316.75	14.15	-41.1	-44.5	13.3	1.14e-05	0	57	0	966787072	53	5440
2026-01-10 11:30:40.03	316.89	14.07	-41.3	-44.7	13.1	3.05e-05	0	57	0	968884224	53	5588
2026-01-10 11:30:41.04	317.04	14.00	-41.4	-45.0	12.8	5.95e-05	0	57	0	970981376	53	5750
2026-01-10 11:30:42.05	317.19	13.93	-41.4	-45.0	12.8	6.86e-05	0	57	0	973078528	53	5750
2026-01-10 11:30:43.06	317.33	13.86	-41.4	-45.0	12.8	5.72e-05	0	57	0	974127104	53	5757
2026-01-10 11:30:44.07	317.48	13.78	-41.2	-44.7	13.1	3.28e-05	0	57	0	976224256	53	5538
2026-01-10 11:30:45.08	317.62	13.71	-41.1	-44.4	13.4	2.05e-05	0	57	0	978321408	53	5394
2026-01-10 11:30:46.09	317.77	13.64	-41.0	-44.3	13.5	1.37e-05	0	57	0	980418560	53	5318
2026-01-10 11:30:47.10	317.91	13.57	-40.9	-44.2	13.6	9.10e-06	0	57	0	982515712	53	5231
2026-01-10 11:30:48.11	318.05	13.49	-40.9	-44.0	13.7	3.80e-06	0	57	0	983564288	53	5159
2026-01-10 11:30:49.12	318.19	13.42	-40.9	-44.1	13.6	4.50e-06	0	57	0	985661440	53	5201
2026-01-10 11:30:50.13	318.33	13.35	-41.0	-44.3	13.5	8.30e-06	0	57	0	987758592	53	5289
2026-01-10 11:30:51.14	318.47	13.28	-41.1	-44.5	13.3	1.60e-05	0	57	0	989855744	53	5429
2026-01-10 11:30:52.15	318.61	13.21	-41.2	-44.7	13.1	2.21e-05	0	56	0	991952896	53	5543
2026-01-10 11:30:53.15	318.75	13.13	-41.3	-44.9	12.9	3.96e-05	0	57	0	993001472	53	5657
2026-01-10 11:30:54.16	318.89	13.06	-41.3	-44.9	12.8	5.34e-05	0	57	0	995098624	53	5697
2026-01-10 11:30:55.17	319.03	12.99	-41.3	-44.8	12.9	4.65e-05	0	57	0	997195776	53	5655
2026-01-10 11:30:56.18	319.16	12.92	-41.3	-44.8	12.9	5.03e-05	0	57	0	999292928	53	5620
2026-01-10 11:30:57.19	319.30	12.85	-41.2	-44.7	13.1	2.89e-05	0	57	0	1001390080	53	5530
2026-01-10 11:30:58.20	319.44	12.78	-41.2	-44.7	13.1	2.67e-05	0	57	0	1002438656	53	5547
2026-01-10 11:30:59.21	319.57	12.70	-41.2	-44.6	13.1	2.82e-05	0	57	0	1004535808	53	5508
2026-01-10 11:31:00.22	319.70	12.63	-41.0	-44.4	13.4	2.13e-05	0	57	0	1006632960	53	5344
2026-01-10 11:31:01.23	319.84	12.56	-41.1	-44.5	13.2	1.60e-05	0	57	0	1008730112	53	5435
2026-01-10 11:31:02.24	319.97	12.49	-41.1	-44.5	13.2	2.74e-05	0	56	0	1010827264	53	5436
2026-01-10 11:31:03.25	320.10	12.42	-41.2	-44.7	13.1	1.83e-05	0	56	0	1011875840	53	5530
2026-01-10 11:31:04.26	320.24	12.35	-41.4	-45.0	12.7	5.49e-05	0	57	0	1013972992	53	5765
2026-01-10 11:31:05.27	320.37	12.28	-41.4	-45.1	12.5	8.69e-05	0	57	0	1016070144	53	5834
2026-01-10 11:31:06.28	320.50	12.20	-41.5	-45.4	12.3	1.56e-04	0	57	0	1018167296	53	6020
2026-01-10 11:31:07.28	320.63	12.13	-41.5	-45.4	12.3	2.35e-04	0	57	0	1020264448	53	5999
2026-01-10 11:31:08.29	320.76	12.06	-41.5	-45.3	12.3	1.69e-04	0	57	0	1021313024	53	5992
2026-01-10 11:31:09.30	320.89	11.99	-41.5	-45.4	12.2	2.23e-04	0	57	0	1023410176	53	6041
2026-01-10 11:31:10.32	321.01	11.92	-41.5	-45.2	12.4	1.94e-04	0	57	0	1025507328	53	5921
2026-01-10 11:31:11.32	321.14	11.85	-41.4	-45.0	12.6	9.76e-05	0	57	0	1027604480	53	5775
2026-01-10 11:31:12.33	321.27	11.78	-41.3	-45.0	12.7	7.78e-05	0	56	0	1029701632	53	5740
2026-01-10 11:31:13.34	321.39	11.71	-41.2	-44.8	12.9	6.94e-05	0	57	0	1030750208	53	5614
2026-01-10 11:31:14.35	321.52	11.64	-41.2	-44.7	13.0	4.65e-05	0	57	0	1032847360	53	5559
2026-01-10 11:31:15.36	321.65	11.57	-41.2	-44.7	13.0	3.43e-05	0	57	0	1034944512	53	5533
2026-01-10 11:31:16.37	321.77	11.50	-41.1	-44.5	13.1	2.74e-05	0	57	0	1037041664	53	5453
2026-01-10 11:31:17.38	321.89	11.43	-41.1	-44.5	13.1	3.43e-05	0	57	0	1039138816	53	5440
2026-01-10 11:31:18.39	322.02	11.36	-41.1	-44.5	13.1	2.82e-05	0	56	0	1041235968	53	5449
2026-01-10 11:31:19.40	322.14	11.29	-41.1	-44.6	13.0	4.11e-05	0	57	0	1042284544	53	5487
2026-01-10 11:31:20.41	322.26	11.22	-41.2	-44.7	12.9	4.34e-05	0	57	0	1044381696	53	5570
2026-01-10 11:31:21.42	322.39	11.15	-41.2	-44.8	12.8	6.33e-05	0	57	0	1046478848	53	5597
2026-01-10 11:31:22.43	322.51	11.08	-41.3	-45.0	12.6	8.92e-05	0	57	0	1048576000	53	5759
2026-01-10 11:31:23.44	322.63	11.01	-41.3	-45.0	12.6	6.71e-05	0	57	0	1050673152	53	5735
2026-01-10 11:31:24.45	322.75	10.94	-41.3	-45.0	12.6	1.07e-04	0	57	0	1051721728	53	5762
2026-01-10 11:31:25.45	322.87	10.87	-41.4	-45.2	12.4	1.36e-04	0	57	0	1053818880	53	5857
2026-01-10 11:31:26.46	322.99	10.80	-41.4	-45.1	12.5	1.19e-04	0	57	0	1055916032	53	5832
2026-01-10 11:31:27.47	323.10	10.73	-41.3	-44.9	12.6	1.37e-04	0	57	0	1058013184	53	5712
2026-01-10 11:31:28.48	323.22	10.66	-41.4	-45.1	12.5	1.03e-04	0	57	0	1060110336	53	5815
2026-01-10 11:31:29.49	323.34	10.59	-41.4	-45.1	12.5	1.32e-04	0	57	0	1061158912	53	5826
2026-01-10 11:31:30.50	323.46	10.53	-41.5	-45.3	12.3	1.43e-04	0	57	0	1063256064	53	5950
2026-01-10 11:31:31.51	323.57	10.46	-41.5	-45.5	12.1	1.97e-04	0	57	0	1065353216	53	6087
2026-01-10 11:31:32.52	323.69	10.39	-41.6	-45.7	11.8	3.71e-04	0	57	0	1067450368	53	6250
2026-01-10 11:31:33.53	323.81	10.32	-41.7	-45.8	11.6	5.41e-04	0	57	0	1069547520	53	6344
2026-01-10 11:31:34.54	323.92	10.25	-41.7	-45.8	11.7	5.78e-04	0	57	0	1070596096	53	6276
2026-01-10 11:31:35.55	324.03	10.18	-41.7	-45.8	11.7	5.51e-04	0	57	0	1072693248	53	6286
2026-01-10 11:31:36.56	324.15	10.11	-41.8	-46.0	11.5	6.16e-04	0	57	0	1074790400	54	6071
2026-01-10 11:31:37.57	324.26	10.05	-41.7	-45.8	11.7	6.11e-04	0	57	0	1076887552	54	5958
2026-01-10 11:31:38.58	324.37	9.98	-41.6	-45.5	12.0	4.09e-04	0	57	0	1078984704	54	5787
2026-01-10 11:31:39.59	324.49	9.91	-41.6	-45.6	11.9	3.98e-04	0	57	0	1080033280	54	5832
2026-01-10 11:31:40.60	324.60	9.84	-41.5	-45.5	12.0	3.29e-04	0	57	0	1082130432	54	5740
2026-01-10 11:31:41.61	324.71	9.77	-41.5	-45.5	12.0	3.17e-04	0	57	0	1084227584	54	5763
2026-01-10 11:31:42.61	324.82	9.71	-41.5	-45.5	12.0	3.78e-04	0	57	0	1086324736	54	5740
2026-01-10 11:31:43.62	324.93	9.64	-41.5	-45.4	12.0	3.52e-04	0	57	0	1088421888	54	5710
2026-01-10 11:31:44.63	325.04	9.57	-41.6	-45.6	11.8	4.69e-04	0	57	0	1089470464	54	5836
2026-01-10 11:31:45.64	325.15	9.50	-41.6	-45.7	11.8	5.09e-04	0	57	0	1091567616	54	5861
2026-01-10 11:31:46.65	325.26	9.43	-41.5	-45.6	11.9	4.08e-04	0	57	0	1093664768	54	5809
2026-01-10 11:31:47.66	325.37	9.37	-41.6	-45.7	11.7	4.81e-04	0	57	0	1095761920	54	5857
2026-01-10 11:31:48.67	325.48	9.30	-41.6	-45.6	11.8	5.93e-04	0	57	0	1097859072	54	5852
2026-01-10 11:31:49.68	325.58	9.23	-41.6	-45.7	11.7	5.35e-04	0	57	0	1098907648	54	5911
2026-01-10 11:31:50.69	325.69	9.17	-41.7	-45.9	11.5	6.74e-04	0	57	0	1101004800	54	6002
2026-01-10 11:31:51.70	325.80	9.10	-41.7	-45.9	11.4	7.62e-04	0	57	0	1103101952	54	6057
2026-01-10 11:31:52.71	325.90	9.03	-41.8	-46.2	11.2	1.06e-03	0	57	0	1105199104	54	6219
2026-01-10 11:31:53.72	326.01	8.97	-41.8	-46.3	11.1	1.77e-03	0	57	0	1107296256	54	6295
2026-01-10 11:31:54.73	326.11	8.90	-41.9	-46.3	11.0	1.83e-03	0	57	0	1109393408	54	6345
2026-01-10 11:31:55.74	326.22	8.83	-41.9	-46.5	10.8	2.47e-03	0	57	0	1110441984	54	6471
2026-01-10 11:31:56.75	326.32	8.77	-41.9	-46.5	10.9	2.62e-03	0	57	0	1112539136	54	6423
2026-01-10 11:31:57.76	326.43	8.70	-41.9	-46.6	10.7	2.86e-03	0	57	0	1114636288	54	6529
2026-01-10 11:31:58.77	326.53	8.63	-42.0	-46.7	10.5	4.19e-03	0	57	0	1116733440	54	6638
2026-01-10 11:31:59.78	326.63	8.57	-41.8	-46.3	10.9	2.76e-03	0	57	0	1118830592	54	6339
2026-01-10 11:32:00.79	326.73	8.50	-41.9	-46.6	10.6	2.25e-03	0	57	0	1119879168	54	6548
2026-01-10 11:32:01.80	326.84	8.43	-41.9	-46.7	10.6	4.11e-03	0	57	0	1121976320	54	6578
2026-01-10 11:32:02.81	326.94	8.37	-41.9	-46.6	10.6	3.16e-03	0	57	0	1124073472	54	6552
2026-01-10 11:32:03.82	327.04	8.30	-42.0	-46.9	10.3	4.81e-03	0	57	0	1126170624	54	6780
2026-01-10 11:32:04.83	327.14	8.24	-42.0	-46.8	10.4	4.95e-03	0	57	0	1128267776	54	6714
2026-01-10 11:32:05.84	327.24	8.17	-42.1	-47.0	10.2	5.59e-03	0	57	0	1129316352	54	6861
2026-01-10 11:32:06.84	327.34	8.11	-42.0	-47.0	10.2	6.52e-03	0	56	0	1131413504	54	6843
2026-01-10 11:32:07.85	327.44	8.04	-42.0	-46.9	10.3	5.24e-03	0	57	0	1133510656	54	6724
2026-01-10 11:32:08.86	327.54	7.98	-43.9	-54.6	4.1	2.17e-01	0	57	104	1134559232	58	13061
2026-01-10 11:32:09.88	327.64	7.91	-44.6	-59.0	3.8	1.49e+00	0	57	104	1134559232	59	20514
2026-01-10 11:32:10.89	327.74	7.84	-44.7	-59.4	3.8	1.49e+00	0	57	104	1134559232	60	20102
2026-01-10 11:32:11.90	327.83	7.78	-44.8	-59.5	3.8	1.49e+00	0	57	104	1134559232	60	20537
2026-01-10 11:32:12.91	327.93	7.71	-45.0	-59.7	3.8	1.49e+00	0	57	104	1134559232	60	20900
2026-01-10 11:32:13.92	328.03	7.65	-45.1	-59.8	3.8	1.49e+00	0	57	104	1134559232	60	21185
2026-01-10 11:32:14.93	328.12	7.58	-45.1	-59.9	3.8	1.49e+00	0	56	104	1134559232	60	21313
2026-01-10 11:32:15.94	328.22	7.52	-45.2	-59.9	3.8	1.49e+00	0	57	104	1134559232	60	21425
2026-01-10 11:32:16.95	328.32	7.46	-44.8	-59.8	3.8	1.49e+00	0	57	104	1134559232	60	21235
2026-01-10 11:32:17.96	328.41	7.39	-45.1	-59.9	3.8	1.49e+00	0	57	104	1134559232	60	21478
