passes_logs/2026/01/10/R2.0S_Moscow/R2.0S_Moscow__20260110_102923_NOAA_21_JPSS-2_rec.log

#Pass ID: 20260110_102923_NOAA 21 (JPSS-2)
#Satellite: NOAA 21 (JPSS-2)
#Configuration: NOAA-21
#almurnet v.1.7.20251203
#Start time: 2026-01-10 10:36:55

#Version: 2.2.20231116
#Station: R2.0S_Moscow
#Location: 37.707566 lon 55.798166 lat
#TLE: 1 54234U 22150A   26009.23291724  .00000115  00000+0  75298-4 0  9996
#TLE: 2 54234  98.7494 310.2026 0000856 324.9272  35.1848 14.19533567163994

#Time	Az	El	Level	Level2	SNR	BER	BlckErr	Temp	State	Recorded	gain1	gain2
2026-01-10 10:36:55.32	277.16	52.88	-45.9	-64.9	3.8	7.47e-01	0	57	0	0	62	33717
2026-01-10 10:36:56.33	277.83	52.77	-39.4	-55.3	3.8	1.49e+00	0	57	104	0	48	25004
2026-01-10 10:36:57.34	278.50	52.66	-45.2	-57.7	3.8	1.49e+00	0	57	104	0	60	16584
2026-01-10 10:36:58.35	279.16	52.54	-45.1	-57.6	3.8	1.49e+00	0	57	104	0	60	16480
2026-01-10 10:36:59.36	279.82	52.41	-45.1	-57.6	3.8	1.49e+00	0	57	104	0	60	16438
2026-01-10 10:37:00.37	280.47	52.28	-45.1	-57.6	3.8	1.49e+00	0	57	104	0	60	16462
2026-01-10 10:37:01.38	281.12	52.15	-45.1	-57.6	3.8	1.49e+00	0	57	104	0	60	16446
2026-01-10 10:37:02.39	281.76	52.02	-45.1	-57.6	3.8	1.49e+00	0	57	104	0	60	16434
2026-01-10 10:37:03.40	282.39	51.88	-45.1	-57.7	3.8	1.49e+00	0	57	104	0	60	16516
2026-01-10 10:37:04.41	283.02	51.74	-45.1	-57.6	3.8	1.49e+00	0	57	104	0	60	16503
2026-01-10 10:37:05.42	283.64	51.60	-45.1	-57.6	3.8	1.49e+00	0	57	104	0	60	16459
2026-01-10 10:37:06.43	284.26	51.45	-45.1	-57.7	3.8	1.49e+00	0	57	104	0	60	16516
2026-01-10 10:37:07.44	284.87	51.31	-45.1	-57.6	3.8	1.49e+00	0	57	104	0	60	16460
2026-01-10 10:37:08.45	285.48	51.15	-45.1	-57.6	3.8	1.49e+00	0	57	104	0	60	16491
2026-01-10 10:37:09.46	286.07	51.00	-45.1	-57.6	3.8	1.49e+00	0	57	104	0	60	16493
2026-01-10 10:37:10.47	286.67	50.84	-45.1	-57.6	3.8	1.49e+00	0	57	104	0	60	16483
2026-01-10 10:37:11.48	287.25	50.68	-45.1	-57.6	3.8	1.49e+00	0	57	104	0	60	16451
2026-01-10 10:37:12.50	287.84	50.52	-45.1	-57.6	3.8	1.49e+00	0	57	104	0	60	16418
2026-01-10 10:37:13.51	288.41	50.35	-45.1	-57.6	3.8	1.49e+00	0	57	104	0	60	16442
2026-01-10 10:37:14.52	288.98	50.19	-45.1	-57.6	3.8	1.49e+00	0	57	104	0	60	16493
2026-01-10 10:37:15.53	289.54	50.02	-45.1	-57.6	3.8	1.49e+00	0	57	104	0	60	16443
2026-01-10 10:37:16.54	290.10	49.84	-45.1	-57.6	3.8	1.49e+00	0	57	104	0	60	16436
2026-01-10 10:37:17.55	290.65	49.67	-45.1	-57.6	3.8	1.49e+00	0	57	104	0	60	16418
2026-01-10 10:37:18.56	291.19	49.49	-45.1	-57.6	3.8	1.49e+00	0	57	104	0	60	16464
2026-01-10 10:37:19.57	291.72	49.32	-45.1	-57.6	3.8	1.49e+00	0	57	104	0	60	16423
2026-01-10 10:37:20.58	292.25	49.14	-45.1	-57.6	3.8	1.49e+00	0	57	104	0	60	16383
2026-01-10 10:37:21.59	292.78	48.96	-45.1	-57.6	3.8	1.49e+00	0	57	104	0	60	16360
2026-01-10 10:37:22.61	293.30	48.77	-45.1	-57.6	3.8	1.49e+00	0	57	104	0	60	16429
2026-01-10 10:37:23.62	293.81	48.59	-45.1	-57.6	3.8	1.49e+00	0	57	104	0	60	16426
2026-01-10 10:37:24.63	294.32	48.40	-45.1	-57.6	3.8	1.49e+00	0	57	104	0	60	16481
2026-01-10 10:37:25.63	294.81	48.21	-45.1	-57.6	3.8	1.49e+00	0	57	104	0	60	16445
2026-01-10 10:37:26.64	295.31	48.02	-45.1	-57.6	3.8	1.49e+00	0	57	104	0	60	16416
2026-01-10 10:37:27.65	295.80	47.83	-45.1	-57.6	3.8	1.49e+00	0	57	104	0	60	16430
2026-01-10 10:37:28.66	296.28	47.64	-45.1	-57.6	3.8	1.49e+00	0	57	104	0	60	16414
2026-01-10 10:37:29.67	296.75	47.45	-45.1	-57.6	3.8	1.49e+00	0	57	104	0	60	16449
2026-01-10 10:37:30.68	297.22	47.25	-45.1	-57.6	3.8	1.49e+00	0	57	104	0	60	16404
2026-01-10 10:37:31.69	297.69	47.06	-45.1	-57.6	3.8	1.49e+00	0	57	104	0	60	16359
2026-01-10 10:37:32.71	298.15	46.86	-45.1	-57.6	3.8	1.49e+00	0	57	104	0	60	16439
2026-01-10 10:37:33.72	298.60	46.66	-45.1	-57.6	3.8	1.49e+00	0	57	104	0	60	16427
2026-01-10 10:37:34.73	299.05	46.46	-45.1	-57.6	3.8	1.49e+00	0	57	104	0	60	16444
2026-01-10 10:37:35.74	299.49	46.26	-45.1	-57.6	3.8	1.49e+00	0	57	104	0	60	16352
2026-01-10 10:37:36.75	299.93	46.06	-45.1	-57.5	3.8	1.49e+00	0	57	104	0	60	16169
2026-01-10 10:37:37.76	300.36	45.86	-45.0	-57.2	3.8	1.49e+00	0	57	104	0	60	15680
2026-01-10 10:37:38.77	300.78	45.66	-45.0	-56.4	3.8	1.49e+00	0	57	104	0	60	14333
2026-01-10 10:37:39.78	301.20	45.46	-44.8	-55.3	3.9	1.49e+00	0	57	104	0	60	12649
2026-01-10 10:37:40.79	301.62	45.26	-44.7	-54.0	4.2	1.46e+00	0	57	104	0	60	10795
2026-01-10 10:37:41.81	302.03	45.05	-44.6	-53.2	4.4	1.40e+00	0	57	104	0	60	9942
2026-01-10 10:37:42.82	302.43	44.85	-44.4	-52.3	4.9	7.97e-01	0	57	0	0	60	8877
2026-01-10 10:37:43.83	302.83	44.64	-44.0	-50.5	6.0	4.80e-01	0	57	0	3145728	60	7268
2026-01-10 10:37:44.84	303.23	44.44	-43.3	-48.1	8.0	1.16e-01	0	57	0	6291456	58	6183
2026-01-10 10:37:45.85	303.62	44.23	-42.3	-45.9	10.3	1.03e-02	0	57	0	9437184	56	5371
2026-01-10 10:37:46.86	304.00	44.03	-41.5	-44.4	11.7	8.54e-04	0	57	0	12582912	54	5090
2026-01-10 10:37:47.87	304.38	43.82	-41.0	-43.8	12.4	1.52e-04	0	57	0	15728640	54	4714
2026-01-10 10:37:48.88	304.75	43.61	-41.3	-44.2	11.9	2.01e-04	0	57	0	18874368	53	5227
2026-01-10 10:37:49.89	305.12	43.41	-42.2	-45.8	10.4	2.74e-04	0	57	0	22020096	54	5930
2026-01-10 10:37:50.90	305.49	43.20	-44.0	-50.0	6.3	2.25e-02	0	57	0	25165824	58	7672
2026-01-10 10:37:51.91	305.85	43.00	-43.6	-48.7	7.7	5.86e-04	0	57	0	28311552	57	6971
2026-01-10 10:37:52.92	306.20	42.79	-41.2	-44.0	12.2	2.36e-05	0	57	0	31457280	52	5424
2026-01-10 10:37:53.93	306.55	42.58	-44.6	-52.9	4.7	3.34e-02	0	57	0	34603008	59	10134
2026-01-10 10:37:54.94	306.90	42.38	-40.9	-43.6	12.5	9.60e-04	0	57	0	35651584	53	4887
2026-01-10 10:37:55.95	307.24	42.17	-40.3	-42.7	13.6	4.50e-06	0	57	0	38797312	51	4943
2026-01-10 10:37:56.97	307.58	41.96	-40.6	-43.1	13.2	2.74e-05	0	57	0	41943040	51	5172
2026-01-10 10:37:57.98	307.92	41.75	-40.6	-43.0	13.3	2.74e-05	0	57	0	45088768	51	5126
2026-01-10 10:37:58.99	308.25	41.55	-40.4	-42.8	13.5	1.29e-05	0	57	0	48234496	51	5002
2026-01-10 10:38:00.00	308.57	41.34	-40.4	-42.8	13.4	1.22e-05	0	57	0	51380224	51	5019
2026-01-10 10:38:01.01	308.89	41.13	-40.4	-42.8	13.5	1.14e-05	0	57	0	54525952	51	5023
2026-01-10 10:38:02.01	309.21	40.93	-40.4	-42.7	13.5	1.06e-05	0	57	0	57671680	51	4966
2026-01-10 10:38:03.02	309.52	40.73	-40.4	-42.8	13.4	6.80e-06	0	57	0	60817408	51	5032
2026-01-10 10:38:04.03	309.83	40.52	-40.5	-42.9	13.3	1.67e-05	0	57	0	63963136	51	5097
2026-01-10 10:38:05.04	310.14	40.32	-40.6	-43.0	13.2	1.52e-05	0	57	0	67108864	51	5145
2026-01-10 10:38:06.05	310.44	40.11	-40.6	-43.1	13.1	3.12e-05	0	57	0	70254592	51	5167
2026-01-10 10:38:07.06	310.74	39.91	-40.5	-43.0	13.2	2.51e-05	0	57	0	73400320	51	5136
2026-01-10 10:38:08.07	311.03	39.70	-40.7	-43.2	13.0	2.82e-05	0	57	0	76546048	51	5252
2026-01-10 10:38:09.08	311.32	39.50	-40.6	-43.1	13.1	2.74e-05	0	57	0	79691776	51	5193
2026-01-10 10:38:10.09	311.61	39.30	-40.4	-42.8	13.4	1.29e-05	0	57	0	82837504	51	5035
2026-01-10 10:38:11.10	311.89	39.09	-40.3	-42.6	13.6	3.00e-06	0	57	0	85983232	51	4902
2026-01-10 10:38:12.11	312.17	38.89	-40.2	-42.6	13.7	6.80e-06	0	57	0	89128960	51	4872
2026-01-10 10:38:13.12	312.45	38.69	-40.3	-42.7	13.6	9.10e-06	0	57	0	92274688	51	4937
2026-01-10 10:38:14.14	312.73	38.48	-40.1	-42.3	13.9	4.50e-06	0	57	0	95420416	51	4748
2026-01-10 10:38:15.14	312.99	38.29	-39.8	-41.8	14.4	1.50e-06	0	57	0	98566144	51	4482
2026-01-10 10:38:16.15	313.26	38.09	-39.5	-41.5	14.7	7.00e-07	0	57	0	101711872	51	4316
2026-01-10 10:38:17.16	313.52	37.89	-39.2	-41.1	15.2	0.00e+00	0	57	0	104857600	50	4343
2026-01-10 10:38:18.18	313.79	37.68	-39.4	-41.4	14.8	0.00e+00	0	57	0	108003328	50	4528
2026-01-10 10:38:19.18	314.04	37.49	-39.7	-41.7	14.5	0.00e+00	0	57	0	111149056	50	4691
2026-01-10 10:38:20.19	314.30	37.29	-40.0	-42.1	14.1	7.00e-07	0	57	0	114294784	50	4921
2026-01-10 10:38:21.20	314.55	37.09	-39.9	-42.1	14.1	1.50e-06	0	57	0	117440512	50	4886
2026-01-10 10:38:22.21	314.80	36.89	-39.9	-42.1	14.1	2.20e-06	0	57	0	120586240	50	4883
2026-01-10 10:38:23.22	315.04	36.70	-39.7	-41.8	14.4	7.00e-07	0	57	0	123731968	50	4748
2026-01-10 10:38:24.23	315.28	36.50	-39.5	-41.5	14.7	0.00e+00	0	57	0	126877696	50	4576
2026-01-10 10:38:25.24	315.52	36.31	-39.5	-41.5	14.7	0.00e+00	0	57	0	130023424	50	4560
2026-01-10 10:38:26.25	315.76	36.11	-39.4	-41.4	14.8	0.00e+00	0	57	0	133169152	50	4533
2026-01-10 10:38:27.26	315.99	35.92	-39.5	-41.5	14.7	0.00e+00	0	57	0	136314880	50	4571
2026-01-10 10:38:28.26	316.22	35.73	-39.4	-41.5	14.8	0.00e+00	0	57	0	139460608	50	4558
2026-01-10 10:38:29.27	316.45	35.53	-39.5	-41.6	14.6	0.00e+00	0	57	0	142606336	50	4627
2026-01-10 10:38:30.28	316.68	35.34	-39.6	-41.7	14.5	1.50e-06	0	57	0	145752064	50	4676
2026-01-10 10:38:31.29	316.90	35.15	-39.7	-41.8	14.4	0.00e+00	0	57	0	148897792	50	4746
2026-01-10 10:38:32.31	317.12	34.96	-39.5	-41.6	14.6	0.00e+00	0	57	0	152043520	50	4615
2026-01-10 10:38:33.32	317.34	34.77	-39.4	-41.4	14.8	0.00e+00	0	57	0	155189248	50	4496
2026-01-10 10:38:34.33	317.56	34.58	-39.1	-41.1	15.1	0.00e+00	0	57	0	158334976	50	4356
2026-01-10 10:38:35.34	317.77	34.39	-39.0	-40.9	15.3	0.00e+00	0	57	0	161480704	50	4272
2026-01-10 10:38:36.35	317.98	34.20	-38.9	-40.8	15.4	0.00e+00	0	57	0	164626432	49	4465
2026-01-10 10:38:37.36	318.19	34.02	-39.0	-40.9	15.3	0.00e+00	0	57	0	167772160	49	4529
2026-01-10 10:38:38.37	318.40	33.83	-39.2	-41.1	15.0	0.00e+00	0	57	0	170917888	49	4644
2026-01-10 10:38:39.38	318.60	33.65	-39.2	-41.2	15.0	0.00e+00	0	57	0	174063616	49	4698
2026-01-10 10:38:40.39	318.80	33.46	-39.3	-41.2	14.9	0.00e+00	0	57	0	177209344	49	4699
2026-01-10 10:38:41.40	319.00	33.28	-39.0	-40.9	15.3	0.00e+00	0	57	0	180355072	49	4499
2026-01-10 10:38:42.41	319.20	33.09	-38.8	-40.6	15.6	0.00e+00	0	57	0	183500800	49	4353
2026-01-10 10:38:43.42	319.40	32.91	-38.7	-40.5	15.7	0.00e+00	0	57	0	186646528	49	4294
2026-01-10 10:38:44.42	319.59	32.73	-38.8	-40.6	15.6	0.00e+00	0	57	0	189792256	49	4358
2026-01-10 10:38:45.44	319.78	32.55	-38.7	-40.5	15.7	0.00e+00	0	57	0	192937984	49	4310
2026-01-10 10:38:46.45	319.97	32.37	-38.6	-40.4	15.7	0.00e+00	0	57	0	196083712	49	4274
2026-01-10 10:38:47.46	320.16	32.19	-38.6	-40.4	15.8	0.00e+00	0	57	0	199229440	49	4256
2026-01-10 10:38:48.47	320.34	32.01	-38.5	-40.3	15.8	0.00e+00	0	57	0	202375168	49	4225
2026-01-10 10:38:49.48	320.53	31.83	-38.5	-40.3	15.9	0.00e+00	0	57	0	205520896	49	4206
2026-01-10 10:38:50.49	320.71	31.65	-38.3	-40.0	16.1	0.00e+00	0	57	0	208666624	48	4320
2026-01-10 10:38:51.50	320.89	31.48	-38.0	-39.6	16.5	0.00e+00	0	57	0	211812352	48	4140
2026-01-10 10:38:52.51	321.06	31.30	-37.8	-39.4	16.6	0.00e+00	0	57	0	214958080	47	4243
2026-01-10 10:38:53.52	321.24	31.13	-37.8	-39.4	16.7	0.00e+00	0	57	0	218103808	47	4252
2026-01-10 10:38:54.53	321.41	30.95	-37.8	-39.4	16.6	0.00e+00	0	57	0	221249536	47	4270
2026-01-10 10:38:55.54	321.58	30.78	-37.9	-39.5	16.5	0.00e+00	0	57	0	224395264	47	4329
2026-01-10 10:38:56.55	321.75	30.61	-38.0	-39.6	16.4	0.00e+00	0	58	0	227540992	47	4369
2026-01-10 10:38:57.56	321.92	30.44	-38.1	-39.8	16.3	0.00e+00	0	57	0	230686720	47	4449
2026-01-10 10:38:58.57	322.09	30.26	-38.2	-39.9	16.1	0.00e+00	0	57	0	233832448	47	4524
2026-01-10 10:38:59.58	322.25	30.09	-38.3	-40.1	15.9	0.00e+00	0	57	0	236978176	47	4616
2026-01-10 10:39:00.59	322.42	29.92	-38.4	-40.1	15.9	0.00e+00	0	57	0	240123904	47	4638
2026-01-10 10:39:01.60	322.58	29.76	-38.5	-40.3	15.7	0.00e+00	0	57	0	243269632	47	4731
2026-01-10 10:39:02.61	322.74	29.59	-38.6	-40.4	15.6	0.00e+00	0	57	0	246415360	47	4811
2026-01-10 10:39:03.62	322.89	29.42	-38.6	-40.4	15.6	0.00e+00	0	57	0	249561088	47	4814
2026-01-10 10:39:04.64	323.05	29.25	-38.5	-40.3	15.7	0.00e+00	0	57	0	252706816	47	4732
2026-01-10 10:39:05.64	323.21	29.09	-38.4	-40.2	15.8	0.00e+00	0	57	0	255852544	47	4690
2026-01-10 10:39:06.65	323.36	28.92	-38.3	-40.0	16.0	0.00e+00	0	57	0	258998272	47	4586
2026-01-10 10:39:07.67	323.51	28.76	-38.1	-39.8	16.2	0.00e+00	0	57	0	262144000	47	4459
2026-01-10 10:39:08.68	323.66	28.59	-38.0	-39.7	16.3	0.00e+00	0	57	0	265289728	47	4393
2026-01-10 10:39:09.68	323.81	28.43	-38.0	-39.6	16.4	0.00e+00	0	57	0	268435456	47	4374
2026-01-10 10:39:10.69	323.96	28.27	-38.0	-39.7	16.3	0.00e+00	0	57	0	271581184	47	4418
2026-01-10 10:39:11.70	324.10	28.11	-38.1	-39.7	16.2	0.00e+00	0	57	0	274726912	47	4437
2026-01-10 10:39:12.71	324.25	27.95	-38.1	-39.9	16.1	0.00e+00	0	57	0	278921216	47	4496
2026-01-10 10:39:13.72	324.39	27.79	-38.2	-39.9	16.1	0.00e+00	0	57	0	282066944	47	4526
2026-01-10 10:39:14.73	324.53	27.63	-38.1	-39.8	16.2	0.00e+00	0	57	0	284164096	47	4476
2026-01-10 10:39:15.74	324.67	27.47	-38.0	-39.7	16.3	0.00e+00	0	57	0	287309824	47	4399
2026-01-10 10:39:16.75	324.81	27.32	-38.0	-39.6	16.3	0.00e+00	0	57	0	290455552	47	4387
2026-01-10 10:39:17.76	324.95	27.16	-37.9	-39.6	16.4	0.00e+00	0	57	0	293601280	47	4360
2026-01-10 10:39:18.77	325.09	27.00	-38.0	-39.6	16.3	0.00e+00	0	57	0	297795584	47	4381
2026-01-10 10:39:19.78	325.22	26.85	-38.0	-39.6	16.3	0.00e+00	0	57	0	300941312	47	4378
2026-01-10 10:39:20.79	325.36	26.69	-38.0	-39.7	16.3	0.00e+00	0	57	0	304087040	47	4426
2026-01-10 10:39:21.80	325.49	26.54	-38.0	-39.7	16.3	0.00e+00	0	57	0	306184192	47	4407
2026-01-10 10:39:22.81	325.62	26.39	-38.0	-39.6	16.3	0.00e+00	0	57	0	310378496	47	4388
2026-01-10 10:39:23.82	325.75	26.23	-38.0	-39.6	16.3	0.00e+00	0	57	0	313524224	47	4380
2026-01-10 10:39:24.83	325.88	26.08	-38.0	-39.7	16.3	0.00e+00	0	57	0	316669952	47	4416
2026-01-10 10:39:25.84	326.01	25.93	-38.0	-39.7	16.2	0.00e+00	0	57	0	319815680	47	4421
2026-01-10 10:39:26.85	326.14	25.78	-38.1	-39.8	16.2	0.00e+00	0	58	0	322961408	47	4448
2026-01-10 10:39:27.86	326.26	25.63	-38.1	-39.8	16.1	0.00e+00	0	57	0	326107136	47	4480
2026-01-10 10:39:28.87	326.39	25.48	-38.1	-39.8	16.2	0.00e+00	0	57	0	329252864	47	4464
2026-01-10 10:39:29.88	326.51	25.34	-38.0	-39.7	16.3	0.00e+00	0	57	0	332398592	47	4408
2026-01-10 10:39:30.89	326.63	25.19	-38.0	-39.7	16.3	0.00e+00	0	57	0	335544320	47	4405
2026-01-10 10:39:31.90	326.75	25.04	-38.0	-39.7	16.2	0.00e+00	0	57	0	338690048	47	4409
2026-01-10 10:39:32.91	326.87	24.90	-38.0	-39.6	16.3	0.00e+00	0	57	0	341835776	47	4381
2026-01-10 10:39:33.92	326.99	24.75	-37.9	-39.6	16.3	0.00e+00	0	58	0	344981504	47	4382
2026-01-10 10:39:34.93	327.11	24.61	-38.0	-39.7	16.2	0.00e+00	0	57	0	348127232	47	4406
2026-01-10 10:39:35.94	327.23	24.46	-38.0	-39.7	16.2	0.00e+00	0	57	0	351272960	47	4426
2026-01-10 10:39:36.95	327.34	24.32	-38.0	-39.7	16.2	0.00e+00	0	57	0	354418688	47	4440
2026-01-10 10:39:37.96	327.46	24.18	-38.1	-39.8	16.1	0.00e+00	0	57	0	357564416	47	4475
2026-01-10 10:39:38.97	327.57	24.03	-38.1	-39.8	16.1	0.00e+00	0	57	0	360710144	47	4480
2026-01-10 10:39:39.98	327.68	23.89	-38.1	-39.8	16.1	0.00e+00	0	57	0	363855872	47	4485
2026-01-10 10:39:40.99	327.80	23.75	-38.1	-39.8	16.1	0.00e+00	0	58	0	367001600	47	4466
2026-01-10 10:39:42.00	327.91	23.61	-38.1	-39.8	16.1	0.00e+00	0	57	0	370147328	47	4455
2026-01-10 10:39:43.01	328.02	23.47	-38.0	-39.8	16.1	0.00e+00	0	57	0	373293056	47	4451
2026-01-10 10:39:44.02	328.13	23.33	-38.0	-39.7	16.1	0.00e+00	0	57	0	376438784	47	4438
2026-01-10 10:39:45.03	328.23	23.20	-38.0	-39.7	16.2	0.00e+00	0	57	0	379584512	47	4418
2026-01-10 10:39:46.03	328.34	23.06	-38.0	-39.7	16.2	0.00e+00	0	57	0	382730240	47	4424
2026-01-10 10:39:47.04	328.45	22.92	-38.0	-39.7	16.2	0.00e+00	0	57	0	385875968	47	4410
2026-01-10 10:39:48.05	328.55	22.79	-38.0	-39.7	16.2	0.00e+00	0	57	0	389021696	47	4392
2026-01-10 10:39:49.06	328.66	22.65	-37.9	-39.6	16.2	0.00e+00	0	57	0	392167424	47	4385
2026-01-10 10:39:50.07	328.76	22.52	-38.0	-39.7	16.2	0.00e+00	0	57	0	395313152	47	4406
2026-01-10 10:39:51.08	328.86	22.38	-37.9	-39.6	16.2	0.00e+00	0	57	0	398458880	47	4375
2026-01-10 10:39:52.09	328.97	22.25	-37.9	-39.6	16.3	0.00e+00	0	58	0	401604608	47	4347
2026-01-10 10:39:53.10	329.07	22.12	-37.8	-39.5	16.4	0.00e+00	0	57	0	404750336	47	4311
2026-01-10 10:39:54.11	329.17	21.98	-37.9	-39.6	16.2	0.00e+00	0	57	0	407896064	47	4344
2026-01-10 10:39:55.12	329.27	21.85	-37.9	-39.6	16.2	0.00e+00	0	57	0	411041792	47	4388
2026-01-10 10:39:56.12	329.36	21.72	-38.0	-39.7	16.2	0.00e+00	0	57	0	414187520	47	4399
2026-01-10 10:39:57.13	329.46	21.59	-38.0	-39.7	16.1	0.00e+00	0	58	0	417333248	47	4441
2026-01-10 10:39:58.14	329.56	21.46	-38.1	-39.9	15.9	0.00e+00	0	57	0	420478976	47	4508
2026-01-10 10:39:59.15	329.66	21.33	-38.1	-39.9	16.0	0.00e+00	0	57	0	423624704	47	4494
2026-01-10 10:40:00.16	329.75	21.20	-38.1	-39.9	15.9	0.00e+00	0	57	0	426770432	47	4501
2026-01-10 10:40:01.17	329.85	21.07	-38.1	-39.8	16.0	0.00e+00	0	57	0	429916160	47	4484
2026-01-10 10:40:02.18	329.94	20.95	-38.2	-39.9	15.9	0.00e+00	0	57	0	433061888	47	4543
2026-01-10 10:40:03.19	330.03	20.82	-38.2	-40.0	15.8	0.00e+00	0	57	0	436207616	47	4551
2026-01-10 10:40:04.20	330.13	20.69	-38.2	-39.9	15.9	0.00e+00	0	57	0	439353344	47	4538
2026-01-10 10:40:05.21	330.22	20.57	-38.2	-40.0	15.8	0.00e+00	0	57	0	442499072	47	4579
2026-01-10 10:40:06.22	330.31	20.44	-38.2	-40.0	15.7	0.00e+00	0	57	0	445644800	47	4595
2026-01-10 10:40:07.22	330.40	20.32	-38.2	-40.0	15.7	0.00e+00	0	57	0	448790528	47	4590
2026-01-10 10:40:08.24	330.49	20.19	-38.3	-40.2	15.6	0.00e+00	0	57	0	451936256	47	4665
2026-01-10 10:40:09.25	330.58	20.07	-38.4	-40.3	15.4	0.00e+00	0	57	0	455081984	47	4737
2026-01-10 10:40:10.26	330.67	19.95	-38.5	-40.4	15.4	0.00e+00	0	57	0	458227712	47	4762
2026-01-10 10:40:11.27	330.76	19.82	-38.4	-40.3	15.5	0.00e+00	0	57	0	461373440	47	4715
2026-01-10 10:40:12.28	330.84	19.70	-38.4	-40.2	15.5	0.00e+00	0	57	0	464519168	47	4694
2026-01-10 10:40:13.29	330.93	19.58	-38.3	-40.2	15.6	0.00e+00	0	57	0	467664896	47	4664
2026-01-10 10:40:14.29	331.01	19.46	-38.2	-40.1	15.7	0.00e+00	0	57	0	470810624	47	4611
2026-01-10 10:40:15.30	331.10	19.34	-38.2	-40.1	15.7	0.00e+00	0	57	0	473956352	47	4603
2026-01-10 10:40:16.31	331.18	19.22	-38.2	-40.0	15.8	0.00e+00	0	57	0	477102080	47	4550
2026-01-10 10:40:17.32	331.27	19.10	-38.1	-39.9	15.8	0.00e+00	0	57	0	480247808	47	4512
2026-01-10 10:40:18.33	331.35	18.98	-38.1	-39.9	15.9	0.00e+00	0	57	0	483393536	47	4497
2026-01-10 10:40:19.35	331.43	18.86	-38.1	-39.9	15.8	0.00e+00	0	57	0	486539264	47	4499
2026-01-10 10:40:20.35	331.52	18.74	-38.0	-39.8	15.9	0.00e+00	0	57	0	489684992	47	4476
2026-01-10 10:40:21.36	331.60	18.63	-38.0	-39.7	15.9	0.00e+00	0	57	0	492830720	47	4441
2026-01-10 10:40:22.37	331.68	18.51	-38.0	-39.8	15.9	0.00e+00	0	57	0	495976448	47	4456
2026-01-10 10:40:23.38	331.76	18.39	-38.0	-39.8	15.9	0.00e+00	0	57	0	499122176	47	4468
2026-01-10 10:40:24.39	331.84	18.28	-38.1	-39.8	15.8	0.00e+00	0	57	0	502267904	47	4487
2026-01-10 10:40:25.40	331.92	18.16	-38.0	-39.8	15.9	0.00e+00	0	57	0	505413632	47	4465
2026-01-10 10:40:26.41	332.00	18.05	-38.0	-39.8	15.8	0.00e+00	0	57	0	508559360	47	4479
2026-01-10 10:40:27.42	332.07	17.93	-38.0	-39.7	16.0	0.00e+00	0	57	0	511705088	47	4424
2026-01-10 10:40:28.43	332.15	17.82	-37.9	-39.6	16.0	0.00e+00	0	57	0	514850816	47	4380
2026-01-10 10:40:29.44	332.23	17.71	-37.9	-39.7	15.9	0.00e+00	0	57	0	517996544	47	4409
2026-01-10 10:40:30.45	332.30	17.59	-37.9	-39.6	16.0	0.00e+00	0	57	0	521142272	47	4369
2026-01-10 10:40:31.45	332.38	17.48	-38.0	-39.7	15.9	0.00e+00	0	57	0	524288000	47	4419
2026-01-10 10:40:32.47	332.46	17.37	-37.9	-39.6	15.9	0.00e+00	0	57	0	527433728	47	4389
2026-01-10 10:40:33.48	332.53	17.26	-37.9	-39.7	15.9	0.00e+00	0	57	0	530579456	47	4412
2026-01-10 10:40:34.49	332.60	17.15	-37.9	-39.7	15.9	0.00e+00	0	57	0	533725184	47	4397
2026-01-10 10:40:35.49	332.68	17.04	-37.9	-39.7	15.9	0.00e+00	0	57	0	536870912	47	4405
2026-01-10 10:40:36.50	332.75	16.93	-37.9	-39.6	15.9	0.00e+00	0	57	0	540016640	47	4377
2026-01-10 10:40:37.51	332.82	16.82	-38.0	-39.7	15.8	0.00e+00	0	57	0	543162368	47	4421
2026-01-10 10:40:38.52	332.90	16.71	-38.0	-39.7	15.8	0.00e+00	0	57	0	546308096	47	4424
2026-01-10 10:40:39.54	332.97	16.60	-38.0	-39.8	15.7	0.00e+00	0	57	0	549453824	47	4483
2026-01-10 10:40:40.55	333.04	16.49	-38.1	-39.9	15.6	0.00e+00	0	57	0	552599552	47	4539
2026-01-10 10:40:41.56	333.11	16.38	-38.2	-40.0	15.5	0.00e+00	0	57	0	555745280	47	4588
2026-01-10 10:40:42.57	333.18	16.27	-38.2	-40.0	15.5	0.00e+00	0	57	0	558891008	47	4596
2026-01-10 10:40:43.58	333.25	16.17	-38.3	-40.1	15.4	0.00e+00	0	57	0	562036736	47	4637
2026-01-10 10:40:44.59	333.32	16.06	-38.4	-40.3	15.2	0.00e+00	0	57	0	565182464	47	4710
2026-01-10 10:40:45.60	333.39	15.95	-38.3	-40.3	15.2	0.00e+00	0	57	0	568328192	47	4712
2026-01-10 10:40:46.60	333.46	15.85	-38.4	-40.4	15.1	0.00e+00	0	57	0	571473920	47	4774
2026-01-10 10:40:47.61	333.52	15.74	-38.5	-40.5	15.0	0.00e+00	0	57	0	574619648	47	4845
2026-01-10 10:40:48.62	333.59	15.64	-38.6	-40.6	14.8	0.00e+00	0	57	0	577765376	47	4925
2026-01-10 10:40:49.63	333.66	15.53	-38.7	-40.8	14.7	7.00e-07	0	57	0	580911104	47	4999
2026-01-10 10:40:50.64	333.73	15.43	-38.8	-40.9	14.7	0.00e+00	0	57	0	584056832	48	4776
2026-01-10 10:40:51.65	333.79	15.33	-38.8	-40.8	14.7	7.00e-07	0	57	0	587202560	48	4754
2026-01-10 10:40:52.66	333.86	15.22	-38.7	-40.7	14.8	7.00e-07	0	57	0	590348288	48	4702
2026-01-10 10:40:53.67	333.92	15.12	-38.8	-40.9	14.6	0.00e+00	0	57	0	593494016	48	4775
2026-01-10 10:40:54.68	333.99	15.02	-38.9	-40.9	14.6	0.00e+00	0	57	0	596639744	48	4812
2026-01-10 10:40:55.69	334.05	14.92	-39.0	-41.1	14.4	1.50e-06	0	57	0	599785472	48	4905
2026-01-10 10:40:56.70	334.12	14.81	-38.9	-41.0	14.5	0.00e+00	0	57	0	602931200	48	4829
2026-01-10 10:40:57.71	334.18	14.71	-38.8	-40.9	14.6	7.00e-07	0	57	0	606076928	48	4792
2026-01-10 10:40:58.72	334.24	14.61	-38.9	-40.9	14.6	0.00e+00	0	57	0	609222656	48	4800
2026-01-10 10:40:59.73	334.31	14.51	-39.0	-41.1	14.4	7.00e-07	0	57	0	612368384	48	4886
2026-01-10 10:41:00.74	334.37	14.41	-38.8	-40.9	14.6	7.00e-07	0	57	0	615514112	48	4782
2026-01-10 10:41:01.75	334.43	14.31	-38.8	-41.0	14.5	1.50e-06	0	57	0	618659840	48	4832
2026-01-10 10:41:02.76	334.49	14.21	-38.8	-41.1	14.4	0.00e+00	0	57	0	621805568	48	4874
2026-01-10 10:41:03.77	334.56	14.11	-38.8	-41.2	14.2	7.00e-07	0	57	0	624951296	48	4960
2026-01-10 10:41:04.78	334.62	14.01	-38.9	-41.3	14.1	0.00e+00	0	57	0	628097024	48	5013
2026-01-10 10:41:05.79	334.68	13.92	-39.0	-41.3	14.1	2.20e-06	0	57	0	631242752	48	4996
2026-01-10 10:41:06.80	334.74	13.82	-38.9	-41.1	14.3	7.00e-07	0	57	0	634388480	48	4918
2026-01-10 10:41:07.81	334.80	13.72	-38.9	-41.0	14.3	1.50e-06	0	57	0	637534208	48	4864
2026-01-10 10:41:08.82	334.86	13.62	-38.9	-41.0	14.4	2.20e-06	0	57	0	641728512	48	4834
2026-01-10 10:41:09.83	334.92	13.53	-38.9	-41.0	14.4	1.50e-06	0	57	0	644874240	48	4864
2026-01-10 10:41:10.84	334.98	13.43	-38.8	-41.0	14.4	7.00e-07	0	57	0	646971392	48	4843
2026-01-10 10:41:11.85	335.03	13.34	-38.8	-40.9	14.4	2.20e-06	0	57	0	650117120	48	4814
2026-01-10 10:41:12.85	335.09	13.24	-38.8	-41.1	14.2	7.00e-07	0	57	0	653262848	48	4899
2026-01-10 10:41:13.87	335.15	13.14	-38.9	-41.2	14.1	4.50e-06	0	57	0	657457152	48	4962
2026-01-10 10:41:14.88	335.21	13.05	-38.9	-41.1	14.2	0.00e+00	0	57	0	660602880	48	4897
2026-01-10 10:41:15.89	335.26	12.95	-38.9	-41.2	14.2	2.20e-06	0	57	0	663748608	48	4929
2026-01-10 10:41:16.89	335.32	12.86	-39.0	-41.2	14.2	1.50e-06	0	57	0	666894336	48	4938
2026-01-10 10:41:17.90	335.38	12.77	-39.0	-41.2	14.1	3.80e-06	0	57	0	668991488	48	4976
2026-01-10 10:41:18.91	335.43	12.67	-39.0	-41.2	14.1	3.00e-06	0	57	0	672137216	48	4946
2026-01-10 10:41:19.92	335.49	12.58	-39.0	-41.2	14.1	4.50e-06	0	57	0	676331520	48	4974
2026-01-10 10:41:20.93	335.54	12.49	-39.1	-41.3	14.0	1.50e-06	0	57	0	679477248	48	5009
2026-01-10 10:41:21.94	335.60	12.40	-39.1	-41.4	13.9	1.50e-06	0	57	0	682622976	48	5048
2026-01-10 10:41:22.95	335.65	12.30	-39.2	-41.5	13.8	3.80e-06	0	57	0	685768704	48	5122
2026-01-10 10:41:23.96	335.71	12.21	-39.1	-41.3	14.0	3.80e-06	0	57	0	688914432	48	5036
2026-01-10 10:41:24.97	335.76	12.12	-39.1	-41.4	13.9	4.50e-06	0	57	0	692060160	48	5073
2026-01-10 10:41:25.97	335.82	12.03	-39.2	-41.5	13.8	3.80e-06	0	57	0	695205888	48	5109
2026-01-10 10:41:26.98	335.87	11.94	-39.1	-41.4	13.9	6.80e-06	0	57	0	698351616	49	4784
2026-01-10 10:41:27.99	335.92	11.85	-39.1	-41.3	13.9	4.50e-06	0	57	0	701497344	49	4757
2026-01-10 10:41:29.01	335.98	11.76	-39.1	-41.4	13.8	6.10e-06	0	57	0	704643072	49	4800
2026-01-10 10:41:30.01	336.03	11.67	-39.2	-41.5	13.8	4.50e-06	0	57	0	707788800	49	4834
2026-01-10 10:41:31.02	336.08	11.58	-39.2	-41.5	13.8	5.30e-06	0	57	0	710934528	49	4828
2026-01-10 10:41:32.03	336.13	11.49	-39.3	-41.6	13.6	1.06e-05	0	57	0	714080256	49	4925
2026-01-10 10:41:33.04	336.19	11.40	-39.3	-41.7	13.5	9.90e-06	0	57	0	717225984	49	4951
2026-01-10 10:41:34.05	336.24	11.31	-39.3	-41.7	13.5	1.06e-05	0	57	0	720371712	49	4944
2026-01-10 10:41:35.06	336.29	11.22	-39.4	-41.8	13.4	1.14e-05	0	57	0	723517440	49	4999
2026-01-10 10:41:36.07	336.34	11.13	-39.4	-41.8	13.4	1.52e-05	0	57	0	726663168	49	5031
2026-01-10 10:41:37.08	336.39	11.05	-39.3	-41.7	13.5	1.37e-05	0	57	0	729808896	49	4961
2026-01-10 10:41:38.09	336.44	10.96	-39.4	-41.8	13.4	1.37e-05	0	57	0	732954624	49	5005
2026-01-10 10:41:39.10	336.49	10.87	-39.4	-41.8	13.4	1.14e-05	0	57	0	736100352	49	4996
2026-01-10 10:41:40.11	336.54	10.78	-39.4	-41.8	13.3	2.67e-05	0	57	0	739246080	49	5017
2026-01-10 10:41:41.12	336.59	10.70	-39.3	-41.6	13.5	1.29e-05	0	57	0	742391808	49	4923
2026-01-10 10:41:42.13	336.64	10.61	-39.2	-41.5	13.6	1.22e-05	0	58	0	745537536	49	4864
2026-01-10 10:41:43.14	336.69	10.52	-39.2	-41.6	13.5	9.90e-06	0	57	0	748683264	49	4890
2026-01-10 10:41:44.15	336.74	10.44	-39.2	-41.7	13.3	1.29e-05	0	57	0	751828992	49	4942
2026-01-10 10:41:45.16	336.79	10.35	-39.2	-41.6	13.4	2.67e-05	0	57	0	754974720	49	4925
2026-01-10 10:41:46.17	336.83	10.27	-39.4	-41.9	13.0	2.44e-05	0	57	0	758120448	49	5079
2026-01-10 10:41:47.18	336.88	10.18	-39.5	-42.0	12.9	4.04e-05	0	57	0	761266176	49	5157
2026-01-10 10:41:48.18	336.93	10.10	-39.3	-41.8	13.0	3.73e-05	0	57	0	764411904	49	5024
2026-01-10 10:41:49.19	336.98	10.01	-39.3	-42.0	12.9	5.87e-05	0	57	0	767557632	49	5104
2026-01-10 10:41:50.20	337.02	9.93	-39.1	-41.6	13.3	3.43e-05	0	57	0	770703360	49	4883
2026-01-10 10:41:51.21	337.07	9.85	-39.0	-41.5	13.3	1.52e-05	0	57	0	773849088	49	4855
2026-01-10 10:41:52.22	337.12	9.76	-39.0	-41.5	13.2	1.90e-05	0	57	0	776994816	49	4861
2026-01-10 10:41:53.24	337.17	9.68	-39.0	-41.5	13.2	2.82e-05	0	57	0	780140544	49	4822
2026-01-10 10:41:54.25	337.21	9.60	-38.9	-41.4	13.2	2.13e-05	0	57	0	783286272	49	4789
2026-01-10 10:41:55.26	337.26	9.51	-38.9	-41.4	13.2	2.21e-05	0	57	0	786432000	49	4806
2026-01-10 10:41:56.27	337.30	9.43	-38.9	-41.4	13.2	2.36e-05	0	57	0	789577728	49	4767
2026-01-10 10:41:57.28	337.35	9.35	-39.0	-41.6	13.0	3.12e-05	0	57	0	792723456	49	4883
2026-01-10 10:41:58.29	337.40	9.27	-39.1	-41.7	12.8	5.18e-05	0	57	0	795869184	49	4980
2026-01-10 10:41:59.30	337.44	9.18	-39.2	-41.9	12.6	9.46e-05	0	57	0	799014912	49	5069
2026-01-10 10:42:00.30	337.48	9.10	-39.2	-42.0	12.5	1.06e-04	0	57	0	802160640	49	5112
2026-01-10 10:42:01.32	337.53	9.02	-39.3	-42.1	12.3	1.94e-04	0	57	0	805306368	49	5183
2026-01-10 10:42:02.33	337.57	8.94	-39.3	-42.1	12.3	1.92e-04	0	57	0	808452096	49	5172
2026-01-10 10:42:03.34	337.62	8.86	-39.4	-42.3	12.1	2.43e-04	0	57	0	811597824	49	5292
2026-01-10 10:42:04.35	337.66	8.78	-39.3	-42.2	12.1	2.21e-04	0	57	0	814743552	49	5226
2026-01-10 10:42:05.36	337.71	8.70	-39.2	-42.0	12.4	2.04e-04	0	57	0	817889280	49	5104
2026-01-10 10:42:06.37	337.75	8.62	-39.3	-42.1	12.2	1.85e-04	0	57	0	821035008	49	5198
2026-01-10 10:42:07.38	337.79	8.54	-39.1	-41.9	12.3	2.42e-04	0	57	0	824180736	49	5080
2026-01-10 10:42:08.39	337.84	8.46	-39.0	-41.7	12.4	1.36e-04	0	57	0	827326464	49	4969
2026-01-10 10:42:09.40	337.88	8.38	-39.1	-41.9	12.2	1.93e-04	0	57	0	830472192	49	5090
2026-01-10 10:42:10.40	337.92	8.30	-39.1	-41.9	12.2	2.02e-04	0	57	0	833617920	49	5057
2026-01-10 10:42:11.41	337.96	8.22	-39.2	-42.1	11.9	3.75e-04	0	57	0	836763648	49	5162
2026-01-10 10:42:12.42	338.01	8.14	-39.1	-42.0	12.0	4.03e-04	0	57	0	839909376	49	5142
2026-01-10 10:42:13.43	338.05	8.07	-39.0	-41.9	12.0	2.84e-04	0	57	0	843055104	49	5079
2026-01-10 10:42:14.44	338.09	7.99	-39.3	-42.4	11.7	3.97e-04	0	57	0	846200832	49	5361
2026-01-10 10:42:15.45	338.13	7.91	-44.2	-56.5	3.8	1.49e+00	0	57	104	847249408	59	15389
2026-01-10 10:42:16.46	338.17	7.83	-44.6	-56.9	3.8	1.49e+00	0	57	104	847249408	59	16055
2026-01-10 10:42:17.47	338.22	7.76	-44.8	-57.3	3.8	1.49e+00	0	57	104	847249408	60	15803
2026-01-10 10:42:18.49	338.26	7.68	-44.9	-57.4	3.8	1.49e+00	0	57	104	847249408	60	16094
2026-01-10 10:42:19.50	338.30	7.60	-45.1	-57.6	3.8	1.49e+00	0	58	104	847249408	60	16340
2026-01-10 10:42:20.51	338.34	7.52	-45.1	-57.7	3.8	1.49e+00	0	57	104	847249408	60	16525
2026-01-10 10:42:21.52	338.38	7.45	-45.2	-57.7	3.8	1.49e+00	0	57	104	847249408	60	16683
2026-01-10 10:42:22.53	338.42	7.37	-45.2	-57.8	3.8	1.49e+00	0	57	104	847249408	61	15803
2026-01-10 10:42:23.54	338.46	7.29	-45.2	-57.8	3.8	1.49e+00	0	57	104	847249408	61	15782
2026-01-10 10:42:24.55	338.50	7.22	-45.2	-57.8	3.8	1.49e+00	0	57	104	847249408	61	15825
2026-01-10 10:42:25.56	338.54	7.14	-45.2	-57.8	3.8	1.49e+00	0	57	104	847249408	61	15790
2026-01-10 10:42:26.57	338.58	7.07	-45.1	-57.7	3.8	1.49e+00	0	57	104	847249408	60	16616
2026-01-10 10:42:27.58	338.62	6.99	-45.1	-57.7	3.8	1.49e+00	0	58	104	847249408	60	16613
2026-01-10 10:42:28.59	338.66	6.92	-45.1	-57.6	3.8	1.49e+00	0	57	104	847249408	60	16497
2026-01-10 10:42:29.60	338.70	6.84	-45.1	-57.7	3.8	1.49e+00	0	57	104	847249408	60	16604
2026-01-10 10:42:30.61	338.74	6.77	-45.1	-57.7	3.8	1.49e+00	0	57	104	847249408	60	16551
2026-01-10 10:42:31.62	338.78	6.69	-45.1	-57.6	3.8	1.49e+00	0	57	104	847249408	60	16475
2026-01-10 10:42:32.64	338.81	6.62	-45.1	-57.6	3.8	1.49e+00	0	57	104	847249408	60	16485
2026-01-10 10:42:33.65	338.85	6.54	-45.1	-57.6	3.8	1.49e+00	0	57	104	847249408	60	16454
2026-01-10 10:42:34.66	338.89	6.47	-45.1	-57.6	3.8	1.49e+00	0	57	104	847249408	60	16483
2026-01-10 10:42:35.67	338.93	6.40	-45.1	-57.6	3.8	1.49e+00	0	57	104	847249408	60	16492
2026-01-10 10:42:36.68	338.97	6.32	-45.0	-57.6	3.8	1.49e+00	0	57	104	847249408	60	16420
2026-01-10 10:42:37.69	339.01	6.25	-45.0	-57.6	3.8	1.49e+00	0	57	104	847249408	60	16451
2026-01-10 10:42:38.70	339.04	6.18	-45.0	-57.6	3.8	1.49e+00	0	58	104	847249408	60	16482
2026-01-10 10:42:39.71	339.08	6.10	-45.0	-57.6	3.8	1.49e+00	0	57	104	847249408	60	16392
2026-01-10 10:42:40.72	339.12	6.03	-45.0	-57.6	3.8	1.49e+00	0	57	104	847249408	60	16465
2026-01-10 10:42:41.74	339.16	5.96	-45.0	-57.6	3.8	1.49e+00	0	57	104	847249408	60	16431
2026-01-10 10:42:42.75	339.19	5.89	-45.0	-57.6	3.8	1.49e+00	0	57	104	847249408	60	16438
2026-01-10 10:42:43.75	339.23	5.81	-44.5	-57.6	3.8	1.49e+00	0	57	104	847249408	60	16433
2026-01-10 10:42:44.77	339.27	5.74	-45.0	-57.6	3.8	1.49e+00	0	57	104	847249408	60	16434
2026-01-10 10:42:45.78	339.30	5.67	-45.0	-57.6	3.8	1.49e+00	0	58	104	847249408	60	16441
2026-01-10 10:42:46.79	339.34	5.60	-45.0	-57.6	3.8	1.49e+00	0	57	104	847249408	60	16457
2026-01-10 10:42:47.80	339.37	5.53	-45.0	-57.6	3.8	1.49e+00	0	57	104	847249408	60	16391
2026-01-10 10:42:48.81	339.41	5.46	-45.0	-57.6	3.8	1.49e+00	0	57	104	847249408	60	16456
2026-01-10 10:42:49.82	339.45	5.39	-45.0	-57.6	3.8	1.49e+00	0	57	104	847249408	60	16423
2026-01-10 10:42:50.83	339.48	5.32	-45.0	-57.6	3.8	1.49e+00	0	57	104	847249408	60	16360
2026-01-10 10:42:51.84	339.52	5.24	-45.0	-57.6	3.8	1.49e+00	0	58	104	847249408	60	16428
2026-01-10 10:42:52.85	339.55	5.17	-45.0	-57.6	3.8	1.49e+00	0	57	104	847249408	60	16412
2026-01-10 10:42:53.86	339.59	5.10	-45.0	-57.6	3.8	1.49e+00	0	58	104	847249408	60	16445
2026-01-10 10:42:54.88	339.62	5.03	-45.0	-57.6	3.8	1.49e+00	0	57	104	847249408	60	16411
2026-01-10 10:42:55.89	339.66	4.96	-45.0	-57.6	3.8	1.49e+00	0	57	104	847249408	60	16400
2026-01-10 10:42:56.90	339.69	4.89	-45.0	-57.6	3.8	1.49e+00	0	57	104	847249408	60	16399
2026-01-10 10:42:57.91	339.73	4.82	-45.0	-57.6	3.8	1.49e+00	0	58	104	847249408	60	16396
2026-01-10 10:42:58.92	339.76	4.76	-45.0	-57.6	3.8	1.49e+00	0	57	104	847249408	60	16355
2026-01-10 10:42:59.93	339.80	4.69	-45.0	-57.6	3.8	1.49e+00	0	57	104	847249408	60	16361
2026-01-10 10:43:00.94	339.83	4.62	-45.0	-57.6	3.8	1.49e+00	0	57	104	847249408	60	16361
2026-01-10 10:43:01.95	339.87	4.55	-45.0	-57.5	3.8	1.49e+00	0	58	104	847249408	60	16313
2026-01-10 10:43:02.96	339.90	4.48	-45.0	-57.6	3.8	1.49e+00	0	57	104	847249408	60	16353
2026-01-10 10:43:03.97	339.93	4.41	-45.0	-57.6	3.8	1.49e+00	0	57	104	847249408	60	16317
2026-01-10 10:43:04.98	339.97	4.34	-45.0	-57.6	3.8	1.49e+00	0	58	104	847249408	60	16349
2026-01-10 10:43:06.00	340.00	4.27	-45.0	-57.6	3.8	1.49e+00	0	57	104	847249408	60	16322
2026-01-10 10:43:07.01	340.03	4.21	-45.0	-57.5	3.8	1.49e+00	0	57	104	847249408	60	16301
2026-01-10 10:43:08.02	340.07	4.14	-45.0	-57.5	3.8	1.49e+00	0	57	104	847249408	60	16296
2026-01-10 10:43:09.03	340.10	4.07	-45.0	-57.6	3.8	1.49e+00	0	58	104	847249408	60	16347
2026-01-10 10:43:10.04	340.13	4.00	-45.0	-57.6	3.8	1.49e+00	0	57	104	847249408	60	16341
2026-01-10 10:43:11.05	340.17	3.94	-45.0	-57.6	3.8	1.49e+00	0	57	104	847249408	60	16322
2026-01-10 10:43:12.06	340.20	3.87	-45.0	-57.6	3.8	1.49e+00	0	57	104	847249408	60	16347
2026-01-10 10:43:13.07	340.23	3.80	-45.0	-57.6	3.8	1.49e+00	0	57	104	847249408	60	16327
2026-01-10 10:43:14.08	340.26	3.74	-45.0	-57.6	3.8	1.49e+00	0	58	104	847249408	60	16315
2026-01-10 10:43:15.09	340.30	3.67	-45.0	-57.6	3.8	1.49e+00	0	57	104	847249408	60	16352
2026-01-10 10:43:16.11	340.33	3.60	-45.0	-57.6	3.8	1.49e+00	0	58	104	847249408	60	16338
2026-01-10 10:43:17.12	340.36	3.53	-45.0	-57.5	3.8	1.49e+00	0	57	104	847249408	60	16243
2026-01-10 10:43:18.13	340.39	3.47	-45.0	-57.6	3.8	1.49e+00	0	57	104	847249408	60	16327
2026-01-10 10:43:19.14	340.43	3.40	-45.0	-57.6	3.8	1.49e+00	0	57	104	847249408	60	16327
2026-01-10 10:43:20.15	340.46	3.34	-45.0	-57.6	3.8	1.49e+00	0	58	104	847249408	60	16328
2026-01-10 10:43:21.16	340.49	3.27	-45.0	-57.6	3.8	1.49e+00	0	57	104	847249408	60	16332
2026-01-10 10:43:22.17	340.52	3.21	-45.0	-57.6	3.8	1.49e+00	0	58	104	847249408	60	16316
2026-01-10 10:43:23.18	340.55	3.14	-45.0	-57.6	3.8	1.49e+00	0	58	104	847249408	60	16326
2026-01-10 10:43:24.19	340.58	3.07	-44.9	-57.6	3.8	1.49e+00	0	57	104	847249408	60	16353
2026-01-10 10:43:25.20	340.61	3.01	-45.0	-57.6	3.8	1.49e+00	0	58	104	847249408	60	16330
2026-01-10 10:43:26.21	340.65	2.94	-45.0	-57.5	3.8	1.49e+00	0	57	104	847249408	60	16299
2026-01-10 10:43:27.22	340.68	2.88	-45.0	-57.5	3.8	1.49e+00	0	57	104	847249408	60	16314
2026-01-10 10:43:28.23	340.71	2.81	-44.9	-57.5	3.8	1.49e+00	0	58	104	847249408	60	16305
2026-01-10 10:43:29.24	340.74	2.75	-45.0	-57.5	3.8	1.49e+00	0	57	104	847249408	60	16278
2026-01-10 10:43:30.25	340.77	2.69	-45.0	-57.5	3.8	1.49e+00	0	58	104	847249408	60	16288
2026-01-10 10:43:31.26	340.80	2.62	-45.0	-57.6	3.8	1.49e+00	0	57	104	847249408	60	16330
2026-01-10 10:43:32.27	340.83	2.56	-45.0	-57.6	3.8	1.49e+00	0	57	104	847249408	60	16320
2026-01-10 10:43:33.29	340.86	2.49	-44.9	-57.6	3.8	1.49e+00	0	58	104	847249408	60	16325
2026-01-10 10:43:34.30	340.89	2.43	-45.0	-57.5	3.8	1.49e+00	0	57	104	847249408	60	16281
2026-01-10 10:43:35.31	340.92	2.37	-45.0	-57.6	3.8	1.49e+00	0	58	104	847249408	60	16336
2026-01-10 10:43:36.32	340.95	2.30	-45.0	-57.5	3.8	1.49e+00	0	58	104	847249408	60	16302
2026-01-10 10:43:37.33	340.98	2.24	-45.0	-57.6	3.8	1.49e+00	0	57	104	847249408	60	16336
2026-01-10 10:43:38.34	341.01	2.18	-45.0	-57.5	3.8	1.49e+00	0	58	104	847249408	60	16289
2026-01-10 10:43:39.35	341.04	2.11	-45.0	-57.6	3.8	1.49e+00	0	57	104	847249408	60	16365
2026-01-10 10:43:40.36	341.07	2.05	-45.0	-57.5	3.8	1.49e+00	0	58	104	847249408	60	16303

#Closed at: 2026-01-10 10:43:41
#Recorded file [847 MB]: D:/lorett/data/31039_260110_133655.dat