passes_logs/2026/01/10/R2.0S_Moscow/R2.0S_Moscow__20260110_020814_FENGYUN_3D_rec.log

#Pass ID: 20260110_020814_FENGYUN 3D
#Satellite: FENGYUN 3D
#Configuration: FENGYUN 3D
#almurnet v.1.7.20251203
#Start time: 2026-01-10 02:08:16

#Version: 2.2.20231116
#Station: R2.0S_Moscow
#Location: 37.707566 lon 55.798166 lat
#TLE: 1 43010U 17072A   26009.29492227  .00000158  00000+0  96483-4 0  9996
#TLE: 2 43010  98.9936 341.0229 0002153 117.3665 242.7729 14.19694440422446

#Time	Az	El	Level	Level2	SNR	BER	BlckErr	Temp	State	Recorded	gain1	gain2
2026-01-10 02:08:16.35	14.92	2.10	-43.0	-54.6	3.8	8.46e-01	0	47	0	0	58	13107
2026-01-10 02:08:17.36	14.91	2.16	-43.0	-54.6	3.8	8.46e-01	0	47	104	0	57	13877
2026-01-10 02:08:18.37	14.90	2.23	-43.0	-54.6	3.8	8.46e-01	0	47	104	0	57	13832
2026-01-10 02:08:19.38	14.88	2.29	-43.0	-54.7	3.8	8.46e-01	0	47	104	0	57	13899
2026-01-10 02:08:20.39	14.87	2.36	-43.0	-54.7	3.8	8.46e-01	0	47	104	0	57	13890
2026-01-10 02:08:21.40	14.86	2.42	-43.0	-54.6	3.8	8.47e-01	0	47	104	0	57	13868
2026-01-10 02:08:22.41	14.84	2.49	-43.0	-54.7	3.8	8.46e-01	0	47	104	0	57	13904
2026-01-10 02:08:23.41	14.83	2.55	-43.0	-54.6	3.8	8.46e-01	0	47	104	0	57	13870
2026-01-10 02:08:24.42	14.81	2.62	-43.0	-54.6	3.8	8.45e-01	0	47	104	0	57	13827
2026-01-10 02:08:25.43	14.80	2.68	-43.0	-54.6	3.8	8.47e-01	0	47	104	0	57	13803
2026-01-10 02:08:26.44	14.79	2.75	-43.0	-54.7	3.8	8.46e-01	0	48	104	0	57	13891
2026-01-10 02:08:27.44	14.77	2.81	-43.0	-54.6	3.8	8.47e-01	0	48	104	0	57	13875
2026-01-10 02:08:28.45	14.76	2.88	-43.0	-54.6	3.8	8.46e-01	0	48	104	0	57	13837
2026-01-10 02:08:29.46	14.74	2.95	-43.0	-54.6	3.8	8.46e-01	0	48	104	0	57	13820
2026-01-10 02:08:30.47	14.73	3.01	-43.0	-54.6	3.8	8.46e-01	0	48	104	0	57	13846
2026-01-10 02:08:31.48	14.71	3.08	-43.0	-54.6	3.8	8.45e-01	0	48	104	0	57	13804
2026-01-10 02:08:32.49	14.70	3.15	-43.0	-54.6	3.8	8.46e-01	0	48	104	0	57	13814
2026-01-10 02:08:33.50	14.68	3.21	-43.0	-54.6	3.8	8.46e-01	0	48	104	0	57	13795
2026-01-10 02:08:34.50	14.67	3.28	-43.0	-54.6	3.8	8.46e-01	0	48	104	0	57	13856
2026-01-10 02:08:35.51	14.66	3.35	-43.0	-54.6	3.8	8.47e-01	0	48	104	0	57	13803
2026-01-10 02:08:36.53	14.64	3.41	-43.0	-54.6	3.8	8.45e-01	0	48	104	0	57	13782
2026-01-10 02:08:37.53	14.62	3.48	-43.0	-54.6	3.8	8.46e-01	0	48	104	0	57	13809
2026-01-10 02:08:38.55	14.61	3.55	-43.0	-54.5	3.8	8.45e-01	0	48	104	0	57	13722
2026-01-10 02:08:39.56	14.59	3.62	-43.0	-54.6	3.8	8.45e-01	0	49	104	0	57	13784
2026-01-10 02:08:40.56	14.58	3.68	-43.0	-54.5	3.8	8.46e-01	0	48	104	0	57	13722
2026-01-10 02:08:41.57	14.56	3.75	-43.0	-54.6	3.8	8.46e-01	0	49	104	0	57	13788
2026-01-10 02:08:42.58	14.55	3.82	-43.0	-54.5	3.8	8.46e-01	0	49	104	0	57	13683
2026-01-10 02:08:43.59	14.53	3.89	-43.0	-54.6	3.8	8.46e-01	0	49	104	0	57	13772
2026-01-10 02:08:44.60	14.52	3.96	-43.0	-54.6	3.8	8.47e-01	0	49	104	0	57	13754
2026-01-10 02:08:45.61	14.50	4.03	-43.0	-54.6	3.8	8.46e-01	0	49	104	0	57	13781
2026-01-10 02:08:46.62	14.48	4.10	-43.0	-54.6	3.8	8.47e-01	0	49	104	0	57	13753
2026-01-10 02:08:47.63	14.47	4.17	-43.0	-54.6	3.8	8.45e-01	0	49	104	0	57	13789
2026-01-10 02:08:48.64	14.45	4.23	-43.0	-54.6	3.8	8.45e-01	0	49	104	0	57	13748
2026-01-10 02:08:49.65	14.44	4.30	-43.0	-54.6	3.8	8.46e-01	0	49	104	0	57	13788
2026-01-10 02:08:50.66	14.42	4.37	-43.0	-54.5	3.8	8.46e-01	0	49	104	0	57	13706
2026-01-10 02:08:51.67	14.40	4.44	-43.0	-54.5	3.8	8.47e-01	0	49	104	0	57	13648
2026-01-10 02:08:52.68	14.39	4.51	-43.0	-54.5	3.8	8.45e-01	0	50	104	0	57	13709
2026-01-10 02:08:53.69	14.37	4.58	-43.0	-54.5	3.8	8.46e-01	0	49	104	0	57	13602
2026-01-10 02:08:54.70	14.35	4.65	-43.0	-54.4	3.8	8.46e-01	0	49	104	0	57	13449
2026-01-10 02:08:55.70	14.34	4.72	-43.0	-54.3	3.8	8.46e-01	0	50	104	0	57	13377
2026-01-10 02:08:56.71	14.32	4.79	-43.0	-54.2	3.8	8.45e-01	0	50	104	0	57	13135
2026-01-10 02:08:57.72	14.30	4.87	-42.9	-54.1	3.8	8.46e-01	0	50	104	0	57	13017
2026-01-10 02:08:58.73	14.28	4.94	-43.0	-54.0	3.8	8.46e-01	0	50	104	0	57	12892
2026-01-10 02:08:59.74	14.27	5.01	-42.9	-53.8	3.8	8.46e-01	0	50	104	0	57	12652
2026-01-10 02:09:00.75	14.25	5.08	-42.9	-53.4	3.8	8.46e-01	0	50	104	0	57	12055
2026-01-10 02:09:01.76	14.23	5.15	-42.9	-53.6	3.8	8.46e-01	0	50	104	0	57	12261
2026-01-10 02:09:02.77	14.21	5.22	-42.9	-53.4	3.8	8.46e-01	0	50	104	0	57	11958
2026-01-10 02:09:03.78	14.20	5.30	-42.8	-52.9	3.8	8.47e-01	0	50	104	0	57	11407
2026-01-10 02:09:04.78	14.18	5.37	-42.8	-52.8	3.8	8.45e-01	0	50	104	0	57	11166
2026-01-10 02:09:05.80	14.16	5.44	-42.8	-52.7	3.9	8.45e-01	0	50	104	0	57	11053
2026-01-10 02:09:06.80	14.14	5.51	-42.8	-52.9	3.9	8.46e-01	0	50	104	0	57	11331
2026-01-10 02:09:07.81	14.13	5.58	-42.8	-52.6	3.8	8.46e-01	0	50	104	0	57	10944
2026-01-10 02:09:08.82	14.11	5.66	-42.7	-52.1	4.0	8.45e-01	0	50	104	0	57	10365
2026-01-10 02:09:09.83	14.09	5.73	-42.7	-52.2	4.0	8.44e-01	0	50	104	0	57	10470
2026-01-10 02:09:10.84	14.07	5.80	-42.8	-52.6	3.8	8.44e-01	0	50	104	0	57	10918
2026-01-10 02:09:11.85	14.05	5.88	-42.9	-53.3	3.8	8.45e-01	0	50	104	0	57	11876
2026-01-10 02:09:12.86	14.03	5.95	-42.9	-53.8	3.8	8.46e-01	0	50	104	0	57	12662
2026-01-10 02:09:13.87	14.01	6.03	-42.9	-54.0	3.8	8.45e-01	0	50	104	0	57	12930
2026-01-10 02:09:14.88	13.99	6.10	-43.0	-54.2	3.8	8.45e-01	0	51	104	0	57	13171
2026-01-10 02:09:15.89	13.98	6.17	-43.0	-54.3	3.8	8.46e-01	0	51	104	0	57	13310
2026-01-10 02:09:16.90	13.96	6.25	-43.0	-54.4	3.8	8.46e-01	0	51	104	0	57	13449
2026-01-10 02:09:17.91	13.94	6.32	-42.9	-53.8	3.8	8.46e-01	0	51	104	0	57	12588
2026-01-10 02:09:18.92	13.92	6.40	-42.8	-53.1	3.8	8.46e-01	0	51	104	0	57	11681
2026-01-10 02:09:19.93	13.90	6.48	-42.7	-51.7	4.0	8.43e-01	0	51	104	0	57	9887
2026-01-10 02:09:20.94	13.88	6.55	-42.4	-50.1	4.5	8.29e-01	0	51	0	0	56	8671
2026-01-10 02:09:21.95	13.86	6.63	-42.0	-48.5	5.3	7.79e-01	0	51	0	0	56	7250
2026-01-10 02:09:22.95	13.84	6.70	-41.5	-47.0	6.3	3.98e-01	0	51	0	3145728	55	6463
2026-01-10 02:09:23.96	13.82	6.78	-41.1	-46.0	7.2	2.25e-01	0	51	0	8388608	54	6104
2026-01-10 02:09:24.97	13.80	6.85	-40.6	-44.8	8.3	7.72e-02	0	51	0	14680064	53	5641
2026-01-10 02:09:25.98	13.78	6.93	-40.3	-44.1	9.1	3.96e-02	0	51	0	19922944	52	5470
2026-01-10 02:09:26.99	13.76	7.01	-40.0	-43.5	9.8	1.36e-02	0	51	0	25165824	51	5434
2026-01-10 02:09:28.00	13.74	7.08	-39.7	-43.0	10.3	9.32e-03	0	51	0	31457280	51	5119
2026-01-10 02:09:29.01	13.72	7.16	-39.5	-42.6	10.8	3.30e-03	0	51	0	36700160	50	5168
2026-01-10 02:09:30.01	13.70	7.24	-39.3	-42.3	11.0	2.80e-03	0	51	0	42991616	50	5032
2026-01-10 02:09:31.02	13.67	7.32	-39.3	-42.2	11.1	1.87e-03	0	51	0	48234496	50	4980
2026-01-10 02:09:32.03	13.65	7.39	-39.2	-42.0	11.3	1.70e-03	0	52	0	53477376	50	4861
2026-01-10 02:09:33.04	13.63	7.47	-39.1	-41.9	11.5	1.18e-03	0	51	0	59768832	50	4760
2026-01-10 02:09:34.05	13.61	7.55	-38.9	-41.6	11.7	6.88e-04	0	52	0	65011712	49	4915
2026-01-10 02:09:35.05	13.59	7.63	-39.2	-42.0	11.3	1.44e-03	0	51	0	71303168	49	5147
2026-01-10 02:09:36.06	13.57	7.71	-39.4	-42.5	10.9	2.63e-03	0	51	0	76546048	49	5421
2026-01-10 02:09:37.07	13.55	7.79	-39.5	-42.6	10.7	4.21e-03	0	52	0	81788928	49	5499
2026-01-10 02:09:38.08	13.52	7.87	-39.8	-43.1	10.2	6.24e-03	0	51	0	88080384	50	5500
2026-01-10 02:09:39.08	13.50	7.95	-40.3	-44.0	9.3	1.44e-02	0	52	0	93323264	51	5728
2026-01-10 02:09:40.09	13.48	8.03	-40.5	-44.4	8.8	3.27e-02	0	52	0	99614720	51	6024
2026-01-10 02:09:41.10	13.46	8.11	-40.9	-45.3	7.9	5.86e-02	0	52	0	104857600	52	6316
2026-01-10 02:09:42.11	13.44	8.19	-42.8	-51.5	3.9	8.39e-01	0	52	104	106954752	56	10243
2026-01-10 02:09:43.11	13.41	8.27	-40.3	-44.2	8.8	1.93e-02	0	52	0	109051904	52	5571
2026-01-10 02:09:44.12	13.39	8.35	-38.8	-41.3	12.1	1.88e-04	0	52	0	114294784	49	4750
2026-01-10 02:09:45.13	13.37	8.43	-42.3	-52.9	3.8	8.36e-01	0	52	104	117440512	55	12740
2026-01-10 02:09:46.13	13.34	8.51	-38.5	-40.9	12.6	2.25e-04	0	52	0	118489088	49	4531
2026-01-10 02:09:47.14	13.32	8.59	-38.4	-40.7	12.9	8.81e-05	0	52	0	124780544	48	4683
2026-01-10 02:09:48.15	13.30	8.67	-38.5	-40.8	12.7	8.69e-05	0	52	0	130023424	48	4755
2026-01-10 02:09:49.16	13.27	8.76	-38.4	-40.8	12.8	1.01e-04	0	52	0	136314880	48	4726
2026-01-10 02:09:50.16	13.25	8.84	-38.3	-40.7	12.9	8.92e-05	0	52	0	141557760	48	4656
2026-01-10 02:09:51.17	13.23	8.92	-38.2	-40.5	13.1	6.40e-05	0	52	0	146800640	48	4568
2026-01-10 02:09:52.18	13.20	9.00	-38.0	-40.2	13.4	2.74e-05	0	52	0	153092096	48	4432
2026-01-10 02:09:53.18	13.18	9.09	-38.1	-40.2	13.4	2.40e-05	0	52	0	158334976	48	4440
2026-01-10 02:09:54.19	13.15	9.17	-38.0	-40.2	13.4	3.20e-05	0	52	0	164626432	48	4432
2026-01-10 02:09:55.20	13.13	9.25	-38.0	-40.2	13.3	2.63e-05	0	52	0	169869312	47	4676
2026-01-10 02:09:56.21	13.10	9.34	-38.0	-40.2	13.3	3.08e-05	0	52	0	176160768	47	4691
2026-01-10 02:09:57.22	13.08	9.42	-38.0	-40.2	13.3	2.63e-05	0	52	0	181403648	47	4669
2026-01-10 02:09:58.23	13.05	9.51	-38.1	-40.3	13.2	2.97e-05	0	52	0	186646528	47	4756
2026-01-10 02:09:59.23	13.03	9.59	-38.0	-40.2	13.3	1.02e-05	0	52	0	192937984	47	4700
2026-01-10 02:10:00.24	13.00	9.68	-37.9	-40.1	13.4	3.31e-05	0	53	0	198180864	47	4647
2026-01-10 02:10:01.24	12.98	9.76	-38.0	-40.2	13.3	2.05e-05	0	52	0	203423744	47	4697
2026-01-10 02:10:02.25	12.95	9.85	-37.9	-40.1	13.5	1.25e-05	0	52	0	209715200	47	4606
2026-01-10 02:10:03.26	12.93	9.93	-37.6	-39.8	13.8	1.14e-05	0	52	0	214958080	47	4444
2026-01-10 02:10:04.27	12.90	10.02	-37.6	-39.7	13.8	8.00e-06	0	52	0	221249536	47	4400
2026-01-10 02:10:05.28	12.87	10.11	-37.6	-39.7	13.8	5.70e-06	0	53	0	226492416	47	4410
2026-01-10 02:10:06.29	12.85	10.19	-37.5	-39.6	13.9	3.40e-06	0	52	0	231735296	46	4615
2026-01-10 02:10:07.30	12.82	10.28	-37.4	-39.4	14.1	9.10e-06	0	53	0	238026752	46	4545
2026-01-10 02:10:08.31	12.79	10.37	-37.4	-39.4	14.1	2.20e-06	0	53	0	243269632	46	4537
2026-01-10 02:10:09.32	12.77	10.46	-37.4	-39.5	14.0	2.20e-06	0	53	0	249561088	46	4550
2026-01-10 02:10:10.33	12.74	10.54	-37.5	-39.5	14.0	3.40e-06	0	53	0	254803968	46	4586
2026-01-10 02:10:11.34	12.71	10.63	-37.5	-39.6	13.9	1.10e-06	0	53	0	261095424	46	4638
2026-01-10 02:10:12.35	12.68	10.72	-37.5	-39.6	14.0	2.20e-06	0	53	0	266338304	46	4630
2026-01-10 02:10:13.36	12.66	10.81	-37.7	-39.8	13.8	1.02e-05	0	53	0	272629760	46	4718
2026-01-10 02:10:14.37	12.63	10.90	-37.8	-40.0	13.6	1.37e-05	0	53	0	277872640	46	4840
2026-01-10 02:10:15.38	12.60	10.99	-37.8	-39.9	13.7	6.80e-06	0	53	0	283115520	46	4796
2026-01-10 02:10:16.39	12.57	11.08	-37.7	-39.9	13.8	1.25e-05	0	53	0	289406976	46	4765
2026-01-10 02:10:17.39	12.54	11.17	-37.7	-39.8	13.8	1.48e-05	0	53	0	294649856	46	4759
2026-01-10 02:10:18.40	12.52	11.26	-37.8	-39.9	13.7	8.00e-06	0	53	0	299892736	46	4776
2026-01-10 02:10:19.41	12.49	11.35	-37.7	-39.8	13.9	4.50e-06	0	53	0	306184192	46	4727
2026-01-10 02:10:20.42	12.46	11.44	-37.8	-39.9	13.8	3.40e-06	0	53	0	311427072	46	4776
2026-01-10 02:10:21.43	12.43	11.54	-37.7	-39.8	13.9	1.10e-06	0	53	0	317718528	46	4752
2026-01-10 02:10:22.44	12.40	11.63	-37.6	-39.7	14.0	9.10e-06	0	53	0	322961408	46	4661
2026-01-10 02:10:23.44	12.37	11.72	-37.7	-39.7	14.0	6.80e-06	0	53	0	328204288	46	4674
2026-01-10 02:10:24.45	12.34	11.81	-37.5	-39.5	14.3	3.40e-06	0	53	0	334495744	46	4582
2026-01-10 02:10:25.46	12.31	11.91	-37.5	-39.4	14.5	2.20e-06	0	53	0	339738624	46	4533
2026-01-10 02:10:26.46	12.28	12.00	-37.5	-39.5	14.5	2.20e-06	0	53	0	346030080	46	4554
2026-01-10 02:10:27.47	12.25	12.09	-37.5	-39.4	14.6	1.10e-06	0	53	0	351272960	46	4507
2026-01-10 02:10:28.48	12.22	12.19	-37.3	-39.2	14.8	0.00e+00	0	53	0	357564416	46	4422
2026-01-10 02:10:29.48	12.19	12.28	-37.3	-39.2	14.8	0.00e+00	0	53	0	362807296	46	4418
2026-01-10 02:10:30.49	12.15	12.37	-37.3	-39.1	15.0	0.00e+00	0	53	0	368050176	46	4358
2026-01-10 02:10:31.50	12.12	12.47	-37.2	-39.1	15.0	0.00e+00	0	53	0	374341632	46	4347
2026-01-10 02:10:32.50	12.09	12.56	-37.2	-39.1	15.1	0.00e+00	0	53	0	379584512	46	4343
2026-01-10 02:10:33.51	12.06	12.66	-37.2	-39.0	15.2	0.00e+00	0	53	0	385875968	46	4295
2026-01-10 02:10:34.52	12.03	12.76	-37.2	-39.0	15.2	0.00e+00	0	53	0	391118848	46	4322
2026-01-10 02:10:35.53	11.99	12.85	-37.2	-39.0	15.3	0.00e+00	0	53	0	396361728	46	4304
2026-01-10 02:10:36.54	11.96	12.95	-37.2	-39.0	15.3	0.00e+00	0	53	0	402653184	46	4318
2026-01-10 02:10:37.55	11.93	13.05	-37.2	-38.9	15.4	0.00e+00	0	53	0	407896064	46	4284
2026-01-10 02:10:38.56	11.90	13.15	-37.3	-39.0	15.3	0.00e+00	0	53	0	414187520	46	4325
2026-01-10 02:10:39.57	11.86	13.25	-37.1	-38.9	15.5	0.00e+00	0	53	0	419430400	46	4261
2026-01-10 02:10:40.58	11.83	13.34	-37.1	-38.9	15.5	0.00e+00	0	53	0	424673280	46	4243
2026-01-10 02:10:41.59	11.79	13.44	-37.1	-38.8	15.5	0.00e+00	0	53	0	430964736	46	4242
2026-01-10 02:10:42.59	11.76	13.54	-37.1	-38.8	15.5	0.00e+00	0	53	0	436207616	46	4224
2026-01-10 02:10:43.60	11.73	13.64	-37.1	-38.8	15.6	0.00e+00	0	54	0	442499072	46	4207
2026-01-10 02:10:44.61	11.69	13.74	-37.0	-38.7	15.7	0.00e+00	0	53	0	447741952	46	4148
2026-01-10 02:10:45.62	11.66	13.84	-36.9	-38.5	15.8	0.00e+00	0	54	0	454033408	45	4323
2026-01-10 02:10:46.63	11.62	13.94	-36.9	-38.6	15.8	0.00e+00	0	54	0	459276288	45	4342
2026-01-10 02:10:47.64	11.58	14.04	-36.9	-38.5	15.9	0.00e+00	0	54	0	464519168	45	4316
2026-01-10 02:10:48.65	11.55	14.15	-36.9	-38.6	15.8	0.00e+00	0	53	0	470810624	45	4366
2026-01-10 02:10:49.65	11.51	14.25	-36.9	-38.6	15.8	0.00e+00	0	54	0	476053504	45	4373
2026-01-10 02:10:50.66	11.48	14.35	-36.8	-38.5	15.9	0.00e+00	0	54	0	482344960	45	4323
2026-01-10 02:10:51.66	11.44	14.45	-36.7	-38.4	16.0	0.00e+00	0	54	0	487587840	45	4256
2026-01-10 02:10:52.67	11.40	14.56	-36.8	-38.4	16.0	0.00e+00	0	54	0	492830720	45	4264
2026-01-10 02:10:53.68	11.37	14.66	-36.7	-38.3	16.2	0.00e+00	0	54	0	499122176	45	4208
2026-01-10 02:10:54.68	11.33	14.76	-36.7	-38.3	16.1	0.00e+00	0	54	0	504365056	45	4223
2026-01-10 02:10:55.69	11.29	14.87	-36.6	-38.2	16.2	0.00e+00	0	54	0	509607936	45	4189
2026-01-10 02:10:56.70	11.25	14.97	-36.7	-38.3	16.2	0.00e+00	0	54	0	515899392	45	4196
2026-01-10 02:10:57.70	11.21	15.08	-36.6	-38.2	16.3	0.00e+00	0	54	0	521142272	45	4156
2026-01-10 02:10:58.71	11.18	15.19	-36.6	-38.1	16.4	0.00e+00	0	54	0	527433728	45	4141
2026-01-10 02:10:59.72	11.14	15.29	-36.5	-38.1	16.5	0.00e+00	0	54	0	532676608	45	4104
2026-01-10 02:11:00.72	11.10	15.40	-36.5	-38.0	16.5	0.00e+00	0	54	0	538968064	45	4096
2026-01-10 02:11:01.73	11.06	15.51	-36.5	-38.0	16.6	0.00e+00	0	54	0	544210944	44	4314
2026-01-10 02:11:02.74	11.02	15.61	-36.4	-37.9	16.7	0.00e+00	0	54	0	549453824	44	4287
2026-01-10 02:11:03.74	10.98	15.72	-36.4	-37.9	16.7	0.00e+00	0	54	0	555745280	44	4254
2026-01-10 02:11:04.75	10.94	15.83	-36.4	-37.9	16.7	0.00e+00	0	54	0	560988160	44	4255
2026-01-10 02:11:05.76	10.90	15.94	-36.3	-37.8	16.8	0.00e+00	0	54	0	567279616	44	4219
2026-01-10 02:11:06.77	10.86	16.05	-36.3	-37.8	16.8	0.00e+00	0	54	0	572522496	44	4210
2026-01-10 02:11:07.77	10.81	16.16	-36.2	-37.7	17.0	0.00e+00	0	54	0	577765376	44	4170
2026-01-10 02:11:08.78	10.77	16.27	-36.3	-37.8	16.8	0.00e+00	0	54	0	584056832	44	4212
2026-01-10 02:11:09.79	10.73	16.38	-36.2	-37.7	16.9	0.00e+00	0	54	0	589299712	44	4181
2026-01-10 02:11:10.80	10.69	16.49	-36.3	-37.8	16.8	0.00e+00	0	54	0	594542592	44	4230
2026-01-10 02:11:11.81	10.64	16.61	-36.2	-37.6	17.0	0.00e+00	0	54	0	600834048	44	4139
2026-01-10 02:11:12.81	10.60	16.72	-36.2	-37.7	16.9	0.00e+00	0	54	0	606076928	44	4177
2026-01-10 02:11:13.82	10.56	16.83	-36.2	-37.6	17.1	0.00e+00	0	54	0	612368384	44	4132
2026-01-10 02:11:14.83	10.51	16.94	-36.2	-37.7	17.0	0.00e+00	0	54	0	617611264	44	4157
2026-01-10 02:11:15.84	10.47	17.06	-36.2	-37.6	17.0	0.00e+00	0	54	0	623902720	44	4143
2026-01-10 02:11:16.85	10.42	17.17	-36.2	-37.7	17.0	0.00e+00	0	54	0	629145600	44	4157
2026-01-10 02:11:17.85	10.38	17.29	-36.2	-37.6	17.1	0.00e+00	0	54	0	635437056	44	4130
2026-01-10 02:11:18.86	10.33	17.40	-36.2	-37.6	17.1	0.00e+00	0	54	0	640679936	44	4133
2026-01-10 02:11:19.87	10.29	17.52	-36.2	-37.6	17.1	0.00e+00	0	54	0	645922816	44	4130
2026-01-10 02:11:20.87	10.24	17.64	-36.2	-37.7	17.0	0.00e+00	0	54	0	652214272	44	4169
2026-01-10 02:11:21.88	10.20	17.75	-36.2	-37.6	17.1	0.00e+00	0	54	0	657457152	44	4145
2026-01-10 02:11:22.89	10.15	17.87	-36.2	-37.6	17.1	0.00e+00	0	54	0	662700032	44	4144
2026-01-10 02:11:23.89	10.10	17.99	-36.1	-37.6	17.1	0.00e+00	0	54	0	668991488	44	4126
2026-01-10 02:11:24.90	10.05	18.11	-36.2	-37.7	17.1	0.00e+00	0	54	0	674234368	44	4155
2026-01-10 02:11:25.91	10.00	18.23	-36.1	-37.6	17.2	0.00e+00	0	54	0	680525824	44	4116
2026-01-10 02:11:26.91	9.96	18.35	-36.1	-37.6	17.2	0.00e+00	0	54	0	685768704	44	4130
2026-01-10 02:11:27.92	9.91	18.47	-36.1	-37.6	17.2	0.00e+00	0	54	0	691011584	44	4104
2026-01-10 02:11:28.93	9.86	18.59	-36.2	-37.6	17.2	0.00e+00	0	54	0	697303040	44	4128
2026-01-10 02:11:29.94	9.81	18.71	-36.1	-37.5	17.2	0.00e+00	0	54	0	702545920	44	4093
2026-01-10 02:11:30.94	9.76	18.83	-36.1	-37.5	17.2	0.00e+00	0	54	0	708837376	44	4098
2026-01-10 02:11:31.95	9.71	18.96	-36.1	-37.5	17.3	0.00e+00	0	54	0	714080256	44	4092
2026-01-10 02:11:32.96	9.66	19.08	-36.1	-37.6	17.2	0.00e+00	0	54	0	720371712	44	4100
2026-01-10 02:11:33.96	9.60	19.20	-36.0	-37.4	17.4	0.00e+00	0	54	0	725614592	44	4047
2026-01-10 02:11:34.97	9.55	19.33	-36.0	-37.5	17.3	0.00e+00	0	55	0	730857472	44	4056
2026-01-10 02:11:35.98	9.50	19.46	-35.8	-37.2	17.4	0.00e+00	0	54	0	737148928	43	4177
2026-01-10 02:11:36.98	9.45	19.58	-35.7	-37.2	17.5	0.00e+00	0	54	0	742391808	43	4147
2026-01-10 02:11:37.99	9.39	19.71	-35.8	-37.2	17.5	0.00e+00	0	54	0	747634688	43	4167
2026-01-10 02:11:39.00	9.34	19.83	-35.8	-37.2	17.5	0.00e+00	0	54	0	753926144	43	4166
2026-01-10 02:11:40.00	9.29	19.96	-35.7	-37.1	17.6	0.00e+00	0	55	0	759169024	43	4101
2026-01-10 02:11:41.01	9.23	20.09	-35.7	-37.1	17.6	0.00e+00	0	54	0	765460480	43	4111
2026-01-10 02:11:42.02	9.17	20.22	-35.7	-37.1	17.6	0.00e+00	0	54	0	770703360	43	4117
2026-01-10 02:11:43.03	9.12	20.35	-35.7	-37.1	17.6	0.00e+00	0	54	0	775946240	43	4111
2026-01-10 02:11:44.03	9.06	20.48	-35.7	-37.1	17.6	0.00e+00	0	54	0	782237696	43	4118
2026-01-10 02:11:45.04	9.01	20.61	-35.7	-37.1	17.5	0.00e+00	0	54	0	787480576	43	4137
2026-01-10 02:11:46.05	8.95	20.74	-35.7	-37.1	17.6	0.00e+00	0	54	0	793772032	43	4115
2026-01-10 02:11:47.05	8.89	20.87	-35.6	-37.0	17.6	0.00e+00	0	55	0	799014912	43	4096
2026-01-10 02:11:48.06	8.83	21.01	-35.6	-37.0	17.6	0.00e+00	0	55	0	805306368	43	4080
2026-01-10 02:11:49.07	8.77	21.14	-35.6	-36.9	17.7	0.00e+00	0	54	0	810549248	43	4051
2026-01-10 02:11:50.08	8.71	21.28	-35.5	-36.9	17.8	0.00e+00	0	55	0	815792128	43	4031
2026-01-10 02:11:51.08	8.65	21.41	-35.5	-36.8	17.9	0.00e+00	0	55	0	822083584	42	4239
2026-01-10 02:11:52.09	8.59	21.55	-35.4	-36.7	17.9	0.00e+00	0	55	0	827326464	42	4186
2026-01-10 02:11:53.10	8.53	21.68	-35.3	-36.6	18.1	0.00e+00	0	54	0	832569344	42	4134
2026-01-10 02:11:54.10	8.47	21.82	-35.2	-36.5	18.2	0.00e+00	0	54	0	838860800	42	4078
2026-01-10 02:11:55.11	8.41	21.96	-35.1	-36.4	18.3	0.00e+00	0	55	0	844103680	42	4026
2026-01-10 02:11:56.11	8.34	22.09	-35.1	-36.3	18.3	0.00e+00	0	55	0	850395136	42	4001
2026-01-10 02:11:57.12	8.28	22.23	-34.9	-36.2	18.5	0.00e+00	0	55	0	855638016	41	4181
2026-01-10 02:11:58.13	8.22	22.37	-34.9	-36.2	18.5	0.00e+00	0	55	0	860880896	41	4169
2026-01-10 02:11:59.13	8.15	22.51	-34.9	-36.1	18.5	0.00e+00	0	55	0	867172352	41	4143
2026-01-10 02:12:00.13	8.09	22.65	-34.9	-36.2	18.5	0.00e+00	0	55	0	872415232	41	4172
2026-01-10 02:12:01.12	8.02	22.79	-34.8	-36.1	18.6	0.00e+00	0	55	0	878706688	41	4125
2026-01-10 02:12:02.13	7.95	22.94	-34.9	-36.1	18.6	0.00e+00	0	55	0	883949568	41	4138
2026-01-10 02:12:03.14	7.89	23.08	-34.9	-36.2	18.5	0.00e+00	0	55	0	889192448	41	4168
2026-01-10 02:12:04.14	7.82	23.23	-34.9	-36.2	18.6	0.00e+00	0	55	0	895483904	41	4149
2026-01-10 02:12:05.15	7.75	23.37	-34.8	-36.1	18.6	0.00e+00	0	55	0	900726784	41	4127
2026-01-10 02:12:06.16	7.68	23.52	-34.8	-36.1	18.6	0.00e+00	0	55	0	907018240	41	4125
2026-01-10 02:12:07.17	7.61	23.66	-34.8	-36.1	18.6	0.00e+00	0	55	0	912261120	41	4110
2026-01-10 02:12:08.17	7.54	23.81	-34.8	-36.1	18.7	0.00e+00	0	55	0	917504000	41	4112
2026-01-10 02:12:09.18	7.47	23.96	-34.8	-36.1	18.6	0.00e+00	0	54	0	923795456	41	4122
2026-01-10 02:12:10.19	7.40	24.11	-34.8	-36.1	18.7	0.00e+00	0	55	0	929038336	41	4115
2026-01-10 02:12:11.19	7.32	24.26	-34.8	-36.1	18.6	0.00e+00	0	55	0	934281216	41	4128
2026-01-10 02:12:12.20	7.25	24.41	-34.8	-36.1	18.7	0.00e+00	0	54	0	940572672	41	4099
2026-01-10 02:12:13.21	7.18	24.56	-34.8	-36.1	18.7	0.00e+00	0	55	0	945815552	41	4119
2026-01-10 02:12:14.21	7.10	24.71	-34.8	-36.1	18.7	0.00e+00	0	55	0	952107008	41	4099
2026-01-10 02:12:15.22	7.02	24.87	-34.8	-36.1	18.7	0.00e+00	0	55	0	957349888	41	4115
2026-01-10 02:12:16.23	6.95	25.02	-34.7	-36.0	18.8	0.00e+00	0	55	0	963641344	41	4066
2026-01-10 02:12:17.23	6.87	25.18	-34.8	-36.0	18.7	0.00e+00	0	55	0	968884224	41	4098
2026-01-10 02:12:18.24	6.79	25.33	-34.7	-35.9	18.8	0.00e+00	0	55	0	974127104	41	4044
2026-01-10 02:12:19.24	6.71	25.49	-34.6	-35.9	18.9	0.00e+00	0	55	0	980418560	41	4025
2026-01-10 02:12:20.25	6.63	25.64	-34.6	-35.9	18.9	0.00e+00	0	55	0	985661440	41	4026
2026-01-10 02:12:21.26	6.55	25.80	-34.6	-35.9	18.9	0.00e+00	0	55	0	991952896	41	4027
2026-01-10 02:12:22.27	6.47	25.96	-34.6	-35.9	18.9	0.00e+00	0	55	0	997195776	41	4026
2026-01-10 02:12:23.27	6.39	26.12	-34.7	-35.9	18.9	0.00e+00	0	55	0	1002438656	41	4031
2026-01-10 02:12:24.28	6.31	26.28	-34.7	-35.9	18.9	0.00e+00	0	55	0	1008730112	41	4027
2026-01-10 02:12:25.29	6.22	26.45	-34.6	-35.9	18.9	0.00e+00	0	55	0	1013972992	41	4007
2026-01-10 02:12:26.30	6.14	26.61	-34.6	-35.9	18.9	0.00e+00	0	55	0	1019215872	41	4020
2026-01-10 02:12:27.31	6.05	26.77	-34.6	-35.9	18.9	0.00e+00	0	55	0	1025507328	41	4016
2026-01-10 02:12:28.32	5.96	26.94	-34.6	-35.9	18.9	0.00e+00	0	55	0	1030750208	41	4024
2026-01-10 02:12:29.33	5.87	27.11	-34.7	-36.0	18.8	0.00e+00	0	55	0	1037041664	41	4078
2026-01-10 02:12:30.34	5.78	27.27	-34.8	-36.1	18.8	0.00e+00	0	55	0	1042284544	41	4099
2026-01-10 02:12:31.34	5.70	27.44	-34.8	-36.1	18.7	0.00e+00	0	55	0	1048576000	41	4121
2026-01-10 02:12:32.35	5.60	27.61	-34.9	-36.1	18.7	0.00e+00	0	55	0	1053818880	41	4133
2026-01-10 02:12:33.36	5.51	27.78	-34.8	-36.1	18.7	0.00e+00	0	55	0	1060110336	41	4114
2026-01-10 02:12:34.37	5.42	27.95	-34.7	-36.0	18.9	0.00e+00	0	55	0	1065353216	41	4053
2026-01-10 02:12:35.38	5.32	28.12	-34.7	-35.9	18.9	0.00e+00	0	55	0	1070596096	41	4038
2026-01-10 02:12:36.39	5.23	28.29	-34.6	-35.8	19.0	0.00e+00	0	55	0	1076887552	41	3990
2026-01-10 02:12:37.40	5.13	28.47	-34.5	-35.7	19.2	0.00e+00	0	55	0	1082130432	40	4156
2026-01-10 02:12:38.40	5.04	28.64	-34.4	-35.6	19.2	0.00e+00	0	55	0	1087373312	40	4143
2026-01-10 02:12:39.41	4.94	28.82	-34.3	-35.6	19.3	0.00e+00	0	55	0	1093664768	40	4099
2026-01-10 02:12:40.41	4.84	28.99	-34.3	-35.6	19.3	0.00e+00	0	55	0	1098907648	40	4101
2026-01-10 02:12:41.42	4.74	29.17	-34.4	-35.6	19.2	0.00e+00	0	55	0	1105199104	40	4120
2026-01-10 02:12:42.43	4.64	29.35	-34.4	-35.6	19.2	0.00e+00	0	55	0	1110441984	40	4127
2026-01-10 02:12:43.43	4.53	29.53	-34.4	-35.6	19.3	0.00e+00	0	55	0	1115684864	40	4119
2026-01-10 02:12:44.44	4.43	29.71	-34.3	-35.5	19.3	0.00e+00	0	55	0	1121976320	40	4082
2026-01-10 02:12:45.45	4.32	29.89	-34.3	-35.4	19.4	0.00e+00	0	55	0	1127219200	40	4049
2026-01-10 02:12:46.45	4.22	30.07	-34.2	-35.4	19.5	0.00e+00	0	55	0	1133510656	40	4023
2026-01-10 02:12:47.46	4.11	30.25	-34.1	-35.3	19.5	0.00e+00	0	55	0	1138753536	40	3992
2026-01-10 02:12:48.46	4.00	30.44	-34.2	-35.3	19.5	0.00e+00	0	55	0	1145044992	40	4004
2026-01-10 02:12:49.47	3.89	30.62	-34.2	-35.3	19.5	0.00e+00	0	55	0	1150287872	40	4004
2026-01-10 02:12:50.48	3.78	30.81	-34.2	-35.4	19.5	0.00e+00	0	55	0	1155530752	40	4009
2026-01-10 02:12:51.48	3.67	31.00	-34.2	-35.4	19.5	0.00e+00	0	55	0	1161822208	40	4021
2026-01-10 02:12:52.49	3.55	31.19	-34.2	-35.4	19.5	0.00e+00	0	55	0	1167065088	40	4036
2026-01-10 02:12:53.49	3.44	31.38	-34.2	-35.4	19.5	0.00e+00	0	55	0	1172307968	40	4038
2026-01-10 02:12:54.50	3.32	31.57	-34.2	-35.4	19.5	0.00e+00	0	55	0	1178599424	40	4037
2026-01-10 02:12:55.52	3.20	31.76	-34.1	-35.3	19.6	0.00e+00	0	55	0	1183842304	40	3994
2026-01-10 02:12:56.52	3.08	31.96	-34.0	-35.2	19.7	0.00e+00	0	55	0	1190133760	40	3950
2026-01-10 02:12:57.53	2.96	32.15	-34.0	-35.2	19.7	0.00e+00	0	55	0	1195376640	40	3928
2026-01-10 02:12:58.54	2.84	32.35	-34.0	-35.2	19.8	0.00e+00	0	55	0	1200619520	39	4174
2026-01-10 02:12:59.55	2.71	32.54	-34.1	-35.3	19.7	0.00e+00	0	55	0	1206910976	39	4199
2026-01-10 02:13:00.56	2.58	32.74	-34.2	-35.3	19.7	0.00e+00	0	55	0	1212153856	39	4232
2026-01-10 02:13:01.57	2.46	32.94	-34.2	-35.4	19.6	0.00e+00	0	55	0	1218445312	39	4244
2026-01-10 02:13:02.57	2.33	33.14	-34.2	-35.4	19.6	0.00e+00	0	55	0	1223688192	39	4253
2026-01-10 02:13:03.58	2.20	33.34	-34.2	-35.3	19.7	0.00e+00	0	55	0	1229979648	39	4237
2026-01-10 02:13:04.59	2.06	33.55	-34.1	-35.3	19.7	0.00e+00	0	55	0	1235222528	39	4202
2026-01-10 02:13:05.59	1.93	33.75	-34.1	-35.3	19.7	0.00e+00	0	55	0	1240465408	39	4204
2026-01-10 02:13:06.60	1.79	33.96	-34.1	-35.3	19.7	0.00e+00	0	55	0	1246756864	39	4202
2026-01-10 02:13:07.60	1.66	34.16	-34.1	-35.3	19.7	0.00e+00	0	55	0	1251999744	39	4223
2026-01-10 02:13:08.61	1.51	34.37	-34.1	-35.3	19.7	0.00e+00	0	55	0	1258291200	39	4224
2026-01-10 02:13:09.62	1.37	34.58	-34.2	-35.4	19.6	0.00e+00	0	55	0	1263534080	39	4255
2026-01-10 02:13:10.63	1.23	34.79	-34.2	-35.4	19.6	0.00e+00	0	55	0	1268776960	39	4246
2026-01-10 02:13:11.64	1.08	35.00	-34.1	-35.3	19.7	0.00e+00	0	55	0	1275068416	39	4230
2026-01-10 02:13:12.65	0.94	35.21	-34.1	-35.3	19.7	0.00e+00	0	55	0	1280311296	39	4215
2026-01-10 02:13:13.66	0.79	35.43	-34.1	-35.3	19.7	0.00e+00	0	55	0	1286602752	39	4203
2026-01-10 02:13:14.67	0.63	35.64	-34.1	-35.3	19.8	0.00e+00	0	55	0	1291845632	39	4203
2026-01-10 02:13:15.68	0.48	35.86	-34.1	-35.3	19.7	0.00e+00	0	55	0	1297088512	39	4228
2026-01-10 02:13:16.69	0.32	36.08	-34.2	-35.4	19.7	0.00e+00	0	55	0	1303379968	39	4243
2026-01-10 02:13:17.70	0.17	36.29	-34.2	-35.4	19.6	0.00e+00	0	55	0	1308622848	39	4256
2026-01-10 02:13:18.71	0.01	36.51	-34.1	-35.3	19.7	0.00e+00	0	55	0	1314914304	39	4228
2026-01-10 02:13:19.72	359.84	36.74	-34.0	-35.2	19.8	0.00e+00	0	55	0	1320157184	39	4163
2026-01-10 02:13:20.73	359.68	36.96	-34.0	-35.2	19.8	0.00e+00	0	55	0	1326448640	39	4167
2026-01-10 02:13:21.74	359.51	37.18	-34.1	-35.3	19.8	0.00e+00	0	55	0	1331691520	39	4197
2026-01-10 02:13:22.74	359.34	37.41	-34.2	-35.4	19.7	0.00e+00	0	55	0	1336934400	39	4247
2026-01-10 02:13:23.75	359.17	37.63	-34.3	-35.4	19.6	0.00e+00	0	55	0	1343225856	39	4289
2026-01-10 02:13:24.76	359.00	37.86	-34.2	-35.3	19.7	0.00e+00	0	55	0	1348468736	39	4229
2026-01-10 02:13:25.76	358.82	38.09	-34.1	-35.3	19.8	0.00e+00	0	55	0	1354760192	39	4196
2026-01-10 02:13:26.77	358.64	38.32	-34.1	-35.2	19.8	0.00e+00	0	55	0	1360003072	39	4186
2026-01-10 02:13:27.78	358.46	38.55	-34.2	-35.4	19.7	0.00e+00	0	55	0	1365245952	39	4251
2026-01-10 02:13:28.78	358.28	38.78	-34.3	-35.5	19.6	0.00e+00	0	55	0	1371537408	39	4308
2026-01-10 02:13:29.79	358.09	39.01	-34.4	-35.6	19.5	0.00e+00	0	55	0	1376780288	39	4341
2026-01-10 02:13:30.79	357.90	39.25	-34.4	-35.6	19.4	0.00e+00	0	55	0	1382023168	39	4366
2026-01-10 02:13:31.80	357.71	39.48	-34.4	-35.6	19.5	0.00e+00	0	55	0	1388314624	39	4373
2026-01-10 02:13:32.81	357.51	39.72	-34.3	-35.5	19.6	0.00e+00	0	55	0	1393557504	39	4329
2026-01-10 02:13:33.81	357.32	39.96	-34.4	-35.6	19.4	0.00e+00	0	55	0	1399848960	39	4390
2026-01-10 02:13:34.82	357.11	40.20	-34.5	-35.8	19.3	0.00e+00	0	56	0	1405091840	39	4450
2026-01-10 02:13:35.83	356.91	40.44	-34.6	-35.8	19.2	0.00e+00	0	55	0	1411383296	39	4486
2026-01-10 02:13:36.84	356.70	40.68	-34.5	-35.8	19.3	0.00e+00	0	55	0	1416626176	39	4444
2026-01-10 02:13:37.85	356.49	40.92	-34.5	-35.7	19.4	0.00e+00	0	56	0	1421869056	39	4421
2026-01-10 02:13:38.85	356.28	41.17	-34.5	-35.8	19.3	0.00e+00	0	55	0	1428160512	39	4442
2026-01-10 02:13:39.86	356.06	41.41	-34.6	-35.8	19.3	0.00e+00	0	55	0	1433403392	39	4465
2026-01-10 02:13:40.87	355.84	41.66	-34.6	-35.8	19.3	0.00e+00	0	55	0	1439694848	39	4471
2026-01-10 02:13:41.87	355.62	41.91	-34.5	-35.7	19.4	0.00e+00	0	55	0	1444937728	39	4395
2026-01-10 02:13:42.88	355.39	42.16	-34.3	-35.5	19.6	0.00e+00	0	55	0	1450180608	39	4331
2026-01-10 02:13:43.89	355.16	42.41	-34.4	-35.6	19.5	0.00e+00	0	55	0	1456472064	39	4343
2026-01-10 02:13:44.90	354.92	42.66	-34.5	-35.7	19.5	0.00e+00	0	56	0	1461714944	39	4394
2026-01-10 02:13:45.90	354.68	42.91	-34.6	-35.8	19.3	0.00e+00	0	55	0	1468006400	39	4461
2026-01-10 02:13:46.91	354.44	43.16	-34.6	-35.8	19.4	0.00e+00	0	55	0	1473249280	39	4447
2026-01-10 02:13:47.92	354.19	43.42	-34.5	-35.7	19.4	0.00e+00	0	55	0	1478492160	39	4435
2026-01-10 02:13:48.93	353.94	43.68	-34.5	-35.7	19.4	0.00e+00	0	55	0	1484783616	39	4415
2026-01-10 02:13:49.93	353.69	43.93	-34.5	-35.7	19.4	0.00e+00	0	55	0	1490026496	39	4422
2026-01-10 02:13:50.94	353.43	44.19	-34.5	-35.7	19.4	0.00e+00	0	55	0	1496317952	39	4429
2026-01-10 02:13:51.95	353.17	44.45	-34.5	-35.7	19.4	0.00e+00	0	55	0	1501560832	39	4416
2026-01-10 02:13:52.95	352.90	44.71	-34.6	-35.8	19.3	0.00e+00	0	56	0	1507852288	39	4466
2026-01-10 02:13:53.96	352.63	44.97	-34.7	-35.9	19.2	0.00e+00	0	56	0	1513095168	39	4534
2026-01-10 02:13:54.96	352.35	45.23	-34.6	-35.8	19.2	0.00e+00	0	55	0	1518338048	40	4239
2026-01-10 02:13:55.97	352.07	45.49	-34.6	-35.8	19.3	0.00e+00	0	56	0	1524629504	40	4205
2026-01-10 02:13:56.98	351.78	45.76	-34.5	-35.7	19.4	0.00e+00	0	55	0	1529872384	40	4149
2026-01-10 02:13:57.99	351.49	46.02	-34.4	-35.6	19.5	0.00e+00	0	55	0	1535115264	40	4103
2026-01-10 02:13:58.99	351.20	46.29	-34.2	-35.3	19.7	0.00e+00	0	56	0	1541406720	40	4004
2026-01-10 02:14:00.00	350.90	46.55	-34.3	-35.5	19.6	0.00e+00	0	56	0	1546649600	40	4052
2026-01-10 02:14:01.00	350.59	46.82	-34.4	-35.6	19.5	0.00e+00	0	56	0	1551892480	40	4110
2026-01-10 02:14:02.01	350.28	47.09	-34.6	-35.8	19.3	0.00e+00	0	56	0	1558183936	40	4218
2026-01-10 02:14:03.01	349.97	47.36	-34.7	-35.9	19.2	0.00e+00	0	55	0	1563426816	40	4278
2026-01-10 02:14:04.02	349.64	47.63	-34.7	-35.9	19.2	0.00e+00	0	56	0	1569718272	40	4267
2026-01-10 02:14:05.03	349.31	47.90	-34.7	-35.9	19.2	0.00e+00	0	55	0	1574961152	40	4260
2026-01-10 02:14:06.03	348.98	48.17	-34.7	-35.9	19.2	0.00e+00	0	56	0	1581252608	40	4277
2026-01-10 02:14:07.04	348.64	48.44	-34.7	-35.9	19.2	0.00e+00	0	55	0	1586495488	40	4279
2026-01-10 02:14:08.05	348.29	48.71	-34.8	-36.1	19.0	0.00e+00	0	55	0	1591738368	40	4349
2026-01-10 02:14:09.05	347.94	48.98	-35.0	-36.3	18.9	0.00e+00	0	55	0	1598029824	40	4449
2026-01-10 02:14:10.06	347.59	49.26	-35.0	-36.2	18.9	0.00e+00	0	55	0	1603272704	40	4415
2026-01-10 02:14:11.07	347.22	49.53	-34.8	-36.0	19.1	0.00e+00	0	55	0	1609564160	40	4306
2026-01-10 02:14:12.08	346.85	49.81	-34.7	-35.9	19.2	0.00e+00	0	55	0	1614807040	40	4272
2026-01-10 02:14:13.09	346.47	50.08	-35.1	-36.3	18.8	0.00e+00	0	55	0	1620049920	40	4483
2026-01-10 02:14:14.10	346.08	50.36	-35.3	-36.7	18.5	0.00e+00	0	56	0	1626341376	41	4395
2026-01-10 02:14:15.11	345.69	50.63	-35.4	-36.7	18.4	0.00e+00	0	55	0	1631584256	41	4433
2026-01-10 02:14:16.12	345.28	50.91	-35.4	-36.7	18.5	0.00e+00	0	55	0	1637875712	41	4403
2026-01-10 02:14:17.13	344.87	51.19	-35.3	-36.6	18.5	0.00e+00	0	55	0	1643118592	41	4381
2026-01-10 02:14:18.14	344.46	51.46	-35.2	-36.5	18.7	0.00e+00	0	56	0	1648361472	41	4304
2026-01-10 02:14:19.15	344.03	51.74	-35.2	-36.5	18.6	0.00e+00	0	55	0	1654652928	41	4319
2026-01-10 02:14:20.16	343.60	52.02	-35.2	-36.4	18.7	0.00e+00	0	55	0	1659895808	41	4287
2026-01-10 02:14:21.16	343.17	52.29	-35.1	-36.3	18.8	0.00e+00	0	56	0	1666187264	41	4226
2026-01-10 02:14:22.17	342.72	52.56	-34.9	-36.1	19.0	0.00e+00	0	56	0	1671430144	41	4129
2026-01-10 02:14:23.17	342.26	52.84	-34.9	-36.2	19.0	0.00e+00	0	56	0	1677721600	41	4152
2026-01-10 02:14:24.18	341.80	53.11	-35.1	-36.3	18.8	0.00e+00	0	55	0	1682964480	41	4230
2026-01-10 02:14:25.19	341.32	53.39	-35.5	-36.8	18.4	0.00e+00	0	56	0	1688207360	41	4454
2026-01-10 02:14:26.20	340.84	53.66	-35.7	-37.1	18.1	0.00e+00	0	55	0	1694498816	41	4599
2026-01-10 02:14:27.20	340.35	53.93	-35.6	-36.9	18.2	0.00e+00	0	56	0	1699741696	42	4286
2026-01-10 02:14:28.21	339.85	54.20	-35.2	-36.5	18.6	0.00e+00	0	56	0	1706033152	42	4075
2026-01-10 02:14:29.22	339.33	54.48	-35.1	-36.3	18.8	0.00e+00	0	56	0	1711276032	42	3992
2026-01-10 02:14:30.22	338.82	54.74	-34.8	-36.0	19.1	0.00e+00	0	56	0	1716518912	41	4091
2026-01-10 02:14:31.23	338.28	55.01	-34.8	-36.0	19.1	0.00e+00	0	56	0	1722810368	41	4087
2026-01-10 02:14:32.24	337.74	55.28	-34.8	-36.0	19.1	0.00e+00	0	56	0	1728053248	41	4084
2026-01-10 02:14:33.25	337.19	55.55	-35.0	-36.2	18.9	0.00e+00	0	56	0	1733296128	41	4183
2026-01-10 02:14:34.25	336.63	55.81	-35.1	-36.4	18.8	0.00e+00	0	56	0	1739587584	41	4256
2026-01-10 02:14:35.26	336.05	56.08	-35.0	-36.3	18.8	0.00e+00	0	56	0	1744830464	41	4214
2026-01-10 02:14:36.26	335.47	56.34	-34.8	-36.1	18.7	0.00e+00	0	56	0	1751121920	41	4131
2026-01-10 02:14:37.27	334.88	56.60	-34.8	-36.2	18.6	0.00e+00	0	55	0	1756364800	41	4163
2026-01-10 02:14:38.27	334.28	56.86	-34.9	-36.3	18.5	0.00e+00	0	56	0	1762656256	41	4233
2026-01-10 02:14:39.28	333.66	57.12	-34.9	-36.3	18.5	0.00e+00	0	56	0	1767899136	41	4239
2026-01-10 02:14:40.29	333.02	57.37	-34.7	-36.1	18.7	0.00e+00	0	56	0	1773142016	41	4100
2026-01-10 02:14:41.30	332.38	57.62	-34.7	-36.1	18.7	0.00e+00	0	56	0	1779433472	41	4122
2026-01-10 02:14:42.30	331.73	57.87	-34.9	-36.3	18.5	0.00e+00	0	56	0	1784676352	41	4196
2026-01-10 02:14:43.31	331.06	58.12	-34.7	-36.0	18.8	0.00e+00	0	56	0	1790967808	41	4094
2026-01-10 02:14:44.31	330.39	58.36	-34.6	-35.9	18.9	0.00e+00	0	56	0	1796210688	41	4017
2026-01-10 02:14:45.32	329.70	58.61	-34.5	-35.8	19.0	0.00e+00	0	56	0	1801453568	40	4221
2026-01-10 02:14:46.33	328.99	58.85	-34.6	-35.9	18.9	0.00e+00	0	56	0	1807745024	40	4268
2026-01-10 02:14:47.33	328.28	59.08	-34.8	-36.1	18.7	0.00e+00	0	56	0	1812987904	40	4382
2026-01-10 02:14:48.34	327.55	59.31	-34.7	-36.1	18.7	0.00e+00	0	56	0	1818230784	40	4376
2026-01-10 02:14:49.34	326.81	59.54	-34.4	-35.8	19.0	0.00e+00	0	56	0	1824522240	40	4195
2026-01-10 02:14:50.35	326.05	59.77	-34.3	-35.6	19.2	0.00e+00	0	56	0	1829765120	40	4108
2026-01-10 02:14:51.36	325.28	59.99	-34.5	-35.8	19.0	0.00e+00	0	56	0	1836056576	40	4213
2026-01-10 02:14:52.36	324.50	60.21	-34.6	-35.9	18.8	0.00e+00	0	56	0	1841299456	40	4287
2026-01-10 02:14:53.37	323.70	60.42	-34.7	-36.1	18.7	0.00e+00	0	56	0	1847590912	40	4364
2026-01-10 02:14:54.38	322.89	60.63	-34.7	-36.1	18.7	0.00e+00	0	56	0	1852833792	40	4364
2026-01-10 02:14:55.39	322.07	60.84	-34.5	-35.8	18.9	0.00e+00	0	56	0	1858076672	40	4222
2026-01-10 02:14:56.40	321.23	61.04	-34.6	-35.9	18.8	0.00e+00	0	56	0	1864368128	40	4279
2026-01-10 02:14:57.41	320.38	61.23	-34.6	-36.0	18.8	0.00e+00	0	56	0	1869611008	40	4292
2026-01-10 02:14:58.41	319.52	61.42	-34.4	-35.7	19.1	0.00e+00	0	56	0	1875902464	40	4160
2026-01-10 02:14:59.42	318.64	61.61	-34.3	-35.6	19.1	0.00e+00	0	56	0	1881145344	40	4141
2026-01-10 02:15:00.43	317.75	61.79	-34.6	-35.9	18.8	0.00e+00	0	56	0	1886388224	40	4291
2026-01-10 02:15:01.43	316.85	61.96	-34.4	-35.8	19.0	0.00e+00	0	56	0	1892679680	40	4210
2026-01-10 02:15:02.44	315.94	62.13	-34.1	-35.4	19.3	0.00e+00	0	56	0	1897922560	40	4021
2026-01-10 02:15:03.44	315.02	62.29	-34.3	-35.6	19.1	0.00e+00	0	56	0	1903165440	40	4118
2026-01-10 02:15:04.45	314.07	62.45	-34.2	-35.6	19.2	0.00e+00	0	56	0	1909456896	40	4099
2026-01-10 02:15:05.46	313.12	62.60	-34.2	-35.5	19.2	0.00e+00	0	56	0	1914699776	40	4068
2026-01-10 02:15:06.46	312.16	62.74	-34.0	-35.3	19.4	0.00e+00	0	56	0	1920991232	40	3971
2026-01-10 02:15:07.47	311.18	62.88	-33.8	-35.0	19.8	0.00e+00	0	56	0	1926234112	39	4079
2026-01-10 02:15:08.48	310.20	63.01	-33.9	-35.1	19.7	0.00e+00	0	56	0	1932525568	39	4131
2026-01-10 02:15:09.49	309.20	63.13	-34.0	-35.2	19.5	0.00e+00	0	56	0	1937768448	39	4193
2026-01-10 02:15:10.50	308.19	63.25	-33.8	-35.1	19.6	0.00e+00	0	56	0	1943011328	39	4125
2026-01-10 02:15:11.50	307.18	63.36	-33.6	-34.8	19.9	0.00e+00	0	56	0	1949302784	39	3991
2026-01-10 02:15:12.51	306.15	63.46	-33.8	-35.0	19.7	0.00e+00	0	56	0	1954545664	39	4092
2026-01-10 02:15:13.52	305.11	63.55	-33.6	-34.9	19.9	0.00e+00	0	56	0	1960837120	39	4016
2026-01-10 02:15:14.53	304.07	63.64	-33.4	-34.6	20.1	0.00e+00	0	56	0	1966080000	38	4144
2026-01-10 02:15:15.53	303.03	63.72	-33.5	-34.7	20.0	0.00e+00	0	56	0	1971322880	38	4150
2026-01-10 02:15:16.54	301.97	63.79	-33.4	-34.6	20.1	0.00e+00	0	56	0	1977614336	38	4136
2026-01-10 02:15:17.55	300.90	63.85	-33.2	-34.4	20.3	0.00e+00	0	56	0	1982857216	38	4009
2026-01-10 02:15:18.56	299.83	63.91	-33.3	-34.5	20.2	0.00e+00	0	56	0	1989148672	38	4065
2026-01-10 02:15:19.56	298.77	63.95	-33.5	-34.8	19.9	0.00e+00	0	56	0	1994391552	38	4196
2026-01-10 02:15:20.57	297.69	63.99	-33.3	-34.5	20.2	0.00e+00	0	56	0	1999634432	38	4082
2026-01-10 02:15:21.57	296.61	64.02	-33.2	-34.4	20.3	0.00e+00	0	56	0	2005925888	38	4005
2026-01-10 02:15:22.58	295.53	64.05	-33.2	-34.4	20.3	0.00e+00	0	56	0	2011168768	38	4032
2026-01-10 02:15:23.59	294.44	64.06	-33.4	-34.6	20.1	0.00e+00	0	56	0	2017460224	38	4128
2026-01-10 02:15:24.59	293.36	64.07	-33.5	-34.7	20.0	0.00e+00	0	56	0	2022703104	38	4178
2026-01-10 02:15:25.60	292.28	64.06	-33.4	-34.6	20.1	0.00e+00	0	56	0	2027945984	38	4132
2026-01-10 02:15:26.61	291.19	64.05	-33.3	-34.5	20.1	0.00e+00	0	56	0	2034237440	38	4098
2026-01-10 02:15:27.61	290.11	64.03	-33.3	-34.5	20.2	0.00e+00	0	56	0	2039480320	38	4076
2026-01-10 02:15:28.62	289.03	64.00	-33.1	-34.3	20.3	0.00e+00	0	56	0	2045771776	38	4004
2026-01-10 02:15:29.63	287.95	63.97	-33.1	-34.3	20.4	0.00e+00	0	56	0	2051014656	38	3992
2026-01-10 02:15:30.63	286.88	63.92	-33.3	-34.5	20.2	0.00e+00	0	56	0	2056257536	38	4063
2026-01-10 02:15:31.64	285.81	63.87	-33.4	-34.6	20.2	0.00e+00	0	56	0	2062548992	38	4101
2026-01-10 02:15:32.65	284.74	63.81	-33.3	-34.5	20.2	0.00e+00	0	56	0	2067791872	38	4087
2026-01-10 02:15:33.65	283.69	63.74	-33.4	-34.7	20.0	0.00e+00	0	56	0	2074083328	38	4160
2026-01-10 02:15:34.66	282.63	63.67	-33.4	-34.6	20.1	0.00e+00	0	56	0	2079326208	38	4129
2026-01-10 02:15:35.67	281.59	63.58	-33.2	-34.4	20.3	0.00e+00	0	56	0	2084569088	38	4019
2026-01-10 02:15:36.67	280.56	63.49	-33.3	-34.5	20.2	0.00e+00	0	56	0	2090860544	38	4060
2026-01-10 02:15:37.68	279.52	63.39	-33.6	-34.8	19.9	0.00e+00	0	56	0	2096103424	38	4226
2026-01-10 02:15:38.69	278.50	63.29	-33.6	-34.8	19.9	0.00e+00	0	56	0	2102394880	38	4234
2026-01-10 02:15:39.70	277.49	63.17	-33.4	-34.6	20.1	0.00e+00	0	56	0	2107637760	38	4118
2026-01-10 02:15:40.71	276.48	63.05	-33.3	-34.5	20.2	0.00e+00	0	56	0	2113929216	38	4061
2026-01-10 02:15:41.72	275.49	62.92	-33.4	-34.6	20.1	0.00e+00	0	56	0	2119172096	38	4107
2026-01-10 02:15:42.72	274.52	62.79	-33.8	-35.0	19.7	0.00e+00	0	56	0	2124414976	38	4337
2026-01-10 02:15:43.73	273.55	62.65	-33.8	-35.0	19.8	0.00e+00	0	56	0	2130706432	38	4322
2026-01-10 02:15:44.74	272.59	62.50	-33.7	-34.9	19.8	0.00e+00	0	56	0	2135949312	38	4287
2026-01-10 02:15:45.75	271.64	62.34	-33.8	-35.1	19.6	0.00e+00	0	56	0	2142240768	38	4365
2026-01-10 02:15:46.76	270.71	62.18	-34.0	-35.3	19.4	0.00e+00	0	56	0	2147483648	38	4489
2026-01-10 02:15:47.77	269.78	62.01	-33.9	-35.1	19.5	0.00e+00	0	56	0	2152726528	38	4381
2026-01-10 02:15:48.78	268.87	61.84	-33.9	-35.2	19.5	0.00e+00	0	56	0	2159017984	38	4401
2026-01-10 02:15:49.79	267.98	61.66	-33.9	-35.2	19.6	0.00e+00	0	56	0	2164260864	38	4392
2026-01-10 02:15:50.80	267.09	61.48	-33.7	-34.9	19.8	0.00e+00	0	56	0	2169503744	38	4280
2026-01-10 02:15:51.81	266.22	61.29	-33.7	-35.0	19.7	0.00e+00	0	56	0	2175795200	38	4300
2026-01-10 02:15:52.82	265.37	61.09	-34.0	-35.3	19.5	0.00e+00	0	56	0	2181038080	38	4455
2026-01-10 02:15:53.83	264.52	60.89	-34.2	-35.5	19.2	0.00e+00	0	56	0	2187329536	38	4586
2026-01-10 02:15:54.84	263.69	60.69	-34.1	-35.3	19.4	0.00e+00	0	56	0	2192572416	38	4490
2026-01-10 02:15:55.85	262.87	60.48	-33.8	-35.1	19.7	0.00e+00	0	56	0	2198863872	38	4355
2026-01-10 02:15:56.85	262.08	60.27	-33.8	-35.0	19.7	0.00e+00	0	56	0	2204106752	38	4330
2026-01-10 02:15:57.86	261.29	60.05	-34.1	-35.3	19.4	0.00e+00	0	56	0	2210398208	38	4486
2026-01-10 02:15:58.87	260.51	59.83	-34.2	-35.5	19.2	0.00e+00	0	56	0	2215641088	39	4317
2026-01-10 02:15:59.88	259.75	59.60	-34.1	-35.4	19.3	0.00e+00	0	56	0	2220883968	39	4272
2026-01-10 02:16:00.89	259.00	59.37	-34.0	-35.3	19.4	0.00e+00	0	56	0	2227175424	39	4210
2026-01-10 02:16:01.90	258.26	59.14	-34.0	-35.2	19.5	0.00e+00	0	56	0	2232418304	39	4176
2026-01-10 02:16:02.91	257.54	58.90	-34.1	-35.4	19.3	0.00e+00	0	56	0	2238709760	39	4267
2026-01-10 02:16:03.92	256.83	58.66	-34.2	-35.5	19.3	0.00e+00	0	56	0	2243952640	39	4309
2026-01-10 02:16:04.93	256.13	58.42	-33.9	-35.1	19.6	0.00e+00	0	56	0	2249195520	39	4141
2026-01-10 02:16:05.94	255.45	58.18	-34.2	-35.5	19.2	0.00e+00	0	56	0	2255486976	39	4307
2026-01-10 02:16:06.95	254.77	57.93	-34.6	-36.0	18.8	0.00e+00	0	56	0	2260729856	39	4552
2026-01-10 02:16:07.96	254.11	57.68	-34.4	-35.8	19.0	0.00e+00	0	56	0	2267021312	39	4444
2026-01-10 02:16:08.97	253.46	57.42	-34.1	-35.4	19.4	0.00e+00	0	56	0	2272264192	39	4253
2026-01-10 02:16:09.97	252.83	57.17	-34.3	-35.6	19.2	0.00e+00	0	56	0	2277507072	39	4348
2026-01-10 02:16:10.99	252.20	56.91	-34.7	-36.0	18.8	0.00e+00	0	56	0	2283798528	39	4578
2026-01-10 02:16:11.99	251.60	56.65	-34.7	-36.1	18.7	0.00e+00	0	56	0	2289041408	40	4341
2026-01-10 02:16:13.00	251.00	56.39	-34.3	-35.6	19.1	0.00e+00	0	56	0	2295332864	40	4115
2026-01-10 02:16:14.01	250.41	56.13	-34.4	-35.7	19.0	0.00e+00	0	56	0	2300575744	40	4175
2026-01-10 02:16:15.02	249.83	55.86	-34.7	-36.0	18.7	0.00e+00	0	56	0	2306867200	40	4317
2026-01-10 02:16:16.02	249.27	55.60	-34.7	-36.1	18.7	0.00e+00	0	56	0	2312110080	40	4355
2026-01-10 02:16:17.03	248.71	55.33	-34.6	-35.9	18.8	0.00e+00	0	56	0	2317352960	40	4270
2026-01-10 02:16:18.04	248.16	55.06	-34.4	-35.8	18.9	0.00e+00	0	56	0	2323644416	40	4201
2026-01-10 02:16:19.04	247.63	54.79	-34.5	-35.8	18.9	0.00e+00	0	56	0	2328887296	40	4228
2026-01-10 02:16:20.05	247.11	54.52	-34.7	-36.0	18.7	0.00e+00	0	56	0	2334130176	40	4327
2026-01-10 02:16:21.06	246.59	54.25	-34.7	-36.0	18.7	0.00e+00	0	56	0	2340421632	40	4335
2026-01-10 02:16:22.07	246.09	53.98	-34.8	-36.1	18.6	0.00e+00	0	56	0	2345664512	40	4370
2026-01-10 02:16:23.07	245.59	53.70	-34.5	-35.8	18.9	0.00e+00	0	56	0	2351955968	40	4231
2026-01-10 02:16:24.08	245.11	53.43	-34.4	-35.8	19.0	0.00e+00	0	56	0	2357198848	40	4198
2026-01-10 02:16:25.09	244.63	53.15	-34.3	-35.6	19.1	0.00e+00	0	56	0	2362441728	40	4133
2026-01-10 02:16:26.09	244.16	52.88	-34.2	-35.5	19.3	0.00e+00	0	56	0	2368733184	40	4058
2026-01-10 02:16:27.10	243.70	52.60	-34.1	-35.4	19.4	0.00e+00	0	56	0	2373976064	40	4010
2026-01-10 02:16:28.11	243.25	52.33	-34.3	-35.6	19.2	0.00e+00	0	56	0	2380267520	40	4099
2026-01-10 02:16:29.11	242.81	52.05	-34.4	-35.8	19.0	0.00e+00	0	56	0	2385510400	40	4196
2026-01-10 02:16:30.12	242.38	51.78	-34.4	-35.7	19.0	0.00e+00	0	56	0	2391801856	40	4180
2026-01-10 02:16:31.13	241.95	51.50	-34.4	-35.7	19.0	0.00e+00	0	56	0	2397044736	40	4152
2026-01-10 02:16:32.13	241.53	51.22	-34.4	-35.7	19.0	0.00e+00	0	56	0	2402287616	40	4167
2026-01-10 02:16:33.14	241.12	50.95	-34.4	-35.7	18.9	0.00e+00	0	56	0	2408579072	40	4184
2026-01-10 02:16:34.15	240.72	50.67	-34.4	-35.7	18.9	0.00e+00	0	56	0	2413821952	40	4186
2026-01-10 02:16:35.15	240.33	50.40	-34.3	-35.7	19.0	0.00e+00	0	56	0	2419064832	40	4146
2026-01-10 02:16:36.16	239.94	50.12	-34.2	-35.4	19.2	0.00e+00	0	56	0	2425356288	40	4050
2026-01-10 02:16:37.17	239.55	49.84	-34.1	-35.3	19.3	0.00e+00	0	56	0	2430599168	40	3994
2026-01-10 02:16:38.18	239.18	49.57	-34.0	-35.3	19.3	0.00e+00	0	56	0	2436890624	40	3987
2026-01-10 02:16:39.18	238.81	49.29	-34.1	-35.4	19.2	0.00e+00	0	56	0	2442133504	40	4037
2026-01-10 02:16:40.20	238.45	49.02	-34.2	-35.5	19.1	0.00e+00	0	56	0	2447376384	40	4078
2026-01-10 02:16:41.20	238.09	48.74	-34.1	-35.4	19.2	0.00e+00	0	56	0	2453667840	40	4029
2026-01-10 02:16:42.21	237.75	48.47	-34.0	-35.3	19.4	0.00e+00	0	56	0	2458910720	40	3964
2026-01-10 02:16:43.22	237.40	48.19	-34.0	-35.3	19.4	0.00e+00	0	56	0	2465202176	39	4198
2026-01-10 02:16:44.22	237.07	47.92	-34.0	-35.2	19.5	0.00e+00	0	56	0	2470445056	39	4180
2026-01-10 02:16:45.23	236.74	47.65	-33.9	-35.1	19.6	0.00e+00	0	56	0	2476736512	39	4145
2026-01-10 02:16:46.24	236.41	47.38	-33.8	-35.0	19.7	0.00e+00	0	56	0	2481979392	39	4076
2026-01-10 02:16:47.25	236.09	47.11	-33.6	-34.9	19.8	0.00e+00	0	56	0	2487222272	39	4012
2026-01-10 02:16:48.26	235.78	46.84	-33.5	-34.7	20.0	0.00e+00	0	56	0	2493513728	39	3937
2026-01-10 02:16:49.26	235.47	46.57	-33.5	-34.7	20.0	0.00e+00	0	56	0	2498756608	38	4164
2026-01-10 02:16:50.27	235.17	46.30	-33.5	-34.7	19.9	0.00e+00	0	56	0	2505048064	38	4187
2026-01-10 02:16:51.28	234.87	46.04	-33.6	-34.8	19.9	0.00e+00	0	56	0	2510290944	38	4224
2026-01-10 02:16:52.29	234.58	45.77	-33.7	-34.9	19.7	0.00e+00	0	56	0	2515533824	38	4274
2026-01-10 02:16:53.29	234.29	45.51	-33.6	-34.9	19.8	0.00e+00	0	56	0	2521825280	38	4258
2026-01-10 02:16:54.30	234.01	45.24	-33.6	-34.8	19.8	0.00e+00	0	56	0	2527068160	38	4223
2026-01-10 02:16:55.31	233.73	44.98	-33.5	-34.7	19.9	0.00e+00	0	56	0	2533359616	38	4181
2026-01-10 02:16:56.31	233.45	44.72	-33.5	-34.8	19.8	0.00e+00	0	56	0	2538602496	38	4197
2026-01-10 02:16:57.32	233.19	44.45	-33.6	-34.8	19.8	0.00e+00	0	56	0	2543845376	38	4230
2026-01-10 02:16:58.32	232.92	44.20	-33.7	-34.9	19.7	0.00e+00	0	56	0	2550136832	38	4275
2026-01-10 02:16:59.33	232.66	43.94	-33.7	-35.0	19.6	0.00e+00	0	56	0	2555379712	38	4311
2026-01-10 02:17:00.34	232.40	43.68	-33.6	-34.8	19.8	0.00e+00	0	56	0	2561671168	38	4221
2026-01-10 02:17:01.34	232.15	43.42	-33.5	-34.7	19.9	0.00e+00	0	56	0	2566914048	38	4152
2026-01-10 02:17:02.35	231.91	43.16	-33.4	-34.6	20.0	0.00e+00	0	56	0	2572156928	38	4118
2026-01-10 02:17:03.36	231.66	42.91	-33.4	-34.6	20.0	0.00e+00	0	56	0	2578448384	38	4111
2026-01-10 02:17:04.36	231.42	42.66	-33.3	-34.5	20.1	0.00e+00	0	56	0	2583691264	38	4093
2026-01-10 02:17:05.37	231.18	42.40	-33.4	-34.6	20.0	0.00e+00	0	56	0	2589982720	38	4103
2026-01-10 02:17:06.38	230.95	42.15	-33.5	-34.7	20.0	0.00e+00	0	56	0	2595225600	38	4155
2026-01-10 02:17:07.39	230.72	41.90	-33.6	-34.8	19.8	0.00e+00	0	56	0	2600468480	38	4220
2026-01-10 02:17:08.39	230.50	41.65	-33.6	-34.9	19.7	0.00e+00	0	56	0	2606759936	38	4268
2026-01-10 02:17:09.40	230.28	41.40	-33.8	-35.0	19.6	0.00e+00	0	56	0	2612002816	38	4332
2026-01-10 02:17:10.40	230.06	41.16	-33.7	-34.9	19.7	0.00e+00	0	56	0	2618294272	38	4282
2026-01-10 02:17:11.41	229.84	40.91	-33.5	-34.8	19.8	0.00e+00	0	56	0	2623537152	38	4198
2026-01-10 02:17:12.42	229.63	40.67	-33.4	-34.6	19.9	0.00e+00	0	56	0	2628780032	38	4130
2026-01-10 02:17:13.43	229.42	40.42	-33.4	-34.6	19.9	0.00e+00	0	56	0	2635071488	38	4142
2026-01-10 02:17:14.43	229.22	40.18	-33.4	-34.6	19.9	0.00e+00	0	56	0	2640314368	38	4134
2026-01-10 02:17:15.44	229.01	39.94	-33.4	-34.6	19.9	0.00e+00	0	56	0	2646605824	38	4130
2026-01-10 02:17:16.44	228.81	39.71	-33.3	-34.6	20.0	0.00e+00	0	56	0	2651848704	38	4108
2026-01-10 02:17:17.45	228.62	39.47	-33.3	-34.6	19.9	0.00e+00	0	56	0	2657091584	38	4102
2026-01-10 02:17:18.45	228.42	39.23	-33.4	-34.6	19.9	0.00e+00	0	56	0	2663383040	38	4126
2026-01-10 02:17:19.46	228.23	38.99	-33.4	-34.7	19.8	0.00e+00	0	56	0	2668625920	38	4156
2026-01-10 02:17:20.47	228.04	38.76	-33.5	-34.8	19.7	0.00e+00	0	56	0	2674917376	38	4199
2026-01-10 02:17:21.48	227.86	38.53	-33.5	-34.8	19.7	0.00e+00	0	56	0	2680160256	38	4199
2026-01-10 02:17:22.48	227.68	38.30	-33.5	-34.7	19.7	0.00e+00	0	56	0	2685403136	38	4186
2026-01-10 02:17:23.49	227.50	38.06	-33.3	-34.6	19.9	0.00e+00	0	56	0	2691694592	38	4115
2026-01-10 02:17:24.50	227.32	37.83	-33.3	-34.5	19.9	0.00e+00	0	56	0	2696937472	38	4081
2026-01-10 02:17:25.51	227.14	37.60	-33.2	-34.4	20.0	0.00e+00	0	56	0	2703228928	38	4037
2026-01-10 02:17:26.52	226.97	37.38	-33.2	-34.4	20.0	0.00e+00	0	56	0	2708471808	38	4044
2026-01-10 02:17:27.53	226.80	37.15	-33.3	-34.5	19.9	0.00e+00	0	56	0	2713714688	38	4082
2026-01-10 02:17:28.54	226.63	36.93	-33.4	-34.7	19.8	0.00e+00	0	56	0	2720006144	38	4148
2026-01-10 02:17:29.55	226.46	36.70	-33.5	-34.8	19.7	0.00e+00	0	56	0	2725249024	38	4195
2026-01-10 02:17:30.55	226.30	36.48	-33.5	-34.8	19.7	0.00e+00	0	56	0	2731540480	38	4217
2026-01-10 02:17:31.56	226.14	36.26	-33.5	-34.8	19.7	0.00e+00	0	56	0	2736783360	38	4195
2026-01-10 02:17:32.57	225.98	36.04	-33.4	-34.7	19.7	0.00e+00	0	56	0	2743074816	38	4169
2026-01-10 02:17:33.58	225.82	35.82	-33.4	-34.7	19.8	0.00e+00	0	56	0	2748317696	38	4154
2026-01-10 02:17:34.59	225.67	35.60	-33.4	-34.7	19.7	0.00e+00	0	56	0	2753560576	38	4151
2026-01-10 02:17:35.59	225.52	35.39	-33.4	-34.7	19.7	0.00e+00	0	56	0	2759852032	38	4154
2026-01-10 02:17:36.60	225.37	35.17	-33.4	-34.7	19.7	0.00e+00	0	56	0	2765094912	38	4175
2026-01-10 02:17:37.61	225.22	34.96	-33.5	-34.8	19.7	0.00e+00	0	56	0	2771386368	38	4199
2026-01-10 02:17:38.61	225.07	34.75	-33.4	-34.7	19.7	0.00e+00	0	56	0	2776629248	38	4175
2026-01-10 02:17:39.62	224.93	34.54	-33.4	-34.6	19.8	0.00e+00	0	56	0	2781872128	38	4141
2026-01-10 02:17:40.63	224.78	34.33	-33.3	-34.5	19.9	0.00e+00	0	56	0	2788163584	38	4092
2026-01-10 02:17:41.63	224.64	34.12	-33.3	-34.5	19.9	0.00e+00	0	56	0	2793406464	38	4071
2026-01-10 02:17:42.64	224.50	33.91	-33.3	-34.5	19.9	0.00e+00	0	56	0	2798649344	38	4067
2026-01-10 02:17:43.65	224.37	33.71	-33.3	-34.5	19.9	0.00e+00	0	56	0	2804940800	38	4077
2026-01-10 02:17:44.66	224.23	33.50	-33.4	-34.6	19.8	0.00e+00	0	56	0	2810183680	38	4139
2026-01-10 02:17:45.67	224.10	33.30	-33.5	-34.8	19.7	0.00e+00	0	56	0	2816475136	38	4203
2026-01-10 02:17:46.68	223.96	33.09	-33.6	-34.9	19.6	0.00e+00	0	56	0	2821718016	38	4262
2026-01-10 02:17:47.68	223.84	32.89	-33.7	-35.0	19.5	0.00e+00	0	56	0	2828009472	38	4305
2026-01-10 02:17:48.69	223.71	32.69	-33.7	-35.0	19.5	0.00e+00	0	56	0	2833252352	38	4324
2026-01-10 02:17:49.70	223.58	32.49	-33.7	-35.0	19.5	0.00e+00	0	56	0	2838495232	38	4317
2026-01-10 02:17:50.71	223.45	32.29	-33.7	-35.0	19.5	0.00e+00	0	56	0	2844786688	38	4294
2026-01-10 02:17:51.72	223.33	32.10	-33.6	-34.9	19.6	0.00e+00	0	56	0	2850029568	38	4243
2026-01-10 02:17:52.73	223.21	31.90	-33.6	-34.8	19.6	0.00e+00	0	56	0	2856321024	38	4233
2026-01-10 02:17:53.73	223.09	31.71	-33.5	-34.8	19.7	0.00e+00	0	56	0	2861563904	38	4210
2026-01-10 02:17:54.74	222.97	31.51	-33.5	-34.7	19.8	0.00e+00	0	56	0	2866806784	38	4187
2026-01-10 02:17:55.75	222.85	31.32	-33.5	-34.8	19.7	0.00e+00	0	56	0	2873098240	38	4208
2026-01-10 02:17:56.76	222.73	31.13	-33.5	-34.8	19.7	0.00e+00	0	56	0	2878341120	38	4209
2026-01-10 02:17:57.77	222.61	30.94	-33.5	-34.8	19.6	0.00e+00	0	56	0	2884632576	38	4213
2026-01-10 02:17:58.78	222.50	30.75	-33.6	-34.8	19.6	0.00e+00	0	56	0	2889875456	38	4224
2026-01-10 02:17:59.79	222.39	30.56	-33.6	-34.9	19.6	0.00e+00	0	56	0	2895118336	38	4257
2026-01-10 02:18:00.80	222.28	30.37	-33.6	-34.9	19.6	0.00e+00	0	56	0	2901409792	38	4261
2026-01-10 02:18:01.81	222.16	30.19	-33.7	-34.9	19.5	0.00e+00	0	56	0	2906652672	38	4291
2026-01-10 02:18:02.82	222.06	30.00	-33.7	-35.0	19.5	0.00e+00	0	56	0	2912944128	38	4319
2026-01-10 02:18:03.82	221.95	29.82	-33.8	-35.1	19.4	0.00e+00	0	56	0	2918187008	38	4350
2026-01-10 02:18:04.84	221.84	29.63	-33.8	-35.1	19.4	0.00e+00	0	56	0	2924478464	38	4381
2026-01-10 02:18:05.84	221.74	29.45	-33.8	-35.1	19.3	0.00e+00	0	56	0	2929721344	38	4381
2026-01-10 02:18:06.85	221.63	29.27	-33.9	-35.2	19.3	0.00e+00	0	56	0	2934964224	38	4412
2026-01-10 02:18:07.86	221.53	29.09	-33.9	-35.2	19.2	0.00e+00	0	56	0	2941255680	38	4424
2026-01-10 02:18:08.86	221.43	28.92	-33.9	-35.2	19.2	0.00e+00	0	56	0	2946498560	38	4429
2026-01-10 02:18:09.87	221.33	28.74	-34.0	-35.3	19.2	0.00e+00	0	56	0	2952790016	38	4450
2026-01-10 02:18:10.88	221.23	28.56	-34.0	-35.3	19.1	0.00e+00	0	56	0	2958032896	38	4478
2026-01-10 02:18:11.89	221.13	28.39	-34.1	-35.4	19.1	0.00e+00	0	56	0	2963275776	38	4506
2026-01-10 02:18:12.89	221.04	28.21	-34.1	-35.4	19.1	0.00e+00	0	56	0	2969567232	38	4510
2026-01-10 02:18:13.90	220.94	28.04	-34.1	-35.4	19.1	0.00e+00	0	56	0	2974810112	38	4501
2026-01-10 02:18:14.91	220.84	27.87	-34.1	-35.4	19.1	0.00e+00	0	56	0	2981101568	38	4519
2026-01-10 02:18:15.92	220.75	27.70	-34.0	-35.3	19.1	0.00e+00	0	56	0	2986344448	38	4472
2026-01-10 02:18:16.93	220.66	27.52	-34.0	-35.3	19.2	0.00e+00	0	56	0	2991587328	38	4477
2026-01-10 02:18:17.94	220.57	27.35	-34.0	-35.3	19.2	0.00e+00	0	56	0	2997878784	38	4458
2026-01-10 02:18:18.94	220.48	27.19	-34.0	-35.3	19.2	0.00e+00	0	56	0	3003121664	38	4460
2026-01-10 02:18:19.95	220.39	27.02	-34.0	-35.3	19.2	0.00e+00	0	56	0	3009413120	38	4449
2026-01-10 02:18:20.95	220.30	26.85	-34.0	-35.2	19.2	0.00e+00	0	56	0	3014656000	38	4437
2026-01-10 02:18:21.96	220.21	26.69	-33.9	-35.2	19.2	0.00e+00	0	56	0	3020947456	38	4429
2026-01-10 02:18:22.97	220.12	26.52	-33.9	-35.2	19.2	0.00e+00	0	56	0	3026190336	38	4427
2026-01-10 02:18:23.98	220.04	26.36	-33.9	-35.2	19.2	0.00e+00	0	56	0	3031433216	38	4421
2026-01-10 02:18:24.98	219.95	26.20	-33.9	-35.2	19.2	0.00e+00	0	56	0	3037724672	38	4431
2026-01-10 02:18:25.99	219.87	26.04	-34.0	-35.3	19.2	0.00e+00	0	56	0	3042967552	38	4449
2026-01-10 02:18:27.00	219.78	25.87	-34.0	-35.3	19.1	0.00e+00	0	56	0	3048210432	38	4477
2026-01-10 02:18:28.00	219.70	25.71	-34.0	-35.3	19.1	0.00e+00	0	56	0	3054501888	38	4493
2026-01-10 02:18:29.01	219.62	25.56	-34.1	-35.4	19.0	0.00e+00	0	56	0	3059744768	38	4532
2026-01-10 02:18:30.02	219.54	25.40	-34.1	-35.4	19.0	0.00e+00	0	56	0	3066036224	38	4523
2026-01-10 02:18:31.03	219.46	25.24	-34.1	-35.4	19.0	0.00e+00	0	56	0	3071279104	38	4542
2026-01-10 02:18:32.04	219.38	25.08	-34.1	-35.4	19.0	0.00e+00	0	56	0	3076521984	38	4544
2026-01-10 02:18:33.04	219.30	24.93	-34.1	-35.5	19.0	0.00e+00	0	56	0	3082813440	38	4546
2026-01-10 02:18:34.05	219.22	24.77	-34.1	-35.4	19.0	0.00e+00	0	56	0	3088056320	38	4516
2026-01-10 02:18:35.06	219.15	24.62	-34.1	-35.5	19.0	0.00e+00	0	56	0	3094347776	38	4546
2026-01-10 02:18:36.07	219.07	24.46	-34.1	-35.4	19.0	0.00e+00	0	56	0	3099590656	38	4531
2026-01-10 02:18:37.08	218.99	24.31	-34.1	-35.4	19.0	0.00e+00	0	56	0	3105882112	38	4529
2026-01-10 02:18:38.08	218.92	24.16	-34.1	-35.4	19.0	0.00e+00	0	56	0	3111124992	38	4500
2026-01-10 02:18:39.09	218.85	24.01	-34.1	-35.4	19.0	0.00e+00	0	56	0	3116367872	38	4514
2026-01-10 02:18:40.10	218.77	23.86	-34.1	-35.4	19.0	0.00e+00	0	56	0	3122659328	38	4523
2026-01-10 02:18:41.10	218.70	23.71	-34.2	-35.5	18.9	0.00e+00	0	56	0	3127902208	38	4560
2026-01-10 02:18:42.11	218.63	23.56	-34.2	-35.5	19.0	0.00e+00	0	56	0	3134193664	38	4563
2026-01-10 02:18:43.11	218.56	23.42	-34.2	-35.5	18.9	0.00e+00	0	56	0	3139436544	38	4569
2026-01-10 02:18:44.12	218.49	23.27	-34.2	-35.5	18.9	0.00e+00	0	56	0	3144679424	38	4587
2026-01-10 02:18:45.13	218.42	23.12	-34.3	-35.6	18.8	0.00e+00	0	56	0	3150970880	39	4364
2026-01-10 02:18:46.13	218.35	22.98	-34.3	-35.6	18.8	0.00e+00	0	56	0	3156213760	39	4370
2026-01-10 02:18:47.14	218.28	22.83	-34.3	-35.6	18.8	0.00e+00	0	56	0	3161456640	39	4384
2026-01-10 02:18:48.15	218.21	22.69	-34.3	-35.7	18.7	0.00e+00	0	56	0	3167748096	39	4400
2026-01-10 02:18:49.15	218.15	22.55	-34.4	-35.7	18.7	0.00e+00	0	56	0	3172990976	39	4418
2026-01-10 02:18:50.16	218.08	22.41	-34.4	-35.8	18.7	0.00e+00	0	56	0	3179282432	39	4445
2026-01-10 02:18:51.17	218.02	22.26	-34.4	-35.7	18.7	0.00e+00	0	56	0	3184525312	39	4438
2026-01-10 02:18:52.17	217.95	22.12	-34.4	-35.8	18.6	0.00e+00	0	56	0	3190816768	39	4445
2026-01-10 02:18:53.18	217.89	21.98	-34.5	-35.8	18.6	0.00e+00	0	56	0	3196059648	39	4485
2026-01-10 02:18:54.19	217.82	21.84	-34.4	-35.8	18.6	0.00e+00	0	56	0	3201302528	39	4461
2026-01-10 02:18:55.19	217.76	21.71	-34.5	-35.8	18.6	0.00e+00	0	56	0	3207593984	39	4493
2026-01-10 02:18:56.20	217.70	21.57	-34.5	-35.8	18.5	0.00e+00	0	56	0	3212836864	39	4491
2026-01-10 02:18:57.21	217.63	21.43	-34.6	-35.9	18.5	0.00e+00	0	56	0	3219128320	39	4535
2026-01-10 02:18:58.22	217.57	21.30	-34.6	-36.0	18.4	0.00e+00	0	56	0	3224371200	39	4556
2026-01-10 02:18:59.23	217.51	21.16	-34.6	-36.0	18.4	0.00e+00	0	56	0	3229614080	39	4570
2026-01-10 02:19:00.24	217.45	21.02	-34.6	-36.0	18.4	0.00e+00	0	56	0	3235905536	39	4577
2026-01-10 02:19:01.24	217.39	20.89	-34.6	-36.0	18.4	0.00e+00	0	56	0	3241148416	39	4564
2026-01-10 02:19:02.25	217.33	20.76	-34.6	-36.0	18.3	0.00e+00	0	56	0	3247439872	40	4326
2026-01-10 02:19:03.26	217.27	20.62	-34.7	-36.1	18.2	0.00e+00	0	56	0	3252682752	40	4369
2026-01-10 02:19:04.27	217.22	20.49	-34.8	-36.2	18.1	0.00e+00	0	56	0	3257925632	40	4392
2026-01-10 02:19:05.28	217.16	20.36	-34.8	-36.2	18.1	0.00e+00	0	56	0	3264217088	40	4401
2026-01-10 02:19:06.29	217.10	20.23	-34.8	-36.2	18.1	0.00e+00	0	56	0	3269459968	40	4432
2026-01-10 02:19:07.30	217.04	20.10	-34.9	-36.4	18.0	0.00e+00	0	56	0	3275751424	40	4498
2026-01-10 02:19:08.31	216.99	19.97	-34.9	-36.4	17.9	0.00e+00	0	56	0	3280994304	40	4500
2026-01-10 02:19:09.32	216.93	19.84	-35.0	-36.4	17.9	0.00e+00	0	56	0	3287285760	40	4532
2026-01-10 02:19:10.33	216.88	19.71	-35.0	-36.5	17.8	0.00e+00	0	56	0	3292528640	40	4565
2026-01-10 02:19:11.33	216.82	19.58	-35.1	-36.5	17.8	0.00e+00	0	56	0	3297771520	40	4598
2026-01-10 02:19:12.34	216.77	19.46	-35.1	-36.6	17.7	0.00e+00	0	56	0	3304062976	40	4625
2026-01-10 02:19:13.35	216.71	19.33	-35.2	-36.7	17.6	0.00e+00	0	56	0	3309305856	40	4669
2026-01-10 02:19:14.36	216.66	19.20	-35.2	-36.7	17.6	0.00e+00	0	57	0	3315597312	41	4420
2026-01-10 02:19:15.37	216.61	19.08	-35.2	-36.7	17.6	0.00e+00	0	57	0	3320840192	41	4404
2026-01-10 02:19:16.37	216.55	18.95	-35.2	-36.7	17.6	0.00e+00	0	56	0	3326083072	41	4437
2026-01-10 02:19:17.38	216.50	18.83	-35.3	-36.8	17.5	0.00e+00	0	56	0	3332374528	41	4474
2026-01-10 02:19:18.38	216.45	18.71	-35.3	-36.8	17.5	0.00e+00	0	56	0	3337617408	41	4450
2026-01-10 02:19:19.39	216.40	18.58	-35.3	-36.9	17.4	0.00e+00	0	56	0	3342860288	41	4499
2026-01-10 02:19:20.40	216.35	18.46	-35.3	-36.8	17.5	0.00e+00	0	56	0	3349151744	41	4464
2026-01-10 02:19:21.40	216.30	18.34	-35.3	-36.8	17.5	0.00e+00	0	56	0	3354394624	41	4467
2026-01-10 02:19:22.41	216.25	18.22	-35.3	-36.8	17.5	0.00e+00	0	56	0	3360686080	41	4453
2026-01-10 02:19:23.42	216.20	18.10	-35.2	-36.7	17.6	0.00e+00	0	56	0	3365928960	41	4431
2026-01-10 02:19:24.42	216.15	17.98	-35.2	-36.6	17.6	0.00e+00	0	56	0	3372220416	41	4386
2026-01-10 02:19:25.43	216.10	17.86	-35.2	-36.6	17.7	0.00e+00	0	56	0	3377463296	41	4380
2026-01-10 02:19:26.44	216.05	17.74	-35.2	-36.6	17.6	0.00e+00	0	56	0	3382706176	41	4389
2026-01-10 02:19:27.45	216.01	17.62	-35.2	-36.6	17.7	0.00e+00	0	56	0	3388997632	41	4367
2026-01-10 02:19:28.45	215.96	17.50	-35.1	-36.5	17.7	0.00e+00	0	56	0	3394240512	41	4328
2026-01-10 02:19:29.46	215.91	17.39	-35.1	-36.6	17.7	0.00e+00	0	56	0	3400531968	41	4345
2026-01-10 02:19:30.47	215.86	17.27	-35.1	-36.6	17.7	0.00e+00	0	56	0	3405774848	41	4359
2026-01-10 02:19:31.48	215.82	17.15	-35.1	-36.6	17.7	0.00e+00	0	56	0	3411017728	41	4366
2026-01-10 02:19:32.49	215.77	17.04	-35.2	-36.7	17.6	0.00e+00	0	57	0	3417309184	41	4395
2026-01-10 02:19:33.50	215.73	16.92	-35.2	-36.6	17.6	0.00e+00	0	56	0	3422552064	41	4378
2026-01-10 02:19:34.50	215.68	16.81	-35.3	-36.7	17.6	0.00e+00	0	56	0	3428843520	41	4418
2026-01-10 02:19:35.51	215.64	16.69	-35.2	-36.7	17.6	0.00e+00	0	56	0	3434086400	41	4394
2026-01-10 02:19:36.51	215.59	16.58	-35.2	-36.7	17.5	0.00e+00	0	56	0	3439329280	41	4412
2026-01-10 02:19:37.52	215.55	16.47	-35.3	-36.8	17.5	0.00e+00	0	56	0	3445620736	41	4453
2026-01-10 02:19:38.53	215.50	16.36	-35.3	-36.7	17.5	0.00e+00	0	56	0	3450863616	41	4426
2026-01-10 02:19:39.54	215.46	16.24	-35.3	-36.8	17.4	0.00e+00	0	56	0	3457155072	41	4460
2026-01-10 02:19:40.55	215.42	16.13	-35.4	-36.9	17.3	0.00e+00	0	56	0	3462397952	41	4509
2026-01-10 02:19:41.55	215.38	16.02	-35.5	-37.0	17.2	0.00e+00	0	56	0	3468689408	41	4553
2026-01-10 02:19:42.56	215.33	15.91	-35.5	-37.0	17.2	0.00e+00	0	56	0	3473932288	41	4579
2026-01-10 02:19:43.57	215.29	15.80	-35.5	-37.0	17.2	0.00e+00	0	56	0	3479175168	41	4589
2026-01-10 02:19:44.58	215.25	15.69	-35.6	-37.1	17.1	0.00e+00	0	56	0	3485466624	41	4631
2026-01-10 02:19:45.58	215.21	15.58	-35.6	-37.2	17.0	0.00e+00	0	56	0	3490709504	41	4673
2026-01-10 02:19:46.59	215.17	15.47	-35.7	-37.3	16.9	0.00e+00	0	56	0	3495952384	41	4709
2026-01-10 02:19:47.60	215.13	15.36	-35.8	-37.3	16.9	0.00e+00	0	56	0	3502243840	42	4469
2026-01-10 02:19:48.61	215.09	15.26	-35.8	-37.4	16.8	0.00e+00	0	56	0	3507486720	42	4534
2026-01-10 02:19:49.62	215.04	15.15	-35.9	-37.5	16.7	0.00e+00	0	56	0	3513778176	42	4560
2026-01-10 02:19:50.62	215.01	15.04	-35.9	-37.5	16.7	0.00e+00	0	56	0	3519021056	42	4547
