passes_logs/2026/01/10/R2.0S_Moscow/R2.0S_Moscow__20260110_084940_NOAA_21_JPSS-2_rec.log

#Pass ID: 20260110_084940_NOAA 21 (JPSS-2)
#Satellite: NOAA 21 (JPSS-2)
#Configuration: NOAA-21
#almurnet v.1.7.20251203
#Start time: 2026-01-10 08:49:39

#Version: 2.2.20231116
#Station: R2.0S_Moscow
#Location: 37.707566 lon 55.798166 lat
#TLE: 1 54234U 22150A   26009.23291724  .00000115  00000+0  75298-4 0  9996
#TLE: 2 54234  98.7494 310.2026 0000856 324.9272  35.1848 14.19533567163994

#Time	Az	El	Level	Level2	SNR	BER	BlckErr	Temp	State	Recorded	gain1	gain2
2026-01-10 08:49:39.83	128.81	1.99	-31.4	-47.4	4.1	1.51e+00	0	46	0	0	33	24076
2026-01-10 08:49:40.83	128.77	2.05	-32.8	-46.5	4.0	1.51e+00	0	46	104	0	34	20379
2026-01-10 08:49:41.84	128.72	2.11	-35.1	-52.1	3.9	1.51e+00	0	46	104	0	38	30731
2026-01-10 08:49:42.85	128.68	2.18	-33.1	-47.4	4.1	1.50e+00	0	46	104	0	41	15212
2026-01-10 08:49:43.86	128.63	2.24	-38.0	-52.5	4.0	1.50e+00	0	47	104	0	43	24306
2026-01-10 08:49:44.87	128.58	2.30	-35.2	-51.2	4.0	1.51e+00	0	46	104	0	40	24732
2026-01-10 08:49:45.87	128.54	2.36	-36.5	-51.6	3.7	1.50e+00	0	47	104	0	42	23262
2026-01-10 08:49:46.88	128.49	2.42	-35.0	-51.7	4.1	1.50e+00	0	47	104	0	42	23435
2026-01-10 08:49:47.89	128.45	2.49	-31.6	-46.6	4.0	1.50e+00	0	47	104	0	35	19505
2026-01-10 08:49:48.90	128.40	2.55	-36.2	-50.9	3.8	1.51e+00	0	47	104	0	37	28424
2026-01-10 08:49:49.90	128.35	2.61	-34.7	-51.6	4.0	1.50e+00	0	47	104	0	45	19418
2026-01-10 08:49:50.92	128.31	2.67	-38.0	-52.7	3.9	1.50e+00	0	47	104	0	40	29562
2026-01-10 08:49:51.93	128.26	2.74	-34.7	-50.7	3.9	1.50e+00	0	47	104	0	39	24925
2026-01-10 08:49:52.93	128.21	2.80	-32.4	-47.4	4.0	1.51e+00	0	47	104	0	38	17946
2026-01-10 08:49:53.94	128.16	2.86	-37.9	-51.7	4.0	1.50e+00	0	47	104	0	40	26396
2026-01-10 08:49:54.95	128.12	2.93	-34.3	-50.0	4.0	1.51e+00	0	47	104	0	36	27360
2026-01-10 08:49:55.96	128.07	2.99	-37.8	-52.4	3.4	1.51e+00	0	47	104	0	40	28376
2026-01-10 08:49:56.97	128.02	3.05	-33.5	-49.5	3.8	1.50e+00	0	47	104	0	41	19382
2026-01-10 08:49:57.98	127.97	3.12	-34.0	-48.8	3.7	1.50e+00	0	47	104	0	40	18899
2026-01-10 08:49:58.99	127.92	3.18	-37.5	-52.3	4.1	1.51e+00	0	47	104	0	44	22337
2026-01-10 08:50:00.00	127.87	3.24	-37.7	-52.6	4.0	1.50e+00	0	48	104	0	43	24595
2026-01-10 08:50:01.01	127.83	3.31	-26.4	-47.4	4.1	1.51e+00	0	48	104	0	40	16100
2026-01-10 08:50:02.02	127.78	3.37	-34.9	-47.8	4.2	1.51e+00	0	48	104	0	36	21155
2026-01-10 08:50:03.03	127.73	3.44	-31.5	-45.3	4.1	1.51e+00	0	48	104	0	32	19953
2026-01-10 08:50:04.03	127.68	3.50	-29.2	-44.1	4.1	1.51e+00	0	48	104	0	30	19602
2026-01-10 08:50:05.03	127.63	3.56	-25.3	-37.7	3.9	1.51e+00	0	48	104	0	26	11784
2026-01-10 08:50:06.04	127.58	3.63	-27.5	-41.7	3.8	1.51e+00	0	48	104	0	27	17514
2026-01-10 08:50:07.05	127.53	3.69	-24.5	-39.9	3.8	1.51e+00	0	48	104	0	29	12785
2026-01-10 08:50:08.06	127.48	3.76	-24.3	-40.9	3.6	1.51e+00	0	48	104	0	20	23881
2026-01-10 08:50:09.07	127.43	3.82	-30.1	-46.3	4.0	1.50e+00	0	48	104	0	36	17697
2026-01-10 08:50:10.08	127.37	3.89	-34.6	-47.0	3.9	1.50e+00	0	48	104	0	30	27345
2026-01-10 08:50:11.09	127.32	3.95	-34.9	-51.1	4.2	1.50e+00	0	48	104	0	41	23123
2026-01-10 08:50:12.10	127.27	4.02	-36.3	-51.7	4.0	1.51e+00	0	48	104	0	37	31342
2026-01-10 08:50:13.11	127.22	4.08	-31.4	-50.6	4.4	1.50e+00	0	48	104	0	38	26007
2026-01-10 08:50:14.12	127.17	4.15	-37.5	-51.3	4.0	1.51e+00	0	49	104	0	38	28176
2026-01-10 08:50:15.13	127.11	4.22	-29.6	-44.8	4.0	1.50e+00	0	49	104	0	39	12560
2026-01-10 08:50:16.14	127.06	4.28	-35.4	-51.4	3.7	1.50e+00	0	49	104	0	40	25303
2026-01-10 08:50:17.16	127.01	4.35	-29.1	-44.8	4.2	1.50e+00	0	49	104	0	44	9466
2026-01-10 08:50:18.16	126.96	4.41	-33.6	-49.5	4.0	1.51e+00	0	49	104	0	39	21683
2026-01-10 08:50:19.17	126.90	4.48	-25.7	-41.8	3.8	1.51e+00	0	49	104	0	32	13314
2026-01-10 08:50:20.17	126.85	4.55	-31.7	-48.2	3.8	1.51e+00	0	49	104	0	38	19731
2026-01-10 08:50:21.19	126.80	4.61	-29.6	-42.5	3.9	1.51e+00	0	49	104	0	31	15334
2026-01-10 08:50:22.19	126.74	4.68	-29.0	-44.9	3.7	1.51e+00	0	49	104	0	31	20233
2026-01-10 08:50:23.20	126.69	4.75	-24.4	-39.5	3.5	1.51e+00	0	49	104	0	25	15307
2026-01-10 08:50:24.21	126.63	4.81	-34.1	-49.8	3.6	1.50e+00	0	49	104	0	39	22272
2026-01-10 08:50:25.21	126.58	4.88	-25.2	-43.4	3.6	1.51e+00	0	49	104	0	30	18029
2026-01-10 08:50:26.22	126.52	4.95	-33.2	-47.7	4.0	1.51e+00	0	49	104	0	36	20934
2026-01-10 08:50:27.23	126.47	5.02	-24.5	-39.2	3.7	1.51e+00	0	49	104	0	23	16692
2026-01-10 08:50:28.24	126.41	5.08	-33.3	-49.1	4.0	1.51e+00	0	49	104	0	36	24524
2026-01-10 08:50:29.25	126.36	5.15	-27.8	-42.9	3.8	1.51e+00	0	49	104	0	27	20206
2026-01-10 08:50:30.26	126.30	5.22	-31.1	-49.1	3.9	1.51e+00	0	49	104	0	40	19458
2026-01-10 08:50:31.27	126.24	5.29	-35.8	-51.8	3.9	1.51e+00	0	50	104	0	42	23629
2026-01-10 08:50:32.28	126.19	5.35	-28.6	-44.1	4.0	1.50e+00	0	50	104	0	32	17340
2026-01-10 08:50:33.28	126.13	5.42	-31.6	-45.8	3.8	1.51e+00	0	49	104	0	26	29784
2026-01-10 08:50:34.29	126.07	5.49	-37.5	-51.1	3.9	1.51e+00	0	50	104	0	38	27575
2026-01-10 08:50:35.30	126.01	5.56	-31.0	-46.3	3.8	1.51e+00	0	50	104	0	27	29958
2026-01-10 08:50:36.31	125.96	5.63	-32.4	-47.5	4.0	1.50e+00	0	50	104	0	38	18226
2026-01-10 08:50:37.31	125.90	5.70	-34.2	-49.8	4.0	1.50e+00	0	50	104	0	36	26498
2026-01-10 08:50:38.32	125.84	5.77	-37.0	-51.5	4.2	1.50e+00	0	50	104	0	40	25813
2026-01-10 08:50:39.34	125.78	5.84	-26.5	-42.1	3.6	1.50e+00	0	50	104	0	28	17447
2026-01-10 08:50:40.35	125.72	5.91	-34.2	-50.9	3.9	1.50e+00	0	50	104	0	42	21294
2026-01-10 08:50:41.36	125.66	5.98	-25.8	-43.7	3.8	1.51e+00	0	50	104	0	22	29462
2026-01-10 08:50:42.37	125.60	6.05	-35.8	-51.1	4.0	1.50e+00	0	50	104	0	41	23304
2026-01-10 08:50:43.38	125.54	6.12	-35.8	-51.9	4.0	1.50e+00	0	50	104	0	44	21311
2026-01-10 08:50:44.38	125.48	6.18	-34.5	-50.9	4.2	1.50e+00	0	50	104	0	43	20122
2026-01-10 08:50:45.39	125.42	6.25	-26.4	-44.6	3.5	1.50e+00	0	50	104	0	23	30940
2026-01-10 08:50:46.40	125.36	6.33	-36.0	-51.0	4.1	1.50e+00	0	50	104	0	37	28966
2026-01-10 08:50:47.40	125.30	6.40	-35.9	-51.6	4.1	1.51e+00	0	50	104	0	36	32900
2026-01-10 08:50:48.41	125.24	6.47	-37.7	-52.7	3.9	1.50e+00	0	50	104	0	45	22253
2026-01-10 08:50:49.42	125.18	6.54	-34.5	-49.6	4.0	1.50e+00	0	50	104	0	41	19574
2026-01-10 08:50:50.42	125.12	6.61	-28.0	-45.3	4.1	1.51e+00	0	51	104	0	28	25044
2026-01-10 08:50:51.44	125.05	6.68	-34.6	-51.8	3.4	1.51e+00	0	51	104	0	29	50282
2026-01-10 08:50:52.44	124.99	6.75	-29.6	-45.1	3.8	1.50e+00	0	51	104	0	33	18450
2026-01-10 08:50:53.46	124.93	6.82	-34.9	-48.9	3.9	1.51e+00	0	50	104	0	29	35856
2026-01-10 08:50:54.47	124.86	6.89	-24.0	-40.7	3.9	1.50e+00	0	51	104	0	35	9924
2026-01-10 08:50:55.47	124.80	6.97	-37.8	-51.6	3.9	1.50e+00	0	51	104	0	44	20682
2026-01-10 08:50:56.48	124.74	7.04	-33.9	-50.8	4.0	1.50e+00	0	51	104	0	45	17769
2026-01-10 08:50:57.50	124.67	7.11	-28.8	-46.7	4.1	1.50e+00	0	51	104	0	27	31339
2026-01-10 08:50:58.50	124.61	7.18	-37.3	-52.2	3.8	1.50e+00	0	51	104	0	46	19632
2026-01-10 08:50:59.51	124.54	7.25	-33.4	-48.0	4.2	1.50e+00	0	51	104	0	39	18231
2026-01-10 08:51:00.52	124.48	7.33	-37.2	-51.0	3.9	1.49e+00	0	51	104	0	44	19336
2026-01-10 08:51:01.53	124.41	7.40	-38.4	-50.4	4.0	1.49e+00	0	51	104	0	46	15985
2026-01-10 08:51:02.54	124.35	7.47	-34.6	-49.0	4.0	1.49e+00	0	51	104	0	45	14395
2026-01-10 08:51:03.55	124.28	7.55	-29.8	-44.9	4.3	1.50e+00	0	51	104	0	35	16060
2026-01-10 08:51:04.56	124.21	7.62	-32.4	-45.8	4.0	1.48e+00	0	51	104	0	37	15933
2026-01-10 08:51:05.57	124.14	7.69	-34.6	-45.6	4.2	1.48e+00	0	51	104	0	38	14607
2026-01-10 08:51:06.58	124.08	7.77	-27.6	-41.6	4.3	1.47e+00	0	51	104	0	33	12247
2026-01-10 08:51:07.59	124.01	7.84	-36.3	-45.0	6.1	1.27e+00	3	51	104	0	40	12102
2026-01-10 08:51:08.60	123.94	7.92	-37.0	-44.3	7.2	8.95e-01	12	51	104	0	44	8875
2026-01-10 08:51:09.60	123.87	7.99	-31.3	-42.4	4.5	1.45e+00	0	51	104	1048576	35	11987
2026-01-10 08:51:10.61	123.80	8.06	-39.4	-52.1	4.1	4.34e-01	0	51	104	1048576	39	29239
2026-01-10 08:51:11.62	123.74	8.14	-39.9	-52.9	4.2	1.50e+00	0	51	104	1048576	44	23930
2026-01-10 08:51:12.63	123.67	8.21	-35.3	-41.6	4.5	1.49e+00	0	51	104	1048576	27	17425
2026-01-10 08:51:13.63	123.60	8.29	-37.0	-41.2	11.4	1.37e+00	0	51	104	1048576	44	6266
2026-01-10 08:51:14.64	123.53	8.36	-36.9	-43.9	6.9	1.86e-01	2	51	0	3145728	39	11338
2026-01-10 08:51:15.65	123.46	8.44	-34.9	-43.8	4.3	1.47e+00	0	52	104	3145728	40	10648
2026-01-10 08:51:16.66	123.38	8.51	-37.5	-42.2	9.5	2.30e-01	0	52	0	3145728	43	7408
2026-01-10 08:51:17.66	123.31	8.59	-36.7	-42.7	8.7	9.93e-01	7	52	0	6291456	42	8326
2026-01-10 08:51:18.67	123.24	8.66	-33.1	-42.0	7.0	1.70e-01	8	52	0	8388608	38	9644
2026-01-10 08:51:19.68	123.17	8.74	-37.4	-43.0	9.4	3.19e-01	0	52	0	11534336	45	7230
2026-01-10 08:51:20.69	123.10	8.82	-38.3	-43.3	9.7	8.25e-02	0	52	0	14680064	47	6720
2026-01-10 08:51:21.69	123.02	8.89	-38.2	-43.4	9.3	1.61e-01	0	52	0	17825792	46	7156
2026-01-10 08:51:22.70	122.95	8.97	-36.6	-44.0	9.2	4.79e-02	0	52	0	20971520	48	6815
2026-01-10 08:51:23.70	122.88	9.05	-38.6	-43.8	7.8	2.42e-01	5	52	0	23068672	42	9469
2026-01-10 08:51:24.71	122.80	9.12	-36.6	-43.8	8.9	3.79e-01	0	52	0	26214400	45	7911
2026-01-10 08:51:25.72	122.73	9.20	-38.5	-44.0	8.7	7.27e-02	0	52	0	29360128	46	7710
2026-01-10 08:51:26.72	122.65	9.28	-34.0	-43.4	8.9	1.07e-01	0	52	0	32505856	46	7165
2026-01-10 08:51:27.73	122.58	9.35	-38.0	-43.3	9.0	1.44e-01	1	52	0	35651584	44	7930
2026-01-10 08:51:28.73	122.50	9.43	-37.6	-42.9	8.1	3.68e-01	7	52	0	37748736	43	8030
2026-01-10 08:51:29.74	122.43	9.51	-36.6	-42.6	10.2	6.25e-02	0	52	0	39845888	45	6894
2026-01-10 08:51:30.75	122.35	9.59	-38.2	-42.3	11.2	4.44e-02	0	52	0	42991616	46	6291
2026-01-10 08:51:31.75	122.27	9.67	-35.4	-41.1	12.0	1.57e-02	5	52	0	46137344	44	6187
2026-01-10 08:51:32.76	122.20	9.74	-34.3	-40.7	12.0	1.39e-02	0	52	0	49283072	43	6265
2026-01-10 08:51:33.77	122.12	9.82	-35.4	-40.4	11.7	2.14e-02	0	52	0	52428800	42	6373
2026-01-10 08:51:34.78	122.04	9.90	-37.2	-40.8	12.6	1.35e-02	0	52	0	55574528	45	5604
2026-01-10 08:51:35.78	121.96	9.98	-36.8	-40.9	12.4	2.59e-02	0	52	0	58720256	45	5707
2026-01-10 08:51:36.79	121.88	10.06	-32.6	-40.5	10.8	3.65e-02	0	52	0	61865984	40	7230
2026-01-10 08:51:37.80	121.80	10.14	-36.0	-41.2	11.3	5.81e-02	0	52	0	65011712	42	7010
2026-01-10 08:51:38.80	121.72	10.22	-37.1	-41.5	11.9	3.84e-02	0	52	0	68157440	44	6459
2026-01-10 08:51:39.81	121.64	10.30	-35.8	-41.0	11.4	5.82e-02	0	52	0	71303168	41	7235
2026-01-10 08:51:40.81	121.56	10.38	-36.9	-41.9	10.6	3.63e-02	0	52	0	74448896	44	6766
2026-01-10 08:51:41.82	121.48	10.46	-37.7	-42.4	11.2	1.40e-01	0	52	0	77594624	45	6764
2026-01-10 08:51:42.83	121.40	10.54	-35.9	-41.8	10.2	7.19e-02	0	52	0	80740352	42	7493
2026-01-10 08:51:43.83	121.32	10.62	-34.5	-41.2	9.3	3.31e-02	1	52	0	83886080	41	7430
2026-01-10 08:51:44.84	121.23	10.70	-36.4	-41.6	11.8	3.74e-02	0	52	0	87031808	45	6187
2026-01-10 08:51:45.85	121.15	10.78	-36.0	-41.2	11.2	3.66e-02	3	52	0	90177536	43	6596
2026-01-10 08:51:46.85	121.07	10.86	-33.9	-41.0	10.1	4.50e-02	1	52	0	93323264	38	8615
2026-01-10 08:51:47.86	120.98	10.94	-36.8	-41.0	11.8	3.42e-02	0	52	0	96468992	43	6472
2026-01-10 08:51:48.87	120.90	11.03	-35.9	-41.1	11.3	3.08e-02	0	52	0	99614720	42	6950
2026-01-10 08:51:49.87	120.81	11.11	-36.9	-41.4	12.1	3.21e-02	0	52	0	102760448	45	6004
2026-01-10 08:51:50.88	120.73	11.19	-32.5	-41.1	10.8	2.49e-02	0	52	0	105906176	43	6525
2026-01-10 08:51:51.89	120.64	11.27	-32.8	-40.7	11.3	1.20e-01	0	53	0	109051904	42	6641
2026-01-10 08:51:52.90	120.56	11.35	-36.6	-41.1	12.0	7.16e-02	0	53	0	112197632	44	6145
2026-01-10 08:51:53.90	120.47	11.44	-35.2	-40.8	12.5	1.42e-01	0	53	0	114294784	44	5971
2026-01-10 08:51:54.91	120.38	11.52	-26.0	-38.4	6.0	9.47e-01	10	53	0	115343360	25	13555
2026-01-10 08:51:55.92	120.29	11.60	-37.3	-40.8	12.8	3.34e-02	0	53	0	117440512	44	5987
2026-01-10 08:51:56.93	120.20	11.69	-37.7	-41.2	12.2	3.21e-02	0	52	0	120586240	45	5888
2026-01-10 08:51:57.93	120.12	11.77	-35.7	-41.0	10.9	2.36e-02	0	53	0	123731968	43	6470
2026-01-10 08:51:58.94	120.03	11.85	-37.0	-41.4	11.8	2.56e-02	1	53	0	126877696	44	6364
2026-01-10 08:51:59.95	119.94	11.94	-37.6	-41.3	12.5	2.49e-02	0	53	0	130023424	46	5619
2026-01-10 08:52:00.96	119.84	12.02	-36.3	-41.1	11.2	9.89e-02	0	53	0	133169152	44	6168
2026-01-10 08:52:01.97	119.75	12.11	-37.6	-40.8	13.0	1.20e-02	0	53	0	136314880	44	5966
2026-01-10 08:52:02.98	119.66	12.19	-37.9	-40.9	13.3	1.55e-02	0	53	0	139460608	46	5396
2026-01-10 08:52:03.99	119.57	12.28	-33.3	-40.5	11.4	1.69e-02	0	53	0	142606336	42	6469
2026-01-10 08:52:05.00	119.48	12.36	-37.2	-40.8	11.4	2.73e-01	0	53	0	145752064	42	6687
2026-01-10 08:52:06.00	119.38	12.45	-37.5	-40.9	13.3	1.48e-02	0	53	0	148897792	46	5365
2026-01-10 08:52:07.01	119.29	12.53	-37.9	-41.2	10.6	7.75e-02	4	53	0	152043520	45	5922
2026-01-10 08:52:08.01	119.19	12.62	-37.8	-41.1	12.7	1.18e-02	0	53	0	155189248	45	5839
2026-01-10 08:52:09.03	119.10	12.71	-37.8	-41.0	13.4	1.07e-02	0	53	0	158334976	46	5416
2026-01-10 08:52:10.04	119.00	12.79	-37.6	-40.9	13.3	1.58e-02	0	53	0	161480704	46	5390
2026-01-10 08:52:11.04	118.91	12.88	-37.6	-40.9	11.7	1.53e-02	0	53	0	164626432	45	5696
2026-01-10 08:52:12.05	118.81	12.97	-35.6	-40.5	12.1	1.08e-02	0	53	0	167772160	43	6072
2026-01-10 08:52:13.06	118.71	13.05	-35.5	-40.3	12.9	9.15e-03	0	53	0	170917888	43	5965
2026-01-10 08:52:14.06	118.61	13.14	-37.0	-40.3	13.1	9.06e-03	0	53	0	174063616	43	5985
2026-01-10 08:52:15.07	118.52	13.23	-37.4	-40.6	13.7	1.53e-02	0	53	0	177209344	45	5513
2026-01-10 08:52:16.08	118.42	13.31	-37.2	-40.6	13.7	9.69e-03	0	53	0	180355072	45	5513
2026-01-10 08:52:17.09	118.32	13.40	-36.2	-40.6	14.0	8.36e-03	0	53	0	183500800	46	5176
2026-01-10 08:52:18.10	118.21	13.49	-37.9	-40.6	13.9	8.71e-03	0	53	0	186646528	46	5184
2026-01-10 08:52:19.10	118.11	13.58	-36.6	-40.4	13.7	9.88e-03	0	53	0	189792256	44	5699
2026-01-10 08:52:20.11	118.01	13.67	-37.8	-40.4	14.3	3.28e-03	0	53	0	192937984	46	5091
2026-01-10 08:52:21.12	117.91	13.76	-37.2	-40.5	14.2	4.03e-03	0	53	0	196083712	46	5104
2026-01-10 08:52:22.12	117.81	13.84	-37.6	-40.3	14.0	3.68e-03	0	53	0	199229440	45	5329
2026-01-10 08:52:23.13	117.70	13.93	-37.4	-40.3	14.4	4.74e-03	0	53	0	202375168	46	4986
2026-01-10 08:52:24.14	117.60	14.02	-36.9	-40.3	14.3	1.84e-03	0	53	0	205520896	45	5313
2026-01-10 08:52:25.15	117.49	14.11	-37.8	-40.3	14.3	2.90e-03	0	53	0	208666624	46	4989
2026-01-10 08:52:26.15	117.39	14.20	-37.3	-40.2	12.4	1.48e-03	0	53	0	211812352	44	5565
2026-01-10 08:52:27.16	117.28	14.29	-37.2	-40.1	12.5	4.27e-03	0	53	0	214958080	43	5811
2026-01-10 08:52:28.17	117.18	14.38	-37.4	-40.3	14.3	7.30e-04	0	53	0	218103808	46	4992
2026-01-10 08:52:29.17	117.07	14.47	-38.0	-40.3	14.7	5.24e-04	0	53	0	221249536	46	5012
2026-01-10 08:52:30.18	116.96	14.57	-37.8	-40.3	14.8	3.86e-04	0	53	0	224395264	46	5012
2026-01-10 08:52:31.19	116.85	14.66	-37.7	-40.3	14.8	2.96e-04	0	54	0	227540992	47	4751
2026-01-10 08:52:32.19	116.74	14.75	-38.3	-40.4	14.8	1.52e-04	0	53	0	230686720	47	4776
2026-01-10 08:52:33.20	116.63	14.84	-38.3	-40.3	15.0	1.69e-04	0	53	0	233832448	47	4753
2026-01-10 08:52:34.21	116.52	14.93	-37.1	-40.4	14.1	7.35e-04	0	53	0	236978176	46	5050
2026-01-10 08:52:35.21	116.41	15.02	-38.1	-40.2	14.7	2.89e-04	0	53	0	240123904	46	4960
2026-01-10 08:52:36.22	116.30	15.12	-38.2	-40.2	15.1	8.85e-05	0	54	0	243269632	47	4693
2026-01-10 08:52:37.23	116.19	15.21	-38.1	-40.1	15.2	1.46e-04	0	54	0	246415360	47	4649
2026-01-10 08:52:38.23	116.07	15.30	-37.4	-40.1	14.7	1.14e-04	0	53	0	249561088	46	4917
2026-01-10 08:52:39.24	115.96	15.39	-38.2	-40.2	15.0	1.89e-04	0	53	0	252706816	47	4702
2026-01-10 08:52:40.24	115.84	15.49	-37.8	-40.3	14.9	3.75e-04	0	54	0	255852544	46	4999
2026-01-10 08:52:41.25	115.73	15.58	-38.1	-40.2	15.1	9.46e-05	0	54	0	258998272	47	4681
2026-01-10 08:52:42.25	115.61	15.67	-37.9	-40.4	14.4	1.93e-04	0	54	0	262144000	46	5047
2026-01-10 08:52:43.26	115.49	15.77	-38.2	-40.2	15.1	7.85e-05	0	54	0	265289728	47	4678
2026-01-10 08:52:44.27	115.38	15.86	-38.2	-40.2	15.1	5.75e-04	0	54	0	268435456	47	4677
2026-01-10 08:52:45.27	115.26	15.96	-38.2	-40.2	15.1	3.73e-05	0	54	0	271581184	47	4689
2026-01-10 08:52:46.28	115.14	16.05	-37.9	-40.1	15.2	1.91e-04	0	54	0	274726912	46	4925
2026-01-10 08:52:47.29	115.02	16.15	-38.2	-40.1	15.3	3.28e-05	0	54	0	277872640	47	4621
2026-01-10 08:52:48.29	114.90	16.24	-37.9	-40.1	15.2	1.75e-05	0	54	0	281018368	47	4649
2026-01-10 08:52:49.30	114.77	16.34	-38.3	-40.3	15.1	2.21e-05	0	54	0	284164096	47	4727
2026-01-10 08:52:50.31	114.65	16.43	-38.2	-40.4	14.9	1.60e-05	0	54	0	287309824	47	4776
2026-01-10 08:52:51.31	114.53	16.53	-38.3	-40.3	15.1	8.30e-06	0	54	0	290455552	47	4724
2026-01-10 08:52:52.32	114.40	16.62	-38.2	-40.4	15.0	1.83e-05	0	54	0	293601280	47	4786
2026-01-10 08:52:53.33	114.28	16.72	-38.5	-40.5	14.0	4.47e-04	0	54	0	296747008	46	5113
2026-01-10 08:52:54.34	114.15	16.82	-38.5	-40.5	14.9	7.00e-07	0	54	0	299892736	47	4839
2026-01-10 08:52:55.34	114.03	16.91	-38.4	-40.5	14.9	2.20e-06	0	54	0	303038464	47	4841
2026-01-10 08:52:56.35	113.90	17.01	-38.6	-40.6	14.9	7.00e-07	0	54	0	306184192	47	4903
2026-01-10 08:52:57.35	113.77	17.11	-38.6	-40.6	14.9	1.50e-06	0	54	0	309329920	47	4900
2026-01-10 08:52:58.36	113.64	17.20	-38.5	-40.5	14.9	2.20e-06	0	54	0	312475648	47	4862
2026-01-10 08:52:59.37	113.51	17.30	-38.5	-40.5	15.0	0.00e+00	0	54	0	315621376	47	4847
2026-01-10 08:53:00.38	113.38	17.40	-38.5	-40.5	15.0	7.00e-07	0	54	0	318767104	47	4822
2026-01-10 08:53:01.38	113.25	17.50	-38.5	-40.4	15.1	0.00e+00	0	54	0	321912832	47	4786
2026-01-10 08:53:02.39	113.11	17.60	-38.5	-40.4	15.1	0.00e+00	0	54	0	325058560	47	4809
2026-01-10 08:53:03.40	112.98	17.70	-38.5	-40.4	15.1	0.00e+00	0	54	0	328204288	47	4772
2026-01-10 08:53:04.40	112.85	17.79	-38.5	-40.4	15.1	7.00e-07	0	54	0	331350016	47	4777
2026-01-10 08:53:05.41	112.71	17.89	-38.5	-40.4	15.1	0.00e+00	0	54	0	334495744	47	4805
2026-01-10 08:53:06.42	112.57	17.99	-38.4	-40.3	15.2	0.00e+00	0	54	0	337641472	47	4755
2026-01-10 08:53:07.43	112.44	18.09	-38.5	-40.4	15.1	0.00e+00	0	54	0	340787200	47	4804
2026-01-10 08:53:08.44	112.30	18.19	-38.6	-40.5	15.0	0.00e+00	0	54	0	343932928	47	4864
2026-01-10 08:53:09.44	112.16	18.29	-38.6	-40.6	14.9	0.00e+00	0	54	0	347078656	47	4874
2026-01-10 08:53:10.45	112.02	18.39	-38.5	-40.5	15.1	0.00e+00	0	54	0	350224384	47	4823
2026-01-10 08:53:11.46	111.88	18.49	-38.5	-40.4	15.2	0.00e+00	0	54	0	353370112	47	4772
2026-01-10 08:53:12.47	111.74	18.60	-38.4	-40.3	15.2	0.00e+00	0	54	0	356515840	47	4738
2026-01-10 08:53:13.48	111.59	18.70	-38.3	-40.2	15.4	0.00e+00	0	54	0	359661568	47	4681
2026-01-10 08:53:14.49	111.45	18.80	-38.3	-40.2	15.4	0.00e+00	0	54	0	362807296	47	4664
2026-01-10 08:53:15.50	111.30	18.90	-38.4	-40.3	15.3	0.00e+00	0	54	0	365953024	47	4711
2026-01-10 08:53:16.50	111.16	19.00	-38.3	-40.2	15.3	0.00e+00	0	54	0	369098752	47	4674
2026-01-10 08:53:17.51	111.01	19.10	-38.2	-40.1	15.5	0.00e+00	0	54	0	372244480	47	4601
2026-01-10 08:53:18.51	110.86	19.21	-38.2	-40.0	15.6	0.00e+00	0	54	0	375390208	47	4561
2026-01-10 08:53:19.52	110.72	19.31	-38.2	-40.0	15.5	0.00e+00	0	54	0	378535936	47	4591
2026-01-10 08:53:20.53	110.57	19.41	-38.1	-39.9	15.7	0.00e+00	0	54	0	381681664	47	4508
2026-01-10 08:53:21.53	110.42	19.51	-38.0	-39.8	15.7	0.00e+00	0	54	0	384827392	47	4468
2026-01-10 08:53:22.54	110.26	19.62	-38.0	-39.7	15.8	0.00e+00	0	54	0	387973120	47	4423
2026-01-10 08:53:23.54	110.11	19.72	-38.0	-39.7	15.8	0.00e+00	0	54	0	391118848	47	4432
2026-01-10 08:53:24.55	109.96	19.82	-38.0	-39.7	15.8	0.00e+00	0	54	0	394264576	47	4435
2026-01-10 08:53:25.56	109.80	19.93	-38.0	-39.7	15.8	0.00e+00	0	54	0	397410304	47	4436
2026-01-10 08:53:26.57	109.64	20.03	-37.9	-39.7	15.9	0.00e+00	0	54	0	400556032	47	4417
2026-01-10 08:53:27.58	109.49	20.14	-37.9	-39.7	15.9	0.00e+00	0	54	0	403701760	47	4413
2026-01-10 08:53:28.58	109.33	20.24	-37.8	-39.5	16.0	0.00e+00	0	54	0	406847488	47	4333
2026-01-10 08:53:29.59	109.17	20.34	-37.9	-39.6	16.0	0.00e+00	0	54	0	409993216	47	4353
2026-01-10 08:53:30.60	109.01	20.45	-37.8	-39.5	16.1	0.00e+00	0	54	0	413138944	47	4305
2026-01-10 08:53:31.61	108.85	20.55	-37.7	-39.4	16.2	0.00e+00	0	54	0	416284672	47	4250
2026-01-10 08:53:32.61	108.69	20.66	-37.6	-39.2	16.3	0.00e+00	0	54	0	419430400	47	4190
2026-01-10 08:53:33.62	108.52	20.76	-37.5	-39.2	16.4	0.00e+00	0	54	0	422576128	47	4147
2026-01-10 08:53:34.63	108.36	20.87	-37.5	-39.2	16.4	0.00e+00	0	54	0	425721856	47	4155
2026-01-10 08:53:35.63	108.19	20.97	-37.4	-39.1	16.5	0.00e+00	0	54	0	428867584	46	4345
2026-01-10 08:53:36.64	108.02	21.08	-37.5	-39.1	16.5	0.00e+00	0	54	0	432013312	46	4352
2026-01-10 08:53:37.65	107.86	21.19	-37.5	-39.2	16.4	0.00e+00	0	54	0	435159040	46	4408
2026-01-10 08:53:38.65	107.69	21.29	-37.5	-39.2	16.4	0.00e+00	0	54	0	438304768	46	4398
2026-01-10 08:53:39.66	107.52	21.40	-37.5	-39.1	16.5	0.00e+00	0	54	0	441450496	46	4365
2026-01-10 08:53:40.66	107.34	21.50	-37.4	-39.0	16.6	0.00e+00	0	54	0	444596224	46	4327
2026-01-10 08:53:41.67	107.17	21.61	-37.5	-39.1	16.5	0.00e+00	0	54	0	447741952	46	4371
2026-01-10 08:53:42.67	107.00	21.72	-37.5	-39.1	16.5	0.00e+00	0	54	0	450887680	46	4372
2026-01-10 08:53:43.68	106.82	21.83	-37.5	-39.1	16.5	0.00e+00	0	54	0	454033408	46	4369
2026-01-10 08:53:44.69	106.65	21.93	-37.5	-39.2	16.4	0.00e+00	0	55	0	457179136	46	4394
2026-01-10 08:53:45.70	106.47	22.04	-37.5	-39.2	16.4	0.00e+00	0	54	0	460324864	46	4395
2026-01-10 08:53:46.71	106.29	22.15	-37.5	-39.1	16.5	0.00e+00	0	54	0	463470592	46	4365
2026-01-10 08:53:47.72	106.11	22.26	-37.3	-38.9	16.7	0.00e+00	0	54	0	466616320	46	4285
2026-01-10 08:53:48.73	105.92	22.36	-37.3	-38.9	16.7	0.00e+00	0	54	0	469762048	46	4255
2026-01-10 08:53:49.74	105.74	22.47	-37.3	-38.8	16.8	0.00e+00	0	55	0	472907776	46	4229
2026-01-10 08:53:50.74	105.56	22.58	-37.3	-38.8	16.8	0.00e+00	0	54	0	476053504	46	4240
2026-01-10 08:53:51.75	105.37	22.69	-37.3	-38.9	16.7	0.00e+00	0	54	0	479199232	46	4285
2026-01-10 08:53:52.76	105.18	22.80	-37.4	-39.0	16.6	0.00e+00	0	54	0	482344960	46	4326
2026-01-10 08:53:53.76	105.00	22.90	-37.5	-39.1	16.6	0.00e+00	0	54	0	485490688	46	4359
2026-01-10 08:53:54.77	104.81	23.01	-37.5	-39.2	16.5	0.00e+00	0	54	0	488636416	46	4396
2026-01-10 08:53:55.77	104.62	23.12	-37.5	-39.1	16.5	0.00e+00	0	55	0	491782144	46	4377
2026-01-10 08:53:56.78	104.42	23.23	-37.5	-39.2	16.5	0.00e+00	0	54	0	494927872	46	4398
2026-01-10 08:53:57.79	104.23	23.34	-37.6	-39.2	16.4	0.00e+00	0	55	0	498073600	46	4433
2026-01-10 08:53:58.80	104.03	23.45	-37.5	-39.2	16.5	0.00e+00	0	54	0	501219328	46	4394
2026-01-10 08:53:59.80	103.84	23.56	-37.5	-39.1	16.6	0.00e+00	0	54	0	504365056	46	4344
2026-01-10 08:54:00.81	103.64	23.67	-37.4	-39.0	16.7	0.00e+00	0	54	0	507510784	46	4293
2026-01-10 08:54:01.82	103.44	23.78	-37.4	-39.0	16.6	0.00e+00	0	54	0	510656512	46	4320
2026-01-10 08:54:02.83	103.24	23.89	-37.5	-39.1	16.6	0.00e+00	0	54	0	513802240	46	4341
2026-01-10 08:54:03.83	103.04	24.00	-37.5	-39.1	16.5	0.00e+00	0	54	0	516947968	46	4382
2026-01-10 08:54:04.84	102.84	24.11	-37.6	-39.2	16.4	0.00e+00	0	55	0	520093696	46	4418
2026-01-10 08:54:05.85	102.63	24.22	-37.7	-39.3	16.4	0.00e+00	0	54	0	523239424	46	4478
2026-01-10 08:54:06.85	102.43	24.32	-37.6	-39.2	16.5	0.00e+00	0	54	0	526385152	46	4436
2026-01-10 08:54:07.86	102.22	24.43	-37.6	-39.3	16.4	0.00e+00	0	55	0	529530880	46	4443
2026-01-10 08:54:08.87	102.01	24.54	-37.6	-39.2	16.5	0.00e+00	0	54	0	532676608	46	4434
2026-01-10 08:54:09.87	101.80	24.65	-37.5	-39.1	16.6	0.00e+00	0	55	0	535822336	46	4374
2026-01-10 08:54:10.88	101.59	24.76	-37.5	-39.1	16.6	0.00e+00	0	55	0	538968064	46	4368
2026-01-10 08:54:11.89	101.37	24.87	-37.6	-39.3	16.5	0.00e+00	0	55	0	542113792	46	4446
2026-01-10 08:54:12.90	101.16	24.98	-37.7	-39.3	16.4	0.00e+00	0	55	0	545259520	46	4464
2026-01-10 08:54:13.90	100.94	25.09	-37.7	-39.4	16.4	0.00e+00	0	55	0	548405248	46	4503
2026-01-10 08:54:14.91	100.72	25.20	-37.8	-39.5	16.3	0.00e+00	0	55	0	551550976	46	4546
2026-01-10 08:54:15.92	100.50	25.31	-37.9	-39.5	16.2	0.00e+00	0	55	0	554696704	46	4584
2026-01-10 08:54:16.93	100.28	25.42	-37.8	-39.5	16.2	0.00e+00	0	54	0	557842432	46	4580
2026-01-10 08:54:17.93	100.06	25.53	-37.8	-39.5	16.2	0.00e+00	0	55	0	560988160	46	4565
2026-01-10 08:54:18.94	99.83	25.64	-37.9	-39.6	16.2	0.00e+00	0	55	0	564133888	46	4601
2026-01-10 08:54:19.95	99.61	25.75	-37.9	-39.6	16.2	0.00e+00	0	55	0	567279616	46	4599
2026-01-10 08:54:20.95	99.38	25.86	-37.9	-39.6	16.1	0.00e+00	0	55	0	570425344	46	4634
2026-01-10 08:54:21.96	99.15	25.97	-38.0	-39.7	16.0	0.00e+00	0	55	0	573571072	46	4690
2026-01-10 08:54:22.97	98.92	26.08	-38.1	-39.8	15.9	0.00e+00	0	55	0	576716800	46	4728
2026-01-10 08:54:23.98	98.69	26.19	-38.2	-40.0	15.8	0.00e+00	0	55	0	579862528	46	4825
2026-01-10 08:54:24.98	98.45	26.30	-38.3	-40.1	15.7	0.00e+00	0	55	0	583008256	47	4602
2026-01-10 08:54:25.99	98.22	26.41	-38.3	-40.1	15.6	0.00e+00	0	55	0	586153984	47	4646
2026-01-10 08:54:26.99	97.98	26.52	-38.3	-40.1	15.7	0.00e+00	0	55	0	589299712	47	4623
2026-01-10 08:54:28.00	97.74	26.63	-38.2	-40.0	15.8	0.00e+00	0	55	0	592445440	47	4579
2026-01-10 08:54:29.01	97.50	26.74	-38.2	-40.0	15.8	0.00e+00	0	55	0	595591168	47	4558
2026-01-10 08:54:30.01	97.26	26.85	-38.2	-39.9	15.8	0.00e+00	0	55	0	598736896	47	4517
2026-01-10 08:54:31.02	97.02	26.96	-38.2	-39.9	15.9	0.00e+00	0	55	0	601882624	47	4519
2026-01-10 08:54:32.02	96.77	27.06	-38.2	-40.0	15.8	0.00e+00	0	55	0	605028352	47	4550
2026-01-10 08:54:33.03	96.53	27.17	-38.3	-40.0	15.7	0.00e+00	0	55	0	608174080	47	4585
2026-01-10 08:54:34.04	96.28	27.28	-38.3	-40.1	15.7	0.00e+00	0	55	0	611319808	47	4621
2026-01-10 08:54:35.05	96.03	27.39	-38.3	-40.0	15.7	0.00e+00	0	55	0	614465536	47	4581
2026-01-10 08:54:36.05	95.77	27.50	-38.2	-39.9	15.8	0.00e+00	0	55	0	617611264	47	4531
2026-01-10 08:54:37.06	95.52	27.60	-38.0	-39.7	16.0	0.00e+00	0	55	0	620756992	47	4424
2026-01-10 08:54:38.07	95.26	27.71	-37.9	-39.6	16.2	0.00e+00	0	55	0	623902720	47	4376
2026-01-10 08:54:39.07	95.01	27.82	-37.9	-39.6	16.2	0.00e+00	0	55	0	627048448	47	4366
2026-01-10 08:54:40.08	94.75	27.93	-37.9	-39.6	16.2	0.00e+00	0	55	0	630194176	47	4366
2026-01-10 08:54:41.09	94.49	28.03	-37.8	-39.4	16.3	0.00e+00	0	55	0	633339904	47	4284
2026-01-10 08:54:42.09	94.23	28.14	-37.8	-39.5	16.3	0.00e+00	0	55	0	636485632	47	4300
2026-01-10 08:54:43.10	93.96	28.25	-37.8	-39.4	16.3	0.00e+00	0	55	0	639631360	47	4283
2026-01-10 08:54:44.11	93.69	28.35	-37.8	-39.4	16.4	0.00e+00	0	55	0	642777088	47	4276
2026-01-10 08:54:45.11	93.43	28.46	-37.8	-39.4	16.4	0.00e+00	0	55	0	645922816	47	4269
2026-01-10 08:54:46.12	93.16	28.56	-37.8	-39.5	16.3	0.00e+00	0	55	0	649068544	47	4310
2026-01-10 08:54:47.13	92.88	28.67	-38.0	-39.7	16.2	0.00e+00	0	55	0	652214272	47	4395
2026-01-10 08:54:48.14	92.61	28.77	-38.0	-39.7	16.1	0.00e+00	0	55	0	655360000	47	4428
2026-01-10 08:54:49.15	92.33	28.88	-38.0	-39.8	16.0	0.00e+00	0	55	0	658505728	47	4442
2026-01-10 08:54:50.16	92.06	28.98	-38.1	-39.8	16.0	0.00e+00	0	55	0	661651456	47	4486
2026-01-10 08:54:51.17	91.78	29.09	-38.2	-40.0	15.8	0.00e+00	0	55	0	664797184	47	4555
2026-01-10 08:54:52.18	91.50	29.19	-38.2	-39.9	15.9	0.00e+00	0	55	0	667942912	47	4518
2026-01-10 08:54:53.19	91.21	29.30	-38.2	-39.9	15.9	0.00e+00	0	55	0	671088640	47	4524
2026-01-10 08:54:54.19	90.93	29.40	-38.1	-39.8	16.0	0.00e+00	0	55	0	674234368	47	4484
2026-01-10 08:54:55.20	90.64	29.50	-38.1	-39.8	16.0	0.00e+00	0	55	0	677380096	47	4493
2026-01-10 08:54:56.21	90.36	29.60	-38.1	-39.8	16.0	0.00e+00	0	55	0	680525824	47	4459
2026-01-10 08:54:57.22	90.06	29.70	-38.0	-39.7	16.1	0.00e+00	0	55	0	683671552	47	4420
2026-01-10 08:54:58.23	89.77	29.80	-37.9	-39.5	16.3	0.00e+00	0	55	0	686817280	47	4328
2026-01-10 08:54:59.23	89.48	29.90	-37.8	-39.5	16.3	0.00e+00	0	55	0	689963008	47	4296
2026-01-10 08:55:00.24	89.19	30.00	-37.8	-39.5	16.3	0.00e+00	0	55	0	693108736	47	4301
2026-01-10 08:55:01.25	88.89	30.10	-37.9	-39.5	16.3	0.00e+00	0	55	0	696254464	47	4319
2026-01-10 08:55:02.26	88.59	30.20	-37.9	-39.5	16.3	0.00e+00	0	55	0	699400192	47	4325
2026-01-10 08:55:03.27	88.29	30.30	-38.0	-39.6	16.2	0.00e+00	0	55	0	702545920	47	4379
2026-01-10 08:55:04.28	87.98	30.40	-38.0	-39.7	16.1	0.00e+00	0	55	0	705691648	47	4433
2026-01-10 08:55:05.28	87.68	30.50	-38.1	-39.9	16.0	0.00e+00	0	55	0	708837376	47	4497
2026-01-10 08:55:06.29	87.37	30.59	-38.2	-39.9	15.9	0.00e+00	0	55	0	711983104	47	4522
2026-01-10 08:55:07.30	87.06	30.69	-38.1	-39.9	16.0	0.00e+00	0	55	0	715128832	47	4499
2026-01-10 08:55:08.30	86.76	30.78	-38.1	-39.8	16.0	0.00e+00	0	55	0	718274560	47	4457
2026-01-10 08:55:09.31	86.44	30.88	-38.1	-39.8	16.0	0.00e+00	0	55	0	721420288	47	4487
2026-01-10 08:55:10.32	86.13	30.97	-38.1	-39.8	16.0	0.00e+00	0	55	0	724566016	47	4476
2026-01-10 08:55:11.33	85.81	31.07	-38.2	-39.9	15.9	0.00e+00	0	55	0	727711744	47	4508
2026-01-10 08:55:12.33	85.50	31.16	-38.2	-39.9	16.0	0.00e+00	0	55	0	730857472	47	4508
2026-01-10 08:55:13.35	85.18	31.25	-38.1	-39.8	16.0	0.00e+00	0	55	0	734003200	47	4489
2026-01-10 08:55:14.35	84.86	31.34	-38.1	-39.8	16.1	0.00e+00	0	55	0	737148928	47	4457
2026-01-10 08:55:15.36	84.53	31.43	-38.1	-39.7	16.1	0.00e+00	0	55	0	740294656	47	4436
2026-01-10 08:55:16.37	84.21	31.52	-38.1	-39.8	16.0	0.00e+00	0	55	0	743440384	47	4478
2026-01-10 08:55:17.38	83.88	31.61	-38.2	-39.9	16.0	0.00e+00	0	55	0	746586112	47	4509
2026-01-10 08:55:18.39	83.55	31.70	-38.2	-39.9	15.9	0.00e+00	0	55	0	749731840	47	4545
2026-01-10 08:55:19.40	83.22	31.79	-38.4	-40.2	15.7	7.00e-07	0	55	0	752877568	47	4678
2026-01-10 08:55:20.40	82.89	31.87	-38.6	-40.5	15.4	0.00e+00	0	55	0	756023296	47	4846
2026-01-10 08:55:21.41	82.56	31.96	-38.7	-40.5	15.3	0.00e+00	0	55	0	759169024	47	4863
2026-01-10 08:55:22.42	82.22	32.04	-39.0	-40.8	15.1	7.00e-07	0	55	0	762314752	48	4756
2026-01-10 08:55:23.43	81.89	32.13	-39.0	-40.9	15.0	0.00e+00	0	55	0	765460480	48	4813
2026-01-10 08:55:24.43	81.55	32.21	-39.0	-40.9	15.1	0.00e+00	0	55	0	768606208	48	4783
2026-01-10 08:55:25.44	81.21	32.29	-39.0	-40.9	15.2	7.00e-07	0	55	0	771751936	48	4765
2026-01-10 08:55:26.45	80.87	32.38	-38.8	-40.7	15.3	0.00e+00	0	55	0	774897664	48	4654
2026-01-10 08:55:27.45	80.52	32.45	-38.7	-40.5	15.5	0.00e+00	0	55	0	778043392	48	4556
2026-01-10 08:55:28.46	80.18	32.53	-38.7	-40.5	15.6	0.00e+00	0	55	0	781189120	48	4554
2026-01-10 08:55:29.47	79.83	32.61	-38.8	-40.6	15.4	0.00e+00	0	55	0	784334848	48	4646
2026-01-10 08:55:30.47	79.48	32.69	-38.8	-40.6	15.4	0.00e+00	0	55	0	787480576	48	4625
2026-01-10 08:55:31.48	79.13	32.77	-38.7	-40.5	15.5	0.00e+00	0	55	0	790626304	48	4580
2026-01-10 08:55:32.49	78.78	32.84	-38.8	-40.6	15.4	0.00e+00	0	55	0	793772032	48	4625
2026-01-10 08:55:33.50	78.42	32.92	-38.9	-40.7	15.3	0.00e+00	0	55	0	796917760	48	4679
2026-01-10 08:55:34.51	78.07	32.99	-38.9	-40.8	15.2	0.00e+00	0	55	0	800063488	48	4725
2026-01-10 08:55:35.52	77.71	33.06	-38.9	-40.7	15.3	0.00e+00	0	55	0	803209216	48	4697
2026-01-10 08:55:36.53	77.35	33.13	-38.8	-40.6	15.4	0.00e+00	0	55	0	806354944	48	4635
2026-01-10 08:55:37.54	76.99	33.20	-38.7	-40.5	15.6	0.00e+00	0	55	0	809500672	48	4550
2026-01-10 08:55:38.55	76.63	33.27	-38.7	-40.4	15.6	0.00e+00	0	55	0	812646400	48	4529
2026-01-10 08:55:39.56	76.26	33.34	-38.7	-40.5	15.5	0.00e+00	0	55	0	815792128	48	4578
2026-01-10 08:55:40.57	75.90	33.41	-38.8	-40.6	15.4	0.00e+00	0	55	0	818937856	48	4649
2026-01-10 08:55:41.57	75.53	33.47	-39.0	-40.9	15.2	0.00e+00	0	55	0	822083584	48	4764
2026-01-10 08:55:42.58	75.17	33.54	-39.1	-41.0	15.1	0.00e+00	0	55	0	825229312	48	4845
2026-01-10 08:55:43.59	74.80	33.60	-39.1	-41.1	15.0	0.00e+00	0	55	0	828375040	48	4884
2026-01-10 08:55:44.60	74.42	33.66	-39.2	-41.1	14.9	0.00e+00	0	55	0	831520768	48	4924
2026-01-10 08:55:45.61	74.05	33.72	-39.2	-41.1	15.0	0.00e+00	0	55	0	834666496	49	4629
2026-01-10 08:55:46.61	73.68	33.78	-39.1	-41.1	15.0	0.00e+00	0	55	0	837812224	49	4610
2026-01-10 08:55:47.62	73.31	33.84	-39.1	-41.0	15.1	0.00e+00	0	55	0	840957952	49	4569
2026-01-10 08:55:48.63	72.93	33.89	-39.0	-40.9	15.2	0.00e+00	0	55	0	844103680	49	4505
2026-01-10 08:55:49.64	72.55	33.95	-38.9	-40.8	15.3	0.00e+00	0	55	0	847249408	49	4448
2026-01-10 08:55:50.64	72.18	34.00	-38.8	-40.7	15.4	0.00e+00	0	55	0	850395136	49	4392
2026-01-10 08:55:51.65	71.80	34.06	-38.8	-40.6	15.4	0.00e+00	0	55	0	853540864	49	4384
2026-01-10 08:55:52.66	71.41	34.11	-38.8	-40.7	15.4	0.00e+00	0	55	0	856686592	49	4396
2026-01-10 08:55:53.67	71.03	34.16	-38.9	-40.7	15.3	0.00e+00	0	55	0	859832320	49	4437
2026-01-10 08:55:54.68	70.65	34.21	-39.0	-40.8	15.3	0.00e+00	0	55	0	862978048	49	4477
2026-01-10 08:55:55.69	70.26	34.25	-38.9	-40.8	15.3	0.00e+00	0	55	0	866123776	49	4453
2026-01-10 08:55:56.69	69.88	34.30	-39.0	-40.9	15.2	0.00e+00	0	55	0	869269504	49	4534
2026-01-10 08:55:57.70	69.49	34.34	-39.1	-41.0	15.1	0.00e+00	0	55	0	872415232	49	4575
2026-01-10 08:55:58.71	69.10	34.39	-39.2	-41.1	15.0	0.00e+00	0	55	0	875560960	49	4630
2026-01-10 08:55:59.72	68.71	34.43	-39.2	-41.1	15.0	0.00e+00	0	55	0	878706688	49	4611
2026-01-10 08:56:00.72	68.33	34.47	-39.1	-40.9	15.2	0.00e+00	0	55	0	881852416	49	4537
2026-01-10 08:56:01.74	67.93	34.51	-39.0	-40.9	15.3	0.00e+00	0	55	0	884998144	49	4495
2026-01-10 08:56:02.74	67.54	34.54	-39.0	-40.8	15.2	0.00e+00	0	55	0	888143872	49	4493
2026-01-10 08:56:03.75	67.15	34.58	-39.2	-41.1	15.1	0.00e+00	0	55	0	891289600	49	4608
2026-01-10 08:56:04.76	66.76	34.61	-39.2	-41.1	15.0	0.00e+00	0	55	0	894435328	49	4612
2026-01-10 08:56:05.77	66.36	34.65	-39.1	-41.0	15.1	0.00e+00	0	55	0	897581056	49	4597
2026-01-10 08:56:06.77	65.97	34.68	-39.1	-41.0	15.1	0.00e+00	0	55	0	900726784	49	4564
2026-01-10 08:56:07.78	65.57	34.71	-39.1	-41.0	15.1	0.00e+00	0	55	0	903872512	49	4596
2026-01-10 08:56:08.78	65.18	34.73	-39.2	-41.1	15.0	0.00e+00	0	55	0	907018240	49	4651
2026-01-10 08:56:09.79	64.78	34.76	-39.2	-41.1	14.9	0.00e+00	0	55	0	910163968	49	4649
2026-01-10 08:56:10.80	64.38	34.79	-39.2	-41.2	14.9	0.00e+00	0	55	0	913309696	49	4669
2026-01-10 08:56:11.81	63.99	34.81	-39.1	-41.1	15.0	0.00e+00	0	55	0	916455424	49	4604
2026-01-10 08:56:12.82	63.59	34.83	-39.3	-41.3	14.9	0.00e+00	0	55	0	919601152	49	4710
2026-01-10 08:56:13.83	63.19	34.85	-39.4	-41.4	14.7	0.00e+00	0	55	0	922746880	49	4804
2026-01-10 08:56:14.83	62.79	34.87	-39.5	-41.5	14.6	0.00e+00	0	55	0	925892608	49	4839
2026-01-10 08:56:15.84	62.39	34.89	-39.4	-41.4	14.7	7.00e-07	0	55	0	929038336	49	4799
2026-01-10 08:56:16.84	61.99	34.90	-39.5	-41.5	14.6	7.00e-07	0	55	0	932184064	49	4861
2026-01-10 08:56:17.85	61.59	34.92	-39.5	-41.5	14.6	7.00e-07	0	55	0	935329792	49	4858
2026-01-10 08:56:18.86	61.19	34.93	-39.3	-41.2	14.8	7.00e-07	0	55	0	938475520	49	4704
2026-01-10 08:56:19.86	60.79	34.94	-39.4	-41.3	14.8	7.00e-07	0	55	0	941621248	49	4757
2026-01-10 08:56:20.87	60.39	34.95	-39.4	-41.3	14.8	0.00e+00	0	55	0	944766976	49	4757
2026-01-10 08:56:21.88	59.99	34.96	-39.1	-41.0	15.1	0.00e+00	0	55	0	947912704	49	4577
2026-01-10 08:56:22.89	59.58	34.96	-39.0	-40.8	15.3	0.00e+00	0	55	0	951058432	49	4458
2026-01-10 08:56:23.89	59.18	34.97	-39.1	-40.9	15.2	0.00e+00	0	55	0	954204160	49	4534
2026-01-10 08:56:24.90	58.78	34.97	-39.2	-41.1	15.0	0.00e+00	0	55	0	957349888	49	4618
2026-01-10 08:56:25.91	58.38	34.97	-39.2	-41.1	15.0	0.00e+00	0	55	0	960495616	49	4626
2026-01-10 08:56:26.92	57.98	34.97	-39.3	-41.2	14.9	0.00e+00	0	55	0	963641344	49	4675
2026-01-10 08:56:27.92	57.58	34.97	-39.3	-41.2	14.8	0.00e+00	0	55	0	966787072	49	4699
2026-01-10 08:56:28.93	57.17	34.97	-39.4	-41.4	14.7	0.00e+00	0	55	0	969932800	49	4784
2026-01-10 08:56:29.94	56.77	34.96	-39.4	-41.4	14.7	0.00e+00	0	55	0	973078528	49	4770
2026-01-10 08:56:30.95	56.37	34.95	-39.5	-41.5	14.6	7.00e-07	0	55	0	976224256	49	4840
2026-01-10 08:56:31.96	55.97	34.94	-39.3	-41.3	14.9	0.00e+00	0	55	0	979369984	49	4712
2026-01-10 08:56:32.96	55.57	34.93	-39.3	-41.3	14.8	7.00e-07	0	55	0	982515712	49	4735
2026-01-10 08:56:33.97	55.17	34.92	-39.5	-41.5	14.7	0.00e+00	0	55	0	985661440	49	4827
2026-01-10 08:56:34.98	54.77	34.91	-39.3	-41.3	14.8	7.00e-07	0	55	0	988807168	49	4733
2026-01-10 08:56:35.99	54.36	34.90	-39.3	-41.2	14.9	0.00e+00	0	55	0	991952896	49	4693
2026-01-10 08:56:37.00	53.96	34.88	-39.4	-41.4	14.7	0.00e+00	0	55	0	995098624	49	4795
2026-01-10 08:56:38.00	53.57	34.86	-39.6	-41.7	14.5	0.00e+00	0	55	0	998244352	49	4971
2026-01-10 08:56:39.01	53.17	34.84	-39.6	-41.6	14.5	7.00e-07	0	55	0	1001390080	49	4904
2026-01-10 08:56:40.02	52.77	34.82	-39.4	-41.4	14.7	0.00e+00	0	56	0	1004535808	49	4807
2026-01-10 08:56:41.03	52.37	34.80	-39.4	-41.4	14.7	7.00e-07	0	55	0	1007681536	49	4811
2026-01-10 08:56:42.04	51.97	34.77	-39.3	-41.3	14.9	0.00e+00	0	55	0	1010827264	49	4733
2026-01-10 08:56:43.05	51.57	34.75	-39.4	-41.4	14.7	0.00e+00	0	56	0	1013972992	49	4791
2026-01-10 08:56:44.06	51.18	34.72	-39.5	-41.5	14.6	7.00e-07	0	55	0	1017118720	49	4850
2026-01-10 08:56:45.06	50.78	34.69	-39.6	-41.7	14.4	7.00e-07	0	55	0	1020264448	49	4960
2026-01-10 08:56:46.07	50.39	34.66	-39.8	-41.9	14.3	0.00e+00	0	55	0	1023410176	50	4773
2026-01-10 08:56:47.08	49.99	34.63	-39.7	-41.9	14.3	3.80e-06	0	56	0	1027604480	50	4771
2026-01-10 08:56:48.09	49.60	34.60	-39.7	-41.7	14.4	2.20e-06	0	56	0	1030750208	50	4696
2026-01-10 08:56:49.10	49.21	34.56	-39.6	-41.7	14.5	7.00e-07	0	55	0	1032847360	50	4661
2026-01-10 08:56:50.11	48.82	34.52	-39.6	-41.7	14.5	0.00e+00	0	55	0	1035993088	50	4662
2026-01-10 08:56:51.12	48.42	34.49	-39.3	-41.3	14.9	0.00e+00	0	55	0	1039138816	50	4465
2026-01-10 08:56:52.12	48.04	34.45	-39.0	-40.9	15.3	0.00e+00	0	55	0	1042284544	50	4245
2026-01-10 08:56:53.13	47.65	34.41	-39.0	-40.8	15.3	0.00e+00	0	55	0	1046478848	49	4491
2026-01-10 08:56:54.14	47.26	34.37	-38.9	-40.7	15.5	0.00e+00	0	56	0	1049624576	49	4407
2026-01-10 08:56:55.14	46.88	34.32	-38.9	-40.8	15.4	0.00e+00	0	55	0	1052770304	49	4462
2026-01-10 08:56:56.15	46.49	34.28	-39.2	-41.1	15.1	0.00e+00	0	55	0	1054867456	49	4609
2026-01-10 08:56:57.16	46.10	34.23	-39.2	-41.0	15.1	0.00e+00	0	55	0	1058013184	49	4597
2026-01-10 08:56:58.16	45.72	34.18	-39.2	-41.1	15.0	0.00e+00	0	55	0	1061158912	49	4624
2026-01-10 08:56:59.18	45.34	34.13	-39.1	-41.0	15.1	0.00e+00	0	55	0	1064304640	49	4589
2026-01-10 08:57:00.19	44.96	34.08	-39.1	-41.0	15.2	0.00e+00	0	55	0	1068498944	49	4558
2026-01-10 08:57:01.20	44.58	34.03	-39.1	-40.9	15.3	0.00e+00	0	55	0	1071644672	49	4529
2026-01-10 08:57:02.20	44.20	33.98	-39.0	-40.9	15.3	0.00e+00	0	55	0	1074790400	49	4515
2026-01-10 08:57:03.21	43.82	33.92	-39.1	-40.9	15.2	0.00e+00	0	55	0	1077936128	49	4539
2026-01-10 08:57:04.22	43.45	33.87	-39.2	-41.1	15.1	7.00e-07	0	55	0	1080033280	49	4604
2026-01-10 08:57:05.23	43.07	33.81	-39.3	-41.3	14.9	0.00e+00	0	55	0	1083179008	49	4734
2026-01-10 08:57:06.23	42.70	33.75	-39.4	-41.4	14.8	0.00e+00	0	55	0	1087373312	49	4782
2026-01-10 08:57:07.24	42.33	33.69	-39.5	-41.5	14.7	0.00e+00	0	56	0	1090519040	49	4846
2026-01-10 08:57:08.25	41.96	33.63	-39.8	-41.9	14.3	0.00e+00	0	55	0	1093664768	50	4764
2026-01-10 08:57:09.25	41.59	33.57	-39.9	-42.1	14.1	0.00e+00	0	56	0	1096810496	50	4914
2026-01-10 08:57:10.26	41.22	33.51	-39.8	-41.9	14.3	7.00e-07	0	56	0	1099956224	50	4783
2026-01-10 08:57:11.27	40.85	33.44	-39.4	-41.4	14.7	0.00e+00	0	56	0	1102053376	50	4537
2026-01-10 08:57:12.27	40.49	33.38	-39.1	-41.0	15.2	0.00e+00	0	56	0	1105199104	50	4321
2026-01-10 08:57:13.28	40.13	33.31	-39.0	-40.8	15.4	7.00e-07	0	55	0	1109393408	50	4232
2026-01-10 08:57:14.29	39.77	33.24	-39.0	-40.9	15.3	0.00e+00	0	55	0	1112539136	49	4511
2026-01-10 08:57:15.30	39.41	33.17	-39.2	-41.1	15.1	0.00e+00	0	56	0	1115684864	49	4620
2026-01-10 08:57:16.31	39.05	33.10	-39.4	-41.4	14.8	0.00e+00	0	56	0	1118830592	49	4782
2026-01-10 08:57:17.31	38.69	33.03	-39.6	-41.7	14.5	0.00e+00	0	56	0	1121976320	49	4933
2026-01-10 08:57:18.32	38.34	32.96	-39.6	-41.7	14.4	2.20e-06	0	55	0	1125122048	49	4978
2026-01-10 08:57:19.33	37.98	32.88	-39.5	-41.5	14.7	0.00e+00	0	56	0	1128267776	49	4829
2026-01-10 08:57:20.34	37.63	32.81	-39.2	-41.1	15.1	0.00e+00	0	55	0	1131413504	49	4616
2026-01-10 08:57:21.35	37.28	32.73	-38.9	-40.7	15.4	0.00e+00	0	55	0	1134559232	49	4428
2026-01-10 08:57:22.36	36.93	32.66	-38.8	-40.6	15.6	0.00e+00	0	55	0	1137704960	49	4344
2026-01-10 08:57:23.36	36.58	32.58	-38.8	-40.6	15.5	0.00e+00	0	55	0	1140850688	49	4368
2026-01-10 08:57:24.37	36.24	32.50	-38.8	-40.6	15.5	0.00e+00	0	55	0	1143996416	49	4371
2026-01-10 08:57:25.38	35.89	32.42	-39.0	-40.8	15.3	0.00e+00	0	55	0	1147142144	49	4481
2026-01-10 08:57:26.39	35.55	32.34	-39.2	-41.2	15.0	0.00e+00	0	56	0	1150287872	49	4660
2026-01-10 08:57:27.40	35.21	32.26	-39.3	-41.3	14.9	0.00e+00	0	56	0	1153433600	49	4706
2026-01-10 08:57:28.41	34.87	32.18	-39.2	-41.1	15.1	0.00e+00	0	55	0	1156579328	49	4624
2026-01-10 08:57:29.41	34.54	32.09	-39.0	-40.8	15.4	0.00e+00	0	55	0	1159725056	49	4481
2026-01-10 08:57:30.42	34.20	32.01	-38.7	-40.5	15.7	0.00e+00	0	56	0	1162870784	49	4314
2026-01-10 08:57:31.43	33.87	31.92	-38.7	-40.4	15.8	0.00e+00	0	55	0	1166016512	49	4281
2026-01-10 08:57:32.43	33.54	31.84	-38.6	-40.4	15.8	0.00e+00	0	55	0	1169162240	49	4271
2026-01-10 08:57:33.44	33.21	31.75	-38.8	-40.6	15.6	0.00e+00	0	55	0	1172307968	49	4376
2026-01-10 08:57:34.45	32.88	31.66	-39.0	-40.9	15.3	0.00e+00	0	55	0	1175453696	49	4495
2026-01-10 08:57:35.45	32.55	31.58	-39.0	-40.9	15.2	0.00e+00	0	56	0	1178599424	49	4529
2026-01-10 08:57:36.46	32.23	31.49	-39.0	-40.9	15.3	0.00e+00	0	55	0	1181745152	49	4506
2026-01-10 08:57:37.47	31.91	31.40	-38.8	-40.6	15.5	0.00e+00	0	56	0	1184890880	49	4380
2026-01-10 08:57:38.47	31.59	31.31	-38.8	-40.6	15.5	0.00e+00	0	55	0	1188036608	49	4384
2026-01-10 08:57:39.48	31.27	31.22	-38.6	-40.3	15.9	0.00e+00	0	56	0	1191182336	49	4212
2026-01-10 08:57:40.49	30.95	31.12	-38.4	-40.1	16.0	0.00e+00	0	55	0	1194328064	48	4376
2026-01-10 08:57:41.49	30.64	31.03	-38.4	-40.1	16.0	0.00e+00	0	55	0	1197473792	48	4381
2026-01-10 08:57:42.50	30.32	30.94	-38.6	-40.3	15.8	0.00e+00	0	56	0	1200619520	48	4483
2026-01-10 08:57:43.51	30.01	30.84	-38.8	-40.7	15.5	0.00e+00	0	55	0	1203765248	48	4653
2026-01-10 08:57:44.51	29.70	30.75	-38.9	-40.8	15.4	0.00e+00	0	56	0	1206910976	48	4717
2026-01-10 08:57:45.52	29.39	30.66	-39.0	-40.9	15.2	0.00e+00	0	55	0	1210056704	48	4807
2026-01-10 08:57:46.53	29.09	30.56	-38.8	-40.7	15.5	0.00e+00	0	55	0	1213202432	48	4659
2026-01-10 08:57:47.54	28.78	30.46	-38.7	-40.5	15.6	0.00e+00	0	55	0	1216348160	48	4590
2026-01-10 08:57:48.55	28.48	30.37	-38.7	-40.5	15.7	0.00e+00	0	56	0	1219493888	48	4572
2026-01-10 08:57:49.56	28.18	30.27	-38.7	-40.6	15.6	0.00e+00	0	56	0	1222639616	48	4600
2026-01-10 08:57:50.57	27.88	30.17	-38.9	-40.8	15.4	0.00e+00	0	56	0	1225785344	48	4731
2026-01-10 08:57:51.58	27.58	30.07	-39.0	-40.9	15.2	0.00e+00	0	55	0	1228931072	48	4790
2026-01-10 08:57:52.58	27.29	29.97	-39.0	-40.8	15.3	0.00e+00	0	56	0	1232076800	48	4742
2026-01-10 08:57:53.59	26.99	29.87	-38.8	-40.6	15.6	0.00e+00	0	56	0	1235222528	48	4616
2026-01-10 08:57:54.60	26.70	29.77	-38.8	-40.6	15.6	0.00e+00	0	56	0	1238368256	48	4612
2026-01-10 08:57:55.60	26.41	29.67	-38.6	-40.4	15.8	0.00e+00	0	55	0	1241513984	48	4505
2026-01-10 08:57:56.61	26.13	29.57	-38.5	-40.2	16.0	0.00e+00	0	56	0	1244659712	48	4409
2026-01-10 08:57:57.61	25.84	29.47	-38.6	-40.3	15.8	0.00e+00	0	55	0	1247805440	48	4483
2026-01-10 08:57:58.63	25.55	29.37	-38.7	-40.5	15.7	0.00e+00	0	56	0	1250951168	48	4550
2026-01-10 08:57:59.63	25.27	29.26	-38.6	-40.4	15.8	0.00e+00	0	55	0	1254096896	48	4509
2026-01-10 08:58:00.64	24.99	29.16	-38.6	-40.4	15.7	0.00e+00	0	55	0	1257242624	48	4527
2026-01-10 08:58:01.65	24.71	29.06	-38.6	-40.4	15.7	0.00e+00	0	55	0	1260388352	48	4517
2026-01-10 08:58:02.66	24.44	28.95	-38.7	-40.5	15.7	0.00e+00	0	56	0	1263534080	48	4573
2026-01-10 08:58:03.67	24.16	28.85	-38.5	-40.2	15.9	0.00e+00	0	56	0	1266679808	48	4438
2026-01-10 08:58:04.68	23.89	28.75	-38.4	-40.1	16.0	0.00e+00	0	56	0	1269825536	48	4345
2026-01-10 08:58:05.68	23.62	28.64	-38.3	-40.0	16.0	0.00e+00	0	56	0	1272971264	48	4333
2026-01-10 08:58:06.70	23.34	28.54	-38.3	-40.0	16.1	0.00e+00	0	55	0	1276116992	48	4339
2026-01-10 08:58:07.70	23.08	28.43	-38.3	-40.0	16.0	0.00e+00	0	56	0	1279262720	48	4333
2026-01-10 08:58:08.71	22.81	28.33	-38.4	-40.2	15.9	0.00e+00	0	55	0	1282408448	48	4412
2026-01-10 08:58:09.72	22.55	28.22	-38.5	-40.3	15.8	0.00e+00	0	56	0	1285554176	48	4467
2026-01-10 08:58:10.73	22.28	28.11	-38.5	-40.3	15.8	0.00e+00	0	55	0	1288699904	48	4468
2026-01-10 08:58:11.74	22.02	28.01	-38.5	-40.3	15.8	0.00e+00	0	56	0	1291845632	48	4476
2026-01-10 08:58:12.75	21.76	27.90	-38.4	-40.2	15.9	0.00e+00	0	56	0	1294991360	48	4404
2026-01-10 08:58:13.76	21.50	27.79	-38.3	-39.9	16.1	0.00e+00	0	56	0	1298137088	48	4288
2026-01-10 08:58:14.77	21.25	27.69	-38.2	-39.9	16.1	0.00e+00	0	56	0	1301282816	48	4285
2026-01-10 08:58:15.77	21.00	27.58	-38.4	-40.1	16.0	0.00e+00	0	56	0	1304428544	48	4345
2026-01-10 08:58:16.78	20.74	27.47	-38.5	-40.2	15.9	0.00e+00	0	55	0	1307574272	48	4425
2026-01-10 08:58:17.79	20.49	27.36	-38.6	-40.4	15.7	0.00e+00	0	56	0	1310720000	48	4536
2026-01-10 08:58:18.80	20.24	27.26	-38.8	-40.6	15.5	0.00e+00	0	56	0	1313865728	48	4613
2026-01-10 08:58:19.80	20.00	27.15	-38.6	-40.4	15.7	0.00e+00	0	56	0	1317011456	48	4532
2026-01-10 08:58:20.81	19.75	27.04	-38.5	-40.2	15.9	0.00e+00	0	56	0	1320157184	48	4436
2026-01-10 08:58:21.81	19.51	26.93	-38.4	-40.1	15.9	0.00e+00	0	56	0	1323302912	48	4389
2026-01-10 08:58:22.82	19.27	26.82	-38.3	-40.0	16.1	0.00e+00	0	55	0	1326448640	48	4328
2026-01-10 08:58:23.83	19.03	26.71	-38.3	-40.0	16.0	0.00e+00	0	56	0	1329594368	48	4330
2026-01-10 08:58:24.83	18.79	26.61	-38.3	-40.0	16.1	0.00e+00	0	56	0	1332740096	48	4298
2026-01-10 08:58:25.84	18.55	26.50	-38.2	-39.9	16.1	0.00e+00	0	56	0	1335885824	48	4272
2026-01-10 08:58:26.84	18.32	26.39	-38.3	-40.0	16.0	0.00e+00	0	56	0	1339031552	48	4315
2026-01-10 08:58:27.85	18.08	26.28	-38.4	-40.1	16.0	0.00e+00	0	56	0	1342177280	48	4353
2026-01-10 08:58:28.86	17.85	26.17	-38.3	-40.0	16.0	0.00e+00	0	56	0	1345323008	48	4334
2026-01-10 08:58:29.86	17.62	26.06	-38.4	-40.1	16.0	0.00e+00	0	56	0	1348468736	48	4355
2026-01-10 08:58:30.87	17.39	25.95	-38.3	-39.9	16.1	0.00e+00	0	56	0	1351614464	48	4286
2026-01-10 08:58:31.88	17.17	25.84	-38.3	-40.0	16.1	0.00e+00	0	56	0	1354760192	48	4308
2026-01-10 08:58:32.89	16.94	25.73	-38.3	-40.0	16.0	0.00e+00	0	55	0	1357905920	48	4324
2026-01-10 08:58:33.90	16.72	25.62	-38.4	-40.1	15.9	0.00e+00	0	56	0	1361051648	48	4361
2026-01-10 08:58:34.91	16.49	25.51	-38.6	-40.4	15.7	0.00e+00	0	56	0	1364197376	48	4512
2026-01-10 08:58:35.92	16.27	25.41	-38.8	-40.6	15.5	0.00e+00	0	55	0	1367343104	48	4628
2026-01-10 08:58:36.93	16.05	25.30	-38.9	-40.8	15.2	7.00e-07	0	56	0	1370488832	48	4734
2026-01-10 08:58:37.93	15.83	25.19	-38.9	-40.9	15.2	0.00e+00	0	56	0	1373634560	48	4772
2026-01-10 08:58:38.94	15.62	25.08	-38.9	-40.9	15.2	7.00e-07	0	56	0	1376780288	48	4766
2026-01-10 08:58:39.95	15.40	24.97	-38.7	-40.6	15.5	0.00e+00	0	55	0	1379926016	48	4605
2026-01-10 08:58:40.96	15.19	24.86	-38.5	-40.3	15.8	0.00e+00	0	56	0	1383071744	48	4442
2026-01-10 08:58:41.96	14.98	24.75	-38.4	-40.2	15.9	0.00e+00	0	56	0	1386217472	48	4393
2026-01-10 08:58:42.97	14.77	24.64	-38.1	-39.8	16.2	0.00e+00	0	55	0	1389363200	48	4222
2026-01-10 08:58:43.98	14.56	24.53	-38.0	-39.6	16.4	0.00e+00	0	56	0	1392508928	48	4123
2026-01-10 08:58:44.99	14.35	24.42	-37.9	-39.5	16.4	0.00e+00	0	56	0	1395654656	47	4324
2026-01-10 08:58:45.99	14.15	24.31	-37.8	-39.4	16.5	0.00e+00	0	56	0	1398800384	47	4288
2026-01-10 08:58:47.00	13.94	24.20	-37.9	-39.5	16.4	0.00e+00	0	56	0	1401946112	47	4317
2026-01-10 08:58:48.01	13.74	24.09	-37.9	-39.5	16.4	0.00e+00	0	56	0	1405091840	47	4337
2026-01-10 08:58:49.01	13.54	23.99	-37.9	-39.5	16.4	0.00e+00	0	56	0	1408237568	47	4318
2026-01-10 08:58:50.02	13.34	23.88	-37.8	-39.4	16.5	0.00e+00	0	56	0	1411383296	47	4267
2026-01-10 08:58:51.03	13.14	23.77	-37.6	-39.2	16.6	0.00e+00	0	56	0	1414529024	47	4191
2026-01-10 08:58:52.03	12.94	23.66	-37.6	-39.2	16.6	0.00e+00	0	56	0	1417674752	47	4175
2026-01-10 08:58:53.04	12.74	23.55	-37.6	-39.2	16.7	0.00e+00	0	56	0	1420820480	47	4171
2026-01-10 08:58:54.05	12.55	23.44	-37.6	-39.2	16.7	0.00e+00	0	56	0	1423966208	47	4157
2026-01-10 08:58:55.06	12.36	23.33	-37.6	-39.2	16.6	0.00e+00	0	56	0	1427111936	47	4188
2026-01-10 08:58:56.07	12.16	23.22	-37.7	-39.4	16.5	0.00e+00	0	56	0	1430257664	47	4245
2026-01-10 08:58:57.07	11.97	23.12	-37.8	-39.5	16.4	0.00e+00	0	56	0	1433403392	47	4308
2026-01-10 08:58:58.08	11.78	23.01	-37.9	-39.6	16.3	0.00e+00	0	56	0	1436549120	47	4360
2026-01-10 08:58:59.09	11.60	22.90	-38.0	-39.7	16.2	0.00e+00	0	56	0	1439694848	47	4417
2026-01-10 08:59:00.09	11.41	22.79	-38.2	-39.9	16.0	0.00e+00	0	56	0	1442840576	47	4507
2026-01-10 08:59:01.11	11.22	22.68	-38.2	-40.0	15.9	0.00e+00	0	56	0	1445986304	47	4559
2026-01-10 08:59:02.12	11.04	22.58	-38.2	-40.0	15.9	0.00e+00	0	56	0	1449132032	47	4547
2026-01-10 08:59:03.13	10.86	22.47	-38.2	-39.9	15.9	0.00e+00	0	55	0	1452277760	47	4519
2026-01-10 08:59:04.13	10.68	22.36	-38.2	-39.9	15.9	0.00e+00	0	56	0	1455423488	47	4524
2026-01-10 08:59:05.14	10.49	22.25	-38.2	-40.0	15.9	0.00e+00	0	56	0	1458569216	47	4572
2026-01-10 08:59:06.15	10.32	22.15	-38.0	-39.7	16.1	0.00e+00	0	56	0	1461714944	47	4439
2026-01-10 08:59:07.16	10.14	22.04	-38.2	-39.9	16.0	0.00e+00	0	55	0	1464860672	47	4513
2026-01-10 08:59:08.17	9.96	21.93	-38.3	-40.1	15.8	0.00e+00	0	56	0	1468006400	47	4629
2026-01-10 08:59:09.18	9.79	21.82	-38.4	-40.3	15.6	0.00e+00	0	56	0	1471152128	47	4708
2026-01-10 08:59:10.18	9.61	21.72	-38.6	-40.4	15.4	0.00e+00	0	56	0	1474297856	47	4802
2026-01-10 08:59:11.19	9.44	21.61	-38.7	-40.6	15.2	0.00e+00	0	56	0	1477443584	47	4919
2026-01-10 08:59:12.19	9.27	21.51	-38.8	-40.7	15.3	0.00e+00	0	56	0	1480589312	48	4665
2026-01-10 08:59:13.20	9.10	21.40	-38.7	-40.5	15.4	0.00e+00	0	56	0	1483735040	48	4592
2026-01-10 08:59:14.21	8.93	21.29	-38.5	-40.3	15.6	0.00e+00	0	56	0	1486880768	48	4480
2026-01-10 08:59:15.22	8.76	21.19	-38.3	-40.1	15.8	0.00e+00	0	56	0	1490026496	48	4366
2026-01-10 08:59:16.22	8.59	21.08	-38.2	-40.0	15.9	0.00e+00	0	56	0	1493172224	48	4294
2026-01-10 08:59:17.23	8.43	20.98	-38.2	-39.9	16.0	0.00e+00	0	56	0	1496317952	48	4290
2026-01-10 08:59:18.24	8.26	20.87	-38.3	-40.0	15.9	0.00e+00	0	56	0	1499463680	48	4328
2026-01-10 08:59:19.25	8.10	20.77	-38.3	-40.1	15.8	0.00e+00	0	56	0	1502609408	48	4378
2026-01-10 08:59:20.26	7.94	20.66	-38.3	-40.1	15.8	0.00e+00	0	56	0	1505755136	48	4351
2026-01-10 08:59:21.27	7.78	20.56	-38.3	-40.1	15.8	0.00e+00	0	56	0	1508900864	48	4365
2026-01-10 08:59:22.27	7.62	20.46	-38.4	-40.1	15.7	0.00e+00	0	56	0	1512046592	48	4391
2026-01-10 08:59:23.28	7.46	20.35	-38.4	-40.1	15.7	0.00e+00	0	56	0	1515192320	48	4391
2026-01-10 08:59:24.29	7.30	20.25	-38.4	-40.2	15.7	0.00e+00	0	56	0	1518338048	48	4421
2026-01-10 08:59:25.30	7.14	20.14	-38.4	-40.2	15.6	0.00e+00	0	56	0	1521483776	48	4440
2026-01-10 08:59:26.31	6.99	20.04	-38.4	-40.2	15.6	0.00e+00	0	56	0	1524629504	48	4426
2026-01-10 08:59:27.31	6.83	19.94	-38.3	-40.1	15.7	0.00e+00	0	56	0	1527775232	48	4385
2026-01-10 08:59:28.32	6.68	19.83	-38.3	-40.1	15.7	0.00e+00	0	56	0	1530920960	48	4373
2026-01-10 08:59:29.33	6.53	19.73	-38.3	-40.1	15.7	0.00e+00	0	56	0	1534066688	48	4377
2026-01-10 08:59:30.34	6.38	19.63	-38.3	-40.0	15.8	0.00e+00	0	56	0	1537212416	48	4337
2026-01-10 08:59:31.35	6.22	19.52	-38.2	-39.9	15.9	0.00e+00	0	56	0	1540358144	48	4278
2026-01-10 08:59:32.36	6.07	19.42	-38.1	-39.8	15.9	0.00e+00	0	56	0	1543503872	48	4237
2026-01-10 08:59:33.37	5.93	19.32	-38.1	-39.8	16.0	0.00e+00	0	56	0	1546649600	48	4197
2026-01-10 08:59:34.37	5.78	19.22	-37.9	-39.6	16.1	0.00e+00	0	56	0	1549795328	47	4345
2026-01-10 08:59:35.39	5.63	19.12	-37.7	-39.4	16.3	0.00e+00	0	56	0	1552941056	47	4256
2026-01-10 08:59:36.39	5.49	19.01	-37.6	-39.3	16.3	0.00e+00	0	56	0	1556086784	47	4216
2026-01-10 08:59:37.40	5.34	18.91	-37.6	-39.2	16.4	0.00e+00	0	56	0	1559232512	47	4193
2026-01-10 08:59:38.41	5.20	18.81	-37.7	-39.4	16.3	0.00e+00	0	56	0	1562378240	47	4248
2026-01-10 08:59:39.41	5.06	18.71	-37.7	-39.4	16.2	0.00e+00	0	56	0	1565523968	47	4280
2026-01-10 08:59:40.42	4.92	18.61	-37.8	-39.5	16.1	0.00e+00	0	56	0	1568669696	47	4326
2026-01-10 08:59:41.43	4.78	18.51	-37.9	-39.6	16.0	0.00e+00	0	56	0	1571815424	47	4359
2026-01-10 08:59:42.44	4.64	18.41	-37.9	-39.7	15.9	0.00e+00	0	56	0	1574961152	47	4410
2026-01-10 08:59:43.44	4.50	18.31	-38.0	-39.8	15.8	0.00e+00	0	56	0	1578106880	47	4449
2026-01-10 08:59:44.45	4.36	18.21	-38.1	-39.9	15.7	0.00e+00	0	56	0	1581252608	47	4496
2026-01-10 08:59:45.46	4.22	18.11	-38.0	-39.8	15.8	0.00e+00	0	56	0	1584398336	47	4445
2026-01-10 08:59:46.46	4.09	18.01	-38.1	-39.9	15.7	0.00e+00	0	56	0	1587544064	47	4512
2026-01-10 08:59:47.48	3.95	17.91	-38.0	-39.8	15.7	0.00e+00	0	56	0	1590689792	47	4492
2026-01-10 08:59:48.48	3.82	17.82	-38.0	-39.9	15.6	0.00e+00	0	56	0	1593835520	47	4516
2026-01-10 08:59:49.49	3.69	17.72	-37.9	-39.8	15.7	0.00e+00	0	56	0	1596981248	47	4484
2026-01-10 08:59:50.50	3.55	17.62	-37.8	-39.7	15.7	0.00e+00	0	56	0	1600126976	47	4438
2026-01-10 08:59:51.50	3.42	17.52	-37.8	-39.8	15.6	0.00e+00	0	56	0	1603272704	47	4470
2026-01-10 08:59:52.51	3.29	17.42	-37.9	-39.8	15.6	0.00e+00	0	56	0	1606418432	47	4465
2026-01-10 08:59:53.52	3.16	17.33	-38.1	-39.9	15.5	0.00e+00	0	56	0	1609564160	47	4532
2026-01-10 08:59:54.53	3.03	17.23	-38.1	-40.0	15.5	0.00e+00	0	56	0	1612709888	47	4570
2026-01-10 08:59:55.53	2.91	17.13	-38.2	-40.1	15.3	0.00e+00	0	56	0	1615855616	47	4625
2026-01-10 08:59:56.54	2.78	17.04	-38.2	-40.1	15.3	0.00e+00	0	56	0	1619001344	47	4613
2026-01-10 08:59:57.55	2.65	16.94	-38.3	-40.2	15.2	0.00e+00	0	56	0	1622147072	47	4682
2026-01-10 08:59:58.55	2.53	16.84	-38.4	-40.4	15.0	0.00e+00	0	56	0	1625292800	47	4780
2026-01-10 08:59:59.56	2.40	16.75	-38.5	-40.6	14.8	0.00e+00	0	56	0	1628438528	47	4886
2026-01-10 09:00:00.57	2.28	16.65	-38.6	-40.7	14.7	7.00e-07	0	56	0	1631584256	47	4965
2026-01-10 09:00:01.58	2.16	16.55	-38.6	-40.8	14.6	0.00e+00	0	56	0	1634729984	47	4988
2026-01-10 09:00:02.59	2.03	16.46	-38.7	-40.8	14.5	0.00e+00	0	56	0	1637875712	47	5018
2026-01-10 09:00:03.59	1.91	16.36	-38.9	-41.0	14.5	0.00e+00	0	56	0	1641021440	48	4835
2026-01-10 09:00:04.60	1.79	16.27	-38.9	-41.0	14.4	1.50e-06	0	56	0	1644167168	48	4855
2026-01-10 09:00:05.61	1.67	16.17	-39.0	-41.1	14.3	0.00e+00	0	56	0	1647312896	48	4898
2026-01-10 09:00:06.62	1.55	16.08	-39.0	-41.2	14.2	3.80e-06	0	56	0	1650458624	48	4935
2026-01-10 09:00:07.63	1.43	15.99	-39.1	-41.3	14.0	1.50e-06	0	56	0	1653604352	48	5022
2026-01-10 09:00:08.64	1.32	15.89	-39.0	-41.2	14.1	2.20e-06	0	56	0	1656750080	48	4958
2026-01-10 09:00:09.64	1.20	15.80	-39.0	-41.2	14.1	7.00e-07	0	56	0	1659895808	48	4935
2026-01-10 09:00:10.65	1.08	15.70	-38.9	-41.1	14.1	2.20e-06	0	56	0	1663041536	48	4903
2026-01-10 09:00:11.66	0.97	15.61	-38.6	-40.8	14.4	0.00e+00	0	56	0	1666187264	48	4713
2026-01-10 09:00:12.67	0.85	15.52	-38.6	-40.7	14.4	0.00e+00	0	56	0	1669332992	48	4672
2026-01-10 09:00:13.67	0.74	15.43	-38.7	-40.8	14.2	0.00e+00	0	56	0	1672478720	48	4758
2026-01-10 09:00:14.68	0.63	15.33	-38.6	-40.8	14.2	7.00e-07	0	56	0	1675624448	48	4707
2026-01-10 09:00:15.68	0.52	15.24	-38.5	-40.7	14.1	0.00e+00	0	56	0	1678770176	48	4698
2026-01-10 09:00:16.69	0.40	15.15	-38.7	-41.0	13.8	3.00e-06	0	56	0	1681915904	48	4850
2026-01-10 09:00:17.70	0.29	15.06	-38.8	-41.3	13.4	1.67e-05	0	56	0	1685061632	48	4986
2026-01-10 09:00:18.70	0.18	14.97	-38.7	-41.1	13.6	1.37e-05	0	56	0	1688207360	48	4876
2026-01-10 09:00:19.71	0.07	14.88	-38.7	-41.0	13.6	3.80e-06	0	56	0	1691353088	48	4862
2026-01-10 09:00:20.72	359.96	14.78	-38.7	-41.1	13.4	6.80e-06	0	56	0	1694498816	48	4894
2026-01-10 09:00:21.73	359.86	14.69	-38.7	-41.2	13.3	2.13e-05	0	56	0	1697644544	48	4955
2026-01-10 09:00:22.73	359.75	14.60	-38.9	-41.4	13.0	3.35e-05	0	56	0	1700790272	48	5082
2026-01-10 09:00:23.74	359.64	14.51	-39.0	-41.6	12.7	6.33e-05	0	56	0	1703936000	48	5210
2026-01-10 09:00:24.75	359.54	14.42	-39.2	-42.0	12.3	1.29e-04	0	56	0	1707081728	48	5434
2026-01-10 09:00:25.76	359.43	14.33	-39.3	-42.1	12.0	2.86e-04	0	56	0	1710227456	49	5207
2026-01-10 09:00:26.77	359.33	14.24	-38.8	-41.4	12.8	1.04e-04	0	56	0	1713373184	49	4791
2026-01-10 09:00:27.78	359.22	14.15	-38.5	-41.0	13.3	1.60e-05	0	56	0	1716518912	49	4552
2026-01-10 09:00:28.79	359.12	14.06	-38.5	-41.0	13.2	2.05e-05	0	56	0	1719664640	49	4558
2026-01-10 09:00:29.80	359.01	13.97	-38.5	-41.0	13.1	2.28e-05	0	56	0	1722810368	48	4841
2026-01-10 09:00:30.81	358.91	13.88	-38.4	-41.0	12.9	5.41e-05	0	56	0	1725956096	48	4860
2026-01-10 09:00:31.82	358.81	13.80	-38.4	-41.0	12.7	7.09e-05	0	56	0	1729101824	48	4866
2026-01-10 09:00:32.82	358.71	13.71	-38.4	-41.2	12.5	9.68e-05	0	56	0	1732247552	48	4947
2026-01-10 09:00:33.83	358.61	13.62	-38.7	-41.7	11.9	2.58e-04	0	56	0	1735393280	48	5224
2026-01-10 09:00:34.84	358.51	13.53	-38.9	-42.1	11.4	7.51e-04	0	56	0	1738539008	48	5473
2026-01-10 09:00:35.85	358.41	13.44	-39.1	-42.5	10.9	2.08e-03	0	56	0	1741684736	48	5725
2026-01-10 09:00:36.85	358.31	13.36	-39.2	-42.7	10.6	3.24e-03	0	56	0	1744830464	48	5884
2026-01-10 09:00:37.86	358.21	13.27	-39.1	-42.5	10.7	3.29e-03	0	56	0	1747976192	48	5765
2026-01-10 09:00:38.86	358.12	13.18	-39.0	-42.4	10.8	2.48e-03	0	56	0	1751121920	48	5684
2026-01-10 09:00:39.87	358.02	13.10	-39.2	-42.8	10.3	4.24e-03	0	56	0	1754267648	48	5961
2026-01-10 09:00:40.88	357.92	13.01	-39.2	-43.0	10.0	7.08e-03	0	56	0	1757413376	48	6121
2026-01-10 09:00:41.88	357.83	12.92	-39.3	-43.3	9.7	1.02e-02	0	56	0	1760559104	49	5937
2026-01-10 09:00:42.89	357.73	12.84	-39.5	-43.8	9.1	2.11e-02	0	56	0	1763704832	49	6303
2026-01-10 09:00:43.90	357.64	12.75	-39.7	-44.4	8.4	3.69e-02	0	56	0	1766850560	49	6760
2026-01-10 09:00:44.90	357.55	12.67	-39.7	-44.5	8.3	5.22e-02	0	56	0	1769996288	49	6816
2026-01-10 09:00:45.91	357.45	12.58	-39.6	-44.2	8.7	3.91e-02	0	56	0	1773142016	49	6640
2026-01-10 09:00:46.92	357.36	12.50	-39.5	-44.0	9.0	2.85e-02	0	56	0	1776287744	49	6440
2026-01-10 09:00:47.93	357.27	12.41	-39.4	-43.7	9.2	2.03e-02	0	56	0	1779433472	49	6254
2026-01-10 09:00:48.93	357.18	12.33	-39.5	-44.2	8.7	3.23e-02	0	56	0	1782579200	49	6593
2026-01-10 09:00:49.94	357.09	12.24	-39.7	-45.0	7.8	5.75e-02	0	56	0	1785724928	49	7206
2026-01-10 09:00:50.95	356.99	12.16	-40.0	-46.1	6.7	1.60e-01	0	56	0	1788870656	50	7794
2026-01-10 09:00:51.95	356.91	12.07	-40.1	-47.2	5.7	3.46e-01	0	56	0	1792016384	50	8861
2026-01-10 09:00:52.96	356.82	11.99	-40.2	-48.3	4.9	6.61e-01	0	56	0	1795162112	51	9484
2026-01-10 09:00:53.97	356.73	11.91	-40.2	-49.1	4.0	1.09e+00	0	56	104	1796210688	51	10318
2026-01-10 09:00:54.98	356.64	11.82	-40.2	-49.6	4.3	1.44e+00	0	56	104	1796210688	51	11008
2026-01-10 09:00:55.99	356.55	11.74	-40.2	-50.2	4.1	1.47e+00	0	56	104	1796210688	51	11737
2026-01-10 09:00:57.00	356.46	11.66	-40.4	-50.7	4.0	1.48e+00	0	56	104	1796210688	51	12470
2026-01-10 09:00:58.00	356.38	11.57	-40.7	-51.7	3.9	1.48e+00	0	56	104	1796210688	52	13110
2026-01-10 09:00:59.01	356.29	11.49	-39.9	-52.2	3.8	1.49e+00	0	56	104	1796210688	51	14848
2026-01-10 09:01:00.02	356.20	11.41	-40.0	-52.2	3.8	1.49e+00	0	56	104	1796210688	51	14872
2026-01-10 09:01:01.03	356.12	11.33	-41.2	-53.5	3.8	1.49e+00	0	56	104	1796210688	52	16236
2026-01-10 09:01:02.04	356.03	11.24	-40.2	-52.4	3.8	1.49e+00	0	56	104	1796210688	52	14318
2026-01-10 09:01:03.05	355.95	11.16	-40.1	-52.4	3.8	1.49e+00	0	56	104	1796210688	52	14347
2026-01-10 09:01:04.05	355.86	11.08	-40.0	-52.5	3.8	1.49e+00	0	56	104	1796210688	52	14528
2026-01-10 09:01:05.06	355.78	11.00	-39.9	-52.5	3.8	1.49e+00	0	56	104	1796210688	51	15235
2026-01-10 09:01:06.07	355.70	10.92	-40.2	-52.8	3.8	1.49e+00	0	56	104	1796210688	51	15766
2026-01-10 09:01:07.08	355.62	10.84	-39.0	-52.2	3.8	1.49e+00	0	56	104	1796210688	50	15661
2026-01-10 09:01:08.09	355.53	10.76	-39.1	-52.1	3.8	1.49e+00	0	56	104	1796210688	49	16472
2026-01-10 09:01:09.10	355.45	10.68	-39.6	-52.2	3.8	1.49e+00	0	56	104	1796210688	49	16591
2026-01-10 09:01:10.11	355.37	10.60	-38.9	-52.1	3.8	1.49e+00	0	56	104	1796210688	49	16447
2026-01-10 09:01:11.12	355.29	10.52	-38.8	-52.1	3.8	1.49e+00	0	56	104	1796210688	49	16398
2026-01-10 09:01:12.13	355.21	10.44	-38.8	-52.1	3.8	1.49e+00	0	56	104	1796210688	49	16419
2026-01-10 09:01:13.13	355.13	10.36	-39.2	-52.1	3.8	1.49e+00	0	56	104	1796210688	49	16442
2026-01-10 09:01:14.15	355.05	10.28	-39.1	-52.2	3.8	1.49e+00	0	56	104	1796210688	49	16514
2026-01-10 09:01:15.16	354.97	10.20	-40.0	-52.5	3.8	1.49e+00	0	56	104	1796210688	50	16183
2026-01-10 09:01:16.17	354.89	10.12	-39.9	-52.3	3.8	1.49e+00	0	56	104	1796210688	50	15872
2026-01-10 09:01:17.18	354.82	10.04	-39.9	-52.4	3.8	1.49e+00	0	56	104	1796210688	50	15946
