passes_logs/2026/01/10/R2.0S_Moscow/R2.0S_Moscow__20260110_152532_FENGYUN_3E_rec.log

#Pass ID: 20260110_152532_FENGYUN 3E
#Satellite: FENGYUN 3E
#Configuration: FENGYUN 3E
#almurnet v.1.7.20251203
#Start time: 2026-01-10 15:25:35

#Version: 2.2.20231116
#Station: R2.0S_Moscow
#Location: 37.707566 lon 55.798166 lat
#TLE: 1 49008U 21062A   26009.86154543 -.00000176  00000+0 -62220-4 0  9996
#TLE: 2 49008  98.7486  15.0498 0001782 147.3871 212.7416 14.19883371234110

#Time	Az	El	Level	Level2	SNR	BER	BlckErr	Temp	State	Recorded	gain1	gain2
2026-01-10 15:25:35.12	197.41	2.13	-44.2	-54.9	3.8	8.45e-01	0	47	0	0	59	12025
2026-01-10 15:25:36.12	197.47	2.19	-44.2	-54.9	3.8	8.47e-01	0	47	104	0	59	12058
2026-01-10 15:25:37.13	197.53	2.25	-44.2	-54.9	3.8	8.47e-01	0	47	104	0	59	12052
2026-01-10 15:25:38.14	197.59	2.31	-44.2	-54.9	3.8	8.46e-01	0	48	104	0	59	12049
2026-01-10 15:25:39.16	197.65	2.37	-44.2	-54.9	3.8	8.46e-01	0	48	104	0	59	12043
2026-01-10 15:25:40.17	197.71	2.43	-44.2	-54.9	3.8	8.46e-01	0	48	104	0	59	12028
2026-01-10 15:25:41.18	197.77	2.49	-44.2	-54.9	3.8	8.46e-01	0	48	104	0	59	12045
2026-01-10 15:25:42.19	197.83	2.55	-44.2	-54.9	3.8	8.47e-01	0	48	104	0	59	11998
2026-01-10 15:25:43.20	197.89	2.61	-44.2	-54.9	3.8	8.47e-01	0	48	104	0	59	11999
2026-01-10 15:25:44.21	197.95	2.67	-44.2	-54.9	3.8	8.47e-01	0	48	104	0	59	12031
2026-01-10 15:25:45.22	198.01	2.73	-44.2	-54.9	3.8	8.45e-01	0	48	104	0	59	12028
2026-01-10 15:25:46.23	198.07	2.79	-44.2	-54.9	3.8	8.47e-01	0	48	104	0	59	12016
2026-01-10 15:25:47.24	198.13	2.85	-44.2	-54.9	3.8	8.46e-01	0	49	104	0	59	11966
2026-01-10 15:25:48.26	198.19	2.91	-44.2	-54.9	3.8	8.47e-01	0	48	104	0	59	12037
2026-01-10 15:25:49.27	198.26	2.97	-44.2	-54.9	3.8	8.46e-01	0	49	104	0	59	12002
2026-01-10 15:25:50.28	198.32	3.03	-44.2	-54.9	3.8	8.46e-01	0	49	104	0	59	12078
2026-01-10 15:25:51.29	198.38	3.09	-44.2	-54.9	3.8	8.46e-01	0	49	104	0	59	11982
2026-01-10 15:25:52.30	198.44	3.15	-44.2	-54.9	3.8	8.45e-01	0	49	104	0	59	11979
2026-01-10 15:25:53.31	198.51	3.22	-44.2	-54.9	3.8	8.47e-01	0	49	104	0	59	12033
2026-01-10 15:25:54.32	198.57	3.28	-44.2	-54.9	3.8	8.45e-01	0	49	104	0	59	12040
2026-01-10 15:25:55.33	198.63	3.34	-44.2	-54.9	3.8	8.47e-01	0	49	104	0	59	12003
2026-01-10 15:25:56.34	198.70	3.40	-44.2	-54.9	3.8	8.47e-01	0	49	104	0	59	12021
2026-01-10 15:25:57.36	198.76	3.46	-44.2	-54.9	3.8	8.45e-01	0	49	104	0	59	12064
2026-01-10 15:25:58.37	198.82	3.52	-44.2	-54.9	3.8	8.46e-01	0	49	104	0	59	12019
2026-01-10 15:25:59.38	198.89	3.58	-44.2	-54.9	3.8	8.47e-01	0	49	104	0	59	12037
2026-01-10 15:26:00.39	198.95	3.65	-44.2	-54.9	3.8	8.47e-01	0	49	104	0	59	12021
2026-01-10 15:26:01.40	199.02	3.71	-44.2	-54.9	3.8	8.45e-01	0	49	104	0	59	12017
2026-01-10 15:26:02.41	199.08	3.77	-44.2	-54.9	3.8	8.45e-01	0	49	104	0	59	12001
2026-01-10 15:26:03.42	199.15	3.83	-44.2	-54.9	3.8	8.46e-01	0	49	104	0	59	11996
2026-01-10 15:26:04.44	199.21	3.90	-44.2	-54.9	3.8	8.46e-01	0	50	104	0	59	12019
2026-01-10 15:26:05.45	199.28	3.96	-44.2	-54.9	3.8	8.47e-01	0	50	104	0	59	11999
2026-01-10 15:26:06.46	199.35	4.02	-44.2	-54.9	3.8	8.47e-01	0	50	104	0	59	12036
2026-01-10 15:26:07.47	199.41	4.08	-44.2	-54.9	3.8	8.48e-01	0	50	104	0	59	12017
2026-01-10 15:26:08.48	199.48	4.15	-44.2	-54.9	3.8	8.46e-01	0	50	104	0	59	11984
2026-01-10 15:26:09.49	199.55	4.21	-44.2	-54.9	3.8	8.46e-01	0	50	104	0	59	12031
2026-01-10 15:26:10.50	199.61	4.27	-44.1	-54.9	3.8	8.46e-01	0	50	104	0	59	11974
2026-01-10 15:26:11.51	199.68	4.34	-44.2	-54.9	3.8	8.46e-01	0	50	104	0	59	12016
2026-01-10 15:26:12.52	199.75	4.40	-44.1	-54.9	3.8	8.46e-01	0	50	104	0	59	12009
2026-01-10 15:26:13.53	199.82	4.46	-44.2	-54.9	3.8	8.45e-01	0	50	104	0	59	11991
2026-01-10 15:26:14.55	199.89	4.53	-44.2	-54.9	3.8	8.46e-01	0	50	104	0	59	11985
2026-01-10 15:26:15.56	199.95	4.59	-44.2	-54.9	3.8	8.46e-01	0	50	104	0	59	12002
2026-01-10 15:26:16.57	200.02	4.65	-44.2	-54.9	3.8	8.47e-01	0	50	104	0	59	11987
2026-01-10 15:26:17.58	200.09	4.72	-44.2	-54.9	3.8	8.46e-01	0	50	104	0	59	12056
2026-01-10 15:26:18.59	200.16	4.78	-44.2	-54.9	3.8	8.45e-01	0	50	104	0	59	12029
2026-01-10 15:26:19.60	200.23	4.85	-44.1	-54.9	3.8	8.47e-01	0	50	104	0	59	11978
2026-01-10 15:26:20.61	200.30	4.91	-44.2	-54.8	3.8	8.47e-01	0	51	104	0	59	11946
2026-01-10 15:26:21.62	200.37	4.97	-44.1	-54.8	3.8	8.45e-01	0	51	104	0	59	11943
2026-01-10 15:26:22.63	200.44	5.04	-44.2	-54.9	3.8	8.46e-01	0	51	104	0	59	12011
2026-01-10 15:26:23.64	200.51	5.10	-44.2	-54.9	3.8	8.45e-01	0	51	104	0	59	11981
2026-01-10 15:26:24.65	200.59	5.17	-44.2	-54.9	3.8	8.46e-01	0	51	104	0	59	11983
2026-01-10 15:26:25.66	200.66	5.23	-44.2	-54.9	3.8	8.45e-01	0	51	104	0	59	11978
2026-01-10 15:26:26.67	200.73	5.30	-44.1	-54.8	3.8	8.46e-01	0	51	104	0	59	11841
2026-01-10 15:26:27.69	200.80	5.36	-44.1	-54.8	3.8	8.46e-01	0	51	104	0	59	11862
2026-01-10 15:26:28.70	200.87	5.43	-44.1	-54.5	3.8	8.45e-01	0	51	104	0	59	11546
2026-01-10 15:26:29.71	200.95	5.49	-44.1	-54.5	3.8	8.45e-01	0	51	104	0	59	11541
2026-01-10 15:26:30.72	201.02	5.56	-44.1	-54.3	3.8	8.46e-01	0	51	104	0	59	11272
2026-01-10 15:26:31.73	201.09	5.62	-44.0	-53.8	3.8	8.46e-01	0	51	104	0	59	10578
2026-01-10 15:26:32.74	201.17	5.69	-43.9	-53.1	3.8	8.45e-01	0	51	104	0	58	10346
2026-01-10 15:26:33.75	201.24	5.76	-43.8	-52.3	4.0	8.45e-01	0	51	104	0	58	9470
2026-01-10 15:26:34.76	201.32	5.82	-43.5	-51.1	4.2	8.39e-01	0	51	0	0	58	8229
2026-01-10 15:26:35.78	201.39	5.89	-43.5	-50.8	4.3	8.33e-01	0	51	0	0	57	8446
2026-01-10 15:26:36.79	201.47	5.95	-43.3	-50.2	4.6	8.24e-01	0	51	0	0	57	7827
2026-01-10 15:26:37.80	201.54	6.02	-43.1	-49.6	4.8	7.96e-01	0	51	0	0	57	7339
2026-01-10 15:26:38.81	201.62	6.09	-43.1	-49.6	4.8	7.82e-01	0	51	0	0	57	7304
2026-01-10 15:26:39.82	201.69	6.15	-43.1	-49.6	4.8	7.93e-01	0	52	0	0	57	7365
2026-01-10 15:26:40.83	201.77	6.22	-43.2	-49.7	4.8	7.84e-01	0	51	0	0	57	7387
2026-01-10 15:26:41.84	201.85	6.29	-43.3	-50.1	4.6	8.10e-01	0	52	0	0	57	7793
2026-01-10 15:26:42.85	201.92	6.35	-43.3	-50.0	4.6	8.12e-01	0	52	0	0	57	7708
2026-01-10 15:26:43.86	202.00	6.42	-43.0	-49.3	5.0	7.93e-01	0	52	0	0	57	7065
2026-01-10 15:26:44.87	202.08	6.49	-42.9	-49.0	5.2	7.47e-01	0	52	0	0	56	7233
2026-01-10 15:26:45.89	202.16	6.56	-43.0	-49.3	5.0	7.57e-01	0	52	0	0	56	7516
2026-01-10 15:26:46.90	202.24	6.62	-43.0	-49.3	5.0	7.75e-01	0	52	0	0	56	7480
2026-01-10 15:26:47.91	202.32	6.69	-42.9	-48.8	5.3	7.37e-01	0	52	0	0	56	7074
2026-01-10 15:26:48.92	202.39	6.76	-42.6	-48.1	5.8	6.44e-01	0	52	0	0	56	6517
2026-01-10 15:26:49.93	202.47	6.83	-42.1	-47.0	6.5	2.73e-01	0	52	0	7340032	55	6106
2026-01-10 15:26:50.94	202.55	6.90	-41.9	-46.6	6.9	2.01e-01	0	52	0	14680064	54	6162
2026-01-10 15:26:51.95	202.63	6.96	-41.8	-46.3	7.1	1.61e-01	0	52	0	22020096	54	5945
2026-01-10 15:26:52.96	202.71	7.03	-41.4	-45.6	7.8	1.13e-01	0	52	0	29360128	53	5822
2026-01-10 15:26:53.97	202.80	7.10	-40.7	-44.3	9.1	3.11e-02	0	52	0	36700160	52	5287
2026-01-10 15:26:54.98	202.88	7.17	-40.4	-43.8	9.7	1.60e-02	0	52	0	44040192	51	5303
2026-01-10 15:26:56.00	202.96	7.24	-40.3	-43.6	9.9	1.06e-02	0	52	0	51380224	51	5165
2026-01-10 15:26:57.01	203.04	7.31	-39.6	-42.5	11.1	2.96e-03	0	52	0	58720256	50	4825
2026-01-10 15:26:58.02	203.12	7.38	-39.1	-41.8	11.7	6.04e-04	0	52	0	65011712	49	4759
2026-01-10 15:26:59.03	203.21	7.45	-39.0	-41.7	11.9	4.07e-04	0	52	0	73400320	48	4958
2026-01-10 15:27:00.04	203.29	7.52	-38.5	-41.1	12.5	1.88e-04	0	52	0	80740352	48	4618
2026-01-10 15:27:01.05	203.37	7.58	-38.0	-40.4	12.9	6.52e-05	0	52	0	87031808	47	4535
2026-01-10 15:27:02.06	203.46	7.65	-37.8	-40.2	13.2	3.54e-05	0	53	0	94371840	46	4687
2026-01-10 15:27:03.07	203.54	7.72	-38.1	-40.6	12.8	6.63e-05	0	52	0	102760448	46	4893
2026-01-10 15:27:04.09	203.63	7.79	-37.6	-39.9	13.4	1.14e-05	0	53	0	109051904	46	4542
2026-01-10 15:27:05.10	203.71	7.86	-38.0	-40.4	13.0	4.57e-05	0	53	0	116391936	46	4800
2026-01-10 15:27:06.11	203.80	7.93	-38.2	-40.7	12.7	8.81e-05	0	53	0	123731968	46	4962
2026-01-10 15:27:07.12	203.88	8.00	-38.6	-41.2	12.2	2.23e-04	0	53	0	131072000	46	5244
2026-01-10 15:27:08.13	203.97	8.08	-39.1	-41.8	11.6	6.68e-04	0	53	0	138412032	47	5324
2026-01-10 15:27:09.14	204.06	8.15	-43.9	-50.4	4.8	8.17e-01	0	53	0	141557760	58	7599
2026-01-10 15:27:10.15	204.14	8.22	-37.9	-40.2	13.5	2.27e-04	0	53	0	144703488	46	4666
2026-01-10 15:27:11.16	204.23	8.29	-43.8	-53.2	3.8	8.45e-01	0	53	104	149946368	57	11150
2026-01-10 15:27:12.17	204.32	8.36	-41.3	-45.5	7.8	1.51e-01	0	53	0	154140672	53	5737
2026-01-10 15:27:13.18	204.41	8.43	-42.5	-47.2	6.7	2.14e-01	0	53	0	161480704	55	6253
2026-01-10 15:27:14.19	204.50	8.50	-38.6	-40.9	13.0	5.14e-05	0	53	0	168820736	48	4545
2026-01-10 15:27:15.20	204.59	8.57	-38.3	-40.7	13.1	2.74e-05	0	53	0	176160768	47	4667
2026-01-10 15:27:16.21	204.67	8.64	-38.3	-40.7	13.1	1.48e-05	0	53	0	183500800	47	4658
2026-01-10 15:27:17.22	204.76	8.72	-38.0	-40.3	13.5	1.60e-05	0	53	0	190840832	47	4485
2026-01-10 15:27:18.23	204.86	8.79	-37.8	-40.0	13.8	5.70e-06	0	53	0	198180864	46	4588
2026-01-10 15:27:19.23	204.95	8.86	-37.7	-39.9	13.9	3.40e-06	0	53	0	205520896	46	4500
2026-01-10 15:27:20.24	205.04	8.93	-37.5	-39.7	14.1	2.20e-06	0	53	0	212860928	46	4398
2026-01-10 15:27:21.26	205.13	9.00	-37.8	-40.0	13.8	3.40e-06	0	53	0	220200960	46	4588
2026-01-10 15:27:22.27	205.22	9.08	-37.8	-40.0	13.8	3.40e-06	0	53	0	226492416	46	4577
2026-01-10 15:27:23.28	205.31	9.15	-37.7	-39.9	13.9	2.20e-06	0	53	0	234881024	46	4540
2026-01-10 15:27:24.28	205.41	9.22	-37.7	-39.9	14.0	1.10e-06	0	53	0	242221056	46	4523
2026-01-10 15:27:25.30	205.50	9.29	-37.4	-39.6	14.3	0.00e+00	0	53	0	248512512	45	4603
2026-01-10 15:27:26.31	205.59	9.37	-37.6	-39.8	14.1	1.10e-06	0	53	0	255852544	45	4725
2026-01-10 15:27:27.32	205.69	9.44	-37.5	-39.6	14.2	1.10e-06	0	53	0	263192576	45	4644
2026-01-10 15:27:28.33	205.78	9.51	-37.5	-39.6	14.3	2.20e-06	0	53	0	270532608	45	4620
2026-01-10 15:27:29.34	205.88	9.59	-37.5	-39.6	14.3	0.00e+00	0	53	0	277872640	45	4624
2026-01-10 15:27:30.34	205.97	9.66	-37.4	-39.6	14.4	1.10e-06	0	53	0	285212672	45	4602
2026-01-10 15:27:31.36	206.07	9.73	-37.3	-39.4	14.5	0.00e+00	0	53	0	292552704	45	4528
2026-01-10 15:27:32.37	206.17	9.81	-37.3	-39.3	14.6	0.00e+00	0	53	0	299892736	45	4488
2026-01-10 15:27:33.38	206.26	9.88	-37.2	-39.2	14.7	0.00e+00	0	53	0	307232768	45	4429
2026-01-10 15:27:34.38	206.36	9.96	-37.1	-39.1	14.8	0.00e+00	0	54	0	314572800	45	4385
2026-01-10 15:27:35.39	206.46	10.03	-36.9	-39.0	15.0	0.00e+00	0	54	0	321912832	44	4564
2026-01-10 15:27:36.40	206.56	10.10	-37.1	-39.1	14.8	1.10e-06	0	53	0	329252864	44	4639
2026-01-10 15:27:37.41	206.66	10.18	-37.0	-39.0	14.9	1.10e-06	0	54	0	336592896	44	4591
2026-01-10 15:27:38.42	206.76	10.25	-37.1	-39.1	14.9	0.00e+00	0	54	0	343932928	44	4636
2026-01-10 15:27:39.43	206.86	10.33	-37.0	-39.1	14.9	0.00e+00	0	54	0	351272960	44	4619
2026-01-10 15:27:40.44	206.96	10.40	-37.0	-39.0	14.9	0.00e+00	0	54	0	358612992	44	4598
2026-01-10 15:27:41.46	207.06	10.48	-36.9	-39.0	15.0	1.10e-06	0	54	0	365953024	44	4557
2026-01-10 15:27:42.46	207.16	10.56	-37.0	-39.0	15.0	0.00e+00	0	54	0	372244480	44	4594
2026-01-10 15:27:43.48	207.26	10.63	-36.9	-39.0	15.0	0.00e+00	0	54	0	380633088	44	4570
2026-01-10 15:27:44.49	207.37	10.71	-37.0	-39.1	15.0	0.00e+00	0	54	0	387973120	44	4607
2026-01-10 15:27:45.50	207.47	10.78	-36.9	-39.0	15.0	0.00e+00	0	54	0	394264576	44	4573
2026-01-10 15:27:46.50	207.57	10.86	-36.8	-38.9	15.1	0.00e+00	0	54	0	401604608	44	4533
2026-01-10 15:27:47.51	207.68	10.93	-36.7	-38.8	15.2	0.00e+00	0	54	0	408944640	44	4475
2026-01-10 15:27:48.52	207.78	11.01	-36.9	-39.0	15.0	0.00e+00	0	54	0	416284672	44	4592
2026-01-10 15:27:49.53	207.89	11.09	-37.0	-39.1	14.9	0.00e+00	0	54	0	423624704	44	4647
2026-01-10 15:27:50.54	207.99	11.16	-36.8	-39.0	15.0	0.00e+00	0	54	0	430964736	44	4570
2026-01-10 15:27:51.55	208.10	11.24	-36.8	-38.9	15.1	1.10e-06	0	54	0	438304768	44	4534
2026-01-10 15:27:52.57	208.21	11.32	-36.7	-38.9	15.1	0.00e+00	0	54	0	445644800	44	4503
2026-01-10 15:27:53.58	208.31	11.40	-36.8	-38.9	15.1	0.00e+00	0	54	0	452984832	44	4540
2026-01-10 15:27:54.59	208.42	11.47	-36.7	-38.9	15.1	1.10e-06	0	54	0	460324864	44	4510
2026-01-10 15:27:55.60	208.53	11.55	-36.8	-39.0	15.1	0.00e+00	0	54	0	467664896	44	4549
2026-01-10 15:27:56.61	208.64	11.63	-36.8	-38.9	15.1	0.00e+00	0	54	0	475004928	44	4521
2026-01-10 15:27:57.62	208.75	11.71	-36.8	-38.9	15.1	0.00e+00	0	54	0	482344960	44	4522
2026-01-10 15:27:58.62	208.86	11.78	-36.7	-38.9	15.1	0.00e+00	0	54	0	489684992	44	4508
2026-01-10 15:27:59.63	208.97	11.86	-36.6	-38.8	15.3	0.00e+00	0	54	0	497025024	44	4444
2026-01-10 15:28:00.64	209.08	11.94	-36.6	-38.8	15.2	0.00e+00	0	54	0	504365056	44	4455
2026-01-10 15:28:01.65	209.19	12.02	-36.6	-38.8	15.3	0.00e+00	0	54	0	511705088	44	4453
2026-01-10 15:28:02.66	209.30	12.10	-36.6	-38.8	15.2	0.00e+00	0	54	0	519045120	44	4448
2026-01-10 15:28:03.67	209.42	12.18	-36.6	-38.8	15.2	0.00e+00	0	54	0	525336576	44	4471
2026-01-10 15:28:04.68	209.53	12.25	-36.7	-38.9	15.1	0.00e+00	0	54	0	533725184	44	4513
2026-01-10 15:28:05.69	209.64	12.33	-36.6	-38.8	15.2	0.00e+00	0	54	0	541065216	44	4466
2026-01-10 15:28:06.70	209.76	12.41	-36.6	-38.8	15.2	0.00e+00	0	54	0	547356672	44	4467
2026-01-10 15:28:07.71	209.87	12.49	-36.5	-38.7	15.3	0.00e+00	0	54	0	554696704	44	4426
2026-01-10 15:28:08.72	209.99	12.57	-36.3	-38.5	15.4	0.00e+00	0	54	0	562036736	43	4554
2026-01-10 15:28:09.73	210.11	12.65	-36.3	-38.5	15.4	0.00e+00	0	55	0	569376768	43	4558
2026-01-10 15:28:10.74	210.22	12.73	-36.3	-38.4	15.4	0.00e+00	0	55	0	576716800	43	4540
2026-01-10 15:28:11.75	210.34	12.81	-36.3	-38.4	15.5	0.00e+00	0	55	0	584056832	43	4503
2026-01-10 15:28:12.76	210.46	12.89	-36.2	-38.3	15.6	0.00e+00	0	54	0	591396864	43	4456
2026-01-10 15:28:13.77	210.58	12.97	-36.1	-38.2	15.6	0.00e+00	0	54	0	598736896	43	4429
2026-01-10 15:28:14.78	210.70	13.05	-36.2	-38.3	15.6	0.00e+00	0	54	0	606076928	43	4464
2026-01-10 15:28:15.78	210.82	13.13	-36.2	-38.3	15.6	0.00e+00	0	55	0	613416960	43	4476
2026-01-10 15:28:16.79	210.94	13.21	-36.2	-38.3	15.6	0.00e+00	0	55	0	620756992	43	4472
2026-01-10 15:28:17.80	211.06	13.29	-36.2	-38.3	15.5	0.00e+00	0	54	0	628097024	43	4459
2026-01-10 15:28:18.81	211.18	13.37	-36.2	-38.3	15.6	0.00e+00	0	54	0	635437056	43	4482
2026-01-10 15:28:19.82	211.31	13.45	-36.2	-38.3	15.6	0.00e+00	0	55	0	642777088	43	4452
2026-01-10 15:28:20.83	211.43	13.54	-36.3	-38.4	15.4	0.00e+00	0	55	0	650117120	43	4523
2026-01-10 15:28:21.84	211.55	13.62	-36.3	-38.3	15.5	0.00e+00	0	55	0	657457152	43	4492
2026-01-10 15:28:22.85	211.68	13.70	-36.3	-38.3	15.5	0.00e+00	0	55	0	664797184	43	4493
2026-01-10 15:28:23.86	211.80	13.78	-36.3	-38.3	15.5	0.00e+00	0	55	0	672137216	43	4491
2026-01-10 15:28:24.87	211.93	13.86	-36.2	-38.2	15.7	0.00e+00	0	55	0	678428672	43	4408
2026-01-10 15:28:25.88	212.06	13.94	-36.1	-38.1	15.8	0.00e+00	0	55	0	686817280	43	4375
2026-01-10 15:28:26.89	212.19	14.03	-36.1	-38.1	15.8	0.00e+00	0	55	0	694157312	43	4372
2026-01-10 15:28:27.90	212.31	14.11	-36.1	-38.1	15.9	0.00e+00	0	55	0	700448768	43	4341
2026-01-10 15:28:28.90	212.44	14.19	-36.1	-38.0	15.9	0.00e+00	0	55	0	707788800	43	4333
2026-01-10 15:28:29.91	212.57	14.27	-36.1	-38.1	15.9	0.00e+00	0	55	0	715128832	43	4344
2026-01-10 15:28:30.92	212.70	14.36	-36.1	-38.0	15.9	0.00e+00	0	55	0	722468864	43	4324
2026-01-10 15:28:31.93	212.83	14.44	-36.1	-38.0	16.0	0.00e+00	0	55	0	729808896	43	4316
2026-01-10 15:28:32.94	212.96	14.52	-36.1	-38.1	15.9	0.00e+00	0	55	0	737148928	43	4342
2026-01-10 15:28:33.95	213.10	14.61	-36.2	-38.1	15.9	0.00e+00	0	55	0	744488960	42	4640
2026-01-10 15:28:34.96	213.23	14.69	-36.1	-38.0	16.0	0.00e+00	0	55	0	751828992	42	4558
2026-01-10 15:28:35.97	213.36	14.77	-36.1	-38.0	16.0	0.00e+00	0	55	0	759169024	42	4557
2026-01-10 15:28:36.98	213.50	14.86	-36.0	-37.9	16.1	0.00e+00	0	55	0	766509056	42	4525
2026-01-10 15:28:37.99	213.63	14.94	-36.0	-37.8	16.2	0.00e+00	0	55	0	773849088	42	4474
2026-01-10 15:28:39.00	213.77	15.02	-36.0	-37.8	16.3	0.00e+00	0	55	0	781189120	42	4467
2026-01-10 15:28:40.01	213.91	15.11	-36.0	-37.8	16.2	6.80e-06	0	55	0	788529152	42	4481
2026-01-10 15:28:41.02	214.04	15.19	-35.9	-37.7	16.3	0.00e+00	0	55	0	795869184	42	4431
2026-01-10 15:28:42.03	214.18	15.28	-35.9	-37.7	16.4	0.00e+00	0	55	0	803209216	42	4411
2026-01-10 15:28:43.04	214.32	15.36	-35.8	-37.6	16.5	0.00e+00	0	55	0	810549248	42	4371
2026-01-10 15:28:44.05	214.46	15.45	-35.8	-37.7	16.4	0.00e+00	0	55	0	817889280	42	4401
2026-01-10 15:28:45.06	214.60	15.53	-35.8	-37.6	16.5	0.00e+00	0	55	0	824180736	42	4366
2026-01-10 15:28:46.07	214.74	15.62	-35.8	-37.6	16.5	0.00e+00	0	55	0	831520768	42	4349
2026-01-10 15:28:47.08	214.89	15.70	-35.7	-37.6	16.6	0.00e+00	0	55	0	839909376	42	4342
2026-01-10 15:28:48.09	215.03	15.79	-35.8	-37.6	16.5	0.00e+00	0	55	0	846200832	42	4369
2026-01-10 15:28:49.10	215.17	15.87	-35.7	-37.6	16.6	0.00e+00	0	55	0	853540864	42	4341
2026-01-10 15:28:50.11	215.32	15.96	-35.7	-37.6	16.5	0.00e+00	0	55	0	860880896	42	4356
2026-01-10 15:28:51.12	215.46	16.04	-35.7	-37.5	16.6	1.25e-05	0	55	0	868220928	42	4335
2026-01-10 15:28:52.13	215.61	16.13	-35.7	-37.6	16.5	0.00e+00	0	55	0	875560960	42	4349
2026-01-10 15:28:53.14	215.76	16.21	-35.6	-37.5	16.6	0.00e+00	0	55	0	882900992	42	4307
2026-01-10 15:28:54.15	215.90	16.30	-35.6	-37.5	16.6	8.92e-05	0	55	0	890241024	42	4315
2026-01-10 15:28:55.16	216.05	16.39	-35.5	-37.4	16.7	0.00e+00	0	55	0	897581056	42	4269
2026-01-10 15:28:56.17	216.20	16.47	-35.5	-37.4	16.7	0.00e+00	0	55	0	904921088	42	4266
2026-01-10 15:28:57.18	216.35	16.56	-35.5	-37.4	16.7	0.00e+00	0	55	0	912261120	41	4501
2026-01-10 15:28:58.19	216.50	16.64	-35.3	-37.2	16.8	0.00e+00	0	55	0	919601152	41	4420
2026-01-10 15:28:59.19	216.65	16.73	-35.3	-37.2	16.9	0.00e+00	0	55	0	926941184	41	4421
2026-01-10 15:29:00.20	216.81	16.82	-35.3	-37.2	16.9	0.00e+00	0	55	0	934281216	41	4409
2026-01-10 15:29:01.22	216.96	16.90	-35.2	-37.1	16.9	0.00e+00	0	55	0	941621248	41	4362
2026-01-10 15:29:02.23	217.12	16.99	-35.2	-37.0	17.0	2.20e-06	0	55	0	948961280	41	4327
2026-01-10 15:29:03.24	217.27	17.08	-35.2	-37.0	17.0	3.43e-05	0	55	0	956301312	41	4324
2026-01-10 15:29:04.25	217.43	17.17	-35.0	-36.9	17.1	1.91e-04	0	55	0	963641344	41	4252
2026-01-10 15:29:05.25	217.59	17.25	-35.1	-36.9	17.1	0.00e+00	0	55	0	970981376	40	4530
2026-01-10 15:29:06.26	217.74	17.34	-35.0	-36.9	17.1	0.00e+00	0	55	0	977272832	40	4497
2026-01-10 15:29:07.27	217.90	17.43	-34.9	-36.7	17.2	0.00e+00	0	55	0	985661440	40	4441
2026-01-10 15:29:08.28	218.06	17.51	-35.0	-36.8	17.2	0.00e+00	0	55	0	993001472	40	4467
2026-01-10 15:29:09.29	218.22	17.60	-35.0	-36.8	17.2	0.00e+00	0	55	0	999292928	40	4462
2026-01-10 15:29:10.30	218.38	17.69	-35.0	-36.8	17.2	0.00e+00	0	55	0	1006632960	40	4468
2026-01-10 15:29:11.31	218.55	17.78	-35.1	-36.9	17.1	0.00e+00	0	55	0	1013972992	40	4541
2026-01-10 15:29:12.32	218.71	17.87	-35.1	-36.9	17.0	1.10e-06	0	55	0	1021313024	40	4540
2026-01-10 15:29:13.33	218.88	17.95	-35.1	-37.0	17.0	0.00e+00	0	55	0	1028653056	40	4574
2026-01-10 15:29:14.34	219.04	18.04	-35.1	-37.0	17.0	8.00e-06	0	56	0	1035993088	40	4582
2026-01-10 15:29:15.35	219.21	18.13	-35.2	-37.0	17.0	0.00e+00	0	55	0	1043333120	40	4593
2026-01-10 15:29:16.36	219.37	18.22	-35.1	-37.0	17.0	3.40e-06	0	55	0	1050673152	40	4556
2026-01-10 15:29:17.37	219.54	18.31	-35.1	-37.0	17.0	0.00e+00	0	55	0	1058013184	40	4552
2026-01-10 15:29:18.38	219.71	18.39	-35.1	-36.9	17.1	0.00e+00	0	55	0	1065353216	40	4533
2026-01-10 15:29:19.39	219.88	18.48	-35.1	-36.9	17.1	0.00e+00	0	55	0	1072693248	40	4545
2026-01-10 15:29:20.40	220.05	18.57	-34.9	-36.7	17.3	0.00e+00	0	55	0	1080033280	40	4426
2026-01-10 15:29:21.41	220.23	18.66	-34.9	-36.8	17.3	0.00e+00	0	55	0	1087373312	40	4446
2026-01-10 15:29:22.42	220.40	18.75	-34.9	-36.6	17.4	0.00e+00	0	55	0	1094713344	40	4384
2026-01-10 15:29:23.42	220.57	18.84	-34.9	-36.6	17.4	0.00e+00	0	55	0	1102053376	40	4390
2026-01-10 15:29:24.43	220.75	18.93	-34.9	-36.7	17.3	0.00e+00	0	55	0	1109393408	40	4423
2026-01-10 15:29:25.44	220.92	19.01	-34.8	-36.6	17.5	0.00e+00	0	56	0	1116733440	40	4361
2026-01-10 15:29:26.45	221.10	19.10	-34.9	-36.6	17.4	0.00e+00	0	56	0	1123024896	40	4373
2026-01-10 15:29:27.46	221.28	19.19	-34.8	-36.5	17.5	0.00e+00	0	55	0	1130364928	40	4324
2026-01-10 15:29:28.47	221.46	19.28	-34.8	-36.6	17.5	0.00e+00	0	55	0	1137704960	40	4344
2026-01-10 15:29:29.48	221.64	19.37	-34.8	-36.5	17.6	0.00e+00	0	56	0	1145044992	40	4314
2026-01-10 15:29:30.49	221.82	19.46	-34.8	-36.5	17.6	0.00e+00	0	56	0	1152385024	40	4337
2026-01-10 15:29:31.50	222.00	19.55	-34.9	-36.6	17.5	0.00e+00	0	55	0	1159725056	40	4391
2026-01-10 15:29:32.51	222.18	19.64	-34.9	-36.6	17.5	0.00e+00	0	55	0	1167065088	40	4363
2026-01-10 15:29:33.52	222.37	19.73	-34.9	-36.7	17.4	0.00e+00	0	55	0	1174405120	40	4408
2026-01-10 15:29:34.53	222.55	19.82	-35.0	-36.7	17.4	0.00e+00	0	56	0	1181745152	40	4438
2026-01-10 15:29:35.54	222.74	19.91	-35.0	-36.8	17.3	0.00e+00	0	55	0	1189085184	40	4459
2026-01-10 15:29:36.55	222.93	20.00	-34.9	-36.7	17.4	1.10e-06	0	55	0	1196425216	40	4393
2026-01-10 15:29:37.57	223.12	20.09	-35.0	-36.8	17.3	0.00e+00	0	56	0	1203765248	40	4472
2026-01-10 15:29:38.58	223.31	20.17	-34.8	-36.7	17.4	0.00e+00	0	56	0	1211105280	40	4401
2026-01-10 15:29:39.58	223.49	20.26	-34.8	-36.7	17.4	0.00e+00	0	55	0	1218445312	40	4397
2026-01-10 15:29:40.59	223.69	20.35	-34.8	-36.6	17.5	0.00e+00	0	56	0	1225785344	40	4366
2026-01-10 15:29:41.60	223.88	20.44	-34.7	-36.5	17.6	0.00e+00	0	56	0	1233125376	40	4318
2026-01-10 15:29:42.61	224.07	20.53	-34.7	-36.5	17.6	0.00e+00	0	56	0	1240465408	40	4303
2026-01-10 15:29:43.62	224.27	20.62	-34.5	-36.3	17.8	0.00e+00	0	56	0	1247805440	40	4218
2026-01-10 15:29:44.63	224.46	20.71	-34.6	-36.3	17.7	0.00e+00	0	56	0	1255145472	40	4240
2026-01-10 15:29:45.64	224.66	20.80	-34.6	-36.3	17.8	0.00e+00	0	56	0	1262485504	39	4473
2026-01-10 15:29:46.65	224.86	20.89	-34.6	-36.4	17.7	0.00e+00	0	56	0	1269825536	39	4525
2026-01-10 15:29:47.66	225.06	20.98	-34.6	-36.4	17.7	0.00e+00	0	56	0	1276116992	39	4524
2026-01-10 15:29:48.67	225.26	21.07	-34.6	-36.4	17.8	0.00e+00	0	56	0	1283457024	39	4508
2026-01-10 15:29:49.68	225.46	21.16	-34.5	-36.3	17.8	0.00e+00	0	56	0	1291845632	39	4443
2026-01-10 15:29:50.69	225.66	21.25	-34.4	-36.2	17.9	0.00e+00	0	56	0	1298137088	39	4412
2026-01-10 15:29:51.70	225.87	21.33	-34.4	-36.2	17.9	0.00e+00	0	56	0	1305477120	39	4403
2026-01-10 15:29:52.71	226.07	21.42	-34.5	-36.2	17.8	0.00e+00	0	56	0	1312817152	39	4432
2026-01-10 15:29:53.72	226.28	21.51	-34.6	-36.3	17.7	0.00e+00	0	56	0	1320157184	39	4477
2026-01-10 15:29:54.73	226.49	21.60	-34.6	-36.4	17.7	0.00e+00	0	56	0	1327497216	39	4495
2026-01-10 15:29:55.74	226.70	21.69	-34.6	-36.4	17.7	0.00e+00	0	56	0	1334837248	39	4496
2026-01-10 15:29:56.75	226.91	21.78	-34.5	-36.3	17.8	0.00e+00	0	56	0	1342177280	39	4445
2026-01-10 15:29:57.76	227.12	21.87	-34.5	-36.3	17.8	0.00e+00	0	56	0	1349517312	39	4458
2026-01-10 15:29:58.77	227.33	21.96	-34.5	-36.2	17.9	0.00e+00	0	56	0	1356857344	39	4420
2026-01-10 15:29:59.78	227.54	22.05	-34.5	-36.2	17.9	0.00e+00	0	56	0	1364197376	39	4423
2026-01-10 15:30:00.79	227.76	22.13	-34.5	-36.2	17.9	0.00e+00	0	56	0	1371537408	39	4430
2026-01-10 15:30:01.80	227.97	22.22	-34.5	-36.2	17.9	0.00e+00	0	56	0	1378877440	39	4414
2026-01-10 15:30:02.81	228.19	22.31	-34.5	-36.2	17.9	0.00e+00	0	56	0	1386217472	39	4415
2026-01-10 15:30:03.82	228.41	22.40	-34.4	-36.2	18.0	0.00e+00	0	56	0	1393557504	39	4392
2026-01-10 15:30:04.83	228.63	22.49	-34.4	-36.1	18.0	0.00e+00	0	56	0	1400897536	39	4364
2026-01-10 15:30:05.84	228.85	22.57	-34.4	-36.1	18.1	0.00e+00	0	56	0	1408237568	39	4362
2026-01-10 15:30:06.85	229.07	22.66	-34.4	-36.1	18.1	0.00e+00	0	56	0	1415577600	39	4355
2026-01-10 15:30:07.86	229.29	22.75	-34.3	-36.0	18.2	0.00e+00	0	56	0	1421869056	39	4300
2026-01-10 15:30:08.87	229.52	22.84	-34.3	-36.0	18.1	0.00e+00	0	56	0	1429209088	39	4320
2026-01-10 15:30:09.88	229.74	22.92	-34.3	-36.0	18.1	0.00e+00	0	56	0	1437597696	39	4322
2026-01-10 15:30:10.89	229.97	23.01	-34.2	-35.9	18.2	0.00e+00	0	56	0	1443889152	39	4288
2026-01-10 15:30:11.90	230.20	23.10	-34.2	-35.9	18.2	0.00e+00	0	56	0	1451229184	39	4264
2026-01-10 15:30:12.91	230.43	23.19	-34.1	-35.8	18.3	0.00e+00	0	56	0	1458569216	39	4223
2026-01-10 15:30:13.92	230.66	23.27	-34.2	-35.8	18.3	0.00e+00	0	56	0	1465909248	39	4230
2026-01-10 15:30:14.93	230.89	23.36	-34.2	-35.8	18.3	0.00e+00	0	56	0	1473249280	39	4236
2026-01-10 15:30:15.94	231.12	23.45	-34.2	-35.9	18.3	0.00e+00	0	56	0	1480589312	39	4247
2026-01-10 15:30:16.95	231.35	23.53	-34.2	-35.9	18.2	0.00e+00	0	56	0	1487929344	39	4245
2026-01-10 15:30:17.96	231.59	23.62	-34.2	-36.0	18.2	0.00e+00	0	56	0	1495269376	39	4301
2026-01-10 15:30:18.97	231.83	23.70	-34.2	-36.0	18.1	0.00e+00	0	56	0	1502609408	39	4309
2026-01-10 15:30:19.98	232.07	23.79	-34.3	-36.0	18.1	0.00e+00	0	56	0	1509949440	39	4320
2026-01-10 15:30:20.99	232.30	23.87	-34.3	-36.0	18.1	0.00e+00	0	56	0	1517289472	39	4333
2026-01-10 15:30:21.99	232.54	23.96	-34.3	-36.0	18.0	0.00e+00	0	56	0	1524629504	39	4338
2026-01-10 15:30:23.00	232.78	24.04	-34.2	-36.0	18.1	0.00e+00	0	56	0	1531969536	39	4295
2026-01-10 15:30:24.01	233.03	24.13	-34.2	-35.9	18.1	0.00e+00	0	56	0	1539309568	39	4290
2026-01-10 15:30:25.02	233.27	24.21	-34.2	-35.9	18.2	0.00e+00	0	56	0	1546649600	39	4249
2026-01-10 15:30:26.03	233.52	24.30	-34.1	-35.8	18.3	0.00e+00	0	56	0	1553989632	39	4213
2026-01-10 15:30:27.04	233.76	24.38	-34.1	-35.8	18.3	0.00e+00	0	56	0	1561329664	39	4223
2026-01-10 15:30:28.05	234.01	24.46	-34.2	-35.9	18.2	0.00e+00	0	56	0	1568669696	39	4248
2026-01-10 15:30:29.06	234.26	24.55	-34.2	-35.9	18.2	0.00e+00	0	56	0	1574961152	39	4256
2026-01-10 15:30:30.07	234.51	24.63	-34.1	-35.8	18.3	0.00e+00	0	56	0	1582301184	39	4237
2026-01-10 15:30:31.08	234.76	24.71	-34.2	-35.9	18.2	0.00e+00	0	56	0	1590689792	39	4280
2026-01-10 15:30:32.09	235.02	24.79	-34.1	-35.8	18.3	0.00e+00	0	56	0	1596981248	39	4222
2026-01-10 15:30:33.10	235.27	24.88	-34.2	-35.9	18.3	0.00e+00	0	56	0	1604321280	39	4265
2026-01-10 15:30:34.10	235.53	24.96	-34.2	-35.9	18.3	0.00e+00	0	56	0	1611661312	39	4249
2026-01-10 15:30:35.11	235.78	25.04	-34.1	-35.8	18.4	0.00e+00	0	56	0	1619001344	39	4215
2026-01-10 15:30:36.13	236.04	25.12	-34.1	-35.8	18.4	0.00e+00	0	56	0	1626341376	39	4205
2026-01-10 15:30:37.14	236.30	25.20	-34.0	-35.7	18.5	0.00e+00	0	56	0	1633681408	39	4150
2026-01-10 15:30:38.15	236.57	25.28	-34.0	-35.7	18.5	0.00e+00	0	56	0	1641021440	38	4393
2026-01-10 15:30:39.16	236.83	25.36	-33.9	-35.6	18.6	0.00e+00	0	56	0	1648361472	38	4350
2026-01-10 15:30:40.17	237.09	25.44	-34.0	-35.6	18.5	0.00e+00	0	56	0	1655701504	38	4374
2026-01-10 15:30:41.18	237.36	25.52	-34.0	-35.7	18.4	0.00e+00	0	56	0	1663041536	38	4418
2026-01-10 15:30:42.19	237.62	25.60	-34.0	-35.7	18.4	0.00e+00	0	56	0	1670381568	38	4404
2026-01-10 15:30:43.20	237.89	25.67	-34.0	-35.7	18.5	0.00e+00	0	56	0	1677721600	38	4396
2026-01-10 15:30:44.21	238.16	25.75	-34.0	-35.7	18.4	0.00e+00	0	56	0	1685061632	38	4411
2026-01-10 15:30:45.22	238.43	25.83	-33.9	-35.6	18.5	0.00e+00	0	56	0	1692401664	38	4377
2026-01-10 15:30:46.22	238.70	25.90	-34.0	-35.7	18.4	0.00e+00	0	56	0	1699741696	38	4407
2026-01-10 15:30:47.23	238.97	25.98	-33.9	-35.7	18.4	0.00e+00	0	56	0	1707081728	38	4401
2026-01-10 15:30:48.24	239.24	26.06	-33.9	-35.6	18.4	0.00e+00	0	56	0	1714421760	38	4385
2026-01-10 15:30:49.25	239.52	26.13	-33.9	-35.6	18.4	0.00e+00	0	56	0	1720713216	38	4377
2026-01-10 15:30:50.26	239.80	26.21	-33.9	-35.6	18.4	0.00e+00	0	56	0	1728053248	38	4386
2026-01-10 15:30:51.27	240.07	26.28	-33.9	-35.6	18.4	0.00e+00	0	56	0	1735393280	38	4379
2026-01-10 15:30:52.28	240.35	26.36	-33.9	-35.6	18.5	0.00e+00	0	56	0	1742733312	38	4344
2026-01-10 15:30:53.29	240.63	26.43	-33.9	-35.5	18.6	0.00e+00	0	56	0	1750073344	38	4330
2026-01-10 15:30:54.30	240.92	26.50	-33.9	-35.5	18.6	0.00e+00	0	56	0	1757413376	38	4327
2026-01-10 15:30:55.31	241.20	26.57	-33.8	-35.4	18.7	0.00e+00	0	56	0	1764753408	38	4263
2026-01-10 15:30:56.32	241.48	26.65	-33.8	-35.4	18.7	0.00e+00	0	56	0	1772093440	38	4280
2026-01-10 15:30:57.33	241.77	26.72	-33.8	-35.4	18.7	0.00e+00	0	56	0	1779433472	38	4275
2026-01-10 15:30:58.34	242.05	26.79	-33.8	-35.4	18.7	0.00e+00	0	56	0	1786773504	38	4260
2026-01-10 15:30:59.35	242.34	26.86	-33.8	-35.4	18.7	0.00e+00	0	56	0	1794113536	38	4263
2026-01-10 15:31:00.36	242.63	26.93	-33.8	-35.4	18.7	0.00e+00	0	56	0	1801453568	38	4286
2026-01-10 15:31:01.37	242.92	27.00	-33.8	-35.4	18.7	0.00e+00	0	56	0	1808793600	38	4264
2026-01-10 15:31:02.38	243.21	27.07	-33.8	-35.4	18.7	0.00e+00	0	56	0	1816133632	38	4258
2026-01-10 15:31:03.39	243.51	27.13	-33.7	-35.3	18.8	0.00e+00	0	56	0	1823473664	38	4230
2026-01-10 15:31:04.40	243.80	27.20	-33.7	-35.3	18.8	0.00e+00	0	56	0	1830813696	38	4198
2026-01-10 15:31:05.41	244.10	27.27	-33.7	-35.3	18.8	0.00e+00	0	56	0	1838153728	38	4227
2026-01-10 15:31:06.42	244.39	27.33	-33.7	-35.3	18.8	0.00e+00	0	56	0	1845493760	38	4203
2026-01-10 15:31:07.43	244.69	27.40	-33.7	-35.3	18.8	0.00e+00	0	56	0	1852833792	38	4207
2026-01-10 15:31:08.44	244.99	27.46	-33.6	-35.2	18.9	0.00e+00	0	56	0	1860173824	38	4172
2026-01-10 15:31:09.45	245.29	27.53	-33.7	-35.3	18.8	0.00e+00	0	56	0	1867513856	38	4226
2026-01-10 15:31:10.46	245.59	27.59	-33.8	-35.5	18.6	0.00e+00	0	57	0	1873805312	38	4300
2026-01-10 15:31:11.46	245.89	27.65	-33.8	-35.5	18.6	0.00e+00	0	56	0	1881145344	38	4304
2026-01-10 15:31:12.47	246.19	27.71	-33.8	-35.5	18.6	0.00e+00	0	56	0	1889533952	38	4299
2026-01-10 15:31:13.48	246.50	27.77	-33.8	-35.4	18.7	0.00e+00	0	56	0	1895825408	38	4280
2026-01-10 15:31:14.49	246.80	27.83	-33.8	-35.5	18.6	0.00e+00	0	57	0	1903165440	38	4329
2026-01-10 15:31:15.50	247.11	27.89	-33.8	-35.5	18.6	0.00e+00	0	56	0	1910505472	38	4321
2026-01-10 15:31:16.51	247.42	27.95	-33.9	-35.6	18.5	0.00e+00	0	56	0	1917845504	38	4341
2026-01-10 15:31:17.52	247.73	28.01	-33.9	-35.6	18.5	0.00e+00	0	57	0	1925185536	38	4370
2026-01-10 15:31:18.53	248.04	28.07	-33.9	-35.6	18.4	0.00e+00	0	56	0	1932525568	38	4389
2026-01-10 15:31:19.54	248.35	28.12	-34.0	-35.7	18.4	0.00e+00	0	56	0	1939865600	38	4439
2026-01-10 15:31:20.55	248.66	28.18	-34.5	-35.7	19.0	0.00e+00	0	56	0	1947205632	38	4397
2026-01-10 15:31:21.56	248.97	28.23	-34.6	-35.7	19.0	0.00e+00	0	56	0	1954545664	38	4420
2026-01-10 15:31:22.57	249.29	28.29	-34.5	-35.6	19.1	0.00e+00	0	56	0	1961885696	38	4347
2026-01-10 15:31:23.58	249.60	28.34	-34.4	-35.4	19.3	0.00e+00	0	56	0	1969225728	38	4291
2026-01-10 15:31:24.59	249.92	28.39	-34.4	-35.4	19.3	0.00e+00	0	56	0	1976565760	38	4279
2026-01-10 15:31:25.60	250.24	28.45	-34.4	-35.4	19.2	0.00e+00	0	56	0	1983905792	38	4285
2026-01-10 15:31:26.61	250.56	28.50	-34.5	-35.6	19.2	0.00e+00	0	56	0	1991245824	38	4342
2026-01-10 15:31:27.62	250.87	28.55	-34.4	-35.5	19.2	0.00e+00	0	56	0	1998585856	38	4326
2026-01-10 15:31:28.63	251.19	28.60	-34.5	-35.6	19.1	0.00e+00	0	56	0	2005925888	38	4361
2026-01-10 15:31:29.64	251.52	28.64	-34.4	-35.6	19.2	0.00e+00	0	56	0	2013265920	38	4341
2026-01-10 15:31:30.65	251.84	28.69	-34.4	-35.5	19.2	0.00e+00	0	57	0	2020605952	38	4320
2026-01-10 15:31:31.66	252.16	28.74	-34.5	-35.5	19.2	0.00e+00	0	56	0	2026897408	38	4340
2026-01-10 15:31:32.67	252.49	28.78	-34.5	-35.6	19.1	0.00e+00	0	56	0	2034237440	38	4358
2026-01-10 15:31:33.68	252.81	28.83	-34.5	-35.5	19.2	0.00e+00	0	56	0	2041577472	38	4329
2026-01-10 15:31:34.69	253.14	28.87	-34.5	-35.6	19.1	0.00e+00	0	56	0	2048917504	38	4346
2026-01-10 15:31:35.70	253.46	28.91	-34.6	-35.7	19.1	0.00e+00	0	56	0	2056257536	38	4400
2026-01-10 15:31:36.71	253.79	28.96	-34.5	-35.6	19.1	0.00e+00	0	56	0	2063597568	38	4386
2026-01-10 15:31:37.72	254.12	29.00	-34.5	-35.6	19.1	0.00e+00	0	56	0	2070937600	38	4355
2026-01-10 15:31:38.73	254.45	29.04	-34.3	-35.4	19.3	0.00e+00	0	56	0	2078277632	38	4270
2026-01-10 15:31:39.74	254.78	29.08	-34.2	-35.2	19.5	0.00e+00	0	56	0	2085617664	38	4189
2026-01-10 15:31:40.74	255.11	29.11	-34.1	-35.1	19.6	0.00e+00	0	56	0	2092957696	38	4131
2026-01-10 15:31:41.76	255.44	29.15	-34.0	-35.1	19.6	0.00e+00	0	56	0	2100297728	38	4103
2026-01-10 15:31:42.77	255.77	29.19	-34.0	-35.0	19.7	0.00e+00	0	56	0	2107637760	38	4062
2026-01-10 15:31:43.77	256.10	29.22	-34.0	-35.1	19.6	0.00e+00	0	57	0	2114977792	38	4105
2026-01-10 15:31:44.78	256.44	29.25	-34.0	-35.1	19.6	0.00e+00	0	56	0	2122317824	38	4118
2026-01-10 15:31:45.79	256.77	29.29	-34.1	-35.2	19.5	0.00e+00	0	57	0	2129657856	38	4154
2026-01-10 15:31:46.80	257.10	29.32	-34.1	-35.2	19.5	0.00e+00	0	57	0	2136997888	38	4162
2026-01-10 15:31:47.81	257.44	29.35	-34.2	-35.3	19.4	0.00e+00	0	56	0	2144337920	38	4199
2026-01-10 15:31:48.82	257.78	29.38	-34.2	-35.3	19.4	0.00e+00	0	56	0	2150629376	38	4213
2026-01-10 15:31:49.83	258.11	29.41	-34.3	-35.4	19.3	0.00e+00	0	57	0	2159017984	38	4249
2026-01-10 15:31:50.84	258.45	29.44	-34.3	-35.3	19.4	0.00e+00	0	57	0	2166358016	38	4236
2026-01-10 15:31:51.85	258.79	29.46	-34.3	-35.4	19.4	0.00e+00	0	56	0	2172649472	38	4258
2026-01-10 15:31:52.86	259.13	29.49	-34.3	-35.4	19.3	0.00e+00	0	56	0	2179989504	38	4277
2026-01-10 15:31:53.86	259.46	29.52	-34.5	-35.6	19.1	0.00e+00	0	56	0	2187329536	38	4357
2026-01-10 15:31:54.87	259.80	29.54	-34.5	-35.6	19.1	0.00e+00	0	57	0	2194669568	38	4371
2026-01-10 15:31:55.88	260.14	29.56	-34.6	-35.7	19.0	0.00e+00	0	57	0	2202009600	38	4434
2026-01-10 15:31:56.90	260.49	29.58	-34.5	-35.6	19.1	0.00e+00	0	56	0	2209349632	38	4383
2026-01-10 15:31:57.90	260.82	29.60	-34.5	-35.6	19.1	0.00e+00	0	57	0	2216689664	38	4364
2026-01-10 15:31:58.91	261.16	29.62	-34.4	-35.5	19.2	0.00e+00	0	57	0	2224029696	38	4322
2026-01-10 15:31:59.92	261.51	29.64	-34.3	-35.3	19.4	0.00e+00	0	56	0	2231369728	38	4241
2026-01-10 15:32:00.93	261.85	29.66	-34.3	-35.4	19.3	0.00e+00	0	57	0	2238709760	38	4261
2026-01-10 15:32:01.94	262.19	29.68	-34.3	-35.4	19.3	0.00e+00	0	57	0	2246049792	38	4269
2026-01-10 15:32:02.95	262.53	29.69	-34.3	-35.3	19.4	0.00e+00	0	57	0	2253389824	38	4240
2026-01-10 15:32:03.96	262.88	29.70	-34.3	-35.4	19.3	0.00e+00	0	57	0	2260729856	38	4261
2026-01-10 15:32:04.97	263.22	29.72	-34.3	-35.4	19.3	0.00e+00	0	57	0	2268069888	38	4247
2026-01-10 15:32:05.98	263.56	29.73	-34.3	-35.4	19.3	0.00e+00	0	57	0	2275409920	38	4278
2026-01-10 15:32:06.99	263.91	29.74	-34.4	-35.4	19.3	0.00e+00	0	57	0	2282749952	38	4280
2026-01-10 15:32:08.00	264.25	29.75	-34.5	-35.5	19.2	0.00e+00	0	56	0	2290089984	38	4338
2026-01-10 15:32:09.01	264.59	29.76	-34.4	-35.5	19.2	0.00e+00	0	57	0	2297430016	38	4321
2026-01-10 15:32:10.02	264.94	29.77	-34.6	-35.7	19.1	0.00e+00	0	56	0	2303721472	38	4405
2026-01-10 15:32:11.03	265.28	29.77	-34.6	-35.7	19.1	0.00e+00	0	56	0	2312110080	38	4399
2026-01-10 15:32:12.04	265.63	29.78	-34.5	-35.6	19.1	0.00e+00	0	57	0	2319450112	38	4373
2026-01-10 15:32:13.04	265.97	29.78	-34.6	-35.7	19.0	0.00e+00	0	57	0	2325741568	38	4421
2026-01-10 15:32:14.05	266.31	29.78	-34.7	-35.8	18.9	0.00e+00	0	56	0	2333081600	38	4464
2026-01-10 15:32:15.06	266.66	29.79	-34.6	-35.7	19.0	0.00e+00	0	56	0	2340421632	38	4420
2026-01-10 15:32:16.07	267.00	29.79	-34.6	-35.7	19.0	0.00e+00	0	56	0	2347761664	38	4425
2026-01-10 15:32:17.08	267.35	29.79	-34.6	-35.7	19.0	0.00e+00	0	56	0	2355101696	38	4431
2026-01-10 15:32:18.09	267.69	29.79	-34.6	-35.7	19.1	0.00e+00	0	56	0	2362441728	38	4413
2026-01-10 15:32:19.11	268.04	29.78	-34.5	-35.5	19.2	0.00e+00	0	57	0	2369781760	38	4340
2026-01-10 15:32:20.12	268.38	29.78	-34.4	-35.5	19.2	0.00e+00	0	56	0	2377121792	38	4318
2026-01-10 15:32:21.13	268.73	29.77	-34.4	-35.4	19.3	0.00e+00	0	57	0	2384461824	38	4285
2026-01-10 15:32:22.14	269.07	29.77	-34.3	-35.4	19.3	0.00e+00	0	57	0	2391801856	38	4261
2026-01-10 15:32:23.15	269.42	29.76	-34.4	-35.5	19.2	0.00e+00	0	57	0	2399141888	38	4313
2026-01-10 15:32:24.16	269.76	29.75	-34.4	-35.5	19.2	0.00e+00	0	57	0	2406481920	38	4310
2026-01-10 15:32:25.17	270.11	29.74	-34.4	-35.5	19.2	0.00e+00	0	56	0	2413821952	38	4332
2026-01-10 15:32:26.18	270.45	29.73	-34.4	-35.5	19.2	0.00e+00	0	57	0	2421161984	38	4314
2026-01-10 15:32:27.19	270.79	29.72	-34.4	-35.5	19.2	0.00e+00	0	57	0	2428502016	38	4308
2026-01-10 15:32:28.19	271.13	29.71	-34.5	-35.5	19.2	0.00e+00	0	56	0	2435842048	38	4339
2026-01-10 15:32:29.20	271.47	29.70	-34.5	-35.6	19.1	0.00e+00	0	57	0	2443182080	38	4356
2026-01-10 15:32:30.21	271.82	29.68	-34.6	-35.7	19.0	0.00e+00	0	57	0	2449473536	38	4410
2026-01-10 15:32:31.22	272.16	29.67	-34.6	-35.7	19.0	0.00e+00	0	56	0	2456813568	38	4412
2026-01-10 15:32:32.23	272.50	29.65	-34.6	-35.7	19.0	0.00e+00	0	57	0	2465202176	38	4416
2026-01-10 15:32:33.24	272.84	29.63	-34.6	-35.7	19.1	0.00e+00	0	56	0	2471493632	38	4400
2026-01-10 15:32:34.25	273.18	29.61	-34.5	-35.6	19.1	0.00e+00	0	56	0	2478833664	38	4387
2026-01-10 15:32:35.26	273.52	29.59	-34.5	-35.6	19.2	0.00e+00	0	57	0	2486173696	38	4347
2026-01-10 15:32:36.27	273.86	29.57	-34.4	-35.5	19.3	0.00e+00	0	57	0	2493513728	38	4304
2026-01-10 15:32:37.28	274.20	29.55	-34.3	-35.3	19.4	0.00e+00	0	57	0	2500853760	38	4234
2026-01-10 15:32:38.29	274.54	29.53	-34.2	-35.3	19.4	0.00e+00	0	57	0	2508193792	38	4209
2026-01-10 15:32:39.30	274.88	29.50	-34.2	-35.3	19.4	0.00e+00	0	57	0	2515533824	38	4222
2026-01-10 15:32:40.32	275.22	29.47	-34.3	-35.4	19.3	0.00e+00	0	56	0	2522873856	38	4264
2026-01-10 15:32:41.33	275.56	29.45	-34.4	-35.4	19.3	0.00e+00	0	57	0	2530213888	38	4282
2026-01-10 15:32:42.34	275.90	29.42	-34.3	-35.4	19.3	0.00e+00	0	57	0	2537553920	38	4276
2026-01-10 15:32:43.34	276.23	29.39	-34.3	-35.4	19.3	0.00e+00	0	57	0	2544893952	38	4257
2026-01-10 15:32:44.35	276.57	29.36	-34.3	-35.4	19.3	0.00e+00	0	57	0	2552233984	38	4268
2026-01-10 15:32:45.36	276.90	29.33	-34.4	-35.4	19.3	0.00e+00	0	57	0	2559574016	38	4276
2026-01-10 15:32:46.37	277.24	29.30	-34.4	-35.5	19.2	0.00e+00	0	57	0	2566914048	38	4317
2026-01-10 15:32:47.38	277.57	29.27	-34.5	-35.6	19.1	0.00e+00	0	57	0	2574254080	38	4366
2026-01-10 15:32:48.39	277.91	29.23	-34.6	-35.7	19.0	0.00e+00	0	57	0	2581594112	38	4409
2026-01-10 15:32:49.40	278.24	29.20	-34.6	-35.7	19.0	0.00e+00	0	57	0	2588934144	38	4410
2026-01-10 15:32:50.41	278.57	29.16	-34.5	-35.6	19.1	0.00e+00	0	57	0	2596274176	38	4366
2026-01-10 15:32:51.42	278.90	29.13	-34.3	-35.4	19.3	0.00e+00	0	57	0	2602565632	38	4272
2026-01-10 15:32:52.43	279.23	29.09	-34.3	-35.4	19.3	0.00e+00	0	57	0	2610954240	38	4260
2026-01-10 15:32:53.44	279.56	29.05	-34.3	-35.4	19.3	0.00e+00	0	57	0	2618294272	38	4249
2026-01-10 15:32:54.45	279.89	29.01	-34.3	-35.3	19.4	0.00e+00	0	57	0	2624585728	38	4241
2026-01-10 15:32:55.46	280.22	28.97	-34.3	-35.4	19.3	0.00e+00	0	56	0	2631925760	38	4250
2026-01-10 15:32:56.47	280.54	28.93	-34.4	-35.5	19.2	0.00e+00	0	57	0	2639265792	38	4304
2026-01-10 15:32:57.48	280.87	28.89	-34.4	-35.5	19.2	0.00e+00	0	57	0	2646605824	38	4309
2026-01-10 15:32:58.49	281.20	28.85	-34.4	-35.5	19.2	0.00e+00	0	57	0	2653945856	38	4304
2026-01-10 15:32:59.50	281.52	28.80	-34.3	-35.4	19.3	0.00e+00	0	57	0	2661285888	38	4256
2026-01-10 15:33:00.51	281.84	28.76	-34.4	-35.5	19.2	0.00e+00	0	57	0	2668625920	38	4297
2026-01-10 15:33:01.52	282.17	28.71	-34.3	-35.4	19.3	0.00e+00	0	57	0	2675965952	38	4275
2026-01-10 15:33:02.53	282.49	28.66	-34.3	-35.4	19.4	0.00e+00	0	57	0	2683305984	38	4244
2026-01-10 15:33:03.54	282.81	28.62	-34.2	-35.3	19.4	0.00e+00	0	57	0	2690646016	38	4201
2026-01-10 15:33:04.55	283.13	28.57	-34.3	-35.3	19.4	0.00e+00	0	57	0	2697986048	38	4237
2026-01-10 15:33:05.56	283.45	28.52	-34.3	-35.3	19.3	0.00e+00	0	57	0	2705326080	38	4237
2026-01-10 15:33:06.57	283.77	28.47	-34.4	-35.5	19.2	0.00e+00	0	57	0	2712666112	38	4313
2026-01-10 15:33:07.58	284.08	28.42	-34.5	-35.6	19.1	0.00e+00	0	57	0	2720006144	38	4349
2026-01-10 15:33:08.59	284.40	28.37	-34.5	-35.6	19.1	0.00e+00	0	57	0	2727346176	38	4374
2026-01-10 15:33:09.60	284.72	28.31	-34.4	-35.5	19.2	0.00e+00	0	57	0	2734686208	38	4322
2026-01-10 15:33:10.61	285.03	28.26	-34.4	-35.5	19.2	0.00e+00	0	57	0	2742026240	38	4308
2026-01-10 15:33:11.62	285.34	28.20	-34.4	-35.5	19.2	0.00e+00	0	57	0	2748317696	38	4292
2026-01-10 15:33:12.63	285.65	28.15	-34.2	-35.3	19.4	0.00e+00	0	57	0	2756706304	38	4206
2026-01-10 15:33:13.64	285.97	28.09	-34.2	-35.3	19.4	0.00e+00	0	57	0	2764046336	38	4199
2026-01-10 15:33:14.65	286.27	28.04	-34.3	-35.3	19.3	0.00e+00	0	57	0	2770337792	38	4235
2026-01-10 15:33:15.66	286.58	27.98	-34.4	-35.5	19.2	0.00e+00	0	57	0	2777677824	38	4321
2026-01-10 15:33:16.67	286.89	27.92	-34.5	-35.6	19.1	0.00e+00	0	57	0	2785017856	38	4377
2026-01-10 15:33:17.68	287.20	27.86	-34.6	-35.7	19.0	0.00e+00	0	57	0	2792357888	38	4406
2026-01-10 15:33:18.69	287.50	27.80	-34.6	-35.7	19.0	0.00e+00	0	57	0	2799697920	38	4396
2026-01-10 15:33:19.70	287.81	27.74	-34.5	-35.6	19.1	0.00e+00	0	57	0	2807037952	38	4383
2026-01-10 15:33:20.71	288.11	27.68	-34.5	-35.6	19.1	0.00e+00	0	57	0	2814377984	38	4356
2026-01-10 15:33:21.72	288.41	27.62	-34.5	-35.6	19.1	0.00e+00	0	57	0	2821718016	38	4372
2026-01-10 15:33:22.73	288.71	27.56	-34.5	-35.6	19.0	0.00e+00	0	57	0	2829058048	38	4385
2026-01-10 15:33:23.74	289.01	27.49	-34.6	-35.7	19.0	0.00e+00	0	57	0	2836398080	38	4436
2026-01-10 15:33:24.75	289.31	27.43	-34.6	-35.8	18.9	0.00e+00	0	57	0	2843738112	38	4445
2026-01-10 15:33:25.76	289.61	27.36	-34.6	-35.7	18.9	0.00e+00	0	57	0	2851078144	38	4437
2026-01-10 15:33:26.77	289.90	27.30	-34.6	-35.7	19.0	0.00e+00	0	57	0	2858418176	38	4405
2026-01-10 15:33:27.78	290.20	27.23	-34.5	-35.6	19.0	0.00e+00	0	57	0	2865758208	38	4386
2026-01-10 15:33:28.79	290.49	27.17	-34.6	-35.7	19.0	0.00e+00	0	56	0	2873098240	38	4410
2026-01-10 15:33:29.80	290.78	27.10	-34.6	-35.7	19.0	0.00e+00	0	57	0	2880438272	38	4398
2026-01-10 15:33:30.81	291.08	27.03	-34.6	-35.7	18.9	0.00e+00	0	57	0	2887778304	38	4431
2026-01-10 15:33:31.81	291.36	26.96	-34.7	-35.8	18.9	0.00e+00	0	57	0	2895118336	38	4455
2026-01-10 15:33:32.82	291.65	26.90	-34.7	-35.8	18.8	0.00e+00	0	57	0	2902458368	39	4235
2026-01-10 15:33:33.83	291.94	26.83	-34.8	-35.9	18.7	0.00e+00	0	57	0	2909798400	39	4282
2026-01-10 15:33:34.84	292.22	26.76	-34.8	-36.0	18.7	0.00e+00	0	57	0	2917138432	39	4306
2026-01-10 15:33:35.85	292.51	26.69	-34.9	-36.0	18.6	0.00e+00	0	57	0	2923429888	39	4338
2026-01-10 15:33:36.86	292.79	26.61	-34.8	-36.0	18.7	0.00e+00	0	57	0	2930769920	39	4299
2026-01-10 15:33:37.87	293.08	26.54	-34.8	-36.0	18.7	0.00e+00	0	57	0	2938109952	39	4304
2026-01-10 15:33:38.88	293.36	26.47	-34.8	-35.9	18.7	0.00e+00	0	57	0	2945449984	39	4286
2026-01-10 15:33:39.89	293.64	26.40	-34.6	-35.7	19.0	0.00e+00	0	57	0	2952790016	39	4183
2026-01-10 15:33:40.90	293.92	26.32	-34.5	-35.6	19.1	0.00e+00	0	57	0	2960130048	39	4116
2026-01-10 15:33:41.91	294.19	26.25	-34.4	-35.5	19.1	0.00e+00	0	57	0	2967470080	39	4074
2026-01-10 15:33:42.92	294.47	26.18	-34.5	-35.5	19.0	0.00e+00	0	57	0	2974810112	39	4095
2026-01-10 15:33:43.93	294.74	26.10	-34.5	-35.6	19.1	0.00e+00	0	56	0	2982150144	39	4102
2026-01-10 15:33:44.94	295.02	26.03	-34.5	-35.6	19.0	0.00e+00	0	57	0	2989490176	39	4133
2026-01-10 15:33:45.95	295.29	25.95	-34.5	-35.6	19.0	0.00e+00	0	57	0	2996830208	39	4137
2026-01-10 15:33:46.96	295.56	25.87	-34.5	-35.6	19.0	0.00e+00	0	57	0	3004170240	39	4132
2026-01-10 15:33:47.97	295.83	25.80	-34.5	-35.6	19.0	0.00e+00	0	57	0	3011510272	39	4120
2026-01-10 15:33:48.98	296.10	25.72	-34.5	-35.6	19.1	0.00e+00	0	57	0	3018850304	39	4111
2026-01-10 15:33:49.98	296.36	25.64	-34.6	-35.7	19.0	0.00e+00	0	57	0	3026190336	39	4152
2026-01-10 15:33:50.99	296.63	25.57	-34.7	-35.8	18.9	0.00e+00	0	57	0	3033530368	39	4209
2026-01-10 15:33:52.00	296.89	25.49	-34.9	-36.0	18.7	0.00e+00	0	57	0	3040870400	39	4314
2026-01-10 15:33:53.01	297.16	25.41	-35.1	-36.2	18.4	0.00e+00	0	57	0	3047161856	39	4426
2026-01-10 15:33:54.02	297.42	25.33	-35.2	-36.4	18.3	0.00e+00	0	57	0	3054501888	39	4499
2026-01-10 15:33:55.03	297.68	25.25	-35.1	-36.3	18.2	0.00e+00	0	57	0	3062890496	40	4231
2026-01-10 15:33:56.04	297.94	25.17	-35.1	-36.3	18.3	0.00e+00	0	57	0	3069181952	40	4222
2026-01-10 15:33:57.05	298.20	25.09	-35.1	-36.2	18.3	0.00e+00	0	57	0	3076521984	40	4192
2026-01-10 15:33:58.06	298.45	25.01	-35.0	-36.2	18.4	0.00e+00	0	57	0	3083862016	40	4147
2026-01-10 15:33:59.07	298.71	24.93	-34.9	-36.0	18.5	0.00e+00	0	57	0	3091202048	40	4094
2026-01-10 15:34:00.08	298.96	24.85	-34.9	-36.0	18.6	0.00e+00	0	57	0	3098542080	40	4071
2026-01-10 15:34:01.09	299.22	24.77	-34.8	-35.9	18.7	0.00e+00	0	57	0	3105882112	40	4030
2026-01-10 15:34:02.10	299.47	24.68	-34.8	-35.9	18.6	0.00e+00	0	57	0	3113222144	40	4030
2026-01-10 15:34:03.11	299.72	24.60	-34.7	-35.9	18.7	0.00e+00	0	57	0	3120562176	40	4016
2026-01-10 15:34:04.12	299.97	24.52	-34.7	-35.8	18.7	0.00e+00	0	57	0	3127902208	40	4003
2026-01-10 15:34:05.13	300.22	24.44	-34.7	-35.8	18.7	0.00e+00	0	57	0	3135242240	40	3996
2026-01-10 15:34:06.14	300.46	24.35	-34.8	-36.0	18.6	0.00e+00	0	57	0	3142582272	40	4061
2026-01-10 15:34:07.15	300.71	24.27	-34.8	-36.0	18.6	0.00e+00	0	57	0	3149922304	40	4066
2026-01-10 15:34:08.16	300.95	24.19	-34.9	-36.0	18.5	0.00e+00	0	57	0	3157262336	40	4086
2026-01-10 15:34:09.17	301.19	24.10	-34.9	-36.0	18.5	0.00e+00	0	57	0	3164602368	40	4094
2026-01-10 15:34:10.18	301.44	24.02	-34.9	-36.0	18.5	0.00e+00	0	57	0	3171942400	40	4076
2026-01-10 15:34:11.19	301.68	23.94	-34.9	-36.0	18.5	0.00e+00	0	57	0	3179282432	40	4074
2026-01-10 15:34:12.20	301.92	23.85	-34.9	-36.0	18.5	0.00e+00	0	57	0	3186622464	40	4094
2026-01-10 15:34:13.21	302.15	23.77	-34.9	-36.1	18.5	0.00e+00	0	57	0	3193962496	40	4099
2026-01-10 15:34:14.22	302.39	23.68	-34.9	-36.1	18.4	0.00e+00	0	57	0	3200253952	40	4103
2026-01-10 15:34:15.22	302.62	23.60	-35.0	-36.1	18.3	0.00e+00	0	57	0	3208642560	40	4142
2026-01-10 15:34:16.23	302.86	23.51	-35.0	-36.2	18.4	0.00e+00	0	57	0	3215982592	40	4148
2026-01-10 15:34:17.24	303.09	23.43	-35.0	-36.2	18.4	0.00e+00	0	57	0	3222274048	40	4155
2026-01-10 15:34:18.25	303.32	23.34	-35.0	-36.2	18.4	0.00e+00	0	57	0	3229614080	40	4157
2026-01-10 15:34:19.26	303.55	23.25	-35.0	-36.2	18.3	0.00e+00	0	57	0	3236954112	40	4166
2026-01-10 15:34:20.27	303.78	23.17	-35.0	-36.2	18.3	0.00e+00	0	57	0	3244294144	40	4155
2026-01-10 15:34:21.28	304.01	23.08	-35.1	-36.3	18.3	0.00e+00	0	57	0	3251634176	40	4196
2026-01-10 15:34:22.29	304.23	23.00	-35.1	-36.3	18.2	0.00e+00	0	57	0	3258974208	40	4228
2026-01-10 15:34:23.30	304.46	22.91	-35.1	-36.2	18.3	0.00e+00	0	57	0	3266314240	40	4193
2026-01-10 15:34:24.31	304.68	22.82	-35.1	-36.3	18.3	0.00e+00	0	57	0	3273654272	40	4195
2026-01-10 15:34:25.32	304.90	22.74	-35.1	-36.3	18.3	0.00e+00	0	57	0	3280994304	40	4201
2026-01-10 15:34:26.33	305.13	22.65	-35.1	-36.3	18.2	0.00e+00	0	57	0	3288334336	40	4214
2026-01-10 15:34:27.34	305.35	22.56	-35.1	-36.3	18.2	0.00e+00	0	57	0	3295674368	40	4218
2026-01-10 15:34:28.35	305.57	22.47	-35.1	-36.3	18.2	0.00e+00	0	57	0	3303014400	40	4221
2026-01-10 15:34:29.36	305.78	22.39	-35.2	-36.5	18.1	0.00e+00	0	57	0	3310354432	40	4297
2026-01-10 15:34:30.37	306.00	22.30	-35.3	-36.5	18.0	0.00e+00	0	57	0	3317694464	40	4295
2026-01-10 15:34:31.37	306.21	22.21	-35.3	-36.5	18.0	0.00e+00	0	57	0	3325034496	40	4322
2026-01-10 15:34:32.39	306.43	22.12	-35.3	-36.5	18.0	0.00e+00	0	57	0	3332374528	40	4314
2026-01-10 15:34:33.39	306.64	22.04	-35.3	-36.4	18.1	0.00e+00	0	57	0	3339714560	40	4288
2026-01-10 15:34:34.40	306.85	21.95	-35.3	-36.4	18.1	0.00e+00	0	57	0	3346006016	40	4281
2026-01-10 15:34:35.41	307.06	21.86	-35.3	-36.5	18.1	0.00e+00	0	57	0	3353346048	40	4297
2026-01-10 15:34:36.42	307.27	21.77	-35.3	-36.5	18.0	0.00e+00	0	57	0	3360686080	40	4322
2026-01-10 15:34:37.43	307.48	21.68	-35.4	-36.5	17.9	0.00e+00	0	57	0	3368026112	40	4334
2026-01-10 15:34:38.44	307.69	21.60	-35.4	-36.6	17.9	0.00e+00	0	57	0	3375366144	40	4364
2026-01-10 15:34:39.45	307.90	21.51	-35.4	-36.6	17.8	0.00e+00	0	57	0	3382706176	40	4381
2026-01-10 15:34:40.46	308.10	21.42	-35.5	-36.7	17.8	0.00e+00	0	57	0	3390046208	40	4420
2026-01-10 15:34:41.47	308.30	21.33	-35.5	-36.7	17.8	0.00e+00	0	57	0	3397386240	40	4425
2026-01-10 15:34:42.48	308.51	21.24	-35.5	-36.7	17.8	0.00e+00	0	57	0	3404726272	40	4427
2026-01-10 15:34:43.48	308.71	21.15	-35.5	-36.8	17.7	0.00e+00	0	57	0	3412066304	40	4445
2026-01-10 15:34:44.50	308.91	21.07	-35.6	-36.8	17.7	0.00e+00	0	57	0	3419406336	40	4466
2026-01-10 15:34:45.51	309.11	20.98	-35.6	-36.8	17.7	0.00e+00	0	57	0	3426746368	40	4461
2026-01-10 15:34:46.52	309.31	20.89	-35.5	-36.7	17.8	0.00e+00	0	57	0	3434086400	40	4422
2026-01-10 15:34:47.53	309.50	20.80	-35.4	-36.6	17.9	0.00e+00	0	57	0	3441426432	40	4362
2026-01-10 15:34:48.54	309.70	20.71	-35.4	-36.6	17.9	0.00e+00	0	57	0	3448766464	40	4343
2026-01-10 15:34:49.55	309.89	20.62	-35.3	-36.5	17.9	0.00e+00	0	57	0	3456106496	40	4331
2026-01-10 15:34:50.56	310.09	20.53	-35.3	-36.5	18.0	0.00e+00	0	57	0	3463446528	40	4335
2026-01-10 15:34:51.57	310.28	20.45	-35.4	-36.6	17.9	0.00e+00	0	57	0	3470786560	40	4353
2026-01-10 15:34:52.58	310.47	20.36	-35.4	-36.6	17.8	0.00e+00	0	57	0	3478126592	40	4378
2026-01-10 15:34:53.59	310.66	20.27	-35.5	-36.8	17.7	0.00e+00	0	57	0	3485466624	40	4442
2026-01-10 15:34:54.60	310.85	20.18	-35.7	-37.0	17.5	0.00e+00	0	57	0	3492806656	40	4554
2026-01-10 15:34:55.61	311.04	20.09	-35.8	-37.1	17.4	0.00e+00	0	57	0	3499098112	41	4356
2026-01-10 15:34:56.62	311.23	20.00	-36.0	-37.3	17.2	0.00e+00	0	57	0	3506438144	41	4449
2026-01-10 15:34:57.62	311.41	19.91	-36.0	-37.4	17.1	0.00e+00	0	57	0	3514826752	41	4494
2026-01-10 15:34:58.63	311.60	19.83	-36.0	-37.3	17.1	0.00e+00	0	57	0	3521118208	41	4485
2026-01-10 15:34:59.64	311.78	19.74	-36.1	-37.4	17.1	0.00e+00	0	57	0	3528458240	41	4521
2026-01-10 15:35:00.66	311.97	19.65	-36.0	-37.3	17.2	0.00e+00	0	57	0	3535798272	41	4458
2026-01-10 15:35:01.67	312.15	19.56	-35.9	-37.2	17.3	0.00e+00	0	57	0	3543138304	41	4405
2026-01-10 15:35:02.68	312.33	19.47	-35.8	-37.1	17.3	0.00e+00	0	57	0	3550478336	41	4355
2026-01-10 15:35:03.69	312.51	19.38	-35.7	-37.0	17.5	0.00e+00	0	57	0	3557818368	41	4297
2026-01-10 15:35:04.70	312.69	19.29	-35.7	-36.9	17.5	0.00e+00	0	57	0	3565158400	41	4270
2026-01-10 15:35:05.71	312.87	19.21	-35.6	-36.8	17.6	0.00e+00	0	57	0	3572498432	41	4238
2026-01-10 15:35:06.72	313.05	19.12	-35.6	-36.8	17.6	0.00e+00	0	57	0	3579838464	41	4242
2026-01-10 15:35:07.73	313.22	19.03	-35.7	-36.9	17.5	0.00e+00	0	57	0	3587178496	41	4260
2026-01-10 15:35:08.74	313.40	18.94	-35.6	-36.9	17.6	0.00e+00	0	57	0	3594518528	41	4254
2026-01-10 15:35:09.75	313.57	18.85	-35.6	-36.8	17.6	0.00e+00	0	57	0	3601858560	41	4235
2026-01-10 15:35:10.76	313.74	18.77	-35.7	-36.9	17.5	0.00e+00	0	57	0	3609198592	41	4260
2026-01-10 15:35:11.77	313.92	18.68	-35.7	-36.9	17.5	0.00e+00	0	57	0	3616538624	41	4269
2026-01-10 15:35:12.78	314.09	18.59	-35.8	-37.0	17.4	0.00e+00	0	57	0	3623878656	41	4318
2026-01-10 15:35:13.79	314.26	18.50	-35.9	-37.2	17.2	0.00e+00	0	57	0	3631218688	41	4395
2026-01-10 15:35:14.79	314.42	18.41	-36.0	-37.3	17.1	0.00e+00	0	57	0	3638558720	41	4476
2026-01-10 15:35:15.80	314.59	18.33	-36.1	-37.3	17.0	0.00e+00	0	57	0	3644850176	41	4493
2026-01-10 15:35:16.81	314.76	18.24	-36.1	-37.4	16.9	0.00e+00	0	57	0	3652190208	41	4534
2026-01-10 15:35:17.82	314.93	18.15	-36.3	-37.6	16.8	0.00e+00	0	57	0	3660578816	42	4371
2026-01-10 15:35:18.84	315.09	18.06	-36.3	-37.7	16.7	0.00e+00	0	57	0	3666870272	42	4403
2026-01-10 15:35:19.85	315.26	17.98	-36.3	-37.7	16.7	0.00e+00	0	57	0	3674210304	42	4407
2026-01-10 15:35:20.86	315.42	17.89	-36.3	-37.7	16.7	0.00e+00	0	57	0	3681550336	42	4399
2026-01-10 15:35:21.86	315.58	17.80	-36.3	-37.6	16.8	0.00e+00	0	57	0	3688890368	42	4389
2026-01-10 15:35:22.87	315.75	17.72	-36.3	-37.6	16.8	0.00e+00	0	57	0	3696230400	42	4372
2026-01-10 15:35:23.89	315.91	17.63	-36.2	-37.5	16.9	0.00e+00	0	57	0	3703570432	42	4329
2026-01-10 15:35:24.90	316.07	17.54	-36.2	-37.5	16.9	0.00e+00	0	57	0	3710910464	42	4316
2026-01-10 15:35:25.91	316.23	17.45	-36.1	-37.4	16.9	0.00e+00	0	57	0	3718250496	42	4285
2026-01-10 15:35:26.92	316.39	17.37	-36.0	-37.3	17.1	0.00e+00	0	57	0	3725590528	42	4221
2026-01-10 15:35:27.93	316.54	17.28	-35.9	-37.2	17.2	0.00e+00	0	57	0	3732930560	42	4161
2026-01-10 15:35:28.94	316.70	17.19	-35.9	-37.2	17.2	0.00e+00	0	57	0	3740270592	42	4152
2026-01-10 15:35:29.95	316.85	17.11	-35.8	-37.1	17.3	0.00e+00	0	57	0	3747610624	42	4109
2026-01-10 15:35:30.96	317.01	17.02	-35.8	-37.1	17.3	0.00e+00	0	57	0	3754950656	42	4117
2026-01-10 15:35:31.97	317.16	16.94	-35.9	-37.2	17.2	0.00e+00	0	57	0	3762290688	42	4148
2026-01-10 15:35:32.98	317.32	16.85	-36.0	-37.2	17.1	0.00e+00	0	57	0	3769630720	42	4190
2026-01-10 15:35:33.99	317.47	16.76	-36.0	-37.3	17.1	0.00e+00	0	57	0	3776970752	42	4204
2026-01-10 15:35:35.00	317.62	16.68	-36.1	-37.4	16.9	0.00e+00	0	57	0	3784310784	42	4273
2026-01-10 15:35:36.01	317.77	16.59	-36.2	-37.5	16.9	0.00e+00	0	57	0	3791650816	42	4312
2026-01-10 15:35:37.02	317.92	16.51	-36.3	-37.6	16.7	0.00e+00	0	57	0	3797942272	42	4383
2026-01-10 15:35:38.03	318.07	16.42	-36.4	-37.8	16.6	0.00e+00	0	57	0	3806330880	42	4454
2026-01-10 15:35:39.04	318.22	16.34	-36.5	-37.8	16.5	0.00e+00	0	57	0	3813670912	42	4485
2026-01-10 15:35:40.05	318.36	16.25	-36.5	-37.9	16.5	0.00e+00	0	57	0	3819962368	42	4509
2026-01-10 15:35:41.06	318.51	16.17	-36.6	-38.0	16.4	0.00e+00	0	57	0	3827302400	42	4566
2026-01-10 15:35:42.07	318.66	16.08	-36.7	-38.1	16.3	0.00e+00	0	57	0	3834642432	42	4602
2026-01-10 15:35:43.08	318.80	16.00	-36.6	-37.9	16.4	0.00e+00	0	57	0	3841982464	42	4539
2026-01-10 15:35:44.09	318.95	15.91	-36.6	-38.0	16.4	0.00e+00	0	57	0	3849322496	42	4560
2026-01-10 15:35:45.09	319.09	15.83	-36.6	-38.0	16.4	0.00e+00	0	57	0	3856662528	42	4552
2026-01-10 15:35:46.11	319.23	15.74	-36.5	-37.8	16.5	0.00e+00	0	57	0	3864002560	42	4492
2026-01-10 15:35:47.12	319.37	15.66	-36.5	-37.8	16.5	0.00e+00	0	57	0	3871342592	42	4489
2026-01-10 15:35:48.13	319.51	15.57	-36.4	-37.7	16.6	0.00e+00	0	57	0	3878682624	42	4428
2026-01-10 15:35:49.14	319.65	15.49	-36.4	-37.7	16.6	0.00e+00	0	57	0	3886022656	42	4430
2026-01-10 15:35:50.15	319.79	15.41	-36.3	-37.6	16.6	0.00e+00	0	57	0	3893362688	42	4383
2026-01-10 15:35:51.16	319.93	15.32	-36.3	-37.6	16.7	0.00e+00	0	57	0	3900702720	42	4385
2026-01-10 15:35:52.17	320.07	15.24	-36.3	-37.6	16.7	0.00e+00	0	57	0	3908042752	42	4362
2026-01-10 15:35:53.18	320.21	15.16	-36.2	-37.5	16.8	0.00e+00	0	57	0	3915382784	42	4301
2026-01-10 15:35:54.19	320.34	15.07	-36.2	-37.6	16.7	0.00e+00	0	57	0	3922722816	42	4344
2026-01-10 15:35:55.20	320.48	14.99	-36.2	-37.6	16.7	0.00e+00	0	57	0	3930062848	42	4348
2026-01-10 15:35:56.21	320.61	14.91	-36.3	-37.6	16.7	0.00e+00	0	57	0	3937402880	42	4360
2026-01-10 15:35:57.22	320.75	14.82	-36.3	-37.6	16.7	0.00e+00	0	57	0	3943694336	42	4363
2026-01-10 15:35:58.23	320.88	14.74	-36.3	-37.6	16.6	0.00e+00	0	57	0	3952082944	42	4384
2026-01-10 15:35:59.24	321.02	14.66	-36.4	-37.7	16.6	0.00e+00	0	57	0	3959422976	42	4417
2026-01-10 15:36:00.25	321.15	14.58	-36.4	-37.8	16.5	0.00e+00	0	57	0	3965714432	42	4460
2026-01-10 15:36:01.25	321.28	14.49	-36.5	-37.8	16.4	0.00e+00	0	57	0	3973054464	42	4470
2026-01-10 15:36:02.26	321.41	14.41	-36.5	-37.8	16.4	0.00e+00	0	57	0	3980394496	42	4490
2026-01-10 15:36:03.28	321.54	14.33	-36.6	-37.9	16.3	0.00e+00	0	57	0	3987734528	42	4536
2026-01-10 15:36:04.29	321.67	14.25	-36.6	-37.9	16.3	0.00e+00	0	57	0	3995074560	42	4533
2026-01-10 15:36:05.30	321.80	14.17	-36.7	-38.1	16.1	0.00e+00	0	57	0	4002414592	42	4615
2026-01-10 15:36:06.31	321.93	14.08	-36.7	-38.1	16.1	0.00e+00	0	57	0	4009754624	43	4377
2026-01-10 15:36:07.32	322.05	14.00	-36.7	-38.1	16.1	0.00e+00	0	57	0	4017094656	43	4376
2026-01-10 15:36:08.33	322.18	13.92	-36.7	-38.1	16.1	0.00e+00	0	57	0	4024434688	43	4352
2026-01-10 15:36:09.34	322.30	13.84	-36.7	-38.1	16.1	0.00e+00	0	57	0	4031774720	43	4385
2026-01-10 15:36:10.35	322.43	13.76	-36.7	-38.1	16.1	0.00e+00	0	57	0	4039114752	43	4380
2026-01-10 15:36:11.36	322.55	13.68	-36.7	-38.2	16.0	0.00e+00	0	57	0	4046454784	43	4394
2026-01-10 15:36:12.37	322.68	13.60	-36.7	-38.1	16.1	0.00e+00	0	57	0	4053794816	43	4384
2026-01-10 15:36:13.38	322.80	13.52	-36.7	-38.1	16.1	0.00e+00	0	57	0	4061134848	43	4378
2026-01-10 15:36:14.39	322.92	13.44	-36.7	-38.1	16.1	0.00e+00	0	57	0	4068474880	43	4376
2026-01-10 15:36:15.40	323.05	13.36	-36.7	-38.1	16.1	0.00e+00	0	57	0	4075814912	43	4377
2026-01-10 15:36:16.41	323.17	13.28	-36.7	-38.1	16.1	0.00e+00	0	57	0	4083154944	43	4353
2026-01-10 15:36:17.42	323.29	13.20	-36.6	-38.1	16.1	0.00e+00	0	57	0	4090494976	43	4349
2026-01-10 15:36:18.43	323.41	13.12	-36.6	-38.1	16.1	0.00e+00	0	57	0	4097835008	43	4345
2026-01-10 15:36:19.44	323.53	13.04	-36.7	-38.1	16.1	0.00e+00	0	57	0	4105175040	43	4389
2026-01-10 15:36:20.45	323.65	12.96	-36.7	-38.2	16.0	0.00e+00	0	57	0	4112515072	43	4406
2026-01-10 15:36:21.46	323.77	12.88	-36.8	-38.2	15.9	0.00e+00	0	57	0	4118806528	43	4431
2026-01-10 15:36:22.46	323.88	12.80	-36.8	-38.3	15.9	0.00e+00	0	57	0	4126146560	43	4466
2026-01-10 15:36:23.48	324.00	12.72	-36.9	-38.4	15.7	0.00e+00	0	57	0	4134535168	43	4526
2026-01-10 15:36:24.48	324.12	12.64	-36.9	-38.3	15.8	0.00e+00	0	57	0	4140826624	43	4488
2026-01-10 15:36:25.49	324.23	12.56	-37.0	-38.4	15.7	0.00e+00	0	57	0	4148166656	43	4531
2026-01-10 15:36:26.50	324.35	12.48	-36.9	-38.4	15.7	0.00e+00	0	57	0	4155506688	43	4536
2026-01-10 15:36:27.51	324.46	12.41	-37.0	-38.5	15.6	0.00e+00	0	57	0	4162846720	43	4592
2026-01-10 15:36:28.52	324.58	12.33	-37.1	-38.6	15.6	0.00e+00	0	57	0	4170186752	43	4617
2026-01-10 15:36:29.53	324.69	12.25	-37.1	-38.7	15.5	0.00e+00	0	57	0	4177526784	43	4654
2026-01-10 15:36:30.54	324.80	12.17	-37.2	-38.7	15.4	0.00e+00	0	57	0	4184866816	43	4675
2026-01-10 15:36:31.55	324.91	12.09	-37.4	-39.0	15.3	0.00e+00	0	57	0	4192206848	44	4557
2026-01-10 15:36:32.56	325.03	12.02	-37.5	-39.1	15.2	0.00e+00	0	57	0	4199546880	44	4601
2026-01-10 15:36:33.57	325.14	11.94	-37.5	-39.1	15.2	0.00e+00	0	57	0	4206886912	44	4642
2026-01-10 15:36:34.58	325.25	11.86	-37.7	-39.3	15.0	0.00e+00	0	57	0	4214226944	44	4715
2026-01-10 15:36:35.59	325.36	11.78	-37.6	-39.2	15.1	0.00e+00	0	57	0	4221566976	44	4658
2026-01-10 15:36:36.60	325.47	11.71	-37.7	-39.3	15.0	1.10e-06	0	57	0	4228907008	44	4731
2026-01-10 15:36:37.61	325.58	11.63	-37.7	-39.4	14.9	0.00e+00	0	57	0	4236247040	45	4498
2026-01-10 15:36:38.62	325.69	11.55	-37.6	-39.2	15.0	0.00e+00	0	57	0	4242538496	45	4438
2026-01-10 15:36:39.63	325.79	11.48	-37.6	-39.2	15.0	0.00e+00	0	57	0	4250927104	45	4428
2026-01-10 15:36:40.64	325.90	11.40	-37.6	-39.1	15.1	0.00e+00	0	57	0	4258267136	45	4386
2026-01-10 15:36:41.65	326.01	11.32	-37.5	-39.1	15.2	0.00e+00	0	57	0	4264558592	45	4346
2026-01-10 15:36:42.66	326.11	11.25	-37.5	-39.1	15.2	0.00e+00	0	57	0	4271898624	45	4343
2026-01-10 15:36:43.67	326.22	11.17	-37.5	-39.1	15.1	0.00e+00	0	57	0	4279238656	45	4358
2026-01-10 15:36:44.68	326.33	11.10	-37.6	-39.1	15.1	0.00e+00	0	57	0	4286578688	45	4388
2026-01-10 15:36:45.69	326.43	11.02	-37.4	-39.0	15.2	0.00e+00	0	57	0	4293918720	45	4323
2026-01-10 15:36:46.70	326.53	10.94	-37.5	-39.1	15.0	0.00e+00	0	57	0	4301258752	45	4378
2026-01-10 15:36:47.71	326.64	10.87	-37.6	-39.2	15.0	0.00e+00	0	57	0	4308598784	45	4412
2026-01-10 15:36:48.72	326.74	10.79	-37.7	-39.3	14.9	0.00e+00	0	57	0	4315938816	45	4451
2026-01-10 15:36:49.73	326.84	10.72	-37.7	-39.3	14.8	0.00e+00	0	57	0	4323278848	45	4483
2026-01-10 15:36:50.74	326.95	10.64	-37.8	-39.4	14.8	0.00e+00	0	57	0	4330618880	45	4515
2026-01-10 15:36:51.75	327.05	10.57	-37.7	-39.3	14.8	0.00e+00	0	57	0	4337958912	45	4487
2026-01-10 15:36:52.76	327.15	10.50	-37.8	-39.5	14.6	0.00e+00	0	57	0	4345298944	45	4551
2026-01-10 15:36:53.77	327.25	10.42	-37.9	-39.6	14.5	0.00e+00	0	57	0	4352638976	45	4615
2026-01-10 15:36:54.78	327.35	10.35	-38.0	-39.7	14.4	0.00e+00	0	57	0	4359979008	45	4677
2026-01-10 15:36:55.79	327.45	10.27	-37.9	-39.6	14.5	0.00e+00	0	57	0	4367319040	45	4642
2026-01-10 15:36:56.80	327.55	10.20	-37.9	-39.6	14.5	0.00e+00	0	57	0	4374659072	45	4637
2026-01-10 15:36:57.81	327.65	10.12	-37.9	-39.6	14.5	0.00e+00	0	57	0	4381999104	45	4601
2026-01-10 15:36:58.82	327.75	10.05	-37.9	-39.6	14.5	1.10e-06	0	57	0	4389339136	45	4615
2026-01-10 15:36:59.83	327.84	9.98	-37.9	-39.6	14.4	0.00e+00	0	57	0	4396679168	45	4650
2026-01-10 15:37:00.84	327.94	9.90	-37.8	-39.5	14.5	0.00e+00	0	57	0	4404019200	45	4579
2026-01-10 15:37:01.85	328.04	9.83	-37.9	-39.6	14.4	0.00e+00	0	57	0	4411359232	45	4608
2026-01-10 15:37:02.86	328.13	9.76	-37.8	-39.5	14.5	1.10e-06	0	57	0	4417650688	45	4582
2026-01-10 15:37:03.87	328.23	9.68	-38.0	-39.7	14.3	0.00e+00	0	57	0	4424990720	45	4673
2026-01-10 15:37:04.88	328.33	9.61	-37.9	-39.6	14.4	1.10e-06	0	57	0	4433379328	45	4609
2026-01-10 15:37:05.89	328.42	9.54	-37.8	-39.5	14.5	0.00e+00	0	57	0	4439670784	45	4586
2026-01-10 15:37:06.90	328.52	9.47	-37.7	-39.4	14.6	0.00e+00	0	57	0	4447010816	45	4515
