passes_logs/2026/01/10/R2.0S_Moscow/R2.0S_Moscow__20260110_003846_NOAA_21_JPSS-2_rec.log

#Pass ID: 20260110_003846_NOAA 21 (JPSS-2)
#Satellite: NOAA 21 (JPSS-2)
#Configuration: NOAA-21
#almurnet v.1.7.20251203
#Start time: 2026-01-10 00:41:35

#Version: 2.2.20231116
#Station: R2.0S_Moscow
#Location: 37.707566 lon 55.798166 lat
#TLE: 1 54234U 22150A   26009.23291724  .00000115  00000+0  75298-4 0  9996
#TLE: 2 54234  98.7494 310.2026 0000856 324.9272  35.1848 14.19533567163994

#Time	Az	El	Level	Level2	SNR	BER	BlckErr	Temp	State	Recorded	gain1	gain2
2026-01-10 00:41:35.30	2.24	14.65	-44.6	-56.5	3.8	8.47e-01	0	56	0	0	60	14468
2026-01-10 00:41:36.29	2.14	14.74	-45.0	-57.5	3.8	1.49e+00	0	56	104	0	61	15398
2026-01-10 00:41:37.30	2.05	14.83	-44.9	-57.5	3.8	1.49e+00	0	56	104	0	61	15297
2026-01-10 00:41:38.31	1.95	14.93	-44.9	-57.4	3.8	1.49e+00	0	56	104	0	61	15202
2026-01-10 00:41:39.32	1.85	15.02	-44.9	-57.4	3.8	1.49e+00	0	56	104	0	61	15097
2026-01-10 00:41:40.33	1.75	15.12	-44.8	-57.3	3.8	1.49e+00	0	56	104	0	61	14956
2026-01-10 00:41:41.34	1.66	15.21	-44.7	-57.2	3.8	1.49e+00	0	56	104	0	61	14865
2026-01-10 00:41:42.34	1.56	15.31	-44.6	-57.1	3.8	1.49e+00	0	56	104	0	61	14596
2026-01-10 00:41:43.35	1.46	15.41	-44.4	-56.9	3.8	1.49e+00	0	56	104	0	60	15103
2026-01-10 00:41:44.36	1.36	15.50	-43.3	-55.2	3.8	1.49e+00	0	56	104	0	58	13929
2026-01-10 00:41:45.38	1.25	15.60	-43.3	-55.3	3.8	1.49e+00	0	56	104	0	58	14066
2026-01-10 00:41:46.39	1.15	15.70	-43.3	-55.3	3.8	1.49e+00	0	56	104	0	58	14168
2026-01-10 00:41:47.40	1.05	15.79	-43.3	-55.4	3.8	1.49e+00	0	56	104	0	58	14325
2026-01-10 00:41:48.41	0.94	15.89	-43.3	-55.5	3.8	1.49e+00	0	56	104	0	58	14467
2026-01-10 00:41:49.42	0.84	15.99	-43.3	-55.5	3.8	1.49e+00	0	56	104	0	58	14394
2026-01-10 00:41:50.43	0.74	16.09	-43.3	-55.5	3.8	1.49e+00	0	56	104	0	58	14414
2026-01-10 00:41:51.44	0.63	16.19	-43.3	-55.4	3.8	1.49e+00	0	56	104	0	58	14236
2026-01-10 00:41:52.45	0.52	16.29	-43.2	-55.2	3.8	1.49e+00	0	56	104	0	58	13966
2026-01-10 00:41:53.46	0.42	16.39	-43.3	-55.3	3.8	1.49e+00	0	56	104	0	58	14052
2026-01-10 00:41:54.47	0.31	16.49	-43.3	-55.3	3.8	1.49e+00	0	56	104	0	58	14071
2026-01-10 00:41:55.48	0.20	16.59	-43.3	-55.3	3.8	1.49e+00	0	56	104	0	58	14144
2026-01-10 00:41:56.49	0.09	16.69	-43.3	-55.5	3.8	1.49e+00	0	56	104	0	58	14456
2026-01-10 00:41:57.51	359.98	16.79	-43.3	-55.5	3.8	1.49e+00	0	56	104	0	58	14504
2026-01-10 00:41:58.52	359.87	16.89	-43.3	-55.5	3.8	1.49e+00	0	56	104	0	58	14481
2026-01-10 00:41:59.53	359.76	16.99	-43.3	-55.5	3.8	1.49e+00	0	56	104	0	58	14396
2026-01-10 00:42:00.54	359.64	17.09	-43.3	-55.2	3.8	1.49e+00	0	56	104	0	58	13995
2026-01-10 00:42:01.55	359.53	17.19	-43.2	-55.1	3.8	1.49e+00	0	56	104	0	58	13782
2026-01-10 00:42:02.56	359.42	17.29	-43.2	-54.7	3.8	1.49e+00	0	56	104	0	58	13190
2026-01-10 00:42:03.57	359.30	17.40	-43.2	-55.0	3.8	1.49e+00	0	56	104	0	58	13658
2026-01-10 00:42:04.58	359.18	17.50	-43.2	-54.7	3.8	1.49e+00	0	56	104	0	58	13221
2026-01-10 00:42:05.60	359.07	17.60	-43.2	-54.7	3.8	1.49e+00	0	56	104	0	58	13168
2026-01-10 00:42:06.61	358.95	17.71	-43.2	-54.6	3.8	1.49e+00	0	56	104	0	58	13067
2026-01-10 00:42:07.62	358.83	17.81	-43.3	-55.1	3.8	1.49e+00	0	56	104	0	58	13833
2026-01-10 00:42:08.63	358.71	17.91	-43.2	-54.7	3.8	1.49e+00	0	56	104	0	58	13132
2026-01-10 00:42:09.64	358.59	18.02	-43.1	-53.6	3.8	1.49e+00	0	56	104	0	58	11628
2026-01-10 00:42:10.65	358.47	18.12	-43.0	-52.4	4.1	1.48e+00	0	56	104	0	58	10149
2026-01-10 00:42:11.66	358.35	18.23	-42.9	-52.3	3.9	1.46e+00	0	56	104	0	57	10569
2026-01-10 00:42:12.67	358.23	18.33	-42.8	-51.4	4.4	1.44e+00	0	56	104	0	57	9557
2026-01-10 00:42:13.68	358.10	18.44	-42.7	-51.3	4.0	1.09e+00	0	56	104	0	57	9448
2026-01-10 00:42:14.69	357.98	18.54	-42.4	-49.4	5.4	6.26e-01	0	56	0	2097152	56	7993
2026-01-10 00:42:15.70	357.86	18.65	-42.3	-49.1	5.6	4.18e-01	0	56	0	5242880	56	7763
2026-01-10 00:42:16.72	357.73	18.76	-42.6	-50.4	4.8	6.44e-01	0	56	0	8388608	56	8994
2026-01-10 00:42:17.73	357.60	18.86	-42.8	-51.6	4.3	1.36e+00	0	56	104	8388608	56	10388
2026-01-10 00:42:18.74	357.47	18.97	-43.1	-53.9	3.8	1.48e+00	0	56	104	8388608	56	13481
2026-01-10 00:42:19.75	357.34	19.08	-43.3	-55.6	3.8	1.49e+00	0	56	104	8388608	57	15431
2026-01-10 00:42:20.76	357.21	19.19	-42.8	-52.2	3.9	1.48e+00	0	56	104	8388608	57	10510
2026-01-10 00:42:21.77	357.08	19.29	-41.7	-47.1	7.0	3.61e-01	0	56	0	10485760	55	6518
2026-01-10 00:42:22.78	356.95	19.40	-40.8	-44.9	9.2	3.73e-02	0	56	0	13631488	53	5703
2026-01-10 00:42:23.79	356.82	19.51	-40.1	-43.5	10.7	4.99e-03	0	56	0	16777216	52	5155
2026-01-10 00:42:24.80	356.69	19.62	-39.9	-43.0	11.3	1.31e-03	0	56	0	19922944	51	5127
2026-01-10 00:42:25.81	356.55	19.73	-39.7	-42.8	11.6	8.27e-04	0	56	0	23068672	51	4992
2026-01-10 00:42:26.82	356.42	19.84	-39.5	-42.4	12.0	3.31e-04	0	56	0	26214400	50	5045
2026-01-10 00:42:27.83	356.28	19.95	-39.5	-42.4	12.0	2.96e-04	0	56	0	29360128	50	5059
2026-01-10 00:42:28.84	356.14	20.06	-39.6	-42.6	11.7	4.61e-04	0	56	0	32505856	50	5209
2026-01-10 00:42:29.86	356.00	20.17	-40.2	-43.5	11.0	1.06e-03	0	56	0	35651584	50	5749
2026-01-10 00:42:30.86	355.86	20.28	-40.8	-44.8	9.6	1.44e-03	0	56	0	38797312	52	5924
2026-01-10 00:42:31.88	355.72	20.39	-41.9	-47.6	6.8	6.04e-03	0	56	0	41943040	54	7369
2026-01-10 00:42:32.89	355.58	20.50	-42.6	-49.1	5.8	1.02e-01	0	56	0	45088768	55	8207
2026-01-10 00:42:33.90	355.44	20.62	-39.5	-43.4	9.7	1.31e-03	0	56	0	46137344	49	6023
2026-01-10 00:42:34.91	355.29	20.73	-38.5	-41.0	13.1	6.79e-05	0	57	0	48234496	48	4817
2026-01-10 00:42:35.92	355.15	20.84	-37.6	-39.7	14.5	2.20e-06	0	56	0	51380224	47	4416
2026-01-10 00:42:36.93	355.00	20.95	-37.5	-39.5	14.9	0.00e+00	0	56	0	54525952	46	4563
2026-01-10 00:42:37.94	354.86	21.07	-37.1	-39.0	15.3	0.00e+00	0	56	0	57671680	46	4295
2026-01-10 00:42:38.95	354.71	21.18	-37.0	-38.9	15.4	0.00e+00	0	56	0	61865984	46	4267
2026-01-10 00:42:39.96	354.56	21.29	-37.1	-39.0	15.3	0.00e+00	0	56	0	65011712	46	4303
2026-01-10 00:42:40.97	354.41	21.41	-37.2	-39.2	15.1	0.00e+00	0	56	0	68157440	46	4414
2026-01-10 00:42:41.98	354.26	21.52	-37.2	-39.2	15.1	0.00e+00	0	56	0	71303168	46	4398
2026-01-10 00:42:42.99	354.10	21.63	-37.1	-39.0	15.3	0.00e+00	0	56	0	73400320	46	4321
2026-01-10 00:42:44.00	353.95	21.75	-37.1	-39.0	15.3	0.00e+00	0	56	0	77594624	46	4321
2026-01-10 00:42:45.01	353.80	21.86	-37.1	-39.0	15.4	0.00e+00	0	56	0	80740352	46	4313
2026-01-10 00:42:46.02	353.64	21.98	-37.0	-38.9	15.5	0.00e+00	0	56	0	83886080	46	4267
2026-01-10 00:42:47.04	353.48	22.10	-37.0	-38.9	15.6	0.00e+00	0	56	0	87031808	46	4250
2026-01-10 00:42:48.05	353.32	22.21	-36.8	-38.6	15.9	0.00e+00	0	56	0	90177536	45	4377
2026-01-10 00:42:49.06	353.16	22.33	-36.9	-38.7	15.9	0.00e+00	0	56	0	93323264	45	4410
2026-01-10 00:42:50.07	353.00	22.45	-37.2	-39.0	15.6	0.00e+00	0	56	0	96468992	45	4562
2026-01-10 00:42:51.08	352.84	22.56	-37.4	-39.2	15.4	0.00e+00	0	56	0	99614720	45	4698
2026-01-10 00:42:52.09	352.68	22.68	-37.5	-39.4	15.4	0.00e+00	0	56	0	102760448	45	4786
2026-01-10 00:42:53.10	352.51	22.80	-37.4	-39.3	15.5	0.00e+00	0	56	0	105906176	45	4717
2026-01-10 00:42:54.12	352.34	22.91	-37.3	-39.0	15.8	0.00e+00	0	56	0	109051904	45	4594
2026-01-10 00:42:55.13	352.18	23.03	-37.1	-38.8	16.1	0.00e+00	0	56	0	112197632	45	4479
2026-01-10 00:42:56.14	352.01	23.15	-37.1	-38.8	16.2	0.00e+00	0	56	0	115343360	45	4491
2026-01-10 00:42:57.15	351.84	23.27	-37.4	-39.1	15.9	0.00e+00	0	56	0	118489088	45	4637
2026-01-10 00:42:58.16	351.67	23.39	-37.6	-39.4	15.7	0.00e+00	0	56	0	121634816	45	4789
2026-01-10 00:42:59.17	351.49	23.51	-37.4	-39.2	16.0	0.00e+00	0	56	0	124780544	45	4654
2026-01-10 00:43:00.18	351.32	23.63	-37.3	-39.0	16.2	0.00e+00	0	56	0	127926272	45	4582
2026-01-10 00:43:01.19	351.14	23.75	-37.4	-39.1	16.1	0.00e+00	0	56	0	131072000	45	4644
2026-01-10 00:43:02.20	350.97	23.87	-37.5	-39.3	15.9	0.00e+00	0	56	0	134217728	45	4721
2026-01-10 00:43:03.21	350.79	23.99	-37.6	-39.3	15.9	0.00e+00	0	56	0	137363456	45	4758
2026-01-10 00:43:04.23	350.61	24.11	-37.6	-39.3	15.9	0.00e+00	0	57	0	140509184	45	4753
2026-01-10 00:43:05.24	350.43	24.23	-37.6	-39.3	16.0	0.00e+00	0	56	0	143654912	45	4734
2026-01-10 00:43:06.25	350.25	24.35	-37.8	-39.6	15.7	0.00e+00	0	56	0	146800640	46	4632
2026-01-10 00:43:07.26	350.06	24.47	-37.9	-39.7	15.6	0.00e+00	0	56	0	149946368	46	4679
2026-01-10 00:43:08.27	349.88	24.59	-38.0	-39.8	15.5	0.00e+00	0	56	0	153092096	46	4740
2026-01-10 00:43:09.28	349.69	24.71	-38.0	-39.8	15.5	0.00e+00	0	56	0	156237824	46	4744
2026-01-10 00:43:10.29	349.50	24.83	-38.1	-40.0	15.4	0.00e+00	0	56	0	159383552	46	4817
2026-01-10 00:43:11.31	349.31	24.96	-38.0	-39.9	15.4	0.00e+00	0	56	0	162529280	46	4794
2026-01-10 00:43:12.32	349.12	25.08	-38.0	-39.9	15.5	0.00e+00	0	56	0	165675008	46	4772
2026-01-10 00:43:13.33	348.93	25.20	-38.1	-39.9	15.4	0.00e+00	0	56	0	168820736	46	4807
2026-01-10 00:43:14.34	348.73	25.32	-38.1	-39.9	15.5	0.00e+00	0	56	0	171966464	46	4787
2026-01-10 00:43:15.35	348.54	25.45	-38.2	-40.1	15.3	0.00e+00	0	56	0	175112192	46	4881
2026-01-10 00:43:16.36	348.34	25.57	-38.2	-40.1	15.3	0.00e+00	0	56	0	178257920	47	4637
2026-01-10 00:43:17.37	348.14	25.69	-38.3	-40.2	15.2	0.00e+00	0	56	0	181403648	47	4668
2026-01-10 00:43:18.38	347.94	25.82	-38.3	-40.2	15.2	0.00e+00	0	56	0	184549376	47	4695
2026-01-10 00:43:19.39	347.74	25.94	-38.4	-40.3	15.1	0.00e+00	0	56	0	187695104	47	4753
2026-01-10 00:43:20.40	347.54	26.06	-38.4	-40.3	15.1	0.00e+00	0	56	0	190840832	47	4730
2026-01-10 00:43:21.42	347.33	26.19	-38.5	-40.4	15.0	0.00e+00	0	56	0	193986560	47	4811
2026-01-10 00:43:22.43	347.12	26.31	-38.5	-40.5	14.9	0.00e+00	0	56	0	197132288	47	4846
2026-01-10 00:43:23.44	346.91	26.44	-38.6	-40.7	14.7	7.00e-07	0	57	0	200278016	47	4955
2026-01-10 00:43:24.45	346.70	26.56	-38.7	-40.8	14.7	0.00e+00	0	56	0	203423744	47	4989
2026-01-10 00:43:25.46	346.49	26.68	-38.6	-40.6	14.8	0.00e+00	0	56	0	206569472	47	4925
2026-01-10 00:43:26.47	346.28	26.81	-38.4	-40.3	15.1	0.00e+00	0	56	0	209715200	47	4741
2026-01-10 00:43:27.48	346.06	26.93	-38.3	-40.1	15.3	0.00e+00	0	56	0	212860928	47	4651
2026-01-10 00:43:28.49	345.85	27.06	-38.2	-40.0	15.5	0.00e+00	0	56	0	216006656	47	4574
2026-01-10 00:43:29.50	345.63	27.18	-38.2	-40.0	15.4	0.00e+00	0	56	0	219152384	47	4586
2026-01-10 00:43:30.52	345.41	27.31	-38.2	-40.1	15.4	0.00e+00	0	56	0	222298112	47	4618
2026-01-10 00:43:31.53	345.18	27.43	-38.3	-40.2	15.3	0.00e+00	0	56	0	225443840	47	4662
2026-01-10 00:43:32.54	344.96	27.56	-38.3	-40.1	15.3	0.00e+00	0	56	0	228589568	47	4651
2026-01-10 00:43:33.55	344.73	27.68	-38.4	-40.3	15.2	0.00e+00	0	56	0	231735296	47	4716
2026-01-10 00:43:34.56	344.51	27.81	-38.4	-40.3	15.2	7.00e-07	0	56	0	234881024	47	4721
2026-01-10 00:43:35.57	344.28	27.94	-38.3	-40.2	15.3	0.00e+00	0	56	0	238026752	47	4679
2026-01-10 00:43:36.58	344.05	28.06	-38.3	-40.2	15.3	0.00e+00	0	56	0	241172480	47	4677
2026-01-10 00:43:37.60	343.81	28.19	-38.2	-40.1	15.4	0.00e+00	0	56	0	244318208	47	4623
2026-01-10 00:43:38.61	343.58	28.31	-38.1	-40.0	15.6	0.00e+00	0	56	0	247463936	47	4549
2026-01-10 00:43:39.62	343.34	28.44	-38.2	-40.1	15.4	0.00e+00	0	56	0	250609664	47	4621
2026-01-10 00:43:40.63	343.10	28.56	-38.3	-40.1	15.4	0.00e+00	0	56	0	253755392	47	4641
2026-01-10 00:43:41.64	342.86	28.69	-38.4	-40.3	15.2	0.00e+00	0	56	0	256901120	47	4736
2026-01-10 00:43:42.65	342.62	28.82	-38.5	-40.5	15.1	0.00e+00	0	56	0	260046848	47	4820
2026-01-10 00:43:43.66	342.37	28.94	-38.5	-40.5	15.1	0.00e+00	0	56	0	263192576	47	4821
2026-01-10 00:43:44.67	342.13	29.07	-38.4	-40.3	15.2	0.00e+00	0	56	0	266338304	47	4757
2026-01-10 00:43:45.68	341.88	29.19	-38.3	-40.2	15.4	0.00e+00	0	56	0	269484032	47	4678
2026-01-10 00:43:46.69	341.63	29.32	-38.3	-40.2	15.4	0.00e+00	0	56	0	272629760	47	4666
2026-01-10 00:43:47.70	341.38	29.44	-38.3	-40.1	15.4	0.00e+00	0	56	0	275775488	47	4651
2026-01-10 00:43:48.71	341.12	29.57	-38.2	-40.1	15.5	0.00e+00	0	56	0	278921216	47	4606
2026-01-10 00:43:49.72	340.87	29.69	-38.3	-40.1	15.4	0.00e+00	0	56	0	282066944	47	4640
2026-01-10 00:43:50.73	340.61	29.82	-38.3	-40.1	15.4	0.00e+00	0	56	0	285212672	47	4647
2026-01-10 00:43:51.74	340.35	29.94	-38.3	-40.1	15.5	0.00e+00	0	56	0	288358400	47	4617
2026-01-10 00:43:52.75	340.09	30.07	-38.2	-40.0	15.6	0.00e+00	0	56	0	292552704	47	4561
2026-01-10 00:43:53.76	339.82	30.19	-38.3	-40.2	15.4	0.00e+00	0	56	0	294649856	47	4658
2026-01-10 00:43:54.78	339.55	30.32	-38.4	-40.2	15.4	0.00e+00	0	56	0	297795584	47	4690
2026-01-10 00:43:55.79	339.28	30.44	-38.4	-40.3	15.3	0.00e+00	0	56	0	300941312	47	4744
2026-01-10 00:43:56.80	339.01	30.57	-38.5	-40.4	15.2	0.00e+00	0	56	0	305135616	47	4768
2026-01-10 00:43:57.81	338.74	30.69	-38.3	-40.2	15.4	0.00e+00	0	56	0	308281344	47	4666
2026-01-10 00:43:58.82	338.46	30.82	-38.3	-40.2	15.4	0.00e+00	0	56	0	311427072	47	4664
2026-01-10 00:43:59.83	338.19	30.94	-38.3	-40.1	15.5	0.00e+00	0	57	0	314572800	47	4627
2026-01-10 00:44:00.84	337.91	31.06	-38.2	-40.0	15.6	0.00e+00	0	56	0	317718528	47	4598
2026-01-10 00:44:01.85	337.63	31.19	-38.2	-40.1	15.6	0.00e+00	0	56	0	320864256	47	4600
2026-01-10 00:44:02.86	337.34	31.31	-38.2	-40.0	15.6	0.00e+00	0	56	0	324009984	47	4595
2026-01-10 00:44:03.87	337.06	31.43	-38.2	-40.1	15.6	0.00e+00	0	56	0	327155712	47	4601
2026-01-10 00:44:04.89	336.77	31.56	-38.3	-40.1	15.5	0.00e+00	0	56	0	330301440	47	4631
2026-01-10 00:44:05.90	336.48	31.68	-38.4	-40.3	15.4	0.00e+00	0	56	0	333447168	47	4728
2026-01-10 00:44:06.91	336.18	31.80	-38.5	-40.4	15.3	0.00e+00	0	56	0	336592896	47	4794
2026-01-10 00:44:07.92	335.89	31.92	-38.6	-40.5	15.1	7.00e-07	0	56	0	339738624	47	4860
2026-01-10 00:44:08.93	335.59	32.04	-38.8	-40.7	15.0	0.00e+00	0	56	0	342884352	48	4684
2026-01-10 00:44:09.94	335.29	32.16	-38.8	-40.7	15.0	0.00e+00	0	56	0	346030080	48	4677
2026-01-10 00:44:10.95	334.99	32.28	-38.9	-41.0	14.8	1.50e-06	0	56	0	349175808	48	4817
2026-01-10 00:44:11.96	334.69	32.40	-39.0	-41.0	14.7	0.00e+00	0	56	0	352321536	48	4866
2026-01-10 00:44:12.97	334.38	32.52	-38.9	-40.9	14.8	7.00e-07	0	56	0	355467264	48	4779
2026-01-10 00:44:13.99	334.07	32.64	-38.8	-40.8	14.9	0.00e+00	0	56	0	358612992	48	4752
2026-01-10 00:44:15.00	333.76	32.76	-38.8	-40.7	15.0	0.00e+00	0	56	0	361758720	48	4699
2026-01-10 00:44:16.01	333.45	32.88	-38.8	-40.7	15.1	7.00e-07	0	56	0	364904448	48	4673
2026-01-10 00:44:17.02	333.13	32.99	-38.7	-40.7	15.1	0.00e+00	0	56	0	368050176	48	4659
2026-01-10 00:44:18.03	332.82	33.11	-38.8	-40.7	15.1	0.00e+00	0	56	0	371195904	48	4668
2026-01-10 00:44:19.04	332.50	33.23	-38.7	-40.6	15.1	7.00e-07	0	56	0	374341632	48	4634
2026-01-10 00:44:20.05	332.18	33.34	-38.7	-40.7	15.1	0.00e+00	0	56	0	377487360	48	4654
2026-01-10 00:44:21.06	331.85	33.46	-38.7	-40.6	15.1	0.00e+00	0	56	0	380633088	48	4626
2026-01-10 00:44:22.07	331.53	33.57	-38.6	-40.5	15.2	0.00e+00	0	56	0	383778816	48	4573
2026-01-10 00:44:23.08	331.20	33.69	-38.7	-40.5	15.2	7.00e-07	0	56	0	386924544	48	4593
2026-01-10 00:44:24.09	330.87	33.80	-38.7	-40.6	15.2	0.00e+00	0	56	0	390070272	48	4612
2026-01-10 00:44:25.10	330.53	33.91	-38.7	-40.6	15.2	0.00e+00	0	56	0	393216000	48	4606
2026-01-10 00:44:26.11	330.20	34.02	-38.8	-40.8	15.0	0.00e+00	0	56	0	396361728	48	4713
2026-01-10 00:44:27.12	329.86	34.13	-38.9	-40.8	14.9	0.00e+00	0	56	0	399507456	48	4745
2026-01-10 00:44:28.13	329.52	34.25	-39.0	-41.1	14.7	0.00e+00	0	56	0	402653184	48	4878
2026-01-10 00:44:29.14	329.17	34.35	-39.0	-41.0	14.7	0.00e+00	0	56	0	405798912	48	4862
2026-01-10 00:44:30.16	328.83	34.46	-39.0	-41.0	14.8	0.00e+00	0	57	0	408944640	48	4833
2026-01-10 00:44:31.17	328.48	34.57	-38.9	-40.9	14.8	0.00e+00	0	56	0	412090368	48	4801
2026-01-10 00:44:32.18	328.13	34.68	-38.9	-40.9	14.8	0.00e+00	0	56	0	415236096	48	4786
2026-01-10 00:44:33.19	327.78	34.79	-38.9	-40.9	14.9	0.00e+00	0	56	0	418381824	48	4778
2026-01-10 00:44:34.20	327.42	34.89	-39.0	-41.0	14.7	0.00e+00	0	56	0	421527552	48	4853
2026-01-10 00:44:35.21	327.07	35.00	-39.2	-41.3	14.5	0.00e+00	0	56	0	424673280	48	4994
2026-01-10 00:44:36.22	326.71	35.10	-39.2	-41.4	14.4	0.00e+00	0	56	0	427819008	49	4762
2026-01-10 00:44:37.23	326.35	35.20	-39.2	-41.3	14.5	1.50e-06	0	56	0	430964736	49	4750
2026-01-10 00:44:38.24	325.98	35.30	-39.3	-41.4	14.4	7.00e-07	0	56	0	434110464	49	4770
2026-01-10 00:44:39.25	325.62	35.40	-39.3	-41.4	14.4	7.00e-07	0	56	0	437256192	49	4777
2026-01-10 00:44:40.26	325.25	35.50	-39.4	-41.6	14.1	3.00e-06	0	56	0	440401920	49	4909
2026-01-10 00:44:41.27	324.88	35.60	-39.4	-41.6	14.2	2.20e-06	0	56	0	443547648	49	4902
2026-01-10 00:44:42.28	324.50	35.70	-39.4	-41.6	14.2	1.50e-06	0	56	0	446693376	49	4881
2026-01-10 00:44:43.29	324.13	35.80	-39.2	-41.3	14.5	7.00e-07	0	56	0	449839104	49	4743
2026-01-10 00:44:44.30	323.75	35.89	-39.0	-40.9	14.8	0.00e+00	0	56	0	452984832	49	4543
2026-01-10 00:44:45.31	323.37	35.98	-38.9	-40.9	14.9	0.00e+00	0	56	0	456130560	49	4503
2026-01-10 00:44:46.33	322.99	36.08	-39.0	-41.0	14.8	0.00e+00	0	56	0	459276288	49	4569
2026-01-10 00:44:47.34	322.60	36.17	-39.1	-41.1	14.7	7.00e-07	0	56	0	462422016	49	4633
2026-01-10 00:44:48.35	322.22	36.26	-39.1	-41.2	14.7	7.00e-07	0	56	0	465567744	49	4653
2026-01-10 00:44:49.36	321.83	36.35	-39.1	-41.1	14.7	0.00e+00	0	56	0	468713472	49	4640
2026-01-10 00:44:50.37	321.44	36.44	-39.0	-41.0	14.8	0.00e+00	0	56	0	471859200	49	4587
2026-01-10 00:44:51.38	321.05	36.52	-38.9	-40.9	14.9	0.00e+00	0	56	0	475004928	49	4537
2026-01-10 00:44:52.39	320.65	36.61	-39.1	-41.0	14.7	0.00e+00	0	56	0	478150656	49	4598
2026-01-10 00:44:53.40	320.26	36.69	-39.2	-41.3	14.5	0.00e+00	0	56	0	481296384	49	4742
2026-01-10 00:44:54.41	319.86	36.78	-39.1	-41.2	14.7	0.00e+00	0	56	0	484442112	49	4659
2026-01-10 00:44:55.42	319.46	36.86	-39.1	-41.1	14.7	0.00e+00	0	56	0	487587840	49	4625
2026-01-10 00:44:56.43	319.05	36.94	-39.1	-41.1	14.7	0.00e+00	0	56	0	490733568	49	4623
2026-01-10 00:44:57.44	318.65	37.02	-39.1	-41.1	14.7	0.00e+00	0	56	0	493879296	49	4618
2026-01-10 00:44:58.46	318.24	37.09	-39.3	-41.4	14.4	7.00e-07	0	56	0	497025024	49	4770
2026-01-10 00:44:59.47	317.83	37.17	-39.6	-41.8	14.0	1.50e-06	0	56	0	500170752	49	4996
2026-01-10 00:45:00.48	317.42	37.24	-39.8	-42.2	13.7	5.30e-06	0	56	0	503316480	50	4927
2026-01-10 00:45:01.49	317.01	37.32	-39.8	-42.2	13.7	6.10e-06	0	56	0	506462208	50	4932
2026-01-10 00:45:02.50	316.59	37.39	-39.9	-42.2	13.6	6.10e-06	0	56	0	509607936	50	4972
2026-01-10 00:45:03.51	316.18	37.46	-39.9	-42.2	13.6	9.10e-06	0	56	0	512753664	50	4974
2026-01-10 00:45:04.52	315.76	37.52	-40.0	-42.4	13.4	9.10e-06	0	56	0	515899392	50	5082
2026-01-10 00:45:05.53	315.34	37.59	-40.1	-42.6	13.2	2.28e-05	0	56	0	519045120	50	5179
2026-01-10 00:45:06.54	314.92	37.65	-40.1	-42.6	13.3	1.83e-05	0	56	0	522190848	50	5164
2026-01-10 00:45:07.55	314.50	37.72	-39.9	-42.2	13.6	9.10e-06	0	56	0	525336576	50	4969
2026-01-10 00:45:08.57	314.07	37.78	-39.8	-42.1	13.8	8.30e-06	0	57	0	528482304	50	4879
2026-01-10 00:45:09.58	313.64	37.84	-39.8	-42.1	13.7	5.30e-06	0	56	0	531628032	50	4918
2026-01-10 00:45:10.59	313.21	37.90	-39.8	-42.2	13.7	8.30e-06	0	56	0	534773760	50	4931
2026-01-10 00:45:11.60	312.78	37.95	-40.1	-42.5	13.4	1.22e-05	0	56	0	538968064	50	5114
2026-01-10 00:45:12.61	312.35	38.01	-40.0	-42.4	13.4	2.82e-05	0	56	0	541065216	50	5068
2026-01-10 00:45:13.62	311.92	38.06	-40.0	-42.4	13.5	9.10e-06	0	56	0	544210944	50	5049
2026-01-10 00:45:14.63	311.49	38.11	-39.8	-42.2	13.7	7.60e-06	0	56	0	547356672	50	4927
2026-01-10 00:45:15.64	311.05	38.16	-39.8	-42.1	13.7	4.50e-06	0	56	0	550502400	50	4904
2026-01-10 00:45:16.65	310.62	38.21	-39.7	-41.9	13.9	5.30e-06	0	56	0	554696704	50	4806
2026-01-10 00:45:17.66	310.18	38.25	-39.8	-42.1	13.7	8.30e-06	0	57	0	557842432	50	4888
2026-01-10 00:45:18.67	309.74	38.30	-39.7	-42.0	13.8	2.20e-06	0	57	0	560988160	50	4851
2026-01-10 00:45:19.68	309.30	38.34	-39.8	-42.1	13.8	1.50e-06	0	56	0	563085312	50	4880
2026-01-10 00:45:20.69	308.86	38.38	-39.9	-42.2	13.7	7.60e-06	0	56	0	566231040	50	4955
2026-01-10 00:45:21.70	308.42	38.41	-39.8	-42.0	13.8	3.00e-06	0	57	0	570425344	50	4856
2026-01-10 00:45:22.72	307.97	38.45	-39.7	-42.0	13.9	7.00e-07	0	56	0	573571072	50	4848
2026-01-10 00:45:23.73	307.53	38.48	-39.8	-42.0	13.8	3.00e-06	0	56	0	576716800	50	4865
2026-01-10 00:45:24.74	307.08	38.52	-39.7	-42.0	13.9	4.50e-06	0	56	0	579862528	50	4827
2026-01-10 00:45:25.75	306.64	38.55	-39.5	-41.7	14.1	2.20e-06	0	56	0	583008256	50	4680
2026-01-10 00:45:26.76	306.19	38.58	-39.5	-41.7	14.2	3.00e-06	0	56	0	586153984	50	4653
2026-01-10 00:45:27.77	305.74	38.60	-39.6	-41.7	14.1	1.50e-06	0	56	0	589299712	50	4686
2026-01-10 00:45:28.78	305.30	38.63	-39.7	-41.9	14.0	2.20e-06	0	56	0	592445440	50	4763
2026-01-10 00:45:29.79	304.85	38.65	-39.6	-41.8	14.1	2.20e-06	0	56	0	595591168	50	4735
2026-01-10 00:45:30.80	304.40	38.67	-39.8	-42.1	13.7	3.80e-06	0	56	0	598736896	50	4899
2026-01-10 00:45:31.82	303.94	38.69	-40.0	-42.3	13.5	9.10e-06	0	56	0	601882624	50	5033
2026-01-10 00:45:32.83	303.49	38.70	-39.9	-42.3	13.6	1.06e-05	0	56	0	605028352	50	5003
2026-01-10 00:45:33.84	303.04	38.72	-40.0	-42.3	13.5	1.44e-05	0	56	0	608174080	50	5021
2026-01-10 00:45:34.85	302.59	38.73	-40.0	-42.3	13.6	1.37e-05	0	56	0	611319808	50	5027
2026-01-10 00:45:35.86	302.14	38.74	-39.8	-42.2	13.7	8.30e-06	0	56	0	614465536	50	4930
2026-01-10 00:45:36.87	301.69	38.75	-39.8	-42.0	13.8	3.00e-06	0	56	0	617611264	50	4864
2026-01-10 00:45:37.88	301.24	38.75	-39.9	-42.3	13.5	6.10e-06	0	56	0	620756992	50	5018
2026-01-10 00:45:38.89	300.78	38.76	-39.9	-42.2	13.6	8.30e-06	0	56	0	623902720	50	4969
2026-01-10 00:45:39.90	300.33	38.76	-39.8	-42.1	13.6	1.44e-05	0	56	0	627048448	50	4922
2026-01-10 00:45:40.91	299.88	38.76	-40.0	-42.4	13.5	1.14e-05	0	56	0	630194176	50	5042
2026-01-10 00:45:41.92	299.43	38.76	-39.8	-42.1	13.7	7.60e-06	0	56	0	633339904	50	4913
2026-01-10 00:45:42.93	298.98	38.75	-40.0	-42.3	13.5	6.10e-06	0	56	0	636485632	50	5032
2026-01-10 00:45:43.94	298.52	38.75	-40.3	-42.8	13.1	2.59e-05	0	56	0	639631360	51	5006
2026-01-10 00:45:44.95	298.07	38.74	-40.1	-42.6	13.2	3.35e-05	0	56	0	642777088	51	4906
2026-01-10 00:45:45.96	297.62	38.73	-40.1	-42.5	13.4	1.90e-05	0	56	0	645922816	51	4822
2026-01-10 00:45:46.97	297.17	38.72	-40.0	-42.4	13.4	1.22e-05	0	56	0	649068544	51	4806
2026-01-10 00:45:47.98	296.72	38.70	-39.8	-42.1	13.7	5.30e-06	0	56	0	652214272	51	4627
2026-01-10 00:45:49.00	296.26	38.69	-39.7	-41.9	13.9	6.80e-06	0	56	0	655360000	51	4524
2026-01-10 00:45:50.01	295.81	38.67	-39.7	-42.0	13.8	6.80e-06	0	56	0	658505728	51	4566
2026-01-10 00:45:51.02	295.36	38.65	-39.6	-41.8	14.0	3.00e-06	0	56	0	661651456	51	4479
2026-01-10 00:45:52.03	294.91	38.63	-39.5	-41.7	14.1	2.20e-06	0	56	0	664797184	51	4393
2026-01-10 00:45:53.04	294.47	38.60	-39.6	-41.8	13.9	4.50e-06	0	56	0	667942912	50	4738
2026-01-10 00:45:54.05	294.02	38.58	-39.7	-42.0	13.8	3.80e-06	0	57	0	671088640	50	4852
2026-01-10 00:45:55.06	293.57	38.55	-39.6	-41.9	14.0	5.30e-06	0	56	0	674234368	50	4761
2026-01-10 00:45:56.07	293.13	38.52	-39.7	-41.9	13.9	3.00e-06	0	56	0	677380096	50	4809
2026-01-10 00:45:57.08	292.68	38.49	-39.8	-42.2	13.6	4.50e-06	0	56	0	680525824	50	4932
2026-01-10 00:45:58.09	292.24	38.45	-39.8	-42.1	13.7	7.60e-06	0	57	0	683671552	50	4924
2026-01-10 00:45:59.10	291.79	38.42	-39.9	-42.3	13.5	1.29e-05	0	56	0	686817280	50	5015
2026-01-10 00:46:00.11	291.35	38.38	-40.0	-42.4	13.5	1.37e-05	0	56	0	689963008	50	5065
2026-01-10 00:46:01.12	290.91	38.34	-39.7	-42.0	13.8	6.10e-06	0	56	0	693108736	50	4859
2026-01-10 00:46:02.13	290.47	38.30	-39.8	-42.1	13.7	3.80e-06	0	56	0	696254464	50	4882
2026-01-10 00:46:03.14	290.03	38.26	-39.6	-41.8	14.0	3.80e-06	0	56	0	699400192	50	4718
2026-01-10 00:46:04.16	289.59	38.21	-39.3	-41.4	14.4	1.50e-06	0	56	0	702545920	50	4538
2026-01-10 00:46:05.17	289.15	38.16	-39.4	-41.5	14.3	1.50e-06	0	57	0	705691648	50	4571
2026-01-10 00:46:06.18	288.71	38.11	-39.4	-41.6	14.3	0.00e+00	0	57	0	708837376	50	4603
2026-01-10 00:46:07.19	288.28	38.06	-39.1	-41.2	14.7	7.00e-07	0	57	0	711983104	50	4396
2026-01-10 00:46:08.20	287.85	38.01	-39.1	-41.2	14.7	0.00e+00	0	56	0	715128832	50	4399
2026-01-10 00:46:09.21	287.42	37.96	-39.3	-41.3	14.5	0.00e+00	0	56	0	718274560	50	4489
2026-01-10 00:46:10.22	286.99	37.90	-39.2	-41.3	14.5	7.00e-07	0	56	0	721420288	50	4470
2026-01-10 00:46:11.23	286.56	37.84	-39.3	-41.4	14.5	2.20e-06	0	56	0	724566016	50	4499
2026-01-10 00:46:12.25	286.13	37.78	-39.2	-41.3	14.5	7.00e-07	0	56	0	727711744	50	4471
2026-01-10 00:46:13.26	285.70	37.72	-39.1	-41.2	14.7	7.00e-07	0	56	0	730857472	50	4396
2026-01-10 00:46:14.27	285.28	37.66	-39.2	-41.3	14.5	7.00e-07	0	56	0	734003200	50	4470
2026-01-10 00:46:15.28	284.86	37.60	-39.5	-41.7	14.1	1.50e-06	0	56	0	737148928	50	4665
2026-01-10 00:46:16.29	284.44	37.53	-39.5	-41.7	14.1	3.00e-06	0	56	0	740294656	50	4693
2026-01-10 00:46:17.30	284.02	37.46	-39.6	-41.9	13.9	2.20e-06	0	56	0	743440384	50	4760
2026-01-10 00:46:18.31	283.60	37.39	-39.9	-42.2	13.6	4.50e-06	0	56	0	746586112	50	4949
2026-01-10 00:46:19.32	283.18	37.32	-40.0	-42.4	13.3	1.44e-05	0	57	0	749731840	50	5098
2026-01-10 00:46:20.33	282.77	37.25	-39.9	-42.3	13.5	1.29e-05	0	56	0	752877568	50	4997
2026-01-10 00:46:21.34	282.36	37.17	-39.8	-42.2	13.6	8.30e-06	0	56	0	756023296	50	4945
2026-01-10 00:46:22.35	281.95	37.10	-39.6	-41.9	13.9	6.10e-06	0	56	0	759169024	50	4786
2026-01-10 00:46:23.36	281.54	37.02	-39.5	-41.6	14.2	1.50e-06	0	57	0	762314752	50	4636
2026-01-10 00:46:24.38	281.13	36.94	-39.4	-41.6	14.2	7.00e-07	0	56	0	765460480	50	4617
2026-01-10 00:46:25.39	280.73	36.86	-39.3	-41.4	14.4	1.50e-06	0	56	0	768606208	50	4506
2026-01-10 00:46:26.40	280.33	36.78	-39.2	-41.3	14.5	0.00e+00	0	56	0	771751936	50	4478
2026-01-10 00:46:27.41	279.93	36.70	-39.4	-41.5	14.3	4.50e-06	0	56	0	774897664	50	4555
2026-01-10 00:46:28.42	279.53	36.61	-39.4	-41.6	14.2	7.00e-07	0	56	0	778043392	50	4624
2026-01-10 00:46:29.43	279.13	36.53	-39.6	-41.8	14.0	7.00e-07	0	56	0	781189120	50	4741
2026-01-10 00:46:30.44	278.74	36.44	-39.7	-42.0	13.8	3.00e-06	0	56	0	784334848	50	4842
2026-01-10 00:46:31.45	278.35	36.35	-39.7	-41.9	13.9	8.30e-06	0	56	0	787480576	50	4804
2026-01-10 00:46:32.47	277.96	36.26	-39.3	-41.5	14.3	1.50e-06	0	56	0	790626304	50	4553
2026-01-10 00:46:33.48	277.57	36.17	-38.9	-40.9	14.9	0.00e+00	0	56	0	793772032	49	4512
2026-01-10 00:46:34.49	277.18	36.08	-38.6	-40.4	15.3	0.00e+00	0	56	0	796917760	49	4277
2026-01-10 00:46:35.50	276.80	35.99	-38.6	-40.4	15.3	0.00e+00	0	56	0	801112064	49	4282
2026-01-10 00:46:36.51	276.42	35.89	-38.6	-40.5	15.2	0.00e+00	0	56	0	804257792	49	4322
2026-01-10 00:46:37.52	276.04	35.80	-38.7	-40.6	15.1	0.00e+00	0	56	0	807403520	49	4388
2026-01-10 00:46:38.53	275.67	35.70	-38.8	-40.7	15.0	0.00e+00	0	56	0	809500672	49	4431
2026-01-10 00:46:39.54	275.29	35.61	-39.0	-41.0	14.7	0.00e+00	0	56	0	812646400	49	4589
2026-01-10 00:46:40.55	274.92	35.51	-39.4	-41.6	14.1	7.00e-07	0	56	0	816840704	49	4887
2026-01-10 00:46:41.56	274.55	35.41	-39.6	-41.8	14.0	3.00e-06	0	56	0	819986432	49	5015
2026-01-10 00:46:42.57	274.18	35.31	-39.4	-41.5	14.2	7.00e-07	0	56	0	823132160	49	4850
2026-01-10 00:46:43.58	273.82	35.20	-39.1	-41.1	14.7	7.00e-07	0	56	0	826277888	49	4641
2026-01-10 00:46:44.59	273.46	35.10	-38.9	-40.9	14.8	7.00e-07	0	56	0	829423616	49	4509
2026-01-10 00:46:45.60	273.10	35.00	-39.0	-41.0	14.8	1.50e-06	0	56	0	832569344	49	4554
2026-01-10 00:46:46.61	272.74	34.89	-39.0	-41.1	14.7	7.00e-07	0	56	0	835715072	49	4603
2026-01-10 00:46:47.62	272.38	34.79	-39.0	-41.0	14.8	0.00e+00	0	56	0	838860800	49	4551
2026-01-10 00:46:48.63	272.03	34.68	-39.3	-41.4	14.4	7.00e-07	0	56	0	842006528	49	4769
2026-01-10 00:46:49.64	271.68	34.57	-39.7	-42.0	13.8	1.50e-06	0	56	0	845152256	49	5125
2026-01-10 00:46:50.65	271.33	34.47	-39.8	-42.2	13.6	8.30e-06	0	56	0	848297984	50	4950
2026-01-10 00:46:51.66	270.98	34.36	-39.8	-42.1	13.7	9.90e-06	0	56	0	851443712	50	4899
2026-01-10 00:46:52.68	270.63	34.25	-39.5	-41.7	14.0	3.80e-06	0	56	0	854589440	50	4699
2026-01-10 00:46:53.69	270.29	34.13	-39.2	-41.3	14.4	7.00e-07	0	56	0	857735168	50	4467
2026-01-10 00:46:54.70	269.95	34.02	-39.1	-41.2	14.6	7.00e-07	0	56	0	860880896	50	4402
2026-01-10 00:46:55.71	269.62	33.91	-39.3	-41.4	14.4	7.00e-07	0	56	0	864026624	50	4514
2026-01-10 00:46:56.72	269.28	33.80	-39.6	-41.9	13.8	4.50e-06	0	56	0	867172352	50	4795
2026-01-10 00:46:57.73	268.95	33.69	-39.7	-42.1	13.7	6.10e-06	0	56	0	870318080	50	4878
2026-01-10 00:46:58.74	268.62	33.57	-39.6	-41.9	13.9	6.10e-06	0	56	0	873463808	50	4762
2026-01-10 00:46:59.75	268.29	33.46	-39.3	-41.4	14.3	1.50e-06	0	56	0	876609536	50	4514
2026-01-10 00:47:00.76	267.97	33.34	-38.9	-40.9	14.8	0.00e+00	0	56	0	879755264	49	4515
2026-01-10 00:47:01.78	267.64	33.22	-38.6	-40.5	15.2	0.00e+00	0	56	0	882900992	49	4326
2026-01-10 00:47:02.79	267.32	33.11	-38.4	-40.2	15.5	0.00e+00	0	56	0	886046720	48	4429
2026-01-10 00:47:03.80	267.00	32.99	-38.4	-40.2	15.5	0.00e+00	0	56	0	889192448	48	4423
2026-01-10 00:47:04.81	266.68	32.87	-38.8	-40.8	14.9	0.00e+00	0	56	0	892338176	48	4724
2026-01-10 00:47:05.82	266.37	32.75	-39.3	-41.4	14.3	0.00e+00	0	56	0	895483904	49	4784
2026-01-10 00:47:06.83	266.06	32.63	-39.7	-42.1	13.6	5.30e-06	0	56	0	898629632	49	5162
2026-01-10 00:47:07.84	265.75	32.52	-39.9	-42.3	13.4	1.52e-05	0	57	0	901775360	50	5023
2026-01-10 00:47:08.85	265.44	32.40	-39.6	-41.9	13.8	6.10e-06	0	56	0	904921088	50	4787
2026-01-10 00:47:09.86	265.14	32.28	-39.0	-41.0	14.7	7.00e-07	0	56	0	908066816	50	4338
2026-01-10 00:47:10.87	264.83	32.16	-38.0	-39.9	15.4	0.00e+00	0	56	0	911212544	48	4279
2026-01-10 00:47:11.88	264.53	32.03	-38.2	-39.9	15.8	0.00e+00	0	56	0	914358272	48	4267
2026-01-10 00:47:12.89	264.24	31.91	-38.0	-39.7	16.0	0.00e+00	0	56	0	917504000	48	4176
2026-01-10 00:47:13.91	263.94	31.79	-38.2	-39.9	15.8	0.00e+00	0	56	0	920649728	48	4271
2026-01-10 00:47:14.92	263.64	31.67	-38.3	-40.1	15.5	0.00e+00	0	56	0	923795456	48	4375
2026-01-10 00:47:15.93	263.35	31.55	-38.4	-40.2	15.5	0.00e+00	0	56	0	926941184	48	4396
2026-01-10 00:47:16.94	263.06	31.42	-38.4	-40.2	15.3	0.00e+00	0	56	0	930086912	48	4441
2026-01-10 00:47:17.95	262.78	31.30	-38.4	-40.3	15.3	0.00e+00	0	56	0	933232640	48	4454
2026-01-10 00:47:18.96	262.49	31.18	-38.4	-40.2	15.3	0.00e+00	0	56	0	936378368	48	4421
2026-01-10 00:47:19.97	262.21	31.05	-38.4	-40.2	15.4	0.00e+00	0	56	0	939524096	48	4410
2026-01-10 00:47:20.99	261.92	30.93	-38.1	-39.9	15.8	0.00e+00	0	56	0	942669824	48	4256
2026-01-10 00:47:22.00	261.65	30.80	-38.1	-39.8	15.8	0.00e+00	0	56	0	945815552	48	4221
2026-01-10 00:47:23.01	261.37	30.68	-38.1	-39.9	15.8	0.00e+00	0	56	0	948961280	48	4256
2026-01-10 00:47:24.02	261.10	30.55	-38.3	-40.2	15.5	0.00e+00	0	56	0	952107008	48	4406
2026-01-10 00:47:25.03	260.82	30.43	-38.6	-40.6	15.1	0.00e+00	0	56	0	955252736	48	4601
2026-01-10 00:47:26.04	260.55	30.30	-38.7	-40.7	15.0	0.00e+00	0	56	0	958398464	48	4666
2026-01-10 00:47:27.05	260.29	30.18	-38.5	-40.4	15.2	0.00e+00	0	56	0	961544192	48	4503
2026-01-10 00:47:28.06	260.02	30.05	-38.3	-40.1	15.5	0.00e+00	0	56	0	964689920	48	4372
2026-01-10 00:47:29.07	259.76	29.93	-38.2	-40.0	15.6	0.00e+00	0	56	0	967835648	48	4339
2026-01-10 00:47:30.08	259.50	29.80	-38.1	-39.9	15.7	0.00e+00	0	56	0	970981376	48	4271
2026-01-10 00:47:31.09	259.24	29.68	-38.2	-40.0	15.7	0.00e+00	0	56	0	974127104	48	4297
2026-01-10 00:47:32.10	258.98	29.55	-38.2	-40.0	15.6	0.00e+00	0	56	0	977272832	48	4307
2026-01-10 00:47:33.11	258.72	29.42	-38.2	-40.0	15.6	0.00e+00	0	57	0	980418560	48	4328
2026-01-10 00:47:34.12	258.47	29.30	-38.3	-40.2	15.5	0.00e+00	0	56	0	983564288	48	4405
2026-01-10 00:47:35.13	258.22	29.17	-38.4	-40.2	15.5	0.00e+00	0	57	0	986710016	48	4428
2026-01-10 00:47:36.15	257.97	29.05	-38.4	-40.4	15.3	0.00e+00	0	56	0	989855744	48	4495
2026-01-10 00:47:37.16	257.72	28.92	-38.4	-40.2	15.4	0.00e+00	0	56	0	993001472	48	4420
2026-01-10 00:47:38.17	257.47	28.79	-38.2	-40.0	15.6	0.00e+00	0	56	0	996147200	48	4325
2026-01-10 00:47:39.18	257.23	28.67	-38.0	-39.7	15.9	0.00e+00	0	56	0	999292928	48	4172
2026-01-10 00:47:40.19	256.99	28.54	-37.7	-39.4	16.2	0.00e+00	0	56	0	1002438656	47	4247
2026-01-10 00:47:41.20	256.75	28.41	-37.7	-39.4	16.2	0.00e+00	0	56	0	1005584384	47	4250
2026-01-10 00:47:42.21	256.51	28.29	-37.8	-39.5	16.0	0.00e+00	0	57	0	1008730112	47	4331
2026-01-10 00:47:43.22	256.27	28.16	-37.8	-39.5	16.0	0.00e+00	0	56	0	1011875840	47	4337
2026-01-10 00:47:44.23	256.04	28.04	-38.0	-39.7	15.8	0.00e+00	0	56	0	1015021568	47	4429
2026-01-10 00:47:45.24	255.81	27.91	-38.1	-39.9	15.7	0.00e+00	0	56	0	1018167296	47	4497
2026-01-10 00:47:46.25	255.58	27.78	-38.1	-39.9	15.6	0.00e+00	0	56	0	1021313024	47	4509
2026-01-10 00:47:47.27	255.35	27.66	-38.2	-40.0	15.6	0.00e+00	0	56	0	1024458752	47	4557
2026-01-10 00:47:48.28	255.12	27.53	-37.7	-39.4	16.1	0.00e+00	0	56	0	1027604480	47	4275
2026-01-10 00:47:49.29	254.89	27.41	-37.5	-39.2	16.3	0.00e+00	0	56	0	1030750208	47	4171
2026-01-10 00:47:50.30	254.67	27.28	-37.6	-39.3	16.2	0.00e+00	0	56	0	1033895936	47	4226
2026-01-10 00:47:51.31	254.45	27.15	-37.8	-39.5	15.9	0.00e+00	0	57	0	1037041664	47	4337
2026-01-10 00:47:52.32	254.23	27.03	-38.1	-39.9	15.5	0.00e+00	0	56	0	1040187392	47	4542
2026-01-10 00:47:53.33	254.01	26.90	-38.4	-40.3	15.2	0.00e+00	0	56	0	1043333120	47	4750
2026-01-10 00:47:54.34	253.79	26.78	-38.7	-40.7	14.8	7.00e-07	0	56	0	1046478848	47	4980
2026-01-10 00:47:55.36	253.58	26.65	-38.8	-40.8	14.8	7.00e-07	0	56	0	1050673152	48	4752
2026-01-10 00:47:56.37	253.37	26.53	-38.7	-40.6	15.0	0.00e+00	0	56	0	1052770304	48	4646
2026-01-10 00:47:57.38	253.15	26.40	-38.2	-40.0	15.6	0.00e+00	0	57	0	1055916032	48	4333
2026-01-10 00:47:58.39	252.94	26.28	-37.7	-39.5	16.0	0.00e+00	0	57	0	1059061760	47	4300
2026-01-10 00:47:59.40	252.74	26.15	-37.5	-39.2	16.2	0.00e+00	0	56	0	1063256064	47	4175
2026-01-10 00:48:00.41	252.53	26.03	-37.6	-39.3	16.1	0.00e+00	0	56	0	1066401792	47	4233
2026-01-10 00:48:01.42	252.33	25.90	-37.8	-39.5	16.0	0.00e+00	0	56	0	1069547520	47	4298
2026-01-10 00:48:02.43	252.12	25.78	-37.8	-39.5	15.9	0.00e+00	0	57	0	1072693248	47	4326
2026-01-10 00:48:03.44	251.92	25.66	-37.7	-39.4	16.1	0.00e+00	0	56	0	1075838976	47	4269
2026-01-10 00:48:04.45	251.72	25.53	-37.6	-39.3	16.1	0.00e+00	0	56	0	1078984704	47	4240
2026-01-10 00:48:05.46	251.52	25.41	-37.8	-39.5	15.9	0.00e+00	0	56	0	1082130432	47	4325
2026-01-10 00:48:06.48	251.32	25.28	-37.9	-39.7	15.7	0.00e+00	0	57	0	1085276160	47	4435
2026-01-10 00:48:07.49	251.13	25.16	-38.1	-40.0	15.5	0.00e+00	0	56	0	1088421888	47	4551
2026-01-10 00:48:08.50	250.93	25.04	-38.3	-40.1	15.3	0.00e+00	0	56	0	1091567616	47	4647
2026-01-10 00:48:09.51	250.74	24.92	-38.3	-40.2	15.3	0.00e+00	0	56	0	1094713344	47	4678
2026-01-10 00:48:10.52	250.55	24.79	-38.2	-40.1	15.4	0.00e+00	0	57	0	1097859072	47	4600
2026-01-10 00:48:11.53	250.36	24.67	-38.0	-39.8	15.6	0.00e+00	0	56	0	1101004800	47	4473
2026-01-10 00:48:12.54	250.18	24.55	-37.9	-39.6	15.8	0.00e+00	0	56	0	1104150528	47	4381
2026-01-10 00:48:13.55	249.99	24.43	-37.8	-39.5	15.9	0.00e+00	0	56	0	1107296256	47	4321
2026-01-10 00:48:14.56	249.80	24.31	-37.7	-39.4	16.0	0.00e+00	0	57	0	1110441984	47	4266
2026-01-10 00:48:15.58	249.62	24.18	-37.4	-39.0	16.5	0.00e+00	0	57	0	1113587712	46	4316
2026-01-10 00:48:16.59	249.44	24.06	-37.2	-38.8	16.6	0.00e+00	0	56	0	1116733440	46	4227
2026-01-10 00:48:17.60	249.26	23.94	-37.2	-38.7	16.7	0.00e+00	0	56	0	1119879168	46	4192
2026-01-10 00:48:18.61	249.08	23.82	-37.3	-38.9	16.6	0.00e+00	0	57	0	1123024896	46	4244
2026-01-10 00:48:19.62	248.90	23.70	-37.3	-39.0	16.5	0.00e+00	0	57	0	1126170624	46	4292
2026-01-10 00:48:20.63	248.72	23.58	-37.5	-39.1	16.4	0.00e+00	0	57	0	1129316352	46	4372
2026-01-10 00:48:21.64	248.55	23.46	-37.6	-39.3	16.2	0.00e+00	0	56	0	1132462080	46	4446
2026-01-10 00:48:22.65	248.37	23.34	-37.6	-39.3	16.1	0.00e+00	0	56	0	1135607808	46	4481
2026-01-10 00:48:23.66	248.20	23.22	-37.7	-39.4	16.1	0.00e+00	0	57	0	1138753536	46	4499
2026-01-10 00:48:24.68	248.03	23.10	-37.7	-39.4	16.0	0.00e+00	0	57	0	1141899264	46	4525
2026-01-10 00:48:25.69	247.86	22.98	-37.6	-39.3	16.1	0.00e+00	0	57	0	1145044992	46	4490
2026-01-10 00:48:26.70	247.69	22.86	-37.6	-39.3	16.2	0.00e+00	0	57	0	1148190720	46	4445
2026-01-10 00:48:27.71	247.52	22.75	-37.5	-39.2	16.2	0.00e+00	0	56	0	1151336448	46	4414
2026-01-10 00:48:28.72	247.36	22.63	-37.6	-39.3	16.1	0.00e+00	0	57	0	1154482176	46	4457
2026-01-10 00:48:29.73	247.19	22.51	-37.7	-39.5	16.0	0.00e+00	0	57	0	1157627904	46	4556
2026-01-10 00:48:30.74	247.03	22.39	-37.9	-39.7	15.8	0.00e+00	0	56	0	1160773632	46	4666
2026-01-10 00:48:31.75	246.87	22.28	-38.0	-39.8	15.6	0.00e+00	0	57	0	1163919360	46	4737
2026-01-10 00:48:32.76	246.71	22.16	-38.0	-39.8	15.6	0.00e+00	0	56	0	1167065088	46	4747
2026-01-10 00:48:33.77	246.55	22.04	-38.0	-39.8	15.7	0.00e+00	0	57	0	1170210816	46	4721
2026-01-10 00:48:34.78	246.39	21.93	-37.9	-39.7	15.8	0.00e+00	0	56	0	1173356544	46	4684
2026-01-10 00:48:35.79	246.23	21.81	-37.9	-39.7	15.8	0.00e+00	0	56	0	1176502272	46	4682
2026-01-10 00:48:36.80	246.08	21.70	-37.7	-39.4	16.0	0.00e+00	0	57	0	1179648000	46	4521
2026-01-10 00:48:37.81	245.92	21.58	-37.6	-39.3	16.1	0.00e+00	0	56	0	1182793728	46	4466
2026-01-10 00:48:38.82	245.77	21.47	-37.6	-39.3	16.1	0.00e+00	0	57	0	1185939456	46	4490
2026-01-10 00:48:39.84	245.61	21.35	-37.8	-39.6	15.9	0.00e+00	0	56	0	1189085184	46	4607
2026-01-10 00:48:40.85	245.46	21.24	-37.9	-39.7	15.7	0.00e+00	0	56	0	1192230912	46	4680
2026-01-10 00:48:41.86	245.31	21.12	-38.1	-40.0	15.4	0.00e+00	0	57	0	1195376640	46	4849
2026-01-10 00:48:42.87	245.16	21.01	-38.2	-40.2	15.3	0.00e+00	0	57	0	1198522368	47	4652
2026-01-10 00:48:43.88	245.01	20.89	-38.3	-40.3	15.1	0.00e+00	0	57	0	1201668096	47	4726
2026-01-10 00:48:44.89	244.87	20.78	-38.4	-40.3	15.1	0.00e+00	0	56	0	1204813824	47	4738
2026-01-10 00:48:45.90	244.72	20.67	-38.3	-40.2	15.2	0.00e+00	0	57	0	1207959552	47	4683
2026-01-10 00:48:46.91	244.58	20.56	-38.2	-40.1	15.3	0.00e+00	0	57	0	1211105280	47	4605
2026-01-10 00:48:47.92	244.43	20.44	-38.1	-39.9	15.5	0.00e+00	0	56	0	1214251008	47	4540
2026-01-10 00:48:48.93	244.29	20.33	-38.0	-39.8	15.6	0.00e+00	0	56	0	1217396736	47	4462
2026-01-10 00:48:49.94	244.15	20.22	-37.9	-39.7	15.7	0.00e+00	0	56	0	1220542464	47	4416
2026-01-10 00:48:50.96	244.01	20.11	-37.9	-39.7	15.7	0.00e+00	0	56	0	1223688192	47	4409
2026-01-10 00:48:51.97	243.87	20.00	-37.8	-39.6	15.8	0.00e+00	0	56	0	1226833920	47	4368
2026-01-10 00:48:52.98	243.73	19.89	-37.9	-39.7	15.7	0.00e+00	0	56	0	1229979648	47	4412
2026-01-10 00:48:53.99	243.59	19.78	-37.9	-39.7	15.7	0.00e+00	0	56	0	1233125376	47	4397
2026-01-10 00:48:55.00	243.45	19.67	-37.8	-39.6	15.8	0.00e+00	0	56	0	1236271104	47	4345
2026-01-10 00:48:56.01	243.32	19.56	-37.8	-39.6	15.8	0.00e+00	0	57	0	1239416832	47	4354
2026-01-10 00:48:57.02	243.18	19.45	-37.8	-39.6	15.8	0.00e+00	0	56	0	1242562560	47	4350
2026-01-10 00:48:58.03	243.05	19.34	-37.8	-39.5	15.9	0.00e+00	0	56	0	1245708288	47	4316
2026-01-10 00:48:59.04	242.92	19.23	-37.7	-39.4	16.0	0.00e+00	0	56	0	1248854016	47	4258
2026-01-10 00:49:00.06	242.79	19.12	-37.6	-39.2	16.1	0.00e+00	0	57	0	1251999744	47	4191
2026-01-10 00:49:01.07	242.65	19.01	-37.5	-39.2	16.1	0.00e+00	0	57	0	1255145472	47	4183
2026-01-10 00:49:02.08	242.53	18.90	-37.7	-39.4	15.9	0.00e+00	0	57	0	1258291200	47	4290
2026-01-10 00:49:03.09	242.40	18.80	-37.7	-39.5	15.9	0.00e+00	0	56	0	1261436928	47	4297
2026-01-10 00:49:04.10	242.27	18.69	-37.8	-39.6	15.8	0.00e+00	0	56	0	1264582656	47	4347
2026-01-10 00:49:05.11	242.14	18.58	-37.7	-39.5	15.9	0.00e+00	0	56	0	1267728384	47	4305
2026-01-10 00:49:06.12	242.02	18.48	-37.7	-39.4	15.9	0.00e+00	0	57	0	1270874112	47	4289
2026-01-10 00:49:07.13	241.89	18.37	-37.8	-39.6	15.8	0.00e+00	0	57	0	1274019840	47	4350
2026-01-10 00:49:08.14	241.77	18.26	-37.7	-39.4	15.9	0.00e+00	0	56	0	1277165568	47	4274
2026-01-10 00:49:09.15	241.64	18.16	-37.7	-39.5	15.9	0.00e+00	0	56	0	1280311296	47	4297
2026-01-10 00:49:10.16	241.52	18.05	-37.7	-39.4	15.9	0.00e+00	0	57	0	1283457024	47	4265
2026-01-10 00:49:11.17	241.40	17.95	-37.8	-39.5	15.8	0.00e+00	0	57	0	1286602752	47	4327
2026-01-10 00:49:12.18	241.28	17.84	-37.9	-39.7	15.6	0.00e+00	0	56	0	1289748480	47	4420
2026-01-10 00:49:13.19	241.16	17.74	-37.7	-39.5	15.8	0.00e+00	0	57	0	1292894208	47	4320
2026-01-10 00:49:14.20	241.04	17.63	-37.7	-39.5	15.8	0.00e+00	0	57	0	1296039936	47	4309
2026-01-10 00:49:15.21	240.92	17.53	-37.8	-39.5	15.8	0.00e+00	0	56	0	1299185664	47	4339
2026-01-10 00:49:16.23	240.80	17.43	-37.8	-39.6	15.7	0.00e+00	0	56	0	1302331392	47	4364
2026-01-10 00:49:17.24	240.68	17.32	-37.8	-39.6	15.7	0.00e+00	0	57	0	1305477120	47	4389
2026-01-10 00:49:18.25	240.57	17.22	-37.9	-39.7	15.6	0.00e+00	0	57	0	1309671424	47	4429
2026-01-10 00:49:19.26	240.45	17.12	-38.0	-39.9	15.4	0.00e+00	0	57	0	1312817152	47	4510
2026-01-10 00:49:20.27	240.34	17.01	-38.1	-40.0	15.3	0.00e+00	0	56	0	1315962880	47	4573
2026-01-10 00:49:21.28	240.22	16.91	-38.1	-40.0	15.3	0.00e+00	0	57	0	1319108608	47	4589
2026-01-10 00:49:22.29	240.11	16.81	-38.3	-40.2	15.1	0.00e+00	0	56	0	1321205760	47	4689
2026-01-10 00:49:23.30	240.00	16.71	-38.4	-40.3	15.0	0.00e+00	0	57	0	1325400064	47	4742
2026-01-10 00:49:24.31	239.89	16.61	-38.5	-40.5	14.9	0.00e+00	0	56	0	1328545792	47	4821
2026-01-10 00:49:25.32	239.78	16.51	-38.6	-40.7	14.7	0.00e+00	0	57	0	1331691520	47	4929
2026-01-10 00:49:26.33	239.67	16.41	-38.7	-40.7	14.6	7.00e-07	0	57	0	1334837248	47	4974
2026-01-10 00:49:27.34	239.56	16.31	-38.7	-40.7	14.6	1.50e-06	0	57	0	1337982976	47	4967
2026-01-10 00:49:28.35	239.45	16.21	-38.6	-40.7	14.6	0.00e+00	0	57	0	1341128704	47	4942
2026-01-10 00:49:29.36	239.34	16.11	-38.6	-40.7	14.6	0.00e+00	0	57	0	1344274432	47	4937
2026-01-10 00:49:30.37	239.24	16.01	-38.6	-40.7	14.6	0.00e+00	0	57	0	1347420160	47	4937
2026-01-10 00:49:31.38	239.13	15.91	-38.6	-40.6	14.6	0.00e+00	0	57	0	1350565888	47	4922
2026-01-10 00:49:32.39	239.03	15.81	-38.5	-40.6	14.7	7.00e-07	0	57	0	1353711616	47	4879
2026-01-10 00:49:33.40	238.92	15.71	-38.6	-40.6	14.6	7.00e-07	0	57	0	1356857344	47	4911
2026-01-10 00:49:34.41	238.82	15.62	-38.6	-40.6	14.6	7.00e-07	0	57	0	1360003072	47	4897
2026-01-10 00:49:35.42	238.71	15.52	-38.5	-40.5	14.7	0.00e+00	0	56	0	1363148800	47	4855
2026-01-10 00:49:36.43	238.61	15.42	-38.5	-40.5	14.8	1.50e-06	0	56	0	1366294528	47	4815
2026-01-10 00:49:37.44	238.51	15.32	-38.4	-40.4	14.9	0.00e+00	0	57	0	1369440256	47	4774
2026-01-10 00:49:38.45	238.41	15.23	-38.4	-40.4	14.8	0.00e+00	0	57	0	1372585984	47	4795
2026-01-10 00:49:39.46	238.31	15.13	-38.4	-40.4	14.8	0.00e+00	0	57	0	1375731712	47	4785
2026-01-10 00:49:40.47	238.21	15.03	-38.5	-40.5	14.7	0.00e+00	0	56	0	1378877440	47	4865
2026-01-10 00:49:41.48	238.11	14.94	-38.6	-40.7	14.6	0.00e+00	0	57	0	1382023168	47	4945
2026-01-10 00:49:42.49	238.01	14.84	-38.5	-40.6	14.7	0.00e+00	0	57	0	1385168896	47	4882
2026-01-10 00:49:43.50	237.91	14.75	-38.5	-40.6	14.7	7.00e-07	0	57	0	1388314624	47	4887
2026-01-10 00:49:44.51	237.81	14.65	-38.7	-40.7	14.5	0.00e+00	0	57	0	1391460352	47	4972
2026-01-10 00:49:45.52	237.72	14.56	-38.8	-40.9	14.4	2.20e-06	0	57	0	1394606080	48	4778
2026-01-10 00:49:46.54	237.62	14.46	-38.9	-41.0	14.3	0.00e+00	0	56	0	1397751808	48	4870
2026-01-10 00:49:47.55	237.53	14.37	-39.0	-41.2	14.1	0.00e+00	0	57	0	1400897536	48	4963
2026-01-10 00:49:48.56	237.43	14.27	-39.1	-41.3	14.0	2.20e-06	0	57	0	1404043264	48	4998
2026-01-10 00:49:49.57	237.34	14.18	-39.0	-41.1	14.2	7.00e-07	0	57	0	1407188992	48	4911
2026-01-10 00:49:50.58	237.24	14.09	-39.0	-41.2	14.2	0.00e+00	0	56	0	1410334720	48	4932
2026-01-10 00:49:51.59	237.15	13.99	-39.1	-41.3	14.0	2.20e-06	0	57	0	1413480448	48	4998
2026-01-10 00:49:52.60	237.06	13.90	-39.1	-41.3	14.0	2.20e-06	0	57	0	1416626176	48	4988
2026-01-10 00:49:53.61	236.97	13.81	-39.0	-41.2	14.1	4.50e-06	0	57	0	1419771904	48	4944
2026-01-10 00:49:54.63	236.87	13.72	-39.0	-41.2	14.1	1.50e-06	0	56	0	1422917632	48	4952
2026-01-10 00:49:55.63	236.78	13.62	-38.9	-41.1	14.2	3.00e-06	0	57	0	1426063360	48	4891
2026-01-10 00:49:56.65	236.69	13.53	-39.0	-41.2	14.1	2.20e-06	0	57	0	1429209088	48	4931
2026-01-10 00:49:57.66	236.60	13.44	-38.9	-41.0	14.2	3.80e-06	0	57	0	1432354816	48	4841
2026-01-10 00:49:58.67	236.51	13.35	-38.8	-40.9	14.3	7.00e-07	0	57	0	1435500544	48	4772
2026-01-10 00:49:59.68	236.43	13.26	-38.8	-40.8	14.4	1.50e-06	0	56	0	1438646272	48	4752
2026-01-10 00:50:00.69	236.34	13.17	-38.5	-40.5	14.7	0.00e+00	0	56	0	1441792000	48	4564
2026-01-10 00:50:01.70	236.25	13.08	-38.5	-40.4	14.8	0.00e+00	0	56	0	1444937728	48	4542
2026-01-10 00:50:02.71	236.16	12.99	-38.5	-40.5	14.7	0.00e+00	0	56	0	1448083456	48	4566
2026-01-10 00:50:03.72	236.08	12.90	-38.5	-40.5	14.7	0.00e+00	0	56	0	1451229184	48	4562
2026-01-10 00:50:04.73	235.99	12.81	-38.4	-40.4	14.8	0.00e+00	0	57	0	1454374912	48	4517
2026-01-10 00:50:05.75	235.91	12.72	-38.5	-40.5	14.7	0.00e+00	0	57	0	1457520640	48	4588
2026-01-10 00:50:06.76	235.82	12.63	-38.6	-40.6	14.6	0.00e+00	0	57	0	1460666368	48	4622
2026-01-10 00:50:07.77	235.74	12.54	-38.5	-40.5	14.8	0.00e+00	0	57	0	1463812096	48	4547
2026-01-10 00:50:08.78	235.65	12.45	-38.6	-40.7	14.5	0.00e+00	0	57	0	1466957824	48	4664
2026-01-10 00:50:09.79	235.57	12.36	-38.7	-40.8	14.4	0.00e+00	0	57	0	1470103552	48	4713
2026-01-10 00:50:10.80	235.49	12.28	-38.7	-40.8	14.4	7.00e-07	0	57	0	1473249280	48	4709
2026-01-10 00:50:11.81	235.41	12.19	-38.7	-40.8	14.3	0.00e+00	0	57	0	1476395008	48	4756
2026-01-10 00:50:12.82	235.33	12.10	-38.8	-40.9	14.3	1.50e-06	0	57	0	1479540736	48	4791
2026-01-10 00:50:13.83	235.24	12.01	-38.8	-41.0	14.2	1.50e-06	0	56	0	1482686464	48	4826
2026-01-10 00:50:14.84	235.16	11.93	-38.9	-41.1	14.1	7.00e-07	0	57	0	1485832192	48	4903
2026-01-10 00:50:15.85	235.08	11.84	-39.0	-41.2	14.0	1.50e-06	0	57	0	1488977920	48	4948
2026-01-10 00:50:16.86	235.00	11.75	-39.0	-41.2	13.9	4.50e-06	0	57	0	1492123648	48	4980
2026-01-10 00:50:17.87	234.92	11.67	-39.1	-41.4	13.8	3.80e-06	0	57	0	1495269376	48	5049
2026-01-10 00:50:18.88	234.85	11.58	-39.2	-41.5	13.6	8.30e-06	0	57	0	1498415104	48	5153
2026-01-10 00:50:19.89	234.77	11.50	-39.0	-41.3	13.9	3.80e-06	0	56	0	1501560832	49	4714
2026-01-10 00:50:20.90	234.69	11.41	-39.2	-41.5	13.6	6.80e-06	0	57	0	1504706560	49	4865
2026-01-10 00:50:21.91	234.61	11.33	-39.0	-41.3	13.8	2.20e-06	0	57	0	1507852288	49	4737
2026-01-10 00:50:22.92	234.54	11.24	-39.2	-41.5	13.7	3.00e-06	0	57	0	1510998016	49	4826
2026-01-10 00:50:23.93	234.46	11.16	-39.2	-41.5	13.6	8.30e-06	0	57	0	1514143744	49	4858
2026-01-10 00:50:24.94	234.38	11.07	-39.2	-41.6	13.5	1.06e-05	0	57	0	1517289472	49	4876
2026-01-10 00:50:25.96	234.31	10.99	-39.2	-41.5	13.5	1.14e-05	0	57	0	1520435200	49	4863
2026-01-10 00:50:26.97	234.23	10.90	-39.2	-41.6	13.5	1.14e-05	0	57	0	1523580928	49	4872
2026-01-10 00:50:27.97	234.16	10.82	-39.2	-41.5	13.5	1.44e-05	0	57	0	1526726656	49	4861
2026-01-10 00:50:28.99	234.08	10.74	-39.2	-41.5	13.6	1.29e-05	0	57	0	1529872384	49	4845
2026-01-10 00:50:30.00	234.01	10.65	-39.2	-41.5	13.5	1.22e-05	0	57	0	1533018112	49	4854
2026-01-10 00:50:31.01	233.94	10.57	-39.1	-41.4	13.6	9.10e-06	0	57	0	1536163840	49	4791
2026-01-10 00:50:32.02	233.86	10.49	-39.1	-41.5	13.6	1.37e-05	0	57	0	1539309568	49	4824
2026-01-10 00:50:33.03	233.79	10.40	-39.1	-41.3	13.7	7.60e-06	0	57	0	1542455296	49	4758
2026-01-10 00:50:34.04	233.72	10.32	-39.2	-41.5	13.5	6.10e-06	0	57	0	1545601024	49	4849
2026-01-10 00:50:35.05	233.65	10.24	-39.1	-41.5	13.6	9.90e-06	0	57	0	1548746752	49	4831
2026-01-10 00:50:36.06	233.58	10.16	-39.1	-41.4	13.6	6.80e-06	0	57	0	1551892480	49	4802
2026-01-10 00:50:37.07	233.51	10.08	-39.1	-41.4	13.6	5.30e-06	0	57	0	1555038208	49	4802
2026-01-10 00:50:38.08	233.44	9.99	-39.2	-41.5	13.5	1.75e-05	0	57	0	1558183936	49	4834
2026-01-10 00:50:39.09	233.37	9.91	-39.1	-41.4	13.6	1.75e-05	0	57	0	1561329664	49	4804
2026-01-10 00:50:40.10	233.30	9.83	-39.1	-41.4	13.6	8.30e-06	0	57	0	1564475392	49	4773
2026-01-10 00:50:41.11	233.23	9.75	-39.1	-41.5	13.5	9.90e-06	0	57	0	1567621120	49	4828
2026-01-10 00:50:42.12	233.16	9.67	-39.3	-41.7	13.3	1.60e-05	0	57	0	1570766848	49	4958
2026-01-10 00:50:43.13	233.09	9.59	-39.3	-41.7	13.3	1.83e-05	0	57	0	1573912576	49	4961
2026-01-10 00:50:44.14	233.02	9.51	-39.2	-41.6	13.4	1.98e-05	0	57	0	1577058304	49	4909
2026-01-10 00:50:45.15	232.96	9.43	-39.3	-41.7	13.2	2.21e-05	0	57	0	1581252608	49	4961
2026-01-10 00:50:46.16	232.89	9.35	-39.3	-41.7	13.3	1.29e-05	0	57	0	1584398336	49	4949
2026-01-10 00:50:47.17	232.82	9.27	-39.3	-41.8	13.2	1.44e-05	0	57	0	1587544064	49	4997
2026-01-10 00:50:48.19	232.75	9.19	-39.2	-41.6	13.3	1.44e-05	0	57	0	1589641216	49	4901
2026-01-10 00:50:49.20	232.69	9.11	-39.2	-41.6	13.3	1.90e-05	0	57	0	1593835520	49	4914
2026-01-10 00:50:50.21	232.62	9.03	-39.3	-41.7	13.2	2.59e-05	0	57	0	1596981248	49	4968
2026-01-10 00:50:51.22	232.56	8.95	-39.2	-41.6	13.3	1.44e-05	0	57	0	1600126976	49	4889
2026-01-10 00:50:52.23	232.49	8.88	-39.3	-41.7	13.2	2.74e-05	0	57	0	1603272704	49	4961
2026-01-10 00:50:53.24	232.43	8.80	-39.4	-41.9	13.0	3.89e-05	0	57	0	1606418432	49	5051
2026-01-10 00:50:54.25	232.36	8.72	-39.5	-42.0	12.9	6.10e-05	0	57	0	1609564160	49	5136
2026-01-10 00:50:55.26	232.30	8.64	-39.3	-41.8	13.1	3.12e-05	0	57	0	1612709888	49	5012
2026-01-10 00:50:56.27	232.24	8.56	-39.4	-42.0	12.9	4.34e-05	0	57	0	1615855616	49	5126
2026-01-10 00:50:57.29	232.17	8.49	-39.5	-42.1	12.8	5.41e-05	0	57	0	1619001344	49	5172
2026-01-10 00:50:58.30	232.11	8.41	-39.5	-42.1	12.7	7.01e-05	0	57	0	1622147072	49	5192
2026-01-10 00:50:59.31	232.05	8.33	-39.4	-42.0	12.8	6.63e-05	0	57	0	1625292800	49	5140
2026-01-10 00:51:00.32	231.99	8.26	-39.5	-42.1	12.7	8.39e-05	0	57	0	1628438528	49	5211
2026-01-10 00:51:01.33	231.92	8.18	-39.5	-42.2	12.6	9.76e-05	0	57	0	1631584256	49	5251
2026-01-10 00:51:02.34	231.86	8.10	-39.4	-42.0	12.8	9.07e-05	0	57	0	1634729984	49	5117
2026-01-10 00:51:03.35	231.80	8.03	-40.0	-42.8	12.1	9.07e-05	0	57	0	1637875712	50	5325
2026-01-10 00:51:04.36	231.74	7.95	-44.2	-56.5	3.8	1.49e+00	0	57	104	1638924288	58	16242
2026-01-10 00:51:05.37	231.68	7.88	-44.5	-56.8	3.8	1.49e+00	0	57	104	1638924288	59	15791
2026-01-10 00:51:06.38	231.62	7.80	-44.6	-56.9	3.8	1.49e+00	0	57	104	1638924288	59	16031
2026-01-10 00:51:07.39	231.56	7.72	-44.7	-57.2	3.8	1.49e+00	0	57	104	1638924288	60	15628
2026-01-10 00:51:08.41	231.50	7.65	-44.8	-57.3	3.8	1.49e+00	0	57	104	1638924288	60	15768
2026-01-10 00:51:09.42	231.44	7.57	-44.8	-57.3	3.8	1.49e+00	0	57	104	1638924288	60	15903
2026-01-10 00:51:10.43	231.38	7.50	-44.9	-57.4	3.8	1.49e+00	0	57	104	1638924288	60	15993
2026-01-10 00:51:11.44	231.32	7.42	-44.9	-57.4	3.8	1.49e+00	0	57	104	1638924288	60	16031
2026-01-10 00:51:12.45	231.26	7.35	-44.9	-57.4	3.8	1.49e+00	0	57	104	1638924288	60	16120
2026-01-10 00:51:13.46	231.21	7.28	-44.9	-57.4	3.8	1.49e+00	0	57	104	1638924288	60	16096
2026-01-10 00:51:14.47	231.15	7.20	-44.9	-57.4	3.8	1.49e+00	0	57	104	1638924288	60	16054
2026-01-10 00:51:15.49	231.09	7.13	-44.8	-57.4	3.8	1.49e+00	0	57	104	1638924288	60	15945
2026-01-10 00:51:16.50	231.03	7.05	-44.8	-57.4	3.8	1.49e+00	0	57	104	1638924288	60	15981
2026-01-10 00:51:17.51	230.98	6.98	-44.8	-57.4	3.8	1.49e+00	0	57	104	1638924288	60	15973
2026-01-10 00:51:18.52	230.92	6.91	-44.7	-57.4	3.8	1.49e+00	0	57	104	1638924288	60	15993
2026-01-10 00:51:19.53	230.87	6.83	-44.8	-57.4	3.8	1.49e+00	0	57	104	1638924288	60	16001
2026-01-10 00:51:20.54	230.81	6.76	-44.8	-57.3	3.8	1.49e+00	0	57	104	1638924288	60	15922
2026-01-10 00:51:21.55	230.75	6.69	-44.8	-57.3	3.8	1.49e+00	0	57	104	1638924288	60	15927
2026-01-10 00:51:22.56	230.70	6.62	-44.8	-57.4	3.8	1.49e+00	0	57	104	1638924288	60	15949
2026-01-10 00:51:23.57	230.64	6.54	-44.8	-57.4	3.8	1.49e+00	0	57	104	1638924288	60	15984
2026-01-10 00:51:24.58	230.59	6.47	-44.8	-57.4	3.8	1.49e+00	0	57	104	1638924288	60	15972
2026-01-10 00:51:25.59	230.53	6.40	-44.8	-57.4	3.8	1.49e+00	0	57	104	1638924288	60	15963
2026-01-10 00:51:26.60	230.48	6.33	-44.8	-57.3	3.8	1.49e+00	0	57	104	1638924288	60	15900
2026-01-10 00:51:27.61	230.43	6.26	-44.8	-57.3	3.8	1.49e+00	0	57	104	1638924288	60	15928
2026-01-10 00:51:28.62	230.37	6.18	-44.8	-57.3	3.8	1.49e+00	0	57	104	1638924288	60	15912
2026-01-10 00:51:29.63	230.32	6.11	-44.8	-57.4	3.8	1.49e+00	0	57	104	1638924288	60	15963
2026-01-10 00:51:30.64	230.27	6.04	-44.8	-57.4	3.8	1.49e+00	0	57	104	1638924288	60	15948
2026-01-10 00:51:31.64	230.21	5.97	-44.8	-57.3	3.8	1.49e+00	0	57	104	1638924288	60	15943
2026-01-10 00:51:32.65	230.16	5.90	-44.8	-57.3	3.8	1.49e+00	0	57	104	1638924288	60	15883
2026-01-10 00:51:33.66	230.11	5.83	-44.8	-57.3	3.8	1.49e+00	0	57	104	1638924288	60	15933
2026-01-10 00:51:34.67	230.06	5.76	-44.8	-57.3	3.8	1.49e+00	0	57	104	1638924288	60	15908
2026-01-10 00:51:35.68	230.01	5.69	-44.8	-57.3	3.8	1.49e+00	0	57	104	1638924288	60	15911
2026-01-10 00:51:36.68	229.95	5.62	-44.8	-57.3	3.8	1.49e+00	0	57	104	1638924288	60	15849
2026-01-10 00:51:37.69	229.90	5.55	-44.7	-57.3	3.8	1.49e+00	0	57	104	1638924288	60	15901
2026-01-10 00:51:38.70	229.85	5.48	-44.8	-57.3	3.8	1.49e+00	0	57	104	1638924288	60	15892
2026-01-10 00:51:39.71	229.80	5.41	-44.8	-57.3	3.8	1.49e+00	0	57	104	1638924288	60	15912
2026-01-10 00:51:40.72	229.75	5.34	-44.7	-57.3	3.8	1.49e+00	0	57	104	1638924288	60	15882
2026-01-10 00:51:41.73	229.70	5.27	-44.8	-57.3	3.8	1.49e+00	0	57	104	1638924288	60	15872
2026-01-10 00:51:42.74	229.65	5.20	-44.8	-57.3	3.8	1.49e+00	0	57	104	1638924288	60	15867
2026-01-10 00:51:43.75	229.60	5.13	-44.8	-57.3	3.8	1.49e+00	0	57	104	1638924288	60	15881
2026-01-10 00:51:44.76	229.55	5.06	-44.7	-57.3	3.8	1.49e+00	0	57	104	1638924288	60	15877
2026-01-10 00:51:45.77	229.50	4.99	-44.7	-57.3	3.8	1.49e+00	0	57	104	1638924288	60	15852
2026-01-10 00:51:46.78	229.45	4.93	-44.8	-57.3	3.8	1.49e+00	0	57	104	1638924288	60	15886
2026-01-10 00:51:47.79	229.41	4.86	-44.8	-57.3	3.8	1.49e+00	0	57	104	1638924288	60	15889
2026-01-10 00:51:48.79	229.36	4.79	-44.7	-57.3	3.8	1.49e+00	0	57	104	1638924288	60	15860
2026-01-10 00:51:49.80	229.31	4.72	-44.8	-57.3	3.8	1.49e+00	0	57	104	1638924288	60	15837
2026-01-10 00:51:50.81	229.26	4.65	-44.8	-57.3	3.8	1.49e+00	0	57	104	1638924288	60	15891
2026-01-10 00:51:51.81	229.21	4.59	-44.8	-57.3	3.8	1.49e+00	0	57	104	1638924288	60	15880
2026-01-10 00:51:52.82	229.17	4.52	-44.7	-57.3	3.8	1.49e+00	0	57	104	1638924288	60	15836
2026-01-10 00:51:53.83	229.12	4.45	-44.7	-57.3	3.8	1.49e+00	0	57	104	1638924288	60	15852
2026-01-10 00:51:54.84	229.07	4.38	-44.7	-57.3	3.8	1.49e+00	0	57	104	1638924288	60	15815
2026-01-10 00:51:55.85	229.03	4.32	-44.7	-57.3	3.8	1.49e+00	0	57	104	1638924288	60	15798
2026-01-10 00:51:56.86	228.98	4.25	-44.7	-57.3	3.8	1.49e+00	0	57	104	1638924288	60	15844
2026-01-10 00:51:57.86	228.93	4.18	-44.7	-57.3	3.8	1.49e+00	0	57	104	1638924288	60	15808
2026-01-10 00:51:58.87	228.89	4.12	-44.7	-57.3	3.8	1.49e+00	0	57	104	1638924288	60	15838
2026-01-10 00:51:59.88	228.84	4.05	-44.7	-57.3	3.8	1.49e+00	0	57	104	1638924288	60	15874
2026-01-10 00:52:00.89	228.79	3.98	-44.7	-57.3	3.8	1.49e+00	0	57	104	1638924288	60	15858
2026-01-10 00:52:01.90	228.75	3.92	-44.7	-57.3	3.8	1.49e+00	0	57	104	1638924288	60	15801
2026-01-10 00:52:02.91	228.70	3.85	-44.7	-57.3	3.8	1.49e+00	0	57	104	1638924288	60	15806
2026-01-10 00:52:03.92	228.66	3.79	-44.7	-57.3	3.8	1.49e+00	0	57	104	1638924288	60	15831
2026-01-10 00:52:04.93	228.61	3.72	-44.7	-57.3	3.8	1.49e+00	0	57	104	1638924288	60	15842
2026-01-10 00:52:05.94	228.57	3.65	-44.7	-57.3	3.8	1.49e+00	0	57	104	1638924288	60	15822
2026-01-10 00:52:06.95	228.52	3.59	-44.7	-57.3	3.8	1.49e+00	0	57	104	1638924288	60	15784
2026-01-10 00:52:07.96	228.48	3.52	-44.7	-57.3	3.8	1.49e+00	0	57	104	1638924288	60	15840
2026-01-10 00:52:08.97	228.44	3.46	-44.7	-57.3	3.8	1.49e+00	0	57	104	1638924288	60	15820
2026-01-10 00:52:09.97	228.39	3.39	-44.7	-57.3	3.8	1.49e+00	0	57	104	1638924288	60	15769
2026-01-10 00:52:10.99	228.35	3.33	-44.7	-57.3	3.8	1.49e+00	0	57	104	1638924288	60	15799
2026-01-10 00:52:12.00	228.31	3.26	-44.7	-57.3	3.8	1.49e+00	0	57	104	1638924288	60	15791
2026-01-10 00:52:13.00	228.26	3.20	-44.7	-57.3	3.8	1.49e+00	0	57	104	1638924288	60	15826
2026-01-10 00:52:14.01	228.22	3.13	-44.7	-57.3	3.8	1.49e+00	0	57	104	1638924288	60	15768
2026-01-10 00:52:15.02	228.18	3.07	-44.7	-57.3	3.8	1.49e+00	0	57	104	1638924288	60	15857
2026-01-10 00:52:16.03	228.13	3.01	-44.7	-57.3	3.8	1.49e+00	0	57	104	1638924288	60	15761
2026-01-10 00:52:17.04	228.09	2.94	-44.7	-57.3	3.8	1.49e+00	0	57	104	1638924288	60	15788
2026-01-10 00:52:18.05	228.05	2.88	-44.7	-57.3	3.8	1.49e+00	0	57	104	1638924288	60	15762
2026-01-10 00:52:19.06	228.01	2.81	-44.7	-57.3	3.8	1.49e+00	0	57	104	1638924288	60	15767
2026-01-10 00:52:20.07	227.97	2.75	-44.7	-57.3	3.8	1.49e+00	0	57	104	1638924288	60	15799
2026-01-10 00:52:21.08	227.92	2.69	-44.7	-57.2	3.8	1.49e+00	0	57	104	1638924288	60	15728
2026-01-10 00:52:22.09	227.88	2.62	-44.7	-57.3	3.8	1.49e+00	0	57	104	1638924288	60	15772
2026-01-10 00:52:23.10	227.84	2.56	-44.7	-57.3	3.8	1.49e+00	0	57	104	1638924288	60	15772
2026-01-10 00:52:24.11	227.80	2.50	-44.7	-57.2	3.8	1.49e+00	0	57	104	1638924288	60	15712
2026-01-10 00:52:25.12	227.76	2.43	-44.7	-57.2	3.8	1.49e+00	0	57	104	1638924288	60	15735
2026-01-10 00:52:26.13	227.72	2.37	-44.7	-57.2	3.8	1.49e+00	0	57	104	1638924288	60	15724
2026-01-10 00:52:27.14	227.68	2.31	-44.7	-57.2	3.8	1.49e+00	0	57	104	1638924288	60	15716
2026-01-10 00:52:28.15	227.64	2.24	-44.7	-57.3	3.8	1.49e+00	0	57	104	1638924288	60	15774
2026-01-10 00:52:29.16	227.60	2.18	-44.7	-57.3	3.8	1.49e+00	0	57	104	1638924288	60	15763
2026-01-10 00:52:30.17	227.56	2.12	-44.7	-57.2	3.8	1.49e+00	0	57	104	1638924288	60	15756
2026-01-10 00:52:31.17	227.52	2.06	-44.7	-57.2	3.8	1.49e+00	0	57	104	1638924288	60	15727
2026-01-10 00:52:32.19	227.48	1.99	-44.7	-57.3	3.8	1.49e+00	0	57	104	1638924288	60	15781
2026-01-10 00:52:33.20	227.44	1.93	-44.7	-57.3	3.8	1.49e+00	0	57	104	1638924288	60	15785

#Closed at: 2026-01-10 00:52:33
#Recorded file [1638 MB]: D:/lorett/data/31039_260110_034135.dat