passes_logs/2026/01/10/R2.0S_Moscow/R2.0S_Moscow__20260110_115843_FENGYUN_3D_rec.log

#Pass ID: 20260110_115843_FENGYUN 3D
#Satellite: FENGYUN 3D
#Configuration: FENGYUN 3D
#almurnet v.1.7.20251203
#Start time: 2026-01-10 11:58:44

#Version: 2.2.20231116
#Station: R2.0S_Moscow
#Location: 37.707566 lon 55.798166 lat
#TLE: 1 43010U 17072A   26009.29492227  .00000158  00000+0  96483-4 0  9996
#TLE: 2 43010  98.9936 341.0229 0002153 117.3665 242.7729 14.19694440422446

#Time	Az	El	Level	Level2	SNR	BER	BlckErr	Temp	State	Recorded	gain1	gain2
2026-01-10 11:58:44.04	161.10	2.04	-44.0	-55.5	3.8	8.46e-01	0	47	0	0	59	13681
2026-01-10 11:58:45.04	161.11	2.11	-43.9	-55.5	3.8	8.46e-01	0	47	104	0	59	13642
2026-01-10 11:58:46.06	161.11	2.17	-44.0	-55.5	3.8	8.47e-01	0	48	104	0	59	13691
2026-01-10 11:58:47.07	161.12	2.24	-43.9	-55.5	3.8	8.46e-01	0	48	104	0	59	13648
2026-01-10 11:58:48.08	161.12	2.30	-43.9	-55.4	3.8	8.46e-01	0	48	104	0	59	13564
2026-01-10 11:58:49.09	161.12	2.37	-43.9	-55.5	3.8	8.46e-01	0	48	104	0	59	13712
2026-01-10 11:58:50.10	161.13	2.43	-43.9	-55.5	3.8	8.46e-01	0	48	104	0	59	13651
2026-01-10 11:58:51.11	161.13	2.50	-44.0	-55.5	3.8	8.45e-01	0	48	104	0	59	13634
2026-01-10 11:58:52.12	161.14	2.57	-43.9	-55.5	3.8	8.46e-01	0	48	104	0	59	13592
2026-01-10 11:58:53.13	161.14	2.63	-43.9	-55.5	3.8	8.47e-01	0	48	104	0	59	13688
2026-01-10 11:58:54.14	161.14	2.70	-43.9	-55.5	3.8	8.46e-01	0	48	104	0	59	13664
2026-01-10 11:58:55.16	161.15	2.77	-43.9	-55.5	3.8	8.46e-01	0	48	104	0	59	13638
2026-01-10 11:58:56.17	161.15	2.83	-43.9	-55.5	3.8	8.46e-01	0	48	104	0	59	13621
2026-01-10 11:58:57.18	161.15	2.90	-43.9	-55.5	3.8	8.47e-01	0	49	104	0	59	13622
2026-01-10 11:58:58.19	161.16	2.97	-43.9	-55.5	3.8	8.46e-01	0	48	104	0	59	13687
2026-01-10 11:58:59.20	161.16	3.04	-43.9	-55.5	3.8	8.46e-01	0	49	104	0	59	13598
2026-01-10 11:59:00.21	161.17	3.10	-43.9	-55.5	3.8	8.46e-01	0	49	104	0	59	13624
2026-01-10 11:59:01.22	161.17	3.17	-43.9	-55.5	3.8	8.46e-01	0	49	104	0	59	13602
2026-01-10 11:59:02.23	161.17	3.24	-43.9	-55.5	3.8	8.46e-01	0	49	104	0	59	13607
2026-01-10 11:59:03.24	161.18	3.31	-43.9	-55.5	3.8	8.47e-01	0	49	104	0	59	13576
2026-01-10 11:59:04.26	161.18	3.38	-43.9	-55.5	3.8	8.46e-01	0	49	104	0	59	13580
2026-01-10 11:59:05.27	161.19	3.44	-43.9	-55.5	3.8	8.47e-01	0	49	104	0	59	13582
2026-01-10 11:59:06.28	161.19	3.51	-43.9	-55.5	3.8	8.45e-01	0	49	104	0	59	13602
2026-01-10 11:59:07.29	161.19	3.58	-43.9	-55.5	3.8	8.45e-01	0	49	104	0	59	13588
2026-01-10 11:59:08.30	161.20	3.65	-43.9	-55.5	3.8	8.46e-01	0	49	104	0	59	13578
2026-01-10 11:59:09.31	161.20	3.72	-43.9	-55.5	3.8	8.46e-01	0	49	104	0	59	13598
2026-01-10 11:59:10.32	161.21	3.79	-43.9	-55.5	3.8	8.46e-01	0	49	104	0	59	13604
2026-01-10 11:59:11.33	161.21	3.86	-43.9	-55.5	3.8	8.45e-01	0	49	104	0	59	13592
2026-01-10 11:59:12.34	161.22	3.93	-43.9	-55.5	3.8	8.46e-01	0	49	104	0	59	13629
2026-01-10 11:59:13.35	161.22	4.00	-43.9	-55.5	3.8	8.45e-01	0	49	104	0	59	13591
2026-01-10 11:59:14.36	161.22	4.07	-43.9	-55.5	3.8	8.47e-01	0	50	104	0	59	13629
2026-01-10 11:59:15.37	161.23	4.14	-43.9	-55.4	3.8	8.46e-01	0	49	104	0	59	13538
2026-01-10 11:59:16.38	161.23	4.21	-43.9	-55.4	3.8	8.45e-01	0	50	104	0	59	13545
2026-01-10 11:59:17.39	161.24	4.28	-43.9	-55.5	3.8	8.45e-01	0	50	104	0	59	13586
2026-01-10 11:59:18.41	161.24	4.35	-43.9	-55.4	3.8	8.46e-01	0	50	104	0	59	13548
2026-01-10 11:59:19.41	161.24	4.42	-43.9	-55.4	3.8	8.46e-01	0	50	104	0	59	13540
2026-01-10 11:59:20.43	161.25	4.49	-43.9	-55.4	3.8	8.46e-01	0	50	104	0	59	13499
2026-01-10 11:59:21.44	161.25	4.56	-43.9	-55.4	3.8	8.47e-01	0	50	104	0	59	13471
2026-01-10 11:59:22.45	161.26	4.63	-43.9	-55.4	3.8	8.46e-01	0	50	104	0	59	13528
2026-01-10 11:59:23.46	161.26	4.71	-43.9	-55.4	3.8	8.46e-01	0	50	104	0	59	13434
2026-01-10 11:59:24.47	161.26	4.78	-43.9	-55.3	3.8	8.46e-01	0	50	104	0	59	13386
2026-01-10 11:59:25.48	161.27	4.85	-43.9	-55.3	3.8	8.46e-01	0	50	104	0	59	13379
2026-01-10 11:59:26.49	161.27	4.92	-43.9	-55.3	3.8	8.47e-01	0	50	104	0	59	13266
2026-01-10 11:59:27.50	161.28	4.99	-43.8	-55.0	3.8	8.46e-01	0	50	104	0	59	12942
2026-01-10 11:59:28.51	161.28	5.07	-43.8	-54.8	3.8	8.46e-01	0	51	104	0	59	12601
2026-01-10 11:59:29.52	161.29	5.14	-43.8	-54.7	3.8	8.47e-01	0	51	104	0	59	12462
2026-01-10 11:59:30.54	161.29	5.21	-43.8	-54.8	3.8	8.46e-01	0	51	104	0	59	12526
2026-01-10 11:59:31.54	161.29	5.29	-43.8	-54.7	3.8	8.46e-01	0	50	104	0	59	12485
2026-01-10 11:59:32.56	161.30	5.36	-43.8	-54.8	3.8	8.46e-01	0	51	104	0	59	12656
2026-01-10 11:59:33.57	161.30	5.43	-43.8	-55.2	3.8	8.45e-01	0	50	104	0	58	13898
2026-01-10 11:59:34.58	161.31	5.51	-43.9	-55.3	3.8	8.45e-01	0	51	104	0	58	14086
2026-01-10 11:59:35.59	161.31	5.58	-43.9	-55.3	3.8	8.46e-01	0	51	104	0	58	14184
2026-01-10 11:59:36.60	161.32	5.66	-43.9	-55.3	3.8	8.45e-01	0	51	104	0	58	14188
2026-01-10 11:59:37.61	161.32	5.73	-43.9	-55.3	3.8	8.46e-01	0	51	104	0	58	14131
2026-01-10 11:59:38.62	161.32	5.80	-43.9	-55.3	3.8	8.47e-01	0	51	104	0	58	14209
2026-01-10 11:59:39.63	161.33	5.88	-43.9	-55.4	3.8	8.46e-01	0	51	104	0	58	14288
2026-01-10 11:59:40.65	161.33	5.96	-43.9	-55.4	3.8	8.46e-01	0	51	104	0	58	14353
2026-01-10 11:59:41.66	161.34	6.03	-43.9	-55.4	3.8	8.46e-01	0	51	104	0	58	14264
2026-01-10 11:59:42.67	161.34	6.11	-43.9	-55.4	3.8	8.46e-01	0	51	104	0	58	14276
2026-01-10 11:59:43.68	161.35	6.18	-43.9	-55.3	3.8	8.46e-01	0	51	104	0	58	14190
2026-01-10 11:59:44.69	161.35	6.26	-43.9	-55.3	3.8	8.45e-01	0	51	104	0	58	14158
2026-01-10 11:59:45.70	161.35	6.33	-43.8	-54.9	3.8	8.45e-01	0	51	104	0	58	13525
2026-01-10 11:59:46.71	161.36	6.41	-43.8	-54.9	3.8	8.46e-01	0	51	104	0	58	13445
2026-01-10 11:59:47.72	161.36	6.49	-43.8	-54.4	3.8	8.47e-01	0	51	104	0	58	12774
2026-01-10 11:59:48.73	161.37	6.56	-43.6	-53.3	3.8	8.47e-01	0	51	104	0	58	11191
2026-01-10 11:59:49.74	161.37	6.64	-43.6	-53.0	3.8	8.44e-01	0	51	104	0	58	10793
2026-01-10 11:59:50.76	161.38	6.72	-43.4	-51.7	4.3	8.39e-01	0	51	0	0	58	9285
2026-01-10 11:59:51.77	161.38	6.80	-43.2	-50.8	4.5	8.23e-01	0	52	0	0	58	8392
2026-01-10 11:59:52.78	161.38	6.87	-42.9	-49.6	5.1	7.74e-01	0	52	0	0	57	7805
2026-01-10 11:59:53.79	161.39	6.95	-42.6	-48.6	5.8	5.99e-01	0	52	0	1048576	57	6905
2026-01-10 11:59:54.80	161.39	7.03	-42.4	-47.7	6.5	2.88e-01	0	52	0	6291456	56	6645
2026-01-10 11:59:55.81	161.40	7.11	-41.8	-46.4	7.5	1.40e-01	0	52	0	12582912	55	6040
2026-01-10 11:59:56.82	161.40	7.19	-41.3	-45.4	8.5	8.56e-02	0	52	0	17825792	54	5722
2026-01-10 11:59:57.83	161.41	7.27	-40.9	-44.6	9.3	2.29e-02	0	52	0	24117248	53	5516
2026-01-10 11:59:58.84	161.41	7.35	-40.6	-44.0	10.0	1.56e-02	0	52	0	29360128	53	5119
2026-01-10 11:59:59.85	161.42	7.43	-40.4	-43.7	10.3	8.19e-03	0	52	0	34603008	52	5241
2026-01-10 12:00:00.86	161.42	7.51	-39.9	-42.9	11.2	2.41e-03	0	52	0	40894464	51	5065
2026-01-10 12:00:01.87	161.42	7.59	-39.7	-42.5	11.6	1.01e-03	0	52	0	46137344	51	4866
2026-01-10 12:00:02.88	161.43	7.67	-39.5	-42.2	11.9	6.08e-04	0	52	0	52428800	51	4701
2026-01-10 12:00:03.90	161.43	7.75	-39.3	-41.9	12.3	3.54e-04	0	52	0	57671680	50	4771
2026-01-10 12:00:04.91	161.44	7.83	-39.2	-41.8	12.3	2.35e-04	0	52	0	62914560	50	4730
2026-01-10 12:00:05.92	161.44	7.91	-39.1	-41.7	12.5	2.57e-04	0	53	0	69206016	50	4653
2026-01-10 12:00:06.93	161.45	7.99	-39.2	-41.8	12.3	2.25e-04	0	52	0	74448896	50	4740
2026-01-10 12:00:07.94	161.45	8.07	-39.1	-41.6	12.5	2.12e-04	0	52	0	80740352	50	4625
2026-01-10 12:00:08.95	161.46	8.15	-38.6	-40.9	13.4	1.02e-05	0	52	0	85983232	48	4761
2026-01-10 12:00:09.96	161.46	8.24	-43.5	-51.8	4.3	1.28e-02	0	52	0	91226112	57	9967
2026-01-10 12:00:10.97	161.47	8.32	-38.2	-40.3	13.9	1.25e-05	0	52	0	95420416	48	4489
2026-01-10 12:00:11.98	161.47	8.40	-40.5	-43.6	10.8	1.36e-04	0	52	0	100663296	51	5501
2026-01-10 12:00:12.99	161.47	8.48	-43.0	-50.3	4.6	1.77e-01	0	52	0	105906176	56	8913
2026-01-10 12:00:14.00	161.48	8.57	-38.2	-40.3	14.0	9.09e-04	0	52	0	110100480	48	4461
2026-01-10 12:00:15.01	161.48	8.65	-38.1	-40.1	14.1	5.70e-06	0	52	0	116391936	48	4387
2026-01-10 12:00:16.02	161.49	8.73	-37.8	-39.9	14.3	1.10e-06	0	52	0	121634816	47	4502
2026-01-10 12:00:17.02	161.49	8.82	-38.0	-40.1	14.1	1.10e-06	0	53	0	126877696	47	4607
2026-01-10 12:00:18.03	161.50	8.90	-37.5	-39.5	14.7	1.10e-06	0	52	0	133169152	47	4310
2026-01-10 12:00:19.04	161.50	8.99	-37.6	-39.5	14.6	1.10e-06	0	53	0	138412032	47	4328
2026-01-10 12:00:20.05	161.51	9.07	-37.8	-39.8	14.4	0.00e+00	0	52	0	144703488	47	4484
2026-01-10 12:00:21.06	161.51	9.16	-37.7	-39.7	14.5	3.40e-06	0	53	0	149946368	47	4436
2026-01-10 12:00:22.07	161.52	9.24	-37.9	-39.9	14.3	0.00e+00	0	53	0	155189248	47	4523
2026-01-10 12:00:23.08	161.52	9.33	-37.9	-39.9	14.4	1.10e-06	0	53	0	161480704	47	4504
2026-01-10 12:00:24.09	161.53	9.41	-37.7	-39.7	14.6	1.10e-06	0	53	0	166723584	47	4414
2026-01-10 12:00:25.10	161.53	9.50	-37.7	-39.7	14.5	0.00e+00	0	53	0	173015040	47	4435
2026-01-10 12:00:26.11	161.54	9.59	-37.8	-39.8	14.5	1.10e-06	0	53	0	178257920	47	4452
2026-01-10 12:00:27.12	161.54	9.67	-37.8	-39.7	14.6	0.00e+00	0	53	0	183500800	47	4434
2026-01-10 12:00:28.13	161.55	9.76	-37.8	-39.9	14.5	1.10e-06	0	53	0	189792256	47	4494
2026-01-10 12:00:29.14	161.55	9.85	-37.8	-39.8	14.6	0.00e+00	0	53	0	195035136	47	4447
2026-01-10 12:00:30.15	161.55	9.94	-37.8	-39.9	14.5	1.10e-06	0	53	0	201326592	47	4496
2026-01-10 12:00:31.16	161.56	10.02	-37.8	-39.7	14.6	1.10e-06	0	53	0	206569472	47	4431
2026-01-10 12:00:32.17	161.56	10.11	-37.8	-39.8	14.6	0.00e+00	0	53	0	212860928	47	4475
2026-01-10 12:00:33.18	161.57	10.20	-37.8	-39.7	14.7	0.00e+00	0	53	0	218103808	47	4427
2026-01-10 12:00:34.19	161.57	10.29	-37.7	-39.7	14.7	1.10e-06	0	53	0	224395264	47	4396
2026-01-10 12:00:35.20	161.58	10.38	-37.8	-39.8	14.6	1.10e-06	0	53	0	229638144	47	4456
2026-01-10 12:00:36.21	161.58	10.47	-37.6	-39.5	14.9	0.00e+00	0	53	0	234881024	47	4316
2026-01-10 12:00:37.22	161.59	10.56	-37.5	-39.4	15.0	0.00e+00	0	53	0	241172480	47	4274
2026-01-10 12:00:38.23	161.59	10.65	-37.6	-39.5	14.9	0.00e+00	0	53	0	246415360	47	4340
2026-01-10 12:00:39.24	161.60	10.74	-37.5	-39.4	15.0	0.00e+00	0	53	0	252706816	47	4280
2026-01-10 12:00:40.25	161.60	10.83	-37.6	-39.6	14.9	0.00e+00	0	53	0	257949696	47	4346
2026-01-10 12:00:41.26	161.61	10.92	-37.5	-39.4	15.1	0.00e+00	0	53	0	263192576	46	4520
2026-01-10 12:00:42.26	161.61	11.02	-37.6	-39.6	14.9	0.00e+00	0	53	0	269484032	46	4607
2026-01-10 12:00:43.28	161.62	11.11	-37.6	-39.5	15.0	0.00e+00	0	53	0	274726912	46	4588
2026-01-10 12:00:44.29	161.62	11.20	-37.6	-39.5	15.0	0.00e+00	0	54	0	281018368	46	4584
2026-01-10 12:00:45.30	161.63	11.29	-37.5	-39.4	15.1	0.00e+00	0	53	0	286261248	46	4535
2026-01-10 12:00:46.31	161.63	11.39	-37.6	-39.5	15.0	0.00e+00	0	54	0	291504128	46	4564
2026-01-10 12:00:47.32	161.64	11.48	-37.5	-39.3	15.2	1.10e-06	0	53	0	297795584	46	4487
2026-01-10 12:00:48.33	161.64	11.58	-37.5	-39.4	15.2	0.00e+00	0	54	0	303038464	46	4508
2026-01-10 12:00:49.34	161.65	11.67	-37.5	-39.4	15.2	0.00e+00	0	54	0	309329920	46	4518
2026-01-10 12:00:50.35	161.65	11.76	-37.5	-39.4	15.2	0.00e+00	0	54	0	314572800	46	4513
2026-01-10 12:00:51.36	161.66	11.86	-37.4	-39.3	15.3	0.00e+00	0	54	0	320864256	46	4467
2026-01-10 12:00:52.37	161.66	11.95	-37.4	-39.3	15.3	0.00e+00	0	54	0	326107136	46	4459
2026-01-10 12:00:53.38	161.67	12.05	-37.4	-39.2	15.4	0.00e+00	0	54	0	331350016	46	4420
2026-01-10 12:00:54.39	161.67	12.15	-37.4	-39.3	15.4	0.00e+00	0	54	0	337641472	46	4444
2026-01-10 12:00:55.40	161.68	12.24	-37.4	-39.2	15.4	0.00e+00	0	54	0	342884352	46	4415
2026-01-10 12:00:56.41	161.68	12.34	-37.2	-39.0	15.6	0.00e+00	0	54	0	349175808	46	4339
2026-01-10 12:00:57.41	161.69	12.44	-37.3	-39.1	15.5	1.10e-06	0	54	0	354418688	46	4365
2026-01-10 12:00:58.42	161.70	12.53	-37.2	-39.0	15.6	0.00e+00	0	54	0	359661568	46	4321
2026-01-10 12:00:59.43	161.70	12.63	-37.2	-39.0	15.7	0.00e+00	0	54	0	365953024	46	4298
2026-01-10 12:01:00.44	161.71	12.73	-37.2	-39.0	15.7	0.00e+00	0	54	0	371195904	46	4309
2026-01-10 12:01:01.45	161.71	12.83	-37.2	-39.0	15.7	0.00e+00	0	54	0	377487360	46	4294
2026-01-10 12:01:02.46	161.72	12.93	-37.2	-39.0	15.6	0.00e+00	0	54	0	382730240	46	4324
2026-01-10 12:01:03.47	161.72	13.03	-37.1	-38.8	15.8	0.00e+00	0	54	0	387973120	46	4232
2026-01-10 12:01:04.48	161.73	13.13	-37.1	-38.9	15.8	0.00e+00	0	54	0	394264576	46	4253
2026-01-10 12:01:05.49	161.73	13.23	-37.0	-38.8	15.9	0.00e+00	0	54	0	399507456	46	4201
2026-01-10 12:01:06.50	161.74	13.33	-37.0	-38.8	15.9	0.00e+00	0	54	0	405798912	45	4459
2026-01-10 12:01:07.51	161.74	13.43	-36.9	-38.6	16.0	0.00e+00	0	54	0	411041792	45	4379
2026-01-10 12:01:08.52	161.75	13.53	-37.1	-38.9	15.8	0.00e+00	0	54	0	417333248	45	4506
2026-01-10 12:01:09.53	161.75	13.64	-37.0	-38.7	16.0	0.00e+00	0	54	0	422576128	45	4426
2026-01-10 12:01:10.54	161.76	13.74	-36.9	-38.6	16.1	0.00e+00	0	54	0	428867584	45	4377
2026-01-10 12:01:11.55	161.76	13.84	-36.9	-38.6	16.1	0.00e+00	0	54	0	434110464	45	4351
2026-01-10 12:01:12.56	161.77	13.95	-36.8	-38.6	16.1	0.00e+00	0	54	0	439353344	45	4343
2026-01-10 12:01:13.57	161.78	14.05	-36.8	-38.5	16.2	0.00e+00	0	54	0	445644800	45	4331
2026-01-10 12:01:14.57	161.78	14.15	-36.8	-38.5	16.2	0.00e+00	0	54	0	450887680	45	4332
2026-01-10 12:01:15.58	161.79	14.26	-36.7	-38.4	16.3	0.00e+00	0	54	0	457179136	45	4280
2026-01-10 12:01:16.59	161.79	14.36	-36.8	-38.5	16.3	0.00e+00	0	54	0	462422016	45	4294
2026-01-10 12:01:17.60	161.80	14.47	-36.7	-38.4	16.3	0.00e+00	0	54	0	467664896	45	4282
2026-01-10 12:01:18.61	161.80	14.58	-36.7	-38.3	16.4	0.00e+00	0	54	0	473956352	45	4238
2026-01-10 12:01:19.62	161.81	14.68	-36.7	-38.4	16.4	0.00e+00	0	54	0	479199232	45	4243
2026-01-10 12:01:20.63	161.81	14.79	-36.6	-38.3	16.4	0.00e+00	0	54	0	484442112	45	4216
2026-01-10 12:01:21.64	161.82	14.90	-36.7	-38.3	16.4	0.00e+00	0	54	0	490733568	45	4236
2026-01-10 12:01:22.65	161.83	15.01	-36.6	-38.3	16.5	0.00e+00	0	54	0	495976448	45	4210
2026-01-10 12:01:23.66	161.83	15.11	-36.6	-38.3	16.5	0.00e+00	0	55	0	502267904	45	4200
2026-01-10 12:01:24.67	161.84	15.22	-36.5	-38.1	16.6	0.00e+00	0	54	0	507510784	45	4140
2026-01-10 12:01:25.68	161.84	15.33	-36.6	-38.3	16.5	0.00e+00	0	54	0	513802240	45	4203
2026-01-10 12:01:26.69	161.85	15.44	-36.5	-38.1	16.6	0.00e+00	0	54	0	519045120	45	4144
2026-01-10 12:01:27.70	161.85	15.55	-36.5	-38.1	16.6	0.00e+00	0	54	0	525336576	45	4136
2026-01-10 12:01:28.71	161.86	15.66	-36.6	-38.2	16.6	0.00e+00	0	54	0	530579456	45	4169
2026-01-10 12:01:29.72	161.87	15.78	-36.5	-38.2	16.6	0.00e+00	0	54	0	535822336	45	4148
2026-01-10 12:01:30.73	161.87	15.89	-36.4	-38.1	16.7	0.00e+00	0	54	0	542113792	44	4353
2026-01-10 12:01:31.74	161.88	16.00	-36.4	-38.1	16.7	0.00e+00	0	54	0	547356672	44	4341
2026-01-10 12:01:32.75	161.88	16.11	-36.5	-38.1	16.7	0.00e+00	0	55	0	553648128	44	4381
2026-01-10 12:01:33.76	161.89	16.23	-36.4	-38.0	16.8	0.00e+00	0	54	0	558891008	44	4312
2026-01-10 12:01:34.77	161.89	16.34	-36.4	-38.0	16.8	0.00e+00	0	54	0	564133888	44	4303
2026-01-10 12:01:35.78	161.90	16.46	-36.3	-38.0	16.9	0.00e+00	0	54	0	570425344	44	4293
2026-01-10 12:01:36.79	161.91	16.57	-36.3	-37.9	16.9	0.00e+00	0	55	0	575668224	44	4254
2026-01-10 12:01:37.80	161.91	16.69	-36.2	-37.8	17.0	0.00e+00	0	54	0	581959680	44	4220
2026-01-10 12:01:38.81	161.92	16.81	-36.2	-37.8	17.0	0.00e+00	0	55	0	587202560	44	4224
2026-01-10 12:01:39.82	161.92	16.92	-36.2	-37.8	17.0	0.00e+00	0	54	0	592445440	44	4220
2026-01-10 12:01:40.82	161.93	17.04	-36.1	-37.7	17.1	0.00e+00	0	55	0	598736896	44	4172
2026-01-10 12:01:41.83	161.94	17.16	-36.2	-37.8	17.0	0.00e+00	0	55	0	603979776	44	4196
2026-01-10 12:01:42.84	161.94	17.28	-36.1	-37.6	17.2	0.00e+00	0	54	0	610271232	44	4139
2026-01-10 12:01:43.85	161.95	17.39	-36.0	-37.6	17.3	0.00e+00	0	55	0	615514112	44	4106
2026-01-10 12:01:44.86	161.95	17.51	-36.0	-37.6	17.3	0.00e+00	0	55	0	621805568	44	4109
2026-01-10 12:01:45.87	161.96	17.64	-35.8	-37.3	17.3	0.00e+00	0	55	0	627048448	43	4236
2026-01-10 12:01:46.88	161.97	17.76	-35.8	-37.3	17.4	0.00e+00	0	55	0	632291328	43	4214
2026-01-10 12:01:47.89	161.97	17.88	-35.7	-37.2	17.5	0.00e+00	0	54	0	638582784	43	4177
2026-01-10 12:01:48.90	161.98	18.00	-35.7	-37.2	17.5	0.00e+00	0	55	0	643825664	43	4169
2026-01-10 12:01:49.91	161.99	18.12	-35.6	-37.1	17.6	0.00e+00	0	55	0	650117120	43	4126
2026-01-10 12:01:50.92	161.99	18.25	-35.6	-37.1	17.5	0.00e+00	0	55	0	655360000	43	4138
2026-01-10 12:01:51.93	162.00	18.37	-35.6	-37.0	17.6	0.00e+00	0	55	0	661651456	43	4094
2026-01-10 12:01:52.94	162.00	18.50	-35.5	-37.0	17.7	0.00e+00	0	55	0	666894336	43	4073
2026-01-10 12:01:53.95	162.01	18.62	-35.5	-37.0	17.7	0.00e+00	0	55	0	672137216	43	4065
2026-01-10 12:01:54.96	162.02	18.75	-35.5	-36.9	17.8	0.00e+00	0	55	0	678428672	42	4278
2026-01-10 12:01:55.97	162.02	18.87	-35.4	-36.9	17.8	0.00e+00	0	55	0	683671552	42	4269
2026-01-10 12:01:56.98	162.03	19.00	-35.4	-36.8	17.9	0.00e+00	0	55	0	689963008	42	4240
2026-01-10 12:01:57.99	162.04	19.13	-35.3	-36.8	17.9	0.00e+00	0	55	0	695205888	42	4216
2026-01-10 12:01:59.00	162.04	19.26	-35.3	-36.8	18.0	0.00e+00	0	55	0	700448768	42	4196
2026-01-10 12:02:00.01	162.05	19.39	-35.3	-36.7	18.0	0.00e+00	0	55	0	706740224	42	4171
2026-01-10 12:02:01.02	162.06	19.52	-35.3	-36.7	18.0	0.00e+00	0	55	0	711983104	42	4168
2026-01-10 12:02:02.03	162.06	19.65	-35.2	-36.6	18.1	0.00e+00	0	55	0	718274560	42	4118
2026-01-10 12:02:03.04	162.07	19.78	-35.2	-36.6	18.1	0.00e+00	0	55	0	723517440	42	4128
2026-01-10 12:02:04.05	162.08	19.91	-35.2	-36.6	18.1	0.00e+00	0	55	0	729808896	42	4128
2026-01-10 12:02:05.05	162.08	20.04	-35.2	-36.6	18.1	0.00e+00	0	55	0	735051776	42	4127
2026-01-10 12:02:06.06	162.09	20.18	-35.2	-36.6	18.1	0.00e+00	0	55	0	740294656	42	4119
2026-01-10 12:02:07.07	162.10	20.31	-35.2	-36.6	18.1	0.00e+00	0	55	0	746586112	42	4133
2026-01-10 12:02:08.08	162.10	20.45	-35.1	-36.6	18.1	0.00e+00	0	55	0	751828992	42	4108
2026-01-10 12:02:09.10	162.11	20.58	-35.1	-36.6	18.1	0.00e+00	0	55	0	758120448	42	4102
2026-01-10 12:02:10.10	162.12	20.72	-35.2	-36.6	18.1	0.00e+00	0	55	0	763363328	42	4125
2026-01-10 12:02:11.11	162.12	20.86	-35.1	-36.6	18.2	0.00e+00	0	55	0	768606208	42	4104
2026-01-10 12:02:12.12	162.13	20.99	-35.1	-36.5	18.2	0.00e+00	0	55	0	774897664	42	4075
2026-01-10 12:02:13.13	162.14	21.13	-35.1	-36.5	18.2	0.00e+00	0	55	0	780140544	42	4081
2026-01-10 12:02:14.14	162.15	21.27	-35.1	-36.5	18.2	0.00e+00	0	55	0	786432000	42	4067
2026-01-10 12:02:15.16	162.15	21.41	-35.0	-36.5	18.2	0.00e+00	0	55	0	791674880	42	4064
2026-01-10 12:02:16.17	162.16	21.55	-35.1	-36.5	18.2	0.00e+00	0	55	0	796917760	42	4088
2026-01-10 12:02:17.18	162.17	21.70	-35.1	-36.5	18.2	0.00e+00	0	55	0	803209216	42	4074
2026-01-10 12:02:18.19	162.17	21.84	-35.1	-36.6	18.2	0.00e+00	0	55	0	808452096	42	4109
2026-01-10 12:02:19.20	162.18	21.98	-35.2	-36.6	18.1	0.00e+00	0	55	0	814743552	42	4136
2026-01-10 12:02:20.21	162.19	22.13	-35.2	-36.6	18.1	0.00e+00	0	55	0	819986432	42	4130
2026-01-10 12:02:21.21	162.20	22.27	-35.2	-36.6	18.1	0.00e+00	0	55	0	826277888	42	4129
2026-01-10 12:02:22.23	162.20	22.42	-35.2	-36.7	18.1	0.00e+00	0	55	0	831520768	42	4153
2026-01-10 12:02:23.24	162.21	22.56	-35.2	-36.6	18.1	0.00e+00	0	55	0	837812224	42	4131
2026-01-10 12:02:24.25	162.22	22.71	-35.1	-36.6	18.1	0.00e+00	0	55	0	843055104	42	4116
2026-01-10 12:02:25.26	162.23	22.86	-35.1	-36.6	18.1	0.00e+00	0	55	0	848297984	42	4119
2026-01-10 12:02:26.27	162.23	23.01	-35.1	-36.6	18.1	0.00e+00	0	55	0	854589440	42	4103
2026-01-10 12:02:27.28	162.24	23.16	-35.0	-36.5	18.2	0.00e+00	0	55	0	859832320	42	4061
2026-01-10 12:02:28.28	162.25	23.31	-35.1	-36.5	18.2	0.00e+00	0	55	0	866123776	42	4077
2026-01-10 12:02:29.30	162.26	23.46	-35.1	-36.5	18.2	0.00e+00	0	55	0	871366656	42	4085
2026-01-10 12:02:30.31	162.26	23.62	-35.1	-36.5	18.2	0.00e+00	0	55	0	876609536	42	4079
2026-01-10 12:02:31.32	162.27	23.77	-35.1	-36.5	18.2	0.00e+00	0	55	0	882900992	42	4072
2026-01-10 12:02:32.33	162.28	23.92	-35.0	-36.5	18.2	0.00e+00	0	55	0	888143872	42	4063
2026-01-10 12:02:33.34	162.29	24.08	-35.0	-36.5	18.2	0.00e+00	0	55	0	894435328	42	4057
2026-01-10 12:02:34.35	162.29	24.24	-35.0	-36.4	18.3	0.00e+00	0	55	0	899678208	42	4042
2026-01-10 12:02:35.36	162.30	24.39	-34.9	-36.3	18.4	0.00e+00	0	55	0	904921088	41	4228
2026-01-10 12:02:36.37	162.31	24.55	-34.8	-36.2	18.5	0.00e+00	0	55	0	911212544	41	4169
2026-01-10 12:02:37.38	162.32	24.71	-34.8	-36.2	18.5	0.00e+00	0	55	0	916455424	41	4150
2026-01-10 12:02:38.39	162.33	24.87	-34.7	-36.1	18.6	0.00e+00	0	55	0	922746880	41	4105
2026-01-10 12:02:39.40	162.33	25.03	-34.7	-36.0	18.7	0.00e+00	0	55	0	927989760	41	4089
2026-01-10 12:02:40.41	162.34	25.20	-34.7	-36.1	18.7	0.00e+00	0	55	0	934281216	41	4101
2026-01-10 12:02:41.42	162.35	25.36	-34.7	-36.0	18.7	0.00e+00	0	55	0	939524096	41	4096
2026-01-10 12:02:42.43	162.36	25.52	-34.7	-36.0	18.7	0.00e+00	0	55	0	944766976	41	4096
2026-01-10 12:02:43.43	162.37	25.69	-34.7	-36.0	18.7	0.00e+00	0	55	0	951058432	41	4086
2026-01-10 12:02:44.44	162.38	25.85	-34.7	-36.0	18.7	0.00e+00	0	55	0	956301312	41	4095
2026-01-10 12:02:45.45	162.38	26.02	-34.7	-36.1	18.6	0.00e+00	0	55	0	962592768	41	4104
2026-01-10 12:02:46.46	162.39	26.19	-34.6	-36.0	18.7	0.00e+00	0	55	0	967835648	41	4068
2026-01-10 12:02:47.48	162.40	26.36	-34.6	-36.0	18.7	0.00e+00	0	55	0	973078528	41	4061
2026-01-10 12:02:48.49	162.41	26.53	-34.6	-36.0	18.8	0.00e+00	0	55	0	979369984	41	4052
2026-01-10 12:02:49.50	162.42	26.70	-34.6	-35.9	18.8	0.00e+00	0	55	0	984612864	41	4040
2026-01-10 12:02:50.51	162.43	26.88	-34.6	-35.9	18.8	0.00e+00	0	55	0	990904320	41	4029
2026-01-10 12:02:51.52	162.44	27.05	-34.6	-35.9	18.8	0.00e+00	0	55	0	996147200	41	4046
2026-01-10 12:02:52.52	162.45	27.22	-34.6	-35.9	18.8	0.00e+00	0	55	0	1001390080	41	4042
2026-01-10 12:02:53.53	162.45	27.40	-34.6	-35.9	18.8	0.00e+00	0	55	0	1007681536	41	4049
2026-01-10 12:02:54.55	162.46	27.58	-34.6	-36.0	18.8	0.00e+00	0	55	0	1012924416	41	4057
2026-01-10 12:02:55.56	162.47	27.76	-34.6	-36.0	18.7	0.00e+00	0	55	0	1019215872	41	4064
2026-01-10 12:02:56.57	162.48	27.94	-34.7	-36.0	18.7	0.00e+00	0	55	0	1024458752	41	4090
2026-01-10 12:02:57.58	162.49	28.12	-34.7	-36.0	18.7	0.00e+00	0	55	0	1030750208	41	4093
2026-01-10 12:02:58.59	162.50	28.30	-34.7	-36.0	18.7	0.00e+00	0	55	0	1035993088	41	4086
2026-01-10 12:02:59.60	162.51	28.48	-34.6	-36.0	18.7	0.00e+00	0	55	0	1042284544	41	4076
2026-01-10 12:03:00.60	162.52	28.67	-34.6	-36.0	18.7	0.00e+00	0	55	0	1047527424	41	4072
2026-01-10 12:03:01.61	162.53	28.85	-34.6	-36.0	18.8	0.00e+00	0	55	0	1052770304	41	4052
2026-01-10 12:03:02.62	162.54	29.04	-34.6	-35.9	18.8	0.00e+00	0	55	0	1059061760	41	4037
2026-01-10 12:03:03.63	162.55	29.23	-34.5	-35.9	18.9	0.00e+00	0	56	0	1064304640	41	4011
2026-01-10 12:03:04.64	162.56	29.42	-34.5	-35.9	18.8	0.00e+00	0	55	0	1070596096	41	4013
2026-01-10 12:03:05.65	162.57	29.61	-34.5	-35.8	18.9	0.00e+00	0	56	0	1075838976	41	4000
2026-01-10 12:03:06.66	162.58	29.80	-34.5	-35.8	18.9	0.00e+00	0	55	0	1081081856	40	4222
2026-01-10 12:03:07.67	162.59	29.99	-34.4	-35.8	19.0	0.00e+00	0	56	0	1087373312	40	4206
2026-01-10 12:03:08.68	162.60	30.19	-34.4	-35.8	19.0	0.00e+00	0	55	0	1092616192	40	4208
2026-01-10 12:03:09.69	162.61	30.38	-34.4	-35.8	19.0	0.00e+00	0	56	0	1098907648	40	4205
2026-01-10 12:03:10.70	162.62	30.58	-34.4	-35.7	19.0	0.00e+00	0	56	0	1104150528	40	4189
2026-01-10 12:03:11.71	162.63	30.78	-34.4	-35.7	19.0	0.00e+00	0	55	0	1109393408	40	4177
2026-01-10 12:03:12.72	162.64	30.98	-34.4	-35.7	19.0	0.00e+00	0	56	0	1115684864	40	4170
2026-01-10 12:03:13.73	162.65	31.18	-34.3	-35.6	19.1	0.00e+00	0	56	0	1120927744	40	4139
2026-01-10 12:03:14.74	162.66	31.38	-34.2	-35.6	19.2	0.00e+00	0	55	0	1127219200	40	4100
2026-01-10 12:03:15.75	162.67	31.59	-34.2	-35.5	19.2	0.00e+00	0	55	0	1132462080	40	4069
2026-01-10 12:03:16.76	162.68	31.79	-34.1	-35.4	19.3	0.00e+00	0	55	0	1138753536	40	4038
2026-01-10 12:03:17.77	162.69	32.00	-34.1	-35.4	19.3	0.00e+00	0	55	0	1143996416	40	4021
2026-01-10 12:03:18.78	162.70	32.21	-34.1	-35.4	19.3	0.00e+00	0	55	0	1150287872	40	4019
2026-01-10 12:03:19.79	162.71	32.42	-34.1	-35.4	19.3	0.00e+00	0	56	0	1155530752	40	4032
2026-01-10 12:03:20.80	162.72	32.63	-34.2	-35.5	19.2	0.00e+00	0	55	0	1160773632	40	4088
2026-01-10 12:03:21.81	162.74	32.84	-34.3	-35.6	19.1	0.00e+00	0	56	0	1167065088	40	4141
2026-01-10 12:03:22.82	162.75	33.06	-34.4	-35.7	19.0	0.00e+00	0	56	0	1172307968	40	4193
2026-01-10 12:03:23.83	162.76	33.27	-34.4	-35.8	19.0	0.00e+00	0	56	0	1177550848	40	4197
2026-01-10 12:03:24.84	162.77	33.49	-34.4	-35.7	19.0	0.00e+00	0	56	0	1183842304	40	4180
2026-01-10 12:03:25.84	162.78	33.71	-34.3	-35.6	19.1	0.00e+00	0	56	0	1189085184	40	4144
2026-01-10 12:03:26.85	162.79	33.93	-34.2	-35.5	19.2	0.00e+00	0	56	0	1195376640	40	4076
2026-01-10 12:03:27.86	162.81	34.15	-34.1	-35.4	19.3	0.00e+00	0	56	0	1200619520	40	4048
2026-01-10 12:03:28.88	162.82	34.38	-34.0	-35.4	19.4	0.00e+00	0	55	0	1205862400	40	4007
2026-01-10 12:03:29.88	162.83	34.60	-34.1	-35.4	19.3	0.00e+00	0	56	0	1212153856	40	4023
2026-01-10 12:03:30.89	162.84	34.83	-34.2	-35.5	19.3	0.00e+00	0	56	0	1217396736	40	4065
2026-01-10 12:03:31.90	162.85	35.06	-34.3	-35.6	19.1	0.00e+00	0	56	0	1223688192	40	4133
2026-01-10 12:03:32.91	162.87	35.29	-34.4	-35.7	19.0	0.00e+00	0	56	0	1228931072	40	4172
2026-01-10 12:03:33.92	162.88	35.52	-34.4	-35.7	19.0	0.00e+00	0	56	0	1235222528	40	4173
2026-01-10 12:03:34.93	162.89	35.75	-34.2	-35.6	19.2	0.00e+00	0	56	0	1240465408	40	4106
2026-01-10 12:03:35.94	162.91	35.99	-34.0	-35.3	19.4	0.00e+00	0	56	0	1246756864	40	3995
2026-01-10 12:03:36.95	162.92	36.23	-33.9	-35.2	19.7	0.00e+00	0	56	0	1251999744	39	4161
2026-01-10 12:03:37.96	162.93	36.46	-33.8	-35.0	19.8	0.00e+00	0	56	0	1257242624	39	4087
2026-01-10 12:03:38.97	162.95	36.71	-33.8	-35.0	19.8	0.00e+00	0	56	0	1263534080	39	4085
2026-01-10 12:03:39.98	162.96	36.95	-33.8	-35.0	19.8	0.00e+00	0	56	0	1268776960	39	4083
2026-01-10 12:03:40.99	162.97	37.19	-33.8	-35.0	19.8	0.00e+00	0	56	0	1275068416	39	4071
2026-01-10 12:03:42.00	162.99	37.44	-33.8	-35.1	19.8	0.00e+00	0	56	0	1280311296	39	4110
2026-01-10 12:03:43.01	163.00	37.69	-33.9	-35.1	19.7	0.00e+00	0	56	0	1285554176	39	4142
2026-01-10 12:03:44.02	163.01	37.94	-33.9	-35.2	19.6	0.00e+00	0	56	0	1291845632	39	4169
2026-01-10 12:03:45.03	163.03	38.19	-34.0	-35.3	19.6	0.00e+00	0	56	0	1297088512	39	4197
2026-01-10 12:03:46.04	163.04	38.44	-34.0	-35.3	19.5	0.00e+00	0	56	0	1303379968	39	4227
2026-01-10 12:03:47.05	163.06	38.70	-34.1	-35.5	19.4	0.00e+00	0	56	0	1308622848	39	4292
2026-01-10 12:03:48.06	163.07	38.96	-34.2	-35.5	19.4	0.00e+00	0	56	0	1313865728	39	4340
2026-01-10 12:03:49.07	163.09	39.22	-34.2	-35.5	19.4	0.00e+00	0	56	0	1320157184	39	4311
2026-01-10 12:03:50.08	163.10	39.48	-34.2	-35.5	19.4	0.00e+00	0	56	0	1325400064	39	4296
2026-01-10 12:03:51.09	163.12	39.74	-34.3	-35.5	19.3	0.00e+00	0	56	0	1331691520	39	4334
2026-01-10 12:03:52.10	163.13	40.01	-34.4	-35.7	19.2	0.00e+00	0	56	0	1336934400	39	4394
2026-01-10 12:03:53.11	163.15	40.27	-34.5	-35.8	19.1	0.00e+00	0	56	0	1343225856	39	4465
2026-01-10 12:03:54.12	163.17	40.54	-34.5	-35.8	19.1	0.00e+00	0	56	0	1348468736	39	4493
2026-01-10 12:03:55.13	163.18	40.81	-34.6	-35.9	19.0	0.00e+00	0	56	0	1354760192	39	4535
2026-01-10 12:03:56.14	163.20	41.09	-34.7	-36.1	18.8	0.00e+00	0	56	0	1360003072	39	4618
2026-01-10 12:03:57.15	163.22	41.36	-34.8	-36.2	18.6	0.00e+00	0	56	0	1365245952	40	4423
2026-01-10 12:03:58.15	163.23	41.64	-34.8	-36.2	18.6	0.00e+00	0	56	0	1371537408	40	4404
2026-01-10 12:03:59.17	163.25	41.92	-34.7	-36.0	18.8	0.00e+00	0	56	0	1376780288	40	4328
2026-01-10 12:04:00.17	163.27	42.20	-34.6	-36.0	18.8	0.00e+00	0	56	0	1382023168	40	4313
2026-01-10 12:04:01.18	163.29	42.48	-34.7	-36.1	18.8	0.00e+00	0	56	0	1388314624	40	4360
2026-01-10 12:04:02.19	163.30	42.77	-34.7	-36.1	18.8	0.00e+00	0	56	0	1393557504	40	4342
2026-01-10 12:04:03.20	163.32	43.06	-34.6	-35.9	18.9	0.00e+00	0	56	0	1399848960	40	4272
2026-01-10 12:04:04.21	163.34	43.35	-34.5	-35.8	19.1	0.00e+00	0	56	0	1405091840	40	4214
2026-01-10 12:04:05.22	163.36	43.64	-34.4	-35.7	19.2	0.00e+00	0	56	0	1410334720	40	4164
2026-01-10 12:04:06.23	163.38	43.94	-34.2	-35.5	19.4	0.00e+00	0	56	0	1416626176	40	4082
2026-01-10 12:04:07.24	163.40	44.24	-34.2	-35.5	19.4	0.00e+00	0	56	0	1421869056	40	4057
2026-01-10 12:04:08.25	163.42	44.54	-34.2	-35.5	19.4	0.00e+00	0	56	0	1428160512	40	4072
2026-01-10 12:04:09.26	163.44	44.84	-34.5	-35.8	19.1	0.00e+00	0	56	0	1433403392	40	4211
2026-01-10 12:04:10.27	163.46	45.14	-34.5	-35.8	19.1	0.00e+00	0	56	0	1439694848	40	4225
2026-01-10 12:04:11.28	163.48	45.45	-34.4	-35.7	19.3	0.00e+00	0	56	0	1444937728	40	4149
2026-01-10 12:04:12.29	163.50	45.76	-34.2	-35.4	19.5	0.00e+00	0	56	0	1451229184	40	4039
2026-01-10 12:04:13.30	163.52	46.07	-34.2	-35.4	19.5	0.00e+00	0	56	0	1456472064	40	4048
2026-01-10 12:04:14.31	163.54	46.38	-34.4	-35.7	19.3	0.00e+00	0	56	0	1461714944	40	4179
2026-01-10 12:04:15.32	163.56	46.70	-34.5	-35.9	19.1	0.00e+00	0	56	0	1468006400	40	4248
2026-01-10 12:04:16.33	163.59	47.02	-34.4	-35.7	19.3	0.00e+00	0	56	0	1473249280	40	4154
2026-01-10 12:04:17.34	163.61	47.34	-34.2	-35.5	19.5	0.00e+00	0	56	0	1479540736	40	4067
2026-01-10 12:04:18.35	163.63	47.66	-34.0	-35.2	19.7	0.00e+00	0	56	0	1484783616	40	3955
2026-01-10 12:04:19.36	163.66	47.99	-34.0	-35.2	19.8	0.00e+00	0	56	0	1490026496	40	3942
2026-01-10 12:04:20.37	163.68	48.32	-34.1	-35.4	19.6	0.00e+00	0	56	0	1496317952	40	4011
2026-01-10 12:04:21.38	163.71	48.65	-34.3	-35.5	19.5	0.00e+00	0	56	0	1501560832	40	4077
2026-01-10 12:04:22.39	163.73	48.98	-34.4	-35.6	19.4	0.00e+00	0	56	0	1507852288	40	4145
2026-01-10 12:04:23.40	163.76	49.32	-34.3	-35.5	19.5	0.00e+00	0	56	0	1513095168	40	4087
2026-01-10 12:04:24.40	163.78	49.65	-34.3	-35.6	19.4	0.00e+00	0	56	0	1518338048	40	4116
2026-01-10 12:04:25.41	163.81	49.99	-34.6	-35.9	19.1	0.00e+00	0	56	0	1524629504	40	4275
2026-01-10 12:04:26.42	163.84	50.34	-34.8	-36.2	18.9	0.00e+00	0	56	0	1529872384	40	4393
2026-01-10 12:04:27.43	163.86	50.68	-34.8	-36.1	18.9	0.00e+00	0	56	0	1536163840	40	4364
2026-01-10 12:04:28.44	163.89	51.03	-34.8	-36.1	18.9	0.00e+00	0	56	0	1541406720	40	4359
2026-01-10 12:04:29.45	163.92	51.38	-35.0	-36.3	18.7	0.00e+00	0	56	0	1547698176	40	4486
2026-01-10 12:04:30.46	163.95	51.74	-35.4	-36.8	18.3	0.00e+00	0	56	0	1552941056	41	4456
2026-01-10 12:04:31.47	163.98	52.10	-35.9	-37.4	17.6	0.00e+00	0	56	0	1558183936	42	4540
2026-01-10 12:04:32.48	164.01	52.45	-36.2	-37.7	17.4	0.00e+00	0	56	0	1564475392	42	4700
2026-01-10 12:04:33.49	164.04	52.82	-35.7	-37.2	17.9	0.00e+00	0	56	0	1569718272	42	4405
2026-01-10 12:04:34.50	164.07	53.18	-35.4	-36.8	18.3	0.00e+00	0	56	0	1576009728	42	4199
2026-01-10 12:04:35.51	164.11	53.55	-35.5	-36.9	18.1	0.00e+00	0	56	0	1581252608	42	4283
2026-01-10 12:04:36.52	164.14	53.92	-35.8	-37.3	17.8	0.00e+00	0	56	0	1586495488	42	4445
2026-01-10 12:04:37.53	164.17	54.29	-36.0	-37.6	17.5	0.00e+00	0	56	0	1592786944	42	4606
2026-01-10 12:04:38.55	164.21	54.67	-36.0	-37.5	17.5	0.00e+00	0	56	0	1598029824	42	4575
2026-01-10 12:04:39.56	164.25	55.05	-35.6	-37.1	18.0	0.00e+00	0	56	0	1604321280	42	4356
2026-01-10 12:04:40.56	164.28	55.43	-35.3	-36.7	18.4	0.00e+00	0	56	0	1609564160	42	4174
2026-01-10 12:04:41.57	164.32	55.81	-35.4	-36.7	18.3	0.00e+00	0	56	0	1614807040	42	4187
2026-01-10 12:04:42.58	164.36	56.19	-35.6	-37.1	18.0	0.00e+00	0	56	0	1621098496	42	4344
2026-01-10 12:04:43.59	164.40	56.58	-35.2	-36.6	18.5	0.00e+00	0	56	0	1626341376	42	4101
2026-01-10 12:04:44.60	164.44	56.97	-34.8	-36.1	18.9	0.00e+00	0	56	0	1632632832	41	4104
2026-01-10 12:04:45.61	164.48	57.37	-35.0	-36.3	18.7	0.00e+00	0	56	0	1637875712	41	4231
2026-01-10 12:04:46.62	164.52	57.77	-35.3	-36.7	18.3	0.00e+00	0	56	0	1644167168	41	4399
2026-01-10 12:04:47.63	164.57	58.17	-35.0	-36.4	18.6	0.00e+00	0	56	0	1649410048	41	4270
2026-01-10 12:04:48.64	164.61	58.57	-34.6	-35.9	19.0	0.00e+00	0	56	0	1655701504	41	4029
2026-01-10 12:04:49.65	164.66	58.97	-34.8	-36.1	18.9	0.00e+00	0	56	0	1660944384	41	4120
2026-01-10 12:04:50.66	164.71	59.38	-34.8	-36.1	18.8	0.00e+00	0	56	0	1666187264	41	4128
2026-01-10 12:04:51.67	164.76	59.79	-34.3	-35.6	19.4	0.00e+00	0	56	0	1672478720	40	4110
2026-01-10 12:04:52.68	164.81	60.20	-34.1	-35.4	19.6	0.00e+00	0	56	0	1677721600	40	4013
2026-01-10 12:04:53.69	164.86	60.62	-34.6	-35.9	19.1	0.00e+00	0	56	0	1684013056	40	4283
2026-01-10 12:04:54.70	164.92	61.04	-34.7	-36.0	19.0	0.00e+00	0	56	0	1689255936	40	4325
2026-01-10 12:04:55.71	164.97	61.46	-34.3	-35.6	19.4	0.00e+00	0	56	0	1694498816	40	4107
2026-01-10 12:04:56.72	165.03	61.88	-34.2	-35.5	19.5	0.00e+00	0	56	0	1700790272	40	4058
2026-01-10 12:04:57.74	165.09	62.31	-34.3	-35.6	19.4	0.00e+00	0	56	0	1706033152	40	4100
2026-01-10 12:04:58.75	165.15	62.74	-34.4	-35.7	19.2	0.00e+00	0	56	0	1712324608	40	4186
2026-01-10 12:04:59.76	165.22	63.18	-34.1	-35.4	19.6	0.00e+00	0	56	0	1717567488	40	4012
2026-01-10 12:05:00.77	165.28	63.61	-33.8	-35.1	19.9	0.00e+00	0	56	0	1722810368	39	4099
2026-01-10 12:05:01.78	165.35	64.05	-33.8	-35.1	19.9	0.00e+00	0	56	0	1729101824	39	4104
2026-01-10 12:05:02.79	165.42	64.49	-33.9	-35.1	19.8	0.00e+00	0	56	0	1734344704	39	4120
2026-01-10 12:05:03.80	165.50	64.93	-33.7	-35.0	20.0	0.00e+00	0	56	0	1740636160	39	4064
2026-01-10 12:05:04.80	165.57	65.37	-33.5	-34.7	20.2	0.00e+00	0	56	0	1745879040	39	3940
2026-01-10 12:05:05.81	165.65	65.82	-33.3	-34.5	20.4	0.00e+00	0	56	0	1752170496	38	4061
2026-01-10 12:05:06.82	165.73	66.27	-33.6	-34.8	20.1	0.00e+00	0	56	0	1757413376	38	4204
2026-01-10 12:05:07.83	165.82	66.72	-33.7	-34.9	20.0	0.00e+00	0	56	0	1763704832	38	4266
2026-01-10 12:05:08.84	165.91	67.17	-33.5	-34.8	20.1	0.00e+00	0	56	0	1768947712	38	4199
2026-01-10 12:05:09.85	166.00	67.63	-33.8	-35.0	19.9	0.00e+00	0	56	0	1774190592	38	4327
2026-01-10 12:05:10.86	166.10	68.09	-33.5	-34.7	20.1	0.00e+00	0	56	0	1780482048	38	4168
2026-01-10 12:05:11.87	166.20	68.55	-33.3	-34.4	20.4	0.00e+00	0	56	0	1785724928	38	4050
2026-01-10 12:05:12.88	166.31	69.02	-33.4	-34.6	20.3	0.00e+00	0	56	0	1790967808	38	4113
2026-01-10 12:05:13.88	166.42	69.48	-33.3	-34.5	20.3	0.00e+00	0	56	0	1797259264	38	4093
2026-01-10 12:05:14.89	166.54	69.95	-33.1	-34.2	20.6	0.00e+00	0	56	0	1802502144	38	3954
2026-01-10 12:05:15.90	166.66	70.42	-33.1	-34.3	20.5	0.00e+00	0	56	0	1808793600	38	3991
2026-01-10 12:05:16.91	166.79	70.89	-33.2	-34.4	20.4	0.00e+00	0	56	0	1814036480	38	4026
2026-01-10 12:05:17.92	166.92	71.36	-32.8	-33.9	20.8	0.00e+00	0	56	0	1819279360	37	4040
2026-01-10 12:05:18.93	167.07	71.84	-32.9	-34.0	20.7	0.00e+00	0	56	0	1825570816	37	4081
2026-01-10 12:05:19.94	167.22	72.32	-32.9	-34.1	20.6	0.00e+00	0	56	0	1830813696	37	4126
2026-01-10 12:05:20.95	167.38	72.80	-32.7	-33.8	20.9	0.00e+00	0	56	0	1837105152	37	4000
2026-01-10 12:05:21.96	167.55	73.28	-32.8	-34.0	20.8	0.00e+00	0	56	0	1842348032	37	4053
2026-01-10 12:05:22.97	167.73	73.77	-32.9	-34.1	20.6	0.00e+00	0	56	0	1848639488	37	4110
2026-01-10 12:05:23.98	167.92	74.26	-32.8	-34.0	20.6	0.00e+00	0	56	0	1853882368	37	4074
2026-01-10 12:05:24.99	168.12	74.74	-32.8	-34.0	20.6	0.00e+00	0	56	0	1860173824	37	4066
2026-01-10 12:05:26.00	168.34	75.23	-32.8	-34.0	20.6	0.00e+00	0	56	0	1865416704	37	4090
2026-01-10 12:05:27.01	168.57	75.73	-32.7	-33.9	20.7	0.00e+00	0	56	0	1870659584	37	4047
2026-01-10 12:05:28.02	168.82	76.22	-32.4	-33.5	21.1	0.00e+00	0	56	0	1876951040	36	4084
2026-01-10 12:05:29.03	169.09	76.71	-32.4	-33.5	21.1	0.00e+00	0	56	0	1882193920	36	4086
2026-01-10 12:05:30.04	169.38	77.21	-32.8	-34.0	20.7	0.00e+00	0	56	0	1888485376	36	4315
2026-01-10 12:05:31.05	169.70	77.71	-32.3	-33.5	21.1	0.00e+00	0	56	0	1893728256	36	4053
2026-01-10 12:05:32.05	170.03	78.20	-31.2	-32.3	21.4	0.00e+00	0	56	0	1898971136	34	3985
2026-01-10 12:05:33.06	170.41	78.70	-31.3	-32.4	21.3	0.00e+00	0	56	0	1905262592	34	4038
2026-01-10 12:05:34.07	170.81	79.20	-31.2	-32.4	21.2	0.00e+00	0	56	0	1910505472	34	4025
2026-01-10 12:05:35.08	171.26	79.70	-31.0	-32.2	21.4	0.00e+00	0	56	0	1916796928	34	3925
2026-01-10 12:05:36.09	171.75	80.20	-30.8	-31.9	21.6	0.00e+00	0	56	0	1922039808	33	4044
2026-01-10 12:05:37.10	172.30	80.71	-31.0	-32.1	21.5	0.00e+00	0	56	0	1927282688	33	4131
2026-01-10 12:05:38.11	172.90	81.21	-31.0	-32.2	21.5	0.00e+00	0	56	0	1933574144	33	4168
2026-01-10 12:05:39.12	173.59	81.71	-30.6	-31.7	22.0	0.00e+00	0	56	0	1938817024	33	3932
2026-01-10 12:05:40.13	174.36	82.21	-30.6	-31.6	22.0	0.00e+00	0	56	0	1945108480	33	3907
2026-01-10 12:05:41.14	175.24	82.72	-30.8	-31.9	21.8	0.00e+00	0	56	0	1950351360	33	4021
2026-01-10 12:05:42.15	176.25	83.22	-30.8	-31.9	21.7	0.00e+00	0	56	0	1956642816	33	4043
2026-01-10 12:05:43.16	177.42	83.72	-30.9	-32.1	21.5	0.00e+00	0	56	0	1961885696	33	4111
2026-01-10 12:05:44.17	178.79	84.21	-30.7	-31.8	21.8	0.00e+00	0	56	0	1967128576	33	3967
2026-01-10 12:05:45.18	180.42	84.71	-30.9	-32.0	21.5	0.00e+00	0	56	0	1973420032	33	4093
2026-01-10 12:05:46.19	182.39	85.20	-31.0	-32.1	21.5	0.00e+00	0	56	0	1978662912	33	4125
2026-01-10 12:05:47.20	184.80	85.68	-30.8	-31.9	21.6	0.00e+00	0	56	0	1984954368	33	4040
2026-01-10 12:05:48.21	187.81	86.15	-31.2	-32.4	21.3	0.00e+00	0	56	0	1990197248	33	4244
2026-01-10 12:05:49.22	191.65	86.61	-31.2	-32.4	21.3	0.00e+00	0	56	0	1995440128	33	4269
2026-01-10 12:05:50.22	196.62	87.05	-31.3	-32.5	21.2	0.00e+00	0	56	0	2001731584	33	4315
2026-01-10 12:05:51.23	203.32	87.46	-31.4	-32.6	21.1	0.00e+00	0	56	0	2006974464	33	4352
2026-01-10 12:05:52.24	212.43	87.83	-31.4	-32.6	21.0	0.00e+00	0	56	0	2013265920	33	4375
2026-01-10 12:05:53.25	224.74	88.11	-31.6	-32.9	20.7	0.00e+00	0	56	0	2018508800	33	4506
2026-01-10 12:05:54.26	240.47	88.29	-31.4	-32.5	21.0	0.00e+00	0	56	0	2023751680	33	4336
2026-01-10 12:05:55.27	258.13	88.31	-31.2	-32.3	21.2	0.00e+00	0	56	0	2030043136	33	4229
2026-01-10 12:05:56.28	274.72	88.18	-31.4	-32.5	21.1	0.00e+00	0	56	0	2035286016	33	4333
2026-01-10 12:05:57.29	288.15	87.93	-31.4	-32.5	21.1	0.00e+00	0	56	0	2041577472	33	4337
2026-01-10 12:05:58.30	298.19	87.58	-31.5	-32.7	21.0	0.00e+00	0	56	0	2046820352	33	4395
2026-01-10 12:05:59.31	305.56	87.18	-31.4	-32.5	21.2	0.00e+00	0	56	0	2053111808	33	4335
2026-01-10 12:06:00.32	311.04	86.75	-31.4	-32.6	21.2	0.00e+00	0	56	0	2058354688	33	4359
2026-01-10 12:06:01.33	315.20	86.29	-31.1	-32.2	21.5	0.00e+00	0	56	0	2064646144	33	4173
2026-01-10 12:06:02.34	318.44	85.82	-31.0	-32.1	21.5	0.00e+00	0	56	0	2069889024	33	4131
2026-01-10 12:06:03.35	321.01	85.34	-31.0	-32.2	21.4	0.00e+00	0	56	0	2075131904	33	4172
2026-01-10 12:06:04.36	323.10	84.86	-30.9	-32.0	21.6	0.00e+00	0	56	0	2081423360	33	4076
2026-01-10 12:06:05.37	324.82	84.36	-30.9	-32.0	21.6	0.00e+00	0	56	0	2086666240	33	4096
2026-01-10 12:06:06.38	326.27	83.87	-30.5	-31.6	22.0	0.00e+00	0	56	0	2092957696	33	3906
2026-01-10 12:06:07.39	327.50	83.37	-30.5	-31.6	22.0	0.00e+00	0	56	0	2098200576	32	4103
2026-01-10 12:06:08.40	328.55	82.87	-30.9	-32.0	21.6	0.00e+00	0	56	0	2103443456	32	4325
2026-01-10 12:06:09.41	329.47	82.37	-30.7	-31.8	21.8	0.00e+00	0	56	0	2109734912	32	4207
2026-01-10 12:06:10.42	330.27	81.87	-30.6	-31.7	21.9	0.00e+00	0	56	0	2114977792	32	4178
2026-01-10 12:06:11.43	330.98	81.37	-30.9	-32.1	21.6	0.00e+00	0	56	0	2120220672	32	4367
2026-01-10 12:06:12.44	331.61	80.86	-30.8	-32.0	21.7	0.00e+00	0	56	0	2126512128	32	4303
2026-01-10 12:06:13.45	332.17	80.36	-30.7	-31.8	21.8	0.00e+00	0	56	0	2131755008	32	4216
2026-01-10 12:06:14.46	332.68	79.86	-30.6	-31.7	21.9	0.00e+00	0	56	0	2138046464	32	4185
2026-01-10 12:06:15.47	333.14	79.36	-30.9	-32.1	21.7	0.00e+00	0	56	0	2143289344	32	4341
2026-01-10 12:06:16.48	333.56	78.86	-31.3	-32.5	21.3	0.00e+00	0	56	0	2149580800	33	4294
2026-01-10 12:06:17.49	333.94	78.36	-31.3	-32.4	21.4	0.00e+00	0	56	0	2154823680	33	4267
2026-01-10 12:06:18.50	334.29	77.86	-31.4	-32.6	21.2	0.00e+00	0	56	0	2161115136	33	4376
2026-01-10 12:06:19.51	334.61	77.37	-31.6	-32.8	21.0	0.00e+00	0	56	0	2166358016	33	4463
2026-01-10 12:06:20.52	334.91	76.87	-31.6	-32.7	21.0	0.00e+00	0	56	0	2171600896	33	4431
2026-01-10 12:06:21.53	335.18	76.38	-31.7	-32.9	20.9	0.00e+00	0	56	0	2177892352	33	4516
2026-01-10 12:06:22.54	335.44	75.88	-31.5	-32.7	21.2	0.00e+00	0	56	0	2183135232	34	4169
2026-01-10 12:06:23.55	335.68	75.39	-31.6	-32.7	21.1	0.00e+00	0	56	0	2189426688	34	4176
2026-01-10 12:06:24.56	335.90	74.90	-32.0	-33.2	20.7	0.00e+00	0	56	0	2194669568	34	4422
2026-01-10 12:06:25.57	336.11	74.41	-31.8	-33.0	21.0	0.00e+00	0	56	0	2199912448	34	4296
2026-01-10 12:06:26.58	336.30	73.93	-31.9	-33.0	20.9	0.00e+00	0	56	0	2206203904	34	4328
2026-01-10 12:06:27.59	336.48	73.44	-32.3	-33.5	20.5	0.00e+00	0	56	0	2211446784	35	4298
2026-01-10 12:06:28.60	336.66	72.96	-32.2	-33.4	20.6	0.00e+00	0	56	0	2217738240	35	4263
2026-01-10 12:06:29.61	336.82	72.48	-32.3	-33.5	20.5	0.00e+00	0	56	0	2222981120	35	4303
2026-01-10 12:06:30.62	336.97	72.00	-32.5	-33.7	20.3	0.00e+00	0	56	0	2228224000	35	4412
2026-01-10 12:06:31.63	337.12	71.52	-32.4	-33.6	20.4	0.00e+00	0	56	0	2234515456	35	4359
2026-01-10 12:06:32.64	337.26	71.05	-32.4	-33.6	20.5	0.00e+00	0	56	0	2239758336	35	4341
2026-01-10 12:06:33.65	337.39	70.58	-32.6	-33.8	20.2	0.00e+00	0	56	0	2246049792	35	4463
2026-01-10 12:06:34.66	337.51	70.10	-32.6	-33.8	20.3	0.00e+00	0	56	0	2251292672	35	4472
2026-01-10 12:06:35.67	337.63	69.64	-32.5	-33.7	20.4	0.00e+00	0	56	0	2257584128	35	4433
2026-01-10 12:06:36.68	337.75	69.17	-32.5	-33.8	20.3	0.00e+00	0	56	0	2262827008	35	4448
2026-01-10 12:06:37.69	337.85	68.71	-32.5	-33.8	20.3	0.00e+00	0	56	0	2269118464	35	4443
2026-01-10 12:06:38.70	337.96	68.25	-33.4	-34.6	20.3	0.00e+00	0	56	0	2274361344	37	4359
2026-01-10 12:06:39.71	338.06	67.79	-33.5	-34.8	20.1	0.00e+00	0	56	0	2279604224	37	4461
2026-01-10 12:06:40.72	338.15	67.33	-33.3	-34.5	20.3	0.00e+00	0	56	0	2285895680	37	4335
2026-01-10 12:06:41.73	338.24	66.88	-33.2	-34.4	20.4	0.00e+00	0	56	0	2291138560	37	4279
2026-01-10 12:06:42.74	338.33	66.42	-33.5	-34.7	20.1	0.00e+00	0	56	0	2297430016	37	4434
2026-01-10 12:06:43.75	338.41	65.97	-33.5	-34.8	20.0	0.00e+00	0	56	0	2302672896	37	4463
2026-01-10 12:06:44.76	338.49	65.53	-33.5	-34.8	20.1	0.00e+00	0	56	0	2307915776	37	4445
2026-01-10 12:06:45.77	338.57	65.08	-33.6	-34.8	20.1	0.00e+00	0	56	0	2314207232	37	4458
2026-01-10 12:06:46.78	338.64	64.64	-33.4	-34.6	20.3	0.00e+00	0	56	0	2319450112	37	4384
2026-01-10 12:06:47.79	338.72	64.20	-33.4	-34.5	20.4	0.00e+00	0	56	0	2325741568	37	4334
2026-01-10 12:06:48.80	338.79	63.77	-33.6	-34.8	20.2	0.00e+00	0	56	0	2330984448	37	4447
2026-01-10 12:06:49.81	338.85	63.33	-33.7	-34.9	20.1	0.00e+00	0	56	0	2336227328	37	4523
2026-01-10 12:06:50.82	338.92	62.90	-33.5	-34.7	20.3	0.00e+00	0	56	0	2342518784	37	4407
2026-01-10 12:06:51.83	338.98	62.47	-33.4	-34.6	20.4	0.00e+00	0	56	0	2347761664	37	4350
2026-01-10 12:06:52.84	339.04	62.04	-33.5	-34.7	20.3	0.00e+00	0	56	0	2354053120	37	4431
2026-01-10 12:06:53.84	339.10	61.63	-33.6	-34.7	20.3	0.00e+00	0	56	0	2359296000	37	4438
2026-01-10 12:06:54.85	339.16	61.20	-33.6	-34.8	20.2	0.00e+00	0	56	0	2365587456	37	4445
2026-01-10 12:06:55.86	339.21	60.79	-33.8	-35.0	20.0	0.00e+00	0	57	0	2370830336	38	4310
2026-01-10 12:06:56.87	339.26	60.37	-34.0	-35.2	19.8	0.00e+00	0	56	0	2376073216	38	4424
2026-01-10 12:06:57.88	339.31	59.96	-34.0	-35.2	19.8	0.00e+00	0	56	0	2382364672	38	4417
2026-01-10 12:06:58.89	339.37	59.55	-34.0	-35.2	19.8	0.00e+00	0	56	0	2387607552	38	4419
2026-01-10 12:06:59.90	339.41	59.14	-34.2	-35.5	19.5	0.00e+00	0	56	0	2393899008	39	4309
2026-01-10 12:07:00.91	339.46	58.74	-34.4	-35.7	19.3	0.00e+00	0	56	0	2399141888	39	4422
2026-01-10 12:07:01.93	339.51	58.33	-34.4	-35.7	19.3	0.00e+00	0	56	0	2404384768	39	4429
2026-01-10 12:07:02.94	339.55	57.93	-34.6	-35.9	19.2	0.00e+00	0	56	0	2410676224	39	4513
2026-01-10 12:07:03.95	339.60	57.53	-34.8	-36.2	18.7	0.00e+00	0	56	0	2415919104	40	4428
2026-01-10 12:07:04.96	339.64	57.14	-34.9	-36.3	18.7	0.00e+00	0	56	0	2422210560	40	4453
2026-01-10 12:07:05.97	339.68	56.75	-34.7	-36.0	19.0	0.00e+00	0	56	0	2427453440	40	4301
2026-01-10 12:07:06.98	339.72	56.36	-34.5	-35.8	19.2	0.00e+00	0	56	0	2432696320	40	4202
2026-01-10 12:07:07.99	339.76	55.97	-34.8	-36.1	18.9	0.00e+00	0	56	0	2438987776	40	4374
2026-01-10 12:07:08.99	339.80	55.60	-35.1	-36.5	18.5	0.00e+00	0	56	0	2444230656	40	4584
2026-01-10 12:07:10.00	339.83	55.22	-35.2	-36.6	18.4	0.00e+00	0	56	0	2450522112	41	4359
2026-01-10 12:07:11.01	339.87	54.84	-35.1	-36.4	18.6	0.00e+00	0	56	0	2455764992	41	4284
2026-01-10 12:07:12.02	339.91	54.46	-35.1	-36.5	18.6	0.00e+00	0	56	0	2462056448	41	4292
2026-01-10 12:07:13.03	339.94	54.09	-35.2	-36.6	18.4	0.00e+00	0	56	0	2467299328	41	4368
2026-01-10 12:07:14.04	339.98	53.72	-35.4	-36.8	18.6	0.00e+00	0	57	0	2473590784	41	4447
2026-01-10 12:07:15.05	340.01	53.35	-35.3	-36.6	18.8	0.00e+00	0	56	0	2478833664	41	4351
2026-01-10 12:07:16.06	340.04	52.99	-35.2	-36.4	18.9	0.00e+00	0	56	0	2484076544	41	4276
2026-01-10 12:07:17.07	340.07	52.63	-35.0	-36.2	19.1	0.00e+00	0	56	0	2490368000	41	4182
2026-01-10 12:07:18.08	340.10	52.27	-34.8	-36.0	19.3	0.00e+00	0	56	0	2495610880	41	4093
2026-01-10 12:07:19.09	340.13	51.91	-34.7	-35.9	19.4	0.00e+00	0	56	0	2501902336	41	4020
2026-01-10 12:07:20.10	340.16	51.56	-34.6	-35.8	19.5	0.00e+00	0	56	0	2507145216	41	3971
2026-01-10 12:07:21.11	340.19	51.21	-34.6	-35.8	19.5	0.00e+00	0	56	0	2512388096	41	3994
2026-01-10 12:07:22.12	340.22	50.86	-34.7	-35.9	19.4	0.00e+00	0	56	0	2518679552	41	4048
2026-01-10 12:07:23.13	340.25	50.51	-34.7	-36.0	19.4	0.00e+00	0	56	0	2523922432	41	4062
2026-01-10 12:07:24.14	340.28	50.17	-34.5	-35.7	19.6	0.00e+00	0	56	0	2530213888	41	3939
2026-01-10 12:07:25.15	340.30	49.83	-34.3	-35.5	19.9	0.00e+00	0	56	0	2535456768	40	4058
2026-01-10 12:07:26.16	340.33	49.49	-34.1	-35.2	20.1	0.00e+00	0	56	0	2540699648	40	3923
2026-01-10 12:07:27.16	340.36	49.16	-34.1	-35.3	20.0	0.00e+00	0	56	0	2546991104	40	3965
2026-01-10 12:07:28.17	340.38	48.83	-34.3	-35.4	19.9	0.00e+00	0	56	0	2552233984	40	4037
2026-01-10 12:07:29.18	340.41	48.49	-34.4	-35.6	19.8	0.00e+00	0	56	0	2558525440	40	4101
2026-01-10 12:07:30.18	340.43	48.17	-34.3	-35.5	19.8	0.00e+00	0	56	0	2563768320	40	4060
2026-01-10 12:07:31.19	340.46	47.84	-34.1	-35.2	20.1	0.00e+00	0	56	0	2570059776	40	3939
2026-01-10 12:07:32.20	340.48	47.52	-33.9	-35.0	20.3	0.00e+00	0	56	0	2575302656	39	4084
2026-01-10 12:07:33.21	340.50	47.20	-33.7	-34.8	20.5	0.00e+00	0	56	0	2580545536	39	3997
2026-01-10 12:07:34.22	340.53	46.88	-33.7	-34.8	20.5	0.00e+00	0	56	0	2586836992	39	3976
2026-01-10 12:07:35.23	340.55	46.57	-33.8	-34.9	20.4	0.00e+00	0	56	0	2592079872	39	4028
2026-01-10 12:07:36.24	340.57	46.25	-33.9	-35.0	20.3	0.00e+00	0	56	0	2598371328	39	4072
2026-01-10 12:07:37.25	340.59	45.94	-34.0	-35.1	20.2	0.00e+00	0	56	0	2603614208	39	4129
2026-01-10 12:07:38.26	340.61	45.63	-34.1	-35.2	20.2	0.00e+00	0	56	0	2608857088	39	4171
2026-01-10 12:07:39.27	340.63	45.33	-34.2	-35.3	20.0	0.00e+00	0	56	0	2615148544	39	4225
2026-01-10 12:07:40.28	340.66	45.02	-34.3	-35.4	19.9	0.00e+00	0	57	0	2620391424	39	4281
2026-01-10 12:07:41.29	340.68	44.72	-34.2	-35.4	20.0	0.00e+00	0	56	0	2626682880	39	4262
2026-01-10 12:07:42.30	340.70	44.42	-34.2	-35.3	20.1	0.00e+00	0	56	0	2631925760	39	4221
2026-01-10 12:07:43.31	340.72	44.12	-34.0	-35.2	20.2	0.00e+00	0	56	0	2637168640	39	4148
2026-01-10 12:07:44.32	340.74	43.83	-34.0	-35.1	20.2	0.00e+00	0	56	0	2643460096	39	4128
2026-01-10 12:07:45.33	340.75	43.53	-34.0	-35.1	20.2	0.00e+00	0	56	0	2648702976	39	4128
2026-01-10 12:07:46.34	340.77	43.24	-34.0	-35.2	20.2	0.00e+00	0	56	0	2654994432	39	4158
2026-01-10 12:07:47.35	340.79	42.96	-34.1	-35.2	20.1	0.00e+00	0	57	0	2660237312	39	4182
2026-01-10 12:07:48.36	340.81	42.67	-34.1	-35.3	20.1	0.00e+00	0	56	0	2666528768	39	4202
2026-01-10 12:07:49.37	340.83	42.39	-34.1	-35.2	20.1	0.00e+00	0	57	0	2671771648	39	4193
2026-01-10 12:07:50.38	340.85	42.10	-34.0	-35.2	20.2	0.00e+00	0	56	0	2678063104	39	4151
2026-01-10 12:07:51.40	340.86	41.82	-33.9	-35.1	20.3	0.00e+00	0	56	0	2683305984	39	4109
2026-01-10 12:07:52.41	340.88	41.54	-33.9	-35.1	20.3	0.00e+00	0	56	0	2688548864	39	4099
2026-01-10 12:07:53.42	340.90	41.27	-33.9	-35.0	20.3	0.00e+00	0	56	0	2694840320	39	4087
2026-01-10 12:07:54.43	340.92	41.00	-33.8	-35.0	20.3	0.00e+00	0	56	0	2700083200	39	4063
2026-01-10 12:07:55.44	340.93	40.72	-33.8	-35.0	20.3	0.00e+00	0	57	0	2706374656	39	4056
2026-01-10 12:07:56.44	340.95	40.46	-33.8	-34.9	20.4	0.00e+00	0	56	0	2711617536	39	4051
2026-01-10 12:07:57.45	340.97	40.19	-33.8	-34.9	20.4	0.00e+00	0	56	0	2716860416	39	4025
2026-01-10 12:07:58.46	340.98	39.92	-33.8	-34.9	20.3	0.00e+00	0	57	0	2723151872	39	4038
2026-01-10 12:07:59.47	341.00	39.66	-33.8	-34.9	20.3	0.00e+00	0	56	0	2728394752	39	4051
2026-01-10 12:08:00.48	341.01	39.40	-33.9	-35.0	20.3	0.00e+00	0	56	0	2734686208	39	4065
2026-01-10 12:08:01.49	341.03	39.14	-33.9	-35.0	20.3	0.00e+00	0	56	0	2739929088	39	4080
2026-01-10 12:08:02.50	341.04	38.88	-33.9	-35.0	20.3	0.00e+00	0	56	0	2745171968	39	4076
2026-01-10 12:08:03.51	341.06	38.63	-33.8	-35.0	20.3	0.00e+00	0	56	0	2751463424	39	4055
2026-01-10 12:08:04.52	341.07	38.38	-33.8	-34.9	20.3	0.00e+00	0	56	0	2756706304	39	4046
2026-01-10 12:08:05.53	341.09	38.12	-33.7	-34.8	20.5	0.00e+00	0	56	0	2762997760	39	3965
2026-01-10 12:08:06.54	341.10	37.87	-33.6	-34.7	20.5	0.00e+00	0	57	0	2768240640	39	3949
2026-01-10 12:08:07.55	341.12	37.63	-33.6	-34.7	20.6	0.00e+00	0	56	0	2774532096	39	3914
2026-01-10 12:08:08.57	341.13	37.38	-33.5	-34.6	20.6	0.00e+00	0	56	0	2779774976	39	3898
2026-01-10 12:08:09.58	341.15	37.13	-33.6	-34.6	20.6	0.00e+00	0	56	0	2786066432	39	3908
2026-01-10 12:08:10.59	341.16	36.89	-33.6	-34.7	20.5	0.00e+00	0	56	0	2791309312	39	3936
2026-01-10 12:08:11.60	341.18	36.65	-33.6	-34.7	20.5	0.00e+00	0	56	0	2796552192	39	3945
2026-01-10 12:08:12.60	341.19	36.41	-33.6	-34.8	20.5	0.00e+00	0	56	0	2802843648	39	3959
2026-01-10 12:08:13.61	341.20	36.18	-33.6	-34.7	20.5	0.00e+00	0	56	0	2808086528	39	3944
2026-01-10 12:08:14.62	341.22	35.94	-33.6	-34.7	20.5	0.00e+00	0	56	0	2814377984	39	3948
2026-01-10 12:08:15.63	341.23	35.71	-33.6	-34.7	20.5	0.00e+00	0	56	0	2819620864	39	3936
2026-01-10 12:08:16.64	341.24	35.48	-33.6	-34.7	20.5	0.00e+00	0	56	0	2824863744	39	3939
2026-01-10 12:08:17.65	341.26	35.25	-33.6	-34.7	20.5	0.00e+00	0	56	0	2831155200	39	3940
2026-01-10 12:08:18.66	341.27	35.02	-33.6	-34.7	20.5	0.00e+00	0	57	0	2836398080	39	3951
2026-01-10 12:08:19.67	341.28	34.79	-33.7	-34.8	20.5	0.00e+00	0	56	0	2841640960	39	3965
2026-01-10 12:08:20.68	341.29	34.56	-33.7	-34.8	20.4	0.00e+00	0	57	0	2847932416	39	3994
2026-01-10 12:08:21.69	341.31	34.34	-33.8	-34.9	20.3	0.00e+00	0	56	0	2853175296	39	4025
2026-01-10 12:08:22.70	341.32	34.12	-33.8	-35.0	20.3	0.00e+00	0	56	0	2859466752	39	4057
2026-01-10 12:08:23.71	341.33	33.90	-33.9	-35.0	20.2	0.00e+00	0	56	0	2864709632	39	4081
2026-01-10 12:08:24.72	341.34	33.68	-34.0	-35.1	20.1	0.00e+00	0	56	0	2871001088	39	4123
2026-01-10 12:08:25.73	341.36	33.46	-34.0	-35.1	20.1	0.00e+00	0	57	0	2876243968	39	4144
2026-01-10 12:08:26.74	341.37	33.25	-34.0	-35.2	20.1	0.00e+00	0	56	0	2882535424	39	4147
2026-01-10 12:08:27.75	341.38	33.03	-34.0	-35.2	20.0	0.00e+00	0	56	0	2887778304	39	4156
2026-01-10 12:08:28.76	341.39	32.82	-34.0	-35.2	20.0	0.00e+00	0	56	0	2893021184	39	4153
2026-01-10 12:08:29.77	341.40	32.61	-34.1	-35.2	20.0	0.00e+00	0	56	0	2899312640	39	4175
2026-01-10 12:08:30.78	341.41	32.40	-34.1	-35.2	20.0	0.00e+00	0	56	0	2904555520	39	4169
2026-01-10 12:08:31.79	341.43	32.19	-34.1	-35.3	19.9	0.00e+00	0	57	0	2910846976	39	4209
2026-01-10 12:08:32.80	341.44	31.98	-34.1	-35.3	19.9	0.00e+00	0	56	0	2916089856	39	4219
2026-01-10 12:08:33.81	341.45	31.78	-34.2	-35.3	19.9	0.00e+00	0	56	0	2921332736	39	4240
2026-01-10 12:08:34.82	341.46	31.57	-34.2	-35.4	19.8	0.00e+00	0	56	0	2927624192	39	4259
2026-01-10 12:08:35.83	341.47	31.37	-34.2	-35.4	19.8	0.00e+00	0	56	0	2932867072	39	4274
2026-01-10 12:08:36.83	341.48	31.17	-34.2	-35.4	19.8	0.00e+00	0	56	0	2939158528	39	4271
2026-01-10 12:08:37.84	341.49	30.97	-34.3	-35.4	19.7	0.00e+00	0	56	0	2944401408	39	4284
2026-01-10 12:08:38.85	341.50	30.77	-34.3	-35.5	19.7	0.00e+00	0	56	0	2949644288	39	4294
2026-01-10 12:08:39.87	341.51	30.57	-34.3	-35.5	19.7	0.00e+00	0	57	0	2955935744	39	4327
2026-01-10 12:08:40.87	341.52	30.38	-34.4	-35.6	19.6	0.00e+00	0	56	0	2961178624	39	4342
2026-01-10 12:08:41.88	341.54	30.19	-34.4	-35.6	19.6	0.00e+00	0	56	0	2967470080	39	4367
2026-01-10 12:08:42.90	341.55	29.99	-34.4	-35.6	19.6	0.00e+00	0	56	0	2972712960	39	4369
2026-01-10 12:08:43.91	341.56	29.80	-34.4	-35.6	19.5	0.00e+00	0	57	0	2977955840	39	4371
2026-01-10 12:08:44.92	341.57	29.61	-34.4	-35.7	19.5	0.00e+00	0	56	0	2984247296	39	4392
2026-01-10 12:08:45.93	341.58	29.42	-34.4	-35.6	19.6	0.00e+00	0	56	0	2989490176	39	4362
2026-01-10 12:08:46.94	341.59	29.23	-34.3	-35.5	19.6	0.00e+00	0	57	0	2995781632	39	4339
2026-01-10 12:08:47.95	341.60	29.04	-34.4	-35.6	19.6	0.00e+00	0	57	0	3001024512	39	4355
2026-01-10 12:08:48.96	341.61	28.86	-34.4	-35.6	19.6	0.00e+00	0	56	0	3007315968	39	4342
2026-01-10 12:08:49.97	341.62	28.67	-34.3	-35.5	19.6	0.00e+00	0	56	0	3012558848	39	4319
2026-01-10 12:08:50.98	341.63	28.49	-34.3	-35.4	19.7	0.00e+00	0	56	0	3018850304	39	4286
2026-01-10 12:08:51.99	341.64	28.31	-34.2	-35.4	19.6	0.00e+00	0	56	0	3024093184	39	4267
2026-01-10 12:08:52.99	341.65	28.13	-34.2	-35.3	19.7	0.00e+00	0	57	0	3029336064	39	4239
2026-01-10 12:08:54.00	341.66	27.95	-34.2	-35.3	19.7	0.00e+00	0	56	0	3035627520	39	4230
2026-01-10 12:08:55.01	341.67	27.77	-34.1	-35.2	19.8	0.00e+00	0	56	0	3040870400	39	4181
2026-01-10 12:08:56.02	341.68	27.60	-34.1	-35.2	19.8	0.00e+00	0	56	0	3047161856	39	4177
2026-01-10 12:08:57.03	341.69	27.42	-34.1	-35.2	19.9	0.00e+00	0	57	0	3052404736	39	4160
2026-01-10 12:08:58.05	341.69	27.24	-34.1	-35.2	19.8	0.00e+00	0	57	0	3057647616	39	4166
2026-01-10 12:08:59.06	341.70	27.07	-34.1	-35.2	19.8	0.00e+00	0	56	0	3063939072	39	4175
2026-01-10 12:09:00.07	341.71	26.90	-34.1	-35.2	19.8	0.00e+00	0	56	0	3069181952	39	4183
2026-01-10 12:09:01.08	341.72	26.73	-34.2	-35.3	19.7	0.00e+00	0	56	0	3075473408	39	4232
2026-01-10 12:09:02.09	341.73	26.55	-34.2	-35.4	19.6	0.00e+00	0	57	0	3080716288	39	4255
2026-01-10 12:09:03.10	341.74	26.39	-34.3	-35.4	19.6	0.00e+00	0	56	0	3085959168	39	4289
2026-01-10 12:09:04.11	341.75	26.22	-34.3	-35.5	19.5	0.00e+00	0	56	0	3092250624	39	4337
2026-01-10 12:09:05.12	341.76	26.05	-34.3	-35.6	19.5	0.00e+00	0	57	0	3097493504	39	4341
2026-01-10 12:09:06.13	341.77	25.88	-34.4	-35.6	19.4	0.00e+00	0	56	0	3103784960	39	4386
2026-01-10 12:09:07.14	341.78	25.72	-34.5	-35.7	19.3	0.00e+00	0	56	0	3109027840	39	4427
2026-01-10 12:09:08.15	341.79	25.55	-34.5	-35.7	19.3	0.00e+00	0	56	0	3115319296	39	4440
2026-01-10 12:09:09.16	341.80	25.39	-34.5	-35.8	19.2	0.00e+00	0	57	0	3120562176	39	4453
2026-01-10 12:09:10.17	341.80	25.23	-34.5	-35.8	19.2	0.00e+00	0	56	0	3126853632	39	4465
2026-01-10 12:09:11.18	341.81	25.07	-34.6	-35.8	19.2	0.00e+00	0	56	0	3132096512	39	4478
2026-01-10 12:09:12.19	341.82	24.91	-34.6	-35.8	19.1	0.00e+00	0	56	0	3137339392	39	4479
2026-01-10 12:09:13.20	341.83	24.75	-34.6	-35.8	19.1	0.00e+00	0	56	0	3143630848	39	4480
2026-01-10 12:09:14.21	341.84	24.59	-34.5	-35.8	19.1	0.00e+00	0	56	0	3148873728	39	4455
2026-01-10 12:09:15.22	341.85	24.43	-34.5	-35.7	19.2	0.00e+00	0	57	0	3155165184	39	4440
2026-01-10 12:09:16.23	341.86	24.28	-34.5	-35.7	19.1	0.00e+00	0	56	0	3160408064	39	4432
2026-01-10 12:09:17.24	341.86	24.12	-34.4	-35.6	19.2	0.00e+00	0	57	0	3165650944	39	4370
2026-01-10 12:09:18.25	341.87	23.97	-34.5	-35.7	19.1	0.00e+00	0	56	0	3171942400	39	4402
2026-01-10 12:09:19.27	341.88	23.81	-34.4	-35.7	19.1	0.00e+00	0	56	0	3177185280	39	4403
2026-01-10 12:09:20.28	341.89	23.66	-34.4	-35.6	19.1	0.00e+00	0	57	0	3183476736	39	4377
2026-01-10 12:09:21.29	341.90	23.51	-34.3	-35.6	19.2	0.00e+00	0	56	0	3188719616	39	4344
2026-01-10 12:09:22.29	341.91	23.36	-34.5	-35.7	19.0	0.00e+00	0	56	0	3193962496	39	4438
2026-01-10 12:09:23.30	341.91	23.21	-34.5	-35.8	18.9	0.00e+00	0	56	0	3200253952	39	4446
2026-01-10 12:09:24.31	341.92	23.06	-34.3	-35.5	19.1	0.00e+00	0	57	0	3205496832	39	4304
2026-01-10 12:09:25.32	341.93	22.91	-34.3	-35.5	19.0	0.00e+00	0	56	0	3211788288	39	4310
2026-01-10 12:09:26.33	341.94	22.76	-34.6	-35.9	18.5	0.00e+00	0	56	0	3217031168	39	4510
2026-01-10 12:09:27.34	341.95	22.62	-34.7	-36.0	18.1	0.00e+00	0	56	0	3223322624	40	4331
2026-01-10 12:09:28.35	341.95	22.47	-34.5	-35.8	18.2	0.00e+00	0	57	0	3228565504	40	4232
2026-01-10 12:09:29.37	341.96	22.32	-34.1	-35.4	18.6	0.00e+00	0	56	0	3233808384	40	4006
2026-01-10 12:09:30.37	341.97	22.18	-34.0	-35.3	18.6	0.00e+00	0	56	0	3240099840	40	3976
2026-01-10 12:09:31.38	341.98	22.04	-34.2	-35.5	18.4	0.00e+00	0	57	0	3245342720	40	4057
2026-01-10 12:09:32.39	341.99	21.89	-34.3	-35.6	18.1	0.00e+00	0	56	0	3251634176	40	4131
2026-01-10 12:09:33.40	341.99	21.75	-34.5	-35.8	17.8	0.00e+00	0	56	0	3256877056	40	4237
2026-01-10 12:09:34.41	342.00	21.61	-34.7	-36.2	17.4	0.00e+00	0	56	0	3262119936	40	4395
2026-01-10 12:09:35.42	342.01	21.47	-35.2	-36.7	16.8	0.00e+00	0	57	0	3268411392	40	4668
2026-01-10 12:09:36.43	342.02	21.33	-35.8	-37.5	15.9	0.00e+00	0	56	0	3273654272	42	4565
2026-01-10 12:09:37.44	342.03	21.19	-36.5	-38.4	14.8	0.00e+00	0	56	0	3279945728	43	4782
2026-01-10 12:09:38.45	342.03	21.06	-37.3	-39.6	13.5	5.70e-06	0	57	0	3285188608	45	4886
2026-01-10 12:09:39.46	342.04	20.92	-38.0	-40.6	12.2	2.38e-04	0	56	0	3290431488	46	5207
2026-01-10 12:09:40.47	342.05	20.78	-38.6	-41.7	10.8	1.84e-03	0	57	0	3296722944	47	5569
2026-01-10 12:09:41.48	342.06	20.65	-39.2	-42.9	9.4	1.68e-02	0	57	0	3301965824	48	6032
2026-01-10 12:09:42.49	342.06	20.51	-39.6	-44.1	7.9	6.04e-02	0	57	0	3308257280	49	6533
2026-01-10 12:09:43.50	342.07	20.38	-40.0	-45.3	6.7	1.56e-01	0	57	0	3313500160	50	7045
2026-01-10 12:09:44.51	342.08	20.25	-40.3	-46.7	5.5	4.55e-01	0	57	0	3318743040	51	7823
2026-01-10 12:09:45.52	342.09	20.11	-40.5	-48.0	4.7	7.76e-01	0	57	0	3319791616	51	9102
2026-01-10 12:09:46.53	342.09	19.98	-40.7	-49.3	4.2	8.34e-01	0	57	0	3319791616	51	10614
2026-01-10 12:09:47.54	342.10	19.85	-40.7	-50.3	4.0	8.45e-01	0	57	104	3319791616	52	11219
2026-01-10 12:09:48.55	342.11	19.72	-40.7	-51.2	3.8	8.46e-01	0	56	104	3319791616	52	12479
2026-01-10 12:09:49.56	342.12	19.59	-40.6	-51.7	3.8	8.47e-01	0	56	104	3319791616	52	13175
2026-01-10 12:09:50.57	342.12	19.46	-40.5	-51.9	3.8	8.45e-01	0	56	104	3319791616	52	13496
2026-01-10 12:09:51.58	342.13	19.33	-40.5	-52.0	3.8	8.46e-01	0	57	104	3319791616	52	13676
2026-01-10 12:09:52.59	342.14	19.20	-40.5	-52.2	3.8	8.46e-01	0	56	104	3319791616	52	14002
2026-01-10 12:09:53.60	342.14	19.08	-40.5	-52.2	3.8	8.46e-01	0	57	104	3319791616	52	14010
2026-01-10 12:09:54.61	342.15	18.95	-40.3	-52.2	3.8	8.46e-01	0	57	104	3319791616	52	13921
2026-01-10 12:09:55.62	342.16	18.82	-40.4	-52.4	3.8	8.46e-01	0	57	104	3319791616	52	14287
2026-01-10 12:09:56.62	342.17	18.70	-40.2	-52.2	3.8	8.45e-01	0	56	104	3319791616	52	13898
2026-01-10 12:09:57.63	342.17	18.57	-40.4	-52.3	3.8	8.46e-01	0	57	104	3319791616	52	14058
2026-01-10 12:09:58.64	342.18	18.45	-40.3	-52.4	3.8	8.47e-01	0	57	104	3319791616	52	14246
2026-01-10 12:09:59.65	342.19	18.33	-40.3	-52.2	3.8	8.47e-01	0	56	104	3319791616	52	13912
2026-01-10 12:10:00.66	342.19	18.20	-40.2	-52.2	3.8	8.47e-01	0	57	104	3319791616	52	13984
2026-01-10 12:10:01.67	342.20	18.08	-40.3	-52.1	3.8	8.45e-01	0	57	104	3319791616	52	13873
2026-01-10 12:10:02.68	342.21	17.96	-40.3	-52.3	3.8	8.47e-01	0	57	104	3319791616	52	14193
2026-01-10 12:10:03.69	342.22	17.84	-40.2	-52.2	3.8	8.46e-01	0	57	104	3319791616	52	13934
2026-01-10 12:10:04.70	342.22	17.72	-40.4	-52.3	3.8	8.47e-01	0	57	104	3319791616	52	14120
2026-01-10 12:10:05.71	342.23	17.60	-40.3	-52.1	3.8	8.46e-01	0	57	104	3319791616	52	13842
2026-01-10 12:10:06.72	342.24	17.48	-40.3	-52.2	3.8	8.46e-01	0	57	104	3319791616	52	13924
2026-01-10 12:10:07.73	342.24	17.36	-40.2	-52.3	3.8	8.47e-01	0	57	104	3319791616	52	14153
2026-01-10 12:10:08.74	342.25	17.24	-40.2	-52.2	3.8	8.46e-01	0	57	104	3319791616	52	13919
2026-01-10 12:10:09.75	342.26	17.13	-40.1	-52.3	3.8	8.46e-01	0	56	104	3319791616	52	14163
2026-01-10 12:10:10.76	342.26	17.01	-40.5	-52.2	3.8	8.45e-01	0	57	104	3319791616	52	13998
2026-01-10 12:10:11.77	342.27	16.89	-40.3	-52.3	3.8	8.46e-01	0	56	104	3319791616	52	14061
2026-01-10 12:10:12.78	342.28	16.78	-40.5	-52.2	3.8	8.47e-01	0	57	104	3319791616	52	13958
2026-01-10 12:10:13.78	342.28	16.66	-40.3	-52.3	3.8	8.46e-01	0	57	104	3319791616	52	14054
2026-01-10 12:10:14.79	342.29	16.55	-40.2	-52.1	3.8	8.45e-01	0	57	104	3319791616	52	13764
