passes_logs/2026/01/10/R2.0S_Moscow/R2.0S_Moscow__20260110_223937_NOAA_21_JPSS-2_rec.log

#Pass ID: 20260110_223937_NOAA 21 (JPSS-2)
#Satellite: NOAA 21 (JPSS-2)
#Configuration: NOAA-21
#almurnet v.1.7.20251203
#Start time: 2026-01-10 22:39:37

#Version: 2.2.20231116
#Station: R2.0S_Moscow
#Location: 37.707566 lon 55.798166 lat
#TLE: 1 54234U 22150A   26009.79679979  .00000100  00000+0  68070-4 0  9993
#TLE: 2 54234  98.7494 310.7596 0000833 322.2782  37.8335 14.19533646164071

#Time	Az	El	Level	Level2	SNR	BER	BlckErr	Temp	State	Recorded	gain1	gain2
2026-01-10 22:39:37.51	21.51	1.98	-42.3	-55.2	3.8	1.49e+00	0	47	0	0	56	15633
2026-01-10 22:39:38.52	21.56	2.04	-42.1	-55.0	3.8	1.49e+00	0	47	104	0	54	17159
2026-01-10 22:39:39.53	21.61	2.10	-42.2	-55.0	3.8	1.49e+00	0	47	104	0	54	17125
2026-01-10 22:39:40.54	21.66	2.16	-42.1	-55.0	3.8	1.49e+00	0	47	104	0	54	17195
2026-01-10 22:39:41.55	21.71	2.22	-42.1	-55.0	3.8	1.49e+00	0	47	104	0	54	17139
2026-01-10 22:39:42.56	21.76	2.28	-42.1	-55.0	3.8	1.49e+00	0	47	104	0	54	17186
2026-01-10 22:39:43.58	21.81	2.34	-42.1	-55.0	3.8	1.49e+00	0	47	104	0	54	17187
2026-01-10 22:39:44.59	21.86	2.40	-42.1	-55.0	3.8	1.49e+00	0	47	104	0	54	17129
2026-01-10 22:39:45.60	21.91	2.46	-42.1	-55.0	3.8	1.49e+00	0	48	104	0	54	17145
2026-01-10 22:39:46.61	21.96	2.52	-42.2	-55.0	3.8	1.49e+00	0	48	104	0	54	17200
2026-01-10 22:39:47.62	22.01	2.58	-42.1	-55.0	3.8	1.49e+00	0	48	104	0	54	17189
2026-01-10 22:39:48.63	22.06	2.65	-42.1	-55.0	3.8	1.49e+00	0	48	104	0	54	17155
2026-01-10 22:39:49.64	22.12	2.71	-42.2	-55.0	3.8	1.49e+00	0	48	104	0	54	17173
2026-01-10 22:39:50.65	22.17	2.77	-42.2	-55.0	3.8	1.49e+00	0	48	104	0	54	17186
2026-01-10 22:39:51.66	22.22	2.83	-42.2	-55.0	3.8	1.49e+00	0	48	104	0	54	17157
2026-01-10 22:39:52.67	22.27	2.89	-42.1	-55.0	3.8	1.49e+00	0	48	104	0	54	17095
2026-01-10 22:39:53.68	22.32	2.95	-42.1	-55.0	3.8	1.49e+00	0	48	104	0	54	17147
2026-01-10 22:39:54.69	22.38	3.01	-42.1	-55.0	3.8	1.49e+00	0	48	104	0	54	17158
2026-01-10 22:39:55.71	22.43	3.08	-42.1	-55.0	3.8	1.49e+00	0	48	104	0	54	17151
2026-01-10 22:39:56.72	22.48	3.14	-42.1	-55.0	3.8	1.49e+00	0	48	104	0	54	17095
2026-01-10 22:39:57.73	22.53	3.20	-42.1	-55.0	3.8	1.49e+00	0	48	104	0	54	17092
2026-01-10 22:39:58.74	22.59	3.26	-42.1	-55.0	3.8	1.49e+00	0	49	104	0	54	17097
2026-01-10 22:39:59.75	22.64	3.33	-42.1	-55.0	3.8	1.49e+00	0	49	104	0	54	17158
2026-01-10 22:40:00.76	22.69	3.39	-42.2	-55.0	3.8	1.49e+00	0	48	104	0	54	17259
2026-01-10 22:40:01.77	22.75	3.45	-42.2	-55.0	3.8	1.49e+00	0	49	104	0	54	17179
2026-01-10 22:40:02.78	22.80	3.52	-42.1	-55.0	3.8	1.49e+00	0	49	104	0	54	17224
2026-01-10 22:40:03.79	22.86	3.58	-42.2	-55.0	3.8	1.49e+00	0	49	104	0	54	17137
2026-01-10 22:40:04.80	22.91	3.64	-42.2	-55.0	3.8	1.49e+00	0	49	104	0	54	17128
2026-01-10 22:40:05.81	22.97	3.70	-42.2	-55.0	3.8	1.49e+00	0	49	104	0	54	17163
2026-01-10 22:40:06.82	23.02	3.77	-42.2	-55.0	3.8	1.49e+00	0	49	104	0	54	17171
2026-01-10 22:40:07.83	23.08	3.83	-42.2	-55.0	3.8	1.49e+00	0	49	104	0	54	17169
2026-01-10 22:40:08.84	23.13	3.90	-42.1	-55.0	3.8	1.49e+00	0	49	104	0	54	17160
2026-01-10 22:40:09.86	23.19	3.96	-42.1	-55.0	3.8	1.49e+00	0	49	104	0	54	17174
2026-01-10 22:40:10.87	23.24	4.02	-42.2	-55.0	3.8	1.49e+00	0	49	104	0	54	17153
2026-01-10 22:40:11.88	23.30	4.09	-42.1	-55.0	3.8	1.49e+00	0	49	104	0	54	17194
2026-01-10 22:40:12.89	23.36	4.15	-42.2	-55.0	3.8	1.49e+00	0	49	104	0	54	17156
2026-01-10 22:40:13.90	23.41	4.22	-42.1	-55.0	3.8	1.49e+00	0	49	104	0	54	17108
2026-01-10 22:40:14.91	23.47	4.28	-42.2	-55.0	3.8	1.49e+00	0	49	104	0	54	17192
2026-01-10 22:40:15.92	23.53	4.35	-42.1	-55.0	3.8	1.49e+00	0	50	104	0	54	17167
2026-01-10 22:40:16.94	23.58	4.41	-42.2	-55.0	3.8	1.49e+00	0	50	104	0	54	17132
2026-01-10 22:40:17.95	23.64	4.48	-42.1	-55.0	3.8	1.49e+00	0	50	104	0	54	17168
2026-01-10 22:40:18.96	23.70	4.54	-42.1	-55.0	3.8	1.49e+00	0	50	104	0	54	17201
2026-01-10 22:40:19.97	23.76	4.61	-42.2	-55.0	3.8	1.49e+00	0	50	104	0	54	17127
2026-01-10 22:40:20.98	23.82	4.67	-42.2	-55.0	3.8	1.49e+00	0	50	104	0	54	17111
2026-01-10 22:40:21.99	23.87	4.74	-42.2	-55.0	3.8	1.49e+00	0	50	104	0	54	17160
2026-01-10 22:40:23.00	23.93	4.80	-42.1	-55.0	3.8	1.49e+00	0	50	104	0	54	17166
2026-01-10 22:40:24.01	23.99	4.87	-42.1	-55.0	3.8	1.49e+00	0	50	104	0	54	17140
2026-01-10 22:40:25.02	24.05	4.93	-42.1	-55.0	3.8	1.49e+00	0	50	104	0	54	17100
2026-01-10 22:40:26.04	24.11	5.00	-42.2	-55.0	3.8	1.49e+00	0	50	104	0	54	17168
2026-01-10 22:40:27.04	24.17	5.07	-42.1	-55.0	3.8	1.49e+00	0	50	104	0	54	17114
2026-01-10 22:40:28.06	24.23	5.13	-42.1	-55.0	3.8	1.49e+00	0	50	104	0	54	17098
2026-01-10 22:40:29.07	24.29	5.20	-42.1	-55.0	3.8	1.49e+00	0	50	104	0	54	17132
2026-01-10 22:40:30.08	24.35	5.27	-42.1	-55.0	3.8	1.49e+00	0	50	104	0	54	17092
2026-01-10 22:40:31.09	24.41	5.33	-42.1	-55.0	3.8	1.49e+00	0	50	104	0	54	17139
2026-01-10 22:40:32.10	24.47	5.40	-42.1	-55.0	3.8	1.49e+00	0	50	104	0	54	17112
2026-01-10 22:40:33.11	24.53	5.47	-42.1	-55.0	3.8	1.49e+00	0	51	104	0	54	17114
2026-01-10 22:40:34.12	24.59	5.53	-42.1	-55.0	3.8	1.49e+00	0	51	104	0	54	17155
2026-01-10 22:40:35.13	24.66	5.60	-42.1	-55.0	3.8	1.49e+00	0	51	104	0	54	17088
2026-01-10 22:40:36.15	24.72	5.67	-42.1	-55.0	3.8	1.49e+00	0	50	104	0	54	17134
2026-01-10 22:40:37.16	24.78	5.74	-42.1	-55.0	3.8	1.49e+00	0	51	104	0	54	17135
2026-01-10 22:40:38.17	24.84	5.80	-42.1	-55.0	3.8	1.49e+00	0	51	104	0	54	17096
2026-01-10 22:40:39.18	24.91	5.87	-42.1	-55.0	3.8	1.49e+00	0	51	104	0	54	17144
2026-01-10 22:40:40.19	24.97	5.94	-42.1	-55.0	3.8	1.49e+00	0	51	104	0	54	17144
2026-01-10 22:40:41.20	25.03	6.01	-42.1	-55.0	3.8	1.49e+00	0	51	104	0	54	17094
2026-01-10 22:40:42.21	25.09	6.08	-42.1	-55.0	3.8	1.49e+00	0	51	104	0	54	17098
2026-01-10 22:40:43.22	25.16	6.14	-42.1	-55.0	3.8	1.49e+00	0	51	104	0	54	17084
2026-01-10 22:40:44.23	25.22	6.21	-42.1	-54.9	3.8	1.49e+00	0	51	104	0	54	17072
2026-01-10 22:40:45.24	25.29	6.28	-42.1	-55.0	3.8	1.49e+00	0	51	104	0	54	17084
2026-01-10 22:40:46.25	25.35	6.35	-42.1	-55.0	3.8	1.49e+00	0	51	104	0	54	17087
2026-01-10 22:40:47.26	25.42	6.42	-42.1	-54.9	3.8	1.49e+00	0	51	104	0	54	17042
2026-01-10 22:40:48.27	25.48	6.49	-42.2	-54.9	3.8	1.49e+00	0	51	104	0	54	17033
2026-01-10 22:40:49.28	25.55	6.56	-42.1	-54.9	3.8	1.49e+00	0	51	104	0	54	17072
2026-01-10 22:40:50.29	25.61	6.63	-42.1	-54.9	3.8	1.49e+00	0	51	104	0	54	17054
2026-01-10 22:40:51.30	25.68	6.70	-42.1	-54.9	3.8	1.49e+00	0	51	104	0	54	17076
2026-01-10 22:40:52.32	25.75	6.77	-42.1	-54.9	3.8	1.49e+00	0	52	104	0	54	16914
2026-01-10 22:40:53.33	25.81	6.84	-42.1	-54.9	3.8	1.49e+00	0	52	104	0	54	16962
2026-01-10 22:40:54.34	25.88	6.91	-42.1	-54.8	3.8	1.49e+00	0	52	104	0	54	16778
2026-01-10 22:40:55.35	25.95	6.98	-42.1	-54.9	3.8	1.49e+00	0	52	104	0	54	16943
2026-01-10 22:40:56.36	26.01	7.05	-42.1	-54.8	3.8	1.49e+00	0	52	104	0	54	16847
2026-01-10 22:40:57.37	26.08	7.12	-42.1	-54.9	3.8	1.49e+00	0	51	104	0	54	16964
2026-01-10 22:40:58.38	26.15	7.19	-42.1	-54.9	3.8	1.49e+00	0	52	104	0	54	16961
2026-01-10 22:40:59.39	26.22	7.26	-42.1	-54.9	3.8	1.49e+00	0	52	104	0	54	16946
2026-01-10 22:41:00.40	26.29	7.33	-42.1	-54.8	3.8	1.49e+00	0	52	104	0	54	16721
2026-01-10 22:41:01.41	26.36	7.41	-42.0	-54.3	3.8	1.49e+00	0	52	104	0	54	15834
2026-01-10 22:41:02.43	26.43	7.48	-42.0	-53.7	3.8	1.49e+00	0	52	104	0	54	14861
2026-01-10 22:41:03.44	26.50	7.55	-41.9	-52.1	4.0	1.48e+00	0	52	104	0	54	12304
2026-01-10 22:41:04.45	26.57	7.62	-41.6	-50.4	4.5	1.40e+00	6	52	104	0	54	10086
2026-01-10 22:41:05.46	26.64	7.69	-41.2	-48.3	5.7	5.21e-01	0	52	0	0	54	7929
2026-01-10 22:41:06.47	26.71	7.77	-40.9	-47.0	6.7	2.22e-01	0	52	0	3145728	53	7214
2026-01-10 22:41:07.48	26.78	7.84	-40.5	-45.6	8.0	7.86e-02	0	52	0	6291456	52	6522
2026-01-10 22:41:08.49	26.85	7.91	-40.1	-44.6	9.0	3.07e-02	0	52	0	9437184	52	5807
2026-01-10 22:41:09.50	26.92	7.98	-39.7	-43.7	10.0	1.07e-02	0	52	0	12582912	51	5556
2026-01-10 22:41:10.51	26.99	8.06	-41.1	-47.0	7.1	1.16e-02	0	52	0	15728640	52	7674
2026-01-10 22:41:11.52	27.07	8.13	-42.0	-53.2	3.9	1.48e+00	0	52	104	16777216	55	13191
2026-01-10 22:41:12.53	27.14	8.20	-40.9	-47.2	4.4	1.48e+00	0	52	104	16777216	54	7007
2026-01-10 22:41:13.54	27.21	8.28	-41.0	-45.6	8.7	3.31e-03	0	52	0	17825792	52	6551
2026-01-10 22:41:14.55	27.29	8.35	-39.6	-42.7	11.4	1.19e+00	0	52	104	19922944	51	4967
2026-01-10 22:41:15.56	27.36	8.42	-39.4	-42.8	11.3	3.66e-03	0	52	0	23068672	50	5296
2026-01-10 22:41:16.57	27.43	8.50	-39.3	-42.4	11.9	3.49e-04	0	52	0	26214400	50	5066
2026-01-10 22:41:17.58	27.51	8.57	-39.3	-42.4	11.8	4.91e-04	0	53	0	29360128	50	5067
2026-01-10 22:41:18.59	27.58	8.65	-39.3	-42.3	11.9	4.27e-04	0	52	0	32505856	50	5035
2026-01-10 22:41:19.60	27.66	8.72	-39.2	-42.1	12.2	2.04e-04	0	52	0	35651584	50	4901
2026-01-10 22:41:20.61	27.73	8.79	-39.4	-42.4	12.0	3.13e-04	0	52	0	38797312	50	5043
2026-01-10 22:41:21.62	27.81	8.87	-39.4	-42.4	11.9	2.50e-04	0	52	0	41943040	50	5089
2026-01-10 22:41:22.62	27.89	8.94	-39.3	-42.2	12.2	2.70e-04	0	53	0	45088768	50	4964
2026-01-10 22:41:23.63	27.96	9.02	-39.4	-42.3	12.1	3.42e-04	0	53	0	48234496	50	5018
2026-01-10 22:41:24.64	28.04	9.09	-39.4	-42.2	12.3	1.46e-04	0	53	0	51380224	50	4958
2026-01-10 22:41:25.65	28.12	9.17	-39.4	-42.3	12.2	1.88e-04	0	53	0	54525952	50	5006
2026-01-10 22:41:26.66	28.19	9.25	-39.3	-42.1	12.5	1.05e-04	0	53	0	57671680	50	4905
2026-01-10 22:41:27.67	28.27	9.32	-39.3	-42.0	12.6	7.55e-05	0	53	0	60817408	50	4826
2026-01-10 22:41:28.68	28.35	9.40	-39.3	-41.9	12.8	8.92e-05	0	53	0	63963136	50	4791
2026-01-10 22:41:29.69	28.43	9.47	-39.2	-41.8	12.9	4.11e-05	0	53	0	67108864	50	4709
2026-01-10 22:41:30.70	28.51	9.55	-39.1	-41.7	13.0	3.96e-05	0	53	0	70254592	50	4673
2026-01-10 22:41:31.71	28.59	9.63	-39.2	-41.8	12.9	3.73e-05	0	53	0	73400320	50	4741
2026-01-10 22:41:32.72	28.67	9.71	-39.2	-41.8	13.0	3.89e-05	0	53	0	76546048	50	4726
2026-01-10 22:41:33.73	28.75	9.78	-39.2	-41.7	13.1	2.28e-05	0	53	0	79691776	50	4683
2026-01-10 22:41:34.74	28.83	9.86	-39.2	-41.7	13.0	4.50e-05	0	53	0	82837504	50	4698
2026-01-10 22:41:35.75	28.91	9.94	-39.2	-41.7	13.1	3.28e-05	0	53	0	85983232	50	4687
2026-01-10 22:41:36.76	28.99	10.02	-39.2	-41.8	13.1	3.66e-05	0	53	0	89128960	50	4706
2026-01-10 22:41:37.77	29.08	10.09	-39.3	-41.8	13.0	3.58e-05	0	53	0	92274688	50	4747
2026-01-10 22:41:38.78	29.16	10.17	-39.2	-41.6	13.2	3.35e-05	0	53	0	95420416	50	4640
2026-01-10 22:41:39.79	29.24	10.25	-39.2	-41.7	13.2	2.44e-05	0	53	0	98566144	50	4675
2026-01-10 22:41:40.80	29.32	10.33	-39.2	-41.7	13.2	2.44e-05	0	53	0	101711872	50	4673
2026-01-10 22:41:41.81	29.41	10.41	-39.0	-41.4	13.5	1.52e-05	0	53	0	104857600	50	4528
2026-01-10 22:41:42.82	29.49	10.49	-39.1	-41.5	13.4	2.28e-05	0	53	0	108003328	50	4551
2026-01-10 22:41:43.83	29.58	10.56	-39.0	-41.3	13.6	7.60e-06	0	53	0	111149056	49	4733
2026-01-10 22:41:44.85	29.66	10.64	-39.1	-41.5	13.4	1.52e-05	0	53	0	114294784	49	4852
2026-01-10 22:41:45.86	29.75	10.72	-38.9	-41.3	13.7	6.80e-06	0	53	0	117440512	49	4721
2026-01-10 22:41:46.87	29.83	10.80	-38.9	-41.2	13.8	6.80e-06	0	53	0	120586240	49	4671
2026-01-10 22:41:47.88	29.92	10.88	-38.9	-41.2	13.8	7.00e-07	0	53	0	123731968	49	4652
2026-01-10 22:41:48.89	30.01	10.96	-38.9	-41.2	13.8	4.50e-06	0	53	0	126877696	49	4663
2026-01-10 22:41:49.90	30.10	11.04	-39.0	-41.3	13.7	2.20e-06	0	53	0	130023424	49	4732
2026-01-10 22:41:50.91	30.18	11.13	-38.9	-41.2	13.8	4.50e-06	0	53	0	133169152	49	4667
2026-01-10 22:41:51.92	30.27	11.21	-38.9	-41.2	13.8	5.30e-06	0	53	0	136314880	49	4682
2026-01-10 22:41:52.93	30.36	11.29	-38.9	-41.2	13.8	4.50e-06	0	54	0	139460608	49	4681
2026-01-10 22:41:53.94	30.45	11.37	-39.0	-41.2	13.9	4.50e-06	0	53	0	142606336	49	4692
2026-01-10 22:41:54.95	30.54	11.45	-39.0	-41.3	13.8	5.30e-06	0	53	0	145752064	49	4747
2026-01-10 22:41:55.96	30.63	11.53	-39.0	-41.3	13.8	6.10e-06	0	53	0	148897792	49	4711
2026-01-10 22:41:56.97	30.72	11.61	-38.9	-41.1	14.0	0.00e+00	0	54	0	152043520	49	4623
2026-01-10 22:41:57.98	30.81	11.70	-38.8	-41.0	14.1	1.50e-06	0	54	0	155189248	49	4584
2026-01-10 22:41:58.99	30.90	11.78	-38.8	-41.0	14.1	1.50e-06	0	54	0	158334976	49	4578
2026-01-10 22:42:00.00	30.99	11.86	-38.7	-40.9	14.2	0.00e+00	0	54	0	161480704	49	4504
2026-01-10 22:42:01.01	31.09	11.94	-38.8	-41.0	14.2	7.00e-07	0	54	0	164626432	49	4553
2026-01-10 22:42:02.02	31.18	12.03	-38.6	-40.8	14.4	0.00e+00	0	53	0	167772160	49	4461
2026-01-10 22:42:03.03	31.27	12.11	-38.7	-40.8	14.4	0.00e+00	0	54	0	170917888	49	4452
2026-01-10 22:42:04.04	31.37	12.19	-38.8	-40.9	14.2	2.20e-06	0	54	0	174063616	49	4534
2026-01-10 22:42:05.05	31.46	12.28	-38.9	-41.1	14.1	7.00e-07	0	54	0	177209344	49	4614
2026-01-10 22:42:06.06	31.56	12.36	-38.8	-40.9	14.3	2.20e-06	0	54	0	180355072	49	4526
2026-01-10 22:42:07.07	31.65	12.44	-38.8	-40.9	14.2	1.50e-06	0	54	0	183500800	49	4541
2026-01-10 22:42:08.08	31.75	12.53	-38.8	-40.9	14.3	1.50e-06	0	54	0	186646528	49	4515
2026-01-10 22:42:09.09	31.85	12.61	-38.8	-40.9	14.3	7.00e-07	0	54	0	189792256	49	4511
2026-01-10 22:42:10.10	31.94	12.70	-38.7	-40.8	14.4	1.50e-06	0	54	0	192937984	49	4488
2026-01-10 22:42:11.11	32.04	12.78	-38.7	-40.8	14.4	7.00e-07	0	54	0	196083712	49	4480
2026-01-10 22:42:12.12	32.14	12.87	-38.7	-40.8	14.4	0.00e+00	0	54	0	199229440	49	4490
2026-01-10 22:42:13.13	32.24	12.95	-38.7	-40.8	14.4	0.00e+00	0	54	0	202375168	49	4463
2026-01-10 22:42:14.14	32.34	13.04	-38.7	-40.7	14.5	7.00e-07	0	54	0	205520896	49	4437
2026-01-10 22:42:15.15	32.44	13.12	-38.7	-40.8	14.4	0.00e+00	0	54	0	208666624	49	4481
2026-01-10 22:42:16.16	32.54	13.21	-38.7	-40.8	14.5	7.00e-07	0	54	0	211812352	49	4471
2026-01-10 22:42:17.17	32.64	13.30	-38.6	-40.7	14.6	7.00e-07	0	54	0	214958080	49	4430
2026-01-10 22:42:18.18	32.74	13.38	-38.6	-40.6	14.6	0.00e+00	0	54	0	218103808	49	4371
2026-01-10 22:42:19.19	32.84	13.47	-38.6	-40.6	14.6	7.00e-07	0	54	0	221249536	49	4377
2026-01-10 22:42:20.20	32.94	13.56	-38.7	-40.7	14.6	7.00e-07	0	54	0	224395264	49	4432
2026-01-10 22:42:21.21	33.05	13.64	-38.6	-40.7	14.6	0.00e+00	0	54	0	227540992	49	4406
2026-01-10 22:42:22.22	33.15	13.73	-38.7	-40.8	14.5	7.00e-07	0	54	0	230686720	49	4456
2026-01-10 22:42:23.23	33.26	13.82	-38.7	-40.8	14.4	0.00e+00	0	54	0	233832448	49	4493
2026-01-10 22:42:24.23	33.36	13.91	-38.7	-40.8	14.6	0.00e+00	0	54	0	236978176	49	4447
2026-01-10 22:42:25.24	33.47	13.99	-38.7	-40.8	14.5	7.00e-07	0	54	0	240123904	49	4442
2026-01-10 22:42:26.25	33.57	14.08	-38.7	-40.8	14.6	7.00e-07	0	54	0	243269632	49	4459
2026-01-10 22:42:27.26	33.68	14.17	-38.7	-40.8	14.5	0.00e+00	0	54	0	246415360	49	4479
2026-01-10 22:42:28.27	33.79	14.26	-38.8	-40.8	14.5	7.00e-07	0	54	0	249561088	49	4482
2026-01-10 22:42:29.28	33.89	14.35	-38.7	-40.7	14.7	2.20e-06	0	54	0	252706816	49	4419
2026-01-10 22:42:30.29	34.00	14.44	-38.7	-40.8	14.6	0.00e+00	0	54	0	255852544	49	4453
2026-01-10 22:42:31.30	34.11	14.53	-38.7	-40.7	14.7	0.00e+00	0	54	0	258998272	49	4398
2026-01-10 22:42:32.31	34.22	14.62	-38.7	-40.8	14.6	7.00e-07	0	54	0	262144000	49	4463
2026-01-10 22:42:33.32	34.33	14.71	-38.7	-40.8	14.6	7.00e-07	0	54	0	265289728	49	4449
2026-01-10 22:42:34.33	34.44	14.80	-38.7	-40.7	14.7	0.00e+00	0	54	0	268435456	49	4421
2026-01-10 22:42:35.35	34.56	14.89	-38.7	-40.8	14.6	1.50e-06	0	54	0	271581184	49	4449
2026-01-10 22:42:36.36	34.67	14.98	-38.7	-40.7	14.7	7.00e-07	0	54	0	274726912	49	4434
2026-01-10 22:42:37.36	34.78	15.07	-38.8	-40.9	14.5	7.00e-07	0	54	0	277872640	49	4527
2026-01-10 22:42:38.38	34.90	15.16	-38.8	-40.8	14.6	1.50e-06	0	54	0	281018368	49	4482
2026-01-10 22:42:39.39	35.01	15.25	-38.8	-40.8	14.6	7.00e-07	0	54	0	284164096	49	4473
2026-01-10 22:42:40.39	35.13	15.35	-38.8	-40.9	14.5	7.00e-07	0	54	0	287309824	49	4534
2026-01-10 22:42:41.41	35.24	15.44	-38.9	-41.0	14.5	7.00e-07	0	54	0	290455552	49	4557
2026-01-10 22:42:42.41	35.36	15.53	-38.9	-41.0	14.4	7.00e-07	0	55	0	293601280	49	4593
2026-01-10 22:42:43.42	35.48	15.62	-38.9	-40.9	14.5	7.00e-07	0	54	0	296747008	49	4544
2026-01-10 22:42:44.43	35.59	15.71	-38.8	-40.9	14.6	0.00e+00	0	54	0	299892736	49	4505
2026-01-10 22:42:45.44	35.71	15.81	-39.0	-41.1	14.4	0.00e+00	0	54	0	303038464	49	4607
2026-01-10 22:42:46.45	35.83	15.90	-38.9	-40.9	14.6	7.00e-07	0	54	0	306184192	49	4531
2026-01-10 22:42:47.46	35.95	15.99	-38.8	-40.8	14.7	0.00e+00	0	54	0	309329920	49	4451
2026-01-10 22:42:48.47	36.07	16.09	-38.6	-40.6	14.9	0.00e+00	0	54	0	312475648	49	4351
2026-01-10 22:42:49.48	36.19	16.18	-38.8	-40.8	14.7	7.00e-07	0	54	0	315621376	49	4464
2026-01-10 22:42:50.49	36.32	16.28	-38.7	-40.7	14.8	0.00e+00	0	54	0	318767104	49	4424
2026-01-10 22:42:51.50	36.44	16.37	-38.8	-40.8	14.8	0.00e+00	0	54	0	321912832	49	4458
2026-01-10 22:42:52.51	36.56	16.47	-38.7	-40.7	14.8	0.00e+00	0	54	0	326107136	49	4407
2026-01-10 22:42:53.52	36.69	16.56	-38.7	-40.7	14.8	0.00e+00	0	55	0	329252864	49	4418
2026-01-10 22:42:54.53	36.81	16.66	-38.8	-40.8	14.8	0.00e+00	0	54	0	332398592	49	4451
2026-01-10 22:42:55.54	36.94	16.75	-38.7	-40.7	14.8	0.00e+00	0	55	0	334495744	49	4426
2026-01-10 22:42:56.55	37.07	16.85	-38.6	-40.6	14.9	0.00e+00	0	55	0	337641472	49	4373
2026-01-10 22:42:57.56	37.19	16.94	-38.6	-40.6	14.9	0.00e+00	0	55	0	341835776	49	4374
2026-01-10 22:42:58.57	37.32	17.04	-38.5	-40.5	15.1	0.00e+00	0	55	0	344981504	49	4298
2026-01-10 22:42:59.58	37.45	17.13	-38.6	-40.5	15.0	0.00e+00	0	55	0	348127232	49	4333
2026-01-10 22:43:00.59	37.58	17.23	-38.6	-40.6	15.0	0.00e+00	0	55	0	351272960	49	4368
2026-01-10 22:43:01.60	37.71	17.33	-38.5	-40.4	15.2	0.00e+00	0	55	0	354418688	49	4274
2026-01-10 22:43:02.61	37.84	17.43	-38.6	-40.6	15.0	0.00e+00	0	55	0	357564416	49	4343
2026-01-10 22:43:03.62	37.98	17.52	-38.7	-40.6	15.0	0.00e+00	0	55	0	360710144	49	4373
2026-01-10 22:43:04.63	38.11	17.62	-38.7	-40.6	14.9	0.00e+00	0	55	0	363855872	49	4377
2026-01-10 22:43:05.64	38.24	17.72	-38.6	-40.6	15.0	7.00e-07	0	55	0	367001600	49	4347
2026-01-10 22:43:06.65	38.38	17.82	-38.7	-40.7	14.9	0.00e+00	0	55	0	370147328	49	4392
2026-01-10 22:43:07.66	38.52	17.91	-38.5	-40.4	15.1	0.00e+00	0	54	0	373293056	49	4279
2026-01-10 22:43:08.67	38.65	18.01	-38.6	-40.5	15.1	0.00e+00	0	55	0	376438784	49	4335
2026-01-10 22:43:09.68	38.79	18.11	-38.6	-40.5	15.1	0.00e+00	0	55	0	379584512	49	4325
2026-01-10 22:43:10.69	38.93	18.21	-38.7	-40.6	15.0	0.00e+00	0	55	0	382730240	49	4376
2026-01-10 22:43:11.70	39.07	18.31	-38.7	-40.7	14.9	0.00e+00	0	55	0	385875968	49	4421
2026-01-10 22:43:12.71	39.21	18.41	-38.7	-40.6	15.0	0.00e+00	0	55	0	389021696	49	4390
2026-01-10 22:43:13.72	39.35	18.51	-38.7	-40.7	15.0	0.00e+00	0	55	0	392167424	49	4402
2026-01-10 22:43:14.73	39.49	18.61	-38.5	-40.5	15.2	0.00e+00	0	55	0	395313152	49	4292
2026-01-10 22:43:15.74	39.63	18.71	-38.5	-40.4	15.2	0.00e+00	0	55	0	398458880	48	4500
2026-01-10 22:43:16.75	39.78	18.81	-38.5	-40.3	15.3	0.00e+00	0	55	0	401604608	48	4493
2026-01-10 22:43:17.76	39.92	18.91	-38.5	-40.4	15.2	0.00e+00	0	55	0	404750336	48	4515
2026-01-10 22:43:18.77	40.07	19.01	-38.5	-40.4	15.2	0.00e+00	0	55	0	407896064	48	4517
2026-01-10 22:43:19.78	40.22	19.11	-38.6	-40.5	15.2	0.00e+00	0	55	0	411041792	48	4576
2026-01-10 22:43:20.79	40.36	19.22	-38.6	-40.5	15.1	0.00e+00	0	55	0	414187520	48	4594
2026-01-10 22:43:21.80	40.51	19.32	-38.5	-40.4	15.3	0.00e+00	0	55	0	417333248	48	4531
2026-01-10 22:43:22.81	40.66	19.42	-38.6	-40.5	15.1	7.00e-07	0	55	0	420478976	48	4585
2026-01-10 22:43:23.82	40.81	19.52	-38.6	-40.5	15.2	0.00e+00	0	55	0	423624704	48	4560
2026-01-10 22:43:24.83	40.96	19.62	-38.4	-40.3	15.4	0.00e+00	0	55	0	426770432	48	4475
2026-01-10 22:43:25.84	41.11	19.73	-38.4	-40.2	15.4	0.00e+00	0	55	0	429916160	48	4417
2026-01-10 22:43:26.85	41.27	19.83	-38.4	-40.2	15.5	0.00e+00	0	55	0	433061888	48	4405
2026-01-10 22:43:27.86	41.42	19.93	-38.3	-40.1	15.5	0.00e+00	0	55	0	436207616	48	4372
2026-01-10 22:43:28.87	41.58	20.04	-38.3	-40.1	15.5	0.00e+00	0	55	0	439353344	48	4390
2026-01-10 22:43:29.88	41.73	20.14	-38.2	-40.0	15.7	0.00e+00	0	55	0	442499072	48	4308
2026-01-10 22:43:30.89	41.89	20.24	-38.2	-40.0	15.7	0.00e+00	0	55	0	445644800	48	4295
2026-01-10 22:43:31.90	42.05	20.35	-38.2	-39.9	15.7	0.00e+00	0	55	0	448790528	48	4275
2026-01-10 22:43:32.91	42.21	20.45	-38.0	-39.7	16.0	0.00e+00	0	55	0	451936256	48	4177
2026-01-10 22:43:33.92	42.37	20.56	-38.2	-39.9	15.7	0.00e+00	0	55	0	455081984	48	4285
2026-01-10 22:43:34.93	42.53	20.66	-38.0	-39.8	15.9	0.00e+00	0	55	0	458227712	48	4209
2026-01-10 22:43:35.94	42.70	20.77	-37.9	-39.6	16.0	0.00e+00	0	55	0	461373440	47	4372
2026-01-10 22:43:36.95	42.86	20.87	-37.9	-39.7	15.9	0.00e+00	0	55	0	464519168	47	4401
2026-01-10 22:43:37.97	43.03	20.98	-37.9	-39.6	16.0	0.00e+00	0	55	0	467664896	47	4371
2026-01-10 22:43:38.98	43.19	21.08	-37.9	-39.6	16.0	0.00e+00	0	55	0	470810624	47	4359
2026-01-10 22:43:39.99	43.36	21.19	-37.9	-39.6	16.0	0.00e+00	0	55	0	473956352	47	4360
2026-01-10 22:43:41.00	43.53	21.29	-37.9	-39.6	16.0	0.00e+00	0	55	0	477102080	47	4366
2026-01-10 22:43:42.01	43.70	21.40	-37.8	-39.6	16.1	0.00e+00	0	55	0	480247808	47	4343
2026-01-10 22:43:43.02	43.87	21.51	-37.8	-39.5	16.1	0.00e+00	0	55	0	483393536	47	4327
2026-01-10 22:43:44.02	44.04	21.61	-37.7	-39.4	16.2	0.00e+00	0	55	0	486539264	47	4273
2026-01-10 22:43:45.04	44.21	21.72	-37.7	-39.4	16.2	0.00e+00	0	55	0	489684992	47	4267
2026-01-10 22:43:46.05	44.39	21.83	-37.6	-39.2	16.4	0.00e+00	0	55	0	492830720	47	4188
2026-01-10 22:43:47.05	44.56	21.93	-37.6	-39.2	16.4	0.00e+00	0	55	0	495976448	47	4192
2026-01-10 22:43:48.06	44.74	22.04	-37.5	-39.1	16.5	0.00e+00	0	55	0	499122176	47	4140
2026-01-10 22:43:49.07	44.91	22.15	-37.5	-39.1	16.5	0.00e+00	0	55	0	502267904	46	4371
2026-01-10 22:43:50.09	45.09	22.26	-37.5	-39.1	16.5	0.00e+00	0	55	0	505413632	46	4377
2026-01-10 22:43:51.10	45.27	22.36	-37.5	-39.1	16.5	0.00e+00	0	55	0	508559360	46	4383
2026-01-10 22:43:52.11	45.46	22.47	-37.6	-39.2	16.4	0.00e+00	0	55	0	511705088	46	4427
2026-01-10 22:43:53.12	45.64	22.58	-37.6	-39.3	16.4	0.00e+00	0	55	0	514850816	46	4475
2026-01-10 22:43:54.13	45.82	22.69	-37.6	-39.2	16.4	0.00e+00	0	55	0	517996544	46	4420
2026-01-10 22:43:55.14	46.01	22.80	-37.5	-39.1	16.5	0.00e+00	0	55	0	521142272	46	4391
2026-01-10 22:43:56.15	46.19	22.91	-37.5	-39.2	16.5	0.00e+00	0	55	0	524288000	46	4396
2026-01-10 22:43:57.16	46.38	23.02	-37.5	-39.1	16.6	0.00e+00	0	55	0	527433728	46	4368
2026-01-10 22:43:58.17	46.57	23.12	-37.4	-39.0	16.7	0.00e+00	0	55	0	530579456	46	4299
2026-01-10 22:43:59.18	46.76	23.23	-37.4	-39.0	16.7	0.00e+00	0	55	0	533725184	46	4293
2026-01-10 22:44:00.19	46.95	23.34	-37.4	-39.0	16.6	0.00e+00	0	55	0	536870912	46	4315
2026-01-10 22:44:01.20	47.14	23.45	-37.4	-39.0	16.6	0.00e+00	0	55	0	540016640	46	4328
2026-01-10 22:44:02.21	47.34	23.56	-37.5	-39.1	16.5	0.00e+00	0	55	0	543162368	46	4390
2026-01-10 22:44:03.22	47.53	23.67	-37.5	-39.1	16.6	0.00e+00	0	55	0	546308096	46	4378
2026-01-10 22:44:04.23	47.73	23.78	-37.6	-39.2	16.5	0.00e+00	0	55	0	549453824	46	4421
2026-01-10 22:44:05.24	47.93	23.89	-37.6	-39.2	16.5	0.00e+00	0	55	0	552599552	46	4428
2026-01-10 22:44:06.25	48.13	24.00	-37.6	-39.2	16.5	0.00e+00	0	55	0	555745280	46	4403
2026-01-10 22:44:07.26	48.33	24.11	-37.5	-39.1	16.5	0.00e+00	0	55	0	558891008	46	4376
2026-01-10 22:44:08.28	48.53	24.22	-37.5	-39.1	16.5	0.00e+00	0	55	0	562036736	46	4376
2026-01-10 22:44:09.29	48.74	24.33	-37.5	-39.1	16.5	0.00e+00	0	55	0	565182464	46	4364
2026-01-10 22:44:10.30	48.94	24.44	-37.5	-39.1	16.5	0.00e+00	0	55	0	568328192	46	4379
2026-01-10 22:44:11.31	49.15	24.55	-37.5	-39.1	16.5	0.00e+00	0	55	0	571473920	46	4366
2026-01-10 22:44:12.32	49.35	24.67	-37.6	-39.3	16.4	0.00e+00	0	55	0	574619648	46	4448
2026-01-10 22:44:13.33	49.56	24.78	-37.6	-39.2	16.4	0.00e+00	0	55	0	577765376	46	4438
2026-01-10 22:44:14.34	49.77	24.89	-37.7	-39.4	16.3	0.00e+00	0	55	0	580911104	46	4495
2026-01-10 22:44:15.35	49.99	25.00	-37.8	-39.5	16.2	0.00e+00	0	55	0	584056832	46	4552
2026-01-10 22:44:16.36	50.20	25.11	-37.8	-39.5	16.2	0.00e+00	0	55	0	587202560	46	4571
2026-01-10 22:44:17.37	50.42	25.22	-37.8	-39.5	16.2	0.00e+00	0	55	0	590348288	46	4580
2026-01-10 22:44:18.38	50.63	25.33	-37.9	-39.5	16.2	0.00e+00	0	55	0	593494016	46	4589
2026-01-10 22:44:19.39	50.85	25.44	-37.9	-39.6	16.1	0.00e+00	0	55	0	596639744	46	4637
2026-01-10 22:44:20.40	51.07	25.55	-37.9	-39.6	16.1	0.00e+00	0	55	0	600834048	46	4633
2026-01-10 22:44:21.41	51.29	25.66	-38.0	-39.7	16.0	0.00e+00	0	55	0	602931200	46	4677
2026-01-10 22:44:22.42	51.51	25.78	-38.1	-39.8	15.9	0.00e+00	0	55	0	606076928	46	4734
2026-01-10 22:44:23.43	51.74	25.89	-38.0	-39.8	16.0	0.00e+00	0	55	0	609222656	46	4715
2026-01-10 22:44:24.44	51.96	26.00	-38.1	-39.8	15.9	0.00e+00	0	55	0	612368384	46	4757
2026-01-10 22:44:25.45	52.19	26.11	-38.1	-39.9	15.9	0.00e+00	0	55	0	615514112	46	4781
2026-01-10 22:44:26.46	52.42	26.22	-38.2	-39.9	15.8	0.00e+00	0	55	0	619708416	47	4540
2026-01-10 22:44:27.47	52.65	26.33	-38.3	-40.0	15.8	0.00e+00	0	55	0	622854144	47	4598
2026-01-10 22:44:28.48	52.88	26.44	-38.3	-40.1	15.7	0.00e+00	0	55	0	624951296	47	4616
2026-01-10 22:44:29.49	53.12	26.55	-38.3	-40.1	15.7	0.00e+00	0	55	0	628097024	47	4610
2026-01-10 22:44:30.50	53.35	26.67	-38.3	-40.1	15.7	0.00e+00	0	55	0	631242752	47	4618
2026-01-10 22:44:31.51	53.59	26.78	-38.3	-40.0	15.8	0.00e+00	0	55	0	635437056	47	4591
2026-01-10 22:44:32.52	53.83	26.89	-38.2	-40.0	15.8	0.00e+00	0	55	0	638582784	47	4578
2026-01-10 22:44:33.53	54.07	27.00	-38.2	-39.9	15.9	0.00e+00	0	55	0	641728512	47	4542
2026-01-10 22:44:34.54	54.31	27.11	-38.2	-40.0	15.8	0.00e+00	0	55	0	644874240	47	4585
2026-01-10 22:44:35.55	54.55	27.22	-38.3	-40.1	15.7	0.00e+00	0	55	0	648019968	47	4647
2026-01-10 22:44:36.57	54.80	27.33	-38.3	-40.1	15.7	0.00e+00	0	55	0	651165696	47	4642
2026-01-10 22:44:37.58	55.05	27.44	-38.4	-40.2	15.6	0.00e+00	0	55	0	654311424	47	4702
2026-01-10 22:44:38.59	55.29	27.55	-38.4	-40.3	15.5	0.00e+00	0	55	0	657457152	47	4715
2026-01-10 22:44:39.60	55.54	27.66	-38.4	-40.3	15.6	0.00e+00	0	56	0	660602880	47	4717
2026-01-10 22:44:40.61	55.80	27.77	-38.6	-40.4	15.4	0.00e+00	0	55	0	663748608	47	4801
2026-01-10 22:44:41.62	56.05	27.88	-38.6	-40.5	15.4	0.00e+00	0	56	0	666894336	47	4833
2026-01-10 22:44:42.63	56.31	27.99	-38.6	-40.5	15.3	0.00e+00	0	55	0	670040064	47	4826
2026-01-10 22:44:43.64	56.56	28.10	-38.5	-40.4	15.4	0.00e+00	0	55	0	673185792	47	4790
2026-01-10 22:44:44.65	56.82	28.21	-38.6	-40.4	15.4	0.00e+00	0	55	0	676331520	47	4802
2026-01-10 22:44:45.66	57.08	28.32	-38.6	-40.4	15.4	0.00e+00	0	55	0	679477248	47	4793
2026-01-10 22:44:46.67	57.34	28.43	-38.4	-40.2	15.6	0.00e+00	0	56	0	682622976	47	4675
2026-01-10 22:44:47.68	57.61	28.54	-38.4	-40.2	15.7	0.00e+00	0	56	0	685768704	47	4653
2026-01-10 22:44:48.69	57.87	28.65	-38.3	-40.1	15.8	7.00e-07	0	56	0	688914432	47	4611
2026-01-10 22:44:49.70	58.14	28.76	-38.3	-40.1	15.8	0.00e+00	0	55	0	692060160	47	4609
2026-01-10 22:44:50.71	58.41	28.87	-38.3	-40.0	15.8	0.00e+00	0	55	0	695205888	47	4594
2026-01-10 22:44:51.72	58.68	28.98	-38.4	-40.2	15.7	0.00e+00	0	56	0	698351616	47	4661
2026-01-10 22:44:52.73	58.96	29.08	-38.4	-40.3	15.6	0.00e+00	0	55	0	701497344	47	4717
2026-01-10 22:44:53.74	59.23	29.19	-38.5	-40.3	15.5	0.00e+00	0	55	0	704643072	47	4746
2026-01-10 22:44:54.75	59.51	29.30	-38.5	-40.4	15.5	0.00e+00	0	55	0	707788800	47	4773
2026-01-10 22:44:55.76	59.79	29.41	-38.5	-40.3	15.6	0.00e+00	0	55	0	710934528	47	4723
2026-01-10 22:44:56.77	60.07	29.51	-38.3	-40.1	15.7	0.00e+00	0	56	0	714080256	47	4638
2026-01-10 22:44:57.78	60.35	29.62	-38.3	-40.1	15.7	0.00e+00	0	55	0	717225984	47	4611
2026-01-10 22:44:58.79	60.63	29.72	-38.1	-39.8	16.0	0.00e+00	0	56	0	720371712	47	4474
2026-01-10 22:44:59.80	60.92	29.83	-38.0	-39.7	16.2	0.00e+00	0	55	0	723517440	47	4406
2026-01-10 22:45:00.82	61.21	29.94	-38.1	-39.8	16.0	0.00e+00	0	56	0	726663168	47	4472
2026-01-10 22:45:01.83	61.50	30.04	-38.1	-39.7	16.1	0.00e+00	0	56	0	729808896	47	4434
2026-01-10 22:45:02.84	61.79	30.15	-38.1	-39.8	16.0	0.00e+00	0	56	0	732954624	47	4479
2026-01-10 22:45:03.85	62.08	30.25	-38.2	-39.9	16.0	0.00e+00	0	56	0	736100352	47	4520
2026-01-10 22:45:04.86	62.38	30.35	-38.2	-40.0	15.9	0.00e+00	0	56	0	739246080	47	4571
2026-01-10 22:45:05.87	62.67	30.46	-38.3	-40.0	15.8	0.00e+00	0	55	0	742391808	47	4598
2026-01-10 22:45:06.88	62.97	30.56	-38.3	-40.1	15.8	0.00e+00	0	55	0	745537536	47	4635
2026-01-10 22:45:07.89	63.27	30.66	-38.4	-40.2	15.7	0.00e+00	0	56	0	748683264	47	4669
2026-01-10 22:45:08.90	63.58	30.76	-38.4	-40.2	15.7	0.00e+00	0	56	0	751828992	47	4687
2026-01-10 22:45:09.91	63.88	30.86	-38.4	-40.2	15.7	0.00e+00	0	56	0	754974720	47	4653
2026-01-10 22:45:10.92	64.19	30.96	-38.3	-40.1	15.7	0.00e+00	0	56	0	758120448	47	4639
2026-01-10 22:45:11.92	64.49	31.06	-38.5	-40.3	15.6	0.00e+00	0	55	0	761266176	47	4717
2026-01-10 22:45:12.93	64.80	31.16	-38.5	-40.3	15.5	0.00e+00	0	56	0	764411904	47	4753
2026-01-10 22:45:13.94	65.11	31.26	-38.6	-40.4	15.4	0.00e+00	0	56	0	767557632	47	4814
2026-01-10 22:45:14.95	65.43	31.36	-38.4	-40.2	15.7	0.00e+00	0	56	0	770703360	47	4688
2026-01-10 22:45:15.96	65.74	31.46	-38.2	-39.9	16.0	0.00e+00	0	56	0	773849088	47	4524
2026-01-10 22:45:16.97	66.06	31.56	-38.2	-39.9	16.0	0.00e+00	0	56	0	776994816	47	4524
2026-01-10 22:45:17.98	66.38	31.65	-38.2	-39.9	16.0	0.00e+00	0	56	0	780140544	47	4511
2026-01-10 22:45:18.99	66.70	31.75	-38.3	-40.0	15.8	0.00e+00	0	56	0	783286272	47	4595
2026-01-10 22:45:20.00	67.03	31.84	-38.4	-40.2	15.7	0.00e+00	0	56	0	786432000	47	4678
2026-01-10 22:45:21.01	67.35	31.94	-38.5	-40.4	15.6	0.00e+00	0	56	0	789577728	47	4763
2026-01-10 22:45:22.02	67.68	32.03	-38.5	-40.4	15.5	0.00e+00	0	56	0	792723456	47	4765
2026-01-10 22:45:23.03	68.01	32.13	-38.6	-40.4	15.5	0.00e+00	0	56	0	795869184	47	4804
2026-01-10 22:45:24.04	68.34	32.22	-38.6	-40.5	15.5	0.00e+00	0	56	0	799014912	47	4819
2026-01-10 22:45:25.05	68.67	32.31	-38.5	-40.3	15.6	0.00e+00	0	56	0	802160640	47	4739
2026-01-10 22:45:26.07	69.01	32.40	-38.6	-40.4	15.5	0.00e+00	0	56	0	805306368	47	4813
2026-01-10 22:45:27.07	69.34	32.49	-38.7	-40.5	15.4	0.00e+00	0	56	0	808452096	47	4836
2026-01-10 22:45:28.08	69.68	32.58	-38.9	-40.8	15.2	0.00e+00	0	56	0	811597824	48	4737
2026-01-10 22:45:29.09	70.02	32.67	-39.1	-41.0	15.0	0.00e+00	0	56	0	814743552	48	4850
2026-01-10 22:45:30.10	70.36	32.76	-39.1	-41.1	14.9	0.00e+00	0	56	0	817889280	48	4894
2026-01-10 22:45:31.12	70.71	32.84	-39.1	-41.0	15.0	0.00e+00	0	56	0	821035008	48	4847
2026-01-10 22:45:32.13	71.05	32.93	-39.1	-41.0	15.0	0.00e+00	0	56	0	824180736	48	4851
2026-01-10 22:45:33.14	71.40	33.01	-39.0	-40.9	15.1	0.00e+00	0	56	0	827326464	48	4793
2026-01-10 22:45:34.15	71.75	33.10	-39.0	-40.9	15.2	0.00e+00	0	56	0	830472192	48	4763
2026-01-10 22:45:35.16	72.10	33.18	-38.9	-40.8	15.2	0.00e+00	0	56	0	833617920	48	4749
2026-01-10 22:45:36.17	72.45	33.26	-39.0	-40.9	15.1	0.00e+00	0	56	0	836763648	48	4776
2026-01-10 22:45:37.18	72.81	33.34	-39.1	-41.0	15.0	0.00e+00	0	56	0	839909376	48	4835
2026-01-10 22:45:38.19	73.16	33.42	-39.1	-41.1	15.0	0.00e+00	0	56	0	843055104	48	4903
2026-01-10 22:45:39.20	73.52	33.50	-39.2	-41.1	14.9	7.00e-07	0	56	0	846200832	48	4913
2026-01-10 22:45:40.20	73.88	33.58	-39.0	-40.9	15.1	0.00e+00	0	56	0	849346560	48	4786
2026-01-10 22:45:41.22	74.24	33.66	-39.0	-40.9	15.2	0.00e+00	0	56	0	852492288	48	4762
2026-01-10 22:45:42.23	74.61	33.74	-38.8	-40.7	15.3	0.00e+00	0	56	0	855638016	48	4679
2026-01-10 22:45:43.23	74.97	33.81	-38.8	-40.6	15.3	0.00e+00	0	56	0	858783744	48	4649
2026-01-10 22:45:44.25	75.34	33.88	-38.9	-40.8	15.2	0.00e+00	0	56	0	861929472	48	4738
2026-01-10 22:45:45.26	75.70	33.96	-38.9	-40.8	15.2	0.00e+00	0	56	0	865075200	48	4748
2026-01-10 22:45:46.27	76.07	34.03	-38.8	-40.7	15.3	0.00e+00	0	56	0	868220928	48	4688
2026-01-10 22:45:47.28	76.45	34.10	-38.8	-40.7	15.4	0.00e+00	0	56	0	871366656	48	4659
2026-01-10 22:45:48.29	76.82	34.17	-38.9	-40.7	15.3	0.00e+00	0	56	0	874512384	48	4698
2026-01-10 22:45:49.30	77.19	34.24	-38.8	-40.6	15.4	0.00e+00	0	56	0	877658112	48	4639
2026-01-10 22:45:50.30	77.56	34.30	-38.9	-40.8	15.3	0.00e+00	0	56	0	880803840	48	4723
2026-01-10 22:45:51.31	77.94	34.37	-39.0	-40.9	15.2	0.00e+00	0	56	0	883949568	48	4767
2026-01-10 22:45:52.33	78.32	34.44	-39.1	-41.0	15.1	0.00e+00	0	56	0	887095296	48	4833
2026-01-10 22:45:53.34	78.71	34.50	-39.1	-41.1	14.9	0.00e+00	0	56	0	890241024	48	4881
2026-01-10 22:45:54.34	79.08	34.56	-39.2	-41.2	14.8	0.00e+00	0	56	0	893386752	49	4672
2026-01-10 22:45:55.36	79.47	34.62	-39.3	-41.3	14.7	7.00e-07	0	56	0	896532480	49	4717
2026-01-10 22:45:56.37	79.86	34.68	-39.2	-41.1	14.9	7.00e-07	0	56	0	899678208	49	4646
2026-01-10 22:45:57.38	80.24	34.74	-39.1	-41.0	15.0	7.00e-07	0	56	0	902823936	49	4587
2026-01-10 22:45:58.38	80.63	34.80	-39.0	-40.8	15.2	0.00e+00	0	56	0	905969664	49	4489
2026-01-10 22:45:59.39	81.01	34.85	-38.9	-40.7	15.3	0.00e+00	0	56	0	909115392	49	4428
2026-01-10 22:46:00.40	81.40	34.91	-38.9	-40.8	15.2	0.00e+00	0	56	0	913309696	49	4483
2026-01-10 22:46:01.41	81.80	34.96	-39.0	-41.0	15.1	0.00e+00	0	56	0	916455424	49	4555
2026-01-10 22:46:02.43	82.19	35.01	-39.1	-41.0	15.0	0.00e+00	0	56	0	918552576	49	4586
2026-01-10 22:46:03.43	82.58	35.06	-39.1	-41.0	15.0	7.00e-07	0	56	0	921698304	49	4592
2026-01-10 22:46:04.44	82.98	35.11	-39.1	-41.0	14.9	0.00e+00	0	56	0	924844032	49	4592
2026-01-10 22:46:05.45	83.37	35.16	-39.0	-40.9	15.1	0.00e+00	0	56	0	929038336	49	4508
2026-01-10 22:46:06.47	83.77	35.20	-39.0	-40.9	15.1	0.00e+00	0	56	0	932184064	49	4527
2026-01-10 22:46:07.48	84.17	35.25	-39.1	-41.0	15.0	0.00e+00	0	56	0	935329792	49	4589
2026-01-10 22:46:08.49	84.57	35.29	-39.2	-41.2	14.8	0.00e+00	0	56	0	938475520	49	4661
2026-01-10 22:46:09.50	84.97	35.33	-39.3	-41.3	14.7	0.00e+00	0	56	0	941621248	49	4754
2026-01-10 22:46:10.51	85.37	35.37	-39.5	-41.6	14.4	0.00e+00	0	56	0	944766976	49	4903
2026-01-10 22:46:11.52	85.78	35.41	-39.5	-41.6	14.4	0.00e+00	0	56	0	947912704	49	4926
2026-01-10 22:46:12.53	86.18	35.45	-39.6	-41.7	14.3	0.00e+00	0	56	0	951058432	49	4945
2026-01-10 22:46:13.54	86.58	35.48	-39.6	-41.8	14.2	1.50e-06	0	56	0	954204160	49	5006
2026-01-10 22:46:14.55	86.99	35.51	-39.4	-41.5	14.6	0.00e+00	0	56	0	957349888	49	4826
2026-01-10 22:46:15.56	87.40	35.55	-39.3	-41.4	14.7	0.00e+00	0	56	0	960495616	49	4762
2026-01-10 22:46:16.57	87.80	35.58	-39.3	-41.3	14.8	0.00e+00	0	56	0	963641344	49	4718
2026-01-10 22:46:17.58	88.21	35.61	-39.2	-41.2	14.9	0.00e+00	0	56	0	966787072	49	4660
2026-01-10 22:46:18.59	88.62	35.63	-39.2	-41.1	14.9	0.00e+00	0	56	0	969932800	49	4649
2026-01-10 22:46:19.60	89.03	35.66	-39.2	-41.2	14.8	0.00e+00	0	56	0	973078528	49	4659
2026-01-10 22:46:20.61	89.44	35.69	-39.4	-41.4	14.7	0.00e+00	0	56	0	976224256	49	4773
2026-01-10 22:46:21.62	89.85	35.71	-39.4	-41.5	14.6	0.00e+00	0	56	0	979369984	49	4819
2026-01-10 22:46:22.63	90.26	35.73	-39.4	-41.5	14.6	0.00e+00	0	56	0	982515712	49	4843
2026-01-10 22:46:23.64	90.67	35.75	-39.2	-41.2	14.8	0.00e+00	0	56	0	985661440	49	4683
2026-01-10 22:46:24.65	91.08	35.77	-39.3	-41.3	14.8	0.00e+00	0	56	0	988807168	49	4730
2026-01-10 22:46:25.66	91.49	35.78	-39.3	-41.3	14.7	7.00e-07	0	56	0	991952896	49	4752
2026-01-10 22:46:26.67	91.91	35.80	-39.3	-41.3	14.8	0.00e+00	0	56	0	995098624	49	4716
2026-01-10 22:46:27.68	92.32	35.81	-39.1	-41.0	15.0	7.00e-07	0	56	0	998244352	49	4573
2026-01-10 22:46:28.69	92.73	35.82	-39.0	-40.9	15.1	0.00e+00	0	56	0	1001390080	49	4544
2026-01-10 22:46:29.70	93.15	35.83	-39.1	-41.0	15.0	0.00e+00	0	56	0	1004535808	49	4567
2026-01-10 22:46:30.71	93.56	35.84	-38.9	-40.8	15.3	0.00e+00	0	56	0	1007681536	49	4454
2026-01-10 22:46:31.72	93.97	35.85	-38.8	-40.6	15.4	0.00e+00	0	56	0	1010827264	49	4352
2026-01-10 22:46:32.73	94.39	35.85	-38.7	-40.5	15.5	0.00e+00	0	56	0	1013972992	49	4337
2026-01-10 22:46:33.74	94.80	35.86	-38.8	-40.6	15.5	0.00e+00	0	56	0	1017118720	49	4385
2026-01-10 22:46:34.75	95.22	35.86	-38.9	-40.8	15.3	0.00e+00	0	56	0	1020264448	49	4470
2026-01-10 22:46:35.76	95.63	35.86	-38.9	-40.8	15.3	0.00e+00	0	56	0	1023410176	49	4457
2026-01-10 22:46:36.77	96.04	35.86	-39.0	-40.9	15.2	0.00e+00	0	56	0	1026555904	49	4501
2026-01-10 22:46:37.78	96.46	35.85	-38.9	-40.8	15.2	0.00e+00	0	56	0	1029701632	49	4480
2026-01-10 22:46:38.79	96.87	35.85	-39.0	-40.9	15.1	0.00e+00	0	56	0	1032847360	49	4545
2026-01-10 22:46:39.80	97.29	35.84	-39.2	-41.1	15.0	0.00e+00	0	56	0	1035993088	49	4630
2026-01-10 22:46:40.81	97.70	35.83	-39.2	-41.1	14.9	0.00e+00	0	56	0	1039138816	49	4651
2026-01-10 22:46:41.82	98.11	35.82	-39.2	-41.1	15.0	0.00e+00	0	56	0	1042284544	49	4623
2026-01-10 22:46:42.83	98.53	35.81	-39.2	-41.1	14.9	0.00e+00	0	56	0	1045430272	49	4614
2026-01-10 22:46:43.84	98.94	35.80	-39.3	-41.3	14.8	0.00e+00	0	56	0	1048576000	49	4728
2026-01-10 22:46:44.85	99.35	35.78	-39.4	-41.4	14.7	7.00e-07	0	56	0	1051721728	49	4805
2026-01-10 22:46:45.86	99.77	35.77	-39.3	-41.3	14.7	0.00e+00	0	56	0	1054867456	49	4744
2026-01-10 22:46:46.87	100.18	35.75	-39.2	-41.1	14.9	0.00e+00	0	56	0	1058013184	49	4623
2026-01-10 22:46:47.88	100.59	35.73	-39.2	-41.1	14.9	0.00e+00	0	56	0	1061158912	49	4639
2026-01-10 22:46:48.89	101.00	35.71	-39.3	-41.3	14.7	0.00e+00	0	56	0	1064304640	49	4745
2026-01-10 22:46:49.90	101.41	35.69	-39.3	-41.2	14.8	7.00e-07	0	56	0	1067450368	49	4695
2026-01-10 22:46:50.91	101.82	35.66	-39.2	-41.1	14.9	0.00e+00	0	56	0	1070596096	49	4650
2026-01-10 22:46:51.92	102.23	35.63	-39.3	-41.3	14.8	1.50e-06	0	56	0	1073741824	49	4714
2026-01-10 22:46:52.93	102.64	35.61	-39.3	-41.3	14.7	0.00e+00	0	56	0	1076887552	49	4752
2026-01-10 22:46:53.94	103.05	35.58	-39.4	-41.4	14.6	0.00e+00	0	56	0	1080033280	49	4797
2026-01-10 22:46:54.95	103.45	35.55	-39.5	-41.6	14.4	0.00e+00	0	56	0	1083179008	49	4923
2026-01-10 22:46:55.96	103.86	35.51	-39.6	-41.8	14.3	1.50e-06	0	56	0	1086324736	49	4985
2026-01-10 22:46:56.97	104.27	35.48	-39.6	-41.7	14.4	7.00e-07	0	56	0	1089470464	49	4956
2026-01-10 22:46:57.98	104.67	35.45	-39.6	-41.7	14.3	0.00e+00	0	56	0	1092616192	49	4968
2026-01-10 22:46:58.99	105.08	35.41	-39.4	-41.4	14.6	7.00e-07	0	56	0	1095761920	49	4782
2026-01-10 22:47:00.00	105.48	35.37	-39.2	-41.1	14.9	0.00e+00	0	56	0	1098907648	49	4650
2026-01-10 22:47:01.00	105.88	35.33	-39.1	-41.0	15.0	0.00e+00	0	56	0	1102053376	49	4598
2026-01-10 22:47:02.01	106.28	35.29	-39.3	-41.3	14.8	0.00e+00	0	56	0	1105199104	49	4730
2026-01-10 22:47:03.02	106.68	35.25	-39.3	-41.3	14.7	0.00e+00	0	56	0	1108344832	49	4728
2026-01-10 22:47:04.03	107.08	35.20	-39.2	-41.2	14.9	0.00e+00	0	56	0	1111490560	49	4657
2026-01-10 22:47:05.04	107.48	35.16	-39.2	-41.2	14.9	0.00e+00	0	56	0	1114636288	49	4666
2026-01-10 22:47:06.05	107.87	35.11	-39.3	-41.3	14.8	0.00e+00	0	56	0	1117782016	49	4723
2026-01-10 22:47:07.06	108.27	35.06	-39.4	-41.4	14.6	7.00e-07	0	56	0	1120927744	49	4784
2026-01-10 22:47:08.07	108.66	35.01	-39.4	-41.4	14.6	0.00e+00	0	56	0	1124073472	49	4794
2026-01-10 22:47:09.08	109.06	34.96	-39.5	-41.6	14.5	0.00e+00	0	56	0	1127219200	49	4872
2026-01-10 22:47:10.09	109.45	34.91	-39.4	-41.4	14.7	7.00e-07	0	56	0	1130364928	49	4773
2026-01-10 22:47:11.10	109.84	34.85	-39.3	-41.2	14.8	0.00e+00	0	56	0	1133510656	49	4691
2026-01-10 22:47:12.11	110.23	34.80	-39.2	-41.2	14.9	0.00e+00	0	56	0	1136656384	49	4652
2026-01-10 22:47:13.12	110.62	34.74	-39.3	-41.3	14.7	7.00e-07	0	56	0	1139802112	49	4741
2026-01-10 22:47:14.13	111.00	34.68	-39.4	-41.4	14.6	0.00e+00	0	56	0	1142947840	49	4814
2026-01-10 22:47:15.14	111.39	34.62	-39.4	-41.5	14.6	0.00e+00	0	56	0	1146093568	49	4818
2026-01-10 22:47:16.15	111.77	34.56	-39.4	-41.5	14.6	0.00e+00	0	56	0	1149239296	49	4838
2026-01-10 22:47:17.16	112.16	34.50	-39.5	-41.6	14.4	7.00e-07	0	56	0	1152385024	49	4892
2026-01-10 22:47:18.17	112.54	34.43	-39.5	-41.5	14.5	7.00e-07	0	56	0	1155530752	49	4852
2026-01-10 22:47:19.18	112.92	34.37	-39.1	-41.1	14.9	0.00e+00	0	56	0	1158676480	49	4615
2026-01-10 22:47:20.19	113.30	34.30	-39.0	-40.9	15.1	0.00e+00	0	56	0	1161822208	49	4543
2026-01-10 22:47:21.20	113.67	34.23	-38.9	-40.7	15.3	0.00e+00	0	56	0	1164967936	49	4404
2026-01-10 22:47:22.21	114.05	34.17	-38.8	-40.6	15.4	7.00e-07	0	56	0	1168113664	49	4380
2026-01-10 22:47:23.22	114.42	34.10	-38.9	-40.8	15.3	0.00e+00	0	56	0	1171259392	49	4449
2026-01-10 22:47:24.23	114.79	34.03	-39.2	-41.2	14.8	0.00e+00	0	56	0	1174405120	49	4672
2026-01-10 22:47:25.24	115.17	33.95	-39.5	-41.6	14.4	7.00e-07	0	56	0	1177550848	49	4908
2026-01-10 22:47:26.25	115.53	33.88	-39.4	-41.5	14.6	2.20e-06	0	56	0	1180696576	49	4834
2026-01-10 22:47:27.26	115.90	33.81	-39.0	-40.9	15.1	0.00e+00	0	56	0	1183842304	49	4531
2026-01-10 22:47:28.27	116.27	33.73	-38.8	-40.6	15.3	0.00e+00	0	56	0	1186988032	49	4385
2026-01-10 22:47:29.28	116.63	33.65	-39.0	-40.8	15.2	0.00e+00	0	56	0	1190133760	49	4488
2026-01-10 22:47:30.29	116.99	33.58	-39.1	-41.0	15.1	7.00e-07	0	56	0	1193279488	49	4554
2026-01-10 22:47:31.30	117.35	33.50	-39.0	-41.0	15.0	0.00e+00	0	56	0	1196425216	49	4548
2026-01-10 22:47:32.31	117.71	33.42	-39.1	-41.1	14.9	0.00e+00	0	56	0	1199570944	49	4616
2026-01-10 22:47:33.32	118.07	33.34	-39.2	-41.2	14.8	7.00e-07	0	56	0	1202716672	49	4690
2026-01-10 22:47:34.33	118.43	33.26	-39.2	-41.2	14.8	0.00e+00	0	56	0	1205862400	49	4697
2026-01-10 22:47:35.34	118.78	33.17	-38.9	-40.8	15.2	0.00e+00	0	57	0	1209008128	49	4480
2026-01-10 22:47:36.35	119.13	33.09	-38.8	-40.7	15.3	0.00e+00	0	56	0	1212153856	49	4401
2026-01-10 22:47:37.36	119.48	33.01	-38.7	-40.5	15.5	0.00e+00	0	56	0	1215299584	49	4310
2026-01-10 22:47:38.37	119.83	32.92	-38.6	-40.4	15.6	0.00e+00	0	56	0	1218445312	49	4267
2026-01-10 22:47:39.38	120.18	32.83	-38.6	-40.4	15.6	0.00e+00	0	56	0	1221591040	49	4262
2026-01-10 22:47:40.39	120.52	32.75	-38.6	-40.5	15.6	0.00e+00	0	56	0	1224736768	49	4297
2026-01-10 22:47:41.40	120.86	32.66	-38.7	-40.5	15.6	0.00e+00	0	56	0	1227882496	49	4302
2026-01-10 22:47:42.41	121.21	32.57	-38.7	-40.5	15.5	0.00e+00	0	56	0	1232076800	49	4305
2026-01-10 22:47:43.42	121.54	32.48	-38.8	-40.6	15.4	0.00e+00	0	56	0	1234173952	49	4361
2026-01-10 22:47:44.42	121.88	32.39	-38.6	-40.4	15.6	0.00e+00	0	56	0	1237319680	49	4275
2026-01-10 22:47:45.44	122.22	32.30	-38.6	-40.4	15.7	0.00e+00	0	56	0	1240465408	49	4248
2026-01-10 22:47:46.45	122.55	32.21	-38.5	-40.2	15.8	0.00e+00	0	56	0	1243611136	48	4426
2026-01-10 22:47:47.46	122.88	32.11	-38.5	-40.2	15.8	0.00e+00	0	56	0	1247805440	48	4438
2026-01-10 22:47:48.47	123.21	32.02	-38.4	-40.2	15.8	0.00e+00	0	56	0	1250951168	48	4414
2026-01-10 22:47:49.48	123.54	31.93	-38.5	-40.2	15.8	0.00e+00	0	56	0	1254096896	48	4438
2026-01-10 22:47:50.49	123.87	31.83	-38.5	-40.3	15.7	0.00e+00	0	56	0	1257242624	48	4461
2026-01-10 22:47:51.50	124.19	31.73	-38.4	-40.2	15.8	0.00e+00	0	56	0	1259339776	48	4414
2026-01-10 22:47:52.51	124.51	31.64	-38.5	-40.3	15.7	0.00e+00	0	56	0	1263534080	48	4471
2026-01-10 22:47:53.52	124.83	31.54	-38.6	-40.4	15.6	0.00e+00	0	56	0	1266679808	48	4533
2026-01-10 22:47:54.53	125.15	31.44	-38.7	-40.6	15.4	0.00e+00	0	56	0	1269825536	48	4608
2026-01-10 22:47:55.54	125.47	31.34	-38.6	-40.4	15.6	0.00e+00	0	56	0	1272971264	48	4535
2026-01-10 22:47:56.55	125.79	31.25	-38.6	-40.5	15.5	0.00e+00	0	56	0	1276116992	48	4547
2026-01-10 22:47:57.56	126.10	31.15	-38.3	-40.0	16.0	0.00e+00	0	56	0	1279262720	48	4307
2026-01-10 22:47:58.57	126.41	31.05	-38.2	-39.9	16.1	0.00e+00	0	56	0	1282408448	48	4272
2026-01-10 22:47:59.58	126.72	30.94	-38.2	-39.9	16.1	0.00e+00	0	56	0	1285554176	48	4272
2026-01-10 22:48:00.59	127.03	30.84	-38.3	-40.0	16.0	0.00e+00	0	56	0	1288699904	48	4297
2026-01-10 22:48:01.60	127.33	30.74	-38.4	-40.1	15.8	0.00e+00	0	56	0	1291845632	48	4381
2026-01-10 22:48:02.61	127.64	30.64	-38.6	-40.4	15.6	0.00e+00	0	56	0	1294991360	48	4512
2026-01-10 22:48:03.62	127.94	30.54	-38.7	-40.5	15.5	0.00e+00	0	56	0	1298137088	48	4548
2026-01-10 22:48:04.63	128.24	30.43	-38.5	-40.3	15.7	0.00e+00	0	56	0	1301282816	48	4470
2026-01-10 22:48:05.64	128.54	30.33	-38.4	-40.2	15.8	0.00e+00	0	56	0	1304428544	48	4407
2026-01-10 22:48:06.65	128.83	30.23	-38.5	-40.2	15.8	0.00e+00	0	56	0	1307574272	48	4422
2026-01-10 22:48:07.66	129.13	30.12	-38.3	-39.9	16.0	0.00e+00	0	56	0	1310720000	48	4287
2026-01-10 22:48:08.67	129.42	30.02	-38.1	-39.8	16.2	0.00e+00	0	56	0	1313865728	48	4198
2026-01-10 22:48:09.68	129.71	29.91	-38.2	-39.9	16.1	0.00e+00	0	56	0	1317011456	48	4261
2026-01-10 22:48:10.69	130.00	29.80	-38.1	-39.7	16.2	0.00e+00	0	56	0	1320157184	48	4193
2026-01-10 22:48:11.70	130.28	29.70	-38.2	-39.8	16.1	0.00e+00	0	56	0	1323302912	48	4235
2026-01-10 22:48:12.71	130.57	29.59	-38.0	-39.7	16.2	0.00e+00	0	57	0	1326448640	48	4153
2026-01-10 22:48:13.72	130.85	29.48	-37.9	-39.5	16.3	0.00e+00	0	56	0	1329594368	47	4334
2026-01-10 22:48:14.73	131.13	29.38	-37.8	-39.4	16.5	0.00e+00	0	56	0	1332740096	47	4269
2026-01-10 22:48:15.74	131.41	29.27	-37.8	-39.4	16.4	0.00e+00	0	56	0	1335885824	47	4272
2026-01-10 22:48:16.75	131.69	29.16	-37.8	-39.5	16.4	0.00e+00	0	56	0	1339031552	47	4295
2026-01-10 22:48:17.76	131.97	29.05	-37.9	-39.5	16.4	0.00e+00	0	56	0	1342177280	47	4314
2026-01-10 22:48:18.77	132.24	28.94	-37.8	-39.4	16.4	0.00e+00	0	56	0	1345323008	47	4290
2026-01-10 22:48:19.78	132.51	28.84	-37.9	-39.6	16.3	0.00e+00	0	56	0	1348468736	47	4365
2026-01-10 22:48:20.79	132.78	28.73	-38.2	-39.9	15.9	0.00e+00	0	57	0	1351614464	47	4529
2026-01-10 22:48:21.80	133.05	28.62	-38.3	-40.1	15.7	0.00e+00	0	56	0	1354760192	47	4640
2026-01-10 22:48:22.81	133.32	28.51	-38.3	-40.0	15.8	0.00e+00	0	56	0	1357905920	47	4586
2026-01-10 22:48:23.82	133.58	28.40	-38.2	-39.9	15.9	0.00e+00	0	57	0	1361051648	47	4536
2026-01-10 22:48:24.83	133.85	28.29	-38.1	-39.7	16.1	0.00e+00	0	56	0	1364197376	47	4440
2026-01-10 22:48:25.84	134.11	28.18	-38.1	-39.7	16.1	0.00e+00	0	56	0	1367343104	47	4435
2026-01-10 22:48:26.85	134.37	28.07	-38.2	-39.9	16.0	0.00e+00	0	56	0	1370488832	47	4508
2026-01-10 22:48:27.86	134.62	27.96	-38.1	-39.9	16.0	0.00e+00	0	56	0	1373634560	47	4502
2026-01-10 22:48:28.87	134.88	27.85	-38.0	-39.7	16.1	0.00e+00	0	56	0	1376780288	47	4415
2026-01-10 22:48:29.88	135.14	27.73	-38.0	-39.7	16.2	0.00e+00	0	56	0	1379926016	47	4404
2026-01-10 22:48:30.89	135.39	27.62	-38.1	-39.8	16.1	0.00e+00	0	56	0	1383071744	47	4442
2026-01-10 22:48:31.90	135.64	27.51	-38.1	-39.8	16.0	0.00e+00	0	56	0	1386217472	47	4462
2026-01-10 22:48:32.91	135.89	27.40	-38.0	-39.7	16.1	0.00e+00	0	56	0	1389363200	47	4431
2026-01-10 22:48:33.92	136.14	27.29	-37.8	-39.5	16.3	0.00e+00	0	56	0	1392508928	47	4296
2026-01-10 22:48:34.93	136.38	27.18	-38.0	-39.6	16.2	0.00e+00	0	56	0	1395654656	47	4383
2026-01-10 22:48:35.94	136.63	27.07	-38.1	-39.8	16.0	0.00e+00	0	56	0	1398800384	47	4444
2026-01-10 22:48:36.95	136.87	26.95	-38.0	-39.7	16.1	0.00e+00	0	56	0	1401946112	47	4408
2026-01-10 22:48:37.97	137.11	26.84	-38.0	-39.7	16.1	0.00e+00	0	57	0	1405091840	47	4430
2026-01-10 22:48:38.97	137.35	26.73	-38.1	-39.8	16.0	0.00e+00	0	56	0	1408237568	47	4471
2026-01-10 22:48:39.98	137.59	26.62	-38.1	-39.8	16.0	0.00e+00	0	56	0	1411383296	47	4472
2026-01-10 22:48:40.99	137.82	26.51	-38.1	-39.8	16.0	0.00e+00	0	56	0	1414529024	47	4483
2026-01-10 22:48:42.01	138.06	26.39	-38.3	-40.1	15.8	0.00e+00	0	56	0	1417674752	47	4599
2026-01-10 22:48:43.01	138.29	26.28	-38.3	-40.0	15.7	0.00e+00	0	56	0	1420820480	47	4586
2026-01-10 22:48:44.02	138.52	26.17	-38.1	-39.9	15.9	0.00e+00	0	56	0	1423966208	47	4505
2026-01-10 22:48:45.03	138.75	26.06	-37.9	-39.5	16.3	0.00e+00	0	56	0	1427111936	47	4336
2026-01-10 22:48:46.04	138.98	25.95	-37.8	-39.4	16.4	0.00e+00	0	57	0	1430257664	47	4261
2026-01-10 22:48:47.05	139.21	25.83	-37.7	-39.3	16.4	0.00e+00	0	56	0	1433403392	47	4240
2026-01-10 22:48:48.06	139.43	25.72	-37.7	-39.3	16.4	0.00e+00	0	56	0	1436549120	47	4225
2026-01-10 22:48:49.07	139.65	25.61	-37.6	-39.2	16.6	0.00e+00	0	56	0	1439694848	47	4185
2026-01-10 22:48:50.08	139.88	25.50	-37.6	-39.1	16.6	0.00e+00	0	56	0	1442840576	47	4143
2026-01-10 22:48:51.09	140.10	25.39	-37.5	-39.1	16.7	0.00e+00	0	56	0	1445986304	47	4102
2026-01-10 22:48:52.11	140.32	25.27	-37.5	-39.1	16.7	0.00e+00	0	56	0	1449132032	47	4120
2026-01-10 22:48:53.12	140.53	25.16	-37.5	-39.1	16.7	0.00e+00	0	56	0	1452277760	47	4113
2026-01-10 22:48:54.13	140.75	25.05	-37.6	-39.2	16.6	0.00e+00	0	56	0	1455423488	47	4151
2026-01-10 22:48:55.14	140.96	24.94	-37.5	-39.1	16.7	0.00e+00	0	56	0	1458569216	47	4104
2026-01-10 22:48:56.15	141.18	24.82	-37.6	-39.2	16.5	0.00e+00	0	56	0	1461714944	47	4181
2026-01-10 22:48:57.16	141.39	24.71	-37.7	-39.3	16.5	0.00e+00	0	56	0	1464860672	47	4199
2026-01-10 22:48:58.17	141.60	24.60	-37.7	-39.3	16.5	0.00e+00	0	56	0	1468006400	47	4209
2026-01-10 22:48:59.18	141.81	24.49	-37.5	-39.1	16.6	0.00e+00	0	57	0	1471152128	47	4124
2026-01-10 22:49:00.19	142.01	24.38	-37.5	-39.0	16.7	0.00e+00	0	57	0	1474297856	46	4339
2026-01-10 22:49:01.20	142.22	24.27	-37.5	-39.1	16.7	0.00e+00	0	56	0	1477443584	46	4363
2026-01-10 22:49:02.21	142.42	24.16	-37.6	-39.2	16.6	0.00e+00	0	57	0	1480589312	46	4404
2026-01-10 22:49:03.22	142.63	24.04	-37.6	-39.3	16.5	0.00e+00	0	56	0	1483735040	46	4450
2026-01-10 22:49:04.23	142.83	23.93	-37.7	-39.3	16.5	0.00e+00	0	56	0	1486880768	46	4452
2026-01-10 22:49:05.24	143.03	23.82	-37.7	-39.4	16.4	0.00e+00	0	56	0	1490026496	46	4500
2026-01-10 22:49:06.26	143.23	23.71	-37.8	-39.4	16.3	0.00e+00	0	56	0	1493172224	46	4545
2026-01-10 22:49:07.27	143.42	23.60	-37.9	-39.6	16.2	0.00e+00	0	56	0	1496317952	46	4599
2026-01-10 22:49:08.28	143.62	23.49	-37.8	-39.4	16.3	0.00e+00	0	56	0	1499463680	46	4537
2026-01-10 22:49:09.29	143.81	23.38	-37.8	-39.4	16.3	0.00e+00	0	56	0	1502609408	46	4532
2026-01-10 22:49:10.30	144.01	23.27	-37.7	-39.4	16.4	0.00e+00	0	56	0	1505755136	46	4512
2026-01-10 22:49:11.31	144.20	23.16	-37.8	-39.4	16.3	0.00e+00	0	56	0	1508900864	46	4544
2026-01-10 22:49:12.32	144.39	23.05	-37.9	-39.6	16.2	0.00e+00	0	57	0	1512046592	46	4603
2026-01-10 22:49:13.33	144.58	22.94	-37.9	-39.6	16.2	0.00e+00	0	56	0	1515192320	46	4612
2026-01-10 22:49:14.34	144.77	22.83	-37.9	-39.6	16.2	0.00e+00	0	56	0	1518338048	46	4619
2026-01-10 22:49:15.35	144.95	22.72	-37.9	-39.6	16.1	0.00e+00	0	57	0	1521483776	46	4635
2026-01-10 22:49:16.36	145.14	22.61	-38.0	-39.7	16.1	0.00e+00	0	56	0	1525678080	46	4680
2026-01-10 22:49:17.37	145.32	22.50	-38.0	-39.7	16.0	0.00e+00	0	57	0	1527775232	46	4701
2026-01-10 22:49:18.38	145.51	22.39	-38.0	-39.7	16.0	0.00e+00	0	56	0	1530920960	46	4695
2026-01-10 22:49:19.39	145.69	22.28	-38.0	-39.7	16.1	0.00e+00	0	56	0	1534066688	46	4672
2026-01-10 22:49:20.40	145.87	22.17	-38.0	-39.7	16.0	0.00e+00	0	56	0	1538260992	46	4688
2026-01-10 22:49:21.41	146.05	22.07	-38.1	-39.8	16.0	0.00e+00	0	56	0	1541406720	46	4712
2026-01-10 22:49:22.42	146.22	21.96	-38.0	-39.7	16.0	0.00e+00	0	56	0	1544552448	46	4705
2026-01-10 22:49:23.43	146.40	21.85	-38.1	-39.8	15.9	0.00e+00	0	56	0	1547698176	46	4754
2026-01-10 22:49:24.44	146.58	21.74	-38.3	-40.0	15.7	0.00e+00	0	56	0	1549795328	47	4583
2026-01-10 22:49:25.45	146.75	21.63	-38.3	-40.1	15.7	0.00e+00	0	57	0	1553989632	47	4606
2026-01-10 22:49:26.46	146.92	21.53	-38.4	-40.2	15.5	0.00e+00	0	56	0	1557135360	47	4681
2026-01-10 22:49:27.48	147.10	21.42	-38.4	-40.3	15.5	0.00e+00	0	56	0	1560281088	47	4706
2026-01-10 22:49:28.49	147.27	21.31	-38.4	-40.3	15.5	0.00e+00	0	56	0	1563426816	47	4713
2026-01-10 22:49:29.50	147.44	21.20	-38.4	-40.3	15.5	0.00e+00	0	57	0	1566572544	47	4712
2026-01-10 22:49:30.51	147.61	21.10	-38.4	-40.2	15.5	0.00e+00	0	56	0	1569718272	47	4705
2026-01-10 22:49:31.52	147.77	20.99	-38.4	-40.2	15.5	0.00e+00	0	56	0	1572864000	47	4701
2026-01-10 22:49:32.53	147.94	20.88	-38.4	-40.2	15.6	0.00e+00	0	56	0	1576009728	47	4662
2026-01-10 22:49:33.54	148.11	20.78	-38.4	-40.2	15.5	0.00e+00	0	56	0	1579155456	47	4682
2026-01-10 22:49:34.55	148.27	20.67	-38.4	-40.2	15.5	0.00e+00	0	57	0	1582301184	47	4686
2026-01-10 22:49:35.56	148.43	20.57	-38.4	-40.2	15.5	0.00e+00	0	56	0	1585446912	47	4697
2026-01-10 22:49:36.57	148.60	20.46	-38.3	-40.1	15.6	0.00e+00	0	56	0	1588592640	47	4614
2026-01-10 22:49:37.58	148.76	20.35	-38.3	-40.1	15.7	0.00e+00	0	56	0	1591738368	47	4602
2026-01-10 22:49:38.59	148.92	20.25	-38.3	-40.1	15.6	0.00e+00	0	57	0	1594884096	47	4628
2026-01-10 22:49:39.60	149.07	20.14	-38.3	-40.2	15.6	0.00e+00	0	57	0	1598029824	47	4652
2026-01-10 22:49:40.61	149.23	20.04	-38.1	-39.8	15.9	0.00e+00	0	57	0	1601175552	47	4467
2026-01-10 22:49:41.62	149.39	19.94	-38.0	-39.7	16.0	0.00e+00	0	56	0	1604321280	47	4408
2026-01-10 22:49:42.63	149.54	19.83	-38.0	-39.7	16.0	0.00e+00	0	56	0	1607467008	47	4405
2026-01-10 22:49:43.64	149.70	19.73	-38.0	-39.8	15.9	0.00e+00	0	57	0	1610612736	47	4449
2026-01-10 22:49:44.65	149.85	19.62	-38.0	-39.7	16.0	0.00e+00	0	56	0	1613758464	47	4399
2026-01-10 22:49:45.66	150.00	19.52	-37.9	-39.6	16.0	0.00e+00	0	56	0	1616904192	47	4384
2026-01-10 22:49:46.67	150.16	19.42	-37.9	-39.6	16.1	0.00e+00	0	56	0	1620049920	47	4345
2026-01-10 22:49:47.68	150.31	19.31	-37.8	-39.5	16.2	0.00e+00	0	56	0	1623195648	47	4313
2026-01-10 22:49:48.70	150.46	19.21	-37.8	-39.5	16.2	0.00e+00	0	57	0	1626341376	47	4296
2026-01-10 22:49:49.71	150.61	19.11	-37.8	-39.4	16.3	0.00e+00	0	57	0	1629487104	47	4266
2026-01-10 22:49:50.72	150.75	19.01	-37.8	-39.5	16.2	0.00e+00	0	57	0	1632632832	47	4309
2026-01-10 22:49:51.73	150.90	18.90	-37.9	-39.6	16.1	0.00e+00	0	56	0	1635778560	47	4375
2026-01-10 22:49:52.74	151.05	18.80	-38.0	-39.7	15.9	0.00e+00	0	57	0	1638924288	47	4438
2026-01-10 22:49:53.75	151.19	18.70	-37.9	-39.6	16.1	0.00e+00	0	56	0	1642070016	47	4362
2026-01-10 22:49:54.75	151.33	18.60	-37.9	-39.6	16.1	0.00e+00	0	56	0	1645215744	47	4359
2026-01-10 22:49:55.77	151.48	18.50	-38.0	-39.8	15.9	0.00e+00	0	56	0	1648361472	47	4443
2026-01-10 22:49:56.78	151.62	18.40	-38.0	-39.7	16.0	0.00e+00	0	56	0	1651507200	47	4412
2026-01-10 22:49:57.79	151.76	18.30	-38.1	-39.8	15.9	0.00e+00	0	56	0	1654652928	47	4471
2026-01-10 22:49:58.80	151.90	18.20	-38.1	-39.9	15.8	0.00e+00	0	57	0	1657798656	47	4507
2026-01-10 22:49:59.81	152.04	18.10	-38.2	-40.0	15.7	0.00e+00	0	56	0	1660944384	47	4583
2026-01-10 22:50:00.82	152.18	18.00	-38.3	-40.1	15.6	0.00e+00	0	56	0	1664090112	47	4630
2026-01-10 22:50:01.83	152.32	17.90	-38.3	-40.1	15.5	0.00e+00	0	56	0	1667235840	47	4639
2026-01-10 22:50:02.83	152.45	17.80	-38.3	-40.1	15.6	0.00e+00	0	57	0	1670381568	47	4625
2026-01-10 22:50:03.84	152.59	17.70	-38.3	-40.1	15.6	0.00e+00	0	57	0	1673527296	47	4611
2026-01-10 22:50:04.85	152.72	17.60	-38.3	-40.1	15.6	0.00e+00	0	57	0	1676673024	47	4616
2026-01-10 22:50:05.86	152.86	17.50	-38.2	-40.0	15.7	0.00e+00	0	57	0	1679818752	47	4574
2026-01-10 22:50:06.87	152.99	17.40	-38.3	-40.2	15.5	0.00e+00	0	57	0	1682964480	47	4659
2026-01-10 22:50:07.88	153.12	17.30	-38.2	-40.0	15.6	0.00e+00	0	56	0	1686110208	47	4564
2026-01-10 22:50:08.89	153.25	17.21	-38.3	-40.1	15.5	0.00e+00	0	56	0	1689255936	47	4642
2026-01-10 22:50:09.90	153.38	17.11	-38.3	-40.2	15.5	0.00e+00	0	56	0	1692401664	47	4658
2026-01-10 22:50:10.91	153.51	17.01	-38.3	-40.2	15.5	0.00e+00	0	56	0	1695547392	47	4663
2026-01-10 22:50:11.92	153.64	16.91	-38.4	-40.3	15.4	0.00e+00	0	57	0	1698693120	47	4714
2026-01-10 22:50:12.93	153.77	16.82	-38.4	-40.3	15.4	0.00e+00	0	56	0	1701838848	47	4715
2026-01-10 22:50:13.94	153.90	16.72	-38.4	-40.3	15.3	0.00e+00	0	56	0	1704984576	47	4743
2026-01-10 22:50:14.95	154.03	16.62	-38.6	-40.5	15.2	0.00e+00	0	57	0	1708130304	47	4821
2026-01-10 22:50:15.96	154.15	16.53	-38.4	-40.3	15.3	0.00e+00	0	57	0	1711276032	47	4725
2026-01-10 22:50:16.97	154.28	16.43	-38.4	-40.3	15.3	0.00e+00	0	56	0	1714421760	47	4735
2026-01-10 22:50:17.98	154.40	16.34	-38.4	-40.3	15.3	0.00e+00	0	57	0	1717567488	47	4734
2026-01-10 22:50:18.99	154.53	16.24	-38.5	-40.4	15.3	0.00e+00	0	56	0	1720713216	47	4778
2026-01-10 22:50:20.00	154.65	16.15	-38.5	-40.4	15.2	0.00e+00	0	56	0	1723858944	47	4799
2026-01-10 22:50:21.01	154.77	16.05	-38.6	-40.5	15.1	0.00e+00	0	56	0	1727004672	47	4858
2026-01-10 22:50:22.01	154.89	15.96	-38.6	-40.6	15.0	0.00e+00	0	56	0	1730150400	47	4884
2026-01-10 22:50:23.02	155.01	15.86	-38.6	-40.6	15.0	0.00e+00	0	56	0	1733296128	47	4889
2026-01-10 22:50:24.03	155.13	15.77	-38.7	-40.7	14.9	0.00e+00	0	56	0	1736441856	47	4937
2026-01-10 22:50:25.04	155.25	15.68	-38.8	-40.7	15.0	0.00e+00	0	56	0	1739587584	48	4670
2026-01-10 22:50:26.05	155.37	15.58	-38.8	-40.7	15.0	0.00e+00	0	56	0	1742733312	48	4685
2026-01-10 22:50:27.06	155.49	15.49	-38.9	-40.8	14.8	0.00e+00	0	56	0	1745879040	48	4754
2026-01-10 22:50:28.07	155.60	15.40	-38.8	-40.8	14.9	0.00e+00	0	56	0	1749024768	48	4718
2026-01-10 22:50:29.08	155.72	15.30	-39.0	-40.9	14.7	0.00e+00	0	57	0	1752170496	48	4814
2026-01-10 22:50:30.09	155.84	15.21	-39.0	-41.0	14.7	0.00e+00	0	56	0	1755316224	48	4849
2026-01-10 22:50:31.10	155.95	15.12	-39.1	-41.1	14.5	2.20e-06	0	56	0	1758461952	48	4901
2026-01-10 22:50:32.11	156.07	15.02	-39.0	-41.1	14.6	7.00e-07	0	57	0	1761607680	48	4875
2026-01-10 22:50:33.12	156.18	14.93	-39.0	-41.1	14.6	7.00e-07	0	57	0	1764753408	48	4881
2026-01-10 22:50:34.13	156.29	14.84	-39.1	-41.1	14.5	0.00e+00	0	56	0	1767899136	48	4917
2026-01-10 22:50:35.14	156.40	14.75	-38.9	-40.9	14.7	0.00e+00	0	57	0	1771044864	48	4800
2026-01-10 22:50:36.15	156.52	14.66	-38.9	-40.9	14.8	7.00e-07	0	57	0	1774190592	48	4764
2026-01-10 22:50:37.16	156.63	14.57	-38.9	-40.8	14.8	0.00e+00	0	57	0	1777336320	48	4753
2026-01-10 22:50:38.17	156.74	14.48	-38.8	-40.8	14.9	0.00e+00	0	56	0	1780482048	48	4716
2026-01-10 22:50:39.18	156.85	14.39	-38.8	-40.7	14.9	0.00e+00	0	56	0	1783627776	48	4695
2026-01-10 22:50:40.19	156.96	14.30	-38.8	-40.8	14.9	0.00e+00	0	57	0	1786773504	48	4708
2026-01-10 22:50:41.20	157.06	14.21	-38.8	-40.7	14.9	0.00e+00	0	57	0	1789919232	48	4699
2026-01-10 22:50:42.21	157.17	14.12	-38.9	-40.9	14.7	0.00e+00	0	57	0	1793064960	48	4770
2026-01-10 22:50:43.22	157.28	14.03	-38.9	-40.9	14.7	7.00e-07	0	57	0	1796210688	48	4803
2026-01-10 22:50:44.23	157.39	13.94	-38.9	-40.9	14.7	0.00e+00	0	57	0	1799356416	48	4761
2026-01-10 22:50:45.24	157.49	13.85	-38.9	-40.9	14.7	0.00e+00	0	56	0	1802502144	48	4775
2026-01-10 22:50:46.25	157.60	13.76	-38.9	-40.9	14.7	0.00e+00	0	57	0	1805647872	48	4762
2026-01-10 22:50:47.26	157.70	13.67	-38.9	-40.9	14.6	0.00e+00	0	56	0	1808793600	48	4812
2026-01-10 22:50:48.27	157.80	13.58	-38.9	-40.9	14.6	1.50e-06	0	57	0	1811939328	48	4795
2026-01-10 22:50:49.28	157.91	13.49	-39.0	-41.0	14.5	0.00e+00	0	56	0	1815085056	48	4864
2026-01-10 22:50:50.29	158.01	13.41	-39.1	-41.1	14.4	1.50e-06	0	56	0	1818230784	48	4916
2026-01-10 22:50:51.30	158.11	13.32	-39.2	-41.3	14.3	7.00e-07	0	56	0	1821376512	48	5015
2026-01-10 22:50:52.31	158.22	13.23	-39.3	-41.4	14.2	0.00e+00	0	57	0	1824522240	49	4774
2026-01-10 22:50:53.32	158.32	13.14	-39.2	-41.3	14.2	1.50e-06	0	56	0	1827667968	49	4756
2026-01-10 22:50:54.33	158.42	13.06	-39.1	-41.2	14.3	1.50e-06	0	57	0	1830813696	49	4700
2026-01-10 22:50:55.34	158.52	12.97	-39.1	-41.2	14.3	0.00e+00	0	56	0	1833959424	49	4683
2026-01-10 22:50:56.35	158.62	12.88	-39.1	-41.2	14.2	1.50e-06	0	57	0	1837105152	49	4703
2026-01-10 22:50:57.36	158.72	12.80	-39.2	-41.3	14.2	0.00e+00	0	56	0	1840250880	49	4721
2026-01-10 22:50:58.37	158.81	12.71	-39.2	-41.4	14.1	1.50e-06	0	57	0	1843396608	49	4782
2026-01-10 22:50:59.38	158.91	12.63	-39.3	-41.5	14.0	1.50e-06	0	57	0	1846542336	49	4832
2026-01-10 22:51:00.39	159.01	12.54	-39.4	-41.6	13.9	3.00e-06	0	57	0	1849688064	49	4873
2026-01-10 22:51:01.39	159.10	12.46	-39.4	-41.6	13.8	5.30e-06	0	57	0	1852833792	49	4910
2026-01-10 22:51:02.40	159.20	12.37	-39.2	-41.4	14.0	4.50e-06	0	56	0	1857028096	49	4789
2026-01-10 22:51:03.41	159.30	12.29	-39.2	-41.3	14.1	3.00e-06	0	57	0	1860173824	49	4740
2026-01-10 22:51:04.42	159.39	12.20	-39.2	-41.4	14.0	2.20e-06	0	56	0	1863319552	49	4777
2026-01-10 22:51:05.43	159.49	12.12	-39.1	-41.2	14.2	1.50e-06	0	56	0	1865416704	49	4679
2026-01-10 22:51:06.44	159.58	12.03	-39.1	-41.2	14.2	7.00e-07	0	56	0	1868562432	49	4676
2026-01-10 22:51:07.45	159.67	11.95	-39.0	-41.1	14.3	1.50e-06	0	57	0	1872756736	49	4630
2026-01-10 22:51:08.46	159.77	11.87	-39.1	-41.2	14.2	7.00e-07	0	56	0	1875902464	49	4703
2026-01-10 22:51:09.47	159.86	11.78	-39.1	-41.2	14.2	3.80e-06	0	56	0	1879048192	49	4681
2026-01-10 22:51:10.48	159.95	11.70	-39.2	-41.3	14.1	0.00e+00	0	57	0	1882193920	49	4723
2026-01-10 22:51:11.49	160.04	11.62	-39.2	-41.3	14.1	0.00e+00	0	56	0	1885339648	49	4725
2026-01-10 22:51:12.50	160.13	11.53	-39.2	-41.3	14.1	0.00e+00	0	56	0	1888485376	49	4732
2026-01-10 22:51:13.51	160.22	11.45	-39.2	-41.3	14.1	7.00e-07	0	57	0	1891631104	49	4734
2026-01-10 22:51:14.52	160.31	11.37	-39.2	-41.3	14.1	1.50e-06	0	57	0	1894776832	49	4739
2026-01-10 22:51:15.53	160.40	11.29	-39.2	-41.4	14.0	3.00e-06	0	57	0	1897922560	49	4802
2026-01-10 22:51:16.54	160.49	11.20	-39.3	-41.6	13.8	3.00e-06	0	56	0	1901068288	49	4892
