passes_logs/2026/01/10/R2.0S_Moscow/R2.0S_Moscow__20260110_010301_FENGYUN_3G_rec.log

#Pass ID: 20260110_010301_FENGYUN 3G
#Satellite: FENGYUN 3G
#Configuration: FENGYUN 3G
#almurnet v.1.7.20251203
#Start time: 2026-01-10 01:03:19

#Version: 2.2.20231116
#Station: R2.0S_Moscow
#Location: 37.707566 lon 55.798166 lat
#TLE: 1 56232U 23055A   26009.25964270  .00031369  00000+0  49445-3 0  9995
#TLE: 2 56232  49.9935  85.5429 0004254   0.7108 359.3865 15.53213378155304

#Time	Az	El	Level	Level2	SNR	BER	BlckErr	Temp	State	Recorded	gain1	gain2
2026-01-10 01:03:19.87	243.85	3.24	-45.7	-64.6	3.8	7.44e-01	0	56	0	0	62	32866
2026-01-10 01:03:20.89	243.78	3.31	-44.9	-63.3	3.8	8.44e-01	0	56	104	0	61	29855
2026-01-10 01:03:21.90	243.70	3.38	-44.9	-63.3	3.8	8.46e-01	0	56	104	0	61	29916
2026-01-10 01:03:22.91	243.63	3.45	-44.9	-63.4	3.8	8.47e-01	0	56	104	0	61	30034
2026-01-10 01:03:23.92	243.56	3.52	-44.9	-63.3	3.8	8.47e-01	0	56	104	0	61	29951
2026-01-10 01:03:24.93	243.48	3.59	-44.9	-63.3	3.8	8.45e-01	0	56	104	0	61	29874
2026-01-10 01:03:25.94	243.41	3.66	-44.9	-63.2	3.8	8.45e-01	0	56	104	0	61	29650
2026-01-10 01:03:26.95	243.33	3.73	-44.8	-63.2	3.8	8.45e-01	0	56	104	0	61	29430
2026-01-10 01:03:27.96	243.26	3.81	-44.7	-63.1	3.8	8.46e-01	0	56	104	0	61	29150
2026-01-10 01:03:28.97	243.18	3.88	-44.6	-62.9	3.8	8.45e-01	0	56	104	0	61	28629
2026-01-10 01:03:29.98	243.11	3.95	-44.4	-62.7	3.8	8.45e-01	0	56	104	0	60	29572
2026-01-10 01:03:31.00	243.03	4.02	-44.0	-62.3	3.8	8.46e-01	0	56	104	0	60	28108
2026-01-10 01:03:32.01	242.95	4.10	-43.8	-62.0	3.8	8.46e-01	0	56	104	0	59	28895
2026-01-10 01:03:33.02	242.87	4.17	-43.8	-62.0	3.8	8.46e-01	0	56	104	0	59	28906
2026-01-10 01:03:34.03	242.79	4.24	-43.8	-62.0	3.8	8.47e-01	0	56	104	0	59	28699
2026-01-10 01:03:35.04	242.72	4.32	-43.8	-61.9	3.8	8.46e-01	0	56	104	0	59	28601
2026-01-10 01:03:36.05	242.64	4.39	-43.8	-62.0	3.8	8.47e-01	0	56	104	0	59	28889
2026-01-10 01:03:37.06	242.56	4.46	-43.8	-62.0	3.8	8.47e-01	0	56	104	0	59	28799
2026-01-10 01:03:38.07	242.47	4.54	-43.8	-62.1	3.8	8.47e-01	0	56	104	0	59	29048
2026-01-10 01:03:39.08	242.39	4.61	-43.8	-62.1	3.8	8.46e-01	0	56	104	0	59	29123
2026-01-10 01:03:40.09	242.31	4.69	-43.8	-62.1	3.8	8.46e-01	0	56	104	0	59	29047
2026-01-10 01:03:41.11	242.23	4.76	-43.8	-62.1	3.8	8.47e-01	0	56	104	0	59	29014
2026-01-10 01:03:42.12	242.14	4.84	-43.8	-61.8	3.8	8.46e-01	0	56	104	0	59	28328
2026-01-10 01:03:43.13	242.06	4.92	-43.8	-61.5	3.8	8.46e-01	0	56	104	0	59	27320
2026-01-10 01:03:44.14	241.97	4.99	-43.8	-61.4	3.8	8.46e-01	0	56	104	0	59	26840
2026-01-10 01:03:45.15	241.89	5.07	-43.8	-61.0	3.8	8.46e-01	0	56	104	0	59	25581
2026-01-10 01:03:46.16	241.80	5.14	-43.8	-60.5	3.8	8.46e-01	0	56	104	0	59	24312
2026-01-10 01:03:47.17	241.72	5.22	-43.8	-60.4	3.8	8.45e-01	0	56	104	0	59	23897
2026-01-10 01:03:48.18	241.63	5.30	-43.7	-59.9	3.8	8.45e-01	0	56	104	0	59	22558
2026-01-10 01:03:49.19	241.54	5.38	-43.7	-59.8	3.8	8.45e-01	0	56	104	0	59	22297
2026-01-10 01:03:50.21	241.45	5.45	-43.7	-59.8	3.9	8.45e-01	0	56	104	0	59	22273
2026-01-10 01:03:51.22	241.36	5.53	-43.7	-59.4	4.0	8.44e-01	0	56	104	0	59	21299
2026-01-10 01:03:52.23	241.27	5.61	-43.7	-59.6	3.8	8.44e-01	0	56	104	0	59	21799
2026-01-10 01:03:53.24	241.18	5.69	-43.7	-59.5	3.9	8.44e-01	0	56	104	0	59	21680
2026-01-10 01:03:54.25	241.09	5.77	-43.7	-59.3	3.9	8.42e-01	0	56	104	0	59	21090
2026-01-10 01:03:55.26	241.00	5.85	-43.7	-59.4	4.0	8.43e-01	0	56	104	0	59	21460
2026-01-10 01:03:56.27	240.90	5.93	-43.7	-59.4	4.0	8.43e-01	0	56	0	0	59	21401
2026-01-10 01:03:57.28	240.81	6.01	-43.7	-60.0	3.8	8.43e-01	0	56	104	0	59	22910
2026-01-10 01:03:58.29	240.71	6.09	-43.8	-60.6	3.8	8.44e-01	0	56	104	0	59	24570
2026-01-10 01:03:59.30	240.62	6.17	-43.8	-61.3	3.8	8.46e-01	0	56	104	0	59	26704
2026-01-10 01:04:00.31	240.52	6.25	-43.8	-61.7	3.8	8.46e-01	0	56	104	0	59	27837
2026-01-10 01:04:01.32	240.43	6.33	-43.8	-60.9	3.8	8.45e-01	0	56	104	0	59	25372
2026-01-10 01:04:02.33	240.33	6.41	-43.7	-58.7	4.1	8.45e-01	0	56	0	0	59	19669
2026-01-10 01:04:03.34	240.23	6.49	-43.6	-56.7	4.9	8.45e-01	0	56	0	0	59	15655
2026-01-10 01:04:04.35	240.13	6.57	-43.4	-54.4	6.5	8.08e-01	0	56	0	0	58	12758
2026-01-10 01:04:05.36	240.03	6.66	-43.2	-52.6	8.1	3.22e-01	0	56	0	1572864	58	10348
2026-01-10 01:04:06.37	239.93	6.74	-43.0	-51.2	9.6	3.22e-01	0	56	0	2621440	58	8851
2026-01-10 01:04:07.38	239.83	6.82	-42.9	-50.7	10.1	4.22e-02	0	56	0	3670016	57	8860
2026-01-10 01:04:08.40	239.73	6.91	-42.8	-50.6	10.3	9.05e-03	0	56	0	4718592	57	8666
2026-01-10 01:04:09.41	239.62	6.99	-42.9	-50.7	10.2	9.05e-03	0	56	0	5767168	57	8838
2026-01-10 01:04:10.42	239.52	7.08	-43.0	-51.3	9.5	6.20e-03	0	56	0	6815744	57	9484
2026-01-10 01:04:11.43	239.41	7.16	-43.2	-52.4	8.4	1.50e-02	0	56	0	8388608	57	10735
2026-01-10 01:04:12.44	239.31	7.24	-43.4	-54.1	6.8	8.21e-02	0	56	0	9437184	57	13104
2026-01-10 01:04:13.45	239.20	7.33	-43.5	-56.1	5.3	8.21e-02	0	56	0	9961472	57	16377
2026-01-10 01:04:14.46	239.09	7.42	-43.6	-56.5	4.9	5.52e-01	0	56	0	10485760	57	17246
2026-01-10 01:04:15.47	238.99	7.50	-43.4	-54.3	6.5	7.09e-01	0	56	0	11010048	57	13261
2026-01-10 01:04:16.48	238.88	7.59	-43.0	-51.8	8.9	7.09e-01	0	56	0	12058624	57	9955
2026-01-10 01:04:17.49	238.77	7.67	-42.6	-49.6	11.2	1.19e-01	0	56	0	13107200	57	7740
2026-01-10 01:04:18.50	238.66	7.76	-42.1	-47.9	13.0	4.09e-03	0	56	0	14155776	56	6774
2026-01-10 01:04:19.51	238.54	7.85	-41.6	-46.7	14.2	4.09e-03	0	56	0	15204352	55	6239
2026-01-10 01:04:20.52	238.43	7.94	-41.2	-45.8	15.1	3.31e-05	0	56	0	16777216	54	5939
2026-01-10 01:04:21.53	238.32	8.03	-40.9	-45.1	15.7	0.00e+00	0	56	0	17825792	53	5842
2026-01-10 01:04:22.54	238.20	8.11	-41.3	-46.0	15.2	0.00e+00	0	56	0	18874368	53	6469
2026-01-10 01:04:23.56	238.08	8.20	-40.0	-43.3	17.4	0.00e+00	0	56	0	19922944	52	5016
2026-01-10 01:04:24.56	237.97	8.29	-41.1	-45.5	16.9	1.10e-06	0	56	0	20971520	52	6439
2026-01-10 01:04:25.58	237.85	8.38	-41.7	-46.9	13.2	3.89e-01	0	56	0	21495808	55	6384
2026-01-10 01:04:26.58	237.73	8.47	-39.1	-41.9	18.9	3.89e-01	0	56	0	22544384	50	4790
2026-01-10 01:04:27.60	237.61	8.56	-39.4	-42.3	18.4	1.69e-04	0	56	0	23592960	50	5033
2026-01-10 01:04:28.60	237.49	8.65	-38.8	-41.5	19.6	0.00e+00	0	56	0	24641536	49	4852
2026-01-10 01:04:29.61	237.37	8.75	-38.8	-41.5	19.7	0.00e+00	0	56	0	25690112	49	4822
2026-01-10 01:04:30.63	237.24	8.84	-38.9	-41.7	19.5	0.00e+00	0	56	0	27262976	49	4929
2026-01-10 01:04:31.64	237.12	8.93	-39.1	-41.9	19.3	0.00e+00	0	56	0	28311552	49	5044
2026-01-10 01:04:32.65	236.99	9.02	-39.1	-41.9	19.3	0.00e+00	0	56	0	29360128	49	5047
2026-01-10 01:04:33.66	236.87	9.12	-39.0	-41.7	19.4	0.00e+00	0	56	0	30408704	49	4953
2026-01-10 01:04:34.67	236.74	9.21	-39.1	-41.9	19.3	0.00e+00	0	56	0	31457280	49	5057
2026-01-10 01:04:35.68	236.61	9.30	-39.0	-41.7	19.5	0.00e+00	0	56	0	33030144	49	4973
2026-01-10 01:04:36.69	236.48	9.40	-39.1	-41.9	19.3	0.00e+00	0	56	0	34078720	49	5054
2026-01-10 01:04:37.70	236.35	9.49	-39.1	-41.8	19.4	0.00e+00	0	56	0	35127296	49	5029
2026-01-10 01:04:38.71	236.22	9.59	-39.0	-41.7	19.5	0.00e+00	0	56	0	36175872	49	4935
2026-01-10 01:04:39.72	236.09	9.68	-38.9	-41.6	19.6	0.00e+00	0	56	0	37224448	49	4884
2026-01-10 01:04:40.73	235.95	9.78	-38.8	-41.4	19.8	0.00e+00	0	56	0	38273024	49	4803
2026-01-10 01:04:41.74	235.82	9.87	-38.7	-41.2	20.0	0.00e+00	0	56	0	39845888	49	4695
2026-01-10 01:04:42.75	235.68	9.97	-38.6	-41.1	20.2	0.00e+00	0	56	0	40894464	49	4601
2026-01-10 01:04:43.76	235.54	10.07	-38.4	-40.9	20.3	0.00e+00	0	56	0	41943040	48	4787
2026-01-10 01:04:44.77	235.40	10.17	-38.4	-40.8	20.5	0.00e+00	0	56	0	42991616	48	4738
2026-01-10 01:04:45.77	235.26	10.26	-38.5	-40.9	20.3	0.00e+00	0	56	0	44040192	48	4811
2026-01-10 01:04:46.78	235.12	10.36	-38.5	-41.0	20.3	0.00e+00	0	56	0	45088768	48	4821
2026-01-10 01:04:47.79	234.98	10.46	-38.6	-41.1	20.2	0.00e+00	0	56	0	46661632	48	4914
2026-01-10 01:04:48.80	234.83	10.56	-38.8	-41.4	19.9	0.00e+00	0	56	0	47710208	48	5058
2026-01-10 01:04:49.81	234.69	10.66	-38.8	-41.4	19.9	0.00e+00	0	56	0	48758784	48	5056
2026-01-10 01:04:50.82	234.54	10.76	-38.9	-41.5	19.7	0.00e+00	0	56	0	49807360	48	5152
2026-01-10 01:04:51.83	234.39	10.86	-38.8	-41.4	19.9	0.00e+00	0	56	0	50855936	48	5060
2026-01-10 01:04:52.84	234.24	10.96	-38.6	-41.1	20.2	0.00e+00	0	56	0	51904512	48	4885
2026-01-10 01:04:53.85	234.09	11.07	-38.4	-40.8	20.5	0.00e+00	0	56	0	53477376	48	4745
2026-01-10 01:04:54.86	233.93	11.17	-38.4	-40.7	20.6	0.00e+00	0	56	0	54525952	48	4695
2026-01-10 01:04:55.86	233.78	11.27	-38.3	-40.6	20.7	0.00e+00	0	56	0	55574528	48	4641
2026-01-10 01:04:56.87	233.63	11.37	-38.3	-40.7	20.7	0.00e+00	0	56	0	56623104	48	4671
2026-01-10 01:04:57.88	233.47	11.48	-38.2	-40.6	20.8	0.00e+00	0	56	0	57671680	48	4605
2026-01-10 01:04:58.88	233.31	11.58	-38.1	-40.4	21.0	0.00e+00	0	56	0	58720256	48	4527
2026-01-10 01:04:59.89	233.15	11.69	-38.0	-40.3	21.1	0.00e+00	0	56	0	60293120	48	4446
2026-01-10 01:05:00.90	232.99	11.79	-38.0	-40.3	21.1	0.00e+00	0	56	0	61341696	48	4451
2026-01-10 01:05:01.90	232.83	11.90	-38.0	-40.3	21.1	0.00e+00	0	56	0	62390272	48	4452
2026-01-10 01:05:02.91	232.66	12.00	-38.1	-40.3	21.1	0.00e+00	0	56	0	63438848	48	4465
2026-01-10 01:05:03.91	232.50	12.11	-38.0	-40.2	21.2	0.00e+00	0	56	0	64487424	48	4438
2026-01-10 01:05:04.92	232.33	12.22	-38.0	-40.2	21.2	0.00e+00	0	56	0	65536000	47	4693
2026-01-10 01:05:05.93	232.16	12.32	-38.1	-40.4	21.0	0.00e+00	0	56	0	66584576	47	4780
2026-01-10 01:05:06.94	231.99	12.43	-38.2	-40.5	20.9	0.00e+00	0	56	0	68157440	47	4857
2026-01-10 01:05:07.95	231.82	12.54	-38.2	-40.5	20.9	0.00e+00	0	56	0	69206016	47	4853
2026-01-10 01:05:08.95	231.64	12.65	-38.1	-40.4	20.9	0.00e+00	0	56	0	70254592	47	4808
2026-01-10 01:05:09.96	231.47	12.76	-37.9	-40.1	21.3	0.00e+00	0	56	0	71303168	47	4637
2026-01-10 01:05:10.97	231.29	12.87	-37.7	-39.9	21.5	0.00e+00	0	56	0	72351744	47	4509
2026-01-10 01:05:11.98	231.11	12.98	-37.8	-40.0	21.5	0.00e+00	0	56	0	73400320	47	4547
2026-01-10 01:05:12.99	230.93	13.09	-37.8	-40.0	21.5	0.00e+00	0	56	0	74973184	47	4571
2026-01-10 01:05:13.99	230.74	13.20	-37.9	-40.2	21.2	0.00e+00	0	56	0	76021760	47	4685
2026-01-10 01:05:15.00	230.56	13.32	-37.8	-40.1	21.3	0.00e+00	0	56	0	77070336	47	4616
2026-01-10 01:05:16.00	230.37	13.43	-37.7	-39.9	21.5	0.00e+00	0	56	0	78118912	47	4522
2026-01-10 01:05:17.01	230.18	13.54	-37.8	-40.0	21.4	0.00e+00	0	56	0	79167488	47	4563
2026-01-10 01:05:18.02	229.99	13.65	-37.8	-40.0	21.4	0.00e+00	0	56	0	80216064	47	4556
2026-01-10 01:05:19.03	229.80	13.77	-37.7	-39.9	21.6	0.00e+00	0	56	0	81788928	47	4512
2026-01-10 01:05:20.04	229.60	13.88	-37.7	-39.8	21.6	0.00e+00	0	56	0	82837504	47	4489
2026-01-10 01:05:21.05	229.41	14.00	-37.6	-39.8	21.7	0.00e+00	0	56	0	83886080	47	4455
2026-01-10 01:05:22.06	229.21	14.12	-37.5	-39.6	21.9	0.00e+00	0	56	0	84934656	47	4390
2026-01-10 01:05:23.07	229.01	14.23	-37.6	-39.7	21.8	0.00e+00	0	56	0	85983232	47	4420
2026-01-10 01:05:24.07	228.81	14.35	-37.6	-39.7	21.8	0.00e+00	0	56	0	87031808	46	4686
2026-01-10 01:05:25.08	228.60	14.47	-37.6	-39.7	21.8	0.00e+00	0	56	0	88604672	46	4670
2026-01-10 01:05:26.09	228.39	14.58	-37.3	-39.3	22.2	0.00e+00	0	56	0	89653248	46	4461
2026-01-10 01:05:27.10	228.19	14.70	-37.2	-39.2	22.3	0.00e+00	0	56	0	90701824	46	4424
2026-01-10 01:05:28.10	227.98	14.82	-37.2	-39.2	22.3	0.00e+00	0	56	0	91750400	46	4416
2026-01-10 01:05:29.11	227.76	14.94	-37.3	-39.3	22.3	0.00e+00	0	56	0	92798976	46	4477
2026-01-10 01:05:30.11	227.55	15.06	-37.4	-39.5	22.0	0.00e+00	0	56	0	93847552	46	4569
2026-01-10 01:05:31.12	227.33	15.18	-37.5	-39.6	22.0	0.00e+00	0	56	0	95420416	46	4618
2026-01-10 01:05:32.13	227.11	15.30	-37.4	-39.5	22.1	0.00e+00	0	56	0	96468992	46	4549
2026-01-10 01:05:33.14	226.89	15.42	-37.5	-39.5	22.1	0.00e+00	0	56	0	97517568	46	4580
2026-01-10 01:05:34.15	226.66	15.55	-37.4	-39.4	22.2	0.00e+00	0	56	0	98566144	46	4509
2026-01-10 01:05:35.16	226.44	15.67	-37.2	-39.2	22.4	0.00e+00	0	56	0	99614720	46	4415
2026-01-10 01:05:36.17	226.21	15.79	-37.0	-39.0	22.6	0.00e+00	0	56	0	100663296	46	4308
2026-01-10 01:05:37.18	225.97	15.92	-36.8	-38.8	22.8	0.00e+00	0	56	0	102236160	45	4444
2026-01-10 01:05:38.19	225.74	16.04	-36.7	-38.6	22.9	0.00e+00	0	56	0	103284736	45	4380
2026-01-10 01:05:39.20	225.50	16.17	-36.6	-38.4	23.1	0.00e+00	0	56	0	104333312	45	4288
2026-01-10 01:05:40.20	225.27	16.29	-36.5	-38.3	23.2	0.00e+00	0	56	0	105381888	44	4487
2026-01-10 01:05:41.21	225.02	16.42	-36.6	-38.4	23.2	0.00e+00	0	56	0	106430464	44	4521
2026-01-10 01:05:42.22	224.78	16.54	-36.8	-38.8	22.8	0.00e+00	0	55	0	107479040	44	4709
2026-01-10 01:05:43.22	224.53	16.67	-37.0	-39.0	22.6	0.00e+00	0	56	0	109051904	44	4842
2026-01-10 01:05:44.23	224.28	16.80	-37.0	-39.0	22.6	0.00e+00	0	56	0	110100480	44	4846
2026-01-10 01:05:45.24	224.03	16.92	-36.9	-38.8	22.8	0.00e+00	0	56	0	111149056	44	4720
2026-01-10 01:05:46.25	223.78	17.05	-37.0	-38.9	22.7	0.00e+00	0	56	0	112197632	44	4791
2026-01-10 01:05:47.25	223.52	17.18	-36.8	-38.7	22.9	0.00e+00	0	56	0	113246208	44	4673
2026-01-10 01:05:48.26	223.26	17.31	-36.5	-38.3	23.3	0.00e+00	0	56	0	114294784	44	4483
2026-01-10 01:05:49.26	223.00	17.44	-36.4	-38.2	23.4	0.00e+00	0	56	0	115343360	44	4399
2026-01-10 01:05:50.27	222.73	17.57	-36.3	-38.0	23.6	0.00e+00	0	56	0	116916224	44	4328
2026-01-10 01:05:51.27	222.47	17.70	-36.4	-38.2	23.4	0.00e+00	0	56	0	117964800	44	4434
2026-01-10 01:05:52.28	222.19	17.83	-36.2	-37.9	23.5	0.00e+00	0	56	0	119013376	44	4274
2026-01-10 01:05:53.29	221.92	17.96	-36.2	-38.0	23.6	0.00e+00	0	56	0	120061952	44	4322
2026-01-10 01:05:54.29	221.64	18.09	-36.6	-38.4	23.2	0.00e+00	0	56	0	121110528	44	4518
2026-01-10 01:05:55.30	221.36	18.22	-36.7	-38.5	23.1	0.00e+00	0	56	0	122159104	44	4585
2026-01-10 01:05:56.31	221.08	18.36	-36.5	-38.3	23.3	0.00e+00	0	56	0	123731968	44	4488
2026-01-10 01:05:57.32	220.79	18.49	-36.3	-38.1	23.6	0.00e+00	0	55	0	124780544	44	4348
2026-01-10 01:05:58.32	220.51	18.62	-36.4	-38.2	23.4	0.00e+00	0	56	0	125829120	44	4432
2026-01-10 01:05:59.33	220.21	18.75	-36.3	-38.1	23.6	0.00e+00	0	56	0	126877696	44	4363
2026-01-10 01:06:00.34	219.92	18.89	-36.2	-38.0	23.7	0.00e+00	0	56	0	127926272	44	4293
2026-01-10 01:06:01.34	219.62	19.02	-35.7	-37.3	24.1	0.00e+00	0	56	0	128974848	43	4239
2026-01-10 01:06:02.35	219.32	19.16	-35.6	-37.3	24.2	0.00e+00	0	56	0	130547712	43	4210
2026-01-10 01:06:03.35	219.01	19.29	-35.9	-37.6	23.9	0.00e+00	0	56	0	131596288	43	4369
2026-01-10 01:06:04.36	218.70	19.43	-35.9	-37.6	23.9	0.00e+00	0	56	0	132644864	43	4379
2026-01-10 01:06:05.37	218.39	19.56	-36.0	-37.8	23.7	0.00e+00	0	56	0	133693440	43	4467
2026-01-10 01:06:06.37	218.08	19.70	-35.9	-37.7	23.8	0.00e+00	0	56	0	134742016	43	4409
2026-01-10 01:06:07.38	217.76	19.83	-36.0	-37.7	23.8	0.00e+00	0	56	0	135790592	43	4436
2026-01-10 01:06:08.39	217.44	19.97	-36.1	-37.9	23.6	0.00e+00	0	56	0	136839168	43	4495
2026-01-10 01:06:09.39	217.11	20.10	-36.0	-37.8	23.8	0.00e+00	0	56	0	138412032	43	4446
2026-01-10 01:06:10.40	216.78	20.24	-35.8	-37.5	23.9	0.00e+00	0	56	0	139460608	43	4335
2026-01-10 01:06:11.41	216.45	20.38	-35.6	-37.3	24.2	0.00e+00	0	56	0	140509184	43	4201
2026-01-10 01:06:12.41	216.12	20.51	-35.5	-37.2	24.3	0.00e+00	0	56	0	141557760	43	4163
2026-01-10 01:06:13.42	215.77	20.65	-35.3	-36.9	24.6	0.00e+00	0	56	0	142606336	42	4272
2026-01-10 01:06:14.43	215.43	20.79	-35.1	-36.7	24.8	0.00e+00	0	56	0	143654912	42	4167
2026-01-10 01:06:15.43	215.09	20.92	-35.1	-36.7	24.8	0.00e+00	0	56	0	145227776	42	4165
2026-01-10 01:06:16.44	214.73	21.06	-35.2	-36.8	24.6	0.00e+00	0	56	0	146276352	42	4234
2026-01-10 01:06:17.45	214.38	21.20	-35.5	-37.2	24.3	0.00e+00	0	56	0	147324928	42	4408
2026-01-10 01:06:18.45	214.02	21.33	-35.7	-37.4	24.2	0.00e+00	0	56	0	148373504	42	4497
2026-01-10 01:06:19.46	213.66	21.47	-35.7	-37.4	24.1	0.00e+00	0	56	0	149422080	42	4528
2026-01-10 01:06:20.47	213.29	21.61	-35.9	-37.6	23.9	0.00e+00	0	56	0	150470656	42	4620
2026-01-10 01:06:21.47	212.92	21.75	-35.8	-37.5	24.0	0.00e+00	0	55	0	152043520	42	4575
2026-01-10 01:06:22.48	212.55	21.88	-35.7	-37.3	24.2	0.00e+00	0	56	0	153092096	42	4491
2026-01-10 01:06:23.49	212.17	22.02	-35.5	-37.1	24.4	0.00e+00	0	56	0	154140672	42	4384
2026-01-10 01:06:24.50	211.79	22.16	-35.3	-37.0	24.5	0.00e+00	0	56	0	155189248	42	4302
2026-01-10 01:06:25.51	211.40	22.29	-35.0	-36.6	24.8	0.00e+00	0	56	0	156237824	42	4141
2026-01-10 01:06:26.51	211.01	22.43	-34.8	-36.4	25.0	0.00e+00	0	56	0	157286400	41	4268
2026-01-10 01:06:27.52	210.62	22.56	-35.0	-36.5	25.0	0.00e+00	0	56	0	158859264	41	4335
2026-01-10 01:06:28.53	210.22	22.70	-34.7	-36.3	25.2	0.00e+00	0	56	0	159907840	41	4205
2026-01-10 01:06:29.54	209.82	22.84	-34.9	-36.5	25.1	0.00e+00	0	56	0	160956416	41	4292
2026-01-10 01:06:30.54	209.41	22.97	-35.0	-36.6	24.9	0.00e+00	0	55	0	162004992	41	4341
2026-01-10 01:06:31.55	209.00	23.10	-35.2	-36.9	24.6	0.00e+00	0	56	0	163053568	41	4495
2026-01-10 01:06:32.56	208.59	23.24	-35.3	-37.0	24.6	0.00e+00	0	55	0	164102144	41	4554
2026-01-10 01:06:33.56	208.17	23.37	-35.4	-37.1	24.5	0.00e+00	0	56	0	165150720	41	4601
2026-01-10 01:06:34.57	207.75	23.50	-35.3	-36.9	24.6	0.00e+00	0	56	0	166723584	41	4522
2026-01-10 01:06:35.58	207.32	23.64	-35.0	-36.6	24.9	0.00e+00	0	55	0	167772160	41	4378
2026-01-10 01:06:36.59	206.89	23.77	-35.2	-36.8	24.7	0.00e+00	0	56	0	168820736	41	4456
2026-01-10 01:06:37.59	206.45	23.90	-34.9	-36.5	24.9	0.00e+00	0	56	0	169869312	41	4329
2026-01-10 01:06:38.60	206.01	24.03	-35.0	-36.5	24.9	0.00e+00	0	55	0	170917888	41	4334
2026-01-10 01:06:39.61	205.57	24.16	-34.9	-36.5	24.9	0.00e+00	0	56	0	171966464	41	4329
2026-01-10 01:06:40.61	205.12	24.29	-34.7	-36.3	25.2	0.00e+00	0	55	0	173539328	41	4215
2026-01-10 01:06:41.62	204.67	24.42	-34.7	-36.3	25.2	0.00e+00	0	56	0	174587904	41	4200
2026-01-10 01:06:42.63	204.21	24.54	-34.5	-36.0	25.4	0.00e+00	0	55	0	175636480	40	4318
2026-01-10 01:06:43.63	203.75	24.67	-34.5	-36.1	25.4	0.00e+00	0	56	0	176685056	40	4346
2026-01-10 01:06:44.64	203.29	24.79	-34.6	-36.1	25.3	0.00e+00	0	56	0	177733632	40	4375
2026-01-10 01:06:45.64	202.82	24.92	-34.8	-36.4	25.1	0.00e+00	0	55	0	178782208	40	4508
2026-01-10 01:06:46.65	202.35	25.04	-34.8	-36.3	25.1	0.00e+00	0	55	0	180355072	40	4482
2026-01-10 01:06:47.66	201.87	25.16	-34.8	-36.4	25.1	0.00e+00	0	56	0	181403648	40	4495
2026-01-10 01:06:48.67	201.38	25.28	-34.7	-36.2	25.1	0.00e+00	0	55	0	182452224	40	4431
2026-01-10 01:06:49.67	200.90	25.40	-34.5	-36.0	25.4	0.00e+00	0	56	0	183500800	40	4320
2026-01-10 01:06:50.68	200.41	25.52	-34.4	-36.0	25.4	0.00e+00	0	55	0	184549376	40	4301
2026-01-10 01:06:51.68	199.91	25.64	-34.4	-35.9	25.5	0.00e+00	0	56	0	185597952	40	4255
2026-01-10 01:06:52.69	199.41	25.75	-34.5	-36.0	25.4	0.00e+00	0	55	0	187170816	40	4317
2026-01-10 01:06:53.70	198.91	25.87	-34.4	-36.0	25.5	0.00e+00	0	55	0	188219392	40	4292
2026-01-10 01:06:54.70	198.41	25.98	-34.5	-36.0	25.4	0.00e+00	0	55	0	189267968	40	4324
2026-01-10 01:06:55.71	197.89	26.09	-34.5	-36.0	25.4	0.00e+00	0	56	0	190316544	40	4318
2026-01-10 01:06:56.72	197.38	26.20	-34.3	-35.8	25.6	0.00e+00	0	56	0	191365120	40	4227
2026-01-10 01:06:57.73	196.85	26.31	-34.3	-35.8	25.6	0.00e+00	0	56	0	192413696	40	4212
2026-01-10 01:06:58.74	196.33	26.41	-34.1	-35.6	25.7	0.00e+00	0	56	0	193986560	40	4139
2026-01-10 01:06:59.75	195.80	26.51	-34.0	-35.5	25.9	0.00e+00	0	55	0	195035136	40	4062
2026-01-10 01:07:00.76	195.27	26.62	-34.1	-35.6	25.8	0.00e+00	0	56	0	196083712	40	4131
2026-01-10 01:07:01.76	194.73	26.72	-34.1	-35.6	25.8	0.00e+00	0	55	0	197132288	40	4108
2026-01-10 01:07:02.77	194.19	26.81	-34.1	-35.6	25.8	0.00e+00	0	55	0	198180864	40	4133
2026-01-10 01:07:03.78	193.65	26.91	-34.0	-35.5	25.8	0.00e+00	0	56	0	199229440	39	4315
2026-01-10 01:07:04.79	193.10	27.00	-33.8	-35.3	26.2	0.00e+00	0	55	0	200802304	39	4216
2026-01-10 01:07:05.80	192.55	27.10	-34.0	-35.5	26.0	0.00e+00	0	55	0	201850880	39	4298
2026-01-10 01:07:06.81	191.99	27.19	-34.1	-35.6	25.8	0.00e+00	0	55	0	202899456	39	4372
2026-01-10 01:07:07.81	191.44	27.27	-34.4	-35.9	25.6	0.00e+00	0	55	0	203948032	39	4511
2026-01-10 01:07:08.82	190.88	27.36	-34.3	-35.8	25.6	0.00e+00	0	55	0	204996608	39	4493
2026-01-10 01:07:09.82	190.32	27.44	-34.0	-35.5	25.9	0.00e+00	0	55	0	206045184	39	4304
2026-01-10 01:07:10.83	189.75	27.52	-33.9	-35.3	26.1	0.00e+00	0	56	0	207618048	39	4218
2026-01-10 01:07:11.84	189.18	27.60	-33.7	-35.2	26.2	0.00e+00	0	55	0	208666624	39	4157
2026-01-10 01:07:12.84	188.61	27.67	-33.8	-35.3	26.0	0.00e+00	0	56	0	209715200	39	4215
2026-01-10 01:07:13.85	188.03	27.74	-33.7	-35.1	26.1	0.00e+00	0	55	0	210763776	39	4133
2026-01-10 01:07:14.86	187.45	27.81	-33.7	-35.1	26.2	0.00e+00	0	55	0	211812352	39	4144
2026-01-10 01:07:15.87	186.86	27.88	-33.6	-35.1	26.3	0.00e+00	0	56	0	212860928	39	4106
2026-01-10 01:07:16.88	186.28	27.94	-33.9	-35.4	26.1	0.00e+00	0	55	0	213909504	39	4251
2026-01-10 01:07:17.89	185.69	28.00	-33.8	-35.3	26.1	0.00e+00	0	56	0	215482368	39	4198
2026-01-10 01:07:18.88	185.11	28.06	-34.2	-35.7	25.7	0.00e+00	0	56	0	216530944	39	4427
2026-01-10 01:07:19.89	184.51	28.12	-34.4	-35.9	25.6	0.00e+00	0	56	0	217579520	39	4516
2026-01-10 01:07:20.90	183.92	28.17	-34.5	-36.0	25.5	0.00e+00	0	55	0	218628096	39	4561
2026-01-10 01:07:21.91	183.32	28.22	-34.5	-36.0	25.5	0.00e+00	0	55	0	219676672	39	4562
2026-01-10 01:07:22.92	182.72	28.27	-34.6	-36.1	25.4	0.00e+00	0	55	0	220725248	39	4621
2026-01-10 01:07:23.92	182.12	28.31	-34.6	-36.1	25.4	0.00e+00	0	56	0	222298112	39	4629
2026-01-10 01:07:24.93	181.52	28.35	-34.7	-36.3	25.2	0.00e+00	0	55	0	223346688	40	4445
2026-01-10 01:07:25.93	180.92	28.39	-34.8	-36.3	25.1	0.00e+00	0	56	0	224395264	40	4489
2026-01-10 01:07:26.94	180.31	28.42	-34.7	-36.2	25.3	0.00e+00	0	55	0	225443840	40	4420
2026-01-10 01:07:27.95	179.70	28.45	-34.5	-36.0	25.4	0.00e+00	0	56	0	226492416	40	4322
2026-01-10 01:07:28.96	179.09	28.48	-34.3	-35.8	25.6	0.00e+00	0	55	0	227540992	40	4218
2026-01-10 01:07:29.96	178.49	28.51	-34.3	-35.8	25.6	0.00e+00	0	55	0	229113856	40	4230
2026-01-10 01:07:30.97	177.87	28.53	-34.3	-35.8	25.6	0.00e+00	0	55	0	230162432	40	4233
2026-01-10 01:07:31.97	177.27	28.55	-34.5	-36.0	25.5	0.00e+00	0	55	0	231211008	40	4309
2026-01-10 01:07:32.98	176.65	28.56	-34.5	-36.1	25.4	0.00e+00	0	56	0	232259584	40	4353
2026-01-10 01:07:33.99	176.04	28.57	-34.5	-36.1	25.4	0.00e+00	0	56	0	233308160	40	4353
2026-01-10 01:07:34.99	175.43	28.58	-34.6	-36.2	25.3	0.00e+00	0	56	0	234356736	40	4405
2026-01-10 01:07:36.00	174.82	28.59	-34.5	-36.0	25.6	0.00e+00	0	55	0	235405312	40	4303
2026-01-10 01:07:37.01	174.20	28.59	-34.4	-36.0	25.5	0.00e+00	0	55	0	236978176	40	4292
2026-01-10 01:07:38.02	173.59	28.59	-34.4	-35.9	25.6	0.00e+00	0	55	0	238026752	40	4289
2026-01-10 01:07:39.02	172.98	28.58	-34.5	-36.0	25.6	0.00e+00	0	55	0	239075328	40	4307
2026-01-10 01:07:40.03	172.36	28.58	-34.5	-36.0	25.6	0.00e+00	0	55	0	240123904	40	4298
2026-01-10 01:07:41.04	171.75	28.56	-34.7	-36.2	25.3	0.00e+00	0	55	0	241172480	40	4426
2026-01-10 01:07:42.05	171.13	28.55	-34.5	-36.0	25.5	0.00e+00	0	55	0	242221056	40	4321
2026-01-10 01:07:43.05	170.53	28.53	-34.5	-36.0	25.5	0.00e+00	0	56	0	243793920	40	4329
2026-01-10 01:07:44.06	169.91	28.51	-34.5	-36.0	25.5	0.00e+00	0	56	0	244842496	40	4333
2026-01-10 01:07:45.07	169.30	28.49	-34.6	-36.2	25.4	0.00e+00	0	56	0	245891072	40	4403
2026-01-10 01:07:46.08	168.69	28.46	-34.4	-35.9	25.6	0.00e+00	0	55	0	246939648	40	4290
2026-01-10 01:07:47.08	168.09	28.43	-34.5	-36.0	25.5	0.00e+00	0	55	0	247988224	40	4334
2026-01-10 01:07:48.09	167.48	28.40	-34.5	-36.1	25.5	0.00e+00	0	55	0	249036800	39	4618
2026-01-10 01:07:49.10	166.88	28.36	-34.8	-36.4	25.2	0.00e+00	0	55	0	250609664	40	4496
2026-01-10 01:07:50.10	166.28	28.32	-34.7	-36.3	25.3	0.00e+00	0	55	0	251658240	40	4483
2026-01-10 01:07:51.11	165.68	28.28	-34.5	-36.1	25.5	0.00e+00	0	55	0	252706816	40	4355
2026-01-10 01:07:52.12	165.08	28.23	-34.2	-35.7	25.8	0.00e+00	0	55	0	253755392	40	4174
2026-01-10 01:07:53.12	164.48	28.18	-34.2	-35.7	25.9	0.00e+00	0	55	0	254803968	40	4183
2026-01-10 01:07:54.13	163.89	28.13	-34.6	-36.1	25.5	0.00e+00	0	55	0	255852544	40	4378
2026-01-10 01:07:55.14	163.29	28.08	-34.6	-36.1	25.5	0.00e+00	0	55	0	257425408	40	4382
2026-01-10 01:07:56.15	162.70	28.02	-34.5	-36.0	25.6	0.00e+00	0	55	0	258473984	40	4327
2026-01-10 01:07:57.15	162.12	27.96	-34.3	-35.8	25.7	0.00e+00	0	55	0	259522560	40	4225
2026-01-10 01:07:58.16	161.53	27.89	-34.3	-35.8	25.8	0.00e+00	0	55	0	260571136	40	4224
2026-01-10 01:07:59.17	160.95	27.83	-34.2	-35.7	25.8	0.00e+00	0	56	0	261619712	40	4169
2026-01-10 01:08:00.17	160.37	27.76	-34.2	-35.7	25.9	0.00e+00	0	56	0	262668288	40	4155
2026-01-10 01:08:01.18	159.79	27.69	-34.3	-35.8	25.8	0.00e+00	0	55	0	264241152	40	4215
2026-01-10 01:08:02.19	159.22	27.61	-34.4	-35.9	25.6	0.00e+00	0	55	0	265289728	40	4281
2026-01-10 01:08:03.20	158.64	27.54	-34.3	-35.8	25.8	0.00e+00	0	55	0	266338304	40	4219
2026-01-10 01:08:04.21	158.08	27.46	-34.2	-35.8	25.8	0.00e+00	0	55	0	267386880	40	4202
2026-01-10 01:08:05.21	157.52	27.38	-34.1	-35.6	25.9	0.00e+00	0	55	0	268435456	40	4115
2026-01-10 01:08:06.22	156.95	27.29	-34.1	-35.6	26.0	0.00e+00	0	55	0	269484032	39	4380
2026-01-10 01:08:07.22	156.40	27.21	-34.2	-35.7	25.8	0.00e+00	0	56	0	271056896	39	4431
2026-01-10 01:08:08.23	155.84	27.12	-34.4	-35.9	25.7	0.00e+00	0	55	0	272105472	39	4526
2026-01-10 01:08:09.24	155.29	27.03	-34.3	-35.8	25.8	0.00e+00	0	55	0	273154048	39	4465
2026-01-10 01:08:10.25	154.74	26.93	-34.2	-35.7	25.9	0.00e+00	0	55	0	274202624	39	4399
2026-01-10 01:08:11.26	154.20	26.84	-33.9	-35.4	26.2	0.00e+00	0	55	0	275251200	39	4258
2026-01-10 01:08:12.27	153.66	26.74	-34.0	-35.5	26.1	0.00e+00	0	55	0	276299776	39	4306
2026-01-10 01:08:13.28	153.12	26.64	-34.2	-35.7	25.8	0.00e+00	0	56	0	277872640	39	4426
2026-01-10 01:08:14.28	152.59	26.54	-34.8	-36.3	25.3	0.00e+00	0	55	0	278921216	40	4482
2026-01-10 01:08:15.29	152.06	26.44	-35.2	-36.8	24.7	0.00e+00	0	55	0	279969792	41	4484
2026-01-10 01:08:16.30	151.54	26.33	-35.4	-37.1	24.5	0.00e+00	0	55	0	281018368	41	4605
2026-01-10 01:08:17.31	151.02	26.23	-35.4	-37.0	24.5	0.00e+00	0	55	0	282066944	41	4592
2026-01-10 01:08:18.32	150.50	26.12	-35.2	-36.8	24.7	0.00e+00	0	55	0	283115520	41	4467
2026-01-10 01:08:19.32	149.99	26.01	-35.0	-36.5	24.9	0.00e+00	0	55	0	284164096	41	4337
2026-01-10 01:08:20.33	149.48	25.90	-34.7	-36.3	25.2	0.00e+00	0	56	0	285736960	41	4220
2026-01-10 01:08:21.33	148.98	25.78	-35.0	-36.6	24.9	0.00e+00	0	55	0	286785536	41	4384
2026-01-10 01:08:22.34	148.48	25.67	-35.0	-36.6	24.9	0.00e+00	0	56	0	287834112	41	4378
2026-01-10 01:08:23.35	147.98	25.55	-35.2	-36.8	24.7	0.00e+00	0	56	0	288882688	41	4476
2026-01-10 01:08:24.35	147.50	25.44	-35.4	-37.1	24.4	0.00e+00	0	56	0	289931264	41	4632
2026-01-10 01:08:25.36	147.01	25.32	-35.4	-37.0	24.5	0.00e+00	0	55	0	290979840	41	4570
2026-01-10 01:08:26.37	146.52	25.20	-35.3	-37.0	24.6	0.00e+00	0	55	0	292552704	41	4549
2026-01-10 01:08:27.37	146.05	25.08	-35.0	-36.7	24.8	0.00e+00	0	55	0	293601280	41	4396
2026-01-10 01:08:28.38	145.57	24.95	-35.3	-36.9	24.7	0.00e+00	0	56	0	294649856	41	4525
2026-01-10 01:08:29.39	145.10	24.83	-34.9	-36.5	24.9	0.00e+00	0	56	0	295698432	41	4326
2026-01-10 01:08:30.39	144.64	24.71	-35.1	-36.7	24.8	0.00e+00	0	55	0	296747008	41	4413
2026-01-10 01:08:31.40	144.18	24.58	-34.8	-36.4	25.1	0.00e+00	0	55	0	297795584	41	4250
2026-01-10 01:08:32.41	143.72	24.45	-35.0	-36.6	24.9	0.00e+00	0	55	0	299368448	41	4369
2026-01-10 01:08:33.42	143.26	24.33	-35.1	-36.7	24.8	0.00e+00	0	55	0	300417024	41	4401
2026-01-10 01:08:34.43	142.81	24.20	-34.9	-36.5	24.9	0.00e+00	0	56	0	301465600	41	4337
2026-01-10 01:08:35.44	142.37	24.07	-34.9	-36.6	24.9	0.00e+00	0	55	0	302514176	41	4348
2026-01-10 01:08:36.44	141.93	23.94	-34.8	-36.4	25.1	0.00e+00	0	55	0	303562752	41	4248
2026-01-10 01:08:37.45	141.50	23.81	-34.7	-36.3	25.1	0.00e+00	0	55	0	304611328	41	4206
2026-01-10 01:08:38.46	141.06	23.68	-34.6	-36.1	25.2	0.00e+00	0	55	0	306184192	41	4144
2026-01-10 01:08:39.47	140.63	23.54	-34.8	-36.4	25.0	0.00e+00	0	56	0	307232768	41	4283
2026-01-10 01:08:40.48	140.21	23.41	-35.1	-36.7	24.7	0.00e+00	0	56	0	308281344	41	4420
2026-01-10 01:08:41.49	139.79	23.28	-35.5	-37.2	24.2	0.00e+00	0	55	0	309329920	41	4701
2026-01-10 01:08:42.49	139.38	23.15	-35.5	-37.2	24.2	0.00e+00	0	55	0	310378496	41	4694
2026-01-10 01:08:43.50	138.97	23.01	-35.4	-37.1	24.3	0.00e+00	0	55	0	311427072	41	4633
2026-01-10 01:08:44.51	138.56	22.88	-35.1	-36.7	24.6	0.00e+00	0	55	0	312999936	41	4417
2026-01-10 01:08:45.52	138.16	22.74	-34.9	-36.5	24.8	0.00e+00	0	56	0	314048512	41	4329
2026-01-10 01:08:46.53	137.76	22.61	-35.1	-36.7	24.7	0.00e+00	0	56	0	315097088	41	4439
2026-01-10 01:08:47.54	137.36	22.47	-35.2	-36.9	24.5	0.00e+00	0	55	0	316145664	41	4496
2026-01-10 01:08:48.55	136.97	22.33	-35.3	-37.0	24.3	0.00e+00	0	55	0	317194240	41	4573
2026-01-10 01:08:49.55	136.59	22.20	-35.3	-36.9	24.4	0.00e+00	0	55	0	318242816	41	4533
2026-01-10 01:08:50.56	136.20	22.06	-35.4	-37.0	24.3	0.00e+00	0	55	0	319815680	41	4594
2026-01-10 01:08:51.57	135.83	21.93	-35.4	-37.1	24.3	0.00e+00	0	55	0	320864256	41	4616
2026-01-10 01:08:52.58	135.45	21.79	-35.5	-37.2	24.1	0.00e+00	0	55	0	321912832	41	4693
2026-01-10 01:08:53.59	135.08	21.65	-35.5	-37.2	24.2	0.00e+00	0	55	0	322961408	41	4684
2026-01-10 01:08:54.60	134.71	21.52	-35.6	-37.3	24.0	0.00e+00	0	55	0	324009984	41	4748
2026-01-10 01:08:55.61	134.35	21.38	-35.5	-37.2	24.1	0.00e+00	0	55	0	325058560	41	4660
2026-01-10 01:08:56.62	133.99	21.24	-35.4	-37.1	24.3	0.00e+00	0	56	0	326631424	41	4618
2026-01-10 01:08:57.62	133.64	21.11	-35.5	-37.2	24.2	0.00e+00	0	56	0	327680000	41	4661
2026-01-10 01:08:58.63	133.29	20.97	-35.6	-37.3	24.0	0.00e+00	0	55	0	328728576	41	4722
2026-01-10 01:08:59.64	132.94	20.83	-35.8	-37.6	23.8	0.00e+00	0	55	0	329777152	42	4618
2026-01-10 01:09:00.65	132.59	20.69	-35.9	-37.6	23.7	0.00e+00	0	55	0	330825728	42	4642
2026-01-10 01:09:01.66	132.25	20.56	-36.1	-37.9	23.5	0.00e+00	0	55	0	331874304	42	4779
2026-01-10 01:09:02.66	131.92	20.42	-35.9	-37.7	23.7	0.00e+00	0	55	0	333447168	42	4661
2026-01-10 01:09:03.67	131.58	20.29	-35.7	-37.5	23.8	0.00e+00	0	55	0	334495744	42	4555
2026-01-10 01:09:04.68	131.25	20.15	-35.6	-37.3	24.0	0.00e+00	0	56	0	335544320	42	4490
2026-01-10 01:09:05.69	130.93	20.01	-35.8	-37.5	23.8	0.00e+00	0	55	0	336592896	42	4584
2026-01-10 01:09:06.69	130.61	19.88	-35.9	-37.7	23.7	0.00e+00	0	55	0	337641472	42	4657
2026-01-10 01:09:07.70	130.29	19.74	-35.9	-37.7	23.6	0.00e+00	0	56	0	338690048	42	4652
2026-01-10 01:09:08.71	129.97	19.61	-35.7	-37.5	23.8	0.00e+00	0	55	0	339738624	42	4549
2026-01-10 01:09:09.71	129.66	19.47	-35.7	-37.5	23.8	0.00e+00	0	55	0	341311488	42	4546
2026-01-10 01:09:10.72	129.35	19.34	-35.9	-37.7	23.6	0.00e+00	0	55	0	342360064	42	4655
2026-01-10 01:09:11.73	129.05	19.20	-35.9	-37.7	23.6	0.00e+00	0	55	0	343408640	42	4681
2026-01-10 01:09:12.73	128.75	19.07	-36.0	-37.8	23.4	0.00e+00	0	55	0	344457216	42	4758
2026-01-10 01:09:13.74	128.45	18.94	-36.2	-38.0	23.2	0.00e+00	0	55	0	345505792	42	4866
2026-01-10 01:09:14.75	128.15	18.80	-36.2	-38.0	23.2	0.00e+00	0	55	0	346554368	42	4858
2026-01-10 01:09:15.75	127.86	18.67	-36.2	-38.0	23.2	0.00e+00	0	55	0	348127232	43	4591
2026-01-10 01:09:16.76	127.57	18.54	-36.0	-37.8	23.5	0.00e+00	0	55	0	349175808	43	4461
2026-01-10 01:09:17.77	127.28	18.40	-36.0	-37.8	23.4	0.00e+00	0	56	0	350224384	43	4482
2026-01-10 01:09:18.78	127.00	18.27	-36.1	-37.9	23.3	0.00e+00	0	55	0	351272960	43	4538
2026-01-10 01:09:19.79	126.72	18.14	-36.1	-38.0	23.2	0.00e+00	0	55	0	352321536	43	4591
2026-01-10 01:09:20.80	126.44	18.01	-36.3	-38.1	23.2	0.00e+00	0	55	0	353370112	43	4632
2026-01-10 01:09:21.80	126.17	17.88	-36.4	-38.2	23.0	0.00e+00	0	55	0	354418688	43	4698
2026-01-10 01:09:22.81	125.90	17.75	-36.3	-38.1	23.1	0.00e+00	0	55	0	355991552	43	4632
2026-01-10 01:09:23.82	125.63	17.62	-36.4	-38.3	22.9	0.00e+00	0	56	0	357040128	43	4744
2026-01-10 01:09:24.83	125.36	17.49	-36.5	-38.4	22.8	0.00e+00	0	55	0	358088704	43	4767
2026-01-10 01:09:25.84	125.10	17.36	-36.7	-38.6	22.6	0.00e+00	0	55	0	359137280	43	4913
2026-01-10 01:09:26.85	124.84	17.23	-36.6	-38.5	22.6	0.00e+00	0	56	0	360185856	43	4859
2026-01-10 01:09:27.85	124.58	17.10	-36.6	-38.5	22.7	0.00e+00	0	55	0	361234432	43	4841
2026-01-10 01:09:28.86	124.33	16.97	-36.5	-38.5	22.7	0.00e+00	0	55	0	362807296	43	4816
2026-01-10 01:09:29.87	124.08	16.85	-36.5	-38.4	22.8	0.00e+00	0	55	0	363855872	43	4775
2026-01-10 01:09:30.87	123.83	16.72	-36.5	-38.4	22.8	0.00e+00	0	55	0	364904448	43	4782
2026-01-10 01:09:31.88	123.58	16.59	-36.7	-38.7	22.5	0.00e+00	0	55	0	365953024	43	4932
2026-01-10 01:09:32.89	123.34	16.47	-37.0	-39.1	22.2	0.00e+00	0	55	0	367001600	44	4879
2026-01-10 01:09:33.89	123.10	16.34	-37.0	-39.1	22.2	0.00e+00	0	55	0	368050176	44	4886
2026-01-10 01:09:34.90	122.86	16.22	-36.9	-39.3	21.9	0.00e+00	0	55	0	369623040	45	4736
2026-01-10 01:09:35.91	122.62	16.09	-34.3	-38.7	21.7	0.00e+00	0	55	0	370671616	40	5923
2026-01-10 01:09:36.92	122.39	15.97	-36.9	-39.0	22.2	0.00e+00	0	55	0	371720192	44	4860
2026-01-10 01:09:37.92	122.16	15.85	-35.5	-39.0	22.2	1.10e-06	0	55	0	372768768	44	4842
2026-01-10 01:09:38.93	121.93	15.72	-36.9	-39.2	21.5	0.00e+00	0	55	0	373817344	44	4965
2026-01-10 01:09:39.94	121.70	15.60	-36.7	-39.0	22.1	0.00e+00	0	55	0	374865920	44	4867
2026-01-10 01:09:40.95	121.47	15.48	-36.9	-39.2	21.9	0.00e+00	0	55	0	376438784	44	4936
2026-01-10 01:09:41.95	121.25	15.36	-37.2	-39.4	21.2	0.00e+00	0	55	0	377487360	44	5081
2026-01-10 01:09:42.96	121.03	15.24	-37.1	-39.3	21.4	0.00e+00	0	55	0	378535936	44	5027
2026-01-10 01:09:43.96	120.82	15.12	-33.8	-39.5	19.9	0.00e+00	0	56	0	379584512	40	6425
2026-01-10 01:09:44.97	120.60	15.00	-36.6	-39.5	21.5	0.00e+00	0	55	0	380633088	45	4853
2026-01-10 01:09:45.97	120.39	14.88	-37.5	-39.8	21.4	1.10e-06	0	55	0	381681664	45	5038
2026-01-10 01:09:46.98	120.18	14.76	-37.6	-40.0	21.2	1.10e-06	0	55	0	383254528	45	5113
2026-01-10 01:09:47.99	119.97	14.64	-37.7	-40.1	21.2	0.00e+00	0	55	0	384303104	46	4905
2026-01-10 01:09:49.00	119.76	14.52	-37.4	-40.0	20.9	0.00e+00	0	55	0	385351680	45	5126
2026-01-10 01:09:50.00	119.56	14.41	-37.5	-39.8	21.3	0.00e+00	0	55	0	386400256	45	5001
2026-01-10 01:09:51.01	119.36	14.29	-37.5	-39.9	21.2	0.00e+00	0	55	0	387448832	45	5082
2026-01-10 01:09:52.02	119.16	14.17	-34.7	-39.8	21.2	0.00e+00	0	55	0	388497408	45	5030
2026-01-10 01:09:53.02	118.96	14.06	-36.8	-40.0	20.7	0.00e+00	0	55	0	390070272	45	5123
2026-01-10 01:09:54.03	118.76	13.94	-36.6	-40.1	20.1	1.10e-06	0	55	0	391118848	44	5488
2026-01-10 01:09:55.03	118.57	13.83	-37.1	-40.2	20.5	2.20e-06	0	55	0	392167424	44	5577
2026-01-10 01:09:56.04	118.38	13.71	-38.3	-41.2	18.7	2.20e-06	0	55	0	393216000	45	5871
2026-01-10 01:09:57.05	118.19	13.60	-38.0	-40.9	19.4	2.20e-06	0	55	0	394264576	46	5372
2026-01-10 01:09:58.05	118.00	13.49	-37.8	-40.7	20.1	7.66e-05	0	55	0	395313152	45	5571
2026-01-10 01:09:59.06	117.81	13.38	-34.4	-40.7	19.8	1.10e-06	0	56	0	396886016	45	5572
2026-01-10 01:10:00.07	117.63	13.26	-37.3	-40.5	20.2	1.10e-06	0	55	0	397934592	45	5420
2026-01-10 01:10:01.08	117.44	13.15	-36.3	-40.5	20.1	1.37e-05	0	55	0	398983168	45	5417
2026-01-10 01:10:02.08	117.26	13.04	-35.7	-40.5	18.2	1.92e-04	0	55	0	400031744	42	6444
2026-01-10 01:10:03.09	117.08	12.93	-36.0	-40.7	18.7	1.92e-04	0	55	0	401080320	43	6264
2026-01-10 01:10:04.10	116.90	12.82	-31.0	-40.0	15.6	3.13e-04	0	55	0	402128896	28	13619
2026-01-10 01:10:05.11	116.73	12.71	-37.6	-40.6	20.1	1.73e-04	0	56	0	403177472	45	5494
2026-01-10 01:10:06.12	116.55	12.60	-37.6	-40.6	19.0	1.73e-04	0	56	0	404750336	43	6169
2026-01-10 01:10:07.13	116.38	12.49	-38.0	-40.9	19.8	2.28e-05	0	55	0	405798912	45	5668
2026-01-10 01:10:08.14	116.21	12.38	-37.9	-40.8	19.7	3.40e-06	0	55	0	406847488	46	5306
2026-01-10 01:10:09.14	116.04	12.28	-38.3	-41.4	17.8	3.40e-06	0	55	0	407896064	46	5668
2026-01-10 01:10:10.15	115.87	12.17	-38.0	-40.8	19.9	2.28e-05	0	55	0	408944640	46	5296
2026-01-10 01:10:11.16	115.71	12.06	-37.9	-40.8	19.9	0.00e+00	0	55	0	409993216	46	5290
2026-01-10 01:10:12.16	115.54	11.96	-38.0	-40.7	19.3	0.00e+00	0	56	0	411566080	45	5557
2026-01-10 01:10:13.17	115.38	11.85	-37.4	-40.9	19.7	0.00e+00	0	56	0	412614656	46	5386
2026-01-10 01:10:14.18	115.22	11.75	-36.2	-40.9	19.2	0.00e+00	0	56	0	413663232	46	5382
2026-01-10 01:10:15.18	115.06	11.64	-37.8	-41.1	18.7	1.10e-06	0	55	0	414711808	45	5796
2026-01-10 01:10:16.19	114.90	11.54	-37.7	-41.0	18.9	1.10e-06	0	56	0	415760384	45	5736
2026-01-10 01:10:17.20	114.74	11.44	-37.7	-41.3	18.8	1.71e-05	0	55	0	416808960	46	5604
2026-01-10 01:10:18.20	114.59	11.33	-36.2	-41.2	18.5	7.20e-05	0	56	0	418381824	46	5576
2026-01-10 01:10:19.21	114.43	11.23	-36.4	-40.6	18.1	7.20e-05	0	55	0	419430400	43	6167
2026-01-10 01:10:20.22	114.28	11.13	-35.8	-40.7	18.3	1.48e-04	0	56	0	420478976	43	6233
2026-01-10 01:10:21.23	114.13	11.03	-36.3	-41.7	16.3	4.61e-04	0	55	0	421527552	43	6976
2026-01-10 01:10:22.23	113.98	10.93	-35.9	-41.9	13.1	4.61e-04	0	56	0	422576128	37	10138
2026-01-10 01:10:23.24	113.83	10.83	-35.9	-42.5	14.5	2.81e-03	0	55	0	423624704	40	9116
2026-01-10 01:10:24.25	113.68	10.73	-34.7	-42.7	13.8	3.02e-03	0	55	0	424673280	40	9282
2026-01-10 01:10:25.25	113.54	10.63	-35.8	-43.2	14.0	8.88e-03	0	55	0	426246144	40	9892
2026-01-10 01:10:26.27	113.39	10.53	-29.9	-43.7	11.9	8.88e-03	0	55	0	427294720	38	11805
2026-01-10 01:10:27.28	113.25	10.43	-34.4	-44.2	11.5	1.91e-02	0	55	0	428343296	39	11795
2026-01-10 01:10:28.29	113.11	10.33	-34.3	-43.4	13.5	3.82e-02	0	56	0	429391872	41	9545
2026-01-10 01:10:29.30	112.97	10.23	-31.4	-42.1	13.2	3.82e-02	0	56	0	430440448	36	11025
2026-01-10 01:10:30.30	112.83	10.13	-29.1	-41.2	12.3	3.46e-02	0	55	0	431489024	33	11770
2026-01-10 01:10:31.31	112.69	10.04	-33.3	-40.5	11.5	9.93e-03	0	55	0	433061888	32	11421
2026-01-10 01:10:32.32	112.55	9.94	-34.0	-40.2	16.6	9.93e-03	0	55	0	434110464	38	7861
2026-01-10 01:10:33.32	112.42	9.84	-34.2	-40.5	16.1	3.78e-03	0	55	0	435159040	38	8163
2026-01-10 01:10:34.33	112.29	9.75	-34.7	-41.5	15.5	2.46e-03	0	55	0	436207616	41	7682
2026-01-10 01:10:35.34	112.15	9.65	-33.4	-41.2	15.8	2.46e-03	0	55	0	437256192	40	7812
2026-01-10 01:10:36.34	112.02	9.56	-34.2	-42.0	13.1	9.00e-03	0	55	0	438304768	35	11508
2026-01-10 01:10:37.35	111.89	9.46	-34.8	-42.0	13.9	9.04e-03	0	56	0	439877632	41	8129
2026-01-10 01:10:38.36	111.76	9.37	-32.3	-41.8	15.4	3.59e-03	0	55	0	440926208	40	8391
2026-01-10 01:10:39.37	111.63	9.28	-30.1	-42.3	14.6	3.59e-03	0	55	0	441974784	41	8462
2026-01-10 01:10:40.37	111.51	9.18	-33.2	-42.2	15.7	1.01e-02	0	56	0	443023360	42	7867
2026-01-10 01:10:41.38	111.38	9.09	-33.5	-42.4	15.7	4.69e-03	0	55	0	444071936	42	8011
2026-01-10 01:10:42.39	111.25	9.00	-33.2	-42.3	15.3	4.69e-03	0	55	0	445120512	41	8417
2026-01-10 01:10:43.39	111.13	8.91	-29.4	-41.5	10.2	2.32e-03	0	55	0	446169088	33	12224
2026-01-10 01:10:44.40	111.01	8.82	-34.8	-42.4	14.8	6.84e-03	0	55	0	447741952	43	7559
2026-01-10 01:10:45.41	110.89	8.72	-36.0	-42.1	15.8	6.84e-03	0	55	0	448790528	42	7762
2026-01-10 01:10:46.42	110.76	8.63	-37.1	-42.9	15.6	3.57e-03	0	55	0	449839104	44	7556
2026-01-10 01:10:47.43	110.64	8.54	-36.3	-42.7	15.7	1.50e-03	0	55	0	450887680	45	7005
2026-01-10 01:10:48.44	110.53	8.45	-37.2	-42.6	16.0	1.50e-03	0	55	0	451936256	44	7325
2026-01-10 01:10:49.45	110.41	8.36	-37.3	-42.6	16.3	1.11e-03	0	55	0	452984832	43	7727
2026-01-10 01:10:50.46	110.29	8.27	-37.5	-42.9	15.6	8.55e-04	0	55	0	454557696	46	6751
2026-01-10 01:10:51.46	110.18	8.19	-33.4	-42.2	16.4	2.12e-03	0	55	0	455606272	44	6984
2026-01-10 01:10:52.47	110.06	8.10	-36.0	-42.6	16.6	2.12e-03	0	55	0	456654848	46	6541
2026-01-10 01:10:53.48	109.95	8.01	-38.7	-44.8	15.8	8.03e-04	0	55	0	457703424	49	7097
2026-01-10 01:10:54.49	109.83	7.92	-43.7	-61.4	3.8	3.88e-01	0	55	104	458227712	58	28653
2026-01-10 01:10:55.50	109.72	7.83	-44.4	-62.7	3.8	3.88e-01	0	56	104	458227712	59	31148
2026-01-10 01:10:56.51	109.61	7.75	-44.7	-63.3	3.8	8.47e-01	0	55	104	458227712	60	31617
2026-01-10 01:10:57.52	109.50	7.66	-44.9	-63.1	3.8	8.48e-01	0	55	104	458227712	60	30996
2026-01-10 01:10:58.53	109.39	7.57	-45.1	-63.3	3.8	8.48e-01	0	55	104	458227712	60	31571
2026-01-10 01:10:59.54	109.28	7.49	-45.2	-63.5	3.8	8.45e-01	0	56	104	458227712	60	32195
2026-01-10 01:11:00.55	109.18	7.40	-45.3	-63.5	3.8	8.46e-01	0	55	104	458227712	61	30579
2026-01-10 01:11:01.56	109.07	7.32	-45.3	-63.6	3.8	8.46e-01	0	55	104	458227712	61	30909
2026-01-10 01:11:02.57	108.96	7.23	-45.4	-63.7	3.8	8.46e-01	0	55	104	458227712	61	31089
2026-01-10 01:11:03.58	108.86	7.15	-45.3	-63.6	3.8	8.46e-01	0	55	104	458227712	61	31032
2026-01-10 01:11:04.59	108.75	7.06	-45.2	-63.6	3.8	8.47e-01	0	56	104	458227712	61	30830
2026-01-10 01:11:05.60	108.65	6.98	-45.2	-63.5	3.8	8.47e-01	0	55	104	458227712	61	30650
2026-01-10 01:11:06.61	108.55	6.90	-45.1	-63.5	3.8	8.46e-01	0	55	104	458227712	61	30539
2026-01-10 01:11:07.62	108.45	6.81	-45.1	-63.5	3.8	8.47e-01	0	55	104	458227712	61	30436
2026-01-10 01:11:08.63	108.35	6.73	-45.1	-63.5	3.8	8.47e-01	0	55	104	458227712	61	30411
2026-01-10 01:11:09.64	108.25	6.65	-45.1	-63.5	3.8	8.46e-01	0	55	104	458227712	61	30508
2026-01-10 01:11:10.65	108.15	6.57	-45.0	-63.4	3.8	8.46e-01	0	55	104	458227712	61	30336
2026-01-10 01:11:11.66	108.05	6.48	-45.0	-63.4	3.8	8.46e-01	0	56	104	458227712	61	30273
2026-01-10 01:11:12.67	107.95	6.40	-45.0	-63.4	3.8	8.47e-01	0	55	104	458227712	61	30358
2026-01-10 01:11:13.67	107.86	6.32	-45.0	-63.4	3.8	8.46e-01	0	56	104	458227712	61	30261
2026-01-10 01:11:14.69	107.76	6.24	-45.0	-63.4	3.8	8.46e-01	0	55	104	458227712	61	30166
2026-01-10 01:11:15.70	107.66	6.16	-45.0	-63.4	3.8	8.45e-01	0	55	104	458227712	61	30220
2026-01-10 01:11:16.71	107.57	6.08	-45.0	-63.4	3.8	8.45e-01	0	55	104	458227712	61	30259
2026-01-10 01:11:17.71	107.48	6.00	-45.0	-63.4	3.8	8.46e-01	0	56	104	458227712	61	30184
2026-01-10 01:11:18.72	107.38	5.92	-45.0	-63.4	3.8	8.46e-01	0	55	104	458227712	61	30256
2026-01-10 01:11:19.73	107.29	5.84	-45.0	-63.4	3.8	8.47e-01	0	56	104	458227712	61	30149
2026-01-10 01:11:20.73	107.20	5.77	-45.0	-63.4	3.8	8.46e-01	0	56	104	458227712	61	30205
2026-01-10 01:11:21.75	107.11	5.69	-45.0	-63.4	3.8	8.46e-01	0	56	104	458227712	61	30156
2026-01-10 01:11:22.75	107.02	5.61	-45.0	-63.4	3.8	8.45e-01	0	55	104	458227712	61	30173
2026-01-10 01:11:23.77	106.93	5.53	-45.0	-63.4	3.8	8.45e-01	0	56	104	458227712	61	30111
2026-01-10 01:11:24.77	106.84	5.45	-44.9	-63.4	3.8	8.45e-01	0	55	104	458227712	61	30146
2026-01-10 01:11:25.78	106.75	5.38	-44.9	-63.4	3.8	8.46e-01	0	56	104	458227712	61	30104
2026-01-10 01:11:26.79	106.67	5.30	-44.9	-63.4	3.8	8.47e-01	0	56	104	458227712	61	30152
2026-01-10 01:11:27.79	106.58	5.22	-44.9	-63.4	3.8	8.47e-01	0	56	104	458227712	61	30120
2026-01-10 01:11:28.80	106.49	5.15	-44.9	-63.4	3.8	8.46e-01	0	56	104	458227712	61	30064
2026-01-10 01:11:29.81	106.41	5.07	-44.9	-63.4	3.8	8.46e-01	0	56	104	458227712	61	30120
2026-01-10 01:11:30.81	106.32	4.99	-45.0	-63.4	3.8	8.45e-01	0	56	104	458227712	61	30110
2026-01-10 01:11:31.82	106.24	4.92	-44.9	-63.4	3.8	8.45e-01	0	55	104	458227712	61	30131
2026-01-10 01:11:32.83	106.16	4.84	-45.0	-63.4	3.8	8.46e-01	0	56	104	458227712	60	31918
2026-01-10 01:11:33.84	106.07	4.77	-44.9	-63.4	3.8	8.47e-01	0	56	104	458227712	60	31929
2026-01-10 01:11:34.86	105.99	4.69	-44.9	-63.4	3.8	8.47e-01	0	56	104	458227712	60	31868
2026-01-10 01:11:35.87	105.91	4.62	-44.9	-63.4	3.8	8.46e-01	0	56	104	458227712	60	31917
2026-01-10 01:11:36.88	105.83	4.54	-44.9	-63.4	3.8	8.46e-01	0	56	104	458227712	60	31902
2026-01-10 01:11:37.89	105.75	4.47	-44.9	-63.4	3.8	8.46e-01	0	56	104	458227712	60	31811
2026-01-10 01:11:38.89	105.67	4.40	-44.9	-63.4	3.8	8.46e-01	0	56	104	458227712	60	31834
2026-01-10 01:11:39.90	105.59	4.32	-44.9	-63.4	3.8	8.47e-01	0	55	104	458227712	60	31872
2026-01-10 01:11:40.91	105.51	4.25	-44.9	-63.3	3.8	8.47e-01	0	56	104	458227712	60	31760
2026-01-10 01:11:41.92	105.43	4.18	-44.9	-63.4	3.8	8.47e-01	0	56	104	458227712	60	31905
2026-01-10 01:11:42.93	105.35	4.10	-44.9	-63.4	3.8	8.47e-01	0	55	104	458227712	60	31823
2026-01-10 01:11:43.94	105.28	4.03	-44.9	-63.4	3.8	8.48e-01	0	56	104	458227712	60	31903
2026-01-10 01:11:44.95	105.20	3.96	-44.9	-63.4	3.8	8.48e-01	0	56	104	458227712	60	31842
2026-01-10 01:11:45.96	105.12	3.89	-44.9	-63.4	3.8	8.47e-01	0	56	104	458227712	60	31848
2026-01-10 01:11:46.97	105.05	3.82	-44.9	-63.4	3.8	8.47e-01	0	56	104	458227712	60	31916
2026-01-10 01:11:47.98	104.97	3.74	-44.9	-63.3	3.8	8.47e-01	0	55	104	458227712	60	31806
2026-01-10 01:11:48.99	104.90	3.67	-44.9	-63.4	3.8	8.46e-01	0	55	104	458227712	60	31816
2026-01-10 01:11:50.00	104.83	3.60	-44.9	-63.4	3.8	8.47e-01	0	56	104	458227712	60	31867
2026-01-10 01:11:51.01	104.75	3.53	-44.9	-63.4	3.8	8.47e-01	0	55	104	458227712	60	31905
2026-01-10 01:11:52.02	104.68	3.46	-44.9	-63.4	3.8	8.47e-01	0	56	104	458227712	60	31867
2026-01-10 01:11:53.03	104.61	3.39	-44.9	-63.3	3.8	8.45e-01	0	56	104	458227712	60	31786
2026-01-10 01:11:54.04	104.54	3.32	-44.9	-63.4	3.8	8.45e-01	0	56	104	458227712	60	31860
2026-01-10 01:11:55.04	104.47	3.25	-44.9	-63.3	3.8	8.45e-01	0	56	104	458227712	60	31719
2026-01-10 01:11:56.05	104.40	3.18	-44.9	-63.4	3.8	8.46e-01	0	56	104	458227712	60	31845
2026-01-10 01:11:57.06	104.32	3.11	-44.9	-63.4	3.8	8.45e-01	0	55	104	458227712	60	31879
2026-01-10 01:11:58.07	104.26	3.04	-44.9	-63.4	3.8	8.45e-01	0	56	104	458227712	60	31843
2026-01-10 01:11:59.07	104.19	2.98	-44.9	-63.3	3.8	8.46e-01	0	56	104	458227712	60	31725
2026-01-10 01:12:00.08	104.12	2.91	-44.9	-63.3	3.8	8.46e-01	0	55	104	458227712	60	31805
2026-01-10 01:12:01.05	104.05	2.84	-44.9	-63.4	3.8	8.46e-01	0	55	104	458227712	60	31814
2026-01-10 01:12:02.06	103.98	2.77	-44.9	-63.4	3.8	8.47e-01	0	55	104	458227712	60	31872
2026-01-10 01:12:03.07	103.92	2.70	-44.9	-63.4	3.8	8.47e-01	0	56	104	458227712	60	31936
2026-01-10 01:12:04.08	103.85	2.64	-44.9	-63.4	3.8	8.47e-01	0	55	104	458227712	60	31844
2026-01-10 01:12:05.09	103.78	2.57	-44.9	-63.3	3.8	8.46e-01	0	56	104	458227712	60	31775
2026-01-10 01:12:06.10	103.72	2.50	-44.9	-63.3	3.8	8.46e-01	0	55	104	458227712	60	31805
2026-01-10 01:12:07.10	103.65	2.44	-44.9	-63.3	3.8	8.46e-01	0	56	104	458227712	60	31772
2026-01-10 01:12:08.11	103.59	2.37	-44.9	-63.3	3.8	8.46e-01	0	56	104	458227712	60	31797
2026-01-10 01:12:09.12	103.52	2.30	-44.9	-63.3	3.8	8.46e-01	0	56	104	458227712	60	31730
2026-01-10 01:12:10.12	103.46	2.24	-44.9	-63.3	3.8	8.45e-01	0	56	104	458227712	60	31756
2026-01-10 01:12:11.13	103.40	2.17	-44.9	-63.3	3.8	8.45e-01	0	56	104	458227712	60	31764
2026-01-10 01:12:12.14	103.33	2.10	-44.9	-63.3	3.8	8.47e-01	0	56	104	458227712	60	31761
2026-01-10 01:12:13.15	103.27	2.04	-44.9	-63.3	3.8	8.46e-01	0	56	104	458227712	60	31701
2026-01-10 01:12:14.16	103.21	1.97	-44.9	-63.3	3.8	8.46e-01	0	56	104	458227712	60	31785
2026-01-10 01:12:15.17	103.14	1.91	-44.9	-63.3	3.8	8.47e-01	0	55	104	458227712	60	31795

#Closed at: 2026-01-10 01:12:15
#Recorded file [458 MB]: D:/lorett/data/31039_260110_040319.dat