passes_logs/2026/01/10/R2.0S_Moscow/R2.0S_Moscow__20260110_215001_NOAA_20_JPSS-1_rec.log

#Pass ID: 20260110_215001_NOAA 20 (JPSS-1)
#Satellite: NOAA 20 (JPSS-1)
#Configuration: NOAA 20
#almurnet v.1.7.20251203
#Start time: 2026-01-10 21:50:02

#Version: 2.2.20231116
#Station: R2.0S_Moscow
#Location: 37.707566 lon 55.798166 lat
#TLE: 1 43013U 17073A   26009.69119415  .00000109  00000+0  72598-4 0  9996
#TLE: 2 43013  98.7631 310.6868 0001678  46.7442 313.3874 14.19534878421981

#Time	Az	El	Level	Level2	SNR	BER	BlckErr	Temp	State	Recorded	gain1	gain2
2026-01-10 21:50:02.45	28.48	2.04	-42.6	-57.4	3.8	1.49e+00	0	46	0	0	57	18995
2026-01-10 21:50:03.46	28.57	2.09	-42.6	-57.4	3.8	1.49e+00	0	46	104	0	56	20194
2026-01-10 21:50:04.47	28.66	2.14	-42.5	-57.4	3.8	1.49e+00	0	46	104	0	56	20108
2026-01-10 21:50:05.48	28.75	2.19	-42.6	-57.4	3.8	1.49e+00	0	46	104	0	56	20208
2026-01-10 21:50:06.49	28.83	2.24	-42.6	-57.4	3.8	1.49e+00	0	47	104	0	56	20184
2026-01-10 21:50:07.50	28.92	2.29	-42.6	-57.4	3.8	1.49e+00	0	47	104	0	56	20137
2026-01-10 21:50:08.52	29.01	2.34	-42.6	-57.4	3.8	1.49e+00	0	47	104	0	56	20200
2026-01-10 21:50:09.53	29.10	2.39	-42.6	-57.4	3.8	1.49e+00	0	47	104	0	56	20190
2026-01-10 21:50:10.54	29.19	2.44	-42.6	-57.4	3.8	1.49e+00	0	47	104	0	56	20126
2026-01-10 21:50:11.55	29.28	2.49	-42.6	-57.4	3.8	1.49e+00	0	47	104	0	56	20142
2026-01-10 21:50:12.56	29.37	2.55	-42.6	-57.4	3.8	1.49e+00	0	47	104	0	56	20123
2026-01-10 21:50:13.57	29.46	2.60	-42.6	-57.4	3.8	1.49e+00	0	47	104	0	56	20132
2026-01-10 21:50:14.58	29.55	2.65	-42.6	-57.4	3.8	1.49e+00	0	47	104	0	56	20143
2026-01-10 21:50:15.59	29.64	2.70	-42.6	-57.4	3.8	1.49e+00	0	47	104	0	56	20168
2026-01-10 21:50:16.61	29.73	2.75	-42.6	-57.3	3.8	1.49e+00	0	47	104	0	56	20056
2026-01-10 21:50:17.62	29.82	2.80	-42.6	-57.4	3.8	1.49e+00	0	47	104	0	56	20207
2026-01-10 21:50:18.63	29.91	2.85	-42.6	-57.4	3.8	1.49e+00	0	47	104	0	56	20156
2026-01-10 21:50:19.64	30.00	2.90	-42.6	-57.4	3.8	1.49e+00	0	48	104	0	56	20146
2026-01-10 21:50:20.65	30.10	2.95	-42.6	-57.4	3.8	1.49e+00	0	48	104	0	56	20104
2026-01-10 21:50:21.66	30.19	3.00	-42.6	-57.4	3.8	1.49e+00	0	48	104	0	56	20127
2026-01-10 21:50:22.67	30.28	3.05	-42.6	-57.4	3.8	1.49e+00	0	48	104	0	56	20174
2026-01-10 21:50:23.68	30.37	3.10	-42.5	-57.3	3.8	1.49e+00	0	48	104	0	56	20060
2026-01-10 21:50:24.69	30.47	3.15	-42.5	-57.4	3.8	1.49e+00	0	48	104	0	56	20097
2026-01-10 21:50:25.70	30.56	3.20	-42.6	-57.4	3.8	1.49e+00	0	48	104	0	56	20116
2026-01-10 21:50:26.71	30.65	3.25	-42.6	-57.4	3.8	1.49e+00	0	48	104	0	56	20116
2026-01-10 21:50:27.72	30.75	3.31	-42.6	-57.4	3.8	1.49e+00	0	48	104	0	56	20108
2026-01-10 21:50:28.73	30.84	3.36	-42.6	-57.4	3.8	1.49e+00	0	48	104	0	56	20124
2026-01-10 21:50:29.75	30.94	3.41	-42.6	-57.4	3.8	1.49e+00	0	48	104	0	56	20122
2026-01-10 21:50:30.76	31.03	3.46	-42.6	-57.4	3.8	1.49e+00	0	48	104	0	56	20089
2026-01-10 21:50:31.77	31.13	3.51	-42.6	-57.4	3.8	1.49e+00	0	48	104	0	56	20143
2026-01-10 21:50:32.78	31.22	3.56	-42.6	-57.4	3.8	1.49e+00	0	48	104	0	56	20106
2026-01-10 21:50:33.79	31.32	3.61	-42.6	-57.4	3.8	1.49e+00	0	49	104	0	56	20138
2026-01-10 21:50:34.80	31.42	3.66	-42.6	-57.4	3.8	1.49e+00	0	48	104	0	56	20089
2026-01-10 21:50:35.81	31.51	3.71	-42.5	-57.4	3.8	1.49e+00	0	48	104	0	56	20076
2026-01-10 21:50:36.82	31.61	3.77	-42.6	-57.4	3.8	1.49e+00	0	49	104	0	56	20098
2026-01-10 21:50:37.84	31.71	3.82	-42.6	-57.4	3.8	1.49e+00	0	49	104	0	56	20090
2026-01-10 21:50:38.85	31.81	3.87	-42.6	-57.4	3.8	1.49e+00	0	49	104	0	56	20137
2026-01-10 21:50:39.86	31.90	3.92	-42.6	-57.4	3.8	1.49e+00	0	49	104	0	56	20090
2026-01-10 21:50:40.87	32.00	3.97	-42.5	-57.4	3.8	1.49e+00	0	49	104	0	56	20081
2026-01-10 21:50:41.88	32.10	4.02	-42.5	-57.4	3.8	1.49e+00	0	49	104	0	56	20079
2026-01-10 21:50:42.89	32.20	4.07	-42.5	-57.3	3.8	1.49e+00	0	49	104	0	56	20071
2026-01-10 21:50:43.90	32.30	4.13	-42.6	-57.4	3.8	1.49e+00	0	49	104	0	56	20108
2026-01-10 21:50:44.91	32.40	4.18	-42.5	-57.4	3.8	1.49e+00	0	49	104	0	56	20115
2026-01-10 21:50:45.92	32.50	4.23	-42.5	-57.4	3.8	1.49e+00	0	49	104	0	56	20072
2026-01-10 21:50:46.93	32.60	4.28	-42.5	-57.3	3.8	1.49e+00	0	49	104	0	56	20031
2026-01-10 21:50:47.94	32.70	4.33	-42.5	-57.4	3.8	1.49e+00	0	49	104	0	56	20095
2026-01-10 21:50:48.95	32.80	4.38	-42.5	-57.4	3.8	1.49e+00	0	49	104	0	56	20104
2026-01-10 21:50:49.96	32.90	4.44	-42.6	-57.4	3.8	1.49e+00	0	49	104	0	56	20136
2026-01-10 21:50:50.98	33.00	4.49	-42.5	-57.4	3.8	1.49e+00	0	49	104	0	56	20134
2026-01-10 21:50:51.99	33.10	4.54	-42.5	-57.4	3.8	1.49e+00	0	50	104	0	56	20146
2026-01-10 21:50:53.00	33.21	4.59	-42.5	-57.4	3.8	1.49e+00	0	49	104	0	56	20082
2026-01-10 21:50:54.01	33.31	4.64	-42.6	-57.4	3.8	1.49e+00	0	50	104	0	56	20076
2026-01-10 21:50:55.02	33.41	4.69	-42.5	-57.3	3.8	1.49e+00	0	50	104	0	56	20061
2026-01-10 21:50:56.03	33.52	4.75	-42.6	-57.4	3.8	1.49e+00	0	49	104	0	56	20149
2026-01-10 21:50:57.04	33.62	4.80	-42.5	-57.4	3.8	1.49e+00	0	50	104	0	56	20136
2026-01-10 21:50:58.06	33.72	4.85	-42.6	-57.4	3.8	1.49e+00	0	50	104	0	56	20146
2026-01-10 21:50:59.07	33.83	4.90	-42.5	-57.4	3.8	1.49e+00	0	50	104	0	56	20116
2026-01-10 21:51:00.08	33.93	4.95	-42.5	-57.4	3.8	1.49e+00	0	50	104	0	56	20109
2026-01-10 21:51:01.09	34.04	5.01	-42.5	-57.4	3.8	1.49e+00	0	50	104	0	56	20138
2026-01-10 21:51:02.10	34.14	5.06	-42.5	-57.3	3.8	1.49e+00	0	50	104	0	56	20043
2026-01-10 21:51:03.11	34.25	5.11	-42.5	-57.4	3.8	1.49e+00	0	50	104	0	56	20130
2026-01-10 21:51:04.12	34.36	5.16	-42.5	-57.3	3.8	1.49e+00	0	50	104	0	56	20052
2026-01-10 21:51:05.13	34.46	5.21	-42.5	-57.4	3.8	1.49e+00	0	50	104	0	56	20081
2026-01-10 21:51:06.14	34.57	5.27	-42.5	-57.4	3.8	1.49e+00	0	50	104	0	56	20138
2026-01-10 21:51:07.16	34.68	5.32	-42.5	-57.4	3.8	1.49e+00	0	50	104	0	56	20085
2026-01-10 21:51:08.17	34.78	5.37	-42.5	-57.4	3.8	1.49e+00	0	50	104	0	56	20083
2026-01-10 21:51:09.18	34.89	5.42	-42.5	-57.3	3.8	1.49e+00	0	50	104	0	56	20065
2026-01-10 21:51:10.19	35.00	5.47	-42.5	-57.4	3.8	1.49e+00	0	50	104	0	56	20083
2026-01-10 21:51:11.20	35.11	5.53	-42.5	-57.4	3.8	1.49e+00	0	50	104	0	56	20096
2026-01-10 21:51:12.21	35.22	5.58	-42.6	-57.4	3.8	1.49e+00	0	51	104	0	56	20101
2026-01-10 21:51:13.22	35.33	5.63	-42.5	-57.4	3.8	1.49e+00	0	51	104	0	56	20079
2026-01-10 21:51:14.23	35.44	5.68	-42.5	-57.4	3.8	1.49e+00	0	51	104	0	56	20094
2026-01-10 21:51:15.24	35.55	5.74	-42.6	-57.4	3.8	1.49e+00	0	51	104	0	56	20102
2026-01-10 21:51:16.25	35.66	5.79	-42.5	-57.4	3.8	1.49e+00	0	51	104	0	56	20112
2026-01-10 21:51:17.27	35.77	5.84	-42.6	-57.4	3.8	1.49e+00	0	51	104	0	56	20091
2026-01-10 21:51:18.28	35.88	5.89	-42.5	-57.3	3.8	1.49e+00	0	51	104	0	56	20067
2026-01-10 21:51:19.29	35.99	5.94	-42.5	-57.4	3.8	1.49e+00	0	51	104	0	56	20074
2026-01-10 21:51:20.30	36.11	6.00	-42.5	-57.4	3.8	1.49e+00	0	51	104	0	56	20073
2026-01-10 21:51:21.31	36.22	6.05	-42.5	-57.3	3.8	1.49e+00	0	51	104	0	56	20005
2026-01-10 21:51:22.32	36.33	6.10	-42.5	-57.4	3.8	1.49e+00	0	51	104	0	56	20076
2026-01-10 21:51:23.33	36.44	6.15	-42.5	-57.4	3.8	1.49e+00	0	51	104	0	56	20109
2026-01-10 21:51:24.34	36.56	6.21	-42.5	-57.3	3.8	1.49e+00	0	51	104	0	56	20020
2026-01-10 21:51:25.35	36.67	6.26	-42.5	-57.3	3.8	1.49e+00	0	51	104	0	56	20033
2026-01-10 21:51:26.36	36.79	6.31	-42.5	-57.4	3.8	1.49e+00	0	51	104	0	56	20080
2026-01-10 21:51:27.37	36.90	6.36	-42.5	-57.4	3.8	1.49e+00	0	51	104	0	56	20083
2026-01-10 21:51:28.38	37.02	6.42	-42.5	-57.3	3.8	1.49e+00	0	51	104	0	56	20029
2026-01-10 21:51:29.39	37.13	6.47	-42.5	-57.3	3.8	1.49e+00	0	51	104	0	56	20069
2026-01-10 21:51:30.40	37.25	6.52	-42.5	-57.4	3.8	1.49e+00	0	51	104	0	56	20075
2026-01-10 21:51:31.42	37.37	6.57	-42.5	-57.3	3.8	1.49e+00	0	51	104	0	56	20057
2026-01-10 21:51:32.43	37.48	6.63	-42.5	-57.3	3.8	1.49e+00	0	51	104	0	56	20052
2026-01-10 21:51:33.44	37.60	6.68	-42.5	-57.3	3.8	1.49e+00	0	51	104	0	56	20054
2026-01-10 21:51:34.45	37.72	6.73	-42.5	-57.4	3.8	1.49e+00	0	51	104	0	56	20100
2026-01-10 21:51:35.46	37.84	6.78	-42.5	-57.3	3.8	1.49e+00	0	51	104	0	56	20067
2026-01-10 21:51:36.47	37.95	6.84	-42.5	-57.3	3.8	1.49e+00	0	51	104	0	56	19991
2026-01-10 21:51:37.48	38.07	6.89	-42.5	-57.3	3.8	1.49e+00	0	51	104	0	56	20004
2026-01-10 21:51:38.49	38.19	6.94	-42.5	-57.3	3.8	1.49e+00	0	51	104	0	56	20036
2026-01-10 21:51:39.50	38.31	6.99	-42.5	-57.4	3.8	1.49e+00	0	51	104	0	56	20131
2026-01-10 21:51:40.52	38.43	7.05	-42.5	-57.3	3.8	1.49e+00	0	52	104	0	56	20034
2026-01-10 21:51:41.53	38.55	7.10	-42.5	-57.2	3.8	1.49e+00	0	51	104	0	56	19745
2026-01-10 21:51:42.54	38.67	7.15	-42.5	-56.8	3.8	1.49e+00	0	51	104	0	56	18836
2026-01-10 21:51:43.55	38.80	7.20	-42.5	-56.3	3.8	1.49e+00	0	52	104	0	56	17769
2026-01-10 21:51:44.56	38.92	7.26	-42.4	-55.4	3.9	1.49e+00	0	52	104	0	56	15956
2026-01-10 21:51:45.57	39.04	7.31	-42.4	-54.4	3.9	1.46e+00	0	52	104	0	56	14322
2026-01-10 21:51:46.58	39.16	7.36	-42.3	-53.3	4.3	1.42e+00	49	52	0	0	56	12562
2026-01-10 21:51:47.59	39.29	7.41	-42.2	-52.9	4.5	1.14e+00	12	52	0	1048576	56	12061
2026-01-10 21:51:48.60	39.41	7.47	-42.3	-53.3	4.4	1.14e+00	73	52	0	3145728	56	12569
2026-01-10 21:51:49.61	39.53	7.52	-42.4	-54.5	4.0	1.37e+00	0	52	0	3145728	56	14411
2026-01-10 21:51:50.62	39.66	7.57	-42.5	-56.0	3.8	1.49e+00	0	52	104	3145728	56	17131
2026-01-10 21:51:51.63	39.78	7.62	-42.5	-56.6	3.8	1.49e+00	0	52	104	3145728	56	18384
2026-01-10 21:51:52.65	39.91	7.68	-42.5	-55.7	3.8	1.49e+00	0	52	104	3145728	56	16538
2026-01-10 21:51:53.66	40.03	7.73	-42.3	-53.7	4.2	1.44e+00	0	52	0	3145728	56	13231
2026-01-10 21:51:54.67	40.16	7.78	-42.1	-51.9	4.9	9.54e-01	0	52	0	4194304	56	10759
2026-01-10 21:51:55.68	40.29	7.84	-42.0	-50.9	5.6	6.12e-01	0	52	0	6291456	56	9536
2026-01-10 21:51:56.69	40.41	7.89	-41.7	-49.7	6.3	2.97e-01	0	52	0	8388608	55	8765
2026-01-10 21:51:57.70	40.54	7.94	-41.5	-48.7	7.2	1.81e-01	0	52	0	10485760	55	7855
2026-01-10 21:51:58.71	40.67	7.99	-41.3	-48.2	7.7	1.09e-01	0	52	0	11534336	54	7828
2026-01-10 21:51:59.72	40.80	8.04	-41.4	-47.4	8.8	4.49e-02	0	52	0	13631488	54	7150
2026-01-10 21:52:00.73	40.93	8.10	-42.2	-52.9	4.5	1.52e-01	3	52	0	15728640	54	13557
2026-01-10 21:52:01.74	41.05	8.15	-41.2	-47.7	8.1	1.18e+00	0	52	0	15728640	54	7417
2026-01-10 21:52:02.75	41.18	8.20	-41.8	-55.2	3.8	1.02e+00	0	52	104	16777216	54	17575
2026-01-10 21:52:03.76	41.31	8.25	-41.0	-46.1	10.0	8.53e-01	0	52	0	16777216	53	6561
2026-01-10 21:52:04.77	41.44	8.31	-41.1	-46.3	9.9	1.88e-02	0	52	0	17825792	53	6690
2026-01-10 21:52:05.78	41.58	8.36	-40.9	-46.1	10.0	1.03e-02	0	52	0	19922944	53	6568
2026-01-10 21:52:06.79	41.71	8.41	-40.9	-46.2	9.9	9.00e-03	0	52	0	22020096	53	6608
2026-01-10 21:52:07.80	41.84	8.46	-41.0	-46.2	10.0	6.67e-03	0	52	0	24117248	53	6618
2026-01-10 21:52:08.81	41.97	8.52	-41.0	-46.3	10.0	7.62e-03	0	52	0	26214400	53	6677
2026-01-10 21:52:09.81	42.10	8.57	-41.1	-46.3	10.0	7.41e-03	0	52	0	27262976	53	6667
2026-01-10 21:52:10.82	42.24	8.62	-40.9	-45.8	10.6	4.24e-03	0	53	0	29360128	53	6293
2026-01-10 21:52:11.83	42.37	8.67	-40.9	-45.7	10.8	2.64e-03	0	53	0	31457280	53	6232
2026-01-10 21:52:12.84	42.50	8.72	-40.8	-45.4	11.1	2.07e-03	0	53	0	33554432	53	6028
2026-01-10 21:52:13.85	42.64	8.78	-40.8	-45.3	11.3	1.13e-03	0	53	0	35651584	53	5931
2026-01-10 21:52:14.86	42.77	8.83	-40.8	-45.1	11.6	8.52e-04	0	53	0	37748736	53	5829
2026-01-10 21:52:15.87	42.91	8.88	-40.7	-45.0	11.7	7.59e-04	0	52	0	38797312	53	5743
2026-01-10 21:52:16.88	43.05	8.93	-40.7	-44.8	11.9	5.38e-04	0	53	0	40894464	53	5613
2026-01-10 21:52:17.89	43.18	8.99	-40.7	-44.9	11.9	4.16e-04	0	53	0	42991616	53	5674
2026-01-10 21:52:18.90	43.32	9.04	-40.6	-44.7	12.0	3.58e-04	0	53	0	45088768	53	5560
2026-01-10 21:52:19.91	43.46	9.09	-40.6	-44.7	12.1	3.17e-04	0	53	0	47185920	53	5539
2026-01-10 21:52:20.93	43.60	9.14	-40.6	-44.6	12.2	2.20e-04	0	53	0	48234496	53	5502
2026-01-10 21:52:21.94	43.73	9.19	-40.6	-44.5	12.3	2.31e-04	0	53	0	50331648	53	5445
2026-01-10 21:52:22.94	43.87	9.25	-40.6	-44.6	12.2	1.54e-04	0	53	0	52428800	53	5472
2026-01-10 21:52:23.95	44.01	9.30	-40.5	-44.3	12.6	1.14e-04	0	53	0	54525952	52	5616
2026-01-10 21:52:24.96	44.15	9.35	-40.4	-44.1	12.8	8.31e-05	0	53	0	56623104	52	5499
2026-01-10 21:52:25.98	44.29	9.40	-40.3	-43.9	13.0	3.43e-05	0	53	0	57671680	52	5384
2026-01-10 21:52:26.99	44.43	9.45	-40.4	-44.0	12.9	4.42e-05	0	53	0	59768832	52	5428
2026-01-10 21:52:27.99	44.57	9.50	-40.4	-43.9	13.0	3.96e-05	0	53	0	61865984	52	5390
2026-01-10 21:52:29.00	44.72	9.56	-40.4	-44.0	13.0	4.65e-05	0	53	0	63963136	52	5419
2026-01-10 21:52:30.01	44.86	9.61	-40.5	-44.1	12.9	6.25e-05	0	53	0	66060288	52	5505
2026-01-10 21:52:31.02	45.00	9.66	-40.4	-44.0	12.9	4.11e-05	0	53	0	67108864	52	5444
2026-01-10 21:52:32.03	45.14	9.71	-40.3	-43.8	13.2	2.28e-05	0	53	0	69206016	52	5326
2026-01-10 21:52:33.04	45.29	9.76	-40.4	-43.9	13.1	1.37e-05	0	53	0	71303168	52	5371
2026-01-10 21:52:34.05	45.43	9.81	-40.4	-43.9	13.1	2.44e-05	0	53	0	73400320	52	5370
2026-01-10 21:52:35.06	45.58	9.87	-40.3	-43.8	13.2	4.04e-05	0	53	0	75497472	52	5321
2026-01-10 21:52:36.06	45.72	9.92	-40.4	-43.9	13.2	2.51e-05	0	53	0	76546048	52	5361
2026-01-10 21:52:37.08	45.87	9.97	-40.5	-44.1	12.9	4.42e-05	0	53	0	78643200	52	5512
2026-01-10 21:52:38.09	46.01	10.02	-40.4	-43.8	13.2	3.28e-05	0	53	0	80740352	52	5324
2026-01-10 21:52:39.10	46.16	10.07	-40.5	-44.0	13.1	2.05e-05	0	53	0	82837504	52	5423
2026-01-10 21:52:40.11	46.31	10.12	-40.4	-43.9	13.1	2.51e-05	0	53	0	84934656	52	5392
2026-01-10 21:52:41.11	46.45	10.17	-40.5	-43.9	13.1	3.35e-05	0	53	0	85983232	52	5398
2026-01-10 21:52:42.12	46.60	10.22	-40.5	-43.9	13.1	2.59e-05	0	53	0	88080384	52	5394
2026-01-10 21:52:43.13	46.75	10.27	-40.5	-44.0	13.2	2.13e-05	0	53	0	90177536	52	5417
2026-01-10 21:52:44.14	46.90	10.33	-40.4	-43.7	13.4	1.90e-05	0	53	0	92274688	52	5275
2026-01-10 21:52:45.15	47.05	10.38	-40.4	-43.8	13.3	1.52e-05	0	53	0	94371840	52	5301
2026-01-10 21:52:46.16	47.20	10.43	-40.4	-43.9	13.3	1.44e-05	0	53	0	95420416	52	5350
2026-01-10 21:52:47.17	47.35	10.48	-40.4	-43.8	13.3	1.67e-05	0	53	0	97517568	52	5328
2026-01-10 21:52:48.18	47.50	10.53	-40.4	-43.9	13.2	1.75e-05	0	53	0	99614720	52	5354
2026-01-10 21:52:49.19	47.65	10.58	-40.5	-43.9	13.2	1.98e-05	0	53	0	101711872	52	5401
2026-01-10 21:52:50.20	47.81	10.63	-40.4	-43.9	13.3	2.51e-05	0	53	0	103809024	52	5343
2026-01-10 21:52:51.21	47.96	10.68	-40.5	-44.0	13.1	1.52e-05	0	53	0	105906176	52	5423
2026-01-10 21:52:52.22	48.11	10.73	-40.5	-44.0	13.2	2.74e-05	0	53	0	106954752	52	5428
2026-01-10 21:52:53.23	48.27	10.78	-40.5	-43.9	13.2	1.98e-05	0	53	0	109051904	52	5402
2026-01-10 21:52:54.24	48.42	10.83	-40.5	-43.9	13.3	1.75e-05	0	53	0	111149056	52	5368
2026-01-10 21:52:55.25	48.58	10.88	-40.5	-44.0	13.2	3.05e-05	0	53	0	113246208	52	5424
2026-01-10 21:52:56.26	48.73	10.93	-40.5	-43.9	13.4	1.37e-05	0	53	0	115343360	52	5348
2026-01-10 21:52:57.27	48.89	10.98	-40.5	-44.0	13.2	1.37e-05	0	53	0	116391936	52	5426
2026-01-10 21:52:58.28	49.04	11.03	-40.4	-43.8	13.4	8.30e-06	0	53	0	118489088	52	5305
2026-01-10 21:52:59.29	49.20	11.08	-40.4	-43.8	13.4	1.06e-05	0	53	0	120586240	52	5324
2026-01-10 21:53:00.30	49.36	11.13	-40.5	-43.9	13.4	1.90e-05	0	53	0	122683392	52	5357
2026-01-10 21:53:01.30	49.51	11.18	-40.5	-43.8	13.3	2.13e-05	0	53	0	124780544	52	5333
2026-01-10 21:53:02.31	49.67	11.23	-40.5	-44.0	13.3	1.83e-05	0	54	0	125829120	52	5414
2026-01-10 21:53:03.32	49.83	11.28	-40.5	-44.0	13.2	2.21e-05	0	53	0	127926272	52	5438
2026-01-10 21:53:04.33	49.99	11.33	-40.6	-44.1	13.2	1.52e-05	0	53	0	130023424	52	5493
2026-01-10 21:53:05.34	50.15	11.38	-40.6	-44.2	13.1	2.51e-05	0	53	0	132120576	52	5530
2026-01-10 21:53:06.35	50.31	11.43	-40.6	-44.1	13.1	3.28e-05	0	54	0	134217728	52	5506
2026-01-10 21:53:07.36	50.47	11.48	-40.6	-44.0	13.2	2.67e-05	0	54	0	135266304	52	5452
2026-01-10 21:53:08.37	50.63	11.52	-40.6	-44.1	13.2	2.89e-05	0	54	0	137363456	52	5501
2026-01-10 21:53:09.38	50.80	11.57	-40.6	-44.0	13.3	2.82e-05	0	54	0	139460608	52	5432
2026-01-10 21:53:10.39	50.96	11.62	-40.6	-44.0	13.2	1.37e-05	0	54	0	141557760	52	5460
2026-01-10 21:53:11.40	51.12	11.67	-40.7	-44.1	13.2	2.51e-05	0	54	0	143654912	52	5482
2026-01-10 21:53:12.41	51.29	11.72	-40.7	-44.1	13.2	3.12e-05	0	53	0	144703488	52	5518
2026-01-10 21:53:13.42	51.45	11.77	-40.6	-44.0	13.3	2.05e-05	0	54	0	146800640	52	5449
2026-01-10 21:53:14.43	51.61	11.82	-40.8	-44.2	13.0	3.43e-05	0	54	0	148897792	52	5584
2026-01-10 21:53:15.44	51.78	11.86	-40.7	-44.1	13.2	2.97e-05	0	54	0	150994944	52	5511
2026-01-10 21:53:16.45	51.95	11.91	-40.7	-44.2	13.1	3.12e-05	0	54	0	153092096	52	5583
2026-01-10 21:53:17.46	52.11	11.96	-40.8	-44.3	13.0	3.12e-05	0	54	0	154140672	52	5623
2026-01-10 21:53:18.47	52.28	12.01	-40.8	-44.3	13.0	3.96e-05	0	54	0	156237824	52	5614
2026-01-10 21:53:19.47	52.44	12.05	-40.8	-44.4	12.9	5.49e-05	0	54	0	158334976	52	5670
2026-01-10 21:53:20.48	52.61	12.10	-40.8	-44.3	13.0	4.65e-05	0	54	0	160432128	52	5635
2026-01-10 21:53:21.49	52.78	12.15	-40.9	-44.4	12.8	4.95e-05	0	54	0	162529280	52	5708
2026-01-10 21:53:22.50	52.95	12.20	-40.9	-44.4	12.9	5.79e-05	0	54	0	163577856	52	5693
2026-01-10 21:53:23.51	53.12	12.24	-40.8	-44.3	13.0	3.96e-05	0	54	0	165675008	52	5656
2026-01-10 21:53:24.52	53.29	12.29	-40.9	-44.5	12.8	7.47e-05	0	54	0	167772160	52	5753
2026-01-10 21:53:25.53	53.46	12.34	-41.0	-44.6	12.7	5.18e-05	0	54	0	169869312	52	5843
2026-01-10 21:53:26.54	53.63	12.39	-40.9	-44.6	12.7	7.78e-05	0	54	0	171966464	52	5820
2026-01-10 21:53:27.55	53.80	12.43	-41.1	-44.8	12.5	9.84e-05	0	54	0	174063616	52	5967
2026-01-10 21:53:28.56	53.97	12.48	-41.1	-44.8	12.5	1.13e-04	0	54	0	175112192	52	5946
2026-01-10 21:53:29.57	54.15	12.52	-41.1	-44.9	12.4	1.15e-04	0	54	0	177209344	52	6055
2026-01-10 21:53:30.58	54.32	12.57	-41.2	-45.0	12.3	1.61e-04	0	54	0	179306496	52	6101
2026-01-10 21:53:31.59	54.49	12.62	-41.2	-45.0	12.3	1.81e-04	0	54	0	181403648	52	6095
2026-01-10 21:53:32.60	54.67	12.66	-41.2	-45.1	12.2	2.02e-04	0	54	0	183500800	53	5826
2026-01-10 21:53:33.61	54.84	12.71	-41.3	-45.2	12.0	2.82e-04	0	54	0	184549376	53	5887
2026-01-10 21:53:34.62	55.02	12.75	-41.3	-45.2	12.2	2.72e-04	0	54	0	186646528	53	5859
2026-01-10 21:53:35.63	55.19	12.80	-41.3	-45.3	12.0	2.88e-04	0	54	0	188743680	53	5941
2026-01-10 21:53:36.64	55.37	12.84	-41.3	-45.2	12.0	3.41e-04	0	54	0	190840832	53	5923
2026-01-10 21:53:37.65	55.55	12.89	-41.3	-45.2	12.1	2.84e-04	0	54	0	192937984	53	5891
2026-01-10 21:53:38.66	55.72	12.93	-41.3	-45.2	12.1	2.50e-04	0	54	0	193986560	53	5874
2026-01-10 21:53:39.67	55.90	12.98	-41.3	-45.2	12.1	2.66e-04	0	54	0	196083712	53	5923
2026-01-10 21:53:40.68	56.08	13.02	-41.3	-45.3	12.0	3.63e-04	0	54	0	198180864	53	5955
2026-01-10 21:53:41.68	56.26	13.07	-41.4	-45.4	11.8	3.74e-04	0	54	0	200278016	53	6042
2026-01-10 21:53:42.69	56.44	13.11	-41.4	-45.5	11.8	4.71e-04	0	54	0	202375168	53	6085
2026-01-10 21:53:43.70	56.62	13.16	-41.4	-45.4	11.8	4.18e-04	0	54	0	203423744	53	6045
2026-01-10 21:53:44.71	56.80	13.20	-41.5	-45.6	11.7	5.48e-04	0	54	0	205520896	53	6168
2026-01-10 21:53:45.73	56.98	13.24	-41.5	-45.6	11.7	6.07e-04	0	54	0	207618048	53	6146
2026-01-10 21:53:46.73	57.16	13.29	-41.4	-45.5	11.7	5.55e-04	0	54	0	209715200	53	6109
2026-01-10 21:53:47.74	57.34	13.33	-41.4	-45.5	11.7	5.86e-04	0	54	0	211812352	53	6124
2026-01-10 21:53:48.75	57.53	13.37	-41.5	-45.6	11.6	6.26e-04	0	54	0	212860928	53	6197
2026-01-10 21:53:49.76	57.71	13.42	-41.5	-45.6	11.6	7.41e-04	0	54	0	214958080	53	6177
2026-01-10 21:53:50.77	57.89	13.46	-41.4	-45.6	11.7	5.95e-04	0	54	0	217055232	53	6141
2026-01-10 21:53:51.78	58.08	13.50	-41.4	-45.4	11.9	4.84e-04	0	54	0	219152384	53	6009
2026-01-10 21:53:52.79	58.26	13.55	-41.4	-45.5	11.8	4.28e-04	0	54	0	221249536	53	6092
2026-01-10 21:53:53.80	58.45	13.59	-41.5	-45.6	11.7	6.19e-04	0	54	0	222298112	53	6160
2026-01-10 21:53:54.81	58.63	13.63	-41.5	-45.7	11.6	6.32e-04	0	54	0	224395264	53	6254
2026-01-10 21:53:55.82	58.82	13.67	-41.6	-45.8	11.5	7.19e-04	0	54	0	226492416	53	6315
2026-01-10 21:53:56.83	59.01	13.71	-41.6	-45.8	11.5	7.86e-04	0	54	0	228589568	53	6312
2026-01-10 21:53:57.84	59.19	13.75	-41.6	-45.9	11.4	8.88e-04	0	54	0	230686720	53	6362
2026-01-10 21:53:58.85	59.38	13.80	-41.6	-45.9	11.4	9.70e-04	0	54	0	231735296	53	6382
2026-01-10 21:53:59.86	59.57	13.84	-41.7	-46.0	11.2	1.29e-03	0	54	0	233832448	53	6493
2026-01-10 21:54:00.87	59.76	13.88	-41.8	-46.2	11.0	1.44e-03	0	54	0	235929600	54	6265
2026-01-10 21:54:01.88	59.95	13.92	-41.8	-46.2	11.1	1.81e-03	0	54	0	238026752	54	6264
2026-01-10 21:54:02.89	60.14	13.96	-41.8	-46.2	11.0	1.73e-03	0	54	0	240123904	54	6223
2026-01-10 21:54:03.90	60.33	14.00	-41.8	-46.2	11.1	1.45e-03	0	54	0	242221056	54	6258
2026-01-10 21:54:04.91	60.52	14.04	-41.7	-46.0	11.3	1.28e-03	0	54	0	243269632	54	6092
2026-01-10 21:54:05.92	60.71	14.08	-41.6	-45.9	11.4	1.16e-03	0	54	0	245366784	54	6038
2026-01-10 21:54:06.93	60.90	14.12	-41.5	-45.7	11.6	8.57e-04	0	54	0	247463936	54	5860
2026-01-10 21:54:07.94	61.10	14.16	-41.4	-45.5	11.8	5.26e-04	0	54	0	249561088	54	5767
2026-01-10 21:54:08.95	61.29	14.20	-41.4	-45.5	11.8	4.91e-04	0	54	0	251658240	54	5764
2026-01-10 21:54:09.96	61.48	14.23	-41.3	-45.3	11.9	4.53e-04	0	54	0	252706816	54	5638
2026-01-10 21:54:10.97	61.68	14.27	-41.4	-45.5	11.8	4.39e-04	0	54	0	254803968	54	5755
2026-01-10 21:54:11.98	61.87	14.31	-41.3	-45.2	12.1	4.71e-04	0	54	0	256901120	54	5566
2026-01-10 21:54:12.99	62.07	14.35	-41.2	-45.2	12.0	3.31e-04	0	54	0	258998272	54	5552
2026-01-10 21:54:14.00	62.26	14.39	-41.3	-45.4	11.8	3.95e-04	0	55	0	261095424	54	5711
2026-01-10 21:54:15.01	62.46	14.42	-41.3	-45.4	11.9	4.61e-04	0	54	0	262144000	54	5664
2026-01-10 21:54:16.02	62.65	14.46	-41.2	-45.2	12.0	3.57e-04	0	54	0	264241152	54	5529
2026-01-10 21:54:17.03	62.85	14.50	-41.2	-45.2	11.9	3.26e-04	0	54	0	266338304	54	5582
2026-01-10 21:54:18.04	63.05	14.54	-41.1	-45.0	12.1	2.62e-04	0	54	0	268435456	54	5442
2026-01-10 21:54:19.05	63.24	14.57	-41.1	-45.0	12.1	2.34e-04	0	54	0	270532608	54	5444
2026-01-10 21:54:20.06	63.44	14.61	-40.9	-44.7	12.4	1.98e-04	0	54	0	271581184	53	5550
2026-01-10 21:54:21.07	63.64	14.64	-40.8	-44.6	12.6	9.15e-05	0	54	0	273678336	53	5465
2026-01-10 21:54:22.08	63.84	14.68	-40.9	-44.8	12.3	1.23e-04	0	55	0	275775488	53	5600
2026-01-10 21:54:23.09	64.04	14.72	-40.9	-44.7	12.3	1.89e-04	0	55	0	277872640	53	5540
2026-01-10 21:54:24.10	64.24	14.75	-40.6	-44.2	12.7	1.43e-04	0	54	0	279969792	53	5260
2026-01-10 21:54:25.11	64.44	14.79	-40.4	-43.8	13.2	4.50e-05	0	54	0	281018368	52	5292
2026-01-10 21:54:26.12	64.64	14.82	-40.3	-43.7	13.3	1.98e-05	0	55	0	283115520	52	5225
2026-01-10 21:54:27.13	64.84	14.85	-40.3	-43.7	13.1	2.36e-05	0	54	0	285212672	52	5250
2026-01-10 21:54:28.14	65.05	14.89	-40.1	-43.5	13.2	2.13e-05	0	54	0	287309824	52	5155
2026-01-10 21:54:29.15	65.25	14.92	-40.2	-43.8	12.9	3.28e-05	0	54	0	289406976	52	5310
2026-01-10 21:54:30.16	65.45	14.96	-40.4	-44.2	12.5	1.01e-04	0	54	0	290455552	52	5549
2026-01-10 21:54:31.17	65.65	14.99	-40.5	-44.3	12.2	1.86e-04	0	55	0	292552704	52	5648
2026-01-10 21:54:32.18	65.86	15.02	-40.4	-44.2	12.2	2.16e-04	0	55	0	294649856	52	5585
2026-01-10 21:54:33.18	66.06	15.05	-40.3	-44.2	12.2	2.24e-04	0	55	0	296747008	52	5584
2026-01-10 21:54:34.19	66.27	15.09	-40.3	-44.2	12.2	2.04e-04	0	55	0	298844160	52	5543
2026-01-10 21:54:35.20	66.47	15.12	-40.3	-44.4	12.0	2.36e-04	0	55	0	299892736	52	5667
2026-01-10 21:54:36.21	66.68	15.15	-40.4	-44.6	11.6	5.37e-04	0	54	0	301989888	52	5811
2026-01-10 21:54:37.22	66.88	15.18	-40.4	-44.6	11.6	6.73e-04	0	54	0	304087040	52	5812
2026-01-10 21:54:38.23	67.09	15.21	-40.4	-44.8	11.2	8.19e-04	0	55	0	306184192	52	5934
2026-01-10 21:54:39.24	67.29	15.24	-40.4	-44.8	11.2	1.19e-03	0	54	0	308281344	52	5982
2026-01-10 21:54:40.25	67.50	15.27	-40.4	-44.8	11.1	1.56e-03	0	55	0	310378496	52	5971
2026-01-10 21:54:41.26	67.71	15.30	-40.4	-44.8	11.1	1.64e-03	0	55	0	311427072	52	5926
2026-01-10 21:54:42.27	67.92	15.33	-40.4	-45.0	10.9	2.06e-03	0	55	0	313524224	52	6074
2026-01-10 21:54:43.28	68.13	15.36	-40.4	-45.0	10.8	2.43e-03	0	55	0	315621376	52	6113
2026-01-10 21:54:44.29	68.34	15.39	-40.4	-45.2	10.5	2.83e-03	0	55	0	317718528	52	6232
2026-01-10 21:54:45.30	68.54	15.42	-40.5	-45.3	10.4	4.91e-03	0	54	0	319815680	52	6322
2026-01-10 21:54:46.31	68.75	15.45	-40.5	-45.5	10.1	5.97e-03	0	55	0	320864256	52	6446
2026-01-10 21:54:47.32	68.96	15.48	-40.5	-45.6	9.9	7.92e-03	0	55	0	322961408	52	6534
2026-01-10 21:54:48.33	69.17	15.51	-40.5	-45.8	9.6	1.07e-02	0	55	0	325058560	52	6713
2026-01-10 21:54:49.34	69.39	15.53	-40.5	-46.2	9.1	1.81e-02	0	55	0	327155712	52	6975
2026-01-10 21:54:50.35	69.60	15.56	-40.6	-46.6	8.6	2.87e-02	0	55	0	329252864	52	7295
2026-01-10 21:54:51.35	69.81	15.59	-40.6	-46.9	8.1	4.44e-02	0	54	0	330301440	52	7576
2026-01-10 21:54:52.36	70.02	15.62	-40.7	-47.4	7.6	8.30e-02	0	55	0	332398592	52	7993
2026-01-10 21:54:53.37	70.23	15.64	-40.7	-47.7	7.2	1.14e-01	0	55	0	334495744	52	8292
2026-01-10 21:54:54.38	70.44	15.67	-40.7	-48.2	6.7	1.62e-01	0	55	0	336592896	52	8808
2026-01-10 21:54:55.39	70.66	15.69	-40.7	-48.4	6.4	2.24e-01	0	55	0	338690048	52	8986
2026-01-10 21:54:56.40	70.87	15.72	-40.7	-48.6	6.2	2.59e-01	0	55	0	339738624	52	9202
2026-01-10 21:54:57.41	71.08	15.74	-40.7	-48.7	6.1	2.85e-01	0	55	0	341835776	52	9294
2026-01-10 21:54:58.42	71.30	15.77	-40.6	-48.8	6.0	3.23e-01	0	55	0	343932928	52	9389
2026-01-10 21:54:59.43	71.51	15.79	-40.7	-48.8	6.0	3.51e-01	0	55	0	346030080	52	9457
2026-01-10 21:55:00.44	71.73	15.82	-40.7	-48.8	5.9	3.38e-01	0	55	0	348127232	52	9481
2026-01-10 21:55:01.45	71.94	15.84	-40.7	-49.0	5.9	3.63e-01	0	55	0	349175808	52	9640
2026-01-10 21:55:02.46	72.16	15.86	-40.7	-48.6	6.1	3.24e-01	0	55	0	351272960	52	9280
2026-01-10 21:55:03.47	72.37	15.89	-40.6	-48.3	6.5	2.76e-01	0	55	0	353370112	52	8924
2026-01-10 21:55:04.48	72.59	15.91	-40.6	-48.2	6.5	2.20e-01	0	55	0	355467264	52	8859
2026-01-10 21:55:05.48	72.80	15.93	-40.6	-48.2	6.5	2.34e-01	0	55	0	357564416	52	8852
2026-01-10 21:55:06.49	73.02	15.95	-40.7	-48.3	6.4	2.18e-01	0	55	0	358612992	52	8934
2026-01-10 21:55:07.50	73.24	15.97	-40.7	-48.5	6.3	2.55e-01	0	55	0	360710144	52	9125
2026-01-10 21:55:08.52	73.46	15.99	-40.7	-48.6	6.2	2.66e-01	0	55	0	362807296	52	9210
2026-01-10 21:55:09.52	73.67	16.01	-40.7	-48.8	6.1	3.00e-01	0	55	0	364904448	52	9391
2026-01-10 21:55:10.53	73.89	16.03	-40.6	-48.7	6.0	3.38e-01	0	55	0	367001600	52	9384
2026-01-10 21:55:11.54	74.11	16.05	-40.6	-48.9	5.9	3.69e-01	0	55	0	368050176	52	9586
2026-01-10 21:55:12.55	74.33	16.07	-40.6	-48.8	5.9	3.79e-01	0	55	0	370147328	52	9486
2026-01-10 21:55:13.56	74.55	16.09	-40.6	-48.7	6.0	3.26e-01	0	55	0	372244480	52	9298
2026-01-10 21:55:14.57	74.77	16.11	-40.5	-48.2	6.4	2.69e-01	0	55	0	374341632	52	8851
2026-01-10 21:55:15.58	74.98	16.13	-40.5	-47.9	6.7	2.16e-01	0	55	0	376438784	52	8546
2026-01-10 21:55:16.59	75.20	16.15	-40.4	-47.6	7.0	1.86e-01	0	55	0	377487360	52	8211
2026-01-10 21:55:17.60	75.42	16.17	-40.4	-47.4	7.3	1.31e-01	0	55	0	379584512	52	8017
2026-01-10 21:55:18.61	75.64	16.18	-40.5	-47.4	7.3	1.23e-01	0	55	0	381681664	52	8052
2026-01-10 21:55:19.62	75.86	16.20	-40.5	-47.4	7.4	1.17e-01	0	55	0	383778816	52	8008
2026-01-10 21:55:20.63	76.09	16.22	-40.5	-47.3	7.5	1.06e-01	0	55	0	385875968	52	7906
2026-01-10 21:55:21.63	76.30	16.23	-40.5	-47.2	7.7	9.30e-02	0	55	0	386924544	52	7818
2026-01-10 21:55:22.64	76.53	16.25	-40.5	-47.1	7.7	9.07e-02	0	55	0	389021696	52	7763
2026-01-10 21:55:23.65	76.75	16.26	-40.5	-47.1	7.8	8.86e-02	0	55	0	391118848	52	7742
2026-01-10 21:55:24.66	76.97	16.28	-40.4	-46.8	8.1	6.90e-02	0	55	0	393216000	52	7487
2026-01-10 21:55:25.67	77.19	16.29	-40.4	-46.7	8.2	5.40e-02	0	55	0	395313152	52	7383
2026-01-10 21:55:26.68	77.41	16.31	-40.5	-46.8	8.1	5.71e-02	0	55	0	396361728	52	7473
2026-01-10 21:55:27.69	77.63	16.32	-40.5	-46.8	8.1	5.87e-02	0	55	0	398458880	52	7519
2026-01-10 21:55:28.70	77.86	16.33	-40.6	-46.8	8.2	5.81e-02	0	55	0	400556032	52	7477
2026-01-10 21:55:29.71	78.08	16.35	-40.6	-46.8	8.3	5.17e-02	0	55	0	402653184	52	7497
2026-01-10 21:55:30.72	78.30	16.36	-40.7	-46.9	8.2	5.39e-02	0	55	0	404750336	52	7559
2026-01-10 21:55:31.73	78.52	16.37	-40.7	-47.1	8.0	5.90e-02	0	55	0	406847488	52	7737
2026-01-10 21:55:32.74	78.75	16.38	-40.7	-47.2	7.9	6.89e-02	0	55	0	407896064	52	7849
2026-01-10 21:55:33.75	78.97	16.39	-40.7	-47.3	7.7	8.25e-02	0	55	0	409993216	52	7956
2026-01-10 21:55:34.76	79.19	16.40	-40.7	-47.2	7.8	8.14e-02	0	55	0	412090368	52	7877
2026-01-10 21:55:35.76	79.42	16.41	-40.7	-47.2	7.8	7.97e-02	0	55	0	414187520	52	7891
2026-01-10 21:55:36.77	79.64	16.42	-40.7	-47.4	7.7	8.44e-02	0	55	0	416284672	52	8014
2026-01-10 21:55:37.78	79.86	16.43	-40.7	-47.2	7.9	7.89e-02	0	55	0	417333248	52	7849
2026-01-10 21:55:38.79	80.09	16.44	-40.7	-47.0	8.1	6.84e-02	0	55	0	419430400	52	7687
2026-01-10 21:55:39.80	80.31	16.45	-40.7	-47.0	8.2	5.80e-02	0	55	0	421527552	52	7664
2026-01-10 21:55:40.81	80.54	16.46	-40.8	-47.1	8.2	5.82e-02	0	55	0	423624704	52	7740
2026-01-10 21:55:41.82	80.76	16.47	-40.8	-46.7	8.7	3.95e-02	0	55	0	425721856	52	7410
2026-01-10 21:55:42.83	80.99	16.47	-40.8	-46.5	9.0	2.80e-02	0	55	0	426770432	52	7258
2026-01-10 21:55:43.84	81.21	16.48	-40.9	-46.5	9.2	2.30e-02	0	55	0	428867584	52	7275
2026-01-10 21:55:44.85	81.43	16.49	-41.0	-46.5	9.3	1.90e-02	0	55	0	430964736	52	7246
2026-01-10 21:55:45.85	81.66	16.49	-41.0	-46.3	9.6	1.71e-02	0	55	0	433061888	52	7091
2026-01-10 21:55:46.86	81.88	16.50	-40.9	-46.1	9.8	1.14e-02	0	55	0	435159040	52	6927
2026-01-10 21:55:47.87	82.11	16.51	-40.9	-46.0	9.8	9.83e-03	0	55	0	436207616	52	6868
2026-01-10 21:55:48.88	82.33	16.51	-40.8	-46.0	9.9	9.65e-03	0	55	0	438304768	52	6816
2026-01-10 21:55:49.89	82.56	16.52	-40.7	-45.6	10.2	7.67e-03	0	55	0	440401920	52	6564
2026-01-10 21:55:50.90	82.78	16.52	-40.8	-45.8	10.1	6.25e-03	0	55	0	442499072	52	6669
2026-01-10 21:55:51.91	83.01	16.52	-40.8	-45.8	10.1	7.01e-03	0	55	0	444596224	52	6715
2026-01-10 21:55:52.92	83.23	16.53	-40.7	-45.7	10.1	7.57e-03	0	55	0	445644800	52	6635
2026-01-10 21:55:53.93	83.46	16.53	-40.7	-45.8	9.9	8.46e-03	0	55	0	447741952	52	6714
2026-01-10 21:55:54.94	83.68	16.53	-40.7	-45.9	9.7	9.58e-03	0	55	0	449839104	52	6787
2026-01-10 21:55:55.95	83.91	16.53	-40.7	-46.1	9.6	1.26e-02	0	55	0	451936256	52	6883
2026-01-10 21:55:56.96	84.14	16.54	-40.7	-46.1	9.6	1.42e-02	0	55	0	454033408	52	6882
2026-01-10 21:55:57.97	84.36	16.54	-40.7	-46.0	9.6	1.29e-02	0	55	0	455081984	52	6829
2026-01-10 21:55:58.98	84.59	16.54	-40.6	-46.0	9.6	1.39e-02	0	55	0	457179136	52	6825
2026-01-10 21:55:59.98	84.81	16.54	-40.7	-46.1	9.4	1.47e-02	0	55	0	459276288	52	6912
2026-01-10 21:56:00.99	85.04	16.54	-40.6	-46.0	9.4	1.57e-02	0	55	0	461373440	52	6859
2026-01-10 21:56:02.00	85.26	16.54	-40.7	-46.3	9.1	1.96e-02	0	55	0	463470592	52	7055
2026-01-10 21:56:03.01	85.49	16.54	-40.7	-46.2	9.1	2.23e-02	0	55	0	464519168	52	7028
2026-01-10 21:56:04.02	85.71	16.54	-40.7	-46.2	9.1	2.09e-02	0	55	0	466616320	52	7034
2026-01-10 21:56:05.03	85.94	16.53	-40.7	-46.3	9.2	2.05e-02	0	55	0	468713472	52	7046
2026-01-10 21:56:06.04	86.16	16.53	-40.6	-46.0	9.4	1.84e-02	0	55	0	470810624	52	6874
2026-01-10 21:56:07.05	86.39	16.53	-40.5	-45.6	9.8	1.08e-02	0	55	0	472907776	52	6564
2026-01-10 21:56:08.06	86.62	16.53	-40.5	-45.6	9.9	9.32e-03	0	55	0	475004928	52	6529
2026-01-10 21:56:09.07	86.84	16.52	-40.4	-45.5	10.0	8.02e-03	0	55	0	476053504	52	6450
2026-01-10 21:56:10.08	87.07	16.52	-40.5	-45.5	10.1	7.67e-03	0	55	0	478150656	52	6463
2026-01-10 21:56:11.09	87.29	16.51	-40.6	-45.5	10.2	6.61e-03	0	55	0	480247808	52	6463
2026-01-10 21:56:12.10	87.52	16.51	-40.6	-45.5	10.3	5.40e-03	0	55	0	482344960	52	6475
2026-01-10 21:56:13.11	87.74	16.50	-40.7	-45.6	10.3	4.85e-03	0	55	0	484442112	52	6515
2026-01-10 21:56:14.12	87.97	16.50	-40.8	-45.6	10.4	4.81e-03	0	55	0	485490688	52	6563
2026-01-10 21:56:15.13	88.19	16.49	-40.8	-45.5	10.7	4.08e-03	0	55	0	487587840	52	6458
2026-01-10 21:56:16.14	88.42	16.49	-40.8	-45.3	10.9	2.66e-03	0	55	0	489684992	52	6335
2026-01-10 21:56:17.15	88.64	16.48	-40.7	-45.1	11.2	1.63e-03	0	55	0	491782144	52	6163
2026-01-10 21:56:18.16	88.87	16.47	-40.6	-44.8	11.6	9.67e-04	0	55	0	493879296	52	5962
2026-01-10 21:56:19.17	89.09	16.46	-40.5	-44.6	11.8	7.81e-04	0	55	0	494927872	52	5837
2026-01-10 21:56:20.18	89.32	16.46	-40.4	-44.3	12.2	2.67e-04	0	55	0	497025024	52	5609
2026-01-10 21:56:21.18	89.54	16.45	-40.3	-44.0	12.5	1.34e-04	0	55	0	499122176	52	5461
2026-01-10 21:56:22.19	89.76	16.44	-40.4	-44.2	12.4	1.16e-04	0	55	0	501219328	52	5540
2026-01-10 21:56:23.21	89.99	16.43	-40.4	-44.1	12.6	1.12e-04	0	55	0	503316480	52	5491
2026-01-10 21:56:24.22	90.21	16.42	-40.4	-44.0	12.9	7.01e-05	0	55	0	504365056	52	5405
2026-01-10 21:56:25.23	90.44	16.41	-40.5	-44.0	12.9	5.11e-05	0	55	0	506462208	52	5461
2026-01-10 21:56:26.23	90.66	16.40	-40.5	-44.0	13.0	3.66e-05	0	55	0	508559360	52	5415
2026-01-10 21:56:27.24	90.88	16.39	-40.5	-44.0	13.0	3.81e-05	0	55	0	510656512	52	5458
2026-01-10 21:56:28.25	91.11	16.38	-40.5	-44.0	13.1	3.05e-05	0	55	0	512753664	52	5429
2026-01-10 21:56:29.26	91.33	16.37	-40.4	-43.8	13.4	1.44e-05	0	55	0	513802240	52	5300
2026-01-10 21:56:30.27	91.55	16.35	-40.4	-43.6	13.7	6.80e-06	0	55	0	515899392	52	5167
2026-01-10 21:56:31.28	91.78	16.34	-40.3	-43.4	13.8	4.50e-06	0	55	0	517996544	52	5070
2026-01-10 21:56:32.29	92.00	16.33	-40.2	-43.3	14.0	4.50e-06	0	55	0	520093696	52	5009
2026-01-10 21:56:33.30	92.22	16.31	-40.2	-43.2	14.1	0.00e+00	0	55	0	522190848	52	4978
2026-01-10 21:56:34.31	92.44	16.30	-40.2	-43.2	14.2	0.00e+00	0	55	0	523239424	52	4947
2026-01-10 21:56:35.32	92.67	16.29	-40.2	-43.3	14.1	3.00e-06	0	55	0	525336576	52	5008
2026-01-10 21:56:36.33	92.89	16.27	-40.2	-43.2	14.2	1.50e-06	0	55	0	527433728	52	4940
2026-01-10 21:56:37.34	93.11	16.26	-40.2	-43.3	14.1	3.00e-06	0	55	0	529530880	52	4994
2026-01-10 21:56:38.35	93.33	16.24	-40.2	-43.2	14.2	3.00e-06	0	55	0	531628032	52	4948
2026-01-10 21:56:39.36	93.55	16.23	-40.1	-43.0	14.4	7.00e-07	0	55	0	532676608	52	4861
2026-01-10 21:56:40.37	93.77	16.21	-40.2	-43.1	14.3	0.00e+00	0	55	0	534773760	52	4919
2026-01-10 21:56:41.38	94.00	16.19	-40.1	-43.0	14.4	7.00e-07	0	55	0	536870912	52	4833
2026-01-10 21:56:42.39	94.22	16.18	-40.2	-43.1	14.3	0.00e+00	0	55	0	538968064	52	4902
2026-01-10 21:56:43.40	94.44	16.16	-40.2	-43.1	14.3	7.00e-07	0	55	0	541065216	52	4911
2026-01-10 21:56:44.41	94.66	16.14	-40.2	-43.2	14.3	1.50e-06	0	55	0	543162368	52	4933
2026-01-10 21:56:45.42	94.88	16.12	-40.1	-43.1	14.3	1.50e-06	0	55	0	544210944	52	4885
2026-01-10 21:56:46.43	95.10	16.10	-40.0	-42.9	14.5	3.00e-06	0	55	0	546308096	52	4796
2026-01-10 21:56:47.44	95.32	16.09	-40.1	-43.0	14.5	0.00e+00	0	55	0	548405248	52	4838
2026-01-10 21:56:48.45	95.54	16.07	-40.1	-42.9	14.5	7.00e-07	0	55	0	550502400	51	5098
2026-01-10 21:56:49.46	95.75	16.05	-40.1	-42.9	14.6	1.50e-06	0	55	0	552599552	51	5096
2026-01-10 21:56:50.47	95.97	16.03	-40.2	-43.1	14.4	0.00e+00	0	56	0	553648128	51	5176
2026-01-10 21:56:51.48	96.19	16.01	-40.2	-43.1	14.3	7.00e-07	0	55	0	555745280	51	5217
2026-01-10 21:56:52.49	96.41	15.99	-40.3	-43.3	14.2	2.20e-06	0	55	0	557842432	51	5321
2026-01-10 21:56:53.50	96.63	15.96	-40.5	-43.6	13.9	1.50e-06	0	55	0	559939584	51	5493
2026-01-10 21:56:54.51	96.84	15.94	-40.5	-43.7	13.9	3.80e-06	0	55	0	562036736	51	5542
2026-01-10 21:56:55.52	97.06	15.92	-40.5	-43.5	14.0	1.50e-06	0	55	0	563085312	51	5456
2026-01-10 21:56:56.53	97.28	15.90	-40.4	-43.4	14.0	7.00e-07	0	55	0	565182464	51	5400
2026-01-10 21:56:57.54	97.50	15.88	-40.3	-43.2	14.3	1.50e-06	0	55	0	567279616	51	5257
2026-01-10 21:56:58.55	97.71	15.85	-40.1	-43.0	14.6	7.00e-07	0	55	0	569376768	51	5103
2026-01-10 21:56:59.56	97.93	15.83	-40.1	-43.0	14.5	0.00e+00	0	55	0	571473920	51	5107
2026-01-10 21:57:00.57	98.14	15.81	-40.0	-42.8	14.7	7.00e-07	0	55	0	572522496	51	5000
2026-01-10 21:57:01.58	98.36	15.78	-39.9	-42.6	14.9	7.00e-07	0	55	0	574619648	51	4911
2026-01-10 21:57:02.59	98.57	15.76	-39.9	-42.7	14.9	7.00e-07	0	55	0	576716800	51	4940
2026-01-10 21:57:03.60	98.79	15.73	-39.8	-42.4	15.1	7.00e-07	0	55	0	578813952	51	4809
2026-01-10 21:57:04.61	99.00	15.71	-39.8	-42.5	15.0	0.00e+00	0	55	0	580911104	51	4862
2026-01-10 21:57:05.62	99.22	15.68	-39.7	-42.6	15.0	0.00e+00	0	55	0	581959680	50	5166
2026-01-10 21:57:06.63	99.43	15.66	-39.9	-42.7	14.9	0.00e+00	0	56	0	584056832	50	5236
2026-01-10 21:57:07.64	99.64	15.63	-39.9	-42.7	14.8	0.00e+00	0	55	0	586153984	50	5258
2026-01-10 21:57:08.65	99.86	15.60	-39.9	-42.7	14.8	7.00e-07	0	55	0	588251136	50	5259
2026-01-10 21:57:09.66	100.07	15.58	-39.9	-42.7	14.8	0.00e+00	0	55	0	590348288	50	5273
2026-01-10 21:57:10.67	100.28	15.55	-39.7	-42.6	15.0	0.00e+00	0	55	0	591396864	50	5179
2026-01-10 21:57:11.68	100.49	15.52	-39.7	-42.8	14.7	7.00e-07	0	55	0	593494016	50	5328
2026-01-10 21:57:12.69	100.70	15.49	-39.9	-42.8	14.8	0.00e+00	0	55	0	595591168	50	5292
2026-01-10 21:57:13.70	100.91	15.47	-40.0	-42.8	14.8	7.00e-07	0	55	0	597688320	50	5308
2026-01-10 21:57:14.71	101.12	15.44	-39.6	-42.8	14.7	7.00e-07	0	55	0	599785472	50	5311
2026-01-10 21:57:15.72	101.33	15.41	-40.0	-42.9	14.7	0.00e+00	0	55	0	600834048	50	5360
2026-01-10 21:57:16.73	101.54	15.38	-40.0	-42.9	14.7	0.00e+00	0	55	0	602931200	50	5356
2026-01-10 21:57:17.74	101.75	15.35	-39.9	-42.7	14.8	0.00e+00	0	55	0	605028352	50	5251
2026-01-10 21:57:18.75	101.96	15.32	-39.9	-42.7	14.8	0.00e+00	0	55	0	607125504	50	5257
2026-01-10 21:57:19.77	102.17	15.29	-39.7	-42.4	15.1	0.00e+00	0	55	0	609222656	50	5067
2026-01-10 21:57:20.78	102.38	15.26	-39.3	-42.4	15.1	0.00e+00	0	55	0	611319808	49	5399
2026-01-10 21:57:21.79	102.59	15.23	-39.6	-42.6	14.9	0.00e+00	0	55	0	612368384	50	5195
2026-01-10 21:57:22.80	102.80	15.20	-39.7	-42.4	15.1	0.00e+00	0	56	0	614465536	50	5090
2026-01-10 21:57:23.80	103.00	15.17	-39.8	-42.6	14.9	0.00e+00	0	56	0	616562688	50	5200
2026-01-10 21:57:24.81	103.21	15.13	-39.8	-42.6	15.0	7.00e-07	0	55	0	618659840	50	5169
2026-01-10 21:57:25.82	103.41	15.10	-39.9	-42.8	14.7	7.00e-07	0	55	0	620756992	50	5317
2026-01-10 21:57:26.83	103.62	15.07	-39.6	-43.0	14.5	3.80e-06	0	56	0	621805568	50	5460
2026-01-10 21:57:27.84	103.83	15.04	-39.1	-43.3	14.0	4.73e-05	0	55	0	623902720	50	5639
2026-01-10 21:57:28.85	104.03	15.00	-40.3	-43.5	14.0	5.30e-06	0	56	0	625999872	51	5427
2026-01-10 21:57:29.86	104.23	14.97	-40.4	-43.6	13.9	4.50e-06	0	55	0	628097024	51	5490
2026-01-10 21:57:30.87	104.44	14.94	-36.7	-43.2	13.3	1.37e-05	0	55	0	630194176	45	7455
2026-01-10 21:57:31.88	104.64	14.90	-39.8	-43.5	13.9	3.96e-05	0	56	0	631242752	50	5776
2026-01-10 21:57:32.88	104.84	14.87	-39.3	-43.5	13.5	4.42e-04	0	55	0	633339904	50	5730
2026-01-10 21:57:33.89	105.05	14.84	-38.8	-43.6	13.6	1.67e-04	0	55	0	635437056	50	5828
2026-01-10 21:57:34.90	105.25	14.80	-36.8	-43.4	12.8	1.09e-02	0	55	0	637534208	44	7994
2026-01-10 21:57:35.91	105.45	14.77	-39.6	-43.6	13.5	3.18e-03	0	55	0	639631360	50	5811
2026-01-10 21:57:36.92	105.65	14.73	-40.4	-43.7	13.8	3.12e-04	0	55	0	640679936	51	5530
2026-01-10 21:57:37.93	105.85	14.70	-38.7	-43.6	13.6	5.74e-04	0	55	0	642777088	49	6177
2026-01-10 21:57:38.94	106.05	14.66	-39.3	-43.7	13.6	6.18e-04	0	55	0	644874240	50	5882
2026-01-10 21:57:39.95	106.25	14.62	-39.4	-43.5	13.7	3.23e-04	0	55	0	646971392	50	5762
2026-01-10 21:57:40.96	106.45	14.59	-39.2	-43.4	13.8	8.71e-04	0	55	0	649068544	49	6057
2026-01-10 21:57:41.97	106.65	14.55	-39.2	-43.5	13.7	4.84e-04	0	55	0	650117120	49	6105
2026-01-10 21:57:42.98	106.85	14.51	-39.7	-43.6	13.7	1.65e-03	0	55	0	652214272	49	6155
2026-01-10 21:57:43.99	107.05	14.48	-39.7	-43.8	13.3	1.15e-02	0	55	0	654311424	49	6301
2026-01-10 21:57:45.00	107.24	14.44	-39.7	-44.1	13.0	2.85e-02	0	56	0	656408576	49	6519
2026-01-10 21:57:46.01	107.44	14.40	-40.8	-44.3	13.0	3.85e-04	0	55	0	658505728	52	5653
2026-01-10 21:57:47.02	107.64	14.36	-40.3	-45.2	12.6	2.28e-02	0	55	0	659554304	50	6961
2026-01-10 21:57:48.03	107.83	14.33	-40.3	-45.1	12.2	1.67e-03	0	56	0	661651456	51	6562
2026-01-10 21:57:49.04	108.03	14.29	-36.3	-45.1	11.5	2.28e-03	0	56	0	663748608	47	8264
2026-01-10 21:57:50.05	108.22	14.25	-39.4	-45.6	11.3	3.39e-03	0	55	0	665845760	49	7771
2026-01-10 21:57:51.06	108.42	14.21	-41.4	-45.8	11.4	1.58e-03	0	55	0	667942912	53	6278
2026-01-10 21:57:52.07	108.61	14.17	-40.8	-45.8	11.5	8.00e-04	0	55	0	668991488	52	6667
2026-01-10 21:57:53.08	108.80	14.13	-40.4	-45.7	11.4	7.98e-04	0	56	0	671088640	49	7855
2026-01-10 21:57:54.09	109.00	14.09	-39.0	-45.9	11.4	3.72e-03	0	56	0	673185792	51	7136
2026-01-10 21:57:55.10	109.19	14.05	-41.5	-45.7	11.6	1.11e-03	0	56	0	675282944	53	6235
2026-01-10 21:57:56.11	109.38	14.01	-41.3	-45.7	11.6	7.71e-04	0	56	0	677380096	53	6235
2026-01-10 21:57:57.12	109.57	13.97	-41.4	-45.7	11.6	6.43e-04	0	55	0	679477248	53	6264
2026-01-10 21:57:58.12	109.76	13.93	-41.5	-45.5	11.8	5.28e-04	0	56	0	680525824	53	6127
2026-01-10 21:57:59.13	109.95	13.89	-41.4	-45.4	12.0	4.09e-04	0	56	0	682622976	53	6036
2026-01-10 21:58:00.14	110.14	13.85	-41.3	-45.3	12.1	2.90e-04	0	55	0	684720128	53	5949
2026-01-10 21:58:01.15	110.33	13.81	-41.3	-45.2	12.2	3.21e-04	0	55	0	686817280	53	5857
2026-01-10 21:58:02.16	110.52	13.77	-41.3	-45.1	12.3	1.88e-04	0	56	0	688914432	53	5813
2026-01-10 21:58:03.17	110.71	13.73	-41.1	-44.8	12.5	1.81e-04	0	56	0	689963008	53	5638
2026-01-10 21:58:04.18	110.90	13.68	-41.2	-44.9	12.5	1.07e-04	0	55	0	692060160	52	6021
2026-01-10 21:58:05.19	111.09	13.64	-41.2	-44.9	12.4	1.25e-04	0	55	0	694157312	52	6023
2026-01-10 21:58:06.20	111.27	13.60	-41.2	-45.0	12.3	1.52e-04	0	55	0	696254464	53	5786
2026-01-10 21:58:07.21	111.46	13.56	-41.3	-45.3	12.0	2.38e-04	0	55	0	698351616	53	5937
2026-01-10 21:58:08.22	111.64	13.51	-41.3	-45.2	12.1	2.96e-04	0	56	0	699400192	53	5903
2026-01-10 21:58:09.23	111.83	13.47	-41.4	-45.4	11.9	7.41e-04	0	56	0	701497344	53	6021
2026-01-10 21:58:10.24	112.02	13.43	-41.5	-45.5	11.7	4.52e-04	0	55	0	703594496	53	6126
2026-01-10 21:58:11.25	112.20	13.39	-41.5	-45.6	11.7	5.16e-04	0	56	0	705691648	53	6174
2026-01-10 21:58:12.26	112.38	13.34	-41.6	-45.9	11.4	9.31e-04	0	56	0	707788800	53	6365
2026-01-10 21:58:13.27	112.57	13.30	-41.6	-46.0	11.3	1.06e-03	0	56	0	708837376	53	6470
2026-01-10 21:58:14.28	112.75	13.25	-42.1	-46.5	10.7	1.55e-03	0	55	0	710934528	51	7679
2026-01-10 21:58:15.28	112.93	13.21	-41.6	-46.1	11.1	3.43e-03	0	55	0	713031680	53	6549
2026-01-10 21:58:16.30	113.11	13.17	-41.5	-46.0	11.2	1.68e-03	0	55	0	715128832	53	6443
2026-01-10 21:58:17.30	113.29	13.12	-40.9	-45.8	11.3	1.36e-03	0	56	0	717225984	53	6295
2026-01-10 21:58:18.31	113.47	13.08	-41.1	-45.5	11.7	7.09e-04	0	55	0	718274560	53	6109
2026-01-10 21:58:19.33	113.65	13.03	-40.8	-45.4	11.8	6.99e-04	0	56	0	720371712	53	6023
2026-01-10 21:58:20.33	113.83	12.99	-40.3	-45.3	11.9	1.06e-03	0	56	0	722468864	52	6329
2026-01-10 21:58:21.34	114.01	12.94	-40.8	-45.4	11.9	9.89e-04	0	56	0	724566016	52	6351
2026-01-10 21:58:22.35	114.19	12.90	-40.8	-45.3	11.8	2.63e-03	0	56	0	726663168	52	6315
2026-01-10 21:58:23.37	114.37	12.85	-40.7	-45.9	11.3	1.01e-02	0	55	0	727711744	52	6729
2026-01-10 21:58:24.37	114.55	12.81	-40.6	-45.5	11.5	6.66e-03	0	55	0	729808896	52	6463
2026-01-10 21:58:25.38	114.72	12.76	-40.0	-45.6	8.2	1.25e-02	0	55	0	731906048	39	13732
2026-01-10 21:58:26.39	114.90	12.72	-38.2	-44.9	11.3	1.88e-02	0	56	0	734003200	49	7190
2026-01-10 21:58:27.40	115.08	12.67	-40.0	-44.9	11.9	1.02e-02	0	55	0	736100352	50	6792
2026-01-10 21:58:28.41	115.25	12.62	-38.8	-44.9	11.7	2.87e-02	0	55	0	737148928	48	7551
2026-01-10 21:58:29.42	115.43	12.58	-39.4	-44.4	12.2	1.52e-02	0	56	0	739246080	49	6786
2026-01-10 21:58:30.43	115.60	12.53	-38.4	-44.3	11.9	1.55e-02	0	56	0	741343232	48	7076
2026-01-10 21:58:31.44	115.77	12.48	-39.2	-44.3	11.8	3.53e-02	0	55	0	743440384	48	7043
2026-01-10 21:58:32.45	115.95	12.44	-36.2	-44.2	12.4	9.36e-03	0	56	0	745537536	49	6629
2026-01-10 21:58:33.46	116.12	12.39	-36.2	-44.3	11.0	1.81e-02	0	56	0	747634688	47	7482
2026-01-10 21:58:34.47	116.29	12.34	-31.7	-44.3	12.1	1.73e-02	0	56	0	748683264	48	7067
2026-01-10 21:58:35.48	116.46	12.29	-39.0	-44.6	11.9	6.35e-02	0	56	0	750780416	49	6930
2026-01-10 21:58:36.49	116.63	12.25	-35.9	-44.6	11.0	1.49e-01	0	56	0	752877568	47	7741
2026-01-10 21:58:37.50	116.80	12.20	-39.2	-44.8	11.4	2.80e-02	0	56	0	754974720	49	7073
2026-01-10 21:58:38.51	116.97	12.15	-39.1	-44.9	11.5	1.91e-02	0	55	0	757071872	48	7618
2026-01-10 21:58:39.52	117.14	12.10	-31.0	-44.4	8.3	1.30e-01	1	56	0	758120448	34	16036
2026-01-10 21:58:40.53	117.31	12.06	-36.4	-45.2	9.7	1.52e-01	1	56	0	760217600	47	8312
2026-01-10 21:58:41.54	117.48	12.01	-38.7	-45.1	10.5	8.57e-02	0	56	0	762314752	48	7741
2026-01-10 21:58:42.55	117.65	11.96	-35.9	-44.7	8.4	3.31e-02	1	55	0	764411904	45	8831
2026-01-10 21:58:43.56	117.82	11.91	-34.1	-44.6	10.4	5.17e-02	0	55	0	766509056	46	8268
2026-01-10 21:58:44.57	117.98	11.86	-38.3	-45.5	10.3	2.92e-02	0	56	0	767557632	49	7670
2026-01-10 21:58:45.58	118.15	11.81	-36.7	-45.9	9.5	4.42e-02	0	56	0	769654784	44	10660
2026-01-10 21:58:46.59	118.32	11.77	-33.9	-45.7	7.8	6.86e-02	0	55	0	771751936	44	10460
2026-01-10 21:58:47.60	118.48	11.72	-38.5	-45.2	10.4	8.87e-02	0	55	0	773849088	47	8337
2026-01-10 21:58:48.61	118.65	11.67	-38.2	-44.2	11.3	3.12e-01	0	56	0	775946240	47	7439
2026-01-10 21:58:49.62	118.81	11.62	-24.0	-42.9	6.9	1.28e-01	2	56	0	776994816	19	32104
2026-01-10 21:58:50.63	118.97	11.57	-30.4	-42.9	9.8	5.74e-02	0	56	0	779091968	32	15218
2026-01-10 21:58:51.64	119.14	11.52	-37.6	-44.1	11.2	3.13e-02	0	56	0	781189120	44	8728
2026-01-10 21:58:52.65	119.30	11.47	-33.9	-43.8	10.8	2.94e-02	0	56	0	783286272	47	7113
2026-01-10 21:58:53.66	119.46	11.42	-36.6	-43.6	9.6	7.72e-02	6	56	0	785383424	41	9725
2026-01-10 21:58:54.67	119.62	11.37	-37.9	-43.8	12.3	1.76e-01	0	55	0	786432000	47	7055
2026-01-10 21:58:55.68	119.78	11.32	-32.0	-43.5	10.5	3.31e-02	0	56	0	788529152	41	9701
2026-01-10 21:58:56.69	119.94	11.27	-37.5	-44.2	10.2	4.61e-02	0	56	0	790626304	41	10413
2026-01-10 21:58:57.69	120.10	11.22	-29.9	-44.2	10.6	5.78e-02	1	56	0	792723456	40	11116
2026-01-10 21:58:58.71	120.26	11.17	-35.6	-45.1	9.9	6.82e-02	0	56	0	794820608	44	9732
2026-01-10 21:58:59.72	120.42	11.12	-33.4	-44.9	8.7	4.17e-02	6	56	0	795869184	43	10090
2026-01-10 21:59:00.73	120.58	11.07	-26.6	-44.0	6.4	9.17e-02	8	56	0	797966336	25	25643
2026-01-10 21:59:01.74	120.74	11.02	-34.3	-44.4	11.3	2.89e-01	0	56	0	800063488	43	9535
2026-01-10 21:59:02.75	120.90	10.97	-38.1	-43.7	12.1	4.07e-02	0	56	0	802160640	47	7020
2026-01-10 21:59:03.76	121.05	10.92	-35.4	-43.3	9.6	2.65e-02	0	56	0	804257792	40	10039
2026-01-10 21:59:04.77	121.21	10.87	-37.9	-44.6	10.9	2.60e-02	0	56	0	805306368	47	7727
2026-01-10 21:59:05.78	121.36	10.82	-33.9	-46.0	9.1	4.26e-02	0	56	0	807403520	47	9113
2026-01-10 21:59:06.79	121.52	10.77	-38.2	-48.1	7.1	9.60e-02	6	56	0	809500672	47	11619
2026-01-10 21:59:07.80	121.67	10.72	-37.7	-47.9	7.6	1.93e-01	1	56	0	811597824	48	10682
2026-01-10 21:59:08.81	121.83	10.67	-39.2	-48.3	7.4	1.88e-01	4	56	0	813694976	50	9982
2026-01-10 21:59:09.81	121.98	10.62	-38.2	-48.2	7.5	1.99e-01	0	56	0	814743552	48	11090
2026-01-10 21:59:10.82	122.13	10.57	-34.9	-47.7	6.8	1.69e-01	1	56	0	816840704	41	15661
2026-01-10 21:59:11.83	122.29	10.52	-36.8	-47.3	7.9	1.60e-01	0	56	0	818937856	48	10027
2026-01-10 21:59:12.84	122.44	10.47	-38.7	-47.8	7.9	1.76e-01	0	56	0	821035008	47	11248
2026-01-10 21:59:13.85	122.59	10.41	-36.2	-46.8	8.2	1.22e-01	0	56	0	823132160	44	11894
2026-01-10 21:59:14.86	122.74	10.36	-35.7	-45.6	10.2	5.23e-02	0	56	0	824180736	48	8213
2026-01-10 21:59:15.87	122.89	10.31	-30.3	-43.1	7.3	9.44e-02	20	56	0	826277888	27	20753
2026-01-10 21:59:16.88	123.04	10.26	-37.5	-43.6	12.2	2.39e-02	0	56	0	828375040	47	6935
2026-01-10 21:59:17.89	123.19	10.21	-36.6	-43.5	10.9	2.36e-02	0	56	0	830472192	43	8624
2026-01-10 21:59:18.90	123.34	10.16	-36.6	-44.3	9.3	4.63e-02	0	56	0	832569344	43	9432
2026-01-10 21:59:19.91	123.49	10.11	-37.7	-45.2	9.9	7.70e-02	0	56	0	833617920	48	7892
2026-01-10 21:59:20.92	123.64	10.05	-38.3	-45.1	10.6	9.22e-02	0	56	0	835715072	48	7742
2026-01-10 21:59:21.93	123.78	10.00	-28.7	-44.0	7.8	3.09e-02	0	56	0	837812224	39	11439
2026-01-10 21:59:22.94	123.93	9.95	-38.6	-44.3	11.5	7.48e-02	0	56	0	839909376	47	7521
2026-01-10 21:59:23.95	124.08	9.90	-38.5	-44.5	10.1	4.52e-02	0	56	0	842006528	46	8132
2026-01-10 21:59:24.96	124.22	9.85	-33.4	-44.1	9.0	6.16e-02	0	56	0	844103680	42	9733
2026-01-10 21:59:25.97	124.37	9.79	-37.2	-44.3	9.1	7.14e-02	2	56	0	845152256	44	8911
2026-01-10 21:59:26.98	124.51	9.74	-37.7	-44.7	9.5	1.10e-01	3	56	0	847249408	45	8767
2026-01-10 21:59:27.99	124.66	9.69	-35.0	-44.1	7.2	1.77e-01	22	56	0	849346560	39	11640
2026-01-10 21:59:29.00	124.80	9.64	-35.9	-44.8	8.5	2.77e-01	12	56	0	851443712	44	9464
2026-01-10 21:59:30.00	124.94	9.59	-32.1	-44.5	5.1	1.36e+00	2	56	104	851443712	38	12820
2026-01-10 21:59:31.01	125.09	9.53	-34.0	-44.1	8.4	4.38e-01	13	56	0	851443712	41	10309
2026-01-10 21:59:32.02	125.23	9.48	-26.2	-42.5	4.5	5.48e-01	12	56	0	853540864	23	24401
2026-01-10 21:59:33.03	125.37	9.43	-24.5	-41.9	5.3	6.13e-01	38	56	0	854589440	35	11327
2026-01-10 21:59:34.04	125.51	9.38	-27.1	-42.0	6.1	5.56e-01	20	56	0	856686592	29	16196
2026-01-10 21:59:35.05	125.65	9.33	-25.4	-41.7	5.5	4.85e-01	55	56	0	857735168	26	18721
2026-01-10 21:59:36.06	125.80	9.27	-31.0	-43.7	6.9	6.34e-01	91	56	0	858783744	33	15683
2026-01-10 21:59:37.08	125.94	9.22	-30.0	-42.9	5.3	5.75e-01	24	56	0	860880896	26	21352
2026-01-10 21:59:38.09	126.08	9.17	-28.8	-43.0	5.1	9.63e-01	0	56	104	861929472	28	19286
2026-01-10 21:59:39.10	126.22	9.12	-18.5	-36.8	4.2	1.33e+00	0	56	104	861929472	15	19931
2026-01-10 21:59:40.11	126.35	9.06	-27.2	-40.9	5.0	1.35e+00	0	56	104	861929472	20	23984
2026-01-10 21:59:41.12	126.49	9.01	-25.8	-41.7	4.8	1.35e+00	0	56	104	861929472	23	22232
2026-01-10 21:59:42.13	126.63	8.96	-24.7	-40.0	4.9	1.38e+00	0	56	104	861929472	22	19350
2026-01-10 21:59:43.14	126.77	8.90	-23.9	-39.3	4.1	1.39e+00	0	56	104	861929472	13	29935
2026-01-10 21:59:44.15	126.90	8.85	-23.7	-37.9	4.3	1.45e+00	0	56	104	861929472	17	20167
2026-01-10 21:59:45.16	127.04	8.80	-15.7	-33.3	3.8	1.43e+00	0	56	0	861929472	0	31478
2026-01-10 21:59:46.17	127.18	8.75	-25.7	-39.7	4.6	1.45e+00	0	56	104	861929472	19	22028
2026-01-10 21:59:47.17	127.31	8.69	-18.2	-36.2	4.1	1.43e+00	0	56	104	861929472	11	23406
2026-01-10 21:59:48.18	127.44	8.64	-24.3	-37.4	4.5	1.46e+00	0	56	104	861929472	17	19097
2026-01-10 21:59:49.19	127.58	8.59	-13.1	-34.8	3.6	1.46e+00	0	56	104	861929472	1	35400
2026-01-10 21:59:50.20	127.71	8.54	-18.5	-36.6	4.1	1.47e+00	0	56	104	861929472	8	29218
2026-01-10 21:59:51.21	127.85	8.48	-22.2	-38.0	4.1	1.49e+00	0	56	104	861929472	11	28983
2026-01-10 21:59:52.22	127.98	8.43	-22.7	-39.0	4.5	1.47e+00	0	56	104	861929472	17	23008
2026-01-10 21:59:53.23	128.11	8.38	-21.2	-38.9	4.1	1.46e+00	0	56	0	861929472	17	22532
2026-01-10 21:59:54.24	128.24	8.32	-23.0	-39.7	4.0	1.49e+00	0	56	104	861929472	15	27869
2026-01-10 21:59:55.25	128.38	8.27	-17.2	-35.6	4.1	1.50e+00	0	56	0	861929472	8	25895
2026-01-10 21:59:56.27	128.51	8.22	-21.5	-40.5	3.6	1.50e+00	0	56	104	861929472	17	27290
2026-01-10 21:59:57.28	128.64	8.16	-22.9	-41.2	3.5	1.50e+00	0	56	104	861929472	7	52606
2026-01-10 21:59:58.29	128.77	8.11	-24.1	-42.0	3.5	1.50e+00	0	56	104	861929472	18	30691
2026-01-10 21:59:59.29	128.90	8.06	-21.6	-39.0	3.9	1.50e+00	0	56	104	861929472	17	23001
2026-01-10 22:00:00.31	129.03	8.01	-22.3	-40.7	3.6	1.50e+00	0	56	0	861929472	19	24715
2026-01-10 22:00:01.32	129.16	7.95	-42.1	-57.7	3.8	1.50e+00	0	56	104	861929472	54	23433
2026-01-10 22:00:02.33	129.28	7.90	-44.6	-59.0	3.8	1.49e+00	0	56	104	861929472	59	20428
2026-01-10 22:00:03.34	129.41	7.85	-44.8	-59.4	3.8	1.49e+00	0	56	104	861929472	60	20277
2026-01-10 22:00:04.35	129.54	7.79	-45.0	-59.6	3.8	1.49e+00	0	56	104	861929472	60	20692
2026-01-10 22:00:05.36	129.67	7.74	-45.1	-59.8	3.8	1.49e+00	0	56	104	861929472	60	21022
2026-01-10 22:00:06.37	129.79	7.69	-45.2	-59.8	3.8	1.49e+00	0	56	104	861929472	60	21248
2026-01-10 22:00:07.38	129.92	7.63	-45.2	-59.9	3.8	1.49e+00	0	56	104	861929472	61	20187
2026-01-10 22:00:08.39	130.04	7.58	-45.3	-60.0	3.8	1.49e+00	0	56	104	861929472	61	20347
2026-01-10 22:00:09.40	130.17	7.53	-45.3	-59.9	3.8	1.49e+00	0	56	104	861929472	61	20212
2026-01-10 22:00:10.41	130.29	7.48	-45.2	-59.9	3.8	1.49e+00	0	56	104	861929472	61	20220
2026-01-10 22:00:11.43	130.42	7.42	-45.2	-59.9	3.8	1.49e+00	0	56	104	861929472	61	20088
2026-01-10 22:00:12.44	130.54	7.37	-45.1	-59.8	3.8	1.49e+00	0	56	104	861929472	61	20013
2026-01-10 22:00:13.45	130.67	7.32	-45.1	-59.8	3.8	1.49e+00	0	56	104	861929472	61	20018
2026-01-10 22:00:14.46	130.79	7.26	-45.0	-59.8	3.8	1.49e+00	0	56	104	861929472	61	19971
2026-01-10 22:00:15.47	130.91	7.21	-45.0	-59.8	3.8	1.49e+00	0	56	104	861929472	61	19871
2026-01-10 22:00:16.48	131.04	7.16	-45.0	-59.8	3.8	1.49e+00	0	56	104	861929472	61	19892
2026-01-10 22:00:17.49	131.16	7.10	-45.0	-59.7	3.8	1.49e+00	0	56	104	861929472	61	19838
2026-01-10 22:00:18.50	131.28	7.05	-45.0	-59.7	3.8	1.49e+00	0	56	104	861929472	61	19837
2026-01-10 22:00:19.51	131.40	7.00	-45.0	-59.7	3.8	1.49e+00	0	56	104	861929472	61	19836
2026-01-10 22:00:20.53	131.52	6.94	-45.0	-59.8	3.8	1.49e+00	0	56	104	861929472	61	19851
2026-01-10 22:00:21.54	131.64	6.89	-45.0	-59.7	3.8	1.49e+00	0	56	104	861929472	61	19827
2026-01-10 22:00:22.55	131.76	6.84	-44.9	-59.8	3.8	1.49e+00	0	56	104	861929472	61	19864
2026-01-10 22:00:23.56	131.88	6.78	-44.9	-59.8	3.8	1.49e+00	0	56	104	861929472	61	19851
2026-01-10 22:00:24.57	132.00	6.73	-45.0	-59.7	3.8	1.49e+00	0	56	104	861929472	61	19820
2026-01-10 22:00:25.58	132.12	6.68	-44.9	-59.7	3.8	1.49e+00	0	56	104	861929472	61	19787
2026-01-10 22:00:26.59	132.24	6.62	-45.0	-59.8	3.8	1.49e+00	0	56	104	861929472	61	19844
2026-01-10 22:00:27.60	132.35	6.57	-44.9	-59.7	3.8	1.49e+00	0	56	104	861929472	61	19785
2026-01-10 22:00:28.61	132.47	6.52	-44.9	-59.7	3.8	1.49e+00	0	56	104	861929472	61	19795
2026-01-10 22:00:29.62	132.59	6.47	-44.9	-59.7	3.8	1.49e+00	0	56	104	861929472	61	19814
2026-01-10 22:00:30.64	132.70	6.41	-44.9	-59.7	3.8	1.49e+00	0	56	104	861929472	60	20995
2026-01-10 22:00:31.65	132.82	6.36	-45.0	-59.7	3.8	1.49e+00	0	56	104	861929472	60	21008
2026-01-10 22:00:32.66	132.94	6.31	-44.9	-59.7	3.8	1.49e+00	0	56	104	861929472	60	20985
2026-01-10 22:00:33.67	133.05	6.25	-44.9	-59.8	3.8	1.49e+00	0	56	104	861929472	60	21033
2026-01-10 22:00:34.68	133.16	6.20	-44.9	-59.7	3.8	1.49e+00	0	56	104	861929472	60	20999
2026-01-10 22:00:35.69	133.28	6.15	-44.9	-59.7	3.8	1.49e+00	0	56	104	861929472	60	20998
2026-01-10 22:00:36.70	133.39	6.09	-44.9	-59.7	3.8	1.49e+00	0	56	104	861929472	60	20958
2026-01-10 22:00:37.71	133.51	6.04	-44.9	-59.7	3.8	1.49e+00	0	56	104	861929472	60	20943
2026-01-10 22:00:38.72	133.62	5.99	-44.9	-59.7	3.8	1.49e+00	0	56	104	861929472	60	20965
2026-01-10 22:00:39.73	133.73	5.93	-44.9	-59.7	3.8	1.49e+00	0	56	104	861929472	60	20947
2026-01-10 22:00:40.74	133.84	5.88	-44.9	-59.7	3.8	1.49e+00	0	56	104	861929472	60	20939
2026-01-10 22:00:41.75	133.96	5.83	-44.9	-59.7	3.8	1.49e+00	0	56	104	861929472	60	21001
2026-01-10 22:00:42.76	134.07	5.78	-44.9	-59.7	3.8	1.49e+00	0	56	104	861929472	60	20977
2026-01-10 22:00:43.78	134.18	5.72	-44.9	-59.7	3.8	1.49e+00	0	56	104	861929472	60	20960
2026-01-10 22:00:44.79	134.29	5.67	-44.9	-59.7	3.8	1.49e+00	0	56	104	861929472	60	20937
2026-01-10 22:00:45.80	134.40	5.62	-44.9	-59.7	3.8	1.49e+00	0	56	104	861929472	60	20963
2026-01-10 22:00:46.81	134.51	5.56	-44.9	-59.7	3.8	1.49e+00	0	56	104	861929472	60	20964
2026-01-10 22:00:47.82	134.62	5.51	-44.9	-59.7	3.8	1.49e+00	0	56	104	861929472	60	20994
2026-01-10 22:00:48.83	134.73	5.46	-44.9	-59.7	3.8	1.49e+00	0	56	104	861929472	60	20941
2026-01-10 22:00:49.84	134.84	5.41	-44.9	-59.7	3.8	1.49e+00	0	56	104	861929472	60	20973
2026-01-10 22:00:50.85	134.95	5.35	-44.9	-59.7	3.8	1.49e+00	0	56	104	861929472	60	20973
2026-01-10 22:00:51.86	135.06	5.30	-44.9	-59.7	3.8	1.49e+00	0	56	104	861929472	60	20969
2026-01-10 22:00:52.87	135.16	5.25	-44.9	-59.7	3.8	1.49e+00	0	56	104	861929472	60	20926
2026-01-10 22:00:53.89	135.27	5.19	-44.9	-59.7	3.8	1.49e+00	0	56	104	861929472	60	21005
2026-01-10 22:00:54.90	135.38	5.14	-44.9	-59.7	3.8	1.49e+00	0	56	104	861929472	60	20979
2026-01-10 22:00:55.91	135.48	5.09	-44.9	-59.7	3.8	1.49e+00	0	56	104	861929472	60	20933
2026-01-10 22:00:56.92	135.59	5.04	-44.9	-59.7	3.8	1.49e+00	0	56	104	861929472	60	20861
2026-01-10 22:00:57.93	135.70	4.98	-44.9	-59.7	3.8	1.49e+00	0	56	104	861929472	60	21001
2026-01-10 22:00:58.94	135.80	4.93	-44.9	-59.7	3.8	1.49e+00	0	56	104	861929472	60	20931
2026-01-10 22:00:59.95	135.91	4.88	-44.9	-59.7	3.8	1.49e+00	0	56	104	861929472	60	20892
2026-01-10 22:01:00.96	136.01	4.83	-44.9	-59.8	3.8	1.49e+00	0	56	104	861929472	60	21026
2026-01-10 22:01:01.97	136.12	4.77	-44.9	-59.7	3.8	1.49e+00	0	56	104	861929472	60	20946
2026-01-10 22:01:02.98	136.22	4.72	-44.9	-59.7	3.8	1.49e+00	0	56	104	861929472	60	21005
2026-01-10 22:01:03.99	136.32	4.67	-44.9	-59.7	3.8	1.49e+00	0	56	104	861929472	60	20999
2026-01-10 22:01:05.00	136.43	4.62	-44.9	-59.7	3.8	1.49e+00	0	56	104	861929472	60	20992
2026-01-10 22:01:06.01	136.53	4.56	-44.9	-59.7	3.8	1.49e+00	0	56	104	861929472	60	20918
2026-01-10 22:01:07.03	136.63	4.51	-44.9	-59.7	3.8	1.49e+00	0	56	104	861929472	60	20935
2026-01-10 22:01:08.04	136.74	4.46	-44.9	-59.8	3.8	1.49e+00	0	56	104	861929472	60	21032
2026-01-10 22:01:09.05	136.84	4.41	-44.9	-59.7	3.8	1.49e+00	0	56	104	861929472	60	20954
2026-01-10 22:01:10.06	136.94	4.35	-44.9	-59.7	3.8	1.49e+00	0	56	104	861929472	60	20913
2026-01-10 22:01:11.07	137.04	4.30	-44.9	-59.7	3.8	1.49e+00	0	56	104	861929472	60	20966
2026-01-10 22:01:12.08	137.14	4.25	-44.9	-59.7	3.8	1.49e+00	0	56	104	861929472	60	20968
2026-01-10 22:01:13.09	137.24	4.20	-44.9	-59.7	3.8	1.49e+00	0	56	104	861929472	60	20945
2026-01-10 22:01:14.10	137.34	4.15	-44.9	-59.7	3.8	1.49e+00	0	56	104	861929472	60	20979
2026-01-10 22:01:15.11	137.44	4.09	-44.9	-59.7	3.8	1.49e+00	0	56	104	861929472	60	20981
2026-01-10 22:01:16.13	137.54	4.04	-44.9	-59.7	3.8	1.49e+00	0	56	104	861929472	60	20942
2026-01-10 22:01:17.14	137.64	3.99	-44.9	-59.7	3.8	1.49e+00	0	56	104	861929472	60	20985
2026-01-10 22:01:18.14	137.74	3.94	-44.9	-59.7	3.8	1.49e+00	0	56	104	861929472	60	20979
2026-01-10 22:01:19.15	137.84	3.89	-44.9	-59.7	3.8	1.49e+00	0	56	104	861929472	60	20912
2026-01-10 22:01:20.16	137.94	3.83	-44.9	-59.7	3.8	1.49e+00	0	56	104	861929472	60	20964
2026-01-10 22:01:21.18	138.03	3.78	-44.9	-59.7	3.8	1.49e+00	0	56	104	861929472	60	20966
2026-01-10 22:01:22.19	138.13	3.73	-44.9	-59.7	3.8	1.49e+00	0	56	104	861929472	60	21012
2026-01-10 22:01:23.20	138.23	3.68	-44.9	-59.7	3.8	1.49e+00	0	56	104	861929472	60	20922
2026-01-10 22:01:24.21	138.33	3.63	-44.9	-59.7	3.8	1.49e+00	0	56	104	861929472	60	20913
2026-01-10 22:01:25.22	138.42	3.57	-44.9	-59.7	3.8	1.49e+00	0	56	104	861929472	60	20908
2026-01-10 22:01:26.23	138.52	3.52	-44.9	-59.7	3.8	1.49e+00	0	56	104	861929472	60	20978
2026-01-10 22:01:27.24	138.61	3.47	-44.9	-59.7	3.8	1.49e+00	0	56	104	861929472	60	20958
2026-01-10 22:01:28.25	138.71	3.42	-44.9	-59.7	3.8	1.49e+00	0	56	104	861929472	60	20966
2026-01-10 22:01:29.26	138.80	3.37	-44.9	-59.7	3.8	1.49e+00	0	56	104	861929472	60	20913
2026-01-10 22:01:30.27	138.90	3.32	-44.9	-59.7	3.8	1.49e+00	0	56	104	861929472	60	20922
2026-01-10 22:01:31.29	138.99	3.26	-44.9	-59.7	3.8	1.49e+00	0	56	104	861929472	60	20899
2026-01-10 22:01:32.30	139.09	3.21	-44.9	-59.7	3.8	1.49e+00	0	56	104	861929472	60	20948
2026-01-10 22:01:33.31	139.18	3.16	-44.9	-59.7	3.8	1.49e+00	0	56	104	861929472	60	20928
2026-01-10 22:01:34.32	139.28	3.11	-44.9	-59.7	3.8	1.49e+00	0	56	104	861929472	60	20961
2026-01-10 22:01:35.33	139.37	3.06	-44.9	-59.7	3.8	1.49e+00	0	56	104	861929472	60	20984
2026-01-10 22:01:36.34	139.46	3.01	-44.9	-59.7	3.8	1.49e+00	0	56	104	861929472	60	20959
2026-01-10 22:01:37.35	139.55	2.95	-44.9	-59.7	3.8	1.49e+00	0	56	104	861929472	60	20889
2026-01-10 22:01:38.36	139.65	2.90	-44.9	-59.7	3.8	1.49e+00	0	56	104	861929472	60	20947
2026-01-10 22:01:39.37	139.74	2.85	-44.9	-59.7	3.8	1.49e+00	0	56	104	861929472	60	20978
2026-01-10 22:01:40.39	139.83	2.80	-44.9	-59.7	3.8	1.49e+00	0	56	104	861929472	60	20932
2026-01-10 22:01:41.40	139.92	2.75	-44.9	-59.7	3.8	1.49e+00	0	56	104	861929472	60	20947
2026-01-10 22:01:42.41	140.01	2.70	-44.9	-59.7	3.8	1.49e+00	0	56	104	861929472	60	20924
2026-01-10 22:01:43.42	140.10	2.65	-44.9	-59.7	3.8	1.49e+00	0	56	104	861929472	60	20942
2026-01-10 22:01:44.43	140.20	2.60	-44.9	-59.7	3.8	1.49e+00	0	56	104	861929472	60	20945
2026-01-10 22:01:45.44	140.29	2.54	-44.9	-59.7	3.8	1.49e+00	0	56	104	861929472	60	20932
2026-01-10 22:01:46.45	140.38	2.49	-44.9	-59.7	3.8	1.49e+00	0	56	104	861929472	60	20903
