passes_logs/2026/01/10/R2.0S_Moscow/R2.0S_Moscow__20260110_080103_NOAA_20_JPSS-1_rec.log

#Pass ID: 20260110_080103_NOAA 20 (JPSS-1)
#Satellite: NOAA 20 (JPSS-1)
#Configuration: NOAA 20
#almurnet v.1.7.20251203
#Start time: 2026-01-10 08:01:04

#Version: 2.2.20231116
#Station: R2.0S_Moscow
#Location: 37.707566 lon 55.798166 lat
#TLE: 1 43013U 17073A   26009.26828276  .00000112  00000+0  74203-4 0  9990
#TLE: 2 43013  98.7631 310.2683 0001700  47.4387 312.6933 14.19534764421920

#Time	Az	El	Level	Level2	SNR	BER	BlckErr	Temp	State	Recorded	gain1	gain2
2026-01-10 08:01:04.23	104.49	2.04	-39.5	-54.4	3.9	1.49e+00	0	46	0	0	49	21415
2026-01-10 08:01:05.23	104.42	2.10	-37.7	-53.8	3.9	1.49e+00	0	46	104	0	47	22358
2026-01-10 08:01:06.24	104.34	2.15	-39.9	-54.4	3.8	1.49e+00	0	47	104	0	50	20213
2026-01-10 08:01:07.26	104.26	2.20	-39.4	-54.4	3.7	1.49e+00	0	46	104	0	49	21339
2026-01-10 08:01:08.26	104.19	2.26	-39.8	-54.5	3.9	1.49e+00	0	47	104	0	50	20351
2026-01-10 08:01:09.27	104.11	2.31	-39.6	-54.4	3.8	1.49e+00	0	47	104	0	49	21359
2026-01-10 08:01:10.28	104.03	2.37	-39.8	-54.6	3.8	1.49e+00	0	47	104	0	50	20698
2026-01-10 08:01:11.29	103.95	2.42	-39.9	-54.5	3.8	1.49e+00	0	47	104	0	50	20429
2026-01-10 08:01:12.30	103.88	2.48	-39.8	-54.4	3.7	1.49e+00	0	47	104	0	50	20288
2026-01-10 08:01:13.31	103.80	2.53	-39.9	-54.4	3.8	1.49e+00	0	47	104	0	50	20231
2026-01-10 08:01:14.31	103.72	2.59	-39.8	-54.5	3.8	1.49e+00	0	47	104	0	50	20377
2026-01-10 08:01:15.32	103.64	2.64	-39.9	-54.5	3.8	1.49e+00	0	47	104	0	50	20400
2026-01-10 08:01:16.33	103.56	2.70	-39.9	-54.4	3.8	1.49e+00	0	47	104	0	50	20201
2026-01-10 08:01:17.34	103.48	2.75	-39.5	-54.4	3.8	1.49e+00	0	47	104	0	50	20250
2026-01-10 08:01:18.35	103.40	2.81	-39.8	-54.5	3.8	1.49e+00	0	48	104	0	50	20366
2026-01-10 08:01:19.36	103.32	2.86	-39.9	-54.5	3.8	1.49e+00	0	47	104	0	50	20377
2026-01-10 08:01:20.37	103.24	2.92	-39.9	-54.5	3.8	1.49e+00	0	48	104	0	50	20346
2026-01-10 08:01:21.38	103.16	2.97	-39.9	-54.4	3.8	1.49e+00	0	48	104	0	50	20286
2026-01-10 08:01:22.39	103.07	3.03	-39.9	-54.4	3.8	1.49e+00	0	48	104	0	50	20287
2026-01-10 08:01:23.40	102.99	3.08	-39.8	-54.6	3.8	1.49e+00	0	48	104	0	50	20707
2026-01-10 08:01:24.41	102.91	3.14	-39.8	-54.5	3.8	1.49e+00	0	48	104	0	50	20315
2026-01-10 08:01:25.42	102.83	3.19	-39.9	-54.5	3.8	1.49e+00	0	48	104	0	50	20367
2026-01-10 08:01:26.43	102.75	3.25	-39.9	-54.5	3.8	1.49e+00	0	48	104	0	50	20383
2026-01-10 08:01:27.44	102.66	3.31	-39.6	-54.4	3.8	1.49e+00	0	48	104	0	50	20284
2026-01-10 08:01:28.45	102.58	3.36	-39.7	-54.6	3.9	1.49e+00	0	48	104	0	50	20713
2026-01-10 08:01:29.46	102.50	3.42	-39.5	-54.5	3.9	1.49e+00	0	48	104	0	50	20459
2026-01-10 08:01:30.47	102.41	3.47	-39.9	-54.5	3.8	1.49e+00	0	48	104	0	50	20332
2026-01-10 08:01:31.47	102.33	3.53	-39.9	-54.5	3.8	1.49e+00	0	48	104	0	50	20374
2026-01-10 08:01:32.49	102.24	3.58	-40.0	-54.5	3.8	1.49e+00	0	48	104	0	50	20395
2026-01-10 08:01:33.50	102.16	3.64	-40.0	-54.5	3.8	1.49e+00	0	48	104	0	50	20425
2026-01-10 08:01:34.51	102.07	3.70	-39.9	-54.5	3.8	1.49e+00	0	48	104	0	50	20412
2026-01-10 08:01:35.52	101.99	3.75	-39.6	-54.5	3.8	1.49e+00	0	49	104	0	50	20332
2026-01-10 08:01:36.52	101.90	3.81	-39.4	-54.3	3.8	1.49e+00	0	49	104	0	50	19941
2026-01-10 08:01:37.53	101.81	3.86	-39.8	-54.3	3.8	1.49e+00	0	48	104	0	50	19967
2026-01-10 08:01:38.54	101.73	3.92	-39.9	-54.5	3.8	1.49e+00	0	49	104	0	50	20409
2026-01-10 08:01:39.55	101.64	3.98	-39.9	-54.2	3.8	1.49e+00	0	49	104	0	49	20795
2026-01-10 08:01:40.56	101.55	4.03	-39.9	-54.5	3.8	1.49e+00	0	49	104	0	50	20335
2026-01-10 08:01:41.57	101.47	4.09	-40.0	-54.5	3.8	1.49e+00	0	49	104	0	50	20428
2026-01-10 08:01:42.58	101.38	4.15	-39.9	-54.5	3.8	1.49e+00	0	49	104	0	50	20319
2026-01-10 08:01:43.59	101.29	4.20	-39.9	-54.5	3.8	1.49e+00	0	49	104	0	50	20441
2026-01-10 08:01:44.60	101.20	4.26	-39.9	-54.5	3.8	1.49e+00	0	49	104	0	50	20323
2026-01-10 08:01:45.61	101.11	4.32	-40.0	-54.5	3.8	1.49e+00	0	49	104	0	50	20360
2026-01-10 08:01:46.61	101.02	4.37	-40.0	-54.5	3.8	1.49e+00	0	49	104	0	50	20392
2026-01-10 08:01:47.62	100.93	4.43	-39.9	-54.5	3.8	1.49e+00	0	49	104	0	50	20355
2026-01-10 08:01:48.64	100.84	4.49	-39.9	-54.5	3.8	1.49e+00	0	50	104	0	50	20329
2026-01-10 08:01:49.65	100.75	4.54	-39.8	-54.5	3.8	1.49e+00	0	49	104	0	50	20343
2026-01-10 08:01:50.65	100.66	4.60	-39.9	-54.5	3.8	1.49e+00	0	50	104	0	50	20334
2026-01-10 08:01:51.67	100.57	4.66	-39.7	-54.5	3.8	1.49e+00	0	49	104	0	50	20310
2026-01-10 08:01:52.67	100.48	4.71	-39.9	-54.5	3.8	1.49e+00	0	49	104	0	50	20385
2026-01-10 08:01:53.68	100.39	4.77	-39.9	-54.5	3.8	1.49e+00	0	50	104	0	50	20359
2026-01-10 08:01:54.69	100.29	4.83	-39.9	-54.5	3.8	1.49e+00	0	50	104	0	50	20388
2026-01-10 08:01:55.70	100.20	4.88	-39.9	-54.5	3.8	1.49e+00	0	50	104	0	50	20394
2026-01-10 08:01:56.70	100.11	4.94	-39.5	-53.9	3.8	1.49e+00	0	50	104	0	49	20196
2026-01-10 08:01:57.71	100.01	5.00	-38.7	-53.8	3.8	1.49e+00	0	50	104	0	49	19947
2026-01-10 08:01:58.71	99.92	5.05	-39.8	-54.5	3.8	1.49e+00	0	50	104	0	50	20325
2026-01-10 08:01:59.72	99.83	5.11	-39.4	-54.4	3.8	1.49e+00	0	50	104	0	50	20182
2026-01-10 08:02:00.73	99.73	5.17	-39.9	-55.0	3.8	1.49e+00	0	50	104	0	50	21523
2026-01-10 08:02:01.74	99.64	5.23	-39.9	-54.5	3.8	1.49e+00	0	50	104	0	50	20339
2026-01-10 08:02:02.75	99.54	5.28	-39.9	-54.5	3.8	1.49e+00	0	50	104	0	50	20410
2026-01-10 08:02:03.76	99.45	5.34	-39.9	-54.5	3.8	1.49e+00	0	50	104	0	50	20406
2026-01-10 08:02:04.77	99.35	5.40	-39.9	-54.5	3.8	1.49e+00	0	50	104	0	50	20338
2026-01-10 08:02:05.78	99.25	5.46	-39.9	-54.5	3.8	1.49e+00	0	50	104	0	50	20392
2026-01-10 08:02:06.79	99.16	5.52	-39.9	-54.4	3.8	1.49e+00	0	50	104	0	50	20300
2026-01-10 08:02:07.80	99.06	5.57	-39.9	-54.5	3.8	1.49e+00	0	51	104	0	50	20422
2026-01-10 08:02:08.81	98.96	5.63	-39.8	-54.7	3.9	1.49e+00	0	50	104	0	50	20912
2026-01-10 08:02:09.82	98.86	5.69	-39.9	-54.5	3.8	1.49e+00	0	50	104	0	50	20333
2026-01-10 08:02:10.82	98.77	5.75	-39.7	-54.4	3.8	1.49e+00	0	50	104	0	50	20251
2026-01-10 08:02:11.83	98.67	5.80	-39.8	-54.3	3.9	1.49e+00	0	51	104	0	50	19953
2026-01-10 08:02:12.84	98.57	5.86	-39.7	-54.2	3.8	1.49e+00	0	51	104	0	50	19835
2026-01-10 08:02:13.85	98.47	5.92	-39.7	-54.3	3.8	1.49e+00	0	51	104	0	50	20049
2026-01-10 08:02:14.86	98.37	5.98	-39.8	-54.4	3.8	1.49e+00	0	51	104	0	50	20240
2026-01-10 08:02:15.87	98.27	6.04	-39.6	-54.4	3.8	1.49e+00	0	50	104	0	50	20301
2026-01-10 08:02:16.88	98.17	6.09	-39.3	-54.5	3.8	1.49e+00	0	51	104	0	50	20306
2026-01-10 08:02:17.88	98.07	6.15	-39.8	-54.5	3.8	1.49e+00	0	51	104	0	50	20305
2026-01-10 08:02:18.90	97.96	6.21	-39.6	-54.5	3.8	1.49e+00	0	51	104	0	50	20346
2026-01-10 08:02:19.91	97.86	6.27	-40.0	-54.5	3.8	1.49e+00	0	51	104	0	50	20414
2026-01-10 08:02:20.92	97.76	6.33	-40.0	-54.5	3.8	1.49e+00	0	51	104	0	50	20385
2026-01-10 08:02:21.93	97.65	6.39	-39.9	-54.5	3.8	1.49e+00	0	51	104	0	50	20352
2026-01-10 08:02:22.93	97.55	6.44	-39.7	-54.4	3.8	1.49e+00	0	51	104	0	50	20240
2026-01-10 08:02:23.94	97.45	6.50	-40.0	-54.5	3.8	1.49e+00	0	51	104	0	50	20362
2026-01-10 08:02:24.95	97.34	6.56	-39.8	-54.5	3.8	1.49e+00	0	51	104	0	50	20356
2026-01-10 08:02:25.96	97.24	6.62	-39.9	-54.5	3.8	1.49e+00	0	51	104	0	50	20355
2026-01-10 08:02:26.97	97.13	6.68	-39.8	-54.4	3.8	1.49e+00	0	51	104	0	50	20268
2026-01-10 08:02:27.98	97.03	6.74	-39.8	-54.4	3.8	1.49e+00	0	51	104	0	50	20265
2026-01-10 08:02:28.99	96.92	6.80	-39.9	-54.4	3.8	1.49e+00	0	51	104	0	50	20190
2026-01-10 08:02:30.00	96.82	6.86	-40.0	-54.5	3.8	1.49e+00	0	51	104	0	50	20416
2026-01-10 08:02:31.01	96.71	6.91	-39.6	-54.5	3.8	1.49e+00	0	51	104	0	50	20334
2026-01-10 08:02:32.01	96.60	6.97	-40.0	-54.5	3.8	1.49e+00	0	51	104	0	50	20392
2026-01-10 08:02:33.02	96.49	7.03	-39.8	-54.4	3.7	1.49e+00	0	51	104	0	50	20297
2026-01-10 08:02:34.03	96.39	7.09	-39.9	-54.4	3.8	1.49e+00	0	51	104	0	50	20247
2026-01-10 08:02:35.04	96.28	7.15	-39.8	-54.5	3.8	1.49e+00	0	51	104	0	50	20341
2026-01-10 08:02:36.05	96.17	7.21	-39.6	-54.3	3.8	1.49e+00	0	52	104	0	50	19870
2026-01-10 08:02:37.05	96.06	7.27	-39.9	-54.4	3.8	1.49e+00	0	51	104	0	50	20087
2026-01-10 08:02:38.06	95.95	7.33	-39.9	-54.5	3.8	1.49e+00	0	52	104	0	50	20366
2026-01-10 08:02:39.07	95.84	7.39	-39.3	-54.4	3.8	1.49e+00	0	52	104	0	50	20080
2026-01-10 08:02:40.08	95.73	7.44	-39.8	-54.4	3.8	1.49e+00	0	52	104	0	50	20280
2026-01-10 08:02:41.08	95.62	7.50	-39.9	-54.5	3.8	1.49e+00	0	52	104	0	50	20310
2026-01-10 08:02:42.09	95.51	7.56	-39.9	-54.5	3.8	1.49e+00	0	52	104	0	50	20330
2026-01-10 08:02:43.10	95.39	7.62	-39.8	-54.4	3.8	1.49e+00	0	52	104	0	50	20300
2026-01-10 08:02:44.10	95.28	7.68	-39.9	-54.4	3.8	1.49e+00	0	52	104	0	50	20274
2026-01-10 08:02:45.11	95.17	7.74	-39.7	-54.4	3.9	1.49e+00	0	52	104	0	50	20262
2026-01-10 08:02:46.12	95.05	7.80	-39.9	-54.5	3.8	1.49e+00	0	52	104	0	50	20377
2026-01-10 08:02:47.13	94.94	7.86	-39.9	-54.5	3.8	1.49e+00	0	52	104	0	50	20363
2026-01-10 08:02:48.14	94.83	7.92	-39.8	-54.5	3.8	1.49e+00	0	52	104	0	50	20323
2026-01-10 08:02:49.15	94.71	7.98	-39.7	-54.3	3.8	1.49e+00	0	52	104	0	50	20069
2026-01-10 08:02:50.16	94.59	8.04	-40.0	-54.5	3.8	1.49e+00	0	52	104	0	50	20309
2026-01-10 08:02:51.17	94.48	8.10	-41.1	-55.7	3.8	1.49e+00	0	52	104	0	53	19796
2026-01-10 08:02:52.18	94.36	8.16	-40.0	-54.6	3.8	1.49e+00	0	52	104	0	50	20763
2026-01-10 08:02:53.18	94.25	8.21	-39.7	-54.3	3.8	1.49e+00	0	52	104	0	49	21205
2026-01-10 08:02:54.20	94.13	8.28	-40.0	-54.5	3.8	1.49e+00	0	52	104	0	50	20432
2026-01-10 08:02:55.21	94.01	8.33	-39.8	-54.5	3.8	1.49e+00	0	52	104	0	50	20329
2026-01-10 08:02:56.21	93.89	8.39	-40.0	-54.5	3.8	1.49e+00	0	52	104	0	50	20502
2026-01-10 08:02:57.22	93.77	8.45	-39.5	-54.4	3.8	1.49e+00	0	52	104	0	50	20265
2026-01-10 08:02:58.23	93.65	8.51	-40.1	-54.7	3.8	1.49e+00	0	52	104	0	51	19694
2026-01-10 08:02:59.24	93.53	8.57	-39.8	-54.4	3.8	1.49e+00	0	52	104	0	51	19040
2026-01-10 08:03:00.25	93.41	8.63	-40.2	-54.7	3.8	1.49e+00	0	52	104	0	51	19754
2026-01-10 08:03:01.26	93.29	8.69	-39.8	-54.4	3.8	1.49e+00	0	52	104	0	50	20159
2026-01-10 08:03:02.27	93.17	8.75	-40.1	-54.6	3.8	1.49e+00	0	52	104	0	50	20719
2026-01-10 08:03:03.28	93.05	8.81	-39.7	-54.5	3.8	1.49e+00	0	52	104	0	50	20341
2026-01-10 08:03:04.29	92.92	8.87	-40.2	-54.6	3.8	1.49e+00	0	52	104	0	50	20718
2026-01-10 08:03:05.30	92.80	8.93	-40.0	-54.5	3.8	1.49e+00	0	53	104	0	50	20483
2026-01-10 08:03:06.31	92.68	8.99	-40.3	-54.8	3.8	1.49e+00	0	52	104	0	52	18876
2026-01-10 08:03:07.32	92.55	9.05	-40.0	-54.4	3.8	1.49e+00	0	52	104	0	51	19160
2026-01-10 08:03:08.33	92.43	9.11	-40.0	-54.5	3.8	1.49e+00	0	52	104	0	51	19261
2026-01-10 08:03:09.34	92.30	9.17	-40.0	-54.5	3.8	1.49e+00	0	53	104	0	51	19295
2026-01-10 08:03:10.35	92.18	9.23	-40.0	-54.5	3.8	1.49e+00	0	53	104	0	51	19326
2026-01-10 08:03:11.36	92.05	9.29	-40.0	-54.6	3.8	1.49e+00	0	53	104	0	51	19530
2026-01-10 08:03:12.37	91.92	9.35	-40.0	-54.8	3.8	1.49e+00	0	53	104	0	51	19953
2026-01-10 08:03:13.38	91.80	9.41	-40.0	-54.7	3.8	1.49e+00	0	53	104	0	51	19770
2026-01-10 08:03:14.38	91.67	9.47	-40.1	-54.9	3.8	1.49e+00	0	53	104	0	52	19099
2026-01-10 08:03:15.39	91.54	9.53	-40.0	-54.5	3.8	1.49e+00	0	53	104	0	51	19304
2026-01-10 08:03:16.40	91.41	9.59	-40.0	-54.5	3.8	1.49e+00	0	53	104	0	51	19230
2026-01-10 08:03:17.41	91.28	9.65	-40.0	-54.3	3.8	1.49e+00	0	53	104	0	51	18925
2026-01-10 08:03:18.42	91.15	9.71	-40.1	-54.4	3.8	1.49e+00	0	53	104	0	51	19044
2026-01-10 08:03:19.43	91.02	9.77	-40.1	-54.5	3.8	1.49e+00	0	53	104	0	51	19377
2026-01-10 08:03:20.44	90.89	9.83	-40.3	-53.9	3.8	1.49e+00	0	53	104	0	51	18087
2026-01-10 08:03:21.45	90.76	9.89	-41.2	-54.1	3.8	1.49e+00	0	53	104	0	53	16451
2026-01-10 08:03:22.46	90.63	9.95	-40.7	-52.4	3.9	1.47e+00	0	53	104	0	53	13545
2026-01-10 08:03:23.47	90.49	10.01	-40.4	-54.2	3.8	1.49e+00	0	53	104	0	52	17631
2026-01-10 08:03:24.48	90.36	10.07	-40.8	-53.1	3.8	1.48e+00	0	53	104	0	52	15409
2026-01-10 08:03:25.49	90.23	10.13	-40.9	-54.1	3.8	1.48e+00	0	53	104	0	52	17451
2026-01-10 08:03:26.50	90.09	10.19	-40.9	-54.3	3.8	1.49e+00	0	53	104	0	52	17729
2026-01-10 08:03:27.50	89.96	10.25	-40.9	-54.7	3.8	1.49e+00	0	53	104	0	52	18673
2026-01-10 08:03:28.51	89.82	10.31	-40.9	-55.1	3.8	1.49e+00	0	53	104	0	52	19462
2026-01-10 08:03:29.52	89.69	10.37	-40.9	-55.2	3.8	1.49e+00	0	53	104	0	52	19811
2026-01-10 08:03:30.52	89.55	10.43	-40.8	-55.2	3.8	1.49e+00	0	53	104	0	52	19825
2026-01-10 08:03:31.53	89.41	10.49	-40.9	-55.4	3.8	1.49e+00	0	53	104	0	52	20156
2026-01-10 08:03:32.54	89.28	10.55	-40.7	-55.2	3.8	1.49e+00	0	53	104	0	52	19685
2026-01-10 08:03:33.54	89.14	10.61	-40.4	-55.0	3.8	1.49e+00	0	53	104	0	52	19209
2026-01-10 08:03:34.55	89.00	10.67	-40.4	-54.9	3.8	1.49e+00	0	53	104	0	52	19117
2026-01-10 08:03:35.56	88.86	10.73	-40.4	-54.9	3.8	1.49e+00	0	53	104	0	52	19071
2026-01-10 08:03:36.57	88.72	10.79	-40.4	-55.0	3.8	1.49e+00	0	53	104	0	52	19210
2026-01-10 08:03:37.58	88.58	10.85	-40.4	-54.9	3.8	1.49e+00	0	53	104	0	52	19153
2026-01-10 08:03:38.58	88.44	10.91	-40.3	-54.9	3.8	1.49e+00	0	53	104	0	52	19044
2026-01-10 08:03:39.60	88.30	10.97	-40.4	-55.0	3.8	1.49e+00	0	53	104	0	52	19272
2026-01-10 08:03:40.61	88.15	11.03	-40.4	-55.2	3.8	1.49e+00	0	53	104	0	52	19689
2026-01-10 08:03:41.62	88.01	11.09	-40.4	-55.2	3.8	1.49e+00	0	53	104	0	52	19826
2026-01-10 08:03:42.62	87.87	11.15	-40.4	-55.1	3.8	1.49e+00	0	53	104	0	52	19452
2026-01-10 08:03:43.63	87.73	11.21	-40.4	-55.1	3.8	1.49e+00	0	53	104	0	52	19559
2026-01-10 08:03:44.64	87.58	11.27	-40.4	-55.0	3.8	1.49e+00	0	53	104	0	52	19196
2026-01-10 08:03:45.65	87.43	11.33	-40.3	-54.9	3.8	1.49e+00	0	53	104	0	52	18954
2026-01-10 08:03:46.66	87.29	11.39	-40.4	-55.0	3.8	1.49e+00	0	53	104	0	52	19235
2026-01-10 08:03:47.67	87.14	11.44	-40.3	-54.9	3.8	1.49e+00	0	53	104	0	52	19094
2026-01-10 08:03:48.68	86.99	11.50	-40.3	-55.0	3.8	1.49e+00	0	53	104	0	52	19199
2026-01-10 08:03:49.69	86.85	11.56	-40.5	-55.1	3.8	1.49e+00	0	53	104	0	52	19442
2026-01-10 08:03:50.70	86.70	11.62	-40.3	-54.8	3.8	1.49e+00	0	53	104	0	52	18838
2026-01-10 08:03:51.71	86.55	11.68	-40.5	-55.0	3.8	1.49e+00	0	54	104	0	52	19344
2026-01-10 08:03:52.72	86.40	11.74	-40.3	-54.8	3.8	1.49e+00	0	54	104	0	52	18773
2026-01-10 08:03:53.73	86.25	11.80	-40.3	-54.8	3.8	1.49e+00	0	54	104	0	52	18849
2026-01-10 08:03:54.74	86.10	11.86	-40.4	-54.9	3.8	1.49e+00	0	54	104	0	52	18950
2026-01-10 08:03:55.75	85.95	11.92	-40.3	-54.8	3.8	1.49e+00	0	54	104	0	52	18944
2026-01-10 08:03:56.75	85.80	11.98	-40.3	-54.8	3.8	1.49e+00	0	53	104	0	52	18899
2026-01-10 08:03:57.76	85.64	12.04	-40.6	-55.1	3.8	1.49e+00	0	53	104	0	52	19471
2026-01-10 08:03:58.77	85.49	12.10	-40.2	-54.8	3.8	1.49e+00	0	53	104	0	52	18775
2026-01-10 08:03:59.78	85.34	12.16	-40.5	-55.1	3.8	1.49e+00	0	54	104	0	52	19394
2026-01-10 08:04:00.79	85.18	12.21	-40.2	-54.8	3.8	1.49e+00	0	54	104	0	52	18813
2026-01-10 08:04:01.80	85.03	12.27	-40.2	-54.8	3.8	1.49e+00	0	53	104	0	52	18753
2026-01-10 08:04:02.81	84.87	12.33	-40.3	-54.9	3.8	1.49e+00	0	54	104	0	52	18965
2026-01-10 08:04:03.82	84.71	12.39	-40.3	-54.7	3.8	1.49e+00	0	54	104	0	52	18706
2026-01-10 08:04:04.83	84.56	12.45	-40.3	-54.8	3.8	1.49e+00	0	54	104	0	52	18914
2026-01-10 08:04:05.83	84.40	12.51	-40.5	-54.9	3.8	1.49e+00	0	53	104	0	52	19160
2026-01-10 08:04:06.84	84.24	12.57	-40.1	-54.7	3.8	1.49e+00	0	54	104	0	52	18540
2026-01-10 08:04:07.85	84.08	12.62	-40.4	-54.9	3.8	1.49e+00	0	54	104	0	52	19132
2026-01-10 08:04:08.86	83.92	12.68	-40.2	-54.7	3.8	1.49e+00	0	54	104	0	52	18551
2026-01-10 08:04:09.87	83.76	12.74	-40.4	-54.8	3.8	1.49e+00	0	54	104	0	52	18893
2026-01-10 08:04:10.88	83.60	12.80	-40.3	-54.8	3.8	1.49e+00	0	54	104	0	52	18747
2026-01-10 08:04:11.89	83.44	12.86	-40.4	-54.8	3.8	1.49e+00	0	54	104	0	52	18880
2026-01-10 08:04:12.90	83.28	12.91	-40.3	-54.7	3.8	1.49e+00	0	54	104	0	52	18682
2026-01-10 08:04:13.91	83.12	12.97	-40.7	-55.1	3.8	1.49e+00	0	54	104	0	52	19526
2026-01-10 08:04:14.92	82.95	13.03	-40.3	-54.7	3.8	1.49e+00	0	54	104	0	52	18659
2026-01-10 08:04:15.93	82.79	13.09	-40.8	-55.0	3.8	1.49e+00	0	54	104	0	52	19260
2026-01-10 08:04:16.94	82.62	13.15	-40.2	-54.7	3.8	1.49e+00	0	54	104	0	52	18633
2026-01-10 08:04:17.95	82.46	13.20	-40.5	-54.9	3.8	1.49e+00	0	54	104	0	52	19040
2026-01-10 08:04:18.96	82.29	13.26	-40.3	-54.8	3.8	1.49e+00	0	54	104	0	52	18780
2026-01-10 08:04:19.97	82.12	13.32	-40.5	-54.5	3.8	1.49e+00	0	54	104	0	52	18145
2026-01-10 08:04:20.98	81.96	13.38	-40.4	-54.8	3.8	1.49e+00	0	54	104	0	52	18751
2026-01-10 08:04:21.98	81.79	13.43	-41.1	-55.4	3.8	1.49e+00	0	54	104	0	52	20112
2026-01-10 08:04:22.99	81.62	13.49	-40.3	-54.8	3.8	1.49e+00	0	54	104	0	52	18801
2026-01-10 08:04:24.00	81.45	13.55	-41.1	-55.4	3.8	1.49e+00	0	54	104	0	52	20108
2026-01-10 08:04:25.01	81.28	13.60	-40.3	-54.8	3.8	1.49e+00	0	54	104	0	52	18761
2026-01-10 08:04:26.02	81.11	13.66	-40.5	-54.5	3.8	1.49e+00	0	54	104	0	52	18190
2026-01-10 08:04:27.03	80.94	13.72	-40.4	-54.8	3.8	1.49e+00	0	54	104	0	52	18812
2026-01-10 08:04:28.03	80.77	13.77	-40.4	-54.8	3.8	1.49e+00	0	54	104	0	52	18748
2026-01-10 08:04:29.04	80.60	13.83	-40.4	-54.1	3.8	1.49e+00	0	54	104	0	52	17414
2026-01-10 08:04:30.05	80.42	13.88	-40.4	-52.9	3.8	1.49e+00	0	54	104	0	52	15099
2026-01-10 08:04:31.06	80.25	13.94	-40.4	-52.3	4.0	1.48e+00	0	54	104	0	52	14204
2026-01-10 08:04:32.07	80.08	14.00	-40.4	-52.6	3.9	1.47e+00	0	54	104	0	52	14606
2026-01-10 08:04:33.08	79.90	14.05	-40.4	-51.5	4.2	1.47e+00	0	54	0	0	52	12959
2026-01-10 08:04:34.09	79.72	14.11	-40.4	-51.3	4.3	1.34e+00	24	54	0	0	52	12620
2026-01-10 08:04:35.10	79.55	14.16	-40.4	-51.3	4.3	1.36e+00	49	54	0	0	52	12529
2026-01-10 08:04:36.10	79.37	14.22	-40.4	-50.7	4.6	1.07e+00	0	54	0	2097152	52	11688
2026-01-10 08:04:37.11	79.19	14.27	-40.5	-50.6	4.2	8.98e-01	0	54	104	3145728	53	10925
2026-01-10 08:04:38.12	79.02	14.33	-40.3	-49.9	5.0	7.38e-01	0	54	0	4194304	52	10707
2026-01-10 08:04:39.13	78.84	14.38	-40.3	-49.7	5.0	7.17e-01	0	54	0	5242880	52	10530
2026-01-10 08:04:40.13	78.66	14.44	-40.3	-49.4	5.2	6.77e-01	0	54	0	7340032	52	10158
2026-01-10 08:04:41.15	78.48	14.49	-40.1	-48.0	6.3	3.45e-01	0	54	0	9437184	52	8595
2026-01-10 08:04:42.16	78.29	14.55	-40.0	-46.6	7.7	1.35e-01	0	54	0	11534336	51	7771
2026-01-10 08:04:43.17	78.11	14.60	-40.0	-46.2	8.3	6.76e-02	0	54	0	13631488	51	7426
2026-01-10 08:04:44.17	77.93	14.65	-40.1	-46.7	7.8	7.53e-02	0	54	0	14680064	51	7854
2026-01-10 08:04:45.18	77.75	14.71	-40.1	-46.4	8.2	7.89e-02	0	54	0	16777216	51	7566
2026-01-10 08:04:46.19	77.56	14.76	-40.2	-46.7	8.0	5.51e-02	0	54	0	18874368	51	7853
2026-01-10 08:04:47.20	77.38	14.82	-40.2	-46.7	7.9	8.13e-02	0	54	0	20971520	51	7881
2026-01-10 08:04:48.21	77.19	14.87	-40.5	-47.7	7.0	1.08e-01	0	54	0	23068672	51	8814
2026-01-10 08:04:49.22	77.01	14.92	-40.6	-48.2	6.5	1.89e-01	0	54	0	24117248	51	9297
2026-01-10 08:04:50.22	76.82	14.97	-40.7	-48.8	6.0	2.89e-01	0	54	0	26214400	51	9962
2026-01-10 08:04:51.23	76.64	15.03	-40.7	-48.7	6.0	3.43e-01	0	54	0	28311552	51	9931
2026-01-10 08:04:52.24	76.45	15.08	-40.6	-48.5	6.1	3.06e-01	0	54	0	30408704	51	9659
2026-01-10 08:04:53.25	76.26	15.13	-40.5	-48.3	6.3	2.95e-01	0	55	0	32505856	51	9389
2026-01-10 08:04:54.25	76.07	15.18	-40.4	-48.0	6.5	2.43e-01	0	54	0	34603008	51	9143
2026-01-10 08:04:55.26	75.88	15.24	-40.4	-48.1	6.3	2.45e-01	0	54	0	35651584	51	9259
2026-01-10 08:04:56.27	75.69	15.29	-40.4	-48.0	6.4	2.50e-01	0	54	0	37748736	51	9116
2026-01-10 08:04:57.27	75.50	15.34	-40.3	-47.9	6.5	2.33e-01	0	54	0	39845888	51	9020
2026-01-10 08:04:58.28	75.31	15.39	-40.4	-48.1	6.4	2.45e-01	0	54	0	41943040	51	9199
2026-01-10 08:04:59.28	75.12	15.44	-40.4	-48.1	6.4	2.47e-01	0	55	0	44040192	51	9195
2026-01-10 08:05:00.29	74.93	15.49	-40.4	-48.3	6.1	2.75e-01	0	55	0	45088768	51	9448
2026-01-10 08:05:01.30	74.73	15.54	-40.4	-48.4	6.1	3.21e-01	0	54	0	47185920	51	9551
2026-01-10 08:05:02.30	74.54	15.59	-40.4	-48.4	6.1	3.03e-01	0	54	0	49283072	51	9564
2026-01-10 08:05:03.31	74.34	15.64	-40.5	-48.6	6.0	3.26e-01	0	55	0	51380224	51	9789
2026-01-10 08:05:04.32	74.15	15.69	-40.6	-48.8	5.9	3.61e-01	0	54	0	52428800	51	9991
2026-01-10 08:05:05.32	73.95	15.74	-40.6	-48.9	5.8	3.73e-01	0	54	0	54525952	51	10131
2026-01-10 08:05:06.33	73.76	15.79	-40.6	-48.7	6.0	3.47e-01	0	55	0	56623104	51	9834
2026-01-10 08:05:07.33	73.56	15.84	-40.6	-48.5	6.1	3.05e-01	0	54	0	58720256	51	9713
2026-01-10 08:05:08.34	73.36	15.89	-40.6	-48.2	6.4	2.55e-01	0	54	0	60817408	51	9380
2026-01-10 08:05:09.35	73.16	15.94	-40.6	-48.3	6.4	2.40e-01	0	55	0	62914560	51	9418
2026-01-10 08:05:10.35	72.96	15.99	-40.6	-48.1	6.5	2.36e-01	0	54	0	63963136	51	9261
2026-01-10 08:05:11.36	72.76	16.03	-40.6	-48.1	6.5	2.21e-01	0	55	0	66060288	51	9263
2026-01-10 08:05:12.37	72.56	16.08	-40.6	-48.1	6.5	2.27e-01	0	55	0	68157440	51	9250
2026-01-10 08:05:13.37	72.36	16.13	-40.6	-48.2	6.5	2.20e-01	0	55	0	70254592	51	9281
2026-01-10 08:05:14.38	72.16	16.18	-40.6	-48.1	6.6	2.14e-01	0	55	0	71303168	51	9180
2026-01-10 08:05:15.39	71.96	16.22	-40.6	-48.2	6.4	2.27e-01	0	55	0	73400320	51	9368
2026-01-10 08:05:16.40	71.75	16.27	-40.6	-48.5	6.2	2.60e-01	0	55	0	75497472	51	9660
2026-01-10 08:05:17.41	71.55	16.32	-40.7	-48.6	6.1	3.00e-01	0	55	0	77594624	51	9757
2026-01-10 08:05:18.42	71.34	16.36	-40.6	-48.3	6.3	2.81e-01	0	55	0	79691776	51	9490
2026-01-10 08:05:19.43	71.14	16.41	-40.6	-48.2	6.5	2.39e-01	0	55	0	80740352	51	9303
2026-01-10 08:05:20.43	70.93	16.46	-40.6	-48.3	6.5	2.30e-01	0	55	0	82837504	51	9401
2026-01-10 08:05:21.44	70.73	16.50	-40.6	-47.7	7.0	1.84e-01	0	55	0	84934656	51	8808
2026-01-10 08:05:22.45	70.52	16.55	-40.6	-47.2	7.6	1.19e-01	0	55	0	87031808	51	8341
2026-01-10 08:05:23.45	70.31	16.59	-40.5	-46.8	8.0	8.86e-02	0	55	0	89128960	51	7985
2026-01-10 08:05:24.46	70.10	16.64	-40.4	-46.1	8.9	3.72e-02	0	55	0	91226112	51	7363
2026-01-10 08:05:25.47	69.89	16.68	-40.4	-45.7	9.5	1.90e-02	0	55	0	92274688	51	7024
2026-01-10 08:05:26.48	69.68	16.72	-40.3	-45.4	9.9	1.25e-02	0	55	0	94371840	51	6780
2026-01-10 08:05:27.48	69.48	16.77	-40.4	-45.2	10.4	5.21e-03	0	55	0	96468992	51	6582
2026-01-10 08:05:28.49	69.27	16.81	-40.3	-44.9	10.8	3.33e-03	0	55	0	98566144	51	6395
2026-01-10 08:05:29.50	69.05	16.85	-40.3	-44.7	11.2	1.84e-03	0	55	0	100663296	51	6205
2026-01-10 08:05:30.50	68.84	16.90	-40.3	-44.5	11.4	9.84e-04	0	55	0	101711872	51	6130
2026-01-10 08:05:31.51	68.63	16.94	-40.3	-44.4	11.7	6.61e-04	0	55	0	103809024	51	6044
2026-01-10 08:05:32.52	68.42	16.98	-40.3	-44.2	12.1	4.85e-04	0	55	0	105906176	51	5870
2026-01-10 08:05:33.53	68.20	17.02	-40.2	-43.9	12.5	2.08e-04	0	55	0	108003328	51	5693
2026-01-10 08:05:34.53	67.99	17.06	-40.2	-43.7	12.9	6.71e-05	0	55	0	110100480	51	5551
2026-01-10 08:05:35.54	67.77	17.10	-40.3	-43.8	12.9	3.81e-05	0	54	0	111149056	51	5596
2026-01-10 08:05:36.55	67.56	17.14	-40.3	-43.7	13.1	4.04e-05	0	55	0	113246208	51	5563
2026-01-10 08:05:37.56	67.34	17.18	-40.2	-43.5	13.4	1.52e-05	0	55	0	115343360	51	5456
2026-01-10 08:05:38.56	67.13	17.22	-40.1	-43.3	13.7	6.80e-06	0	55	0	117440512	51	5282
2026-01-10 08:05:39.57	66.91	17.26	-40.1	-43.3	13.8	5.30e-06	0	55	0	119537664	51	5302
2026-01-10 08:05:40.57	66.69	17.30	-40.1	-43.2	14.0	2.20e-06	0	55	0	120586240	51	5239
2026-01-10 08:05:41.58	66.47	17.34	-40.2	-43.3	14.0	0.00e+00	0	55	0	122683392	51	5287
2026-01-10 08:05:42.58	66.26	17.38	-40.1	-43.1	14.1	2.20e-06	0	55	0	124780544	51	5206
2026-01-10 08:05:43.59	66.04	17.42	-40.0	-43.0	14.3	1.50e-06	0	55	0	126877696	51	5111
2026-01-10 08:05:44.59	65.82	17.46	-40.0	-42.8	14.5	3.00e-06	0	55	0	128974848	51	5033
2026-01-10 08:05:45.60	65.60	17.49	-40.1	-43.0	14.4	0.00e+00	0	55	0	130023424	51	5124
2026-01-10 08:05:46.61	65.38	17.53	-40.2	-43.2	14.3	7.00e-07	0	55	0	132120576	51	5224
2026-01-10 08:05:47.61	65.16	17.57	-40.3	-43.3	14.2	1.50e-06	0	55	0	134217728	51	5293
2026-01-10 08:05:48.62	64.93	17.60	-40.2	-43.2	14.3	2.20e-06	0	55	0	136314880	51	5246
2026-01-10 08:05:49.63	64.71	17.64	-40.2	-43.2	14.3	0.00e+00	0	55	0	138412032	51	5226
2026-01-10 08:05:50.63	64.49	17.67	-40.3	-43.2	14.3	7.00e-07	0	55	0	139460608	51	5271
2026-01-10 08:05:51.64	64.26	17.71	-40.3	-43.2	14.4	2.20e-06	0	55	0	141557760	51	5247
2026-01-10 08:05:52.65	64.04	17.74	-40.3	-43.3	14.3	7.00e-07	0	55	0	143654912	51	5313
2026-01-10 08:05:53.65	63.82	17.78	-40.3	-43.1	14.5	7.00e-07	0	55	0	145752064	51	5200
2026-01-10 08:05:54.66	63.59	17.81	-40.1	-42.9	14.7	0.00e+00	0	55	0	147849216	51	5072
2026-01-10 08:05:55.67	63.36	17.84	-40.1	-42.9	14.8	7.00e-07	0	55	0	148897792	51	5068
2026-01-10 08:05:56.67	63.14	17.88	-40.2	-43.0	14.6	1.50e-06	0	55	0	150994944	51	5144
2026-01-10 08:05:57.68	62.91	17.91	-40.2	-43.0	14.7	0.00e+00	0	55	0	153092096	51	5108
2026-01-10 08:05:58.69	62.68	17.94	-40.2	-43.0	14.6	0.00e+00	0	55	0	155189248	51	5157
2026-01-10 08:05:59.69	62.46	17.97	-40.2	-43.0	14.7	0.00e+00	0	55	0	157286400	51	5140
2026-01-10 08:06:00.70	62.23	18.01	-40.3	-43.1	14.6	7.00e-07	0	55	0	158334976	51	5204
2026-01-10 08:06:01.71	62.00	18.04	-40.3	-43.1	14.5	1.50e-06	0	55	0	160432128	51	5218
2026-01-10 08:06:02.72	61.77	18.07	-40.4	-43.2	14.4	7.00e-07	0	55	0	162529280	51	5279
2026-01-10 08:06:03.72	61.54	18.10	-40.4	-43.3	14.4	0.00e+00	0	55	0	164626432	51	5305
2026-01-10 08:06:04.73	61.31	18.13	-40.4	-43.3	14.5	7.00e-07	0	55	0	166723584	51	5291
2026-01-10 08:06:05.74	61.08	18.16	-40.5	-43.4	14.3	0.00e+00	0	55	0	167772160	51	5357
2026-01-10 08:06:06.75	60.85	18.18	-40.5	-43.5	14.2	7.00e-07	0	55	0	169869312	51	5423
2026-01-10 08:06:07.76	60.62	18.21	-40.6	-43.7	14.1	3.80e-06	0	55	0	171966464	51	5557
2026-01-10 08:06:08.77	60.38	18.24	-40.7	-43.8	13.9	4.50e-06	0	55	0	174063616	52	5296
2026-01-10 08:06:09.77	60.15	18.27	-40.7	-43.9	13.8	3.00e-06	0	55	0	176160768	52	5355
2026-01-10 08:06:10.78	59.92	18.29	-40.7	-43.9	13.8	4.50e-06	0	55	0	177209344	52	5350
2026-01-10 08:06:11.79	59.69	18.32	-40.7	-43.9	13.8	4.50e-06	0	55	0	179306496	52	5369
2026-01-10 08:06:12.80	59.45	18.35	-40.8	-43.9	13.8	4.50e-06	0	55	0	181403648	52	5388
2026-01-10 08:06:13.81	59.22	18.37	-40.7	-43.8	13.9	5.30e-06	0	55	0	183500800	52	5334
2026-01-10 08:06:14.81	58.99	18.40	-40.7	-43.8	13.9	1.50e-06	0	55	0	185597952	52	5299
2026-01-10 08:06:15.82	58.75	18.42	-40.6	-43.6	14.1	7.00e-07	0	55	0	186646528	52	5216
2026-01-10 08:06:16.83	58.52	18.45	-40.6	-43.6	14.1	7.00e-07	0	55	0	188743680	52	5206
2026-01-10 08:06:17.83	58.28	18.47	-40.6	-43.7	14.1	1.50e-06	0	55	0	190840832	52	5234
2026-01-10 08:06:18.84	58.05	18.49	-40.6	-43.7	14.0	2.20e-06	0	55	0	192937984	52	5254
2026-01-10 08:06:19.85	57.81	18.52	-40.6	-43.7	14.1	2.20e-06	0	55	0	195035136	52	5231
2026-01-10 08:06:20.86	57.57	18.54	-40.6	-43.7	14.0	3.00e-06	0	55	0	196083712	52	5222
2026-01-10 08:06:21.86	57.34	18.56	-40.7	-43.7	14.0	3.00e-06	0	55	0	198180864	52	5268
2026-01-10 08:06:22.87	57.10	18.58	-40.8	-43.9	13.8	3.00e-06	0	55	0	200278016	52	5396
2026-01-10 08:06:23.88	56.86	18.60	-40.8	-44.0	13.7	5.30e-06	0	55	0	202375168	52	5447
2026-01-10 08:06:24.88	56.63	18.62	-40.9	-44.1	13.7	6.80e-06	0	55	0	204472320	52	5486
2026-01-10 08:06:25.89	56.39	18.64	-40.9	-44.1	13.6	3.80e-06	0	55	0	205520896	52	5509
2026-01-10 08:06:26.90	56.15	18.66	-41.0	-44.2	13.5	9.90e-06	0	55	0	207618048	52	5584
2026-01-10 08:06:27.91	55.91	18.68	-41.1	-44.4	13.3	1.67e-05	0	55	0	209715200	52	5714
2026-01-10 08:06:28.92	55.67	18.70	-41.1	-44.6	13.2	3.12e-05	0	55	0	211812352	52	5808
2026-01-10 08:06:29.93	55.43	18.71	-41.1	-44.6	13.1	2.97e-05	0	55	0	213909504	52	5791
2026-01-10 08:06:30.93	55.19	18.73	-41.1	-44.5	13.3	2.36e-05	0	55	0	214958080	52	5728
2026-01-10 08:06:31.94	54.95	18.75	-41.0	-44.3	13.4	1.75e-05	0	55	0	217055232	52	5645
2026-01-10 08:06:32.95	54.71	18.76	-41.0	-44.3	13.5	7.60e-06	0	55	0	219152384	52	5610
2026-01-10 08:06:33.95	54.47	18.78	-41.0	-44.4	13.4	1.29e-05	0	55	0	221249536	52	5673
2026-01-10 08:06:34.96	54.23	18.80	-41.0	-44.4	13.4	2.21e-05	0	55	0	223346688	52	5667
2026-01-10 08:06:35.97	53.99	18.81	-41.0	-44.3	13.5	7.60e-06	0	55	0	224395264	52	5632
2026-01-10 08:06:36.97	53.75	18.82	-41.0	-44.3	13.5	8.30e-06	0	55	0	226492416	52	5612
2026-01-10 08:06:37.98	53.51	18.84	-41.0	-44.3	13.5	8.30e-06	0	55	0	228589568	52	5611
2026-01-10 08:06:38.99	53.27	18.85	-41.0	-44.3	13.4	3.00e-06	0	55	0	230686720	52	5642
2026-01-10 08:06:40.00	53.03	18.86	-41.1	-44.5	13.3	1.52e-05	0	55	0	232783872	52	5731
2026-01-10 08:06:41.01	52.78	18.88	-41.1	-44.5	13.2	1.67e-05	0	55	0	233832448	52	5768
2026-01-10 08:06:42.01	52.54	18.89	-41.1	-44.5	13.3	2.05e-05	0	55	0	235929600	52	5749
2026-01-10 08:06:43.02	52.30	18.90	-41.0	-44.3	13.4	1.60e-05	0	55	0	238026752	52	5656
2026-01-10 08:06:44.03	52.06	18.91	-41.0	-44.3	13.5	1.14e-05	0	55	0	240123904	52	5601
2026-01-10 08:06:45.04	51.81	18.92	-41.0	-44.3	13.5	6.10e-06	0	55	0	242221056	52	5626
2026-01-10 08:06:46.05	51.57	18.93	-41.0	-44.3	13.5	1.14e-05	0	55	0	243269632	52	5617
2026-01-10 08:06:47.06	51.33	18.94	-41.0	-44.3	13.5	9.10e-06	0	55	0	245366784	52	5625
2026-01-10 08:06:48.07	51.08	18.95	-41.0	-44.2	13.6	6.10e-06	0	55	0	247463936	52	5557
2026-01-10 08:06:49.07	50.84	18.95	-40.9	-44.1	13.7	9.90e-06	0	55	0	249561088	52	5526
2026-01-10 08:06:50.08	50.60	18.96	-40.9	-44.1	13.7	6.80e-06	0	55	0	251658240	52	5500
2026-01-10 08:06:51.09	50.36	18.97	-40.9	-44.1	13.7	8.30e-06	0	55	0	252706816	52	5476
2026-01-10 08:06:52.10	50.11	18.97	-40.9	-44.1	13.7	3.00e-06	0	55	0	254803968	52	5486
2026-01-10 08:06:53.11	49.87	18.98	-41.0	-44.3	13.6	1.37e-05	0	55	0	256901120	52	5597
2026-01-10 08:06:54.11	49.63	18.98	-41.0	-44.3	13.5	9.90e-06	0	55	0	258998272	52	5638
2026-01-10 08:06:55.12	49.38	18.99	-41.1	-44.4	13.4	1.22e-05	0	55	0	261095424	52	5671
2026-01-10 08:06:56.12	49.14	18.99	-41.1	-44.4	13.4	1.60e-05	0	55	0	262144000	52	5690
2026-01-10 08:06:57.13	48.90	19.00	-41.1	-44.4	13.4	1.37e-05	0	55	0	264241152	52	5686
2026-01-10 08:06:58.13	48.65	19.00	-41.0	-44.3	13.5	1.06e-05	0	55	0	266338304	52	5625
2026-01-10 08:06:59.14	48.41	19.00	-41.0	-44.2	13.6	7.60e-06	0	55	0	268435456	52	5583
2026-01-10 08:07:00.14	48.17	19.00	-40.9	-44.1	13.8	6.80e-06	0	55	0	270532608	52	5478
2026-01-10 08:07:01.15	47.92	19.01	-40.8	-43.9	13.9	4.50e-06	0	55	0	271581184	52	5373
2026-01-10 08:07:02.16	47.68	19.01	-40.7	-43.8	14.0	1.50e-06	0	55	0	273678336	52	5290
2026-01-10 08:07:03.16	47.44	19.01	-40.6	-43.6	14.3	1.50e-06	0	55	0	275775488	52	5173
2026-01-10 08:07:04.17	47.19	19.01	-40.6	-43.6	14.3	0.00e+00	0	55	0	277872640	52	5167
2026-01-10 08:07:05.18	46.95	19.01	-40.6	-43.6	14.3	7.00e-07	0	55	0	279969792	52	5164
2026-01-10 08:07:06.18	46.71	19.00	-40.7	-43.7	14.1	7.00e-07	0	55	0	281018368	52	5247
2026-01-10 08:07:07.19	46.46	19.00	-40.7	-43.7	14.2	1.50e-06	0	55	0	283115520	52	5244
2026-01-10 08:07:08.19	46.22	19.00	-40.7	-43.7	14.1	2.20e-06	0	55	0	285212672	52	5259
2026-01-10 08:07:09.20	45.98	19.00	-40.7	-43.7	14.2	7.00e-07	0	55	0	287309824	52	5232
2026-01-10 08:07:10.21	45.73	18.99	-40.6	-43.6	14.3	0.00e+00	0	55	0	289406976	52	5166
2026-01-10 08:07:11.22	45.49	18.99	-40.6	-43.5	14.4	0.00e+00	0	55	0	290455552	52	5137
2026-01-10 08:07:12.23	45.24	18.98	-40.5	-43.4	14.4	7.00e-07	0	55	0	292552704	52	5077
2026-01-10 08:07:13.24	45.00	18.98	-40.5	-43.4	14.4	0.00e+00	0	55	0	294649856	52	5099
2026-01-10 08:07:14.25	44.76	18.97	-40.4	-43.3	14.6	7.00e-07	0	55	0	296747008	52	5003
2026-01-10 08:07:15.25	44.51	18.97	-40.4	-43.2	14.7	0.00e+00	0	55	0	298844160	52	4934
2026-01-10 08:07:16.26	44.27	18.96	-40.3	-43.0	14.9	7.00e-07	0	55	0	299892736	52	4837
2026-01-10 08:07:17.27	44.03	18.95	-40.3	-43.1	14.8	0.00e+00	0	55	0	301989888	52	4872
2026-01-10 08:07:18.28	43.78	18.95	-40.3	-43.0	14.9	0.00e+00	0	55	0	304087040	52	4850
2026-01-10 08:07:19.28	43.54	18.94	-40.3	-43.1	14.8	0.00e+00	0	55	0	306184192	52	4883
2026-01-10 08:07:20.29	43.30	18.93	-40.3	-43.1	14.8	7.00e-07	0	55	0	308281344	52	4872
2026-01-10 08:07:21.29	43.06	18.92	-40.4	-43.1	14.8	0.00e+00	0	55	0	309329920	52	4918
2026-01-10 08:07:22.30	42.82	18.91	-40.3	-43.0	14.9	0.00e+00	0	55	0	311427072	52	4836
2026-01-10 08:07:23.31	42.57	18.90	-40.2	-42.9	15.0	0.00e+00	0	55	0	313524224	52	4767
2026-01-10 08:07:24.30	42.34	18.89	-40.1	-42.8	15.1	0.00e+00	0	55	0	315621376	52	4736
2026-01-10 08:07:25.31	42.09	18.88	-40.1	-42.8	15.1	0.00e+00	0	55	0	317718528	52	4738
2026-01-10 08:07:26.31	41.85	18.87	-40.2	-42.8	15.0	0.00e+00	0	55	0	318767104	52	4759
2026-01-10 08:07:27.32	41.61	18.85	-40.2	-42.8	15.0	0.00e+00	0	55	0	320864256	52	4747
2026-01-10 08:07:28.32	41.37	18.84	-40.2	-42.9	15.0	0.00e+00	0	55	0	322961408	52	4770
2026-01-10 08:07:29.33	41.13	18.83	-40.2	-42.9	15.0	0.00e+00	0	55	0	325058560	52	4763
2026-01-10 08:07:30.34	40.89	18.81	-40.2	-42.8	15.0	0.00e+00	0	55	0	327155712	52	4747
2026-01-10 08:07:31.34	40.65	18.80	-40.1	-42.7	15.2	0.00e+00	0	55	0	328204288	52	4684
2026-01-10 08:07:32.35	40.41	18.78	-40.0	-42.7	15.2	0.00e+00	0	55	0	330301440	52	4659
2026-01-10 08:07:33.36	40.17	18.77	-40.0	-42.6	15.3	0.00e+00	0	55	0	332398592	52	4609
2026-01-10 08:07:34.36	39.93	18.75	-40.1	-42.6	15.3	0.00e+00	0	55	0	334495744	51	4911
2026-01-10 08:07:35.37	39.69	18.74	-40.1	-42.7	15.3	0.00e+00	0	55	0	336592896	51	4929
2026-01-10 08:07:36.37	39.45	18.72	-40.1	-42.8	15.2	0.00e+00	0	55	0	337641472	51	4993
2026-01-10 08:07:37.38	39.21	18.70	-40.1	-42.7	15.2	0.00e+00	0	55	0	339738624	51	4970
2026-01-10 08:07:38.39	38.98	18.68	-40.2	-42.8	15.2	0.00e+00	0	56	0	341835776	51	5009
2026-01-10 08:07:39.39	38.74	18.66	-40.2	-42.9	15.1	0.00e+00	0	55	0	343932928	51	5042
2026-01-10 08:07:40.40	38.50	18.65	-40.2	-42.8	15.1	0.00e+00	0	55	0	346030080	51	5040
2026-01-10 08:07:41.40	38.26	18.63	-40.2	-42.9	15.1	7.00e-07	0	55	0	347078656	51	5060
2026-01-10 08:07:42.41	38.03	18.61	-40.3	-43.0	15.0	7.00e-07	0	55	0	349175808	51	5112
2026-01-10 08:07:43.42	37.79	18.58	-40.2	-42.9	15.0	0.00e+00	0	55	0	351272960	51	5096
2026-01-10 08:07:44.43	37.55	18.56	-40.3	-43.0	15.0	0.00e+00	0	56	0	353370112	51	5123
2026-01-10 08:07:45.44	37.31	18.54	-40.3	-43.1	14.9	7.00e-07	0	56	0	355467264	51	5170
2026-01-10 08:07:46.45	37.08	18.52	-40.3	-43.1	14.9	0.00e+00	0	56	0	356515840	51	5169
2026-01-10 08:07:47.46	36.84	18.50	-40.4	-43.1	14.8	0.00e+00	0	56	0	358612992	51	5206
2026-01-10 08:07:48.47	36.61	18.47	-40.4	-43.2	14.8	0.00e+00	0	55	0	360710144	51	5234
2026-01-10 08:07:49.48	36.37	18.45	-40.4	-43.1	14.9	0.00e+00	0	55	0	362807296	51	5190
2026-01-10 08:07:50.48	36.14	18.43	-40.4	-43.1	14.8	0.00e+00	0	56	0	364904448	51	5198
2026-01-10 08:07:51.49	35.90	18.40	-40.3	-43.1	14.9	0.00e+00	0	56	0	365953024	51	5189
2026-01-10 08:07:52.50	35.67	18.38	-40.4	-43.1	14.8	1.50e-06	0	56	0	368050176	51	5205
2026-01-10 08:07:53.51	35.43	18.35	-40.4	-43.1	14.9	7.00e-07	0	55	0	370147328	51	5185
2026-01-10 08:07:54.52	35.20	18.33	-40.5	-43.3	14.7	0.00e+00	0	55	0	372244480	51	5311
2026-01-10 08:07:55.53	34.97	18.30	-40.6	-43.4	14.5	0.00e+00	0	55	0	374341632	51	5397
2026-01-10 08:07:56.53	34.74	18.27	-40.7	-43.6	14.3	0.00e+00	0	56	0	376438784	51	5516
2026-01-10 08:07:57.54	34.50	18.25	-40.7	-43.6	14.3	7.00e-07	0	55	0	377487360	51	5509
2026-01-10 08:07:58.55	34.27	18.22	-40.7	-43.6	14.3	1.50e-06	0	55	0	379584512	51	5511
2026-01-10 08:07:59.55	34.04	18.19	-40.7	-43.6	14.4	7.00e-07	0	55	0	381681664	51	5501
2026-01-10 08:08:00.56	33.81	18.16	-40.6	-43.5	14.5	7.00e-07	0	56	0	383778816	51	5406
2026-01-10 08:08:01.57	33.58	18.13	-40.6	-43.4	14.5	7.00e-07	0	56	0	384827392	51	5401
2026-01-10 08:08:02.57	33.35	18.10	-40.6	-43.5	14.5	0.00e+00	0	56	0	386924544	51	5407
2026-01-10 08:08:03.58	33.12	18.07	-40.7	-43.7	14.3	0.00e+00	0	55	0	389021696	51	5553
2026-01-10 08:08:04.58	32.90	18.04	-40.7	-43.7	14.2	1.50e-06	0	56	0	391118848	52	5255
2026-01-10 08:08:05.59	32.67	18.01	-40.8	-43.8	14.0	7.00e-07	0	55	0	393216000	52	5332
2026-01-10 08:08:06.60	32.44	17.98	-40.8	-44.0	13.9	3.80e-06	0	56	0	394264576	52	5405
2026-01-10 08:08:07.60	32.21	17.95	-40.9	-44.0	13.9	4.50e-06	0	56	0	396361728	52	5426
2026-01-10 08:08:08.61	31.99	17.92	-40.8	-43.9	13.9	4.50e-06	0	55	0	398458880	52	5393
2026-01-10 08:08:09.61	31.76	17.89	-40.7	-43.8	14.1	2.20e-06	0	56	0	400556032	52	5287
2026-01-10 08:08:10.62	31.54	17.85	-40.7	-43.7	14.2	3.00e-06	0	55	0	402653184	52	5240
2026-01-10 08:08:11.63	31.31	17.82	-40.7	-43.7	14.2	1.50e-06	0	55	0	404750336	52	5241
2026-01-10 08:08:12.64	31.09	17.79	-40.7	-43.7	14.1	1.50e-06	0	56	0	405798912	52	5252
2026-01-10 08:08:13.65	30.86	17.75	-40.7	-43.8	14.1	1.50e-06	0	55	0	407896064	52	5282
2026-01-10 08:08:14.66	30.64	17.72	-40.7	-43.8	14.0	7.00e-07	0	55	0	409993216	52	5303
2026-01-10 08:08:15.67	30.41	17.68	-40.8	-43.9	14.0	2.20e-06	0	56	0	412090368	52	5358
2026-01-10 08:08:16.68	30.19	17.65	-40.8	-44.0	13.9	2.20e-06	0	56	0	414187520	52	5419
2026-01-10 08:08:17.69	29.97	17.61	-40.9	-44.0	13.8	1.50e-06	0	56	0	415236096	52	5427
2026-01-10 08:08:18.69	29.75	17.58	-40.9	-44.0	13.8	3.00e-06	0	56	0	417333248	52	5430
2026-01-10 08:08:19.70	29.53	17.54	-40.8	-43.9	13.9	2.20e-06	0	55	0	419430400	52	5366
2026-01-10 08:08:20.70	29.31	17.50	-40.7	-43.8	14.1	3.80e-06	0	55	0	421527552	52	5308
2026-01-10 08:08:21.71	29.09	17.47	-40.7	-43.8	14.1	1.50e-06	0	56	0	422576128	52	5287
2026-01-10 08:08:22.72	28.87	17.43	-40.6	-43.6	14.2	0.00e+00	0	56	0	424673280	52	5205
2026-01-10 08:08:23.72	28.65	17.39	-40.7	-43.7	14.1	1.50e-06	0	56	0	426770432	52	5266
2026-01-10 08:08:24.73	28.43	17.35	-40.8	-43.9	13.9	1.50e-06	0	55	0	428867584	52	5391
2026-01-10 08:08:25.74	28.21	17.31	-40.9	-44.2	13.7	5.30e-06	0	55	0	430964736	52	5539
2026-01-10 08:08:26.74	28.00	17.27	-41.0	-44.3	13.5	9.10e-06	0	56	0	433061888	52	5638
2026-01-10 08:08:27.75	27.78	17.23	-41.0	-44.3	13.5	8.30e-06	0	55	0	434110464	52	5620
2026-01-10 08:08:28.76	27.56	17.19	-41.0	-44.2	13.6	3.00e-06	0	56	0	436207616	52	5589
2026-01-10 08:08:29.77	27.35	17.15	-40.8	-44.0	13.8	4.50e-06	0	55	0	438304768	52	5432
2026-01-10 08:08:30.77	27.13	17.11	-40.8	-43.9	13.9	2.20e-06	0	56	0	440401920	52	5398
2026-01-10 08:08:31.78	26.92	17.07	-40.7	-43.8	14.0	2.20e-06	0	56	0	442499072	52	5317
2026-01-10 08:08:32.79	26.70	17.03	-40.8	-43.9	13.9	5.30e-06	0	55	0	443547648	52	5392
2026-01-10 08:08:33.79	26.49	16.99	-40.8	-44.0	13.8	4.50e-06	0	56	0	445644800	52	5417
2026-01-10 08:08:34.80	26.28	16.95	-40.9	-44.1	13.8	3.00e-06	0	56	0	447741952	52	5484
2026-01-10 08:08:35.80	26.07	16.91	-40.9	-44.2	13.6	8.30e-06	0	56	0	449839104	52	5559
2026-01-10 08:08:36.81	25.86	16.87	-41.1	-44.4	13.4	1.22e-05	0	55	0	450887680	52	5674
2026-01-10 08:08:37.82	25.65	16.82	-41.1	-44.5	13.4	1.90e-05	0	56	0	452984832	52	5726
2026-01-10 08:08:38.82	25.44	16.78	-41.2	-44.6	13.2	1.90e-05	0	56	0	455081984	52	5835
2026-01-10 08:08:39.83	25.23	16.74	-41.2	-44.6	13.2	2.74e-05	0	55	0	457179136	52	5844
2026-01-10 08:08:40.84	25.02	16.69	-41.2	-44.6	13.2	1.29e-05	0	56	0	459276288	52	5810
2026-01-10 08:08:41.85	24.81	16.65	-41.1	-44.6	13.2	2.44e-05	0	56	0	461373440	52	5799
2026-01-10 08:08:42.86	24.60	16.60	-41.1	-44.5	13.3	2.28e-05	0	56	0	462422016	52	5771
2026-01-10 08:08:43.87	24.39	16.56	-41.1	-44.5	13.3	1.67e-05	0	56	0	464519168	52	5736
2026-01-10 08:08:44.88	24.19	16.51	-41.1	-44.5	13.3	2.36e-05	0	55	0	466616320	52	5748
2026-01-10 08:08:45.88	23.98	16.47	-41.2	-44.7	13.1	3.35e-05	0	56	0	468713472	53	5543
2026-01-10 08:08:46.89	23.78	16.42	-41.3	-44.8	13.0	4.88e-05	0	56	0	470810624	53	5601
2026-01-10 08:08:47.90	23.57	16.38	-41.3	-44.9	12.9	5.11e-05	0	56	0	471859200	53	5662
2026-01-10 08:08:48.90	23.37	16.33	-41.3	-44.9	12.8	5.79e-05	0	56	0	473956352	53	5708
2026-01-10 08:08:49.91	23.17	16.29	-41.2	-44.8	13.0	5.26e-05	0	56	0	476053504	53	5613
2026-01-10 08:08:50.92	22.96	16.24	-41.1	-44.5	13.2	2.89e-05	0	56	0	478150656	53	5441
2026-01-10 08:08:51.92	22.76	16.19	-41.1	-44.5	13.3	1.98e-05	0	56	0	480247808	53	5419
2026-01-10 08:08:52.93	22.56	16.14	-41.0	-44.4	13.4	2.13e-05	0	56	0	481296384	53	5364
2026-01-10 08:08:53.93	22.36	16.10	-41.1	-44.4	13.3	1.37e-05	0	56	0	483393536	53	5384
2026-01-10 08:08:54.94	22.16	16.05	-41.1	-44.5	13.3	1.29e-05	0	56	0	485490688	53	5415
2026-01-10 08:08:55.95	21.96	16.00	-41.1	-44.5	13.3	2.44e-05	0	56	0	487587840	53	5414
2026-01-10 08:08:56.95	21.77	15.95	-41.1	-44.5	13.2	1.90e-05	0	56	0	489684992	53	5440
2026-01-10 08:08:57.96	21.57	15.91	-41.1	-44.5	13.2	2.89e-05	0	56	0	490733568	53	5451
2026-01-10 08:08:58.97	21.37	15.86	-41.1	-44.6	13.2	2.44e-05	0	56	0	492830720	53	5491
2026-01-10 08:08:59.97	21.17	15.81	-41.1	-44.6	13.1	2.36e-05	0	56	0	494927872	53	5475
2026-01-10 08:09:00.98	20.98	15.76	-41.2	-44.7	13.0	3.12e-05	0	56	0	497025024	53	5579
2026-01-10 08:09:01.99	20.78	15.71	-41.2	-44.8	13.0	4.42e-05	0	56	0	499122176	53	5593
2026-01-10 08:09:02.99	20.59	15.66	-41.3	-44.8	12.9	4.88e-05	0	56	0	500170752	53	5630
2026-01-10 08:09:04.00	20.39	15.61	-41.3	-44.9	12.8	5.56e-05	0	56	0	502267904	53	5705
2026-01-10 08:09:05.01	20.20	15.56	-41.3	-44.9	12.7	6.40e-05	0	56	0	504365056	53	5722
2026-01-10 08:09:06.01	20.01	15.51	-41.3	-44.9	12.8	6.94e-05	0	56	0	506462208	53	5701
2026-01-10 08:09:07.02	19.82	15.46	-41.3	-45.0	12.7	7.40e-05	0	56	0	508559360	53	5753
2026-01-10 08:09:08.03	19.62	15.41	-41.3	-45.0	12.7	7.85e-05	0	56	0	509607936	53	5724
2026-01-10 08:09:09.04	19.43	15.36	-41.3	-44.9	12.8	7.09e-05	0	56	0	511705088	53	5686
2026-01-10 08:09:10.04	19.24	15.31	-41.3	-44.9	12.8	6.94e-05	0	56	0	513802240	53	5669
2026-01-10 08:09:11.05	19.05	15.25	-41.2	-44.7	13.0	5.87e-05	0	56	0	515899392	53	5567
2026-01-10 08:09:12.06	18.86	15.20	-41.1	-44.5	13.1	3.28e-05	0	56	0	517996544	53	5459
2026-01-10 08:09:13.07	18.68	15.15	-41.1	-44.6	13.1	3.28e-05	0	56	0	519045120	53	5472
2026-01-10 08:09:14.07	18.49	15.10	-41.1	-44.6	13.0	2.97e-05	0	56	0	521142272	53	5496
2026-01-10 08:09:15.08	18.30	15.05	-41.2	-44.7	12.9	3.35e-05	0	56	0	523239424	53	5578
2026-01-10 08:09:16.09	18.12	14.99	-41.3	-45.0	12.7	7.47e-05	0	56	0	525336576	53	5734
2026-01-10 08:09:17.10	17.93	14.94	-41.4	-45.1	12.6	7.47e-05	0	56	0	527433728	53	5801
2026-01-10 08:09:18.11	17.75	14.89	-41.5	-45.3	12.3	1.62e-04	0	56	0	528482304	53	5955
2026-01-10 08:09:19.11	17.56	14.84	-41.5	-45.4	12.2	2.20e-04	0	56	0	530579456	53	6034
2026-01-10 08:09:20.12	17.38	14.78	-41.6	-45.5	12.1	2.49e-04	0	56	0	532676608	53	6062
2026-01-10 08:09:21.13	17.20	14.73	-41.5	-45.4	12.2	2.05e-04	0	56	0	534773760	53	5998
2026-01-10 08:09:22.13	17.02	14.68	-41.5	-45.4	12.2	1.91e-04	0	56	0	536870912	53	6024
2026-01-10 08:09:23.14	16.83	14.62	-41.6	-45.4	12.2	2.09e-04	0	56	0	537919488	53	6060
2026-01-10 08:09:24.14	16.65	14.57	-41.6	-45.5	12.1	2.84e-04	0	56	0	540016640	53	6115
2026-01-10 08:09:25.15	16.47	14.51	-41.6	-45.6	11.9	3.34e-04	0	56	0	542113792	53	6199
2026-01-10 08:09:26.16	16.29	14.46	-41.7	-45.7	11.9	3.65e-04	0	56	0	544210944	53	6214
2026-01-10 08:09:27.16	16.12	14.41	-41.7	-45.8	11.8	4.31e-04	0	56	0	546308096	53	6287
2026-01-10 08:09:28.17	15.94	14.35	-41.7	-45.8	11.7	5.48e-04	0	56	0	547356672	54	5985
2026-01-10 08:09:29.17	15.76	14.30	-41.7	-45.7	11.8	5.02e-04	0	56	0	549453824	54	5921
2026-01-10 08:09:30.17	15.59	14.24	-41.7	-45.7	11.8	4.42e-04	0	56	0	551550976	54	5903
2026-01-10 08:09:31.18	15.41	14.19	-41.7	-45.8	11.8	4.54e-04	0	56	0	553648128	54	5937
2026-01-10 08:09:32.19	15.23	14.13	-41.6	-45.6	12.0	3.81e-04	0	56	0	555745280	54	5795
2026-01-10 08:09:33.19	15.06	14.08	-41.6	-45.5	12.0	3.11e-04	0	56	0	556793856	54	5765
2026-01-10 08:09:34.20	14.89	14.02	-41.5	-45.5	12.1	2.90e-04	0	56	0	558891008	54	5735
2026-01-10 08:09:35.21	14.71	13.97	-41.5	-45.5	12.0	2.94e-04	0	56	0	560988160	54	5761
2026-01-10 08:09:36.21	14.54	13.91	-41.5	-45.5	12.0	3.25e-04	0	56	0	563085312	54	5747
2026-01-10 08:09:37.22	14.37	13.86	-41.6	-45.6	11.9	3.49e-04	0	56	0	564133888	54	5828
2026-01-10 08:09:38.22	14.20	13.80	-41.7	-45.8	11.7	4.97e-04	0	56	0	566231040	54	5937
2026-01-10 08:09:39.23	14.03	13.74	-41.6	-45.6	11.9	5.45e-04	0	56	0	568328192	54	5855
2026-01-10 08:09:40.24	13.86	13.69	-41.6	-45.7	11.8	5.19e-04	0	56	0	570425344	54	5893
2026-01-10 08:09:41.24	13.69	13.63	-41.7	-45.8	11.7	5.50e-04	0	56	0	572522496	54	5937
2026-01-10 08:09:42.25	13.52	13.58	-41.7	-45.8	11.7	6.23e-04	0	56	0	574619648	54	5975
2026-01-10 08:09:43.26	13.35	13.52	-41.6	-45.6	11.9	4.97e-04	0	56	0	575668224	54	5845
2026-01-10 08:09:44.27	13.18	13.46	-41.5	-45.5	11.9	4.18e-04	0	56	0	577765376	54	5769
2026-01-10 08:09:45.27	13.02	13.41	-41.4	-45.2	12.2	2.71e-04	0	56	0	579862528	54	5587
2026-01-10 08:09:46.28	12.85	13.35	-41.3	-45.0	12.4	1.69e-04	0	56	0	581959680	54	5451
2026-01-10 08:09:47.29	12.68	13.29	-41.3	-45.1	12.4	1.36e-04	0	56	0	584056832	54	5482
2026-01-10 08:09:48.29	12.52	13.23	-41.3	-45.0	12.5	1.59e-04	0	56	0	585105408	54	5451
2026-01-10 08:09:49.30	12.36	13.18	-41.3	-45.1	12.4	1.19e-04	0	56	0	587202560	54	5467
2026-01-10 08:09:50.31	12.19	13.12	-41.3	-45.1	12.3	1.47e-04	0	56	0	589299712	54	5507
2026-01-10 08:09:51.32	12.03	13.06	-41.3	-45.1	12.3	1.85e-04	0	56	0	591396864	54	5510
2026-01-10 08:09:52.32	11.87	13.01	-41.2	-45.1	12.3	2.07e-04	0	56	0	593494016	54	5495
2026-01-10 08:09:53.33	11.70	12.95	-41.2	-45.1	12.2	2.30e-04	0	56	0	594542592	54	5493
2026-01-10 08:09:54.34	11.54	12.89	-41.1	-44.9	12.4	1.68e-04	0	56	0	596639744	54	5354
2026-01-10 08:09:55.35	11.38	12.83	-41.0	-44.8	12.5	1.08e-04	0	56	0	598736896	54	5285
2026-01-10 08:09:56.35	11.22	12.77	-40.9	-44.7	12.4	1.37e-04	0	56	0	600834048	53	5575
2026-01-10 08:09:57.36	11.06	12.72	-40.9	-44.6	12.4	1.57e-04	0	56	0	602931200	53	5520
2026-01-10 08:09:58.37	10.91	12.66	-40.8	-44.5	12.5	1.34e-04	0	55	0	603979776	53	5462
2026-01-10 08:09:59.37	10.75	12.60	-40.8	-44.6	12.4	1.75e-04	0	56	0	606076928	53	5469
2026-01-10 08:10:00.38	10.59	12.54	-40.7	-44.5	12.4	1.35e-04	0	56	0	608174080	53	5412
2026-01-10 08:10:01.38	10.44	12.49	-40.6	-44.5	12.3	1.60e-04	0	56	0	610271232	53	5429
2026-01-10 08:10:02.39	10.28	12.43	-40.5	-44.4	12.4	1.51e-04	0	56	0	612368384	53	5361
2026-01-10 08:10:03.40	10.12	12.37	-40.4	-44.2	12.4	1.78e-04	0	56	0	613416960	52	5570
2026-01-10 08:10:04.40	9.97	12.31	-40.2	-44.0	12.5	1.04e-04	0	56	0	615514112	52	5434
2026-01-10 08:10:05.41	9.82	12.25	-40.1	-43.7	12.8	5.95e-05	0	56	0	617611264	52	5233
2026-01-10 08:10:06.42	9.66	12.19	-40.0	-43.5	13.1	4.80e-05	0	56	0	619708416	51	5409
2026-01-10 08:10:07.43	9.51	12.13	-39.9	-43.5	13.0	3.58e-05	0	56	0	621805568	51	5413
2026-01-10 08:10:08.44	9.36	12.08	-39.9	-43.5	12.9	5.11e-05	0	56	0	622854144	51	5407
2026-01-10 08:10:09.45	9.20	12.02	-39.9	-43.6	12.6	6.71e-05	0	56	0	624951296	51	5498
2026-01-10 08:10:10.46	9.05	11.96	-40.0	-43.9	12.1	1.56e-04	0	56	0	627048448	51	5721
2026-01-10 08:10:11.47	8.90	11.90	-40.0	-44.2	11.7	3.75e-04	0	56	0	629145600	51	5873
2026-01-10 08:10:12.47	8.75	11.84	-40.1	-44.6	11.2	8.65e-04	0	56	0	631242752	51	6138
2026-01-10 08:10:13.48	8.60	11.78	-40.3	-45.1	10.6	2.13e-03	0	56	0	632291328	51	6504
2026-01-10 08:10:14.49	8.46	11.72	-40.4	-45.7	9.8	7.75e-03	0	56	0	634388480	51	6976
2026-01-10 08:10:15.50	8.31	11.66	-40.5	-46.2	9.1	1.64e-02	0	56	0	636485632	51	7390
2026-01-10 08:10:16.50	8.16	11.60	-40.6	-46.6	8.5	3.37e-02	0	56	0	638582784	51	7802
2026-01-10 08:10:17.51	8.01	11.55	-40.6	-47.2	7.9	4.84e-02	0	56	0	640679936	51	8278
2026-01-10 08:10:18.52	7.87	11.49	-40.7	-48.0	6.9	1.27e-01	0	56	0	641728512	51	9118
2026-01-10 08:10:19.53	7.72	11.43	-40.7	-48.8	6.1	2.35e-01	0	56	0	643825664	52	9427
2026-01-10 08:10:20.54	7.58	11.37	-40.8	-49.8	5.3	3.92e-01	0	56	0	645922816	52	10542
2026-01-10 08:10:21.54	7.43	11.31	-40.8	-50.9	4.6	8.03e-01	0	56	0	648019968	52	11980
2026-01-10 08:10:22.55	7.29	11.25	-40.8	-51.8	4.3	1.21e+00	0	56	0	649068544	52	13385
2026-01-10 08:10:23.55	7.15	11.19	-40.7	-52.9	3.8	1.42e+00	0	56	104	649068544	52	15077
2026-01-10 08:10:24.56	7.00	11.13	-40.7	-53.7	3.8	1.48e+00	0	56	104	649068544	52	16514
2026-01-10 08:10:25.57	6.86	11.07	-40.7	-54.1	3.8	1.49e+00	0	56	104	649068544	52	17456
2026-01-10 08:10:26.57	6.72	11.01	-40.6	-54.4	3.8	1.49e+00	0	56	104	649068544	52	17965
2026-01-10 08:10:27.58	6.58	10.95	-40.6	-54.5	3.8	1.49e+00	0	56	104	649068544	52	18301
2026-01-10 08:10:28.59	6.44	10.89	-40.5	-54.5	3.8	1.49e+00	0	56	104	649068544	52	18275
2026-01-10 08:10:29.60	6.30	10.83	-40.5	-54.6	3.8	1.49e+00	0	56	104	649068544	52	18467
2026-01-10 08:10:30.61	6.16	10.77	-40.9	-54.5	3.8	1.49e+00	0	56	104	649068544	52	18271
2026-01-10 08:10:31.62	6.02	10.71	-40.2	-54.7	3.8	1.49e+00	0	56	104	649068544	52	18593
2026-01-10 08:10:32.63	5.88	10.65	-40.1	-54.7	3.8	1.49e+00	0	56	104	649068544	52	18592
2026-01-10 08:10:33.64	5.75	10.59	-40.4	-54.9	3.8	1.49e+00	0	56	104	649068544	52	19105
2026-01-10 08:10:34.65	5.61	10.54	-40.2	-54.8	3.8	1.49e+00	0	56	104	649068544	52	18758
2026-01-10 08:10:35.66	5.47	10.48	-40.3	-54.8	3.8	1.49e+00	0	56	104	649068544	52	18901
2026-01-10 08:10:36.67	5.34	10.42	-40.6	-55.0	3.8	1.49e+00	0	56	104	649068544	52	19277
2026-01-10 08:10:37.68	5.20	10.36	-40.0	-54.6	3.8	1.49e+00	0	56	104	649068544	52	18365
2026-01-10 08:10:38.69	5.07	10.30	-40.4	-54.9	3.8	1.49e+00	0	56	104	649068544	51	20197
2026-01-10 08:10:39.70	4.93	10.24	-40.0	-54.5	3.8	1.49e+00	0	56	104	649068544	51	19389
2026-01-10 08:10:40.71	4.80	10.18	-39.8	-54.3	3.8	1.49e+00	0	56	104	649068544	51	18874
2026-01-10 08:10:41.71	4.67	10.12	-39.9	-54.4	3.8	1.49e+00	0	56	104	649068544	51	19094
2026-01-10 08:10:42.72	4.54	10.06	-39.9	-54.4	3.8	1.49e+00	0	56	104	649068544	51	18959
2026-01-10 08:10:43.73	4.40	10.00	-39.8	-54.3	3.8	1.49e+00	0	56	104	649068544	51	18925
2026-01-10 08:10:44.74	4.27	9.94	-39.8	-54.3	3.8	1.49e+00	0	56	104	649068544	51	18831
2026-01-10 08:10:45.75	4.14	9.88	-39.9	-54.4	3.8	1.49e+00	0	56	104	649068544	51	19021
2026-01-10 08:10:46.76	4.01	9.82	-40.0	-54.5	3.8	1.49e+00	0	56	104	649068544	51	19214
2026-01-10 08:10:47.76	3.88	9.76	-40.0	-54.6	3.8	1.49e+00	0	56	104	649068544	51	19399
2026-01-10 08:10:48.77	3.75	9.70	-40.2	-54.7	3.8	1.49e+00	0	56	104	649068544	51	19728
2026-01-10 08:10:49.78	3.63	9.64	-39.9	-54.4	3.8	1.49e+00	0	56	104	649068544	51	19113
2026-01-10 08:10:50.79	3.50	9.58	-40.1	-54.6	3.8	1.49e+00	0	56	104	649068544	51	19535
2026-01-10 08:10:51.80	3.37	9.52	-40.0	-54.4	3.8	1.49e+00	0	56	104	649068544	51	19130
2026-01-10 08:10:52.81	3.24	9.46	-39.8	-54.4	3.8	1.49e+00	0	56	104	649068544	51	18967
2026-01-10 08:10:53.82	3.12	9.40	-40.0	-54.5	3.8	1.49e+00	0	56	104	649068544	51	19273
2026-01-10 08:10:54.83	2.99	9.34	-39.8	-54.4	3.8	1.49e+00	0	56	104	649068544	51	18992
2026-01-10 08:10:55.84	2.86	9.28	-40.0	-54.5	3.8	1.49e+00	0	56	104	649068544	51	19269
2026-01-10 08:10:56.85	2.74	9.22	-40.0	-54.5	3.8	1.49e+00	0	56	104	649068544	51	19377
2026-01-10 08:10:57.86	2.62	9.16	-39.8	-54.4	3.8	1.49e+00	0	56	104	649068544	51	18988
2026-01-10 08:10:58.87	2.49	9.10	-39.9	-54.5	3.8	1.49e+00	0	56	104	649068544	51	19293
2026-01-10 08:10:59.87	2.37	9.04	-39.8	-54.4	3.8	1.49e+00	0	56	104	649068544	51	18966
2026-01-10 08:11:00.88	2.25	8.98	-39.9	-54.5	3.8	1.49e+00	0	56	104	649068544	51	19208
2026-01-10 08:11:01.89	2.12	8.92	-39.8	-54.4	3.8	1.49e+00	0	56	104	649068544	51	19027
2026-01-10 08:11:02.90	2.00	8.86	-39.8	-54.4	3.8	1.49e+00	0	56	104	649068544	51	19157
2026-01-10 08:11:03.91	1.88	8.80	-39.8	-54.3	3.8	1.49e+00	0	56	104	649068544	51	18900
2026-01-10 08:11:04.91	1.76	8.75	-39.8	-54.4	3.8	1.49e+00	0	56	104	649068544	51	19133
2026-01-10 08:11:05.92	1.64	8.69	-39.9	-54.4	3.8	1.49e+00	0	56	104	649068544	51	19116
2026-01-10 08:11:06.93	1.52	8.63	-39.8	-54.5	3.8	1.49e+00	0	56	104	649068544	51	19176
2026-01-10 08:11:07.94	1.40	8.57	-39.9	-54.4	3.8	1.49e+00	0	56	104	649068544	51	19145
2026-01-10 08:11:08.95	1.28	8.51	-39.6	-54.4	3.8	1.49e+00	0	56	104	649068544	51	19020
2026-01-10 08:11:09.96	1.17	8.45	-39.9	-54.4	3.8	1.49e+00	0	56	104	649068544	51	19093
2026-01-10 08:11:10.97	1.05	8.39	-39.6	-54.3	3.8	1.49e+00	0	56	104	649068544	51	18918
2026-01-10 08:11:11.98	0.93	8.33	-39.9	-54.5	3.8	1.49e+00	0	56	104	649068544	51	19169
2026-01-10 08:11:12.98	0.81	8.27	-39.7	-54.4	3.8	1.49e+00	0	56	104	649068544	51	19087
2026-01-10 08:11:13.99	0.70	8.21	-39.7	-54.4	3.8	1.49e+00	0	56	104	649068544	51	19048
2026-01-10 08:11:15.00	0.58	8.15	-39.7	-54.4	3.8	1.49e+00	0	56	104	649068544	51	19075
2026-01-10 08:11:16.01	0.47	8.09	-39.6	-54.4	3.8	1.49e+00	0	56	104	649068544	51	19011
2026-01-10 08:11:17.02	0.35	8.03	-39.5	-54.3	3.8	1.49e+00	0	56	104	649068544	51	18902
2026-01-10 08:11:18.03	0.24	7.97	-39.9	-54.5	3.8	1.49e+00	0	56	104	649068544	51	19210
2026-01-10 08:11:19.04	0.12	7.91	-43.9	-58.4	3.8	1.49e+00	0	56	104	649068544	58	20248
2026-01-10 08:11:20.05	0.01	7.85	-44.7	-59.4	3.8	1.49e+00	0	56	104	649068544	60	20150
2026-01-10 08:11:21.06	359.90	7.80	-44.9	-59.6	3.8	1.49e+00	0	56	104	649068544	60	20632
2026-01-10 08:11:22.07	359.79	7.74	-45.0	-59.7	3.8	1.49e+00	0	56	104	649068544	60	20885
2026-01-10 08:11:23.08	359.67	7.68	-45.1	-59.8	3.8	1.49e+00	0	56	104	649068544	60	21193
2026-01-10 08:11:24.09	359.56	7.62	-45.2	-59.9	3.8	1.49e+00	0	56	104	649068544	61	20275
2026-01-10 08:11:25.09	359.45	7.56	-45.2	-59.9	3.8	1.49e+00	0	56	104	649068544	61	20282
2026-01-10 08:11:26.10	359.34	7.50	-45.2	-59.9	3.8	1.49e+00	0	56	104	649068544	61	20264
2026-01-10 08:11:27.11	359.23	7.44	-45.2	-60.0	3.8	1.49e+00	0	56	104	649068544	60	21598
2026-01-10 08:11:28.12	359.12	7.38	-45.1	-59.9	3.8	1.49e+00	0	56	104	649068544	60	21477
2026-01-10 08:11:29.14	359.01	7.32	-45.1	-59.9	3.8	1.49e+00	0	56	104	649068544	60	21298
2026-01-10 08:11:30.14	358.90	7.26	-45.1	-59.9	3.8	1.49e+00	0	56	104	649068544	60	21300
2026-01-10 08:11:31.16	358.79	7.21	-45.0	-59.9	3.8	1.49e+00	0	56	104	649068544	60	21274
2026-01-10 08:11:32.16	358.69	7.15	-45.0	-59.8	3.8	1.49e+00	0	56	104	649068544	60	21198
2026-01-10 08:11:33.17	358.58	7.09	-45.0	-59.8	3.8	1.49e+00	0	56	104	649068544	60	21235
2026-01-10 08:11:34.18	358.47	7.03	-45.0	-59.8	3.8	1.49e+00	0	56	104	649068544	60	21162
2026-01-10 08:11:35.20	358.37	6.97	-45.0	-59.8	3.8	1.49e+00	0	56	104	649068544	60	21187
2026-01-10 08:11:36.20	358.26	6.91	-45.0	-59.8	3.8	1.49e+00	0	56	104	649068544	60	21239
2026-01-10 08:11:37.22	358.15	6.85	-45.0	-59.8	3.8	1.49e+00	0	56	104	649068544	60	21193
2026-01-10 08:11:38.22	358.05	6.80	-45.0	-59.8	3.8	1.49e+00	0	56	104	649068544	60	21103
2026-01-10 08:11:39.23	357.95	6.74	-45.0	-59.8	3.8	1.49e+00	0	56	104	649068544	60	21155
2026-01-10 08:11:40.24	357.84	6.68	-45.0	-59.8	3.8	1.49e+00	0	56	104	649068544	60	21163
2026-01-10 08:11:41.25	357.74	6.62	-45.0	-59.8	3.8	1.49e+00	0	56	104	649068544	60	21160
2026-01-10 08:11:42.26	357.63	6.56	-45.0	-59.8	3.8	1.49e+00	0	56	104	649068544	60	21186
2026-01-10 08:11:43.27	357.53	6.50	-45.0	-59.8	3.8	1.49e+00	0	56	104	649068544	60	21126
2026-01-10 08:11:44.28	357.43	6.44	-45.0	-59.8	3.8	1.49e+00	0	56	104	649068544	60	21094
2026-01-10 08:11:45.29	357.33	6.39	-45.0	-59.8	3.8	1.49e+00	0	56	104	649068544	60	21139
2026-01-10 08:11:46.30	357.22	6.33	-45.0	-59.8	3.8	1.49e+00	0	56	104	649068544	60	21107
2026-01-10 08:11:47.31	357.12	6.27	-45.0	-59.8	3.8	1.49e+00	0	56	104	649068544	60	21099
2026-01-10 08:11:48.31	357.02	6.21	-45.0	-59.8	3.8	1.49e+00	0	56	104	649068544	60	21114
2026-01-10 08:11:49.32	356.92	6.15	-45.0	-59.8	3.8	1.49e+00	0	56	104	649068544	60	21143
2026-01-10 08:11:50.33	356.82	6.10	-45.0	-59.8	3.8	1.49e+00	0	56	104	649068544	60	21104
2026-01-10 08:11:51.34	356.72	6.04	-45.0	-59.8	3.8	1.49e+00	0	56	104	649068544	60	21120
2026-01-10 08:11:52.35	356.62	5.98	-45.0	-59.8	3.8	1.49e+00	0	56	104	649068544	60	21119
2026-01-10 08:11:53.35	356.53	5.92	-44.9	-59.7	3.8	1.49e+00	0	56	104	649068544	60	20979
2026-01-10 08:11:54.36	356.43	5.87	-45.0	-59.8	3.8	1.49e+00	0	56	104	649068544	60	21061
2026-01-10 08:11:55.38	356.33	5.81	-44.9	-59.8	3.8	1.49e+00	0	56	104	649068544	60	21146
2026-01-10 08:11:56.39	356.23	5.75	-45.0	-59.8	3.8	1.49e+00	0	56	104	649068544	60	21068
2026-01-10 08:11:57.39	356.13	5.69	-44.9	-59.8	3.8	1.49e+00	0	56	104	649068544	60	21069
2026-01-10 08:11:58.40	356.04	5.63	-45.0	-59.7	3.8	1.49e+00	0	56	104	649068544	60	21011
2026-01-10 08:11:59.41	355.94	5.58	-45.0	-59.8	3.8	1.49e+00	0	56	104	649068544	60	21063
2026-01-10 08:12:00.42	355.85	5.52	-44.9	-59.8	3.8	1.49e+00	0	56	104	649068544	60	21053
2026-01-10 08:12:01.43	355.75	5.46	-44.9	-59.8	3.8	1.49e+00	0	56	104	649068544	60	21031
2026-01-10 08:12:02.44	355.65	5.40	-45.0	-59.8	3.8	1.49e+00	0	56	104	649068544	60	21040
2026-01-10 08:12:03.45	355.56	5.35	-44.9	-59.8	3.8	1.49e+00	0	56	104	649068544	60	21051
2026-01-10 08:12:04.46	355.46	5.29	-45.0	-59.8	3.8	1.49e+00	0	56	104	649068544	60	21038
2026-01-10 08:12:05.47	355.37	5.23	-45.0	-59.8	3.8	1.49e+00	0	56	104	649068544	60	21043
2026-01-10 08:12:06.48	355.28	5.17	-45.0	-59.8	3.8	1.49e+00	0	56	104	649068544	60	21082
2026-01-10 08:12:07.49	355.18	5.12	-45.0	-59.8	3.8	1.49e+00	0	56	104	649068544	60	21049
2026-01-10 08:12:08.49	355.09	5.06	-44.9	-59.8	3.8	1.49e+00	0	56	104	649068544	60	21062
2026-01-10 08:12:09.50	355.00	5.00	-44.9	-59.8	3.8	1.49e+00	0	56	104	649068544	60	21082
2026-01-10 08:12:10.51	354.91	4.95	-44.9	-59.8	3.8	1.49e+00	0	56	104	649068544	60	21054
2026-01-10 08:12:11.52	354.82	4.89	-44.9	-59.8	3.8	1.49e+00	0	56	104	649068544	60	21036
2026-01-10 08:12:12.52	354.72	4.83	-44.9	-59.8	3.8	1.49e+00	0	56	104	649068544	60	21060
2026-01-10 08:12:13.53	354.63	4.78	-45.0	-59.8	3.8	1.49e+00	0	56	104	649068544	60	21070
2026-01-10 08:12:14.54	354.54	4.72	-44.9	-59.8	3.8	1.49e+00	0	56	104	649068544	60	21058
2026-01-10 08:12:15.55	354.45	4.66	-44.9	-59.8	3.8	1.49e+00	0	56	104	649068544	60	21110
2026-01-10 08:12:16.56	354.36	4.61	-44.9	-59.8	3.8	1.49e+00	0	57	104	649068544	60	21076
2026-01-10 08:12:17.57	354.27	4.55	-44.9	-59.8	3.8	1.49e+00	0	56	104	649068544	60	21054
2026-01-10 08:12:18.58	354.18	4.49	-44.9	-59.8	3.8	1.49e+00	0	56	104	649068544	60	21035
2026-01-10 08:12:19.59	354.09	4.44	-44.9	-59.7	3.8	1.49e+00	0	56	104	649068544	60	20995
2026-01-10 08:12:20.60	354.01	4.38	-44.9	-59.8	3.8	1.49e+00	0	56	104	649068544	60	21063
2026-01-10 08:12:21.60	353.92	4.32	-44.9	-59.8	3.8	1.49e+00	0	56	104	649068544	60	21031
2026-01-10 08:12:22.62	353.83	4.27	-44.9	-59.7	3.8	1.49e+00	0	56	104	649068544	60	20967
2026-01-10 08:12:23.62	353.74	4.21	-44.9	-59.8	3.8	1.49e+00	0	56	104	649068544	60	21062
2026-01-10 08:12:24.63	353.66	4.15	-44.9	-59.8	3.8	1.49e+00	0	56	104	649068544	60	21034
2026-01-10 08:12:25.64	353.57	4.10	-44.9	-59.7	3.8	1.49e+00	0	56	104	649068544	60	20986
2026-01-10 08:12:26.65	353.48	4.04	-44.9	-59.8	3.8	1.49e+00	0	56	104	649068544	60	21052
2026-01-10 08:12:27.66	353.40	3.99	-44.9	-59.8	3.8	1.49e+00	0	56	104	649068544	60	21063
2026-01-10 08:12:28.67	353.31	3.93	-44.9	-59.7	3.8	1.49e+00	0	56	104	649068544	60	20981
2026-01-10 08:12:29.68	353.23	3.87	-44.9	-59.8	3.8	1.49e+00	0	56	104	649068544	60	21026
2026-01-10 08:12:30.69	353.14	3.82	-44.9	-59.7	3.8	1.49e+00	0	56	104	649068544	60	21014
2026-01-10 08:12:31.69	353.06	3.76	-44.9	-59.7	3.8	1.49e+00	0	56	104	649068544	60	20986
2026-01-10 08:12:32.70	352.97	3.71	-44.9	-59.7	3.8	1.49e+00	0	56	104	649068544	60	21005
2026-01-10 08:12:33.71	352.89	3.65	-44.9	-59.8	3.8	1.49e+00	0	56	104	649068544	60	21038
2026-01-10 08:12:34.72	352.81	3.59	-44.9	-59.7	3.8	1.49e+00	0	56	104	649068544	60	21010
2026-01-10 08:12:35.72	352.72	3.54	-44.9	-59.7	3.8	1.49e+00	0	56	104	649068544	60	20971
2026-01-10 08:12:36.73	352.64	3.48	-44.9	-59.8	3.8	1.49e+00	0	56	104	649068544	60	21082
2026-01-10 08:12:37.74	352.56	3.43	-44.9	-59.7	3.8	1.49e+00	0	56	104	649068544	60	20965
2026-01-10 08:12:38.75	352.47	3.37	-44.9	-59.7	3.8	1.49e+00	0	56	104	649068544	60	20962
2026-01-10 08:12:39.76	352.39	3.32	-44.9	-59.8	3.8	1.49e+00	0	56	104	649068544	60	21041
2026-01-10 08:12:40.77	352.31	3.26	-44.8	-59.8	3.8	1.49e+00	0	56	104	649068544	60	21047
2026-01-10 08:12:41.78	352.23	3.21	-44.9	-59.7	3.8	1.49e+00	0	56	104	649068544	60	20990
2026-01-10 08:12:42.79	352.15	3.15	-44.9	-59.8	3.8	1.49e+00	0	56	104	649068544	60	21032
2026-01-10 08:12:43.80	352.07	3.10	-44.9	-59.7	3.8	1.49e+00	0	56	104	649068544	60	20914
2026-01-10 08:12:44.81	351.99	3.04	-44.9	-59.7	3.8	1.49e+00	0	56	104	649068544	60	21005
2026-01-10 08:12:45.81	351.91	2.99	-44.9	-59.7	3.8	1.49e+00	0	56	104	649068544	60	20996
2026-01-10 08:12:46.82	351.83	2.93	-44.9	-59.7	3.8	1.49e+00	0	56	104	649068544	60	21016
2026-01-10 08:12:47.83	351.75	2.88	-44.9	-59.7	3.8	1.49e+00	0	56	104	649068544	60	20952
2026-01-10 08:12:48.84	351.67	2.82	-44.9	-59.8	3.8	1.49e+00	0	56	104	649068544	60	21029
2026-01-10 08:12:49.85	351.59	2.77	-44.9	-59.7	3.8	1.49e+00	0	56	104	649068544	60	20998
2026-01-10 08:12:50.86	351.51	2.71	-44.9	-59.7	3.8	1.49e+00	0	56	104	649068544	60	20981
2026-01-10 08:12:51.87	351.43	2.66	-44.9	-59.7	3.8	1.49e+00	0	56	104	649068544	60	20996
2026-01-10 08:12:52.88	351.36	2.60	-44.9	-59.8	3.8	1.49e+00	0	56	104	649068544	60	21066
2026-01-10 08:12:53.89	351.28	2.55	-44.9	-59.8	3.8	1.49e+00	0	56	104	649068544	60	21036
2026-01-10 08:12:54.90	351.20	2.49	-44.9	-59.7	3.8	1.49e+00	0	56	104	649068544	60	20980
