passes_logs/2026/01/10/R2.0S_Moscow/R2.0S_Moscow__20260110_091851_SUOMI_NPP_rec.log

#Pass ID: 20260110_091851_SUOMI NPP
#Satellite: SUOMI NPP
#Configuration: NPP
#almurnet v.1.7.20251203
#Start time: 2026-01-10 09:18:52

#Version: 2.2.20231116
#Station: R2.0S_Moscow
#Location: 37.707566 lon 55.798166 lat
#TLE: 1 37849U 11061A   26008.83076692  .00000095  00000+0  66074-4 0  9997
#TLE: 2 37849  98.7806 310.9327 0002533  74.3004 285.8451 14.19523607735834

#Time	Az	El	Level	Level2	SNR	BER	BlckErr	Temp	State	Recorded	gain1	gain2
2026-01-10 09:18:52.43	140.82	2.08	-42.2	-56.7	3.8	1.49e+00	0	46	0	0	54	20830
2026-01-10 09:18:53.43	140.79	2.15	-42.0	-56.7	3.8	1.49e+00	0	46	104	0	54	20888
2026-01-10 09:18:54.43	140.77	2.21	-40.5	-56.7	3.8	1.49e+00	0	47	104	0	54	20807
2026-01-10 09:18:55.44	140.74	2.27	-40.3	-56.6	3.9	1.49e+00	0	47	104	0	54	20591
2026-01-10 09:18:56.45	140.71	2.34	-39.6	-56.2	3.8	1.49e+00	0	47	104	0	52	22152
2026-01-10 09:18:57.46	140.68	2.40	-35.7	-55.4	3.8	1.49e+00	0	47	104	0	50	22625
2026-01-10 09:18:58.47	140.65	2.47	-37.0	-56.8	3.9	1.49e+00	0	47	104	0	51	25069
2026-01-10 09:18:59.48	140.63	2.53	-39.3	-56.0	4.2	1.50e+00	0	47	104	0	44	34353
2026-01-10 09:19:00.48	140.60	2.60	-41.6	-56.2	3.7	1.49e+00	0	47	104	0	51	23372
2026-01-10 09:19:01.49	140.57	2.66	-41.9	-56.7	3.8	1.49e+00	0	47	104	0	54	20787
2026-01-10 09:19:02.50	140.54	2.73	-41.7	-56.2	3.8	1.49e+00	0	47	104	0	53	21003
2026-01-10 09:19:03.51	140.51	2.79	-42.1	-56.7	3.9	1.49e+00	0	47	104	0	54	20943
2026-01-10 09:19:04.52	140.48	2.86	-42.1	-56.6	3.8	1.49e+00	0	47	104	0	54	20740
2026-01-10 09:19:05.53	140.45	2.92	-39.2	-56.5	3.9	1.49e+00	0	48	104	0	50	25786
2026-01-10 09:19:06.54	140.42	2.99	-40.6	-55.9	4.0	1.49e+00	0	47	104	0	52	21292
2026-01-10 09:19:07.55	140.39	3.05	-38.5	-55.7	3.8	1.49e+00	0	48	104	0	48	26421
2026-01-10 09:19:08.55	140.36	3.12	-38.0	-54.0	4.0	1.49e+00	0	48	104	0	46	24379
2026-01-10 09:19:09.57	140.33	3.19	-39.5	-56.3	4.0	1.49e+00	0	48	104	0	52	22288
2026-01-10 09:19:10.57	140.30	3.25	-41.7	-57.0	3.8	1.50e+00	0	48	104	0	52	24400
2026-01-10 09:19:11.58	140.27	3.32	-39.7	-56.1	3.8	1.49e+00	0	48	104	0	51	23060
2026-01-10 09:19:12.59	140.24	3.39	-41.9	-56.7	3.9	1.49e+00	0	48	104	0	53	22145
2026-01-10 09:19:13.60	140.21	3.45	-41.8	-56.7	4.1	1.49e+00	0	48	104	0	53	22059
2026-01-10 09:19:14.61	140.18	3.52	-42.1	-56.8	3.6	1.49e+00	0	48	104	0	54	21242
2026-01-10 09:19:15.62	140.15	3.59	-41.5	-56.3	3.8	1.49e+00	0	48	104	0	53	21125
2026-01-10 09:19:16.63	140.12	3.65	-34.3	-54.5	3.8	1.49e+00	0	48	104	0	51	19356
2026-01-10 09:19:17.64	140.09	3.72	-37.8	-55.4	3.8	1.49e+00	0	48	104	0	48	25373
2026-01-10 09:19:18.65	140.06	3.79	-41.7	-57.4	3.8	1.49e+00	0	48	104	0	50	28454
2026-01-10 09:19:19.66	140.03	3.86	-34.2	-54.2	4.1	1.49e+00	0	48	104	0	45	26219
2026-01-10 09:19:20.66	139.99	3.92	-34.4	-53.8	4.2	1.49e+00	0	48	104	0	45	25134
2026-01-10 09:19:21.68	139.96	3.99	-41.8	-56.6	3.8	1.49e+00	0	48	104	0	54	20716
2026-01-10 09:19:22.69	139.93	4.06	-42.1	-56.6	3.8	1.49e+00	0	49	104	0	54	20640
2026-01-10 09:19:23.69	139.90	4.13	-35.8	-54.5	3.8	1.49e+00	0	49	104	0	42	32546
2026-01-10 09:19:24.70	139.87	4.20	-42.2	-56.6	4.1	1.50e+00	0	49	104	0	54	20620
2026-01-10 09:19:25.71	139.83	4.27	-40.4	-56.6	3.8	1.49e+00	0	49	104	0	54	20646
2026-01-10 09:19:26.72	139.80	4.34	-41.9	-56.5	3.9	1.49e+00	0	49	104	0	54	20308
2026-01-10 09:19:27.73	139.77	4.40	-42.0	-56.4	3.8	1.49e+00	0	49	104	0	54	20280
2026-01-10 09:19:28.74	139.73	4.47	-42.0	-56.4	3.8	1.49e+00	0	49	104	0	54	20103
2026-01-10 09:19:29.75	139.70	4.54	-42.1	-56.3	3.8	1.49e+00	0	49	104	0	54	19923
2026-01-10 09:19:30.76	139.67	4.61	-41.5	-56.0	3.8	1.49e+00	0	49	104	0	53	20479
2026-01-10 09:19:31.77	139.64	4.68	-42.0	-56.1	3.8	1.49e+00	0	49	104	0	54	19467
2026-01-10 09:19:32.78	139.60	4.75	-42.1	-56.0	3.8	1.49e+00	0	49	104	0	54	19230
2026-01-10 09:19:33.79	139.57	4.82	-42.1	-56.0	3.8	1.49e+00	0	49	104	0	54	19374
2026-01-10 09:19:34.80	139.53	4.89	-36.6	-54.7	3.9	1.49e+00	0	49	104	0	53	17615
2026-01-10 09:19:35.81	139.50	4.96	-42.1	-56.0	3.8	1.49e+00	0	49	104	0	54	19264
2026-01-10 09:19:36.82	139.47	5.03	-41.4	-55.9	3.9	1.49e+00	0	49	104	0	54	19116
2026-01-10 09:19:37.82	139.43	5.10	-42.0	-56.1	3.8	1.49e+00	0	49	104	0	54	19400
2026-01-10 09:19:38.83	139.40	5.18	-42.0	-56.0	3.8	1.49e+00	0	49	104	0	54	19339
2026-01-10 09:19:39.84	139.36	5.25	-37.5	-55.1	3.9	1.49e+00	0	49	104	0	50	21895
2026-01-10 09:19:40.85	139.33	5.32	-41.6	-55.9	4.0	1.49e+00	0	50	104	0	52	21351
2026-01-10 09:19:41.86	139.29	5.39	-41.3	-55.7	4.3	1.49e+00	0	50	104	0	46	29622
2026-01-10 09:19:42.87	139.26	5.46	-42.1	-56.4	3.8	1.49e+00	0	49	104	0	54	20216
2026-01-10 09:19:43.88	139.22	5.53	-42.0	-55.9	3.8	1.49e+00	0	50	104	0	53	20283
2026-01-10 09:19:44.88	139.19	5.60	-42.5	-56.8	3.8	1.49e+00	0	50	104	0	54	21056
2026-01-10 09:19:45.89	139.15	5.68	-41.9	-56.5	3.8	1.49e+00	0	50	104	0	54	20398
2026-01-10 09:19:46.90	139.11	5.75	-42.1	-55.6	3.9	1.49e+00	0	50	104	0	53	19474
2026-01-10 09:19:47.91	139.08	5.82	-41.9	-56.5	3.8	1.49e+00	0	50	104	0	54	20499
2026-01-10 09:19:48.92	139.04	5.90	-41.7	-56.6	3.8	1.49e+00	0	50	104	0	54	20663
2026-01-10 09:19:49.93	139.00	5.97	-41.5	-56.6	3.8	1.49e+00	0	50	104	0	54	20727
2026-01-10 09:19:50.94	138.97	6.04	-41.5	-56.6	3.8	1.49e+00	0	50	104	0	54	20600
2026-01-10 09:19:51.95	138.93	6.11	-41.6	-56.6	3.5	1.49e+00	0	50	104	0	54	20675
2026-01-10 09:19:52.96	138.89	6.19	-42.0	-56.6	3.8	1.49e+00	0	50	104	0	54	20579
2026-01-10 09:19:53.97	138.85	6.26	-41.6	-57.2	3.7	1.49e+00	0	50	104	0	54	22090
2026-01-10 09:19:54.98	138.82	6.34	-41.9	-56.6	3.8	1.49e+00	0	50	104	0	54	20721
2026-01-10 09:19:55.99	138.78	6.41	-41.9	-56.9	3.8	1.50e+00	0	50	104	0	50	27057
2026-01-10 09:19:57.00	138.74	6.49	-42.1	-56.9	4.0	1.49e+00	0	50	104	0	53	22570
2026-01-10 09:19:58.01	138.70	6.56	-30.3	-51.5	4.4	1.49e+00	0	50	104	0	42	23003
2026-01-10 09:19:59.02	138.66	6.63	-42.2	-56.7	3.6	1.49e+00	0	50	104	0	54	20936
2026-01-10 09:20:00.03	138.63	6.71	-40.4	-56.4	3.9	1.49e+00	0	51	104	0	52	22716
2026-01-10 09:20:01.04	138.59	6.79	-37.2	-56.3	3.7	1.49e+00	0	50	104	0	49	26557
2026-01-10 09:20:02.04	138.55	6.86	-37.6	-56.4	3.7	1.49e+00	0	50	104	0	47	30235
2026-01-10 09:20:03.05	138.51	6.94	-40.5	-56.4	3.7	1.49e+00	0	50	104	0	53	21317
2026-01-10 09:20:04.06	138.47	7.01	-40.5	-56.5	3.6	1.49e+00	0	51	104	0	50	25656
2026-01-10 09:20:05.07	138.43	7.09	-38.5	-56.0	3.8	1.49e+00	0	51	104	0	49	25677
2026-01-10 09:20:06.08	138.39	7.16	-42.2	-56.6	3.8	1.49e+00	0	50	104	0	54	20696
2026-01-10 09:20:07.09	138.35	7.24	-42.2	-56.6	3.8	1.49e+00	0	51	104	0	54	20736
2026-01-10 09:20:08.10	138.31	7.32	-41.9	-56.6	3.8	1.49e+00	0	51	104	0	54	20733
2026-01-10 09:20:09.11	138.27	7.39	-38.8	-56.2	3.7	1.49e+00	0	51	104	0	49	26345
2026-01-10 09:20:10.12	138.23	7.47	-31.4	-50.3	4.1	1.50e+00	0	51	104	0	41	21230
2026-01-10 09:20:11.13	138.18	7.55	-39.8	-56.4	3.8	1.50e+00	0	51	104	0	52	22697
2026-01-10 09:20:12.14	138.14	7.63	-38.9	-56.6	3.7	1.49e+00	0	51	104	0	51	24601
2026-01-10 09:20:13.15	138.10	7.70	-41.7	-56.7	3.8	1.49e+00	0	51	104	0	54	20860
2026-01-10 09:20:14.16	138.06	7.78	-42.0	-56.6	3.8	1.49e+00	0	51	104	0	54	20564
2026-01-10 09:20:15.17	138.02	7.86	-42.2	-56.6	3.8	1.49e+00	0	51	104	0	55	19504
2026-01-10 09:20:16.18	137.98	7.94	-41.8	-56.6	3.8	1.49e+00	0	51	104	0	54	20678
2026-01-10 09:20:17.19	137.93	8.02	-42.2	-56.7	3.8	1.49e+00	0	51	104	0	55	19617
2026-01-10 09:20:18.20	137.89	8.10	-42.3	-57.2	3.8	1.49e+00	0	51	104	0	55	20812
2026-01-10 09:20:19.21	137.85	8.18	-42.0	-56.8	3.6	1.49e+00	0	51	104	0	54	21112
2026-01-10 09:20:20.22	137.80	8.26	-42.1	-56.7	3.8	1.49e+00	0	51	104	0	54	20828
2026-01-10 09:20:21.23	137.76	8.34	-41.5	-56.7	3.8	1.49e+00	0	51	104	0	55	19808
2026-01-10 09:20:22.24	137.72	8.42	-34.6	-55.7	3.8	1.49e+00	0	51	104	0	51	22220
2026-01-10 09:20:23.24	137.67	8.50	-41.5	-56.8	3.8	1.49e+00	0	51	104	0	54	21080
2026-01-10 09:20:24.26	137.63	8.58	-41.6	-56.3	4.1	1.49e+00	0	51	104	0	44	35556
2026-01-10 09:20:25.27	137.58	8.66	-42.1	-56.1	4.2	1.49e+00	0	51	104	0	50	24609
2026-01-10 09:20:26.28	137.54	8.74	-41.9	-56.9	3.9	1.49e+00	0	51	104	0	53	22599
2026-01-10 09:20:27.29	137.49	8.82	-42.0	-56.6	3.8	1.49e+00	0	51	104	0	54	20602
2026-01-10 09:20:28.30	137.45	8.90	-41.9	-56.5	3.8	1.49e+00	0	51	104	0	54	20391
2026-01-10 09:20:29.31	137.40	8.98	-42.0	-56.5	3.8	1.49e+00	0	52	104	0	54	20525
2026-01-10 09:20:30.31	137.36	9.06	-42.0	-56.5	3.8	1.49e+00	0	51	104	0	54	20396
2026-01-10 09:20:31.32	137.31	9.15	-42.0	-56.6	3.8	1.49e+00	0	52	104	0	54	20541
2026-01-10 09:20:32.33	137.26	9.23	-41.4	-56.7	3.8	1.49e+00	0	51	104	0	54	20832
2026-01-10 09:20:33.34	137.22	9.31	-41.7	-56.8	3.8	1.49e+00	0	52	104	0	54	21214
2026-01-10 09:20:34.35	137.17	9.39	-41.3	-55.6	3.9	1.49e+00	0	51	104	0	50	23153
2026-01-10 09:20:35.36	137.12	9.48	-40.5	-55.9	3.8	1.49e+00	0	52	104	0	54	19141
2026-01-10 09:20:36.37	137.07	9.56	-41.8	-56.2	3.6	1.49e+00	0	52	104	0	54	19659
2026-01-10 09:20:37.38	137.03	9.64	-42.3	-56.4	3.7	1.49e+00	0	52	104	0	54	20277
2026-01-10 09:20:38.39	136.98	9.73	-42.3	-57.5	3.9	1.50e+00	0	52	104	0	55	21576
2026-01-10 09:20:39.40	136.93	9.81	-41.7	-56.0	3.8	1.49e+00	0	52	104	0	54	19186
2026-01-10 09:20:40.40	136.88	9.90	-41.8	-56.4	3.8	1.49e+00	0	52	104	0	54	20149
2026-01-10 09:20:41.41	136.83	9.98	-42.5	-56.7	4.2	1.49e+00	0	52	104	0	55	19659
2026-01-10 09:20:42.42	136.78	10.07	-41.7	-55.5	3.8	1.49e+00	0	52	104	0	54	18126
2026-01-10 09:20:43.43	136.73	10.15	-42.0	-57.3	3.8	1.49e+00	0	52	104	0	56	20067
2026-01-10 09:20:44.44	136.68	10.24	-41.9	-56.9	3.9	1.49e+00	0	52	104	0	56	18980
2026-01-10 09:20:45.45	136.63	10.32	-42.8	-56.9	3.9	1.49e+00	0	52	104	0	56	19078
2026-01-10 09:20:46.46	136.58	10.41	-41.7	-56.3	3.9	1.49e+00	0	52	104	0	55	18863
2026-01-10 09:20:47.47	136.53	10.50	-43.1	-55.4	3.8	1.49e+00	0	52	104	0	56	15959
2026-01-10 09:20:48.48	136.48	10.58	-42.8	-52.8	4.8	1.18e+00	0	52	0	0	56	11894
2026-01-10 09:20:49.49	136.43	10.67	-41.5	-49.9	6.5	4.62e-01	0	52	0	2097152	55	9031
2026-01-10 09:20:50.49	136.38	10.76	-41.6	-47.5	8.9	1.34e-01	0	52	0	4194304	54	7269
2026-01-10 09:20:51.50	136.32	10.84	-41.2	-46.1	10.4	1.73e-02	0	52	0	5242880	53	6527
2026-01-10 09:20:52.51	136.27	10.93	-40.6	-45.2	11.2	9.08e-03	0	52	0	7340032	52	6238
2026-01-10 09:20:53.52	136.22	11.02	-40.6	-45.0	11.7	5.16e-03	0	52	0	8388608	52	6074
2026-01-10 09:20:54.53	136.17	11.11	-40.7	-45.1	11.4	8.59e-02	0	53	0	10485760	52	6158
2026-01-10 09:20:55.53	136.11	11.20	-39.6	-45.8	9.1	1.07e-02	0	53	0	12582912	43	11207
2026-01-10 09:20:56.54	136.06	11.29	-29.6	-44.2	6.6	1.81e-02	0	52	0	14680064	40	11104
2026-01-10 09:20:57.55	136.00	11.37	-33.1	-46.4	8.6	8.36e-02	0	52	0	16777216	47	9515
2026-01-10 09:20:58.55	135.95	11.46	-40.6	-47.6	6.6	2.36e-01	0	52	0	17825792	48	10321
2026-01-10 09:20:59.56	135.90	11.55	-40.1	-47.4	8.8	4.02e-02	0	52	0	19922944	52	8039
2026-01-10 09:21:00.57	135.84	11.64	-33.4	-46.8	7.9	4.39e-02	0	52	0	22020096	47	9971
2026-01-10 09:21:01.57	135.78	11.73	-40.2	-46.4	10.1	1.75e-02	0	52	0	24117248	52	7165
2026-01-10 09:21:02.58	135.73	11.82	-40.3	-45.0	11.7	7.63e-03	0	53	0	26214400	51	6428
2026-01-10 09:21:03.59	135.67	11.92	-36.9	-43.8	12.0	8.94e-03	0	53	0	27262976	50	5992
2026-01-10 09:21:04.60	135.62	12.01	-40.0	-43.4	13.3	5.44e-03	0	53	0	29360128	48	6352
2026-01-10 09:21:05.60	135.56	12.10	-39.6	-42.7	13.8	7.35e-03	0	53	0	31457280	49	5574
2026-01-10 09:21:06.61	135.50	12.19	-39.2	-42.3	14.2	9.17e-03	0	53	0	33554432	48	5621
2026-01-10 09:21:07.61	135.44	12.28	-39.7	-42.6	14.2	2.90e-03	0	53	0	35651584	49	5482
2026-01-10 09:21:08.62	135.39	12.37	-39.4	-42.6	14.0	9.38e-03	0	53	0	36700160	49	5465
2026-01-10 09:21:09.63	135.33	12.47	-36.8	-43.1	12.4	4.57e-03	0	53	0	38797312	48	6147
2026-01-10 09:21:10.64	135.27	12.56	-32.5	-43.2	11.4	1.60e-02	0	53	0	40894464	49	5885
2026-01-10 09:21:11.65	135.21	12.65	-39.1	-44.3	12.2	9.00e-03	0	53	0	42991616	50	6279
2026-01-10 09:21:12.65	135.15	12.75	-39.1	-45.0	11.3	2.21e-02	0	53	0	45088768	51	6484
2026-01-10 09:21:13.66	135.09	12.84	-39.7	-45.4	11.4	1.39e-02	0	53	0	46137344	51	6751
2026-01-10 09:21:14.67	135.03	12.94	-38.6	-45.4	10.5	1.12e-02	0	53	0	48234496	50	7157
2026-01-10 09:21:15.68	134.97	13.03	-40.4	-45.1	11.5	9.22e-03	0	53	0	50331648	51	6564
2026-01-10 09:21:16.68	134.91	13.13	-40.3	-44.4	11.7	8.27e-03	0	53	0	52428800	50	6402
2026-01-10 09:21:17.69	134.85	13.22	-39.9	-44.0	12.6	6.59e-03	0	53	0	54525952	51	5743
2026-01-10 09:21:18.70	134.78	13.32	-39.6	-43.3	12.4	1.04e-01	0	53	0	55574528	47	6720
2026-01-10 09:21:19.70	134.72	13.41	-39.6	-42.8	12.7	6.72e-02	0	53	0	57671680	49	5654
2026-01-10 09:21:20.71	134.66	13.51	-38.0	-43.0	11.9	5.84e-03	0	53	0	59768832	49	5775
2026-01-10 09:21:21.71	134.60	13.61	-39.5	-43.0	13.9	6.70e-03	0	53	0	61865984	49	5755
2026-01-10 09:21:22.72	134.53	13.70	-39.7	-43.1	13.4	7.35e-03	0	53	0	62914560	48	6132
2026-01-10 09:21:23.73	134.47	13.80	-40.0	-43.7	13.0	4.99e-03	0	53	0	65011712	50	5858
2026-01-10 09:21:24.73	134.40	13.90	-37.2	-44.1	10.5	2.35e-02	0	53	0	67108864	47	7333
2026-01-10 09:21:25.74	134.34	14.00	-38.5	-44.4	10.3	4.93e-02	0	53	0	69206016	48	7200
2026-01-10 09:21:26.75	134.27	14.10	-39.5	-44.9	11.7	6.32e-03	0	53	0	71303168	51	6359
2026-01-10 09:21:27.76	134.21	14.20	-40.0	-44.5	12.3	1.36e-02	0	53	0	73400320	52	5780
2026-01-10 09:21:28.77	134.14	14.30	-39.8	-44.4	12.4	8.30e-03	0	53	0	74448896	51	6024
2026-01-10 09:21:29.78	134.07	14.40	-39.1	-44.1	12.3	3.28e-03	0	53	0	76546048	50	6173
2026-01-10 09:21:30.79	134.00	14.50	-39.0	-43.0	9.1	4.67e-02	0	53	0	78643200	35	12879
2026-01-10 09:21:31.80	133.94	14.60	-39.9	-43.2	13.3	2.87e-02	0	53	0	80740352	50	5574
2026-01-10 09:21:32.80	133.87	14.70	-39.6	-43.0	13.2	3.18e-03	0	53	0	82837504	49	5763
2026-01-10 09:21:33.81	133.80	14.80	-39.8	-42.9	14.1	4.90e-03	0	53	0	83886080	50	5392
2026-01-10 09:21:34.82	133.73	14.90	-39.8	-43.1	13.3	3.09e-03	0	54	0	85983232	48	6186
2026-01-10 09:21:35.83	133.66	15.00	-39.2	-43.2	13.6	1.20e-02	0	53	0	88080384	50	5572
2026-01-10 09:21:36.84	133.59	15.10	-38.2	-43.9	11.7	3.34e-02	0	53	0	90177536	48	6742
2026-01-10 09:21:37.85	133.52	15.21	-39.5	-44.4	8.8	1.35e-01	0	53	0	92274688	42	10073
2026-01-10 09:21:38.85	133.45	15.31	-40.1	-44.4	12.3	1.30e-02	0	53	0	93323264	51	6004
2026-01-10 09:21:39.86	133.38	15.41	-39.3	-44.5	12.1	8.57e-03	0	53	0	95420416	51	6105
2026-01-10 09:21:40.87	133.30	15.52	-40.7	-44.3	13.0	4.04e-03	0	53	0	97517568	52	5637
2026-01-10 09:21:41.88	133.23	15.62	-39.8	-43.9	12.7	1.09e-03	0	53	0	99614720	51	5677
2026-01-10 09:21:42.88	133.16	15.73	-40.0	-43.5	13.8	4.81e-03	0	53	0	101711872	51	5448
2026-01-10 09:21:43.89	133.08	15.83	-38.8	-43.2	13.3	8.15e-03	0	53	0	102760448	49	5857
2026-01-10 09:21:44.90	133.01	15.94	-39.8	-43.1	14.0	3.28e-02	0	53	0	104857600	50	5479
2026-01-10 09:21:45.91	132.93	16.04	-40.1	-43.2	14.2	1.69e-03	0	53	0	106954752	51	5276
2026-01-10 09:21:46.91	132.86	16.15	-40.1	-43.4	14.1	5.37e-04	0	53	0	109051904	51	5396
2026-01-10 09:21:47.92	132.78	16.26	-40.5	-43.8	13.8	3.74e-04	0	54	0	111149056	51	5601
2026-01-10 09:21:48.93	132.70	16.36	-40.5	-44.2	13.0	3.69e-04	0	54	0	112197632	52	5577
2026-01-10 09:21:49.94	132.63	16.47	-40.4	-44.3	13.2	2.17e-03	0	54	0	114294784	52	5629
2026-01-10 09:21:50.94	132.55	16.58	-40.8	-44.3	13.2	1.15e-03	0	54	0	116391936	52	5610
2026-01-10 09:21:51.95	132.47	16.69	-40.1	-43.8	10.8	4.64e-02	0	54	0	118489088	42	9466
2026-01-10 09:21:52.96	132.39	16.80	-40.6	-44.0	13.5	1.70e-02	0	54	0	120586240	52	5438
2026-01-10 09:21:53.97	132.31	16.91	-40.4	-43.6	14.0	2.93e-04	0	54	0	121634816	51	5527
2026-01-10 09:21:54.97	132.23	17.02	-40.3	-43.5	14.2	3.39e-04	0	54	0	123731968	51	5420
2026-01-10 09:21:55.98	132.15	17.13	-40.3	-43.2	13.2	1.70e-04	0	54	0	125829120	51	5276
2026-01-10 09:21:56.99	132.07	17.24	-40.4	-43.2	14.5	6.71e-05	0	54	0	127926272	51	5277
2026-01-10 09:21:57.99	131.99	17.35	-40.2	-43.2	14.5	1.04e-04	0	54	0	130023424	51	5247
2026-01-10 09:21:59.00	131.91	17.46	-40.5	-43.5	14.3	6.02e-05	0	54	0	131072000	51	5419
2026-01-10 09:22:00.01	131.82	17.57	-40.5	-43.6	14.1	8.31e-05	0	53	0	133169152	52	5188
2026-01-10 09:22:01.02	131.74	17.69	-40.6	-43.6	14.1	1.62e-04	0	54	0	135266304	51	5499
2026-01-10 09:22:02.02	131.65	17.80	-40.6	-43.6	14.1	7.40e-05	0	54	0	137363456	52	5203
2026-01-10 09:22:03.03	131.57	17.91	-40.4	-43.6	14.2	6.33e-05	0	54	0	139460608	51	5503
2026-01-10 09:22:04.04	131.48	18.03	-40.5	-43.4	14.5	9.30e-05	0	54	0	140509184	51	5356
2026-01-10 09:22:05.04	131.40	18.14	-40.2	-43.1	14.7	3.72e-04	0	54	0	142606336	51	5177
2026-01-10 09:22:06.05	131.31	18.25	-40.1	-43.4	14.4	4.65e-05	0	54	0	144703488	51	5346
2026-01-10 09:22:07.06	131.22	18.37	-40.9	-43.3	14.7	3.28e-05	0	54	0	146800640	51	5315
2026-01-10 09:22:08.07	131.13	18.49	-40.5	-43.5	14.3	6.80e-06	0	54	0	148897792	51	5451
2026-01-10 09:22:09.08	131.04	18.60	-40.5	-43.6	14.1	1.56e-04	0	54	0	149946368	52	5215
2026-01-10 09:22:10.09	130.95	18.72	-40.7	-43.6	14.2	6.79e-05	0	54	0	152043520	52	5212
2026-01-10 09:22:11.09	130.86	18.84	-40.5	-43.5	14.2	4.11e-05	0	54	0	154140672	52	5131
2026-01-10 09:22:12.10	130.77	18.95	-40.6	-43.5	14.2	4.11e-05	0	54	0	156237824	52	5157
2026-01-10 09:22:13.11	130.68	19.07	-40.5	-43.4	14.4	6.80e-06	0	54	0	158334976	52	5053
2026-01-10 09:22:14.12	130.59	19.19	-40.6	-43.4	14.5	3.00e-06	0	54	0	159383552	51	5342
2026-01-10 09:22:15.13	130.49	19.31	-40.6	-43.4	14.5	9.90e-06	0	54	0	161480704	51	5346
2026-01-10 09:22:16.14	130.40	19.43	-40.5	-43.4	14.3	7.00e-07	0	54	0	163577856	52	5092
2026-01-10 09:22:17.15	130.30	19.55	-40.2	-43.8	13.9	3.80e-06	0	54	0	165675008	52	5297
2026-01-10 09:22:18.16	130.21	19.67	-40.8	-44.0	13.8	4.50e-06	0	54	0	167772160	52	5449
2026-01-10 09:22:19.17	130.11	19.79	-41.0	-44.2	13.6	9.90e-06	0	54	0	168820736	52	5583
2026-01-10 09:22:20.17	130.01	19.91	-41.1	-44.4	13.4	1.44e-05	0	54	0	170917888	52	5701
2026-01-10 09:22:21.18	129.91	20.04	-41.1	-44.3	13.6	1.37e-05	0	54	0	173015040	52	5597
2026-01-10 09:22:22.18	129.81	20.16	-41.0	-44.1	13.7	7.60e-06	0	54	0	175112192	52	5498
2026-01-10 09:22:23.19	129.71	20.28	-40.8	-43.8	14.1	7.00e-07	0	54	0	177209344	52	5300
2026-01-10 09:22:24.20	129.61	20.40	-40.9	-44.0	13.8	6.10e-06	0	54	0	178257920	52	5417
2026-01-10 09:22:25.21	129.51	20.53	-41.0	-44.1	13.8	8.30e-06	0	54	0	180355072	52	5469
2026-01-10 09:22:26.22	129.41	20.65	-41.1	-44.2	13.6	5.30e-06	0	54	0	182452224	52	5567
2026-01-10 09:22:27.22	129.31	20.78	-41.3	-44.7	13.1	1.37e-05	0	54	0	184549376	53	5586
2026-01-10 09:22:28.23	129.20	20.90	-41.4	-44.8	13.0	1.67e-05	0	54	0	186646528	53	5639
2026-01-10 09:22:29.24	129.10	21.03	-41.3	-44.6	13.2	1.75e-05	0	54	0	187695104	53	5523
2026-01-10 09:22:30.25	128.99	21.16	-41.4	-44.8	13.0	2.89e-05	0	54	0	189792256	53	5625
2026-01-10 09:22:31.26	128.88	21.28	-41.1	-44.2	13.6	2.13e-05	0	54	0	191889408	53	5259
2026-01-10 09:22:32.27	128.78	21.41	-40.8	-43.8	14.1	4.50e-06	0	54	0	193986560	53	5002
2026-01-10 09:22:33.27	128.67	21.54	-40.7	-43.6	14.4	7.00e-07	0	54	0	196083712	53	4876
2026-01-10 09:22:34.27	128.56	21.67	-40.8	-43.7	14.2	7.00e-07	0	54	0	197132288	53	4950
2026-01-10 09:22:35.28	128.45	21.80	-40.7	-43.5	14.4	1.50e-06	0	54	0	199229440	53	4848
2026-01-10 09:22:36.29	128.34	21.93	-40.8	-43.7	14.1	7.00e-07	0	54	0	201326592	53	4973
2026-01-10 09:22:37.30	128.22	22.06	-41.1	-44.2	13.6	5.30e-06	0	54	0	203423744	53	5267
2026-01-10 09:22:38.31	128.11	22.19	-41.0	-44.2	13.7	4.50e-06	0	54	0	205520896	53	5250
2026-01-10 09:22:39.32	128.00	22.32	-41.2	-44.4	13.5	1.14e-05	0	54	0	206569472	53	5368
2026-01-10 09:22:40.32	127.88	22.45	-41.0	-44.1	13.8	3.80e-06	0	54	0	208666624	53	5168
2026-01-10 09:22:41.33	127.77	22.59	-40.9	-43.9	14.0	5.30e-06	0	54	0	210763776	53	5054
2026-01-10 09:22:42.34	127.65	22.72	-41.0	-44.0	13.9	2.20e-06	0	54	0	212860928	53	5138
2026-01-10 09:22:43.35	127.53	22.85	-41.0	-44.1	13.8	2.20e-06	0	54	0	214958080	53	5202
2026-01-10 09:22:44.36	127.41	22.99	-41.1	-44.3	13.6	4.50e-06	0	54	0	216006656	53	5292
2026-01-10 09:22:45.36	127.29	23.12	-41.4	-44.8	13.1	1.29e-05	0	54	0	218103808	53	5641
2026-01-10 09:22:46.37	127.17	23.26	-41.3	-44.6	13.3	2.67e-05	0	54	0	220200960	53	5503
2026-01-10 09:22:47.38	127.04	23.40	-41.2	-44.5	13.4	1.83e-05	0	54	0	222298112	53	5432
2026-01-10 09:22:48.38	126.92	23.53	-41.3	-44.7	13.3	1.75e-05	0	54	0	224395264	53	5530
2026-01-10 09:22:49.39	126.80	23.67	-41.3	-44.6	13.3	1.98e-05	0	54	0	226492416	53	5489
2026-01-10 09:22:50.39	126.67	23.81	-41.3	-44.6	13.4	3.80e-06	0	54	0	227540992	53	5482
2026-01-10 09:22:51.40	126.54	23.95	-41.3	-44.5	13.4	1.37e-05	0	54	0	229638144	53	5456
2026-01-10 09:22:52.41	126.42	24.08	-41.4	-44.9	13.1	1.83e-05	0	54	0	231735296	53	5658
2026-01-10 09:22:53.41	126.29	24.22	-41.4	-44.8	13.2	1.83e-05	0	55	0	233832448	53	5593
2026-01-10 09:22:54.42	126.16	24.36	-41.2	-44.5	13.5	1.06e-05	0	54	0	234881024	53	5407
2026-01-10 09:22:55.43	126.02	24.50	-41.2	-44.4	13.6	9.10e-06	0	54	0	236978176	53	5383
2026-01-10 09:22:56.44	125.89	24.65	-41.1	-44.2	13.7	1.22e-05	0	55	0	239075328	53	5265
2026-01-10 09:22:57.45	125.76	24.79	-41.2	-44.5	13.5	1.29e-05	0	54	0	241172480	53	5409
2026-01-10 09:22:58.45	125.62	24.93	-41.6	-45.1	12.9	1.90e-05	0	55	0	243269632	53	5815
2026-01-10 09:22:59.46	125.49	25.07	-41.6	-45.2	12.7	3.58e-05	0	54	0	244318208	53	5923
2026-01-10 09:23:00.46	125.35	25.22	-41.8	-45.5	12.5	9.76e-05	0	54	0	246415360	54	5751
2026-01-10 09:23:01.48	125.21	25.36	-41.8	-45.5	12.5	1.69e-04	0	55	0	248512512	54	5735
2026-01-10 09:23:02.48	125.07	25.51	-41.6	-45.1	12.8	5.72e-05	0	55	0	250609664	54	5508
2026-01-10 09:23:03.49	124.93	25.65	-41.1	-44.2	13.7	1.44e-05	0	54	0	252706816	54	4938
2026-01-10 09:23:04.50	124.78	25.80	-41.1	-44.2	13.8	5.30e-06	0	55	0	254803968	54	4982
2026-01-10 09:23:05.51	124.64	25.95	-41.0	-44.0	14.0	5.30e-06	0	54	0	255852544	54	4864
2026-01-10 09:23:06.52	124.49	26.09	-41.4	-44.8	13.2	1.29e-05	0	54	0	257949696	54	5291
2026-01-10 09:23:07.53	124.34	26.24	-41.4	-44.7	13.3	1.22e-05	0	54	0	260046848	54	5242
2026-01-10 09:23:08.54	124.20	26.39	-41.3	-44.6	13.4	1.37e-05	0	54	0	262144000	54	5172
2026-01-10 09:23:09.55	124.04	26.54	-41.1	-44.2	13.8	1.06e-05	0	55	0	264241152	54	4981
2026-01-10 09:23:10.56	123.89	26.69	-41.1	-44.2	13.7	2.20e-06	0	55	0	265289728	54	4976
2026-01-10 09:23:11.56	123.74	26.84	-41.0	-44.0	14.0	7.00e-07	0	55	0	267386880	53	5118
2026-01-10 09:23:12.57	123.59	26.99	-40.8	-43.7	14.3	7.00e-07	0	55	0	269484032	53	4955
2026-01-10 09:23:13.58	123.43	27.14	-41.1	-44.2	13.8	3.80e-06	0	55	0	271581184	53	5242
2026-01-10 09:23:14.59	123.27	27.30	-41.2	-44.4	13.5	9.90e-06	0	55	0	273678336	53	5368
2026-01-10 09:23:15.60	123.11	27.45	-41.2	-44.4	13.6	4.50e-06	0	55	0	274726912	53	5373
2026-01-10 09:23:16.60	122.95	27.60	-41.2	-44.4	13.6	1.60e-05	0	55	0	276824064	53	5357
2026-01-10 09:23:17.61	122.79	27.76	-41.0	-44.0	13.9	1.44e-05	0	55	0	278921216	53	5158
2026-01-10 09:23:18.62	122.63	27.91	-41.0	-44.0	14.0	3.00e-06	0	54	0	281018368	53	5144
2026-01-10 09:23:19.62	122.46	28.07	-41.1	-44.2	13.8	2.20e-06	0	55	0	283115520	53	5257
2026-01-10 09:23:20.63	122.30	28.22	-41.1	-44.1	13.9	3.80e-06	0	55	0	284164096	53	5207
2026-01-10 09:23:21.64	122.13	28.38	-41.3	-44.6	13.4	1.14e-05	0	54	0	286261248	53	5500
2026-01-10 09:23:22.65	121.96	28.54	-41.6	-45.1	12.9	4.42e-05	0	55	0	288358400	53	5802
2026-01-10 09:23:23.65	121.78	28.69	-41.5	-44.9	13.1	2.36e-05	0	54	0	290455552	53	5709
2026-01-10 09:23:24.66	121.61	28.85	-41.5	-44.9	13.1	3.89e-05	0	55	0	292552704	53	5711
2026-01-10 09:23:25.66	121.44	29.01	-41.5	-44.9	13.2	3.05e-05	0	55	0	293601280	54	5359
2026-01-10 09:23:26.67	121.26	29.17	-41.5	-44.9	13.2	2.97e-05	0	55	0	295698432	54	5356
2026-01-10 09:23:27.68	121.08	29.33	-41.7	-45.2	12.8	3.58e-05	0	55	0	297795584	54	5572
2026-01-10 09:23:28.68	120.90	29.49	-41.5	-44.9	13.1	4.19e-05	0	55	0	299892736	54	5389
2026-01-10 09:23:29.69	120.72	29.65	-41.4	-44.6	13.4	1.29e-05	0	55	0	301989888	54	5217
2026-01-10 09:23:30.70	120.53	29.81	-41.2	-44.4	13.7	9.10e-06	0	55	0	303038464	54	5044
2026-01-10 09:23:31.70	120.35	29.97	-41.2	-44.2	13.9	9.90e-06	0	55	0	305135616	54	4953
2026-01-10 09:23:32.71	120.16	30.14	-41.3	-44.5	13.5	3.00e-06	0	55	0	307232768	54	5119
2026-01-10 09:23:33.71	119.97	30.30	-41.3	-44.5	13.5	1.14e-05	0	55	0	309329920	54	5128
2026-01-10 09:23:34.72	119.78	30.46	-41.5	-44.8	13.3	7.60e-06	0	55	0	311427072	54	5317
2026-01-10 09:23:35.73	119.58	30.63	-41.6	-44.9	13.1	2.21e-05	0	55	0	312475648	54	5393
2026-01-10 09:23:36.73	119.39	30.79	-41.7	-45.1	12.9	3.96e-05	0	55	0	314572800	54	5516
2026-01-10 09:23:37.74	119.19	30.96	-41.7	-45.2	12.8	3.73e-05	0	55	0	316669952	54	5580
2026-01-10 09:23:38.75	118.99	31.13	-41.8	-45.4	12.7	4.65e-05	0	55	0	318767104	54	5663
2026-01-10 09:23:39.76	118.79	31.29	-42.0	-45.7	12.3	1.36e-04	0	55	0	320864256	54	5894
2026-01-10 09:23:40.77	118.58	31.46	-42.0	-45.7	12.3	1.27e-04	0	55	0	321912832	54	5878
2026-01-10 09:23:41.78	118.37	31.63	-42.0	-45.7	12.3	1.20e-04	0	55	0	324009984	54	5915
2026-01-10 09:23:42.79	118.16	31.80	-42.2	-46.1	12.0	2.50e-04	0	55	0	326107136	54	6145
2026-01-10 09:23:43.79	117.95	31.97	-42.0	-45.7	12.3	3.13e-04	0	55	0	328204288	54	5895
2026-01-10 09:23:44.79	117.74	32.13	-42.0	-45.8	12.2	2.48e-04	0	55	0	330301440	54	5971
2026-01-10 09:23:45.80	117.53	32.31	-41.9	-45.6	12.5	1.46e-04	0	55	0	331350016	54	5793
2026-01-10 09:23:46.81	117.31	32.48	-41.9	-45.5	12.5	8.01e-05	0	55	0	333447168	54	5765
2026-01-10 09:23:47.82	117.09	32.65	-41.8	-45.4	12.7	9.61e-05	0	55	0	335544320	54	5692
2026-01-10 09:23:48.83	116.86	32.82	-41.9	-45.6	12.4	1.28e-04	0	55	0	337641472	54	5818
2026-01-10 09:23:49.84	116.64	32.99	-41.9	-45.6	12.4	1.38e-04	0	55	0	339738624	54	5839
2026-01-10 09:23:50.84	116.41	33.16	-41.9	-45.6	12.4	1.55e-04	0	55	0	340787200	54	5828
2026-01-10 09:23:51.85	116.18	33.34	-41.7	-45.1	13.0	1.37e-04	0	55	0	342884352	54	5528
2026-01-10 09:23:52.86	115.95	33.51	-42.0	-45.7	12.3	1.68e-04	0	55	0	344981504	54	5916
2026-01-10 09:23:53.87	115.72	33.68	-42.2	-46.2	11.9	3.33e-04	0	55	0	347078656	55	5878
2026-01-10 09:23:54.88	115.48	33.86	-42.3	-46.3	11.7	4.62e-04	0	55	0	349175808	55	5986
2026-01-10 09:23:55.89	115.24	34.03	-42.2	-46.2	11.9	4.82e-04	0	55	0	350224384	55	5875
2026-01-10 09:23:56.90	114.99	34.21	-42.1	-45.9	12.2	2.82e-04	0	55	0	352321536	55	5676
2026-01-10 09:23:57.90	114.75	34.38	-42.0	-45.7	12.4	1.33e-04	0	55	0	354418688	55	5545
2026-01-10 09:23:58.91	114.50	34.56	-41.9	-45.6	12.5	8.08e-05	0	55	0	356515840	55	5503
2026-01-10 09:23:59.92	114.25	34.74	-41.8	-45.4	12.7	7.55e-05	0	55	0	358612992	55	5361
2026-01-10 09:24:00.93	114.00	34.91	-41.7	-45.1	13.0	9.46e-05	0	55	0	359661568	55	5202
2026-01-10 09:24:01.94	113.74	35.09	-41.8	-45.3	12.8	5.79e-05	0	55	0	361758720	55	5307
2026-01-10 09:24:02.95	113.48	35.27	-42.0	-45.8	12.3	9.68e-05	0	55	0	363855872	55	5593
2026-01-10 09:24:03.96	113.22	35.45	-42.1	-46.0	12.1	2.71e-04	0	55	0	365953024	55	5759
2026-01-10 09:24:04.96	112.96	35.62	-42.4	-46.6	11.4	8.07e-04	0	55	0	368050176	55	6168
2026-01-10 09:24:05.97	112.69	35.80	-43.0	-47.9	10.3	4.38e-03	0	55	0	369098752	56	6799
2026-01-10 09:24:06.98	112.42	35.98	-43.1	-48.1	10.1	5.14e-03	0	55	0	371195904	56	6900
2026-01-10 09:24:07.99	112.14	36.16	-42.9	-47.5	10.7	5.92e-03	0	55	0	373293056	56	6446
2026-01-10 09:24:08.99	111.87	36.34	-43.0	-47.9	10.3	3.99e-03	0	55	0	375390208	56	6735
2026-01-10 09:24:10.00	111.59	36.52	-42.8	-47.4	10.8	4.05e-03	0	55	0	377487360	56	6385
2026-01-10 09:24:11.00	111.31	36.70	-42.6	-46.9	11.3	2.52e-03	0	55	0	378535936	56	6020
2026-01-10 09:24:12.01	111.02	36.88	-42.5	-46.6	11.6	1.05e-03	0	55	0	380633088	56	5831
2026-01-10 09:24:13.02	110.73	37.06	-42.4	-46.4	11.9	5.23e-04	0	55	0	382730240	56	5688
2026-01-10 09:24:14.02	110.44	37.23	-42.1	-45.8	12.6	1.60e-04	0	55	0	384827392	56	5315
2026-01-10 09:24:15.03	110.15	37.42	-42.3	-46.2	12.1	2.53e-04	0	55	0	386924544	56	5559
2026-01-10 09:24:16.03	109.85	37.59	-42.1	-45.7	12.5	2.06e-04	0	55	0	387973120	56	5273
2026-01-10 09:24:17.04	109.55	37.77	-42.1	-45.7	12.6	9.91e-05	0	55	0	390070272	56	5233
2026-01-10 09:24:18.05	109.24	37.96	-41.5	-44.7	13.4	3.50e-05	0	55	0	392167424	54	5259
2026-01-10 09:24:19.05	108.93	38.13	-41.7	-45.2	13.0	1.98e-05	0	55	0	394264576	54	5548
2026-01-10 09:24:20.06	108.62	38.31	-42.0	-45.8	12.3	7.17e-05	0	55	0	396361728	54	5932
2026-01-10 09:24:21.06	108.31	38.49	-42.1	-45.9	12.2	1.54e-04	0	55	0	397410304	54	6006
2026-01-10 09:24:22.07	107.99	38.67	-41.7	-45.1	13.1	4.88e-05	0	55	0	399507456	54	5506
2026-01-10 09:24:23.08	107.66	38.85	-41.6	-44.9	13.3	1.37e-05	0	55	0	401604608	54	5343
2026-01-10 09:24:24.09	107.34	39.03	-42.0	-45.6	12.5	2.51e-05	0	55	0	403701760	54	5827
2026-01-10 09:24:25.10	107.00	39.21	-42.1	-45.9	12.2	2.17e-04	0	55	0	405798912	54	6026
2026-01-10 09:24:26.10	106.67	39.39	-42.0	-45.8	12.4	2.08e-04	0	55	0	406847488	54	5951
2026-01-10 09:24:27.11	106.33	39.57	-42.1	-45.9	12.1	2.27e-04	0	55	0	408944640	55	5717
2026-01-10 09:24:28.12	105.99	39.75	-42.4	-46.7	11.4	3.95e-04	0	55	0	411041792	55	6222
2026-01-10 09:24:29.12	105.65	39.93	-42.5	-46.9	11.3	1.41e-03	0	55	0	413138944	55	6380
2026-01-10 09:24:30.13	105.30	40.11	-42.4	-46.5	11.6	9.02e-04	0	55	0	415236096	55	6100
2026-01-10 09:24:31.14	104.95	40.29	-42.1	-46.0	12.1	4.52e-04	0	55	0	416284672	55	5724
2026-01-10 09:24:32.14	104.59	40.46	-42.1	-45.9	12.3	1.33e-04	0	55	0	418381824	55	5667
2026-01-10 09:24:33.15	104.23	40.64	-41.9	-45.5	12.6	9.15e-05	0	55	0	420478976	55	5438
2026-01-10 09:24:34.16	103.86	40.82	-41.9	-45.4	12.8	5.18e-05	0	55	0	422576128	55	5370
2026-01-10 09:24:35.17	103.50	41.00	-41.9	-45.5	12.6	6.71e-05	0	55	0	424673280	55	5435
2026-01-10 09:24:36.18	103.12	41.17	-42.1	-45.9	12.2	1.21e-04	0	55	0	425721856	55	5695
2026-01-10 09:24:37.19	102.74	41.35	-42.3	-46.3	11.9	2.39e-04	0	55	0	427819008	55	5933
2026-01-10 09:24:38.20	102.36	41.53	-42.0	-45.7	12.5	1.41e-04	0	55	0	429916160	55	5544
2026-01-10 09:24:39.21	101.98	41.70	-41.5	-44.8	13.3	3.28e-05	0	55	0	432013312	55	5004
2026-01-10 09:24:40.22	101.59	41.87	-41.5	-44.7	13.5	2.05e-05	0	55	0	434110464	54	5252
2026-01-10 09:24:41.23	101.19	42.05	-41.6	-44.8	13.4	1.22e-05	0	55	0	436207616	54	5309
2026-01-10 09:24:42.24	100.79	42.22	-41.9	-45.4	12.7	3.35e-05	0	55	0	437256192	54	5699
2026-01-10 09:24:43.25	100.39	42.39	-42.1	-45.8	12.4	7.01e-05	0	55	0	439353344	54	5933
2026-01-10 09:24:44.25	99.98	42.56	-42.1	-45.9	12.3	1.63e-04	0	55	0	441450496	54	6053
2026-01-10 09:24:45.26	99.57	42.73	-42.1	-45.9	12.3	2.50e-04	0	55	0	443547648	55	5680
2026-01-10 09:24:46.27	99.16	42.90	-42.3	-46.3	11.8	4.15e-04	0	55	0	444596224	55	5989
2026-01-10 09:24:47.27	98.74	43.07	-42.6	-47.0	11.1	6.96e-04	0	55	0	446693376	55	6492
2026-01-10 09:24:48.28	98.32	43.24	-42.5	-46.8	11.4	1.32e-03	0	55	0	448790528	55	6303
2026-01-10 09:24:49.29	97.89	43.40	-42.1	-45.9	12.2	4.22e-04	0	55	0	450887680	55	5712
2026-01-10 09:24:50.30	97.45	43.57	-41.2	-44.2	14.0	2.97e-05	0	55	0	452984832	54	4957
2026-01-10 09:24:51.30	97.02	43.73	-40.5	-43.4	14.6	0.00e+00	0	55	0	454033408	53	4799
2026-01-10 09:24:52.31	96.57	43.89	-40.2	-42.8	15.3	0.00e+00	0	55	0	456130560	52	4733
2026-01-10 09:24:53.32	96.13	44.05	-40.0	-42.5	15.7	0.00e+00	0	55	0	458227712	51	4850
2026-01-10 09:24:54.32	95.68	44.21	-39.8	-42.2	16.0	0.00e+00	0	55	0	460324864	51	4667
2026-01-10 09:24:55.33	95.22	44.37	-40.2	-42.8	15.4	0.00e+00	0	55	0	462422016	51	5034
2026-01-10 09:24:56.34	94.76	44.53	-41.1	-44.3	13.8	0.00e+00	0	55	0	464519168	52	5638
2026-01-10 09:24:57.35	94.30	44.69	-41.6	-45.4	12.7	1.22e-05	0	55	0	465567744	53	6042
2026-01-10 09:24:58.35	93.83	44.84	-41.3	-44.9	13.2	7.24e-05	0	55	0	467664896	53	5685
2026-01-10 09:24:59.36	93.36	44.99	-41.6	-45.5	12.5	4.80e-05	0	55	0	469762048	53	6088
2026-01-10 09:25:00.37	92.88	45.14	-41.4	-45.0	13.0	5.34e-05	0	55	0	471859200	53	5784
2026-01-10 09:25:01.37	92.40	45.29	-41.5	-45.2	12.9	2.36e-05	0	55	0	472907776	53	5882
2026-01-10 09:25:02.38	91.91	45.44	-41.4	-45.0	13.1	2.05e-05	0	55	0	475004928	53	5777
2026-01-10 09:25:03.39	91.42	45.58	-41.3	-44.9	13.2	2.21e-05	0	55	0	477102080	53	5715
2026-01-10 09:25:04.39	90.92	45.73	-41.2	-44.5	13.7	1.37e-05	0	55	0	479199232	53	5464
2026-01-10 09:25:05.40	90.42	45.87	-41.1	-44.4	13.7	2.20e-06	0	55	0	481296384	53	5398
2026-01-10 09:25:06.41	89.91	46.01	-41.2	-44.5	13.6	1.50e-06	0	55	0	482344960	53	5463
2026-01-10 09:25:07.42	89.40	46.15	-41.2	-44.5	13.7	6.10e-06	0	55	0	484442112	53	5441
2026-01-10 09:25:08.42	88.89	46.28	-40.9	-44.0	14.3	1.50e-06	0	55	0	486539264	53	5136
2026-01-10 09:25:09.43	88.37	46.42	-40.4	-43.1	15.0	0.00e+00	0	55	0	488636416	52	4914
2026-01-10 09:25:10.44	87.85	46.55	-40.6	-43.5	14.6	0.00e+00	0	55	0	490733568	52	5134
2026-01-10 09:25:11.44	87.32	46.68	-40.8	-43.9	14.4	2.20e-06	0	55	0	492830720	52	5364
2026-01-10 09:25:12.45	86.79	46.81	-41.2	-44.6	13.5	3.80e-06	0	55	0	493879296	53	5524
2026-01-10 09:25:13.46	86.25	46.93	-41.8	-45.7	12.3	9.23e-05	0	55	0	495976448	54	5910
2026-01-10 09:25:14.47	85.71	47.05	-42.3	-46.9	11.1	1.06e-03	0	55	0	498073600	55	6402
2026-01-10 09:25:15.48	85.17	47.17	-42.2	-46.8	11.3	9.92e-04	0	55	0	500170752	55	6301
2026-01-10 09:25:16.48	84.62	47.29	-42.4	-47.3	10.7	2.40e-03	0	55	0	502267904	55	6701
2026-01-10 09:25:17.49	84.07	47.40	-43.2	-49.3	8.9	2.04e-02	0	55	0	503316480	56	7967
2026-01-10 09:25:18.50	83.51	47.52	-43.5	-50.8	7.4	9.23e-02	0	55	0	505413632	57	8918
2026-01-10 09:25:19.50	82.95	47.63	-43.3	-50.1	8.3	1.10e-01	0	55	0	507510784	57	8235
2026-01-10 09:25:20.51	82.39	47.73	-43.0	-48.8	9.3	4.24e-02	0	55	0	509607936	57	7066
2026-01-10 09:25:21.52	81.82	47.84	-42.6	-48.0	10.2	7.15e-03	0	55	0	510656512	57	6435
2026-01-10 09:25:22.52	81.25	47.94	-42.7	-48.2	9.8	1.19e-02	0	55	0	512753664	57	6594
2026-01-10 09:25:23.53	80.67	48.04	-42.7	-48.1	10.1	1.37e-02	0	55	0	514850816	57	6516
2026-01-10 09:25:24.54	80.09	48.13	-42.4	-47.1	11.3	1.84e-03	0	55	0	516947968	56	6152
2026-01-10 09:25:25.54	79.51	48.22	-42.1	-46.5	11.7	1.19e-03	0	55	0	519045120	56	5760
2026-01-10 09:25:26.55	78.92	48.31	-41.7	-45.7	12.4	2.01e-04	0	56	0	521142272	55	5584
2026-01-10 09:25:27.56	78.33	48.40	-41.7	-45.7	12.3	1.44e-04	0	55	0	522190848	55	5537
2026-01-10 09:25:28.57	77.74	48.48	-41.5	-45.2	12.9	9.38e-05	0	55	0	524288000	54	5562
2026-01-10 09:25:29.57	77.14	48.56	-41.6	-45.4	12.7	4.95e-05	0	55	0	526385152	54	5679
2026-01-10 09:25:30.58	76.54	48.64	-41.7	-45.6	12.5	5.03e-05	0	55	0	528482304	54	5843
2026-01-10 09:25:31.59	75.94	48.71	-41.8	-46.0	12.1	1.56e-04	0	55	0	530579456	54	6127
2026-01-10 09:25:32.59	75.34	48.78	-41.6	-45.5	12.6	9.07e-05	0	55	0	531628032	54	5787
2026-01-10 09:25:33.60	74.73	48.85	-40.9	-44.3	13.8	2.28e-05	0	55	0	533725184	53	5291
2026-01-10 09:25:34.60	74.12	48.91	-40.9	-44.3	13.9	5.30e-06	0	55	0	535822336	53	5293
2026-01-10 09:25:35.61	73.51	48.97	-40.9	-44.3	13.9	3.80e-06	0	55	0	537919488	53	5285
2026-01-10 09:25:36.62	72.89	49.03	-40.8	-44.2	14.0	1.37e-05	0	55	0	538968064	53	5222
2026-01-10 09:25:37.62	72.28	49.08	-40.8	-44.2	13.9	1.50e-06	0	55	0	541065216	53	5246
2026-01-10 09:25:38.63	71.66	49.13	-40.4	-43.4	14.6	2.20e-06	0	55	0	543162368	52	5098
2026-01-10 09:25:39.64	71.04	49.17	-40.1	-43.1	15.1	0.00e+00	0	55	0	545259520	52	4872
2026-01-10 09:25:40.65	70.41	49.22	-39.8	-42.4	15.8	0.00e+00	0	55	0	547356672	51	4770
2026-01-10 09:25:41.65	69.79	49.25	-39.7	-42.3	15.8	0.00e+00	0	55	0	549453824	51	4731
2026-01-10 09:25:42.66	69.16	49.29	-39.8	-42.5	15.7	0.00e+00	0	55	0	550502400	51	4828
2026-01-10 09:25:43.67	68.53	49.32	-40.2	-43.0	15.2	0.00e+00	0	55	0	552599552	51	5137
2026-01-10 09:25:44.68	67.90	49.35	-40.6	-43.8	14.3	4.50e-06	0	55	0	554696704	52	5314
2026-01-10 09:25:45.69	67.27	49.37	-41.1	-44.7	13.6	6.10e-06	0	55	0	556793856	52	5868
2026-01-10 09:25:46.70	66.64	49.39	-41.2	-45.0	13.0	1.98e-05	0	55	0	558891008	53	5742
2026-01-10 09:25:47.71	66.01	49.41	-41.4	-45.4	12.6	8.62e-05	0	55	0	559939584	53	6028
2026-01-10 09:25:48.72	65.37	49.42	-41.2	-45.1	13.0	9.91e-05	0	56	0	562036736	53	5807
2026-01-10 09:25:49.73	64.74	49.43	-40.8	-44.3	13.7	2.13e-05	0	55	0	564133888	53	5319
2026-01-10 09:25:50.74	64.11	49.44	-40.7	-44.1	13.9	3.80e-06	0	56	0	566231040	53	5192
2026-01-10 09:25:51.75	63.47	49.44	-41.0	-44.7	13.3	6.80e-06	0	55	0	568328192	53	5568
2026-01-10 09:25:52.75	62.84	49.43	-41.4	-45.5	12.5	3.58e-05	0	55	0	569376768	53	6071
2026-01-10 09:25:53.76	62.21	49.43	-41.3	-45.4	12.7	1.01e-04	0	55	0	571473920	53	5994
2026-01-10 09:25:54.77	61.58	49.42	-40.8	-44.3	13.8	5.30e-06	0	55	0	573571072	53	5297
2026-01-10 09:25:55.78	60.94	49.40	-40.2	-43.2	14.9	1.50e-06	0	56	0	575668224	52	4952
2026-01-10 09:25:56.79	60.31	49.39	-40.0	-42.7	15.4	0.00e+00	0	55	0	577765376	51	4975
2026-01-10 09:25:57.79	59.68	49.37	-40.2	-43.1	15.1	0.00e+00	0	55	0	578813952	51	5202
2026-01-10 09:25:58.80	59.05	49.34	-40.2	-43.2	15.0	7.00e-07	0	55	0	580911104	51	5221
2026-01-10 09:25:59.81	58.42	49.31	-39.9	-42.6	15.6	0.00e+00	0	55	0	583008256	51	4886
2026-01-10 09:26:00.82	57.80	49.28	-40.0	-42.8	15.3	0.00e+00	0	55	0	585105408	51	5009
2026-01-10 09:26:01.82	57.18	49.25	-40.5	-43.6	14.6	0.00e+00	0	56	0	587202560	51	5485
2026-01-10 09:26:02.83	56.55	49.21	-40.7	-44.1	14.0	1.50e-06	0	55	0	588251136	52	5511
2026-01-10 09:26:03.84	55.93	49.16	-40.6	-43.9	14.2	0.00e+00	0	55	0	590348288	52	5383
2026-01-10 09:26:04.85	55.30	49.12	-40.9	-44.5	13.7	3.80e-06	0	55	0	592445440	52	5735
2026-01-10 09:26:05.86	54.68	49.07	-41.3	-45.2	12.9	9.10e-06	0	55	0	594542592	53	5877
2026-01-10 09:26:06.86	54.07	49.01	-40.9	-44.5	13.6	4.42e-05	0	55	0	596639744	53	5453
2026-01-10 09:26:07.87	53.46	48.96	-40.6	-43.8	14.3	1.50e-06	0	55	0	597688320	53	5027
2026-01-10 09:26:08.88	52.84	48.90	-40.6	-44.0	14.1	2.20e-06	0	56	0	599785472	53	5105
2026-01-10 09:26:09.89	52.23	48.83	-41.2	-44.9	13.2	7.00e-07	0	56	0	601882624	53	5715
2026-01-10 09:26:10.90	51.62	48.76	-41.4	-45.3	12.8	1.29e-04	0	56	0	603979776	53	5973
2026-01-10 09:26:11.90	51.03	48.69	-41.4	-45.2	12.9	2.97e-05	0	55	0	606076928	53	5921
2026-01-10 09:26:12.91	50.42	48.62	-41.4	-45.2	12.9	4.19e-05	0	55	0	607125504	53	5908
2026-01-10 09:26:13.92	49.82	48.54	-41.4	-45.3	12.9	2.51e-05	0	56	0	609222656	53	5974
2026-01-10 09:26:14.93	49.23	48.46	-41.3	-45.1	13.1	5.11e-05	0	55	0	611319808	53	5830
2026-01-10 09:26:15.93	48.64	48.38	-41.3	-45.0	13.1	1.06e-05	0	55	0	613416960	53	5781
2026-01-10 09:26:16.94	48.05	48.29	-41.1	-44.6	13.6	6.10e-06	0	55	0	615514112	53	5490
2026-01-10 09:26:17.95	47.46	48.20	-41.4	-45.3	13.0	2.36e-05	0	55	0	616562688	53	5946
2026-01-10 09:26:18.96	46.88	48.11	-42.1	-46.8	11.4	4.31e-04	0	55	0	618659840	54	6650
2026-01-10 09:26:19.97	46.30	48.01	-42.3	-47.2	10.9	1.11e-03	0	55	0	620756992	55	6574
2026-01-10 09:26:20.97	45.73	47.92	-41.6	-45.4	12.7	5.06e-04	0	55	0	622854144	55	5389
2026-01-10 09:26:21.98	45.16	47.81	-41.7	-45.7	12.5	1.17e-04	0	55	0	624951296	55	5547
2026-01-10 09:26:22.99	44.59	47.71	-41.3	-44.8	13.4	7.17e-05	0	56	0	625999872	54	5306
2026-01-10 09:26:23.99	44.03	47.60	-41.7	-45.6	12.7	5.49e-05	0	55	0	628097024	54	5813
2026-01-10 09:26:25.00	43.47	47.49	-41.9	-46.1	12.1	1.88e-04	0	55	0	630194176	54	6140
2026-01-10 09:26:26.01	42.91	47.38	-41.9	-46.2	11.9	3.89e-04	0	56	0	632291328	54	6267
2026-01-10 09:26:27.01	42.37	47.27	-41.5	-45.4	12.8	6.63e-05	0	56	0	634388480	54	5682
2026-01-10 09:26:28.02	41.82	47.15	-41.5	-45.5	12.7	6.71e-05	0	55	0	635437056	54	5724
2026-01-10 09:26:29.03	41.28	47.03	-41.7	-45.8	12.4	1.02e-04	0	55	0	637534208	54	5940
2026-01-10 09:26:30.03	40.74	46.91	-41.7	-45.7	12.6	1.83e-04	0	55	0	639631360	54	5870
2026-01-10 09:26:31.04	40.21	46.78	-41.7	-45.8	12.5	1.15e-04	0	55	0	641728512	54	5946
2026-01-10 09:26:32.05	39.67	46.65	-41.7	-45.7	12.6	1.96e-04	0	55	0	643825664	54	5920
2026-01-10 09:26:33.05	39.15	46.52	-41.5	-45.4	12.8	9.46e-05	0	55	0	644874240	54	5695
2026-01-10 09:26:34.06	38.63	46.39	-41.7	-45.7	12.4	7.70e-05	0	56	0	646971392	54	5912
2026-01-10 09:26:35.06	38.12	46.26	-41.7	-45.8	12.4	2.39e-04	0	55	0	649068544	54	5942
2026-01-10 09:26:36.07	37.60	46.12	-41.4	-45.1	13.0	6.40e-05	0	56	0	651165696	54	5501
2026-01-10 09:26:37.08	37.10	45.98	-40.7	-44.0	14.2	4.50e-06	0	56	0	653262848	53	5108
2026-01-10 09:26:38.09	36.59	45.84	-40.8	-44.1	14.2	1.50e-06	0	56	0	654311424	53	5173
2026-01-10 09:26:39.09	36.10	45.70	-41.0	-44.4	13.8	5.30e-06	0	56	0	656408576	53	5363
2026-01-10 09:26:40.10	35.60	45.56	-41.1	-44.5	13.8	6.80e-06	0	56	0	658505728	53	5429
2026-01-10 09:26:41.11	35.11	45.41	-41.0	-44.2	14.1	7.00e-07	0	55	0	660602880	53	5239
2026-01-10 09:26:42.11	34.63	45.27	-41.2	-44.6	13.7	1.50e-06	0	55	0	662700032	53	5489
2026-01-10 09:26:43.12	34.15	45.12	-41.8	-45.8	12.4	2.05e-05	0	56	0	663748608	54	5943
2026-01-10 09:26:44.13	33.67	44.97	-42.4	-47.2	10.9	8.29e-04	0	56	0	665845760	55	6580
2026-01-10 09:26:45.13	33.20	44.81	-41.9	-45.9	12.2	7.32e-04	0	55	0	667942912	55	5699
2026-01-10 09:26:46.14	32.73	44.66	-41.4	-44.8	13.4	9.61e-05	0	56	0	670040064	54	5329
2026-01-10 09:26:47.15	32.27	44.50	-41.3	-44.6	13.7	6.80e-06	0	55	0	672137216	54	5190
2026-01-10 09:26:48.15	31.81	44.35	-42.1	-46.3	11.9	9.61e-05	0	56	0	673185792	54	6296
2026-01-10 09:26:49.16	31.36	44.19	-42.7	-47.6	10.7	1.39e-03	0	56	0	675282944	55	6909
2026-01-10 09:26:50.17	30.91	44.03	-42.7	-47.4	11.0	2.51e-03	0	55	0	677380096	56	6367
2026-01-10 09:26:51.17	30.47	43.87	-41.9	-45.7	12.6	9.15e-05	0	55	0	679477248	55	5580
2026-01-10 09:26:52.18	30.03	43.71	-41.4	-44.8	13.6	3.43e-05	0	55	0	681574400	54	5286
2026-01-10 09:26:53.19	29.59	43.54	-41.6	-45.1	13.2	1.52e-05	0	56	0	682622976	54	5513
2026-01-10 09:26:54.19	29.16	43.38	-41.3	-44.7	13.6	1.44e-05	0	55	0	684720128	54	5231
2026-01-10 09:26:55.20	28.74	43.21	-40.8	-43.7	14.5	4.50e-06	0	55	0	686817280	53	4967
2026-01-10 09:26:56.21	28.31	43.05	-40.7	-43.7	14.6	7.00e-07	0	55	0	688914432	53	4937
2026-01-10 09:26:57.21	27.90	42.88	-40.9	-44.0	14.3	1.50e-06	0	56	0	691011584	53	5130
2026-01-10 09:26:58.22	27.49	42.71	-41.0	-44.1	14.0	2.20e-06	0	56	0	692060160	53	5217
2026-01-10 09:26:59.23	27.08	42.54	-41.0	-44.2	14.1	7.00e-07	0	56	0	694157312	53	5269
2026-01-10 09:27:00.24	26.67	42.37	-41.0	-44.2	14.0	2.20e-06	0	55	0	696254464	53	5260
2026-01-10 09:27:01.25	26.27	42.20	-40.8	-43.9	14.4	0.00e+00	0	56	0	698351616	53	5053
2026-01-10 09:27:02.25	25.88	42.03	-40.9	-44.0	14.2	2.20e-06	0	55	0	700448768	53	5147
2026-01-10 09:27:03.26	25.48	41.86	-41.4	-44.9	13.4	3.80e-06	0	55	0	701497344	53	5708
2026-01-10 09:27:04.27	25.10	41.68	-41.8	-45.6	12.7	9.38e-05	0	55	0	703594496	54	5807
2026-01-10 09:27:05.28	24.71	41.51	-42.6	-47.6	10.6	1.12e-03	0	55	0	705691648	55	6908
2026-01-10 09:27:06.28	24.34	41.34	-42.8	-47.9	10.4	5.48e-03	0	56	0	707788800	56	6761
2026-01-10 09:27:07.29	23.96	41.16	-43.1	-48.7	9.6	7.97e-03	0	55	0	709885952	56	7372
2026-01-10 09:27:08.30	23.59	40.98	-42.9	-48.2	10.1	7.67e-03	0	56	0	710934528	56	6969
2026-01-10 09:27:09.30	23.22	40.81	-43.1	-48.6	9.8	7.19e-03	0	56	0	713031680	56	7318
2026-01-10 09:27:10.31	22.86	40.63	-42.8	-47.6	10.7	5.34e-03	0	56	0	715128832	56	6552
2026-01-10 09:27:11.32	22.50	40.45	-42.7	-47.4	10.9	2.62e-03	0	55	0	717225984	56	6394
2026-01-10 09:27:12.32	22.15	40.28	-42.2	-46.2	12.2	6.14e-04	0	56	0	719323136	56	5543
2026-01-10 09:27:13.33	21.80	40.10	-42.1	-46.1	12.3	2.28e-04	0	56	0	720371712	56	5503
2026-01-10 09:27:14.34	21.45	39.92	-41.7	-45.3	13.0	4.27e-05	0	56	0	722468864	55	5308
2026-01-10 09:27:15.34	21.11	39.75	-41.9	-45.9	12.4	5.56e-05	0	56	0	724566016	55	5677
2026-01-10 09:27:16.35	20.77	39.57	-42.1	-46.3	12.0	3.18e-04	0	56	0	726663168	55	5958
2026-01-10 09:27:17.36	20.43	39.39	-42.4	-46.9	11.2	1.18e-03	0	56	0	728760320	55	6414
2026-01-10 09:27:18.36	20.10	39.21	-42.2	-46.5	11.6	7.22e-04	0	56	0	729808896	55	6123
2026-01-10 09:27:19.37	19.77	39.03	-41.8	-45.7	12.6	3.64e-04	0	56	0	731906048	55	5530
2026-01-10 09:27:20.37	19.45	38.85	-41.8	-45.6	12.7	5.87e-05	0	56	0	734003200	55	5478
2026-01-10 09:27:21.38	19.13	38.67	-41.9	-45.9	12.3	8.31e-05	0	56	0	736100352	55	5702
2026-01-10 09:27:22.39	18.81	38.49	-42.6	-47.4	10.8	3.69e-04	0	56	0	738197504	55	6775
2026-01-10 09:27:23.39	18.50	38.31	-43.2	-48.8	9.5	8.26e-03	0	56	0	739246080	56	7521
2026-01-10 09:27:24.40	18.19	38.13	-43.5	-50.2	8.0	3.14e-02	0	56	0	741343232	57	8274
2026-01-10 09:27:25.41	17.88	37.96	-43.4	-49.6	8.6	4.17e-02	0	56	0	743440384	57	7781
2026-01-10 09:27:26.41	17.58	37.78	-43.1	-48.9	9.3	2.25e-02	0	56	0	745537536	57	7123
2026-01-10 09:27:27.42	17.27	37.60	-42.7	-47.7	10.5	5.21e-03	0	56	0	747634688	57	6249
2026-01-10 09:27:28.43	16.98	37.42	-43.0	-48.5	9.8	6.51e-03	0	56	0	748683264	57	6811
2026-01-10 09:27:29.44	16.68	37.24	-43.2	-49.1	9.1	2.07e-02	0	56	0	750780416	57	7367
2026-01-10 09:27:30.44	16.39	37.06	-43.6	-50.8	7.3	6.01e-02	0	56	0	752877568	57	8934
2026-01-10 09:27:31.45	16.11	36.88	-43.2	-49.0	9.2	2.49e-02	0	56	0	754974720	57	7216
2026-01-10 09:27:32.46	15.82	36.70	-42.5	-46.9	11.4	8.24e-03	0	56	0	757071872	56	6049
2026-01-10 09:27:33.47	15.54	36.52	-41.9	-45.7	12.4	9.23e-05	0	56	0	758120448	55	5591
2026-01-10 09:27:34.48	15.26	36.34	-41.5	-44.9	13.3	2.67e-05	0	56	0	760217600	54	5390
2026-01-10 09:27:35.48	14.99	36.17	-41.2	-44.4	13.8	5.30e-06	0	56	0	762314752	54	5066
2026-01-10 09:27:36.49	14.72	35.99	-41.3	-44.5	13.7	4.50e-06	0	56	0	764411904	54	5133
2026-01-10 09:27:37.50	14.45	35.81	-41.0	-44.1	14.1	1.50e-06	0	56	0	766509056	53	5216
2026-01-10 09:27:38.51	14.18	35.63	-41.2	-44.5	13.7	1.50e-06	0	56	0	767557632	53	5435
2026-01-10 09:27:39.51	13.92	35.46	-41.7	-45.3	12.9	3.50e-05	0	56	0	769654784	53	5970
2026-01-10 09:27:40.52	13.66	35.28	-41.8	-45.6	12.6	4.95e-05	0	56	0	771751936	54	5847
2026-01-10 09:27:41.53	13.40	35.10	-41.8	-45.7	12.5	1.19e-04	0	56	0	773849088	54	5901
2026-01-10 09:27:42.54	13.14	34.93	-42.2	-46.6	11.6	2.46e-04	0	56	0	775946240	55	6141
2026-01-10 09:27:43.55	12.89	34.75	-42.9	-48.1	10.5	1.54e-03	0	56	0	776994816	56	6890
2026-01-10 09:27:44.56	12.64	34.57	-43.2	-48.8	9.5	7.76e-03	0	56	0	779091968	56	7459
2026-01-10 09:27:45.57	12.40	34.40	-43.3	-49.3	8.9	2.03e-02	0	56	0	781189120	57	7509
2026-01-10 09:27:46.58	12.15	34.22	-43.6	-50.2	8.0	4.57e-02	0	56	0	783286272	57	8329
2026-01-10 09:27:47.59	11.91	34.05	-43.2	-48.7	9.5	2.65e-02	0	56	0	785383424	57	6983
2026-01-10 09:27:48.59	11.67	33.88	-43.2	-48.7	9.5	1.39e-02	0	56	0	787480576	57	7039
2026-01-10 09:27:49.60	11.44	33.70	-43.1	-48.4	9.9	7.97e-03	0	56	0	788529152	57	6747
2026-01-10 09:27:50.61	11.20	33.53	-42.9	-47.8	10.3	8.40e-03	0	56	0	790626304	57	6346
2026-01-10 09:27:51.61	10.97	33.36	-42.4	-46.7	11.6	3.47e-03	0	56	0	792723456	56	5859
2026-01-10 09:27:52.62	10.74	33.19	-42.1	-46.1	12.2	4.29e-04	0	56	0	794820608	56	5478
2026-01-10 09:27:53.63	10.52	33.01	-41.4	-44.8	13.4	3.05e-05	0	56	0	796917760	54	5287
2026-01-10 09:27:54.64	10.29	32.84	-41.5	-45.0	13.1	1.98e-05	0	56	0	797966336	54	5437
2026-01-10 09:27:55.64	10.07	32.67	-41.5	-45.0	13.2	2.28e-05	0	56	0	800063488	54	5418
2026-01-10 09:27:56.65	9.86	32.50	-41.9	-45.8	12.4	5.72e-05	0	56	0	802160640	54	5941
2026-01-10 09:27:57.66	9.64	32.33	-42.3	-46.6	11.5	6.20e-04	0	56	0	804257792	55	6160
2026-01-10 09:27:58.66	9.43	32.16	-43.0	-48.1	10.1	3.25e-03	0	56	0	805306368	56	6936
2026-01-10 09:27:59.67	9.21	31.99	-42.8	-47.7	10.5	8.92e-03	0	56	0	807403520	56	6636
2026-01-10 09:28:00.68	9.00	31.83	-42.6	-47.1	11.1	3.23e-03	0	56	0	809500672	56	6200
2026-01-10 09:28:01.68	8.80	31.66	-42.1	-46.0	12.2	7.99e-04	0	56	0	811597824	56	5453
2026-01-10 09:28:02.69	8.59	31.49	-41.5	-45.1	13.1	3.81e-05	0	56	0	813694976	54	5468
2026-01-10 09:28:03.70	8.39	31.32	-40.9	-44.0	14.1	7.60e-06	0	56	0	815792128	53	5124
2026-01-10 09:28:04.71	8.19	31.16	-40.9	-43.8	14.3	0.00e+00	0	56	0	816840704	53	5030
2026-01-10 09:28:05.72	7.99	30.99	-41.0	-44.0	14.1	1.50e-06	0	56	0	818937856	53	5141
2026-01-10 09:28:06.72	7.79	30.83	-41.5	-45.0	13.2	6.10e-06	0	56	0	821035008	53	5738
2026-01-10 09:28:07.73	7.60	30.66	-42.1	-46.1	12.1	1.01e-04	0	56	0	823132160	54	6184
2026-01-10 09:28:08.74	7.40	30.50	-42.4	-46.9	11.1	3.12e-04	0	56	0	825229312	55	6368
2026-01-10 09:28:09.75	7.21	30.34	-42.5	-47.3	10.7	2.81e-03	0	56	0	826277888	55	6692
2026-01-10 09:28:10.76	7.02	30.17	-42.4	-47.0	11.0	2.14e-03	0	56	0	828375040	55	6442
2026-01-10 09:28:11.77	6.83	30.01	-42.4	-47.0	11.1	2.11e-03	0	56	0	830472192	55	6439
2026-01-10 09:28:12.77	6.65	29.85	-42.2	-46.5	11.6	1.09e-03	0	56	0	832569344	55	6068
2026-01-10 09:28:13.78	6.47	29.69	-42.0	-46.2	11.8	6.20e-04	0	56	0	834666496	55	5896
2026-01-10 09:28:14.79	6.28	29.53	-41.9	-46.0	12.1	1.79e-04	0	56	0	835715072	55	5739
2026-01-10 09:28:15.80	6.10	29.37	-42.1	-46.4	11.6	4.61e-04	0	56	0	837812224	55	6017
2026-01-10 09:28:16.81	5.93	29.21	-42.0	-46.1	11.9	3.51e-04	0	56	0	839909376	55	5813
2026-01-10 09:28:17.82	5.75	29.05	-41.9	-46.0	12.0	3.12e-04	0	56	0	842006528	55	5782
2026-01-10 09:28:18.83	5.57	28.89	-41.4	-45.0	13.0	6.02e-05	0	56	0	844103680	54	5419
2026-01-10 09:28:19.84	5.40	28.73	-41.4	-45.0	13.0	5.03e-05	0	56	0	845152256	54	5426
2026-01-10 09:28:20.85	5.23	28.58	-41.3	-44.7	13.5	2.44e-05	0	56	0	847249408	54	5247
2026-01-10 09:28:21.85	5.06	28.42	-41.1	-44.4	13.7	3.00e-06	0	56	0	849346560	53	5358
2026-01-10 09:28:22.87	4.89	28.26	-41.1	-44.3	13.8	7.60e-06	0	56	0	851443712	53	5319
2026-01-10 09:28:23.87	4.73	28.11	-41.0	-44.3	13.8	6.10e-06	0	56	0	853540864	53	5288
2026-01-10 09:28:24.88	4.56	27.95	-41.1	-44.4	13.7	1.06e-05	0	56	0	854589440	53	5389
2026-01-10 09:28:25.89	4.40	27.80	-41.1	-44.5	13.6	5.30e-06	0	56	0	856686592	53	5425
2026-01-10 09:28:26.90	4.24	27.65	-41.5	-45.1	13.0	2.97e-05	0	56	0	858783744	53	5808
2026-01-10 09:28:27.90	4.08	27.49	-41.3	-44.9	13.2	2.21e-05	0	56	0	860880896	53	5662
2026-01-10 09:28:28.91	3.92	27.34	-41.6	-45.4	12.8	5.34e-05	0	56	0	862978048	53	6057
2026-01-10 09:28:29.92	3.77	27.19	-41.8	-45.7	12.3	1.67e-04	0	56	0	864026624	54	5896
2026-01-10 09:28:30.93	3.61	27.04	-42.1	-46.4	11.6	4.31e-04	0	56	0	866123776	54	6412
2026-01-10 09:28:31.93	3.46	26.89	-42.3	-47.1	10.9	1.65e-03	0	56	0	868220928	55	6506
2026-01-10 09:28:32.94	3.31	26.74	-42.5	-47.6	10.4	5.12e-03	0	56	0	870318080	55	6941
2026-01-10 09:28:33.94	3.16	26.59	-42.5	-47.5	10.4	4.79e-03	0	56	0	872415232	55	6844
2026-01-10 09:28:34.95	3.01	26.44	-42.2	-46.9	11.0	2.50e-03	0	56	0	873463808	55	6391
2026-01-10 09:28:35.96	2.86	26.30	-42.0	-46.5	11.5	1.40e-03	0	56	0	875560960	55	6104
2026-01-10 09:28:36.97	2.71	26.15	-42.0	-46.4	11.6	7.55e-04	0	56	0	877658112	55	6018
2026-01-10 09:28:37.97	2.57	26.00	-41.9	-46.2	11.8	7.10e-04	0	56	0	879755264	55	5873
2026-01-10 09:28:38.98	2.43	25.86	-41.8	-46.0	12.0	3.55e-04	0	56	0	881852416	55	5735
2026-01-10 09:28:39.99	2.28	25.71	-41.9	-45.9	12.1	3.39e-04	0	56	0	882900992	55	5721
2026-01-10 09:28:41.00	2.14	25.56	-41.6	-45.5	12.5	1.04e-04	0	56	0	884998144	55	5407
2026-01-10 09:28:42.01	2.00	25.42	-41.4	-45.0	13.0	4.34e-05	0	56	0	887095296	54	5441
2026-01-10 09:28:43.02	1.87	25.28	-40.9	-44.3	13.7	2.05e-05	0	56	0	889192448	53	5298
2026-01-10 09:28:44.03	1.73	25.13	-40.8	-44.1	13.9	4.50e-06	0	56	0	891289600	53	5195
2026-01-10 09:28:45.04	1.59	24.99	-40.6	-43.8	14.1	7.00e-07	0	56	0	892338176	53	5035
2026-01-10 09:28:46.04	1.46	24.85	-40.7	-44.1	13.9	7.00e-07	0	56	0	894435328	53	5160
2026-01-10 09:28:47.05	1.33	24.71	-40.8	-44.1	13.8	3.00e-06	0	56	0	896532480	53	5205
2026-01-10 09:28:48.06	1.19	24.57	-41.0	-44.6	13.3	4.50e-06	0	56	0	898629632	53	5527
2026-01-10 09:28:49.07	1.06	24.43	-41.2	-45.0	12.9	2.89e-05	0	56	0	900726784	53	5763
2026-01-10 09:28:50.07	0.93	24.29	-41.3	-45.2	12.7	5.56e-05	0	56	0	901775360	53	5869
2026-01-10 09:28:51.08	0.80	24.15	-41.3	-45.2	12.6	8.08e-05	0	56	0	903872512	53	5921
2026-01-10 09:28:52.09	0.68	24.01	-41.4	-45.2	12.7	1.02e-04	0	56	0	905969664	53	5906
2026-01-10 09:28:53.09	0.55	23.87	-41.3	-45.0	12.9	7.85e-05	0	56	0	908066816	53	5748
2026-01-10 09:28:54.10	0.43	23.73	-41.1	-44.7	13.2	5.26e-05	0	56	0	910163968	53	5533
2026-01-10 09:28:55.11	0.30	23.60	-40.8	-44.4	13.4	1.75e-05	0	56	0	911212544	53	5360
2026-01-10 09:28:56.11	0.18	23.46	-40.8	-44.4	13.5	3.00e-06	0	56	0	913309696	53	5354
2026-01-10 09:28:57.12	0.06	23.33	-40.7	-44.3	13.5	6.80e-06	0	56	0	915406848	53	5292
2026-01-10 09:28:58.13	359.94	23.19	-40.6	-44.1	13.7	7.60e-06	0	56	0	917504000	53	5206
2026-01-10 09:28:59.13	359.82	23.06	-40.5	-43.9	13.9	3.80e-06	0	56	0	919601152	53	5068
2026-01-10 09:29:00.14	359.70	22.92	-40.5	-43.9	13.9	3.00e-06	0	56	0	920649728	52	5392
2026-01-10 09:29:01.15	359.58	22.79	-40.2	-43.6	14.2	3.00e-06	0	56	0	922746880	52	5172
2026-01-10 09:29:02.16	359.47	22.66	-40.3	-43.6	14.2	1.50e-06	0	56	0	924844032	52	5203
2026-01-10 09:29:03.17	359.35	22.53	-40.2	-43.5	14.3	0.00e+00	0	56	0	926941184	52	5125
2026-01-10 09:29:04.17	359.24	22.39	-40.4	-43.8	14.0	2.20e-06	0	55	0	929038336	52	5285
2026-01-10 09:29:05.18	359.12	22.26	-40.5	-44.0	13.8	1.50e-06	0	56	0	930086912	52	5424
2026-01-10 09:29:06.19	359.01	22.13	-40.6	-44.2	13.4	2.20e-06	0	56	0	932184064	52	5547
2026-01-10 09:29:07.20	358.90	22.00	-40.7	-44.4	13.3	1.52e-05	0	56	0	934281216	52	5697
2026-01-10 09:29:08.21	358.79	21.87	-40.9	-44.8	12.9	3.73e-05	0	56	0	936378368	52	5977
2026-01-10 09:29:09.21	358.68	21.74	-41.0	-45.3	12.4	8.46e-05	0	56	0	938475520	52	6279
2026-01-10 09:29:10.23	358.57	21.61	-41.1	-45.4	12.2	1.86e-04	0	56	0	939524096	52	6409
2026-01-10 09:29:11.23	358.46	21.49	-41.2	-45.6	12.0	3.69e-04	0	56	0	941621248	53	6195
2026-01-10 09:29:12.24	358.36	21.36	-41.2	-45.5	12.1	2.86e-04	0	56	0	943718400	53	6063
2026-01-10 09:29:13.24	358.25	21.23	-41.1	-45.2	12.4	2.16e-04	0	56	0	945815552	53	5893
2026-01-10 09:29:14.25	358.15	21.11	-41.0	-45.2	12.5	1.32e-04	0	56	0	947912704	53	5859
2026-01-10 09:29:15.26	358.04	20.98	-40.7	-44.6	12.9	5.87e-05	0	56	0	948961280	53	5504
2026-01-10 09:29:16.27	357.94	20.86	-40.5	-44.6	12.9	4.57e-05	0	56	0	951058432	53	5507
2026-01-10 09:29:17.27	357.84	20.73	-40.5	-44.6	12.8	4.65e-05	0	56	0	953155584	52	5852
2026-01-10 09:29:18.28	357.74	20.61	-40.4	-44.7	12.6	6.40e-05	0	56	0	955252736	52	5900
2026-01-10 09:29:19.29	357.64	20.49	-40.4	-44.8	12.5	1.08e-04	0	56	0	957349888	52	5963
2026-01-10 09:29:20.29	357.54	20.36	-40.5	-45.1	12.1	1.75e-04	0	56	0	958398464	52	6152
2026-01-10 09:29:21.30	357.44	20.24	-40.5	-45.0	12.1	2.75e-04	0	56	0	960495616	52	6131
2026-01-10 09:29:22.31	357.34	20.12	-40.4	-45.1	12.0	2.97e-04	0	56	0	962592768	52	6145
2026-01-10 09:29:23.31	357.24	20.00	-40.4	-45.0	12.0	3.65e-04	0	56	0	964689920	52	6117
2026-01-10 09:29:24.32	357.15	19.88	-40.4	-44.9	12.0	2.71e-04	0	56	0	966787072	52	6049
2026-01-10 09:29:25.33	357.05	19.76	-40.2	-44.5	12.4	2.26e-04	0	56	0	968884224	52	5742
2026-01-10 09:29:26.34	356.95	19.63	-40.3	-44.6	12.2	1.85e-04	0	56	0	969932800	52	5800
2026-01-10 09:29:27.34	356.86	19.52	-40.2	-44.5	12.1	2.57e-04	0	56	0	972029952	52	5730
2026-01-10 09:29:28.35	356.77	19.40	-40.1	-44.1	12.6	1.34e-04	0	56	0	974127104	52	5467
2026-01-10 09:29:29.36	356.67	19.28	-40.2	-44.3	12.1	2.49e-04	0	56	0	976224256	52	5652
2026-01-10 09:29:30.36	356.58	19.16	-40.3	-44.6	11.8	4.87e-04	0	56	0	977272832	52	5827
2026-01-10 09:29:31.37	356.49	19.04	-40.3	-44.8	11.4	7.80e-04	0	56	0	979369984	52	5955
2026-01-10 09:29:32.38	356.40	18.93	-40.5	-45.2	10.8	1.89e-03	0	56	0	981467136	52	6264
2026-01-10 09:29:33.39	356.31	18.81	-40.6	-45.8	10.0	4.56e-03	0	56	0	983564288	52	6681
2026-01-10 09:29:34.39	356.22	18.69	-40.6	-46.1	9.5	8.70e-03	0	56	0	985661440	52	6920
2026-01-10 09:29:35.40	356.13	18.58	-40.8	-46.9	8.5	2.94e-02	0	56	0	986710016	52	7562
2026-01-10 09:29:36.41	356.05	18.46	-40.9	-48.0	7.2	8.03e-02	0	56	0	988807168	52	8587
2026-01-10 09:29:37.41	355.96	18.35	-41.0	-48.8	6.3	1.72e-01	0	56	0	990904320	52	9455
2026-01-10 09:29:38.42	355.87	18.23	-41.1	-49.9	5.5	4.08e-01	0	56	0	993001472	52	10714
2026-01-10 09:29:39.43	355.79	18.12	-41.0	-50.6	5.0	6.29e-01	0	56	0	995098624	52	11618
2026-01-10 09:29:40.43	355.70	18.01	-41.0	-51.3	4.5	8.63e-01	0	56	0	997195776	52	12550
2026-01-10 09:29:41.44	355.62	17.89	-41.0	-52.0	4.3	1.32e+00	0	56	0	998244352	52	13623
2026-01-10 09:29:42.45	355.54	17.78	-40.9	-53.0	3.8	1.43e+00	0	56	104	998244352	52	15253
2026-01-10 09:29:43.46	355.45	17.67	-40.9	-53.8	3.8	1.48e+00	0	56	104	998244352	52	16753
2026-01-10 09:29:44.47	355.37	17.56	-40.9	-54.3	3.8	1.49e+00	0	56	104	998244352	52	17791
2026-01-10 09:29:45.48	355.29	17.45	-40.8	-54.4	3.8	1.49e+00	0	56	104	998244352	52	18059
2026-01-10 09:29:46.48	355.21	17.34	-40.8	-54.5	3.8	1.49e+00	0	56	104	998244352	52	18182
2026-01-10 09:29:47.50	355.13	17.22	-40.7	-54.7	3.8	1.49e+00	0	56	104	998244352	52	18582
2026-01-10 09:29:48.50	355.05	17.12	-40.7	-55.0	3.8	1.49e+00	0	56	104	998244352	52	19222
2026-01-10 09:29:49.51	354.97	17.01	-40.6	-55.0	3.8	1.49e+00	0	56	104	998244352	52	19277
2026-01-10 09:29:50.52	354.89	16.90	-40.6	-55.0	3.8	1.49e+00	0	56	104	998244352	52	19378
2026-01-10 09:29:51.53	354.81	16.79	-40.8	-55.0	3.8	1.49e+00	0	56	104	998244352	52	19254
2026-01-10 09:29:52.54	354.73	16.68	-40.7	-55.1	3.8	1.49e+00	0	56	104	998244352	53	18321
2026-01-10 09:29:53.55	354.66	16.57	-40.6	-55.0	3.8	1.49e+00	0	56	104	998244352	53	18249
2026-01-10 09:29:54.56	354.58	16.46	-40.6	-55.0	3.8	1.49e+00	0	56	104	998244352	53	18263
2026-01-10 09:29:55.57	354.50	16.36	-40.5	-55.0	3.8	1.49e+00	0	56	104	998244352	53	18205
2026-01-10 09:29:56.58	354.43	16.25	-40.5	-55.0	3.8	1.49e+00	0	56	104	998244352	53	18143
2026-01-10 09:29:57.59	354.35	16.14	-40.4	-54.9	3.8	1.49e+00	0	56	104	998244352	52	19118
2026-01-10 09:29:58.60	354.28	16.04	-40.4	-54.9	3.8	1.49e+00	0	56	104	998244352	52	19088
2026-01-10 09:29:59.61	354.20	15.93	-40.5	-55.0	3.8	1.49e+00	0	56	104	998244352	52	19323
2026-01-10 09:30:00.62	354.13	15.83	-40.3	-54.9	3.8	1.49e+00	0	56	104	998244352	52	19084
2026-01-10 09:30:01.63	354.06	15.72	-40.6	-55.1	3.8	1.49e+00	0	56	104	998244352	52	19465
2026-01-10 09:30:02.63	353.99	15.62	-40.4	-55.0	3.8	1.49e+00	0	56	104	998244352	52	19244
2026-01-10 09:30:03.64	353.92	15.52	-40.5	-55.0	3.8	1.49e+00	0	56	104	998244352	52	19259
2026-01-10 09:30:04.65	353.84	15.41	-40.4	-54.9	3.8	1.49e+00	0	56	104	998244352	52	18951
2026-01-10 09:30:05.66	353.77	15.31	-40.5	-55.0	3.8	1.49e+00	0	56	104	998244352	52	19331
2026-01-10 09:30:06.67	353.70	15.21	-40.4	-54.9	3.8	1.49e+00	0	56	104	998244352	52	19048
2026-01-10 09:30:07.68	353.63	15.10	-40.5	-55.0	3.8	1.49e+00	0	56	104	998244352	52	19192
2026-01-10 09:30:08.68	353.57	15.00	-40.3	-55.0	3.8	1.49e+00	0	56	104	998244352	52	19280
2026-01-10 09:30:09.69	353.50	14.90	-40.4	-54.9	3.8	1.49e+00	0	56	104	998244352	52	19000
2026-01-10 09:30:10.71	353.43	14.80	-40.4	-55.0	3.8	1.49e+00	0	56	104	998244352	52	19312
2026-01-10 09:30:11.71	353.36	14.70	-40.5	-54.9	3.8	1.49e+00	0	56	104	998244352	52	19059
2026-01-10 09:30:12.72	353.30	14.60	-40.5	-55.0	3.8	1.49e+00	0	56	104	998244352	52	19272
2026-01-10 09:30:13.73	353.23	14.50	-40.4	-54.9	3.8	1.49e+00	0	56	104	998244352	52	19010
2026-01-10 09:30:14.74	353.16	14.40	-40.5	-55.0	3.8	1.49e+00	0	56	104	998244352	52	19346
2026-01-10 09:30:15.75	353.10	14.30	-40.4	-54.9	3.8	1.49e+00	0	56	104	998244352	52	19052
2026-01-10 09:30:16.76	353.03	14.20	-40.6	-55.1	3.8	1.49e+00	0	56	104	998244352	52	19553
2026-01-10 09:30:17.76	352.97	14.10	-40.5	-55.0	3.8	1.49e+00	0	56	104	998244352	52	19242
2026-01-10 09:30:18.77	352.90	14.01	-40.6	-55.1	3.8	1.49e+00	0	56	104	998244352	52	19466
2026-01-10 09:30:19.78	352.84	13.91	-40.4	-55.0	3.8	1.49e+00	0	56	104	998244352	52	19172
2026-01-10 09:30:20.79	352.78	13.81	-40.6	-55.1	3.8	1.49e+00	0	56	104	998244352	52	19599
2026-01-10 09:30:21.79	352.71	13.72	-40.5	-55.0	3.8	1.49e+00	0	56	104	998244352	52	19207
2026-01-10 09:30:22.80	352.65	13.62	-40.6	-55.1	3.8	1.49e+00	0	56	104	998244352	52	19599
2026-01-10 09:30:23.81	352.59	13.52	-40.5	-55.0	3.8	1.49e+00	0	56	104	998244352	52	19333
2026-01-10 09:30:24.81	352.53	13.43	-40.6	-55.1	3.8	1.49e+00	0	56	104	998244352	52	19587
2026-01-10 09:30:25.83	352.47	13.33	-40.5	-55.0	3.8	1.49e+00	0	56	104	998244352	52	19181
2026-01-10 09:30:26.83	352.41	13.24	-40.7	-55.2	3.8	1.49e+00	0	56	104	998244352	52	19681
2026-01-10 09:30:27.84	352.35	13.14	-40.4	-55.0	3.8	1.49e+00	0	56	104	998244352	52	19183
2026-01-10 09:30:28.86	352.29	13.05	-40.4	-55.0	3.8	1.49e+00	0	56	104	998244352	52	19280
2026-01-10 09:30:29.87	352.23	12.95	-40.6	-55.1	3.8	1.49e+00	0	56	104	998244352	52	19498
2026-01-10 09:30:30.87	352.17	12.86	-40.4	-55.0	3.8	1.49e+00	0	56	104	998244352	52	19216
2026-01-10 09:30:31.88	352.11	12.76	-40.6	-55.2	3.8	1.49e+00	0	56	104	998244352	52	19629
2026-01-10 09:30:32.89	352.05	12.67	-40.6	-55.1	3.8	1.49e+00	0	56	104	998244352	52	19461
2026-01-10 09:30:33.90	351.99	12.58	-40.1	-54.9	3.8	1.49e+00	0	56	104	998244352	52	19151
