passes_logs/2026/01/10/R2.0S_Moscow/R2.0S_Moscow__20260110_022806_AQUA_rec.log

#Pass ID: 20260110_022806_AQUA
#Satellite: AQUA
#Configuration: AQUA
#almurnet v.1.7.20251203
#Start time: 2026-01-10 02:28:07

#Version: 2.2.20231116
#Station: R2.0S_Moscow
#Location: 37.707566 lon 55.798166 lat
#TLE: 1 27424U 02022A   26009.00333547  .00001046  00000+0  21942-3 0  9998
#TLE: 2 27424  98.4075 335.3304 0002025  85.7625 349.1392 14.61808998260011

#Time	Az	El	Level	Level2	SNR	BER	BlckErr	Temp	State	Recorded	gain1	gain2
2026-01-10 02:28:07.11	9.23	2.01	-40.6	-59.6	3.8	7.46e-01	0	53	0	0	53	30980
2026-01-10 02:28:08.12	9.17	2.07	-40.6	-59.6	3.8	7.45e-01	0	53	104	0	52	32736
2026-01-10 02:28:09.13	9.11	2.14	-40.6	-59.6	3.8	7.45e-01	0	53	104	0	52	32669
2026-01-10 02:28:10.14	9.06	2.20	-40.6	-59.6	3.8	7.46e-01	0	53	104	0	52	32765
2026-01-10 02:28:11.15	9.00	2.26	-40.6	-59.6	3.8	7.47e-01	0	53	104	0	52	32804
2026-01-10 02:28:12.16	8.95	2.33	-40.6	-59.6	3.8	7.41e-01	0	53	104	0	52	32811
2026-01-10 02:28:13.17	8.89	2.39	-40.6	-59.6	3.8	7.46e-01	0	53	104	0	52	32718
2026-01-10 02:28:14.18	8.83	2.45	-40.6	-59.6	3.8	7.43e-01	0	53	104	0	52	32814
2026-01-10 02:28:15.19	8.78	2.52	-40.6	-59.6	3.8	7.47e-01	0	53	104	0	52	32731
2026-01-10 02:28:16.20	8.72	2.58	-40.6	-59.6	3.8	7.43e-01	0	53	104	0	52	32763
2026-01-10 02:28:17.21	8.66	2.64	-40.6	-59.6	3.8	7.46e-01	0	53	104	0	52	32763
2026-01-10 02:28:18.22	8.60	2.71	-40.6	-59.6	3.8	7.43e-01	0	53	104	0	52	32749
2026-01-10 02:28:19.24	8.54	2.77	-40.6	-59.6	3.8	7.48e-01	0	53	104	0	52	32708
2026-01-10 02:28:20.25	8.49	2.83	-40.6	-59.6	3.8	7.49e-01	0	53	104	0	52	32773
2026-01-10 02:28:21.26	8.43	2.90	-40.6	-59.6	3.8	7.43e-01	0	53	104	0	52	32805
2026-01-10 02:28:22.27	8.37	2.96	-40.6	-59.6	3.8	7.42e-01	0	53	104	0	52	32733
2026-01-10 02:28:23.28	8.31	3.03	-40.6	-59.6	3.8	7.43e-01	0	53	104	0	52	32758
2026-01-10 02:28:24.29	8.25	3.09	-40.6	-59.6	3.8	7.45e-01	0	53	104	0	52	32708
2026-01-10 02:28:25.30	8.19	3.16	-40.6	-59.6	3.8	7.46e-01	0	53	104	0	52	32704
2026-01-10 02:28:26.31	8.13	3.22	-40.6	-59.6	3.8	7.46e-01	0	54	104	0	52	32704
2026-01-10 02:28:27.32	8.07	3.29	-40.6	-59.6	3.8	7.46e-01	0	53	104	0	52	32777
2026-01-10 02:28:28.33	8.01	3.35	-40.6	-59.6	3.8	7.46e-01	0	54	104	0	52	32748
2026-01-10 02:28:29.34	7.95	3.42	-40.6	-59.6	3.8	7.46e-01	0	54	104	0	52	32694
2026-01-10 02:28:30.36	7.88	3.48	-40.6	-59.6	3.8	7.48e-01	0	54	104	0	52	32763
2026-01-10 02:28:31.37	7.82	3.55	-40.6	-59.6	3.8	7.47e-01	0	53	104	0	52	32778
2026-01-10 02:28:32.38	7.76	3.61	-40.6	-59.6	3.8	7.45e-01	0	54	104	0	52	32682
2026-01-10 02:28:33.39	7.70	3.68	-40.6	-59.6	3.8	7.44e-01	0	54	104	0	52	32680
2026-01-10 02:28:34.40	7.63	3.75	-40.6	-59.6	3.8	7.47e-01	0	54	104	0	52	32726
2026-01-10 02:28:35.41	7.57	3.81	-40.6	-59.6	3.8	7.47e-01	0	54	104	0	52	32696
2026-01-10 02:28:36.42	7.51	3.88	-40.6	-59.6	3.8	7.41e-01	0	54	104	0	52	32710
2026-01-10 02:28:37.43	7.44	3.94	-40.6	-59.6	3.8	7.45e-01	0	54	104	0	52	32702
2026-01-10 02:28:38.45	7.38	4.01	-40.6	-59.6	3.8	7.46e-01	0	54	104	0	52	32700
2026-01-10 02:28:39.46	7.31	4.08	-40.6	-59.6	3.8	7.46e-01	0	54	104	0	52	32647
2026-01-10 02:28:40.47	7.25	4.15	-40.6	-59.6	3.8	7.47e-01	0	54	104	0	52	32638
2026-01-10 02:28:41.48	7.18	4.21	-40.6	-59.6	3.8	7.46e-01	0	54	104	0	52	32708
2026-01-10 02:28:42.49	7.12	4.28	-40.6	-59.6	3.8	7.48e-01	0	54	104	0	52	32699
2026-01-10 02:28:43.50	7.05	4.35	-40.6	-59.6	3.8	7.43e-01	0	54	104	0	52	32747
2026-01-10 02:28:44.51	6.99	4.41	-40.6	-59.6	3.8	7.45e-01	0	54	104	0	52	32643
2026-01-10 02:28:45.52	6.92	4.48	-40.6	-59.6	3.8	7.45e-01	0	54	104	0	52	32741
2026-01-10 02:28:46.53	6.85	4.55	-40.6	-59.6	3.8	7.44e-01	0	54	104	0	52	32707
2026-01-10 02:28:47.54	6.78	4.62	-40.6	-59.6	3.8	7.44e-01	0	54	104	0	52	32715
2026-01-10 02:28:48.55	6.72	4.69	-40.6	-59.6	3.8	7.45e-01	0	54	104	0	52	32710
2026-01-10 02:28:49.56	6.65	4.75	-40.6	-59.6	3.8	7.42e-01	0	54	104	0	52	32667
2026-01-10 02:28:50.57	6.58	4.82	-40.6	-59.6	3.8	7.45e-01	0	54	104	0	52	32639
2026-01-10 02:28:51.59	6.51	4.89	-40.6	-59.6	3.8	7.47e-01	0	54	104	0	52	32662
2026-01-10 02:28:52.60	6.44	4.96	-40.6	-59.6	3.8	7.42e-01	0	54	104	0	52	32706
2026-01-10 02:28:53.61	6.37	5.03	-40.6	-59.6	3.8	7.44e-01	0	54	104	0	52	32661
2026-01-10 02:28:54.62	6.30	5.10	-40.6	-59.6	3.8	7.43e-01	0	54	104	0	52	32658
2026-01-10 02:28:55.63	6.23	5.17	-40.6	-59.6	3.8	7.45e-01	0	54	104	0	52	32691
2026-01-10 02:28:56.64	6.16	5.24	-40.6	-59.6	3.8	7.46e-01	0	54	104	0	52	32646
2026-01-10 02:28:57.65	6.09	5.31	-40.6	-59.6	3.8	7.43e-01	0	55	104	0	52	32648
2026-01-10 02:28:58.66	6.02	5.38	-40.6	-59.6	3.8	7.47e-01	0	54	104	0	52	32656
2026-01-10 02:28:59.67	5.94	5.45	-40.6	-59.6	3.8	7.45e-01	0	54	104	0	52	32675
2026-01-10 02:29:00.68	5.87	5.52	-40.6	-59.6	3.8	7.49e-01	0	54	104	0	52	32606
2026-01-10 02:29:01.69	5.80	5.59	-40.6	-59.6	3.8	7.46e-01	0	55	104	0	52	32703
2026-01-10 02:29:02.70	5.73	5.66	-40.6	-59.6	3.8	7.45e-01	0	55	104	0	52	32712
2026-01-10 02:29:03.71	5.65	5.73	-40.6	-59.6	3.8	7.47e-01	0	54	104	0	52	32686
2026-01-10 02:29:04.73	5.58	5.80	-40.6	-59.6	3.8	7.44e-01	0	54	104	0	52	32683
2026-01-10 02:29:05.74	5.50	5.87	-40.6	-59.6	3.8	7.45e-01	0	55	104	0	52	32765
2026-01-10 02:29:06.75	5.43	5.94	-40.6	-59.6	3.8	7.46e-01	0	55	104	0	52	32751
2026-01-10 02:29:07.76	5.35	6.01	-40.6	-59.6	3.8	7.43e-01	0	54	104	0	52	32718
2026-01-10 02:29:08.77	5.28	6.08	-40.6	-59.6	3.8	7.48e-01	0	54	104	0	52	32653
2026-01-10 02:29:09.78	5.20	6.15	-40.6	-59.6	3.8	7.45e-01	0	55	104	0	52	32668
2026-01-10 02:29:10.79	5.13	6.23	-40.6	-59.6	3.8	7.45e-01	0	55	104	0	52	32682
2026-01-10 02:29:11.80	5.05	6.30	-40.6	-59.6	3.8	7.48e-01	0	55	104	0	52	32704
2026-01-10 02:29:12.81	4.97	6.37	-40.6	-59.6	3.8	7.44e-01	0	55	104	0	52	32695
2026-01-10 02:29:13.82	4.89	6.44	-40.6	-59.6	3.8	7.43e-01	0	55	104	0	52	32682
2026-01-10 02:29:14.83	4.81	6.51	-40.6	-59.6	3.8	7.47e-01	0	55	104	0	52	32721
2026-01-10 02:29:15.85	4.74	6.59	-40.6	-59.6	3.8	7.45e-01	0	55	104	0	52	32656
2026-01-10 02:29:16.85	4.66	6.66	-40.6	-59.6	3.8	7.46e-01	0	55	104	0	52	32723
2026-01-10 02:29:17.86	4.58	6.73	-40.6	-59.6	3.8	7.48e-01	0	55	104	0	52	32716
2026-01-10 02:29:18.87	4.50	6.81	-40.6	-59.6	3.8	7.46e-01	0	55	104	0	52	32576
2026-01-10 02:29:19.89	4.42	6.88	-40.6	-59.6	3.8	7.43e-01	0	55	104	0	52	32730
2026-01-10 02:29:20.90	4.33	6.95	-40.6	-59.6	3.8	7.45e-01	0	55	104	0	52	32674
2026-01-10 02:29:21.91	4.25	7.03	-40.6	-59.6	3.8	7.40e-01	0	55	104	0	52	32629
2026-01-10 02:29:22.92	4.17	7.10	-40.6	-59.6	3.8	7.43e-01	0	55	104	0	52	32713
2026-01-10 02:29:23.93	4.09	7.17	-40.6	-59.6	3.8	7.46e-01	0	55	104	0	52	32649
2026-01-10 02:29:24.94	4.01	7.25	-40.6	-59.6	3.8	7.43e-01	0	55	104	0	52	32656
2026-01-10 02:29:25.95	3.92	7.32	-40.6	-59.6	3.8	7.44e-01	0	55	104	0	52	32678
2026-01-10 02:29:26.97	3.84	7.40	-40.6	-59.6	3.8	7.46e-01	0	55	104	0	52	32708
2026-01-10 02:29:27.98	3.75	7.47	-40.6	-59.6	3.8	7.49e-01	0	55	104	0	52	32672
2026-01-10 02:29:28.99	3.67	7.55	-40.6	-59.6	3.8	7.44e-01	0	55	104	0	52	32620
2026-01-10 02:29:30.00	3.58	7.62	-40.6	-59.6	3.8	7.45e-01	0	55	104	0	52	32691
2026-01-10 02:29:31.01	3.50	7.70	-40.6	-59.6	3.8	7.46e-01	0	55	104	0	52	32661
2026-01-10 02:29:32.02	3.41	7.77	-40.6	-59.6	3.8	7.44e-01	0	55	104	0	52	32649
2026-01-10 02:29:33.03	3.32	7.85	-40.6	-59.6	3.8	7.44e-01	0	55	104	0	52	32707
2026-01-10 02:29:34.04	3.24	7.93	-40.6	-59.6	3.8	7.43e-01	0	55	104	0	52	32605
2026-01-10 02:29:35.05	3.15	8.00	-40.6	-59.6	3.8	7.49e-01	0	55	104	0	52	32594
2026-01-10 02:29:36.06	3.06	8.08	-40.6	-59.6	3.8	7.46e-01	0	55	104	0	52	32599
2026-01-10 02:29:37.08	2.97	8.16	-40.6	-59.6	3.8	7.48e-01	0	55	104	0	52	32632
2026-01-10 02:29:38.08	2.88	8.23	-40.6	-59.6	3.8	7.49e-01	0	55	104	0	52	32684
2026-01-10 02:29:39.10	2.79	8.31	-40.7	-59.7	3.8	7.46e-01	0	55	104	0	52	32975
2026-01-10 02:29:40.11	2.70	8.39	-40.7	-59.7	3.8	7.46e-01	0	55	104	0	52	33054
2026-01-10 02:29:41.12	2.61	8.46	-40.6	-59.6	3.8	7.44e-01	0	55	104	0	52	32684
2026-01-10 02:29:42.13	2.52	8.54	-40.6	-59.7	3.8	7.46e-01	0	55	104	0	52	33033
2026-01-10 02:29:43.14	2.42	8.62	-40.6	-59.6	3.8	7.48e-01	0	55	104	0	52	32721
2026-01-10 02:29:44.15	2.33	8.70	-40.6	-59.7	3.8	7.45e-01	0	55	104	0	52	33107
2026-01-10 02:29:45.16	2.24	8.77	-40.5	-59.5	3.8	7.43e-01	0	55	104	0	52	32502
2026-01-10 02:29:46.17	2.14	8.85	-40.5	-59.7	3.8	7.44e-01	0	55	104	0	52	33018
2026-01-10 02:29:47.18	2.05	8.93	-40.5	-59.6	3.8	7.47e-01	0	55	104	0	52	32567
2026-01-10 02:29:48.19	1.95	9.01	-40.5	-59.7	3.8	7.47e-01	0	55	104	0	52	32935
2026-01-10 02:29:49.20	1.86	9.09	-40.5	-59.6	3.8	7.47e-01	0	56	104	0	52	32883
2026-01-10 02:29:50.21	1.76	9.17	-40.5	-59.6	3.8	7.42e-01	0	55	104	0	52	32886
2026-01-10 02:29:51.22	1.67	9.25	-40.4	-59.6	3.8	7.44e-01	0	55	104	0	52	32909
2026-01-10 02:29:52.23	1.57	9.33	-40.4	-59.7	3.8	7.47e-01	0	55	104	0	52	32939
2026-01-10 02:29:53.24	1.47	9.41	-40.6	-59.6	3.8	7.44e-01	0	55	104	0	52	32794
2026-01-10 02:29:54.26	1.37	9.49	-40.4	-59.6	3.8	7.44e-01	0	56	104	0	52	32871
2026-01-10 02:29:55.27	1.27	9.57	-40.5	-59.6	3.8	7.45e-01	0	55	104	0	52	32799
2026-01-10 02:29:56.28	1.17	9.65	-40.5	-59.6	3.8	7.43e-01	0	55	104	0	52	32855
2026-01-10 02:29:57.29	1.07	9.73	-40.2	-59.6	3.8	7.45e-01	0	56	104	0	52	32702
2026-01-10 02:29:58.30	0.97	9.81	-40.5	-59.6	3.8	7.47e-01	0	55	104	0	52	32914
2026-01-10 02:29:59.31	0.87	9.89	-40.3	-59.6	3.8	7.45e-01	0	55	104	0	52	32645
2026-01-10 02:30:00.32	0.77	9.97	-40.4	-59.7	3.8	7.46e-01	0	56	104	0	52	33089
2026-01-10 02:30:01.33	0.66	10.05	-40.3	-59.6	3.8	7.46e-01	0	56	104	0	52	32697
2026-01-10 02:30:02.34	0.56	10.13	-40.5	-59.7	3.8	7.45e-01	0	56	104	0	52	33127
2026-01-10 02:30:03.35	0.45	10.22	-40.4	-59.6	3.8	7.45e-01	0	56	104	0	52	32689
2026-01-10 02:30:04.36	0.35	10.30	-40.5	-59.7	3.8	7.44e-01	0	55	104	0	52	33166
2026-01-10 02:30:05.37	0.24	10.38	-40.4	-59.6	3.8	7.44e-01	0	55	104	0	52	32767
2026-01-10 02:30:06.38	0.14	10.46	-40.6	-59.8	3.8	7.46e-01	0	55	104	0	52	33375
2026-01-10 02:30:07.39	0.03	10.54	-40.3	-59.6	3.8	7.47e-01	0	56	104	0	52	32805
2026-01-10 02:30:08.40	359.92	10.63	-40.6	-59.8	3.8	7.44e-01	0	56	104	0	52	33422
2026-01-10 02:30:09.41	359.81	10.71	-40.6	-59.7	3.8	7.48e-01	0	55	104	0	52	33087
2026-01-10 02:30:10.42	359.71	10.79	-40.6	-59.8	3.8	7.45e-01	0	56	104	0	52	33510
2026-01-10 02:30:11.43	359.60	10.88	-40.6	-59.7	3.8	7.44e-01	0	56	104	0	52	33264
2026-01-10 02:30:12.45	359.48	10.96	-40.7	-59.9	3.8	7.44e-01	0	56	104	0	52	33835
2026-01-10 02:30:13.46	359.37	11.05	-40.5	-59.8	3.8	7.45e-01	0	56	104	0	51	35438
2026-01-10 02:30:14.47	359.26	11.13	-40.5	-59.9	3.8	7.43e-01	0	56	104	0	52	33738
2026-01-10 02:30:15.48	359.15	11.21	-40.1	-59.7	3.8	7.42e-01	0	56	104	0	51	35275
2026-01-10 02:30:16.49	359.04	11.30	-40.5	-59.9	3.8	7.46e-01	0	56	104	0	51	36071
2026-01-10 02:30:17.50	358.92	11.38	-40.4	-59.9	3.8	7.49e-01	0	56	104	0	51	35903
2026-01-10 02:30:18.51	358.81	11.47	-40.4	-59.9	3.8	7.46e-01	0	56	104	0	52	33888
2026-01-10 02:30:19.52	358.69	11.55	-40.7	-59.9	3.8	7.45e-01	0	56	104	0	52	34016
2026-01-10 02:30:20.53	358.58	11.64	-40.5	-59.9	3.8	7.45e-01	0	56	104	0	52	34013
2026-01-10 02:30:21.54	358.46	11.73	-40.0	-59.7	3.8	7.46e-01	0	56	104	0	51	35257
2026-01-10 02:30:22.55	358.34	11.81	-40.1	-59.8	3.8	7.43e-01	0	56	104	0	51	35506
2026-01-10 02:30:23.56	358.22	11.90	-40.1	-59.7	3.8	7.45e-01	0	56	104	0	51	35282
2026-01-10 02:30:24.58	358.10	11.99	-40.1	-59.8	3.8	7.46e-01	0	56	104	0	51	35293
2026-01-10 02:30:25.59	357.98	12.07	-40.2	-59.7	3.8	7.43e-01	0	56	104	0	51	35215
2026-01-10 02:30:26.60	357.86	12.16	-41.1	-60.1	3.8	7.44e-01	0	56	104	0	52	34636
2026-01-10 02:30:27.61	357.74	12.25	-41.0	-59.4	3.9	7.46e-01	0	56	104	0	54	28454
2026-01-10 02:30:28.62	357.62	12.33	-40.3	-59.5	3.8	7.46e-01	0	56	104	0	52	32239
2026-01-10 02:30:29.63	357.49	12.42	-40.1	-58.9	3.9	7.46e-01	0	56	104	0	52	30047
2026-01-10 02:30:30.64	357.37	12.51	-39.5	-56.0	3.8	7.44e-01	0	56	104	0	51	22899
2026-01-10 02:30:31.65	357.24	12.60	-39.0	-45.5	13.8	6.05e-01	0	56	0	0	49	7657
2026-01-10 02:30:32.66	357.12	12.68	-38.5	-44.0	15.5	6.05e-01	0	56	0	2097152	49	6493
2026-01-10 02:30:33.67	356.99	12.77	-38.4	-43.6	16.1	6.04e-01	0	56	0	4194304	48	6519
2026-01-10 02:30:34.68	356.86	12.86	-38.6	-44.0	15.8	6.04e-01	0	56	0	5767168	48	6857
2026-01-10 02:30:35.69	356.74	12.95	-39.4	-46.2	13.9	6.05e-01	0	56	0	7864320	49	8340
2026-01-10 02:30:36.70	356.61	13.04	-39.9	-47.9	12.2	6.06e-01	0	56	0	9437184	50	9529
2026-01-10 02:30:37.72	356.48	13.13	-40.0	-46.7	13.6	6.08e-01	0	56	0	11534336	50	8276
2026-01-10 02:30:38.73	356.34	13.22	-40.3	-47.1	13.3	6.05e-01	0	56	0	13631488	51	8207
2026-01-10 02:30:39.74	356.21	13.31	-40.7	-48.1	12.3	6.09e-01	0	56	0	15204352	51	9226
2026-01-10 02:30:40.75	356.08	13.40	-40.8	-48.4	11.7	6.12e-01	0	56	0	17301504	52	9066
2026-01-10 02:30:41.76	355.95	13.49	-41.1	-49.4	10.5	6.19e-01	0	56	0	19398656	52	10146
2026-01-10 02:30:42.77	355.81	13.58	-41.3	-51.4	8.4	6.40e-01	26	56	0	20971520	53	12012
2026-01-10 02:30:43.78	355.68	13.67	-41.4	-53.0	6.7	6.69e-01	92	56	0	23068672	53	14419
2026-01-10 02:30:44.79	355.54	13.76	-41.4	-53.7	6.0	6.83e-01	92	56	0	24641536	53	15688
2026-01-10 02:30:45.80	355.40	13.85	-41.3	-54.7	5.2	7.02e-01	0	56	0	25165824	53	17665
2026-01-10 02:30:46.81	355.27	13.94	-41.3	-56.7	4.3	7.30e-01	0	56	104	25165824	53	22208
2026-01-10 02:30:47.82	355.13	14.04	-41.2	-57.8	3.8	7.42e-01	0	56	104	25165824	53	25156
2026-01-10 02:30:48.83	354.99	14.13	-41.2	-59.1	3.8	7.44e-01	0	56	104	25165824	53	29023
2026-01-10 02:30:49.84	354.85	14.22	-41.9	-57.9	3.8	7.42e-01	0	56	104	25165824	54	23896
2026-01-10 02:30:50.85	354.70	14.31	-41.2	-60.0	3.8	7.46e-01	0	56	104	25165824	54	30718
2026-01-10 02:30:51.86	354.56	14.40	-42.3	-60.1	3.8	7.44e-01	0	56	104	25165824	55	29112
2026-01-10 02:30:52.87	354.42	14.50	-41.2	-59.9	3.8	7.45e-01	0	56	104	25165824	54	30230
2026-01-10 02:30:53.89	354.27	14.59	-41.6	-59.8	3.8	7.47e-01	0	56	104	25165824	54	29840
2026-01-10 02:30:54.90	354.12	14.68	-41.4	-59.9	3.8	7.43e-01	0	56	104	25165824	54	30371
2026-01-10 02:30:55.91	353.98	14.78	-41.3	-60.1	3.8	7.48e-01	0	56	104	25165824	54	30779
2026-01-10 02:30:56.92	353.83	14.87	-41.3	-60.2	3.8	7.46e-01	0	56	104	25165824	54	31237
2026-01-10 02:30:57.93	353.68	14.96	-41.2	-60.1	3.8	7.45e-01	0	56	104	25165824	54	31004
2026-01-10 02:30:58.94	353.53	15.06	-40.5	-60.4	3.8	7.42e-01	0	56	104	25165824	53	33846
2026-01-10 02:30:59.95	353.38	15.15	-41.2	-60.3	3.8	7.47e-01	0	56	104	25165824	53	33356
2026-01-10 02:31:00.96	353.23	15.25	-41.4	-60.3	3.8	7.46e-01	0	56	104	25165824	53	33403
2026-01-10 02:31:01.97	353.08	15.34	-41.1	-60.2	3.8	7.42e-01	0	56	104	25165824	53	33242
2026-01-10 02:31:02.98	352.92	15.44	-41.5	-60.4	3.8	7.44e-01	0	56	104	25165824	53	33765
2026-01-10 02:31:03.99	352.77	15.53	-40.6	-60.5	3.8	7.44e-01	0	56	104	25165824	53	34227
2026-01-10 02:31:05.00	352.61	15.63	-41.1	-60.3	3.8	7.49e-01	0	56	104	25165824	52	35607
2026-01-10 02:31:06.02	352.45	15.72	-40.9	-60.5	3.8	7.44e-01	0	56	104	25165824	52	36195
2026-01-10 02:31:07.03	352.29	15.82	-40.7	-60.4	3.8	7.45e-01	0	56	104	25165824	52	35832
2026-01-10 02:31:08.04	352.13	15.91	-41.0	-60.5	3.8	7.46e-01	0	56	104	25165824	52	36302
2026-01-10 02:31:09.05	351.97	16.01	-41.2	-60.5	3.8	7.46e-01	0	56	104	25165824	52	36264
2026-01-10 02:31:10.06	351.81	16.11	-41.3	-60.6	3.9	7.44e-01	0	56	104	25165824	53	34500
2026-01-10 02:31:11.07	351.65	16.20	-41.1	-60.5	3.8	7.44e-01	0	56	104	25165824	53	34149
2026-01-10 02:31:12.08	351.48	16.30	-40.5	-60.7	3.8	7.48e-01	0	57	104	25165824	52	37168
2026-01-10 02:31:13.09	351.32	16.40	-40.6	-60.5	3.8	7.48e-01	0	56	104	25165824	52	36319
2026-01-10 02:31:14.10	351.15	16.49	-40.6	-60.8	3.8	7.43e-01	0	56	104	25165824	52	37689
2026-01-10 02:31:15.12	350.98	16.59	-40.9	-60.5	3.8	7.47e-01	0	56	104	25165824	52	36116
2026-01-10 02:31:16.13	350.81	16.69	-40.9	-60.4	3.8	7.46e-01	0	56	104	25165824	52	35840
2026-01-10 02:31:17.14	350.64	16.79	-41.3	-60.5	3.8	7.48e-01	0	56	104	25165824	53	34397
2026-01-10 02:31:18.15	350.47	16.88	-41.2	-60.4	3.8	7.45e-01	0	56	104	25165824	52	35922
2026-01-10 02:31:19.16	350.30	16.98	-41.3	-60.5	3.8	7.45e-01	0	56	104	25165824	53	34208
2026-01-10 02:31:20.17	350.13	17.08	-41.5	-60.6	3.8	7.44e-01	0	57	104	25165824	53	34530
2026-01-10 02:31:21.18	349.95	17.18	-40.6	-60.7	3.8	7.44e-01	0	57	104	25165824	52	37332
2026-01-10 02:31:22.19	349.78	17.28	-41.5	-60.5	3.8	7.45e-01	0	56	104	25165824	53	34476
2026-01-10 02:31:23.21	349.60	17.37	-41.0	-60.8	3.8	7.45e-01	0	56	104	25165824	53	35420
2026-01-10 02:31:24.22	349.42	17.47	-41.4	-60.3	3.8	7.44e-01	0	56	104	25165824	53	33652
2026-01-10 02:31:25.23	349.24	17.57	-41.7	-60.9	3.8	7.47e-01	0	57	104	25165824	53	35900
2026-01-10 02:31:26.24	349.06	17.67	-41.4	-60.4	3.8	7.44e-01	0	56	104	25165824	53	33850
2026-01-10 02:31:27.25	348.87	17.77	-41.4	-60.4	3.8	7.45e-01	0	57	104	25165824	53	33844
2026-01-10 02:31:28.26	348.69	17.87	-41.5	-60.4	3.8	7.45e-01	0	56	104	25165824	53	33848
2026-01-10 02:31:29.27	348.51	17.97	-41.7	-60.8	3.8	7.45e-01	0	56	104	25165824	54	33555
2026-01-10 02:31:30.28	348.32	18.07	-41.5	-60.5	3.8	7.42e-01	0	56	104	25165824	54	32459
2026-01-10 02:31:31.29	348.13	18.17	-41.4	-60.5	3.8	7.43e-01	0	56	104	25165824	54	32502
2026-01-10 02:31:32.30	347.94	18.27	-41.5	-60.4	3.8	7.46e-01	0	56	104	25165824	54	32117
2026-01-10 02:31:33.31	347.75	18.37	-41.7	-60.7	3.8	7.42e-01	0	56	104	25165824	54	33045
2026-01-10 02:31:34.32	347.56	18.47	-41.3	-60.5	3.8	7.44e-01	0	57	104	25165824	54	32182
2026-01-10 02:31:35.34	347.37	18.57	-41.4	-60.6	3.8	7.46e-01	0	56	104	25165824	54	32780
2026-01-10 02:31:36.35	347.17	18.67	-41.3	-60.5	3.8	7.47e-01	0	56	104	25165824	54	32528
2026-01-10 02:31:37.36	346.98	18.77	-41.3	-60.5	3.8	7.43e-01	0	57	104	25165824	54	32431
2026-01-10 02:31:38.37	346.78	18.87	-41.5	-60.5	3.8	7.44e-01	0	57	104	25165824	54	32420
2026-01-10 02:31:39.38	346.58	18.97	-41.3	-60.5	3.8	7.45e-01	0	57	104	25165824	54	32426
2026-01-10 02:31:40.39	346.38	19.07	-41.5	-60.3	3.8	7.42e-01	0	56	104	25165824	54	31750
2026-01-10 02:31:41.40	346.18	19.18	-41.4	-60.4	3.8	7.44e-01	0	57	104	25165824	54	32015
2026-01-10 02:31:42.41	345.98	19.28	-41.6	-60.2	3.8	7.48e-01	0	57	104	25165824	54	31219
2026-01-10 02:31:43.42	345.77	19.38	-41.4	-60.3	3.8	7.45e-01	0	56	104	25165824	54	31448
2026-01-10 02:31:44.43	345.57	19.48	-41.4	-59.6	3.8	7.44e-01	0	57	104	25165824	54	29274
2026-01-10 02:31:45.45	345.36	19.58	-41.5	-59.7	3.8	7.50e-01	0	57	104	25165824	54	29541
2026-01-10 02:31:46.46	345.15	19.68	-41.5	-59.5	3.8	7.43e-01	0	57	104	25165824	54	28834
2026-01-10 02:31:47.47	344.94	19.78	-41.6	-60.1	3.8	7.44e-01	0	56	104	25165824	54	30790
2026-01-10 02:31:48.48	344.73	19.89	-42.0	-58.6	3.9	7.44e-01	0	57	104	25165824	56	23299
2026-01-10 02:31:49.49	344.51	19.99	-41.6	-59.5	3.8	7.47e-01	0	57	104	25165824	54	28874
2026-01-10 02:31:50.50	344.30	20.09	-41.9	-56.6	4.5	7.25e-01	0	57	104	25165824	54	20553
2026-01-10 02:31:51.51	344.08	20.19	-42.0	-54.8	5.5	6.94e-01	0	57	0	25165824	54	16865
2026-01-10 02:31:52.52	343.86	20.29	-42.2	-53.9	6.5	6.71e-01	92	57	0	26214400	54	15180
2026-01-10 02:31:53.53	343.64	20.39	-42.4	-52.9	7.8	6.48e-01	92	57	0	28311552	55	12714
2026-01-10 02:31:54.55	343.42	20.50	-42.6	-52.5	8.4	6.37e-01	20	57	0	30408704	55	12208
2026-01-10 02:31:55.56	343.20	20.60	-42.6	-51.6	9.4	6.24e-01	0	57	0	31981568	55	10937
2026-01-10 02:31:56.57	342.97	20.70	-42.5	-50.7	10.4	6.16e-01	0	57	0	34078720	55	9891
2026-01-10 02:31:57.58	342.75	20.80	-42.4	-49.6	11.6	6.13e-01	0	57	0	35651584	55	8737
2026-01-10 02:31:58.59	342.52	20.90	-42.1	-48.5	12.8	6.03e-01	0	57	0	37748736	55	7714
2026-01-10 02:31:59.60	342.29	21.01	-41.7	-47.1	14.4	6.05e-01	0	56	0	39845888	55	6509
2026-01-10 02:32:00.61	342.06	21.11	-41.2	-45.8	15.8	5.99e-01	0	57	0	41418752	54	5933
2026-01-10 02:32:01.62	341.83	21.21	-40.6	-44.6	17.1	6.01e-01	0	57	0	43515904	53	5490
2026-01-10 02:32:02.63	341.60	21.31	-40.1	-43.6	18.2	6.00e-01	0	57	0	45088768	52	5181
2026-01-10 02:32:03.64	341.36	21.41	-39.9	-43.2	18.9	6.02e-01	0	56	0	47185920	51	5226
2026-01-10 02:32:04.65	341.12	21.52	-39.8	-42.9	19.2	6.00e-01	0	57	0	49283072	51	5059
2026-01-10 02:32:05.66	340.88	21.62	-39.6	-42.6	19.6	6.01e-01	0	57	0	50855936	51	4880
2026-01-10 02:32:06.68	340.64	21.72	-39.8	-42.7	19.6	5.99e-01	0	57	0	52953088	51	4938
2026-01-10 02:32:07.69	340.40	21.82	-40.1	-43.1	19.3	6.03e-01	0	56	0	55050240	51	5203
2026-01-10 02:32:08.70	340.15	21.92	-40.7	-44.0	18.7	5.98e-01	0	56	0	56623104	51	5730
2026-01-10 02:32:09.71	339.91	22.02	-40.4	-43.3	19.5	6.03e-01	0	56	0	58720256	51	5315
2026-01-10 02:32:10.72	339.66	22.13	-40.2	-42.9	20.2	6.00e-01	0	56	0	60293120	51	5049
2026-01-10 02:32:11.73	339.41	22.23	-40.2	-42.8	20.4	6.00e-01	0	57	0	62390272	51	4989
2026-01-10 02:32:12.74	339.16	22.33	-40.3	-42.9	20.4	5.99e-01	0	57	0	64487424	51	5067
2026-01-10 02:32:13.75	338.91	22.43	-40.3	-42.8	20.5	6.01e-01	0	57	0	66060288	51	5040
2026-01-10 02:32:14.77	338.65	22.53	-40.2	-42.7	20.7	5.99e-01	0	57	0	68157440	51	4965
2026-01-10 02:32:15.78	338.40	22.63	-40.1	-42.5	20.9	5.99e-01	0	57	0	70254592	51	4860
2026-01-10 02:32:16.79	338.14	22.73	-40.0	-42.4	21.0	6.00e-01	0	57	0	71827456	51	4801
2026-01-10 02:32:17.80	337.88	22.83	-40.0	-42.4	21.1	6.01e-01	0	57	0	73924608	51	4791
2026-01-10 02:32:18.81	337.62	22.93	-40.1	-42.6	20.9	6.03e-01	0	57	0	75497472	51	4879
2026-01-10 02:32:19.82	337.36	23.03	-40.1	-42.6	20.9	5.98e-01	0	57	0	77594624	51	4892
2026-01-10 02:32:20.83	337.09	23.13	-40.2	-42.6	20.9	6.03e-01	0	57	0	79691776	51	4909
2026-01-10 02:32:21.84	336.82	23.23	-40.2	-42.6	20.9	6.01e-01	0	57	0	81264640	51	4897
2026-01-10 02:32:22.85	336.56	23.33	-40.1	-42.5	21.0	6.02e-01	0	57	0	83361792	51	4858
2026-01-10 02:32:23.87	336.28	23.43	-40.1	-42.5	21.0	6.00e-01	0	57	0	84934656	51	4852
2026-01-10 02:32:24.88	336.01	23.53	-40.2	-42.6	20.9	6.01e-01	0	57	0	87031808	51	4908
2026-01-10 02:32:25.89	335.74	23.63	-40.2	-42.6	20.9	6.00e-01	0	57	0	89128960	51	4913
2026-01-10 02:32:26.90	335.46	23.72	-40.1	-42.5	21.0	6.01e-01	0	57	0	90701824	51	4847
2026-01-10 02:32:27.91	335.18	23.82	-40.2	-42.6	21.0	5.99e-01	0	57	0	92798976	51	4900
2026-01-10 02:32:28.92	334.90	23.92	-40.2	-42.6	20.9	6.01e-01	0	57	0	94896128	51	4921
2026-01-10 02:32:29.93	334.62	24.02	-40.2	-42.7	20.9	6.00e-01	0	57	0	96468992	51	4940
2026-01-10 02:32:30.94	334.34	24.11	-40.2	-42.6	21.0	6.00e-01	0	57	0	98566144	51	4898
2026-01-10 02:32:31.95	334.06	24.21	-40.0	-42.3	21.2	6.00e-01	0	57	0	100139008	51	4758
2026-01-10 02:32:32.96	333.77	24.30	-40.0	-42.4	21.2	6.01e-01	0	57	0	102236160	51	4782
2026-01-10 02:32:33.98	333.48	24.40	-40.1	-42.5	21.1	6.01e-01	0	57	0	104333312	51	4818
2026-01-10 02:32:34.99	333.19	24.50	-40.2	-42.6	21.0	6.00e-01	0	57	0	105906176	51	4873
2026-01-10 02:32:36.00	332.89	24.59	-40.1	-42.4	21.2	6.00e-01	0	56	0	108003328	51	4805
2026-01-10 02:32:37.01	332.60	24.69	-40.1	-42.5	21.1	6.00e-01	0	57	0	110100480	51	4829
2026-01-10 02:32:38.02	332.30	24.78	-40.1	-42.5	21.1	6.00e-01	0	57	0	111673344	51	4837
2026-01-10 02:32:39.03	332.01	24.87	-40.1	-42.4	21.1	6.01e-01	0	57	0	113770496	51	4810
2026-01-10 02:32:40.04	331.71	24.97	-40.1	-42.5	21.1	6.02e-01	0	57	0	115343360	51	4821
2026-01-10 02:32:41.05	331.40	25.06	-40.1	-42.5	21.1	6.02e-01	0	57	0	117440512	51	4849
2026-01-10 02:32:42.06	331.10	25.15	-40.2	-42.6	21.0	6.04e-01	0	56	0	119537664	51	4880
2026-01-10 02:32:43.07	330.80	25.24	-40.2	-42.6	21.0	6.01e-01	0	57	0	121110528	51	4900
2026-01-10 02:32:44.09	330.48	25.34	-40.1	-42.4	21.2	5.99e-01	0	57	0	123207680	51	4790
2026-01-10 02:32:45.10	330.18	25.43	-40.1	-42.4	21.2	6.00e-01	0	57	0	124780544	51	4794
2026-01-10 02:32:46.11	329.86	25.52	-40.1	-42.4	21.2	6.02e-01	0	57	0	126877696	51	4802
2026-01-10 02:32:47.12	329.55	25.61	-40.0	-42.3	21.3	6.00e-01	0	56	0	128974848	51	4759
2026-01-10 02:32:48.13	329.24	25.69	-40.0	-42.3	21.3	6.01e-01	0	56	0	130547712	51	4733
2026-01-10 02:32:49.14	328.92	25.78	-40.0	-42.3	21.3	5.99e-01	0	56	0	132644864	51	4742
2026-01-10 02:32:50.15	328.60	25.87	-40.1	-42.5	21.1	6.01e-01	0	57	0	134217728	51	4837
2026-01-10 02:32:51.16	328.28	25.96	-40.2	-42.6	21.1	6.03e-01	0	57	0	136314880	51	4908
2026-01-10 02:32:52.17	327.96	26.04	-40.1	-42.5	21.1	6.00e-01	0	57	0	138412032	51	4841
2026-01-10 02:32:53.18	327.64	26.13	-40.1	-42.5	21.2	6.01e-01	0	57	0	139984896	51	4839
2026-01-10 02:32:54.19	327.31	26.22	-40.0	-42.3	21.3	6.01e-01	0	57	0	142082048	51	4757
2026-01-10 02:32:55.20	326.98	26.30	-40.0	-42.4	21.3	6.00e-01	0	57	0	143654912	51	4773
2026-01-10 02:32:56.21	326.65	26.38	-40.0	-42.3	21.4	6.00e-01	0	57	0	145752064	51	4706
2026-01-10 02:32:57.22	326.32	26.47	-40.1	-42.5	21.2	6.01e-01	0	57	0	147849216	51	4833
2026-01-10 02:32:58.23	325.99	26.55	-40.1	-42.5	21.2	6.01e-01	0	57	0	149422080	51	4839
2026-01-10 02:32:59.25	325.65	26.63	-40.1	-42.4	21.3	6.01e-01	0	56	0	151519232	51	4787
2026-01-10 02:33:00.26	325.31	26.71	-40.0	-42.4	21.3	6.01e-01	0	57	0	153616384	51	4773
2026-01-10 02:33:01.27	324.97	26.79	-40.0	-42.3	21.4	6.03e-01	0	57	0	155189248	51	4734
2026-01-10 02:33:02.28	324.63	26.87	-40.0	-42.3	21.4	6.01e-01	0	57	0	157286400	51	4735
2026-01-10 02:33:03.29	324.29	26.95	-39.9	-42.2	21.5	6.00e-01	0	57	0	158859264	51	4678
2026-01-10 02:33:04.30	323.95	27.03	-40.0	-42.2	21.4	6.00e-01	0	57	0	160956416	51	4700
2026-01-10 02:33:05.31	323.60	27.10	-40.1	-42.4	21.2	6.01e-01	0	57	0	163053568	51	4777
2026-01-10 02:33:06.32	323.25	27.18	-39.9	-42.1	21.6	6.00e-01	0	57	0	164626432	51	4636
2026-01-10 02:33:07.33	322.91	27.25	-39.9	-42.2	21.5	6.00e-01	0	57	0	166723584	51	4664
2026-01-10 02:33:08.34	322.55	27.33	-39.9	-42.1	21.6	6.01e-01	0	57	0	168296448	51	4642
2026-01-10 02:33:09.35	322.20	27.40	-39.9	-42.2	21.4	6.02e-01	0	57	0	170393600	51	4685
2026-01-10 02:33:10.36	321.85	27.47	-39.9	-42.2	21.5	6.00e-01	0	57	0	172490752	51	4678
2026-01-10 02:33:11.37	321.49	27.54	-40.0	-42.2	21.5	5.98e-01	0	57	0	174063616	51	4703
2026-01-10 02:33:12.38	321.13	27.61	-40.0	-42.3	21.4	6.02e-01	0	57	0	176160768	51	4751
2026-01-10 02:33:13.40	320.77	27.68	-39.9	-42.2	21.5	6.01e-01	0	57	0	178257920	51	4670
2026-01-10 02:33:14.41	320.41	27.75	-40.0	-42.2	21.5	5.99e-01	0	57	0	179830784	51	4700
2026-01-10 02:33:15.42	320.05	27.81	-39.9	-42.2	21.6	6.01e-01	0	57	0	181927936	51	4653
2026-01-10 02:33:16.43	319.68	27.88	-40.0	-42.3	21.4	6.03e-01	0	57	0	183500800	51	4729
2026-01-10 02:33:17.44	319.32	27.94	-40.0	-42.3	21.5	6.02e-01	0	57	0	185597952	51	4720
2026-01-10 02:33:18.45	318.95	28.01	-40.1	-42.4	21.3	6.01e-01	0	57	0	187695104	51	4772
2026-01-10 02:33:19.46	318.58	28.07	-39.9	-42.2	21.5	6.01e-01	0	57	0	189267968	51	4670
2026-01-10 02:33:20.47	318.21	28.13	-39.7	-41.9	21.8	6.03e-01	0	57	0	191365120	51	4522
2026-01-10 02:33:21.48	317.84	28.19	-39.9	-42.2	21.5	5.99e-01	0	57	0	192937984	51	4665
2026-01-10 02:33:22.49	317.47	28.25	-39.8	-42.0	21.8	6.01e-01	0	57	0	195035136	51	4547
2026-01-10 02:33:23.51	317.09	28.31	-40.0	-42.2	21.5	6.00e-01	0	57	0	197132288	51	4701
2026-01-10 02:33:24.52	316.72	28.37	-39.8	-42.1	21.6	6.02e-01	0	57	0	198705152	51	4621
2026-01-10 02:33:25.53	316.34	28.42	-39.7	-41.9	21.9	6.02e-01	0	57	0	200802304	51	4505
2026-01-10 02:33:26.54	315.96	28.47	-39.9	-42.2	21.6	6.00e-01	0	57	0	202899456	51	4664
2026-01-10 02:33:27.55	315.58	28.53	-39.9	-42.2	21.5	6.02e-01	0	57	0	204472320	51	4666
2026-01-10 02:33:28.56	315.20	28.58	-39.8	-42.1	21.7	6.02e-01	0	57	0	206569472	51	4603
2026-01-10 02:33:29.57	314.82	28.63	-39.7	-41.9	21.8	6.02e-01	0	57	0	208142336	51	4544
2026-01-10 02:33:30.58	314.43	28.68	-39.9	-42.2	21.6	6.04e-01	0	57	0	210239488	51	4658
2026-01-10 02:33:31.59	314.05	28.73	-39.7	-41.9	21.8	5.99e-01	0	57	0	212336640	51	4535
2026-01-10 02:33:32.60	313.66	28.77	-39.9	-42.1	21.6	6.00e-01	0	57	0	213909504	51	4623
2026-01-10 02:33:33.61	313.27	28.82	-40.0	-42.3	21.4	6.01e-01	0	57	0	216006656	51	4725
2026-01-10 02:33:34.62	312.89	28.86	-39.6	-41.7	22.0	6.00e-01	0	57	0	218103808	51	4427
2026-01-10 02:33:35.64	312.49	28.90	-39.9	-42.2	21.4	6.00e-01	0	57	0	219676672	51	4688
2026-01-10 02:33:36.65	312.10	28.94	-40.2	-42.6	21.2	6.03e-01	0	57	0	221773824	51	4892
2026-01-10 02:33:37.66	311.71	28.98	-39.7	-41.9	21.9	6.00e-01	0	57	0	223346688	51	4506
2026-01-10 02:33:38.67	311.32	29.02	-40.1	-42.4	21.2	6.01e-01	0	57	0	225443840	51	4798
2026-01-10 02:33:39.68	310.92	29.06	-40.4	-42.9	20.9	6.00e-01	0	57	0	227540992	51	5049
2026-01-10 02:33:40.69	310.53	29.09	-39.7	-41.9	21.8	6.02e-01	0	57	0	229113856	51	4528
2026-01-10 02:33:41.70	310.13	29.13	-40.2	-42.6	21.1	5.99e-01	0	57	0	231211008	51	4878
2026-01-10 02:33:42.71	309.74	29.16	-40.7	-43.3	20.5	5.98e-01	0	57	0	232783872	51	5298
2026-01-10 02:33:43.72	309.34	29.19	-39.9	-42.2	21.6	6.02e-01	0	57	0	234881024	51	4660
2026-01-10 02:33:44.73	308.94	29.22	-40.1	-42.5	21.1	6.00e-01	0	57	0	236978176	52	4547
2026-01-10 02:33:45.74	308.54	29.25	-40.4	-42.9	20.8	6.01e-01	0	57	0	238551040	51	5084
2026-01-10 02:33:46.75	308.15	29.28	-39.9	-42.2	21.6	6.02e-01	0	57	0	240648192	51	4663
2026-01-10 02:33:47.76	307.75	29.30	-40.0	-42.3	21.4	5.98e-01	0	57	0	242745344	51	4722
2026-01-10 02:33:48.77	307.35	29.32	-40.6	-43.1	20.6	6.02e-01	0	57	0	244318208	51	5210
2026-01-10 02:33:49.78	306.94	29.35	-40.0	-42.3	21.5	6.04e-01	0	57	0	246415360	51	4731
2026-01-10 02:33:50.79	306.54	29.37	-40.2	-42.6	21.0	5.99e-01	0	57	0	247988224	52	4610
2026-01-10 02:33:51.80	306.14	29.39	-41.1	-44.0	19.8	5.99e-01	0	57	0	250085376	52	5406
2026-01-10 02:33:52.81	305.74	29.40	-40.1	-42.4	21.3	6.01e-01	0	57	0	252182528	51	4813
2026-01-10 02:33:53.82	305.33	29.42	-40.0	-42.4	21.2	6.00e-01	0	57	0	253755392	52	4498
2026-01-10 02:33:54.83	304.93	29.44	-40.7	-43.3	20.4	6.03e-01	0	57	0	255852544	52	5026
2026-01-10 02:33:55.84	304.53	29.45	-40.0	-42.3	21.5	6.00e-01	0	57	0	257425408	51	4727
2026-01-10 02:33:56.84	304.13	29.46	-40.4	-42.9	20.7	6.02e-01	0	57	0	259522560	52	4809
2026-01-10 02:33:57.85	303.72	29.47	-40.2	-42.6	21.1	6.02e-01	0	57	0	261095424	52	4620
2026-01-10 02:33:58.85	303.32	29.48	-39.9	-42.1	21.5	6.01e-01	0	57	0	263192576	51	4609
2026-01-10 02:33:59.86	302.92	29.48	-40.9	-43.7	20.0	6.02e-01	0	57	0	265289728	52	5224
2026-01-10 02:34:00.87	302.51	29.49	-39.9	-42.1	21.6	5.99e-01	0	57	0	266862592	50	4915
2026-01-10 02:34:01.88	302.10	29.49	-39.6	-41.8	21.9	6.02e-01	0	57	0	268959744	51	4453
2026-01-10 02:34:02.89	301.70	29.50	-40.7	-43.3	20.2	6.00e-01	0	57	0	271056896	52	5012
2026-01-10 02:34:03.90	301.29	29.50	-40.6	-43.1	20.7	5.99e-01	0	57	0	272629760	51	5175
2026-01-10 02:34:04.91	300.89	29.50	-40.6	-43.2	20.6	6.00e-01	0	57	0	274726912	51	5259
2026-01-10 02:34:05.92	300.48	29.49	-39.9	-42.1	21.7	6.02e-01	0	57	0	276299776	51	4617
2026-01-10 02:34:06.93	300.08	29.49	-40.1	-42.4	21.3	6.01e-01	0	57	0	278396928	51	4775
2026-01-10 02:34:07.93	299.68	29.48	-40.5	-43.0	20.8	6.00e-01	0	57	0	280494080	51	5103
2026-01-10 02:34:08.94	299.27	29.48	-40.4	-42.9	20.9	6.00e-01	0	57	0	282066944	51	5072
2026-01-10 02:34:09.95	298.87	29.47	-40.7	-43.3	20.4	5.98e-01	0	57	0	284164096	52	5005
2026-01-10 02:34:10.96	298.46	29.46	-40.0	-42.2	21.5	6.00e-01	0	57	0	286261248	51	4682
2026-01-10 02:34:11.97	298.06	29.45	-40.3	-42.7	20.9	6.01e-01	0	57	0	287834112	51	4973
2026-01-10 02:34:12.97	297.66	29.43	-40.3	-42.7	21.1	6.01e-01	0	57	0	289931264	51	4966
2026-01-10 02:34:13.98	297.25	29.42	-39.9	-42.2	21.4	6.01e-01	0	57	0	291504128	51	4667
2026-01-10 02:34:14.99	296.85	29.40	-40.2	-42.5	21.2	6.03e-01	0	57	0	293601280	51	4852
2026-01-10 02:34:15.99	296.45	29.38	-40.1	-42.5	21.2	6.04e-01	0	57	0	295174144	51	4828
2026-01-10 02:34:17.00	296.05	29.36	-40.1	-42.5	21.3	6.02e-01	0	57	0	297271296	51	4817
2026-01-10 02:34:18.00	295.65	29.34	-40.0	-42.2	21.5	6.00e-01	0	57	0	299368448	51	4687
2026-01-10 02:34:19.01	295.25	29.32	-40.5	-43.0	20.8	6.02e-01	0	57	0	300941312	51	5115
2026-01-10 02:34:20.02	294.85	29.30	-39.9	-42.1	21.6	6.00e-01	0	56	0	303038464	51	4609
2026-01-10 02:34:21.03	294.45	29.27	-40.7	-43.4	20.2	6.01e-01	0	57	0	304611328	52	5096
2026-01-10 02:34:22.03	294.05	29.24	-39.8	-42.0	21.8	6.01e-01	0	57	0	306708480	51	4551
2026-01-10 02:34:23.04	293.65	29.22	-40.4	-42.9	20.7	6.00e-01	0	57	0	308805632	51	5092
2026-01-10 02:34:24.05	293.25	29.19	-40.3	-42.7	21.0	6.02e-01	0	57	0	310378496	51	4965
2026-01-10 02:34:25.05	292.86	29.16	-40.1	-42.5	21.0	6.00e-01	0	57	0	312475648	52	4570
2026-01-10 02:34:26.06	292.46	29.12	-40.9	-43.6	20.1	6.01e-01	0	57	0	314572800	52	5189
2026-01-10 02:34:27.07	292.07	29.09	-39.9	-42.1	21.6	6.01e-01	0	57	0	316145664	51	4636
2026-01-10 02:34:28.07	291.68	29.05	-40.6	-43.2	20.4	5.99e-01	0	57	0	318242816	52	4963
2026-01-10 02:34:29.08	291.28	29.02	-40.2	-42.6	21.2	6.02e-01	0	57	0	319815680	51	4886
2026-01-10 02:34:30.08	290.89	28.98	-40.1	-42.5	21.0	5.99e-01	0	57	0	321912832	52	4561
2026-01-10 02:34:31.09	290.50	28.94	-40.6	-43.1	20.6	6.01e-01	0	57	0	323485696	51	5209
2026-01-10 02:34:32.10	290.11	28.90	-39.6	-41.7	21.8	5.98e-01	0	57	0	325582848	51	4427
2026-01-10 02:34:33.10	289.73	28.85	-40.6	-43.2	20.5	6.02e-01	0	57	0	327680000	51	5242
2026-01-10 02:34:34.11	289.34	28.81	-39.5	-41.6	22.0	5.99e-01	0	57	0	329252864	51	4385
2026-01-10 02:34:35.12	288.95	28.77	-40.9	-43.7	19.9	5.99e-01	0	57	0	331350016	52	5278
2026-01-10 02:34:36.12	288.57	28.72	-39.4	-41.5	22.1	6.01e-01	0	57	0	332922880	50	4560
2026-01-10 02:34:37.13	288.18	28.67	-40.8	-43.6	20.1	6.01e-01	0	57	0	335020032	52	5161
2026-01-10 02:34:38.14	287.80	28.62	-39.6	-41.7	22.0	6.00e-01	0	57	0	337117184	51	4401
2026-01-10 02:34:39.15	287.41	28.57	-40.8	-43.5	20.2	6.03e-01	0	57	0	338690048	52	5118
2026-01-10 02:34:40.15	287.04	28.52	-40.0	-42.3	21.4	6.03e-01	0	57	0	340787200	51	4713
2026-01-10 02:34:41.15	286.66	28.47	-40.4	-42.9	20.7	6.00e-01	0	57	0	342884352	51	5055
2026-01-10 02:34:42.16	286.28	28.41	-40.1	-42.3	21.4	6.02e-01	0	57	0	344457216	51	4758
2026-01-10 02:34:43.17	285.90	28.36	-40.7	-43.3	20.2	6.00e-01	0	57	0	346554368	52	5026
2026-01-10 02:34:44.18	285.53	28.30	-39.7	-41.9	21.8	6.02e-01	0	57	0	348127232	51	4517
2026-01-10 02:34:45.18	285.15	28.24	-40.7	-43.3	20.3	6.01e-01	0	57	0	350224384	52	5037
2026-01-10 02:34:46.20	284.78	28.18	-40.0	-42.3	21.3	6.02e-01	0	57	0	351797248	52	4467
2026-01-10 02:34:47.20	284.41	28.12	-40.7	-43.3	20.4	6.00e-01	0	57	0	353894400	52	5024
2026-01-10 02:34:48.21	284.04	28.06	-40.1	-42.4	21.2	6.01e-01	0	57	0	355991552	52	4545
2026-01-10 02:34:49.22	283.67	28.00	-40.5	-43.1	20.6	6.01e-01	0	57	0	357564416	52	4878
2026-01-10 02:34:50.23	283.30	27.94	-40.3	-42.8	20.7	6.02e-01	0	57	0	359661568	52	4729
2026-01-10 02:34:51.24	282.93	27.87	-40.3	-42.8	20.9	6.02e-01	0	57	0	361234432	52	4733
2026-01-10 02:34:52.25	282.57	27.81	-40.6	-43.2	20.5	6.00e-01	0	57	0	363331584	52	4946
2026-01-10 02:34:53.25	282.21	27.74	-40.3	-42.8	20.9	6.01e-01	0	57	0	365428736	52	4709
2026-01-10 02:34:54.26	281.85	27.67	-40.7	-43.4	20.3	5.99e-01	0	57	0	367001600	52	5065
2026-01-10 02:34:55.27	281.49	27.60	-40.2	-42.6	21.1	6.02e-01	0	57	0	369098752	52	4602
2026-01-10 02:34:56.28	281.13	27.53	-40.2	-42.6	21.0	6.01e-01	0	57	0	371195904	52	4644
2026-01-10 02:34:57.29	280.77	27.46	-40.5	-43.1	20.5	6.00e-01	0	57	0	372768768	52	4909
2026-01-10 02:34:58.30	280.42	27.39	-40.3	-42.7	20.9	6.00e-01	0	57	0	374865920	52	4701
2026-01-10 02:34:59.31	280.06	27.32	-40.5	-43.0	20.7	6.01e-01	0	57	0	376438784	52	4856
2026-01-10 02:35:00.32	279.71	27.24	-40.4	-42.8	20.8	6.00e-01	0	57	0	378535936	52	4746
2026-01-10 02:35:01.32	279.37	27.17	-40.4	-42.9	20.8	6.01e-01	0	57	0	380633088	52	4787
2026-01-10 02:35:02.33	279.02	27.09	-40.3	-42.8	20.9	6.01e-01	0	57	0	382205952	52	4730
2026-01-10 02:35:03.33	278.67	27.02	-40.2	-42.6	21.1	6.02e-01	0	57	0	384303104	52	4606
2026-01-10 02:35:04.34	278.33	26.94	-40.6	-43.3	20.4	5.99e-01	0	57	0	385875968	52	4994
2026-01-10 02:35:05.35	277.99	26.86	-40.6	-43.1	20.5	6.02e-01	0	57	0	387973120	52	4911
2026-01-10 02:35:06.35	277.65	26.78	-40.4	-42.9	20.8	6.00e-01	0	57	0	390070272	52	4761
2026-01-10 02:35:07.36	277.31	26.70	-40.6	-43.2	20.4	6.01e-01	0	57	0	391643136	52	4947
2026-01-10 02:35:08.37	276.97	26.62	-40.5	-43.1	20.5	6.00e-01	0	57	0	393740288	52	4890
2026-01-10 02:35:09.38	276.63	26.54	-40.4	-42.9	20.8	6.01e-01	0	57	0	395313152	52	4761
2026-01-10 02:35:10.39	276.30	26.46	-40.6	-43.1	20.5	6.00e-01	0	57	0	397410304	52	4925
2026-01-10 02:35:11.40	275.97	26.37	-40.6	-43.2	20.4	6.03e-01	0	57	0	399507456	52	4977
2026-01-10 02:35:12.41	275.64	26.29	-40.4	-42.8	20.8	6.05e-01	0	57	0	401080320	52	4754
2026-01-10 02:35:13.42	275.31	26.21	-40.5	-43.0	20.6	5.98e-01	0	57	0	403177472	52	4852
2026-01-10 02:35:14.42	274.98	26.12	-40.5	-43.1	20.5	6.02e-01	0	57	0	404750336	52	4885
2026-01-10 02:35:15.43	274.66	26.03	-40.5	-43.0	20.6	6.01e-01	0	57	0	406847488	52	4859
2026-01-10 02:35:16.44	274.34	25.95	-40.5	-43.1	20.6	6.02e-01	0	57	0	408944640	52	4879
2026-01-10 02:35:17.45	274.01	25.86	-40.6	-43.2	20.4	6.02e-01	0	57	0	410517504	52	4977
2026-01-10 02:35:18.46	273.69	25.77	-40.6	-43.2	20.5	6.00e-01	0	57	0	412614656	52	4928
2026-01-10 02:35:19.47	273.38	25.68	-40.7	-43.4	20.3	6.00e-01	0	57	0	414187520	52	5072
2026-01-10 02:35:20.47	273.06	25.60	-40.5	-43.1	20.5	6.04e-01	0	57	0	416284672	52	4893
2026-01-10 02:35:21.48	272.75	25.51	-40.4	-42.9	20.7	6.03e-01	0	57	0	418381824	52	4792
2026-01-10 02:35:22.49	272.44	25.42	-40.5	-43.1	20.6	6.02e-01	0	57	0	419954688	52	4886
2026-01-10 02:35:23.50	272.13	25.32	-40.7	-43.4	20.3	5.99e-01	0	57	0	422051840	52	5058
2026-01-10 02:35:24.51	271.82	25.23	-40.7	-43.3	20.3	6.02e-01	0	57	0	424148992	52	5027
2026-01-10 02:35:25.52	271.51	25.14	-40.5	-43.1	20.5	6.02e-01	0	57	0	425721856	52	4889
2026-01-10 02:35:26.52	271.21	25.05	-40.5	-43.1	20.5	6.00e-01	0	57	0	427819008	52	4878
2026-01-10 02:35:27.53	270.91	24.96	-40.5	-43.1	20.5	6.02e-01	0	57	0	429391872	52	4875
2026-01-10 02:35:28.54	270.61	24.86	-40.7	-43.3	20.3	6.00e-01	0	57	0	431489024	52	5035
2026-01-10 02:35:29.55	270.31	24.77	-40.6	-43.3	20.3	6.00e-01	0	57	0	433061888	52	5005
2026-01-10 02:35:30.56	270.01	24.67	-40.6	-43.3	20.3	5.99e-01	0	57	0	435159040	52	4986
2026-01-10 02:35:31.57	269.71	24.58	-40.5	-43.1	20.4	6.02e-01	0	57	0	437256192	52	4904
2026-01-10 02:35:32.57	269.42	24.48	-40.6	-43.2	20.4	6.01e-01	0	57	0	438829056	52	4946
2026-01-10 02:35:33.58	269.13	24.39	-40.6	-43.1	20.4	6.02e-01	0	57	0	440926208	52	4925
2026-01-10 02:35:34.59	268.84	24.29	-40.5	-43.1	20.5	6.02e-01	0	57	0	442499072	52	4875
2026-01-10 02:35:35.59	268.56	24.20	-40.6	-43.2	20.4	6.01e-01	0	57	0	444596224	52	4958
2026-01-10 02:35:36.60	268.27	24.10	-40.6	-43.3	20.3	6.02e-01	0	57	0	446693376	52	4992
2026-01-10 02:35:37.61	267.99	24.00	-40.6	-43.2	20.3	6.02e-01	0	57	0	448266240	52	4979
2026-01-10 02:35:38.61	267.71	23.91	-40.6	-43.2	20.4	6.02e-01	0	57	0	450363392	52	4946
2026-01-10 02:35:39.62	267.43	23.81	-40.6	-43.2	20.4	6.01e-01	0	57	0	452460544	52	4947
2026-01-10 02:35:40.63	267.15	23.71	-40.7	-43.3	20.2	6.02e-01	0	57	0	454033408	52	5038
2026-01-10 02:35:41.63	266.87	23.61	-40.7	-43.3	20.3	6.01e-01	0	57	0	456130560	52	5023
2026-01-10 02:35:42.64	266.60	23.51	-40.5	-43.1	20.4	6.01e-01	0	56	0	457703424	52	4908
2026-01-10 02:35:43.65	266.32	23.42	-40.6	-43.1	20.4	6.00e-01	0	56	0	459800576	52	4920
2026-01-10 02:35:44.65	266.06	23.32	-40.7	-43.4	20.2	6.02e-01	0	57	0	461373440	52	5060
2026-01-10 02:35:45.66	265.79	23.22	-40.8	-43.5	20.1	6.01e-01	0	57	0	463470592	52	5138
2026-01-10 02:35:46.67	265.52	23.12	-40.6	-43.2	20.3	6.00e-01	0	57	0	465567744	52	4977
2026-01-10 02:35:47.67	265.25	23.02	-40.5	-43.1	20.5	6.00e-01	0	57	0	467140608	52	4891
2026-01-10 02:35:48.68	264.99	22.92	-40.6	-43.2	20.3	6.00e-01	0	57	0	469237760	52	4981
2026-01-10 02:35:49.69	264.73	22.82	-40.7	-43.4	20.2	6.02e-01	0	57	0	470810624	52	5071
2026-01-10 02:35:50.69	264.47	22.72	-40.7	-43.4	20.2	6.01e-01	0	57	0	472907776	52	5072
2026-01-10 02:35:51.70	264.21	22.62	-40.6	-43.3	20.3	6.00e-01	0	57	0	475004928	52	5009
2026-01-10 02:35:52.71	263.95	22.52	-40.6	-43.2	20.3	6.02e-01	0	57	0	476577792	52	4958
2026-01-10 02:35:53.72	263.70	22.42	-40.6	-43.2	20.3	6.02e-01	0	57	0	478674944	52	4976
2026-01-10 02:35:54.73	263.44	22.31	-40.6	-43.2	20.3	6.02e-01	0	57	0	480772096	52	4968
2026-01-10 02:35:55.73	263.19	22.21	-40.7	-43.4	20.1	6.00e-01	0	57	0	482344960	52	5053
2026-01-10 02:35:56.74	262.94	22.11	-40.6	-43.2	20.3	6.04e-01	0	57	0	484442112	52	4980
2026-01-10 02:35:57.75	262.69	22.01	-40.6	-43.2	20.4	6.00e-01	0	57	0	486014976	52	4941
2026-01-10 02:35:58.76	262.45	21.91	-40.5	-43.1	20.4	5.99e-01	0	57	0	488112128	52	4908
2026-01-10 02:35:59.77	262.20	21.81	-40.5	-43.1	20.4	6.02e-01	0	57	0	490209280	52	4888
2026-01-10 02:36:00.78	261.96	21.70	-40.5	-43.0	20.5	6.00e-01	0	57	0	491782144	52	4866
2026-01-10 02:36:01.79	261.72	21.60	-40.5	-43.1	20.4	6.00e-01	0	57	0	493879296	52	4904
2026-01-10 02:36:02.79	261.48	21.50	-40.6	-43.3	20.3	6.00e-01	0	57	0	495452160	52	4995
2026-01-10 02:36:03.80	261.24	21.40	-40.6	-43.3	20.2	6.03e-01	0	57	0	497549312	52	4994
2026-01-10 02:36:04.81	261.00	21.30	-40.5	-43.1	20.3	6.02e-01	0	57	0	499646464	52	4913
2026-01-10 02:36:05.82	260.77	21.20	-40.4	-42.9	20.5	6.00e-01	0	57	0	501219328	52	4804
2026-01-10 02:36:06.83	260.53	21.09	-40.5	-43.1	20.4	6.01e-01	0	57	0	503316480	52	4910
2026-01-10 02:36:07.83	260.30	20.99	-40.6	-43.3	20.2	6.01e-01	0	57	0	504889344	52	4996
2026-01-10 02:36:08.84	260.07	20.89	-40.6	-43.2	20.3	5.99e-01	0	57	0	506986496	52	4948
2026-01-10 02:36:09.84	259.85	20.79	-40.5	-43.1	20.3	6.02e-01	0	57	0	509083648	52	4900
2026-01-10 02:36:10.85	259.62	20.69	-40.5	-43.1	20.4	6.02e-01	0	57	0	510656512	52	4887
2026-01-10 02:36:11.86	259.39	20.58	-40.4	-43.0	20.5	6.00e-01	0	57	0	512753664	52	4857
2026-01-10 02:36:12.87	259.17	20.48	-40.6	-43.3	20.2	6.01e-01	0	57	0	514326528	52	4984
2026-01-10 02:36:13.87	258.95	20.38	-40.7	-43.4	20.0	6.02e-01	0	57	0	516423680	52	5086
2026-01-10 02:36:14.88	258.73	20.28	-40.7	-43.5	20.0	6.00e-01	0	57	0	518520832	52	5116
2026-01-10 02:36:15.89	258.51	20.17	-40.4	-43.0	20.5	6.01e-01	0	57	0	520093696	52	4832
2026-01-10 02:36:16.89	258.29	20.07	-40.3	-42.9	20.6	5.99e-01	0	57	0	522190848	52	4778
2026-01-10 02:36:17.90	258.08	19.97	-40.4	-42.9	20.5	6.01e-01	0	57	0	523763712	52	4789
2026-01-10 02:36:18.91	257.86	19.87	-40.5	-43.1	20.4	6.01e-01	0	57	0	525860864	52	4889
2026-01-10 02:36:19.91	257.65	19.77	-40.5	-43.1	20.3	6.00e-01	0	57	0	527958016	52	4920
2026-01-10 02:36:20.92	257.44	19.67	-40.6	-43.3	20.2	6.02e-01	0	57	0	529530880	52	4986
2026-01-10 02:36:21.92	257.23	19.57	-40.4	-43.0	20.4	6.00e-01	0	57	0	531628032	52	4836
2026-01-10 02:36:22.93	257.02	19.46	-40.5	-43.1	20.3	6.03e-01	0	57	0	533200896	52	4905
2026-01-10 02:36:23.94	256.82	19.36	-40.5	-43.2	20.2	6.00e-01	0	57	0	535298048	52	4928
2026-01-10 02:36:24.95	256.61	19.26	-40.5	-43.1	20.3	5.99e-01	0	57	0	537395200	52	4916
2026-01-10 02:36:25.95	256.41	19.16	-40.4	-43.0	20.4	6.00e-01	0	57	0	538968064	52	4826
2026-01-10 02:36:26.96	256.20	19.06	-40.4	-43.0	20.5	6.00e-01	0	57	0	541065216	52	4818
2026-01-10 02:36:27.97	256.00	18.96	-40.4	-43.0	20.3	6.00e-01	0	57	0	542638080	52	4853
2026-01-10 02:36:28.97	255.80	18.86	-40.4	-43.0	20.4	6.02e-01	0	57	0	544735232	52	4853
2026-01-10 02:36:29.98	255.61	18.75	-40.5	-43.1	20.3	5.99e-01	0	57	0	546832384	52	4900
2026-01-10 02:36:30.99	255.41	18.65	-40.5	-43.2	20.2	6.02e-01	0	57	0	548405248	52	4940
2026-01-10 02:36:32.00	255.21	18.55	-40.5	-43.1	20.2	6.00e-01	0	57	0	550502400	52	4919
2026-01-10 02:36:33.00	255.02	18.45	-40.5	-43.2	20.2	6.01e-01	0	57	0	552075264	52	4957
2026-01-10 02:36:34.02	254.83	18.35	-40.6	-43.3	20.1	6.00e-01	0	57	0	554172416	52	5009
2026-01-10 02:36:35.02	254.64	18.25	-40.7	-43.4	20.0	6.03e-01	0	57	0	556269568	52	5058
2026-01-10 02:36:36.03	254.44	18.15	-40.6	-43.3	20.1	6.00e-01	0	57	0	557842432	52	4987
2026-01-10 02:36:37.04	254.26	18.05	-40.5	-43.2	20.2	6.01e-01	0	57	0	559939584	52	4962
2026-01-10 02:36:38.05	254.07	17.95	-40.5	-43.1	20.2	6.01e-01	0	57	0	561512448	52	4912
2026-01-10 02:36:39.06	253.88	17.85	-40.4	-43.1	20.3	6.02e-01	0	57	0	563609600	52	4875
2026-01-10 02:36:40.07	253.70	17.75	-40.4	-43.0	20.4	6.03e-01	0	57	0	565706752	52	4823
2026-01-10 02:36:41.08	253.51	17.65	-40.4	-43.0	20.3	5.99e-01	0	57	0	567279616	52	4859
2026-01-10 02:36:42.09	253.33	17.55	-40.4	-43.0	20.3	6.01e-01	0	57	0	569376768	52	4858
2026-01-10 02:36:43.10	253.15	17.45	-40.4	-43.0	20.3	6.02e-01	0	56	0	570949632	52	4849
2026-01-10 02:36:44.11	252.97	17.35	-40.4	-43.0	20.3	5.99e-01	0	57	0	573046784	52	4862
2026-01-10 02:36:45.12	252.79	17.25	-40.4	-43.1	20.3	6.01e-01	0	57	0	575143936	52	4889
2026-01-10 02:36:46.13	252.61	17.15	-40.5	-43.2	20.2	5.99e-01	0	57	0	576716800	52	4932
2026-01-10 02:36:47.14	252.44	17.06	-40.5	-43.2	20.2	6.00e-01	0	57	0	578813952	52	4940
2026-01-10 02:36:48.14	252.26	16.96	-40.5	-43.2	20.0	6.01e-01	0	57	0	580911104	52	4982
2026-01-10 02:36:49.15	252.09	16.86	-40.5	-43.2	20.1	6.01e-01	0	57	0	582483968	52	4972
2026-01-10 02:36:50.15	251.92	16.76	-40.4	-43.1	20.2	6.03e-01	0	57	0	584581120	52	4884
2026-01-10 02:36:51.16	251.75	16.66	-40.3	-42.8	20.5	6.01e-01	0	57	0	586153984	52	4756
2026-01-10 02:36:52.17	251.58	16.57	-40.2	-42.8	20.5	6.03e-01	0	57	0	588251136	52	4739
2026-01-10 02:36:53.18	251.41	16.47	-40.3	-42.9	20.4	5.99e-01	0	57	0	590348288	52	4770
2026-01-10 02:36:54.18	251.24	16.37	-40.4	-43.1	20.2	6.00e-01	0	57	0	591921152	52	4903
2026-01-10 02:36:55.19	251.07	16.27	-40.5	-43.2	20.1	6.00e-01	0	57	0	594018304	52	4963
2026-01-10 02:36:56.20	250.91	16.18	-40.4	-43.1	20.2	6.02e-01	0	57	0	595591168	52	4904
2026-01-10 02:36:57.20	250.75	16.08	-40.4	-43.0	20.2	6.00e-01	0	57	0	597688320	52	4861
2026-01-10 02:36:58.21	250.58	15.98	-40.4	-43.1	20.2	6.01e-01	0	57	0	599785472	52	4906
2026-01-10 02:36:59.22	250.42	15.89	-40.5	-43.1	20.1	6.02e-01	0	57	0	601358336	52	4925
2026-01-10 02:37:00.22	250.26	15.79	-40.5	-43.3	20.0	6.01e-01	0	57	0	603455488	52	4993
2026-01-10 02:37:01.23	250.10	15.70	-40.6	-43.4	19.9	6.00e-01	0	57	0	605028352	52	5081
2026-01-10 02:37:02.24	249.94	15.60	-40.5	-43.2	20.0	6.00e-01	0	57	0	607125504	52	4983
2026-01-10 02:37:03.24	249.79	15.51	-40.5	-43.2	20.1	6.00e-01	0	57	0	609222656	52	4940
2026-01-10 02:37:04.25	249.63	15.41	-40.4	-43.1	20.1	5.99e-01	0	57	0	610795520	52	4896
2026-01-10 02:37:05.26	249.47	15.32	-40.5	-43.2	20.0	5.99e-01	0	57	0	612892672	52	4960
2026-01-10 02:37:06.27	249.32	15.22	-40.4	-43.1	20.1	6.01e-01	0	57	0	614465536	52	4884
2026-01-10 02:37:07.28	249.17	15.13	-40.3	-43.0	20.3	6.01e-01	0	57	0	616562688	52	4824
2026-01-10 02:37:08.28	249.02	15.03	-40.4	-43.1	20.2	6.02e-01	0	57	0	618659840	52	4880
2026-01-10 02:37:09.29	248.86	14.94	-40.4	-43.1	20.1	6.02e-01	0	57	0	620232704	52	4923
2026-01-10 02:37:10.30	248.71	14.84	-40.5	-43.2	20.0	5.99e-01	0	57	0	622329856	52	4973
2026-01-10 02:37:11.30	248.57	14.75	-40.6	-43.3	19.9	6.01e-01	0	57	0	623902720	52	5031
2026-01-10 02:37:12.31	248.42	14.66	-40.6	-43.3	19.9	6.01e-01	0	57	0	625999872	52	5021
2026-01-10 02:37:13.32	248.27	14.56	-40.6	-43.4	19.8	6.01e-01	0	57	0	628097024	52	5100
2026-01-10 02:37:14.32	248.13	14.47	-40.6	-43.3	19.9	6.03e-01	0	57	0	629669888	52	5022
2026-01-10 02:37:15.33	247.98	14.38	-40.5	-43.3	19.9	6.02e-01	0	57	0	631767040	52	5019
2026-01-10 02:37:16.34	247.84	14.28	-40.5	-43.2	20.0	6.01e-01	0	57	0	633339904	52	4980
2026-01-10 02:37:17.34	247.69	14.19	-40.5	-43.3	19.9	6.03e-01	0	57	0	635437056	52	4991
2026-01-10 02:37:18.35	247.55	14.10	-40.5	-43.2	20.0	6.02e-01	0	57	0	637534208	52	4952
2026-01-10 02:37:19.35	247.41	14.01	-40.5	-43.2	20.0	6.02e-01	0	57	0	639107072	52	4967
2026-01-10 02:37:20.36	247.27	13.92	-40.6	-43.4	19.8	6.00e-01	0	57	0	641204224	52	5059
2026-01-10 02:37:21.37	247.13	13.82	-40.6	-43.5	19.7	6.02e-01	0	57	0	642777088	52	5120
2026-01-10 02:37:22.38	246.99	13.73	-40.7	-43.6	19.6	5.99e-01	0	57	0	644874240	52	5191
2026-01-10 02:37:23.37	246.86	13.64	-40.7	-43.5	19.6	6.00e-01	0	57	0	646971392	52	5150
2026-01-10 02:37:24.38	246.72	13.55	-40.6	-43.4	19.8	6.01e-01	0	56	0	648544256	52	5081
2026-01-10 02:37:25.39	246.59	13.46	-40.6	-43.4	19.8	6.01e-01	0	57	0	650641408	52	5046
2026-01-10 02:37:26.39	246.45	13.37	-40.6	-43.4	19.8	6.00e-01	0	57	0	652214272	52	5066
2026-01-10 02:37:27.40	246.32	13.28	-40.6	-43.4	19.8	6.02e-01	0	57	0	654311424	52	5042
2026-01-10 02:37:28.41	246.18	13.19	-40.5	-43.3	19.9	6.01e-01	0	57	0	656408576	52	5009
2026-01-10 02:37:29.42	246.05	13.10	-40.5	-43.2	19.9	5.98e-01	0	57	0	657981440	52	4973
2026-01-10 02:37:30.42	245.92	13.01	-40.6	-43.4	19.8	5.99e-01	0	57	0	660078592	52	5068
2026-01-10 02:37:31.43	245.79	12.92	-40.7	-43.5	19.7	6.02e-01	0	57	0	661651456	52	5134
2026-01-10 02:37:32.44	245.66	12.83	-40.7	-43.6	19.5	6.00e-01	0	57	0	663748608	52	5196
2026-01-10 02:37:33.45	245.53	12.74	-40.6	-43.5	19.6	6.02e-01	0	57	0	665845760	52	5126
2026-01-10 02:37:34.46	245.41	12.65	-40.6	-43.5	19.7	5.99e-01	0	57	0	667418624	52	5118
2026-01-10 02:37:35.47	245.28	12.57	-40.6	-43.5	19.6	6.01e-01	0	57	0	669515776	52	5136
2026-01-10 02:37:36.48	245.15	12.48	-40.7	-43.7	19.5	6.02e-01	0	57	0	671088640	52	5239
2026-01-10 02:37:37.49	245.03	12.39	-40.8	-43.8	19.3	5.99e-01	0	57	0	673185792	52	5282
2026-01-10 02:37:38.49	244.90	12.30	-40.7	-43.6	19.5	5.99e-01	0	57	0	675282944	52	5199
2026-01-10 02:37:39.50	244.78	12.21	-40.7	-43.6	19.5	6.02e-01	0	57	0	676855808	52	5218
2026-01-10 02:37:40.51	244.66	12.13	-40.7	-43.6	19.5	6.03e-01	0	57	0	678952960	52	5193
2026-01-10 02:37:41.51	244.53	12.04	-40.7	-43.6	19.5	6.00e-01	0	56	0	680525824	52	5173
2026-01-10 02:37:42.52	244.41	11.95	-40.7	-43.7	19.4	5.98e-01	0	56	0	682622976	52	5252
2026-01-10 02:37:43.53	244.29	11.87	-40.8	-43.8	19.3	6.01e-01	0	57	0	684720128	52	5289
2026-01-10 02:37:44.53	244.17	11.78	-40.8	-43.7	19.3	6.00e-01	0	57	0	686292992	52	5278
2026-01-10 02:37:45.54	244.05	11.69	-40.7	-43.7	19.4	6.01e-01	0	57	0	688390144	52	5234
2026-01-10 02:37:46.55	243.94	11.61	-40.7	-43.6	19.4	6.03e-01	0	57	0	690487296	52	5204
2026-01-10 02:37:47.56	243.82	11.52	-40.7	-43.7	19.3	5.98e-01	0	57	0	692060160	52	5258
2026-01-10 02:37:48.57	243.70	11.44	-40.8	-43.8	19.3	6.00e-01	0	57	0	694157312	52	5310
2026-01-10 02:37:49.58	243.58	11.35	-40.8	-43.8	19.2	6.00e-01	0	57	0	695730176	52	5323
2026-01-10 02:37:50.58	243.47	11.27	-40.8	-43.8	19.2	6.00e-01	0	57	0	697827328	52	5310
2026-01-10 02:37:51.59	243.36	11.18	-40.8	-43.8	19.2	6.02e-01	0	56	0	699400192	52	5293
2026-01-10 02:37:52.60	243.24	11.10	-40.8	-43.9	19.2	6.00e-01	0	57	0	701497344	52	5352
2026-01-10 02:37:53.60	243.13	11.01	-40.8	-43.8	19.2	6.01e-01	0	57	0	703594496	52	5296
2026-01-10 02:37:54.61	243.02	10.93	-40.7	-43.7	19.3	6.01e-01	0	57	0	705167360	52	5268
2026-01-10 02:37:55.62	242.91	10.84	-40.8	-43.8	19.2	6.00e-01	0	57	0	707264512	52	5325
2026-01-10 02:37:56.62	242.80	10.76	-40.8	-43.9	19.1	6.02e-01	0	57	0	708837376	52	5350
2026-01-10 02:37:57.63	242.69	10.68	-40.8	-43.8	19.2	5.98e-01	0	57	0	710934528	52	5299
2026-01-10 02:37:58.64	242.58	10.59	-40.9	-43.9	19.1	6.00e-01	0	56	0	713031680	52	5390
2026-01-10 02:37:59.64	242.47	10.51	-40.9	-44.0	19.0	6.00e-01	0	57	0	714604544	52	5418
2026-01-10 02:38:00.65	242.36	10.43	-40.9	-44.0	18.9	6.02e-01	0	57	0	716701696	52	5455
2026-01-10 02:38:01.66	242.25	10.35	-40.8	-43.9	19.1	6.01e-01	0	57	0	718798848	52	5354
2026-01-10 02:38:02.66	242.15	10.26	-40.8	-43.9	19.1	6.01e-01	0	56	0	720371712	52	5354
2026-01-10 02:38:03.67	242.04	10.18	-40.8	-43.9	19.0	6.02e-01	0	57	0	722468864	52	5387
2026-01-10 02:38:04.68	241.93	10.10	-40.9	-44.0	19.0	6.01e-01	0	57	0	724041728	52	5403
2026-01-10 02:38:05.69	241.83	10.02	-40.8	-43.9	19.1	6.02e-01	0	57	0	726138880	52	5355
2026-01-10 02:38:06.69	241.72	9.94	-40.9	-44.1	18.8	6.01e-01	0	56	0	728236032	52	5468
2026-01-10 02:38:07.70	241.62	9.85	-41.0	-44.2	18.7	6.00e-01	0	56	0	729808896	52	5536
2026-01-10 02:38:08.71	241.52	9.77	-41.0	-44.2	18.7	6.01e-01	0	57	0	731906048	52	5584
2026-01-10 02:38:09.72	241.42	9.69	-41.0	-44.2	18.6	6.00e-01	0	57	0	733478912	52	5589
2026-01-10 02:38:10.72	241.31	9.61	-41.0	-44.3	18.5	6.00e-01	0	57	0	735576064	52	5650
2026-01-10 02:38:11.73	241.21	9.53	-41.0	-44.2	18.6	5.98e-01	0	57	0	737148928	52	5561
2026-01-10 02:38:12.73	241.11	9.45	-41.0	-44.3	18.6	6.01e-01	0	57	0	739246080	52	5603
2026-01-10 02:38:13.74	241.01	9.37	-41.1	-44.3	18.5	6.01e-01	0	56	0	741343232	52	5655
2026-01-10 02:38:14.75	240.91	9.29	-41.0	-44.3	18.6	6.00e-01	0	57	0	742916096	52	5599
2026-01-10 02:38:15.75	240.82	9.21	-40.9	-44.2	18.7	6.00e-01	0	56	0	745013248	52	5529
2026-01-10 02:38:16.76	240.72	9.13	-41.0	-44.2	18.7	6.01e-01	0	57	0	747110400	52	5537
2026-01-10 02:38:17.77	240.62	9.05	-40.9	-44.1	18.7	6.02e-01	0	57	0	748683264	52	5485
2026-01-10 02:38:18.78	240.52	8.97	-41.0	-44.2	18.5	6.02e-01	0	57	0	750780416	52	5571
2026-01-10 02:38:19.78	240.43	8.89	-41.0	-44.2	18.6	5.99e-01	0	57	0	752353280	52	5561
2026-01-10 02:38:20.79	240.33	8.82	-41.0	-44.3	18.5	6.03e-01	0	56	0	754450432	52	5631
2026-01-10 02:38:21.80	240.24	8.74	-41.1	-44.4	18.4	6.01e-01	0	57	0	756547584	52	5684
2026-01-10 02:38:22.81	240.14	8.66	-41.0	-44.4	18.4	6.02e-01	0	57	0	758120448	52	5658
2026-01-10 02:38:23.82	240.05	8.58	-41.1	-44.5	18.3	5.99e-01	0	57	0	760217600	52	5728
2026-01-10 02:38:24.83	239.95	8.50	-41.1	-44.5	18.2	6.00e-01	0	57	0	761790464	52	5780
2026-01-10 02:38:25.84	239.86	8.42	-41.2	-44.6	18.1	6.02e-01	0	57	0	763887616	52	5843
2026-01-10 02:38:26.85	239.77	8.35	-41.2	-44.6	18.1	6.00e-01	0	57	0	765984768	53	5518
2026-01-10 02:38:27.86	239.68	8.27	-41.2	-44.6	18.1	6.00e-01	0	56	0	767557632	53	5528
2026-01-10 02:38:28.87	239.58	8.19	-41.1	-44.5	18.1	6.02e-01	0	57	0	769654784	53	5447
2026-01-10 02:38:29.87	239.49	8.12	-41.1	-44.6	18.1	6.00e-01	0	57	0	771227648	53	5495
2026-01-10 02:38:30.88	239.40	8.04	-41.2	-44.6	18.0	6.00e-01	0	57	0	773324800	53	5525
2026-01-10 02:38:31.89	239.31	7.96	-44.8	-59.9	4.5	7.45e-01	0	57	104	774897664	60	21401
2026-01-10 02:38:32.90	239.22	7.89	-45.2	-64.2	3.8	7.44e-01	0	57	104	774897664	61	33169
2026-01-10 02:38:33.91	239.14	7.81	-45.5	-64.3	3.8	7.46e-01	0	57	104	774897664	61	33493
2026-01-10 02:38:34.92	239.05	7.73	-45.6	-64.5	3.8	7.48e-01	0	57	104	774897664	61	34123
2026-01-10 02:38:35.93	238.96	7.66	-45.7	-64.6	3.9	7.49e-01	0	57	104	774897664	62	32773
2026-01-10 02:38:36.93	238.87	7.58	-45.8	-64.7	3.8	7.42e-01	0	57	104	774897664	62	32946
2026-01-10 02:38:37.94	238.79	7.51	-45.9	-64.8	3.8	7.45e-01	0	57	104	774897664	62	33452
2026-01-10 02:38:38.95	238.70	7.43	-46.0	-64.9	3.8	7.46e-01	0	57	104	774897664	62	33715
2026-01-10 02:38:39.96	238.61	7.36	-46.0	-64.9	3.8	7.46e-01	0	57	104	774897664	62	33815
2026-01-10 02:38:40.97	238.53	7.28	-46.0	-64.9	3.8	7.48e-01	0	57	104	774897664	62	33795
2026-01-10 02:38:41.97	238.45	7.21	-45.9	-64.9	3.8	7.40e-01	0	57	104	774897664	62	33742
2026-01-10 02:38:42.98	238.36	7.13	-45.9	-64.8	3.8	7.46e-01	0	57	104	774897664	62	33590
2026-01-10 02:38:43.99	238.28	7.06	-45.9	-64.8	3.8	7.44e-01	0	57	104	774897664	62	33496
2026-01-10 02:38:44.99	238.19	6.98	-45.9	-64.8	3.8	7.46e-01	0	57	104	774897664	62	33432
2026-01-10 02:38:46.00	238.11	6.91	-45.9	-64.8	3.8	7.44e-01	0	57	104	774897664	62	33532
2026-01-10 02:38:47.01	238.03	6.84	-45.9	-64.8	3.8	7.45e-01	0	57	104	774897664	62	33496
2026-01-10 02:38:48.02	237.95	6.76	-45.9	-64.8	3.8	7.47e-01	0	57	104	774897664	62	33538
2026-01-10 02:38:49.03	237.87	6.69	-45.9	-64.8	3.8	7.44e-01	0	57	104	774897664	62	33457
2026-01-10 02:38:50.04	237.78	6.62	-45.9	-64.8	3.8	7.45e-01	0	57	104	774897664	62	33426
2026-01-10 02:38:51.05	237.70	6.54	-45.9	-64.8	3.8	7.47e-01	0	57	104	774897664	62	33417
2026-01-10 02:38:52.06	237.62	6.47	-45.9	-64.8	3.8	7.46e-01	0	57	104	774897664	62	33395
2026-01-10 02:38:53.07	237.54	6.40	-45.9	-64.8	3.8	7.48e-01	0	57	104	774897664	62	33311
2026-01-10 02:38:54.08	237.47	6.32	-45.9	-64.8	3.8	7.43e-01	0	57	104	774897664	62	33376
2026-01-10 02:38:55.09	237.39	6.25	-45.9	-64.8	3.8	7.44e-01	0	57	104	774897664	62	33413
2026-01-10 02:38:56.10	237.31	6.18	-45.9	-64.8	3.8	7.46e-01	0	57	104	774897664	62	33394
2026-01-10 02:38:57.10	237.23	6.11	-45.9	-64.8	3.8	7.41e-01	0	57	104	774897664	62	33314
2026-01-10 02:38:58.11	237.15	6.04	-45.9	-64.8	3.8	7.46e-01	0	57	104	774897664	62	33321
2026-01-10 02:38:59.12	237.08	5.97	-45.9	-64.8	3.8	7.46e-01	0	57	104	774897664	62	33370
2026-01-10 02:39:00.13	237.00	5.89	-45.9	-64.7	3.8	7.43e-01	0	57	104	774897664	62	33306
2026-01-10 02:39:01.14	236.92	5.82	-45.8	-64.8	3.8	7.45e-01	0	57	104	774897664	62	33376
2026-01-10 02:39:02.15	236.85	5.75	-45.9	-64.8	3.8	7.43e-01	0	57	104	774897664	62	33330
2026-01-10 02:39:03.16	236.77	5.68	-45.8	-64.8	3.8	7.47e-01	0	57	104	774897664	62	33315
2026-01-10 02:39:04.17	236.70	5.61	-45.8	-64.7	3.8	7.46e-01	0	57	104	774897664	62	33274
2026-01-10 02:39:05.18	236.62	5.54	-45.8	-64.7	3.8	7.44e-01	0	57	104	774897664	62	33248
2026-01-10 02:39:06.19	236.55	5.47	-45.8	-64.7	3.8	7.45e-01	0	57	104	774897664	62	33234
2026-01-10 02:39:07.19	236.48	5.40	-45.8	-64.7	3.8	7.45e-01	0	57	104	774897664	62	33294
2026-01-10 02:39:08.20	236.40	5.33	-45.8	-64.7	3.8	7.46e-01	0	57	104	774897664	62	33168
2026-01-10 02:39:09.21	236.33	5.26	-45.8	-64.7	3.8	7.48e-01	0	57	104	774897664	62	33287
2026-01-10 02:39:10.22	236.26	5.19	-45.8	-64.7	3.8	7.45e-01	0	57	104	774897664	62	33275
2026-01-10 02:39:11.23	236.18	5.12	-45.8	-64.7	3.8	7.46e-01	0	57	104	774897664	62	33209
2026-01-10 02:39:12.24	236.11	5.05	-45.8	-64.7	3.8	7.43e-01	0	57	104	774897664	62	33248
2026-01-10 02:39:13.25	236.04	4.98	-45.8	-64.7	3.8	7.43e-01	0	57	104	774897664	62	33215
2026-01-10 02:39:14.26	235.97	4.91	-45.8	-64.7	3.8	7.45e-01	0	57	104	774897664	62	33253
2026-01-10 02:39:15.27	235.90	4.84	-45.8	-64.7	3.8	7.45e-01	0	57	104	774897664	62	33269
2026-01-10 02:39:16.27	235.83	4.77	-45.8	-64.7	3.8	7.47e-01	0	57	104	774897664	62	33213
2026-01-10 02:39:17.28	235.76	4.71	-45.8	-64.7	3.8	7.44e-01	0	57	104	774897664	62	33218
2026-01-10 02:39:18.29	235.69	4.64	-45.8	-64.7	3.8	7.43e-01	0	57	104	774897664	62	33160
2026-01-10 02:39:19.30	235.62	4.57	-45.8	-64.7	3.8	7.46e-01	0	57	104	774897664	62	33198
2026-01-10 02:39:20.31	235.55	4.50	-45.8	-64.7	3.8	7.46e-01	0	57	104	774897664	62	33199
2026-01-10 02:39:21.32	235.48	4.43	-45.8	-64.7	3.8	7.45e-01	0	57	104	774897664	62	33220
2026-01-10 02:39:22.33	235.42	4.36	-45.8	-64.7	3.8	7.46e-01	0	57	104	774897664	62	33180
2026-01-10 02:39:23.34	235.35	4.30	-45.8	-64.7	3.8	7.41e-01	0	57	104	774897664	62	33215
2026-01-10 02:39:24.34	235.28	4.23	-45.8	-64.7	3.8	7.47e-01	0	57	104	774897664	62	33213
2026-01-10 02:39:25.35	235.21	4.16	-45.8	-64.7	3.8	7.48e-01	0	57	104	774897664	62	33240
2026-01-10 02:39:26.36	235.15	4.09	-45.8	-64.7	3.8	7.43e-01	0	57	104	774897664	62	33211
2026-01-10 02:39:27.37	235.08	4.03	-45.8	-64.7	3.8	7.49e-01	0	57	104	774897664	62	33163
2026-01-10 02:39:28.38	235.02	3.96	-45.8	-64.7	3.8	7.43e-01	0	57	104	774897664	62	33212
2026-01-10 02:39:29.39	234.95	3.89	-45.8	-64.7	3.8	7.45e-01	0	57	104	774897664	62	33196
2026-01-10 02:39:30.40	234.88	3.83	-45.8	-64.7	3.8	7.45e-01	0	57	104	774897664	62	33241
2026-01-10 02:39:31.41	234.82	3.76	-45.8	-64.7	3.8	7.44e-01	0	57	104	774897664	62	33208
2026-01-10 02:39:32.42	234.75	3.69	-45.8	-64.7	3.8	7.43e-01	0	57	104	774897664	62	33187
2026-01-10 02:39:33.42	234.69	3.63	-45.8	-64.7	3.8	7.42e-01	0	57	104	774897664	62	33162
2026-01-10 02:39:34.43	234.63	3.56	-45.8	-64.7	3.8	7.45e-01	0	57	104	774897664	62	33160
2026-01-10 02:39:35.44	234.56	3.50	-45.8	-64.7	3.8	7.41e-01	0	57	104	774897664	62	33158
2026-01-10 02:39:36.45	234.50	3.43	-45.8	-64.7	3.8	7.50e-01	0	57	104	774897664	62	33141
2026-01-10 02:39:37.46	234.44	3.37	-45.8	-64.7	3.8	7.46e-01	0	57	104	774897664	62	33100
2026-01-10 02:39:38.47	234.37	3.30	-45.8	-64.7	3.8	7.43e-01	0	57	104	774897664	62	33120
2026-01-10 02:39:39.47	234.31	3.23	-45.8	-64.7	3.8	7.43e-01	0	57	104	774897664	62	33201
2026-01-10 02:39:40.48	234.25	3.17	-45.8	-64.7	3.8	7.45e-01	0	57	104	774897664	62	33108
2026-01-10 02:39:41.49	234.19	3.10	-45.8	-64.7	3.8	7.48e-01	0	57	104	774897664	62	33135
2026-01-10 02:39:42.50	234.13	3.04	-45.8	-64.7	3.8	7.44e-01	0	57	104	774897664	62	33088
2026-01-10 02:39:43.51	234.07	2.97	-45.8	-64.7	3.8	7.45e-01	0	57	104	774897664	62	33158
2026-01-10 02:39:44.52	234.01	2.91	-45.8	-64.7	3.8	7.46e-01	0	57	104	774897664	62	33097
2026-01-10 02:39:45.53	233.94	2.85	-45.8	-64.7	3.8	7.45e-01	0	57	104	774897664	62	33083
2026-01-10 02:39:46.54	233.88	2.78	-45.8	-64.7	3.8	7.47e-01	0	57	104	774897664	62	33133
2026-01-10 02:39:47.55	233.82	2.72	-45.8	-64.7	3.8	7.42e-01	0	57	104	774897664	62	33069
2026-01-10 02:39:48.56	233.76	2.65	-45.8	-64.7	3.8	7.44e-01	0	57	104	774897664	62	33101
2026-01-10 02:39:49.56	233.71	2.59	-45.8	-64.7	3.8	7.43e-01	0	57	104	774897664	62	33106
