passes_logs/2026/01/04/PlanumMoscow/PlanumMoscow__20260104_183436_METOP-C_rec.log

#Pass ID: 20260104_183436_METOP-C
#Satellite: METOP-C
#Configuration: METOP-C
#Start time: 2026-01-04 18:34:41.945988

#LorettStation: 1.0.0 05.05.2024
#Station: PlanumMoscow
#Location: 37.6253844 lon 55.6713361 lat
#TLE: 1 43689U 18087A   25293.88981035  .00000265  00000+0  14109-3 0  9997
#TLE: 2 43689  98.7006 352.4487 0002041 122.1097 238.0279 14.21482740360838

#Time	Az	El	Level	SNR
2026-01-04 18:38:20.421722	192.4	28.0	-64.1	2.9
2026-01-04 18:38:21.536981	192.5	28.2	-64.7	3.1
2026-01-04 18:38:22.655233	192.7	28.4	-64.4	3.1
2026-01-04 18:38:23.772485	192.8	28.6	-65.0	3.3
2026-01-04 18:38:24.894738	193.0	28.7	-64.5	3.1
2026-01-04 18:38:26.015999	193.1	28.9	-62.8	0.0
2026-01-04 18:38:27.137756	193.3	29.1	-64.4	1.9
2026-01-04 18:38:28.259008	193.5	29.3	-64.0	0.0
2026-01-04 18:38:29.380269	193.6	29.5	-64.7	1.9
2026-01-04 18:38:30.502522	193.8	29.7	-64.7	2.4
2026-01-04 18:38:31.624775	194.0	29.9	-64.8	2.1
2026-01-04 18:38:32.746035	194.2	30.1	-64.6	0.3
2026-01-04 18:38:33.868792	194.3	30.3	-64.3	1.8
2026-01-04 18:38:34.989558	194.5	30.5	-65.4	1.8
2026-01-04 18:38:36.110818	194.7	30.7	-65.5	3.1
2026-01-04 18:38:37.231591	194.9	30.9	-65.9	3.0
2026-01-04 18:38:38.351347	195.1	31.1	-65.3	1.1
2026-01-04 18:38:39.469608	195.2	31.3	-65.0	1.0
2026-01-04 18:38:40.584859	195.4	31.5	-65.3	1.1
2026-01-04 18:38:41.701615	195.6	31.7	-65.3	0.8
2026-01-04 18:38:42.816866	195.8	31.9	-65.4	1.4
2026-01-04 18:38:43.933118	196.0	32.1	-65.6	1.1
2026-01-04 18:38:45.049369	196.2	32.3	-65.7	2.7
2026-01-04 18:38:46.164125	196.4	32.5	-65.5	2.6
2026-01-04 18:38:47.285377	196.6	32.7	-65.7	1.2
2026-01-04 18:38:48.399628	196.8	32.9	-65.3	2.6
2026-01-04 18:38:49.516384	197.0	33.1	-65.0	0.7
2026-01-04 18:38:50.630635	197.2	33.3	-65.5	2.6
2026-01-04 18:38:51.748391	197.4	33.5	-65.4	2.1
2026-01-04 18:38:52.864650	197.7	33.7	-65.4	2.7
2026-01-04 18:38:53.982407	197.9	33.9	-65.3	3.0
2026-01-04 18:38:55.097657	198.1	34.2	-65.4	2.3
2026-01-04 18:38:56.212413	198.3	34.4	-65.2	1.1
2026-01-04 18:38:57.328168	198.5	34.6	-64.0	0.0
2026-01-04 18:38:58.443924	198.8	34.8	-63.6	0.0
2026-01-04 18:38:59.559175	199.0	35.0	-65.0	0.0
2026-01-04 18:39:00.674435	199.2	35.2	-64.0	0.0
2026-01-04 18:39:01.790190	199.5	35.5	-63.9	0.0
2026-01-04 18:39:02.906451	199.7	35.7	-64.6	0.0
2026-01-04 18:39:04.022702	200.0	35.9	-64.3	0.0
2026-01-04 18:39:05.138953	200.2	36.1	-64.6	0.0
2026-01-04 18:39:06.254717	200.5	36.3	-64.6	0.0
2026-01-04 18:39:07.369976	200.7	36.6	-66.0	0.0
2026-01-04 18:39:08.483731	201.0	36.8	-65.7	0.0
2026-01-04 18:39:09.603488	201.3	37.0	-66.0	0.0
2026-01-04 18:39:10.719243	201.5	37.2	-65.8	0.0
2026-01-04 18:39:11.834998	201.8	37.5	-65.9	0.0
2026-01-04 18:39:12.949754	202.1	37.7	-65.4	0.0
2026-01-04 18:39:14.067510	202.3	37.9	-65.7	0.0
2026-01-04 18:39:15.180265	202.6	38.2	-65.8	0.0
2026-01-04 18:39:16.296516	202.9	38.4	-66.1	0.0
2026-01-04 18:39:17.413272	203.2	38.6	-66.1	0.0
2026-01-04 18:39:18.528523	203.5	38.8	-66.3	0.0
2026-01-04 18:39:19.645774	203.8	39.1	-66.4	0.0
2026-01-04 18:39:20.763026	204.1	39.3	-66.3	0.0
2026-01-04 18:39:21.878782	204.4	39.5	-65.8	0.0
2026-01-04 18:39:22.993040	204.7	39.8	-66.1	0.0
2026-01-04 18:39:24.111292	205.0	40.0	-65.4	0.0
2026-01-04 18:39:25.226048	205.3	40.3	-66.4	0.0
2026-01-04 18:39:26.340803	205.7	40.5	-66.3	0.0
2026-01-04 18:39:27.458063	206.0	40.7	-66.0	0.0
2026-01-04 18:39:28.574323	206.3	41.0	-66.8	0.0
2026-01-04 18:39:29.689582	206.7	41.2	-66.9	0.0
2026-01-04 18:39:30.805842	207.0	41.4	-66.6	0.0
2026-01-04 18:39:31.923094	207.3	41.7	-67.3	0.0
2026-01-04 18:39:33.037345	207.7	41.9	-67.3	0.0
2026-01-04 18:39:34.154100	208.1	42.2	-66.4	0.0
2026-01-04 18:39:35.269361	208.4	42.4	-66.7	0.0
2026-01-04 18:39:36.383612	208.8	42.6	-67.2	0.0
2026-01-04 18:39:37.500863	209.2	42.9	-66.8	0.0
2026-01-04 18:39:38.615619	209.5	43.1	-66.9	0.0
2026-01-04 18:39:39.737375	209.9	43.4	-67.0	0.0
2026-01-04 18:39:40.858132	210.3	43.6	-66.2	0.0
2026-01-04 18:39:41.984386	210.7	43.9	-67.3	0.0
2026-01-04 18:39:43.106638	211.1	44.1	-67.0	0.0
2026-01-04 18:39:44.228395	211.5	44.3	-66.9	0.0
2026-01-04 18:39:45.350153	212.0	44.6	-67.4	0.0
2026-01-04 18:39:46.472405	212.4	44.8	-67.3	0.0
2026-01-04 18:39:47.592665	212.8	45.1	-67.3	0.0
2026-01-04 18:39:48.713431	213.3	45.3	-67.3	0.0
2026-01-04 18:39:49.835188	213.7	45.6	-66.8	0.0
2026-01-04 18:39:50.956945	214.1	45.8	-66.6	0.0
2026-01-04 18:39:52.079197	214.6	46.0	-66.4	0.0
2026-01-04 18:39:53.199962	215.1	46.3	-66.7	0.0
2026-01-04 18:39:54.321223	215.5	46.5	-66.2	0.0
2026-01-04 18:39:55.440981	216.0	46.8	-67.7	0.0
2026-01-04 18:39:56.559737	216.5	47.0	-66.7	0.0
2026-01-04 18:39:57.673988	217.0	47.2	-67.2	0.0
2026-01-04 18:39:58.788744	217.5	47.5	-67.2	0.0
2026-01-04 18:39:59.905500	218.0	47.7	-67.0	0.0
2026-01-04 18:40:01.022752	218.5	47.9	-66.2	0.0
2026-01-04 18:40:02.140011	219.0	48.2	-66.6	0.0
2026-01-04 18:40:03.254767	219.6	48.4	-66.6	0.0
2026-01-04 18:40:04.370018	220.1	48.6	-66.6	0.0
2026-01-04 18:40:05.485268	220.6	48.8	-66.8	0.0
2026-01-04 18:40:06.601529	221.2	49.1	-66.8	0.0
2026-01-04 18:40:07.716284	221.8	49.3	-66.8	0.0
2026-01-04 18:40:08.835040	222.3	49.5	-67.4	0.0
2026-01-04 18:40:09.949292	222.9	49.7	-67.0	0.0
2026-01-04 18:40:11.065552	223.5	50.0	-67.1	0.0
2026-01-04 18:40:12.180803	224.1	50.2	-66.7	0.0
2026-01-04 18:40:13.295054	224.7	50.4	-66.3	0.0
2026-01-04 18:40:14.412809	225.3	50.6	-66.7	0.0
2026-01-04 18:40:15.530566	225.9	50.8	-66.9	0.0
2026-01-04 18:40:16.647322	226.5	51.0	-66.7	0.0
2026-01-04 18:40:17.766078	227.2	51.2	-67.0	0.0
2026-01-04 18:40:18.882329	227.8	51.4	-66.8	0.0
2026-01-04 18:40:20.003581	228.5	51.6	-66.6	0.0
2026-01-04 18:40:21.117832	229.1	51.8	-66.6	0.0
2026-01-04 18:40:22.235093	229.8	52.0	-67.0	0.0
2026-01-04 18:40:23.350344	230.5	52.2	-67.0	0.0
2026-01-04 18:40:24.466595	231.2	52.4	-66.7	0.0
2026-01-04 18:40:25.581846	231.9	52.6	-67.0	0.0
2026-01-04 18:40:26.698602	232.6	52.7	-66.8	0.0
2026-01-04 18:40:27.817358	233.3	52.9	-66.7	0.0
2026-01-04 18:40:28.933616	234.0	53.1	-66.6	0.0
2026-01-04 18:40:30.048372	234.7	53.2	-67.8	0.0
2026-01-04 18:40:31.166645	235.5	53.4	-66.9	0.0
2026-01-04 18:40:32.282400	236.2	53.6	-66.6	0.0
2026-01-04 18:40:33.396651	237.0	53.7	-66.4	0.0
2026-01-04 18:40:34.510407	237.7	53.9	-66.2	0.0
2026-01-04 18:40:35.626658	238.5	54.0	-65.5	0.0
2026-01-04 18:40:36.741909	239.3	54.2	-66.8	0.0
2026-01-04 18:40:37.856665	240.1	54.3	-66.8	0.0
2026-01-04 18:40:38.971420	240.8	54.4	-66.8	0.0
2026-01-04 18:40:40.087680	241.6	54.5	-67.2	0.0
2026-01-04 18:40:41.201931	242.5	54.7	-66.6	0.0
2026-01-04 18:40:42.315686	243.3	54.8	-66.9	0.0
2026-01-04 18:40:43.432441	244.1	54.9	-67.1	0.0
2026-01-04 18:40:44.546692	244.9	55.0	-67.4	0.0
2026-01-04 18:40:45.661448	245.7	55.1	-66.9	0.0
2026-01-04 18:40:46.776699	246.6	55.2	-67.3	0.0
2026-01-04 18:40:47.891950	247.4	55.3	-66.5	0.0
2026-01-04 18:40:49.006201	248.2	55.3	-66.7	0.0
2026-01-04 18:40:50.120957	249.1	55.4	-66.4	0.0
2026-01-04 18:40:51.235712	249.9	55.5	-66.8	0.0
2026-01-04 18:40:52.351468	250.8	55.5	-66.8	0.0
2026-01-04 18:40:53.465719	251.7	55.6	-66.6	0.0
2026-01-04 18:40:54.580970	252.5	55.6	-66.5	0.0
2026-01-04 18:40:55.697221	253.4	55.7	-67.6	0.0
2026-01-04 18:40:56.812472	254.3	55.7	-66.8	0.0
2026-01-04 18:40:57.931229	255.1	55.8	-66.2	0.0
2026-01-04 18:40:59.052995	256.0	55.8	-66.4	0.0
2026-01-04 18:41:00.175248	256.9	55.8	-66.4	0.0
2026-01-04 18:41:01.297004	257.8	55.8	-65.8	0.0
2026-01-04 18:41:02.417266	258.6	55.8	-66.1	0.0
2026-01-04 18:41:03.539519	259.5	55.8	-66.0	0.0
2026-01-04 18:41:04.660780	260.4	55.8	-66.4	0.0
2026-01-04 18:41:05.783032	261.3	55.8	-66.6	0.0
2026-01-04 18:41:06.904790	262.2	55.8	-66.8	0.0
2026-01-04 18:41:08.026548	263.0	55.7	-66.5	0.0
2026-01-04 18:41:09.149308	263.9	55.7	-66.8	0.0
2026-01-04 18:41:10.265559	264.8	55.7	-66.6	0.0
2026-01-04 18:41:11.387812	265.7	55.6	-66.4	0.0
2026-01-04 18:41:12.508578	266.5	55.6	-66.5	0.0
2026-01-04 18:41:13.630335	267.4	55.5	-66.5	0.0
2026-01-04 18:41:14.747090	268.2	55.4	-66.7	0.0
2026-01-04 18:41:15.863341	269.1	55.4	-66.9	0.0
2026-01-04 18:41:16.981593	269.9	55.3	-66.9	0.0
2026-01-04 18:41:18.098357	270.8	55.2	-66.7	0.0
2026-01-04 18:41:19.215113	271.6	55.1	-67.1	0.0
2026-01-04 18:41:20.331364	272.4	55.0	-67.3	0.0
2026-01-04 18:41:21.447120	273.3	54.9	-66.8	0.0
2026-01-04 18:41:22.569877	274.1	54.8	-67.0	0.0
2026-01-04 18:41:23.685136	274.9	54.7	-66.9	0.0
2026-01-04 18:41:24.802892	275.7	54.6	-66.8	0.0
2026-01-04 18:41:25.919648	276.5	54.5	-66.7	0.0
2026-01-04 18:41:27.037900	277.3	54.3	-66.7	0.0
2026-01-04 18:41:28.154151	278.1	54.2	-66.7	0.0
2026-01-04 18:41:29.268402	278.9	54.1	-66.3	0.0
2026-01-04 18:41:30.382653	279.6	53.9	-66.7	0.0
2026-01-04 18:41:31.497904	280.4	53.8	-66.7	0.0
2026-01-04 18:41:32.613660	281.1	53.6	-66.5	0.0
2026-01-04 18:41:33.728919	281.9	53.5	-66.5	0.0
2026-01-04 18:41:34.844170	282.6	53.3	-66.2	0.0
2026-01-04 18:41:35.960422	283.4	53.1	-66.4	0.0
2026-01-04 18:41:37.077673	284.1	53.0	-66.6	0.0
2026-01-04 18:41:38.192933	284.8	52.8	-66.6	0.0
2026-01-04 18:41:39.309689	285.5	52.6	-66.7	0.0
2026-01-04 18:41:40.424940	286.2	52.4	-66.3	0.0
2026-01-04 18:41:41.542192	286.9	52.3	-66.4	0.0
2026-01-04 18:41:42.658452	287.6	52.1	-66.4	0.0
2026-01-04 18:41:43.780217	288.2	51.9	-66.5	0.0
2026-01-04 18:41:44.895468	288.9	51.7	-66.5	0.0
2026-01-04 18:41:46.013232	289.6	51.5	-66.4	0.0
2026-01-04 18:41:47.128988	290.2	51.3	-66.6	0.0
2026-01-04 18:41:48.244239	290.8	51.1	-66.8	0.0
2026-01-04 18:41:49.359491	291.5	50.9	-67.0	0.0
2026-01-04 18:41:50.474246	292.1	50.7	-66.9	0.0
2026-01-04 18:41:51.590497	292.7	50.5	-66.7	0.0
2026-01-04 18:41:52.706749	293.3	50.3	-66.2	0.0
2026-01-04 18:41:53.824504	293.9	50.0	-66.8	0.0
2026-01-04 18:41:54.940756	294.5	49.8	-66.7	0.0
2026-01-04 18:41:56.057016	295.1	49.6	-66.7	0.0
2026-01-04 18:41:57.173267	295.6	49.4	-67.3	0.0
2026-01-04 18:41:58.288518	296.2	49.2	-67.3	0.0
2026-01-04 18:41:59.404778	296.8	48.9	-66.4	0.0
2026-01-04 18:42:00.524030	297.3	48.7	-66.9	0.0
2026-01-04 18:42:01.639290	297.8	48.5	-67.0	0.0
2026-01-04 18:42:02.754542	298.4	48.3	-67.2	0.0
2026-01-04 18:42:03.870297	298.9	48.0	-67.7	0.0
2026-01-04 18:42:04.990063	299.4	47.8	-67.5	0.0
2026-01-04 18:42:06.106314	299.9	47.6	-67.7	0.0
2026-01-04 18:42:07.221566	300.4	47.3	-67.7	0.0
2026-01-04 18:42:08.337817	300.9	47.1	-67.1	0.0
2026-01-04 18:42:09.454068	301.4	46.9	-67.7	0.0
2026-01-04 18:42:10.569319	301.9	46.6	-67.0	0.0
2026-01-04 18:42:11.685579	302.3	46.4	-66.9	0.0
2026-01-04 18:42:12.804335	302.8	46.2	-67.2	0.0
2026-01-04 18:42:13.920090	303.3	45.9	-66.5	0.0
2026-01-04 18:42:15.035855	303.7	45.7	-66.2	0.0
2026-01-04 18:42:16.152107	304.2	45.4	-67.5	0.0
2026-01-04 18:42:17.269358	304.6	45.2	-67.0	0.0
2026-01-04 18:42:18.387114	305.0	45.0	-67.4	0.0
2026-01-04 18:42:19.502868	305.4	44.7	-66.2	0.0
2026-01-04 18:42:20.621639	305.9	44.5	-65.6	0.0
2026-01-04 18:42:21.743395	306.3	44.2	-65.3	0.0
2026-01-04 18:42:22.862647	306.7	44.0	-65.5	0.0
2026-01-04 18:42:23.985900	307.1	43.8	-66.0	0.0
2026-01-04 18:42:25.108153	307.5	43.5	-66.7	0.0
2026-01-04 18:42:26.229910	307.9	43.3	-65.7	0.0
2026-01-04 18:42:27.352163	308.3	43.0	-64.3	0.0
2026-01-04 18:42:28.472415	308.6	42.8	-65.2	0.0
2026-01-04 18:42:29.588667	309.0	42.6	-65.5	0.0
2026-01-04 18:42:30.709935	309.4	42.3	-64.5	0.0
2026-01-04 18:42:31.831692	309.7	42.1	-66.1	0.0
2026-01-04 18:42:32.953448	310.1	41.8	-65.5	0.0
2026-01-04 18:42:34.075701	310.4	41.6	-64.4	0.0
2026-01-04 18:42:35.198458	310.8	41.4	-64.3	0.0
2026-01-04 18:42:36.319719	311.1	41.1	-64.5	0.0
2026-01-04 18:42:37.440971	311.5	40.9	-65.2	0.0
2026-01-04 18:42:38.560223	311.8	40.6	-65.4	0.0
2026-01-04 18:42:39.676483	312.1	40.4	-65.1	0.0
2026-01-04 18:42:40.792743	312.4	40.2	-63.6	0.0
2026-01-04 18:42:41.908498	312.8	39.9	-63.9	0.0
2026-01-04 18:42:43.024750	313.1	39.7	-64.5	0.0
2026-01-04 18:42:44.140001	313.4	39.5	-64.4	0.0
2026-01-04 18:42:45.254252	313.7	39.2	-64.1	0.0
2026-01-04 18:42:46.368503	314.0	39.0	-63.4	0.0
2026-01-04 18:42:47.483754	314.3	38.8	-63.1	0.0
2026-01-04 18:42:48.600005	314.6	38.5	-63.6	0.0
2026-01-04 18:42:49.718266	314.8	38.3	-63.1	0.0
2026-01-04 18:42:50.834517	315.1	38.1	-63.2	0.0
2026-01-04 18:42:51.954273	315.4	37.8	-63.4	0.0
2026-01-04 18:42:53.071525	315.7	37.6	-62.4	0.0
2026-01-04 18:42:54.187786	315.9	37.4	-62.5	0.0
2026-01-04 18:42:55.302550	316.2	37.2	-62.3	0.0
2026-01-04 18:42:56.418801	316.5	36.9	-62.5	0.0
2026-01-04 18:42:57.536052	316.7	36.7	-62.3	0.0
2026-01-04 18:42:58.652808	317.0	36.5	-61.5	0.0
2026-01-04 18:42:59.769068	317.2	36.3	-61.4	0.0
2026-01-04 18:43:00.885319	317.5	36.1	-61.2	0.0
2026-01-04 18:43:02.002571	317.7	35.8	-61.4	0.0
2026-01-04 18:43:03.120327	318.0	35.6	-61.2	0.0
2026-01-04 18:43:04.234578	318.2	35.4	-61.0	0.0
2026-01-04 18:43:05.348837	318.5	35.2	-60.7	0.0
2026-01-04 18:43:06.463088	318.7	35.0	-60.8	0.0
2026-01-04 18:43:07.579349	318.9	34.8	-60.5	0.0
2026-01-04 18:43:08.694600	319.2	34.5	-60.7	0.0
2026-01-04 18:43:09.810851	319.4	34.3	-60.5	0.0
2026-01-04 18:43:10.926103	319.6	34.1	-60.7	0.0
2026-01-04 18:43:12.041362	319.8	33.9	-60.3	0.0
2026-01-04 18:43:13.156614	320.0	33.7	-59.9	0.0
2026-01-04 18:43:14.271873	320.2	33.5	-60.1	0.0
2026-01-04 18:43:15.389637	320.5	33.3	-59.9	0.0
2026-01-04 18:43:16.505889	320.7	33.1	-59.7	0.0
2026-01-04 18:43:17.621140	320.9	32.9	-59.7	0.0
2026-01-04 18:43:18.737896	321.1	32.7	-59.8	0.0
2026-01-04 18:43:19.855147	321.3	32.4	-59.8	0.0
2026-01-04 18:43:20.971902	321.5	32.2	-59.7	0.0
2026-01-04 18:43:22.088658	321.7	32.0	-59.3	0.0
2026-01-04 18:43:23.204910	321.9	31.8	-59.2	0.0
2026-01-04 18:43:24.320169	322.1	31.6	-59.1	0.0
2026-01-04 18:43:25.436925	322.2	31.4	-59.2	0.0
2026-01-04 18:43:26.559178	322.4	31.2	-59.3	0.0
2026-01-04 18:43:27.673429	322.6	31.0	-59.1	0.0
2026-01-04 18:43:28.787680	322.8	30.9	-59.5	0.0
2026-01-04 18:43:29.902931	323.0	30.7	-59.3	0.0
2026-01-04 18:43:31.020191	323.2	30.5	-59.0	0.0
2026-01-04 18:43:32.135442	323.3	30.3	-58.8	0.0
2026-01-04 18:43:33.250198	323.5	30.1	-58.4	0.0
2026-01-04 18:43:34.365457	323.7	29.9	-58.8	0.0
2026-01-04 18:43:35.482709	323.8	29.7	-58.8	0.0
2026-01-04 18:43:36.597978	324.0	29.5	-58.9	0.0
2026-01-04 18:43:37.720230	324.2	29.3	-58.9	0.0
2026-01-04 18:43:38.839491	324.3	29.1	-58.7	0.0
2026-01-04 18:43:39.954743	324.5	28.9	-58.7	0.0
2026-01-04 18:43:41.072994	324.7	28.8	-58.6	0.0
2026-01-04 18:43:42.188246	324.8	28.6	-58.5	0.0
2026-01-04 18:43:43.305506	325.0	28.4	-58.4	0.0
2026-01-04 18:43:44.420263	325.1	28.2	-58.3	0.0
2026-01-04 18:43:45.538515	325.3	28.0	-58.2	0.0
2026-01-04 18:43:46.653270	325.4	27.9	-58.2	0.0
2026-01-04 18:43:47.769026	325.6	27.7	-58.2	0.0
2026-01-04 18:43:48.886790	325.7	27.5	-58.1	0.0
2026-01-04 18:43:50.001041	325.9	27.3	-58.2	0.0
2026-01-04 18:43:51.116292	326.0	27.1	-58.2	0.0
2026-01-04 18:43:52.230551	326.2	27.0	-57.9	0.0
2026-01-04 18:43:53.343802	326.3	26.8	-58.3	0.0
2026-01-04 18:43:54.459567	326.5	26.6	-58.5	0.0
2026-01-04 18:43:55.572818	326.6	26.5	-58.3	0.0
2026-01-04 18:43:56.688069	326.7	26.3	-58.4	0.0
2026-01-04 18:43:57.804329	326.9	26.1	-58.1	0.0
2026-01-04 18:43:58.920085	327.0	25.9	-58.1	0.0
2026-01-04 18:44:00.039841	327.2	25.8	-58.3	0.0
2026-01-04 18:44:01.156597	327.3	25.6	-58.2	0.0
2026-01-04 18:44:02.272856	327.4	25.4	-58.3	0.0
2026-01-04 18:44:03.388116	327.5	25.3	-58.1	0.0
2026-01-04 18:44:04.503368	327.7	25.1	-58.0	0.0
2026-01-04 18:44:05.620619	327.8	24.9	-58.0	0.0
2026-01-04 18:44:06.735871	327.9	24.8	-58.1	0.0
2026-01-04 18:44:07.853122	328.1	24.6	-58.1	0.0
2026-01-04 18:44:08.970382	328.2	24.5	-58.3	0.0
2026-01-04 18:44:10.087138	328.3	24.3	-58.5	0.0
2026-01-04 18:44:11.202389	328.4	24.1	-58.4	0.0
2026-01-04 18:44:12.317640	328.5	24.0	-58.1	0.0
2026-01-04 18:44:13.432396	328.7	23.8	-58.4	0.0
2026-01-04 18:44:14.548160	328.8	23.7	-58.4	0.0
2026-01-04 18:44:15.665412	328.9	23.5	-58.6	0.0
2026-01-04 18:44:16.783168	329.0	23.4	-58.5	0.0
2026-01-04 18:44:17.898428	329.1	23.2	-58.8	0.0
2026-01-04 18:44:19.016184	329.2	23.0	-58.7	0.0
2026-01-04 18:44:20.130435	329.3	22.9	-58.3	0.0
2026-01-04 18:44:21.246191	329.5	22.7	-58.7	0.0
2026-01-04 18:44:22.362451	329.6	22.6	-58.7	0.0
2026-01-04 18:44:23.478702	329.7	22.4	-58.5	0.0
2026-01-04 18:44:24.593457	329.8	22.3	-59.0	0.0
2026-01-04 18:44:25.709718	329.9	22.1	-59.0	0.0
2026-01-04 18:44:26.826473	330.0	22.0	-59.1	0.0
2026-01-04 18:44:27.942725	330.1	21.8	-59.2	0.0
2026-01-04 18:44:29.058976	330.2	21.7	-59.2	0.0
2026-01-04 18:44:30.175228	330.3	21.5	-59.2	0.0
2026-01-04 18:44:31.291489	330.4	21.4	-58.8	0.0
2026-01-04 18:44:32.407243	330.5	21.3	-58.9	0.0
2026-01-04 18:44:33.525504	330.6	21.1	-59.2	0.0
2026-01-04 18:44:34.639763	330.7	21.0	-59.3	0.0
2026-01-04 18:44:35.755023	330.8	20.8	-59.1	0.0
2026-01-04 18:44:36.871275	330.9	20.7	-59.2	0.0
2026-01-04 18:44:37.987526	331.0	20.5	-59.3	0.0
2026-01-04 18:44:39.102786	331.1	20.4	-59.2	0.0
2026-01-04 18:44:40.219038	331.2	20.3	-59.2	0.0
2026-01-04 18:44:41.334793	331.3	20.1	-58.9	0.0
2026-01-04 18:44:42.450548	331.4	20.0	-59.2	0.0
2026-01-04 18:44:43.565808	331.5	19.9	-59.0	0.0
2026-01-04 18:44:44.679059	331.6	19.7	-59.0	0.0
2026-01-04 18:44:45.794310	331.7	19.6	-59.1	0.0
2026-01-04 18:44:46.908561	331.8	19.4	-59.1	0.0
2026-01-04 18:44:48.024317	331.8	19.3	-59.2	0.0
2026-01-04 18:44:49.138072	331.9	19.2	-59.0	0.0
2026-01-04 18:44:50.254323	332.0	19.0	-59.0	0.0
2026-01-04 18:44:51.368574	332.1	18.9	-59.2	0.0
2026-01-04 18:44:52.484330	332.2	18.8	-59.3	0.0
2026-01-04 18:44:53.601085	332.3	18.7	-59.1	0.0
2026-01-04 18:44:54.718346	332.4	18.5	-59.4	0.0
2026-01-04 18:44:55.836102	332.5	18.4	-59.2	0.0
2026-01-04 18:44:56.951362	332.5	18.3	-59.1	0.0
2026-01-04 18:44:58.068614	332.6	18.1	-58.7	0.0
2026-01-04 18:44:59.182865	332.7	18.0	-58.7	0.0
2026-01-04 18:45:00.299116	332.8	17.9	-58.8	0.0
2026-01-04 18:45:01.413871	332.9	17.8	-58.8	0.0
2026-01-04 18:45:02.532627	332.9	17.6	-58.4	0.0
2026-01-04 18:45:03.649879	333.0	17.5	-58.3	0.0
2026-01-04 18:45:04.764147	333.1	17.4	-58.4	0.0
2026-01-04 18:45:05.878902	333.2	17.3	-58.4	0.0
2026-01-04 18:45:06.995658	333.3	17.1	-58.3	0.0
2026-01-04 18:45:08.110918	333.3	17.0	-58.5	0.0
2026-01-04 18:45:09.226169	333.4	16.9	-58.6	0.0
2026-01-04 18:45:10.341924	333.5	16.8	-58.3	0.0
2026-01-04 18:45:11.454679	333.6	16.6	-58.2	0.0
2026-01-04 18:45:12.571435	333.6	16.5	-58.2	0.0
2026-01-04 18:45:13.687686	333.7	16.4	-58.0	0.0
2026-01-04 18:45:14.803937	333.8	16.3	-57.8	0.0
2026-01-04 18:45:15.920693	333.9	16.2	-58.0	0.0
2026-01-04 18:45:17.039448	333.9	16.0	-57.9	0.0
2026-01-04 18:45:18.155204	334.0	15.9	-58.0	0.0
2026-01-04 18:45:19.272463	334.1	15.8	-57.8	0.0
2026-01-04 18:45:20.390219	334.2	15.7	-57.6	0.0
2026-01-04 18:45:21.504470	334.2	15.6	-57.4	0.0
2026-01-04 18:45:22.620721	334.3	15.5	-57.2	0.0
2026-01-04 18:45:23.738485	334.4	15.3	-57.3	0.0
2026-01-04 18:45:24.854737	334.4	15.2	-57.4	0.0
2026-01-04 18:45:25.969988	334.5	15.1	-57.5	0.0
2026-01-04 18:45:27.086743	334.6	15.0	-57.5	0.0
2026-01-04 18:45:28.205500	334.6	14.9	-57.1	0.0
2026-01-04 18:45:29.321256	334.7	14.8	-56.9	0.0
2026-01-04 18:45:30.438012	334.8	14.7	-56.6	0.0
2026-01-04 18:45:31.554768	334.8	14.5	-56.4	0.0
2026-01-04 18:45:32.673028	334.9	14.4	-56.6	0.0
2026-01-04 18:45:33.792280	335.0	14.3	-56.5	0.0
2026-01-04 18:45:34.907531	335.0	14.2	-56.7	0.0
2026-01-04 18:45:36.025782	335.1	14.1	-56.6	0.0
2026-01-04 18:45:37.141538	335.2	14.0	-56.3	0.0
2026-01-04 18:45:38.259790	335.2	13.9	-56.3	0.0
2026-01-04 18:45:39.374553	335.3	13.8	-56.0	0.0
2026-01-04 18:45:40.491805	335.4	13.7	-56.1	0.0
2026-01-04 18:45:41.607560	335.4	13.6	-55.8	0.0
2026-01-04 18:45:42.722315	335.5	13.4	-55.6	0.0
2026-01-04 18:45:43.840071	335.6	13.3	-55.5	0.0
2026-01-04 18:45:44.956324	335.6	13.2	-55.6	0.0
2026-01-04 18:45:46.073079	335.7	13.1	-55.6	0.0
2026-01-04 18:45:47.187338	335.7	13.0	-55.5	0.0
2026-01-04 18:45:48.305094	335.8	12.9	-55.2	0.0
2026-01-04 18:45:49.422354	335.9	12.8	-55.2	0.0
2026-01-04 18:45:50.538605	335.9	12.7	-55.3	0.0
2026-01-04 18:45:51.654865	336.0	12.6	-55.2	0.0
2026-01-04 18:45:52.773620	336.0	12.5	-55.4	0.0
2026-01-04 18:45:53.888375	336.1	12.4	-55.3	0.0
2026-01-04 18:45:55.003626	336.1	12.3	-55.0	0.0
2026-01-04 18:45:56.121878	336.2	12.2	-54.8	0.0
2026-01-04 18:45:57.237129	336.3	12.1	-54.7	0.0
2026-01-04 18:45:58.351390	336.3	12.0	-54.7	0.0
2026-01-04 18:45:59.471146	336.4	11.9	-54.6	0.0
2026-01-04 18:46:00.588398	336.4	11.8	-54.5	0.0
2026-01-04 18:46:01.703657	336.5	11.7	-54.4	0.0
2026-01-04 18:46:02.822909	336.5	11.6	-54.0	0.0
2026-01-04 18:46:03.938161	336.6	11.5	-53.8	0.0
2026-01-04 18:46:05.055917	336.7	11.4	-54.0	0.0
2026-01-04 18:46:06.171176	336.7	11.3	-53.9	0.0
2026-01-04 18:46:07.287428	336.8	11.2	-54.0	0.0
2026-01-04 18:46:08.404183	336.8	11.1	-54.0	0.0
2026-01-04 18:46:09.522939	336.9	11.0	-53.8	0.0
2026-01-04 18:46:10.641695	336.9	10.9	-53.9	0.0
2026-01-04 18:46:11.755964	337.0	10.8	-53.7	0.0
2026-01-04 18:46:12.874216	337.0	10.7	-53.5	0.0
2026-01-04 18:46:13.988467	337.1	10.6	-53.5	0.0
2026-01-04 18:46:15.104718	337.1	10.5	-53.6	0.0
2026-01-04 18:46:16.220474	337.2	10.4	-53.7	0.0
2026-01-04 18:46:17.336230	337.2	10.3	-53.5	0.0
2026-01-04 18:46:18.454481	337.3	10.2	-53.3	0.0
2026-01-04 18:46:19.568742	337.3	10.1	-53.3	0.0
2026-01-04 18:46:20.684497	337.4	10.0	-53.1	0.0
2026-01-04 18:46:21.797748	337.4	9.9	-53.0	0.0
2026-01-04 18:46:22.914999	337.5	9.9	-53.1	0.0
2026-01-04 18:46:24.032251	337.5	9.8	-53.2	0.0
2026-01-04 18:46:25.148511	337.6	9.7	-53.3	0.0
2026-01-04 18:46:26.263762	337.6	9.6	-53.2	0.0
2026-01-04 18:46:27.378517	337.7	9.5	-53.2	0.0
2026-01-04 18:46:28.493272	337.7	9.4	-52.9	0.0
2026-01-04 18:46:29.608533	337.8	9.3	-52.5	0.0
2026-01-04 18:46:30.724784	337.8	9.2	-52.6	0.0
2026-01-04 18:46:31.843074	337.9	9.1	-52.7	0.0
2026-01-04 18:46:32.958829	337.9	9.0	-52.8	0.0
2026-01-04 18:46:34.072593	338.0	8.9	-52.9	0.0
2026-01-04 18:46:35.186844	338.0	8.8	-52.8	0.0
2026-01-04 18:46:36.302104	338.1	8.8	-52.7	0.0
2026-01-04 18:46:37.417364	338.1	8.7	-52.6	0.0
2026-01-04 18:46:38.532119	338.2	8.6	-52.5	0.0
2026-01-04 18:46:39.646378	338.2	8.5	-52.3	0.0
2026-01-04 18:46:40.763134	338.2	8.4	-52.3	0.0
2026-01-04 18:46:41.878385	338.3	8.3	-52.1	0.0
2026-01-04 18:46:42.995150	338.3	8.2	-51.9	0.0
2026-01-04 18:46:44.111401	338.4	8.1	-52.1	0.0
2026-01-04 18:46:45.227661	338.4	8.1	-52.1	0.0
2026-01-04 18:46:46.342912	338.5	8.0	-52.1	0.0
2026-01-04 18:46:47.458667	338.5	7.9	-52.0	0.0
2026-01-04 18:46:48.576432	338.6	7.8	-52.0	0.0
2026-01-04 18:46:49.692188	338.6	7.7	-52.1	0.0
2026-01-04 18:46:50.808439	338.6	7.6	-52.0	0.0
2026-01-04 18:46:51.923194	338.7	7.5	-52.2	0.0
2026-01-04 18:46:53.038446	338.7	7.5	-52.1	0.0
2026-01-04 18:46:54.155697	338.8	7.4	-52.0	0.0
2026-01-04 18:46:55.275462	338.8	7.3	-51.8	0.0
2026-01-04 18:46:56.391218	338.9	7.2	-51.6	0.0
2026-01-04 18:46:57.509479	338.9	7.1	-51.8	0.0
2026-01-04 18:46:58.624242	338.9	7.0	-51.9	0.0
2026-01-04 18:46:59.740493	339.0	6.9	-51.5	0.0
2026-01-04 18:47:00.858752	339.0	6.9	-51.4	0.0
2026-01-04 18:47:01.974508	339.1	6.8	-51.2	0.0
2026-01-04 18:47:03.089263	339.1	6.7	-51.4	0.0
2026-01-04 18:47:04.205515	339.1	6.6	-51.1	0.0
2026-01-04 18:47:05.322270	339.2	6.5	-51.3	0.0
2026-01-04 18:47:06.439026	339.2	6.5	-51.5	0.0
2026-01-04 18:47:07.556782	339.3	6.4	-51.5	0.0
2026-01-04 18:47:08.671033	339.3	6.3	-51.4	0.0
2026-01-04 18:47:09.788293	339.3	6.2	-51.4	0.0
2026-01-04 18:47:10.904048	339.4	6.1	-51.4	0.0
2026-01-04 18:47:12.020299	339.4	6.0	-53.5	0.0
2026-01-04 18:47:13.135551	339.5	6.0	-59.4	0.0
2026-01-04 18:47:14.250305	339.5	5.9	-62.3	0.0
2026-01-04 18:47:15.365069	339.5	5.8	-60.2	0.0
2026-01-04 18:47:16.480825	339.6	5.7	-60.6	0.0
2026-01-04 18:47:17.599093	339.6	5.6	-63.1	0.0
2026-01-04 18:47:18.715345	339.7	5.6	-66.1	0.0
2026-01-04 18:47:19.831596	339.7	5.5	-66.5	0.0
2026-01-04 18:47:20.947351	339.7	5.4	-66.0	0.0
2026-01-04 18:47:22.063603	339.8	5.3	-65.5	0.0
2026-01-04 18:47:23.178854	339.8	5.3	-66.4	0.0
2026-01-04 18:47:24.294105	339.8	5.2	-67.5	0.0
2026-01-04 18:47:25.408356	339.9	5.1	-66.1	0.0
2026-01-04 18:47:26.523607	339.9	5.0	-68.2	0.0
#Closed at: 2026-01-04 18:34:36.948291