passes_logs/2026/01/04/PlanumMoscow/PlanumMoscow__20260104_120351_METEOR-M2_4_rec.log

#Pass ID: 20260104_120351_METEOR-M2 4
#Satellite: METEOR-M2 4
#Configuration: METEOR-M2 4
#Start time: 2026-01-04 12:03:56.849522

#LorettStation: 1.0.0 05.05.2024
#Station: PlanumMoscow
#Location: 37.6253844 lon 55.6713361 lat
#TLE: 1 59051U 24039A   25293.94737965  .00000087  00000+0  58459-4 0  9998
#TLE: 2 59051  98.6671 251.7071 0007726 135.4772 224.7028 14.22388966 85257

#Time	Az	El	Level	SNR
2026-01-04 12:07:35.326903	204.3	26.5	-64.3	11.8
2026-01-04 12:07:36.444659	204.5	26.6	-64.2	13.3
2026-01-04 12:07:37.559910	204.7	26.8	-64.3	12.2
2026-01-04 12:07:38.675665	204.9	27.0	-64.2	12.0
2026-01-04 12:07:39.791925	205.1	27.1	-64.8	13.9
2026-01-04 12:07:40.907681	205.3	27.3	-65.2	12.7
2026-01-04 12:07:42.023436	205.5	27.4	-64.8	12.4
2026-01-04 12:07:43.139688	205.7	27.6	-64.6	12.5
2026-01-04 12:07:44.255939	205.9	27.8	-64.0	11.0
2026-01-04 12:07:45.372190	206.2	27.9	-64.8	11.8
2026-01-04 12:07:46.488442	206.4	28.1	-64.7	13.2
2026-01-04 12:07:47.602703	206.6	28.3	-65.1	13.4
2026-01-04 12:07:48.718954	206.8	28.4	-65.4	11.5
2026-01-04 12:07:49.834205	207.0	28.6	-65.2	12.8
2026-01-04 12:07:50.952465	207.3	28.7	-64.8	12.7
2026-01-04 12:07:52.069726	207.5	28.9	-63.5	10.0
2026-01-04 12:07:53.186977	207.7	29.1	-64.8	13.4
2026-01-04 12:07:54.301733	207.9	29.2	-64.1	10.9
2026-01-04 12:07:55.416984	208.2	29.4	-65.0	12.8
2026-01-04 12:07:56.533235	208.4	29.6	-65.0	13.8
2026-01-04 12:07:57.649487	208.6	29.7	-65.0	13.8
2026-01-04 12:07:58.767738	208.9	29.9	-65.4	13.6
2026-01-04 12:07:59.883494	209.1	30.1	-63.6	10.2
2026-01-04 12:08:01.002251	209.4	30.2	-64.4	11.6
2026-01-04 12:08:02.118027	209.6	30.4	-65.4	13.2
2026-01-04 12:08:03.239280	209.9	30.6	-65.0	12.2
2026-01-04 12:08:04.354531	210.1	30.7	-64.6	12.6
2026-01-04 12:08:05.468782	210.4	30.9	-63.7	11.8
2026-01-04 12:08:06.587044	210.6	31.1	-65.2	13.8
2026-01-04 12:08:07.702295	210.9	31.3	-65.4	12.9
2026-01-04 12:08:08.819546	211.2	31.4	-65.7	13.0
2026-01-04 12:08:09.935798	211.4	31.6	-64.6	11.2
2026-01-04 12:08:11.051554	211.7	31.8	-64.5	10.8
2026-01-04 12:08:12.167805	212.0	31.9	-65.7	13.4
2026-01-04 12:08:13.287561	212.2	32.1	-65.3	11.1
2026-01-04 12:08:14.402813	212.5	32.3	-65.5	11.0
2026-01-04 12:08:15.519073	212.8	32.5	-65.0	13.2
2026-01-04 12:08:16.635828	213.1	32.6	-66.2	13.3
2026-01-04 12:08:17.750079	213.4	32.8	-65.3	12.2
2026-01-04 12:08:18.867835	213.7	33.0	-65.4	12.0
2026-01-04 12:08:19.983591	213.9	33.2	-66.0	12.8
2026-01-04 12:08:21.100843	214.2	33.3	-65.9	12.5
2026-01-04 12:08:22.216094	214.5	33.5	-65.2	11.6
2026-01-04 12:08:23.332345	214.8	33.7	-66.0	12.2
2026-01-04 12:08:24.448605	215.1	33.9	-65.5	12.6
2026-01-04 12:08:25.565361	215.5	34.0	-65.8	12.0
2026-01-04 12:08:26.680612	215.8	34.2	-65.6	12.1
2026-01-04 12:08:27.795872	216.1	34.4	-66.2	12.3
2026-01-04 12:08:28.912132	216.4	34.6	-66.2	12.8
2026-01-04 12:08:30.028383	216.7	34.7	-65.4	11.0
2026-01-04 12:08:31.146635	217.0	34.9	-65.3	11.5
2026-01-04 12:08:32.260399	217.4	35.1	-66.1	12.2
2026-01-04 12:08:33.381652	217.7	35.3	-65.9	11.3
2026-01-04 12:08:34.502425	218.0	35.4	-65.5	11.8
2026-01-04 12:08:35.625182	218.4	35.6	-65.4	11.3
2026-01-04 12:08:36.747435	218.7	35.8	-65.5	11.1
2026-01-04 12:08:37.868695	219.1	36.0	-65.8	11.2
2026-01-04 12:08:38.987460	219.4	36.1	-64.9	10.5
2026-01-04 12:08:40.109712	219.8	36.3	-64.8	11.0
2026-01-04 12:08:41.232470	220.1	36.5	-65.2	11.8
2026-01-04 12:08:42.354238	220.5	36.7	-65.5	10.8
2026-01-04 12:08:43.475995	220.9	36.8	-65.5	12.1
2026-01-04 12:08:44.597248	221.2	37.0	-65.2	11.7
2026-01-04 12:08:45.719500	221.6	37.2	-65.5	10.7
2026-01-04 12:08:46.841257	222.0	37.3	-65.6	11.4
2026-01-04 12:08:47.963518	222.4	37.5	-65.5	11.9
2026-01-04 12:08:49.085276	222.8	37.7	-64.9	10.7
2026-01-04 12:08:50.207528	223.1	37.9	-65.0	10.2
2026-01-04 12:08:51.326790	223.5	38.0	-64.9	10.8
2026-01-04 12:08:52.446050	223.9	38.2	-63.9	8.9
2026-01-04 12:08:53.564807	224.3	38.4	-65.7	11.5
2026-01-04 12:08:54.680563	224.7	38.5	-65.4	11.6
2026-01-04 12:08:55.796814	225.1	38.7	-65.3	9.5
2026-01-04 12:08:56.913570	225.6	38.9	-65.9	12.1
2026-01-04 12:08:58.029821	226.0	39.0	-65.4	11.3
2026-01-04 12:08:59.146577	226.4	39.2	-65.3	11.0
2026-01-04 12:09:00.262333	226.8	39.4	-65.2	11.3
2026-01-04 12:09:01.379584	227.2	39.5	-65.3	10.7
2026-01-04 12:09:02.493835	227.7	39.7	-64.6	10.3
2026-01-04 12:09:03.610087	228.1	39.8	-64.6	10.3
2026-01-04 12:09:04.725843	228.6	40.0	-64.7	9.9
2026-01-04 12:09:05.843599	229.0	40.2	-65.0	10.6
2026-01-04 12:09:06.960354	229.5	40.3	-64.6	10.1
2026-01-04 12:09:08.075605	229.9	40.5	-65.5	11.3
2026-01-04 12:09:09.189865	230.4	40.6	-65.1	10.0
2026-01-04 12:09:10.306116	230.8	40.8	-65.1	10.0
2026-01-04 12:09:11.420871	231.3	40.9	-65.6	9.0
2026-01-04 12:09:12.537122	231.8	41.1	-65.3	8.5
2026-01-04 12:09:13.655879	232.2	41.2	-65.4	9.7
2026-01-04 12:09:14.778140	232.7	41.4	-65.3	10.0
2026-01-04 12:09:15.896392	233.2	41.5	-64.1	7.0
2026-01-04 12:09:17.012643	233.7	41.7	-65.4	9.8
2026-01-04 12:09:18.129895	234.2	41.8	-65.0	9.8
2026-01-04 12:09:19.245658	234.7	41.9	-65.6	9.3
2026-01-04 12:09:20.362910	235.2	42.1	-65.1	7.2
2026-01-04 12:09:21.479666	235.7	42.2	-65.4	8.4
2026-01-04 12:09:22.594917	236.2	42.3	-64.9	7.3
2026-01-04 12:09:23.712169	236.7	42.5	-65.7	9.0
2026-01-04 12:09:24.829924	237.2	42.6	-65.3	8.3
2026-01-04 12:09:25.948175	237.8	42.7	-65.2	8.3
2026-01-04 12:09:27.066427	238.3	42.9	-63.0	5.4
2026-01-04 12:09:28.181688	238.8	43.0	-64.9	7.9
2026-01-04 12:09:29.299444	239.4	43.1	-64.0	6.1
2026-01-04 12:09:30.418200	239.9	43.2	-63.8	4.7
2026-01-04 12:09:31.534959	240.4	43.3	-64.5	6.7
2026-01-04 12:09:32.651719	241.0	43.4	-65.6	9.1
2026-01-04 12:09:33.769971	241.5	43.6	-63.4	4.1
2026-01-04 12:09:34.886223	242.1	43.7	-64.1	6.4
2026-01-04 12:09:36.001978	242.6	43.8	-63.6	5.7
2026-01-04 12:09:37.118230	243.2	43.9	-64.4	6.0
2026-01-04 12:09:38.237490	243.8	44.0	-64.1	6.4
2026-01-04 12:09:39.353741	244.3	44.1	-64.9	8.2
2026-01-04 12:09:40.474994	244.9	44.2	-63.3	5.4
2026-01-04 12:09:41.595246	245.5	44.3	-64.5	6.1
2026-01-04 12:09:42.712001	246.1	44.3	-64.2	7.4
2026-01-04 12:09:43.832254	246.6	44.4	-64.3	5.9
2026-01-04 12:09:44.948505	247.2	44.5	-63.3	4.7
2026-01-04 12:09:46.066757	247.8	44.6	-63.8	5.7
2026-01-04 12:09:47.186009	248.4	44.7	-64.7	6.7
2026-01-04 12:09:48.303765	249.0	44.7	-64.3	4.9
2026-01-04 12:09:49.419016	249.6	44.8	-63.0	2.4
2026-01-04 12:09:50.541269	250.2	44.9	-64.6	5.9
2026-01-04 12:09:51.663522	250.8	44.9	-64.3	2.7
2026-01-04 12:09:52.784783	251.4	45.0	-63.7	3.9
2026-01-04 12:09:53.905548	252.0	45.1	-64.0	6.2
2026-01-04 12:09:55.026313	252.6	45.1	-64.9	4.8
2026-01-04 12:09:56.147575	253.2	45.2	-63.7	2.0
2026-01-04 12:09:57.269828	253.8	45.2	-65.4	6.5
2026-01-04 12:09:58.391585	254.4	45.3	-65.5	6.9
2026-01-04 12:09:59.513838	255.1	45.3	-64.8	3.2
2026-01-04 12:10:00.635594	255.7	45.3	-64.8	5.2
2026-01-04 12:10:01.757351	256.3	45.4	-62.1	1.1
2026-01-04 12:10:02.879108	256.9	45.4	-65.1	5.0
2026-01-04 12:10:04.001369	257.5	45.4	-64.2	7.1
2026-01-04 12:10:05.123630	258.2	45.4	-64.7	6.9
2026-01-04 12:10:06.240881	258.8	45.5	-61.5	0.6
2026-01-04 12:10:07.357637	259.4	45.5	-65.4	8.0
2026-01-04 12:10:08.473392	260.0	45.5	-65.2	8.5
2026-01-04 12:10:09.590156	260.6	45.5	-65.9	6.9
2026-01-04 12:10:10.706407	261.3	45.5	-64.6	6.7
2026-01-04 12:10:11.823164	261.9	45.5	-66.2	7.8
2026-01-04 12:10:12.943921	262.5	45.5	-65.4	6.9
2026-01-04 12:10:14.063173	263.1	45.5	-66.0	6.2
2026-01-04 12:10:15.178929	263.8	45.5	-65.3	4.8
2026-01-04 12:10:16.297189	264.4	45.4	-65.0	5.0
2026-01-04 12:10:17.411449	265.0	45.4	-65.8	6.9
2026-01-04 12:10:18.528204	265.6	45.4	-65.0	4.9
2026-01-04 12:10:19.643464	266.2	45.4	-66.7	7.4
2026-01-04 12:10:20.760219	266.8	45.4	-66.8	7.0
2026-01-04 12:10:21.875479	267.5	45.3	-66.4	7.3
2026-01-04 12:10:22.993731	268.1	45.3	-65.7	6.6
2026-01-04 12:10:24.107998	268.7	45.2	-66.5	7.8
2026-01-04 12:10:25.228259	269.3	45.2	-67.4	8.7
2026-01-04 12:10:26.344518	269.9	45.2	-66.1	7.5
2026-01-04 12:10:27.461770	270.5	45.1	-66.4	8.1
2026-01-04 12:10:28.577525	271.1	45.1	-67.3	8.7
2026-01-04 12:10:29.693281	271.7	45.0	-66.2	7.3
2026-01-04 12:10:30.810037	272.3	44.9	-66.3	7.1
2026-01-04 12:10:31.927288	272.9	44.9	-66.8	9.0
2026-01-04 12:10:33.044540	273.5	44.8	-66.6	7.7
2026-01-04 12:10:34.159295	274.1	44.7	-66.8	8.1
2026-01-04 12:10:35.274547	274.7	44.7	-66.5	8.8
2026-01-04 12:10:36.393303	275.3	44.6	-66.7	9.6
2026-01-04 12:10:37.508554	275.9	44.5	-67.0	8.8
2026-01-04 12:10:38.624805	276.5	44.4	-67.0	9.4
2026-01-04 12:10:39.740561	277.0	44.3	-67.0	9.1
2026-01-04 12:10:40.857813	277.6	44.2	-67.1	9.3
2026-01-04 12:10:41.975065	278.2	44.2	-67.2	9.2
2026-01-04 12:10:43.094325	278.8	44.1	-67.3	10.2
2026-01-04 12:10:44.208576	279.3	44.0	-66.7	9.0
2026-01-04 12:10:45.322827	279.9	43.9	-66.9	9.6
2026-01-04 12:10:46.438087	280.4	43.8	-66.7	9.7
2026-01-04 12:10:47.555339	281.0	43.7	-66.6	9.2
2026-01-04 12:10:48.671590	281.5	43.5	-66.7	9.0
2026-01-04 12:10:49.786841	282.1	43.4	-67.2	9.5
2026-01-04 12:10:50.903101	282.6	43.3	-66.2	8.8
2026-01-04 12:10:52.019369	283.2	43.2	-66.1	7.8
2026-01-04 12:10:53.136637	283.7	43.1	-66.7	8.6
2026-01-04 12:10:54.253393	284.2	43.0	-67.4	9.5
2026-01-04 12:10:55.366643	284.8	42.9	-66.8	8.9
2026-01-04 12:10:56.482399	285.3	42.7	-67.4	10.1
2026-01-04 12:10:57.599168	285.8	42.6	-66.7	8.5
2026-01-04 12:10:58.715924	286.3	42.5	-66.0	8.2
2026-01-04 12:10:59.831175	286.8	42.3	-66.3	8.4
2026-01-04 12:11:00.948427	287.4	42.2	-66.7	10.5
2026-01-04 12:11:02.063678	287.9	42.1	-66.6	9.0
2026-01-04 12:11:03.181930	288.4	41.9	-67.0	10.7
2026-01-04 12:11:04.296181	288.8	41.8	-66.3	8.1
2026-01-04 12:11:05.412432	289.3	41.7	-66.3	10.6
2026-01-04 12:11:06.529188	289.8	41.5	-66.6	9.1
2026-01-04 12:11:07.644439	290.3	41.4	-66.2	10.0
2026-01-04 12:11:08.760194	290.8	41.2	-66.5	10.1
2026-01-04 12:11:09.875446	291.3	41.1	-66.4	10.2
2026-01-04 12:11:10.990704	291.7	40.9	-66.5	9.2
2026-01-04 12:11:12.105956	292.2	40.8	-65.9	10.0
2026-01-04 12:11:13.221711	292.7	40.6	-66.0	9.2
2026-01-04 12:11:14.338963	293.1	40.5	-66.2	9.5
2026-01-04 12:11:15.453718	293.6	40.3	-66.1	9.8
2026-01-04 12:11:16.569978	294.0	40.2	-66.4	9.1
2026-01-04 12:11:17.684229	294.5	40.0	-65.7	8.0
2026-01-04 12:11:18.799985	294.9	39.9	-65.1	8.5
2026-01-04 12:11:19.916237	295.3	39.7	-66.1	9.6
2026-01-04 12:11:21.035993	295.8	39.5	-66.2	10.0
2026-01-04 12:11:22.157255	296.2	39.4	-65.9	9.2
2026-01-04 12:11:23.279011	296.6	39.2	-66.6	10.1
2026-01-04 12:11:24.397279	297.0	39.0	-66.8	10.5
2026-01-04 12:11:25.516044	297.5	38.9	-66.5	10.2
2026-01-04 12:11:26.636314	297.9	38.7	-67.0	9.8
2026-01-04 12:11:27.758080	298.3	38.6	-66.7	10.0
2026-01-04 12:11:28.880837	298.7	38.4	-66.5	9.8
2026-01-04 12:11:29.997096	299.1	38.2	-66.3	9.6
2026-01-04 12:11:31.118861	299.5	38.0	-66.3	9.7
2026-01-04 12:11:32.241114	299.9	37.9	-65.1	8.4
2026-01-04 12:11:33.363871	300.2	37.7	-66.6	10.0
2026-01-04 12:11:34.484132	300.6	37.5	-66.4	9.4
2026-01-04 12:11:35.607385	301.0	37.4	-66.3	10.2
2026-01-04 12:11:36.728646	301.4	37.2	-64.8	9.4
2026-01-04 12:11:37.850403	301.8	37.0	-64.6	6.1
2026-01-04 12:11:38.968655	302.1	36.9	-66.4	9.4
2026-01-04 12:11:40.083915	302.5	36.7	-66.0	8.9
2026-01-04 12:11:41.201167	302.8	36.5	-65.6	9.2
2026-01-04 12:11:42.315922	303.2	36.3	-65.6	9.5
2026-01-04 12:11:43.433678	303.6	36.2	-65.2	9.5
2026-01-04 12:11:44.547938	303.9	36.0	-65.7	10.3
2026-01-04 12:11:45.663694	304.2	35.8	-65.6	8.4
2026-01-04 12:11:46.779450	304.6	35.7	-65.8	8.3
2026-01-04 12:11:47.894710	304.9	35.5	-66.1	9.7
2026-01-04 12:11:49.010465	305.3	35.3	-65.9	10.0
2026-01-04 12:11:50.127725	305.6	35.1	-66.0	9.1
2026-01-04 12:11:51.244977	305.9	35.0	-65.6	7.7
2026-01-04 12:11:52.361732	306.2	34.8	-65.8	9.8
2026-01-04 12:11:53.477984	306.6	34.6	-65.8	10.5
2026-01-04 12:11:54.593235	306.9	34.4	-66.3	10.1
2026-01-04 12:11:55.708990	307.2	34.3	-66.6	10.7
2026-01-04 12:11:56.824746	307.5	34.1	-66.2	10.9
2026-01-04 12:11:57.940501	307.8	33.9	-66.1	10.3
2026-01-04 12:11:59.063258	308.1	33.7	-66.1	9.8
2026-01-04 12:12:00.185015	308.4	33.6	-66.0	10.0
2026-01-04 12:12:01.306772	308.7	33.4	-66.4	10.8
2026-01-04 12:12:02.424024	309.0	33.2	-66.5	10.7
2026-01-04 12:12:03.539284	309.3	33.1	-66.6	11.5
2026-01-04 12:12:04.655543	309.6	32.9	-66.3	11.8
2026-01-04 12:12:05.772795	309.9	32.7	-66.6	11.1
2026-01-04 12:12:06.885549	310.2	32.5	-66.7	11.8
2026-01-04 12:12:08.000801	310.4	32.4	-66.6	11.2
2026-01-04 12:12:09.115065	310.7	32.2	-66.8	11.6
2026-01-04 12:12:10.228820	311.0	32.0	-66.3	10.9
2026-01-04 12:12:11.344071	311.2	31.9	-66.7	11.3
2026-01-04 12:12:12.459322	311.5	31.7	-66.4	11.6
2026-01-04 12:12:13.577078	311.8	31.5	-66.6	12.3
2026-01-04 12:12:14.694329	312.0	31.3	-66.3	11.8
2026-01-04 12:12:15.808580	312.3	31.2	-66.3	11.3
2026-01-04 12:12:16.924832	312.6	31.0	-66.8	12.5
2026-01-04 12:12:18.045092	312.8	30.8	-66.3	12.4
2026-01-04 12:12:19.160344	313.1	30.7	-66.6	11.5
2026-01-04 12:12:20.273594	313.3	30.5	-66.6	10.2
2026-01-04 12:12:21.389846	313.6	30.3	-66.7	11.3
2026-01-04 12:12:22.505601	313.8	30.2	-66.4	11.3
2026-01-04 12:12:23.624357	314.0	30.0	-66.7	12.3
2026-01-04 12:12:24.738608	314.3	29.8	-66.6	12.0
2026-01-04 12:12:25.854867	314.5	29.7	-67.0	12.7
2026-01-04 12:12:26.969622	314.8	29.5	-66.4	12.8
2026-01-04 12:12:28.086874	315.0	29.3	-66.5	12.4
2026-01-04 12:12:29.206630	315.2	29.2	-66.9	12.6
2026-01-04 12:12:30.321881	315.4	29.0	-66.7	12.5
2026-01-04 12:12:31.439638	315.7	28.8	-66.8	11.9
2026-01-04 12:12:32.556393	315.9	28.7	-66.8	12.3
2026-01-04 12:12:33.672158	316.1	28.5	-66.9	13.1
2026-01-04 12:12:34.788914	316.3	28.4	-66.7	12.5
2026-01-04 12:12:35.905165	316.6	28.2	-67.1	12.7
2026-01-04 12:12:37.020930	316.8	28.0	-66.6	11.9
2026-01-04 12:12:38.137190	317.0	27.9	-66.5	11.7
2026-01-04 12:12:39.252954	317.2	27.7	-66.6	12.5
2026-01-04 12:12:40.367205	317.4	27.6	-66.6	11.9
2026-01-04 12:12:41.484970	317.6	27.4	-66.7	12.2
2026-01-04 12:12:42.599221	317.8	27.2	-66.5	12.2
2026-01-04 12:12:43.716473	318.0	27.1	-66.8	12.4
2026-01-04 12:12:44.832732	318.2	26.9	-66.5	11.7
2026-01-04 12:12:45.947983	318.4	26.8	-66.9	12.7
2026-01-04 12:12:47.064235	318.6	26.6	-66.6	11.9
2026-01-04 12:12:48.180487	318.8	26.5	-67.1	12.4
2026-01-04 12:12:49.295737	319.0	26.3	-66.9	12.3
2026-01-04 12:12:50.411493	319.2	26.2	-67.2	12.1
2026-01-04 12:12:51.528744	319.4	26.0	-65.7	9.3
2026-01-04 12:12:52.645500	319.6	25.8	-66.6	10.9
2026-01-04 12:12:53.761761	319.7	25.7	-66.8	11.4
2026-01-04 12:12:54.876021	319.9	25.5	-67.0	12.2
2026-01-04 12:12:55.990776	320.1	25.4	-66.8	12.0
2026-01-04 12:12:57.106027	320.3	25.2	-67.0	11.4
2026-01-04 12:12:58.223278	320.5	25.1	-66.8	11.8
2026-01-04 12:12:59.338530	320.6	24.9	-66.8	11.5
2026-01-04 12:13:00.455781	320.8	24.8	-66.3	10.3
2026-01-04 12:13:01.572536	321.0	24.6	-66.8	12.5
2026-01-04 12:13:02.694302	321.2	24.5	-66.4	11.0
2026-01-04 12:13:03.815067	321.3	24.3	-66.6	11.9
2026-01-04 12:13:04.936335	321.5	24.2	-66.7	11.1
2026-01-04 12:13:06.057596	321.7	24.1	-66.9	12.3
2026-01-04 12:13:07.179850	321.8	23.9	-66.7	11.8
2026-01-04 12:13:08.301110	322.0	23.8	-66.8	11.5
2026-01-04 12:13:09.421875	322.2	23.6	-66.7	10.8
2026-01-04 12:13:10.543631	322.3	23.5	-67.0	12.1
2026-01-04 12:13:11.665389	322.5	23.3	-66.4	10.5
2026-01-04 12:13:12.786650	322.7	23.2	-66.5	10.7
2026-01-04 12:13:13.908903	322.8	23.0	-66.5	10.6
2026-01-04 12:13:15.031164	323.0	22.9	-66.7	12.0
2026-01-04 12:13:16.152416	323.1	22.8	-66.1	10.2
2026-01-04 12:13:17.273180	323.3	22.6	-67.1	11.8
2026-01-04 12:13:18.387945	323.4	22.5	-66.9	11.9
2026-01-04 12:13:19.502196	323.6	22.3	-66.7	11.8
2026-01-04 12:13:20.619960	323.7	22.2	-67.3	11.2
2026-01-04 12:13:21.735211	323.9	22.1	-67.2	11.4
2026-01-04 12:13:22.852463	324.0	21.9	-65.9	11.1
2026-01-04 12:13:23.969723	324.2	21.8	-67.1	11.7
2026-01-04 12:13:25.082974	324.3	21.6	-66.5	10.9
2026-01-04 12:13:26.200226	324.5	21.5	-66.8	11.9
2026-01-04 12:13:27.315477	324.6	21.4	-66.9	10.7
2026-01-04 12:13:28.430736	324.7	21.2	-66.5	9.7
2026-01-04 12:13:29.547492	324.9	21.1	-67.0	11.4
2026-01-04 12:13:30.662743	325.0	21.0	-66.9	11.4
2026-01-04 12:13:31.777498	325.2	20.8	-66.8	11.1
2026-01-04 12:13:32.894254	325.3	20.7	-66.8	10.2
2026-01-04 12:13:34.014506	325.4	20.6	-66.9	10.7
2026-01-04 12:13:35.128766	325.6	20.4	-66.8	10.8
2026-01-04 12:13:36.244017	325.7	20.3	-67.0	11.5
2026-01-04 12:13:37.359268	325.8	20.2	-66.9	10.7
2026-01-04 12:13:38.474519	326.0	20.1	-66.7	10.3
2026-01-04 12:13:39.589779	326.1	19.9	-66.5	10.9
2026-01-04 12:13:40.705030	326.2	19.8	-66.9	11.3
2026-01-04 12:13:41.821281	326.3	19.7	-66.9	10.8
2026-01-04 12:13:42.937533	326.5	19.5	-66.9	12.0
2026-01-04 12:13:44.053288	326.6	19.4	-66.8	11.5
2026-01-04 12:13:45.168539	326.7	19.3	-66.3	10.2
2026-01-04 12:13:46.284799	326.8	19.2	-66.8	11.7
2026-01-04 12:13:47.400562	327.0	19.0	-66.7	11.3
2026-01-04 12:13:48.514813	327.1	18.9	-66.5	10.7
2026-01-04 12:13:49.630064	327.2	18.8	-66.7	11.6
2026-01-04 12:13:50.745315	327.3	18.7	-66.9	11.4
2026-01-04 12:13:51.862567	327.4	18.5	-66.9	10.6
2026-01-04 12:13:52.978818	327.6	18.4	-67.1	11.2
2026-01-04 12:13:54.094574	327.7	18.3	-67.0	10.4
2026-01-04 12:13:55.209825	327.8	18.2	-66.5	9.9
2026-01-04 12:13:56.325076	327.9	18.1	-67.0	11.0
2026-01-04 12:13:57.441336	328.0	17.9	-66.6	9.9
2026-01-04 12:13:58.557587	328.1	17.8	-67.4	11.1
2026-01-04 12:13:59.672846	328.3	17.7	-66.5	9.7
2026-01-04 12:14:00.789097	328.4	17.6	-67.2	10.0
2026-01-04 12:14:01.905349	328.5	17.5	-66.4	9.1
2026-01-04 12:14:03.021105	328.6	17.3	-67.1	10.0
2026-01-04 12:14:04.138365	328.7	17.2	-66.8	10.1
2026-01-04 12:14:05.253616	328.8	17.1	-66.7	9.6
2026-01-04 12:14:06.368867	328.9	17.0	-66.9	9.1
2026-01-04 12:14:07.484632	329.0	16.9	-66.6	8.6
2026-01-04 12:14:08.598890	329.1	16.8	-67.3	9.5
2026-01-04 12:14:09.715142	329.2	16.6	-67.0	9.5
2026-01-04 12:14:10.830393	329.3	16.5	-67.0	9.5
2026-01-04 12:14:11.945644	329.4	16.4	-66.5	9.3
2026-01-04 12:14:13.062400	329.5	16.3	-66.6	9.3
2026-01-04 12:14:14.179651	329.6	16.2	-67.0	10.1
2026-01-04 12:14:15.295916	329.7	16.1	-67.1	10.2
2026-01-04 12:14:16.411167	329.8	16.0	-66.9	9.9
2026-01-04 12:14:17.527419	329.9	15.8	-67.3	10.3
2026-01-04 12:14:18.642174	330.0	15.7	-67.4	9.6
2026-01-04 12:14:19.759434	330.1	15.6	-67.3	10.5
2026-01-04 12:14:20.879687	330.2	15.5	-67.7	9.8
2026-01-04 12:14:22.000452	330.3	15.4	-66.9	8.6
2026-01-04 12:14:23.123209	330.4	15.3	-67.0	9.9
2026-01-04 12:14:24.244965	330.5	15.2	-66.7	10.0
2026-01-04 12:14:25.366722	330.6	15.1	-66.9	9.8
2026-01-04 12:14:26.488975	330.7	15.0	-67.4	9.5
2026-01-04 12:14:27.609740	330.8	14.8	-66.6	9.7
2026-01-04 12:14:28.731497	330.9	14.7	-67.1	9.7
2026-01-04 12:14:29.852261	331.0	14.6	-66.8	8.8
2026-01-04 12:14:30.974514	331.1	14.5	-67.4	9.6
2026-01-04 12:14:32.096271	331.2	14.4	-67.3	8.7
2026-01-04 12:14:33.217533	331.3	14.3	-67.0	9.3
2026-01-04 12:14:34.339289	331.4	14.2	-67.0	9.4
2026-01-04 12:14:35.461046	331.5	14.1	-66.8	9.3
2026-01-04 12:14:36.577306	331.5	14.0	-66.4	9.1
2026-01-04 12:14:37.693574	331.6	13.9	-66.8	9.6
2026-01-04 12:14:38.811331	331.7	13.8	-67.2	10.0
2026-01-04 12:14:39.926582	331.8	13.7	-66.4	8.8
2026-01-04 12:14:41.043834	331.9	13.6	-67.0	10.0
2026-01-04 12:14:42.161094	332.0	13.5	-67.3	9.2
2026-01-04 12:14:43.279346	332.1	13.4	-67.2	9.4
2026-01-04 12:14:44.396605	332.1	13.3	-67.0	9.6
2026-01-04 12:14:45.512361	332.2	13.2	-67.3	9.3
2026-01-04 12:14:46.628117	332.3	13.1	-66.7	9.1
2026-01-04 12:14:47.744369	332.4	13.0	-67.1	8.5
2026-01-04 12:14:48.862124	332.5	12.9	-66.4	8.3
2026-01-04 12:14:49.977383	332.6	12.8	-67.3	9.0
2026-01-04 12:14:51.093635	332.6	12.7	-66.0	7.4
2026-01-04 12:14:52.209886	332.7	12.6	-66.5	8.7
2026-01-04 12:14:53.328147	332.8	12.5	-66.1	7.4
2026-01-04 12:14:54.444398	332.9	12.4	-66.7	8.7
2026-01-04 12:14:55.560650	333.0	12.3	-66.5	7.5
2026-01-04 12:14:56.675405	333.0	12.2	-66.0	7.3
2026-01-04 12:14:57.793657	333.1	12.1	-66.6	8.7
2026-01-04 12:14:58.909413	333.2	12.0	-66.9	7.9
2026-01-04 12:15:00.026168	333.3	11.9	-66.7	7.8
2026-01-04 12:15:01.143436	333.4	11.8	-66.8	8.5
2026-01-04 12:15:02.259200	333.4	11.7	-66.3	7.6
2026-01-04 12:15:03.375956	333.5	11.6	-66.3	8.3
2026-01-04 12:15:04.492216	333.6	11.5	-66.7	8.4
2026-01-04 12:15:05.606971	333.7	11.4	-66.3	8.8
2026-01-04 12:15:06.722728	333.7	11.3	-67.0	8.9
2026-01-04 12:15:07.838484	333.8	11.2	-66.7	8.5
2026-01-04 12:15:08.953735	333.9	11.1	-66.5	9.7
2026-01-04 12:15:10.068986	334.0	11.0	-66.8	9.0
2026-01-04 12:15:11.183246	334.0	10.9	-66.5	8.6
2026-01-04 12:15:12.299001	334.1	10.8	-66.9	8.0
2026-01-04 12:15:13.414757	334.2	10.7	-66.4	8.2
2026-01-04 12:15:14.533018	334.2	10.6	-66.6	6.7
2026-01-04 12:15:15.648269	334.3	10.5	-65.8	6.5
2026-01-04 12:15:16.764024	334.4	10.4	-66.6	6.1
2026-01-04 12:15:17.880284	334.5	10.4	-66.9	7.9
2026-01-04 12:15:18.995039	334.5	10.3	-65.9	6.8
2026-01-04 12:15:20.110795	334.6	10.2	-65.7	6.2
2026-01-04 12:15:21.225046	334.7	10.1	-66.7	7.4
2026-01-04 12:15:22.340297	334.7	10.0	-66.2	7.0
2026-01-04 12:15:23.457052	334.8	9.9	-66.3	6.5
2026-01-04 12:15:24.574305	334.9	9.8	-66.5	7.4
2026-01-04 12:15:25.690556	334.9	9.7	-66.8	7.9
2026-01-04 12:15:26.808817	335.0	9.6	-66.7	7.5
2026-01-04 12:15:27.925068	335.1	9.5	-66.8	8.2
2026-01-04 12:15:29.042320	335.1	9.4	-66.7	8.6
2026-01-04 12:15:30.157572	335.2	9.4	-67.1	7.3
2026-01-04 12:15:31.271823	335.3	9.3	-66.5	8.0
2026-01-04 12:15:32.390074	335.3	9.2	-66.5	7.6
2026-01-04 12:15:33.507830	335.4	9.1	-65.9	6.3
2026-01-04 12:15:34.624585	335.5	9.0	-65.4	6.3
2026-01-04 12:15:35.744342	335.5	8.9	-65.4	5.4
2026-01-04 12:15:36.860602	335.6	8.8	-65.9	6.7
2026-01-04 12:15:37.974853	335.7	8.7	-65.9	7.6
2026-01-04 12:15:39.091104	335.7	8.7	-65.7	4.9
2026-01-04 12:15:40.206364	335.8	8.6	-65.1	6.3
2026-01-04 12:15:41.321615	335.8	8.5	-65.6	5.5
2026-01-04 12:15:42.439380	335.9	8.4	-65.1	5.8
2026-01-04 12:15:43.558144	336.0	8.3	-65.3	6.4
2026-01-04 12:15:44.674412	336.0	8.2	-66.0	4.9
2026-01-04 12:15:45.789663	336.1	8.1	-65.6	7.7
2026-01-04 12:15:46.904914	336.1	8.1	-66.1	4.1
2026-01-04 12:15:48.021670	336.2	8.0	-65.9	5.6
2026-01-04 12:15:49.138922	336.3	7.9	-65.7	6.6
2026-01-04 12:15:50.260182	336.3	7.8	-66.7	4.1
2026-01-04 12:15:51.382435	336.4	7.7	-65.8	7.1
2026-01-04 12:15:52.504688	336.4	7.6	-66.4	5.5
2026-01-04 12:15:53.626445	336.5	7.6	-66.4	4.8
2026-01-04 12:15:54.747210	336.6	7.5	-64.7	4.7
2026-01-04 12:15:55.868471	336.6	7.4	-65.5	2.9
2026-01-04 12:15:56.989732	336.7	7.3	-65.4	6.2
2026-01-04 12:15:58.105488	336.7	7.2	-66.2	5.5
2026-01-04 12:15:59.227740	336.8	7.1	-66.1	5.3
2026-01-04 12:16:00.349993	336.9	7.1	-65.2	6.5
2026-01-04 12:16:01.471254	336.9	7.0	-65.5	4.5
2026-01-04 12:16:02.593010	337.0	6.9	-66.0	6.4
2026-01-04 12:16:03.714767	337.0	6.8	-65.1	5.0
2026-01-04 12:16:04.836524	337.1	6.7	-65.8	3.8
2026-01-04 12:16:05.958281	337.1	6.7	-65.8	6.2
2026-01-04 12:16:07.074540	337.2	6.6	-65.5	3.0
2026-01-04 12:16:08.191792	337.3	6.5	-64.5	4.8
2026-01-04 12:16:09.307052	337.3	6.4	-64.7	5.4
2026-01-04 12:16:10.422303	337.4	6.3	-65.6	3.0
2026-01-04 12:16:11.538059	337.4	6.3	-64.7	4.4
2026-01-04 12:16:12.655311	337.5	6.2	-64.6	5.5
2026-01-04 12:16:13.773563	337.5	6.1	-64.6	2.6
2026-01-04 12:16:14.891318	337.6	6.0	-65.8	6.3
2026-01-04 12:16:16.008570	337.6	5.9	-67.3	3.9
2026-01-04 12:16:17.124325	337.7	5.9	-68.6	0.0
2026-01-04 12:16:18.239576	337.7	5.8	-68.9	0.0
2026-01-04 12:16:19.355332	337.8	5.7	-67.1	0.0
2026-01-04 12:16:20.471583	337.8	5.6	-68.4	0.0
2026-01-04 12:16:21.585338	337.9	5.5	-68.2	0.0
2026-01-04 12:16:22.700589	337.9	5.5	-68.2	0.0
2026-01-04 12:16:23.815840	338.0	5.4	-68.4	0.0
2026-01-04 12:16:24.932092	338.0	5.3	-67.5	0.0
2026-01-04 12:16:26.048351	338.1	5.2	-69.3	0.0
2026-01-04 12:16:27.164603	338.1	5.2	-69.4	0.0
2026-01-04 12:16:28.279358	338.2	5.1	-70.4	0.0
2026-01-04 12:16:29.394609	338.2	5.0	-70.3	0.0
#Closed at: 2026-01-04 12:03:51.850370