passes_logs/2026/01/02/R4.6S_Anadyr/R4.6S_Anadyr__20260102_162921_FENGYUN_3D_rec.log

#Pass ID: 20260102_162921_FENGYUN 3D
#Satellite: FENGYUN 3D
#Configuration: FENGYUN 3D
#almurnet v.1.7.20251203
#Start time: 2026-01-02 16:29:24

#Version: 2.2.20231116
#Station: R4.6S_Anadyr
#Location: 177.4865 lon 64.73178 lat
#TLE: 1 43010U 17072A   26001.96529979  .00000409  00000+0  21503-3 0  9996
#TLE: 2 43010  98.9910 333.5811 0001886 133.0441 227.0893 14.19692048421405

#Time	Az	El	Level	Level2	SNR	BER	BlckErr	Temp	State	Recorded	gain1	gain2
2026-01-02 16:29:24.43	20.52	0.17	-49.4	-60.1	3.3	8.41e-01	0	37	0	0	60	36497
2026-01-02 16:29:25.44	20.53	0.23	-49.4	-61.6	3.5	8.45e-01	0	37	104	0	60	43422
2026-01-02 16:29:26.45	20.55	0.29	-49.5	-61.6	3.6	8.46e-01	0	37	104	0	60	43480
2026-01-02 16:29:27.46	20.56	0.35	-49.4	-61.6	3.6	8.46e-01	0	37	104	0	60	43346
2026-01-02 16:29:28.47	20.57	0.41	-49.4	-61.5	3.6	8.46e-01	0	37	104	0	60	43168
2026-01-02 16:29:29.48	20.59	0.47	-49.3	-61.5	3.6	8.46e-01	0	37	104	0	60	42778
2026-01-02 16:29:30.49	20.60	0.54	-49.2	-61.4	3.6	8.45e-01	0	37	104	0	60	42255
2026-01-02 16:29:31.50	20.62	0.60	-49.1	-61.2	3.6	8.45e-01	0	37	104	0	60	41477
2026-01-02 16:29:32.51	20.63	0.66	-48.9	-61.0	3.6	8.45e-01	0	37	104	0	60	40414
2026-01-02 16:29:33.52	20.64	0.72	-48.6	-60.7	3.6	8.44e-01	0	37	104	0	60	39189
2026-01-02 16:29:34.53	20.66	0.78	-48.5	-60.6	3.6	8.45e-01	0	37	104	0	60	38537
2026-01-02 16:29:35.54	20.67	0.84	-48.2	-60.2	3.6	8.46e-01	0	37	104	0	60	37176
2026-01-02 16:29:36.55	20.68	0.90	-47.7	-59.7	3.6	8.46e-01	0	38	104	0	60	34807
2026-01-02 16:29:37.56	20.70	0.96	-47.6	-59.6	3.6	8.45e-01	0	38	104	0	60	34368
2026-01-02 16:29:38.57	20.71	1.03	-47.6	-59.6	3.6	8.46e-01	0	38	104	0	60	34624
2026-01-02 16:29:39.58	20.73	1.09	-47.6	-59.6	3.6	8.45e-01	0	37	104	0	60	34434
2026-01-02 16:29:40.59	20.74	1.15	-47.5	-59.5	3.6	8.46e-01	0	38	104	0	60	33993
2026-01-02 16:29:41.60	20.76	1.21	-47.5	-59.5	3.6	8.46e-01	0	38	104	0	60	34320
2026-01-02 16:29:42.60	20.77	1.27	-47.5	-59.4	3.6	8.45e-01	0	38	104	0	60	33764
2026-01-02 16:29:43.61	20.78	1.34	-47.5	-59.4	3.6	8.45e-01	0	38	104	0	60	33831
2026-01-02 16:29:44.62	20.80	1.40	-47.5	-59.3	3.6	8.45e-01	0	38	104	0	60	33479
2026-01-02 16:29:45.63	20.81	1.46	-47.5	-59.5	3.6	8.44e-01	0	38	104	0	60	34032
2026-01-02 16:29:46.64	20.83	1.53	-47.5	-59.5	3.6	8.46e-01	0	38	104	0	60	34147
2026-01-02 16:29:47.66	20.84	1.59	-47.5	-59.5	3.6	8.45e-01	0	38	104	0	60	34232
2026-01-02 16:29:48.66	20.86	1.65	-47.5	-59.6	3.6	8.46e-01	0	38	104	0	60	34468
2026-01-02 16:29:49.67	20.87	1.72	-47.5	-59.7	3.6	8.46e-01	0	38	104	0	60	34807
2026-01-02 16:29:50.68	20.88	1.78	-47.5	-59.6	3.6	8.45e-01	0	38	104	0	60	34544
2026-01-02 16:29:51.69	20.90	1.84	-47.5	-59.6	3.5	8.45e-01	0	38	104	0	60	34526
2026-01-02 16:29:52.70	20.91	1.91	-47.6	-59.6	3.6	8.45e-01	0	38	104	0	60	34673
2026-01-02 16:29:53.71	20.93	1.97	-47.5	-59.7	3.6	8.47e-01	0	38	104	0	60	34950
2026-01-02 16:29:54.72	20.94	2.03	-47.5	-59.6	3.6	8.45e-01	0	38	104	0	60	34391
2026-01-02 16:29:55.73	20.96	2.10	-47.5	-59.3	3.6	8.45e-01	0	38	104	0	60	33330
2026-01-02 16:29:56.74	20.97	2.16	-47.5	-58.7	3.6	8.46e-01	0	38	104	0	60	31224
2026-01-02 16:29:57.75	20.99	2.23	-47.4	-57.8	3.6	8.45e-01	0	38	104	0	60	28112
2026-01-02 16:29:58.76	21.00	2.29	-47.3	-56.8	3.7	8.45e-01	0	38	104	0	60	25107
2026-01-02 16:29:59.77	21.02	2.36	-47.2	-55.1	3.9	8.38e-01	0	38	0	0	60	20670
2026-01-02 16:30:00.78	21.03	2.42	-47.2	-56.3	3.7	8.33e-01	0	38	104	0	60	23730
2026-01-02 16:30:01.79	21.05	2.49	-47.1	-54.6	4.0	8.33e-01	0	38	0	0	60	19504
2026-01-02 16:30:02.81	21.06	2.55	-47.2	-54.6	3.8	8.31e-01	0	38	0	0	60	19433
2026-01-02 16:30:03.81	21.08	2.62	-47.1	-55.4	4.2	8.39e-01	0	38	104	0	60	21349
2026-01-02 16:30:04.82	21.09	2.68	-46.9	-53.3	4.5	7.94e-01	0	38	0	0	60	16627
2026-01-02 16:30:05.83	21.11	2.75	-46.3	-51.2	6.4	3.17e-01	0	38	0	2097152	60	13114
2026-01-02 16:30:06.84	21.12	2.81	-45.6	-49.4	8.6	7.07e-02	0	38	0	7340032	60	10670
2026-01-02 16:30:07.85	21.14	2.88	-44.1	-46.8	11.7	1.83e-03	0	38	0	13631488	60	7884
2026-01-02 16:30:08.86	21.15	2.95	-43.4	-45.7	13.0	2.46e-04	0	38	0	18874368	60	6939
2026-01-02 16:30:09.88	21.17	3.01	-42.1	-43.9	14.6	9.10e-06	0	38	0	24117248	58	6348
2026-01-02 16:30:10.89	21.18	3.08	-41.6	-43.2	15.5	0.00e+00	0	38	0	30408704	56	6584
2026-01-02 16:30:11.89	21.20	3.15	-40.7	-42.1	16.6	0.00e+00	0	38	0	35651584	56	5797
2026-01-02 16:30:12.90	21.21	3.21	-40.3	-41.6	17.3	0.00e+00	0	38	0	41943040	54	6127
2026-01-02 16:30:13.91	21.23	3.28	-40.3	-41.7	16.8	0.00e+00	0	38	0	47185920	54	6187
2026-01-02 16:30:14.92	21.25	3.35	-40.2	-41.5	17.1	0.00e+00	0	38	0	53477376	54	6068
2026-01-02 16:30:15.93	21.26	3.41	-40.5	-41.8	16.8	0.00e+00	0	38	0	58720256	54	6300
2026-01-02 16:30:16.94	21.28	3.48	-41.2	-42.6	16.0	0.00e+00	0	38	0	63963136	54	6905
2026-01-02 16:30:17.95	21.29	3.55	-42.4	-44.2	14.4	1.10e-06	0	38	0	70254592	56	7380
2026-01-02 16:30:18.96	21.31	3.62	-43.4	-45.6	12.8	3.43e-05	0	38	0	75497472	58	7733
2026-01-02 16:30:19.97	21.32	3.68	-39.5	-40.7	18.1	0.00e+00	0	38	0	81788928	52	6186
2026-01-02 16:30:20.98	21.34	3.75	-42.1	-43.8	14.6	0.00e+00	0	38	0	87031808	54	7909
2026-01-02 16:30:21.99	21.36	3.82	-47.6	-59.2	3.6	3.62e-01	0	38	104	91226112	60	32946
2026-01-02 16:30:23.00	21.37	3.89	-41.4	-42.9	16.2	0.00e+00	0	38	0	91226112	56	6325
2026-01-02 16:30:24.01	21.39	3.96	-47.4	-59.0	3.6	6.53e-01	0	38	104	95420416	60	32272
2026-01-02 16:30:25.02	21.40	4.03	-39.9	-41.1	16.9	5.19e-01	0	38	104	95420416	54	5804
2026-01-02 16:30:26.03	21.42	4.10	-40.0	-41.2	17.8	0.00e+00	0	38	0	97517568	54	5872
2026-01-02 16:30:27.03	21.44	4.16	-39.4	-40.5	18.4	0.00e+00	0	38	0	102760448	52	6095
2026-01-02 16:30:28.04	21.45	4.23	-39.4	-40.5	18.7	0.00e+00	0	38	0	109051904	52	6037
2026-01-02 16:30:29.05	21.47	4.30	-39.1	-40.2	18.6	0.00e+00	0	38	0	114294784	52	5853
2026-01-02 16:30:30.06	21.49	4.37	-39.2	-40.3	18.6	0.00e+00	0	38	0	120586240	50	6631
2026-01-02 16:30:31.07	21.50	4.44	-39.0	-40.0	19.1	0.00e+00	0	38	0	125829120	50	6460
2026-01-02 16:30:32.08	21.52	4.51	-38.3	-39.3	19.7	0.00e+00	0	38	0	131072000	50	5937
2026-01-02 16:30:33.09	21.54	4.58	-38.0	-38.9	20.2	0.00e+00	0	38	0	137363456	50	5660
2026-01-02 16:30:34.10	21.55	4.65	-37.8	-38.7	20.3	0.00e+00	0	38	0	142606336	48	6188
2026-01-02 16:30:35.11	21.57	4.72	-37.4	-38.3	20.6	0.00e+00	0	38	0	148897792	48	5944
2026-01-02 16:30:36.12	21.59	4.79	-37.4	-38.3	20.7	0.00e+00	0	38	0	154140672	48	5947
2026-01-02 16:30:37.13	21.60	4.87	-37.5	-38.4	20.4	0.00e+00	0	38	0	159383552	48	5981
2026-01-02 16:30:38.14	21.62	4.94	-37.5	-38.4	20.9	0.00e+00	0	38	0	165675008	48	5972
2026-01-02 16:30:39.15	21.64	5.01	-37.2	-38.1	21.1	0.00e+00	0	38	0	170917888	48	5787
2026-01-02 16:30:40.15	21.65	5.08	-36.9	-37.8	21.0	0.00e+00	0	38	0	177209344	48	5597
2026-01-02 16:30:41.16	21.67	5.15	-37.1	-38.0	21.1	0.00e+00	0	38	0	182452224	48	5715
2026-01-02 16:30:42.18	21.69	5.22	-37.0	-37.9	21.1	0.00e+00	0	38	0	187695104	48	5650
2026-01-02 16:30:43.18	21.70	5.29	-37.5	-38.4	20.7	0.00e+00	0	38	0	193986560	48	6002
2026-01-02 16:30:44.20	21.72	5.37	-37.3	-38.2	20.6	0.00e+00	0	38	0	199229440	48	5864
2026-01-02 16:30:45.20	21.74	5.44	-37.5	-38.4	21.0	0.00e+00	0	38	0	205520896	48	6009
2026-01-02 16:30:46.21	21.76	5.51	-37.1	-37.9	21.1	0.00e+00	0	38	0	210763776	48	5672
2026-01-02 16:30:47.22	21.77	5.58	-37.3	-38.2	20.8	0.00e+00	0	38	0	217055232	48	5865
2026-01-02 16:30:48.23	21.79	5.66	-37.4	-38.2	20.9	0.00e+00	0	38	0	222298112	48	5879
2026-01-02 16:30:49.24	21.81	5.73	-37.1	-37.9	21.0	0.00e+00	0	38	0	228589568	48	5675
2026-01-02 16:30:50.25	21.83	5.80	-37.4	-38.3	20.8	0.00e+00	0	38	0	233832448	48	5940
2026-01-02 16:30:51.26	21.84	5.88	-37.3	-38.1	20.9	0.00e+00	0	38	0	239075328	48	5815
2026-01-02 16:30:52.27	21.86	5.95	-37.3	-38.1	21.2	0.00e+00	0	38	0	245366784	48	5810
2026-01-02 16:30:53.28	21.88	6.03	-36.9	-37.7	21.6	0.00e+00	0	38	0	250609664	46	6238
2026-01-02 16:30:54.29	21.90	6.10	-36.8	-37.6	21.8	0.00e+00	0	38	0	256901120	46	6161
2026-01-02 16:30:55.30	21.92	6.17	-36.5	-37.3	21.7	0.00e+00	0	38	0	262144000	46	5942
2026-01-02 16:30:56.31	21.93	6.25	-36.7	-37.5	21.9	0.00e+00	0	38	0	267386880	46	6094
2026-01-02 16:30:57.32	21.95	6.32	-36.5	-37.3	21.8	0.00e+00	0	38	0	273678336	46	5957
2026-01-02 16:30:58.33	21.97	6.40	-36.5	-37.3	22.0	0.00e+00	0	38	0	278921216	46	5929
2026-01-02 16:30:59.34	21.99	6.48	-36.4	-37.2	22.0	0.00e+00	0	38	0	284164096	46	5860
2026-01-02 16:31:00.35	22.01	6.55	-36.4	-37.2	22.2	0.00e+00	0	38	0	290455552	46	5844
2026-01-02 16:31:01.36	22.02	6.63	-36.1	-36.9	22.3	0.00e+00	0	38	0	295698432	46	5652
2026-01-02 16:31:02.37	22.04	6.70	-36.3	-37.0	22.3	0.00e+00	0	38	0	301989888	46	5754
2026-01-02 16:31:03.38	22.06	6.78	-36.0	-36.7	22.6	0.00e+00	0	38	0	307232768	46	5559
2026-01-02 16:31:04.39	22.08	6.86	-36.0	-36.7	22.5	0.00e+00	0	38	0	313524224	46	5562
2026-01-02 16:31:05.39	22.10	6.93	-35.6	-36.4	22.9	0.00e+00	0	38	0	318767104	44	6006
2026-01-02 16:31:06.41	22.12	7.01	-35.5	-36.2	23.0	0.00e+00	0	38	0	325058560	44	5876
2026-01-02 16:31:07.41	22.14	7.09	-35.8	-36.5	22.9	0.00e+00	0	38	0	330301440	44	6092
2026-01-02 16:31:08.43	22.16	7.16	-35.4	-36.2	23.1	0.00e+00	0	38	0	335544320	44	5849
2026-01-02 16:31:09.44	22.17	7.24	-35.7	-36.4	22.8	0.00e+00	0	38	0	341835776	44	6005
2026-01-02 16:31:10.44	22.19	7.32	-35.6	-36.3	23.0	0.00e+00	0	38	0	347078656	44	5947
2026-01-02 16:31:11.45	22.21	7.40	-35.7	-36.5	22.8	0.00e+00	0	38	0	353370112	44	6036
2026-01-02 16:31:12.46	22.23	7.48	-35.5	-36.2	23.0	0.00e+00	0	38	0	358612992	44	5881
2026-01-02 16:31:13.47	22.25	7.55	-35.5	-36.2	23.0	0.00e+00	0	38	0	363855872	44	5889
2026-01-02 16:31:14.48	22.27	7.63	-35.5	-36.2	23.1	0.00e+00	0	38	0	370147328	44	5851
2026-01-02 16:31:15.49	22.29	7.71	-35.3	-36.1	23.3	0.00e+00	0	38	0	375390208	44	5763
2026-01-02 16:31:16.50	22.31	7.79	-35.4	-36.2	23.1	0.00e+00	0	38	0	381681664	44	5847
2026-01-02 16:31:17.51	22.33	7.87	-35.1	-35.8	23.4	0.00e+00	0	38	0	386924544	44	5628
2026-01-02 16:31:18.52	22.35	7.95	-35.2	-36.0	23.3	0.00e+00	0	38	0	392167424	44	5715
2026-01-02 16:31:19.53	22.37	8.03	-35.4	-36.2	23.2	0.00e+00	0	38	0	398458880	44	5832
2026-01-02 16:31:20.54	22.39	8.11	-35.2	-35.9	23.3	0.00e+00	0	38	0	403701760	44	5681
2026-01-02 16:31:21.55	22.41	8.19	-35.2	-36.0	23.3	0.00e+00	0	38	0	409993216	44	5720
2026-01-02 16:31:22.56	22.43	8.27	-35.2	-35.9	23.4	0.00e+00	0	38	0	415236096	44	5660
2026-01-02 16:31:23.57	22.45	8.35	-35.2	-36.0	23.4	0.00e+00	0	38	0	421527552	44	5715
2026-01-02 16:31:24.58	22.47	8.44	-35.2	-35.9	23.4	0.00e+00	0	38	0	426770432	44	5659
2026-01-02 16:31:25.59	22.49	8.52	-35.1	-35.8	23.4	0.00e+00	0	38	0	432013312	44	5619
2026-01-02 16:31:26.60	22.51	8.60	-35.2	-35.9	23.4	0.00e+00	0	38	0	438304768	44	5674
2026-01-02 16:31:27.61	22.53	8.68	-35.0	-35.7	23.6	0.00e+00	0	38	0	443547648	44	5564
2026-01-02 16:31:28.62	22.55	8.76	-35.1	-35.8	23.5	0.00e+00	0	38	0	449839104	44	5612
2026-01-02 16:31:29.63	22.57	8.85	-35.0	-35.7	23.6	0.00e+00	0	38	0	455081984	44	5515
2026-01-02 16:31:30.64	22.59	8.93	-35.1	-35.9	23.5	0.00e+00	0	38	0	460324864	44	5639
2026-01-02 16:31:31.65	22.61	9.01	-34.8	-35.5	23.9	0.00e+00	0	38	0	466616320	42	6053
2026-01-02 16:31:32.66	22.63	9.10	-35.1	-35.8	23.6	0.00e+00	0	38	0	471859200	42	6267
2026-01-02 16:31:33.67	22.65	9.18	-34.9	-35.6	23.8	0.00e+00	0	38	0	478150656	42	6121
2026-01-02 16:31:34.68	22.68	9.26	-34.9	-35.7	23.7	0.00e+00	0	38	0	483393536	42	6194
2026-01-02 16:31:35.69	22.70	9.35	-34.8	-35.5	23.9	0.00e+00	0	38	0	488636416	42	6080
2026-01-02 16:31:36.70	22.72	9.43	-34.7	-35.4	23.9	0.00e+00	0	38	0	494927872	42	6022
2026-01-02 16:31:37.71	22.74	9.52	-34.7	-35.4	24.0	0.00e+00	0	38	0	500170752	42	6029
2026-01-02 16:31:38.71	22.76	9.60	-34.8	-35.5	24.0	0.00e+00	0	38	0	506462208	42	6044
2026-01-02 16:31:39.72	22.78	9.69	-34.8	-35.5	23.9	0.00e+00	0	38	0	511705088	42	6067
2026-01-02 16:31:40.73	22.80	9.77	-34.9	-35.6	23.9	0.00e+00	0	38	0	517996544	42	6114
2026-01-02 16:31:41.74	22.83	9.86	-34.7	-35.4	23.8	0.00e+00	0	38	0	523239424	42	6029
2026-01-02 16:31:42.75	22.85	9.95	-34.7	-35.4	24.0	0.00e+00	0	38	0	529530880	42	6004
2026-01-02 16:31:43.75	22.87	10.03	-34.7	-35.4	24.0	0.00e+00	0	38	0	534773760	42	6002
2026-01-02 16:31:44.76	22.89	10.12	-34.9	-35.6	23.9	0.00e+00	0	38	0	540016640	42	6143
2026-01-02 16:31:45.77	22.91	10.21	-34.6	-35.3	24.1	0.00e+00	0	38	0	546308096	42	5915
2026-01-02 16:31:46.78	22.94	10.29	-34.7	-35.4	24.1	0.00e+00	0	38	0	551550976	42	5975
2026-01-02 16:31:47.79	22.96	10.38	-34.6	-35.3	24.1	0.00e+00	0	38	0	556793856	42	5924
2026-01-02 16:31:48.80	22.98	10.47	-34.7	-35.4	24.1	0.00e+00	0	38	0	563085312	42	5975
2026-01-02 16:31:49.81	23.00	10.56	-34.7	-35.5	24.1	0.00e+00	0	38	0	568328192	42	6035
2026-01-02 16:31:50.82	23.03	10.65	-34.6	-35.4	24.1	0.00e+00	0	38	0	574619648	42	5987
2026-01-02 16:31:51.83	23.05	10.74	-34.6	-35.4	24.0	0.00e+00	0	38	0	579862528	42	5977
2026-01-02 16:31:52.84	23.07	10.83	-34.7	-35.4	24.0	0.00e+00	0	38	0	585105408	42	5996
2026-01-02 16:31:53.85	23.10	10.92	-34.7	-35.4	24.1	0.00e+00	0	39	0	591396864	42	6019
2026-01-02 16:31:54.86	23.12	11.01	-34.7	-35.4	24.2	0.00e+00	0	38	0	596639744	42	5981
2026-01-02 16:31:55.87	23.14	11.10	-34.8	-35.5	24.1	0.00e+00	0	38	0	602931200	42	6073
2026-01-02 16:31:56.88	23.17	11.19	-34.8	-35.5	24.1	0.00e+00	0	38	0	608174080	42	6041
2026-01-02 16:31:57.89	23.19	11.28	-34.7	-35.5	24.1	0.00e+00	0	39	0	614465536	42	6050
2026-01-02 16:31:58.90	23.21	11.37	-34.8	-35.5	24.0	0.00e+00	0	39	0	619708416	42	6088
2026-01-02 16:31:59.91	23.24	11.46	-34.7	-35.4	24.2	0.00e+00	0	38	0	625999872	42	5980
2026-01-02 16:32:00.92	23.26	11.55	-34.7	-35.5	24.0	0.00e+00	0	39	0	631242752	42	6052
2026-01-02 16:32:01.93	23.28	11.65	-35.0	-35.8	23.9	0.00e+00	0	38	0	636485632	42	6264
2026-01-02 16:32:02.94	23.31	11.74	-35.0	-35.7	23.8	0.00e+00	0	38	0	642777088	42	6237
2026-01-02 16:32:03.95	23.33	11.83	-34.7	-35.5	24.0	0.00e+00	0	38	0	648019968	42	6043
2026-01-02 16:32:04.96	23.36	11.93	-34.7	-35.4	24.1	0.00e+00	0	38	0	654311424	42	6011
2026-01-02 16:32:05.97	23.38	12.02	-34.8	-35.6	24.0	0.00e+00	0	39	0	659554304	42	6115
2026-01-02 16:32:06.98	23.41	12.12	-35.0	-35.7	23.8	0.00e+00	0	38	0	664797184	42	6201
2026-01-02 16:32:07.99	23.43	12.21	-34.8	-35.6	24.0	0.00e+00	0	38	0	671088640	42	6107
2026-01-02 16:32:09.00	23.46	12.31	-34.9	-35.6	23.9	0.00e+00	0	39	0	676331520	42	6139
2026-01-02 16:32:10.01	23.48	12.40	-34.7	-35.5	24.2	0.00e+00	0	38	0	682622976	42	6047
2026-01-02 16:32:11.02	23.51	12.50	-34.6	-35.3	24.3	0.00e+00	0	38	0	687865856	42	5948
2026-01-02 16:32:12.03	23.53	12.59	-34.6	-35.3	24.3	0.00e+00	0	38	0	693108736	42	5911
2026-01-02 16:32:13.04	23.56	12.69	-34.6	-35.3	24.2	0.00e+00	0	39	0	699400192	42	5964
2026-01-02 16:32:14.05	23.58	12.79	-34.5	-35.2	24.4	0.00e+00	0	38	0	704643072	42	5838
2026-01-02 16:32:15.06	23.61	12.88	-34.6	-35.3	24.3	0.00e+00	0	38	0	710934528	42	5919
2026-01-02 16:32:16.07	23.64	12.98	-34.7	-35.4	24.2	0.00e+00	0	38	0	716177408	42	5990
2026-01-02 16:32:17.08	23.66	13.08	-34.3	-35.1	24.6	0.00e+00	0	39	0	722468864	42	5769
2026-01-02 16:32:18.09	23.69	13.18	-34.4	-35.1	24.5	0.00e+00	0	38	0	727711744	42	5823
2026-01-02 16:32:19.10	23.71	13.28	-34.2	-34.9	24.5	0.00e+00	0	39	0	734003200	42	5692
2026-01-02 16:32:20.11	23.74	13.38	-34.2	-34.9	24.6	0.00e+00	0	38	0	739246080	42	5691
2026-01-02 16:32:21.12	23.77	13.48	-34.1	-34.8	24.7	0.00e+00	0	38	0	744488960	42	5620
2026-01-02 16:32:22.13	23.79	13.58	-34.1	-34.8	24.8	0.00e+00	0	38	0	750780416	42	5567
2026-01-02 16:32:23.13	23.82	13.68	-34.1	-34.8	24.8	0.00e+00	0	38	0	756023296	42	5569
2026-01-02 16:32:24.14	23.85	13.78	-34.1	-34.8	24.9	0.00e+00	0	38	0	762314752	42	5567
2026-01-02 16:32:25.15	23.87	13.88	-34.0	-34.7	24.9	0.00e+00	0	38	0	767557632	42	5541
2026-01-02 16:32:26.16	23.90	13.98	-33.9	-34.5	25.0	0.00e+00	0	38	0	772800512	42	5430
2026-01-02 16:32:27.17	23.93	14.08	-33.9	-34.6	25.0	0.00e+00	0	38	0	779091968	42	5479
2026-01-02 16:32:28.18	23.96	14.18	-33.9	-34.6	25.1	0.00e+00	0	39	0	784334848	42	5448
2026-01-02 16:32:29.19	23.99	14.29	-33.8	-34.4	25.1	0.00e+00	0	38	0	789577728	40	6022
2026-01-02 16:32:30.20	24.01	14.39	-33.7	-34.4	25.0	0.00e+00	0	38	0	795869184	40	6021
2026-01-02 16:32:31.21	24.04	14.50	-33.9	-34.6	25.0	0.00e+00	0	39	0	801112064	40	6112
2026-01-02 16:32:32.22	24.07	14.60	-33.5	-34.2	25.3	0.00e+00	0	38	0	807403520	40	5871
2026-01-02 16:32:33.23	24.10	14.70	-33.6	-34.3	25.3	0.00e+00	0	38	0	812646400	40	5925
2026-01-02 16:32:34.24	24.13	14.81	-33.4	-34.1	25.4	0.00e+00	0	38	0	818937856	40	5780
2026-01-02 16:32:35.25	24.16	14.92	-33.5	-34.2	25.3	0.00e+00	0	38	0	824180736	40	5842
2026-01-02 16:32:36.26	24.19	15.02	-33.3	-34.0	25.5	0.00e+00	0	39	0	830472192	40	5715
2026-01-02 16:32:37.27	24.21	15.13	-33.5	-34.1	25.5	0.00e+00	0	38	0	835715072	40	5802
2026-01-02 16:32:38.28	24.24	15.24	-33.2	-33.9	25.6	0.00e+00	0	39	0	840957952	40	5642
2026-01-02 16:32:39.29	24.27	15.34	-33.3	-33.9	25.7	0.00e+00	0	39	0	847249408	40	5679
2026-01-02 16:32:40.30	24.30	15.45	-33.2	-33.8	25.7	0.00e+00	0	39	0	852492288	40	5618
2026-01-02 16:32:41.31	24.33	15.56	-33.1	-33.8	25.7	0.00e+00	0	38	0	858783744	40	5608
2026-01-02 16:32:42.32	24.36	15.67	-33.0	-33.7	25.9	0.00e+00	0	38	0	864026624	40	5511
2026-01-02 16:32:43.33	24.39	15.78	-33.1	-33.8	25.8	0.00e+00	0	39	0	869269504	40	5573
2026-01-02 16:32:44.34	24.42	15.89	-33.1	-33.8	25.8	0.00e+00	0	38	0	875560960	40	5585
2026-01-02 16:32:45.34	24.45	16.00	-32.9	-33.5	25.9	0.00e+00	0	38	0	880803840	40	5423
2026-01-02 16:32:46.35	24.49	16.11	-32.9	-33.5	26.1	0.00e+00	0	38	0	887095296	40	5431
2026-01-02 16:32:47.36	24.52	16.22	-32.8	-33.5	26.0	0.00e+00	0	38	0	892338176	40	5383
2026-01-02 16:32:48.37	24.55	16.33	-32.7	-33.4	26.1	0.00e+00	0	38	0	897581056	40	5323
2026-01-02 16:32:49.38	24.58	16.44	-32.7	-33.3	26.1	0.00e+00	0	39	0	903872512	38	5963
2026-01-02 16:32:50.39	24.61	16.56	-32.7	-33.4	26.1	0.00e+00	0	39	0	909115392	38	5967
2026-01-02 16:32:51.40	24.64	16.67	-32.7	-33.4	26.2	0.00e+00	0	38	0	915406848	38	5976
2026-01-02 16:32:52.41	24.68	16.79	-32.7	-33.4	26.1	0.00e+00	0	38	0	920649728	38	6002
2026-01-02 16:32:53.42	24.71	16.90	-32.9	-33.6	26.0	0.00e+00	0	38	0	926941184	38	6104
2026-01-02 16:32:54.43	24.74	17.01	-32.8	-33.5	26.0	0.00e+00	0	39	0	932184064	38	6044
2026-01-02 16:32:55.44	24.77	17.13	-32.6	-33.3	26.2	0.00e+00	0	39	0	937426944	38	5906
2026-01-02 16:32:56.45	24.81	17.25	-32.6	-33.2	26.3	0.00e+00	0	39	0	943718400	38	5872
2026-01-02 16:32:57.46	24.84	17.36	-32.7	-33.4	26.2	0.00e+00	0	39	0	948961280	38	5997
2026-01-02 16:32:58.47	24.87	17.48	-32.7	-33.3	26.2	0.00e+00	0	39	0	955252736	38	5932
2026-01-02 16:32:59.48	24.91	17.60	-32.7	-33.3	26.3	0.00e+00	0	39	0	960495616	38	5935
2026-01-02 16:33:00.49	24.94	17.72	-32.6	-33.2	26.4	0.00e+00	0	39	0	965738496	38	5867
2026-01-02 16:33:01.50	24.97	17.84	-32.6	-33.2	26.3	0.00e+00	0	39	0	972029952	38	5896
2026-01-02 16:33:02.51	25.01	17.96	-32.5	-33.1	26.4	0.00e+00	0	39	0	977272832	38	5784
2026-01-02 16:33:03.52	25.04	18.08	-32.7	-33.3	26.3	0.00e+00	0	39	0	983564288	38	5915
2026-01-02 16:33:04.53	25.08	18.20	-32.5	-33.2	26.4	0.00e+00	0	39	0	988807168	38	5838
2026-01-02 16:33:05.54	25.11	18.32	-32.8	-33.4	26.1	0.00e+00	0	38	0	994050048	38	5990
2026-01-02 16:33:06.55	25.15	18.44	-32.6	-33.2	26.3	0.00e+00	0	38	0	1000341504	38	5888
2026-01-02 16:33:07.56	25.18	18.56	-32.6	-33.3	26.3	0.00e+00	0	39	0	1005584384	38	5899
2026-01-02 16:33:08.57	25.22	18.69	-32.5	-33.2	26.4	0.00e+00	0	39	0	1011875840	38	5840
2026-01-02 16:33:09.58	25.26	18.81	-32.6	-33.2	26.3	0.00e+00	0	38	0	1017118720	38	5869
2026-01-02 16:33:10.59	25.29	18.93	-32.7	-33.3	26.3	0.00e+00	0	38	0	1023410176	38	5941
2026-01-02 16:33:11.60	25.33	19.06	-32.7	-33.3	26.3	0.00e+00	0	38	0	1028653056	38	5947
2026-01-02 16:33:12.61	25.37	19.18	-32.6	-33.3	26.4	0.00e+00	0	39	0	1034944512	38	5919
2026-01-02 16:33:13.62	25.40	19.31	-32.6	-33.2	26.4	0.00e+00	0	39	0	1040187392	38	5868
2026-01-02 16:33:14.63	25.44	19.44	-32.6	-33.2	26.4	0.00e+00	0	39	0	1045430272	38	5861
2026-01-02 16:33:15.64	25.48	19.57	-32.4	-33.1	26.5	0.00e+00	0	39	0	1051721728	38	5785
2026-01-02 16:33:16.65	25.52	19.69	-32.5	-33.1	26.5	0.00e+00	0	39	0	1056964608	38	5782
2026-01-02 16:33:17.66	25.55	19.82	-32.3	-33.0	26.5	0.00e+00	0	38	0	1063256064	38	5717
2026-01-02 16:33:18.67	25.59	19.95	-32.2	-32.8	26.7	0.00e+00	0	38	0	1068498944	38	5618
2026-01-02 16:33:19.67	25.63	20.08	-32.1	-32.7	26.7	0.00e+00	0	39	0	1073741824	38	5544
2026-01-02 16:33:20.68	25.67	20.21	-32.0	-32.6	26.8	0.00e+00	0	39	0	1080033280	38	5464
2026-01-02 16:33:21.69	25.71	20.34	-31.9	-32.5	27.0	0.00e+00	0	38	0	1085276160	38	5427
2026-01-02 16:33:22.70	25.75	20.48	-31.9	-32.5	27.0	0.00e+00	0	39	0	1091567616	38	5380
2026-01-02 16:33:23.71	25.79	20.61	-31.9	-32.5	27.0	0.00e+00	0	38	0	1096810496	38	5425
2026-01-02 16:33:24.72	25.83	20.74	-31.9	-32.5	27.0	0.00e+00	0	39	0	1102053376	38	5384
2026-01-02 16:33:25.73	25.87	20.88	-31.9	-32.6	27.0	0.00e+00	0	39	0	1108344832	38	5441
2026-01-02 16:33:26.74	25.91	21.01	-32.0	-32.6	26.8	0.00e+00	0	39	0	1113587712	38	5475
2026-01-02 16:33:27.75	25.95	21.15	-31.9	-32.5	27.0	0.00e+00	0	39	0	1119879168	38	5400
2026-01-02 16:33:28.76	26.00	21.28	-32.0	-32.6	26.9	0.00e+00	0	39	0	1125122048	38	5501
2026-01-02 16:33:29.77	26.04	21.42	-31.8	-32.4	27.1	0.00e+00	0	39	0	1131413504	38	5347
2026-01-02 16:33:30.78	26.08	21.56	-31.9	-32.5	26.9	0.00e+00	0	38	0	1136656384	38	5419
2026-01-02 16:33:31.79	26.12	21.70	-31.9	-32.6	26.9	0.00e+00	0	38	0	1141899264	38	5444
2026-01-02 16:33:32.80	26.17	21.84	-31.9	-32.5	26.9	0.00e+00	0	39	0	1148190720	38	5430
2026-01-02 16:33:33.81	26.21	21.98	-31.9	-32.5	26.9	0.00e+00	0	39	0	1153433600	38	5427
2026-01-02 16:33:34.82	26.25	22.12	-31.9	-32.5	26.9	0.00e+00	0	39	0	1159725056	38	5439
2026-01-02 16:33:35.83	26.30	22.26	-32.0	-32.6	26.9	0.00e+00	0	39	0	1164967936	38	5490
2026-01-02 16:33:36.83	26.34	22.40	-31.9	-32.5	27.0	0.00e+00	0	39	0	1170210816	38	5408
2026-01-02 16:33:37.84	26.39	22.54	-31.9	-32.6	26.9	0.00e+00	0	39	0	1176502272	38	5444
2026-01-02 16:33:38.85	26.43	22.69	-31.8	-32.4	25.9	0.00e+00	0	39	0	1181745152	38	5340
2026-01-02 16:33:39.86	26.48	22.83	-31.9	-32.5	27.0	0.00e+00	0	39	0	1188036608	36	6093
2026-01-02 16:33:40.87	26.52	22.98	-31.7	-32.3	27.1	0.00e+00	0	39	0	1193279488	36	5952
2026-01-02 16:33:41.88	26.57	23.13	-31.6	-32.2	27.2	0.00e+00	0	39	0	1198522368	36	5894
2026-01-02 16:33:42.89	26.61	23.27	-31.6	-32.2	27.3	0.00e+00	0	39	0	1204813824	36	5872
2026-01-02 16:33:43.90	26.66	23.42	-31.6	-32.3	27.2	0.00e+00	0	39	0	1210056704	36	5908
2026-01-02 16:33:44.91	26.71	23.57	-31.6	-32.2	27.2	0.00e+00	0	39	0	1216348160	36	5860
2026-01-02 16:33:45.92	26.76	23.72	-31.5	-32.1	27.4	0.00e+00	0	39	0	1221591040	36	5799
2026-01-02 16:33:46.93	26.81	23.87	-31.4	-32.1	27.3	0.00e+00	0	39	0	1227882496	36	5764
2026-01-02 16:33:47.94	26.85	24.02	-31.4	-32.0	27.4	0.00e+00	0	39	0	1233125376	36	5736
2026-01-02 16:33:48.95	26.90	24.17	-31.4	-32.1	27.3	0.00e+00	0	39	0	1239416832	36	5766
2026-01-02 16:33:49.96	26.95	24.33	-31.3	-31.9	27.5	0.00e+00	0	39	0	1244659712	36	5668
2026-01-02 16:33:50.97	27.00	24.48	-31.3	-31.9	27.5	0.00e+00	0	39	0	1249902592	36	5681
2026-01-02 16:33:51.98	27.05	24.64	-31.3	-31.9	27.5	0.00e+00	0	39	0	1256194048	36	5691
2026-01-02 16:33:52.99	27.11	24.79	-31.4	-32.0	27.5	0.00e+00	0	39	0	1261436928	36	5724
2026-01-02 16:33:53.99	27.16	24.95	-31.3	-32.0	27.5	0.00e+00	0	39	0	1267728384	36	5706
2026-01-02 16:33:55.00	27.21	25.11	-31.3	-31.9	27.5	0.00e+00	0	39	0	1272971264	36	5679
2026-01-02 16:33:56.01	27.26	25.26	-31.3	-31.9	27.6	0.00e+00	0	39	0	1278214144	36	5636
2026-01-02 16:33:57.02	27.31	25.42	-31.3	-31.9	27.6	0.00e+00	0	39	0	1284505600	36	5632
2026-01-02 16:33:58.03	27.37	25.59	-31.2	-31.8	27.6	0.00e+00	0	39	0	1289748480	36	5596
2026-01-02 16:33:59.04	27.42	25.75	-31.2	-31.8	27.5	0.00e+00	0	39	0	1294991360	36	5615
2026-01-02 16:34:00.05	27.48	25.91	-31.1	-31.7	27.6	0.00e+00	0	39	0	1301282816	36	5565
2026-01-02 16:34:01.06	27.53	26.07	-31.1	-31.7	27.6	0.00e+00	0	39	0	1306525696	36	5529
2026-01-02 16:34:02.07	27.59	26.24	-31.1	-31.7	27.7	0.00e+00	0	39	0	1312817152	36	5536
2026-01-02 16:34:03.08	27.64	26.40	-31.2	-31.8	27.7	0.00e+00	0	39	0	1318060032	36	5569
2026-01-02 16:34:04.09	27.70	26.57	-31.2	-31.8	27.6	0.00e+00	0	39	0	1324351488	36	5615
2026-01-02 16:34:05.10	27.76	26.74	-31.2	-31.8	27.7	0.00e+00	0	39	0	1329594368	36	5583
2026-01-02 16:34:06.11	27.81	26.91	-31.2	-31.8	27.6	0.00e+00	0	39	0	1335885824	36	5620
2026-01-02 16:34:07.12	27.87	27.08	-31.4	-32.0	27.5	0.00e+00	0	39	0	1341128704	36	5724
2026-01-02 16:34:08.13	27.93	27.25	-31.4	-32.0	27.5	0.00e+00	0	39	0	1346371584	36	5737
2026-01-02 16:34:09.14	27.99	27.42	-31.4	-32.0	27.5	0.00e+00	0	39	0	1352663040	36	5759
2026-01-02 16:34:10.15	28.05	27.59	-31.2	-31.8	27.7	0.00e+00	0	39	0	1357905920	36	5587
2026-01-02 16:34:11.16	28.11	27.76	-31.2	-31.8	27.6	0.00e+00	0	39	0	1364197376	36	5622
2026-01-02 16:34:12.17	28.17	27.94	-31.2	-31.8	27.7	0.00e+00	0	39	0	1369440256	36	5582
2026-01-02 16:34:13.18	28.23	28.12	-31.1	-31.7	27.7	0.00e+00	0	39	0	1374683136	36	5539
2026-01-02 16:34:14.19	28.30	28.29	-31.2	-31.7	27.7	0.00e+00	0	39	0	1380974592	36	5559
2026-01-02 16:34:15.20	28.36	28.47	-30.9	-31.6	27.8	0.00e+00	0	39	0	1386217472	36	5443
2026-01-02 16:34:16.20	28.42	28.65	-31.0	-31.7	27.7	0.00e+00	0	39	0	1392508928	36	5505
2026-01-02 16:34:17.21	28.49	28.83	-30.9	-31.5	27.9	0.00e+00	0	39	0	1397751808	36	5411
2026-01-02 16:34:18.22	28.55	29.01	-30.8	-31.4	27.9	0.00e+00	0	39	0	1402994688	36	5349
2026-01-02 16:34:19.23	28.62	29.19	-30.9	-31.5	27.8	0.00e+00	0	39	0	1409286144	36	5387
2026-01-02 16:34:20.24	28.68	29.38	-31.1	-31.7	27.8	0.00e+00	0	39	0	1414529024	36	5504
2026-01-02 16:34:21.25	28.75	29.56	-31.0	-31.7	27.8	0.00e+00	0	39	0	1420820480	36	5503
2026-01-02 16:34:22.26	28.82	29.75	-31.1	-31.7	27.8	0.00e+00	0	39	0	1426063360	36	5519
2026-01-02 16:34:23.27	28.89	29.94	-31.3	-31.9	27.5	0.00e+00	0	39	0	1432354816	36	5633
2026-01-02 16:34:24.28	28.96	30.12	-31.0	-31.6	27.8	0.00e+00	0	39	0	1437597696	36	5481
2026-01-02 16:34:25.29	29.03	30.31	-30.9	-31.6	27.8	0.00e+00	0	39	0	1442840576	36	5451
2026-01-02 16:34:26.30	29.10	30.50	-30.8	-31.4	28.0	0.00e+00	0	39	0	1449132032	36	5360
2026-01-02 16:34:27.31	29.17	30.70	-30.7	-31.3	28.1	0.00e+00	0	39	0	1454374912	36	5294
2026-01-02 16:34:28.32	29.24	30.89	-30.8	-31.4	27.9	0.00e+00	0	39	0	1460666368	34	6014
2026-01-02 16:34:29.33	29.32	31.09	-30.8	-31.3	28.0	0.00e+00	0	39	0	1465909248	34	5962
2026-01-02 16:34:30.34	29.39	31.28	-30.8	-31.4	28.0	0.00e+00	0	39	0	1471152128	34	5997
2026-01-02 16:34:31.35	29.47	31.48	-30.9	-31.6	27.9	0.00e+00	0	39	0	1477443584	34	6117
2026-01-02 16:34:32.36	29.54	31.68	-30.9	-31.5	27.8	0.00e+00	0	39	0	1482686464	34	6084
2026-01-02 16:34:33.37	29.62	31.88	-31.0	-31.6	27.9	0.00e+00	0	39	0	1488977920	34	6118
2026-01-02 16:34:34.38	29.70	32.08	-31.0	-31.6	27.9	0.00e+00	0	39	0	1494220800	34	6108
2026-01-02 16:34:35.39	29.78	32.28	-30.9	-31.5	27.8	0.00e+00	0	39	0	1499463680	34	6060
2026-01-02 16:34:36.39	29.86	32.48	-30.9	-31.5	27.9	0.00e+00	0	39	0	1505755136	34	6067
2026-01-02 16:34:37.41	29.94	32.69	-30.8	-31.5	27.9	0.00e+00	0	39	0	1510998016	34	6037
2026-01-02 16:34:38.41	30.02	32.90	-30.7	-31.3	28.1	0.00e+00	0	39	0	1517289472	34	5921
2026-01-02 16:34:39.42	30.10	33.10	-30.7	-31.3	28.0	0.00e+00	0	39	0	1522532352	34	5950
2026-01-02 16:34:40.43	30.18	33.31	-30.8	-31.4	28.0	0.00e+00	0	39	0	1528823808	34	5985
2026-01-02 16:34:41.45	30.27	33.53	-30.8	-31.4	27.9	0.00e+00	0	39	0	1534066688	34	5992
2026-01-02 16:34:42.46	30.35	33.74	-30.8	-31.4	28.0	0.00e+00	0	39	0	1540358144	34	5992
2026-01-02 16:34:43.47	30.44	33.95	-30.7	-31.3	28.1	0.00e+00	0	39	0	1545601024	34	5958
2026-01-02 16:34:44.48	30.53	34.17	-30.6	-31.3	28.1	0.00e+00	0	39	0	1550843904	34	5902
2026-01-02 16:34:45.48	30.62	34.38	-30.6	-31.2	28.1	0.00e+00	0	39	0	1557135360	34	5893
2026-01-02 16:34:46.49	30.71	34.60	-30.6	-31.2	28.1	0.00e+00	0	39	0	1562378240	34	5863
2026-01-02 16:34:47.50	30.80	34.82	-30.6	-31.2	28.1	0.00e+00	0	39	0	1568669696	34	5829
2026-01-02 16:34:48.51	30.89	35.04	-30.6	-31.2	28.0	0.00e+00	0	39	0	1573912576	34	5870
2026-01-02 16:34:49.52	30.99	35.26	-30.7	-31.3	28.0	0.00e+00	0	39	0	1579155456	34	5947
2026-01-02 16:34:50.53	31.08	35.48	-30.7	-31.3	28.0	0.00e+00	0	39	0	1585446912	34	5924
2026-01-02 16:34:51.54	31.18	35.71	-30.6	-31.2	28.1	0.00e+00	0	39	0	1590689792	34	5845
2026-01-02 16:34:52.55	31.27	35.94	-30.7	-31.3	28.1	0.00e+00	0	39	0	1596981248	34	5912
2026-01-02 16:34:53.56	31.37	36.17	-30.5	-31.1	28.2	0.00e+00	0	39	0	1602224128	34	5821
2026-01-02 16:34:54.57	31.47	36.40	-30.3	-30.9	28.4	0.00e+00	0	39	0	1607467008	34	5643
2026-01-02 16:34:55.58	31.57	36.63	-30.1	-30.7	28.3	0.00e+00	0	39	0	1613758464	34	5551
2026-01-02 16:34:56.59	31.68	36.86	-30.1	-30.7	28.5	0.00e+00	0	39	0	1619001344	34	5511
2026-01-02 16:34:57.60	31.78	37.09	-30.2	-30.8	28.4	0.00e+00	0	39	0	1625292800	34	5599
2026-01-02 16:34:58.61	31.89	37.33	-30.3	-30.9	28.4	0.00e+00	0	39	0	1630535680	34	5691
2026-01-02 16:34:59.62	31.99	37.57	-30.4	-31.0	28.3	0.00e+00	0	39	0	1636827136	34	5713
2026-01-02 16:35:00.63	32.10	37.81	-30.3	-30.9	28.4	0.00e+00	0	39	0	1642070016	34	5660
2026-01-02 16:35:01.63	32.21	38.05	-30.2	-30.8	28.5	0.00e+00	0	39	0	1647312896	34	5567
2026-01-02 16:35:02.64	32.32	38.29	-30.1	-30.7	28.6	0.00e+00	0	39	0	1653604352	34	5506
2026-01-02 16:35:03.65	32.44	38.53	-30.1	-30.7	28.5	0.00e+00	0	39	0	1658847232	34	5553
2026-01-02 16:35:04.66	32.55	38.78	-30.3	-30.9	28.4	0.00e+00	0	39	0	1665138688	34	5661
2026-01-02 16:35:05.67	32.67	39.03	-30.3	-30.9	28.5	0.00e+00	0	39	0	1670381568	34	5631
2026-01-02 16:35:06.68	32.79	39.28	-30.3	-31.0	28.3	0.00e+00	0	39	0	1675624448	34	5697
2026-01-02 16:35:07.69	32.91	39.53	-30.4	-31.0	28.2	0.00e+00	0	39	0	1681915904	34	5712
2026-01-02 16:35:08.70	33.03	39.78	-30.5	-31.1	28.2	0.00e+00	0	39	0	1687158784	34	5789
2026-01-02 16:35:09.71	33.15	40.03	-30.5	-31.1	28.2	0.00e+00	0	39	0	1693450240	34	5790
2026-01-02 16:35:10.75	33.28	40.30	-30.6	-31.2	28.2	0.00e+00	0	39	0	1698693120	34	5834
2026-01-02 16:35:11.63	33.40	40.52	-30.4	-31.0	28.3	0.00e+00	0	39	0	1703936000	34	5699
2026-01-02 16:35:12.79	33.54	40.82	-30.4	-31.0	28.3	0.00e+00	0	39	0	1710227456	34	5720
2026-01-02 16:35:13.65	33.66	41.04	-30.4	-31.0	28.3	0.00e+00	0	39	0	1715470336	34	5703
2026-01-02 16:35:14.81	33.81	41.35	-30.4	-31.0	28.2	0.00e+00	0	39	0	1721761792	34	5724
2026-01-02 16:35:15.67	33.93	41.57	-30.7	-31.3	28.0	0.00e+00	0	39	0	1725956096	34	5945
2026-01-02 16:35:16.83	34.09	41.88	-30.9	-31.5	28.0	0.00e+00	0	39	0	1733296128	34	6100
2026-01-02 16:35:17.69	34.20	42.11	-31.0	-31.7	27.8	0.00e+00	0	39	0	1737490432	34	6204
2026-01-02 16:35:18.84	34.37	42.41	-31.1	-31.7	27.8	0.00e+00	0	39	0	1744830464	34	6203
2026-01-02 16:35:19.71	34.49	42.65	-31.3	-31.9	27.7	0.00e+00	0	39	0	1749024768	34	6367
2026-01-02 16:35:20.87	34.66	42.96	-31.0	-31.7	27.8	0.00e+00	0	39	0	1755316224	34	6176
2026-01-02 16:35:21.73	34.79	43.20	-31.0	-31.6	27.9	0.00e+00	0	39	0	1760559104	34	6132
2026-01-02 16:35:22.89	34.96	43.51	-30.9	-31.5	27.9	0.00e+00	0	39	0	1766850560	34	6072
2026-01-02 16:35:23.75	35.10	43.75	-31.0	-31.6	27.9	0.00e+00	0	39	0	1772093440	34	6152
2026-01-02 16:35:24.91	35.28	44.08	-31.1	-31.7	27.8	0.00e+00	0	39	0	1778384896	34	6222
2026-01-02 16:35:25.77	35.41	44.32	-31.0	-31.6	27.9	0.00e+00	0	39	0	1783627776	34	6113
2026-01-02 16:35:26.93	35.60	44.64	-30.8	-31.4	28.0	0.00e+00	0	39	0	1789919232	34	6004
2026-01-02 16:35:27.79	35.74	44.89	-30.8	-31.4	28.0	0.00e+00	0	39	0	1795162112	34	5980
2026-01-02 16:35:28.95	35.94	45.22	-30.9	-31.5	27.9	0.00e+00	0	39	0	1801453568	34	6069
2026-01-02 16:35:29.82	36.09	45.47	-31.1	-31.7	27.8	0.00e+00	0	39	0	1805647872	34	6200
2026-01-02 16:35:30.97	36.29	45.80	-31.3	-31.9	27.6	0.00e+00	0	39	0	1811939328	34	6384
2026-01-02 16:35:31.84	36.44	46.05	-31.4	-32.0	27.6	0.00e+00	0	39	0	1817182208	34	6401
2026-01-02 16:35:32.99	36.65	46.39	-30.8	-31.4	27.9	0.00e+00	0	39	0	1823473664	34	6011
2026-01-02 16:35:33.85	36.81	46.64	-30.8	-31.4	28.0	0.00e+00	0	39	0	1828716544	34	6017
2026-01-02 16:35:35.01	37.02	46.99	-30.8	-31.4	28.1	0.00e+00	0	39	0	1835008000	34	6003
2026-01-02 16:35:35.87	37.19	47.24	-30.9	-31.5	27.9	0.00e+00	0	39	0	1840250880	34	6076
2026-01-02 16:35:37.03	37.41	47.59	-31.1	-31.7	27.8	0.00e+00	0	39	0	1846542336	34	6213
2026-01-02 16:35:37.89	37.58	47.85	-31.0	-31.6	27.8	0.00e+00	0	39	0	1851785216	34	6149
2026-01-02 16:35:39.05	37.81	48.20	-31.1	-31.7	27.8	0.00e+00	0	39	0	1858076672	34	6192
2026-01-02 16:35:39.92	37.99	48.47	-31.1	-31.7	27.8	0.00e+00	0	39	0	1862270976	34	6239
2026-01-02 16:35:41.07	38.23	48.82	-31.2	-31.8	27.7	0.00e+00	0	39	0	1869611008	34	6271
2026-01-02 16:35:41.93	38.42	49.09	-31.1	-31.8	27.8	0.00e+00	0	39	0	1873805312	34	6265
2026-01-02 16:35:43.09	38.67	49.45	-31.1	-31.7	27.8	0.00e+00	0	39	0	1881145344	34	6187
2026-01-02 16:35:43.95	38.86	49.72	-31.1	-31.7	27.8	0.00e+00	0	39	0	1885339648	34	6235
2026-01-02 16:35:45.11	39.13	50.08	-31.1	-31.8	27.8	0.00e+00	0	39	0	1891631104	34	6252
2026-01-02 16:35:45.97	39.33	50.35	-31.1	-31.7	27.8	0.00e+00	0	39	0	1896873984	34	6236
2026-01-02 16:35:47.13	39.60	50.72	-31.2	-31.8	27.7	0.00e+00	0	39	0	1903165440	34	6279
2026-01-02 16:35:47.99	39.81	51.00	-31.4	-32.0	27.6	0.00e+00	0	39	0	1908408320	34	6448
2026-01-02 16:35:49.15	40.10	51.37	-31.6	-32.2	27.4	0.00e+00	0	39	0	1914699776	34	6571
2026-01-02 16:35:50.01	40.31	51.65	-31.6	-32.2	27.4	0.00e+00	0	39	0	1919942656	34	6584
2026-01-02 16:35:51.17	40.61	52.02	-31.6	-32.2	27.4	0.00e+00	0	39	0	1926234112	34	6551
2026-01-02 16:35:52.03	40.84	52.30	-31.6	-32.2	27.4	0.00e+00	0	39	0	1931476992	34	6565
2026-01-02 16:35:53.19	41.15	52.68	-31.8	-32.4	27.2	0.00e+00	0	39	0	1937768448	34	6753
2026-01-02 16:35:54.06	41.39	52.97	-32.0	-32.6	27.0	0.00e+00	0	39	0	1941962752	36	6150
2026-01-02 16:35:55.21	41.72	53.35	-31.8	-32.4	27.3	0.00e+00	0	39	0	1949302784	36	6009
2026-01-02 16:35:56.08	41.97	53.64	-31.6	-32.1	27.5	0.00e+00	0	39	0	1953497088	36	5809
2026-01-02 16:35:57.23	42.31	54.02	-31.8	-32.4	27.3	0.00e+00	0	39	0	1960837120	36	5977
2026-01-02 16:35:58.09	42.57	54.31	-31.9	-32.5	27.2	0.00e+00	0	39	0	1965031424	36	6068
2026-01-02 16:35:59.25	42.92	54.70	-32.0	-32.7	27.0	0.00e+00	0	39	0	1971322880	36	6200
2026-01-02 16:36:00.12	43.20	54.99	-32.2	-32.8	27.0	0.00e+00	0	39	0	1976565760	36	6298
2026-01-02 16:36:01.27	43.57	55.38	-32.1	-32.8	27.0	0.00e+00	0	39	0	1982857216	36	6263
2026-01-02 16:36:02.14	43.86	55.68	-32.0	-32.6	27.1	0.00e+00	0	39	0	1988100096	36	6129
2026-01-02 16:36:03.29	44.25	56.07	-31.7	-32.3	27.4	0.00e+00	0	39	0	1994391552	36	5918
2026-01-02 16:36:04.16	44.55	56.37	-31.6	-32.2	27.4	0.00e+00	0	39	0	1999634432	36	5861
2026-01-02 16:36:05.31	44.97	56.77	-31.9	-32.6	27.1	0.00e+00	0	39	0	2005925888	36	6113
2026-01-02 16:36:06.17	45.28	57.06	-32.2	-32.9	26.9	0.00e+00	0	39	0	2010120192	36	6332
2026-01-02 16:36:07.33	45.72	57.47	-32.1	-32.7	26.9	0.00e+00	0	39	0	2016411648	36	6245
2026-01-02 16:36:08.19	46.05	57.76	-31.9	-32.6	27.1	0.00e+00	0	39	0	2021654528	36	6108
2026-01-02 16:36:09.35	46.51	58.17	-31.4	-32.0	27.6	0.00e+00	0	39	0	2027945984	36	5746
2026-01-02 16:36:10.21	46.85	58.47	-31.1	-31.7	27.6	0.00e+00	0	39	0	2033188864	36	5526
2026-01-02 16:36:11.37	47.34	58.87	-31.6	-32.2	27.3	0.00e+00	0	39	0	2039480320	36	5861
2026-01-02 16:36:12.23	47.71	59.17	-31.6	-32.2	27.4	0.00e+00	0	39	0	2044723200	36	5883
2026-01-02 16:36:13.39	48.22	59.58	-31.1	-31.7	27.7	0.00e+00	0	39	0	2051014656	36	5547
2026-01-02 16:36:14.25	48.60	59.88	-31.1	-31.7	27.8	0.00e+00	0	39	0	2056257536	36	5563
2026-01-02 16:36:15.41	49.14	60.29	-31.2	-31.8	27.6	0.00e+00	0	39	0	2062548992	36	5610
2026-01-02 16:36:16.27	49.55	60.59	-31.0	-31.6	27.9	0.00e+00	0	39	0	2066743296	36	5463
2026-01-02 16:36:17.43	50.12	61.00	-30.5	-31.0	28.2	0.00e+00	0	39	0	2074083328	34	5758
2026-01-02 16:36:18.29	50.55	61.30	-30.5	-31.1	28.2	0.00e+00	0	39	0	2078277632	34	5805
2026-01-02 16:36:19.45	51.16	61.71	-30.5	-31.1	28.2	0.00e+00	0	39	0	2085617664	34	5778
2026-01-02 16:36:20.31	51.62	62.01	-30.3	-30.9	28.4	0.00e+00	0	39	0	2089811968	34	5648
2026-01-02 16:36:21.47	52.25	62.42	-30.5	-31.1	28.2	0.00e+00	0	39	0	2096103424	34	5806
2026-01-02 16:36:22.34	52.74	62.73	-30.7	-31.4	28.0	0.00e+00	0	39	0	2101346304	34	5991
2026-01-02 16:36:23.49	53.41	63.13	-30.6	-31.2	28.2	0.00e+00	0	39	0	2107637760	34	5840
2026-01-02 16:36:24.36	53.94	63.43	-30.2	-30.8	28.4	0.00e+00	0	39	0	2112880640	34	5592
2026-01-02 16:36:25.51	54.65	63.84	-30.4	-31.0	28.3	0.00e+00	0	39	0	2119172096	34	5751
2026-01-02 16:36:26.38	55.20	64.14	-30.4	-31.0	28.2	0.00e+00	0	39	0	2124414976	34	5748
2026-01-02 16:36:27.53	55.96	64.54	-30.2	-30.8	28.3	0.00e+00	0	39	0	2130706432	34	5596
2026-01-02 16:36:28.40	56.55	64.84	-30.3	-30.9	28.3	0.00e+00	0	39	0	2135949312	34	5683
2026-01-02 16:36:29.55	57.35	65.23	-29.9	-30.5	28.6	0.00e+00	0	39	0	2142240768	34	5423
2026-01-02 16:36:30.42	57.97	65.53	-30.0	-30.5	28.6	0.00e+00	0	39	0	2146435072	34	5421
2026-01-02 16:36:31.57	58.83	65.92	-30.1	-30.7	28.5	0.00e+00	0	39	0	2153775104	34	5504
2026-01-02 16:36:32.43	59.49	66.21	-30.1	-30.7	28.5	0.00e+00	0	39	0	2157969408	34	5537
2026-01-02 16:36:33.59	60.40	66.60	-30.2	-30.7	28.5	0.00e+00	0	39	0	2165309440	34	5565
2026-01-02 16:36:34.46	61.11	66.88	-30.5	-31.1	28.2	0.00e+00	0	39	0	2169503744	34	5767
2026-01-02 16:36:35.61	62.08	67.26	-30.0	-30.6	28.5	0.00e+00	0	39	0	2175795200	34	5456
2026-01-02 16:36:36.48	62.83	67.55	-29.9	-30.5	28.6	0.00e+00	0	39	0	2181038080	34	5398
2026-01-02 16:36:37.63	63.87	67.91	-30.3	-30.9	28.4	0.00e+00	0	39	0	2187329536	34	5648
2026-01-02 16:36:38.49	64.66	68.19	-30.1	-30.7	28.5	0.00e+00	0	39	0	2192572416	34	5552
2026-01-02 16:36:39.65	65.77	68.55	-29.8	-30.4	28.7	0.00e+00	0	39	0	2198863872	32	5986
2026-01-02 16:36:40.51	66.61	68.82	-29.9	-30.5	28.7	0.00e+00	0	39	0	2204106752	32	6069
2026-01-02 16:36:41.67	67.79	69.17	-30.1	-30.7	28.5	0.00e+00	0	39	0	2210398208	32	6213
2026-01-02 16:36:42.53	68.70	69.43	-30.0	-30.5	28.5	0.00e+00	0	39	0	2215641088	32	6101
2026-01-02 16:36:43.69	69.95	69.77	-30.2	-30.8	28.5	0.00e+00	0	39	0	2221932544	32	6283
2026-01-02 16:36:44.55	70.91	70.01	-30.1	-30.7	28.5	0.00e+00	0	39	0	2226126848	32	6184
2026-01-02 16:36:45.70	72.23	70.34	-29.9	-30.5	28.6	0.00e+00	0	39	0	2232418304	32	6083
2026-01-02 16:36:46.57	73.27	70.57	-29.9	-30.5	28.5	0.00e+00	0	39	0	2237661184	32	6095
2026-01-02 16:36:47.72	74.67	70.88	-29.8	-30.3	28.8	0.00e+00	0	39	0	2243952640	32	5964
2026-01-02 16:36:48.58	75.75	71.10	-29.6	-30.2	28.8	0.00e+00	0	39	0	2249195520	32	5866
2026-01-02 16:36:49.74	77.26	71.39	-29.4	-29.9	28.9	0.00e+00	0	39	0	2255486976	32	5691
2026-01-02 16:36:50.60	78.40	71.60	-29.3	-29.9	29.1	0.00e+00	0	39	0	2260729856	32	5678
2026-01-02 16:36:51.76	79.99	71.87	-29.2	-29.8	29.1	0.00e+00	0	39	0	2267021312	32	5624
2026-01-02 16:36:52.62	81.20	72.06	-29.4	-30.0	28.9	0.00e+00	0	39	0	2271215616	32	5713
2026-01-02 16:36:53.78	82.87	72.31	-29.8	-30.5	28.6	0.00e+00	0	39	0	2278555648	32	6041
2026-01-02 16:36:54.64	84.15	72.48	-29.6	-30.2	28.7	0.00e+00	0	39	0	2282749952	32	5860
2026-01-02 16:36:55.80	85.90	72.70	-29.4	-30.0	28.9	0.00e+00	0	39	0	2290089984	32	5707
2026-01-02 16:36:56.67	87.25	72.86	-29.6	-30.2	28.9	0.00e+00	0	39	0	2294284288	32	5846
2026-01-02 16:36:57.82	89.07	73.05	-29.3	-29.9	29.1	0.00e+00	0	39	0	2300575744	32	5660
2026-01-02 16:36:58.68	90.46	73.19	-29.2	-29.8	29.0	0.00e+00	0	39	0	2305818624	32	5611
2026-01-02 16:36:59.84	92.37	73.35	-29.5	-30.1	28.9	0.00e+00	0	39	0	2312110080	32	5786
2026-01-02 16:37:00.71	93.83	73.46	-29.5	-30.1	28.8	0.00e+00	0	39	0	2317352960	32	5791
2026-01-02 16:37:01.86	95.79	73.60	-28.9	-29.5	29.4	0.00e+00	0	39	0	2323644416	32	5401
2026-01-02 16:37:02.73	97.29	73.69	-28.9	-29.4	29.3	0.00e+00	0	39	0	2328887296	32	5362
2026-01-02 16:37:03.88	99.30	73.79	-29.1	-29.7	29.2	0.00e+00	0	39	0	2335178752	32	5536
2026-01-02 16:37:04.75	100.84	73.85	-29.0	-29.6	29.2	0.00e+00	0	39	0	2340421632	32	5502
2026-01-02 16:37:05.90	102.88	73.92	-29.4	-30.1	28.9	0.00e+00	0	39	0	2346713088	32	5767
2026-01-02 16:37:06.76	104.43	73.95	-29.5	-30.0	28.9	0.00e+00	0	39	0	2350907392	32	5754
2026-01-02 16:37:07.92	106.51	73.98	-29.5	-30.1	28.9	0.00e+00	0	39	0	2358247424	32	5788
2026-01-02 16:37:08.79	108.08	74.00	-29.5	-30.1	28.9	0.00e+00	0	39	0	2362441728	32	5810
2026-01-02 16:37:09.94	110.16	73.99	-29.8	-30.4	28.7	0.00e+00	0	39	0	2369781760	32	5984
2026-01-02 16:37:10.81	111.73	73.98	-29.6	-30.2	28.9	0.00e+00	0	39	0	2373976064	32	5852
2026-01-02 16:37:11.96	113.80	73.94	-28.9	-29.5	29.3	0.00e+00	0	39	0	2380267520	32	5415
2026-01-02 16:37:12.82	115.34	73.90	-28.9	-29.5	29.0	0.00e+00	0	39	0	2385510400	32	5415
2026-01-02 16:37:13.98	117.40	73.82	-29.1	-29.8	28.8	0.00e+00	0	39	0	2391801856	32	5571
2026-01-02 16:37:14.84	118.91	73.75	-29.2	-29.8	29.0	0.00e+00	0	39	0	2397044736	32	5572
2026-01-02 16:37:16.00	120.93	73.65	-29.4	-30.0	29.0	0.00e+00	0	39	0	2403336192	32	5703
2026-01-02 16:37:16.86	122.41	73.55	-29.4	-30.0	28.7	0.00e+00	0	39	0	2408579072	32	5750
2026-01-02 16:37:18.02	124.37	73.41	-29.5	-30.1	28.8	0.00e+00	0	39	0	2414870528	32	5799
2026-01-02 16:37:18.88	125.80	73.30	-29.4	-30.0	28.9	0.00e+00	0	39	0	2420113408	32	5735
2026-01-02 16:37:20.03	127.68	73.13	-29.7	-30.3	28.7	0.00e+00	0	39	0	2426404864	32	5928
2026-01-02 16:37:20.90	129.08	72.99	-29.2	-29.8	29.1	0.00e+00	0	39	0	2430599168	32	5596
2026-01-02 16:37:22.05	130.89	72.79	-29.1	-29.7	29.1	0.00e+00	0	39	0	2436890624	32	5559
2026-01-02 16:37:22.92	132.23	72.63	-29.1	-29.6	29.1	0.00e+00	0	39	0	2442133504	32	5467
2026-01-02 16:37:24.07	133.95	72.41	-29.0	-29.6	29.2	0.00e+00	0	39	0	2448424960	32	5481
2026-01-02 16:37:24.93	135.22	72.23	-29.3	-29.9	28.9	0.00e+00	0	39	0	2453667840	32	5690
2026-01-02 16:37:26.08	136.86	71.98	-29.4	-30.0	28.9	0.00e+00	0	39	0	2459959296	32	5728
2026-01-02 16:37:26.95	138.07	71.78	-29.5	-30.1	28.7	0.00e+00	0	39	0	2465202176	32	5800
2026-01-02 16:37:28.10	139.63	71.51	-29.6	-30.2	28.9	0.00e+00	0	39	0	2471493632	32	5881
2026-01-02 16:37:28.97	140.78	71.30	-29.4	-30.0	28.9	0.00e+00	0	39	0	2475687936	32	5743
2026-01-02 16:37:30.12	142.26	71.00	-29.7	-30.4	28.7	0.00e+00	0	39	0	2483027968	32	5978
2026-01-02 16:37:30.98	143.33	70.78	-29.7	-30.4	28.6	0.00e+00	0	39	0	2487222272	32	5992
2026-01-02 16:37:32.13	144.72	70.47	-29.6	-30.2	28.9	0.00e+00	0	39	0	2494562304	32	5856
2026-01-02 16:37:33.00	145.74	70.23	-29.5	-30.1	28.9	0.00e+00	0	39	0	2498756608	32	5774
2026-01-02 16:37:34.15	147.05	69.90	-29.7	-30.4	28.7	0.00e+00	0	39	0	2505048064	32	5974
2026-01-02 16:37:35.02	148.01	69.65	-29.7	-30.2	28.8	0.00e+00	0	39	0	2510290944	32	5866
2026-01-02 16:37:36.17	149.24	69.31	-29.6	-30.3	28.6	0.00e+00	0	39	0	2516582400	32	5911
2026-01-02 16:37:37.04	150.14	69.05	-29.7	-30.3	28.7	0.00e+00	0	39	0	2521825280	32	5934
2026-01-02 16:37:38.19	151.30	68.70	-29.9	-30.4	28.6	0.00e+00	0	39	0	2528116736	32	6008
2026-01-02 16:37:39.05	152.14	68.43	-29.8	-30.3	28.7	0.00e+00	0	39	0	2533359616	32	5939
2026-01-02 16:37:40.21	153.23	68.06	-29.6	-30.3	28.7	0.00e+00	0	39	0	2539651072	32	5924
2026-01-02 16:37:41.07	154.02	67.79	-29.8	-30.5	28.6	0.00e+00	0	39	0	2543845376	32	6034
2026-01-02 16:37:42.23	155.05	67.41	-30.3	-30.9	28.3	0.00e+00	0	39	0	2551185408	32	6384
2026-01-02 16:37:43.09	155.79	67.13	-30.5	-31.0	28.2	0.00e+00	0	39	0	2555379712	32	6429
2026-01-02 16:37:44.25	156.75	66.75	-30.3	-30.9	28.3	0.00e+00	0	39	0	2562719744	32	6382
2026-01-02 16:37:45.11	157.45	66.46	-30.1	-30.7	28.4	0.00e+00	0	39	0	2566914048	32	6188
2026-01-02 16:37:46.27	158.35	66.07	-29.9	-30.5	28.7	0.00e+00	0	39	0	2573205504	32	6057
2026-01-02 16:37:47.13	159.01	65.78	-30.1	-30.7	28.5	0.00e+00	0	39	0	2578448384	32	6237
2026-01-02 16:37:48.29	159.86	65.38	-30.0	-30.6	28.5	0.00e+00	0	39	0	2584739840	32	6115
2026-01-02 16:37:49.15	160.47	65.09	-29.9	-30.5	28.7	0.00e+00	0	39	0	2589982720	32	6069
2026-01-02 16:37:50.31	161.27	64.69	-30.0	-30.5	28.4	0.00e+00	0	39	0	2596274176	32	6070
2026-01-02 16:37:51.17	161.85	64.39	-30.2	-30.8	28.4	0.00e+00	0	39	0	2601517056	32	6307
2026-01-02 16:37:52.32	162.59	63.99	-30.1	-30.8	28.5	0.00e+00	0	39	0	2607808512	32	6263
2026-01-02 16:37:53.19	163.14	63.69	-30.2	-30.9	28.4	0.00e+00	0	39	0	2613051392	32	6324
2026-01-02 16:37:54.35	163.85	63.28	-30.1	-30.8	28.5	0.00e+00	0	39	0	2619342848	32	6248
2026-01-02 16:37:55.21	164.36	62.98	-30.1	-30.7	28.4	0.00e+00	0	39	0	2623537152	32	6234
2026-01-02 16:37:56.36	165.03	62.58	-30.3	-30.9	28.2	0.00e+00	0	39	0	2629828608	32	6365
2026-01-02 16:37:57.23	165.51	62.27	-30.2	-30.9	28.4	0.00e+00	0	39	0	2635071488	32	6327
2026-01-02 16:37:58.38	166.14	61.86	-30.3	-30.8	28.4	0.00e+00	0	39	0	2641362944	32	6279
2026-01-02 16:37:59.25	166.60	61.56	-30.3	-30.9	28.3	0.00e+00	0	39	0	2646605824	32	6326
2026-01-02 16:38:00.40	167.19	61.15	-30.4	-31.1	28.2	0.00e+00	0	39	0	2652897280	32	6472
2026-01-02 16:38:01.27	167.62	60.84	-30.5	-31.0	28.2	0.00e+00	0	39	0	2658140160	32	6425
2026-01-02 16:38:02.42	168.18	60.44	-30.7	-31.3	28.0	0.00e+00	0	39	0	2664431616	32	6632
2026-01-02 16:38:03.28	168.59	60.14	-31.0	-31.6	27.8	0.00e+00	0	39	0	2669674496	34	6168
2026-01-02 16:38:04.44	169.12	59.73	-30.8	-31.3	27.9	0.00e+00	0	39	0	2675965952	34	5945
2026-01-02 16:38:05.30	169.51	59.42	-30.7	-31.2	27.9	0.00e+00	0	39	0	2680160256	34	5879
2026-01-02 16:38:06.46	170.01	59.02	-30.9	-31.5	27.9	0.00e+00	0	39	0	2687500288	34	6071
2026-01-02 16:38:07.32	170.38	58.71	-31.1	-31.6	27.8	0.00e+00	0	39	0	2691694592	34	6137
2026-01-02 16:38:08.48	170.86	58.31	-31.0	-31.7	27.8	0.00e+00	0	39	0	2697986048	34	6223
2026-01-02 16:38:09.34	171.20	58.01	-31.0	-31.7	27.8	0.00e+00	0	39	0	2703228928	34	6208
2026-01-02 16:38:10.50	171.66	57.60	-31.4	-32.1	27.5	0.00e+00	0	39	0	2709520384	34	6483
2026-01-02 16:38:11.37	171.99	57.30	-31.4	-32.0	27.5	0.00e+00	0	39	0	2714763264	34	6451
2026-01-02 16:38:12.52	172.42	56.90	-31.4	-32.1	27.5	0.00e+00	0	39	0	2721054720	34	6511
2026-01-02 16:38:13.39	172.73	56.60	-31.6	-32.2	27.3	0.00e+00	0	39	0	2726297600	34	6552
2026-01-02 16:38:14.54	173.14	56.20	-31.6	-32.2	27.3	0.00e+00	0	39	0	2732589056	34	6565
2026-01-02 16:38:15.41	173.44	55.91	-31.6	-32.3	27.2	0.00e+00	0	39	0	2737831936	34	6673
2026-01-02 16:38:16.56	173.83	55.51	-31.6	-32.3	27.2	0.00e+00	0	39	0	2744123392	34	6678
2026-01-02 16:38:17.43	174.11	55.22	-31.7	-32.4	27.2	0.00e+00	0	39	0	2748317696	34	6752
2026-01-02 16:38:18.58	174.48	54.82	-31.6	-32.2	27.3	0.00e+00	0	39	0	2755657728	36	5868
2026-01-02 16:38:19.44	174.75	54.53	-31.6	-32.3	27.3	0.00e+00	0	39	0	2759852032	36	5915
2026-01-02 16:38:20.60	175.11	54.14	-31.5	-32.1	27.4	0.00e+00	0	39	0	2767192064	36	5817
2026-01-02 16:38:21.46	175.37	53.85	-31.4	-31.9	27.3	0.00e+00	0	39	0	2771386368	36	5660
2026-01-02 16:38:22.61	175.70	53.47	-31.6	-32.2	27.3	0.00e+00	0	39	0	2777677824	36	5855
2026-01-02 16:38:23.48	175.95	53.18	-31.8	-32.3	27.1	0.00e+00	0	39	0	2782920704	36	5959
2026-01-02 16:38:24.63	176.27	52.80	-31.6	-32.3	27.1	0.00e+00	0	39	0	2789212160	36	5904
2026-01-02 16:38:25.50	176.51	52.51	-31.3	-31.9	27.3	0.00e+00	0	39	0	2794455040	36	5651
2026-01-02 16:38:26.65	176.82	52.13	-31.0	-31.6	27.6	0.00e+00	0	39	0	2800746496	36	5483
2026-01-02 16:38:27.52	177.05	51.85	-30.9	-31.5	27.9	0.00e+00	0	39	0	2805989376	36	5435
2026-01-02 16:38:28.67	177.34	51.48	-31.0	-31.7	27.8	0.00e+00	0	39	0	2812280832	36	5533
2026-01-02 16:38:29.54	177.56	51.20	-31.4	-32.1	27.5	0.00e+00	0	39	0	2817523712	36	5800
2026-01-02 16:38:30.69	177.84	50.83	-31.6	-32.2	27.3	0.00e+00	0	39	0	2823815168	36	5854
2026-01-02 16:38:31.56	178.05	50.55	-31.5	-32.2	27.5	0.00e+00	0	39	0	2828009472	36	5848
2026-01-02 16:38:32.71	178.32	50.18	-31.2	-31.7	27.6	0.00e+00	0	39	0	2834300928	36	5565
2026-01-02 16:38:33.58	178.52	49.91	-30.8	-31.4	28.0	0.00e+00	0	39	0	2839543808	36	5350
2026-01-02 16:38:34.73	178.78	49.55	-30.6	-31.2	28.0	0.00e+00	0	39	0	2845835264	34	5840
2026-01-02 16:38:35.60	178.97	49.27	-30.7	-31.3	28.0	0.00e+00	0	39	0	2851078144	34	5911
2026-01-02 16:38:36.75	179.22	48.92	-31.0	-31.6	27.8	0.00e+00	0	39	0	2857369600	34	6106
2026-01-02 16:38:37.62	179.41	48.65	-30.9	-31.5	27.8	0.00e+00	0	39	0	2862612480	34	6054
2026-01-02 16:38:38.77	179.64	48.29	-30.7	-31.4	28.0	0.00e+00	0	39	0	2868903936	34	6001
2026-01-02 16:38:39.64	179.82	48.03	-30.7	-31.2	28.0	0.00e+00	0	39	0	2874146816	34	5860
2026-01-02 16:38:40.79	180.05	47.68	-30.8	-31.5	27.9	0.00e+00	0	39	0	2880438272	34	6066
2026-01-02 16:38:41.66	180.22	47.41	-30.9	-31.5	27.8	0.00e+00	0	39	0	2884632576	34	6101
2026-01-02 16:38:42.81	180.44	47.07	-31.2	-31.7	27.7	0.00e+00	0	39	0	2891972608	34	6238
2026-01-02 16:38:43.68	180.61	46.81	-30.9	-31.4	27.8	0.00e+00	0	39	0	2896166912	34	6021
2026-01-02 16:38:44.83	180.82	46.47	-30.7	-31.2	28.0	0.00e+00	0	39	0	2903506944	34	5853
2026-01-02 16:38:45.70	180.98	46.21	-30.7	-31.3	28.0	0.00e+00	0	39	0	2907701248	34	5910
2026-01-02 16:38:46.85	181.19	45.87	-30.6	-31.2	28.0	0.00e+00	0	39	0	2913992704	34	5832
2026-01-02 16:38:47.72	181.34	45.62	-30.6	-31.2	28.1	0.00e+00	0	39	0	2919235584	34	5890
2026-01-02 16:38:48.87	181.54	45.29	-30.5	-31.2	28.2	0.00e+00	0	39	0	2925527040	34	5851
2026-01-02 16:38:49.74	181.69	45.04	-30.6	-31.1	28.1	0.00e+00	0	39	0	2930769920	34	5812
2026-01-02 16:38:50.89	181.88	44.71	-30.5	-31.1	28.2	0.00e+00	0	39	0	2937061376	34	5766
2026-01-02 16:38:51.76	182.02	44.46	-30.5	-31.0	28.1	0.00e+00	0	39	0	2942304256	34	5755
2026-01-02 16:38:52.91	182.20	44.14	-30.4	-31.0	28.2	0.00e+00	0	39	0	2948595712	34	5701
2026-01-02 16:38:53.78	182.34	43.89	-30.5	-31.2	28.1	0.00e+00	0	39	0	2952790016	34	5835
2026-01-02 16:38:54.93	182.52	43.57	-30.2	-30.9	28.3	0.00e+00	0	39	0	2960130048	34	5664
2026-01-02 16:38:55.80	182.65	43.33	-30.2	-30.7	28.5	0.00e+00	0	39	0	2964324352	34	5514
2026-01-02 16:38:56.95	182.82	43.02	-30.2	-30.9	28.4	0.00e+00	0	39	0	2971664384	34	5648
2026-01-02 16:38:57.82	182.95	42.78	-30.4	-30.9	28.3	0.00e+00	0	39	0	2975858688	34	5649
2026-01-02 16:38:58.97	183.12	42.47	-30.6	-31.3	28.0	0.00e+00	0	39	0	2982150144	34	5907
2026-01-02 16:38:59.83	183.24	42.23	-30.4	-31.0	28.3	0.00e+00	0	39	0	2987393024	34	5754
2026-01-02 16:39:00.99	183.40	41.92	-30.6	-31.3	28.1	0.00e+00	0	39	0	2993684480	34	5912
2026-01-02 16:39:01.85	183.52	41.70	-30.4	-31.1	28.2	0.00e+00	0	39	0	2998927360	34	5803
2026-01-02 16:39:03.01	183.68	41.39	-30.5	-31.2	28.2	0.00e+00	0	39	0	3005218816	34	5858
2026-01-02 16:39:03.87	183.80	41.16	-30.3	-31.0	28.2	0.00e+00	0	39	0	3010461696	34	5701
2026-01-02 16:39:05.03	183.95	40.86	-30.1	-30.6	28.5	0.00e+00	0	39	0	3016753152	34	5469
2026-01-02 16:39:05.89	184.06	40.64	-30.1	-30.6	28.5	0.00e+00	0	39	0	3021996032	34	5459
2026-01-02 16:39:07.05	184.21	40.34	-29.9	-30.4	28.5	0.00e+00	0	39	0	3028287488	34	5375
2026-01-02 16:39:07.91	184.32	40.12	-29.7	-30.2	28.8	0.00e+00	0	39	0	3032481792	32	5840
2026-01-02 16:39:09.06	184.46	39.83	-29.7	-30.2	28.7	0.00e+00	0	39	0	3038773248	32	5876
2026-01-02 16:39:09.93	184.57	39.61	-29.7	-30.2	28.8	0.00e+00	0	39	0	3044016128	32	5877
2026-01-02 16:39:11.08	184.70	39.32	-29.7	-30.2	28.7	0.00e+00	0	39	0	3050307584	32	5887
2026-01-02 16:39:11.95	184.81	39.10	-29.9	-30.4	28.5	0.00e+00	0	39	0	3055550464	32	5987
2026-01-02 16:39:13.10	184.94	38.82	-29.9	-30.4	28.6	0.00e+00	0	39	0	3061841920	32	6008
2026-01-02 16:39:13.97	185.04	38.61	-30.0	-30.5	28.5	0.00e+00	0	39	0	3067084800	32	6080
2026-01-02 16:39:15.12	185.17	38.33	-30.0	-30.6	28.5	0.00e+00	0	39	0	3073376256	32	6128
2026-01-02 16:39:15.98	185.27	38.12	-30.0	-30.7	28.5	0.00e+00	0	39	0	3078619136	32	6216
2026-01-02 16:39:17.14	185.39	37.84	-30.1	-30.7	28.3	0.00e+00	0	39	0	3084910592	32	6235
2026-01-02 16:39:18.01	185.49	37.63	-30.1	-30.7	28.4	0.00e+00	0	39	0	3089104896	32	6234
2026-01-02 16:39:19.16	185.61	37.36	-30.0	-30.5	28.5	0.00e+00	0	39	0	3096444928	32	6103
2026-01-02 16:39:20.02	185.70	37.16	-30.0	-30.5	28.5	0.00e+00	0	39	0	3100639232	32	6045
2026-01-02 16:39:21.18	185.82	36.88	-30.1	-30.6	28.4	0.00e+00	0	39	0	3107979264	32	6165
2026-01-02 16:39:22.05	185.91	36.68	-30.1	-30.6	28.4	0.00e+00	0	39	0	3112173568	32	6153
2026-01-02 16:39:23.20	186.03	36.42	-30.3	-30.8	28.3	0.00e+00	0	39	0	3118465024	32	6305
2026-01-02 16:39:24.07	186.11	36.22	-30.4	-30.9	28.2	0.00e+00	0	39	0	3123707904	32	6359
2026-01-02 16:39:25.22	186.23	35.95	-30.3	-30.8	28.3	0.00e+00	0	39	0	3129999360	32	6277
2026-01-02 16:39:26.09	186.31	35.76	-30.4	-31.0	28.2	0.00e+00	0	39	0	3135242240	32	6396
2026-01-02 16:39:27.24	186.42	35.50	-30.4	-30.9	28.2	0.00e+00	0	39	0	3141533696	32	6377
2026-01-02 16:39:28.11	186.50	35.30	-30.3	-30.8	28.2	0.00e+00	0	39	0	3146776576	32	6299
2026-01-02 16:39:29.26	186.61	35.05	-30.3	-31.0	28.3	0.00e+00	0	39	0	3153068032	32	6411
2026-01-02 16:39:30.13	186.69	34.86	-30.3	-30.9	28.2	0.00e+00	0	39	0	3157262336	32	6319
2026-01-02 16:39:31.28	186.80	34.61	-30.2	-30.7	28.4	0.00e+00	0	39	0	3164602368	32	6227
2026-01-02 16:39:32.14	186.87	34.42	-30.2	-30.8	28.3	0.00e+00	0	39	0	3168796672	32	6255
2026-01-02 16:39:33.30	186.97	34.17	-30.2	-30.8	28.3	0.00e+00	0	39	0	3176136704	32	6307
2026-01-02 16:39:34.16	187.05	33.98	-30.2	-30.9	28.2	0.00e+00	0	39	0	3180331008	32	6365
2026-01-02 16:39:35.32	187.15	33.74	-30.4	-31.0	28.2	0.00e+00	0	39	0	3186622464	32	6447
2026-01-02 16:39:36.18	187.22	33.55	-30.4	-31.0	28.2	0.00e+00	0	39	0	3191865344	32	6447
2026-01-02 16:39:37.33	187.32	33.31	-30.4	-31.1	28.2	0.00e+00	0	39	0	3198156800	32	6519
2026-01-02 16:39:38.20	187.39	33.13	-30.4	-31.1	28.2	0.00e+00	0	39	0	3203399680	32	6492
2026-01-02 16:39:39.35	187.49	32.89	-30.5	-31.2	28.1	0.00e+00	0	39	0	3209691136	32	6572
2026-01-02 16:39:40.22	187.56	32.71	-30.4	-31.1	28.1	0.00e+00	0	39	0	3214934016	32	6500
2026-01-02 16:39:41.37	187.65	32.48	-30.5	-31.2	28.1	0.00e+00	0	39	0	3221225472	32	6592
2026-01-02 16:39:42.23	187.72	32.30	-30.5	-31.1	28.0	0.00e+00	0	39	0	3226468352	32	6538
2026-01-02 16:39:43.39	187.81	32.07	-30.5	-31.1	28.1	0.00e+00	0	39	0	3232759808	32	6519
2026-01-02 16:39:44.25	187.88	31.90	-30.5	-31.2	28.1	0.00e+00	0	39	0	3236954112	32	6577
2026-01-02 16:39:45.41	187.96	31.66	-30.4	-31.1	28.2	0.00e+00	0	39	0	3243245568	32	6471
2026-01-02 16:39:46.27	188.03	31.49	-30.4	-31.0	28.2	0.00e+00	0	39	0	3248488448	32	6459
2026-01-02 16:39:47.43	188.12	31.27	-30.4	-31.0	28.2	0.00e+00	0	39	0	3254779904	32	6443
2026-01-02 16:39:48.29	188.18	31.10	-30.4	-30.9	28.1	0.00e+00	0	39	0	3260022784	32	6363
2026-01-02 16:39:49.45	188.26	30.87	-30.4	-31.0	28.1	0.00e+00	0	39	0	3266314240	32	6405
2026-01-02 16:39:50.31	188.33	30.71	-30.4	-30.9	28.3	0.00e+00	0	39	0	3271557120	32	6368
2026-01-02 16:39:51.47	188.41	30.48	-30.5	-31.0	28.1	0.00e+00	0	39	0	3277848576	32	6440
2026-01-02 16:39:52.33	188.47	30.32	-30.4	-30.9	28.2	0.00e+00	0	39	0	3283091456	32	6371
2026-01-02 16:39:53.49	188.55	30.10	-30.5	-31.0	28.1	0.00e+00	0	39	0	3289382912	32	6423
2026-01-02 16:39:54.36	188.61	29.94	-30.5	-31.0	28.2	0.00e+00	0	39	0	3293577216	32	6453
2026-01-02 16:39:55.51	188.69	29.72	-30.5	-31.1	28.0	0.00e+00	0	39	0	3300917248	32	6528
2026-01-02 16:39:56.38	188.75	29.56	-30.4	-31.1	28.1	0.00e+00	0	39	0	3305111552	32	6495
2026-01-02 16:39:57.53	188.82	29.35	-30.5	-31.2	28.0	0.00e+00	0	39	0	3312451584	32	6573
2026-01-02 16:39:58.40	188.88	29.19	-30.6	-31.3	28.0	0.00e+00	0	39	0	3316645888	32	6653
2026-01-02 16:39:59.55	188.96	28.98	-30.7	-31.4	28.0	0.00e+00	0	39	0	3322937344	32	6703
2026-01-02 16:40:00.42	189.01	28.82	-30.5	-31.2	28.0	0.00e+00	0	39	0	3328180224	32	6587
2026-01-02 16:40:01.57	189.09	28.61	-30.6	-31.3	27.9	0.00e+00	0	39	0	3334471680	32	6680
2026-01-02 16:40:02.44	189.14	28.46	-30.5	-31.2	28.1	0.00e+00	0	39	0	3339714560	32	6596
2026-01-02 16:40:03.59	189.21	28.25	-30.5	-31.2	28.0	0.00e+00	0	39	0	3346006016	32	6568
2026-01-02 16:40:04.46	189.27	28.10	-30.6	-31.3	28.0	0.00e+00	0	39	0	3351248896	32	6674
2026-01-02 16:40:05.61	189.34	27.90	-30.5	-31.2	28.0	0.00e+00	0	39	0	3357540352	32	6592
2026-01-02 16:40:06.48	189.39	27.75	-30.5	-31.2	28.1	0.00e+00	0	39	0	3361734656	32	6594
2026-01-02 16:40:07.63	189.46	27.55	-30.7	-31.2	27.9	0.00e+00	0	39	0	3369074688	34	5881
2026-01-02 16:40:08.49	189.51	27.40	-30.7	-31.3	27.9	0.00e+00	0	39	0	3373268992	34	5901
2026-01-02 16:40:09.65	189.58	27.20	-30.7	-31.3	27.9	0.00e+00	0	39	0	3380609024	34	5901
2026-01-02 16:40:10.51	189.63	27.06	-30.6	-31.3	27.9	0.00e+00	0	39	0	3384803328	34	5947
2026-01-02 16:40:11.67	189.69	26.86	-30.6	-31.3	27.9	0.00e+00	0	39	0	3391094784	34	5957
2026-01-02 16:40:12.54	189.74	26.71	-30.8	-31.5	27.8	0.00e+00	0	39	0	3396337664	34	6051
2026-01-02 16:40:13.69	189.81	26.52	-30.6	-31.3	27.9	0.00e+00	0	39	0	3402629120	34	5940
2026-01-02 16:40:14.56	189.86	26.38	-30.8	-31.3	27.8	0.00e+00	0	39	0	3407872000	34	5938
2026-01-02 16:40:15.71	189.92	26.19	-30.6	-31.3	27.9	0.00e+00	0	39	0	3414163456	34	5930
2026-01-02 16:40:16.58	189.97	26.04	-30.6	-31.2	27.9	0.00e+00	0	39	0	3419406336	34	5837
2026-01-02 16:40:17.73	190.03	25.86	-30.7	-31.3	27.9	0.00e+00	0	39	0	3425697792	34	5953
2026-01-02 16:40:18.59	190.08	25.72	-30.6	-31.3	28.0	0.00e+00	0	39	0	3430940672	34	5907
2026-01-02 16:40:19.75	190.14	25.53	-30.6	-31.1	27.9	0.00e+00	0	39	0	3437232128	34	5795
2026-01-02 16:40:20.61	190.18	25.39	-30.7	-31.3	28.0	0.00e+00	0	39	0	3441426432	34	5897
2026-01-02 16:40:21.77	190.25	25.21	-30.8	-31.3	27.9	0.00e+00	0	39	0	3447717888	34	5906
2026-01-02 16:40:22.63	190.29	25.07	-30.6	-31.2	27.9	0.00e+00	0	39	0	3452960768	34	5834
2026-01-02 16:40:23.79	190.35	24.89	-30.8	-31.3	27.9	0.00e+00	0	39	0	3459252224	34	5910
2026-01-02 16:40:24.65	190.39	24.75	-30.7	-31.2	27.9	0.00e+00	0	39	0	3464495104	34	5861
2026-01-02 16:40:25.80	190.45	24.58	-30.9	-31.4	27.7	0.00e+00	0	39	0	3470786560	34	6030
2026-01-02 16:40:26.67	190.49	24.44	-30.8	-31.3	27.9	0.00e+00	0	39	0	3476029440	34	5941
2026-01-02 16:40:27.82	190.55	24.26	-31.0	-31.5	27.6	0.00e+00	0	39	0	3482320896	34	6087
2026-01-02 16:40:28.69	190.59	24.13	-30.9	-31.4	27.7	0.00e+00	0	39	0	3487563776	34	6017
2026-01-02 16:40:29.84	190.65	23.96	-31.1	-31.7	27.5	0.00e+00	0	39	0	3493855232	34	6190
2026-01-02 16:40:30.70	190.69	23.83	-31.0	-31.5	27.7	0.00e+00	0	39	0	3498049536	34	6082
2026-01-02 16:40:31.86	190.75	23.65	-31.1	-31.7	27.6	0.00e+00	0	39	0	3505389568	34	6180
2026-01-02 16:40:32.72	190.79	23.52	-31.3	-31.9	27.4	0.00e+00	0	39	0	3509583872	34	6337
2026-01-02 16:40:33.88	190.84	23.35	-31.4	-31.9	27.4	0.00e+00	0	39	0	3516923904	34	6379
2026-01-02 16:40:34.74	190.88	23.22	-31.6	-32.2	27.2	0.00e+00	0	39	0	3521118208	34	6561
2026-01-02 16:40:35.90	190.93	23.05	-31.3	-31.9	27.4	0.00e+00	0	39	0	3527409664	34	6336
2026-01-02 16:40:36.76	190.97	22.93	-31.6	-32.1	27.2	0.00e+00	0	39	0	3532652544	34	6529
2026-01-02 16:40:37.92	191.03	22.76	-31.5	-32.0	27.3	0.00e+00	0	39	0	3538944000	34	6436
2026-01-02 16:40:38.78	191.07	22.64	-31.3	-31.9	27.4	0.00e+00	0	39	0	3544186880	34	6352
2026-01-02 16:40:39.94	191.12	22.47	-31.5	-32.0	27.3	0.00e+00	0	39	0	3550478336	34	6446
2026-01-02 16:40:40.80	191.15	22.35	-31.5	-32.1	27.3	0.00e+00	0	39	0	3555721216	34	6509
2026-01-02 16:40:41.95	191.20	22.18	-31.4	-32.0	27.3	0.00e+00	0	39	0	3562012672	34	6419
2026-01-02 16:40:42.82	191.24	22.06	-31.5	-32.2	27.3	0.00e+00	0	39	0	3566206976	34	6571
2026-01-02 16:40:43.97	191.29	21.90	-31.5	-32.2	27.2	0.00e+00	0	39	0	3573547008	34	6590
2026-01-02 16:40:44.84	191.33	21.78	-31.6	-32.2	27.1	0.00e+00	0	39	0	3577741312	34	6582
2026-01-02 16:40:45.99	191.38	21.62	-31.6	-32.2	27.1	0.00e+00	0	39	0	3584032768	34	6588
2026-01-02 16:40:46.86	191.41	21.50	-31.6	-32.1	27.2	0.00e+00	0	39	0	3589275648	34	6522
2026-01-02 16:40:48.01	191.46	21.34	-31.6	-32.2	27.1	0.00e+00	0	39	0	3595567104	34	6541
2026-01-02 16:40:48.88	191.50	21.22	-31.6	-32.3	27.1	0.00e+00	0	39	0	3600809984	34	6682
2026-01-02 16:40:50.03	191.55	21.06	-31.9	-32.4	26.9	0.00e+00	0	39	0	3607101440	36	6024
2026-01-02 16:40:50.90	191.58	20.95	-31.8	-32.4	27.0	0.00e+00	0	39	0	3612344320	36	5989
2026-01-02 16:40:52.05	191.63	20.79	-32.0	-32.6	26.9	0.00e+00	0	39	0	3618635776	36	6116
2026-01-02 16:40:52.92	191.66	20.68	-32.0	-32.6	26.9	0.00e+00	0	39	0	3622830080	36	6112
2026-01-02 16:40:54.07	191.71	20.52	-31.9	-32.5	26.9	0.00e+00	0	39	0	3630170112	36	6060
2026-01-02 16:40:54.94	191.74	20.41	-32.0	-32.5	26.9	0.00e+00	0	39	0	3635412992	36	6098
2026-01-02 16:40:56.09	191.79	20.26	-31.8	-32.4	27.0	0.00e+00	0	39	0	3641704448	36	5989
2026-01-02 16:40:56.96	191.82	20.14	-31.8	-32.3	27.0	0.00e+00	0	39	0	3645898752	36	5955
2026-01-02 16:40:58.11	191.86	19.99	-31.8	-32.4	27.0	0.00e+00	0	39	0	3652190208	36	5985
2026-01-02 16:40:58.97	191.90	19.88	-31.8	-32.3	27.1	0.00e+00	0	39	0	3657433088	36	5958
