passes_logs/2026/01/02/R4.6S_Anadyr/R4.6S_Anadyr__20260102_131808_NOAA_21_JPSS-2_rec.log

#Pass ID: 20260102_131808_NOAA 21 (JPSS-2)
#Satellite: NOAA 21 (JPSS-2)
#Configuration: NOAA-21
#almurnet v.1.7.20251203
#Start time: 2026-01-02 13:18:10

#Version: 2.2.20231116
#Station: R4.6S_Anadyr
#Location: 177.4865 lon 64.73178 lat
#TLE: 1 54234U 22150A   26001.90243762  .00000172  00000+0  10253-3 0  9993
#TLE: 2 54234  98.7485 302.9615 0001242 351.7524   8.3631 14.19530907162956

#Time	Az	El	Level	Level2	SNR	BER	BlckErr	Temp	State	Recorded	gain1	gain2
2026-01-02 13:18:10.94	18.80	0.11	-49.3	-64.3	3.5	1.51e+00	0	36	0	0	60	58989
2026-01-02 13:18:11.94	18.85	0.17	-49.4	-62.3	3.5	1.52e+00	0	37	104	0	60	45769
2026-01-02 13:18:12.95	18.90	0.23	-49.4	-62.3	3.5	1.52e+00	0	37	104	0	60	45761
2026-01-02 13:18:13.96	18.94	0.28	-49.5	-62.4	3.5	1.52e+00	0	38	104	0	60	46037
2026-01-02 13:18:14.97	18.99	0.34	-49.5	-62.3	3.5	1.52e+00	0	38	104	0	60	45932
2026-01-02 13:18:15.98	19.04	0.39	-49.5	-62.3	3.5	1.52e+00	0	38	104	0	60	45929
2026-01-02 13:18:16.99	19.09	0.45	-49.5	-62.4	3.5	1.52e+00	0	38	104	0	60	46056
2026-01-02 13:18:18.00	19.13	0.51	-49.5	-62.3	3.5	1.52e+00	0	38	104	0	60	45869
2026-01-02 13:18:19.01	19.18	0.57	-49.5	-62.4	3.5	1.52e+00	0	38	104	0	60	46053
2026-01-02 13:18:20.02	19.23	0.62	-49.3	-62.3	3.5	1.52e+00	0	38	104	0	60	45510
2026-01-02 13:18:21.02	19.28	0.68	-49.3	-62.2	3.5	1.52e+00	0	38	104	0	60	45248
2026-01-02 13:18:22.03	19.33	0.74	-49.2	-62.1	3.5	1.52e+00	0	38	104	0	60	44555
2026-01-02 13:18:23.04	19.38	0.79	-49.1	-61.9	3.5	1.52e+00	0	38	104	0	60	43639
2026-01-02 13:18:24.05	19.42	0.85	-48.9	-61.7	3.5	1.52e+00	0	38	104	0	60	42812
2026-01-02 13:18:25.06	19.47	0.91	-48.7	-61.5	3.5	1.52e+00	0	38	104	0	60	41865
2026-01-02 13:18:26.07	19.52	0.97	-48.5	-61.3	3.5	1.52e+00	0	38	104	0	60	40590
2026-01-02 13:18:27.08	19.57	1.02	-48.1	-60.9	3.5	1.52e+00	0	38	104	0	60	38762
2026-01-02 13:18:28.09	19.62	1.08	-47.7	-60.4	3.5	1.52e+00	0	38	104	0	60	36867
2026-01-02 13:18:29.10	19.67	1.14	-47.7	-60.4	3.5	1.52e+00	0	38	104	0	60	36895
2026-01-02 13:18:30.11	19.72	1.20	-47.7	-60.5	3.5	1.51e+00	0	38	104	0	60	37077
2026-01-02 13:18:31.12	19.77	1.26	-47.7	-60.5	3.5	1.52e+00	0	38	104	0	60	37055
2026-01-02 13:18:32.13	19.82	1.31	-47.7	-60.5	3.5	1.52e+00	0	38	104	0	60	37116
2026-01-02 13:18:33.14	19.87	1.37	-47.7	-60.5	3.5	1.52e+00	0	38	104	0	60	37169
2026-01-02 13:18:34.15	19.92	1.43	-47.7	-60.5	3.5	1.52e+00	0	38	104	0	60	37017
2026-01-02 13:18:35.16	19.97	1.49	-47.7	-60.4	3.5	1.52e+00	0	38	104	0	60	36942
2026-01-02 13:18:36.17	20.03	1.55	-47.6	-60.5	3.5	1.52e+00	0	38	104	0	60	36975
2026-01-02 13:18:37.18	20.08	1.61	-47.7	-60.4	3.5	1.51e+00	0	38	104	0	60	36737
2026-01-02 13:18:38.19	20.13	1.67	-47.6	-60.4	3.5	1.52e+00	0	38	104	0	60	36620
2026-01-02 13:18:39.20	20.18	1.72	-47.6	-60.4	3.5	1.52e+00	0	38	104	0	60	36612
2026-01-02 13:18:40.21	20.23	1.78	-47.6	-60.4	3.5	1.51e+00	0	38	104	0	60	36623
2026-01-02 13:18:41.22	20.28	1.84	-47.6	-60.4	3.5	1.52e+00	0	38	104	0	60	36636
2026-01-02 13:18:42.23	20.34	1.90	-47.6	-60.3	3.5	1.52e+00	0	38	104	0	60	36477
2026-01-02 13:18:43.24	20.39	1.96	-47.6	-60.4	3.5	1.51e+00	0	38	104	0	60	36610
2026-01-02 13:18:44.25	20.44	2.02	-47.6	-60.4	3.5	1.52e+00	0	38	104	0	60	36708
2026-01-02 13:18:45.26	20.49	2.08	-47.6	-60.4	3.5	1.52e+00	0	38	104	0	60	36727
2026-01-02 13:18:46.27	20.55	2.14	-47.6	-60.5	3.5	1.52e+00	0	38	104	0	60	37076
2026-01-02 13:18:47.28	20.60	2.20	-47.6	-60.5	3.5	1.52e+00	0	38	104	0	60	37083
2026-01-02 13:18:48.29	20.65	2.26	-47.7	-60.5	3.5	1.51e+00	0	38	104	0	60	37078
2026-01-02 13:18:49.30	20.71	2.32	-47.6	-60.3	3.5	1.52e+00	0	38	104	0	60	36179
2026-01-02 13:18:50.31	20.76	2.38	-47.6	-59.7	3.5	1.51e+00	0	38	104	0	60	33974
2026-01-02 13:18:51.32	20.81	2.44	-47.5	-59.2	3.5	1.52e+00	0	38	104	0	60	32047
2026-01-02 13:18:52.33	20.87	2.50	-47.5	-58.7	3.5	1.51e+00	0	38	104	0	60	30319
2026-01-02 13:18:53.34	20.92	2.56	-47.5	-59.2	3.5	1.51e+00	0	38	104	0	60	32027
2026-01-02 13:18:54.35	20.98	2.62	-47.6	-60.0	3.5	1.51e+00	0	38	104	0	60	35146
2026-01-02 13:18:55.36	21.03	2.68	-47.6	-60.3	3.5	1.52e+00	0	38	104	0	60	36227
2026-01-02 13:18:56.37	21.09	2.74	-47.4	-57.7	3.6	1.51e+00	0	38	104	0	60	26810
2026-01-02 13:18:57.37	21.14	2.80	-46.6	-52.6	6.5	4.29e-01	120	38	0	0	60	15020
2026-01-02 13:18:58.38	21.20	2.86	-45.3	-49.0	10.5	9.30e-03	123	38	0	3145728	60	9921
2026-01-02 13:18:59.39	21.25	2.92	-43.9	-46.5	13.3	1.23e-04	122	38	0	6291456	60	7458
2026-01-02 13:19:00.40	21.31	2.99	-42.1	-44.1	15.7	0.00e+00	120	38	0	9437184	58	6289
2026-01-02 13:19:01.41	21.36	3.05	-40.5	-42.1	17.5	0.00e+00	122	38	0	12582912	54	6284
2026-01-02 13:19:02.42	21.42	3.11	-39.8	-41.3	18.2	0.00e+00	122	38	0	15728640	52	6433
2026-01-02 13:19:03.43	21.48	3.17	-39.2	-40.6	19.1	0.00e+00	122	38	0	18874368	52	5930
2026-01-02 13:19:04.44	21.53	3.23	-38.9	-40.2	19.3	0.00e+00	120	38	0	22020096	52	5685
2026-01-02 13:19:05.45	21.59	3.29	-39.9	-41.3	18.2	0.00e+00	122	38	0	25165824	52	6489
2026-01-02 13:19:06.46	21.65	3.36	-40.1	-41.6	18.0	0.00e+00	123	38	0	28311552	52	6651
2026-01-02 13:19:07.47	21.70	3.42	-41.2	-42.9	16.8	0.00e+00	122	38	0	31457280	54	6896
2026-01-02 13:19:08.47	21.76	3.48	-42.8	-45.0	14.5	0.00e+00	122	38	0	34603008	56	7869
2026-01-02 13:19:09.48	21.82	3.54	-41.3	-43.0	17.9	1.06e-05	122	38	0	37748736	58	5538
2026-01-02 13:19:10.49	21.88	3.60	-39.5	-40.9	18.7	0.00e+00	120	39	0	40894464	52	6138
2026-01-02 13:19:11.50	21.93	3.67	-40.8	-42.4	12.8	0.00e+00	123	38	0	44040192	52	7316
2026-01-02 13:19:12.51	21.99	3.73	-47.3	-57.4	3.7	1.52e+00	0	38	104	45088768	60	25915
2026-01-02 13:19:13.52	22.05	3.79	-39.9	-41.6	18.2	3.67e-04	122	39	104	45088768	54	5982
2026-01-02 13:19:14.53	22.11	3.86	-44.2	-46.9	13.4	2.18e-03	122	39	0	47185920	60	7801
2026-01-02 13:19:15.54	22.17	3.92	-42.6	-44.6	15.4	0.00e+00	123	38	0	50331648	58	6689
2026-01-02 13:19:16.55	22.23	3.98	-42.9	-45.0	15.1	0.00e+00	123	39	0	53477376	58	7000
2026-01-02 13:19:17.55	22.29	4.04	-43.2	-45.5	14.2	7.00e-07	122	39	0	57671680	58	7402
2026-01-02 13:19:18.56	22.35	4.11	-43.9	-46.5	14.0	3.00e-06	123	39	0	59768832	58	8281
2026-01-02 13:19:19.57	22.41	4.17	-43.4	-45.7	14.5	4.50e-06	123	39	0	62914560	60	6729
2026-01-02 13:19:20.58	22.47	4.23	-43.4	-45.8	14.4	1.50e-06	122	38	0	66060288	60	6805
2026-01-02 13:19:21.59	22.53	4.30	-42.2	-44.1	16.1	0.00e+00	123	38	0	69206016	58	6293
2026-01-02 13:19:22.60	22.59	4.36	-41.9	-43.8	16.9	0.00e+00	123	39	0	73400320	56	6811
2026-01-02 13:19:23.61	22.65	4.43	-41.4	-43.1	16.8	0.00e+00	122	39	0	76546048	56	6318
2026-01-02 13:19:24.62	22.71	4.49	-41.7	-43.5	16.6	0.00e+00	122	39	0	79691776	56	6610
2026-01-02 13:19:25.63	22.77	4.55	-41.8	-43.6	16.0	0.00e+00	123	39	0	81788928	56	6662
2026-01-02 13:19:26.64	22.83	4.62	-41.7	-43.4	16.8	0.00e+00	121	39	0	84934656	56	6545
2026-01-02 13:19:27.65	22.90	4.68	-42.3	-44.2	15.9	0.00e+00	123	39	0	88080384	56	7128
2026-01-02 13:19:28.66	22.96	4.75	-41.6	-43.3	16.9	0.00e+00	120	39	0	92274688	56	6468
2026-01-02 13:19:29.67	23.02	4.81	-41.6	-43.4	16.6	0.00e+00	123	39	0	95420416	56	6512
2026-01-02 13:19:30.68	23.08	4.88	-42.0	-43.8	16.6	0.00e+00	120	39	0	98566144	56	6846
2026-01-02 13:19:31.69	23.15	4.94	-41.9	-43.7	16.6	0.00e+00	122	39	0	101711872	56	6764
2026-01-02 13:19:32.70	23.21	5.01	-40.4	-41.9	18.2	0.00e+00	118	39	0	104857600	54	6154
2026-01-02 13:19:33.71	23.27	5.07	-39.4	-40.7	19.4	0.00e+00	123	39	0	108003328	52	6061
2026-01-02 13:19:34.72	23.34	5.14	-38.9	-40.2	19.8	0.00e+00	123	39	0	111149056	52	5671
2026-01-02 13:19:35.73	23.40	5.20	-39.5	-40.8	19.3	0.00e+00	122	39	0	114294784	52	6118
2026-01-02 13:19:36.73	23.46	5.27	-39.1	-40.4	19.6	0.00e+00	122	39	0	117440512	52	5817
2026-01-02 13:19:37.75	23.53	5.34	-39.3	-40.6	19.6	0.00e+00	123	39	0	120586240	52	5929
2026-01-02 13:19:38.76	23.59	5.40	-39.0	-40.2	19.7	0.00e+00	123	39	0	123731968	52	5715
2026-01-02 13:19:39.77	23.66	5.47	-39.2	-40.5	19.9	0.00e+00	122	39	0	126877696	52	5863
2026-01-02 13:19:40.78	23.73	5.53	-38.8	-40.0	19.9	0.00e+00	122	39	0	130023424	52	5552
2026-01-02 13:19:41.79	23.79	5.60	-38.8	-40.0	20.2	0.00e+00	123	39	0	133169152	52	5562
2026-01-02 13:19:42.80	23.86	5.67	-38.6	-39.8	20.1	0.00e+00	120	39	0	136314880	50	6108
2026-01-02 13:19:43.81	23.92	5.73	-38.7	-39.9	20.2	0.00e+00	122	39	0	139460608	50	6185
2026-01-02 13:19:44.82	23.99	5.80	-38.4	-39.6	20.4	0.00e+00	122	39	0	142606336	50	5977
2026-01-02 13:19:45.83	24.06	5.87	-38.4	-39.6	20.4	0.00e+00	123	39	0	145752064	50	5982
2026-01-02 13:19:46.84	24.12	5.94	-38.3	-39.5	20.5	0.00e+00	120	39	0	148897792	50	5876
2026-01-02 13:19:47.85	24.19	6.00	-38.7	-39.8	20.3	0.00e+00	123	39	0	152043520	50	6127
2026-01-02 13:19:48.86	24.26	6.07	-38.6	-39.8	20.3	0.00e+00	122	39	0	155189248	50	6109
2026-01-02 13:19:49.87	24.33	6.14	-38.5	-39.7	20.5	0.00e+00	122	39	0	158334976	50	6034
2026-01-02 13:19:50.88	24.39	6.21	-38.5	-39.7	20.4	0.00e+00	123	39	0	161480704	50	6033
2026-01-02 13:19:51.89	24.46	6.27	-38.7	-39.9	20.2	0.00e+00	123	39	0	164626432	50	6146
2026-01-02 13:19:52.90	24.53	6.34	-38.4	-39.6	20.5	0.00e+00	122	39	0	167772160	50	5979
2026-01-02 13:19:53.91	24.60	6.41	-38.6	-39.8	20.4	0.00e+00	122	39	0	170917888	50	6116
2026-01-02 13:19:54.92	24.67	6.48	-38.4	-39.6	20.5	0.00e+00	123	39	0	174063616	50	5976
2026-01-02 13:19:55.93	24.74	6.55	-38.3	-39.5	20.6	0.00e+00	123	39	0	177209344	50	5859
2026-01-02 13:19:56.94	24.81	6.61	-38.3	-39.5	20.7	0.00e+00	123	39	0	180355072	50	5871
2026-01-02 13:19:57.95	24.88	6.68	-38.2	-39.3	20.7	0.00e+00	123	39	0	183500800	50	5786
2026-01-02 13:19:58.96	24.95	6.75	-38.2	-39.3	20.8	0.00e+00	123	39	0	186646528	50	5782
2026-01-02 13:19:59.97	25.02	6.82	-38.2	-39.4	20.8	0.00e+00	123	39	0	189792256	50	5802
2026-01-02 13:20:00.98	25.09	6.89	-38.2	-39.4	20.7	0.00e+00	122	39	0	192937984	50	5804
2026-01-02 13:20:01.99	25.17	6.96	-38.2	-39.3	20.9	0.00e+00	123	39	0	196083712	50	5781
2026-01-02 13:20:02.99	25.24	7.03	-38.1	-39.2	21.0	0.00e+00	120	39	0	199229440	50	5695
2026-01-02 13:20:04.00	25.31	7.10	-37.9	-39.0	21.2	0.00e+00	122	39	0	202375168	50	5550
2026-01-02 13:20:05.01	25.38	7.17	-38.1	-39.2	21.0	0.00e+00	122	39	0	205520896	50	5677
2026-01-02 13:20:06.02	25.45	7.24	-37.9	-39.0	21.2	0.00e+00	122	39	0	208666624	50	5550
2026-01-02 13:20:07.03	25.53	7.31	-37.7	-38.8	21.3	0.00e+00	123	39	0	211812352	48	6082
2026-01-02 13:20:08.04	25.60	7.38	-37.7	-38.8	21.4	0.00e+00	123	39	0	214958080	48	6088
2026-01-02 13:20:09.05	25.67	7.45	-37.7	-38.8	21.3	0.00e+00	122	39	0	218103808	48	6092
2026-01-02 13:20:10.06	25.75	7.52	-37.8	-38.8	21.2	0.00e+00	122	39	0	221249536	48	6129
2026-01-02 13:20:11.07	25.82	7.59	-37.8	-38.9	21.2	0.00e+00	122	39	0	224395264	48	6202
2026-01-02 13:20:12.08	25.90	7.66	-37.8	-38.9	21.3	0.00e+00	123	39	0	227540992	48	6143
2026-01-02 13:20:13.09	25.97	7.73	-37.9	-39.0	21.1	0.00e+00	122	39	0	230686720	48	6243
2026-01-02 13:20:14.10	26.05	7.80	-37.6	-38.7	21.4	0.00e+00	122	39	0	233832448	48	6050
2026-01-02 13:20:15.11	26.12	7.88	-37.5	-38.6	21.6	0.00e+00	120	39	0	236978176	48	5965
2026-01-02 13:20:16.12	26.20	7.95	-37.6	-38.7	21.5	0.00e+00	118	39	0	240123904	48	6008
2026-01-02 13:20:17.13	26.28	8.02	-37.6	-38.6	21.6	0.00e+00	122	39	0	243269632	48	5990
2026-01-02 13:20:18.14	26.35	8.09	-37.5	-38.6	21.6	0.00e+00	122	39	0	246415360	48	5957
2026-01-02 13:20:19.15	26.43	8.16	-37.6	-38.7	21.5	0.00e+00	122	39	0	249561088	48	6024
2026-01-02 13:20:20.16	26.51	8.23	-37.4	-38.5	21.7	0.00e+00	123	39	0	252706816	48	5873
2026-01-02 13:20:21.17	26.59	8.31	-37.5	-38.5	21.7	0.00e+00	121	39	0	255852544	48	5895
2026-01-02 13:20:22.18	26.67	8.38	-37.5	-38.5	21.7	0.00e+00	123	39	0	258998272	48	5921
2026-01-02 13:20:23.19	26.74	8.45	-37.4	-38.4	21.8	0.00e+00	123	39	0	262144000	48	5847
2026-01-02 13:20:24.20	26.82	8.53	-37.3	-38.4	21.9	0.00e+00	123	39	0	265289728	48	5804
2026-01-02 13:20:25.21	26.90	8.60	-37.4	-38.4	21.8	0.00e+00	123	39	0	268435456	48	5837
2026-01-02 13:20:26.22	26.98	8.67	-37.4	-38.4	21.8	0.00e+00	123	39	0	271581184	48	5855
2026-01-02 13:20:27.23	27.06	8.74	-37.5	-38.5	21.7	0.00e+00	123	39	0	274726912	48	5915
2026-01-02 13:20:28.23	27.14	8.82	-37.2	-38.2	22.0	0.00e+00	120	39	0	277872640	48	5718
2026-01-02 13:20:29.25	27.22	8.89	-37.2	-38.3	22.0	0.00e+00	123	39	0	281018368	48	5729
2026-01-02 13:20:30.26	27.31	8.97	-37.2	-38.2	22.0	0.00e+00	123	39	0	284164096	48	5698
2026-01-02 13:20:31.27	27.39	9.04	-37.2	-38.3	21.9	0.00e+00	122	39	0	287309824	48	5752
2026-01-02 13:20:32.28	27.47	9.11	-37.1	-38.2	22.0	0.00e+00	122	39	0	290455552	48	5672
2026-01-02 13:20:33.29	27.55	9.19	-37.1	-38.1	22.2	0.00e+00	123	39	0	293601280	48	5632
2026-01-02 13:20:34.30	27.64	9.26	-37.0	-38.0	22.3	0.00e+00	123	39	0	296747008	48	5582
2026-01-02 13:20:35.31	27.72	9.34	-36.9	-37.9	22.3	0.00e+00	123	39	0	299892736	48	5508
2026-01-02 13:20:36.32	27.80	9.41	-36.9	-38.0	22.3	0.00e+00	120	39	0	303038464	48	5540
2026-01-02 13:20:37.33	27.89	9.49	-36.9	-38.0	22.2	0.00e+00	123	39	0	306184192	48	5540
2026-01-02 13:20:38.34	27.97	9.56	-36.9	-38.0	22.2	0.00e+00	123	39	0	309329920	48	5531
2026-01-02 13:20:39.35	28.06	9.64	-37.0	-38.0	22.2	0.00e+00	123	39	0	312475648	48	5564
2026-01-02 13:20:40.36	28.14	9.71	-36.8	-37.9	22.3	0.00e+00	120	39	0	315621376	48	5470
2026-01-02 13:20:41.37	28.23	9.79	-37.0	-38.1	22.2	0.00e+00	123	39	0	318767104	48	5600
2026-01-02 13:20:42.38	28.31	9.87	-36.8	-37.8	22.4	0.00e+00	120	39	0	321912832	48	5463
2026-01-02 13:20:43.39	28.40	9.94	-37.0	-38.0	22.2	0.00e+00	123	39	0	325058560	48	5567
2026-01-02 13:20:44.40	28.49	10.02	-37.1	-38.2	22.2	0.00e+00	122	39	0	328204288	48	5684
2026-01-02 13:20:45.41	28.58	10.10	-37.0	-38.1	22.2	0.00e+00	122	39	0	331350016	48	5599
2026-01-02 13:20:46.42	28.66	10.17	-36.9	-37.9	22.3	0.00e+00	123	39	0	334495744	48	5487
2026-01-02 13:20:47.43	28.75	10.25	-36.9	-37.9	22.3	0.00e+00	123	39	0	337641472	48	5503
2026-01-02 13:20:48.44	28.84	10.33	-36.9	-37.9	22.3	0.00e+00	122	39	0	340787200	48	5482
2026-01-02 13:20:49.45	28.93	10.40	-36.9	-38.0	22.3	0.00e+00	122	39	0	343932928	48	5541
2026-01-02 13:20:50.46	29.02	10.48	-36.8	-37.8	22.4	0.00e+00	120	39	0	347078656	48	5455
2026-01-02 13:20:51.47	29.11	10.56	-36.9	-37.9	22.3	0.00e+00	123	39	0	350224384	48	5490
2026-01-02 13:20:52.48	29.20	10.64	-36.8	-37.9	22.4	0.00e+00	122	39	0	353370112	48	5476
2026-01-02 13:20:53.49	29.29	10.71	-36.8	-37.8	22.4	0.00e+00	122	39	0	356515840	46	6072
2026-01-02 13:20:54.51	29.38	10.79	-37.0	-38.0	22.2	0.00e+00	123	39	0	359661568	46	6252
2026-01-02 13:20:55.52	29.48	10.87	-36.8	-37.8	22.5	0.00e+00	123	39	0	362807296	46	6090
2026-01-02 13:20:56.53	29.57	10.95	-36.8	-37.8	22.5	0.00e+00	123	39	0	365953024	46	6119
2026-01-02 13:20:57.54	29.66	11.03	-36.5	-37.5	22.6	0.00e+00	122	39	0	369098752	46	5915
2026-01-02 13:20:58.55	29.76	11.11	-36.5	-37.5	22.7	0.00e+00	123	39	0	372244480	46	5921
2026-01-02 13:20:59.56	29.85	11.19	-36.4	-37.4	22.7	0.00e+00	122	39	0	375390208	46	5851
2026-01-02 13:21:00.57	29.94	11.27	-36.5	-37.5	22.8	0.00e+00	120	39	0	378535936	46	5890
2026-01-02 13:21:01.58	30.04	11.35	-36.5	-37.5	22.7	0.00e+00	123	39	0	381681664	46	5896
2026-01-02 13:21:02.59	30.13	11.43	-36.7	-37.7	22.7	0.00e+00	121	39	0	384827392	46	6017
2026-01-02 13:21:03.60	30.23	11.51	-36.5	-37.5	22.8	0.00e+00	122	39	0	389021696	46	5875
2026-01-02 13:21:04.61	30.33	11.59	-36.5	-37.5	22.8	0.00e+00	120	39	0	392167424	46	5866
2026-01-02 13:21:05.62	30.42	11.67	-36.7	-37.7	22.6	0.00e+00	122	39	0	395313152	46	6019
2026-01-02 13:21:06.63	30.52	11.75	-36.4	-37.4	22.8	0.00e+00	120	39	0	398458880	46	5854
2026-01-02 13:21:07.64	30.62	11.83	-36.6	-37.6	22.6	0.00e+00	122	39	0	400556032	46	5960
2026-01-02 13:21:08.65	30.72	11.91	-36.2	-37.2	23.0	0.00e+00	120	39	0	404750336	46	5716
2026-01-02 13:21:09.66	30.82	11.99	-36.3	-37.3	22.9	0.00e+00	122	39	0	407896064	46	5771
2026-01-02 13:21:10.67	30.92	12.07	-36.4	-37.4	22.8	0.00e+00	123	39	0	411041792	46	5794
2026-01-02 13:21:11.68	31.02	12.15	-36.3	-37.3	22.9	0.00e+00	123	39	0	414187520	46	5770
2026-01-02 13:21:12.69	31.12	12.23	-36.3	-37.2	23.0	0.00e+00	121	39	0	417333248	46	5710
2026-01-02 13:21:13.70	31.22	12.32	-36.2	-37.2	23.0	0.00e+00	123	39	0	420478976	46	5693
2026-01-02 13:21:14.71	31.32	12.40	-36.3	-37.2	23.0	0.00e+00	123	39	0	423624704	46	5721
2026-01-02 13:21:15.72	31.42	12.48	-36.2	-37.2	23.1	0.00e+00	122	39	0	426770432	46	5663
2026-01-02 13:21:16.73	31.52	12.56	-36.2	-37.2	23.1	0.00e+00	122	39	0	429916160	46	5662
2026-01-02 13:21:17.74	31.63	12.65	-36.1	-37.1	23.0	0.00e+00	123	39	0	433061888	46	5617
2026-01-02 13:21:18.75	31.73	12.73	-36.1	-37.1	23.1	0.00e+00	123	39	0	436207616	46	5633
2026-01-02 13:21:19.76	31.83	12.81	-36.1	-37.1	23.1	0.00e+00	123	39	0	439353344	46	5617
2026-01-02 13:21:20.76	31.94	12.89	-35.9	-36.9	23.3	0.00e+00	120	39	0	442499072	46	5475
2026-01-02 13:21:21.78	32.04	12.98	-35.9	-36.8	23.3	0.00e+00	123	39	0	445644800	46	5454
2026-01-02 13:21:22.78	32.15	13.06	-35.8	-36.7	23.4	0.00e+00	122	39	0	448790528	46	5391
2026-01-02 13:21:23.79	32.26	13.14	-35.9	-36.8	23.4	0.00e+00	123	39	0	451936256	46	5443
2026-01-02 13:21:24.80	32.36	13.23	-35.9	-36.9	23.3	0.00e+00	120	39	0	455081984	46	5478
2026-01-02 13:21:25.81	32.47	13.31	-35.8	-36.8	23.4	0.00e+00	123	39	0	458227712	46	5413
2026-01-02 13:21:26.82	32.58	13.40	-36.0	-36.9	23.4	0.00e+00	120	39	0	461373440	46	5499
2026-01-02 13:21:27.83	32.69	13.48	-35.9	-36.8	23.4	0.00e+00	122	39	0	464519168	46	5456
2026-01-02 13:21:28.84	32.80	13.57	-35.9	-36.8	23.5	0.00e+00	123	39	0	467664896	46	5446
2026-01-02 13:21:29.85	32.91	13.65	-35.9	-36.9	23.4	0.00e+00	123	39	0	470810624	46	5503
2026-01-02 13:21:30.86	33.02	13.74	-35.9	-36.8	23.4	0.00e+00	120	39	0	473956352	46	5448
2026-01-02 13:21:31.87	33.13	13.82	-35.9	-36.8	23.5	0.00e+00	123	39	0	477102080	46	5437
2026-01-02 13:21:32.88	33.24	13.91	-35.9	-36.9	23.4	0.00e+00	122	39	0	480247808	46	5473
2026-01-02 13:21:33.89	33.35	14.00	-35.9	-36.9	23.4	0.00e+00	123	39	0	483393536	46	5482
2026-01-02 13:21:34.90	33.47	14.08	-36.0	-36.9	23.4	0.00e+00	120	39	0	486539264	46	5511
2026-01-02 13:21:35.91	33.58	14.17	-35.8	-36.7	23.5	0.00e+00	122	39	0	489684992	46	5387
2026-01-02 13:21:36.92	33.70	14.25	-35.9	-36.8	23.5	0.00e+00	120	39	0	492830720	46	5455
2026-01-02 13:21:37.93	33.81	14.34	-35.8	-36.8	23.5	0.00e+00	123	39	0	495976448	46	5420
2026-01-02 13:21:38.94	33.93	14.43	-36.0	-36.9	23.4	0.00e+00	123	39	0	499122176	46	5513
2026-01-02 13:21:39.95	34.04	14.52	-35.9	-36.8	23.5	0.00e+00	122	39	0	502267904	46	5458
2026-01-02 13:21:40.95	34.16	14.60	-35.9	-36.9	23.4	0.00e+00	120	39	0	505413632	46	5481
2026-01-02 13:21:41.96	34.28	14.69	-35.9	-36.8	23.4	0.00e+00	123	39	0	508559360	46	5448
2026-01-02 13:21:42.97	34.40	14.78	-35.8	-36.8	23.5	0.00e+00	121	39	0	511705088	46	5428
2026-01-02 13:21:43.98	34.51	14.87	-35.8	-36.8	23.5	0.00e+00	122	39	0	514850816	46	5433
2026-01-02 13:21:44.99	34.63	14.95	-35.8	-36.8	23.5	0.00e+00	123	39	0	517996544	46	5405
2026-01-02 13:21:46.00	34.75	15.04	-36.0	-36.9	23.4	0.00e+00	122	39	0	521142272	46	5503
2026-01-02 13:21:47.01	34.88	15.13	-36.0	-36.9	23.4	0.00e+00	120	39	0	524288000	46	5511
2026-01-02 13:21:48.02	35.00	15.22	-36.0	-37.0	23.4	0.00e+00	123	39	0	527433728	46	5531
2026-01-02 13:21:49.03	35.12	15.31	-36.0	-37.0	23.4	0.00e+00	122	39	0	530579456	46	5533
2026-01-02 13:21:50.04	35.24	15.40	-35.8	-36.7	23.5	0.00e+00	123	39	0	533725184	46	5395
2026-01-02 13:21:51.05	35.37	15.49	-35.8	-36.8	23.5	0.00e+00	123	39	0	536870912	46	5409
2026-01-02 13:21:52.06	35.49	15.58	-35.8	-36.7	23.6	0.00e+00	120	39	0	540016640	46	5396
2026-01-02 13:21:53.07	35.62	15.67	-35.6	-36.6	23.7	0.00e+00	122	39	0	543162368	44	5938
2026-01-02 13:21:54.08	35.74	15.76	-35.8	-36.8	23.5	0.00e+00	122	39	0	546308096	44	6088
2026-01-02 13:21:55.09	35.87	15.85	-35.8	-36.8	23.5	0.00e+00	123	39	0	549453824	44	6073
2026-01-02 13:21:56.10	36.00	15.94	-35.9	-36.8	23.5	0.00e+00	123	39	0	552599552	44	6099
2026-01-02 13:21:57.11	36.13	16.03	-35.9	-36.8	23.5	0.00e+00	122	39	0	555745280	44	6123
2026-01-02 13:21:58.12	36.26	16.12	-35.9	-36.8	23.4	0.00e+00	122	39	0	558891008	44	6106
2026-01-02 13:21:59.13	36.38	16.21	-35.9	-36.9	23.4	0.00e+00	120	39	0	562036736	44	6138
2026-01-02 13:22:00.14	36.52	16.30	-36.0	-37.0	23.3	0.00e+00	123	39	0	565182464	44	6231
2026-01-02 13:22:01.15	36.65	16.39	-35.9	-36.8	23.4	0.00e+00	120	39	0	568328192	44	6118
2026-01-02 13:22:02.16	36.78	16.49	-35.9	-36.9	23.4	0.00e+00	123	39	0	571473920	44	6136
2026-01-02 13:22:03.17	36.91	16.58	-35.8	-36.8	23.5	0.00e+00	123	39	0	574619648	44	6090
2026-01-02 13:22:04.18	37.05	16.67	-36.0	-37.0	23.4	0.00e+00	123	39	0	577765376	44	6220
2026-01-02 13:22:05.19	37.18	16.76	-36.0	-37.0	23.4	0.00e+00	120	39	0	580911104	44	6233
2026-01-02 13:22:06.21	37.32	16.86	-36.0	-36.9	23.4	0.00e+00	122	39	0	584056832	44	6204
2026-01-02 13:22:07.22	37.45	16.95	-36.0	-36.9	23.4	0.00e+00	120	39	0	587202560	44	6186
2026-01-02 13:22:08.23	37.59	17.04	-36.0	-37.0	23.4	0.00e+00	122	39	0	590348288	44	6239
2026-01-02 13:22:09.23	37.73	17.13	-36.0	-36.9	23.5	0.00e+00	120	39	0	593494016	44	6200
2026-01-02 13:22:10.24	37.86	17.23	-35.8	-36.8	23.5	0.00e+00	123	39	0	596639744	44	6097
2026-01-02 13:22:11.25	38.00	17.32	-35.9	-36.8	23.5	0.00e+00	123	39	0	599785472	44	6134
2026-01-02 13:22:12.26	38.14	17.41	-36.1	-37.1	23.4	0.00e+00	123	39	0	602931200	44	6286
2026-01-02 13:22:13.27	38.29	17.51	-35.9	-36.9	23.5	0.00e+00	123	39	0	606076928	44	6167
2026-01-02 13:22:14.28	38.43	17.60	-36.0	-36.9	23.4	0.00e+00	123	39	0	609222656	44	6190
2026-01-02 13:22:15.29	38.57	17.70	-36.0	-36.9	23.4	0.00e+00	120	39	0	612368384	44	6176
2026-01-02 13:22:16.30	38.71	17.79	-35.9	-36.9	23.5	0.00e+00	123	39	0	615514112	44	6178
2026-01-02 13:22:17.31	38.86	17.89	-36.0	-37.0	23.4	0.00e+00	122	39	0	618659840	44	6210
2026-01-02 13:22:18.32	39.00	17.98	-35.9	-36.9	23.5	0.00e+00	122	39	0	621805568	44	6168
2026-01-02 13:22:19.33	39.15	18.08	-35.9	-36.8	23.5	0.00e+00	123	39	0	624951296	44	6114
2026-01-02 13:22:20.34	39.30	18.17	-36.0	-37.0	23.4	0.00e+00	122	39	0	628097024	44	6215
2026-01-02 13:22:21.35	39.44	18.27	-35.8	-36.8	23.6	0.00e+00	122	39	0	631242752	44	6072
2026-01-02 13:22:22.36	39.59	18.36	-35.9	-36.9	23.5	0.00e+00	122	39	0	634388480	44	6161
2026-01-02 13:22:23.37	39.74	18.46	-35.7	-36.6	23.7	0.00e+00	122	39	0	637534208	44	5971
2026-01-02 13:22:24.38	39.89	18.56	-35.7	-36.7	23.7	0.00e+00	123	39	0	640679936	44	6016
2026-01-02 13:22:25.39	40.05	18.65	-35.8	-36.7	23.6	0.00e+00	122	39	0	643825664	44	6064
2026-01-02 13:22:26.40	40.20	18.75	-35.8	-36.7	23.6	0.00e+00	120	39	0	646971392	44	6052
2026-01-02 13:22:27.41	40.35	18.84	-36.0	-37.0	23.5	0.00e+00	123	39	0	650117120	44	6219
2026-01-02 13:22:28.42	40.51	18.94	-35.8	-36.7	23.6	0.00e+00	123	39	0	653262848	44	6063
2026-01-02 13:22:29.42	40.66	19.04	-35.7	-36.7	23.6	0.00e+00	123	39	0	656408576	44	6009
2026-01-02 13:22:30.43	40.82	19.13	-35.4	-36.4	23.9	0.00e+00	123	39	0	659554304	44	5796
2026-01-02 13:22:31.44	40.97	19.23	-35.5	-36.4	23.9	0.00e+00	123	39	0	662700032	44	5841
2026-01-02 13:22:32.45	41.13	19.33	-35.4	-36.3	24.0	0.00e+00	122	39	0	665845760	44	5737
2026-01-02 13:22:33.46	41.29	19.43	-35.4	-36.3	24.0	0.00e+00	122	39	0	668991488	44	5769
2026-01-02 13:22:34.47	41.45	19.53	-35.2	-36.1	24.1	0.00e+00	123	39	0	672137216	44	5624
2026-01-02 13:22:35.48	41.61	19.62	-35.2	-36.1	24.1	0.00e+00	123	39	0	675282944	44	5640
2026-01-02 13:22:36.49	41.78	19.72	-35.3	-36.2	24.0	0.00e+00	120	39	0	678428672	44	5694
2026-01-02 13:22:37.50	41.94	19.82	-35.4	-36.3	24.0	0.00e+00	122	39	0	681574400	44	5769
2026-01-02 13:22:38.51	42.10	19.92	-35.5	-36.4	23.9	0.00e+00	120	39	0	684720128	44	5805
2026-01-02 13:22:39.52	42.27	20.02	-35.2	-36.1	24.1	0.00e+00	122	39	0	687865856	44	5636
2026-01-02 13:22:40.53	42.44	20.12	-35.3	-36.2	24.1	0.00e+00	123	39	0	691011584	44	5718
2026-01-02 13:22:41.54	42.60	20.22	-35.1	-36.0	24.2	0.00e+00	120	39	0	694157312	44	5594
2026-01-02 13:22:42.55	42.77	20.32	-35.2	-36.1	24.1	0.00e+00	123	39	0	697303040	44	5659
2026-01-02 13:22:43.56	42.94	20.41	-35.2	-36.1	24.1	0.00e+00	120	39	0	700448768	44	5615
2026-01-02 13:22:44.57	43.11	20.51	-35.1	-36.1	24.2	0.00e+00	123	39	0	703594496	44	5599
2026-01-02 13:22:45.57	43.28	20.61	-35.0	-35.9	24.4	0.00e+00	122	39	0	706740224	44	5496
2026-01-02 13:22:46.58	43.45	20.71	-35.1	-36.0	24.2	0.00e+00	122	39	0	709885952	44	5577
2026-01-02 13:22:47.59	43.63	20.81	-35.0	-36.0	24.3	0.00e+00	122	39	0	713031680	44	5533
2026-01-02 13:22:48.60	43.80	20.91	-35.1	-36.0	24.2	0.00e+00	122	39	0	716177408	44	5582
2026-01-02 13:22:49.61	43.98	21.01	-35.1	-36.1	24.2	0.00e+00	123	39	0	719323136	44	5605
2026-01-02 13:22:50.62	44.16	21.11	-35.1	-36.0	24.4	0.00e+00	120	39	0	722468864	44	5552
2026-01-02 13:22:51.63	44.34	21.21	-35.0	-35.9	24.3	0.00e+00	123	39	0	725614592	44	5479
2026-01-02 13:22:52.64	44.52	21.31	-35.1	-36.0	24.3	0.00e+00	122	39	0	728760320	44	5546
2026-01-02 13:22:53.65	44.70	21.42	-35.2	-36.1	24.1	0.00e+00	120	39	0	731906048	44	5645
2026-01-02 13:22:54.66	44.88	21.52	-34.9	-35.8	24.4	0.00e+00	123	39	0	736100352	44	5467
2026-01-02 13:22:55.67	45.06	21.62	-34.9	-35.8	24.4	0.00e+00	120	39	0	739246080	44	5432
2026-01-02 13:22:56.68	45.24	21.72	-34.9	-35.8	24.3	0.00e+00	123	39	0	741343232	44	5457
2026-01-02 13:22:57.69	45.43	21.82	-34.8	-35.7	24.5	0.00e+00	121	39	0	744488960	44	5352
2026-01-02 13:22:58.70	45.62	21.92	-34.8	-35.7	24.5	0.00e+00	122	39	0	747634688	42	6044
2026-01-02 13:22:59.71	45.80	22.02	-34.8	-35.7	24.5	0.00e+00	123	39	0	751828992	42	6034
2026-01-02 13:23:00.72	45.99	22.12	-34.9	-35.8	24.4	0.00e+00	122	39	0	754974720	42	6125
2026-01-02 13:23:01.73	46.18	22.23	-35.0	-35.9	24.3	0.00e+00	121	39	0	758120448	42	6163
2026-01-02 13:23:02.73	46.37	22.33	-35.1	-36.0	24.2	0.00e+00	123	39	0	761266176	42	6222
2026-01-02 13:23:03.74	46.57	22.43	-34.9	-35.8	24.4	0.00e+00	120	39	0	763363328	42	6086
2026-01-02 13:23:04.75	46.76	22.53	-34.8	-35.7	24.3	0.00e+00	121	39	0	767557632	42	6060
2026-01-02 13:23:05.77	46.96	22.63	-34.9	-35.8	24.3	0.00e+00	122	39	0	770703360	42	6083
2026-01-02 13:23:06.77	47.15	22.73	-34.7	-35.6	24.5	0.00e+00	122	39	0	773849088	42	5962
2026-01-02 13:23:07.78	47.35	22.84	-34.8	-35.7	24.5	0.00e+00	120	39	0	776994816	42	6005
2026-01-02 13:23:08.79	47.55	22.94	-34.9	-35.8	24.4	0.00e+00	123	39	0	780140544	42	6090
2026-01-02 13:23:09.80	47.75	23.04	-34.9	-35.8	24.5	0.00e+00	121	39	0	783286272	42	6098
2026-01-02 13:23:10.81	47.95	23.14	-34.9	-35.8	24.4	0.00e+00	123	39	0	786432000	42	6084
2026-01-02 13:23:11.82	48.15	23.25	-35.0	-35.9	24.3	0.00e+00	122	39	0	789577728	42	6197
2026-01-02 13:23:12.83	48.35	23.35	-35.0	-35.8	24.4	0.00e+00	123	39	0	792723456	42	6132
2026-01-02 13:23:13.84	48.56	23.45	-35.0	-35.9	24.3	0.00e+00	120	39	0	795869184	42	6165
2026-01-02 13:23:14.85	48.77	23.55	-34.7	-35.6	24.7	0.00e+00	123	39	0	799014912	42	5938
2026-01-02 13:23:15.86	48.97	23.66	-34.7	-35.6	24.6	0.00e+00	123	39	0	802160640	42	5939
2026-01-02 13:23:16.87	49.18	23.76	-34.7	-35.5	24.7	0.00e+00	122	39	0	805306368	42	5926
2026-01-02 13:23:17.88	49.39	23.86	-34.8	-35.7	24.6	0.00e+00	120	39	0	808452096	42	6024
2026-01-02 13:23:18.89	49.61	23.96	-34.7	-35.6	24.6	0.00e+00	122	39	0	811597824	42	5971
2026-01-02 13:23:19.90	49.82	24.07	-34.8	-35.7	24.6	0.00e+00	123	39	0	814743552	42	6024
2026-01-02 13:23:20.91	50.03	24.17	-34.7	-35.6	24.6	0.00e+00	122	39	0	817889280	42	5961
2026-01-02 13:23:21.92	50.25	24.27	-34.9	-35.7	24.5	0.00e+00	123	39	0	821035008	42	6057
2026-01-02 13:23:22.93	50.47	24.37	-34.9	-35.8	24.5	0.00e+00	122	39	0	824180736	42	6107
2026-01-02 13:23:23.94	50.69	24.48	-34.9	-35.8	24.5	0.00e+00	122	39	0	827326464	42	6097
2026-01-02 13:23:24.95	50.91	24.58	-35.0	-35.9	24.4	0.00e+00	123	39	0	830472192	42	6184
2026-01-02 13:23:25.96	51.13	24.68	-35.1	-36.0	24.3	0.00e+00	123	39	0	833617920	42	6244
2026-01-02 13:23:26.97	51.35	24.78	-35.3	-36.2	24.2	0.00e+00	122	39	0	836763648	42	6380
2026-01-02 13:23:27.98	51.57	24.89	-35.4	-36.3	24.2	0.00e+00	123	39	0	839909376	42	6449
2026-01-02 13:23:28.98	51.80	24.99	-35.3	-36.2	24.2	0.00e+00	122	39	0	843055104	42	6370
2026-01-02 13:23:29.99	52.03	25.09	-35.4	-36.3	24.1	0.00e+00	122	39	0	846200832	42	6465
2026-01-02 13:23:31.00	52.25	25.19	-35.5	-36.4	24.1	0.00e+00	120	39	0	849346560	42	6519
2026-01-02 13:23:32.01	52.48	25.29	-35.3	-36.1	24.2	0.00e+00	122	39	0	852492288	42	6350
2026-01-02 13:23:33.02	52.72	25.40	-35.1	-36.0	24.3	0.00e+00	123	39	0	855638016	42	6265
2026-01-02 13:23:34.04	52.95	25.50	-35.1	-36.0	24.4	0.00e+00	123	39	0	858783744	42	6245
2026-01-02 13:23:35.05	53.19	25.60	-35.1	-36.0	24.4	0.00e+00	123	39	0	861929472	42	6249
2026-01-02 13:23:36.06	53.42	25.70	-35.0	-35.9	24.4	0.00e+00	120	39	0	865075200	42	6157
2026-01-02 13:23:37.06	53.66	25.80	-35.0	-35.9	24.4	0.00e+00	122	39	0	868220928	42	6164
2026-01-02 13:23:38.07	53.90	25.90	-35.0	-35.9	24.4	0.00e+00	123	39	0	871366656	42	6198
2026-01-02 13:23:39.08	54.14	26.01	-34.8	-35.7	24.5	0.00e+00	120	39	0	874512384	42	6031
2026-01-02 13:23:40.09	54.38	26.11	-34.9	-35.8	24.6	0.00e+00	123	39	0	877658112	42	6068
2026-01-02 13:23:41.10	54.62	26.21	-35.0	-35.9	24.4	0.00e+00	122	39	0	880803840	42	6143
2026-01-02 13:23:42.11	54.87	26.31	-35.1	-36.0	24.4	0.00e+00	122	39	0	883949568	42	6272
2026-01-02 13:23:43.12	55.11	26.41	-35.3	-36.2	24.3	0.00e+00	123	39	0	887095296	42	6366
2026-01-02 13:23:44.13	55.36	26.51	-35.4	-36.3	24.2	0.00e+00	123	39	0	890241024	42	6436
2026-01-02 13:23:45.14	55.61	26.61	-35.2	-36.1	24.2	0.00e+00	120	39	0	893386752	42	6327
2026-01-02 13:23:46.15	55.86	26.71	-35.2	-36.1	24.3	0.00e+00	123	39	0	896532480	42	6324
2026-01-02 13:23:47.16	56.12	26.81	-35.3	-36.2	24.2	0.00e+00	120	39	0	899678208	42	6365
2026-01-02 13:23:48.17	56.37	26.91	-35.2	-36.1	24.3	0.00e+00	123	39	0	902823936	42	6279
2026-01-02 13:23:49.18	56.63	27.01	-35.1	-36.0	24.4	0.00e+00	122	39	0	905969664	42	6244
2026-01-02 13:23:50.18	56.88	27.11	-35.2	-36.0	24.3	0.00e+00	123	39	0	909115392	42	6271
2026-01-02 13:23:51.20	57.14	27.21	-35.1	-36.0	24.3	0.00e+00	122	39	0	912261120	42	6264
2026-01-02 13:23:52.21	57.40	27.31	-35.1	-36.0	24.3	0.00e+00	123	40	0	915406848	42	6260
2026-01-02 13:23:53.22	57.67	27.41	-35.1	-36.0	24.2	0.00e+00	123	39	0	918552576	42	6265
2026-01-02 13:23:54.22	57.93	27.50	-35.1	-36.0	24.3	0.00e+00	122	40	0	921698304	42	6240
2026-01-02 13:23:55.24	58.20	27.60	-35.2	-36.1	24.3	0.00e+00	122	39	0	924844032	42	6315
2026-01-02 13:23:56.25	58.46	27.70	-35.3	-36.2	24.1	0.00e+00	123	39	0	927989760	42	6395
2026-01-02 13:23:57.26	58.73	27.80	-35.5	-36.4	24.0	0.00e+00	123	39	0	931135488	42	6570
2026-01-02 13:23:58.27	59.00	27.89	-35.7	-36.6	23.9	0.00e+00	122	40	0	934281216	42	6686
2026-01-02 13:23:59.28	59.27	27.99	-35.8	-36.8	23.8	0.00e+00	123	39	0	937426944	44	6092
2026-01-02 13:24:00.29	59.55	28.09	-35.8	-36.8	23.7	0.00e+00	122	39	0	940572672	44	6095
2026-01-02 13:24:01.30	59.82	28.18	-35.9	-36.8	23.8	0.00e+00	120	39	0	943718400	44	6127
2026-01-02 13:24:02.31	60.10	28.28	-35.6	-36.6	23.9	0.00e+00	123	39	0	946864128	44	5936
2026-01-02 13:24:03.32	60.38	28.37	-35.6	-36.5	24.0	0.00e+00	123	39	0	950009856	44	5889
2026-01-02 13:24:04.33	60.66	28.47	-35.7	-36.7	23.9	0.00e+00	123	39	0	953155584	44	6023
2026-01-02 13:24:05.34	60.94	28.56	-35.7	-36.7	23.8	0.00e+00	120	39	0	956301312	44	5996
2026-01-02 13:24:06.35	61.22	28.66	-35.4	-36.4	24.0	0.00e+00	122	40	0	959447040	44	5808
2026-01-02 13:24:07.35	61.50	28.75	-35.6	-36.5	24.0	0.00e+00	122	39	0	962592768	44	5907
2026-01-02 13:24:08.37	61.79	28.84	-35.4	-36.3	24.1	0.00e+00	123	40	0	965738496	44	5744
2026-01-02 13:24:09.38	62.08	28.94	-35.4	-36.3	24.1	0.00e+00	120	39	0	968884224	44	5739
2026-01-02 13:24:10.39	62.37	29.03	-35.3	-36.3	24.1	0.00e+00	120	39	0	972029952	44	5729
2026-01-02 13:24:11.40	62.66	29.12	-35.2	-36.2	24.2	0.00e+00	120	40	0	975175680	44	5661
2026-01-02 13:24:12.41	62.96	29.21	-35.1	-36.0	24.3	0.00e+00	123	39	0	978321408	44	5589
2026-01-02 13:24:13.42	63.25	29.30	-35.1	-36.0	24.4	0.00e+00	123	40	0	981467136	44	5536
2026-01-02 13:24:14.43	63.55	29.39	-35.2	-36.0	24.2	0.00e+00	122	40	0	984612864	44	5591
2026-01-02 13:24:15.44	63.85	29.48	-35.2	-36.1	24.2	0.00e+00	122	40	0	987758592	44	5643
2026-01-02 13:24:16.45	64.15	29.57	-35.4	-36.3	24.2	0.00e+00	121	40	0	990904320	44	5731
2026-01-02 13:24:17.45	64.44	29.66	-35.2	-36.1	24.3	0.00e+00	123	39	0	994050048	44	5602
2026-01-02 13:24:18.46	64.75	29.75	-35.0	-35.9	24.4	0.00e+00	120	39	0	997195776	44	5510
2026-01-02 13:24:19.47	65.05	29.84	-35.0	-35.9	24.4	0.00e+00	122	39	0	1000341504	44	5516
2026-01-02 13:24:20.48	65.36	29.92	-35.0	-35.9	24.4	0.00e+00	122	39	0	1003487232	44	5508
2026-01-02 13:24:21.49	65.66	30.01	-35.1	-36.0	24.4	0.00e+00	121	39	0	1006632960	44	5536
2026-01-02 13:24:22.50	65.97	30.10	-35.1	-36.0	24.3	0.00e+00	123	39	0	1009778688	44	5566
2026-01-02 13:24:23.51	66.29	30.18	-35.1	-36.0	24.3	0.00e+00	123	39	0	1012924416	44	5587
2026-01-02 13:24:24.52	66.60	30.26	-35.3	-36.2	24.1	0.00e+00	123	39	0	1016070144	44	5710
2026-01-02 13:24:25.53	66.91	30.35	-35.5	-36.4	24.0	0.00e+00	122	39	0	1019215872	44	5817
2026-01-02 13:24:26.54	67.23	30.43	-35.6	-36.5	24.0	0.00e+00	121	39	0	1022361600	44	5903
2026-01-02 13:24:27.55	67.55	30.51	-35.4	-36.3	24.1	0.00e+00	120	39	0	1025507328	44	5738
2026-01-02 13:24:28.56	67.86	30.59	-35.3	-36.2	24.2	0.00e+00	122	39	0	1028653056	44	5702
2026-01-02 13:24:29.56	68.18	30.67	-35.3	-36.2	24.2	0.00e+00	121	39	0	1031798784	44	5700
2026-01-02 13:24:30.58	68.51	30.76	-35.3	-36.2	24.1	0.00e+00	123	40	0	1034944512	44	5689
2026-01-02 13:24:31.58	68.83	30.83	-35.3	-36.3	24.2	0.00e+00	120	40	0	1038090240	44	5741
2026-01-02 13:24:32.59	69.15	30.91	-35.5	-36.4	24.0	0.00e+00	123	40	0	1041235968	44	5849
2026-01-02 13:24:33.61	69.48	30.99	-35.6	-36.6	23.9	0.00e+00	120	40	0	1044381696	44	5938
2026-01-02 13:24:34.62	69.81	31.07	-35.8	-36.8	23.7	0.00e+00	122	39	0	1047527424	44	6066
2026-01-02 13:24:35.62	70.14	31.14	-35.7	-36.6	23.9	0.00e+00	122	39	0	1050673152	44	5986
2026-01-02 13:24:36.63	70.47	31.22	-35.5	-36.4	24.1	0.00e+00	122	39	0	1053818880	44	5853
2026-01-02 13:24:37.64	70.80	31.29	-35.3	-36.2	24.3	0.00e+00	123	39	0	1056964608	44	5698
2026-01-02 13:24:38.66	71.14	31.37	-35.4	-36.3	24.0	0.00e+00	122	39	0	1060110336	44	5771
2026-01-02 13:24:39.66	71.47	31.44	-35.6	-36.5	24.0	0.00e+00	123	39	0	1063256064	44	5887
2026-01-02 13:24:40.68	71.81	31.51	-35.9	-36.8	23.8	0.00e+00	123	40	0	1066401792	44	6124
2026-01-02 13:24:41.69	72.15	31.58	-36.0	-36.9	23.7	0.00e+00	123	40	0	1069547520	44	6188
2026-01-02 13:24:42.70	72.49	31.65	-36.0	-36.9	23.7	0.00e+00	122	40	0	1072693248	44	6179
2026-01-02 13:24:43.71	72.84	31.72	-36.0	-36.9	23.6	0.00e+00	123	39	0	1076887552	44	6174
2026-01-02 13:24:44.72	73.18	31.79	-35.9	-36.9	23.7	0.00e+00	123	39	0	1080033280	44	6141
2026-01-02 13:24:45.72	73.52	31.86	-35.9	-36.9	23.4	0.00e+00	123	40	0	1082130432	44	6170
2026-01-02 13:24:46.74	73.87	31.92	-36.1	-37.0	23.2	0.00e+00	122	39	0	1085276160	44	6262
2026-01-02 13:24:47.74	74.21	31.99	-36.2	-37.2	23.2	0.00e+00	123	39	0	1088421888	44	6374
2026-01-02 13:24:48.76	74.57	32.05	-36.3	-37.3	23.4	0.00e+00	123	40	0	1092616192	44	6441
2026-01-02 13:24:49.77	74.92	32.12	-36.0	-36.9	23.7	0.00e+00	123	40	0	1095761920	44	6181
2026-01-02 13:24:50.78	75.27	32.18	-35.8	-36.7	23.8	0.00e+00	120	40	0	1098907648	44	6004
2026-01-02 13:24:51.79	75.62	32.24	-35.9	-36.8	23.7	0.00e+00	122	40	0	1102053376	44	6110
2026-01-02 13:24:52.79	75.97	32.30	-35.6	-36.5	23.9	0.00e+00	123	39	0	1104150528	44	5886
2026-01-02 13:24:53.81	76.33	32.36	-35.7	-36.6	23.9	0.00e+00	123	39	0	1108344832	44	5976
2026-01-02 13:24:54.82	76.69	32.42	-35.9	-36.8	23.7	0.00e+00	123	39	0	1111490560	44	6113
2026-01-02 13:24:55.83	77.05	32.47	-35.9	-36.8	23.7	0.00e+00	122	40	0	1114636288	44	6101
2026-01-02 13:24:56.84	77.40	32.53	-35.6	-36.5	24.0	0.00e+00	121	39	0	1117782016	44	5886
2026-01-02 13:24:57.85	77.77	32.58	-35.6	-36.5	24.1	0.00e+00	123	39	0	1120927744	44	5889
2026-01-02 13:24:58.86	78.13	32.64	-35.4	-36.3	24.1	0.00e+00	122	40	0	1124073472	44	5773
2026-01-02 13:24:59.87	78.49	32.69	-35.4	-36.3	23.9	0.00e+00	123	40	0	1127219200	44	5761
2026-01-02 13:25:00.88	78.85	32.74	-35.6	-36.5	23.8	0.00e+00	120	40	0	1130364928	44	5896
2026-01-02 13:25:01.89	79.22	32.79	-35.7	-36.6	23.7	0.00e+00	122	40	0	1133510656	44	5979
2026-01-02 13:25:02.90	79.59	32.84	-35.8	-36.8	23.8	0.00e+00	121	39	0	1136656384	44	6081
2026-01-02 13:25:03.91	79.95	32.89	-35.8	-36.7	23.9	0.00e+00	122	40	0	1139802112	44	6041
2026-01-02 13:25:04.92	80.32	32.93	-36.0	-36.9	23.7	0.00e+00	122	40	0	1142947840	44	6171
2026-01-02 13:25:05.93	80.69	32.98	-36.2	-37.1	23.5	0.00e+00	123	40	0	1146093568	44	6345
2026-01-02 13:25:06.93	81.06	33.02	-36.1	-37.1	23.5	0.00e+00	122	40	0	1149239296	44	6281
2026-01-02 13:25:07.94	81.43	33.06	-36.3	-37.2	23.4	0.00e+00	120	40	0	1152385024	44	6417
2026-01-02 13:25:08.95	81.80	33.11	-36.2	-37.1	23.6	0.00e+00	122	40	0	1155530752	44	6345
2026-01-02 13:25:09.96	82.17	33.15	-36.2	-37.1	23.5	0.00e+00	120	40	0	1158676480	44	6319
2026-01-02 13:25:10.97	82.55	33.19	-36.0	-37.0	23.7	0.00e+00	123	40	0	1161822208	44	6221
2026-01-02 13:25:11.98	82.92	33.22	-36.0	-37.0	23.8	0.00e+00	123	40	0	1164967936	44	6212
2026-01-02 13:25:12.99	83.30	33.26	-35.9	-36.8	23.7	0.00e+00	123	40	0	1168113664	44	6087
2026-01-02 13:25:14.00	83.68	33.29	-35.9	-36.8	23.7	0.00e+00	123	39	0	1171259392	44	6121
2026-01-02 13:25:15.01	84.05	33.33	-35.9	-36.9	23.7	0.00e+00	122	39	0	1174405120	44	6140
2026-01-02 13:25:16.02	84.43	33.36	-35.7	-36.6	23.9	0.00e+00	121	39	0	1177550848	44	5982
2026-01-02 13:25:17.03	84.81	33.39	-35.6	-36.5	24.0	0.00e+00	123	40	0	1180696576	44	5921
2026-01-02 13:25:18.04	85.19	33.42	-35.7	-36.7	23.9	0.00e+00	120	39	0	1183842304	44	6004
2026-01-02 13:25:19.06	85.57	33.45	-35.9	-36.9	23.7	0.00e+00	123	39	0	1186988032	44	6152
2026-01-02 13:25:20.06	85.95	33.48	-36.0	-37.0	23.7	0.00e+00	123	40	0	1190133760	44	6218
2026-01-02 13:25:21.08	86.34	33.50	-36.2	-37.1	23.5	0.00e+00	122	39	0	1193279488	44	6336
2026-01-02 13:25:22.08	86.72	33.53	-36.3	-37.3	23.5	0.00e+00	122	39	0	1196425216	44	6425
2026-01-02 13:25:23.10	87.10	33.55	-36.4	-37.3	23.4	0.00e+00	123	39	0	1199570944	44	6482
2026-01-02 13:25:24.11	87.49	33.57	-36.5	-37.4	23.3	0.00e+00	122	39	0	1202716672	44	6571
2026-01-02 13:25:25.12	87.87	33.59	-36.5	-37.5	23.2	0.00e+00	123	39	0	1205862400	44	6590
2026-01-02 13:25:26.13	88.25	33.61	-36.3	-37.3	23.4	0.00e+00	120	39	0	1209008128	44	6436
2026-01-02 13:25:27.14	88.64	33.63	-36.4	-37.3	23.2	0.00e+00	122	39	0	1212153856	44	6494
2026-01-02 13:25:28.15	89.02	33.64	-36.1	-37.1	23.6	0.00e+00	122	39	0	1215299584	44	6288
2026-01-02 13:25:29.16	89.41	33.66	-36.2	-37.1	23.5	0.00e+00	123	39	0	1218445312	44	6326
2026-01-02 13:25:30.17	89.79	33.67	-36.1	-37.0	23.7	0.00e+00	123	39	0	1221591040	44	6243
2026-01-02 13:25:31.18	90.18	33.68	-36.1	-37.0	23.6	0.00e+00	123	39	0	1224736768	44	6249
2026-01-02 13:25:32.19	90.57	33.69	-36.1	-37.0	23.6	0.00e+00	123	40	0	1227882496	44	6222
2026-01-02 13:25:33.20	90.95	33.70	-35.9	-36.9	23.7	0.00e+00	123	39	0	1231028224	44	6138
2026-01-02 13:25:34.21	91.34	33.71	-36.0	-36.9	23.7	0.00e+00	122	40	0	1234173952	44	6193
2026-01-02 13:25:35.22	91.73	33.71	-36.2	-37.2	23.4	0.00e+00	122	40	0	1237319680	44	6394
2026-01-02 13:25:36.23	92.11	33.72	-36.4	-37.4	23.3	0.00e+00	123	39	0	1240465408	44	6537
2026-01-02 13:25:37.24	92.50	33.72	-36.6	-37.6	23.2	0.00e+00	123	39	0	1243611136	44	6692
2026-01-02 13:25:38.25	92.89	33.72	-36.3	-37.3	23.4	0.00e+00	123	39	0	1246756864	44	6445
2026-01-02 13:25:39.26	93.28	33.72	-36.4	-37.3	23.4	0.00e+00	123	39	0	1249902592	44	6459
2026-01-02 13:25:40.27	93.66	33.72	-36.4	-37.3	23.4	0.00e+00	122	39	0	1253048320	44	6495
2026-01-02 13:25:41.28	94.05	33.72	-36.4	-37.4	23.3	0.00e+00	122	39	0	1256194048	44	6519
2026-01-02 13:25:42.29	94.44	33.72	-36.2	-37.2	23.5	0.00e+00	123	39	0	1259339776	44	6363
2026-01-02 13:25:43.30	94.82	33.71	-36.1	-37.0	23.6	0.00e+00	123	39	0	1262485504	44	6270
2026-01-02 13:25:44.31	95.21	33.70	-36.1	-37.0	23.6	0.00e+00	123	39	0	1265631232	44	6277
2026-01-02 13:25:45.32	95.60	33.70	-36.1	-37.1	23.6	0.00e+00	123	39	0	1268776960	44	6288
2026-01-02 13:25:46.33	95.98	33.69	-36.0	-37.0	23.6	0.00e+00	122	39	0	1271922688	44	6215
2026-01-02 13:25:47.34	96.37	33.67	-36.0	-37.0	23.6	0.00e+00	122	39	0	1275068416	44	6211
2026-01-02 13:25:48.34	96.75	33.66	-36.0	-36.9	23.7	0.00e+00	123	39	0	1278214144	44	6202
2026-01-02 13:25:49.35	97.14	33.65	-36.1	-37.1	23.6	0.00e+00	122	39	0	1281359872	44	6283
2026-01-02 13:25:50.37	97.53	33.63	-36.0	-37.0	23.6	0.00e+00	122	39	0	1284505600	44	6226
2026-01-02 13:25:51.38	97.91	33.62	-36.1	-37.1	23.6	0.00e+00	122	39	0	1287651328	44	6320
2026-01-02 13:25:52.39	98.30	33.60	-36.3	-37.3	23.4	0.00e+00	122	39	0	1290797056	44	6428
2026-01-02 13:25:53.40	98.68	33.58	-36.4	-37.4	23.3	0.00e+00	121	39	0	1293942784	44	6518
2026-01-02 13:25:54.41	99.07	33.56	-36.3	-37.2	23.5	0.00e+00	123	39	0	1297088512	44	6407
2026-01-02 13:25:55.42	99.45	33.53	-36.2	-37.1	23.5	0.00e+00	122	39	0	1300234240	44	6336
2026-01-02 13:25:56.43	99.83	33.51	-36.3	-37.2	23.4	0.00e+00	123	39	0	1303379968	44	6407
2026-01-02 13:25:57.44	100.21	33.49	-36.3	-37.2	23.5	0.00e+00	123	39	0	1306525696	44	6402
2026-01-02 13:25:58.45	100.60	33.46	-36.2	-37.1	23.5	0.00e+00	122	39	0	1309671424	44	6333
2026-01-02 13:25:59.46	100.98	33.43	-36.0	-37.0	23.6	0.00e+00	123	39	0	1312817152	44	6218
2026-01-02 13:26:00.47	101.36	33.40	-36.1	-37.0	23.7	0.00e+00	123	39	0	1315962880	44	6246
2026-01-02 13:26:01.48	101.74	33.37	-36.0	-37.0	23.7	0.00e+00	122	39	0	1319108608	44	6209
2026-01-02 13:26:02.49	102.12	33.34	-35.9	-36.8	23.8	0.00e+00	123	39	0	1322254336	44	6108
2026-01-02 13:26:03.50	102.49	33.31	-36.0	-36.9	23.7	0.00e+00	123	39	0	1325400064	44	6163
2026-01-02 13:26:04.51	102.87	33.27	-35.9	-36.8	23.8	0.00e+00	123	39	0	1328545792	44	6107
2026-01-02 13:26:05.52	103.25	33.24	-35.8	-36.8	23.8	0.00e+00	123	39	0	1331691520	44	6074
2026-01-02 13:26:06.53	103.62	33.20	-36.0	-36.9	23.6	0.00e+00	123	39	0	1334837248	44	6199
2026-01-02 13:26:07.54	104.00	33.16	-36.1	-37.0	23.6	0.00e+00	122	39	0	1337982976	44	6247
2026-01-02 13:26:08.55	104.37	33.12	-35.9	-36.9	23.6	0.00e+00	123	39	0	1341128704	44	6156
2026-01-02 13:26:09.56	104.75	33.08	-36.1	-37.0	23.5	0.00e+00	122	39	0	1344274432	44	6239
2026-01-02 13:26:10.57	105.12	33.04	-36.1	-37.0	23.5	0.00e+00	123	39	0	1347420160	44	6273
2026-01-02 13:26:11.58	105.49	32.99	-35.8	-36.8	23.8	0.00e+00	122	39	0	1350565888	44	6066
2026-01-02 13:26:12.59	105.86	32.95	-35.9	-36.9	23.9	0.00e+00	122	39	0	1353711616	44	6141
2026-01-02 13:26:13.60	106.23	32.90	-35.7	-36.6	23.8	0.00e+00	122	39	0	1356857344	44	5975
2026-01-02 13:26:14.61	106.60	32.86	-35.8	-36.7	23.8	0.00e+00	123	39	0	1360003072	44	6034
2026-01-02 13:26:15.62	106.96	32.81	-35.9	-36.8	23.7	0.00e+00	122	39	0	1363148800	44	6105
2026-01-02 13:26:16.63	107.33	32.76	-35.9	-36.9	23.6	0.00e+00	123	39	0	1366294528	44	6136
2026-01-02 13:26:17.64	107.70	32.71	-36.1	-37.1	23.5	0.00e+00	122	39	0	1369440256	44	6343
2026-01-02 13:26:18.65	108.06	32.65	-36.2	-37.1	23.6	0.00e+00	123	39	0	1372585984	44	6316
2026-01-02 13:26:19.66	108.42	32.60	-36.0	-37.0	23.6	0.00e+00	122	39	0	1375731712	44	6225
2026-01-02 13:26:20.67	108.78	32.55	-36.0	-36.9	23.7	0.00e+00	123	39	0	1378877440	44	6158
2026-01-02 13:26:21.68	109.14	32.49	-35.7	-36.6	23.9	0.00e+00	122	39	0	1382023168	44	5946
2026-01-02 13:26:22.69	109.50	32.44	-35.8	-36.8	23.6	0.00e+00	123	39	0	1385168896	44	6067
2026-01-02 13:26:23.70	109.86	32.38	-36.0	-36.9	23.5	0.00e+00	123	39	0	1389363200	44	6204
2026-01-02 13:26:24.71	110.22	32.32	-36.1	-37.1	23.5	0.00e+00	122	39	0	1392508928	44	6286
2026-01-02 13:26:25.72	110.57	32.26	-36.0	-37.0	23.6	0.00e+00	122	39	0	1395654656	44	6214
2026-01-02 13:26:26.73	110.93	32.20	-36.2	-37.1	23.4	0.00e+00	123	39	0	1397751808	44	6346
2026-01-02 13:26:27.74	111.28	32.14	-36.3	-37.2	23.4	0.00e+00	123	39	0	1400897536	44	6400
2026-01-02 13:26:28.75	111.63	32.07	-36.0	-36.9	23.7	0.00e+00	122	39	0	1405091840	44	6161
2026-01-02 13:26:29.76	111.98	32.01	-36.0	-36.9	23.6	0.00e+00	123	39	0	1408237568	44	6202
2026-01-02 13:26:30.77	112.33	31.94	-36.0	-37.0	23.4	0.00e+00	122	39	0	1411383296	44	6215
2026-01-02 13:26:31.78	112.68	31.88	-36.4	-37.3	23.3	0.00e+00	122	39	0	1414529024	44	6476
2026-01-02 13:26:32.79	113.02	31.81	-36.3	-37.2	23.4	0.00e+00	122	39	0	1417674752	44	6423
2026-01-02 13:26:33.80	113.37	31.74	-36.3	-37.3	23.4	0.00e+00	122	39	0	1420820480	44	6438
2026-01-02 13:26:34.81	113.71	31.67	-36.3	-37.2	23.5	0.00e+00	122	39	0	1423966208	44	6417
2026-01-02 13:26:35.82	114.05	31.60	-36.2	-37.1	23.5	0.00e+00	122	39	0	1427111936	44	6332
2026-01-02 13:26:36.83	114.39	31.53	-36.1	-37.0	23.7	0.00e+00	123	39	0	1430257664	44	6245
2026-01-02 13:26:37.84	114.73	31.46	-36.0	-37.0	23.6	0.00e+00	123	39	0	1433403392	44	6208
2026-01-02 13:26:38.85	115.07	31.39	-35.8	-36.7	23.8	0.00e+00	123	39	0	1436549120	44	6058
2026-01-02 13:26:39.85	115.40	31.32	-35.8	-36.7	23.8	0.00e+00	120	39	0	1439694848	44	6018
2026-01-02 13:26:40.87	115.74	31.24	-35.8	-36.8	23.7	0.00e+00	123	39	0	1442840576	44	6074
2026-01-02 13:26:41.88	116.07	31.16	-35.5	-36.4	24.0	0.00e+00	122	39	0	1445986304	44	5844
2026-01-02 13:26:42.88	116.40	31.09	-35.4	-36.3	24.2	0.00e+00	123	39	0	1449132032	44	5777
2026-01-02 13:26:43.89	116.73	31.01	-35.5	-36.5	24.0	0.00e+00	123	39	0	1452277760	44	5869
2026-01-02 13:26:44.90	117.06	30.93	-35.5	-36.5	24.0	0.00e+00	123	39	0	1455423488	44	5863
2026-01-02 13:26:45.91	117.39	30.86	-35.5	-36.4	24.2	0.00e+00	123	39	0	1458569216	44	5813
2026-01-02 13:26:46.92	117.71	30.78	-35.2	-36.0	24.3	0.00e+00	123	39	0	1461714944	44	5591
2026-01-02 13:26:47.93	118.04	30.70	-35.2	-36.1	24.3	0.00e+00	122	39	0	1464860672	44	5611
2026-01-02 13:26:48.95	118.36	30.61	-35.1	-36.0	24.3	0.00e+00	123	39	0	1468006400	44	5574
2026-01-02 13:26:49.95	118.68	30.53	-35.1	-36.0	24.4	0.00e+00	122	39	0	1471152128	44	5575
2026-01-02 13:26:50.96	119.00	30.45	-34.9	-35.7	24.6	0.00e+00	122	39	0	1474297856	44	5395
2026-01-02 13:26:51.97	119.31	30.37	-34.9	-35.8	24.5	0.00e+00	122	39	0	1477443584	44	5422
2026-01-02 13:26:52.98	119.63	30.28	-34.9	-35.7	24.6	0.00e+00	123	39	0	1480589312	44	5395
2026-01-02 13:26:53.99	119.94	30.20	-35.0	-35.9	24.4	0.00e+00	122	39	0	1483735040	44	5502
2026-01-02 13:26:55.00	120.26	30.11	-35.2	-36.1	24.2	0.00e+00	123	39	0	1486880768	44	5621
2026-01-02 13:26:56.01	120.57	30.03	-35.3	-36.2	24.1	0.00e+00	123	39	0	1490026496	44	5712
2026-01-02 13:26:57.02	120.88	29.94	-35.4	-36.3	24.2	0.00e+00	123	39	0	1493172224	44	5740
2026-01-02 13:26:58.03	121.18	29.86	-35.2	-36.1	24.4	0.00e+00	122	39	0	1496317952	44	5647
2026-01-02 13:26:59.04	121.49	29.77	-34.9	-35.8	24.5	0.00e+00	123	39	0	1499463680	44	5459
2026-01-02 13:27:00.05	121.79	29.68	-35.0	-35.9	24.3	0.00e+00	123	39	0	1502609408	44	5510
2026-01-02 13:27:01.06	122.10	29.59	-34.8	-35.7	24.6	0.00e+00	123	39	0	1505755136	44	5366
2026-01-02 13:27:02.07	122.40	29.50	-34.9	-35.8	24.5	0.00e+00	123	39	0	1508900864	42	6086
2026-01-02 13:27:03.08	122.70	29.41	-35.0	-35.9	24.5	0.00e+00	122	39	0	1512046592	42	6197
2026-01-02 13:27:04.09	122.99	29.32	-34.9	-35.8	24.5	0.00e+00	123	39	0	1515192320	42	6128
2026-01-02 13:27:05.10	123.29	29.23	-34.9	-35.8	24.6	0.00e+00	122	39	0	1518338048	42	6118
2026-01-02 13:27:06.11	123.59	29.14	-34.9	-35.8	24.5	0.00e+00	123	39	0	1521483776	42	6083
2026-01-02 13:27:07.12	123.88	29.05	-34.9	-35.8	24.6	0.00e+00	123	39	0	1524629504	42	6080
2026-01-02 13:27:08.13	124.17	28.95	-35.0	-35.8	24.5	0.00e+00	123	39	0	1527775232	42	6122
2026-01-02 13:27:09.14	124.46	28.86	-35.1	-36.0	24.4	0.00e+00	123	39	0	1530920960	42	6209
2026-01-02 13:27:10.15	124.75	28.77	-35.0	-35.9	24.5	0.00e+00	120	39	0	1534066688	42	6182
2026-01-02 13:27:11.16	125.03	28.67	-35.0	-35.9	24.5	0.00e+00	123	39	0	1537212416	42	6179
2026-01-02 13:27:12.17	125.32	28.58	-35.0	-35.9	24.4	0.00e+00	121	39	0	1540358144	42	6188
2026-01-02 13:27:13.18	125.60	28.48	-35.1	-36.0	24.4	0.00e+00	123	39	0	1543503872	42	6235
2026-01-02 13:27:14.19	125.88	28.39	-35.1	-36.0	24.4	0.00e+00	122	39	0	1546649600	42	6273
2026-01-02 13:27:15.20	126.16	28.29	-35.0	-35.9	24.5	0.00e+00	120	39	0	1549795328	42	6197
2026-01-02 13:27:16.21	126.44	28.20	-35.1	-36.0	24.4	0.00e+00	123	39	0	1552941056	42	6227
2026-01-02 13:27:17.22	126.72	28.10	-35.0	-35.9	24.4	0.00e+00	120	39	0	1556086784	42	6157
2026-01-02 13:27:18.23	126.99	28.00	-34.9	-35.7	24.5	0.00e+00	122	39	0	1559232512	42	6058
2026-01-02 13:27:19.24	127.26	27.91	-34.7	-35.6	24.6	0.00e+00	123	39	0	1562378240	42	5934
2026-01-02 13:27:20.25	127.54	27.81	-34.7	-35.6	24.6	0.00e+00	122	39	0	1565523968	42	5979
2026-01-02 13:27:21.26	127.81	27.71	-34.8	-35.7	24.5	0.00e+00	120	39	0	1568669696	42	6019
2026-01-02 13:27:22.27	128.07	27.61	-34.8	-35.7	24.6	0.00e+00	122	39	0	1571815424	42	5999
2026-01-02 13:27:23.28	128.34	27.51	-34.7	-35.6	24.6	0.00e+00	123	39	0	1574961152	42	5986
2026-01-02 13:27:24.29	128.61	27.42	-34.8	-35.7	24.6	0.00e+00	123	39	0	1578106880	42	6043
2026-01-02 13:27:25.30	128.87	27.32	-34.8	-35.7	24.6	0.00e+00	123	39	0	1581252608	42	6023
2026-01-02 13:27:26.31	129.13	27.22	-34.8	-35.7	24.6	0.00e+00	123	39	0	1584398336	42	6019
2026-01-02 13:27:27.32	129.39	27.12	-34.6	-35.4	24.8	0.00e+00	121	39	0	1587544064	42	5858
2026-01-02 13:27:28.33	129.65	27.02	-34.6	-35.5	24.7	0.00e+00	123	39	0	1590689792	42	5883
2026-01-02 13:27:29.34	129.91	26.92	-34.6	-35.5	24.6	0.00e+00	122	39	0	1593835520	42	5901
2026-01-02 13:27:30.35	130.16	26.82	-34.8	-35.7	24.6	0.00e+00	123	39	0	1596981248	42	6005
2026-01-02 13:27:31.36	130.42	26.72	-34.8	-35.7	24.5	0.00e+00	123	39	0	1600126976	42	6051
2026-01-02 13:27:32.38	130.67	26.61	-35.0	-35.9	24.5	0.00e+00	122	39	0	1603272704	42	6181
2026-01-02 13:27:33.39	130.92	26.51	-35.0	-35.9	24.5	0.00e+00	123	39	0	1606418432	42	6164
2026-01-02 13:27:34.40	131.17	26.41	-34.8	-35.7	24.6	0.00e+00	123	39	0	1609564160	42	6012
2026-01-02 13:27:35.41	131.42	26.31	-34.8	-35.7	24.6	0.00e+00	122	39	0	1612709888	42	6021
2026-01-02 13:27:36.42	131.67	26.21	-34.9	-35.8	24.5	0.00e+00	122	39	0	1615855616	42	6112
2026-01-02 13:27:37.43	131.91	26.11	-35.1	-36.0	24.4	0.00e+00	123	39	0	1619001344	42	6223
2026-01-02 13:27:38.44	132.16	26.01	-35.1	-36.0	24.4	0.00e+00	123	39	0	1622147072	42	6261
2026-01-02 13:27:39.45	132.40	25.90	-35.0	-35.9	24.4	0.00e+00	123	39	0	1625292800	42	6196
2026-01-02 13:27:40.46	132.64	25.80	-35.0	-35.9	24.4	0.00e+00	123	39	0	1628438528	42	6157
2026-01-02 13:27:41.47	132.88	25.70	-35.0	-35.9	24.4	0.00e+00	120	39	0	1631584256	42	6201
2026-01-02 13:27:42.48	133.11	25.60	-35.0	-35.9	24.5	0.00e+00	123	39	0	1634729984	42	6153
2026-01-02 13:27:43.48	133.35	25.50	-35.1	-36.0	24.4	0.00e+00	122	39	0	1637875712	42	6216
2026-01-02 13:27:44.49	133.58	25.39	-35.0	-35.9	24.4	0.00e+00	122	39	0	1641021440	42	6193
2026-01-02 13:27:45.50	133.81	25.29	-35.1	-36.0	24.4	0.00e+00	123	39	0	1644167168	42	6212
2026-01-02 13:27:46.51	134.05	25.19	-34.9	-35.9	24.5	0.00e+00	120	39	0	1647312896	42	6136
2026-01-02 13:27:47.52	134.28	25.09	-35.0	-35.9	24.3	0.00e+00	122	39	0	1650458624	42	6141
2026-01-02 13:27:48.53	134.50	24.98	-35.1	-36.0	24.4	0.00e+00	120	39	0	1653604352	42	6240
2026-01-02 13:27:49.54	134.73	24.88	-34.9	-35.8	24.4	0.00e+00	122	39	0	1656750080	42	6112
2026-01-02 13:27:50.55	134.96	24.78	-35.0	-35.9	24.3	0.00e+00	122	39	0	1659895808	42	6152
2026-01-02 13:27:51.56	135.18	24.67	-35.0	-35.9	24.3	0.00e+00	122	39	0	1663041536	42	6163
2026-01-02 13:27:52.57	135.40	24.57	-35.1	-36.0	24.3	0.00e+00	120	39	0	1666187264	42	6246
2026-01-02 13:27:53.58	135.62	24.47	-35.2	-36.1	24.3	0.00e+00	123	39	0	1669332992	42	6291
2026-01-02 13:27:54.59	135.84	24.36	-35.1	-36.0	24.2	0.00e+00	123	39	0	1672478720	42	6266
2026-01-02 13:27:55.59	136.06	24.26	-35.2	-36.1	24.1	0.00e+00	122	39	0	1675624448	42	6342
2026-01-02 13:27:56.60	136.28	24.16	-35.2	-36.2	24.2	0.00e+00	123	39	0	1678770176	42	6353
2026-01-02 13:27:57.62	136.50	24.05	-35.3	-36.2	24.0	0.00e+00	122	39	0	1681915904	42	6416
2026-01-02 13:27:58.63	136.71	23.95	-35.4	-36.3	24.1	0.00e+00	122	39	0	1685061632	42	6455
2026-01-02 13:27:59.63	136.92	23.85	-35.3	-36.2	24.2	0.00e+00	120	39	0	1688207360	42	6363
2026-01-02 13:28:00.64	137.13	23.75	-35.1	-36.0	24.4	0.00e+00	123	39	0	1691353088	42	6237
2026-01-02 13:28:01.65	137.34	23.64	-35.1	-36.0	24.3	0.00e+00	123	39	0	1694498816	42	6273
2026-01-02 13:28:02.66	137.55	23.54	-35.1	-36.0	24.2	0.00e+00	122	39	0	1697644544	42	6272
2026-01-02 13:28:03.67	137.76	23.44	-35.0	-36.0	24.3	0.00e+00	123	39	0	1700790272	42	6206
2026-01-02 13:28:04.68	137.96	23.33	-35.2	-36.1	24.2	0.00e+00	123	39	0	1703936000	42	6296
2026-01-02 13:28:05.69	138.17	23.23	-35.2	-36.1	24.2	0.00e+00	122	39	0	1707081728	42	6297
2026-01-02 13:28:06.70	138.37	23.13	-35.1	-36.0	24.4	0.00e+00	123	39	0	1710227456	42	6229
2026-01-02 13:28:07.71	138.58	23.02	-35.1	-36.0	24.3	0.00e+00	121	39	0	1713373184	42	6255
2026-01-02 13:28:08.72	138.78	22.92	-35.1	-36.0	24.3	0.00e+00	122	39	0	1716518912	42	6227
2026-01-02 13:28:09.73	138.98	22.82	-35.2	-36.1	24.2	0.00e+00	120	39	0	1719664640	42	6299
2026-01-02 13:28:10.74	139.17	22.72	-35.3	-36.2	24.2	0.00e+00	120	39	0	1722810368	42	6373
2026-01-02 13:28:11.75	139.37	22.61	-35.2	-36.1	24.2	0.00e+00	123	39	0	1725956096	42	6338
2026-01-02 13:28:12.76	139.57	22.51	-35.3	-36.2	24.2	0.00e+00	120	39	0	1730150400	42	6421
2026-01-02 13:28:13.77	139.76	22.41	-35.4	-36.3	24.1	0.00e+00	123	39	0	1733296128	42	6478
2026-01-02 13:28:14.78	139.95	22.30	-35.4	-36.3	24.1	0.00e+00	121	39	0	1735393280	42	6468
2026-01-02 13:28:15.79	140.15	22.20	-35.5	-36.4	24.0	0.00e+00	122	39	0	1738539008	42	6524
2026-01-02 13:28:16.80	140.34	22.10	-35.4	-36.4	24.0	0.00e+00	122	39	0	1741684736	42	6508
2026-01-02 13:28:17.81	140.53	22.00	-35.3	-36.3	24.1	0.00e+00	122	39	0	1745879040	42	6431
2026-01-02 13:28:18.82	140.72	21.90	-35.3	-36.3	24.0	0.00e+00	120	39	0	1749024768	42	6425
2026-01-02 13:28:19.83	140.90	21.79	-35.4	-36.3	24.1	0.00e+00	122	39	0	1752170496	42	6471
2026-01-02 13:28:20.84	141.09	21.69	-35.3	-36.2	24.1	0.00e+00	122	39	0	1755316224	42	6401
2026-01-02 13:28:21.85	141.27	21.59	-35.2	-36.1	24.2	0.00e+00	120	39	0	1758461952	42	6328
2026-01-02 13:28:22.86	141.46	21.49	-35.3	-36.2	24.1	0.00e+00	123	39	0	1761607680	42	6373
2026-01-02 13:28:23.87	141.64	21.39	-35.2	-36.1	24.3	0.00e+00	123	39	0	1764753408	42	6318
2026-01-02 13:28:24.88	141.82	21.28	-35.2	-36.1	24.3	0.00e+00	122	39	0	1767899136	42	6297
2026-01-02 13:28:25.89	142.00	21.18	-35.3	-36.2	24.1	0.00e+00	123	39	0	1771044864	42	6400
2026-01-02 13:28:26.90	142.18	21.08	-35.3	-36.2	24.1	0.00e+00	122	39	0	1774190592	42	6376
2026-01-02 13:28:27.91	142.36	20.98	-35.4	-36.3	24.0	0.00e+00	122	39	0	1777336320	42	6480
2026-01-02 13:28:28.92	142.54	20.88	-35.4	-36.3	24.0	0.00e+00	120	39	0	1780482048	42	6482
2026-01-02 13:28:29.93	142.71	20.78	-35.4	-36.4	24.0	0.00e+00	123	39	0	1783627776	42	6503
2026-01-02 13:28:30.93	142.88	20.68	-35.5	-36.4	24.0	0.00e+00	123	39	0	1786773504	42	6537
2026-01-02 13:28:31.94	143.06	20.58	-35.4	-36.4	24.0	0.00e+00	122	39	0	1789919232	42	6517
2026-01-02 13:28:32.95	143.23	20.48	-35.5	-36.5	23.9	0.00e+00	123	39	0	1793064960	42	6574
2026-01-02 13:28:33.96	143.40	20.38	-35.3	-36.2	24.1	0.00e+00	121	39	0	1796210688	42	6385
2026-01-02 13:28:34.97	143.57	20.28	-35.2	-36.1	24.1	0.00e+00	123	39	0	1799356416	42	6349
2026-01-02 13:28:35.98	143.74	20.18	-35.2	-36.1	24.2	0.00e+00	123	39	0	1802502144	42	6333
2026-01-02 13:28:36.99	143.91	20.08	-35.3	-36.2	24.2	0.00e+00	123	39	0	1805647872	42	6357
2026-01-02 13:28:38.00	144.08	19.98	-35.1	-36.0	24.2	0.00e+00	123	39	0	1808793600	42	6248
2026-01-02 13:28:39.01	144.24	19.88	-35.1	-36.0	24.2	0.00e+00	123	39	0	1811939328	42	6276
2026-01-02 13:28:40.02	144.41	19.78	-35.1	-36.0	24.2	0.00e+00	123	39	0	1815085056	42	6272
2026-01-02 13:28:41.03	144.57	19.68	-35.2	-36.1	24.0	0.00e+00	122	39	0	1818230784	42	6307
2026-01-02 13:28:42.04	144.73	19.58	-35.1	-36.0	24.2	0.00e+00	122	39	0	1821376512	42	6237
2026-01-02 13:28:43.05	144.90	19.48	-35.3	-36.2	24.0	0.00e+00	122	39	0	1824522240	42	6384
2026-01-02 13:28:44.06	145.06	19.38	-35.1	-35.9	24.2	0.00e+00	120	39	0	1827667968	42	6204
2026-01-02 13:28:45.07	145.22	19.29	-34.8	-35.7	24.4	0.00e+00	122	39	0	1830813696	42	6035
2026-01-02 13:28:46.08	145.38	19.19	-34.9	-35.8	24.4	0.00e+00	123	39	0	1833959424	42	6065
2026-01-02 13:28:47.09	145.53	19.09	-34.8	-35.7	24.3	0.00e+00	123	39	0	1837105152	42	6036
2026-01-02 13:28:48.10	145.69	18.99	-34.9	-35.8	24.2	0.00e+00	123	39	0	1840250880	42	6106
2026-01-02 13:28:49.11	145.85	18.89	-34.9	-35.8	24.2	0.00e+00	122	39	0	1843396608	42	6127
2026-01-02 13:28:50.12	146.00	18.80	-35.1	-36.0	24.0	0.00e+00	120	39	0	1846542336	42	6221
2026-01-02 13:28:51.13	146.16	18.70	-35.2	-36.1	24.1	0.00e+00	122	39	0	1849688064	42	6307
2026-01-02 13:28:52.14	146.31	18.60	-35.3	-36.2	23.9	0.00e+00	122	39	0	1852833792	42	6420
2026-01-02 13:28:53.15	146.46	18.50	-35.4	-36.3	23.9	0.00e+00	123	39	0	1855979520	42	6462
2026-01-02 13:28:54.16	146.61	18.41	-35.3	-36.3	24.0	0.00e+00	123	39	0	1859125248	42	6426
2026-01-02 13:28:55.17	146.76	18.31	-35.4	-36.3	24.0	0.00e+00	122	39	0	1862270976	42	6460
2026-01-02 13:28:56.18	146.91	18.21	-35.4	-36.3	24.0	0.00e+00	123	39	0	1865416704	42	6493
2026-01-02 13:28:57.19	147.06	18.12	-35.3	-36.2	24.0	0.00e+00	123	39	0	1868562432	42	6419
2026-01-02 13:28:58.20	147.21	18.02	-35.3	-36.3	24.0	0.00e+00	123	39	0	1871708160	42	6426
2026-01-02 13:28:59.21	147.35	17.93	-35.3	-36.2	24.0	0.00e+00	120	39	0	1874853888	42	6403
2026-01-02 13:29:00.22	147.50	17.83	-35.3	-36.2	24.0	0.00e+00	122	39	0	1877999616	42	6374
2026-01-02 13:29:01.23	147.64	17.74	-35.3	-36.3	23.9	0.00e+00	120	39	0	1881145344	42	6435
2026-01-02 13:29:02.24	147.79	17.64	-35.3	-36.3	24.0	0.00e+00	122	39	0	1884291072	42	6434
2026-01-02 13:29:03.25	147.93	17.54	-35.3	-36.2	24.1	0.00e+00	122	39	0	1887436800	42	6387
2026-01-02 13:29:04.25	148.07	17.45	-35.3	-36.2	24.1	0.00e+00	120	39	0	1890582528	42	6389
2026-01-02 13:29:05.26	148.21	17.36	-35.3	-36.3	24.0	0.00e+00	123	39	0	1893728256	42	6434
2026-01-02 13:29:06.27	148.35	17.26	-35.3	-36.2	24.0	0.00e+00	123	39	0	1896873984	42	6421
2026-01-02 13:29:07.28	148.49	17.17	-35.5	-36.4	23.9	0.00e+00	122	39	0	1900019712	42	6540
2026-01-02 13:29:08.29	148.63	17.07	-35.4	-36.3	24.0	0.00e+00	123	39	0	1903165440	42	6461
2026-01-02 13:29:09.30	148.77	16.98	-35.5	-36.5	23.9	0.00e+00	123	39	0	1906311168	42	6577
2026-01-02 13:29:10.31	148.91	16.89	-35.7	-36.7	23.7	0.00e+00	122	39	0	1909456896	44	5995
2026-01-02 13:29:11.33	149.05	16.79	-35.7	-36.7	23.6	0.00e+00	120	39	0	1912602624	44	5997
2026-01-02 13:29:12.34	149.18	16.70	-35.7	-36.6	23.6	0.00e+00	123	39	0	1915748352	44	5979
2026-01-02 13:29:13.35	149.32	16.61	-35.8	-36.7	23.6	0.00e+00	123	39	0	1918894080	44	6057
2026-01-02 13:29:14.36	149.45	16.51	-35.8	-36.7	23.6	0.00e+00	122	39	0	1922039808	44	6029
2026-01-02 13:29:15.37	149.58	16.42	-35.9	-36.9	23.5	0.00e+00	123	39	0	1925185536	44	6135
2026-01-02 13:29:16.38	149.72	16.33	-35.9	-36.9	23.5	0.00e+00	122	39	0	1928331264	44	6141
2026-01-02 13:29:17.39	149.85	16.24	-36.0	-36.9	23.4	0.00e+00	122	39	0	1931476992	44	6179
2026-01-02 13:29:18.40	149.98	16.14	-36.0	-36.9	23.4	0.00e+00	123	39	0	1934622720	44	6190
2026-01-02 13:29:19.41	150.11	16.05	-36.0	-36.9	23.5	0.00e+00	121	39	0	1937768448	44	6205
2026-01-02 13:29:20.42	150.24	15.96	-36.0	-37.0	23.4	0.00e+00	123	39	0	1940914176	44	6225
2026-01-02 13:29:21.43	150.37	15.87	-36.0	-37.0	23.4	0.00e+00	123	39	0	1944059904	44	6213
2026-01-02 13:29:22.44	150.49	15.78	-36.1	-37.1	23.2	0.00e+00	123	39	0	1947205632	44	6311
2026-01-02 13:29:23.44	150.62	15.69	-36.1	-37.1	23.2	0.00e+00	123	39	0	1950351360	44	6312
2026-01-02 13:29:24.45	150.74	15.60	-36.2	-37.2	23.1	0.00e+00	122	39	0	1953497088	44	6401
2026-01-02 13:29:25.46	150.87	15.51	-36.2	-37.1	23.1	0.00e+00	123	39	0	1956642816	44	6335
2026-01-02 13:29:26.47	151.00	15.42	-36.2	-37.1	23.1	0.00e+00	123	39	0	1959788544	44	6337
2026-01-02 13:29:27.48	151.12	15.33	-36.2	-37.2	23.1	0.00e+00	120	39	0	1962934272	44	6393
2026-01-02 13:29:28.49	151.24	15.24	-36.2	-37.1	23.2	0.00e+00	123	39	0	1966080000	44	6347
2026-01-02 13:29:29.50	151.37	15.15	-36.3	-37.3	23.1	0.00e+00	123	39	0	1969225728	44	6431
2026-01-02 13:29:30.51	151.49	15.06	-36.3	-37.3	23.1	0.00e+00	122	39	0	1972371456	44	6434
2026-01-02 13:29:31.52	151.61	14.97	-36.2	-37.2	23.2	0.00e+00	120	39	0	1975517184	44	6353
2026-01-02 13:29:32.53	151.73	14.88	-36.2	-37.2	23.2	0.00e+00	123	39	0	1978662912	44	6379
