passes_logs/2026/01/02/R4.6S_Anadyr/R4.6S_Anadyr__20260102_190810_NOAA_20_JPSS-1_rec.log

#Pass ID: 20260102_190810_NOAA 20 (JPSS-1)
#Satellite: NOAA 20 (JPSS-1)
#Configuration: NOAA 20
#almurnet v.1.7.20251203
#Start time: 2026-01-02 19:08:11

#Version: 2.2.20231116
#Station: R4.6S_Anadyr
#Location: 177.4865 lon 64.73178 lat
#TLE: 1 43013U 17073A   26001.93781127  .00000184  00000+0  10834-3 0  9997
#TLE: 2 43013  98.7622 303.0160 0001916  58.2205 301.9158 14.19532295420889

#Time	Az	El	Level	Level2	SNR	BER	BlckErr	Temp	State	Recorded	gain1	gain2
2026-01-02 19:08:11.36	49.04	0.04	-49.9	-67.6	3.5	3.02e+01	0	36	0	0	60	91891
2026-01-02 19:08:12.37	48.97	0.09	-49.7	-64.9	3.6	1.51e+00	0	37	104	0	60	63813
2026-01-02 19:08:13.38	48.89	0.14	-49.7	-64.9	3.6	1.51e+00	0	37	104	0	60	63604
2026-01-02 19:08:14.39	48.81	0.19	-49.7	-64.9	3.6	1.51e+00	0	37	104	0	60	63672
2026-01-02 19:08:15.40	48.74	0.24	-49.8	-65.0	3.6	1.51e+00	0	37	104	0	60	63944
2026-01-02 19:08:16.41	48.66	0.29	-49.8	-65.0	3.6	1.51e+00	0	37	104	0	60	64245
2026-01-02 19:08:17.42	48.58	0.34	-49.8	-65.0	3.6	1.51e+00	0	37	104	0	60	64183
2026-01-02 19:08:18.43	48.51	0.38	-49.8	-64.9	3.6	1.51e+00	0	37	104	0	60	63886
2026-01-02 19:08:19.44	48.43	0.43	-49.7	-64.9	3.6	1.51e+00	0	37	104	0	60	63597
2026-01-02 19:08:20.45	48.35	0.48	-49.7	-64.9	3.6	1.51e+00	0	37	104	0	60	63543
2026-01-02 19:08:21.46	48.27	0.53	-49.6	-64.9	3.6	1.51e+00	0	37	104	0	60	63234
2026-01-02 19:08:22.47	48.20	0.58	-49.6	-64.8	3.5	1.51e+00	0	37	104	0	60	63107
2026-01-02 19:08:23.48	48.12	0.63	-49.5	-64.8	3.6	1.51e+00	0	38	104	0	60	62590
2026-01-02 19:08:24.49	48.04	0.68	-49.4	-64.6	3.6	1.51e+00	0	38	104	0	60	61260
2026-01-02 19:08:25.50	47.96	0.73	-49.2	-64.4	3.6	1.51e+00	0	37	104	0	60	60315
2026-01-02 19:08:26.51	47.88	0.78	-49.1	-64.2	3.6	1.51e+00	0	38	104	0	60	58799
2026-01-02 19:08:27.52	47.80	0.83	-48.7	-63.9	3.6	1.51e+00	0	37	104	0	60	56652
2026-01-02 19:08:28.53	47.72	0.88	-48.0	-63.2	3.6	1.51e+00	0	37	104	0	60	52359
2026-01-02 19:08:29.54	47.64	0.93	-47.9	-63.1	3.6	1.51e+00	0	38	104	0	60	51697
2026-01-02 19:08:30.55	47.56	0.98	-47.9	-63.1	3.6	1.51e+00	0	38	104	0	60	51683
2026-01-02 19:08:31.56	47.48	1.03	-47.9	-63.1	3.6	1.51e+00	0	38	104	0	60	51746
2026-01-02 19:08:32.57	47.40	1.08	-47.9	-63.1	3.6	1.51e+00	0	38	104	0	60	51766
2026-01-02 19:08:33.58	47.32	1.13	-47.9	-63.2	3.6	1.51e+00	0	38	104	0	60	51983
2026-01-02 19:08:34.59	47.23	1.18	-47.9	-63.1	3.6	1.51e+00	0	38	104	0	60	51587
2026-01-02 19:08:35.60	47.15	1.23	-47.9	-63.1	3.6	1.51e+00	0	38	104	0	60	51722
2026-01-02 19:08:36.61	47.07	1.28	-47.9	-63.1	3.6	1.51e+00	0	38	104	0	60	51931
2026-01-02 19:08:37.62	46.99	1.33	-47.9	-63.1	3.6	1.51e+00	0	38	104	0	60	51503
2026-01-02 19:08:38.63	46.91	1.38	-47.9	-63.1	3.6	1.51e+00	0	38	104	0	60	51422
2026-01-02 19:08:39.64	46.82	1.43	-47.9	-63.1	3.6	1.51e+00	0	38	104	0	60	51813
2026-01-02 19:08:40.65	46.74	1.48	-47.9	-63.1	3.6	1.51e+00	0	38	104	0	60	51529
2026-01-02 19:08:41.66	46.66	1.53	-47.9	-63.1	3.5	1.51e+00	0	38	104	0	60	51941
2026-01-02 19:08:42.67	46.57	1.58	-47.9	-63.1	3.6	1.51e+00	0	38	104	0	60	51861
2026-01-02 19:08:43.68	46.49	1.63	-47.9	-63.1	3.6	1.51e+00	0	38	104	0	60	51535
2026-01-02 19:08:44.69	46.40	1.68	-47.9	-63.1	3.6	1.51e+00	0	38	104	0	60	51645
2026-01-02 19:08:45.70	46.32	1.73	-47.9	-63.1	3.6	1.51e+00	0	38	104	0	60	51756
2026-01-02 19:08:46.71	46.23	1.78	-47.9	-63.1	3.6	1.51e+00	0	38	104	0	60	51381
2026-01-02 19:08:47.72	46.15	1.83	-47.9	-63.1	3.6	1.51e+00	0	38	104	0	60	51716
2026-01-02 19:08:48.73	46.06	1.88	-47.9	-63.1	3.6	1.51e+00	0	38	104	0	60	51896
2026-01-02 19:08:49.74	45.98	1.93	-47.9	-63.1	3.6	1.51e+00	0	38	104	0	60	51625
2026-01-02 19:08:50.75	45.89	1.98	-47.9	-63.1	3.6	1.51e+00	0	38	104	0	60	51636
2026-01-02 19:08:51.76	45.80	2.03	-47.9	-63.1	3.6	1.51e+00	0	38	104	0	60	51706
2026-01-02 19:08:52.77	45.72	2.08	-47.9	-63.0	3.6	1.51e+00	0	38	104	0	60	50820
2026-01-02 19:08:53.78	45.63	2.13	-47.9	-63.0	3.6	1.51e+00	0	38	104	0	60	50783
2026-01-02 19:08:54.79	45.54	2.18	-47.9	-62.8	3.6	1.51e+00	0	38	104	0	60	49975
2026-01-02 19:08:55.80	45.45	2.23	-47.9	-62.7	3.6	1.51e+00	0	38	104	0	60	49430
2026-01-02 19:08:56.81	45.36	2.28	-47.9	-62.8	3.6	1.51e+00	0	38	104	0	60	49941
2026-01-02 19:08:57.82	45.28	2.33	-47.9	-63.0	3.6	1.51e+00	0	38	104	0	60	51073
2026-01-02 19:08:58.83	45.19	2.38	-47.9	-63.1	3.6	1.51e+00	0	38	104	0	60	51699
2026-01-02 19:08:59.84	45.10	2.43	-47.9	-63.1	3.6	1.51e+00	0	38	104	0	60	51626
2026-01-02 19:09:00.85	45.01	2.48	-47.9	-63.1	3.6	1.51e+00	0	38	104	0	60	51643
2026-01-02 19:09:01.86	44.92	2.53	-47.9	-63.1	3.6	1.51e+00	0	38	104	0	60	51430
2026-01-02 19:09:02.87	44.83	2.58	-47.9	-63.1	3.6	1.51e+00	0	38	104	0	60	51660
2026-01-02 19:09:03.88	44.74	2.63	-47.9	-63.0	3.6	1.51e+00	0	38	104	0	60	51327
2026-01-02 19:09:04.89	44.65	2.68	-47.9	-62.6	3.6	1.51e+00	0	38	104	0	60	48934
2026-01-02 19:09:05.90	44.56	2.73	-47.9	-62.2	3.6	1.51e+00	0	38	104	0	60	46729
2026-01-02 19:09:06.91	44.47	2.78	-47.9	-62.4	3.6	1.51e+00	0	38	104	0	60	47762
2026-01-02 19:09:07.92	44.37	2.83	-47.9	-62.9	3.5	1.51e+00	0	38	104	0	60	50742
2026-01-02 19:09:08.93	44.28	2.88	-47.9	-62.3	3.5	1.51e+00	0	38	104	0	60	46863
2026-01-02 19:09:09.94	44.19	2.94	-47.7	-58.8	4.4	1.50e+00	92	38	104	0	60	31606
2026-01-02 19:09:10.95	44.10	2.99	-47.2	-54.4	7.0	2.54e-01	47	38	0	1048576	60	18886
2026-01-02 19:09:11.96	44.00	3.04	-46.7	-52.4	9.2	5.64e-02	92	38	0	2097152	60	15020
2026-01-02 19:09:12.97	43.91	3.09	-48.1	-62.9	3.6	6.75e-01	0	38	104	3145728	60	50356
2026-01-02 19:09:13.98	43.82	3.14	-48.0	-63.0	3.6	1.51e+00	0	38	104	3145728	60	51071
2026-01-02 19:09:14.99	43.72	3.19	-46.0	-50.7	11.0	5.00e-01	92	38	104	3145728	60	12441
2026-01-02 19:09:16.00	43.63	3.24	-44.8	-47.9	14.4	3.00e-06	0	38	0	4194304	60	8948
2026-01-02 19:09:17.01	43.53	3.29	-47.8	-62.2	3.6	1.61e-02	0	38	104	5242880	60	46562
2026-01-02 19:09:18.02	43.44	3.34	-44.2	-47.0	15.2	1.28e+00	0	38	104	5242880	60	8046
2026-01-02 19:09:19.03	43.34	3.39	-43.9	-46.4	15.8	0.00e+00	92	38	0	5242880	60	7552
2026-01-02 19:09:20.03	43.25	3.44	-43.5	-45.7	16.6	0.00e+00	0	38	0	7340032	60	6983
2026-01-02 19:09:21.05	43.15	3.49	-43.9	-46.3	16.0	0.00e+00	3	38	0	9437184	60	7462
2026-01-02 19:09:22.05	43.06	3.54	-43.8	-46.2	16.1	0.00e+00	92	38	0	11534336	60	7362
2026-01-02 19:09:23.06	42.96	3.60	-44.0	-46.5	15.8	0.00e+00	0	38	0	13631488	60	7655
2026-01-02 19:09:24.07	42.86	3.65	-43.9	-46.3	16.1	0.00e+00	92	38	0	14680064	60	7445
2026-01-02 19:09:25.08	42.77	3.70	-43.8	-46.2	16.2	0.00e+00	34	38	0	16777216	60	7363
2026-01-02 19:09:26.09	42.67	3.75	-43.4	-45.6	16.7	0.00e+00	92	38	0	18874368	60	6857
2026-01-02 19:09:27.10	42.57	3.80	-43.9	-46.3	16.0	0.00e+00	0	38	0	20971520	60	7446
2026-01-02 19:09:28.10	42.47	3.85	-44.0	-46.5	15.9	0.00e+00	0	38	0	23068672	60	7637
2026-01-02 19:09:29.11	42.37	3.90	-43.6	-45.9	16.5	0.00e+00	0	38	0	24117248	60	7136
2026-01-02 19:09:30.12	42.27	3.95	-43.5	-45.7	16.6	0.00e+00	0	38	0	26214400	60	6964
2026-01-02 19:09:31.13	42.17	4.00	-43.5	-45.7	16.5	0.00e+00	90	38	0	28311552	60	6955
2026-01-02 19:09:32.14	42.07	4.05	-43.6	-45.8	16.5	0.00e+00	34	38	0	30408704	60	7054
2026-01-02 19:09:33.15	41.97	4.11	-43.7	-46.0	16.3	0.00e+00	92	38	0	32505856	60	7195
2026-01-02 19:09:34.16	41.87	4.16	-43.6	-45.8	16.6	0.00e+00	46	38	0	33554432	60	7038
2026-01-02 19:09:35.17	41.77	4.21	-43.7	-46.0	16.4	0.00e+00	35	38	0	35651584	60	7207
2026-01-02 19:09:36.18	41.67	4.26	-43.8	-46.2	16.1	0.00e+00	46	38	0	37748736	60	7369
2026-01-02 19:09:37.18	41.57	4.31	-43.4	-45.6	16.8	0.00e+00	2	38	0	39845888	60	6872
2026-01-02 19:09:38.19	41.47	4.36	-43.4	-45.6	16.7	0.00e+00	92	38	0	41943040	60	6888
2026-01-02 19:09:39.20	41.37	4.41	-43.3	-45.5	17.0	0.00e+00	0	38	0	42991616	60	6780
2026-01-02 19:09:40.21	41.26	4.46	-43.4	-45.5	16.9	0.00e+00	92	38	0	45088768	60	6830
2026-01-02 19:09:41.22	41.16	4.51	-43.3	-45.4	17.0	0.00e+00	2	38	0	47185920	60	6712
2026-01-02 19:09:42.23	41.06	4.57	-43.4	-45.6	16.8	0.00e+00	0	38	0	49283072	60	6863
2026-01-02 19:09:43.24	40.95	4.62	-43.3	-45.4	17.0	0.00e+00	0	38	0	51380224	60	6740
2026-01-02 19:09:44.25	40.85	4.67	-43.0	-45.0	17.5	0.00e+00	0	38	0	52428800	60	6429
2026-01-02 19:09:45.26	40.74	4.72	-43.1	-45.2	17.3	0.00e+00	73	38	0	54525952	60	6543
2026-01-02 19:09:46.27	40.64	4.77	-43.2	-45.3	17.1	0.00e+00	0	38	0	56623104	60	6648
2026-01-02 19:09:47.28	40.53	4.82	-43.5	-45.7	16.8	0.00e+00	92	38	0	58720256	60	6960
2026-01-02 19:09:48.29	40.43	4.87	-43.3	-45.3	17.2	0.00e+00	34	38	0	60817408	60	6674
2026-01-02 19:09:49.30	40.32	4.92	-43.3	-45.4	17.1	0.00e+00	77	38	0	61865984	60	6747
2026-01-02 19:09:50.31	40.21	4.97	-43.1	-45.1	17.5	0.00e+00	0	38	0	63963136	60	6472
2026-01-02 19:09:51.32	40.11	5.03	-42.9	-44.7	17.9	0.00e+00	33	38	0	66060288	60	6243
2026-01-02 19:09:52.33	40.00	5.08	-42.9	-44.8	17.8	0.00e+00	0	38	0	68157440	60	6265
2026-01-02 19:09:53.34	39.89	5.13	-43.4	-45.4	17.3	0.00e+00	31	38	0	70254592	60	6727
2026-01-02 19:09:54.35	39.78	5.18	-42.8	-44.7	17.9	0.00e+00	92	38	0	71303168	60	6214
2026-01-02 19:09:55.36	39.67	5.23	-43.0	-45.0	17.6	0.00e+00	0	38	0	73400320	58	7176
2026-01-02 19:09:56.37	39.57	5.28	-42.6	-44.4	18.2	0.00e+00	91	38	0	75497472	58	6694
2026-01-02 19:09:57.38	39.46	5.33	-43.0	-44.9	17.7	0.00e+00	47	38	0	77594624	58	7123
2026-01-02 19:09:58.39	39.35	5.39	-42.9	-44.7	18.0	0.00e+00	6	38	0	79691776	58	6982
2026-01-02 19:09:59.40	39.24	5.44	-42.7	-44.5	18.1	0.00e+00	0	38	0	81788928	58	6816
2026-01-02 19:10:00.41	39.13	5.49	-42.7	-44.5	18.1	0.00e+00	46	38	0	82837504	58	6779
2026-01-02 19:10:01.41	39.02	5.54	-42.7	-44.5	18.1	0.00e+00	91	38	0	84934656	58	6800
2026-01-02 19:10:02.43	38.90	5.59	-42.6	-44.4	18.3	0.00e+00	7	38	0	87031808	58	6725
2026-01-02 19:10:03.43	38.79	5.64	-42.7	-44.4	18.3	0.00e+00	92	38	0	89128960	58	6743
2026-01-02 19:10:04.44	38.68	5.69	-42.5	-44.2	18.4	0.00e+00	7	38	0	91226112	58	6597
2026-01-02 19:10:05.45	38.57	5.74	-42.6	-44.3	18.4	0.00e+00	35	38	0	92274688	58	6659
2026-01-02 19:10:06.46	38.45	5.80	-42.4	-44.1	18.6	0.00e+00	8	38	0	94371840	58	6474
2026-01-02 19:10:07.47	38.34	5.85	-42.4	-44.1	18.6	0.00e+00	0	38	0	96468992	58	6465
2026-01-02 19:10:08.48	38.23	5.90	-42.5	-44.2	18.5	0.00e+00	89	38	0	98566144	58	6549
2026-01-02 19:10:09.50	38.11	5.95	-42.3	-43.9	18.8	0.00e+00	6	38	0	100663296	58	6370
2026-01-02 19:10:10.50	38.00	6.00	-42.3	-43.9	18.7	0.00e+00	95	38	0	101711872	58	6368
2026-01-02 19:10:11.51	37.88	6.05	-42.3	-44.0	18.7	0.00e+00	32	38	0	103809024	58	6403
2026-01-02 19:10:12.53	37.77	6.10	-42.5	-44.2	18.5	0.00e+00	33	38	0	105906176	58	6548
2026-01-02 19:10:13.53	37.65	6.15	-42.5	-44.2	18.4	0.00e+00	35	38	0	108003328	58	6599
2026-01-02 19:10:14.54	37.54	6.20	-42.4	-44.0	18.8	0.00e+00	52	38	0	110100480	58	6444
2026-01-02 19:10:15.55	37.42	6.26	-42.4	-44.0	18.8	0.00e+00	11	38	0	111149056	58	6430
2026-01-02 19:10:16.56	37.30	6.31	-42.5	-44.2	18.6	0.00e+00	54	38	0	113246208	58	6548
2026-01-02 19:10:17.57	37.18	6.36	-42.4	-44.0	18.7	0.00e+00	92	38	0	115343360	58	6426
2026-01-02 19:10:18.58	37.07	6.41	-42.5	-44.2	18.6	0.00e+00	50	39	0	117440512	58	6568
2026-01-02 19:10:19.59	36.95	6.46	-42.4	-44.0	18.8	0.00e+00	92	38	0	119537664	58	6431
2026-01-02 19:10:20.59	36.83	6.51	-42.5	-44.2	18.6	0.00e+00	53	38	0	120586240	58	6572
2026-01-02 19:10:21.60	36.71	6.56	-42.5	-44.1	18.7	0.00e+00	51	38	0	122683392	58	6520
2026-01-02 19:10:22.61	36.59	6.61	-42.3	-43.9	19.0	0.00e+00	5	38	0	124780544	58	6320
2026-01-02 19:10:23.62	36.47	6.66	-42.6	-44.4	18.5	0.00e+00	6	38	0	126877696	58	6699
2026-01-02 19:10:24.63	36.35	6.72	-42.4	-44.0	18.9	0.00e+00	91	38	0	128974848	58	6411
2026-01-02 19:10:25.65	36.23	6.77	-42.5	-44.1	18.7	0.00e+00	0	38	0	130023424	58	6535
2026-01-02 19:10:26.65	36.11	6.82	-42.5	-44.1	18.7	0.00e+00	93	38	0	132120576	58	6539
2026-01-02 19:10:27.66	35.99	6.87	-42.4	-44.0	18.9	0.00e+00	0	38	0	134217728	58	6394
2026-01-02 19:10:28.67	35.86	6.92	-42.5	-44.1	18.8	0.00e+00	35	38	0	136314880	58	6518
2026-01-02 19:10:29.68	35.74	6.97	-42.4	-44.0	18.9	0.00e+00	0	38	0	138412032	58	6393
2026-01-02 19:10:30.69	35.62	7.02	-42.3	-43.9	19.0	0.00e+00	34	38	0	139460608	58	6339
2026-01-02 19:10:31.70	35.49	7.07	-42.2	-43.7	19.1	0.00e+00	1	38	0	141557760	58	6230
2026-01-02 19:10:32.71	35.37	7.12	-42.1	-43.6	19.3	0.00e+00	29	38	0	143654912	58	6131
2026-01-02 19:10:33.73	35.25	7.17	-42.1	-43.7	19.2	0.00e+00	91	38	0	145752064	58	6184
2026-01-02 19:10:34.73	35.12	7.23	-42.2	-43.8	19.1	0.00e+00	46	38	0	147849216	58	6296
2026-01-02 19:10:35.74	35.00	7.28	-42.2	-43.8	19.0	0.00e+00	51	38	0	149946368	58	6274
2026-01-02 19:10:36.75	34.87	7.33	-42.1	-43.6	19.3	0.00e+00	45	38	0	150994944	58	6140
2026-01-02 19:10:37.76	34.74	7.38	-42.0	-43.5	19.4	0.00e+00	35	38	0	153092096	58	6078
2026-01-02 19:10:38.76	34.62	7.43	-42.1	-43.6	19.3	0.00e+00	0	38	0	155189248	58	6164
2026-01-02 19:10:39.77	34.49	7.48	-42.1	-43.6	19.3	0.00e+00	0	38	0	157286400	58	6126
2026-01-02 19:10:40.78	34.36	7.53	-42.1	-43.7	19.3	0.00e+00	92	38	0	159383552	58	6176
2026-01-02 19:10:41.79	34.24	7.58	-42.0	-43.5	19.3	0.00e+00	46	38	0	160432128	58	6098
2026-01-02 19:10:42.80	34.11	7.63	-41.9	-43.4	19.5	0.00e+00	90	38	0	162529280	58	5979
2026-01-02 19:10:43.80	33.98	7.68	-42.1	-43.6	19.4	0.00e+00	2	38	0	164626432	58	6106
2026-01-02 19:10:44.81	33.85	7.73	-42.1	-43.6	19.3	0.00e+00	47	38	0	166723584	58	6160
2026-01-02 19:10:45.82	33.72	7.78	-42.1	-43.7	19.3	0.00e+00	45	38	0	167772160	58	6174
2026-01-02 19:10:46.83	33.59	7.83	-42.2	-43.7	19.3	0.00e+00	0	38	0	169869312	58	6195
2026-01-02 19:10:47.84	33.46	7.88	-42.5	-44.1	18.9	0.00e+00	92	38	0	171966464	58	6478
2026-01-02 19:10:48.84	33.33	7.93	-42.3	-43.8	19.2	0.00e+00	0	38	0	174063616	58	6301
2026-01-02 19:10:49.85	33.20	7.98	-42.3	-43.9	19.1	0.00e+00	92	39	0	176160768	58	6322
2026-01-02 19:10:50.86	33.06	8.03	-42.3	-43.8	19.2	0.00e+00	2	38	0	178257920	58	6302
2026-01-02 19:10:51.87	32.93	8.08	-42.1	-43.6	19.3	0.00e+00	84	39	0	179306496	58	6120
2026-01-02 19:10:52.88	32.80	8.13	-41.9	-43.4	19.6	0.00e+00	35	38	0	181403648	58	6003
2026-01-02 19:10:53.88	32.67	8.18	-41.9	-43.4	19.7	0.00e+00	0	39	0	183500800	56	6703
2026-01-02 19:10:54.89	32.53	8.23	-42.0	-43.5	19.5	0.00e+00	37	38	0	185597952	56	6813
2026-01-02 19:10:55.90	32.40	8.28	-41.9	-43.4	19.6	0.00e+00	0	39	0	187695104	56	6724
2026-01-02 19:10:56.91	32.26	8.33	-42.0	-43.4	19.6	0.00e+00	92	39	0	188743680	56	6737
2026-01-02 19:10:57.92	32.13	8.38	-41.7	-43.1	19.9	0.00e+00	36	38	0	190840832	56	6480
2026-01-02 19:10:58.92	31.99	8.43	-41.8	-43.2	19.8	0.00e+00	90	39	0	192937984	56	6589
2026-01-02 19:10:59.93	31.86	8.48	-41.7	-43.1	19.9	0.00e+00	35	39	0	195035136	56	6538
2026-01-02 19:11:00.94	31.72	8.53	-41.7	-43.1	19.9	0.00e+00	45	38	0	197132288	56	6534
2026-01-02 19:11:01.95	31.58	8.58	-41.7	-43.0	20.0	0.00e+00	24	39	0	198180864	56	6447
2026-01-02 19:11:02.96	31.44	8.63	-41.9	-43.3	19.8	0.00e+00	46	39	0	200278016	56	6674
2026-01-02 19:11:03.97	31.30	8.68	-41.7	-43.0	20.0	0.00e+00	92	39	0	202375168	56	6463
2026-01-02 19:11:04.98	31.17	8.73	-41.7	-43.1	20.0	0.00e+00	2	39	0	204472320	56	6474
2026-01-02 19:11:05.99	31.03	8.78	-41.9	-43.3	19.9	0.00e+00	92	39	0	206569472	56	6628
2026-01-02 19:11:07.00	30.89	8.83	-41.9	-43.4	19.7	0.00e+00	0	39	0	207618048	56	6717
2026-01-02 19:11:08.01	30.75	8.88	-41.9	-43.3	19.7	0.00e+00	46	39	0	209715200	56	6644
2026-01-02 19:11:09.02	30.61	8.93	-41.7	-43.0	20.0	0.00e+00	0	38	0	211812352	56	6448
2026-01-02 19:11:10.03	30.46	8.98	-41.7	-43.1	20.0	0.00e+00	2	38	0	213909504	56	6516
2026-01-02 19:11:11.03	30.32	9.02	-41.8	-43.2	19.9	0.00e+00	92	39	0	216006656	56	6544
2026-01-02 19:11:12.04	30.18	9.07	-41.7	-43.1	20.0	0.00e+00	0	38	0	217055232	56	6478
2026-01-02 19:11:13.05	30.04	9.12	-41.6	-43.0	20.1	0.00e+00	92	38	0	219152384	56	6405
2026-01-02 19:11:14.06	29.90	9.17	-41.7	-43.1	20.0	0.00e+00	0	39	0	221249536	56	6509
2026-01-02 19:11:15.06	29.75	9.22	-41.8	-43.2	19.9	0.00e+00	92	39	0	223346688	56	6608
2026-01-02 19:11:16.07	29.61	9.27	-41.8	-43.2	19.8	0.00e+00	36	39	0	225443840	56	6595
2026-01-02 19:11:17.08	29.46	9.32	-41.9	-43.2	19.8	0.00e+00	0	38	0	226492416	56	6614
2026-01-02 19:11:18.09	29.32	9.36	-41.7	-43.1	20.0	0.00e+00	0	39	0	228589568	56	6484
2026-01-02 19:11:19.10	29.17	9.41	-41.6	-42.9	20.2	0.00e+00	0	39	0	230686720	56	6388
2026-01-02 19:11:20.11	29.03	9.46	-41.7	-43.0	20.2	0.00e+00	92	39	0	232783872	56	6438
2026-01-02 19:11:21.12	28.88	9.51	-41.7	-43.1	20.1	0.00e+00	0	39	0	234881024	56	6478
2026-01-02 19:11:22.13	28.73	9.56	-41.7	-43.0	20.1	0.00e+00	92	39	0	235929600	56	6462
2026-01-02 19:11:23.14	28.59	9.61	-41.7	-43.0	20.3	0.00e+00	0	38	0	238026752	56	6451
2026-01-02 19:11:24.15	28.44	9.65	-41.5	-42.8	20.4	0.00e+00	36	39	0	240123904	56	6310
2026-01-02 19:11:25.16	28.29	9.70	-41.5	-42.9	20.3	0.00e+00	36	38	0	242221056	56	6325
2026-01-02 19:11:26.16	28.14	9.75	-41.4	-42.7	20.4	0.00e+00	47	38	0	244318208	56	6238
2026-01-02 19:11:27.17	27.99	9.80	-41.2	-42.5	20.7	0.00e+00	90	39	0	246415360	56	6055
2026-01-02 19:11:28.18	27.84	9.84	-41.3	-42.6	20.6	0.00e+00	0	38	0	247463936	56	6113
2026-01-02 19:11:29.19	27.69	9.89	-41.2	-42.5	20.7	0.00e+00	90	39	0	249561088	56	6064
2026-01-02 19:11:30.20	27.54	9.94	-41.0	-42.3	20.9	0.00e+00	0	39	0	251658240	56	5906
2026-01-02 19:11:31.20	27.39	9.99	-41.2	-42.4	20.8	0.00e+00	0	38	0	253755392	56	6030
2026-01-02 19:11:32.21	27.24	10.03	-41.0	-42.2	21.0	0.00e+00	51	39	0	254803968	56	5862
2026-01-02 19:11:33.22	27.08	10.08	-41.0	-42.2	21.0	0.00e+00	47	39	0	256901120	56	5883
2026-01-02 19:11:34.23	26.93	10.13	-41.0	-42.2	21.0	0.00e+00	84	39	0	258998272	56	5858
2026-01-02 19:11:35.23	26.78	10.17	-40.7	-41.9	21.3	0.00e+00	0	39	0	261095424	54	6332
2026-01-02 19:11:36.25	26.62	10.22	-40.7	-41.8	21.3	0.00e+00	92	38	0	263192576	54	6300
2026-01-02 19:11:37.25	26.47	10.27	-40.5	-41.6	21.5	0.00e+00	0	39	0	264241152	54	6164
2026-01-02 19:11:38.26	26.31	10.31	-40.5	-41.6	21.5	0.00e+00	0	38	0	266338304	54	6155
2026-01-02 19:11:39.27	26.16	10.36	-40.4	-41.5	21.6	0.00e+00	0	39	0	268435456	54	6088
2026-01-02 19:11:40.28	26.00	10.41	-40.3	-41.4	21.7	0.00e+00	29	39	0	270532608	54	6020
2026-01-02 19:11:41.29	25.85	10.45	-40.3	-41.5	21.6	0.00e+00	0	38	0	272629760	54	6038
2026-01-02 19:11:42.29	25.69	10.50	-40.3	-41.5	21.5	0.00e+00	35	39	0	274726912	54	6047
2026-01-02 19:11:43.30	25.53	10.54	-40.4	-41.5	21.6	0.00e+00	92	39	0	275775488	54	6053
2026-01-02 19:11:44.31	25.37	10.59	-40.2	-41.3	21.8	0.00e+00	0	39	0	277872640	54	5937
2026-01-02 19:11:45.32	25.22	10.64	-40.3	-41.4	21.7	0.00e+00	91	39	0	279969792	54	6017
2026-01-02 19:11:46.33	25.06	10.68	-40.3	-41.4	21.6	0.00e+00	0	38	0	282066944	54	6016
2026-01-02 19:11:47.33	24.90	10.73	-40.2	-41.3	21.8	0.00e+00	0	39	0	284164096	54	5903
2026-01-02 19:11:48.34	24.74	10.77	-40.2	-41.3	21.7	0.00e+00	37	39	0	285212672	54	5939
2026-01-02 19:11:49.35	24.58	10.82	-40.2	-41.4	21.7	0.00e+00	36	39	0	287309824	54	5970
2026-01-02 19:11:50.36	24.42	10.86	-40.3	-41.4	21.5	0.00e+00	91	39	0	289406976	54	6033
2026-01-02 19:11:51.36	24.26	10.91	-40.1	-41.2	21.9	0.00e+00	47	39	0	291504128	54	5878
2026-01-02 19:11:52.37	24.09	10.95	-40.1	-41.2	21.9	0.00e+00	90	39	0	293601280	54	5863
2026-01-02 19:11:53.38	23.93	11.00	-40.1	-41.2	21.8	0.00e+00	47	39	0	294649856	54	5889
2026-01-02 19:11:54.39	23.77	11.04	-40.2	-41.3	21.8	0.00e+00	6	39	0	296747008	54	5945
2026-01-02 19:11:55.40	23.60	11.08	-40.1	-41.2	21.9	0.00e+00	5	39	0	298844160	54	5841
2026-01-02 19:11:56.40	23.44	11.13	-40.1	-41.2	21.9	0.00e+00	46	39	0	300941312	54	5855
2026-01-02 19:11:57.41	23.28	11.17	-40.1	-41.2	22.1	0.00e+00	0	39	0	303038464	54	5840
2026-01-02 19:11:58.42	23.11	11.22	-40.0	-41.1	21.9	0.00e+00	45	39	0	304087040	54	5820
2026-01-02 19:11:59.43	22.95	11.26	-39.9	-40.9	22.1	0.00e+00	92	39	0	306184192	54	5687
2026-01-02 19:12:00.44	22.78	11.30	-39.9	-41.0	22.1	0.00e+00	6	39	0	308281344	54	5730
2026-01-02 19:12:01.45	22.61	11.35	-39.7	-40.7	22.3	0.00e+00	92	39	0	310378496	52	6211
2026-01-02 19:12:02.46	22.45	11.39	-39.7	-40.8	21.8	0.00e+00	8	39	0	312475648	52	6262
2026-01-02 19:12:03.47	22.28	11.43	-39.8	-40.8	22.1	0.00e+00	0	39	0	313524224	52	6291
2026-01-02 19:12:04.48	22.11	11.48	-39.7	-40.8	22.3	0.00e+00	0	38	0	315621376	52	6255
2026-01-02 19:12:05.49	21.94	11.52	-39.5	-40.5	22.5	0.00e+00	31	39	0	317718528	52	6097
2026-01-02 19:12:06.49	21.77	11.56	-39.5	-40.5	22.5	0.00e+00	92	39	0	319815680	52	6040
2026-01-02 19:12:07.50	21.60	11.60	-39.4	-40.4	22.7	0.00e+00	29	39	0	321912832	52	6006
2026-01-02 19:12:08.51	21.43	11.64	-39.4	-40.3	22.7	0.00e+00	92	39	0	322961408	52	5962
2026-01-02 19:12:09.52	21.26	11.69	-39.4	-40.4	22.6	0.00e+00	0	39	0	325058560	52	6029
2026-01-02 19:12:10.53	21.09	11.73	-39.4	-40.4	22.6	0.00e+00	56	39	0	327155712	52	6008
2026-01-02 19:12:11.53	20.92	11.77	-39.3	-40.3	22.7	0.00e+00	55	39	0	329252864	52	5919
2026-01-02 19:12:12.54	20.75	11.81	-39.4	-40.4	22.7	0.00e+00	35	39	0	331350016	52	5978
2026-01-02 19:12:13.55	20.58	11.85	-39.5	-40.5	22.7	0.00e+00	90	39	0	332398592	52	6041
2026-01-02 19:12:14.56	20.40	11.89	-39.5	-40.5	22.5	0.00e+00	35	39	0	334495744	52	6080
2026-01-02 19:12:15.56	20.23	11.93	-39.3	-40.3	22.7	0.00e+00	92	39	0	336592896	52	5951
2026-01-02 19:12:16.57	20.06	11.98	-39.4	-40.4	22.7	0.00e+00	51	39	0	338690048	52	5979
2026-01-02 19:12:17.58	19.88	12.02	-39.5	-40.5	22.6	0.00e+00	7	39	0	340787200	52	6041
2026-01-02 19:12:18.59	19.71	12.06	-39.6	-40.6	22.2	0.00e+00	5	39	0	341835776	52	6156
2026-01-02 19:12:19.60	19.53	12.10	-39.6	-40.6	22.4	0.00e+00	51	39	0	343932928	52	6148
2026-01-02 19:12:20.61	19.36	12.14	-39.7	-40.7	22.4	0.00e+00	0	39	0	346030080	52	6231
2026-01-02 19:12:21.62	19.18	12.18	-39.7	-40.7	22.4	0.00e+00	6	39	0	348127232	52	6228
2026-01-02 19:12:22.63	19.00	12.22	-39.8	-40.8	22.3	0.00e+00	90	39	0	350224384	52	6310
2026-01-02 19:12:23.64	18.83	12.25	-39.7	-40.7	22.4	0.00e+00	0	39	0	351272960	52	6218
2026-01-02 19:12:24.65	18.65	12.29	-39.7	-40.7	22.3	0.00e+00	90	39	0	353370112	52	6230
2026-01-02 19:12:25.66	18.47	12.33	-39.9	-40.9	22.3	0.00e+00	9	38	0	355467264	52	6383
2026-01-02 19:12:26.66	18.29	12.37	-40.0	-41.0	22.2	0.00e+00	0	39	0	357564416	52	6455
2026-01-02 19:12:27.67	18.11	12.41	-40.0	-41.1	22.1	0.00e+00	0	39	0	359661568	52	6480
2026-01-02 19:12:28.68	17.93	12.45	-40.2	-41.3	21.9	0.00e+00	36	39	0	360710144	52	6616
2026-01-02 19:12:29.69	17.75	12.49	-40.0	-41.1	22.0	0.00e+00	92	39	0	362807296	52	6507
2026-01-02 19:12:30.70	17.57	12.52	-40.1	-41.2	22.0	0.00e+00	38	39	0	364904448	52	6603
2026-01-02 19:12:31.71	17.39	12.56	-40.2	-41.3	22.0	0.00e+00	92	39	0	367001600	52	6635
2026-01-02 19:12:32.72	17.21	12.60	-40.1	-41.1	22.1	0.00e+00	0	39	0	369098752	52	6515
2026-01-02 19:12:33.73	17.03	12.64	-40.1	-41.2	21.8	0.00e+00	50	39	0	371195904	52	6587
2026-01-02 19:12:34.74	16.84	12.67	-40.2	-41.3	21.9	0.00e+00	49	39	0	372244480	52	6627
2026-01-02 19:12:35.74	16.66	12.71	-40.4	-41.5	21.7	0.00e+00	32	39	0	374341632	52	6836
2026-01-02 19:12:36.75	16.48	12.75	-40.1	-41.2	22.1	0.00e+00	35	39	0	376438784	52	6559
2026-01-02 19:12:37.76	16.29	12.78	-40.1	-41.1	22.1	0.00e+00	32	39	0	378535936	52	6511
2026-01-02 19:12:38.77	16.11	12.82	-40.0	-41.0	22.2	0.00e+00	92	39	0	379584512	52	6462
2026-01-02 19:12:39.78	15.92	12.85	-40.2	-41.2	21.9	0.00e+00	0	39	0	381681664	52	6613
2026-01-02 19:12:40.78	15.74	12.89	-40.3	-41.4	22.0	0.00e+00	62	39	0	383778816	52	6742
2026-01-02 19:12:41.79	15.55	12.92	-40.4	-41.4	21.8	0.00e+00	0	39	0	385875968	52	6767
2026-01-02 19:12:42.80	15.37	12.96	-40.3	-41.4	22.1	0.00e+00	47	39	0	387973120	52	6693
2026-01-02 19:12:43.81	15.18	12.99	-40.3	-41.4	21.8	0.00e+00	45	39	0	389021696	52	6705
2026-01-02 19:12:44.82	14.99	13.03	-40.2	-41.3	22.1	0.00e+00	0	39	0	391118848	52	6644
2026-01-02 19:12:45.83	14.81	13.06	-39.9	-41.0	22.0	0.00e+00	90	39	0	393216000	52	6395
2026-01-02 19:12:46.84	14.62	13.10	-40.1	-41.2	22.2	0.00e+00	0	39	0	395313152	52	6554
2026-01-02 19:12:47.85	14.43	13.13	-39.9	-40.9	22.2	0.00e+00	92	39	0	397410304	52	6345
2026-01-02 19:12:48.86	14.24	13.16	-39.9	-41.0	22.1	0.00e+00	0	39	0	399507456	52	6391
2026-01-02 19:12:49.87	14.05	13.20	-40.0	-41.0	22.3	0.00e+00	0	39	0	400556032	52	6458
2026-01-02 19:12:50.87	13.86	13.23	-39.9	-40.9	22.3	0.00e+00	0	39	0	402653184	52	6352
2026-01-02 19:12:51.88	13.67	13.26	-39.8	-40.9	22.3	0.00e+00	0	39	0	404750336	52	6322
2026-01-02 19:12:52.89	13.48	13.29	-39.7	-40.7	22.5	0.00e+00	92	39	0	406847488	52	6228
2026-01-02 19:12:53.90	13.29	13.33	-39.7	-40.8	22.3	0.00e+00	38	39	0	408944640	52	6246
2026-01-02 19:12:54.91	13.10	13.36	-39.8	-40.8	22.4	0.00e+00	91	39	0	409993216	52	6256
2026-01-02 19:12:55.92	12.91	13.39	-39.9	-40.9	22.3	0.00e+00	37	39	0	412090368	52	6351
2026-01-02 19:12:56.93	12.71	13.42	-39.8	-40.9	22.3	0.00e+00	44	39	0	414187520	52	6322
2026-01-02 19:12:57.94	12.52	13.45	-39.9	-40.9	22.3	0.00e+00	52	39	0	416284672	52	6379
2026-01-02 19:12:58.95	12.33	13.48	-40.0	-41.1	22.2	0.00e+00	0	39	0	418381824	52	6490
2026-01-02 19:12:59.96	12.13	13.51	-39.7	-40.7	22.4	0.00e+00	5	39	0	419430400	52	6243
2026-01-02 19:13:00.95	11.94	13.54	-39.5	-40.5	22.6	0.00e+00	37	39	0	421527552	52	6098
2026-01-02 19:13:01.96	11.75	13.57	-39.5	-40.5	22.7	0.00e+00	92	39	0	423624704	52	6061
2026-01-02 19:13:02.97	11.55	13.60	-39.4	-40.4	22.8	0.00e+00	45	39	0	425721856	52	5990
2026-01-02 19:13:03.98	11.36	13.63	-39.4	-40.4	22.8	0.00e+00	92	39	0	427819008	52	6004
2026-01-02 19:13:04.99	11.16	13.66	-39.4	-40.4	22.7	0.00e+00	51	39	0	428867584	52	6002
2026-01-02 19:13:06.00	10.97	13.69	-39.3	-40.3	22.9	0.00e+00	50	39	0	430964736	52	5915
2026-01-02 19:13:07.01	10.77	13.72	-39.4	-40.4	22.7	0.00e+00	0	39	0	433061888	52	6027
2026-01-02 19:13:08.02	10.57	13.75	-39.5	-40.5	22.6	0.00e+00	0	39	0	435159040	52	6043
2026-01-02 19:13:09.03	10.38	13.77	-39.5	-40.5	22.7	0.00e+00	92	39	0	437256192	52	6084
2026-01-02 19:13:10.04	10.18	13.80	-39.4	-40.4	22.7	0.00e+00	0	39	0	438304768	52	6027
2026-01-02 19:13:11.05	9.98	13.83	-39.3	-40.3	22.8	0.00e+00	92	39	0	440401920	52	5908
2026-01-02 19:13:12.06	9.78	13.86	-39.5	-40.5	22.8	0.00e+00	0	39	0	442499072	52	6065
2026-01-02 19:13:13.07	9.59	13.88	-39.4	-40.4	22.7	0.00e+00	0	39	0	444596224	52	5990
2026-01-02 19:13:14.07	9.39	13.91	-39.4	-40.3	22.7	0.00e+00	0	39	0	446693376	52	5956
2026-01-02 19:13:15.08	9.19	13.93	-39.3	-40.3	22.7	0.00e+00	0	39	0	447741952	52	5932
2026-01-02 19:13:16.09	8.99	13.96	-39.2	-40.2	22.9	0.00e+00	5	39	0	449839104	52	5867
2026-01-02 19:13:17.10	8.79	13.98	-39.4	-40.4	22.8	0.00e+00	0	39	0	451936256	52	6021
2026-01-02 19:13:18.11	8.59	14.01	-39.5	-40.5	22.6	0.00e+00	90	39	0	454033408	52	6067
2026-01-02 19:13:19.11	8.39	14.03	-39.6	-40.7	22.5	0.00e+00	0	39	0	456130560	52	6174
2026-01-02 19:13:20.12	8.19	14.06	-39.9	-40.9	22.4	0.00e+00	39	39	0	457179136	52	6364
2026-01-02 19:13:21.13	7.99	14.08	-39.6	-40.6	22.5	0.00e+00	45	39	0	459276288	52	6172
2026-01-02 19:13:22.14	7.79	14.11	-39.6	-40.6	22.6	0.00e+00	0	39	0	461373440	52	6169
2026-01-02 19:13:23.14	7.59	14.13	-39.5	-40.5	22.7	0.00e+00	0	39	0	463470592	52	6039
2026-01-02 19:13:24.15	7.38	14.15	-39.5	-40.5	22.7	0.00e+00	37	39	0	465567744	52	6097
2026-01-02 19:13:25.16	7.18	14.17	-39.6	-40.6	22.6	0.00e+00	92	39	0	466616320	52	6123
2026-01-02 19:13:26.17	6.98	14.20	-39.9	-41.0	22.3	0.00e+00	37	39	0	468713472	52	6396
2026-01-02 19:13:27.17	6.78	14.22	-40.1	-41.2	22.0	0.00e+00	92	39	0	470810624	52	6568
2026-01-02 19:13:28.18	6.57	14.24	-39.9	-41.0	22.2	0.00e+00	0	39	0	472907776	52	6403
2026-01-02 19:13:29.19	6.37	14.26	-39.9	-40.9	22.3	0.00e+00	44	39	0	475004928	52	6354
2026-01-02 19:13:30.20	6.16	14.28	-39.9	-41.0	22.3	0.00e+00	2	39	0	476053504	52	6411
2026-01-02 19:13:31.21	5.96	14.30	-39.9	-40.9	22.3	0.00e+00	0	39	0	478150656	52	6348
2026-01-02 19:13:32.22	5.76	14.32	-40.0	-41.0	22.2	0.00e+00	24	39	0	480247808	52	6425
2026-01-02 19:13:33.22	5.55	14.34	-40.0	-41.1	22.2	0.00e+00	0	39	0	482344960	52	6466
2026-01-02 19:13:34.23	5.35	14.36	-40.2	-41.3	22.0	0.00e+00	92	39	0	484442112	52	6645
2026-01-02 19:13:35.24	5.14	14.38	-40.3	-41.4	21.9	0.00e+00	0	39	0	485490688	52	6760
2026-01-02 19:13:36.25	4.94	14.40	-40.3	-41.4	21.9	0.00e+00	0	39	0	487587840	52	6748
2026-01-02 19:13:37.26	4.73	14.42	-40.2	-41.3	22.1	0.00e+00	0	39	0	489684992	52	6657
2026-01-02 19:13:38.27	4.52	14.44	-40.1	-41.1	22.1	0.00e+00	0	39	0	491782144	52	6533
2026-01-02 19:13:39.27	4.32	14.46	-40.1	-41.2	22.1	0.00e+00	32	39	0	493879296	52	6553
2026-01-02 19:13:40.29	4.11	14.47	-39.8	-40.9	22.3	0.00e+00	0	39	0	495976448	52	6354
2026-01-02 19:13:41.30	3.90	14.49	-39.9	-41.0	22.4	0.00e+00	92	39	0	497025024	52	6421
2026-01-02 19:13:42.31	3.70	14.51	-39.8	-40.8	22.4	0.00e+00	0	39	0	499122176	52	6303
2026-01-02 19:13:43.31	3.49	14.52	-39.8	-40.9	22.4	0.00e+00	91	39	0	501219328	52	6341
2026-01-02 19:13:44.32	3.28	14.54	-39.8	-40.9	22.4	0.00e+00	36	39	0	503316480	52	6320
2026-01-02 19:13:45.33	3.07	14.55	-39.7	-40.7	22.5	0.00e+00	36	39	0	505413632	52	6241
2026-01-02 19:13:46.34	2.87	14.57	-39.7	-40.7	22.6	0.00e+00	2	39	0	506462208	52	6215
2026-01-02 19:13:47.35	2.66	14.58	-39.6	-40.6	22.7	0.00e+00	0	39	0	508559360	52	6141
2026-01-02 19:13:48.36	2.45	14.60	-39.5	-40.5	22.7	0.00e+00	91	39	0	510656512	52	6048
2026-01-02 19:13:49.37	2.24	14.61	-39.6	-40.6	22.7	0.00e+00	43	39	0	512753664	52	6144
2026-01-02 19:13:50.39	2.03	14.63	-39.6	-40.6	22.7	0.00e+00	91	39	0	514850816	52	6129
2026-01-02 19:13:51.39	1.82	14.64	-39.6	-40.6	22.6	0.00e+00	5	39	0	515899392	52	6151
2026-01-02 19:13:52.40	1.61	14.65	-39.8	-40.8	22.3	0.00e+00	5	39	0	517996544	52	6286
2026-01-02 19:13:53.41	1.40	14.67	-39.8	-40.8	22.5	0.00e+00	5	39	0	520093696	52	6264
2026-01-02 19:13:54.42	1.19	14.68	-39.8	-40.8	22.5	0.00e+00	7	39	0	522190848	52	6301
2026-01-02 19:13:55.43	0.98	14.69	-39.8	-40.8	22.5	0.00e+00	92	39	0	524288000	52	6264
2026-01-02 19:13:56.44	0.77	14.70	-39.7	-40.7	22.6	0.00e+00	0	39	0	525336576	52	6224
2026-01-02 19:13:57.45	0.56	14.71	-39.8	-40.8	22.6	0.00e+00	92	39	0	527433728	52	6255
2026-01-02 19:13:58.46	0.35	14.72	-39.7	-40.7	22.6	0.00e+00	0	39	0	529530880	52	6222
2026-01-02 19:13:59.47	0.14	14.73	-39.7	-40.8	22.5	0.00e+00	0	39	0	531628032	52	6256
2026-01-02 19:14:00.48	359.93	14.74	-39.8	-40.9	22.5	0.00e+00	0	39	0	533725184	52	6331
2026-01-02 19:14:01.49	359.72	14.75	-39.8	-40.8	22.5	0.00e+00	6	39	0	534773760	52	6276
2026-01-02 19:14:02.50	359.51	14.76	-39.8	-40.8	22.4	0.00e+00	43	39	0	536870912	52	6296
2026-01-02 19:14:03.51	359.30	14.77	-39.7	-40.7	22.5	0.00e+00	0	39	0	538968064	52	6230
2026-01-02 19:14:04.52	359.09	14.78	-39.7	-40.7	22.6	0.00e+00	90	39	0	541065216	52	6195
2026-01-02 19:14:05.53	358.87	14.79	-39.6	-40.6	22.6	0.00e+00	54	39	0	543162368	52	6127
2026-01-02 19:14:06.54	358.66	14.79	-39.7	-40.7	22.5	0.00e+00	91	39	0	544210944	52	6231
2026-01-02 19:14:07.55	358.45	14.80	-39.6	-40.6	22.7	0.00e+00	36	39	0	546308096	52	6150
2026-01-02 19:14:08.56	358.24	14.81	-39.7	-40.7	22.5	0.00e+00	49	39	0	548405248	52	6228
2026-01-02 19:14:09.57	358.03	14.81	-39.8	-40.8	22.5	0.00e+00	6	39	0	550502400	52	6309
2026-01-02 19:14:10.58	357.82	14.82	-39.8	-40.9	22.4	0.00e+00	56	39	0	552599552	52	6319
2026-01-02 19:14:11.59	357.60	14.83	-40.0	-41.0	22.3	0.00e+00	92	39	0	553648128	52	6449
2026-01-02 19:14:12.60	357.39	14.83	-39.9	-40.9	22.4	0.00e+00	54	39	0	555745280	52	6383
2026-01-02 19:14:13.61	357.18	14.84	-39.7	-40.8	22.5	0.00e+00	91	39	0	557842432	52	6246
2026-01-02 19:14:14.62	356.97	14.84	-39.8	-40.8	22.5	0.00e+00	6	39	0	559939584	52	6296
2026-01-02 19:14:15.63	356.76	14.85	-39.6	-40.6	22.7	0.00e+00	6	39	0	562036736	52	6123
2026-01-02 19:14:16.64	356.54	14.85	-39.6	-40.6	22.6	0.00e+00	0	39	0	564133888	52	6118
2026-01-02 19:14:17.65	356.33	14.85	-39.6	-40.6	22.7	0.00e+00	0	39	0	565182464	52	6131
2026-01-02 19:14:18.66	356.12	14.86	-39.6	-40.6	22.6	0.00e+00	92	39	0	567279616	52	6154
2026-01-02 19:14:19.67	355.91	14.86	-39.6	-40.6	22.7	0.00e+00	0	39	0	569376768	52	6120
2026-01-02 19:14:20.68	355.69	14.86	-39.7	-40.7	22.5	0.00e+00	92	39	0	571473920	52	6212
2026-01-02 19:14:21.69	355.48	14.86	-39.7	-40.8	22.6	0.00e+00	0	39	0	573571072	52	6248
2026-01-02 19:14:22.70	355.27	14.86	-39.7	-40.7	22.5	0.00e+00	38	39	0	574619648	52	6193
2026-01-02 19:14:23.71	355.06	14.86	-39.7	-40.8	22.5	0.00e+00	31	39	0	576716800	52	6257
2026-01-02 19:14:24.72	354.84	14.86	-39.6	-40.6	22.7	0.00e+00	0	39	0	578813952	52	6122
2026-01-02 19:14:25.73	354.63	14.86	-39.5	-40.5	22.7	0.00e+00	41	39	0	580911104	52	6088
2026-01-02 19:14:26.74	354.42	14.86	-39.6	-40.6	22.6	0.00e+00	43	39	0	583008256	52	6108
2026-01-02 19:14:27.75	354.20	14.86	-39.7	-40.7	22.5	0.00e+00	92	39	0	584056832	52	6211
2026-01-02 19:14:28.75	353.99	14.86	-39.8	-40.8	22.2	0.00e+00	49	39	0	586153984	52	6273
2026-01-02 19:14:29.76	353.78	14.86	-39.8	-40.8	22.4	0.00e+00	92	39	0	588251136	52	6284
2026-01-02 19:14:30.77	353.57	14.86	-39.8	-40.8	22.3	0.00e+00	36	39	0	590348288	52	6315
2026-01-02 19:14:31.78	353.36	14.86	-39.8	-40.8	22.3	0.00e+00	0	39	0	592445440	52	6312
2026-01-02 19:14:32.79	353.14	14.85	-40.0	-41.0	22.4	0.00e+00	51	39	0	593494016	52	6442
2026-01-02 19:14:33.80	352.93	14.85	-39.9	-40.9	22.3	0.00e+00	0	39	0	595591168	52	6380
2026-01-02 19:14:34.81	352.72	14.85	-39.9	-41.0	22.4	0.00e+00	92	39	0	597688320	52	6395
2026-01-02 19:14:35.82	352.51	14.84	-40.1	-41.1	22.2	0.00e+00	50	39	0	599785472	52	6537
2026-01-02 19:14:36.83	352.30	14.84	-39.9	-41.0	22.4	0.00e+00	90	39	0	601882624	52	6409
2026-01-02 19:14:37.84	352.08	14.84	-39.8	-40.8	22.5	0.00e+00	0	39	0	602931200	52	6306
2026-01-02 19:14:38.85	351.87	14.83	-39.9	-41.0	22.4	0.00e+00	0	39	0	605028352	52	6409
2026-01-02 19:14:39.86	351.66	14.82	-39.8	-40.8	22.4	0.00e+00	0	39	0	607125504	52	6263
2026-01-02 19:14:40.86	351.45	14.82	-40.0	-41.0	22.3	0.00e+00	0	39	0	609222656	52	6457
2026-01-02 19:14:41.87	351.24	14.81	-40.0	-41.1	22.2	0.00e+00	92	39	0	611319808	52	6485
2026-01-02 19:14:42.88	351.03	14.81	-40.1	-41.1	22.2	0.00e+00	2	39	0	612368384	52	6534
2026-01-02 19:14:43.89	350.81	14.80	-40.2	-41.3	22.0	0.00e+00	92	39	0	614465536	52	6680
2026-01-02 19:14:44.90	350.60	14.79	-40.2	-41.3	22.0	0.00e+00	0	39	0	616562688	52	6653
2026-01-02 19:14:45.91	350.39	14.78	-40.2	-41.3	22.0	0.00e+00	87	39	0	618659840	52	6665
2026-01-02 19:14:46.92	350.18	14.78	-40.1	-41.2	22.1	0.00e+00	43	39	0	620756992	52	6561
2026-01-02 19:14:47.93	349.97	14.77	-40.1	-41.1	22.2	0.00e+00	37	39	0	621805568	52	6504
2026-01-02 19:14:48.94	349.76	14.76	-39.9	-40.9	22.4	0.00e+00	15	39	0	623902720	52	6365
2026-01-02 19:14:49.95	349.55	14.75	-39.8	-40.8	22.5	0.00e+00	45	39	0	625999872	52	6278
2026-01-02 19:14:50.96	349.33	14.74	-39.8	-40.8	22.4	0.00e+00	92	39	0	628097024	52	6304
2026-01-02 19:14:51.97	349.12	14.73	-39.9	-41.0	22.2	0.00e+00	31	39	0	630194176	52	6393
2026-01-02 19:14:52.98	348.91	14.72	-39.8	-40.8	22.4	0.00e+00	64	39	0	632291328	52	6293
2026-01-02 19:14:53.99	348.70	14.71	-40.0	-41.1	22.2	0.00e+00	0	39	0	633339904	52	6508
2026-01-02 19:14:55.00	348.49	14.70	-40.0	-41.1	22.2	0.00e+00	0	39	0	635437056	52	6474
2026-01-02 19:14:56.00	348.28	14.69	-40.2	-41.2	22.1	0.00e+00	0	39	0	637534208	52	6601
2026-01-02 19:14:57.02	348.07	14.67	-40.2	-41.2	22.1	0.00e+00	2	39	0	639631360	52	6595
2026-01-02 19:14:58.03	347.86	14.66	-40.2	-41.3	21.9	0.00e+00	92	39	0	641728512	52	6670
2026-01-02 19:14:59.03	347.66	14.65	-40.3	-41.4	22.0	0.00e+00	0	39	0	642777088	52	6723
2026-01-02 19:15:00.04	347.45	14.64	-40.2	-41.3	22.0	0.00e+00	92	39	0	644874240	52	6623
2026-01-02 19:15:01.04	347.24	14.62	-40.0	-41.1	22.2	0.00e+00	0	39	0	646971392	52	6488
2026-01-02 19:15:02.05	347.03	14.61	-40.0	-41.0	22.3	0.00e+00	25	39	0	649068544	52	6459
2026-01-02 19:15:03.06	346.82	14.59	-39.8	-40.9	22.4	0.00e+00	0	39	0	650117120	52	6324
2026-01-02 19:15:04.07	346.61	14.58	-39.9	-40.9	22.2	0.00e+00	2	39	0	652214272	52	6384
2026-01-02 19:15:05.07	346.41	14.56	-39.8	-40.8	22.4	0.00e+00	92	39	0	654311424	52	6296
2026-01-02 19:15:06.09	346.20	14.55	-39.9	-40.9	22.4	0.00e+00	0	39	0	656408576	52	6362
2026-01-02 19:15:07.10	345.99	14.53	-39.8	-40.9	22.4	0.00e+00	92	39	0	658505728	52	6350
2026-01-02 19:15:08.11	345.78	14.52	-39.9	-40.9	22.3	0.00e+00	33	39	0	660602880	52	6375
2026-01-02 19:15:09.12	345.57	14.50	-39.9	-41.0	22.3	0.00e+00	32	39	0	661651456	52	6402
2026-01-02 19:15:10.13	345.37	14.48	-39.9	-41.0	22.3	0.00e+00	39	39	0	663748608	52	6432
2026-01-02 19:15:11.13	345.16	14.47	-39.9	-40.9	22.4	0.00e+00	44	39	0	665845760	52	6356
2026-01-02 19:15:12.14	344.95	14.45	-39.8	-40.8	22.5	0.00e+00	0	39	0	667942912	52	6288
2026-01-02 19:15:13.16	344.75	14.43	-39.6	-40.6	22.6	0.00e+00	45	39	0	670040064	52	6148
2026-01-02 19:15:14.16	344.54	14.41	-39.5	-40.5	22.7	0.00e+00	91	39	0	671088640	52	6075
2026-01-02 19:15:15.17	344.33	14.39	-39.6	-40.6	22.6	0.00e+00	0	39	0	673185792	52	6164
2026-01-02 19:15:16.18	344.13	14.38	-39.6	-40.6	22.6	0.00e+00	92	39	0	675282944	52	6112
2026-01-02 19:15:17.19	343.92	14.36	-39.5	-40.5	22.6	0.00e+00	0	39	0	677380096	52	6088
2026-01-02 19:15:18.20	343.72	14.34	-39.6	-40.6	22.6	0.00e+00	43	39	0	679477248	52	6120
2026-01-02 19:15:19.21	343.51	14.32	-39.7	-40.7	22.5	0.00e+00	44	39	0	680525824	52	6225
2026-01-02 19:15:20.22	343.31	14.30	-39.7	-40.8	22.5	0.00e+00	0	39	0	682622976	52	6259
2026-01-02 19:15:21.23	343.10	14.28	-39.6	-40.7	22.6	0.00e+00	92	39	0	684720128	52	6184
2026-01-02 19:15:22.24	342.90	14.25	-39.7	-40.7	22.6	0.00e+00	0	39	0	686817280	52	6215
2026-01-02 19:15:23.25	342.70	14.23	-39.8	-40.8	22.5	0.00e+00	87	39	0	688914432	52	6286
2026-01-02 19:15:24.26	342.49	14.21	-39.7	-40.8	22.5	0.00e+00	0	39	0	689963008	52	6251
2026-01-02 19:15:25.27	342.29	14.19	-39.6	-40.7	22.6	0.00e+00	41	39	0	692060160	52	6184
2026-01-02 19:15:26.28	342.09	14.17	-39.6	-40.6	22.6	0.00e+00	31	39	0	694157312	52	6147
2026-01-02 19:15:27.28	341.89	14.14	-39.6	-40.6	22.6	0.00e+00	0	39	0	696254464	52	6153
2026-01-02 19:15:28.29	341.68	14.12	-39.8	-40.8	22.5	0.00e+00	0	39	0	698351616	52	6286
2026-01-02 19:15:29.30	341.48	14.10	-39.8	-40.8	22.4	0.00e+00	36	39	0	699400192	52	6293
2026-01-02 19:15:30.31	341.28	14.07	-40.0	-41.0	22.3	0.00e+00	92	39	0	701497344	52	6452
2026-01-02 19:15:31.32	341.08	14.05	-40.0	-41.1	22.3	0.00e+00	0	39	0	703594496	52	6492
2026-01-02 19:15:32.33	340.88	14.03	-40.1	-41.2	22.1	0.00e+00	52	39	0	705691648	52	6571
2026-01-02 19:15:33.34	340.68	14.00	-40.1	-41.2	22.1	0.00e+00	49	39	0	707788800	52	6566
2026-01-02 19:15:34.35	340.48	13.98	-40.2	-41.3	22.3	0.00e+00	35	39	0	708837376	52	6640
2026-01-02 19:15:35.36	340.28	13.95	-40.2	-41.3	22.1	0.00e+00	26	39	0	710934528	52	6628
2026-01-02 19:15:36.37	340.08	13.93	-40.1	-41.1	22.2	0.00e+00	52	39	0	713031680	52	6534
2026-01-02 19:15:37.38	339.88	13.90	-40.0	-41.1	22.2	0.00e+00	92	39	0	715128832	52	6498
2026-01-02 19:15:38.39	339.68	13.87	-40.1	-41.2	22.1	0.00e+00	6	39	0	717225984	52	6579
2026-01-02 19:15:39.40	339.48	13.85	-40.0	-41.1	22.3	0.00e+00	72	39	0	718274560	52	6483
2026-01-02 19:15:40.40	339.28	13.82	-40.1	-41.2	22.2	0.00e+00	51	39	0	720371712	52	6562
2026-01-02 19:15:41.41	339.09	13.79	-40.2	-41.3	22.1	0.00e+00	6	39	0	722468864	52	6660
2026-01-02 19:15:42.42	338.89	13.76	-40.1	-41.2	22.1	0.00e+00	6	39	0	724566016	52	6596
2026-01-02 19:15:43.43	338.69	13.74	-40.3	-41.4	21.9	0.00e+00	0	39	0	726663168	52	6754
2026-01-02 19:15:44.44	338.50	13.71	-40.1	-41.2	22.1	0.00e+00	92	39	0	728760320	52	6541
2026-01-02 19:15:45.45	338.30	13.68	-40.1	-41.2	22.2	0.00e+00	0	39	0	729808896	52	6561
2026-01-02 19:15:46.46	338.10	13.65	-40.1	-41.2	22.1	0.00e+00	92	39	0	731906048	52	6594
2026-01-02 19:15:47.47	337.91	13.62	-40.2	-41.3	22.1	0.00e+00	0	39	0	734003200	52	6651
2026-01-02 19:15:48.48	337.71	13.59	-40.2	-41.3	22.1	0.00e+00	0	39	0	736100352	52	6635
2026-01-02 19:15:49.48	337.52	13.56	-40.2	-41.3	22.1	0.00e+00	0	39	0	738197504	52	6616
2026-01-02 19:15:50.49	337.33	13.53	-40.3	-41.4	22.0	0.00e+00	0	39	0	739246080	52	6737
2026-01-02 19:15:51.50	337.13	13.50	-40.1	-41.2	22.2	0.00e+00	51	39	0	741343232	52	6558
2026-01-02 19:15:52.51	336.94	13.47	-40.1	-41.2	22.2	0.00e+00	35	39	0	743440384	52	6540
2026-01-02 19:15:53.52	336.75	13.44	-40.0	-41.0	22.3	0.00e+00	92	39	0	745537536	52	6431
2026-01-02 19:15:54.53	336.55	13.41	-39.9	-40.9	22.4	0.00e+00	51	39	0	747634688	52	6349
2026-01-02 19:15:55.54	336.36	13.38	-39.8	-40.9	22.3	0.00e+00	58	39	0	748683264	52	6330
2026-01-02 19:15:56.55	336.17	13.35	-39.9	-40.9	22.3	0.00e+00	58	39	0	750780416	52	6340
2026-01-02 19:15:57.56	335.98	13.32	-39.8	-40.8	22.4	0.00e+00	31	39	0	752877568	52	6306
2026-01-02 19:15:58.57	335.79	13.28	-39.8	-40.8	22.5	0.00e+00	27	39	0	754974720	52	6303
2026-01-02 19:15:59.57	335.60	13.25	-39.8	-40.9	22.1	0.00e+00	51	39	0	757071872	52	6323
2026-01-02 19:16:00.59	335.40	13.22	-39.9	-40.9	22.4	0.00e+00	91	39	0	758120448	52	6345
2026-01-02 19:16:01.59	335.22	13.19	-39.9	-41.0	22.3	0.00e+00	7	39	0	760217600	52	6403
2026-01-02 19:16:02.61	335.03	13.15	-40.0	-41.0	22.2	0.00e+00	90	39	0	762314752	52	6448
2026-01-02 19:16:03.62	334.84	13.12	-39.9	-41.0	22.3	0.00e+00	59	39	0	764411904	52	6415
2026-01-02 19:16:04.63	334.65	13.08	-39.8	-40.8	22.4	0.00e+00	0	39	0	766509056	52	6288
2026-01-02 19:16:05.63	334.46	13.05	-39.8	-40.8	22.4	0.00e+00	0	39	0	767557632	52	6314
2026-01-02 19:16:06.64	334.27	13.02	-39.8	-40.8	22.5	0.00e+00	5	39	0	769654784	52	6307
2026-01-02 19:16:07.65	334.09	12.98	-39.6	-40.6	22.7	0.00e+00	92	39	0	771751936	52	6152
2026-01-02 19:16:08.66	333.90	12.95	-39.7	-40.7	22.6	0.00e+00	6	39	0	773849088	52	6206
2026-01-02 19:16:09.67	333.71	12.91	-39.6	-40.7	22.6	0.00e+00	91	39	0	775946240	52	6178
2026-01-02 19:16:10.68	333.53	12.88	-39.7	-40.7	22.6	0.00e+00	0	39	0	776994816	52	6190
2026-01-02 19:16:11.69	333.34	12.84	-39.9	-40.9	22.3	0.00e+00	0	39	0	779091968	52	6364
2026-01-02 19:16:12.70	333.16	12.81	-40.0	-41.1	22.2	0.00e+00	0	39	0	781189120	52	6495
2026-01-02 19:16:13.71	332.97	12.77	-39.9	-41.0	22.3	0.00e+00	32	39	0	783286272	52	6400
2026-01-02 19:16:14.72	332.79	12.73	-40.1	-41.2	22.2	0.00e+00	2	39	0	785383424	52	6569
2026-01-02 19:16:15.73	332.61	12.70	-39.9	-40.9	22.4	0.00e+00	36	39	0	786432000	52	6387
2026-01-02 19:16:16.74	332.42	12.66	-39.8	-40.8	22.5	0.00e+00	92	39	0	788529152	52	6250
2026-01-02 19:16:17.75	332.24	12.62	-39.7	-40.7	22.6	0.00e+00	47	39	0	790626304	52	6229
2026-01-02 19:16:18.76	332.06	12.59	-39.8	-40.8	22.5	0.00e+00	68	39	0	792723456	52	6251
2026-01-02 19:16:19.77	331.88	12.55	-39.6	-40.6	22.7	0.00e+00	53	39	0	794820608	52	6136
2026-01-02 19:16:20.78	331.70	12.51	-39.6	-40.6	22.7	0.00e+00	0	39	0	796917760	52	6145
2026-01-02 19:16:21.79	331.51	12.47	-39.7	-40.7	22.6	0.00e+00	61	39	0	797966336	52	6214
2026-01-02 19:16:22.80	331.33	12.43	-39.6	-40.6	22.7	0.00e+00	2	39	0	800063488	52	6105
2026-01-02 19:16:23.81	331.15	12.40	-39.6	-40.6	22.7	0.00e+00	92	39	0	802160640	52	6107
2026-01-02 19:16:24.81	330.98	12.36	-39.6	-40.6	22.7	0.00e+00	45	39	0	804257792	52	6118
2026-01-02 19:16:25.83	330.80	12.32	-39.6	-40.6	22.7	0.00e+00	0	39	0	806354944	52	6144
2026-01-02 19:16:26.84	330.62	12.28	-39.6	-40.6	22.8	0.00e+00	0	39	0	807403520	52	6151
2026-01-02 19:16:27.85	330.44	12.24	-39.6	-40.6	22.7	0.00e+00	2	39	0	809500672	52	6130
2026-01-02 19:16:28.85	330.26	12.20	-39.7	-40.7	22.5	0.00e+00	0	39	0	811597824	52	6236
2026-01-02 19:16:29.86	330.09	12.16	-39.7	-40.7	22.6	0.00e+00	0	39	0	813694976	52	6195
2026-01-02 19:16:30.88	329.91	12.12	-39.8	-40.8	22.5	0.00e+00	92	39	0	815792128	52	6269
2026-01-02 19:16:31.88	329.74	12.08	-39.9	-40.9	22.4	0.00e+00	34	39	0	816840704	52	6327
2026-01-02 19:16:32.89	329.56	12.04	-40.0	-41.1	22.2	0.00e+00	92	39	0	818937856	52	6465
2026-01-02 19:16:33.90	329.38	12.00	-40.2	-41.2	22.1	0.00e+00	35	39	0	821035008	52	6582
2026-01-02 19:16:34.91	329.21	11.96	-40.3	-41.4	22.0	0.00e+00	3	39	0	823132160	52	6726
2026-01-02 19:16:35.92	329.04	11.92	-40.5	-41.6	21.7	0.00e+00	0	39	0	825229312	52	6883
2026-01-02 19:16:36.93	328.86	11.88	-40.5	-41.6	21.8	0.00e+00	51	39	0	826277888	52	6854
2026-01-02 19:16:37.94	328.69	11.84	-40.6	-41.7	21.7	0.00e+00	20	39	0	828375040	52	7004
2026-01-02 19:16:38.95	328.52	11.80	-40.6	-41.7	21.6	0.00e+00	35	39	0	830472192	52	6998
2026-01-02 19:16:39.96	328.35	11.75	-40.5	-41.6	21.7	0.00e+00	91	39	0	832569344	52	6922
2026-01-02 19:16:40.97	328.17	11.71	-40.6	-41.7	21.7	0.00e+00	34	39	0	834666496	52	6983
2026-01-02 19:16:41.98	328.00	11.67	-40.8	-41.9	21.4	0.00e+00	65	39	0	835715072	52	7153
2026-01-02 19:16:42.99	327.83	11.63	-40.8	-41.9	21.5	0.00e+00	0	39	0	837812224	54	6352
2026-01-02 19:16:44.00	327.66	11.59	-40.7	-41.9	21.4	0.00e+00	53	39	0	839909376	54	6320
2026-01-02 19:16:45.01	327.49	11.54	-40.8	-42.0	21.3	0.00e+00	0	39	0	842006528	54	6414
2026-01-02 19:16:46.01	327.33	11.50	-41.0	-42.1	21.3	0.00e+00	45	39	0	844103680	54	6530
2026-01-02 19:16:47.02	327.16	11.46	-41.0	-42.1	21.1	0.00e+00	92	39	0	845152256	54	6537
2026-01-02 19:16:48.03	326.99	11.42	-41.1	-42.3	21.1	0.00e+00	0	39	0	847249408	54	6635
2026-01-02 19:16:49.04	326.82	11.37	-41.1	-42.3	21.0	0.00e+00	92	39	0	849346560	54	6643
2026-01-02 19:16:50.05	326.65	11.33	-41.2	-42.4	21.0	0.00e+00	0	39	0	851443712	54	6728
2026-01-02 19:16:51.06	326.49	11.29	-41.3	-42.5	20.8	0.00e+00	0	39	0	853540864	54	6804
2026-01-02 19:16:52.07	326.32	11.24	-41.5	-42.8	20.5	0.00e+00	0	39	0	854589440	54	7052
2026-01-02 19:16:53.08	326.16	11.20	-41.6	-42.9	20.4	0.00e+00	35	39	0	856686592	54	7117
2026-01-02 19:16:54.09	325.99	11.15	-41.6	-42.9	20.5	0.00e+00	92	39	0	858783744	54	7103
2026-01-02 19:16:55.10	325.83	11.11	-41.7	-43.1	20.3	0.00e+00	0	39	0	860880896	56	6485
2026-01-02 19:16:56.11	325.66	11.07	-41.7	-43.0	20.5	0.00e+00	92	39	0	862978048	56	6437
2026-01-02 19:16:57.12	325.50	11.02	-41.6	-42.9	20.5	0.00e+00	0	39	0	864026624	56	6319
2026-01-02 19:16:58.13	325.34	10.98	-41.7	-43.0	20.5	0.00e+00	0	39	0	866123776	56	6454
2026-01-02 19:16:59.14	325.17	10.93	-41.9	-43.2	20.3	0.00e+00	0	39	0	868220928	56	6584
2026-01-02 19:17:00.15	325.01	10.89	-41.7	-43.0	20.3	0.00e+00	46	39	0	870318080	56	6438
2026-01-02 19:17:01.16	324.85	10.84	-41.8	-43.1	20.2	0.00e+00	8	39	0	872415232	56	6525
2026-01-02 19:17:02.17	324.69	10.80	-41.9	-43.2	20.1	0.00e+00	30	39	0	873463808	56	6588
2026-01-02 19:17:03.18	324.53	10.75	-41.8	-43.2	20.2	0.00e+00	92	39	0	875560960	56	6557
2026-01-02 19:17:04.19	324.37	10.71	-41.9	-43.3	20.1	0.00e+00	0	39	0	877658112	56	6636
2026-01-02 19:17:05.19	324.21	10.66	-42.1	-43.5	19.8	0.00e+00	40	39	0	879755264	56	6828
2026-01-02 19:17:06.21	324.05	10.62	-42.1	-43.5	19.9	0.00e+00	0	39	0	881852416	56	6807
2026-01-02 19:17:07.22	323.89	10.57	-42.2	-43.6	19.8	0.00e+00	0	39	0	882900992	56	6893
2026-01-02 19:17:08.23	323.73	10.53	-42.3	-43.7	19.8	0.00e+00	0	39	0	884998144	56	6995
2026-01-02 19:17:09.23	323.58	10.48	-42.4	-43.9	19.6	0.00e+00	0	39	0	887095296	56	7125
2026-01-02 19:17:10.25	323.42	10.43	-42.7	-44.2	19.4	0.00e+00	91	39	0	889192448	56	7370
2026-01-02 19:17:11.26	323.26	10.39	-42.7	-44.3	19.1	0.00e+00	2	39	0	891289600	58	6639
2026-01-02 19:17:12.27	323.11	10.34	-42.7	-44.2	19.3	0.00e+00	91	39	0	893386752	58	6565
2026-01-02 19:17:13.28	322.95	10.29	-42.6	-44.1	19.4	0.00e+00	33	39	0	894435328	58	6481
2026-01-02 19:17:14.29	322.80	10.25	-42.5	-44.0	19.5	0.00e+00	2	39	0	896532480	58	6416
2026-01-02 19:17:15.29	322.64	10.20	-42.3	-43.8	19.7	0.00e+00	0	39	0	898629632	58	6273
2026-01-02 19:17:16.31	322.49	10.15	-42.4	-43.8	19.6	0.00e+00	0	39	0	900726784	58	6306
2026-01-02 19:17:17.31	322.33	10.11	-42.5	-44.0	19.5	0.00e+00	92	39	0	902823936	58	6437
2026-01-02 19:17:18.33	322.18	10.06	-42.4	-43.9	19.3	0.00e+00	32	39	0	903872512	58	6339
2026-01-02 19:17:19.33	322.03	10.01	-42.4	-43.8	19.3	0.00e+00	92	39	0	905969664	58	6308
2026-01-02 19:17:20.34	321.88	9.97	-42.6	-44.1	19.2	0.00e+00	47	39	0	908066816	58	6518
2026-01-02 19:17:21.36	321.72	9.92	-42.9	-44.5	19.2	0.00e+00	50	39	0	910163968	58	6779
2026-01-02 19:17:22.36	321.58	9.87	-42.7	-44.2	19.2	0.00e+00	0	39	0	912261120	58	6592
2026-01-02 19:17:23.37	321.42	9.82	-42.9	-44.5	18.9	0.00e+00	0	39	0	913309696	58	6845
2026-01-02 19:17:24.38	321.27	9.78	-42.8	-44.3	19.0	0.00e+00	2	39	0	915406848	58	6690
2026-01-02 19:17:25.39	321.13	9.73	-42.7	-44.3	19.1	0.00e+00	6	39	0	917504000	58	6635
2026-01-02 19:17:26.39	320.98	9.68	-43.0	-44.6	18.9	0.00e+00	92	39	0	919601152	58	6870
2026-01-02 19:17:27.40	320.83	9.63	-43.0	-44.6	18.7	0.00e+00	47	39	0	921698304	58	6893
2026-01-02 19:17:28.41	320.68	9.59	-42.7	-44.3	19.1	0.00e+00	91	39	0	922746880	58	6661
2026-01-02 19:17:29.42	320.53	9.54	-42.9	-44.5	18.9	0.00e+00	6	39	0	924844032	58	6770
2026-01-02 19:17:30.43	320.39	9.49	-42.7	-44.2	19.1	0.00e+00	0	39	0	926941184	58	6590
2026-01-02 19:17:31.44	320.24	9.44	-42.7	-44.2	19.2	0.00e+00	0	39	0	929038336	58	6568
2026-01-02 19:17:32.45	320.09	9.39	-42.6	-44.1	19.2	0.00e+00	0	39	0	931135488	58	6509
2026-01-02 19:17:33.46	319.95	9.34	-42.6	-44.1	19.1	0.00e+00	91	39	0	932184064	58	6505
2026-01-02 19:17:34.47	319.80	9.30	-42.6	-44.1	19.0	0.00e+00	6	39	0	934281216	58	6489
2026-01-02 19:17:35.48	319.66	9.25	-42.7	-44.3	19.1	0.00e+00	92	39	0	936378368	58	6641
2026-01-02 19:17:36.49	319.51	9.20	-42.6	-44.2	19.1	0.00e+00	28	39	0	938475520	58	6540
2026-01-02 19:17:37.50	319.37	9.15	-42.6	-44.2	19.0	0.00e+00	0	39	0	940572672	58	6571
2026-01-02 19:17:38.51	319.23	9.10	-42.7	-44.3	19.1	0.00e+00	22	39	0	941621248	58	6672
2026-01-02 19:17:39.52	319.09	9.05	-42.9	-44.5	18.9	0.00e+00	0	39	0	943718400	58	6788
2026-01-02 19:17:40.52	318.94	9.00	-42.6	-44.1	19.3	0.00e+00	92	39	0	945815552	58	6539
2026-01-02 19:17:41.53	318.80	8.95	-42.6	-44.2	19.1	0.00e+00	58	39	0	947912704	58	6554
2026-01-02 19:17:42.54	318.66	8.90	-42.4	-43.9	19.5	0.00e+00	92	39	0	950009856	58	6318
2026-01-02 19:17:43.55	318.52	8.86	-42.2	-43.7	19.6	0.00e+00	32	39	0	951058432	58	6212
2026-01-02 19:17:44.56	318.38	8.81	-42.3	-43.7	19.6	0.00e+00	90	39	0	953155584	58	6243
2026-01-02 19:17:45.57	318.24	8.76	-42.2	-43.7	19.8	0.00e+00	4	39	0	955252736	58	6194
2026-01-02 19:17:46.58	318.10	8.71	-42.1	-43.4	19.8	0.00e+00	6	39	0	957349888	58	6030
2026-01-02 19:17:47.59	317.96	8.66	-42.1	-43.6	19.8	0.00e+00	12	39	0	959447040	58	6105
2026-01-02 19:17:48.60	317.83	8.61	-42.2	-43.6	19.7	0.00e+00	6	39	0	961544192	58	6128
2026-01-02 19:17:49.61	317.69	8.56	-42.1	-43.6	19.8	0.00e+00	92	39	0	962592768	58	6109
2026-01-02 19:17:50.62	317.55	8.51	-42.2	-43.6	19.6	0.00e+00	53	39	0	964689920	58	6169
2026-01-02 19:17:51.63	317.41	8.46	-42.1	-43.5	19.8	0.00e+00	92	39	0	966787072	58	6045
2026-01-02 19:17:52.64	317.28	8.41	-41.9	-43.2	20.0	0.00e+00	6	39	0	968884224	58	5896
2026-01-02 19:17:53.64	317.14	8.36	-42.1	-43.5	19.7	0.00e+00	8	39	0	970981376	58	6054
2026-01-02 19:17:54.65	317.01	8.31	-42.1	-43.5	19.7	0.00e+00	0	39	0	972029952	58	6071
2026-01-02 19:17:55.66	316.87	8.26	-41.9	-43.3	20.0	0.00e+00	0	39	0	974127104	58	5934
2026-01-02 19:17:56.67	316.74	8.21	-41.7	-43.1	20.0	0.00e+00	92	39	0	976224256	58	5788
2026-01-02 19:17:57.68	316.60	8.16	-42.0	-43.4	19.9	0.00e+00	0	39	0	978321408	56	6711
2026-01-02 19:17:58.69	316.47	8.11	-42.1	-43.5	19.8	0.00e+00	92	39	0	980418560	56	6771
2026-01-02 19:17:59.70	316.34	8.06	-41.9	-43.3	19.8	0.00e+00	32	39	0	981467136	56	6641
2026-01-02 19:18:00.71	316.21	8.01	-41.9	-43.3	20.1	0.00e+00	0	39	0	983564288	56	6658
2026-01-02 19:18:01.72	316.07	7.96	-41.8	-43.2	19.9	0.00e+00	32	39	0	985661440	56	6550
2026-01-02 19:18:02.73	315.94	7.91	-41.8	-43.2	20.0	0.00e+00	33	39	0	987758592	56	6567
2026-01-02 19:18:03.74	315.81	7.86	-41.6	-43.0	20.2	0.00e+00	92	39	0	989855744	56	6398
2026-01-02 19:18:04.75	315.68	7.81	-41.4	-42.7	20.5	0.00e+00	28	39	0	990904320	56	6204
2026-01-02 19:18:05.75	315.55	7.76	-41.5	-42.8	20.5	0.00e+00	92	39	0	993001472	56	6308
2026-01-02 19:18:06.76	315.42	7.71	-41.3	-42.6	20.6	0.00e+00	28	39	0	995098624	56	6155
2026-01-02 19:18:07.77	315.29	7.66	-41.3	-42.6	20.7	0.00e+00	92	39	0	997195776	56	6123
2026-01-02 19:18:08.78	315.16	7.61	-41.3	-42.6	20.6	0.00e+00	53	39	0	999292928	56	6156
2026-01-02 19:18:09.79	315.03	7.56	-41.3	-42.6	20.5	0.00e+00	2	39	0	1000341504	56	6158
2026-01-02 19:18:10.79	314.91	7.51	-41.1	-42.3	20.7	0.00e+00	34	39	0	1002438656	56	5953
2026-01-02 19:18:11.80	314.78	7.46	-41.0	-42.2	21.0	0.00e+00	54	39	0	1004535808	56	5876
2026-01-02 19:18:12.81	314.65	7.40	-41.0	-42.2	20.9	0.00e+00	92	39	0	1006632960	56	5870
2026-01-02 19:18:13.82	314.53	7.35	-41.1	-42.3	20.8	0.00e+00	0	39	0	1008730112	56	5944
2026-01-02 19:18:14.83	314.40	7.30	-40.9	-42.1	21.0	0.00e+00	91	39	0	1009778688	56	5778
2026-01-02 19:18:15.83	314.28	7.25	-40.9	-42.1	21.1	0.00e+00	0	39	0	1011875840	56	5814
2026-01-02 19:18:16.84	314.15	7.20	-41.0	-42.2	20.9	0.00e+00	0	39	0	1013972992	56	5844
2026-01-02 19:18:17.85	314.03	7.15	-40.9	-42.1	20.7	0.00e+00	2	39	0	1016070144	54	6536
2026-01-02 19:18:18.86	313.90	7.10	-40.8	-42.0	20.9	0.00e+00	0	39	0	1018167296	54	6459
2026-01-02 19:18:19.87	313.78	7.05	-40.8	-42.0	21.1	0.00e+00	92	39	0	1019215872	54	6398
2026-01-02 19:18:20.88	313.65	7.00	-40.7	-41.9	21.1	0.00e+00	32	39	0	1021313024	54	6375
2026-01-02 19:18:21.89	313.53	6.95	-40.7	-41.9	21.1	0.00e+00	92	39	0	1023410176	54	6323
2026-01-02 19:18:22.90	313.41	6.90	-40.7	-41.9	21.1	0.00e+00	0	39	0	1025507328	54	6354
2026-01-02 19:18:23.91	313.29	6.85	-40.7	-42.0	21.1	0.00e+00	31	39	0	1027604480	54	6395
2026-01-02 19:18:24.92	313.16	6.79	-40.7	-41.8	21.1	0.00e+00	0	39	0	1028653056	54	6308
2026-01-02 19:18:25.93	313.04	6.74	-40.7	-41.8	21.0	0.00e+00	51	39	0	1030750208	54	6314
2026-01-02 19:18:26.93	312.92	6.69	-40.2	-41.4	21.4	0.00e+00	33	39	0	1032847360	54	5971
2026-01-02 19:18:27.94	312.80	6.64	-40.5	-41.7	21.2	0.00e+00	56	39	0	1034944512	54	6202
2026-01-02 19:18:28.95	312.68	6.59	-40.6	-41.8	21.3	0.00e+00	91	39	0	1037041664	54	6271
2026-01-02 19:18:29.96	312.56	6.54	-40.4	-41.6	21.4	0.00e+00	34	39	0	1038090240	54	6106
2026-01-02 19:18:30.97	312.44	6.49	-40.4	-41.5	21.5	0.00e+00	90	39	0	1040187392	54	6101
2026-01-02 19:18:31.98	312.33	6.44	-40.5	-41.6	21.4	0.00e+00	50	39	0	1042284544	54	6165
2026-01-02 19:18:32.99	312.21	6.39	-40.7	-41.9	21.0	0.00e+00	50	39	0	1044381696	54	6355
2026-01-02 19:18:33.99	312.09	6.34	-40.6	-41.7	21.2	0.00e+00	0	39	0	1046478848	54	6244
2026-01-02 19:18:35.00	311.97	6.28	-40.7	-41.9	21.1	0.00e+00	2	39	0	1047527424	54	6357
2026-01-02 19:18:36.01	311.86	6.23	-40.9	-42.2	21.2	0.00e+00	91	39	0	1049624576	54	6546
2026-01-02 19:18:37.02	311.74	6.18	-40.9	-42.2	20.9	0.00e+00	56	39	0	1051721728	54	6562
2026-01-02 19:18:38.03	311.62	6.13	-40.8	-42.0	21.0	0.00e+00	84	39	0	1053818880	54	6413
2026-01-02 19:18:39.03	311.51	6.08	-40.6	-41.8	21.1	0.00e+00	0	39	0	1055916032	54	6305
2026-01-02 19:18:40.04	311.39	6.03	-40.9	-42.2	20.8	0.00e+00	0	39	0	1058013184	54	6543
2026-01-02 19:18:41.05	311.28	5.98	-40.7	-41.9	21.0	0.00e+00	0	39	0	1059061760	54	6374
2026-01-02 19:18:42.06	311.16	5.93	-40.9	-42.2	20.8	0.00e+00	0	39	0	1061158912	54	6550
2026-01-02 19:18:43.07	311.05	5.88	-40.9	-42.2	21.0	0.00e+00	92	39	0	1063256064	54	6577
2026-01-02 19:18:44.07	310.94	5.82	-41.0	-42.2	20.8	0.00e+00	31	39	0	1065353216	54	6587
2026-01-02 19:18:45.08	310.82	5.77	-41.2	-42.5	20.6	0.00e+00	92	39	0	1067450368	54	6814
2026-01-02 19:18:46.09	310.71	5.72	-40.9	-42.2	20.8	0.00e+00	0	39	0	1068498944	54	6564
2026-01-02 19:18:47.10	310.60	5.67	-41.0	-42.2	20.7	0.00e+00	92	39	0	1070596096	54	6597
2026-01-02 19:18:48.11	310.49	5.62	-41.1	-42.4	20.5	0.00e+00	32	39	0	1072693248	54	6735
2026-01-02 19:18:49.12	310.38	5.57	-41.0	-42.3	20.6	0.00e+00	0	39	0	1074790400	54	6650
2026-01-02 19:18:50.13	310.26	5.52	-41.0	-42.3	20.6	0.00e+00	17	39	0	1076887552	54	6655
2026-01-02 19:18:51.14	310.15	5.47	-41.2	-42.5	20.5	0.00e+00	0	39	0	1077936128	54	6832
2026-01-02 19:18:52.15	310.04	5.41	-41.3	-42.6	20.3	0.00e+00	92	39	0	1080033280	54	6883
2026-01-02 19:18:53.16	309.93	5.36	-41.2	-42.5	20.5	0.00e+00	33	39	0	1082130432	54	6841
2026-01-02 19:18:54.16	309.82	5.31	-41.0	-42.3	20.5	0.00e+00	92	39	0	1084227584	54	6673
2026-01-02 19:18:55.17	309.72	5.26	-41.2	-42.5	20.5	0.00e+00	50	39	0	1086324736	54	6779
2026-01-02 19:18:56.18	309.61	5.21	-41.2	-42.5	20.2	0.00e+00	49	39	0	1087373312	54	6806
2026-01-02 19:18:57.19	309.50	5.16	-41.5	-42.8	20.1	0.00e+00	51	39	0	1089470464	54	7075
2026-01-02 19:18:58.20	309.39	5.11	-41.4	-42.8	20.1	0.00e+00	2	39	0	1091567616	54	7043
2026-01-02 19:18:59.21	309.28	5.06	-41.5	-42.9	19.8	0.00e+00	91	39	0	1093664768	54	7131
2026-01-02 19:19:00.22	309.17	5.00	-41.0	-42.2	20.6	0.00e+00	51	39	0	1095761920	54	6615
2026-01-02 19:19:01.23	309.07	4.95	-41.0	-42.3	20.5	0.00e+00	92	39	0	1096810496	54	6635
2026-01-02 19:19:02.23	308.96	4.90	-41.2	-42.5	20.4	0.00e+00	0	39	0	1098907648	54	6803
2026-01-02 19:19:03.24	308.86	4.85	-41.1	-42.4	20.4	0.00e+00	0	39	0	1101004800	54	6761
2026-01-02 19:19:04.25	308.75	4.80	-41.1	-42.4	20.4	0.00e+00	0	39	0	1103101952	54	6754
2026-01-02 19:19:05.26	308.64	4.75	-41.3	-42.6	20.3	0.00e+00	2	39	0	1105199104	54	6869
2026-01-02 19:19:06.27	308.54	4.70	-41.2	-42.5	20.4	0.00e+00	90	39	0	1106247680	54	6776
2026-01-02 19:19:07.27	308.44	4.65	-40.9	-42.2	20.5	0.00e+00	0	39	0	1108344832	54	6579
2026-01-02 19:19:08.28	308.33	4.60	-41.2	-42.5	20.2	0.00e+00	92	39	0	1110441984	54	6824
2026-01-02 19:19:09.29	308.23	4.54	-41.2	-42.5	20.3	0.00e+00	24	39	0	1112539136	54	6805
2026-01-02 19:19:10.30	308.12	4.49	-41.5	-42.9	19.8	0.00e+00	23	39	0	1114636288	54	7134
2026-01-02 19:19:11.31	308.02	4.44	-41.8	-43.2	19.8	0.00e+00	0	39	0	1115684864	56	6563
2026-01-02 19:19:12.31	307.92	4.39	-41.8	-43.2	19.5	0.00e+00	0	39	0	1117782016	56	6562
2026-01-02 19:19:13.32	307.82	4.34	-41.9	-43.4	19.4	0.00e+00	2	39	0	1119879168	56	6722
2026-01-02 19:19:14.33	307.72	4.29	-42.1	-43.6	19.3	0.00e+00	2	39	0	1121976320	56	6857
2026-01-02 19:19:15.34	307.61	4.24	-41.9	-43.3	19.4	0.00e+00	90	39	0	1124073472	56	6679
2026-01-02 19:19:16.35	307.51	4.19	-42.2	-43.8	19.1	0.00e+00	52	39	0	1125122048	56	7011
2026-01-02 19:19:17.36	307.41	4.14	-42.0	-43.5	19.3	0.00e+00	92	39	0	1127219200	56	6841
2026-01-02 19:19:18.37	307.31	4.09	-42.3	-43.8	19.2	0.00e+00	52	39	0	1129316352	56	7073
2026-01-02 19:19:19.37	307.21	4.03	-42.0	-43.5	19.3	0.00e+00	53	39	0	1131413504	56	6811
2026-01-02 19:19:20.38	307.11	3.98	-42.2	-43.7	19.1	0.00e+00	0	39	0	1133510656	56	7004
2026-01-02 19:19:21.39	307.01	3.93	-41.9	-43.4	19.3	0.00e+00	53	39	0	1134559232	56	6761
2026-01-02 19:19:22.40	306.91	3.88	-42.3	-43.9	18.8	0.00e+00	92	39	0	1136656384	56	7160
2026-01-02 19:19:23.41	306.81	3.83	-41.9	-43.4	19.4	0.00e+00	6	39	0	1138753536	56	6764
2026-01-02 19:19:24.42	306.72	3.78	-42.5	-44.2	18.7	0.00e+00	92	39	0	1140850688	56	7342
2026-01-02 19:19:25.43	306.62	3.73	-42.0	-43.5	19.2	0.00e+00	0	39	0	1142947840	56	6838
2026-01-02 19:19:26.44	306.52	3.68	-42.0	-43.5	19.2	0.00e+00	0	39	0	1143996416	56	6838
2026-01-02 19:19:27.45	306.42	3.63	-42.4	-44.0	18.8	0.00e+00	6	39	0	1146093568	56	7190
2026-01-02 19:19:28.46	306.33	3.58	-42.4	-44.0	18.7	0.00e+00	0	39	0	1148190720	56	7226
2026-01-02 19:19:29.47	306.23	3.52	-42.4	-44.1	18.6	0.00e+00	18	39	0	1150287872	56	7267
2026-01-02 19:19:30.48	306.13	3.47	-42.3	-43.9	18.8	0.00e+00	0	39	0	1152385024	56	7137
2026-01-02 19:19:31.49	306.04	3.42	-42.4	-44.0	18.7	0.00e+00	92	39	0	1154482176	56	7208
2026-01-02 19:19:32.49	305.94	3.37	-42.6	-44.4	18.2	0.00e+00	0	39	0	1155530752	56	7522
2026-01-02 19:19:33.50	305.85	3.32	-42.6	-44.3	18.4	0.00e+00	24	39	0	1157627904	58	6678
2026-01-02 19:19:34.51	305.75	3.27	-42.9	-44.7	18.1	0.00e+00	23	39	0	1159725056	58	6943
2026-01-02 19:19:35.52	305.66	3.22	-42.6	-44.4	18.0	0.00e+00	0	39	0	1161822208	58	6709
2026-01-02 19:19:36.53	305.56	3.17	-42.8	-44.6	18.0	0.00e+00	15	39	0	1163919360	58	6915
2026-01-02 19:19:37.54	305.47	3.12	-42.9	-44.7	18.1	0.00e+00	5	39	0	1164967936	58	6972
2026-01-02 19:19:38.55	305.38	3.07	-42.8	-44.7	18.0	0.00e+00	91	39	0	1167065088	58	6936
2026-01-02 19:19:39.56	305.28	3.02	-48.6	-62.8	3.6	2.32e-01	0	39	104	1169162240	60	49961
2026-01-02 19:19:40.57	305.19	2.97	-49.2	-64.3	3.6	1.51e+00	0	39	104	1169162240	60	59215
2026-01-02 19:19:41.58	305.10	2.92	-49.4	-64.6	3.6	1.51e+00	0	39	104	1169162240	60	61333
2026-01-02 19:19:42.59	305.00	2.86	-49.7	-64.9	3.6	1.51e+00	0	39	104	1169162240	60	63379
2026-01-02 19:19:43.60	304.91	2.81	-49.8	-65.0	3.6	1.51e+00	0	39	104	1169162240	60	64436
2026-01-02 19:19:44.61	304.82	2.76	-49.9	-65.1	3.6	1.51e+00	0	39	104	1169162240	60	65333
2026-01-02 19:19:45.62	304.73	2.71	-50.0	-65.1	3.6	1.51e+00	0	39	104	1169162240	60	65070
2026-01-02 19:19:46.63	304.64	2.66	-50.0	-65.2	3.6	1.51e+00	0	39	104	1169162240	60	65698
2026-01-02 19:19:47.64	304.55	2.61	-50.0	-65.2	3.6	1.51e+00	0	39	104	1169162240	60	65961
2026-01-02 19:19:48.65	304.46	2.56	-50.0	-65.2	3.6	1.51e+00	0	39	104	1169162240	60	65702
