passes_logs/2026/01/02/R4.6S_Anadyr/R4.6S_Anadyr__20260102_152810_SUOMI_NPP_rec.log

#Pass ID: 20260102_152810_SUOMI NPP
#Satellite: SUOMI NPP
#Configuration: NPP
#almurnet v.1.7.20251203
#Start time: 2026-01-02 15:28:11

#Version: 2.2.20231116
#Station: R4.6S_Anadyr
#Location: 177.4865 lon 64.73178 lat
#TLE: 1 37849U 11061A   26001.07732418  .00000182  00000+0  10735-3 0  9990
#TLE: 2 37849  98.7795 303.2470 0002580  87.2016 272.9455 14.19520779734739

#Time	Az	El	Level	Level2	SNR	BER	BlckErr	Temp	State	Recorded	gain1	gain2
2026-01-02 15:28:11.85	22.21	0.09	-49.4	-62.0	3.5	1.51e+00	0	36	0	0	60	44244
2026-01-02 15:28:12.85	22.20	0.15	-49.4	-64.6	3.6	1.51e+00	0	38	104	0	60	61297
2026-01-02 15:28:13.86	22.18	0.21	-49.4	-64.6	3.6	1.51e+00	0	38	104	0	60	61286
2026-01-02 15:28:14.87	22.17	0.27	-49.4	-64.6	3.6	1.51e+00	0	38	104	0	60	61344
2026-01-02 15:28:15.88	22.15	0.33	-49.4	-64.6	3.5	1.51e+00	0	38	104	0	60	61596
2026-01-02 15:28:16.90	22.14	0.39	-49.4	-64.6	3.6	1.51e+00	0	38	104	0	60	61701
2026-01-02 15:28:17.90	22.12	0.45	-49.4	-64.7	3.6	1.51e+00	0	38	104	0	60	61981
2026-01-02 15:28:18.91	22.11	0.52	-49.3	-64.6	3.6	1.51e+00	0	38	104	0	60	61379
2026-01-02 15:28:19.92	22.09	0.58	-49.4	-64.6	3.6	1.51e+00	0	38	104	0	60	61124
2026-01-02 15:28:20.93	22.08	0.64	-49.3	-64.6	3.6	1.51e+00	0	38	104	0	60	61034
2026-01-02 15:28:21.94	22.06	0.70	-49.2	-64.4	3.6	1.51e+00	0	38	104	0	60	60066
2026-01-02 15:28:22.95	22.05	0.76	-49.1	-64.2	3.6	1.51e+00	0	38	104	0	60	58945
2026-01-02 15:28:23.96	22.03	0.82	-48.8	-64.1	3.6	1.51e+00	0	38	104	0	60	57923
2026-01-02 15:28:24.98	22.02	0.88	-48.6	-63.8	3.6	1.51e+00	0	38	104	0	60	55987
2026-01-02 15:28:25.98	22.00	0.94	-48.4	-63.6	3.6	1.51e+00	0	38	104	0	60	54955
2026-01-02 15:28:27.00	21.99	1.01	-48.2	-63.4	3.6	1.51e+00	0	38	104	0	60	53224
2026-01-02 15:28:28.00	21.97	1.07	-47.7	-62.9	3.6	1.51e+00	0	38	104	0	60	50378
2026-01-02 15:28:29.01	21.96	1.13	-47.7	-62.9	3.6	1.51e+00	0	38	104	0	60	50264
2026-01-02 15:28:30.02	21.94	1.19	-47.7	-62.9	3.6	1.51e+00	0	38	104	0	60	50379
2026-01-02 15:28:31.03	21.93	1.25	-47.7	-62.9	3.6	1.51e+00	0	38	104	0	60	50485
2026-01-02 15:28:32.04	21.91	1.32	-47.7	-62.9	3.6	1.51e+00	0	38	104	0	60	50287
2026-01-02 15:28:33.05	21.89	1.38	-47.7	-62.9	3.6	1.51e+00	0	38	104	0	60	50386
2026-01-02 15:28:34.06	21.88	1.44	-47.7	-62.8	3.6	1.51e+00	0	38	104	0	60	49872
2026-01-02 15:28:35.07	21.86	1.51	-47.7	-62.8	3.6	1.51e+00	0	38	104	0	60	49742
2026-01-02 15:28:36.08	21.85	1.57	-47.7	-62.7	3.6	1.51e+00	0	38	104	0	60	49212
2026-01-02 15:28:37.09	21.83	1.63	-47.7	-62.6	3.6	1.51e+00	0	38	104	0	60	48767
2026-01-02 15:28:38.10	21.81	1.69	-47.7	-62.5	3.5	1.51e+00	0	38	104	0	60	48268
2026-01-02 15:28:39.10	21.80	1.76	-47.7	-62.4	3.6	1.51e+00	0	38	104	0	60	47924
2026-01-02 15:28:40.12	21.78	1.82	-47.7	-62.4	3.6	1.51e+00	0	38	104	0	60	47904
2026-01-02 15:28:41.12	21.76	1.88	-47.7	-62.4	3.6	1.51e+00	0	38	104	0	60	47496
2026-01-02 15:28:42.13	21.75	1.95	-47.7	-62.6	3.5	1.51e+00	0	38	104	0	60	48902
2026-01-02 15:28:43.14	21.73	2.01	-47.7	-62.7	3.6	1.51e+00	0	38	104	0	60	49460
2026-01-02 15:28:44.15	21.71	2.08	-47.7	-62.8	3.6	1.51e+00	0	38	104	0	60	49760
2026-01-02 15:28:45.16	21.70	2.14	-47.7	-62.9	3.6	1.51e+00	0	38	104	0	60	50279
2026-01-02 15:28:46.17	21.68	2.20	-47.7	-62.9	3.6	1.51e+00	0	38	104	0	60	50459
2026-01-02 15:28:47.18	21.66	2.27	-47.7	-62.8	3.6	1.51e+00	0	38	104	0	60	50103
2026-01-02 15:28:48.19	21.65	2.33	-47.7	-62.8	3.6	1.51e+00	0	38	104	0	60	50049
2026-01-02 15:28:49.20	21.63	2.40	-47.7	-62.7	3.6	1.51e+00	0	38	104	0	60	49331
2026-01-02 15:28:50.21	21.61	2.46	-47.7	-62.7	3.6	1.51e+00	0	38	104	0	60	49249
2026-01-02 15:28:51.22	21.59	2.53	-47.7	-62.5	3.6	1.51e+00	0	39	104	0	60	48305
2026-01-02 15:28:52.23	21.58	2.59	-47.7	-62.3	3.6	1.51e+00	0	38	104	0	60	47281
2026-01-02 15:28:53.24	21.56	2.66	-47.7	-62.1	3.6	1.51e+00	0	39	104	0	60	45860
2026-01-02 15:28:54.25	21.54	2.72	-47.7	-61.9	3.6	1.51e+00	0	39	104	0	60	45097
2026-01-02 15:28:55.26	21.52	2.79	-47.6	-61.8	3.6	1.51e+00	0	39	104	0	60	44606
2026-01-02 15:28:56.27	21.50	2.86	-47.7	-61.9	3.6	1.51e+00	0	39	104	0	60	44755
2026-01-02 15:28:57.28	21.49	2.92	-47.7	-62.3	3.6	1.51e+00	0	39	104	0	60	47328
2026-01-02 15:28:58.29	21.47	2.99	-47.7	-62.5	3.6	1.51e+00	0	39	104	0	60	48415
2026-01-02 15:28:59.30	21.45	3.05	-47.7	-62.4	3.6	1.51e+00	0	39	104	0	60	47899
2026-01-02 15:29:00.31	21.43	3.12	-47.6	-61.3	3.6	1.51e+00	0	39	104	0	60	42072
2026-01-02 15:29:01.32	21.41	3.19	-47.5	-58.7	4.3	1.44e+00	71	39	104	0	60	31165
2026-01-02 15:29:02.33	21.39	3.25	-47.3	-55.8	5.1	7.78e-01	0	39	0	1048576	60	22346
2026-01-02 15:29:03.34	21.38	3.32	-47.0	-54.4	6.6	2.11e-01	0	39	0	3145728	60	18883
2026-01-02 15:29:04.35	21.36	3.39	-46.7	-52.9	8.1	5.90e-02	0	39	0	5242880	60	16005
2026-01-02 15:29:05.36	21.34	3.46	-46.3	-51.5	9.8	2.66e-02	0	39	0	7340032	60	13652
2026-01-02 15:29:06.37	21.32	3.52	-46.1	-51.0	10.5	5.00e-03	13	39	0	8388608	60	12837
2026-01-02 15:29:07.39	21.30	3.59	-45.9	-50.5	11.0	1.40e-03	0	39	0	10485760	60	12138
2026-01-02 15:29:08.39	21.28	3.66	-45.8	-50.2	11.3	1.06e-03	32	39	0	12582912	60	11733
2026-01-02 15:29:09.40	21.26	3.73	-45.8	-50.3	11.3	1.73e-03	0	39	0	14680064	60	11845
2026-01-02 15:29:10.41	21.24	3.79	-46.2	-51.3	9.7	2.94e-03	0	39	0	16777216	60	13269
2026-01-02 15:29:11.42	21.22	3.86	-47.6	-60.7	3.8	1.51e+00	0	39	104	16777216	60	39263
2026-01-02 15:29:12.43	21.20	3.93	-41.3	-42.8	18.8	5.40e-01	0	39	0	17825792	56	6306
2026-01-02 15:29:13.44	21.18	4.00	-47.6	-60.9	3.6	1.50e+00	0	39	104	17825792	60	39904
2026-01-02 15:29:14.45	21.16	4.07	-46.4	-51.9	11.3	1.19e+00	0	39	104	17825792	60	14162
2026-01-02 15:29:15.46	21.14	4.14	-46.9	-53.8	8.5	5.79e-05	92	39	0	18874368	60	17756
2026-01-02 15:29:16.47	21.12	4.21	-42.0	-43.8	18.1	0.00e+00	32	39	0	19922944	58	6280
2026-01-02 15:29:17.48	21.10	4.27	-41.9	-43.7	18.1	0.00e+00	0	39	0	22020096	56	6938
2026-01-02 15:29:18.49	21.08	4.34	-41.7	-43.4	18.6	0.00e+00	0	39	0	24117248	56	6716
2026-01-02 15:29:19.50	21.06	4.41	-41.3	-42.8	18.9	0.00e+00	0	39	0	26214400	56	6306
2026-01-02 15:29:20.51	21.04	4.48	-41.3	-42.9	18.9	0.00e+00	46	39	0	28311552	56	6357
2026-01-02 15:29:21.52	21.02	4.55	-40.8	-42.3	19.5	0.00e+00	0	39	0	29360128	56	5939
2026-01-02 15:29:22.53	21.00	4.62	-41.0	-42.6	19.3	0.00e+00	92	39	0	31457280	56	6112
2026-01-02 15:29:23.53	20.98	4.69	-40.7	-42.1	19.7	0.00e+00	0	39	0	33554432	54	6526
2026-01-02 15:29:24.54	20.96	4.76	-40.8	-42.2	19.6	0.00e+00	24	39	0	35651584	54	6599
2026-01-02 15:29:25.55	20.94	4.83	-40.7	-42.2	19.5	0.00e+00	0	39	0	37748736	54	6565
2026-01-02 15:29:26.56	20.91	4.90	-40.8	-42.2	19.6	0.00e+00	0	39	0	38797312	54	6596
2026-01-02 15:29:27.57	20.89	4.98	-40.7	-42.1	19.7	0.00e+00	9	39	0	40894464	54	6502
2026-01-02 15:29:28.58	20.87	5.05	-40.7	-42.1	19.7	0.00e+00	0	39	0	42991616	54	6536
2026-01-02 15:29:29.59	20.85	5.12	-40.6	-42.0	19.8	0.00e+00	46	39	0	45088768	54	6392
2026-01-02 15:29:30.60	20.83	5.19	-40.6	-42.0	19.8	0.00e+00	0	39	0	47185920	54	6405
2026-01-02 15:29:31.61	20.81	5.26	-40.6	-42.0	19.8	0.00e+00	92	39	0	48234496	54	6441
2026-01-02 15:29:32.62	20.78	5.33	-40.4	-41.7	20.1	0.00e+00	0	39	0	50331648	54	6229
2026-01-02 15:29:33.63	20.76	5.41	-40.5	-41.9	20.0	0.00e+00	0	39	0	52428800	54	6336
2026-01-02 15:29:34.64	20.74	5.48	-40.5	-41.9	19.9	0.00e+00	0	39	0	54525952	54	6325
2026-01-02 15:29:35.65	20.72	5.55	-40.6	-42.0	19.8	0.00e+00	0	39	0	56623104	54	6415
2026-01-02 15:29:36.66	20.69	5.62	-40.4	-41.7	20.1	0.00e+00	50	39	0	57671680	54	6244
2026-01-02 15:29:37.67	20.67	5.70	-40.4	-41.8	20.0	0.00e+00	0	39	0	59768832	54	6271
2026-01-02 15:29:38.68	20.65	5.77	-40.3	-41.6	20.1	0.00e+00	92	39	0	61865984	54	6143
2026-01-02 15:29:39.68	20.62	5.84	-40.6	-41.9	20.0	0.00e+00	0	39	0	63963136	54	6373
2026-01-02 15:29:40.69	20.60	5.92	-40.3	-41.6	20.2	0.00e+00	0	39	0	66060288	54	6132
2026-01-02 15:29:41.70	20.58	5.99	-40.2	-41.5	20.3	0.00e+00	0	39	0	67108864	54	6091
2026-01-02 15:29:42.71	20.55	6.06	-40.2	-41.5	20.4	0.00e+00	0	39	0	69206016	54	6044
2026-01-02 15:29:43.72	20.53	6.14	-40.2	-41.5	20.4	0.00e+00	42	39	0	71303168	54	6059
2026-01-02 15:29:44.73	20.51	6.21	-40.2	-41.4	20.5	0.00e+00	0	39	0	73400320	54	6023
2026-01-02 15:29:45.74	20.48	6.29	-39.9	-41.1	20.7	0.00e+00	90	39	0	75497472	54	5816
2026-01-02 15:29:46.75	20.46	6.36	-40.0	-41.2	20.7	0.00e+00	0	39	0	77594624	54	5868
2026-01-02 15:29:47.76	20.44	6.44	-39.9	-41.1	20.8	0.00e+00	0	39	0	78643200	54	5820
2026-01-02 15:29:48.77	20.41	6.51	-39.7	-40.9	20.9	0.00e+00	0	39	0	80740352	54	5687
2026-01-02 15:29:49.78	20.39	6.59	-39.9	-41.1	20.8	0.00e+00	0	39	0	82837504	52	6508
2026-01-02 15:29:50.79	20.36	6.66	-39.8	-41.0	20.9	0.00e+00	37	39	0	84934656	52	6448
2026-01-02 15:29:51.80	20.34	6.74	-39.8	-41.0	21.0	0.00e+00	0	39	0	87031808	52	6429
2026-01-02 15:29:52.81	20.31	6.81	-39.9	-41.1	20.7	0.00e+00	92	39	0	88080384	52	6526
2026-01-02 15:29:53.82	20.29	6.89	-39.8	-41.0	21.0	0.00e+00	0	39	0	90177536	52	6452
2026-01-02 15:29:54.83	20.26	6.97	-39.8	-41.0	21.0	0.00e+00	0	39	0	92274688	52	6436
2026-01-02 15:29:55.84	20.24	7.04	-39.6	-40.8	21.1	0.00e+00	0	39	0	94371840	52	6256
2026-01-02 15:29:56.85	20.21	7.12	-39.9	-41.1	20.9	0.00e+00	0	39	0	96468992	52	6468
2026-01-02 15:29:57.86	20.18	7.20	-39.7	-40.8	21.2	0.00e+00	43	39	0	97517568	52	6305
2026-01-02 15:29:58.87	20.16	7.27	-39.7	-40.9	21.1	0.00e+00	0	39	0	99614720	52	6340
2026-01-02 15:29:59.88	20.13	7.35	-39.7	-40.9	21.1	0.00e+00	92	39	0	101711872	52	6318
2026-01-02 15:30:00.89	20.11	7.43	-39.7	-40.9	21.2	0.00e+00	0	39	0	103809024	52	6328
2026-01-02 15:30:01.89	20.08	7.51	-39.6	-40.8	21.2	0.00e+00	36	39	0	105906176	52	6254
2026-01-02 15:30:02.90	20.05	7.58	-39.6	-40.7	21.3	0.00e+00	0	39	0	106954752	52	6239
2026-01-02 15:30:03.91	20.03	7.66	-39.7	-40.8	21.1	0.00e+00	0	39	0	109051904	52	6293
2026-01-02 15:30:04.92	20.00	7.74	-39.8	-41.0	21.1	0.00e+00	0	39	0	111149056	52	6413
2026-01-02 15:30:05.93	19.97	7.82	-39.5	-40.7	21.4	0.00e+00	0	39	0	113246208	52	6204
2026-01-02 15:30:06.94	19.95	7.90	-39.4	-40.6	21.4	0.00e+00	49	39	0	115343360	52	6119
2026-01-02 15:30:07.95	19.92	7.98	-39.5	-40.6	21.4	0.00e+00	0	39	0	116391936	52	6135
2026-01-02 15:30:08.96	19.89	8.06	-39.5	-40.6	21.4	0.00e+00	75	39	0	118489088	52	6147
2026-01-02 15:30:09.97	19.86	8.14	-39.4	-40.5	21.5	0.00e+00	0	39	0	120586240	52	6091
2026-01-02 15:30:10.98	19.84	8.22	-39.4	-40.6	21.6	0.00e+00	0	39	0	122683392	52	6125
2026-01-02 15:30:11.99	19.81	8.30	-39.4	-40.5	21.6	0.00e+00	0	39	0	124780544	52	6079
2026-01-02 15:30:13.00	19.78	8.38	-39.4	-40.5	21.5	0.00e+00	0	39	0	125829120	52	6083
2026-01-02 15:30:14.01	19.75	8.46	-39.2	-40.3	21.6	0.00e+00	46	39	0	127926272	52	5928
2026-01-02 15:30:15.02	19.72	8.54	-39.3	-40.4	21.6	0.00e+00	0	39	0	130023424	52	6021
2026-01-02 15:30:16.03	19.69	8.62	-39.2	-40.4	21.7	0.00e+00	64	39	0	132120576	52	5969
2026-01-02 15:30:17.03	19.66	8.71	-39.1	-40.2	21.8	0.00e+00	0	39	0	134217728	52	5883
2026-01-02 15:30:18.04	19.64	8.79	-39.3	-40.4	21.7	0.00e+00	0	39	0	135266304	52	5986
2026-01-02 15:30:19.05	19.61	8.87	-39.2	-40.3	21.8	0.00e+00	0	39	0	137363456	52	5935
2026-01-02 15:30:20.06	19.58	8.95	-39.1	-40.2	21.9	0.00e+00	0	39	0	139460608	52	5832
2026-01-02 15:30:21.07	19.55	9.03	-39.1	-40.1	22.0	0.00e+00	46	39	0	141557760	52	5804
2026-01-02 15:30:22.08	19.52	9.12	-39.0	-40.1	22.0	0.00e+00	0	39	0	143654912	52	5796
2026-01-02 15:30:23.09	19.49	9.20	-39.0	-40.1	21.9	0.00e+00	88	39	0	145752064	52	5792
2026-01-02 15:30:24.10	19.46	9.28	-39.1	-40.2	21.9	0.00e+00	0	39	0	146800640	52	5855
2026-01-02 15:30:25.11	19.43	9.37	-38.9	-40.0	22.0	0.00e+00	0	39	0	148897792	52	5698
2026-01-02 15:30:26.12	19.40	9.45	-38.9	-40.0	22.1	0.00e+00	0	39	0	150994944	52	5711
2026-01-02 15:30:27.13	19.36	9.54	-39.0	-40.0	22.1	0.00e+00	0	39	0	153092096	52	5737
2026-01-02 15:30:28.14	19.33	9.62	-38.9	-39.9	22.2	0.00e+00	0	39	0	155189248	52	5660
2026-01-02 15:30:29.15	19.30	9.71	-38.8	-39.9	22.3	0.00e+00	0	39	0	156237824	52	5642
2026-01-02 15:30:30.16	19.27	9.79	-38.8	-39.8	22.2	0.00e+00	92	39	0	158334976	50	6292
2026-01-02 15:30:31.17	19.24	9.88	-38.8	-39.8	22.3	0.00e+00	0	39	0	160432128	50	6300
2026-01-02 15:30:32.18	19.21	9.96	-38.9	-40.0	22.2	0.00e+00	41	39	0	162529280	50	6407
2026-01-02 15:30:33.19	19.17	10.05	-38.7	-39.7	22.4	0.00e+00	0	39	0	164626432	50	6192
2026-01-02 15:30:34.20	19.14	10.14	-38.7	-39.7	22.4	0.00e+00	0	39	0	165675008	50	6212
2026-01-02 15:30:35.20	19.11	10.22	-38.7	-39.7	22.5	0.00e+00	0	39	0	167772160	50	6244
2026-01-02 15:30:36.21	19.08	10.31	-38.7	-39.7	22.3	0.00e+00	0	39	0	169869312	50	6230
2026-01-02 15:30:37.22	19.04	10.40	-38.7	-39.7	22.3	0.00e+00	90	39	0	171966464	50	6218
2026-01-02 15:30:38.23	19.01	10.48	-38.7	-39.7	22.5	0.00e+00	0	39	0	174063616	50	6182
2026-01-02 15:30:39.24	18.98	10.57	-38.6	-39.6	22.5	0.00e+00	92	39	0	175112192	50	6112
2026-01-02 15:30:40.25	18.94	10.66	-38.6	-39.6	22.4	0.00e+00	0	39	0	177209344	50	6173
2026-01-02 15:30:41.26	18.91	10.75	-38.3	-39.3	22.7	0.00e+00	0	39	0	179306496	50	5936
2026-01-02 15:30:42.27	18.88	10.84	-38.4	-39.4	22.7	0.00e+00	0	39	0	181403648	50	5971
2026-01-02 15:30:43.28	18.84	10.93	-38.4	-39.4	22.5	0.00e+00	0	39	0	183500800	50	5997
2026-01-02 15:30:44.28	18.81	11.01	-38.4	-39.4	22.5	0.00e+00	86	39	0	184549376	50	5977
2026-01-02 15:30:45.29	18.77	11.10	-38.3	-39.3	22.6	0.00e+00	0	39	0	186646528	50	5906
2026-01-02 15:30:46.30	18.74	11.19	-38.3	-39.2	22.8	0.00e+00	90	39	0	188743680	50	5880
2026-01-02 15:30:47.31	18.70	11.28	-38.4	-39.4	22.3	0.00e+00	0	39	0	190840832	50	5998
2026-01-02 15:30:48.32	18.67	11.37	-38.2	-39.2	22.5	0.00e+00	0	39	0	192937984	50	5829
2026-01-02 15:30:49.33	18.63	11.47	-38.3	-39.2	22.4	0.00e+00	0	39	0	193986560	50	5868
2026-01-02 15:30:50.33	18.59	11.56	-38.3	-39.2	22.6	0.00e+00	0	39	0	196083712	50	5868
2026-01-02 15:30:51.34	18.56	11.65	-38.0	-38.9	23.1	0.00e+00	18	39	0	198180864	50	5662
2026-01-02 15:30:52.35	18.52	11.74	-38.0	-38.9	22.9	0.00e+00	0	39	0	200278016	50	5674
2026-01-02 15:30:53.36	18.48	11.83	-37.9	-38.9	23.1	0.00e+00	36	39	0	202375168	50	5637
2026-01-02 15:30:54.37	18.45	11.92	-38.1	-39.0	22.9	0.00e+00	0	38	0	203423744	50	5751
2026-01-02 15:30:55.38	18.41	12.02	-37.9	-38.8	23.1	0.00e+00	0	39	0	205520896	50	5594
2026-01-02 15:30:56.39	18.37	12.11	-38.0	-38.9	23.2	0.00e+00	0	39	0	207618048	50	5652
2026-01-02 15:30:57.40	18.33	12.20	-37.9	-38.8	23.2	0.00e+00	0	39	0	209715200	50	5613
2026-01-02 15:30:58.41	18.30	12.30	-37.9	-38.8	23.2	0.00e+00	55	39	0	211812352	50	5587
2026-01-02 15:30:59.42	18.26	12.39	-38.0	-38.9	23.1	0.00e+00	0	39	0	213909504	50	5685
2026-01-02 15:31:00.43	18.22	12.49	-38.1	-39.0	23.1	0.00e+00	92	38	0	214958080	50	5758
2026-01-02 15:31:01.44	18.18	12.58	-37.7	-38.6	23.4	0.00e+00	0	39	0	217055232	48	6156
2026-01-02 15:31:02.44	18.14	12.68	-37.6	-38.5	23.5	0.00e+00	65	39	0	219152384	48	6053
2026-01-02 15:31:03.45	18.10	12.77	-37.6	-38.5	23.4	0.00e+00	0	39	0	221249536	48	6099
2026-01-02 15:31:04.46	18.06	12.87	-37.7	-38.6	23.5	0.00e+00	0	39	0	223346688	48	6122
2026-01-02 15:31:05.47	18.02	12.97	-37.6	-38.5	23.4	0.00e+00	27	38	0	224395264	48	6071
2026-01-02 15:31:06.48	17.98	13.06	-37.5	-38.4	23.5	0.00e+00	0	39	0	226492416	48	6019
2026-01-02 15:31:07.49	17.94	13.16	-37.5	-38.4	23.5	0.00e+00	46	39	0	228589568	48	6007
2026-01-02 15:31:08.50	17.90	13.26	-37.6	-38.5	23.5	0.00e+00	0	39	0	230686720	48	6092
2026-01-02 15:31:09.51	17.86	13.35	-37.5	-38.4	23.6	0.00e+00	90	38	0	231735296	48	5981
2026-01-02 15:31:10.52	17.82	13.45	-37.5	-38.4	23.5	0.00e+00	0	39	0	233832448	48	6003
2026-01-02 15:31:11.53	17.77	13.55	-37.5	-38.4	23.6	0.00e+00	0	39	0	235929600	48	6007
2026-01-02 15:31:12.54	17.73	13.65	-37.6	-38.5	23.5	0.00e+00	0	39	0	238026752	48	6070
2026-01-02 15:31:13.54	17.69	13.75	-37.8	-38.7	23.4	0.00e+00	0	38	0	240123904	48	6187
2026-01-02 15:31:14.55	17.65	13.85	-37.5	-38.4	23.5	0.00e+00	9	38	0	242221056	48	6019
2026-01-02 15:31:15.56	17.60	13.95	-37.5	-38.4	23.5	0.00e+00	0	39	0	243269632	48	6010
2026-01-02 15:31:16.57	17.56	14.05	-37.6	-38.5	23.5	0.00e+00	92	39	0	245366784	48	6087
2026-01-02 15:31:17.58	17.52	14.15	-37.6	-38.4	23.6	0.00e+00	0	38	0	247463936	48	6032
2026-01-02 15:31:18.59	17.47	14.25	-37.5	-38.4	23.6	0.00e+00	0	38	0	249561088	48	6008
2026-01-02 15:31:19.60	17.43	14.36	-37.6	-38.5	23.5	0.00e+00	0	39	0	251658240	48	6096
2026-01-02 15:31:20.61	17.38	14.46	-37.7	-38.6	23.5	0.00e+00	0	39	0	252706816	48	6127
2026-01-02 15:31:21.62	17.34	14.56	-37.8	-38.7	23.2	0.00e+00	50	39	0	254803968	48	6241
2026-01-02 15:31:22.63	17.29	14.66	-37.8	-38.7	23.5	0.00e+00	0	39	0	256901120	48	6198
2026-01-02 15:31:23.64	17.25	14.77	-37.8	-38.7	23.4	0.00e+00	87	38	0	258998272	48	6179
2026-01-02 15:31:24.65	17.20	14.87	-37.7	-38.5	23.5	0.00e+00	0	39	0	261095424	48	6096
2026-01-02 15:31:25.66	17.15	14.98	-37.6	-38.5	23.6	0.00e+00	0	39	0	262144000	48	6050
2026-01-02 15:31:26.67	17.11	15.08	-37.7	-38.6	23.5	0.00e+00	0	39	0	264241152	48	6163
2026-01-02 15:31:27.68	17.06	15.19	-37.6	-38.4	23.6	0.00e+00	0	39	0	266338304	48	6032
2026-01-02 15:31:28.69	17.01	15.29	-37.7	-38.6	23.5	0.00e+00	54	39	0	268435456	48	6111
2026-01-02 15:31:29.70	16.96	15.40	-37.6	-38.5	23.6	0.00e+00	0	39	0	270532608	48	6078
2026-01-02 15:31:30.71	16.92	15.50	-37.4	-38.3	23.6	0.00e+00	72	39	0	271581184	48	5935
2026-01-02 15:31:31.72	16.87	15.61	-37.5	-38.4	23.7	0.00e+00	0	39	0	273678336	48	6004
2026-01-02 15:31:32.73	16.82	15.72	-37.6	-38.5	23.6	0.00e+00	0	39	0	275775488	48	6081
2026-01-02 15:31:33.74	16.77	15.83	-37.6	-38.5	23.5	0.00e+00	0	38	0	277872640	48	6087
2026-01-02 15:31:34.75	16.72	15.94	-37.5	-38.4	23.7	0.00e+00	0	39	0	279969792	48	5996
2026-01-02 15:31:35.76	16.67	16.04	-37.5	-38.3	23.7	0.00e+00	45	39	0	281018368	48	5954
2026-01-02 15:31:36.77	16.62	16.15	-37.6	-38.5	23.6	0.00e+00	0	39	0	283115520	48	6038
2026-01-02 15:31:37.77	16.57	16.26	-37.3	-38.2	23.7	0.00e+00	66	39	0	285212672	48	5835
2026-01-02 15:31:38.79	16.52	16.37	-37.4	-38.3	23.8	0.00e+00	0	39	0	287309824	48	5921
2026-01-02 15:31:39.79	16.46	16.48	-37.5	-38.4	23.7	0.00e+00	53	39	0	289406976	48	5984
2026-01-02 15:31:40.80	16.41	16.59	-37.6	-38.5	23.7	0.00e+00	0	39	0	290455552	48	6077
2026-01-02 15:31:41.81	16.36	16.71	-37.5	-38.4	23.8	0.00e+00	0	39	0	292552704	48	5978
2026-01-02 15:31:42.82	16.31	16.82	-37.5	-38.4	23.7	0.00e+00	49	39	0	294649856	48	5986
2026-01-02 15:31:43.83	16.25	16.93	-37.4	-38.3	23.9	0.00e+00	0	39	0	296747008	48	5937
2026-01-02 15:31:44.84	16.20	17.04	-37.5	-38.3	23.7	0.00e+00	45	39	0	298844160	48	5943
2026-01-02 15:31:45.85	16.14	17.16	-37.6	-38.5	23.7	0.00e+00	0	39	0	299892736	48	6073
2026-01-02 15:31:46.86	16.09	17.27	-37.5	-38.4	23.7	0.00e+00	69	39	0	301989888	48	5985
2026-01-02 15:31:47.87	16.03	17.39	-37.5	-38.3	23.7	0.00e+00	0	39	0	304087040	48	5963
2026-01-02 15:31:48.88	15.98	17.50	-37.6	-38.4	23.7	0.00e+00	0	39	0	306184192	48	6024
2026-01-02 15:31:49.89	15.92	17.62	-37.6	-38.5	23.7	0.00e+00	0	39	0	308281344	48	6066
2026-01-02 15:31:50.90	15.86	17.73	-37.5	-38.4	23.7	0.00e+00	0	39	0	310378496	48	5984
2026-01-02 15:31:51.91	15.81	17.85	-37.4	-38.3	23.8	0.00e+00	48	39	0	311427072	48	5936
2026-01-02 15:31:52.91	15.75	17.97	-37.5	-38.4	23.7	0.00e+00	0	39	0	313524224	48	6014
2026-01-02 15:31:53.92	15.69	18.08	-37.7	-38.6	23.6	0.00e+00	72	39	0	315621376	48	6113
2026-01-02 15:31:54.94	15.63	18.20	-37.6	-38.5	23.7	0.00e+00	0	39	0	317718528	48	6071
2026-01-02 15:31:55.95	15.57	18.32	-37.6	-38.5	23.7	0.00e+00	0	38	0	319815680	48	6073
2026-01-02 15:31:56.95	15.52	18.44	-37.7	-38.7	23.6	0.00e+00	0	38	0	320864256	48	6177
2026-01-02 15:31:57.96	15.46	18.56	-37.9	-38.8	23.5	0.00e+00	0	39	0	322961408	48	6312
2026-01-02 15:31:58.97	15.39	18.68	-37.9	-38.8	23.5	0.00e+00	53	39	0	325058560	48	6286
2026-01-02 15:31:59.98	15.33	18.80	-37.9	-38.8	23.4	0.00e+00	0	39	0	327155712	48	6284
2026-01-02 15:32:00.99	15.27	18.92	-38.1	-39.0	23.1	0.00e+00	92	39	0	329252864	48	6425
2026-01-02 15:32:02.00	15.21	19.05	-37.9	-38.9	23.4	0.00e+00	0	39	0	330301440	48	6331
2026-01-02 15:32:03.01	15.15	19.17	-38.1	-39.0	23.2	0.00e+00	0	38	0	332398592	48	6457
2026-01-02 15:32:04.02	15.08	19.29	-38.2	-39.1	23.3	0.00e+00	0	38	0	334495744	48	6536
2026-01-02 15:32:05.03	15.02	19.42	-38.2	-39.1	23.2	0.00e+00	0	38	0	336592896	48	6530
2026-01-02 15:32:06.04	14.96	19.54	-38.1	-39.1	23.2	0.00e+00	47	38	0	338690048	48	6484
2026-01-02 15:32:07.05	14.89	19.67	-38.1	-39.1	23.2	0.00e+00	0	39	0	339738624	48	6492
2026-01-02 15:32:08.06	14.83	19.79	-38.1	-39.1	23.3	0.00e+00	92	39	0	341835776	48	6467
2026-01-02 15:32:09.07	14.76	19.92	-38.2	-39.2	23.2	0.00e+00	0	38	0	343932928	48	6553
2026-01-02 15:32:10.08	14.69	20.05	-38.3	-39.3	23.1	0.00e+00	0	39	0	346030080	48	6636
2026-01-02 15:32:11.08	14.63	20.17	-38.1	-39.1	23.3	0.00e+00	0	39	0	348127232	48	6469
2026-01-02 15:32:12.09	14.56	20.30	-37.9	-38.8	23.5	0.00e+00	0	39	0	349175808	48	6306
2026-01-02 15:32:13.10	14.49	20.43	-37.8	-38.7	23.5	0.00e+00	41	39	0	351272960	48	6200
2026-01-02 15:32:14.11	14.42	20.56	-37.9	-38.8	23.4	0.00e+00	0	39	0	353370112	48	6260
2026-01-02 15:32:15.12	14.35	20.69	-37.7	-38.6	23.5	0.00e+00	82	38	0	355467264	48	6123
2026-01-02 15:32:16.13	14.28	20.82	-37.8	-38.7	23.5	0.00e+00	0	38	0	357564416	48	6181
2026-01-02 15:32:17.14	14.21	20.95	-37.6	-38.5	23.7	0.00e+00	0	39	0	358612992	48	6040
2026-01-02 15:32:18.15	14.14	21.08	-37.8	-38.7	23.7	0.00e+00	0	39	0	360710144	48	6211
2026-01-02 15:32:19.16	14.07	21.21	-37.7	-38.6	23.7	0.00e+00	0	39	0	362807296	48	6128
2026-01-02 15:32:20.17	13.99	21.35	-37.7	-38.6	23.7	0.00e+00	0	39	0	364904448	48	6137
2026-01-02 15:32:21.17	13.92	21.48	-38.0	-38.9	23.5	0.00e+00	0	39	0	367001600	48	6343
2026-01-02 15:32:22.18	13.85	21.61	-37.9	-38.8	23.6	0.00e+00	92	38	0	368050176	48	6261
2026-01-02 15:32:23.20	13.77	21.75	-37.9	-38.8	23.5	0.00e+00	0	39	0	370147328	48	6258
2026-01-02 15:32:24.21	13.70	21.89	-38.1	-39.0	23.4	0.00e+00	56	39	0	372244480	48	6417
2026-01-02 15:32:25.22	13.62	22.02	-38.0	-38.9	23.4	0.00e+00	0	39	0	374341632	48	6355
2026-01-02 15:32:26.22	13.54	22.16	-38.2	-39.2	23.2	0.00e+00	0	39	0	376438784	48	6567
2026-01-02 15:32:27.23	13.47	22.30	-38.3	-39.2	23.2	0.00e+00	0	38	0	378535936	48	6596
2026-01-02 15:32:28.24	13.39	22.43	-38.1	-39.1	23.3	0.00e+00	0	38	0	379584512	48	6477
2026-01-02 15:32:29.25	13.31	22.57	-38.3	-39.2	23.2	0.00e+00	19	39	0	381681664	48	6571
2026-01-02 15:32:30.26	13.23	22.71	-38.3	-39.2	23.3	0.00e+00	0	38	0	383778816	48	6608
2026-01-02 15:32:31.28	13.15	22.86	-38.1	-39.0	23.2	0.00e+00	63	39	0	385875968	48	6440
2026-01-02 15:32:32.28	13.07	23.00	-38.2	-39.2	23.2	0.00e+00	0	38	0	387973120	48	6555
2026-01-02 15:32:33.29	12.98	23.14	-38.2	-39.1	23.3	0.00e+00	33	39	0	389021696	48	6487
2026-01-02 15:32:34.30	12.90	23.28	-38.2	-39.2	23.1	0.00e+00	0	38	0	391118848	48	6550
2026-01-02 15:32:35.31	12.82	23.42	-38.3	-39.2	23.2	0.00e+00	0	39	0	393216000	48	6610
2026-01-02 15:32:36.32	12.73	23.57	-38.3	-39.3	23.2	0.00e+00	34	39	0	395313152	48	6632
2026-01-02 15:32:37.33	12.65	23.71	-38.4	-39.4	23.1	0.00e+00	0	39	0	397410304	48	6701
2026-01-02 15:32:38.34	12.56	23.86	-38.7	-39.6	22.9	0.00e+00	30	39	0	398458880	48	6924
2026-01-02 15:32:39.35	12.47	24.01	-38.8	-39.8	22.8	0.00e+00	0	39	0	400556032	50	6271
2026-01-02 15:32:40.36	12.39	24.15	-39.0	-40.0	22.6	0.00e+00	0	38	0	402653184	50	6439
2026-01-02 15:32:41.37	12.30	24.30	-39.2	-40.2	22.5	0.00e+00	0	38	0	404750336	50	6585
2026-01-02 15:32:42.38	12.21	24.45	-39.2	-40.2	22.3	0.00e+00	0	38	0	406847488	50	6613
2026-01-02 15:32:43.39	12.12	24.60	-39.4	-40.5	22.2	0.00e+00	21	39	0	407896064	50	6799
2026-01-02 15:32:44.39	12.03	24.75	-39.3	-40.4	22.4	0.00e+00	0	39	0	409993216	50	6731
2026-01-02 15:32:45.40	11.93	24.90	-39.7	-40.8	21.9	0.00e+00	27	39	0	412090368	50	7084
2026-01-02 15:32:46.41	11.84	25.05	-39.3	-40.4	22.2	0.00e+00	0	38	0	414187520	52	5971
2026-01-02 15:32:47.42	11.75	25.20	-39.5	-40.5	22.2	0.00e+00	33	38	0	416284672	52	6100
2026-01-02 15:32:48.43	11.65	25.36	-39.7	-40.8	22.1	0.00e+00	0	38	0	417333248	52	6268
2026-01-02 15:32:49.44	11.56	25.51	-39.5	-40.6	22.2	0.00e+00	0	39	0	419430400	52	6127
2026-01-02 15:32:50.45	11.46	25.67	-39.2	-40.3	22.4	0.00e+00	51	39	0	421527552	52	5921
2026-01-02 15:32:51.46	11.36	25.82	-39.3	-40.4	22.3	0.00e+00	0	38	0	423624704	52	5993
2026-01-02 15:32:52.47	11.26	25.98	-39.4	-40.5	22.3	0.00e+00	62	39	0	425721856	52	6039
2026-01-02 15:32:53.47	11.16	26.13	-39.4	-40.4	22.3	0.00e+00	0	39	0	426770432	52	6005
2026-01-02 15:32:54.48	11.06	26.29	-39.3	-40.4	22.3	0.00e+00	57	39	0	428867584	52	5981
2026-01-02 15:32:55.49	10.96	26.45	-39.3	-40.4	22.4	0.00e+00	0	38	0	430964736	52	5984
2026-01-02 15:32:56.50	10.86	26.61	-39.3	-40.3	22.6	0.00e+00	33	39	0	433061888	52	5947
2026-01-02 15:32:57.51	10.75	26.77	-39.4	-40.4	22.4	0.00e+00	55	38	0	435159040	52	6015
2026-01-02 15:32:58.52	10.65	26.93	-39.3	-40.3	22.5	0.00e+00	0	38	0	436207616	52	5913
2026-01-02 15:32:59.53	10.54	27.10	-39.2	-40.2	22.5	0.00e+00	50	39	0	438304768	52	5871
2026-01-02 15:33:00.54	10.43	27.26	-39.5	-40.5	22.1	0.00e+00	0	39	0	440401920	52	6077
2026-01-02 15:33:01.55	10.32	27.42	-39.5	-40.5	22.3	0.00e+00	91	38	0	442499072	52	6084
2026-01-02 15:33:02.56	10.21	27.59	-39.4	-40.4	22.2	0.00e+00	0	39	0	444596224	52	5981
2026-01-02 15:33:03.57	10.10	27.76	-39.6	-40.6	22.2	0.00e+00	0	39	0	446693376	52	6148
2026-01-02 15:33:04.58	9.99	27.92	-39.4	-40.4	22.4	0.00e+00	0	39	0	447741952	52	5987
2026-01-02 15:33:05.59	9.88	28.09	-39.6	-40.6	22.2	0.00e+00	0	39	0	449839104	52	6140
2026-01-02 15:33:06.60	9.76	28.26	-39.9	-40.9	21.9	0.00e+00	54	39	0	451936256	52	6380
2026-01-02 15:33:07.61	9.65	28.43	-40.0	-41.1	22.1	0.00e+00	0	39	0	454033408	52	6465
2026-01-02 15:33:08.62	9.53	28.60	-39.9	-40.9	22.0	0.00e+00	91	39	0	456130560	52	6367
2026-01-02 15:33:09.63	9.41	28.77	-40.6	-41.8	21.6	0.00e+00	0	39	0	457179136	52	7036
2026-01-02 15:33:10.64	9.29	28.94	-40.3	-41.5	21.6	0.00e+00	0	39	0	459276288	52	6782
2026-01-02 15:33:11.65	9.17	29.12	-40.5	-41.7	21.4	0.00e+00	0	39	0	461373440	52	6978
2026-01-02 15:33:12.65	9.05	29.29	-40.7	-41.9	21.0	0.00e+00	0	38	0	463470592	54	6329
2026-01-02 15:33:13.66	8.92	29.46	-41.0	-42.2	20.9	0.00e+00	24	39	0	465567744	54	6606
2026-01-02 15:33:14.67	8.80	29.64	-41.4	-42.8	20.4	0.00e+00	0	39	0	466616320	54	7030
2026-01-02 15:33:15.68	8.67	29.82	-40.9	-42.2	20.8	0.00e+00	82	39	0	468713472	54	6556
2026-01-02 15:33:16.69	8.54	29.99	-41.2	-42.5	20.6	0.00e+00	0	39	0	470810624	54	6844
2026-01-02 15:33:17.70	8.41	30.17	-41.1	-42.4	20.8	0.00e+00	0	39	0	472907776	54	6715
2026-01-02 15:33:18.71	8.28	30.35	-40.5	-41.7	21.3	0.00e+00	0	38	0	475004928	54	6214
2026-01-02 15:33:19.72	8.15	30.53	-40.4	-41.6	21.3	0.00e+00	0	39	0	476053504	54	6120
2026-01-02 15:33:20.73	8.01	30.72	-40.2	-41.3	21.6	0.00e+00	0	39	0	478150656	54	5949
2026-01-02 15:33:21.74	7.88	30.90	-40.2	-41.3	21.7	0.00e+00	0	39	0	480247808	54	5928
2026-01-02 15:33:22.75	7.74	31.08	-40.7	-41.9	21.0	0.00e+00	74	39	0	482344960	54	6363
2026-01-02 15:33:23.76	7.60	31.27	-40.4	-41.5	21.4	0.00e+00	0	39	0	484442112	54	6050
2026-01-02 15:33:24.77	7.46	31.45	-40.7	-41.9	21.1	0.00e+00	0	39	0	485490688	54	6341
2026-01-02 15:33:25.78	7.32	31.64	-41.1	-42.3	21.1	0.00e+00	0	39	0	487587840	54	6664
2026-01-02 15:33:26.79	7.17	31.83	-40.8	-42.0	21.1	0.00e+00	0	39	0	489684992	54	6449
2026-01-02 15:33:27.80	7.03	32.01	-41.1	-42.3	20.8	0.00e+00	0	39	0	491782144	54	6669
2026-01-02 15:33:28.81	6.88	32.20	-41.1	-42.4	20.9	0.00e+00	0	39	0	493879296	56	5989
2026-01-02 15:33:29.82	6.73	32.39	-40.5	-41.7	21.4	0.00e+00	92	39	0	494927872	54	6177
2026-01-02 15:33:30.82	6.58	32.58	-41.3	-42.7	20.5	0.00e+00	0	39	0	497025024	54	6929
2026-01-02 15:33:31.84	6.43	32.78	-40.6	-41.7	21.3	0.00e+00	90	39	0	499122176	54	6239
2026-01-02 15:33:32.84	6.27	32.97	-40.5	-41.7	21.4	0.00e+00	0	39	0	501219328	54	6207
2026-01-02 15:33:33.85	6.12	33.16	-40.7	-41.9	21.2	0.00e+00	0	39	0	503316480	54	6321
2026-01-02 15:33:34.86	5.96	33.36	-41.4	-42.7	20.5	0.00e+00	0	39	0	504365056	54	6994
2026-01-02 15:33:35.87	5.80	33.56	-41.6	-43.0	20.0	0.00e+00	0	39	0	506462208	54	7175
2026-01-02 15:33:36.88	5.63	33.75	-41.9	-43.3	20.1	0.00e+00	50	39	0	508559360	56	6663
2026-01-02 15:33:37.89	5.47	33.95	-42.0	-43.4	19.7	0.00e+00	0	39	0	510656512	56	6725
2026-01-02 15:33:38.90	5.30	34.15	-42.3	-43.9	19.4	0.00e+00	88	39	0	512753664	56	7096
2026-01-02 15:33:39.91	5.13	34.35	-41.7	-43.1	20.4	0.00e+00	0	39	0	514850816	56	6473
2026-01-02 15:33:40.92	4.96	34.55	-41.4	-42.7	20.4	0.00e+00	0	39	0	515899392	56	6220
2026-01-02 15:33:41.93	4.79	34.76	-41.4	-42.6	20.5	0.00e+00	0	39	0	517996544	56	6172
2026-01-02 15:33:42.94	4.61	34.96	-41.5	-42.8	20.3	0.00e+00	0	39	0	520093696	56	6288
2026-01-02 15:33:43.95	4.44	35.16	-41.4	-42.7	20.4	0.00e+00	52	39	0	522190848	56	6191
2026-01-02 15:33:44.96	4.26	35.37	-41.6	-43.0	20.3	0.00e+00	0	39	0	523239424	56	6411
2026-01-02 15:33:45.97	4.07	35.58	-42.1	-43.5	19.8	0.00e+00	92	39	0	525336576	56	6822
2026-01-02 15:33:46.98	3.89	35.78	-42.6	-44.2	19.1	0.00e+00	0	39	0	527433728	56	7413
2026-01-02 15:33:47.99	3.70	35.99	-41.9	-43.3	19.9	0.00e+00	0	39	0	529530880	56	6656
2026-01-02 15:33:48.99	3.51	36.20	-42.0	-43.4	20.0	0.00e+00	0	39	0	531628032	56	6768
2026-01-02 15:33:50.00	3.32	36.41	-41.7	-43.1	20.2	0.00e+00	0	39	0	532676608	56	6509
2026-01-02 15:33:51.01	3.13	36.62	-41.6	-43.0	20.2	0.00e+00	23	39	0	534773760	56	6418
2026-01-02 15:33:52.02	2.93	36.83	-41.9	-43.4	19.8	0.00e+00	0	39	0	536870912	56	6734
2026-01-02 15:33:53.03	2.73	37.05	-42.0	-43.5	19.8	0.00e+00	90	39	0	538968064	56	6797
2026-01-02 15:33:54.04	2.53	37.26	-42.6	-44.3	19.1	0.00e+00	0	39	0	541065216	56	7433
2026-01-02 15:33:55.05	2.32	37.48	-42.7	-44.4	19.0	0.00e+00	31	39	0	543162368	58	6752
2026-01-02 15:33:56.06	2.12	37.69	-42.9	-44.6	18.8	0.00e+00	0	39	0	544210944	58	6898
2026-01-02 15:33:57.07	1.90	37.91	-42.8	-44.5	19.0	0.00e+00	0	39	0	546308096	58	6802
2026-01-02 15:33:58.08	1.69	38.13	-42.4	-43.9	19.3	0.00e+00	54	39	0	548405248	58	6388
2026-01-02 15:33:59.09	1.47	38.35	-42.1	-43.6	19.8	0.00e+00	0	39	0	550502400	58	6159
2026-01-02 15:34:00.10	1.25	38.57	-41.9	-43.2	20.2	0.00e+00	92	39	0	552599552	56	6603
2026-01-02 15:34:01.11	1.03	38.79	-41.5	-42.9	20.3	0.00e+00	0	39	0	553648128	56	6338
2026-01-02 15:34:02.12	0.81	39.01	-41.6	-43.0	20.3	0.00e+00	0	39	0	555745280	56	6401
2026-01-02 15:34:03.13	0.58	39.24	-40.7	-42.0	21.1	0.00e+00	0	39	0	557842432	54	6403
2026-01-02 15:34:04.14	0.34	39.46	-40.4	-41.5	21.2	0.00e+00	0	39	0	559939584	54	6091
2026-01-02 15:34:05.15	0.11	39.69	-39.9	-41.0	21.7	0.00e+00	0	39	0	562036736	54	5746
2026-01-02 15:34:06.16	359.87	39.91	-40.0	-41.1	21.9	0.00e+00	0	39	0	563085312	52	6515
2026-01-02 15:34:07.17	359.63	40.14	-39.9	-41.0	21.9	0.00e+00	91	39	0	565182464	52	6417
2026-01-02 15:34:08.18	359.38	40.37	-39.3	-40.3	22.4	0.00e+00	0	39	0	567279616	52	5942
2026-01-02 15:34:09.19	359.13	40.59	-39.9	-41.0	22.0	0.00e+00	80	39	0	569376768	52	6393
2026-01-02 15:34:10.20	358.88	40.82	-40.1	-41.2	21.7	0.00e+00	0	39	0	571473920	52	6613
2026-01-02 15:34:11.21	358.62	41.05	-40.3	-41.5	21.6	0.00e+00	0	39	0	572522496	52	6801
2026-01-02 15:34:12.21	358.37	41.28	-40.4	-41.6	21.4	0.00e+00	0	39	0	574619648	52	6871
2026-01-02 15:34:13.23	358.10	41.52	-40.2	-41.4	21.7	0.00e+00	0	39	0	576716800	52	6703
2026-01-02 15:34:14.23	357.83	41.75	-40.5	-41.7	21.3	0.00e+00	15	39	0	578813952	52	6985
2026-01-02 15:34:15.24	357.56	41.98	-41.0	-42.2	20.8	0.00e+00	0	39	0	580911104	54	6605
2026-01-02 15:34:16.25	357.29	42.21	-41.6	-43.0	20.2	0.00e+00	79	39	0	581959680	54	7203
2026-01-02 15:34:17.26	357.01	42.45	-41.8	-43.2	19.8	0.00e+00	0	39	0	584056832	56	6578
2026-01-02 15:34:18.27	356.72	42.68	-42.0	-43.4	19.9	0.00e+00	0	39	0	586153984	56	6753
2026-01-02 15:34:19.28	356.43	42.92	-41.7	-43.1	20.3	0.00e+00	0	39	0	588251136	56	6503
2026-01-02 15:34:20.29	356.14	43.16	-41.5	-42.9	20.5	0.00e+00	0	39	0	590348288	56	6333
2026-01-02 15:34:21.30	355.84	43.39	-41.2	-42.5	20.8	0.00e+00	58	39	0	591396864	56	6093
2026-01-02 15:34:22.31	355.54	43.63	-41.0	-42.3	20.8	0.00e+00	0	39	0	593494016	56	5898
2026-01-02 15:34:23.32	355.24	43.87	-41.2	-42.5	20.8	0.00e+00	92	39	0	595591168	56	6069
2026-01-02 15:34:24.33	354.93	44.11	-41.3	-42.7	20.5	0.00e+00	0	39	0	597688320	56	6191
2026-01-02 15:34:25.34	354.61	44.35	-41.1	-42.4	20.8	0.00e+00	0	39	0	599785472	56	5997
2026-01-02 15:34:26.35	354.29	44.59	-41.1	-42.4	21.0	0.00e+00	0	39	0	600834048	56	5972
2026-01-02 15:34:27.36	353.96	44.83	-40.6	-41.8	21.2	0.00e+00	0	39	0	602931200	54	6316
2026-01-02 15:34:28.36	353.64	45.07	-41.3	-42.6	20.6	0.00e+00	68	39	0	605028352	54	6888
2026-01-02 15:34:29.37	353.30	45.31	-41.6	-43.0	20.2	0.00e+00	0	39	0	607125504	54	7230
2026-01-02 15:34:30.38	352.96	45.55	-41.7	-43.1	20.2	0.00e+00	51	39	0	609222656	56	6478
2026-01-02 15:34:31.39	352.62	45.79	-41.3	-42.6	20.7	0.00e+00	0	39	0	611319808	56	6134
2026-01-02 15:34:32.40	352.26	46.03	-40.3	-41.4	21.6	0.00e+00	0	39	0	612368384	54	6004
2026-01-02 15:34:33.41	351.91	46.28	-39.7	-40.7	21.7	0.00e+00	0	39	0	614465536	54	5534
2026-01-02 15:34:34.42	351.54	46.52	-40.0	-41.1	21.9	0.00e+00	33	39	0	616562688	52	6514
2026-01-02 15:34:35.43	351.18	46.76	-39.7	-40.8	22.2	0.00e+00	58	39	0	618659840	52	6305
2026-01-02 15:34:36.44	350.80	47.00	-39.9	-41.0	22.0	0.00e+00	0	39	0	620756992	52	6418
2026-01-02 15:34:37.45	350.42	47.25	-39.7	-40.8	22.2	0.00e+00	92	39	0	621805568	52	6253
2026-01-02 15:34:38.46	350.04	47.49	-39.2	-40.2	22.5	0.00e+00	0	39	0	623902720	52	5883
2026-01-02 15:34:39.47	349.64	47.73	-39.8	-40.9	22.1	0.00e+00	92	39	0	625999872	52	6378
2026-01-02 15:34:40.48	349.25	47.98	-39.9	-41.0	21.9	0.00e+00	33	39	0	628097024	52	6454
2026-01-02 15:34:41.49	348.84	48.22	-40.1	-41.2	21.6	0.00e+00	0	39	0	630194176	52	6615
2026-01-02 15:34:42.50	348.43	48.46	-40.6	-41.8	21.3	0.00e+00	0	39	0	631242752	52	7036
2026-01-02 15:34:43.51	348.01	48.70	-41.0	-42.4	20.7	0.00e+00	0	39	0	633339904	54	6705
2026-01-02 15:34:44.52	347.59	48.94	-41.2	-42.6	20.7	0.00e+00	54	39	0	635437056	54	6872
2026-01-02 15:34:45.53	347.16	49.19	-41.5	-43.0	20.3	0.00e+00	0	39	0	637534208	54	7194
2026-01-02 15:34:46.53	346.72	49.42	-40.6	-41.8	21.3	0.00e+00	92	39	0	639631360	54	6269
2026-01-02 15:34:47.54	346.28	49.66	-40.3	-41.5	21.6	0.00e+00	0	39	0	640679936	54	6047
2026-01-02 15:34:48.55	345.83	49.90	-39.3	-40.3	22.3	0.00e+00	0	39	0	642777088	52	5907
2026-01-02 15:34:49.56	345.37	50.14	-39.1	-40.1	22.6	0.00e+00	0	39	0	644874240	52	5814
2026-01-02 15:34:50.57	344.90	50.38	-39.5	-40.5	22.2	0.00e+00	0	39	0	646971392	52	6100
2026-01-02 15:34:51.58	344.43	50.62	-39.6	-40.6	22.6	0.00e+00	56	39	0	649068544	52	6148
2026-01-02 15:34:52.59	343.95	50.85	-39.0	-39.9	22.8	0.00e+00	0	39	0	650117120	52	5686
2026-01-02 15:34:53.60	343.46	51.09	-38.1	-38.9	23.5	0.00e+00	90	39	0	652214272	50	5682
2026-01-02 15:34:54.61	342.96	51.32	-38.0	-38.8	23.6	0.00e+00	0	39	0	654311424	48	6314
2026-01-02 15:34:55.62	342.46	51.56	-38.0	-38.9	23.3	0.00e+00	0	39	0	656408576	48	6344
2026-01-02 15:34:56.63	341.94	51.79	-38.3	-39.3	23.3	0.00e+00	0	39	0	658505728	48	6619
2026-01-02 15:34:57.63	341.43	52.02	-38.3	-39.2	23.4	0.00e+00	0	39	0	659554304	48	6596
2026-01-02 15:34:58.64	340.90	52.25	-37.9	-38.8	23.6	0.00e+00	27	39	0	661651456	48	6315
2026-01-02 15:34:59.65	340.36	52.47	-37.8	-38.8	23.7	0.00e+00	0	39	0	663748608	48	6250
2026-01-02 15:35:00.66	339.82	52.70	-38.2	-39.2	23.3	0.00e+00	92	39	0	665845760	48	6583
2026-01-02 15:35:01.67	339.26	52.93	-39.5	-40.6	22.2	0.00e+00	0	39	0	667942912	50	6918
2026-01-02 15:35:02.68	338.70	53.15	-40.1	-41.5	21.5	0.00e+00	0	39	0	668991488	52	6775
2026-01-02 15:35:03.69	338.13	53.37	-40.0	-41.2	21.9	0.00e+00	0	39	0	671088640	52	6576
2026-01-02 15:35:04.70	337.55	53.59	-38.9	-39.9	23.0	0.00e+00	0	39	0	673185792	52	5646
2026-01-02 15:35:05.71	336.96	53.80	-37.4	-38.3	24.1	0.00e+00	52	39	0	675282944	48	5911
2026-01-02 15:35:06.72	336.36	54.02	-37.2	-38.0	24.5	0.00e+00	0	39	0	677380096	48	5742
2026-01-02 15:35:07.73	335.75	54.23	-37.7	-38.6	23.8	0.00e+00	90	39	0	679477248	48	6159
2026-01-02 15:35:08.74	335.14	54.44	-38.6	-39.6	22.7	0.00e+00	0	39	0	680525824	48	6873
2026-01-02 15:35:09.75	334.51	54.65	-38.8	-39.9	22.9	0.00e+00	77	39	0	682622976	50	6322
2026-01-02 15:35:10.46	334.07	54.79	-38.8	-39.8	22.8	0.00e+00	0	39	0	684720128	50	6268
2026-01-02 15:35:11.75	333.25	55.05	-39.1	-40.1	22.5	0.00e+00	0	39	0	686817280	50	6516
2026-01-02 15:35:12.48	332.78	55.19	-39.1	-40.1	22.7	0.00e+00	0	39	0	688914432	50	6481
2026-01-02 15:35:13.78	331.93	55.45	-39.3	-40.3	22.6	0.00e+00	0	39	0	691011584	50	6664
2026-01-02 15:35:14.50	331.45	55.58	-39.1	-40.1	22.4	0.00e+00	50	39	0	692060160	50	6531
2026-01-02 15:35:15.79	330.58	55.83	-38.5	-39.5	23.1	0.00e+00	0	39	0	694157312	50	6052
2026-01-02 15:35:16.51	330.09	55.96	-38.3	-39.2	23.4	0.00e+00	92	39	0	696254464	50	5893
2026-01-02 15:35:17.81	329.19	56.20	-38.2	-39.1	23.4	0.00e+00	0	39	0	698351616	50	5822
2026-01-02 15:35:18.53	328.69	56.32	-39.0	-40.0	22.8	0.00e+00	0	39	0	699400192	50	6417
2026-01-02 15:35:19.83	327.77	56.55	-39.6	-40.8	22.1	0.00e+00	90	39	0	702545920	50	7016
2026-01-02 15:35:20.55	327.25	56.67	-39.2	-40.3	22.4	0.00e+00	0	39	0	703594496	52	5907
2026-01-02 15:35:21.85	326.31	56.89	-38.2	-39.1	23.4	0.00e+00	90	39	0	705691648	50	5775
2026-01-02 15:35:22.57	325.78	57.01	-38.1	-39.0	23.6	0.00e+00	0	39	0	707788800	48	6456
2026-01-02 15:35:23.87	324.81	57.21	-38.7	-39.7	23.1	0.00e+00	0	39	0	709885952	48	6961
2026-01-02 15:35:24.59	324.27	57.32	-38.9	-39.9	22.8	0.00e+00	0	39	0	710934528	50	6367
2026-01-02 15:35:25.89	323.28	57.52	-40.2	-41.4	21.5	0.00e+00	0	39	0	713031680	52	6748
2026-01-02 15:35:26.60	322.73	57.62	-40.7	-42.0	20.8	0.00e+00	0	39	0	715128832	52	7229
2026-01-02 15:35:27.90	321.72	57.80	-40.7	-42.0	21.1	0.00e+00	0	39	0	717225984	54	6434
2026-01-02 15:35:28.62	321.15	57.90	-40.3	-41.5	21.5	0.00e+00	43	39	0	718274560	54	6040
2026-01-02 15:35:29.92	320.12	58.07	-40.2	-41.4	21.6	0.00e+00	0	39	0	721420288	54	6021
2026-01-02 15:35:30.64	319.54	58.16	-40.5	-41.8	21.5	0.00e+00	55	39	0	722468864	54	6255
2026-01-02 15:35:31.94	318.49	58.32	-39.6	-40.7	22.4	0.00e+00	0	39	0	724566016	54	5550
2026-01-02 15:35:32.66	317.90	58.40	-39.1	-40.1	22.7	0.00e+00	0	39	0	726663168	52	5814
2026-01-02 15:35:33.96	316.83	58.54	-38.7	-39.7	22.9	0.00e+00	58	39	0	728760320	50	6207
2026-01-02 15:35:34.68	316.23	58.62	-38.7	-39.7	22.9	0.00e+00	0	39	0	729808896	50	6220
2026-01-02 15:35:35.98	315.14	58.75	-37.6	-38.5	23.7	0.00e+00	92	39	0	732954624	50	5390
2026-01-02 15:35:36.70	314.54	58.81	-36.9	-37.7	24.3	0.00e+00	0	39	0	734003200	48	5549
2026-01-02 15:35:38.00	313.43	58.93	-37.4	-38.2	24.0	0.00e+00	0	39	0	736100352	48	5886
2026-01-02 15:35:38.72	312.82	58.99	-37.7	-38.6	23.6	0.00e+00	0	39	0	737148928	48	6118
2026-01-02 15:35:40.02	311.70	59.08	-39.3	-40.4	22.2	0.00e+00	0	39	0	740294656	50	6763
2026-01-02 15:35:40.74	311.08	59.14	-39.4	-40.6	22.3	0.00e+00	0	39	0	741343232	50	6887
2026-01-02 15:35:42.03	309.95	59.22	-38.8	-39.8	22.8	0.00e+00	0	39	0	743440384	50	6289
2026-01-02 15:35:42.75	309.33	59.26	-38.5	-39.4	23.2	0.00e+00	0	39	0	745537536	50	6000
2026-01-02 15:35:44.05	308.19	59.33	-38.0	-39.0	23.6	0.00e+00	0	39	0	747634688	50	5699
2026-01-02 15:35:44.77	307.55	59.36	-37.5	-38.4	23.8	0.00e+00	66	39	0	748683264	48	6005
2026-01-02 15:35:46.07	306.40	59.41	-37.1	-38.0	24.4	0.00e+00	0	39	0	751828992	48	5706
2026-01-02 15:35:46.79	305.76	59.43	-37.1	-38.0	24.3	0.00e+00	33	39	0	752877568	48	5732
2026-01-02 15:35:48.09	304.61	59.47	-37.6	-38.5	23.8	0.00e+00	23	39	0	754974720	48	6069
2026-01-02 15:35:48.81	303.97	59.48	-37.0	-37.8	24.3	0.00e+00	0	39	0	757071872	48	5620
2026-01-02 15:35:50.11	302.81	59.50	-36.0	-36.7	25.1	0.00e+00	92	39	0	759169024	46	5563
2026-01-02 15:35:50.83	302.17	59.51	-35.8	-36.5	25.2	0.00e+00	0	39	0	760217600	44	6085
2026-01-02 15:35:52.13	301.01	59.51	-35.8	-36.6	25.2	0.00e+00	64	39	0	762314752	44	6147
2026-01-02 15:35:52.85	300.37	59.51	-36.0	-36.7	25.2	0.00e+00	0	39	0	764411904	44	6232
2026-01-02 15:35:54.14	299.22	59.49	-35.4	-36.2	25.2	0.00e+00	0	39	0	766509056	44	5848
2026-01-02 15:35:54.87	298.57	59.48	-35.7	-36.4	25.3	0.00e+00	0	39	0	767557632	44	6030
2026-01-02 15:35:56.16	297.42	59.45	-35.7	-36.5	25.1	0.00e+00	0	39	0	770703360	44	6083
2026-01-02 15:35:56.88	296.78	59.42	-36.3	-37.2	24.8	0.00e+00	0	39	0	771751936	44	6571
2026-01-02 15:35:58.18	295.63	59.38	-36.7	-37.6	23.9	0.00e+00	33	39	0	773849088	46	6144
2026-01-02 15:35:58.90	295.00	59.34	-36.4	-37.2	24.8	0.00e+00	54	39	0	775946240	46	5859
2026-01-02 15:36:00.20	293.85	59.28	-35.8	-36.6	25.2	0.00e+00	0	39	0	778043392	46	5466
2026-01-02 15:36:00.92	293.22	59.24	-35.7	-36.4	25.2	0.00e+00	90	39	0	779091968	44	6004
2026-01-02 15:36:02.22	292.09	59.16	-35.9	-36.7	25.1	0.00e+00	17	39	0	781189120	44	6208
2026-01-02 15:36:02.94	291.47	59.11	-36.2	-37.0	24.9	0.00e+00	0	39	0	783286272	44	6395
2026-01-02 15:36:04.24	290.34	59.02	-36.8	-37.7	24.4	0.00e+00	49	39	0	785383424	46	6203
2026-01-02 15:36:04.96	289.73	58.96	-36.2	-37.0	24.9	0.00e+00	0	39	0	786432000	46	5713
2026-01-02 15:36:06.25	288.63	58.85	-35.4	-36.1	25.4	0.00e+00	78	39	0	789577728	44	5809
2026-01-02 15:36:06.98	288.01	58.78	-35.2	-36.0	25.6	0.00e+00	0	39	0	790626304	44	5708
2026-01-02 15:36:08.27	286.93	58.66	-35.5	-36.3	25.4	0.00e+00	0	39	0	792723456	44	5934
2026-01-02 15:36:08.99	286.33	58.58	-36.0	-36.8	24.8	0.00e+00	0	39	0	794820608	44	6304
2026-01-02 15:36:10.29	285.25	58.44	-37.3	-38.2	23.9	0.00e+00	0	39	0	796917760	46	6582
2026-01-02 15:36:11.01	284.66	58.36	-38.1	-39.1	23.4	0.00e+00	0	39	0	797966336	48	6501
2026-01-02 15:36:12.31	283.60	58.21	-38.6	-39.6	23.1	0.00e+00	0	39	0	801112064	48	6892
2026-01-02 15:36:13.03	283.02	58.12	-38.9	-39.9	22.7	0.00e+00	0	39	0	802160640	50	6388
2026-01-02 15:36:14.33	281.99	57.95	-38.5	-39.4	23.2	0.00e+00	0	39	0	804257792	50	6023
2026-01-02 15:36:15.05	281.42	57.85	-38.1	-39.1	23.4	0.00e+00	39	39	0	805306368	50	5778
2026-01-02 15:36:16.35	280.40	57.67	-38.4	-39.3	23.3	0.00e+00	0	39	0	808452096	50	5918
2026-01-02 15:36:17.07	279.84	57.57	-38.2	-39.1	23.4	0.00e+00	0	39	0	809500672	50	5798
2026-01-02 15:36:18.37	278.85	57.38	-37.9	-38.8	23.7	0.00e+00	56	39	0	811597824	50	5586
2026-01-02 15:36:19.09	278.30	57.27	-38.0	-38.9	23.6	0.00e+00	0	39	0	813694976	50	5667
2026-01-02 15:36:20.39	277.33	57.06	-38.5	-39.5	23.2	0.00e+00	54	39	0	815792128	50	6040
2026-01-02 15:36:21.11	276.80	56.95	-38.2	-39.1	23.4	0.00e+00	0	39	0	816840704	50	5820
2026-01-02 15:36:22.40	275.86	56.73	-37.9	-38.7	23.7	0.00e+00	26	39	0	819986432	48	6229
2026-01-02 15:36:23.12	275.34	56.61	-38.6	-39.6	22.0	0.00e+00	0	39	0	821035008	48	6864
2026-01-02 15:36:24.42	274.41	56.39	-39.4	-40.5	22.5	0.00e+00	0	39	0	823132160	50	6793
2026-01-02 15:36:25.14	273.90	56.26	-38.4	-39.3	23.4	0.00e+00	0	39	0	824180736	50	5960
2026-01-02 15:36:26.43	273.01	56.03	-37.5	-38.3	24.0	0.00e+00	0	39	0	827326464	48	5943
2026-01-02 15:36:27.16	272.51	55.89	-37.3	-38.1	24.2	0.00e+00	0	39	0	828375040	48	5794
2026-01-02 15:36:28.45	271.63	55.65	-36.4	-37.2	24.9	0.00e+00	0	39	0	830472192	46	5833
2026-01-02 15:36:29.17	271.15	55.52	-36.4	-37.1	25.0	0.00e+00	57	39	0	832569344	46	5822
2026-01-02 15:36:30.47	270.30	55.26	-36.8	-37.6	24.6	0.00e+00	0	39	0	834666496	46	6128
2026-01-02 15:36:31.19	269.83	55.12	-36.0	-36.8	25.0	0.00e+00	76	39	0	835715072	46	5579
2026-01-02 15:36:32.49	269.00	54.86	-35.9	-36.6	25.3	0.00e+00	0	39	0	838860800	44	6144
2026-01-02 15:36:33.21	268.54	54.72	-36.4	-37.2	24.9	0.00e+00	0	39	0	839909376	44	6547
2026-01-02 15:36:34.51	267.74	54.45	-37.5	-38.4	24.0	0.00e+00	71	39	0	842006528	46	6744
2026-01-02 15:36:35.23	267.29	54.30	-37.7	-38.6	23.7	0.00e+00	0	39	0	844103680	48	6164
2026-01-02 15:36:36.53	266.51	54.03	-38.3	-39.2	23.3	0.00e+00	71	39	0	846200832	48	6580
2026-01-02 15:36:37.25	266.08	53.87	-38.2	-39.2	23.3	0.00e+00	0	39	0	847249408	48	6547
2026-01-02 15:36:38.55	265.32	53.60	-38.2	-39.1	23.3	0.00e+00	0	39	0	849346560	48	6496
2026-01-02 15:36:39.27	264.90	53.44	-38.0	-38.9	23.5	0.00e+00	0	39	0	851443712	48	6346
2026-01-02 15:36:40.56	264.17	53.16	-38.6	-39.6	23.1	0.00e+00	0	39	0	853540864	48	6890
2026-01-02 15:36:41.28	263.77	53.00	-38.5	-39.4	23.1	0.00e+00	0	39	0	854589440	50	6000
2026-01-02 15:36:42.58	263.05	52.71	-39.6	-40.7	22.3	0.00e+00	0	39	0	857735168	50	6975
2026-01-02 15:36:43.30	262.66	52.55	-39.5	-40.6	22.4	0.00e+00	28	39	0	858783744	50	6852
2026-01-02 15:36:44.60	261.96	52.26	-39.6	-40.6	21.8	0.00e+00	0	39	0	860880896	50	6920
2026-01-02 15:36:45.32	261.58	52.09	-39.7	-40.7	22.1	0.00e+00	92	39	0	862978048	52	6239
2026-01-02 15:36:46.62	260.91	51.79	-40.4	-41.6	21.5	0.00e+00	0	39	0	865075200	52	6868
2026-01-02 15:36:47.34	260.54	51.63	-39.8	-40.8	22.2	0.00e+00	60	39	0	866123776	52	6315
2026-01-02 15:36:48.64	259.89	51.33	-39.2	-40.2	22.7	0.00e+00	14	39	0	868220928	52	5830
2026-01-02 15:36:49.36	259.53	51.16	-38.7	-39.6	23.1	0.00e+00	0	39	0	870318080	52	5455
2026-01-02 15:36:50.66	258.90	50.86	-39.2	-40.1	22.6	0.00e+00	75	39	0	872415232	50	6536
2026-01-02 15:36:51.38	258.56	50.69	-39.8	-40.9	22.1	0.00e+00	0	39	0	873463808	50	7107
2026-01-02 15:36:52.68	257.94	50.38	-39.9	-40.9	22.2	0.00e+00	0	39	0	876609536	52	6352
2026-01-02 15:36:53.40	257.61	50.21	-38.8	-39.7	22.9	0.00e+00	0	39	0	877658112	50	6206
2026-01-02 15:36:54.70	257.01	49.90	-39.1	-40.0	22.8	0.00e+00	0	39	0	879755264	50	6437
2026-01-02 15:36:55.42	256.69	49.73	-38.8	-39.8	22.9	0.00e+00	0	39	0	881852416	50	6265
2026-01-02 15:36:56.72	256.12	49.42	-38.9	-39.8	23.0	0.00e+00	0	39	0	883949568	50	6314
2026-01-02 15:36:57.44	255.80	49.25	-39.1	-40.1	22.7	0.00e+00	50	39	0	884998144	50	6514
2026-01-02 15:36:58.74	255.24	48.94	-40.4	-41.5	21.6	0.00e+00	0	39	0	888143872	52	6830
2026-01-02 15:36:59.46	254.94	48.77	-40.9	-42.0	21.1	0.00e+00	92	39	0	889192448	52	7253
2026-01-02 15:37:00.76	254.40	48.46	-40.6	-41.8	21.3	0.00e+00	0	39	0	891289600	54	6286
2026-01-02 15:37:01.48	254.11	48.28	-40.7	-41.9	21.2	0.00e+00	91	39	0	892338176	54	6341
2026-01-02 15:37:02.78	253.58	47.97	-41.0	-42.2	21.0	0.00e+00	9	39	0	895483904	54	6573
2026-01-02 15:37:03.50	253.30	47.80	-40.3	-41.4	21.3	0.00e+00	0	39	0	896532480	54	6024
2026-01-02 15:37:04.79	252.79	47.49	-41.0	-42.2	20.6	0.00e+00	51	39	0	898629632	54	6596
2026-01-02 15:37:05.51	252.52	47.31	-41.8	-43.2	20.1	0.00e+00	0	39	0	900726784	54	7406
2026-01-02 15:37:06.81	252.03	47.00	-43.7	-45.7	17.7	0.00e+00	49	39	0	902823936	60	6932
2026-01-02 15:37:07.53	251.76	46.82	-44.0	-46.1	17.4	0.00e+00	0	39	0	903872512	60	7292
2026-01-02 15:37:08.83	251.28	46.51	-43.4	-45.1	18.6	0.00e+00	0	39	0	907018240	60	6527
2026-01-02 15:37:09.55	251.02	46.34	-43.0	-44.7	19.2	0.00e+00	0	39	0	908066816	60	6202
2026-01-02 15:37:10.85	250.56	46.03	-40.9	-42.1	21.3	0.00e+00	0	39	0	910163968	56	5771
2026-01-02 15:37:11.57	250.31	45.85	-41.2	-42.4	21.1	0.00e+00	0	39	0	912261120	54	6732
2026-01-02 15:37:12.87	249.86	45.54	-40.8	-41.9	21.2	0.00e+00	0	39	0	914358272	54	6381
2026-01-02 15:37:13.59	249.62	45.37	-40.6	-41.8	21.4	0.00e+00	23	39	0	915406848	54	6284
2026-01-02 15:37:14.89	249.18	45.06	-39.6	-40.6	22.3	0.00e+00	33	39	0	917504000	54	5483
2026-01-02 15:37:15.61	248.95	44.88	-39.3	-40.3	22.6	0.00e+00	92	39	0	919601152	52	5916
2026-01-02 15:37:16.91	248.53	44.57	-39.0	-40.0	22.9	0.00e+00	0	39	0	921698304	52	5707
2026-01-02 15:37:17.63	248.30	44.40	-39.0	-39.9	23.0	0.00e+00	0	39	0	922746880	50	6387
2026-01-02 15:37:18.93	247.89	44.09	-39.3	-40.2	22.7	0.00e+00	56	39	0	925892608	50	6607
2026-01-02 15:37:19.65	247.66	43.92	-39.7	-40.8	22.4	0.00e+00	0	39	0	926941184	50	7011
2026-01-02 15:37:20.95	247.27	43.61	-40.2	-41.3	21.8	0.00e+00	70	39	0	929038336	52	6617
2026-01-02 15:37:21.67	247.05	43.44	-40.7	-41.9	21.2	0.00e+00	0	39	0	931135488	52	7143
2026-01-02 15:37:22.96	246.67	43.14	-40.7	-41.8	21.2	0.00e+00	0	39	0	933232640	54	6317
2026-01-02 15:37:23.69	246.46	42.97	-41.1	-42.3	20.5	0.00e+00	0	39	0	934281216	54	6689
2026-01-02 15:37:24.99	246.09	42.66	-42.2	-43.6	19.6	0.00e+00	0	39	0	936378368	56	6911
2026-01-02 15:37:25.71	245.88	42.49	-42.4	-43.9	19.5	0.00e+00	0	39	0	938475520	56	7133
2026-01-02 15:37:27.00	245.52	42.19	-42.3	-43.8	19.4	0.00e+00	0	39	0	940572672	56	7032
2026-01-02 15:37:27.73	245.32	42.02	-41.8	-43.1	20.4	0.00e+00	54	39	0	941621248	56	6535
2026-01-02 15:37:29.02	244.97	41.72	-41.6	-42.9	20.4	0.00e+00	0	39	0	944766976	56	6384
2026-01-02 15:37:29.75	244.78	41.56	-41.9	-43.4	20.0	0.00e+00	92	39	0	945815552	56	6713
2026-01-02 15:37:31.04	244.44	41.26	-41.6	-42.9	20.6	0.00e+00	0	39	0	947912704	56	6371
2026-01-02 15:37:31.76	244.25	41.09	-41.3	-42.6	20.8	0.00e+00	0	39	0	950009856	56	6113
2026-01-02 15:37:33.06	243.92	40.80	-40.7	-41.8	21.4	0.00e+00	56	39	0	952107008	54	6295
2026-01-02 15:37:33.78	243.74	40.63	-40.6	-41.7	21.1	0.00e+00	0	39	0	953155584	54	6245
2026-01-02 15:37:35.08	243.42	40.34	-41.5	-42.8	20.2	0.00e+00	19	39	0	956301312	54	7065
2026-01-02 15:37:35.80	243.24	40.17	-41.3	-42.6	20.5	0.00e+00	0	39	0	957349888	54	6884
2026-01-02 15:37:37.10	242.93	39.88	-42.1	-43.6	19.8	0.00e+00	92	39	0	959447040	56	6891
2026-01-02 15:37:37.82	242.76	39.72	-42.5	-44.1	19.4	0.00e+00	0	39	0	960495616	56	7298
2026-01-02 15:37:39.12	242.45	39.43	-42.9	-44.6	18.8	0.00e+00	33	39	0	963641344	58	6886
2026-01-02 15:37:39.84	242.29	39.27	-43.2	-45.1	18.4	0.00e+00	0	39	0	964689920	58	7262
2026-01-02 15:37:41.14	241.99	38.98	-43.0	-44.7	18.8	0.00e+00	0	39	0	966787072	58	6970
2026-01-02 15:37:41.86	241.83	38.82	-42.3	-43.8	19.5	0.00e+00	0	39	0	968884224	58	6262
2026-01-02 15:37:43.16	241.54	38.53	-42.2	-43.6	19.7	0.00e+00	0	39	0	970981376	58	6147
2026-01-02 15:37:43.88	241.38	38.38	-41.9	-43.2	20.1	0.00e+00	54	39	0	972029952	56	6592
2026-01-02 15:37:45.17	241.10	38.10	-42.3	-43.7	19.6	0.00e+00	0	39	0	975175680	56	6987
2026-01-02 15:37:45.89	240.95	37.94	-41.8	-43.2	20.1	0.00e+00	92	39	0	976224256	56	6570
2026-01-02 15:37:47.19	240.68	37.66	-41.5	-42.8	20.4	0.00e+00	0	39	0	978321408	56	6249
2026-01-02 15:37:47.91	240.53	37.50	-41.5	-42.7	20.0	0.00e+00	0	39	0	979369984	56	6234
2026-01-02 15:37:49.21	240.26	37.22	-41.6	-43.0	20.0	0.00e+00	46	39	0	982515712	56	6397
2026-01-02 15:37:49.93	240.12	37.07	-41.6	-42.9	20.3	0.00e+00	0	39	0	983564288	56	6331
2026-01-02 15:37:51.23	239.86	36.80	-41.5	-42.7	20.6	0.00e+00	92	39	0	985661440	56	6239
2026-01-02 15:37:51.95	239.72	36.64	-41.4	-42.7	20.8	0.00e+00	0	39	0	987758592	56	6185
2026-01-02 15:37:53.25	239.47	36.37	-40.2	-41.3	22.0	0.00e+00	0	39	0	989855744	54	5911
2026-01-02 15:37:53.97	239.33	36.22	-39.9	-40.9	22.1	0.00e+00	0	39	0	990904320	54	5664
2026-01-02 15:37:55.27	239.08	35.95	-40.2	-41.3	21.7	0.00e+00	0	39	0	994050048	52	6657
2026-01-02 15:37:55.99	238.95	35.80	-40.6	-41.7	21.3	0.00e+00	0	39	0	995098624	54	6219
2026-01-02 15:37:57.29	238.71	35.53	-41.6	-42.9	20.4	0.00e+00	0	39	0	997195776	54	7103
2026-01-02 15:37:58.01	238.58	35.38	-41.5	-42.8	20.5	0.00e+00	27	39	0	999292928	56	6293
2026-01-02 15:37:59.30	238.35	35.12	-40.9	-42.1	21.2	0.00e+00	0	39	0	1001390080	56	5786
2026-01-02 15:38:00.03	238.22	34.97	-40.9	-42.1	21.2	0.00e+00	49	39	0	1002438656	56	5789
2026-01-02 15:38:01.32	237.99	34.71	-40.8	-42.0	21.1	0.00e+00	0	39	0	1004535808	54	6427
2026-01-02 15:38:02.05	237.87	34.56	-40.8	-42.0	21.1	0.00e+00	68	39	0	1006632960	54	6398
2026-01-02 15:38:03.34	237.65	34.30	-41.5	-42.8	20.4	0.00e+00	53	39	0	1008730112	54	7040
2026-01-02 15:38:04.07	237.53	34.16	-41.3	-42.6	20.7	0.00e+00	0	39	0	1009778688	54	6911
2026-01-02 15:38:05.36	237.31	33.90	-40.1	-41.2	21.9	0.00e+00	84	39	0	1012924416	54	5890
2026-01-02 15:38:06.08	237.19	33.76	-40.1	-41.2	21.7	0.00e+00	0	39	0	1013972992	54	5875
2026-01-02 15:38:07.38	236.98	33.51	-40.0	-41.1	21.9	0.00e+00	71	39	0	1016070144	54	5812
2026-01-02 15:38:08.10	236.87	33.37	-40.6	-41.7	21.3	0.00e+00	0	39	0	1018167296	54	6236
2026-01-02 15:38:09.40	236.66	33.11	-41.3	-42.6	20.5	0.00e+00	0	39	0	1020264448	54	6891
2026-01-02 15:38:10.12	236.55	32.97	-41.7	-43.1	20.1	0.00e+00	0	39	0	1021313024	54	7289
2026-01-02 15:38:11.42	236.35	32.72	-41.1	-42.4	20.8	0.00e+00	0	39	0	1024458752	56	5984
2026-01-02 15:38:12.14	236.24	32.59	-40.6	-41.8	21.3	0.00e+00	33	39	0	1025507328	56	5572
2026-01-02 15:38:13.44	236.04	32.34	-40.1	-41.1	22.0	0.00e+00	0	39	0	1027604480	54	5827
2026-01-02 15:38:14.16	235.94	32.20	-40.5	-41.6	21.5	0.00e+00	91	39	0	1028653056	54	6131
2026-01-02 15:38:15.46	235.75	31.96	-40.9	-42.2	21.2	0.00e+00	0	39	0	1031798784	54	6556
2026-01-02 15:38:16.18	235.64	31.82	-41.3	-42.6	20.6	0.00e+00	91	39	0	1032847360	54	6899
2026-01-02 15:38:17.48	235.46	31.58	-42.3	-43.9	19.4	0.00e+00	0	39	0	1034944512	56	7099
2026-01-02 15:38:18.20	235.35	31.45	-42.1	-43.6	20.0	0.00e+00	0	39	0	1037041664	56	6856
2026-01-02 15:38:19.49	235.17	31.21	-40.7	-41.9	21.4	0.00e+00	91	39	0	1039138816	56	5640
2026-01-02 15:38:20.21	235.07	31.08	-39.7	-40.7	22.2	0.00e+00	0	39	0	1040187392	54	5556
2026-01-02 15:38:21.51	234.89	30.84	-39.5	-40.5	22.3	0.00e+00	91	39	0	1043333120	52	6089
2026-01-02 15:38:22.23	234.80	30.71	-39.4	-40.4	22.6	0.00e+00	0	39	0	1044381696	52	5975
2026-01-02 15:38:23.53	234.62	30.47	-39.7	-40.7	22.1	0.00e+00	0	39	0	1046478848	52	6181
2026-01-02 15:38:24.25	234.53	30.34	-39.9	-40.9	22.1	0.00e+00	0	39	0	1047527424	52	6347
2026-01-02 15:38:25.55	234.36	30.11	-39.5	-40.5	22.5	0.00e+00	0	39	0	1050673152	52	6081
2026-01-02 15:38:26.27	234.26	29.98	-39.3	-40.2	22.6	0.00e+00	0	39	0	1051721728	52	5883
2026-01-02 15:38:27.56	234.10	29.76	-38.9	-39.8	22.5	0.00e+00	0	39	0	1053818880	52	5604
2026-01-02 15:38:28.28	234.01	29.63	-38.7	-39.6	23.0	0.00e+00	39	39	0	1055916032	50	6118
2026-01-02 15:38:29.58	233.85	29.40	-38.8	-39.7	22.8	0.00e+00	0	39	0	1058013184	50	6230
2026-01-02 15:38:30.30	233.76	29.28	-39.3	-40.3	22.5	0.00e+00	88	39	0	1059061760	50	6674
2026-01-02 15:38:31.60	233.60	29.05	-40.1	-41.2	21.7	0.00e+00	0	39	0	1062207488	52	6603
2026-01-02 15:38:32.32	233.51	28.93	-40.3	-41.5	21.5	0.00e+00	0	39	0	1063256064	52	6783
2026-01-02 15:38:33.62	233.36	28.70	-40.7	-41.9	21.1	0.00e+00	50	39	0	1065353216	54	6378
2026-01-02 15:38:34.34	233.27	28.58	-40.8	-42.0	21.1	0.00e+00	0	39	0	1066401792	54	6427
2026-01-02 15:38:35.64	233.12	28.36	-40.6	-41.8	21.3	0.00e+00	91	39	0	1069547520	54	6305
2026-01-02 15:38:36.36	233.04	28.24	-40.3	-41.5	21.6	0.00e+00	0	39	0	1070596096	54	6040
2026-01-02 15:38:37.66	232.89	28.02	-40.1	-41.2	21.8	0.00e+00	0	39	0	1072693248	54	5876
2026-01-02 15:38:38.38	232.80	27.90	-40.3	-41.4	21.6	0.00e+00	0	39	0	1074790400	54	6030
2026-01-02 15:38:39.68	232.66	27.69	-40.3	-41.5	21.5	0.00e+00	0	39	0	1076887552	54	6053
2026-01-02 15:38:40.40	232.58	27.57	-40.3	-41.5	21.6	0.00e+00	0	39	0	1077936128	54	6050
2026-01-02 15:38:41.70	232.44	27.35	-40.3	-41.5	21.5	0.00e+00	0	39	0	1081081856	54	6049
2026-01-02 15:38:42.42	232.36	27.24	-40.2	-41.4	21.6	0.00e+00	46	39	0	1082130432	54	5991
2026-01-02 15:38:43.72	232.22	27.03	-39.5	-40.5	22.2	0.00e+00	0	39	0	1084227584	52	6096
2026-01-02 15:38:44.44	232.14	26.91	-39.5	-40.5	22.2	0.00e+00	69	39	0	1086324736	52	6077
2026-01-02 15:38:45.73	232.01	26.70	-39.2	-40.1	22.5	0.00e+00	0	39	0	1088421888	52	5811
2026-01-02 15:38:46.46	231.93	26.58	-39.0	-39.9	22.8	0.00e+00	92	39	0	1089470464	52	5692
2026-01-02 15:38:47.75	231.80	26.38	-39.0	-40.0	22.5	0.00e+00	46	39	0	1091567616	52	5730
2026-01-02 15:38:48.47	231.73	26.27	-39.3	-40.3	22.5	0.00e+00	0	39	0	1093664768	52	5910
2026-01-02 15:38:49.77	231.59	26.06	-39.9	-41.0	21.9	0.00e+00	92	39	0	1095761920	52	6450
2026-01-02 15:38:50.49	231.52	25.95	-40.4	-41.6	21.4	0.00e+00	0	39	0	1096810496	52	6856
2026-01-02 15:38:51.79	231.39	25.75	-40.7	-41.9	21.1	0.00e+00	92	39	0	1099956224	52	7163
2026-01-02 15:38:52.51	231.32	25.63	-41.0	-42.3	20.9	0.00e+00	0	39	0	1101004800	54	6661
2026-01-02 15:38:53.81	231.20	25.43	-41.1	-42.3	20.7	0.00e+00	0	39	0	1103101952	54	6691
2026-01-02 15:38:54.53	231.13	25.32	-40.8	-42.1	20.9	0.00e+00	0	39	0	1105199104	54	6483
2026-01-02 15:38:55.83	231.01	25.13	-40.9	-42.2	20.8	0.00e+00	0	39	0	1107296256	54	6547
2026-01-02 15:38:56.55	230.94	25.02	-41.2	-42.5	20.6	0.00e+00	0	39	0	1108344832	54	6789
2026-01-02 15:38:57.85	230.82	24.82	-41.0	-42.3	20.9	0.00e+00	0	39	0	1110441984	54	6641
2026-01-02 15:38:58.57	230.75	24.71	-40.8	-42.1	20.9	0.00e+00	57	39	0	1112539136	54	6476
2026-01-02 15:38:59.87	230.63	24.52	-41.0	-42.2	20.7	0.00e+00	0	39	0	1114636288	54	6612
2026-01-02 15:39:00.59	230.57	24.41	-41.1	-42.3	20.6	0.00e+00	92	39	0	1115684864	54	6659
2026-01-02 15:39:01.89	230.45	24.22	-41.1	-42.3	20.7	0.00e+00	0	39	0	1118830592	54	6669
2026-01-02 15:39:02.61	230.39	24.11	-41.0	-42.2	20.8	0.00e+00	0	39	0	1119879168	54	6576
2026-01-02 15:39:03.91	230.27	23.92	-40.4	-41.5	21.5	0.00e+00	54	39	0	1121976320	54	6095
2026-01-02 15:39:04.63	230.21	23.82	-40.5	-41.6	21.4	0.00e+00	0	39	0	1124073472	54	6144
2026-01-02 15:39:05.92	230.10	23.63	-40.1	-41.1	21.8	0.00e+00	78	39	0	1126170624	54	5820
2026-01-02 15:39:06.64	230.04	23.53	-39.9	-41.0	21.9	0.00e+00	0	39	0	1127219200	54	5717
2026-01-02 15:39:07.94	229.93	23.34	-40.1	-41.1	21.8	0.00e+00	0	39	0	1130364928	54	5813
2026-01-02 15:39:08.66	229.87	23.24	-40.0	-41.0	21.9	0.00e+00	0	39	0	1131413504	54	5736
2026-01-02 15:39:09.96	229.76	23.05	-40.0	-41.0	22.0	0.00e+00	0	39	0	1133510656	52	6436
2026-01-02 15:39:10.68	229.70	22.95	-40.0	-41.0	21.9	0.00e+00	0	39	0	1134559232	52	6453
2026-01-02 15:39:11.98	229.60	22.77	-40.0	-41.1	21.9	0.00e+00	0	39	0	1137704960	52	6499
2026-01-02 15:39:12.70	229.54	22.67	-39.9	-41.0	22.0	0.00e+00	17	39	0	1138753536	52	6395
2026-01-02 15:39:14.00	229.43	22.49	-40.0	-41.0	21.9	0.00e+00	0	39	0	1140850688	52	6429
2026-01-02 15:39:14.72	229.38	22.39	-40.0	-41.1	21.9	0.00e+00	92	39	0	1142947840	52	6492
2026-01-02 15:39:16.02	229.28	22.21	-39.5	-40.5	22.4	0.00e+00	0	39	0	1145044992	52	6048
2026-01-02 15:39:16.74	229.22	22.11	-39.3	-40.3	22.4	0.00e+00	36	39	0	1146093568	52	5901
2026-01-02 15:39:18.04	229.12	21.93	-39.3	-40.3	22.4	0.00e+00	0	39	0	1149239296	52	5897
2026-01-02 15:39:18.76	229.07	21.84	-39.0	-40.0	22.7	0.00e+00	0	39	0	1150287872	52	5699
2026-01-02 15:39:20.06	228.97	21.66	-38.8	-39.8	22.9	0.00e+00	13	39	0	1152385024	52	5582
2026-01-02 15:39:20.78	228.91	21.56	-38.9	-39.9	22.8	0.00e+00	0	39	0	1154482176	52	5641
2026-01-02 15:39:22.08	228.82	21.39	-39.1	-40.1	22.6	0.00e+00	91	39	0	1156579328	52	5780
2026-01-02 15:39:22.80	228.76	21.30	-39.2	-40.2	22.4	0.00e+00	0	39	0	1157627904	52	5843
2026-01-02 15:39:24.09	228.67	21.12	-39.5	-40.5	22.3	0.00e+00	0	39	0	1159725056	52	6079
2026-01-02 15:39:24.81	228.62	21.03	-39.6	-40.7	22.1	0.00e+00	0	39	0	1161822208	52	6184
2026-01-02 15:39:26.11	228.53	20.86	-40.0	-41.1	21.7	0.00e+00	33	39	0	1163919360	52	6516
2026-01-02 15:39:26.83	228.47	20.77	-40.2	-41.4	21.5	0.00e+00	0	39	0	1164967936	52	6719
2026-01-02 15:39:28.13	228.38	20.60	-40.5	-41.7	21.2	0.00e+00	0	39	0	1168113664	52	6977
2026-01-02 15:39:28.85	228.33	20.50	-40.9	-42.2	20.8	0.00e+00	33	39	0	1169162240	54	6589
2026-01-02 15:39:30.15	228.24	20.34	-41.3	-42.6	20.6	0.00e+00	0	39	0	1171259392	54	6886
2026-01-02 15:39:30.87	228.19	20.25	-41.4	-42.8	20.4	0.00e+00	92	39	0	1173356544	54	7017
2026-01-02 15:39:32.17	228.11	20.08	-41.6	-43.0	20.1	0.00e+00	0	39	0	1175453696	54	7245
2026-01-02 15:39:32.89	228.06	19.99	-41.9	-43.4	20.0	0.00e+00	0	39	0	1176502272	54	7518
2026-01-02 15:39:34.19	227.97	19.82	-41.5	-42.8	20.3	0.00e+00	74	39	0	1178599424	56	6283
2026-01-02 15:39:34.91	227.92	19.73	-41.3	-42.6	20.5	0.00e+00	0	39	0	1180696576	56	6155
2026-01-02 15:39:36.21	227.84	19.57	-41.2	-42.5	20.6	0.00e+00	92	39	0	1182793728	56	6065
2026-01-02 15:39:36.93	227.79	19.48	-40.9	-42.1	20.9	0.00e+00	0	39	0	1183842304	56	5827
2026-01-02 15:39:38.23	227.71	19.32	-40.8	-42.0	20.9	0.00e+00	0	39	0	1186988032	54	6462
2026-01-02 15:39:38.95	227.66	19.23	-40.7	-41.9	21.2	0.00e+00	0	39	0	1188036608	54	6356
2026-01-02 15:39:40.24	227.58	19.07	-40.2	-41.4	21.6	0.00e+00	0	39	0	1190133760	54	5966
2026-01-02 15:39:40.97	227.54	18.99	-40.1	-41.2	21.6	0.00e+00	0	39	0	1192230912	54	5894
2026-01-02 15:39:42.27	227.45	18.83	-39.8	-40.8	22.0	0.00e+00	0	39	0	1194328064	54	5598
2026-01-02 15:39:42.99	227.41	18.74	-39.6	-40.6	22.2	0.00e+00	48	39	0	1195376640	52	6173
2026-01-02 15:39:44.28	227.33	18.59	-39.7	-40.7	22.2	0.00e+00	0	39	0	1198522368	52	6219
2026-01-02 15:39:45.01	227.29	18.50	-39.2	-40.1	22.5	0.00e+00	92	39	0	1199570944	52	5816
2026-01-02 15:39:46.30	227.21	18.34	-39.0	-39.9	22.7	0.00e+00	0	39	0	1201668096	52	5674
2026-01-02 15:39:47.02	227.17	18.26	-39.0	-40.0	22.7	0.00e+00	0	39	0	1202716672	52	5702
2026-01-02 15:39:48.32	227.09	18.11	-39.0	-40.0	22.7	0.00e+00	11	39	0	1205862400	52	5703
