passes_logs/2026/01/02/R4.6S_Anadyr/R4.6S_Anadyr__20260102_075436_TY-42_rec.log

#Pass ID: 20260102_075436_TY-42
#Satellite: TY-42
#Configuration: TY-42_900M
#almurnet v.1.7.20251203
#Start time: 2026-01-02 07:55:06

#Version: 2.2.20231116
#Station: R4.6S_Anadyr
#Location: 177.4865 lon 64.73178 lat
#TLE: 1 64048U 25103A   26002.21768519  .00008010  00000-0  38191-3 0 09996
#TLE: 2 64048 097.4116 077.8767 0001783 096.3425 062.0388 15.19169548 34870

#Time	Az	El	Level	Level2	SNR	BER	BlckErr	Temp	State	Recorded	gain1	gain2
2026-01-02 07:55:06.62	115.80	1.80	-49.5	-51.0	5.7	7.64e-01	0	37	0	0	60	43694
2026-01-02 07:55:07.62	115.72	1.86	-46.9	-49.4	6.1	0.00e+00	0	38	104	0	60	36344
2026-01-02 07:55:08.63	115.65	1.92	-46.9	-49.5	6.1	0.00e+00	0	38	104	0	60	36622
2026-01-02 07:55:09.64	115.57	1.99	-46.9	-49.5	6.1	0.00e+00	0	38	104	0	60	36437
2026-01-02 07:55:10.65	115.50	2.05	-46.9	-49.5	6.1	0.00e+00	0	38	104	0	60	36426
2026-01-02 07:55:11.66	115.42	2.12	-46.9	-49.5	6.1	0.00e+00	0	39	104	0	60	36515
2026-01-02 07:55:12.67	115.35	2.18	-46.9	-49.5	6.1	0.00e+00	0	39	104	0	60	36452
2026-01-02 07:55:13.68	115.27	2.25	-46.9	-49.5	6.1	0.00e+00	0	39	104	0	60	36519
2026-01-02 07:55:14.68	115.19	2.31	-46.9	-49.5	6.1	0.00e+00	0	39	104	0	60	36424
2026-01-02 07:55:15.69	115.11	2.38	-46.9	-49.5	6.1	0.00e+00	0	39	104	0	60	36415
2026-01-02 07:55:16.71	115.03	2.44	-46.9	-49.4	6.1	0.00e+00	0	39	104	0	60	36324
2026-01-02 07:55:17.72	114.96	2.51	-46.9	-49.4	6.1	0.00e+00	0	39	104	0	60	36322
2026-01-02 07:55:18.72	114.88	2.58	-46.9	-49.5	6.1	0.00e+00	0	39	104	0	60	36552
2026-01-02 07:55:19.74	114.80	2.64	-46.9	-49.5	6.1	0.00e+00	0	39	104	0	60	36367
2026-01-02 07:55:20.75	114.72	2.71	-46.9	-49.5	6.1	0.00e+00	0	39	104	0	60	36423
2026-01-02 07:55:21.76	114.64	2.77	-46.9	-49.5	6.1	0.00e+00	0	39	104	0	60	36371
2026-01-02 07:55:22.77	114.55	2.84	-46.8	-49.4	6.1	0.00e+00	0	39	104	0	60	36285
2026-01-02 07:55:23.78	114.47	2.91	-46.9	-49.5	6.1	0.00e+00	0	39	104	0	60	36370
2026-01-02 07:55:24.79	114.39	2.97	-46.9	-49.4	6.1	0.00e+00	0	39	104	0	60	36325
2026-01-02 07:55:25.80	114.31	3.04	-46.9	-49.5	6.1	0.00e+00	0	39	104	0	60	36478
2026-01-02 07:55:26.81	114.22	3.11	-46.9	-49.5	6.1	0.00e+00	0	39	104	0	60	36370
2026-01-02 07:55:27.82	114.14	3.18	-46.9	-49.5	6.1	0.00e+00	0	39	104	0	60	36410
2026-01-02 07:55:28.82	114.06	3.24	-46.9	-49.5	6.1	0.00e+00	0	39	104	0	60	36388
2026-01-02 07:55:29.83	113.97	3.31	-46.9	-49.5	6.1	0.00e+00	0	39	104	0	60	36515
2026-01-02 07:55:30.84	113.89	3.38	-46.9	-49.4	6.1	0.00e+00	0	39	104	0	60	36251
2026-01-02 07:55:31.85	113.80	3.45	-46.9	-49.4	6.1	0.00e+00	0	39	104	0	60	36314
2026-01-02 07:55:32.86	113.72	3.51	-46.9	-49.4	6.1	0.00e+00	0	39	104	0	60	36274
2026-01-02 07:55:33.87	113.63	3.58	-46.9	-49.4	6.1	0.00e+00	0	39	104	0	60	36172
2026-01-02 07:55:34.88	113.54	3.65	-46.9	-49.5	6.1	0.00e+00	0	39	104	0	60	36662
2026-01-02 07:55:35.89	113.45	3.72	-48.1	-50.6	6.1	0.00e+00	0	39	104	0	60	41420
2026-01-02 07:55:36.90	113.37	3.79	-46.4	-49.1	6.1	0.00e+00	0	39	104	0	60	34921
2026-01-02 07:55:37.91	113.28	3.86	-47.0	-49.5	6.1	0.00e+00	0	39	104	0	60	36647
2026-01-02 07:55:38.92	113.19	3.93	-47.8	-50.3	6.1	0.00e+00	0	39	104	0	60	40055
2026-01-02 07:55:39.93	113.10	4.00	-47.3	-49.8	6.1	0.00e+00	0	39	104	0	60	37676
2026-01-02 07:55:40.94	113.01	4.07	-46.7	-49.4	6.1	0.00e+00	0	39	104	0	60	36062
2026-01-02 07:55:41.95	112.92	4.14	-46.7	-49.4	6.1	0.00e+00	0	39	104	0	60	36076
2026-01-02 07:55:42.96	112.82	4.21	-46.8	-49.5	6.1	0.00e+00	0	39	104	0	60	36496
2026-01-02 07:55:43.97	112.73	4.28	-47.0	-49.7	6.1	0.00e+00	0	39	104	0	60	37266
2026-01-02 07:55:44.98	112.64	4.35	-47.9	-50.4	6.1	0.00e+00	0	39	104	0	60	40492
2026-01-02 07:55:45.98	112.55	4.42	-47.6	-50.1	6.1	0.00e+00	0	39	104	0	60	39019
2026-01-02 07:55:47.00	112.45	4.49	-48.1	-50.6	6.1	0.00e+00	0	39	104	0	60	41497
2026-01-02 07:55:48.01	112.36	4.56	-47.9	-50.4	6.1	0.00e+00	0	39	104	0	60	40582
2026-01-02 07:55:49.02	112.26	4.63	-47.3	-49.8	6.1	0.00e+00	0	39	104	0	60	37990
2026-01-02 07:55:50.03	112.17	4.70	-47.9	-50.4	6.1	0.00e+00	0	40	104	0	60	40523
2026-01-02 07:55:51.04	112.07	4.77	-47.9	-50.4	6.1	0.00e+00	0	40	104	0	60	40539
2026-01-02 07:55:52.05	111.97	4.84	-47.9	-50.4	6.1	0.00e+00	0	39	104	0	60	40529
2026-01-02 07:55:53.06	111.88	4.91	-47.9	-50.4	6.1	0.00e+00	0	39	104	0	60	40496
2026-01-02 07:55:54.07	111.78	4.99	-48.0	-50.5	6.1	0.00e+00	0	40	104	0	60	40797
2026-01-02 07:55:55.08	111.68	5.06	-47.9	-50.4	6.1	0.00e+00	0	39	104	0	60	40465
2026-01-02 07:55:56.09	111.58	5.13	-47.9	-50.4	6.1	0.00e+00	0	40	104	0	60	40617
2026-01-02 07:55:57.10	111.48	5.20	-48.1	-50.6	6.1	0.00e+00	0	40	104	0	60	41665
2026-01-02 07:55:58.11	111.38	5.28	-47.9	-50.4	6.1	0.00e+00	0	40	104	0	60	40579
2026-01-02 07:55:59.12	111.28	5.35	-48.1	-50.5	6.1	0.00e+00	0	40	104	0	60	41236
2026-01-02 07:56:00.13	111.17	5.42	-48.0	-50.4	6.1	0.00e+00	0	40	104	0	60	40729
2026-01-02 07:56:01.14	111.07	5.50	-48.2	-50.7	6.1	0.00e+00	0	40	104	0	60	42107
2026-01-02 07:56:02.15	110.97	5.57	-48.1	-50.6	6.1	0.00e+00	0	40	104	0	60	41320
2026-01-02 07:56:03.16	110.86	5.64	-47.5	-49.7	6.1	0.00e+00	0	40	104	0	60	37522
2026-01-02 07:56:04.17	110.76	5.72	-30.1	-30.4	12.4	0.00e+00	5502	40	104	0	36	16189
2026-01-02 07:56:05.18	110.65	5.79	-32.0	-32.5	15.1	3.78e-02	0	40	0	41943040	38	18341
2026-01-02 07:56:06.19	110.55	5.87	-45.4	-46.8	6.5	1.04e-02	0	40	104	100663296	60	26714
2026-01-02 07:56:07.20	110.44	5.94	-29.5	-29.8	12.6	0.00e+00	5470	40	104	100663296	34	16841
2026-01-02 07:56:08.21	110.33	6.01	-28.5	-29.0	15.7	0.00e+00	0	40	0	184549376	32	17363
2026-01-02 07:56:09.22	110.23	6.09	-28.3	-28.9	15.7	3.27e-02	0	40	0	293601280	32	17071
2026-01-02 07:56:10.23	110.12	6.16	-28.2	-28.8	15.7	3.27e-02	0	40	0	411041792	32	16831
2026-01-02 07:56:11.24	110.01	6.24	-27.9	-28.4	15.9	8.01e-04	0	40	0	528482304	32	16200
2026-01-02 07:56:12.26	109.90	6.32	-27.9	-28.5	15.9	8.01e-04	0	40	0	637534208	32	16242
2026-01-02 07:56:13.27	109.78	6.39	-27.8	-28.4	15.9	5.12e-04	0	40	0	754974720	32	16170
2026-01-02 07:56:14.28	109.67	6.47	-27.8	-28.4	15.9	5.12e-04	0	40	0	864026624	32	16138
2026-01-02 07:56:15.29	109.56	6.54	-27.8	-28.4	15.9	5.12e-04	0	40	0	981467136	30	18117
2026-01-02 07:56:16.30	109.45	6.62	-27.8	-28.3	15.9	5.12e-04	0	40	0	1098907648	30	17956
2026-01-02 07:56:17.31	109.33	6.70	-27.8	-28.3	16.0	3.87e-04	0	40	0	1207959552	30	18001
2026-01-02 07:56:18.32	109.22	6.77	-27.6	-28.1	16.0	3.87e-04	0	40	0	1317011456	30	17600
2026-01-02 07:56:19.33	109.10	6.85	-27.6	-28.2	16.1	3.11e-04	0	40	0	1434451968	30	17688
2026-01-02 07:56:20.34	108.98	6.93	-27.6	-28.2	16.1	3.11e-04	0	41	0	1551892480	30	17647
2026-01-02 07:56:21.35	108.87	7.01	-27.5	-28.1	16.1	2.89e-04	0	40	0	1660944384	30	17520
2026-01-02 07:56:22.36	108.75	7.08	-27.7	-28.3	16.0	2.89e-04	0	41	0	1778384896	30	17871
2026-01-02 07:56:23.37	108.63	7.16	-27.6	-28.2	16.0	2.89e-04	0	40	0	1887436800	30	17650
2026-01-02 07:56:24.38	108.51	7.24	-27.6	-28.1	16.0	2.56e-04	0	40	0	2004877312	30	17506
2026-01-02 07:56:25.39	108.39	7.32	-27.4	-28.0	16.0	2.56e-04	0	40	0	2122317824	30	17284
2026-01-02 07:56:26.40	108.27	7.40	-27.3	-27.9	16.1	2.56e-04	0	41	0	2231369728	30	17024
2026-01-02 07:56:27.41	108.15	7.47	-27.3	-27.9	16.2	2.51e-04	0	41	0	2340421632	30	17088
2026-01-02 07:56:28.42	108.02	7.55	-27.4	-28.0	16.1	2.51e-04	0	40	0	2457862144	30	17239
2026-01-02 07:56:29.43	107.90	7.63	-27.2	-27.7	16.3	1.58e-04	0	41	0	2575302656	30	16789
2026-01-02 07:56:30.44	107.77	7.71	-27.1	-27.7	16.3	1.58e-04	0	41	0	2684354560	30	16647
2026-01-02 07:56:31.45	107.65	7.79	-27.4	-27.9	16.2	1.58e-04	0	41	0	2801795072	30	17118
2026-01-02 07:56:32.47	107.52	7.87	-27.0	-27.5	16.3	5.99e-05	0	41	0	2910846976	30	16374
2026-01-02 07:56:33.48	107.39	7.95	-27.1	-27.6	16.2	5.99e-05	0	41	0	3028287488	30	16601
2026-01-02 07:56:34.48	107.27	8.03	-27.2	-27.8	16.2	1.36e-04	0	41	0	3145728000	30	16844
2026-01-02 07:56:35.49	107.14	8.11	-27.0	-27.6	16.3	1.36e-04	0	41	0	3254779904	30	16488
2026-01-02 07:56:36.51	107.01	8.19	-27.1	-27.7	16.4	1.14e-04	0	41	0	3363831808	30	16668
2026-01-02 07:56:37.52	106.87	8.28	-26.9	-27.5	16.5	1.14e-04	0	41	0	3481272320	30	16268
2026-01-02 07:56:38.53	106.74	8.36	-26.8	-27.3	16.5	7.62e-05	0	41	0	3590324224	30	16038
2026-01-02 07:56:39.54	106.61	8.44	-26.8	-27.3	16.5	7.62e-05	0	41	0	3707764736	28	17886
2026-01-02 07:56:40.55	106.48	8.52	-26.7	-27.2	16.5	7.62e-05	0	41	0	3825205248	28	17785
2026-01-02 07:56:41.56	106.34	8.60	-26.6	-27.1	16.5	4.35e-05	0	41	0	3934257152	28	17587
2026-01-02 07:56:42.57	106.21	8.68	-26.6	-27.1	16.5	4.35e-05	0	41	0	4051697664	28	17521
2026-01-02 07:56:43.58	106.07	8.77	-26.6	-27.1	16.5	3.26e-05	0	41	0	4169138176	28	17501
2026-01-02 07:56:44.59	105.93	8.85	-26.4	-27.0	16.6	3.26e-05	0	41	0	4278190080	28	17238
2026-01-02 07:56:45.60	105.79	8.93	-26.5	-27.0	16.6	1.63e-05	0	41	0	4395630592	28	17300
2026-01-02 07:56:46.61	105.65	9.01	-26.3	-26.8	16.6	1.63e-05	0	41	0	4504682496	28	16944
2026-01-02 07:56:47.62	105.51	9.10	-26.2	-26.7	16.6	2.72e-05	0	41	0	4613734400	28	16803
2026-01-02 07:56:48.63	105.37	9.18	-26.2	-26.8	16.5	2.72e-05	0	41	0	4731174912	28	16866
2026-01-02 07:56:49.64	105.23	9.26	-26.3	-26.8	16.5	2.72e-05	0	41	0	4848615424	28	16952
2026-01-02 07:56:50.65	105.08	9.35	-26.3	-26.8	16.5	3.26e-05	0	41	0	4957667328	28	17002
2026-01-02 07:56:51.66	104.94	9.43	-26.2	-26.8	16.6	3.26e-05	0	41	0	5075107840	28	16814
2026-01-02 07:56:52.67	104.79	9.52	-26.0	-26.6	16.7	4.35e-05	0	41	0	5184159744	28	16448
2026-01-02 07:56:53.68	104.65	9.60	-26.1	-26.6	16.7	4.35e-05	0	41	0	5293211648	28	16569
2026-01-02 07:56:54.69	104.50	9.69	-26.1	-26.6	16.7	4.35e-05	0	41	0	5419040768	28	16514
2026-01-02 07:56:55.70	104.35	9.77	-26.0	-26.5	16.7	3.26e-05	0	41	0	5528092672	28	16336
2026-01-02 07:56:56.71	104.20	9.86	-26.0	-26.6	16.7	3.26e-05	0	41	0	5637144576	28	16428
2026-01-02 07:56:57.72	104.05	9.94	-26.0	-26.5	16.7	1.63e-05	0	41	0	5754585088	28	16354
2026-01-02 07:56:58.73	103.90	10.03	-26.1	-26.6	16.8	1.63e-05	0	41	0	5863636992	28	16446
2026-01-02 07:56:59.74	103.74	10.11	-25.8	-26.3	16.8	3.26e-05	0	41	0	5981077504	28	16009
2026-01-02 07:57:00.75	103.59	10.20	-26.0	-26.5	16.8	3.26e-05	0	41	0	6098518016	28	16258
2026-01-02 07:57:01.76	103.43	10.29	-25.8	-26.3	16.8	3.26e-05	0	41	0	6207569920	28	16011
2026-01-02 07:57:02.77	103.28	10.37	-25.8	-26.3	16.8	1.08e-05	0	41	0	6325010432	28	15971
2026-01-02 07:57:03.78	103.12	10.46	-25.8	-26.3	16.9	1.08e-05	0	41	0	6434062336	26	17818
2026-01-02 07:57:04.79	102.96	10.55	-25.9	-26.4	16.8	1.08e-05	0	41	0	6551502848	26	18062
2026-01-02 07:57:05.80	102.80	10.63	-25.8	-26.3	16.8	1.08e-05	0	41	0	6660554752	26	17977
2026-01-02 07:57:06.81	102.64	10.72	-25.9	-26.4	16.8	1.08e-05	0	41	0	6777995264	26	18159
2026-01-02 07:57:07.82	102.48	10.81	-25.8	-26.3	16.8	1.08e-05	0	41	0	6887047168	26	17909
2026-01-02 07:57:08.83	102.31	10.90	-25.8	-26.3	16.8	1.08e-05	0	41	0	7004487680	26	17911
2026-01-02 07:57:09.84	102.15	10.98	-25.8	-26.2	16.9	2.17e-05	0	41	0	7121928192	26	17791
2026-01-02 07:57:10.85	101.98	11.07	-25.8	-26.3	16.9	2.17e-05	0	41	0	7230980096	26	17809
2026-01-02 07:57:11.86	101.81	11.16	-25.8	-26.3	17.0	1.08e-05	0	41	0	7348420608	26	17866
2026-01-02 07:57:12.87	101.65	11.25	-25.7	-26.2	17.0	1.08e-05	0	41	0	7457472512	26	17732
2026-01-02 07:57:13.88	101.48	11.34	-25.6	-26.1	17.0	1.08e-05	0	41	0	7566524416	26	17549
2026-01-02 07:57:14.89	101.30	11.43	-25.8	-26.2	17.0	1.08e-05	0	41	0	7683964928	26	17783
2026-01-02 07:57:15.90	101.13	11.52	-25.7	-26.2	17.0	0.00e+00	0	41	0	7801405440	26	17695
2026-01-02 07:57:16.91	100.96	11.61	-25.5	-26.0	17.1	0.00e+00	0	42	0	7910457344	26	17323
2026-01-02 07:57:17.92	100.78	11.70	-25.5	-26.0	17.1	0.00e+00	0	41	0	8027897856	26	17363
2026-01-02 07:57:18.93	100.61	11.79	-25.5	-26.0	17.1	0.00e+00	0	41	0	8136949760	26	17264
2026-01-02 07:57:19.94	100.43	11.88	-25.4	-25.9	17.0	0.00e+00	0	41	0	8254390272	26	17104
2026-01-02 07:57:20.95	100.25	11.97	-25.6	-26.1	17.0	5.40e-06	0	41	0	8371830784	26	17518
2026-01-02 07:57:21.96	100.07	12.06	-25.5	-25.9	17.0	5.40e-06	0	41	0	8480882688	26	17193
2026-01-02 07:57:22.97	99.89	12.15	-25.3	-25.8	17.0	5.40e-06	0	41	0	8589934592	26	16935
2026-01-02 07:57:23.98	99.70	12.24	-25.3	-25.7	17.2	5.40e-06	0	41	0	8715763712	26	16757
2026-01-02 07:57:24.99	99.52	12.33	-25.3	-25.7	17.2	5.40e-06	0	41	0	8824815616	26	16785
2026-01-02 07:57:26.00	99.33	12.42	-25.2	-25.6	17.2	0.00e+00	0	41	0	8933867520	26	16605
2026-01-02 07:57:27.01	99.15	12.51	-25.2	-25.7	17.2	0.00e+00	0	41	0	9051308032	26	16645
2026-01-02 07:57:28.02	98.96	12.61	-25.2	-25.7	17.2	0.00e+00	0	41	0	9160359936	26	16731
2026-01-02 07:57:29.03	98.77	12.70	-25.0	-25.5	17.2	0.00e+00	0	41	0	9277800448	26	16328
2026-01-02 07:57:30.04	98.58	12.79	-25.1	-25.6	17.1	0.00e+00	0	41	0	9395240960	26	16428
2026-01-02 07:57:31.06	98.38	12.88	-25.1	-25.6	17.1	0.00e+00	0	41	0	9504292864	26	16544
2026-01-02 07:57:32.07	98.19	12.98	-25.0	-25.5	17.1	5.40e-06	0	41	0	9613344768	26	16297
2026-01-02 07:57:33.07	97.99	13.07	-24.8	-25.3	17.2	5.40e-06	0	41	0	9730785280	26	16008
2026-01-02 07:57:34.09	97.79	13.16	-24.9	-25.4	17.2	5.40e-06	0	41	0	9848225792	26	16089
2026-01-02 07:57:35.09	97.59	13.25	-24.8	-25.3	17.2	5.40e-06	0	41	0	9957277696	26	15946
2026-01-02 07:57:36.10	97.39	13.35	-24.9	-25.3	17.2	5.40e-06	0	42	0	10074718208	26	16040
2026-01-02 07:57:37.12	97.19	13.44	-24.7	-25.2	17.3	0.00e+00	0	41	0	10183770112	24	17673
2026-01-02 07:57:38.13	96.99	13.53	-24.9	-25.4	17.2	0.00e+00	0	41	0	10301210624	24	18097
2026-01-02 07:57:39.14	96.78	13.63	-24.6	-25.1	17.2	0.00e+00	0	42	0	10418651136	24	17472
2026-01-02 07:57:40.15	96.57	13.72	-24.6	-25.1	17.2	0.00e+00	0	42	0	10527703040	24	17494
2026-01-02 07:57:41.16	96.37	13.82	-24.6	-25.1	17.2	0.00e+00	0	42	0	10645143552	24	17478
2026-01-02 07:57:42.17	96.16	13.91	-24.5	-25.0	17.2	0.00e+00	0	42	0	10754195456	24	17230
2026-01-02 07:57:43.18	95.94	14.00	-24.5	-25.0	17.2	0.00e+00	0	42	0	10863247360	24	17357
2026-01-02 07:57:44.19	95.73	14.10	-24.5	-25.0	17.2	0.00e+00	0	42	0	10980687872	24	17360
2026-01-02 07:57:45.20	95.52	14.19	-24.5	-25.0	17.3	0.00e+00	0	42	0	11098128384	24	17275
2026-01-02 07:57:46.21	95.30	14.29	-24.4	-24.9	17.2	0.00e+00	0	42	0	11207180288	24	17124
2026-01-02 07:57:47.22	95.08	14.38	-24.5	-25.0	17.2	0.00e+00	0	42	0	11324620800	24	17246
2026-01-02 07:57:48.23	94.86	14.48	-24.3	-24.8	17.2	0.00e+00	0	42	0	11442061312	24	16856
2026-01-02 07:57:49.24	94.64	14.57	-24.4	-24.9	17.2	0.00e+00	0	41	0	11551113216	24	17142
2026-01-02 07:57:50.25	94.42	14.67	-24.3	-24.8	17.3	0.00e+00	0	42	0	11668553728	24	16923
2026-01-02 07:57:51.26	94.19	14.76	-24.4	-24.8	17.2	0.00e+00	0	41	0	11777605632	24	16976
2026-01-02 07:57:52.27	93.97	14.86	-24.5	-25.0	17.2	0.00e+00	0	42	0	11886657536	24	17223
2026-01-02 07:57:53.28	93.74	14.95	-24.4	-24.9	17.0	0.00e+00	0	42	0	12004098048	24	17121
2026-01-02 07:57:54.29	93.51	15.05	-24.2	-24.6	17.0	0.00e+00	0	42	0	12121538560	24	16600
2026-01-02 07:57:55.30	93.28	15.14	-24.1	-24.6	17.1	0.00e+00	0	42	0	12230590464	24	16561
2026-01-02 07:57:56.31	93.04	15.24	-24.0	-24.5	17.2	0.00e+00	0	42	0	12348030976	24	16351
2026-01-02 07:57:57.32	92.81	15.33	-24.0	-24.4	17.3	0.00e+00	0	42	0	12457082880	24	16209
2026-01-02 07:57:58.33	92.57	15.43	-23.9	-24.4	17.3	0.00e+00	0	42	0	12574523392	24	16155
2026-01-02 07:57:59.34	92.33	15.53	-24.0	-24.5	17.2	0.00e+00	0	42	0	12691963904	24	16354
2026-01-02 07:58:00.35	92.09	15.62	-23.9	-24.4	17.3	0.00e+00	0	42	0	12801015808	24	16065
2026-01-02 07:58:01.36	91.85	15.72	-23.8	-24.3	17.3	0.00e+00	0	42	0	12910067712	24	15958
2026-01-02 07:58:02.37	91.60	15.81	-23.8	-24.3	17.2	0.00e+00	0	42	0	13027508224	24	15989
2026-01-02 07:58:03.38	91.36	15.91	-23.7	-24.2	17.2	0.00e+00	0	42	0	13144948736	22	17717
2026-01-02 07:58:04.39	91.11	16.01	-23.6	-24.1	17.2	0.00e+00	0	42	0	13254000640	22	17519
2026-01-02 07:58:05.40	90.86	16.10	-23.7	-24.1	17.2	0.00e+00	0	42	0	13371441152	22	17576
2026-01-02 07:58:06.41	90.61	16.20	-23.7	-24.2	17.3	0.00e+00	0	42	0	13480493056	22	17616
2026-01-02 07:58:07.42	90.35	16.29	-23.6	-24.0	17.3	0.00e+00	0	42	0	13597933568	22	17357
2026-01-02 07:58:08.42	90.10	16.39	-23.6	-24.0	17.3	0.00e+00	0	42	0	13706985472	22	17387
2026-01-02 07:58:09.43	89.84	16.48	-23.3	-23.8	17.3	0.00e+00	0	42	0	13824425984	22	16952
2026-01-02 07:58:10.44	89.58	16.58	-23.5	-24.0	17.3	0.00e+00	0	42	0	13933477888	22	17225
2026-01-02 07:58:11.45	89.32	16.67	-23.4	-23.8	17.3	0.00e+00	0	42	0	14050918400	22	16955
2026-01-02 07:58:12.46	89.06	16.77	-23.5	-24.0	17.3	0.00e+00	0	42	0	14159970304	22	17216
2026-01-02 07:58:13.47	88.79	16.87	-23.3	-23.8	17.3	0.00e+00	0	42	0	14277410816	22	16904
2026-01-02 07:58:14.48	88.52	16.96	-23.2	-23.6	17.4	0.00e+00	0	42	0	14386462720	22	16612
2026-01-02 07:58:15.49	88.25	17.06	-23.2	-23.6	17.4	0.00e+00	0	42	0	14503903232	22	16602
2026-01-02 07:58:16.50	87.98	17.15	-23.1	-23.6	17.4	0.00e+00	0	42	0	14621343744	22	16490
2026-01-02 07:58:17.51	87.71	17.25	-23.2	-23.7	17.4	0.00e+00	0	42	0	14730395648	22	16634
2026-01-02 07:58:18.52	87.43	17.34	-23.1	-23.6	17.3	0.00e+00	0	42	0	14839447552	22	16489
2026-01-02 07:58:19.53	87.16	17.44	-23.1	-23.5	17.3	0.00e+00	0	42	0	14956888064	22	16343
2026-01-02 07:58:20.54	86.88	17.53	-23.0	-23.5	17.4	0.00e+00	0	42	0	15074328576	22	16279
2026-01-02 07:58:21.55	86.60	17.63	-23.1	-23.5	17.4	0.00e+00	0	42	0	15183380480	22	16402
2026-01-02 07:58:22.56	86.31	17.72	-23.0	-23.5	17.4	0.00e+00	0	42	0	15300820992	22	16297
2026-01-02 07:58:23.57	86.03	17.81	-22.9	-23.4	17.4	0.00e+00	0	42	0	15409872896	22	16127
2026-01-02 07:58:24.58	85.74	17.91	-22.9	-23.4	17.4	0.00e+00	0	42	0	15527313408	22	16106
2026-01-02 07:58:25.59	85.45	18.00	-22.9	-23.4	17.3	0.00e+00	0	42	0	15644753920	22	16113
2026-01-02 07:58:26.59	85.16	18.09	-23.0	-23.4	17.4	0.00e+00	0	42	0	15753805824	22	16130
2026-01-02 07:58:27.60	84.87	18.19	-23.0	-23.4	17.4	0.00e+00	0	42	0	15862857728	22	16187
2026-01-02 07:58:28.61	84.57	18.28	-22.9	-23.3	17.4	0.00e+00	0	42	0	15980298240	22	15979
2026-01-02 07:58:29.62	84.27	18.37	-23.0	-23.4	17.2	0.00e+00	0	42	0	16089350144	22	16234
2026-01-02 07:58:30.63	83.97	18.47	-22.9	-23.3	17.2	0.00e+00	0	42	0	16206790656	22	15998
2026-01-02 07:58:31.64	83.67	18.56	-22.7	-23.2	17.3	0.00e+00	0	42	0	16324231168	22	15741
2026-01-02 07:58:32.65	83.36	18.65	-22.8	-23.2	17.3	0.00e+00	0	42	0	16433283072	20	17785
2026-01-02 07:58:33.66	83.06	18.74	-22.7	-23.1	17.3	0.00e+00	0	42	0	16550723584	20	17526
2026-01-02 07:58:34.67	82.75	18.83	-22.8	-23.3	17.3	0.00e+00	0	42	0	16659775488	20	17820
2026-01-02 07:58:35.68	82.44	18.92	-22.7	-23.1	17.4	0.00e+00	0	42	0	16777216000	20	17529
2026-01-02 07:58:36.69	82.12	19.01	-22.7	-23.2	17.4	0.00e+00	0	42	0	16886267904	20	17644
2026-01-02 07:58:37.70	81.81	19.11	-22.6	-23.0	17.4	0.00e+00	0	42	0	17003708416	20	17287
2026-01-02 07:58:38.71	81.49	19.19	-22.7	-23.1	17.4	0.00e+00	0	42	0	17112760320	20	17484
2026-01-02 07:58:39.72	81.17	19.28	-22.6	-23.0	17.4	0.00e+00	0	42	0	17230200832	20	17373
2026-01-02 07:58:40.73	80.85	19.37	-22.6	-23.0	17.4	0.00e+00	0	42	0	17347641344	20	17339
2026-01-02 07:58:41.74	80.53	19.46	-22.6	-23.0	17.4	0.00e+00	0	42	0	17456693248	20	17267
2026-01-02 07:58:42.75	80.20	19.55	-22.6	-23.0	17.5	0.00e+00	0	42	0	17574133760	20	17315
2026-01-02 07:58:43.77	79.87	19.64	-22.6	-23.0	17.4	0.00e+00	0	42	0	17683185664	20	17378
2026-01-02 07:58:44.77	79.54	19.72	-22.5	-22.9	17.3	0.00e+00	0	42	0	17792237568	20	17096
2026-01-02 07:58:45.78	79.21	19.81	-22.4	-22.9	17.3	0.00e+00	0	42	0	17918066688	20	17015
2026-01-02 07:58:46.79	78.88	19.90	-22.3	-22.8	17.3	0.00e+00	0	42	0	18027118592	20	16854
2026-01-02 07:58:47.80	78.54	19.98	-22.6	-23.0	17.3	0.00e+00	0	42	0	18136170496	20	17375
2026-01-02 07:58:48.81	78.20	20.07	-22.3	-22.7	17.4	0.00e+00	0	42	0	18253611008	20	16733
2026-01-02 07:58:49.82	77.86	20.15	-22.4	-22.8	17.4	0.00e+00	0	42	0	18362662912	20	17000
2026-01-02 07:58:50.83	77.52	20.23	-22.4	-22.8	17.4	0.00e+00	0	42	0	18480103424	20	16902
2026-01-02 07:58:51.84	77.17	20.32	-22.2	-22.7	17.4	0.00e+00	0	42	0	18597543936	20	16703
2026-01-02 07:58:52.85	76.82	20.40	-22.3	-22.7	17.4	0.00e+00	0	42	0	18706595840	20	16800
2026-01-02 07:58:53.85	76.48	20.48	-22.3	-22.8	17.4	0.00e+00	0	42	0	18824036352	20	16862
2026-01-02 07:58:54.86	76.13	20.56	-22.2	-22.6	17.4	0.00e+00	0	42	0	18933088256	20	16583
2026-01-02 07:58:55.87	75.77	20.64	-22.1	-22.6	17.4	0.00e+00	0	42	0	19042140160	20	16469
2026-01-02 07:58:56.88	75.42	20.72	-22.1	-22.5	17.5	0.00e+00	0	42	0	19159580672	20	16400
2026-01-02 07:58:57.89	75.06	20.80	-22.1	-22.5	17.4	0.00e+00	0	42	0	19277021184	20	16348
2026-01-02 07:58:58.89	74.70	20.88	-22.0	-22.4	17.4	0.00e+00	0	42	0	19386073088	20	16224
2026-01-02 07:58:59.90	74.34	20.96	-21.9	-22.4	17.4	0.00e+00	0	42	0	19503513600	20	16101
2026-01-02 07:59:00.91	73.98	21.03	-21.9	-22.4	17.3	0.00e+00	0	42	0	19612565504	20	16056
2026-01-02 07:59:01.92	73.61	21.11	-21.9	-22.3	17.1	0.00e+00	0	42	0	19721617408	20	15974
2026-01-02 07:59:02.93	73.24	21.18	-22.1	-22.5	17.1	0.00e+00	0	42	0	19847446528	20	16328
2026-01-02 07:59:03.94	72.87	21.26	-21.9	-22.4	17.1	0.00e+00	0	42	0	19956498432	20	16087
2026-01-02 07:59:04.95	72.50	21.33	-21.9	-22.3	17.1	0.00e+00	0	42	0	20065550336	20	16022
2026-01-02 07:59:05.96	72.13	21.40	-21.9	-22.4	17.2	0.00e+00	0	42	0	20182990848	20	16063
2026-01-02 07:59:06.97	71.75	21.47	-21.7	-22.2	17.3	0.00e+00	0	42	0	20292042752	20	15717
2026-01-02 07:59:07.98	71.37	21.54	-21.8	-22.3	17.3	0.00e+00	0	42	0	20409483264	18	17865
2026-01-02 07:59:08.99	70.99	21.61	-21.8	-22.2	17.3	0.00e+00	0	42	0	20526923776	18	17757
2026-01-02 07:59:10.00	70.61	21.68	-21.8	-22.3	17.3	0.00e+00	0	42	0	20635975680	18	17844
2026-01-02 07:59:11.01	70.23	21.75	-21.6	-22.0	17.3	0.00e+00	0	42	0	20745027584	18	17377
2026-01-02 07:59:12.02	69.84	21.82	-21.8	-22.2	17.3	0.00e+00	0	42	0	20862468096	18	17702
2026-01-02 07:59:13.03	69.45	21.88	-22.0	-22.4	17.2	0.00e+00	0	42	0	20971520000	18	18133
2026-01-02 07:59:14.04	69.06	21.94	-21.7	-22.1	17.1	0.00e+00	0	42	0	21088960512	18	17550
2026-01-02 07:59:15.04	68.68	22.01	-21.7	-22.1	17.0	0.00e+00	0	42	0	21206401024	18	17585
2026-01-02 07:59:16.05	68.28	22.07	-21.6	-22.0	17.2	0.00e+00	0	42	0	21315452928	18	17290
2026-01-02 07:59:17.06	67.89	22.13	-21.7	-22.1	17.3	0.00e+00	0	42	0	21432893440	18	17523
2026-01-02 07:59:18.07	67.49	22.19	-21.6	-22.0	17.3	0.00e+00	0	42	0	21541945344	18	17381
2026-01-02 07:59:19.08	67.09	22.25	-21.7	-22.1	17.2	0.00e+00	0	42	0	21659385856	18	17556
2026-01-02 07:59:20.09	66.69	22.31	-21.7	-22.2	17.1	0.00e+00	0	42	0	21776826368	18	17643
2026-01-02 07:59:21.10	66.29	22.36	-21.7	-22.1	17.2	0.00e+00	0	42	0	21885878272	18	17513
2026-01-02 07:59:22.11	65.89	22.42	-21.6	-22.1	17.1	0.00e+00	0	42	0	21994930176	18	17456
2026-01-02 07:59:23.12	65.49	22.47	-21.6	-22.0	16.9	0.00e+00	0	42	0	22112370688	18	17287
2026-01-02 07:59:24.13	65.08	22.52	-21.6	-22.1	16.9	0.00e+00	0	42	0	22221422592	18	17452
2026-01-02 07:59:25.14	64.67	22.58	-21.6	-22.1	16.9	0.00e+00	0	42	0	22338863104	18	17455
2026-01-02 07:59:26.15	64.26	22.63	-21.6	-22.0	16.9	0.00e+00	0	42	0	22456303616	18	17268
2026-01-02 07:59:27.16	63.85	22.67	-21.5	-21.9	17.1	0.00e+00	0	42	0	22565355520	18	17124
2026-01-02 07:59:28.17	63.44	22.72	-21.6	-22.0	17.1	0.00e+00	0	42	0	22682796032	18	17321
2026-01-02 07:59:29.17	63.03	22.77	-21.5	-21.9	17.1	0.00e+00	0	42	0	22791847936	18	17165
2026-01-02 07:59:30.19	62.61	22.81	-21.4	-21.9	17.1	0.00e+00	0	42	0	22909288448	18	17008
2026-01-02 07:59:31.19	62.20	22.86	-21.5	-21.9	17.1	0.00e+00	0	42	0	23018340352	18	17170
2026-01-02 07:59:32.20	61.78	22.90	-21.4	-21.8	17.1	0.00e+00	0	42	0	23135780864	18	16985
2026-01-02 07:59:33.21	61.36	22.94	-21.5	-21.9	17.1	0.00e+00	0	42	0	23244832768	18	17116
2026-01-02 07:59:34.22	60.94	22.98	-21.5	-21.9	17.0	0.00e+00	0	42	0	23362273280	18	17157
2026-01-02 07:59:35.23	60.52	23.02	-21.5	-21.9	17.1	0.00e+00	0	42	0	23479713792	18	17182
2026-01-02 07:59:36.24	60.10	23.05	-21.5	-21.9	16.9	0.00e+00	0	42	0	23588765696	18	17074
2026-01-02 07:59:37.25	59.68	23.09	-21.6	-22.0	16.9	0.00e+00	0	42	0	23706206208	18	17285
2026-01-02 07:59:38.25	59.26	23.12	-21.5	-22.0	16.9	0.00e+00	0	42	0	23815258112	18	17239
2026-01-02 07:59:39.26	58.83	23.15	-21.6	-22.0	16.9	0.00e+00	0	42	0	23924310016	18	17383
2026-01-02 07:59:40.28	58.40	23.18	-21.6	-22.0	16.7	0.00e+00	0	42	0	24041750528	18	17303
2026-01-02 07:59:41.29	57.98	23.21	-21.7	-22.1	16.5	0.00e+00	0	42	0	24159191040	18	17446
2026-01-02 07:59:42.29	57.55	23.24	-21.6	-22.0	16.6	0.00e+00	0	42	0	24268242944	18	17356
2026-01-02 07:59:43.31	57.12	23.26	-21.6	-22.0	16.8	0.00e+00	0	42	0	24385683456	18	17280
2026-01-02 07:59:44.32	56.69	23.29	-21.6	-22.0	16.9	0.00e+00	0	42	0	24494735360	18	17334
2026-01-02 07:59:45.33	56.26	23.31	-21.6	-22.0	16.8	0.00e+00	0	42	0	24612175872	18	17338
2026-01-02 07:59:46.33	55.83	23.33	-21.8	-22.2	16.8	0.00e+00	0	42	0	24729616384	18	17770
2026-01-02 07:59:47.34	55.40	23.35	-21.7	-22.1	16.9	0.00e+00	0	42	0	24838668288	18	17449
2026-01-02 07:59:48.35	54.97	23.37	-21.6	-22.0	16.9	0.00e+00	0	42	0	24947720192	18	17364
2026-01-02 07:59:49.36	54.54	23.39	-21.7	-22.2	16.8	0.00e+00	0	42	0	25065160704	18	17611
2026-01-02 07:59:50.37	54.10	23.40	-21.6	-22.0	16.9	0.00e+00	0	42	0	25174212608	18	17282
2026-01-02 07:59:51.38	53.67	23.42	-21.7	-22.1	16.9	0.00e+00	0	42	0	25291653120	18	17519
2026-01-02 07:59:52.39	53.24	23.43	-21.6	-22.0	16.8	0.00e+00	0	42	0	25409093632	18	17398
2026-01-02 07:59:53.40	52.80	23.44	-21.5	-21.9	16.7	0.00e+00	0	42	0	25518145536	18	17191
2026-01-02 07:59:54.41	52.37	23.45	-21.6	-22.0	16.6	0.00e+00	0	42	0	25635586048	18	17209
2026-01-02 07:59:55.42	51.93	23.45	-21.5	-21.9	16.6	0.00e+00	0	42	0	25744637952	18	17093
2026-01-02 07:59:56.43	51.50	23.46	-21.7	-22.1	16.9	0.00e+00	0	42	0	25853689856	18	17476
2026-01-02 07:59:57.44	51.06	23.46	-21.6	-22.1	17.0	0.00e+00	0	42	0	25971130368	18	17442
2026-01-02 07:59:58.45	50.63	23.46	-21.6	-22.1	17.0	0.00e+00	0	42	0	26088570880	18	17460
2026-01-02 07:59:59.46	50.19	23.46	-21.6	-22.1	16.9	0.00e+00	0	42	0	26197622784	18	17406
2026-01-02 08:00:00.47	49.76	23.46	-21.6	-22.0	17.0	0.00e+00	0	42	0	26315063296	18	17267
2026-01-02 08:00:01.48	49.32	23.46	-21.6	-22.0	17.0	0.00e+00	0	42	0	26424115200	18	17323
2026-01-02 08:00:02.49	48.89	23.46	-21.6	-22.0	17.0	0.00e+00	0	42	0	26541555712	18	17368
2026-01-02 08:00:03.50	48.46	23.45	-21.6	-22.1	17.1	0.00e+00	0	42	0	26658996224	18	17404
2026-01-02 08:00:04.51	48.02	23.44	-21.5	-22.0	17.1	0.00e+00	0	42	0	26768048128	18	17264
2026-01-02 08:00:05.52	47.59	23.43	-21.6	-22.1	17.1	0.00e+00	0	42	0	26877100032	18	17435
2026-01-02 08:00:06.53	47.15	23.42	-21.5	-21.9	17.1	0.00e+00	0	42	0	26994540544	18	17159
2026-01-02 08:00:07.54	46.72	23.41	-21.6	-22.1	17.1	0.00e+00	0	42	0	27111981056	18	17422
2026-01-02 08:00:08.55	46.29	23.40	-21.5	-22.0	17.1	0.00e+00	0	42	0	27221032960	18	17263
2026-01-02 08:00:09.55	45.86	23.38	-21.6	-22.0	17.1	0.00e+00	0	42	0	27338473472	18	17398
2026-01-02 08:00:10.56	45.43	23.36	-21.6	-22.1	17.1	0.00e+00	0	42	0	27447525376	18	17517
2026-01-02 08:00:11.57	44.99	23.34	-21.7	-22.2	17.1	0.00e+00	0	42	0	27564965888	18	17619
2026-01-02 08:00:12.58	44.56	23.32	-21.5	-22.0	17.1	0.00e+00	0	43	0	27682406400	18	17237
2026-01-02 08:00:13.59	44.13	23.30	-21.6	-22.1	17.1	0.00e+00	0	42	0	27791458304	18	17579
2026-01-02 08:00:14.60	43.70	23.28	-21.7	-22.2	17.1	0.00e+00	0	42	0	27900510208	18	17651
2026-01-02 08:00:15.61	43.28	23.25	-21.5	-22.0	17.1	0.00e+00	0	42	0	28017950720	18	17317
2026-01-02 08:00:16.62	42.85	23.23	-21.7	-22.2	17.1	0.00e+00	0	42	0	28127002624	18	17646
2026-01-02 08:00:17.63	42.42	23.20	-21.7	-22.2	17.2	0.00e+00	0	42	0	28244443136	18	17632
2026-01-02 08:00:18.64	42.00	23.17	-21.6	-22.1	17.1	0.00e+00	0	42	0	28361883648	18	17465
2026-01-02 08:00:19.65	41.57	23.14	-21.5	-22.0	17.2	0.00e+00	0	43	0	28470935552	18	17339
2026-01-02 08:00:20.66	41.15	23.11	-21.7	-22.2	17.2	0.00e+00	0	43	0	28579987456	18	17688
2026-01-02 08:00:21.67	40.72	23.07	-21.7	-22.2	17.2	0.00e+00	0	42	0	28697427968	18	17769
2026-01-02 08:00:22.68	40.30	23.04	-21.6	-22.1	17.2	0.00e+00	0	43	0	28806479872	18	17435
2026-01-02 08:00:23.69	39.88	23.00	-21.7	-22.2	17.2	0.00e+00	0	43	0	28923920384	18	17767
2026-01-02 08:00:24.69	39.46	22.96	-21.8	-22.3	17.2	0.00e+00	0	42	0	29041360896	18	17912
2026-01-02 08:00:25.70	39.05	22.92	-21.7	-22.2	17.2	0.00e+00	0	42	0	29150412800	18	17741
2026-01-02 08:00:26.71	38.63	22.88	-21.6	-22.2	17.3	0.00e+00	0	42	0	29267853312	18	17645
2026-01-02 08:00:27.73	38.21	22.84	-21.7	-22.2	17.3	0.00e+00	0	42	0	29376905216	18	17788
2026-01-02 08:00:28.74	37.79	22.79	-21.7	-22.2	17.2	0.00e+00	0	42	0	29494345728	18	17784
2026-01-02 08:00:29.74	37.38	22.75	-21.8	-22.3	17.2	0.00e+00	0	42	0	29611786240	18	17953
2026-01-02 08:00:30.75	36.97	22.70	-21.9	-22.5	17.3	0.00e+00	0	42	0	29720838144	18	18262
2026-01-02 08:00:31.76	36.56	22.66	-49.1	-51.6	6.1	0.00e+00	0	42	104	29779558400	60	46583
2026-01-02 08:00:32.77	36.15	22.61	-49.1	-51.6	6.1	0.00e+00	0	42	104	29779558400	60	46631
2026-01-02 08:00:33.77	35.75	22.56	-49.1	-51.6	6.1	0.00e+00	0	42	104	29779558400	60	46446
2026-01-02 08:00:34.78	35.34	22.50	-49.0	-51.5	6.1	0.00e+00	0	42	104	29779558400	60	46032
2026-01-02 08:00:35.79	34.94	22.45	-49.1	-51.6	6.1	0.00e+00	0	42	104	29779558400	60	46664
2026-01-02 08:00:36.80	34.53	22.40	-49.2	-51.6	6.1	0.00e+00	0	42	104	29779558400	60	46668
2026-01-02 08:00:37.81	34.13	22.34	-49.3	-51.8	6.1	0.00e+00	0	42	104	29779558400	60	47392
2026-01-02 08:00:38.82	33.73	22.28	-49.2	-51.6	6.1	0.00e+00	0	42	104	29779558400	60	46818
2026-01-02 08:00:39.83	33.33	22.23	-49.2	-51.7	6.1	0.00e+00	0	42	104	29779558400	60	47134
2026-01-02 08:00:40.83	32.94	22.17	-49.2	-51.7	6.1	0.00e+00	0	42	104	29779558400	60	47103
2026-01-02 08:00:41.84	32.55	22.11	-49.2	-51.7	6.1	0.00e+00	0	42	104	29779558400	60	47018
2026-01-02 08:00:42.85	32.15	22.05	-49.2	-51.6	6.1	0.00e+00	0	42	104	29779558400	60	46806
2026-01-02 08:00:43.86	31.76	21.98	-49.2	-51.6	6.1	0.00e+00	0	42	104	29779558400	60	46555
2026-01-02 08:00:44.87	31.37	21.92	-49.2	-51.7	6.1	0.00e+00	0	42	104	29779558400	60	47044
2026-01-02 08:00:45.88	30.99	21.86	-49.1	-51.7	6.1	0.00e+00	0	42	104	29779558400	60	46843
2026-01-02 08:00:46.89	30.60	21.79	-49.2	-51.7	6.1	0.00e+00	0	42	104	29779558400	60	46902
2026-01-02 08:00:47.90	30.22	21.72	-49.0	-51.5	6.1	0.00e+00	0	42	104	29779558400	60	46290
2026-01-02 08:00:48.91	29.83	21.66	-49.2	-51.7	6.1	0.00e+00	0	42	104	29779558400	60	47087
2026-01-02 08:00:49.92	29.45	21.59	-49.3	-51.7	6.1	0.00e+00	0	42	104	29779558400	60	47248
2026-01-02 08:00:50.93	29.08	21.52	-49.0	-51.5	6.1	0.00e+00	0	42	104	29779558400	60	46235
2026-01-02 08:00:51.94	28.70	21.45	-49.2	-51.6	6.1	0.00e+00	0	42	104	29779558400	60	46645
2026-01-02 08:00:52.95	28.33	21.38	-49.1	-51.6	6.1	0.00e+00	0	42	104	29779558400	60	46670
2026-01-02 08:00:53.96	27.95	21.30	-49.2	-51.7	6.1	0.00e+00	0	42	104	29779558400	60	46846
2026-01-02 08:00:54.97	27.58	21.23	-49.1	-51.6	6.1	0.00e+00	0	42	104	29779558400	60	46469
2026-01-02 08:00:55.98	27.21	21.16	-49.2	-51.7	6.1	0.00e+00	0	42	104	29779558400	60	47039
2026-01-02 08:00:56.99	26.85	21.08	-49.1	-51.6	6.1	0.00e+00	0	42	104	29779558400	60	46732
2026-01-02 08:00:58.00	26.48	21.01	-49.3	-51.7	6.1	0.00e+00	0	42	104	29779558400	60	47240
2026-01-02 08:00:59.01	26.12	20.93	-49.2	-51.7	6.1	0.00e+00	0	42	104	29779558400	60	46877
2026-01-02 08:01:00.01	25.77	20.85	-49.1	-51.6	6.1	0.00e+00	0	42	104	29779558400	60	46393
2026-01-02 08:01:01.02	25.41	20.78	-49.2	-51.6	6.1	0.00e+00	0	42	104	29779558400	60	46662
2026-01-02 08:01:02.03	25.05	20.70	-49.2	-51.7	6.1	0.00e+00	0	42	104	29779558400	60	47061
2026-01-02 08:01:03.04	24.70	20.62	-49.2	-51.7	6.1	0.00e+00	0	42	104	29779558400	60	47108
2026-01-02 08:01:04.05	24.35	20.54	-49.2	-51.7	6.1	0.00e+00	0	42	104	29779558400	60	46884
2026-01-02 08:01:05.06	24.00	20.46	-49.2	-51.7	6.1	0.00e+00	0	42	104	29779558400	60	46942
2026-01-02 08:01:06.07	23.65	20.37	-49.1	-51.6	6.1	0.00e+00	0	42	104	29779558400	60	46400
2026-01-02 08:01:07.08	23.30	20.29	-49.2	-51.7	6.1	0.00e+00	0	42	104	29779558400	60	47005
2026-01-02 08:01:08.09	22.96	20.21	-49.2	-51.6	6.1	0.00e+00	0	42	104	29779558400	60	46733
2026-01-02 08:01:09.09	22.62	20.13	-49.2	-51.7	6.1	0.00e+00	0	42	104	29779558400	60	46842
2026-01-02 08:01:10.10	22.28	20.04	-49.2	-51.6	6.1	0.00e+00	0	42	104	29779558400	60	46703
2026-01-02 08:01:11.12	21.94	19.96	-49.1	-51.6	6.1	0.00e+00	0	42	104	29779558400	60	46476
2026-01-02 08:01:12.12	21.61	19.87	-49.1	-51.6	6.1	0.00e+00	0	42	104	29779558400	60	46501
2026-01-02 08:01:13.13	21.28	19.79	-49.2	-51.7	6.1	0.00e+00	0	42	104	29779558400	60	47028
2026-01-02 08:01:14.14	20.95	19.70	-49.2	-51.7	6.1	0.00e+00	0	42	104	29779558400	60	46850
2026-01-02 08:01:15.15	20.62	19.61	-49.0	-51.4	6.1	0.00e+00	0	42	104	29779558400	60	45710
2026-01-02 08:01:16.16	20.30	19.52	-49.1	-51.5	6.1	0.00e+00	0	42	104	29779558400	60	46043
2026-01-02 08:01:17.17	19.97	19.44	-49.1	-51.6	6.1	0.00e+00	0	42	104	29779558400	60	46658
2026-01-02 08:01:18.18	19.65	19.35	-49.2	-51.6	6.1	0.00e+00	0	42	104	29779558400	60	46822
2026-01-02 08:01:19.18	19.33	19.26	-49.2	-51.7	6.1	0.00e+00	0	42	104	29779558400	60	46911
2026-01-02 08:01:20.19	19.02	19.17	-49.1	-51.6	6.1	0.00e+00	0	42	104	29779558400	60	46339
2026-01-02 08:01:21.20	18.70	19.08	-49.1	-51.6	6.1	0.00e+00	0	42	104	29779558400	60	46712
2026-01-02 08:01:22.21	18.39	18.99	-49.2	-51.6	6.1	0.00e+00	0	42	104	29779558400	60	46626
2026-01-02 08:01:23.22	18.08	18.90	-49.2	-51.7	6.1	0.00e+00	0	42	104	29779558400	60	46878
2026-01-02 08:01:24.23	17.77	18.81	-49.1	-51.6	6.1	0.00e+00	0	42	104	29779558400	60	46481
2026-01-02 08:01:25.24	17.46	18.72	-49.2	-51.7	6.1	0.00e+00	0	42	104	29779558400	60	47092
2026-01-02 08:01:26.25	17.16	18.63	-49.2	-51.7	6.1	0.00e+00	0	42	104	29779558400	60	47218
2026-01-02 08:01:27.26	16.85	18.54	-49.2	-51.6	6.1	0.00e+00	0	42	104	29779558400	60	46832
2026-01-02 08:01:28.27	16.55	18.45	-49.1	-51.6	6.1	0.00e+00	0	42	104	29779558400	60	46487
2026-01-02 08:01:29.28	16.26	18.35	-49.2	-51.6	6.1	0.00e+00	0	42	104	29779558400	60	46554
2026-01-02 08:01:30.29	15.96	18.26	-49.1	-51.7	6.1	0.00e+00	0	42	104	29779558400	60	46951
2026-01-02 08:01:31.30	15.67	18.17	-49.1	-51.6	6.1	0.00e+00	0	42	104	29779558400	60	46396
2026-01-02 08:01:32.31	15.37	18.08	-49.1	-51.6	6.1	0.00e+00	0	42	104	29779558400	60	46381
2026-01-02 08:01:33.31	15.09	17.98	-49.0	-51.5	6.1	0.00e+00	0	42	104	29779558400	60	45988
2026-01-02 08:01:34.32	14.80	17.89	-49.2	-51.6	6.1	0.00e+00	0	42	104	29779558400	60	46833
2026-01-02 08:01:35.33	14.51	17.80	-49.0	-51.5	6.1	0.00e+00	0	42	104	29779558400	60	46106
2026-01-02 08:01:36.34	14.23	17.70	-49.2	-51.6	6.1	0.00e+00	0	42	104	29779558400	60	46762
2026-01-02 08:01:37.35	13.95	17.61	-49.2	-51.7	6.1	0.00e+00	0	42	104	29779558400	60	46880
2026-01-02 08:01:38.36	13.67	17.51	-49.0	-51.5	6.1	0.00e+00	0	42	104	29779558400	60	46188
2026-01-02 08:01:39.37	13.39	17.42	-49.1	-51.6	6.1	0.00e+00	0	42	104	29779558400	60	46589
2026-01-02 08:01:40.38	13.12	17.32	-49.2	-51.6	6.1	0.00e+00	0	42	104	29779558400	60	46762
2026-01-02 08:01:41.39	12.84	17.23	-49.2	-51.7	6.1	0.00e+00	0	42	104	29779558400	60	47017
2026-01-02 08:01:42.39	12.57	17.14	-49.1	-51.6	6.1	0.00e+00	0	42	104	29779558400	60	46546
2026-01-02 08:01:43.40	12.30	17.04	-49.0	-51.5	6.1	0.00e+00	0	42	104	29779558400	60	45849
2026-01-02 08:01:44.41	12.04	16.95	-49.1	-51.6	6.1	0.00e+00	0	42	104	29779558400	60	46525
2026-01-02 08:01:45.42	11.77	16.85	-49.2	-51.6	6.1	0.00e+00	0	42	104	29779558400	60	46643
2026-01-02 08:01:46.43	11.51	16.76	-49.2	-51.6	6.1	0.00e+00	0	42	104	29779558400	60	46556
2026-01-02 08:01:47.44	11.25	16.66	-49.1	-51.6	6.1	0.00e+00	0	42	104	29779558400	60	46420
2026-01-02 08:01:48.45	10.99	16.57	-49.1	-51.6	6.1	0.00e+00	0	42	104	29779558400	60	46614
2026-01-02 08:01:49.46	10.73	16.47	-48.9	-51.4	6.0	0.00e+00	0	42	104	29779558400	60	45441
2026-01-02 08:01:50.47	10.47	16.38	-49.0	-51.5	6.1	0.00e+00	0	42	104	29779558400	60	46266
2026-01-02 08:01:51.48	10.22	16.28	-49.1	-51.6	6.1	0.00e+00	0	42	104	29779558400	60	46306
2026-01-02 08:01:52.49	9.97	16.18	-49.1	-51.6	6.1	0.00e+00	0	42	104	29779558400	60	46467
2026-01-02 08:01:53.50	9.72	16.09	-49.1	-51.5	6.1	0.00e+00	0	42	104	29779558400	60	46014
2026-01-02 08:01:54.51	9.47	15.99	-49.0	-51.4	6.1	0.00e+00	0	42	104	29779558400	60	45765
2026-01-02 08:01:55.52	9.22	15.90	-48.9	-51.4	6.1	0.00e+00	0	42	104	29779558400	60	45570
2026-01-02 08:01:56.53	8.98	15.80	-49.0	-51.5	6.1	0.00e+00	0	42	104	29779558400	60	46244
2026-01-02 08:01:57.53	8.74	15.71	-49.1	-51.5	6.1	0.00e+00	0	42	104	29779558400	60	46065
2026-01-02 08:01:58.54	8.50	15.61	-49.1	-51.5	6.1	0.00e+00	0	42	104	29779558400	60	46156
2026-01-02 08:01:59.55	8.26	15.52	-49.1	-51.6	6.1	0.00e+00	0	42	104	29779558400	60	46435
2026-01-02 08:02:00.56	8.02	15.42	-49.1	-51.6	6.1	0.00e+00	0	42	104	29779558400	60	46335
2026-01-02 08:02:01.57	7.79	15.33	-49.0	-51.5	6.1	0.00e+00	0	42	104	29779558400	60	45838
2026-01-02 08:02:02.58	7.55	15.23	-49.1	-51.5	6.1	0.00e+00	0	42	104	29779558400	60	45868
2026-01-02 08:02:03.59	7.32	15.14	-49.0	-51.5	6.1	0.00e+00	0	42	104	29779558400	60	46213
2026-01-02 08:02:04.60	7.09	15.04	-49.0	-51.5	6.0	0.00e+00	0	42	104	29779558400	60	46104
2026-01-02 08:02:05.61	6.86	14.95	-49.0	-51.5	6.1	0.00e+00	0	42	104	29779558400	60	46120
2026-01-02 08:02:06.62	6.64	14.85	-49.1	-51.5	6.1	0.00e+00	0	42	104	29779558400	60	46144
2026-01-02 08:02:07.63	6.41	14.76	-49.1	-51.5	6.1	0.00e+00	0	42	104	29779558400	60	46053
2026-01-02 08:02:08.64	6.19	14.66	-49.0	-51.5	6.1	0.00e+00	0	42	104	29779558400	60	45897
2026-01-02 08:02:09.65	5.97	14.57	-49.1	-51.6	6.1	0.00e+00	0	42	104	29779558400	60	46380
2026-01-02 08:02:10.66	5.75	14.47	-49.0	-51.5	6.1	0.00e+00	0	42	104	29779558400	60	46159
2026-01-02 08:02:11.67	5.53	14.38	-49.0	-51.5	6.1	0.00e+00	0	42	104	29779558400	60	45954
2026-01-02 08:02:12.68	5.31	14.29	-48.9	-51.4	6.0	0.00e+00	0	42	104	29779558400	60	45447
2026-01-02 08:02:13.69	5.10	14.19	-49.0	-51.5	6.1	0.00e+00	0	42	104	29779558400	60	46281
2026-01-02 08:02:14.70	4.88	14.10	-49.0	-51.4	6.1	0.00e+00	0	42	104	29779558400	60	45695
2026-01-02 08:02:15.71	4.67	14.00	-49.0	-51.5	6.1	0.00e+00	0	42	104	29779558400	60	45940
2026-01-02 08:02:16.72	4.46	13.91	-49.0	-51.5	6.1	0.00e+00	0	42	104	29779558400	60	46119
2026-01-02 08:02:17.73	4.25	13.82	-49.0	-51.5	6.1	0.00e+00	0	42	104	29779558400	60	46197
2026-01-02 08:02:18.74	4.05	13.72	-49.0	-51.5	6.1	0.00e+00	0	42	104	29779558400	60	46018
2026-01-02 08:02:19.75	3.84	13.63	-49.0	-51.5	6.1	0.00e+00	0	42	104	29779558400	60	45811
2026-01-02 08:02:20.76	3.64	13.54	-49.0	-51.5	6.1	0.00e+00	0	42	104	29779558400	60	45896
2026-01-02 08:02:21.77	3.44	13.44	-49.0	-51.5	6.0	0.00e+00	0	42	104	29779558400	60	45927
2026-01-02 08:02:22.78	3.24	13.35	-48.9	-51.5	6.1	0.00e+00	0	42	104	29779558400	60	45959
2026-01-02 08:02:23.79	3.04	13.26	-48.9	-51.4	6.1	0.00e+00	0	42	104	29779558400	60	45555
2026-01-02 08:02:24.79	2.84	13.17	-49.0	-51.5	6.0	0.00e+00	0	42	104	29779558400	60	45858
2026-01-02 08:02:25.80	2.65	13.07	-49.0	-51.5	6.0	0.00e+00	0	42	104	29779558400	60	45843
2026-01-02 08:02:26.81	2.45	12.98	-49.0	-51.5	6.1	0.00e+00	0	42	104	29779558400	60	45895
2026-01-02 08:02:27.82	2.26	12.89	-49.0	-51.4	6.1	0.00e+00	0	42	104	29779558400	60	45654
2026-01-02 08:02:28.83	2.07	12.80	-49.0	-51.5	6.1	0.00e+00	0	42	104	29779558400	60	45919
2026-01-02 08:02:29.84	1.88	12.71	-49.0	-51.5	6.1	0.00e+00	0	42	104	29779558400	60	45898
2026-01-02 08:02:30.85	1.69	12.61	-49.0	-51.4	6.1	0.00e+00	0	42	104	29779558400	60	45506
2026-01-02 08:02:31.85	1.50	12.52	-48.9	-51.4	6.1	0.00e+00	0	42	104	29779558400	60	45381
2026-01-02 08:02:32.86	1.32	12.43	-49.0	-51.5	6.1	0.00e+00	0	42	104	29779558400	60	45804
2026-01-02 08:02:33.87	1.13	12.34	-49.0	-51.5	6.1	0.00e+00	0	42	104	29779558400	60	45892
2026-01-02 08:02:34.89	0.95	12.25	-49.0	-51.4	6.0	0.00e+00	0	42	104	29779558400	60	45422
2026-01-02 08:02:35.89	0.77	12.16	-49.0	-51.4	6.1	0.00e+00	0	42	104	29779558400	60	45674
2026-01-02 08:02:36.90	0.59	12.07	-48.9	-51.4	6.1	0.00e+00	0	42	104	29779558400	60	45468
2026-01-02 08:02:37.91	0.41	11.98	-49.0	-51.5	6.1	0.00e+00	0	42	104	29779558400	60	45818
2026-01-02 08:02:38.92	0.23	11.89	-49.0	-51.4	6.1	0.00e+00	0	42	104	29779558400	60	45473
2026-01-02 08:02:39.93	0.05	11.80	-48.9	-51.4	6.1	0.00e+00	0	42	104	29779558400	60	45438
2026-01-02 08:02:40.94	359.88	11.71	-49.0	-51.4	6.1	0.00e+00	0	42	104	29779558400	60	45525
2026-01-02 08:02:41.95	359.71	11.62	-48.7	-51.3	6.1	0.00e+00	0	42	104	29779558400	60	44918
2026-01-02 08:02:42.96	359.53	11.53	-48.9	-51.4	6.1	0.00e+00	0	42	104	29779558400	60	45291
2026-01-02 08:02:43.97	359.36	11.44	-48.9	-51.3	6.1	0.00e+00	0	42	104	29779558400	60	45185
2026-01-02 08:02:44.98	359.19	11.36	-48.9	-51.4	6.1	0.00e+00	0	42	104	29779558400	60	45412
2026-01-02 08:02:45.98	359.03	11.27	-48.9	-51.4	6.1	0.00e+00	0	42	104	29779558400	60	45598
2026-01-02 08:02:46.99	358.86	11.18	-48.9	-51.3	6.1	0.00e+00	0	42	104	29779558400	60	45119
2026-01-02 08:02:48.00	358.69	11.09	-48.9	-51.4	6.1	0.00e+00	0	42	104	29779558400	60	45467
2026-01-02 08:02:49.01	358.53	11.00	-48.8	-51.3	6.1	0.00e+00	0	42	104	29779558400	60	45041
2026-01-02 08:02:50.02	358.36	10.92	-49.0	-51.4	6.1	0.00e+00	0	42	104	29779558400	60	45300
2026-01-02 08:02:51.03	358.20	10.83	-48.8	-51.2	6.1	0.00e+00	0	42	104	29779558400	60	44725
2026-01-02 08:02:52.04	358.04	10.74	-48.8	-51.2	6.1	0.00e+00	0	42	104	29779558400	60	44668
2026-01-02 08:02:53.05	357.88	10.65	-48.9	-51.4	6.1	0.00e+00	0	42	104	29779558400	60	45431
2026-01-02 08:02:54.05	357.72	10.57	-48.9	-51.3	6.1	0.00e+00	0	42	104	29779558400	60	45206
2026-01-02 08:02:55.06	357.57	10.48	-48.8	-51.3	6.0	0.00e+00	0	42	104	29779558400	60	45007
2026-01-02 08:02:56.07	357.41	10.40	-48.8	-51.3	6.1	0.00e+00	0	42	104	29779558400	60	44785
2026-01-02 08:02:57.08	357.25	10.31	-48.7	-51.3	6.1	0.00e+00	0	42	104	29779558400	60	44820
2026-01-02 08:02:58.09	357.10	10.22	-48.9	-51.4	6.1	0.00e+00	0	42	104	29779558400	60	45367
2026-01-02 08:02:59.10	356.95	10.14	-48.8	-51.2	6.1	0.00e+00	0	42	104	29779558400	60	44628
2026-01-02 08:03:00.11	356.79	10.05	-48.9	-51.3	6.1	0.00e+00	0	42	104	29779558400	60	45026
2026-01-02 08:03:01.12	356.64	9.97	-48.8	-51.3	6.1	0.00e+00	0	42	104	29779558400	60	44776
2026-01-02 08:03:02.13	356.49	9.88	-48.9	-51.4	6.1	0.00e+00	0	42	104	29779558400	60	45246
2026-01-02 08:03:03.14	356.34	9.80	-48.8	-51.3	6.1	0.00e+00	0	42	104	29779558400	60	44778
2026-01-02 08:03:04.15	356.20	9.71	-48.8	-51.3	6.1	0.00e+00	0	42	104	29779558400	60	45086
2026-01-02 08:03:05.16	356.05	9.63	-48.8	-51.3	6.1	0.00e+00	0	42	104	29779558400	60	44931
2026-01-02 08:03:06.17	355.90	9.54	-48.9	-51.3	6.1	0.00e+00	0	42	104	29779558400	60	44995
2026-01-02 08:03:07.18	355.76	9.46	-48.8	-51.2	6.1	0.00e+00	0	42	104	29779558400	60	44680
2026-01-02 08:03:08.19	355.62	9.38	-48.8	-51.3	6.1	0.00e+00	0	42	104	29779558400	60	44730
2026-01-02 08:03:09.20	355.47	9.29	-48.8	-51.3	6.1	0.00e+00	0	42	104	29779558400	60	44993
2026-01-02 08:03:10.21	355.33	9.21	-48.8	-51.3	6.1	0.00e+00	0	42	104	29779558400	60	44737
2026-01-02 08:03:11.22	355.19	9.13	-48.8	-51.2	6.1	0.00e+00	0	42	104	29779558400	60	44472
2026-01-02 08:03:12.23	355.05	9.04	-48.8	-51.3	6.1	0.00e+00	0	42	104	29779558400	60	44770
2026-01-02 08:03:13.23	354.92	8.96	-48.8	-51.3	6.1	0.00e+00	0	42	104	29779558400	60	45087
2026-01-02 08:03:14.24	354.78	8.88	-48.8	-51.3	6.1	0.00e+00	0	42	104	29779558400	60	44785
2026-01-02 08:03:15.25	354.64	8.80	-48.7	-51.2	6.1	0.00e+00	0	42	104	29779558400	60	44406
2026-01-02 08:03:16.26	354.51	8.72	-48.7	-51.2	6.1	0.00e+00	0	42	104	29779558400	60	44479
2026-01-02 08:03:17.27	354.37	8.63	-48.8	-51.3	6.1	0.00e+00	0	42	104	29779558400	60	44856
2026-01-02 08:03:18.28	354.24	8.55	-48.8	-51.3	6.1	0.00e+00	0	42	104	29779558400	60	44926
2026-01-02 08:03:19.29	354.11	8.47	-48.7	-51.1	6.1	0.00e+00	0	42	104	29779558400	60	43998
2026-01-02 08:03:20.30	353.97	8.39	-48.7	-51.2	6.1	0.00e+00	0	42	104	29779558400	60	44358
2026-01-02 08:03:21.30	353.84	8.31	-48.8	-51.2	6.1	0.00e+00	0	42	104	29779558400	60	44712
2026-01-02 08:03:22.31	353.71	8.23	-48.8	-51.3	6.1	0.00e+00	0	42	104	29779558400	60	44792
2026-01-02 08:03:23.32	353.59	8.15	-48.7	-51.2	6.1	0.00e+00	0	42	104	29779558400	60	44359
2026-01-02 08:03:24.33	353.46	8.07	-48.7	-51.2	6.1	0.00e+00	0	42	104	29779558400	60	44455
2026-01-02 08:03:25.34	353.33	7.99	-48.7	-51.2	6.1	0.00e+00	0	42	104	29779558400	60	44522
2026-01-02 08:03:26.35	353.20	7.91	-48.8	-51.3	6.1	0.00e+00	0	42	104	29779558400	60	44791
2026-01-02 08:03:27.36	353.08	7.83	-48.7	-51.1	6.1	0.00e+00	0	42	104	29779558400	60	43924
2026-01-02 08:03:28.37	352.95	7.75	-48.7	-51.2	6.0	0.00e+00	0	42	104	29779558400	60	44244
2026-01-02 08:03:29.38	352.83	7.67	-48.8	-51.2	6.1	0.00e+00	0	42	104	29779558400	60	44673
2026-01-02 08:03:30.39	352.71	7.59	-48.7	-51.2	6.0	0.00e+00	0	42	104	29779558400	60	44315
2026-01-02 08:03:31.39	352.59	7.52	-48.6	-51.1	6.1	0.00e+00	0	42	104	29779558400	60	43924
2026-01-02 08:03:32.40	352.47	7.44	-48.7	-51.2	6.1	0.00e+00	0	42	104	29779558400	60	44318
2026-01-02 08:03:33.41	352.35	7.36	-48.8	-51.2	6.1	0.00e+00	0	42	104	29779558400	60	44705
2026-01-02 08:03:34.42	352.23	7.28	-48.7	-51.2	6.1	0.00e+00	0	42	104	29779558400	60	44230
2026-01-02 08:03:35.43	352.11	7.20	-48.6	-51.0	6.1	0.00e+00	0	42	104	29779558400	60	43538
2026-01-02 08:03:36.44	351.99	7.13	-48.6	-51.1	6.1	0.00e+00	0	42	104	29779558400	60	43925
2026-01-02 08:03:37.44	351.87	7.05	-48.7	-51.2	6.1	0.00e+00	0	42	104	29779558400	60	44491
2026-01-02 08:03:38.45	351.76	6.97	-48.6	-51.1	6.1	0.00e+00	0	42	104	29779558400	60	43754
2026-01-02 08:03:39.47	351.64	6.89	-48.5	-51.0	6.1	0.00e+00	0	42	104	29779558400	60	43350
2026-01-02 08:03:40.47	351.53	6.82	-48.6	-51.1	6.1	0.00e+00	0	42	104	29779558400	60	43729
2026-01-02 08:03:41.48	351.41	6.74	-48.7	-51.1	6.1	0.00e+00	0	42	104	29779558400	60	44070
2026-01-02 08:03:42.49	351.30	6.67	-48.6	-51.1	6.1	0.00e+00	0	42	104	29779558400	60	44032
2026-01-02 08:03:43.50	351.19	6.59	-48.5	-51.0	6.1	0.00e+00	0	42	104	29779558400	60	43263
2026-01-02 08:03:44.51	351.08	6.51	-48.6	-51.0	6.1	0.00e+00	0	42	104	29779558400	60	43522
2026-01-02 08:03:45.52	350.97	6.44	-48.6	-51.1	6.1	0.00e+00	0	42	104	29779558400	60	44122
2026-01-02 08:03:46.53	350.86	6.36	-48.6	-51.1	6.1	0.00e+00	0	42	104	29779558400	60	43733
2026-01-02 08:03:47.54	350.75	6.29	-48.5	-50.9	6.1	0.00e+00	0	42	104	29779558400	60	43010
2026-01-02 08:03:48.55	350.64	6.21	-48.5	-51.0	6.1	0.00e+00	0	42	104	29779558400	60	43347
2026-01-02 08:03:49.56	350.53	6.14	-48.7	-51.1	6.1	0.00e+00	0	42	104	29779558400	60	44088
2026-01-02 08:03:50.57	350.42	6.06	-48.5	-51.0	6.1	0.00e+00	0	42	104	29779558400	60	43341
2026-01-02 08:03:51.57	350.32	5.99	-48.4	-50.9	6.1	0.00e+00	0	42	104	29779558400	60	43093
2026-01-02 08:03:52.59	350.21	5.91	-48.5	-51.0	6.1	0.00e+00	0	42	104	29779558400	60	43342
2026-01-02 08:03:53.60	350.10	5.84	-48.6	-51.1	6.1	0.00e+00	0	42	104	29779558400	60	43797
2026-01-02 08:03:54.61	350.00	5.77	-48.4	-50.9	6.1	0.00e+00	0	42	104	29779558400	60	43068
2026-01-02 08:03:55.61	349.90	5.69	-48.4	-50.9	6.1	0.00e+00	0	42	104	29779558400	60	42878
2026-01-02 08:03:56.62	349.79	5.62	-48.5	-51.0	6.1	0.00e+00	0	42	104	29779558400	60	43255
2026-01-02 08:03:57.63	349.69	5.55	-48.5	-51.0	6.1	0.00e+00	0	42	104	29779558400	60	43568
2026-01-02 08:03:58.64	349.59	5.47	-48.4	-50.9	6.1	0.00e+00	0	42	104	29779558400	60	43110
2026-01-02 08:03:59.65	349.49	5.40	-48.4	-50.8	6.1	0.00e+00	0	42	104	29779558400	60	42696
2026-01-02 08:04:00.66	349.39	5.33	-48.5	-51.0	6.1	0.00e+00	0	42	104	29779558400	60	43323
2026-01-02 08:04:01.67	349.29	5.26	-48.6	-51.1	6.1	0.00e+00	0	42	104	29779558400	60	43880
2026-01-02 08:04:02.68	349.19	5.18	-48.4	-50.8	6.1	0.00e+00	0	42	104	29779558400	60	42650
2026-01-02 08:04:03.69	349.09	5.11	-48.3	-50.8	6.1	0.00e+00	0	42	104	29779558400	60	42351
2026-01-02 08:04:04.70	348.99	5.04	-48.4	-50.9	6.1	0.00e+00	0	42	104	29779558400	60	42869
2026-01-02 08:04:05.71	348.90	4.97	-48.5	-50.9	6.1	0.00e+00	0	42	104	29779558400	60	43147
2026-01-02 08:04:06.72	348.80	4.90	-48.3	-50.7	6.1	0.00e+00	0	42	104	29779558400	60	42059
2026-01-02 08:04:07.73	348.70	4.83	-48.0	-50.5	6.1	0.00e+00	0	42	104	29779558400	60	40937
2026-01-02 08:04:08.74	348.61	4.75	-48.1	-50.6	6.1	0.00e+00	0	42	104	29779558400	60	41381
2026-01-02 08:04:09.75	348.51	4.68	-48.3	-50.8	6.1	0.00e+00	0	42	104	29779558400	60	42255
2026-01-02 08:04:10.75	348.42	4.61	-48.0	-50.5	6.1	0.00e+00	0	42	104	29779558400	60	40923
2026-01-02 08:04:11.76	348.33	4.54	-47.4	-49.9	6.1	0.00e+00	0	42	104	29779558400	60	38080
2026-01-02 08:04:12.77	348.23	4.47	-48.2	-50.7	6.1	0.00e+00	0	42	104	29779558400	60	41855
2026-01-02 08:04:13.79	348.14	4.40	-47.7	-50.1	6.1	0.00e+00	0	42	104	29779558400	60	39351
2026-01-02 08:04:14.79	348.05	4.33	-46.6	-49.1	6.1	0.00e+00	0	42	104	29779558400	60	34845
2026-01-02 08:04:15.80	347.96	4.26	-46.4	-48.9	6.1	0.00e+00	0	42	104	29779558400	60	34066
2026-01-02 08:04:16.81	347.87	4.19	-46.1	-48.6	6.1	0.00e+00	0	42	104	29779558400	60	32875
2026-01-02 08:04:17.82	347.78	4.12	-45.8	-48.3	6.1	0.00e+00	0	42	104	29779558400	60	31667
2026-01-02 08:04:18.83	347.69	4.05	-45.7	-48.2	6.1	0.00e+00	0	42	104	29779558400	60	31352
2026-01-02 08:04:19.84	347.60	3.98	-45.5	-48.0	6.1	0.00e+00	0	42	104	29779558400	60	30770
2026-01-02 08:04:20.85	347.51	3.92	-46.0	-48.5	6.1	0.00e+00	0	42	104	29779558400	60	32406
2026-01-02 08:04:21.86	347.42	3.85	-46.5	-48.9	6.1	0.00e+00	0	42	104	29779558400	60	34100
2026-01-02 08:04:22.87	347.33	3.78	-45.2	-47.7	6.1	0.00e+00	0	42	104	29779558400	60	29708
2026-01-02 08:04:23.88	347.25	3.71	-46.4	-48.9	6.1	0.00e+00	0	42	104	29779558400	60	33946
2026-01-02 08:04:24.89	347.16	3.64	-45.1	-47.5	6.1	0.00e+00	0	42	104	29779558400	60	29180
2026-01-02 08:04:25.89	347.08	3.57	-44.8	-47.3	6.1	0.00e+00	0	42	104	29779558400	60	28410
2026-01-02 08:04:26.90	346.99	3.51	-44.7	-47.2	6.1	0.00e+00	0	42	104	29779558400	60	27940
2026-01-02 08:04:27.91	346.91	3.44	-44.6	-47.1	6.1	0.00e+00	0	42	104	29779558400	60	27672
2026-01-02 08:04:28.92	346.82	3.37	-44.5	-47.0	6.1	0.00e+00	0	42	104	29779558400	60	27327
2026-01-02 08:04:29.93	346.74	3.30	-44.6	-47.1	6.1	0.00e+00	0	42	104	29779558400	60	27773
2026-01-02 08:04:30.94	346.66	3.24	-45.2	-47.7	6.1	0.00e+00	0	42	104	29779558400	60	29796
2026-01-02 08:04:31.95	346.57	3.17	-44.8	-47.3	6.1	0.00e+00	0	42	104	29779558400	60	28516
2026-01-02 08:04:32.96	346.49	3.10	-44.5	-47.0	6.1	0.00e+00	0	42	104	29779558400	60	27566
2026-01-02 08:04:33.98	346.41	3.04	-44.6	-47.0	6.1	0.00e+00	0	42	104	29779558400	60	27423
2026-01-02 08:04:34.98	346.33	2.97	-45.4	-47.8	6.1	0.00e+00	0	42	104	29779558400	60	30196
2026-01-02 08:04:35.99	346.25	2.90	-48.8	-51.3	6.1	0.00e+00	0	42	104	29779558400	60	44733
2026-01-02 08:04:37.00	346.17	2.84	-49.0	-51.4	6.1	0.00e+00	0	42	104	29779558400	60	45691
2026-01-02 08:04:38.01	346.09	2.77	-49.2	-51.6	6.1	0.00e+00	0	42	104	29779558400	60	46814
2026-01-02 08:04:39.02	346.01	2.70	-49.3	-51.8	6.1	0.00e+00	0	42	104	29779558400	60	47588
2026-01-02 08:04:40.03	345.93	2.64	-49.4	-51.9	6.1	0.00e+00	0	42	104	29779558400	60	48209
2026-01-02 08:04:41.04	345.85	2.57	-49.5	-51.9	6.1	0.00e+00	0	42	104	29779558400	60	48480
2026-01-02 08:04:42.05	345.77	2.51	-49.3	-51.8	6.1	0.00e+00	0	42	104	29779558400	60	47757
2026-01-02 08:04:43.06	345.70	2.44	-49.5	-52.0	6.1	0.00e+00	0	42	104	29779558400	60	48796
2026-01-02 08:04:44.07	345.62	2.38	-49.5	-52.0	6.1	0.00e+00	0	42	104	29779558400	60	48560
2026-01-02 08:04:45.08	345.54	2.31	-49.4	-51.9	6.1	0.00e+00	0	42	104	29779558400	60	48270
2026-01-02 08:04:46.09	345.47	2.25	-49.4	-51.8	6.1	0.00e+00	0	42	104	29779558400	60	47868
2026-01-02 08:04:47.10	345.39	2.18	-48.8	-51.3	6.1	0.00e+00	0	42	104	29779558400	60	45154
2026-01-02 08:04:48.11	345.31	2.12	-49.4	-51.9	6.1	0.00e+00	0	42	104	29779558400	60	47963
2026-01-02 08:04:49.12	345.24	2.05	-49.4	-51.9	6.1	0.00e+00	0	42	104	29779558400	60	48104
2026-01-02 08:04:50.13	345.17	1.99	-49.3	-51.8	6.1	0.00e+00	0	42	104	29779558400	60	47510
2026-01-02 08:04:51.14	345.09	1.93	-49.4	-51.9	6.1	0.00e+00	0	42	104	29779558400	60	48067
2026-01-02 08:04:52.15	345.02	1.86	-49.4	-51.9	6.1	0.00e+00	0	42	104	29779558400	60	47984
2026-01-02 08:04:53.16	344.95	1.80	-49.4	-51.8	6.1	0.00e+00	0	42	104	29779558400	60	47652
2026-01-02 08:04:54.17	344.87	1.73	-49.4	-51.8	6.1	0.00e+00	0	42	104	29779558400	60	47895
2026-01-02 08:04:55.18	344.80	1.67	-49.4	-51.8	6.1	0.00e+00	0	42	104	29779558400	60	47883
2026-01-02 08:04:56.19	344.73	1.61	-49.4	-51.9	6.1	0.00e+00	0	42	104	29779558400	60	48033
2026-01-02 08:04:57.20	344.66	1.54	-49.4	-51.8	6.1	0.00e+00	0	42	104	29779558400	60	47889
2026-01-02 08:04:58.21	344.59	1.48	-49.4	-51.8	6.1	0.00e+00	0	42	104	29779558400	60	47801
2026-01-02 08:04:59.22	344.52	1.42	-49.4	-51.8	6.1	0.00e+00	0	42	104	29779558400	60	47884
2026-01-02 08:05:00.23	344.45	1.36	-49.4	-51.8	6.1	0.00e+00	0	42	104	29779558400	60	47792
2026-01-02 08:05:01.24	344.38	1.29	-49.4	-51.9	6.1	0.00e+00	0	42	104	29779558400	60	48146
2026-01-02 08:05:02.25	344.31	1.23	-49.4	-51.8	6.1	0.00e+00	0	42	104	29779558400	60	47922
2026-01-02 08:05:03.26	344.24	1.17	-49.4	-51.8	6.1	0.00e+00	0	42	104	29779558400	60	47656
2026-01-02 08:05:04.27	344.17	1.11	-49.4	-51.9	6.1	0.00e+00	0	42	104	29779558400	60	48060
2026-01-02 08:05:05.27	344.10	1.04	-49.4	-51.9	6.1	0.00e+00	0	42	104	29779558400	60	48077
2026-01-02 08:05:06.28	344.03	0.98	-49.4	-51.8	6.1	0.00e+00	0	42	104	29779558400	60	47673
2026-01-02 08:05:07.30	343.97	0.92	-49.4	-51.8	6.1	0.00e+00	0	42	104	29779558400	60	47875
2026-01-02 08:05:08.30	343.90	0.86	-49.4	-51.8	6.1	0.00e+00	0	42	104	29779558400	60	47898
2026-01-02 08:05:09.31	343.83	0.80	-49.4	-51.8	6.1	0.00e+00	0	42	104	29779558400	60	47843
2026-01-02 08:05:10.32	343.77	0.74	-49.4	-51.8	6.1	0.00e+00	0	42	104	29779558400	60	47713
2026-01-02 08:05:11.33	343.70	0.67	-49.4	-51.8	6.0	0.00e+00	0	42	104	29779558400	60	47669
2026-01-02 08:05:12.34	343.64	0.61	-49.4	-51.8	6.1	0.00e+00	0	42	104	29779558400	60	47873
2026-01-02 08:05:13.35	343.57	0.55	-49.4	-51.9	6.1	0.00e+00	0	42	104	29779558400	60	47930
2026-01-02 08:05:14.36	343.51	0.49	-49.4	-51.8	6.1	0.00e+00	0	42	104	29779558400	60	47551
2026-01-02 08:05:15.37	343.44	0.43	-49.4	-51.8	6.1	0.00e+00	0	42	104	29779558400	60	47851
2026-01-02 08:05:16.38	343.38	0.37	-49.4	-51.8	6.1	0.00e+00	0	42	104	29779558400	60	47827
2026-01-02 08:05:17.39	343.31	0.31	-49.4	-51.8	6.1	0.00e+00	0	42	104	29779558400	60	47838
2026-01-02 08:05:18.40	343.25	0.25	-49.4	-51.8	6.1	0.00e+00	0	42	104	29779558400	60	47807
2026-01-02 08:05:19.41	343.19	0.19	-49.4	-51.9	6.1	0.00e+00	0	42	104	29779558400	60	47974
2026-01-02 08:05:20.41	343.12	0.13	-49.4	-51.8	6.1	0.00e+00	0	42	104	29779558400	60	47734
2026-01-02 08:05:21.42	343.06	0.07	-49.4	-51.9	6.1	0.00e+00	0	42	104	29779558400	60	47977
2026-01-02 08:05:22.43	343.00	0.01	-49.4	-51.9	6.1	0.00e+00	0	42	104	29779558400	60	48246
2026-01-02 08:05:23.44	342.94	-0.05	-49.4	-51.8	6.1	0.00e+00	0	42	104	29779558400	60	47899

#Closed at: 2026-01-02 08:05:24
#Recorded file [29779 MB]: D:/lorett/data/35029_260102_195506.dat