passes_logs/2026/01/02/R4.6S_Anadyr/R4.6S_Anadyr__20260102_170000_AQUA_rec.log

#Pass ID: 20260102_170000_AQUA
#Satellite: AQUA
#Configuration: AQUA
#almurnet v.1.7.20251203
#Start time: 2026-01-02 17:00:03

#Version: 2.2.20231116
#Station: R4.6S_Anadyr
#Location: 177.4865 lon 64.73178 lat
#TLE: 1 27424U 02022A   25365.92641127  .00002078  00000+0  42628-3 0  9999
#TLE: 2 27424  98.4058 327.1196 0001962  94.7781 340.6230 14.61783896258835

#Time	Az	El	Level	Level2	SNR	BER	BlckErr	Temp	State	Recorded	gain1	gain2
2026-01-02 17:00:03.32	20.58	0.19	-49.9	-66.2	3.3	3.04e+01	0	37	0	0	60	78799
2026-01-02 17:00:04.33	20.57	0.26	-49.9	-67.7	3.5	3.04e+01	0	37	104	0	60	93364
2026-01-02 17:00:05.33	20.55	0.32	-49.9	-67.8	3.5	3.04e+01	0	37	104	0	60	94335
2026-01-02 17:00:06.34	20.53	0.38	-49.9	-67.8	3.5	3.04e+01	0	37	104	0	60	94608
2026-01-02 17:00:07.36	20.51	0.44	-49.6	-67.8	3.5	3.04e+01	0	37	104	0	60	94337
2026-01-02 17:00:08.36	20.50	0.50	-49.8	-67.8	3.5	3.04e+01	0	37	104	0	60	94037
2026-01-02 17:00:09.37	20.48	0.57	-49.4	-67.7	3.5	3.04e+01	0	37	104	0	60	93396
2026-01-02 17:00:10.38	20.46	0.63	-49.7	-67.6	3.5	3.04e+01	0	38	104	0	60	92154
2026-01-02 17:00:11.39	20.44	0.69	-49.5	-67.4	3.5	3.04e+01	0	38	104	0	60	90193
2026-01-02 17:00:12.40	20.42	0.76	-49.3	-67.2	3.5	3.04e+01	0	38	104	0	60	88262
2026-01-02 17:00:13.42	20.41	0.82	-48.9	-66.9	3.5	3.04e+01	0	38	104	0	60	85585
2026-01-02 17:00:14.42	20.39	0.88	-48.9	-66.8	3.5	3.04e+01	0	38	104	0	60	84111
2026-01-02 17:00:15.43	20.37	0.95	-48.5	-66.5	3.5	3.04e+01	0	38	104	0	60	81431
2026-01-02 17:00:16.44	20.35	1.01	-48.2	-66.0	3.5	3.04e+01	0	38	104	0	60	77012
2026-01-02 17:00:17.45	20.33	1.07	-48.1	-66.0	3.5	3.04e+01	0	38	104	0	60	76695
2026-01-02 17:00:18.46	20.31	1.14	-48.1	-65.9	3.5	3.04e+01	0	38	104	0	60	76272
2026-01-02 17:00:19.47	20.29	1.20	-48.1	-65.9	3.5	3.04e+01	0	38	104	0	60	76331
2026-01-02 17:00:20.48	20.28	1.27	-48.1	-65.9	3.5	3.04e+01	0	38	104	0	60	76201
2026-01-02 17:00:21.49	20.26	1.33	-48.1	-66.0	3.5	3.04e+01	0	38	104	0	60	76366
2026-01-02 17:00:22.50	20.24	1.39	-48.1	-65.9	3.5	3.04e+01	0	38	104	0	60	76345
2026-01-02 17:00:23.51	20.22	1.46	-48.1	-65.9	3.5	3.04e+01	0	38	104	0	60	75766
2026-01-02 17:00:24.52	20.20	1.52	-48.1	-65.9	3.5	3.04e+01	0	38	104	0	60	75479
2026-01-02 17:00:25.53	20.18	1.59	-48.1	-65.8	3.5	3.04e+01	0	38	104	0	60	74809
2026-01-02 17:00:26.54	20.16	1.65	-48.1	-65.5	3.5	3.04e+01	0	38	104	0	60	72605
2026-01-02 17:00:27.55	20.14	1.72	-48.1	-65.3	3.5	3.04e+01	0	38	104	0	60	70728
2026-01-02 17:00:28.56	20.12	1.79	-48.1	-64.7	3.5	3.04e+01	0	38	104	0	60	66486
2026-01-02 17:00:29.57	20.10	1.85	-48.1	-64.7	3.5	3.04e+01	0	38	104	0	60	65987
2026-01-02 17:00:30.58	20.08	1.92	-48.1	-64.3	3.5	3.04e+01	0	38	104	0	60	63377
2026-01-02 17:00:31.59	20.06	1.98	-48.1	-64.8	3.5	3.04e+01	0	38	104	0	60	66691
2026-01-02 17:00:32.60	20.04	2.05	-48.1	-64.9	3.5	3.04e+01	0	38	104	0	60	67841
2026-01-02 17:00:33.61	20.02	2.12	-48.1	-65.3	3.5	3.04e+01	0	38	104	0	60	70855
2026-01-02 17:00:34.62	20.00	2.18	-48.1	-65.7	3.5	3.04e+01	0	38	104	0	60	73819
2026-01-02 17:00:35.63	19.98	2.25	-48.1	-65.9	3.5	3.04e+01	0	38	104	0	60	76296
2026-01-02 17:00:36.64	19.96	2.32	-48.1	-65.8	3.5	3.04e+01	0	38	104	0	60	75453
2026-01-02 17:00:37.65	19.93	2.38	-48.1	-65.6	3.5	3.04e+01	0	38	104	0	60	73342
2026-01-02 17:00:38.66	19.91	2.45	-48.1	-65.4	3.5	3.04e+01	0	38	104	0	60	71417
2026-01-02 17:00:39.67	19.89	2.52	-48.1	-65.3	3.5	3.04e+01	0	38	104	0	60	70700
2026-01-02 17:00:40.68	19.87	2.59	-48.1	-65.0	3.5	3.04e+01	0	38	104	0	60	68762
2026-01-02 17:00:41.69	19.85	2.65	-48.1	-64.4	3.5	3.04e+01	0	38	104	0	60	63866
2026-01-02 17:00:42.70	19.83	2.72	-48.0	-63.5	3.8	3.04e+01	0	38	104	0	60	57792
2026-01-02 17:00:43.71	19.81	2.79	-48.0	-63.1	3.6	3.04e+01	0	38	104	0	60	55183
2026-01-02 17:00:44.72	19.78	2.86	-48.0	-62.2	4.3	3.04e+01	0	38	104	0	60	49430
2026-01-02 17:00:45.73	19.76	2.93	-48.0	-62.4	4.1	3.04e+01	0	38	104	0	60	50738
2026-01-02 17:00:46.74	19.74	2.99	-48.0	-63.3	3.8	3.04e+01	0	38	104	0	60	56473
2026-01-02 17:00:47.75	19.72	3.06	-48.1	-64.6	3.5	3.04e+01	0	38	104	0	60	65692
2026-01-02 17:00:48.76	19.69	3.13	-48.1	-65.2	3.5	3.04e+01	0	38	104	0	60	70285
2026-01-02 17:00:49.77	19.67	3.20	-48.0	-62.6	4.2	3.04e+01	0	38	104	0	60	51713
2026-01-02 17:00:50.78	19.65	3.27	-47.7	-58.2	6.6	3.04e+01	90	38	0	524288	60	31325
2026-01-02 17:00:51.79	19.63	3.34	-47.2	-54.7	10.3	3.04e+01	55	38	0	2097152	60	21020
2026-01-02 17:00:52.80	19.60	3.41	-46.6	-52.6	12.7	3.04e+01	59	38	0	4194304	60	16456
2026-01-02 17:00:53.81	19.58	3.48	-46.0	-50.8	14.7	3.04e+01	62	38	0	6291456	60	13387
2026-01-02 17:00:54.82	19.56	3.55	-45.2	-49.2	16.3	3.04e+01	48	38	0	7864320	60	11055
2026-01-02 17:00:55.83	19.53	3.62	-45.0	-48.8	16.7	3.04e+01	57	38	0	9961472	60	10585
2026-01-02 17:00:56.84	19.51	3.69	-44.8	-48.5	16.9	3.04e+01	46	38	0	11534336	60	10198
2026-01-02 17:00:57.85	19.49	3.76	-45.0	-48.8	16.6	3.04e+01	62	38	0	13631488	60	10575
2026-01-02 17:00:58.86	19.46	3.83	-48.1	-64.4	3.5	3.04e+01	0	38	104	15204352	60	63753
2026-01-02 17:00:59.87	19.44	3.90	-39.0	-40.6	24.9	3.04e+01	53	38	0	15204352	54	5819
2026-01-02 17:01:00.88	19.41	3.98	-47.9	-61.1	3.8	3.04e+01	0	38	104	16777216	60	43526
2026-01-02 17:01:01.89	19.39	4.05	-46.4	-52.0	12.2	3.04e+01	62	38	0	16777216	60	15380
2026-01-02 17:01:02.90	19.36	4.12	-44.0	-47.2	17.2	3.04e+01	63	38	0	18874368	58	9853
2026-01-02 17:01:03.91	19.34	4.19	-41.1	-43.0	22.5	3.04e+01	54	38	0	20447232	58	6126
2026-01-02 17:01:04.92	19.31	4.26	-40.5	-42.4	23.4	3.04e+01	47	38	0	22544384	56	6352
2026-01-02 17:01:05.93	19.29	4.33	-40.6	-42.4	23.2	3.04e+01	60	38	0	24117248	56	6419
2026-01-02 17:01:06.94	19.26	4.41	-40.1	-41.9	23.9	3.04e+01	59	38	0	26214400	54	6738
2026-01-02 17:01:07.94	19.24	4.48	-40.2	-41.9	23.8	3.04e+01	46	38	0	28311552	54	6791
2026-01-02 17:01:08.95	19.21	4.55	-40.1	-41.8	23.9	3.04e+01	57	38	0	29884416	54	6708
2026-01-02 17:01:09.96	19.19	4.63	-40.0	-41.7	23.6	3.04e+01	60	38	0	31981568	54	6585
2026-01-02 17:01:10.97	19.16	4.70	-40.0	-41.7	23.6	3.04e+01	56	38	0	33554432	54	6605
2026-01-02 17:01:11.98	19.14	4.77	-40.4	-42.2	23.3	3.04e+01	58	38	0	35651584	54	6978
2026-01-02 17:01:12.99	19.11	4.85	-39.9	-41.6	24.0	3.04e+01	58	38	0	37748736	54	6520
2026-01-02 17:01:14.00	19.08	4.92	-39.3	-40.8	24.7	3.04e+01	59	38	0	39321600	54	5987
2026-01-02 17:01:15.01	19.06	5.00	-39.1	-40.7	24.9	3.04e+01	61	38	0	41418752	52	6599
2026-01-02 17:01:16.02	19.03	5.07	-39.0	-40.6	25.0	3.04e+01	51	38	0	42991616	52	6510
2026-01-02 17:01:17.03	19.00	5.14	-39.3	-40.8	25.1	3.04e+01	58	38	0	45088768	52	6721
2026-01-02 17:01:18.04	18.98	5.22	-39.3	-40.9	25.1	3.04e+01	60	38	0	47185920	52	6745
2026-01-02 17:01:19.05	18.95	5.29	-39.0	-40.6	25.0	3.04e+01	61	38	0	48758784	52	6521
2026-01-02 17:01:20.06	18.92	5.37	-39.4	-41.0	24.8	3.04e+01	56	38	0	50855936	52	6851
2026-01-02 17:01:21.07	18.89	5.45	-38.9	-40.4	25.4	3.04e+01	48	38	0	52428800	52	6369
2026-01-02 17:01:22.08	18.87	5.52	-39.5	-41.2	24.4	3.04e+01	59	38	0	54525952	52	6977
2026-01-02 17:01:23.09	18.84	5.60	-39.3	-40.9	25.0	3.04e+01	57	38	0	56623104	52	6782
2026-01-02 17:01:24.10	18.81	5.67	-38.8	-40.3	25.5	3.04e+01	44	38	0	58195968	52	6334
2026-01-02 17:01:25.10	18.78	5.75	-38.2	-39.7	25.9	3.04e+01	58	38	0	60293120	52	5875
2026-01-02 17:01:26.11	18.75	5.83	-38.6	-40.1	25.8	3.04e+01	60	38	0	62390272	52	6141
2026-01-02 17:01:27.12	18.73	5.90	-38.4	-39.9	25.7	3.04e+01	58	38	0	63963136	52	6003
2026-01-02 17:01:28.13	18.70	5.98	-38.1	-39.5	26.2	3.04e+01	59	38	0	66060288	52	5777
2026-01-02 17:01:29.14	18.67	6.06	-37.9	-39.3	26.5	3.04e+01	52	38	0	67633152	50	6333
2026-01-02 17:01:30.15	18.64	6.14	-38.0	-39.5	26.3	3.04e+01	57	38	0	69730304	50	6429
2026-01-02 17:01:31.16	18.61	6.22	-37.9	-39.3	26.5	3.04e+01	61	38	0	71827456	50	6342
2026-01-02 17:01:32.17	18.58	6.29	-38.0	-39.5	26.4	3.04e+01	44	38	0	73400320	50	6439
2026-01-02 17:01:33.18	18.55	6.37	-38.1	-39.5	26.3	3.04e+01	58	38	0	75497472	50	6462
2026-01-02 17:01:34.19	18.52	6.45	-37.8	-39.2	26.6	3.04e+01	45	38	0	77070336	50	6206
2026-01-02 17:01:35.20	18.49	6.53	-38.1	-39.5	26.4	3.04e+01	61	38	0	79167488	50	6441
2026-01-02 17:01:36.21	18.46	6.61	-38.0	-39.4	26.5	3.04e+01	61	38	0	81264640	50	6358
2026-01-02 17:01:37.22	18.43	6.69	-37.7	-39.1	26.8	3.04e+01	53	38	0	82837504	50	6171
2026-01-02 17:01:38.23	18.40	6.77	-37.7	-39.1	26.7	3.04e+01	56	38	0	84934656	50	6152
2026-01-02 17:01:39.24	18.37	6.85	-37.7	-39.1	26.7	3.04e+01	59	38	0	87031808	50	6149
2026-01-02 17:01:40.24	18.34	6.93	-37.6	-39.0	26.8	3.04e+01	60	38	0	88604672	50	6079
2026-01-02 17:01:41.25	18.30	7.01	-37.8	-39.2	26.8	3.04e+01	61	38	0	90701824	50	6215
2026-01-02 17:01:42.26	18.27	7.09	-37.5	-38.8	27.0	3.04e+01	45	38	0	92274688	50	5971
2026-01-02 17:01:43.27	18.24	7.17	-37.8	-39.2	26.6	3.04e+01	60	38	0	94371840	50	6254
2026-01-02 17:01:44.28	18.21	7.25	-37.6	-39.0	26.8	3.04e+01	58	38	0	96468992	50	6068
2026-01-02 17:01:45.29	18.18	7.34	-37.9	-39.3	26.7	3.04e+01	45	38	0	98041856	50	6301
2026-01-02 17:01:46.30	18.14	7.42	-37.7	-39.1	26.6	3.04e+01	62	38	0	100139008	50	6174
2026-01-02 17:01:47.31	18.11	7.50	-37.9	-39.2	26.8	3.04e+01	57	38	0	101711872	50	6270
2026-01-02 17:01:48.32	18.08	7.58	-37.9	-39.3	26.4	3.04e+01	59	38	0	103809024	50	6293
2026-01-02 17:01:49.33	18.04	7.67	-38.0	-39.4	26.9	3.04e+01	60	38	0	105381888	50	6403
2026-01-02 17:01:50.34	18.01	7.75	-38.1	-39.5	26.5	3.04e+01	57	38	0	107479040	50	6434
2026-01-02 17:01:51.35	17.98	7.83	-37.8	-39.2	26.8	3.04e+01	59	38	0	109576192	50	6218
2026-01-02 17:01:52.36	17.94	7.92	-37.3	-38.7	27.3	3.04e+01	57	38	0	111149056	50	5869
2026-01-02 17:01:53.37	17.91	8.00	-37.3	-38.6	27.4	3.04e+01	54	38	0	113246208	50	5813
2026-01-02 17:01:54.38	17.87	8.09	-37.3	-38.6	27.4	3.04e+01	60	38	0	115343360	50	5836
2026-01-02 17:01:55.38	17.84	8.17	-37.2	-38.5	27.5	3.04e+01	60	38	0	116916224	50	5750
2026-01-02 17:01:56.39	17.81	8.25	-37.1	-38.4	27.5	3.04e+01	59	38	0	119013376	50	5701
2026-01-02 17:01:57.40	17.77	8.34	-37.2	-38.5	27.4	3.04e+01	60	38	0	120586240	50	5783
2026-01-02 17:01:58.41	17.73	8.43	-37.1	-38.5	27.5	3.04e+01	59	38	0	122683392	50	5730
2026-01-02 17:01:59.42	17.70	8.51	-37.4	-38.7	27.3	3.04e+01	61	38	0	124780544	50	5893
2026-01-02 17:02:00.43	17.66	8.60	-37.1	-38.4	27.6	3.04e+01	61	38	0	126353408	50	5700
2026-01-02 17:02:01.44	17.63	8.68	-37.1	-38.4	27.6	3.04e+01	46	38	0	128450560	50	5682
2026-01-02 17:02:02.45	17.59	8.77	-37.2	-38.5	27.5	3.04e+01	59	38	0	130547712	50	5761
2026-01-02 17:02:03.46	17.55	8.86	-37.2	-38.5	27.4	3.04e+01	59	38	0	132120576	50	5791
2026-01-02 17:02:04.46	17.52	8.95	-37.2	-38.5	27.4	3.04e+01	59	38	0	134217728	50	5788
2026-01-02 17:02:05.47	17.48	9.03	-37.3	-38.6	27.5	3.04e+01	56	38	0	135790592	50	5804
2026-01-02 17:02:06.48	17.44	9.12	-37.1	-38.4	27.6	3.04e+01	50	38	0	137887744	50	5691
2026-01-02 17:02:07.49	17.40	9.21	-37.1	-38.4	27.6	3.04e+01	62	38	0	139984896	50	5697
2026-01-02 17:02:08.50	17.37	9.30	-37.0	-38.3	27.7	3.04e+01	56	38	0	141557760	50	5609
2026-01-02 17:02:09.51	17.33	9.39	-37.1	-38.4	27.6	3.04e+01	44	38	0	143654912	50	5689
2026-01-02 17:02:10.52	17.29	9.48	-36.9	-38.2	27.8	3.04e+01	59	38	0	145227776	48	6242
2026-01-02 17:02:11.53	17.25	9.57	-36.8	-38.1	27.8	3.04e+01	52	38	0	147324928	48	6179
2026-01-02 17:02:12.54	17.21	9.66	-36.9	-38.2	27.8	3.04e+01	60	38	0	149422080	48	6230
2026-01-02 17:02:13.55	17.17	9.75	-36.9	-38.2	27.7	3.04e+01	58	38	0	150994944	48	6248
2026-01-02 17:02:14.56	17.13	9.84	-36.7	-38.0	27.9	3.04e+01	47	38	0	153092096	48	6126
2026-01-02 17:02:15.57	17.09	9.93	-36.8	-38.1	27.7	3.04e+01	58	38	0	154664960	48	6199
2026-01-02 17:02:16.58	17.05	10.03	-36.7	-37.9	28.1	3.04e+01	60	38	0	156762112	48	6059
2026-01-02 17:02:17.59	17.01	10.12	-36.7	-38.0	28.0	3.04e+01	59	38	0	158859264	48	6088
2026-01-02 17:02:18.60	16.97	10.21	-36.8	-38.1	27.9	3.04e+01	58	38	0	160432128	48	6149
2026-01-02 17:02:19.60	16.93	10.30	-36.8	-38.1	27.9	3.04e+01	46	38	0	162529280	48	6172
2026-01-02 17:02:20.61	16.89	10.40	-36.6	-37.9	28.1	3.04e+01	60	38	0	164102144	48	6018
2026-01-02 17:02:21.62	16.84	10.49	-36.6	-37.9	28.1	3.04e+01	59	38	0	166199296	48	6010
2026-01-02 17:02:22.63	16.80	10.58	-36.6	-37.9	28.1	3.04e+01	43	38	0	168296448	48	6016
2026-01-02 17:02:23.64	16.76	10.68	-36.5	-37.8	28.2	3.04e+01	56	38	0	169869312	48	5955
2026-01-02 17:02:24.65	16.72	10.77	-36.6	-37.9	28.2	3.04e+01	61	38	0	171966464	48	6004
2026-01-02 17:02:25.66	16.67	10.87	-36.3	-37.6	28.3	3.04e+01	58	38	0	173539328	48	5827
2026-01-02 17:02:26.67	16.63	10.96	-36.4	-37.6	28.3	3.04e+01	51	38	0	175636480	48	5851
2026-01-02 17:02:27.68	16.59	11.06	-36.4	-37.7	28.2	3.04e+01	53	38	0	177733632	48	5894
2026-01-02 17:02:28.69	16.54	11.16	-36.1	-37.4	28.6	3.04e+01	57	38	0	179306496	48	5685
2026-01-02 17:02:29.70	16.50	11.25	-36.3	-37.5	28.4	3.04e+01	57	38	0	181403648	48	5764
2026-01-02 17:02:30.71	16.45	11.35	-36.2	-37.5	28.6	3.04e+01	51	38	0	183500800	48	5727
2026-01-02 17:02:31.71	16.41	11.45	-36.2	-37.4	28.6	3.04e+01	61	38	0	185073664	48	5703
2026-01-02 17:02:32.72	16.36	11.54	-36.2	-37.4	28.5	3.04e+01	59	38	0	187170816	48	5701
2026-01-02 17:02:33.73	16.32	11.64	-36.3	-37.5	28.5	3.04e+01	58	38	0	188743680	48	5771
2026-01-02 17:02:34.74	16.27	11.74	-36.2	-37.5	28.5	3.04e+01	58	38	0	190840832	48	5748
2026-01-02 17:02:35.74	16.22	11.84	-36.2	-37.4	28.6	3.04e+01	46	38	0	192937984	48	5699
2026-01-02 17:02:36.75	16.18	11.94	-36.3	-37.6	28.5	3.04e+01	58	38	0	194510848	48	5797
2026-01-02 17:02:37.76	16.13	12.04	-36.1	-37.3	28.7	3.04e+01	60	38	0	196608000	48	5623
2026-01-02 17:02:38.77	16.08	12.14	-36.1	-37.3	28.7	3.04e+01	47	38	0	198180864	48	5647
2026-01-02 17:02:39.78	16.03	12.24	-36.1	-37.4	28.6	3.04e+01	57	38	0	200278016	48	5686
2026-01-02 17:02:40.79	15.98	12.34	-36.2	-37.4	28.6	3.04e+01	60	38	0	202375168	48	5690
2026-01-02 17:02:41.80	15.93	12.45	-36.1	-37.3	28.7	3.04e+01	63	38	0	203948032	48	5631
2026-01-02 17:02:42.81	15.89	12.55	-36.2	-37.4	28.7	3.04e+01	55	38	0	206045184	48	5688
2026-01-02 17:02:43.82	15.84	12.65	-36.1	-37.3	28.8	3.04e+01	47	38	0	207618048	46	6310
2026-01-02 17:02:44.83	15.79	12.75	-36.1	-37.3	28.7	3.04e+01	56	38	0	209715200	46	6338
2026-01-02 17:02:45.83	15.73	12.86	-36.1	-37.4	28.7	3.04e+01	57	38	0	211812352	46	6382
2026-01-02 17:02:46.84	15.68	12.96	-36.0	-37.2	28.8	3.04e+01	48	38	0	213385216	46	6269
2026-01-02 17:02:47.85	15.63	13.07	-36.0	-37.2	28.9	3.04e+01	57	38	0	215482368	46	6230
2026-01-02 17:02:48.86	15.58	13.17	-36.1	-37.3	28.8	3.04e+01	47	38	0	217055232	46	6330
2026-01-02 17:02:49.87	15.53	13.28	-36.0	-37.2	28.8	3.04e+01	58	39	0	219152384	46	6250
2026-01-02 17:02:50.88	15.48	13.38	-36.0	-37.3	28.8	3.04e+01	59	38	0	221249536	46	6299
2026-01-02 17:02:51.89	15.42	13.49	-36.1	-37.3	28.8	3.04e+01	54	38	0	222822400	46	6324
2026-01-02 17:02:52.90	15.37	13.60	-36.0	-37.2	28.8	3.04e+01	60	38	0	224919552	46	6270
2026-01-02 17:02:53.91	15.31	13.71	-36.1	-37.3	28.7	3.04e+01	60	39	0	227016704	46	6327
2026-01-02 17:02:54.92	15.26	13.81	-36.1	-37.4	28.8	3.04e+01	60	38	0	228589568	46	6367
2026-01-02 17:02:55.93	15.20	13.92	-36.1	-37.3	28.7	3.04e+01	60	38	0	230686720	46	6349
2026-01-02 17:02:56.94	15.15	14.03	-36.1	-37.4	28.7	3.04e+01	55	38	0	232259584	46	6370
2026-01-02 17:02:57.95	15.09	14.14	-36.2	-37.5	28.6	3.04e+01	57	38	0	234356736	46	6443
2026-01-02 17:02:58.96	15.04	14.25	-36.4	-37.6	28.4	3.04e+01	59	38	0	236453888	46	6542
2026-01-02 17:02:59.97	14.98	14.36	-36.2	-37.4	28.7	3.04e+01	46	38	0	238026752	46	6406
2026-01-02 17:03:00.98	14.92	14.47	-36.3	-37.6	28.5	3.04e+01	59	39	0	240123904	46	6533
2026-01-02 17:03:01.99	14.86	14.59	-36.1	-37.4	28.7	3.04e+01	62	38	0	241696768	46	6367
2026-01-02 17:03:03.00	14.81	14.70	-36.1	-37.4	28.7	3.04e+01	59	38	0	243793920	46	6379
2026-01-02 17:03:04.01	14.75	14.81	-36.1	-37.4	28.7	3.04e+01	56	38	0	245891072	46	6375
2026-01-02 17:03:05.02	14.69	14.93	-36.2	-37.4	28.7	3.04e+01	56	38	0	247463936	46	6380
2026-01-02 17:03:06.03	14.63	15.04	-36.3	-37.5	28.7	3.04e+01	58	39	0	249561088	46	6478
2026-01-02 17:03:07.04	14.57	15.15	-35.9	-37.1	29.0	3.04e+01	57	39	0	251658240	46	6171
2026-01-02 17:03:08.05	14.51	15.27	-35.9	-37.1	28.9	3.04e+01	47	39	0	253231104	46	6184
2026-01-02 17:03:09.06	14.44	15.38	-35.8	-37.0	29.1	3.04e+01	59	38	0	255328256	46	6114
2026-01-02 17:03:10.07	14.38	15.50	-35.9	-37.1	29.0	3.04e+01	60	38	0	256901120	46	6182
2026-01-02 17:03:11.07	14.32	15.62	-35.8	-37.1	29.1	3.04e+01	62	38	0	258998272	46	6140
2026-01-02 17:03:12.08	14.26	15.73	-35.9	-37.2	29.1	3.04e+01	62	38	0	261095424	46	6215
2026-01-02 17:03:13.09	14.19	15.85	-35.7	-36.9	29.1	3.04e+01	51	38	0	262668288	46	6060
2026-01-02 17:03:14.10	14.13	15.97	-35.9	-37.2	29.1	3.04e+01	60	38	0	264765440	46	6209
2026-01-02 17:03:15.11	14.06	16.09	-35.6	-36.8	29.3	3.04e+01	57	38	0	266338304	46	5975
2026-01-02 17:03:16.12	14.00	16.21	-35.8	-37.0	29.3	3.04e+01	44	39	0	268435456	46	6078
2026-01-02 17:03:17.13	13.93	16.33	-35.5	-36.7	29.4	3.04e+01	58	39	0	270532608	46	5903
2026-01-02 17:03:18.14	13.87	16.45	-35.4	-36.6	29.5	3.04e+01	56	39	0	272105472	46	5842
2026-01-02 17:03:19.15	13.80	16.57	-35.5	-36.7	29.4	3.04e+01	58	38	0	274202624	46	5865
2026-01-02 17:03:20.16	13.73	16.70	-35.4	-36.6	29.4	3.04e+01	58	38	0	275775488	46	5838
2026-01-02 17:03:21.17	13.66	16.82	-35.4	-36.6	29.5	3.04e+01	51	38	0	277872640	46	5809
2026-01-02 17:03:22.18	13.59	16.94	-35.5	-36.7	29.4	3.04e+01	60	39	0	279969792	46	5904
2026-01-02 17:03:23.19	13.52	17.07	-35.5	-36.7	29.5	3.04e+01	60	38	0	281542656	46	5896
2026-01-02 17:03:24.20	13.45	17.19	-35.7	-36.9	29.2	3.04e+01	54	38	0	283639808	46	6048
2026-01-02 17:03:25.21	13.38	17.32	-35.5	-36.7	29.4	3.04e+01	59	39	0	285212672	46	5919
2026-01-02 17:03:26.22	13.31	17.45	-35.7	-36.9	29.4	3.04e+01	55	38	0	287309824	46	6016
2026-01-02 17:03:27.23	13.24	17.57	-35.7	-36.9	29.3	3.04e+01	60	39	0	289406976	46	6058
2026-01-02 17:03:28.24	13.16	17.70	-35.8	-37.0	29.2	3.04e+01	59	39	0	290979840	46	6123
2026-01-02 17:03:29.25	13.09	17.83	-35.9	-37.1	29.1	3.04e+01	44	39	0	293076992	46	6159
2026-01-02 17:03:30.25	13.02	17.96	-35.9	-37.1	29.1	3.04e+01	61	39	0	295174144	46	6198
2026-01-02 17:03:31.27	12.94	18.09	-36.0	-37.2	29.0	3.04e+01	58	38	0	296747008	46	6231
2026-01-02 17:03:32.28	12.86	18.22	-36.2	-37.4	28.9	3.04e+01	61	39	0	298844160	46	6392
2026-01-02 17:03:33.29	12.79	18.35	-35.9	-37.1	29.1	3.04e+01	60	38	0	300417024	46	6182
2026-01-02 17:03:34.30	12.71	18.48	-36.0	-37.3	29.0	3.04e+01	60	39	0	302514176	46	6286
2026-01-02 17:03:35.31	12.63	18.61	-35.9	-37.1	29.1	3.04e+01	61	39	0	304611328	46	6192
2026-01-02 17:03:36.32	12.55	18.75	-36.0	-37.3	29.0	3.04e+01	57	39	0	306184192	46	6290
2026-01-02 17:03:37.33	12.47	18.88	-35.9	-37.1	29.1	3.04e+01	44	39	0	308281344	46	6171
2026-01-02 17:03:38.33	12.39	19.02	-36.0	-37.2	29.1	3.04e+01	61	39	0	309854208	46	6237
2026-01-02 17:03:39.34	12.31	19.15	-35.8	-37.0	29.2	3.04e+01	57	39	0	311951360	46	6112
2026-01-02 17:03:40.35	12.23	19.29	-35.8	-37.0	29.3	3.04e+01	60	38	0	314048512	46	6105
2026-01-02 17:03:41.36	12.15	19.42	-35.9	-37.1	29.1	3.04e+01	60	39	0	315621376	46	6152
2026-01-02 17:03:42.37	12.06	19.56	-35.9	-37.1	29.1	3.04e+01	61	39	0	317718528	46	6194
2026-01-02 17:03:43.38	11.98	19.70	-35.8	-37.0	29.2	3.04e+01	60	39	0	319815680	46	6113
2026-01-02 17:03:44.39	11.89	19.84	-35.9	-37.1	29.2	3.04e+01	59	39	0	321388544	46	6158
2026-01-02 17:03:45.40	11.81	19.98	-35.9	-37.1	29.2	3.04e+01	51	39	0	323485696	46	6145
2026-01-02 17:03:46.41	11.72	20.12	-35.8	-37.0	29.2	3.04e+01	53	39	0	325058560	46	6101
2026-01-02 17:03:47.42	11.63	20.26	-35.9	-37.1	29.2	3.04e+01	61	38	0	327155712	46	6158
2026-01-02 17:03:48.43	11.54	20.41	-35.8	-37.1	29.2	3.04e+01	58	39	0	329252864	46	6139
2026-01-02 17:03:49.44	11.45	20.55	-36.0	-37.2	29.2	3.04e+01	61	39	0	330825728	46	6240
2026-01-02 17:03:50.45	11.36	20.69	-36.1	-37.3	29.0	3.04e+01	56	39	0	332922880	46	6345
2026-01-02 17:03:51.46	11.27	20.84	-36.1	-37.4	29.0	3.04e+01	60	39	0	334495744	46	6364
2026-01-02 17:03:52.47	11.18	20.99	-36.3	-37.5	28.9	3.04e+01	58	39	0	336592896	46	6474
2026-01-02 17:03:53.48	11.08	21.13	-36.4	-37.6	28.7	3.04e+01	56	39	0	338690048	46	6573
2026-01-02 17:03:54.49	10.99	21.28	-36.4	-37.7	28.7	3.04e+01	58	39	0	340262912	46	6590
2026-01-02 17:03:55.50	10.89	21.43	-36.7	-38.0	28.5	3.04e+01	55	39	0	342360064	46	6814
2026-01-02 17:03:56.51	10.80	21.58	-36.7	-37.9	28.5	3.04e+01	61	39	0	343932928	46	6785
2026-01-02 17:03:57.52	10.70	21.73	-36.8	-38.0	28.4	3.04e+01	59	39	0	346030080	46	6855
2026-01-02 17:03:58.53	10.60	21.88	-36.7	-37.9	28.4	3.04e+01	51	39	0	348127232	46	6795
2026-01-02 17:03:59.54	10.50	22.03	-36.8	-38.1	28.5	3.04e+01	61	38	0	349700096	46	6928
2026-01-02 17:04:00.55	10.40	22.19	-36.7	-37.9	28.4	3.04e+01	62	39	0	351797248	46	6782
2026-01-02 17:04:01.56	10.30	22.34	-36.5	-37.7	28.8	3.04e+01	58	39	0	353370112	46	6626
2026-01-02 17:04:02.57	10.19	22.49	-36.4	-37.6	28.7	3.04e+01	58	39	0	355467264	46	6536
2026-01-02 17:04:03.58	10.09	22.65	-36.3	-37.5	29.0	3.04e+01	45	39	0	357564416	46	6464
2026-01-02 17:04:04.59	9.98	22.81	-36.1	-37.3	29.0	3.04e+01	58	39	0	359137280	46	6324
2026-01-02 17:04:05.60	9.88	22.96	-36.2	-37.5	28.9	3.04e+01	54	39	0	361234432	46	6430
2026-01-02 17:04:06.61	9.77	23.12	-36.4	-37.6	28.9	3.04e+01	44	39	0	363331584	46	6564
2026-01-02 17:04:07.62	9.66	23.28	-36.5	-37.8	28.6	3.04e+01	60	38	0	364904448	46	6665
2026-01-02 17:04:08.63	9.55	23.44	-36.6	-37.9	28.7	3.04e+01	58	39	0	367001600	46	6733
2026-01-02 17:04:09.64	9.44	23.60	-36.6	-37.8	28.7	3.04e+01	60	39	0	368574464	46	6679
2026-01-02 17:04:10.65	9.33	23.77	-36.5	-37.8	28.6	3.04e+01	58	39	0	370671616	46	6654
2026-01-02 17:04:11.66	9.21	23.93	-36.7	-37.9	28.6	3.04e+01	48	39	0	372768768	46	6793
2026-01-02 17:04:12.67	9.10	24.10	-36.5	-37.8	28.7	3.04e+01	60	39	0	374341632	46	6661
2026-01-02 17:04:13.68	8.98	24.26	-36.6	-37.9	28.6	3.04e+01	57	38	0	376438784	46	6732
2026-01-02 17:04:14.68	8.86	24.43	-36.4	-37.7	28.8	3.04e+01	47	39	0	378011648	46	6608
2026-01-02 17:04:15.69	8.75	24.59	-36.6	-37.8	28.7	3.04e+01	59	38	0	380108800	46	6710
2026-01-02 17:04:16.70	8.62	24.76	-36.5	-37.7	28.8	3.04e+01	59	39	0	382205952	46	6610
2026-01-02 17:04:17.71	8.50	24.93	-36.4	-37.6	28.8	3.04e+01	57	39	0	383778816	46	6546
2026-01-02 17:04:18.72	8.38	25.10	-36.3	-37.6	28.9	3.04e+01	57	39	0	385875968	46	6517
2026-01-02 17:04:19.73	8.25	25.27	-36.3	-37.5	28.9	3.04e+01	50	39	0	387973120	46	6487
2026-01-02 17:04:20.74	8.13	25.45	-36.2	-37.4	29.1	3.04e+01	57	39	0	389545984	46	6407
2026-01-02 17:04:21.75	8.00	25.62	-36.2	-37.4	29.0	3.04e+01	61	39	0	391643136	46	6393
2026-01-02 17:04:22.76	7.87	25.80	-36.2	-37.4	29.0	3.04e+01	45	39	0	393216000	46	6396
2026-01-02 17:04:23.77	7.74	25.97	-36.2	-37.4	29.1	3.04e+01	57	39	0	395313152	46	6380
2026-01-02 17:04:24.78	7.61	26.15	-36.2	-37.4	29.0	3.04e+01	54	39	0	396886016	46	6375
2026-01-02 17:04:25.79	7.47	26.33	-36.3	-37.5	29.0	3.04e+01	60	39	0	398983168	46	6459
2026-01-02 17:04:26.80	7.34	26.51	-36.3	-37.5	28.9	3.04e+01	58	39	0	401080320	46	6497
2026-01-02 17:04:27.81	7.20	26.69	-36.3	-37.5	29.0	3.04e+01	55	39	0	402653184	46	6460
2026-01-02 17:04:28.82	7.06	26.87	-36.2	-37.4	29.1	3.04e+01	60	39	0	404750336	46	6390
2026-01-02 17:04:29.83	6.92	27.05	-36.3	-37.5	29.0	3.04e+01	59	39	0	406323200	46	6487
2026-01-02 17:04:30.84	6.78	27.24	-36.1	-37.4	29.1	3.04e+01	61	39	0	408420352	46	6358
2026-01-02 17:04:31.85	6.64	27.42	-36.0	-37.2	29.3	3.04e+01	60	39	0	410517504	46	6244
2026-01-02 17:04:32.86	6.49	27.61	-36.1	-37.3	29.1	3.04e+01	61	39	0	412090368	46	6349
2026-01-02 17:04:33.87	6.34	27.79	-36.0	-37.2	29.3	3.04e+01	59	39	0	414187520	46	6232
2026-01-02 17:04:34.87	6.19	27.98	-36.0	-37.3	29.2	3.04e+01	59	39	0	416284672	46	6287
2026-01-02 17:04:35.88	6.04	28.17	-36.1	-37.3	29.2	3.04e+01	49	39	0	417857536	46	6316
2026-01-02 17:04:36.89	5.89	28.36	-35.8	-37.0	29.4	3.04e+01	59	39	0	419954688	46	6133
2026-01-02 17:04:37.90	5.73	28.55	-35.6	-36.8	29.6	3.04e+01	58	39	0	421527552	46	5957
2026-01-02 17:04:38.91	5.58	28.75	-35.7	-36.9	29.6	3.04e+01	62	39	0	423624704	46	6013
2026-01-02 17:04:39.92	5.42	28.94	-35.4	-36.6	29.8	3.04e+01	58	39	0	425721856	46	5796
2026-01-02 17:04:40.93	5.26	29.14	-35.5	-36.7	29.6	3.04e+01	44	39	0	427294720	46	5883
2026-01-02 17:04:41.94	5.09	29.33	-35.6	-36.8	29.6	3.04e+01	59	39	0	429391872	46	5936
2026-01-02 17:04:42.95	4.93	29.53	-35.6	-36.8	29.7	3.04e+01	62	39	0	431489024	46	5928
2026-01-02 17:04:43.96	4.76	29.73	-35.7	-36.9	29.5	3.04e+01	37	39	0	433061888	46	6037
2026-01-02 17:04:44.97	4.59	29.93	-35.8	-37.0	29.5	3.04e+01	57	39	0	435159040	46	6070
2026-01-02 17:04:45.98	4.42	30.13	-35.6	-36.8	29.7	3.04e+01	58	39	0	436731904	46	5961
2026-01-02 17:04:46.98	4.24	30.33	-35.5	-36.7	29.7	3.04e+01	58	39	0	438829056	46	5867
2026-01-02 17:04:48.00	4.06	30.54	-35.4	-36.6	29.8	3.04e+01	60	39	0	440926208	46	5844
2026-01-02 17:04:49.00	3.89	30.74	-35.5	-36.7	29.7	3.04e+01	58	39	0	442499072	46	5907
2026-01-02 17:04:50.01	3.71	30.95	-35.9	-37.1	29.4	3.04e+01	59	39	0	444596224	46	6135
2026-01-02 17:04:51.02	3.52	31.16	-35.5	-36.7	29.8	3.04e+01	59	39	0	446169088	46	5878
2026-01-02 17:04:52.03	3.33	31.37	-35.5	-36.7	29.7	3.04e+01	49	39	0	448266240	46	5916
2026-01-02 17:04:53.04	3.15	31.58	-35.8	-37.0	29.5	3.04e+01	62	39	0	450363392	46	6071
2026-01-02 17:04:54.05	2.95	31.79	-35.9	-37.1	29.4	3.04e+01	61	39	0	451936256	46	6139
2026-01-02 17:04:55.06	2.76	32.00	-35.9	-37.1	29.4	3.04e+01	61	39	0	454033408	46	6205
2026-01-02 17:04:56.07	2.56	32.22	-35.8	-37.0	29.4	3.04e+01	59	39	0	455606272	46	6113
2026-01-02 17:04:57.08	2.36	32.43	-35.5	-36.7	29.7	3.04e+01	46	39	0	457703424	46	5904
2026-01-02 17:04:58.09	2.16	32.65	-35.6	-36.8	29.7	3.04e+01	63	39	0	459800576	46	5931
2026-01-02 17:04:59.10	1.95	32.87	-35.5	-36.7	29.7	3.04e+01	63	39	0	461373440	46	5873
2026-01-02 17:05:00.11	1.75	33.09	-35.8	-37.0	29.5	3.04e+01	48	39	0	463470592	46	6065
2026-01-02 17:05:01.12	1.53	33.31	-36.1	-37.3	29.2	3.04e+01	56	39	0	465043456	46	6293
2026-01-02 17:05:02.13	1.32	33.53	-35.9	-37.1	29.4	3.04e+01	61	39	0	467140608	46	6184
2026-01-02 17:05:03.14	1.10	33.76	-36.0	-37.2	29.3	3.04e+01	56	39	0	469237760	46	6245
2026-01-02 17:05:04.15	0.88	33.98	-35.8	-37.0	29.5	3.04e+01	58	39	0	470810624	46	6092
2026-01-02 17:05:05.16	0.66	34.21	-35.8	-37.0	29.5	3.04e+01	51	39	0	472907776	46	6111
2026-01-02 17:05:06.17	0.43	34.43	-36.1	-37.3	29.2	3.04e+01	53	39	0	474480640	46	6329
2026-01-02 17:05:07.17	0.20	34.66	-36.3	-37.5	29.0	3.04e+01	60	39	0	476577792	46	6490
2026-01-02 17:05:08.18	359.97	34.89	-36.4	-37.7	28.9	3.04e+01	61	39	0	478674944	46	6595
2026-01-02 17:05:09.19	359.73	35.12	-36.6	-37.8	28.8	3.04e+01	58	39	0	480247808	46	6710
2026-01-02 17:05:10.20	359.49	35.35	-36.8	-38.1	28.5	3.04e+01	55	39	0	482344960	46	6904
2026-01-02 17:05:11.21	359.25	35.58	-36.9	-38.1	28.5	3.04e+01	60	39	0	484442112	48	6195
2026-01-02 17:05:12.22	359.00	35.82	-36.6	-37.8	28.8	3.04e+01	60	39	0	486014976	48	5950
2026-01-02 17:05:13.23	358.74	36.05	-36.7	-37.9	28.6	3.04e+01	52	39	0	488112128	48	6064
2026-01-02 17:05:14.24	358.49	36.29	-37.1	-38.3	28.2	3.04e+01	60	39	0	489684992	48	6322
2026-01-02 17:05:15.25	358.23	36.53	-37.5	-38.8	27.8	3.04e+01	58	39	0	491782144	48	6711
2026-01-02 17:05:16.26	357.97	36.77	-37.5	-38.8	27.9	3.04e+01	57	39	0	493879296	48	6697
2026-01-02 17:05:17.27	357.70	37.01	-37.6	-38.9	27.9	3.04e+01	60	39	0	495452160	48	6747
2026-01-02 17:05:18.28	357.43	37.25	-37.5	-38.8	27.8	3.04e+01	44	39	0	497549312	48	6708
2026-01-02 17:05:19.29	357.15	37.49	-37.6	-38.9	27.9	3.04e+01	59	39	0	499646464	48	6753
2026-01-02 17:05:20.30	356.87	37.74	-37.4	-38.7	28.0	3.04e+01	60	39	0	501219328	48	6608
2026-01-02 17:05:21.31	356.59	37.98	-37.5	-38.8	28.0	3.04e+01	46	39	0	503316480	48	6667
2026-01-02 17:05:22.31	356.30	38.23	-37.3	-38.5	28.2	3.04e+01	59	39	0	504889344	48	6491
2026-01-02 17:05:23.32	356.01	38.47	-37.9	-39.2	27.6	3.04e+01	61	39	0	506986496	48	7038
2026-01-02 17:05:24.33	355.71	38.72	-38.2	-39.5	27.3	3.04e+01	58	39	0	509083648	50	6445
2026-01-02 17:05:25.34	355.40	38.97	-37.9	-39.2	27.6	3.04e+01	56	39	0	510656512	50	6258
2026-01-02 17:05:26.35	355.10	39.22	-37.8	-39.1	27.6	3.04e+01	62	39	0	512753664	50	6166
2026-01-02 17:05:27.36	354.78	39.47	-37.8	-39.1	27.7	3.04e+01	58	39	0	514326528	50	6193
2026-01-02 17:05:28.37	354.47	39.73	-38.0	-39.4	27.5	3.04e+01	59	39	0	516423680	50	6355
2026-01-02 17:05:29.38	354.14	39.98	-37.8	-39.1	27.7	3.04e+01	52	39	0	518520832	50	6159
2026-01-02 17:05:30.39	353.81	40.23	-37.9	-39.2	27.5	3.04e+01	60	39	0	520093696	50	6257
2026-01-02 17:05:31.40	353.48	40.49	-38.0	-39.3	27.6	3.04e+01	60	39	0	522190848	50	6290
2026-01-02 17:05:32.41	353.14	40.74	-38.1	-39.4	27.4	3.04e+01	60	39	0	523763712	50	6408
2026-01-02 17:05:33.42	352.80	41.00	-38.0	-39.3	27.6	3.04e+01	57	39	0	525860864	50	6336
2026-01-02 17:05:34.43	352.45	41.26	-37.4	-38.6	28.1	3.04e+01	47	39	0	527958016	50	5832
2026-01-02 17:05:35.44	352.09	41.52	-37.4	-38.7	28.1	3.04e+01	60	39	0	529530880	50	5869
2026-01-02 17:05:36.45	351.73	41.77	-37.6	-38.9	27.9	3.04e+01	59	39	0	531628032	50	6020
2026-01-02 17:05:37.46	351.36	42.03	-37.5	-38.8	28.0	3.04e+01	47	39	0	533200896	50	5960
2026-01-02 17:05:38.47	350.99	42.29	-37.6	-38.9	27.9	3.04e+01	60	39	0	535298048	50	6007
2026-01-02 17:05:39.48	350.61	42.55	-37.3	-38.6	28.1	3.04e+01	57	39	0	537395200	50	5839
2026-01-02 17:05:40.49	350.22	42.82	-37.2	-38.5	28.2	3.04e+01	60	39	0	538968064	50	5734
2026-01-02 17:05:41.50	349.83	43.08	-37.2	-38.5	28.3	3.04e+01	59	39	0	541065216	50	5759
2026-01-02 17:05:42.51	349.43	43.34	-36.9	-38.1	28.5	3.04e+01	50	39	0	542638080	48	6204
2026-01-02 17:05:43.52	349.02	43.60	-37.1	-38.3	28.4	3.04e+01	59	39	0	544735232	48	6332
2026-01-02 17:05:44.53	348.61	43.86	-37.1	-38.3	28.3	3.04e+01	55	39	0	546832384	48	6345
2026-01-02 17:05:45.54	348.18	44.12	-36.9	-38.1	28.6	3.04e+01	58	39	0	548405248	48	6199
2026-01-02 17:05:46.55	347.76	44.39	-36.8	-38.1	28.6	3.04e+01	58	39	0	550502400	48	6153
2026-01-02 17:05:47.56	347.32	44.65	-36.9	-38.2	28.5	3.04e+01	48	39	0	552599552	48	6215
2026-01-02 17:05:48.57	346.88	44.91	-37.2	-38.5	28.3	3.04e+01	57	39	0	554172416	48	6442
2026-01-02 17:05:49.58	346.43	45.18	-37.1	-38.4	28.3	3.04e+01	61	39	0	556269568	48	6353
2026-01-02 17:05:50.59	345.97	45.44	-37.0	-38.3	28.4	3.04e+01	44	39	0	557842432	48	6286
2026-01-02 17:05:51.60	345.51	45.70	-37.3	-38.5	28.2	3.04e+01	61	39	0	559939584	48	6470
2026-01-02 17:05:52.61	345.03	45.96	-37.3	-38.5	28.2	3.04e+01	62	39	0	562036736	48	6485
2026-01-02 17:05:53.62	344.55	46.22	-37.1	-38.4	28.3	3.04e+01	62	39	0	563609600	48	6351
2026-01-02 17:05:54.62	344.07	46.48	-37.0	-38.3	28.4	3.04e+01	57	39	0	565706752	48	6293
2026-01-02 17:05:55.63	343.57	46.74	-36.9	-38.1	28.5	3.04e+01	52	39	0	567803904	48	6190
2026-01-02 17:05:56.65	343.06	47.00	-37.0	-38.3	28.5	3.04e+01	59	39	0	569376768	48	6307
2026-01-02 17:05:57.66	342.54	47.26	-37.4	-38.7	28.1	3.04e+01	59	39	0	571473920	48	6622
2026-01-02 17:05:58.67	342.02	47.52	-37.5	-38.8	28.0	3.04e+01	45	39	0	573046784	48	6681
2026-01-02 17:05:59.67	341.49	47.77	-37.1	-38.3	28.3	3.04e+01	59	39	0	575143936	48	6340
2026-01-02 17:06:00.68	340.95	48.03	-37.2	-38.4	28.2	3.04e+01	61	39	0	577241088	48	6421
2026-01-02 17:06:01.69	340.40	48.28	-37.2	-38.5	28.2	3.04e+01	61	39	0	578813952	48	6444
2026-01-02 17:06:02.70	339.84	48.54	-37.0	-38.3	28.4	3.04e+01	59	39	0	580911104	48	6308
2026-01-02 17:06:03.71	339.27	48.79	-37.0	-38.3	28.4	3.04e+01	45	39	0	582483968	48	6301
2026-01-02 17:06:04.72	338.69	49.04	-37.3	-38.6	28.1	3.04e+01	60	39	0	584581120	48	6555
2026-01-02 17:06:05.73	338.10	49.29	-37.3	-38.6	28.2	3.04e+01	60	39	0	586153984	48	6531
2026-01-02 17:06:06.74	337.50	49.53	-36.8	-38.1	28.6	3.04e+01	44	39	0	588251136	48	6136
2026-01-02 17:06:07.75	336.89	49.78	-37.2	-38.4	28.3	3.04e+01	60	39	0	590348288	48	6418
2026-01-02 17:06:08.76	336.27	50.02	-37.1	-38.4	28.3	3.04e+01	60	39	0	591921152	48	6397
2026-01-02 17:06:09.77	335.64	50.26	-37.2	-38.4	28.2	3.04e+01	59	39	0	594018304	48	6415
2026-01-02 17:06:10.77	335.01	50.50	-37.1	-38.4	28.3	3.04e+01	62	39	0	596115456	48	6385
2026-01-02 17:06:11.78	334.36	50.73	-37.5	-38.8	28.0	3.04e+01	50	39	0	597688320	48	6670
2026-01-02 17:06:12.79	333.70	50.97	-37.0	-38.2	28.4	3.04e+01	57	39	0	599785472	48	6244
2026-01-02 17:06:13.80	333.03	51.20	-36.6	-37.9	28.7	3.04e+01	57	39	0	601358336	48	6010
2026-01-02 17:06:14.81	332.35	51.42	-36.3	-37.5	29.0	3.04e+01	52	39	0	603455488	48	5760
2026-01-02 17:06:15.82	331.66	51.65	-36.4	-37.7	28.9	3.04e+01	58	39	0	605552640	48	5869
2026-01-02 17:06:16.83	330.96	51.87	-36.4	-37.6	29.0	3.04e+01	46	39	0	607125504	48	5824
2026-01-02 17:06:17.84	330.25	52.08	-36.2	-37.5	29.0	3.04e+01	57	39	0	609222656	48	5731
2026-01-02 17:06:18.85	329.53	52.30	-36.2	-37.4	29.1	3.04e+01	60	39	0	610795520	48	5694
2026-01-02 17:06:19.86	328.80	52.51	-36.8	-38.1	28.5	3.04e+01	56	39	0	612892672	48	6148
2026-01-02 17:06:20.87	328.05	52.71	-36.4	-37.6	29.0	3.04e+01	63	39	0	614989824	48	5823
2026-01-02 17:06:21.88	327.30	52.91	-36.0	-37.2	29.3	3.04e+01	61	39	0	616562688	46	6274
2026-01-02 17:06:22.89	326.53	53.11	-36.2	-37.4	29.1	3.04e+01	51	39	0	618659840	46	6397
2026-01-02 17:06:23.90	325.76	53.30	-36.5	-37.8	28.8	3.04e+01	61	39	0	620756992	46	6658
2026-01-02 17:06:24.91	324.97	53.49	-36.0	-37.2	29.3	3.04e+01	48	39	0	622329856	46	6255
2026-01-02 17:06:25.92	324.18	53.67	-36.0	-37.2	29.3	3.04e+01	57	39	0	624427008	46	6277
2026-01-02 17:06:26.93	323.37	53.85	-36.4	-37.6	29.0	3.04e+01	58	39	0	625999872	46	6539
2026-01-02 17:06:27.94	322.56	54.03	-36.1	-37.3	29.3	3.04e+01	44	39	0	628097024	46	6288
2026-01-02 17:06:28.95	321.73	54.19	-36.1	-37.4	29.2	3.04e+01	61	39	0	630194176	46	6352
2026-01-02 17:06:29.96	320.90	54.36	-36.2	-37.5	29.1	3.04e+01	59	39	0	631767040	46	6429
2026-01-02 17:06:30.97	320.05	54.51	-36.3	-37.5	29.1	3.04e+01	57	39	0	633864192	46	6448
2026-01-02 17:06:31.98	319.20	54.66	-36.4	-37.6	29.0	3.04e+01	57	39	0	635961344	46	6521
2026-01-02 17:06:32.99	318.33	54.81	-36.5	-37.8	28.9	3.04e+01	56	39	0	637534208	46	6660
2026-01-02 17:06:34.00	317.46	54.95	-36.2	-37.4	29.1	3.04e+01	57	39	0	639631360	46	6404
2026-01-02 17:06:35.01	316.58	55.08	-36.8	-38.0	28.6	3.04e+01	59	39	0	641204224	46	6877
2026-01-02 17:06:36.02	315.69	55.21	-36.2	-37.4	29.2	3.04e+01	46	39	0	643301376	46	6351
2026-01-02 17:06:37.03	314.80	55.33	-36.5	-37.8	28.8	3.04e+01	60	39	0	645398528	46	6673
2026-01-02 17:06:38.04	313.89	55.44	-36.8	-38.0	28.5	3.04e+01	59	39	0	646971392	46	6855
2026-01-02 17:06:39.05	312.98	55.54	-36.9	-38.1	28.5	3.04e+01	61	39	0	649068544	48	6168
2026-01-02 17:06:40.06	312.07	55.64	-37.0	-38.3	28.3	3.04e+01	56	39	0	650641408	48	6317
2026-01-02 17:06:41.07	311.14	55.74	-36.9	-38.2	28.6	3.04e+01	61	39	0	652738560	48	6227
2026-01-02 17:06:42.08	310.21	55.82	-37.3	-38.6	28.1	3.04e+01	57	39	0	654311424	48	6521
2026-01-02 17:06:43.09	309.28	55.90	-37.4	-38.7	28.1	3.04e+01	58	39	0	656408576	48	6614
2026-01-02 17:06:44.09	308.35	55.97	-37.3	-38.6	28.1	3.04e+01	48	39	0	658505728	48	6539
2026-01-02 17:06:45.10	307.40	56.03	-36.6	-37.8	28.8	3.04e+01	59	39	0	660078592	48	5991
2026-01-02 17:06:46.11	306.45	56.09	-36.9	-38.1	28.5	3.04e+01	62	39	0	662175744	48	6162
2026-01-02 17:06:47.13	305.49	56.14	-37.6	-38.9	27.8	3.04e+01	62	39	0	664272896	48	6731
2026-01-02 17:06:48.13	304.54	56.17	-37.2	-38.5	28.0	3.04e+01	61	39	0	665845760	48	6457
2026-01-02 17:06:49.14	303.58	56.21	-38.0	-39.4	27.5	3.04e+01	52	39	0	667942912	50	6376
2026-01-02 17:06:50.15	302.62	56.23	-37.5	-38.8	28.0	3.04e+01	60	39	0	669515776	50	5937
2026-01-02 17:06:51.16	301.66	56.25	-37.0	-38.2	28.4	3.04e+01	58	39	0	671612928	50	5581
2026-01-02 17:06:52.17	300.70	56.26	-37.3	-38.6	28.1	3.04e+01	53	39	0	673710080	50	5831
2026-01-02 17:06:53.18	299.74	56.26	-37.4	-38.7	28.0	3.04e+01	59	39	0	675282944	48	6608
2026-01-02 17:06:54.19	298.77	56.25	-36.8	-38.0	28.6	3.04e+01	57	39	0	677380096	48	6133
2026-01-02 17:06:55.20	297.81	56.24	-36.1	-37.2	28.8	3.04e+01	58	39	0	678952960	46	6269
2026-01-02 17:06:56.21	296.85	56.22	-38.0	-39.4	27.1	3.04e+01	58	39	0	681050112	48	7149
2026-01-02 17:06:57.22	295.89	56.19	-37.3	-38.6	27.7	3.04e+01	52	39	0	683147264	48	6552
2026-01-02 17:06:58.23	294.93	56.15	-36.2	-37.3	29.0	3.04e+01	57	39	0	684720128	48	5646
2026-01-02 17:06:59.24	293.98	56.10	-37.6	-38.9	27.3	3.04e+01	59	39	0	686817280	48	6737
2026-01-02 17:07:00.25	293.03	56.05	-39.0	-40.6	25.3	3.04e+01	59	39	0	688914432	50	7300
2026-01-02 17:07:01.26	292.08	55.99	-38.3	-39.7	26.8	3.04e+01	62	39	0	690487296	50	6625
2026-01-02 17:07:02.27	291.14	55.92	-37.1	-38.3	28.6	3.04e+01	43	39	0	692584448	48	6350
2026-01-02 17:07:03.28	290.20	55.85	-36.9	-38.1	28.5	3.04e+01	60	39	0	694157312	48	6194
2026-01-02 17:07:04.29	289.27	55.76	-37.6	-38.9	27.6	3.04e+01	55	39	0	696254464	50	6004
2026-01-02 17:07:05.30	288.34	55.67	-37.4	-38.6	27.9	3.04e+01	44	39	0	698351616	50	5857
2026-01-02 17:07:06.31	287.42	55.58	-38.3	-39.6	26.9	3.04e+01	59	39	0	699924480	50	6558
2026-01-02 17:07:07.32	286.51	55.47	-39.4	-40.9	26.0	3.04e+01	56	39	0	702021632	52	6792
2026-01-02 17:07:08.33	285.60	55.36	-38.0	-39.3	27.4	3.04e+01	57	39	0	703594496	50	6345
2026-01-02 17:07:09.33	284.71	55.24	-38.4	-39.8	27.2	3.04e+01	59	39	0	705691648	50	6695
2026-01-02 17:07:10.35	283.81	55.12	-38.2	-39.6	27.4	3.04e+01	56	39	0	707788800	50	6519
2026-01-02 17:07:11.36	282.93	54.99	-38.1	-39.5	27.3	3.04e+01	60	39	0	709361664	50	6451
2026-01-02 17:07:12.37	282.05	54.85	-37.3	-38.6	28.1	3.04e+01	61	39	0	711458816	50	5820
2026-01-02 17:07:13.37	281.20	54.71	-38.6	-40.0	26.8	3.04e+01	53	39	0	713031680	50	6812
2026-01-02 17:07:14.38	280.34	54.56	-39.0	-40.4	26.2	3.04e+01	59	39	0	715128832	52	6379
2026-01-02 17:07:15.39	279.49	54.40	-37.9	-39.3	27.3	3.04e+01	58	39	0	717225984	50	6287
2026-01-02 17:07:16.40	278.65	54.24	-38.2	-39.5	27.4	3.04e+01	63	39	0	718798848	50	6498
2026-01-02 17:07:17.41	277.82	54.08	-37.6	-38.9	27.7	3.04e+01	58	39	0	720896000	50	6056
2026-01-02 17:07:18.42	277.00	53.91	-37.9	-39.2	27.6	3.04e+01	46	39	0	722468864	50	6231
2026-01-02 17:07:19.43	276.19	53.73	-37.0	-38.3	28.3	3.04e+01	57	39	0	724566016	50	5636
2026-01-02 17:07:20.44	275.39	53.55	-36.2	-37.5	29.1	3.04e+01	58	39	0	726663168	46	6453
2026-01-02 17:07:21.45	274.60	53.36	-36.8	-38.0	28.8	3.04e+01	45	39	0	728236032	46	6883
2026-01-02 17:07:22.46	273.82	53.17	-36.4	-37.7	28.9	3.04e+01	58	39	0	730333184	46	6579
2026-01-02 17:07:23.47	273.05	52.97	-36.0	-37.2	29.3	3.04e+01	55	39	0	732430336	46	6277
2026-01-02 17:07:24.48	272.30	52.77	-35.6	-36.8	29.7	3.04e+01	60	39	0	734003200	46	5980
2026-01-02 17:07:25.49	271.55	52.57	-36.1	-37.3	29.2	3.04e+01	61	39	0	736100352	46	6312
2026-01-02 17:07:26.49	270.82	52.36	-36.1	-37.3	29.3	3.04e+01	56	39	0	737673216	46	6316
2026-01-02 17:07:27.50	270.09	52.15	-35.6	-36.7	29.7	3.04e+01	57	39	0	739770368	46	5921
2026-01-02 17:07:28.51	269.37	51.93	-35.9	-37.1	29.4	3.04e+01	60	39	0	741867520	46	6202
2026-01-02 17:07:29.52	268.67	51.71	-36.2	-37.4	29.1	3.04e+01	61	39	0	743440384	46	6381
2026-01-02 17:07:30.53	267.97	51.49	-36.3	-37.5	29.2	3.04e+01	60	39	0	745537536	46	6440
2026-01-02 17:07:31.54	267.29	51.26	-36.0	-37.2	29.4	3.04e+01	51	39	0	747110400	46	6256
2026-01-02 17:07:32.55	266.61	51.03	-35.4	-36.6	29.8	3.04e+01	62	39	0	749207552	46	5818
2026-01-02 17:07:33.56	265.95	50.80	-35.8	-37.0	29.4	3.04e+01	60	39	0	751304704	46	6071
2026-01-02 17:07:34.57	265.30	50.57	-36.1	-37.3	29.4	3.04e+01	48	39	0	752877568	46	6297
2026-01-02 17:07:35.57	264.66	50.33	-36.2	-37.5	29.2	3.04e+01	61	39	0	754974720	46	6428
2026-01-02 17:07:36.58	264.03	50.09	-35.5	-36.7	29.7	3.04e+01	61	39	0	757071872	46	5907
2026-01-02 17:07:37.59	263.40	49.85	-35.7	-36.9	29.6	3.04e+01	59	39	0	758644736	46	6010
2026-01-02 17:07:38.60	262.79	49.60	-35.9	-37.1	29.5	3.04e+01	58	39	0	760741888	46	6184
2026-01-02 17:07:39.61	262.19	49.36	-36.3	-37.6	29.1	3.04e+01	47	39	0	762314752	46	6510
2026-01-02 17:07:40.62	261.59	49.11	-35.9	-37.1	29.4	3.04e+01	58	39	0	764411904	46	6195
2026-01-02 17:07:41.63	261.01	48.86	-35.8	-37.0	29.5	3.04e+01	56	39	0	766509056	46	6081
2026-01-02 17:07:42.64	260.44	48.61	-36.1	-37.4	29.2	3.04e+01	44	39	0	768081920	46	6372
2026-01-02 17:07:43.65	259.87	48.35	-36.4	-37.6	29.1	3.04e+01	59	39	0	770179072	46	6531
2026-01-02 17:07:44.66	259.32	48.10	-35.8	-37.0	29.3	3.04e+01	58	39	0	771751936	46	6121
2026-01-02 17:07:45.67	258.77	47.84	-35.8	-37.0	29.5	3.04e+01	51	39	0	773849088	46	6094
2026-01-02 17:07:46.68	258.24	47.58	-36.4	-37.6	29.0	3.04e+01	59	39	0	775946240	46	6529
2026-01-02 17:07:47.69	257.71	47.33	-36.3	-37.5	29.1	3.04e+01	51	39	0	777519104	46	6425
2026-01-02 17:07:48.70	257.19	47.07	-36.6	-37.9	28.9	3.04e+01	58	39	0	779616256	46	6732
2026-01-02 17:07:49.71	256.68	46.81	-35.8	-37.0	29.5	3.04e+01	56	39	0	781189120	46	6097
2026-01-02 17:07:50.72	256.18	46.55	-35.7	-36.9	29.6	3.04e+01	45	39	0	783286272	46	5996
2026-01-02 17:07:51.73	255.68	46.28	-35.6	-36.7	29.7	3.04e+01	58	39	0	785383424	46	5920
2026-01-02 17:07:52.74	255.20	46.02	-36.1	-37.3	29.3	3.04e+01	58	39	0	786956288	46	6325
2026-01-02 17:07:53.75	254.72	45.76	-36.3	-37.5	29.0	3.04e+01	56	39	0	789053440	46	6455
2026-01-02 17:07:54.76	254.25	45.50	-35.7	-36.9	29.6	3.04e+01	58	39	0	790626304	46	6006
2026-01-02 17:07:55.77	253.79	45.23	-35.5	-36.6	29.8	3.04e+01	51	39	0	792723456	46	5830
2026-01-02 17:07:56.78	253.34	44.97	-35.9	-37.1	29.5	3.04e+01	58	39	0	794820608	46	6194
2026-01-02 17:07:57.79	252.89	44.71	-36.2	-37.4	29.2	3.04e+01	60	39	0	796393472	46	6408
2026-01-02 17:07:58.80	252.45	44.44	-36.4	-37.7	29.0	3.04e+01	52	39	0	798490624	46	6574
2026-01-02 17:07:59.81	252.02	44.18	-36.3	-37.5	29.0	3.04e+01	59	39	0	800587776	46	6468
2026-01-02 17:08:00.81	251.60	43.92	-36.4	-37.6	29.0	3.04e+01	58	39	0	802160640	46	6522
2026-01-02 17:08:01.83	251.18	43.65	-36.1	-37.3	29.2	3.04e+01	57	39	0	804257792	46	6314
2026-01-02 17:08:02.83	250.78	43.39	-36.3	-37.6	29.1	3.04e+01	61	39	0	805830656	46	6508
2026-01-02 17:08:03.84	250.37	43.13	-36.6	-37.8	28.9	3.04e+01	52	39	0	807927808	46	6700
2026-01-02 17:08:04.85	249.98	42.87	-36.7	-37.9	28.7	3.04e+01	61	39	0	810024960	46	6760
2026-01-02 17:08:05.86	249.59	42.61	-36.8	-38.0	28.6	3.04e+01	61	39	0	811597824	46	6866
2026-01-02 17:08:06.87	249.20	42.34	-37.1	-38.3	28.5	3.04e+01	61	39	0	813694976	48	6333
2026-01-02 17:08:07.88	248.83	42.08	-36.8	-38.0	28.7	3.04e+01	59	39	0	815267840	48	6084
2026-01-02 17:08:08.89	248.46	41.82	-37.2	-38.4	28.3	3.04e+01	46	39	0	817364992	48	6419
2026-01-02 17:08:09.90	248.09	41.56	-37.3	-38.6	28.2	3.04e+01	60	39	0	819462144	48	6537
2026-01-02 17:08:10.91	247.73	41.30	-37.5	-38.8	27.9	3.04e+01	59	39	0	821035008	48	6654
2026-01-02 17:08:11.92	247.38	41.05	-37.9	-39.3	27.8	3.04e+01	53	39	0	823132160	48	7045
2026-01-02 17:08:12.93	247.03	40.79	-37.6	-38.9	27.6	3.04e+01	59	39	0	824705024	48	6761
2026-01-02 17:08:13.94	246.69	40.53	-37.4	-38.6	28.0	3.04e+01	58	39	0	826802176	48	6527
2026-01-02 17:08:14.95	246.36	40.28	-37.3	-38.6	28.1	3.04e+01	58	39	0	828899328	48	6507
2026-01-02 17:08:15.95	246.03	40.02	-38.0	-39.3	27.5	3.04e+01	62	39	0	830472192	48	7075
2026-01-02 17:08:16.97	245.70	39.77	-38.1	-39.4	27.4	3.04e+01	46	39	0	832569344	50	6387
2026-01-02 17:08:17.97	245.38	39.52	-38.1	-39.4	27.5	3.04e+01	59	39	0	834142208	50	6382
2026-01-02 17:08:18.98	245.07	39.26	-38.2	-39.4	27.2	3.04e+01	59	39	0	836239360	50	6418
2026-01-02 17:08:19.99	244.76	39.01	-38.9	-40.4	26.5	3.04e+01	45	39	0	838336512	50	7145
2026-01-02 17:08:21.00	244.45	38.76	-38.3	-39.7	27.2	3.04e+01	58	39	0	839909376	52	5877
2026-01-02 17:08:22.01	244.15	38.51	-37.5	-38.8	27.9	3.04e+01	61	39	0	842006528	50	5961
2026-01-02 17:08:23.02	243.86	38.26	-38.0	-39.3	27.6	3.04e+01	60	39	0	843579392	50	6286
2026-01-02 17:08:24.03	243.56	38.02	-38.6	-40.0	26.9	3.04e+01	60	39	0	845676544	50	6851
2026-01-02 17:08:25.04	243.28	37.77	-38.5	-39.8	26.9	3.04e+01	47	39	0	847773696	50	6715
2026-01-02 17:08:26.05	242.99	37.52	-38.2	-39.6	27.2	3.04e+01	62	39	0	849346560	50	6514
2026-01-02 17:08:27.06	242.72	37.28	-38.5	-39.9	27.0	3.04e+01	60	39	0	851443712	50	6746
2026-01-02 17:08:28.07	242.44	37.04	-39.0	-40.4	26.7	3.04e+01	51	39	0	853540864	50	7173
2026-01-02 17:08:29.08	242.17	36.80	-38.1	-39.4	27.5	3.04e+01	62	39	0	855113728	52	5661
2026-01-02 17:08:30.08	241.91	36.56	-37.6	-38.9	27.9	3.04e+01	64	39	0	857210880	50	6023
2026-01-02 17:08:31.09	241.65	36.32	-37.9	-39.2	27.5	3.04e+01	59	39	0	858783744	50	6270
2026-01-02 17:08:32.10	241.39	36.08	-38.2	-39.5	27.4	3.04e+01	60	39	0	860880896	50	6453
2026-01-02 17:08:33.11	241.14	35.84	-37.7	-39.0	27.7	3.04e+01	52	39	0	862978048	50	6104
2026-01-02 17:08:34.12	240.89	35.61	-37.6	-38.9	27.8	3.04e+01	57	39	0	864550912	50	6011
2026-01-02 17:08:35.13	240.64	35.37	-37.4	-38.6	28.1	3.04e+01	56	39	0	866648064	50	5833
2026-01-02 17:08:36.13	240.40	35.14	-37.6	-38.9	27.9	3.04e+01	44	39	0	868745216	50	6016
2026-01-02 17:08:37.14	240.16	34.91	-37.5	-38.8	28.0	3.04e+01	58	39	0	870318080	50	5971
2026-01-02 17:08:38.15	239.93	34.68	-37.2	-38.5	28.2	3.04e+01	61	39	0	872415232	50	5749
2026-01-02 17:08:39.16	239.69	34.45	-36.8	-38.0	28.7	3.04e+01	58	39	0	873988096	48	6087
2026-01-02 17:08:40.17	239.46	34.22	-36.8	-38.1	28.5	3.04e+01	56	39	0	876085248	48	6154
2026-01-02 17:08:41.17	239.24	34.00	-37.2	-38.4	28.4	3.04e+01	53	39	0	877658112	48	6421
2026-01-02 17:08:42.18	239.02	33.77	-37.2	-38.5	28.2	3.04e+01	60	39	0	879755264	48	6479
2026-01-02 17:08:43.19	238.80	33.55	-37.0	-38.2	28.2	3.04e+01	56	39	0	881852416	48	6273
2026-01-02 17:08:44.20	238.58	33.32	-36.8	-38.0	28.7	3.04e+01	53	39	0	883425280	48	6105
2026-01-02 17:08:45.21	238.37	33.10	-36.5	-37.8	28.8	3.04e+01	59	39	0	885522432	48	5938
2026-01-02 17:08:46.22	238.16	32.88	-36.6	-37.8	28.7	3.04e+01	38	39	0	887095296	48	5986
2026-01-02 17:08:47.23	237.95	32.66	-36.6	-37.8	28.7	3.04e+01	60	39	0	889192448	48	5980
2026-01-02 17:08:48.24	237.75	32.44	-36.3	-37.5	28.9	3.04e+01	59	39	0	891289600	48	5791
2026-01-02 17:08:49.25	237.55	32.22	-36.0	-37.2	29.3	3.04e+01	50	39	0	892862464	48	5540
2026-01-02 17:08:50.26	237.35	32.01	-36.2	-37.4	29.1	3.04e+01	59	39	0	894959616	48	5667
2026-01-02 17:08:51.27	237.15	31.79	-36.3	-37.6	29.0	3.04e+01	59	39	0	897056768	48	5796
2026-01-02 17:08:52.28	236.96	31.58	-36.4	-37.7	28.9	3.04e+01	59	39	0	898629632	48	5864
2026-01-02 17:08:53.29	236.77	31.37	-36.4	-37.6	28.9	3.04e+01	59	39	0	900726784	48	5847
2026-01-02 17:08:54.30	236.58	31.16	-36.2	-37.4	29.1	3.04e+01	57	39	0	902299648	48	5682
2026-01-02 17:08:55.31	236.40	30.95	-36.2	-37.4	29.2	3.04e+01	57	39	0	904396800	48	5685
2026-01-02 17:08:56.32	236.21	30.74	-35.8	-37.0	29.4	3.04e+01	57	39	0	906493952	46	6112
2026-01-02 17:08:57.33	236.03	30.54	-36.0	-37.2	29.3	3.04e+01	44	39	0	908066816	46	6242
2026-01-02 17:08:58.33	235.86	30.33	-35.9	-37.1	29.4	3.04e+01	58	39	0	910163968	46	6190
2026-01-02 17:08:59.34	235.68	30.13	-36.0	-37.2	29.3	3.04e+01	61	39	0	911736832	46	6247
2026-01-02 17:09:00.35	235.51	29.93	-36.1	-37.3	29.1	3.04e+01	61	39	0	913833984	46	6316
2026-01-02 17:09:01.36	235.33	29.72	-36.0	-37.2	29.3	3.04e+01	59	39	0	915931136	46	6209
2026-01-02 17:09:02.37	235.17	29.52	-36.0	-37.2	29.4	3.04e+01	62	39	0	917504000	46	6215
2026-01-02 17:09:03.38	235.00	29.32	-36.2	-37.4	29.2	3.04e+01	59	39	0	919601152	46	6383
2026-01-02 17:09:04.39	234.83	29.13	-36.2	-37.4	29.1	3.04e+01	59	39	0	921698304	46	6389
2026-01-02 17:09:05.40	234.67	28.93	-36.2	-37.4	29.1	3.04e+01	38	39	0	923271168	46	6384
2026-01-02 17:09:06.41	234.51	28.73	-36.1	-37.3	29.2	3.04e+01	58	39	0	925368320	46	6288
2026-01-02 17:09:07.42	234.35	28.54	-36.1	-37.3	29.2	3.04e+01	60	39	0	926941184	46	6303
2026-01-02 17:09:08.43	234.20	28.35	-36.1	-37.3	29.2	3.04e+01	56	39	0	929038336	46	6342
2026-01-02 17:09:09.44	234.04	28.15	-36.3	-37.5	29.0	3.04e+01	61	39	0	931135488	46	6475
2026-01-02 17:09:10.45	233.89	27.96	-36.4	-37.7	28.9	3.04e+01	47	39	0	932708352	46	6594
2026-01-02 17:09:11.46	233.74	27.77	-36.6	-37.8	28.8	3.04e+01	59	39	0	934805504	46	6715
2026-01-02 17:09:12.46	233.59	27.59	-36.3	-37.5	29.0	3.04e+01	57	39	0	936378368	46	6488
2026-01-02 17:09:13.47	233.44	27.40	-36.1	-37.3	29.2	3.04e+01	46	39	0	938475520	46	6298
2026-01-02 17:09:14.48	233.30	27.21	-36.3	-37.5	29.0	3.04e+01	59	39	0	940572672	46	6473
2026-01-02 17:09:15.49	233.15	27.03	-36.1	-37.4	29.2	3.04e+01	51	39	0	942145536	46	6352
2026-01-02 17:09:16.50	233.01	26.85	-36.2	-37.4	29.1	3.04e+01	60	39	0	944242688	46	6380
2026-01-02 17:09:17.51	232.87	26.66	-36.2	-37.5	29.0	3.04e+01	60	39	0	945815552	46	6434
2026-01-02 17:09:18.52	232.73	26.48	-36.2	-37.5	29.0	3.04e+01	55	39	0	947912704	46	6435
2026-01-02 17:09:19.53	232.60	26.30	-36.3	-37.6	29.0	3.04e+01	60	39	0	950009856	46	6515
2026-01-02 17:09:20.54	232.46	26.12	-36.5	-37.7	28.9	3.04e+01	60	39	0	951582720	46	6626
2026-01-02 17:09:21.55	232.33	25.94	-36.6	-37.8	28.8	3.04e+01	58	39	0	953679872	46	6682
2026-01-02 17:09:22.56	232.20	25.77	-36.7	-38.0	28.6	3.04e+01	61	39	0	955252736	46	6817
2026-01-02 17:09:23.57	232.07	25.59	-36.7	-38.0	28.6	3.04e+01	50	39	0	957349888	46	6810
2026-01-02 17:09:24.57	231.94	25.42	-36.8	-38.0	28.4	3.04e+01	59	39	0	959447040	46	6872
2026-01-02 17:09:25.58	231.81	25.24	-36.5	-37.8	28.7	3.04e+01	58	39	0	961019904	46	6664
2026-01-02 17:09:26.59	231.69	25.07	-36.5	-37.8	28.6	3.04e+01	48	39	0	963117056	46	6669
2026-01-02 17:09:27.60	231.56	24.90	-36.7	-37.9	28.5	3.04e+01	59	39	0	964689920	46	6790
2026-01-02 17:09:28.61	231.44	24.73	-36.7	-37.9	28.6	3.04e+01	59	39	0	966787072	46	6757
2026-01-02 17:09:29.62	231.32	24.56	-36.6	-37.8	28.8	3.04e+01	58	39	0	968884224	46	6677
2026-01-02 17:09:30.63	231.20	24.39	-36.5	-37.7	28.8	3.04e+01	59	39	0	970457088	46	6635
2026-01-02 17:09:31.64	231.08	24.22	-36.5	-37.7	28.8	3.04e+01	51	39	0	972554240	46	6610
2026-01-02 17:09:32.65	230.96	24.06	-36.6	-37.8	28.7	3.04e+01	58	39	0	974651392	46	6712
2026-01-02 17:09:33.66	230.85	23.89	-36.6	-37.9	28.7	3.04e+01	57	39	0	976224256	46	6754
2026-01-02 17:09:34.67	230.73	23.73	-36.8	-38.0	28.6	3.04e+01	49	39	0	978321408	46	6867
2026-01-02 17:09:35.68	230.62	23.57	-36.5	-37.7	28.8	3.04e+01	60	39	0	979894272	46	6649
2026-01-02 17:09:36.69	230.51	23.40	-36.5	-37.7	28.8	3.04e+01	58	39	0	981991424	46	6647
2026-01-02 17:09:37.70	230.39	23.24	-36.6	-37.8	28.7	3.04e+01	59	39	0	984088576	46	6708
2026-01-02 17:09:38.71	230.28	23.08	-36.7	-37.9	28.7	3.04e+01	55	39	0	985661440	46	6769
2026-01-02 17:09:39.71	230.18	22.92	-36.7	-38.0	28.6	3.04e+01	52	39	0	987758592	46	6832
2026-01-02 17:09:40.73	230.07	22.76	-36.9	-38.2	28.4	3.04e+01	55	39	0	989331456	46	6999
2026-01-02 17:09:41.73	229.96	22.61	-37.0	-38.2	28.4	3.04e+01	60	39	0	991428608	48	6262
2026-01-02 17:09:42.75	229.86	22.45	-36.9	-38.1	28.4	3.04e+01	46	38	0	993525760	48	6188
2026-01-02 17:09:43.75	229.75	22.29	-36.8	-38.0	28.4	3.04e+01	57	39	0	995098624	48	6125
2026-01-02 17:09:44.76	229.65	22.14	-36.8	-38.0	28.5	3.04e+01	60	39	0	997195776	48	6101
2026-01-02 17:09:45.77	229.55	21.99	-36.7	-38.0	28.6	3.04e+01	57	39	0	998768640	48	6074
2026-01-02 17:09:46.78	229.45	21.83	-36.6	-37.9	28.6	3.04e+01	52	39	0	1000865792	48	5995
2026-01-02 17:09:47.79	229.35	21.68	-36.6	-37.9	28.6	3.04e+01	48	39	0	1002962944	48	6000
2026-01-02 17:09:48.80	229.25	21.53	-36.8	-38.0	28.5	3.04e+01	59	39	0	1004535808	48	6119
2026-01-02 17:09:49.81	229.15	21.38	-36.8	-38.1	28.5	3.04e+01	60	39	0	1006632960	48	6161
2026-01-02 17:09:50.82	229.06	21.23	-36.8	-38.1	28.4	3.04e+01	49	39	0	1008205824	48	6159
2026-01-02 17:09:51.83	228.96	21.08	-36.8	-38.1	28.4	3.04e+01	58	39	0	1010302976	48	6140
2026-01-02 17:09:52.83	228.87	20.94	-36.7	-37.9	28.6	3.04e+01	61	39	0	1012400128	48	6044
2026-01-02 17:09:53.84	228.77	20.79	-36.6	-37.8	28.6	3.04e+01	60	39	0	1013972992	48	5989
2026-01-02 17:09:54.85	228.68	20.64	-36.6	-37.8	28.7	3.04e+01	59	39	0	1016070144	48	5977
2026-01-02 17:09:55.86	228.59	20.50	-36.5	-37.7	28.8	3.04e+01	58	39	0	1018167296	48	5913
2026-01-02 17:09:56.87	228.50	20.35	-36.5	-37.8	28.8	3.04e+01	59	39	0	1019740160	48	5936
2026-01-02 17:09:57.88	228.41	20.21	-36.4	-37.6	28.9	3.04e+01	59	39	0	1021837312	48	5835
2026-01-02 17:09:58.89	228.32	20.07	-36.5	-37.8	28.8	3.04e+01	60	39	0	1023410176	48	5937
2026-01-02 17:09:59.90	228.23	19.93	-36.5	-37.8	28.8	3.04e+01	61	39	0	1025507328	48	5944
2026-01-02 17:10:00.91	228.14	19.78	-36.6	-37.8	28.7	3.04e+01	44	39	0	1027604480	48	5952
2026-01-02 17:10:01.92	228.06	19.64	-36.6	-37.8	28.7	3.04e+01	61	39	0	1029177344	48	5991
2026-01-02 17:10:02.93	227.97	19.51	-36.6	-37.9	28.6	3.04e+01	62	39	0	1031274496	48	5996
2026-01-02 17:10:03.94	227.89	19.37	-36.7	-37.9	28.6	3.04e+01	46	39	0	1032847360	48	6048
2026-01-02 17:10:04.95	227.80	19.23	-36.9	-38.1	28.5	3.04e+01	57	39	0	1034944512	48	6200
2026-01-02 17:10:05.96	227.72	19.09	-36.8	-38.0	28.5	3.04e+01	58	39	0	1037041664	48	6112
2026-01-02 17:10:06.97	227.64	18.96	-36.7	-38.0	28.5	3.04e+01	57	39	0	1038614528	48	6082
2026-01-02 17:10:07.98	227.56	18.82	-36.7	-37.9	28.6	3.04e+01	60	39	0	1040711680	48	6056
2026-01-02 17:10:08.99	227.48	18.69	-36.8	-38.0	28.5	3.04e+01	58	39	0	1042808832	48	6109
2026-01-02 17:10:10.00	227.40	18.55	-36.7	-38.0	28.5	3.04e+01	62	39	0	1044381696	48	6093
2026-01-02 17:10:11.01	227.32	18.42	-36.7	-38.0	28.5	3.04e+01	61	39	0	1046478848	48	6082
2026-01-02 17:10:12.02	227.24	18.29	-36.7	-38.0	28.6	3.04e+01	49	39	0	1048051712	48	6092
2026-01-02 17:10:13.03	227.16	18.15	-36.7	-38.0	28.5	3.04e+01	59	39	0	1050148864	48	6074
2026-01-02 17:10:14.04	227.09	18.02	-36.6	-37.8	28.6	3.04e+01	57	39	0	1052246016	48	5989
2026-01-02 17:10:15.05	227.01	17.89	-36.5	-37.7	28.7	3.04e+01	60	39	0	1053818880	48	5913
2026-01-02 17:10:16.06	226.93	17.76	-36.5	-37.7	28.7	3.04e+01	56	39	0	1055916032	48	5919
2026-01-02 17:10:17.07	226.86	17.63	-36.7	-37.9	28.5	3.04e+01	48	39	0	1057488896	48	6045
2026-01-02 17:10:18.08	226.79	17.51	-36.5	-37.7	28.7	3.04e+01	58	39	0	1059586048	48	5894
2026-01-02 17:10:19.09	226.71	17.38	-36.6	-37.8	28.6	3.04e+01	60	39	0	1061683200	48	5983
2026-01-02 17:10:20.10	226.64	17.25	-36.4	-37.6	28.7	3.04e+01	44	39	0	1063256064	48	5848
2026-01-02 17:10:21.11	226.57	17.12	-36.5	-37.7	28.7	3.04e+01	58	39	0	1065353216	48	5913
2026-01-02 17:10:22.11	226.50	17.00	-36.5	-37.8	28.7	3.04e+01	59	39	0	1066926080	48	5927
2026-01-02 17:10:23.12	226.43	16.88	-36.6	-37.8	28.6	3.04e+01	58	39	0	1069023232	48	5985
2026-01-02 17:10:24.13	226.36	16.75	-36.7	-38.0	28.5	3.04e+01	61	39	0	1071120384	48	6076
2026-01-02 17:10:25.14	226.29	16.63	-36.6	-37.8	28.6	3.04e+01	49	39	0	1072693248	48	5963
2026-01-02 17:10:26.15	226.22	16.50	-36.8	-38.0	28.5	3.04e+01	57	39	0	1074790400	48	6131
2026-01-02 17:10:27.16	226.15	16.38	-36.5	-37.8	28.6	3.04e+01	58	39	0	1076363264	48	5936
2026-01-02 17:10:28.17	226.08	16.26	-36.6	-37.8	28.7	3.04e+01	56	39	0	1078460416	48	5990
2026-01-02 17:10:29.18	226.02	16.14	-36.6	-37.8	28.6	3.04e+01	60	39	0	1080557568	48	5969
2026-01-02 17:10:30.19	225.95	16.02	-36.5	-37.8	28.7	3.04e+01	56	39	0	1082130432	48	5939
2026-01-02 17:10:31.20	225.88	15.90	-36.6	-37.8	28.6	3.04e+01	56	39	0	1084227584	48	5960
2026-01-02 17:10:32.21	225.82	15.78	-36.7	-38.0	28.6	3.04e+01	59	39	0	1086324736	48	6088
2026-01-02 17:10:33.22	225.75	15.66	-36.7	-37.9	28.5	3.04e+01	52	39	0	1087897600	48	6033
2026-01-02 17:10:34.23	225.69	15.54	-36.6	-37.8	28.5	3.04e+01	57	39	0	1089994752	48	5988
2026-01-02 17:10:35.24	225.63	15.43	-36.5	-37.8	28.6	3.04e+01	61	39	0	1091567616	48	5952
2026-01-02 17:10:36.25	225.56	15.31	-36.5	-37.8	28.6	3.04e+01	59	39	0	1093664768	48	5948
2026-01-02 17:10:37.25	225.50	15.19	-36.6	-37.9	28.5	3.04e+01	59	39	0	1095761920	48	6003
2026-01-02 17:10:38.26	225.44	15.08	-36.7	-38.0	28.4	3.04e+01	44	39	0	1097334784	48	6085
2026-01-02 17:10:39.27	225.38	14.96	-36.7	-37.9	28.4	3.04e+01	59	39	0	1099431936	48	6031
2026-01-02 17:10:40.28	225.32	14.85	-36.7	-38.0	28.4	3.04e+01	58	39	0	1101004800	48	6082
2026-01-02 17:10:41.29	225.26	14.73	-36.6	-37.9	28.5	3.04e+01	47	39	0	1103101952	48	6016
2026-01-02 17:10:42.30	225.20	14.62	-36.7	-37.9	28.4	3.04e+01	62	39	0	1105199104	48	6046
2026-01-02 17:10:43.31	225.14	14.51	-36.6	-37.8	28.6	3.04e+01	58	39	0	1106771968	48	5961
2026-01-02 17:10:44.32	225.08	14.39	-36.7	-38.0	28.4	3.04e+01	57	39	0	1108869120	48	6088
2026-01-02 17:10:45.33	225.02	14.28	-36.7	-37.9	28.3	3.04e+01	58	39	0	1110441984	48	6054
2026-01-02 17:10:46.34	224.97	14.17	-36.7	-38.0	28.3	3.04e+01	60	39	0	1112539136	48	6099
2026-01-02 17:10:47.35	224.91	14.06	-36.9	-38.1	28.2	3.04e+01	60	39	0	1114636288	48	6192
2026-01-02 17:10:48.36	224.85	13.95	-36.8	-38.1	28.4	3.04e+01	58	39	0	1116209152	48	6135
2026-01-02 17:10:49.37	224.80	13.84	-36.9	-38.1	28.2	3.04e+01	45	39	0	1118306304	48	6192
2026-01-02 17:10:50.38	224.74	13.73	-36.8	-38.0	28.3	3.04e+01	60	39	0	1119879168	48	6124
2026-01-02 17:10:51.39	224.68	13.62	-36.5	-37.7	28.6	3.04e+01	60	39	0	1121976320	48	5921
2026-01-02 17:10:52.40	224.63	13.52	-36.5	-37.8	28.5	3.04e+01	59	39	0	1124073472	48	5944
2026-01-02 17:10:53.41	224.58	13.41	-36.7	-37.9	28.4	3.04e+01	60	39	0	1125646336	48	6056
2026-01-02 17:10:54.41	224.52	13.30	-36.7	-37.9	28.4	3.04e+01	46	39	0	1127743488	48	6036
2026-01-02 17:10:55.42	224.47	13.19	-36.7	-37.9	28.4	3.04e+01	57	39	0	1129316352	48	6058
2026-01-02 17:10:56.43	224.41	13.09	-36.8	-38.1	28.3	3.04e+01	55	39	0	1131413504	48	6147
2026-01-02 17:10:57.44	224.36	12.98	-36.7	-37.9	28.4	3.04e+01	44	39	0	1133510656	48	6052
2026-01-02 17:10:58.45	224.31	12.88	-36.7	-37.9	28.4	3.04e+01	58	39	0	1135083520	48	6036
2026-01-02 17:10:59.46	224.26	12.77	-36.7	-38.0	28.3	3.04e+01	62	39	0	1137180672	48	6099
2026-01-02 17:11:00.47	224.21	12.67	-36.9	-38.2	28.2	3.04e+01	62	39	0	1139277824	48	6225
2026-01-02 17:11:01.48	224.16	12.57	-37.0	-38.3	28.0	3.04e+01	60	39	0	1140850688	48	6322
2026-01-02 17:11:02.49	224.11	12.46	-36.9	-38.2	28.2	3.04e+01	57	39	0	1142947840	48	6223
2026-01-02 17:11:03.50	224.05	12.36	-36.9	-38.1	28.1	3.04e+01	62	39	0	1144520704	48	6204
2026-01-02 17:11:04.51	224.01	12.26	-36.8	-38.1	28.2	3.04e+01	58	39	0	1146617856	48	6192
2026-01-02 17:11:05.52	223.96	12.15	-36.8	-38.1	28.2	3.04e+01	47	39	0	1148715008	48	6135
2026-01-02 17:11:06.53	223.91	12.05	-36.8	-38.1	28.2	3.04e+01	55	39	0	1150287872	48	6159
2026-01-02 17:11:07.54	223.86	11.95	-36.9	-38.2	28.1	3.04e+01	52	39	0	1152385024	48	6210
2026-01-02 17:11:08.55	223.81	11.85	-36.9	-38.2	28.1	3.04e+01	59	39	0	1154482176	48	6246
2026-01-02 17:11:09.56	223.76	11.75	-36.9	-38.2	28.1	3.04e+01	57	39	0	1156055040	48	6243
2026-01-02 17:11:10.57	223.71	11.65	-36.8	-38.1	28.2	3.04e+01	45	39	0	1158152192	48	6158
2026-01-02 17:11:11.58	223.67	11.55	-36.9	-38.2	28.2	3.04e+01	59	39	0	1159725056	48	6212
2026-01-02 17:11:12.58	223.62	11.45	-36.9	-38.2	28.1	3.04e+01	61	39	0	1161822208	48	6207
2026-01-02 17:11:13.59	223.57	11.36	-36.9	-38.2	28.1	3.04e+01	56	39	0	1163919360	48	6252
2026-01-02 17:11:14.60	223.53	11.26	-37.0	-38.3	28.0	3.04e+01	62	39	0	1165492224	48	6314
2026-01-02 17:11:15.61	223.48	11.16	-36.9	-38.2	28.1	3.04e+01	46	39	0	1167589376	48	6224
2026-01-02 17:11:16.62	223.44	11.06	-36.9	-38.2	28.0	3.04e+01	59	39	0	1169162240	48	6258
2026-01-02 17:11:17.63	223.39	10.97	-37.2	-38.5	27.8	3.04e+01	60	39	0	1171259392	48	6475
2026-01-02 17:11:18.64	223.35	10.87	-37.0	-38.3	28.0	3.04e+01	51	39	0	1173356544	48	6294
2026-01-02 17:11:19.65	223.30	10.77	-37.1	-38.4	27.8	3.04e+01	57	39	0	1174929408	48	6386
2026-01-02 17:11:20.66	223.26	10.68	-37.3	-38.6	27.8	3.04e+01	61	39	0	1177026560	48	6507
2026-01-02 17:11:21.67	223.22	10.58	-37.2	-38.5	27.7	3.04e+01	59	39	0	1178599424	48	6482
2026-01-02 17:11:22.67	223.17	10.49	-37.3	-38.6	27.5	3.04e+01	60	39	0	1180696576	48	6568
2026-01-02 17:11:23.68	223.13	10.39	-37.4	-38.7	27.5	3.04e+01	50	39	0	1182793728	48	6621
2026-01-02 17:11:24.69	223.09	10.30	-37.3	-38.7	27.6	3.04e+01	61	39	0	1184366592	48	6582
2026-01-02 17:11:25.70	223.04	10.21	-37.4	-38.8	27.5	3.04e+01	57	39	0	1186463744	48	6666
2026-01-02 17:11:26.71	223.00	10.11	-37.4	-38.8	27.5	3.04e+01	48	39	0	1188036608	48	6658
2026-01-02 17:11:27.72	222.96	10.02	-37.5	-38.8	27.3	3.04e+01	60	39	0	1190133760	48	6717
2026-01-02 17:11:28.73	222.92	9.93	-37.5	-38.8	27.4	3.04e+01	50	39	0	1192230912	48	6704
2026-01-02 17:11:29.74	222.88	9.84	-37.6	-38.9	27.3	3.04e+01	57	39	0	1193803776	48	6796
2026-01-02 17:11:30.75	222.84	9.74	-37.8	-39.2	27.1	3.04e+01	60	39	0	1195900928	48	6983
2026-01-02 17:11:31.76	222.80	9.65	-37.7	-39.1	27.1	3.04e+01	50	39	0	1197473792	48	6893
2026-01-02 17:11:32.77	222.76	9.56	-37.8	-39.1	27.2	3.04e+01	59	39	0	1199570944	48	6938
2026-01-02 17:11:33.78	222.72	9.47	-37.8	-39.2	27.0	3.04e+01	63	38	0	1201668096	48	6996
