passes_logs/2026/01/02/R4.6S_Anadyr/R4.6S_Anadyr__20260102_194932_FENGYUN_3D_rec.log

#Pass ID: 20260102_194932_FENGYUN 3D
#Satellite: FENGYUN 3D
#Configuration: FENGYUN 3D
#almurnet v.1.7.20251203
#Start time: 2026-01-02 19:49:35

#Version: 2.2.20231116
#Station: R4.6S_Anadyr
#Location: 177.4865 lon 64.73178 lat
#TLE: 1 43010U 17072A   26001.96529979  .00000409  00000+0  21503-3 0  9996
#TLE: 2 43010  98.9910 333.5811 0001886 133.0441 227.0893 14.19692048421405

#Time	Az	El	Level	Level2	SNR	BER	BlckErr	Temp	State	Recorded	gain1	gain2
2026-01-02 19:49:35.09	35.04	0.16	-50.0	-60.7	3.3	8.40e-01	0	37	0	0	60	39040
2026-01-02 19:49:36.10	34.97	0.21	-50.0	-62.2	3.6	8.46e-01	0	38	104	0	60	46459
2026-01-02 19:49:37.10	34.91	0.26	-50.0	-62.2	3.6	8.45e-01	0	38	104	0	60	46631
2026-01-02 19:49:38.12	34.84	0.31	-50.1	-62.2	3.6	8.45e-01	0	38	104	0	60	46657
2026-01-02 19:49:39.13	34.78	0.37	-50.1	-62.2	3.6	8.46e-01	0	37	104	0	60	46778
2026-01-02 19:49:40.14	34.71	0.42	-50.1	-62.3	3.6	8.44e-01	0	37	104	0	60	46867
2026-01-02 19:49:41.14	34.65	0.47	-50.0	-62.2	3.6	8.46e-01	0	37	104	0	60	46593
2026-01-02 19:49:42.15	34.59	0.53	-50.0	-62.2	3.6	8.46e-01	0	38	104	0	60	46351
2026-01-02 19:49:43.16	34.52	0.58	-49.9	-62.1	3.6	8.45e-01	0	38	104	0	60	46005
2026-01-02 19:49:44.17	34.45	0.63	-49.9	-62.1	3.6	8.45e-01	0	38	104	0	60	45876
2026-01-02 19:49:45.18	34.39	0.69	-49.8	-61.9	3.6	8.45e-01	0	38	104	0	60	45075
2026-01-02 19:49:46.19	34.32	0.74	-49.6	-61.8	3.6	8.45e-01	0	38	104	0	60	44262
2026-01-02 19:49:47.20	34.26	0.79	-49.5	-61.7	3.6	8.46e-01	0	38	104	0	60	43742
2026-01-02 19:49:48.20	34.19	0.84	-49.3	-61.4	3.6	8.46e-01	0	38	104	0	60	42505
2026-01-02 19:49:49.21	34.12	0.90	-49.1	-61.2	3.6	8.45e-01	0	38	104	0	60	41472
2026-01-02 19:49:50.22	34.06	0.95	-48.8	-60.9	3.6	8.45e-01	0	38	104	0	60	40198
2026-01-02 19:49:51.23	33.99	1.01	-48.4	-60.5	3.6	8.45e-01	0	38	104	0	60	38105
2026-01-02 19:49:52.24	33.92	1.06	-48.3	-60.4	3.6	8.46e-01	0	38	104	0	60	37769
2026-01-02 19:49:53.25	33.85	1.11	-48.3	-60.3	3.6	8.45e-01	0	38	104	0	60	37630
2026-01-02 19:49:54.26	33.78	1.17	-48.3	-60.4	3.6	8.45e-01	0	38	104	0	60	37650
2026-01-02 19:49:55.27	33.72	1.22	-48.3	-60.4	3.6	8.44e-01	0	38	104	0	60	37669
2026-01-02 19:49:56.28	33.65	1.28	-48.3	-60.4	3.6	8.45e-01	0	38	104	0	60	37637
2026-01-02 19:49:57.29	33.58	1.33	-48.3	-60.4	3.6	8.45e-01	0	38	104	0	60	37658
2026-01-02 19:49:58.30	33.51	1.38	-48.3	-60.3	3.6	8.45e-01	0	38	104	0	60	37543
2026-01-02 19:49:59.31	33.44	1.44	-48.3	-60.3	3.6	8.45e-01	0	38	104	0	60	37461
2026-01-02 19:50:00.32	33.37	1.49	-48.3	-60.3	3.6	8.46e-01	0	38	104	0	60	37502
2026-01-02 19:50:01.33	33.30	1.55	-48.3	-60.3	3.6	8.45e-01	0	38	104	0	60	37360
2026-01-02 19:50:02.34	33.23	1.60	-48.3	-60.3	3.6	8.46e-01	0	38	104	0	60	37601
2026-01-02 19:50:03.35	33.16	1.65	-48.3	-60.4	3.6	8.45e-01	0	38	104	0	60	37921
2026-01-02 19:50:04.36	33.09	1.71	-48.3	-60.4	3.6	8.44e-01	0	38	104	0	60	37827
2026-01-02 19:50:05.37	33.02	1.76	-48.3	-60.4	3.6	8.45e-01	0	38	104	0	60	37784
2026-01-02 19:50:06.38	32.94	1.82	-48.3	-60.4	3.6	8.45e-01	0	38	104	0	60	37861
2026-01-02 19:50:07.39	32.87	1.87	-48.3	-60.3	3.6	8.45e-01	0	38	104	0	60	37473
2026-01-02 19:50:08.40	32.80	1.93	-48.3	-60.2	3.6	8.46e-01	0	38	104	0	60	36795
2026-01-02 19:50:09.41	32.73	1.98	-48.3	-59.7	3.6	8.44e-01	0	38	104	0	60	35031
2026-01-02 19:50:10.42	32.66	2.04	-48.2	-59.4	3.6	8.44e-01	0	38	104	0	60	33548
2026-01-02 19:50:11.43	32.58	2.09	-48.2	-59.2	3.6	8.44e-01	0	38	104	0	60	33070
2026-01-02 19:50:12.43	32.51	2.15	-48.2	-59.1	3.6	8.44e-01	0	38	104	0	60	32674
2026-01-02 19:50:13.44	32.44	2.20	-48.2	-59.6	3.6	8.44e-01	0	38	104	0	60	34498
2026-01-02 19:50:14.45	32.36	2.26	-48.3	-60.1	3.6	8.44e-01	0	38	104	0	60	36756
2026-01-02 19:50:15.46	32.29	2.31	-48.3	-60.4	3.6	8.45e-01	0	38	104	0	60	37884
2026-01-02 19:50:16.47	32.22	2.37	-48.3	-60.4	3.6	8.45e-01	0	38	104	0	60	37637
2026-01-02 19:50:17.48	32.14	2.42	-48.3	-60.3	3.6	8.45e-01	0	38	104	0	60	37430
2026-01-02 19:50:18.49	32.07	2.48	-48.3	-60.3	3.6	8.45e-01	0	38	104	0	60	37592
2026-01-02 19:50:19.50	31.99	2.53	-48.3	-60.4	3.6	8.45e-01	0	38	104	0	60	37936
2026-01-02 19:50:20.51	31.92	2.59	-48.3	-60.3	3.6	8.45e-01	0	38	104	0	60	37254
2026-01-02 19:50:21.52	31.84	2.64	-48.2	-59.3	3.6	8.45e-01	0	38	104	0	60	33412
2026-01-02 19:50:22.53	31.76	2.70	-48.1	-58.4	3.6	8.45e-01	0	38	104	0	60	29971
2026-01-02 19:50:23.54	31.69	2.76	-48.1	-58.3	3.7	8.43e-01	0	38	104	0	60	29706
2026-01-02 19:50:24.55	31.61	2.81	-48.2	-59.1	3.6	8.46e-01	0	38	104	0	60	32436
2026-01-02 19:50:25.56	31.53	2.87	-48.2	-59.8	3.6	8.45e-01	0	38	104	0	60	35373
2026-01-02 19:50:26.57	31.46	2.92	-48.1	-58.1	3.8	8.45e-01	0	38	104	0	60	28958
2026-01-02 19:50:27.58	31.38	2.98	-47.2	-52.5	6.1	7.65e-01	0	38	0	1048576	60	15164
2026-01-02 19:50:28.59	31.30	3.03	-46.0	-49.5	9.5	3.25e-02	0	38	0	6291456	60	10793
2026-01-02 19:50:29.60	31.22	3.09	-44.7	-47.2	12.4	2.27e-03	0	38	0	11534336	60	8266
2026-01-02 19:50:30.61	31.14	3.15	-45.8	-49.3	9.5	7.32e-04	0	38	0	17825792	60	10510
2026-01-02 19:50:31.62	31.06	3.20	-43.1	-44.9	14.6	1.24e-02	0	38	0	23068672	60	6349
2026-01-02 19:50:32.63	30.99	3.26	-48.1	-57.8	3.4	2.40e-02	0	38	0	29360128	60	27970
2026-01-02 19:50:33.63	30.91	3.31	-48.0	-57.3	3.7	8.45e-01	0	38	104	29360128	60	26416
2026-01-02 19:50:34.65	30.83	3.37	-40.4	-41.6	6.1	7.56e-01	0	38	104	29360128	58	4889
2026-01-02 19:50:35.65	30.75	3.43	-40.1	-41.3	18.2	0.00e+00	0	38	0	30408704	52	6627
2026-01-02 19:50:36.67	30.67	3.48	-39.9	-41.1	18.1	0.00e+00	0	38	0	35651584	52	6486
2026-01-02 19:50:37.67	30.59	3.54	-39.4	-40.4	19.1	0.00e+00	0	38	0	41943040	52	6015
2026-01-02 19:50:38.68	30.50	3.60	-38.8	-39.7	19.7	0.00e+00	0	38	0	47185920	52	5552
2026-01-02 19:50:39.69	30.42	3.65	-37.7	-38.6	20.7	0.00e+00	0	38	0	52428800	50	5478
2026-01-02 19:50:40.70	30.34	3.71	-38.3	-39.3	20.3	0.00e+00	0	38	0	58720256	48	6655
2026-01-02 19:50:41.71	30.26	3.77	-38.7	-39.7	19.7	0.00e+00	0	38	0	63963136	48	6992
2026-01-02 19:50:42.72	30.18	3.82	-38.0	-38.9	20.4	0.00e+00	0	38	0	70254592	50	5660
2026-01-02 19:50:43.73	30.09	3.88	-38.1	-38.9	20.6	0.00e+00	0	38	0	75497472	50	5690
2026-01-02 19:50:44.74	30.01	3.94	-38.0	-38.9	20.6	0.00e+00	0	38	0	81788928	50	5692
2026-01-02 19:50:45.75	29.93	3.99	-38.1	-39.0	20.4	0.00e+00	0	38	0	87031808	48	6435
2026-01-02 19:50:46.75	29.84	4.05	-37.8	-38.6	20.7	0.00e+00	0	38	0	93323264	48	6162
2026-01-02 19:50:47.76	29.76	4.11	-38.1	-39.1	20.4	0.00e+00	0	38	0	98566144	48	6477
2026-01-02 19:50:48.77	29.68	4.17	-38.2	-39.1	20.4	0.00e+00	0	38	0	103809024	48	6476
2026-01-02 19:50:49.78	29.59	4.22	-38.1	-39.0	20.4	0.00e+00	0	38	0	110100480	48	6412
2026-01-02 19:50:50.79	29.51	4.28	-38.0	-39.0	20.5	0.00e+00	0	38	0	115343360	48	6396
2026-01-02 19:50:51.80	29.42	4.34	-38.1	-39.0	20.5	0.00e+00	0	38	0	121634816	48	6441
2026-01-02 19:50:52.81	29.33	4.39	-38.2	-39.1	20.4	0.00e+00	0	38	0	126877696	48	6496
2026-01-02 19:50:53.82	29.25	4.45	-38.0	-38.8	20.7	0.00e+00	0	38	0	132120576	48	6310
2026-01-02 19:50:54.83	29.16	4.51	-37.7	-38.6	20.9	0.00e+00	0	38	0	138412032	48	6143
2026-01-02 19:50:55.83	29.08	4.57	-37.9	-38.7	20.8	0.00e+00	0	38	0	143654912	48	6216
2026-01-02 19:50:56.84	28.99	4.62	-37.8	-38.7	20.8	0.00e+00	0	38	0	148897792	48	6194
2026-01-02 19:50:57.85	28.90	4.68	-37.8	-38.7	20.8	0.00e+00	0	38	0	155189248	48	6232
2026-01-02 19:50:58.86	28.81	4.74	-37.9	-38.7	20.6	0.00e+00	0	38	0	160432128	48	6238
2026-01-02 19:50:59.87	28.72	4.80	-37.8	-38.6	21.0	0.00e+00	0	38	0	166723584	48	6161
2026-01-02 19:51:00.88	28.64	4.86	-37.6	-38.5	21.0	0.00e+00	0	38	0	171966464	48	6050
2026-01-02 19:51:01.89	28.55	4.91	-37.9	-38.8	20.9	0.00e+00	0	38	0	178257920	48	6258
2026-01-02 19:51:02.90	28.46	4.97	-37.5	-38.3	21.3	0.00e+00	0	38	0	183500800	48	5963
2026-01-02 19:51:03.90	28.37	5.03	-37.8	-38.7	20.9	0.00e+00	0	38	0	189792256	48	6243
2026-01-02 19:51:04.91	28.28	5.09	-37.4	-38.2	21.3	0.00e+00	0	38	0	195035136	48	5896
2026-01-02 19:51:05.92	28.19	5.15	-37.6	-38.5	21.0	0.00e+00	0	38	0	200278016	48	6044
2026-01-02 19:51:06.93	28.10	5.20	-37.3	-38.2	21.4	0.00e+00	0	39	0	206569472	48	5844
2026-01-02 19:51:07.95	28.00	5.26	-37.6	-38.4	21.1	0.00e+00	0	38	0	211812352	48	6030
2026-01-02 19:51:08.95	27.91	5.32	-37.6	-38.5	21.1	0.00e+00	0	38	0	218103808	48	6066
2026-01-02 19:51:09.96	27.82	5.38	-37.7	-38.6	21.1	0.00e+00	0	38	0	223346688	48	6119
2026-01-02 19:51:10.97	27.73	5.44	-37.4	-38.3	21.4	0.00e+00	0	39	0	228589568	48	5924
2026-01-02 19:51:11.98	27.64	5.50	-37.4	-38.2	21.4	0.00e+00	0	38	0	234881024	48	5879
2026-01-02 19:51:12.99	27.54	5.55	-37.6	-38.4	21.3	0.00e+00	0	38	0	240123904	48	6005
2026-01-02 19:51:13.99	27.45	5.61	-37.5	-38.3	21.4	0.00e+00	0	38	0	245366784	48	5939
2026-01-02 19:51:15.00	27.36	5.67	-37.4	-38.3	21.5	0.00e+00	0	38	0	251658240	48	5897
2026-01-02 19:51:16.01	27.26	5.73	-37.4	-38.2	21.5	0.00e+00	0	39	0	256901120	48	5868
2026-01-02 19:51:17.02	27.17	5.79	-37.3	-38.2	21.5	0.00e+00	0	39	0	263192576	48	5832
2026-01-02 19:51:18.03	27.07	5.85	-37.3	-38.1	21.7	0.00e+00	0	39	0	268435456	48	5786
2026-01-02 19:51:19.04	26.98	5.91	-37.4	-38.2	21.6	0.00e+00	0	38	0	274726912	48	5871
2026-01-02 19:51:20.05	26.88	5.97	-37.1	-37.9	21.9	0.00e+00	0	39	0	279969792	48	5659
2026-01-02 19:51:21.06	26.78	6.02	-37.1	-37.9	21.9	0.00e+00	0	38	0	286261248	48	5678
2026-01-02 19:51:22.07	26.69	6.08	-37.1	-37.9	21.8	0.00e+00	0	38	0	291504128	48	5692
2026-01-02 19:51:23.08	26.59	6.14	-36.9	-37.7	22.0	0.00e+00	0	38	0	296747008	48	5560
2026-01-02 19:51:24.09	26.49	6.20	-36.8	-37.6	22.2	0.00e+00	0	38	0	303038464	48	5446
2026-01-02 19:51:25.10	26.39	6.26	-37.2	-38.0	21.7	0.00e+00	0	39	0	308281344	48	5751
2026-01-02 19:51:26.11	26.30	6.32	-37.3	-38.1	21.8	0.00e+00	0	39	0	314572800	48	5791
2026-01-02 19:51:27.12	26.20	6.38	-37.4	-38.2	21.6	0.00e+00	0	39	0	319815680	48	5889
2026-01-02 19:51:28.12	26.10	6.44	-37.3	-38.2	21.7	0.00e+00	0	39	0	325058560	48	5833
2026-01-02 19:51:29.13	26.00	6.50	-37.0	-37.8	22.0	0.00e+00	0	39	0	331350016	48	5603
2026-01-02 19:51:30.14	25.90	6.56	-37.1	-38.0	21.8	0.00e+00	0	39	0	336592896	48	5700
2026-01-02 19:51:31.15	25.80	6.62	-37.0	-37.7	22.0	0.00e+00	0	39	0	342884352	48	5563
2026-01-02 19:51:32.16	25.70	6.68	-36.9	-37.7	22.1	0.00e+00	0	39	0	348127232	48	5512
2026-01-02 19:51:33.17	25.60	6.74	-36.9	-37.7	22.1	0.00e+00	0	39	0	353370112	48	5556
2026-01-02 19:51:34.18	25.49	6.80	-36.7	-37.5	22.2	0.00e+00	0	39	0	359661568	48	5424
2026-01-02 19:51:35.19	25.39	6.86	-37.1	-37.9	21.9	0.00e+00	0	39	0	364904448	46	6359
2026-01-02 19:51:36.20	25.29	6.92	-36.7	-37.5	22.4	0.00e+00	0	39	0	371195904	46	6059
2026-01-02 19:51:37.21	25.19	6.98	-36.9	-37.7	22.2	0.00e+00	0	39	0	376438784	46	6233
2026-01-02 19:51:38.22	25.08	7.04	-37.0	-37.8	22.1	0.00e+00	0	39	0	382730240	46	6264
2026-01-02 19:51:39.23	24.98	7.10	-37.1	-37.9	22.0	0.00e+00	0	39	0	387973120	46	6358
2026-01-02 19:51:40.24	24.87	7.16	-36.8	-37.5	22.3	0.00e+00	0	39	0	393216000	46	6090
2026-01-02 19:51:41.25	24.77	7.22	-36.6	-37.4	22.5	0.00e+00	0	39	0	399507456	46	5993
2026-01-02 19:51:42.25	24.66	7.28	-36.5	-37.2	22.6	0.00e+00	0	39	0	404750336	46	5879
2026-01-02 19:51:43.27	24.56	7.34	-36.6	-37.4	22.5	0.00e+00	0	39	0	411041792	46	5984
2026-01-02 19:51:44.28	24.45	7.40	-36.6	-37.3	22.5	0.00e+00	0	39	0	416284672	46	5956
2026-01-02 19:51:45.28	24.35	7.46	-36.5	-37.2	22.5	0.00e+00	0	39	0	421527552	46	5884
2026-01-02 19:51:46.29	24.24	7.52	-36.6	-37.4	22.5	0.00e+00	0	39	0	427819008	46	5976
2026-01-02 19:51:47.31	24.13	7.58	-36.7	-37.5	22.5	0.00e+00	0	39	0	433061888	46	6058
2026-01-02 19:51:48.31	24.02	7.64	-36.7	-37.5	22.5	0.00e+00	0	39	0	439353344	46	6049
2026-01-02 19:51:49.33	23.91	7.70	-36.9	-37.7	22.2	0.00e+00	0	39	0	444596224	46	6222
2026-01-02 19:51:50.33	23.80	7.76	-36.9	-37.7	22.2	0.00e+00	0	39	0	449839104	46	6199
2026-01-02 19:51:51.34	23.70	7.82	-37.0	-37.8	22.1	0.00e+00	0	39	0	456130560	46	6289
2026-01-02 19:51:52.36	23.58	7.88	-37.1	-37.9	22.1	0.00e+00	0	39	0	461373440	46	6371
2026-01-02 19:51:53.36	23.47	7.94	-37.0	-37.8	22.1	0.00e+00	0	39	0	467664896	46	6303
2026-01-02 19:51:54.37	23.36	8.00	-36.9	-37.7	22.3	0.00e+00	0	39	0	472907776	46	6228
2026-01-02 19:51:55.39	23.25	8.06	-36.6	-37.4	22.4	0.00e+00	0	39	0	479199232	46	6017
2026-01-02 19:51:56.40	23.14	8.12	-36.7	-37.5	22.4	0.00e+00	0	39	0	484442112	46	6083
2026-01-02 19:51:57.41	23.03	8.19	-36.5	-37.3	22.6	0.00e+00	0	39	0	490733568	46	5946
2026-01-02 19:51:58.42	22.91	8.25	-36.5	-37.3	22.7	0.00e+00	0	39	0	495976448	46	5952
2026-01-02 19:51:59.43	22.80	8.31	-36.5	-37.3	22.8	0.00e+00	0	39	0	501219328	46	5920
2026-01-02 19:52:00.44	22.69	8.37	-36.4	-37.2	22.9	0.00e+00	0	39	0	507510784	46	5854
2026-01-02 19:52:01.45	22.57	8.43	-36.1	-36.9	23.0	0.00e+00	0	39	0	512753664	46	5651
2026-01-02 19:52:02.46	22.46	8.49	-36.2	-36.9	23.0	0.00e+00	0	39	0	519045120	46	5673
2026-01-02 19:52:03.47	22.34	8.55	-36.1	-36.8	23.1	0.00e+00	0	39	0	524288000	46	5606
2026-01-02 19:52:04.48	22.23	8.61	-35.9	-36.6	23.4	0.00e+00	0	39	0	529530880	46	5479
2026-01-02 19:52:05.49	22.11	8.67	-35.9	-36.7	23.3	0.00e+00	0	39	0	535822336	46	5504
2026-01-02 19:52:06.50	21.99	8.73	-35.9	-36.6	23.3	0.00e+00	0	39	0	541065216	46	5457
2026-01-02 19:52:07.51	21.88	8.80	-35.8	-36.6	23.4	0.00e+00	0	39	0	547356672	46	5440
2026-01-02 19:52:08.52	21.76	8.86	-35.7	-36.4	23.5	0.00e+00	0	39	0	552599552	44	6014
2026-01-02 19:52:09.53	21.64	8.92	-35.6	-36.3	23.7	0.00e+00	0	39	0	557842432	44	5925
2026-01-02 19:52:10.54	21.52	8.98	-35.7	-36.4	23.6	0.00e+00	0	39	0	564133888	44	6021
2026-01-02 19:52:11.55	21.40	9.04	-35.6	-36.4	23.7	0.00e+00	0	39	0	569376768	44	5965
2026-01-02 19:52:12.56	21.28	9.10	-35.7	-36.4	23.6	0.00e+00	0	39	0	575668224	44	5981
2026-01-02 19:52:13.56	21.16	9.16	-35.7	-36.4	23.5	0.00e+00	0	39	0	580911104	44	6004
2026-01-02 19:52:14.57	21.04	9.22	-35.6	-36.3	23.7	0.00e+00	0	39	0	587202560	44	5911
2026-01-02 19:52:15.58	20.92	9.29	-35.6	-36.3	23.7	0.00e+00	0	39	0	592445440	44	5945
2026-01-02 19:52:16.60	20.80	9.35	-35.6	-36.4	23.7	0.00e+00	0	39	0	597688320	44	5968
2026-01-02 19:52:17.61	20.67	9.41	-35.8	-36.5	23.5	0.00e+00	0	39	0	603979776	44	6066
2026-01-02 19:52:18.62	20.55	9.47	-35.8	-36.6	23.4	0.00e+00	0	39	0	609222656	44	6124
2026-01-02 19:52:19.63	20.43	9.53	-35.9	-36.7	23.4	0.00e+00	0	39	0	615514112	44	6197
2026-01-02 19:52:20.64	20.30	9.59	-35.8	-36.6	23.5	0.00e+00	0	39	0	620756992	44	6141
2026-01-02 19:52:21.65	20.18	9.66	-35.9	-36.7	23.4	0.00e+00	0	39	0	625999872	44	6192
2026-01-02 19:52:22.66	20.05	9.72	-35.8	-36.5	23.5	0.00e+00	0	39	0	632291328	44	6065
2026-01-02 19:52:23.67	19.93	9.78	-35.8	-36.5	23.5	0.00e+00	0	39	0	637534208	44	6076
2026-01-02 19:52:24.68	19.80	9.84	-35.8	-36.6	23.5	0.00e+00	0	39	0	643825664	44	6116
2026-01-02 19:52:25.69	19.67	9.90	-35.8	-36.5	23.6	0.00e+00	0	39	0	649068544	44	6103
2026-01-02 19:52:26.70	19.55	9.96	-35.7	-36.4	23.5	0.00e+00	0	39	0	654311424	44	6026
2026-01-02 19:52:27.71	19.42	10.03	-35.8	-36.6	23.6	0.00e+00	0	39	0	660602880	44	6127
2026-01-02 19:52:28.72	19.29	10.09	-35.7	-36.5	23.7	0.00e+00	0	39	0	665845760	44	6035
2026-01-02 19:52:29.73	19.16	10.15	-35.8	-36.5	23.6	0.00e+00	0	39	0	672137216	44	6070
2026-01-02 19:52:30.74	19.03	10.21	-35.7	-36.5	23.5	0.00e+00	0	39	0	677380096	44	6061
2026-01-02 19:52:31.75	18.90	10.27	-35.8	-36.5	23.6	0.00e+00	0	39	0	683671552	44	6074
2026-01-02 19:52:32.76	18.77	10.33	-35.6	-36.3	23.8	0.00e+00	0	39	0	688914432	44	5938
2026-01-02 19:52:33.76	18.64	10.40	-35.4	-36.1	23.9	0.00e+00	0	39	0	695205888	44	5800
2026-01-02 19:52:34.78	18.51	10.46	-35.3	-36.0	24.0	0.00e+00	0	39	0	700448768	44	5738
2026-01-02 19:52:35.79	18.37	10.52	-35.3	-36.0	24.0	0.00e+00	0	39	0	705691648	44	5745
2026-01-02 19:52:36.80	18.24	10.58	-35.4	-36.1	24.0	0.00e+00	0	39	0	711983104	44	5766
2026-01-02 19:52:37.81	18.11	10.64	-35.3	-36.0	24.0	0.00e+00	0	39	0	717225984	44	5754
2026-01-02 19:52:38.82	17.97	10.71	-35.4	-36.1	24.0	0.00e+00	0	39	0	723517440	44	5773
2026-01-02 19:52:39.82	17.84	10.77	-35.5	-36.2	23.8	0.00e+00	0	39	0	728760320	44	5883
2026-01-02 19:52:40.83	17.70	10.83	-35.5	-36.2	23.9	0.00e+00	0	39	0	734003200	44	5851
2026-01-02 19:52:41.84	17.57	10.89	-35.6	-36.3	23.9	0.00e+00	0	39	0	740294656	44	5899
2026-01-02 19:52:42.85	17.43	10.95	-35.5	-36.2	23.9	0.00e+00	0	39	0	745537536	44	5874
2026-01-02 19:52:43.86	17.29	11.01	-35.6	-36.3	23.8	0.00e+00	0	39	0	751828992	44	5928
2026-01-02 19:52:44.87	17.16	11.08	-35.3	-36.1	24.1	0.00e+00	0	39	0	757071872	44	5781
2026-01-02 19:52:45.88	17.02	11.14	-35.3	-36.0	24.1	0.00e+00	0	39	0	762314752	44	5749
2026-01-02 19:52:46.89	16.88	11.20	-35.2	-35.9	24.2	0.00e+00	0	39	0	768606208	44	5677
2026-01-02 19:52:47.90	16.74	11.26	-35.2	-35.9	24.1	0.00e+00	0	39	0	773849088	44	5686
2026-01-02 19:52:48.91	16.60	11.32	-35.1	-35.8	24.2	0.00e+00	0	38	0	780140544	44	5627
2026-01-02 19:52:49.92	16.46	11.38	-35.2	-35.9	24.2	0.00e+00	0	39	0	785383424	44	5670
2026-01-02 19:52:50.93	16.32	11.45	-35.4	-36.1	24.0	0.00e+00	0	39	0	791674880	44	5785
2026-01-02 19:52:51.94	16.18	11.51	-35.1	-35.8	24.2	0.00e+00	0	39	0	796917760	44	5584
2026-01-02 19:52:52.95	16.03	11.57	-35.1	-35.8	24.2	0.00e+00	0	38	0	802160640	44	5616
2026-01-02 19:52:53.96	15.89	11.63	-35.2	-35.9	24.2	0.00e+00	0	39	0	808452096	44	5681
2026-01-02 19:52:54.97	15.75	11.69	-35.1	-35.8	24.2	0.00e+00	0	38	0	813694976	44	5605
2026-01-02 19:52:55.98	15.60	11.75	-35.1	-35.8	24.3	0.00e+00	0	38	0	819986432	44	5625
2026-01-02 19:52:56.99	15.46	11.82	-35.2	-35.9	24.3	0.00e+00	0	38	0	825229312	44	5632
2026-01-02 19:52:58.00	15.31	11.88	-35.0	-35.7	24.4	0.00e+00	0	38	0	830472192	44	5516
2026-01-02 19:52:59.01	15.17	11.94	-35.0	-35.7	24.4	0.00e+00	0	38	0	836763648	44	5557
2026-01-02 19:53:00.02	15.02	12.00	-35.2	-35.9	24.2	0.00e+00	0	38	0	842006528	44	5683
2026-01-02 19:53:01.03	14.87	12.06	-35.1	-35.8	24.3	0.00e+00	0	39	0	848297984	44	5595
2026-01-02 19:53:02.04	14.72	12.12	-35.2	-35.8	24.2	0.00e+00	0	39	0	853540864	44	5630
2026-01-02 19:53:03.05	14.57	12.18	-35.0	-35.7	24.4	0.00e+00	0	39	0	858783744	44	5528
2026-01-02 19:53:04.06	14.42	12.25	-34.9	-35.6	24.5	0.00e+00	0	39	0	865075200	44	5469
2026-01-02 19:53:05.06	14.28	12.31	-34.8	-35.5	24.6	0.00e+00	0	39	0	870318080	44	5399
2026-01-02 19:53:06.08	14.12	12.37	-34.9	-35.6	24.5	0.00e+00	0	38	0	876609536	44	5461
2026-01-02 19:53:07.08	13.97	12.43	-34.8	-35.5	24.6	0.00e+00	0	39	0	881852416	44	5417
2026-01-02 19:53:08.09	13.82	12.49	-34.8	-35.5	24.6	0.00e+00	0	39	0	888143872	44	5387
2026-01-02 19:53:09.10	13.67	12.55	-35.0	-35.7	24.4	0.00e+00	0	39	0	893386752	44	5516
2026-01-02 19:53:10.11	13.52	12.61	-34.9	-35.6	24.5	0.00e+00	0	39	0	899678208	44	5496
2026-01-02 19:53:11.12	13.36	12.67	-34.9	-35.6	24.5	0.00e+00	0	39	0	904921088	44	5493
2026-01-02 19:53:12.13	13.21	12.73	-34.9	-35.6	24.5	0.00e+00	0	38	0	910163968	44	5450
2026-01-02 19:53:13.14	13.05	12.79	-34.9	-35.6	24.5	0.00e+00	0	39	0	916455424	44	5455
2026-01-02 19:53:14.15	12.90	12.86	-34.8	-35.5	24.6	0.00e+00	0	39	0	921698304	44	5418
2026-01-02 19:53:15.17	12.74	12.92	-34.9	-35.6	24.6	0.00e+00	0	39	0	927989760	42	6126
2026-01-02 19:53:16.17	12.58	12.98	-34.7	-35.4	24.8	0.00e+00	0	39	0	933232640	42	5996
2026-01-02 19:53:17.19	12.42	13.04	-34.6	-35.3	24.9	0.00e+00	0	39	0	938475520	42	5929
2026-01-02 19:53:18.20	12.26	13.10	-34.6	-35.3	24.8	0.00e+00	0	39	0	944766976	42	5926
2026-01-02 19:53:19.21	12.10	13.16	-34.6	-35.3	24.9	0.00e+00	0	39	0	950009856	42	5898
2026-01-02 19:53:20.22	11.94	13.22	-34.8	-35.4	24.7	0.00e+00	0	39	0	956301312	42	6028
2026-01-02 19:53:21.23	11.78	13.28	-34.8	-35.5	24.7	0.00e+00	0	39	0	961544192	42	6082
2026-01-02 19:53:22.24	11.62	13.34	-35.0	-35.7	24.5	0.00e+00	0	39	0	966787072	42	6229
2026-01-02 19:53:23.25	11.46	13.40	-35.2	-35.9	24.3	0.00e+00	0	39	0	973078528	42	6355
2026-01-02 19:53:24.26	11.30	13.46	-35.3	-36.0	24.3	0.00e+00	0	39	0	978321408	42	6404
2026-01-02 19:53:25.27	11.14	13.52	-35.3	-36.0	24.3	0.00e+00	0	39	0	984612864	42	6439
2026-01-02 19:53:26.28	10.97	13.58	-35.0	-35.6	24.6	0.00e+00	0	38	0	989855744	42	6162
2026-01-02 19:53:27.29	10.81	13.64	-34.6	-35.2	24.9	0.00e+00	0	38	0	996147200	42	5892
2026-01-02 19:53:28.30	10.64	13.70	-34.7	-35.4	24.9	0.00e+00	0	39	0	1001390080	42	5974
2026-01-02 19:53:29.31	10.48	13.76	-34.4	-35.1	25.1	0.00e+00	0	39	0	1007681536	42	5825
2026-01-02 19:53:30.32	10.31	13.82	-34.5	-35.2	25.0	0.00e+00	0	39	0	1012924416	42	5864
2026-01-02 19:53:31.33	10.14	13.88	-34.4	-35.1	25.1	0.00e+00	0	39	0	1018167296	42	5786
2026-01-02 19:53:32.34	9.97	13.94	-34.4	-35.0	25.2	0.00e+00	0	38	0	1024458752	42	5747
2026-01-02 19:53:33.34	9.81	14.00	-34.4	-35.1	25.1	0.00e+00	0	38	0	1029701632	42	5801
2026-01-02 19:53:34.36	9.64	14.06	-34.3	-35.0	25.2	0.00e+00	0	38	0	1035993088	42	5720
2026-01-02 19:53:35.36	9.47	14.12	-34.4	-35.0	25.1	0.00e+00	0	38	0	1041235968	42	5746
2026-01-02 19:53:36.37	9.30	14.17	-34.4	-35.1	25.1	0.00e+00	0	39	0	1046478848	42	5802
2026-01-02 19:53:37.38	9.12	14.23	-34.6	-35.2	24.9	0.00e+00	0	39	0	1052770304	42	5888
2026-01-02 19:53:38.39	8.95	14.29	-34.5	-35.2	25.0	0.00e+00	0	39	0	1058013184	42	5887
2026-01-02 19:53:39.40	8.78	14.35	-34.7	-35.4	24.9	0.00e+00	0	39	0	1063256064	42	5980
2026-01-02 19:53:40.41	8.61	14.41	-34.9	-35.6	24.7	0.00e+00	0	39	0	1069547520	42	6108
2026-01-02 19:53:41.42	8.43	14.47	-34.7	-35.4	24.9	0.00e+00	0	39	0	1074790400	42	5981
2026-01-02 19:53:42.43	8.26	14.53	-34.6	-35.3	24.9	0.00e+00	0	39	0	1081081856	42	5913
2026-01-02 19:53:43.44	8.08	14.58	-34.7	-35.4	24.8	0.00e+00	0	39	0	1086324736	42	6029
2026-01-02 19:53:44.45	7.90	14.64	-34.6	-35.3	24.9	0.00e+00	0	39	0	1092616192	42	5945
2026-01-02 19:53:45.46	7.73	14.70	-34.4	-35.1	25.1	0.00e+00	0	39	0	1097859072	42	5782
2026-01-02 19:53:46.47	7.55	14.76	-34.5	-35.1	25.2	0.00e+00	0	38	0	1104150528	42	5821
2026-01-02 19:53:47.48	7.37	14.82	-34.2	-34.9	25.3	0.00e+00	0	39	0	1109393408	42	5679
2026-01-02 19:53:48.49	7.19	14.87	-34.4	-35.0	25.2	0.00e+00	0	38	0	1114636288	42	5761
2026-01-02 19:53:49.50	7.01	14.93	-34.1	-34.8	25.4	0.00e+00	0	38	0	1120927744	42	5572
2026-01-02 19:53:50.51	6.83	14.99	-34.1	-34.7	25.4	0.00e+00	0	39	0	1126170624	42	5562
2026-01-02 19:53:51.52	6.65	15.04	-34.1	-34.7	25.6	0.00e+00	0	39	0	1132462080	42	5536
2026-01-02 19:53:52.53	6.47	15.10	-33.9	-34.6	25.5	0.00e+00	0	39	0	1137704960	42	5465
2026-01-02 19:53:53.54	6.29	15.16	-33.9	-34.6	25.6	0.00e+00	0	38	0	1142947840	42	5464
2026-01-02 19:53:54.55	6.10	15.21	-33.8	-34.5	25.7	0.00e+00	0	38	0	1149239296	42	5403
2026-01-02 19:53:55.56	5.92	15.27	-34.0	-34.6	25.6	0.00e+00	0	39	0	1154482176	42	5486
2026-01-02 19:53:56.57	5.73	15.33	-33.9	-34.6	25.6	0.00e+00	0	39	0	1160773632	42	5469
2026-01-02 19:53:57.58	5.55	15.38	-34.0	-34.7	25.6	0.00e+00	0	39	0	1166016512	42	5513
2026-01-02 19:53:58.59	5.36	15.44	-33.9	-34.6	25.6	0.00e+00	0	39	0	1171259392	42	5489
2026-01-02 19:53:59.60	5.18	15.49	-34.0	-34.7	25.5	0.00e+00	0	39	0	1177550848	42	5547
2026-01-02 19:54:00.61	4.99	15.55	-34.2	-34.9	25.4	0.00e+00	0	39	0	1182793728	42	5635
2026-01-02 19:54:01.62	4.80	15.60	-33.9	-34.6	25.6	0.00e+00	0	38	0	1189085184	42	5479
2026-01-02 19:54:02.63	4.61	15.66	-34.0	-34.7	25.5	0.00e+00	0	39	0	1194328064	42	5513
2026-01-02 19:54:03.64	4.42	15.71	-33.9	-34.5	25.6	0.00e+00	0	39	0	1200619520	42	5428
2026-01-02 19:54:04.65	4.23	15.77	-33.9	-34.5	25.7	0.00e+00	0	38	0	1205862400	40	6069
2026-01-02 19:54:05.66	4.04	15.82	-33.8	-34.4	25.7	0.00e+00	0	39	0	1212153856	40	6018
2026-01-02 19:54:06.67	3.85	15.88	-33.9	-34.5	25.6	0.00e+00	0	39	0	1217396736	40	6075
2026-01-02 19:54:07.68	3.65	15.93	-34.0	-34.6	25.7	0.00e+00	0	39	0	1222639616	40	6141
2026-01-02 19:54:08.69	3.46	15.99	-33.7	-34.4	25.7	0.00e+00	0	39	0	1228931072	40	5973
2026-01-02 19:54:09.70	3.27	16.04	-33.9	-34.5	25.6	0.00e+00	0	39	0	1234173952	40	6082
2026-01-02 19:54:10.71	3.07	16.09	-33.9	-34.6	25.5	0.00e+00	0	39	0	1240465408	40	6109
2026-01-02 19:54:11.72	2.88	16.15	-33.9	-34.6	25.6	0.00e+00	0	39	0	1245708288	40	6130
2026-01-02 19:54:12.73	2.68	16.20	-33.9	-34.5	25.6	0.00e+00	0	39	0	1250951168	40	6101
2026-01-02 19:54:13.74	2.48	16.25	-33.9	-34.6	25.7	0.00e+00	0	39	0	1257242624	40	6142
2026-01-02 19:54:14.75	2.29	16.30	-33.7	-34.4	25.8	0.00e+00	0	38	0	1262485504	40	5980
2026-01-02 19:54:15.76	2.09	16.36	-33.6	-34.3	25.9	0.00e+00	0	39	0	1268776960	40	5929
2026-01-02 19:54:16.77	1.89	16.41	-33.6	-34.3	25.8	0.00e+00	0	38	0	1274019840	40	5933
2026-01-02 19:54:17.78	1.69	16.46	-33.6	-34.3	25.8	0.00e+00	0	38	0	1279262720	40	5921
2026-01-02 19:54:18.79	1.49	16.51	-33.8	-34.4	25.8	0.00e+00	0	38	0	1285554176	40	6021
2026-01-02 19:54:19.80	1.29	16.56	-33.7	-34.4	25.8	0.00e+00	0	38	0	1290797056	40	5980
2026-01-02 19:54:20.81	1.09	16.61	-33.9	-34.6	25.7	0.00e+00	0	38	0	1297088512	40	6107
2026-01-02 19:54:21.82	0.88	16.66	-33.7	-34.4	25.9	0.00e+00	0	38	0	1302331392	40	5975
2026-01-02 19:54:22.83	0.68	16.72	-33.7	-34.4	25.8	0.00e+00	0	38	0	1308622848	40	5991
2026-01-02 19:54:23.83	0.48	16.77	-33.5	-34.2	26.0	0.00e+00	0	38	0	1313865728	40	5856
2026-01-02 19:54:24.84	0.27	16.82	-33.5	-34.1	26.0	0.00e+00	0	38	0	1319108608	40	5798
2026-01-02 19:54:25.85	0.07	16.86	-33.5	-34.1	26.1	0.00e+00	0	38	0	1325400064	40	5798
2026-01-02 19:54:26.86	359.86	16.91	-33.5	-34.1	26.0	0.00e+00	0	38	0	1330642944	40	5824
2026-01-02 19:54:27.87	359.66	16.96	-33.4	-34.1	26.1	0.00e+00	0	38	0	1336934400	40	5788
2026-01-02 19:54:28.88	359.45	17.01	-33.3	-34.0	26.1	0.00e+00	0	38	0	1342177280	40	5699
2026-01-02 19:54:29.89	359.24	17.06	-33.5	-34.1	26.0	0.00e+00	0	39	0	1347420160	40	5818
2026-01-02 19:54:30.90	359.03	17.11	-33.3	-34.0	26.2	0.00e+00	0	38	0	1353711616	40	5706
2026-01-02 19:54:31.91	358.82	17.16	-33.2	-33.9	26.3	0.00e+00	0	38	0	1358954496	40	5649
2026-01-02 19:54:32.92	358.61	17.20	-33.3	-33.9	26.2	0.00e+00	0	38	0	1365245952	40	5653
2026-01-02 19:54:33.93	358.40	17.25	-33.3	-33.9	26.2	0.00e+00	0	38	0	1370488832	40	5663
2026-01-02 19:54:34.94	358.19	17.30	-33.3	-33.9	26.2	0.00e+00	0	38	0	1375731712	40	5695
2026-01-02 19:54:35.95	357.98	17.35	-33.4	-34.0	26.1	0.00e+00	0	39	0	1382023168	40	5737
2026-01-02 19:54:36.96	357.77	17.39	-33.3	-34.0	26.2	0.00e+00	0	39	0	1387266048	40	5737
2026-01-02 19:54:37.97	357.55	17.44	-33.4	-34.0	26.2	0.00e+00	0	39	0	1393557504	40	5738
2026-01-02 19:54:38.98	357.34	17.48	-33.3	-33.9	26.2	0.00e+00	0	39	0	1398800384	40	5679
2026-01-02 19:54:39.99	357.13	17.53	-33.2	-33.8	26.3	0.00e+00	0	38	0	1405091840	40	5602
2026-01-02 19:54:41.00	356.91	17.57	-33.2	-33.8	26.3	0.00e+00	0	38	0	1410334720	40	5599
2026-01-02 19:54:42.01	356.70	17.62	-33.3	-34.0	26.1	0.00e+00	0	38	0	1416626176	40	5740
2026-01-02 19:54:43.02	356.48	17.66	-33.2	-33.8	26.3	0.00e+00	0	38	0	1421869056	40	5625
2026-01-02 19:54:44.03	356.26	17.71	-33.3	-33.9	26.2	0.00e+00	0	38	0	1427111936	40	5681
2026-01-02 19:54:45.04	356.04	17.75	-33.3	-34.0	26.2	0.00e+00	0	39	0	1433403392	40	5714
2026-01-02 19:54:46.05	355.83	17.80	-33.3	-33.9	26.2	0.00e+00	0	38	0	1438646272	40	5690
2026-01-02 19:54:47.05	355.61	17.84	-33.4	-34.0	26.1	0.00e+00	0	38	0	1443889152	40	5757
2026-01-02 19:54:48.06	355.39	17.88	-33.1	-33.7	26.4	0.00e+00	0	39	0	1450180608	40	5558
2026-01-02 19:54:49.07	355.17	17.92	-33.3	-33.9	26.2	0.00e+00	0	38	0	1455423488	40	5668
2026-01-02 19:54:50.08	354.95	17.96	-33.1	-33.7	26.5	0.00e+00	0	39	0	1461714944	40	5538
2026-01-02 19:54:51.09	354.73	18.01	-33.1	-33.7	26.4	0.00e+00	0	38	0	1466957824	40	5533
2026-01-02 19:54:52.10	354.50	18.05	-33.1	-33.8	26.4	0.00e+00	0	38	0	1472200704	40	5576
2026-01-02 19:54:53.11	354.28	18.09	-33.1	-33.8	26.4	0.00e+00	0	38	0	1478492160	40	5576
2026-01-02 19:54:54.12	354.06	18.13	-33.2	-33.9	26.3	0.00e+00	0	38	0	1483735040	40	5663
2026-01-02 19:54:55.12	353.84	18.17	-33.4	-34.0	26.1	0.00e+00	0	38	0	1490026496	40	5757
2026-01-02 19:54:56.14	353.61	18.21	-33.3	-34.0	26.1	0.00e+00	0	39	0	1495269376	40	5702
2026-01-02 19:54:57.15	353.38	18.25	-33.4	-34.0	26.1	0.00e+00	0	39	0	1501560832	40	5746
2026-01-02 19:54:58.16	353.16	18.29	-33.3	-34.0	26.2	0.00e+00	0	39	0	1506803712	40	5699
2026-01-02 19:54:59.17	352.93	18.33	-33.4	-34.0	26.2	0.00e+00	0	39	0	1513095168	40	5730
2026-01-02 19:55:00.18	352.70	18.36	-33.2	-33.8	26.4	0.00e+00	0	38	0	1518338048	40	5598
2026-01-02 19:55:01.18	352.48	18.40	-33.2	-33.8	26.3	0.00e+00	0	39	0	1523580928	40	5612
2026-01-02 19:55:02.20	352.25	18.44	-33.1	-33.8	26.4	0.00e+00	0	39	0	1529872384	40	5590
2026-01-02 19:55:03.20	352.02	18.47	-33.2	-33.9	26.3	0.00e+00	0	38	0	1535115264	40	5647
2026-01-02 19:55:04.21	351.79	18.51	-33.1	-33.8	26.4	0.00e+00	0	38	0	1541406720	40	5594
2026-01-02 19:55:05.22	351.56	18.55	-33.4	-34.1	26.2	0.00e+00	0	39	0	1546649600	40	5770
2026-01-02 19:55:06.23	351.33	18.58	-33.4	-34.0	26.1	0.00e+00	0	39	0	1551892480	40	5719
2026-01-02 19:55:07.24	351.10	18.62	-33.3	-34.0	26.2	0.00e+00	0	39	0	1558183936	40	5703
2026-01-02 19:55:08.25	350.87	18.65	-33.6	-34.3	26.1	0.00e+00	0	39	0	1563426816	40	5909
2026-01-02 19:55:09.26	350.64	18.69	-33.1	-33.7	26.4	0.00e+00	0	38	0	1569718272	40	5563
2026-01-02 19:55:10.27	350.41	18.72	-33.2	-33.9	26.3	0.00e+00	0	38	0	1574961152	40	5665
2026-01-02 19:55:11.27	350.18	18.75	-33.3	-33.9	26.4	0.00e+00	0	38	0	1580204032	40	5664
2026-01-02 19:55:12.28	349.94	18.79	-33.2	-33.8	26.3	0.00e+00	0	39	0	1586495488	40	5600
2026-01-02 19:55:13.29	349.71	18.82	-33.4	-34.0	26.2	0.00e+00	0	38	0	1591738368	40	5745
2026-01-02 19:55:14.30	349.47	18.85	-33.2	-33.8	26.3	0.00e+00	0	38	0	1598029824	40	5583
2026-01-02 19:55:15.31	349.24	18.88	-32.8	-33.5	26.6	0.00e+00	0	38	0	1603272704	40	5395
2026-01-02 19:55:16.32	349.00	18.91	-32.8	-33.4	26.7	0.00e+00	0	38	0	1609564160	38	6019
2026-01-02 19:55:17.33	348.77	18.94	-32.7	-33.4	26.7	0.00e+00	0	39	0	1614807040	38	5976
2026-01-02 19:55:18.34	348.53	18.97	-32.6	-33.2	26.8	0.00e+00	0	38	0	1620049920	38	5879
2026-01-02 19:55:19.35	348.29	19.00	-32.6	-33.2	26.8	0.00e+00	0	39	0	1626341376	38	5896
2026-01-02 19:55:20.36	348.06	19.03	-32.7	-33.3	26.7	0.00e+00	0	39	0	1631584256	38	5939
2026-01-02 19:55:21.37	347.82	19.06	-32.7	-33.4	26.7	0.00e+00	0	38	0	1637875712	38	5993
2026-01-02 19:55:22.38	347.58	19.09	-32.8	-33.5	26.6	0.00e+00	0	39	0	1643118592	38	6053
2026-01-02 19:55:23.39	347.34	19.12	-32.9	-33.6	26.5	0.00e+00	0	38	0	1648361472	38	6123
2026-01-02 19:55:24.40	347.10	19.15	-32.8	-33.4	26.7	0.00e+00	0	38	0	1654652928	38	6017
2026-01-02 19:55:25.41	346.86	19.17	-32.7	-33.4	26.7	0.00e+00	0	38	0	1659895808	38	5990
2026-01-02 19:55:26.41	346.62	19.20	-32.7	-33.3	26.8	0.00e+00	0	38	0	1666187264	38	5909
2026-01-02 19:55:27.42	346.38	19.22	-32.8	-33.5	26.6	0.00e+00	0	39	0	1671430144	38	6056
2026-01-02 19:55:28.43	346.14	19.25	-32.6	-33.3	26.8	0.00e+00	0	39	0	1676673024	38	5916
2026-01-02 19:55:29.44	345.90	19.27	-32.6	-33.3	26.8	0.00e+00	0	39	0	1682964480	38	5903
2026-01-02 19:55:30.45	345.66	19.30	-32.7	-33.4	26.7	0.00e+00	0	38	0	1688207360	38	5986
2026-01-02 19:55:31.46	345.42	19.32	-32.9	-33.6	26.6	0.00e+00	0	38	0	1694498816	38	6121
2026-01-02 19:55:32.47	345.17	19.35	-33.0	-33.6	26.5	0.00e+00	0	39	0	1699741696	38	6171
2026-01-02 19:55:33.48	344.93	19.37	-32.8	-33.5	26.7	0.00e+00	0	39	0	1706033152	38	6042
2026-01-02 19:55:34.49	344.69	19.39	-32.6	-33.3	26.9	0.00e+00	0	38	0	1711276032	38	5897
2026-01-02 19:55:35.50	344.45	19.41	-32.5	-33.1	27.0	0.00e+00	0	38	0	1716518912	38	5786
2026-01-02 19:55:36.50	344.20	19.43	-32.4	-33.1	27.0	0.00e+00	0	38	0	1722810368	38	5767
2026-01-02 19:55:37.51	343.96	19.45	-32.6	-33.2	26.8	0.00e+00	0	38	0	1728053248	38	5893
2026-01-02 19:55:38.52	343.71	19.47	-32.6	-33.2	26.9	0.00e+00	0	38	0	1734344704	38	5864
2026-01-02 19:55:39.53	343.47	19.49	-32.6	-33.2	26.9	0.00e+00	0	38	0	1739587584	38	5891
2026-01-02 19:55:40.54	343.22	19.51	-32.7	-33.4	26.8	0.00e+00	0	38	0	1744830464	38	5966
2026-01-02 19:55:41.55	342.98	19.53	-32.7	-33.4	26.8	0.00e+00	0	38	0	1751121920	38	5989
2026-01-02 19:55:42.56	342.73	19.55	-32.7	-33.3	26.9	0.00e+00	0	39	0	1756364800	38	5941
2026-01-02 19:55:43.57	342.49	19.57	-32.7	-33.4	26.8	0.00e+00	0	39	0	1762656256	38	6012
2026-01-02 19:55:44.58	342.24	19.58	-32.8	-33.4	26.7	0.00e+00	0	38	0	1767899136	38	6017
2026-01-02 19:55:45.59	341.99	19.60	-32.6	-33.3	26.9	0.00e+00	0	38	0	1773142016	38	5917
2026-01-02 19:55:46.60	341.75	19.62	-32.7	-33.3	26.9	0.00e+00	0	38	0	1779433472	38	5928
2026-01-02 19:55:47.61	341.50	19.63	-32.8	-33.4	26.7	0.00e+00	0	38	0	1784676352	38	5998
2026-01-02 19:55:48.62	341.25	19.65	-32.7	-33.3	26.9	0.00e+00	0	38	0	1790967808	38	5918
2026-01-02 19:55:49.63	341.01	19.66	-32.8	-33.4	26.7	0.00e+00	0	38	0	1796210688	38	5994
2026-01-02 19:55:50.64	340.76	19.67	-32.7	-33.4	26.8	0.00e+00	0	38	0	1802502144	38	5990
2026-01-02 19:55:51.64	340.51	19.69	-32.8	-33.4	26.8	0.00e+00	0	38	0	1807745024	38	5998
2026-01-02 19:55:52.65	340.26	19.70	-32.6	-33.3	26.9	0.00e+00	0	38	0	1814036480	38	5920
2026-01-02 19:55:53.66	340.01	19.71	-32.6	-33.3	26.9	0.00e+00	0	38	0	1819279360	38	5906
2026-01-02 19:55:54.67	339.77	19.72	-32.5	-33.1	26.9	0.00e+00	0	38	0	1824522240	38	5822
2026-01-02 19:55:55.68	339.52	19.73	-32.6	-33.3	26.8	0.00e+00	0	38	0	1830813696	38	5931
2026-01-02 19:55:56.69	339.27	19.74	-32.7	-33.4	26.7	0.00e+00	0	38	0	1836056576	38	6009
2026-01-02 19:55:57.70	339.02	19.75	-32.6	-33.3	26.9	0.00e+00	0	39	0	1841299456	38	5899
2026-01-02 19:55:58.70	338.77	19.76	-32.6	-33.2	26.8	0.00e+00	0	38	0	1847590912	38	5893
2026-01-02 19:55:59.71	338.52	19.77	-32.6	-33.2	26.8	0.00e+00	0	38	0	1852833792	38	5880
2026-01-02 19:56:00.72	338.27	19.78	-32.7	-33.3	26.8	0.00e+00	0	38	0	1859125248	38	5961
2026-01-02 19:56:01.73	338.02	19.79	-32.9	-33.5	26.7	0.00e+00	0	39	0	1864368128	38	6084
2026-01-02 19:56:02.74	337.77	19.79	-32.7	-33.3	26.8	0.00e+00	0	39	0	1869611008	38	5931
2026-01-02 19:56:03.76	337.52	19.80	-32.8	-33.5	26.7	0.00e+00	0	38	0	1875902464	38	6042
2026-01-02 19:56:04.76	337.27	19.80	-32.9	-33.6	26.6	0.00e+00	0	38	0	1881145344	38	6109
2026-01-02 19:56:05.78	337.02	19.81	-32.8	-33.4	26.7	0.00e+00	0	39	0	1887436800	38	5987
2026-01-02 19:56:06.78	336.77	19.81	-32.8	-33.4	26.8	0.00e+00	0	39	0	1892679680	38	6015
2026-01-02 19:56:07.79	336.52	19.82	-32.9	-33.6	26.7	0.00e+00	0	39	0	1898971136	38	6153
2026-01-02 19:56:08.80	336.27	19.82	-32.9	-33.6	26.6	0.00e+00	0	38	0	1904214016	38	6127
2026-01-02 19:56:09.81	336.02	19.82	-32.9	-33.5	26.6	0.00e+00	0	38	0	1910505472	38	6076
2026-01-02 19:56:10.82	335.77	19.83	-32.8	-33.4	26.7	0.00e+00	0	38	0	1915748352	38	6027
2026-01-02 19:56:11.83	335.52	19.83	-32.6	-33.2	26.9	0.00e+00	0	38	0	1920991232	38	5882
2026-01-02 19:56:12.84	335.27	19.83	-32.6	-33.3	26.8	0.00e+00	0	38	0	1927282688	38	5939
2026-01-02 19:56:13.85	335.02	19.83	-32.6	-33.3	26.9	0.00e+00	0	38	0	1932525568	38	5898
2026-01-02 19:56:14.86	334.77	19.83	-32.6	-33.3	26.9	0.00e+00	0	38	0	1938817024	38	5897
2026-01-02 19:56:15.87	334.52	19.83	-32.6	-33.2	26.9	0.00e+00	0	38	0	1944059904	38	5858
2026-01-02 19:56:16.88	334.27	19.83	-32.6	-33.2	26.9	0.00e+00	0	39	0	1949302784	38	5850
2026-01-02 19:56:17.88	334.02	19.83	-32.7	-33.3	26.9	0.00e+00	0	38	0	1955594240	38	5943
2026-01-02 19:56:18.89	333.77	19.82	-32.5	-33.2	26.9	0.00e+00	0	39	0	1960837120	38	5864
2026-01-02 19:56:19.90	333.52	19.82	-32.6	-33.2	26.8	0.00e+00	0	39	0	1967128576	38	5846
2026-01-02 19:56:20.91	333.27	19.82	-32.7	-33.4	26.7	0.00e+00	0	39	0	1972371456	38	5983
2026-01-02 19:56:21.92	333.02	19.81	-32.6	-33.2	26.8	0.00e+00	0	38	0	1977614336	38	5859
2026-01-02 19:56:22.93	332.77	19.81	-32.7	-33.3	26.9	0.00e+00	0	39	0	1983905792	38	5917
2026-01-02 19:56:23.94	332.52	19.80	-32.6	-33.3	26.9	0.00e+00	0	39	0	1989148672	38	5925
2026-01-02 19:56:24.95	332.26	19.80	-32.6	-33.2	26.8	0.00e+00	0	39	0	1995440128	38	5866
2026-01-02 19:56:25.96	332.01	19.79	-32.5	-33.1	26.7	0.00e+00	0	39	0	2000683008	38	5803
2026-01-02 19:56:26.97	331.76	19.79	-32.6	-33.2	26.8	0.00e+00	0	39	0	2006974464	38	5874
2026-01-02 19:56:27.98	331.51	19.78	-32.5	-33.1	26.9	0.00e+00	0	38	0	2012217344	38	5823
2026-01-02 19:56:28.99	331.27	19.77	-32.5	-33.1	26.9	0.00e+00	0	39	0	2017460224	38	5800
2026-01-02 19:56:30.00	331.02	19.76	-32.5	-33.1	26.9	0.00e+00	0	39	0	2023751680	38	5798
2026-01-02 19:56:31.01	330.77	19.75	-32.6	-33.2	26.9	0.00e+00	0	39	0	2028994560	38	5853
2026-01-02 19:56:32.02	330.52	19.74	-32.7	-33.3	26.9	0.00e+00	0	39	0	2035286016	38	5935
2026-01-02 19:56:33.03	330.27	19.73	-32.8	-33.4	26.7	0.00e+00	0	39	0	2040528896	38	6012
2026-01-02 19:56:34.04	330.02	19.72	-32.9	-33.6	26.7	0.00e+00	0	39	0	2045771776	38	6112
2026-01-02 19:56:35.04	329.77	19.71	-32.8	-33.4	26.6	0.00e+00	0	39	0	2052063232	38	6024
2026-01-02 19:56:36.05	329.52	19.70	-32.8	-33.4	26.8	0.00e+00	0	39	0	2057306112	38	5999
2026-01-02 19:56:37.06	329.28	19.69	-32.8	-33.4	26.8	0.00e+00	0	39	0	2063597568	38	5995
2026-01-02 19:56:38.08	329.02	19.67	-32.6	-33.2	26.9	0.00e+00	0	39	0	2068840448	38	5834
2026-01-02 19:56:39.08	328.78	19.66	-32.6	-33.2	26.9	0.00e+00	0	39	0	2074083328	38	5855
2026-01-02 19:56:40.09	328.53	19.64	-32.7	-33.2	26.9	0.00e+00	0	39	0	2080374784	38	5867
2026-01-02 19:56:41.10	328.28	19.63	-32.6	-33.2	27.0	0.00e+00	0	39	0	2085617664	38	5880
2026-01-02 19:56:42.11	328.04	19.61	-32.6	-33.2	26.9	0.00e+00	0	39	0	2091909120	38	5835
2026-01-02 19:56:43.12	327.79	19.60	-32.7	-33.3	26.9	0.00e+00	0	39	0	2097152000	38	5947
2026-01-02 19:56:44.12	327.54	19.58	-32.7	-33.4	26.8	0.00e+00	0	39	0	2103443456	38	5987
2026-01-02 19:56:45.13	327.30	19.57	-32.7	-33.4	26.8	0.00e+00	0	39	0	2108686336	38	5976
2026-01-02 19:56:46.14	327.05	19.55	-32.8	-33.4	26.8	0.00e+00	0	39	0	2113929216	38	5991
2026-01-02 19:56:47.15	326.81	19.53	-32.8	-33.4	26.9	0.00e+00	0	39	0	2120220672	38	5977
2026-01-02 19:56:48.16	326.56	19.51	-32.6	-33.2	26.9	0.00e+00	0	39	0	2125463552	38	5890
2026-01-02 19:56:49.17	326.31	19.49	-32.6	-33.2	26.9	0.00e+00	0	39	0	2131755008	38	5889
2026-01-02 19:56:50.18	326.07	19.47	-32.5	-33.1	27.0	0.00e+00	0	39	0	2136997888	38	5796
2026-01-02 19:56:51.19	325.82	19.45	-32.6	-33.2	26.8	0.00e+00	0	39	0	2142240768	38	5884
2026-01-02 19:56:52.20	325.58	19.43	-32.8	-33.5	26.9	0.00e+00	0	38	0	2148532224	38	6054
2026-01-02 19:56:53.21	325.34	19.41	-32.8	-33.5	26.8	0.00e+00	0	39	0	2153775104	38	6090
2026-01-02 19:56:54.22	325.09	19.39	-32.9	-33.4	26.7	0.00e+00	0	38	0	2160066560	38	6027
2026-01-02 19:56:55.23	324.85	19.37	-32.9	-33.5	26.7	0.00e+00	0	39	0	2165309440	38	6081
2026-01-02 19:56:56.24	324.61	19.34	-32.8	-33.5	26.8	0.00e+00	0	38	0	2170552320	38	6045
2026-01-02 19:56:57.25	324.36	19.32	-32.8	-33.4	26.8	0.00e+00	0	39	0	2176843776	38	6030
2026-01-02 19:56:58.26	324.12	19.30	-32.8	-33.4	26.8	0.00e+00	0	38	0	2182086656	38	6017
2026-01-02 19:56:59.27	323.88	19.27	-32.8	-33.4	26.8	0.00e+00	0	39	0	2188378112	38	6028
2026-01-02 19:57:00.28	323.64	19.25	-32.9	-33.5	26.8	0.00e+00	0	39	0	2193620992	38	6097
2026-01-02 19:57:01.28	323.40	19.22	-32.9	-33.5	26.8	0.00e+00	0	39	0	2199912448	38	6082
2026-01-02 19:57:02.29	323.16	19.20	-33.0	-33.6	26.7	0.00e+00	0	39	0	2205155328	38	6131
2026-01-02 19:57:03.30	322.92	19.17	-32.8	-33.5	26.7	0.00e+00	0	39	0	2211446784	38	6068
2026-01-02 19:57:04.31	322.68	19.14	-32.8	-33.5	26.8	0.00e+00	0	39	0	2216689664	38	6044
2026-01-02 19:57:05.32	322.44	19.12	-33.0	-33.6	26.7	0.00e+00	0	39	0	2221932544	38	6163
2026-01-02 19:57:06.33	322.20	19.09	-33.0	-33.6	26.7	0.00e+00	0	39	0	2228224000	38	6157
2026-01-02 19:57:07.34	321.96	19.06	-33.0	-33.6	26.5	0.00e+00	0	39	0	2233466880	38	6159
2026-01-02 19:57:08.35	321.72	19.03	-33.1	-33.8	26.5	0.00e+00	0	39	0	2238709760	38	6296
2026-01-02 19:57:09.36	321.49	19.00	-33.2	-33.9	26.4	0.00e+00	0	39	0	2245001216	38	6335
2026-01-02 19:57:10.36	321.25	18.97	-32.9	-33.6	26.7	0.00e+00	0	39	0	2250244096	38	6159
2026-01-02 19:57:11.37	321.01	18.94	-32.8	-33.5	26.8	0.00e+00	0	39	0	2256535552	38	6076
2026-01-02 19:57:12.38	320.78	18.91	-32.8	-33.4	26.8	0.00e+00	0	38	0	2261778432	38	5982
2026-01-02 19:57:13.39	320.54	18.88	-32.7	-33.4	26.9	0.00e+00	0	39	0	2267021312	38	5997
2026-01-02 19:57:14.40	320.31	18.85	-32.9	-33.5	26.7	0.00e+00	0	39	0	2273312768	38	6067
2026-01-02 19:57:15.41	320.07	18.82	-32.7	-33.3	26.8	0.00e+00	0	39	0	2278555648	38	5897
2026-01-02 19:57:16.41	319.84	18.78	-32.8	-33.4	26.7	0.00e+00	0	39	0	2284847104	38	5981
2026-01-02 19:57:17.43	319.60	18.75	-32.9	-33.6	26.7	0.00e+00	0	39	0	2290089984	38	6111
2026-01-02 19:57:18.43	319.37	18.72	-32.9	-33.6	26.7	0.00e+00	0	39	0	2296381440	38	6170
2026-01-02 19:57:19.44	319.14	18.68	-32.8	-33.5	26.8	0.00e+00	0	39	0	2301624320	38	6060
2026-01-02 19:57:20.45	318.91	18.65	-32.8	-33.5	26.8	0.00e+00	0	39	0	2307915776	38	6093
2026-01-02 19:57:21.46	318.68	18.61	-32.9	-33.6	26.7	0.00e+00	0	39	0	2313158656	38	6162
2026-01-02 19:57:22.47	318.44	18.58	-33.1	-33.7	26.6	0.00e+00	0	39	0	2318401536	38	6236
2026-01-02 19:57:23.48	318.21	18.54	-33.1	-33.8	26.5	0.00e+00	0	39	0	2324692992	38	6314
2026-01-02 19:57:24.49	317.98	18.51	-33.2	-33.9	26.5	0.00e+00	0	39	0	2329935872	38	6348
2026-01-02 19:57:25.50	317.75	18.47	-33.1	-33.8	26.5	0.00e+00	0	39	0	2336227328	38	6272
2026-01-02 19:57:26.51	317.53	18.43	-33.0	-33.8	26.5	0.00e+00	0	39	0	2341470208	38	6253
2026-01-02 19:57:27.53	317.29	18.40	-33.1	-33.6	26.6	0.00e+00	0	39	0	2346713088	38	6157
2026-01-02 19:57:28.53	317.07	18.36	-33.1	-33.8	26.5	0.00e+00	0	39	0	2353004544	38	6273
2026-01-02 19:57:29.54	316.84	18.32	-33.1	-33.8	26.6	0.00e+00	0	39	0	2358247424	38	6250
2026-01-02 19:57:30.55	316.61	18.28	-33.0	-33.7	26.6	0.00e+00	0	39	0	2363490304	38	6200
2026-01-02 19:57:31.56	316.39	18.24	-32.9	-33.5	26.7	0.00e+00	0	39	0	2369781760	38	6090
2026-01-02 19:57:32.57	316.16	18.20	-32.8	-33.4	26.8	0.00e+00	0	39	0	2375024640	38	5983
2026-01-02 19:57:33.58	315.94	18.16	-32.9	-33.4	26.7	0.00e+00	0	39	0	2381316096	38	6010
2026-01-02 19:57:34.59	315.71	18.12	-33.0	-33.6	26.6	0.00e+00	0	39	0	2386558976	38	6171
2026-01-02 19:57:35.59	315.49	18.08	-33.0	-33.7	26.7	0.00e+00	0	39	0	2392850432	38	6177
2026-01-02 19:57:36.60	315.27	18.04	-33.2	-33.8	26.5	0.00e+00	0	39	0	2398093312	38	6314
2026-01-02 19:57:37.61	315.05	18.00	-33.1	-33.7	26.5	0.00e+00	0	39	0	2404384768	38	6229
2026-01-02 19:57:38.62	314.82	17.96	-33.1	-33.8	26.6	0.00e+00	0	39	0	2409627648	38	6247
2026-01-02 19:57:39.63	314.60	17.92	-33.1	-33.7	26.5	0.00e+00	0	39	0	2414870528	38	6234
2026-01-02 19:57:40.64	314.38	17.88	-33.1	-33.7	26.5	0.00e+00	0	39	0	2421161984	38	6180
2026-01-02 19:57:41.65	314.16	17.83	-33.1	-33.7	26.6	0.00e+00	0	39	0	2426404864	38	6181
2026-01-02 19:57:42.66	313.94	17.79	-33.2	-33.8	26.5	0.00e+00	0	39	0	2432696320	38	6248
2026-01-02 19:57:43.67	313.72	17.75	-33.2	-33.9	26.4	0.00e+00	0	39	0	2437939200	38	6332
2026-01-02 19:57:44.68	313.51	17.70	-33.3	-34.0	26.3	0.00e+00	0	39	0	2443182080	38	6429
2026-01-02 19:57:45.69	313.29	17.66	-33.2	-33.9	26.3	0.00e+00	0	39	0	2449473536	38	6336
2026-01-02 19:57:46.70	313.07	17.61	-33.2	-33.9	26.4	0.00e+00	0	39	0	2454716416	38	6367
2026-01-02 19:57:47.71	312.86	17.57	-33.4	-34.0	26.3	0.00e+00	0	39	0	2461007872	38	6464
2026-01-02 19:57:48.72	312.64	17.52	-33.5	-34.1	26.3	0.00e+00	0	39	0	2466250752	38	6494
2026-01-02 19:57:49.73	312.42	17.48	-33.5	-34.2	26.2	0.00e+00	0	39	0	2471493632	38	6551
2026-01-02 19:57:50.74	312.21	17.43	-33.5	-34.2	26.2	0.00e+00	0	39	0	2477785088	38	6582
2026-01-02 19:57:51.75	312.00	17.39	-33.4	-34.1	26.3	0.00e+00	0	39	0	2483027968	38	6473
2026-01-02 19:57:52.76	311.78	17.34	-33.4	-34.0	26.2	0.00e+00	0	39	0	2489319424	38	6426
2026-01-02 19:57:53.77	311.57	17.29	-33.4	-34.1	26.2	0.00e+00	0	39	0	2494562304	38	6482
2026-01-02 19:57:54.78	311.36	17.25	-33.5	-34.2	26.2	0.00e+00	0	39	0	2500853760	38	6549
2026-01-02 19:57:55.79	311.15	17.20	-33.7	-34.4	25.9	0.00e+00	0	39	0	2506096640	38	6706
2026-01-02 19:57:56.80	310.94	17.15	-33.7	-34.3	26.0	0.00e+00	0	39	0	2511339520	38	6629
2026-01-02 19:57:57.81	310.73	17.10	-33.4	-34.0	26.2	0.00e+00	0	39	0	2517630976	38	6425
2026-01-02 19:57:58.82	310.52	17.05	-33.5	-34.2	26.3	0.00e+00	0	39	0	2522873856	38	6571
2026-01-02 19:57:59.83	310.31	17.01	-33.5	-34.0	26.2	0.00e+00	0	39	0	2529165312	38	6439
2026-01-02 19:58:00.84	310.10	16.96	-33.5	-34.1	26.1	0.00e+00	0	39	0	2534408192	38	6531
2026-01-02 19:58:01.85	309.90	16.91	-33.7	-34.4	26.1	0.00e+00	0	39	0	2539651072	38	6711
2026-01-02 19:58:02.86	309.69	16.86	-33.5	-34.1	26.1	0.00e+00	0	39	0	2545942528	40	5807
2026-01-02 19:58:03.87	309.49	16.81	-33.7	-34.3	25.9	0.00e+00	0	39	0	2551185408	40	5934
2026-01-02 19:58:04.88	309.28	16.76	-33.9	-34.6	25.8	0.00e+00	0	39	0	2557476864	40	6128
2026-01-02 19:58:05.89	309.08	16.71	-33.8	-34.5	25.9	0.00e+00	0	39	0	2562719744	40	6072
2026-01-02 19:58:06.89	308.87	16.66	-33.8	-34.5	26.0	0.00e+00	0	39	0	2567962624	40	6057
2026-01-02 19:58:07.90	308.67	16.61	-33.9	-34.5	25.8	0.00e+00	0	39	0	2574254080	40	6054
2026-01-02 19:58:08.91	308.47	16.56	-33.9	-34.6	25.8	0.00e+00	0	39	0	2579496960	40	6125
2026-01-02 19:58:09.92	308.27	16.50	-33.9	-34.6	25.8	0.00e+00	0	39	0	2585788416	40	6157
2026-01-02 19:58:10.93	308.07	16.45	-33.9	-34.5	25.8	0.00e+00	0	39	0	2591031296	40	6063
2026-01-02 19:58:11.93	307.87	16.40	-33.8	-34.5	25.9	0.00e+00	0	39	0	2597322752	40	6035
2026-01-02 19:58:12.94	307.67	16.35	-33.8	-34.4	25.8	0.00e+00	0	39	0	2602565632	40	5994
2026-01-02 19:58:13.95	307.47	16.30	-33.9	-34.4	25.8	0.00e+00	0	39	0	2607808512	40	6004
2026-01-02 19:58:14.96	307.27	16.24	-33.8	-34.4	25.8	0.00e+00	0	39	0	2614099968	40	6000
2026-01-02 19:58:15.97	307.08	16.19	-34.0	-34.7	25.7	0.00e+00	0	39	0	2619342848	40	6203
2026-01-02 19:58:16.98	306.88	16.14	-34.1	-34.7	25.6	0.00e+00	0	39	0	2625634304	40	6207
2026-01-02 19:58:17.99	306.68	16.08	-34.2	-34.9	25.4	0.00e+00	0	39	0	2630877184	40	6346
2026-01-02 19:58:19.00	306.49	16.03	-34.0	-34.8	25.6	0.00e+00	0	39	0	2636120064	40	6262
2026-01-02 19:58:20.01	306.29	15.98	-34.0	-34.6	25.7	0.00e+00	0	39	0	2642411520	40	6168
2026-01-02 19:58:21.02	306.10	15.92	-33.9	-34.4	25.8	0.00e+00	0	39	0	2647654400	40	6029
2026-01-02 19:58:22.03	305.91	15.87	-34.3	-34.9	25.4	0.00e+00	0	39	0	2653945856	40	6364
2026-01-02 19:58:23.04	305.72	15.81	-34.0	-34.7	25.6	0.00e+00	0	39	0	2659188736	40	6207
2026-01-02 19:58:24.05	305.52	15.76	-34.1	-34.8	25.6	0.00e+00	0	39	0	2664431616	40	6269
2026-01-02 19:58:25.06	305.33	15.71	-34.1	-34.8	25.6	0.00e+00	0	39	0	2670723072	40	6291
2026-01-02 19:58:26.07	305.14	15.65	-33.9	-34.5	25.6	0.00e+00	0	39	0	2675965952	40	6103
2026-01-02 19:58:27.08	304.95	15.60	-34.0	-34.7	25.7	0.00e+00	0	39	0	2682257408	40	6212
2026-01-02 19:58:28.09	304.76	15.54	-34.0	-34.7	25.6	0.00e+00	0	39	0	2687500288	40	6206
2026-01-02 19:58:29.09	304.58	15.48	-34.1	-34.7	25.6	0.00e+00	0	39	0	2693791744	40	6185
2026-01-02 19:58:30.10	304.39	15.43	-34.1	-34.8	25.5	0.00e+00	0	39	0	2699034624	40	6246
2026-01-02 19:58:31.11	304.20	15.37	-34.1	-34.7	25.5	0.00e+00	0	39	0	2705326080	40	6236
2026-01-02 19:58:32.12	304.02	15.32	-34.1	-34.9	25.5	0.00e+00	0	39	0	2710568960	40	6341
2026-01-02 19:58:33.13	303.83	15.26	-34.2	-34.9	25.4	0.00e+00	0	39	0	2715811840	40	6350
2026-01-02 19:58:34.14	303.65	15.20	-34.1	-34.7	25.5	0.00e+00	0	39	0	2722103296	40	6199
2026-01-02 19:58:35.15	303.46	15.15	-34.0	-34.7	25.6	0.00e+00	0	39	0	2727346176	40	6199
2026-01-02 19:58:36.16	303.28	15.09	-34.0	-34.8	25.6	0.00e+00	0	39	0	2733637632	40	6264
2026-01-02 19:58:37.17	303.10	15.03	-34.1	-34.7	25.6	0.00e+00	0	39	0	2738880512	40	6192
2026-01-02 19:58:38.18	302.92	14.98	-34.2	-34.8	25.4	0.00e+00	0	39	0	2744123392	40	6280
2026-01-02 19:58:39.19	302.74	14.92	-34.2	-34.8	25.4	0.00e+00	0	39	0	2750414848	40	6297
2026-01-02 19:58:40.20	302.56	14.86	-34.3	-34.9	25.4	0.00e+00	0	39	0	2755657728	40	6332
2026-01-02 19:58:41.20	302.38	14.81	-34.3	-34.9	25.4	0.00e+00	0	39	0	2761949184	40	6322
2026-01-02 19:58:42.21	302.20	14.75	-34.0	-34.7	25.6	0.00e+00	0	39	0	2767192064	40	6217
2026-01-02 19:58:43.22	302.02	14.69	-34.1	-34.8	25.5	0.00e+00	0	39	0	2772434944	40	6306
2026-01-02 19:58:44.23	301.84	14.63	-34.1	-34.6	25.6	0.00e+00	0	39	0	2778726400	40	6164
2026-01-02 19:58:45.24	301.67	14.57	-34.1	-34.7	25.5	0.00e+00	0	39	0	2783969280	40	6215
2026-01-02 19:58:46.25	301.49	14.52	-34.3	-34.9	25.3	0.00e+00	0	39	0	2790260736	40	6333
2026-01-02 19:58:47.26	301.31	14.46	-34.4	-35.0	25.2	0.00e+00	0	39	0	2795503616	40	6440
2026-01-02 19:58:48.27	301.14	14.40	-34.3	-35.0	25.3	0.00e+00	0	39	0	2801795072	40	6411
2026-01-02 19:58:49.28	300.97	14.34	-34.3	-35.1	25.3	0.00e+00	0	39	0	2807037952	40	6473
2026-01-02 19:58:50.29	300.79	14.28	-34.3	-35.0	25.1	0.00e+00	0	39	0	2812280832	40	6401
2026-01-02 19:58:51.30	300.62	14.22	-34.2	-34.8	25.2	0.00e+00	0	39	0	2818572288	40	6297
2026-01-02 19:58:52.31	300.45	14.16	-34.3	-34.9	25.1	0.00e+00	0	39	0	2823815168	40	6336
2026-01-02 19:58:53.31	300.28	14.10	-34.3	-35.0	25.0	0.00e+00	0	39	0	2830106624	40	6455
2026-01-02 19:58:54.32	300.11	14.05	-34.4	-35.1	25.0	0.00e+00	0	39	0	2835349504	40	6471
2026-01-02 19:58:55.33	299.94	13.99	-34.5	-35.2	24.9	0.00e+00	0	39	0	2840592384	40	6548
2026-01-02 19:58:56.34	299.77	13.93	-34.4	-35.1	25.2	0.00e+00	0	39	0	2846883840	40	6521
2026-01-02 19:58:57.35	299.60	13.87	-34.4	-35.2	25.0	0.00e+00	0	39	0	2852126720	40	6564
2026-01-02 19:58:58.36	299.43	13.81	-34.3	-34.9	25.1	0.00e+00	0	39	0	2858418176	40	6334
2026-01-02 19:58:59.37	299.27	13.75	-34.3	-34.9	25.0	0.00e+00	0	39	0	2863661056	40	6351
2026-01-02 19:59:00.38	299.10	13.69	-34.3	-35.0	25.0	0.00e+00	0	39	0	2868903936	40	6443
2026-01-02 19:59:01.39	298.93	13.63	-34.3	-34.9	25.0	0.00e+00	0	39	0	2875195392	40	6343
2026-01-02 19:59:02.40	298.77	13.57	-34.6	-35.2	24.9	0.00e+00	0	39	0	2880438272	40	6544
2026-01-02 19:59:03.41	298.60	13.51	-34.6	-35.3	24.9	0.00e+00	0	39	0	2886729728	40	6627
2026-01-02 19:59:04.42	298.44	13.45	-34.9	-35.6	24.7	0.00e+00	0	39	0	2891972608	42	6108
2026-01-02 19:59:05.43	298.28	13.39	-34.8	-35.6	24.7	0.00e+00	0	39	0	2898264064	42	6134
2026-01-02 19:59:06.44	298.11	13.33	-34.7	-35.4	24.9	0.00e+00	0	39	0	2903506944	42	5989
2026-01-02 19:59:07.45	297.95	13.27	-34.9	-35.6	24.8	0.00e+00	0	39	0	2909798400	42	6146
2026-01-02 19:59:08.46	297.79	13.21	-34.8	-35.4	24.8	0.00e+00	0	39	0	2915041280	42	6012
2026-01-02 19:59:09.47	297.63	13.15	-34.8	-35.5	24.8	0.00e+00	0	39	0	2920284160	42	6076
2026-01-02 19:59:10.48	297.47	13.08	-34.8	-35.6	24.7	0.00e+00	0	39	0	2926575616	42	6137
2026-01-02 19:59:11.49	297.31	13.02	-35.0	-35.8	24.6	0.00e+00	0	39	0	2931818496	42	6247
2026-01-02 19:59:12.50	297.15	12.96	-34.9	-35.6	24.6	0.00e+00	0	39	0	2937061376	42	6113
2026-01-02 19:59:13.51	297.00	12.90	-35.0	-35.7	24.5	0.00e+00	0	39	0	2943352832	42	6191
2026-01-02 19:59:14.52	296.84	12.84	-35.0	-35.6	24.6	0.00e+00	0	39	0	2948595712	42	6149
2026-01-02 19:59:15.53	296.68	12.78	-34.9	-35.5	24.7	0.00e+00	0	39	0	2954887168	42	6100
2026-01-02 19:59:16.54	296.53	12.72	-34.9	-35.5	24.7	0.00e+00	0	39	0	2960130048	42	6095
2026-01-02 19:59:17.55	296.37	12.66	-34.9	-35.6	24.6	0.00e+00	0	39	0	2965372928	42	6123
2026-01-02 19:59:18.56	296.22	12.60	-35.0	-35.7	24.6	0.00e+00	0	39	0	2971664384	42	6223
2026-01-02 19:59:19.56	296.07	12.54	-35.1	-35.8	24.4	0.00e+00	0	39	0	2976907264	42	6314
2026-01-02 19:59:20.58	295.91	12.47	-35.2	-35.8	24.4	0.00e+00	0	39	0	2983198720	42	6299
2026-01-02 19:59:21.59	295.76	12.41	-35.1	-35.7	24.4	0.00e+00	0	39	0	2988441600	42	6223
2026-01-02 19:59:22.60	295.61	12.35	-35.3	-36.0	24.4	0.00e+00	0	39	0	2994733056	42	6413
2026-01-02 19:59:23.60	295.46	12.29	-35.0	-35.7	24.6	0.00e+00	0	39	0	2999975936	42	6186
2026-01-02 19:59:24.61	295.31	12.23	-35.0	-35.8	24.5	0.00e+00	0	39	0	3006267392	42	6262
2026-01-02 19:59:25.62	295.16	12.17	-35.0	-35.8	24.6	0.00e+00	0	39	0	3011510272	42	6264
2026-01-02 19:59:26.63	295.01	12.11	-35.0	-35.7	24.6	0.00e+00	0	39	0	3016753152	42	6217
2026-01-02 19:59:27.64	294.86	12.05	-35.1	-35.7	24.5	0.00e+00	0	39	0	3023044608	42	6233
2026-01-02 19:59:28.65	294.71	11.98	-35.2	-36.0	24.4	0.00e+00	0	39	0	3028287488	42	6411
2026-01-02 19:59:29.66	294.56	11.92	-35.5	-36.2	24.1	0.00e+00	0	39	0	3034578944	42	6601
2026-01-02 19:59:30.67	294.42	11.86	-35.3	-35.9	24.3	0.00e+00	0	39	0	3039821824	42	6348
2026-01-02 19:59:31.68	294.27	11.80	-35.3	-36.1	24.3	0.00e+00	0	39	0	3045064704	42	6519
2026-01-02 19:59:32.69	294.12	11.74	-35.3	-36.1	24.2	0.00e+00	0	39	0	3051356160	42	6514
2026-01-02 19:59:33.69	293.98	11.68	-35.3	-35.9	24.3	0.00e+00	0	39	0	3056599040	42	6370
2026-01-02 19:59:34.70	293.84	11.61	-35.3	-36.0	24.3	0.00e+00	0	39	0	3061841920	42	6426
2026-01-02 19:59:35.71	293.69	11.55	-35.1	-35.8	24.4	0.00e+00	0	39	0	3068133376	42	6304
2026-01-02 19:59:36.72	293.55	11.49	-35.1	-35.9	24.4	0.00e+00	0	39	0	3073376256	42	6348
2026-01-02 19:59:37.72	293.41	11.43	-35.2	-35.8	24.3	0.00e+00	0	39	0	3079667712	42	6293
2026-01-02 19:59:38.73	293.27	11.37	-35.2	-35.9	24.3	0.00e+00	0	39	0	3084910592	42	6329
2026-01-02 19:59:39.74	293.13	11.31	-35.5	-36.3	24.0	0.00e+00	0	39	0	3091202048	42	6636
2026-01-02 19:59:40.75	292.98	11.24	-35.5	-36.3	24.0	0.00e+00	0	39	0	3096444928	42	6650
2026-01-02 19:59:41.76	292.84	11.18	-35.3	-36.1	24.2	0.00e+00	0	39	0	3102736384	42	6476
2026-01-02 19:59:42.76	292.71	11.12	-35.2	-35.9	24.3	0.00e+00	0	39	0	3107979264	42	6339
2026-01-02 19:59:43.77	292.57	11.06	-35.3	-35.9	24.3	0.00e+00	0	39	0	3113222144	42	6344
2026-01-02 19:59:44.78	292.43	11.00	-35.1	-35.8	24.4	0.00e+00	0	39	0	3119513600	42	6255
2026-01-02 19:59:45.79	292.29	10.93	-35.2	-35.8	24.3	0.00e+00	0	39	0	3124756480	42	6310
2026-01-02 19:59:46.80	292.15	10.87	-35.3	-35.9	24.3	0.00e+00	0	39	0	3129999360	42	6356
2026-01-02 19:59:47.81	292.02	10.81	-35.2	-35.9	24.3	0.00e+00	0	39	0	3136290816	42	6322
2026-01-02 19:59:48.81	291.88	10.75	-35.3	-36.0	24.2	0.00e+00	0	39	0	3141533696	42	6405
2026-01-02 19:59:49.82	291.75	10.69	-35.4	-36.0	24.1	0.00e+00	0	39	0	3147825152	42	6455
2026-01-02 19:59:50.83	291.61	10.63	-35.5	-36.3	24.1	0.00e+00	0	39	0	3153068032	42	6632
2026-01-02 19:59:51.84	291.48	10.56	-35.6	-36.4	23.9	0.00e+00	0	39	0	3158310912	42	6716
2026-01-02 19:59:52.85	291.35	10.50	-35.6	-36.2	24.0	0.00e+00	0	39	0	3164602368	42	6592
2026-01-02 19:59:53.85	291.21	10.44	-35.5	-36.3	24.0	0.00e+00	0	39	0	3169845248	42	6660
2026-01-02 19:59:54.86	291.08	10.38	-35.6	-36.4	23.9	0.00e+00	0	39	0	3176136704	42	6704
2026-01-02 19:59:55.87	290.95	10.32	-35.6	-36.3	23.8	0.00e+00	0	39	0	3181379584	44	5922
2026-01-02 19:59:56.88	290.82	10.26	-35.6	-36.3	23.9	0.00e+00	0	39	0	3187671040	44	5916
2026-01-02 19:59:57.89	290.69	10.19	-35.5	-36.3	24.0	0.00e+00	0	39	0	3192913920	44	5940
2026-01-02 19:59:58.90	290.56	10.13	-35.6	-36.3	23.9	0.00e+00	0	39	0	3198156800	44	5925
2026-01-02 19:59:59.91	290.43	10.07	-35.7	-36.3	23.8	0.00e+00	0	39	0	3204448256	44	5947
2026-01-02 20:00:00.92	290.30	10.01	-35.7	-36.3	23.7	0.00e+00	0	39	0	3209691136	44	5956
2026-01-02 20:00:01.93	290.17	9.95	-35.7	-36.3	23.8	0.00e+00	0	39	0	3215982592	44	5931
2026-01-02 20:00:02.94	290.04	9.88	-35.7	-36.4	23.8	0.00e+00	0	39	0	3221225472	44	6022
2026-01-02 20:00:03.95	289.92	9.82	-35.8	-36.5	23.7	0.00e+00	0	39	0	3226468352	44	6057
2026-01-02 20:00:04.96	289.79	9.76	-35.8	-36.6	23.7	0.00e+00	0	39	0	3232759808	44	6111
2026-01-02 20:00:05.97	289.66	9.70	-35.8	-36.6	23.7	0.00e+00	0	39	0	3238002688	44	6112
2026-01-02 20:00:06.98	289.54	9.64	-35.8	-36.4	23.7	0.00e+00	0	39	0	3244294144	44	6032
2026-01-02 20:00:07.99	289.41	9.58	-35.9	-36.7	23.5	0.00e+00	0	39	0	3249537024	44	6230
2026-01-02 20:00:09.00	289.29	9.51	-35.9	-36.7	23.6	0.00e+00	0	39	0	3254779904	44	6199
2026-01-02 20:00:10.01	289.16	9.45	-35.9	-36.6	23.7	0.00e+00	0	39	0	3261071360	44	6127
2026-01-02 20:00:11.02	289.04	9.39	-36.0	-36.7	23.5	0.00e+00	0	39	0	3266314240	44	6201
2026-01-02 20:00:12.03	288.92	9.33	-36.0	-36.6	23.5	0.00e+00	0	39	0	3272605696	44	6167
2026-01-02 20:00:13.04	288.79	9.27	-36.2	-36.8	23.3	0.00e+00	0	39	0	3277848576	44	6317
2026-01-02 20:00:14.05	288.67	9.21	-36.1	-36.9	23.5	0.00e+00	0	39	0	3284140032	44	6320
2026-01-02 20:00:15.06	288.55	9.14	-36.0	-36.6	23.6	0.00e+00	0	39	0	3289382912	44	6156
2026-01-02 20:00:16.07	288.43	9.08	-36.0	-36.7	23.4	0.00e+00	0	39	0	3295674368	44	6242
2026-01-02 20:00:17.08	288.31	9.02	-36.0	-36.7	23.5	0.00e+00	0	39	0	3300917248	44	6200
2026-01-02 20:00:18.09	288.19	8.96	-36.0	-36.8	23.5	0.00e+00	0	39	0	3306160128	44	6256
2026-01-02 20:00:19.10	288.07	8.90	-35.9	-36.6	23.6	0.00e+00	0	39	0	3312451584	44	6167
2026-01-02 20:00:20.11	287.95	8.84	-35.9	-36.7	23.5	0.00e+00	0	39	0	3317694464	44	6245
2026-01-02 20:00:21.11	287.83	8.78	-36.0	-36.7	23.4	0.00e+00	0	39	0	3323985920	44	6183
2026-01-02 20:00:22.12	287.71	8.71	-36.0	-36.7	23.5	0.00e+00	0	39	0	3329228800	44	6221
2026-01-02 20:00:23.13	287.60	8.65	-36.0	-36.7	23.3	0.00e+00	0	39	0	3334471680	44	6211
2026-01-02 20:00:24.14	287.48	8.59	-36.2	-36.8	23.3	0.00e+00	0	39	0	3340763136	44	6301
2026-01-02 20:00:25.15	287.36	8.53	-36.1	-36.8	23.3	0.00e+00	0	39	0	3346006016	44	6287
2026-01-02 20:00:26.16	287.25	8.47	-36.1	-36.9	23.3	0.00e+00	0	39	0	3352297472	44	6357
2026-01-02 20:00:27.18	287.13	8.41	-36.1	-36.8	23.2	0.00e+00	0	39	0	3357540352	44	6269
2026-01-02 20:00:28.19	287.02	8.35	-36.2	-37.0	23.2	0.00e+00	0	39	0	3362783232	44	6423
2026-01-02 20:00:29.19	286.90	8.29	-36.4	-37.1	23.1	0.00e+00	0	39	0	3369074688	44	6505
2026-01-02 20:00:30.20	286.79	8.22	-36.4	-37.0	23.2	0.00e+00	0	39	0	3374317568	44	6446
2026-01-02 20:00:31.21	286.68	8.16	-36.5	-37.2	23.0	0.00e+00	0	39	0	3380609024	44	6584
2026-01-02 20:00:32.22	286.56	8.10	-36.4	-37.3	23.0	0.00e+00	0	39	0	3385851904	44	6633
2026-01-02 20:00:33.23	286.45	8.04	-36.7	-37.5	22.7	0.00e+00	0	39	0	3392143360	44	6830
2026-01-02 20:00:34.24	286.34	7.98	-36.6	-37.3	22.8	0.00e+00	0	39	0	3397386240	44	6668
2026-01-02 20:00:35.25	286.23	7.92	-36.6	-37.4	22.8	0.00e+00	0	39	0	3402629120	44	6747
2026-01-02 20:00:36.26	286.12	7.86	-36.8	-37.6	22.8	0.00e+00	0	39	0	3408920576	46	6135
2026-01-02 20:00:37.27	286.01	7.80	-36.5	-37.2	22.9	0.00e+00	0	39	0	3414163456	46	5854
2026-01-02 20:00:38.28	285.90	7.74	-36.6	-37.3	22.9	0.00e+00	0	39	0	3420454912	46	5900
2026-01-02 20:00:39.29	285.79	7.68	-36.4	-37.1	23.0	0.00e+00	0	39	0	3425697792	46	5780
2026-01-02 20:00:40.30	285.68	7.62	-36.5	-37.3	22.9	0.00e+00	0	39	0	3430940672	46	5932
2026-01-02 20:00:41.31	285.57	7.56	-36.5	-37.2	22.9	0.00e+00	0	39	0	3437232128	46	5856
2026-01-02 20:00:42.31	285.46	7.50	-36.6	-37.4	22.8	0.00e+00	0	39	0	3442475008	46	6011
2026-01-02 20:00:43.33	285.35	7.44	-36.8	-37.4	22.6	0.00e+00	0	39	0	3448766464	46	6029
2026-01-02 20:00:44.34	285.25	7.37	-36.7	-37.4	22.7	0.00e+00	0	39	0	3454009344	46	6012
2026-01-02 20:00:45.35	285.14	7.31	-36.7	-37.5	22.6	0.00e+00	0	39	0	3459252224	46	6067
2026-01-02 20:00:46.36	285.03	7.25	-36.9	-37.6	22.4	0.00e+00	0	39	0	3465543680	46	6156
2026-01-02 20:00:47.36	284.93	7.19	-37.0	-37.7	22.4	0.00e+00	0	39	0	3470786560	46	6232
2026-01-02 20:00:48.37	284.82	7.13	-36.8	-37.6	22.5	0.00e+00	0	39	0	3477078016	46	6104
2026-01-02 20:00:49.39	284.72	7.07	-37.0	-37.9	22.3	0.00e+00	0	39	0	3482320896	46	6344
2026-01-02 20:00:50.40	284.61	7.01	-37.0	-37.8	22.3	0.00e+00	0	39	0	3488612352	46	6313
2026-01-02 20:00:51.41	284.51	6.95	-36.8	-37.6	22.5	0.00e+00	0	39	0	3493855232	46	6155
2026-01-02 20:00:52.42	284.40	6.89	-36.8	-37.5	22.6	0.00e+00	0	39	0	3500146688	46	6051
2026-01-02 20:00:53.43	284.30	6.83	-36.8	-37.5	22.4	0.00e+00	0	39	0	3505389568	46	6034
2026-01-02 20:00:54.44	284.20	6.77	-36.9	-37.6	22.5	0.00e+00	0	39	0	3510632448	46	6154
2026-01-02 20:00:55.44	284.10	6.71	-36.8	-37.5	22.5	0.00e+00	0	39	0	3516923904	46	6091
2026-01-02 20:00:56.46	283.99	6.65	-36.9	-37.6	22.3	0.00e+00	0	39	0	3522166784	46	6142
2026-01-02 20:00:57.47	283.89	6.59	-36.8	-37.7	22.4	0.00e+00	0	39	0	3528458240	46	6182
2026-01-02 20:00:58.48	283.79	6.53	-36.7	-37.4	22.5	0.00e+00	0	39	0	3533701120	46	6016
2026-01-02 20:00:59.49	283.69	6.47	-36.8	-37.7	22.5	0.00e+00	0	39	0	3538944000	46	6185
2026-01-02 20:01:00.50	283.59	6.41	-36.8	-37.5	22.5	0.00e+00	0	39	0	3545235456	46	6060
2026-01-02 20:01:01.51	283.49	6.35	-37.0	-37.7	22.3	0.00e+00	0	39	0	3550478336	46	6242
2026-01-02 20:01:02.51	283.39	6.30	-37.0	-37.8	22.2	0.00e+00	0	39	0	3556769792	46	6313
2026-01-02 20:01:03.52	283.29	6.24	-36.9	-37.8	22.2	0.00e+00	0	39	0	3562012672	46	6259
2026-01-02 20:01:04.53	283.19	6.18	-36.8	-37.6	22.3	0.00e+00	0	39	0	3567255552	46	6146
2026-01-02 20:01:05.54	283.10	6.12	-36.9	-37.7	22.3	0.00e+00	0	39	0	3573547008	46	6176
2026-01-02 20:01:06.55	283.00	6.06	-37.2	-38.0	22.0	0.00e+00	0	39	0	3578789888	46	6436
2026-01-02 20:01:07.56	282.90	6.00	-37.2	-37.9	22.1	0.00e+00	0	39	0	3585081344	46	6373
2026-01-02 20:01:08.57	282.80	5.94	-37.2	-37.9	22.0	0.00e+00	0	39	0	3590324224	46	6383
2026-01-02 20:01:09.58	282.71	5.88	-37.1	-37.9	22.0	0.00e+00	0	39	0	3596615680	46	6335
