passes_logs/2026/01/02/R4.6S_Anadyr/R4.6S_Anadyr__20260102_122808_NOAA_20_JPSS-1_rec.log

#Pass ID: 20260102_122808_NOAA 20 (JPSS-1)
#Satellite: NOAA 20 (JPSS-1)
#Configuration: NOAA 20
#almurnet v.1.7.20251203
#Start time: 2026-01-02 12:28:10

#Version: 2.2.20231116
#Station: R4.6S_Anadyr
#Location: 177.4865 lon 64.73178 lat
#TLE: 1 43013U 17073A   26001.93781127  .00000184  00000+0  10834-3 0  9997
#TLE: 2 43013  98.7622 303.0160 0001916  58.2205 301.9158 14.19532295420889

#Time	Az	El	Level	Level2	SNR	BER	BlckErr	Temp	State	Recorded	gain1	gain2
2026-01-02 12:28:10.37	19.07	0.10	-49.4	-64.3	3.6	1.51e+00	0	36	0	0	60	59304
2026-01-02 12:28:11.38	19.14	0.15	-49.3	-64.5	3.6	1.51e+00	0	38	104	0	60	60435
2026-01-02 12:28:12.39	19.21	0.20	-49.2	-64.5	3.6	1.51e+00	0	38	104	0	60	60620
2026-01-02 12:28:13.39	19.29	0.25	-49.3	-64.5	3.6	1.51e+00	0	38	104	0	60	60824
2026-01-02 12:28:14.41	19.36	0.30	-49.3	-64.5	3.6	1.51e+00	0	38	104	0	60	60856
2026-01-02 12:28:15.41	19.43	0.35	-49.3	-64.5	3.6	1.51e+00	0	38	104	0	60	60790
2026-01-02 12:28:16.43	19.51	0.41	-49.4	-64.5	3.6	1.51e+00	0	38	104	0	60	60957
2026-01-02 12:28:17.43	19.58	0.46	-49.3	-64.5	3.6	1.51e+00	0	38	104	0	60	60995
2026-01-02 12:28:18.44	19.65	0.51	-49.3	-64.5	3.6	1.51e+00	0	38	104	0	60	60435
2026-01-02 12:28:19.45	19.73	0.56	-49.2	-64.5	3.6	1.51e+00	0	38	104	0	60	60552
2026-01-02 12:28:20.46	19.80	0.61	-49.2	-64.4	3.6	1.51e+00	0	38	104	0	60	60174
2026-01-02 12:28:21.47	19.87	0.66	-49.0	-64.2	3.6	1.51e+00	0	38	104	0	60	58523
2026-01-02 12:28:22.48	19.95	0.71	-48.9	-64.0	3.6	1.51e+00	0	38	104	0	60	57490
2026-01-02 12:28:23.49	20.02	0.76	-48.7	-63.9	3.6	1.51e+00	0	38	104	0	60	56731
2026-01-02 12:28:24.50	20.10	0.81	-48.5	-63.7	3.6	1.51e+00	0	38	104	0	60	55244
2026-01-02 12:28:25.51	20.17	0.86	-48.3	-63.4	3.6	1.51e+00	0	38	104	0	60	53508
2026-01-02 12:28:26.52	20.25	0.91	-47.7	-62.8	3.6	1.51e+00	0	38	104	0	60	49805
2026-01-02 12:28:27.53	20.32	0.96	-47.5	-62.7	3.6	1.51e+00	0	38	104	0	60	49120
2026-01-02 12:28:28.54	20.40	1.01	-47.5	-62.7	3.6	1.51e+00	0	38	104	0	60	49091
2026-01-02 12:28:29.55	20.48	1.07	-47.5	-62.7	3.6	1.51e+00	0	38	104	0	60	49160
2026-01-02 12:28:30.56	20.55	1.12	-47.5	-62.7	3.6	1.51e+00	0	38	104	0	60	49106
2026-01-02 12:28:31.57	20.63	1.17	-47.5	-62.6	3.6	1.51e+00	0	38	104	0	60	48989
2026-01-02 12:28:32.58	20.71	1.22	-47.5	-62.7	3.6	1.51e+00	0	38	104	0	60	49065
2026-01-02 12:28:33.59	20.78	1.27	-47.5	-62.7	3.6	1.51e+00	0	38	104	0	60	49147
2026-01-02 12:28:34.60	20.86	1.32	-47.5	-62.6	3.6	1.51e+00	0	38	104	0	60	48937
2026-01-02 12:28:35.61	20.94	1.37	-47.5	-62.7	3.6	1.51e+00	0	38	104	0	60	49064
2026-01-02 12:28:36.62	21.02	1.42	-47.5	-62.6	3.6	1.51e+00	0	38	104	0	60	48993
2026-01-02 12:28:37.63	21.09	1.48	-47.5	-62.7	3.5	1.51e+00	0	38	104	0	60	49148
2026-01-02 12:28:38.63	21.17	1.53	-47.5	-62.6	3.6	1.51e+00	0	38	104	0	60	49004
2026-01-02 12:28:39.64	21.25	1.58	-47.5	-62.7	3.6	1.51e+00	0	38	104	0	60	49112
2026-01-02 12:28:40.66	21.33	1.63	-47.5	-62.7	3.6	1.51e+00	0	38	104	0	60	49162
2026-01-02 12:28:41.66	21.41	1.68	-47.5	-62.6	3.6	1.51e+00	0	38	104	0	60	48703
2026-01-02 12:28:42.67	21.49	1.73	-47.5	-62.6	3.6	1.51e+00	0	38	104	0	60	48598
2026-01-02 12:28:43.68	21.57	1.79	-47.5	-62.5	3.6	1.51e+00	0	38	104	0	60	48274
2026-01-02 12:28:44.69	21.65	1.84	-47.5	-62.6	3.6	1.51e+00	0	38	104	0	60	48519
2026-01-02 12:28:45.70	21.73	1.89	-47.5	-62.6	3.6	1.51e+00	0	38	104	0	60	48573
2026-01-02 12:28:46.71	21.81	1.94	-47.5	-62.7	3.5	1.51e+00	0	38	104	0	60	49158
2026-01-02 12:28:47.72	21.89	1.99	-47.5	-62.6	3.5	1.51e+00	0	38	104	0	60	48788
2026-01-02 12:28:48.73	21.97	2.05	-47.5	-62.6	3.6	1.51e+00	0	38	104	0	60	48910
2026-01-02 12:28:49.74	22.05	2.10	-47.5	-62.6	3.6	1.51e+00	0	38	104	0	60	48854
2026-01-02 12:28:50.75	22.13	2.15	-47.5	-62.7	3.6	1.51e+00	0	38	104	0	60	49084
2026-01-02 12:28:51.76	22.21	2.20	-47.5	-62.5	3.6	1.51e+00	0	38	104	0	60	48467
2026-01-02 12:28:52.77	22.30	2.26	-47.5	-62.4	3.6	1.51e+00	0	38	104	0	60	47383
2026-01-02 12:28:53.78	22.38	2.31	-47.4	-61.6	3.5	1.51e+00	0	38	104	0	60	43375
2026-01-02 12:28:54.79	22.46	2.36	-47.4	-61.6	3.6	1.51e+00	0	38	104	0	60	43531
2026-01-02 12:28:55.80	22.54	2.41	-47.4	-61.7	3.6	1.51e+00	0	38	104	0	60	44135
2026-01-02 12:28:56.81	22.63	2.46	-47.4	-61.4	3.6	1.51e+00	0	39	104	0	60	42372
2026-01-02 12:28:57.82	22.71	2.52	-47.2	-58.2	4.5	1.45e+00	53	38	104	0	60	29315
2026-01-02 12:28:58.83	22.79	2.57	-46.6	-53.3	7.7	3.81e-01	0	39	0	0	60	16697
2026-01-02 12:28:59.84	22.88	2.62	-45.8	-50.5	10.9	2.96e-02	0	38	0	2097152	60	12160
2026-01-02 12:29:00.85	22.96	2.68	-44.6	-47.9	13.9	1.81e-04	0	38	0	4194304	60	9017
2026-01-02 12:29:01.86	23.05	2.73	-43.8	-46.5	15.3	0.00e+00	0	38	0	6291456	60	7624
2026-01-02 12:29:02.87	23.13	2.78	-43.0	-45.3	16.5	0.00e+00	0	38	0	8388608	60	6676
2026-01-02 12:29:03.87	23.22	2.83	-42.5	-44.6	17.1	0.00e+00	0	38	0	9437184	58	6891
2026-01-02 12:29:04.88	23.30	2.89	-43.0	-45.3	16.3	0.00e+00	0	38	0	11534336	58	7465
2026-01-02 12:29:05.89	23.39	2.94	-43.4	-45.8	15.7	0.00e+00	0	38	0	13631488	58	7952
2026-01-02 12:29:06.91	23.47	2.99	-44.7	-48.1	13.5	0.00e+00	0	38	0	15728640	60	9170
2026-01-02 12:29:07.91	23.56	3.05	-45.5	-50.0	11.4	1.12e-04	0	38	0	17825792	60	11412
2026-01-02 12:29:08.92	23.65	3.10	-43.6	-46.2	15.7	9.53e-05	0	38	0	19922944	60	7365
2026-01-02 12:29:09.93	23.73	3.15	-47.3	-61.5	3.6	2.39e-03	0	38	104	20971520	60	43185
2026-01-02 12:29:10.94	23.82	3.20	-46.7	-53.9	7.0	1.43e+00	1	38	104	20971520	60	18005
2026-01-02 12:29:11.95	23.91	3.26	-45.3	-49.3	12.4	7.25e-03	0	38	0	20971520	60	10542
2026-01-02 12:29:12.96	24.00	3.31	-47.5	-62.0	3.6	2.27e-03	0	39	104	22020096	60	45657
2026-01-02 12:29:13.97	24.08	3.37	-45.1	-49.1	12.7	1.26e+00	91	39	104	22020096	60	10268
2026-01-02 12:29:14.98	24.17	3.42	-44.9	-48.4	12.9	8.16e-05	0	39	0	22020096	60	9514
2026-01-02 12:29:15.99	24.26	3.47	-45.2	-49.1	12.9	9.30e-05	0	39	0	24117248	60	10297
2026-01-02 12:29:17.00	24.35	3.53	-45.1	-48.8	12.2	3.20e-05	0	38	0	26214400	60	9948
2026-01-02 12:29:18.01	24.44	3.58	-45.1	-48.8	13.7	4.50e-05	0	39	0	28311552	60	9938
2026-01-02 12:29:19.02	24.53	3.63	-44.8	-48.1	14.1	2.05e-05	0	39	0	29360128	60	9172
2026-01-02 12:29:20.03	24.62	3.69	-44.8	-48.1	12.9	1.83e-05	0	39	0	31457280	60	9217
2026-01-02 12:29:21.04	24.71	3.74	-44.8	-48.0	13.7	2.28e-05	0	39	0	33554432	60	9116
2026-01-02 12:29:22.05	24.80	3.79	-45.5	-49.5	12.2	3.50e-05	0	39	0	35651584	60	10816
2026-01-02 12:29:23.06	24.89	3.85	-45.2	-48.9	14.2	5.79e-05	0	39	0	37748736	60	10114
2026-01-02 12:29:24.07	24.98	3.90	-45.3	-49.2	12.5	8.85e-05	0	39	0	38797312	60	10381
2026-01-02 12:29:25.08	25.07	3.96	-45.4	-49.4	12.0	5.11e-05	0	39	0	40894464	60	10622
2026-01-02 12:29:26.08	25.16	4.01	-45.5	-49.5	13.0	6.48e-05	0	39	0	42991616	60	10821
2026-01-02 12:29:27.09	25.26	4.06	-45.6	-49.7	11.7	1.57e-04	0	39	0	45088768	60	11086
2026-01-02 12:29:28.10	25.35	4.12	-45.4	-49.3	12.9	1.02e-04	0	39	0	47185920	60	10599
2026-01-02 12:29:29.11	25.44	4.17	-45.5	-49.4	12.5	1.33e-04	0	39	0	48234496	60	10705
2026-01-02 12:29:30.12	25.53	4.23	-45.7	-49.9	11.6	2.37e-04	0	39	0	50331648	60	11335
2026-01-02 12:29:31.13	25.63	4.28	-45.7	-49.8	12.2	4.75e-04	0	39	0	52428800	60	11142
2026-01-02 12:29:32.14	25.72	4.33	-45.5	-49.4	11.9	4.90e-04	0	39	0	54525952	60	10618
2026-01-02 12:29:33.15	25.81	4.39	-45.6	-49.6	12.8	8.77e-04	0	39	0	56623104	60	10941
2026-01-02 12:29:34.16	25.91	4.44	-45.2	-48.7	12.5	7.40e-05	0	39	0	57671680	60	9897
2026-01-02 12:29:35.17	26.00	4.50	-45.2	-48.8	13.6	1.31e-04	0	39	0	59768832	60	9901
2026-01-02 12:29:36.18	26.10	4.55	-44.7	-47.7	14.3	1.75e-05	0	39	0	61865984	60	8781
2026-01-02 12:29:37.19	26.19	4.61	-45.2	-48.7	13.4	5.30e-06	0	39	0	63963136	60	9868
2026-01-02 12:29:38.20	26.29	4.66	-45.3	-49.0	12.7	3.28e-05	0	39	0	66060288	60	10185
2026-01-02 12:29:39.21	26.39	4.72	-45.4	-49.0	13.1	6.56e-05	0	39	0	67108864	60	10224
2026-01-02 12:29:40.22	26.48	4.77	-45.5	-49.4	12.4	5.03e-05	0	39	0	69206016	60	10611
2026-01-02 12:29:41.23	26.58	4.83	-45.3	-48.9	12.7	1.23e-04	0	39	0	71303168	60	10067
2026-01-02 12:29:42.24	26.68	4.88	-45.1	-48.5	13.5	4.57e-05	0	39	0	73400320	60	9625
2026-01-02 12:29:43.25	26.77	4.94	-45.2	-48.7	13.3	1.75e-05	0	39	0	75497472	60	9885
2026-01-02 12:29:44.26	26.87	4.99	-45.5	-49.2	13.0	1.22e-05	0	39	0	76546048	60	10435
2026-01-02 12:29:45.27	26.97	5.04	-45.0	-48.3	13.8	1.75e-05	0	39	0	78643200	60	9374
2026-01-02 12:29:46.28	27.07	5.10	-44.6	-47.6	14.6	3.80e-06	0	39	0	80740352	60	8672
2026-01-02 12:29:47.29	27.17	5.15	-44.4	-47.2	14.8	7.00e-07	0	39	0	82837504	60	8303
2026-01-02 12:29:48.29	27.27	5.21	-44.8	-47.8	15.0	0.00e+00	0	39	0	84934656	60	8881
2026-01-02 12:29:49.30	27.37	5.26	-44.3	-47.0	15.1	0.00e+00	0	39	0	87031808	60	8059
2026-01-02 12:29:50.31	27.46	5.32	-44.4	-47.1	14.8	7.00e-07	0	39	0	88080384	60	8173
2026-01-02 12:29:51.32	27.57	5.37	-44.7	-47.7	14.7	0.00e+00	0	39	0	90177536	60	8774
2026-01-02 12:29:52.33	27.67	5.43	-44.1	-46.6	15.3	0.00e+00	0	39	0	92274688	60	7723
2026-01-02 12:29:53.34	27.77	5.49	-44.1	-46.7	16.1	0.00e+00	0	39	0	94371840	60	7794
2026-01-02 12:29:54.35	27.87	5.54	-44.1	-46.7	15.6	0.00e+00	0	39	0	96468992	60	7818
2026-01-02 12:29:55.36	27.97	5.60	-44.4	-47.2	14.9	0.00e+00	0	39	0	97517568	60	8247
2026-01-02 12:29:56.37	28.07	5.65	-44.3	-47.0	15.8	0.00e+00	0	39	0	99614720	60	8062
2026-01-02 12:29:57.38	28.17	5.71	-44.0	-46.5	15.5	0.00e+00	0	39	0	101711872	60	7626
2026-01-02 12:29:58.39	28.28	5.76	-43.9	-46.4	16.0	0.00e+00	0	39	0	103809024	60	7523
2026-01-02 12:29:59.40	28.38	5.82	-44.0	-46.5	15.7	0.00e+00	0	39	0	105906176	60	7609
2026-01-02 12:30:00.41	28.48	5.87	-44.0	-46.4	16.1	0.00e+00	0	39	0	106954752	60	7530
2026-01-02 12:30:01.42	28.59	5.93	-44.1	-46.6	15.8	0.00e+00	0	39	0	109051904	60	7690
2026-01-02 12:30:02.43	28.69	5.99	-44.1	-46.6	15.6	0.00e+00	0	39	0	111149056	60	7760
2026-01-02 12:30:03.44	28.80	6.04	-44.2	-46.7	16.2	0.00e+00	0	39	0	113246208	60	7788
2026-01-02 12:30:04.45	28.90	6.10	-43.9	-46.3	15.9	0.00e+00	0	39	0	115343360	60	7497
2026-01-02 12:30:05.45	29.01	6.15	-43.8	-46.1	16.4	0.00e+00	0	39	0	116391936	60	7289
2026-01-02 12:30:06.46	29.11	6.21	-43.4	-45.6	16.8	0.00e+00	0	39	0	118489088	60	6900
2026-01-02 12:30:07.47	29.22	6.26	-43.0	-45.0	17.3	0.00e+00	0	39	0	120586240	60	6455
2026-01-02 12:30:08.48	29.33	6.32	-42.8	-44.7	17.9	0.00e+00	0	39	0	122683392	60	6202
2026-01-02 12:30:09.49	29.43	6.38	-42.3	-44.1	18.1	0.00e+00	0	39	0	124780544	58	6493
2026-01-02 12:30:10.50	29.54	6.43	-41.9	-43.6	18.8	0.00e+00	0	39	0	125829120	58	6105
2026-01-02 12:30:11.51	29.65	6.49	-42.0	-43.7	18.7	0.00e+00	0	39	0	127926272	58	6213
2026-01-02 12:30:12.52	29.76	6.54	-41.9	-43.5	18.9	0.00e+00	0	39	0	130023424	58	6040
2026-01-02 12:30:13.53	29.86	6.60	-41.5	-42.9	19.5	0.00e+00	0	39	0	132120576	56	6383
2026-01-02 12:30:14.54	29.97	6.66	-41.2	-42.6	19.8	0.00e+00	0	39	0	134217728	56	6148
2026-01-02 12:30:15.55	30.08	6.71	-41.2	-42.6	19.8	0.00e+00	0	39	0	135266304	56	6166
2026-01-02 12:30:16.56	30.19	6.77	-41.1	-42.5	19.9	0.00e+00	0	39	0	137363456	56	6086
2026-01-02 12:30:17.57	30.30	6.83	-41.2	-42.6	19.9	0.00e+00	0	39	0	139460608	56	6136
2026-01-02 12:30:18.58	30.41	6.88	-41.0	-42.4	20.1	0.00e+00	0	39	0	141557760	56	6006
2026-01-02 12:30:19.59	30.52	6.94	-40.7	-42.0	20.3	0.00e+00	0	39	0	143654912	54	6452
2026-01-02 12:30:20.60	30.64	6.99	-40.7	-42.0	20.3	0.00e+00	0	39	0	144703488	54	6440
2026-01-02 12:30:21.61	30.75	7.05	-40.5	-41.8	20.6	0.00e+00	0	39	0	146800640	54	6287
2026-01-02 12:30:22.62	30.86	7.11	-40.4	-41.7	20.7	0.00e+00	0	39	0	148897792	54	6190
2026-01-02 12:30:23.63	30.97	7.16	-40.4	-41.7	20.7	0.00e+00	0	39	0	150994944	54	6185
2026-01-02 12:30:24.63	31.08	7.22	-40.3	-41.5	20.9	0.00e+00	0	39	0	153092096	54	6064
2026-01-02 12:30:25.65	31.20	7.28	-40.3	-41.5	20.9	0.00e+00	0	39	0	155189248	54	6065
2026-01-02 12:30:26.66	31.31	7.33	-40.3	-41.5	20.9	0.00e+00	0	39	0	156237824	54	6059
2026-01-02 12:30:27.67	31.43	7.39	-40.2	-41.4	21.0	0.00e+00	0	39	0	158334976	54	5993
2026-01-02 12:30:28.67	31.54	7.45	-40.3	-41.5	20.9	0.00e+00	0	39	0	160432128	54	6057
2026-01-02 12:30:29.68	31.66	7.50	-40.3	-41.6	20.9	0.00e+00	0	39	0	162529280	54	6117
2026-01-02 12:30:30.69	31.77	7.56	-40.3	-41.5	20.9	0.00e+00	0	39	0	164626432	54	6073
2026-01-02 12:30:31.70	31.89	7.62	-40.3	-41.6	20.8	0.00e+00	0	39	0	165675008	54	6114
2026-01-02 12:30:32.71	32.00	7.67	-40.4	-41.7	20.8	0.00e+00	0	39	0	167772160	54	6198
2026-01-02 12:30:33.72	32.12	7.73	-40.3	-41.5	20.9	0.00e+00	0	39	0	169869312	54	6060
2026-01-02 12:30:34.73	32.24	7.79	-40.3	-41.5	20.8	0.00e+00	0	39	0	171966464	54	6070
2026-01-02 12:30:35.74	32.36	7.84	-40.2	-41.4	20.6	0.00e+00	0	39	0	174063616	54	5998
2026-01-02 12:30:36.75	32.48	7.90	-40.3	-41.5	20.8	0.00e+00	0	39	0	175112192	54	6098
2026-01-02 12:30:37.76	32.59	7.96	-40.2	-41.4	21.0	0.00e+00	0	39	0	177209344	54	6012
2026-01-02 12:30:38.77	32.71	8.02	-40.2	-41.4	20.9	0.00e+00	0	39	0	179306496	54	6024
2026-01-02 12:30:39.78	32.83	8.07	-40.1	-41.3	21.1	0.00e+00	0	39	0	181403648	54	5907
2026-01-02 12:30:40.79	32.95	8.13	-40.4	-41.6	20.8	0.00e+00	0	39	0	183500800	54	6166
2026-01-02 12:30:41.80	33.07	8.19	-40.2	-41.4	21.0	0.00e+00	0	39	0	184549376	54	6017
2026-01-02 12:30:42.80	33.19	8.24	-40.4	-41.6	20.9	0.00e+00	0	39	0	186646528	54	6167
2026-01-02 12:30:43.81	33.31	8.30	-40.5	-41.7	20.6	0.00e+00	0	39	0	188743680	54	6215
2026-01-02 12:30:44.82	33.44	8.36	-40.5	-41.8	20.9	0.00e+00	0	39	0	190840832	54	6289
2026-01-02 12:30:45.83	33.56	8.41	-40.5	-41.7	20.8	0.00e+00	0	39	0	192937984	54	6230
2026-01-02 12:30:46.84	33.68	8.47	-40.6	-41.9	20.5	0.00e+00	0	39	0	193986560	54	6370
2026-01-02 12:30:47.85	33.80	8.53	-40.7	-42.0	20.6	0.00e+00	0	39	0	196083712	54	6436
2026-01-02 12:30:48.86	33.93	8.59	-40.8	-42.0	20.5	0.00e+00	0	39	0	198180864	54	6461
2026-01-02 12:30:49.87	34.05	8.64	-40.8	-42.0	20.7	0.00e+00	0	39	0	200278016	54	6454
2026-01-02 12:30:50.87	34.18	8.70	-40.5	-41.7	20.8	0.00e+00	0	39	0	202375168	54	6229
2026-01-02 12:30:51.88	34.30	8.76	-40.3	-41.5	21.1	0.00e+00	0	39	0	203423744	54	6079
2026-01-02 12:30:52.89	34.43	8.81	-40.3	-41.5	21.0	0.00e+00	0	39	0	205520896	54	6051
2026-01-02 12:30:53.90	34.55	8.87	-40.2	-41.3	21.2	0.00e+00	0	39	0	207618048	54	5963
2026-01-02 12:30:54.91	34.68	8.93	-40.1	-41.2	21.3	0.00e+00	0	39	0	209715200	54	5871
2026-01-02 12:30:55.92	34.81	8.99	-40.1	-41.3	21.2	0.00e+00	0	39	0	211812352	54	5920
2026-01-02 12:30:56.93	34.93	9.04	-40.1	-41.3	21.2	0.00e+00	0	39	0	212860928	54	5899
2026-01-02 12:30:57.94	35.06	9.10	-40.2	-41.3	21.2	0.00e+00	0	39	0	214958080	54	5940
2026-01-02 12:30:58.95	35.19	9.16	-40.0	-41.1	21.4	0.00e+00	0	39	0	217055232	54	5814
2026-01-02 12:30:59.96	35.32	9.22	-40.1	-41.2	21.3	0.00e+00	0	39	0	219152384	54	5877
2026-01-02 12:31:00.97	35.45	9.27	-40.1	-41.2	21.3	0.00e+00	0	39	0	221249536	54	5881
2026-01-02 12:31:01.98	35.58	9.33	-40.3	-41.5	21.1	0.00e+00	0	39	0	222298112	54	6096
2026-01-02 12:31:02.99	35.71	9.39	-40.1	-41.3	21.3	0.00e+00	0	39	0	224395264	54	5899
2026-01-02 12:31:04.00	35.84	9.44	-40.1	-41.3	21.3	0.00e+00	0	39	0	226492416	54	5916
2026-01-02 12:31:05.01	35.97	9.50	-40.1	-41.3	21.2	0.00e+00	0	39	0	228589568	54	5939
2026-01-02 12:31:06.01	36.10	9.56	-40.4	-41.6	21.0	0.00e+00	0	39	0	230686720	54	6120
2026-01-02 12:31:07.02	36.23	9.62	-40.0	-41.2	21.4	0.00e+00	0	39	0	231735296	54	5846
2026-01-02 12:31:08.03	36.37	9.67	-40.0	-41.1	21.5	0.00e+00	0	39	0	233832448	54	5807
2026-01-02 12:31:09.04	36.50	9.73	-40.0	-41.1	21.4	0.00e+00	0	39	0	235929600	54	5809
2026-01-02 12:31:10.05	36.63	9.79	-40.1	-41.3	21.3	0.00e+00	0	39	0	238026752	54	5912
2026-01-02 12:31:11.06	36.77	9.85	-39.9	-41.1	21.5	0.00e+00	0	39	0	240123904	54	5773
2026-01-02 12:31:12.07	36.90	9.90	-39.9	-41.1	21.5	0.00e+00	0	39	0	241172480	54	5776
2026-01-02 12:31:13.08	37.04	9.96	-39.8	-41.0	21.7	0.00e+00	0	39	0	243269632	52	6396
2026-01-02 12:31:14.09	37.18	10.02	-39.9	-41.0	21.6	0.00e+00	0	39	0	245366784	52	6433
2026-01-02 12:31:15.10	37.31	10.08	-39.9	-41.1	21.6	0.00e+00	0	39	0	247463936	52	6471
2026-01-02 12:31:16.11	37.45	10.13	-39.9	-41.0	21.6	0.00e+00	0	39	0	249561088	52	6461
2026-01-02 12:31:17.12	37.59	10.19	-40.1	-41.2	21.4	0.00e+00	0	39	0	251658240	52	6597
2026-01-02 12:31:18.13	37.72	10.25	-40.1	-41.2	21.4	0.00e+00	0	39	0	252706816	52	6615
2026-01-02 12:31:19.14	37.86	10.31	-40.0	-41.1	21.6	0.00e+00	0	39	0	254803968	52	6531
2026-01-02 12:31:20.15	38.00	10.36	-40.0	-41.1	21.6	0.00e+00	0	39	0	256901120	52	6483
2026-01-02 12:31:21.16	38.14	10.42	-39.9	-41.0	21.6	0.00e+00	0	39	0	258998272	52	6458
2026-01-02 12:31:22.17	38.28	10.48	-40.0	-41.1	21.5	0.00e+00	0	39	0	261095424	52	6522
2026-01-02 12:31:23.18	38.42	10.53	-39.9	-41.0	21.6	0.00e+00	0	39	0	262144000	52	6404
2026-01-02 12:31:24.19	38.56	10.59	-39.8	-40.9	21.7	0.00e+00	0	39	0	264241152	52	6370
2026-01-02 12:31:25.19	38.70	10.65	-39.7	-40.7	21.9	0.00e+00	0	39	0	266338304	52	6229
2026-01-02 12:31:26.20	38.85	10.71	-39.6	-40.7	22.0	0.00e+00	0	39	0	268435456	52	6210
2026-01-02 12:31:27.21	38.99	10.76	-39.7	-40.8	21.9	0.00e+00	0	39	0	270532608	52	6247
2026-01-02 12:31:28.22	39.13	10.82	-39.6	-40.7	21.9	0.00e+00	0	39	0	271581184	52	6204
2026-01-02 12:31:29.23	39.28	10.88	-39.7	-40.8	21.9	0.00e+00	0	39	0	273678336	52	6271
2026-01-02 12:31:30.24	39.42	10.93	-39.7	-40.8	21.9	0.00e+00	0	39	0	275775488	52	6246
2026-01-02 12:31:31.25	39.57	10.99	-39.6	-40.6	22.0	0.00e+00	0	39	0	277872640	52	6166
2026-01-02 12:31:32.26	39.71	11.05	-39.5	-40.6	22.1	0.00e+00	0	39	0	279969792	52	6133
2026-01-02 12:31:33.27	39.86	11.11	-39.5	-40.5	22.2	0.00e+00	0	39	0	281018368	52	6096
2026-01-02 12:31:34.28	40.00	11.16	-39.5	-40.6	22.0	0.00e+00	0	39	0	283115520	52	6145
2026-01-02 12:31:35.29	40.15	11.22	-39.4	-40.5	22.1	0.00e+00	0	39	0	285212672	52	6054
2026-01-02 12:31:36.30	40.30	11.28	-39.4	-40.4	22.2	0.00e+00	0	39	0	287309824	52	6027
2026-01-02 12:31:37.31	40.45	11.33	-39.3	-40.3	22.3	0.00e+00	0	39	0	289406976	52	5957
2026-01-02 12:31:38.32	40.60	11.39	-39.2	-40.2	22.5	0.00e+00	0	39	0	290455552	52	5863
2026-01-02 12:31:39.33	40.75	11.45	-39.1	-40.1	22.5	0.00e+00	0	39	0	292552704	52	5784
2026-01-02 12:31:40.34	40.90	11.50	-39.1	-40.1	22.5	0.00e+00	0	39	0	294649856	52	5813
2026-01-02 12:31:41.35	41.05	11.56	-39.0	-40.0	22.6	0.00e+00	0	39	0	296747008	52	5755
2026-01-02 12:31:42.36	41.20	11.62	-39.1	-40.1	22.6	0.00e+00	0	39	0	298844160	52	5770
2026-01-02 12:31:43.37	41.35	11.67	-38.9	-39.8	22.8	0.00e+00	0	39	0	299892736	52	5628
2026-01-02 12:31:44.38	41.50	11.73	-38.8	-39.8	22.9	0.00e+00	0	39	0	301989888	52	5595
2026-01-02 12:31:45.39	41.65	11.79	-38.8	-39.8	22.8	0.00e+00	0	39	0	304087040	52	5596
2026-01-02 12:31:46.40	41.81	11.84	-38.8	-39.8	22.9	0.00e+00	0	39	0	306184192	52	5582
2026-01-02 12:31:47.41	41.96	11.90	-38.7	-39.6	22.9	0.00e+00	0	39	0	308281344	50	6148
2026-01-02 12:31:48.41	42.11	11.96	-38.8	-39.8	22.9	0.00e+00	0	39	0	309329920	50	6276
2026-01-02 12:31:49.43	42.27	12.01	-38.7	-39.7	22.9	0.00e+00	0	39	0	311427072	50	6187
2026-01-02 12:31:50.44	42.43	12.07	-38.8	-39.8	22.7	0.00e+00	0	39	0	313524224	50	6263
2026-01-02 12:31:51.45	42.58	12.13	-38.7	-39.7	22.9	0.00e+00	0	39	0	315621376	50	6195
2026-01-02 12:31:52.46	42.74	12.18	-38.8	-39.7	22.7	0.00e+00	0	39	0	317718528	50	6230
2026-01-02 12:31:53.46	42.90	12.24	-38.7	-39.7	22.9	0.00e+00	0	39	0	319815680	50	6203
2026-01-02 12:31:54.47	43.05	12.29	-38.7	-39.7	22.9	0.00e+00	0	39	0	320864256	50	6215
2026-01-02 12:31:55.48	43.21	12.35	-38.8	-39.7	22.9	0.00e+00	0	39	0	322961408	50	6236
2026-01-02 12:31:56.49	43.37	12.41	-38.8	-39.8	22.8	0.00e+00	0	39	0	325058560	50	6287
2026-01-02 12:31:57.50	43.53	12.46	-38.9	-39.9	22.8	0.00e+00	0	39	0	327155712	50	6336
2026-01-02 12:31:58.51	43.69	12.52	-38.8	-39.7	22.8	0.00e+00	0	39	0	329252864	50	6230
2026-01-02 12:31:59.52	43.85	12.57	-38.8	-39.8	22.8	0.00e+00	0	39	0	330301440	50	6275
2026-01-02 12:32:00.52	44.01	12.63	-38.6	-39.6	23.0	0.00e+00	0	39	0	332398592	50	6142
2026-01-02 12:32:01.53	44.17	12.69	-38.6	-39.6	22.9	0.00e+00	0	39	0	334495744	50	6131
2026-01-02 12:32:02.54	44.34	12.74	-38.6	-39.5	23.1	0.00e+00	0	39	0	336592896	50	6081
2026-01-02 12:32:03.55	44.50	12.80	-38.6	-39.6	23.0	0.00e+00	0	39	0	338690048	50	6121
2026-01-02 12:32:04.56	44.66	12.85	-38.7	-39.7	23.0	0.00e+00	0	39	0	339738624	50	6184
2026-01-02 12:32:05.57	44.83	12.91	-38.7	-39.6	23.0	0.00e+00	0	39	0	341835776	50	6143
2026-01-02 12:32:06.58	44.99	12.96	-38.8	-39.7	22.9	0.00e+00	0	39	0	343932928	50	6221
2026-01-02 12:32:07.59	45.16	13.02	-38.9	-39.9	22.8	0.00e+00	0	39	0	346030080	50	6328
2026-01-02 12:32:08.60	45.33	13.07	-38.9	-39.9	22.7	0.00e+00	0	39	0	348127232	50	6324
2026-01-02 12:32:09.61	45.49	13.13	-38.7	-39.6	23.0	0.00e+00	0	39	0	349175808	50	6161
2026-01-02 12:32:10.62	45.66	13.18	-38.8	-39.8	22.8	0.00e+00	0	39	0	351272960	50	6293
2026-01-02 12:32:11.63	45.83	13.24	-38.8	-39.8	22.8	0.00e+00	0	39	0	353370112	50	6268
2026-01-02 12:32:12.63	45.99	13.29	-38.7	-39.7	23.0	0.00e+00	0	39	0	355467264	50	6193
2026-01-02 12:32:13.64	46.16	13.35	-38.7	-39.7	23.1	0.00e+00	0	39	0	357564416	50	6205
2026-01-02 12:32:14.65	46.33	13.40	-38.7	-39.6	23.1	0.00e+00	0	39	0	358612992	50	6163
2026-01-02 12:32:15.66	46.50	13.45	-38.7	-39.7	22.9	0.00e+00	0	39	0	360710144	50	6215
2026-01-02 12:32:16.67	46.68	13.51	-38.7	-39.7	23.0	0.00e+00	0	39	0	362807296	50	6192
2026-01-02 12:32:17.68	46.85	13.56	-38.6	-39.6	23.1	0.00e+00	0	39	0	364904448	50	6122
2026-01-02 12:32:18.69	47.02	13.62	-38.6	-39.5	23.1	0.00e+00	0	39	0	367001600	50	6060
2026-01-02 12:32:19.70	47.19	13.67	-38.6	-39.5	23.1	0.00e+00	0	39	0	368050176	50	6093
2026-01-02 12:32:20.71	47.37	13.72	-38.7	-39.6	23.1	0.00e+00	0	39	0	370147328	50	6135
2026-01-02 12:32:21.72	47.54	13.78	-38.7	-39.7	23.0	0.00e+00	0	39	0	372244480	50	6185
2026-01-02 12:32:22.73	47.71	13.83	-38.9	-39.8	22.8	0.00e+00	0	39	0	374341632	50	6313
2026-01-02 12:32:23.74	47.89	13.88	-39.0	-39.9	22.8	0.00e+00	0	39	0	376438784	50	6388
2026-01-02 12:32:24.75	48.07	13.94	-38.9	-39.9	22.8	0.00e+00	0	39	0	377487360	50	6364
2026-01-02 12:32:25.75	48.24	13.99	-39.0	-39.9	22.8	0.00e+00	0	39	0	379584512	50	6382
2026-01-02 12:32:26.76	48.42	14.04	-39.2	-40.2	22.6	0.00e+00	0	39	0	381681664	50	6561
2026-01-02 12:32:27.77	48.60	14.10	-39.1	-40.1	22.7	0.00e+00	0	39	0	383778816	50	6474
2026-01-02 12:32:28.78	48.77	14.15	-39.1	-40.1	22.7	0.00e+00	0	39	0	385875968	50	6513
2026-01-02 12:32:29.79	48.95	14.20	-39.0	-40.0	22.7	0.00e+00	0	39	0	387973120	50	6412
2026-01-02 12:32:30.80	49.13	14.25	-39.0	-40.0	22.6	0.00e+00	0	39	0	389021696	50	6426
2026-01-02 12:32:31.81	49.31	14.31	-39.2	-40.2	22.6	0.00e+00	0	39	0	391118848	50	6542
2026-01-02 12:32:32.82	49.49	14.36	-39.3	-40.3	22.4	0.00e+00	0	39	0	393216000	50	6677
2026-01-02 12:32:33.83	49.68	14.41	-39.4	-40.4	22.4	0.00e+00	0	39	0	395313152	50	6732
2026-01-02 12:32:34.84	49.86	14.46	-39.5	-40.5	22.2	0.00e+00	0	39	0	397410304	50	6839
2026-01-02 12:32:35.84	50.04	14.51	-39.6	-40.6	22.1	0.00e+00	0	39	0	398458880	50	6919
2026-01-02 12:32:36.86	50.22	14.57	-39.7	-40.7	22.1	0.00e+00	0	39	0	400556032	50	6991
2026-01-02 12:32:37.86	50.41	14.62	-39.7	-40.7	22.1	0.00e+00	0	39	0	402653184	50	6982
2026-01-02 12:32:38.87	50.59	14.67	-39.7	-40.8	22.0	0.00e+00	0	39	0	404750336	50	7045
2026-01-02 12:32:39.88	50.78	14.72	-39.9	-41.0	22.0	0.00e+00	0	39	0	405798912	52	6426
2026-01-02 12:32:40.90	50.96	14.77	-40.0	-41.1	21.8	0.00e+00	0	39	0	407896064	52	6500
2026-01-02 12:32:41.91	51.15	14.82	-40.2	-41.3	21.5	0.00e+00	0	39	0	409993216	52	6639
2026-01-02 12:32:42.92	51.34	14.87	-40.2	-41.4	21.5	0.00e+00	0	39	0	412090368	52	6712
2026-01-02 12:32:43.93	51.53	14.92	-40.2	-41.4	21.4	0.00e+00	0	39	0	414187520	52	6722
2026-01-02 12:32:44.94	51.71	14.97	-40.1	-41.2	21.6	0.00e+00	0	39	0	416284672	52	6602
2026-01-02 12:32:45.94	51.90	15.02	-40.4	-41.5	21.2	0.00e+00	0	39	0	417333248	52	6809
2026-01-02 12:32:46.95	52.09	15.07	-40.3	-41.4	21.5	0.00e+00	0	39	0	419430400	52	6769
2026-01-02 12:32:47.96	52.28	15.12	-40.3	-41.4	21.5	0.00e+00	0	39	0	421527552	52	6759
2026-01-02 12:32:48.97	52.47	15.17	-40.3	-41.4	21.5	0.00e+00	0	39	0	423624704	52	6719
2026-01-02 12:32:49.98	52.66	15.22	-40.3	-41.5	21.4	0.00e+00	0	39	0	425721856	52	6794
2026-01-02 12:32:50.98	52.85	15.27	-40.4	-41.6	21.4	0.00e+00	0	39	0	426770432	52	6893
2026-01-02 12:32:51.99	53.05	15.32	-40.4	-41.6	21.3	0.00e+00	0	39	0	428867584	52	6867
2026-01-02 12:32:53.01	53.24	15.37	-40.4	-41.6	21.3	0.00e+00	0	39	0	430964736	52	6885
2026-01-02 12:32:54.01	53.43	15.41	-40.5	-41.7	21.2	0.00e+00	0	39	0	433061888	52	6950
2026-01-02 12:32:55.02	53.63	15.46	-40.6	-41.8	21.1	0.00e+00	0	39	0	435159040	52	7017
2026-01-02 12:32:56.03	53.82	15.51	-40.6	-41.8	21.1	0.00e+00	0	39	0	436207616	52	7038
2026-01-02 12:32:57.04	54.02	15.56	-40.7	-41.9	21.1	0.00e+00	0	39	0	438304768	52	7113
2026-01-02 12:32:58.05	54.22	15.61	-40.6	-41.7	21.2	0.00e+00	0	39	0	440401920	52	6980
2026-01-02 12:32:59.06	54.41	15.65	-40.6	-41.8	21.1	0.00e+00	0	39	0	442499072	52	7059
2026-01-02 12:33:00.07	54.61	15.70	-40.7	-41.9	21.0	0.00e+00	0	39	0	444596224	54	6370
2026-01-02 12:33:01.08	54.81	15.75	-40.9	-42.1	20.8	0.00e+00	0	39	0	445644800	54	6539
2026-01-02 12:33:02.09	55.01	15.79	-41.0	-42.3	20.7	0.00e+00	0	39	0	447741952	54	6660
2026-01-02 12:33:03.10	55.21	15.84	-41.0	-42.2	20.7	0.00e+00	0	39	0	449839104	54	6611
2026-01-02 12:33:04.11	55.41	15.89	-41.1	-42.4	20.7	0.00e+00	0	39	0	451936256	54	6703
2026-01-02 12:33:05.12	55.61	15.93	-40.9	-42.1	20.9	0.00e+00	0	39	0	454033408	54	6534
2026-01-02 12:33:06.13	55.81	15.98	-40.8	-42.1	20.9	0.00e+00	0	39	0	455081984	54	6475
2026-01-02 12:33:07.14	56.01	16.02	-41.0	-42.2	20.8	0.00e+00	0	39	0	457179136	54	6605
2026-01-02 12:33:08.15	56.21	16.07	-40.9	-42.1	20.9	0.00e+00	0	39	0	459276288	54	6487
2026-01-02 12:33:09.16	56.42	16.11	-40.7	-41.9	21.0	0.00e+00	0	39	0	461373440	54	6345
2026-01-02 12:33:10.17	56.62	16.16	-40.8	-42.0	21.0	0.00e+00	0	39	0	463470592	54	6460
2026-01-02 12:33:11.18	56.82	16.20	-40.7	-41.9	21.0	0.00e+00	0	39	0	464519168	54	6345
2026-01-02 12:33:12.19	57.03	16.25	-40.6	-41.8	21.1	0.00e+00	0	39	0	466616320	54	6295
2026-01-02 12:33:13.19	57.23	16.29	-40.4	-41.6	21.4	0.00e+00	0	39	0	468713472	54	6110
2026-01-02 12:33:14.20	57.44	16.34	-40.2	-41.4	21.5	0.00e+00	0	39	0	470810624	54	5981
2026-01-02 12:33:15.21	57.64	16.38	-40.3	-41.5	21.4	0.00e+00	0	39	0	472907776	54	6040
2026-01-02 12:33:16.22	57.85	16.42	-40.2	-41.4	21.5	0.00e+00	0	39	0	473956352	54	5967
2026-01-02 12:33:17.23	58.06	16.46	-40.4	-41.5	21.4	0.00e+00	0	39	0	476053504	54	6094
2026-01-02 12:33:18.24	58.27	16.51	-40.3	-41.4	21.5	0.00e+00	0	39	0	478150656	54	6001
2026-01-02 12:33:19.25	58.48	16.55	-40.0	-41.1	21.8	0.00e+00	0	39	0	480247808	54	5823
2026-01-02 12:33:20.26	58.69	16.59	-39.9	-41.0	21.9	0.00e+00	0	39	0	482344960	54	5751
2026-01-02 12:33:21.27	58.90	16.63	-39.9	-41.0	21.9	0.00e+00	0	39	0	484442112	54	5747
2026-01-02 12:33:22.28	59.11	16.67	-40.0	-41.1	21.8	0.00e+00	0	39	0	485490688	54	5788
2026-01-02 12:33:23.29	59.32	16.72	-39.6	-40.7	22.2	0.00e+00	0	39	0	487587840	52	6205
2026-01-02 12:33:24.30	59.53	16.76	-39.7	-40.8	22.1	0.00e+00	0	39	0	489684992	52	6267
2026-01-02 12:33:25.31	59.74	16.80	-39.5	-40.6	22.3	0.00e+00	0	39	0	491782144	52	6127
2026-01-02 12:33:26.31	59.95	16.84	-39.5	-40.6	22.3	0.00e+00	0	39	0	493879296	52	6106
2026-01-02 12:33:27.32	60.17	16.88	-39.4	-40.4	22.4	0.00e+00	0	39	0	494927872	52	5987
2026-01-02 12:33:28.33	60.38	16.92	-39.3	-40.3	22.6	0.00e+00	0	39	0	497025024	52	5914
2026-01-02 12:33:29.34	60.59	16.96	-39.4	-40.4	22.4	0.00e+00	0	39	0	499122176	52	6003
2026-01-02 12:33:30.34	60.81	16.99	-39.2	-40.2	22.6	0.00e+00	0	39	0	501219328	52	5842
2026-01-02 12:33:31.35	61.02	17.03	-39.1	-40.1	22.7	0.00e+00	0	39	0	503316480	52	5794
2026-01-02 12:33:32.36	61.24	17.07	-39.2	-40.2	22.6	0.00e+00	0	39	0	504365056	52	5864
2026-01-02 12:33:33.37	61.46	17.11	-39.1	-40.1	22.7	0.00e+00	0	39	0	506462208	52	5821
2026-01-02 12:33:34.38	61.67	17.15	-39.2	-40.2	22.6	0.00e+00	0	39	0	508559360	52	5888
2026-01-02 12:33:35.39	61.89	17.18	-39.0	-40.0	22.8	0.00e+00	0	39	0	510656512	52	5737
2026-01-02 12:33:36.40	62.11	17.22	-39.0	-40.0	22.8	0.00e+00	0	39	0	512753664	52	5747
2026-01-02 12:33:37.40	62.33	17.26	-39.1	-40.1	22.8	0.00e+00	0	39	0	513802240	52	5791
2026-01-02 12:33:38.41	62.54	17.29	-39.2	-40.2	22.6	0.00e+00	0	39	0	515899392	52	5887
2026-01-02 12:33:39.42	62.76	17.33	-39.4	-40.4	22.5	0.00e+00	0	39	0	517996544	52	6009
2026-01-02 12:33:40.43	62.98	17.37	-39.2	-40.3	22.6	0.00e+00	0	39	0	520093696	52	5904
2026-01-02 12:33:41.44	63.21	17.40	-39.3	-40.3	22.4	0.00e+00	0	39	0	522190848	52	5961
2026-01-02 12:33:42.45	63.43	17.44	-39.5	-40.6	22.3	0.00e+00	0	39	0	523239424	52	6144
2026-01-02 12:33:43.46	63.65	17.47	-39.4	-40.5	22.4	0.00e+00	0	39	0	525336576	52	6036
2026-01-02 12:33:44.47	63.87	17.50	-39.4	-40.5	22.3	0.00e+00	0	39	0	527433728	52	6035
2026-01-02 12:33:45.48	64.09	17.54	-39.5	-40.5	22.4	0.00e+00	0	39	0	529530880	52	6056
2026-01-02 12:33:46.49	64.32	17.57	-39.5	-40.6	22.3	0.00e+00	0	39	0	531628032	52	6107
2026-01-02 12:33:47.50	64.54	17.61	-39.6	-40.6	22.3	0.00e+00	0	39	0	532676608	52	6128
2026-01-02 12:33:48.51	64.77	17.64	-39.5	-40.6	22.3	0.00e+00	0	39	0	534773760	52	6125
2026-01-02 12:33:49.52	64.99	17.67	-39.5	-40.6	22.3	0.00e+00	0	39	0	536870912	52	6128
2026-01-02 12:33:50.53	65.22	17.70	-39.4	-40.5	22.3	0.00e+00	0	39	0	538968064	52	6072
2026-01-02 12:33:51.54	65.44	17.73	-39.3	-40.4	22.5	0.00e+00	0	39	0	541065216	52	5967
2026-01-02 12:33:52.55	65.67	17.76	-39.3	-40.3	22.5	0.00e+00	0	39	0	542113792	52	5919
2026-01-02 12:33:53.56	65.89	17.80	-39.2	-40.2	22.6	0.00e+00	0	39	0	544210944	52	5860
2026-01-02 12:33:54.57	66.12	17.83	-39.3	-40.3	22.4	0.00e+00	0	39	0	546308096	52	5959
2026-01-02 12:33:55.58	66.35	17.86	-39.4	-40.4	22.3	0.00e+00	0	39	0	548405248	52	5996
2026-01-02 12:33:56.59	66.58	17.89	-39.4	-40.4	22.4	0.00e+00	0	39	0	550502400	52	6028
2026-01-02 12:33:57.60	66.80	17.91	-39.5	-40.5	22.3	0.00e+00	0	39	0	552599552	52	6070
2026-01-02 12:33:58.61	67.03	17.94	-39.5	-40.6	22.3	0.00e+00	0	39	0	553648128	52	6117
2026-01-02 12:33:59.62	67.26	17.97	-39.5	-40.5	22.2	0.00e+00	0	39	0	555745280	52	6103
2026-01-02 12:34:00.63	67.49	18.00	-39.3	-40.4	22.5	0.00e+00	0	39	0	557842432	52	5974
2026-01-02 12:34:01.64	67.72	18.03	-39.4	-40.5	22.3	0.00e+00	0	39	0	559939584	52	6052
2026-01-02 12:34:02.65	67.95	18.05	-39.6	-40.6	22.2	0.00e+00	0	39	0	562036736	52	6151
2026-01-02 12:34:03.66	68.18	18.08	-39.6	-40.7	22.2	0.00e+00	0	39	0	563085312	52	6184
2026-01-02 12:34:04.67	68.42	18.11	-39.7	-40.7	22.1	0.00e+00	0	39	0	565182464	52	6226
2026-01-02 12:34:05.67	68.64	18.13	-39.5	-40.6	22.4	0.00e+00	0	39	0	567279616	52	6129
2026-01-02 12:34:06.69	68.88	18.16	-39.6	-40.6	22.3	0.00e+00	0	39	0	569376768	52	6138
2026-01-02 12:34:07.70	69.11	18.18	-39.7	-40.7	22.1	0.00e+00	0	39	0	571473920	52	6230
2026-01-02 12:34:08.71	69.34	18.21	-39.5	-40.5	22.3	0.00e+00	0	39	0	572522496	52	6074
2026-01-02 12:34:09.72	69.58	18.23	-39.5	-40.5	22.3	0.00e+00	0	39	0	574619648	52	6082
2026-01-02 12:34:10.73	69.81	18.26	-39.3	-40.3	22.5	0.00e+00	0	39	0	576716800	52	5964
2026-01-02 12:34:11.74	70.04	18.28	-39.3	-40.3	22.6	0.00e+00	0	39	0	578813952	52	5937
2026-01-02 12:34:12.75	70.28	18.30	-39.2	-40.2	22.7	0.00e+00	0	39	0	580911104	52	5882
2026-01-02 12:34:13.76	70.51	18.33	-39.1	-40.1	22.7	0.00e+00	0	39	0	581959680	52	5787
2026-01-02 12:34:14.77	70.75	18.35	-39.3	-40.3	22.6	0.00e+00	0	39	0	584056832	52	5910
2026-01-02 12:34:15.78	70.98	18.37	-39.5	-40.6	22.3	0.00e+00	0	39	0	586153984	52	6112
2026-01-02 12:34:16.78	71.22	18.39	-39.5	-40.5	22.4	0.00e+00	0	39	0	588251136	52	6053
2026-01-02 12:34:17.79	71.45	18.41	-39.6	-40.6	22.3	0.00e+00	0	39	0	590348288	52	6137
2026-01-02 12:34:18.80	71.69	18.43	-39.6	-40.7	22.1	0.00e+00	0	39	0	591396864	52	6180
2026-01-02 12:34:19.81	71.93	18.45	-39.6	-40.7	22.2	0.00e+00	0	39	0	593494016	52	6214
2026-01-02 12:34:20.82	72.16	18.47	-39.6	-40.7	22.2	0.00e+00	0	39	0	595591168	52	6213
2026-01-02 12:34:21.83	72.40	18.49	-39.6	-40.7	22.2	0.00e+00	0	39	0	597688320	52	6181
2026-01-02 12:34:22.84	72.64	18.51	-39.7	-40.8	22.1	0.00e+00	0	39	0	599785472	52	6265
2026-01-02 12:34:23.85	72.88	18.52	-39.6	-40.7	22.2	0.00e+00	0	39	0	600834048	52	6240
2026-01-02 12:34:24.86	73.11	18.54	-39.6	-40.7	22.2	0.00e+00	0	39	0	602931200	52	6229
2026-01-02 12:34:25.87	73.35	18.56	-39.6	-40.8	22.2	0.00e+00	0	39	0	605028352	52	6259
2026-01-02 12:34:26.88	73.59	18.58	-39.5	-40.7	22.2	0.00e+00	0	39	0	607125504	52	6188
2026-01-02 12:34:27.89	73.83	18.59	-39.7	-40.9	22.0	0.00e+00	0	39	0	609222656	52	6321
2026-01-02 12:34:28.90	74.07	18.61	-39.9	-41.0	21.8	0.00e+00	0	39	0	610271232	52	6429
2026-01-02 12:34:29.91	74.31	18.62	-40.0	-41.2	21.7	0.00e+00	0	39	0	612368384	52	6562
2026-01-02 12:34:30.92	74.55	18.64	-40.2	-41.4	21.5	0.00e+00	0	39	0	614465536	52	6720
2026-01-02 12:34:31.93	74.79	18.65	-40.2	-41.3	21.6	0.00e+00	0	39	0	616562688	52	6679
2026-01-02 12:34:32.94	75.03	18.66	-40.0	-41.1	21.8	0.00e+00	0	39	0	618659840	52	6520
2026-01-02 12:34:33.94	75.26	18.68	-39.9	-41.0	21.9	0.00e+00	0	39	0	620756992	52	6422
2026-01-02 12:34:34.95	75.50	18.69	-39.9	-41.0	21.9	0.00e+00	0	39	0	621805568	52	6414
2026-01-02 12:34:35.96	75.74	18.70	-39.9	-40.9	22.0	0.00e+00	0	39	0	623902720	52	6367
2026-01-02 12:34:36.97	75.99	18.71	-39.9	-40.9	22.0	0.00e+00	0	39	0	625999872	52	6382
2026-01-02 12:34:37.98	76.23	18.73	-39.6	-40.6	22.3	0.00e+00	0	39	0	628097024	52	6118
2026-01-02 12:34:38.99	76.47	18.74	-39.4	-40.5	22.4	0.00e+00	0	39	0	629145600	52	6036
2026-01-02 12:34:39.99	76.71	18.75	-39.7	-40.7	22.3	0.00e+00	0	39	0	631242752	52	6223
2026-01-02 12:34:41.00	76.95	18.76	-39.7	-40.7	22.2	0.00e+00	0	39	0	633339904	52	6241
2026-01-02 12:34:42.01	77.19	18.76	-39.9	-41.0	21.9	0.00e+00	0	39	0	635437056	52	6431
2026-01-02 12:34:43.02	77.43	18.77	-40.0	-41.1	21.7	0.00e+00	0	39	0	637534208	52	6523
2026-01-02 12:34:44.03	77.67	18.78	-40.1	-41.2	21.7	0.00e+00	0	39	0	638582784	52	6604
2026-01-02 12:34:45.04	77.92	18.79	-40.2	-41.4	21.6	0.00e+00	0	39	0	640679936	52	6702
2026-01-02 12:34:46.05	78.16	18.80	-40.1	-41.3	21.7	0.00e+00	0	39	0	642777088	52	6626
2026-01-02 12:34:47.06	78.40	18.80	-40.2	-41.3	21.7	0.00e+00	0	39	0	644874240	52	6634
2026-01-02 12:34:48.07	78.64	18.81	-40.1	-41.2	21.7	0.00e+00	0	39	0	646971392	52	6611
2026-01-02 12:34:49.08	78.88	18.82	-40.0	-41.1	21.9	0.00e+00	0	39	0	649068544	52	6475
2026-01-02 12:34:50.09	79.13	18.82	-40.1	-41.2	21.7	0.00e+00	0	39	0	650117120	52	6579
2026-01-02 12:34:51.10	79.37	18.83	-40.0	-41.1	21.8	0.00e+00	0	39	0	652214272	52	6483
2026-01-02 12:34:52.11	79.61	18.83	-40.0	-41.2	21.8	0.00e+00	0	39	0	654311424	52	6541
2026-01-02 12:34:53.11	79.85	18.83	-40.0	-41.2	21.8	0.00e+00	0	39	0	656408576	52	6588
2026-01-02 12:34:54.13	80.10	18.84	-40.1	-41.4	21.5	0.00e+00	0	39	0	658505728	52	6739
2026-01-02 12:34:55.14	80.34	18.84	-40.2	-41.4	21.5	0.00e+00	0	39	0	659554304	52	6735
2026-01-02 12:34:56.14	80.58	18.84	-40.0	-41.2	21.7	0.00e+00	0	39	0	661651456	52	6556
2026-01-02 12:34:57.16	80.83	18.84	-40.0	-41.1	21.8	0.00e+00	0	39	0	663748608	52	6520
2026-01-02 12:34:58.17	81.07	18.85	-40.0	-41.1	21.8	0.00e+00	0	39	0	665845760	52	6477
2026-01-02 12:34:59.17	81.31	18.85	-39.8	-40.9	22.0	0.00e+00	0	39	0	667942912	52	6364
2026-01-02 12:35:00.18	81.55	18.85	-39.8	-40.9	22.1	0.00e+00	0	39	0	668991488	52	6319
2026-01-02 12:35:01.19	81.80	18.85	-39.6	-40.6	22.2	0.00e+00	0	39	0	671088640	52	6170
2026-01-02 12:35:02.20	82.04	18.85	-39.5	-40.6	22.2	0.00e+00	0	39	0	673185792	52	6130
2026-01-02 12:35:03.21	82.28	18.84	-39.6	-40.7	22.1	0.00e+00	0	39	0	675282944	52	6194
2026-01-02 12:35:04.22	82.52	18.84	-39.6	-40.7	22.2	0.00e+00	0	39	0	677380096	52	6186
2026-01-02 12:35:05.23	82.77	18.84	-39.7	-40.7	21.7	0.00e+00	0	39	0	678428672	52	6232
2026-01-02 12:35:06.24	83.01	18.84	-39.8	-40.9	22.0	0.00e+00	0	39	0	680525824	52	6347
2026-01-02 12:35:07.25	83.25	18.84	-39.6	-40.6	22.1	0.00e+00	0	39	0	682622976	52	6162
2026-01-02 12:35:08.26	83.50	18.83	-39.5	-40.6	22.2	0.00e+00	0	39	0	684720128	52	6127
2026-01-02 12:35:09.27	83.74	18.83	-39.6	-40.6	22.3	0.00e+00	0	39	0	686817280	52	6155
2026-01-02 12:35:10.26	83.98	18.82	-39.6	-40.7	22.2	0.00e+00	0	39	0	687865856	52	6174
2026-01-02 12:35:11.27	84.22	18.82	-39.6	-40.7	22.2	0.00e+00	0	39	0	689963008	52	6182
2026-01-02 12:35:12.28	84.46	18.81	-39.7	-40.7	22.1	0.00e+00	0	39	0	692060160	52	6231
2026-01-02 12:35:13.29	84.70	18.81	-39.8	-40.9	22.0	0.00e+00	0	39	0	694157312	52	6327
2026-01-02 12:35:14.30	84.95	18.80	-39.8	-40.8	22.1	0.00e+00	0	39	0	696254464	52	6296
2026-01-02 12:35:15.31	85.19	18.79	-39.9	-41.0	21.9	0.00e+00	0	39	0	697303040	52	6423
2026-01-02 12:35:16.32	85.43	18.78	-40.1	-41.2	21.6	0.00e+00	0	39	0	699400192	52	6604
2026-01-02 12:35:17.33	85.67	18.78	-40.0	-41.1	21.9	0.00e+00	0	39	0	701497344	52	6504
2026-01-02 12:35:18.34	85.92	18.77	-40.0	-41.1	21.8	0.00e+00	0	39	0	703594496	52	6495
2026-01-02 12:35:19.35	86.16	18.76	-39.9	-41.0	21.9	0.00e+00	0	39	0	705691648	52	6406
2026-01-02 12:35:20.36	86.40	18.75	-39.8	-40.9	22.0	0.00e+00	0	39	0	706740224	52	6360
2026-01-02 12:35:21.37	86.64	18.74	-39.8	-40.8	22.1	0.00e+00	0	39	0	708837376	52	6299
2026-01-02 12:35:22.38	86.88	18.73	-39.6	-40.7	22.3	0.00e+00	0	39	0	710934528	52	6178
2026-01-02 12:35:23.39	87.12	18.72	-39.3	-40.4	22.5	0.00e+00	0	39	0	713031680	52	5966
2026-01-02 12:35:24.40	87.36	18.70	-39.1	-40.1	22.8	0.00e+00	0	39	0	715128832	52	5785
2026-01-02 12:35:25.41	87.60	18.69	-39.1	-40.1	22.7	0.00e+00	0	39	0	717225984	52	5818
2026-01-02 12:35:26.42	87.85	18.68	-39.1	-40.0	22.8	0.00e+00	0	39	0	718274560	52	5758
2026-01-02 12:35:27.43	88.09	18.67	-39.1	-40.1	22.7	0.00e+00	0	39	0	720371712	52	5817
2026-01-02 12:35:28.44	88.33	18.65	-39.2	-40.2	22.6	0.00e+00	0	39	0	722468864	52	5859
2026-01-02 12:35:29.45	88.57	18.64	-39.3	-40.3	22.6	0.00e+00	0	39	0	724566016	52	5912
2026-01-02 12:35:30.46	88.81	18.63	-39.4	-40.4	22.4	0.00e+00	0	39	0	726663168	52	6022
2026-01-02 12:35:31.47	89.05	18.61	-39.5	-40.5	22.3	0.00e+00	0	39	0	727711744	52	6088
2026-01-02 12:35:32.48	89.29	18.59	-39.4	-40.4	22.5	0.00e+00	0	39	0	729808896	52	6001
2026-01-02 12:35:33.49	89.52	18.58	-39.3	-40.3	22.5	0.00e+00	0	39	0	731906048	52	5964
2026-01-02 12:35:34.50	89.76	18.56	-39.3	-40.3	22.5	0.00e+00	0	39	0	734003200	52	5963
2026-01-02 12:35:35.51	90.00	18.55	-39.2	-40.1	22.6	0.00e+00	0	39	0	736100352	52	5827
2026-01-02 12:35:36.52	90.24	18.53	-39.0	-39.9	22.8	0.00e+00	0	39	0	737148928	52	5694
2026-01-02 12:35:37.53	90.48	18.51	-38.8	-39.8	22.9	0.00e+00	0	39	0	739246080	52	5591
2026-01-02 12:35:38.54	90.72	18.49	-38.8	-39.8	23.0	0.00e+00	0	39	0	741343232	52	5581
2026-01-02 12:35:39.55	90.95	18.47	-38.6	-39.5	23.0	0.00e+00	0	39	0	743440384	50	6096
2026-01-02 12:35:40.56	91.19	18.45	-38.4	-39.3	23.3	0.00e+00	0	39	0	745537536	50	5954
2026-01-02 12:35:41.57	91.43	18.43	-38.5	-39.4	23.3	0.00e+00	0	39	0	746586112	50	6003
2026-01-02 12:35:42.57	91.66	18.41	-38.5	-39.5	23.3	0.00e+00	0	39	0	748683264	50	6048
2026-01-02 12:35:43.58	91.90	18.39	-38.4	-39.3	23.3	0.00e+00	0	39	0	750780416	50	5955
2026-01-02 12:35:44.59	92.13	18.37	-38.3	-39.2	23.5	0.00e+00	0	39	0	752877568	50	5883
2026-01-02 12:35:45.60	92.37	18.35	-38.4	-39.3	23.4	0.00e+00	0	39	0	754974720	50	5912
2026-01-02 12:35:46.61	92.61	18.33	-38.4	-39.4	23.3	0.00e+00	0	39	0	756023296	50	5976
2026-01-02 12:35:47.62	92.84	18.31	-38.7	-39.6	23.1	0.00e+00	0	39	0	758120448	50	6155
2026-01-02 12:35:48.63	93.08	18.28	-38.7	-39.7	23.0	0.00e+00	0	39	0	760217600	50	6178
2026-01-02 12:35:49.64	93.31	18.26	-38.8	-39.8	22.9	0.00e+00	0	39	0	762314752	50	6256
2026-01-02 12:35:50.65	93.54	18.24	-38.7	-39.7	23.0	0.00e+00	0	39	0	764411904	50	6211
2026-01-02 12:35:51.66	93.78	18.21	-38.8	-39.8	22.8	0.00e+00	0	39	0	765460480	50	6270
2026-01-02 12:35:52.67	94.01	18.19	-38.8	-39.8	23.0	0.00e+00	0	39	0	767557632	50	6260
2026-01-02 12:35:53.68	94.24	18.16	-38.8	-39.7	23.0	0.00e+00	0	39	0	769654784	50	6224
2026-01-02 12:35:54.69	94.48	18.14	-38.7	-39.6	23.1	0.00e+00	0	39	0	771751936	50	6144
2026-01-02 12:35:55.70	94.71	18.11	-38.7	-39.6	23.1	0.00e+00	0	39	0	773849088	50	6167
2026-01-02 12:35:56.71	94.94	18.09	-38.6	-39.6	23.1	0.00e+00	0	39	0	774897664	50	6139
2026-01-02 12:35:57.71	95.17	18.06	-38.5	-39.5	23.2	0.00e+00	0	39	0	776994816	50	6056
2026-01-02 12:35:58.72	95.40	18.03	-38.4	-39.4	23.3	0.00e+00	0	39	0	779091968	50	5968
2026-01-02 12:35:59.73	95.63	18.00	-38.2	-39.1	23.6	0.00e+00	0	39	0	781189120	50	5785
2026-01-02 12:36:00.74	95.86	17.98	-38.2	-39.1	23.5	0.00e+00	0	39	0	783286272	50	5826
2026-01-02 12:36:01.75	96.09	17.95	-38.0	-38.9	23.7	0.00e+00	0	39	0	785383424	50	5671
2026-01-02 12:36:02.76	96.32	17.92	-37.8	-38.7	24.0	0.00e+00	0	39	0	786432000	50	5545
2026-01-02 12:36:03.77	96.55	17.89	-37.5	-38.4	24.2	0.00e+00	0	39	0	788529152	48	5969
2026-01-02 12:36:04.78	96.78	17.86	-37.5	-38.4	24.2	0.00e+00	0	39	0	790626304	48	6006
2026-01-02 12:36:05.78	97.01	17.83	-37.6	-38.5	24.1	0.00e+00	0	39	0	792723456	48	6048
2026-01-02 12:36:06.79	97.23	17.80	-37.7	-38.6	24.0	0.00e+00	0	39	0	794820608	48	6133
2026-01-02 12:36:07.80	97.46	17.77	-37.9	-38.8	23.9	0.00e+00	0	39	0	795869184	48	6260
2026-01-02 12:36:08.81	97.69	17.74	-38.0	-38.9	23.7	0.00e+00	0	39	0	797966336	48	6332
2026-01-02 12:36:09.82	97.91	17.71	-38.0	-38.9	23.8	0.00e+00	0	39	0	800063488	48	6328
2026-01-02 12:36:10.83	98.14	17.67	-38.1	-39.0	23.7	0.00e+00	0	39	0	802160640	48	6401
2026-01-02 12:36:11.84	98.36	17.64	-37.8	-38.7	23.9	0.00e+00	0	39	0	804257792	48	6219
2026-01-02 12:36:12.85	98.59	17.61	-37.9	-38.8	23.8	0.00e+00	0	39	0	805306368	48	6246
2026-01-02 12:36:13.86	98.81	17.58	-37.8	-38.7	23.8	0.00e+00	0	39	0	807403520	48	6188
2026-01-02 12:36:14.86	99.04	17.54	-37.9	-38.8	23.8	0.00e+00	0	39	0	809500672	48	6266
2026-01-02 12:36:15.87	99.26	17.51	-38.1	-39.0	23.8	0.00e+00	0	39	0	811597824	48	6404
2026-01-02 12:36:16.88	99.48	17.48	-38.0	-38.9	23.6	0.00e+00	0	39	0	813694976	48	6371
2026-01-02 12:36:17.90	99.71	17.44	-38.0	-38.8	23.9	0.00e+00	0	39	0	814743552	48	6316
2026-01-02 12:36:18.90	99.93	17.41	-37.7	-38.6	24.0	0.00e+00	0	39	0	816840704	48	6150
2026-01-02 12:36:19.92	100.15	17.37	-38.1	-39.0	23.6	0.00e+00	0	39	0	818937856	48	6399
2026-01-02 12:36:20.93	100.37	17.33	-37.5	-38.3	24.2	0.00e+00	0	39	0	821035008	48	5945
2026-01-02 12:36:21.94	100.59	17.30	-37.5	-38.3	24.2	0.00e+00	0	39	0	823132160	48	5940
2026-01-02 12:36:22.94	100.81	17.26	-37.4	-38.3	24.2	0.00e+00	0	39	0	824180736	48	5907
2026-01-02 12:36:23.95	101.03	17.23	-37.5	-38.3	24.1	0.00e+00	0	39	0	826277888	48	5956
2026-01-02 12:36:24.96	101.25	17.19	-37.5	-38.4	24.2	0.00e+00	0	39	0	828375040	48	5979
2026-01-02 12:36:25.97	101.47	17.15	-37.6	-38.5	24.1	0.00e+00	0	39	0	830472192	48	6045
2026-01-02 12:36:26.98	101.69	17.11	-37.5	-38.4	24.2	0.00e+00	0	39	0	832569344	48	5982
2026-01-02 12:36:27.99	101.90	17.08	-37.6	-38.5	24.0	0.00e+00	0	39	0	833617920	48	6062
2026-01-02 12:36:29.00	102.12	17.04	-37.7	-38.6	23.8	0.00e+00	0	39	0	835715072	48	6114
2026-01-02 12:36:30.01	102.34	17.00	-37.7	-38.6	23.9	0.00e+00	0	39	0	837812224	48	6151
2026-01-02 12:36:31.02	102.55	16.96	-37.8	-38.7	23.8	0.00e+00	0	39	0	839909376	48	6200
2026-01-02 12:36:32.03	102.77	16.92	-37.8	-38.7	23.9	0.00e+00	0	39	0	842006528	48	6236
2026-01-02 12:36:33.04	102.98	16.88	-37.7	-38.6	23.9	0.00e+00	0	39	0	843055104	48	6161
2026-01-02 12:36:34.05	103.20	16.84	-37.7	-38.6	23.8	0.00e+00	0	39	0	845152256	48	6164
2026-01-02 12:36:35.06	103.41	16.80	-37.7	-38.5	23.8	0.00e+00	0	39	0	847249408	48	6088
2026-01-02 12:36:36.07	103.62	16.76	-37.8	-38.7	23.8	0.00e+00	0	39	0	849346560	48	6217
2026-01-02 12:36:37.08	103.84	16.72	-37.9	-38.8	23.6	0.00e+00	0	39	0	851443712	48	6297
2026-01-02 12:36:38.09	104.05	16.68	-38.2	-39.1	23.3	0.00e+00	0	39	0	853540864	48	6495
2026-01-02 12:36:39.10	104.26	16.63	-38.5	-39.5	23.0	0.00e+00	0	39	0	854589440	48	6814
2026-01-02 12:36:40.11	104.47	16.59	-38.6	-39.6	23.0	0.00e+00	0	39	0	856686592	48	6918
2026-01-02 12:36:41.12	104.68	16.55	-38.8	-39.8	22.8	0.00e+00	0	39	0	858783744	50	6293
2026-01-02 12:36:42.13	104.89	16.51	-38.9	-39.9	22.5	0.00e+00	0	39	0	860880896	50	6367
2026-01-02 12:36:43.14	105.10	16.47	-39.0	-40.0	22.7	0.00e+00	0	39	0	862978048	50	6416
2026-01-02 12:36:44.14	105.30	16.42	-39.0	-39.9	22.8	0.00e+00	0	39	0	864026624	50	6385
2026-01-02 12:36:45.15	105.51	16.38	-39.0	-40.0	22.5	0.00e+00	0	39	0	866123776	50	6449
2026-01-02 12:36:46.16	105.72	16.34	-39.1	-40.1	22.7	0.00e+00	0	39	0	868220928	50	6466
2026-01-02 12:36:47.17	105.93	16.29	-39.1	-40.1	22.6	0.00e+00	0	39	0	870318080	50	6494
2026-01-02 12:36:48.18	106.13	16.25	-39.1	-40.2	22.6	0.00e+00	0	39	0	872415232	50	6555
2026-01-02 12:36:49.19	106.34	16.20	-39.3	-40.4	22.4	0.00e+00	0	39	0	873463808	50	6698
2026-01-02 12:36:50.20	106.54	16.16	-39.2	-40.2	22.5	0.00e+00	0	39	0	875560960	50	6598
2026-01-02 12:36:51.21	106.75	16.11	-39.2	-40.2	22.6	0.00e+00	0	39	0	877658112	50	6603
2026-01-02 12:36:52.22	106.95	16.07	-39.1	-40.1	22.6	0.00e+00	0	39	0	879755264	50	6498
2026-01-02 12:36:53.23	107.16	16.02	-39.1	-40.1	22.7	0.00e+00	0	39	0	881852416	50	6480
2026-01-02 12:36:54.24	107.36	15.98	-39.0	-40.0	22.6	0.00e+00	0	39	0	882900992	50	6460
2026-01-02 12:36:55.25	107.56	15.93	-39.0	-40.0	22.7	0.00e+00	0	39	0	884998144	50	6457
2026-01-02 12:36:56.26	107.76	15.89	-39.0	-40.0	22.7	0.00e+00	0	39	0	887095296	50	6440
2026-01-02 12:36:57.26	107.96	15.84	-39.2	-40.2	22.5	0.00e+00	0	39	0	889192448	50	6589
2026-01-02 12:36:58.27	108.16	15.79	-39.4	-40.5	22.2	0.00e+00	0	39	0	891289600	50	6800
2026-01-02 12:36:59.28	108.36	15.75	-39.6	-40.7	22.0	0.00e+00	0	39	0	892338176	50	6974
2026-01-02 12:37:00.29	108.56	15.70	-39.7	-40.8	22.0	0.00e+00	0	39	0	894435328	50	7030
2026-01-02 12:37:01.30	108.76	15.65	-39.8	-40.9	21.9	0.00e+00	0	39	0	896532480	52	6328
2026-01-02 12:37:02.31	108.96	15.60	-39.7	-40.7	22.0	0.00e+00	0	39	0	898629632	52	6243
2026-01-02 12:37:03.32	109.15	15.56	-39.6	-40.7	22.1	0.00e+00	0	39	0	900726784	52	6179
2026-01-02 12:37:04.33	109.35	15.51	-39.6	-40.7	22.1	0.00e+00	0	39	0	901775360	52	6182
2026-01-02 12:37:05.34	109.54	15.46	-39.6	-40.7	22.1	0.00e+00	0	39	0	903872512	52	6220
2026-01-02 12:37:06.35	109.74	15.41	-39.6	-40.7	22.1	0.00e+00	0	39	0	905969664	52	6192
2026-01-02 12:37:07.36	109.93	15.36	-39.7	-40.7	21.9	0.00e+00	0	39	0	908066816	52	6239
2026-01-02 12:37:08.37	110.13	15.31	-39.8	-40.8	22.0	0.00e+00	0	39	0	910163968	52	6296
2026-01-02 12:37:09.38	110.32	15.26	-39.9	-40.9	21.9	0.00e+00	0	39	0	911212544	52	6389
2026-01-02 12:37:10.39	110.52	15.21	-39.8	-40.8	22.0	0.00e+00	0	39	0	913309696	52	6310
2026-01-02 12:37:11.40	110.71	15.16	-39.7	-40.8	21.9	0.00e+00	0	39	0	915406848	52	6289
2026-01-02 12:37:12.41	110.90	15.12	-39.6	-40.7	22.1	0.00e+00	0	39	0	917504000	52	6216
2026-01-02 12:37:13.41	111.09	15.07	-39.6	-40.7	22.1	0.00e+00	0	39	0	919601152	52	6200
2026-01-02 12:37:14.42	111.28	15.02	-39.7	-40.8	21.9	0.00e+00	0	39	0	921698304	52	6259
2026-01-02 12:37:15.43	111.47	14.97	-39.6	-40.7	22.0	0.00e+00	0	39	0	922746880	52	6188
2026-01-02 12:37:16.44	111.66	14.91	-39.7	-40.8	21.9	0.00e+00	0	39	0	924844032	52	6286
2026-01-02 12:37:17.46	111.85	14.86	-39.4	-40.4	22.3	0.00e+00	0	39	0	926941184	52	6016
2026-01-02 12:37:18.46	112.03	14.81	-39.2	-40.3	22.4	0.00e+00	0	39	0	929038336	52	5903
2026-01-02 12:37:19.47	112.22	14.76	-39.1	-40.1	22.6	0.00e+00	0	39	0	931135488	52	5808
2026-01-02 12:37:20.48	112.41	14.71	-39.0	-40.0	22.7	0.00e+00	0	39	0	932184064	52	5710
2026-01-02 12:37:21.49	112.59	14.66	-38.7	-39.7	22.9	0.00e+00	0	39	0	934281216	50	6213
2026-01-02 12:37:22.50	112.78	14.61	-38.6	-39.5	23.0	0.00e+00	0	39	0	936378368	50	6092
2026-01-02 12:37:23.51	112.96	14.56	-38.7	-39.7	22.9	0.00e+00	0	39	0	938475520	50	6184
2026-01-02 12:37:24.52	113.15	14.50	-38.7	-39.7	22.8	0.00e+00	0	39	0	940572672	50	6210
2026-01-02 12:37:25.53	113.33	14.45	-38.7	-39.7	22.8	0.00e+00	0	39	0	941621248	50	6233
2026-01-02 12:37:26.54	113.52	14.40	-38.8	-39.8	22.6	0.00e+00	0	39	0	943718400	50	6261
2026-01-02 12:37:27.55	113.70	14.35	-38.9	-39.9	22.6	0.00e+00	0	39	0	945815552	50	6354
2026-01-02 12:37:28.56	113.88	14.29	-39.0	-40.0	22.5	0.00e+00	0	39	0	947912704	50	6421
2026-01-02 12:37:29.57	114.06	14.24	-39.1	-40.1	22.4	0.00e+00	0	39	0	950009856	50	6516
2026-01-02 12:37:30.58	114.24	14.19	-39.4	-40.4	22.2	0.00e+00	0	39	0	951058432	50	6769
2026-01-02 12:37:31.59	114.42	14.14	-39.6	-40.7	21.8	0.00e+00	0	39	0	953155584	50	6987
2026-01-02 12:37:32.60	114.60	14.08	-39.9	-41.0	21.6	0.00e+00	0	39	0	955252736	52	6448
2026-01-02 12:37:33.61	114.78	14.03	-40.1	-41.3	21.3	0.00e+00	0	39	0	957349888	52	6656
2026-01-02 12:37:34.62	114.96	13.98	-40.2	-41.4	21.4	0.00e+00	0	39	0	959447040	52	6754
2026-01-02 12:37:35.62	115.13	13.92	-40.3	-41.5	21.3	0.00e+00	0	39	0	960495616	52	6783
2026-01-02 12:37:36.63	115.31	13.87	-39.8	-41.0	21.7	0.00e+00	0	39	0	962592768	52	6419
2026-01-02 12:37:37.64	115.48	13.82	-40.0	-41.2	21.5	0.00e+00	0	39	0	964689920	52	6587
2026-01-02 12:37:38.65	115.66	13.76	-39.2	-40.2	22.4	0.00e+00	0	39	0	966787072	52	5896
2026-01-02 12:37:39.66	115.84	13.71	-39.0	-40.0	22.6	0.00e+00	0	39	0	968884224	52	5743
2026-01-02 12:37:40.67	116.01	13.65	-38.9	-40.0	22.7	0.00e+00	0	39	0	969932800	52	5698
2026-01-02 12:37:41.68	116.18	13.60	-38.6	-39.6	23.0	0.00e+00	0	39	0	972029952	50	6121
2026-01-02 12:37:42.69	116.36	13.55	-38.6	-39.6	22.9	0.00e+00	0	39	0	974127104	50	6109
2026-01-02 12:37:43.70	116.53	13.49	-38.8	-39.8	22.8	0.00e+00	0	39	0	976224256	50	6258
2026-01-02 12:37:44.71	116.70	13.44	-38.8	-39.8	22.7	0.00e+00	0	39	0	978321408	50	6290
2026-01-02 12:37:45.72	116.87	13.38	-39.0	-40.0	22.6	0.00e+00	0	39	0	979369984	50	6391
2026-01-02 12:37:46.73	117.04	13.33	-38.9	-39.9	22.5	0.00e+00	0	39	0	981467136	50	6354
2026-01-02 12:37:47.74	117.21	13.27	-38.9	-39.9	22.7	0.00e+00	0	39	0	983564288	50	6322
2026-01-02 12:37:48.75	117.38	13.22	-38.7	-39.7	22.8	0.00e+00	0	39	0	985661440	50	6233
2026-01-02 12:37:49.76	117.55	13.16	-38.7	-39.7	22.8	0.00e+00	0	39	0	987758592	50	6195
2026-01-02 12:37:50.77	117.72	13.11	-38.6	-39.6	22.9	0.00e+00	0	39	0	989855744	50	6146
2026-01-02 12:37:51.78	117.89	13.05	-38.7	-39.7	22.8	0.00e+00	0	39	0	990904320	50	6211
2026-01-02 12:37:52.79	118.05	13.00	-38.8	-39.7	22.7	0.00e+00	0	39	0	993001472	50	6243
2026-01-02 12:37:53.80	118.22	12.94	-38.9	-39.9	22.7	0.00e+00	0	39	0	995098624	50	6323
2026-01-02 12:37:54.81	118.38	12.88	-39.0	-40.0	22.6	0.00e+00	0	39	0	997195776	50	6403
2026-01-02 12:37:55.82	118.55	12.83	-39.1	-40.2	22.4	0.00e+00	0	39	0	999292928	50	6540
2026-01-02 12:37:56.83	118.71	12.77	-39.0	-40.0	22.6	0.00e+00	0	39	0	1000341504	50	6429
2026-01-02 12:37:57.84	118.88	12.72	-39.0	-40.0	22.5	0.00e+00	0	39	0	1002438656	50	6430
2026-01-02 12:37:58.85	119.04	12.66	-38.7	-39.7	22.9	0.00e+00	0	39	0	1004535808	50	6212
2026-01-02 12:37:59.86	119.20	12.60	-38.7	-39.7	22.8	0.00e+00	0	39	0	1006632960	50	6221
2026-01-02 12:38:00.87	119.37	12.55	-38.6	-39.5	23.0	0.00e+00	0	39	0	1007681536	50	6095
2026-01-02 12:38:01.88	119.53	12.49	-38.3	-39.2	23.2	0.00e+00	0	39	0	1009778688	50	5848
2026-01-02 12:38:02.88	119.69	12.44	-38.4	-39.3	23.1	0.00e+00	0	39	0	1011875840	50	5924
2026-01-02 12:38:03.90	119.85	12.38	-38.5	-39.4	23.0	0.00e+00	0	39	0	1013972992	50	6000
2026-01-02 12:38:04.90	120.01	12.32	-38.6	-39.6	22.9	0.00e+00	0	39	0	1016070144	50	6112
2026-01-02 12:38:05.91	120.17	12.27	-38.8	-39.8	22.6	0.00e+00	0	39	0	1018167296	50	6299
2026-01-02 12:38:06.92	120.33	12.21	-38.9	-39.9	22.5	0.00e+00	0	39	0	1019215872	50	6377
2026-01-02 12:38:07.93	120.48	12.15	-39.0	-40.0	22.4	0.00e+00	0	39	0	1021313024	50	6458
2026-01-02 12:38:08.94	120.64	12.10	-39.1	-40.1	22.4	0.00e+00	0	39	0	1023410176	50	6519
2026-01-02 12:38:09.95	120.80	12.04	-38.9	-39.9	22.7	0.00e+00	0	39	0	1025507328	50	6327
2026-01-02 12:38:10.96	120.95	11.98	-38.7	-39.7	22.8	0.00e+00	0	39	0	1027604480	50	6225
2026-01-02 12:38:11.97	121.11	11.93	-38.7	-39.6	22.8	0.00e+00	0	39	0	1028653056	50	6171
2026-01-02 12:38:12.98	121.26	11.87	-38.5	-39.4	23.1	0.00e+00	0	39	0	1030750208	50	6001
2026-01-02 12:38:13.99	121.42	11.81	-38.6	-39.5	23.0	0.00e+00	0	39	0	1032847360	50	6103
2026-01-02 12:38:15.00	121.57	11.76	-38.6	-39.6	22.9	0.00e+00	0	39	0	1034944512	50	6143
2026-01-02 12:38:16.01	121.73	11.70	-38.8	-39.7	22.7	0.00e+00	0	39	0	1037041664	50	6241
2026-01-02 12:38:17.02	121.88	11.64	-39.1	-40.1	22.3	0.00e+00	0	39	0	1038090240	50	6498
2026-01-02 12:38:18.03	122.03	11.58	-39.2	-40.3	22.2	0.00e+00	0	39	0	1040187392	50	6642
2026-01-02 12:38:19.04	122.18	11.53	-39.4	-40.4	22.0	0.00e+00	0	39	0	1042284544	50	6759
2026-01-02 12:38:20.05	122.33	11.47	-39.5	-40.6	21.9	0.00e+00	0	39	0	1044381696	50	6903
2026-01-02 12:38:21.06	122.48	11.41	-39.6	-40.7	22.0	0.00e+00	0	39	0	1046478848	50	6934
2026-01-02 12:38:22.07	122.63	11.36	-39.4	-40.5	22.1	0.00e+00	0	39	0	1047527424	50	6779
2026-01-02 12:38:23.08	122.78	11.30	-39.2	-40.3	22.2	0.00e+00	0	39	0	1049624576	50	6625
2026-01-02 12:38:24.09	122.93	11.24	-39.2	-40.3	22.2	0.00e+00	0	39	0	1051721728	50	6634
2026-01-02 12:38:25.10	123.08	11.18	-39.1	-40.2	22.3	0.00e+00	0	39	0	1053818880	50	6562
2026-01-02 12:38:26.11	123.23	11.13	-39.0	-40.0	22.5	0.00e+00	0	39	0	1055916032	50	6450
2026-01-02 12:38:27.12	123.37	11.07	-39.0	-40.0	22.5	0.00e+00	0	39	0	1056964608	50	6434
2026-01-02 12:38:28.13	123.52	11.01	-39.0	-40.0	22.5	0.00e+00	0	39	0	1059061760	50	6431
2026-01-02 12:38:29.14	123.67	10.95	-39.2	-40.2	22.3	0.00e+00	0	39	0	1061158912	50	6581
2026-01-02 12:38:30.15	123.81	10.90	-39.2	-40.3	22.2	0.00e+00	0	39	0	1063256064	50	6650
2026-01-02 12:38:31.16	123.96	10.84	-39.5	-40.5	22.0	0.00e+00	0	39	0	1065353216	50	6848
2026-01-02 12:38:32.17	124.10	10.78	-39.5	-40.5	21.9	0.00e+00	0	39	0	1067450368	50	6848
2026-01-02 12:38:33.18	124.25	10.72	-39.4	-40.4	22.1	0.00e+00	0	39	0	1068498944	50	6765
2026-01-02 12:38:34.19	124.39	10.66	-39.4	-40.5	22.0	0.00e+00	0	39	0	1070596096	50	6802
2026-01-02 12:38:35.20	124.53	10.61	-39.4	-40.5	22.1	0.00e+00	0	39	0	1072693248	50	6799
2026-01-02 12:38:36.21	124.67	10.55	-39.1	-40.1	22.4	0.00e+00	0	39	0	1074790400	50	6508
2026-01-02 12:38:37.22	124.82	10.49	-39.0	-40.0	22.4	0.00e+00	0	39	0	1075838976	50	6441
2026-01-02 12:38:38.23	124.96	10.43	-39.0	-40.0	22.4	0.00e+00	0	39	0	1077936128	50	6464
2026-01-02 12:38:39.23	125.10	10.38	-39.2	-40.2	22.2	0.00e+00	0	39	0	1080033280	50	6595
2026-01-02 12:38:40.24	125.24	10.32	-39.4	-40.4	22.1	0.00e+00	0	39	0	1082130432	50	6763
2026-01-02 12:38:41.25	125.38	10.26	-39.5	-40.6	22.0	0.00e+00	0	39	0	1084227584	50	6870
2026-01-02 12:38:42.26	125.51	10.20	-39.6	-40.7	21.7	0.00e+00	0	39	0	1086324736	50	6998
2026-01-02 12:38:43.27	125.65	10.15	-39.8	-41.0	21.6	0.00e+00	0	39	0	1087373312	52	6392
2026-01-02 12:38:44.28	125.79	10.09	-40.0	-41.2	21.4	0.00e+00	0	39	0	1089470464	52	6553
2026-01-02 12:38:45.29	125.93	10.03	-40.0	-41.2	21.4	0.00e+00	0	39	0	1091567616	52	6546
2026-01-02 12:38:46.29	126.06	9.97	-40.0	-41.1	21.4	0.00e+00	0	39	0	1093664768	52	6534
2026-01-02 12:38:47.30	126.20	9.91	-40.0	-41.2	21.3	0.00e+00	0	39	0	1095761920	52	6555
2026-01-02 12:38:48.31	126.34	9.86	-39.9	-41.0	21.5	0.00e+00	0	39	0	1096810496	52	6440
2026-01-02 12:38:49.32	126.47	9.80	-39.8	-41.0	21.6	0.00e+00	0	39	0	1098907648	52	6407
2026-01-02 12:38:50.33	126.61	9.74	-39.7	-40.9	21.5	0.00e+00	0	39	0	1101004800	52	6328
2026-01-02 12:38:51.34	126.74	9.68	-39.8	-40.9	21.5	0.00e+00	0	39	0	1103101952	52	6345
2026-01-02 12:38:52.35	126.87	9.62	-39.7	-40.8	21.5	0.00e+00	0	39	0	1105199104	52	6281
2026-01-02 12:38:53.36	127.01	9.57	-39.8	-40.9	21.2	0.00e+00	0	39	0	1106247680	52	6371
2026-01-02 12:38:54.37	127.14	9.51	-39.9	-41.0	21.1	0.00e+00	0	39	0	1108344832	52	6442
2026-01-02 12:38:55.38	127.27	9.45	-40.0	-41.1	21.2	0.00e+00	0	39	0	1110441984	52	6529
2026-01-02 12:38:56.39	127.40	9.39	-40.0	-41.2	21.3	0.00e+00	0	39	0	1112539136	52	6578
2026-01-02 12:38:57.40	127.53	9.34	-40.1	-41.3	21.1	0.00e+00	0	39	0	1114636288	52	6689
2026-01-02 12:38:58.41	127.67	9.28	-40.2	-41.4	21.1	0.00e+00	0	39	0	1115684864	52	6743
2026-01-02 12:38:59.42	127.80	9.22	-40.2	-41.4	21.1	0.00e+00	0	39	0	1117782016	52	6758
2026-01-02 12:39:00.43	127.93	9.16	-40.3	-41.5	21.0	0.00e+00	0	39	0	1119879168	52	6805
2026-01-02 12:39:01.44	128.05	9.10	-40.2	-41.4	21.1	0.00e+00	0	39	0	1121976320	52	6730
2026-01-02 12:39:02.45	128.18	9.05	-40.2	-41.4	21.1	0.00e+00	0	39	0	1124073472	52	6730
2026-01-02 12:39:03.46	128.31	8.99	-40.3	-41.5	21.0	0.00e+00	0	39	0	1125122048	52	6789
2026-01-02 12:39:04.46	128.44	8.93	-40.1	-41.3	21.2	0.00e+00	0	39	0	1127219200	52	6659
2026-01-02 12:39:05.48	128.57	8.87	-40.2	-41.4	21.0	0.00e+00	0	39	0	1129316352	52	6748
2026-01-02 12:39:06.48	128.69	8.82	-40.2	-41.4	21.0	0.00e+00	0	39	0	1131413504	52	6751
2026-01-02 12:39:07.49	128.82	8.76	-40.3	-41.6	20.8	0.00e+00	0	39	0	1133510656	52	6862
2026-01-02 12:39:08.50	128.94	8.70	-40.5	-41.8	20.7	0.00e+00	0	39	0	1134559232	52	7019
2026-01-02 12:39:09.51	129.07	8.64	-40.6	-41.9	20.6	0.00e+00	0	39	0	1136656384	52	7108
2026-01-02 12:39:10.52	129.19	8.58	-40.6	-41.9	20.5	0.00e+00	0	39	0	1138753536	52	7125
2026-01-02 12:39:11.53	129.32	8.53	-40.7	-42.1	20.4	0.00e+00	0	39	0	1140850688	54	6477
2026-01-02 12:39:12.54	129.44	8.47	-40.8	-42.1	20.2	0.00e+00	0	39	0	1142947840	54	6524
2026-01-02 12:39:13.55	129.57	8.41	-40.9	-42.2	20.3	0.00e+00	0	39	0	1143996416	54	6609
2026-01-02 12:39:14.55	129.69	8.35	-40.7	-42.1	20.4	0.00e+00	0	39	0	1146093568	54	6477
2026-01-02 12:39:15.56	129.81	8.30	-40.6	-41.9	20.5	0.00e+00	0	39	0	1148190720	54	6369
2026-01-02 12:39:16.57	129.93	8.24	-40.5	-41.8	20.6	0.00e+00	0	39	0	1150287872	54	6304
2026-01-02 12:39:17.58	130.05	8.18	-40.6	-41.9	20.4	0.00e+00	0	39	0	1152385024	54	6334
2026-01-02 12:39:18.59	130.18	8.12	-40.4	-41.7	20.5	0.00e+00	0	39	0	1154482176	54	6210
2026-01-02 12:39:19.60	130.30	8.07	-40.2	-41.4	20.8	0.00e+00	0	39	0	1155530752	54	5997
2026-01-02 12:39:20.61	130.42	8.01	-40.3	-41.6	20.7	0.00e+00	0	39	0	1157627904	54	6116
2026-01-02 12:39:21.62	130.54	7.95	-40.1	-41.3	20.9	0.00e+00	0	39	0	1159725056	54	5961
2026-01-02 12:39:22.63	130.66	7.89	-40.1	-41.3	20.9	0.00e+00	0	39	0	1161822208	54	5953
2026-01-02 12:39:23.64	130.77	7.84	-40.2	-41.5	20.8	0.00e+00	0	39	0	1163919360	54	6057
2026-01-02 12:39:24.65	130.89	7.78	-40.2	-41.5	20.9	0.00e+00	0	39	0	1164967936	54	6039
2026-01-02 12:39:25.66	131.01	7.72	-40.5	-41.7	20.6	0.00e+00	0	39	0	1167065088	54	6244
2026-01-02 12:39:26.67	131.13	7.66	-40.5	-41.8	20.5	0.00e+00	0	39	0	1169162240	54	6304
2026-01-02 12:39:27.68	131.25	7.61	-40.3	-41.6	20.8	0.00e+00	0	39	0	1171259392	54	6120
2026-01-02 12:39:28.69	131.36	7.55	-40.5	-41.8	20.5	0.00e+00	0	39	0	1173356544	54	6286
2026-01-02 12:39:29.70	131.48	7.49	-40.6	-41.9	20.5	0.00e+00	0	39	0	1174405120	54	6340
2026-01-02 12:39:30.71	131.59	7.43	-40.5	-41.8	20.6	0.00e+00	0	39	0	1176502272	54	6247
2026-01-02 12:39:31.72	131.71	7.38	-40.5	-41.8	20.6	0.00e+00	0	39	0	1178599424	54	6254
2026-01-02 12:39:32.73	131.82	7.32	-40.5	-41.8	20.5	0.00e+00	0	39	0	1180696576	54	6299
2026-01-02 12:39:33.74	131.94	7.26	-40.5	-41.7	20.6	0.00e+00	0	39	0	1182793728	54	6243
2026-01-02 12:39:34.75	132.05	7.21	-40.6	-41.9	20.4	0.00e+00	0	39	0	1183842304	54	6341
2026-01-02 12:39:35.75	132.17	7.15	-40.7	-42.0	20.3	0.00e+00	0	39	0	1185939456	54	6455
2026-01-02 12:39:36.77	132.28	7.09	-40.8	-42.2	20.1	0.00e+00	0	39	0	1188036608	54	6546
2026-01-02 12:39:37.77	132.39	7.04	-41.1	-42.5	19.8	0.00e+00	0	39	0	1190133760	54	6800
2026-01-02 12:39:38.78	132.50	6.98	-41.1	-42.5	19.9	0.00e+00	0	39	0	1192230912	54	6804
2026-01-02 12:39:39.79	132.62	6.92	-41.4	-42.9	19.5	0.00e+00	0	39	0	1193279488	54	7089
2026-01-02 12:39:40.80	132.73	6.86	-41.4	-42.9	19.5	0.00e+00	0	39	0	1195376640	54	7093
2026-01-02 12:39:41.81	132.84	6.81	-41.3	-42.8	19.5	0.00e+00	0	39	0	1197473792	54	7057
2026-01-02 12:39:42.82	132.95	6.75	-41.6	-43.2	19.2	0.00e+00	0	39	0	1199570944	54	7348
2026-01-02 12:39:43.83	133.06	6.69	-41.5	-43.0	19.4	0.00e+00	0	39	0	1201668096	54	7232
2026-01-02 12:39:44.84	133.17	6.64	-41.4	-42.9	19.4	0.00e+00	0	39	0	1202716672	54	7132
2026-01-02 12:39:45.85	133.28	6.58	-41.3	-42.9	19.4	0.00e+00	0	39	0	1204813824	54	7090
2026-01-02 12:39:46.86	133.39	6.52	-41.3	-42.8	19.4	0.00e+00	0	39	0	1206910976	54	7031
2026-01-02 12:39:47.87	133.50	6.47	-41.2	-42.7	19.5	0.00e+00	0	39	0	1209008128	54	6970
2026-01-02 12:39:48.88	133.60	6.41	-41.3	-42.7	19.5	0.00e+00	0	39	0	1211105280	54	6988
2026-01-02 12:39:49.89	133.71	6.35	-41.3	-42.7	19.4	0.00e+00	0	39	0	1212153856	54	6992
2026-01-02 12:39:50.90	133.82	6.30	-41.3	-42.8	19.4	0.00e+00	0	39	0	1214251008	54	7071
