passes_logs/2026/01/02/R4.6S_Anadyr/R4.6S_Anadyr__20260102_000154_SUOMI_NPP_rec.log

#Pass ID: 20260102_000154_SUOMI NPP
#Satellite: SUOMI NPP
#Configuration: NPP
#almurnet v.1.7.20251203
#Start time: 2026-01-02 00:01:54

#Version: 2.2.20231116
#Station: R4.6S_Anadyr
#Location: 177.4865 lon 64.73178 lat
#TLE: 1 37849U 11061A   26001.07732418  .00000182  00000+0  10735-3 0  9990
#TLE: 2 37849  98.7795 303.2470 0002580  87.2016 272.9455 14.19520779734739

#Time	Az	El	Level	Level2	SNR	BER	BlckErr	Temp	State	Recorded	gain1	gain2
2026-01-02 00:01:54.58	149.93	0.03	-49.3	-61.8	3.5	1.52e+00	0	37	0	0	60	43333
2026-01-02 00:01:55.55	149.93	0.09	-49.3	-64.5	3.6	1.51e+00	0	38	104	0	60	60665
2026-01-02 00:01:56.53	149.93	0.15	-49.3	-64.5	3.6	1.51e+00	0	38	104	0	60	60818
2026-01-02 00:01:57.51	149.92	0.21	-49.3	-64.5	3.6	1.51e+00	0	38	104	0	60	60775
2026-01-02 00:01:58.49	149.92	0.27	-49.3	-64.5	3.6	1.51e+00	0	38	104	0	60	61028
2026-01-02 00:01:59.46	149.91	0.33	-49.4	-64.6	3.6	1.51e+00	0	38	104	0	60	61172
2026-01-02 00:02:00.44	149.91	0.39	-49.4	-64.6	3.6	1.51e+00	0	38	104	0	60	61658
2026-01-02 00:02:01.42	149.91	0.45	-49.4	-64.6	3.6	1.51e+00	0	38	104	0	60	61302
2026-01-02 00:02:02.39	149.90	0.51	-49.3	-64.6	3.6	1.51e+00	0	38	104	0	60	61068
2026-01-02 00:02:03.37	149.90	0.57	-49.3	-64.5	3.6	1.51e+00	0	38	104	0	60	60712
2026-01-02 00:02:04.35	149.90	0.63	-49.1	-64.4	3.6	1.51e+00	0	38	104	0	60	59938
2026-01-02 00:02:05.33	149.89	0.69	-49.1	-64.3	3.6	1.51e+00	0	38	104	0	60	59329
2026-01-02 00:02:06.31	149.89	0.75	-48.9	-64.1	3.6	1.51e+00	0	38	104	0	60	58067
2026-01-02 00:02:07.28	149.88	0.81	-48.7	-63.8	3.6	1.51e+00	0	38	104	0	60	56075
2026-01-02 00:02:08.26	149.88	0.87	-48.5	-63.7	3.6	1.51e+00	0	38	104	0	60	55422
2026-01-02 00:02:09.23	149.88	0.93	-48.3	-63.5	3.6	1.51e+00	0	38	104	0	60	53997
2026-01-02 00:02:10.21	149.87	0.99	-47.9	-63.1	3.6	1.51e+00	0	38	104	0	60	51487
2026-01-02 00:02:11.19	149.87	1.05	-47.6	-62.9	3.6	1.51e+00	0	38	104	0	60	50341
2026-01-02 00:02:12.16	149.86	1.11	-47.6	-62.9	3.6	1.51e+00	0	38	104	0	60	50222
2026-01-02 00:02:13.14	149.86	1.17	-47.6	-62.9	3.6	1.51e+00	0	38	104	0	60	50314
2026-01-02 00:02:14.12	149.86	1.23	-47.6	-62.9	3.6	1.51e+00	0	38	104	0	60	50411
2026-01-02 00:02:15.09	149.85	1.29	-47.6	-62.9	3.6	1.51e+00	0	38	104	0	60	50465
2026-01-02 00:02:16.07	149.85	1.35	-47.6	-62.9	3.6	1.51e+00	0	38	104	0	60	50422
2026-01-02 00:02:17.05	149.84	1.42	-47.6	-62.9	3.6	1.51e+00	0	39	104	0	60	50292
2026-01-02 00:02:18.02	149.84	1.48	-47.6	-62.9	3.6	1.51e+00	0	38	104	0	60	50188
2026-01-02 00:02:19.00	149.84	1.54	-47.6	-62.9	3.6	1.51e+00	0	38	104	0	60	50214
2026-01-02 00:02:19.98	149.83	1.60	-47.6	-62.9	3.6	1.51e+00	0	39	104	0	60	50276
2026-01-02 00:02:20.95	149.83	1.66	-47.6	-62.8	3.6	1.51e+00	0	38	104	0	60	50175
2026-01-02 00:02:21.93	149.82	1.73	-47.6	-62.8	3.6	1.51e+00	0	39	104	0	60	50012
2026-01-02 00:02:22.91	149.82	1.79	-47.6	-62.8	3.6	1.51e+00	0	39	104	0	60	49804
2026-01-02 00:02:23.89	149.81	1.85	-47.6	-62.8	3.6	1.51e+00	0	38	104	0	60	49668
2026-01-02 00:02:24.86	149.81	1.91	-47.6	-62.7	3.6	1.51e+00	0	39	104	0	60	49280
2026-01-02 00:02:25.84	149.80	1.97	-47.6	-62.6	3.6	1.51e+00	0	38	104	0	60	49013
2026-01-02 00:02:26.82	149.80	2.04	-47.6	-62.6	3.6	1.51e+00	0	39	104	0	60	48798
2026-01-02 00:02:27.80	149.80	2.10	-47.6	-62.6	3.6	1.51e+00	0	38	104	0	60	48985
2026-01-02 00:02:28.77	149.79	2.16	-47.6	-62.6	3.6	1.51e+00	0	38	104	0	60	49002
2026-01-02 00:02:29.75	149.79	2.23	-47.6	-62.7	3.6	1.51e+00	0	39	104	0	60	49233
2026-01-02 00:02:30.72	149.78	2.29	-47.6	-62.7	3.6	1.51e+00	0	38	104	0	60	49427
2026-01-02 00:02:31.70	149.78	2.35	-47.6	-62.7	3.6	1.51e+00	0	38	104	0	60	49469
2026-01-02 00:02:32.68	149.77	2.42	-47.6	-62.7	3.6	1.51e+00	0	39	104	0	60	49547
2026-01-02 00:02:33.66	149.77	2.48	-47.6	-62.7	3.6	1.51e+00	0	39	104	0	60	49162
2026-01-02 00:02:34.64	149.76	2.55	-47.6	-62.7	3.6	1.51e+00	0	39	104	0	60	49317
2026-01-02 00:02:35.62	149.76	2.61	-47.6	-62.6	3.6	1.51e+00	0	39	104	0	60	48602
2026-01-02 00:02:36.59	149.75	2.67	-47.6	-62.6	3.6	1.51e+00	0	39	104	0	60	48582
2026-01-02 00:02:37.57	149.75	2.74	-47.6	-62.6	3.6	1.51e+00	0	39	104	0	60	48641
2026-01-02 00:02:38.54	149.74	2.80	-47.6	-62.7	3.6	1.51e+00	0	39	104	0	60	49169
2026-01-02 00:02:39.52	149.74	2.87	-47.6	-62.8	3.6	1.51e+00	0	39	104	0	60	49642
2026-01-02 00:02:40.49	149.73	2.93	-47.6	-62.8	3.6	1.51e+00	0	39	104	0	60	49984
2026-01-02 00:02:41.47	149.73	3.00	-47.6	-62.5	3.6	1.51e+00	0	39	104	0	60	48241
2026-01-02 00:02:42.45	149.72	3.06	-47.5	-61.5	3.6	1.51e+00	0	39	104	0	60	43149
2026-01-02 00:02:43.43	149.72	3.13	-47.5	-60.1	3.7	1.50e+00	0	39	104	0	60	36565
2026-01-02 00:02:44.40	149.71	3.19	-47.3	-57.0	4.7	1.01e+00	41	39	0	0	60	25616
2026-01-02 00:02:45.38	149.71	3.26	-47.1	-54.8	5.9	4.30e-01	92	39	0	2097152	60	19945
2026-01-02 00:02:46.35	149.70	3.32	-46.7	-53.2	7.9	1.35e-01	0	39	0	3145728	60	16459
2026-01-02 00:02:47.33	149.70	3.39	-46.3	-51.9	9.4	4.04e-02	92	39	0	5242880	60	14194
2026-01-02 00:02:48.31	149.69	3.46	-45.9	-50.6	10.9	4.55e-03	0	39	0	7340032	60	12275
2026-01-02 00:02:49.28	149.69	3.52	-45.5	-49.7	12.0	4.16e-04	91	39	0	9437184	60	10980
2026-01-02 00:02:50.26	149.68	3.59	-45.1	-48.8	12.8	6.40e-05	0	39	0	10485760	60	9935
2026-01-02 00:02:51.24	149.68	3.65	-44.8	-48.2	13.5	1.22e-05	93	39	0	12582912	60	9325
2026-01-02 00:02:52.22	149.67	3.72	-45.3	-49.3	11.6	1.52e-05	41	39	0	14680064	60	10510
2026-01-02 00:02:53.19	149.67	3.79	-47.7	-60.3	3.8	1.49e+00	0	39	104	14680064	60	37455
2026-01-02 00:02:54.17	149.66	3.85	-42.0	-43.8	18.0	4.27e-04	91	39	0	15728640	58	6294
2026-01-02 00:02:55.15	149.66	3.92	-47.6	-62.5	3.6	3.03e-01	0	39	104	16777216	60	48455
2026-01-02 00:02:56.13	149.65	3.99	-46.8	-53.2	9.1	1.16e+00	92	39	104	16777216	60	16560
2026-01-02 00:02:57.11	149.64	4.06	-46.6	-53.0	8.3	1.82e-02	0	39	0	16777216	60	16055
2026-01-02 00:02:58.08	149.64	4.12	-42.1	-43.9	17.9	7.00e-07	58	39	0	18874368	58	6359
2026-01-02 00:02:59.06	149.63	4.19	-41.7	-43.3	18.6	0.00e+00	0	39	0	20971520	56	6666
2026-01-02 00:03:00.04	149.63	4.26	-41.5	-43.1	18.8	0.00e+00	54	39	0	22020096	56	6487
2026-01-02 00:03:01.02	149.62	4.33	-41.4	-42.9	18.9	0.00e+00	0	39	0	24117248	56	6387
2026-01-02 00:03:02.00	149.62	4.40	-41.3	-42.8	19.0	0.00e+00	91	39	0	26214400	56	6312
2026-01-02 00:03:02.97	149.61	4.47	-41.3	-42.9	19.0	0.00e+00	0	39	0	28311552	56	6322
2026-01-02 00:03:03.95	149.60	4.53	-41.5	-43.0	19.0	0.00e+00	46	39	0	30408704	56	6424
2026-01-02 00:03:04.92	149.60	4.60	-41.3	-42.8	19.1	0.00e+00	90	39	0	31457280	56	6301
2026-01-02 00:03:05.90	149.59	4.67	-41.4	-42.9	19.0	0.00e+00	0	39	0	33554432	56	6375
2026-01-02 00:03:06.88	149.59	4.74	-41.1	-42.6	19.3	0.00e+00	91	39	0	35651584	56	6157
2026-01-02 00:03:07.86	149.58	4.81	-41.4	-42.9	19.0	0.00e+00	0	39	0	36700160	56	6376
2026-01-02 00:03:08.84	149.57	4.88	-41.3	-42.8	19.2	0.00e+00	82	39	0	38797312	56	6287
2026-01-02 00:03:09.82	149.57	4.95	-41.5	-43.1	19.0	0.00e+00	0	39	0	40894464	56	6488
2026-01-02 00:03:10.79	149.56	5.02	-41.4	-43.0	19.1	0.00e+00	90	39	0	42991616	56	6407
2026-01-02 00:03:11.77	149.56	5.09	-41.5	-43.1	18.8	0.00e+00	0	39	0	44040192	56	6505
2026-01-02 00:03:12.75	149.55	5.16	-41.2	-42.6	19.3	0.00e+00	89	39	0	46137344	56	6157
2026-01-02 00:03:13.73	149.54	5.23	-41.3	-42.7	19.3	0.00e+00	77	39	0	48234496	56	6243
2026-01-02 00:03:14.70	149.54	5.30	-41.4	-42.9	19.1	0.00e+00	0	39	0	50331648	56	6390
2026-01-02 00:03:15.68	149.53	5.37	-41.3	-42.7	19.4	0.00e+00	91	39	0	51380224	56	6231
2026-01-02 00:03:16.65	149.52	5.44	-41.4	-42.9	19.2	0.00e+00	0	39	0	53477376	56	6371
2026-01-02 00:03:17.62	149.52	5.51	-41.3	-42.8	19.3	0.00e+00	64	39	0	55574528	56	6283
2026-01-02 00:03:18.60	149.51	5.59	-41.4	-42.9	19.1	0.00e+00	0	39	0	57671680	56	6356
2026-01-02 00:03:19.57	149.50	5.66	-41.4	-42.9	19.2	0.00e+00	93	39	0	58720256	56	6338
2026-01-02 00:03:20.55	149.50	5.73	-41.1	-42.5	19.6	0.00e+00	0	39	0	60817408	56	6063
2026-01-02 00:03:21.53	149.49	5.80	-41.0	-42.4	19.8	0.00e+00	93	39	0	62914560	56	5995
2026-01-02 00:03:22.50	149.48	5.87	-41.0	-42.4	19.7	0.00e+00	59	39	0	65011712	56	6023
2026-01-02 00:03:23.48	149.48	5.95	-40.8	-42.1	20.0	0.00e+00	90	39	0	66060288	56	5806
2026-01-02 00:03:24.46	149.47	6.02	-40.7	-42.0	20.1	0.00e+00	91	39	0	68157440	56	5735
2026-01-02 00:03:25.44	149.46	6.09	-40.9	-42.3	19.8	0.00e+00	0	39	0	70254592	54	6632
2026-01-02 00:03:26.42	149.46	6.17	-40.8	-42.2	19.8	0.00e+00	91	39	0	72351744	54	6572
2026-01-02 00:03:27.40	149.45	6.24	-40.8	-42.2	19.8	0.00e+00	0	39	0	73400320	54	6566
2026-01-02 00:03:28.37	149.44	6.31	-41.0	-42.4	19.7	0.00e+00	92	39	0	75497472	54	6712
2026-01-02 00:03:29.35	149.44	6.39	-40.7	-42.1	20.0	0.00e+00	0	39	0	77594624	54	6484
2026-01-02 00:03:30.32	149.43	6.46	-40.9	-42.2	19.8	0.00e+00	91	39	0	79691776	54	6614
2026-01-02 00:03:31.30	149.42	6.53	-40.7	-42.0	20.0	0.00e+00	0	39	0	80740352	54	6440
2026-01-02 00:03:32.28	149.42	6.61	-40.8	-42.1	20.0	0.00e+00	93	39	0	82837504	54	6515
2026-01-02 00:03:33.25	149.41	6.68	-40.8	-42.2	19.9	0.00e+00	90	39	0	84934656	54	6572
2026-01-02 00:03:34.23	149.40	6.76	-40.7	-42.0	20.0	0.00e+00	82	39	0	87031808	54	6442
2026-01-02 00:03:35.21	149.39	6.83	-40.6	-42.0	20.2	0.00e+00	93	39	0	88080384	54	6395
2026-01-02 00:03:36.18	149.39	6.91	-40.8	-42.1	20.0	0.00e+00	0	39	0	90177536	54	6511
2026-01-02 00:03:37.16	149.38	6.98	-40.5	-41.8	20.2	0.00e+00	90	39	0	92274688	54	6296
2026-01-02 00:03:38.14	149.37	7.06	-40.4	-41.7	20.5	0.00e+00	0	39	0	94371840	54	6174
2026-01-02 00:03:39.12	149.36	7.13	-40.5	-41.8	20.3	0.00e+00	90	39	0	95420416	54	6250
2026-01-02 00:03:40.10	149.36	7.21	-40.3	-41.6	20.5	0.00e+00	0	39	0	97517568	54	6122
2026-01-02 00:03:41.08	149.35	7.29	-40.4	-41.7	20.4	0.00e+00	71	39	0	99614720	54	6198
2026-01-02 00:03:42.05	149.34	7.36	-40.1	-41.3	20.7	0.00e+00	0	39	0	101711872	54	5941
2026-01-02 00:03:43.03	149.33	7.44	-40.2	-41.4	20.6	0.00e+00	92	39	0	102760448	54	6003
2026-01-02 00:03:44.00	149.32	7.52	-40.3	-41.6	20.5	0.00e+00	91	39	0	104857600	54	6134
2026-01-02 00:03:44.98	149.32	7.59	-40.2	-41.4	20.7	0.00e+00	0	39	0	106954752	54	6000
2026-01-02 00:03:45.96	149.31	7.67	-40.2	-41.5	20.5	0.00e+00	91	39	0	109051904	54	6063
2026-01-02 00:03:46.93	149.30	7.75	-40.4	-41.7	20.5	0.00e+00	0	39	0	110100480	54	6203
2026-01-02 00:03:47.91	149.29	7.83	-40.0	-41.3	20.8	0.00e+00	91	39	0	112197632	54	5900
2026-01-02 00:03:48.89	149.28	7.91	-39.8	-41.0	21.0	0.00e+00	0	39	0	114294784	54	5711
2026-01-02 00:03:49.87	149.28	7.98	-40.1	-41.3	20.8	0.00e+00	78	39	0	116391936	54	5901
2026-01-02 00:03:50.84	149.27	8.06	-39.9	-41.1	21.0	0.00e+00	0	39	0	117440512	54	5793
2026-01-02 00:03:51.82	149.26	8.14	-40.3	-41.6	20.6	0.00e+00	92	39	0	119537664	54	6108
2026-01-02 00:03:52.80	149.25	8.22	-40.1	-41.3	20.7	0.00e+00	66	39	0	121634816	54	5922
2026-01-02 00:03:53.78	149.24	8.30	-39.9	-41.0	21.0	0.00e+00	92	39	0	123731968	54	5761
2026-01-02 00:03:54.76	149.23	8.38	-40.0	-41.2	20.9	0.00e+00	92	39	0	124780544	54	5835
2026-01-02 00:03:55.73	149.23	8.46	-39.7	-40.9	21.2	0.00e+00	0	39	0	126877696	52	6354
2026-01-02 00:03:56.71	149.22	8.54	-39.9	-41.0	21.1	0.00e+00	62	39	0	128974848	52	6453
2026-01-02 00:03:57.69	149.21	8.62	-39.9	-41.1	20.9	0.00e+00	0	39	0	131072000	52	6507
2026-01-02 00:03:58.66	149.20	8.70	-39.7	-40.8	21.2	0.00e+00	92	39	0	132120576	52	6287
2026-01-02 00:03:59.64	149.19	8.78	-39.8	-41.0	21.1	0.00e+00	0	39	0	134217728	52	6439
2026-01-02 00:04:00.62	149.18	8.86	-39.7	-40.9	21.2	0.00e+00	94	39	0	136314880	52	6346
2026-01-02 00:04:01.59	149.17	8.95	-39.6	-40.7	21.4	0.00e+00	0	39	0	138412032	52	6231
2026-01-02 00:04:02.57	149.16	9.03	-39.9	-41.0	21.1	0.00e+00	90	39	0	139460608	52	6455
2026-01-02 00:04:03.55	149.15	9.11	-39.7	-40.9	21.2	0.00e+00	91	39	0	141557760	52	6356
2026-01-02 00:04:04.52	149.15	9.19	-39.7	-40.9	21.3	0.00e+00	7	39	0	143654912	52	6323
2026-01-02 00:04:05.50	149.14	9.27	-39.8	-40.9	21.2	0.00e+00	92	39	0	145752064	52	6373
2026-01-02 00:04:06.48	149.13	9.36	-39.6	-40.8	21.4	0.00e+00	0	39	0	146800640	52	6252
2026-01-02 00:04:07.46	149.12	9.44	-39.7	-40.8	21.4	0.00e+00	92	39	0	148897792	52	6297
2026-01-02 00:04:08.43	149.11	9.52	-39.6	-40.7	21.3	0.00e+00	0	39	0	150994944	52	6204
2026-01-02 00:04:09.41	149.10	9.61	-39.6	-40.8	21.3	0.00e+00	71	39	0	153092096	52	6264
2026-01-02 00:04:10.39	149.09	9.69	-39.8	-41.0	21.2	0.00e+00	0	39	0	154140672	52	6395
2026-01-02 00:04:11.36	149.08	9.77	-39.7	-40.8	21.4	0.00e+00	91	39	0	156237824	52	6270
2026-01-02 00:04:12.34	149.07	9.86	-39.5	-40.6	21.6	0.00e+00	62	39	0	158334976	52	6113
2026-01-02 00:04:13.32	149.06	9.94	-39.7	-40.8	21.4	0.00e+00	90	39	0	160432128	52	6273
2026-01-02 00:04:14.29	149.05	10.03	-39.5	-40.6	21.5	0.00e+00	92	39	0	161480704	52	6145
2026-01-02 00:04:15.27	149.04	10.11	-39.5	-40.6	21.7	0.00e+00	0	39	0	163577856	52	6122
2026-01-02 00:04:16.25	149.03	10.20	-39.4	-40.5	21.7	0.00e+00	91	39	0	165675008	52	6041
2026-01-02 00:04:17.23	149.02	10.29	-39.3	-40.4	21.7	0.00e+00	0	39	0	166723584	52	6000
2026-01-02 00:04:18.21	149.01	10.37	-39.3	-40.4	21.7	0.00e+00	93	39	0	168820736	52	5971
2026-01-02 00:04:19.18	149.00	10.46	-39.2	-40.3	21.8	0.00e+00	0	39	0	170917888	52	5908
2026-01-02 00:04:20.15	148.99	10.55	-39.2	-40.3	21.8	0.00e+00	95	39	0	173015040	52	5926
2026-01-02 00:04:21.13	148.98	10.63	-39.3	-40.4	21.7	0.00e+00	0	39	0	174063616	52	6007
2026-01-02 00:04:22.11	148.97	10.72	-39.3	-40.4	21.7	0.00e+00	91	39	0	176160768	52	5977
2026-01-02 00:04:23.09	148.96	10.81	-39.3	-40.4	21.8	0.00e+00	90	39	0	178257920	52	5992
2026-01-02 00:04:24.06	148.95	10.90	-39.4	-40.5	21.6	0.00e+00	0	39	0	180355072	52	6056
2026-01-02 00:04:25.04	148.94	10.99	-39.2	-40.3	21.9	0.00e+00	91	39	0	181403648	52	5921
2026-01-02 00:04:26.01	148.93	11.07	-39.3	-40.4	21.8	0.00e+00	0	39	0	183500800	52	5984
2026-01-02 00:04:26.99	148.91	11.16	-39.2	-40.3	21.8	0.00e+00	56	39	0	185597952	52	5948
2026-01-02 00:04:27.96	148.90	11.25	-39.2	-40.2	21.9	0.00e+00	0	39	0	187695104	52	5882
2026-01-02 00:04:28.94	148.89	11.34	-39.2	-40.3	21.8	0.00e+00	91	39	0	188743680	52	5927
2026-01-02 00:04:29.92	148.88	11.43	-39.4	-40.5	21.7	0.00e+00	0	39	0	190840832	52	6079
2026-01-02 00:04:30.89	148.87	11.52	-39.3	-40.4	21.8	0.00e+00	92	39	0	192937984	52	6015
2026-01-02 00:04:31.87	148.86	11.61	-39.6	-40.7	21.5	0.00e+00	0	39	0	195035136	52	6242
2026-01-02 00:04:32.85	148.85	11.70	-39.3	-40.4	21.8	0.00e+00	92	39	0	196083712	52	5974
2026-01-02 00:04:33.82	148.84	11.79	-39.4	-40.5	21.7	0.00e+00	93	39	0	198180864	52	6098
2026-01-02 00:04:34.80	148.82	11.89	-39.3	-40.4	21.8	0.00e+00	33	39	0	200278016	52	6027
2026-01-02 00:04:35.77	148.81	11.98	-39.2	-40.3	21.9	0.00e+00	93	39	0	202375168	52	5913
2026-01-02 00:04:36.75	148.80	12.07	-39.2	-40.3	21.9	0.00e+00	0	39	0	203423744	52	5953
2026-01-02 00:04:37.73	148.79	12.16	-39.2	-40.3	21.9	0.00e+00	91	39	0	205520896	52	5933
2026-01-02 00:04:38.71	148.78	12.26	-39.3	-40.4	21.9	0.00e+00	0	39	0	207618048	52	5969
2026-01-02 00:04:39.68	148.76	12.35	-39.2	-40.3	21.8	0.00e+00	91	39	0	209715200	52	5903
2026-01-02 00:04:40.66	148.75	12.44	-39.2	-40.3	22.0	0.00e+00	0	39	0	210763776	52	5904
2026-01-02 00:04:41.63	148.74	12.54	-39.2	-40.3	21.9	0.00e+00	91	39	0	212860928	52	5901
2026-01-02 00:04:42.61	148.73	12.63	-39.3	-40.4	21.9	0.00e+00	0	39	0	214958080	52	5994
2026-01-02 00:04:43.59	148.71	12.73	-39.1	-40.2	22.1	0.00e+00	92	39	0	217055232	52	5879
2026-01-02 00:04:44.56	148.70	12.82	-39.1	-40.1	22.1	0.00e+00	92	39	0	218103808	52	5814
2026-01-02 00:04:45.54	148.69	12.92	-39.1	-40.1	22.2	0.00e+00	33	39	0	220200960	52	5824
2026-01-02 00:04:46.52	148.68	13.01	-39.1	-40.1	22.1	0.00e+00	64	39	0	222298112	52	5807
2026-01-02 00:04:47.49	148.66	13.11	-39.1	-40.1	22.2	0.00e+00	0	39	0	224395264	52	5811
2026-01-02 00:04:48.47	148.65	13.21	-39.0	-40.1	22.1	0.00e+00	70	39	0	225443840	52	5799
2026-01-02 00:04:49.45	148.64	13.30	-39.2	-40.3	21.9	0.00e+00	0	39	0	227540992	52	5960
2026-01-02 00:04:50.42	148.62	13.40	-39.2	-40.3	21.8	0.00e+00	92	39	0	229638144	52	5937
2026-01-02 00:04:51.40	148.61	13.50	-39.2	-40.2	21.9	0.00e+00	9	39	0	231735296	52	5888
2026-01-02 00:04:52.38	148.60	13.60	-39.2	-40.3	22.0	0.00e+00	92	39	0	232783872	52	5943
2026-01-02 00:04:53.35	148.58	13.70	-39.3	-40.4	21.9	0.00e+00	91	39	0	234881024	52	5975
2026-01-02 00:04:54.33	148.57	13.80	-39.1	-40.2	22.0	0.00e+00	67	39	0	236978176	52	5886
2026-01-02 00:04:55.31	148.56	13.90	-39.1	-40.3	22.0	0.00e+00	93	39	0	239075328	52	5897
2026-01-02 00:04:56.29	148.54	14.00	-39.2	-40.2	22.1	0.00e+00	0	39	0	240123904	52	5891
2026-01-02 00:04:57.26	148.53	14.10	-39.3	-40.4	22.0	0.00e+00	85	39	0	242221056	52	5986
2026-01-02 00:04:58.24	148.51	14.20	-39.2	-40.3	22.0	0.00e+00	0	39	0	244318208	52	5903
2026-01-02 00:04:59.21	148.50	14.30	-39.2	-40.3	22.0	0.00e+00	91	39	0	246415360	52	5950
2026-01-02 00:05:00.20	148.49	14.40	-39.2	-40.3	22.0	0.00e+00	0	39	0	247463936	52	5962
2026-01-02 00:05:01.17	148.47	14.50	-39.2	-40.3	22.0	0.00e+00	91	39	0	249561088	52	5935
2026-01-02 00:05:02.15	148.46	14.60	-39.1	-40.2	22.0	0.00e+00	8	39	0	251658240	52	5830
2026-01-02 00:05:03.13	148.44	14.71	-39.1	-40.2	22.1	0.00e+00	90	39	0	253755392	52	5855
2026-01-02 00:05:04.11	148.43	14.81	-39.1	-40.1	22.1	0.00e+00	92	39	0	254803968	52	5824
2026-01-02 00:05:05.08	148.41	14.91	-38.9	-39.9	22.3	0.00e+00	0	39	0	256901120	52	5695
2026-01-02 00:05:06.06	148.40	15.02	-38.8	-39.8	22.4	0.00e+00	91	39	0	258998272	52	5605
2026-01-02 00:05:07.04	148.38	15.12	-38.6	-39.6	22.5	0.00e+00	0	39	0	261095424	50	6168
2026-01-02 00:05:08.03	148.37	15.23	-38.7	-39.8	22.5	0.00e+00	89	39	0	262144000	50	6259
2026-01-02 00:05:09.00	148.35	15.34	-38.7	-39.7	22.2	0.00e+00	0	39	0	264241152	50	6236
2026-01-02 00:05:09.98	148.33	15.44	-38.9	-39.9	22.3	0.00e+00	91	39	0	266338304	50	6364
2026-01-02 00:05:10.96	148.32	15.55	-38.7	-39.7	22.3	0.00e+00	0	39	0	268435456	50	6231
2026-01-02 00:05:11.94	148.30	15.66	-38.8	-39.9	22.3	0.00e+00	92	39	0	269484032	50	6322
2026-01-02 00:05:12.92	148.29	15.76	-38.8	-39.8	22.4	0.00e+00	66	39	0	271581184	50	6305
2026-01-02 00:05:13.89	148.27	15.87	-38.5	-39.5	22.2	0.00e+00	0	39	0	273678336	50	6055
2026-01-02 00:05:14.87	148.25	15.98	-38.4	-39.4	22.7	0.00e+00	92	40	0	275775488	50	5999
2026-01-02 00:05:15.85	148.24	16.09	-38.4	-39.4	22.5	0.00e+00	0	39	0	276824064	50	6016
2026-01-02 00:05:16.82	148.22	16.20	-38.3	-39.3	22.9	0.00e+00	68	39	0	278921216	50	5944
2026-01-02 00:05:17.80	148.20	16.31	-38.3	-39.3	22.7	0.00e+00	0	39	0	281018368	50	5933
2026-01-02 00:05:18.78	148.19	16.42	-38.2	-39.2	22.9	0.00e+00	79	39	0	283115520	50	5842
2026-01-02 00:05:19.76	148.17	16.53	-38.4	-39.4	22.7	0.00e+00	0	40	0	284164096	50	5972
2026-01-02 00:05:20.73	148.15	16.64	-38.2	-39.2	22.9	0.00e+00	90	39	0	286261248	50	5862
2026-01-02 00:05:21.71	148.14	16.75	-38.2	-39.2	22.9	0.00e+00	66	39	0	288358400	50	5835
2026-01-02 00:05:22.68	148.12	16.86	-38.3	-39.2	22.8	0.00e+00	91	39	0	290455552	50	5894
2026-01-02 00:05:23.66	148.10	16.98	-38.2	-39.1	23.0	0.00e+00	92	39	0	291504128	50	5825
2026-01-02 00:05:24.64	148.08	17.09	-38.2	-39.1	23.0	0.00e+00	0	39	0	293601280	50	5811
2026-01-02 00:05:25.61	148.07	17.20	-38.2	-39.2	22.9	0.00e+00	92	39	0	295698432	50	5859
2026-01-02 00:05:26.59	148.05	17.32	-38.2	-39.1	23.0	0.00e+00	0	39	0	297795584	50	5813
2026-01-02 00:05:27.57	148.03	17.44	-38.2	-39.2	23.0	0.00e+00	90	40	0	298844160	50	5837
2026-01-02 00:05:28.54	148.01	17.55	-38.2	-39.2	22.9	0.00e+00	0	39	0	300941312	50	5831
2026-01-02 00:05:29.52	147.99	17.67	-38.3	-39.2	23.0	0.00e+00	93	39	0	303038464	50	5891
2026-01-02 00:05:30.50	147.97	17.78	-38.4	-39.4	22.8	0.00e+00	0	39	0	305135616	50	6024
2026-01-02 00:05:31.48	147.95	17.90	-38.4	-39.4	22.8	0.00e+00	91	39	0	306184192	50	5975
2026-01-02 00:05:32.46	147.93	18.02	-38.2	-39.2	22.9	0.00e+00	64	39	0	308281344	50	5860
2026-01-02 00:05:33.44	147.92	18.14	-38.3	-39.2	23.0	0.00e+00	51	39	0	310378496	50	5880
2026-01-02 00:05:34.42	147.90	18.26	-38.3	-39.3	23.0	0.00e+00	92	39	0	312475648	50	5899
2026-01-02 00:05:35.40	147.88	18.38	-38.2	-39.1	23.1	0.00e+00	0	39	0	313524224	50	5812
2026-01-02 00:05:36.38	147.86	18.50	-38.2	-39.1	23.0	0.00e+00	93	39	0	315621376	50	5812
2026-01-02 00:05:37.35	147.84	18.62	-38.0	-38.9	23.2	0.00e+00	0	39	0	317718528	50	5686
2026-01-02 00:05:38.34	147.82	18.74	-38.2	-39.1	22.9	0.00e+00	90	39	0	319815680	50	5807
2026-01-02 00:05:39.31	147.80	18.86	-37.9	-38.8	23.3	0.00e+00	0	39	0	320864256	50	5627
2026-01-02 00:05:40.29	147.78	18.98	-37.9	-38.8	23.3	0.00e+00	88	39	0	322961408	50	5615
2026-01-02 00:05:41.27	147.75	19.11	-37.9	-38.8	23.3	0.00e+00	0	39	0	325058560	48	6267
2026-01-02 00:05:42.25	147.73	19.23	-37.8	-38.7	23.4	0.00e+00	91	39	0	327155712	48	6203
2026-01-02 00:05:43.23	147.71	19.36	-37.8	-38.8	23.4	0.00e+00	93	39	0	328204288	48	6254
2026-01-02 00:05:44.21	147.69	19.48	-38.0	-38.9	23.2	0.00e+00	0	39	0	330301440	48	6377
2026-01-02 00:05:45.18	147.67	19.61	-38.1	-39.0	23.1	0.00e+00	91	40	0	332398592	48	6464
2026-01-02 00:05:46.16	147.65	19.73	-38.0	-38.9	23.1	0.00e+00	0	39	0	334495744	48	6379
2026-01-02 00:05:47.14	147.63	19.86	-38.2	-39.1	23.1	0.00e+00	90	39	0	335544320	48	6511
2026-01-02 00:05:48.12	147.60	19.99	-38.0	-39.0	23.3	0.00e+00	0	40	0	337641472	48	6394
2026-01-02 00:05:49.09	147.58	20.11	-38.1	-39.1	23.0	0.00e+00	91	40	0	339738624	48	6471
2026-01-02 00:05:50.07	147.56	20.24	-38.2	-39.2	23.2	0.00e+00	0	40	0	341835776	48	6570
2026-01-02 00:05:51.05	147.54	20.37	-38.2	-39.1	23.1	0.00e+00	90	40	0	342884352	48	6532
2026-01-02 00:05:52.03	147.51	20.50	-38.2	-39.2	22.9	0.00e+00	30	40	0	344981504	48	6552
2026-01-02 00:05:53.01	147.49	20.63	-38.1	-39.0	23.2	0.00e+00	86	40	0	347078656	48	6433
2026-01-02 00:05:53.99	147.47	20.77	-37.9	-38.8	23.4	0.00e+00	92	40	0	349175808	48	6273
2026-01-02 00:05:54.96	147.44	20.90	-37.8	-38.7	23.4	0.00e+00	0	40	0	350224384	48	6223
2026-01-02 00:05:55.94	147.42	21.03	-37.8	-38.7	23.4	0.00e+00	77	40	0	352321536	48	6188
2026-01-02 00:05:56.92	147.39	21.16	-37.8	-38.7	23.4	0.00e+00	0	40	0	354418688	48	6193
2026-01-02 00:05:57.90	147.37	21.30	-37.9	-38.8	23.2	0.00e+00	93	40	0	356515840	48	6314
2026-01-02 00:05:58.88	147.34	21.43	-37.7	-38.6	23.5	0.00e+00	0	40	0	357564416	48	6130
2026-01-02 00:05:59.86	147.32	21.57	-37.8	-38.7	23.5	0.00e+00	92	40	0	359661568	48	6220
2026-01-02 00:06:00.84	147.29	21.71	-37.7	-38.6	23.5	0.00e+00	0	40	0	361758720	48	6143
2026-01-02 00:06:01.82	147.27	21.85	-37.6	-38.5	23.5	0.00e+00	91	40	0	363855872	48	6072
2026-01-02 00:06:02.79	147.24	21.98	-37.7	-38.6	23.5	0.00e+00	91	40	0	364904448	48	6156
2026-01-02 00:06:03.77	147.22	22.12	-37.7	-38.6	23.5	0.00e+00	0	40	0	367001600	48	6134
2026-01-02 00:06:04.75	147.19	22.26	-37.7	-38.6	23.5	0.00e+00	93	40	0	369098752	48	6141
2026-01-02 00:06:05.73	147.16	22.40	-37.7	-38.6	23.6	0.00e+00	0	40	0	371195904	48	6105
2026-01-02 00:06:06.71	147.14	22.54	-37.7	-38.6	23.5	0.00e+00	63	40	0	372244480	48	6129
2026-01-02 00:06:07.69	147.11	22.68	-37.9	-38.8	23.3	0.00e+00	0	40	0	374341632	48	6260
2026-01-02 00:06:08.67	147.08	22.83	-37.9	-38.8	23.3	0.00e+00	92	40	0	376438784	48	6293
2026-01-02 00:06:09.65	147.06	22.97	-37.5	-38.4	23.7	0.00e+00	0	40	0	378535936	48	5982
2026-01-02 00:06:10.62	147.03	23.11	-37.7	-38.5	23.5	0.00e+00	91	40	0	379584512	48	6075
2026-01-02 00:06:11.60	147.00	23.26	-37.5	-38.3	23.7	0.00e+00	67	40	0	381681664	48	5954
2026-01-02 00:06:12.59	146.97	23.41	-37.3	-38.1	23.9	0.00e+00	90	40	0	383778816	48	5802
2026-01-02 00:06:13.58	146.94	23.56	-37.3	-38.1	23.9	0.00e+00	93	40	0	385875968	48	5803
2026-01-02 00:06:14.58	146.91	23.71	-37.1	-37.9	24.1	0.00e+00	0	40	0	386924544	48	5670
2026-01-02 00:06:15.58	146.88	23.86	-37.2	-38.0	24.0	0.00e+00	92	40	0	389021696	48	5733
2026-01-02 00:06:16.57	146.85	24.01	-37.0	-37.8	24.1	0.00e+00	0	40	0	391118848	48	5625
2026-01-02 00:06:17.57	146.82	24.16	-37.0	-37.8	24.1	0.00e+00	90	40	0	393216000	48	5583
2026-01-02 00:06:18.56	146.79	24.31	-37.2	-38.1	23.9	0.00e+00	0	40	0	394264576	48	5771
2026-01-02 00:06:19.56	146.76	24.47	-37.1	-37.9	24.0	0.00e+00	93	40	0	396361728	48	5690
2026-01-02 00:06:20.55	146.73	24.62	-37.3	-38.1	23.9	0.00e+00	61	40	0	398458880	48	5797
2026-01-02 00:06:21.55	146.70	24.78	-37.4	-38.3	23.8	0.00e+00	0	40	0	400556032	48	5915
2026-01-02 00:06:22.55	146.66	24.94	-37.5	-38.4	23.8	0.00e+00	92	40	0	402653184	48	5985
2026-01-02 00:06:23.54	146.63	25.10	-37.8	-38.7	23.5	0.00e+00	0	40	0	403701760	48	6220
2026-01-02 00:06:24.54	146.60	25.26	-37.9	-38.8	23.4	0.00e+00	92	40	0	405798912	48	6269
2026-01-02 00:06:25.54	146.56	25.42	-37.9	-38.8	23.4	0.00e+00	0	40	0	407896064	48	6299
2026-01-02 00:06:26.54	146.53	25.58	-38.1	-39.1	23.2	0.00e+00	91	40	0	409993216	48	6472
2026-01-02 00:06:27.53	146.50	25.74	-38.0	-38.9	23.4	0.00e+00	0	40	0	411041792	48	6339
2026-01-02 00:06:28.52	146.46	25.90	-37.9	-38.7	23.5	0.00e+00	92	40	0	413138944	48	6230
2026-01-02 00:06:29.53	146.43	26.07	-37.9	-38.9	23.4	0.00e+00	92	40	0	415236096	48	6322
2026-01-02 00:06:30.54	146.39	26.23	-37.6	-38.5	23.7	0.00e+00	0	40	0	417333248	48	6051
2026-01-02 00:06:31.55	146.35	26.40	-37.8	-38.7	23.6	0.00e+00	67	40	0	419430400	48	6176
2026-01-02 00:06:32.56	146.32	26.57	-38.0	-38.8	23.4	0.00e+00	0	39	0	421527552	48	6303
2026-01-02 00:06:33.57	146.28	26.74	-38.1	-39.0	23.2	0.00e+00	92	40	0	422576128	48	6425
2026-01-02 00:06:34.56	146.24	26.91	-38.1	-39.0	23.3	0.00e+00	0	40	0	424673280	48	6419
2026-01-02 00:06:35.56	146.21	27.08	-38.2	-39.1	23.2	0.00e+00	91	40	0	426770432	48	6536
2026-01-02 00:06:36.56	146.17	27.25	-38.3	-39.2	23.2	0.00e+00	66	40	0	428867584	48	6544
2026-01-02 00:06:37.56	146.13	27.43	-38.5	-39.4	23.0	0.00e+00	0	40	0	429916160	48	6735
2026-01-02 00:06:38.56	146.09	27.60	-38.6	-39.5	22.8	0.00e+00	92	40	0	432013312	48	6842
2026-01-02 00:06:39.56	146.05	27.78	-38.5	-39.4	23.0	0.00e+00	0	40	0	434110464	48	6731
2026-01-02 00:06:40.55	146.01	27.95	-38.4	-39.4	23.0	0.00e+00	91	40	0	436207616	48	6701
2026-01-02 00:06:41.55	145.97	28.13	-38.3	-39.2	22.8	0.00e+00	0	40	0	438304768	48	6581
2026-01-02 00:06:42.54	145.93	28.30	-38.2	-39.1	23.2	0.00e+00	82	40	0	439353344	48	6520
2026-01-02 00:06:43.54	145.89	28.48	-38.1	-39.0	23.3	0.00e+00	0	40	0	441450496	48	6392
2026-01-02 00:06:44.53	145.85	28.66	-38.0	-38.9	23.4	0.00e+00	90	40	0	443547648	48	6355
2026-01-02 00:06:45.53	145.81	28.85	-38.2	-39.1	23.2	0.00e+00	92	40	0	445644800	48	6519
2026-01-02 00:06:46.53	145.76	29.03	-38.2	-39.1	23.2	0.00e+00	0	40	0	446693376	48	6531
2026-01-02 00:06:47.52	145.72	29.21	-38.2	-39.2	23.0	0.00e+00	67	40	0	448790528	48	6543
2026-01-02 00:06:48.52	145.68	29.40	-38.4	-39.3	22.9	0.00e+00	0	40	0	450887680	48	6648
2026-01-02 00:06:49.51	145.63	29.58	-38.7	-39.7	22.7	0.00e+00	91	39	0	452984832	50	6199
2026-01-02 00:06:50.51	145.59	29.77	-38.8	-39.8	22.8	0.00e+00	0	40	0	455081984	50	6266
2026-01-02 00:06:51.51	145.54	29.96	-39.5	-40.5	22.2	0.00e+00	92	40	0	456130560	50	6809
2026-01-02 00:06:52.51	145.50	30.15	-39.5	-40.5	22.2	0.00e+00	0	40	0	458227712	50	6830
2026-01-02 00:06:53.50	145.45	30.34	-39.4	-40.5	22.1	0.00e+00	92	40	0	460324864	50	6775
2026-01-02 00:06:54.49	145.40	30.53	-39.6	-40.6	22.0	0.00e+00	90	39	0	462422016	50	6890
2026-01-02 00:06:55.49	145.36	30.72	-39.4	-40.4	22.4	0.00e+00	0	40	0	463470592	50	6736
2026-01-02 00:06:56.49	145.31	30.92	-39.4	-40.4	22.3	0.00e+00	72	40	0	465567744	50	6739
2026-01-02 00:06:57.49	145.26	31.11	-39.3	-40.4	22.1	0.00e+00	33	40	0	467664896	50	6693
2026-01-02 00:06:58.49	145.21	31.31	-39.1	-40.0	22.5	0.00e+00	91	40	0	469762048	50	6454
2026-01-02 00:06:59.50	145.16	31.51	-39.3	-40.3	22.3	0.00e+00	9	40	0	471859200	50	6664
2026-01-02 00:07:00.51	145.11	31.72	-39.6	-40.6	21.9	0.00e+00	91	40	0	473956352	50	6918
2026-01-02 00:07:01.53	145.05	31.92	-40.0	-41.0	21.6	0.00e+00	92	40	0	475004928	52	6448
2026-01-02 00:07:02.54	145.00	32.13	-40.3	-41.4	21.4	0.00e+00	0	40	0	477102080	52	6723
2026-01-02 00:07:03.55	144.95	32.33	-40.6	-41.8	21.1	0.00e+00	76	40	0	479199232	54	6251
2026-01-02 00:07:04.56	144.89	32.54	-40.9	-42.2	20.3	0.00e+00	0	40	0	481296384	54	6544
2026-01-02 00:07:05.56	144.84	32.75	-41.2	-42.5	20.3	0.00e+00	71	40	0	483393536	54	6820
2026-01-02 00:07:06.58	144.78	32.96	-40.4	-41.6	21.2	0.00e+00	0	40	0	484442112	54	6125
2026-01-02 00:07:07.59	144.73	33.18	-40.8	-42.0	21.0	0.00e+00	91	40	0	486539264	54	6463
2026-01-02 00:07:08.59	144.67	33.39	-41.0	-42.3	20.4	0.00e+00	92	40	0	488636416	54	6630
2026-01-02 00:07:09.61	144.61	33.61	-41.1	-42.3	20.4	0.00e+00	0	40	0	490733568	54	6687
2026-01-02 00:07:10.62	144.55	33.82	-41.2	-42.5	20.4	0.00e+00	92	40	0	492830720	54	6800
2026-01-02 00:07:11.63	144.49	34.04	-41.4	-42.7	20.3	0.00e+00	0	40	0	493879296	54	6947
2026-01-02 00:07:12.64	144.43	34.26	-41.9	-43.4	19.6	0.00e+00	92	40	0	495976448	56	6715
2026-01-02 00:07:13.65	144.37	34.48	-41.9	-43.3	19.7	0.00e+00	0	40	0	498073600	56	6665
2026-01-02 00:07:14.65	144.31	34.70	-41.6	-43.0	20.0	0.00e+00	92	40	0	500170752	56	6411
2026-01-02 00:07:15.66	144.24	34.93	-41.4	-42.7	20.4	0.00e+00	92	40	0	502267904	56	6201
2026-01-02 00:07:16.67	144.18	35.15	-41.1	-42.3	20.6	0.00e+00	0	40	0	503316480	56	5961
2026-01-02 00:07:17.68	144.11	35.38	-40.6	-41.8	21.1	0.00e+00	92	40	0	505413632	54	6269
2026-01-02 00:07:18.69	144.05	35.61	-40.1	-41.2	21.6	0.00e+00	0	40	0	507510784	54	5891
2026-01-02 00:07:19.70	143.98	35.84	-40.2	-41.4	21.5	0.00e+00	92	40	0	509607936	54	6014
2026-01-02 00:07:20.71	143.91	36.07	-40.0	-41.2	21.6	0.00e+00	0	40	0	511705088	52	6559
2026-01-02 00:07:21.72	143.84	36.31	-40.3	-41.5	21.5	0.00e+00	90	40	0	512753664	52	6816
2026-01-02 00:07:22.73	143.77	36.54	-40.3	-41.5	21.3	0.00e+00	0	40	0	514850816	52	6790
2026-01-02 00:07:23.74	143.70	36.78	-40.8	-42.1	20.8	0.00e+00	52	40	0	516947968	54	6505
2026-01-02 00:07:24.75	143.63	37.02	-40.5	-41.7	20.9	0.00e+00	92	39	0	519045120	54	6245
2026-01-02 00:07:25.76	143.55	37.26	-40.3	-41.5	21.5	0.00e+00	0	40	0	521142272	54	6082
2026-01-02 00:07:26.77	143.48	37.50	-39.9	-41.0	21.9	0.00e+00	90	40	0	522190848	54	5718
2026-01-02 00:07:27.78	143.40	37.75	-39.7	-40.8	22.0	0.00e+00	0	40	0	524288000	52	6259
2026-01-02 00:07:28.79	143.33	37.99	-39.2	-40.2	22.4	0.00e+00	92	40	0	526385152	52	5848
2026-01-02 00:07:29.80	143.25	38.24	-38.6	-39.6	22.9	0.00e+00	0	40	0	528482304	50	6120
2026-01-02 00:07:30.81	143.17	38.49	-38.8	-39.7	22.9	0.00e+00	67	40	0	530579456	50	6224
2026-01-02 00:07:31.82	143.09	38.74	-39.1	-40.1	22.4	0.00e+00	92	40	0	531628032	50	6526
2026-01-02 00:07:32.83	143.00	39.00	-39.3	-40.3	22.4	0.00e+00	0	40	0	533725184	50	6658
2026-01-02 00:07:33.84	142.92	39.25	-40.2	-41.4	21.5	0.00e+00	72	40	0	535822336	52	6737
2026-01-02 00:07:34.85	142.83	39.51	-40.4	-41.6	21.3	0.00e+00	0	40	0	537919488	52	6897
2026-01-02 00:07:35.86	142.75	39.77	-41.2	-42.6	20.2	0.00e+00	91	40	0	540016640	54	6867
2026-01-02 00:07:36.86	142.66	40.02	-41.0	-42.4	20.7	0.00e+00	0	40	0	542113792	54	6706
2026-01-02 00:07:37.87	142.57	40.29	-41.0	-42.3	20.7	0.00e+00	92	40	0	543162368	54	6636
2026-01-02 00:07:38.88	142.48	40.55	-40.6	-41.8	21.2	0.00e+00	73	40	0	545259520	54	6294
2026-01-02 00:07:39.89	142.39	40.82	-40.5	-41.7	21.2	0.00e+00	0	40	0	547356672	54	6184
2026-01-02 00:07:40.90	142.29	41.08	-40.2	-41.3	21.6	0.00e+00	71	40	0	549453824	54	5910
2026-01-02 00:07:41.91	142.20	41.35	-40.6	-41.9	21.0	0.00e+00	0	40	0	551550976	54	6328
2026-01-02 00:07:42.92	142.10	41.63	-41.3	-42.6	20.6	0.00e+00	90	40	0	552599552	54	6910
2026-01-02 00:07:43.93	142.00	41.90	-40.7	-41.9	20.8	0.00e+00	0	40	0	554696704	54	6387
2026-01-02 00:07:44.94	141.90	42.17	-41.0	-42.3	20.6	0.00e+00	92	40	0	556793856	54	6646
2026-01-02 00:07:45.95	141.80	42.45	-41.3	-42.7	20.3	0.00e+00	92	40	0	558891008	54	6935
2026-01-02 00:07:46.96	141.69	42.73	-40.9	-42.1	20.8	0.00e+00	0	40	0	560988160	54	6527
2026-01-02 00:07:47.97	141.59	43.01	-41.0	-42.4	20.6	0.00e+00	70	40	0	562036736	54	6707
2026-01-02 00:07:48.98	141.48	43.30	-41.6	-43.1	20.1	0.00e+00	0	40	0	564133888	54	7280
2026-01-02 00:07:49.99	141.37	43.58	-41.3	-42.7	20.2	0.00e+00	72	40	0	566231040	54	7004
2026-01-02 00:07:51.00	141.26	43.87	-41.4	-42.8	20.3	0.00e+00	0	40	0	568328192	54	7057
2026-01-02 00:07:52.01	141.14	44.16	-41.0	-42.3	20.5	0.00e+00	91	40	0	570425344	56	5945
2026-01-02 00:07:53.02	141.03	44.45	-41.1	-42.4	20.7	0.00e+00	54	40	0	571473920	56	6000
2026-01-02 00:07:54.03	140.91	44.74	-41.0	-42.3	21.0	0.00e+00	14	40	0	573571072	56	5955
2026-01-02 00:07:55.04	140.79	45.04	-40.5	-41.7	21.3	0.00e+00	90	40	0	575668224	54	6237
2026-01-02 00:07:56.05	140.66	45.34	-39.6	-40.6	22.2	0.00e+00	0	40	0	577765376	52	6134
2026-01-02 00:07:57.06	140.54	45.64	-39.2	-40.1	22.6	0.00e+00	91	40	0	579862528	52	5813
2026-01-02 00:07:58.07	140.41	45.94	-39.0	-39.9	22.7	0.00e+00	0	40	0	580911104	50	6362
2026-01-02 00:07:59.08	140.28	46.24	-39.2	-40.2	22.5	0.00e+00	91	40	0	583008256	50	6572
2026-01-02 00:08:00.09	140.14	46.55	-40.3	-41.5	21.7	0.00e+00	33	40	0	585105408	52	6799
2026-01-02 00:08:01.09	140.01	46.85	-41.1	-42.5	20.1	0.00e+00	33	40	0	587202560	54	6806
2026-01-02 00:08:02.10	139.87	47.16	-41.7	-43.2	20.0	0.00e+00	92	40	0	589299712	54	7401
2026-01-02 00:08:03.11	139.73	47.47	-41.4	-42.8	20.4	0.00e+00	0	40	0	590348288	56	6289
2026-01-02 00:08:04.12	139.58	47.79	-40.7	-41.8	21.3	0.00e+00	92	40	0	592445440	56	5627
2026-01-02 00:08:05.14	139.43	48.11	-40.1	-41.2	21.4	0.00e+00	33	40	0	594542592	54	5848
2026-01-02 00:08:06.14	139.29	48.42	-40.1	-41.1	21.7	0.00e+00	92	40	0	596639744	54	5824
2026-01-02 00:08:07.16	139.13	48.75	-39.8	-40.8	22.1	0.00e+00	0	40	0	598736896	52	6296
2026-01-02 00:08:08.16	138.97	49.07	-39.3	-40.3	22.4	0.00e+00	29	40	0	599785472	52	5960
2026-01-02 00:08:09.18	138.81	49.40	-38.9	-39.9	22.8	0.00e+00	92	40	0	601882624	52	5646
2026-01-02 00:08:10.18	138.65	49.72	-38.7	-39.5	23.2	0.00e+00	0	40	0	603979776	50	6099
2026-01-02 00:08:11.19	138.48	50.05	-38.0	-38.9	23.6	0.00e+00	74	40	0	606076928	50	5676
2026-01-02 00:08:12.21	138.31	50.38	-37.6	-38.4	23.9	0.00e+00	0	40	0	608174080	48	5991
2026-01-02 00:08:13.22	138.13	50.72	-37.0	-37.8	24.3	0.00e+00	92	40	0	610271232	48	5583
2026-01-02 00:08:14.23	137.95	51.05	-37.5	-38.4	23.9	0.00e+00	0	40	0	611319808	48	5990
2026-01-02 00:08:15.24	137.77	51.39	-37.7	-38.5	23.8	0.00e+00	92	40	0	613416960	48	6083
2026-01-02 00:08:16.24	137.58	51.72	-37.6	-38.5	23.8	0.00e+00	90	40	0	615514112	48	6051
2026-01-02 00:08:17.25	137.39	52.07	-37.9	-38.8	23.6	0.00e+00	0	40	0	617611264	48	6276
2026-01-02 00:08:18.27	137.19	52.41	-38.1	-39.1	23.4	0.00e+00	66	40	0	619708416	48	6486
2026-01-02 00:08:19.28	136.99	52.76	-39.2	-40.3	22.3	0.00e+00	0	40	0	620756992	50	6664
2026-01-02 00:08:20.28	136.78	53.10	-39.9	-41.2	21.8	0.00e+00	92	40	0	622854144	52	6554
2026-01-02 00:08:21.29	136.57	53.45	-39.4	-40.6	22.2	0.00e+00	0	40	0	624951296	52	6130
2026-01-02 00:08:22.30	136.35	53.81	-38.8	-39.8	22.9	0.00e+00	92	40	0	627048448	52	5586
2026-01-02 00:08:23.30	136.13	54.16	-37.9	-38.7	23.6	0.00e+00	92	40	0	629145600	50	5561
2026-01-02 00:08:24.31	135.90	54.51	-37.8	-38.7	23.7	0.00e+00	0	40	0	630194176	48	6187
2026-01-02 00:08:25.32	135.67	54.87	-37.9	-38.8	23.5	0.00e+00	92	40	0	632291328	48	6308
2026-01-02 00:08:26.33	135.43	55.23	-38.9	-40.0	22.7	0.00e+00	0	40	0	634388480	48	7183
2026-01-02 00:08:27.34	135.18	55.59	-38.5	-39.5	23.1	0.00e+00	78	40	0	636485632	50	6055
2026-01-02 00:08:28.35	134.93	55.95	-37.8	-38.7	23.6	0.00e+00	0	40	0	638582784	48	6232
2026-01-02 00:08:29.36	134.67	56.32	-37.0	-37.9	24.1	0.00e+00	92	40	0	639631360	48	5640
2026-01-02 00:08:30.37	134.41	56.69	-37.5	-38.4	23.8	0.00e+00	71	40	0	641728512	48	5981
2026-01-02 00:08:31.38	134.13	57.06	-37.8	-38.7	23.6	0.00e+00	7	40	0	643825664	48	6242
2026-01-02 00:08:32.39	133.85	57.43	-38.6	-39.5	23.0	0.00e+00	91	40	0	645922816	48	6843
2026-01-02 00:08:33.40	133.56	57.80	-38.2	-39.1	23.3	0.00e+00	0	40	0	648019968	48	6475
2026-01-02 00:08:34.40	133.27	58.17	-38.2	-39.1	23.1	0.00e+00	90	40	0	649068544	48	6480
2026-01-02 00:08:35.41	132.96	58.54	-39.0	-40.0	22.5	0.00e+00	0	40	0	651165696	50	6447
2026-01-02 00:08:36.42	132.64	58.92	-39.5	-40.6	22.1	0.00e+00	92	40	0	653262848	50	6867
2026-01-02 00:08:37.43	132.32	59.30	-38.9	-39.9	22.8	0.00e+00	58	40	0	655360000	50	6359
2026-01-02 00:08:38.44	131.99	59.68	-38.5	-39.4	23.1	0.00e+00	92	40	0	657457152	50	6027
2026-01-02 00:08:39.45	131.64	60.06	-38.7	-39.8	23.0	0.00e+00	92	40	0	658505728	50	6252
2026-01-02 00:08:40.46	131.29	60.44	-38.8	-39.8	22.8	0.00e+00	0	40	0	660602880	50	6289
2026-01-02 00:08:41.47	130.92	60.83	-38.0	-38.9	23.5	0.00e+00	92	40	0	662700032	50	5662
2026-01-02 00:08:42.48	130.54	61.21	-37.4	-38.2	24.0	0.00e+00	0	40	0	664797184	48	5891
2026-01-02 00:08:43.49	130.16	61.60	-37.2	-38.1	24.0	0.00e+00	92	40	0	666894336	48	5802
2026-01-02 00:08:44.50	129.75	61.99	-37.4	-38.3	23.9	0.00e+00	0	40	0	667942912	48	5939
2026-01-02 00:08:45.50	129.34	62.37	-37.3	-38.1	24.1	0.00e+00	68	40	0	670040064	48	5820
2026-01-02 00:08:46.51	128.92	62.76	-37.3	-38.1	24.1	0.00e+00	92	40	0	672137216	48	5814
2026-01-02 00:08:47.52	128.48	63.15	-37.1	-38.0	24.1	0.00e+00	0	40	0	674234368	48	5707
2026-01-02 00:08:48.53	128.02	63.54	-37.6	-38.5	23.9	0.00e+00	69	40	0	676331520	48	6034
2026-01-02 00:08:49.54	127.55	63.94	-37.6	-38.4	23.8	0.00e+00	0	40	0	677380096	48	6022
2026-01-02 00:08:50.55	127.06	64.33	-37.3	-38.2	24.1	0.00e+00	92	40	0	679477248	48	5844
2026-01-02 00:08:51.56	126.55	64.72	-37.0	-37.9	24.1	0.00e+00	0	40	0	681574400	48	5634
2026-01-02 00:08:52.57	126.03	65.11	-37.3	-38.1	24.0	0.00e+00	28	40	0	683671552	48	5815
2026-01-02 00:08:53.58	125.48	65.50	-37.5	-38.4	23.9	0.00e+00	90	40	0	685768704	48	5979
2026-01-02 00:08:54.58	124.93	65.89	-38.1	-39.0	23.3	0.00e+00	0	40	0	686817280	48	6454
2026-01-02 00:08:55.59	124.35	66.28	-38.7	-39.8	22.6	0.00e+00	71	40	0	688914432	48	7036
2026-01-02 00:08:56.60	123.74	66.68	-39.2	-40.2	22.5	0.00e+00	0	40	0	691011584	50	6572
2026-01-02 00:08:57.61	123.11	67.07	-39.6	-40.7	22.0	0.00e+00	71	40	0	693108736	50	6975
2026-01-02 00:08:58.62	122.46	67.46	-39.1	-40.0	22.3	0.00e+00	0	40	0	695205888	50	6464
2026-01-02 00:08:59.63	121.79	67.85	-39.4	-40.4	22.2	0.00e+00	92	40	0	696254464	50	6719
2026-01-02 00:09:00.64	121.08	68.23	-39.5	-40.5	22.1	0.00e+00	72	40	0	698351616	50	6846
2026-01-02 00:09:01.65	120.35	68.62	-39.3	-40.2	22.3	0.00e+00	0	40	0	700448768	52	5896
2026-01-02 00:09:02.66	119.59	69.01	-40.3	-41.5	21.3	0.00e+00	22	40	0	702545920	52	6821
2026-01-02 00:09:03.67	118.80	69.39	-41.4	-42.8	20.2	0.00e+00	0	40	0	704643072	54	7057
2026-01-02 00:09:04.68	117.98	69.77	-41.4	-42.8	20.3	0.00e+00	90	40	0	706740224	54	7040
2026-01-02 00:09:05.69	117.13	70.15	-40.0	-41.1	21.8	0.00e+00	0	40	0	707788800	54	5819
2026-01-02 00:09:06.70	116.23	70.52	-38.9	-39.9	22.7	0.00e+00	90	40	0	709885952	52	5659
2026-01-02 00:09:07.70	115.31	70.89	-38.5	-39.4	23.2	0.00e+00	73	40	0	711983104	52	5317
2026-01-02 00:09:08.71	114.35	71.26	-38.8	-39.8	22.8	0.00e+00	0	40	0	714080256	50	6277
2026-01-02 00:09:09.72	113.34	71.62	-38.9	-39.9	22.6	0.00e+00	92	40	0	716177408	50	6358
2026-01-02 00:09:10.73	112.29	71.98	-39.7	-40.7	21.9	0.00e+00	0	40	0	717225984	52	6230
2026-01-02 00:09:11.74	111.19	72.34	-41.1	-42.3	20.5	0.00e+00	66	40	0	719323136	54	6681
2026-01-02 00:09:12.75	110.05	72.68	-42.0	-43.5	19.5	0.00e+00	0	40	0	721420288	56	6801
2026-01-02 00:09:13.76	108.85	73.03	-41.8	-43.3	20.3	0.00e+00	90	40	0	723517440	56	6672
2026-01-02 00:09:14.77	107.61	73.37	-39.3	-40.4	22.0	0.00e+00	0	40	0	725614592	52	5980
2026-01-02 00:09:15.78	106.31	73.70	-37.6	-38.5	23.7	0.00e+00	38	40	0	726663168	48	6037
2026-01-02 00:09:16.79	104.95	74.02	-37.4	-38.2	23.7	0.00e+00	90	40	0	728760320	48	5885
2026-01-02 00:09:17.80	103.54	74.33	-38.7	-39.7	22.7	0.00e+00	0	40	0	730857472	48	6976
2026-01-02 00:09:18.81	102.07	74.64	-39.7	-40.8	22.0	0.00e+00	80	40	0	732954624	50	7043
2026-01-02 00:09:19.81	100.55	74.93	-39.0	-40.1	22.6	0.00e+00	0	40	0	735051776	50	6472
2026-01-02 00:09:20.83	98.94	75.22	-39.0	-40.0	22.5	0.00e+00	92	40	0	736100352	50	6406
2026-01-02 00:09:21.84	97.28	75.50	-38.8	-39.8	22.7	0.00e+00	0	40	0	738197504	50	6276
2026-01-02 00:09:22.84	95.57	75.76	-38.3	-39.3	23.1	0.00e+00	33	40	0	740294656	50	5903
2026-01-02 00:09:23.85	93.78	76.01	-38.2	-39.2	23.3	0.00e+00	92	40	0	742391808	48	6550
2026-01-02 00:09:24.86	91.92	76.25	-38.2	-39.1	23.6	0.00e+00	0	40	0	744488960	48	6465
2026-01-02 00:09:25.87	90.00	76.47	-37.8	-38.6	23.4	0.00e+00	46	40	0	745537536	48	6164
2026-01-02 00:09:26.88	88.01	76.68	-39.5	-40.5	22.2	0.00e+00	0	40	0	747634688	50	6841
2026-01-02 00:09:27.89	85.96	76.87	-39.3	-40.3	22.3	0.00e+00	90	40	0	749731840	50	6636
2026-01-02 00:09:28.90	83.85	77.05	-39.3	-40.3	22.3	0.00e+00	0	40	0	751828992	50	6675
2026-01-02 00:09:29.91	81.69	77.21	-40.6	-41.7	21.4	0.00e+00	91	40	0	753926144	52	6999
2026-01-02 00:09:30.92	79.47	77.35	-40.6	-41.8	21.3	0.00e+00	74	40	0	754974720	54	6270
2026-01-02 00:09:31.93	77.20	77.47	-41.3	-42.6	20.6	0.00e+00	0	40	0	757071872	54	6873
2026-01-02 00:09:32.94	74.89	77.57	-39.7	-40.8	21.8	0.00e+00	21	40	0	759169024	54	5574
2026-01-02 00:09:33.95	72.54	77.65	-38.3	-39.1	23.2	0.00e+00	0	40	0	761266176	50	5809
2026-01-02 00:09:34.96	70.17	77.72	-39.3	-40.3	22.4	0.00e+00	92	40	0	763363328	50	6675
2026-01-02 00:09:35.96	67.80	77.76	-40.3	-41.4	21.3	0.00e+00	0	40	0	764411904	52	6750
2026-01-02 00:09:36.97	65.39	77.78	-39.8	-40.8	21.9	0.00e+00	91	40	0	766509056	52	6312
2026-01-02 00:09:37.98	62.99	77.78	-41.8	-43.3	19.7	0.00e+00	74	40	0	768606208	54	7470
2026-01-02 00:09:38.99	60.58	77.76	-42.2	-43.9	19.4	0.00e+00	0	40	0	770703360	58	6384
2026-01-02 00:09:40.00	58.19	77.71	-40.0	-41.1	22.0	0.00e+00	58	40	0	772800512	52	6497
2026-01-02 00:09:41.01	55.82	77.65	-39.0	-40.0	22.5	0.00e+00	0	40	0	774897664	50	6429
2026-01-02 00:09:42.02	53.47	77.56	-39.5	-40.6	22.1	0.00e+00	60	40	0	775946240	50	6907
2026-01-02 00:09:43.03	51.17	77.46	-39.0	-40.1	22.6	0.00e+00	0	40	0	778043392	50	6477
2026-01-02 00:09:44.04	48.91	77.34	-40.1	-41.3	21.1	0.00e+00	78	40	0	780140544	52	6631
2026-01-02 00:09:45.05	46.69	77.20	-40.9	-42.2	20.9	0.00e+00	61	40	0	782237696	54	6589
2026-01-02 00:09:46.06	44.53	77.04	-39.7	-40.8	22.0	0.00e+00	0	40	0	784334848	52	6276
2026-01-02 00:09:47.07	42.43	76.86	-39.2	-40.1	22.5	0.00e+00	46	40	0	785383424	52	5815
2026-01-02 00:09:48.08	40.38	76.66	-38.3	-39.2	23.4	0.00e+00	0	40	0	787480576	50	5848
2026-01-02 00:09:49.09	38.40	76.45	-38.4	-39.4	22.9	0.00e+00	92	40	0	789577728	50	5971
2026-01-02 00:09:50.10	36.48	76.23	-41.7	-43.2	19.8	0.00e+00	0	40	0	791674880	54	7351
2026-01-02 00:09:51.11	34.63	75.99	-40.8	-42.1	20.9	0.00e+00	92	40	0	793772032	54	6471
2026-01-02 00:09:52.12	32.85	75.74	-40.3	-41.4	21.5	0.00e+00	0	40	0	794820608	54	5997
2026-01-02 00:09:53.12	31.15	75.48	-42.4	-44.0	19.1	0.00e+00	0	40	0	796917760	56	7234
2026-01-02 00:09:54.13	29.49	75.20	-40.5	-41.7	21.5	0.00e+00	92	40	0	799014912	56	5527
2026-01-02 00:09:55.14	27.90	74.91	-38.7	-39.6	22.8	0.00e+00	0	40	0	801112064	50	6164
2026-01-02 00:09:56.15	26.38	74.62	-40.7	-42.0	20.8	0.00e+00	70	40	0	803209216	52	7208
2026-01-02 00:09:57.16	24.91	74.31	-42.2	-43.8	19.5	0.00e+00	0	40	0	804257792	58	6262
2026-01-02 00:09:58.17	23.50	73.99	-40.8	-42.0	21.0	0.00e+00	92	40	0	806354944	56	5755
2026-01-02 00:09:59.18	22.16	73.67	-40.1	-41.2	21.6	0.00e+00	0	40	0	808452096	54	5868
2026-01-02 00:10:00.19	20.86	73.34	-39.1	-40.0	22.7	0.00e+00	0	40	0	810549248	52	5738
2026-01-02 00:10:01.20	19.62	73.00	-39.5	-40.5	22.4	0.00e+00	90	40	0	812646400	52	6062
2026-01-02 00:10:02.20	18.45	72.66	-41.3	-42.7	19.7	0.00e+00	0	40	0	813694976	54	6961
2026-01-02 00:10:03.21	17.31	72.31	-41.1	-42.4	20.8	0.00e+00	41	40	0	815792128	56	5979
2026-01-02 00:10:04.22	16.21	71.96	-40.4	-41.6	21.2	0.00e+00	0	40	0	817889280	54	6150
2026-01-02 00:10:05.23	15.16	71.60	-40.7	-41.9	21.0	0.00e+00	90	40	0	819986432	54	6325
2026-01-02 00:10:06.23	14.17	71.24	-41.5	-42.9	20.1	0.00e+00	0	40	0	822083584	54	7128
2026-01-02 00:10:07.24	13.20	70.87	-41.3	-42.7	20.3	0.00e+00	46	40	0	823132160	56	6228
2026-01-02 00:10:08.25	12.28	70.50	-40.8	-42.0	20.9	0.00e+00	92	40	0	825229312	56	5754
2026-01-02 00:10:09.26	11.39	70.13	-40.3	-41.5	21.3	0.00e+00	0	40	0	827326464	54	6076
2026-01-02 00:10:10.27	10.54	69.75	-39.3	-40.3	22.6	0.00e+00	14	40	0	829423616	52	5940
2026-01-02 00:10:11.28	9.72	69.37	-39.8	-40.9	21.6	0.00e+00	0	40	0	831520768	52	6384
2026-01-02 00:10:12.29	8.93	68.99	-40.3	-41.5	21.4	0.00e+00	90	40	0	832569344	52	6815
2026-01-02 00:10:13.30	8.17	68.60	-39.2	-40.3	22.4	0.00e+00	0	40	0	834666496	52	5913
2026-01-02 00:10:14.31	7.45	68.22	-37.9	-38.8	23.4	0.00e+00	74	40	0	836763648	50	5613
2026-01-02 00:10:15.32	6.75	67.83	-38.7	-39.7	22.7	0.00e+00	0	40	0	838860800	50	6191
2026-01-02 00:10:16.33	6.07	67.44	-39.6	-40.7	22.0	0.00e+00	0	40	0	840957952	52	6204
2026-01-02 00:10:17.34	5.42	67.05	-38.5	-39.5	22.9	0.00e+00	92	40	0	842006528	50	6071
2026-01-02 00:10:18.35	4.80	66.66	-38.2	-39.1	23.5	0.00e+00	0	40	0	844103680	50	5788
2026-01-02 00:10:19.36	4.20	66.27	-37.1	-38.0	23.5	0.00e+00	74	40	0	846200832	48	5709
2026-01-02 00:10:20.37	3.62	65.88	-36.6	-37.4	24.2	0.00e+00	0	40	0	848297984	46	6021
2026-01-02 00:10:21.38	3.06	65.49	-37.1	-38.0	24.4	0.00e+00	92	40	0	850395136	46	6392
2026-01-02 00:10:22.38	2.52	65.10	-36.7	-37.6	24.4	0.00e+00	0	40	0	851443712	46	6110
2026-01-02 00:10:23.39	2.00	64.71	-36.5	-37.3	24.6	0.00e+00	0	40	0	853540864	46	5943
2026-01-02 00:10:24.40	1.49	64.32	-37.4	-38.3	23.6	0.00e+00	92	40	0	855638016	46	6626
2026-01-02 00:10:25.41	1.01	63.93	-38.5	-39.5	23.1	0.00e+00	0	40	0	857735168	48	6805
2026-01-02 00:10:26.42	0.54	63.54	-37.6	-38.5	23.7	0.00e+00	68	40	0	859832320	48	6074
2026-01-02 00:10:27.43	0.08	63.15	-38.7	-39.6	22.7	0.00e+00	0	39	0	860880896	48	6923
2026-01-02 00:10:28.44	359.64	62.76	-40.6	-42.0	21.0	0.00e+00	91	40	0	862978048	52	7172
2026-01-02 00:10:29.45	359.21	62.37	-40.0	-41.2	21.6	0.00e+00	0	40	0	865075200	52	6547
2026-01-02 00:10:30.46	358.80	61.98	-40.9	-42.3	20.7	0.00e+00	0	40	0	867172352	54	6669
2026-01-02 00:10:31.47	358.40	61.59	-43.2	-45.3	18.6	0.00e+00	90	40	0	869269504	58	7428
2026-01-02 00:10:32.48	358.01	61.21	-41.6	-43.0	20.1	0.00e+00	0	40	0	871366656	56	6422
2026-01-02 00:10:33.49	357.64	60.82	-40.4	-41.6	21.3	0.00e+00	68	40	0	872415232	54	6142
2026-01-02 00:10:34.50	357.27	60.44	-39.8	-40.9	21.8	0.00e+00	0	40	0	874512384	52	6329
2026-01-02 00:10:35.51	356.92	60.06	-38.2	-39.1	23.4	0.00e+00	92	40	0	876609536	50	5772
2026-01-02 00:10:36.52	356.58	59.68	-37.3	-38.1	24.3	0.00e+00	0	40	0	878706688	48	5797
2026-01-02 00:10:37.53	356.24	59.30	-37.0	-37.8	24.4	0.00e+00	37	40	0	880803840	48	5615
2026-01-02 00:10:38.54	355.92	58.92	-37.2	-38.0	24.1	0.00e+00	70	40	0	881852416	46	6399
2026-01-02 00:10:39.54	355.61	58.55	-36.9	-37.6	24.2	0.00e+00	0	40	0	883949568	48	5490
2026-01-02 00:10:40.55	355.31	58.17	-37.2	-38.0	24.2	0.00e+00	71	40	0	886046720	48	5740
2026-01-02 00:10:41.56	355.01	57.80	-37.7	-38.6	23.5	0.00e+00	0	40	0	888143872	48	6123
2026-01-02 00:10:42.57	354.72	57.43	-38.3	-39.3	23.1	0.00e+00	69	40	0	890241024	48	6635
2026-01-02 00:10:43.58	354.44	57.06	-37.7	-38.6	23.8	0.00e+00	0	40	0	891289600	48	6115
2026-01-02 00:10:44.59	354.17	56.69	-37.8	-38.7	23.5	0.00e+00	50	40	0	893386752	48	6196
2026-01-02 00:10:45.60	353.90	56.33	-38.5	-39.5	22.9	0.00e+00	37	40	0	895483904	48	6801
2026-01-02 00:10:46.60	353.64	55.97	-39.4	-40.4	22.1	0.00e+00	0	40	0	897581056	50	6751
2026-01-02 00:10:47.61	353.39	55.60	-40.4	-41.6	21.2	0.00e+00	5	40	0	899678208	52	6899
2026-01-02 00:10:48.62	353.15	55.24	-40.6	-41.9	21.0	0.00e+00	0	40	0	900726784	52	7135
2026-01-02 00:10:49.64	352.90	54.88	-40.1	-41.3	21.5	0.00e+00	92	40	0	902823936	54	5929
2026-01-02 00:10:50.64	352.67	54.53	-39.4	-40.5	22.1	0.00e+00	0	40	0	904921088	52	6041
2026-01-02 00:10:51.66	352.44	54.17	-39.2	-40.3	22.4	0.00e+00	83	40	0	907018240	52	5929
2026-01-02 00:10:52.66	352.22	53.82	-39.2	-40.3	22.4	0.00e+00	8	40	0	909115392	52	5908
2026-01-02 00:10:53.67	352.01	53.47	-38.9	-39.9	22.8	0.00e+00	0	40	0	910163968	50	6364
2026-01-02 00:10:54.68	351.80	53.12	-38.8	-39.8	22.8	0.00e+00	77	40	0	912261120	50	6269
2026-01-02 00:10:55.69	351.59	52.77	-39.1	-40.1	22.7	0.00e+00	0	40	0	914358272	50	6489
2026-01-02 00:10:56.70	351.39	52.43	-38.8	-39.8	22.8	0.00e+00	80	40	0	916455424	50	6315
2026-01-02 00:10:57.71	351.19	52.09	-38.5	-39.4	23.1	0.00e+00	0	40	0	918552576	50	6032
2026-01-02 00:10:58.72	351.00	51.75	-39.0	-40.0	22.6	0.00e+00	90	40	0	919601152	50	6447
2026-01-02 00:10:59.73	350.81	51.41	-39.7	-40.8	21.9	0.00e+00	73	40	0	921698304	50	7069
2026-01-02 00:11:00.74	350.63	51.07	-39.4	-40.4	22.0	0.00e+00	0	40	0	923795456	50	6766
2026-01-02 00:11:01.74	350.45	50.74	-39.0	-40.0	22.7	0.00e+00	49	40	0	925892608	50	6419
2026-01-02 00:11:02.75	350.28	50.41	-39.2	-40.2	22.4	0.00e+00	0	40	0	927989760	50	6607
2026-01-02 00:11:03.76	350.11	50.08	-39.7	-40.8	22.0	0.00e+00	91	40	0	929038336	52	6309
2026-01-02 00:11:04.77	349.94	49.75	-40.3	-41.4	21.5	0.00e+00	0	40	0	931135488	52	6769
2026-01-02 00:11:05.78	349.77	49.42	-40.1	-41.3	21.9	0.00e+00	91	40	0	933232640	52	6630
2026-01-02 00:11:06.79	349.61	49.10	-40.0	-41.1	21.7	0.00e+00	0	40	0	935329792	52	6513
2026-01-02 00:11:07.80	349.46	48.78	-40.1	-41.2	21.6	0.00e+00	0	40	0	937426944	52	6597
2026-01-02 00:11:08.81	349.30	48.46	-40.9	-42.2	20.4	0.00e+00	92	40	0	939524096	52	7372
2026-01-02 00:11:09.82	349.15	48.14	-42.2	-43.9	19.4	0.00e+00	0	40	0	940572672	56	7089
2026-01-02 00:11:10.82	349.01	47.83	-42.6	-44.3	18.9	0.00e+00	73	40	0	942669824	56	7453
2026-01-02 00:11:11.83	348.86	47.52	-41.4	-42.8	20.3	0.00e+00	0	40	0	944766976	56	6249
2026-01-02 00:11:12.84	348.72	47.21	-41.3	-42.6	20.6	0.00e+00	92	40	0	946864128	56	6106
2026-01-02 00:11:13.85	348.58	46.90	-40.7	-41.9	21.0	0.00e+00	0	40	0	948961280	56	5662
2026-01-02 00:11:14.86	348.45	46.59	-40.8	-42.1	20.8	0.00e+00	23	40	0	950009856	54	6483
2026-01-02 00:11:15.86	348.32	46.29	-39.9	-41.0	21.9	0.00e+00	71	40	0	952107008	54	5704
2026-01-02 00:11:16.87	348.18	45.98	-39.5	-40.6	22.1	0.00e+00	0	40	0	954204160	52	6104
2026-01-02 00:11:17.88	348.06	45.68	-39.3	-40.3	22.4	0.00e+00	73	40	0	956301312	52	5901
2026-01-02 00:11:18.89	347.93	45.38	-39.2	-40.2	22.5	0.00e+00	0	40	0	957349888	52	5871
2026-01-02 00:11:19.89	347.81	45.09	-39.6	-40.6	21.9	0.00e+00	92	40	0	959447040	52	6173
2026-01-02 00:11:20.90	347.69	44.80	-40.2	-41.3	21.5	0.00e+00	0	40	0	961544192	52	6671
2026-01-02 00:11:21.91	347.57	44.50	-40.7	-41.8	21.1	0.00e+00	89	40	0	963641344	54	6310
2026-01-02 00:11:22.92	347.45	44.21	-40.5	-41.6	21.0	0.00e+00	0	40	0	965738496	54	6153
2026-01-02 00:11:23.93	347.34	43.92	-40.9	-42.1	20.8	0.00e+00	0	40	0	966787072	54	6532
2026-01-02 00:11:24.94	347.23	43.64	-41.3	-42.6	20.4	0.00e+00	92	40	0	968884224	54	6924
2026-01-02 00:11:25.94	347.12	43.36	-42.1	-43.6	19.3	0.00e+00	0	40	0	970981376	56	6857
2026-01-02 00:11:26.95	347.01	43.07	-42.6	-44.3	19.2	0.00e+00	92	40	0	973078528	56	7484
2026-01-02 00:11:27.96	346.91	42.79	-44.7	-47.3	16.0	0.00e+00	0	40	0	975175680	60	8378
2026-01-02 00:11:28.97	346.80	42.52	-44.0	-46.1	17.5	0.00e+00	92	40	0	977272832	60	7330
2026-01-02 00:11:29.98	346.70	42.24	-42.3	-43.9	19.4	0.00e+00	0	40	0	978321408	58	6352
2026-01-02 00:11:30.99	346.60	41.96	-40.9	-42.1	21.0	0.00e+00	0	40	0	980418560	56	5816
2026-01-02 00:11:32.00	346.50	41.69	-40.2	-41.3	21.6	0.00e+00	83	40	0	982515712	54	5921
2026-01-02 00:11:33.01	346.40	41.42	-40.0	-41.1	21.8	0.00e+00	0	40	0	984612864	54	5805
2026-01-02 00:11:34.01	346.31	41.15	-40.6	-41.8	21.1	0.00e+00	38	40	0	986710016	54	6267
2026-01-02 00:11:35.03	346.21	40.88	-40.4	-41.5	21.3	0.00e+00	0	40	0	987758592	54	6085
2026-01-02 00:11:36.03	346.12	40.62	-40.8	-42.0	21.0	0.00e+00	89	40	0	989855744	54	6449
2026-01-02 00:11:37.04	346.03	40.36	-40.6	-41.8	21.2	0.00e+00	0	40	0	991952896	54	6275
2026-01-02 00:11:38.05	345.94	40.10	-41.6	-43.0	19.9	0.00e+00	0	40	0	994050048	54	7201
2026-01-02 00:11:39.06	345.86	39.84	-42.9	-44.7	18.1	0.00e+00	55	40	0	996147200	58	6976
2026-01-02 00:11:40.07	345.77	39.58	-42.9	-44.7	18.6	0.00e+00	0	40	0	997195776	58	6946
2026-01-02 00:11:41.08	345.69	39.32	-41.5	-42.8	20.5	0.00e+00	92	40	0	999292928	56	6309
2026-01-02 00:11:42.09	345.60	39.07	-40.0	-41.1	21.9	0.00e+00	0	40	0	1001390080	54	5769
2026-01-02 00:11:43.10	345.52	38.82	-38.8	-39.8	22.8	0.00e+00	92	40	0	1003487232	52	5588
2026-01-02 00:11:44.11	345.44	38.57	-38.0	-38.9	23.5	0.00e+00	0	40	0	1005584384	50	5680
2026-01-02 00:11:45.12	345.36	38.32	-38.3	-39.2	23.3	0.00e+00	40	40	0	1006632960	50	5853
2026-01-02 00:11:46.13	345.28	38.07	-39.3	-40.4	22.0	0.00e+00	90	40	0	1008730112	50	6727
2026-01-02 00:11:47.14	345.20	37.83	-40.4	-41.5	21.5	0.00e+00	0	40	0	1010827264	52	6807
2026-01-02 00:11:48.15	345.13	37.58	-40.8	-42.0	21.0	0.00e+00	60	40	0	1012924416	54	6421
2026-01-02 00:11:49.16	345.05	37.34	-41.4	-42.8	20.3	0.00e+00	0	40	0	1015021568	54	7053
2026-01-02 00:11:50.17	344.98	37.10	-40.9	-42.2	20.8	0.00e+00	81	40	0	1016070144	54	6545
2026-01-02 00:11:51.18	344.91	36.86	-40.8	-42.0	21.1	0.00e+00	0	40	0	1018167296	54	6426
2026-01-02 00:11:52.19	344.84	36.63	-40.9	-42.2	20.8	0.00e+00	41	40	0	1020264448	54	6565
2026-01-02 00:11:53.20	344.77	36.39	-41.4	-42.8	20.3	0.00e+00	72	40	0	1022361600	54	7029
2026-01-02 00:11:54.21	344.70	36.16	-41.6	-43.1	19.9	0.00e+00	0	40	0	1024458752	56	6499
2026-01-02 00:11:55.22	344.63	35.92	-42.4	-44.0	19.3	0.00e+00	22	40	0	1025507328	56	7199
2026-01-02 00:11:56.23	344.56	35.69	-42.5	-44.2	19.2	0.00e+00	0	40	0	1027604480	58	6551
2026-01-02 00:11:57.24	344.50	35.47	-41.7	-43.1	20.2	0.00e+00	0	40	0	1029701632	56	6491
2026-01-02 00:11:58.25	344.43	35.24	-41.0	-42.2	20.8	0.00e+00	0	40	0	1031798784	56	5891
2026-01-02 00:11:59.26	344.37	35.01	-40.2	-41.3	21.6	0.00e+00	0	40	0	1033895936	54	5923
2026-01-02 00:12:00.27	344.31	34.79	-39.8	-40.8	22.0	0.00e+00	2	40	0	1034944512	52	6307
2026-01-02 00:12:01.28	344.24	34.57	-39.7	-40.7	22.1	0.00e+00	0	40	0	1037041664	52	6201
2026-01-02 00:12:02.29	344.18	34.35	-40.0	-41.0	21.6	0.00e+00	69	40	0	1039138816	52	6451
2026-01-02 00:12:03.30	344.12	34.13	-40.3	-41.4	21.5	0.00e+00	0	40	0	1041235968	52	6767
2026-01-02 00:12:04.31	344.06	33.91	-40.3	-41.4	21.4	0.00e+00	0	40	0	1043333120	52	6735
2026-01-02 00:12:05.32	344.00	33.69	-40.7	-41.9	21.0	0.00e+00	0	40	0	1045430272	52	7134
2026-01-02 00:12:06.33	343.95	33.48	-40.8	-42.1	20.8	0.00e+00	0	40	0	1046478848	54	6479
2026-01-02 00:12:07.34	343.89	33.27	-41.3	-42.6	20.3	0.00e+00	0	40	0	1048576000	54	6901
2026-01-02 00:12:08.34	343.83	33.06	-41.7	-43.1	20.2	0.00e+00	0	40	0	1050673152	54	7305
2026-01-02 00:12:09.35	343.78	32.85	-42.5	-44.1	19.1	0.00e+00	67	40	0	1052770304	56	7329
2026-01-02 00:12:10.36	343.72	32.64	-42.5	-44.2	19.0	0.00e+00	0	40	0	1054867456	58	6555
2026-01-02 00:12:11.37	343.67	32.43	-43.2	-45.2	18.0	0.00e+00	92	40	0	1055916032	58	7369
2026-01-02 00:12:12.38	343.61	32.22	-43.2	-45.3	17.9	0.00e+00	0	40	0	1058013184	58	7456
2026-01-02 00:12:13.39	343.56	32.02	-42.8	-44.7	18.8	0.00e+00	0	40	0	1060110336	60	6180
2026-01-02 00:12:14.40	343.51	31.81	-42.8	-44.6	18.6	0.00e+00	65	40	0	1062207488	58	6926
2026-01-02 00:12:15.41	343.46	31.61	-42.4	-44.2	19.0	0.00e+00	0	40	0	1064304640	58	6579
2026-01-02 00:12:16.42	343.41	31.41	-42.0	-43.6	19.6	0.00e+00	64	40	0	1065353216	58	6104
2026-01-02 00:12:17.43	343.36	31.21	-41.9	-43.5	19.8	0.00e+00	0	40	0	1067450368	56	6792
2026-01-02 00:12:18.44	343.31	31.01	-42.1	-43.7	19.7	0.00e+00	92	40	0	1069547520	56	7007
2026-01-02 00:12:19.45	343.26	30.82	-41.4	-42.8	20.3	0.00e+00	0	40	0	1071644672	56	6262
2026-01-02 00:12:20.46	343.21	30.62	-41.2	-42.6	20.5	0.00e+00	0	40	0	1073741824	56	6121
2026-01-02 00:12:21.46	343.17	30.43	-41.3	-42.6	20.5	0.00e+00	0	40	0	1074790400	56	6137
2026-01-02 00:12:22.47	343.12	30.24	-41.2	-42.5	20.6	0.00e+00	0	40	0	1076887552	56	6034
2026-01-02 00:12:23.48	343.07	30.05	-40.4	-41.5	21.2	0.00e+00	64	40	0	1078984704	54	6091
2026-01-02 00:12:24.49	343.03	29.86	-40.4	-41.6	21.2	0.00e+00	0	40	0	1081081856	54	6145
2026-01-02 00:12:25.50	342.98	29.67	-39.9	-41.0	21.8	0.00e+00	92	40	0	1083179008	54	5748
2026-01-02 00:12:26.51	342.94	29.48	-39.8	-40.9	21.8	0.00e+00	0	40	0	1084227584	52	6367
2026-01-02 00:12:27.52	342.90	29.29	-39.4	-40.4	22.3	0.00e+00	0	40	0	1086324736	52	5998
2026-01-02 00:12:28.53	342.85	29.11	-39.4	-40.4	22.3	0.00e+00	0	40	0	1088421888	52	6031
2026-01-02 00:12:29.54	342.81	28.92	-39.3	-40.3	22.2	0.00e+00	0	40	0	1090519040	52	5945
2026-01-02 00:12:30.55	342.77	28.74	-39.4	-40.4	22.3	0.00e+00	24	40	0	1092616192	52	5990
2026-01-02 00:12:31.56	342.73	28.56	-39.6	-40.6	22.4	0.00e+00	0	40	0	1093664768	52	6143
2026-01-02 00:12:32.57	342.68	28.38	-39.9	-41.0	21.7	0.00e+00	81	40	0	1095761920	52	6441
2026-01-02 00:12:33.58	342.64	28.20	-40.3	-41.5	21.3	0.00e+00	0	40	0	1097859072	52	6786
2026-01-02 00:12:34.59	342.60	28.02	-40.4	-41.5	21.2	0.00e+00	20	40	0	1099956224	52	6847
2026-01-02 00:12:35.60	342.56	27.84	-40.8	-42.1	20.8	0.00e+00	0	40	0	1102053376	54	6484
2026-01-02 00:12:36.61	342.52	27.67	-41.2	-42.5	20.5	0.00e+00	0	40	0	1103101952	54	6815
2026-01-02 00:12:37.62	342.49	27.49	-40.8	-42.1	20.8	0.00e+00	64	40	0	1105199104	54	6517
2026-01-02 00:12:38.63	342.45	27.32	-40.9	-42.2	20.8	0.00e+00	0	40	0	1107296256	54	6548
2026-01-02 00:12:39.64	342.41	27.14	-40.4	-41.6	21.2	0.00e+00	92	40	0	1109393408	54	6152
2026-01-02 00:12:40.65	342.37	26.97	-40.0	-41.2	21.6	0.00e+00	0	40	0	1111490560	54	5862
2026-01-02 00:12:41.65	342.34	26.80	-39.6	-40.7	22.0	0.00e+00	0	40	0	1113587712	52	6188
2026-01-02 00:12:42.67	342.30	26.63	-39.1	-40.1	22.5	0.00e+00	0	40	0	1114636288	52	5825
2026-01-02 00:12:43.67	342.26	26.46	-38.3	-39.3	23.1	0.00e+00	0	40	0	1116733440	50	5908
2026-01-02 00:12:44.69	342.23	26.29	-38.1	-39.0	23.3	0.00e+00	0	40	0	1118830592	50	5746
2026-01-02 00:12:45.70	342.19	26.13	-38.0	-38.9	23.3	0.00e+00	0	40	0	1120927744	50	5695
2026-01-02 00:12:46.71	342.16	25.96	-38.0	-38.9	23.4	0.00e+00	64	40	0	1123024896	48	6339
2026-01-02 00:12:47.71	342.12	25.80	-38.1	-39.1	23.2	0.00e+00	0	40	0	1124073472	48	6475
2026-01-02 00:12:48.72	342.09	25.64	-38.4	-39.3	23.1	0.00e+00	74	40	0	1126170624	48	6656
2026-01-02 00:12:49.73	342.06	25.47	-38.6	-39.5	22.9	0.00e+00	0	40	0	1128267776	48	6827
2026-01-02 00:12:50.74	342.02	25.31	-39.3	-40.4	22.2	0.00e+00	0	40	0	1130364928	50	6721
2026-01-02 00:12:51.75	341.99	25.15	-40.1	-41.2	21.6	0.00e+00	0	40	0	1132462080	52	6613
2026-01-02 00:12:52.76	341.96	24.99	-40.8	-42.1	20.7	0.00e+00	0	40	0	1133510656	52	7293
2026-01-02 00:12:53.77	341.93	24.83	-41.1	-42.5	20.5	0.00e+00	68	40	0	1135607808	54	6781
2026-01-02 00:12:54.78	341.89	24.68	-41.5	-43.0	20.0	0.00e+00	33	40	0	1137704960	54	7177
2026-01-02 00:12:55.79	341.86	24.52	-41.6	-43.0	19.9	0.00e+00	92	40	0	1139802112	56	6463
2026-01-02 00:12:56.80	341.83	24.36	-41.6	-43.1	20.0	0.00e+00	0	40	0	1141899264	56	6502
2026-01-02 00:12:57.80	341.80	24.21	-41.3	-42.7	20.3	0.00e+00	0	40	0	1142947840	56	6198
2026-01-02 00:12:58.81	341.77	24.06	-40.9	-42.2	20.6	0.00e+00	0	40	0	1145044992	56	5869
2026-01-02 00:12:59.82	341.74	23.90	-40.9	-42.2	20.9	0.00e+00	0	40	0	1147142144	54	6592
2026-01-02 00:13:00.83	341.71	23.75	-40.3	-41.6	21.3	0.00e+00	17	40	0	1149239296	54	6108
2026-01-02 00:13:01.84	341.68	23.60	-39.9	-41.1	21.5	0.00e+00	0	40	0	1151336448	54	5783
2026-01-02 00:13:02.85	341.65	23.45	-39.8	-40.9	21.7	0.00e+00	82	40	0	1152385024	54	5673
2026-01-02 00:13:03.86	341.62	23.30	-39.5	-40.5	22.2	0.00e+00	0	40	0	1154482176	52	6103
2026-01-02 00:13:04.87	341.60	23.15	-39.2	-40.2	22.4	0.00e+00	0	40	0	1156579328	52	5878
2026-01-02 00:13:05.88	341.57	23.00	-38.9	-39.9	22.7	0.00e+00	0	40	0	1158676480	52	5657
2026-01-02 00:13:06.89	341.54	22.85	-38.6	-39.6	22.9	0.00e+00	0	40	0	1160773632	50	6160
2026-01-02 00:13:07.90	341.51	22.71	-38.3	-39.3	23.1	0.00e+00	13	40	0	1161822208	50	5902
2026-01-02 00:13:08.91	341.48	22.56	-38.3	-39.3	23.1	0.00e+00	0	40	0	1163919360	50	5912
2026-01-02 00:13:09.92	341.46	22.42	-38.3	-39.2	23.1	0.00e+00	86	40	0	1166016512	50	5867
2026-01-02 00:13:10.93	341.43	22.27	-37.9	-38.8	23.5	0.00e+00	0	40	0	1168113664	50	5578
2026-01-02 00:13:11.94	341.40	22.13	-37.9	-38.8	23.4	0.00e+00	5	40	0	1170210816	50	5578
2026-01-02 00:13:12.95	341.38	21.99	-38.0	-38.8	23.5	0.00e+00	0	40	0	1171259392	50	5630
2026-01-02 00:13:13.96	341.35	21.85	-38.1	-39.0	23.3	0.00e+00	0	40	0	1173356544	50	5750
2026-01-02 00:13:14.97	341.33	21.71	-38.0	-38.9	23.3	0.00e+00	14	40	0	1175453696	50	5668
2026-01-02 00:13:15.98	341.30	21.57	-38.2	-39.1	23.3	0.00e+00	0	40	0	1177550848	50	5781
2026-01-02 00:13:16.99	341.28	21.43	-37.9	-38.8	23.4	0.00e+00	64	40	0	1179648000	50	5621
