passes_logs/2026/01/02/R4.6S_Anadyr/R4.6S_Anadyr__20260102_231352_NOAA_21_JPSS-2_rec.log

#Pass ID: 20260102_231352_NOAA 21 (JPSS-2)
#Satellite: NOAA 21 (JPSS-2)
#Configuration: NOAA-21
#almurnet v.1.7.20251203
#Start time: 2026-01-02 23:13:58

#Version: 2.2.20231116
#Station: R4.6S_Anadyr
#Location: 177.4865 lon 64.73178 lat
#TLE: 1 54234U 22150A   26002.74826289  .00000196  00000+0  11365-3 0  9998
#TLE: 2 54234  98.7486 303.7970 0001197 349.3858  10.7292 14.19531423163070

#Time	Az	El	Level	Level2	SNR	BER	BlckErr	Temp	State	Recorded	gain1	gain2
2026-01-02 23:13:58.54	132.02	0.34	-50.4	-52.0	5.7	0.00e+00	0	36	0	0	60	48518
2026-01-02 23:13:59.51	132.00	0.39	-50.1	-63.0	3.5	1.52e+00	0	38	104	0	60	49589
2026-01-02 23:14:00.48	131.97	0.45	-50.2	-63.0	3.5	1.52e+00	0	38	104	0	60	49793
2026-01-02 23:14:01.46	131.95	0.51	-50.1	-63.0	3.5	1.52e+00	0	38	104	0	60	49606
2026-01-02 23:14:02.44	131.93	0.57	-50.1	-62.9	3.5	1.52e+00	0	38	104	0	60	49263
2026-01-02 23:14:03.41	131.90	0.63	-50.0	-62.9	3.5	1.52e+00	0	38	104	0	60	48735
2026-01-02 23:14:04.39	131.88	0.69	-49.9	-62.8	3.5	1.52e+00	0	38	104	0	60	48332
2026-01-02 23:14:05.37	131.85	0.75	-49.7	-62.7	3.5	1.52e+00	0	38	104	0	60	48011
2026-01-02 23:14:06.35	131.83	0.80	-49.7	-62.6	3.5	1.52e+00	0	38	104	0	60	47394
2026-01-02 23:14:07.33	131.81	0.86	-49.6	-62.5	3.5	1.52e+00	0	38	104	0	60	47033
2026-01-02 23:14:08.31	131.78	0.92	-49.5	-62.3	3.5	1.52e+00	0	38	104	0	60	45976
2026-01-02 23:14:09.28	131.76	0.98	-49.2	-62.1	3.5	1.52e+00	0	38	104	0	60	44703
2026-01-02 23:14:10.26	131.73	1.04	-48.7	-61.8	3.5	1.52e+00	0	38	104	0	60	42963
2026-01-02 23:14:11.24	131.71	1.10	-48.4	-61.2	3.5	1.52e+00	0	38	104	0	60	40452
2026-01-02 23:14:12.22	131.68	1.16	-48.4	-61.3	3.5	1.51e+00	0	38	104	0	60	40629
2026-01-02 23:14:13.20	131.66	1.22	-48.3	-61.3	3.5	1.52e+00	0	38	104	0	60	40788
2026-01-02 23:14:14.18	131.63	1.28	-48.3	-61.3	3.5	1.52e+00	0	38	104	0	60	40822
2026-01-02 23:14:15.15	131.61	1.34	-48.3	-61.3	3.5	1.52e+00	0	38	104	0	60	40846
2026-01-02 23:14:16.13	131.58	1.40	-48.3	-61.3	3.5	1.52e+00	0	38	104	0	60	40821
2026-01-02 23:14:17.12	131.56	1.46	-48.3	-61.3	3.5	1.52e+00	0	38	104	0	60	40643
2026-01-02 23:14:18.09	131.53	1.52	-48.3	-61.2	3.5	1.52e+00	0	38	104	0	60	40526
2026-01-02 23:14:19.07	131.51	1.58	-48.3	-61.3	3.5	1.52e+00	0	38	104	0	60	40534
2026-01-02 23:14:20.05	131.48	1.65	-48.3	-61.2	3.5	1.52e+00	0	38	104	0	60	40409
2026-01-02 23:14:21.02	131.45	1.71	-48.3	-61.3	3.4	1.52e+00	0	38	104	0	60	40552
2026-01-02 23:14:22.00	131.43	1.77	-48.3	-61.2	3.5	1.52e+00	0	38	104	0	60	40506
2026-01-02 23:14:22.98	131.40	1.83	-48.3	-61.3	3.5	1.52e+00	0	38	104	0	60	40693
2026-01-02 23:14:23.96	131.38	1.89	-48.3	-61.3	3.5	1.52e+00	0	38	104	0	60	40713
2026-01-02 23:14:24.93	131.35	1.95	-48.3	-61.3	3.5	1.52e+00	0	38	104	0	60	40688
2026-01-02 23:14:25.91	131.32	2.01	-48.3	-61.2	3.5	1.51e+00	0	38	104	0	60	40280
2026-01-02 23:14:26.89	131.30	2.07	-48.3	-61.1	3.5	1.52e+00	0	38	104	0	60	40057
2026-01-02 23:14:27.86	131.27	2.14	-48.3	-61.1	3.5	1.52e+00	0	38	104	0	60	39763
2026-01-02 23:14:28.84	131.24	2.20	-48.3	-61.0	3.5	1.52e+00	0	38	104	0	60	39406
2026-01-02 23:14:29.82	131.22	2.26	-48.3	-61.1	3.5	1.52e+00	0	38	104	0	60	39854
2026-01-02 23:14:30.80	131.19	2.32	-48.3	-61.1	3.5	1.52e+00	0	38	104	0	60	40055
2026-01-02 23:14:31.78	131.16	2.38	-48.3	-61.3	3.5	1.52e+00	0	38	104	0	60	40586
2026-01-02 23:14:32.76	131.13	2.45	-48.3	-61.3	3.5	1.52e+00	0	38	104	0	60	40964
2026-01-02 23:14:33.74	131.11	2.51	-48.3	-61.3	3.5	1.52e+00	0	38	104	0	60	40912
2026-01-02 23:14:34.71	131.08	2.57	-48.3	-61.3	3.5	1.52e+00	0	38	104	0	60	40624
2026-01-02 23:14:35.69	131.05	2.64	-48.3	-61.1	3.5	1.52e+00	0	38	104	0	60	40024
2026-01-02 23:14:36.67	131.02	2.70	-48.3	-61.1	3.5	1.52e+00	0	38	104	0	60	39695
2026-01-02 23:14:37.65	131.00	2.76	-48.3	-61.0	3.5	1.52e+00	0	38	104	0	60	39182
2026-01-02 23:14:38.63	130.97	2.83	-48.3	-60.9	3.5	1.51e+00	0	38	104	0	60	38829
2026-01-02 23:14:39.61	130.94	2.89	-48.3	-60.7	3.5	1.51e+00	0	38	104	0	60	37984
2026-01-02 23:14:40.59	130.91	2.95	-48.2	-60.6	3.5	1.51e+00	0	38	104	0	60	37394
2026-01-02 23:14:41.57	130.88	3.02	-48.2	-60.3	3.5	1.51e+00	0	38	104	0	60	36214
2026-01-02 23:14:42.55	130.85	3.08	-48.2	-60.4	3.5	1.52e+00	0	38	104	0	60	36545
2026-01-02 23:14:43.52	130.83	3.14	-48.3	-60.7	3.5	1.52e+00	0	38	104	0	60	38093
2026-01-02 23:14:44.50	130.80	3.21	-48.3	-61.2	3.5	1.52e+00	0	38	104	0	60	40290
2026-01-02 23:14:45.48	130.77	3.27	-48.3	-61.2	3.5	1.52e+00	0	38	104	0	60	40404
2026-01-02 23:14:46.46	130.74	3.34	-48.2	-59.6	3.6	1.52e+00	0	38	104	0	60	33505
2026-01-02 23:14:47.44	130.71	3.40	-47.8	-56.8	3.8	1.23e+00	0	38	104	0	60	24171
2026-01-02 23:14:48.42	130.68	3.47	-47.2	-52.9	6.9	2.58e-01	0	39	0	0	60	15547
2026-01-02 23:14:49.39	130.65	3.53	-46.4	-50.8	9.4	3.02e-02	0	38	0	3145728	60	12199
2026-01-02 23:14:50.37	130.62	3.60	-45.5	-48.9	11.5	1.76e-03	0	38	0	6291456	60	9809
2026-01-02 23:14:51.35	130.59	3.66	-44.3	-46.9	13.6	6.40e-05	0	39	0	9437184	60	7808
2026-01-02 23:14:52.33	130.56	3.73	-44.0	-46.5	14.1	0.00e+00	0	38	0	12582912	60	7431
2026-01-02 23:14:53.31	130.53	3.79	-43.8	-46.2	11.6	0.00e+00	0	38	0	15728640	60	7146
2026-01-02 23:14:54.29	130.50	3.86	-48.6	-61.1	3.5	1.52e+00	0	38	104	15728640	60	40064
2026-01-02 23:14:55.26	130.47	3.92	-41.9	-44.1	5.1	1.44e+00	0	38	104	15728640	58	6292
2026-01-02 23:14:56.24	130.44	3.99	-48.2	-60.7	3.5	1.51e+00	0	38	104	15728640	60	37984
2026-01-02 23:14:57.21	130.41	4.05	-48.6	-60.6	3.6	1.51e+00	0	38	104	15728640	60	37814
2026-01-02 23:14:58.19	130.38	4.12	-43.5	-46.2	14.6	1.40e+00	0	38	104	15728640	58	8055
2026-01-02 23:14:59.16	130.35	4.19	-41.8	-43.5	17.1	0.00e+00	0	39	0	16777216	56	6637
2026-01-02 23:15:00.14	130.31	4.25	-41.0	-42.6	18.2	0.00e+00	0	38	0	19922944	56	5935
2026-01-02 23:15:01.12	130.28	4.32	-41.0	-42.6	17.9	0.00e+00	0	39	0	23068672	56	5946
2026-01-02 23:15:02.10	130.25	4.39	-41.1	-42.6	18.0	0.00e+00	0	38	0	25165824	54	6669
2026-01-02 23:15:03.08	130.22	4.45	-40.2	-41.6	18.9	0.00e+00	0	38	0	28311552	54	5974
2026-01-02 23:15:04.06	130.19	4.52	-40.6	-42.1	18.8	0.00e+00	0	38	0	31457280	54	6286
2026-01-02 23:15:05.04	130.16	4.59	-40.2	-41.6	19.0	0.00e+00	0	38	0	34603008	54	5945
2026-01-02 23:15:06.01	130.12	4.66	-39.7	-41.0	19.6	0.00e+00	0	38	0	37748736	52	6212
2026-01-02 23:15:06.99	130.09	4.72	-39.5	-40.7	19.9	0.00e+00	0	39	0	40894464	52	6032
2026-01-02 23:15:07.97	130.06	4.79	-39.8	-41.1	19.5	0.00e+00	0	38	0	44040192	52	6295
2026-01-02 23:15:08.95	130.03	4.86	-39.6	-40.9	19.7	0.00e+00	0	39	0	47185920	52	6176
2026-01-02 23:15:09.92	129.99	4.93	-39.4	-40.6	19.9	0.00e+00	0	39	0	50331648	52	5967
2026-01-02 23:15:10.90	129.96	4.99	-39.5	-40.7	19.9	0.00e+00	0	39	0	53477376	52	6037
2026-01-02 23:15:11.88	129.93	5.06	-39.2	-40.4	20.1	0.00e+00	0	39	0	56623104	52	5850
2026-01-02 23:15:12.85	129.89	5.13	-39.1	-40.3	20.2	0.00e+00	0	39	0	59768832	52	5759
2026-01-02 23:15:13.83	129.86	5.20	-39.3	-40.6	20.0	0.00e+00	0	38	0	61865984	52	5929
2026-01-02 23:15:14.81	129.83	5.27	-39.3	-40.5	19.9	0.00e+00	0	39	0	65011712	52	5916
2026-01-02 23:15:15.79	129.79	5.34	-39.1	-40.3	20.3	0.00e+00	0	39	0	68157440	52	5735
2026-01-02 23:15:16.77	129.76	5.41	-39.1	-40.3	20.3	0.00e+00	0	39	0	71303168	52	5771
2026-01-02 23:15:17.75	129.72	5.48	-38.9	-40.1	20.5	0.00e+00	0	38	0	74448896	52	5618
2026-01-02 23:15:18.72	129.69	5.55	-39.1	-40.3	20.3	0.00e+00	0	39	0	77594624	52	5769
2026-01-02 23:15:19.70	129.66	5.62	-39.2	-40.4	20.2	0.00e+00	0	39	0	80740352	52	5849
2026-01-02 23:15:20.67	129.62	5.69	-38.9	-40.1	20.5	0.00e+00	0	39	0	83886080	52	5604
2026-01-02 23:15:21.64	129.59	5.76	-39.0	-40.1	20.5	0.00e+00	0	39	0	87031808	52	5652
2026-01-02 23:15:22.62	129.55	5.83	-38.7	-39.9	20.7	0.00e+00	0	39	0	90177536	52	5499
2026-01-02 23:15:23.60	129.52	5.90	-38.8	-40.0	20.6	0.00e+00	0	39	0	93323264	50	6228
2026-01-02 23:15:24.59	129.48	5.97	-38.9	-40.0	20.7	0.00e+00	0	39	0	95420416	50	6266
2026-01-02 23:15:25.56	129.44	6.04	-38.8	-39.9	20.8	0.00e+00	0	39	0	98566144	50	6176
2026-01-02 23:15:26.54	129.41	6.11	-38.7	-39.9	20.8	0.00e+00	0	39	0	101711872	50	6149
2026-01-02 23:15:27.52	129.37	6.18	-38.5	-39.6	21.0	0.00e+00	0	39	0	104857600	50	5989
2026-01-02 23:15:28.50	129.34	6.25	-38.4	-39.6	21.1	0.00e+00	0	39	0	108003328	50	5942
2026-01-02 23:15:29.48	129.30	6.32	-38.5	-39.6	21.0	0.00e+00	0	39	0	111149056	50	5991
2026-01-02 23:15:30.45	129.26	6.39	-38.5	-39.6	21.0	0.00e+00	0	39	0	114294784	50	5959
2026-01-02 23:15:31.43	129.23	6.47	-38.4	-39.6	21.1	0.00e+00	0	39	0	117440512	50	5930
2026-01-02 23:15:32.41	129.19	6.54	-38.4	-39.5	21.1	0.00e+00	0	39	0	120586240	50	5896
2026-01-02 23:15:33.39	129.15	6.61	-38.5	-39.5	21.1	0.00e+00	0	39	0	123731968	50	5926
2026-01-02 23:15:34.37	129.11	6.68	-38.3	-39.4	21.2	0.00e+00	0	39	0	126877696	50	5845
2026-01-02 23:15:35.36	129.08	6.76	-38.3	-39.4	21.3	0.00e+00	0	39	0	130023424	50	5811
2026-01-02 23:15:36.34	129.04	6.83	-38.4	-39.5	21.1	0.00e+00	0	39	0	132120576	50	5910
2026-01-02 23:15:37.32	129.00	6.90	-38.4	-39.5	21.1	0.00e+00	0	39	0	135266304	50	5871
2026-01-02 23:15:38.30	128.96	6.98	-38.2	-39.3	21.3	0.00e+00	0	39	0	138412032	50	5741
2026-01-02 23:15:39.27	128.92	7.05	-38.3	-39.4	21.2	0.00e+00	0	39	0	141557760	50	5816
2026-01-02 23:15:40.25	128.89	7.12	-38.2	-39.4	21.2	0.00e+00	0	39	0	144703488	50	5793
2026-01-02 23:15:41.23	128.85	7.20	-38.1	-39.2	21.3	0.00e+00	0	39	0	147849216	50	5701
2026-01-02 23:15:42.21	128.81	7.27	-38.2	-39.3	21.2	0.00e+00	0	39	0	150994944	50	5772
2026-01-02 23:15:43.19	128.77	7.35	-38.3	-39.4	21.2	0.00e+00	0	39	0	154140672	50	5806
2026-01-02 23:15:44.17	128.73	7.42	-38.1	-39.1	21.4	0.00e+00	0	39	0	157286400	50	5648
2026-01-02 23:15:45.14	128.69	7.50	-38.0	-39.1	21.4	0.00e+00	0	39	0	160432128	50	5634
2026-01-02 23:15:46.12	128.65	7.57	-38.2	-39.2	21.2	0.00e+00	0	39	0	163577856	50	5723
2026-01-02 23:15:47.10	128.61	7.65	-38.1	-39.2	21.2	0.00e+00	0	39	0	166723584	50	5716
2026-01-02 23:15:48.08	128.57	7.72	-38.0	-39.1	21.5	0.00e+00	0	39	0	169869312	50	5625
2026-01-02 23:15:49.06	128.53	7.80	-37.9	-39.0	21.6	0.00e+00	0	39	0	171966464	50	5569
2026-01-02 23:15:50.04	128.49	7.87	-37.9	-39.0	21.6	0.00e+00	0	39	0	175112192	50	5567
2026-01-02 23:15:51.01	128.45	7.95	-37.9	-39.0	21.6	0.00e+00	0	39	0	178257920	50	5556
2026-01-02 23:15:51.99	128.40	8.02	-38.0	-39.1	21.6	0.00e+00	0	39	0	181403648	50	5608
2026-01-02 23:15:52.96	128.36	8.10	-38.2	-39.3	21.4	0.00e+00	0	39	0	184549376	50	5760
2026-01-02 23:15:53.94	128.32	8.18	-37.9	-38.9	21.6	0.00e+00	0	39	0	187695104	50	5517
2026-01-02 23:15:54.91	128.28	8.25	-37.7	-38.7	21.8	0.00e+00	0	39	0	190840832	48	6062
2026-01-02 23:15:55.89	128.24	8.33	-37.7	-38.7	21.8	0.00e+00	0	39	0	193986560	48	6061
2026-01-02 23:15:56.87	128.20	8.41	-37.7	-38.7	21.9	0.00e+00	0	39	0	197132288	48	6045
2026-01-02 23:15:57.85	128.15	8.49	-37.8	-38.9	21.7	0.00e+00	0	39	0	200278016	48	6169
2026-01-02 23:15:58.83	128.11	8.56	-37.6	-38.6	21.9	0.00e+00	0	39	0	203423744	48	5984
2026-01-02 23:15:59.80	128.07	8.64	-37.6	-38.7	21.8	0.00e+00	0	39	0	206569472	48	6012
2026-01-02 23:16:00.78	128.02	8.72	-37.6	-38.7	21.9	0.00e+00	0	39	0	208666624	48	6016
2026-01-02 23:16:01.75	127.98	8.80	-37.4	-38.5	22.1	0.00e+00	0	39	0	211812352	48	5868
2026-01-02 23:16:02.73	127.94	8.88	-37.6	-38.7	22.0	0.00e+00	0	39	0	214958080	48	6017
2026-01-02 23:16:03.71	127.89	8.95	-37.5	-38.5	22.1	0.00e+00	0	39	0	218103808	48	5892
2026-01-02 23:16:04.69	127.85	9.03	-37.5	-38.5	22.0	0.00e+00	0	39	0	221249536	48	5922
2026-01-02 23:16:05.66	127.80	9.11	-37.6	-38.7	22.0	0.00e+00	0	39	0	224395264	48	6015
2026-01-02 23:16:06.64	127.76	9.19	-37.2	-38.2	22.3	0.00e+00	0	39	0	227540992	48	5718
2026-01-02 23:16:07.62	127.71	9.27	-37.2	-38.2	22.2	0.00e+00	0	39	0	230686720	48	5712
2026-01-02 23:16:08.60	127.67	9.35	-37.4	-38.4	22.1	0.00e+00	0	39	0	233832448	48	5831
2026-01-02 23:16:09.58	127.62	9.43	-37.2	-38.2	22.3	0.00e+00	0	39	0	236978176	48	5711
2026-01-02 23:16:10.55	127.58	9.51	-37.3	-38.3	22.2	0.00e+00	0	39	0	240123904	48	5785
2026-01-02 23:16:11.54	127.53	9.59	-37.2	-38.2	22.3	0.00e+00	0	39	0	242221056	48	5721
2026-01-02 23:16:12.51	127.48	9.67	-37.3	-38.3	22.3	0.00e+00	0	39	0	245366784	48	5771
2026-01-02 23:16:13.49	127.44	9.76	-37.1	-38.1	22.4	0.00e+00	0	39	0	248512512	48	5655
2026-01-02 23:16:14.47	127.39	9.84	-37.1	-38.1	22.4	0.00e+00	0	39	0	251658240	48	5641
2026-01-02 23:16:15.45	127.34	9.92	-37.1	-38.1	22.5	0.00e+00	0	39	0	254803968	48	5629
2026-01-02 23:16:16.43	127.29	10.00	-37.2	-38.2	22.4	0.00e+00	0	39	0	257949696	48	5705
2026-01-02 23:16:17.41	127.24	10.08	-37.0	-38.0	22.6	0.00e+00	0	39	0	261095424	48	5576
2026-01-02 23:16:18.38	127.20	10.17	-37.1	-38.1	22.5	0.00e+00	0	39	0	264241152	48	5603
2026-01-02 23:16:19.36	127.15	10.25	-37.1	-38.1	22.5	0.00e+00	0	39	0	267386880	48	5632
2026-01-02 23:16:20.34	127.10	10.33	-37.1	-38.2	22.5	0.00e+00	0	39	0	270532608	48	5666
2026-01-02 23:16:21.31	127.05	10.41	-36.9	-37.9	22.7	0.00e+00	0	39	0	273678336	48	5505
2026-01-02 23:16:22.29	127.00	10.50	-36.9	-37.9	22.7	0.00e+00	0	39	0	275775488	48	5500
2026-01-02 23:16:23.28	126.95	10.58	-36.9	-37.9	22.7	0.00e+00	0	39	0	278921216	48	5526
2026-01-02 23:16:24.25	126.90	10.67	-36.9	-37.9	22.8	0.00e+00	0	39	0	282066944	48	5474
2026-01-02 23:16:25.23	126.85	10.75	-36.9	-37.9	22.8	0.00e+00	0	39	0	285212672	48	5483
2026-01-02 23:16:26.21	126.80	10.83	-36.8	-37.8	22.8	0.00e+00	0	39	0	288358400	48	5463
2026-01-02 23:16:27.19	126.75	10.92	-36.8	-37.8	22.8	0.00e+00	0	39	0	291504128	48	5449
2026-01-02 23:16:28.17	126.70	11.00	-36.7	-37.7	22.9	0.00e+00	0	39	0	294649856	48	5385
2026-01-02 23:16:29.15	126.65	11.09	-36.8	-37.8	22.9	0.00e+00	0	39	0	297795584	46	6076
2026-01-02 23:16:30.13	126.59	11.18	-36.9	-37.9	22.8	0.00e+00	0	39	0	300941312	46	6203
2026-01-02 23:16:31.11	126.54	11.26	-36.7	-37.7	23.0	0.00e+00	0	39	0	304087040	46	6014
2026-01-02 23:16:32.09	126.49	11.35	-36.6	-37.6	23.1	0.00e+00	0	39	0	307232768	46	5967
2026-01-02 23:16:33.06	126.44	11.43	-36.7	-37.7	23.0	0.00e+00	0	39	0	310378496	46	6033
2026-01-02 23:16:34.04	126.38	11.52	-36.6	-37.6	23.1	0.00e+00	0	39	0	312475648	46	5946
2026-01-02 23:16:35.02	126.33	11.61	-36.7	-37.7	23.0	0.00e+00	0	39	0	315621376	46	6015
2026-01-02 23:16:36.00	126.28	11.70	-36.7	-37.7	23.1	0.00e+00	0	39	0	318767104	46	6011
2026-01-02 23:16:36.98	126.22	11.78	-36.6	-37.5	23.2	0.00e+00	0	39	0	321912832	46	5905
2026-01-02 23:16:37.96	126.17	11.87	-36.5	-37.5	23.2	0.00e+00	0	39	0	325058560	46	5883
2026-01-02 23:16:38.94	126.11	11.96	-36.6	-37.6	23.1	0.00e+00	0	39	0	328204288	46	5946
2026-01-02 23:16:39.92	126.06	12.05	-36.5	-37.4	23.2	0.00e+00	0	39	0	331350016	46	5852
2026-01-02 23:16:40.91	126.00	12.14	-36.5	-37.5	23.2	0.00e+00	0	39	0	334495744	46	5875
2026-01-02 23:16:41.89	125.94	12.23	-36.5	-37.5	23.2	0.00e+00	0	39	0	337641472	46	5861
2026-01-02 23:16:42.87	125.89	12.32	-36.4	-37.4	23.3	0.00e+00	0	39	0	340787200	46	5816
2026-01-02 23:16:43.84	125.83	12.41	-36.4	-37.4	23.3	0.00e+00	0	39	0	343932928	46	5807
2026-01-02 23:16:44.82	125.77	12.50	-36.5	-37.4	23.3	0.00e+00	0	39	0	347078656	46	5824
2026-01-02 23:16:45.79	125.72	12.59	-36.4	-37.4	23.3	0.00e+00	0	39	0	349175808	46	5804
2026-01-02 23:16:46.77	125.66	12.68	-36.4	-37.3	23.4	0.00e+00	0	39	0	352321536	46	5784
2026-01-02 23:16:47.76	125.60	12.77	-36.4	-37.3	23.4	0.00e+00	0	39	0	355467264	46	5760
2026-01-02 23:16:48.73	125.54	12.86	-36.5	-37.4	23.2	0.00e+00	0	39	0	358612992	46	5836
2026-01-02 23:16:49.70	125.48	12.95	-36.5	-37.4	23.3	0.00e+00	0	39	0	361758720	46	5824
2026-01-02 23:16:50.68	125.43	13.04	-36.5	-37.4	23.4	0.00e+00	0	39	0	364904448	46	5826
2026-01-02 23:16:51.66	125.37	13.13	-36.4	-37.4	23.3	0.00e+00	0	39	0	368050176	46	5808
2026-01-02 23:16:52.64	125.31	13.23	-36.4	-37.3	23.4	0.00e+00	0	39	0	371195904	46	5771
2026-01-02 23:16:53.62	125.24	13.32	-36.4	-37.4	23.3	0.00e+00	0	39	0	374341632	46	5821
2026-01-02 23:16:54.59	125.18	13.41	-36.5	-37.5	23.2	0.00e+00	0	39	0	377487360	46	5892
2026-01-02 23:16:55.57	125.12	13.51	-36.3	-37.3	23.4	0.00e+00	0	39	0	380633088	46	5739
2026-01-02 23:16:56.54	125.06	13.60	-36.4	-37.4	23.4	0.00e+00	0	39	0	383778816	46	5822
2026-01-02 23:16:57.52	125.00	13.69	-36.5	-37.5	23.3	0.00e+00	0	39	0	385875968	46	5867
2026-01-02 23:16:58.50	124.94	13.79	-36.5	-37.5	23.3	0.00e+00	0	39	0	389021696	46	5878
2026-01-02 23:16:59.48	124.87	13.88	-36.4	-37.3	23.4	0.00e+00	0	39	0	392167424	46	5778
2026-01-02 23:17:00.46	124.81	13.98	-36.3	-37.3	23.4	0.00e+00	0	39	0	395313152	46	5755
2026-01-02 23:17:01.44	124.75	14.07	-36.4	-37.4	23.4	0.00e+00	0	39	0	398458880	46	5811
2026-01-02 23:17:02.42	124.68	14.17	-36.4	-37.4	23.4	0.00e+00	0	39	0	401604608	46	5800
2026-01-02 23:17:03.39	124.62	14.26	-36.4	-37.4	23.3	0.00e+00	0	39	0	404750336	46	5815
2026-01-02 23:17:04.37	124.55	14.36	-36.4	-37.4	23.4	0.00e+00	0	39	0	407896064	46	5793
2026-01-02 23:17:05.35	124.49	14.46	-36.4	-37.4	23.5	0.00e+00	0	39	0	411041792	46	5807
2026-01-02 23:17:06.33	124.42	14.55	-36.5	-37.4	23.4	0.00e+00	0	39	0	414187520	46	5844
2026-01-02 23:17:07.31	124.35	14.65	-36.3	-37.2	23.5	0.00e+00	0	39	0	417333248	46	5720
2026-01-02 23:17:08.29	124.29	14.75	-36.2	-37.2	23.5	0.00e+00	0	39	0	420478976	46	5689
2026-01-02 23:17:09.26	124.22	14.85	-36.4	-37.4	23.5	0.00e+00	0	39	0	423624704	46	5803
2026-01-02 23:17:10.24	124.15	14.95	-36.4	-37.4	23.4	0.00e+00	0	39	0	425721856	46	5793
2026-01-02 23:17:11.22	124.09	15.05	-36.4	-37.4	23.5	0.00e+00	0	39	0	428867584	46	5815
2026-01-02 23:17:12.20	124.02	15.14	-36.3	-37.3	23.6	0.00e+00	0	39	0	432013312	46	5747
2026-01-02 23:17:13.18	123.95	15.24	-36.3	-37.2	23.6	0.00e+00	0	39	0	435159040	46	5714
2026-01-02 23:17:14.16	123.88	15.34	-36.3	-37.2	23.6	0.00e+00	0	39	0	438304768	46	5715
2026-01-02 23:17:15.14	123.81	15.44	-36.3	-37.3	23.5	0.00e+00	0	39	0	441450496	46	5750
2026-01-02 23:17:16.12	123.74	15.55	-36.4	-37.3	23.5	0.00e+00	0	39	0	444596224	46	5790
2026-01-02 23:17:17.10	123.66	15.65	-36.4	-37.3	23.5	0.00e+00	0	39	0	447741952	46	5786
2026-01-02 23:17:18.08	123.59	15.75	-36.4	-37.4	23.5	0.00e+00	0	39	0	450887680	46	5821
2026-01-02 23:17:19.06	123.52	15.85	-36.6	-37.6	23.3	0.00e+00	0	39	0	454033408	46	5941
2026-01-02 23:17:20.04	123.45	15.95	-36.5	-37.4	23.4	0.00e+00	0	39	0	457179136	46	5851
2026-01-02 23:17:21.01	123.38	16.05	-36.7	-37.6	23.3	0.00e+00	0	39	0	460324864	46	5967
2026-01-02 23:17:21.99	123.30	16.16	-36.7	-37.6	23.4	0.00e+00	0	39	0	462422016	46	5963
2026-01-02 23:17:22.97	123.23	16.26	-36.5	-37.5	23.5	0.00e+00	0	39	0	465567744	46	5895
2026-01-02 23:17:23.95	123.15	16.37	-36.6	-37.6	23.3	0.00e+00	0	39	0	468713472	46	5976
2026-01-02 23:17:24.93	123.08	16.47	-36.7	-37.7	23.3	0.00e+00	0	39	0	471859200	46	5999
2026-01-02 23:17:25.91	123.00	16.57	-36.8	-37.8	23.2	0.00e+00	0	39	0	475004928	46	6101
2026-01-02 23:17:26.89	122.92	16.68	-36.8	-37.8	23.2	0.00e+00	0	39	0	478150656	46	6101
2026-01-02 23:17:27.86	122.85	16.78	-36.8	-37.7	23.3	0.00e+00	0	39	0	481296384	46	6043
2026-01-02 23:17:28.84	122.77	16.89	-36.9	-37.9	23.2	0.00e+00	0	39	0	484442112	46	6145
2026-01-02 23:17:29.83	122.69	17.00	-36.7	-37.7	23.3	0.00e+00	0	39	0	487587840	46	5998
2026-01-02 23:17:30.80	122.61	17.10	-36.8	-37.8	23.2	0.00e+00	0	39	0	490733568	46	6084
2026-01-02 23:17:31.78	122.53	17.21	-36.8	-37.8	23.2	0.00e+00	0	39	0	493879296	46	6089
2026-01-02 23:17:32.75	122.45	17.32	-36.9	-37.9	23.1	0.00e+00	0	39	0	497025024	46	6169
2026-01-02 23:17:33.73	122.37	17.42	-36.8	-37.7	23.2	0.00e+00	0	39	0	499122176	46	6045
2026-01-02 23:17:34.72	122.29	17.53	-36.8	-37.8	23.2	0.00e+00	0	39	0	502267904	46	6091
2026-01-02 23:17:35.69	122.21	17.64	-36.9	-37.8	23.2	0.00e+00	0	39	0	505413632	46	6112
2026-01-02 23:17:36.66	122.13	17.75	-36.9	-37.9	23.2	0.00e+00	0	39	0	508559360	46	6181
2026-01-02 23:17:37.64	122.05	17.86	-36.8	-37.7	23.3	0.00e+00	0	39	0	511705088	46	6057
2026-01-02 23:17:38.61	121.96	17.97	-36.7	-37.7	23.4	0.00e+00	0	39	0	514850816	46	6031
2026-01-02 23:17:39.59	121.88	18.08	-36.7	-37.6	23.4	0.00e+00	0	39	0	517996544	46	5988
2026-01-02 23:17:40.58	121.79	18.19	-36.7	-37.6	23.5	0.00e+00	0	39	0	521142272	46	5983
2026-01-02 23:17:41.56	121.71	18.30	-36.7	-37.7	23.4	0.00e+00	0	39	0	524288000	46	6018
2026-01-02 23:17:42.54	121.62	18.41	-36.7	-37.6	23.4	0.00e+00	0	39	0	527433728	46	5991
2026-01-02 23:17:43.52	121.54	18.53	-36.6	-37.5	23.5	0.00e+00	0	39	0	530579456	46	5895
2026-01-02 23:17:44.49	121.45	18.64	-36.8	-37.7	23.3	0.00e+00	0	39	0	532676608	46	6024
2026-01-02 23:17:45.47	121.36	18.75	-36.6	-37.5	23.5	0.00e+00	0	39	0	535822336	46	5906
2026-01-02 23:17:46.45	121.27	18.86	-36.5	-37.5	23.5	0.00e+00	0	39	0	538968064	46	5871
2026-01-02 23:17:47.43	121.18	18.98	-36.6	-37.5	23.5	0.00e+00	0	39	0	542113792	46	5886
2026-01-02 23:17:48.41	121.09	19.09	-36.7	-37.6	23.4	0.00e+00	0	39	0	545259520	46	5994
2026-01-02 23:17:49.39	121.00	19.21	-36.6	-37.5	23.5	0.00e+00	0	39	0	548405248	46	5897
2026-01-02 23:17:50.37	120.91	19.32	-36.6	-37.6	23.5	0.00e+00	0	39	0	551550976	46	5952
2026-01-02 23:17:51.35	120.82	19.44	-36.6	-37.5	23.5	0.00e+00	0	39	0	554696704	46	5904
2026-01-02 23:17:52.33	120.73	19.55	-36.6	-37.5	23.5	0.00e+00	0	39	0	557842432	46	5906
2026-01-02 23:17:53.31	120.63	19.67	-36.6	-37.5	23.5	0.00e+00	0	39	0	560988160	46	5922
2026-01-02 23:17:54.28	120.54	19.79	-36.4	-37.4	23.6	0.00e+00	0	39	0	564133888	46	5794
2026-01-02 23:17:55.26	120.44	19.90	-36.5	-37.4	23.5	0.00e+00	0	39	0	567279616	46	5849
2026-01-02 23:17:56.24	120.35	20.02	-36.3	-37.3	23.6	0.00e+00	0	39	0	569376768	46	5751
2026-01-02 23:17:57.22	120.25	20.14	-36.4	-37.3	23.6	0.00e+00	0	39	0	572522496	46	5780
2026-01-02 23:17:58.19	120.15	20.26	-36.3	-37.2	23.6	0.00e+00	0	39	0	575668224	46	5725
2026-01-02 23:17:59.17	120.06	20.38	-36.4	-37.4	23.5	0.00e+00	0	39	0	578813952	46	5810
2026-01-02 23:18:00.15	119.96	20.50	-36.4	-37.4	23.6	0.00e+00	0	39	0	581959680	46	5814
2026-01-02 23:18:01.13	119.86	20.62	-36.3	-37.2	23.7	0.00e+00	0	39	0	585105408	46	5683
2026-01-02 23:18:02.11	119.76	20.74	-36.2	-37.2	23.8	0.00e+00	0	39	0	588251136	46	5678
2026-01-02 23:18:03.09	119.65	20.86	-36.1	-37.0	23.9	0.00e+00	0	39	0	591396864	46	5552
2026-01-02 23:18:04.06	119.55	20.98	-36.1	-37.0	23.9	0.00e+00	0	39	0	594542592	46	5571
2026-01-02 23:18:05.04	119.45	21.10	-35.9	-36.8	24.1	0.00e+00	0	39	0	597688320	46	5467
2026-01-02 23:18:06.02	119.35	21.23	-35.9	-36.9	24.1	0.00e+00	0	39	0	600834048	46	5474
2026-01-02 23:18:06.99	119.24	21.35	-35.8	-36.7	24.1	0.00e+00	0	39	0	602931200	46	5363
2026-01-02 23:18:07.98	119.13	21.47	-35.7	-36.7	24.1	0.00e+00	0	39	0	606076928	44	5998
2026-01-02 23:18:08.95	119.03	21.60	-35.5	-36.5	24.3	0.00e+00	0	39	0	609222656	44	5865
2026-01-02 23:18:09.93	118.92	21.72	-35.6	-36.6	24.2	0.00e+00	0	39	0	612368384	44	5932
2026-01-02 23:18:10.91	118.81	21.85	-35.6	-36.6	24.2	0.00e+00	0	39	0	615514112	44	5928
2026-01-02 23:18:11.89	118.70	21.97	-35.5	-36.4	24.3	0.00e+00	0	39	0	618659840	44	5793
2026-01-02 23:18:12.87	118.59	22.10	-35.6	-36.5	24.2	0.00e+00	0	39	0	621805568	44	5899
2026-01-02 23:18:13.84	118.48	22.23	-35.5	-36.4	24.4	0.00e+00	0	39	0	624951296	44	5822
2026-01-02 23:18:14.82	118.37	22.35	-35.6	-36.5	24.3	0.00e+00	0	39	0	628097024	44	5910
2026-01-02 23:18:15.79	118.26	22.48	-35.4	-36.3	24.4	0.00e+00	0	39	0	631242752	44	5787
2026-01-02 23:18:16.77	118.15	22.61	-35.3	-36.2	24.6	0.00e+00	0	39	0	634388480	44	5700
2026-01-02 23:18:17.75	118.03	22.74	-35.4	-36.4	24.4	0.00e+00	0	39	0	637534208	44	5792
2026-01-02 23:18:18.72	117.92	22.87	-35.1	-36.0	24.7	0.00e+00	0	39	0	639631360	44	5581
2026-01-02 23:18:19.70	117.80	23.00	-35.2	-36.1	24.6	0.00e+00	0	39	0	642777088	44	5620
2026-01-02 23:18:20.68	117.68	23.13	-35.2	-36.1	24.6	0.00e+00	0	39	0	645922816	44	5639
2026-01-02 23:18:21.65	117.56	23.26	-35.2	-36.1	24.7	0.00e+00	0	39	0	649068544	44	5606
2026-01-02 23:18:22.64	117.44	23.39	-34.9	-35.7	24.9	0.00e+00	0	39	0	652214272	44	5401
2026-01-02 23:18:23.62	117.32	23.52	-34.9	-35.8	24.9	0.00e+00	0	39	0	655360000	44	5436
2026-01-02 23:18:24.59	117.20	23.65	-34.9	-35.8	24.9	0.00e+00	0	39	0	658505728	44	5451
2026-01-02 23:18:25.57	117.08	23.79	-35.0	-35.8	24.8	0.00e+00	0	39	0	661651456	44	5460
2026-01-02 23:18:26.55	116.96	23.92	-35.0	-35.9	24.7	0.00e+00	0	39	0	664797184	44	5516
2026-01-02 23:18:27.52	116.83	24.05	-35.0	-35.9	24.8	0.00e+00	0	39	0	667942912	44	5493
2026-01-02 23:18:28.50	116.70	24.19	-35.1	-35.9	24.7	0.00e+00	0	39	0	671088640	44	5525
2026-01-02 23:18:29.48	116.58	24.32	-35.2	-36.1	24.7	0.00e+00	0	39	0	674234368	44	5626
2026-01-02 23:18:30.45	116.45	24.46	-35.2	-36.1	24.7	0.00e+00	0	39	0	677380096	44	5637
2026-01-02 23:18:31.43	116.32	24.59	-35.1	-36.0	24.7	0.00e+00	0	39	0	679477248	44	5575
2026-01-02 23:18:32.41	116.19	24.73	-35.3	-36.2	24.6	0.00e+00	0	39	0	682622976	44	5673
2026-01-02 23:18:33.38	116.06	24.87	-35.4	-36.3	24.5	0.00e+00	0	39	0	685768704	44	5750
2026-01-02 23:18:34.36	115.93	25.00	-35.1	-36.0	24.7	0.00e+00	0	39	0	688914432	44	5578
2026-01-02 23:18:35.34	115.79	25.14	-35.2	-36.1	24.7	0.00e+00	0	39	0	692060160	44	5604
2026-01-02 23:18:36.32	115.66	25.28	-35.5	-36.3	24.5	0.00e+00	0	39	0	695205888	44	5776
2026-01-02 23:18:37.29	115.52	25.42	-35.4	-36.3	24.5	0.00e+00	0	39	0	698351616	44	5744
2026-01-02 23:18:38.27	115.38	25.56	-35.5	-36.4	24.4	0.00e+00	0	39	0	701497344	44	5833
2026-01-02 23:18:39.24	115.25	25.70	-35.5	-36.4	24.4	0.00e+00	0	39	0	704643072	44	5839
2026-01-02 23:18:40.22	115.11	25.84	-35.5	-36.4	24.4	0.00e+00	0	39	0	707788800	44	5835
2026-01-02 23:18:41.20	114.96	25.98	-35.7	-36.7	24.3	0.00e+00	0	39	0	709885952	44	5995
2026-01-02 23:18:42.17	114.82	26.13	-35.8	-36.7	24.2	0.00e+00	0	39	0	713031680	44	6026
2026-01-02 23:18:43.15	114.68	26.27	-35.9	-36.8	24.3	0.00e+00	0	39	0	716177408	44	6099
2026-01-02 23:18:44.13	114.53	26.41	-35.8	-36.7	24.2	0.00e+00	0	39	0	719323136	44	6064
2026-01-02 23:18:45.11	114.39	26.56	-36.0	-36.9	24.2	0.00e+00	0	39	0	722468864	44	6177
2026-01-02 23:18:46.09	114.24	26.70	-36.0	-36.9	24.1	0.00e+00	0	39	0	725614592	44	6187
2026-01-02 23:18:47.07	114.09	26.85	-36.1	-37.1	24.0	0.00e+00	0	39	0	728760320	44	6284
2026-01-02 23:18:48.05	113.94	26.99	-36.1	-37.0	24.0	0.00e+00	0	39	0	731906048	44	6273
2026-01-02 23:18:49.03	113.78	27.14	-36.1	-37.0	24.1	0.00e+00	0	39	0	735051776	44	6230
2026-01-02 23:18:50.01	113.63	27.29	-36.2	-37.1	24.0	0.00e+00	0	39	0	738197504	44	6341
2026-01-02 23:18:50.98	113.48	27.43	-36.3	-37.2	23.9	0.00e+00	0	39	0	741343232	44	6408
2026-01-02 23:18:51.96	113.32	27.58	-36.3	-37.2	23.9	0.00e+00	0	39	0	744488960	44	6421
2026-01-02 23:18:52.94	113.16	27.73	-36.2	-37.1	23.9	0.00e+00	0	39	0	746586112	44	6315
2026-01-02 23:18:53.92	113.00	27.88	-36.3	-37.2	23.9	0.00e+00	0	39	0	749731840	44	6378
2026-01-02 23:18:54.90	112.84	28.03	-36.2	-37.1	23.9	0.00e+00	0	39	0	752877568	44	6348
2026-01-02 23:18:55.88	112.68	28.18	-36.2	-37.2	23.8	0.00e+00	0	39	0	756023296	44	6368
2026-01-02 23:18:56.85	112.51	28.33	-36.2	-37.2	23.8	0.00e+00	0	39	0	759169024	44	6372
2026-01-02 23:18:57.83	112.35	28.48	-36.4	-37.3	23.7	0.00e+00	0	39	0	762314752	44	6490
2026-01-02 23:18:58.82	112.18	28.63	-36.3	-37.2	23.7	0.00e+00	0	39	0	765460480	44	6407
2026-01-02 23:18:59.79	112.01	28.78	-36.6	-37.5	23.5	0.00e+00	0	39	0	768606208	44	6626
2026-01-02 23:19:00.77	111.84	28.93	-36.6	-37.5	23.6	0.00e+00	0	39	0	771751936	44	6634
2026-01-02 23:19:01.75	111.67	29.09	-36.6	-37.5	23.6	0.00e+00	0	39	0	774897664	44	6636
2026-01-02 23:19:02.73	111.49	29.24	-36.5	-37.4	23.8	0.00e+00	0	39	0	778043392	44	6523
2026-01-02 23:19:03.70	111.32	29.40	-36.4	-37.4	23.9	0.00e+00	0	39	0	781189120	44	6504
2026-01-02 23:19:04.68	111.14	29.55	-36.4	-37.3	23.9	0.00e+00	0	39	0	783286272	44	6464
2026-01-02 23:19:05.66	110.96	29.71	-36.5	-37.5	23.8	0.00e+00	0	39	0	786432000	44	6575
2026-01-02 23:19:06.64	110.78	29.86	-36.1	-37.0	24.2	0.00e+00	0	39	0	789577728	44	6240
2026-01-02 23:19:07.62	110.60	30.02	-36.2	-37.1	24.1	0.00e+00	0	39	0	792723456	44	6339
2026-01-02 23:19:08.61	110.41	30.18	-36.1	-37.0	24.1	0.00e+00	0	39	0	795869184	44	6266
2026-01-02 23:19:09.59	110.22	30.34	-36.1	-37.1	24.0	0.00e+00	0	39	0	799014912	44	6284
2026-01-02 23:19:10.57	110.04	30.49	-36.2	-37.1	23.8	0.00e+00	0	39	0	802160640	44	6340
2026-01-02 23:19:11.55	109.85	30.65	-36.3	-37.2	23.7	0.00e+00	0	39	0	805306368	44	6393
2026-01-02 23:19:12.53	109.65	30.81	-36.3	-37.2	23.8	0.00e+00	0	39	0	808452096	44	6418
2026-01-02 23:19:13.51	109.46	30.97	-36.4	-37.3	23.8	0.00e+00	0	39	0	811597824	44	6463
2026-01-02 23:19:14.49	109.26	31.13	-36.4	-37.4	23.7	0.00e+00	0	39	0	814743552	44	6526
2026-01-02 23:19:15.46	109.07	31.29	-36.6	-37.6	23.7	0.00e+00	0	39	0	817889280	44	6658
2026-01-02 23:19:16.44	108.87	31.45	-36.6	-37.5	23.7	0.00e+00	0	39	0	819986432	44	6628
2026-01-02 23:19:17.42	108.66	31.62	-36.6	-37.5	23.7	0.00e+00	0	39	0	823132160	44	6636
2026-01-02 23:19:18.40	108.46	31.78	-36.7	-37.7	23.6	0.00e+00	0	39	0	826277888	46	6025
2026-01-02 23:19:19.38	108.25	31.94	-36.9	-37.8	23.5	0.00e+00	0	39	0	829423616	46	6112
2026-01-02 23:19:20.35	108.05	32.10	-36.7	-37.6	23.6	0.00e+00	0	39	0	832569344	46	5983
2026-01-02 23:19:21.33	107.84	32.27	-36.8	-37.7	23.6	0.00e+00	0	39	0	835715072	46	6033
2026-01-02 23:19:22.31	107.62	32.43	-36.8	-37.7	23.6	0.00e+00	0	39	0	838860800	46	6052
2026-01-02 23:19:23.30	107.41	32.60	-36.6	-37.5	23.7	0.00e+00	0	39	0	842006528	46	5892
2026-01-02 23:19:24.28	107.19	32.76	-36.6	-37.6	23.6	0.00e+00	0	39	0	845152256	46	5939
2026-01-02 23:19:25.26	106.97	32.93	-36.8	-37.8	23.5	0.00e+00	0	39	0	848297984	46	6093
2026-01-02 23:19:26.24	106.75	33.09	-36.8	-37.8	23.5	0.00e+00	0	39	0	851443712	46	6091
2026-01-02 23:19:27.22	106.53	33.26	-36.9	-37.8	23.5	0.00e+00	0	39	0	854589440	46	6114
2026-01-02 23:19:28.20	106.30	33.43	-37.0	-38.0	23.4	0.00e+00	0	39	0	856686592	46	6229
2026-01-02 23:19:29.18	106.07	33.59	-37.1	-38.0	23.4	0.00e+00	0	39	0	859832320	46	6259
2026-01-02 23:19:30.16	105.84	33.76	-37.2	-38.1	23.2	0.00e+00	0	39	0	862978048	46	6346
2026-01-02 23:19:31.13	105.61	33.93	-37.1	-38.1	23.3	0.00e+00	0	39	0	866123776	46	6280
2026-01-02 23:19:32.11	105.37	34.09	-37.2	-38.2	23.3	0.00e+00	0	39	0	869269504	46	6354
2026-01-02 23:19:33.09	105.14	34.26	-37.2	-38.1	23.3	0.00e+00	0	39	0	872415232	46	6347
2026-01-02 23:19:34.07	104.89	34.43	-37.2	-38.1	23.3	0.00e+00	0	39	0	875560960	46	6318
2026-01-02 23:19:35.05	104.65	34.60	-37.2	-38.2	23.2	0.00e+00	0	39	0	878706688	46	6371
2026-01-02 23:19:36.03	104.41	34.77	-37.4	-38.3	23.1	0.00e+00	0	39	0	881852416	46	6471
2026-01-02 23:19:37.02	104.15	34.94	-37.3	-38.2	23.2	0.00e+00	0	39	0	884998144	46	6390
2026-01-02 23:19:38.00	103.90	35.11	-37.5	-38.5	22.9	0.00e+00	0	39	0	888143872	46	6622
2026-01-02 23:19:38.98	103.65	35.28	-37.7	-38.7	22.9	0.00e+00	0	39	0	891289600	46	6780
2026-01-02 23:19:39.96	103.39	35.45	-37.6	-38.5	23.0	0.00e+00	0	39	0	894435328	48	5920
2026-01-02 23:19:40.94	103.13	35.62	-37.5	-38.5	23.0	0.00e+00	0	39	0	896532480	48	5873
2026-01-02 23:19:41.92	102.87	35.79	-37.6	-38.6	22.9	0.00e+00	0	39	0	899678208	48	5931
2026-01-02 23:19:42.89	102.61	35.96	-37.6	-38.6	22.9	0.00e+00	0	39	0	902823936	48	5949
2026-01-02 23:19:43.87	102.34	36.14	-37.7	-38.7	22.8	0.00e+00	0	39	0	905969664	48	6003
2026-01-02 23:19:44.85	102.07	36.31	-37.8	-38.8	22.7	0.00e+00	0	39	0	909115392	48	6080
2026-01-02 23:19:45.82	101.80	36.48	-38.0	-39.0	22.4	0.00e+00	0	39	0	912261120	48	6232
2026-01-02 23:19:46.81	101.52	36.65	-38.0	-39.0	22.4	0.00e+00	0	39	0	915406848	48	6274
2026-01-02 23:19:47.78	101.25	36.82	-37.9	-38.9	22.6	0.00e+00	0	39	0	918552576	48	6202
2026-01-02 23:19:48.76	100.97	36.99	-37.9	-38.9	22.6	0.00e+00	0	39	0	921698304	48	6187
2026-01-02 23:19:49.74	100.68	37.17	-38.0	-39.0	22.5	0.00e+00	0	39	0	924844032	48	6251
2026-01-02 23:19:50.72	100.39	37.34	-38.0	-39.0	22.5	0.00e+00	0	39	0	927989760	48	6264
2026-01-02 23:19:51.69	100.10	37.51	-37.9	-38.9	22.6	0.00e+00	0	39	0	931135488	48	6171
2026-01-02 23:19:52.67	99.81	37.68	-37.9	-38.9	22.7	0.00e+00	0	39	0	933232640	48	6187
2026-01-02 23:19:53.65	99.51	37.85	-37.9	-38.9	22.7	0.00e+00	0	39	0	936378368	48	6147
2026-01-02 23:19:54.63	99.21	38.03	-37.8	-38.8	22.7	0.00e+00	0	39	0	939524096	48	6068
2026-01-02 23:19:55.61	98.91	38.20	-37.9	-38.8	22.8	0.00e+00	0	39	0	942669824	48	6123
2026-01-02 23:19:56.59	98.60	38.37	-37.7	-38.7	22.8	0.00e+00	0	39	0	945815552	48	6050
2026-01-02 23:19:57.56	98.29	38.54	-37.9	-38.9	22.7	0.00e+00	0	39	0	948961280	48	6154
2026-01-02 23:19:58.55	97.98	38.72	-37.7	-38.7	22.9	0.00e+00	0	39	0	952107008	48	6046
2026-01-02 23:19:59.52	97.66	38.89	-37.7	-38.7	22.9	0.00e+00	0	39	0	955252736	48	6027
2026-01-02 23:20:00.50	97.34	39.06	-37.5	-38.5	23.0	0.00e+00	0	39	0	958398464	48	5900
2026-01-02 23:20:01.49	97.02	39.23	-37.3	-38.3	23.2	0.00e+00	0	39	0	961544192	48	5746
2026-01-02 23:20:02.47	96.69	39.40	-37.5	-38.5	23.1	0.00e+00	0	39	0	964689920	48	5859
2026-01-02 23:20:03.45	96.36	39.58	-37.6	-38.6	22.9	0.00e+00	0	39	0	967835648	48	5942
2026-01-02 23:20:04.43	96.02	39.75	-37.6	-38.6	22.8	0.00e+00	0	39	0	970981376	48	5956
2026-01-02 23:20:05.41	95.69	39.92	-37.7	-38.6	22.8	0.00e+00	0	39	0	973078528	48	5984
2026-01-02 23:20:06.38	95.35	40.09	-37.9	-38.8	22.7	0.00e+00	0	39	0	976224256	48	6134
2026-01-02 23:20:07.36	95.00	40.26	-38.0	-39.0	22.6	0.00e+00	0	39	0	979369984	48	6225
2026-01-02 23:20:08.34	94.66	40.43	-38.0	-39.0	22.6	0.00e+00	0	39	0	982515712	48	6269
2026-01-02 23:20:09.31	94.31	40.59	-38.3	-39.3	22.3	0.00e+00	0	40	0	985661440	48	6475
2026-01-02 23:20:10.29	93.95	40.76	-38.5	-39.5	22.2	0.00e+00	0	39	0	988807168	48	6621
2026-01-02 23:20:11.27	93.59	40.93	-38.5	-39.5	22.2	0.00e+00	0	39	0	991952896	48	6648
2026-01-02 23:20:12.25	93.23	41.10	-38.8	-39.8	21.9	0.00e+00	0	39	0	995098624	48	6879
2026-01-02 23:20:13.23	92.86	41.27	-39.0	-40.1	21.7	0.00e+00	0	39	0	998244352	50	6311
2026-01-02 23:20:14.21	92.49	41.43	-39.3	-40.4	21.4	0.00e+00	0	39	0	1001390080	50	6555
2026-01-02 23:20:15.18	92.12	41.60	-39.3	-40.4	21.3	0.00e+00	0	39	0	1004535808	50	6546
2026-01-02 23:20:16.16	91.74	41.76	-39.5	-40.6	21.2	0.00e+00	0	39	0	1007681536	50	6722
2026-01-02 23:20:17.15	91.35	41.93	-39.5	-40.6	21.3	0.00e+00	0	39	0	1009778688	50	6709
2026-01-02 23:20:18.13	90.96	42.09	-39.6	-40.7	21.2	0.00e+00	0	39	0	1012924416	50	6774
2026-01-02 23:20:19.11	90.57	42.26	-39.7	-40.8	21.1	0.00e+00	0	39	0	1016070144	50	6855
2026-01-02 23:20:20.09	90.18	42.42	-39.8	-40.9	21.0	0.00e+00	0	39	0	1019215872	52	6187
2026-01-02 23:20:21.07	89.78	42.58	-39.8	-41.0	21.0	0.00e+00	0	39	0	1022361600	52	6210
2026-01-02 23:20:22.05	89.38	42.74	-40.0	-41.1	20.8	0.00e+00	0	39	0	1025507328	52	6313
2026-01-02 23:20:23.03	88.97	42.90	-40.1	-41.2	20.8	0.00e+00	0	39	0	1028653056	52	6420
2026-01-02 23:20:24.01	88.56	43.06	-39.9	-41.1	20.8	0.00e+00	0	39	0	1031798784	52	6309
2026-01-02 23:20:24.99	88.15	43.22	-39.7	-40.8	21.2	0.00e+00	0	39	0	1034944512	52	6095
2026-01-02 23:20:25.98	87.72	43.38	-39.2	-40.2	21.7	0.00e+00	0	39	0	1038090240	52	5717
2026-01-02 23:20:26.96	87.30	43.53	-39.2	-40.3	21.5	0.00e+00	0	39	0	1041235968	52	5765
2026-01-02 23:20:27.95	86.87	43.69	-38.6	-39.7	22.1	0.00e+00	0	39	0	1044381696	52	5346
2026-01-02 23:20:28.93	86.44	43.84	-38.4	-39.4	22.3	0.00e+00	0	39	0	1047527424	50	5847
2026-01-02 23:20:29.92	86.00	44.00	-38.5	-39.5	22.2	0.00e+00	0	39	0	1050673152	50	5885
2026-01-02 23:20:30.91	85.55	44.15	-38.8	-39.9	21.8	0.00e+00	0	39	0	1052770304	50	6139
2026-01-02 23:20:31.89	85.11	44.30	-38.9	-40.0	21.7	0.00e+00	0	39	0	1055916032	50	6225
2026-01-02 23:20:32.87	84.66	44.45	-39.0	-40.1	21.7	0.00e+00	0	39	0	1059061760	50	6330
2026-01-02 23:20:33.85	84.21	44.59	-39.2	-40.3	21.4	0.00e+00	0	39	0	1062207488	50	6495
2026-01-02 23:20:34.83	83.75	44.74	-39.3	-40.4	21.4	0.00e+00	0	39	0	1065353216	50	6550
2026-01-02 23:20:35.81	83.29	44.88	-39.2	-40.3	21.5	0.00e+00	0	39	0	1068498944	50	6438
2026-01-02 23:20:36.80	82.82	45.02	-39.1	-40.1	21.6	0.00e+00	0	39	0	1071644672	50	6340
2026-01-02 23:20:37.78	82.35	45.16	-39.1	-40.2	21.8	0.00e+00	0	39	0	1074790400	50	6356
2026-01-02 23:20:38.76	81.88	45.30	-38.6	-39.6	22.2	0.00e+00	0	39	0	1077936128	50	5979
2026-01-02 23:20:39.74	81.40	45.44	-38.4	-39.3	22.3	0.00e+00	0	39	0	1081081856	50	5772
2026-01-02 23:20:40.72	80.92	45.57	-38.6	-39.7	22.1	0.00e+00	0	39	0	1084227584	50	6002
2026-01-02 23:20:41.71	80.43	45.71	-38.8	-39.8	21.9	0.00e+00	0	39	0	1087373312	50	6132
2026-01-02 23:20:42.70	79.93	45.84	-38.8	-39.8	21.9	0.00e+00	0	39	0	1090519040	50	6123
2026-01-02 23:20:43.70	79.43	45.97	-38.4	-39.4	22.4	0.00e+00	0	39	0	1092616192	50	5824
2026-01-02 23:20:44.68	78.93	46.10	-38.4	-39.4	22.2	0.00e+00	0	39	0	1095761920	50	5846
2026-01-02 23:20:45.67	78.42	46.23	-38.3	-39.3	22.2	0.00e+00	0	39	0	1098907648	50	5776
2026-01-02 23:20:46.66	77.91	46.35	-38.8	-39.9	21.8	0.00e+00	0	40	0	1102053376	50	6148
2026-01-02 23:20:47.65	77.39	46.48	-39.0	-40.0	21.7	0.00e+00	0	39	0	1105199104	50	6252
2026-01-02 23:20:48.64	76.87	46.60	-38.9	-40.0	21.6	0.00e+00	0	39	0	1108344832	50	6206
2026-01-02 23:20:49.62	76.36	46.71	-39.0	-40.1	21.7	0.00e+00	0	40	0	1111490560	50	6343
2026-01-02 23:20:50.60	75.83	46.83	-38.9	-40.0	21.8	0.00e+00	0	39	0	1114636288	50	6241
2026-01-02 23:20:51.59	75.30	46.94	-38.9	-40.0	21.6	0.00e+00	0	39	0	1117782016	50	6239
2026-01-02 23:20:52.57	74.77	47.05	-39.5	-40.6	21.2	0.00e+00	0	39	0	1120927744	50	6693
2026-01-02 23:20:53.56	74.24	47.16	-39.3	-40.3	21.5	0.00e+00	0	39	0	1124073472	50	6495
2026-01-02 23:20:54.54	73.70	47.26	-38.7	-39.7	22.1	0.00e+00	0	39	0	1127219200	50	6056
2026-01-02 23:20:55.54	73.15	47.37	-38.9	-40.0	21.6	0.00e+00	0	39	0	1130364928	50	6211
2026-01-02 23:20:56.54	72.59	47.47	-39.5	-40.7	21.2	0.00e+00	0	40	0	1133510656	50	6744
2026-01-02 23:20:57.53	72.04	47.57	-39.6	-40.7	21.2	0.00e+00	0	39	0	1136656384	52	6058
2026-01-02 23:20:58.53	71.48	47.66	-39.6	-40.7	21.2	0.00e+00	0	39	0	1139802112	52	6064
2026-01-02 23:20:59.54	70.90	47.76	-39.1	-40.1	21.6	0.00e+00	0	39	0	1142947840	52	5643
2026-01-02 23:21:00.54	70.34	47.85	-38.8	-39.8	22.0	0.00e+00	0	40	0	1146093568	52	5432
2026-01-02 23:21:01.54	69.76	47.94	-38.8	-39.9	21.9	0.00e+00	0	39	0	1149239296	50	6142
2026-01-02 23:21:02.55	69.18	48.02	-38.5	-39.5	22.2	0.00e+00	0	40	0	1152385024	50	5873
2026-01-02 23:21:03.56	68.60	48.10	-38.1	-39.0	22.6	0.00e+00	0	40	0	1155530752	50	5587
2026-01-02 23:21:04.55	68.02	48.18	-38.1	-39.1	22.6	0.00e+00	0	40	0	1158676480	50	5626
2026-01-02 23:21:05.55	67.44	48.26	-38.0	-39.0	22.6	0.00e+00	0	39	0	1161822208	50	5549
2026-01-02 23:21:06.55	66.85	48.33	-38.1	-39.1	22.5	0.00e+00	0	39	0	1164967936	50	5618
2026-01-02 23:21:07.55	66.26	48.40	-38.3	-39.3	22.6	0.00e+00	0	39	0	1168113664	50	5735
2026-01-02 23:21:08.54	65.67	48.46	-38.0	-38.9	22.7	0.00e+00	0	40	0	1171259392	50	5523
2026-01-02 23:21:09.55	65.07	48.53	-38.0	-38.9	22.7	0.00e+00	0	40	0	1174405120	50	5509
2026-01-02 23:21:10.54	64.48	48.59	-38.6	-39.6	22.2	0.00e+00	0	40	0	1177550848	50	5970
2026-01-02 23:21:11.54	63.88	48.64	-38.9	-40.0	21.8	0.00e+00	0	40	0	1179648000	50	6244
2026-01-02 23:21:12.53	63.28	48.69	-39.6	-40.7	21.3	0.00e+00	0	39	0	1182793728	50	6772
2026-01-02 23:21:13.53	62.68	48.74	-39.1	-40.1	21.8	0.00e+00	0	40	0	1185939456	50	6328
2026-01-02 23:21:14.53	62.07	48.79	-39.0	-40.0	21.8	0.00e+00	0	40	0	1189085184	50	6277
2026-01-02 23:21:15.53	61.47	48.83	-39.1	-40.2	21.7	0.00e+00	0	39	0	1192230912	50	6402
2026-01-02 23:21:16.53	60.86	48.87	-38.8	-39.8	21.9	0.00e+00	0	40	0	1195376640	50	6134
2026-01-02 23:21:17.53	60.25	48.91	-39.0	-40.1	21.6	0.00e+00	0	39	0	1198522368	50	6327
2026-01-02 23:21:18.53	59.64	48.94	-38.9	-40.0	21.9	0.00e+00	0	40	0	1201668096	50	6218
2026-01-02 23:21:19.54	59.02	48.97	-38.8	-39.9	21.9	0.00e+00	0	40	0	1204813824	50	6147
2026-01-02 23:21:20.55	58.40	48.99	-38.9	-40.0	21.9	0.00e+00	0	40	0	1207959552	50	6252
2026-01-02 23:21:21.56	57.77	49.02	-38.5	-39.5	22.1	0.00e+00	0	40	0	1211105280	50	5902
2026-01-02 23:21:22.57	57.15	49.03	-38.1	-39.1	22.4	0.00e+00	0	39	0	1214251008	50	5645
2026-01-02 23:21:23.58	56.53	49.05	-37.8	-38.8	22.6	0.00e+00	0	40	0	1217396736	50	5446
2026-01-02 23:21:24.59	55.91	49.06	-38.0	-39.1	22.4	0.00e+00	0	40	0	1220542464	50	5598
2026-01-02 23:21:25.60	55.28	49.07	-38.6	-39.7	21.9	0.00e+00	0	40	0	1224736768	50	5998
2026-01-02 23:21:26.61	54.66	49.07	-38.5	-39.5	22.1	0.00e+00	0	40	0	1226833920	50	5917
2026-01-02 23:21:27.62	54.04	49.07	-37.8	-38.8	22.7	0.00e+00	0	39	0	1229979648	50	5449
2026-01-02 23:21:28.63	53.41	49.07	-37.7	-38.6	23.0	0.00e+00	0	40	0	1233125376	48	5959
2026-01-02 23:21:29.64	52.79	49.06	-37.6	-38.6	23.0	0.00e+00	0	40	0	1236271104	48	5971
2026-01-02 23:21:30.65	52.17	49.05	-37.7	-38.7	22.8	0.00e+00	0	40	0	1239416832	48	6027
2026-01-02 23:21:31.66	51.54	49.03	-37.7	-38.6	23.0	0.00e+00	0	40	0	1243611136	48	5989
2026-01-02 23:21:32.67	50.92	49.01	-37.5	-38.4	23.1	0.00e+00	0	40	0	1246756864	48	5846
2026-01-02 23:21:33.67	50.31	48.99	-37.7	-38.7	22.9	0.00e+00	0	40	0	1248854016	48	6007
2026-01-02 23:21:34.68	49.69	48.97	-38.3	-39.3	22.4	0.00e+00	0	40	0	1251999744	48	6475
2026-01-02 23:21:35.70	49.06	48.94	-38.6	-39.6	22.1	0.00e+00	0	40	0	1255145472	48	6710
2026-01-02 23:21:36.70	48.45	48.91	-38.8	-39.9	21.9	0.00e+00	0	40	0	1259339776	50	6143
2026-01-02 23:21:37.71	47.83	48.87	-38.8	-39.9	21.9	0.00e+00	0	40	0	1262485504	50	6169
2026-01-02 23:21:38.72	47.22	48.83	-38.8	-39.9	21.8	0.00e+00	0	40	0	1265631232	50	6170
2026-01-02 23:21:39.73	46.60	48.79	-39.0	-40.1	21.8	0.00e+00	0	40	0	1268776960	50	6313
2026-01-02 23:21:40.75	45.99	48.74	-39.3	-40.4	21.5	0.00e+00	0	40	0	1271922688	50	6540
2026-01-02 23:21:41.76	45.38	48.69	-39.4	-40.5	21.3	0.00e+00	0	40	0	1275068416	50	6597
2026-01-02 23:21:42.77	44.77	48.64	-39.2	-40.4	21.7	0.00e+00	0	40	0	1278214144	50	6508
2026-01-02 23:21:43.78	44.17	48.58	-38.8	-39.9	21.9	0.00e+00	0	40	0	1281359872	50	6167
2026-01-02 23:21:44.79	43.56	48.52	-38.8	-39.9	22.0	0.00e+00	0	40	0	1284505600	50	6169
2026-01-02 23:21:45.80	42.96	48.45	-38.5	-39.6	22.3	0.00e+00	0	40	0	1287651328	50	5935
2026-01-02 23:21:46.81	42.37	48.39	-38.6	-39.6	22.2	0.00e+00	0	40	0	1290797056	50	5951
2026-01-02 23:21:47.82	41.77	48.32	-38.6	-39.6	22.2	0.00e+00	0	40	0	1293942784	50	5989
2026-01-02 23:21:48.83	41.18	48.24	-38.3	-39.3	22.5	0.00e+00	0	40	0	1297088512	50	5736
2026-01-02 23:21:49.84	40.59	48.17	-38.5	-39.5	22.2	0.00e+00	0	40	0	1300234240	50	5868
2026-01-02 23:21:50.85	40.00	48.09	-38.6	-39.7	22.0	0.00e+00	0	40	0	1303379968	50	6018
2026-01-02 23:21:51.86	39.42	48.00	-38.7	-39.7	21.9	0.00e+00	0	40	0	1306525696	50	6030
2026-01-02 23:21:52.87	38.84	47.92	-38.4	-39.4	22.2	0.00e+00	0	40	0	1309671424	50	5849
2026-01-02 23:21:53.88	38.26	47.83	-38.1	-39.0	22.6	0.00e+00	0	40	0	1312817152	50	5585
2026-01-02 23:21:54.89	37.69	47.74	-37.9	-38.8	22.8	0.00e+00	0	40	0	1315962880	50	5460
2026-01-02 23:21:55.90	37.12	47.64	-38.1	-39.1	22.7	0.00e+00	0	40	0	1319108608	50	5620
2026-01-02 23:21:56.91	36.55	47.54	-38.0	-39.0	22.7	0.00e+00	0	40	0	1322254336	50	5565
2026-01-02 23:21:57.92	35.99	47.44	-38.4	-39.4	22.4	0.00e+00	0	40	0	1325400064	50	5820
2026-01-02 23:21:58.93	35.43	47.34	-38.4	-39.4	22.2	0.00e+00	0	40	0	1328545792	50	5829
2026-01-02 23:21:59.94	34.88	47.23	-38.2	-39.3	22.1	0.00e+00	0	40	0	1331691520	50	5740
2026-01-02 23:22:00.95	34.32	47.13	-38.2	-39.2	22.0	0.00e+00	0	40	0	1334837248	50	5699
2026-01-02 23:22:01.96	33.78	47.02	-38.4	-39.4	22.3	0.00e+00	0	40	0	1337982976	50	5813
2026-01-02 23:22:02.97	33.23	46.90	-38.2	-39.2	22.5	0.00e+00	0	40	0	1341128704	50	5669
2026-01-02 23:22:03.98	32.69	46.79	-38.4	-39.4	22.1	0.00e+00	0	40	0	1344274432	50	5849
2026-01-02 23:22:04.99	32.16	46.67	-39.3	-40.4	21.1	0.00e+00	0	40	0	1347420160	50	6573
2026-01-02 23:22:06.00	31.63	46.55	-39.3	-40.4	21.3	0.00e+00	0	40	0	1350565888	50	6557
2026-01-02 23:22:07.01	31.10	46.42	-38.9	-40.0	21.8	0.00e+00	0	40	0	1353711616	50	6237
2026-01-02 23:22:08.02	30.58	46.30	-38.4	-39.4	22.3	0.00e+00	0	40	0	1356857344	50	5838
2026-01-02 23:22:09.03	30.06	46.17	-37.7	-38.6	22.9	0.00e+00	0	40	0	1360003072	48	5985
2026-01-02 23:22:10.03	29.55	46.04	-37.7	-38.7	22.9	0.00e+00	0	40	0	1363148800	48	6032
2026-01-02 23:22:11.04	29.04	45.91	-38.5	-39.5	22.3	0.00e+00	0	40	0	1366294528	48	6597
2026-01-02 23:22:12.05	28.53	45.77	-39.5	-40.6	21.4	0.00e+00	0	40	0	1369440256	50	6706
2026-01-02 23:22:13.06	28.03	45.64	-39.9	-41.1	20.8	0.00e+00	0	40	0	1372585984	52	6309
2026-01-02 23:22:14.07	27.53	45.50	-39.7	-40.9	20.9	0.00e+00	0	40	0	1375731712	52	6159
2026-01-02 23:22:15.08	27.04	45.36	-38.7	-39.8	21.9	0.00e+00	0	40	0	1378877440	52	5420
2026-01-02 23:22:16.09	26.55	45.22	-37.8	-38.7	23.0	0.00e+00	0	40	0	1382023168	50	5380
2026-01-02 23:22:17.10	26.07	45.07	-37.6	-38.6	22.9	0.00e+00	0	40	0	1385168896	48	5927
2026-01-02 23:22:18.11	25.59	44.93	-38.7	-39.8	22.1	0.00e+00	0	40	0	1388314624	48	6829
2026-01-02 23:22:19.12	25.11	44.78	-39.9	-41.1	20.9	0.00e+00	0	40	0	1391460352	52	6288
2026-01-02 23:22:20.13	24.64	44.63	-40.1	-41.2	20.5	0.00e+00	0	40	0	1394606080	52	6417
2026-01-02 23:22:21.14	24.18	44.48	-39.0	-40.1	21.4	0.00e+00	0	40	0	1397751808	52	5647
2026-01-02 23:22:22.15	23.72	44.33	-38.3	-39.3	21.8	0.00e+00	0	40	0	1400897536	50	5766
2026-01-02 23:22:23.16	23.26	44.18	-37.6	-38.6	22.6	0.00e+00	0	40	0	1404043264	50	5313
2026-01-02 23:22:24.18	22.80	44.02	-36.9	-37.8	23.6	0.00e+00	0	40	0	1407188992	48	5423
2026-01-02 23:22:25.19	22.35	43.86	-37.2	-38.1	23.5	0.00e+00	0	40	0	1410334720	48	5620
2026-01-02 23:22:26.20	21.91	43.71	-38.6	-39.6	22.2	0.00e+00	0	40	0	1413480448	48	6691
2026-01-02 23:22:27.21	21.47	43.55	-40.6	-41.8	20.2	0.00e+00	0	40	0	1416626176	52	6848
2026-01-02 23:22:28.22	21.03	43.39	-41.0	-42.4	19.3	0.00e+00	0	40	0	1419771904	54	6530
2026-01-02 23:22:29.23	20.60	43.23	-40.1	-41.5	19.3	0.00e+00	0	40	0	1422917632	54	5873
2026-01-02 23:22:30.24	20.18	43.07	-39.8	-41.1	19.8	0.00e+00	0	40	0	1426063360	52	6333
2026-01-02 23:22:31.25	19.75	42.90	-39.7	-41.0	20.5	0.00e+00	0	40	0	1429209088	52	6209
2026-01-02 23:22:32.26	19.34	42.74	-39.7	-40.8	20.9	0.00e+00	0	40	0	1432354816	52	6116
2026-01-02 23:22:33.27	18.92	42.57	-39.9	-41.0	21.0	0.00e+00	0	40	0	1435500544	52	6273
2026-01-02 23:22:34.28	18.51	42.41	-39.6	-40.7	21.1	0.00e+00	0	40	0	1438646272	52	6032
2026-01-02 23:22:35.29	18.11	42.24	-40.4	-41.6	20.2	0.00e+00	0	40	0	1441792000	52	6682
2026-01-02 23:22:36.30	17.71	42.07	-41.0	-42.3	20.1	0.00e+00	0	40	0	1444937728	54	6452
2026-01-02 23:22:37.31	17.31	41.90	-39.7	-40.9	21.1	0.00e+00	0	40	0	1448083456	52	6153
2026-01-02 23:22:38.32	16.92	41.73	-38.2	-39.3	22.3	0.00e+00	0	40	0	1451229184	50	5726
2026-01-02 23:22:39.33	16.53	41.56	-37.9	-38.8	22.4	0.00e+00	0	40	0	1454374912	50	5456
2026-01-02 23:22:40.34	16.15	41.39	-37.9	-38.9	22.8	0.00e+00	0	40	0	1457520640	50	5482
2026-01-02 23:22:41.35	15.77	41.22	-38.3	-39.2	22.5	0.00e+00	0	40	0	1460666368	50	5721
2026-01-02 23:22:42.36	15.39	41.05	-39.2	-40.3	21.7	0.00e+00	0	40	0	1463812096	50	6461
2026-01-02 23:22:43.37	15.02	40.88	-40.3	-41.5	20.6	0.00e+00	0	40	0	1466957824	52	6646
2026-01-02 23:22:44.38	14.65	40.70	-40.2	-41.4	20.4	0.00e+00	0	40	0	1470103552	52	6543
2026-01-02 23:22:45.39	14.28	40.53	-39.6	-40.8	20.9	0.00e+00	0	40	0	1473249280	52	6071
2026-01-02 23:22:46.40	13.92	40.35	-38.9	-40.0	21.7	0.00e+00	0	40	0	1476395008	52	5554
2026-01-02 23:22:47.41	13.57	40.18	-39.0	-40.0	22.0	0.00e+00	0	40	0	1479540736	52	5592
2026-01-02 23:22:48.42	13.22	40.00	-38.6	-39.6	22.1	0.00e+00	0	40	0	1482686464	50	5950
2026-01-02 23:22:49.43	12.87	39.83	-38.6	-39.6	22.2	0.00e+00	0	40	0	1485832192	50	5969
2026-01-02 23:22:50.44	12.52	39.65	-38.5	-39.5	22.2	0.00e+00	0	40	0	1488977920	50	5924
2026-01-02 23:22:51.45	12.18	39.48	-38.9	-39.9	21.8	0.00e+00	0	40	0	1492123648	50	6180
2026-01-02 23:22:52.46	11.84	39.30	-39.5	-40.6	21.1	0.00e+00	0	40	0	1495269376	50	6696
2026-01-02 23:22:53.47	11.51	39.13	-39.7	-40.8	21.1	0.00e+00	0	40	0	1498415104	50	6866
2026-01-02 23:22:54.48	11.18	38.95	-39.5	-40.6	21.2	0.00e+00	0	40	0	1501560832	50	6698
2026-01-02 23:22:55.49	10.85	38.77	-38.6	-39.6	22.0	0.00e+00	0	40	0	1504706560	50	5969
2026-01-02 23:22:56.50	10.53	38.60	-37.8	-38.7	22.8	0.00e+00	0	40	0	1507852288	50	5399
2026-01-02 23:22:57.52	10.21	38.42	-37.2	-38.1	23.3	0.00e+00	0	40	0	1510998016	48	5639
2026-01-02 23:22:58.52	9.90	38.24	-37.3	-38.2	23.3	0.00e+00	0	40	0	1514143744	48	5690
2026-01-02 23:22:59.54	9.58	38.06	-37.9	-38.8	22.8	0.00e+00	0	40	0	1517289472	48	6133
2026-01-02 23:23:00.54	9.27	37.89	-38.4	-39.5	22.3	0.00e+00	0	40	0	1520435200	48	6591
2026-01-02 23:23:01.55	8.97	37.71	-38.8	-39.8	21.9	0.00e+00	0	40	0	1523580928	50	6117
2026-01-02 23:23:02.56	8.67	37.53	-38.9	-40.0	21.9	0.00e+00	0	40	0	1526726656	50	6248
2026-01-02 23:23:03.58	8.37	37.35	-38.9	-40.0	21.8	0.00e+00	0	40	0	1529872384	50	6227
2026-01-02 23:23:04.59	8.07	37.18	-38.7	-39.8	22.1	0.00e+00	0	40	0	1533018112	50	6074
2026-01-02 23:23:05.60	7.78	37.00	-38.5	-39.5	22.3	0.00e+00	0	40	0	1536163840	50	5895
2026-01-02 23:23:06.60	7.49	36.82	-38.2	-39.2	22.5	0.00e+00	0	40	0	1540358144	50	5716
2026-01-02 23:23:07.62	7.20	36.65	-37.2	-38.2	23.4	0.00e+00	0	40	0	1542455296	48	5690
2026-01-02 23:23:08.63	6.92	36.47	-37.0	-37.9	23.6	0.00e+00	0	40	0	1545601024	48	5513
2026-01-02 23:23:09.64	6.64	36.29	-36.7	-37.6	23.9	0.00e+00	0	40	0	1548746752	46	5942
2026-01-02 23:23:10.65	6.36	36.12	-36.5	-37.4	23.9	0.00e+00	0	39	0	1551892480	46	5836
2026-01-02 23:23:11.66	6.09	35.94	-36.8	-37.7	23.6	0.00e+00	0	40	0	1556086784	46	6050
2026-01-02 23:23:12.67	5.82	35.76	-37.0	-37.9	23.5	0.00e+00	0	40	0	1559232512	46	6199
2026-01-02 23:23:13.68	5.55	35.59	-37.0	-37.9	23.5	0.00e+00	0	39	0	1562378240	46	6167
2026-01-02 23:23:14.69	5.28	35.41	-36.9	-37.8	23.6	0.00e+00	0	39	0	1565523968	46	6123
2026-01-02 23:23:15.69	5.03	35.24	-36.6	-37.5	23.9	0.00e+00	0	39	0	1567621120	46	5891
2026-01-02 23:23:16.70	4.77	35.07	-36.3	-37.2	24.1	0.00e+00	0	39	0	1571815424	46	5686
2026-01-02 23:23:17.72	4.51	34.89	-36.1	-37.0	24.3	0.00e+00	0	39	0	1574961152	46	5536
2026-01-02 23:23:18.72	4.26	34.72	-36.2	-37.1	24.1	0.00e+00	0	39	0	1578106880	46	5642
2026-01-02 23:23:19.73	4.00	34.54	-36.5	-37.4	23.9	0.00e+00	0	40	0	1581252608	46	5815
2026-01-02 23:23:20.75	3.75	34.37	-36.7	-37.7	23.5	0.00e+00	0	40	0	1584398336	46	6039
2026-01-02 23:23:21.75	3.51	34.20	-36.8	-37.8	23.3	0.00e+00	0	40	0	1587544064	46	6092
2026-01-02 23:23:22.77	3.27	34.02	-36.9	-37.9	23.3	0.00e+00	0	40	0	1590689792	46	6154
2026-01-02 23:23:23.77	3.03	33.85	-36.9	-37.9	23.3	0.00e+00	0	39	0	1593835520	46	6161
2026-01-02 23:23:24.79	2.79	33.68	-37.1	-38.0	23.3	0.00e+00	0	39	0	1596981248	46	6263
2026-01-02 23:23:25.80	2.55	33.51	-37.1	-38.0	23.4	0.00e+00	0	39	0	1600126976	46	6250
2026-01-02 23:23:26.81	2.32	33.34	-37.1	-38.1	23.3	0.00e+00	0	39	0	1603272704	46	6310
2026-01-02 23:23:27.82	2.09	33.16	-37.1	-38.1	23.3	0.00e+00	0	39	0	1606418432	46	6325
2026-01-02 23:23:28.83	1.86	32.99	-37.0	-37.9	23.3	0.00e+00	0	39	0	1609564160	46	6204
2026-01-02 23:23:29.84	1.64	32.82	-37.0	-37.9	23.4	0.00e+00	0	39	0	1612709888	46	6194
2026-01-02 23:23:30.85	1.41	32.65	-36.7	-37.6	23.6	0.00e+00	0	39	0	1615855616	46	5945
2026-01-02 23:23:31.86	1.19	32.49	-36.7	-37.6	23.6	0.00e+00	0	40	0	1619001344	46	5983
2026-01-02 23:23:32.86	0.97	32.32	-36.9	-37.9	23.4	0.00e+00	0	39	0	1622147072	46	6157
2026-01-02 23:23:33.87	0.76	32.15	-37.3	-38.3	23.3	0.00e+00	0	40	0	1625292800	46	6453
2026-01-02 23:23:34.88	0.54	31.98	-37.4	-38.4	23.1	0.00e+00	0	39	0	1628438528	46	6517
2026-01-02 23:23:35.89	0.33	31.82	-37.6	-38.6	22.7	0.00e+00	0	40	0	1631584256	48	5954
2026-01-02 23:23:36.90	0.12	31.65	-37.5	-38.5	22.9	0.00e+00	0	39	0	1634729984	48	5896
2026-01-02 23:23:37.91	359.92	31.48	-37.2	-38.1	23.2	0.00e+00	0	39	0	1637875712	48	5645
2026-01-02 23:23:38.92	359.71	31.32	-36.5	-37.4	23.8	0.00e+00	0	39	0	1641021440	46	5839
2026-01-02 23:23:39.93	359.51	31.15	-36.1	-37.0	24.1	0.00e+00	0	39	0	1644167168	46	5582
2026-01-02 23:23:40.94	359.31	30.99	-36.2	-37.1	24.1	0.00e+00	0	39	0	1647312896	46	5616
2026-01-02 23:23:41.95	359.11	30.82	-35.9	-36.8	24.3	0.00e+00	0	39	0	1650458624	46	5442
2026-01-02 23:23:42.96	358.91	30.66	-36.0	-36.9	24.3	0.00e+00	0	40	0	1653604352	46	5511
2026-01-02 23:23:43.97	358.72	30.50	-36.2	-37.1	24.1	0.00e+00	0	40	0	1656750080	46	5596
2026-01-02 23:23:44.98	358.52	30.34	-36.3	-37.2	24.0	0.00e+00	0	39	0	1659895808	46	5704
2026-01-02 23:23:45.99	358.33	30.17	-36.5	-37.4	23.8	0.00e+00	0	39	0	1663041536	46	5858
2026-01-02 23:23:47.00	358.14	30.01	-36.6	-37.5	23.8	0.00e+00	0	39	0	1666187264	46	5918
2026-01-02 23:23:48.01	357.96	29.85	-36.7	-37.7	23.7	0.00e+00	0	39	0	1669332992	46	6010
2026-01-02 23:23:49.02	357.77	29.69	-36.8	-37.8	23.6	0.00e+00	0	39	0	1672478720	46	6090
2026-01-02 23:23:50.03	357.59	29.53	-36.7	-37.7	23.7	0.00e+00	0	39	0	1675624448	46	6011
2026-01-02 23:23:51.05	357.40	29.37	-36.6	-37.6	23.8	0.00e+00	0	39	0	1678770176	46	5929
2026-01-02 23:23:52.06	357.23	29.21	-36.5	-37.5	23.8	0.00e+00	0	39	0	1681915904	46	5863
2026-01-02 23:23:53.07	357.05	29.06	-36.6	-37.6	23.7	0.00e+00	0	39	0	1685061632	46	5945
2026-01-02 23:23:54.08	356.87	28.90	-36.7	-37.6	23.7	0.00e+00	0	39	0	1688207360	46	5960
2026-01-02 23:23:55.09	356.70	28.74	-36.4	-37.4	23.9	0.00e+00	0	39	0	1691353088	46	5795
2026-01-02 23:23:56.10	356.52	28.59	-36.1	-37.0	24.1	0.00e+00	0	39	0	1694498816	46	5556
2026-01-02 23:23:57.11	356.35	28.43	-36.1	-37.0	24.2	0.00e+00	0	39	0	1697644544	46	5590
2026-01-02 23:23:58.12	356.18	28.28	-35.9	-36.8	24.3	0.00e+00	0	39	0	1700790272	46	5439
2026-01-02 23:23:59.13	356.02	28.12	-35.9	-36.8	24.3	0.00e+00	0	39	0	1703936000	46	5440
2026-01-02 23:24:00.14	355.85	27.97	-35.9	-36.8	24.4	0.00e+00	0	39	0	1707081728	46	5417
2026-01-02 23:24:01.15	355.69	27.81	-36.0	-36.9	24.3	0.00e+00	0	39	0	1710227456	46	5519
2026-01-02 23:24:02.16	355.52	27.66	-36.1	-37.0	24.1	0.00e+00	0	39	0	1713373184	46	5534
2026-01-02 23:24:03.17	355.36	27.51	-36.1	-37.1	24.1	0.00e+00	0	39	0	1716518912	46	5596
2026-01-02 23:24:04.18	355.20	27.36	-36.1	-37.0	24.2	0.00e+00	0	39	0	1719664640	46	5591
2026-01-02 23:24:05.19	355.04	27.21	-36.0	-36.9	24.2	0.00e+00	0	39	0	1722810368	46	5507
2026-01-02 23:24:06.20	354.89	27.06	-36.0	-36.9	24.1	0.00e+00	0	39	0	1725956096	46	5508
2026-01-02 23:24:07.21	354.73	26.91	-36.1	-37.0	24.0	0.00e+00	0	39	0	1729101824	46	5571
2026-01-02 23:24:08.22	354.58	26.76	-35.8	-36.7	22.9	0.00e+00	0	39	0	1732247552	46	5369
2026-01-02 23:24:09.23	354.43	26.61	-35.5	-36.4	24.5	0.00e+00	0	39	0	1735393280	44	5801
2026-01-02 23:24:10.24	354.28	26.46	-35.5	-36.4	24.5	0.00e+00	0	39	0	1738539008	44	5845
2026-01-02 23:24:11.25	354.13	26.31	-35.4	-36.3	24.6	0.00e+00	0	39	0	1741684736	44	5790
2026-01-02 23:24:12.26	353.98	26.17	-35.3	-36.2	24.7	0.00e+00	0	39	0	1744830464	44	5691
2026-01-02 23:24:13.27	353.83	26.02	-35.4	-36.2	24.6	0.00e+00	0	39	0	1747976192	44	5720
2026-01-02 23:24:14.28	353.69	25.88	-35.4	-36.3	24.5	0.00e+00	0	39	0	1751121920	44	5750
2026-01-02 23:24:15.29	353.54	25.73	-35.5	-36.4	24.5	0.00e+00	0	39	0	1754267648	44	5831
2026-01-02 23:24:16.30	353.40	25.59	-35.5	-36.4	24.4	0.00e+00	0	39	0	1757413376	44	5829
2026-01-02 23:24:17.31	353.26	25.44	-35.7	-36.6	24.4	0.00e+00	0	39	0	1760559104	44	5951
2026-01-02 23:24:18.32	353.12	25.30	-35.8	-36.7	24.3	0.00e+00	0	39	0	1763704832	44	6017
2026-01-02 23:24:19.33	352.98	25.16	-35.8	-36.7	24.3	0.00e+00	0	39	0	1766850560	44	6058
2026-01-02 23:24:20.34	352.85	25.01	-35.9	-36.8	24.2	0.00e+00	0	39	0	1769996288	44	6110
2026-01-02 23:24:21.35	352.71	24.87	-36.0	-36.9	24.0	0.00e+00	0	39	0	1773142016	44	6198
2026-01-02 23:24:22.36	352.58	24.73	-36.0	-37.0	24.0	0.00e+00	0	39	0	1776287744	44	6208
2026-01-02 23:24:23.37	352.44	24.59	-36.0	-36.9	24.1	0.00e+00	0	39	0	1779433472	44	6177
2026-01-02 23:24:24.38	352.31	24.45	-36.1	-37.0	24.0	0.00e+00	0	39	0	1782579200	44	6232
2026-01-02 23:24:25.39	352.18	24.31	-36.1	-37.1	24.0	0.00e+00	0	39	0	1785724928	44	6294
2026-01-02 23:24:26.40	352.05	24.17	-36.2	-37.1	23.9	0.00e+00	0	39	0	1788870656	44	6337
2026-01-02 23:24:27.41	351.92	24.04	-36.2	-37.2	23.9	0.00e+00	0	39	0	1792016384	44	6362
2026-01-02 23:24:28.42	351.79	23.90	-36.3	-37.2	24.0	0.00e+00	0	39	0	1795162112	44	6404
2026-01-02 23:24:29.43	351.67	23.76	-36.3	-37.2	23.9	0.00e+00	0	39	0	1798307840	44	6416
2026-01-02 23:24:30.44	351.54	23.63	-36.3	-37.3	23.9	0.00e+00	0	39	0	1801453568	44	6424
2026-01-02 23:24:31.45	351.42	23.49	-36.4	-37.4	23.9	0.00e+00	0	39	0	1804599296	44	6524
2026-01-02 23:24:32.46	351.29	23.35	-36.5	-37.4	23.8	0.00e+00	0	39	0	1807745024	44	6537
2026-01-02 23:24:33.47	351.17	23.22	-36.6	-37.6	23.7	0.00e+00	0	39	0	1810890752	44	6658
2026-01-02 23:24:34.48	351.05	23.09	-36.8	-37.8	23.6	0.00e+00	0	39	0	1814036480	46	6074
2026-01-02 23:24:35.49	350.93	22.95	-36.6	-37.6	23.7	0.00e+00	0	39	0	1817182208	46	5940
2026-01-02 23:24:36.50	350.81	22.82	-36.7	-37.7	23.6	0.00e+00	0	39	0	1820327936	46	6021
2026-01-02 23:24:37.51	350.69	22.69	-36.5	-37.4	23.7	0.00e+00	0	39	0	1823473664	46	5822
2026-01-02 23:24:38.52	350.58	22.55	-36.6	-37.5	23.6	0.00e+00	0	39	0	1826619392	46	5919
2026-01-02 23:24:39.53	350.46	22.42	-36.3	-37.2	23.9	0.00e+00	0	39	0	1829765120	46	5698
2026-01-02 23:24:40.54	350.35	22.29	-36.1	-37.0	24.0	0.00e+00	0	39	0	1832910848	46	5546
2026-01-02 23:24:41.55	350.23	22.16	-35.9	-36.8	24.1	0.00e+00	0	39	0	1836056576	46	5449
2026-01-02 23:24:42.56	350.12	22.03	-35.8	-36.7	24.3	0.00e+00	0	39	0	1839202304	46	5361
2026-01-02 23:24:43.57	350.01	21.90	-35.7	-36.6	24.4	0.00e+00	0	39	0	1842348032	44	5938
2026-01-02 23:24:44.58	349.90	21.77	-35.6	-36.5	24.4	0.00e+00	0	39	0	1845493760	44	5897
2026-01-02 23:24:45.59	349.79	21.65	-35.4	-36.3	24.6	0.00e+00	0	39	0	1848639488	44	5758
2026-01-02 23:24:46.60	349.68	21.52	-35.5	-36.3	24.6	0.00e+00	0	39	0	1851785216	44	5779
2026-01-02 23:24:47.61	349.57	21.39	-35.5	-36.4	24.5	0.00e+00	0	39	0	1855979520	44	5818
2026-01-02 23:24:48.62	349.46	21.27	-35.7	-36.6	24.4	0.00e+00	0	39	0	1858076672	44	5931
2026-01-02 23:24:49.63	349.36	21.14	-35.8	-36.7	24.3	0.00e+00	0	39	0	1861222400	44	6050
2026-01-02 23:24:50.64	349.25	21.01	-35.7	-36.6	24.4	0.00e+00	0	39	0	1864368128	44	5955
2026-01-02 23:24:51.65	349.15	20.89	-35.8	-36.7	24.3	0.00e+00	0	39	0	1867513856	44	6017
2026-01-02 23:24:52.66	349.05	20.76	-35.8	-36.7	24.4	0.00e+00	0	39	0	1871708160	44	6021
2026-01-02 23:24:53.67	348.94	20.64	-35.9	-36.8	24.2	0.00e+00	0	39	0	1874853888	44	6086
2026-01-02 23:24:54.68	348.84	20.52	-36.0	-36.9	24.2	0.00e+00	0	39	0	1877999616	44	6143
2026-01-02 23:24:55.69	348.74	20.39	-36.0	-36.9	24.1	0.00e+00	0	39	0	1881145344	44	6184
2026-01-02 23:24:56.70	348.64	20.27	-36.0	-37.0	24.1	0.00e+00	0	39	0	1883242496	44	6219
2026-01-02 23:24:57.71	348.54	20.15	-36.2	-37.1	23.8	0.00e+00	0	39	0	1887436800	44	6314
2026-01-02 23:24:58.72	348.44	20.03	-36.2	-37.1	23.9	0.00e+00	0	39	0	1890582528	44	6311
2026-01-02 23:24:59.73	348.34	19.91	-36.3	-37.3	23.7	0.00e+00	0	39	0	1893728256	44	6452
2026-01-02 23:25:00.74	348.25	19.79	-36.1	-37.0	23.9	0.00e+00	0	39	0	1896873984	44	6249
2026-01-02 23:25:01.75	348.15	19.67	-36.2	-37.2	23.7	0.00e+00	0	39	0	1900019712	44	6353
2026-01-02 23:25:02.76	348.06	19.55	-36.1	-37.1	23.8	0.00e+00	0	39	0	1903165440	44	6286
2026-01-02 23:25:03.77	347.96	19.43	-36.2	-37.2	23.7	0.00e+00	0	39	0	1906311168	44	6363
2026-01-02 23:25:04.78	347.87	19.31	-36.1	-37.1	23.7	0.00e+00	0	39	0	1909456896	44	6295
2026-01-02 23:25:05.79	347.77	19.19	-36.1	-37.0	23.8	0.00e+00	0	39	0	1912602624	44	6230
2026-01-02 23:25:06.80	347.68	19.07	-36.2	-37.1	23.8	0.00e+00	0	39	0	1915748352	44	6300
2026-01-02 23:25:07.81	347.59	18.96	-36.2	-37.1	23.8	0.00e+00	0	39	0	1918894080	44	6298
2026-01-02 23:25:08.82	347.50	18.84	-36.1	-37.0	23.9	0.00e+00	0	39	0	1922039808	44	6251
2026-01-02 23:25:09.83	347.41	18.72	-36.1	-37.0	23.9	0.00e+00	0	39	0	1925185536	44	6237
2026-01-02 23:25:10.84	347.32	18.61	-36.0	-36.9	24.0	0.00e+00	0	39	0	1928331264	44	6192
2026-01-02 23:25:11.85	347.23	18.49	-36.1	-37.0	23.9	0.00e+00	0	39	0	1931476992	44	6229
2026-01-02 23:25:12.86	347.14	18.38	-36.1	-37.0	24.0	0.00e+00	0	39	0	1934622720	44	6238
2026-01-02 23:25:13.87	347.06	18.26	-35.9	-36.8	24.2	0.00e+00	0	39	0	1937768448	44	6114
2026-01-02 23:25:14.88	346.97	18.15	-36.0	-36.9	24.1	0.00e+00	0	39	0	1940914176	44	6172
2026-01-02 23:25:15.89	346.88	18.04	-35.9	-36.8	24.2	0.00e+00	0	39	0	1944059904	44	6128
2026-01-02 23:25:16.90	346.80	17.92	-35.9	-36.8	24.2	0.00e+00	0	39	0	1947205632	44	6105
2026-01-02 23:25:17.91	346.71	17.81	-36.1	-37.0	24.0	0.00e+00	0	39	0	1950351360	44	6269
2026-01-02 23:25:18.92	346.63	17.70	-36.1	-37.0	24.0	0.00e+00	0	39	0	1953497088	44	6240
2026-01-02 23:25:19.93	346.55	17.59	-36.1	-37.1	23.9	0.00e+00	0	39	0	1956642816	44	6285
