passes_logs/2026/01/02/R4.6S_Anadyr/R4.6S_Anadyr__20260102_134744_SUOMI_NPP_rec.log

#Pass ID: 20260102_134744_SUOMI NPP
#Satellite: SUOMI NPP
#Configuration: NPP
#almurnet v.1.7.20251203
#Start time: 2026-01-02 13:47:46

#Version: 2.2.20231116
#Station: R4.6S_Anadyr
#Location: 177.4865 lon 64.73178 lat
#TLE: 1 37849U 11061A   26001.07732418  .00000182  00000+0  10735-3 0  9990
#TLE: 2 37849  98.7795 303.2470 0002580  87.2016 272.9455 14.19520779734739

#Time	Az	El	Level	Level2	SNR	BER	BlckErr	Temp	State	Recorded	gain1	gain2
2026-01-02 13:47:46.99	19.17	0.17	-49.5	-63.3	3.3	1.54e+00	0	38	0	0	60	52798
2026-01-02 13:47:47.99	19.20	0.23	-49.5	-64.7	3.6	1.51e+00	0	38	104	0	60	62442
2026-01-02 13:47:49.00	19.24	0.28	-49.6	-64.8	3.6	1.51e+00	0	38	104	0	60	62736
2026-01-02 13:47:50.01	19.27	0.34	-49.6	-64.8	3.6	1.51e+00	0	38	104	0	60	62856
2026-01-02 13:47:51.02	19.31	0.40	-49.5	-64.8	3.6	1.51e+00	0	38	104	0	60	62728
2026-01-02 13:47:52.03	19.34	0.46	-49.5	-64.8	3.6	1.51e+00	0	38	104	0	60	62532
2026-01-02 13:47:53.04	19.38	0.52	-49.4	-64.7	3.6	1.51e+00	0	38	104	0	60	62268
2026-01-02 13:47:54.06	19.41	0.58	-49.4	-64.6	3.6	1.51e+00	0	38	104	0	60	61273
2026-01-02 13:47:55.06	19.45	0.64	-49.3	-64.5	3.6	1.51e+00	0	38	104	0	60	60533
2026-01-02 13:47:56.07	19.48	0.70	-49.1	-64.3	3.6	1.51e+00	0	38	104	0	60	59571
2026-01-02 13:47:57.09	19.52	0.76	-48.9	-64.1	3.6	1.51e+00	0	38	104	0	60	58137
2026-01-02 13:47:58.10	19.56	0.82	-48.7	-63.9	3.6	1.51e+00	0	38	104	0	60	56940
2026-01-02 13:47:59.10	19.59	0.87	-48.5	-63.7	3.6	1.51e+00	0	38	104	0	60	55253
2026-01-02 13:48:00.11	19.63	0.93	-48.0	-63.3	3.6	1.51e+00	0	38	104	0	60	52772
2026-01-02 13:48:01.13	19.66	0.99	-47.7	-62.9	3.6	1.51e+00	0	38	104	0	60	50222
2026-01-02 13:48:02.13	19.70	1.05	-47.7	-62.8	3.6	1.51e+00	0	38	104	0	60	50150
2026-01-02 13:48:03.14	19.74	1.11	-47.7	-62.8	3.6	1.51e+00	0	38	104	0	60	50047
2026-01-02 13:48:04.16	19.77	1.17	-47.7	-62.9	3.6	1.51e+00	0	38	104	0	60	50294
2026-01-02 13:48:05.17	19.81	1.23	-47.7	-62.9	3.6	1.51e+00	0	38	104	0	60	50202
2026-01-02 13:48:06.17	19.85	1.29	-47.7	-62.8	3.6	1.51e+00	0	38	104	0	60	50042
2026-01-02 13:48:07.18	19.88	1.36	-47.7	-62.8	3.6	1.51e+00	0	38	104	0	60	49836
2026-01-02 13:48:08.19	19.92	1.42	-47.7	-62.8	3.6	1.51e+00	0	38	104	0	60	49948
2026-01-02 13:48:09.20	19.96	1.48	-47.7	-62.7	3.6	1.51e+00	0	38	104	0	60	49537
2026-01-02 13:48:10.21	20.00	1.54	-47.7	-62.8	3.6	1.51e+00	0	38	104	0	60	49820
2026-01-02 13:48:11.22	20.03	1.60	-47.7	-62.8	3.6	1.51e+00	0	38	104	0	60	50013
2026-01-02 13:48:12.23	20.07	1.66	-47.7	-62.8	3.6	1.51e+00	0	38	104	0	60	49975
2026-01-02 13:48:13.24	20.11	1.72	-47.7	-62.8	3.6	1.51e+00	0	38	104	0	60	50133
2026-01-02 13:48:14.25	20.15	1.78	-47.7	-62.8	3.6	1.51e+00	0	38	104	0	60	49998
2026-01-02 13:48:15.26	20.18	1.84	-47.7	-62.8	3.6	1.51e+00	0	38	104	0	60	50171
2026-01-02 13:48:16.27	20.22	1.91	-47.7	-62.8	3.6	1.51e+00	0	38	104	0	60	49741
2026-01-02 13:48:17.28	20.26	1.97	-47.7	-62.8	3.6	1.51e+00	0	38	104	0	60	50093
2026-01-02 13:48:18.29	20.30	2.03	-47.6	-62.8	3.6	1.51e+00	0	38	104	0	60	50048
2026-01-02 13:48:19.30	20.34	2.09	-47.6	-62.7	3.6	1.51e+00	0	38	104	0	60	49109
2026-01-02 13:48:20.31	20.38	2.15	-47.6	-62.4	3.6	1.51e+00	0	38	104	0	60	47574
2026-01-02 13:48:21.32	20.42	2.21	-47.6	-61.9	3.6	1.51e+00	0	38	104	0	60	44900
2026-01-02 13:48:22.33	20.45	2.28	-47.6	-61.5	3.6	1.51e+00	0	38	104	0	60	43114
2026-01-02 13:48:23.34	20.49	2.34	-47.6	-61.4	3.6	1.51e+00	0	38	104	0	60	42482
2026-01-02 13:48:24.35	20.53	2.40	-47.6	-61.3	3.6	1.51e+00	0	38	104	0	60	41926
2026-01-02 13:48:25.36	20.57	2.47	-47.6	-62.0	3.6	1.51e+00	0	38	104	0	60	45335
2026-01-02 13:48:26.37	20.61	2.53	-47.6	-62.3	3.6	1.51e+00	0	38	104	0	60	46945
2026-01-02 13:48:27.38	20.65	2.59	-47.6	-61.0	3.6	1.51e+00	0	38	104	0	60	40578
2026-01-02 13:48:28.39	20.69	2.65	-47.4	-58.2	4.2	1.43e+00	65	38	0	0	60	29277
2026-01-02 13:48:29.40	20.73	2.72	-47.0	-54.4	6.3	6.63e-01	0	38	0	1048576	60	18956
2026-01-02 13:48:30.41	20.77	2.78	-46.4	-51.8	9.4	4.45e-02	0	38	0	3145728	60	14097
2026-01-02 13:48:31.42	20.81	2.84	-45.6	-50.0	11.6	5.16e-03	0	38	0	5242880	60	11391
2026-01-02 13:48:32.43	20.85	2.91	-44.8	-48.3	13.5	1.27e-04	0	38	0	7340032	60	9347
2026-01-02 13:48:33.44	20.89	2.97	-44.1	-47.0	15.0	7.00e-07	0	38	0	9437184	60	8049
2026-01-02 13:48:34.45	20.93	3.04	-43.8	-46.4	15.4	0.00e+00	0	38	0	10485760	60	7588
2026-01-02 13:48:35.46	20.98	3.10	-43.7	-46.3	15.4	0.00e+00	0	38	0	12582912	60	7463
2026-01-02 13:48:36.47	21.02	3.16	-43.0	-45.2	16.6	0.00e+00	0	38	0	14680064	60	6570
2026-01-02 13:48:37.48	21.06	3.23	-44.3	-47.3	14.4	0.00e+00	0	38	0	16777216	60	8369
2026-01-02 13:48:38.49	21.10	3.29	-44.0	-46.9	14.8	0.00e+00	0	38	0	18874368	60	7964
2026-01-02 13:48:39.50	21.14	3.36	-44.6	-47.9	13.8	0.00e+00	0	38	0	19922944	60	8992
2026-01-02 13:48:40.50	21.18	3.42	-45.6	-49.8	11.6	7.01e-05	0	39	0	22020096	60	11224
2026-01-02 13:48:41.51	21.22	3.49	-46.1	-51.3	10.1	1.53e-03	0	39	0	24117248	60	13256
2026-01-02 13:48:42.52	21.27	3.55	-45.2	-48.9	12.8	8.30e-03	0	38	0	26214400	60	10076
2026-01-02 13:48:43.53	21.31	3.62	-46.4	-52.5	8.5	8.01e-05	0	38	0	28311552	60	15255
2026-01-02 13:48:44.54	21.35	3.68	-46.6	-52.8	8.6	1.48e+00	0	39	104	28311552	60	15821
2026-01-02 13:48:45.55	21.39	3.75	-47.1	-54.8	4.9	1.49e+00	0	38	104	28311552	60	19767
2026-01-02 13:48:46.56	21.44	3.81	-47.6	-59.0	3.6	1.00e-02	16	39	104	28311552	60	32321
2026-01-02 13:48:47.57	21.48	3.88	-47.6	-58.5	4.3	1.51e+00	0	39	104	28311552	60	30388
2026-01-02 13:48:48.58	21.52	3.95	-46.4	-51.7	10.1	1.62e-02	0	38	0	28311552	60	13865
2026-01-02 13:48:49.59	21.57	4.01	-46.4	-51.4	10.2	8.40e-03	0	39	0	30408704	60	13454
2026-01-02 13:48:50.60	21.61	4.08	-46.5	-52.0	9.3	9.70e-03	0	39	0	31457280	60	14330
2026-01-02 13:48:51.60	21.65	4.14	-46.6	-52.1	9.0	1.48e-02	0	39	0	33554432	60	14573
2026-01-02 13:48:52.61	21.70	4.21	-46.5	-51.8	10.3	2.54e-02	0	38	0	35651584	60	14092
2026-01-02 13:48:53.62	21.74	4.28	-46.4	-51.3	10.3	6.54e-03	0	38	0	37748736	60	13341
2026-01-02 13:48:54.63	21.78	4.34	-46.4	-51.4	10.5	3.04e-03	0	38	0	39845888	60	13430
2026-01-02 13:48:55.64	21.83	4.41	-46.5	-51.7	10.2	5.53e-03	0	39	0	41943040	60	13836
2026-01-02 13:48:56.65	21.87	4.48	-46.1	-50.5	11.5	4.82e-04	0	39	0	42991616	60	12084
2026-01-02 13:48:57.66	21.92	4.54	-45.9	-50.1	11.8	4.25e-04	0	39	0	45088768	60	11590
2026-01-02 13:48:58.67	21.96	4.61	-45.4	-49.1	13.0	2.17e-04	0	38	0	47185920	60	10262
2026-01-02 13:48:59.68	22.01	4.68	-45.4	-48.9	13.4	1.04e-04	0	39	0	49283072	60	10053
2026-01-02 13:49:00.69	22.05	4.75	-45.4	-48.9	13.2	4.50e-06	0	39	0	51380224	60	10069
2026-01-02 13:49:01.70	22.10	4.82	-45.3	-48.9	13.2	1.50e-06	0	39	0	52428800	60	10024
2026-01-02 13:49:02.71	22.14	4.88	-45.0	-48.3	13.8	1.29e-05	0	39	0	54525952	60	9346
2026-01-02 13:49:03.72	22.19	4.95	-45.2	-48.5	14.0	7.00e-07	0	39	0	56623104	60	9588
2026-01-02 13:49:04.73	22.24	5.02	-45.1	-48.3	13.7	3.00e-06	0	39	0	58720256	60	9434
2026-01-02 13:49:05.74	22.28	5.09	-44.6	-47.5	14.9	0.00e+00	0	39	0	60817408	60	8530
2026-01-02 13:49:06.75	22.33	5.16	-44.6	-47.5	14.8	0.00e+00	0	39	0	61865984	60	8569
2026-01-02 13:49:07.76	22.38	5.23	-44.4	-47.2	15.0	0.00e+00	0	39	0	63963136	60	8257
2026-01-02 13:49:08.77	22.42	5.30	-44.7	-47.7	14.8	0.00e+00	0	39	0	66060288	60	8734
2026-01-02 13:49:09.78	22.47	5.37	-43.6	-45.8	16.6	0.00e+00	0	39	0	68157440	60	7064
2026-01-02 13:49:10.79	22.52	5.43	-43.6	-45.8	16.5	0.00e+00	0	39	0	70254592	60	7034
2026-01-02 13:49:11.80	22.56	5.50	-43.3	-45.4	16.9	0.00e+00	0	39	0	71303168	60	6766
2026-01-02 13:49:12.81	22.61	5.57	-43.5	-45.7	16.6	0.00e+00	0	39	0	73400320	60	6977
2026-01-02 13:49:13.82	22.66	5.64	-43.3	-45.4	17.3	0.00e+00	0	39	0	75497472	60	6700
2026-01-02 13:49:14.83	22.71	5.71	-42.3	-44.1	18.3	0.00e+00	0	39	0	77594624	58	6483
2026-01-02 13:49:15.84	22.76	5.78	-41.8	-43.5	18.9	0.00e+00	0	39	0	79691776	58	6049
2026-01-02 13:49:16.85	22.80	5.85	-42.0	-43.6	18.8	0.00e+00	0	39	0	80740352	58	6158
2026-01-02 13:49:17.86	22.85	5.93	-42.2	-43.9	18.4	0.00e+00	0	39	0	82837504	58	6339
2026-01-02 13:49:18.87	22.90	6.00	-42.2	-43.9	18.4	0.00e+00	0	39	0	84934656	58	6347
2026-01-02 13:49:19.87	22.95	6.07	-41.8	-43.3	19.0	0.00e+00	0	39	0	87031808	56	6683
2026-01-02 13:49:20.88	23.00	6.14	-41.8	-43.4	18.9	0.00e+00	0	39	0	89128960	56	6711
2026-01-02 13:49:21.89	23.05	6.21	-41.9	-43.4	18.9	0.00e+00	0	39	0	90177536	56	6760
2026-01-02 13:49:22.90	23.10	6.28	-41.9	-43.5	19.0	0.00e+00	0	39	0	92274688	56	6798
2026-01-02 13:49:23.91	23.15	6.35	-41.9	-43.5	18.8	0.00e+00	0	39	0	94371840	56	6844
2026-01-02 13:49:24.92	23.20	6.42	-42.0	-43.6	18.8	0.00e+00	0	39	0	96468992	56	6923
2026-01-02 13:49:25.93	23.25	6.50	-41.6	-43.1	19.2	0.00e+00	0	39	0	98566144	56	6517
2026-01-02 13:49:26.94	23.30	6.57	-41.8	-43.3	19.0	0.00e+00	0	39	0	99614720	56	6676
2026-01-02 13:49:27.95	23.35	6.64	-41.9	-43.5	18.9	0.00e+00	0	39	0	101711872	56	6823
2026-01-02 13:49:28.95	23.40	6.71	-41.9	-43.4	19.1	0.00e+00	0	39	0	103809024	56	6767
2026-01-02 13:49:29.96	23.45	6.79	-41.7	-43.3	19.2	0.00e+00	0	39	0	105906176	56	6630
2026-01-02 13:49:30.97	23.50	6.86	-41.9	-43.5	18.9	0.00e+00	0	39	0	108003328	56	6791
2026-01-02 13:49:31.98	23.56	6.93	-41.8	-43.4	19.1	0.00e+00	0	39	0	110100480	56	6712
2026-01-02 13:49:32.99	23.61	7.01	-41.9	-43.4	19.1	0.00e+00	0	39	0	111149056	56	6750
2026-01-02 13:49:34.00	23.66	7.08	-41.6	-43.1	19.4	0.00e+00	0	39	0	113246208	56	6489
2026-01-02 13:49:35.01	23.71	7.15	-41.5	-43.0	19.5	0.00e+00	0	39	0	115343360	56	6398
2026-01-02 13:49:36.02	23.77	7.23	-41.6	-43.0	19.5	0.00e+00	0	39	0	117440512	56	6459
2026-01-02 13:49:37.03	23.82	7.30	-41.5	-42.9	19.5	0.00e+00	0	39	0	119537664	56	6362
2026-01-02 13:49:38.04	23.87	7.38	-41.6	-43.0	19.5	0.00e+00	0	39	0	120586240	56	6454
2026-01-02 13:49:39.05	23.92	7.45	-41.5	-43.0	19.5	0.00e+00	0	39	0	122683392	56	6410
2026-01-02 13:49:40.06	23.98	7.53	-41.4	-42.9	19.6	0.00e+00	0	39	0	124780544	56	6323
2026-01-02 13:49:41.07	24.03	7.60	-41.4	-42.9	19.5	0.00e+00	0	39	0	126877696	56	6351
2026-01-02 13:49:42.08	24.09	7.68	-41.7	-43.2	19.4	0.00e+00	0	39	0	128974848	56	6559
2026-01-02 13:49:43.08	24.14	7.75	-41.5	-42.9	19.5	0.00e+00	0	39	0	130023424	56	6352
2026-01-02 13:49:44.09	24.20	7.83	-41.6	-43.1	19.5	0.00e+00	0	39	0	132120576	56	6479
2026-01-02 13:49:45.10	24.25	7.90	-41.5	-43.0	19.6	0.00e+00	0	39	0	134217728	56	6424
2026-01-02 13:49:46.11	24.31	7.98	-41.6	-43.1	19.4	0.00e+00	0	39	0	136314880	56	6503
2026-01-02 13:49:47.12	24.36	8.05	-41.6	-43.0	19.7	0.00e+00	0	39	0	138412032	56	6446
2026-01-02 13:49:48.13	24.42	8.13	-41.4	-42.8	19.8	0.00e+00	0	39	0	139460608	56	6265
2026-01-02 13:49:49.14	24.47	8.21	-41.5	-42.9	19.7	0.00e+00	0	39	0	141557760	56	6354
2026-01-02 13:49:50.15	24.53	8.28	-41.3	-42.7	19.9	0.00e+00	0	39	0	143654912	56	6180
2026-01-02 13:49:51.16	24.59	8.36	-41.4	-42.8	19.7	0.00e+00	0	39	0	145752064	56	6300
2026-01-02 13:49:52.17	24.64	8.44	-41.4	-42.8	19.8	0.00e+00	0	39	0	147849216	56	6314
2026-01-02 13:49:53.18	24.70	8.52	-41.5	-42.9	19.7	0.00e+00	0	39	0	148897792	56	6356
2026-01-02 13:49:54.19	24.76	8.59	-41.4	-42.8	19.7	0.00e+00	0	39	0	150994944	56	6311
2026-01-02 13:49:55.20	24.82	8.67	-41.2	-42.6	19.9	0.00e+00	0	39	0	153092096	56	6133
2026-01-02 13:49:56.20	24.87	8.75	-41.2	-42.6	20.0	0.00e+00	0	39	0	155189248	56	6118
2026-01-02 13:49:57.21	24.93	8.83	-41.1	-42.5	20.0	0.00e+00	0	39	0	157286400	56	6077
2026-01-02 13:49:58.22	24.99	8.91	-41.1	-42.4	20.2	0.00e+00	0	39	0	158334976	56	6011
2026-01-02 13:49:59.23	25.05	8.98	-41.1	-42.5	20.1	0.00e+00	0	39	0	160432128	56	6034
2026-01-02 13:50:00.24	25.11	9.06	-41.1	-42.4	20.1	0.00e+00	0	39	0	162529280	56	6022
2026-01-02 13:50:01.25	25.17	9.14	-41.3	-42.6	20.0	0.00e+00	0	39	0	164626432	56	6164
2026-01-02 13:50:02.26	25.23	9.22	-40.9	-42.3	20.4	0.00e+00	0	39	0	166723584	56	5901
2026-01-02 13:50:03.27	25.29	9.30	-40.7	-41.9	20.6	0.00e+00	0	39	0	167772160	54	6364
2026-01-02 13:50:04.28	25.35	9.38	-40.8	-42.1	20.5	0.00e+00	0	39	0	169869312	54	6472
2026-01-02 13:50:05.29	25.41	9.46	-40.8	-42.1	20.4	0.00e+00	0	39	0	171966464	54	6497
2026-01-02 13:50:06.29	25.47	9.54	-40.7	-42.0	20.6	0.00e+00	0	39	0	174063616	54	6437
2026-01-02 13:50:07.30	25.53	9.62	-40.7	-41.9	20.6	0.00e+00	0	39	0	176160768	54	6371
2026-01-02 13:50:08.31	25.59	9.70	-40.7	-42.0	20.6	0.00e+00	0	39	0	178257920	54	6394
2026-01-02 13:50:09.32	25.65	9.79	-40.4	-41.6	21.0	0.00e+00	0	39	0	179306496	54	6155
2026-01-02 13:50:10.33	25.72	9.87	-40.1	-41.2	21.2	0.00e+00	0	39	0	181403648	54	5876
2026-01-02 13:50:11.34	25.78	9.95	-40.1	-41.2	21.2	0.00e+00	0	39	0	183500800	54	5893
2026-01-02 13:50:12.35	25.84	10.03	-40.1	-41.2	21.2	0.00e+00	0	39	0	185597952	54	5890
2026-01-02 13:50:13.36	25.90	10.11	-40.1	-41.2	21.2	0.00e+00	0	39	0	187695104	54	5880
2026-01-02 13:50:14.37	25.97	10.19	-40.0	-41.1	21.3	0.00e+00	0	39	0	188743680	54	5816
2026-01-02 13:50:15.38	26.03	10.28	-39.9	-41.0	21.4	0.00e+00	0	39	0	190840832	54	5748
2026-01-02 13:50:16.39	26.10	10.36	-39.9	-41.1	21.3	0.00e+00	0	39	0	192937984	54	5784
2026-01-02 13:50:17.40	26.16	10.44	-39.8	-40.9	21.5	0.00e+00	0	39	0	195035136	54	5686
2026-01-02 13:50:18.41	26.23	10.53	-39.7	-40.8	21.6	0.00e+00	0	39	0	197132288	52	6276
2026-01-02 13:50:19.42	26.29	10.61	-39.8	-40.9	21.7	0.00e+00	0	39	0	198180864	52	6345
2026-01-02 13:50:20.43	26.36	10.69	-39.7	-40.8	21.7	0.00e+00	0	39	0	200278016	52	6287
2026-01-02 13:50:21.44	26.42	10.78	-39.8	-40.9	21.6	0.00e+00	0	39	0	202375168	52	6372
2026-01-02 13:50:22.45	26.49	10.86	-39.8	-40.9	21.6	0.00e+00	0	39	0	204472320	52	6364
2026-01-02 13:50:23.46	26.56	10.95	-39.7	-40.8	21.7	0.00e+00	0	39	0	206569472	52	6303
2026-01-02 13:50:24.47	26.62	11.03	-39.6	-40.7	21.7	0.00e+00	0	39	0	207618048	52	6216
2026-01-02 13:50:25.48	26.69	11.12	-39.8	-40.9	21.7	0.00e+00	0	39	0	209715200	52	6336
2026-01-02 13:50:26.49	26.76	11.20	-39.7	-40.8	21.6	0.00e+00	0	39	0	211812352	52	6271
2026-01-02 13:50:27.50	26.83	11.29	-39.7	-40.8	21.7	0.00e+00	0	39	0	213909504	52	6258
2026-01-02 13:50:28.51	26.89	11.37	-39.6	-40.6	21.8	0.00e+00	0	39	0	216006656	52	6160
2026-01-02 13:50:29.52	26.96	11.46	-39.6	-40.7	21.8	0.00e+00	0	39	0	217055232	52	6203
2026-01-02 13:50:30.52	27.03	11.55	-39.5	-40.6	21.9	0.00e+00	0	39	0	219152384	52	6118
2026-01-02 13:50:31.53	27.10	11.63	-39.5	-40.6	21.9	0.00e+00	0	39	0	221249536	52	6132
2026-01-02 13:50:32.54	27.17	11.72	-39.5	-40.6	21.9	0.00e+00	0	39	0	223346688	52	6139
2026-01-02 13:50:33.55	27.24	11.81	-39.5	-40.5	22.0	0.00e+00	0	39	0	225443840	52	6090
2026-01-02 13:50:34.56	27.31	11.90	-39.3	-40.3	22.1	0.00e+00	0	39	0	226492416	52	5948
2026-01-02 13:50:35.57	27.38	11.98	-39.2	-40.2	22.2	0.00e+00	0	39	0	228589568	52	5875
2026-01-02 13:50:36.58	27.46	12.07	-39.1	-40.1	22.3	0.00e+00	0	39	0	230686720	52	5809
2026-01-02 13:50:37.59	27.53	12.16	-39.0	-40.0	22.4	0.00e+00	0	39	0	232783872	52	5722
2026-01-02 13:50:38.60	27.60	12.25	-39.1	-40.1	22.3	0.00e+00	0	39	0	234881024	52	5798
2026-01-02 13:50:39.61	27.67	12.34	-39.0	-40.0	22.3	0.00e+00	0	39	0	235929600	52	5732
2026-01-02 13:50:40.62	27.75	12.43	-38.9	-39.9	22.6	0.00e+00	0	39	0	238026752	52	5638
2026-01-02 13:50:41.63	27.82	12.52	-38.8	-39.7	22.7	0.00e+00	0	39	0	240123904	52	5552
2026-01-02 13:50:42.63	27.89	12.61	-38.8	-39.7	22.6	0.00e+00	0	39	0	242221056	50	6238
2026-01-02 13:50:43.64	27.97	12.70	-38.7	-39.6	22.7	0.00e+00	0	39	0	244318208	50	6163
2026-01-02 13:50:44.65	28.04	12.79	-38.7	-39.7	22.7	0.00e+00	0	39	0	246415360	50	6187
2026-01-02 13:50:45.67	28.12	12.88	-38.5	-39.5	22.8	0.00e+00	0	39	0	247463936	50	6044
2026-01-02 13:50:46.67	28.19	12.97	-38.7	-39.6	22.7	0.00e+00	0	39	0	249561088	50	6154
2026-01-02 13:50:47.68	28.27	13.06	-38.8	-39.7	22.6	0.00e+00	0	39	0	251658240	50	6236
2026-01-02 13:50:48.69	28.35	13.15	-38.7	-39.7	22.6	0.00e+00	0	39	0	253755392	50	6225
2026-01-02 13:50:49.70	28.42	13.24	-39.0	-40.0	22.4	0.00e+00	0	39	0	255852544	50	6400
2026-01-02 13:50:50.71	28.50	13.34	-38.8	-39.8	22.5	0.00e+00	0	39	0	256901120	50	6311
2026-01-02 13:50:51.72	28.58	13.43	-38.6	-39.6	22.7	0.00e+00	0	39	0	258998272	50	6147
2026-01-02 13:50:52.73	28.66	13.52	-38.8	-39.8	22.6	0.00e+00	0	39	0	261095424	50	6271
2026-01-02 13:50:53.74	28.74	13.62	-38.9	-40.0	22.6	0.00e+00	0	39	0	263192576	50	6392
2026-01-02 13:50:54.75	28.82	13.71	-38.9	-39.9	22.6	0.00e+00	0	39	0	264241152	50	6364
2026-01-02 13:50:55.76	28.90	13.80	-38.8	-39.8	22.7	0.00e+00	0	39	0	266338304	50	6257
2026-01-02 13:50:56.77	28.98	13.90	-38.8	-39.8	22.5	0.00e+00	0	39	0	268435456	50	6304
2026-01-02 13:50:57.78	29.06	13.99	-38.8	-39.8	22.6	0.00e+00	0	39	0	270532608	50	6258
2026-01-02 13:50:58.79	29.14	14.09	-38.9	-39.9	22.6	0.00e+00	0	39	0	272629760	50	6339
2026-01-02 13:50:59.79	29.22	14.18	-38.9	-39.9	22.6	0.00e+00	0	39	0	274726912	50	6325
2026-01-02 13:51:00.80	29.30	14.28	-38.7	-39.7	22.7	0.00e+00	0	39	0	275775488	50	6197
2026-01-02 13:51:01.81	29.38	14.37	-38.5	-39.5	22.8	0.00e+00	0	39	0	277872640	50	6061
2026-01-02 13:51:02.82	29.47	14.47	-38.6	-39.6	22.8	0.00e+00	0	39	0	279969792	50	6139
2026-01-02 13:51:03.83	29.55	14.56	-38.8	-39.8	22.6	0.00e+00	0	39	0	282066944	50	6288
2026-01-02 13:51:04.84	29.64	14.66	-38.7	-39.7	22.8	0.00e+00	0	39	0	284164096	50	6210
2026-01-02 13:51:05.85	29.72	14.76	-38.8	-39.7	22.7	0.00e+00	0	39	0	285212672	50	6245
2026-01-02 13:51:06.86	29.81	14.86	-38.7	-39.6	22.8	0.00e+00	0	39	0	287309824	50	6173
2026-01-02 13:51:07.87	29.89	14.95	-38.7	-39.7	22.8	0.00e+00	0	39	0	289406976	50	6219
2026-01-02 13:51:08.88	29.98	15.05	-38.8	-39.8	22.6	0.00e+00	0	39	0	291504128	50	6294
2026-01-02 13:51:09.88	30.06	15.15	-38.9	-39.9	22.6	0.00e+00	0	39	0	293601280	50	6387
2026-01-02 13:51:10.89	30.15	15.25	-39.0	-40.0	22.4	0.00e+00	0	39	0	294649856	50	6407
2026-01-02 13:51:11.91	30.24	15.35	-39.1	-40.1	22.4	0.00e+00	0	39	0	296747008	50	6490
2026-01-02 13:51:12.91	30.33	15.45	-39.1	-40.1	22.5	0.00e+00	0	39	0	298844160	50	6489
2026-01-02 13:51:13.92	30.42	15.55	-39.2	-40.2	22.3	0.00e+00	0	39	0	300941312	50	6550
2026-01-02 13:51:14.93	30.51	15.65	-39.1	-40.1	22.4	0.00e+00	0	39	0	303038464	50	6509
2026-01-02 13:51:15.94	30.60	15.75	-39.2	-40.2	22.4	0.00e+00	0	39	0	304087040	50	6576
2026-01-02 13:51:16.95	30.69	15.85	-39.4	-40.4	22.1	0.00e+00	0	39	0	306184192	50	6758
2026-01-02 13:51:17.96	30.78	15.95	-39.4	-40.5	22.0	0.00e+00	0	39	0	308281344	50	6804
2026-01-02 13:51:18.97	30.87	16.05	-39.4	-40.5	22.1	0.00e+00	0	39	0	310378496	50	6777
2026-01-02 13:51:19.98	30.97	16.15	-39.1	-40.2	22.4	0.00e+00	0	39	0	312475648	50	6551
2026-01-02 13:51:20.99	31.06	16.26	-39.3	-40.3	22.2	0.00e+00	0	39	0	313524224	50	6691
2026-01-02 13:51:22.00	31.15	16.36	-39.5	-40.5	22.2	0.00e+00	0	39	0	315621376	50	6837
2026-01-02 13:51:23.01	31.25	16.46	-39.3	-40.3	22.1	0.00e+00	0	39	0	317718528	50	6658
2026-01-02 13:51:24.02	31.34	16.57	-39.3	-40.4	22.2	0.00e+00	0	39	0	319815680	50	6695
2026-01-02 13:51:25.03	31.44	16.67	-39.2	-40.2	22.3	0.00e+00	0	39	0	321912832	50	6545
2026-01-02 13:51:26.03	31.53	16.77	-39.3	-40.3	22.3	0.00e+00	0	39	0	322961408	50	6670
2026-01-02 13:51:27.04	31.63	16.88	-39.4	-40.5	22.1	0.00e+00	0	39	0	325058560	50	6795
2026-01-02 13:51:28.06	31.73	16.98	-39.4	-40.5	22.1	0.00e+00	0	39	0	327155712	50	6774
2026-01-02 13:51:29.06	31.83	17.09	-39.6	-40.7	22.0	0.00e+00	0	39	0	329252864	52	6218
2026-01-02 13:51:30.07	31.93	17.19	-39.5	-40.5	22.3	0.00e+00	0	39	0	331350016	52	6067
2026-01-02 13:51:31.09	32.03	17.30	-39.5	-40.6	22.1	0.00e+00	0	39	0	332398592	52	6138
2026-01-02 13:51:32.10	32.13	17.41	-39.7	-40.7	22.1	0.00e+00	0	39	0	334495744	52	6234
2026-01-02 13:51:33.11	32.23	17.51	-39.7	-40.7	21.9	0.00e+00	0	39	0	336592896	52	6244
2026-01-02 13:51:34.11	32.33	17.62	-39.6	-40.6	22.1	0.00e+00	0	39	0	338690048	52	6170
2026-01-02 13:51:35.12	32.43	17.73	-39.8	-40.9	21.7	0.00e+00	0	39	0	340787200	52	6348
2026-01-02 13:51:36.13	32.53	17.84	-39.9	-41.0	21.9	0.00e+00	0	39	0	342884352	52	6407
2026-01-02 13:51:37.14	32.64	17.94	-40.0	-41.1	21.6	0.00e+00	0	39	0	343932928	52	6517
2026-01-02 13:51:38.15	32.74	18.05	-39.8	-40.9	21.9	0.00e+00	0	39	0	346030080	52	6379
2026-01-02 13:51:39.16	32.85	18.16	-39.7	-40.7	21.9	0.00e+00	0	39	0	348127232	52	6244
2026-01-02 13:51:40.17	32.95	18.27	-39.7	-40.8	21.9	0.00e+00	0	39	0	350224384	52	6312
2026-01-02 13:51:41.18	33.06	18.38	-39.6	-40.7	22.1	0.00e+00	0	39	0	352321536	52	6195
2026-01-02 13:51:42.19	33.17	18.49	-39.5	-40.6	22.1	0.00e+00	0	39	0	353370112	52	6143
2026-01-02 13:51:43.19	33.28	18.60	-39.4	-40.5	22.2	0.00e+00	0	39	0	355467264	52	6035
2026-01-02 13:51:44.20	33.38	18.71	-39.3	-40.4	22.3	0.00e+00	0	39	0	357564416	52	5967
2026-01-02 13:51:45.21	33.49	18.83	-39.4	-40.4	22.2	0.00e+00	0	39	0	359661568	52	6013
2026-01-02 13:51:46.22	33.60	18.94	-39.5	-40.5	22.3	0.00e+00	0	39	0	361758720	52	6056
2026-01-02 13:51:47.23	33.72	19.05	-39.2	-40.2	22.5	0.00e+00	0	39	0	362807296	52	5833
2026-01-02 13:51:48.24	33.83	19.16	-39.2	-40.2	22.4	0.00e+00	0	39	0	364904448	52	5829
2026-01-02 13:51:49.25	33.94	19.28	-39.6	-40.7	21.9	0.00e+00	0	39	0	367001600	52	6201
2026-01-02 13:51:50.26	34.05	19.39	-39.8	-40.8	22.2	0.00e+00	0	39	0	369098752	52	6317
2026-01-02 13:51:51.27	34.17	19.50	-39.2	-40.2	22.0	0.00e+00	0	39	0	371195904	52	5881
2026-01-02 13:51:52.28	34.28	19.62	-39.8	-40.9	21.9	0.00e+00	0	39	0	372244480	52	6362
2026-01-02 13:51:53.29	34.40	19.73	-39.5	-40.5	22.2	0.00e+00	0	39	0	374341632	52	6080
2026-01-02 13:51:54.30	34.52	19.85	-39.6	-40.6	22.1	0.00e+00	0	39	0	376438784	52	6161
2026-01-02 13:51:55.31	34.64	19.97	-39.8	-40.9	21.9	0.00e+00	0	39	0	378535936	52	6331
2026-01-02 13:51:56.32	34.75	20.08	-39.6	-40.7	22.1	0.00e+00	0	39	0	380633088	52	6175
2026-01-02 13:51:57.33	34.87	20.20	-39.5	-40.5	22.1	0.00e+00	0	39	0	381681664	52	6094
2026-01-02 13:51:58.33	34.99	20.31	-39.3	-40.4	22.4	0.00e+00	0	39	0	383778816	52	5976
2026-01-02 13:51:59.34	35.11	20.43	-39.6	-40.6	22.1	0.00e+00	0	39	0	385875968	52	6142
2026-01-02 13:52:00.35	35.24	20.55	-39.6	-40.7	22.1	0.00e+00	0	39	0	387973120	52	6193
2026-01-02 13:52:01.36	35.36	20.67	-39.9	-41.0	21.8	0.00e+00	0	39	0	390070272	52	6429
2026-01-02 13:52:02.37	35.48	20.79	-39.4	-40.4	22.3	0.00e+00	0	39	0	391118848	52	6027
2026-01-02 13:52:03.38	35.61	20.91	-39.3	-40.3	22.5	0.00e+00	0	39	0	393216000	52	5920
2026-01-02 13:52:04.39	35.73	21.03	-39.5	-40.5	22.3	0.00e+00	0	39	0	395313152	52	6088
2026-01-02 13:52:05.40	35.86	21.15	-39.7	-40.7	22.1	0.00e+00	0	39	0	397410304	52	6225
2026-01-02 13:52:06.41	35.99	21.27	-39.7	-40.8	22.3	0.00e+00	0	39	0	399507456	52	6251
2026-01-02 13:52:07.42	36.12	21.39	-39.8	-40.9	22.0	0.00e+00	0	39	0	400556032	52	6331
2026-01-02 13:52:08.43	36.25	21.51	-39.7	-40.8	22.0	0.00e+00	0	39	0	402653184	52	6249
2026-01-02 13:52:09.44	36.38	21.63	-39.5	-40.5	22.2	0.00e+00	0	39	0	404750336	52	6102
2026-01-02 13:52:10.45	36.51	21.75	-39.5	-40.5	22.3	0.00e+00	0	39	0	406847488	52	6064
2026-01-02 13:52:11.46	36.64	21.88	-39.8	-40.9	21.9	0.00e+00	0	39	0	408944640	52	6372
2026-01-02 13:52:12.47	36.78	22.00	-39.5	-40.5	22.2	0.00e+00	0	39	0	411041792	52	6096
2026-01-02 13:52:13.47	36.91	22.12	-39.5	-40.6	22.3	0.00e+00	0	39	0	412090368	52	6110
2026-01-02 13:52:14.48	37.05	22.25	-39.7	-40.7	22.2	0.00e+00	0	39	0	414187520	52	6231
2026-01-02 13:52:15.49	37.18	22.37	-39.6	-40.6	22.4	0.00e+00	0	39	0	416284672	52	6156
2026-01-02 13:52:16.50	37.32	22.50	-39.4	-40.5	22.4	0.00e+00	0	39	0	418381824	52	6034
2026-01-02 13:52:17.51	37.46	22.62	-39.4	-40.4	22.2	0.00e+00	0	39	0	420478976	52	5997
2026-01-02 13:52:18.52	37.60	22.75	-39.4	-40.4	22.3	0.00e+00	0	39	0	421527552	52	6020
2026-01-02 13:52:19.53	37.74	22.87	-39.4	-40.4	22.3	0.00e+00	0	39	0	423624704	52	5984
2026-01-02 13:52:20.54	37.88	23.00	-39.7	-40.8	22.1	0.00e+00	0	39	0	425721856	52	6266
2026-01-02 13:52:21.55	38.03	23.13	-39.6	-40.6	22.3	0.00e+00	0	39	0	427819008	52	6160
2026-01-02 13:52:22.55	38.17	23.25	-39.2	-40.2	22.6	0.00e+00	0	39	0	429916160	52	5865
2026-01-02 13:52:23.57	38.32	23.38	-39.3	-40.3	22.4	0.00e+00	0	39	0	430964736	52	5935
2026-01-02 13:52:24.57	38.46	23.51	-39.1	-40.1	22.7	0.00e+00	0	39	0	433061888	52	5770
2026-01-02 13:52:25.58	38.61	23.64	-39.2	-40.2	22.5	0.00e+00	0	39	0	435159040	52	5847
2026-01-02 13:52:26.59	38.76	23.77	-39.3	-40.3	22.5	0.00e+00	0	39	0	437256192	52	5929
2026-01-02 13:52:27.60	38.91	23.90	-39.2	-40.2	22.7	0.00e+00	0	39	0	439353344	52	5841
2026-01-02 13:52:28.61	39.06	24.03	-39.2	-40.2	22.5	0.00e+00	0	39	0	440401920	52	5891
2026-01-02 13:52:29.62	39.21	24.16	-39.4	-40.5	22.3	0.00e+00	0	39	0	442499072	52	6064
2026-01-02 13:52:30.63	39.37	24.29	-39.3	-40.3	22.3	0.00e+00	0	39	0	444596224	52	5960
2026-01-02 13:52:31.64	39.52	24.43	-39.4	-40.4	22.5	0.00e+00	0	39	0	446693376	52	5991
2026-01-02 13:52:32.65	39.68	24.56	-39.4	-40.4	22.3	0.00e+00	0	39	0	448790528	52	6011
2026-01-02 13:52:33.66	39.84	24.69	-39.2	-40.3	22.5	0.00e+00	0	39	0	449839104	52	5898
2026-01-02 13:52:34.67	40.00	24.82	-39.3	-40.3	22.4	0.00e+00	0	39	0	451936256	52	5923
2026-01-02 13:52:35.68	40.16	24.96	-39.4	-40.4	22.4	0.00e+00	0	39	0	454033408	52	5996
2026-01-02 13:52:36.69	40.32	25.09	-39.5	-40.5	22.3	0.00e+00	0	39	0	456130560	52	6070
2026-01-02 13:52:37.70	40.48	25.23	-39.1	-40.1	22.6	0.00e+00	0	39	0	458227712	52	5804
2026-01-02 13:52:38.71	40.65	25.36	-39.0	-40.0	22.6	0.00e+00	0	39	0	459276288	52	5728
2026-01-02 13:52:39.71	40.81	25.50	-39.1	-40.1	22.1	0.00e+00	0	39	0	461373440	52	5784
2026-01-02 13:52:40.72	40.98	25.63	-38.7	-39.6	22.7	0.00e+00	0	39	0	463470592	50	6171
2026-01-02 13:52:41.73	41.15	25.77	-38.9	-39.8	22.9	0.00e+00	0	39	0	465567744	50	6294
2026-01-02 13:52:42.74	41.32	25.91	-38.7	-39.7	23.0	0.00e+00	0	39	0	467664896	50	6195
2026-01-02 13:52:43.75	41.49	26.04	-39.2	-40.2	22.6	0.00e+00	0	39	0	468713472	50	6601
2026-01-02 13:52:44.76	41.66	26.18	-39.2	-40.2	22.5	0.00e+00	0	39	0	470810624	50	6580
2026-01-02 13:52:45.77	41.84	26.32	-39.6	-40.7	22.1	0.00e+00	0	39	0	472907776	50	6970
2026-01-02 13:52:46.78	42.01	26.46	-39.8	-40.9	21.9	0.00e+00	0	39	0	475004928	52	6360
2026-01-02 13:52:47.78	42.19	26.60	-39.8	-40.9	21.8	0.00e+00	0	39	0	477102080	52	6359
2026-01-02 13:52:48.79	42.37	26.73	-40.1	-41.2	21.7	0.00e+00	0	39	0	478150656	52	6612
2026-01-02 13:52:49.81	42.55	26.88	-39.8	-40.8	22.1	0.00e+00	0	39	0	480247808	52	6295
2026-01-02 13:52:50.81	42.73	27.02	-39.7	-40.8	22.1	0.00e+00	0	39	0	482344960	52	6259
2026-01-02 13:52:51.83	42.92	27.16	-39.4	-40.4	22.5	0.00e+00	0	39	0	484442112	52	5975
2026-01-02 13:52:52.83	43.10	27.30	-39.0	-40.0	22.8	0.00e+00	0	39	0	486539264	52	5723
2026-01-02 13:52:53.84	43.29	27.44	-39.0	-39.9	22.8	0.00e+00	0	39	0	487587840	52	5691
2026-01-02 13:52:54.85	43.48	27.58	-38.9	-39.9	22.9	0.00e+00	0	39	0	489684992	52	5644
2026-01-02 13:52:55.86	43.67	27.72	-39.2	-40.2	22.6	0.00e+00	0	39	0	491782144	52	5875
2026-01-02 13:52:56.87	43.86	27.87	-39.2	-40.2	22.5	0.00e+00	0	39	0	493879296	52	5849
2026-01-02 13:52:57.88	44.05	28.01	-39.6	-40.6	22.1	0.00e+00	0	39	0	495976448	52	6144
2026-01-02 13:52:58.89	44.25	28.15	-39.7	-40.8	22.1	0.00e+00	0	39	0	497025024	52	6272
2026-01-02 13:52:59.90	44.44	28.30	-40.0	-41.1	21.9	0.00e+00	0	39	0	499122176	52	6529
2026-01-02 13:53:00.91	44.64	28.44	-40.0	-41.1	22.1	0.00e+00	0	39	0	501219328	52	6524
2026-01-02 13:53:01.92	44.84	28.59	-39.9	-41.0	21.9	0.00e+00	0	39	0	503316480	52	6460
2026-01-02 13:53:02.92	45.04	28.73	-39.9	-41.0	22.0	0.00e+00	0	39	0	505413632	52	6402
2026-01-02 13:53:03.93	45.25	28.88	-40.1	-41.2	21.9	0.00e+00	0	39	0	507510784	52	6606
2026-01-02 13:53:04.95	45.46	29.02	-40.3	-41.4	21.7	0.00e+00	0	39	0	508559360	52	6714
2026-01-02 13:53:05.95	45.66	29.17	-39.9	-41.0	22.0	0.00e+00	0	39	0	510656512	52	6421
2026-01-02 13:53:06.96	45.87	29.32	-40.0	-41.1	21.9	0.00e+00	0	39	0	512753664	52	6514
2026-01-02 13:53:07.97	46.08	29.46	-39.9	-41.0	22.0	0.00e+00	0	39	0	514850816	52	6425
2026-01-02 13:53:08.98	46.30	29.61	-39.9	-41.0	21.9	0.00e+00	0	39	0	516947968	52	6406
2026-01-02 13:53:09.99	46.51	29.76	-39.7	-40.7	21.9	0.00e+00	0	39	0	517996544	52	6201
2026-01-02 13:53:11.00	46.73	29.91	-40.2	-41.3	21.7	0.00e+00	0	39	0	520093696	52	6686
2026-01-02 13:53:12.01	46.95	30.06	-40.4	-41.5	21.5	0.00e+00	0	39	0	522190848	52	6801
2026-01-02 13:53:13.02	47.17	30.20	-40.5	-41.7	20.8	0.00e+00	0	39	0	524288000	52	6973
2026-01-02 13:53:14.03	47.39	30.35	-40.8	-42.0	21.0	0.00e+00	0	39	0	526385152	54	6406
2026-01-02 13:53:15.04	47.62	30.50	-41.3	-42.6	20.5	0.00e+00	0	39	0	527433728	54	6896
2026-01-02 13:53:16.05	47.84	30.65	-41.4	-42.7	20.5	0.00e+00	0	39	0	529530880	54	6997
2026-01-02 13:53:17.06	48.07	30.80	-41.3	-42.7	20.3	0.00e+00	0	39	0	531628032	54	6953
2026-01-02 13:53:18.07	48.31	30.95	-41.4	-42.8	20.6	0.00e+00	0	39	0	533725184	54	7038
2026-01-02 13:53:19.08	48.54	31.10	-40.9	-42.2	20.8	0.00e+00	0	39	0	535822336	54	6563
2026-01-02 13:53:20.08	48.77	31.25	-40.4	-41.6	21.4	0.00e+00	0	39	0	536870912	54	6105
2026-01-02 13:53:21.09	49.01	31.41	-40.5	-41.6	21.5	0.00e+00	0	39	0	538968064	54	6167
2026-01-02 13:53:22.10	49.25	31.56	-40.3	-41.4	21.7	0.00e+00	0	39	0	541065216	54	5991
2026-01-02 13:53:23.11	49.49	31.71	-40.2	-41.3	21.8	0.00e+00	0	39	0	543162368	54	5960
2026-01-02 13:53:24.12	49.74	31.86	-40.3	-41.5	21.5	0.00e+00	0	39	0	545259520	54	6062
2026-01-02 13:53:25.13	49.98	32.01	-40.2	-41.3	21.6	0.00e+00	0	39	0	546308096	54	5919
2026-01-02 13:53:26.14	50.23	32.17	-39.9	-40.9	21.9	0.00e+00	0	39	0	548405248	54	5684
2026-01-02 13:53:27.15	50.48	32.32	-40.0	-41.1	21.9	0.00e+00	0	39	0	550502400	54	5771
2026-01-02 13:53:28.16	50.74	32.47	-39.7	-40.8	22.0	0.00e+00	0	39	0	552599552	52	6294
2026-01-02 13:53:29.17	50.99	32.62	-39.7	-40.7	22.2	0.00e+00	0	39	0	554696704	52	6225
2026-01-02 13:53:30.18	51.25	32.78	-40.2	-41.3	21.8	0.00e+00	0	39	0	555745280	52	6682
2026-01-02 13:53:31.18	51.51	32.93	-40.0	-41.1	21.8	0.00e+00	0	39	0	557842432	52	6516
2026-01-02 13:53:32.20	51.78	33.08	-40.2	-41.4	21.6	0.00e+00	0	39	0	559939584	52	6698
2026-01-02 13:53:33.21	52.04	33.24	-39.9	-41.0	21.8	0.00e+00	0	39	0	562036736	52	6415
2026-01-02 13:53:34.22	52.31	33.39	-39.9	-40.9	22.1	0.00e+00	0	39	0	564133888	52	6372
2026-01-02 13:53:35.23	52.58	33.54	-40.0	-41.0	21.9	0.00e+00	0	39	0	565182464	52	6457
2026-01-02 13:53:36.24	52.85	33.70	-39.8	-40.8	22.1	0.00e+00	0	39	0	567279616	52	6292
2026-01-02 13:53:37.24	53.13	33.85	-40.0	-41.1	21.9	0.00e+00	0	39	0	569376768	52	6507
2026-01-02 13:53:38.25	53.40	34.00	-40.4	-41.6	21.3	0.00e+00	0	39	0	571473920	52	6861
2026-01-02 13:53:39.26	53.69	34.16	-40.9	-42.1	20.9	0.00e+00	0	39	0	573571072	54	6531
2026-01-02 13:53:40.27	53.97	34.31	-41.2	-42.5	20.7	0.00e+00	0	39	0	575668224	54	6803
2026-01-02 13:53:41.28	54.26	34.47	-41.5	-42.9	20.2	0.00e+00	0	39	0	576716800	54	7137
2026-01-02 13:53:42.29	54.54	34.62	-41.6	-43.0	20.1	0.00e+00	0	39	0	578813952	54	7251
2026-01-02 13:53:43.30	54.84	34.77	-41.0	-42.3	20.9	0.00e+00	0	39	0	580911104	54	6655
2026-01-02 13:53:44.31	55.13	34.93	-40.5	-41.6	21.5	0.00e+00	0	39	0	583008256	54	6158
2026-01-02 13:53:45.31	55.42	35.08	-40.1	-41.1	21.9	0.00e+00	0	39	0	585105408	54	5826
2026-01-02 13:53:46.33	55.73	35.24	-39.9	-41.0	22.0	0.00e+00	0	39	0	586153984	52	6399
2026-01-02 13:53:47.33	56.03	35.39	-39.3	-40.4	22.5	0.00e+00	0	39	0	588251136	52	5967
2026-01-02 13:53:48.35	56.33	35.54	-40.0	-41.1	21.6	0.00e+00	0	39	0	590348288	52	6512
2026-01-02 13:53:49.35	56.64	35.70	-40.2	-41.3	21.9	0.00e+00	0	39	0	592445440	52	6641
2026-01-02 13:53:50.36	56.95	35.85	-40.5	-41.7	21.5	0.00e+00	0	39	0	594542592	52	6965
2026-01-02 13:53:51.37	57.27	36.00	-40.3	-41.5	21.7	0.00e+00	0	39	0	595591168	52	6780
2026-01-02 13:53:52.38	57.58	36.15	-40.4	-41.6	21.4	0.00e+00	0	40	0	597688320	52	6876
2026-01-02 13:53:53.39	57.90	36.31	-40.3	-41.4	21.7	0.00e+00	0	39	0	599785472	52	6715
2026-01-02 13:53:54.40	58.22	36.46	-40.2	-41.4	21.3	0.00e+00	0	39	0	601882624	52	6700
2026-01-02 13:53:55.41	58.55	36.61	-40.4	-41.5	21.4	0.00e+00	0	39	0	603979776	52	6846
2026-01-02 13:53:56.42	58.88	36.76	-39.8	-40.8	22.3	0.00e+00	0	39	0	605028352	52	6306
2026-01-02 13:53:57.43	59.21	36.91	-38.8	-39.8	23.0	0.00e+00	0	39	0	607125504	52	5583
2026-01-02 13:53:58.44	59.55	37.06	-38.8	-39.8	22.9	0.00e+00	0	39	0	609222656	50	6258
2026-01-02 13:53:59.45	59.88	37.22	-39.0	-40.0	22.8	0.00e+00	0	39	0	611319808	50	6397
2026-01-02 13:54:00.46	60.22	37.37	-39.6	-40.6	22.3	0.00e+00	0	39	0	613416960	50	6892
2026-01-02 13:54:01.47	60.57	37.52	-40.4	-41.5	21.6	0.00e+00	0	39	0	614465536	52	6807
2026-01-02 13:54:02.47	60.91	37.66	-41.0	-42.2	20.9	0.00e+00	0	39	0	616562688	54	6602
2026-01-02 13:54:03.49	61.27	37.81	-41.5	-42.8	20.4	0.00e+00	0	39	0	618659840	54	7079
2026-01-02 13:54:04.49	61.62	37.96	-40.9	-42.1	21.0	0.00e+00	0	39	0	620756992	54	6515
2026-01-02 13:54:05.50	61.97	38.11	-40.6	-41.8	21.4	0.00e+00	0	39	0	622854144	54	6264
2026-01-02 13:54:06.51	62.33	38.25	-40.4	-41.5	21.4	0.00e+00	0	39	0	623902720	54	6087
2026-01-02 13:54:07.52	62.70	38.40	-40.2	-41.3	21.6	0.00e+00	0	39	0	625999872	54	5919
2026-01-02 13:54:08.53	63.06	38.55	-40.4	-41.6	21.4	0.00e+00	0	39	0	628097024	54	6139
2026-01-02 13:54:09.54	63.43	38.69	-40.3	-41.4	21.5	0.00e+00	0	39	0	630194176	54	6012
2026-01-02 13:54:10.55	63.81	38.84	-40.7	-41.9	21.4	0.00e+00	0	39	0	632291328	54	6387
2026-01-02 13:54:11.56	64.18	38.98	-41.0	-42.3	20.8	0.00e+00	0	39	0	633339904	54	6633
2026-01-02 13:54:12.57	64.56	39.12	-40.7	-41.8	21.2	0.00e+00	0	39	0	635437056	54	6315
2026-01-02 13:54:13.58	64.94	39.27	-40.3	-41.5	21.5	0.00e+00	0	39	0	637534208	54	6067
2026-01-02 13:54:14.59	65.33	39.41	-39.7	-40.8	21.9	0.00e+00	0	39	0	639631360	54	5616
2026-01-02 13:54:15.60	65.72	39.55	-39.8	-40.9	22.1	0.00e+00	0	39	0	641728512	52	6348
2026-01-02 13:54:16.61	66.11	39.69	-39.5	-40.5	22.2	0.00e+00	0	39	0	643825664	52	6100
2026-01-02 13:54:17.62	66.51	39.83	-39.5	-40.6	22.2	0.00e+00	0	39	0	644874240	52	6134
2026-01-02 13:54:18.63	66.91	39.96	-39.7	-40.7	22.2	0.00e+00	0	39	0	646971392	52	6242
2026-01-02 13:54:19.64	67.31	40.10	-39.6	-40.7	22.1	0.00e+00	0	39	0	649068544	52	6197
2026-01-02 13:54:20.64	67.71	40.23	-39.5	-40.5	22.4	0.00e+00	0	39	0	651165696	52	6076
2026-01-02 13:54:21.65	68.12	40.37	-39.5	-40.6	22.2	0.00e+00	0	39	0	653262848	52	6130
2026-01-02 13:54:22.66	68.54	40.50	-39.8	-40.9	22.1	0.00e+00	0	39	0	654311424	52	6337
2026-01-02 13:54:23.67	68.95	40.64	-40.2	-41.4	21.7	0.00e+00	0	39	0	656408576	52	6704
2026-01-02 13:54:24.68	69.37	40.77	-39.9	-41.1	21.9	0.00e+00	0	39	0	658505728	52	6466
2026-01-02 13:54:25.69	69.79	40.90	-40.3	-41.4	21.6	0.00e+00	0	39	0	660602880	52	6751
2026-01-02 13:54:26.70	70.22	41.03	-40.1	-41.2	21.7	0.00e+00	0	39	0	662700032	52	6575
2026-01-02 13:54:27.71	70.65	41.15	-39.7	-40.8	22.2	0.00e+00	0	39	0	663748608	52	6250
2026-01-02 13:54:28.72	71.08	41.28	-39.6	-40.7	22.2	0.00e+00	0	39	0	665845760	52	6223
2026-01-02 13:54:29.73	71.52	41.40	-39.1	-40.1	22.7	0.00e+00	0	39	0	667942912	52	5782
2026-01-02 13:54:30.74	71.96	41.53	-38.8	-39.8	23.0	0.00e+00	0	39	0	670040064	52	5605
2026-01-02 13:54:31.75	72.40	41.65	-38.5	-39.4	23.0	0.00e+00	0	39	0	672137216	50	6029
2026-01-02 13:54:32.75	72.84	41.77	-38.5	-39.5	23.3	0.00e+00	0	39	0	673185792	50	6040
2026-01-02 13:54:33.76	73.29	41.89	-39.2	-40.2	22.6	0.00e+00	0	39	0	675282944	50	6560
2026-01-02 13:54:34.77	73.75	42.00	-39.6	-40.6	22.2	0.00e+00	0	39	0	677380096	50	6884
2026-01-02 13:54:35.78	74.20	42.12	-40.1	-41.2	21.7	0.00e+00	0	39	0	679477248	52	6595
2026-01-02 13:54:36.79	74.66	42.23	-40.3	-41.4	21.6	0.00e+00	0	39	0	681574400	52	6752
2026-01-02 13:54:37.80	75.12	42.35	-40.3	-41.4	21.5	0.00e+00	0	39	0	682622976	52	6720
2026-01-02 13:54:38.81	75.59	42.46	-40.4	-41.5	21.5	0.00e+00	0	39	0	684720128	52	6795
2026-01-02 13:54:39.82	76.06	42.57	-40.0	-41.2	21.7	0.00e+00	0	39	0	686817280	52	6553
2026-01-02 13:54:40.83	76.53	42.67	-40.4	-41.6	21.5	0.00e+00	0	39	0	688914432	52	6854
2026-01-02 13:54:41.84	77.01	42.78	-40.1	-41.2	21.8	0.00e+00	0	39	0	691011584	52	6613
2026-01-02 13:54:42.85	77.49	42.88	-39.5	-40.5	22.4	0.00e+00	0	39	0	692060160	52	6060
2026-01-02 13:54:43.86	77.97	42.98	-39.5	-40.5	22.2	0.00e+00	0	39	0	694157312	52	6055
2026-01-02 13:54:44.87	78.45	43.08	-39.9	-41.0	22.1	0.00e+00	0	39	0	696254464	52	6396
2026-01-02 13:54:45.87	78.93	43.18	-40.5	-41.6	21.5	0.00e+00	0	39	0	698351616	52	6919
2026-01-02 13:54:46.88	79.42	43.27	-39.9	-40.9	22.0	0.00e+00	0	39	0	700448768	52	6371
2026-01-02 13:54:47.89	79.92	43.37	-40.6	-41.8	21.3	0.00e+00	0	39	0	701497344	52	7045
2026-01-02 13:54:48.90	80.41	43.46	-40.9	-42.2	20.9	0.00e+00	0	39	0	703594496	54	6590
2026-01-02 13:54:49.91	80.91	43.55	-40.8	-42.1	20.9	0.00e+00	0	39	0	705691648	54	6495
2026-01-02 13:54:50.92	81.41	43.64	-40.2	-41.3	21.8	0.00e+00	0	39	0	707788800	54	5956
2026-01-02 13:54:51.93	81.92	43.72	-39.3	-40.3	22.7	0.00e+00	0	39	0	709885952	52	5924
2026-01-02 13:54:52.94	82.42	43.80	-38.7	-39.6	22.8	0.00e+00	0	39	0	710934528	52	5465
2026-01-02 13:54:53.95	82.93	43.88	-38.8	-39.8	23.0	0.00e+00	0	39	0	713031680	50	6293
2026-01-02 13:54:54.96	83.44	43.96	-38.8	-39.7	23.0	0.00e+00	0	39	0	715128832	50	6233
2026-01-02 13:54:55.97	83.96	44.04	-38.7	-39.6	23.0	0.00e+00	0	39	0	717225984	50	6148
2026-01-02 13:54:56.98	84.48	44.11	-39.1	-40.1	22.7	0.00e+00	0	39	0	719323136	50	6466
2026-01-02 13:54:57.99	84.99	44.18	-39.3	-40.4	22.4	0.00e+00	0	39	0	720371712	50	6726
2026-01-02 13:54:58.99	85.51	44.25	-39.1	-40.2	22.7	0.00e+00	0	39	0	722468864	50	6564
2026-01-02 13:55:00.00	86.03	44.32	-38.8	-39.8	22.8	0.00e+00	0	39	0	724566016	50	6258
2026-01-02 13:55:01.01	86.56	44.38	-38.6	-39.5	23.2	0.00e+00	0	39	0	726663168	50	6086
2026-01-02 13:55:02.02	87.09	44.44	-39.1	-40.1	22.6	0.00e+00	0	39	0	728760320	50	6530
2026-01-02 13:55:03.03	87.62	44.50	-39.5	-40.5	22.3	0.00e+00	0	39	0	729808896	50	6812
2026-01-02 13:55:04.04	88.15	44.56	-39.2	-40.2	22.6	0.00e+00	0	39	0	731906048	50	6595
2026-01-02 13:55:05.05	88.68	44.61	-38.8	-39.8	22.8	0.00e+00	0	39	0	734003200	50	6261
2026-01-02 13:55:06.06	89.22	44.66	-39.0	-40.0	22.7	0.00e+00	0	39	0	736100352	50	6437
2026-01-02 13:55:07.07	89.75	44.71	-38.8	-39.8	22.9	0.00e+00	0	39	0	738197504	50	6253
2026-01-02 13:55:08.08	90.29	44.75	-38.3	-39.2	23.5	0.00e+00	0	39	0	740294656	50	5887
2026-01-02 13:55:09.09	90.83	44.80	-37.6	-38.4	24.1	0.00e+00	0	39	0	741343232	50	5357
2026-01-02 13:55:10.10	91.37	44.84	-36.5	-37.3	24.7	0.00e+00	0	39	0	743440384	46	5937
2026-01-02 13:55:11.11	91.92	44.87	-36.9	-37.7	24.5	0.00e+00	0	39	0	745537536	46	6202
2026-01-02 13:55:12.12	92.46	44.91	-37.5	-38.4	24.0	0.00e+00	0	39	0	747634688	46	6697
2026-01-02 13:55:13.13	93.00	44.94	-38.3	-39.2	23.1	0.00e+00	0	39	0	749731840	48	6590
2026-01-02 13:55:14.14	93.55	44.97	-38.7	-39.6	23.2	0.00e+00	0	39	0	750780416	50	6171
2026-01-02 13:55:15.14	94.09	44.99	-38.6	-39.5	23.3	0.00e+00	0	39	0	752877568	50	6055
2026-01-02 13:55:16.15	94.64	45.02	-38.0	-38.9	23.6	0.00e+00	0	39	0	754974720	50	5653
2026-01-02 13:55:17.16	95.19	45.04	-38.0	-38.9	23.7	0.00e+00	0	39	0	757071872	50	5643
2026-01-02 13:55:18.17	95.74	45.05	-38.0	-38.9	23.6	0.00e+00	0	39	0	759169024	50	5652
2026-01-02 13:55:19.18	96.29	45.07	-37.7	-38.6	23.8	0.00e+00	0	39	0	760217600	48	6105
2026-01-02 13:55:20.18	96.83	45.08	-37.7	-38.6	23.8	0.00e+00	0	39	0	762314752	48	6107
2026-01-02 13:55:21.20	97.39	45.09	-38.4	-39.4	23.2	0.00e+00	0	39	0	764411904	48	6701
2026-01-02 13:55:22.21	97.94	45.10	-38.3	-39.3	23.1	0.00e+00	0	39	0	766509056	48	6645
2026-01-02 13:55:23.22	98.49	45.10	-38.7	-39.7	23.0	0.00e+00	0	39	0	768606208	50	6219
2026-01-02 13:55:24.22	99.03	45.10	-38.6	-39.5	23.1	0.00e+00	0	39	0	769654784	50	6080
2026-01-02 13:55:25.23	99.59	45.10	-38.1	-39.0	23.5	0.00e+00	0	39	0	771751936	50	5716
2026-01-02 13:55:26.24	100.14	45.09	-37.1	-37.9	24.3	0.00e+00	0	39	0	773849088	48	5649
2026-01-02 13:55:27.25	100.69	45.09	-37.2	-38.1	24.1	0.00e+00	0	39	0	775946240	48	5789
2026-01-02 13:55:28.26	101.24	45.07	-38.0	-38.9	23.6	0.00e+00	0	39	0	778043392	48	6332
2026-01-02 13:55:29.28	101.79	45.06	-38.9	-39.8	22.9	0.00e+00	0	39	0	779091968	50	6315
2026-01-02 13:55:30.28	102.34	45.04	-37.7	-38.5	23.9	0.00e+00	0	39	0	781189120	50	5413
2026-01-02 13:55:31.29	102.89	45.02	-37.0	-37.8	24.5	0.00e+00	0	39	0	783286272	48	5608
2026-01-02 13:55:32.30	103.43	45.00	-36.9	-37.7	24.2	0.00e+00	0	39	0	785383424	48	5543
2026-01-02 13:55:33.31	103.98	44.98	-37.7	-38.6	23.7	0.00e+00	0	39	0	787480576	48	6106
2026-01-02 13:55:34.32	104.53	44.95	-38.3	-39.2	23.3	0.00e+00	0	39	0	788529152	48	6568
2026-01-02 13:55:35.33	105.07	44.92	-38.1	-39.0	23.5	0.00e+00	0	39	0	790626304	48	6431
2026-01-02 13:55:36.34	105.62	44.88	-37.5	-38.3	24.0	0.00e+00	0	39	0	792723456	48	5944
2026-01-02 13:55:37.35	106.16	44.85	-38.2	-39.1	23.4	0.00e+00	0	39	0	794820608	48	6523
2026-01-02 13:55:38.36	106.70	44.81	-39.8	-40.9	21.9	0.00e+00	0	39	0	796917760	50	7149
2026-01-02 13:55:39.37	107.25	44.77	-40.6	-41.9	21.2	0.00e+00	0	39	0	797966336	52	7113
2026-01-02 13:55:40.38	107.78	44.72	-40.1	-41.3	21.8	0.00e+00	0	39	0	800063488	52	6656
2026-01-02 13:55:41.39	108.32	44.68	-39.1	-40.1	22.7	0.00e+00	0	39	0	802160640	52	5820
2026-01-02 13:55:42.40	108.86	44.63	-39.2	-40.2	22.5	0.00e+00	0	39	0	804257792	52	5884
2026-01-02 13:55:43.41	109.39	44.57	-40.3	-41.5	21.4	0.00e+00	0	39	0	806354944	52	6802
2026-01-02 13:55:44.42	109.93	44.52	-40.6	-41.9	21.3	0.00e+00	0	39	0	808452096	52	7121
2026-01-02 13:55:45.43	110.46	44.46	-39.9	-41.0	22.0	0.00e+00	0	39	0	809500672	52	6464
2026-01-02 13:55:46.44	110.98	44.40	-39.9	-41.0	21.8	0.00e+00	0	39	0	811597824	52	6436
2026-01-02 13:55:47.45	111.51	44.34	-40.3	-41.5	21.7	0.00e+00	0	39	0	813694976	52	6780
2026-01-02 13:55:48.46	112.04	44.27	-39.9	-41.0	22.0	0.00e+00	0	39	0	815792128	52	6419
2026-01-02 13:55:49.47	112.56	44.20	-39.4	-40.4	22.4	0.00e+00	0	39	0	817889280	52	6012
2026-01-02 13:55:50.47	113.07	44.14	-38.9	-39.8	22.8	0.00e+00	0	39	0	818937856	52	5590
2026-01-02 13:55:51.48	113.59	44.06	-39.0	-40.0	22.9	0.00e+00	0	39	0	821035008	52	5736
2026-01-02 13:55:52.49	114.11	43.99	-39.8	-40.9	22.0	0.00e+00	0	39	0	823132160	52	6369
2026-01-02 13:55:53.50	114.62	43.91	-40.5	-41.7	21.3	0.00e+00	0	39	0	825229312	52	6936
2026-01-02 13:55:54.51	115.13	43.83	-40.7	-41.9	21.1	0.00e+00	0	39	0	827326464	54	6382
2026-01-02 13:55:55.51	115.64	43.75	-40.4	-41.6	21.5	0.00e+00	0	39	0	828375040	54	6128
2026-01-02 13:55:56.52	116.14	43.67	-40.0	-41.1	21.8	0.00e+00	0	39	0	830472192	54	5810
2026-01-02 13:55:57.53	116.64	43.58	-40.4	-41.6	21.4	0.00e+00	0	39	0	832569344	54	6112
2026-01-02 13:55:58.54	117.15	43.49	-40.3	-41.5	21.5	0.00e+00	0	39	0	834666496	54	6043
2026-01-02 13:55:59.55	117.64	43.40	-39.3	-40.2	22.8	0.00e+00	0	39	0	836763648	52	5893
2026-01-02 13:56:00.56	118.14	43.31	-38.7	-39.6	23.0	0.00e+00	0	39	0	837812224	52	5492
2026-01-02 13:56:01.57	118.63	43.21	-39.2	-40.2	22.7	0.00e+00	0	39	0	839909376	50	6590
2026-01-02 13:56:02.58	119.12	43.11	-39.5	-40.5	22.4	0.00e+00	0	39	0	842006528	50	6795
2026-01-02 13:56:03.59	119.61	43.01	-39.3	-40.2	22.7	0.00e+00	0	39	0	844103680	50	6612
2026-01-02 13:56:04.60	120.09	42.91	-38.1	-39.0	23.6	0.00e+00	0	39	0	846200832	50	5731
2026-01-02 13:56:05.60	120.56	42.81	-38.0	-38.8	23.5	0.00e+00	0	39	0	847249408	50	5613
2026-01-02 13:56:06.61	121.04	42.71	-38.5	-39.5	23.2	0.00e+00	0	39	0	849346560	48	6795
2026-01-02 13:56:07.62	121.51	42.60	-38.9	-39.9	22.8	0.00e+00	0	39	0	851443712	50	6371
2026-01-02 13:56:08.63	121.99	42.49	-38.4	-39.3	23.3	0.00e+00	0	39	0	853540864	50	5964
2026-01-02 13:56:09.64	122.45	42.38	-37.7	-38.6	23.9	0.00e+00	0	39	0	855638016	50	5481
2026-01-02 13:56:10.65	122.92	42.27	-37.3	-38.1	24.3	0.00e+00	0	39	0	856686592	48	5803
2026-01-02 13:56:11.65	123.37	42.16	-37.6	-38.4	23.9	0.00e+00	0	39	0	858783744	48	6027
2026-01-02 13:56:12.66	123.83	42.04	-38.1	-39.1	23.4	0.00e+00	0	39	0	860880896	48	6481
2026-01-02 13:56:13.67	124.29	41.92	-38.3	-39.2	23.3	0.00e+00	0	39	0	862978048	48	6598
2026-01-02 13:56:14.68	124.74	41.80	-37.8	-38.8	23.7	0.00e+00	0	39	0	865075200	48	6247
2026-01-02 13:56:15.69	125.19	41.68	-37.7	-38.5	23.9	0.00e+00	0	39	0	866123776	48	6103
2026-01-02 13:56:16.70	125.63	41.56	-37.7	-38.6	23.9	0.00e+00	0	39	0	868220928	48	6107
2026-01-02 13:56:17.71	126.08	41.44	-38.1	-39.0	23.7	0.00e+00	0	39	0	870318080	48	6399
2026-01-02 13:56:18.72	126.51	41.31	-38.2	-39.1	23.4	0.00e+00	0	39	0	872415232	48	6516
2026-01-02 13:56:19.73	126.95	41.19	-38.5	-39.4	23.1	0.00e+00	0	39	0	874512384	48	6717
2026-01-02 13:56:20.74	127.38	41.06	-39.1	-40.1	22.6	0.00e+00	0	39	0	875560960	50	6535
2026-01-02 13:56:21.75	127.81	40.93	-39.5	-40.6	22.1	0.00e+00	0	39	0	877658112	50	6882
2026-01-02 13:56:22.76	128.23	40.80	-39.5	-40.5	22.2	0.00e+00	0	39	0	879755264	52	6096
2026-01-02 13:56:23.77	128.66	40.67	-39.5	-40.6	22.3	0.00e+00	0	39	0	881852416	52	6132
2026-01-02 13:56:24.78	129.07	40.54	-39.4	-40.5	22.4	0.00e+00	0	39	0	883949568	52	6086
2026-01-02 13:56:25.79	129.49	40.41	-39.8	-40.9	22.1	0.00e+00	0	39	0	884998144	52	6354
2026-01-02 13:56:26.80	129.90	40.27	-39.9	-41.1	21.8	0.00e+00	0	39	0	887095296	52	6510
2026-01-02 13:56:27.80	130.30	40.14	-39.5	-40.6	22.2	0.00e+00	0	39	0	889192448	52	6132
2026-01-02 13:56:28.81	130.71	40.00	-39.0	-40.0	22.7	0.00e+00	0	39	0	891289600	52	5717
2026-01-02 13:56:29.82	131.11	39.86	-38.6	-39.6	22.9	0.00e+00	0	39	0	893386752	50	6104
2026-01-02 13:56:30.83	131.51	39.72	-38.9	-39.9	22.7	0.00e+00	0	39	0	894435328	50	6352
2026-01-02 13:56:31.84	131.90	39.58	-39.5	-40.5	22.4	0.00e+00	0	39	0	896532480	50	6834
2026-01-02 13:56:32.85	132.30	39.44	-40.3	-41.5	21.5	0.00e+00	0	39	0	898629632	52	6835
2026-01-02 13:56:33.86	132.68	39.30	-40.6	-41.9	21.3	0.00e+00	0	39	0	900726784	52	7089
2026-01-02 13:56:34.87	133.07	39.16	-39.7	-40.8	22.1	0.00e+00	0	39	0	902823936	52	6300
2026-01-02 13:56:35.88	133.45	39.01	-39.1	-40.1	22.6	0.00e+00	0	39	0	904921088	52	5811
2026-01-02 13:56:36.88	133.82	38.87	-39.7	-40.8	22.1	0.00e+00	0	39	0	905969664	52	6267
2026-01-02 13:56:37.89	134.20	38.73	-40.4	-41.6	21.6	0.00e+00	0	39	0	908066816	52	6878
2026-01-02 13:56:38.90	134.57	38.58	-41.6	-43.0	20.2	0.00e+00	0	39	0	910163968	54	7212
2026-01-02 13:56:39.91	134.94	38.43	-42.5	-44.1	19.0	0.00e+00	0	39	0	912261120	56	7282
2026-01-02 13:56:40.92	135.30	38.29	-41.7	-43.1	20.4	0.00e+00	0	39	0	914358272	56	6538
2026-01-02 13:56:41.93	135.67	38.14	-40.2	-41.3	21.8	0.00e+00	0	39	0	915406848	54	5962
2026-01-02 13:56:42.94	136.02	37.99	-38.6	-39.6	23.2	0.00e+00	0	39	0	917504000	52	5463
2026-01-02 13:56:43.95	136.38	37.84	-38.2	-39.1	23.5	0.00e+00	0	39	0	919601152	50	5793
2026-01-02 13:56:44.96	136.73	37.69	-38.6	-39.5	23.0	0.00e+00	0	39	0	921698304	50	6075
2026-01-02 13:56:45.97	137.08	37.54	-40.1	-41.3	21.7	0.00e+00	0	39	0	923795456	52	6644
2026-01-02 13:56:46.98	137.43	37.39	-40.2	-41.4	21.6	0.00e+00	0	39	0	924844032	52	6726
2026-01-02 13:56:47.99	137.77	37.24	-39.1	-40.2	22.7	0.00e+00	0	39	0	926941184	52	5847
2026-01-02 13:56:48.99	138.11	37.09	-37.7	-38.6	23.9	0.00e+00	0	39	0	929038336	50	5451
2026-01-02 13:56:50.01	138.45	36.94	-37.6	-38.5	23.8	0.00e+00	0	39	0	931135488	48	6060
2026-01-02 13:56:51.01	138.78	36.79	-38.9	-39.9	22.7	0.00e+00	0	39	0	933232640	48	7105
2026-01-02 13:56:52.03	139.11	36.64	-40.5	-41.8	21.3	0.00e+00	0	39	0	934281216	52	7052
2026-01-02 13:56:53.04	139.44	36.48	-41.1	-42.4	21.0	0.00e+00	0	39	0	936378368	54	6734
2026-01-02 13:56:54.05	139.76	36.33	-40.2	-41.4	21.6	0.00e+00	0	39	0	938475520	54	5981
2026-01-02 13:56:55.06	140.08	36.18	-38.9	-39.9	23.1	0.00e+00	0	39	0	940572672	52	5652
2026-01-02 13:56:56.06	140.40	36.03	-37.3	-38.1	24.2	0.00e+00	0	39	0	942669824	48	5818
2026-01-02 13:56:57.07	140.72	35.87	-37.5	-38.3	23.6	0.00e+00	0	39	0	943718400	48	5947
2026-01-02 13:56:58.08	141.03	35.72	-39.1	-40.1	22.6	0.00e+00	0	39	0	945815552	50	6490
2026-01-02 13:56:59.09	141.34	35.56	-40.1	-41.2	21.7	0.00e+00	0	39	0	947912704	52	6596
2026-01-02 13:57:00.10	141.65	35.41	-40.2	-41.4	21.9	0.00e+00	0	39	0	950009856	52	6709
2026-01-02 13:57:01.11	141.95	35.26	-38.6	-39.6	23.1	0.00e+00	0	39	0	952107008	52	5445
2026-01-02 13:57:02.12	142.25	35.10	-37.9	-38.8	23.8	0.00e+00	0	39	0	953155584	50	5574
2026-01-02 13:57:03.13	142.55	34.95	-36.8	-37.6	24.5	0.00e+00	0	39	0	955252736	48	5483
2026-01-02 13:57:04.14	142.85	34.79	-36.8	-37.6	24.4	0.00e+00	0	39	0	957349888	46	6134
2026-01-02 13:57:05.14	143.14	34.64	-38.1	-39.0	23.5	0.00e+00	0	39	0	959447040	48	6394
2026-01-02 13:57:06.15	143.43	34.48	-40.2	-41.4	21.6	0.00e+00	0	39	0	961544192	52	6715
2026-01-02 13:57:07.16	143.71	34.33	-41.1	-42.5	20.7	0.00e+00	0	39	0	962592768	54	6770
2026-01-02 13:57:08.17	144.00	34.18	-39.3	-40.4	22.5	0.00e+00	0	39	0	964689920	52	5997
2026-01-02 13:57:09.18	144.28	34.02	-37.9	-38.8	23.6	0.00e+00	0	39	0	966787072	50	5621
2026-01-02 13:57:10.19	144.56	33.87	-37.3	-38.2	24.0	0.00e+00	0	39	0	968884224	48	5844
2026-01-02 13:57:11.20	144.84	33.71	-37.7	-38.5	23.8	0.00e+00	0	39	0	970981376	48	6066
2026-01-02 13:57:12.21	145.11	33.56	-38.6	-39.6	22.7	0.00e+00	0	39	0	973078528	48	6879
2026-01-02 13:57:13.22	145.39	33.40	-40.0	-41.1	21.7	0.00e+00	0	39	0	974127104	52	6508
2026-01-02 13:57:14.23	145.65	33.25	-41.2	-42.6	20.5	0.00e+00	0	39	0	976224256	54	6884
2026-01-02 13:57:15.24	145.92	33.09	-40.9	-42.2	21.0	0.00e+00	0	39	0	978321408	54	6586
2026-01-02 13:57:16.25	146.19	32.94	-39.1	-40.2	22.5	0.00e+00	0	39	0	980418560	52	5859
2026-01-02 13:57:17.26	146.45	32.78	-38.0	-38.9	23.5	0.00e+00	0	39	0	982515712	50	5679
2026-01-02 13:57:18.27	146.71	32.63	-37.4	-38.2	24.1	0.00e+00	0	39	0	983564288	48	5895
2026-01-02 13:57:19.28	146.97	32.48	-38.2	-39.2	23.2	0.00e+00	0	39	0	985661440	48	6548
2026-01-02 13:57:20.28	147.22	32.32	-39.5	-40.5	22.3	0.00e+00	0	39	0	987758592	50	6819
2026-01-02 13:57:21.29	147.47	32.17	-41.0	-42.4	20.8	0.00e+00	0	39	0	989855744	54	6715
2026-01-02 13:57:22.30	147.72	32.02	-42.5	-44.2	19.1	0.00e+00	0	39	0	991952896	56	7395
2026-01-02 13:57:23.31	147.97	31.87	-41.8	-43.3	20.0	0.00e+00	0	39	0	993001472	56	6652
2026-01-02 13:57:24.32	148.21	31.71	-40.2	-41.4	21.5	0.00e+00	0	39	0	995098624	54	5986
2026-01-02 13:57:25.33	148.46	31.56	-38.9	-39.8	22.9	0.00e+00	0	39	0	997195776	52	5620
2026-01-02 13:57:26.34	148.70	31.41	-37.1	-37.9	24.3	0.00e+00	0	39	0	999292928	48	5655
2026-01-02 13:57:27.35	148.94	31.26	-36.8	-37.6	24.5	0.00e+00	0	39	0	1001390080	46	6136
2026-01-02 13:57:28.36	149.17	31.10	-37.7	-38.6	23.7	0.00e+00	0	39	0	1002438656	46	6867
2026-01-02 13:57:29.37	149.41	30.95	-39.6	-40.6	22.1	0.00e+00	0	39	0	1004535808	50	6904
2026-01-02 13:57:30.38	149.64	30.80	-41.5	-42.9	20.0	0.00e+00	0	39	0	1006632960	54	7168
2026-01-02 13:57:31.39	149.87	30.65	-42.7	-44.5	18.7	0.00e+00	0	39	0	1008730112	58	6820
2026-01-02 13:57:32.40	150.10	30.50	-42.2	-43.9	19.2	0.00e+00	0	39	0	1010827264	58	6350
2026-01-02 13:57:33.41	150.33	30.35	-41.2	-42.6	20.7	0.00e+00	0	39	0	1011875840	56	6147
2026-01-02 13:57:34.41	150.55	30.20	-39.0	-40.0	22.8	0.00e+00	0	39	0	1013972992	52	5743
2026-01-02 13:57:35.42	150.77	30.05	-37.7	-38.5	23.9	0.00e+00	0	39	0	1016070144	50	5424
2026-01-02 13:57:36.43	150.99	29.90	-37.0	-37.8	24.4	0.00e+00	0	39	0	1018167296	48	5618
2026-01-02 13:57:37.44	151.21	29.75	-36.9	-37.7	24.5	0.00e+00	0	39	0	1020264448	46	6196
2026-01-02 13:57:38.44	151.42	29.60	-36.7	-37.5	24.6	0.00e+00	0	39	0	1021313024	46	6045
2026-01-02 13:57:39.45	151.64	29.46	-37.3	-38.1	24.1	0.00e+00	0	39	0	1023410176	46	6520
2026-01-02 13:57:40.46	151.85	29.31	-38.0	-38.9	23.6	0.00e+00	0	39	0	1025507328	48	6387
2026-01-02 13:57:41.47	152.06	29.16	-38.8	-39.8	22.7	0.00e+00	0	39	0	1027604480	48	7027
2026-01-02 13:57:42.48	152.27	29.01	-39.1	-40.1	22.6	0.00e+00	0	39	0	1029701632	50	6490
2026-01-02 13:57:43.49	152.48	28.87	-38.9	-39.8	22.7	0.00e+00	0	39	0	1030750208	50	6308
2026-01-02 13:57:44.50	152.68	28.72	-39.2	-40.2	22.6	0.00e+00	0	39	0	1032847360	50	6543
2026-01-02 13:57:45.51	152.88	28.57	-38.7	-39.6	22.5	0.00e+00	0	39	0	1034944512	50	6148
2026-01-02 13:57:46.52	153.09	28.43	-38.8	-39.8	22.4	0.00e+00	0	39	0	1037041664	50	6268
2026-01-02 13:57:47.52	153.28	28.28	-39.1	-40.0	22.6	0.00e+00	0	39	0	1039138816	50	6453
2026-01-02 13:57:48.53	153.48	28.14	-39.0	-39.9	22.7	0.00e+00	0	39	0	1040187392	50	6390
2026-01-02 13:57:49.54	153.68	27.99	-38.8	-39.8	22.8	0.00e+00	0	39	0	1042284544	50	6247
2026-01-02 13:57:50.55	153.87	27.85	-38.9	-39.8	22.9	0.00e+00	0	39	0	1044381696	50	6308
2026-01-02 13:57:51.56	154.06	27.70	-38.9	-39.9	22.8	0.00e+00	0	39	0	1046478848	50	6349
2026-01-02 13:57:52.57	154.25	27.56	-39.3	-40.3	22.3	0.00e+00	0	39	0	1048576000	50	6692
2026-01-02 13:57:53.58	154.44	27.42	-39.3	-40.3	22.4	0.00e+00	0	39	0	1049624576	50	6654
2026-01-02 13:57:54.59	154.63	27.28	-39.5	-40.6	22.2	0.00e+00	0	39	0	1051721728	50	6870
2026-01-02 13:57:55.60	154.82	27.13	-39.5	-40.5	22.3	0.00e+00	0	39	0	1053818880	50	6816
2026-01-02 13:57:56.61	155.00	26.99	-39.4	-40.4	22.3	0.00e+00	0	39	0	1055916032	50	6746
2026-01-02 13:57:57.62	155.18	26.85	-39.1	-40.1	22.5	0.00e+00	0	39	0	1058013184	50	6526
2026-01-02 13:57:58.63	155.37	26.71	-38.9	-39.8	22.7	0.00e+00	0	39	0	1059061760	50	6316
2026-01-02 13:57:59.63	155.54	26.57	-38.3	-39.2	23.3	0.00e+00	0	39	0	1061158912	50	5876
2026-01-02 13:58:00.64	155.72	26.43	-37.7	-38.5	23.9	0.00e+00	0	39	0	1063256064	48	6101
2026-01-02 13:58:01.65	155.90	26.29	-37.4	-38.3	23.9	0.00e+00	0	39	0	1065353216	48	5928
2026-01-02 13:58:02.66	156.07	26.15	-37.2	-38.1	23.9	0.00e+00	0	39	0	1067450368	48	5774
2026-01-02 13:58:03.67	156.25	26.01	-37.4	-38.3	23.9	0.00e+00	0	39	0	1069547520	48	5938
2026-01-02 13:58:04.68	156.42	25.87	-37.7	-38.5	23.8	0.00e+00	0	39	0	1070596096	48	6096
2026-01-02 13:58:05.69	156.59	25.74	-37.8	-38.7	23.7	0.00e+00	0	39	0	1072693248	48	6209
2026-01-02 13:58:06.70	156.76	25.60	-38.5	-39.4	23.0	0.00e+00	0	39	0	1074790400	48	6749
2026-01-02 13:58:07.70	156.93	25.46	-38.7	-39.6	22.8	0.00e+00	0	39	0	1076887552	50	6162
2026-01-02 13:58:08.71	157.09	25.33	-39.1	-40.1	22.6	0.00e+00	0	39	0	1078984704	50	6487
2026-01-02 13:58:09.72	157.26	25.19	-39.6	-40.6	22.0	0.00e+00	0	39	0	1080033280	50	6927
2026-01-02 13:58:10.73	157.42	25.06	-39.7	-40.8	21.9	0.00e+00	0	39	0	1082130432	50	7013
2026-01-02 13:58:11.74	157.58	24.92	-40.0	-41.1	21.8	0.00e+00	0	39	0	1084227584	52	6504
2026-01-02 13:58:12.74	157.74	24.79	-39.8	-40.9	21.9	0.00e+00	0	39	0	1086324736	52	6334
2026-01-02 13:58:13.75	157.90	24.65	-39.6	-40.6	22.2	0.00e+00	0	39	0	1088421888	52	6148
2026-01-02 13:58:14.76	158.06	24.52	-39.7	-40.8	21.9	0.00e+00	0	39	0	1089470464	52	6285
2026-01-02 13:58:15.77	158.22	24.39	-39.8	-40.8	21.9	0.00e+00	0	39	0	1091567616	52	6317
2026-01-02 13:58:16.78	158.38	24.25	-40.0	-41.1	21.6	0.00e+00	0	39	0	1093664768	52	6513
2026-01-02 13:58:17.78	158.53	24.12	-40.3	-41.5	21.2	0.00e+00	0	39	0	1095761920	52	6830
2026-01-02 13:58:18.79	158.68	23.99	-40.5	-41.8	21.1	0.00e+00	0	39	0	1097859072	52	7014
2026-01-02 13:58:19.80	158.83	23.86	-41.0	-42.4	20.6	0.00e+00	0	39	0	1098907648	54	6696
2026-01-02 13:58:20.81	158.98	23.73	-41.3	-42.7	20.2	0.00e+00	0	39	0	1101004800	54	6975
2026-01-02 13:58:21.82	159.13	23.60	-40.9	-42.3	20.6	0.00e+00	0	39	0	1103101952	54	6647
2026-01-02 13:58:22.83	159.28	23.47	-40.9	-42.3	20.6	0.00e+00	0	39	0	1105199104	54	6628
2026-01-02 13:58:23.84	159.43	23.34	-40.7	-42.0	20.9	0.00e+00	0	39	0	1107296256	54	6437
2026-01-02 13:58:24.85	159.58	23.21	-40.1	-41.4	21.4	0.00e+00	0	39	0	1108344832	54	5978
2026-01-02 13:58:25.86	159.72	23.08	-40.3	-41.6	21.3	0.00e+00	0	39	0	1110441984	54	6114
2026-01-02 13:58:26.86	159.86	22.95	-39.8	-40.9	21.7	0.00e+00	0	39	0	1112539136	54	5688
2026-01-02 13:58:27.87	160.01	22.83	-40.3	-41.5	21.4	0.00e+00	0	39	0	1114636288	54	6074
2026-01-02 13:58:28.88	160.15	22.70	-40.4	-41.7	21.0	0.00e+00	0	39	0	1116733440	54	6185
2026-01-02 13:58:29.89	160.29	22.57	-40.7	-42.0	20.8	0.00e+00	0	39	0	1117782016	54	6445
2026-01-02 13:58:30.90	160.43	22.45	-40.9	-42.2	20.7	0.00e+00	0	39	0	1119879168	54	6601
2026-01-02 13:58:31.90	160.56	22.32	-41.5	-42.9	20.1	0.00e+00	0	39	0	1121976320	54	7148
2026-01-02 13:58:32.91	160.70	22.20	-41.3	-42.7	20.4	0.00e+00	0	39	0	1124073472	54	6930
2026-01-02 13:58:33.92	160.84	22.07	-41.1	-42.4	20.7	0.00e+00	0	39	0	1126170624	54	6769
2026-01-02 13:58:34.93	160.97	21.95	-40.5	-41.8	21.0	0.00e+00	0	39	0	1127219200	54	6269
2026-01-02 13:58:35.94	161.11	21.82	-40.0	-41.1	21.6	0.00e+00	0	39	0	1129316352	54	5817
2026-01-02 13:58:36.95	161.24	21.70	-39.9	-41.1	21.8	0.00e+00	0	39	0	1131413504	52	6470
2026-01-02 13:58:37.95	161.37	21.58	-38.8	-39.8	22.8	0.00e+00	0	39	0	1133510656	52	5569
2026-01-02 13:58:38.96	161.50	21.45	-38.0	-38.9	23.5	0.00e+00	0	39	0	1135607808	50	5643
2026-01-02 13:58:39.97	161.63	21.33	-37.8	-38.7	23.5	0.00e+00	0	39	0	1136656384	50	5550
2026-01-02 13:58:40.98	161.76	21.21	-37.6	-38.5	23.8	0.00e+00	0	39	0	1138753536	48	6066
2026-01-02 13:58:41.99	161.89	21.09	-37.4	-38.2	23.9	0.00e+00	0	39	0	1140850688	48	5882
2026-01-02 13:58:43.00	162.02	20.97	-37.5	-38.3	23.8	0.00e+00	0	39	0	1142947840	48	5958
2026-01-02 13:58:44.01	162.14	20.85	-37.5	-38.4	23.8	0.00e+00	0	39	0	1145044992	48	5976
2026-01-02 13:58:45.02	162.27	20.73	-37.7	-38.6	23.6	0.00e+00	0	39	0	1146093568	48	6137
2026-01-02 13:58:46.03	162.39	20.61	-38.2	-39.2	23.1	0.00e+00	0	39	0	1148190720	48	6545
2026-01-02 13:58:47.04	162.51	20.49	-38.5	-39.5	22.9	0.00e+00	0	39	0	1150287872	48	6812
2026-01-02 13:58:48.04	162.63	20.37	-39.4	-40.5	22.1	0.00e+00	0	39	0	1152385024	50	6785
2026-01-02 13:58:49.05	162.76	20.25	-39.7	-40.8	21.8	0.00e+00	0	39	0	1154482176	50	7048
2026-01-02 13:58:50.06	162.88	20.14	-39.9	-41.1	21.7	0.00e+00	0	39	0	1155530752	52	6469
2026-01-02 13:58:51.07	163.00	20.02	-40.6	-41.8	20.9	0.00e+00	0	39	0	1157627904	52	7077
2026-01-02 13:58:52.08	163.12	19.90	-40.5	-41.7	21.1	0.00e+00	0	39	0	1159725056	52	6972
2026-01-02 13:58:53.09	163.23	19.78	-40.7	-41.9	20.8	0.00e+00	0	39	0	1161822208	54	6384
2026-01-02 13:58:54.10	163.35	19.67	-40.8	-42.1	20.8	0.00e+00	0	39	0	1163919360	54	6476
2026-01-02 13:58:55.11	163.47	19.55	-40.8	-42.1	20.8	0.00e+00	0	39	0	1166016512	54	6525
2026-01-02 13:58:56.12	163.58	19.44	-41.0	-42.4	20.6	0.00e+00	0	39	0	1167065088	54	6713
2026-01-02 13:58:57.13	163.70	19.32	-40.5	-41.8	20.9	0.00e+00	0	39	0	1169162240	54	6249
2026-01-02 13:58:58.14	163.81	19.21	-40.4	-41.7	21.1	0.00e+00	0	39	0	1171259392	54	6175
2026-01-02 13:58:59.15	163.92	19.09	-40.4	-41.6	21.1	0.00e+00	0	39	0	1173356544	54	6161
2026-01-02 13:59:00.16	164.04	18.98	-40.0	-41.2	21.5	0.00e+00	0	39	0	1175453696	54	5839
2026-01-02 13:59:01.17	164.15	18.87	-39.9	-41.0	21.6	0.00e+00	0	39	0	1176502272	54	5733
2026-01-02 13:59:02.18	164.26	18.75	-39.6	-40.7	21.9	0.00e+00	0	39	0	1178599424	52	6213
2026-01-02 13:59:03.19	164.37	18.64	-39.5	-40.6	22.0	0.00e+00	0	39	0	1180696576	52	6115
2026-01-02 13:59:04.20	164.48	18.53	-39.6	-40.7	22.0	0.00e+00	0	39	0	1182793728	52	6178
2026-01-02 13:59:05.20	164.58	18.42	-39.0	-40.1	22.4	0.00e+00	0	39	0	1184890880	52	5776
2026-01-02 13:59:06.22	164.69	18.31	-39.1	-40.2	22.4	0.00e+00	0	39	0	1185939456	52	5833
2026-01-02 13:59:07.22	164.80	18.20	-39.1	-40.2	22.5	0.00e+00	0	39	0	1188036608	52	5842
2026-01-02 13:59:08.23	164.90	18.09	-39.1	-40.1	22.4	0.00e+00	0	39	0	1190133760	52	5798
2026-01-02 13:59:09.24	165.01	17.98	-39.1	-40.2	22.3	0.00e+00	0	39	0	1192230912	52	5871
2026-01-02 13:59:10.25	165.11	17.87	-39.2	-40.3	22.1	0.00e+00	0	39	0	1194328064	52	5939
2026-01-02 13:59:11.26	165.22	17.76	-39.3	-40.3	22.1	0.00e+00	0	39	0	1195376640	52	5948
2026-01-02 13:59:12.27	165.32	17.65	-39.5	-40.6	21.9	0.00e+00	0	39	0	1197473792	52	6160
2026-01-02 13:59:13.28	165.42	17.54	-39.4	-40.4	22.1	0.00e+00	0	39	0	1199570944	52	6033
2026-01-02 13:59:14.29	165.52	17.43	-39.3	-40.4	22.2	0.00e+00	0	39	0	1201668096	52	6026
2026-01-02 13:59:15.30	165.62	17.33	-39.5	-40.6	21.9	0.00e+00	0	39	0	1203765248	52	6167
2026-01-02 13:59:16.31	165.72	17.22	-39.8	-40.9	21.7	0.00e+00	0	39	0	1204813824	52	6364
2026-01-02 13:59:17.32	165.82	17.11	-39.9	-41.1	21.5	0.00e+00	0	39	0	1206910976	52	6470
2026-01-02 13:59:18.33	165.92	17.01	-39.9	-41.0	21.7	0.00e+00	0	39	0	1209008128	52	6425
2026-01-02 13:59:19.34	166.02	16.90	-40.0	-41.1	21.5	0.00e+00	0	39	0	1211105280	52	6527
2026-01-02 13:59:20.35	166.12	16.79	-40.0	-41.1	21.5	0.00e+00	0	39	0	1213202432	52	6492
2026-01-02 13:59:21.36	166.22	16.69	-39.5	-40.6	21.9	0.00e+00	0	39	0	1214251008	52	6105
2026-01-02 13:59:22.36	166.31	16.59	-39.6	-40.7	21.9	0.00e+00	0	39	0	1216348160	52	6177
2026-01-02 13:59:23.38	166.41	16.48	-39.9	-41.0	21.5	0.00e+00	0	39	0	1218445312	52	6449
2026-01-02 13:59:24.38	166.50	16.38	-39.8	-40.9	21.8	0.00e+00	0	39	0	1220542464	52	6337
2026-01-02 13:59:25.39	166.60	16.27	-39.6	-40.6	21.9	0.00e+00	0	39	0	1222639616	52	6157
