passes_logs/2026/01/02/R4.6S_Anadyr/R4.6S_Anadyr__20260102_042541_FENGYUN_3D_rec.log

#Pass ID: 20260102_042541_FENGYUN 3D
#Satellite: FENGYUN 3D
#Configuration: FENGYUN 3D
#almurnet v.1.7.20251203
#Start time: 2026-01-02 04:25:42

#Version: 2.2.20231116
#Station: R4.6S_Anadyr
#Location: 177.4865 lon 64.73178 lat
#TLE: 1 43010U 17072A   26001.61291428  .00000334  00000+0  17967-3 0  9999
#TLE: 2 43010  98.9910 333.2233 0001869 133.3004 226.8328 14.19691253421350

#Time	Az	El	Level	Level2	SNR	BER	BlckErr	Temp	State	Recorded	gain1	gain2
2026-01-02 04:25:42.92	213.48	0.09	-49.4	-67.1	3.5	3.02e+01	0	34	0	0	60	87119
2026-01-02 04:25:43.93	213.55	0.14	-49.4	-61.5	3.6	8.46e-01	0	35	104	0	60	42922
2026-01-02 04:25:44.94	213.62	0.19	-49.4	-61.5	3.6	8.47e-01	0	35	104	0	60	43141
2026-01-02 04:25:45.95	213.69	0.25	-49.6	-61.7	3.6	8.44e-01	0	35	104	0	60	44152
2026-01-02 04:25:46.96	213.76	0.30	-49.2	-61.3	3.6	8.46e-01	0	35	104	0	60	41925
2026-01-02 04:25:47.96	213.83	0.35	-49.1	-61.2	3.6	8.46e-01	0	35	104	0	60	41734
2026-01-02 04:25:48.97	213.91	0.40	-49.1	-61.3	3.6	8.45e-01	0	35	104	0	60	41852
2026-01-02 04:25:49.98	213.98	0.45	-49.1	-61.2	3.6	8.45e-01	0	35	104	0	60	41669
2026-01-02 04:25:50.99	214.05	0.50	-49.0	-61.2	3.6	8.45e-01	0	35	104	0	60	41684
2026-01-02 04:25:52.00	214.12	0.56	-49.0	-61.1	3.6	8.46e-01	0	35	104	0	60	41245
2026-01-02 04:25:53.01	214.19	0.61	-49.0	-61.1	3.6	8.45e-01	0	35	104	0	60	41170
2026-01-02 04:25:54.02	214.26	0.66	-48.9	-61.1	3.6	8.44e-01	0	35	104	0	60	40821
2026-01-02 04:25:55.03	214.34	0.71	-48.8	-60.9	3.6	8.45e-01	0	35	104	0	60	40222
2026-01-02 04:25:56.04	214.41	0.76	-48.7	-60.8	3.6	8.45e-01	0	35	104	0	60	39786
2026-01-02 04:25:57.05	214.48	0.82	-48.6	-60.8	3.6	8.45e-01	0	35	104	0	60	39474
2026-01-02 04:25:58.06	214.56	0.87	-48.3	-60.5	3.6	8.45e-01	0	35	104	0	60	38069
2026-01-02 04:25:59.07	214.63	0.92	-47.8	-59.9	3.6	8.46e-01	0	35	104	0	60	35551
2026-01-02 04:26:00.08	214.70	0.97	-47.6	-59.6	3.6	8.44e-01	0	35	104	0	60	34582
2026-01-02 04:26:01.10	214.78	1.03	-47.6	-59.6	3.6	8.46e-01	0	35	104	0	60	34556
2026-01-02 04:26:02.10	214.85	1.08	-47.5	-59.6	3.6	8.45e-01	0	35	104	0	60	34551
2026-01-02 04:26:03.12	214.93	1.13	-47.5	-59.6	3.6	8.45e-01	0	35	104	0	60	34673
2026-01-02 04:26:04.13	215.00	1.18	-47.5	-59.6	3.6	8.45e-01	0	35	104	0	60	34561
2026-01-02 04:26:05.14	215.07	1.24	-47.5	-59.6	3.6	8.46e-01	0	35	104	0	60	34425
2026-01-02 04:26:06.15	215.15	1.29	-47.5	-59.5	3.6	8.45e-01	0	35	104	0	60	34110
2026-01-02 04:26:07.16	215.23	1.34	-47.5	-59.5	3.6	8.46e-01	0	35	104	0	60	34148
2026-01-02 04:26:08.17	215.30	1.39	-47.5	-59.6	3.6	8.46e-01	0	35	104	0	60	34346
2026-01-02 04:26:09.18	215.38	1.45	-47.5	-59.6	3.6	8.45e-01	0	35	104	0	60	34338
2026-01-02 04:26:10.19	215.45	1.50	-47.5	-59.6	3.6	8.45e-01	0	35	104	0	60	34486
2026-01-02 04:26:11.20	215.53	1.55	-47.5	-59.6	3.6	8.45e-01	0	35	104	0	60	34459
2026-01-02 04:26:12.21	215.61	1.61	-47.5	-59.5	3.6	8.46e-01	0	35	104	0	60	34313
2026-01-02 04:26:13.22	215.68	1.66	-47.5	-59.6	3.6	8.45e-01	0	35	104	0	60	34502
2026-01-02 04:26:14.23	215.76	1.71	-47.5	-59.6	3.6	8.45e-01	0	35	104	0	60	34364
2026-01-02 04:26:15.24	215.84	1.76	-47.5	-59.6	3.6	8.45e-01	0	35	104	0	60	34477
2026-01-02 04:26:16.24	215.91	1.82	-47.5	-59.5	3.6	8.44e-01	0	36	104	0	60	34307
2026-01-02 04:26:17.26	215.99	1.87	-47.5	-59.5	3.6	8.44e-01	0	36	104	0	60	34285
2026-01-02 04:26:18.27	216.07	1.92	-47.5	-59.6	3.6	8.45e-01	0	36	104	0	60	34409
2026-01-02 04:26:19.27	216.15	1.98	-47.5	-59.4	3.6	8.46e-01	0	35	104	0	60	33912
2026-01-02 04:26:20.29	216.23	2.03	-47.5	-59.4	3.6	8.45e-01	0	36	104	0	60	33883
2026-01-02 04:26:21.30	216.31	2.08	-47.5	-59.4	3.6	8.47e-01	0	35	104	0	60	33681
2026-01-02 04:26:22.31	216.39	2.14	-47.5	-59.4	3.6	8.45e-01	0	36	104	0	60	33824
2026-01-02 04:26:23.31	216.47	2.19	-47.5	-59.4	3.6	8.45e-01	0	36	104	0	60	33595
2026-01-02 04:26:24.32	216.55	2.25	-47.5	-59.2	3.6	8.45e-01	0	36	104	0	60	33150
2026-01-02 04:26:25.34	216.63	2.30	-47.4	-59.1	3.6	8.45e-01	0	36	104	0	60	32684
2026-01-02 04:26:26.34	216.71	2.35	-47.5	-59.2	3.6	8.45e-01	0	36	104	0	60	33130
2026-01-02 04:26:27.35	216.79	2.41	-47.4	-59.0	3.6	8.46e-01	0	36	104	0	60	32188
2026-01-02 04:26:28.36	216.87	2.46	-47.4	-58.6	3.5	8.44e-01	0	36	104	0	60	30616
2026-01-02 04:26:29.37	216.95	2.51	-47.3	-57.8	3.6	8.45e-01	0	36	104	0	60	28076
2026-01-02 04:26:30.38	217.03	2.57	-47.1	-55.9	4.0	8.41e-01	0	36	104	0	60	22511
2026-01-02 04:26:31.39	217.11	2.62	-47.1	-54.6	3.8	8.34e-01	0	36	0	0	60	19344
2026-01-02 04:26:32.40	217.19	2.68	-47.2	-56.6	3.6	8.40e-01	0	36	104	0	60	24483
2026-01-02 04:26:33.42	217.28	2.73	-47.3	-57.9	3.6	8.45e-01	0	36	104	0	60	28522
2026-01-02 04:26:34.43	217.36	2.79	-47.1	-56.2	4.0	8.44e-01	0	36	104	0	60	23424
2026-01-02 04:26:35.44	217.44	2.84	-46.1	-50.6	7.2	5.10e-01	0	36	0	2097152	60	12188
2026-01-02 04:26:36.45	217.53	2.89	-44.6	-47.5	10.7	8.68e-03	0	36	0	7340032	60	8613
2026-01-02 04:26:37.46	217.61	2.95	-42.9	-44.9	13.7	8.46e-05	0	36	0	12582912	60	6353
2026-01-02 04:26:38.47	217.69	3.00	-41.8	-43.4	15.1	0.00e+00	0	36	0	18874368	58	5996
2026-01-02 04:26:39.48	217.78	3.06	-41.5	-43.0	15.5	0.00e+00	0	36	0	24117248	56	6456
2026-01-02 04:26:40.49	217.86	3.11	-41.7	-43.3	15.2	0.00e+00	0	36	0	30408704	56	6660
2026-01-02 04:26:41.50	217.95	3.17	-40.6	-42.2	10.1	0.00e+00	0	36	0	35651584	48	9274
2026-01-02 04:26:42.51	218.03	3.22	-39.1	-40.2	6.1	7.69e-01	0	36	104	35651584	60	3687
2026-01-02 04:26:43.52	218.12	3.28	-42.6	-44.6	17.1	7.53e-01	0	36	104	35651584	60	6114
2026-01-02 04:26:44.53	218.20	3.33	-39.1	-40.2	17.8	0.00e+00	0	36	0	40894464	48	7391
2026-01-02 04:26:45.54	218.29	3.39	-37.0	-37.8	20.9	0.00e+00	0	36	0	46137344	48	5628
2026-01-02 04:26:46.55	218.38	3.44	-39.5	-40.7	18.8	0.00e+00	0	36	0	52428800	52	6207
2026-01-02 04:26:47.56	218.46	3.50	-37.8	-38.7	20.2	0.00e+00	0	36	0	57671680	50	5566
2026-01-02 04:26:48.56	218.55	3.55	-37.4	-38.4	20.3	0.00e+00	0	36	0	62914560	48	5989
2026-01-02 04:26:49.57	218.64	3.61	-37.4	-38.3	20.4	0.00e+00	0	36	0	69206016	48	5913
2026-01-02 04:26:50.58	218.72	3.66	-36.8	-37.6	21.0	0.00e+00	0	36	0	74448896	48	5494
2026-01-02 04:26:51.59	218.81	3.72	-37.0	-37.8	20.9	0.00e+00	0	36	0	80740352	46	6306
2026-01-02 04:26:52.60	218.90	3.77	-36.6	-37.4	21.3	0.00e+00	0	36	0	85983232	46	6011
2026-01-02 04:26:53.61	218.99	3.83	-36.4	-37.3	21.4	0.00e+00	0	36	0	92274688	46	5899
2026-01-02 04:26:54.62	219.08	3.88	-36.5	-37.3	21.4	0.00e+00	0	36	0	97517568	46	5903
2026-01-02 04:26:55.63	219.17	3.94	-36.5	-37.4	21.4	0.00e+00	0	36	0	102760448	46	5994
2026-01-02 04:26:56.64	219.26	3.99	-36.4	-37.3	21.4	0.00e+00	0	36	0	109051904	46	5904
2026-01-02 04:26:57.65	219.35	4.05	-36.4	-37.2	21.5	0.00e+00	0	36	0	114294784	46	5885
2026-01-02 04:26:58.66	219.44	4.11	-36.4	-37.3	21.5	0.00e+00	0	36	0	120586240	46	5921
2026-01-02 04:26:59.67	219.53	4.16	-36.2	-37.0	21.8	0.00e+00	0	36	0	125829120	46	5714
2026-01-02 04:27:00.68	219.62	4.22	-36.4	-37.3	21.5	0.00e+00	0	36	0	131072000	46	5899
2026-01-02 04:27:01.69	219.71	4.27	-36.5	-37.3	21.4	0.00e+00	0	36	0	137363456	46	5945
2026-01-02 04:27:02.70	219.80	4.33	-36.1	-36.9	21.9	0.00e+00	0	36	0	142606336	46	5669
2026-01-02 04:27:03.71	219.89	4.38	-36.1	-37.0	21.8	0.00e+00	0	36	0	148897792	46	5722
2026-01-02 04:27:04.72	219.98	4.44	-36.1	-37.0	21.7	0.00e+00	0	36	0	154140672	46	5711
2026-01-02 04:27:05.73	220.08	4.50	-36.1	-36.9	21.9	0.00e+00	0	36	0	159383552	46	5672
2026-01-02 04:27:06.74	220.17	4.55	-36.6	-37.5	21.3	0.00e+00	0	36	0	165675008	46	6050
2026-01-02 04:27:07.75	220.26	4.61	-36.3	-37.1	21.7	0.00e+00	0	36	0	170917888	46	5822
2026-01-02 04:27:08.76	220.35	4.67	-36.4	-37.2	21.6	0.00e+00	0	36	0	177209344	46	5853
2026-01-02 04:27:09.77	220.45	4.72	-36.4	-37.3	21.6	0.00e+00	0	36	0	182452224	46	5920
2026-01-02 04:27:10.78	220.54	4.78	-36.2	-37.1	21.7	0.00e+00	0	36	0	188743680	46	5771
2026-01-02 04:27:11.79	220.64	4.83	-36.3	-37.1	21.6	0.00e+00	0	36	0	193986560	46	5816
2026-01-02 04:27:12.80	220.73	4.89	-36.3	-37.1	21.7	0.00e+00	0	36	0	200278016	46	5799
2026-01-02 04:27:13.81	220.83	4.95	-36.3	-37.1	21.7	0.00e+00	0	36	0	205520896	46	5791
2026-01-02 04:27:14.82	220.92	5.00	-36.0	-36.8	22.0	0.00e+00	0	36	0	210763776	46	5575
2026-01-02 04:27:15.83	221.02	5.06	-36.3	-37.1	21.7	0.00e+00	0	36	0	217055232	46	5794
2026-01-02 04:27:16.84	221.11	5.12	-36.1	-36.9	21.8	0.00e+00	0	36	0	222298112	46	5672
2026-01-02 04:27:17.85	221.21	5.17	-36.3	-37.2	21.6	0.00e+00	0	36	0	228589568	46	5849
2026-01-02 04:27:18.86	221.31	5.23	-36.2	-37.0	21.8	0.00e+00	0	36	0	233832448	46	5761
2026-01-02 04:27:19.87	221.41	5.29	-36.3	-37.2	21.7	0.00e+00	0	36	0	239075328	46	5847
2026-01-02 04:27:20.88	221.50	5.34	-36.5	-37.3	21.5	0.00e+00	0	36	0	245366784	46	5927
2026-01-02 04:27:21.89	221.60	5.40	-36.4	-37.2	21.6	0.00e+00	0	36	0	250609664	46	5853
2026-01-02 04:27:22.90	221.70	5.46	-36.4	-37.2	21.6	0.00e+00	0	36	0	256901120	46	5874
2026-01-02 04:27:23.91	221.80	5.52	-36.4	-37.3	21.5	0.00e+00	0	36	0	262144000	46	5919
2026-01-02 04:27:24.92	221.90	5.57	-36.6	-37.5	21.4	0.00e+00	0	36	0	267386880	46	6057
2026-01-02 04:27:25.93	222.00	5.63	-36.5	-37.3	21.4	0.00e+00	0	36	0	273678336	46	5952
2026-01-02 04:27:26.94	222.10	5.69	-36.6	-37.5	21.3	0.00e+00	0	36	0	278921216	46	6062
2026-01-02 04:27:27.95	222.20	5.74	-36.7	-37.5	21.4	0.00e+00	0	36	0	285212672	46	6075
2026-01-02 04:27:28.96	222.30	5.80	-36.6	-37.5	21.4	0.00e+00	0	36	0	290455552	46	6038
2026-01-02 04:27:29.97	222.40	5.86	-36.6	-37.4	21.5	0.00e+00	0	36	0	296747008	46	6012
2026-01-02 04:27:30.98	222.50	5.92	-36.6	-37.4	21.4	0.00e+00	0	36	0	301989888	46	6020
2026-01-02 04:27:31.98	222.60	5.97	-36.5	-37.4	21.5	0.00e+00	0	36	0	308281344	46	5974
2026-01-02 04:27:32.99	222.70	6.03	-36.6	-37.5	21.4	0.00e+00	0	36	0	313524224	46	6047
2026-01-02 04:27:34.00	222.81	6.09	-36.7	-37.6	21.3	0.00e+00	0	36	0	318767104	46	6121
2026-01-02 04:27:35.01	222.91	6.15	-36.7	-37.5	21.3	0.00e+00	0	36	0	325058560	46	6077
2026-01-02 04:27:36.02	223.01	6.20	-36.6	-37.5	21.4	0.00e+00	0	36	0	330301440	46	6054
2026-01-02 04:27:37.03	223.12	6.26	-36.6	-37.5	21.3	0.00e+00	0	36	0	336592896	46	6073
2026-01-02 04:27:38.04	223.22	6.32	-36.5	-37.4	21.4	0.00e+00	0	36	0	341835776	46	5998
2026-01-02 04:27:39.05	223.32	6.38	-36.7	-37.5	21.2	0.00e+00	0	36	0	347078656	46	6087
2026-01-02 04:27:40.06	223.43	6.44	-36.6	-37.4	21.2	0.00e+00	0	36	0	353370112	46	6008
2026-01-02 04:27:41.07	223.53	6.49	-36.5	-37.4	21.3	0.00e+00	0	36	0	358612992	46	5985
2026-01-02 04:27:42.08	223.64	6.55	-36.7	-37.6	20.9	0.00e+00	0	36	0	363855872	46	6165
2026-01-02 04:27:43.09	223.75	6.61	-36.8	-37.7	20.7	0.00e+00	0	36	0	370147328	46	6236
2026-01-02 04:27:44.10	223.85	6.67	-36.7	-37.5	20.9	0.00e+00	0	36	0	375390208	46	6088
2026-01-02 04:27:45.11	223.96	6.73	-36.7	-37.6	20.9	0.00e+00	0	36	0	381681664	46	6132
2026-01-02 04:27:46.12	224.07	6.78	-36.7	-37.6	21.0	0.00e+00	0	36	0	386924544	46	6106
2026-01-02 04:27:47.13	224.18	6.84	-36.6	-37.5	21.0	0.00e+00	0	36	0	393216000	46	6059
2026-01-02 04:27:48.14	224.28	6.90	-36.6	-37.4	21.1	0.00e+00	0	36	0	398458880	46	6028
2026-01-02 04:27:49.15	224.39	6.96	-36.6	-37.5	21.2	0.00e+00	0	36	0	404750336	46	6039
2026-01-02 04:27:50.16	224.50	7.02	-36.5	-37.4	21.3	0.00e+00	0	36	0	409993216	46	6009
2026-01-02 04:27:51.17	224.61	7.08	-36.4	-37.3	21.6	0.00e+00	0	36	0	415236096	46	5913
2026-01-02 04:27:52.18	224.72	7.13	-36.5	-37.4	21.6	0.00e+00	0	36	0	421527552	46	5984
2026-01-02 04:27:53.18	224.83	7.19	-36.6	-37.4	21.6	0.00e+00	0	36	0	426770432	46	5993
2026-01-02 04:27:54.19	224.94	7.25	-36.7	-37.5	21.5	0.00e+00	0	36	0	433061888	46	6091
2026-01-02 04:27:55.20	225.05	7.31	-36.7	-37.5	21.5	0.00e+00	0	36	0	438304768	46	6093
2026-01-02 04:27:56.21	225.16	7.37	-36.9	-37.7	21.3	0.00e+00	0	36	0	443547648	46	6217
2026-01-02 04:27:57.22	225.28	7.43	-37.0	-37.8	21.0	0.00e+00	0	36	0	449839104	46	6315
2026-01-02 04:27:58.23	225.39	7.49	-36.9	-37.8	21.1	0.00e+00	0	36	0	455081984	46	6249
2026-01-02 04:27:59.24	225.50	7.55	-37.0	-37.9	20.9	0.00e+00	0	36	0	461373440	46	6366
2026-01-02 04:28:00.24	225.61	7.60	-37.0	-37.9	20.8	0.00e+00	0	36	0	466616320	46	6340
2026-01-02 04:28:01.26	225.73	7.66	-37.2	-38.0	20.7	0.00e+00	0	36	0	471859200	46	6461
2026-01-02 04:28:02.27	225.84	7.72	-37.0	-37.9	20.9	0.00e+00	0	36	0	478150656	46	6323
2026-01-02 04:28:03.28	225.96	7.78	-37.0	-37.8	21.0	0.00e+00	0	36	0	483393536	46	6315
2026-01-02 04:28:04.29	226.07	7.84	-36.9	-37.7	21.2	0.00e+00	0	36	0	489684992	46	6227
2026-01-02 04:28:05.29	226.19	7.90	-36.8	-37.6	21.3	0.00e+00	0	36	0	494927872	46	6150
2026-01-02 04:28:06.30	226.30	7.96	-36.8	-37.7	21.3	0.00e+00	0	36	0	501219328	46	6181
2026-01-02 04:28:07.31	226.42	8.02	-36.8	-37.6	21.5	0.00e+00	0	36	0	506462208	46	6128
2026-01-02 04:28:08.32	226.54	8.08	-36.8	-37.6	21.5	0.00e+00	0	36	0	511705088	46	6157
2026-01-02 04:28:09.33	226.65	8.13	-36.7	-37.6	21.6	0.00e+00	0	36	0	517996544	46	6143
2026-01-02 04:28:10.34	226.77	8.19	-36.8	-37.6	21.4	0.00e+00	0	36	0	523239424	46	6152
2026-01-02 04:28:11.35	226.89	8.25	-36.8	-37.7	21.3	0.00e+00	0	36	0	529530880	46	6174
2026-01-02 04:28:12.36	227.01	8.31	-36.9	-37.8	21.2	0.00e+00	0	36	0	534773760	46	6269
2026-01-02 04:28:13.37	227.13	8.37	-36.8	-37.7	21.3	0.00e+00	0	36	0	540016640	46	6191
2026-01-02 04:28:14.38	227.25	8.43	-37.0	-37.8	21.3	0.00e+00	0	36	0	546308096	46	6287
2026-01-02 04:28:15.39	227.37	8.49	-36.9	-37.8	21.4	0.00e+00	0	36	0	551550976	46	6259
2026-01-02 04:28:16.40	227.49	8.55	-37.0	-37.9	21.3	0.00e+00	0	36	0	557842432	46	6339
2026-01-02 04:28:17.41	227.61	8.61	-37.0	-37.8	21.4	0.00e+00	0	36	0	563085312	46	6270
2026-01-02 04:28:18.42	227.73	8.67	-37.1	-38.0	21.2	0.00e+00	0	36	0	568328192	46	6428
2026-01-02 04:28:19.43	227.85	8.73	-37.1	-37.9	21.3	0.00e+00	0	36	0	574619648	46	6349
2026-01-02 04:28:20.44	227.97	8.79	-37.0	-37.9	21.3	0.00e+00	0	36	0	579862528	46	6322
2026-01-02 04:28:21.45	228.10	8.85	-37.0	-37.9	21.3	0.00e+00	0	36	0	586153984	46	6330
2026-01-02 04:28:22.46	228.22	8.91	-37.1	-37.9	21.3	0.00e+00	0	36	0	591396864	46	6372
2026-01-02 04:28:23.47	228.34	8.97	-37.2	-38.1	21.1	0.00e+00	0	36	0	597688320	46	6479
2026-01-02 04:28:24.48	228.47	9.03	-37.3	-38.2	21.0	0.00e+00	0	36	0	602931200	46	6568
2026-01-02 04:28:25.49	228.59	9.09	-37.2	-38.0	21.2	0.00e+00	0	36	0	609222656	46	6447
2026-01-02 04:28:26.50	228.72	9.15	-37.4	-38.2	21.1	0.00e+00	0	36	0	614465536	46	6595
2026-01-02 04:28:27.51	228.85	9.21	-37.2	-38.1	21.1	0.00e+00	0	36	0	619708416	46	6523
2026-01-02 04:28:28.52	228.97	9.27	-37.3	-38.2	21.1	0.00e+00	0	36	0	625999872	46	6564
2026-01-02 04:28:29.53	229.10	9.33	-37.1	-37.9	21.4	0.00e+00	0	36	0	631242752	46	6374
2026-01-02 04:28:30.54	229.23	9.39	-36.9	-37.8	21.5	0.00e+00	0	36	0	637534208	46	6257
2026-01-02 04:28:31.55	229.35	9.45	-36.9	-37.7	21.5	0.00e+00	0	36	0	642777088	46	6241
2026-01-02 04:28:32.56	229.48	9.51	-36.9	-37.7	21.6	0.00e+00	0	36	0	648019968	46	6202
2026-01-02 04:28:33.57	229.61	9.57	-36.8	-37.6	21.6	0.00e+00	0	36	0	654311424	46	6144
2026-01-02 04:28:34.58	229.74	9.63	-36.7	-37.5	21.8	0.00e+00	0	36	0	659554304	46	6044
2026-01-02 04:28:35.59	229.87	9.69	-36.7	-37.5	21.7	0.00e+00	0	36	0	665845760	46	6077
2026-01-02 04:28:36.60	230.00	9.75	-36.7	-37.5	21.7	0.00e+00	0	36	0	671088640	46	6070
2026-01-02 04:28:37.61	230.13	9.81	-36.8	-37.6	21.6	0.00e+00	0	36	0	676331520	46	6155
2026-01-02 04:28:38.62	230.26	9.87	-36.9	-37.7	21.6	0.00e+00	0	36	0	682622976	46	6213
2026-01-02 04:28:39.63	230.40	9.93	-37.0	-37.9	21.5	0.00e+00	0	36	0	687865856	46	6320
2026-01-02 04:28:40.64	230.53	9.99	-37.2	-38.1	21.3	0.00e+00	0	36	0	694157312	46	6476
2026-01-02 04:28:41.65	230.66	10.05	-37.2	-38.1	21.2	0.00e+00	0	36	0	699400192	46	6478
2026-01-02 04:28:42.66	230.80	10.11	-37.1	-38.0	21.3	0.00e+00	0	36	0	705691648	46	6411
2026-01-02 04:28:43.67	230.93	10.17	-37.2	-38.1	21.2	0.00e+00	0	36	0	710934528	46	6475
2026-01-02 04:28:44.68	231.06	10.23	-37.3	-38.1	21.2	0.00e+00	0	36	0	716177408	46	6530
2026-01-02 04:28:45.68	231.20	10.29	-37.2	-38.1	21.2	0.00e+00	0	36	0	722468864	46	6480
2026-01-02 04:28:46.69	231.33	10.35	-37.3	-38.1	21.2	0.00e+00	0	36	0	727711744	46	6531
2026-01-02 04:28:47.70	231.47	10.41	-37.1	-38.0	21.3	0.00e+00	0	36	0	734003200	46	6438
2026-01-02 04:28:48.71	231.61	10.47	-37.1	-37.9	21.4	0.00e+00	0	36	0	739246080	46	6360
2026-01-02 04:28:49.72	231.75	10.53	-37.0	-37.8	21.4	0.00e+00	0	36	0	744488960	46	6297
2026-01-02 04:28:50.73	231.88	10.59	-37.0	-37.9	21.5	0.00e+00	0	36	0	750780416	46	6347
2026-01-02 04:28:51.74	232.02	10.65	-36.9	-37.7	21.6	0.00e+00	0	36	0	756023296	46	6239
2026-01-02 04:28:52.75	232.16	10.71	-37.0	-37.9	21.4	0.00e+00	0	36	0	762314752	46	6329
2026-01-02 04:28:53.76	232.30	10.77	-37.1	-37.9	21.4	0.00e+00	0	36	0	767557632	46	6388
2026-01-02 04:28:54.77	232.44	10.83	-37.0	-37.8	21.4	0.00e+00	0	36	0	772800512	46	6306
2026-01-02 04:28:55.78	232.58	10.89	-36.9	-37.8	21.6	0.00e+00	0	36	0	779091968	46	6246
2026-01-02 04:28:56.79	232.72	10.95	-36.7	-37.5	21.8	0.00e+00	0	36	0	784334848	46	6053
2026-01-02 04:28:57.80	232.86	11.01	-36.8	-37.6	21.7	0.00e+00	0	36	0	790626304	46	6166
2026-01-02 04:28:58.80	233.01	11.07	-36.6	-37.4	21.8	0.00e+00	0	36	0	795869184	46	6033
2026-01-02 04:28:59.81	233.15	11.13	-36.5	-37.4	22.0	0.00e+00	0	36	0	802160640	46	5979
2026-01-02 04:29:00.82	233.29	11.19	-36.6	-37.4	21.9	0.00e+00	0	36	0	807403520	46	5998
2026-01-02 04:29:01.83	233.44	11.25	-36.5	-37.3	22.1	0.00e+00	0	36	0	812646400	46	5931
2026-01-02 04:29:02.84	233.58	11.31	-36.3	-37.2	22.1	0.00e+00	0	36	0	818937856	46	5843
2026-01-02 04:29:03.85	233.73	11.37	-36.5	-37.3	22.0	0.00e+00	0	36	0	824180736	46	5957
2026-01-02 04:29:04.86	233.87	11.43	-36.2	-37.0	22.3	0.00e+00	0	36	0	830472192	46	5735
2026-01-02 04:29:05.87	234.02	11.49	-36.3	-37.1	22.2	0.00e+00	0	36	0	835715072	46	5786
2026-01-02 04:29:06.88	234.16	11.55	-36.2	-37.0	22.3	0.00e+00	0	36	0	840957952	46	5718
2026-01-02 04:29:07.89	234.31	11.61	-36.1	-36.9	22.4	0.00e+00	0	36	0	847249408	46	5655
2026-01-02 04:29:08.90	234.46	11.67	-36.1	-36.8	22.4	0.00e+00	0	36	0	852492288	46	5624
2026-01-02 04:29:09.91	234.61	11.73	-35.8	-36.6	22.7	0.00e+00	0	36	0	858783744	46	5444
2026-01-02 04:29:10.92	234.76	11.79	-35.6	-36.3	22.8	0.00e+00	0	36	0	864026624	44	5960
2026-01-02 04:29:11.93	234.91	11.85	-35.5	-36.3	22.9	0.00e+00	0	36	0	869269504	44	5911
2026-01-02 04:29:12.94	235.06	11.91	-35.5	-36.2	22.9	0.00e+00	0	36	0	875560960	44	5880
2026-01-02 04:29:13.95	235.21	11.97	-35.5	-36.2	23.0	0.00e+00	0	36	0	880803840	44	5864
2026-01-02 04:29:14.96	235.36	12.02	-35.5	-36.2	23.0	0.00e+00	0	36	0	887095296	44	5877
2026-01-02 04:29:15.97	235.51	12.08	-35.5	-36.3	22.9	0.00e+00	0	36	0	892338176	44	5903
2026-01-02 04:29:16.98	235.67	12.14	-35.5	-36.3	22.9	0.00e+00	0	36	0	898629632	44	5921
2026-01-02 04:29:17.99	235.82	12.20	-35.4	-36.2	23.0	0.00e+00	0	36	0	903872512	44	5840
2026-01-02 04:29:19.00	235.97	12.26	-35.5	-36.3	22.9	0.00e+00	0	36	0	910163968	44	5912
2026-01-02 04:29:20.01	236.13	12.32	-35.3	-36.1	23.1	0.00e+00	0	36	0	915406848	44	5764
2026-01-02 04:29:21.02	236.28	12.38	-35.5	-36.3	23.0	0.00e+00	0	36	0	920649728	44	5914
2026-01-02 04:29:22.03	236.44	12.44	-35.1	-35.8	23.3	0.00e+00	0	36	0	926941184	44	5611
2026-01-02 04:29:23.03	236.59	12.50	-35.1	-35.9	23.3	0.00e+00	0	36	0	932184064	44	5638
2026-01-02 04:29:24.04	236.75	12.56	-35.1	-35.8	23.3	0.00e+00	0	36	0	938475520	44	5614
2026-01-02 04:29:25.05	236.91	12.62	-35.1	-35.8	23.4	0.00e+00	0	36	0	943718400	44	5602
2026-01-02 04:29:26.06	237.07	12.68	-34.9	-35.7	23.5	0.00e+00	0	36	0	948961280	44	5503
2026-01-02 04:29:27.07	237.23	12.74	-35.0	-35.6	23.5	0.00e+00	0	36	0	955252736	44	5501
2026-01-02 04:29:28.08	237.39	12.80	-35.0	-35.8	23.4	0.00e+00	0	36	0	960495616	44	5585
2026-01-02 04:29:29.09	237.55	12.86	-35.1	-35.8	23.4	0.00e+00	0	36	0	966787072	44	5616
2026-01-02 04:29:30.10	237.71	12.92	-34.9	-35.6	23.6	0.00e+00	0	36	0	972029952	44	5495
2026-01-02 04:29:31.11	237.87	12.97	-35.0	-35.7	23.5	0.00e+00	0	36	0	977272832	44	5544
2026-01-02 04:29:32.12	238.03	13.03	-34.8	-35.6	23.7	0.00e+00	0	36	0	983564288	44	5459
2026-01-02 04:29:33.13	238.19	13.09	-34.8	-35.5	23.7	0.00e+00	0	36	0	988807168	42	6101
2026-01-02 04:29:34.14	238.36	13.15	-34.7	-35.4	23.8	0.00e+00	0	36	0	995098624	42	5991
2026-01-02 04:29:35.15	238.52	13.21	-34.8	-35.5	23.8	0.00e+00	0	36	0	1000341504	42	6075
2026-01-02 04:29:36.16	238.68	13.27	-34.6	-35.3	24.0	0.00e+00	0	36	0	1006632960	42	5937
2026-01-02 04:29:37.17	238.85	13.33	-34.6	-35.4	24.0	0.00e+00	0	36	0	1011875840	42	5967
2026-01-02 04:29:38.17	239.01	13.39	-34.4	-35.1	24.1	0.00e+00	0	36	0	1017118720	42	5792
2026-01-02 04:29:39.19	239.18	13.44	-34.2	-34.9	24.3	0.00e+00	0	36	0	1023410176	42	5685
2026-01-02 04:29:40.20	239.35	13.50	-34.0	-34.7	24.5	0.00e+00	0	36	0	1028653056	42	5559
2026-01-02 04:29:41.20	239.52	13.56	-33.8	-34.6	24.6	0.00e+00	0	36	0	1034944512	42	5448
2026-01-02 04:29:42.21	239.68	13.62	-33.8	-34.5	24.7	0.00e+00	0	36	0	1040187392	42	5405
2026-01-02 04:29:43.22	239.85	13.68	-33.6	-34.3	24.8	0.00e+00	0	36	0	1045430272	40	5964
2026-01-02 04:29:44.23	240.02	13.73	-33.7	-34.3	24.9	0.00e+00	0	36	0	1051721728	40	5947
2026-01-02 04:29:45.24	240.19	13.79	-33.7	-34.4	24.8	0.00e+00	0	36	0	1056964608	40	6011
2026-01-02 04:29:46.25	240.36	13.85	-33.7	-34.4	24.8	0.00e+00	0	36	0	1063256064	40	5969
2026-01-02 04:29:47.26	240.54	13.91	-33.6	-34.3	24.9	0.00e+00	0	36	0	1068498944	40	5931
2026-01-02 04:29:48.27	240.71	13.97	-33.6	-34.3	24.9	0.00e+00	0	36	0	1073741824	40	5916
2026-01-02 04:29:49.28	240.88	14.02	-33.5	-34.1	25.0	0.00e+00	0	36	0	1080033280	40	5821
2026-01-02 04:29:50.29	241.05	14.08	-33.6	-34.3	24.9	0.00e+00	0	36	0	1085276160	40	5947
2026-01-02 04:29:51.30	241.23	14.14	-33.6	-34.3	25.1	0.00e+00	0	36	0	1091567616	40	5897
2026-01-02 04:29:52.31	241.40	14.19	-33.4	-34.0	25.2	0.00e+00	0	36	0	1096810496	40	5754
2026-01-02 04:29:53.32	241.58	14.25	-33.3	-33.9	25.3	0.00e+00	0	36	0	1103101952	40	5678
2026-01-02 04:29:54.33	241.75	14.31	-33.3	-34.0	25.3	0.00e+00	0	36	0	1108344832	40	5716
2026-01-02 04:29:55.34	241.93	14.37	-33.3	-34.0	25.2	0.00e+00	0	36	0	1114636288	40	5733
2026-01-02 04:29:56.35	242.11	14.42	-33.2	-34.0	25.2	0.00e+00	0	36	0	1119879168	40	5702
2026-01-02 04:29:57.36	242.29	14.48	-33.1	-33.8	25.4	0.00e+00	0	36	0	1125122048	40	5592
2026-01-02 04:29:58.37	242.47	14.54	-33.0	-33.7	25.5	0.00e+00	0	36	0	1131413504	40	5519
2026-01-02 04:29:59.38	242.64	14.59	-32.9	-33.6	25.6	0.00e+00	0	36	0	1136656384	40	5464
2026-01-02 04:30:00.38	242.82	14.65	-32.8	-33.5	25.6	0.00e+00	0	36	0	1141899264	40	5403
2026-01-02 04:30:01.39	243.00	14.70	-32.9	-33.6	25.6	0.00e+00	0	36	0	1148190720	40	5458
2026-01-02 04:30:02.40	243.19	14.76	-32.7	-33.4	25.7	0.00e+00	0	36	0	1153433600	40	5361
2026-01-02 04:30:03.41	243.37	14.82	-32.9	-33.5	25.7	0.00e+00	0	36	0	1159725056	38	6097
2026-01-02 04:30:04.42	243.55	14.87	-32.7	-33.4	25.7	0.00e+00	0	36	0	1164967936	38	6005
2026-01-02 04:30:05.43	243.73	14.93	-32.7	-33.4	25.8	0.00e+00	0	36	0	1170210816	38	5978
2026-01-02 04:30:06.44	243.92	14.98	-32.7	-33.3	25.8	0.00e+00	0	36	0	1176502272	38	5936
2026-01-02 04:30:07.45	244.10	15.04	-32.7	-33.4	25.7	0.00e+00	0	36	0	1181745152	38	6011
2026-01-02 04:30:08.46	244.29	15.09	-32.8	-33.4	25.8	0.00e+00	0	36	0	1188036608	38	6030
2026-01-02 04:30:09.47	244.47	15.15	-32.8	-33.4	25.8	0.00e+00	0	36	0	1193279488	38	5995
2026-01-02 04:30:10.48	244.66	15.20	-32.7	-33.4	25.8	0.00e+00	0	36	0	1199570944	38	5974
2026-01-02 04:30:11.49	244.85	15.26	-32.6	-33.3	25.9	0.00e+00	0	36	0	1204813824	38	5899
2026-01-02 04:30:12.50	245.04	15.31	-32.7	-33.3	25.9	0.00e+00	0	36	0	1211105280	38	5964
2026-01-02 04:30:13.51	245.22	15.37	-32.6	-33.2	25.9	0.00e+00	0	36	0	1216348160	38	5891
2026-01-02 04:30:14.52	245.41	15.42	-32.5	-33.2	25.9	0.00e+00	0	36	0	1221591040	38	5869
2026-01-02 04:30:15.53	245.60	15.47	-32.6	-33.3	25.9	0.00e+00	0	36	0	1227882496	38	5905
2026-01-02 04:30:16.54	245.79	15.53	-32.6	-33.3	25.8	0.00e+00	0	36	0	1233125376	38	5916
2026-01-02 04:30:17.55	245.99	15.58	-32.5	-33.1	26.0	0.00e+00	0	36	0	1239416832	38	5799
2026-01-02 04:30:18.56	246.18	15.63	-32.4	-33.1	26.0	0.00e+00	0	36	0	1244659712	38	5776
2026-01-02 04:30:19.57	246.37	15.69	-32.4	-33.0	26.1	0.00e+00	0	36	0	1249902592	38	5754
2026-01-02 04:30:20.58	246.56	15.74	-32.3	-33.0	26.0	0.00e+00	0	36	0	1256194048	38	5728
2026-01-02 04:30:21.59	246.76	15.79	-32.4	-33.1	25.9	0.00e+00	0	36	0	1261436928	38	5780
2026-01-02 04:30:22.60	246.95	15.85	-32.4	-33.1	26.0	0.00e+00	0	36	0	1267728384	38	5784
2026-01-02 04:30:23.61	247.15	15.90	-32.4	-33.0	26.1	0.00e+00	0	36	0	1272971264	38	5753
2026-01-02 04:30:24.61	247.34	15.95	-32.5	-33.1	25.9	0.00e+00	0	36	0	1278214144	38	5827
2026-01-02 04:30:25.62	247.54	16.00	-32.5	-33.1	26.0	0.00e+00	0	36	0	1284505600	38	5819
2026-01-02 04:30:26.63	247.74	16.05	-32.6	-33.3	25.9	0.00e+00	0	36	0	1289748480	38	5927
2026-01-02 04:30:27.64	247.93	16.11	-32.6	-33.2	25.9	0.00e+00	0	36	0	1296039936	38	5888
2026-01-02 04:30:28.65	248.13	16.16	-32.6	-33.2	25.9	0.00e+00	0	36	0	1301282816	38	5870
2026-01-02 04:30:29.67	248.33	16.21	-32.7	-33.3	25.8	0.00e+00	0	36	0	1307574272	38	5949
2026-01-02 04:30:30.67	248.53	16.26	-32.6	-33.3	25.9	0.00e+00	0	36	0	1312817152	38	5919
2026-01-02 04:30:31.69	248.73	16.31	-32.6	-33.2	25.9	0.00e+00	0	36	0	1319108608	38	5891
2026-01-02 04:30:32.70	248.93	16.36	-32.5	-33.1	26.0	0.00e+00	0	36	0	1324351488	38	5799
2026-01-02 04:30:33.71	249.14	16.41	-32.4	-33.0	26.1	0.00e+00	0	36	0	1329594368	38	5761
2026-01-02 04:30:34.72	249.34	16.46	-32.3	-33.0	26.1	0.00e+00	0	36	0	1335885824	38	5724
2026-01-02 04:30:35.72	249.54	16.51	-32.3	-32.9	26.2	0.00e+00	0	36	0	1341128704	38	5680
2026-01-02 04:30:36.74	249.75	16.56	-32.3	-33.0	26.1	0.00e+00	0	36	0	1347420160	38	5706
2026-01-02 04:30:37.75	249.95	16.61	-32.4	-33.1	26.0	0.00e+00	0	36	0	1352663040	38	5796
2026-01-02 04:30:38.76	250.16	16.66	-32.4	-33.1	26.0	0.00e+00	0	36	0	1357905920	38	5771
2026-01-02 04:30:39.77	250.36	16.71	-32.5	-33.2	26.0	0.00e+00	0	36	0	1364197376	38	5866
2026-01-02 04:30:40.78	250.57	16.76	-32.6	-33.3	25.9	0.00e+00	0	36	0	1369440256	38	5905
2026-01-02 04:30:41.79	250.78	16.80	-32.4	-33.1	26.1	0.00e+00	0	36	0	1375731712	38	5788
2026-01-02 04:30:42.80	250.98	16.85	-32.5	-33.1	26.0	0.00e+00	0	36	0	1380974592	38	5802
2026-01-02 04:30:43.81	251.19	16.90	-32.4	-33.1	26.1	0.00e+00	0	36	0	1386217472	38	5784
2026-01-02 04:30:44.82	251.40	16.95	-32.5	-33.2	26.0	0.00e+00	0	36	0	1392508928	38	5844
2026-01-02 04:30:45.83	251.61	17.00	-32.2	-32.9	26.2	0.00e+00	0	36	0	1397751808	38	5643
2026-01-02 04:30:46.84	251.82	17.04	-32.2	-32.8	26.3	0.00e+00	0	36	0	1404043264	38	5619
2026-01-02 04:30:47.85	252.03	17.09	-32.2	-32.9	26.3	0.00e+00	0	36	0	1409286144	38	5640
2026-01-02 04:30:48.86	252.24	17.14	-32.3	-33.0	26.2	0.00e+00	0	36	0	1415577600	38	5708
2026-01-02 04:30:49.86	252.45	17.18	-32.2	-32.9	26.3	0.00e+00	0	36	0	1420820480	38	5645
2026-01-02 04:30:50.87	252.67	17.23	-32.3	-32.9	26.2	0.00e+00	0	36	0	1426063360	38	5663
2026-01-02 04:30:51.88	252.88	17.27	-32.4	-33.0	26.2	0.00e+00	0	36	0	1432354816	38	5758
2026-01-02 04:30:52.89	253.09	17.32	-32.5	-33.2	26.0	0.00e+00	0	36	0	1437597696	38	5849
2026-01-02 04:30:53.90	253.31	17.36	-32.6	-33.2	26.0	0.00e+00	0	36	0	1443889152	38	5889
2026-01-02 04:30:54.91	253.52	17.41	-32.6	-33.2	25.9	0.00e+00	0	36	0	1449132032	38	5895
2026-01-02 04:30:55.92	253.74	17.45	-32.3	-32.9	26.3	0.00e+00	0	36	0	1454374912	38	5651
2026-01-02 04:30:56.94	253.96	17.50	-32.3	-33.0	26.2	0.00e+00	0	36	0	1460666368	38	5720
2026-01-02 04:30:57.95	254.18	17.54	-32.2	-32.8	26.3	0.00e+00	0	36	0	1465909248	38	5612
2026-01-02 04:30:58.95	254.39	17.58	-32.0	-32.6	26.4	0.00e+00	0	36	0	1472200704	38	5495
2026-01-02 04:30:59.96	254.61	17.63	-31.9	-32.6	26.5	0.00e+00	0	36	0	1477443584	38	5454
2026-01-02 04:31:00.98	254.83	17.67	-32.0	-32.6	26.5	0.00e+00	0	36	0	1482686464	38	5469
2026-01-02 04:31:01.98	255.05	17.71	-32.1	-32.7	26.4	0.00e+00	0	36	0	1488977920	38	5541
2026-01-02 04:31:02.99	255.27	17.75	-32.3	-32.9	26.3	0.00e+00	0	36	0	1494220800	38	5679
2026-01-02 04:31:04.00	255.49	17.80	-32.3	-33.0	26.1	0.00e+00	0	36	0	1500512256	38	5716
2026-01-02 04:31:05.01	255.71	17.84	-32.3	-33.0	26.1	0.00e+00	0	36	0	1505755136	38	5711
2026-01-02 04:31:06.02	255.93	17.88	-32.4	-33.1	26.0	0.00e+00	0	36	0	1512046592	38	5795
2026-01-02 04:31:07.03	256.15	17.92	-32.4	-33.1	26.2	0.00e+00	0	36	0	1517289472	38	5768
2026-01-02 04:31:08.04	256.38	17.96	-32.3	-32.9	26.2	0.00e+00	0	36	0	1523580928	38	5673
2026-01-02 04:31:09.05	256.60	18.00	-31.9	-32.6	26.5	0.00e+00	0	36	0	1528823808	38	5448
2026-01-02 04:31:10.06	256.83	18.04	-32.0	-32.7	26.4	0.00e+00	0	36	0	1534066688	38	5507
2026-01-02 04:31:11.06	257.05	18.08	-32.1	-32.8	26.3	0.00e+00	0	37	0	1540358144	38	5605
2026-01-02 04:31:12.07	257.27	18.12	-32.2	-32.9	26.3	0.00e+00	0	36	0	1545601024	38	5663
2026-01-02 04:31:13.08	257.50	18.15	-32.4	-33.1	26.0	0.00e+00	0	36	0	1550843904	38	5805
2026-01-02 04:31:14.09	257.73	18.19	-32.4	-33.0	26.2	0.00e+00	0	36	0	1557135360	38	5731
2026-01-02 04:31:15.10	257.95	18.23	-32.1	-32.8	26.3	0.00e+00	0	36	0	1562378240	38	5584
2026-01-02 04:31:16.11	258.18	18.27	-32.0	-32.7	26.5	0.00e+00	0	36	0	1568669696	38	5522
2026-01-02 04:31:17.12	258.41	18.31	-32.1	-32.7	26.4	0.00e+00	0	36	0	1573912576	38	5531
2026-01-02 04:31:18.13	258.64	18.34	-32.1	-32.7	26.3	0.00e+00	0	36	0	1579155456	38	5537
2026-01-02 04:31:19.14	258.87	18.38	-32.2	-32.9	26.3	0.00e+00	0	36	0	1585446912	38	5648
2026-01-02 04:31:20.15	259.10	18.41	-32.0	-32.7	26.4	0.00e+00	0	36	0	1590689792	38	5516
2026-01-02 04:31:21.16	259.33	18.45	-32.2	-32.9	26.4	0.00e+00	0	36	0	1596981248	38	5633
2026-01-02 04:31:22.16	259.55	18.48	-32.3	-33.0	26.1	0.00e+00	0	36	0	1602224128	38	5707
2026-01-02 04:31:23.18	259.79	18.52	-32.4	-33.1	26.3	0.00e+00	0	36	0	1608515584	38	5787
2026-01-02 04:31:24.19	260.02	18.55	-32.3	-33.0	26.2	0.00e+00	0	36	0	1613758464	38	5726
2026-01-02 04:31:25.20	260.25	18.59	-32.0	-32.6	26.5	0.00e+00	0	36	0	1620049920	38	5492
2026-01-02 04:31:26.20	260.48	18.62	-32.1	-32.7	26.4	0.00e+00	0	36	0	1625292800	38	5550
2026-01-02 04:31:27.21	260.72	18.65	-31.9	-32.6	26.6	0.00e+00	0	36	0	1630535680	38	5444
2026-01-02 04:31:28.22	260.95	18.69	-31.8	-32.5	26.5	0.00e+00	0	36	0	1636827136	38	5407
2026-01-02 04:31:29.23	261.18	18.72	-31.9	-32.5	26.6	0.00e+00	0	36	0	1642070016	38	5404
2026-01-02 04:31:30.24	261.42	18.75	-31.8	-32.5	26.6	0.00e+00	0	36	0	1648361472	38	5409
2026-01-02 04:31:31.25	261.65	18.78	-31.9	-32.5	26.6	0.00e+00	0	36	0	1653604352	38	5403
2026-01-02 04:31:32.26	261.89	18.81	-31.8	-32.4	26.6	0.00e+00	0	36	0	1658847232	38	5362
2026-01-02 04:31:33.27	262.13	18.84	-31.7	-32.4	26.6	0.00e+00	0	36	0	1665138688	36	5976
2026-01-02 04:31:34.28	262.36	18.87	-31.6	-32.2	26.7	0.00e+00	0	36	0	1670381568	36	5870
2026-01-02 04:31:35.29	262.60	18.90	-31.6	-32.2	26.7	0.00e+00	0	36	0	1676673024	36	5894
2026-01-02 04:31:36.30	262.84	18.93	-31.7	-32.3	26.7	0.00e+00	0	36	0	1681915904	36	5944
2026-01-02 04:31:37.31	263.07	18.96	-31.6	-32.3	26.7	0.00e+00	0	36	0	1687158784	36	5905
2026-01-02 04:31:38.31	263.31	18.99	-31.6	-32.3	26.7	0.00e+00	0	36	0	1693450240	36	5898
2026-01-02 04:31:39.33	263.55	19.02	-31.6	-32.2	26.8	0.00e+00	0	37	0	1698693120	36	5894
2026-01-02 04:31:40.34	263.79	19.04	-31.7	-32.3	26.7	0.00e+00	0	37	0	1704984576	36	5934
2026-01-02 04:31:41.35	264.03	19.07	-31.8	-32.4	26.6	0.00e+00	0	36	0	1710227456	36	5996
2026-01-02 04:31:42.36	264.27	19.10	-31.7	-32.3	26.7	0.00e+00	0	37	0	1716518912	36	5956
2026-01-02 04:31:43.37	264.51	19.12	-31.9	-32.6	26.3	0.00e+00	0	36	0	1721761792	36	6132
2026-01-02 04:31:44.38	264.75	19.15	-32.1	-32.7	26.4	0.00e+00	0	36	0	1727004672	36	6240
2026-01-02 04:31:45.39	264.99	19.17	-32.0	-32.6	26.5	0.00e+00	0	36	0	1733296128	36	6157
2026-01-02 04:31:46.40	265.23	19.20	-31.8	-32.4	26.6	0.00e+00	0	36	0	1738539008	36	6020
2026-01-02 04:31:47.41	265.48	19.22	-31.8	-32.5	26.6	0.00e+00	0	36	0	1744830464	36	6076
2026-01-02 04:31:48.42	265.72	19.25	-31.8	-32.4	26.6	0.00e+00	0	36	0	1750073344	36	6026
2026-01-02 04:31:49.43	265.96	19.27	-31.7	-32.4	26.7	0.00e+00	0	36	0	1755316224	36	5990
2026-01-02 04:31:50.44	266.20	19.29	-31.7	-32.3	26.6	0.00e+00	0	36	0	1761607680	36	5928
2026-01-02 04:31:51.44	266.45	19.31	-31.7	-32.3	26.7	0.00e+00	0	36	0	1766850560	36	5919
2026-01-02 04:31:52.45	266.69	19.34	-31.6	-32.3	26.8	0.00e+00	0	36	0	1773142016	36	5903
2026-01-02 04:31:53.46	266.93	19.36	-31.6	-32.2	26.7	0.00e+00	0	36	0	1778384896	36	5844
2026-01-02 04:31:54.47	267.18	19.38	-31.6	-32.2	26.8	0.00e+00	0	36	0	1783627776	36	5883
2026-01-02 04:31:55.48	267.42	19.40	-31.7	-32.3	26.7	0.00e+00	0	36	0	1789919232	36	5914
2026-01-02 04:31:56.48	267.66	19.42	-31.7	-32.3	26.7	0.00e+00	0	36	0	1795162112	36	5958
2026-01-02 04:31:57.49	267.91	19.44	-31.6	-32.3	26.7	0.00e+00	0	37	0	1801453568	36	5908
2026-01-02 04:31:58.50	268.16	19.46	-31.6	-32.3	26.7	0.00e+00	0	36	0	1806696448	36	5912
2026-01-02 04:31:59.51	268.40	19.47	-31.6	-32.3	26.7	0.00e+00	0	36	0	1812987904	36	5911
2026-01-02 04:32:00.52	268.65	19.49	-31.7	-32.4	26.6	0.00e+00	0	36	0	1818230784	36	5994
2026-01-02 04:32:01.53	268.89	19.51	-31.7	-32.4	26.7	0.00e+00	0	36	0	1823473664	36	5995
2026-01-02 04:32:02.54	269.14	19.53	-31.7	-32.3	26.7	0.00e+00	0	36	0	1829765120	36	5957
2026-01-02 04:32:03.55	269.39	19.54	-31.7	-32.3	26.6	0.00e+00	0	36	0	1835008000	36	5962
2026-01-02 04:32:04.56	269.63	19.56	-31.4	-32.1	26.8	0.00e+00	0	36	0	1841299456	36	5765
2026-01-02 04:32:05.57	269.88	19.57	-31.6	-32.2	26.8	0.00e+00	0	36	0	1846542336	36	5875
2026-01-02 04:32:06.58	270.13	19.59	-31.6	-32.2	26.8	0.00e+00	0	36	0	1851785216	36	5883
2026-01-02 04:32:07.59	270.38	19.60	-31.7	-32.3	26.6	0.00e+00	0	36	0	1858076672	36	5931
2026-01-02 04:32:08.60	270.62	19.61	-31.7	-32.4	26.6	0.00e+00	0	36	0	1863319552	36	5982
2026-01-02 04:32:09.60	270.87	19.63	-31.7	-32.4	26.7	0.00e+00	0	36	0	1869611008	36	5973
2026-01-02 04:32:10.61	271.12	19.64	-31.6	-32.2	26.8	0.00e+00	0	36	0	1874853888	36	5870
2026-01-02 04:32:11.62	271.37	19.65	-31.6	-32.2	26.9	0.00e+00	0	36	0	1880096768	36	5875
2026-01-02 04:32:12.63	271.62	19.66	-31.5	-32.2	26.9	0.00e+00	0	36	0	1886388224	36	5854
2026-01-02 04:32:13.64	271.87	19.68	-31.5	-32.2	26.8	0.00e+00	0	37	0	1891631104	36	5843
2026-01-02 04:32:14.65	272.11	19.69	-31.5	-32.2	26.8	0.00e+00	0	36	0	1897922560	36	5868
2026-01-02 04:32:15.66	272.36	19.70	-31.5	-32.2	26.9	0.00e+00	0	36	0	1903165440	36	5831
2026-01-02 04:32:16.67	272.61	19.70	-31.5	-32.1	26.9	0.00e+00	0	37	0	1909456896	36	5793
2026-01-02 04:32:17.68	272.86	19.71	-31.4	-32.0	26.9	0.00e+00	0	36	0	1914699776	36	5755
2026-01-02 04:32:18.69	273.11	19.72	-31.3	-31.9	27.0	0.00e+00	0	36	0	1920991232	36	5685
2026-01-02 04:32:19.70	273.36	19.73	-31.5	-32.1	26.9	0.00e+00	0	36	0	1926234112	36	5780
2026-01-02 04:32:20.71	273.61	19.74	-31.4	-32.0	26.9	0.00e+00	0	36	0	1931476992	36	5714
2026-01-02 04:32:21.72	273.86	19.74	-31.5	-32.2	26.8	0.00e+00	0	36	0	1937768448	36	5833
2026-01-02 04:32:22.72	274.11	19.75	-31.6	-32.2	26.7	0.00e+00	0	36	0	1943011328	36	5888
2026-01-02 04:32:23.73	274.36	19.76	-31.3	-32.0	26.9	0.00e+00	0	36	0	1948254208	36	5715
2026-01-02 04:32:24.74	274.61	19.76	-31.3	-31.9	27.0	0.00e+00	0	36	0	1954545664	36	5694
2026-01-02 04:32:25.75	274.86	19.77	-31.3	-31.9	27.0	0.00e+00	0	37	0	1959788544	36	5686
2026-01-02 04:32:26.76	275.11	19.77	-31.4	-32.0	26.9	0.00e+00	0	36	0	1966080000	36	5755
2026-01-02 04:32:27.77	275.36	19.77	-31.5	-32.2	26.8	0.00e+00	0	36	0	1971322880	36	5841
2026-01-02 04:32:28.78	275.61	19.78	-31.4	-32.1	26.9	0.00e+00	0	36	0	1976565760	36	5775
2026-01-02 04:32:29.79	275.86	19.78	-31.5	-32.2	26.9	0.00e+00	0	36	0	1982857216	36	5833
2026-01-02 04:32:30.80	276.11	19.78	-31.5	-32.1	26.9	0.00e+00	0	36	0	1988100096	36	5797
2026-01-02 04:32:31.81	276.37	19.78	-31.5	-32.1	26.8	0.00e+00	0	36	0	1994391552	36	5816
2026-01-02 04:32:32.82	276.62	19.78	-31.5	-32.1	26.9	0.00e+00	0	36	0	1999634432	36	5774
2026-01-02 04:32:33.83	276.87	19.78	-31.5	-32.2	26.8	0.00e+00	0	36	0	2005925888	36	5860
2026-01-02 04:32:34.84	277.12	19.78	-31.6	-32.2	26.8	0.00e+00	0	36	0	2011168768	36	5888
2026-01-02 04:32:35.85	277.37	19.78	-31.6	-32.3	26.7	0.00e+00	0	36	0	2017460224	36	5913
2026-01-02 04:32:36.86	277.62	19.78	-31.7	-32.4	26.8	0.00e+00	0	36	0	2022703104	36	5971
2026-01-02 04:32:37.87	277.87	19.78	-31.7	-32.3	26.7	0.00e+00	0	36	0	2027945984	36	5918
2026-01-02 04:32:38.88	278.12	19.78	-31.6	-32.2	26.8	0.00e+00	0	36	0	2034237440	36	5887
2026-01-02 04:32:39.89	278.37	19.77	-31.7	-32.3	26.7	0.00e+00	0	36	0	2039480320	36	5964
2026-01-02 04:32:40.90	278.62	19.77	-31.5	-32.2	26.7	0.00e+00	0	36	0	2045771776	36	5835
2026-01-02 04:32:41.91	278.87	19.77	-31.7	-32.3	26.6	0.00e+00	0	36	0	2051014656	36	5934
2026-01-02 04:32:42.92	279.12	19.76	-31.7	-32.3	26.4	0.00e+00	0	36	0	2056257536	36	5949
2026-01-02 04:32:43.93	279.37	19.76	-31.6	-32.2	26.7	0.00e+00	0	36	0	2062548992	36	5834
2026-01-02 04:32:44.94	279.62	19.75	-31.6	-32.3	26.6	0.00e+00	0	36	0	2067791872	36	5921
2026-01-02 04:32:45.95	279.87	19.75	-31.8	-32.5	26.4	0.00e+00	0	36	0	2074083328	36	6051
2026-01-02 04:32:46.96	280.12	19.74	-31.8	-32.4	26.3	0.00e+00	0	36	0	2079326208	36	5997
2026-01-02 04:32:47.97	280.37	19.73	-31.6	-32.2	26.6	0.00e+00	0	36	0	2084569088	36	5875
2026-01-02 04:32:48.98	280.62	19.72	-31.6	-32.2	26.6	0.00e+00	0	36	0	2090860544	36	5860
2026-01-02 04:32:49.99	280.87	19.72	-31.6	-32.3	26.6	0.00e+00	0	36	0	2096103424	36	5925
2026-01-02 04:32:51.00	281.12	19.71	-31.6	-32.3	26.7	0.00e+00	0	36	0	2102394880	36	5912
2026-01-02 04:32:52.01	281.37	19.70	-31.7	-32.3	26.7	0.00e+00	0	36	0	2107637760	36	5931
2026-01-02 04:32:53.02	281.62	19.69	-31.9	-32.6	26.5	0.00e+00	0	36	0	2113929216	36	6125
2026-01-02 04:32:54.03	281.87	19.68	-31.7	-32.4	26.5	0.00e+00	0	36	0	2119172096	36	6001
2026-01-02 04:32:55.04	282.12	19.67	-31.7	-32.4	26.5	0.00e+00	0	36	0	2125463552	36	6017
2026-01-02 04:32:56.05	282.37	19.65	-31.7	-32.3	26.7	0.00e+00	0	36	0	2130706432	36	5947
2026-01-02 04:32:57.06	282.61	19.64	-31.6	-32.3	26.8	0.00e+00	0	36	0	2135949312	36	5903
2026-01-02 04:32:58.07	282.86	19.63	-31.5	-32.2	26.8	0.00e+00	0	36	0	2142240768	36	5830
2026-01-02 04:32:59.08	283.11	19.62	-31.4	-32.1	26.8	0.00e+00	0	36	0	2147483648	36	5814
2026-01-02 04:33:00.09	283.36	19.60	-31.4	-32.0	26.8	0.00e+00	0	36	0	2153775104	36	5745
2026-01-02 04:33:01.10	283.61	19.59	-31.5	-32.1	26.9	0.00e+00	0	36	0	2159017984	36	5796
2026-01-02 04:33:02.11	283.85	19.58	-31.4	-32.0	27.0	0.00e+00	0	36	0	2164260864	36	5745
2026-01-02 04:33:03.12	284.10	19.56	-31.2	-31.9	27.1	0.00e+00	0	36	0	2170552320	36	5649
2026-01-02 04:33:04.13	284.35	19.54	-31.3	-31.9	27.0	0.00e+00	0	36	0	2175795200	36	5693
2026-01-02 04:33:05.14	284.59	19.53	-31.4	-32.0	27.0	0.00e+00	0	36	0	2182086656	36	5744
2026-01-02 04:33:06.15	284.84	19.51	-31.6	-32.2	26.8	0.00e+00	0	36	0	2187329536	36	5841
2026-01-02 04:33:07.16	285.09	19.49	-31.7	-32.3	26.6	0.00e+00	0	36	0	2192572416	36	5964
2026-01-02 04:33:08.17	285.33	19.48	-32.0	-32.6	26.5	0.00e+00	0	36	0	2198863872	36	6166
2026-01-02 04:33:09.18	285.58	19.46	-32.0	-32.7	26.4	0.00e+00	0	36	0	2204106752	36	6238
2026-01-02 04:33:10.18	285.82	19.44	-32.0	-32.7	26.4	0.00e+00	0	36	0	2210398208	36	6181
2026-01-02 04:33:11.19	286.07	19.42	-31.8	-32.4	26.6	0.00e+00	0	36	0	2215641088	36	6019
2026-01-02 04:33:12.20	286.31	19.40	-31.9	-32.5	26.5	0.00e+00	0	36	0	2221932544	36	6073
2026-01-02 04:33:13.21	286.55	19.38	-31.8	-32.5	26.5	0.00e+00	0	36	0	2227175424	36	6091
2026-01-02 04:33:14.22	286.80	19.36	-31.9	-32.5	26.5	0.00e+00	0	36	0	2232418304	36	6077
2026-01-02 04:33:15.23	287.04	19.34	-32.0	-32.7	26.4	0.00e+00	0	36	0	2238709760	36	6189
2026-01-02 04:33:16.24	287.29	19.32	-32.1	-32.7	26.3	0.00e+00	0	36	0	2243952640	36	6222
2026-01-02 04:33:17.26	287.53	19.30	-32.1	-32.8	26.3	0.00e+00	0	36	0	2250244096	36	6314
2026-01-02 04:33:18.26	287.77	19.27	-32.2	-32.9	26.3	0.00e+00	0	36	0	2255486976	36	6333
2026-01-02 04:33:19.28	288.02	19.25	-32.3	-33.0	26.3	0.00e+00	0	36	0	2260729856	36	6429
2026-01-02 04:33:20.28	288.25	19.23	-32.3	-32.9	26.2	0.00e+00	0	36	0	2267021312	36	6326
2026-01-02 04:33:21.29	288.50	19.20	-32.5	-33.3	26.0	0.00e+00	0	36	0	2272264192	36	6625
2026-01-02 04:33:22.30	288.74	19.18	-32.3	-33.0	26.1	0.00e+00	0	36	0	2278555648	36	6449
2026-01-02 04:33:23.32	288.98	19.15	-32.3	-32.9	26.3	0.00e+00	0	36	0	2283798528	36	6364
2026-01-02 04:33:24.32	289.22	19.13	-32.1	-32.8	26.3	0.00e+00	0	36	0	2289041408	36	6267
2026-01-02 04:33:25.34	289.46	19.10	-32.3	-32.9	26.3	0.00e+00	0	36	0	2295332864	36	6354
2026-01-02 04:33:26.35	289.70	19.08	-32.3	-32.9	26.2	0.00e+00	0	36	0	2300575744	36	6361
2026-01-02 04:33:27.36	289.94	19.05	-32.3	-32.9	26.2	0.00e+00	0	36	0	2306867200	36	6386
2026-01-02 04:33:28.37	290.18	19.02	-32.4	-33.0	26.1	0.00e+00	0	36	0	2312110080	36	6419
2026-01-02 04:33:29.38	290.42	18.99	-32.1	-32.7	26.4	0.00e+00	0	36	0	2318401536	36	6234
2026-01-02 04:33:30.38	290.65	18.97	-32.0	-32.8	26.3	0.00e+00	0	36	0	2323644416	36	6250
2026-01-02 04:33:31.39	290.89	18.94	-31.9	-32.5	26.5	0.00e+00	0	36	0	2329935872	36	6102
2026-01-02 04:33:32.40	291.13	18.91	-31.9	-32.5	26.5	0.00e+00	0	36	0	2335178752	36	6080
2026-01-02 04:33:33.41	291.36	18.88	-31.9	-32.5	26.6	0.00e+00	0	36	0	2340421632	36	6090
2026-01-02 04:33:34.42	291.60	18.85	-32.0	-32.6	26.5	0.00e+00	0	36	0	2346713088	36	6142
2026-01-02 04:33:35.43	291.84	18.82	-31.9	-32.6	26.5	0.00e+00	0	36	0	2351955968	36	6139
2026-01-02 04:33:36.44	292.07	18.79	-32.2	-32.7	26.3	0.00e+00	0	36	0	2358247424	36	6238
2026-01-02 04:33:37.45	292.31	18.76	-32.0	-32.6	26.4	0.00e+00	0	36	0	2363490304	36	6113
2026-01-02 04:33:38.46	292.54	18.73	-32.1	-32.8	26.5	0.00e+00	0	36	0	2368733184	36	6267
2026-01-02 04:33:39.47	292.77	18.69	-32.0	-32.7	26.4	0.00e+00	0	36	0	2375024640	36	6196
2026-01-02 04:33:40.48	293.01	18.66	-31.9	-32.5	26.5	0.00e+00	0	36	0	2380267520	36	6086
2026-01-02 04:33:41.49	293.24	18.63	-31.8	-32.4	26.6	0.00e+00	0	36	0	2386558976	36	6021
2026-01-02 04:33:42.50	293.47	18.60	-31.9	-32.5	26.5	0.00e+00	0	36	0	2391801856	36	6081
2026-01-02 04:33:43.51	293.70	18.56	-31.8	-32.4	26.5	0.00e+00	0	36	0	2397044736	36	5976
2026-01-02 04:33:44.52	293.93	18.53	-31.9	-32.4	26.5	0.00e+00	0	36	0	2403336192	36	6023
2026-01-02 04:33:45.53	294.17	18.49	-32.0	-32.6	26.4	0.00e+00	0	36	0	2408579072	36	6164
2026-01-02 04:33:46.54	294.40	18.46	-32.1	-32.7	26.2	0.00e+00	0	36	0	2414870528	36	6201
2026-01-02 04:33:47.55	294.63	18.42	-32.1	-32.8	26.4	0.00e+00	0	36	0	2420113408	36	6267
2026-01-02 04:33:48.56	294.85	18.39	-32.1	-32.8	26.3	0.00e+00	0	36	0	2426404864	36	6262
2026-01-02 04:33:49.57	295.08	18.35	-32.2	-32.9	26.3	0.00e+00	0	36	0	2431647744	36	6344
2026-01-02 04:33:50.58	295.31	18.32	-32.2	-32.9	26.2	0.00e+00	0	36	0	2436890624	36	6338
2026-01-02 04:33:51.59	295.54	18.28	-32.3	-32.9	26.1	0.00e+00	0	36	0	2443182080	36	6368
2026-01-02 04:33:52.60	295.77	18.24	-32.2	-32.9	26.2	0.00e+00	0	36	0	2448424960	36	6352
2026-01-02 04:33:53.61	295.99	18.20	-32.2	-32.9	26.2	0.00e+00	0	36	0	2454716416	36	6322
2026-01-02 04:33:54.62	296.22	18.17	-32.2	-32.8	26.3	0.00e+00	0	36	0	2459959296	36	6259
2026-01-02 04:33:55.63	296.44	18.13	-32.2	-32.8	26.3	0.00e+00	0	36	0	2465202176	36	6251
2026-01-02 04:33:56.64	296.67	18.09	-32.1	-32.8	26.3	0.00e+00	0	36	0	2471493632	36	6269
2026-01-02 04:33:57.65	296.89	18.05	-32.2	-32.8	26.3	0.00e+00	0	37	0	2476736512	36	6301
2026-01-02 04:33:58.66	297.12	18.01	-32.1	-32.8	26.3	0.00e+00	0	36	0	2483027968	36	6278
2026-01-02 04:33:59.67	297.34	17.97	-32.2	-32.9	26.3	0.00e+00	0	36	0	2488270848	36	6365
2026-01-02 04:34:00.68	297.56	17.93	-32.3	-33.0	26.2	0.00e+00	0	36	0	2493513728	36	6449
2026-01-02 04:34:01.69	297.78	17.89	-32.4	-33.1	26.1	0.00e+00	0	36	0	2499805184	36	6483
2026-01-02 04:34:02.70	298.01	17.85	-32.4	-33.1	26.1	0.00e+00	0	37	0	2505048064	36	6523
2026-01-02 04:34:03.71	298.23	17.81	-32.6	-33.2	26.1	0.00e+00	0	36	0	2511339520	36	6574
2026-01-02 04:34:04.72	298.45	17.77	-32.5	-33.2	26.2	0.00e+00	0	36	0	2516582400	36	6560
2026-01-02 04:34:05.73	298.67	17.72	-32.5	-33.2	26.2	0.00e+00	0	36	0	2522873856	36	6541
2026-01-02 04:34:06.74	298.89	17.68	-32.6	-33.3	26.1	0.00e+00	0	36	0	2528116736	36	6656
2026-01-02 04:34:07.75	299.10	17.64	-32.6	-33.3	26.1	0.00e+00	0	36	0	2534408192	36	6621
2026-01-02 04:34:08.76	299.32	17.60	-32.6	-33.2	26.1	0.00e+00	0	36	0	2539651072	36	6603
2026-01-02 04:34:09.77	299.54	17.55	-32.6	-33.2	26.1	0.00e+00	0	36	0	2544893952	36	6582
2026-01-02 04:34:10.78	299.76	17.51	-32.7	-33.4	26.1	0.00e+00	0	36	0	2551185408	36	6721
2026-01-02 04:34:11.79	299.97	17.47	-32.7	-33.3	26.0	0.00e+00	0	36	0	2556428288	36	6674
2026-01-02 04:34:12.80	300.19	17.42	-32.6	-33.3	26.1	0.00e+00	0	36	0	2562719744	36	6671
2026-01-02 04:34:13.81	300.40	17.38	-32.6	-33.3	26.0	0.00e+00	0	36	0	2567962624	36	6691
2026-01-02 04:34:14.82	300.62	17.33	-32.6	-33.3	26.0	0.00e+00	0	36	0	2573205504	38	5915
2026-01-02 04:34:15.83	300.83	17.29	-32.5	-33.1	26.2	0.00e+00	0	36	0	2579496960	38	5793
2026-01-02 04:34:16.84	301.04	17.24	-32.5	-33.2	26.2	0.00e+00	0	36	0	2584739840	38	5841
2026-01-02 04:34:17.85	301.25	17.20	-32.5	-33.2	26.2	0.00e+00	0	36	0	2591031296	38	5893
2026-01-02 04:34:18.86	301.47	17.15	-32.6	-33.1	26.1	0.00e+00	0	37	0	2596274176	38	5827
2026-01-02 04:34:19.86	301.67	17.11	-32.6	-33.2	26.1	0.00e+00	0	36	0	2601517056	38	5893
2026-01-02 04:34:20.87	301.88	17.06	-32.6	-33.2	26.1	0.00e+00	0	36	0	2607808512	38	5885
2026-01-02 04:34:21.88	302.09	17.01	-32.8	-33.4	26.0	0.00e+00	0	36	0	2613051392	38	5992
2026-01-02 04:34:22.89	302.30	16.97	-32.5	-33.2	26.2	0.00e+00	0	37	0	2619342848	38	5840
2026-01-02 04:34:23.90	302.51	16.92	-32.6	-33.3	26.1	0.00e+00	0	37	0	2624585728	38	5922
2026-01-02 04:34:24.92	302.72	16.87	-32.7	-33.3	26.0	0.00e+00	0	36	0	2630877184	38	5935
2026-01-02 04:34:25.92	302.93	16.82	-32.6	-33.3	26.1	0.00e+00	0	36	0	2636120064	38	5960
2026-01-02 04:34:26.93	303.13	16.78	-32.5	-33.1	26.1	0.00e+00	0	36	0	2641362944	38	5826
2026-01-02 04:34:27.94	303.34	16.73	-32.6	-33.2	26.0	0.00e+00	0	36	0	2647654400	38	5864
2026-01-02 04:34:28.95	303.54	16.68	-32.6	-33.2	26.0	0.00e+00	0	37	0	2652897280	38	5874
2026-01-02 04:34:29.96	303.75	16.63	-32.7	-33.3	26.0	0.00e+00	0	36	0	2659188736	38	5956
2026-01-02 04:34:30.97	303.95	16.58	-32.7	-33.3	26.0	0.00e+00	0	36	0	2664431616	38	5942
2026-01-02 04:34:31.98	304.16	16.53	-32.6	-33.2	26.1	0.00e+00	0	36	0	2669674496	38	5875
2026-01-02 04:34:32.99	304.36	16.48	-32.6	-33.2	26.1	0.00e+00	0	36	0	2675965952	38	5880
2026-01-02 04:34:34.00	304.56	16.43	-32.6	-33.2	25.9	0.00e+00	0	37	0	2681208832	38	5895
2026-01-02 04:34:35.01	304.76	16.38	-32.6	-33.3	25.9	0.00e+00	0	37	0	2687500288	38	5911
2026-01-02 04:34:36.02	304.96	16.33	-32.7	-33.3	25.9	0.00e+00	0	37	0	2692743168	38	5929
2026-01-02 04:34:37.03	305.16	16.28	-32.7	-33.4	26.0	0.00e+00	0	36	0	2697986048	38	5991
2026-01-02 04:34:38.04	305.36	16.23	-32.7	-33.4	26.0	0.00e+00	0	36	0	2704277504	38	5995
2026-01-02 04:34:39.05	305.56	16.18	-32.6	-33.4	26.0	0.00e+00	0	37	0	2709520384	38	5978
2026-01-02 04:34:40.07	305.76	16.13	-32.6	-33.2	26.0	0.00e+00	0	37	0	2715811840	38	5894
2026-01-02 04:34:41.08	305.96	16.08	-32.6	-33.3	25.9	0.00e+00	0	36	0	2721054720	38	5941
2026-01-02 04:34:42.09	306.16	16.03	-32.8	-33.4	26.0	0.00e+00	0	36	0	2727346176	38	5996
2026-01-02 04:34:43.10	306.35	15.98	-32.9	-33.5	25.8	0.00e+00	0	36	0	2732589056	38	6052
2026-01-02 04:34:44.11	306.55	15.92	-32.9	-33.5	25.8	0.00e+00	0	36	0	2738880512	38	6060
2026-01-02 04:34:45.12	306.74	15.87	-32.9	-33.6	25.7	0.00e+00	0	36	0	2744123392	38	6108
2026-01-02 04:34:46.13	306.94	15.82	-33.1	-33.7	25.6	0.00e+00	0	36	0	2749366272	38	6225
2026-01-02 04:34:47.14	307.13	15.77	-33.0	-33.7	25.7	0.00e+00	0	36	0	2755657728	38	6178
2026-01-02 04:34:48.15	307.32	15.71	-33.1	-33.8	25.6	0.00e+00	0	36	0	2760900608	38	6289
2026-01-02 04:34:49.16	307.51	15.66	-33.1	-33.7	25.6	0.00e+00	0	37	0	2767192064	38	6237
2026-01-02 04:34:50.17	307.71	15.61	-33.1	-33.8	25.6	0.00e+00	0	36	0	2772434944	38	6265
2026-01-02 04:34:51.18	307.90	15.56	-33.1	-33.9	25.5	0.00e+00	0	36	0	2777677824	38	6323
2026-01-02 04:34:52.19	308.09	15.50	-33.2	-34.0	25.4	0.00e+00	0	36	0	2783969280	38	6399
2026-01-02 04:34:53.19	308.27	15.45	-33.2	-33.9	25.5	0.00e+00	0	36	0	2789212160	38	6368
2026-01-02 04:34:54.21	308.46	15.39	-33.2	-33.9	25.6	0.00e+00	0	36	0	2795503616	38	6388
2026-01-02 04:34:55.22	308.65	15.34	-33.4	-34.2	25.4	0.00e+00	0	36	0	2800746496	38	6544
2026-01-02 04:34:56.23	308.84	15.29	-33.4	-34.0	25.2	0.00e+00	0	36	0	2805989376	38	6452
2026-01-02 04:34:57.24	309.03	15.23	-33.5	-34.2	25.3	0.00e+00	0	36	0	2812280832	38	6608
2026-01-02 04:34:58.25	309.21	15.18	-33.4	-34.1	25.4	0.00e+00	0	36	0	2817523712	38	6496
2026-01-02 04:34:59.26	309.40	15.12	-33.5	-34.2	25.3	0.00e+00	0	36	0	2823815168	38	6586
2026-01-02 04:35:00.27	309.58	15.07	-33.7	-34.4	25.1	0.00e+00	0	36	0	2829058048	38	6765
2026-01-02 04:35:01.27	309.77	15.01	-33.5	-34.2	25.3	0.00e+00	0	37	0	2835349504	38	6608
2026-01-02 04:35:02.28	309.95	14.96	-33.8	-34.5	25.1	0.00e+00	0	36	0	2840592384	40	6080
2026-01-02 04:35:03.29	310.13	14.90	-33.5	-34.1	25.1	0.00e+00	0	36	0	2846883840	40	5812
2026-01-02 04:35:04.30	310.31	14.85	-33.7	-34.4	25.2	0.00e+00	0	36	0	2852126720	40	6005
2026-01-02 04:35:05.31	310.50	14.79	-33.6	-34.3	25.1	0.00e+00	0	37	0	2857369600	40	5916
2026-01-02 04:35:06.33	310.68	14.74	-34.0	-34.8	24.8	0.00e+00	0	36	0	2863661056	40	6261
2026-01-02 04:35:07.34	310.86	14.68	-34.0	-34.8	24.8	0.00e+00	0	36	0	2868903936	40	6267
2026-01-02 04:35:08.35	311.04	14.63	-33.7	-34.4	25.0	0.00e+00	0	36	0	2875195392	40	5982
2026-01-02 04:35:09.41	311.23	14.57	-33.6	-34.2	25.2	0.00e+00	0	36	0	2880438272	40	5894
2026-01-02 04:35:10.27	311.38	14.52	-33.8	-34.5	25.0	0.00e+00	0	36	0	2885681152	40	6047
2026-01-02 04:35:11.43	311.58	14.46	-33.7	-34.4	25.2	0.00e+00	0	36	0	2891972608	40	5979
2026-01-02 04:35:12.29	311.73	14.41	-33.5	-34.2	25.2	0.00e+00	0	36	0	2897215488	40	5843
2026-01-02 04:35:13.45	311.93	14.34	-33.5	-34.1	25.2	0.00e+00	0	36	0	2903506944	40	5816
2026-01-02 04:35:14.31	312.08	14.29	-33.8	-34.4	24.9	0.00e+00	0	36	0	2907701248	40	6016
2026-01-02 04:35:15.46	312.28	14.23	-33.7	-34.4	25.1	0.00e+00	0	36	0	2913992704	40	5981
2026-01-02 04:35:16.33	312.43	14.18	-33.8	-34.4	24.9	0.00e+00	0	36	0	2919235584	40	5996
2026-01-02 04:35:17.48	312.63	14.12	-34.0	-34.7	24.7	0.00e+00	0	36	0	2925527040	40	6178
2026-01-02 04:35:18.35	312.78	14.07	-33.7	-34.4	25.0	0.00e+00	0	36	0	2930769920	40	5973
2026-01-02 04:35:19.50	312.98	14.00	-33.7	-34.5	24.9	0.00e+00	0	36	0	2937061376	40	6065
2026-01-02 04:35:20.37	313.13	13.95	-33.7	-34.4	24.9	0.00e+00	0	36	0	2942304256	40	5969
2026-01-02 04:35:21.52	313.32	13.89	-33.5	-34.2	25.1	0.00e+00	0	36	0	2948595712	40	5890
2026-01-02 04:35:22.39	313.47	13.84	-33.5	-34.1	25.3	0.00e+00	0	36	0	2953838592	40	5810
2026-01-02 04:35:23.54	313.66	13.77	-33.5	-34.1	25.1	0.00e+00	0	36	0	2960130048	40	5818
2026-01-02 04:35:24.41	313.81	13.72	-33.4	-34.0	25.3	0.00e+00	0	36	0	2964324352	40	5719
2026-01-02 04:35:25.56	314.00	13.66	-33.3	-34.1	25.3	0.00e+00	0	36	0	2971664384	40	5771
2026-01-02 04:35:26.42	314.14	13.61	-33.5	-34.1	25.0	0.00e+00	0	37	0	2975858688	40	5808
2026-01-02 04:35:27.58	314.33	13.54	-33.4	-34.0	25.1	0.00e+00	0	36	0	2982150144	40	5759
2026-01-02 04:35:28.44	314.47	13.49	-33.4	-34.0	25.1	0.00e+00	0	36	0	2987393024	40	5719
2026-01-02 04:35:29.59	314.66	13.43	-33.3	-34.1	25.2	0.00e+00	0	36	0	2993684480	40	5779
2026-01-02 04:35:30.46	314.81	13.38	-33.4	-34.2	25.1	0.00e+00	0	37	0	2998927360	40	5830
2026-01-02 04:35:31.61	314.99	13.31	-33.6	-34.3	24.9	0.00e+00	0	36	0	3005218816	40	5948
2026-01-02 04:35:32.48	315.14	13.26	-33.5	-34.2	25.1	0.00e+00	0	36	0	3010461696	40	5881
2026-01-02 04:35:33.63	315.32	13.19	-33.5	-34.2	25.1	0.00e+00	0	36	0	3016753152	40	5873
2026-01-02 04:35:34.50	315.46	13.14	-33.5	-34.2	25.0	0.00e+00	0	37	0	3021996032	40	5868
2026-01-02 04:35:35.66	315.65	13.08	-33.5	-34.2	25.0	0.00e+00	0	36	0	3028287488	40	5836
2026-01-02 04:35:36.52	315.79	13.03	-33.5	-34.2	25.0	0.00e+00	0	37	0	3032481792	40	5889
2026-01-02 04:35:37.67	315.97	12.96	-33.6	-34.2	25.0	0.00e+00	0	36	0	3039821824	40	5867
2026-01-02 04:35:38.54	316.11	12.91	-33.5	-34.1	25.0	0.00e+00	0	36	0	3044016128	40	5816
2026-01-02 04:35:39.69	316.29	12.84	-33.5	-34.2	25.0	0.00e+00	0	37	0	3051356160	40	5864
2026-01-02 04:35:40.56	316.43	12.79	-33.4	-34.2	25.1	0.00e+00	0	36	0	3055550464	40	5851
2026-01-02 04:35:41.71	316.61	12.73	-33.5	-34.2	25.1	0.00e+00	0	37	0	3061841920	40	5881
2026-01-02 04:35:42.58	316.74	12.68	-33.6	-34.2	25.2	0.00e+00	0	36	0	3067084800	40	5872
2026-01-02 04:35:43.73	316.92	12.61	-33.7	-34.4	24.9	0.00e+00	0	37	0	3073376256	40	6012
2026-01-02 04:35:44.60	317.06	12.56	-33.8	-34.5	24.8	0.00e+00	0	37	0	3078619136	40	6045
2026-01-02 04:35:45.75	317.24	12.49	-33.8	-34.5	24.8	0.00e+00	0	36	0	3084910592	40	6051
2026-01-02 04:35:46.62	317.37	12.44	-33.9	-34.5	24.7	0.00e+00	0	37	0	3090153472	40	6098
2026-01-02 04:35:47.77	317.55	12.37	-34.0	-34.7	24.6	0.00e+00	0	36	0	3096444928	40	6223
2026-01-02 04:35:48.64	317.68	12.32	-34.0	-34.7	24.6	0.00e+00	0	36	0	3101687808	40	6208
2026-01-02 04:35:49.79	317.85	12.25	-33.9	-34.6	24.7	0.00e+00	0	36	0	3107979264	40	6134
2026-01-02 04:35:50.66	317.99	12.20	-34.0	-34.7	24.6	0.00e+00	0	36	0	3112173568	40	6231
2026-01-02 04:35:51.82	318.16	12.14	-34.0	-34.6	24.7	0.00e+00	0	36	0	3118465024	40	6144
2026-01-02 04:35:52.68	318.29	12.09	-34.1	-34.8	24.5	0.00e+00	0	36	0	3123707904	40	6288
2026-01-02 04:35:53.83	318.46	12.02	-34.3	-35.0	24.3	0.00e+00	0	36	0	3129999360	40	6417
2026-01-02 04:35:54.70	318.59	11.97	-34.2	-34.9	24.5	0.00e+00	0	36	0	3135242240	40	6348
2026-01-02 04:35:55.86	318.76	11.90	-34.1	-34.8	24.6	0.00e+00	0	36	0	3141533696	40	6255
2026-01-02 04:35:56.72	318.89	11.85	-34.1	-34.8	24.5	0.00e+00	0	36	0	3146776576	40	6258
2026-01-02 04:35:57.88	319.06	11.78	-34.2	-34.9	24.5	0.00e+00	0	36	0	3153068032	40	6334
2026-01-02 04:35:58.74	319.19	11.73	-34.1	-34.9	24.6	0.00e+00	0	37	0	3158310912	40	6351
2026-01-02 04:35:59.90	319.36	11.66	-34.0	-34.7	24.6	0.00e+00	0	36	0	3164602368	40	6185
2026-01-02 04:36:00.77	319.49	11.61	-34.0	-34.6	24.6	0.00e+00	0	36	0	3168796672	40	6158
2026-01-02 04:36:01.92	319.65	11.54	-33.9	-34.7	24.7	0.00e+00	0	36	0	3176136704	40	6176
2026-01-02 04:36:02.79	319.78	11.49	-34.0	-34.6	24.7	0.00e+00	0	36	0	3180331008	40	6119
2026-01-02 04:36:03.94	319.94	11.42	-33.9	-34.7	24.7	0.00e+00	0	36	0	3187671040	40	6190
2026-01-02 04:36:04.80	320.07	11.37	-34.0	-34.8	24.7	0.00e+00	0	36	0	3191865344	40	6247
2026-01-02 04:36:05.96	320.23	11.30	-34.1	-34.8	24.6	0.00e+00	0	36	0	3198156800	40	6305
2026-01-02 04:36:06.82	320.36	11.25	-34.1	-34.9	24.5	0.00e+00	0	36	0	3203399680	40	6362
2026-01-02 04:36:07.97	320.52	11.19	-34.0	-34.7	24.5	0.00e+00	0	36	0	3209691136	40	6196
2026-01-02 04:36:08.84	320.64	11.13	-34.0	-34.8	24.6	0.00e+00	0	36	0	3214934016	40	6271
2026-01-02 04:36:09.99	320.80	11.07	-34.0	-34.6	24.6	0.00e+00	0	36	0	3221225472	40	6170
2026-01-02 04:36:10.86	320.93	11.02	-34.1	-34.9	24.5	0.00e+00	0	36	0	3226468352	40	6344
2026-01-02 04:36:12.01	321.09	10.95	-34.1	-34.7	24.5	0.00e+00	0	36	0	3232759808	40	6241
2026-01-02 04:36:12.88	321.21	10.90	-34.2	-34.9	24.3	0.00e+00	0	36	0	3236954112	40	6319
2026-01-02 04:36:14.03	321.37	10.83	-34.2	-34.8	24.4	0.00e+00	0	36	0	3244294144	40	6305
2026-01-02 04:36:14.90	321.49	10.78	-34.1	-34.8	24.5	0.00e+00	0	36	0	3248488448	40	6271
2026-01-02 04:36:16.05	321.65	10.71	-34.4	-35.2	24.3	0.00e+00	0	36	0	3255828480	40	6564
2026-01-02 04:36:16.91	321.76	10.66	-34.2	-35.0	24.3	0.00e+00	0	36	0	3260022784	40	6398
2026-01-02 04:36:18.07	321.92	10.59	-34.1	-34.8	24.4	0.00e+00	0	36	0	3266314240	40	6275
2026-01-02 04:36:18.93	322.04	10.54	-34.4	-35.0	24.2	0.00e+00	0	36	0	3271557120	40	6428
2026-01-02 04:36:20.09	322.20	10.47	-34.3	-35.1	24.3	0.00e+00	0	36	0	3277848576	40	6480
2026-01-02 04:36:20.95	322.31	10.42	-34.3	-35.0	24.3	0.00e+00	0	36	0	3283091456	40	6464
2026-01-02 04:36:22.11	322.47	10.35	-34.4	-35.1	24.2	0.00e+00	0	36	0	3289382912	40	6491
2026-01-02 04:36:22.97	322.58	10.30	-34.6	-35.3	24.0	0.00e+00	0	36	0	3294625792	42	5952
2026-01-02 04:36:24.13	322.74	10.23	-34.4	-35.1	24.2	0.00e+00	0	36	0	3300917248	42	5802
2026-01-02 04:36:25.00	322.85	10.18	-34.5	-35.1	24.1	0.00e+00	0	36	0	3306160128	42	5814
2026-01-02 04:36:26.15	323.00	10.11	-34.6	-35.3	23.9	0.00e+00	0	36	0	3312451584	42	5927
2026-01-02 04:36:27.02	323.12	10.06	-34.6	-35.4	23.9	0.00e+00	0	36	0	3316645888	42	6021
2026-01-02 04:36:28.17	323.27	9.99	-34.8	-35.6	23.7	0.00e+00	0	36	0	3322937344	42	6167
2026-01-02 04:36:29.03	323.38	9.94	-34.8	-35.5	23.8	0.00e+00	0	36	0	3328180224	42	6035
2026-01-02 04:36:30.18	323.53	9.88	-34.9	-35.7	23.6	0.00e+00	0	36	0	3334471680	42	6183
2026-01-02 04:36:31.05	323.64	9.82	-34.9	-35.6	23.6	0.00e+00	0	36	0	3339714560	42	6144
2026-01-02 04:36:32.20	323.79	9.76	-34.9	-35.7	23.7	0.00e+00	0	36	0	3346006016	42	6176
2026-01-02 04:36:33.07	323.90	9.71	-34.8	-35.6	23.8	0.00e+00	0	36	0	3351248896	42	6130
2026-01-02 04:36:34.22	324.05	9.64	-34.9	-35.7	23.7	0.00e+00	0	36	0	3357540352	42	6183
2026-01-02 04:36:35.09	324.16	9.59	-34.8	-35.5	23.8	0.00e+00	0	36	0	3362783232	42	6092
2026-01-02 04:36:36.24	324.31	9.52	-34.9	-35.7	23.7	0.00e+00	0	36	0	3369074688	42	6187
2026-01-02 04:36:37.11	324.42	9.47	-34.8	-35.4	23.7	0.00e+00	0	36	0	3373268992	42	6010
2026-01-02 04:36:38.26	324.56	9.40	-34.6	-35.2	23.9	0.00e+00	0	36	0	3380609024	42	5883
2026-01-02 04:36:39.13	324.67	9.35	-34.7	-35.4	23.9	0.00e+00	0	36	0	3384803328	42	5980
2026-01-02 04:36:40.28	324.82	9.28	-34.7	-35.4	23.9	0.00e+00	0	36	0	3391094784	42	6029
2026-01-02 04:36:41.15	324.93	9.23	-34.7	-35.4	23.7	0.00e+00	0	36	0	3396337664	42	5975
2026-01-02 04:36:42.30	325.07	9.16	-34.7	-35.3	23.8	0.00e+00	0	36	0	3402629120	42	5946
2026-01-02 04:36:43.17	325.18	9.11	-34.8	-35.4	23.7	0.00e+00	0	36	0	3407872000	42	6011
2026-01-02 04:36:44.32	325.32	9.04	-34.8	-35.4	23.7	0.00e+00	0	36	0	3414163456	42	6024
2026-01-02 04:36:45.19	325.43	8.99	-34.9	-35.6	23.6	0.00e+00	0	36	0	3419406336	42	6119
2026-01-02 04:36:46.34	325.57	8.93	-35.1	-35.9	23.5	0.00e+00	0	36	0	3425697792	42	6368
2026-01-02 04:36:47.21	325.67	8.88	-35.0	-35.7	23.5	0.00e+00	0	36	0	3430940672	42	6187
2026-01-02 04:36:48.36	325.81	8.81	-35.1	-35.8	23.4	0.00e+00	0	36	0	3437232128	42	6275
2026-01-02 04:36:49.22	325.92	8.76	-35.2	-35.9	23.3	0.00e+00	0	36	0	3441426432	42	6332
2026-01-02 04:36:50.38	326.05	8.69	-35.1	-36.0	23.3	0.00e+00	0	36	0	3448766464	42	6399
2026-01-02 04:36:51.24	326.16	8.64	-35.2	-35.9	23.3	0.00e+00	0	36	0	3452960768	42	6386
2026-01-02 04:36:52.39	326.30	8.57	-35.5	-36.2	23.0	0.00e+00	0	36	0	3460300800	42	6559
2026-01-02 04:36:53.26	326.40	8.52	-35.4	-36.1	23.1	0.00e+00	0	36	0	3464495104	42	6525
2026-01-02 04:36:54.41	326.54	8.45	-35.4	-36.1	23.0	0.00e+00	0	36	0	3470786560	42	6485
2026-01-02 04:36:55.27	326.64	8.40	-35.1	-35.9	23.3	0.00e+00	0	36	0	3476029440	42	6379
2026-01-02 04:36:56.42	326.77	8.34	-35.2	-35.9	23.3	0.00e+00	0	36	0	3482320896	42	6371
2026-01-02 04:36:57.29	326.87	8.29	-35.4	-36.2	23.1	0.00e+00	0	36	0	3487563776	42	6589
2026-01-02 04:36:58.44	327.01	8.22	-35.2	-35.9	23.2	0.00e+00	0	36	0	3493855232	42	6377
2026-01-02 04:36:59.30	327.11	8.17	-35.1	-35.9	23.2	0.00e+00	0	36	0	3499098112	42	6384
2026-01-02 04:37:00.45	327.24	8.10	-35.2	-36.1	23.1	0.00e+00	0	36	0	3505389568	42	6477
2026-01-02 04:37:01.32	327.34	8.05	-35.3	-35.9	23.1	0.00e+00	0	36	0	3509583872	42	6389
2026-01-02 04:37:02.47	327.47	7.99	-35.4	-36.2	23.0	0.00e+00	0	36	0	3515875328	42	6602
2026-01-02 04:37:03.34	327.57	7.94	-35.3	-36.0	23.1	0.00e+00	0	36	0	3521118208	42	6437
2026-01-02 04:37:04.49	327.70	7.87	-35.5	-36.2	22.9	0.00e+00	0	36	0	3527409664	42	6582
2026-01-02 04:37:05.35	327.80	7.82	-35.3	-36.0	23.1	0.00e+00	0	36	0	3532652544	42	6440
2026-01-02 04:37:06.51	327.93	7.75	-35.4	-36.0	22.9	0.00e+00	0	36	0	3538944000	42	6464
2026-01-02 04:37:07.37	328.03	7.70	-35.4	-36.1	23.0	0.00e+00	0	36	0	3544186880	42	6479
2026-01-02 04:37:08.53	328.16	7.64	-35.3	-36.0	23.0	0.00e+00	0	36	0	3550478336	42	6446
2026-01-02 04:37:09.39	328.26	7.59	-35.4	-36.2	23.0	0.00e+00	0	36	0	3555721216	42	6581
2026-01-02 04:37:10.55	328.39	7.52	-35.3	-36.1	23.0	0.00e+00	0	36	0	3562012672	42	6495
2026-01-02 04:37:11.41	328.48	7.47	-35.4	-36.2	22.9	0.00e+00	0	36	0	3566206976	42	6544
2026-01-02 04:37:12.57	328.61	7.40	-35.4	-36.1	22.9	0.00e+00	0	36	0	3573547008	42	6494
2026-01-02 04:37:13.43	328.70	7.35	-35.7	-36.4	22.6	0.00e+00	0	36	0	3577741312	42	6757
