passes_logs/2026/01/02/R4.6S_Anadyr/R4.6S_Anadyr__20260102_032637_SUOMI_NPP_rec.log

#Pass ID: 20260102_032637_SUOMI NPP
#Satellite: SUOMI NPP
#Configuration: NPP
#almurnet v.1.7.20251203
#Start time: 2026-01-02 03:26:40

#Version: 2.2.20231116
#Station: R4.6S_Anadyr
#Location: 177.4865 lon 64.73178 lat
#TLE: 1 37849U 11061A   26001.07732418  .00000182  00000+0  10735-3 0  9990
#TLE: 2 37849  98.7795 303.2470 0002580  87.2016 272.9455 14.19520779734739

#Time	Az	El	Level	Level2	SNR	BER	BlckErr	Temp	State	Recorded	gain1	gain2
2026-01-02 03:26:40.59	242.07	0.12	-49.1	-62.9	3.3	1.54e+00	0	36	0	0	60	50611
2026-01-02 03:26:41.59	242.17	0.16	-49.4	-64.5	3.6	1.51e+00	0	37	104	0	60	60960
2026-01-02 03:26:42.60	242.26	0.20	-49.2	-64.4	3.6	1.51e+00	0	37	104	0	60	60085
2026-01-02 03:26:43.61	242.36	0.24	-49.2	-64.4	3.6	1.51e+00	0	37	104	0	60	59783
2026-01-02 03:26:44.62	242.46	0.29	-49.2	-64.3	3.6	1.51e+00	0	37	104	0	60	59502
2026-01-02 03:26:45.63	242.55	0.33	-49.2	-64.4	3.6	1.51e+00	0	37	104	0	60	59719
2026-01-02 03:26:46.64	242.65	0.37	-49.2	-64.4	3.6	1.51e+00	0	37	104	0	60	59999
2026-01-02 03:26:47.65	242.75	0.41	-49.2	-64.4	3.6	1.51e+00	0	37	104	0	60	60222
2026-01-02 03:26:48.66	242.85	0.45	-49.2	-64.4	3.6	1.51e+00	0	37	104	0	60	59746
2026-01-02 03:26:49.67	242.94	0.49	-49.2	-64.4	3.6	1.51e+00	0	37	104	0	60	59704
2026-01-02 03:26:50.67	243.04	0.53	-49.1	-64.3	3.6	1.51e+00	0	37	104	0	60	59196
2026-01-02 03:26:51.68	243.14	0.57	-49.0	-64.2	3.6	1.51e+00	0	37	104	0	60	58778
2026-01-02 03:26:52.69	243.24	0.61	-48.9	-64.1	3.6	1.51e+00	0	37	104	0	60	57724
2026-01-02 03:26:53.70	243.34	0.65	-48.6	-63.8	3.6	1.51e+00	0	37	104	0	60	55722
2026-01-02 03:26:54.71	243.44	0.70	-47.9	-63.1	3.6	1.51e+00	0	37	104	0	60	51357
2026-01-02 03:26:55.72	243.54	0.74	-47.6	-62.8	3.6	1.51e+00	0	37	104	0	60	50139
2026-01-02 03:26:56.73	243.64	0.78	-47.6	-62.8	3.6	1.51e+00	0	37	104	0	60	49893
2026-01-02 03:26:57.74	243.74	0.82	-47.6	-62.8	3.6	1.51e+00	0	37	104	0	60	49764
2026-01-02 03:26:58.75	243.84	0.86	-47.6	-62.8	3.6	1.51e+00	0	37	104	0	60	49689
2026-01-02 03:26:59.76	243.94	0.90	-47.6	-62.7	3.5	1.51e+00	0	37	104	0	60	49595
2026-01-02 03:27:00.77	244.04	0.94	-47.6	-62.7	3.6	1.51e+00	0	37	104	0	60	49463
2026-01-02 03:27:01.77	244.14	0.98	-47.6	-62.7	3.6	1.51e+00	0	37	104	0	60	49591
2026-01-02 03:27:02.78	244.24	1.02	-47.6	-62.7	3.6	1.51e+00	0	37	104	0	60	49188
2026-01-02 03:27:03.79	244.34	1.06	-47.6	-62.7	3.6	1.51e+00	0	37	104	0	60	49371
2026-01-02 03:27:04.80	244.44	1.11	-47.6	-62.7	3.6	1.51e+00	0	37	104	0	60	49144
2026-01-02 03:27:05.81	244.55	1.15	-47.6	-62.7	3.6	1.51e+00	0	37	104	0	60	49366
2026-01-02 03:27:06.82	244.65	1.19	-47.6	-62.7	3.6	1.51e+00	0	37	104	0	60	49408
2026-01-02 03:27:07.83	244.75	1.23	-47.6	-62.7	3.6	1.51e+00	0	37	104	0	60	49392
2026-01-02 03:27:08.84	244.85	1.27	-47.6	-62.7	3.6	1.51e+00	0	37	104	0	60	49478
2026-01-02 03:27:09.85	244.96	1.31	-47.6	-62.7	3.6	1.51e+00	0	37	104	0	60	49116
2026-01-02 03:27:10.86	245.06	1.35	-47.6	-62.7	3.6	1.51e+00	0	37	104	0	60	49489
2026-01-02 03:27:11.87	245.16	1.39	-47.6	-62.7	3.6	1.51e+00	0	37	104	0	60	49388
2026-01-02 03:27:12.88	245.27	1.43	-47.6	-62.8	3.6	1.51e+00	0	37	104	0	60	49776
2026-01-02 03:27:13.89	245.37	1.47	-47.6	-62.7	3.6	1.51e+00	0	37	104	0	60	49472
2026-01-02 03:27:14.90	245.48	1.51	-47.6	-62.7	3.6	1.51e+00	0	37	104	0	60	49559
2026-01-02 03:27:15.91	245.58	1.55	-47.6	-62.7	3.6	1.51e+00	0	37	104	0	60	49357
2026-01-02 03:27:16.92	245.69	1.60	-47.6	-62.7	3.6	1.51e+00	0	37	104	0	60	49267
2026-01-02 03:27:17.93	245.79	1.64	-47.6	-62.8	3.6	1.51e+00	0	37	104	0	60	49668
2026-01-02 03:27:18.94	245.90	1.68	-47.6	-62.7	3.6	1.51e+00	0	37	104	0	60	49556
2026-01-02 03:27:19.95	246.01	1.72	-47.6	-62.7	3.6	1.51e+00	0	37	104	0	60	49405
2026-01-02 03:27:20.96	246.11	1.76	-47.6	-62.7	3.6	1.51e+00	0	37	104	0	60	49199
2026-01-02 03:27:21.96	246.22	1.80	-47.6	-62.7	3.6	1.51e+00	0	37	104	0	60	49058
2026-01-02 03:27:22.98	246.33	1.84	-47.6	-62.7	3.6	1.51e+00	0	37	104	0	60	49381
2026-01-02 03:27:23.98	246.43	1.88	-47.6	-62.7	3.6	1.51e+00	0	37	104	0	60	49504
2026-01-02 03:27:24.99	246.54	1.92	-47.6	-62.7	3.6	1.51e+00	0	37	104	0	60	49535
2026-01-02 03:27:26.00	246.65	1.96	-47.6	-62.7	3.6	1.51e+00	0	37	104	0	60	49408
2026-01-02 03:27:27.02	246.76	2.00	-47.6	-62.8	3.6	1.51e+00	0	37	104	0	60	49720
2026-01-02 03:27:28.02	246.86	2.04	-47.6	-62.7	3.6	1.51e+00	0	37	104	0	60	49235
2026-01-02 03:27:29.03	246.97	2.08	-47.6	-62.6	3.6	1.51e+00	0	37	104	0	60	48793
2026-01-02 03:27:30.04	247.08	2.12	-47.6	-62.6	3.6	1.51e+00	0	37	104	0	60	48908
2026-01-02 03:27:31.06	247.19	2.16	-47.5	-62.6	3.6	1.51e+00	0	37	104	0	60	48884
2026-01-02 03:27:32.07	247.30	2.20	-47.6	-62.6	3.6	1.51e+00	0	37	104	0	60	48890
2026-01-02 03:27:33.08	247.41	2.24	-47.6	-62.7	3.6	1.51e+00	0	37	104	0	60	49140
2026-01-02 03:27:34.09	247.52	2.29	-47.5	-62.6	3.6	1.51e+00	0	37	104	0	60	48662
2026-01-02 03:27:35.10	247.63	2.33	-47.6	-62.7	3.6	1.51e+00	0	37	104	0	60	49321
2026-01-02 03:27:36.11	247.74	2.37	-47.5	-62.7	3.6	1.51e+00	0	37	104	0	60	49175
2026-01-02 03:27:37.12	247.85	2.41	-47.6	-62.7	3.6	1.51e+00	0	37	104	0	60	49064
2026-01-02 03:27:38.12	247.96	2.45	-47.5	-62.5	3.6	1.51e+00	0	37	104	0	60	48162
2026-01-02 03:27:39.13	248.07	2.49	-47.5	-62.3	3.6	1.51e+00	0	37	104	0	60	47338
2026-01-02 03:27:40.14	248.18	2.53	-47.5	-62.4	3.6	1.51e+00	0	37	104	0	60	47695
2026-01-02 03:27:41.15	248.30	2.57	-47.5	-62.6	3.6	1.51e+00	0	37	104	0	60	48806
2026-01-02 03:27:42.16	248.41	2.61	-47.5	-62.5	3.6	1.51e+00	0	37	104	0	60	48339
2026-01-02 03:27:43.17	248.52	2.65	-47.5	-61.6	3.6	1.51e+00	0	37	104	0	60	43549
2026-01-02 03:27:44.18	248.63	2.69	-47.5	-60.7	3.6	1.51e+00	0	37	104	0	60	39131
2026-01-02 03:27:45.19	248.75	2.73	-47.4	-60.2	3.8	1.50e+00	0	37	104	0	60	37103
2026-01-02 03:27:46.20	248.86	2.77	-47.5	-61.1	3.6	1.50e+00	0	37	104	0	60	40809
2026-01-02 03:27:47.21	248.97	2.81	-47.5	-62.5	3.6	1.51e+00	0	37	104	0	60	48170
2026-01-02 03:27:48.22	249.09	2.85	-47.5	-61.2	3.6	1.51e+00	0	37	104	0	60	41496
2026-01-02 03:27:49.23	249.20	2.89	-47.1	-56.3	5.6	1.17e+00	78	37	0	0	60	23724
2026-01-02 03:27:50.24	249.32	2.93	-46.6	-52.8	8.6	2.32e-01	1	37	0	2097152	60	15847
2026-01-02 03:27:51.25	249.43	2.97	-46.1	-51.2	9.7	1.32e-02	92	37	0	3145728	60	13108
2026-01-02 03:27:52.26	249.55	3.01	-45.7	-50.1	11.3	2.58e-03	0	37	0	5242880	60	11604
2026-01-02 03:27:53.27	249.66	3.05	-45.8	-50.6	10.5	1.56e-03	75	37	0	7340032	60	12277
2026-01-02 03:27:54.27	249.78	3.09	-47.4	-56.1	5.3	5.60e-02	0	37	0	9437184	60	22953
2026-01-02 03:27:55.28	249.89	3.13	-47.3	-60.6	3.6	4.46e-01	0	37	104	10485760	60	38782
2026-01-02 03:27:56.29	250.01	3.17	-41.4	-43.0	17.5	1.28e+00	27	37	104	10485760	56	6425
2026-01-02 03:27:57.30	250.13	3.21	-45.4	-49.2	13.1	1.37e-05	92	37	0	10485760	60	10369
2026-01-02 03:27:58.31	250.25	3.24	-44.9	-48.2	13.5	0.00e+00	92	37	0	12582912	60	9344
2026-01-02 03:27:59.32	250.36	3.28	-42.4	-44.4	17.3	7.00e-07	0	37	0	14680064	58	6695
2026-01-02 03:28:00.33	250.48	3.32	-42.1	-43.9	17.9	0.00e+00	37	37	0	16777216	58	6357
2026-01-02 03:28:01.34	250.60	3.36	-41.9	-43.6	18.2	0.00e+00	0	37	0	17825792	56	6855
2026-01-02 03:28:02.35	250.72	3.40	-41.6	-43.2	18.7	0.00e+00	92	37	0	19922944	56	6602
2026-01-02 03:28:03.36	250.84	3.44	-41.5	-43.2	18.6	0.00e+00	44	37	0	22020096	56	6556
2026-01-02 03:28:04.37	250.95	3.48	-41.9	-43.6	18.4	0.00e+00	92	37	0	24117248	56	6873
2026-01-02 03:28:05.37	251.07	3.52	-41.4	-43.0	18.9	0.00e+00	92	37	0	26214400	56	6431
2026-01-02 03:28:06.39	251.19	3.56	-41.6	-43.3	18.5	0.00e+00	0	37	0	27262976	56	6626
2026-01-02 03:28:07.39	251.31	3.60	-41.4	-43.0	18.8	0.00e+00	44	37	0	29360128	56	6417
2026-01-02 03:28:08.40	251.43	3.64	-41.4	-43.0	18.9	0.00e+00	0	37	0	31457280	56	6428
2026-01-02 03:28:09.41	251.55	3.68	-41.0	-42.5	19.3	0.00e+00	88	37	0	33554432	56	6071
2026-01-02 03:28:10.42	251.67	3.72	-41.1	-42.6	19.2	0.00e+00	33	37	0	35651584	56	6121
2026-01-02 03:28:11.43	251.79	3.76	-41.1	-42.6	19.3	0.00e+00	92	38	0	36700160	56	6165
2026-01-02 03:28:12.44	251.92	3.79	-41.2	-42.7	19.2	0.00e+00	92	38	0	38797312	56	6179
2026-01-02 03:28:13.45	252.04	3.83	-41.0	-42.5	19.4	0.00e+00	0	38	0	40894464	56	6040
2026-01-02 03:28:14.46	252.16	3.87	-40.8	-42.2	19.6	0.00e+00	87	37	0	42991616	56	5868
2026-01-02 03:28:15.47	252.28	3.91	-40.6	-42.0	19.7	0.00e+00	0	37	0	45088768	54	6424
2026-01-02 03:28:16.48	252.40	3.95	-40.4	-41.8	20.0	0.00e+00	92	37	0	47185920	54	6256
2026-01-02 03:28:17.49	252.53	3.99	-40.5	-41.9	19.9	0.00e+00	0	37	0	48234496	54	6331
2026-01-02 03:28:18.50	252.65	4.03	-40.5	-41.9	19.8	0.00e+00	92	38	0	50331648	54	6367
2026-01-02 03:28:19.51	252.77	4.07	-40.6	-41.9	19.8	0.00e+00	92	37	0	52428800	54	6390
2026-01-02 03:28:20.51	252.90	4.10	-40.5	-41.9	19.9	0.00e+00	0	37	0	54525952	54	6338
2026-01-02 03:28:21.52	253.02	4.14	-40.5	-41.9	19.8	0.00e+00	92	38	0	56623104	54	6363
2026-01-02 03:28:22.53	253.14	4.18	-40.8	-42.3	19.5	0.00e+00	0	38	0	57671680	54	6632
2026-01-02 03:28:23.54	253.27	4.22	-40.8	-42.2	19.5	0.00e+00	88	38	0	59768832	54	6552
2026-01-02 03:28:24.55	253.39	4.26	-40.9	-42.4	19.4	0.00e+00	0	37	0	61865984	54	6715
2026-01-02 03:28:25.56	253.52	4.30	-40.9	-42.4	19.5	0.00e+00	90	38	0	63963136	54	6701
2026-01-02 03:28:26.57	253.65	4.33	-40.8	-42.2	19.5	0.00e+00	92	38	0	66060288	54	6595
2026-01-02 03:28:27.58	253.77	4.37	-40.9	-42.3	19.4	0.00e+00	34	37	0	67108864	54	6688
2026-01-02 03:28:28.59	253.90	4.41	-41.0	-42.4	19.4	0.00e+00	92	37	0	69206016	54	6731
2026-01-02 03:28:29.60	254.02	4.45	-40.7	-42.1	19.6	0.00e+00	0	38	0	71303168	54	6487
2026-01-02 03:28:30.61	254.15	4.49	-40.7	-42.1	19.8	0.00e+00	91	38	0	73400320	54	6484
2026-01-02 03:28:31.62	254.28	4.52	-40.5	-41.9	19.9	0.00e+00	0	38	0	75497472	54	6347
2026-01-02 03:28:32.63	254.41	4.56	-40.6	-41.9	19.9	0.00e+00	92	38	0	76546048	54	6360
2026-01-02 03:28:33.64	254.53	4.60	-40.7	-42.1	19.8	0.00e+00	77	38	0	78643200	54	6468
2026-01-02 03:28:34.65	254.66	4.64	-40.6	-42.0	19.9	0.00e+00	92	38	0	80740352	54	6407
2026-01-02 03:28:35.66	254.79	4.68	-40.5	-41.9	20.0	0.00e+00	92	38	0	82837504	54	6341
2026-01-02 03:28:36.67	254.92	4.71	-40.6	-41.9	19.9	0.00e+00	0	37	0	84934656	54	6357
2026-01-02 03:28:37.68	255.05	4.75	-40.8	-42.2	19.8	0.00e+00	92	38	0	85983232	54	6609
2026-01-02 03:28:38.69	255.18	4.79	-40.8	-42.2	19.8	0.00e+00	0	37	0	88080384	54	6553
2026-01-02 03:28:39.70	255.31	4.83	-40.9	-42.3	19.6	0.00e+00	95	37	0	90177536	54	6691
2026-01-02 03:28:40.71	255.44	4.86	-40.9	-42.3	19.7	0.00e+00	0	38	0	92274688	54	6645
2026-01-02 03:28:41.72	255.57	4.90	-40.9	-42.3	19.6	0.00e+00	92	38	0	94371840	54	6660
2026-01-02 03:28:42.73	255.70	4.94	-40.8	-42.1	19.7	0.00e+00	91	38	0	95420416	54	6536
2026-01-02 03:28:43.73	255.83	4.98	-40.6	-42.0	19.9	0.00e+00	0	38	0	97517568	54	6401
2026-01-02 03:28:44.74	255.96	5.01	-40.7	-42.0	19.8	0.00e+00	90	38	0	99614720	54	6456
2026-01-02 03:28:45.75	256.09	5.05	-40.6	-42.0	19.9	0.00e+00	0	38	0	101711872	54	6420
2026-01-02 03:28:46.76	256.23	5.09	-40.4	-41.7	20.2	0.00e+00	92	38	0	103809024	54	6188
2026-01-02 03:28:47.77	256.36	5.12	-40.4	-41.7	20.2	0.00e+00	0	38	0	104857600	54	6216
2026-01-02 03:28:48.78	256.49	5.16	-40.4	-41.7	20.2	0.00e+00	92	38	0	106954752	54	6212
2026-01-02 03:28:49.79	256.62	5.20	-40.3	-41.6	20.3	0.00e+00	68	38	0	109051904	54	6109
2026-01-02 03:28:50.80	256.76	5.23	-40.4	-41.8	20.1	0.00e+00	75	38	0	111149056	54	6262
2026-01-02 03:28:51.81	256.89	5.27	-40.3	-41.6	20.3	0.00e+00	92	38	0	113246208	54	6127
2026-01-02 03:28:52.82	257.02	5.31	-40.3	-41.6	20.2	0.00e+00	0	38	0	115343360	54	6132
2026-01-02 03:28:53.83	257.16	5.34	-40.4	-41.7	20.3	0.00e+00	90	38	0	116391936	54	6212
2026-01-02 03:28:54.84	257.29	5.38	-40.6	-42.0	20.0	0.00e+00	0	38	0	118489088	54	6421
2026-01-02 03:28:55.85	257.43	5.42	-40.6	-41.9	20.1	0.00e+00	92	38	0	120586240	54	6356
2026-01-02 03:28:56.86	257.56	5.45	-40.4	-41.7	20.3	0.00e+00	91	38	0	122683392	54	6212
2026-01-02 03:28:57.87	257.70	5.49	-40.4	-41.7	20.2	0.00e+00	6	37	0	124780544	54	6241
2026-01-02 03:28:58.88	257.84	5.52	-40.5	-41.8	20.1	0.00e+00	92	38	0	125829120	54	6298
2026-01-02 03:28:59.89	257.97	5.56	-40.5	-41.8	20.1	0.00e+00	0	37	0	127926272	54	6279
2026-01-02 03:29:00.90	258.11	5.60	-40.4	-41.7	20.2	0.00e+00	92	37	0	130023424	54	6227
2026-01-02 03:29:01.90	258.24	5.63	-40.4	-41.7	20.2	0.00e+00	0	38	0	132120576	54	6222
2026-01-02 03:29:02.91	258.38	5.67	-40.4	-41.7	20.1	0.00e+00	92	38	0	134217728	54	6235
2026-01-02 03:29:03.92	258.52	5.70	-40.6	-41.9	20.1	0.00e+00	78	38	0	135266304	54	6336
2026-01-02 03:29:04.93	258.66	5.74	-40.8	-42.1	19.8	0.00e+00	92	38	0	137363456	54	6522
2026-01-02 03:29:05.94	258.79	5.77	-40.6	-41.9	20.0	0.00e+00	92	38	0	139460608	54	6382
2026-01-02 03:29:06.95	258.93	5.81	-40.7	-42.0	19.9	0.00e+00	0	38	0	141557760	54	6459
2026-01-02 03:29:07.96	259.07	5.84	-40.8	-42.2	19.9	0.00e+00	91	38	0	143654912	54	6596
2026-01-02 03:29:08.97	259.21	5.88	-40.7	-42.0	19.9	0.00e+00	0	38	0	144703488	54	6453
2026-01-02 03:29:09.98	259.35	5.91	-40.7	-42.1	19.9	0.00e+00	90	38	0	146800640	54	6478
2026-01-02 03:29:10.99	259.49	5.95	-40.7	-42.1	19.9	0.00e+00	73	38	0	148897792	54	6497
2026-01-02 03:29:12.00	259.63	5.98	-40.7	-42.0	20.0	0.00e+00	91	38	0	150994944	54	6426
2026-01-02 03:29:13.01	259.77	6.02	-40.6	-41.9	20.1	0.00e+00	92	38	0	153092096	54	6387
2026-01-02 03:29:14.02	259.91	6.05	-40.6	-41.9	20.0	0.00e+00	0	38	0	154140672	54	6383
2026-01-02 03:29:15.02	260.05	6.09	-40.6	-41.9	20.2	0.00e+00	78	38	0	156237824	54	6344
2026-01-02 03:29:16.04	260.19	6.12	-40.6	-41.9	20.1	0.00e+00	0	38	0	158334976	54	6346
2026-01-02 03:29:17.05	260.34	6.16	-40.7	-42.0	20.0	0.00e+00	92	38	0	160432128	54	6440
2026-01-02 03:29:18.06	260.48	6.19	-40.7	-42.1	20.0	0.00e+00	25	38	0	162529280	54	6491
2026-01-02 03:29:19.07	260.62	6.22	-40.9	-42.3	19.9	0.00e+00	92	38	0	163577856	54	6635
2026-01-02 03:29:20.07	260.76	6.26	-40.9	-42.3	19.7	0.00e+00	92	38	0	165675008	54	6659
2026-01-02 03:29:21.08	260.90	6.29	-41.2	-42.7	19.7	0.00e+00	0	38	0	167772160	54	6955
2026-01-02 03:29:22.09	261.05	6.33	-41.1	-42.6	19.5	0.00e+00	92	38	0	169869312	54	6858
2026-01-02 03:29:23.10	261.19	6.36	-41.1	-42.6	19.5	0.00e+00	0	38	0	171966464	54	6886
2026-01-02 03:29:24.11	261.34	6.39	-41.3	-42.7	19.4	0.00e+00	82	38	0	173015040	54	6995
2026-01-02 03:29:25.12	261.48	6.43	-41.3	-42.8	19.3	0.00e+00	0	38	0	175112192	54	7073
2026-01-02 03:29:26.13	261.62	6.46	-41.2	-42.6	19.5	0.00e+00	92	38	0	177209344	54	6922
2026-01-02 03:29:27.14	261.77	6.49	-41.1	-42.5	19.6	0.00e+00	92	38	0	179306496	54	6803
2026-01-02 03:29:28.15	261.91	6.53	-40.9	-42.3	19.9	0.00e+00	0	38	0	181403648	54	6643
2026-01-02 03:29:29.16	262.06	6.56	-40.9	-42.2	19.9	0.00e+00	92	38	0	183500800	54	6578
2026-01-02 03:29:30.17	262.21	6.59	-40.6	-41.9	20.1	0.00e+00	0	38	0	184549376	54	6381
2026-01-02 03:29:31.18	262.35	6.63	-40.6	-41.9	20.2	0.00e+00	92	38	0	186646528	54	6345
2026-01-02 03:29:32.19	262.50	6.66	-40.4	-41.6	20.4	0.00e+00	0	38	0	188743680	54	6167
2026-01-02 03:29:33.20	262.65	6.69	-40.7	-42.0	20.1	0.00e+00	92	38	0	190840832	54	6419
2026-01-02 03:29:34.21	262.79	6.72	-40.5	-41.8	20.2	0.00e+00	92	38	0	192937984	54	6312
2026-01-02 03:29:35.21	262.94	6.76	-40.6	-42.0	20.1	0.00e+00	0	38	0	193986560	54	6394
2026-01-02 03:29:36.23	263.09	6.79	-40.7	-42.1	20.0	0.00e+00	92	38	0	196083712	54	6484
2026-01-02 03:29:37.24	263.24	6.82	-40.8	-42.2	19.7	0.00e+00	0	38	0	198180864	54	6567
2026-01-02 03:29:38.25	263.38	6.85	-40.8	-42.2	20.0	0.00e+00	91	38	0	200278016	54	6581
2026-01-02 03:29:39.26	263.53	6.88	-41.1	-42.5	19.7	0.00e+00	0	38	0	202375168	54	6800
2026-01-02 03:29:40.27	263.68	6.92	-41.1	-42.5	19.7	0.00e+00	92	38	0	203423744	54	6779
2026-01-02 03:29:41.27	263.83	6.95	-41.1	-42.5	19.7	0.00e+00	84	38	0	205520896	54	6770
2026-01-02 03:29:42.28	263.98	6.98	-41.0	-42.4	19.7	0.00e+00	0	38	0	207618048	54	6759
2026-01-02 03:29:43.29	264.13	7.01	-41.0	-42.4	19.8	0.00e+00	91	38	0	209715200	54	6730
2026-01-02 03:29:44.30	264.28	7.04	-41.1	-42.5	19.7	0.00e+00	0	38	0	211812352	54	6775
2026-01-02 03:29:45.31	264.43	7.07	-41.0	-42.4	19.8	0.00e+00	90	38	0	212860928	54	6727
2026-01-02 03:29:46.32	264.58	7.10	-41.1	-42.5	19.8	0.00e+00	0	38	0	214958080	54	6801
2026-01-02 03:29:47.33	264.73	7.13	-41.5	-43.0	19.5	0.00e+00	90	38	0	217055232	56	6415
2026-01-02 03:29:48.34	264.88	7.17	-41.4	-42.8	19.4	0.00e+00	44	38	0	219152384	56	6300
2026-01-02 03:29:49.35	265.04	7.20	-41.4	-42.8	19.5	0.00e+00	0	38	0	221249536	56	6315
2026-01-02 03:29:50.36	265.19	7.23	-41.3	-42.8	19.6	0.00e+00	92	38	0	222298112	56	6276
2026-01-02 03:29:51.37	265.34	7.26	-41.3	-42.7	19.3	0.00e+00	0	38	0	224395264	56	6235
2026-01-02 03:29:52.38	265.49	7.29	-41.4	-42.9	19.4	0.00e+00	38	38	0	226492416	56	6364
2026-01-02 03:29:53.39	265.65	7.32	-41.2	-42.7	19.6	0.00e+00	0	38	0	228589568	56	6182
2026-01-02 03:29:54.40	265.80	7.35	-41.1	-42.5	19.8	0.00e+00	92	38	0	230686720	56	6064
2026-01-02 03:29:55.40	265.95	7.38	-41.1	-42.5	19.8	0.00e+00	0	38	0	231735296	56	6076
2026-01-02 03:29:56.41	266.11	7.41	-41.0	-42.3	19.9	0.00e+00	92	38	0	233832448	56	5952
2026-01-02 03:29:57.42	266.26	7.44	-40.9	-42.3	20.0	0.00e+00	90	38	0	235929600	56	5934
2026-01-02 03:29:58.43	266.41	7.46	-41.0	-42.4	19.9	0.00e+00	0	38	0	238026752	56	5980
2026-01-02 03:29:59.44	266.57	7.49	-41.0	-42.3	19.9	0.00e+00	75	38	0	240123904	56	5962
2026-01-02 03:30:00.45	266.72	7.52	-40.9	-42.3	20.0	0.00e+00	0	38	0	241172480	56	5923
2026-01-02 03:30:01.46	266.88	7.55	-40.8	-42.2	20.1	0.00e+00	90	38	0	243269632	56	5835
2026-01-02 03:30:02.47	267.04	7.58	-40.8	-42.2	19.9	0.00e+00	0	38	0	245366784	54	6572
2026-01-02 03:30:03.48	267.19	7.61	-40.9	-42.3	19.9	0.00e+00	92	38	0	247463936	54	6617
2026-01-02 03:30:04.49	267.35	7.64	-40.8	-42.1	20.1	0.00e+00	92	38	0	249561088	54	6510
2026-01-02 03:30:05.50	267.50	7.67	-40.9	-42.3	20.0	0.00e+00	0	38	0	250609664	54	6664
2026-01-02 03:30:06.51	267.66	7.69	-40.9	-42.3	19.9	0.00e+00	79	38	0	252706816	54	6637
2026-01-02 03:30:07.52	267.82	7.72	-41.2	-42.6	19.6	0.00e+00	0	38	0	254803968	54	6918
2026-01-02 03:30:08.53	267.98	7.75	-41.2	-42.6	19.5	0.00e+00	92	38	0	256901120	54	6912
2026-01-02 03:30:09.54	268.13	7.78	-41.2	-42.6	19.6	0.00e+00	0	38	0	258998272	54	6921
2026-01-02 03:30:10.55	268.29	7.81	-41.3	-42.8	19.5	0.00e+00	92	38	0	260046848	54	7025
2026-01-02 03:30:11.56	268.45	7.83	-41.4	-42.9	19.3	0.00e+00	92	38	0	262144000	54	7120
2026-01-02 03:30:12.57	268.61	7.86	-41.1	-42.5	19.8	0.00e+00	10	38	0	264241152	54	6796
2026-01-02 03:30:13.57	268.77	7.89	-41.0	-42.4	19.9	0.00e+00	90	38	0	266338304	54	6693
2026-01-02 03:30:14.58	268.93	7.91	-40.8	-42.2	20.0	0.00e+00	0	38	0	268435456	54	6551
2026-01-02 03:30:15.59	269.08	7.94	-40.8	-42.2	20.1	0.00e+00	73	38	0	269484032	54	6555
2026-01-02 03:30:16.60	269.24	7.97	-40.4	-41.7	20.4	0.00e+00	0	38	0	271581184	54	6207
2026-01-02 03:30:17.61	269.40	7.99	-40.5	-41.7	20.4	0.00e+00	90	38	0	273678336	54	6236
2026-01-02 03:30:18.62	269.56	8.02	-40.5	-41.8	20.3	0.00e+00	78	38	0	275775488	54	6269
2026-01-02 03:30:19.63	269.73	8.05	-40.5	-41.8	20.4	0.00e+00	58	38	0	277872640	54	6263
2026-01-02 03:30:20.64	269.89	8.07	-40.6	-41.9	20.2	0.00e+00	92	38	0	279969792	54	6366
2026-01-02 03:30:21.65	270.05	8.10	-41.0	-42.3	19.9	0.00e+00	0	38	0	281018368	54	6669
2026-01-02 03:30:22.65	270.21	8.12	-41.2	-42.6	19.7	0.00e+00	90	38	0	283115520	54	6882
2026-01-02 03:30:23.66	270.37	8.15	-41.2	-42.6	19.7	0.00e+00	0	38	0	285212672	54	6905
2026-01-02 03:30:24.67	270.53	8.18	-41.3	-42.7	19.6	0.00e+00	90	38	0	287309824	54	7000
2026-01-02 03:30:25.68	270.69	8.20	-41.1	-42.5	19.7	0.00e+00	9	38	0	289406976	54	6791
2026-01-02 03:30:26.69	270.86	8.23	-41.1	-42.5	19.7	0.00e+00	92	38	0	290455552	54	6826
2026-01-02 03:30:27.70	271.02	8.25	-41.3	-42.7	19.7	0.00e+00	92	38	0	292552704	54	6964
2026-01-02 03:30:28.71	271.18	8.27	-41.1	-42.5	19.8	0.00e+00	0	38	0	294649856	54	6804
2026-01-02 03:30:29.72	271.34	8.30	-41.1	-42.5	19.7	0.00e+00	73	38	0	296747008	54	6810
2026-01-02 03:30:30.72	271.51	8.32	-41.2	-42.6	19.7	0.00e+00	0	38	0	298844160	54	6899
2026-01-02 03:30:31.73	271.67	8.35	-41.0	-42.4	19.9	0.00e+00	77	38	0	299892736	54	6723
2026-01-02 03:30:32.74	271.83	8.37	-41.2	-42.6	19.7	0.00e+00	0	38	0	301989888	54	6872
2026-01-02 03:30:33.75	272.00	8.39	-41.2	-42.6	19.8	0.00e+00	91	38	0	304087040	54	6877
2026-01-02 03:30:34.77	272.16	8.42	-41.1	-42.5	19.8	0.00e+00	91	38	0	306184192	54	6803
2026-01-02 03:30:35.77	272.33	8.44	-41.0	-42.4	19.9	0.00e+00	0	38	0	308281344	54	6731
2026-01-02 03:30:36.78	272.49	8.46	-40.9	-42.2	20.0	0.00e+00	92	38	0	309329920	54	6578
2026-01-02 03:30:37.79	272.66	8.49	-40.7	-42.0	20.3	0.00e+00	0	38	0	311427072	54	6405
2026-01-02 03:30:38.80	272.82	8.51	-40.6	-41.8	20.3	0.00e+00	74	38	0	313524224	54	6301
2026-01-02 03:30:39.81	272.99	8.53	-40.4	-41.6	20.6	0.00e+00	0	38	0	315621376	54	6155
2026-01-02 03:30:40.82	273.16	8.56	-40.4	-41.6	20.5	0.00e+00	91	38	0	317718528	54	6134
2026-01-02 03:30:41.83	273.32	8.58	-40.6	-41.9	20.4	0.00e+00	91	38	0	318767104	54	6326
2026-01-02 03:30:42.84	273.49	8.60	-40.6	-41.9	20.4	0.00e+00	0	38	0	320864256	54	6341
2026-01-02 03:30:43.85	273.66	8.62	-40.8	-42.1	20.1	0.00e+00	92	38	0	322961408	54	6529
2026-01-02 03:30:44.85	273.82	8.64	-41.1	-42.5	19.8	0.00e+00	0	38	0	325058560	54	6817
2026-01-02 03:30:45.86	273.99	8.67	-41.5	-42.9	19.4	0.00e+00	92	38	0	327155712	54	7155
2026-01-02 03:30:46.87	274.16	8.69	-41.8	-43.3	19.1	0.00e+00	0	38	0	328204288	56	6648
2026-01-02 03:30:47.88	274.32	8.71	-42.0	-43.6	18.9	0.00e+00	92	38	0	330301440	56	6907
2026-01-02 03:30:48.88	274.49	8.73	-42.1	-43.7	18.7	0.00e+00	65	38	0	332398592	56	7000
2026-01-02 03:30:49.89	274.66	8.75	-42.0	-43.6	18.8	0.00e+00	57	38	0	334495744	56	6920
2026-01-02 03:30:50.90	274.83	8.77	-41.8	-43.3	19.1	0.00e+00	92	38	0	336592896	56	6659
2026-01-02 03:30:51.91	275.00	8.79	-41.7	-43.2	19.2	0.00e+00	32	38	0	337641472	56	6575
2026-01-02 03:30:52.92	275.16	8.81	-41.4	-42.8	19.5	0.00e+00	86	38	0	339738624	56	6314
2026-01-02 03:30:53.93	275.33	8.83	-41.2	-42.6	19.8	0.00e+00	0	38	0	341835776	56	6126
2026-01-02 03:30:54.94	275.50	8.85	-41.0	-42.3	20.0	0.00e+00	91	38	0	343932928	56	5959
2026-01-02 03:30:55.95	275.67	8.87	-41.0	-42.4	20.0	0.00e+00	46	38	0	346030080	56	5965
2026-01-02 03:30:56.96	275.84	8.89	-41.1	-42.5	19.9	0.00e+00	46	38	0	348127232	56	6058
2026-01-02 03:30:57.97	276.01	8.91	-40.9	-42.2	20.1	0.00e+00	92	38	0	349175808	56	5855
2026-01-02 03:30:58.97	276.18	8.93	-41.0	-42.3	20.0	0.00e+00	0	38	0	351272960	56	5951
2026-01-02 03:30:59.98	276.35	8.95	-41.0	-42.3	20.1	0.00e+00	83	38	0	353370112	56	5954
2026-01-02 03:31:00.99	276.52	8.96	-41.0	-42.3	20.1	0.00e+00	0	38	0	355467264	56	5931
2026-01-02 03:31:02.00	276.69	8.98	-41.0	-42.3	20.0	0.00e+00	91	38	0	356515840	56	5963
2026-01-02 03:31:03.01	276.86	9.00	-40.7	-42.0	20.4	0.00e+00	0	38	0	358612992	56	5703
2026-01-02 03:31:04.02	277.03	9.02	-40.4	-41.6	20.6	0.00e+00	92	38	0	360710144	54	6163
2026-01-02 03:31:05.03	277.21	9.04	-40.5	-41.7	20.6	0.00e+00	92	38	0	362807296	54	6219
2026-01-02 03:31:06.04	277.38	9.05	-40.4	-41.6	20.6	0.00e+00	0	38	0	364904448	54	6168
2026-01-02 03:31:07.05	277.55	9.07	-40.6	-41.8	20.4	0.00e+00	53	38	0	365953024	54	6309
2026-01-02 03:31:08.06	277.72	9.09	-40.7	-42.0	20.2	0.00e+00	30	38	0	368050176	54	6447
2026-01-02 03:31:09.07	277.89	9.10	-41.0	-42.4	19.9	0.00e+00	92	38	0	370147328	54	6715
2026-01-02 03:31:10.07	278.06	9.12	-41.2	-42.5	19.8	0.00e+00	0	38	0	372244480	54	6844
2026-01-02 03:31:11.08	278.24	9.14	-41.5	-43.0	19.6	0.00e+00	92	38	0	374341632	54	7239
2026-01-02 03:31:12.09	278.41	9.15	-41.4	-42.9	19.5	0.00e+00	77	38	0	376438784	54	7094
2026-01-02 03:31:13.10	278.58	9.17	-41.2	-42.5	19.9	0.00e+00	0	38	0	377487360	54	6841
2026-01-02 03:31:14.11	278.76	9.19	-40.9	-42.2	20.1	0.00e+00	92	38	0	379584512	54	6586
2026-01-02 03:31:15.12	278.93	9.20	-40.8	-42.1	20.2	0.00e+00	0	38	0	381681664	54	6525
2026-01-02 03:31:16.13	279.10	9.22	-40.9	-42.2	20.1	0.00e+00	92	38	0	383778816	54	6589
2026-01-02 03:31:17.14	279.28	9.23	-40.9	-42.2	20.1	0.00e+00	0	38	0	385875968	54	6598
2026-01-02 03:31:18.15	279.45	9.25	-41.3	-42.7	19.7	0.00e+00	92	38	0	386924544	54	6928
2026-01-02 03:31:19.16	279.62	9.26	-40.8	-42.1	20.2	0.00e+00	78	38	0	389021696	54	6506
2026-01-02 03:31:20.17	279.80	9.28	-40.9	-42.2	20.1	0.00e+00	0	38	0	391118848	54	6597
2026-01-02 03:31:21.18	279.97	9.29	-41.2	-42.6	19.8	0.00e+00	90	38	0	393216000	54	6849
2026-01-02 03:31:22.19	280.15	9.30	-40.9	-42.2	20.2	0.00e+00	0	38	0	395313152	54	6586
2026-01-02 03:31:23.19	280.32	9.32	-40.8	-42.2	20.2	0.00e+00	72	38	0	396361728	54	6550
2026-01-02 03:31:24.21	280.50	9.33	-40.6	-41.9	20.4	0.00e+00	0	38	0	398458880	54	6328
2026-01-02 03:31:25.21	280.67	9.35	-40.4	-41.6	20.7	0.00e+00	90	38	0	400556032	54	6171
2026-01-02 03:31:26.22	280.84	9.36	-40.2	-41.4	20.8	0.00e+00	0	38	0	402653184	54	6000
2026-01-02 03:31:27.23	281.02	9.37	-40.2	-41.4	20.9	0.00e+00	0	38	0	404750336	54	6013
2026-01-02 03:31:28.24	281.19	9.38	-40.4	-41.7	20.6	0.00e+00	92	38	0	405798912	54	6204
2026-01-02 03:31:29.25	281.37	9.40	-40.4	-41.7	20.6	0.00e+00	0	38	0	407896064	54	6196
2026-01-02 03:31:30.26	281.55	9.41	-40.6	-41.8	20.4	0.00e+00	92	38	0	409993216	54	6295
2026-01-02 03:31:31.27	281.72	9.42	-40.7	-42.0	20.3	0.00e+00	0	38	0	412090368	54	6399
2026-01-02 03:31:32.28	281.90	9.43	-40.6	-41.9	20.4	0.00e+00	89	38	0	414187520	54	6364
2026-01-02 03:31:33.29	282.07	9.44	-40.8	-42.1	20.3	0.00e+00	0	38	0	415236096	54	6528
2026-01-02 03:31:34.30	282.25	9.46	-40.7	-42.0	20.4	0.00e+00	57	38	0	417333248	54	6392
2026-01-02 03:31:35.31	282.43	9.47	-40.8	-42.1	20.3	0.00e+00	92	38	0	419430400	54	6465
2026-01-02 03:31:36.32	282.60	9.48	-40.9	-42.2	20.1	0.00e+00	0	38	0	421527552	54	6555
2026-01-02 03:31:37.33	282.78	9.49	-41.2	-42.6	19.9	0.00e+00	50	38	0	423624704	54	6867
2026-01-02 03:31:38.34	282.96	9.50	-41.5	-43.0	19.4	0.00e+00	0	38	0	424673280	54	7172
2026-01-02 03:31:39.35	283.13	9.51	-41.9	-43.5	19.0	0.00e+00	92	38	0	426770432	56	6771
2026-01-02 03:31:40.36	283.31	9.52	-42.3	-43.9	18.6	0.00e+00	0	38	0	428867584	56	7145
2026-01-02 03:31:41.37	283.49	9.53	-42.5	-44.2	18.4	0.00e+00	41	38	0	430964736	56	7347
2026-01-02 03:31:42.38	283.66	9.54	-42.6	-44.3	18.3	0.00e+00	92	38	0	433061888	56	7444
2026-01-02 03:31:43.39	283.84	9.55	-42.5	-44.1	18.5	0.00e+00	0	38	0	434110464	56	7330
2026-01-02 03:31:44.40	284.02	9.56	-42.5	-44.1	18.5	0.00e+00	39	38	0	436207616	56	7335
2026-01-02 03:31:45.41	284.20	9.56	-42.4	-44.0	18.7	0.00e+00	0	38	0	438304768	56	7214
2026-01-02 03:31:46.41	284.37	9.57	-42.4	-44.0	18.6	0.00e+00	90	38	0	440401920	56	7237
2026-01-02 03:31:47.43	284.55	9.58	-41.9	-43.4	19.1	0.00e+00	0	38	0	442499072	56	6742
2026-01-02 03:31:48.43	284.73	9.59	-41.9	-43.5	19.0	0.00e+00	90	38	0	444596224	56	6797
2026-01-02 03:31:49.44	284.91	9.60	-42.0	-43.5	19.0	0.00e+00	85	38	0	445644800	56	6830
2026-01-02 03:31:50.45	285.08	9.60	-42.2	-43.7	18.8	0.00e+00	0	38	0	447741952	56	6999
2026-01-02 03:31:51.46	285.26	9.61	-42.1	-43.7	18.9	0.00e+00	42	38	0	449839104	56	6932
2026-01-02 03:31:52.47	285.44	9.62	-42.2	-43.7	18.8	0.00e+00	0	38	0	451936256	56	7000
2026-01-02 03:31:53.48	285.62	9.63	-42.2	-43.8	18.8	0.00e+00	92	38	0	454033408	56	7024
2026-01-02 03:31:54.49	285.80	9.63	-42.1	-43.6	18.9	0.00e+00	0	38	0	455081984	56	6924
2026-01-02 03:31:55.50	285.97	9.64	-42.0	-43.6	19.0	0.00e+00	92	38	0	457179136	56	6858
2026-01-02 03:31:56.51	286.15	9.65	-41.9	-43.5	18.9	0.00e+00	90	38	0	459276288	56	6785
2026-01-02 03:31:57.52	286.33	9.65	-42.2	-43.8	18.7	0.00e+00	0	38	0	461373440	56	7025
2026-01-02 03:31:58.53	286.51	9.66	-42.1	-43.7	18.9	0.00e+00	90	38	0	463470592	56	6946
2026-01-02 03:31:59.54	286.69	9.66	-42.1	-43.7	18.8	0.00e+00	0	38	0	464519168	56	6933
2026-01-02 03:32:00.55	286.87	9.67	-42.3	-43.9	18.8	0.00e+00	80	38	0	466616320	56	7119
2026-01-02 03:32:01.56	287.05	9.67	-41.9	-43.4	19.2	0.00e+00	0	38	0	468713472	56	6720
2026-01-02 03:32:02.57	287.22	9.68	-42.0	-43.5	19.1	0.00e+00	92	38	0	470810624	56	6822
2026-01-02 03:32:03.58	287.40	9.68	-41.9	-43.4	19.2	0.00e+00	43	38	0	472907776	56	6738
2026-01-02 03:32:04.59	287.58	9.69	-41.9	-43.4	19.2	0.00e+00	0	38	0	473956352	56	6739
2026-01-02 03:32:05.60	287.76	9.69	-41.6	-43.1	19.4	0.00e+00	92	38	0	476053504	56	6493
2026-01-02 03:32:06.61	287.94	9.69	-41.2	-42.5	19.9	0.00e+00	0	38	0	478150656	56	6086
2026-01-02 03:32:07.62	288.12	9.70	-41.1	-42.5	20.0	0.00e+00	79	38	0	480247808	56	6054
2026-01-02 03:32:08.63	288.30	9.70	-41.1	-42.4	20.1	0.00e+00	0	38	0	482344960	56	5997
2026-01-02 03:32:09.64	288.48	9.70	-41.1	-42.4	20.1	0.00e+00	90	38	0	483393536	56	5995
2026-01-02 03:32:10.64	288.65	9.71	-41.2	-42.6	19.9	0.00e+00	0	38	0	485490688	56	6120
2026-01-02 03:32:11.66	288.84	9.71	-41.2	-42.6	20.0	0.00e+00	0	38	0	487587840	56	6139
2026-01-02 03:32:12.67	289.01	9.71	-41.2	-42.6	19.9	0.00e+00	90	38	0	489684992	56	6110
2026-01-02 03:32:13.67	289.19	9.71	-41.2	-42.5	20.1	0.00e+00	0	38	0	491782144	56	6068
2026-01-02 03:32:14.68	289.37	9.71	-41.0	-42.4	20.2	0.00e+00	90	38	0	492830720	56	5973
2026-01-02 03:32:15.69	289.55	9.72	-40.9	-42.2	20.3	0.00e+00	0	38	0	494927872	56	5872
2026-01-02 03:32:16.70	289.73	9.72	-40.8	-42.1	20.3	0.00e+00	92	38	0	497025024	56	5796
2026-01-02 03:32:17.71	289.91	9.72	-40.9	-42.2	20.3	0.00e+00	49	38	0	499122176	56	5844
2026-01-02 03:32:18.72	290.09	9.72	-40.8	-42.1	20.3	0.00e+00	0	38	0	501219328	56	5813
2026-01-02 03:32:19.73	290.27	9.72	-40.9	-42.2	20.3	0.00e+00	92	38	0	502267904	56	5849
2026-01-02 03:32:20.74	290.45	9.72	-41.0	-42.4	20.0	0.00e+00	0	38	0	504365056	56	5981
2026-01-02 03:32:21.75	290.63	9.72	-41.3	-42.7	19.7	0.00e+00	35	38	0	506462208	56	6187
2026-01-02 03:32:22.76	290.81	9.72	-41.3	-42.7	19.8	0.00e+00	0	38	0	508559360	56	6196
2026-01-02 03:32:23.77	290.98	9.72	-41.4	-42.8	19.8	0.00e+00	72	38	0	510656512	56	6267
2026-01-02 03:32:24.78	291.16	9.72	-41.1	-42.4	20.1	0.00e+00	0	38	0	512753664	56	6005
2026-01-02 03:32:25.79	291.34	9.72	-40.9	-42.3	20.1	0.00e+00	39	38	0	513802240	56	5899
2026-01-02 03:32:26.80	291.52	9.72	-40.7	-42.0	20.4	0.00e+00	90	38	0	515899392	56	5735
2026-01-02 03:32:27.81	291.70	9.72	-40.5	-41.7	20.7	0.00e+00	0	38	0	517996544	54	6243
2026-01-02 03:32:28.82	291.88	9.71	-40.3	-41.5	20.7	0.00e+00	72	38	0	520093696	54	6077
2026-01-02 03:32:29.83	292.06	9.71	-40.3	-41.5	20.8	0.00e+00	0	38	0	522190848	54	6057
2026-01-02 03:32:30.83	292.24	9.71	-40.3	-41.5	20.8	0.00e+00	72	38	0	523239424	54	6063
2026-01-02 03:32:31.84	292.42	9.71	-40.3	-41.6	20.7	0.00e+00	0	38	0	525336576	54	6126
2026-01-02 03:32:32.85	292.60	9.70	-40.3	-41.6	20.7	0.00e+00	92	38	0	527433728	54	6114
2026-01-02 03:32:33.86	292.77	9.70	-40.2	-41.5	20.8	0.00e+00	73	38	0	529530880	54	6045
2026-01-02 03:32:34.87	292.95	9.70	-40.2	-41.4	21.0	0.00e+00	0	38	0	531628032	54	5973
2026-01-02 03:32:35.88	293.13	9.70	-39.9	-41.0	21.2	0.00e+00	92	38	0	532676608	54	5753
2026-01-02 03:32:36.89	293.31	9.69	-39.9	-41.1	21.2	0.00e+00	0	38	0	534773760	54	5764
2026-01-02 03:32:37.90	293.49	9.69	-39.7	-40.8	21.4	0.00e+00	86	38	0	536870912	52	6300
2026-01-02 03:32:38.90	293.67	9.68	-39.7	-40.8	21.3	0.00e+00	0	38	0	538968064	52	6285
2026-01-02 03:32:39.91	293.85	9.68	-39.7	-40.8	21.4	0.00e+00	92	38	0	541065216	52	6267
2026-01-02 03:32:40.92	294.02	9.68	-39.9	-41.0	21.3	0.00e+00	0	38	0	542113792	52	6442
2026-01-02 03:32:41.93	294.20	9.67	-40.1	-41.3	20.8	0.00e+00	0	38	0	544210944	52	6649
2026-01-02 03:32:42.94	294.38	9.67	-40.3	-41.5	20.8	0.00e+00	92	38	0	546308096	52	6794
2026-01-02 03:32:43.95	294.56	9.66	-40.3	-41.5	20.7	0.00e+00	0	38	0	548405248	52	6848
2026-01-02 03:32:44.96	294.74	9.65	-40.3	-41.6	20.7	0.00e+00	74	38	0	550502400	52	6863
2026-01-02 03:32:45.97	294.92	9.65	-40.4	-41.6	20.7	0.00e+00	0	38	0	551550976	52	6872
2026-01-02 03:32:46.98	295.10	9.64	-40.2	-41.4	20.8	0.00e+00	92	38	0	553648128	52	6743
2026-01-02 03:32:47.99	295.27	9.64	-40.1	-41.3	21.0	0.00e+00	0	38	0	555745280	52	6664
2026-01-02 03:32:49.00	295.45	9.63	-40.2	-41.4	20.9	0.00e+00	0	38	0	557842432	52	6702
2026-01-02 03:32:50.01	295.63	9.62	-40.1	-41.3	21.0	0.00e+00	91	38	0	559939584	52	6668
2026-01-02 03:32:51.01	295.81	9.62	-40.1	-41.3	21.0	0.00e+00	0	38	0	560988160	52	6657
2026-01-02 03:32:52.02	295.98	9.61	-40.3	-41.5	20.8	0.00e+00	76	38	0	563085312	52	6810
2026-01-02 03:32:53.03	296.16	9.60	-40.3	-41.5	20.8	0.00e+00	0	38	0	565182464	52	6842
2026-01-02 03:32:54.04	296.34	9.59	-40.3	-41.6	20.7	0.00e+00	91	38	0	567279616	52	6862
2026-01-02 03:32:55.05	296.52	9.59	-40.3	-41.6	20.8	0.00e+00	0	38	0	569376768	52	6871
2026-01-02 03:32:56.06	296.69	9.58	-40.4	-41.7	20.7	0.00e+00	0	38	0	570425344	52	6938
2026-01-02 03:32:57.07	296.87	9.57	-40.3	-41.5	20.9	0.00e+00	92	38	0	572522496	52	6794
2026-01-02 03:32:58.08	297.05	9.56	-40.1	-41.3	21.1	0.00e+00	0	38	0	574619648	52	6624
2026-01-02 03:32:59.09	297.23	9.55	-40.0	-41.2	21.1	0.00e+00	62	38	0	576716800	52	6581
2026-01-02 03:33:00.10	297.40	9.54	-39.9	-41.0	21.3	0.00e+00	0	38	0	578813952	52	6452
2026-01-02 03:33:01.11	297.58	9.53	-39.9	-41.0	21.3	0.00e+00	92	38	0	580911104	52	6434
2026-01-02 03:33:02.12	297.76	9.52	-39.7	-40.8	21.4	0.00e+00	0	38	0	581959680	52	6299
2026-01-02 03:33:03.13	297.93	9.51	-39.8	-41.0	21.3	0.00e+00	0	38	0	584056832	52	6409
2026-01-02 03:33:04.14	298.11	9.50	-40.0	-41.1	21.2	0.00e+00	74	38	0	586153984	52	6520
2026-01-02 03:33:05.14	298.29	9.49	-39.8	-40.9	21.3	0.00e+00	0	38	0	588251136	52	6361
2026-01-02 03:33:06.15	298.46	9.48	-39.9	-41.1	21.3	0.00e+00	0	38	0	589299712	52	6465
2026-01-02 03:33:07.16	298.64	9.47	-39.8	-40.9	21.6	0.00e+00	0	38	0	591396864	52	6350
2026-01-02 03:33:08.17	298.81	9.46	-39.4	-40.5	21.7	0.00e+00	92	38	0	593494016	52	6079
2026-01-02 03:33:09.17	298.99	9.45	-39.3	-40.3	21.9	0.00e+00	0	38	0	595591168	52	5957
2026-01-02 03:33:10.18	299.16	9.44	-39.1	-40.2	22.0	0.00e+00	75	38	0	597688320	52	5854
2026-01-02 03:33:11.19	299.34	9.43	-39.0	-40.1	22.1	0.00e+00	33	38	0	598736896	52	5783
2026-01-02 03:33:12.20	299.52	9.42	-38.8	-39.8	22.2	0.00e+00	0	38	0	600834048	52	5607
2026-01-02 03:33:13.21	299.69	9.40	-38.6	-39.6	22.4	0.00e+00	16	38	0	602931200	50	6139
2026-01-02 03:33:14.22	299.87	9.39	-38.6	-39.6	22.4	0.00e+00	0	38	0	605028352	50	6128
2026-01-02 03:33:15.23	300.04	9.38	-38.9	-39.9	22.1	0.00e+00	91	38	0	607125504	50	6332
2026-01-02 03:33:16.24	300.22	9.37	-39.1	-40.1	22.0	0.00e+00	0	38	0	609222656	50	6507
2026-01-02 03:33:17.25	300.39	9.35	-39.2	-40.3	21.9	0.00e+00	83	38	0	610271232	50	6642
2026-01-02 03:33:18.26	300.57	9.34	-39.3	-40.3	21.9	0.00e+00	65	38	0	612368384	50	6672
2026-01-02 03:33:19.27	300.74	9.33	-39.4	-40.5	21.6	0.00e+00	0	38	0	614465536	50	6831
2026-01-02 03:33:20.28	300.92	9.31	-39.5	-40.6	21.5	0.00e+00	29	38	0	616562688	50	6871
2026-01-02 03:33:21.29	301.09	9.30	-39.6	-40.7	21.5	0.00e+00	0	38	0	618659840	50	6972
2026-01-02 03:33:22.30	301.26	9.29	-39.8	-40.9	21.3	0.00e+00	78	38	0	619708416	52	6359
2026-01-02 03:33:23.31	301.44	9.27	-39.5	-40.6	21.7	0.00e+00	0	38	0	621805568	52	6164
2026-01-02 03:33:24.32	301.61	9.26	-39.5	-40.6	21.6	0.00e+00	60	38	0	623902720	52	6165
2026-01-02 03:33:25.33	301.79	9.24	-39.5	-40.6	21.7	0.00e+00	46	38	0	625999872	52	6133
2026-01-02 03:33:26.34	301.96	9.23	-39.4	-40.5	21.6	0.00e+00	0	38	0	628097024	52	6087
2026-01-02 03:33:27.34	302.13	9.21	-39.6	-40.7	21.4	0.00e+00	43	38	0	629145600	52	6245
2026-01-02 03:33:28.36	302.30	9.20	-39.8	-41.0	21.2	0.00e+00	0	38	0	631242752	52	6395
2026-01-02 03:33:29.37	302.48	9.18	-39.7	-40.8	21.4	0.00e+00	45	38	0	633339904	52	6267
2026-01-02 03:33:30.38	302.65	9.17	-39.8	-41.0	21.3	0.00e+00	0	38	0	635437056	52	6396
2026-01-02 03:33:31.38	302.82	9.15	-39.6	-40.8	21.3	0.00e+00	69	38	0	637534208	52	6252
2026-01-02 03:33:32.39	302.99	9.13	-39.4	-40.5	21.6	0.00e+00	0	38	0	638582784	52	6072
2026-01-02 03:33:33.40	303.17	9.12	-39.5	-40.6	21.5	0.00e+00	32	38	0	640679936	52	6156
2026-01-02 03:33:34.41	303.34	9.10	-39.4	-40.5	21.6	0.00e+00	91	38	0	642777088	52	6076
2026-01-02 03:33:35.42	303.51	9.08	-39.5	-40.6	21.6	0.00e+00	0	38	0	644874240	52	6106
2026-01-02 03:33:36.43	303.68	9.07	-39.4	-40.5	21.7	0.00e+00	73	38	0	646971392	52	6095
2026-01-02 03:33:37.44	303.85	9.05	-39.5	-40.6	21.6	0.00e+00	30	38	0	648019968	52	6139
2026-01-02 03:33:38.45	304.02	9.03	-39.7	-40.8	21.3	0.00e+00	91	38	0	650117120	52	6274
2026-01-02 03:33:39.46	304.19	9.01	-39.8	-40.9	21.2	0.00e+00	0	38	0	652214272	52	6388
2026-01-02 03:33:40.47	304.36	9.00	-39.9	-41.1	21.2	0.00e+00	66	38	0	654311424	52	6470
2026-01-02 03:33:41.48	304.54	8.98	-40.0	-41.2	21.0	0.00e+00	79	38	0	656408576	52	6568
2026-01-02 03:33:42.49	304.71	8.96	-40.3	-41.5	20.8	0.00e+00	0	38	0	657457152	52	6785
2026-01-02 03:33:43.50	304.88	8.94	-40.3	-41.5	20.7	0.00e+00	26	38	0	659554304	52	6839
2026-01-02 03:33:44.51	305.05	8.92	-40.4	-41.7	20.6	0.00e+00	0	38	0	661651456	52	6942
2026-01-02 03:33:45.52	305.22	8.90	-40.4	-41.6	20.7	0.00e+00	90	38	0	663748608	52	6889
2026-01-02 03:33:46.53	305.38	8.88	-40.2	-41.5	21.0	0.00e+00	0	38	0	665845760	52	6777
2026-01-02 03:33:47.54	305.55	8.86	-40.0	-41.2	20.9	0.00e+00	26	38	0	666894336	52	6569
2026-01-02 03:33:48.55	305.72	8.85	-40.1	-41.2	20.9	0.00e+00	77	38	0	668991488	52	6607
2026-01-02 03:33:49.56	305.89	8.83	-40.0	-41.1	21.0	0.00e+00	0	38	0	671088640	52	6530
2026-01-02 03:33:50.56	306.06	8.81	-39.8	-41.0	21.3	0.00e+00	90	38	0	673185792	52	6407
2026-01-02 03:33:51.57	306.23	8.79	-39.7	-40.9	21.4	0.00e+00	0	38	0	675282944	52	6318
2026-01-02 03:33:52.58	306.40	8.77	-39.8	-40.9	21.3	0.00e+00	76	38	0	677380096	52	6378
2026-01-02 03:33:53.59	306.56	8.74	-39.5	-40.6	21.5	0.00e+00	0	38	0	678428672	52	6135
2026-01-02 03:33:54.60	306.73	8.72	-39.1	-40.2	21.9	0.00e+00	82	38	0	680525824	52	5851
2026-01-02 03:33:55.61	306.90	8.70	-38.8	-39.8	22.2	0.00e+00	76	38	0	682622976	52	5611
2026-01-02 03:33:56.62	307.07	8.68	-38.8	-39.8	22.3	0.00e+00	0	38	0	684720128	50	6258
2026-01-02 03:33:57.63	307.23	8.66	-38.3	-39.3	22.6	0.00e+00	83	38	0	686817280	50	5928
2026-01-02 03:33:58.64	307.40	8.64	-38.5	-39.5	22.5	0.00e+00	0	38	0	687865856	50	6049
2026-01-02 03:33:59.65	307.57	8.62	-38.6	-39.6	22.4	0.00e+00	77	38	0	689963008	50	6121
2026-01-02 03:34:00.66	307.73	8.60	-38.3	-39.2	22.6	0.00e+00	0	38	0	692060160	50	5884
2026-01-02 03:34:01.67	307.90	8.57	-38.4	-39.4	22.5	0.00e+00	75	38	0	694157312	50	6008
2026-01-02 03:34:02.68	308.06	8.55	-38.4	-39.4	22.5	0.00e+00	0	38	0	696254464	50	5993
2026-01-02 03:34:03.68	308.23	8.53	-38.6	-39.6	22.3	0.00e+00	0	38	0	697303040	50	6130
2026-01-02 03:34:04.70	308.39	8.51	-39.1	-40.2	21.8	0.00e+00	77	38	0	699400192	50	6561
2026-01-02 03:34:05.71	308.56	8.48	-38.8	-39.8	22.2	0.00e+00	0	38	0	701497344	50	6280
2026-01-02 03:34:06.71	308.72	8.46	-38.9	-39.9	22.1	0.00e+00	61	38	0	703594496	50	6368
2026-01-02 03:34:07.72	308.89	8.44	-38.8	-39.8	22.1	0.00e+00	0	38	0	705691648	50	6312
2026-01-02 03:34:08.73	309.05	8.41	-38.9	-40.0	21.9	0.00e+00	81	38	0	706740224	50	6418
2026-01-02 03:34:09.74	309.21	8.39	-38.9	-39.9	22.1	0.00e+00	0	38	0	708837376	50	6368
2026-01-02 03:34:10.75	309.38	8.37	-38.9	-39.9	22.1	0.00e+00	12	38	0	710934528	50	6350
2026-01-02 03:34:11.76	309.54	8.34	-38.9	-40.0	22.0	0.00e+00	70	38	0	713031680	50	6398
2026-01-02 03:34:12.77	309.71	8.32	-38.8	-39.9	22.1	0.00e+00	0	38	0	715128832	50	6325
2026-01-02 03:34:13.78	309.87	8.30	-39.0	-40.0	22.0	0.00e+00	50	38	0	716177408	50	6463
2026-01-02 03:34:14.79	310.03	8.27	-39.1	-40.1	21.9	0.00e+00	0	38	0	718274560	50	6534
2026-01-02 03:34:15.80	310.19	8.25	-39.1	-40.1	21.8	0.00e+00	71	38	0	720371712	50	6519
2026-01-02 03:34:16.81	310.36	8.22	-39.1	-40.1	21.9	0.00e+00	0	38	0	722468864	50	6538
2026-01-02 03:34:17.82	310.52	8.20	-39.1	-40.1	21.9	0.00e+00	0	38	0	724566016	50	6538
2026-01-02 03:34:18.83	310.68	8.17	-39.3	-40.4	21.7	0.00e+00	17	38	0	725614592	50	6712
2026-01-02 03:34:19.84	310.84	8.15	-39.3	-40.4	21.6	0.00e+00	0	38	0	727711744	50	6759
2026-01-02 03:34:20.85	311.00	8.12	-39.4	-40.5	21.7	0.00e+00	19	38	0	729808896	50	6844
2026-01-02 03:34:21.85	311.16	8.10	-39.2	-40.3	21.7	0.00e+00	0	38	0	731906048	50	6643
2026-01-02 03:34:22.86	311.32	8.07	-39.2	-40.3	21.9	0.00e+00	70	38	0	734003200	50	6619
2026-01-02 03:34:23.87	311.48	8.04	-38.8	-39.9	21.9	0.00e+00	0	38	0	735051776	50	6339
2026-01-02 03:34:24.88	311.64	8.02	-38.6	-39.6	22.3	0.00e+00	73	38	0	737148928	50	6138
2026-01-02 03:34:25.89	311.80	7.99	-38.4	-39.3	22.5	0.00e+00	3	38	0	739246080	50	5958
2026-01-02 03:34:26.90	311.96	7.97	-38.1	-39.1	22.7	0.00e+00	0	38	0	741343232	50	5771
2026-01-02 03:34:27.91	312.12	7.94	-38.1	-39.0	22.7	0.00e+00	19	38	0	743440384	50	5739
2026-01-02 03:34:28.92	312.28	7.91	-38.2	-39.2	22.7	0.00e+00	0	38	0	744488960	50	5852
2026-01-02 03:34:29.93	312.44	7.89	-38.2	-39.2	22.6	0.00e+00	92	38	0	746586112	50	5863
2026-01-02 03:34:30.94	312.59	7.86	-38.5	-39.5	22.4	0.00e+00	0	38	0	748683264	50	6051
2026-01-02 03:34:31.95	312.75	7.83	-38.5	-39.5	22.3	0.00e+00	83	38	0	750780416	50	6072
2026-01-02 03:34:32.96	312.91	7.80	-38.9	-40.0	22.0	0.00e+00	41	38	0	752877568	50	6401
2026-01-02 03:34:33.97	313.07	7.78	-39.1	-40.2	21.7	0.00e+00	0	38	0	754974720	50	6578
2026-01-02 03:34:34.98	313.23	7.75	-39.1	-40.2	21.8	0.00e+00	91	38	0	756023296	50	6578
2026-01-02 03:34:35.99	313.38	7.72	-39.3	-40.4	21.6	0.00e+00	0	38	0	758120448	50	6709
2026-01-02 03:34:37.00	313.54	7.69	-39.2	-40.3	21.7	0.00e+00	90	38	0	760217600	50	6662
2026-01-02 03:34:38.00	313.69	7.67	-39.3	-40.4	21.4	0.00e+00	0	38	0	762314752	50	6696
2026-01-02 03:34:39.01	313.85	7.64	-39.4	-40.5	21.6	0.00e+00	64	38	0	764411904	50	6817
2026-01-02 03:34:40.02	314.00	7.61	-39.3	-40.3	21.7	0.00e+00	17	38	0	765460480	50	6688
2026-01-02 03:34:41.03	314.16	7.58	-39.3	-40.4	21.6	0.00e+00	0	38	0	767557632	50	6706
2026-01-02 03:34:42.04	314.32	7.55	-39.5	-40.7	21.3	0.00e+00	92	38	0	769654784	50	6932
2026-01-02 03:34:43.05	314.47	7.52	-39.4	-40.6	21.4	0.00e+00	0	38	0	771751936	50	6852
2026-01-02 03:34:44.06	314.62	7.49	-39.5	-40.6	21.3	0.00e+00	69	38	0	773849088	50	6892
2026-01-02 03:34:45.07	314.78	7.47	-39.6	-40.8	21.2	0.00e+00	0	38	0	774897664	50	7009
2026-01-02 03:34:46.08	314.93	7.44	-39.9	-41.0	21.0	0.00e+00	76	38	0	776994816	52	6461
2026-01-02 03:34:47.09	315.09	7.41	-40.0	-41.2	20.9	0.00e+00	0	38	0	779091968	52	6569
2026-01-02 03:34:48.10	315.24	7.38	-40.2	-41.4	20.6	0.00e+00	4	38	0	781189120	52	6749
2026-01-02 03:34:49.11	315.39	7.35	-40.5	-41.7	20.5	0.00e+00	92	38	0	783286272	52	7004
2026-01-02 03:34:50.12	315.54	7.32	-40.4	-41.7	20.5	0.00e+00	0	38	0	784334848	52	6933
2026-01-02 03:34:51.13	315.70	7.29	-40.7	-42.1	20.1	0.00e+00	76	38	0	786432000	54	6469
2026-01-02 03:34:52.13	315.85	7.26	-41.0	-42.3	19.7	0.00e+00	0	38	0	788529152	54	6689
2026-01-02 03:34:53.14	316.00	7.23	-41.1	-42.5	19.6	0.00e+00	76	38	0	790626304	54	6788
2026-01-02 03:34:54.15	316.15	7.20	-41.2	-42.6	19.6	0.00e+00	0	38	0	792723456	54	6910
2026-01-02 03:34:55.16	316.30	7.17	-41.2	-42.6	19.6	0.00e+00	56	38	0	793772032	54	6870
2026-01-02 03:34:56.17	316.45	7.14	-41.0	-42.3	19.8	0.00e+00	75	38	0	795869184	54	6674
2026-01-02 03:34:57.18	316.60	7.11	-41.2	-42.6	19.6	0.00e+00	0	38	0	797966336	54	6917
2026-01-02 03:34:58.19	316.75	7.07	-41.3	-42.7	19.7	0.00e+00	81	38	0	800063488	54	6976
2026-01-02 03:34:59.20	316.90	7.04	-41.1	-42.4	19.5	0.00e+00	0	38	0	802160640	54	6768
2026-01-02 03:35:00.21	317.05	7.01	-41.1	-42.5	19.6	0.00e+00	0	38	0	803209216	54	6821
2026-01-02 03:35:01.22	317.20	6.98	-41.3	-42.8	19.3	0.00e+00	0	38	0	805306368	54	7072
2026-01-02 03:35:02.22	317.35	6.95	-41.2	-42.6	19.5	0.00e+00	0	38	0	807403520	54	6906
2026-01-02 03:35:03.24	317.50	6.92	-41.5	-43.0	19.1	0.00e+00	0	38	0	809500672	54	7231
2026-01-02 03:35:04.24	317.65	6.89	-41.3	-42.8	19.6	0.00e+00	0	38	0	811597824	54	7023
2026-01-02 03:35:05.25	317.80	6.86	-41.2	-42.6	19.5	0.00e+00	81	38	0	812646400	54	6915
2026-01-02 03:35:06.26	317.94	6.82	-40.9	-42.3	19.8	0.00e+00	0	38	0	814743552	54	6669
2026-01-02 03:35:07.27	318.09	6.79	-40.9	-42.2	19.9	0.00e+00	41	38	0	816840704	54	6612
2026-01-02 03:35:08.28	318.24	6.76	-41.1	-42.6	19.5	0.00e+00	0	38	0	818937856	54	6859
2026-01-02 03:35:08.98	318.34	6.74	-41.0	-42.4	19.7	0.00e+00	0	38	0	821035008	54	6725
2026-01-02 03:35:10.28	318.53	6.70	-41.3	-42.8	19.3	0.00e+00	72	38	0	823132160	54	7069
2026-01-02 03:35:11.00	318.63	6.67	-41.2	-42.7	19.5	0.00e+00	0	38	0	824180736	54	6970
2026-01-02 03:35:12.30	318.82	6.63	-41.2	-42.7	19.4	0.00e+00	1	38	0	827326464	54	6930
2026-01-02 03:35:13.02	318.92	6.61	-41.5	-43.0	19.2	0.00e+00	0	38	0	828375040	54	7249
2026-01-02 03:35:14.32	319.11	6.57	-41.4	-42.9	19.3	0.00e+00	0	38	0	830472192	54	7093
2026-01-02 03:35:15.04	319.21	6.54	-41.5	-43.0	19.1	0.00e+00	0	38	0	831520768	54	7226
2026-01-02 03:35:16.34	319.40	6.50	-41.4	-42.9	19.2	0.00e+00	0	38	0	834666496	54	7112
2026-01-02 03:35:17.06	319.50	6.48	-41.3	-42.8	19.3	0.00e+00	0	38	0	835715072	54	7032
2026-01-02 03:35:18.36	319.69	6.43	-41.6	-43.2	19.0	0.00e+00	0	38	0	837812224	54	7371
2026-01-02 03:35:19.08	319.79	6.41	-41.7	-43.2	18.9	0.00e+00	92	38	0	839909376	56	6611
2026-01-02 03:35:20.37	319.97	6.37	-42.0	-43.7	18.5	0.00e+00	0	38	0	842006528	56	6933
2026-01-02 03:35:21.09	320.08	6.34	-42.1	-43.8	18.5	0.00e+00	92	38	0	843055104	56	7034
2026-01-02 03:35:22.39	320.26	6.30	-42.5	-44.4	17.7	0.00e+00	0	38	0	846200832	56	7538
2026-01-02 03:35:23.11	320.36	6.28	-42.7	-44.6	17.5	0.00e+00	0	38	0	847249408	56	7769
2026-01-02 03:35:24.41	320.54	6.23	-43.0	-45.1	17.1	0.00e+00	65	38	0	849346560	58	7286
2026-01-02 03:35:25.13	320.65	6.21	-43.1	-45.2	16.9	0.00e+00	0	38	0	851443712	58	7356
2026-01-02 03:35:26.43	320.83	6.17	-43.0	-45.1	17.1	0.00e+00	92	38	0	853540864	58	7285
2026-01-02 03:35:27.15	320.93	6.14	-43.1	-45.2	16.9	0.00e+00	27	38	0	854589440	58	7387
2026-01-02 03:35:28.45	321.11	6.10	-42.8	-44.9	17.4	0.00e+00	0	38	0	857735168	58	7102
2026-01-02 03:35:29.17	321.21	6.07	-42.6	-44.4	17.7	0.00e+00	0	38	0	858783744	58	6766
2026-01-02 03:35:30.47	321.39	6.03	-42.4	-44.2	18.0	0.00e+00	0	38	0	860880896	58	6558
2026-01-02 03:35:31.19	321.49	6.00	-42.3	-44.0	18.0	0.00e+00	0	38	0	861929472	58	6460
2026-01-02 03:35:32.48	321.67	5.96	-42.2	-43.9	18.2	0.00e+00	0	38	0	865075200	58	6378
2026-01-02 03:35:33.20	321.77	5.94	-42.2	-43.9	18.2	0.00e+00	0	38	0	866123776	58	6374
2026-01-02 03:35:34.50	321.95	5.89	-41.9	-43.6	18.6	0.00e+00	0	38	0	868220928	58	6130
2026-01-02 03:35:35.22	322.04	5.87	-41.9	-43.6	18.5	0.00e+00	92	38	0	870318080	56	6855
2026-01-02 03:35:36.52	322.22	5.82	-42.3	-44.1	18.2	0.00e+00	0	38	0	872415232	56	7256
2026-01-02 03:35:37.24	322.32	5.80	-42.1	-43.8	18.4	0.00e+00	80	38	0	873463808	56	7068
2026-01-02 03:35:38.54	322.50	5.75	-41.7	-43.3	18.6	0.00e+00	67	38	0	875560960	56	6654
2026-01-02 03:35:39.26	322.60	5.73	-42.0	-43.7	18.4	0.00e+00	0	38	0	877658112	56	6993
2026-01-02 03:35:40.56	322.77	5.68	-42.1	-43.8	18.2	0.00e+00	90	38	0	879755264	56	7062
2026-01-02 03:35:41.28	322.87	5.65	-42.0	-43.7	18.3	0.00e+00	0	38	0	880803840	56	7004
2026-01-02 03:35:42.58	323.05	5.61	-42.5	-44.4	17.7	0.00e+00	0	38	0	883949568	56	7566
2026-01-02 03:35:43.30	323.14	5.58	-42.7	-44.6	17.6	0.00e+00	0	38	0	884998144	56	7726
2026-01-02 03:35:44.60	323.32	5.54	-42.7	-44.6	17.6	0.00e+00	0	38	0	887095296	56	7724
2026-01-02 03:35:45.32	323.41	5.51	-42.5	-44.4	17.8	0.00e+00	0	38	0	889192448	56	7546
2026-01-02 03:35:46.61	323.59	5.47	-42.6	-44.6	17.5	0.00e+00	0	38	0	891289600	56	7687
2026-01-02 03:35:47.34	323.68	5.44	-42.7	-44.6	17.4	0.00e+00	0	38	0	892338176	56	7765
2026-01-02 03:35:48.63	323.86	5.40	-42.5	-44.4	17.6	0.00e+00	0	38	0	895483904	58	6763
2026-01-02 03:35:49.36	323.95	5.37	-42.6	-44.5	17.5	0.00e+00	64	38	0	896532480	58	6830
2026-01-02 03:35:50.65	324.12	5.32	-42.4	-44.2	17.8	0.00e+00	0	38	0	898629632	58	6594
2026-01-02 03:35:51.37	324.22	5.30	-42.2	-44.0	18.0	0.00e+00	76	38	0	899678208	58	6434
2026-01-02 03:35:52.67	324.39	5.25	-42.0	-43.8	18.3	0.00e+00	0	38	0	902823936	58	6250
2026-01-02 03:35:53.39	324.48	5.22	-41.9	-43.6	18.4	0.00e+00	0	38	0	903872512	58	6142
2026-01-02 03:35:54.69	324.65	5.18	-41.6	-43.2	18.7	0.00e+00	70	38	0	905969664	56	6591
2026-01-02 03:35:55.41	324.75	5.15	-41.6	-43.2	18.8	0.00e+00	0	38	0	908066816	56	6558
2026-01-02 03:35:56.71	324.92	5.10	-41.8	-43.5	18.6	0.00e+00	90	38	0	910163968	56	6785
2026-01-02 03:35:57.43	325.01	5.08	-42.0	-43.8	18.3	0.00e+00	0	38	0	911212544	56	7012
2026-01-02 03:35:58.73	325.18	5.03	-41.9	-43.6	18.4	0.00e+00	0	38	0	914358272	56	6891
2026-01-02 03:35:59.45	325.28	5.01	-42.2	-44.0	18.0	0.00e+00	0	38	0	915406848	56	7182
2026-01-02 03:36:00.74	325.44	4.96	-42.4	-44.2	17.9	0.00e+00	0	38	0	917504000	56	7366
2026-01-02 03:36:01.47	325.54	4.93	-42.4	-44.3	17.7	0.00e+00	0	38	0	919601152	56	7486
2026-01-02 03:36:02.77	325.70	4.88	-42.3	-44.1	17.9	0.00e+00	0	38	0	921698304	56	7331
2026-01-02 03:36:03.49	325.80	4.86	-42.4	-44.3	17.6	0.00e+00	67	38	0	922746880	56	7451
2026-01-02 03:36:04.79	325.96	4.81	-42.2	-44.0	18.0	0.00e+00	0	38	0	924844032	56	7181
2026-01-02 03:36:05.51	326.05	4.78	-42.1	-43.9	18.0	0.00e+00	92	38	0	926941184	56	7167
2026-01-02 03:36:06.80	326.22	4.74	-42.2	-44.0	18.1	0.00e+00	0	38	0	929038336	56	7245
2026-01-02 03:36:07.53	326.31	4.71	-41.8	-43.5	18.5	0.00e+00	0	38	0	930086912	56	6779
2026-01-02 03:36:08.82	326.48	4.66	-41.5	-43.1	18.8	0.00e+00	17	38	0	933232640	56	6535
2026-01-02 03:36:09.54	326.57	4.63	-41.7	-43.4	18.4	0.00e+00	0	38	0	934281216	56	6734
2026-01-02 03:36:10.84	326.73	4.59	-41.4	-43.0	18.8	0.00e+00	83	38	0	936378368	56	6453
2026-01-02 03:36:11.57	326.82	4.56	-41.2	-42.8	19.0	0.00e+00	0	38	0	938475520	56	6266
2026-01-02 03:36:12.87	326.99	4.51	-41.2	-42.7	19.0	0.00e+00	0	38	0	940572672	56	6198
2026-01-02 03:36:13.59	327.08	4.48	-41.1	-42.6	19.2	0.00e+00	0	38	0	941621248	56	6136
2026-01-02 03:36:14.88	327.24	4.44	-41.1	-42.6	19.1	0.00e+00	0	38	0	943718400	56	6172
2026-01-02 03:36:15.61	327.33	4.41	-41.3	-42.8	18.9	0.00e+00	0	38	0	945815552	56	6313
2026-01-02 03:36:16.91	327.49	4.36	-41.1	-42.6	19.1	0.00e+00	0	38	0	947912704	56	6129
2026-01-02 03:36:17.63	327.58	4.33	-41.2	-42.7	19.1	0.00e+00	0	38	0	948961280	56	6226
2026-01-02 03:36:18.92	327.74	4.28	-41.5	-43.2	18.6	0.00e+00	0	38	0	952107008	56	6553
2026-01-02 03:36:19.64	327.83	4.26	-41.3	-42.9	18.8	0.00e+00	78	38	0	953155584	56	6328
2026-01-02 03:36:20.94	327.99	4.21	-41.4	-43.0	18.8	0.00e+00	0	38	0	955252736	56	6406
2026-01-02 03:36:21.66	328.08	4.18	-41.7	-43.5	18.3	0.00e+00	90	38	0	957349888	56	6772
2026-01-02 03:36:22.96	328.24	4.13	-42.0	-43.9	17.8	0.00e+00	73	38	0	959447040	56	7112
2026-01-02 03:36:23.68	328.32	4.10	-42.2	-44.0	17.7	0.00e+00	0	38	0	960495616	56	7229
2026-01-02 03:36:24.98	328.48	4.06	-41.8	-43.6	18.0	0.00e+00	90	38	0	963641344	56	6869
2026-01-02 03:36:25.70	328.57	4.03	-41.8	-43.6	18.2	0.00e+00	0	38	0	964689920	56	6863
2026-01-02 03:36:27.00	328.73	3.98	-41.8	-43.5	18.2	0.00e+00	0	38	0	966787072	56	6821
2026-01-02 03:36:27.72	328.81	3.95	-42.1	-44.0	17.7	0.00e+00	0	38	0	967835648	56	7226
2026-01-02 03:36:29.02	328.97	3.90	-42.2	-44.1	17.9	0.00e+00	0	38	0	970981376	56	7263
2026-01-02 03:36:29.74	329.06	3.87	-42.3	-44.3	17.5	0.00e+00	0	38	0	972029952	56	7444
2026-01-02 03:36:31.04	329.21	3.82	-42.2	-44.1	17.7	0.00e+00	0	38	0	974127104	56	7310
2026-01-02 03:36:31.76	329.30	3.80	-41.8	-43.6	17.9	0.00e+00	0	38	0	976224256	56	6884
2026-01-02 03:36:33.06	329.46	3.75	-42.0	-43.8	17.7	0.00e+00	0	38	0	978321408	56	7056
2026-01-02 03:36:33.78	329.54	3.72	-42.1	-44.1	17.5	0.00e+00	26	38	0	979369984	56	7267
2026-01-02 03:36:35.07	329.69	3.67	-41.3	-43.0	18.5	0.00e+00	0	38	0	982515712	56	6392
2026-01-02 03:36:35.79	329.78	3.64	-41.2	-42.9	18.5	0.00e+00	90	38	0	983564288	56	6323
2026-01-02 03:36:37.09	329.93	3.59	-41.8	-43.6	17.8	0.00e+00	17	38	0	985661440	56	6911
2026-01-02 03:36:37.81	330.02	3.56	-41.4	-43.1	18.2	0.00e+00	0	38	0	987758592	56	6539
2026-01-02 03:36:39.11	330.17	3.51	-41.3	-43.1	18.2	0.00e+00	68	38	0	989855744	56	6477
2026-01-02 03:36:39.83	330.26	3.49	-41.2	-42.9	18.4	0.00e+00	0	38	0	990904320	56	6318
2026-01-02 03:36:41.13	330.41	3.44	-41.6	-43.4	17.7	0.00e+00	92	38	0	993001472	56	6751
2026-01-02 03:36:41.85	330.49	3.41	-41.4	-43.3	17.8	0.00e+00	0	38	0	995098624	56	6622
2026-01-02 03:36:43.15	330.64	3.36	-41.6	-43.6	17.3	0.00e+00	0	38	0	997195776	56	6856
2026-01-02 03:36:43.87	330.73	3.33	-41.9	-44.0	16.8	0.00e+00	0	38	0	998244352	56	7247
2026-01-02 03:36:45.17	330.88	3.28	-42.7	-45.5	15.0	0.00e+00	33	38	0	1001390080	56	8570
2026-01-02 03:36:45.89	330.96	3.25	-42.9	-45.8	14.6	0.00e+00	0	38	0	1002438656	58	7945
2026-01-02 03:36:47.19	331.11	3.20	-42.8	-46.0	13.8	1.50e-06	0	38	0	1004535808	58	8097
2026-01-02 03:36:47.91	331.19	3.17	-43.6	-47.6	12.1	1.52e-05	75	38	0	1006632960	58	9735
2026-01-02 03:36:49.21	331.34	3.12	-43.4	-47.7	11.3	5.28e-04	0	38	0	1008730112	58	9887
2026-01-02 03:36:49.93	331.43	3.10	-43.6	-48.7	9.9	3.74e-03	79	38	0	1009778688	58	11024
2026-01-02 03:36:51.23	331.57	3.04	-44.0	-50.8	7.3	7.34e-02	0	38	0	1011875840	60	12462
2026-01-02 03:36:51.95	331.66	3.02	-44.0	-51.2	6.5	1.74e-01	0	38	0	1013972992	60	13192
2026-01-02 03:36:53.25	331.80	2.97	-48.1	-63.3	3.5	1.33e+00	0	38	104	1015021568	60	52682
2026-01-02 03:36:53.97	331.89	2.94	-48.4	-63.6	3.6	1.51e+00	0	38	104	1015021568	60	54835
2026-01-02 03:36:55.26	332.03	2.89	-48.8	-63.9	3.5	1.51e+00	0	38	104	1015021568	60	56854
2026-01-02 03:36:55.99	332.11	2.86	-48.9	-64.0	3.6	1.51e+00	0	38	104	1015021568	60	57555
2026-01-02 03:36:57.28	332.26	2.81	-49.0	-64.2	3.6	1.51e+00	0	38	104	1015021568	60	58633
2026-01-02 03:36:58.00	332.34	2.78	-49.1	-64.3	3.6	1.51e+00	0	38	104	1015021568	60	59070
2026-01-02 03:36:59.30	332.48	2.73	-49.2	-64.4	3.6	1.51e+00	0	38	104	1015021568	60	59706
2026-01-02 03:37:00.02	332.56	2.70	-49.2	-64.3	3.6	1.51e+00	0	38	104	1015021568	60	59552
2026-01-02 03:37:01.32	332.71	2.65	-49.1	-64.3	3.6	1.51e+00	0	38	104	1015021568	60	59386
2026-01-02 03:37:02.04	332.79	2.62	-49.1	-64.3	3.6	1.51e+00	0	38	104	1015021568	60	59554
2026-01-02 03:37:03.34	332.93	2.57	-49.0	-64.3	3.6	1.51e+00	0	38	104	1015021568	60	59454
2026-01-02 03:37:04.06	333.01	2.54	-49.1	-64.2	3.6	1.51e+00	0	38	104	1015021568	60	58947
2026-01-02 03:37:05.36	333.16	2.49	-49.1	-64.2	3.6	1.51e+00	0	38	104	1015021568	60	58939
2026-01-02 03:37:06.08	333.23	2.46	-49.1	-64.2	3.6	1.51e+00	0	38	104	1015021568	60	58917
2026-01-02 03:37:07.38	333.38	2.41	-49.0	-64.3	3.6	1.51e+00	0	38	104	1015021568	60	58968
2026-01-02 03:37:08.10	333.46	2.38	-49.1	-64.3	3.6	1.51e+00	0	38	104	1015021568	60	59270
2026-01-02 03:37:09.40	333.60	2.33	-49.0	-64.3	3.6	1.51e+00	0	38	104	1015021568	60	58988
2026-01-02 03:37:10.13	333.68	2.30	-49.2	-64.4	3.6	1.51e+00	0	38	104	1015021568	60	59908
2026-01-02 03:37:11.43	333.82	2.25	-49.2	-64.4	3.6	1.51e+00	0	38	104	1015021568	60	59865
2026-01-02 03:37:12.15	333.90	2.22	-49.2	-64.4	3.6	1.51e+00	0	38	104	1015021568	60	59815
2026-01-02 03:37:13.45	334.04	2.17	-49.1	-64.3	3.6	1.51e+00	0	38	104	1015021568	60	59293
2026-01-02 03:37:14.17	334.11	2.14	-49.1	-64.3	3.6	1.51e+00	0	38	104	1015021568	60	59065
2026-01-02 03:37:15.47	334.25	2.09	-49.1	-64.4	3.6	1.51e+00	0	38	104	1015021568	60	59730
2026-01-02 03:37:16.19	334.33	2.06	-49.1	-64.3	3.6	1.51e+00	0	38	104	1015021568	60	59236
2026-01-02 03:37:17.48	334.47	2.01	-49.0	-64.2	3.6	1.51e+00	0	38	104	1015021568	60	58524
2026-01-02 03:37:18.20	334.54	1.98	-49.0	-64.3	3.5	1.51e+00	0	38	104	1015021568	60	59008
2026-01-02 03:37:19.50	334.68	1.93	-49.1	-64.3	3.6	1.51e+00	0	38	104	1015021568	60	59162
2026-01-02 03:37:20.22	334.76	1.90	-49.1	-64.4	3.6	1.51e+00	0	38	104	1015021568	60	59685
2026-01-02 03:37:21.52	334.90	1.85	-49.2	-64.4	3.6	1.51e+00	0	38	104	1015021568	60	60160
2026-01-02 03:37:22.24	334.97	1.82	-49.1	-64.3	3.6	1.51e+00	0	38	104	1015021568	60	59311
2026-01-02 03:37:23.54	335.11	1.77	-49.1	-64.3	3.6	1.51e+00	0	38	104	1015021568	60	59179
2026-01-02 03:37:24.26	335.18	1.74	-49.1	-64.2	3.6	1.51e+00	0	38	104	1015021568	60	58929
2026-01-02 03:37:25.56	335.32	1.69	-49.1	-64.3	3.6	1.51e+00	0	38	104	1015021568	60	59239
2026-01-02 03:37:26.28	335.39	1.66	-49.1	-64.3	3.6	1.51e+00	0	38	104	1015021568	60	59052
2026-01-02 03:37:27.58	335.53	1.61	-49.0	-64.2	3.6	1.51e+00	0	38	104	1015021568	60	58767
2026-01-02 03:37:28.30	335.60	1.58	-49.0	-64.3	3.6	1.51e+00	0	38	104	1015021568	60	58977
2026-01-02 03:37:29.60	335.74	1.53	-49.0	-64.3	3.6	1.51e+00	0	38	104	1015021568	60	59092
2026-01-02 03:37:30.32	335.81	1.50	-49.1	-64.3	3.6	1.51e+00	0	38	104	1015021568	60	59396
2026-01-02 03:37:31.62	335.95	1.45	-49.1	-64.2	3.6	1.51e+00	0	38	104	1015021568	60	58956
2026-01-02 03:37:32.34	336.02	1.42	-49.0	-64.3	3.6	1.51e+00	0	38	104	1015021568	60	59156
2026-01-02 03:37:33.64	336.15	1.37	-49.1	-64.3	3.6	1.51e+00	0	38	104	1015021568	60	59125
2026-01-02 03:37:34.36	336.23	1.34	-49.1	-64.3	3.6	1.51e+00	0	38	104	1015021568	60	59306
2026-01-02 03:37:35.66	336.36	1.28	-49.1	-64.3	3.6	1.51e+00	0	38	104	1015021568	60	59336
2026-01-02 03:37:36.38	336.43	1.26	-49.1	-64.4	3.6	1.51e+00	0	38	104	1015021568	60	59655
2026-01-02 03:37:37.68	336.57	1.20	-49.1	-64.3	3.6	1.51e+00	0	38	104	1015021568	60	59513
2026-01-02 03:37:38.40	336.64	1.17	-49.2	-64.3	3.6	1.51e+00	0	38	104	1015021568	60	59377
2026-01-02 03:37:39.70	336.77	1.12	-49.1	-64.3	3.6	1.51e+00	0	38	104	1015021568	60	59221
2026-01-02 03:37:40.42	336.84	1.09	-49.0	-64.3	3.6	1.51e+00	0	38	104	1015021568	60	59229
2026-01-02 03:37:41.71	336.97	1.04	-49.1	-64.2	3.6	1.51e+00	0	38	104	1015021568	60	58917
2026-01-02 03:37:42.44	337.04	1.01	-49.0	-64.2	3.6	1.51e+00	0	38	104	1015021568	60	58941
2026-01-02 03:37:43.73	337.17	0.96	-49.1	-64.3	3.6	1.51e+00	0	38	104	1015021568	60	59519
2026-01-02 03:37:44.45	337.24	0.93	-49.1	-64.3	3.6	1.51e+00	0	38	104	1015021568	60	59294
2026-01-02 03:37:45.75	337.37	0.88	-49.1	-64.3	3.6	1.51e+00	0	38	104	1015021568	60	59341
2026-01-02 03:37:46.47	337.45	0.85	-49.1	-64.4	3.6	1.51e+00	0	38	104	1015021568	60	59815
2026-01-02 03:37:47.77	337.57	0.80	-49.1	-64.3	3.6	1.51e+00	0	38	104	1015021568	60	59625
2026-01-02 03:37:48.50	337.65	0.77	-49.1	-64.4	3.6	1.51e+00	0	38	104	1015021568	60	59664
2026-01-02 03:37:49.79	337.77	0.72	-49.2	-64.3	3.6	1.51e+00	0	38	104	1015021568	60	59611
2026-01-02 03:37:50.52	337.84	0.69	-49.1	-64.3	3.6	1.51e+00	0	38	104	1015021568	60	59067
2026-01-02 03:37:51.81	337.97	0.64	-49.1	-64.3	3.6	1.51e+00	0	38	104	1015021568	60	59406
2026-01-02 03:37:52.54	338.04	0.61	-49.2	-64.3	3.6	1.51e+00	0	38	104	1015021568	60	59619
2026-01-02 03:37:53.83	338.17	0.55	-49.2	-64.4	3.6	1.51e+00	0	38	104	1015021568	60	59682
2026-01-02 03:37:54.56	338.24	0.53	-49.1	-64.3	3.6	1.51e+00	0	38	104	1015021568	60	59410
2026-01-02 03:37:55.86	338.36	0.47	-49.1	-64.3	3.6	1.51e+00	0	38	104	1015021568	60	59166
2026-01-02 03:37:56.58	338.43	0.44	-49.1	-64.3	3.6	1.51e+00	0	38	104	1015021568	60	59639
2026-01-02 03:37:57.88	338.56	0.39	-49.1	-64.3	3.6	1.51e+00	0	38	104	1015021568	60	59378
2026-01-02 03:37:58.60	338.63	0.36	-49.1	-64.2	3.6	1.51e+00	0	38	104	1015021568	60	58890
2026-01-02 03:37:59.90	338.75	0.31	-49.2	-64.3	3.6	1.51e+00	0	38	104	1015021568	60	59480
2026-01-02 03:38:00.62	338.82	0.28	-49.1	-64.3	3.6	1.51e+00	0	38	104	1015021568	60	59105
2026-01-02 03:38:01.92	338.94	0.23	-49.1	-64.3	3.6	1.51e+00	0	38	104	1015021568	60	59497
2026-01-02 03:38:02.64	339.01	0.20	-49.1	-64.3	3.6	1.51e+00	0	38	104	1015021568	60	59494
2026-01-02 03:38:03.94	339.14	0.15	-49.2	-64.3	3.6	1.51e+00	0	38	104	1015021568	60	59615
2026-01-02 03:38:04.66	339.20	0.12	-49.2	-64.4	3.6	1.51e+00	0	38	104	1015021568	60	59804
2026-01-02 03:38:05.96	339.33	0.07	-49.1	-64.3	3.6	1.51e+00	0	38	104	1015021568	60	59140
2026-01-02 03:38:06.68	339.39	0.04	-49.1	-64.4	3.6	1.51e+00	0	38	104	1015021568	60	59653
2026-01-02 03:38:07.98	339.52	-0.02	-49.1	-64.3	3.6	1.51e+00	0	38	104	1015021568	60	59497

#Closed at: 2026-01-02 03:38:08
#Recorded file [1015 MB]: D:/lorett/data/35029_260102_152640.dat