passes_logs/2026/01/02/R4.6S_Anadyr/R4.6S_Anadyr__20260102_002241_NOAA_20_JPSS-1_rec.log

#Pass ID: 20260102_002241_NOAA 20 (JPSS-1)
#Satellite: NOAA 20 (JPSS-1)
#Configuration: NOAA 20
#almurnet v.1.7.20251203
#Start time: 2026-01-02 00:22:43

#Version: 2.2.20231116
#Station: R4.6S_Anadyr
#Location: 177.4865 lon 64.73178 lat
#TLE: 1 43013U 17073A   26001.58538444  .00000204  00000+0  11766-3 0  9998
#TLE: 2 43013  98.7621 302.6674 0001928  58.7850 301.3515 14.19532241420834

#Time	Az	El	Level	Level2	SNR	BER	BlckErr	Temp	State	Recorded	gain1	gain2
2026-01-02 00:22:43.81	160.33	0.16	-49.2	-64.1	3.5	1.51e+00	0	37	0	0	60	57964
2026-01-02 00:22:44.82	160.34	0.22	-49.3	-64.5	3.6	1.51e+00	0	38	104	0	60	60540
2026-01-02 00:22:45.83	160.35	0.28	-49.3	-64.5	3.6	1.51e+00	0	38	104	0	60	60539
2026-01-02 00:22:46.84	160.35	0.34	-49.3	-64.5	3.6	1.51e+00	0	38	104	0	60	60518
2026-01-02 00:22:47.85	160.36	0.40	-49.3	-64.5	3.6	1.51e+00	0	38	104	0	60	60796
2026-01-02 00:22:48.86	160.37	0.46	-49.4	-64.6	3.6	1.51e+00	0	38	104	0	60	61074
2026-01-02 00:22:49.86	160.38	0.52	-49.4	-64.6	3.6	1.51e+00	0	38	104	0	60	61151
2026-01-02 00:22:50.87	160.39	0.59	-49.3	-64.6	3.6	1.51e+00	0	38	104	0	60	61101
2026-01-02 00:22:51.88	160.40	0.65	-49.3	-64.5	3.6	1.51e+00	0	38	104	0	60	60458
2026-01-02 00:22:52.89	160.40	0.71	-49.2	-64.4	3.6	1.51e+00	0	38	104	0	60	59851
2026-01-02 00:22:53.90	160.41	0.77	-49.1	-64.3	3.6	1.51e+00	0	38	104	0	60	58965
2026-01-02 00:22:54.91	160.42	0.83	-48.9	-64.1	3.6	1.51e+00	0	38	104	0	60	58022
2026-01-02 00:22:55.92	160.43	0.90	-48.7	-63.9	3.6	1.51e+00	0	38	104	0	60	56595
2026-01-02 00:22:56.93	160.44	0.96	-47.5	-62.8	3.6	1.51e+00	0	38	104	0	60	49670
2026-01-02 00:22:57.94	160.45	1.02	-48.1	-63.2	3.6	1.51e+00	0	38	104	0	60	52461
2026-01-02 00:22:58.95	160.46	1.08	-47.9	-63.1	3.6	1.51e+00	0	38	104	0	60	51643
2026-01-02 00:22:59.96	160.47	1.15	-47.9	-63.1	3.6	1.51e+00	0	38	104	0	60	51451
2026-01-02 00:23:00.97	160.47	1.21	-47.9	-63.1	3.6	1.51e+00	0	38	104	0	60	51633
2026-01-02 00:23:01.98	160.48	1.27	-47.9	-63.1	3.6	1.51e+00	0	38	104	0	60	51438
2026-01-02 00:23:02.99	160.49	1.34	-47.9	-63.0	3.6	1.51e+00	0	38	104	0	60	51116
2026-01-02 00:23:04.00	160.50	1.40	-47.9	-63.0	3.6	1.51e+00	0	38	104	0	60	51066
2026-01-02 00:23:05.01	160.51	1.46	-47.9	-63.0	3.6	1.51e+00	0	38	104	0	60	51003
2026-01-02 00:23:06.02	160.52	1.53	-47.9	-62.9	3.6	1.51e+00	0	38	104	0	60	50624
2026-01-02 00:23:07.03	160.53	1.59	-47.9	-62.7	3.6	1.51e+00	0	38	104	0	60	49572
2026-01-02 00:23:08.04	160.54	1.65	-47.9	-62.7	3.6	1.51e+00	0	38	104	0	60	49438
2026-01-02 00:23:09.05	160.55	1.72	-47.9	-62.7	3.6	1.51e+00	0	38	104	0	60	49138
2026-01-02 00:23:10.05	160.55	1.78	-47.9	-62.6	3.6	1.51e+00	0	38	104	0	60	48868
2026-01-02 00:23:11.06	160.56	1.85	-47.9	-62.8	3.6	1.51e+00	0	38	104	0	60	49719
2026-01-02 00:23:12.07	160.57	1.91	-47.9	-62.8	3.6	1.51e+00	0	38	104	0	60	50015
2026-01-02 00:23:13.08	160.58	1.98	-47.9	-62.8	3.6	1.51e+00	0	38	104	0	60	50047
2026-01-02 00:23:14.09	160.59	2.04	-47.9	-63.0	3.6	1.51e+00	0	38	104	0	60	50830
2026-01-02 00:23:15.10	160.60	2.11	-47.9	-63.0	3.6	1.51e+00	0	38	104	0	60	51259
2026-01-02 00:23:16.11	160.61	2.17	-47.9	-63.0	3.6	1.51e+00	0	39	104	0	60	51258
2026-01-02 00:23:17.12	160.62	2.24	-47.9	-63.0	3.6	1.51e+00	0	38	104	0	60	51309
2026-01-02 00:23:18.13	160.63	2.30	-47.9	-63.0	3.6	1.51e+00	0	39	104	0	60	51222
2026-01-02 00:23:19.14	160.64	2.37	-47.8	-63.0	3.6	1.51e+00	0	38	104	0	60	51139
2026-01-02 00:23:20.15	160.65	2.43	-47.9	-63.0	3.6	1.51e+00	0	38	104	0	60	51013
2026-01-02 00:23:21.16	160.66	2.50	-47.9	-63.0	3.6	1.51e+00	0	39	104	0	60	50982
2026-01-02 00:23:22.17	160.67	2.56	-47.9	-62.9	3.6	1.51e+00	0	38	104	0	60	50694
2026-01-02 00:23:23.18	160.67	2.63	-47.8	-62.8	3.6	1.51e+00	0	38	104	0	60	49885
2026-01-02 00:23:24.19	160.68	2.70	-47.8	-62.4	3.6	1.51e+00	0	38	104	0	60	47880
2026-01-02 00:23:25.20	160.69	2.76	-47.8	-62.1	3.6	1.51e+00	0	38	104	0	60	46103
2026-01-02 00:23:26.21	160.70	2.83	-47.8	-62.0	3.6	1.51e+00	0	38	104	0	60	45706
2026-01-02 00:23:27.22	160.71	2.90	-47.8	-61.9	3.6	1.51e+00	0	38	104	0	60	44860
2026-01-02 00:23:28.23	160.72	2.96	-47.8	-62.1	3.6	1.51e+00	0	39	104	0	60	46125
2026-01-02 00:23:29.24	160.73	3.03	-47.8	-62.1	3.6	1.51e+00	0	39	104	0	60	46278
2026-01-02 00:23:30.25	160.74	3.10	-47.8	-61.8	3.6	1.51e+00	0	38	104	0	60	44261
2026-01-02 00:23:31.26	160.75	3.17	-47.7	-60.2	3.8	1.51e+00	0	39	104	0	60	36967
2026-01-02 00:23:32.27	160.76	3.23	-47.5	-56.6	4.7	1.39e+00	92	38	0	0	60	24530
2026-01-02 00:23:33.28	160.77	3.30	-47.2	-54.5	6.5	3.34e-01	92	39	0	2097152	60	19147
2026-01-02 00:23:34.29	160.78	3.37	-46.7	-52.5	8.9	8.18e-02	0	39	0	4194304	60	15329
2026-01-02 00:23:35.30	160.79	3.44	-46.1	-50.8	11.1	1.20e-02	92	39	0	6291456	60	12540
2026-01-02 00:23:36.31	160.80	3.51	-45.6	-49.7	12.3	6.28e-04	0	39	0	8388608	60	11025
2026-01-02 00:23:37.32	160.81	3.57	-45.1	-48.5	13.5	1.28e-04	92	38	0	9437184	60	9654
2026-01-02 00:23:38.33	160.82	3.64	-44.8	-48.0	14.0	1.29e-05	33	39	0	11534336	60	9059
2026-01-02 00:23:39.34	160.83	3.71	-44.5	-47.5	14.5	7.00e-07	60	39	0	13631488	60	8577
2026-01-02 00:23:40.35	160.84	3.78	-44.5	-47.5	14.6	0.00e+00	92	39	0	15728640	60	8531
2026-01-02 00:23:41.36	160.85	3.85	-44.6	-47.7	14.3	0.00e+00	90	38	0	17825792	60	8775
2026-01-02 00:23:42.37	160.86	3.92	-45.9	-50.4	8.2	3.94e-04	92	39	0	18874368	60	11972
2026-01-02 00:23:43.38	160.87	3.99	-47.8	-60.4	5.5	1.50e+00	0	39	104	19922944	60	37831
2026-01-02 00:23:44.39	160.88	4.06	-43.6	-46.0	15.7	0.00e+00	92	39	0	20971520	60	7210
2026-01-02 00:23:45.40	160.89	4.13	-47.4	-56.0	4.8	1.48e+00	0	39	104	22020096	60	22680
2026-01-02 00:23:46.41	160.90	4.20	-43.1	-45.2	16.7	5.93e-01	92	38	104	22020096	60	6565
2026-01-02 00:23:47.42	160.91	4.27	-47.2	-55.2	8.1	1.19e+00	92	39	104	22020096	60	20885
2026-01-02 00:23:48.43	160.92	4.34	-43.0	-45.1	17.2	0.00e+00	0	39	0	22020096	60	6513
2026-01-02 00:23:49.44	160.93	4.41	-43.2	-45.3	17.1	0.00e+00	92	39	0	24117248	60	6631
2026-01-02 00:23:50.45	160.94	4.48	-43.1	-45.3	17.1	0.00e+00	0	39	0	26214400	60	6620
2026-01-02 00:23:51.46	160.95	4.55	-42.6	-44.5	17.5	0.00e+00	92	39	0	28311552	58	6835
2026-01-02 00:23:52.47	160.96	4.62	-42.7	-44.6	17.5	0.00e+00	0	39	0	30408704	58	6867
2026-01-02 00:23:53.48	160.97	4.69	-42.5	-44.4	17.8	0.00e+00	92	39	0	31457280	58	6695
2026-01-02 00:23:54.48	160.98	4.76	-42.3	-44.1	18.2	0.00e+00	90	39	0	33554432	58	6471
2026-01-02 00:23:55.49	160.99	4.84	-42.3	-44.1	18.2	0.00e+00	7	39	0	35651584	58	6480
2026-01-02 00:23:56.51	161.00	4.91	-42.1	-43.8	18.4	0.00e+00	92	39	0	37748736	58	6285
2026-01-02 00:23:57.52	161.01	4.98	-42.2	-43.9	18.4	0.00e+00	21	39	0	39845888	58	6360
2026-01-02 00:23:58.53	161.02	5.05	-42.2	-43.9	18.4	0.00e+00	90	39	0	40894464	58	6341
2026-01-02 00:23:59.54	161.03	5.13	-42.2	-44.0	18.3	0.00e+00	45	39	0	42991616	58	6421
2026-01-02 00:24:00.55	161.04	5.20	-42.1	-43.8	18.5	0.00e+00	92	39	0	45088768	58	6288
2026-01-02 00:24:01.56	161.05	5.27	-42.0	-43.7	18.6	0.00e+00	92	39	0	47185920	58	6186
2026-01-02 00:24:02.57	161.06	5.35	-42.1	-43.7	18.5	0.00e+00	92	39	0	49283072	58	6237
2026-01-02 00:24:03.58	161.08	5.42	-42.1	-43.8	18.6	0.00e+00	90	39	0	50331648	58	6271
2026-01-02 00:24:04.58	161.09	5.49	-42.0	-43.7	18.7	0.00e+00	6	39	0	52428800	58	6184
2026-01-02 00:24:05.59	161.10	5.57	-42.0	-43.7	18.6	0.00e+00	90	39	0	54525952	58	6207
2026-01-02 00:24:06.60	161.11	5.64	-42.1	-43.7	18.6	0.00e+00	45	39	0	56623104	58	6220
2026-01-02 00:24:07.61	161.12	5.71	-41.9	-43.6	18.7	0.00e+00	92	39	0	58720256	58	6116
2026-01-02 00:24:08.62	161.13	5.79	-42.0	-43.7	18.7	0.00e+00	69	39	0	59768832	58	6196
2026-01-02 00:24:09.63	161.14	5.86	-41.9	-43.6	18.8	0.00e+00	92	39	0	61865984	58	6110
2026-01-02 00:24:10.64	161.15	5.94	-42.1	-43.8	18.5	0.00e+00	92	39	0	63963136	58	6264
2026-01-02 00:24:11.65	161.16	6.01	-41.9	-43.5	18.8	0.00e+00	13	39	0	66060288	58	6086
2026-01-02 00:24:12.66	161.17	6.09	-42.0	-43.7	18.8	0.00e+00	92	39	0	68157440	58	6180
2026-01-02 00:24:13.67	161.18	6.16	-41.9	-43.5	18.9	0.00e+00	13	39	0	69206016	58	6052
2026-01-02 00:24:14.68	161.20	6.24	-42.0	-43.6	18.8	0.00e+00	91	39	0	71303168	58	6124
2026-01-02 00:24:15.69	161.21	6.31	-41.8	-43.4	19.0	0.00e+00	0	39	0	73400320	58	5980
2026-01-02 00:24:16.70	161.22	6.39	-41.9	-43.5	18.9	0.00e+00	92	39	0	75497472	58	6050
2026-01-02 00:24:17.71	161.23	6.47	-41.9	-43.4	19.0	0.00e+00	90	39	0	77594624	56	6761
2026-01-02 00:24:18.72	161.24	6.54	-41.8	-43.3	19.1	0.00e+00	92	39	0	78643200	56	6682
2026-01-02 00:24:19.73	161.25	6.62	-41.8	-43.3	19.2	0.00e+00	90	39	0	80740352	56	6649
2026-01-02 00:24:20.74	161.26	6.70	-41.8	-43.3	19.2	0.00e+00	50	39	0	82837504	56	6649
2026-01-02 00:24:21.74	161.27	6.77	-41.6	-43.1	19.3	0.00e+00	92	39	0	84934656	56	6535
2026-01-02 00:24:22.75	161.29	6.85	-41.6	-43.1	19.3	0.00e+00	37	39	0	87031808	56	6520
2026-01-02 00:24:23.76	161.30	6.93	-41.8	-43.3	19.1	0.00e+00	92	39	0	88080384	56	6681
2026-01-02 00:24:24.77	161.31	7.01	-41.7	-43.2	19.3	0.00e+00	36	39	0	90177536	56	6592
2026-01-02 00:24:25.78	161.32	7.08	-41.7	-43.3	19.2	0.00e+00	92	39	0	92274688	56	6622
2026-01-02 00:24:26.79	161.33	7.16	-41.7	-43.2	19.2	0.00e+00	92	39	0	94371840	56	6608
2026-01-02 00:24:27.80	161.34	7.24	-41.6	-43.1	19.4	0.00e+00	8	39	0	96468992	56	6480
2026-01-02 00:24:28.81	161.36	7.32	-41.6	-43.1	19.4	0.00e+00	92	39	0	98566144	56	6500
2026-01-02 00:24:29.82	161.37	7.40	-41.7	-43.2	19.4	0.00e+00	0	39	0	99614720	56	6549
2026-01-02 00:24:30.83	161.38	7.48	-41.7	-43.1	19.4	0.00e+00	92	39	0	101711872	56	6537
2026-01-02 00:24:31.83	161.39	7.56	-41.7	-43.1	19.4	0.00e+00	0	39	0	103809024	56	6538
2026-01-02 00:24:32.84	161.40	7.64	-41.7	-43.2	19.4	0.00e+00	92	39	0	105906176	56	6548
2026-01-02 00:24:33.85	161.41	7.72	-41.6	-43.1	19.4	0.00e+00	90	39	0	108003328	56	6506
2026-01-02 00:24:34.86	161.43	7.80	-41.6	-43.0	19.6	0.00e+00	31	39	0	109051904	56	6441
2026-01-02 00:24:35.86	161.44	7.88	-41.6	-43.0	19.5	0.00e+00	92	39	0	111149056	56	6450
2026-01-02 00:24:36.87	161.45	7.96	-41.4	-42.8	19.7	0.00e+00	0	39	0	113246208	56	6296
2026-01-02 00:24:37.88	161.46	8.04	-41.4	-42.9	19.7	0.00e+00	90	39	0	115343360	56	6323
2026-01-02 00:24:38.89	161.48	8.12	-41.5	-42.9	19.7	0.00e+00	0	39	0	117440512	56	6373
2026-01-02 00:24:39.91	161.49	8.20	-41.3	-42.7	19.8	0.00e+00	92	39	0	118489088	56	6223
2026-01-02 00:24:40.91	161.50	8.29	-41.4	-42.8	19.8	0.00e+00	92	39	0	120586240	56	6267
2026-01-02 00:24:41.92	161.51	8.37	-41.4	-42.8	19.8	0.00e+00	89	39	0	122683392	56	6266
2026-01-02 00:24:42.93	161.52	8.45	-41.3	-42.7	20.0	0.00e+00	92	39	0	124780544	56	6214
2026-01-02 00:24:43.94	161.54	8.53	-41.2	-42.6	20.0	0.00e+00	43	39	0	126877696	56	6142
2026-01-02 00:24:44.95	161.55	8.62	-41.3	-42.7	19.9	0.00e+00	90	39	0	127926272	56	6213
2026-01-02 00:24:45.96	161.56	8.70	-41.3	-42.7	19.9	0.00e+00	48	39	0	130023424	56	6204
2026-01-02 00:24:46.97	161.57	8.78	-41.3	-42.7	19.9	0.00e+00	90	39	0	132120576	56	6175
2026-01-02 00:24:47.98	161.59	8.87	-41.1	-42.4	20.2	0.00e+00	14	39	0	134217728	56	6033
2026-01-02 00:24:48.98	161.60	8.95	-41.1	-42.4	20.2	0.00e+00	92	39	0	136314880	56	6007
2026-01-02 00:24:49.99	161.61	9.04	-41.1	-42.4	20.2	0.00e+00	90	39	0	137363456	56	6032
2026-01-02 00:24:51.00	161.63	9.12	-41.0	-42.3	20.3	0.00e+00	0	39	0	139460608	56	5952
2026-01-02 00:24:52.01	161.64	9.20	-41.0	-42.3	20.3	0.00e+00	91	39	0	141557760	56	5925
2026-01-02 00:24:53.02	161.65	9.29	-41.0	-42.4	20.4	0.00e+00	49	39	0	143654912	56	5965
2026-01-02 00:24:54.03	161.66	9.38	-41.1	-42.4	20.2	0.00e+00	91	39	0	145752064	56	6012
2026-01-02 00:24:55.04	161.68	9.46	-41.0	-42.3	20.3	0.00e+00	0	39	0	146800640	56	5927
2026-01-02 00:24:56.05	161.69	9.55	-41.0	-42.3	20.3	0.00e+00	92	39	0	148897792	56	5945
2026-01-02 00:24:57.06	161.70	9.63	-41.0	-42.3	20.4	0.00e+00	92	39	0	150994944	56	5925
2026-01-02 00:24:58.07	161.72	9.72	-41.0	-42.3	20.4	0.00e+00	89	39	0	153092096	56	5916
2026-01-02 00:24:59.08	161.73	9.81	-40.9	-42.2	20.5	0.00e+00	90	39	0	155189248	56	5855
2026-01-02 00:25:00.09	161.74	9.90	-41.1	-42.4	20.3	0.00e+00	0	39	0	156237824	56	5979
2026-01-02 00:25:01.10	161.76	9.98	-40.8	-42.1	20.6	0.00e+00	90	39	0	158334976	56	5792
2026-01-02 00:25:02.11	161.77	10.07	-40.9	-42.2	20.5	0.00e+00	0	39	0	160432128	56	5853
2026-01-02 00:25:03.12	161.78	10.16	-40.8	-42.0	20.7	0.00e+00	90	39	0	162529280	56	5749
2026-01-02 00:25:04.13	161.80	10.25	-40.9	-42.1	20.6	0.00e+00	92	39	0	164626432	56	5820
2026-01-02 00:25:05.14	161.81	10.34	-40.8	-42.1	20.6	0.00e+00	92	39	0	166723584	56	5794
2026-01-02 00:25:06.15	161.83	10.43	-40.6	-41.8	20.8	0.00e+00	92	39	0	167772160	54	6288
2026-01-02 00:25:07.16	161.84	10.52	-40.6	-41.9	20.8	0.00e+00	0	39	0	169869312	54	6324
2026-01-02 00:25:08.17	161.85	10.61	-40.6	-41.8	20.9	0.00e+00	92	39	0	171966464	54	6272
2026-01-02 00:25:09.17	161.87	10.70	-40.7	-42.0	20.7	0.00e+00	36	39	0	174063616	54	6427
2026-01-02 00:25:10.18	161.88	10.79	-40.6	-41.8	20.7	0.00e+00	92	39	0	176160768	54	6312
2026-01-02 00:25:11.20	161.90	10.88	-40.5	-41.7	21.0	0.00e+00	23	39	0	177209344	54	6187
2026-01-02 00:25:12.20	161.91	10.97	-40.5	-41.7	21.0	0.00e+00	92	39	0	179306496	54	6191
2026-01-02 00:25:13.21	161.92	11.06	-40.4	-41.6	21.0	0.00e+00	90	39	0	181403648	54	6170
2026-01-02 00:25:14.22	161.94	11.15	-40.5	-41.7	21.0	0.00e+00	0	39	0	183500800	54	6193
2026-01-02 00:25:15.23	161.95	11.24	-40.2	-41.3	21.3	0.00e+00	92	39	0	185597952	54	5944
2026-01-02 00:25:16.24	161.97	11.34	-40.2	-41.4	21.3	0.00e+00	0	39	0	186646528	54	5983
2026-01-02 00:25:17.25	161.98	11.43	-40.2	-41.4	21.3	0.00e+00	90	39	0	188743680	54	5985
2026-01-02 00:25:18.26	162.00	11.52	-40.1	-41.3	21.4	0.00e+00	0	39	0	190840832	54	5925
2026-01-02 00:25:19.27	162.01	11.62	-40.0	-41.1	21.5	0.00e+00	92	39	0	192937984	54	5818
2026-01-02 00:25:20.28	162.02	11.71	-40.0	-41.2	21.5	0.00e+00	91	39	0	195035136	54	5842
2026-01-02 00:25:21.29	162.04	11.81	-40.0	-41.2	21.5	0.00e+00	91	39	0	196083712	54	5833
2026-01-02 00:25:22.30	162.05	11.90	-39.9	-41.1	21.6	0.00e+00	91	39	0	198180864	54	5765
2026-01-02 00:25:23.31	162.07	12.00	-39.9	-41.0	21.7	0.00e+00	0	39	0	200278016	54	5729
2026-01-02 00:25:24.32	162.08	12.09	-39.9	-41.0	21.7	0.00e+00	92	39	0	202375168	54	5706
2026-01-02 00:25:25.33	162.10	12.19	-39.9	-41.0	21.7	0.00e+00	34	39	0	204472320	54	5725
2026-01-02 00:25:26.34	162.11	12.28	-39.8	-40.9	21.8	0.00e+00	90	39	0	205520896	52	6337
2026-01-02 00:25:27.35	162.13	12.38	-39.8	-40.9	21.9	0.00e+00	92	39	0	207618048	52	6325
2026-01-02 00:25:28.36	162.14	12.48	-39.7	-40.8	21.9	0.00e+00	90	39	0	209715200	52	6275
2026-01-02 00:25:29.36	162.16	12.57	-39.8	-40.9	21.8	0.00e+00	92	39	0	211812352	52	6377
2026-01-02 00:25:30.38	162.18	12.67	-39.7	-40.7	22.0	0.00e+00	11	39	0	213909504	52	6243
2026-01-02 00:25:31.38	162.19	12.77	-39.6	-40.7	22.0	0.00e+00	92	39	0	214958080	52	6193
2026-01-02 00:25:32.39	162.21	12.87	-39.6	-40.7	22.0	0.00e+00	12	39	0	217055232	52	6215
2026-01-02 00:25:33.40	162.22	12.97	-39.5	-40.5	22.2	0.00e+00	92	39	0	219152384	52	6087
2026-01-02 00:25:34.41	162.24	13.07	-39.4	-40.5	22.2	0.00e+00	41	39	0	221249536	52	6061
2026-01-02 00:25:35.42	162.25	13.17	-39.4	-40.5	22.3	0.00e+00	92	39	0	223346688	52	6035
2026-01-02 00:25:36.43	162.27	13.27	-39.4	-40.5	22.2	0.00e+00	92	39	0	224395264	52	6065
2026-01-02 00:25:37.44	162.29	13.37	-39.5	-40.5	22.3	0.00e+00	0	39	0	226492416	52	6101
2026-01-02 00:25:38.45	162.30	13.47	-39.4	-40.4	22.2	0.00e+00	92	39	0	228589568	52	6011
2026-01-02 00:25:39.46	162.32	13.57	-39.4	-40.5	22.3	0.00e+00	0	39	0	230686720	52	6069
2026-01-02 00:25:40.47	162.33	13.67	-39.4	-40.5	22.2	0.00e+00	92	39	0	232783872	52	6064
2026-01-02 00:25:41.48	162.35	13.78	-39.3	-40.4	22.3	0.00e+00	0	39	0	234881024	52	5966
2026-01-02 00:25:42.49	162.37	13.88	-39.3	-40.4	22.4	0.00e+00	92	39	0	235929600	52	5970
2026-01-02 00:25:43.50	162.38	13.98	-39.1	-40.1	22.6	0.00e+00	92	39	0	238026752	52	5776
2026-01-02 00:25:44.51	162.40	14.09	-39.2	-40.2	22.5	0.00e+00	92	39	0	240123904	52	5841
2026-01-02 00:25:45.51	162.42	14.19	-39.2	-40.2	22.5	0.00e+00	92	39	0	242221056	52	5838
2026-01-02 00:25:46.52	162.43	14.29	-39.1	-40.1	22.7	0.00e+00	45	39	0	244318208	52	5772
2026-01-02 00:25:47.53	162.45	14.40	-38.9	-39.9	22.7	0.00e+00	90	39	0	245366784	52	5678
2026-01-02 00:25:48.55	162.47	14.50	-39.0	-39.9	22.8	0.00e+00	41	39	0	247463936	52	5693
2026-01-02 00:25:49.55	162.49	14.61	-39.0	-40.0	22.7	0.00e+00	92	39	0	249561088	52	5736
2026-01-02 00:25:50.56	162.50	14.72	-38.8	-39.8	22.8	0.00e+00	92	39	0	251658240	52	5583
2026-01-02 00:25:51.57	162.52	14.82	-38.9	-39.9	22.8	0.00e+00	90	39	0	252706816	52	5636
2026-01-02 00:25:52.58	162.54	14.93	-38.9	-39.9	22.9	0.00e+00	92	39	0	254803968	52	5640
2026-01-02 00:25:53.59	162.56	15.04	-38.9	-39.8	22.9	0.00e+00	7	39	0	256901120	52	5622
2026-01-02 00:25:54.60	162.57	15.15	-38.9	-39.9	22.8	0.00e+00	90	39	0	258998272	52	5672
2026-01-02 00:25:55.61	162.59	15.25	-38.9	-39.9	22.8	0.00e+00	52	39	0	261095424	52	5677
2026-01-02 00:25:56.62	162.61	15.36	-39.1	-40.0	22.7	0.00e+00	91	39	0	263192576	52	5761
2026-01-02 00:25:57.63	162.63	15.47	-39.0	-40.0	22.7	0.00e+00	0	39	0	264241152	52	5711
2026-01-02 00:25:58.64	162.64	15.58	-38.9	-39.9	22.8	0.00e+00	91	39	0	266338304	52	5661
2026-01-02 00:25:59.65	162.66	15.69	-39.1	-40.0	22.7	0.00e+00	92	39	0	268435456	52	5757
2026-01-02 00:26:00.66	162.68	15.81	-39.0	-40.0	22.8	0.00e+00	82	39	0	270532608	52	5712
2026-01-02 00:26:01.67	162.70	15.92	-38.7	-39.7	23.1	0.00e+00	90	39	0	272629760	50	6186
2026-01-02 00:26:02.67	162.72	16.03	-38.8	-39.7	23.0	0.00e+00	41	39	0	273678336	50	6239
2026-01-02 00:26:03.68	162.74	16.14	-38.7	-39.6	23.1	0.00e+00	92	39	0	275775488	50	6155
2026-01-02 00:26:04.69	162.75	16.26	-38.8	-39.8	22.9	0.00e+00	0	39	0	277872640	50	6259
2026-01-02 00:26:05.70	162.77	16.37	-38.7	-39.7	23.0	0.00e+00	92	39	0	279969792	50	6210
2026-01-02 00:26:06.71	162.79	16.48	-38.8	-39.7	23.0	0.00e+00	92	39	0	282066944	50	6233
2026-01-02 00:26:07.72	162.81	16.60	-38.6	-39.6	23.1	0.00e+00	90	39	0	283115520	50	6129
2026-01-02 00:26:08.73	162.83	16.71	-38.7	-39.7	23.1	0.00e+00	92	39	0	285212672	50	6180
2026-01-02 00:26:09.74	162.85	16.83	-38.6	-39.6	23.2	0.00e+00	41	39	0	287309824	50	6114
2026-01-02 00:26:10.75	162.87	16.95	-38.6	-39.6	23.2	0.00e+00	92	39	0	289406976	50	6108
2026-01-02 00:26:11.76	162.89	17.06	-38.6	-39.5	23.2	0.00e+00	34	39	0	291504128	50	6065
2026-01-02 00:26:12.77	162.91	17.18	-38.5	-39.5	23.2	0.00e+00	92	39	0	292552704	50	6056
2026-01-02 00:26:13.78	162.93	17.30	-38.5	-39.4	23.2	0.00e+00	90	39	0	294649856	50	6004
2026-01-02 00:26:14.78	162.95	17.42	-38.5	-39.5	23.3	0.00e+00	92	39	0	296747008	50	6036
2026-01-02 00:26:15.79	162.97	17.54	-38.5	-39.5	23.2	0.00e+00	92	39	0	298844160	50	6039
2026-01-02 00:26:16.80	162.99	17.66	-38.5	-39.4	23.3	0.00e+00	92	39	0	300941312	50	6016
2026-01-02 00:26:17.81	163.01	17.78	-38.7	-39.6	23.2	0.00e+00	90	39	0	301989888	50	6156
2026-01-02 00:26:18.82	163.03	17.90	-38.5	-39.5	23.3	0.00e+00	0	39	0	304087040	50	6048
2026-01-02 00:26:19.83	163.05	18.02	-38.4	-39.3	23.4	0.00e+00	92	39	0	306184192	50	5920
2026-01-02 00:26:20.83	163.07	18.14	-38.5	-39.4	23.3	0.00e+00	17	39	0	308281344	50	6016
2026-01-02 00:26:21.84	163.09	18.26	-38.3	-39.2	23.5	0.00e+00	89	39	0	310378496	50	5846
2026-01-02 00:26:22.85	163.11	18.39	-38.3	-39.3	23.4	0.00e+00	92	39	0	311427072	50	5901
2026-01-02 00:26:23.85	163.13	18.51	-38.4	-39.3	23.5	0.00e+00	90	39	0	313524224	50	5904
2026-01-02 00:26:24.86	163.16	18.64	-38.3	-39.2	23.5	0.00e+00	92	39	0	315621376	50	5834
2026-01-02 00:26:25.87	163.18	18.76	-38.2	-39.1	23.6	0.00e+00	0	39	0	317718528	50	5819
2026-01-02 00:26:26.88	163.20	18.89	-38.3	-39.2	23.4	0.00e+00	89	39	0	319815680	50	5891
2026-01-02 00:26:27.89	163.22	19.01	-38.3	-39.2	23.6	0.00e+00	0	39	0	320864256	50	5832
2026-01-02 00:26:28.90	163.24	19.14	-38.2	-39.1	23.6	0.00e+00	92	39	0	322961408	50	5777
2026-01-02 00:26:29.91	163.26	19.27	-38.2	-39.1	23.6	0.00e+00	92	39	0	325058560	50	5809
2026-01-02 00:26:30.92	163.29	19.40	-38.2	-39.1	23.6	0.00e+00	92	39	0	327155712	50	5781
2026-01-02 00:26:31.93	163.31	19.53	-38.3	-39.2	23.5	0.00e+00	92	39	0	329252864	50	5863
2026-01-02 00:26:32.94	163.33	19.66	-38.1	-39.0	23.7	0.00e+00	47	39	0	331350016	50	5746
2026-01-02 00:26:33.95	163.35	19.79	-38.3	-39.2	23.6	0.00e+00	90	39	0	332398592	50	5849
2026-01-02 00:26:34.96	163.38	19.92	-38.2	-39.1	23.7	0.00e+00	0	39	0	334495744	50	5785
2026-01-02 00:26:35.97	163.40	20.05	-38.3	-39.2	23.6	0.00e+00	91	39	0	336592896	50	5872
2026-01-02 00:26:36.97	163.42	20.18	-38.3	-39.2	23.6	0.00e+00	25	39	0	338690048	50	5881
2026-01-02 00:26:37.98	163.45	20.32	-38.3	-39.2	23.5	0.00e+00	90	39	0	340787200	50	5868
2026-01-02 00:26:38.99	163.47	20.45	-38.3	-39.2	23.5	0.00e+00	92	39	0	341835776	50	5887
2026-01-02 00:26:40.00	163.49	20.59	-38.4	-39.3	23.5	0.00e+00	92	39	0	343932928	50	5903
2026-01-02 00:26:41.01	163.52	20.72	-38.5	-39.4	23.5	0.00e+00	92	39	0	346030080	50	5995
2026-01-02 00:26:42.02	163.54	20.86	-38.6	-39.5	23.4	0.00e+00	35	39	0	348127232	50	6048
2026-01-02 00:26:43.03	163.57	20.99	-38.5	-39.4	23.4	0.00e+00	92	39	0	350224384	50	5993
2026-01-02 00:26:44.04	163.59	21.13	-38.4	-39.3	23.5	0.00e+00	0	39	0	351272960	50	5941
2026-01-02 00:26:45.04	163.61	21.27	-38.3	-39.2	23.6	0.00e+00	92	39	0	353370112	50	5863
2026-01-02 00:26:46.06	163.64	21.41	-38.4	-39.3	23.5	0.00e+00	90	39	0	355467264	50	5911
2026-01-02 00:26:47.06	163.66	21.55	-38.4	-39.3	23.5	0.00e+00	92	39	0	357564416	50	5931
2026-01-02 00:26:48.07	163.69	21.69	-38.4	-39.3	23.5	0.00e+00	92	39	0	359661568	50	5939
2026-01-02 00:26:49.08	163.72	21.83	-38.5	-39.4	23.5	0.00e+00	40	39	0	360710144	50	5987
2026-01-02 00:26:50.09	163.74	21.97	-38.5	-39.5	23.4	0.00e+00	92	39	0	362807296	50	6039
2026-01-02 00:26:51.10	163.77	22.12	-38.4	-39.3	23.5	0.00e+00	0	39	0	364904448	50	5943
2026-01-02 00:26:52.11	163.79	22.26	-38.5	-39.4	23.4	0.00e+00	92	39	0	367001600	50	6022
2026-01-02 00:26:53.12	163.82	22.41	-38.5	-39.4	23.4	0.00e+00	92	39	0	369098752	50	6029
2026-01-02 00:26:54.13	163.85	22.55	-38.5	-39.4	23.4	0.00e+00	90	39	0	370147328	50	6013
2026-01-02 00:26:55.14	163.87	22.70	-38.5	-39.4	23.4	0.00e+00	92	39	0	372244480	50	6014
2026-01-02 00:26:56.15	163.90	22.85	-38.5	-39.4	23.4	0.00e+00	90	39	0	374341632	50	6015
2026-01-02 00:26:57.16	163.93	22.99	-38.5	-39.5	23.3	0.00e+00	92	39	0	376438784	50	6047
2026-01-02 00:26:58.17	163.95	23.14	-38.7	-39.6	23.1	0.00e+00	0	39	0	378535936	50	6132
2026-01-02 00:26:59.18	163.98	23.29	-38.6	-39.5	23.3	0.00e+00	92	39	0	379584512	50	6064
2026-01-02 00:27:00.19	164.01	23.44	-38.6	-39.6	23.3	0.00e+00	90	39	0	381681664	50	6110
2026-01-02 00:27:01.20	164.04	23.60	-38.7	-39.6	23.3	0.00e+00	92	39	0	383778816	50	6168
2026-01-02 00:27:02.21	164.07	23.75	-38.6	-39.5	23.4	0.00e+00	92	39	0	385875968	50	6051
2026-01-02 00:27:03.22	164.09	23.90	-38.7	-39.7	23.2	0.00e+00	92	39	0	387973120	50	6190
2026-01-02 00:27:04.23	164.12	24.06	-38.6	-39.6	23.2	0.00e+00	92	39	0	389021696	50	6121
2026-01-02 00:27:05.24	164.15	24.21	-38.8	-39.7	23.2	0.00e+00	57	39	0	391118848	50	6220
2026-01-02 00:27:06.25	164.18	24.37	-38.8	-39.8	23.1	0.00e+00	92	39	0	393216000	50	6266
2026-01-02 00:27:07.26	164.21	24.53	-38.7	-39.7	23.3	0.00e+00	7	39	0	395313152	50	6174
2026-01-02 00:27:08.27	164.24	24.68	-38.9	-39.8	23.1	0.00e+00	92	39	0	397410304	50	6302
2026-01-02 00:27:09.28	164.27	24.84	-38.9	-39.8	23.1	0.00e+00	92	39	0	399507456	50	6309
2026-01-02 00:27:10.29	164.30	25.00	-38.8	-39.7	23.1	0.00e+00	92	39	0	400556032	50	6245
2026-01-02 00:27:11.29	164.33	25.16	-39.0	-39.9	23.0	0.00e+00	92	39	0	402653184	50	6363
2026-01-02 00:27:12.30	164.36	25.32	-39.0	-39.9	23.1	0.00e+00	43	39	0	404750336	50	6357
2026-01-02 00:27:13.31	164.39	25.49	-39.1	-40.1	22.8	0.00e+00	92	39	0	406847488	50	6504
2026-01-02 00:27:14.32	164.42	25.65	-39.0	-39.9	23.0	0.00e+00	0	39	0	407896064	50	6363
2026-01-02 00:27:15.33	164.46	25.82	-38.9	-39.9	23.0	0.00e+00	92	39	0	409993216	50	6341
2026-01-02 00:27:16.33	164.49	25.98	-39.0	-40.0	22.9	0.00e+00	92	39	0	412090368	50	6431
2026-01-02 00:27:17.34	164.52	26.15	-39.2	-40.1	22.8	0.00e+00	91	39	0	414187520	50	6521
2026-01-02 00:27:18.35	164.55	26.32	-39.0	-39.9	23.1	0.00e+00	91	39	0	416284672	50	6347
2026-01-02 00:27:19.36	164.59	26.49	-39.1	-40.0	22.9	0.00e+00	92	39	0	417333248	50	6464
2026-01-02 00:27:20.37	164.62	26.66	-39.1	-40.1	22.9	0.00e+00	91	39	0	419430400	50	6491
2026-01-02 00:27:21.38	164.65	26.83	-39.3	-40.2	22.9	0.00e+00	33	39	0	421527552	50	6600
2026-01-02 00:27:22.39	164.69	27.00	-39.2	-40.2	22.8	0.00e+00	91	39	0	423624704	50	6583
2026-01-02 00:27:23.40	164.72	27.17	-39.4	-40.3	22.6	0.00e+00	37	39	0	425721856	50	6684
2026-01-02 00:27:24.41	164.75	27.35	-39.5	-40.5	22.5	0.00e+00	92	39	0	427819008	50	6794
2026-01-02 00:27:25.41	164.79	27.52	-39.5	-40.5	22.4	0.00e+00	91	39	0	428867584	50	6826
2026-01-02 00:27:26.42	164.82	27.70	-39.5	-40.5	22.5	0.00e+00	91	39	0	430964736	50	6812
2026-01-02 00:27:27.43	164.86	27.88	-39.7	-40.7	22.3	0.00e+00	91	39	0	433061888	50	6945
2026-01-02 00:27:28.44	164.90	28.05	-39.9	-40.9	22.1	0.00e+00	0	39	0	435159040	52	6363
2026-01-02 00:27:29.45	164.93	28.23	-39.9	-41.0	22.1	0.00e+00	91	39	0	437256192	52	6435
2026-01-02 00:27:30.46	164.97	28.42	-39.9	-41.0	22.1	0.00e+00	1	39	0	438304768	52	6416
2026-01-02 00:27:31.47	165.01	28.60	-40.1	-41.2	21.9	0.00e+00	92	39	0	440401920	52	6548
2026-01-02 00:27:32.48	165.04	28.78	-40.3	-41.4	21.7	0.00e+00	92	39	0	442499072	52	6726
2026-01-02 00:27:33.49	165.08	28.97	-40.3	-41.4	21.8	0.00e+00	92	39	0	444596224	52	6707
2026-01-02 00:27:34.50	165.12	29.15	-40.3	-41.4	21.8	0.00e+00	92	39	0	446693376	52	6735
2026-01-02 00:27:35.51	165.16	29.34	-40.5	-41.6	21.6	0.00e+00	50	39	0	447741952	52	6880
2026-01-02 00:27:36.52	165.20	29.53	-40.5	-41.7	21.5	0.00e+00	92	39	0	449839104	52	6931
2026-01-02 00:27:37.53	165.24	29.72	-40.8	-42.0	21.2	0.00e+00	13	39	0	451936256	52	7196
2026-01-02 00:27:38.54	165.28	29.91	-40.6	-41.8	21.4	0.00e+00	92	39	0	454033408	54	6274
2026-01-02 00:27:39.55	165.32	30.10	-40.7	-41.9	21.2	0.00e+00	92	39	0	456130560	54	6336
2026-01-02 00:27:40.56	165.36	30.30	-41.0	-42.2	21.0	0.00e+00	92	39	0	457179136	54	6602
2026-01-02 00:27:41.57	165.40	30.49	-41.0	-42.2	21.0	0.00e+00	92	39	0	459276288	54	6544
2026-01-02 00:27:42.58	165.44	30.69	-40.8	-41.9	21.2	0.00e+00	92	39	0	461373440	54	6379
2026-01-02 00:27:43.58	165.48	30.88	-40.8	-42.0	21.1	0.00e+00	92	39	0	463470592	54	6427
2026-01-02 00:27:44.59	165.52	31.08	-40.8	-41.9	21.3	0.00e+00	11	39	0	465567744	54	6384
2026-01-02 00:27:45.60	165.57	31.28	-40.9	-42.1	21.1	0.00e+00	92	39	0	466616320	54	6507
2026-01-02 00:27:46.61	165.61	31.48	-40.9	-42.1	21.1	0.00e+00	79	39	0	468713472	54	6478
2026-01-02 00:27:47.62	165.66	31.69	-41.0	-42.2	20.8	0.00e+00	92	39	0	470810624	54	6599
2026-01-02 00:27:48.63	165.70	31.89	-41.3	-42.5	20.7	0.00e+00	92	39	0	472907776	54	6819
2026-01-02 00:27:49.64	165.74	32.10	-41.2	-42.5	20.8	0.00e+00	92	39	0	475004928	54	6783
2026-01-02 00:27:50.65	165.79	32.30	-41.1	-42.3	20.9	0.00e+00	92	39	0	476053504	54	6681
2026-01-02 00:27:51.66	165.84	32.51	-41.1	-42.3	20.9	0.00e+00	10	39	0	478150656	54	6692
2026-01-02 00:27:52.66	165.88	32.72	-41.1	-42.4	20.9	0.00e+00	92	39	0	480247808	54	6709
2026-01-02 00:27:53.67	165.93	32.93	-41.1	-42.4	20.8	0.00e+00	0	39	0	482344960	54	6703
2026-01-02 00:27:54.68	165.98	33.15	-41.2	-42.4	20.9	0.00e+00	92	39	0	484442112	54	6740
2026-01-02 00:27:55.69	166.03	33.36	-41.2	-42.4	20.8	0.00e+00	92	39	0	485490688	54	6735
2026-01-02 00:27:56.70	166.08	33.58	-40.9	-42.1	21.1	0.00e+00	91	39	0	487587840	54	6536
2026-01-02 00:27:57.70	166.12	33.79	-40.7	-41.9	21.4	0.00e+00	90	39	0	489684992	54	6342
2026-01-02 00:27:58.71	166.17	34.01	-40.0	-41.1	22.0	0.00e+00	92	39	0	491782144	54	5785
2026-01-02 00:27:59.72	166.23	34.23	-39.9	-40.9	22.2	0.00e+00	92	39	0	493879296	54	5692
2026-01-02 00:28:00.73	166.28	34.45	-39.5	-40.5	22.7	0.00e+00	42	39	0	495976448	52	6096
2026-01-02 00:28:01.74	166.33	34.68	-39.3	-40.3	22.8	0.00e+00	92	39	0	497025024	52	5905
2026-01-02 00:28:02.74	166.38	34.90	-39.1	-40.0	23.0	0.00e+00	92	39	0	499122176	52	5756
2026-01-02 00:28:03.75	166.43	35.13	-38.8	-39.8	23.3	0.00e+00	92	39	0	501219328	52	5570
2026-01-02 00:28:04.76	166.49	35.35	-38.9	-39.8	23.2	0.00e+00	92	39	0	503316480	52	5625
2026-01-02 00:28:05.77	166.54	35.59	-38.7	-39.6	23.4	0.00e+00	92	39	0	504365056	50	6151
2026-01-02 00:28:06.78	166.60	35.82	-38.5	-39.4	23.6	0.00e+00	92	39	0	506462208	50	5977
2026-01-02 00:28:07.79	166.66	36.05	-38.5	-39.3	23.8	0.00e+00	8	39	0	508559360	50	5960
2026-01-02 00:28:08.80	166.71	36.29	-38.3	-39.2	23.8	0.00e+00	92	39	0	510656512	50	5848
2026-01-02 00:28:09.81	166.77	36.52	-38.1	-39.0	24.0	0.00e+00	70	39	0	512753664	50	5698
2026-01-02 00:28:10.82	166.83	36.76	-38.1	-38.9	24.0	0.00e+00	92	39	0	513802240	50	5685
2026-01-02 00:28:11.83	166.89	37.00	-38.0	-38.8	24.1	0.00e+00	92	39	0	515899392	50	5619
2026-01-02 00:28:12.84	166.95	37.24	-37.9	-38.7	24.2	0.00e+00	92	39	0	517996544	50	5540
2026-01-02 00:28:13.84	167.01	37.48	-37.8	-38.6	24.3	0.00e+00	92	39	0	520093696	50	5478
2026-01-02 00:28:14.85	167.07	37.73	-37.9	-38.7	24.2	0.00e+00	0	39	0	522190848	50	5524
2026-01-02 00:28:15.86	167.14	37.98	-37.9	-38.8	24.1	0.00e+00	90	39	0	524288000	50	5588
2026-01-02 00:28:16.87	167.20	38.23	-37.8	-38.6	24.3	0.00e+00	0	39	0	525336576	50	5500
2026-01-02 00:28:17.88	167.26	38.48	-38.3	-39.2	23.8	0.00e+00	92	39	0	527433728	50	5836
2026-01-02 00:28:18.89	167.33	38.73	-38.4	-39.2	23.8	0.00e+00	92	39	0	529530880	50	5887
2026-01-02 00:28:19.90	167.40	38.98	-38.3	-39.2	23.8	0.00e+00	92	39	0	531628032	50	5835
2026-01-02 00:28:20.91	167.46	39.24	-38.4	-39.2	23.8	0.00e+00	92	39	0	533725184	50	5889
2026-01-02 00:28:21.92	167.53	39.50	-38.4	-39.3	23.7	0.00e+00	90	39	0	534773760	50	5903
2026-01-02 00:28:22.93	167.60	39.76	-38.4	-39.3	23.6	0.00e+00	92	39	0	536870912	50	5960
2026-01-02 00:28:23.94	167.67	40.02	-38.3	-39.2	23.8	0.00e+00	49	39	0	538968064	50	5844
2026-01-02 00:28:24.95	167.75	40.28	-38.4	-39.3	23.8	0.00e+00	92	39	0	541065216	50	5898
2026-01-02 00:28:25.96	167.82	40.55	-38.6	-39.5	23.6	0.00e+00	92	39	0	543162368	50	6041
2026-01-02 00:28:26.97	167.89	40.82	-38.4	-39.3	23.7	0.00e+00	92	39	0	544210944	50	5906
2026-01-02 00:28:27.98	167.97	41.09	-38.7	-39.6	23.5	0.00e+00	92	39	0	546308096	50	6109
2026-01-02 00:28:28.99	168.04	41.36	-38.9	-39.8	23.3	0.00e+00	92	39	0	548405248	50	6275
2026-01-02 00:28:30.00	168.12	41.63	-39.1	-40.0	23.1	0.00e+00	90	39	0	550502400	50	6422
2026-01-02 00:28:31.01	168.20	41.91	-39.1	-40.0	23.1	0.00e+00	34	39	0	552599552	50	6442
2026-01-02 00:28:32.02	168.28	42.19	-39.3	-40.3	22.8	0.00e+00	90	39	0	553648128	50	6652
2026-01-02 00:28:33.03	168.36	42.47	-39.4	-40.4	22.6	0.00e+00	0	39	0	555745280	50	6743
2026-01-02 00:28:34.03	168.45	42.75	-39.6	-40.6	22.5	0.00e+00	92	39	0	557842432	50	6862
2026-01-02 00:28:35.04	168.53	43.03	-39.5	-40.5	22.7	0.00e+00	92	39	0	559939584	50	6805
2026-01-02 00:28:36.05	168.62	43.32	-39.5	-40.5	22.7	0.00e+00	90	39	0	562036736	50	6826
2026-01-02 00:28:37.06	168.70	43.60	-39.3	-40.3	22.8	0.00e+00	92	39	0	563085312	50	6662
2026-01-02 00:28:38.07	168.79	43.89	-39.3	-40.3	22.8	0.00e+00	73	39	0	565182464	50	6651
2026-01-02 00:28:39.08	168.88	44.19	-39.3	-40.3	22.8	0.00e+00	90	39	0	567279616	50	6620
2026-01-02 00:28:40.09	168.97	44.48	-39.3	-40.3	22.1	0.00e+00	0	39	0	569376768	50	6619
2026-01-02 00:28:41.10	169.07	44.78	-39.3	-40.3	22.8	0.00e+00	92	39	0	571473920	50	6655
2026-01-02 00:28:42.11	169.16	45.08	-39.8	-40.8	22.4	0.00e+00	92	39	0	572522496	50	7049
2026-01-02 00:28:43.12	169.26	45.38	-40.0	-41.0	22.1	0.00e+00	90	39	0	574619648	52	6451
2026-01-02 00:28:44.13	169.36	45.68	-40.6	-41.7	21.6	0.00e+00	92	39	0	576716800	52	6967
2026-01-02 00:28:45.14	169.46	45.98	-40.6	-41.8	21.5	0.00e+00	65	39	0	578813952	52	7035
2026-01-02 00:28:46.15	169.56	46.29	-40.7	-41.9	21.4	0.00e+00	92	39	0	580911104	54	6321
2026-01-02 00:28:47.16	169.67	46.60	-40.8	-42.0	21.3	0.00e+00	44	39	0	581959680	54	6427
2026-01-02 00:28:48.17	169.77	46.91	-40.6	-41.8	21.5	0.00e+00	92	39	0	584056832	54	6252
2026-01-02 00:28:49.18	169.88	47.23	-40.9	-42.0	21.2	0.00e+00	28	39	0	586153984	54	6443
2026-01-02 00:28:50.19	169.99	47.54	-41.1	-42.3	21.0	0.00e+00	92	39	0	588251136	54	6628
2026-01-02 00:28:51.20	170.11	47.86	-41.4	-42.7	20.6	0.00e+00	90	39	0	590348288	54	6984
2026-01-02 00:28:52.20	170.22	48.18	-41.2	-42.4	21.0	0.00e+00	9	39	0	592445440	54	6727
2026-01-02 00:28:53.21	170.34	48.50	-40.9	-42.1	21.1	0.00e+00	91	39	0	593494016	54	6490
2026-01-02 00:28:54.22	170.46	48.83	-40.4	-41.5	21.8	0.00e+00	2	39	0	595591168	54	6042
2026-01-02 00:28:55.23	170.58	49.16	-40.0	-41.1	22.1	0.00e+00	91	39	0	597688320	54	5795
2026-01-02 00:28:56.24	170.71	49.49	-39.7	-40.7	22.5	0.00e+00	0	39	0	599785472	52	6223
2026-01-02 00:28:57.25	170.83	49.82	-39.5	-40.5	22.6	0.00e+00	91	39	0	601882624	52	6076
2026-01-02 00:28:58.26	170.97	50.15	-39.2	-40.1	23.0	0.00e+00	91	39	0	602931200	52	5817
2026-01-02 00:28:59.27	171.10	50.49	-39.2	-40.2	23.0	0.00e+00	0	39	0	605028352	52	5862
2026-01-02 00:29:00.28	171.24	50.83	-38.6	-39.5	23.6	0.00e+00	92	39	0	607125504	50	6046
2026-01-02 00:29:01.29	171.37	51.17	-38.3	-39.2	23.8	0.00e+00	0	39	0	609222656	50	5870
2026-01-02 00:29:02.30	171.52	51.52	-37.8	-38.7	24.3	0.00e+00	91	39	0	611319808	50	5518
2026-01-02 00:29:03.31	171.66	51.86	-37.3	-38.1	24.7	0.00e+00	28	39	0	612368384	48	5785
2026-01-02 00:29:04.32	171.81	52.21	-37.1	-37.9	24.9	0.00e+00	90	39	0	614465536	48	5655
2026-01-02 00:29:05.32	171.96	52.56	-36.9	-37.7	25.0	0.00e+00	92	39	0	616562688	48	5553
2026-01-02 00:29:06.34	172.12	52.91	-36.7	-37.5	25.1	0.00e+00	49	39	0	618659840	46	6061
2026-01-02 00:29:07.34	172.28	53.27	-36.5	-37.2	25.5	0.00e+00	92	39	0	620756992	46	5874
2026-01-02 00:29:08.35	172.44	53.62	-36.2	-36.9	25.1	0.00e+00	50	39	0	621805568	46	5660
2026-01-02 00:29:09.36	172.61	53.98	-36.2	-37.0	25.6	0.00e+00	91	39	0	623902720	46	5711
2026-01-02 00:29:10.37	172.78	54.35	-36.2	-36.9	25.6	0.00e+00	45	39	0	625999872	46	5688
2026-01-02 00:29:11.38	172.96	54.71	-36.3	-37.0	25.6	0.00e+00	92	39	0	628097024	46	5761
2026-01-02 00:29:12.39	173.14	55.08	-36.1	-36.9	25.8	0.00e+00	12	39	0	630194176	46	5659
2026-01-02 00:29:13.40	173.32	55.45	-36.1	-36.9	25.6	0.00e+00	92	39	0	631242752	46	5655
2026-01-02 00:29:14.41	173.51	55.82	-36.2	-37.0	25.7	0.00e+00	92	39	0	633339904	46	5700
2026-01-02 00:29:15.42	173.71	56.19	-36.3	-37.0	25.6	0.00e+00	0	39	0	635437056	46	5724
2026-01-02 00:29:16.43	173.91	56.57	-36.9	-37.7	25.0	0.00e+00	91	39	0	637534208	46	6178
2026-01-02 00:29:17.44	174.11	56.95	-37.3	-38.1	24.6	0.00e+00	10	39	0	639631360	46	6514
2026-01-02 00:29:18.45	174.33	57.33	-37.4	-38.2	24.6	0.00e+00	92	39	0	640679936	46	6606
2026-01-02 00:29:19.46	174.54	57.71	-37.4	-38.2	24.7	0.00e+00	7	39	0	642777088	46	6568
2026-01-02 00:29:20.47	174.77	58.09	-37.1	-37.9	24.9	0.00e+00	92	39	0	644874240	46	6371
2026-01-02 00:29:21.48	175.00	58.48	-37.1	-37.9	24.9	0.00e+00	92	39	0	646971392	46	6374
2026-01-02 00:29:22.48	175.23	58.86	-37.2	-38.0	24.8	0.00e+00	46	39	0	649068544	46	6431
2026-01-02 00:29:23.50	175.48	59.26	-37.3	-38.1	24.7	0.00e+00	92	39	0	650117120	46	6496
2026-01-02 00:29:24.50	175.73	59.65	-37.0	-37.7	25.0	0.00e+00	45	39	0	652214272	46	6237
2026-01-02 00:29:25.51	175.98	60.04	-36.6	-37.4	25.3	0.00e+00	92	39	0	654311424	46	5966
2026-01-02 00:29:26.52	176.25	60.44	-36.6	-37.4	25.3	0.00e+00	0	39	0	656408576	46	5972
2026-01-02 00:29:27.53	176.52	60.84	-36.5	-37.2	25.4	0.00e+00	92	39	0	658505728	46	5875
2026-01-02 00:29:28.54	176.81	61.24	-36.2	-36.9	25.6	0.00e+00	92	39	0	660602880	46	5673
2026-01-02 00:29:29.55	177.10	61.64	-35.9	-36.6	25.6	0.00e+00	92	39	0	661651456	46	5474
2026-01-02 00:29:30.56	177.40	62.05	-36.0	-36.7	25.8	0.00e+00	92	39	0	663748608	46	5534
2026-01-02 00:29:31.57	177.71	62.45	-36.2	-37.0	25.6	0.00e+00	35	39	0	665845760	46	5706
2026-01-02 00:29:32.58	178.04	62.86	-36.1	-36.9	25.7	0.00e+00	92	39	0	667942912	46	5659
2026-01-02 00:29:33.59	178.37	63.27	-36.2	-37.0	25.7	0.00e+00	6	39	0	670040064	46	5720
2026-01-02 00:29:34.60	178.71	63.68	-36.7	-37.4	25.2	0.00e+00	92	39	0	671088640	46	6011
2026-01-02 00:29:35.61	179.07	64.09	-37.7	-38.6	24.2	0.00e+00	26	39	0	673185792	46	6851
2026-01-02 00:29:36.62	179.44	64.51	-38.7	-39.7	23.2	0.00e+00	92	39	0	675282944	48	6958
2026-01-02 00:29:37.63	179.83	64.92	-39.0	-39.9	23.0	0.00e+00	92	39	0	677380096	50	6384
2026-01-02 00:29:38.63	180.22	65.33	-39.1	-40.0	23.1	0.00e+00	0	39	0	679477248	50	6448
2026-01-02 00:29:39.64	180.63	65.75	-38.9	-39.9	23.2	0.00e+00	90	39	0	680525824	50	6351
2026-01-02 00:29:40.65	181.06	66.17	-38.9	-39.9	23.2	0.00e+00	9	39	0	682622976	50	6321
2026-01-02 00:29:41.66	181.51	66.59	-39.2	-40.2	22.9	0.00e+00	90	39	0	684720128	50	6561
2026-01-02 00:29:42.67	181.97	67.01	-39.4	-40.4	22.7	0.00e+00	6	39	0	686817280	50	6725
2026-01-02 00:29:43.68	182.45	67.43	-39.7	-40.7	22.4	0.00e+00	92	39	0	688914432	50	6954
2026-01-02 00:29:44.69	182.95	67.85	-39.5	-40.5	22.5	0.00e+00	92	39	0	689963008	52	6099
2026-01-02 00:29:45.70	183.48	68.27	-39.0	-40.0	23.3	0.00e+00	16	39	0	692060160	52	5709
2026-01-02 00:29:46.71	184.02	68.69	-38.7	-39.6	23.5	0.00e+00	92	39	0	694157312	50	6116
2026-01-02 00:29:47.72	184.59	69.12	-38.4	-39.2	23.8	0.00e+00	46	39	0	696254464	50	5896
2026-01-02 00:29:48.72	185.18	69.54	-38.5	-39.4	23.6	0.00e+00	92	39	0	698351616	50	5977
2026-01-02 00:29:49.73	185.80	69.96	-38.8	-39.7	23.2	0.00e+00	45	39	0	699400192	50	6230
2026-01-02 00:29:50.75	186.45	70.38	-39.0	-40.0	22.9	0.00e+00	92	39	0	701497344	50	6439
2026-01-02 00:29:51.75	187.13	70.80	-39.0	-39.9	23.1	0.00e+00	78	39	0	703594496	50	6351
2026-01-02 00:29:52.76	187.84	71.22	-38.7	-39.7	23.2	0.00e+00	92	39	0	705691648	50	6182
2026-01-02 00:29:53.77	188.58	71.64	-39.1	-40.1	22.8	0.00e+00	90	39	0	707788800	50	6499
2026-01-02 00:29:54.78	189.37	72.06	-39.8	-40.9	22.2	0.00e+00	41	39	0	708837376	52	6323
2026-01-02 00:29:55.79	190.19	72.47	-40.0	-41.1	22.2	0.00e+00	90	39	0	710934528	52	6475
2026-01-02 00:29:56.80	191.05	72.89	-40.1	-41.2	22.0	0.00e+00	0	39	0	713031680	52	6588
2026-01-02 00:29:57.81	191.96	73.30	-40.5	-41.6	21.6	0.00e+00	90	39	0	715128832	52	6875
2026-01-02 00:29:58.82	192.91	73.71	-40.8	-42.0	21.3	0.00e+00	51	39	0	717225984	54	6393
2026-01-02 00:29:59.83	193.92	74.11	-41.0	-42.2	21.1	0.00e+00	92	39	0	718274560	54	6593
2026-01-02 00:30:00.84	194.98	74.51	-40.8	-42.0	21.2	0.00e+00	90	39	0	720371712	54	6409
2026-01-02 00:30:01.85	196.10	74.91	-40.8	-41.9	21.2	0.00e+00	0	39	0	722468864	54	6370
2026-01-02 00:30:02.86	197.28	75.31	-40.5	-41.6	21.5	0.00e+00	90	39	0	724566016	54	6154
2026-01-02 00:30:03.87	198.53	75.69	-41.1	-42.4	20.8	0.00e+00	0	39	0	726663168	54	6696
2026-01-02 00:30:04.88	199.85	76.08	-41.6	-42.8	20.4	0.00e+00	90	39	0	728760320	54	7084
2026-01-02 00:30:05.89	201.25	76.45	-42.1	-43.5	19.8	0.00e+00	0	39	0	729808896	56	6793
2026-01-02 00:30:06.90	202.72	76.82	-42.6	-44.0	19.1	0.00e+00	90	39	0	731906048	56	7244
2026-01-02 00:30:07.91	204.29	77.18	-42.9	-44.5	18.8	0.00e+00	92	39	0	734003200	58	6772
2026-01-02 00:30:08.92	205.94	77.53	-42.9	-44.5	19.1	0.00e+00	51	39	0	736100352	58	6806
2026-01-02 00:30:09.93	207.70	77.87	-41.9	-43.3	20.1	0.00e+00	92	39	0	738197504	58	5915
2026-01-02 00:30:10.93	209.53	78.20	-41.3	-42.6	20.8	0.00e+00	4	39	0	739246080	56	6113
2026-01-02 00:30:11.94	211.49	78.52	-39.8	-40.8	22.3	0.00e+00	92	39	0	741343232	54	5607
2026-01-02 00:30:12.95	213.56	78.83	-38.8	-39.7	23.1	0.00e+00	45	39	0	743440384	52	5510
2026-01-02 00:30:13.96	215.75	79.12	-38.7	-39.7	23.3	0.00e+00	92	39	0	745537536	50	6178
2026-01-02 00:30:14.97	218.06	79.39	-39.5	-40.5	22.5	0.00e+00	92	39	0	746586112	50	6803
2026-01-02 00:30:15.98	220.49	79.65	-39.2	-40.2	23.0	0.00e+00	92	39	0	748683264	50	6543
2026-01-02 00:30:16.99	223.04	79.89	-38.3	-39.2	23.7	0.00e+00	90	39	0	750780416	50	5861
2026-01-02 00:30:18.00	225.71	80.11	-38.4	-39.3	23.7	0.00e+00	32	39	0	752877568	50	5900
2026-01-02 00:30:19.01	228.49	80.30	-38.4	-39.3	23.7	0.00e+00	92	39	0	754974720	50	5924
2026-01-02 00:30:20.02	231.39	80.48	-38.7	-39.7	23.3	0.00e+00	10	39	0	757071872	50	6177
2026-01-02 00:30:21.02	234.35	80.62	-39.4	-40.4	22.7	0.00e+00	92	39	0	758120448	50	6738
2026-01-02 00:30:22.03	237.44	80.75	-39.3	-40.3	22.9	0.00e+00	15	39	0	760217600	50	6650
2026-01-02 00:30:23.04	240.60	80.84	-38.8	-39.7	23.3	0.00e+00	92	39	0	762314752	50	6221
2026-01-02 00:30:24.05	243.81	80.91	-38.8	-39.7	23.4	0.00e+00	92	39	0	764411904	50	6208
2026-01-02 00:30:25.06	247.07	80.95	-38.7	-39.6	23.5	0.00e+00	0	39	0	766509056	50	6141
2026-01-02 00:30:26.07	250.34	80.96	-38.7	-39.6	23.3	0.00e+00	92	39	0	767557632	50	6151
2026-01-02 00:30:27.08	253.62	80.94	-39.4	-40.4	22.6	0.00e+00	0	39	0	769654784	50	6700
2026-01-02 00:30:28.09	256.86	80.90	-39.6	-40.6	22.6	0.00e+00	92	39	0	771751936	50	6890
2026-01-02 00:30:29.10	260.07	80.82	-39.4	-40.3	22.6	0.00e+00	0	39	0	773849088	50	6692
2026-01-02 00:30:30.10	263.18	80.72	-39.0	-39.9	23.1	0.00e+00	92	39	0	775946240	50	6352
2026-01-02 00:30:31.11	266.24	80.59	-38.7	-39.6	23.4	0.00e+00	92	39	0	776994816	50	6152
2026-01-02 00:30:32.12	269.21	80.44	-38.7	-39.7	23.4	0.00e+00	47	39	0	779091968	50	6175
2026-01-02 00:30:33.13	272.08	80.26	-38.9	-39.9	23.1	0.00e+00	90	39	0	781189120	50	6338
2026-01-02 00:30:34.14	274.84	80.05	-38.4	-39.3	23.7	0.00e+00	0	39	0	783286272	50	5912
2026-01-02 00:30:35.15	277.47	79.83	-38.1	-39.0	24.0	0.00e+00	92	39	0	785383424	50	5729
2026-01-02 00:30:36.16	279.99	79.59	-38.2	-39.1	23.8	0.00e+00	51	39	0	786432000	50	5808
2026-01-02 00:30:37.17	282.39	79.33	-38.6	-39.5	23.6	0.00e+00	90	39	0	788529152	50	6040
2026-01-02 00:30:38.18	284.67	79.05	-38.5	-39.4	23.7	0.00e+00	92	39	0	790626304	50	5990
2026-01-02 00:30:39.19	286.82	78.75	-38.1	-38.9	24.0	0.00e+00	0	39	0	792723456	50	5691
2026-01-02 00:30:40.20	288.87	78.44	-38.6	-39.5	23.4	0.00e+00	92	39	0	794820608	50	6094
2026-01-02 00:30:41.21	290.80	78.12	-40.0	-41.1	21.9	0.00e+00	2	39	0	795869184	50	7289
2026-01-02 00:30:42.21	292.61	77.79	-41.9	-43.3	20.0	0.00e+00	92	39	0	797966336	54	7423
2026-01-02 00:30:43.22	294.34	77.45	-41.3	-42.6	21.0	0.00e+00	0	39	0	800063488	56	6129
2026-01-02 00:30:44.23	295.97	77.09	-40.3	-41.4	21.8	0.00e+00	92	39	0	802160640	54	6016
2026-01-02 00:30:45.24	297.51	76.73	-40.7	-41.9	21.1	0.00e+00	0	39	0	804257792	54	6355
2026-01-02 00:30:46.25	298.96	76.36	-41.3	-42.5	20.8	0.00e+00	92	39	0	805306368	54	6800
2026-01-02 00:30:47.26	300.34	75.99	-41.0	-42.2	21.1	0.00e+00	92	39	0	807403520	54	6576
2026-01-02 00:30:48.27	301.64	75.60	-40.5	-41.7	21.6	0.00e+00	0	39	0	809500672	54	6184
2026-01-02 00:30:49.28	302.87	75.21	-40.3	-41.4	21.8	0.00e+00	92	39	0	811597824	54	6020
2026-01-02 00:30:50.29	304.04	74.82	-40.7	-41.8	21.4	0.00e+00	0	39	0	813694976	54	6302
2026-01-02 00:30:51.30	305.14	74.42	-41.2	-42.5	20.8	0.00e+00	92	39	0	814743552	54	6810
2026-01-02 00:30:52.31	306.19	74.02	-39.9	-41.0	22.3	0.00e+00	0	39	0	816840704	54	5705
2026-01-02 00:30:53.32	307.18	73.61	-39.3	-40.2	22.8	0.00e+00	90	39	0	818937856	52	5870
2026-01-02 00:30:54.33	308.12	73.20	-39.9	-40.9	22.1	0.00e+00	92	39	0	821035008	52	6383
2026-01-02 00:30:55.34	309.02	72.79	-40.4	-41.5	21.9	0.00e+00	51	39	0	823132160	52	6814
2026-01-02 00:30:56.35	309.87	72.38	-40.3	-41.4	21.8	0.00e+00	92	39	0	825229312	52	6743
2026-01-02 00:30:57.36	310.68	71.96	-40.4	-41.5	21.7	0.00e+00	51	39	0	826277888	52	6831
2026-01-02 00:30:58.37	311.46	71.55	-39.8	-40.8	22.5	0.00e+00	92	39	0	828375040	52	6296
2026-01-02 00:30:59.38	312.19	71.13	-39.8	-40.8	22.3	0.00e+00	0	39	0	830472192	52	6274
2026-01-02 00:31:00.39	312.90	70.71	-40.9	-42.1	21.2	0.00e+00	92	39	0	832569344	52	7272
2026-01-02 00:31:01.40	313.57	70.29	-41.1	-42.4	21.2	0.00e+00	90	39	0	834666496	54	6725
2026-01-02 00:31:02.41	314.21	69.87	-40.8	-42.0	21.0	0.00e+00	24	39	0	835715072	54	6436
2026-01-02 00:31:03.42	314.82	69.45	-39.6	-40.6	22.5	0.00e+00	90	39	0	837812224	52	6173
2026-01-02 00:31:04.42	315.40	69.03	-40.3	-41.4	21.8	0.00e+00	6	39	0	839909376	52	6708
2026-01-02 00:31:05.43	315.97	68.61	-41.2	-42.4	20.8	0.00e+00	92	39	0	842006528	54	6769
2026-01-02 00:31:06.44	316.50	68.19	-42.2	-43.6	19.8	0.00e+00	0	39	0	844103680	56	6900
2026-01-02 00:31:07.45	317.02	67.76	-41.5	-42.8	20.6	0.00e+00	90	39	0	845152256	56	6270
2026-01-02 00:31:08.46	317.52	67.34	-40.5	-41.6	21.7	0.00e+00	2	39	0	847249408	54	6139
2026-01-02 00:31:09.47	318.00	66.92	-39.6	-40.6	22.2	0.00e+00	69	39	0	849346560	54	5490
2026-01-02 00:31:10.47	318.45	66.51	-39.9	-40.9	22.1	0.00e+00	92	39	0	851443712	52	6387
2026-01-02 00:31:11.48	318.89	66.09	-39.8	-40.9	22.3	0.00e+00	49	39	0	853540864	52	6372
2026-01-02 00:31:12.49	319.32	65.67	-38.4	-39.4	23.7	0.00e+00	91	39	0	854589440	50	5965
2026-01-02 00:31:13.50	319.73	65.26	-37.7	-38.5	24.4	0.00e+00	5	39	0	856686592	48	6069
2026-01-02 00:31:14.51	320.12	64.84	-37.5	-38.4	24.5	0.00e+00	92	39	0	858783744	48	5968
2026-01-02 00:31:15.52	320.50	64.43	-37.0	-37.8	24.9	0.00e+00	0	39	0	860880896	48	5579
2026-01-02 00:31:16.53	320.87	64.02	-37.1	-37.9	24.8	0.00e+00	92	39	0	862978048	48	5652
2026-01-02 00:31:17.54	321.22	63.61	-37.1	-37.9	24.8	0.00e+00	92	39	0	864026624	48	5686
2026-01-02 00:31:18.55	321.56	63.20	-36.7	-37.5	25.4	0.00e+00	49	39	0	866123776	46	6034
2026-01-02 00:31:19.56	321.89	62.79	-36.0	-36.7	25.9	0.00e+00	92	39	0	868220928	46	5537
2026-01-02 00:31:20.57	322.21	62.38	-35.9	-36.7	25.8	0.00e+00	34	39	0	870318080	46	5516
2026-01-02 00:31:21.58	322.52	61.98	-36.7	-37.5	25.2	0.00e+00	92	39	0	872415232	46	6076
2026-01-02 00:31:22.59	322.82	61.58	-36.9	-37.7	24.9	0.00e+00	5	39	0	873463808	46	6202
2026-01-02 00:31:23.60	323.11	61.17	-37.3	-38.1	24.6	0.00e+00	92	39	0	875560960	46	6522
2026-01-02 00:31:24.61	323.39	60.78	-38.2	-39.1	23.7	0.00e+00	90	39	0	877658112	48	6470
2026-01-02 00:31:25.62	323.67	60.38	-38.4	-39.3	23.8	0.00e+00	81	39	0	879755264	48	6631
2026-01-02 00:31:26.62	323.93	59.99	-37.7	-38.6	24.2	0.00e+00	92	39	0	881852416	48	6112
2026-01-02 00:31:27.63	324.19	59.59	-38.0	-38.9	24.0	0.00e+00	7	39	0	882900992	48	6351
2026-01-02 00:31:28.64	324.43	59.20	-39.3	-40.3	22.7	0.00e+00	92	39	0	884998144	50	6692
2026-01-02 00:31:29.65	324.68	58.81	-40.1	-41.2	22.1	0.00e+00	7	39	0	887095296	52	6563
2026-01-02 00:31:30.66	324.91	58.43	-39.9	-41.0	22.3	0.00e+00	92	39	0	889192448	52	6398
2026-01-02 00:31:31.67	325.14	58.04	-39.9	-40.9	22.2	0.00e+00	6	39	0	891289600	52	6388
2026-01-02 00:31:32.68	325.36	57.66	-40.0	-41.1	22.1	0.00e+00	50	39	0	893386752	52	6497
2026-01-02 00:31:33.69	325.58	57.28	-39.7	-40.8	22.4	0.00e+00	92	39	0	894435328	52	6284
2026-01-02 00:31:34.70	325.79	56.90	-39.6	-40.6	22.5	0.00e+00	0	39	0	896532480	52	6170
2026-01-02 00:31:35.71	325.99	56.52	-39.1	-40.1	23.0	0.00e+00	92	39	0	898629632	52	5787
2026-01-02 00:31:36.72	326.19	56.15	-38.7	-39.7	23.3	0.00e+00	0	39	0	900726784	50	6181
2026-01-02 00:31:37.73	326.38	55.78	-38.4	-39.4	23.7	0.00e+00	92	39	0	902823936	50	5992
2026-01-02 00:31:38.74	326.57	55.41	-37.3	-38.1	24.9	0.00e+00	43	39	0	903872512	48	5803
2026-01-02 00:31:39.75	326.76	55.04	-36.7	-37.5	25.3	0.00e+00	31	39	0	905969664	46	6046
2026-01-02 00:31:40.75	326.94	54.68	-36.4	-37.2	25.5	0.00e+00	85	39	0	908066816	46	5831
2026-01-02 00:31:41.76	327.11	54.31	-36.9	-37.7	25.0	0.00e+00	52	39	0	910163968	46	6208
2026-01-02 00:31:42.77	327.28	53.95	-37.2	-38.1	24.7	0.00e+00	92	39	0	911212544	46	6476
2026-01-02 00:31:43.78	327.45	53.59	-37.1	-37.9	24.9	0.00e+00	31	39	0	913309696	46	6374
2026-01-02 00:31:44.79	327.61	53.24	-37.0	-37.8	24.9	0.00e+00	91	39	0	915406848	46	6313
2026-01-02 00:31:45.80	327.77	52.88	-37.6	-38.5	24.5	0.00e+00	0	39	0	917504000	46	6782
2026-01-02 00:31:46.81	327.93	52.53	-38.6	-39.5	23.5	0.00e+00	79	39	0	919601152	48	6842
2026-01-02 00:31:47.82	328.08	52.18	-39.2	-40.1	22.9	0.00e+00	40	39	0	921698304	50	6537
2026-01-02 00:31:48.83	328.23	51.84	-39.3	-40.2	22.9	0.00e+00	0	39	0	922746880	50	6614
2026-01-02 00:31:49.84	328.37	51.49	-39.8	-40.8	22.3	0.00e+00	92	39	0	924844032	50	7053
2026-01-02 00:31:50.85	328.51	51.15	-41.4	-42.7	20.4	0.00e+00	0	39	0	926941184	54	6988
2026-01-02 00:31:51.86	328.65	50.81	-43.1	-44.9	18.5	0.00e+00	92	39	0	929038336	58	7125
2026-01-02 00:31:52.86	328.79	50.48	-44.1	-46.2	17.3	0.00e+00	0	39	0	931135488	60	7374
2026-01-02 00:31:53.87	328.92	50.14	-43.5	-45.3	18.3	0.00e+00	92	39	0	932184064	60	6669
2026-01-02 00:31:54.88	329.05	49.81	-43.3	-45.1	18.2	0.00e+00	0	39	0	934281216	60	6501
2026-01-02 00:31:55.89	329.18	49.48	-43.5	-45.3	18.2	0.00e+00	0	39	0	936378368	60	6661
2026-01-02 00:31:56.90	329.30	49.15	-43.6	-45.4	18.1	0.00e+00	92	39	0	938475520	60	6750
2026-01-02 00:31:57.91	329.42	48.82	-43.0	-44.6	18.9	0.00e+00	0	39	0	940572672	60	6168
2026-01-02 00:31:58.92	329.54	48.50	-42.2	-43.6	19.9	0.00e+00	92	39	0	941621248	58	6110
2026-01-02 00:31:59.93	329.66	48.18	-41.8	-43.1	20.3	0.00e+00	50	39	0	943718400	56	6497
2026-01-02 00:32:00.94	329.78	47.86	-41.8	-43.2	20.3	0.00e+00	91	39	0	945815552	56	6540
2026-01-02 00:32:01.95	329.89	47.54	-42.4	-43.8	19.6	0.00e+00	46	39	0	947912704	56	7080
2026-01-02 00:32:02.96	330.00	47.23	-42.8	-44.4	19.0	0.00e+00	49	39	0	950009856	58	6767
2026-01-02 00:32:03.97	330.11	46.91	-42.4	-43.9	19.6	0.00e+00	91	39	0	951058432	58	6343
2026-01-02 00:32:04.98	330.21	46.60	-41.4	-42.7	20.8	0.00e+00	2	39	0	953155584	56	6231
2026-01-02 00:32:05.99	330.32	46.29	-40.7	-41.9	21.5	0.00e+00	92	39	0	955252736	56	5664
2026-01-02 00:32:07.00	330.42	45.99	-39.7	-40.7	22.6	0.00e+00	3	39	0	957349888	54	5555
2026-01-02 00:32:08.01	330.52	45.69	-38.7	-39.6	23.6	0.00e+00	92	39	0	959447040	52	5456
2026-01-02 00:32:09.02	330.62	45.38	-38.2	-39.0	24.0	0.00e+00	33	39	0	960495616	50	5731
2026-01-02 00:32:10.03	330.72	45.08	-38.2	-39.0	24.0	0.00e+00	92	39	0	962592768	50	5737
2026-01-02 00:32:11.04	330.81	44.79	-38.1	-39.0	24.0	0.00e+00	50	39	0	964689920	50	5716
2026-01-02 00:32:12.05	330.91	44.49	-38.5	-39.3	23.7	0.00e+00	3	39	0	966787072	50	5960
2026-01-02 00:32:13.06	331.00	44.20	-38.6	-39.6	23.5	0.00e+00	92	39	0	968884224	50	6117
2026-01-02 00:32:14.07	331.09	43.91	-39.1	-40.1	23.1	0.00e+00	0	39	0	969932800	50	6466
2026-01-02 00:32:15.08	331.18	43.62	-39.5	-40.5	22.6	0.00e+00	92	39	0	972029952	50	6837
2026-01-02 00:32:16.08	331.26	43.34	-39.7	-40.8	22.4	0.00e+00	51	39	0	974127104	50	7021
2026-01-02 00:32:17.10	331.35	43.05	-39.7	-40.7	22.5	0.00e+00	92	39	0	976224256	52	6235
2026-01-02 00:32:18.11	331.43	42.77	-39.4	-40.4	22.9	0.00e+00	0	39	0	978321408	52	5996
2026-01-02 00:32:19.12	331.52	42.49	-38.4	-39.2	23.9	0.00e+00	0	39	0	979369984	50	5896
2026-01-02 00:32:20.13	331.60	42.21	-37.4	-38.2	24.7	0.00e+00	92	39	0	981467136	48	5833
2026-01-02 00:32:21.14	331.68	41.93	-37.4	-38.2	24.6	0.00e+00	33	39	0	983564288	48	5848
2026-01-02 00:32:22.14	331.76	41.66	-37.2	-37.9	24.8	0.00e+00	92	39	0	985661440	48	5692
2026-01-02 00:32:23.15	331.83	41.39	-37.7	-38.5	24.5	0.00e+00	49	39	0	987758592	48	6055
2026-01-02 00:32:24.16	331.91	41.12	-38.2	-39.0	24.0	0.00e+00	90	39	0	989855744	48	6435
2026-01-02 00:32:25.17	331.99	40.85	-38.8	-39.7	23.4	0.00e+00	50	39	0	990904320	48	6958
2026-01-02 00:32:26.18	332.06	40.58	-39.2	-40.1	23.1	0.00e+00	0	39	0	993001472	50	6508
2026-01-02 00:32:27.18	332.13	40.32	-39.4	-40.3	22.8	0.00e+00	91	39	0	995098624	50	6680
2026-01-02 00:32:28.19	332.20	40.06	-39.3	-40.3	23.0	0.00e+00	2	39	0	997195776	50	6627
2026-01-02 00:32:29.21	332.28	39.79	-39.1	-40.1	23.1	0.00e+00	92	39	0	999292928	50	6495
2026-01-02 00:32:30.22	332.35	39.53	-38.8	-39.7	23.4	0.00e+00	31	39	0	1000341504	50	6207
2026-01-02 00:32:31.23	332.41	39.28	-38.7	-39.6	23.5	0.00e+00	92	39	0	1002438656	50	6125
2026-01-02 00:32:32.24	332.48	39.02	-38.6	-39.5	23.6	0.00e+00	0	39	0	1004535808	50	6068
2026-01-02 00:32:33.25	332.55	38.77	-38.8	-39.7	23.4	0.00e+00	92	39	0	1006632960	50	6184
2026-01-02 00:32:34.25	332.61	38.52	-38.7	-39.6	23.5	0.00e+00	0	39	0	1008730112	50	6139
2026-01-02 00:32:35.26	332.68	38.27	-38.6	-39.5	23.5	0.00e+00	0	39	0	1009778688	50	6091
2026-01-02 00:32:36.27	332.74	38.02	-38.9	-39.8	23.3	0.00e+00	92	39	0	1011875840	50	6265
2026-01-02 00:32:37.28	332.81	37.78	-39.4	-40.4	22.8	0.00e+00	0	39	0	1013972992	50	6739
2026-01-02 00:32:38.29	332.87	37.53	-40.0	-41.0	22.2	0.00e+00	92	39	0	1016070144	52	6455
2026-01-02 00:32:39.30	332.93	37.29	-40.6	-41.8	21.5	0.00e+00	47	39	0	1018167296	52	7045
2026-01-02 00:32:40.31	332.99	37.05	-40.8	-42.0	21.3	0.00e+00	92	39	0	1019215872	54	6430
2026-01-02 00:32:41.32	333.05	36.81	-40.8	-42.0	21.4	0.00e+00	0	39	0	1021313024	54	6427
2026-01-02 00:32:42.33	333.11	36.57	-40.4	-41.5	21.8	0.00e+00	0	39	0	1023410176	54	6072
2026-01-02 00:32:43.34	333.17	36.34	-40.3	-41.4	21.9	0.00e+00	92	39	0	1025507328	54	5992
2026-01-02 00:32:44.35	333.22	36.10	-40.2	-41.3	22.0	0.00e+00	34	39	0	1027604480	54	5946
2026-01-02 00:32:45.35	333.28	35.87	-39.8	-40.8	22.5	0.00e+00	92	39	0	1028653056	54	5601
2026-01-02 00:32:46.36	333.34	35.64	-39.4	-40.4	22.8	0.00e+00	47	39	0	1030750208	52	5970
2026-01-02 00:32:47.37	333.39	35.41	-39.4	-40.4	22.8	0.00e+00	92	39	0	1032847360	52	5979
2026-01-02 00:32:48.38	333.45	35.19	-39.3	-40.2	22.9	0.00e+00	5	39	0	1034944512	52	5852
2026-01-02 00:32:49.39	333.50	34.96	-39.4	-40.4	22.7	0.00e+00	91	39	0	1037041664	52	5975
2026-01-02 00:32:50.40	333.55	34.74	-39.3	-40.2	23.0	0.00e+00	91	39	0	1038090240	52	5894
2026-01-02 00:32:51.41	333.60	34.51	-39.4	-40.3	22.7	0.00e+00	0	39	0	1040187392	52	5956
2026-01-02 00:32:52.42	333.66	34.29	-39.6	-40.6	22.5	0.00e+00	92	39	0	1042284544	52	6135
2026-01-02 00:32:53.43	333.71	34.07	-40.1	-41.2	22.0	0.00e+00	0	39	0	1044381696	52	6546
2026-01-02 00:32:54.44	333.76	33.86	-40.8	-42.0	21.3	0.00e+00	90	39	0	1046478848	52	7207
2026-01-02 00:32:55.45	333.81	33.64	-41.4	-42.7	20.7	0.00e+00	6	39	0	1047527424	54	6929
2026-01-02 00:32:56.46	333.86	33.42	-41.9	-43.3	20.1	0.00e+00	90	39	0	1049624576	56	6672
2026-01-02 00:32:57.47	333.90	33.21	-42.4	-43.9	19.6	0.00e+00	0	39	0	1051721728	56	7091
2026-01-02 00:32:58.48	333.95	33.00	-42.2	-43.7	19.8	0.00e+00	47	39	0	1053818880	56	6943
2026-01-02 00:32:59.48	334.00	32.79	-42.1	-43.5	20.0	0.00e+00	92	39	0	1055916032	56	6821
2026-01-02 00:33:00.49	334.05	32.58	-41.7	-43.0	20.3	0.00e+00	0	39	0	1058013184	56	6452
2026-01-02 00:33:01.50	334.09	32.37	-41.6	-42.9	20.4	0.00e+00	48	39	0	1059061760	56	6381
2026-01-02 00:33:02.52	334.14	32.17	-41.5	-42.8	20.6	0.00e+00	46	39	0	1061158912	56	6255
2026-01-02 00:33:03.52	334.18	31.96	-41.5	-42.7	20.8	0.00e+00	48	39	0	1063256064	56	6232
2026-01-02 00:33:04.53	334.23	31.76	-41.3	-42.5	20.8	0.00e+00	0	39	0	1065353216	56	6102
2026-01-02 00:33:05.54	334.27	31.56	-41.2	-42.5	20.9	0.00e+00	0	39	0	1067450368	56	6049
2026-01-02 00:33:06.55	334.32	31.36	-41.2	-42.4	21.0	0.00e+00	91	39	0	1068498944	56	5981
2026-01-02 00:33:07.56	334.36	31.16	-41.1	-42.3	21.0	0.00e+00	41	39	0	1070596096	56	5913
2026-01-02 00:33:08.57	334.40	30.96	-41.0	-42.2	21.1	0.00e+00	92	39	0	1072693248	56	5864
2026-01-02 00:33:09.58	334.45	30.76	-41.0	-42.2	21.2	0.00e+00	6	39	0	1074790400	56	5859
2026-01-02 00:33:10.59	334.49	30.57	-40.5	-41.6	21.6	0.00e+00	6	39	0	1076887552	54	6136
2026-01-02 00:33:11.60	334.53	30.37	-40.2	-41.3	21.9	0.00e+00	41	39	0	1077936128	54	5942
2026-01-02 00:33:12.61	334.57	30.18	-40.0	-41.0	22.1	0.00e+00	6	39	0	1080033280	54	5748
2026-01-02 00:33:13.62	334.61	29.99	-39.9	-40.9	22.3	0.00e+00	92	39	0	1082130432	54	5691
2026-01-02 00:33:14.63	334.65	29.80	-39.6	-40.6	22.5	0.00e+00	6	39	0	1084227584	52	6157
2026-01-02 00:33:15.64	334.69	29.61	-39.6	-40.6	22.6	0.00e+00	92	39	0	1086324736	52	6114
2026-01-02 00:33:16.65	334.73	29.42	-39.5	-40.5	22.6	0.00e+00	0	39	0	1087373312	52	6083
2026-01-02 00:33:17.66	334.77	29.24	-39.5	-40.5	22.6	0.00e+00	0	39	0	1089470464	52	6073
2026-01-02 00:33:18.67	334.81	29.05	-39.4	-40.4	22.7	0.00e+00	7	39	0	1091567616	52	6025
2026-01-02 00:33:19.68	334.85	28.87	-39.5	-40.5	22.7	0.00e+00	45	39	0	1093664768	52	6039
2026-01-02 00:33:20.68	334.88	28.69	-39.4	-40.4	22.7	0.00e+00	3	39	0	1095761920	52	6016
2026-01-02 00:33:21.69	334.92	28.50	-39.3	-40.3	22.7	0.00e+00	0	39	0	1096810496	52	5951
2026-01-02 00:33:22.70	334.96	28.32	-39.3	-40.3	22.7	0.00e+00	92	39	0	1098907648	52	5954
2026-01-02 00:33:23.71	334.99	28.14	-39.3	-40.2	22.8	0.00e+00	46	39	0	1101004800	52	5891
2026-01-02 00:33:24.72	335.03	27.97	-39.2	-40.1	23.0	0.00e+00	92	39	0	1103101952	52	5824
2026-01-02 00:33:25.73	335.07	27.79	-39.2	-40.1	22.9	0.00e+00	46	39	0	1105199104	52	5828
2026-01-02 00:33:26.74	335.10	27.61	-38.9	-39.9	23.2	0.00e+00	46	39	0	1106247680	52	5663
2026-01-02 00:33:27.75	335.14	27.44	-38.9	-39.9	23.1	0.00e+00	47	39	0	1108344832	52	5663
2026-01-02 00:33:28.76	335.17	27.26	-38.6	-39.6	23.4	0.00e+00	45	39	0	1110441984	50	6105
2026-01-02 00:33:29.77	335.21	27.09	-38.8	-39.7	23.2	0.00e+00	92	39	0	1112539136	50	6215
2026-01-02 00:33:30.78	335.24	26.92	-38.5	-39.4	23.7	0.00e+00	2	39	0	1114636288	50	6012
2026-01-02 00:33:31.79	335.27	26.75	-38.4	-39.3	23.6	0.00e+00	92	39	0	1115684864	50	5923
2026-01-02 00:33:32.80	335.31	26.58	-38.5	-39.4	23.6	0.00e+00	37	39	0	1117782016	50	5990
2026-01-02 00:33:33.81	335.34	26.41	-38.5	-39.4	23.6	0.00e+00	34	39	0	1119879168	50	6017
2026-01-02 00:33:34.81	335.37	26.25	-38.4	-39.2	23.7	0.00e+00	36	39	0	1121976320	50	5895
2026-01-02 00:33:35.82	335.41	26.08	-38.4	-39.4	23.6	0.00e+00	36	39	0	1124073472	50	5966
2026-01-02 00:33:36.83	335.44	25.91	-38.5	-39.4	23.5	0.00e+00	92	39	0	1126170624	50	5980
2026-01-02 00:33:37.84	335.47	25.75	-38.6	-39.5	23.5	0.00e+00	2	39	0	1127219200	50	6062
2026-01-02 00:33:38.85	335.50	25.59	-38.5	-39.5	23.5	0.00e+00	92	39	0	1129316352	50	6037
2026-01-02 00:33:39.86	335.53	25.42	-38.5	-39.4	23.5	0.00e+00	0	39	0	1131413504	50	6031
2026-01-02 00:33:40.87	335.57	25.26	-38.4	-39.3	23.7	0.00e+00	92	39	0	1133510656	50	5903
2026-01-02 00:33:41.88	335.60	25.10	-38.5	-39.4	23.5	0.00e+00	0	39	0	1135607808	50	6008
2026-01-02 00:33:42.89	335.63	24.94	-38.4	-39.4	23.5	0.00e+00	44	39	0	1136656384	50	5969
2026-01-02 00:33:43.90	335.66	24.79	-38.2	-39.1	23.8	0.00e+00	45	39	0	1138753536	50	5811
2026-01-02 00:33:44.91	335.69	24.63	-38.1	-39.0	23.8	0.00e+00	45	39	0	1140850688	50	5717
2026-01-02 00:33:45.91	335.72	24.47	-37.9	-38.8	24.1	0.00e+00	91	39	0	1142947840	50	5610
2026-01-02 00:33:46.92	335.75	24.32	-37.8	-38.7	24.1	0.00e+00	0	39	0	1143996416	50	5509
2026-01-02 00:33:47.93	335.78	24.16	-37.7	-38.5	24.3	0.00e+00	91	39	0	1146093568	48	6084
2026-01-02 00:33:48.94	335.81	24.01	-37.4	-38.2	24.5	0.00e+00	45	39	0	1148190720	48	5888
2026-01-02 00:33:49.95	335.83	23.86	-37.3	-38.1	24.6	0.00e+00	46	39	0	1150287872	48	5824
2026-01-02 00:33:50.96	335.86	23.70	-37.3	-38.1	24.5	0.00e+00	51	39	0	1152385024	48	5780
2026-01-02 00:33:51.97	335.89	23.55	-37.1	-37.9	24.5	0.00e+00	38	39	0	1154482176	48	5693
2026-01-02 00:33:52.98	335.92	23.40	-37.0	-37.8	24.8	0.00e+00	92	39	0	1155530752	48	5606
2026-01-02 00:33:53.99	335.95	23.25	-37.1	-37.9	24.5	0.00e+00	37	39	0	1157627904	48	5669
2026-01-02 00:33:55.00	335.98	23.10	-37.1	-37.9	24.6	0.00e+00	90	39	0	1159725056	48	5672
2026-01-02 00:33:56.01	336.00	22.96	-37.0	-37.8	24.8	0.00e+00	38	39	0	1161822208	48	5582
2026-01-02 00:33:57.02	336.03	22.81	-36.8	-37.6	25.0	0.00e+00	38	39	0	1163919360	48	5474
2026-01-02 00:33:58.02	336.06	22.67	-36.9	-37.6	25.0	0.00e+00	0	39	0	1164967936	48	5499
2026-01-02 00:33:59.03	336.08	22.52	-36.9	-37.7	24.9	0.00e+00	0	39	0	1167065088	48	5533
2026-01-02 00:34:00.04	336.11	22.38	-36.9	-37.7	24.9	0.00e+00	92	39	0	1169162240	48	5558
2026-01-02 00:34:01.05	336.14	22.23	-37.0	-37.8	24.8	0.00e+00	0	39	0	1171259392	48	5612
2026-01-02 00:34:02.06	336.16	22.09	-37.1	-37.9	24.7	0.00e+00	92	39	0	1173356544	48	5665
2026-01-02 00:34:03.07	336.19	21.95	-37.3	-38.1	24.6	0.00e+00	0	39	0	1174405120	48	5804
2026-01-02 00:34:04.08	336.22	21.81	-37.5	-38.3	24.3	0.00e+00	79	39	0	1176502272	48	5940
2026-01-02 00:34:05.09	336.24	21.67	-37.5	-38.4	24.4	0.00e+00	45	39	0	1178599424	48	5967
2026-01-02 00:34:06.10	336.27	21.53	-37.6	-38.4	24.2	0.00e+00	0	39	0	1180696576	48	6030
2026-01-02 00:34:07.11	336.29	21.39	-37.8	-38.6	24.1	0.00e+00	0	39	0	1182793728	48	6149
2026-01-02 00:34:08.12	336.32	21.25	-37.8	-38.7	24.1	0.00e+00	0	39	0	1183842304	48	6210
2026-01-02 00:34:09.13	336.34	21.11	-38.0	-38.9	23.9	0.00e+00	90	39	0	1185939456	48	6319
2026-01-02 00:34:10.14	336.37	20.98	-38.0	-38.9	23.9	0.00e+00	0	39	0	1188036608	48	6332
2026-01-02 00:34:11.15	336.39	20.84	-38.1	-39.0	23.8	0.00e+00	0	39	0	1190133760	48	6442
2026-01-02 00:34:12.16	336.42	20.70	-38.2	-39.1	23.7	0.00e+00	44	39	0	1192230912	48	6490
