passes_logs/2026/01/02/R4.6S_Anadyr/R4.6S_Anadyr__20260102_202613_SUOMI_NPP_rec.log

#Pass ID: 20260102_202613_SUOMI NPP
#Satellite: SUOMI NPP
#Configuration: NPP
#almurnet v.1.7.20251203
#Start time: 2026-01-02 20:26:14

#Version: 2.2.20231116
#Station: R4.6S_Anadyr
#Location: 177.4865 lon 64.73178 lat
#TLE: 1 37849U 11061A   26001.07732418  .00000182  00000+0  10735-3 0  9990
#TLE: 2 37849  98.7795 303.2470 0002580  87.2016 272.9455 14.19520779734739

#Time	Az	El	Level	Level2	SNR	BER	BlckErr	Temp	State	Recorded	gain1	gain2
2026-01-02 20:26:14.52	68.76	0.07	-50.4	-68.1	3.5	3.03e+01	0	37	0	0	60	97905
2026-01-02 20:26:15.53	68.69	0.12	-50.1	-65.3	3.6	1.51e+00	0	38	104	0	60	66833
2026-01-02 20:26:16.54	68.61	0.17	-50.1	-65.4	3.6	1.51e+00	0	38	104	0	60	66960
2026-01-02 20:26:17.55	68.54	0.22	-50.1	-65.4	3.6	1.51e+00	0	38	104	0	60	67173
2026-01-02 20:26:18.55	68.46	0.27	-50.1	-65.4	3.6	1.51e+00	0	38	104	0	60	67068
2026-01-02 20:26:19.56	68.39	0.32	-50.0	-65.3	3.6	1.51e+00	0	38	104	0	60	66653
2026-01-02 20:26:20.57	68.32	0.37	-50.1	-65.4	3.6	1.51e+00	0	38	104	0	60	67268
2026-01-02 20:26:21.58	68.24	0.42	-50.1	-65.4	3.6	1.51e+00	0	38	104	0	60	67325
2026-01-02 20:26:22.59	68.17	0.47	-50.0	-65.4	3.6	1.51e+00	0	38	104	0	60	67043
2026-01-02 20:26:23.60	68.09	0.52	-50.1	-65.4	3.6	1.51e+00	0	38	104	0	60	67001
2026-01-02 20:26:24.61	68.01	0.57	-50.0	-65.2	3.6	1.51e+00	0	38	104	0	60	65809
2026-01-02 20:26:25.62	67.94	0.62	-49.8	-65.1	3.6	1.51e+00	0	38	104	0	60	65096
2026-01-02 20:26:26.63	67.86	0.67	-49.5	-65.0	3.6	1.51e+00	0	38	104	0	60	64499
2026-01-02 20:26:27.64	67.79	0.72	-49.0	-64.8	3.6	1.51e+00	0	38	104	0	60	63169
2026-01-02 20:26:28.65	67.71	0.77	-49.4	-64.6	3.6	1.51e+00	0	38	104	0	60	61556
2026-01-02 20:26:29.66	67.63	0.82	-49.1	-64.3	3.5	1.51e+00	0	38	104	0	60	59301
2026-01-02 20:26:30.67	67.55	0.87	-48.3	-63.6	3.6	1.51e+00	0	38	104	0	60	54505
2026-01-02 20:26:31.68	67.48	0.92	-48.3	-63.5	3.6	1.51e+00	0	38	104	0	60	54340
2026-01-02 20:26:32.69	67.40	0.97	-48.3	-63.5	3.6	1.51e+00	0	38	104	0	60	54382
2026-01-02 20:26:33.70	67.32	1.02	-48.3	-63.5	3.6	1.51e+00	0	38	104	0	60	54223
2026-01-02 20:26:34.71	67.24	1.07	-48.3	-63.4	3.6	1.51e+00	0	38	104	0	60	53690
2026-01-02 20:26:35.72	67.16	1.13	-48.3	-63.5	3.6	1.51e+00	0	38	104	0	60	54145
2026-01-02 20:26:36.73	67.08	1.18	-48.3	-63.5	3.6	1.51e+00	0	38	104	0	60	54059
2026-01-02 20:26:37.74	67.01	1.23	-48.3	-63.4	3.6	1.51e+00	0	39	104	0	60	53682
2026-01-02 20:26:38.75	66.93	1.28	-48.3	-63.5	3.6	1.51e+00	0	39	104	0	60	54123
2026-01-02 20:26:39.76	66.85	1.33	-48.3	-63.5	3.6	1.51e+00	0	38	104	0	60	54294
2026-01-02 20:26:40.77	66.77	1.38	-48.3	-63.5	3.6	1.51e+00	0	38	104	0	60	54299
2026-01-02 20:26:41.78	66.69	1.43	-48.3	-63.5	3.6	1.51e+00	0	38	104	0	60	54217
2026-01-02 20:26:42.79	66.60	1.48	-48.3	-63.5	3.6	1.51e+00	0	38	104	0	60	53774
2026-01-02 20:26:43.80	66.52	1.53	-48.3	-63.5	3.6	1.51e+00	0	38	104	0	60	54072
2026-01-02 20:26:44.81	66.44	1.58	-48.3	-63.5	3.6	1.51e+00	0	38	104	0	60	53865
2026-01-02 20:26:45.82	66.36	1.63	-48.3	-63.4	3.6	1.51e+00	0	39	104	0	60	53624
2026-01-02 20:26:46.83	66.28	1.69	-48.3	-63.5	3.6	1.51e+00	0	39	104	0	60	53834
2026-01-02 20:26:47.84	66.20	1.74	-48.3	-63.5	3.6	1.51e+00	0	39	104	0	60	53814
2026-01-02 20:26:48.85	66.11	1.79	-48.3	-63.6	3.6	1.51e+00	0	39	104	0	60	54423
2026-01-02 20:26:49.86	66.03	1.84	-48.3	-63.5	3.6	1.51e+00	0	39	104	0	60	53921
2026-01-02 20:26:50.87	65.95	1.89	-48.3	-63.5	3.6	1.51e+00	0	39	104	0	60	53938
2026-01-02 20:26:51.88	65.87	1.94	-48.3	-63.5	3.6	1.51e+00	0	39	104	0	60	53805
2026-01-02 20:26:52.89	65.78	1.99	-48.3	-63.4	3.6	1.51e+00	0	39	104	0	60	53478
2026-01-02 20:26:53.90	65.70	2.04	-48.3	-63.3	3.6	1.51e+00	0	39	104	0	60	52917
2026-01-02 20:26:54.90	65.61	2.10	-48.2	-63.1	3.6	1.51e+00	0	38	104	0	60	51707
2026-01-02 20:26:55.91	65.53	2.15	-48.2	-62.9	3.6	1.51e+00	0	39	104	0	60	50261
2026-01-02 20:26:56.92	65.44	2.20	-48.2	-62.9	3.6	1.51e+00	0	39	104	0	60	50609
2026-01-02 20:26:57.93	65.36	2.25	-48.3	-63.1	3.6	1.51e+00	0	39	104	0	60	51817
2026-01-02 20:26:58.94	65.27	2.30	-48.3	-63.4	3.6	1.51e+00	0	39	104	0	60	53545
2026-01-02 20:26:59.95	65.19	2.35	-48.3	-63.5	3.6	1.51e+00	0	39	104	0	60	54095
2026-01-02 20:27:00.96	65.10	2.40	-48.3	-63.4	3.6	1.51e+00	0	39	104	0	60	53630
2026-01-02 20:27:01.97	65.02	2.46	-48.3	-63.4	3.6	1.51e+00	0	39	104	0	60	53492
2026-01-02 20:27:02.98	64.93	2.51	-48.3	-63.5	3.6	1.51e+00	0	39	104	0	60	53949
2026-01-02 20:27:03.99	64.84	2.56	-48.3	-63.5	3.6	1.51e+00	0	39	104	0	60	53883
2026-01-02 20:27:05.00	64.75	2.61	-48.2	-63.3	3.6	1.51e+00	0	39	104	0	60	52591
2026-01-02 20:27:06.01	64.67	2.66	-48.2	-62.8	3.6	1.51e+00	0	39	104	0	60	49856
2026-01-02 20:27:07.02	64.58	2.72	-48.2	-62.5	3.6	1.51e+00	0	39	104	0	60	47931
2026-01-02 20:27:08.03	64.49	2.77	-48.2	-62.8	3.6	1.51e+00	0	39	104	0	60	49708
2026-01-02 20:27:09.04	64.40	2.82	-48.3	-63.3	3.6	1.51e+00	0	39	104	0	60	52655
2026-01-02 20:27:10.05	64.31	2.87	-48.2	-61.2	3.6	1.51e+00	0	39	104	0	60	41593
2026-01-02 20:27:11.06	64.22	2.92	-47.8	-57.3	5.3	1.37e+00	0	39	104	0	60	26622
2026-01-02 20:27:12.07	64.13	2.97	-47.2	-53.3	8.4	1.82e-01	0	39	0	1048576	60	16625
2026-01-02 20:27:13.08	64.04	3.03	-46.6	-51.5	10.7	1.33e-02	0	39	0	3145728	60	13538
2026-01-02 20:27:14.09	63.95	3.08	-48.4	-62.8	3.6	6.33e-01	0	39	104	4194304	60	50153
2026-01-02 20:27:15.10	63.86	3.13	-46.9	-52.5	10.5	8.88e-01	0	39	104	4194304	60	15276
2026-01-02 20:27:16.11	63.77	3.18	-48.3	-63.4	3.6	9.67e-01	0	39	104	4194304	60	53322
2026-01-02 20:27:17.11	63.68	3.23	-48.2	-63.3	3.6	1.51e+00	0	39	104	4194304	60	52659
2026-01-02 20:27:18.12	63.59	3.29	-45.5	-49.0	13.2	3.50e-01	0	39	104	4194304	60	10200
2026-01-02 20:27:19.13	63.50	3.34	-45.1	-48.1	14.1	7.00e-07	0	39	0	5242880	60	9235
2026-01-02 20:27:20.15	63.40	3.39	-44.9	-47.9	14.7	7.00e-07	0	39	0	7340032	60	8949
2026-01-02 20:27:21.16	63.31	3.44	-44.9	-47.8	14.8	0.00e+00	0	39	0	8388608	60	8879
2026-01-02 20:27:22.16	63.22	3.50	-43.9	-46.2	16.3	0.00e+00	0	39	0	10485760	60	7383
2026-01-02 20:27:23.17	63.13	3.55	-43.3	-45.4	17.1	0.00e+00	0	39	0	12582912	60	6747
2026-01-02 20:27:24.18	63.03	3.60	-43.7	-46.0	16.3	0.00e+00	0	39	0	14680064	60	7221
2026-01-02 20:27:25.19	62.94	3.65	-43.4	-45.5	17.1	0.00e+00	0	39	0	16777216	60	6783
2026-01-02 20:27:26.20	62.84	3.71	-43.9	-46.2	16.4	0.00e+00	0	39	0	17825792	60	7361
2026-01-02 20:27:27.21	62.75	3.76	-43.6	-45.7	16.6	0.00e+00	0	39	0	19922944	60	7004
2026-01-02 20:27:28.22	62.66	3.81	-43.9	-46.2	16.3	0.00e+00	0	39	0	22020096	60	7396
2026-01-02 20:27:29.23	62.56	3.86	-43.9	-46.1	16.8	0.00e+00	0	39	0	24117248	60	7320
2026-01-02 20:27:30.24	62.46	3.92	-43.9	-46.2	16.2	0.00e+00	0	39	0	26214400	60	7395
2026-01-02 20:27:31.25	62.37	3.97	-43.9	-46.2	16.5	0.00e+00	0	39	0	27262976	60	7344
2026-01-02 20:27:32.26	62.27	4.02	-44.0	-46.4	16.1	0.00e+00	0	39	0	29360128	60	7534
2026-01-02 20:27:33.27	62.17	4.07	-43.6	-45.7	16.9	0.00e+00	0	39	0	31457280	60	6952
2026-01-02 20:27:34.28	62.08	4.13	-43.9	-46.1	16.6	0.00e+00	0	39	0	33554432	60	7279
2026-01-02 20:27:35.29	61.98	4.18	-43.7	-46.0	16.6	0.00e+00	0	39	0	35651584	60	7179
2026-01-02 20:27:36.30	61.88	4.23	-44.0	-46.3	16.3	0.00e+00	0	39	0	36700160	60	7463
2026-01-02 20:27:37.31	61.78	4.28	-43.9	-46.2	16.5	0.00e+00	0	39	0	38797312	60	7363
2026-01-02 20:27:38.32	61.68	4.34	-44.0	-46.3	16.4	0.00e+00	0	39	0	40894464	60	7460
2026-01-02 20:27:39.32	61.59	4.39	-43.9	-46.2	16.6	0.00e+00	0	39	0	42991616	60	7389
2026-01-02 20:27:40.33	61.49	4.44	-44.1	-46.5	16.4	0.00e+00	0	39	0	45088768	60	7614
2026-01-02 20:27:41.34	61.39	4.49	-43.9	-46.2	16.7	0.00e+00	0	39	0	47185920	60	7340
2026-01-02 20:27:42.35	61.29	4.55	-44.0	-46.3	16.6	0.00e+00	0	39	0	48234496	60	7494
2026-01-02 20:27:43.36	61.19	4.60	-43.4	-45.4	17.4	0.00e+00	0	39	0	50331648	60	6752
2026-01-02 20:27:44.37	61.09	4.65	-43.4	-45.4	17.4	0.00e+00	0	39	0	52428800	60	6753
2026-01-02 20:27:45.38	60.98	4.71	-43.4	-45.5	17.2	0.00e+00	0	39	0	54525952	60	6789
2026-01-02 20:27:46.39	60.88	4.76	-43.6	-45.7	17.1	0.00e+00	0	39	0	56623104	60	6929
2026-01-02 20:27:47.40	60.78	4.81	-43.5	-45.6	17.3	0.00e+00	0	39	0	57671680	60	6875
2026-01-02 20:27:48.41	60.68	4.86	-43.5	-45.6	17.2	0.00e+00	0	39	0	59768832	60	6910
2026-01-02 20:27:49.42	60.58	4.92	-43.7	-45.8	16.9	0.00e+00	0	39	0	61865984	60	7082
2026-01-02 20:27:50.43	60.47	4.97	-43.5	-45.6	17.1	0.00e+00	0	39	0	63963136	60	6897
2026-01-02 20:27:51.44	60.37	5.02	-43.2	-45.1	17.5	0.00e+00	0	39	0	66060288	60	6530
2026-01-02 20:27:52.45	60.27	5.08	-43.5	-45.5	17.3	0.00e+00	0	39	0	67108864	60	6848
2026-01-02 20:27:53.46	60.16	5.13	-43.4	-45.4	17.4	0.00e+00	0	39	0	69206016	60	6712
2026-01-02 20:27:54.47	60.06	5.18	-43.3	-45.3	17.6	0.00e+00	0	39	0	71303168	60	6621
2026-01-02 20:27:55.48	59.95	5.24	-43.2	-45.1	17.7	0.00e+00	0	39	0	73400320	60	6508
2026-01-02 20:27:56.49	59.85	5.29	-43.1	-45.0	17.8	0.00e+00	0	39	0	75497472	60	6435
2026-01-02 20:27:57.50	59.74	5.34	-43.3	-45.3	17.3	0.00e+00	0	39	0	76546048	60	6689
2026-01-02 20:27:58.50	59.63	5.39	-43.4	-45.5	17.4	0.00e+00	0	39	0	78643200	60	6789
2026-01-02 20:27:59.51	59.53	5.45	-43.4	-45.4	17.3	0.00e+00	0	39	0	80740352	60	6744
2026-01-02 20:28:00.52	59.42	5.50	-43.2	-45.2	17.6	0.00e+00	0	39	0	82837504	60	6566
2026-01-02 20:28:01.53	59.31	5.55	-43.3	-45.3	17.5	0.00e+00	0	39	0	84934656	60	6660
2026-01-02 20:28:02.54	59.21	5.61	-43.3	-45.3	17.5	0.00e+00	0	39	0	85983232	60	6661
2026-01-02 20:28:03.55	59.10	5.66	-43.2	-45.1	17.7	0.00e+00	0	39	0	88080384	60	6482
2026-01-02 20:28:04.56	58.99	5.71	-43.2	-45.1	17.7	0.00e+00	0	39	0	90177536	60	6518
2026-01-02 20:28:05.57	58.88	5.77	-43.3	-45.2	17.5	0.00e+00	0	39	0	92274688	60	6608
2026-01-02 20:28:06.58	58.77	5.82	-43.2	-45.1	17.8	0.00e+00	0	39	0	94371840	60	6527
2026-01-02 20:28:07.59	58.66	5.87	-43.3	-45.3	17.6	0.00e+00	0	39	0	95420416	60	6669
2026-01-02 20:28:08.60	58.55	5.93	-43.3	-45.3	17.6	0.00e+00	0	39	0	97517568	60	6667
2026-01-02 20:28:09.61	58.44	5.98	-43.4	-45.4	17.4	0.00e+00	0	39	0	99614720	60	6769
2026-01-02 20:28:10.62	58.33	6.03	-43.5	-45.6	17.2	0.00e+00	0	39	0	101711872	60	6872
2026-01-02 20:28:11.63	58.22	6.08	-43.3	-45.4	17.5	0.00e+00	0	39	0	103809024	60	6695
2026-01-02 20:28:12.64	58.10	6.14	-43.3	-45.2	17.6	0.00e+00	0	39	0	104857600	60	6606
2026-01-02 20:28:13.65	57.99	6.19	-43.4	-45.4	17.4	0.00e+00	0	39	0	106954752	60	6765
2026-01-02 20:28:14.66	57.88	6.24	-43.4	-45.4	17.5	0.00e+00	0	39	0	109051904	60	6747
2026-01-02 20:28:15.67	57.77	6.30	-43.4	-45.5	17.5	0.00e+00	0	39	0	111149056	60	6781
2026-01-02 20:28:16.68	57.65	6.35	-43.2	-45.2	17.8	0.00e+00	0	39	0	113246208	60	6551
2026-01-02 20:28:17.69	57.54	6.40	-43.2	-45.0	17.9	0.00e+00	0	39	0	115343360	60	6443
2026-01-02 20:28:18.70	57.42	6.46	-43.0	-44.8	18.2	0.00e+00	0	39	0	116391936	60	6265
2026-01-02 20:28:19.71	57.31	6.51	-42.8	-44.6	18.3	0.00e+00	0	39	0	118489088	60	6142
2026-01-02 20:28:20.72	57.19	6.56	-42.8	-44.6	18.4	0.00e+00	0	39	0	120586240	60	6118
2026-01-02 20:28:21.73	57.08	6.62	-43.0	-44.8	18.2	0.00e+00	0	39	0	122683392	60	6306
2026-01-02 20:28:22.74	56.96	6.67	-42.8	-44.5	18.4	0.00e+00	0	39	0	124780544	58	6823
2026-01-02 20:28:23.75	56.84	6.72	-42.4	-44.0	18.9	0.00e+00	0	39	0	125829120	58	6453
2026-01-02 20:28:24.76	56.73	6.78	-42.4	-44.0	18.9	0.00e+00	0	39	0	127926272	58	6406
2026-01-02 20:28:25.77	56.61	6.83	-42.4	-44.0	18.9	0.00e+00	0	39	0	130023424	58	6426
2026-01-02 20:28:26.78	56.49	6.88	-42.6	-44.3	18.6	0.00e+00	0	39	0	132120576	58	6663
2026-01-02 20:28:27.79	56.37	6.94	-42.1	-43.6	19.3	0.00e+00	0	39	0	134217728	58	6172
2026-01-02 20:28:28.80	56.25	6.99	-42.2	-43.7	19.3	0.00e+00	0	39	0	135266304	58	6228
2026-01-02 20:28:29.81	56.13	7.04	-42.3	-43.9	19.1	0.00e+00	0	39	0	137363456	58	6349
2026-01-02 20:28:30.82	56.01	7.10	-42.1	-43.5	19.5	0.00e+00	0	39	0	139460608	58	6091
2026-01-02 20:28:31.83	55.89	7.15	-41.9	-43.4	19.6	0.00e+00	0	39	0	141557760	56	6722
2026-01-02 20:28:32.84	55.77	7.20	-42.1	-43.6	19.3	0.00e+00	0	39	0	143654912	56	6893
2026-01-02 20:28:33.85	55.65	7.26	-42.0	-43.5	19.3	0.00e+00	0	39	0	144703488	56	6795
2026-01-02 20:28:34.86	55.53	7.31	-42.2	-43.7	19.0	0.00e+00	0	39	0	146800640	56	6943
2026-01-02 20:28:35.87	55.41	7.36	-42.0	-43.4	19.5	0.00e+00	0	39	0	148897792	56	6769
2026-01-02 20:28:36.88	55.29	7.42	-41.9	-43.4	19.5	0.00e+00	0	39	0	150994944	56	6703
2026-01-02 20:28:37.89	55.16	7.47	-42.0	-43.5	19.5	0.00e+00	0	39	0	153092096	56	6784
2026-01-02 20:28:38.90	55.04	7.52	-42.2	-43.7	19.4	0.00e+00	0	39	0	154140672	56	6950
2026-01-02 20:28:39.91	54.92	7.57	-42.0	-43.4	19.6	0.00e+00	0	39	0	156237824	56	6759
2026-01-02 20:28:40.92	54.79	7.63	-42.0	-43.5	19.5	0.00e+00	0	39	0	158334976	56	6781
2026-01-02 20:28:41.93	54.67	7.68	-42.0	-43.5	19.6	0.00e+00	0	39	0	160432128	56	6775
2026-01-02 20:28:42.94	54.54	7.73	-42.2	-43.7	19.5	0.00e+00	0	39	0	162529280	56	6944
2026-01-02 20:28:43.95	54.42	7.79	-42.3	-43.8	19.2	0.00e+00	0	39	0	163577856	56	7063
2026-01-02 20:28:44.95	54.29	7.84	-42.4	-43.9	19.0	0.00e+00	0	39	0	165675008	56	7156
2026-01-02 20:28:45.96	54.16	7.89	-42.3	-43.8	19.3	0.00e+00	0	39	0	167772160	56	7022
2026-01-02 20:28:46.97	54.04	7.95	-42.4	-44.0	19.2	0.00e+00	0	39	0	169869312	56	7171
2026-01-02 20:28:47.98	53.91	8.00	-42.3	-43.8	19.3	0.00e+00	0	39	0	171966464	56	7059
2026-01-02 20:28:48.99	53.78	8.05	-42.3	-43.8	19.4	0.00e+00	0	39	0	173015040	56	7025
2026-01-02 20:28:50.00	53.65	8.10	-42.2	-43.7	19.5	0.00e+00	0	39	0	175112192	56	6953
2026-01-02 20:28:51.01	53.52	8.16	-42.2	-43.6	19.5	0.00e+00	0	39	0	177209344	56	6896
2026-01-02 20:28:52.02	53.39	8.21	-42.3	-43.8	19.3	0.00e+00	0	39	0	179306496	56	7061
2026-01-02 20:28:53.03	53.26	8.26	-42.5	-44.1	19.2	0.00e+00	0	39	0	181403648	56	7307
2026-01-02 20:28:54.04	53.13	8.32	-42.5	-44.0	19.2	0.00e+00	0	39	0	182452224	56	7228
2026-01-02 20:28:55.05	53.00	8.37	-42.4	-43.9	19.2	0.00e+00	0	39	0	184549376	56	7163
2026-01-02 20:28:56.06	52.87	8.42	-42.6	-44.2	19.0	0.00e+00	0	39	0	186646528	56	7385
2026-01-02 20:28:57.06	52.74	8.47	-42.4	-44.0	19.3	0.00e+00	0	39	0	188743680	56	7192
2026-01-02 20:28:58.08	52.61	8.53	-42.3	-43.8	19.4	0.00e+00	0	39	0	190840832	56	7039
2026-01-02 20:28:59.09	52.47	8.58	-42.0	-43.5	19.5	0.00e+00	0	39	0	192937984	56	6804
2026-01-02 20:29:00.09	52.34	8.63	-42.1	-43.6	19.6	0.00e+00	0	39	0	193986560	56	6869
2026-01-02 20:29:01.10	52.21	8.68	-42.1	-43.5	19.7	0.00e+00	0	39	0	196083712	56	6813
2026-01-02 20:29:02.11	52.07	8.74	-42.1	-43.6	19.5	0.00e+00	0	39	0	198180864	56	6882
2026-01-02 20:29:03.12	51.94	8.79	-42.3	-43.8	19.4	0.00e+00	0	39	0	200278016	56	7018
2026-01-02 20:29:04.13	51.80	8.84	-42.2	-43.6	19.5	0.00e+00	0	39	0	201326592	56	6920
2026-01-02 20:29:05.14	51.67	8.89	-41.9	-43.3	19.8	0.00e+00	0	39	0	203423744	56	6678
2026-01-02 20:29:06.15	51.53	8.95	-42.1	-43.6	19.4	0.00e+00	0	39	0	205520896	56	6867
2026-01-02 20:29:07.16	51.39	9.00	-42.2	-43.7	19.5	0.00e+00	0	39	0	207618048	56	6978
2026-01-02 20:29:08.17	51.25	9.05	-41.9	-43.3	19.8	0.00e+00	0	39	0	209715200	56	6687
2026-01-02 20:29:09.18	51.12	9.10	-41.9	-43.3	20.0	0.00e+00	0	39	0	210763776	56	6642
2026-01-02 20:29:10.19	50.98	9.15	-41.9	-43.2	19.8	0.00e+00	0	39	0	212860928	56	6602
2026-01-02 20:29:11.19	50.84	9.21	-41.9	-43.2	19.9	0.00e+00	0	39	0	214958080	56	6615
2026-01-02 20:29:12.20	50.70	9.26	-42.0	-43.5	19.7	0.00e+00	0	39	0	217055232	56	6802
2026-01-02 20:29:13.21	50.56	9.31	-42.2	-43.7	19.5	0.00e+00	0	39	0	219152384	56	6991
2026-01-02 20:29:14.23	50.42	9.36	-42.7	-44.3	18.9	0.00e+00	0	39	0	221249536	56	7468
2026-01-02 20:29:15.23	50.28	9.41	-42.6	-44.2	19.0	0.00e+00	0	39	0	222298112	56	7379
2026-01-02 20:29:16.24	50.14	9.46	-42.5	-44.1	19.1	0.00e+00	0	39	0	224395264	56	7271
2026-01-02 20:29:17.25	50.00	9.52	-42.4	-43.9	19.2	0.00e+00	0	39	0	226492416	58	6383
2026-01-02 20:29:18.26	49.85	9.57	-42.5	-44.1	19.1	0.00e+00	0	39	0	228589568	58	6537
2026-01-02 20:29:19.27	49.71	9.62	-42.4	-44.0	19.3	0.00e+00	0	39	0	230686720	58	6396
2026-01-02 20:29:20.28	49.57	9.67	-42.6	-44.2	18.9	0.00e+00	0	39	0	231735296	58	6581
2026-01-02 20:29:21.29	49.42	9.72	-42.6	-44.3	18.9	0.00e+00	0	39	0	233832448	58	6617
2026-01-02 20:29:22.30	49.28	9.77	-42.6	-44.2	19.0	0.00e+00	0	39	0	235929600	58	6559
2026-01-02 20:29:23.31	49.13	9.83	-42.6	-44.3	18.9	0.00e+00	0	39	0	238026752	58	6616
2026-01-02 20:29:24.32	48.99	9.88	-42.5	-44.1	19.2	0.00e+00	0	39	0	240123904	58	6488
2026-01-02 20:29:25.33	48.84	9.93	-42.0	-43.5	19.6	0.00e+00	0	39	0	241172480	58	6078
2026-01-02 20:29:26.34	48.70	9.98	-42.0	-43.4	19.7	0.00e+00	0	39	0	243269632	58	6024
2026-01-02 20:29:27.35	48.55	10.03	-41.8	-43.2	19.9	0.00e+00	0	39	0	245366784	58	5893
2026-01-02 20:29:28.36	48.40	10.08	-42.0	-43.5	19.7	0.00e+00	0	39	0	247463936	58	6045
2026-01-02 20:29:29.37	48.25	10.13	-41.9	-43.4	19.8	0.00e+00	0	39	0	249561088	58	5979
2026-01-02 20:29:30.38	48.10	10.18	-41.9	-43.3	19.9	0.00e+00	0	39	0	250609664	58	5923
2026-01-02 20:29:31.38	47.96	10.23	-41.5	-42.9	20.2	0.00e+00	0	39	0	252706816	56	6337
2026-01-02 20:29:32.39	47.81	10.28	-41.5	-42.8	20.3	0.00e+00	0	39	0	254803968	56	6305
2026-01-02 20:29:33.40	47.66	10.33	-41.2	-42.5	20.6	0.00e+00	0	39	0	256901120	56	6091
2026-01-02 20:29:34.42	47.50	10.38	-41.3	-42.6	20.6	0.00e+00	0	39	0	258998272	56	6105
2026-01-02 20:29:35.42	47.35	10.43	-41.4	-42.8	20.5	0.00e+00	0	39	0	260046848	56	6247
2026-01-02 20:29:36.43	47.20	10.48	-41.1	-42.4	20.7	0.00e+00	0	39	0	262144000	56	5982
2026-01-02 20:29:37.44	47.05	10.53	-41.2	-42.5	20.6	0.00e+00	0	39	0	264241152	56	6078
2026-01-02 20:29:38.45	46.90	10.58	-41.1	-42.3	20.7	0.00e+00	0	39	0	266338304	56	5943
2026-01-02 20:29:39.46	46.74	10.63	-41.0	-42.2	20.9	0.00e+00	0	39	0	268435456	56	5852
2026-01-02 20:29:40.47	46.59	10.68	-40.6	-41.8	20.8	0.00e+00	0	39	0	269484032	54	6292
2026-01-02 20:29:41.48	46.43	10.73	-40.5	-41.6	21.3	0.00e+00	0	39	0	271581184	54	6144
2026-01-02 20:29:42.49	46.28	10.78	-40.3	-41.5	21.4	0.00e+00	0	39	0	273678336	54	6050
2026-01-02 20:29:43.49	46.12	10.83	-40.4	-41.6	21.4	0.00e+00	0	39	0	275775488	54	6126
2026-01-02 20:29:44.50	45.97	10.88	-40.3	-41.5	21.4	0.00e+00	0	39	0	277872640	54	6058
2026-01-02 20:29:45.51	45.81	10.93	-40.5	-41.6	21.4	0.00e+00	0	39	0	279969792	54	6134
2026-01-02 20:29:46.52	45.65	10.98	-40.5	-41.6	21.3	0.00e+00	0	39	0	281018368	54	6147
2026-01-02 20:29:47.53	45.50	11.03	-40.2	-41.3	21.7	0.00e+00	0	39	0	283115520	54	5904
2026-01-02 20:29:48.54	45.34	11.08	-40.2	-41.3	21.6	0.00e+00	0	39	0	285212672	54	5911
2026-01-02 20:29:49.55	45.18	11.13	-40.4	-41.6	21.3	0.00e+00	0	39	0	287309824	54	6129
2026-01-02 20:29:50.56	45.02	11.18	-40.5	-41.6	21.3	0.00e+00	0	39	0	289406976	54	6159
2026-01-02 20:29:51.57	44.86	11.23	-40.7	-41.9	21.1	0.00e+00	0	39	0	290455552	54	6347
2026-01-02 20:29:52.58	44.70	11.27	-40.6	-41.8	21.2	0.00e+00	0	39	0	292552704	54	6248
2026-01-02 20:29:53.59	44.54	11.32	-40.7	-41.9	21.2	0.00e+00	0	39	0	294649856	54	6347
2026-01-02 20:29:54.60	44.38	11.37	-40.4	-41.6	21.4	0.00e+00	0	39	0	296747008	54	6139
2026-01-02 20:29:55.61	44.22	11.42	-40.5	-41.6	21.3	0.00e+00	0	39	0	298844160	54	6165
2026-01-02 20:29:56.62	44.05	11.47	-40.5	-41.6	21.4	0.00e+00	0	39	0	299892736	54	6169
2026-01-02 20:29:57.63	43.89	11.51	-40.7	-41.9	21.0	0.00e+00	0	39	0	301989888	54	6332
2026-01-02 20:29:58.64	43.73	11.56	-40.7	-41.9	21.1	0.00e+00	0	39	0	304087040	54	6347
2026-01-02 20:29:59.64	43.56	11.61	-40.3	-41.4	21.5	0.00e+00	0	39	0	306184192	54	6033
2026-01-02 20:30:00.65	43.40	11.66	-40.3	-41.4	21.5	0.00e+00	0	39	0	308281344	54	5998
2026-01-02 20:30:01.66	43.23	11.70	-40.2	-41.4	21.5	0.00e+00	0	39	0	309329920	54	5970
2026-01-02 20:30:02.67	43.07	11.75	-39.8	-40.9	21.6	0.00e+00	0	39	0	311427072	54	5639
2026-01-02 20:30:03.68	42.90	11.80	-39.9	-41.0	22.0	0.00e+00	0	39	0	313524224	52	6415
2026-01-02 20:30:04.69	42.73	11.84	-39.8	-40.9	22.0	0.00e+00	0	39	0	315621376	52	6323
2026-01-02 20:30:05.70	42.57	11.89	-39.9	-40.9	21.9	0.00e+00	0	39	0	317718528	52	6383
2026-01-02 20:30:06.71	42.40	11.94	-39.8	-40.8	22.0	0.00e+00	0	39	0	318767104	52	6300
2026-01-02 20:30:07.72	42.23	11.98	-39.8	-40.9	22.0	0.00e+00	0	39	0	320864256	52	6349
2026-01-02 20:30:08.73	42.06	12.03	-39.7	-40.8	22.2	0.00e+00	0	39	0	322961408	52	6268
2026-01-02 20:30:09.74	41.89	12.08	-39.7	-40.8	22.1	0.00e+00	0	39	0	325058560	52	6255
2026-01-02 20:30:10.75	41.72	12.12	-39.9	-41.0	21.9	0.00e+00	0	39	0	327155712	52	6435
2026-01-02 20:30:11.76	41.55	12.17	-40.0	-41.1	21.8	0.00e+00	0	39	0	328204288	52	6528
2026-01-02 20:30:12.76	41.38	12.21	-40.1	-41.2	21.7	0.00e+00	0	39	0	330301440	52	6615
2026-01-02 20:30:13.78	41.21	12.26	-40.2	-41.3	21.7	0.00e+00	0	39	0	332398592	52	6644
2026-01-02 20:30:14.79	41.03	12.30	-40.1	-41.2	21.6	0.00e+00	0	39	0	334495744	52	6595
2026-01-02 20:30:15.79	40.86	12.35	-40.0	-41.0	22.0	0.00e+00	0	39	0	336592896	52	6451
2026-01-02 20:30:16.80	40.69	12.39	-39.4	-40.4	22.5	0.00e+00	0	39	0	337641472	52	6006
2026-01-02 20:30:17.81	40.52	12.44	-39.3	-40.3	22.5	0.00e+00	0	39	0	339738624	52	5935
2026-01-02 20:30:18.82	40.34	12.48	-39.2	-40.1	22.6	0.00e+00	0	39	0	341835776	52	5805
2026-01-02 20:30:19.83	40.17	12.53	-39.2	-40.1	22.7	0.00e+00	0	39	0	343932928	52	5808
2026-01-02 20:30:20.84	39.99	12.57	-39.2	-40.2	22.6	0.00e+00	0	39	0	346030080	52	5855
2026-01-02 20:30:21.84	39.82	12.62	-39.1	-40.1	22.7	0.00e+00	0	39	0	347078656	52	5780
2026-01-02 20:30:22.85	39.64	12.66	-39.3	-40.2	22.6	0.00e+00	0	39	0	349175808	52	5890
2026-01-02 20:30:23.86	39.46	12.70	-39.1	-40.0	22.8	0.00e+00	0	39	0	351272960	52	5760
2026-01-02 20:30:24.87	39.29	12.75	-39.4	-40.4	22.5	0.00e+00	0	39	0	353370112	52	5992
2026-01-02 20:30:25.88	39.11	12.79	-39.5	-40.5	22.4	0.00e+00	0	39	0	355467264	52	6090
2026-01-02 20:30:26.89	38.93	12.83	-39.6	-40.6	22.2	0.00e+00	0	39	0	357564416	52	6160
2026-01-02 20:30:27.90	38.75	12.88	-39.7	-40.8	22.1	0.00e+00	0	39	0	358612992	52	6282
2026-01-02 20:30:28.91	38.57	12.92	-39.8	-40.9	22.0	0.00e+00	0	39	0	360710144	52	6358
2026-01-02 20:30:29.92	38.39	12.96	-40.1	-41.2	21.4	0.00e+00	0	39	0	362807296	52	6606
2026-01-02 20:30:30.93	38.21	13.00	-40.3	-41.4	21.5	0.00e+00	0	39	0	364904448	52	6758
2026-01-02 20:30:31.94	38.03	13.05	-40.5	-41.6	21.5	0.00e+00	0	39	0	367001600	52	6907
2026-01-02 20:30:32.95	37.84	13.09	-40.3	-41.5	21.6	0.00e+00	0	39	0	368050176	52	6779
2026-01-02 20:30:33.96	37.66	13.13	-40.3	-41.4	21.7	0.00e+00	0	39	0	370147328	52	6745
2026-01-02 20:30:34.97	37.48	13.17	-40.1	-41.1	21.8	0.00e+00	0	39	0	372244480	52	6539
2026-01-02 20:30:35.98	37.30	13.21	-40.0	-41.1	21.9	0.00e+00	0	39	0	374341632	52	6496
2026-01-02 20:30:36.99	37.11	13.25	-40.0	-41.0	21.9	0.00e+00	0	39	0	376438784	52	6462
2026-01-02 20:30:38.00	36.93	13.29	-40.2	-41.3	21.6	0.00e+00	0	39	0	377487360	52	6642
2026-01-02 20:30:39.00	36.74	13.33	-40.3	-41.4	21.6	0.00e+00	0	39	0	379584512	52	6755
2026-01-02 20:30:40.01	36.56	13.37	-40.3	-41.4	21.6	0.00e+00	0	39	0	381681664	52	6762
2026-01-02 20:30:41.02	36.37	13.41	-40.3	-41.5	21.5	0.00e+00	0	39	0	383778816	52	6823
2026-01-02 20:30:42.03	36.19	13.45	-40.4	-41.5	21.5	0.00e+00	0	39	0	385875968	52	6817
2026-01-02 20:30:43.04	36.00	13.49	-40.3	-41.4	21.6	0.00e+00	0	39	0	386924544	52	6759
2026-01-02 20:30:44.05	35.81	13.53	-40.2	-41.4	21.6	0.00e+00	0	39	0	389021696	52	6710
2026-01-02 20:30:45.06	35.62	13.57	-40.1	-41.2	21.8	0.00e+00	0	39	0	391118848	52	6557
2026-01-02 20:30:46.07	35.44	13.61	-39.8	-40.9	22.1	0.00e+00	0	39	0	393216000	52	6359
2026-01-02 20:30:47.08	35.25	13.65	-39.9	-40.9	22.1	0.00e+00	0	39	0	395313152	52	6379
2026-01-02 20:30:48.09	35.06	13.69	-39.6	-40.6	22.3	0.00e+00	0	39	0	396361728	52	6169
2026-01-02 20:30:49.10	34.87	13.72	-39.5	-40.5	22.4	0.00e+00	0	39	0	398458880	52	6068
2026-01-02 20:30:50.11	34.68	13.76	-39.4	-40.4	22.3	0.00e+00	0	39	0	400556032	52	6022
2026-01-02 20:30:51.12	34.49	13.80	-39.6	-40.6	22.3	0.00e+00	0	39	0	402653184	52	6139
2026-01-02 20:30:52.14	34.29	13.84	-39.7	-40.7	22.2	0.00e+00	0	39	0	404750336	52	6225
2026-01-02 20:30:53.14	34.10	13.87	-39.9	-41.0	22.0	0.00e+00	0	39	0	405798912	52	6393
2026-01-02 20:30:54.15	33.91	13.91	-39.8	-40.8	22.2	0.00e+00	0	39	0	407896064	52	6280
2026-01-02 20:30:55.16	33.72	13.95	-39.7	-40.7	22.3	0.00e+00	0	39	0	409993216	52	6232
2026-01-02 20:30:56.17	33.52	13.98	-39.6	-40.6	22.4	0.00e+00	0	39	0	412090368	52	6159
2026-01-02 20:30:57.18	33.33	14.02	-39.7	-40.8	22.2	0.00e+00	0	39	0	414187520	52	6250
2026-01-02 20:30:58.19	33.13	14.06	-40.0	-41.1	22.0	0.00e+00	0	39	0	415236096	52	6465
2026-01-02 20:30:59.20	32.94	14.09	-39.8	-40.8	22.0	0.00e+00	0	39	0	417333248	52	6278
2026-01-02 20:31:00.21	32.74	14.13	-39.9	-41.0	22.0	0.00e+00	0	39	0	419430400	52	6428
2026-01-02 20:31:01.22	32.55	14.16	-39.8	-40.9	22.1	0.00e+00	0	39	0	421527552	52	6345
2026-01-02 20:31:02.23	32.35	14.20	-39.9	-40.9	21.9	0.00e+00	0	39	0	423624704	52	6387
2026-01-02 20:31:03.24	32.16	14.23	-39.9	-41.0	21.9	0.00e+00	0	39	0	425721856	52	6422
2026-01-02 20:31:04.25	31.96	14.26	-40.1	-41.3	21.9	0.00e+00	0	39	0	426770432	52	6639
2026-01-02 20:31:05.26	31.76	14.30	-40.2	-41.4	21.6	0.00e+00	0	39	0	428867584	52	6715
2026-01-02 20:31:06.27	31.56	14.33	-40.2	-41.3	21.7	0.00e+00	0	39	0	430964736	52	6657
2026-01-02 20:31:07.28	31.36	14.36	-40.0	-41.1	21.9	0.00e+00	0	39	0	433061888	52	6532
2026-01-02 20:31:08.28	31.17	14.40	-39.7	-40.7	22.2	0.00e+00	0	39	0	434110464	52	6225
2026-01-02 20:31:09.29	30.97	14.43	-39.5	-40.6	22.5	0.00e+00	0	39	0	436207616	52	6111
2026-01-02 20:31:10.30	30.77	14.46	-39.2	-40.2	22.6	0.00e+00	0	39	0	438304768	52	5854
2026-01-02 20:31:11.31	30.57	14.49	-39.1	-40.1	22.6	0.00e+00	0	39	0	440401920	52	5785
2026-01-02 20:31:12.32	30.37	14.52	-39.1	-40.1	22.5	0.00e+00	0	39	0	442499072	52	5772
2026-01-02 20:31:13.33	30.17	14.56	-38.9	-39.9	22.9	0.00e+00	0	39	0	443547648	52	5636
2026-01-02 20:31:14.34	29.96	14.59	-39.0	-39.9	22.9	0.00e+00	0	39	0	445644800	52	5665
2026-01-02 20:31:15.35	29.76	14.62	-38.9	-39.8	23.0	0.00e+00	0	39	0	447741952	52	5589
2026-01-02 20:31:16.36	29.56	14.65	-38.9	-39.8	23.1	0.00e+00	0	39	0	449839104	52	5609
2026-01-02 20:31:17.37	29.36	14.68	-39.0	-39.9	23.0	0.00e+00	0	39	0	451936256	50	6357
2026-01-02 20:31:18.37	29.16	14.71	-39.1	-40.1	22.8	0.00e+00	0	39	0	454033408	50	6465
2026-01-02 20:31:19.38	28.95	14.74	-39.2	-40.1	22.8	0.00e+00	0	39	0	455081984	50	6532
2026-01-02 20:31:20.39	28.75	14.77	-39.2	-40.2	22.7	0.00e+00	0	39	0	457179136	50	6579
2026-01-02 20:31:21.40	28.54	14.79	-39.4	-40.4	22.6	0.00e+00	0	39	0	459276288	50	6731
2026-01-02 20:31:22.41	28.34	14.82	-39.2	-40.2	22.7	0.00e+00	0	39	0	461373440	50	6579
2026-01-02 20:31:23.42	28.13	14.85	-39.1	-40.1	22.8	0.00e+00	0	39	0	463470592	50	6488
2026-01-02 20:31:24.43	27.93	14.88	-39.1	-40.0	22.6	0.00e+00	0	39	0	464519168	50	6463
2026-01-02 20:31:25.44	27.72	14.91	-39.2	-40.1	22.7	0.00e+00	0	39	0	466616320	50	6500
2026-01-02 20:31:26.45	27.52	14.93	-39.5	-40.5	22.4	0.00e+00	0	39	0	468713472	50	6837
2026-01-02 20:31:27.46	27.31	14.96	-39.8	-40.8	22.2	0.00e+00	0	39	0	470810624	52	6317
2026-01-02 20:31:28.47	27.10	14.99	-40.2	-41.3	21.9	0.00e+00	0	39	0	472907776	52	6624
2026-01-02 20:31:29.48	26.89	15.01	-40.0	-41.1	21.9	0.00e+00	0	39	0	473956352	52	6487
2026-01-02 20:31:30.49	26.69	15.04	-40.1	-41.2	21.9	0.00e+00	0	39	0	476053504	52	6582
2026-01-02 20:31:31.50	26.48	15.06	-40.1	-41.2	21.8	0.00e+00	0	39	0	478150656	52	6572
2026-01-02 20:31:32.51	26.27	15.09	-40.4	-41.5	21.7	0.00e+00	0	39	0	480247808	52	6823
2026-01-02 20:31:33.51	26.06	15.11	-40.2	-41.3	21.7	0.00e+00	0	39	0	482344960	52	6690
2026-01-02 20:31:34.53	25.85	15.14	-40.3	-41.4	21.8	0.00e+00	0	39	0	483393536	52	6729
2026-01-02 20:31:35.53	25.64	15.16	-40.2	-41.4	21.8	0.00e+00	0	39	0	485490688	52	6696
2026-01-02 20:31:36.55	25.43	15.18	-40.2	-41.3	21.8	0.00e+00	0	39	0	487587840	52	6685
2026-01-02 20:31:37.56	25.22	15.21	-40.1	-41.2	21.8	0.00e+00	0	39	0	489684992	52	6586
2026-01-02 20:31:38.56	25.01	15.23	-40.2	-41.2	21.9	0.00e+00	0	39	0	491782144	52	6608
2026-01-02 20:31:39.57	24.80	15.25	-40.1	-41.2	21.9	0.00e+00	0	39	0	492830720	52	6575
2026-01-02 20:31:40.58	24.59	15.27	-40.1	-41.2	22.0	0.00e+00	0	39	0	494927872	52	6575
2026-01-02 20:31:41.59	24.38	15.29	-40.0	-41.1	22.0	0.00e+00	0	39	0	497025024	52	6503
2026-01-02 20:31:42.60	24.17	15.32	-39.9	-40.9	22.2	0.00e+00	0	39	0	499122176	52	6382
2026-01-02 20:31:43.61	23.96	15.34	-39.8	-40.9	22.1	0.00e+00	0	39	0	501219328	52	6336
2026-01-02 20:31:44.62	23.74	15.36	-39.8	-40.8	22.1	0.00e+00	0	39	0	502267904	52	6312
2026-01-02 20:31:45.63	23.53	15.38	-39.6	-40.6	22.3	0.00e+00	0	39	0	504365056	52	6155
2026-01-02 20:31:46.64	23.32	15.40	-39.5	-40.5	22.6	0.00e+00	0	39	0	506462208	52	6062
2026-01-02 20:31:47.65	23.10	15.42	-39.6	-40.6	22.3	0.00e+00	0	39	0	508559360	52	6135
2026-01-02 20:31:48.66	22.89	15.44	-39.3	-40.2	22.6	0.00e+00	0	39	0	510656512	52	5882
2026-01-02 20:31:49.67	22.68	15.45	-39.2	-40.2	22.7	0.00e+00	0	39	0	511705088	52	5830
2026-01-02 20:31:50.68	22.46	15.47	-39.2	-40.1	22.7	0.00e+00	0	39	0	513802240	52	5828
2026-01-02 20:31:51.69	22.25	15.49	-39.0	-40.0	22.9	0.00e+00	0	39	0	515899392	52	5701
2026-01-02 20:31:52.70	22.03	15.51	-39.2	-40.2	22.8	0.00e+00	0	39	0	517996544	52	5862
2026-01-02 20:31:53.71	21.82	15.52	-39.4	-40.3	22.7	0.00e+00	0	39	0	520093696	52	5945
2026-01-02 20:31:54.72	21.60	15.54	-39.5	-40.5	22.5	0.00e+00	0	39	0	522190848	52	6039
2026-01-02 20:31:55.73	21.39	15.56	-39.7	-40.7	22.4	0.00e+00	0	39	0	523239424	52	6215
2026-01-02 20:31:56.74	21.17	15.57	-39.7	-40.8	22.3	0.00e+00	0	39	0	525336576	52	6259
2026-01-02 20:31:57.75	20.96	15.59	-39.9	-41.0	22.1	0.00e+00	0	39	0	527433728	52	6404
2026-01-02 20:31:58.76	20.74	15.60	-40.0	-41.0	22.2	0.00e+00	0	39	0	529530880	52	6423
2026-01-02 20:31:59.76	20.53	15.62	-40.2	-41.3	21.8	0.00e+00	0	39	0	531628032	52	6630
2026-01-02 20:32:00.77	20.31	15.63	-39.9	-41.0	22.0	0.00e+00	0	39	0	532676608	52	6432
2026-01-02 20:32:01.78	20.09	15.65	-39.9	-41.0	22.1	0.00e+00	0	39	0	534773760	52	6414
2026-01-02 20:32:02.79	19.88	15.66	-40.2	-41.3	21.8	0.00e+00	0	39	0	536870912	52	6638
2026-01-02 20:32:03.80	19.66	15.67	-40.4	-41.5	21.7	0.00e+00	0	39	0	538968064	52	6787
2026-01-02 20:32:04.81	19.44	15.68	-40.3	-41.4	21.8	0.00e+00	0	39	0	541065216	52	6726
2026-01-02 20:32:05.82	19.22	15.70	-40.4	-41.6	21.5	0.00e+00	0	39	0	542113792	52	6880
2026-01-02 20:32:06.83	19.01	15.71	-40.4	-41.6	21.6	0.00e+00	0	39	0	544210944	52	6859
2026-01-02 20:32:07.84	18.79	15.72	-40.4	-41.6	21.5	0.00e+00	0	39	0	546308096	52	6866
2026-01-02 20:32:08.85	18.57	15.73	-40.6	-41.8	21.5	0.00e+00	0	39	0	548405248	52	7015
2026-01-02 20:32:09.86	18.35	15.74	-40.5	-41.7	21.4	0.00e+00	0	39	0	550502400	52	6956
2026-01-02 20:32:10.87	18.14	15.75	-40.6	-41.7	21.4	0.00e+00	0	39	0	551550976	52	7003
2026-01-02 20:32:11.87	17.92	15.76	-40.4	-41.5	21.7	0.00e+00	0	39	0	553648128	52	6805
2026-01-02 20:32:12.88	17.70	15.77	-39.8	-40.9	21.8	0.00e+00	0	39	0	555745280	52	6340
2026-01-02 20:32:13.89	17.48	15.78	-39.8	-40.9	22.2	0.00e+00	0	39	0	557842432	52	6333
2026-01-02 20:32:14.90	17.26	15.79	-39.8	-40.9	22.2	0.00e+00	0	39	0	559939584	52	6333
2026-01-02 20:32:15.91	17.04	15.79	-39.8	-40.9	22.1	0.00e+00	0	39	0	560988160	52	6333
2026-01-02 20:32:16.92	16.83	15.80	-39.8	-40.8	22.3	0.00e+00	0	39	0	563085312	52	6301
2026-01-02 20:32:17.93	16.61	15.81	-39.9	-40.9	22.1	0.00e+00	0	39	0	565182464	52	6384
2026-01-02 20:32:18.94	16.39	15.82	-39.9	-41.0	22.1	0.00e+00	0	39	0	567279616	52	6429
2026-01-02 20:32:19.95	16.17	15.82	-39.9	-40.9	22.1	0.00e+00	0	39	0	569376768	52	6364
2026-01-02 20:32:20.96	15.95	15.83	-39.8	-40.9	22.1	0.00e+00	0	39	0	570425344	52	6318
2026-01-02 20:32:21.97	15.73	15.83	-39.6	-40.7	22.4	0.00e+00	0	39	0	572522496	52	6193
2026-01-02 20:32:22.98	15.51	15.84	-39.5	-40.5	22.5	0.00e+00	0	39	0	574619648	52	6099
2026-01-02 20:32:23.99	15.29	15.84	-39.4	-40.4	22.6	0.00e+00	0	39	0	576716800	52	6009
2026-01-02 20:32:25.00	15.07	15.85	-39.5	-40.5	22.5	0.00e+00	0	39	0	578813952	52	6059
2026-01-02 20:32:26.01	14.85	15.85	-39.7	-40.7	22.3	0.00e+00	0	39	0	579862528	52	6207
2026-01-02 20:32:27.02	14.63	15.85	-39.9	-40.9	22.2	0.00e+00	0	39	0	581959680	52	6374
2026-01-02 20:32:28.03	14.41	15.86	-40.2	-41.3	21.9	0.00e+00	0	39	0	584056832	52	6647
2026-01-02 20:32:29.04	14.19	15.86	-40.3	-41.4	21.8	0.00e+00	0	39	0	586153984	52	6719
2026-01-02 20:32:30.05	13.97	15.86	-40.4	-41.5	21.6	0.00e+00	0	39	0	588251136	52	6802
2026-01-02 20:32:31.05	13.75	15.86	-40.4	-41.6	21.7	0.00e+00	0	39	0	590348288	52	6854
2026-01-02 20:32:32.06	13.53	15.86	-40.1	-41.1	22.1	0.00e+00	0	39	0	591396864	52	6519
2026-01-02 20:32:33.07	13.31	15.87	-39.8	-40.9	22.3	0.00e+00	0	39	0	593494016	52	6319
2026-01-02 20:32:34.08	13.09	15.87	-39.8	-40.8	22.4	0.00e+00	0	39	0	595591168	52	6294
2026-01-02 20:32:35.09	12.87	15.87	-39.6	-40.6	22.5	0.00e+00	0	39	0	597688320	52	6127
2026-01-02 20:32:36.10	12.65	15.87	-39.5	-40.5	22.6	0.00e+00	0	39	0	599785472	52	6037
2026-01-02 20:32:37.11	12.43	15.86	-39.3	-40.3	22.7	0.00e+00	0	39	0	600834048	52	5902
2026-01-02 20:32:38.12	12.21	15.86	-39.4	-40.4	22.6	0.00e+00	0	39	0	602931200	52	5996
2026-01-02 20:32:39.13	11.99	15.86	-39.4	-40.4	22.6	0.00e+00	0	39	0	605028352	52	6026
2026-01-02 20:32:40.14	11.77	15.86	-39.7	-40.7	22.4	0.00e+00	0	39	0	607125504	52	6196
2026-01-02 20:32:41.15	11.55	15.86	-39.7	-40.7	22.4	0.00e+00	0	39	0	609222656	52	6209
2026-01-02 20:32:42.16	11.33	15.85	-39.5	-40.5	22.4	0.00e+00	0	39	0	610271232	52	6088
2026-01-02 20:32:43.17	11.11	15.85	-39.8	-40.8	22.3	0.00e+00	0	39	0	612368384	52	6272
2026-01-02 20:32:44.18	10.89	15.85	-39.8	-40.8	22.3	0.00e+00	0	39	0	614465536	52	6281
2026-01-02 20:32:45.19	10.67	15.84	-39.9	-40.9	22.2	0.00e+00	0	39	0	616562688	52	6364
2026-01-02 20:32:46.20	10.45	15.84	-40.1	-41.2	22.0	0.00e+00	0	39	0	618659840	52	6573
2026-01-02 20:32:47.21	10.24	15.83	-40.4	-41.5	21.5	0.00e+00	0	39	0	619708416	52	6797
2026-01-02 20:32:48.22	10.02	15.83	-40.6	-41.7	21.3	0.00e+00	0	39	0	621805568	52	6970
2026-01-02 20:32:49.23	9.80	15.82	-40.7	-41.8	21.4	0.00e+00	0	39	0	623902720	52	7062
2026-01-02 20:32:50.24	9.58	15.81	-40.8	-42.0	21.2	0.00e+00	0	39	0	625999872	54	6403
2026-01-02 20:32:51.25	9.36	15.81	-40.7	-41.8	21.4	0.00e+00	0	39	0	628097024	54	6315
2026-01-02 20:32:52.26	9.14	15.80	-40.5	-41.6	21.6	0.00e+00	0	39	0	629145600	54	6158
2026-01-02 20:32:53.27	8.92	15.79	-40.2	-41.3	21.6	0.00e+00	0	39	0	631242752	54	5944
2026-01-02 20:32:54.27	8.70	15.78	-40.1	-41.2	21.9	0.00e+00	0	39	0	633339904	54	5859
2026-01-02 20:32:55.28	8.49	15.77	-39.8	-40.9	22.2	0.00e+00	0	39	0	635437056	54	5636
2026-01-02 20:32:56.29	8.27	15.77	-39.8	-40.8	22.3	0.00e+00	0	39	0	637534208	52	6315
2026-01-02 20:32:57.30	8.05	15.76	-39.8	-40.9	22.2	0.00e+00	0	39	0	638582784	52	6350
2026-01-02 20:32:58.31	7.83	15.75	-39.7	-40.8	22.3	0.00e+00	0	39	0	640679936	52	6271
2026-01-02 20:32:59.32	7.61	15.74	-39.8	-40.9	22.2	0.00e+00	0	39	0	642777088	52	6345
2026-01-02 20:33:00.33	7.39	15.73	-39.9	-40.9	22.2	0.00e+00	0	39	0	644874240	52	6367
2026-01-02 20:33:01.34	7.18	15.71	-40.0	-41.1	22.0	0.00e+00	0	39	0	646971392	52	6517
2026-01-02 20:33:02.35	6.96	15.70	-40.0	-41.0	22.0	0.00e+00	0	39	0	648019968	52	6464
2026-01-02 20:33:03.36	6.74	15.69	-40.0	-41.1	22.1	0.00e+00	0	39	0	650117120	52	6489
2026-01-02 20:33:04.36	6.53	15.68	-40.0	-41.0	22.1	0.00e+00	0	39	0	652214272	52	6443
2026-01-02 20:33:05.38	6.31	15.67	-39.8	-40.9	22.1	0.00e+00	0	39	0	654311424	52	6352
2026-01-02 20:33:06.38	6.09	15.65	-39.8	-40.9	22.2	0.00e+00	0	39	0	656408576	52	6348
2026-01-02 20:33:07.40	5.87	15.64	-39.5	-40.5	22.5	0.00e+00	0	39	0	658505728	52	6098
2026-01-02 20:33:08.41	5.66	15.62	-39.3	-40.3	22.7	0.00e+00	0	39	0	659554304	52	5923
2026-01-02 20:33:09.42	5.44	15.61	-39.1	-40.1	22.8	0.00e+00	0	39	0	661651456	52	5766
2026-01-02 20:33:10.42	5.23	15.60	-39.1	-40.0	22.9	0.00e+00	0	39	0	663748608	52	5732
2026-01-02 20:33:11.43	5.01	15.58	-39.1	-40.1	22.8	0.00e+00	0	39	0	665845760	52	5765
2026-01-02 20:33:12.44	4.79	15.57	-39.2	-40.1	22.8	0.00e+00	0	39	0	667942912	52	5827
2026-01-02 20:33:13.45	4.58	15.55	-39.3	-40.3	22.6	0.00e+00	0	39	0	668991488	52	5947
2026-01-02 20:33:14.45	4.37	15.53	-39.4	-40.4	22.6	0.00e+00	0	39	0	671088640	52	6007
2026-01-02 20:33:15.46	4.15	15.52	-39.5	-40.5	22.6	0.00e+00	0	39	0	673185792	52	6075
2026-01-02 20:33:16.47	3.94	15.50	-39.5	-40.5	22.5	0.00e+00	0	39	0	675282944	52	6050
2026-01-02 20:33:17.48	3.72	15.48	-39.4	-40.4	22.6	0.00e+00	0	39	0	676331520	52	5987
2026-01-02 20:33:18.49	3.51	15.46	-39.6	-40.6	22.6	0.00e+00	0	39	0	678428672	52	6130
2026-01-02 20:33:19.50	3.29	15.45	-39.6	-40.7	22.4	0.00e+00	0	39	0	680525824	52	6205
2026-01-02 20:33:20.51	3.08	15.43	-39.6	-40.7	22.3	0.00e+00	0	39	0	682622976	52	6190
2026-01-02 20:33:21.52	2.87	15.41	-39.6	-40.6	22.5	0.00e+00	0	39	0	684720128	52	6127
2026-01-02 20:33:22.52	2.66	15.39	-39.8	-40.9	22.2	0.00e+00	0	39	0	686817280	52	6326
2026-01-02 20:33:23.53	2.44	15.37	-39.8	-40.8	22.1	0.00e+00	0	39	0	687865856	52	6315
2026-01-02 20:33:24.54	2.23	15.35	-39.9	-41.0	22.1	0.00e+00	0	39	0	689963008	52	6435
2026-01-02 20:33:25.55	2.02	15.33	-40.2	-41.3	21.7	0.00e+00	0	39	0	692060160	52	6655
2026-01-02 20:33:26.56	1.81	15.31	-40.2	-41.4	21.7	0.00e+00	0	39	0	694157312	52	6707
2026-01-02 20:33:27.57	1.60	15.28	-40.5	-41.7	21.6	0.00e+00	0	39	0	696254464	52	6929
2026-01-02 20:33:28.58	1.38	15.26	-40.3	-41.4	21.7	0.00e+00	0	39	0	697303040	52	6751
2026-01-02 20:33:29.59	1.17	15.24	-40.0	-41.2	22.0	0.00e+00	0	39	0	699400192	52	6541
2026-01-02 20:33:30.59	0.96	15.22	-39.8	-40.9	22.3	0.00e+00	0	39	0	701497344	52	6351
2026-01-02 20:33:31.61	0.75	15.20	-39.5	-40.5	22.5	0.00e+00	0	39	0	703594496	52	6097
2026-01-02 20:33:32.62	0.54	15.17	-39.3	-40.3	22.7	0.00e+00	0	39	0	705691648	52	5936
2026-01-02 20:33:33.62	0.33	15.15	-39.2	-40.2	22.7	0.00e+00	0	39	0	706740224	52	5870
2026-01-02 20:33:34.63	0.13	15.13	-39.0	-39.9	22.9	0.00e+00	0	39	0	708837376	52	5687
2026-01-02 20:33:35.64	359.92	15.10	-39.2	-40.1	22.6	0.00e+00	0	39	0	710934528	52	5809
2026-01-02 20:33:36.65	359.71	15.08	-39.0	-39.9	22.9	0.00e+00	0	39	0	713031680	52	5665
2026-01-02 20:33:37.66	359.50	15.05	-39.0	-39.9	23.0	0.00e+00	0	39	0	715128832	52	5671
2026-01-02 20:33:38.67	359.29	15.03	-39.2	-40.1	22.8	0.00e+00	0	39	0	716177408	52	5798
2026-01-02 20:33:39.68	359.08	15.00	-39.0	-39.9	22.9	0.00e+00	0	39	0	718274560	52	5682
2026-01-02 20:33:40.69	358.88	14.97	-39.1	-40.0	22.9	0.00e+00	0	39	0	720371712	52	5735
2026-01-02 20:33:41.70	358.67	14.95	-39.1	-40.1	22.8	0.00e+00	0	39	0	722468864	52	5788
2026-01-02 20:33:42.71	358.46	14.92	-39.4	-40.4	22.5	0.00e+00	0	39	0	724566016	52	5996
2026-01-02 20:33:43.72	358.26	14.89	-39.4	-40.4	22.5	0.00e+00	0	39	0	725614592	52	6010
2026-01-02 20:33:44.73	358.05	14.87	-39.7	-40.7	22.3	0.00e+00	0	39	0	727711744	52	6202
2026-01-02 20:33:45.73	357.85	14.84	-39.7	-40.7	22.2	0.00e+00	0	39	0	729808896	52	6213
2026-01-02 20:33:46.74	357.64	14.81	-39.8	-40.8	22.3	0.00e+00	0	39	0	731906048	52	6284
2026-01-02 20:33:47.75	357.44	14.78	-39.8	-40.8	22.1	0.00e+00	0	39	0	734003200	52	6289
2026-01-02 20:33:48.76	357.24	14.75	-39.7	-40.7	22.2	0.00e+00	0	39	0	735051776	52	6238
2026-01-02 20:33:49.77	357.03	14.72	-39.7	-40.8	22.1	0.00e+00	0	39	0	737148928	52	6261
2026-01-02 20:33:50.78	356.83	14.69	-39.8	-40.9	22.1	0.00e+00	0	39	0	739246080	52	6329
2026-01-02 20:33:51.79	356.63	14.66	-40.1	-41.2	21.8	0.00e+00	0	39	0	741343232	52	6571
2026-01-02 20:33:52.79	356.42	14.63	-40.0	-41.1	22.0	0.00e+00	0	39	0	743440384	52	6518
2026-01-02 20:33:53.80	356.22	14.60	-40.1	-41.2	21.9	0.00e+00	0	39	0	744488960	52	6613
2026-01-02 20:33:54.81	356.02	14.57	-40.2	-41.3	21.8	0.00e+00	0	39	0	746586112	52	6674
2026-01-02 20:33:55.82	355.82	14.54	-40.2	-41.3	21.9	0.00e+00	0	39	0	748683264	52	6690
2026-01-02 20:33:56.83	355.62	14.51	-40.3	-41.4	22.0	0.00e+00	0	39	0	750780416	52	6729
2026-01-02 20:33:57.84	355.42	14.48	-40.1	-41.2	21.9	0.00e+00	0	39	0	752877568	52	6599
2026-01-02 20:33:58.85	355.22	14.45	-40.1	-41.2	21.9	0.00e+00	0	39	0	754974720	52	6585
2026-01-02 20:33:59.86	355.02	14.42	-39.7	-40.8	22.2	0.00e+00	0	39	0	756023296	52	6270
2026-01-02 20:34:00.87	354.82	14.38	-39.9	-41.0	22.1	0.00e+00	0	39	0	758120448	52	6439
2026-01-02 20:34:01.88	354.62	14.35	-39.9	-40.9	22.1	0.00e+00	0	39	0	760217600	52	6359
2026-01-02 20:34:02.89	354.42	14.32	-40.1	-41.2	22.1	0.00e+00	0	39	0	762314752	52	6586
2026-01-02 20:34:03.90	354.23	14.28	-39.9	-40.9	22.2	0.00e+00	0	39	0	764411904	52	6343
2026-01-02 20:34:04.91	354.03	14.25	-39.8	-40.8	22.2	0.00e+00	0	39	0	765460480	52	6294
2026-01-02 20:34:05.91	353.83	14.22	-39.8	-40.9	22.0	0.00e+00	0	39	0	767557632	52	6342
2026-01-02 20:34:06.92	353.64	14.18	-39.9	-41.0	22.1	0.00e+00	0	39	0	769654784	52	6418
2026-01-02 20:34:07.93	353.44	14.15	-39.9	-40.9	22.2	0.00e+00	0	39	0	771751936	52	6375
2026-01-02 20:34:08.94	353.25	14.11	-39.9	-40.9	22.1	0.00e+00	0	39	0	773849088	52	6361
2026-01-02 20:34:09.95	353.05	14.08	-39.6	-40.6	22.4	0.00e+00	0	39	0	774897664	52	6130
2026-01-02 20:34:10.96	352.86	14.04	-39.4	-40.3	22.5	0.00e+00	0	39	0	776994816	52	5964
2026-01-02 20:34:11.97	352.66	14.01	-39.2	-40.2	22.7	0.00e+00	0	39	0	779091968	52	5857
2026-01-02 20:34:12.98	352.47	13.97	-39.1	-40.0	22.9	0.00e+00	0	39	0	781189120	52	5728
2026-01-02 20:34:13.99	352.28	13.93	-38.7	-39.7	22.9	0.00e+00	0	39	0	783286272	52	5504
2026-01-02 20:34:15.00	352.08	13.90	-38.9	-39.8	23.0	0.00e+00	0	39	0	784334848	50	6267
2026-01-02 20:34:16.01	351.89	13.86	-38.9	-39.8	22.9	0.00e+00	0	39	0	786432000	50	6312
2026-01-02 20:34:17.02	351.70	13.82	-39.1	-40.0	22.8	0.00e+00	0	39	0	788529152	50	6451
2026-01-02 20:34:18.03	351.51	13.78	-39.1	-40.0	22.6	0.00e+00	0	39	0	790626304	50	6454
2026-01-02 20:34:19.04	351.32	13.75	-39.4	-40.4	22.6	0.00e+00	0	39	0	792723456	50	6730
2026-01-02 20:34:20.05	351.13	13.71	-39.4	-40.5	22.4	0.00e+00	0	39	0	793772032	50	6776
2026-01-02 20:34:21.06	350.94	13.67	-39.6	-40.7	22.3	0.00e+00	0	39	0	795869184	50	6947
2026-01-02 20:34:22.07	350.75	13.63	-39.8	-40.9	22.2	0.00e+00	0	39	0	797966336	52	6332
2026-01-02 20:34:23.08	350.56	13.59	-40.1	-41.2	21.9	0.00e+00	0	39	0	800063488	52	6546
2026-01-02 20:34:24.09	350.37	13.55	-40.3	-41.4	21.7	0.00e+00	0	39	0	802160640	52	6735
2026-01-02 20:34:25.10	350.18	13.52	-40.7	-41.8	21.3	0.00e+00	0	39	0	803209216	52	7076
2026-01-02 20:34:26.11	350.00	13.48	-40.8	-42.0	21.3	0.00e+00	0	39	0	805306368	52	7214
2026-01-02 20:34:27.12	349.81	13.44	-40.9	-42.1	21.1	0.00e+00	0	39	0	807403520	54	6513
2026-01-02 20:34:28.13	349.63	13.40	-40.8	-42.0	21.0	0.00e+00	0	39	0	809500672	54	6446
2026-01-02 20:34:29.14	349.44	13.36	-40.5	-41.6	21.4	0.00e+00	0	39	0	811597824	54	6168
2026-01-02 20:34:30.15	349.25	13.32	-40.5	-41.7	21.5	0.00e+00	0	39	0	812646400	54	6201
2026-01-02 20:34:31.16	349.07	13.28	-40.5	-41.6	21.5	0.00e+00	0	39	0	814743552	54	6166
2026-01-02 20:34:32.17	348.89	13.24	-40.4	-41.5	21.3	0.00e+00	0	39	0	816840704	54	6082
2026-01-02 20:34:33.18	348.70	13.19	-40.5	-41.7	21.5	0.00e+00	0	39	0	818937856	54	6178
2026-01-02 20:34:34.19	348.52	13.15	-40.7	-41.8	21.3	0.00e+00	0	39	0	821035008	54	6301
2026-01-02 20:34:35.20	348.34	13.11	-40.6	-41.8	21.3	0.00e+00	0	39	0	823132160	54	6295
2026-01-02 20:34:36.21	348.15	13.07	-40.9	-42.1	21.2	0.00e+00	0	39	0	824180736	54	6506
2026-01-02 20:34:37.22	347.97	13.03	-40.9	-42.1	20.9	0.00e+00	0	39	0	826277888	54	6483
2026-01-02 20:34:38.23	347.79	12.99	-40.7	-41.9	21.2	0.00e+00	0	39	0	828375040	54	6344
2026-01-02 20:34:39.24	347.61	12.94	-40.9	-42.1	21.1	0.00e+00	0	39	0	830472192	54	6503
2026-01-02 20:34:40.25	347.43	12.90	-40.7	-41.9	21.3	0.00e+00	0	39	0	832569344	54	6326
2026-01-02 20:34:41.26	347.25	12.86	-40.7	-41.9	21.3	0.00e+00	0	39	0	833617920	54	6337
2026-01-02 20:34:42.27	347.07	12.82	-40.7	-41.9	21.5	0.00e+00	0	39	0	835715072	54	6320
2026-01-02 20:34:43.28	346.90	12.77	-40.7	-41.9	21.3	0.00e+00	0	39	0	837812224	54	6339
2026-01-02 20:34:44.29	346.72	12.73	-40.6	-41.8	21.4	0.00e+00	0	39	0	839909376	54	6255
2026-01-02 20:34:45.30	346.54	12.69	-40.8	-41.9	21.2	0.00e+00	0	39	0	842006528	54	6372
2026-01-02 20:34:46.31	346.36	12.64	-40.5	-41.7	21.5	0.00e+00	0	39	0	843055104	54	6178
2026-01-02 20:34:47.32	346.19	12.60	-40.7	-41.8	21.3	0.00e+00	0	39	0	845152256	54	6279
2026-01-02 20:34:48.33	346.01	12.55	-40.3	-41.4	21.7	0.00e+00	0	39	0	847249408	54	6016
2026-01-02 20:34:49.34	345.84	12.51	-39.9	-40.9	22.1	0.00e+00	0	39	0	849346560	54	5678
2026-01-02 20:34:50.35	345.66	12.47	-40.1	-41.1	22.1	0.00e+00	0	39	0	851443712	54	5789
2026-01-02 20:34:51.36	345.49	12.42	-39.7	-40.8	22.3	0.00e+00	0	39	0	852492288	52	6250
2026-01-02 20:34:52.37	345.32	12.38	-39.7	-40.7	22.3	0.00e+00	0	39	0	854589440	52	6182
2026-01-02 20:34:53.38	345.14	12.33	-39.8	-40.8	22.1	0.00e+00	0	39	0	856686592	52	6281
2026-01-02 20:34:54.39	344.97	12.29	-39.8	-40.9	22.2	0.00e+00	0	39	0	858783744	52	6323
2026-01-02 20:34:55.40	344.80	12.24	-40.1	-41.2	21.8	0.00e+00	0	39	0	860880896	52	6571
2026-01-02 20:34:56.41	344.63	12.19	-40.3	-41.5	21.6	0.00e+00	0	39	0	861929472	52	6773
2026-01-02 20:34:57.42	344.46	12.15	-40.8	-42.0	21.0	0.00e+00	0	39	0	864026624	54	6445
2026-01-02 20:34:58.43	344.29	12.10	-40.7	-41.9	21.3	0.00e+00	0	39	0	866123776	54	6328
2026-01-02 20:34:59.44	344.12	12.06	-41.1	-42.3	20.8	0.00e+00	0	39	0	868220928	54	6656
2026-01-02 20:35:00.44	343.95	12.01	-41.1	-42.3	20.9	0.00e+00	0	39	0	870318080	54	6674
2026-01-02 20:35:01.45	343.78	11.97	-41.1	-42.4	20.8	0.00e+00	0	39	0	871366656	54	6709
2026-01-02 20:35:02.46	343.61	11.92	-41.2	-42.4	20.8	0.00e+00	0	39	0	873463808	54	6734
2026-01-02 20:35:03.47	343.44	11.87	-41.0	-42.2	20.9	0.00e+00	0	39	0	875560960	54	6579
2026-01-02 20:35:04.48	343.28	11.83	-40.9	-42.1	21.1	0.00e+00	0	39	0	877658112	54	6520
2026-01-02 20:35:05.49	343.11	11.78	-41.0	-42.2	21.0	0.00e+00	0	39	0	879755264	54	6577
2026-01-02 20:35:06.50	342.94	11.73	-41.4	-42.7	20.5	0.00e+00	0	39	0	880803840	54	6966
2026-01-02 20:35:07.51	342.78	11.68	-41.4	-42.7	20.6	0.00e+00	0	39	0	882900992	54	6971
2026-01-02 20:35:08.52	342.61	11.64	-41.7	-43.0	20.2	0.00e+00	0	39	0	884998144	54	7243
2026-01-02 20:35:09.52	342.45	11.59	-42.2	-43.7	19.6	0.00e+00	0	39	0	887095296	56	6938
2026-01-02 20:35:10.54	342.29	11.54	-42.8	-44.4	18.9	0.00e+00	0	39	0	889192448	58	6740
2026-01-02 20:35:11.79	342.08	11.48	-43.2	-45.0	18.4	0.00e+00	0	39	0	891289600	58	7249
2026-01-02 20:35:12.52	341.97	11.45	-43.7	-45.7	17.7	0.00e+00	0	39	0	892338176	58	7841
2026-01-02 20:35:13.81	341.76	11.39	-44.3	-46.5	17.0	0.00e+00	0	39	0	894435328	60	7678
2026-01-02 20:35:14.54	341.64	11.35	-44.1	-46.2	17.3	0.00e+00	0	39	0	895483904	60	7385
2026-01-02 20:35:15.83	341.44	11.29	-44.3	-46.5	17.1	0.00e+00	0	39	0	898629632	60	7659
2026-01-02 20:35:16.55	341.32	11.26	-43.9	-45.9	17.5	0.00e+00	0	39	0	899678208	60	7152
2026-01-02 20:35:17.85	341.12	11.19	-43.5	-45.5	18.1	0.00e+00	0	39	0	901775360	60	6771
2026-01-02 20:35:18.57	341.00	11.16	-43.4	-45.3	18.2	0.00e+00	0	39	0	903872512	60	6639
2026-01-02 20:35:19.87	340.80	11.10	-43.4	-45.2	18.3	0.00e+00	0	39	0	905969664	60	6592
2026-01-02 20:35:20.59	340.69	11.06	-43.0	-44.7	18.6	0.00e+00	0	39	0	907018240	60	6228
2026-01-02 20:35:21.89	340.48	11.00	-42.9	-44.6	18.9	0.00e+00	0	39	0	910163968	60	6105
2026-01-02 20:35:22.61	340.37	10.96	-43.0	-44.7	18.6	0.00e+00	0	39	0	911212544	60	6232
2026-01-02 20:35:23.90	340.17	10.90	-42.5	-44.0	19.2	0.00e+00	0	39	0	913309696	58	6458
2026-01-02 20:35:24.63	340.06	10.86	-42.5	-44.1	19.2	0.00e+00	0	39	0	914358272	58	6485
2026-01-02 20:35:25.92	339.86	10.80	-42.2	-43.7	19.7	0.00e+00	0	39	0	917504000	58	6239
2026-01-02 20:35:26.65	339.75	10.77	-42.0	-43.4	19.8	0.00e+00	0	39	0	918552576	58	6022
2026-01-02 20:35:27.94	339.55	10.70	-41.8	-43.2	20.1	0.00e+00	0	39	0	920649728	56	6563
2026-01-02 20:35:28.67	339.44	10.67	-41.9	-43.2	20.0	0.00e+00	0	39	0	922746880	56	6589
2026-01-02 20:35:29.96	339.24	10.60	-41.8	-43.1	20.2	0.00e+00	0	39	0	924844032	56	6529
2026-01-02 20:35:30.68	339.13	10.57	-41.6	-43.0	20.2	0.00e+00	0	39	0	925892608	56	6410
2026-01-02 20:35:31.98	338.94	10.50	-41.7	-43.1	20.0	0.00e+00	0	39	0	929038336	56	6495
2026-01-02 20:35:32.70	338.83	10.47	-41.8	-43.2	20.1	0.00e+00	0	39	0	930086912	56	6557
2026-01-02 20:35:34.00	338.63	10.40	-42.0	-43.4	19.9	0.00e+00	0	39	0	932184064	56	6735
2026-01-02 20:35:34.72	338.53	10.37	-41.9	-43.3	20.0	0.00e+00	0	39	0	933232640	56	6666
2026-01-02 20:35:36.02	338.33	10.30	-42.0	-43.4	20.1	0.00e+00	0	39	0	936378368	56	6759
2026-01-02 20:35:36.75	338.22	10.26	-41.8	-43.2	19.9	0.00e+00	0	39	0	937426944	56	6576
2026-01-02 20:35:38.04	338.03	10.20	-41.7	-43.0	20.3	0.00e+00	0	39	0	939524096	56	6401
2026-01-02 20:35:38.76	337.93	10.16	-41.6	-42.9	20.4	0.00e+00	0	39	0	941621248	56	6326
2026-01-02 20:35:40.06	337.74	10.10	-41.4	-42.7	20.5	0.00e+00	0	39	0	943718400	56	6231
2026-01-02 20:35:40.78	337.63	10.06	-41.3	-42.5	20.6	0.00e+00	0	39	0	944766976	56	6087
2026-01-02 20:35:42.08	337.44	10.00	-41.2	-42.5	20.8	0.00e+00	0	39	0	947912704	56	6045
2026-01-02 20:35:42.80	337.34	9.96	-41.2	-42.5	20.7	0.00e+00	0	39	0	948961280	56	6049
2026-01-02 20:35:44.10	337.15	9.90	-41.3	-42.5	20.8	0.00e+00	0	39	0	951058432	56	6100
2026-01-02 20:35:44.82	337.05	9.86	-41.3	-42.5	20.6	0.00e+00	0	39	0	953155584	56	6087
2026-01-02 20:35:46.11	336.86	9.79	-41.3	-42.6	20.4	0.00e+00	0	39	0	955252736	56	6151
2026-01-02 20:35:46.84	336.76	9.76	-41.3	-42.6	20.6	0.00e+00	0	39	0	956301312	56	6123
2026-01-02 20:35:48.13	336.57	9.69	-41.5	-42.8	20.4	0.00e+00	0	39	0	958398464	56	6266
2026-01-02 20:35:48.86	336.47	9.65	-41.5	-42.8	20.4	0.00e+00	0	39	0	960495616	56	6277
2026-01-02 20:35:50.15	336.29	9.59	-41.8	-43.1	20.2	0.00e+00	0	39	0	962592768	56	6502
2026-01-02 20:35:50.88	336.18	9.55	-41.7	-43.0	20.1	0.00e+00	0	39	0	963641344	56	6440
2026-01-02 20:35:52.17	336.00	9.48	-41.8	-43.1	19.9	0.00e+00	0	39	0	966787072	56	6525
2026-01-02 20:35:52.90	335.90	9.45	-41.9	-43.2	20.0	0.00e+00	0	39	0	967835648	56	6605
2026-01-02 20:35:54.19	335.72	9.38	-41.9	-43.3	20.0	0.00e+00	0	39	0	969932800	56	6638
2026-01-02 20:35:54.92	335.62	9.34	-41.9	-43.2	20.1	0.00e+00	0	39	0	972029952	56	6604
2026-01-02 20:35:56.21	335.44	9.28	-41.7	-43.0	20.1	0.00e+00	0	39	0	974127104	56	6462
2026-01-02 20:35:56.93	335.34	9.24	-41.6	-42.9	20.3	0.00e+00	0	39	0	975175680	56	6354
2026-01-02 20:35:58.23	335.16	9.17	-41.5	-42.8	20.4	0.00e+00	0	39	0	977272832	56	6276
2026-01-02 20:35:58.95	335.06	9.14	-41.6	-42.9	20.4	0.00e+00	0	39	0	979369984	56	6370
2026-01-02 20:36:00.25	334.89	9.07	-41.5	-42.8	20.5	0.00e+00	0	39	0	981467136	56	6273
2026-01-02 20:36:00.97	334.79	9.03	-41.6	-42.9	20.3	0.00e+00	0	39	0	982515712	56	6351
2026-01-02 20:36:02.27	334.61	8.96	-41.2	-42.5	20.6	0.00e+00	0	39	0	985661440	56	6083
2026-01-02 20:36:02.99	334.51	8.93	-41.2	-42.5	20.6	0.00e+00	0	39	0	986710016	56	6055
2026-01-02 20:36:04.29	334.34	8.86	-41.1	-42.4	20.6	0.00e+00	0	39	0	988807168	56	5991
2026-01-02 20:36:05.01	334.24	8.82	-41.0	-42.3	20.7	0.00e+00	0	39	0	990904320	56	5899
2026-01-02 20:36:06.30	334.07	8.76	-40.7	-41.9	21.2	0.00e+00	0	39	0	993001472	54	6339
2026-01-02 20:36:07.02	333.97	8.72	-40.5	-41.7	21.3	0.00e+00	0	39	0	994050048	54	6184
2026-01-02 20:36:08.32	333.80	8.65	-40.3	-41.4	21.5	0.00e+00	0	39	0	997195776	54	6019
2026-01-02 20:36:09.05	333.71	8.61	-40.1	-41.2	21.5	0.00e+00	0	39	0	998244352	54	5895
2026-01-02 20:36:10.34	333.54	8.55	-39.9	-41.0	21.7	0.00e+00	0	39	0	1000341504	54	5729
2026-01-02 20:36:11.06	333.44	8.51	-39.9	-41.0	21.9	0.00e+00	0	39	0	1001390080	54	5709
2026-01-02 20:36:12.36	333.27	8.44	-40.0	-41.1	21.7	0.00e+00	0	39	0	1004535808	54	5766
2026-01-02 20:36:13.08	333.18	8.40	-40.0	-41.1	21.6	0.00e+00	0	39	0	1005584384	54	5797
2026-01-02 20:36:14.38	333.01	8.34	-40.0	-41.1	21.6	0.00e+00	0	39	0	1007681536	54	5825
2026-01-02 20:36:15.10	332.92	8.30	-40.0	-41.1	21.7	0.00e+00	0	39	0	1009778688	54	5775
2026-01-02 20:36:16.40	332.75	8.23	-40.2	-41.3	21.5	0.00e+00	0	39	0	1011875840	54	5919
2026-01-02 20:36:17.12	332.66	8.19	-40.2	-41.4	21.5	0.00e+00	0	39	0	1012924416	54	5981
2026-01-02 20:36:18.42	332.49	8.12	-40.3	-41.4	21.3	0.00e+00	0	39	0	1016070144	54	6003
2026-01-02 20:36:19.14	332.40	8.09	-40.3	-41.4	21.4	0.00e+00	0	39	0	1017118720	54	6023
2026-01-02 20:36:20.44	332.23	8.02	-40.4	-41.5	21.4	0.00e+00	0	39	0	1019215872	54	6069
2026-01-02 20:36:21.16	332.14	7.98	-40.2	-41.3	21.4	0.00e+00	0	39	0	1021313024	54	5936
2026-01-02 20:36:22.45	331.98	7.91	-40.1	-41.2	21.7	0.00e+00	0	39	0	1023410176	54	5839
2026-01-02 20:36:23.17	331.89	7.88	-40.1	-41.2	21.5	0.00e+00	0	39	0	1024458752	54	5875
2026-01-02 20:36:24.47	331.73	7.81	-40.2	-41.3	21.6	0.00e+00	0	39	0	1026555904	54	5933
2026-01-02 20:36:25.19	331.64	7.77	-40.1	-41.3	21.5	0.00e+00	0	39	0	1028653056	54	5900
2026-01-02 20:36:26.49	331.48	7.70	-40.1	-41.3	21.5	0.00e+00	0	39	0	1030750208	54	5900
2026-01-02 20:36:27.21	331.39	7.66	-40.5	-41.6	21.2	0.00e+00	0	39	0	1031798784	54	6151
2026-01-02 20:36:28.51	331.23	7.60	-40.3	-41.4	21.4	0.00e+00	0	39	0	1034944512	54	6013
2026-01-02 20:36:29.23	331.14	7.56	-40.4	-41.6	21.3	0.00e+00	0	39	0	1035993088	54	6119
2026-01-02 20:36:30.53	330.98	7.49	-40.5	-41.7	21.2	0.00e+00	0	39	0	1038090240	54	6188
2026-01-02 20:36:31.25	330.89	7.45	-40.5	-41.7	21.1	0.00e+00	0	39	0	1040187392	54	6223
2026-01-02 20:36:32.55	330.74	7.38	-40.8	-42.1	20.8	0.00e+00	0	39	0	1042284544	54	6479
2026-01-02 20:36:33.27	330.65	7.35	-40.7	-41.9	20.9	0.00e+00	0	39	0	1043333120	54	6380
2026-01-02 20:36:34.57	330.49	7.28	-41.0	-42.2	20.7	0.00e+00	0	39	0	1045430272	54	6581
2026-01-02 20:36:35.29	330.41	7.24	-41.0	-42.3	20.6	0.00e+00	0	39	0	1047527424	54	6617
2026-01-02 20:36:36.59	330.25	7.17	-40.8	-42.1	20.8	0.00e+00	0	39	0	1049624576	54	6489
2026-01-02 20:36:37.31	330.16	7.13	-41.1	-42.4	20.4	0.00e+00	0	39	0	1050673152	54	6699
2026-01-02 20:36:38.61	330.01	7.07	-41.0	-42.3	20.6	0.00e+00	0	39	0	1053818880	54	6633
2026-01-02 20:36:39.33	329.93	7.03	-41.1	-42.4	20.5	0.00e+00	0	39	0	1054867456	54	6726
2026-01-02 20:36:40.62	329.77	6.96	-41.0	-42.3	20.6	0.00e+00	0	39	0	1056964608	54	6667
2026-01-02 20:36:41.35	329.69	6.92	-41.1	-42.4	20.5	0.00e+00	0	39	0	1059061760	54	6729
2026-01-02 20:36:42.64	329.54	6.85	-41.0	-42.2	20.6	0.00e+00	0	39	0	1061158912	54	6584
2026-01-02 20:36:43.37	329.45	6.81	-41.0	-42.3	20.3	0.00e+00	0	39	0	1062207488	54	6648
2026-01-02 20:36:44.66	329.30	6.75	-41.3	-42.6	20.3	0.00e+00	0	39	0	1065353216	54	6865
2026-01-02 20:36:45.38	329.22	6.71	-40.8	-42.1	20.8	0.00e+00	0	39	0	1066401792	54	6485
2026-01-02 20:36:46.68	329.07	6.64	-41.1	-42.4	20.5	0.00e+00	0	39	0	1068498944	54	6719
2026-01-02 20:36:47.40	328.99	6.60	-40.9	-42.2	20.7	0.00e+00	0	39	0	1069547520	54	6560
2026-01-02 20:36:48.70	328.84	6.53	-40.9	-42.2	20.5	0.00e+00	0	39	0	1072693248	54	6563
2026-01-02 20:36:49.42	328.76	6.50	-41.0	-42.3	20.4	0.00e+00	0	39	0	1073741824	54	6623
2026-01-02 20:36:50.72	328.61	6.43	-40.9	-42.1	20.4	0.00e+00	0	39	0	1075838976	54	6517
2026-01-02 20:36:51.44	328.53	6.39	-40.6	-41.7	21.1	0.00e+00	0	39	0	1077936128	54	6233
2026-01-02 20:36:52.73	328.38	6.32	-40.4	-41.6	21.1	0.00e+00	0	39	0	1080033280	54	6122
2026-01-02 20:36:53.46	328.30	6.28	-40.5	-41.7	21.0	0.00e+00	0	39	0	1081081856	54	6220
2026-01-02 20:36:54.76	328.16	6.21	-40.2	-41.3	21.4	0.00e+00	0	39	0	1084227584	54	5963
2026-01-02 20:36:55.48	328.08	6.18	-40.2	-41.3	21.3	0.00e+00	0	39	0	1085276160	54	5948
2026-01-02 20:36:56.77	327.93	6.11	-40.3	-41.4	21.2	0.00e+00	0	39	0	1087373312	54	6001
2026-01-02 20:36:57.49	327.85	6.07	-40.4	-41.5	21.2	0.00e+00	0	39	0	1089470464	54	6078
2026-01-02 20:36:58.79	327.71	6.00	-40.6	-41.8	21.0	0.00e+00	0	39	0	1091567616	54	6283
2026-01-02 20:36:59.51	327.63	5.96	-40.7	-41.9	20.8	0.00e+00	0	39	0	1092616192	54	6365
2026-01-02 20:37:00.81	327.49	5.90	-40.9	-42.1	20.6	0.00e+00	0	39	0	1094713344	54	6532
2026-01-02 20:37:01.53	327.41	5.86	-41.0	-42.2	20.7	0.00e+00	0	39	0	1096810496	54	6583
2026-01-02 20:37:02.83	327.27	5.79	-41.4	-42.8	20.1	0.00e+00	0	39	0	1098907648	54	7047
2026-01-02 20:37:03.55	327.19	5.75	-41.5	-42.9	20.0	0.00e+00	0	39	0	1099956224	54	7116
2026-01-02 20:37:04.84	327.05	5.68	-41.8	-43.2	19.6	0.00e+00	0	39	0	1103101952	56	6608
2026-01-02 20:37:05.57	326.98	5.65	-41.8	-43.2	19.7	0.00e+00	0	39	0	1104150528	56	6609
2026-01-02 20:37:06.86	326.84	5.58	-41.8	-43.2	19.7	0.00e+00	0	39	0	1106247680	56	6615
2026-01-02 20:37:07.58	326.76	5.54	-41.8	-43.3	19.5	0.00e+00	0	39	0	1107296256	56	6640
2026-01-02 20:37:08.88	326.62	5.47	-41.6	-43.0	19.8	0.00e+00	0	39	0	1110441984	56	6437
2026-01-02 20:37:09.60	326.55	5.43	-41.8	-43.2	19.6	0.00e+00	0	39	0	1111490560	56	6609
2026-01-02 20:37:10.90	326.41	5.37	-41.6	-43.0	19.9	0.00e+00	0	39	0	1113587712	56	6417
2026-01-02 20:37:11.62	326.34	5.33	-41.3	-42.7	20.2	0.00e+00	0	39	0	1115684864	56	6181
2026-01-02 20:37:12.92	326.20	5.26	-41.3	-42.7	20.1	0.00e+00	0	39	0	1117782016	56	6191
2026-01-02 20:37:13.64	326.13	5.22	-41.3	-42.6	20.2	0.00e+00	0	39	0	1118830592	56	6144
2026-01-02 20:37:14.94	325.99	5.15	-41.2	-42.5	20.4	0.00e+00	0	39	0	1121976320	56	6036
2026-01-02 20:37:15.66	325.92	5.12	-40.9	-42.1	20.6	0.00e+00	0	39	0	1123024896	56	5816
2026-01-02 20:37:16.96	325.78	5.05	-40.7	-41.9	20.8	0.00e+00	0	39	0	1125122048	54	6355
2026-01-02 20:37:17.68	325.71	5.01	-40.7	-41.9	20.7	0.00e+00	0	39	0	1127219200	54	6356
2026-01-02 20:37:18.98	325.58	4.94	-40.8	-42.1	20.5	0.00e+00	0	39	0	1129316352	54	6479
2026-01-02 20:37:19.70	325.50	4.90	-40.9	-42.2	20.6	0.00e+00	0	39	0	1130364928	54	6562
2026-01-02 20:37:20.99	325.37	4.84	-41.1	-42.4	20.3	0.00e+00	0	39	0	1133510656	54	6704
2026-01-02 20:37:21.72	325.30	4.80	-41.2	-42.5	20.1	0.00e+00	0	39	0	1134559232	54	6843
2026-01-02 20:37:23.01	325.17	4.73	-40.9	-42.2	20.4	0.00e+00	0	39	0	1136656384	54	6550
2026-01-02 20:37:23.73	325.10	4.69	-41.0	-42.3	20.3	0.00e+00	0	39	0	1137704960	54	6682
2026-01-02 20:37:25.03	324.97	4.62	-41.3	-42.6	20.0	0.00e+00	0	39	0	1140850688	54	6891
2026-01-02 20:37:25.75	324.90	4.59	-41.3	-42.7	19.9	0.00e+00	0	39	0	1141899264	54	6931
2026-01-02 20:37:27.05	324.77	4.52	-41.4	-42.7	19.9	0.00e+00	0	39	0	1143996416	54	6982
2026-01-02 20:37:27.77	324.70	4.48	-41.6	-43.0	19.8	0.00e+00	0	39	0	1146093568	54	7175
2026-01-02 20:37:29.07	324.57	4.41	-41.7	-43.1	19.5	0.00e+00	0	39	0	1148190720	54	7305
2026-01-02 20:37:29.79	324.50	4.38	-42.1	-43.6	19.0	0.00e+00	0	39	0	1149239296	56	6900
2026-01-02 20:37:31.09	324.37	4.31	-42.4	-44.0	18.8	0.00e+00	0	39	0	1152385024	56	7194
2026-01-02 20:37:31.81	324.30	4.27	-42.3	-43.9	18.8	0.00e+00	0	39	0	1153433600	56	7119
2026-01-02 20:37:33.11	324.18	4.20	-42.6	-44.3	18.4	0.00e+00	0	39	0	1155530752	56	7445
2026-01-02 20:37:33.83	324.11	4.17	-42.8	-44.5	18.3	0.00e+00	0	39	0	1156579328	58	6795
2026-01-02 20:37:35.13	323.98	4.10	-42.4	-44.1	18.5	0.00e+00	0	39	0	1159725056	58	6498
2026-01-02 20:37:35.85	323.91	4.06	-42.8	-44.6	18.2	0.00e+00	0	39	0	1160773632	58	6881
2026-01-02 20:37:37.15	323.79	3.99	-42.5	-44.1	18.5	0.00e+00	0	39	0	1162870784	58	6510
2026-01-02 20:37:37.87	323.72	3.96	-42.5	-44.2	18.5	0.00e+00	0	39	0	1164967936	58	6572
2026-01-02 20:37:39.17	323.60	3.89	-42.5	-44.2	18.4	0.00e+00	0	39	0	1167065088	58	6607
2026-01-02 20:37:39.89	323.53	3.85	-42.6	-44.3	18.4	0.00e+00	0	39	0	1168113664	58	6624
2026-01-02 20:37:41.19	323.41	3.78	-42.5	-44.1	18.5	0.00e+00	0	39	0	1171259392	58	6521
2026-01-02 20:37:41.91	323.34	3.75	-42.3	-44.0	18.6	0.00e+00	0	39	0	1172307968	58	6394
2026-01-02 20:37:43.21	323.22	3.68	-42.5	-44.2	18.5	0.00e+00	0	39	0	1174405120	58	6569
2026-01-02 20:37:43.93	323.15	3.64	-42.5	-44.2	18.4	0.00e+00	0	39	0	1175453696	58	6560
2026-01-02 20:37:45.23	323.03	3.57	-42.8	-44.5	18.2	0.00e+00	0	39	0	1178599424	58	6801
2026-01-02 20:37:45.95	322.96	3.54	-42.3	-43.9	18.7	0.00e+00	0	39	0	1179648000	58	6346
2026-01-02 20:37:47.24	322.85	3.47	-42.6	-44.3	18.3	0.00e+00	0	39	0	1181745152	58	6657
2026-01-02 20:37:47.96	322.78	3.43	-43.1	-45.0	17.7	0.00e+00	0	39	0	1183842304	58	7181
2026-01-02 20:37:49.26	322.66	3.37	-42.8	-44.6	18.1	0.00e+00	0	39	0	1185939456	58	6877
2026-01-02 20:37:49.98	322.60	3.33	-42.7	-44.5	17.8	0.00e+00	0	39	0	1186988032	58	6838
2026-01-02 20:37:51.28	322.48	3.26	-43.4	-45.4	17.2	0.00e+00	0	39	0	1190133760	58	7556
2026-01-02 20:37:52.00	322.41	3.22	-43.1	-45.0	17.6	0.00e+00	0	39	0	1191182336	58	7245
2026-01-02 20:37:53.30	322.30	3.16	-43.4	-45.5	17.2	0.00e+00	0	39	0	1193279488	58	7625
2026-01-02 20:37:54.02	322.23	3.12	-43.4	-45.5	17.1	0.00e+00	0	39	0	1195376640	58	7626
2026-01-02 20:37:55.32	322.12	3.05	-43.7	-45.8	16.7	0.00e+00	0	39	0	1197473792	58	7952
2026-01-02 20:37:56.04	322.05	3.02	-43.6	-45.8	16.8	0.00e+00	0	39	0	1198522368	58	7902
2026-01-02 20:37:57.34	321.94	2.95	-49.1	-64.2	3.6	9.86e-01	0	39	104	1199570944	60	58706
