passes_logs/2026/01/02/R4.6S_Anadyr/R4.6S_Anadyr__20260102_120721_SUOMI_NPP_rec.log

#Pass ID: 20260102_120721_SUOMI NPP
#Satellite: SUOMI NPP
#Configuration: NPP
#almurnet v.1.7.20251203
#Start time: 2026-01-02 12:07:23

#Version: 2.2.20231116
#Station: R4.6S_Anadyr
#Location: 177.4865 lon 64.73178 lat
#TLE: 1 37849U 11061A   26001.07732418  .00000182  00000+0  10735-3 0  9990
#TLE: 2 37849  98.7795 303.2470 0002580  87.2016 272.9455 14.19520779734739

#Time	Az	El	Level	Level2	SNR	BER	BlckErr	Temp	State	Recorded	gain1	gain2
2026-01-02 12:07:23.94	19.72	0.11	-49.4	-61.9	3.4	1.52e+00	0	37	0	0	60	43883
2026-01-02 12:07:24.95	19.81	0.15	-49.4	-64.6	3.6	1.51e+00	0	37	104	0	60	61534
2026-01-02 12:07:25.96	19.89	0.20	-49.4	-64.6	3.6	1.51e+00	0	38	104	0	60	61489
2026-01-02 12:07:26.97	19.98	0.25	-49.4	-64.6	3.6	1.51e+00	0	38	104	0	60	61672
2026-01-02 12:07:27.98	20.06	0.29	-49.4	-64.7	3.6	1.51e+00	0	38	104	0	60	62202
2026-01-02 12:07:28.99	20.15	0.34	-49.5	-64.7	3.6	1.51e+00	0	38	104	0	60	62266
2026-01-02 12:07:30.00	20.23	0.38	-49.5	-64.7	3.6	1.51e+00	0	38	104	0	60	62072
2026-01-02 12:07:31.01	20.32	0.43	-49.5	-64.7	3.6	1.51e+00	0	38	104	0	60	62428
2026-01-02 12:07:32.02	20.40	0.48	-49.6	-64.8	3.6	1.51e+00	0	38	104	0	60	62823
2026-01-02 12:07:33.03	20.49	0.52	-49.6	-64.8	3.6	1.51e+00	0	38	104	0	60	62790
2026-01-02 12:07:34.03	20.57	0.57	-49.5	-64.8	3.6	1.51e+00	0	38	104	0	60	62880
2026-01-02 12:07:35.04	20.66	0.61	-49.5	-64.8	3.6	1.51e+00	0	38	104	0	60	62491
2026-01-02 12:07:36.05	20.75	0.66	-49.3	-64.7	3.6	1.51e+00	0	38	104	0	60	61815
2026-01-02 12:07:37.06	20.83	0.71	-49.4	-64.6	3.6	1.51e+00	0	38	104	0	60	61337
2026-01-02 12:07:38.07	20.92	0.75	-49.3	-64.6	3.6	1.51e+00	0	38	104	0	60	61060
2026-01-02 12:07:39.08	21.01	0.80	-49.2	-64.4	3.6	1.51e+00	0	38	104	0	60	59952
2026-01-02 12:07:40.10	21.10	0.85	-49.0	-64.2	3.6	1.51e+00	0	38	104	0	60	58664
2026-01-02 12:07:41.10	21.18	0.89	-48.9	-64.1	3.6	1.51e+00	0	38	104	0	60	57778
2026-01-02 12:07:42.11	21.27	0.94	-48.6	-63.9	3.6	1.51e+00	0	38	104	0	60	56397
2026-01-02 12:07:43.12	21.36	0.99	-48.3	-63.4	3.6	1.51e+00	0	38	104	0	60	53642
2026-01-02 12:07:44.13	21.45	1.03	-47.8	-63.0	3.6	1.51e+00	0	38	104	0	60	51109
2026-01-02 12:07:45.15	21.54	1.08	-47.8	-63.0	3.6	1.51e+00	0	38	104	0	60	50811
2026-01-02 12:07:46.15	21.63	1.12	-47.8	-63.0	3.6	1.51e+00	0	38	104	0	60	50876
2026-01-02 12:07:47.16	21.72	1.17	-47.8	-62.9	3.6	1.51e+00	0	38	104	0	60	50643
2026-01-02 12:07:48.17	21.81	1.22	-47.8	-62.9	3.6	1.51e+00	0	38	104	0	60	50706
2026-01-02 12:07:49.19	21.90	1.26	-47.8	-62.9	3.6	1.51e+00	0	38	104	0	60	50693
2026-01-02 12:07:50.19	21.99	1.31	-47.8	-63.0	3.6	1.51e+00	0	38	104	0	60	51105
2026-01-02 12:07:51.20	22.08	1.36	-47.8	-62.9	3.6	1.51e+00	0	38	104	0	60	50721
2026-01-02 12:07:52.21	22.17	1.40	-47.8	-63.0	3.6	1.51e+00	0	38	104	0	60	50938
2026-01-02 12:07:53.23	22.26	1.45	-47.8	-62.9	3.6	1.51e+00	0	38	104	0	60	50548
2026-01-02 12:07:54.23	22.35	1.50	-47.8	-62.9	3.6	1.51e+00	0	38	104	0	60	50726
2026-01-02 12:07:55.24	22.44	1.54	-47.8	-62.9	3.6	1.51e+00	0	38	104	0	60	50750
2026-01-02 12:07:56.25	22.54	1.59	-47.8	-63.0	3.6	1.51e+00	0	38	104	0	60	50993
2026-01-02 12:07:57.26	22.63	1.64	-47.8	-62.9	3.6	1.51e+00	0	38	104	0	60	50616
2026-01-02 12:07:58.27	22.72	1.68	-47.8	-63.0	3.6	1.51e+00	0	38	104	0	60	51097
2026-01-02 12:07:59.28	22.81	1.73	-47.8	-63.0	3.6	1.51e+00	0	38	104	0	60	50897
2026-01-02 12:08:00.29	22.91	1.78	-47.8	-63.0	3.6	1.51e+00	0	38	104	0	60	50791
2026-01-02 12:08:01.30	23.00	1.82	-47.8	-63.0	3.6	1.51e+00	0	38	104	0	60	50975
2026-01-02 12:08:02.31	23.09	1.87	-47.8	-63.0	3.6	1.51e+00	0	38	104	0	60	51032
2026-01-02 12:08:03.32	23.19	1.92	-47.8	-62.8	3.6	1.51e+00	0	38	104	0	60	50141
2026-01-02 12:08:04.33	23.28	1.96	-47.8	-62.8	3.6	1.51e+00	0	38	104	0	60	50136
2026-01-02 12:08:05.35	23.38	2.01	-47.8	-62.8	3.6	1.51e+00	0	38	104	0	60	50171
2026-01-02 12:08:06.36	23.47	2.06	-47.8	-62.9	3.6	1.51e+00	0	38	104	0	60	50310
2026-01-02 12:08:07.36	23.57	2.10	-47.8	-62.9	3.6	1.51e+00	0	38	104	0	60	50601
2026-01-02 12:08:08.37	23.66	2.15	-47.8	-62.9	3.6	1.51e+00	0	38	104	0	60	50673
2026-01-02 12:08:09.38	23.76	2.20	-47.8	-62.9	3.6	1.51e+00	0	38	104	0	60	50506
2026-01-02 12:08:10.39	23.85	2.24	-47.8	-62.9	3.6	1.51e+00	0	38	104	0	60	50237
2026-01-02 12:08:11.40	23.95	2.29	-47.8	-62.9	3.6	1.51e+00	0	38	104	0	60	50747
2026-01-02 12:08:12.41	24.05	2.34	-47.8	-62.9	3.6	1.51e+00	0	38	104	0	60	50576
2026-01-02 12:08:13.42	24.14	2.38	-47.8	-62.6	3.6	1.51e+00	0	38	104	0	60	48874
2026-01-02 12:08:14.43	24.24	2.43	-47.7	-62.0	3.6	1.51e+00	0	38	104	0	60	45658
2026-01-02 12:08:15.44	24.34	2.48	-47.7	-61.8	3.6	1.51e+00	0	38	104	0	60	44434
2026-01-02 12:08:16.45	24.44	2.53	-47.7	-62.0	3.6	1.51e+00	0	38	104	0	60	45348
2026-01-02 12:08:17.46	24.53	2.57	-47.7	-60.6	3.6	1.51e+00	0	38	104	0	60	38540
2026-01-02 12:08:18.47	24.63	2.62	-47.3	-56.1	5.9	1.03e+00	0	38	104	0	60	23136
2026-01-02 12:08:19.48	24.73	2.67	-46.3	-51.3	10.1	3.66e-02	0	38	0	1048576	60	13343
2026-01-02 12:08:20.49	24.83	2.71	-45.1	-48.6	13.1	9.09e-04	0	38	0	2097152	60	9756
2026-01-02 12:08:21.50	24.93	2.76	-43.6	-46.0	15.9	0.00e+00	0	38	0	4194304	60	7252
2026-01-02 12:08:22.51	25.03	2.81	-42.8	-44.9	17.1	0.00e+00	0	38	0	6291456	60	6347
2026-01-02 12:08:23.52	25.13	2.85	-42.4	-44.3	17.4	0.00e+00	0	38	0	8388608	58	6654
2026-01-02 12:08:24.53	25.23	2.90	-43.0	-45.2	16.5	0.00e+00	0	39	0	10485760	58	7416
2026-01-02 12:08:25.54	25.33	2.95	-43.3	-45.7	16.1	0.00e+00	0	39	0	11534336	58	7806
2026-01-02 12:08:26.55	25.43	3.00	-44.6	-47.8	14.0	0.00e+00	0	38	0	13631488	60	8831
2026-01-02 12:08:27.56	25.53	3.04	-42.4	-44.3	17.6	7.00e-07	0	38	0	15728640	60	5954
2026-01-02 12:08:28.57	25.63	3.09	-42.6	-44.5	17.3	0.00e+00	0	38	0	17825792	58	6842
2026-01-02 12:08:29.58	25.73	3.14	-45.8	-50.3	7.4	0.00e+00	0	39	0	19922944	60	11782
2026-01-02 12:08:30.59	25.83	3.18	-47.5	-58.9	3.9	1.51e+00	0	39	104	19922944	60	31844
2026-01-02 12:08:31.60	25.94	3.23	-42.0	-43.8	17.0	2.58e-01	0	38	104	19922944	60	5575
2026-01-02 12:08:32.61	26.04	3.28	-43.7	-46.1	16.0	5.86e-04	0	38	0	20971520	60	7267
2026-01-02 12:08:33.62	26.14	3.32	-42.6	-44.6	17.2	0.00e+00	0	38	0	23068672	58	6916
2026-01-02 12:08:34.63	26.24	3.37	-41.9	-43.6	18.2	0.00e+00	0	38	0	25165824	58	6167
2026-01-02 12:08:35.64	26.35	3.42	-41.3	-42.9	19.0	0.00e+00	0	38	0	27262976	56	6338
2026-01-02 12:08:36.65	26.45	3.47	-41.8	-43.5	18.4	0.00e+00	0	38	0	28311552	56	6794
2026-01-02 12:08:37.65	26.55	3.51	-41.4	-42.9	19.0	0.00e+00	0	38	0	30408704	56	6378
2026-01-02 12:08:38.66	26.66	3.56	-41.5	-43.2	18.7	0.00e+00	0	38	0	32505856	56	6547
2026-01-02 12:08:39.67	26.76	3.61	-41.4	-43.0	18.9	0.00e+00	0	39	0	34603008	56	6403
2026-01-02 12:08:40.68	26.87	3.65	-41.3	-42.8	19.1	0.00e+00	0	38	0	36700160	56	6282
2026-01-02 12:08:41.69	26.97	3.70	-41.6	-43.2	18.7	0.00e+00	0	38	0	37748736	56	6556
2026-01-02 12:08:42.70	27.08	3.75	-41.3	-42.9	19.0	0.00e+00	0	38	0	39845888	56	6339
2026-01-02 12:08:43.71	27.19	3.80	-41.3	-42.8	19.0	0.00e+00	0	38	0	41943040	56	6305
2026-01-02 12:08:44.72	27.29	3.84	-41.2	-42.7	19.2	0.00e+00	0	38	0	44040192	56	6210
2026-01-02 12:08:45.73	27.40	3.89	-41.4	-42.9	19.0	0.00e+00	0	38	0	46137344	56	6361
2026-01-02 12:08:46.74	27.51	3.94	-41.1	-42.6	19.3	0.00e+00	0	38	0	47185920	56	6115
2026-01-02 12:08:47.75	27.61	3.99	-41.0	-42.4	19.4	0.00e+00	0	38	0	49283072	56	6001
2026-01-02 12:08:48.76	27.72	4.03	-40.9	-42.4	19.5	0.00e+00	0	38	0	51380224	56	5982
2026-01-02 12:08:49.76	27.83	4.08	-40.9	-42.3	19.5	0.00e+00	0	38	0	53477376	56	5911
2026-01-02 12:08:50.78	27.94	4.13	-40.8	-42.2	19.6	0.00e+00	0	38	0	55574528	56	5894
2026-01-02 12:08:51.78	28.04	4.17	-41.1	-42.6	19.3	0.00e+00	0	39	0	56623104	56	6165
2026-01-02 12:08:52.79	28.15	4.22	-41.0	-42.4	19.6	0.00e+00	0	38	0	58720256	56	6019
2026-01-02 12:08:53.80	28.26	4.27	-40.9	-42.3	19.5	0.00e+00	0	39	0	60817408	56	5930
2026-01-02 12:08:54.81	28.37	4.32	-40.8	-42.2	19.6	0.00e+00	0	39	0	62914560	56	5885
2026-01-02 12:08:55.82	28.48	4.36	-40.8	-42.3	19.7	0.00e+00	0	39	0	65011712	56	5898
2026-01-02 12:08:56.83	28.59	4.41	-41.2	-42.7	19.3	0.00e+00	0	38	0	67108864	56	6181
2026-01-02 12:08:57.84	28.70	4.46	-41.0	-42.5	19.5	0.00e+00	0	38	0	68157440	56	6044
2026-01-02 12:08:58.85	28.81	4.50	-41.2	-42.8	19.1	0.00e+00	0	38	0	70254592	56	6252
2026-01-02 12:08:59.86	28.93	4.55	-41.0	-42.5	19.1	0.00e+00	0	38	0	72351744	56	6063
2026-01-02 12:09:00.87	29.04	4.60	-41.2	-42.7	19.0	0.00e+00	0	38	0	74448896	56	6189
2026-01-02 12:09:01.88	29.15	4.65	-41.1	-42.6	19.3	0.00e+00	0	38	0	76546048	56	6143
2026-01-02 12:09:02.89	29.26	4.69	-41.4	-42.9	19.2	0.00e+00	0	38	0	77594624	56	6370
2026-01-02 12:09:03.90	29.37	4.74	-41.3	-42.8	19.1	0.00e+00	0	38	0	79691776	56	6316
2026-01-02 12:09:04.91	29.49	4.79	-41.4	-42.9	19.1	0.00e+00	0	38	0	81788928	56	6371
2026-01-02 12:09:05.91	29.60	4.83	-42.0	-43.7	18.4	0.00e+00	0	38	0	83886080	56	7006
2026-01-02 12:09:06.92	29.71	4.88	-42.0	-43.7	18.9	0.00e+00	0	38	0	85983232	56	6968
2026-01-02 12:09:07.93	29.83	4.93	-41.7	-43.3	18.7	0.00e+00	0	38	0	87031808	56	6652
2026-01-02 12:09:08.94	29.94	4.98	-41.6	-43.2	18.8	0.00e+00	0	38	0	89128960	56	6562
2026-01-02 12:09:09.95	30.06	5.02	-41.4	-42.9	19.2	0.00e+00	0	38	0	91226112	56	6354
2026-01-02 12:09:10.96	30.17	5.07	-41.2	-42.7	19.4	0.00e+00	0	38	0	93323264	56	6222
2026-01-02 12:09:11.97	30.29	5.12	-41.4	-43.0	19.1	0.00e+00	0	38	0	95420416	56	6416
2026-01-02 12:09:12.98	30.40	5.16	-41.3	-42.8	19.3	0.00e+00	0	38	0	96468992	56	6295
2026-01-02 12:09:13.99	30.52	5.21	-41.2	-42.6	19.5	0.00e+00	0	38	0	98566144	56	6150
2026-01-02 12:09:15.00	30.64	5.26	-41.1	-42.5	19.6	0.00e+00	0	38	0	100663296	56	6073
2026-01-02 12:09:16.02	30.75	5.31	-41.1	-42.6	19.5	0.00e+00	0	38	0	102760448	56	6123
2026-01-02 12:09:17.02	30.87	5.35	-41.1	-42.5	19.7	0.00e+00	0	38	0	104857600	56	6071
2026-01-02 12:09:18.03	30.99	5.40	-41.3	-42.8	19.3	0.00e+00	0	38	0	105906176	56	6283
2026-01-02 12:09:19.04	31.11	5.45	-41.2	-42.6	19.6	0.00e+00	0	39	0	108003328	56	6168
2026-01-02 12:09:20.05	31.23	5.49	-40.9	-42.3	19.9	0.00e+00	0	38	0	110100480	56	5898
2026-01-02 12:09:21.06	31.34	5.54	-41.0	-42.3	20.0	0.00e+00	0	38	0	112197632	56	5958
2026-01-02 12:09:22.07	31.46	5.59	-40.9	-42.3	19.8	0.00e+00	0	38	0	114294784	56	5944
2026-01-02 12:09:23.09	31.58	5.64	-41.0	-42.4	19.8	0.00e+00	0	38	0	115343360	56	6026
2026-01-02 12:09:24.09	31.70	5.68	-40.9	-42.3	20.0	0.00e+00	0	38	0	117440512	56	5927
2026-01-02 12:09:25.10	31.82	5.73	-41.0	-42.4	19.9	0.00e+00	0	38	0	119537664	56	5973
2026-01-02 12:09:26.11	31.94	5.78	-40.9	-42.3	19.9	0.00e+00	0	38	0	121634816	54	6678
2026-01-02 12:09:27.12	32.06	5.82	-41.0	-42.4	19.8	0.00e+00	0	39	0	123731968	54	6735
2026-01-02 12:09:28.13	32.19	5.87	-40.9	-42.3	19.9	0.00e+00	0	38	0	124780544	54	6616
2026-01-02 12:09:29.14	32.31	5.92	-40.8	-42.1	20.0	0.00e+00	0	38	0	126877696	54	6506
2026-01-02 12:09:30.15	32.43	5.96	-40.7	-42.1	19.9	0.00e+00	0	38	0	128974848	54	6466
2026-01-02 12:09:31.16	32.55	6.01	-40.7	-42.1	19.8	0.00e+00	0	38	0	131072000	54	6507
2026-01-02 12:09:32.17	32.68	6.06	-40.8	-42.2	20.0	0.00e+00	0	39	0	133169152	54	6570
2026-01-02 12:09:33.18	32.80	6.10	-40.9	-42.3	19.9	0.00e+00	0	38	0	135266304	54	6669
2026-01-02 12:09:34.19	32.92	6.15	-40.4	-41.6	20.5	0.00e+00	0	38	0	136314880	54	6161
2026-01-02 12:09:35.20	33.05	6.20	-40.3	-41.6	20.4	0.00e+00	0	38	0	138412032	54	6114
2026-01-02 12:09:36.21	33.17	6.24	-40.6	-41.9	20.4	0.00e+00	0	38	0	140509184	54	6341
2026-01-02 12:09:37.22	33.30	6.29	-40.3	-41.6	20.4	0.00e+00	0	39	0	142606336	54	6126
2026-01-02 12:09:38.23	33.42	6.34	-40.3	-41.5	20.6	0.00e+00	0	39	0	144703488	54	6076
2026-01-02 12:09:39.24	33.55	6.38	-40.4	-41.6	20.6	0.00e+00	0	38	0	145752064	54	6168
2026-01-02 12:09:40.25	33.67	6.43	-40.2	-41.4	20.6	0.00e+00	0	38	0	147849216	54	6012
2026-01-02 12:09:41.26	33.80	6.48	-40.3	-41.5	20.6	0.00e+00	0	38	0	149946368	54	6098
2026-01-02 12:09:42.27	33.92	6.52	-40.3	-41.5	20.6	0.00e+00	0	39	0	152043520	54	6101
2026-01-02 12:09:43.27	34.05	6.57	-40.3	-41.5	20.7	0.00e+00	0	38	0	154140672	54	6076
2026-01-02 12:09:44.28	34.18	6.62	-40.1	-41.3	20.8	0.00e+00	0	38	0	155189248	54	5960
2026-01-02 12:09:45.29	34.31	6.66	-40.1	-41.3	20.9	0.00e+00	0	38	0	157286400	54	5925
2026-01-02 12:09:46.30	34.43	6.71	-39.8	-40.9	21.2	0.00e+00	0	38	0	159383552	54	5682
2026-01-02 12:09:47.31	34.56	6.76	-39.7	-40.9	21.3	0.00e+00	0	38	0	161480704	52	6355
2026-01-02 12:09:48.32	34.69	6.80	-39.6	-40.7	21.4	0.00e+00	0	39	0	163577856	52	6238
2026-01-02 12:09:49.32	34.82	6.85	-39.7	-40.8	21.3	0.00e+00	0	38	0	164626432	52	6288
2026-01-02 12:09:50.33	34.95	6.89	-39.8	-40.9	21.3	0.00e+00	0	38	0	166723584	52	6382
2026-01-02 12:09:51.34	35.08	6.94	-39.6	-40.7	21.4	0.00e+00	0	39	0	168820736	52	6209
2026-01-02 12:09:52.35	35.21	6.99	-39.8	-40.9	21.2	0.00e+00	0	39	0	170917888	52	6381
2026-01-02 12:09:53.36	35.34	7.03	-39.7	-40.8	21.4	0.00e+00	0	39	0	173015040	52	6299
2026-01-02 12:09:54.37	35.47	7.08	-39.8	-41.0	21.3	0.00e+00	0	39	0	174063616	52	6406
2026-01-02 12:09:55.38	35.61	7.13	-40.0	-41.2	21.1	0.00e+00	0	39	0	176160768	52	6546
2026-01-02 12:09:56.39	35.74	7.17	-40.1	-41.3	21.0	0.00e+00	0	39	0	178257920	52	6630
2026-01-02 12:09:57.40	35.87	7.22	-40.1	-41.3	20.9	0.00e+00	0	38	0	180355072	52	6646
2026-01-02 12:09:58.41	36.00	7.26	-40.1	-41.3	21.0	0.00e+00	0	38	0	182452224	52	6651
2026-01-02 12:09:59.42	36.14	7.31	-40.3	-41.6	20.7	0.00e+00	0	38	0	183500800	52	6881
2026-01-02 12:10:00.43	36.27	7.36	-40.3	-41.5	21.0	0.00e+00	0	38	0	185597952	52	6808
2026-01-02 12:10:01.43	36.40	7.40	-40.1	-41.3	21.0	0.00e+00	0	38	0	187695104	52	6679
2026-01-02 12:10:02.45	36.54	7.45	-40.3	-41.5	20.8	0.00e+00	0	39	0	189792256	52	6829
2026-01-02 12:10:03.45	36.67	7.49	-40.0	-41.2	21.2	0.00e+00	0	38	0	191889408	52	6540
2026-01-02 12:10:04.47	36.81	7.54	-40.0	-41.2	21.2	0.00e+00	0	38	0	192937984	52	6543
2026-01-02 12:10:05.48	36.95	7.58	-40.1	-41.3	21.0	0.00e+00	0	38	0	195035136	52	6621
2026-01-02 12:10:06.48	37.08	7.63	-39.8	-41.0	21.3	0.00e+00	0	39	0	197132288	52	6420
2026-01-02 12:10:07.50	37.22	7.67	-40.0	-41.2	21.2	0.00e+00	0	39	0	199229440	52	6557
2026-01-02 12:10:08.51	37.36	7.72	-40.0	-41.2	21.0	0.00e+00	0	38	0	201326592	52	6561
2026-01-02 12:10:09.52	37.49	7.77	-40.1	-41.3	21.0	0.00e+00	0	39	0	203423744	52	6659
2026-01-02 12:10:10.53	37.63	7.81	-40.2	-41.5	21.0	0.00e+00	0	38	0	204472320	52	6780
2026-01-02 12:10:11.54	37.77	7.86	-40.1	-41.2	21.1	0.00e+00	0	38	0	206569472	52	6613
2026-01-02 12:10:12.55	37.91	7.90	-40.3	-41.5	20.8	0.00e+00	0	38	0	208666624	52	6804
2026-01-02 12:10:13.56	38.05	7.95	-40.3	-41.5	20.9	0.00e+00	0	38	0	210763776	52	6789
2026-01-02 12:10:14.57	38.19	7.99	-40.4	-41.6	20.7	0.00e+00	0	38	0	212860928	52	6882
2026-01-02 12:10:15.58	38.33	8.04	-40.2	-41.3	21.1	0.00e+00	0	38	0	213909504	52	6680
2026-01-02 12:10:16.58	38.47	8.08	-40.3	-41.5	20.8	0.00e+00	0	38	0	216006656	52	6796
2026-01-02 12:10:17.59	38.61	8.13	-40.2	-41.4	21.0	0.00e+00	0	38	0	218103808	52	6744
2026-01-02 12:10:18.60	38.75	8.17	-40.1	-41.3	21.1	0.00e+00	0	38	0	220200960	52	6681
2026-01-02 12:10:19.61	38.89	8.22	-40.3	-41.5	20.9	0.00e+00	0	38	0	222298112	52	6795
2026-01-02 12:10:20.62	39.03	8.26	-40.4	-41.6	20.7	0.00e+00	0	38	0	223346688	52	6910
2026-01-02 12:10:21.63	39.18	8.31	-40.2	-41.4	21.0	0.00e+00	0	38	0	225443840	52	6711
2026-01-02 12:10:22.64	39.32	8.35	-40.3	-41.5	20.7	0.00e+00	0	38	0	227540992	52	6809
2026-01-02 12:10:23.65	39.46	8.39	-40.1	-41.3	20.9	0.00e+00	0	38	0	229638144	52	6678
2026-01-02 12:10:24.65	39.61	8.44	-40.2	-41.4	20.9	0.00e+00	0	38	0	231735296	52	6767
2026-01-02 12:10:25.67	39.75	8.48	-40.3	-41.5	20.9	0.00e+00	0	38	0	232783872	52	6793
2026-01-02 12:10:26.67	39.89	8.53	-40.5	-41.7	20.6	0.00e+00	0	38	0	234881024	52	6979
2026-01-02 12:10:27.68	40.04	8.57	-40.3	-41.5	21.0	0.00e+00	0	38	0	236978176	52	6799
2026-01-02 12:10:28.69	40.18	8.62	-40.4	-41.6	20.8	0.00e+00	0	38	0	239075328	52	6871
2026-01-02 12:10:29.70	40.33	8.66	-40.3	-41.5	21.0	0.00e+00	0	38	0	241172480	52	6781
2026-01-02 12:10:30.71	40.48	8.70	-40.1	-41.3	21.0	0.00e+00	0	38	0	242221056	52	6685
2026-01-02 12:10:31.72	40.62	8.75	-40.1	-41.3	21.1	0.00e+00	0	38	0	244318208	52	6670
2026-01-02 12:10:32.73	40.77	8.79	-40.2	-41.4	21.0	0.00e+00	0	38	0	246415360	52	6760
2026-01-02 12:10:33.74	40.92	8.83	-40.2	-41.4	21.0	0.00e+00	0	39	0	248512512	52	6720
2026-01-02 12:10:34.75	41.07	8.88	-40.1	-41.3	21.2	0.00e+00	0	38	0	250609664	52	6652
2026-01-02 12:10:35.76	41.22	8.92	-40.3	-41.5	21.0	0.00e+00	0	38	0	251658240	52	6809
2026-01-02 12:10:36.77	41.36	8.97	-40.4	-41.6	20.8	0.00e+00	0	39	0	253755392	52	6888
2026-01-02 12:10:37.78	41.51	9.01	-40.4	-41.6	20.9	0.00e+00	0	38	0	255852544	52	6921
2026-01-02 12:10:38.79	41.66	9.05	-40.4	-41.7	20.9	0.00e+00	0	38	0	257949696	52	6954
2026-01-02 12:10:39.80	41.81	9.09	-40.4	-41.7	20.8	0.00e+00	0	38	0	260046848	52	6941
2026-01-02 12:10:40.81	41.96	9.14	-40.2	-41.5	21.0	0.00e+00	0	38	0	261095424	52	6785
2026-01-02 12:10:41.82	42.12	9.18	-40.2	-41.4	21.0	0.00e+00	0	38	0	263192576	52	6745
2026-01-02 12:10:42.82	42.27	9.22	-40.3	-41.5	21.0	0.00e+00	0	38	0	265289728	52	6807
2026-01-02 12:10:43.83	42.42	9.27	-40.3	-41.5	20.9	0.00e+00	0	38	0	267386880	52	6778
2026-01-02 12:10:44.84	42.57	9.31	-40.3	-41.5	21.0	0.00e+00	0	38	0	269484032	52	6807
2026-01-02 12:10:45.85	42.72	9.35	-40.4	-41.6	20.9	0.00e+00	0	38	0	270532608	52	6874
2026-01-02 12:10:46.86	42.88	9.39	-40.3	-41.6	21.0	0.00e+00	0	38	0	272629760	52	6857
2026-01-02 12:10:47.87	43.03	9.44	-40.6	-41.8	20.7	0.00e+00	0	38	0	274726912	52	7050
2026-01-02 12:10:48.88	43.18	9.48	-40.7	-41.9	20.6	0.00e+00	0	38	0	276824064	52	7169
2026-01-02 12:10:49.89	43.34	9.52	-40.8	-42.1	20.6	0.00e+00	0	38	0	278921216	54	6468
2026-01-02 12:10:50.90	43.49	9.56	-40.8	-42.1	20.4	0.00e+00	0	39	0	279969792	54	6517
2026-01-02 12:10:51.91	43.65	9.60	-40.8	-42.1	20.4	0.00e+00	0	38	0	282066944	54	6529
2026-01-02 12:10:52.92	43.80	9.65	-40.7	-42.0	20.6	0.00e+00	0	38	0	284164096	54	6395
2026-01-02 12:10:53.93	43.96	9.69	-40.8	-42.1	20.5	0.00e+00	0	38	0	286261248	54	6469
2026-01-02 12:10:54.94	44.12	9.73	-40.6	-41.9	20.7	0.00e+00	0	38	0	288358400	54	6334
2026-01-02 12:10:55.95	44.28	9.77	-40.6	-41.9	20.8	0.00e+00	0	38	0	289406976	54	6329
2026-01-02 12:10:56.96	44.43	9.81	-40.3	-41.5	21.0	0.00e+00	0	38	0	291504128	54	6089
2026-01-02 12:10:57.97	44.59	9.85	-40.3	-41.6	21.0	0.00e+00	0	38	0	293601280	54	6108
2026-01-02 12:10:58.98	44.75	9.90	-40.4	-41.6	21.0	0.00e+00	0	38	0	295698432	54	6139
2026-01-02 12:10:59.99	44.91	9.94	-40.4	-41.7	20.9	0.00e+00	0	38	0	297795584	54	6175
2026-01-02 12:11:00.99	45.07	9.98	-40.5	-41.7	20.8	0.00e+00	0	38	0	299892736	54	6241
2026-01-02 12:11:02.00	45.23	10.02	-40.7	-42.0	20.6	0.00e+00	0	38	0	300941312	54	6428
2026-01-02 12:11:03.01	45.39	10.06	-40.5	-41.8	20.6	0.00e+00	0	38	0	303038464	54	6279
2026-01-02 12:11:04.02	45.55	10.10	-40.6	-41.9	20.7	0.00e+00	0	38	0	305135616	54	6329
2026-01-02 12:11:05.03	45.71	10.14	-40.7	-42.0	20.6	0.00e+00	0	38	0	307232768	54	6394
2026-01-02 12:11:06.04	45.87	10.18	-40.8	-42.1	20.5	0.00e+00	0	38	0	309329920	54	6500
2026-01-02 12:11:07.05	46.03	10.22	-41.1	-42.4	20.2	0.00e+00	0	38	0	310378496	54	6769
2026-01-02 12:11:08.05	46.19	10.26	-40.9	-42.3	20.3	0.00e+00	0	38	0	312475648	54	6633
2026-01-02 12:11:09.06	46.35	10.30	-41.1	-42.4	20.2	0.00e+00	0	38	0	314572800	54	6727
2026-01-02 12:11:10.07	46.52	10.34	-41.2	-42.6	20.1	0.00e+00	0	38	0	316669952	54	6862
2026-01-02 12:11:11.08	46.68	10.38	-41.1	-42.4	20.2	0.00e+00	0	38	0	318767104	54	6767
2026-01-02 12:11:12.09	46.85	10.42	-41.1	-42.5	20.2	0.00e+00	0	39	0	319815680	54	6783
2026-01-02 12:11:13.10	47.01	10.46	-41.1	-42.5	20.3	0.00e+00	0	38	0	321912832	54	6771
2026-01-02 12:11:14.11	47.17	10.50	-41.2	-42.5	20.2	0.00e+00	0	38	0	324009984	54	6838
2026-01-02 12:11:15.12	47.34	10.53	-41.1	-42.4	20.2	0.00e+00	0	38	0	326107136	54	6769
2026-01-02 12:11:16.13	47.51	10.57	-41.2	-42.6	20.1	0.00e+00	0	38	0	328204288	54	6886
2026-01-02 12:11:17.14	47.67	10.61	-41.1	-42.5	20.2	0.00e+00	0	38	0	329252864	54	6785
2026-01-02 12:11:18.15	47.84	10.65	-41.1	-42.5	20.2	0.00e+00	0	38	0	331350016	54	6789
2026-01-02 12:11:19.16	48.01	10.69	-41.3	-42.7	20.1	0.00e+00	0	38	0	333447168	54	6958
2026-01-02 12:11:20.17	48.17	10.73	-41.1	-42.4	20.1	0.00e+00	0	38	0	335544320	54	6769
2026-01-02 12:11:21.18	48.34	10.77	-41.1	-42.4	20.2	0.00e+00	0	38	0	337641472	54	6751
2026-01-02 12:11:22.19	48.51	10.80	-41.1	-42.5	20.2	0.00e+00	0	38	0	338690048	54	6784
2026-01-02 12:11:23.20	48.68	10.84	-41.0	-42.3	20.3	0.00e+00	0	39	0	340787200	54	6660
2026-01-02 12:11:24.21	48.85	10.88	-41.1	-42.5	20.3	0.00e+00	0	38	0	342884352	54	6787
2026-01-02 12:11:25.22	49.02	10.92	-40.8	-42.1	20.6	0.00e+00	0	38	0	344981504	54	6525
2026-01-02 12:11:26.23	49.19	10.95	-40.8	-42.1	20.5	0.00e+00	0	38	0	347078656	54	6523
2026-01-02 12:11:27.23	49.36	10.99	-40.8	-42.1	20.5	0.00e+00	0	38	0	348127232	54	6510
2026-01-02 12:11:28.24	49.53	11.03	-40.7	-42.0	20.6	0.00e+00	0	38	0	350224384	54	6425
2026-01-02 12:11:29.25	49.70	11.06	-40.8	-42.1	20.5	0.00e+00	0	38	0	352321536	54	6495
2026-01-02 12:11:30.26	49.87	11.10	-40.9	-42.2	20.4	0.00e+00	0	38	0	354418688	54	6612
2026-01-02 12:11:31.27	50.04	11.14	-40.9	-42.2	20.5	0.00e+00	0	38	0	356515840	54	6599
2026-01-02 12:11:32.28	50.21	11.17	-41.0	-42.3	20.4	0.00e+00	0	38	0	357564416	54	6678
2026-01-02 12:11:33.29	50.39	11.21	-41.1	-42.4	20.3	0.00e+00	0	38	0	359661568	54	6718
2026-01-02 12:11:34.30	50.56	11.25	-41.1	-42.4	20.3	0.00e+00	0	38	0	361758720	54	6722
2026-01-02 12:11:35.31	50.73	11.28	-41.1	-42.4	20.4	0.00e+00	0	38	0	363855872	54	6756
2026-01-02 12:11:36.32	50.91	11.32	-41.2	-42.5	20.1	0.00e+00	0	38	0	365953024	54	6831
2026-01-02 12:11:37.33	51.08	11.35	-41.1	-42.4	20.4	0.00e+00	0	39	0	368050176	54	6723
2026-01-02 12:11:38.34	51.26	11.39	-40.6	-41.8	20.8	0.00e+00	0	38	0	369098752	54	6309
2026-01-02 12:11:39.35	51.43	11.42	-40.7	-42.0	20.6	0.00e+00	0	39	0	371195904	54	6405
2026-01-02 12:11:40.36	51.61	11.46	-40.7	-41.9	20.6	0.00e+00	0	38	0	373293056	54	6362
2026-01-02 12:11:41.37	51.79	11.49	-40.8	-42.1	20.6	0.00e+00	0	38	0	375390208	54	6482
2026-01-02 12:11:42.38	51.96	11.53	-40.7	-41.9	20.8	0.00e+00	0	38	0	377487360	54	6389
2026-01-02 12:11:43.39	52.14	11.56	-40.6	-41.9	20.8	0.00e+00	0	39	0	378535936	54	6342
2026-01-02 12:11:44.39	52.32	11.59	-40.6	-41.9	20.8	0.00e+00	0	38	0	380633088	54	6333
2026-01-02 12:11:45.40	52.49	11.63	-40.7	-41.9	20.7	0.00e+00	0	39	0	382730240	54	6378
2026-01-02 12:11:46.41	52.67	11.66	-40.8	-42.0	20.7	0.00e+00	0	38	0	384827392	54	6448
2026-01-02 12:11:47.42	52.85	11.70	-40.8	-42.0	20.6	0.00e+00	0	39	0	386924544	54	6464
2026-01-02 12:11:48.43	53.03	11.73	-40.9	-42.2	20.6	0.00e+00	0	38	0	387973120	54	6548
2026-01-02 12:11:49.44	53.21	11.76	-36.5	-42.0	16.6	4.25e-02	0	39	0	390070272	46	10243
2026-01-02 12:11:50.46	53.39	11.80	-36.6	-42.0	16.5	4.62e-02	69	39	0	392167424	46	10244
2026-01-02 12:11:51.46	53.57	11.83	-37.0	-41.8	16.3	4.41e-02	0	38	0	394264576	46	9993
2026-01-02 12:11:52.47	53.75	11.86	-37.3	-41.9	17.4	3.75e-02	22	39	0	396361728	46	10025
2026-01-02 12:11:53.48	53.93	11.89	-37.9	-41.9	17.8	2.51e-02	0	38	0	397410304	48	9008
2026-01-02 12:11:54.49	54.11	11.92	-37.3	-41.7	17.9	2.98e-02	0	39	0	399507456	48	8786
2026-01-02 12:11:55.50	54.29	11.96	-37.4	-41.9	17.5	1.65e-02	0	39	0	401604608	48	9005
2026-01-02 12:11:56.51	54.48	11.99	-40.7	-42.0	20.7	0.00e+00	0	39	0	403701760	54	6391
2026-01-02 12:11:57.52	54.66	12.02	-40.6	-41.8	20.8	0.00e+00	0	39	0	405798912	54	6302
2026-01-02 12:11:58.53	54.84	12.05	-40.4	-41.6	21.0	0.00e+00	0	38	0	406847488	54	6114
2026-01-02 12:11:59.54	55.02	12.08	-40.0	-41.2	21.4	0.00e+00	0	39	0	408944640	54	5842
2026-01-02 12:12:00.55	55.21	12.11	-39.8	-40.9	21.6	0.00e+00	0	38	0	411041792	54	5693
2026-01-02 12:12:01.56	55.39	12.14	-39.9	-41.0	21.5	0.00e+00	0	38	0	413138944	54	5717
2026-01-02 12:12:02.56	55.57	12.17	-39.8	-40.9	21.7	0.00e+00	0	39	0	415236096	54	5652
2026-01-02 12:12:03.57	55.76	12.20	-39.8	-40.9	21.6	0.00e+00	0	38	0	416284672	52	6390
2026-01-02 12:12:04.58	55.94	12.23	-39.8	-40.9	21.7	0.00e+00	0	39	0	418381824	52	6389
2026-01-02 12:12:05.59	56.13	12.26	-39.9	-41.0	21.6	0.00e+00	0	39	0	420478976	52	6427
2026-01-02 12:12:06.60	56.32	12.29	-39.9	-41.1	21.5	0.00e+00	0	39	0	422576128	52	6479
2026-01-02 12:12:07.61	56.50	12.32	-40.2	-41.3	21.3	0.00e+00	0	38	0	424673280	52	6670
2026-01-02 12:12:08.62	56.69	12.35	-40.3	-41.5	21.1	0.00e+00	0	38	0	425721856	52	6810
2026-01-02 12:12:09.63	56.88	12.38	-40.5	-41.7	21.0	0.00e+00	0	38	0	427819008	52	6987
2026-01-02 12:12:10.63	57.06	12.41	-40.6	-41.8	20.5	0.00e+00	0	39	0	429916160	52	7074
2026-01-02 12:12:11.64	57.25	12.43	-40.2	-41.3	21.3	0.00e+00	0	39	0	432013312	52	6661
2026-01-02 12:12:12.65	57.44	12.46	-39.9	-41.0	21.5	0.00e+00	0	39	0	434110464	52	6423
2026-01-02 12:12:13.66	57.62	12.49	-39.7	-40.8	21.8	0.00e+00	0	39	0	436207616	52	6276
2026-01-02 12:12:14.67	57.81	12.52	-39.4	-40.5	22.0	0.00e+00	0	38	0	437256192	52	6065
2026-01-02 12:12:15.68	58.00	12.54	-39.4	-40.4	22.0	0.00e+00	0	39	0	439353344	52	6032
2026-01-02 12:12:16.69	58.19	12.57	-39.4	-40.4	22.1	0.00e+00	0	38	0	441450496	52	6027
2026-01-02 12:12:17.70	58.38	12.60	-39.5	-40.6	21.9	0.00e+00	0	39	0	443547648	52	6148
2026-01-02 12:12:18.71	58.57	12.62	-39.9	-41.1	21.5	0.00e+00	0	38	0	445644800	52	6483
2026-01-02 12:12:19.72	58.76	12.65	-40.0	-41.1	21.5	0.00e+00	0	38	0	446693376	52	6499
2026-01-02 12:12:20.73	58.95	12.68	-39.9	-41.0	21.7	0.00e+00	0	38	0	448790528	52	6412
2026-01-02 12:12:21.74	59.14	12.70	-39.9	-41.0	21.6	0.00e+00	0	38	0	450887680	52	6447
2026-01-02 12:12:22.75	59.34	12.73	-39.5	-40.6	22.0	0.00e+00	0	38	0	452984832	52	6119
2026-01-02 12:12:23.76	59.53	12.75	-39.4	-40.5	22.0	0.00e+00	0	38	0	455081984	52	6046
2026-01-02 12:12:24.77	59.72	12.78	-39.4	-40.4	22.1	0.00e+00	0	38	0	456130560	52	6003
2026-01-02 12:12:25.77	59.91	12.80	-39.4	-40.5	21.9	0.00e+00	0	39	0	458227712	52	6039
2026-01-02 12:12:26.79	60.10	12.83	-39.4	-40.4	22.0	0.00e+00	0	38	0	460324864	52	6027
2026-01-02 12:12:27.80	60.30	12.85	-39.8	-40.9	21.7	0.00e+00	0	39	0	462422016	52	6328
2026-01-02 12:12:28.80	60.49	12.87	-40.1	-41.3	21.2	0.00e+00	0	39	0	464519168	52	6649
2026-01-02 12:12:29.81	60.68	12.90	-40.4	-41.6	21.1	0.00e+00	0	39	0	465567744	52	6863
2026-01-02 12:12:30.82	60.88	12.92	-40.5	-41.7	21.1	0.00e+00	0	39	0	467664896	52	6965
2026-01-02 12:12:31.83	61.07	12.94	-40.3	-41.5	21.3	0.00e+00	0	39	0	469762048	52	6811
2026-01-02 12:12:32.84	61.26	12.97	-40.1	-41.2	21.5	0.00e+00	0	39	0	471859200	52	6595
2026-01-02 12:12:33.85	61.46	12.99	-40.0	-41.2	21.5	0.00e+00	0	38	0	473956352	52	6547
2026-01-02 12:12:34.86	61.65	13.01	-40.2	-41.3	21.3	0.00e+00	0	39	0	475004928	52	6668
2026-01-02 12:12:35.87	61.85	13.03	-40.5	-41.8	21.0	0.00e+00	0	38	0	477102080	52	7008
2026-01-02 12:12:36.88	62.04	13.05	-41.1	-42.4	20.4	0.00e+00	0	38	0	479199232	54	6730
2026-01-02 12:12:37.89	62.24	13.07	-41.6	-43.0	19.7	0.00e+00	0	39	0	481296384	54	7239
2026-01-02 12:12:38.90	62.44	13.10	-42.1	-43.6	19.4	0.00e+00	0	39	0	483393536	56	6915
2026-01-02 12:12:39.91	62.63	13.12	-41.9	-43.4	19.4	0.00e+00	0	39	0	484442112	56	6715
2026-01-02 12:12:40.92	62.83	13.14	-41.9	-43.3	19.6	0.00e+00	0	39	0	486539264	56	6666
2026-01-02 12:12:41.93	63.03	13.16	-41.3	-42.6	20.1	0.00e+00	0	38	0	488636416	56	6172
2026-01-02 12:12:42.94	63.22	13.18	-40.9	-42.1	20.7	0.00e+00	0	39	0	490733568	56	5793
2026-01-02 12:12:43.95	63.42	13.20	-40.7	-42.0	20.7	0.00e+00	0	39	0	492830720	54	6407
2026-01-02 12:12:44.96	63.62	13.21	-40.5	-41.8	20.8	0.00e+00	0	39	0	493879296	54	6249
2026-01-02 12:12:45.97	63.82	13.23	-40.5	-41.8	20.9	0.00e+00	0	39	0	495976448	54	6247
2026-01-02 12:12:46.98	64.02	13.25	-40.8	-42.1	20.4	0.00e+00	0	39	0	498073600	54	6504
2026-01-02 12:12:47.98	64.21	13.27	-41.2	-42.6	20.2	0.00e+00	0	39	0	500170752	54	6863
2026-01-02 12:12:48.99	64.41	13.29	-41.2	-42.6	20.2	0.00e+00	0	39	0	502267904	54	6862
2026-01-02 12:12:50.00	64.61	13.31	-41.1	-42.4	20.4	0.00e+00	0	39	0	503316480	54	6747
2026-01-02 12:12:51.01	64.81	13.32	-40.8	-42.0	20.6	0.00e+00	0	39	0	505413632	54	6452
2026-01-02 12:12:52.02	65.01	13.34	-40.6	-41.8	20.8	0.00e+00	0	39	0	507510784	54	6316
2026-01-02 12:12:53.03	65.21	13.36	-40.3	-41.5	21.2	0.00e+00	0	39	0	509607936	54	6041
2026-01-02 12:12:54.04	65.41	13.37	-40.3	-41.5	21.0	0.00e+00	0	39	0	511705088	54	6084
2026-01-02 12:12:55.05	65.61	13.39	-40.6	-41.8	21.0	0.00e+00	0	39	0	512753664	54	6293
2026-01-02 12:12:56.06	65.81	13.41	-40.5	-41.7	21.0	0.00e+00	0	38	0	514850816	54	6192
2026-01-02 12:12:57.07	66.01	13.42	-40.5	-41.7	21.0	0.00e+00	0	39	0	516947968	54	6203
2026-01-02 12:12:58.08	66.21	13.44	-40.6	-41.8	20.9	0.00e+00	0	39	0	519045120	54	6285
2026-01-02 12:12:59.09	66.41	13.45	-40.4	-41.6	21.1	0.00e+00	0	39	0	521142272	54	6118
2026-01-02 12:13:00.10	66.61	13.47	-40.3	-41.5	21.1	0.00e+00	0	39	0	522190848	54	6077
2026-01-02 12:13:01.10	66.81	13.48	-40.1	-41.3	21.3	0.00e+00	0	39	0	524288000	54	5916
2026-01-02 12:13:02.11	67.01	13.50	-39.9	-41.1	21.6	0.00e+00	0	39	0	526385152	54	5766
2026-01-02 12:13:03.12	67.21	13.51	-39.9	-41.0	21.5	0.00e+00	0	39	0	528482304	54	5743
2026-01-02 12:13:04.13	67.42	13.52	-39.9	-41.1	21.6	0.00e+00	0	39	0	530579456	54	5767
2026-01-02 12:13:05.14	67.62	13.54	-39.7	-40.8	21.8	0.00e+00	0	39	0	532676608	52	6291
2026-01-02 12:13:06.15	67.82	13.55	-39.9	-41.0	21.7	0.00e+00	0	39	0	533725184	52	6454
2026-01-02 12:13:07.16	68.02	13.56	-39.9	-41.1	21.6	0.00e+00	0	39	0	535822336	52	6491
2026-01-02 12:13:08.16	68.22	13.57	-40.0	-41.2	21.2	0.00e+00	0	38	0	537919488	52	6573
2026-01-02 12:13:09.17	68.43	13.58	-39.9	-41.0	21.6	0.00e+00	0	39	0	540016640	52	6457
2026-01-02 12:13:10.18	68.63	13.60	-39.8	-40.9	21.7	0.00e+00	0	38	0	542113792	52	6374
2026-01-02 12:13:11.19	68.83	13.61	-39.3	-40.4	22.1	0.00e+00	0	39	0	543162368	52	6004
2026-01-02 12:13:12.20	69.04	13.62	-39.3	-40.4	22.1	0.00e+00	0	39	0	545259520	52	5975
2026-01-02 12:13:13.21	69.24	13.63	-38.9	-39.9	22.5	0.00e+00	0	39	0	547356672	52	5665
2026-01-02 12:13:14.22	69.44	13.64	-38.8	-39.8	22.3	0.00e+00	0	39	0	549453824	52	5606
2026-01-02 12:13:15.23	69.65	13.65	-38.8	-39.8	22.5	0.00e+00	0	39	0	551550976	50	6256
2026-01-02 12:13:16.24	69.85	13.66	-38.9	-39.9	22.5	0.00e+00	0	39	0	552599552	50	6330
2026-01-02 12:13:17.25	70.05	13.67	-39.1	-40.2	22.2	0.00e+00	0	39	0	554696704	50	6560
2026-01-02 12:13:18.26	70.26	13.68	-39.3	-40.4	22.1	0.00e+00	0	39	0	556793856	50	6706
2026-01-02 12:13:19.27	70.46	13.69	-39.3	-40.4	22.1	0.00e+00	0	39	0	558891008	50	6699
2026-01-02 12:13:20.28	70.67	13.69	-39.4	-40.5	22.0	0.00e+00	0	39	0	560988160	50	6809
2026-01-02 12:13:21.29	70.87	13.70	-39.4	-40.5	22.0	0.00e+00	0	38	0	562036736	50	6811
2026-01-02 12:13:22.30	71.07	13.71	-39.6	-40.7	21.8	0.00e+00	0	39	0	564133888	50	6963
2026-01-02 12:13:23.31	71.28	13.72	-39.6	-40.7	21.9	0.00e+00	0	39	0	566231040	50	6937
2026-01-02 12:13:24.31	71.48	13.72	-39.8	-40.9	21.8	0.00e+00	0	39	0	568328192	52	6325
2026-01-02 12:13:25.32	71.69	13.73	-39.7	-40.8	21.8	0.00e+00	0	39	0	570425344	52	6274
2026-01-02 12:13:26.33	71.89	13.74	-39.7	-40.8	21.8	0.00e+00	0	39	0	571473920	52	6255
2026-01-02 12:13:27.34	72.10	13.74	-39.6	-40.7	21.9	0.00e+00	0	39	0	573571072	52	6192
2026-01-02 12:13:28.35	72.30	13.75	-39.4	-40.5	22.1	0.00e+00	0	39	0	575668224	52	6042
2026-01-02 12:13:29.36	72.51	13.75	-39.4	-40.4	22.2	0.00e+00	0	39	0	577765376	52	6010
2026-01-02 12:13:30.37	72.71	13.76	-39.4	-40.5	22.0	0.00e+00	0	39	0	579862528	52	6048
2026-01-02 12:13:31.38	72.92	13.76	-39.6	-40.7	21.9	0.00e+00	0	39	0	580911104	52	6208
2026-01-02 12:13:32.39	73.12	13.77	-39.9	-41.0	21.6	0.00e+00	0	39	0	583008256	52	6428
2026-01-02 12:13:33.40	73.33	13.77	-40.0	-41.2	21.5	0.00e+00	0	39	0	585105408	52	6549
2026-01-02 12:13:34.41	73.53	13.77	-40.0	-41.2	21.5	0.00e+00	0	39	0	587202560	52	6552
2026-01-02 12:13:35.42	73.74	13.78	-39.8	-40.9	21.8	0.00e+00	0	39	0	589299712	52	6377
2026-01-02 12:13:36.43	73.94	13.78	-39.6	-40.7	21.9	0.00e+00	0	39	0	590348288	52	6187
2026-01-02 12:13:37.44	74.15	13.78	-39.4	-40.4	22.0	0.00e+00	0	39	0	592445440	52	6015
2026-01-02 12:13:38.45	74.36	13.78	-39.2	-40.3	22.2	0.00e+00	0	39	0	594542592	52	5903
2026-01-02 12:13:39.46	74.56	13.79	-39.3	-40.4	22.0	0.00e+00	0	39	0	596639744	52	6008
2026-01-02 12:13:40.47	74.77	13.79	-39.4	-40.5	22.1	0.00e+00	0	39	0	598736896	52	6052
2026-01-02 12:13:41.48	74.97	13.79	-39.5	-40.5	22.0	0.00e+00	0	39	0	600834048	52	6087
2026-01-02 12:13:42.49	75.18	13.79	-39.6	-40.7	21.9	0.00e+00	0	39	0	601882624	52	6178
2026-01-02 12:13:43.50	75.38	13.79	-39.5	-40.6	21.9	0.00e+00	0	39	0	603979776	52	6158
2026-01-02 12:13:44.51	75.59	13.79	-39.4	-40.4	22.1	0.00e+00	0	39	0	606076928	52	6003
2026-01-02 12:13:45.52	75.79	13.79	-39.2	-40.3	22.1	0.00e+00	0	39	0	608174080	52	5907
2026-01-02 12:13:46.53	76.00	13.79	-39.2	-40.2	22.3	0.00e+00	0	39	0	610271232	52	5873
2026-01-02 12:13:47.54	76.21	13.79	-39.1	-40.1	22.3	0.00e+00	0	39	0	611319808	52	5823
2026-01-02 12:13:48.55	76.41	13.79	-39.0	-40.0	22.3	0.00e+00	0	39	0	613416960	52	5750
2026-01-02 12:13:49.56	76.62	13.79	-39.2	-40.2	22.2	0.00e+00	0	39	0	615514112	52	5864
2026-01-02 12:13:50.56	76.82	13.78	-39.2	-40.2	22.2	0.00e+00	0	39	0	617611264	52	5890
2026-01-02 12:13:51.57	77.03	13.78	-39.2	-40.2	22.2	0.00e+00	0	39	0	619708416	52	5882
2026-01-02 12:13:52.58	77.23	13.78	-39.2	-40.2	22.1	0.00e+00	0	39	0	620756992	52	5895
2026-01-02 12:13:53.59	77.44	13.78	-39.2	-40.3	22.2	0.00e+00	0	39	0	622854144	52	5906
2026-01-02 12:13:54.60	77.64	13.77	-38.7	-39.6	22.7	0.00e+00	0	39	0	624951296	50	6171
2026-01-02 12:13:55.61	77.85	13.77	-38.6	-39.5	22.7	0.00e+00	0	39	0	627048448	50	6097
2026-01-02 12:13:56.62	78.05	13.77	-38.2	-39.2	23.1	0.00e+00	0	39	0	629145600	50	5850
2026-01-02 12:13:57.63	78.26	13.76	-38.1	-39.0	23.2	0.00e+00	0	39	0	630194176	50	5715
2026-01-02 12:13:58.64	78.47	13.76	-38.1	-39.0	23.2	0.00e+00	0	39	0	632291328	50	5732
2026-01-02 12:13:59.65	78.67	13.75	-38.1	-39.1	23.2	0.00e+00	0	39	0	634388480	50	5774
2026-01-02 12:14:00.66	78.88	13.75	-38.3	-39.2	22.9	0.00e+00	0	39	0	636485632	50	5893
2026-01-02 12:14:01.67	79.08	13.74	-38.4	-39.4	22.1	0.00e+00	0	39	0	638582784	50	5966
2026-01-02 12:14:02.68	79.29	13.74	-38.5	-39.4	22.7	0.00e+00	0	39	0	639631360	50	6032
2026-01-02 12:14:03.69	79.49	13.73	-38.4	-39.4	22.8	0.00e+00	0	39	0	641728512	50	6006
2026-01-02 12:14:04.70	79.70	13.72	-38.5	-39.5	22.7	0.00e+00	0	39	0	643825664	50	6083
2026-01-02 12:14:05.71	79.90	13.72	-38.6	-39.6	22.8	0.00e+00	0	39	0	645922816	50	6113
2026-01-02 12:14:06.72	80.11	13.71	-38.6	-39.6	22.7	0.00e+00	0	39	0	648019968	50	6145
2026-01-02 12:14:07.73	80.31	13.70	-38.8	-39.9	22.4	0.00e+00	0	39	0	649068544	50	6326
2026-01-02 12:14:08.74	80.51	13.69	-39.0	-40.0	22.2	0.00e+00	0	39	0	651165696	50	6437
2026-01-02 12:14:09.74	80.72	13.69	-39.0	-40.0	22.3	0.00e+00	0	39	0	653262848	50	6452
2026-01-02 12:14:10.75	80.92	13.68	-39.1	-40.1	22.2	0.00e+00	0	39	0	655360000	50	6510
2026-01-02 12:14:11.76	81.13	13.67	-39.1	-40.2	22.1	0.00e+00	0	39	0	657457152	50	6566
2026-01-02 12:14:12.77	81.33	13.66	-39.0	-40.0	22.3	0.00e+00	0	39	0	658505728	50	6447
2026-01-02 12:14:13.78	81.53	13.65	-38.9	-39.9	22.5	0.00e+00	0	39	0	660602880	50	6365
2026-01-02 12:14:14.79	81.74	13.64	-38.9	-39.9	22.4	0.00e+00	0	39	0	662700032	50	6373
2026-01-02 12:14:15.80	81.94	13.63	-38.9	-40.0	22.4	0.00e+00	0	39	0	664797184	50	6400
2026-01-02 12:14:16.81	82.15	13.62	-38.9	-39.9	22.5	0.00e+00	0	39	0	666894336	50	6375
2026-01-02 12:14:17.82	82.35	13.61	-38.9	-39.9	22.5	0.00e+00	0	39	0	668991488	50	6363
2026-01-02 12:14:18.83	82.55	13.60	-39.1	-40.1	22.3	0.00e+00	0	39	0	670040064	50	6520
2026-01-02 12:14:19.83	82.75	13.59	-39.1	-40.2	22.3	0.00e+00	0	39	0	672137216	50	6543
2026-01-02 12:14:20.84	82.96	13.57	-39.0	-40.1	22.4	0.00e+00	0	39	0	674234368	50	6491
2026-01-02 12:14:21.86	83.16	13.56	-39.0	-40.1	22.3	0.00e+00	0	39	0	676331520	50	6478
2026-01-02 12:14:22.87	83.36	13.55	-38.9	-40.0	22.4	0.00e+00	0	39	0	678428672	50	6415
2026-01-02 12:14:23.87	83.56	13.54	-38.9	-40.0	22.5	0.00e+00	0	39	0	679477248	50	6400
2026-01-02 12:14:24.89	83.77	13.52	-38.6	-39.7	22.6	0.00e+00	0	39	0	681574400	50	6178
2026-01-02 12:14:25.89	83.97	13.51	-38.6	-39.7	22.6	0.00e+00	0	39	0	683671552	50	6198
2026-01-02 12:14:26.90	84.17	13.50	-39.5	-40.5	22.2	0.00e+00	0	39	0	685768704	50	6831
2026-01-02 12:14:27.91	84.37	13.48	-38.6	-39.7	22.8	0.00e+00	0	39	0	687865856	52	5547
2026-01-02 12:14:28.92	84.57	13.47	-38.7	-39.7	22.7	0.00e+00	0	39	0	688914432	50	6239
2026-01-02 12:14:29.93	84.78	13.45	-38.4	-39.4	22.9	0.00e+00	0	39	0	691011584	50	5980
2026-01-02 12:14:30.94	84.98	13.44	-38.3	-39.2	23.1	0.00e+00	0	39	0	693108736	50	5866
2026-01-02 12:14:31.95	85.18	13.42	-38.2	-39.1	23.0	0.00e+00	0	39	0	695205888	50	5801
2026-01-02 12:14:32.96	85.38	13.41	-38.1	-39.0	23.0	0.00e+00	0	39	0	697303040	50	5757
2026-01-02 12:14:33.97	85.58	13.39	-38.4	-39.3	23.1	0.00e+00	0	39	0	698351616	50	5932
2026-01-02 12:14:34.98	85.78	13.38	-38.4	-39.4	22.8	0.00e+00	0	39	0	700448768	50	5972
2026-01-02 12:14:35.99	85.98	13.36	-38.2	-39.1	23.0	0.00e+00	0	39	0	702545920	50	5814
2026-01-02 12:14:37.00	86.18	13.34	-38.3	-39.2	23.0	0.00e+00	0	39	0	704643072	50	5881
2026-01-02 12:14:38.01	86.38	13.32	-38.1	-39.0	23.1	0.00e+00	0	39	0	706740224	50	5736
2026-01-02 12:14:39.02	86.58	13.31	-38.1	-39.0	23.1	0.00e+00	0	39	0	707788800	50	5729
2026-01-02 12:14:40.03	86.78	13.29	-37.9	-38.8	23.4	0.00e+00	0	39	0	709885952	50	5571
2026-01-02 12:14:41.04	86.98	13.27	-37.9	-38.8	23.3	0.00e+00	0	39	0	711983104	50	5613
2026-01-02 12:14:42.05	87.18	13.25	-37.9	-38.8	23.1	0.00e+00	0	39	0	714080256	50	5625
2026-01-02 12:14:43.06	87.38	13.23	-37.9	-38.8	23.3	0.00e+00	0	39	0	716177408	50	5608
2026-01-02 12:14:44.07	87.57	13.22	-38.0	-39.0	23.2	0.00e+00	0	39	0	717225984	50	5714
2026-01-02 12:14:45.08	87.77	13.20	-38.0	-39.0	23.2	0.00e+00	0	39	0	719323136	50	5731
2026-01-02 12:14:46.09	87.97	13.18	-38.2	-39.2	22.9	0.00e+00	0	39	0	721420288	50	5857
2026-01-02 12:14:47.10	88.17	13.16	-38.3	-39.2	23.0	0.00e+00	0	39	0	723517440	50	5872
2026-01-02 12:14:48.11	88.37	13.14	-38.5	-39.5	22.8	0.00e+00	0	39	0	725614592	50	6065
2026-01-02 12:14:49.12	88.56	13.12	-38.5	-39.5	22.8	0.00e+00	0	39	0	726663168	50	6051
2026-01-02 12:14:50.13	88.76	13.10	-38.6	-39.6	22.7	0.00e+00	0	39	0	728760320	50	6140
2026-01-02 12:14:51.14	88.96	13.07	-38.9	-39.9	22.4	0.00e+00	0	39	0	730857472	50	6368
2026-01-02 12:14:52.14	89.15	13.05	-38.7	-39.7	22.7	0.00e+00	0	39	0	732954624	50	6229
2026-01-02 12:14:53.15	89.35	13.03	-38.7	-39.6	22.6	0.00e+00	0	39	0	735051776	50	6162
2026-01-02 12:14:54.16	89.54	13.01	-38.5	-39.5	22.9	0.00e+00	0	39	0	737148928	50	6062
2026-01-02 12:14:55.17	89.74	12.99	-38.4	-39.4	22.9	0.00e+00	0	39	0	738197504	50	5968
2026-01-02 12:14:56.18	89.93	12.97	-38.2	-39.1	23.0	0.00e+00	0	39	0	740294656	50	5813
2026-01-02 12:14:57.19	90.13	12.94	-38.2	-39.1	23.0	0.00e+00	0	39	0	742391808	50	5802
2026-01-02 12:14:58.20	90.32	12.92	-38.1	-39.0	23.1	0.00e+00	0	39	0	744488960	50	5732
2026-01-02 12:14:59.21	90.52	12.90	-38.1	-39.0	23.2	0.00e+00	0	39	0	746586112	50	5711
2026-01-02 12:15:00.22	90.71	12.87	-38.0	-38.9	23.1	0.00e+00	0	39	0	747634688	50	5665
2026-01-02 12:15:01.23	90.90	12.85	-37.9	-38.8	23.3	0.00e+00	0	39	0	749731840	50	5619
2026-01-02 12:15:02.24	91.10	12.82	-37.7	-38.6	23.4	0.00e+00	0	39	0	751828992	48	6141
2026-01-02 12:15:03.25	91.29	12.80	-37.8	-38.7	23.4	0.00e+00	0	39	0	753926144	48	6190
2026-01-02 12:15:04.26	91.48	12.78	-37.4	-38.3	23.7	0.00e+00	0	39	0	756023296	48	5905
2026-01-02 12:15:05.27	91.68	12.75	-37.4	-38.3	23.7	0.00e+00	0	39	0	757071872	48	5925
2026-01-02 12:15:06.28	91.87	12.73	-37.4	-38.2	23.6	0.00e+00	0	39	0	759169024	48	5895
2026-01-02 12:15:07.29	92.06	12.70	-37.5	-38.4	23.6	0.00e+00	0	39	0	761266176	48	5992
2026-01-02 12:15:08.29	92.25	12.67	-37.4	-38.2	23.8	0.00e+00	0	39	0	763363328	48	5887
2026-01-02 12:15:09.30	92.44	12.65	-37.7	-38.7	23.5	0.00e+00	0	39	0	765460480	48	6178
2026-01-02 12:15:10.31	92.63	12.62	-37.9	-38.8	23.4	0.00e+00	0	39	0	766509056	48	6310
2026-01-02 12:15:11.32	92.82	12.60	-37.6	-38.5	23.3	0.00e+00	0	39	0	768606208	48	6101
2026-01-02 12:15:12.33	93.01	12.57	-37.9	-38.8	23.4	0.00e+00	0	39	0	770703360	48	6312
2026-01-02 12:15:13.34	93.20	12.54	-37.6	-38.6	23.3	0.00e+00	0	39	0	772800512	48	6104
2026-01-02 12:15:14.35	93.39	12.51	-37.6	-38.6	23.3	0.00e+00	0	39	0	774897664	48	6105
2026-01-02 12:15:15.36	93.58	12.49	-37.8	-38.7	23.3	0.00e+00	0	39	0	775946240	48	6214
2026-01-02 12:15:16.37	93.77	12.46	-38.1	-39.1	23.1	0.00e+00	0	39	0	778043392	48	6472
2026-01-02 12:15:17.38	93.96	12.43	-38.2	-39.1	23.0	0.00e+00	0	39	0	780140544	48	6522
2026-01-02 12:15:18.39	94.15	12.40	-38.2	-39.1	23.0	0.00e+00	0	39	0	782237696	48	6500
2026-01-02 12:15:19.39	94.33	12.38	-38.2	-39.1	23.0	0.00e+00	0	39	0	784334848	48	6534
2026-01-02 12:15:20.40	94.52	12.35	-38.0	-38.9	23.3	0.00e+00	0	39	0	785383424	48	6345
2026-01-02 12:15:21.41	94.71	12.32	-37.9	-38.8	23.2	0.00e+00	0	39	0	787480576	48	6276
2026-01-02 12:15:22.42	94.90	12.29	-37.7	-38.6	23.3	0.00e+00	0	39	0	789577728	48	6133
2026-01-02 12:15:23.43	95.08	12.26	-37.8	-38.7	23.4	0.00e+00	0	39	0	791674880	48	6233
2026-01-02 12:15:24.44	95.27	12.23	-38.0	-38.9	23.1	0.00e+00	0	39	0	793772032	48	6363
2026-01-02 12:15:25.45	95.45	12.20	-38.0	-38.9	23.1	0.00e+00	0	39	0	794820608	48	6359
2026-01-02 12:15:26.46	95.64	12.17	-38.2	-39.2	22.9	0.00e+00	0	39	0	796917760	48	6562
2026-01-02 12:15:27.47	95.82	12.14	-38.5	-39.5	22.6	0.00e+00	0	39	0	799014912	48	6835
2026-01-02 12:15:28.48	96.01	12.11	-38.3	-39.2	22.9	0.00e+00	0	39	0	801112064	48	6600
2026-01-02 12:15:29.48	96.19	12.08	-38.3	-39.3	22.9	0.00e+00	0	39	0	803209216	48	6640
2026-01-02 12:15:30.49	96.38	12.05	-38.2	-39.1	23.0	0.00e+00	0	39	0	804257792	48	6509
2026-01-02 12:15:31.50	96.56	12.01	-38.1	-39.1	23.0	0.00e+00	0	39	0	806354944	48	6488
2026-01-02 12:15:32.51	96.74	11.98	-38.3	-39.3	22.9	0.00e+00	0	39	0	808452096	48	6616
2026-01-02 12:15:33.52	96.93	11.95	-38.4	-39.4	22.7	0.00e+00	0	39	0	810549248	48	6725
2026-01-02 12:15:34.53	97.11	11.92	-38.5	-39.5	22.6	0.00e+00	0	39	0	812646400	48	6800
2026-01-02 12:15:35.54	97.29	11.89	-38.8	-39.9	22.3	0.00e+00	0	39	0	813694976	50	6347
2026-01-02 12:15:36.55	97.47	11.86	-39.0	-40.1	22.3	0.00e+00	0	39	0	815792128	50	6495
2026-01-02 12:15:37.56	97.65	11.82	-38.9	-39.9	22.3	0.00e+00	0	39	0	817889280	50	6383
2026-01-02 12:15:38.57	97.83	11.79	-39.0	-40.1	22.1	0.00e+00	0	39	0	819986432	50	6507
2026-01-02 12:15:39.58	98.01	11.76	-39.2	-40.4	21.9	0.00e+00	0	39	0	822083584	50	6695
2026-01-02 12:15:40.59	98.19	11.72	-39.1	-40.2	22.0	0.00e+00	0	39	0	823132160	50	6572
2026-01-02 12:15:41.59	98.37	11.69	-39.2	-40.3	21.8	0.00e+00	0	39	0	825229312	50	6675
2026-01-02 12:15:42.60	98.55	11.66	-39.2	-40.4	21.6	0.00e+00	0	39	0	827326464	50	6701
2026-01-02 12:15:43.61	98.73	11.62	-39.1	-40.2	21.9	0.00e+00	0	39	0	829423616	50	6604
2026-01-02 12:15:44.62	98.91	11.59	-39.1	-40.2	22.1	0.00e+00	0	39	0	831520768	50	6554
2026-01-02 12:15:45.63	99.09	11.55	-39.3	-40.3	21.9	0.00e+00	0	39	0	833617920	50	6691
2026-01-02 12:15:46.64	99.26	11.52	-39.6	-40.7	21.5	0.00e+00	0	39	0	834666496	50	6982
2026-01-02 12:15:47.64	99.44	11.49	-39.8	-40.9	21.4	0.00e+00	0	39	0	836763648	52	6330
2026-01-02 12:15:48.65	99.62	11.45	-40.4	-41.6	20.9	0.00e+00	0	39	0	838860800	52	6878
2026-01-02 12:15:49.66	99.79	11.42	-40.3	-41.5	21.0	0.00e+00	0	39	0	840957952	52	6795
2026-01-02 12:15:50.67	99.97	11.38	-40.4	-41.6	20.8	0.00e+00	0	39	0	843055104	52	6905
2026-01-02 12:15:51.68	100.14	11.35	-40.6	-41.9	20.6	0.00e+00	0	39	0	844103680	52	7116
2026-01-02 12:15:52.69	100.32	11.31	-40.7	-42.0	20.4	0.00e+00	0	39	0	846200832	52	7173
2026-01-02 12:15:53.70	100.49	11.27	-40.8	-42.1	20.5	0.00e+00	0	39	0	848297984	54	6477
2026-01-02 12:15:54.71	100.67	11.24	-40.5	-41.7	20.8	0.00e+00	0	39	0	850395136	54	6210
2026-01-02 12:15:55.72	100.84	11.20	-40.0	-41.2	21.2	0.00e+00	0	39	0	852492288	54	5836
2026-01-02 12:15:56.73	101.02	11.17	-39.9	-41.1	21.2	0.00e+00	0	39	0	853540864	54	5781
2026-01-02 12:15:57.74	101.19	11.13	-40.2	-41.5	20.9	0.00e+00	0	39	0	855638016	54	6034
2026-01-02 12:15:58.75	101.36	11.09	-40.3	-41.5	20.7	0.00e+00	0	39	0	857735168	54	6084
2026-01-02 12:15:59.76	101.54	11.06	-40.4	-41.7	20.7	0.00e+00	0	39	0	859832320	54	6206
2026-01-02 12:16:00.77	101.71	11.02	-40.3	-41.5	20.9	0.00e+00	0	39	0	861929472	54	6100
2026-01-02 12:16:01.78	101.88	10.98	-40.1	-41.3	21.0	0.00e+00	0	39	0	862978048	54	5960
2026-01-02 12:16:02.79	102.05	10.94	-40.1	-41.3	20.9	0.00e+00	0	39	0	865075200	54	5955
2026-01-02 12:16:03.80	102.22	10.91	-39.8	-41.0	21.3	0.00e+00	0	39	0	867172352	52	6420
2026-01-02 12:16:04.81	102.39	10.87	-39.5	-40.7	21.6	0.00e+00	0	39	0	869269504	52	6211
2026-01-02 12:16:05.82	102.56	10.83	-39.7	-40.8	21.6	0.00e+00	0	39	0	871366656	52	6304
2026-01-02 12:16:06.83	102.73	10.79	-39.7	-40.9	21.6	0.00e+00	0	39	0	872415232	52	6336
2026-01-02 12:16:07.83	102.90	10.75	-40.0	-41.2	21.3	0.00e+00	0	39	0	874512384	52	6583
2026-01-02 12:16:08.85	103.07	10.72	-39.9	-41.2	21.1	0.00e+00	0	39	0	876609536	52	6609
2026-01-02 12:16:09.85	103.23	10.68	-40.1	-41.5	20.8	0.00e+00	0	39	0	878706688	52	6840
2026-01-02 12:16:10.86	103.40	10.64	-40.3	-41.8	20.7	0.00e+00	0	39	0	880803840	52	7058
2026-01-02 12:16:11.87	103.57	10.60	-40.4	-42.0	20.4	0.00e+00	0	39	0	881852416	52	7216
2026-01-02 12:16:12.88	103.74	10.56	-40.5	-42.1	20.4	0.00e+00	0	39	0	883949568	52	7296
2026-01-02 12:16:13.89	103.90	10.52	-40.6	-42.2	20.2	0.00e+00	0	39	0	886046720	52	7412
2026-01-02 12:16:14.90	104.07	10.48	-40.7	-42.4	20.1	0.00e+00	0	39	0	888143872	52	7559
2026-01-02 12:16:15.91	104.23	10.44	-40.6	-42.2	20.3	0.00e+00	0	39	0	890241024	54	6558
2026-01-02 12:16:16.92	104.40	10.40	-40.6	-42.1	20.3	0.00e+00	0	39	0	891289600	54	6515
2026-01-02 12:16:17.93	104.56	10.36	-40.7	-42.1	20.2	0.00e+00	0	39	0	893386752	54	6508
2026-01-02 12:16:18.94	104.73	10.32	-40.6	-42.0	20.4	0.00e+00	0	39	0	895483904	54	6411
2026-01-02 12:16:19.95	104.89	10.28	-40.5	-41.9	20.5	0.00e+00	0	39	0	897581056	54	6366
2026-01-02 12:16:20.95	105.05	10.24	-40.6	-42.0	20.4	0.00e+00	0	39	0	899678208	54	6424
2026-01-02 12:16:21.96	105.22	10.20	-40.4	-41.8	20.7	0.00e+00	0	39	0	901775360	54	6247
2026-01-02 12:16:22.97	105.38	10.16	-40.4	-41.7	20.7	0.00e+00	0	39	0	902823936	54	6227
2026-01-02 12:16:23.98	105.54	10.12	-40.4	-41.7	20.7	0.00e+00	0	39	0	904921088	54	6178
2026-01-02 12:16:24.99	105.70	10.08	-40.5	-41.8	20.4	0.00e+00	0	39	0	907018240	54	6297
2026-01-02 12:16:26.00	105.86	10.04	-40.6	-41.9	20.4	0.00e+00	0	39	0	909115392	54	6388
2026-01-02 12:16:27.01	106.02	10.00	-40.4	-41.7	20.7	0.00e+00	0	39	0	911212544	54	6191
2026-01-02 12:16:28.02	106.18	9.96	-40.5	-41.8	20.6	0.00e+00	0	39	0	912261120	54	6290
2026-01-02 12:16:29.03	106.34	9.92	-40.5	-41.8	20.5	0.00e+00	0	39	0	914358272	54	6301
2026-01-02 12:16:30.04	106.50	9.88	-40.4	-41.6	20.5	0.00e+00	0	39	0	916455424	54	6161
2026-01-02 12:16:31.05	106.66	9.84	-40.5	-41.7	20.5	0.00e+00	0	39	0	918552576	54	6238
2026-01-02 12:16:32.06	106.82	9.79	-40.5	-41.8	20.6	0.00e+00	0	39	0	920649728	54	6254
2026-01-02 12:16:33.07	106.98	9.75	-40.1	-41.3	21.0	0.00e+00	0	39	0	921698304	54	5900
2026-01-02 12:16:34.08	107.14	9.71	-40.1	-41.3	21.1	0.00e+00	0	39	0	923795456	54	5910
2026-01-02 12:16:35.09	107.30	9.67	-40.0	-41.2	21.0	0.00e+00	0	39	0	925892608	54	5851
2026-01-02 12:16:36.10	107.45	9.63	-39.9	-41.1	21.2	0.00e+00	0	39	0	927989760	54	5812
2026-01-02 12:16:37.11	107.61	9.58	-39.7	-40.9	21.3	0.00e+00	0	39	0	930086912	52	6351
2026-01-02 12:16:38.11	107.76	9.54	-40.0	-41.2	21.0	0.00e+00	0	39	0	931135488	52	6570
2026-01-02 12:16:39.13	107.92	9.50	-40.0	-41.2	20.9	0.00e+00	0	39	0	933232640	52	6607
2026-01-02 12:16:40.14	108.08	9.46	-40.4	-41.7	20.4	0.00e+00	0	39	0	935329792	52	7005
2026-01-02 12:16:41.15	108.23	9.41	-40.9	-42.2	20.2	0.00e+00	0	39	0	937426944	54	6605
2026-01-02 12:16:42.15	108.38	9.37	-40.9	-42.3	20.2	0.00e+00	0	39	0	939524096	54	6639
2026-01-02 12:16:43.16	108.54	9.33	-41.1	-42.4	20.0	0.00e+00	0	39	0	940572672	54	6760
2026-01-02 12:16:44.17	108.69	9.29	-41.3	-42.7	19.7	0.00e+00	0	39	0	942669824	54	6970
2026-01-02 12:16:45.18	108.84	9.24	-41.0	-42.4	20.1	0.00e+00	0	39	0	944766976	54	6734
2026-01-02 12:16:46.19	109.00	9.20	-40.9	-42.2	20.3	0.00e+00	0	39	0	946864128	54	6578
2026-01-02 12:16:47.20	109.15	9.16	-40.6	-41.9	20.5	0.00e+00	0	39	0	948961280	54	6345
2026-01-02 12:16:48.21	109.30	9.11	-40.3	-41.6	20.7	0.00e+00	0	39	0	950009856	54	6155
2026-01-02 12:16:49.22	109.45	9.07	-40.1	-41.5	20.7	0.00e+00	0	39	0	952107008	54	6057
2026-01-02 12:16:50.23	109.60	9.03	-40.1	-41.4	20.8	0.00e+00	0	39	0	954204160	54	6011
2026-01-02 12:16:51.24	109.75	8.98	-40.2	-41.5	20.8	0.00e+00	0	39	0	956301312	54	6070
2026-01-02 12:16:52.25	109.90	8.94	-40.1	-41.3	20.9	0.00e+00	0	39	0	958398464	54	5957
2026-01-02 12:16:53.26	110.05	8.90	-40.4	-41.7	20.7	0.00e+00	0	39	0	959447040	54	6180
2026-01-02 12:16:54.27	110.20	8.85	-40.1	-41.4	20.8	0.00e+00	0	39	0	961544192	54	5980
2026-01-02 12:16:55.28	110.35	8.81	-40.0	-41.3	20.9	0.00e+00	0	39	0	963641344	54	5929
2026-01-02 12:16:56.29	110.50	8.76	-40.0	-41.3	21.0	0.00e+00	0	39	0	965738496	54	5924
2026-01-02 12:16:57.30	110.64	8.72	-39.9	-41.1	21.1	0.00e+00	0	39	0	967835648	54	5823
2026-01-02 12:16:58.31	110.79	8.68	-39.8	-41.0	21.2	0.00e+00	0	39	0	969932800	54	5735
2026-01-02 12:16:59.32	110.94	8.63	-39.8	-40.9	21.3	0.00e+00	0	39	0	970981376	52	6376
2026-01-02 12:17:00.33	111.09	8.59	-39.7	-40.9	21.1	0.00e+00	0	39	0	973078528	52	6338
2026-01-02 12:17:01.34	111.23	8.54	-39.8	-41.0	21.1	0.00e+00	0	39	0	975175680	52	6394
2026-01-02 12:17:02.34	111.38	8.50	-39.8	-41.0	21.1	0.00e+00	0	39	0	977272832	52	6443
2026-01-02 12:17:03.35	111.52	8.45	-39.9	-41.0	21.1	0.00e+00	0	39	0	979369984	52	6456
2026-01-02 12:17:04.36	111.67	8.41	-39.9	-41.0	21.1	0.00e+00	0	39	0	980418560	52	6462
2026-01-02 12:17:05.37	111.81	8.36	-40.0	-41.2	21.0	0.00e+00	0	39	0	982515712	52	6570
2026-01-02 12:17:06.38	111.95	8.32	-39.8	-41.0	21.1	0.00e+00	0	39	0	984612864	52	6439
2026-01-02 12:17:07.39	112.10	8.27	-40.0	-41.2	21.1	0.00e+00	0	39	0	986710016	52	6568
2026-01-02 12:17:08.40	112.24	8.23	-40.0	-41.2	21.0	0.00e+00	0	39	0	987758592	52	6543
2026-01-02 12:17:09.41	112.38	8.18	-39.6	-40.8	21.4	0.00e+00	0	39	0	989855744	52	6246
2026-01-02 12:17:10.42	112.53	8.14	-39.7	-40.8	21.4	0.00e+00	0	39	0	991952896	52	6300
2026-01-02 12:17:11.43	112.67	8.09	-39.5	-40.6	21.5	0.00e+00	0	39	0	994050048	52	6168
2026-01-02 12:17:12.44	112.81	8.05	-39.5	-40.6	21.4	0.00e+00	0	39	0	996147200	52	6166
2026-01-02 12:17:13.45	112.95	8.00	-39.5	-40.6	21.3	0.00e+00	0	39	0	998244352	52	6164
2026-01-02 12:17:14.46	113.09	7.96	-39.4	-40.5	21.5	0.00e+00	0	39	0	999292928	52	6066
2026-01-02 12:17:15.47	113.23	7.91	-39.5	-40.6	21.4	0.00e+00	0	39	0	1001390080	52	6163
2026-01-02 12:17:16.48	113.37	7.87	-39.7	-40.9	21.2	0.00e+00	0	39	0	1003487232	52	6342
2026-01-02 12:17:17.49	113.51	7.82	-39.8	-40.9	21.2	0.00e+00	0	39	0	1005584384	52	6375
2026-01-02 12:17:18.50	113.65	7.77	-39.8	-40.9	21.2	0.00e+00	0	39	0	1007681536	52	6376
2026-01-02 12:17:19.51	113.79	7.73	-40.1	-41.4	20.9	0.00e+00	0	39	0	1008730112	52	6707
2026-01-02 12:17:20.52	113.92	7.68	-39.9	-41.1	21.1	0.00e+00	0	39	0	1010827264	52	6502
2026-01-02 12:17:21.53	114.06	7.64	-40.0	-41.1	20.9	0.00e+00	0	39	0	1012924416	52	6532
2026-01-02 12:17:22.54	114.20	7.59	-39.9	-41.1	21.0	0.00e+00	0	39	0	1015021568	52	6517
2026-01-02 12:17:23.55	114.34	7.55	-39.7	-40.9	21.2	0.00e+00	0	39	0	1017118720	52	6343
2026-01-02 12:17:24.56	114.47	7.50	-39.7	-41.0	21.0	0.00e+00	0	39	0	1018167296	52	6411
2026-01-02 12:17:25.57	114.61	7.45	-39.7	-40.9	21.1	0.00e+00	0	39	0	1020264448	52	6361
2026-01-02 12:17:26.58	114.74	7.41	-39.8	-41.0	21.2	0.00e+00	0	39	0	1022361600	52	6396
2026-01-02 12:17:27.59	114.88	7.36	-40.0	-41.2	20.8	0.00e+00	0	39	0	1024458752	52	6603
2026-01-02 12:17:28.60	115.01	7.31	-39.7	-40.9	21.2	0.00e+00	0	39	0	1026555904	52	6340
2026-01-02 12:17:29.61	115.15	7.27	-39.9	-41.1	21.1	0.00e+00	0	39	0	1027604480	52	6532
2026-01-02 12:17:30.61	115.28	7.22	-40.0	-41.2	20.9	0.00e+00	0	39	0	1029701632	52	6569
2026-01-02 12:17:31.63	115.41	7.18	-39.9	-41.1	21.0	0.00e+00	0	39	0	1031798784	52	6487
2026-01-02 12:17:32.63	115.55	7.13	-40.2	-41.5	20.6	0.00e+00	0	39	0	1033895936	52	6848
2026-01-02 12:17:33.64	115.68	7.08	-40.4	-41.7	20.6	0.00e+00	0	39	0	1035993088	52	6989
2026-01-02 12:17:34.65	115.81	7.04	-40.2	-41.5	20.7	0.00e+00	0	39	0	1038090240	52	6796
2026-01-02 12:17:35.66	115.94	6.99	-40.2	-41.5	20.6	0.00e+00	0	39	0	1039138816	52	6785
2026-01-02 12:17:36.67	116.07	6.94	-40.1	-41.4	20.7	0.00e+00	0	39	0	1041235968	52	6718
2026-01-02 12:17:37.68	116.21	6.90	-40.1	-41.4	20.8	0.00e+00	0	39	0	1043333120	52	6707
2026-01-02 12:17:38.69	116.34	6.85	-39.9	-41.2	20.9	0.00e+00	0	39	0	1045430272	52	6581
2026-01-02 12:17:39.70	116.47	6.80	-39.9	-41.1	20.9	0.00e+00	0	39	0	1046478848	52	6525
2026-01-02 12:17:40.71	116.60	6.76	-40.1	-41.3	20.8	0.00e+00	0	39	0	1048576000	52	6651
2026-01-02 12:17:41.71	116.72	6.71	-40.2	-41.4	20.6	0.00e+00	0	39	0	1050673152	52	6740
2026-01-02 12:17:42.72	116.85	6.66	-40.1	-41.3	20.8	0.00e+00	0	39	0	1052770304	52	6637
2026-01-02 12:17:43.73	116.98	6.62	-40.0	-41.2	20.8	0.00e+00	0	39	0	1054867456	52	6553
2026-01-02 12:17:44.74	117.11	6.57	-40.2	-41.4	20.6	0.00e+00	0	39	0	1055916032	52	6756
2026-01-02 12:17:45.75	117.24	6.52	-40.1	-41.3	20.7	0.00e+00	0	39	0	1058013184	52	6662
2026-01-02 12:17:46.76	117.37	6.48	-40.5	-41.8	20.3	0.00e+00	0	39	0	1060110336	52	7084
2026-01-02 12:17:47.77	117.49	6.43	-40.4	-41.7	20.4	0.00e+00	0	39	0	1062207488	52	6988
2026-01-02 12:17:48.78	117.62	6.38	-40.4	-41.7	20.4	0.00e+00	0	39	0	1064304640	52	6965
2026-01-02 12:17:49.79	117.75	6.34	-40.3	-41.6	20.4	0.00e+00	0	39	0	1066401792	52	6918
2026-01-02 12:17:50.80	117.87	6.29	-40.3	-41.7	20.5	0.00e+00	0	39	0	1067450368	52	6935
2026-01-02 12:17:51.81	118.00	6.24	-40.2	-41.5	20.5	0.00e+00	0	39	0	1069547520	52	6804
2026-01-02 12:17:52.82	118.12	6.19	-40.4	-41.7	20.4	0.00e+00	0	39	0	1071644672	52	6957
2026-01-02 12:17:53.83	118.25	6.15	-40.4	-41.7	20.5	0.00e+00	0	39	0	1073741824	52	6930
2026-01-02 12:17:54.84	118.37	6.10	-40.2	-41.5	20.6	0.00e+00	0	39	0	1075838976	52	6780
2026-01-02 12:17:55.85	118.49	6.05	-40.2	-41.5	20.6	0.00e+00	0	39	0	1076887552	52	6816
2026-01-02 12:17:56.85	118.62	6.01	-40.3	-41.6	20.4	0.00e+00	0	39	0	1078984704	52	6881
2026-01-02 12:17:57.86	118.74	5.96	-40.4	-41.8	20.2	0.00e+00	0	39	0	1081081856	52	7010
2026-01-02 12:17:58.88	118.86	5.91	-40.5	-41.8	20.2	0.00e+00	0	39	0	1083179008	52	7063
2026-01-02 12:17:59.88	118.99	5.86	-40.7	-42.0	20.0	0.00e+00	0	39	0	1085276160	52	7244
2026-01-02 12:18:00.89	119.11	5.82	-40.4	-41.7	20.2	0.00e+00	0	39	0	1086324736	52	6979
2026-01-02 12:18:01.90	119.23	5.77	-40.5	-41.8	20.2	0.00e+00	0	39	0	1088421888	52	7085
2026-01-02 12:18:02.91	119.35	5.72	-40.5	-41.9	20.2	0.00e+00	0	39	0	1090519040	52	7107
2026-01-02 12:18:03.92	119.47	5.67	-40.4	-41.7	20.3	0.00e+00	0	39	0	1092616192	52	6957
2026-01-02 12:18:04.93	119.59	5.63	-40.6	-41.9	20.1	0.00e+00	0	39	0	1094713344	52	7165
2026-01-02 12:18:05.94	119.71	5.58	-40.3	-41.7	20.3	0.00e+00	0	39	0	1095761920	52	6931
2026-01-02 12:18:06.95	119.83	5.53	-40.4	-41.8	20.1	0.00e+00	0	39	0	1097859072	52	7018
2026-01-02 12:18:07.96	119.95	5.48	-40.7	-42.2	19.8	0.00e+00	0	39	0	1099956224	54	6603
2026-01-02 12:18:08.97	120.07	5.44	-40.6	-42.1	19.9	0.00e+00	0	39	0	1102053376	54	6478
2026-01-02 12:18:09.98	120.19	5.39	-40.5	-41.9	20.0	0.00e+00	0	39	0	1104150528	54	6320
2026-01-02 12:18:10.99	120.31	5.34	-40.9	-42.3	19.7	0.00e+00	0	39	0	1105199104	54	6685
2026-01-02 12:18:12.00	120.42	5.29	-41.0	-42.4	19.6	0.00e+00	0	39	0	1107296256	54	6743
2026-01-02 12:18:13.01	120.54	5.25	-41.4	-43.0	19.0	0.00e+00	0	39	0	1109393408	54	7201
2026-01-02 12:18:14.02	120.66	5.20	-41.3	-42.8	19.2	0.00e+00	0	39	0	1111490560	54	7040
2026-01-02 12:18:15.03	120.78	5.15	-41.4	-42.9	19.1	0.00e+00	0	39	0	1113587712	54	7123
2026-01-02 12:18:16.04	120.89	5.10	-41.5	-43.0	19.0	0.00e+00	0	39	0	1114636288	54	7245
2026-01-02 12:18:17.05	121.01	5.06	-41.8	-43.4	18.6	0.00e+00	0	39	0	1116733440	54	7549
2026-01-02 12:18:18.06	121.12	5.01	-41.1	-42.6	19.5	0.00e+00	0	39	0	1118830592	56	6118
2026-01-02 12:18:19.07	121.24	4.96	-41.3	-42.8	19.3	0.00e+00	0	39	0	1120927744	56	6306
2026-01-02 12:18:20.08	121.35	4.91	-41.2	-42.6	19.3	0.00e+00	0	39	0	1123024896	56	6173
2026-01-02 12:18:21.09	121.47	4.87	-41.4	-43.0	19.0	0.00e+00	0	39	0	1124073472	56	6426
2026-01-02 12:18:22.10	121.58	4.82	-41.6	-43.2	18.9	0.00e+00	0	39	0	1126170624	56	6564
2026-01-02 12:18:23.11	121.70	4.77	-41.5	-43.1	19.0	0.00e+00	0	39	0	1128267776	56	6503
2026-01-02 12:18:24.12	121.81	4.72	-41.4	-42.9	19.2	0.00e+00	0	39	0	1130364928	56	6379
2026-01-02 12:18:25.12	121.92	4.68	-41.4	-43.0	19.0	0.00e+00	0	39	0	1132462080	56	6414
2026-01-02 12:18:26.13	122.04	4.63	-41.4	-43.0	19.1	0.00e+00	0	39	0	1134559232	56	6412
2026-01-02 12:18:27.14	122.15	4.58	-41.4	-43.0	18.9	0.00e+00	0	39	0	1135607808	56	6417
2026-01-02 12:18:28.15	122.26	4.53	-41.5	-43.1	19.0	0.00e+00	0	39	0	1137704960	56	6527
2026-01-02 12:18:29.16	122.37	4.48	-41.8	-43.5	18.5	0.00e+00	0	39	0	1139802112	56	6820
2026-01-02 12:18:30.17	122.48	4.44	-41.9	-43.6	18.4	0.00e+00	0	39	0	1141899264	56	6873
2026-01-02 12:18:31.18	122.59	4.39	-41.6	-43.2	18.7	0.00e+00	0	39	0	1143996416	56	6614
2026-01-02 12:18:32.19	122.71	4.34	-41.7	-43.5	18.5	0.00e+00	0	39	0	1145044992	56	6771
2026-01-02 12:18:33.20	122.82	4.29	-41.4	-43.0	19.0	0.00e+00	0	39	0	1147142144	56	6450
2026-01-02 12:18:34.21	122.93	4.25	-41.4	-43.0	18.8	0.00e+00	0	39	0	1149239296	56	6431
2026-01-02 12:18:35.22	123.04	4.20	-41.2	-42.8	19.1	0.00e+00	0	39	0	1151336448	56	6265
2026-01-02 12:18:36.23	123.15	4.15	-41.3	-42.9	19.0	0.00e+00	0	39	0	1153433600	56	6331
2026-01-02 12:18:37.24	123.25	4.10	-41.2	-42.8	19.1	0.00e+00	0	39	0	1154482176	56	6271
2026-01-02 12:18:38.25	123.36	4.06	-41.4	-43.1	18.8	0.00e+00	0	39	0	1156579328	56	6483
2026-01-02 12:18:39.26	123.47	4.01	-41.6	-43.3	18.5	0.00e+00	0	39	0	1158676480	56	6628
2026-01-02 12:18:40.27	123.58	3.96	-41.1	-42.6	19.1	0.00e+00	0	39	0	1160773632	56	6155
2026-01-02 12:18:41.28	123.69	3.91	-41.5	-43.2	18.6	0.00e+00	0	39	0	1162870784	56	6563
2026-01-02 12:18:42.28	123.79	3.87	-41.7	-43.4	18.5	0.00e+00	0	39	0	1163919360	56	6753
2026-01-02 12:18:43.29	123.90	3.82	-41.8	-43.6	18.3	0.00e+00	0	39	0	1166016512	56	6865
2026-01-02 12:18:44.30	124.01	3.77	-41.9	-43.7	18.1	0.00e+00	0	39	0	1168113664	56	7004
2026-01-02 12:18:45.31	124.11	3.72	-42.2	-44.3	17.6	0.00e+00	0	39	0	1170210816	56	7425
2026-01-02 12:18:46.32	124.22	3.67	-42.7	-45.0	17.0	0.00e+00	0	39	0	1172307968	58	7181
2026-01-02 12:18:47.33	124.33	3.63	-42.9	-45.1	16.7	0.00e+00	0	39	0	1173356544	58	7330
2026-01-02 12:18:48.34	124.43	3.58	-43.1	-45.5	16.3	0.00e+00	0	39	0	1175453696	58	7651
2026-01-02 12:18:49.35	124.54	3.53	-43.3	-45.8	16.0	0.00e+00	0	39	0	1177550848	58	7877
2026-01-02 12:18:50.36	124.64	3.48	-43.2	-45.6	16.2	0.00e+00	0	39	0	1179648000	58	7735
2026-01-02 12:18:51.37	124.74	3.44	-43.4	-45.8	15.8	0.00e+00	0	39	0	1181745152	58	7953
2026-01-02 12:18:52.38	124.85	3.39	-42.8	-45.0	16.7	0.00e+00	0	39	0	1182793728	58	7231
2026-01-02 12:18:53.39	124.95	3.34	-42.6	-44.7	16.7	0.00e+00	0	39	0	1184890880	58	6995
2026-01-02 12:18:54.40	125.06	3.29	-42.9	-45.1	16.5	0.00e+00	0	39	0	1186988032	58	7271
2026-01-02 12:18:55.41	125.16	3.25	-42.9	-45.1	16.4	0.00e+00	0	39	0	1189085184	58	7292
2026-01-02 12:18:56.42	125.26	3.20	-42.6	-44.7	16.6	0.00e+00	0	39	0	1191182336	58	6950
2026-01-02 12:18:57.43	125.36	3.15	-43.2	-45.6	16.2	0.00e+00	0	39	0	1192230912	58	7715
2026-01-02 12:18:58.44	125.47	3.10	-42.5	-44.6	16.8	0.00e+00	0	39	0	1194328064	58	6897
2026-01-02 12:18:59.45	125.57	3.06	-42.6	-44.7	17.0	0.00e+00	0	39	0	1196425216	58	6969
2026-01-02 12:19:00.46	125.67	3.01	-47.7	-62.2	3.6	0.00e+00	0	39	104	1198522368	60	46751
2026-01-02 12:19:01.46	125.77	2.96	-48.5	-63.7	3.6	1.51e+00	0	39	104	1198522368	60	55441
2026-01-02 12:19:02.47	125.87	2.91	-48.7	-63.9	3.6	1.51e+00	0	39	104	1198522368	60	56943
2026-01-02 12:19:03.48	125.97	2.87	-49.0	-64.1	3.6	1.51e+00	0	39	104	1198522368	60	58245
2026-01-02 12:19:04.49	126.07	2.82	-49.1	-64.4	3.6	1.51e+00	0	39	104	1198522368	60	59850
2026-01-02 12:19:05.50	126.17	2.77	-49.3	-64.5	3.6	1.51e+00	0	39	104	1198522368	60	60598
2026-01-02 12:19:06.51	126.27	2.72	-49.3	-64.6	3.6	1.51e+00	0	39	104	1198522368	60	61148
