passes_logs/2026/01/02/R4.6S_Anadyr/R4.6S_Anadyr__20260102_024335_FENGYUN_3D_rec.log

#Pass ID: 20260102_024335_FENGYUN 3D
#Satellite: FENGYUN 3D
#Configuration: FENGYUN 3D
#almurnet v.1.7.20251203
#Start time: 2026-01-02 02:43:38

#Version: 2.2.20231116
#Station: R4.6S_Anadyr
#Location: 177.4865 lon 64.73178 lat
#TLE: 1 43010U 17072A   26001.61291428  .00000334  00000+0  17967-3 0  9999
#TLE: 2 43010  98.9910 333.2233 0001869 133.3004 226.8328 14.19691253421350

#Time	Az	El	Level	Level2	SNR	BER	BlckErr	Temp	State	Recorded	gain1	gain2
2026-01-02 02:43:38.18	168.50	0.14	-49.3	-67.1	3.5	3.02e+01	0	36	0	0	60	87176
2026-01-02 02:43:39.19	168.52	0.20	-49.1	-61.2	3.6	8.45e-01	0	37	104	0	60	41371
2026-01-02 02:43:40.20	168.53	0.26	-49.1	-61.2	3.6	8.45e-01	0	37	104	0	60	41616
2026-01-02 02:43:41.21	168.55	0.32	-49.1	-61.2	3.6	8.45e-01	0	37	104	0	60	41530
2026-01-02 02:43:42.22	168.57	0.38	-49.2	-61.3	3.6	8.45e-01	0	37	104	0	60	42032
2026-01-02 02:43:43.23	168.59	0.44	-49.1	-61.2	3.6	8.46e-01	0	37	104	0	60	41415
2026-01-02 02:43:44.24	168.61	0.51	-49.0	-61.1	3.6	8.45e-01	0	37	104	0	60	41143
2026-01-02 02:43:45.25	168.63	0.57	-49.1	-61.2	3.6	8.45e-01	0	37	104	0	60	41369
2026-01-02 02:43:46.26	168.65	0.63	-49.1	-61.2	3.6	8.45e-01	0	37	104	0	60	41575
2026-01-02 02:43:47.27	168.67	0.69	-49.0	-61.2	3.6	8.44e-01	0	37	104	0	60	41345
2026-01-02 02:43:48.28	168.69	0.75	-49.0	-61.1	3.6	8.45e-01	0	37	104	0	60	41084
2026-01-02 02:43:49.29	168.71	0.81	-49.0	-61.1	3.6	8.44e-01	0	37	104	0	60	41042
2026-01-02 02:43:50.29	168.73	0.87	-48.7	-61.1	3.6	8.45e-01	0	37	104	0	60	40822
2026-01-02 02:43:51.30	168.75	0.94	-48.8	-60.9	3.6	8.46e-01	0	37	104	0	60	40189
2026-01-02 02:43:52.31	168.77	1.00	-48.8	-60.8	3.6	8.46e-01	0	37	104	0	60	39781
2026-01-02 02:43:53.33	168.79	1.06	-47.1	-60.4	3.6	8.46e-01	0	37	104	0	60	37966
2026-01-02 02:43:54.33	168.80	1.12	-48.5	-60.6	3.6	8.46e-01	0	37	104	0	60	38875
2026-01-02 02:43:55.34	168.82	1.18	-48.3	-60.4	3.6	8.45e-01	0	38	104	0	60	37831
2026-01-02 02:43:56.35	168.84	1.25	-48.1	-60.2	3.6	8.46e-01	0	37	104	0	60	36802
2026-01-02 02:43:57.36	168.86	1.31	-47.7	-59.7	3.6	8.45e-01	0	38	104	0	60	34871
2026-01-02 02:43:58.37	168.88	1.37	-47.6	-59.7	3.6	8.45e-01	0	38	104	0	60	34873
2026-01-02 02:43:59.38	168.90	1.43	-47.6	-59.7	3.6	8.43e-01	0	38	104	0	60	34796
2026-01-02 02:44:00.39	168.93	1.50	-47.6	-59.6	3.6	8.45e-01	0	38	104	0	60	34597
2026-01-02 02:44:01.40	168.95	1.56	-47.6	-59.5	3.6	8.45e-01	0	38	104	0	60	34047
2026-01-02 02:44:02.41	168.97	1.62	-47.6	-59.4	3.6	8.44e-01	0	38	104	0	60	33843
2026-01-02 02:44:03.43	168.99	1.69	-47.6	-59.1	3.6	8.46e-01	0	38	104	0	60	32610
2026-01-02 02:44:04.44	169.01	1.75	-47.6	-59.0	3.6	8.44e-01	0	38	104	0	60	32158
2026-01-02 02:44:05.44	169.03	1.82	-47.6	-59.1	3.6	8.44e-01	0	38	104	0	60	32545
2026-01-02 02:44:06.45	169.05	1.88	-47.6	-59.1	3.6	8.45e-01	0	38	104	0	60	32512
2026-01-02 02:44:07.46	169.07	1.94	-47.6	-59.3	3.6	8.45e-01	0	38	104	0	60	33231
2026-01-02 02:44:08.47	169.09	2.01	-47.6	-59.4	3.6	8.45e-01	0	38	104	0	60	33915
2026-01-02 02:44:09.48	169.11	2.07	-47.6	-59.7	3.6	8.45e-01	0	38	104	0	60	34735
2026-01-02 02:44:10.49	169.13	2.14	-47.6	-59.7	3.6	8.45e-01	0	38	104	0	60	34797
2026-01-02 02:44:11.50	169.15	2.20	-47.6	-59.6	3.6	8.44e-01	0	38	104	0	60	34609
2026-01-02 02:44:12.51	169.17	2.27	-47.6	-59.5	3.6	8.45e-01	0	38	104	0	60	34287
2026-01-02 02:44:13.52	169.19	2.33	-47.6	-59.5	3.6	8.45e-01	0	38	104	0	60	34116
2026-01-02 02:44:14.53	169.22	2.40	-47.6	-59.5	3.6	8.46e-01	0	38	104	0	60	33993
2026-01-02 02:44:15.54	169.24	2.46	-47.6	-59.5	3.6	8.45e-01	0	38	104	0	60	33963
2026-01-02 02:44:16.55	169.26	2.53	-47.6	-59.2	3.6	8.44e-01	0	38	104	0	60	32990
2026-01-02 02:44:17.56	169.28	2.59	-47.5	-58.9	3.6	8.45e-01	0	38	104	0	60	31727
2026-01-02 02:44:18.57	169.30	2.66	-47.5	-58.1	3.6	8.44e-01	0	38	104	0	60	28931
2026-01-02 02:44:19.58	169.32	2.72	-47.4	-57.8	3.6	8.44e-01	0	38	104	0	60	28021
2026-01-02 02:44:20.59	169.35	2.79	-47.4	-57.3	3.6	8.44e-01	0	38	104	0	60	26462
2026-01-02 02:44:21.60	169.37	2.85	-47.4	-57.8	3.6	8.44e-01	0	38	104	0	60	28035
2026-01-02 02:44:22.61	169.39	2.92	-47.4	-58.1	3.6	8.44e-01	0	38	104	0	60	29054
2026-01-02 02:44:23.62	169.41	2.99	-47.4	-57.7	3.6	8.45e-01	0	38	104	0	60	27647
2026-01-02 02:44:24.63	169.43	3.05	-47.0	-53.6	4.6	8.23e-01	0	38	0	0	60	17362
2026-01-02 02:44:25.64	169.46	3.12	-46.1	-50.4	7.6	2.12e-01	0	38	0	2097152	60	12013
2026-01-02 02:44:26.65	169.48	3.19	-44.5	-47.4	11.2	1.06e-02	0	38	0	7340032	60	8470
2026-01-02 02:44:27.66	169.50	3.25	-43.1	-45.1	13.8	5.03e-05	0	38	0	13631488	60	6509
2026-01-02 02:44:28.67	169.52	3.32	-41.9	-43.6	15.4	0.00e+00	0	38	0	18874368	58	6163
2026-01-02 02:44:29.68	169.55	3.39	-40.1	-41.3	17.3	0.00e+00	0	38	0	25165824	54	5959
2026-01-02 02:44:30.69	169.57	3.46	-38.9	-40.0	18.9	0.00e+00	0	38	0	30408704	52	5708
2026-01-02 02:44:31.70	169.59	3.52	-38.1	-39.1	19.6	0.00e+00	0	38	0	36700160	50	5806
2026-01-02 02:44:32.71	169.61	3.59	-37.5	-38.5	20.1	0.00e+00	0	38	0	41943040	48	6052
2026-01-02 02:44:33.72	169.64	3.66	-37.3	-38.2	20.4	0.00e+00	0	38	0	47185920	48	5865
2026-01-02 02:44:34.73	169.66	3.73	-37.1	-38.0	20.6	0.00e+00	0	38	0	53477376	48	5708
2026-01-02 02:44:35.74	169.68	3.80	-37.7	-38.7	20.0	0.00e+00	0	38	0	58720256	48	6197
2026-01-02 02:44:36.75	169.71	3.86	-42.6	-44.6	11.8	0.00e+00	0	38	0	65011712	52	9734
2026-01-02 02:44:37.76	169.73	3.93	-39.5	-40.5	18.6	7.79e-01	0	38	104	65011712	60	3837
2026-01-02 02:44:38.77	169.75	4.00	-37.4	-38.4	19.6	0.00e+00	0	38	0	68157440	46	6713
2026-01-02 02:44:39.78	169.78	4.07	-42.7	-44.5	15.5	2.19e-01	0	38	0	74448896	60	6073
2026-01-02 02:44:40.79	169.80	4.14	-37.1	-38.0	19.4	0.00e+00	0	38	0	79691776	48	5740
2026-01-02 02:44:41.80	169.82	4.21	-42.8	-44.4	17.0	4.75e-01	0	38	0	83886080	60	6002
2026-01-02 02:44:42.81	169.85	4.28	-37.1	-38.0	20.7	0.00e+00	0	38	0	89128960	48	5724
2026-01-02 02:44:43.82	169.87	4.35	-36.6	-37.4	21.3	0.00e+00	0	38	0	95420416	46	6014
2026-01-02 02:44:44.83	169.89	4.42	-36.5	-37.3	21.4	0.00e+00	0	38	0	100663296	46	5932
2026-01-02 02:44:45.84	169.92	4.49	-36.0	-36.8	22.0	0.00e+00	0	38	0	105906176	46	5572
2026-01-02 02:44:46.84	169.94	4.56	-35.9	-36.6	22.0	0.00e+00	0	38	0	112197632	46	5495
2026-01-02 02:44:47.85	169.97	4.63	-35.9	-36.7	22.0	0.00e+00	0	38	0	117440512	44	6205
2026-01-02 02:44:48.86	169.99	4.70	-35.8	-36.6	22.1	0.00e+00	0	38	0	123731968	44	6165
2026-01-02 02:44:49.87	170.02	4.77	-35.5	-36.3	22.5	0.00e+00	0	38	0	128974848	44	5912
2026-01-02 02:44:50.88	170.04	4.84	-35.8	-36.6	22.2	0.00e+00	0	38	0	135266304	44	6135
2026-01-02 02:44:51.89	170.06	4.91	-35.4	-36.2	22.5	0.00e+00	0	38	0	140509184	44	5882
2026-01-02 02:44:52.90	170.09	4.98	-35.6	-36.4	22.4	0.00e+00	0	38	0	146800640	44	5980
2026-01-02 02:44:53.91	170.11	5.06	-35.5	-36.3	22.5	0.00e+00	0	38	0	152043520	44	5899
2026-01-02 02:44:54.92	170.14	5.13	-35.4	-36.1	22.6	0.00e+00	0	38	0	157286400	44	5806
2026-01-02 02:44:55.93	170.16	5.20	-35.4	-36.1	22.6	0.00e+00	0	38	0	163577856	44	5827
2026-01-02 02:44:56.94	170.19	5.27	-35.6	-36.3	22.4	0.00e+00	0	38	0	168820736	44	5962
2026-01-02 02:44:57.95	170.22	5.34	-35.3	-36.1	22.7	0.00e+00	0	38	0	174063616	44	5773
2026-01-02 02:44:58.95	170.24	5.41	-35.5	-36.2	22.5	0.00e+00	0	38	0	180355072	44	5885
2026-01-02 02:44:59.96	170.27	5.49	-35.4	-36.2	22.6	0.00e+00	0	38	0	185597952	44	5832
2026-01-02 02:45:00.97	170.29	5.56	-35.3	-36.1	22.7	0.00e+00	0	38	0	191889408	44	5797
2026-01-02 02:45:01.99	170.32	5.63	-35.4	-36.1	22.5	0.00e+00	0	38	0	197132288	44	5796
2026-01-02 02:45:03.00	170.34	5.71	-35.4	-36.1	22.8	0.00e+00	0	38	0	202375168	44	5820
2026-01-02 02:45:04.01	170.37	5.78	-35.5	-36.3	22.7	0.00e+00	0	38	0	208666624	44	5917
2026-01-02 02:45:05.02	170.40	5.85	-35.6	-36.4	22.6	0.00e+00	0	38	0	213909504	44	6008
2026-01-02 02:45:06.03	170.42	5.93	-35.5	-36.3	22.4	0.00e+00	0	38	0	220200960	44	5940
2026-01-02 02:45:07.04	170.45	6.00	-35.7	-36.5	22.5	0.00e+00	0	38	0	225443840	44	6057
2026-01-02 02:45:08.05	170.47	6.08	-35.4	-36.1	22.6	0.00e+00	0	38	0	231735296	44	5827
2026-01-02 02:45:09.05	170.50	6.15	-35.4	-36.1	22.8	0.00e+00	0	38	0	236978176	44	5801
2026-01-02 02:45:10.06	170.53	6.23	-35.3	-36.1	22.9	0.00e+00	0	38	0	243269632	44	5773
2026-01-02 02:45:11.07	170.55	6.30	-35.0	-35.8	23.1	0.00e+00	0	38	0	248512512	44	5580
2026-01-02 02:45:12.08	170.58	6.38	-35.2	-36.0	22.9	0.00e+00	0	38	0	253755392	44	5700
2026-01-02 02:45:13.09	170.61	6.45	-35.1	-35.8	23.0	0.00e+00	0	38	0	260046848	44	5627
2026-01-02 02:45:14.10	170.64	6.53	-35.0	-35.8	23.1	0.00e+00	0	38	0	265289728	44	5577
2026-01-02 02:45:15.11	170.66	6.60	-35.1	-35.8	23.1	0.00e+00	0	38	0	271581184	44	5614
2026-01-02 02:45:16.12	170.69	6.68	-35.1	-35.8	23.1	0.00e+00	0	38	0	276824064	44	5600
2026-01-02 02:45:17.13	170.72	6.75	-35.0	-35.7	23.3	0.00e+00	0	38	0	282066944	44	5544
2026-01-02 02:45:18.14	170.75	6.83	-35.1	-35.9	23.1	0.00e+00	0	38	0	288358400	44	5631
2026-01-02 02:45:19.15	170.77	6.91	-34.9	-35.6	23.3	0.00e+00	0	38	0	293601280	44	5480
2026-01-02 02:45:20.16	170.80	6.99	-35.0	-35.8	23.2	0.00e+00	0	38	0	299892736	44	5577
2026-01-02 02:45:21.17	170.83	7.06	-34.9	-35.6	23.3	0.00e+00	0	38	0	305135616	44	5496
2026-01-02 02:45:22.18	170.86	7.14	-34.9	-35.6	23.2	0.00e+00	0	38	0	310378496	44	5473
2026-01-02 02:45:23.19	170.89	7.22	-34.9	-35.6	23.2	0.00e+00	0	38	0	316669952	44	5496
2026-01-02 02:45:24.20	170.91	7.30	-35.0	-35.7	23.2	0.00e+00	0	38	0	321912832	44	5548
2026-01-02 02:45:25.21	170.94	7.37	-34.9	-35.6	23.3	0.00e+00	0	38	0	328204288	44	5475
2026-01-02 02:45:26.22	170.97	7.45	-34.9	-35.7	23.3	0.00e+00	0	38	0	333447168	44	5507
2026-01-02 02:45:27.23	171.00	7.53	-34.8	-35.5	23.5	0.00e+00	0	38	0	339738624	42	6076
2026-01-02 02:45:28.23	171.03	7.61	-34.8	-35.5	23.4	0.00e+00	0	38	0	344981504	42	6062
2026-01-02 02:45:29.24	171.06	7.69	-34.7	-35.4	23.6	0.00e+00	0	38	0	350224384	42	6004
2026-01-02 02:45:30.25	171.09	7.77	-34.6	-35.3	23.7	0.00e+00	0	38	0	356515840	42	5928
2026-01-02 02:45:31.26	171.12	7.85	-34.7	-35.3	23.7	0.00e+00	0	38	0	361758720	42	5961
2026-01-02 02:45:32.27	171.15	7.93	-34.5	-35.2	23.7	0.00e+00	0	38	0	368050176	42	5889
2026-01-02 02:45:33.28	171.18	8.01	-34.6	-35.4	23.6	0.00e+00	0	38	0	373293056	42	5977
2026-01-02 02:45:34.29	171.21	8.09	-34.6	-35.4	23.7	0.00e+00	0	38	0	378535936	42	5965
2026-01-02 02:45:35.30	171.24	8.17	-34.5	-35.2	23.9	0.00e+00	0	38	0	384827392	42	5887
2026-01-02 02:45:36.31	171.27	8.25	-34.5	-35.2	23.8	0.00e+00	0	38	0	390070272	42	5860
2026-01-02 02:45:37.32	171.30	8.33	-34.5	-35.2	23.8	0.00e+00	0	38	0	396361728	42	5850
2026-01-02 02:45:38.33	171.33	8.41	-34.5	-35.2	23.9	0.00e+00	0	38	0	401604608	42	5858
2026-01-02 02:45:39.34	171.36	8.49	-34.7	-35.4	23.6	0.00e+00	0	38	0	406847488	42	6022
2026-01-02 02:45:40.35	171.39	8.57	-34.5	-35.2	23.9	0.00e+00	0	38	0	413138944	42	5843
2026-01-02 02:45:41.36	171.42	8.65	-34.5	-35.2	23.8	0.00e+00	0	38	0	418381824	42	5885
2026-01-02 02:45:42.37	171.45	8.74	-34.3	-35.0	24.0	0.00e+00	0	38	0	424673280	42	5744
2026-01-02 02:45:43.38	171.48	8.82	-34.3	-35.0	24.1	0.00e+00	0	38	0	429916160	42	5712
2026-01-02 02:45:44.39	171.51	8.90	-34.3	-35.0	24.0	0.00e+00	0	38	0	436207616	42	5728
2026-01-02 02:45:45.40	171.54	8.99	-34.3	-35.0	24.1	0.00e+00	0	38	0	441450496	42	5724
2026-01-02 02:45:46.41	171.58	9.07	-34.5	-35.2	23.9	0.00e+00	0	38	0	447741952	42	5875
2026-01-02 02:45:47.42	171.61	9.15	-34.2	-34.9	24.2	0.00e+00	0	38	0	452984832	42	5643
2026-01-02 02:45:48.42	171.64	9.24	-34.3	-35.0	24.1	0.00e+00	0	38	0	458227712	42	5720
2026-01-02 02:45:49.43	171.67	9.32	-34.2	-35.0	24.1	0.00e+00	0	38	0	464519168	42	5702
2026-01-02 02:45:50.45	171.70	9.41	-34.1	-34.8	24.2	0.00e+00	0	38	0	469762048	42	5628
2026-01-02 02:45:51.46	171.74	9.49	-34.3	-35.0	24.2	0.00e+00	0	38	0	476053504	42	5717
2026-01-02 02:45:52.47	171.77	9.58	-34.0	-34.7	24.2	0.00e+00	0	38	0	481296384	42	5521
2026-01-02 02:45:53.47	171.80	9.66	-34.1	-34.9	24.2	0.00e+00	0	38	0	486539264	42	5633
2026-01-02 02:45:54.48	171.84	9.75	-34.1	-34.8	24.3	0.00e+00	0	38	0	492830720	42	5581
2026-01-02 02:45:55.49	171.87	9.83	-34.2	-34.9	24.3	0.00e+00	0	38	0	498073600	42	5637
2026-01-02 02:45:56.50	171.90	9.92	-33.9	-34.6	24.4	0.00e+00	0	38	0	504365056	42	5475
2026-01-02 02:45:57.51	171.94	10.00	-34.0	-34.7	24.3	0.00e+00	0	38	0	509607936	42	5552
2026-01-02 02:45:58.52	171.97	10.09	-34.0	-34.7	24.4	0.00e+00	0	38	0	514850816	42	5543
2026-01-02 02:45:59.53	172.00	10.18	-34.0	-34.7	24.4	0.00e+00	0	38	0	521142272	42	5509
2026-01-02 02:46:00.54	172.04	10.27	-34.0	-34.7	24.5	0.00e+00	0	38	0	526385152	42	5519
2026-01-02 02:46:01.55	172.07	10.35	-34.1	-34.8	24.3	0.00e+00	0	38	0	532676608	42	5621
2026-01-02 02:46:02.56	172.11	10.44	-34.0	-34.7	24.4	0.00e+00	0	38	0	537919488	42	5533
2026-01-02 02:46:03.57	172.14	10.53	-34.0	-34.7	24.4	0.00e+00	0	38	0	544210944	42	5521
2026-01-02 02:46:04.58	172.18	10.62	-33.8	-34.5	24.5	0.00e+00	0	38	0	549453824	42	5430
2026-01-02 02:46:05.59	172.21	10.71	-33.9	-34.6	24.5	0.00e+00	0	38	0	554696704	42	5459
2026-01-02 02:46:06.59	172.25	10.80	-33.9	-34.6	24.6	0.00e+00	0	38	0	560988160	42	5453
2026-01-02 02:46:07.61	172.28	10.89	-33.8	-34.5	24.5	0.00e+00	0	38	0	566231040	42	5397
2026-01-02 02:46:08.61	172.32	10.97	-34.0	-34.7	24.5	0.00e+00	0	38	0	572522496	42	5508
2026-01-02 02:46:09.62	172.35	11.06	-33.8	-34.5	24.6	0.00e+00	0	38	0	577765376	42	5426
2026-01-02 02:46:10.63	172.39	11.16	-33.9	-34.6	24.5	0.00e+00	0	38	0	583008256	42	5462
2026-01-02 02:46:11.64	172.42	11.25	-33.9	-34.5	24.6	0.00e+00	0	38	0	589299712	42	5433
2026-01-02 02:46:12.65	172.46	11.34	-34.0	-34.6	24.5	0.00e+00	0	38	0	594542592	42	5491
2026-01-02 02:46:13.66	172.50	11.43	-33.8	-34.4	24.7	0.00e+00	0	38	0	600834048	42	5377
2026-01-02 02:46:14.67	172.53	11.52	-33.9	-34.6	24.6	0.00e+00	0	38	0	606076928	40	6109
2026-01-02 02:46:15.68	172.57	11.61	-33.7	-34.4	24.7	0.00e+00	0	38	0	611319808	40	6011
2026-01-02 02:46:16.69	172.61	11.71	-33.9	-34.6	24.5	0.00e+00	0	38	0	617611264	40	6114
2026-01-02 02:46:17.70	172.65	11.80	-33.9	-34.6	24.6	0.00e+00	0	38	0	622854144	40	6111
2026-01-02 02:46:18.71	172.68	11.89	-33.9	-34.6	24.6	0.00e+00	0	38	0	629145600	40	6118
2026-01-02 02:46:19.72	172.72	11.99	-33.8	-34.5	24.6	0.00e+00	0	38	0	634388480	40	6082
2026-01-02 02:46:20.73	172.76	12.08	-33.8	-34.5	24.6	0.00e+00	0	38	0	640679936	40	6074
2026-01-02 02:46:21.74	172.80	12.17	-33.7	-34.4	24.8	0.00e+00	0	38	0	645922816	40	5995
2026-01-02 02:46:22.75	172.84	12.27	-33.9	-34.6	24.5	0.00e+00	0	38	0	652214272	40	6132
2026-01-02 02:46:23.76	172.88	12.36	-33.6	-34.3	24.9	0.00e+00	0	38	0	657457152	40	5940
2026-01-02 02:46:24.77	172.91	12.46	-33.5	-34.2	24.7	0.00e+00	0	38	0	662700032	40	5868
2026-01-02 02:46:25.78	172.95	12.55	-33.5	-34.2	25.0	0.00e+00	0	38	0	668991488	40	5868
2026-01-02 02:46:26.79	172.99	12.65	-33.5	-34.2	25.0	0.00e+00	0	38	0	674234368	40	5843
2026-01-02 02:46:27.80	173.03	12.75	-33.5	-34.1	25.0	0.00e+00	0	38	0	680525824	40	5819
2026-01-02 02:46:28.81	173.07	12.84	-33.5	-34.2	25.1	0.00e+00	0	38	0	685768704	40	5832
2026-01-02 02:46:29.81	173.11	12.94	-33.4	-34.1	25.0	0.00e+00	0	38	0	691011584	40	5811
2026-01-02 02:46:30.82	173.15	13.04	-33.4	-34.1	24.9	0.00e+00	0	38	0	697303040	40	5804
2026-01-02 02:46:31.83	173.19	13.14	-33.4	-34.1	25.0	0.00e+00	0	38	0	702545920	40	5774
2026-01-02 02:46:32.84	173.24	13.23	-33.4	-34.1	25.1	0.00e+00	0	38	0	707788800	40	5799
2026-01-02 02:46:33.85	173.28	13.33	-33.6	-34.2	25.0	0.00e+00	0	38	0	714080256	40	5880
2026-01-02 02:46:34.86	173.32	13.43	-33.3	-34.0	25.2	0.00e+00	0	38	0	719323136	40	5698
2026-01-02 02:46:35.87	173.36	13.53	-33.2	-33.9	25.2	0.00e+00	0	38	0	725614592	40	5648
2026-01-02 02:46:36.88	173.40	13.63	-33.4	-34.1	25.1	0.00e+00	0	38	0	730857472	40	5777
2026-01-02 02:46:37.89	173.44	13.73	-33.1	-33.8	25.2	0.00e+00	0	38	0	737148928	40	5604
2026-01-02 02:46:38.91	173.49	13.83	-33.1	-33.8	25.3	0.00e+00	0	38	0	742391808	40	5619
2026-01-02 02:46:39.92	173.53	13.93	-33.1	-33.8	25.4	0.00e+00	0	38	0	748683264	40	5587
2026-01-02 02:46:40.93	173.57	14.04	-33.2	-33.9	25.3	0.00e+00	0	38	0	753926144	40	5638
2026-01-02 02:46:41.94	173.62	14.14	-33.0	-33.6	25.4	0.00e+00	0	38	0	759169024	40	5499
2026-01-02 02:46:42.95	173.66	14.24	-33.0	-33.6	25.5	0.00e+00	0	38	0	765460480	40	5491
2026-01-02 02:46:43.96	173.70	14.34	-33.0	-33.6	25.5	0.00e+00	0	38	0	770703360	40	5498
2026-01-02 02:46:44.97	173.75	14.45	-32.9	-33.6	25.6	0.00e+00	0	38	0	776994816	40	5485
2026-01-02 02:46:45.97	173.79	14.55	-33.0	-33.7	25.4	0.00e+00	0	38	0	782237696	40	5511
2026-01-02 02:46:46.99	173.84	14.65	-33.0	-33.7	25.4	0.00e+00	0	38	0	787480576	40	5529
2026-01-02 02:46:48.00	173.88	14.76	-33.0	-33.7	25.5	0.00e+00	0	38	0	793772032	40	5547
2026-01-02 02:46:49.01	173.93	14.86	-33.1	-33.7	25.5	0.00e+00	0	38	0	799014912	40	5560
2026-01-02 02:46:50.02	173.97	14.97	-32.7	-33.4	25.8	0.00e+00	0	38	0	805306368	38	5977
2026-01-02 02:46:51.03	174.02	15.07	-32.6	-33.2	25.9	0.00e+00	0	38	0	810549248	38	5890
2026-01-02 02:46:52.03	174.06	15.18	-32.6	-33.2	25.8	0.00e+00	0	38	0	815792128	38	5896
2026-01-02 02:46:53.04	174.11	15.29	-32.5	-33.1	26.0	0.00e+00	0	38	0	822083584	38	5814
2026-01-02 02:46:54.05	174.16	15.39	-32.5	-33.2	25.9	0.00e+00	0	38	0	827326464	38	5846
2026-01-02 02:46:55.06	174.20	15.50	-32.4	-33.1	26.1	0.00e+00	0	38	0	833617920	38	5783
2026-01-02 02:46:56.07	174.25	15.61	-32.4	-33.0	26.1	0.00e+00	0	38	0	838860800	38	5748
2026-01-02 02:46:57.08	174.30	15.72	-32.3	-32.9	26.2	0.00e+00	0	38	0	845152256	38	5695
2026-01-02 02:46:58.09	174.35	15.83	-32.1	-32.7	26.3	0.00e+00	0	38	0	850395136	38	5566
2026-01-02 02:46:59.10	174.40	15.94	-32.1	-32.7	26.4	0.00e+00	0	38	0	855638016	38	5530
2026-01-02 02:47:00.11	174.44	16.05	-32.1	-32.8	26.3	0.00e+00	0	38	0	861929472	38	5584
2026-01-02 02:47:01.12	174.49	16.16	-32.0	-32.7	26.4	0.00e+00	0	38	0	867172352	38	5506
2026-01-02 02:47:02.12	174.54	16.27	-31.9	-32.6	26.5	0.00e+00	0	38	0	873463808	38	5461
2026-01-02 02:47:03.13	174.59	16.38	-32.1	-32.7	26.3	0.00e+00	0	38	0	878706688	38	5520
2026-01-02 02:47:04.14	174.64	16.49	-32.0	-32.6	26.5	0.00e+00	0	38	0	883949568	38	5477
2026-01-02 02:47:05.15	174.69	16.60	-32.0	-32.7	26.4	0.00e+00	0	38	0	890241024	38	5526
2026-01-02 02:47:06.16	174.74	16.72	-32.2	-32.8	26.4	0.00e+00	0	38	0	895483904	38	5590
2026-01-02 02:47:07.17	174.79	16.83	-31.8	-32.5	26.6	0.00e+00	0	38	0	901775360	38	5385
2026-01-02 02:47:08.18	174.85	16.94	-31.8	-32.4	26.7	0.00e+00	0	38	0	907018240	38	5376
2026-01-02 02:47:09.19	174.90	17.06	-31.8	-32.4	26.7	0.00e+00	0	38	0	912261120	36	5996
2026-01-02 02:47:10.20	174.95	17.17	-32.0	-32.6	26.6	0.00e+00	0	38	0	918552576	36	6140
2026-01-02 02:47:11.21	175.00	17.29	-31.7	-32.4	26.8	0.00e+00	0	38	0	923795456	36	5985
2026-01-02 02:47:12.22	175.05	17.40	-31.9	-32.5	26.7	0.00e+00	0	38	0	930086912	36	6067
2026-01-02 02:47:13.23	175.11	17.52	-31.8	-32.4	26.7	0.00e+00	0	38	0	935329792	36	6010
2026-01-02 02:47:14.24	175.16	17.64	-31.8	-32.5	26.6	0.00e+00	0	38	0	941621248	36	6048
2026-01-02 02:47:15.25	175.22	17.76	-31.7	-32.4	26.6	0.00e+00	0	38	0	946864128	36	5968
2026-01-02 02:47:16.26	175.27	17.87	-31.8	-32.4	26.7	0.00e+00	0	38	0	953155584	36	6016
2026-01-02 02:47:17.27	175.33	17.99	-32.0	-32.6	26.5	0.00e+00	0	38	0	958398464	36	6128
2026-01-02 02:47:18.28	175.38	18.11	-32.2	-32.8	26.5	0.00e+00	0	38	0	963641344	36	6283
2026-01-02 02:47:19.29	175.44	18.23	-32.0	-32.7	26.5	0.00e+00	0	38	0	969932800	36	6189
2026-01-02 02:47:20.30	175.49	18.35	-31.6	-32.3	26.8	0.00e+00	0	38	0	975175680	36	5903
2026-01-02 02:47:21.31	175.55	18.47	-31.7	-32.3	26.7	0.00e+00	0	38	0	981467136	36	5923
2026-01-02 02:47:22.32	175.61	18.59	-31.6	-32.3	26.8	0.00e+00	0	38	0	986710016	36	5903
2026-01-02 02:47:23.33	175.66	18.72	-31.8	-32.4	26.7	0.00e+00	0	38	0	991952896	36	6003
2026-01-02 02:47:24.34	175.72	18.84	-31.8	-32.4	26.7	0.00e+00	0	38	0	998244352	36	6020
2026-01-02 02:47:25.35	175.78	18.96	-31.7	-32.3	26.8	0.00e+00	0	38	0	1003487232	36	5934
2026-01-02 02:47:26.36	175.84	19.09	-31.7	-32.4	26.7	0.00e+00	0	38	0	1009778688	36	5980
2026-01-02 02:47:27.37	175.90	19.21	-31.6	-32.2	26.8	0.00e+00	0	38	0	1015021568	36	5851
2026-01-02 02:47:28.37	175.96	19.33	-31.6	-32.3	26.8	0.00e+00	0	38	0	1020264448	36	5921
2026-01-02 02:47:29.38	176.02	19.46	-31.5	-32.1	26.9	0.00e+00	0	38	0	1026555904	36	5827
2026-01-02 02:47:30.39	176.08	19.59	-31.6	-32.2	26.8	0.00e+00	0	38	0	1031798784	36	5885
2026-01-02 02:47:31.40	176.14	19.71	-31.6	-32.2	26.9	0.00e+00	0	38	0	1038090240	36	5858
2026-01-02 02:47:32.41	176.20	19.84	-31.4	-32.0	27.1	0.00e+00	0	38	0	1043333120	36	5755
2026-01-02 02:47:33.42	176.26	19.97	-31.4	-32.0	27.1	0.00e+00	0	38	0	1049624576	36	5751
2026-01-02 02:47:34.43	176.32	20.10	-31.4	-32.1	27.0	0.00e+00	0	38	0	1054867456	36	5773
2026-01-02 02:47:35.44	176.39	20.23	-31.4	-32.1	27.0	0.00e+00	0	38	0	1060110336	36	5787
2026-01-02 02:47:36.45	176.45	20.36	-31.3	-31.9	27.1	0.00e+00	0	38	0	1066401792	36	5693
2026-01-02 02:47:37.46	176.51	20.49	-31.4	-32.0	27.1	0.00e+00	0	38	0	1071644672	36	5737
2026-01-02 02:47:38.47	176.58	20.62	-31.4	-32.0	27.1	0.00e+00	0	38	0	1077936128	36	5744
2026-01-02 02:47:39.49	176.64	20.75	-31.5	-32.1	27.0	0.00e+00	0	39	0	1083179008	36	5813
2026-01-02 02:47:40.50	176.71	20.89	-31.4	-32.0	27.0	0.00e+00	0	38	0	1088421888	36	5756
2026-01-02 02:47:41.51	176.77	21.02	-31.2	-31.9	27.2	0.00e+00	0	38	0	1094713344	36	5638
2026-01-02 02:47:42.52	176.84	21.15	-31.3	-31.9	27.1	0.00e+00	0	38	0	1099956224	36	5664
2026-01-02 02:47:43.52	176.91	21.29	-31.2	-31.8	27.2	0.00e+00	0	38	0	1106247680	36	5625
2026-01-02 02:47:44.53	176.98	21.42	-31.2	-31.8	27.2	0.00e+00	0	38	0	1111490560	36	5608
2026-01-02 02:47:45.54	177.04	21.56	-31.2	-31.8	27.3	0.00e+00	0	38	0	1116733440	36	5598
2026-01-02 02:47:46.54	177.11	21.69	-31.2	-31.8	27.2	0.00e+00	0	38	0	1123024896	36	5604
2026-01-02 02:47:47.55	177.18	21.83	-31.3	-31.9	27.2	0.00e+00	0	38	0	1128267776	36	5670
2026-01-02 02:47:48.56	177.25	21.97	-31.1	-31.7	27.3	0.00e+00	0	38	0	1134559232	36	5523
2026-01-02 02:47:49.57	177.32	22.11	-31.2	-31.8	27.2	0.00e+00	0	38	0	1139802112	36	5605
2026-01-02 02:47:50.58	177.39	22.25	-31.2	-31.9	27.2	0.00e+00	0	38	0	1146093568	36	5647
2026-01-02 02:47:51.59	177.46	22.39	-31.2	-31.8	27.2	0.00e+00	0	38	0	1151336448	36	5629
2026-01-02 02:47:52.60	177.54	22.53	-31.0	-31.6	27.3	0.00e+00	0	38	0	1157627904	36	5501
2026-01-02 02:47:53.61	177.61	22.67	-31.0	-31.6	27.4	0.00e+00	0	39	0	1162870784	36	5490
2026-01-02 02:47:54.62	177.68	22.81	-30.9	-31.6	27.4	0.00e+00	0	38	0	1168113664	36	5440
2026-01-02 02:47:55.63	177.76	22.96	-30.8	-31.4	27.5	0.00e+00	0	38	0	1174405120	36	5340
2026-01-02 02:47:56.64	177.83	23.10	-30.7	-31.3	27.7	0.00e+00	0	38	0	1179648000	34	5908
2026-01-02 02:47:57.65	177.91	23.24	-30.6	-31.2	27.7	0.00e+00	0	38	0	1184890880	34	5880
2026-01-02 02:47:58.66	177.98	23.39	-30.7	-31.3	27.6	0.00e+00	0	38	0	1191182336	34	5919
2026-01-02 02:47:59.66	178.06	23.54	-30.7	-31.3	27.6	0.00e+00	0	38	0	1196425216	34	5906
2026-01-02 02:48:00.67	178.14	23.68	-30.7	-31.4	27.5	0.00e+00	0	38	0	1202716672	34	5980
2026-01-02 02:48:01.68	178.22	23.83	-30.6	-31.2	27.7	0.00e+00	0	38	0	1207959552	34	5877
2026-01-02 02:48:02.69	178.30	23.98	-30.8	-31.4	27.6	0.00e+00	0	38	0	1213202432	34	6005
2026-01-02 02:48:03.70	178.38	24.13	-30.8	-31.4	27.6	0.00e+00	0	38	0	1219493888	34	5992
2026-01-02 02:48:04.71	178.46	24.28	-30.6	-31.3	27.7	0.00e+00	0	38	0	1224736768	34	5904
2026-01-02 02:48:05.72	178.54	24.43	-30.6	-31.2	27.6	0.00e+00	0	38	0	1231028224	34	5865
2026-01-02 02:48:06.73	178.62	24.58	-30.4	-31.0	27.9	0.00e+00	0	38	0	1236271104	34	5752
2026-01-02 02:48:07.74	178.70	24.74	-30.4	-31.0	27.9	0.00e+00	0	38	0	1242562560	34	5727
2026-01-02 02:48:08.75	178.78	24.89	-30.3	-30.9	27.9	0.00e+00	0	38	0	1247805440	34	5682
2026-01-02 02:48:09.76	178.87	25.04	-30.4	-31.0	27.8	0.00e+00	0	39	0	1254096896	34	5724
2026-01-02 02:48:10.77	178.95	25.20	-30.2	-30.8	28.0	0.00e+00	0	38	0	1259339776	34	5598
2026-01-02 02:48:11.78	179.04	25.35	-30.3	-30.9	27.9	0.00e+00	0	38	0	1264582656	34	5687
2026-01-02 02:48:12.79	179.13	25.51	-30.2	-30.8	28.0	0.00e+00	0	38	0	1270874112	34	5615
2026-01-02 02:48:13.80	179.21	25.67	-30.3	-30.9	27.9	0.00e+00	0	38	0	1276116992	34	5669
2026-01-02 02:48:14.81	179.30	25.83	-30.3	-30.9	27.9	0.00e+00	0	38	0	1282408448	34	5693
2026-01-02 02:48:15.81	179.39	25.99	-30.4	-31.1	27.8	0.00e+00	0	38	0	1287651328	34	5766
2026-01-02 02:48:16.82	179.48	26.15	-30.3	-30.8	28.0	0.00e+00	0	38	0	1292894208	34	5617
2026-01-02 02:48:17.83	179.57	26.31	-30.4	-31.0	27.8	0.00e+00	0	38	0	1299185664	34	5753
2026-01-02 02:48:18.84	179.66	26.47	-30.2	-30.8	28.1	0.00e+00	0	38	0	1304428544	34	5580
2026-01-02 02:48:19.85	179.76	26.63	-30.3	-30.9	27.9	0.00e+00	0	38	0	1310720000	34	5653
2026-01-02 02:48:20.86	179.85	26.80	-30.2	-30.8	28.1	0.00e+00	0	38	0	1315962880	34	5606
2026-01-02 02:48:21.87	179.94	26.96	-30.4	-31.0	27.9	0.00e+00	0	38	0	1321205760	34	5713
2026-01-02 02:48:22.88	180.04	27.13	-30.4	-31.0	27.9	0.00e+00	0	38	0	1327497216	34	5750
2026-01-02 02:48:23.89	180.14	27.30	-30.3	-30.9	27.9	0.00e+00	0	38	0	1332740096	34	5670
2026-01-02 02:48:24.90	180.23	27.46	-30.4	-31.0	27.9	0.00e+00	0	38	0	1339031552	34	5709
2026-01-02 02:48:25.91	180.33	27.63	-30.1	-30.7	28.1	0.00e+00	0	38	0	1344274432	34	5565
2026-01-02 02:48:26.92	180.43	27.80	-30.1	-30.7	28.1	0.00e+00	0	39	0	1350565888	34	5516
2026-01-02 02:48:27.93	180.53	27.97	-30.2	-30.8	28.0	0.00e+00	0	38	0	1355808768	34	5596
2026-01-02 02:48:28.94	180.63	28.15	-30.2	-30.8	28.1	0.00e+00	0	38	0	1361051648	34	5586
2026-01-02 02:48:29.95	180.74	28.32	-29.9	-30.5	28.2	0.00e+00	0	38	0	1367343104	34	5414
2026-01-02 02:48:30.96	180.84	28.49	-29.9	-30.4	28.3	0.00e+00	0	38	0	1372585984	34	5354
2026-01-02 02:48:31.97	180.94	28.67	-30.0	-30.6	28.3	0.00e+00	0	38	0	1378877440	34	5454
2026-01-02 02:48:32.98	181.05	28.84	-30.0	-30.6	28.2	0.00e+00	0	38	0	1384120320	34	5444
2026-01-02 02:48:33.99	181.16	29.02	-30.1	-30.7	28.2	0.00e+00	0	38	0	1389363200	34	5504
2026-01-02 02:48:35.00	181.26	29.20	-30.1	-30.7	28.1	0.00e+00	0	38	0	1395654656	34	5543
2026-01-02 02:48:36.01	181.37	29.38	-30.2	-30.8	28.1	0.00e+00	0	38	0	1400897536	34	5623
2026-01-02 02:48:37.02	181.48	29.56	-30.2	-30.9	28.0	0.00e+00	0	38	0	1407188992	34	5631
2026-01-02 02:48:38.03	181.60	29.74	-30.2	-30.8	28.1	0.00e+00	0	38	0	1412431872	34	5578
2026-01-02 02:48:39.04	181.71	29.92	-30.3	-30.9	28.0	0.00e+00	0	38	0	1417674752	34	5666
2026-01-02 02:48:40.05	181.82	30.10	-30.2	-30.9	28.0	0.00e+00	0	38	0	1423966208	34	5636
2026-01-02 02:48:41.06	181.94	30.28	-30.3	-30.9	28.0	0.00e+00	0	38	0	1429209088	34	5674
2026-01-02 02:48:42.07	182.05	30.47	-30.0	-30.6	28.2	0.00e+00	0	38	0	1435500544	34	5452
2026-01-02 02:48:43.08	182.17	30.66	-29.9	-30.4	28.3	0.00e+00	0	38	0	1440743424	34	5372
2026-01-02 02:48:44.09	182.29	30.84	-29.8	-30.4	28.4	0.00e+00	0	38	0	1447034880	34	5346
2026-01-02 02:48:45.10	182.41	31.03	-29.8	-30.3	28.4	0.00e+00	0	38	0	1452277760	32	5964
2026-01-02 02:48:46.11	182.53	31.22	-29.7	-30.2	28.4	0.00e+00	0	38	0	1458569216	32	5895
2026-01-02 02:48:47.11	182.66	31.41	-29.9	-30.5	28.4	0.00e+00	0	38	0	1463812096	32	6087
2026-01-02 02:48:48.12	182.78	31.60	-29.8	-30.4	28.4	0.00e+00	0	38	0	1469054976	32	6000
2026-01-02 02:48:49.13	182.91	31.79	-29.9	-30.6	28.3	0.00e+00	0	38	0	1475346432	32	6104
2026-01-02 02:48:50.14	183.03	31.99	-30.1	-30.7	28.1	0.00e+00	0	38	0	1480589312	32	6178
2026-01-02 02:48:51.15	183.16	32.18	-30.1	-30.6	28.2	0.00e+00	0	38	0	1486880768	32	6166
2026-01-02 02:48:52.16	183.29	32.38	-30.0	-30.5	28.2	0.00e+00	0	38	0	1492123648	32	6099
2026-01-02 02:48:53.17	183.42	32.57	-30.1	-30.6	28.2	0.00e+00	0	38	0	1497366528	32	6171
2026-01-02 02:48:54.18	183.56	32.77	-29.9	-30.5	28.2	0.00e+00	0	38	0	1503657984	32	6103
2026-01-02 02:48:55.19	183.69	32.97	-29.8	-30.4	28.4	0.00e+00	0	38	0	1508900864	32	5976
2026-01-02 02:48:56.20	183.83	33.17	-29.8	-30.3	28.4	0.00e+00	0	38	0	1515192320	32	5964
2026-01-02 02:48:57.21	183.97	33.37	-29.6	-30.2	28.4	0.00e+00	0	38	0	1520435200	32	5876
2026-01-02 02:48:58.22	184.11	33.58	-29.6	-30.2	28.5	0.00e+00	0	38	0	1525678080	32	5868
2026-01-02 02:48:59.22	184.25	33.78	-29.6	-30.2	28.5	0.00e+00	0	38	0	1531969536	32	5887
2026-01-02 02:49:00.23	184.39	33.99	-29.6	-30.2	28.4	0.00e+00	0	38	0	1537212416	32	5860
2026-01-02 02:49:01.24	184.54	34.19	-29.6	-30.2	28.6	0.00e+00	0	38	0	1543503872	32	5830
2026-01-02 02:49:02.25	184.69	34.40	-29.6	-30.2	28.5	0.00e+00	0	38	0	1548746752	32	5874
2026-01-02 02:49:03.26	184.83	34.61	-29.8	-30.4	28.4	0.00e+00	0	38	0	1555038208	32	5984
2026-01-02 02:49:04.27	184.99	34.82	-29.8	-30.4	28.4	0.00e+00	0	38	0	1560281088	32	5995
2026-01-02 02:49:05.28	185.14	35.03	-30.0	-30.6	28.2	0.00e+00	0	38	0	1565523968	32	6165
2026-01-02 02:49:06.29	185.29	35.24	-30.0	-30.6	28.2	0.00e+00	0	38	0	1571815424	32	6159
2026-01-02 02:49:07.30	185.45	35.45	-29.9	-30.5	28.3	0.00e+00	0	38	0	1577058304	32	6061
2026-01-02 02:49:08.31	185.61	35.67	-29.7	-30.2	28.4	0.00e+00	0	38	0	1583349760	32	5890
2026-01-02 02:49:09.32	185.77	35.89	-29.6	-30.2	28.5	0.00e+00	0	38	0	1588592640	32	5863
2026-01-02 02:49:10.33	185.93	36.10	-29.6	-30.1	28.6	0.00e+00	0	38	0	1593835520	32	5824
2026-01-02 02:49:11.34	186.10	36.32	-29.5	-30.1	28.6	0.00e+00	0	38	0	1600126976	32	5772
2026-01-02 02:49:12.35	186.26	36.54	-29.4	-30.0	28.6	0.00e+00	0	38	0	1605369856	32	5739
2026-01-02 02:49:13.35	186.43	36.76	-29.4	-30.0	28.5	0.00e+00	0	38	0	1611661312	32	5740
2026-01-02 02:49:14.36	186.60	36.98	-29.3	-30.0	28.6	0.00e+00	0	38	0	1616904192	32	5698
2026-01-02 02:49:15.37	186.78	37.20	-29.4	-30.0	28.6	0.00e+00	0	38	0	1622147072	32	5727
2026-01-02 02:49:16.38	186.95	37.43	-29.6	-30.2	28.5	0.00e+00	0	38	0	1628438528	32	5831
2026-01-02 02:49:17.39	187.13	37.66	-29.4	-30.0	28.6	0.00e+00	0	38	0	1633681408	32	5740
2026-01-02 02:49:18.40	187.31	37.88	-29.5	-30.2	28.5	0.00e+00	0	38	0	1639972864	32	5839
2026-01-02 02:49:19.41	187.50	38.11	-29.7	-30.3	28.4	0.00e+00	0	38	0	1645215744	32	5923
2026-01-02 02:49:20.42	187.68	38.34	-29.8	-30.4	28.4	0.00e+00	0	38	0	1651507200	32	5986
2026-01-02 02:49:21.43	187.87	38.57	-30.0	-30.6	28.2	0.00e+00	0	38	0	1656750080	32	6130
2026-01-02 02:49:22.44	188.06	38.80	-30.0	-30.6	28.3	0.00e+00	0	38	0	1661992960	32	6163
2026-01-02 02:49:23.45	188.26	39.04	-30.1	-30.7	28.2	0.00e+00	0	38	0	1668284416	32	6229
2026-01-02 02:49:24.46	188.45	39.27	-29.6	-30.2	28.5	0.00e+00	0	38	0	1673527296	32	5869
2026-01-02 02:49:25.47	188.65	39.51	-29.8	-30.4	28.3	0.00e+00	0	38	0	1679818752	32	5966
2026-01-02 02:49:26.47	188.85	39.74	-29.7	-30.2	28.5	0.00e+00	0	38	0	1685061632	32	5891
2026-01-02 02:49:27.49	189.06	39.98	-29.5	-30.2	28.6	0.00e+00	0	38	0	1690304512	32	5833
2026-01-02 02:49:28.50	189.27	40.22	-29.6	-30.2	28.5	0.00e+00	0	38	0	1696595968	32	5857
2026-01-02 02:49:29.50	189.48	40.46	-29.6	-30.2	28.5	0.00e+00	0	38	0	1701838848	32	5852
2026-01-02 02:49:30.51	189.69	40.70	-29.8	-30.4	28.3	0.00e+00	0	38	0	1708130304	32	6032
2026-01-02 02:49:31.53	189.91	40.94	-29.8	-30.4	28.4	0.00e+00	0	38	0	1713373184	32	6016
2026-01-02 02:49:32.53	190.13	41.19	-30.0	-30.6	28.2	0.00e+00	0	38	0	1718616064	32	6132
2026-01-02 02:49:33.54	190.35	41.43	-29.9	-30.5	28.1	0.00e+00	0	38	0	1724907520	32	6079
2026-01-02 02:49:34.55	190.58	41.68	-30.0	-30.6	28.3	0.00e+00	0	38	0	1730150400	32	6124
2026-01-02 02:49:35.56	190.81	41.93	-30.0	-30.6	28.3	0.00e+00	0	38	0	1736441856	32	6130
2026-01-02 02:49:36.57	191.05	42.17	-30.1	-30.7	28.2	0.00e+00	0	39	0	1741684736	32	6216
2026-01-02 02:49:37.58	191.28	42.42	-30.1	-30.7	28.2	0.00e+00	0	38	0	1747976192	32	6209
2026-01-02 02:49:38.59	191.53	42.68	-30.1	-30.7	28.2	0.00e+00	0	38	0	1753219072	32	6236
2026-01-02 02:49:39.60	191.77	42.93	-30.1	-30.6	28.2	0.00e+00	0	39	0	1759510528	32	6168
2026-01-02 02:49:40.61	192.02	43.18	-30.1	-30.7	28.1	0.00e+00	0	38	0	1764753408	32	6211
2026-01-02 02:49:41.62	192.27	43.44	-30.1	-30.7	28.2	0.00e+00	0	39	0	1769996288	32	6191
2026-01-02 02:49:42.63	192.53	43.69	-30.1	-30.7	28.1	0.00e+00	0	39	0	1776287744	32	6203
2026-01-02 02:49:43.64	192.79	43.95	-30.1	-30.7	28.2	0.00e+00	0	39	0	1781530624	32	6232
2026-01-02 02:49:44.65	193.06	44.20	-30.2	-30.8	28.1	0.00e+00	0	39	0	1786773504	32	6260
2026-01-02 02:49:45.66	193.33	44.46	-30.2	-30.8	28.1	0.00e+00	0	38	0	1793064960	32	6265
2026-01-02 02:49:46.66	193.60	44.72	-30.0	-30.6	28.2	0.00e+00	0	39	0	1798307840	32	6155
2026-01-02 02:49:47.67	193.88	44.98	-30.1	-30.7	28.1	0.00e+00	0	38	0	1804599296	32	6213
2026-01-02 02:49:48.68	194.16	45.24	-30.1	-30.7	28.2	0.00e+00	0	38	0	1809842176	32	6180
2026-01-02 02:49:49.69	194.45	45.51	-30.0	-30.6	28.3	0.00e+00	0	38	0	1815085056	32	6157
2026-01-02 02:49:50.70	194.74	45.77	-29.8	-30.4	28.3	0.00e+00	0	38	0	1821376512	32	6004
2026-01-02 02:49:51.71	195.04	46.03	-30.1	-30.7	28.2	0.00e+00	0	39	0	1826619392	32	6211
2026-01-02 02:49:52.72	195.34	46.30	-30.3	-30.9	28.1	0.00e+00	0	38	0	1832910848	32	6380
2026-01-02 02:49:53.73	195.64	46.56	-30.5	-31.1	27.9	0.00e+00	0	38	0	1838153728	32	6496
2026-01-02 02:49:54.74	195.96	46.83	-30.2	-30.8	28.1	0.00e+00	0	38	0	1844445184	32	6266
2026-01-02 02:49:55.75	196.27	47.10	-30.4	-31.0	28.0	0.00e+00	0	38	0	1849688064	32	6405
2026-01-02 02:49:56.76	196.60	47.37	-30.5	-31.2	27.9	0.00e+00	0	38	0	1855979520	32	6551
2026-01-02 02:49:57.77	196.93	47.64	-30.1	-30.7	28.2	0.00e+00	0	38	0	1861222400	32	6225
2026-01-02 02:49:58.78	197.26	47.91	-30.1	-30.7	28.1	0.00e+00	0	38	0	1866465280	32	6241
2026-01-02 02:49:59.79	197.60	48.18	-30.1	-30.7	28.2	0.00e+00	0	38	0	1872756736	32	6241
2026-01-02 02:50:00.80	197.95	48.45	-30.3	-30.8	28.1	0.00e+00	0	38	0	1877999616	32	6309
2026-01-02 02:50:01.81	198.30	48.72	-30.4	-31.1	28.0	0.00e+00	0	38	0	1884291072	32	6487
2026-01-02 02:50:02.82	198.66	48.99	-30.3	-30.9	28.0	0.00e+00	0	38	0	1889533952	32	6379
2026-01-02 02:50:03.83	199.02	49.27	-30.3	-30.9	28.1	0.00e+00	0	38	0	1894776832	32	6346
2026-01-02 02:50:04.84	199.39	49.54	-30.4	-31.0	28.0	0.00e+00	0	39	0	1901068288	32	6458
2026-01-02 02:50:05.85	199.77	49.81	-30.4	-31.0	27.9	0.00e+00	0	38	0	1906311168	32	6461
2026-01-02 02:50:06.86	200.15	50.09	-30.6	-31.1	27.9	0.00e+00	0	39	0	1912602624	32	6517
2026-01-02 02:50:07.87	200.54	50.36	-30.5	-31.1	27.9	0.00e+00	0	38	0	1917845504	32	6528
2026-01-02 02:50:08.88	200.94	50.64	-30.7	-31.3	27.7	0.00e+00	0	38	0	1923088384	32	6635
2026-01-02 02:50:09.88	201.34	50.91	-30.7	-31.3	27.7	0.00e+00	0	38	0	1929379840	34	5926
2026-01-02 02:50:10.89	201.76	51.18	-30.5	-31.1	27.9	0.00e+00	0	38	0	1934622720	34	5819
2026-01-02 02:50:11.90	202.18	51.46	-30.3	-30.9	28.2	0.00e+00	0	38	0	1940914176	34	5689
2026-01-02 02:50:12.91	202.60	51.73	-30.2	-30.8	28.0	0.00e+00	0	38	0	1946157056	34	5586
2026-01-02 02:50:13.92	203.04	52.01	-30.7	-31.3	27.7	0.00e+00	0	38	0	1952448512	34	5935
2026-01-02 02:50:14.93	203.48	52.28	-31.2	-31.9	27.3	0.00e+00	0	38	0	1957691392	34	6345
2026-01-02 02:50:15.94	203.94	52.56	-31.3	-32.0	27.3	0.00e+00	0	38	0	1962934272	34	6405
2026-01-02 02:50:16.95	204.40	52.83	-31.1	-31.7	27.3	0.00e+00	0	38	0	1969225728	34	6236
2026-01-02 02:50:17.96	204.87	53.10	-31.1	-31.8	27.4	0.00e+00	0	38	0	1974468608	34	6262
2026-01-02 02:50:18.97	205.34	53.38	-31.2	-31.8	27.3	0.00e+00	0	38	0	1980760064	34	6294
2026-01-02 02:50:19.98	205.83	53.65	-31.0	-31.6	27.5	0.00e+00	0	38	0	1986002944	34	6154
2026-01-02 02:50:20.99	206.33	53.92	-30.8	-31.5	27.6	0.00e+00	0	38	0	1991245824	34	6036
2026-01-02 02:50:22.00	206.83	54.19	-30.9	-31.5	27.5	0.00e+00	0	38	0	1997537280	34	6098
2026-01-02 02:50:23.01	207.35	54.46	-30.9	-31.5	27.6	0.00e+00	0	38	0	2002780160	34	6071
2026-01-02 02:50:24.02	207.87	54.73	-31.0	-31.7	27.5	0.00e+00	0	38	0	2009071616	34	6175
2026-01-02 02:50:25.03	208.41	55.00	-30.9	-31.5	27.6	0.00e+00	0	38	0	2014314496	34	6065
2026-01-02 02:50:26.03	208.95	55.27	-31.1	-31.7	27.4	0.00e+00	0	38	0	2019557376	34	6239
2026-01-02 02:50:27.04	209.50	55.53	-31.0	-31.6	27.6	0.00e+00	0	38	0	2025848832	34	6136
2026-01-02 02:50:28.05	210.07	55.80	-30.8	-31.4	27.6	0.00e+00	0	38	0	2031091712	34	5994
2026-01-02 02:50:29.06	210.64	56.06	-31.1	-31.7	27.4	0.00e+00	0	38	0	2037383168	34	6193
2026-01-02 02:50:30.08	211.24	56.32	-31.3	-32.0	27.3	0.00e+00	0	38	0	2042626048	34	6431
2026-01-02 02:50:31.08	211.83	56.58	-31.1	-31.8	27.4	0.00e+00	0	38	0	2048917504	34	6250
2026-01-02 02:50:32.09	212.44	56.84	-30.7	-31.3	27.6	0.00e+00	0	38	0	2054160384	34	5946
2026-01-02 02:50:33.10	213.06	57.10	-30.4	-30.9	28.0	0.00e+00	0	38	0	2060451840	34	5695
2026-01-02 02:50:34.11	213.69	57.35	-30.7	-31.3	27.7	0.00e+00	0	38	0	2065694720	34	5954
2026-01-02 02:50:35.12	214.33	57.60	-31.0	-31.7	27.5	0.00e+00	0	39	0	2070937600	34	6189
2026-01-02 02:50:36.13	214.99	57.85	-30.9	-31.6	27.5	0.00e+00	0	38	0	2077229056	34	6125
2026-01-02 02:50:37.14	215.66	58.10	-31.0	-31.6	27.5	0.00e+00	0	38	0	2082471936	34	6104
2026-01-02 02:50:38.15	216.34	58.35	-30.8	-31.4	27.7	0.00e+00	0	38	0	2087714816	34	5995
2026-01-02 02:50:39.16	217.03	58.59	-30.5	-31.1	27.8	0.00e+00	0	38	0	2094006272	34	5826
2026-01-02 02:50:40.17	217.74	58.83	-30.4	-31.0	28.0	0.00e+00	0	38	0	2099249152	34	5697
2026-01-02 02:50:41.18	218.45	59.06	-30.4	-31.0	28.0	0.00e+00	0	38	0	2105540608	34	5707
2026-01-02 02:50:42.19	219.18	59.29	-30.2	-30.9	28.1	0.00e+00	0	38	0	2110783488	34	5635
2026-01-02 02:50:43.19	219.92	59.52	-30.2	-30.8	28.1	0.00e+00	0	38	0	2116026368	34	5630
2026-01-02 02:50:44.21	220.68	59.75	-30.2	-30.8	28.1	0.00e+00	0	38	0	2122317824	34	5619
2026-01-02 02:50:45.21	221.45	59.97	-30.2	-30.8	28.1	0.00e+00	0	38	0	2127560704	34	5630
2026-01-02 02:50:46.22	222.23	60.19	-30.2	-30.7	28.2	0.00e+00	0	38	0	2133852160	34	5555
2026-01-02 02:50:47.23	223.03	60.40	-29.9	-30.5	28.3	0.00e+00	0	38	0	2139095040	34	5416
2026-01-02 02:50:48.24	223.84	60.61	-29.9	-30.5	28.2	0.00e+00	0	38	0	2145386496	34	5425
2026-01-02 02:50:49.25	224.66	60.82	-30.1	-30.7	28.2	0.00e+00	0	38	0	2150629376	34	5531
2026-01-02 02:50:50.26	225.49	61.02	-30.1	-30.7	28.1	0.00e+00	0	39	0	2156920832	34	5541
2026-01-02 02:50:51.27	226.34	61.21	-29.9	-30.5	28.3	0.00e+00	0	38	0	2162163712	34	5382
2026-01-02 02:50:52.28	227.21	61.40	-29.8	-30.4	28.4	0.00e+00	0	38	0	2167406592	34	5327
2026-01-02 02:50:53.29	228.08	61.59	-30.0	-30.7	28.2	0.00e+00	0	39	0	2173698048	32	6185
2026-01-02 02:50:54.30	228.97	61.77	-30.0	-30.5	28.2	0.00e+00	0	38	0	2178940928	32	6095
2026-01-02 02:50:55.31	229.87	61.95	-29.9	-30.5	28.2	0.00e+00	0	38	0	2185232384	32	6074
2026-01-02 02:50:56.32	230.78	62.12	-29.9	-30.5	28.3	0.00e+00	0	38	0	2190475264	32	6047
2026-01-02 02:50:57.33	231.71	62.28	-29.8	-30.4	28.3	0.00e+00	0	38	0	2195718144	32	5989
2026-01-02 02:50:58.34	232.65	62.44	-29.6	-30.2	28.5	0.00e+00	0	38	0	2202009600	32	5871
2026-01-02 02:50:59.35	233.60	62.59	-29.8	-30.4	28.3	0.00e+00	0	39	0	2207252480	32	5974
2026-01-02 02:51:00.36	234.56	62.73	-29.3	-29.9	28.7	0.00e+00	0	38	0	2213543936	32	5653
2026-01-02 02:51:01.37	235.54	62.87	-29.7	-30.4	28.4	0.00e+00	0	38	0	2218786816	32	5992
2026-01-02 02:51:02.38	236.52	63.00	-29.6	-30.2	28.5	0.00e+00	0	39	0	2224029696	32	5878
2026-01-02 02:51:03.39	237.52	63.13	-29.4	-30.0	28.8	0.00e+00	0	38	0	2230321152	32	5697
2026-01-02 02:51:04.40	238.52	63.25	-29.4	-29.9	28.7	0.00e+00	0	39	0	2235564032	32	5687
2026-01-02 02:51:05.41	239.54	63.36	-29.7	-30.3	28.4	0.00e+00	0	38	0	2241855488	32	5943
2026-01-02 02:51:06.41	240.55	63.46	-29.7	-30.3	28.4	0.00e+00	0	38	0	2247098368	32	5943
2026-01-02 02:51:07.42	241.58	63.56	-29.6	-30.1	28.5	0.00e+00	0	38	0	2253389824	32	5811
2026-01-02 02:51:08.44	242.63	63.65	-29.4	-29.9	28.7	0.00e+00	0	38	0	2258632704	32	5684
2026-01-02 02:51:09.45	243.68	63.73	-29.5	-30.1	28.6	0.00e+00	0	38	0	2263875584	32	5814
2026-01-02 02:51:10.45	244.73	63.80	-29.7	-30.4	28.4	0.00e+00	0	38	0	2270167040	32	5977
2026-01-02 02:51:11.46	245.79	63.87	-29.5	-30.0	28.6	0.00e+00	0	38	0	2275409920	32	5756
2026-01-02 02:51:12.48	246.87	63.93	-29.4	-30.0	28.7	0.00e+00	0	38	0	2281701376	32	5726
2026-01-02 02:51:13.48	247.93	63.98	-29.5	-30.1	28.5	0.00e+00	0	38	0	2286944256	32	5807
2026-01-02 02:51:14.50	249.02	64.02	-29.5	-30.0	28.7	0.00e+00	0	38	0	2292187136	32	5760
2026-01-02 02:51:15.51	250.10	64.05	-29.6	-30.2	28.5	0.00e+00	0	38	0	2298478592	32	5880
2026-01-02 02:51:16.51	251.17	64.08	-29.7	-30.3	28.5	0.00e+00	0	38	0	2303721472	32	5899
2026-01-02 02:51:17.52	252.26	64.10	-29.6	-30.1	28.5	0.00e+00	0	38	0	2310012928	32	5820
2026-01-02 02:51:18.54	253.35	64.11	-29.5	-30.1	28.5	0.00e+00	0	38	0	2315255808	32	5807
2026-01-02 02:51:19.55	254.44	64.11	-29.6	-30.2	28.5	0.00e+00	0	38	0	2320498688	32	5837
2026-01-02 02:51:20.56	255.52	64.10	-29.4	-30.0	28.7	0.00e+00	0	38	0	2326790144	32	5740
2026-01-02 02:51:21.57	256.61	64.08	-29.5	-30.0	28.5	0.00e+00	0	38	0	2332033024	32	5749
2026-01-02 02:51:22.58	257.69	64.06	-29.6	-30.1	28.4	0.00e+00	0	39	0	2338324480	32	5822
2026-01-02 02:51:23.59	258.77	64.03	-29.5	-30.0	28.4	0.00e+00	0	38	0	2343567360	32	5759
2026-01-02 02:51:24.60	259.85	63.99	-29.6	-30.1	28.4	0.00e+00	0	38	0	2349858816	32	5818
2026-01-02 02:51:25.61	260.92	63.94	-29.8	-30.4	28.0	0.00e+00	0	38	0	2355101696	32	5996
2026-01-02 02:51:26.61	261.98	63.89	-29.8	-30.4	28.4	0.00e+00	0	38	0	2361393152	32	5994
2026-01-02 02:51:27.62	263.05	63.82	-29.8	-30.4	28.1	0.00e+00	0	38	0	2366636032	32	6026
2026-01-02 02:51:28.63	264.10	63.75	-29.7	-30.2	28.4	0.00e+00	0	38	0	2371878912	32	5890
2026-01-02 02:51:29.64	265.15	63.67	-29.7	-30.3	28.5	0.00e+00	0	38	0	2378170368	32	5913
2026-01-02 02:51:30.65	266.20	63.58	-29.8	-30.5	28.4	0.00e+00	0	38	0	2383413248	32	6044
2026-01-02 02:51:31.66	267.23	63.49	-29.9	-30.5	28.4	0.00e+00	0	38	0	2389704704	32	6047
2026-01-02 02:51:32.67	268.26	63.39	-29.7	-30.3	28.4	0.00e+00	0	38	0	2394947584	32	5929
2026-01-02 02:51:33.68	269.27	63.28	-29.5	-30.2	28.6	0.00e+00	0	38	0	2400190464	32	5849
2026-01-02 02:51:34.69	270.28	63.16	-29.6	-30.3	28.5	0.00e+00	0	38	0	2406481920	32	5898
2026-01-02 02:51:35.70	271.28	63.04	-29.7	-30.3	28.4	0.00e+00	0	38	0	2411724800	32	5908
2026-01-02 02:51:36.71	272.26	62.91	-29.7	-30.2	28.4	0.00e+00	0	38	0	2418016256	32	5896
2026-01-02 02:51:37.72	273.24	62.77	-29.6	-30.2	28.5	0.00e+00	0	38	0	2423259136	32	5874
2026-01-02 02:51:38.73	274.20	62.63	-30.0	-30.6	28.2	0.00e+00	0	38	0	2428502016	32	6145
2026-01-02 02:51:39.74	275.16	62.48	-30.2	-30.8	28.1	0.00e+00	0	38	0	2434793472	32	6257
2026-01-02 02:51:40.75	276.10	62.32	-30.0	-30.6	28.2	0.00e+00	0	38	0	2440036352	32	6162
2026-01-02 02:51:41.76	277.03	62.16	-30.1	-30.6	28.2	0.00e+00	0	38	0	2446327808	32	6152
2026-01-02 02:51:42.77	277.94	61.99	-30.1	-30.7	28.2	0.00e+00	0	38	0	2451570688	32	6196
2026-01-02 02:51:43.79	278.86	61.82	-29.9	-30.5	28.3	0.00e+00	0	38	0	2457862144	32	6080
2026-01-02 02:51:44.79	279.74	61.64	-29.6	-30.2	28.5	0.00e+00	0	38	0	2463105024	32	5846
2026-01-02 02:51:45.80	280.62	61.46	-29.7	-30.3	28.5	0.00e+00	0	38	0	2469396480	32	5913
2026-01-02 02:51:46.81	281.48	61.27	-30.0	-30.6	28.3	0.00e+00	0	38	0	2474639360	32	6148
2026-01-02 02:51:47.82	282.33	61.07	-29.8	-30.4	28.4	0.00e+00	0	38	0	2479882240	32	6032
2026-01-02 02:51:48.83	283.17	60.87	-29.9	-30.4	28.4	0.00e+00	0	38	0	2486173696	32	6014
2026-01-02 02:51:49.85	284.00	60.67	-30.1	-30.8	28.2	0.00e+00	0	38	0	2491416576	32	6287
2026-01-02 02:51:50.85	284.81	60.46	-30.3	-30.9	28.0	0.00e+00	0	38	0	2497708032	32	6387
2026-01-02 02:51:51.87	285.61	60.25	-30.5	-31.0	27.8	0.00e+00	0	38	0	2502950912	32	6454
2026-01-02 02:51:52.88	286.40	60.03	-30.5	-31.0	27.8	0.00e+00	0	39	0	2508193792	32	6407
2026-01-02 02:51:53.89	287.17	59.81	-30.9	-31.5	27.6	0.00e+00	0	38	0	2514485248	34	6084
2026-01-02 02:51:54.90	287.93	59.59	-30.9	-31.5	27.5	0.00e+00	0	38	0	2519728128	34	6048
2026-01-02 02:51:55.91	288.68	59.36	-30.6	-31.2	27.9	0.00e+00	0	38	0	2526019584	34	5875
2026-01-02 02:51:56.92	289.41	59.13	-30.6	-31.3	27.8	0.00e+00	0	38	0	2531262464	34	5898
2026-01-02 02:51:57.93	290.13	58.89	-30.7	-31.2	27.8	0.00e+00	0	38	0	2536505344	34	5876
2026-01-02 02:51:58.94	290.84	58.65	-30.8	-31.4	27.6	0.00e+00	0	38	0	2542796800	34	5980
2026-01-02 02:51:59.95	291.53	58.41	-30.6	-31.2	27.7	0.00e+00	0	38	0	2548039680	34	5876
2026-01-02 02:52:00.96	292.22	58.17	-30.4	-31.1	27.9	0.00e+00	0	38	0	2554331136	34	5772
2026-01-02 02:52:01.97	292.89	57.92	-30.3	-30.9	28.0	0.00e+00	0	38	0	2559574016	34	5634
2026-01-02 02:52:02.98	293.54	57.67	-30.4	-31.1	28.0	0.00e+00	0	38	0	2565865472	34	5772
2026-01-02 02:52:03.99	294.19	57.42	-30.8	-31.5	27.6	0.00e+00	0	38	0	2571108352	34	6084
2026-01-02 02:52:05.00	294.82	57.17	-30.9	-31.6	27.6	0.00e+00	0	38	0	2576351232	34	6155
2026-01-02 02:52:06.01	295.45	56.92	-30.8	-31.3	27.7	0.00e+00	0	38	0	2582642688	34	5934
2026-01-02 02:52:07.02	296.06	56.66	-30.9	-31.4	27.6	0.00e+00	0	38	0	2587885568	34	6001
2026-01-02 02:52:08.03	296.66	56.40	-31.2	-31.9	27.2	0.00e+00	0	38	0	2594177024	34	6382
2026-01-02 02:52:09.04	297.25	56.14	-31.4	-32.1	27.2	0.00e+00	0	38	0	2599419904	34	6507
2026-01-02 02:52:10.05	297.82	55.88	-31.4	-32.0	27.2	0.00e+00	0	38	0	2604662784	34	6427
2026-01-02 02:52:11.06	298.39	55.61	-31.4	-32.1	27.3	0.00e+00	0	38	0	2610954240	34	6481
2026-01-02 02:52:12.07	298.95	55.35	-31.5	-32.0	27.1	0.00e+00	0	38	0	2616197120	34	6452
2026-01-02 02:52:13.08	299.50	55.08	-31.7	-32.3	26.9	0.00e+00	0	38	0	2622488576	34	6659
2026-01-02 02:52:14.09	300.03	54.81	-31.7	-32.4	27.0	0.00e+00	0	38	0	2627731456	36	6001
2026-01-02 02:52:15.10	300.56	54.54	-31.6	-32.3	27.1	0.00e+00	0	38	0	2632974336	36	5897
2026-01-02 02:52:16.11	301.07	54.28	-31.3	-31.9	27.2	0.00e+00	0	38	0	2639265792	36	5645
2026-01-02 02:52:17.11	301.58	54.01	-31.5	-32.2	27.2	0.00e+00	0	38	0	2644508672	36	5843
2026-01-02 02:52:18.13	302.08	53.73	-31.5	-32.2	27.1	0.00e+00	0	38	0	2650800128	36	5853
2026-01-02 02:52:19.13	302.56	53.46	-31.4	-31.9	27.2	0.00e+00	0	38	0	2656043008	36	5695
2026-01-02 02:52:20.14	303.04	53.19	-31.2	-31.8	27.4	0.00e+00	0	38	0	2662334464	36	5615
2026-01-02 02:52:21.15	303.51	52.92	-31.2	-31.8	27.4	0.00e+00	0	38	0	2667577344	36	5575
2026-01-02 02:52:22.16	303.98	52.65	-31.4	-32.0	27.3	0.00e+00	0	38	0	2673868800	36	5700
2026-01-02 02:52:23.17	304.43	52.37	-31.3	-32.0	27.3	0.00e+00	0	38	0	2679111680	36	5756
2026-01-02 02:52:24.18	304.87	52.10	-31.3	-31.9	27.3	0.00e+00	0	38	0	2684354560	36	5650
2026-01-02 02:52:25.19	305.31	51.83	-30.9	-31.4	27.6	0.00e+00	0	38	0	2690646016	36	5377
2026-01-02 02:52:26.20	305.74	51.55	-30.7	-31.3	27.7	0.00e+00	0	38	0	2695888896	34	5950
2026-01-02 02:52:27.21	306.16	51.28	-30.7	-31.2	27.8	0.00e+00	0	38	0	2702180352	34	5862
2026-01-02 02:52:28.22	306.58	51.00	-30.7	-31.3	27.8	0.00e+00	0	38	0	2707423232	34	5943
2026-01-02 02:52:29.23	306.98	50.73	-30.8	-31.5	27.6	0.00e+00	0	38	0	2712666112	34	6061
2026-01-02 02:52:30.24	307.38	50.46	-31.0	-31.7	27.4	0.00e+00	0	38	0	2718957568	34	6211
2026-01-02 02:52:31.26	307.78	50.18	-30.9	-31.6	27.5	0.00e+00	0	38	0	2724200448	34	6160
2026-01-02 02:52:32.26	308.16	49.91	-30.8	-31.4	27.6	0.00e+00	0	38	0	2730491904	34	5990
2026-01-02 02:52:33.27	308.54	49.64	-30.6	-31.2	27.8	0.00e+00	0	38	0	2735734784	34	5832
2026-01-02 02:52:34.28	308.91	49.36	-30.7	-31.4	27.7	0.00e+00	0	38	0	2740977664	34	5966
2026-01-02 02:52:35.29	309.28	49.09	-30.5	-31.1	27.8	0.00e+00	0	38	0	2747269120	34	5767
2026-01-02 02:52:36.30	309.64	48.82	-30.5	-31.0	27.8	0.00e+00	0	38	0	2752512000	34	5734
2026-01-02 02:52:37.31	309.99	48.55	-30.4	-30.9	27.8	0.00e+00	0	38	0	2758803456	34	5659
2026-01-02 02:52:38.32	310.34	48.28	-30.1	-30.8	27.9	0.00e+00	0	38	0	2764046336	34	5608
2026-01-02 02:52:39.33	310.68	48.01	-30.2	-30.8	27.9	0.00e+00	0	38	0	2770337792	34	5616
2026-01-02 02:52:40.34	311.01	47.74	-30.3	-31.0	27.7	0.00e+00	0	38	0	2775580672	34	5730
2026-01-02 02:52:41.35	311.34	47.47	-30.3	-30.8	27.8	0.00e+00	0	38	0	2780823552	34	5613
2026-01-02 02:52:42.36	311.67	47.20	-30.6	-31.3	27.0	0.00e+00	0	38	0	2787115008	34	5911
2026-01-02 02:52:43.37	311.99	46.94	-30.4	-31.1	27.3	0.00e+00	0	38	0	2792357888	34	5816
2026-01-02 02:52:44.37	312.30	46.67	-30.7	-31.2	27.8	0.00e+00	0	38	0	2798649344	34	5851
2026-01-02 02:52:45.38	312.60	46.41	-30.5	-31.0	27.8	0.00e+00	0	38	0	2803892224	34	5750
2026-01-02 02:52:46.39	312.91	46.14	-30.4	-31.1	27.9	0.00e+00	0	38	0	2809135104	34	5768
2026-01-02 02:52:47.40	313.21	45.88	-30.4	-31.1	28.0	0.00e+00	0	38	0	2815426560	34	5772
2026-01-02 02:52:48.41	313.50	45.62	-30.5	-31.2	27.9	0.00e+00	0	38	0	2820669440	34	5837
2026-01-02 02:52:49.42	313.79	45.36	-30.1	-30.8	28.2	0.00e+00	0	38	0	2826960896	34	5575
2026-01-02 02:52:50.43	314.07	45.09	-30.0	-30.7	28.2	0.00e+00	0	38	0	2832203776	34	5544
2026-01-02 02:52:51.44	314.35	44.83	-30.2	-30.7	28.1	0.00e+00	0	38	0	2837446656	34	5531
2026-01-02 02:52:52.45	314.63	44.58	-30.1	-30.8	28.1	0.00e+00	0	39	0	2843738112	34	5610
2026-01-02 02:52:53.46	314.90	44.32	-30.2	-30.9	28.0	0.00e+00	0	38	0	2848980992	34	5644
2026-01-02 02:52:54.47	315.16	44.06	-30.1	-30.7	28.2	0.00e+00	0	38	0	2855272448	34	5516
2026-01-02 02:52:55.47	315.42	43.81	-30.2	-30.9	28.0	0.00e+00	0	39	0	2860515328	34	5655
2026-01-02 02:52:56.48	315.68	43.55	-30.1	-30.6	28.2	0.00e+00	0	38	0	2866806784	34	5472
2026-01-02 02:52:57.49	315.93	43.30	-30.3	-30.8	28.0	0.00e+00	0	38	0	2872049664	34	5594
2026-01-02 02:52:58.50	316.18	43.05	-30.4	-31.0	27.9	0.00e+00	0	38	0	2878341120	34	5706
2026-01-02 02:52:59.51	316.43	42.79	-30.5	-31.2	27.8	0.00e+00	0	38	0	2883584000	34	5873
2026-01-02 02:53:00.52	316.67	42.54	-30.6	-31.3	27.9	0.00e+00	0	38	0	2888826880	34	5899
2026-01-02 02:53:01.53	316.91	42.30	-30.5	-31.1	28.0	0.00e+00	0	38	0	2895118336	34	5815
2026-01-02 02:53:02.54	317.15	42.05	-30.3	-31.0	28.0	0.00e+00	0	38	0	2900361216	34	5742
2026-01-02 02:53:03.55	317.38	41.80	-30.3	-30.9	28.1	0.00e+00	0	39	0	2906652672	34	5679
2026-01-02 02:53:04.56	317.61	41.55	-30.4	-31.0	28.0	0.00e+00	0	38	0	2911895552	34	5759
2026-01-02 02:53:05.57	317.83	41.31	-29.9	-30.6	28.2	0.00e+00	0	38	0	2917138432	34	5480
2026-01-02 02:53:06.58	318.05	41.07	-30.0	-30.7	28.3	0.00e+00	0	38	0	2923429888	34	5504
2026-01-02 02:53:07.59	318.27	40.82	-30.0	-30.6	28.3	0.00e+00	0	39	0	2928672768	34	5452
2026-01-02 02:53:08.60	318.49	40.58	-30.2	-30.7	28.1	0.00e+00	0	38	0	2933915648	34	5545
2026-01-02 02:53:09.61	318.70	40.34	-30.0	-30.6	28.2	0.00e+00	0	38	0	2940207104	34	5468
2026-01-02 02:53:10.62	318.91	40.10	-29.9	-30.6	28.3	0.00e+00	0	38	0	2945449984	34	5478
2026-01-02 02:53:11.62	319.11	39.87	-29.9	-30.4	28.3	0.00e+00	0	38	0	2951741440	34	5360
2026-01-02 02:53:12.63	319.31	39.63	-29.8	-30.3	28.4	0.00e+00	0	38	0	2956984320	34	5293
2026-01-02 02:53:13.64	319.51	39.40	-29.7	-30.2	28.4	0.00e+00	0	38	0	2963275776	32	5876
2026-01-02 02:53:14.65	319.71	39.16	-29.6	-30.2	28.5	0.00e+00	0	38	0	2968518656	32	5831
2026-01-02 02:53:15.66	319.91	38.93	-29.7	-30.4	28.5	0.00e+00	0	38	0	2974810112	32	5995
2026-01-02 02:53:16.67	320.10	38.70	-29.9	-30.6	28.3	0.00e+00	0	39	0	2980052992	32	6116
2026-01-02 02:53:17.68	320.29	38.47	-29.9	-30.6	28.2	0.00e+00	0	38	0	2985295872	32	6135
2026-01-02 02:53:18.69	320.47	38.24	-30.1	-30.8	28.2	0.00e+00	0	38	0	2991587328	32	6247
2026-01-02 02:53:19.70	320.66	38.01	-30.1	-30.6	28.2	0.00e+00	0	38	0	2996830208	32	6164
2026-01-02 02:53:20.71	320.84	37.79	-29.9	-30.6	28.3	0.00e+00	0	38	0	3003121664	32	6158
2026-01-02 02:53:21.72	321.02	37.56	-30.0	-30.5	28.2	0.00e+00	0	38	0	3008364544	32	6088
2026-01-02 02:53:22.73	321.20	37.34	-29.8	-30.3	28.5	0.00e+00	0	38	0	3013607424	32	5914
2026-01-02 02:53:23.74	321.37	37.11	-29.8	-30.4	28.4	0.00e+00	0	38	0	3019898880	32	6028
2026-01-02 02:53:24.75	321.54	36.89	-29.7	-30.3	28.6	0.00e+00	0	38	0	3025141760	32	5948
2026-01-02 02:53:25.76	321.71	36.67	-30.0	-30.7	28.4	0.00e+00	0	38	0	3031433216	32	6184
2026-01-02 02:53:26.77	321.88	36.45	-29.8	-30.5	28.5	0.00e+00	0	38	0	3036676096	32	6077
2026-01-02 02:53:27.78	322.05	36.24	-29.7	-30.2	28.5	0.00e+00	0	38	0	3041918976	32	5877
2026-01-02 02:53:28.79	322.21	36.02	-29.8	-30.4	28.4	0.00e+00	0	38	0	3048210432	32	5974
2026-01-02 02:53:29.80	322.37	35.80	-29.9	-30.5	28.2	0.00e+00	0	39	0	3053453312	32	6045
2026-01-02 02:53:30.81	322.53	35.59	-30.0	-30.5	28.3	0.00e+00	0	38	0	3059744768	32	6079
2026-01-02 02:53:31.82	322.69	35.38	-29.9	-30.5	28.3	0.00e+00	0	38	0	3064987648	32	6045
2026-01-02 02:53:32.83	322.84	35.16	-30.0	-30.7	28.2	0.00e+00	0	38	0	3071279104	32	6233
2026-01-02 02:53:33.84	323.00	34.95	-30.0	-30.7	28.3	0.00e+00	0	38	0	3076521984	32	6176
2026-01-02 02:53:34.85	323.15	34.74	-29.9	-30.4	28.4	0.00e+00	0	38	0	3081764864	32	5981
2026-01-02 02:53:35.85	323.30	34.54	-30.0	-30.5	28.3	0.00e+00	0	38	0	3088056320	32	6066
2026-01-02 02:53:36.86	323.44	34.33	-30.1	-30.6	28.2	0.00e+00	0	38	0	3093299200	32	6164
2026-01-02 02:53:37.87	323.59	34.12	-30.2	-30.7	28.2	0.00e+00	0	38	0	3099590656	32	6219
2026-01-02 02:53:38.88	323.73	33.92	-30.3	-30.9	28.1	0.00e+00	0	38	0	3104833536	32	6338
2026-01-02 02:53:39.89	323.88	33.72	-30.2	-30.7	28.1	0.00e+00	0	38	0	3110076416	32	6229
2026-01-02 02:53:40.90	324.02	33.51	-30.3	-30.9	28.0	0.00e+00	0	38	0	3116367872	32	6333
2026-01-02 02:53:41.91	324.16	33.31	-30.7	-31.4	27.7	0.00e+00	0	38	0	3121610752	32	6717
2026-01-02 02:53:42.92	324.29	33.11	-30.4	-30.9	28.0	0.00e+00	0	38	0	3127902208	32	6374
2026-01-02 02:53:43.93	324.43	32.91	-30.4	-31.1	27.9	0.00e+00	0	38	0	3133145088	32	6506
2026-01-02 02:53:44.94	324.56	32.71	-30.4	-31.0	28.0	0.00e+00	0	38	0	3138387968	32	6433
2026-01-02 02:53:45.95	324.70	32.52	-30.1	-30.8	28.2	0.00e+00	0	38	0	3144679424	32	6264
2026-01-02 02:53:46.96	324.83	32.32	-30.1	-30.8	28.1	0.00e+00	0	38	0	3149922304	32	6288
2026-01-02 02:53:47.96	324.96	32.13	-30.2	-30.9	28.0	0.00e+00	0	38	0	3156213760	32	6375
2026-01-02 02:53:48.98	325.09	31.93	-30.0	-30.7	28.1	0.00e+00	0	38	0	3161456640	32	6214
2026-01-02 02:53:49.99	325.21	31.74	-30.1	-30.7	28.1	0.00e+00	0	38	0	3166699520	32	6190
2026-01-02 02:53:50.99	325.34	31.55	-30.1	-30.7	28.2	0.00e+00	0	38	0	3172990976	32	6194
2026-01-02 02:53:52.00	325.46	31.36	-30.4	-31.1	27.9	0.00e+00	0	38	0	3178233856	32	6484
2026-01-02 02:53:53.01	325.58	31.17	-30.2	-30.7	28.1	0.00e+00	0	38	0	3184525312	32	6243
2026-01-02 02:53:54.02	325.70	30.99	-30.2	-30.8	28.1	0.00e+00	0	38	0	3189768192	32	6265
2026-01-02 02:53:55.03	325.82	30.80	-30.2	-30.7	28.2	0.00e+00	0	38	0	3196059648	32	6215
2026-01-02 02:53:56.04	325.94	30.61	-30.2	-30.8	28.1	0.00e+00	0	38	0	3201302528	32	6256
2026-01-02 02:53:57.05	326.06	30.43	-30.2	-30.7	28.1	0.00e+00	0	38	0	3206545408	32	6239
2026-01-02 02:53:58.06	326.17	30.25	-30.2	-30.7	28.0	0.00e+00	0	38	0	3212836864	32	6204
2026-01-02 02:53:59.07	326.29	30.06	-30.2	-30.8	28.0	0.00e+00	0	38	0	3218079744	32	6255
2026-01-02 02:54:00.08	326.40	29.88	-30.4	-31.0	27.9	0.00e+00	0	38	0	3224371200	32	6399
2026-01-02 02:54:01.09	326.51	29.70	-30.3	-30.9	28.0	0.00e+00	0	38	0	3229614080	32	6334
2026-01-02 02:54:02.10	326.63	29.52	-30.4	-30.9	27.9	0.00e+00	0	38	0	3235905536	32	6375
2026-01-02 02:54:03.11	326.74	29.34	-30.4	-30.9	27.9	0.00e+00	0	38	0	3241148416	32	6381
2026-01-02 02:54:04.12	326.84	29.17	-30.4	-30.9	27.9	0.00e+00	0	38	0	3246391296	32	6372
2026-01-02 02:54:05.13	326.95	28.99	-30.4	-30.9	27.9	0.00e+00	0	38	0	3252682752	32	6367
2026-01-02 02:54:06.14	327.06	28.81	-30.4	-31.0	27.9	0.00e+00	0	38	0	3257925632	32	6403
2026-01-02 02:54:07.14	327.16	28.64	-30.3	-30.8	28.0	0.00e+00	0	38	0	3263168512	32	6304
2026-01-02 02:54:08.16	327.27	28.47	-30.2	-30.9	28.0	0.00e+00	0	39	0	3269459968	32	6355
2026-01-02 02:54:09.17	327.37	28.29	-30.2	-30.7	28.1	0.00e+00	0	38	0	3274702848	32	6218
2026-01-02 02:54:10.17	327.47	28.12	-30.2	-30.9	28.0	0.00e+00	0	38	0	3280994304	32	6374
2026-01-02 02:54:11.18	327.57	27.95	-30.2	-30.7	28.0	0.00e+00	0	39	0	3286237184	32	6201
2026-01-02 02:54:12.19	327.67	27.78	-30.1	-30.6	28.1	0.00e+00	0	38	0	3292528640	32	6133
2026-01-02 02:54:13.20	327.77	27.62	-30.1	-30.7	28.1	0.00e+00	0	39	0	3297771520	32	6242
2026-01-02 02:54:14.21	327.87	27.45	-30.0	-30.5	28.2	0.00e+00	0	38	0	3304062976	32	6096
2026-01-02 02:54:15.22	327.97	27.28	-30.2	-30.7	28.0	0.00e+00	0	38	0	3309305856	32	6202
2026-01-02 02:54:16.23	328.06	27.12	-30.2	-30.7	28.1	0.00e+00	0	38	0	3314548736	32	6231
2026-01-02 02:54:17.24	328.16	26.95	-30.2	-30.7	28.0	0.00e+00	0	39	0	3320840192	32	6217
2026-01-02 02:54:18.25	328.25	26.79	-30.2	-30.7	28.1	0.00e+00	0	38	0	3326083072	32	6220
2026-01-02 02:54:19.26	328.34	26.62	-30.3	-30.8	28.0	0.00e+00	0	38	0	3332374528	32	6283
2026-01-02 02:54:20.27	328.44	26.46	-30.3	-30.8	27.9	0.00e+00	0	38	0	3337617408	32	6280
2026-01-02 02:54:21.28	328.53	26.30	-30.4	-30.9	27.9	0.00e+00	0	38	0	3342860288	32	6345
2026-01-02 02:54:22.29	328.62	26.14	-30.4	-30.9	27.9	0.00e+00	0	38	0	3349151744	32	6380
2026-01-02 02:54:23.30	328.71	25.98	-30.5	-31.0	27.8	0.00e+00	0	39	0	3354394624	32	6453
2026-01-02 02:54:24.31	328.80	25.82	-30.5	-31.1	27.7	0.00e+00	0	38	0	3360686080	32	6489
2026-01-02 02:54:25.32	328.89	25.67	-30.5	-31.0	27.7	0.00e+00	0	39	0	3365928960	32	6457
2026-01-02 02:54:26.32	328.97	25.51	-30.5	-31.0	27.8	0.00e+00	0	39	0	3371171840	32	6430
2026-01-02 02:54:27.33	329.06	25.35	-30.5	-31.1	27.7	0.00e+00	0	38	0	3377463296	32	6535
2026-01-02 02:54:28.34	329.14	25.20	-30.5	-31.2	27.7	0.00e+00	0	38	0	3382706176	32	6598
2026-01-02 02:54:29.35	329.23	25.05	-30.6	-31.3	27.6	0.00e+00	0	38	0	3388997632	32	6642
2026-01-02 02:54:30.36	329.31	24.89	-30.6	-31.2	27.7	0.00e+00	0	39	0	3394240512	32	6602
2026-01-02 02:54:31.37	329.40	24.74	-30.6	-31.1	27.7	0.00e+00	0	38	0	3400531968	32	6529
2026-01-02 02:54:32.37	329.48	24.59	-30.6	-31.1	27.7	0.00e+00	0	38	0	3405774848	34	5825
2026-01-02 02:54:33.38	329.56	24.44	-30.6	-31.2	27.7	0.00e+00	0	38	0	3411017728	34	5843
2026-01-02 02:54:34.39	329.64	24.29	-30.6	-31.3	27.7	0.00e+00	0	38	0	3417309184	34	5927
2026-01-02 02:54:35.40	329.72	24.14	-30.6	-31.3	27.6	0.00e+00	0	38	0	3422552064	34	5953
2026-01-02 02:54:36.41	329.80	23.99	-30.6	-31.3	27.7	0.00e+00	0	38	0	3428843520	34	5944
2026-01-02 02:54:37.42	329.88	23.84	-30.6	-31.3	27.7	0.00e+00	0	38	0	3434086400	34	5926
2026-01-02 02:54:38.43	329.96	23.70	-30.7	-31.3	27.6	0.00e+00	0	38	0	3439329280	34	5917
2026-01-02 02:54:39.44	330.03	23.55	-31.0	-31.7	27.4	0.00e+00	0	38	0	3445620736	34	6193
2026-01-02 02:54:40.45	330.11	23.40	-31.0	-31.7	27.4	0.00e+00	0	38	0	3450863616	34	6180
2026-01-02 02:54:41.46	330.19	23.26	-31.1	-31.8	27.4	0.00e+00	0	38	0	3457155072	34	6252
2026-01-02 02:54:42.47	330.26	23.12	-31.1	-31.7	27.2	0.00e+00	0	38	0	3462397952	34	6188
2026-01-02 02:54:43.48	330.34	22.97	-30.9	-31.4	27.6	0.00e+00	0	38	0	3467640832	34	5994
2026-01-02 02:54:44.49	330.41	22.83	-31.0	-31.5	27.3	0.00e+00	0	38	0	3473932288	34	6092
2026-01-02 02:54:45.50	330.49	22.69	-30.9	-31.5	27.4	0.00e+00	0	38	0	3479175168	34	6039
2026-01-02 02:54:46.51	330.56	22.55	-31.0	-31.6	27.4	0.00e+00	0	38	0	3485466624	34	6111
2026-01-02 02:54:47.52	330.63	22.41	-31.1	-31.6	27.3	0.00e+00	0	38	0	3490709504	34	6143
2026-01-02 02:54:48.52	330.70	22.27	-31.1	-31.6	27.3	0.00e+00	0	38	0	3497000960	34	6169
2026-01-02 02:54:49.54	330.77	22.13	-31.1	-31.8	27.3	0.00e+00	0	38	0	3502243840	34	6260
2026-01-02 02:54:50.55	330.84	21.99	-31.2	-31.8	27.2	0.00e+00	0	38	0	3507486720	34	6252
2026-01-02 02:54:51.55	330.91	21.86	-31.2	-31.8	27.1	0.00e+00	0	38	0	3513778176	34	6276
2026-01-02 02:54:52.56	330.98	21.72	-31.3	-31.8	27.1	0.00e+00	0	39	0	3519021056	34	6292
2026-01-02 02:54:53.57	331.05	21.58	-31.2	-31.8	27.2	0.00e+00	0	38	0	3525312512	34	6270
2026-01-02 02:54:54.58	331.12	21.45	-31.4	-32.1	27.1	0.00e+00	0	38	0	3530555392	34	6467
2026-01-02 02:54:55.59	331.19	21.31	-31.3	-31.9	27.1	0.00e+00	0	38	0	3535798272	34	6349
2026-01-02 02:54:56.60	331.26	21.18	-31.5	-32.1	27.0	0.00e+00	0	38	0	3542089728	34	6467
2026-01-02 02:54:57.61	331.32	21.05	-31.5	-32.2	26.9	0.00e+00	0	38	0	3547332608	34	6542
2026-01-02 02:54:58.62	331.39	20.92	-31.6	-32.3	26.9	0.00e+00	0	38	0	3553624064	34	6629
2026-01-02 02:54:59.63	331.45	20.78	-31.6	-32.3	26.8	0.00e+00	0	38	0	3558866944	34	6675
2026-01-02 02:55:00.65	331.52	20.65	-31.6	-32.3	26.9	0.00e+00	0	38	0	3564109824	34	6627
2026-01-02 02:55:01.65	331.58	20.52	-31.6	-32.3	26.9	0.00e+00	0	38	0	3570401280	34	6669
2026-01-02 02:55:02.67	331.65	20.39	-31.7	-32.4	26.8	0.00e+00	0	38	0	3575644160	36	6008
2026-01-02 02:55:03.68	331.71	20.26	-31.9	-32.6	26.7	0.00e+00	0	38	0	3581935616	36	6166
2026-01-02 02:55:04.69	331.77	20.13	-31.7	-32.4	26.8	0.00e+00	0	38	0	3587178496	36	6016
2026-01-02 02:55:05.69	331.84	20.01	-31.8	-32.5	26.8	0.00e+00	0	38	0	3593469952	36	6060
2026-01-02 02:55:06.71	331.90	19.88	-31.9	-32.5	26.7	0.00e+00	0	38	0	3598712832	36	6070
2026-01-02 02:55:07.72	331.96	19.75	-32.1	-32.6	26.5	0.00e+00	0	38	0	3605004288	36	6171
