passes_logs/2026/01/02/R4.6S_Anadyr/R4.6S_Anadyr__20260102_014256_SUOMI_NPP_rec.log

#Pass ID: 20260102_014256_SUOMI NPP
#Satellite: SUOMI NPP
#Configuration: NPP
#almurnet v.1.7.20251203
#Start time: 2026-01-02 01:42:57

#Version: 2.2.20231116
#Station: R4.6S_Anadyr
#Location: 177.4865 lon 64.73178 lat
#TLE: 1 37849U 11061A   26001.07732418  .00000182  00000+0  10735-3 0  9990
#TLE: 2 37849  98.7795 303.2470 0002580  87.2016 272.9455 14.19520779734739

#Time	Az	El	Level	Level2	SNR	BER	BlckErr	Temp	State	Recorded	gain1	gain2
2026-01-02 01:42:57.24	192.78	0.03	-49.1	-61.6	3.4	1.52e+00	0	37	0	0	60	42254
2026-01-02 01:42:58.25	192.83	0.09	-49.4	-64.5	3.6	1.51e+00	0	38	104	0	60	60925
2026-01-02 01:42:59.26	192.88	0.15	-49.3	-64.5	3.6	1.51e+00	0	38	104	0	60	60862
2026-01-02 01:43:00.27	192.92	0.20	-49.2	-64.4	3.6	1.51e+00	0	38	104	0	60	60246
2026-01-02 01:43:01.28	192.97	0.26	-49.2	-64.4	3.6	1.51e+00	0	38	104	0	60	60077
2026-01-02 01:43:02.28	193.02	0.32	-49.2	-64.4	3.6	1.51e+00	0	38	104	0	60	60247
2026-01-02 01:43:03.29	193.07	0.37	-49.2	-64.4	3.6	1.51e+00	0	38	104	0	60	60122
2026-01-02 01:43:04.30	193.11	0.43	-49.1	-64.4	3.6	1.51e+00	0	38	104	0	60	60105
2026-01-02 01:43:05.31	193.16	0.49	-49.1	-64.4	3.6	1.51e+00	0	38	104	0	60	59833
2026-01-02 01:43:06.32	193.21	0.55	-49.1	-64.4	3.6	1.51e+00	0	38	104	0	60	59699
2026-01-02 01:43:07.33	193.26	0.60	-49.0	-64.3	3.6	1.51e+00	0	38	104	0	60	59017
2026-01-02 01:43:08.34	193.31	0.66	-48.9	-64.2	3.6	1.51e+00	0	38	104	0	60	58308
2026-01-02 01:43:09.35	193.35	0.72	-48.7	-63.9	3.6	1.51e+00	0	38	104	0	60	56639
2026-01-02 01:43:10.36	193.40	0.78	-48.4	-63.7	3.6	1.51e+00	0	38	104	0	60	55344
2026-01-02 01:43:11.37	193.45	0.83	-48.3	-63.5	3.6	1.51e+00	0	38	104	0	60	54103
2026-01-02 01:43:12.38	193.50	0.89	-47.9	-63.0	3.6	1.51e+00	0	38	104	0	60	50869
2026-01-02 01:43:13.39	193.55	0.95	-47.9	-62.9	3.6	1.51e+00	0	38	104	0	60	50648
2026-01-02 01:43:14.40	193.60	1.01	-47.9	-62.9	3.6	1.51e+00	0	38	104	0	60	50619
2026-01-02 01:43:15.41	193.65	1.07	-47.9	-62.9	3.6	1.51e+00	0	38	104	0	60	50524
2026-01-02 01:43:16.43	193.70	1.13	-47.9	-63.0	3.6	1.51e+00	0	38	104	0	60	50995
2026-01-02 01:43:17.44	193.75	1.18	-47.9	-63.0	3.6	1.51e+00	0	38	104	0	60	50942
2026-01-02 01:43:18.45	193.80	1.24	-47.8	-63.0	3.6	1.51e+00	0	38	104	0	60	51265
2026-01-02 01:43:19.46	193.85	1.30	-47.8	-63.0	3.6	1.51e+00	0	38	104	0	60	50987
2026-01-02 01:43:20.46	193.90	1.36	-47.8	-63.0	3.6	1.51e+00	0	38	104	0	60	50863
2026-01-02 01:43:21.48	193.95	1.42	-47.8	-63.0	3.6	1.51e+00	0	38	104	0	60	51273
2026-01-02 01:43:22.48	194.00	1.48	-47.8	-63.0	3.6	1.51e+00	0	38	104	0	60	50965
2026-01-02 01:43:23.49	194.05	1.54	-47.8	-63.0	3.6	1.51e+00	0	39	104	0	60	51205
2026-01-02 01:43:24.50	194.10	1.60	-47.8	-63.0	3.6	1.51e+00	0	38	104	0	60	50866
2026-01-02 01:43:25.51	194.15	1.66	-47.8	-63.0	3.6	1.51e+00	0	39	104	0	60	51185
2026-01-02 01:43:26.53	194.21	1.72	-47.8	-63.0	3.6	1.51e+00	0	38	104	0	60	51161
2026-01-02 01:43:27.54	194.26	1.78	-47.8	-62.9	3.6	1.51e+00	0	38	104	0	60	50649
2026-01-02 01:43:28.55	194.31	1.84	-47.8	-62.9	3.6	1.51e+00	0	39	104	0	60	50662
2026-01-02 01:43:29.55	194.36	1.90	-47.8	-62.9	3.6	1.51e+00	0	39	104	0	60	50740
2026-01-02 01:43:30.57	194.41	1.96	-47.8	-63.0	3.6	1.51e+00	0	39	104	0	60	50797
2026-01-02 01:43:31.57	194.47	2.02	-47.8	-63.0	3.6	1.51e+00	0	39	104	0	60	51131
2026-01-02 01:43:32.58	194.52	2.08	-47.8	-63.0	3.6	1.51e+00	0	39	104	0	60	50838
2026-01-02 01:43:33.60	194.57	2.14	-47.8	-62.9	3.6	1.51e+00	0	39	104	0	60	50728
2026-01-02 01:43:34.60	194.63	2.20	-47.8	-63.0	3.6	1.51e+00	0	39	104	0	60	50894
2026-01-02 01:43:35.61	194.68	2.26	-47.8	-62.9	3.5	1.51e+00	0	39	104	0	60	50735
2026-01-02 01:43:36.62	194.73	2.32	-47.8	-63.0	3.6	1.51e+00	0	39	104	0	60	51019
2026-01-02 01:43:37.63	194.79	2.38	-47.8	-62.9	3.6	1.51e+00	0	39	104	0	60	50732
2026-01-02 01:43:38.64	194.84	2.44	-47.8	-62.9	3.6	1.51e+00	0	39	104	0	60	50472
2026-01-02 01:43:39.65	194.89	2.50	-47.8	-62.6	3.6	1.51e+00	0	39	104	0	60	48550
2026-01-02 01:43:40.66	194.95	2.56	-47.8	-62.1	3.6	1.51e+00	0	39	104	0	60	46089
2026-01-02 01:43:41.67	195.00	2.62	-47.7	-61.6	3.6	1.51e+00	0	39	104	0	60	43423
2026-01-02 01:43:42.68	195.06	2.68	-47.8	-61.7	3.6	1.51e+00	0	39	104	0	60	43723
2026-01-02 01:43:43.69	195.11	2.75	-47.7	-61.7	3.6	1.51e+00	0	39	104	0	60	43796
2026-01-02 01:43:44.70	195.17	2.81	-47.8	-62.2	3.6	1.51e+00	0	39	104	0	60	46771
2026-01-02 01:43:45.71	195.22	2.87	-47.7	-61.9	3.6	1.51e+00	0	39	104	0	60	44938
2026-01-02 01:43:46.72	195.28	2.93	-47.6	-59.6	3.7	1.51e+00	0	39	104	0	60	34583
2026-01-02 01:43:47.73	195.34	2.99	-47.4	-56.8	5.5	6.85e-01	0	39	0	0	60	24976
2026-01-02 01:43:48.74	195.39	3.05	-47.0	-53.8	7.5	2.27e-01	0	39	0	1048576	60	17668
2026-01-02 01:43:49.75	195.45	3.12	-46.2	-51.2	10.5	2.80e-02	0	39	0	3145728	60	13135
2026-01-02 01:43:50.76	195.51	3.18	-45.8	-50.0	11.7	2.04e-03	0	39	0	5242880	60	11458
2026-01-02 01:43:51.77	195.56	3.24	-45.3	-49.1	12.7	2.85e-04	0	39	0	7340032	60	10339
2026-01-02 01:43:52.78	195.62	3.30	-45.2	-48.9	12.9	3.58e-05	0	39	0	9437184	60	10047
2026-01-02 01:43:53.79	195.68	3.37	-45.2	-48.8	13.0	3.50e-05	0	39	0	10485760	60	9993
2026-01-02 01:43:54.80	195.73	3.43	-45.3	-49.2	12.5	1.08e-04	0	39	0	12582912	60	10423
2026-01-02 01:43:55.81	195.79	3.49	-47.7	-57.5	4.0	3.66e-05	0	39	0	14680064	60	27142
2026-01-02 01:43:56.82	195.85	3.55	-47.7	-61.6	3.6	6.92e-01	0	39	104	15728640	60	43561
2026-01-02 01:43:57.83	195.91	3.62	-43.2	-45.5	6.0	1.47e+00	0	39	104	15728640	60	6841
2026-01-02 01:43:58.84	195.97	3.68	-47.2	-54.4	7.0	5.72e-05	0	39	0	15728640	60	18879
2026-01-02 01:43:59.85	196.02	3.74	-45.8	-50.2	10.9	2.71e-02	0	39	0	17825792	60	11649
2026-01-02 01:44:00.86	196.08	3.81	-44.7	-47.8	14.3	7.72e-04	0	39	0	19922944	60	8910
2026-01-02 01:44:01.87	196.14	3.87	-44.0	-46.6	15.5	0.00e+00	0	39	0	20971520	60	7693
2026-01-02 01:44:02.88	196.20	3.93	-43.5	-45.7	16.4	0.00e+00	0	39	0	23068672	60	7001
2026-01-02 01:44:03.89	196.26	4.00	-43.6	-46.0	16.2	0.00e+00	0	39	0	25165824	60	7199
2026-01-02 01:44:04.89	196.32	4.06	-43.4	-45.6	16.6	0.00e+00	0	39	0	27262976	60	6870
2026-01-02 01:44:05.90	196.38	4.13	-43.2	-45.3	16.8	0.00e+00	0	39	0	29360128	60	6648
2026-01-02 01:44:06.91	196.44	4.19	-42.8	-44.8	17.3	0.00e+00	0	39	0	30408704	58	7044
2026-01-02 01:44:07.92	196.50	4.25	-42.6	-44.4	17.6	0.00e+00	0	39	0	32505856	58	6768
2026-01-02 01:44:08.93	196.56	4.32	-42.6	-44.5	17.6	0.00e+00	0	39	0	34603008	58	6842
2026-01-02 01:44:09.94	196.62	4.38	-42.4	-44.2	17.9	0.00e+00	0	39	0	36700160	58	6573
2026-01-02 01:44:10.95	196.69	4.45	-42.4	-44.3	17.9	0.00e+00	0	39	0	38797312	58	6641
2026-01-02 01:44:11.96	196.75	4.51	-42.4	-44.2	18.1	0.00e+00	0	39	0	39845888	58	6548
2026-01-02 01:44:12.97	196.81	4.58	-42.6	-44.4	17.7	0.00e+00	0	39	0	41943040	58	6764
2026-01-02 01:44:13.98	196.87	4.64	-42.4	-44.2	17.9	0.00e+00	0	39	0	44040192	58	6569
2026-01-02 01:44:14.99	196.93	4.71	-42.4	-44.2	18.0	0.00e+00	0	39	0	46137344	58	6551
2026-01-02 01:44:16.00	197.00	4.77	-42.5	-44.3	17.8	0.00e+00	0	39	0	48234496	58	6657
2026-01-02 01:44:17.01	197.06	4.84	-42.1	-43.9	18.2	0.00e+00	0	39	0	49283072	58	6322
2026-01-02 01:44:18.02	197.12	4.91	-42.1	-43.9	18.3	0.00e+00	0	39	0	51380224	58	6332
2026-01-02 01:44:19.03	197.19	4.97	-42.5	-44.4	17.9	0.00e+00	0	39	0	53477376	58	6694
2026-01-02 01:44:20.04	197.25	5.04	-42.2	-43.9	18.3	0.00e+00	0	39	0	55574528	58	6371
2026-01-02 01:44:21.05	197.31	5.10	-42.2	-43.9	18.2	0.00e+00	0	39	0	57671680	58	6345
2026-01-02 01:44:22.06	197.38	5.17	-42.2	-43.9	18.3	0.00e+00	0	39	0	58720256	58	6341
2026-01-02 01:44:23.07	197.44	5.24	-42.1	-43.8	18.5	0.00e+00	0	39	0	60817408	58	6253
2026-01-02 01:44:24.08	197.51	5.30	-42.2	-43.9	18.4	0.00e+00	0	39	0	62914560	58	6333
2026-01-02 01:44:25.09	197.57	5.37	-42.0	-43.6	18.6	0.00e+00	0	39	0	65011712	56	6907
2026-01-02 01:44:26.10	197.64	5.44	-41.9	-43.5	18.5	0.00e+00	0	39	0	67108864	56	6799
2026-01-02 01:44:27.10	197.70	5.50	-41.9	-43.5	18.8	0.00e+00	0	39	0	69206016	56	6805
2026-01-02 01:44:28.11	197.77	5.57	-41.9	-43.4	18.8	0.00e+00	0	39	0	70254592	56	6767
2026-01-02 01:44:29.12	197.84	5.64	-42.0	-43.6	18.6	0.00e+00	0	39	0	72351744	56	6902
2026-01-02 01:44:30.13	197.90	5.70	-41.8	-43.3	18.9	0.00e+00	0	39	0	74448896	56	6684
2026-01-02 01:44:31.14	197.97	5.77	-41.6	-43.1	19.2	0.00e+00	0	39	0	76546048	56	6529
2026-01-02 01:44:32.15	198.04	5.84	-41.6	-43.2	19.1	0.00e+00	0	39	0	77594624	56	6540
2026-01-02 01:44:33.16	198.10	5.91	-41.6	-43.2	19.2	0.00e+00	0	39	0	79691776	56	6548
2026-01-02 01:44:34.17	198.17	5.97	-41.6	-43.1	19.2	0.00e+00	0	39	0	81788928	56	6526
2026-01-02 01:44:35.18	198.24	6.04	-41.6	-43.1	19.0	0.00e+00	0	39	0	83886080	56	6496
2026-01-02 01:44:36.19	198.31	6.11	-41.7	-43.2	19.2	0.00e+00	0	39	0	85983232	56	6564
2026-01-02 01:44:37.20	198.38	6.18	-41.3	-42.8	19.5	0.00e+00	0	39	0	87031808	56	6256
2026-01-02 01:44:38.21	198.45	6.25	-41.3	-42.8	19.5	0.00e+00	0	39	0	89128960	56	6280
2026-01-02 01:44:39.22	198.52	6.32	-41.3	-42.7	19.6	0.00e+00	0	39	0	91226112	56	6221
2026-01-02 01:44:40.22	198.58	6.38	-41.2	-42.6	19.7	0.00e+00	0	39	0	93323264	56	6167
2026-01-02 01:44:41.23	198.65	6.45	-41.1	-42.5	19.7	0.00e+00	0	39	0	95420416	56	6049
2026-01-02 01:44:42.24	198.72	6.52	-41.0	-42.4	19.8	0.00e+00	0	39	0	97517568	56	5984
2026-01-02 01:44:43.25	198.79	6.59	-41.2	-42.5	19.7	0.00e+00	0	39	0	98566144	56	6100
2026-01-02 01:44:44.26	198.87	6.66	-41.0	-42.4	19.9	0.00e+00	0	39	0	100663296	56	5993
2026-01-02 01:44:45.26	198.94	6.73	-40.9	-42.2	20.0	0.00e+00	0	39	0	102760448	56	5877
2026-01-02 01:44:46.27	199.01	6.80	-40.9	-42.2	20.1	0.00e+00	0	39	0	104857600	56	5845
2026-01-02 01:44:47.28	199.08	6.87	-41.0	-42.4	19.9	0.00e+00	0	39	0	106954752	56	5997
2026-01-02 01:44:48.29	199.15	6.94	-40.7	-42.0	20.2	0.00e+00	0	39	0	108003328	54	6395
2026-01-02 01:44:49.30	199.22	7.01	-40.6	-41.9	20.3	0.00e+00	0	39	0	110100480	54	6343
2026-01-02 01:44:50.31	199.30	7.08	-40.7	-42.0	20.3	0.00e+00	0	39	0	112197632	54	6414
2026-01-02 01:44:51.32	199.37	7.15	-40.7	-42.0	20.2	0.00e+00	0	39	0	114294784	54	6449
2026-01-02 01:44:52.33	199.44	7.22	-40.7	-42.0	20.3	0.00e+00	0	39	0	116391936	54	6417
2026-01-02 01:44:53.34	199.52	7.29	-40.9	-42.2	20.1	0.00e+00	0	39	0	117440512	54	6566
2026-01-02 01:44:54.35	199.59	7.36	-40.9	-42.3	20.0	0.00e+00	0	39	0	119537664	54	6650
2026-01-02 01:44:55.36	199.67	7.43	-40.7	-42.0	20.1	0.00e+00	0	39	0	121634816	54	6442
2026-01-02 01:44:56.37	199.74	7.50	-40.8	-42.2	20.1	0.00e+00	0	39	0	123731968	54	6559
2026-01-02 01:44:57.38	199.82	7.58	-40.8	-42.1	19.9	0.00e+00	0	39	0	125829120	54	6535
2026-01-02 01:44:58.38	199.89	7.65	-40.9	-42.2	20.1	0.00e+00	0	39	0	126877696	54	6580
2026-01-02 01:44:59.39	199.97	7.72	-40.8	-42.1	20.1	0.00e+00	0	39	0	128974848	54	6527
2026-01-02 01:45:00.40	200.04	7.79	-40.8	-42.1	20.1	0.00e+00	0	39	0	131072000	54	6527
2026-01-02 01:45:01.41	200.12	7.86	-40.9	-42.2	20.1	0.00e+00	0	39	0	133169152	54	6588
2026-01-02 01:45:02.42	200.20	7.93	-40.8	-42.1	20.2	0.00e+00	0	39	0	135266304	54	6489
2026-01-02 01:45:03.43	200.27	8.01	-41.0	-42.4	20.0	0.00e+00	0	39	0	136314880	54	6703
2026-01-02 01:45:04.44	200.35	8.08	-40.8	-42.1	20.2	0.00e+00	0	39	0	138412032	54	6485
2026-01-02 01:45:05.45	200.43	8.15	-40.6	-41.9	20.3	0.00e+00	0	39	0	140509184	54	6380
2026-01-02 01:45:06.46	200.51	8.22	-40.7	-42.0	20.2	0.00e+00	0	39	0	142606336	54	6450
2026-01-02 01:45:07.47	200.59	8.30	-40.7	-42.0	20.2	0.00e+00	0	39	0	144703488	54	6463
2026-01-02 01:45:08.48	200.67	8.37	-40.7	-42.1	20.2	0.00e+00	0	39	0	145752064	54	6478
2026-01-02 01:45:09.49	200.75	8.44	-40.6	-41.9	20.5	0.00e+00	0	39	0	147849216	54	6320
2026-01-02 01:45:10.49	200.82	8.52	-40.7	-42.0	20.3	0.00e+00	0	39	0	149946368	54	6391
2026-01-02 01:45:11.50	200.91	8.59	-40.6	-41.9	20.4	0.00e+00	0	39	0	152043520	54	6332
2026-01-02 01:45:12.51	200.99	8.66	-40.2	-41.5	20.7	0.00e+00	0	39	0	154140672	54	6040
2026-01-02 01:45:13.52	201.07	8.74	-40.6	-41.8	20.5	0.00e+00	0	39	0	155189248	54	6308
2026-01-02 01:45:14.53	201.15	8.81	-40.5	-41.7	20.6	0.00e+00	0	39	0	157286400	54	6236
2026-01-02 01:45:15.54	201.23	8.89	-40.4	-41.7	20.7	0.00e+00	0	39	0	159383552	54	6203
2026-01-02 01:45:16.55	201.31	8.96	-40.3	-41.6	20.7	0.00e+00	0	39	0	161480704	54	6117
2026-01-02 01:45:17.56	201.40	9.04	-40.1	-41.3	21.1	0.00e+00	0	39	0	163577856	54	5910
2026-01-02 01:45:18.57	201.48	9.11	-40.1	-41.3	21.0	0.00e+00	0	39	0	165675008	54	5907
2026-01-02 01:45:19.58	201.56	9.19	-40.0	-41.2	21.1	0.00e+00	0	39	0	166723584	54	5867
2026-01-02 01:45:20.59	201.65	9.26	-40.0	-41.1	21.2	0.00e+00	0	39	0	168820736	54	5815
2026-01-02 01:45:21.60	201.73	9.34	-39.8	-40.9	21.2	0.00e+00	0	39	0	170917888	52	6340
2026-01-02 01:45:22.61	201.82	9.41	-39.9	-41.0	21.3	0.00e+00	0	39	0	173015040	52	6453
2026-01-02 01:45:23.61	201.90	9.49	-39.8	-40.9	21.4	0.00e+00	0	39	0	175112192	52	6342
2026-01-02 01:45:24.62	201.99	9.56	-39.7	-40.8	21.5	0.00e+00	0	39	0	176160768	52	6312
2026-01-02 01:45:25.63	202.07	9.64	-39.8	-40.9	21.5	0.00e+00	0	39	0	178257920	52	6350
2026-01-02 01:45:26.64	202.16	9.72	-39.9	-41.0	21.3	0.00e+00	0	39	0	180355072	52	6457
2026-01-02 01:45:27.65	202.24	9.79	-39.7	-40.8	21.4	0.00e+00	0	39	0	182452224	52	6278
2026-01-02 01:45:28.65	202.33	9.87	-39.7	-40.8	21.4	0.00e+00	0	39	0	184549376	52	6297
2026-01-02 01:45:29.66	202.42	9.95	-39.5	-40.6	21.6	0.00e+00	0	39	0	185597952	52	6144
2026-01-02 01:45:30.67	202.51	10.02	-39.5	-40.6	21.7	0.00e+00	0	39	0	187695104	52	6117
2026-01-02 01:45:31.68	202.60	10.10	-39.6	-40.7	21.7	0.00e+00	0	39	0	189792256	52	6195
2026-01-02 01:45:32.69	202.68	10.18	-39.6	-40.6	21.6	0.00e+00	0	39	0	191889408	52	6172
2026-01-02 01:45:33.69	202.77	10.25	-39.6	-40.7	21.6	0.00e+00	0	39	0	193986560	52	6195
2026-01-02 01:45:34.70	202.86	10.33	-39.7	-40.8	21.5	0.00e+00	0	39	0	195035136	52	6268
2026-01-02 01:45:35.71	202.95	10.41	-39.7	-40.8	21.5	0.00e+00	0	39	0	197132288	52	6263
2026-01-02 01:45:36.72	203.04	10.49	-39.8	-40.9	21.5	0.00e+00	0	39	0	199229440	52	6374
2026-01-02 01:45:37.73	203.14	10.57	-39.9	-41.0	21.5	0.00e+00	0	39	0	201326592	52	6428
2026-01-02 01:45:38.74	203.23	10.65	-39.8	-41.0	21.4	0.00e+00	0	39	0	203423744	52	6393
2026-01-02 01:45:39.75	203.32	10.72	-39.7	-40.8	21.5	0.00e+00	0	39	0	204472320	52	6252
2026-01-02 01:45:40.76	203.41	10.80	-39.4	-40.5	21.7	0.00e+00	0	39	0	206569472	52	6089
2026-01-02 01:45:41.77	203.51	10.88	-39.6	-40.7	21.5	0.00e+00	0	39	0	208666624	52	6238
2026-01-02 01:45:42.78	203.60	10.96	-39.4	-40.4	21.8	0.00e+00	0	39	0	210763776	52	6021
2026-01-02 01:45:43.79	203.69	11.04	-39.3	-40.4	21.9	0.00e+00	0	39	0	212860928	52	5999
2026-01-02 01:45:44.80	203.79	11.12	-39.7	-40.8	21.5	0.00e+00	0	39	0	213909504	52	6294
2026-01-02 01:45:45.81	203.88	11.20	-39.5	-40.5	21.8	0.00e+00	0	39	0	216006656	52	6093
2026-01-02 01:45:46.82	203.98	11.28	-39.4	-40.5	21.8	0.00e+00	0	39	0	218103808	52	6089
2026-01-02 01:45:47.83	204.08	11.36	-39.7	-40.9	21.5	0.00e+00	0	39	0	220200960	52	6324
2026-01-02 01:45:48.84	204.17	11.44	-39.5	-40.6	21.7	0.00e+00	0	39	0	222298112	52	6155
2026-01-02 01:45:49.85	204.27	11.52	-39.5	-40.6	21.8	0.00e+00	0	39	0	223346688	52	6129
2026-01-02 01:45:50.86	204.37	11.60	-39.4	-40.4	21.8	0.00e+00	0	39	0	225443840	52	6027
2026-01-02 01:45:51.86	204.47	11.68	-39.3	-40.3	21.9	0.00e+00	0	39	0	227540992	52	5951
2026-01-02 01:45:52.87	204.56	11.77	-39.5	-40.6	21.8	0.00e+00	0	39	0	229638144	52	6162
2026-01-02 01:45:53.88	204.66	11.85	-39.1	-40.2	22.1	0.00e+00	0	39	0	231735296	52	5847
2026-01-02 01:45:54.89	204.76	11.93	-39.2	-40.3	21.9	0.00e+00	0	39	0	232783872	52	5908
2026-01-02 01:45:55.90	204.86	12.01	-39.2	-40.2	22.0	0.00e+00	0	39	0	234881024	52	5879
2026-01-02 01:45:56.91	204.96	12.09	-39.1	-40.1	22.2	0.00e+00	0	39	0	236978176	52	5791
2026-01-02 01:45:57.92	205.07	12.17	-38.9	-39.9	22.3	0.00e+00	0	39	0	239075328	52	5658
2026-01-02 01:45:58.93	205.17	12.26	-38.6	-39.6	22.6	0.00e+00	0	39	0	241172480	50	6153
2026-01-02 01:45:59.94	205.27	12.34	-38.8	-39.8	22.3	0.00e+00	0	39	0	242221056	50	6264
2026-01-02 01:46:00.95	205.37	12.42	-38.6	-39.6	22.5	0.00e+00	0	39	0	244318208	50	6132
2026-01-02 01:46:01.96	205.48	12.51	-38.6	-39.6	22.3	0.00e+00	0	39	0	246415360	50	6157
2026-01-02 01:46:02.97	205.58	12.59	-38.5	-39.4	22.7	0.00e+00	0	39	0	248512512	50	5999
2026-01-02 01:46:03.98	205.69	12.67	-38.4	-39.4	22.8	0.00e+00	0	39	0	250609664	50	5968
2026-01-02 01:46:04.99	205.79	12.76	-38.5	-39.5	22.7	0.00e+00	0	39	0	251658240	50	6048
2026-01-02 01:46:06.00	205.90	12.84	-38.5	-39.4	22.8	0.00e+00	0	39	0	253755392	50	6003
2026-01-02 01:46:07.01	206.00	12.92	-38.4	-39.3	22.8	0.00e+00	0	39	0	255852544	50	5952
2026-01-02 01:46:08.02	206.11	13.01	-38.3	-39.3	22.9	0.00e+00	0	39	0	257949696	50	5911
2026-01-02 01:46:09.03	206.22	13.09	-38.3	-39.3	22.8	0.00e+00	0	39	0	260046848	50	5904
2026-01-02 01:46:10.04	206.33	13.18	-38.5	-39.5	22.6	0.00e+00	0	39	0	262144000	50	6038
2026-01-02 01:46:11.05	206.44	13.26	-38.3	-39.2	22.9	0.00e+00	0	39	0	263192576	50	5885
2026-01-02 01:46:12.06	206.55	13.35	-38.6	-39.5	22.6	0.00e+00	0	39	0	265289728	50	6098
2026-01-02 01:46:13.07	206.66	13.43	-38.5	-39.5	22.7	0.00e+00	0	39	0	267386880	50	6083
2026-01-02 01:46:14.08	206.77	13.52	-38.6	-39.6	22.7	0.00e+00	0	39	0	269484032	50	6144
2026-01-02 01:46:15.08	206.88	13.60	-38.6	-39.6	22.5	0.00e+00	0	39	0	271581184	50	6121
2026-01-02 01:46:16.09	206.99	13.69	-38.8	-39.8	22.4	0.00e+00	0	39	0	272629760	50	6305
2026-01-02 01:46:17.10	207.10	13.77	-38.9	-39.9	22.4	0.00e+00	0	39	0	274726912	50	6348
2026-01-02 01:46:18.11	207.22	13.86	-39.0	-40.0	22.2	0.00e+00	0	39	0	276824064	50	6450
2026-01-02 01:46:19.12	207.33	13.95	-39.1	-40.1	22.2	0.00e+00	0	39	0	278921216	50	6507
2026-01-02 01:46:20.13	207.44	14.03	-38.9	-39.9	22.3	0.00e+00	0	39	0	281018368	50	6377
2026-01-02 01:46:21.14	207.56	14.12	-38.9	-39.9	22.4	0.00e+00	0	39	0	282066944	50	6338
2026-01-02 01:46:22.14	207.67	14.21	-38.7	-39.7	22.6	0.00e+00	0	39	0	284164096	50	6229
2026-01-02 01:46:23.15	207.79	14.29	-38.7	-39.7	22.6	0.00e+00	0	39	0	286261248	50	6179
2026-01-02 01:46:24.16	207.91	14.38	-38.4	-39.4	22.8	0.00e+00	0	39	0	288358400	50	5984
2026-01-02 01:46:25.17	208.02	14.47	-38.5	-39.4	22.8	0.00e+00	0	39	0	290455552	50	6029
2026-01-02 01:46:26.18	208.14	14.56	-38.5	-39.5	22.8	0.00e+00	0	39	0	291504128	50	6063
2026-01-02 01:46:27.19	208.26	14.65	-38.6	-39.5	22.7	0.00e+00	0	39	0	293601280	50	6102
2026-01-02 01:46:28.20	208.38	14.73	-38.6	-39.5	22.8	0.00e+00	0	39	0	295698432	50	6087
2026-01-02 01:46:29.21	208.50	14.82	-38.1	-39.0	23.1	0.00e+00	0	39	0	297795584	50	5735
2026-01-02 01:46:30.22	208.62	14.91	-38.3	-39.3	22.8	0.00e+00	0	39	0	299892736	50	5897
2026-01-02 01:46:31.23	208.75	15.00	-38.6	-39.5	22.8	0.00e+00	0	39	0	300941312	50	6102
2026-01-02 01:46:32.24	208.87	15.09	-38.3	-39.2	23.0	0.00e+00	0	39	0	303038464	50	5883
2026-01-02 01:46:33.25	208.99	15.18	-38.5	-39.4	22.7	0.00e+00	0	39	0	305135616	50	6029
2026-01-02 01:46:34.26	209.12	15.27	-38.5	-39.5	22.7	0.00e+00	0	39	0	307232768	50	6075
2026-01-02 01:46:35.27	209.24	15.36	-38.5	-39.5	22.7	0.00e+00	0	39	0	309329920	50	6061
2026-01-02 01:46:36.28	209.37	15.45	-38.5	-39.5	22.8	0.00e+00	0	39	0	310378496	50	6072
2026-01-02 01:46:37.29	209.49	15.54	-38.5	-39.5	22.8	0.00e+00	0	39	0	312475648	50	6080
2026-01-02 01:46:38.30	209.62	15.63	-38.8	-39.8	22.5	0.00e+00	0	39	0	314572800	50	6271
2026-01-02 01:46:39.30	209.75	15.72	-38.7	-39.7	22.5	0.00e+00	0	39	0	316669952	50	6226
2026-01-02 01:46:40.31	209.87	15.81	-38.9	-39.9	22.3	0.00e+00	0	39	0	318767104	50	6348
2026-01-02 01:46:41.32	210.00	15.90	-38.8	-39.8	22.4	0.00e+00	0	39	0	319815680	50	6317
2026-01-02 01:46:42.33	210.13	15.99	-38.9	-40.0	22.4	0.00e+00	0	39	0	321912832	50	6399
2026-01-02 01:46:43.34	210.26	16.08	-39.1	-40.2	22.1	0.00e+00	0	39	0	324009984	50	6560
2026-01-02 01:46:44.35	210.39	16.18	-39.0	-40.0	22.3	0.00e+00	0	39	0	326107136	50	6427
2026-01-02 01:46:45.36	210.53	16.27	-39.2	-40.3	22.1	0.00e+00	0	39	0	328204288	50	6630
2026-01-02 01:46:46.37	210.66	16.36	-39.1	-40.1	22.3	0.00e+00	0	39	0	330301440	50	6523
2026-01-02 01:46:47.38	210.79	16.45	-39.0	-40.0	22.3	0.00e+00	0	39	0	331350016	50	6406
2026-01-02 01:46:48.39	210.93	16.54	-38.9	-39.9	22.5	0.00e+00	0	39	0	333447168	50	6377
2026-01-02 01:46:49.40	211.06	16.64	-38.9	-39.9	22.4	0.00e+00	0	39	0	335544320	50	6363
2026-01-02 01:46:50.41	211.20	16.73	-39.1	-40.1	22.3	0.00e+00	0	39	0	337641472	50	6480
2026-01-02 01:46:51.42	211.34	16.82	-38.7	-39.6	22.7	0.00e+00	0	39	0	339738624	50	6168
2026-01-02 01:46:52.43	211.48	16.92	-39.1	-40.1	22.4	0.00e+00	0	39	0	340787200	50	6493
2026-01-02 01:46:53.44	211.61	17.01	-38.9	-39.9	22.5	0.00e+00	0	39	0	342884352	50	6323
2026-01-02 01:46:54.44	211.75	17.10	-38.9	-39.9	22.4	0.00e+00	0	39	0	344981504	50	6325
2026-01-02 01:46:55.45	211.89	17.20	-39.1	-40.1	22.3	0.00e+00	0	39	0	347078656	50	6500
2026-01-02 01:46:56.46	212.03	17.29	-39.2	-40.3	22.2	0.00e+00	0	39	0	349175808	50	6619
2026-01-02 01:46:57.47	212.18	17.38	-39.1	-40.1	22.2	0.00e+00	0	39	0	350224384	50	6528
2026-01-02 01:46:58.48	212.32	17.48	-39.3	-40.4	22.0	0.00e+00	0	39	0	352321536	50	6700
2026-01-02 01:46:59.49	212.46	17.57	-39.5	-40.6	22.0	0.00e+00	0	39	0	354418688	50	6857
2026-01-02 01:47:00.50	212.61	17.67	-39.6	-40.6	21.7	0.00e+00	0	39	0	356515840	50	6925
2026-01-02 01:47:01.51	212.75	17.76	-39.6	-40.6	21.8	0.00e+00	0	39	0	358612992	50	6923
2026-01-02 01:47:02.52	212.90	17.86	-39.7	-40.8	21.6	0.00e+00	0	39	0	359661568	50	7016
2026-01-02 01:47:03.53	213.05	17.95	-39.3	-40.3	22.1	0.00e+00	0	39	0	361758720	50	6690
2026-01-02 01:47:04.54	213.20	18.05	-39.2	-40.2	22.1	0.00e+00	0	39	0	363855872	50	6561
2026-01-02 01:47:05.55	213.34	18.15	-39.1	-40.1	22.3	0.00e+00	0	39	0	365953024	50	6509
2026-01-02 01:47:06.56	213.49	18.24	-39.0	-40.0	22.3	0.00e+00	0	39	0	368050176	50	6459
2026-01-02 01:47:07.57	213.65	18.34	-39.3	-40.3	22.1	0.00e+00	0	39	0	369098752	50	6679
2026-01-02 01:47:08.58	213.80	18.43	-39.1	-40.1	22.3	0.00e+00	0	39	0	371195904	50	6511
2026-01-02 01:47:09.59	213.95	18.53	-39.1	-40.2	22.2	0.00e+00	0	39	0	373293056	50	6549
2026-01-02 01:47:10.60	214.10	18.63	-39.3	-40.3	22.1	0.00e+00	0	39	0	375390208	50	6669
2026-01-02 01:47:11.61	214.26	18.72	-39.5	-40.5	21.9	0.00e+00	0	39	0	377487360	50	6838
2026-01-02 01:47:12.62	214.41	18.82	-39.5	-40.5	22.0	0.00e+00	0	39	0	378535936	50	6818
2026-01-02 01:47:13.63	214.57	18.92	-39.5	-40.6	22.0	0.00e+00	0	39	0	380633088	50	6863
2026-01-02 01:47:14.64	214.73	19.02	-39.3	-40.4	22.2	0.00e+00	0	39	0	382730240	50	6704
2026-01-02 01:47:15.65	214.89	19.11	-39.3	-40.3	22.1	0.00e+00	0	39	0	384827392	50	6654
2026-01-02 01:47:16.66	215.05	19.21	-39.2	-40.2	22.3	0.00e+00	0	39	0	386924544	50	6610
2026-01-02 01:47:17.67	215.21	19.31	-39.5	-40.5	22.1	0.00e+00	0	39	0	387973120	50	6822
2026-01-02 01:47:18.67	215.37	19.41	-39.4	-40.4	22.0	0.00e+00	0	39	0	390070272	50	6768
2026-01-02 01:47:19.68	215.53	19.51	-39.4	-40.5	21.9	0.00e+00	0	39	0	392167424	50	6798
2026-01-02 01:47:20.70	215.70	19.61	-39.5	-40.5	22.0	0.00e+00	0	39	0	394264576	50	6821
2026-01-02 01:47:21.70	215.86	19.70	-39.6	-40.7	21.7	0.00e+00	0	39	0	396361728	50	6975
2026-01-02 01:47:22.71	216.02	19.80	-39.7	-40.8	21.8	0.00e+00	0	39	0	398458880	50	7020
2026-01-02 01:47:23.72	216.19	19.90	-39.6	-40.7	21.8	0.00e+00	0	39	0	399507456	52	6235
2026-01-02 01:47:24.73	216.36	20.00	-39.7	-40.9	21.6	0.00e+00	0	39	0	401604608	52	6319
2026-01-02 01:47:25.74	216.53	20.10	-39.8	-40.9	21.7	0.00e+00	0	39	0	403701760	52	6332
2026-01-02 01:47:26.75	216.70	20.20	-39.4	-40.4	22.2	0.00e+00	0	39	0	405798912	52	6018
2026-01-02 01:47:27.76	216.87	20.30	-39.1	-40.1	22.2	0.00e+00	0	39	0	407896064	52	5821
2026-01-02 01:47:28.77	217.04	20.40	-38.9	-39.9	22.4	0.00e+00	0	39	0	408944640	52	5694
2026-01-02 01:47:29.78	217.21	20.50	-38.7	-39.7	22.5	0.00e+00	0	39	0	411041792	50	6217
2026-01-02 01:47:30.79	217.39	20.60	-38.4	-39.3	22.8	0.00e+00	0	39	0	413138944	50	5964
2026-01-02 01:47:31.80	217.56	20.70	-38.2	-39.1	23.0	0.00e+00	0	39	0	415236096	50	5794
2026-01-02 01:47:32.81	217.74	20.80	-38.2	-39.1	23.0	0.00e+00	0	39	0	417333248	50	5795
2026-01-02 01:47:33.82	217.92	20.90	-38.3	-39.3	22.8	0.00e+00	0	39	0	418381824	50	5924
2026-01-02 01:47:34.83	218.10	21.00	-38.3	-39.3	23.0	0.00e+00	0	39	0	420478976	50	5927
2026-01-02 01:47:35.84	218.28	21.10	-38.4	-39.3	23.0	0.00e+00	0	39	0	422576128	50	5942
2026-01-02 01:47:36.85	218.46	21.20	-38.4	-39.4	22.9	0.00e+00	0	39	0	424673280	50	5970
2026-01-02 01:47:37.86	218.64	21.30	-38.3	-39.2	22.9	0.00e+00	0	39	0	426770432	50	5865
2026-01-02 01:47:38.87	218.82	21.40	-38.0	-38.9	23.2	0.00e+00	0	39	0	427819008	50	5664
2026-01-02 01:47:39.88	219.01	21.50	-38.0	-38.9	23.2	0.00e+00	0	39	0	429916160	50	5655
2026-01-02 01:47:40.89	219.19	21.61	-37.8	-38.7	23.2	0.00e+00	0	39	0	432013312	50	5535
2026-01-02 01:47:41.90	219.38	21.71	-37.3	-38.2	22.8	0.00e+00	0	39	0	434110464	48	5856
2026-01-02 01:47:42.90	219.57	21.81	-37.2	-38.1	23.8	0.00e+00	0	39	0	436207616	48	5796
2026-01-02 01:47:43.91	219.76	21.91	-37.1	-37.9	24.0	0.00e+00	0	39	0	437256192	48	5682
2026-01-02 01:47:44.92	219.95	22.01	-36.9	-37.8	24.1	0.00e+00	0	39	0	439353344	48	5587
2026-01-02 01:47:45.93	220.14	22.11	-36.9	-37.8	24.2	0.00e+00	0	39	0	441450496	48	5580
2026-01-02 01:47:46.94	220.33	22.21	-37.1	-37.9	24.0	0.00e+00	0	39	0	443547648	48	5692
2026-01-02 01:47:47.95	220.52	22.32	-36.8	-37.7	24.2	0.00e+00	0	39	0	445644800	48	5514
2026-01-02 01:47:48.96	220.72	22.42	-37.0	-37.9	24.0	0.00e+00	0	39	0	446693376	48	5632
2026-01-02 01:47:49.97	220.92	22.52	-37.0	-37.9	24.0	0.00e+00	0	39	0	448790528	48	5663
2026-01-02 01:47:50.98	221.11	22.62	-36.9	-37.8	24.1	0.00e+00	0	39	0	450887680	48	5585
2026-01-02 01:47:51.99	221.31	22.72	-37.2	-38.0	23.9	0.00e+00	0	39	0	452984832	48	5757
2026-01-02 01:47:53.00	221.51	22.83	-37.3	-38.2	23.8	0.00e+00	0	39	0	455081984	48	5851
2026-01-02 01:47:54.01	221.72	22.93	-37.3	-38.2	23.8	0.00e+00	0	39	0	456130560	48	5832
2026-01-02 01:47:55.02	221.92	23.03	-37.3	-38.2	23.8	0.00e+00	0	39	0	458227712	48	5847
2026-01-02 01:47:56.03	222.12	23.13	-37.2	-38.0	23.9	0.00e+00	0	39	0	460324864	48	5753
2026-01-02 01:47:57.04	222.33	23.24	-37.1	-38.0	23.9	0.00e+00	0	39	0	462422016	48	5738
2026-01-02 01:47:58.05	222.54	23.34	-37.1	-37.9	23.9	0.00e+00	0	39	0	464519168	48	5691
2026-01-02 01:47:59.06	222.74	23.44	-37.0	-37.8	24.1	0.00e+00	0	39	0	466616320	48	5617
2026-01-02 01:48:00.07	222.95	23.54	-37.1	-37.9	24.0	0.00e+00	0	39	0	467664896	48	5681
2026-01-02 01:48:01.07	223.16	23.64	-37.1	-37.9	24.0	0.00e+00	0	39	0	469762048	48	5694
2026-01-02 01:48:02.08	223.37	23.75	-36.8	-37.6	24.1	0.00e+00	0	39	0	471859200	48	5497
2026-01-02 01:48:03.09	223.59	23.85	-36.8	-37.6	24.3	0.00e+00	0	39	0	473956352	46	6148
2026-01-02 01:48:04.10	223.80	23.95	-36.8	-37.6	24.2	0.00e+00	0	39	0	476053504	46	6157
2026-01-02 01:48:05.11	224.02	24.05	-36.7	-37.5	24.4	0.00e+00	0	39	0	477102080	46	6076
2026-01-02 01:48:06.12	224.24	24.16	-36.6	-37.4	24.5	0.00e+00	0	39	0	479199232	46	6009
2026-01-02 01:48:07.13	224.46	24.26	-36.5	-37.3	24.5	0.00e+00	0	39	0	481296384	46	5910
2026-01-02 01:48:08.14	224.68	24.36	-36.4	-37.2	24.6	0.00e+00	0	39	0	483393536	46	5858
2026-01-02 01:48:09.15	224.90	24.46	-36.5	-37.4	24.4	0.00e+00	0	39	0	484442112	46	5966
2026-01-02 01:48:10.16	225.12	24.57	-36.5	-37.3	24.6	0.00e+00	0	39	0	486539264	46	5943
2026-01-02 01:48:11.17	225.35	24.67	-36.9	-37.7	24.2	0.00e+00	0	39	0	488636416	46	6231
2026-01-02 01:48:12.18	225.57	24.77	-37.0	-37.8	24.0	0.00e+00	0	39	0	490733568	46	6291
2026-01-02 01:48:13.19	225.80	24.87	-37.0	-37.8	24.1	0.00e+00	0	39	0	492830720	46	6296
2026-01-02 01:48:14.20	226.03	24.98	-37.1	-37.9	24.1	0.00e+00	0	39	0	494927872	46	6367
2026-01-02 01:48:15.21	226.26	25.08	-37.0	-37.9	24.1	0.00e+00	0	39	0	495976448	46	6321
2026-01-02 01:48:16.22	226.49	25.18	-37.1	-37.9	24.2	0.00e+00	0	39	0	498073600	46	6354
2026-01-02 01:48:17.22	226.72	25.28	-37.3	-38.1	24.0	0.00e+00	0	39	0	500170752	46	6530
2026-01-02 01:48:18.23	226.96	25.38	-36.9	-37.7	24.2	0.00e+00	0	39	0	502267904	46	6219
2026-01-02 01:48:19.24	227.19	25.48	-36.9	-37.7	24.2	0.00e+00	0	39	0	504365056	46	6230
2026-01-02 01:48:20.25	227.43	25.59	-37.0	-37.9	24.1	0.00e+00	0	39	0	505413632	46	6319
2026-01-02 01:48:21.26	227.67	25.69	-36.9	-37.7	24.2	0.00e+00	0	39	0	507510784	46	6199
2026-01-02 01:48:22.27	227.91	25.79	-36.9	-37.7	24.2	0.00e+00	0	39	0	509607936	46	6204
2026-01-02 01:48:23.28	228.16	25.89	-37.0	-37.8	24.1	0.00e+00	0	39	0	511705088	46	6306
2026-01-02 01:48:24.29	228.40	25.99	-37.2	-38.1	23.9	0.00e+00	0	39	0	513802240	46	6493
2026-01-02 01:48:25.30	228.64	26.09	-37.3	-38.1	23.9	0.00e+00	0	39	0	514850816	46	6507
2026-01-02 01:48:26.31	228.89	26.19	-37.3	-38.1	23.9	0.00e+00	0	39	0	516947968	46	6525
2026-01-02 01:48:27.32	229.14	26.29	-37.2	-38.0	24.1	0.00e+00	0	39	0	519045120	46	6459
2026-01-02 01:48:28.33	229.39	26.39	-37.4	-38.3	23.8	0.00e+00	0	39	0	521142272	46	6645
2026-01-02 01:48:29.34	229.64	26.49	-37.2	-38.1	23.9	0.00e+00	0	39	0	523239424	46	6492
2026-01-02 01:48:30.35	229.89	26.59	-37.3	-38.1	23.9	0.00e+00	0	39	0	524288000	46	6505
2026-01-02 01:48:31.36	230.15	26.69	-37.7	-38.6	23.6	0.00e+00	0	39	0	526385152	46	6854
2026-01-02 01:48:32.37	230.41	26.79	-38.0	-38.9	23.4	0.00e+00	0	39	0	528482304	48	6319
2026-01-02 01:48:33.38	230.66	26.89	-38.2	-39.2	23.2	0.00e+00	0	39	0	530579456	48	6558
2026-01-02 01:48:34.38	230.92	26.99	-38.4	-39.4	23.0	0.00e+00	0	39	0	532676608	48	6717
2026-01-02 01:48:35.39	231.18	27.09	-38.7	-39.6	22.7	0.00e+00	0	39	0	533725184	50	6161
2026-01-02 01:48:36.40	231.44	27.18	-38.7	-39.6	22.8	0.00e+00	0	39	0	535822336	50	6140
2026-01-02 01:48:37.41	231.71	27.28	-39.0	-40.0	22.5	0.00e+00	0	39	0	537919488	50	6429
2026-01-02 01:48:38.42	231.97	27.38	-39.1	-40.1	22.4	0.00e+00	0	39	0	540016640	50	6471
2026-01-02 01:48:39.43	232.24	27.48	-39.2	-40.2	22.3	0.00e+00	0	39	0	542113792	50	6558
2026-01-02 01:48:40.44	232.51	27.58	-39.0	-40.0	22.6	0.00e+00	0	39	0	543162368	50	6406
2026-01-02 01:48:41.45	232.78	27.67	-39.2	-40.2	22.3	0.00e+00	0	39	0	545259520	50	6571
2026-01-02 01:48:42.46	233.05	27.77	-39.3	-40.3	22.3	0.00e+00	0	39	0	547356672	50	6673
2026-01-02 01:48:43.47	233.33	27.86	-39.3	-40.3	22.3	0.00e+00	0	39	0	549453824	50	6676
2026-01-02 01:48:44.48	233.60	27.96	-39.6	-40.7	21.9	0.00e+00	0	39	0	551550976	50	6957
2026-01-02 01:48:45.49	233.88	28.06	-39.7	-40.8	21.7	0.00e+00	0	39	0	552599552	50	7041
2026-01-02 01:48:46.49	234.15	28.15	-39.7	-40.8	21.8	0.00e+00	0	39	0	554696704	52	6255
2026-01-02 01:48:47.50	234.43	28.24	-39.9	-41.0	21.7	0.00e+00	0	39	0	556793856	52	6443
2026-01-02 01:48:48.51	234.72	28.34	-40.2	-41.4	21.4	0.00e+00	0	39	0	558891008	52	6696
2026-01-02 01:48:49.52	235.00	28.43	-40.3	-41.5	21.3	0.00e+00	0	39	0	560988160	52	6780
2026-01-02 01:48:50.53	235.28	28.53	-40.5	-41.7	21.2	0.00e+00	0	39	0	563085312	52	6985
2026-01-02 01:48:51.54	235.57	28.62	-40.3	-41.4	21.3	0.00e+00	0	39	0	564133888	52	6734
2026-01-02 01:48:52.55	235.86	28.71	-40.7	-41.8	21.0	0.00e+00	0	39	0	566231040	54	6317
2026-01-02 01:48:53.56	236.15	28.80	-40.5	-41.7	21.1	0.00e+00	0	39	0	568328192	54	6234
2026-01-02 01:48:54.57	236.44	28.89	-40.5	-41.7	21.2	0.00e+00	0	39	0	570425344	54	6207
2026-01-02 01:48:55.58	236.73	28.99	-40.5	-41.7	21.0	0.00e+00	0	39	0	572522496	54	6231
2026-01-02 01:48:56.59	237.03	29.08	-41.0	-42.2	20.7	0.00e+00	0	39	0	573571072	54	6584
2026-01-02 01:48:57.60	237.32	29.17	-40.9	-42.1	20.7	0.00e+00	0	39	0	575668224	54	6527
2026-01-02 01:48:58.61	237.62	29.26	-40.8	-42.1	20.7	0.00e+00	0	39	0	577765376	54	6467
2026-01-02 01:48:59.62	237.92	29.34	-40.9	-42.1	20.7	0.00e+00	0	39	0	579862528	54	6512
2026-01-02 01:49:00.62	238.22	29.43	-41.2	-42.5	20.3	0.00e+00	0	39	0	581959680	54	6775
2026-01-02 01:49:01.64	238.53	29.52	-41.6	-43.0	19.8	0.00e+00	0	39	0	583008256	54	7225
2026-01-02 01:49:02.64	238.83	29.61	-42.2	-43.7	19.4	0.00e+00	0	39	0	585105408	56	6964
2026-01-02 01:49:03.66	239.14	29.69	-42.2	-43.7	19.5	0.00e+00	0	39	0	587202560	56	6981
2026-01-02 01:49:04.66	239.44	29.78	-41.9	-43.3	19.9	0.00e+00	0	39	0	589299712	56	6670
2026-01-02 01:49:05.67	239.75	29.87	-41.8	-43.2	20.0	0.00e+00	0	39	0	591396864	56	6603
2026-01-02 01:49:06.68	240.06	29.95	-41.4	-42.7	20.2	0.00e+00	0	39	0	592445440	56	6234
2026-01-02 01:49:07.69	240.37	30.03	-41.7	-43.1	20.0	0.00e+00	0	39	0	594542592	56	6472
2026-01-02 01:49:08.70	240.69	30.12	-41.6	-43.0	19.8	0.00e+00	0	39	0	596639744	56	6398
2026-01-02 01:49:09.71	241.00	30.20	-41.8	-43.2	19.8	0.00e+00	0	39	0	598736896	56	6551
2026-01-02 01:49:10.72	241.32	30.28	-42.0	-43.5	19.7	0.00e+00	0	39	0	600834048	56	6773
2026-01-02 01:49:11.73	241.64	30.36	-42.2	-43.7	19.3	0.00e+00	0	39	0	601882624	56	6980
2026-01-02 01:49:12.73	241.96	30.44	-42.4	-44.0	19.1	0.00e+00	0	39	0	603979776	56	7189
2026-01-02 01:49:13.74	242.28	30.52	-42.7	-44.3	18.7	0.00e+00	0	39	0	606076928	56	7507
2026-01-02 01:49:14.75	242.60	30.60	-42.6	-44.2	18.9	0.00e+00	0	39	0	608174080	58	6581
2026-01-02 01:49:15.76	242.93	30.68	-42.0	-43.5	19.6	0.00e+00	0	39	0	610271232	58	6067
2026-01-02 01:49:16.76	243.25	30.76	-41.2	-42.4	20.6	0.00e+00	0	39	0	611319808	56	6032
2026-01-02 01:49:17.77	243.58	30.83	-40.5	-41.7	21.1	0.00e+00	0	39	0	613416960	54	6204
2026-01-02 01:49:18.78	243.91	30.91	-40.7	-41.9	20.9	0.00e+00	0	39	0	615514112	54	6337
2026-01-02 01:49:19.79	244.24	30.98	-41.0	-42.3	20.6	0.00e+00	0	39	0	617611264	54	6631
2026-01-02 01:49:20.80	244.57	31.06	-41.0	-42.3	20.6	0.00e+00	0	39	0	619708416	54	6645
2026-01-02 01:49:21.81	244.90	31.13	-41.2	-42.5	20.2	0.00e+00	0	39	0	620756992	54	6839
2026-01-02 01:49:22.82	245.24	31.20	-41.6	-43.0	19.9	0.00e+00	0	39	0	622854144	54	7212
2026-01-02 01:49:23.83	245.58	31.27	-41.6	-43.0	20.1	0.00e+00	0	39	0	624951296	56	6395
2026-01-02 01:49:24.84	245.92	31.35	-41.1	-42.4	20.6	0.00e+00	0	39	0	627048448	56	5991
2026-01-02 01:49:25.85	246.26	31.42	-40.3	-41.4	21.3	0.00e+00	0	39	0	629145600	54	5981
2026-01-02 01:49:26.85	246.59	31.48	-39.8	-40.9	21.6	0.00e+00	0	39	0	630194176	54	5678
2026-01-02 01:49:27.86	246.94	31.55	-39.4	-40.4	22.1	0.00e+00	0	39	0	632291328	52	6029
2026-01-02 01:49:28.87	247.28	31.62	-39.3	-40.3	22.3	0.00e+00	0	39	0	634388480	52	5957
2026-01-02 01:49:29.88	247.63	31.68	-40.1	-41.2	21.6	0.00e+00	0	39	0	636485632	52	6551
2026-01-02 01:49:30.89	247.97	31.75	-40.8	-42.0	20.7	0.00e+00	0	39	0	638582784	52	7191
2026-01-02 01:49:31.90	248.32	31.81	-41.3	-42.6	20.2	0.00e+00	0	39	0	639631360	54	6912
2026-01-02 01:49:32.91	248.67	31.88	-41.6	-43.0	19.9	0.00e+00	0	39	0	641728512	54	7226
2026-01-02 01:49:33.92	249.02	31.94	-41.4	-42.6	20.4	0.00e+00	0	39	0	643825664	56	6151
2026-01-02 01:49:34.93	249.37	32.00	-41.0	-42.2	20.7	0.00e+00	0	39	0	645922816	56	5889
2026-01-02 01:49:35.94	249.73	32.06	-40.4	-41.5	21.2	0.00e+00	0	39	0	648019968	54	6059
2026-01-02 01:49:36.95	250.08	32.12	-40.4	-41.6	21.3	0.00e+00	0	39	0	649068544	54	6130
2026-01-02 01:49:37.96	250.44	32.17	-39.5	-40.6	22.1	0.00e+00	0	39	0	651165696	52	6111
2026-01-02 01:49:38.97	250.79	32.23	-39.4	-40.4	22.1	0.00e+00	0	39	0	653262848	52	5966
2026-01-02 01:49:39.98	251.15	32.29	-39.8	-40.8	21.9	0.00e+00	0	39	0	655360000	52	6315
2026-01-02 01:49:40.99	251.51	32.34	-40.2	-41.3	21.4	0.00e+00	0	39	0	657457152	52	6635
2026-01-02 01:49:41.99	251.87	32.39	-41.3	-42.6	20.3	0.00e+00	0	39	0	659554304	54	6905
2026-01-02 01:49:43.00	252.23	32.45	-42.0	-43.4	19.7	0.00e+00	0	39	0	660602880	56	6762
2026-01-02 01:49:44.01	252.59	32.50	-41.5	-42.8	20.2	0.00e+00	0	39	0	662700032	56	6280
2026-01-02 01:49:45.02	252.96	32.55	-41.1	-42.3	20.6	0.00e+00	0	39	0	664797184	56	5909
2026-01-02 01:49:46.03	253.32	32.59	-41.1	-42.4	20.6	0.00e+00	0	39	0	666894336	56	5975
2026-01-02 01:49:47.04	253.69	32.64	-41.1	-42.4	20.6	0.00e+00	0	39	0	668991488	56	5985
2026-01-02 01:49:48.05	254.06	32.69	-41.3	-42.6	20.4	0.00e+00	0	39	0	670040064	56	6138
2026-01-02 01:49:49.06	254.43	32.73	-41.0	-42.3	20.7	0.00e+00	0	39	0	672137216	56	5900
2026-01-02 01:49:50.07	254.79	32.78	-41.0	-42.2	20.8	0.00e+00	0	39	0	674234368	56	5868
2026-01-02 01:49:51.08	255.16	32.82	-41.1	-42.3	20.6	0.00e+00	0	39	0	676331520	56	5962
2026-01-02 01:49:52.09	255.54	32.86	-42.0	-43.3	19.7	0.00e+00	0	39	0	678428672	56	6674
2026-01-02 01:49:53.10	255.91	32.90	-43.0	-44.6	18.4	0.00e+00	0	39	0	679477248	58	6922
2026-01-02 01:49:54.11	256.28	32.94	-43.8	-45.8	17.5	0.00e+00	0	39	0	681574400	60	7040
2026-01-02 01:49:55.12	256.65	32.98	-43.9	-45.9	17.5	0.00e+00	0	39	0	683671552	60	7152
2026-01-02 01:49:56.13	257.03	33.01	-43.9	-45.8	17.5	0.00e+00	0	39	0	685768704	60	7076
2026-01-02 01:49:57.14	257.40	33.05	-42.9	-44.5	18.6	0.00e+00	0	39	0	687865856	60	6056
2026-01-02 01:49:58.15	257.78	33.08	-42.5	-44.1	18.9	0.00e+00	0	39	0	688914432	58	6495
2026-01-02 01:49:59.15	258.15	33.11	-41.8	-43.2	19.9	0.00e+00	0	39	0	691011584	58	5869
2026-01-02 01:50:00.16	258.53	33.14	-41.4	-42.7	20.4	0.00e+00	0	39	0	693108736	56	6194
2026-01-02 01:50:01.17	258.91	33.17	-40.8	-42.0	20.9	0.00e+00	0	39	0	695205888	56	5740
2026-01-02 01:50:02.18	259.29	33.20	-40.7	-41.8	21.0	0.00e+00	0	39	0	697303040	54	6310
2026-01-02 01:50:03.19	259.67	33.23	-40.6	-41.8	21.1	0.00e+00	0	39	0	698351616	54	6264
2026-01-02 01:50:04.20	260.05	33.25	-41.2	-42.5	20.3	0.00e+00	0	39	0	700448768	54	6795
2026-01-02 01:50:05.21	260.43	33.28	-41.5	-42.8	20.1	0.00e+00	0	39	0	702545920	54	7044
2026-01-02 01:50:06.21	260.81	33.30	-41.2	-42.5	20.4	0.00e+00	0	39	0	704643072	54	6772
2026-01-02 01:50:07.22	261.19	33.32	-41.2	-42.5	20.5	0.00e+00	0	39	0	706740224	54	6778
2026-01-02 01:50:08.24	261.57	33.34	-40.8	-41.9	20.9	0.00e+00	0	39	0	707788800	54	6379
2026-01-02 01:50:09.24	261.95	33.36	-40.8	-42.1	20.8	0.00e+00	0	39	0	709885952	54	6469
2026-01-02 01:50:10.25	262.34	33.38	-40.5	-41.6	21.2	0.00e+00	0	39	0	711983104	54	6152
2026-01-02 01:50:11.26	262.72	33.39	-40.5	-41.7	21.2	0.00e+00	0	39	0	714080256	54	6219
2026-01-02 01:50:12.27	263.10	33.41	-40.3	-41.4	21.4	0.00e+00	0	39	0	716177408	54	6020
2026-01-02 01:50:13.28	263.49	33.42	-40.4	-41.5	21.2	0.00e+00	0	39	0	717225984	54	6091
2026-01-02 01:50:14.28	263.87	33.43	-40.8	-42.0	20.9	0.00e+00	0	39	0	719323136	54	6397
2026-01-02 01:50:15.29	264.25	33.44	-41.3	-42.6	20.2	0.00e+00	0	39	0	721420288	54	6910
2026-01-02 01:50:16.30	264.64	33.45	-41.8	-43.2	19.8	0.00e+00	0	39	0	723517440	56	6596
2026-01-02 01:50:17.31	265.02	33.46	-42.0	-43.4	19.6	0.00e+00	0	39	0	725614592	56	6768
2026-01-02 01:50:18.32	265.41	33.47	-42.1	-43.6	19.5	0.00e+00	0	39	0	727711744	56	6895
2026-01-02 01:50:19.33	265.79	33.47	-42.0	-43.5	19.7	0.00e+00	0	39	0	728760320	56	6791
2026-01-02 01:50:20.34	266.18	33.47	-42.1	-43.5	19.7	0.00e+00	0	39	0	730857472	56	6808
2026-01-02 01:50:21.35	266.56	33.48	-41.7	-43.1	19.8	0.00e+00	0	39	0	732954624	56	6488
2026-01-02 01:50:22.36	266.95	33.48	-41.5	-42.8	20.2	0.00e+00	0	39	0	735051776	56	6304
2026-01-02 01:50:23.37	267.33	33.48	-41.3	-42.6	20.2	0.00e+00	0	39	0	737148928	56	6151
2026-01-02 01:50:24.38	267.72	33.47	-41.3	-42.6	20.4	0.00e+00	0	39	0	738197504	56	6143
2026-01-02 01:50:25.39	268.10	33.47	-41.1	-42.4	20.6	0.00e+00	0	39	0	740294656	56	5968
2026-01-02 01:50:26.39	268.49	33.46	-40.8	-42.0	20.5	0.00e+00	0	39	0	742391808	56	5704
2026-01-02 01:50:27.41	268.87	33.46	-40.4	-41.5	21.3	0.00e+00	0	39	0	744488960	54	6096
2026-01-02 01:50:28.41	269.26	33.45	-40.8	-42.0	21.0	0.00e+00	0	39	0	746586112	54	6439
2026-01-02 01:50:29.42	269.64	33.44	-41.1	-42.4	20.6	0.00e+00	0	39	0	747634688	54	6713
2026-01-02 01:50:30.43	270.02	33.43	-41.9	-43.3	19.7	0.00e+00	0	39	0	749731840	56	6633
2026-01-02 01:50:31.44	270.41	33.42	-42.1	-43.5	19.5	0.00e+00	0	39	0	751828992	56	6846
2026-01-02 01:50:32.45	270.79	33.40	-41.9	-43.3	19.4	0.00e+00	0	39	0	753926144	56	6643
2026-01-02 01:50:33.46	271.18	33.39	-41.5	-42.9	20.0	0.00e+00	0	39	0	756023296	56	6337
2026-01-02 01:50:34.47	271.56	33.37	-41.4	-42.7	20.2	0.00e+00	0	39	0	757071872	56	6182
2026-01-02 01:50:35.48	271.94	33.35	-41.0	-42.2	20.8	0.00e+00	0	39	0	759169024	56	5887
2026-01-02 01:50:36.49	272.32	33.34	-40.3	-41.4	21.3	0.00e+00	0	39	0	761266176	54	5989
2026-01-02 01:50:37.50	272.71	33.31	-40.0	-41.0	21.7	0.00e+00	0	39	0	763363328	54	5751
2026-01-02 01:50:38.51	273.09	33.29	-39.0	-40.0	22.5	0.00e+00	0	39	0	765460480	52	5704
2026-01-02 01:50:39.52	273.47	33.27	-38.8	-39.7	22.7	0.00e+00	0	39	0	766509056	50	6233
2026-01-02 01:50:40.53	273.85	33.24	-39.5	-40.5	22.0	0.00e+00	0	39	0	768606208	50	6848
2026-01-02 01:50:41.53	274.22	33.22	-40.3	-41.4	21.4	0.00e+00	0	39	0	770703360	52	6705
2026-01-02 01:50:42.54	274.60	33.19	-40.3	-41.4	21.2	0.00e+00	0	39	0	772800512	52	6742
2026-01-02 01:50:43.55	274.98	33.16	-40.4	-41.5	21.3	0.00e+00	0	39	0	774897664	52	6802
2026-01-02 01:50:44.56	275.36	33.13	-40.6	-41.8	21.0	0.00e+00	0	39	0	775946240	52	7008
2026-01-02 01:50:45.57	275.74	33.10	-41.0	-42.3	20.6	0.00e+00	0	39	0	778043392	54	6640
2026-01-02 01:50:46.58	276.11	33.07	-41.6	-43.0	20.0	0.00e+00	0	39	0	780140544	54	7219
2026-01-02 01:50:47.59	276.49	33.04	-41.4	-42.8	20.1	0.00e+00	0	39	0	782237696	54	7049
2026-01-02 01:50:48.60	276.86	33.00	-40.7	-41.9	20.9	0.00e+00	0	39	0	784334848	54	6359
2026-01-02 01:50:49.60	277.23	32.96	-40.2	-41.3	21.4	0.00e+00	0	39	0	785383424	54	5963
2026-01-02 01:50:50.61	277.61	32.93	-39.9	-41.0	21.7	0.00e+00	0	39	0	787480576	54	5743
2026-01-02 01:50:51.62	277.98	32.89	-39.7	-40.8	21.9	0.00e+00	0	39	0	789577728	52	6261
2026-01-02 01:50:52.63	278.35	32.85	-39.9	-41.0	21.6	0.00e+00	0	39	0	791674880	52	6410
2026-01-02 01:50:53.64	278.72	32.81	-40.0	-41.0	21.8	0.00e+00	0	39	0	793772032	52	6459
2026-01-02 01:50:54.65	279.09	32.76	-39.6	-40.7	21.9	0.00e+00	0	39	0	794820608	52	6211
2026-01-02 01:50:55.66	279.46	32.72	-39.5	-40.5	21.9	0.00e+00	0	39	0	796917760	52	6075
2026-01-02 01:50:56.67	279.82	32.67	-39.5	-40.5	22.2	0.00e+00	0	39	0	799014912	52	6088
2026-01-02 01:50:57.68	280.19	32.63	-39.5	-40.5	22.1	0.00e+00	0	39	0	801112064	52	6102
2026-01-02 01:50:58.69	280.56	32.58	-39.6	-40.6	22.0	0.00e+00	0	39	0	803209216	52	6155
2026-01-02 01:50:59.69	280.92	32.53	-39.3	-40.3	22.4	0.00e+00	0	39	0	804257792	52	5945
2026-01-02 01:51:00.70	281.28	32.48	-38.8	-39.7	22.9	0.00e+00	0	39	0	806354944	52	5546
2026-01-02 01:51:01.71	281.64	32.43	-38.6	-39.6	22.9	0.00e+00	0	39	0	808452096	50	6115
2026-01-02 01:51:02.72	282.00	32.38	-39.3	-40.3	22.2	0.00e+00	0	39	0	810549248	50	6661
2026-01-02 01:51:03.73	282.36	32.32	-40.4	-41.6	21.2	0.00e+00	0	39	0	812646400	52	6869
2026-01-02 01:51:04.73	282.72	32.27	-41.5	-42.9	19.9	0.00e+00	0	39	0	813694976	54	7102
2026-01-02 01:51:05.74	283.07	32.21	-41.0	-42.3	20.6	0.00e+00	0	39	0	815792128	54	6666
2026-01-02 01:51:06.75	283.43	32.16	-40.2	-41.3	21.5	0.00e+00	0	39	0	817889280	54	5921
2026-01-02 01:51:07.76	283.78	32.10	-39.6	-40.6	22.2	0.00e+00	0	39	0	819986432	52	6138
2026-01-02 01:51:08.77	284.14	32.04	-39.6	-40.7	21.9	0.00e+00	0	39	0	822083584	52	6192
2026-01-02 01:51:09.78	284.49	31.98	-39.6	-40.6	22.0	0.00e+00	0	39	0	824180736	52	6151
2026-01-02 01:51:10.79	284.84	31.92	-39.8	-40.8	22.0	0.00e+00	0	39	0	825229312	52	6306
2026-01-02 01:51:11.80	285.19	31.86	-39.4	-40.4	22.3	0.00e+00	0	39	0	827326464	52	6006
2026-01-02 01:51:12.81	285.54	31.80	-39.2	-40.2	22.4	0.00e+00	0	39	0	829423616	52	5831
2026-01-02 01:51:13.82	285.89	31.73	-38.9	-39.8	22.6	0.00e+00	0	39	0	831520768	50	6302
2026-01-02 01:51:14.83	286.23	31.67	-38.8	-39.7	22.8	0.00e+00	0	39	0	833617920	50	6222
2026-01-02 01:51:15.84	286.58	31.60	-39.1	-40.1	22.7	0.00e+00	0	39	0	834666496	50	6479
2026-01-02 01:51:16.84	286.92	31.53	-39.0	-40.0	22.5	0.00e+00	0	39	0	836763648	50	6443
2026-01-02 01:51:17.85	287.26	31.47	-39.5	-40.5	22.2	0.00e+00	0	39	0	838860800	50	6804
2026-01-02 01:51:18.86	287.60	31.40	-38.9	-39.9	22.6	0.00e+00	0	39	0	840957952	50	6335
2026-01-02 01:51:19.87	287.94	31.33	-39.0	-40.0	22.5	0.00e+00	0	39	0	843055104	50	6416
2026-01-02 01:51:20.88	288.27	31.26	-38.3	-39.2	23.0	0.00e+00	0	39	0	844103680	50	5881
2026-01-02 01:51:21.89	288.61	31.19	-38.5	-39.5	23.0	0.00e+00	0	39	0	846200832	50	6039
2026-01-02 01:51:22.90	288.94	31.11	-38.5	-39.5	22.8	0.00e+00	0	39	0	848297984	50	6052
2026-01-02 01:51:23.91	289.28	31.04	-38.6	-39.5	22.9	0.00e+00	0	39	0	850395136	50	6079
2026-01-02 01:51:24.92	289.61	30.97	-38.1	-39.0	23.4	0.00e+00	0	39	0	852492288	50	5726
2026-01-02 01:51:25.93	289.94	30.89	-37.7	-38.5	23.7	0.00e+00	0	39	0	853540864	48	6086
2026-01-02 01:51:26.93	290.26	30.82	-37.2	-38.1	23.9	0.00e+00	0	39	0	855638016	48	5787
2026-01-02 01:51:27.94	290.59	30.74	-37.7	-38.6	23.7	0.00e+00	0	39	0	857735168	48	6104
2026-01-02 01:51:28.95	290.91	30.66	-38.5	-39.4	22.8	0.00e+00	0	39	0	859832320	48	6759
2026-01-02 01:51:29.96	291.24	30.58	-38.8	-39.8	22.6	0.00e+00	0	39	0	861929472	50	6312
2026-01-02 01:51:30.97	291.56	30.50	-39.1	-40.1	22.3	0.00e+00	0	39	0	862978048	50	6505
2026-01-02 01:51:31.98	291.88	30.43	-38.5	-39.5	23.0	0.00e+00	0	39	0	865075200	50	6046
2026-01-02 01:51:32.99	292.20	30.34	-38.1	-39.0	23.3	0.00e+00	0	39	0	867172352	50	5722
2026-01-02 01:51:34.00	292.52	30.26	-37.7	-38.6	23.4	0.00e+00	0	39	0	869269504	50	5464
2026-01-02 01:51:35.01	292.83	30.18	-38.1	-39.1	23.2	0.00e+00	0	39	0	871366656	48	6465
2026-01-02 01:51:36.02	293.15	30.10	-38.7	-39.7	22.8	0.00e+00	0	39	0	872415232	50	6184
2026-01-02 01:51:37.03	293.46	30.02	-39.1	-40.1	22.4	0.00e+00	0	39	0	874512384	50	6495
2026-01-02 01:51:38.04	293.77	29.93	-39.0	-40.0	22.6	0.00e+00	0	39	0	876609536	50	6413
2026-01-02 01:51:39.05	294.08	29.85	-38.9	-39.8	22.7	0.00e+00	0	39	0	878706688	50	6313
2026-01-02 01:51:40.05	294.38	29.76	-38.2	-39.1	23.2	0.00e+00	0	39	0	880803840	50	5791
2026-01-02 01:51:41.07	294.69	29.68	-38.5	-39.4	23.0	0.00e+00	0	39	0	881852416	50	6004
2026-01-02 01:51:42.08	295.00	29.59	-38.4	-39.3	23.0	0.00e+00	0	39	0	883949568	50	5936
2026-01-02 01:51:43.08	295.30	29.50	-39.0	-40.0	22.6	0.00e+00	0	39	0	886046720	50	6415
2026-01-02 01:51:44.09	295.60	29.42	-39.4	-40.4	22.1	0.00e+00	0	39	0	888143872	50	6744
2026-01-02 01:51:45.10	295.90	29.33	-39.9	-41.0	21.8	0.00e+00	0	39	0	890241024	52	6410
2026-01-02 01:51:46.11	296.20	29.24	-39.6	-40.6	21.8	0.00e+00	0	39	0	892338176	52	6145
2026-01-02 01:51:47.12	296.49	29.15	-38.9	-39.8	22.6	0.00e+00	0	39	0	893386752	52	5616
2026-01-02 01:51:48.13	296.79	29.06	-38.6	-39.6	22.8	0.00e+00	0	39	0	895483904	50	6112
2026-01-02 01:51:49.13	297.08	28.97	-38.7	-39.7	22.7	0.00e+00	0	39	0	897581056	50	6183
2026-01-02 01:51:50.14	297.37	28.88	-39.2	-40.1	22.3	0.00e+00	0	39	0	899678208	50	6539
2026-01-02 01:51:51.15	297.66	28.79	-39.5	-40.5	21.9	0.00e+00	0	39	0	900726784	50	6847
2026-01-02 01:51:52.15	297.95	28.70	-40.2	-41.4	21.4	0.00e+00	0	39	0	902823936	52	6703
2026-01-02 01:51:53.16	298.23	28.61	-40.1	-41.2	21.5	0.00e+00	0	39	0	904921088	52	6577
2026-01-02 01:51:54.17	298.52	28.51	-40.3	-41.4	21.6	0.00e+00	0	39	0	907018240	52	6760
2026-01-02 01:51:55.18	298.80	28.42	-39.8	-40.8	21.8	0.00e+00	0	39	0	909115392	52	6306
2026-01-02 01:51:56.19	299.08	28.33	-39.6	-40.7	22.0	0.00e+00	0	39	0	910163968	52	6190
2026-01-02 01:51:57.20	299.36	28.23	-39.7	-40.8	21.9	0.00e+00	0	39	0	912261120	52	6282
2026-01-02 01:51:58.21	299.64	28.14	-39.7	-40.7	21.9	0.00e+00	0	39	0	914358272	52	6215
2026-01-02 01:51:59.21	299.92	28.05	-39.6	-40.6	22.1	0.00e+00	0	39	0	916455424	52	6171
2026-01-02 01:52:00.22	300.19	27.95	-39.7	-40.7	22.0	0.00e+00	0	39	0	918552576	52	6215
2026-01-02 01:52:01.23	300.47	27.86	-39.4	-40.4	22.3	0.00e+00	0	39	0	920649728	52	5995
2026-01-02 01:52:02.24	300.74	27.76	-39.7	-40.8	21.9	0.00e+00	0	39	0	921698304	52	6274
2026-01-02 01:52:03.25	301.01	27.66	-40.2	-41.3	21.4	0.00e+00	0	39	0	923795456	52	6656
2026-01-02 01:52:04.26	301.28	27.57	-40.6	-41.7	21.1	0.00e+00	0	39	0	925892608	52	7007
2026-01-02 01:52:05.27	301.55	27.47	-41.0	-42.2	20.5	0.00e+00	0	39	0	927989760	54	6574
2026-01-02 01:52:06.28	301.81	27.37	-41.5	-42.9	20.1	0.00e+00	0	39	0	930086912	54	7100
2026-01-02 01:52:07.29	302.08	27.28	-42.0	-43.5	19.7	0.00e+00	0	39	0	931135488	56	6772
2026-01-02 01:52:08.30	302.34	27.18	-41.4	-42.8	20.2	0.00e+00	0	39	0	933232640	56	6264
2026-01-02 01:52:09.31	302.60	27.08	-41.0	-42.3	20.6	0.00e+00	0	39	0	935329792	56	5938
2026-01-02 01:52:10.32	302.86	26.98	-40.9	-42.1	20.8	0.00e+00	0	39	0	937426944	56	5808
2026-01-02 01:52:11.33	303.12	26.89	-40.4	-41.5	21.2	0.00e+00	0	39	0	939524096	54	6057
2026-01-02 01:52:12.34	303.38	26.79	-40.4	-41.5	21.1	0.00e+00	0	39	0	940572672	54	6103
2026-01-02 01:52:13.34	303.63	26.69	-41.4	-42.8	20.2	0.00e+00	0	39	0	942669824	54	7011
2026-01-02 01:52:14.35	303.88	26.59	-42.4	-44.0	19.0	0.00e+00	0	39	0	944766976	56	7199
2026-01-02 01:52:15.36	304.13	26.49	-42.4	-44.0	19.0	0.00e+00	0	39	0	946864128	58	6444
2026-01-02 01:52:16.37	304.38	26.39	-42.5	-44.2	18.9	0.00e+00	0	39	0	948961280	58	6565
2026-01-02 01:52:17.38	304.63	26.29	-41.3	-42.6	20.2	0.00e+00	0	39	0	950009856	56	6138
2026-01-02 01:52:18.39	304.88	26.19	-40.2	-41.4	21.4	0.00e+00	0	39	0	952107008	54	5971
2026-01-02 01:52:19.40	305.13	26.09	-39.9	-40.9	21.4	0.00e+00	0	39	0	954204160	54	5675
2026-01-02 01:52:20.41	305.37	25.99	-40.2	-41.3	21.4	0.00e+00	0	39	0	956301312	52	6671
2026-01-02 01:52:21.42	305.61	25.89	-40.8	-42.0	20.8	0.00e+00	0	39	0	958398464	52	7215
2026-01-02 01:52:22.43	305.85	25.79	-41.5	-42.8	20.1	0.00e+00	0	39	0	959447040	54	7044
2026-01-02 01:52:23.44	306.09	25.69	-42.3	-43.8	19.3	0.00e+00	0	39	0	961544192	56	7010
2026-01-02 01:52:24.45	306.33	25.59	-41.7	-43.1	20.0	0.00e+00	0	39	0	963641344	56	6488
2026-01-02 01:52:25.45	306.57	25.49	-41.7	-43.1	19.9	0.00e+00	0	39	0	965738496	56	6477
2026-01-02 01:52:26.46	306.80	25.39	-42.0	-43.4	19.8	0.00e+00	0	39	0	967835648	56	6739
2026-01-02 01:52:27.47	307.04	25.29	-41.2	-42.5	20.3	0.00e+00	0	39	0	968884224	56	6082
2026-01-02 01:52:28.48	307.27	25.19	-41.1	-42.3	20.4	0.00e+00	0	39	0	970981376	56	5963
2026-01-02 01:52:29.49	307.50	25.08	-41.5	-42.8	20.1	0.00e+00	0	39	0	973078528	56	6295
2026-01-02 01:52:30.50	307.73	24.98	-42.1	-43.6	19.4	0.00e+00	0	39	0	975175680	56	6874
2026-01-02 01:52:31.51	307.96	24.88	-42.1	-43.6	19.5	0.00e+00	0	39	0	977272832	56	6873
2026-01-02 01:52:32.52	308.18	24.78	-41.8	-43.3	19.6	0.00e+00	0	39	0	978321408	56	6640
2026-01-02 01:52:33.53	308.41	24.68	-40.7	-41.9	20.9	0.00e+00	0	39	0	980418560	56	5688
2026-01-02 01:52:34.53	308.63	24.58	-40.3	-41.5	21.3	0.00e+00	0	39	0	982515712	54	6047
2026-01-02 01:52:35.54	308.85	24.48	-39.8	-40.9	21.7	0.00e+00	0	39	0	984612864	54	5661
2026-01-02 01:52:36.55	309.07	24.37	-40.3	-41.4	21.5	0.00e+00	0	39	0	986710016	54	5981
2026-01-02 01:52:37.56	309.29	24.27	-40.4	-41.6	21.1	0.00e+00	0	39	0	988807168	54	6106
2026-01-02 01:52:38.57	309.51	24.17	-40.7	-41.9	20.9	0.00e+00	0	39	0	989855744	54	6366
2026-01-02 01:52:39.58	309.73	24.07	-40.6	-41.8	21.0	0.00e+00	0	39	0	991952896	54	6266
2026-01-02 01:52:40.58	309.94	23.97	-40.1	-41.2	21.3	0.00e+00	0	39	0	994050048	54	5844
2026-01-02 01:52:41.60	310.16	23.86	-39.6	-40.6	21.9	0.00e+00	0	39	0	996147200	52	6169
2026-01-02 01:52:42.60	310.37	23.76	-39.3	-40.3	22.1	0.00e+00	0	39	0	998244352	52	5946
2026-01-02 01:52:43.61	310.58	23.66	-39.4	-40.4	22.2	0.00e+00	0	39	0	999292928	52	5986
2026-01-02 01:52:44.62	310.79	23.56	-39.8	-40.8	21.7	0.00e+00	0	39	0	1001390080	52	6306
2026-01-02 01:52:45.63	311.00	23.46	-40.2	-41.3	21.4	0.00e+00	0	39	0	1003487232	52	6673
2026-01-02 01:52:46.64	311.20	23.36	-41.0	-42.2	20.4	0.00e+00	0	39	0	1005584384	54	6594
2026-01-02 01:52:47.65	311.41	23.26	-40.9	-42.2	20.6	0.00e+00	0	39	0	1006632960	54	6555
2026-01-02 01:52:48.66	311.62	23.15	-40.6	-41.8	20.9	0.00e+00	0	39	0	1008730112	54	6312
2026-01-02 01:52:49.67	311.82	23.05	-40.4	-41.6	21.1	0.00e+00	0	39	0	1010827264	54	6168
2026-01-02 01:52:50.68	312.02	22.95	-40.8	-42.0	20.8	0.00e+00	0	39	0	1012924416	54	6445
2026-01-02 01:52:51.69	312.22	22.85	-40.3	-41.5	21.3	0.00e+00	0	39	0	1015021568	54	6052
2026-01-02 01:52:52.70	312.42	22.75	-40.0	-41.1	21.4	0.00e+00	0	39	0	1017118720	54	5780
2026-01-02 01:52:53.71	312.62	22.65	-40.3	-41.4	21.2	0.00e+00	0	39	0	1018167296	54	5996
2026-01-02 01:52:54.71	312.81	22.54	-40.5	-41.6	21.0	0.00e+00	0	39	0	1020264448	54	6172
2026-01-02 01:52:55.73	313.01	22.44	-41.2	-42.5	20.2	0.00e+00	0	39	0	1022361600	54	6836
2026-01-02 01:52:56.73	313.20	22.34	-40.9	-42.2	20.6	0.00e+00	0	39	0	1024458752	54	6540
2026-01-02 01:52:57.74	313.40	22.24	-40.9	-42.1	20.6	0.00e+00	0	39	0	1026555904	54	6514
2026-01-02 01:52:58.75	313.59	22.14	-40.5	-41.7	21.1	0.00e+00	0	39	0	1027604480	54	6201
2026-01-02 01:52:59.76	313.78	22.04	-39.4	-40.5	22.1	0.00e+00	0	39	0	1029701632	52	6043
2026-01-02 01:53:00.77	313.97	21.94	-39.0	-40.0	22.3	0.00e+00	0	39	0	1031798784	52	5725
2026-01-02 01:53:01.78	314.16	21.84	-39.2	-40.2	22.3	0.00e+00	0	39	0	1033895936	52	5850
2026-01-02 01:53:02.79	314.35	21.74	-38.8	-39.8	22.6	0.00e+00	0	39	0	1035993088	52	5579
2026-01-02 01:53:03.80	314.53	21.64	-38.9	-39.9	22.4	0.00e+00	0	39	0	1037041664	52	5690
2026-01-02 01:53:04.81	314.72	21.54	-39.1	-40.2	22.1	0.00e+00	0	39	0	1039138816	52	5857
2026-01-02 01:53:05.82	314.90	21.43	-39.2	-40.2	22.0	0.00e+00	0	39	0	1041235968	52	5893
2026-01-02 01:53:06.83	315.08	21.33	-39.2	-40.3	22.2	0.00e+00	0	39	0	1043333120	52	5906
2026-01-02 01:53:07.84	315.27	21.23	-38.9	-40.0	22.6	0.00e+00	0	39	0	1045430272	52	5696
2026-01-02 01:53:08.85	315.45	21.13	-38.5	-39.5	22.8	0.00e+00	0	39	0	1046478848	50	6048
2026-01-02 01:53:09.86	315.63	21.03	-38.3	-39.2	23.0	0.00e+00	0	39	0	1048576000	50	5869
2026-01-02 01:53:10.87	315.80	20.93	-38.0	-38.9	23.2	0.00e+00	0	39	0	1050673152	50	5673
2026-01-02 01:53:11.88	315.98	20.83	-38.0	-38.9	23.4	0.00e+00	0	39	0	1052770304	50	5631
2026-01-02 01:53:12.89	316.16	20.73	-38.1	-39.0	23.1	0.00e+00	0	39	0	1054867456	50	5715
2026-01-02 01:53:13.90	316.33	20.64	-38.1	-39.0	22.8	0.00e+00	0	39	0	1055916032	50	5756
2026-01-02 01:53:14.91	316.50	20.54	-38.3	-39.3	22.6	0.00e+00	0	39	0	1058013184	50	5919
2026-01-02 01:53:15.92	316.68	20.44	-38.9	-39.9	22.3	0.00e+00	0	39	0	1060110336	50	6354
2026-01-02 01:53:16.93	316.85	20.34	-39.0	-40.1	22.3	0.00e+00	0	39	0	1062207488	50	6466
2026-01-02 01:53:17.94	317.02	20.24	-39.0	-40.1	22.1	0.00e+00	0	39	0	1064304640	50	6489
2026-01-02 01:53:18.95	317.19	20.14	-39.0	-40.1	22.2	0.00e+00	0	39	0	1065353216	50	6496
2026-01-02 01:53:19.95	317.36	20.04	-39.2	-40.2	22.0	0.00e+00	0	39	0	1067450368	50	6574
2026-01-02 01:53:20.96	317.52	19.94	-38.9	-39.9	22.4	0.00e+00	0	39	0	1069547520	50	6356
2026-01-02 01:53:21.97	317.69	19.85	-38.6	-39.6	22.7	0.00e+00	0	39	0	1071644672	50	6143
2026-01-02 01:53:22.98	317.85	19.75	-38.5	-39.4	22.8	0.00e+00	0	39	0	1073741824	50	6013
2026-01-02 01:53:23.99	318.02	19.65	-38.5	-39.5	22.6	0.00e+00	0	39	0	1074790400	50	6059
2026-01-02 01:53:25.00	318.18	19.55	-38.5	-39.4	22.7	0.00e+00	0	39	0	1076887552	50	6024
2026-01-02 01:53:26.01	318.34	19.45	-38.4	-39.4	22.8	0.00e+00	0	39	0	1078984704	50	5965
2026-01-02 01:53:27.02	318.50	19.36	-38.1	-39.1	23.1	0.00e+00	0	39	0	1081081856	50	5772
2026-01-02 01:53:28.03	318.66	19.26	-38.2	-39.1	23.0	0.00e+00	0	39	0	1083179008	50	5800
2026-01-02 01:53:29.04	318.82	19.16	-38.2	-39.2	22.9	0.00e+00	0	39	0	1085276160	50	5838
2026-01-02 01:53:30.05	318.98	19.07	-38.3	-39.2	23.0	0.00e+00	0	39	0	1086324736	50	5895
2026-01-02 01:53:31.06	319.14	18.97	-38.1	-39.1	23.1	0.00e+00	0	39	0	1088421888	50	5764
2026-01-02 01:53:32.07	319.30	18.87	-38.0	-38.9	23.2	0.00e+00	0	39	0	1090519040	50	5643
2026-01-02 01:53:33.08	319.45	18.78	-37.9	-38.8	23.2	0.00e+00	0	39	0	1092616192	50	5588
2026-01-02 01:53:34.09	319.60	18.68	-37.7	-38.6	23.4	0.00e+00	0	39	0	1094713344	48	6140
2026-01-02 01:53:35.10	319.76	18.58	-37.6	-38.5	23.5	0.00e+00	0	39	0	1095761920	48	6098
2026-01-02 01:53:36.11	319.91	18.49	-37.6	-38.5	23.4	0.00e+00	0	39	0	1097859072	48	6075
2026-01-02 01:53:37.12	320.06	18.39	-37.7	-38.6	23.5	0.00e+00	0	39	0	1099956224	48	6161
2026-01-02 01:53:38.12	320.21	18.30	-37.7	-38.6	23.3	0.00e+00	0	39	0	1102053376	48	6169
2026-01-02 01:53:39.14	320.36	18.20	-37.7	-38.6	23.3	0.00e+00	0	39	0	1104150528	48	6158
2026-01-02 01:53:40.15	320.51	18.11	-38.0	-38.9	23.0	0.00e+00	0	39	0	1105199104	48	6364
2026-01-02 01:53:41.15	320.66	18.01	-38.3	-39.3	22.8	0.00e+00	0	39	0	1107296256	48	6627
2026-01-02 01:53:42.16	320.80	17.92	-38.3	-39.3	22.8	0.00e+00	0	39	0	1109393408	48	6648
2026-01-02 01:53:43.17	320.95	17.82	-38.6	-39.6	22.6	0.00e+00	0	39	0	1111490560	50	6166
2026-01-02 01:53:44.18	321.10	17.73	-38.5	-39.5	22.7	0.00e+00	0	39	0	1113587712	50	6035
2026-01-02 01:53:45.19	321.24	17.63	-38.2	-39.1	23.0	0.00e+00	0	39	0	1114636288	50	5823
2026-01-02 01:53:46.20	321.38	17.54	-37.9	-38.8	23.3	0.00e+00	0	39	0	1116733440	50	5618
2026-01-02 01:53:47.21	321.53	17.45	-37.3	-38.2	23.7	0.00e+00	0	39	0	1118830592	48	5856
2026-01-02 01:53:48.22	321.67	17.35	-37.2	-38.0	23.8	0.00e+00	0	39	0	1120927744	48	5751
2026-01-02 01:53:49.23	321.81	17.26	-36.8	-37.6	24.0	0.00e+00	0	39	0	1123024896	48	5484
2026-01-02 01:53:50.24	321.95	17.17	-36.7	-37.5	24.1	0.00e+00	0	39	0	1124073472	46	6081
2026-01-02 01:53:51.25	322.09	17.07	-37.1	-38.0	23.9	0.00e+00	0	39	0	1126170624	46	6416
2026-01-02 01:53:52.25	322.23	16.98	-37.2	-38.1	23.7	0.00e+00	0	39	0	1128267776	46	6470
2026-01-02 01:53:53.26	322.36	16.89	-37.6	-38.5	23.5	0.00e+00	0	39	0	1130364928	46	6771
2026-01-02 01:53:54.28	322.50	16.79	-38.0	-38.9	23.0	0.00e+00	0	39	0	1132462080	48	6351
2026-01-02 01:53:55.28	322.64	16.70	-38.4	-39.4	22.6	0.00e+00	0	39	0	1133510656	48	6740
2026-01-02 01:53:56.29	322.77	16.61	-38.7	-39.7	22.5	0.00e+00	0	39	0	1135607808	50	6196
2026-01-02 01:53:57.30	322.91	16.52	-38.8	-39.9	22.4	0.00e+00	0	39	0	1137704960	50	6331
2026-01-02 01:53:58.31	323.04	16.43	-39.2	-40.2	22.1	0.00e+00	0	39	0	1139802112	50	6588
2026-01-02 01:53:59.32	323.17	16.34	-38.9	-39.9	22.2	0.00e+00	0	39	0	1141899264	50	6350
2026-01-02 01:54:00.33	323.30	16.24	-39.0	-40.0	22.2	0.00e+00	0	39	0	1142947840	50	6449
2026-01-02 01:54:01.34	323.44	16.15	-38.9	-39.9	22.4	0.00e+00	0	39	0	1145044992	50	6380
2026-01-02 01:54:02.35	323.57	16.06	-38.6	-39.6	22.6	0.00e+00	0	39	0	1147142144	50	6160
2026-01-02 01:54:03.36	323.70	15.97	-38.6	-39.6	22.5	0.00e+00	0	39	0	1149239296	50	6156
2026-01-02 01:54:04.37	323.82	15.88	-38.3	-39.3	22.8	0.00e+00	0	39	0	1151336448	50	5943
2026-01-02 01:54:05.38	323.95	15.79	-38.4	-39.4	22.7	0.00e+00	0	39	0	1153433600	50	5979
2026-01-02 01:54:06.38	324.08	15.70	-38.3	-39.3	22.7	0.00e+00	0	39	0	1154482176	50	5908
2026-01-02 01:54:07.39	324.21	15.61	-38.5	-39.4	22.6	0.00e+00	0	39	0	1156579328	50	6011
2026-01-02 01:54:08.40	324.33	15.52	-38.5	-39.5	22.5	0.00e+00	0	39	0	1158676480	50	6082
2026-01-02 01:54:09.41	324.46	15.43	-38.6	-39.6	22.6	0.00e+00	0	39	0	1160773632	50	6123
2026-01-02 01:54:10.42	324.58	15.34	-38.7	-39.6	22.4	0.00e+00	0	39	0	1162870784	50	6171
2026-01-02 01:54:11.43	324.71	15.26	-38.9	-39.9	22.3	0.00e+00	0	39	0	1163919360	50	6337
2026-01-02 01:54:12.44	324.83	15.17	-38.9	-39.9	22.2	0.00e+00	0	39	0	1166016512	50	6389
2026-01-02 01:54:13.45	324.95	15.08	-39.1	-40.1	22.1	0.00e+00	0	39	0	1168113664	50	6535
2026-01-02 01:54:14.46	325.07	14.99	-39.1	-40.2	22.0	0.00e+00	0	39	0	1170210816	50	6566
2026-01-02 01:54:15.47	325.19	14.90	-39.4	-40.5	21.9	0.00e+00	0	39	0	1172307968	50	6829
2026-01-02 01:54:16.48	325.32	14.81	-39.7	-40.8	21.5	0.00e+00	0	39	0	1173356544	50	7067
2026-01-02 01:54:17.49	325.44	14.73	-39.5	-40.6	21.7	0.00e+00	0	39	0	1175453696	52	6145
2026-01-02 01:54:18.50	325.55	14.64	-39.6	-40.7	21.6	0.00e+00	0	39	0	1177550848	52	6193
2026-01-02 01:54:19.51	325.67	14.55	-39.7	-40.8	21.5	0.00e+00	0	39	0	1179648000	52	6293
2026-01-02 01:54:20.52	325.79	14.46	-39.7	-40.8	21.6	0.00e+00	0	39	0	1181745152	52	6263
2026-01-02 01:54:21.53	325.91	14.38	-39.8	-40.9	21.4	0.00e+00	0	39	0	1182793728	52	6347
2026-01-02 01:54:22.53	326.02	14.29	-39.8	-40.9	21.4	0.00e+00	0	39	0	1184890880	52	6390
2026-01-02 01:54:23.54	326.14	14.20	-39.9	-41.1	21.4	0.00e+00	0	39	0	1186988032	52	6477
2026-01-02 01:54:24.55	326.25	14.12	-40.4	-41.7	20.8	0.00e+00	0	39	0	1189085184	52	6931
2026-01-02 01:54:25.56	326.37	14.03	-40.3	-41.5	20.9	0.00e+00	0	39	0	1191182336	52	6832
2026-01-02 01:54:26.57	326.48	13.95	-40.3	-41.5	20.8	0.00e+00	0	39	0	1192230912	52	6829
2026-01-02 01:54:27.58	326.60	13.86	-40.1	-41.3	21.0	0.00e+00	0	39	0	1194328064	52	6654
2026-01-02 01:54:28.59	326.71	13.78	-39.7	-40.8	21.4	0.00e+00	0	39	0	1196425216	52	6316
2026-01-02 01:54:29.60	326.82	13.69	-39.6	-40.7	21.6	0.00e+00	0	39	0	1198522368	52	6211
2026-01-02 01:54:30.61	326.93	13.61	-39.4	-40.5	21.8	0.00e+00	0	39	0	1200619520	52	6085
2026-01-02 01:54:31.62	327.04	13.52	-39.3	-40.3	21.8	0.00e+00	0	39	0	1201668096	52	5954
