passes_logs/2026/01/02/R4.6S_Anadyr/R4.6S_Anadyr__20260102_113751_NOAA_21_JPSS-2_rec.log

#Pass ID: 20260102_113751_NOAA 21 (JPSS-2)
#Satellite: NOAA 21 (JPSS-2)
#Configuration: NOAA-21
#almurnet v.1.7.20251203
#Start time: 2026-01-02 11:37:55

#Version: 2.2.20231116
#Station: R4.6S_Anadyr
#Location: 177.4865 lon 64.73178 lat
#TLE: 1 54234U 22150A   26001.90243762  .00000172  00000+0  10253-3 0  9993
#TLE: 2 54234  98.7485 302.9615 0001242 351.7524   8.3631 14.19530907162956

#Time	Az	El	Level	Level2	SNR	BER	BlckErr	Temp	State	Recorded	gain1	gain2
2026-01-02 11:37:55.88	20.72	0.16	-49.4	-51.0	5.7	0.00e+00	0	36	0	0	60	43375
2026-01-02 11:37:56.88	20.81	0.20	-49.4	-62.3	3.5	1.52e+00	0	38	104	0	60	45735
2026-01-02 11:37:57.89	20.91	0.24	-49.4	-62.3	3.5	1.52e+00	0	38	104	0	60	45721
2026-01-02 11:37:58.90	21.00	0.28	-49.4	-62.3	3.5	1.52e+00	0	38	104	0	60	45818
2026-01-02 11:37:59.91	21.10	0.32	-49.4	-62.4	3.5	1.52e+00	0	38	104	0	60	46071
2026-01-02 11:38:00.92	21.19	0.36	-49.5	-62.3	3.5	1.52e+00	0	38	104	0	60	45616
2026-01-02 11:38:01.93	21.29	0.41	-49.5	-62.4	3.5	1.52e+00	0	38	104	0	60	46055
2026-01-02 11:38:02.94	21.39	0.45	-49.5	-62.3	3.5	1.52e+00	0	38	104	0	60	45993
2026-01-02 11:38:03.95	21.48	0.49	-49.5	-62.4	3.5	1.52e+00	0	38	104	0	60	46280
2026-01-02 11:38:04.96	21.58	0.53	-49.3	-62.3	3.5	1.51e+00	0	38	104	0	60	45780
2026-01-02 11:38:05.97	21.68	0.57	-49.4	-62.2	3.5	1.52e+00	0	38	104	0	60	45255
2026-01-02 11:38:06.98	21.78	0.61	-49.3	-62.2	3.5	1.51e+00	0	38	104	0	60	44979
2026-01-02 11:38:07.99	21.87	0.65	-49.1	-62.0	3.5	1.51e+00	0	38	104	0	60	44417
2026-01-02 11:38:09.00	21.97	0.69	-49.0	-61.9	3.5	1.52e+00	0	38	104	0	60	43612
2026-01-02 11:38:10.01	22.07	0.73	-48.9	-61.7	3.5	1.52e+00	0	38	104	0	60	42792
2026-01-02 11:38:11.02	22.17	0.77	-48.7	-61.6	3.5	1.52e+00	0	38	104	0	60	42003
2026-01-02 11:38:12.03	22.27	0.81	-48.4	-61.2	3.5	1.52e+00	0	38	104	0	60	40275
2026-01-02 11:38:13.04	22.37	0.85	-47.9	-60.7	3.5	1.51e+00	0	38	104	0	60	38004
2026-01-02 11:38:14.05	22.47	0.89	-47.8	-60.6	3.5	1.52e+00	0	38	104	0	60	37680
2026-01-02 11:38:15.06	22.57	0.94	-47.8	-60.6	3.5	1.51e+00	0	38	104	0	60	37784
2026-01-02 11:38:16.07	22.67	0.98	-47.8	-60.6	3.5	1.52e+00	0	38	104	0	60	37486
2026-01-02 11:38:17.08	22.77	1.02	-47.8	-60.6	3.5	1.52e+00	0	38	104	0	60	37479
2026-01-02 11:38:18.09	22.87	1.06	-47.8	-60.6	3.5	1.52e+00	0	38	104	0	60	37593
2026-01-02 11:38:19.10	22.97	1.10	-47.8	-60.6	3.5	1.52e+00	0	38	104	0	60	37454
2026-01-02 11:38:20.11	23.07	1.14	-47.8	-60.6	3.5	1.52e+00	0	38	104	0	60	37482
2026-01-02 11:38:21.12	23.17	1.18	-47.8	-60.7	3.5	1.52e+00	0	38	104	0	60	37852
2026-01-02 11:38:22.13	23.28	1.22	-47.8	-60.7	3.5	1.52e+00	0	38	104	0	60	37848
2026-01-02 11:38:23.14	23.38	1.26	-47.8	-60.6	3.5	1.52e+00	0	38	104	0	60	37636
2026-01-02 11:38:24.15	23.48	1.30	-47.8	-60.6	3.5	1.52e+00	0	38	104	0	60	37646
2026-01-02 11:38:25.16	23.58	1.34	-47.8	-60.6	3.6	1.52e+00	0	38	104	0	60	37594
2026-01-02 11:38:26.17	23.68	1.38	-47.8	-60.6	3.5	1.52e+00	0	38	104	0	60	37545
2026-01-02 11:38:27.18	23.79	1.42	-47.8	-60.6	3.5	1.52e+00	0	38	104	0	60	37669
2026-01-02 11:38:28.19	23.89	1.46	-47.8	-60.6	3.5	1.52e+00	0	38	104	0	60	37803
2026-01-02 11:38:29.20	23.99	1.50	-47.8	-60.6	3.5	1.52e+00	0	38	104	0	60	37539
2026-01-02 11:38:30.21	24.10	1.55	-47.8	-60.6	3.5	1.52e+00	0	39	104	0	60	37626
2026-01-02 11:38:31.22	24.20	1.59	-47.8	-60.6	3.5	1.52e+00	0	39	104	0	60	37588
2026-01-02 11:38:32.23	24.31	1.63	-47.8	-60.6	3.5	1.52e+00	0	38	104	0	60	37757
2026-01-02 11:38:33.24	24.41	1.67	-47.8	-60.6	3.5	1.52e+00	0	38	104	0	60	37638
2026-01-02 11:38:34.25	24.52	1.71	-47.8	-60.6	3.5	1.51e+00	0	39	104	0	60	37505
2026-01-02 11:38:35.26	24.62	1.75	-47.8	-60.6	3.5	1.52e+00	0	39	104	0	60	37485
2026-01-02 11:38:36.27	24.73	1.79	-47.8	-60.6	3.5	1.52e+00	0	38	104	0	60	37702
2026-01-02 11:38:37.28	24.83	1.83	-47.8	-60.6	3.5	1.52e+00	0	38	104	0	60	37650
2026-01-02 11:38:38.28	24.94	1.87	-47.8	-60.6	3.5	1.52e+00	0	39	104	0	60	37533
2026-01-02 11:38:39.29	25.04	1.91	-47.8	-60.6	3.5	1.52e+00	0	39	104	0	60	37556
2026-01-02 11:38:40.30	25.15	1.95	-47.8	-60.6	3.5	1.52e+00	0	39	104	0	60	37586
2026-01-02 11:38:41.31	25.26	1.99	-47.8	-60.6	3.5	1.52e+00	0	39	104	0	60	37617
2026-01-02 11:38:42.32	25.36	2.03	-47.8	-60.6	3.5	1.52e+00	0	39	104	0	60	37594
2026-01-02 11:38:43.33	25.47	2.07	-47.8	-60.6	3.5	1.52e+00	0	39	104	0	60	37554
2026-01-02 11:38:44.34	25.58	2.11	-47.8	-60.6	3.5	1.51e+00	0	39	104	0	60	37470
2026-01-02 11:38:45.35	25.69	2.15	-47.8	-60.6	3.5	1.52e+00	0	39	104	0	60	37726
2026-01-02 11:38:46.36	25.80	2.19	-47.8	-60.6	3.5	1.52e+00	0	39	104	0	60	37641
2026-01-02 11:38:47.37	25.90	2.23	-47.8	-60.6	3.5	1.52e+00	0	39	104	0	60	37807
2026-01-02 11:38:48.38	26.01	2.27	-47.8	-60.5	3.5	1.52e+00	0	39	104	0	60	37320
2026-01-02 11:38:49.39	26.12	2.31	-47.8	-60.5	3.5	1.52e+00	0	39	104	0	60	37391
2026-01-02 11:38:50.40	26.23	2.35	-47.8	-60.6	3.5	1.52e+00	0	39	104	0	60	37490
2026-01-02 11:38:51.41	26.34	2.39	-47.8	-60.6	3.5	1.52e+00	0	39	104	0	60	37432
2026-01-02 11:38:52.42	26.45	2.43	-47.8	-60.6	3.5	1.52e+00	0	39	104	0	60	37604
2026-01-02 11:38:53.43	26.56	2.47	-47.8	-60.6	3.5	1.52e+00	0	39	104	0	60	37484
2026-01-02 11:38:54.44	26.67	2.51	-47.8	-60.4	3.5	1.52e+00	0	39	104	0	60	36690
2026-01-02 11:38:55.44	26.78	2.55	-47.7	-60.0	3.5	1.52e+00	0	39	104	0	60	34963
2026-01-02 11:38:56.45	26.89	2.59	-47.7	-59.5	3.5	1.51e+00	0	39	104	0	60	33117
2026-01-02 11:38:57.47	27.00	2.63	-47.7	-59.8	3.5	1.52e+00	0	39	104	0	60	34410
2026-01-02 11:38:58.48	27.12	2.67	-47.5	-58.0	3.9	1.51e+00	0	39	104	0	60	27992
2026-01-02 11:38:59.49	27.23	2.71	-46.6	-51.9	7.3	2.40e-01	0	39	0	1048576	60	13840
2026-01-02 11:39:00.50	27.34	2.75	-44.9	-48.2	11.7	1.97e-03	0	39	0	4194304	60	9068
2026-01-02 11:39:01.51	27.45	2.79	-42.8	-45.0	15.3	6.80e-06	0	39	0	7340032	60	6225
2026-01-02 11:39:02.52	27.57	2.83	-41.5	-43.3	16.7	0.00e+00	0	39	0	10485760	56	6441
2026-01-02 11:39:03.53	27.68	2.87	-40.8	-42.4	17.4	0.00e+00	0	39	0	13631488	54	6500
2026-01-02 11:39:04.53	27.79	2.91	-40.7	-42.3	17.4	0.00e+00	0	39	0	16777216	54	6442
2026-01-02 11:39:05.54	27.90	2.95	-41.2	-42.9	16.8	0.00e+00	0	39	0	19922944	54	6901
2026-01-02 11:39:06.55	28.02	2.99	-42.9	-45.1	14.7	0.00e+00	0	39	0	23068672	56	7948
2026-01-02 11:39:07.56	28.13	3.03	-44.2	-46.9	12.6	0.00e+00	0	39	0	26214400	56	9818
2026-01-02 11:39:08.57	28.25	3.07	-40.6	-42.5	13.0	1.26e-02	0	39	104	26214400	54	6644
2026-01-02 11:39:09.58	28.36	3.11	-43.7	-46.6	5.0	1.51e+00	0	39	104	26214400	60	7530
2026-01-02 11:39:10.59	28.48	3.15	-41.9	-44.0	16.4	6.40e-05	0	39	0	26214400	58	6241
2026-01-02 11:39:11.60	28.59	3.19	-45.2	-48.8	8.7	0.00e+00	0	39	0	29360128	58	10890
2026-01-02 11:39:12.61	28.71	3.23	-41.6	-43.6	5.2	1.38e+00	0	39	104	29360128	60	5333
2026-01-02 11:39:13.62	28.82	3.27	-40.1	-41.8	18.2	0.00e+00	0	39	104	29360128	52	6864
2026-01-02 11:39:14.63	28.94	3.31	-40.8	-42.3	17.4	0.00e+00	0	39	0	31457280	52	7256
2026-01-02 11:39:15.64	29.06	3.35	-39.6	-40.9	19.0	0.00e+00	0	39	0	34603008	54	5518
2026-01-02 11:39:16.65	29.17	3.39	-39.5	-40.9	18.9	0.00e+00	0	39	0	38797312	52	6146
2026-01-02 11:39:17.66	29.29	3.42	-39.4	-40.7	19.0	0.00e+00	0	39	0	41943040	52	6056
2026-01-02 11:39:18.67	29.41	3.46	-39.0	-40.3	19.4	0.00e+00	0	39	0	44040192	52	5773
2026-01-02 11:39:19.68	29.53	3.50	-39.7	-41.0	18.8	0.00e+00	0	39	0	47185920	52	6251
2026-01-02 11:39:20.69	29.65	3.54	-39.7	-41.0	18.8	0.00e+00	0	39	0	50331648	52	6247
2026-01-02 11:39:21.70	29.76	3.58	-39.5	-40.8	19.1	0.00e+00	0	39	0	54525952	52	6101
2026-01-02 11:39:22.71	29.88	3.62	-39.3	-40.6	19.2	0.00e+00	0	39	0	57671680	52	5955
2026-01-02 11:39:23.71	30.00	3.66	-39.6	-41.0	19.0	0.00e+00	0	39	0	60817408	52	6245
2026-01-02 11:39:24.72	30.12	3.70	-39.3	-40.7	19.1	0.00e+00	0	39	0	63963136	52	6000
2026-01-02 11:39:25.73	30.24	3.74	-39.4	-40.8	19.0	0.00e+00	0	39	0	66060288	52	6066
2026-01-02 11:39:26.74	30.36	3.78	-39.3	-40.5	19.3	0.00e+00	0	39	0	70254592	52	5919
2026-01-02 11:39:27.75	30.48	3.82	-39.5	-40.8	19.1	0.00e+00	0	39	0	73400320	52	6088
2026-01-02 11:39:28.76	30.60	3.85	-39.3	-40.6	19.3	0.00e+00	0	39	0	76546048	52	5988
2026-01-02 11:39:29.77	30.72	3.89	-39.2	-40.5	19.4	0.00e+00	0	39	0	79691776	52	5896
2026-01-02 11:39:30.78	30.84	3.93	-39.3	-40.6	19.3	0.00e+00	0	39	0	82837504	52	5977
2026-01-02 11:39:31.79	30.96	3.97	-39.2	-40.5	19.5	0.00e+00	0	39	0	85983232	52	5913
2026-01-02 11:39:32.80	31.08	4.01	-39.4	-40.7	19.1	0.00e+00	0	39	0	89128960	52	6048
2026-01-02 11:39:33.81	31.21	4.05	-39.1	-40.4	19.6	0.00e+00	0	39	0	92274688	52	5823
2026-01-02 11:39:34.82	31.33	4.09	-39.1	-40.4	19.3	0.00e+00	0	39	0	95420416	52	5829
2026-01-02 11:39:35.83	31.45	4.12	-39.4	-40.7	19.5	0.00e+00	0	39	0	98566144	52	6029
2026-01-02 11:39:36.84	31.58	4.16	-39.4	-40.7	19.1	0.00e+00	0	39	0	101711872	52	5997
2026-01-02 11:39:37.85	31.70	4.20	-39.4	-40.7	19.6	0.00e+00	0	39	0	104857600	52	6006
2026-01-02 11:39:38.86	31.82	4.24	-39.3	-40.6	19.1	0.00e+00	0	39	0	108003328	52	5984
2026-01-02 11:39:39.87	31.95	4.28	-39.2	-40.5	19.5	0.00e+00	0	39	0	111149056	52	5867
2026-01-02 11:39:40.88	32.07	4.32	-39.3	-40.6	19.5	0.00e+00	0	39	0	114294784	52	5927
2026-01-02 11:39:41.89	32.19	4.35	-38.9	-40.1	19.9	0.00e+00	0	39	0	117440512	52	5618
2026-01-02 11:39:42.90	32.32	4.39	-39.1	-40.4	19.6	0.00e+00	0	39	0	120586240	52	5824
2026-01-02 11:39:43.91	32.44	4.43	-39.0	-40.2	19.8	0.00e+00	0	39	0	123731968	52	5685
2026-01-02 11:39:44.92	32.57	4.47	-39.2	-40.4	19.6	0.00e+00	0	39	0	126877696	52	5845
2026-01-02 11:39:45.93	32.70	4.51	-39.2	-40.5	19.5	0.00e+00	0	39	0	130023424	52	5912
2026-01-02 11:39:46.94	32.82	4.54	-39.2	-40.5	19.6	0.00e+00	0	39	0	133169152	52	5865
2026-01-02 11:39:47.95	32.95	4.58	-39.4	-40.7	19.5	0.00e+00	0	39	0	136314880	52	6008
2026-01-02 11:39:48.96	33.08	4.62	-38.9	-40.1	19.9	0.00e+00	0	39	0	139460608	50	6314
2026-01-02 11:39:49.97	33.20	4.66	-39.0	-40.2	19.8	0.00e+00	0	39	0	142606336	50	6402
2026-01-02 11:39:50.98	33.33	4.70	-39.1	-40.4	19.6	0.00e+00	0	39	0	145752064	50	6510
2026-01-02 11:39:51.99	33.46	4.73	-39.0	-40.3	19.7	0.00e+00	0	39	0	148897792	50	6424
2026-01-02 11:39:53.00	33.59	4.77	-39.2	-40.5	19.4	0.00e+00	0	39	0	152043520	50	6587
2026-01-02 11:39:54.01	33.71	4.81	-39.3	-40.6	19.5	0.00e+00	0	39	0	155189248	50	6670
2026-01-02 11:39:55.02	33.84	4.85	-38.8	-40.1	20.0	0.00e+00	0	39	0	158334976	50	6300
2026-01-02 11:39:56.03	33.97	4.88	-39.1	-40.3	19.7	0.00e+00	0	39	0	161480704	50	6475
2026-01-02 11:39:57.04	34.10	4.92	-38.9	-40.2	19.9	0.00e+00	0	39	0	164626432	50	6368
2026-01-02 11:39:58.05	34.23	4.96	-38.8	-40.0	20.0	0.00e+00	0	39	0	167772160	50	6239
2026-01-02 11:39:59.06	34.36	4.99	-38.7	-39.9	20.1	0.00e+00	0	39	0	170917888	50	6174
2026-01-02 11:40:00.07	34.49	5.03	-38.8	-40.0	20.0	0.00e+00	0	39	0	174063616	50	6271
2026-01-02 11:40:01.08	34.62	5.07	-39.0	-40.2	19.9	0.00e+00	0	39	0	177209344	50	6407
2026-01-02 11:40:02.09	34.75	5.11	-38.8	-40.0	20.1	0.00e+00	0	39	0	180355072	50	6256
2026-01-02 11:40:03.10	34.88	5.14	-38.5	-39.6	20.5	0.00e+00	0	39	0	183500800	50	5979
2026-01-02 11:40:04.11	35.01	5.18	-38.6	-39.8	20.2	0.00e+00	0	39	0	186646528	50	6100
2026-01-02 11:40:05.12	35.15	5.22	-38.9	-40.1	19.9	0.00e+00	0	39	0	189792256	50	6314
2026-01-02 11:40:06.13	35.28	5.25	-38.9	-40.2	20.1	0.00e+00	0	39	0	192937984	50	6356
2026-01-02 11:40:07.14	35.41	5.29	-38.8	-40.0	20.1	0.00e+00	0	39	0	196083712	50	6263
2026-01-02 11:40:08.15	35.54	5.33	-38.9	-40.1	20.0	0.00e+00	0	39	0	199229440	50	6332
2026-01-02 11:40:09.16	35.68	5.36	-38.8	-40.0	20.1	0.00e+00	0	39	0	202375168	50	6257
2026-01-02 11:40:10.17	35.81	5.40	-38.8	-40.0	20.1	0.00e+00	0	39	0	205520896	50	6225
2026-01-02 11:40:11.18	35.94	5.44	-38.7	-39.9	20.2	0.00e+00	0	39	0	208666624	50	6195
2026-01-02 11:40:12.19	36.08	5.47	-38.5	-39.6	20.6	0.00e+00	0	39	0	211812352	50	5976
2026-01-02 11:40:13.20	36.21	5.51	-38.5	-39.6	20.5	0.00e+00	0	39	0	214958080	50	5992
2026-01-02 11:40:14.21	36.35	5.54	-38.4	-39.6	20.5	0.00e+00	0	39	0	218103808	50	5957
2026-01-02 11:40:15.22	36.48	5.58	-38.5	-39.7	20.5	0.00e+00	0	39	0	221249536	50	6013
2026-01-02 11:40:16.23	36.62	5.62	-38.2	-39.4	20.8	0.00e+00	0	39	0	224395264	50	5799
2026-01-02 11:40:17.24	36.75	5.65	-38.3	-39.4	20.7	0.00e+00	0	39	0	227540992	50	5829
2026-01-02 11:40:18.25	36.89	5.69	-38.1	-39.2	20.9	0.00e+00	0	39	0	230686720	50	5688
2026-01-02 11:40:19.26	37.02	5.72	-38.2	-39.3	20.9	0.00e+00	0	39	0	233832448	50	5768
2026-01-02 11:40:20.27	37.16	5.76	-38.4	-39.6	20.5	0.00e+00	0	39	0	236978176	50	5960
2026-01-02 11:40:21.28	37.30	5.79	-38.5	-39.7	20.5	0.00e+00	0	39	0	240123904	50	6031
2026-01-02 11:40:22.29	37.44	5.83	-38.4	-39.5	20.5	0.00e+00	0	39	0	243269632	50	5896
2026-01-02 11:40:23.30	37.57	5.86	-38.6	-39.8	20.4	0.00e+00	0	39	0	246415360	50	6078
2026-01-02 11:40:24.31	37.71	5.90	-38.6	-39.8	20.3	0.00e+00	0	39	0	249561088	50	6065
2026-01-02 11:40:25.32	37.85	5.93	-38.6	-39.7	20.5	0.00e+00	0	39	0	252706816	50	6047
2026-01-02 11:40:26.33	37.99	5.97	-38.4	-39.6	20.6	0.00e+00	0	39	0	255852544	50	5969
2026-01-02 11:40:27.34	38.13	6.00	-38.2	-39.3	20.9	0.00e+00	0	39	0	258998272	50	5743
2026-01-02 11:40:28.35	38.27	6.04	-38.4	-39.6	20.6	0.00e+00	0	39	0	262144000	50	5967
2026-01-02 11:40:29.36	38.41	6.07	-38.4	-39.6	20.6	0.00e+00	0	39	0	265289728	50	5939
2026-01-02 11:40:30.37	38.55	6.11	-38.2	-39.3	20.8	0.00e+00	0	39	0	268435456	50	5783
2026-01-02 11:40:31.38	38.69	6.14	-38.2	-39.3	20.9	0.00e+00	0	39	0	271581184	50	5784
2026-01-02 11:40:32.39	38.83	6.18	-38.3	-39.4	20.9	0.00e+00	0	39	0	274726912	50	5834
2026-01-02 11:40:33.40	38.97	6.21	-38.0	-39.1	21.1	0.00e+00	0	39	0	277872640	50	5632
2026-01-02 11:40:34.41	39.11	6.25	-38.1	-39.2	21.1	0.00e+00	0	39	0	281018368	50	5690
2026-01-02 11:40:35.42	39.25	6.28	-38.2	-39.3	21.0	0.00e+00	0	39	0	284164096	50	5767
2026-01-02 11:40:36.43	39.39	6.32	-38.0	-39.1	21.1	0.00e+00	0	39	0	287309824	50	5638
2026-01-02 11:40:37.44	39.53	6.35	-38.1	-39.3	21.0	0.00e+00	0	39	0	290455552	50	5734
2026-01-02 11:40:38.45	39.68	6.38	-38.1	-39.2	21.0	0.00e+00	0	39	0	293601280	50	5725
2026-01-02 11:40:39.46	39.82	6.42	-38.0	-39.2	21.1	0.00e+00	0	39	0	296747008	50	5665
2026-01-02 11:40:40.47	39.96	6.45	-38.1	-39.2	21.0	0.00e+00	0	39	0	299892736	50	5682
2026-01-02 11:40:41.48	40.10	6.48	-38.1	-39.2	20.9	0.00e+00	0	39	0	303038464	50	5701
2026-01-02 11:40:42.49	40.25	6.52	-38.1	-39.2	21.1	0.00e+00	0	39	0	306184192	50	5704
2026-01-02 11:40:43.49	40.39	6.55	-38.1	-39.2	21.0	0.00e+00	0	39	0	309329920	50	5711
2026-01-02 11:40:44.50	40.53	6.58	-38.1	-39.3	20.9	0.00e+00	0	39	0	312475648	50	5742
2026-01-02 11:40:45.51	40.68	6.62	-38.2	-39.4	20.9	0.00e+00	0	39	0	315621376	50	5827
2026-01-02 11:40:46.52	40.82	6.65	-38.3	-39.4	20.8	0.00e+00	0	39	0	318767104	50	5826
2026-01-02 11:40:47.53	40.97	6.68	-38.2	-39.3	21.0	0.00e+00	0	39	0	321912832	50	5766
2026-01-02 11:40:48.54	41.12	6.72	-38.1	-39.2	21.1	0.00e+00	0	39	0	325058560	50	5708
2026-01-02 11:40:49.55	41.26	6.75	-38.2	-39.3	20.9	0.00e+00	0	39	0	328204288	50	5786
2026-01-02 11:40:50.56	41.41	6.78	-38.1	-39.3	21.0	0.00e+00	0	39	0	331350016	50	5731
2026-01-02 11:40:51.57	41.55	6.81	-38.1	-39.2	21.1	0.00e+00	0	39	0	334495744	50	5696
2026-01-02 11:40:52.58	41.70	6.85	-38.1	-39.2	21.1	0.00e+00	0	39	0	337641472	50	5695
2026-01-02 11:40:53.59	41.85	6.88	-37.9	-39.0	21.2	0.00e+00	0	39	0	340787200	50	5571
2026-01-02 11:40:54.60	42.00	6.91	-38.0	-39.1	21.2	0.00e+00	0	39	0	343932928	50	5650
2026-01-02 11:40:55.61	42.14	6.94	-38.1	-39.2	21.1	0.00e+00	0	39	0	347078656	50	5671
2026-01-02 11:40:56.61	42.29	6.97	-37.9	-39.0	21.2	0.00e+00	0	39	0	350224384	50	5579
2026-01-02 11:40:57.63	42.44	7.01	-37.9	-39.0	21.3	0.00e+00	0	39	0	353370112	50	5548
2026-01-02 11:40:58.63	42.59	7.04	-37.8	-38.9	21.4	0.00e+00	0	39	0	356515840	50	5488
2026-01-02 11:40:59.64	42.74	7.07	-37.9	-39.0	21.2	0.00e+00	0	39	0	359661568	50	5581
2026-01-02 11:41:00.65	42.88	7.10	-38.0	-39.1	21.2	0.00e+00	0	39	0	362807296	50	5630
2026-01-02 11:41:01.66	43.03	7.13	-38.1	-39.2	21.0	0.00e+00	0	39	0	365953024	50	5676
2026-01-02 11:41:02.67	43.18	7.16	-38.2	-39.3	21.0	0.00e+00	0	39	0	369098752	50	5753
2026-01-02 11:41:03.68	43.33	7.19	-38.0	-39.2	21.2	0.00e+00	0	39	0	372244480	50	5663
2026-01-02 11:41:04.69	43.49	7.22	-38.0	-39.1	21.3	0.00e+00	0	39	0	376438784	50	5606
2026-01-02 11:41:05.70	43.64	7.26	-37.9	-39.0	21.2	0.00e+00	0	39	0	379584512	50	5571
2026-01-02 11:41:06.71	43.79	7.29	-38.1	-39.2	21.0	0.00e+00	0	39	0	382730240	50	5717
2026-01-02 11:41:07.72	43.94	7.32	-38.0	-39.1	21.1	0.00e+00	0	39	0	384827392	50	5657
2026-01-02 11:41:08.73	44.09	7.35	-37.9	-39.0	21.2	0.00e+00	0	39	0	387973120	50	5549
2026-01-02 11:41:09.74	44.24	7.38	-38.0	-39.1	21.2	0.00e+00	0	39	0	391118848	50	5612
2026-01-02 11:41:10.75	44.40	7.41	-38.0	-39.0	21.3	0.00e+00	0	39	0	395313152	50	5587
2026-01-02 11:41:11.76	44.55	7.44	-37.9	-39.0	21.3	0.00e+00	0	39	0	398458880	50	5577
2026-01-02 11:41:12.77	44.70	7.47	-38.1	-39.2	21.2	0.00e+00	0	39	0	401604608	50	5668
2026-01-02 11:41:13.78	44.85	7.50	-38.0	-39.1	21.3	0.00e+00	0	39	0	404750336	50	5614
2026-01-02 11:41:14.79	45.01	7.53	-37.9	-39.0	21.3	0.00e+00	0	39	0	406847488	50	5584
2026-01-02 11:41:15.80	45.16	7.56	-37.9	-39.0	21.3	0.00e+00	0	39	0	411041792	50	5549
2026-01-02 11:41:16.81	45.32	7.59	-38.0	-39.0	21.2	0.00e+00	0	39	0	414187520	50	5589
2026-01-02 11:41:17.82	45.47	7.61	-38.0	-39.1	21.2	0.00e+00	0	39	0	417333248	50	5620
2026-01-02 11:41:18.83	45.63	7.64	-38.1	-39.2	21.2	0.00e+00	0	39	0	420478976	50	5666
2026-01-02 11:41:19.84	45.78	7.67	-38.0	-39.1	21.2	0.00e+00	0	39	0	423624704	50	5637
2026-01-02 11:41:20.85	45.94	7.70	-38.3	-39.4	20.9	0.00e+00	0	39	0	426770432	50	5819
2026-01-02 11:41:21.86	46.09	7.73	-37.9	-39.0	21.3	0.00e+00	0	39	0	429916160	50	5548
2026-01-02 11:41:22.87	46.25	7.76	-37.9	-39.0	21.3	0.00e+00	0	39	0	433061888	50	5533
2026-01-02 11:41:23.88	46.40	7.79	-37.7	-38.7	21.6	0.00e+00	0	39	0	436207616	48	6063
2026-01-02 11:41:24.89	46.56	7.81	-37.7	-38.8	21.5	0.00e+00	0	39	0	439353344	48	6083
2026-01-02 11:41:25.90	46.72	7.84	-37.7	-38.8	21.6	0.00e+00	0	39	0	442499072	48	6109
2026-01-02 11:41:26.91	46.87	7.87	-37.8	-38.8	21.5	0.00e+00	0	39	0	445644800	48	6130
2026-01-02 11:41:27.92	47.03	7.90	-37.6	-38.7	21.7	0.00e+00	0	39	0	448790528	48	6014
2026-01-02 11:41:28.93	47.19	7.93	-37.5	-38.5	21.7	0.00e+00	0	39	0	451936256	48	5914
2026-01-02 11:41:29.93	47.35	7.95	-37.5	-38.5	21.7	0.00e+00	0	39	0	455081984	48	5894
2026-01-02 11:41:30.94	47.50	7.98	-37.5	-38.6	21.7	0.00e+00	0	39	0	458227712	48	5934
2026-01-02 11:41:31.95	47.66	8.01	-37.6	-38.6	21.7	0.00e+00	0	39	0	461373440	48	5970
2026-01-02 11:41:32.96	47.82	8.03	-37.6	-38.7	21.6	0.00e+00	0	39	0	464519168	48	6003
2026-01-02 11:41:33.97	47.98	8.06	-37.6	-38.6	21.7	0.00e+00	0	39	0	467664896	48	5980
2026-01-02 11:41:34.98	48.14	8.09	-37.7	-38.8	21.5	0.00e+00	0	39	0	470810624	48	6107
2026-01-02 11:41:35.99	48.30	8.11	-37.5	-38.6	21.7	0.00e+00	0	39	0	473956352	48	5960
2026-01-02 11:41:37.00	48.46	8.14	-37.6	-38.7	21.6	0.00e+00	0	39	0	477102080	48	6013
2026-01-02 11:41:38.01	48.62	8.17	-37.5	-38.5	21.8	0.00e+00	0	39	0	480247808	48	5903
2026-01-02 11:41:39.03	48.78	8.19	-37.6	-38.7	21.7	0.00e+00	0	39	0	483393536	48	5995
2026-01-02 11:41:40.03	48.94	8.22	-37.6	-38.6	21.7	0.00e+00	0	39	0	486539264	48	5976
2026-01-02 11:41:41.04	49.10	8.24	-37.5	-38.6	21.8	0.00e+00	0	39	0	489684992	48	5963
2026-01-02 11:41:42.05	49.27	8.27	-37.7	-38.7	21.6	0.00e+00	0	39	0	492830720	48	6051
2026-01-02 11:41:43.06	49.43	8.29	-37.7	-38.8	21.5	0.00e+00	0	39	0	495976448	48	6093
2026-01-02 11:41:44.07	49.59	8.32	-37.8	-38.9	21.5	0.00e+00	0	39	0	499122176	48	6144
2026-01-02 11:41:45.09	49.75	8.34	-37.5	-38.6	21.6	0.00e+00	0	39	0	502267904	48	5967
2026-01-02 11:41:46.09	49.91	8.37	-37.6	-38.7	21.6	0.00e+00	0	39	0	505413632	48	6005
2026-01-02 11:41:47.11	50.08	8.39	-37.5	-38.5	21.7	0.00e+00	0	39	0	508559360	48	5906
2026-01-02 11:41:48.11	50.24	8.42	-37.4	-38.5	21.9	0.00e+00	0	39	0	511705088	48	5881
2026-01-02 11:41:49.12	50.40	8.44	-37.5	-38.5	21.8	0.00e+00	0	39	0	514850816	48	5893
2026-01-02 11:41:50.13	50.57	8.47	-37.5	-38.6	21.7	0.00e+00	0	39	0	517996544	48	5960
2026-01-02 11:41:51.14	50.73	8.49	-37.5	-38.6	21.8	0.00e+00	0	39	0	521142272	48	5932
2026-01-02 11:41:52.15	50.89	8.51	-37.5	-38.6	21.8	0.00e+00	0	39	0	524288000	48	5930
2026-01-02 11:41:53.16	51.06	8.54	-37.6	-38.6	21.8	0.00e+00	0	39	0	527433728	48	5967
2026-01-02 11:41:54.17	51.22	8.56	-37.5	-38.6	21.8	0.00e+00	0	39	0	530579456	48	5945
2026-01-02 11:41:55.18	51.39	8.58	-37.6	-38.6	21.7	0.00e+00	0	39	0	533725184	48	5977
2026-01-02 11:41:56.19	51.55	8.61	-37.6	-38.7	21.6	0.00e+00	0	39	0	536870912	48	6016
2026-01-02 11:41:57.20	51.72	8.63	-37.7	-38.8	21.6	0.00e+00	0	39	0	540016640	48	6107
2026-01-02 11:41:58.21	51.88	8.65	-37.7	-38.8	21.5	0.00e+00	0	39	0	543162368	48	6123
2026-01-02 11:41:59.22	52.05	8.67	-37.6	-38.7	21.6	0.00e+00	0	39	0	546308096	48	6019
2026-01-02 11:42:00.23	52.22	8.70	-37.7	-38.8	21.5	0.00e+00	0	39	0	549453824	48	6072
2026-01-02 11:42:01.24	52.38	8.72	-37.7	-38.7	21.6	0.00e+00	0	39	0	552599552	48	6053
2026-01-02 11:42:02.25	52.55	8.74	-37.6	-38.7	21.7	0.00e+00	0	39	0	555745280	48	6028
2026-01-02 11:42:03.26	52.72	8.76	-37.6	-38.6	21.7	0.00e+00	0	39	0	558891008	48	5986
2026-01-02 11:42:04.27	52.88	8.78	-37.6	-38.7	21.7	0.00e+00	0	39	0	562036736	48	6031
2026-01-02 11:42:05.28	53.05	8.80	-37.6	-38.6	21.7	0.00e+00	0	39	0	565182464	48	5967
2026-01-02 11:42:06.29	53.22	8.83	-37.5	-38.6	21.8	0.00e+00	0	39	0	568328192	48	5951
2026-01-02 11:42:07.31	53.39	8.85	-37.4	-38.5	21.8	0.00e+00	0	39	0	571473920	48	5872
2026-01-02 11:42:08.31	53.55	8.87	-37.4	-38.5	21.8	0.00e+00	0	39	0	574619648	48	5879
2026-01-02 11:42:09.32	53.72	8.89	-37.3	-38.3	22.0	0.00e+00	0	39	0	577765376	48	5760
2026-01-02 11:42:10.33	53.89	8.91	-37.4	-38.4	22.0	0.00e+00	0	39	0	580911104	48	5809
2026-01-02 11:42:11.34	54.06	8.93	-37.4	-38.5	21.9	0.00e+00	0	39	0	584056832	48	5864
2026-01-02 11:42:12.35	54.23	8.95	-37.4	-38.4	21.9	0.00e+00	0	39	0	587202560	48	5850
2026-01-02 11:42:13.36	54.40	8.97	-37.5	-38.6	21.9	0.00e+00	0	39	0	590348288	48	5935
2026-01-02 11:42:14.37	54.57	8.99	-37.5	-38.6	21.8	0.00e+00	0	39	0	593494016	48	5946
2026-01-02 11:42:15.38	54.74	9.01	-37.7	-38.7	21.7	0.00e+00	0	39	0	596639744	48	6047
2026-01-02 11:42:16.39	54.91	9.03	-37.7	-38.8	21.6	0.00e+00	0	39	0	599785472	48	6096
2026-01-02 11:42:17.40	55.08	9.04	-37.7	-38.8	21.7	0.00e+00	0	39	0	602931200	48	6099
2026-01-02 11:42:18.41	55.25	9.06	-37.8	-38.9	21.6	0.00e+00	0	39	0	606076928	48	6156
2026-01-02 11:42:19.42	55.42	9.08	-37.8	-38.8	21.6	0.00e+00	0	39	0	609222656	48	6122
2026-01-02 11:42:20.43	55.59	9.10	-37.6	-38.6	21.8	0.00e+00	0	39	0	612368384	48	5979
2026-01-02 11:42:21.44	55.76	9.12	-37.7	-38.8	21.6	0.00e+00	0	39	0	615514112	48	6075
2026-01-02 11:42:22.45	55.93	9.14	-37.6	-38.6	21.7	0.00e+00	0	39	0	618659840	48	5981
2026-01-02 11:42:23.46	56.10	9.15	-37.4	-38.5	21.9	0.00e+00	0	39	0	621805568	48	5866
2026-01-02 11:42:24.47	56.27	9.17	-37.5	-38.6	21.6	0.00e+00	0	39	0	624951296	48	5945
2026-01-02 11:42:25.48	56.44	9.19	-37.4	-38.5	21.8	0.00e+00	0	40	0	628097024	48	5862
2026-01-02 11:42:26.49	56.62	9.21	-37.5	-38.6	21.8	0.00e+00	0	39	0	631242752	48	5937
2026-01-02 11:42:27.50	56.79	9.22	-37.5	-38.6	21.6	0.00e+00	0	39	0	634388480	48	5961
2026-01-02 11:42:28.51	56.96	9.24	-37.4	-38.5	21.8	0.00e+00	0	39	0	637534208	48	5896
2026-01-02 11:42:29.52	57.13	9.25	-37.4	-38.4	21.8	0.00e+00	0	39	0	640679936	48	5852
2026-01-02 11:42:30.53	57.31	9.27	-37.4	-38.4	22.0	0.00e+00	0	39	0	643825664	48	5831
2026-01-02 11:42:31.54	57.48	9.29	-37.4	-38.4	21.9	0.00e+00	0	39	0	646971392	48	5842
2026-01-02 11:42:32.55	57.65	9.30	-37.4	-38.5	21.9	0.00e+00	0	39	0	650117120	48	5877
2026-01-02 11:42:33.56	57.83	9.32	-37.4	-38.4	22.0	0.00e+00	0	39	0	653262848	48	5816
2026-01-02 11:42:34.57	58.00	9.33	-37.4	-38.4	21.9	0.00e+00	0	39	0	656408576	48	5835
2026-01-02 11:42:35.58	58.17	9.35	-37.4	-38.4	22.0	0.00e+00	0	39	0	659554304	48	5849
2026-01-02 11:42:36.59	58.35	9.36	-37.4	-38.4	21.9	0.00e+00	0	39	0	662700032	48	5847
2026-01-02 11:42:37.60	58.52	9.38	-37.4	-38.4	21.9	0.00e+00	0	39	0	665845760	48	5844
2026-01-02 11:42:38.61	58.69	9.39	-37.6	-38.7	21.6	0.00e+00	0	39	0	668991488	48	6031
2026-01-02 11:42:39.62	58.87	9.41	-37.7	-38.8	21.5	0.00e+00	0	39	0	672137216	48	6087
2026-01-02 11:42:40.63	59.04	9.42	-37.8	-38.8	21.6	0.00e+00	0	39	0	675282944	48	6123
2026-01-02 11:42:41.64	59.22	9.44	-37.7	-38.8	21.5	0.00e+00	0	39	0	678428672	48	6123
2026-01-02 11:42:42.65	59.39	9.45	-37.8	-38.9	21.5	0.00e+00	0	39	0	681574400	48	6194
2026-01-02 11:42:43.66	59.57	9.46	-37.3	-38.4	22.0	0.00e+00	0	39	0	684720128	48	5805
2026-01-02 11:42:44.67	59.74	9.48	-37.3	-38.4	22.0	0.00e+00	0	39	0	687865856	48	5811
2026-01-02 11:42:45.68	59.92	9.49	-37.4	-38.5	21.9	0.00e+00	0	39	0	691011584	48	5885
2026-01-02 11:42:46.69	60.09	9.50	-37.2	-38.2	22.1	0.00e+00	0	39	0	695205888	48	5709
2026-01-02 11:42:47.70	60.27	9.51	-37.2	-38.2	22.0	0.00e+00	0	39	0	698351616	48	5719
2026-01-02 11:42:48.71	60.44	9.53	-37.4	-38.4	21.9	0.00e+00	0	39	0	700448768	48	5817
2026-01-02 11:42:49.72	60.62	9.54	-37.5	-38.5	21.9	0.00e+00	0	39	0	703594496	48	5900
2026-01-02 11:42:50.74	60.80	9.55	-37.4	-38.4	21.9	0.00e+00	0	39	0	706740224	48	5850
2026-01-02 11:42:51.74	60.97	9.56	-37.4	-38.5	21.9	0.00e+00	0	39	0	710934528	48	5868
2026-01-02 11:42:52.76	61.15	9.57	-37.5	-38.5	21.8	0.00e+00	0	39	0	714080256	48	5917
2026-01-02 11:42:53.76	61.32	9.58	-37.5	-38.5	21.8	0.00e+00	0	39	0	717225984	48	5904
2026-01-02 11:42:54.78	61.50	9.59	-37.5	-38.6	21.7	0.00e+00	0	39	0	720371712	48	5945
2026-01-02 11:42:55.79	61.68	9.60	-37.5	-38.5	21.9	0.00e+00	0	39	0	723517440	48	5918
2026-01-02 11:42:56.80	61.86	9.61	-37.2	-38.2	22.1	0.00e+00	0	39	0	726663168	48	5712
2026-01-02 11:42:57.81	62.03	9.62	-37.3	-38.3	22.0	0.00e+00	0	39	0	729808896	48	5761
2026-01-02 11:42:58.82	62.21	9.63	-37.3	-38.3	21.9	0.00e+00	0	40	0	732954624	48	5784
2026-01-02 11:42:59.83	62.39	9.64	-37.2	-38.3	22.0	0.00e+00	0	39	0	736100352	48	5736
2026-01-02 11:43:00.84	62.57	9.65	-37.0	-38.1	22.1	0.00e+00	0	39	0	739246080	48	5613
2026-01-02 11:43:01.85	62.74	9.66	-37.1	-38.2	22.1	0.00e+00	0	40	0	742391808	48	5678
2026-01-02 11:43:02.86	62.92	9.67	-37.2	-38.2	22.0	0.00e+00	0	40	0	745537536	48	5721
2026-01-02 11:43:03.87	63.10	9.68	-37.2	-38.2	22.1	0.00e+00	0	39	0	748683264	48	5720
2026-01-02 11:43:04.88	63.28	9.69	-37.2	-38.3	22.0	0.00e+00	0	39	0	751828992	48	5739
2026-01-02 11:43:05.89	63.45	9.70	-37.2	-38.2	22.1	0.00e+00	0	39	0	754974720	48	5719
2026-01-02 11:43:06.90	63.63	9.71	-37.2	-38.3	22.0	0.00e+00	0	39	0	758120448	48	5748
2026-01-02 11:43:07.91	63.81	9.71	-37.2	-38.3	22.0	0.00e+00	0	39	0	761266176	48	5738
2026-01-02 11:43:08.92	63.99	9.72	-37.3	-38.4	21.9	0.00e+00	0	39	0	764411904	48	5799
2026-01-02 11:43:09.93	64.17	9.73	-37.3	-38.4	21.9	0.00e+00	0	39	0	767557632	48	5813
2026-01-02 11:43:10.94	64.34	9.74	-37.3	-38.4	21.9	0.00e+00	0	39	0	770703360	48	5809
2026-01-02 11:43:11.95	64.52	9.74	-37.1	-38.1	22.0	0.00e+00	0	39	0	773849088	48	5654
2026-01-02 11:43:12.96	64.70	9.75	-37.1	-38.2	22.0	0.00e+00	0	39	0	776994816	48	5678
2026-01-02 11:43:13.97	64.88	9.76	-37.4	-38.4	21.8	0.00e+00	0	39	0	780140544	48	5857
2026-01-02 11:43:14.98	65.06	9.76	-37.1	-38.2	22.0	0.00e+00	0	39	0	783286272	48	5677
2026-01-02 11:43:15.99	65.24	9.77	-37.3	-38.3	21.9	0.00e+00	0	39	0	786432000	48	5760
2026-01-02 11:43:17.00	65.41	9.77	-37.2	-38.3	21.9	0.00e+00	0	39	0	789577728	48	5728
2026-01-02 11:43:18.01	65.59	9.78	-37.4	-38.5	21.8	0.00e+00	0	39	0	792723456	48	5866
2026-01-02 11:43:19.02	65.77	9.78	-37.2	-38.2	22.0	0.00e+00	0	39	0	795869184	48	5721
2026-01-02 11:43:20.03	65.95	9.79	-37.1	-38.1	22.1	0.00e+00	0	39	0	799014912	48	5653
2026-01-02 11:43:21.04	66.13	9.79	-37.1	-38.2	22.1	0.00e+00	0	39	0	802160640	48	5664
2026-01-02 11:43:22.05	66.31	9.80	-37.2	-38.2	22.0	0.00e+00	0	39	0	805306368	48	5700
2026-01-02 11:43:23.06	66.49	9.80	-37.2	-38.2	22.0	0.00e+00	0	40	0	808452096	48	5698
2026-01-02 11:43:24.07	66.67	9.81	-37.2	-38.2	22.0	0.00e+00	0	39	0	811597824	48	5716
2026-01-02 11:43:25.08	66.85	9.81	-37.3	-38.3	21.9	0.00e+00	0	39	0	814743552	48	5762
2026-01-02 11:43:26.09	67.03	9.81	-37.1	-38.2	22.0	0.00e+00	0	39	0	817889280	48	5671
2026-01-02 11:43:27.10	67.21	9.82	-37.2	-38.2	22.1	0.00e+00	0	40	0	821035008	48	5706
2026-01-02 11:43:28.11	67.38	9.82	-37.2	-38.2	22.1	0.00e+00	0	40	0	824180736	48	5707
2026-01-02 11:43:29.12	67.56	9.82	-37.1	-38.1	22.2	0.00e+00	0	39	0	827326464	48	5613
2026-01-02 11:43:30.13	67.74	9.82	-37.1	-38.1	22.2	0.00e+00	0	39	0	830472192	48	5617
2026-01-02 11:43:31.14	67.92	9.83	-37.2	-38.2	22.0	0.00e+00	0	39	0	833617920	48	5701
2026-01-02 11:43:32.15	68.10	9.83	-37.1	-38.1	22.1	0.00e+00	0	39	0	836763648	48	5624
2026-01-02 11:43:33.16	68.28	9.83	-37.2	-38.2	22.0	0.00e+00	0	40	0	839909376	48	5697
2026-01-02 11:43:34.17	68.46	9.83	-37.3	-38.3	22.0	0.00e+00	0	40	0	843055104	48	5787
2026-01-02 11:43:35.18	68.64	9.83	-37.3	-38.3	22.0	0.00e+00	0	39	0	846200832	48	5764
2026-01-02 11:43:36.19	68.82	9.83	-37.3	-38.3	22.0	0.00e+00	0	39	0	849346560	48	5766
2026-01-02 11:43:37.20	69.00	9.83	-37.1	-38.2	22.1	0.00e+00	0	39	0	852492288	48	5669
2026-01-02 11:43:38.21	69.18	9.83	-37.2	-38.2	22.0	0.00e+00	0	40	0	855638016	48	5717
2026-01-02 11:43:39.22	69.36	9.83	-37.3	-38.4	21.9	0.00e+00	0	39	0	858783744	48	5821
2026-01-02 11:43:40.23	69.54	9.83	-37.2	-38.3	22.1	0.00e+00	0	39	0	861929472	48	5737
2026-01-02 11:43:41.24	69.72	9.83	-37.3	-38.4	21.8	0.00e+00	0	39	0	865075200	48	5795
2026-01-02 11:43:42.25	69.90	9.83	-37.2	-38.3	22.0	0.00e+00	0	40	0	868220928	48	5739
2026-01-02 11:43:43.26	70.08	9.83	-37.3	-38.3	21.9	0.00e+00	0	39	0	871366656	48	5782
2026-01-02 11:43:44.27	70.26	9.83	-37.4	-38.4	21.9	0.00e+00	0	40	0	874512384	48	5831
2026-01-02 11:43:45.28	70.44	9.83	-37.2	-38.2	22.0	0.00e+00	0	40	0	877658112	48	5700
2026-01-02 11:43:46.29	70.62	9.83	-37.2	-38.2	22.1	0.00e+00	0	39	0	880803840	48	5708
2026-01-02 11:43:47.30	70.80	9.83	-37.0	-38.1	22.2	0.00e+00	0	40	0	883949568	48	5610
2026-01-02 11:43:48.31	70.97	9.83	-37.0	-38.0	22.2	0.00e+00	0	40	0	887095296	48	5592
2026-01-02 11:43:49.32	71.15	9.82	-37.0	-38.0	22.2	0.00e+00	0	40	0	890241024	48	5548
2026-01-02 11:43:50.33	71.33	9.82	-37.1	-38.1	22.1	0.00e+00	0	39	0	893386752	48	5609
2026-01-02 11:43:51.34	71.51	9.82	-37.2	-38.2	22.0	0.00e+00	0	39	0	896532480	48	5704
2026-01-02 11:43:52.34	71.69	9.82	-37.1	-38.1	22.1	0.00e+00	0	40	0	899678208	48	5659
2026-01-02 11:43:53.36	71.87	9.81	-37.1	-38.1	22.0	0.00e+00	0	40	0	902823936	48	5643
2026-01-02 11:43:54.36	72.05	9.81	-37.3	-38.3	22.0	0.00e+00	0	40	0	905969664	48	5767
2026-01-02 11:43:55.37	72.23	9.81	-37.0	-38.0	22.2	0.00e+00	0	40	0	909115392	48	5568
2026-01-02 11:43:56.38	72.41	9.80	-37.1	-38.2	22.1	0.00e+00	0	40	0	912261120	48	5673
2026-01-02 11:43:57.39	72.59	9.80	-37.1	-38.1	22.2	0.00e+00	0	39	0	915406848	48	5643
2026-01-02 11:43:58.40	72.77	9.79	-37.0	-38.0	22.2	0.00e+00	0	39	0	918552576	48	5592
2026-01-02 11:43:59.41	72.95	9.79	-36.9	-38.0	22.4	0.00e+00	0	40	0	921698304	48	5534
2026-01-02 11:44:00.42	73.12	9.78	-37.0	-38.0	22.3	0.00e+00	0	39	0	924844032	48	5563
2026-01-02 11:44:01.43	73.30	9.78	-36.9	-37.9	22.4	0.00e+00	0	39	0	927989760	48	5515
2026-01-02 11:44:02.44	73.48	9.77	-36.8	-37.8	22.4	0.00e+00	0	39	0	931135488	48	5467
2026-01-02 11:44:03.45	73.66	9.77	-36.8	-37.9	22.4	0.00e+00	0	39	0	934281216	48	5483
2026-01-02 11:44:04.46	73.84	9.76	-36.9	-37.9	22.3	0.00e+00	0	39	0	937426944	48	5500
2026-01-02 11:44:05.47	74.02	9.76	-36.9	-38.0	22.3	0.00e+00	0	39	0	940572672	48	5540
2026-01-02 11:44:06.48	74.20	9.75	-37.0	-38.0	22.3	0.00e+00	0	39	0	943718400	48	5576
2026-01-02 11:44:07.49	74.38	9.74	-37.0	-38.0	22.3	0.00e+00	0	39	0	946864128	48	5584
2026-01-02 11:44:08.50	74.55	9.74	-36.9	-37.9	22.4	0.00e+00	0	40	0	950009856	48	5524
2026-01-02 11:44:09.51	74.73	9.73	-37.1	-38.1	22.1	0.00e+00	0	40	0	953155584	48	5654
2026-01-02 11:44:10.52	74.91	9.72	-36.9	-37.9	22.3	0.00e+00	0	40	0	956301312	48	5520
2026-01-02 11:44:11.53	75.09	9.71	-37.0	-38.0	22.3	0.00e+00	0	40	0	959447040	48	5582
2026-01-02 11:44:12.54	75.27	9.71	-37.1	-38.2	22.1	0.00e+00	0	40	0	962592768	48	5676
2026-01-02 11:44:13.55	75.45	9.70	-37.3	-38.3	22.0	0.00e+00	0	40	0	965738496	48	5778
2026-01-02 11:44:14.56	75.62	9.69	-37.2	-38.3	22.0	0.00e+00	0	40	0	968884224	48	5751
2026-01-02 11:44:15.57	75.80	9.68	-37.2	-38.3	22.1	0.00e+00	0	40	0	972029952	48	5747
2026-01-02 11:44:16.58	75.98	9.67	-37.1	-38.1	22.2	0.00e+00	0	40	0	975175680	48	5656
2026-01-02 11:44:17.59	76.16	9.66	-37.0	-38.0	22.2	0.00e+00	0	40	0	978321408	48	5576
2026-01-02 11:44:18.60	76.33	9.65	-36.9	-38.0	22.2	0.00e+00	0	40	0	981467136	48	5565
2026-01-02 11:44:19.61	76.51	9.64	-37.0	-38.1	22.2	0.00e+00	0	40	0	984612864	48	5598
2026-01-02 11:44:20.62	76.69	9.63	-37.0	-38.1	22.2	0.00e+00	0	40	0	987758592	48	5608
2026-01-02 11:44:21.63	76.87	9.62	-37.1	-38.1	22.2	0.00e+00	0	39	0	990904320	48	5647
2026-01-02 11:44:22.64	77.04	9.61	-37.1	-38.2	22.2	0.00e+00	0	39	0	994050048	48	5664
2026-01-02 11:44:23.65	77.22	9.60	-37.3	-38.3	22.0	0.00e+00	0	40	0	997195776	48	5767
2026-01-02 11:44:24.66	77.40	9.59	-37.3	-38.4	22.0	0.00e+00	0	40	0	1000341504	48	5810
2026-01-02 11:44:25.67	77.57	9.58	-37.4	-38.4	21.9	0.00e+00	0	40	0	1003487232	48	5858
2026-01-02 11:44:26.68	77.75	9.57	-37.5	-38.6	21.8	0.00e+00	0	39	0	1006632960	48	5935
2026-01-02 11:44:27.69	77.93	9.56	-37.3	-38.4	22.0	0.00e+00	0	40	0	1009778688	48	5808
2026-01-02 11:44:28.70	78.10	9.55	-37.3	-38.4	22.0	0.00e+00	0	40	0	1013972992	48	5804
2026-01-02 11:44:29.71	78.28	9.54	-37.5	-38.5	21.9	0.00e+00	0	39	0	1016070144	48	5918
2026-01-02 11:44:30.72	78.46	9.52	-37.3	-38.4	21.9	0.00e+00	0	40	0	1019215872	48	5803
2026-01-02 11:44:31.73	78.63	9.51	-37.3	-38.4	21.8	0.00e+00	0	39	0	1022361600	48	5816
2026-01-02 11:44:32.74	78.81	9.50	-37.5	-38.5	21.8	0.00e+00	0	39	0	1025507328	48	5921
2026-01-02 11:44:33.75	78.98	9.49	-37.8	-38.8	21.6	0.00e+00	0	40	0	1029701632	48	6125
2026-01-02 11:44:34.76	79.16	9.47	-37.9	-39.0	21.5	0.00e+00	0	39	0	1032847360	48	6211
2026-01-02 11:44:35.77	79.34	9.46	-37.4	-38.5	21.8	0.00e+00	0	39	0	1035993088	48	5896
2026-01-02 11:44:36.77	79.51	9.45	-37.4	-38.4	22.0	0.00e+00	0	39	0	1039138816	48	5842
2026-01-02 11:44:37.78	79.68	9.43	-37.5	-38.6	21.8	0.00e+00	0	40	0	1041235968	48	5954
2026-01-02 11:44:38.79	79.86	9.42	-37.6	-38.7	21.7	0.00e+00	0	39	0	1045430272	48	6026
2026-01-02 11:44:39.81	80.04	9.41	-37.5	-38.6	21.8	0.00e+00	0	39	0	1048576000	48	5955
2026-01-02 11:44:40.82	80.21	9.39	-37.8	-38.9	21.4	0.00e+00	0	39	0	1051721728	48	6169
2026-01-02 11:44:41.83	80.38	9.38	-37.4	-38.5	21.7	0.00e+00	0	39	0	1054867456	48	5911
2026-01-02 11:44:42.84	80.56	9.36	-37.5	-38.6	21.7	0.00e+00	0	39	0	1058013184	48	5931
2026-01-02 11:44:43.85	80.73	9.35	-37.4	-38.4	21.8	0.00e+00	0	39	0	1061158912	48	5844
2026-01-02 11:44:44.86	80.91	9.33	-37.4	-38.5	21.9	0.00e+00	0	39	0	1064304640	48	5882
2026-01-02 11:44:45.87	81.08	9.32	-37.3	-38.4	21.9	0.00e+00	0	39	0	1067450368	48	5828
2026-01-02 11:44:46.88	81.25	9.30	-37.4	-38.5	21.8	0.00e+00	0	39	0	1070596096	48	5890
2026-01-02 11:44:47.89	81.43	9.29	-37.4	-38.5	21.8	0.00e+00	0	39	0	1073741824	48	5869
2026-01-02 11:44:48.89	81.60	9.27	-37.5	-38.6	21.6	0.00e+00	0	39	0	1076887552	48	5935
2026-01-02 11:44:49.90	81.77	9.25	-37.4	-38.5	21.7	0.00e+00	0	39	0	1080033280	48	5868
2026-01-02 11:44:50.91	81.95	9.24	-37.4	-38.4	21.7	0.00e+00	0	39	0	1083179008	48	5838
2026-01-02 11:44:51.92	82.12	9.22	-37.3	-38.4	21.7	0.00e+00	0	39	0	1086324736	48	5813
2026-01-02 11:44:52.93	82.29	9.20	-37.3	-38.4	21.7	0.00e+00	0	39	0	1089470464	48	5815
2026-01-02 11:44:53.94	82.46	9.19	-37.4	-38.4	21.7	0.00e+00	0	39	0	1092616192	48	5852
2026-01-02 11:44:54.95	82.63	9.17	-37.4	-38.5	21.6	0.00e+00	0	39	0	1095761920	48	5901
2026-01-02 11:44:55.96	82.81	9.15	-37.4	-38.5	21.7	0.00e+00	0	39	0	1098907648	48	5870
2026-01-02 11:44:56.97	82.98	9.13	-37.4	-38.4	21.8	0.00e+00	0	39	0	1102053376	48	5850
2026-01-02 11:44:57.98	83.15	9.12	-37.3	-38.3	21.8	0.00e+00	0	39	0	1105199104	48	5779
2026-01-02 11:44:58.99	83.32	9.10	-37.4	-38.4	21.7	0.00e+00	0	39	0	1108344832	48	5835
2026-01-02 11:45:00.00	83.49	9.08	-37.2	-38.3	21.8	0.00e+00	0	39	0	1111490560	48	5742
2026-01-02 11:45:01.01	83.66	9.06	-37.1	-38.1	21.9	0.00e+00	0	39	0	1114636288	48	5633
2026-01-02 11:45:02.02	83.83	9.04	-37.2	-38.2	21.8	0.00e+00	0	39	0	1117782016	48	5722
2026-01-02 11:45:03.03	84.00	9.02	-37.2	-38.2	21.8	0.00e+00	0	39	0	1120927744	48	5706
2026-01-02 11:45:04.04	84.17	9.00	-37.3	-38.3	21.8	0.00e+00	0	39	0	1124073472	48	5785
2026-01-02 11:45:05.05	84.34	8.98	-37.3	-38.3	21.8	0.00e+00	0	39	0	1127219200	48	5769
2026-01-02 11:45:06.06	84.51	8.97	-37.2	-38.2	22.0	0.00e+00	0	39	0	1130364928	48	5686
2026-01-02 11:45:07.07	84.68	8.95	-37.2	-38.3	22.0	0.00e+00	0	39	0	1133510656	48	5738
2026-01-02 11:45:08.08	84.85	8.93	-37.3	-38.3	22.0	0.00e+00	0	39	0	1136656384	48	5784
2026-01-02 11:45:09.09	85.02	8.91	-37.1	-38.1	22.0	0.00e+00	0	39	0	1139802112	48	5644
2026-01-02 11:45:10.09	85.19	8.88	-37.2	-38.3	21.9	0.00e+00	0	39	0	1142947840	48	5741
2026-01-02 11:45:11.11	85.36	8.86	-37.1	-38.1	22.0	0.00e+00	0	39	0	1146093568	48	5658
2026-01-02 11:45:12.12	85.53	8.84	-37.1	-38.2	21.9	0.00e+00	0	39	0	1149239296	48	5673
2026-01-02 11:45:13.12	85.70	8.82	-37.2	-38.2	21.9	0.00e+00	0	39	0	1152385024	48	5695
2026-01-02 11:45:14.13	85.86	8.80	-37.3	-38.3	21.9	0.00e+00	0	39	0	1155530752	48	5754
2026-01-02 11:45:15.14	86.03	8.78	-37.1	-38.1	22.0	0.00e+00	0	39	0	1158676480	48	5634
2026-01-02 11:45:16.15	86.20	8.76	-37.0	-38.1	22.1	0.00e+00	0	39	0	1161822208	48	5616
2026-01-02 11:45:17.16	86.37	8.74	-37.1	-38.2	22.1	0.00e+00	0	39	0	1164967936	48	5707
2026-01-02 11:45:18.17	86.53	8.71	-37.2	-38.2	22.0	0.00e+00	0	39	0	1168113664	48	5725
2026-01-02 11:45:19.18	86.70	8.69	-37.1	-38.2	22.1	0.00e+00	0	39	0	1171259392	48	5680
2026-01-02 11:45:20.19	86.87	8.67	-37.0	-38.0	22.1	0.00e+00	0	39	0	1174405120	48	5586
2026-01-02 11:45:21.20	87.03	8.65	-37.0	-38.0	22.3	0.00e+00	0	39	0	1177550848	48	5568
2026-01-02 11:45:22.21	87.20	8.62	-37.0	-38.1	22.1	0.00e+00	0	39	0	1180696576	48	5615
2026-01-02 11:45:23.22	87.37	8.60	-37.1	-38.1	22.2	0.00e+00	0	39	0	1183842304	48	5628
2026-01-02 11:45:24.23	87.53	8.58	-37.1	-38.2	22.0	0.00e+00	0	39	0	1186988032	48	5665
2026-01-02 11:45:25.24	87.70	8.56	-37.2	-38.2	22.0	0.00e+00	0	39	0	1190133760	48	5682
2026-01-02 11:45:26.25	87.86	8.53	-37.1	-38.1	22.0	0.00e+00	0	39	0	1193279488	48	5636
2026-01-02 11:45:27.26	88.03	8.51	-37.4	-38.4	21.8	0.00e+00	0	39	0	1196425216	48	5818
2026-01-02 11:45:28.27	88.19	8.48	-37.2	-38.2	22.0	0.00e+00	0	39	0	1199570944	48	5698
2026-01-02 11:45:29.28	88.36	8.46	-37.2	-38.2	22.0	0.00e+00	0	39	0	1202716672	48	5721
2026-01-02 11:45:30.29	88.52	8.44	-37.3	-38.3	21.9	0.00e+00	0	39	0	1205862400	48	5754
2026-01-02 11:45:31.30	88.68	8.41	-37.2	-38.2	22.0	0.00e+00	0	39	0	1209008128	48	5700
2026-01-02 11:45:32.31	88.85	8.39	-37.3	-38.3	21.9	0.00e+00	0	39	0	1212153856	48	5780
2026-01-02 11:45:33.32	89.01	8.36	-37.3	-38.4	21.8	0.00e+00	0	39	0	1215299584	48	5826
2026-01-02 11:45:34.33	89.17	8.34	-37.3	-38.4	21.7	0.00e+00	0	39	0	1218445312	48	5852
2026-01-02 11:45:35.34	89.34	8.31	-37.2	-38.4	21.8	0.00e+00	0	39	0	1221591040	48	5792
2026-01-02 11:45:36.35	89.50	8.29	-37.2	-38.4	21.8	0.00e+00	0	39	0	1224736768	48	5806
2026-01-02 11:45:37.36	89.66	8.26	-37.3	-38.5	21.7	0.00e+00	0	39	0	1227882496	48	5921
2026-01-02 11:45:38.37	89.82	8.24	-37.2	-38.4	21.8	0.00e+00	0	39	0	1231028224	48	5814
2026-01-02 11:45:39.39	89.99	8.21	-37.3	-38.5	21.8	0.00e+00	0	39	0	1234173952	48	5875
2026-01-02 11:45:40.39	90.15	8.19	-37.3	-38.3	21.8	0.00e+00	0	39	0	1237319680	48	5790
2026-01-02 11:45:41.40	90.31	8.16	-37.4	-38.5	21.7	0.00e+00	0	39	0	1240465408	48	5876
2026-01-02 11:45:42.41	90.47	8.13	-37.3	-38.4	21.7	0.00e+00	0	39	0	1243611136	48	5827
2026-01-02 11:45:43.42	90.63	8.11	-37.4	-38.5	21.7	0.00e+00	0	39	0	1246756864	48	5886
2026-01-02 11:45:44.43	90.79	8.08	-37.2	-38.3	21.9	0.00e+00	0	39	0	1249902592	48	5753
2026-01-02 11:45:45.44	90.95	8.05	-37.3	-38.4	21.8	0.00e+00	0	39	0	1253048320	48	5823
2026-01-02 11:45:46.45	91.11	8.03	-37.5	-38.7	21.5	0.00e+00	0	39	0	1256194048	48	6008
2026-01-02 11:45:47.46	91.27	8.00	-37.5	-38.6	21.6	0.00e+00	0	39	0	1259339776	48	5937
2026-01-02 11:45:48.47	91.43	7.97	-37.4	-38.5	21.6	0.00e+00	0	39	0	1262485504	48	5924
2026-01-02 11:45:49.48	91.59	7.94	-37.6	-38.8	21.4	0.00e+00	0	39	0	1265631232	48	6068
2026-01-02 11:45:50.49	91.74	7.92	-37.7	-38.8	21.3	0.00e+00	0	39	0	1268776960	48	6098
2026-01-02 11:45:51.50	91.90	7.89	-37.4	-38.6	21.5	0.00e+00	0	39	0	1271922688	48	5929
2026-01-02 11:45:52.51	92.06	7.86	-37.4	-38.6	21.4	0.00e+00	0	39	0	1275068416	48	5929
2026-01-02 11:45:53.52	92.22	7.83	-37.4	-38.5	21.6	0.00e+00	0	39	0	1278214144	48	5918
2026-01-02 11:45:54.53	92.38	7.81	-37.2	-38.3	21.8	0.00e+00	0	39	0	1281359872	48	5783
2026-01-02 11:45:55.54	92.53	7.78	-37.2	-38.3	21.8	0.00e+00	0	39	0	1284505600	48	5748
2026-01-02 11:45:56.55	92.69	7.75	-37.2	-38.3	21.9	0.00e+00	0	39	0	1287651328	48	5745
2026-01-02 11:45:57.56	92.85	7.72	-37.1	-38.2	21.9	0.00e+00	0	39	0	1290797056	48	5683
2026-01-02 11:45:58.57	93.00	7.69	-37.1	-38.2	22.0	0.00e+00	0	39	0	1293942784	48	5666
2026-01-02 11:45:59.58	93.16	7.66	-37.2	-38.2	21.9	0.00e+00	0	39	0	1297088512	48	5724
2026-01-02 11:46:00.59	93.31	7.63	-37.3	-38.4	21.8	0.00e+00	0	39	0	1300234240	48	5803
2026-01-02 11:46:01.60	93.47	7.60	-37.2	-38.3	21.9	0.00e+00	0	39	0	1303379968	48	5787
2026-01-02 11:46:02.61	93.62	7.57	-37.3	-38.4	21.8	0.00e+00	0	39	0	1306525696	48	5845
2026-01-02 11:46:03.62	93.78	7.54	-37.4	-38.5	21.7	0.00e+00	0	39	0	1309671424	48	5888
2026-01-02 11:46:04.63	93.93	7.52	-37.4	-38.5	21.6	0.00e+00	0	39	0	1312817152	48	5910
2026-01-02 11:46:05.64	94.09	7.49	-37.5	-38.6	21.5	0.00e+00	0	39	0	1315962880	48	5961
2026-01-02 11:46:06.65	94.24	7.46	-37.6	-38.8	21.3	0.00e+00	0	39	0	1319108608	48	6083
2026-01-02 11:46:07.66	94.40	7.43	-37.6	-38.8	21.3	0.00e+00	0	39	0	1322254336	48	6080
2026-01-02 11:46:08.67	94.55	7.40	-37.7	-38.9	21.3	0.00e+00	0	39	0	1325400064	48	6171
2026-01-02 11:46:09.68	94.70	7.37	-37.7	-38.9	21.2	0.00e+00	0	39	0	1328545792	48	6136
2026-01-02 11:46:10.69	94.85	7.33	-37.8	-39.0	21.2	0.00e+00	0	39	0	1331691520	48	6228
2026-01-02 11:46:11.69	95.01	7.30	-37.7	-38.8	21.3	0.00e+00	0	39	0	1334837248	48	6132
2026-01-02 11:46:12.70	95.16	7.27	-37.8	-38.9	21.2	0.00e+00	0	39	0	1337982976	48	6178
2026-01-02 11:46:13.71	95.31	7.24	-37.7	-38.7	21.4	0.00e+00	0	39	0	1341128704	48	6055
2026-01-02 11:46:14.72	95.46	7.21	-37.6	-38.7	21.4	0.00e+00	0	39	0	1344274432	48	6026
2026-01-02 11:46:15.73	95.61	7.18	-37.6	-38.7	21.4	0.00e+00	0	39	0	1347420160	48	6020
2026-01-02 11:46:16.74	95.76	7.15	-37.6	-38.7	21.4	0.00e+00	0	39	0	1350565888	48	6036
2026-01-02 11:46:17.75	95.91	7.12	-37.6	-38.7	21.5	0.00e+00	0	39	0	1354760192	48	6014
2026-01-02 11:46:18.76	96.06	7.09	-37.6	-38.6	21.5	0.00e+00	0	39	0	1356857344	48	5989
2026-01-02 11:46:19.77	96.21	7.05	-37.7	-38.8	21.3	0.00e+00	0	39	0	1360003072	48	6108
2026-01-02 11:46:20.78	96.36	7.02	-37.6	-38.7	21.5	0.00e+00	0	39	0	1363148800	48	6021
2026-01-02 11:46:21.79	96.51	6.99	-37.7	-38.8	21.4	0.00e+00	0	39	0	1366294528	48	6096
2026-01-02 11:46:22.80	96.66	6.96	-37.9	-39.0	21.2	0.00e+00	0	39	0	1370488832	48	6235
2026-01-02 11:46:23.81	96.81	6.93	-37.9	-39.0	20.9	0.00e+00	0	39	0	1373634560	48	6268
2026-01-02 11:46:24.82	96.96	6.89	-38.0	-39.1	21.0	0.00e+00	0	39	0	1376780288	48	6349
2026-01-02 11:46:25.83	97.11	6.86	-38.1	-39.2	20.9	0.00e+00	0	39	0	1378877440	48	6410
2026-01-02 11:46:26.84	97.25	6.83	-38.2	-39.3	20.8	0.00e+00	0	39	0	1382023168	48	6484
2026-01-02 11:46:27.85	97.40	6.80	-38.1	-39.2	20.6	0.00e+00	0	39	0	1386217472	48	6422
2026-01-02 11:46:28.86	97.55	6.76	-38.1	-39.2	20.6	0.00e+00	0	39	0	1389363200	48	6387
2026-01-02 11:46:29.87	97.69	6.73	-38.1	-39.3	20.5	0.00e+00	0	39	0	1392508928	48	6434
2026-01-02 11:46:30.88	97.84	6.70	-38.1	-39.3	20.5	0.00e+00	0	39	0	1395654656	48	6437
2026-01-02 11:46:31.89	97.99	6.67	-38.3	-39.5	20.3	0.00e+00	0	39	0	1398800384	48	6622
2026-01-02 11:46:32.90	98.13	6.63	-38.0	-39.1	20.8	0.00e+00	0	39	0	1401946112	48	6324
2026-01-02 11:46:33.91	98.28	6.60	-38.0	-39.1	20.9	0.00e+00	0	39	0	1405091840	48	6336
2026-01-02 11:46:34.92	98.42	6.57	-37.9	-39.1	21.0	0.00e+00	0	39	0	1408237568	48	6287
2026-01-02 11:46:35.93	98.57	6.53	-37.9	-39.1	21.0	0.00e+00	0	39	0	1411383296	48	6299
2026-01-02 11:46:36.94	98.71	6.50	-37.9	-39.0	21.1	0.00e+00	0	39	0	1414529024	48	6253
2026-01-02 11:46:37.95	98.86	6.46	-37.9	-39.0	21.1	0.00e+00	0	39	0	1417674752	48	6218
2026-01-02 11:46:38.96	99.00	6.43	-37.9	-39.0	21.1	0.00e+00	0	39	0	1420820480	48	6223
2026-01-02 11:46:39.97	99.14	6.40	-37.8	-38.9	21.1	0.00e+00	0	39	0	1423966208	48	6180
2026-01-02 11:46:40.98	99.29	6.36	-38.0	-39.1	20.9	0.00e+00	0	39	0	1427111936	48	6339
2026-01-02 11:46:41.99	99.43	6.33	-38.0	-39.1	20.9	0.00e+00	0	39	0	1430257664	48	6330
2026-01-02 11:46:43.00	99.57	6.29	-38.2	-39.4	20.7	0.00e+00	0	39	0	1433403392	48	6520
2026-01-02 11:46:44.01	99.71	6.26	-38.2	-39.4	20.7	0.00e+00	0	39	0	1436549120	48	6549
2026-01-02 11:46:45.02	99.86	6.23	-38.2	-39.4	20.7	0.00e+00	0	39	0	1439694848	48	6538
2026-01-02 11:46:46.03	100.00	6.19	-38.3	-39.4	20.7	0.00e+00	0	39	0	1442840576	48	6558
2026-01-02 11:46:47.04	100.14	6.16	-38.4	-39.6	20.5	0.00e+00	0	39	0	1445986304	48	6678
2026-01-02 11:46:48.05	100.28	6.12	-38.0	-39.2	20.9	0.00e+00	0	39	0	1449132032	48	6373
2026-01-02 11:46:49.06	100.42	6.09	-38.2	-39.3	20.7	0.00e+00	0	39	0	1452277760	48	6460
2026-01-02 11:46:50.07	100.56	6.05	-38.3	-39.5	20.6	0.00e+00	0	39	0	1455423488	48	6600
2026-01-02 11:46:51.08	100.70	6.02	-38.1	-39.3	20.7	0.00e+00	0	39	0	1458569216	48	6464
2026-01-02 11:46:52.09	100.84	5.98	-38.3	-39.5	20.5	0.00e+00	0	39	0	1461714944	48	6628
2026-01-02 11:46:53.10	100.98	5.95	-38.4	-39.6	20.4	0.00e+00	0	39	0	1464860672	48	6704
2026-01-02 11:46:54.11	101.12	5.91	-38.1	-39.3	20.7	0.00e+00	0	39	0	1468006400	48	6431
2026-01-02 11:46:55.12	101.26	5.88	-38.2	-39.4	20.5	0.00e+00	0	39	0	1471152128	48	6555
2026-01-02 11:46:56.13	101.40	5.84	-38.0	-39.2	20.7	0.00e+00	0	39	0	1474297856	48	6365
2026-01-02 11:46:57.14	101.53	5.80	-38.2	-39.4	20.5	0.00e+00	0	39	0	1477443584	48	6550
2026-01-02 11:46:58.15	101.67	5.77	-38.2	-39.4	20.5	0.00e+00	0	39	0	1480589312	48	6553
2026-01-02 11:46:59.16	101.81	5.73	-38.2	-39.4	20.5	0.00e+00	0	39	0	1483735040	48	6535
2026-01-02 11:47:00.17	101.95	5.70	-37.9	-39.2	20.6	0.00e+00	0	39	0	1486880768	48	6376
2026-01-02 11:47:01.18	102.08	5.66	-38.0	-39.3	20.5	0.00e+00	0	39	0	1490026496	48	6497
2026-01-02 11:47:02.19	102.22	5.62	-38.0	-39.4	20.5	0.00e+00	0	39	0	1493172224	48	6519
2026-01-02 11:47:03.20	102.36	5.59	-38.2	-39.4	20.5	0.00e+00	0	39	0	1496317952	48	6552
2026-01-02 11:47:04.21	102.49	5.55	-38.1	-39.3	20.5	0.00e+00	0	39	0	1499463680	48	6434
2026-01-02 11:47:05.22	102.63	5.52	-38.5	-39.7	20.3	0.00e+00	0	39	0	1502609408	48	6789
2026-01-02 11:47:06.23	102.76	5.48	-38.2	-39.5	20.5	0.00e+00	0	39	0	1505755136	48	6586
2026-01-02 11:47:07.24	102.90	5.44	-38.1	-39.3	20.5	0.00e+00	0	39	0	1508900864	48	6479
2026-01-02 11:47:08.25	103.03	5.41	-38.2	-39.4	20.4	0.00e+00	0	39	0	1512046592	48	6525
2026-01-02 11:47:09.26	103.17	5.37	-38.2	-39.4	20.4	0.00e+00	0	39	0	1515192320	48	6557
2026-01-02 11:47:10.27	103.30	5.33	-38.2	-39.3	20.4	0.00e+00	0	39	0	1518338048	48	6485
2026-01-02 11:47:11.28	103.43	5.30	-38.3	-39.5	20.5	0.00e+00	0	39	0	1521483776	48	6614
2026-01-02 11:47:12.29	103.57	5.26	-38.4	-39.6	20.4	0.00e+00	0	39	0	1524629504	48	6688
2026-01-02 11:47:13.30	103.70	5.22	-38.1	-39.3	20.7	0.00e+00	0	39	0	1527775232	48	6488
2026-01-02 11:47:14.31	103.83	5.19	-38.1	-39.3	20.6	0.00e+00	0	39	0	1530920960	48	6492
2026-01-02 11:47:15.32	103.96	5.15	-38.3	-39.5	20.5	0.00e+00	0	39	0	1534066688	48	6622
2026-01-02 11:47:16.33	104.10	5.11	-38.3	-39.5	20.5	0.00e+00	0	39	0	1537212416	48	6646
2026-01-02 11:47:17.34	104.23	5.07	-38.0	-39.4	20.6	0.00e+00	0	39	0	1540358144	48	6500
2026-01-02 11:47:18.35	104.36	5.04	-38.2	-39.6	20.4	0.00e+00	0	39	0	1543503872	48	6652
2026-01-02 11:47:19.36	104.49	5.00	-38.2	-39.6	20.4	0.00e+00	0	39	0	1546649600	48	6690
2026-01-02 11:47:20.37	104.62	4.96	-38.2	-39.4	20.5	0.00e+00	0	39	0	1549795328	48	6572
2026-01-02 11:47:21.38	104.75	4.92	-38.5	-39.8	20.2	0.00e+00	0	39	0	1552941056	48	6836
2026-01-02 11:47:22.39	104.88	4.89	-38.4	-39.6	20.2	0.00e+00	0	39	0	1556086784	48	6692
2026-01-02 11:47:23.40	105.01	4.85	-38.2	-39.4	20.3	0.00e+00	0	39	0	1559232512	48	6549
2026-01-02 11:47:24.41	105.14	4.81	-38.4	-39.7	20.2	0.00e+00	0	39	0	1562378240	48	6749
2026-01-02 11:47:25.42	105.27	4.77	-38.3	-39.6	20.3	0.00e+00	0	39	0	1565523968	48	6667
2026-01-02 11:47:26.43	105.40	4.74	-38.4	-39.6	20.4	0.00e+00	0	39	0	1568669696	48	6688
2026-01-02 11:47:27.44	105.53	4.70	-38.6	-39.8	20.1	0.00e+00	0	39	0	1571815424	48	6879
2026-01-02 11:47:28.45	105.65	4.66	-38.7	-39.9	20.0	0.00e+00	0	39	0	1574961152	48	6908
2026-01-02 11:47:29.46	105.78	4.62	-38.7	-40.0	20.0	0.00e+00	0	39	0	1578106880	48	6966
2026-01-02 11:47:30.47	105.91	4.58	-38.6	-39.8	20.0	0.00e+00	0	39	0	1581252608	48	6866
2026-01-02 11:47:31.48	106.04	4.55	-38.6	-39.8	20.0	0.00e+00	0	39	0	1584398336	50	6087
2026-01-02 11:47:32.50	106.16	4.51	-38.7	-39.9	19.9	0.00e+00	0	39	0	1587544064	50	6150
2026-01-02 11:47:33.51	106.29	4.47	-38.8	-40.0	19.8	0.00e+00	0	39	0	1590689792	50	6266
2026-01-02 11:47:34.52	106.42	4.43	-38.7	-40.0	19.8	0.00e+00	0	39	0	1593835520	50	6207
2026-01-02 11:47:35.53	106.54	4.39	-38.8	-40.0	19.7	0.00e+00	0	39	0	1596981248	50	6276
2026-01-02 11:47:36.54	106.67	4.35	-39.1	-40.4	19.2	0.00e+00	0	39	0	1600126976	50	6526
2026-01-02 11:47:37.54	106.79	4.31	-38.9	-40.2	19.4	0.00e+00	0	39	0	1603272704	50	6410
2026-01-02 11:47:38.56	106.92	4.28	-39.1	-40.4	19.4	0.00e+00	0	39	0	1606418432	50	6528
2026-01-02 11:47:39.57	107.04	4.24	-38.9	-40.3	19.5	0.00e+00	0	39	0	1609564160	50	6425
2026-01-02 11:47:40.58	107.17	4.20	-38.9	-40.3	19.4	0.00e+00	0	39	0	1612709888	50	6425
2026-01-02 11:47:41.59	107.29	4.16	-39.2	-40.6	19.1	0.00e+00	0	39	0	1615855616	50	6659
2026-01-02 11:47:42.60	107.41	4.12	-39.4	-40.8	18.8	0.00e+00	0	39	0	1619001344	50	6845
2026-01-02 11:47:43.61	107.54	4.08	-39.4	-40.8	18.9	0.00e+00	0	39	0	1622147072	50	6806
2026-01-02 11:47:44.62	107.66	4.04	-39.5	-40.9	18.8	0.00e+00	0	39	0	1625292800	50	6959
2026-01-02 11:47:45.63	107.78	4.00	-39.6	-41.0	18.5	0.00e+00	0	39	0	1628438528	50	6995
2026-01-02 11:47:46.64	107.91	3.97	-39.5	-40.9	18.7	0.00e+00	0	39	0	1631584256	52	6185
2026-01-02 11:47:47.65	108.03	3.93	-39.4	-40.8	18.7	0.00e+00	0	39	0	1634729984	52	6080
2026-01-02 11:47:48.66	108.15	3.89	-39.5	-40.9	18.6	0.00e+00	0	39	0	1637875712	52	6170
2026-01-02 11:47:49.67	108.27	3.85	-39.4	-40.9	18.7	0.00e+00	0	39	0	1641021440	52	6144
2026-01-02 11:47:50.68	108.39	3.81	-39.2	-40.8	18.7	0.00e+00	0	39	0	1644167168	52	6081
2026-01-02 11:47:51.69	108.51	3.77	-39.3	-40.9	18.6	0.00e+00	0	39	0	1647312896	52	6195
2026-01-02 11:47:52.70	108.63	3.73	-39.7	-41.2	18.2	0.00e+00	0	39	0	1650458624	52	6401
2026-01-02 11:47:53.71	108.75	3.69	-39.8	-41.3	18.2	0.00e+00	0	39	0	1653604352	52	6448
2026-01-02 11:47:54.72	108.87	3.65	-39.7	-41.2	18.2	0.00e+00	0	39	0	1656750080	52	6386
2026-01-02 11:47:55.73	108.99	3.61	-39.6	-41.1	18.2	0.00e+00	0	39	0	1659895808	52	6319
2026-01-02 11:47:56.74	109.11	3.57	-39.8	-41.4	18.0	0.00e+00	0	39	0	1663041536	52	6537
2026-01-02 11:47:57.75	109.23	3.53	-39.6	-41.1	18.3	0.00e+00	0	39	0	1667235840	52	6328
2026-01-02 11:47:58.76	109.35	3.49	-40.0	-41.6	17.8	0.00e+00	0	39	0	1670381568	52	6660
2026-01-02 11:47:59.77	109.47	3.45	-39.7	-41.2	18.0	0.00e+00	0	39	0	1672478720	52	6388
2026-01-02 11:48:00.78	109.59	3.41	-39.9	-41.5	17.9	0.00e+00	0	39	0	1675624448	52	6595
2026-01-02 11:48:01.79	109.70	3.37	-40.0	-41.6	17.6	0.00e+00	0	39	0	1678770176	52	6721
2026-01-02 11:48:02.80	109.82	3.34	-39.8	-41.4	17.9	0.00e+00	0	39	0	1682964480	52	6512
2026-01-02 11:48:03.81	109.94	3.30	-40.0	-41.6	17.7	0.00e+00	0	39	0	1686110208	52	6695
2026-01-02 11:48:04.82	110.06	3.26	-39.8	-41.2	17.9	0.00e+00	0	39	0	1689255936	52	6417
2026-01-02 11:48:05.83	110.17	3.22	-39.7	-41.2	17.9	0.00e+00	0	39	0	1692401664	52	6423
2026-01-02 11:48:06.84	110.29	3.18	-39.8	-41.4	17.5	0.00e+00	0	39	0	1695547392	52	6569
2026-01-02 11:48:07.85	110.40	3.14	-39.8	-41.4	17.6	0.00e+00	0	39	0	1698693120	52	6555
2026-01-02 11:48:08.86	110.52	3.10	-40.0	-41.7	17.2	0.00e+00	0	39	0	1701838848	52	6800
2026-01-02 11:48:09.88	110.64	3.06	-40.2	-41.9	17.0	0.00e+00	0	39	0	1704984576	52	6950
2026-01-02 11:48:10.89	110.75	3.02	-40.2	-41.9	17.2	0.00e+00	0	39	0	1708130304	52	6958
2026-01-02 11:48:11.90	110.87	2.98	-48.1	-61.1	3.5	1.52e+00	0	39	104	1709178880	60	39771
2026-01-02 11:48:12.91	110.98	2.94	-46.7	-61.6	3.5	1.52e+00	0	39	104	1709178880	60	42113
2026-01-02 11:48:13.92	111.10	2.90	-49.0	-61.9	3.5	1.52e+00	0	39	104	1709178880	60	43750
2026-01-02 11:48:14.93	111.21	2.86	-49.2	-62.1	3.5	1.52e+00	0	39	104	1709178880	60	44616
2026-01-02 11:48:15.94	111.32	2.82	-49.2	-62.2	3.5	1.52e+00	0	39	104	1709178880	60	45128
2026-01-02 11:48:16.95	111.44	2.77	-49.3	-62.2	3.5	1.52e+00	0	39	104	1709178880	60	45437
2026-01-02 11:48:17.96	111.55	2.73	-49.4	-62.3	3.5	1.52e+00	0	39	104	1709178880	60	45557
2026-01-02 11:48:18.97	111.66	2.69	-49.3	-62.3	3.5	1.51e+00	0	39	104	1709178880	60	45571
2026-01-02 11:48:19.98	111.77	2.65	-49.5	-62.3	3.5	1.52e+00	0	39	104	1709178880	60	45875
2026-01-02 11:48:20.99	111.89	2.61	-49.5	-62.3	3.5	1.52e+00	0	39	104	1709178880	60	45796
2026-01-02 11:48:22.00	112.00	2.57	-49.5	-62.3	3.5	1.52e+00	0	39	104	1709178880	60	45861
2026-01-02 11:48:23.01	112.11	2.53	-49.5	-62.3	3.5	1.51e+00	0	39	104	1709178880	60	45806
2026-01-02 11:48:24.02	112.22	2.49	-49.5	-62.3	3.5	1.52e+00	0	39	104	1709178880	60	45976
2026-01-02 11:48:25.03	112.33	2.45	-49.5	-62.4	3.5	1.52e+00	0	39	104	1709178880	60	46083
2026-01-02 11:48:26.04	112.44	2.41	-49.5	-62.4	3.5	1.51e+00	0	39	104	1709178880	60	46005
2026-01-02 11:48:27.05	112.55	2.37	-49.5	-62.3	3.5	1.51e+00	0	39	104	1709178880	60	45888
2026-01-02 11:48:28.06	112.66	2.33	-49.4	-62.3	3.5	1.52e+00	0	39	104	1709178880	60	45980
2026-01-02 11:48:29.08	112.77	2.29	-49.4	-62.4	3.5	1.52e+00	0	39	104	1709178880	60	46015
2026-01-02 11:48:30.09	112.88	2.25	-49.4	-62.4	3.5	1.52e+00	0	39	104	1709178880	60	46114
2026-01-02 11:48:31.10	112.99	2.21	-49.4	-62.4	3.5	1.52e+00	0	39	104	1709178880	60	46142
2026-01-02 11:48:32.10	113.10	2.17	-49.4	-62.3	3.5	1.52e+00	0	39	104	1709178880	60	45911
2026-01-02 11:48:33.11	113.21	2.13	-49.4	-62.3	3.5	1.52e+00	0	39	104	1709178880	60	45711
2026-01-02 11:48:34.12	113.32	2.09	-49.4	-62.3	3.5	1.52e+00	0	39	104	1709178880	60	45800
2026-01-02 11:48:35.13	113.42	2.05	-49.4	-62.3	3.5	1.52e+00	0	39	104	1709178880	60	45561
2026-01-02 11:48:36.14	113.53	2.01	-49.4	-62.3	3.5	1.52e+00	0	39	104	1709178880	60	45742
2026-01-02 11:48:37.15	113.64	1.96	-49.4	-62.3	3.5	1.52e+00	0	39	104	1709178880	60	45775
2026-01-02 11:48:38.16	113.75	1.92	-49.4	-62.3	3.5	1.52e+00	0	39	104	1709178880	60	45727
2026-01-02 11:48:39.17	113.85	1.88	-49.4	-62.3	3.5	1.51e+00	0	39	104	1709178880	60	45819
2026-01-02 11:48:40.18	113.96	1.84	-49.4	-62.3	3.5	1.52e+00	0	39	104	1709178880	60	45837
2026-01-02 11:48:41.19	114.07	1.80	-49.4	-62.3	3.5	1.52e+00	0	39	104	1709178880	60	45577
2026-01-02 11:48:42.20	114.17	1.76	-49.4	-62.3	3.5	1.52e+00	0	39	104	1709178880	60	45902
2026-01-02 11:48:43.21	114.28	1.72	-49.4	-62.3	3.5	1.52e+00	0	39	104	1709178880	60	45665
2026-01-02 11:48:44.22	114.38	1.68	-49.4	-62.3	3.5	1.52e+00	0	39	104	1709178880	60	45663
2026-01-02 11:48:45.23	114.49	1.64	-49.4	-62.3	3.5	1.52e+00	0	39	104	1709178880	60	45734
2026-01-02 11:48:46.24	114.59	1.60	-49.4	-62.3	3.5	1.52e+00	0	39	104	1709178880	60	45761
2026-01-02 11:48:47.25	114.70	1.56	-49.4	-62.3	3.5	1.52e+00	0	39	104	1709178880	60	45660
2026-01-02 11:48:48.26	114.80	1.52	-49.4	-62.4	3.5	1.52e+00	0	39	104	1709178880	60	46068
2026-01-02 11:48:49.27	114.91	1.47	-49.4	-62.3	3.5	1.52e+00	0	39	104	1709178880	60	45477
2026-01-02 11:48:50.28	115.01	1.43	-49.4	-62.3	3.5	1.52e+00	0	39	104	1709178880	60	45836
2026-01-02 11:48:51.29	115.12	1.39	-49.4	-62.3	3.5	1.51e+00	0	39	104	1709178880	60	45862
2026-01-02 11:48:52.30	115.22	1.35	-49.4	-62.3	3.5	1.52e+00	0	39	104	1709178880	60	45709
2026-01-02 11:48:53.31	115.32	1.31	-49.4	-62.3	3.5	1.51e+00	0	39	104	1709178880	60	45871
2026-01-02 11:48:54.32	115.42	1.27	-49.4	-62.3	3.5	1.52e+00	0	39	104	1709178880	60	45775
2026-01-02 11:48:55.33	115.53	1.23	-49.4	-62.3	3.5	1.52e+00	0	39	104	1709178880	60	45831
2026-01-02 11:48:56.34	115.63	1.19	-49.4	-62.3	3.5	1.52e+00	0	39	104	1709178880	60	45942
2026-01-02 11:48:57.35	115.73	1.15	-49.4	-62.3	3.5	1.52e+00	0	39	104	1709178880	60	45818
2026-01-02 11:48:58.36	115.83	1.10	-49.4	-62.3	3.5	1.52e+00	0	39	104	1709178880	60	45624
2026-01-02 11:48:59.37	115.93	1.06	-49.4	-62.3	3.5	1.52e+00	0	39	104	1709178880	60	45981
2026-01-02 11:49:00.38	116.04	1.02	-49.4	-62.3	3.5	1.52e+00	0	39	104	1709178880	60	45873
2026-01-02 11:49:01.39	116.14	0.98	-49.4	-62.3	3.5	1.52e+00	0	39	104	1709178880	60	45794
2026-01-02 11:49:02.40	116.24	0.94	-49.4	-62.3	3.5	1.52e+00	0	39	104	1709178880	60	45538
2026-01-02 11:49:03.41	116.34	0.90	-49.4	-62.3	3.5	1.52e+00	0	39	104	1709178880	60	45913
2026-01-02 11:49:04.42	116.44	0.86	-49.4	-62.3	3.5	1.51e+00	0	39	104	1709178880	60	45803
2026-01-02 11:49:05.43	116.54	0.82	-49.4	-62.3	3.5	1.52e+00	0	39	104	1709178880	60	45546
2026-01-02 11:49:06.44	116.64	0.78	-49.4	-62.3	3.5	1.52e+00	0	39	104	1709178880	60	45710
2026-01-02 11:49:07.45	116.74	0.73	-49.4	-62.3	3.5	1.52e+00	0	39	104	1709178880	60	45822
2026-01-02 11:49:08.46	116.84	0.69	-49.4	-62.3	3.5	1.52e+00	0	39	104	1709178880	60	45716
2026-01-02 11:49:09.47	116.93	0.65	-49.4	-62.3	3.5	1.52e+00	0	39	104	1709178880	60	45696
2026-01-02 11:49:10.48	117.03	0.61	-49.4	-62.3	3.5	1.52e+00	0	39	104	1709178880	60	45717
2026-01-02 11:49:11.49	117.13	0.57	-49.4	-62.3	3.5	1.52e+00	0	39	104	1709178880	60	45678
2026-01-02 11:49:12.49	117.23	0.53	-49.4	-62.3	3.5	1.52e+00	0	39	104	1709178880	60	45532
2026-01-02 11:49:13.50	117.33	0.49	-49.4	-62.3	3.5	1.51e+00	0	39	104	1709178880	60	45685
2026-01-02 11:49:14.52	117.42	0.45	-49.4	-62.3	3.5	1.51e+00	0	39	104	1709178880	60	45733
2026-01-02 11:49:15.53	117.52	0.40	-49.4	-62.3	3.5	1.52e+00	0	39	104	1709178880	60	45809
2026-01-02 11:49:16.54	117.62	0.36	-49.4	-62.3	3.5	1.52e+00	0	39	104	1709178880	60	45712
2026-01-02 11:49:17.55	117.72	0.32	-49.4	-62.3	3.5	1.52e+00	0	39	104	1709178880	60	45496
2026-01-02 11:49:18.56	117.81	0.28	-49.4	-62.3	3.5	1.52e+00	0	39	104	1709178880	60	45694
2026-01-02 11:49:19.57	117.91	0.24	-49.4	-62.3	3.5	1.52e+00	0	39	104	1709178880	60	45746
2026-01-02 11:49:20.58	118.00	0.20	-49.4	-62.3	3.5	1.52e+00	0	39	104	1709178880	60	45571
2026-01-02 11:49:21.58	118.10	0.16	-49.4	-62.3	3.5	1.52e+00	0	39	104	1709178880	60	45714
2026-01-02 11:49:22.60	118.20	0.12	-49.4	-62.3	3.5	1.52e+00	0	40	104	1709178880	60	45779
2026-01-02 11:49:23.61	118.29	0.07	-49.4	-62.3	3.5	1.52e+00	0	39	104	1709178880	60	45698
2026-01-02 11:49:24.62	118.39	0.03	-49.4	-62.3	3.5	1.52e+00	0	39	104	1709178880	60	45665
2026-01-02 11:49:25.62	118.48	-0.01	-49.4	-62.3	3.5	1.52e+00	0	39	104	1709178880	60	45722
2026-01-02 11:49:26.63	118.57	-0.05	-49.4	-62.3	3.5	1.52e+00	0	39	104	1709178880	60	45619

#Closed at: 2026-01-02 11:49:26
#Recorded file [1709 MB]: D:/lorett/data/35029_260102_233755.dat