passes_logs/2026/01/02/R4.6S_Anadyr/R4.6S_Anadyr__20260102_234312_SUOMI_NPP_rec.log

#Pass ID: 20260102_234312_SUOMI NPP
#Satellite: SUOMI NPP
#Configuration: NPP
#almurnet v.1.7.20251203
#Start time: 2026-01-02 23:43:15

#Version: 2.2.20231116
#Station: R4.6S_Anadyr
#Location: 177.4865 lon 64.73178 lat
#TLE: 1 37849U 11061A   26001.07732418  .00000182  00000+0  10735-3 0  9990
#TLE: 2 37849  98.7795 303.2470 0002580  87.2016 272.9455 14.19520779734739

#Time	Az	El	Level	Level2	SNR	BER	BlckErr	Temp	State	Recorded	gain1	gain2
2026-01-02 23:43:15.52	142.24	0.17	-50.3	-64.0	3.3	1.54e+00	0	37	0	0	60	57442
2026-01-02 23:43:16.52	142.23	0.23	-50.3	-65.4	3.6	1.51e+00	0	38	104	0	60	67673
2026-01-02 23:43:17.53	142.22	0.29	-50.2	-65.4	3.6	1.51e+00	0	38	104	0	60	67516
2026-01-02 23:43:18.54	142.20	0.36	-50.2	-65.4	3.6	1.51e+00	0	38	104	0	60	67504
2026-01-02 23:43:19.55	142.19	0.42	-50.2	-65.4	3.6	1.51e+00	0	38	104	0	60	67358
2026-01-02 23:43:20.56	142.18	0.48	-50.2	-65.4	3.6	1.51e+00	0	38	104	0	60	67045
2026-01-02 23:43:21.57	142.16	0.54	-50.0	-65.3	3.6	1.51e+00	0	38	104	0	60	66636
2026-01-02 23:43:22.58	142.15	0.60	-50.0	-65.3	3.6	1.51e+00	0	38	104	0	60	66313
2026-01-02 23:43:23.59	142.14	0.66	-49.8	-65.1	3.6	1.51e+00	0	38	104	0	60	65057
2026-01-02 23:43:24.60	142.12	0.72	-49.7	-64.9	3.6	1.51e+00	0	38	104	0	60	63680
2026-01-02 23:43:25.61	142.11	0.79	-49.3	-64.6	3.6	1.51e+00	0	38	104	0	60	61079
2026-01-02 23:43:26.62	142.10	0.85	-48.9	-64.1	3.6	1.51e+00	0	38	104	0	60	58052
2026-01-02 23:43:27.63	142.09	0.91	-48.3	-63.5	3.6	1.51e+00	0	38	104	0	60	54244
2026-01-02 23:43:28.64	142.07	0.97	-47.0	-62.3	3.6	1.51e+00	0	38	104	0	60	47239
2026-01-02 23:43:29.65	142.06	1.03	-46.8	-62.2	3.5	1.51e+00	0	38	104	0	60	46606
2026-01-02 23:43:30.66	142.04	1.10	-46.8	-62.2	3.6	1.51e+00	0	38	104	0	60	46504
2026-01-02 23:43:31.67	142.03	1.16	-46.8	-62.2	3.6	1.51e+00	0	38	104	0	60	46500
2026-01-02 23:43:32.68	142.02	1.22	-46.9	-62.2	3.3	1.51e+00	0	38	104	0	60	46611
2026-01-02 23:43:33.69	142.00	1.29	-46.7	-62.2	3.5	1.51e+00	0	38	104	0	60	46591
2026-01-02 23:43:34.70	141.99	1.35	-46.7	-62.2	3.6	1.51e+00	0	38	104	0	60	46506
2026-01-02 23:43:35.71	141.98	1.41	-46.7	-62.2	3.6	1.51e+00	0	38	104	0	60	46513
2026-01-02 23:43:36.72	141.96	1.47	-46.7	-62.1	3.6	1.51e+00	0	38	104	0	60	46244
2026-01-02 23:43:37.73	141.95	1.54	-46.7	-62.2	3.6	1.51e+00	0	38	104	0	60	46323
2026-01-02 23:43:38.74	141.93	1.60	-46.7	-62.2	3.6	1.51e+00	0	38	104	0	60	46596
2026-01-02 23:43:39.75	141.92	1.67	-46.7	-62.2	3.6	1.51e+00	0	38	104	0	60	46540
2026-01-02 23:43:40.76	141.91	1.73	-46.7	-62.2	3.6	1.51e+00	0	38	104	0	60	46608
2026-01-02 23:43:41.77	141.89	1.79	-46.7	-62.1	3.6	1.51e+00	0	38	104	0	60	46239
2026-01-02 23:43:42.78	141.88	1.86	-46.7	-62.0	3.6	1.51e+00	0	38	104	0	60	45620
2026-01-02 23:43:43.79	141.86	1.92	-46.9	-62.1	3.6	1.51e+00	0	38	104	0	60	45804
2026-01-02 23:43:44.80	141.85	1.99	-46.7	-62.1	3.6	1.51e+00	0	38	104	0	60	45877
2026-01-02 23:43:45.81	141.83	2.05	-46.7	-62.1	3.6	1.51e+00	0	38	104	0	60	46015
2026-01-02 23:43:46.82	141.82	2.12	-46.7	-62.1	3.6	1.51e+00	0	38	104	0	60	46204
2026-01-02 23:43:47.83	141.80	2.18	-46.7	-62.1	3.6	1.51e+00	0	38	104	0	60	46103
2026-01-02 23:43:48.84	141.79	2.25	-46.5	-62.1	3.6	1.51e+00	0	38	104	0	60	46205
2026-01-02 23:43:49.85	141.77	2.31	-46.7	-62.2	3.6	1.51e+00	0	38	104	0	60	46460
2026-01-02 23:43:50.86	141.76	2.38	-46.7	-62.1	3.6	1.51e+00	0	38	104	0	60	46150
2026-01-02 23:43:51.87	141.74	2.44	-46.0	-62.1	3.6	1.51e+00	0	38	104	0	60	46064
2026-01-02 23:43:52.88	141.73	2.51	-46.7	-61.7	3.6	1.51e+00	0	38	104	0	60	44168
2026-01-02 23:43:53.89	141.71	2.57	-46.6	-62.1	3.6	1.51e+00	0	38	104	0	60	45873
2026-01-02 23:43:54.90	141.70	2.64	-46.5	-62.1	3.6	1.51e+00	0	38	104	0	60	45955
2026-01-02 23:43:55.91	141.68	2.71	-46.6	-62.0	3.6	1.51e+00	0	38	104	0	60	45745
2026-01-02 23:43:56.92	141.67	2.77	-46.4	-61.8	3.6	1.51e+00	0	38	104	0	60	44620
2026-01-02 23:43:57.93	141.65	2.84	-46.6	-61.6	3.6	1.51e+00	0	38	104	0	60	43638
2026-01-02 23:43:58.94	141.64	2.90	-46.6	-61.4	3.6	1.51e+00	0	38	104	0	60	42409
2026-01-02 23:43:59.96	141.62	2.97	-46.6	-61.2	3.6	1.51e+00	0	38	104	0	60	41605
2026-01-02 23:44:00.96	141.60	3.04	-46.9	-61.2	3.6	1.51e+00	0	39	104	0	60	41677
2026-01-02 23:44:01.97	141.59	3.10	-46.7	-61.3	3.6	1.51e+00	0	38	104	0	60	42109
2026-01-02 23:44:02.98	141.57	3.17	-46.7	-61.5	3.6	1.51e+00	0	39	104	0	60	42865
2026-01-02 23:44:03.99	141.56	3.24	-46.7	-61.6	3.6	1.51e+00	0	38	104	0	60	43341
2026-01-02 23:44:05.00	141.54	3.31	-46.7	-61.7	3.6	1.51e+00	0	39	104	0	60	44111
2026-01-02 23:44:06.01	141.52	3.37	-46.7	-61.6	3.6	1.51e+00	0	38	104	0	60	43694
2026-01-02 23:44:07.02	141.51	3.44	-46.7	-60.2	3.6	1.51e+00	0	39	104	0	60	37102
2026-01-02 23:44:08.03	141.49	3.51	-46.7	-61.3	3.6	1.51e+00	0	39	104	0	60	41861
2026-01-02 23:44:09.04	141.48	3.58	-46.7	-61.1	3.6	1.51e+00	0	38	104	0	60	41231
2026-01-02 23:44:10.05	141.46	3.65	-46.7	-61.0	3.6	1.51e+00	0	39	104	0	60	40668
2026-01-02 23:44:11.06	141.44	3.72	-46.5	-60.4	3.8	1.51e+00	0	38	104	0	60	37873
2026-01-02 23:44:12.07	141.42	3.78	-46.7	-61.1	3.6	1.51e+00	0	38	104	0	60	40833
2026-01-02 23:44:13.08	141.41	3.85	-46.6	-61.7	3.6	1.51e+00	0	38	104	0	60	44117
2026-01-02 23:44:14.09	141.39	3.92	-47.0	-62.0	3.6	1.50e+00	0	39	104	0	60	45678
2026-01-02 23:44:15.11	141.37	3.99	-46.7	-61.1	3.6	1.51e+00	0	39	104	0	60	41056
2026-01-02 23:44:16.11	141.36	4.06	-46.7	-60.0	3.6	1.51e+00	0	39	104	0	60	36338
2026-01-02 23:44:17.12	141.34	4.13	-46.8	-60.2	3.7	1.51e+00	0	39	104	0	60	36902
2026-01-02 23:44:18.13	141.32	4.20	-46.9	-61.2	3.6	1.51e+00	0	39	104	0	60	41610
2026-01-02 23:44:19.15	141.30	4.27	-46.6	-59.6	3.7	1.51e+00	0	39	104	0	60	34579
2026-01-02 23:44:20.16	141.29	4.34	-46.8	-60.6	3.6	1.51e+00	0	38	104	0	60	38768
2026-01-02 23:44:21.16	141.27	4.41	-46.7	-61.3	3.5	1.51e+00	0	38	104	0	60	41860
2026-01-02 23:44:22.18	141.25	4.48	-46.8	-61.1	3.5	1.51e+00	0	39	104	0	60	41184
2026-01-02 23:44:23.19	141.23	4.55	-46.7	-60.8	3.9	1.51e+00	0	39	104	0	60	39805
2026-01-02 23:44:24.20	141.22	4.62	-46.5	-60.0	3.8	1.52e+00	0	39	104	0	60	36249
2026-01-02 23:44:25.21	141.20	4.69	-46.4	-59.9	3.9	1.51e+00	0	38	104	0	60	35916
2026-01-02 23:44:26.22	141.18	4.76	-46.7	-59.9	3.6	1.51e+00	0	39	104	0	60	35787
2026-01-02 23:44:27.23	141.16	4.84	-47.0	-61.2	3.7	1.44e+00	0	39	104	0	60	41441
2026-01-02 23:44:28.24	141.14	4.91	-47.0	-61.0	3.6	1.51e+00	0	39	104	0	60	40422
2026-01-02 23:44:29.25	141.12	4.98	-47.0	-61.9	3.6	1.51e+00	0	39	104	0	60	44966
2026-01-02 23:44:30.26	141.11	5.05	-47.0	-60.8	3.6	1.51e+00	0	39	104	0	60	39632
2026-01-02 23:44:31.27	141.09	5.12	-47.1	-61.9	3.6	1.51e+00	0	39	104	0	60	44758
2026-01-02 23:44:32.28	141.07	5.20	-47.3	-61.7	3.7	1.51e+00	0	39	104	0	60	44086
2026-01-02 23:44:33.29	141.05	5.27	-47.5	-61.1	3.8	1.51e+00	0	39	104	0	60	40993
2026-01-02 23:44:34.30	141.03	5.34	-47.0	-59.8	3.8	1.51e+00	0	39	104	0	60	35314
2026-01-02 23:44:35.31	141.01	5.41	-46.5	-57.8	3.9	1.50e+00	0	39	104	0	60	28152
2026-01-02 23:44:36.32	140.99	5.49	-45.5	-52.2	6.7	3.36e-01	0	39	104	0	60	14755
2026-01-02 23:44:37.33	140.97	5.56	-46.6	-60.1	3.8	1.54e+00	0	39	104	0	60	36535
2026-01-02 23:44:38.34	140.95	5.63	-45.8	-51.8	7.7	2.73e-01	0	39	104	0	60	13986
2026-01-02 23:44:39.35	140.93	5.71	-45.6	-51.2	7.7	1.90e-01	0	39	0	1048576	60	13164
2026-01-02 23:44:40.36	140.91	5.78	-45.8	-51.2	9.1	1.81e-01	0	39	0	2097152	60	13187
2026-01-02 23:44:41.37	140.89	5.86	-45.8	-50.8	7.9	3.87e-02	0	39	0	4194304	60	12579
2026-01-02 23:44:42.38	140.87	5.93	-45.8	-51.0	8.3	6.23e-02	0	39	0	6291456	60	12776
2026-01-02 23:44:43.39	140.85	6.00	-45.7	-50.9	8.9	1.08e-01	0	39	0	8388608	60	12714
2026-01-02 23:44:44.40	140.83	6.08	-45.8	-50.9	9.3	2.79e-02	0	39	0	9437184	60	12613
2026-01-02 23:44:45.41	140.81	6.15	-45.7	-50.4	8.0	3.44e-02	0	39	0	11534336	60	11925
2026-01-02 23:44:46.42	140.79	6.23	-45.5	-49.9	9.6	6.28e-02	0	39	0	13631488	60	11331
2026-01-02 23:44:47.43	140.77	6.30	-45.5	-50.1	9.8	4.97e-02	0	39	0	15728640	60	11544
2026-01-02 23:44:48.44	140.75	6.38	-45.4	-49.4	9.1	7.17e-02	0	39	0	17825792	60	10614
2026-01-02 23:44:49.45	140.73	6.46	-45.3	-49.2	10.1	6.69e-02	0	39	0	18874368	60	10436
2026-01-02 23:44:50.46	140.71	6.53	-45.0	-48.9	9.9	2.09e-02	0	39	0	20971520	60	10027
2026-01-02 23:44:51.47	140.69	6.61	-45.1	-48.7	12.7	1.76e-02	0	39	0	23068672	60	9836
2026-01-02 23:44:52.48	140.67	6.68	-45.0	-48.6	13.0	1.52e-03	0	39	0	25165824	60	9755
2026-01-02 23:44:53.49	140.65	6.76	-44.8	-48.2	11.9	5.29e-03	0	39	0	27262976	60	9284
2026-01-02 23:44:54.50	140.63	6.84	-44.4	-47.6	11.0	1.74e-02	0	39	0	28311552	60	8650
2026-01-02 23:44:55.51	140.60	6.92	-44.5	-47.5	10.6	2.35e-02	0	39	0	30408704	60	8595
2026-01-02 23:44:56.52	140.58	6.99	-44.2	-47.1	13.0	9.59e-03	0	39	0	32505856	60	8147
2026-01-02 23:44:57.53	140.56	7.07	-44.2	-47.0	11.8	2.17e-02	0	39	0	34603008	60	8061
2026-01-02 23:44:58.54	140.54	7.15	-44.1	-46.8	11.8	1.85e-02	0	39	0	36700160	60	7938
2026-01-02 23:44:59.55	140.52	7.23	-44.1	-46.7	12.7	8.64e-03	0	39	0	37748736	60	7799
2026-01-02 23:45:00.56	140.49	7.30	-44.1	-46.6	13.7	3.67e-03	0	39	0	39845888	60	7690
2026-01-02 23:45:01.57	140.47	7.38	-43.7	-46.1	12.3	1.85e-03	0	39	0	41943040	60	7311
2026-01-02 23:45:02.58	140.45	7.46	-43.5	-45.7	13.7	3.87e-03	0	39	0	44040192	60	7005
2026-01-02 23:45:03.59	140.43	7.54	-43.6	-45.8	16.5	4.58e-04	0	39	0	46137344	60	7041
2026-01-02 23:45:04.60	140.40	7.62	-43.4	-45.7	13.7	3.88e-04	0	39	0	48234496	60	6939
2026-01-02 23:45:05.61	140.38	7.70	-43.3	-45.4	14.8	2.33e-04	0	39	0	49283072	60	6728
2026-01-02 23:45:06.62	140.36	7.78	-42.8	-44.7	15.5	8.08e-05	0	39	0	51380224	60	6174
2026-01-02 23:45:07.63	140.33	7.86	-42.5	-44.2	15.6	3.28e-05	0	39	0	53477376	58	6607
2026-01-02 23:45:08.64	140.31	7.94	-42.5	-44.2	17.3	9.10e-06	0	39	0	55574528	58	6614
2026-01-02 23:45:09.65	140.29	8.02	-42.2	-43.8	17.1	1.50e-06	0	39	0	57671680	58	6254
2026-01-02 23:45:10.65	140.26	8.10	-42.1	-43.7	17.5	0.00e+00	0	39	0	58720256	58	6196
2026-01-02 23:45:11.66	140.24	8.18	-42.0	-43.6	18.1	0.00e+00	0	39	0	60817408	58	6109
2026-01-02 23:45:12.67	140.22	8.26	-41.8	-43.3	18.1	0.00e+00	0	39	0	62914560	56	6670
2026-01-02 23:45:13.68	140.19	8.34	-41.8	-43.3	18.5	0.00e+00	0	39	0	65011712	56	6653
2026-01-02 23:45:14.69	140.17	8.43	-41.6	-43.0	19.0	0.00e+00	0	39	0	67108864	56	6445
2026-01-02 23:45:15.70	140.14	8.51	-41.5	-42.9	19.2	0.00e+00	0	39	0	68157440	56	6343
2026-01-02 23:45:16.71	140.12	8.59	-41.5	-42.9	19.6	0.00e+00	0	39	0	70254592	56	6358
2026-01-02 23:45:17.72	140.10	8.67	-41.5	-43.0	19.3	0.00e+00	0	39	0	72351744	56	6406
2026-01-02 23:45:18.73	140.07	8.75	-41.3	-42.6	19.9	0.00e+00	0	39	0	74448896	56	6156
2026-01-02 23:45:19.74	140.05	8.84	-41.1	-42.5	20.0	0.00e+00	0	39	0	76546048	56	6057
2026-01-02 23:45:20.75	140.02	8.92	-41.2	-42.5	20.3	0.00e+00	0	39	0	77594624	56	6093
2026-01-02 23:45:21.76	139.99	9.01	-41.0	-42.3	20.4	0.00e+00	0	39	0	79691776	56	5920
2026-01-02 23:45:22.77	139.97	9.09	-40.9	-42.1	20.5	0.00e+00	0	39	0	81788928	56	5821
2026-01-02 23:45:23.78	139.94	9.17	-40.7	-41.9	20.8	0.00e+00	0	39	0	83886080	56	5683
2026-01-02 23:45:24.79	139.92	9.26	-40.4	-41.6	20.9	0.00e+00	0	39	0	85983232	54	6148
2026-01-02 23:45:25.80	139.89	9.34	-40.4	-41.6	21.0	0.00e+00	0	39	0	87031808	54	6124
2026-01-02 23:45:26.81	139.87	9.43	-40.2	-41.4	21.2	0.00e+00	0	39	0	89128960	54	5976
2026-01-02 23:45:27.82	139.84	9.51	-40.1	-41.2	21.5	0.00e+00	0	39	0	91226112	54	5861
2026-01-02 23:45:28.83	139.81	9.60	-40.1	-41.2	21.4	0.00e+00	0	39	0	93323264	54	5874
2026-01-02 23:45:29.84	139.79	9.68	-40.2	-41.3	21.4	0.00e+00	0	39	0	95420416	54	5944
2026-01-02 23:45:30.85	139.76	9.77	-40.0	-41.1	21.5	0.00e+00	0	39	0	96468992	54	5820
2026-01-02 23:45:31.86	139.73	9.86	-40.0	-41.1	21.6	0.00e+00	0	39	0	98566144	54	5806
2026-01-02 23:45:32.87	139.71	9.94	-40.1	-41.2	21.4	0.00e+00	0	39	0	100663296	54	5876
2026-01-02 23:45:33.88	139.68	10.03	-39.9	-41.0	21.6	0.00e+00	0	39	0	102760448	54	5754
2026-01-02 23:45:34.89	139.65	10.12	-39.9	-41.1	21.6	0.00e+00	0	39	0	104857600	54	5771
2026-01-02 23:45:35.90	139.62	10.21	-40.0	-41.1	21.6	0.00e+00	0	39	0	105906176	54	5791
2026-01-02 23:45:36.91	139.59	10.29	-39.8	-40.9	21.8	0.00e+00	0	39	0	108003328	54	5691
2026-01-02 23:45:37.92	139.57	10.38	-39.9	-41.0	21.7	0.00e+00	0	39	0	110100480	54	5757
2026-01-02 23:45:38.93	139.54	10.47	-39.8	-40.9	21.9	0.00e+00	0	39	0	112197632	52	6339
2026-01-02 23:45:39.94	139.51	10.56	-39.9	-41.0	21.9	0.00e+00	0	39	0	114294784	52	6399
2026-01-02 23:45:40.95	139.48	10.65	-39.6	-40.7	22.1	0.00e+00	0	39	0	116391936	52	6185
2026-01-02 23:45:41.96	139.45	10.74	-39.4	-40.4	22.2	0.00e+00	0	39	0	117440512	52	6029
2026-01-02 23:45:42.97	139.42	10.83	-39.5	-40.6	22.2	0.00e+00	0	39	0	119537664	52	6120
2026-01-02 23:45:43.99	139.39	10.92	-39.3	-40.3	22.4	0.00e+00	0	39	0	121634816	52	5948
2026-01-02 23:45:45.00	139.36	11.01	-39.3	-40.3	22.3	0.00e+00	0	39	0	123731968	52	5955
2026-01-02 23:45:46.00	139.33	11.10	-39.2	-40.2	22.5	0.00e+00	0	39	0	125829120	52	5872
2026-01-02 23:45:47.01	139.30	11.19	-39.2	-40.2	22.5	0.00e+00	0	39	0	126877696	52	5881
2026-01-02 23:45:48.02	139.27	11.28	-39.2	-40.2	22.5	0.00e+00	0	39	0	128974848	52	5844
2026-01-02 23:45:49.04	139.24	11.38	-39.2	-40.2	22.5	0.00e+00	0	39	0	131072000	52	5871
2026-01-02 23:45:50.04	139.21	11.47	-39.2	-40.2	22.6	0.00e+00	0	39	0	133169152	52	5865
2026-01-02 23:45:51.05	139.18	11.56	-38.9	-39.9	22.8	0.00e+00	0	39	0	135266304	52	5650
2026-01-02 23:45:52.06	139.15	11.65	-38.9	-39.8	22.8	0.00e+00	0	39	0	136314880	52	5607
2026-01-02 23:45:53.08	139.12	11.75	-38.8	-39.8	22.8	0.00e+00	0	39	0	138412032	52	5598
2026-01-02 23:45:54.08	139.09	11.84	-38.8	-39.7	22.8	0.00e+00	0	39	0	140509184	52	5548
2026-01-02 23:45:55.09	139.06	11.93	-38.7	-39.6	23.1	0.00e+00	0	39	0	142606336	50	6149
2026-01-02 23:45:56.10	139.03	12.03	-38.7	-39.6	23.0	0.00e+00	0	39	0	144703488	50	6172
2026-01-02 23:45:57.12	138.99	12.12	-38.5	-39.4	22.9	0.00e+00	0	39	0	145752064	50	5982
2026-01-02 23:45:58.13	138.96	12.22	-38.4	-39.3	23.0	0.00e+00	0	39	0	147849216	50	5960
2026-01-02 23:45:59.14	138.93	12.31	-38.5	-39.4	22.7	0.00e+00	0	39	0	149946368	50	6024
2026-01-02 23:46:00.15	138.90	12.41	-38.4	-39.3	23.3	0.00e+00	0	39	0	152043520	50	5944
2026-01-02 23:46:01.16	138.86	12.50	-38.4	-39.3	23.1	0.00e+00	0	39	0	154140672	50	5915
2026-01-02 23:46:02.17	138.83	12.60	-38.5	-39.4	23.2	0.00e+00	0	39	0	155189248	50	6007
2026-01-02 23:46:03.18	138.80	12.70	-38.4	-39.3	23.4	0.00e+00	0	39	0	157286400	50	5959
2026-01-02 23:46:04.19	138.76	12.79	-38.4	-39.3	23.2	0.00e+00	0	39	0	159383552	50	5925
2026-01-02 23:46:05.20	138.73	12.89	-38.4	-39.3	23.3	0.00e+00	0	39	0	161480704	50	5939
2026-01-02 23:46:06.21	138.69	12.99	-38.5	-39.5	23.2	0.00e+00	0	39	0	163577856	50	6043
2026-01-02 23:46:07.21	138.66	13.09	-38.6	-39.6	23.1	0.00e+00	0	39	0	164626432	50	6106
2026-01-02 23:46:08.23	138.63	13.19	-38.3	-39.3	23.4	0.00e+00	0	39	0	166723584	50	5900
2026-01-02 23:46:09.23	138.59	13.29	-38.4	-39.4	23.3	0.00e+00	0	39	0	168820736	50	5969
2026-01-02 23:46:10.24	138.56	13.38	-38.4	-39.3	23.2	0.00e+00	0	39	0	170917888	50	5944
2026-01-02 23:46:11.26	138.52	13.49	-38.3	-39.2	23.4	0.00e+00	0	39	0	173015040	50	5880
2026-01-02 23:46:12.27	138.48	13.59	-38.4	-39.3	23.4	0.00e+00	0	39	0	174063616	50	5922
2026-01-02 23:46:13.27	138.45	13.69	-38.3	-39.2	23.5	0.00e+00	0	39	0	176160768	50	5853
2026-01-02 23:46:14.28	138.41	13.79	-38.2	-39.1	23.5	0.00e+00	0	39	0	178257920	50	5786
2026-01-02 23:46:15.30	138.38	13.89	-38.4	-39.3	23.4	0.00e+00	0	39	0	180355072	50	5958
2026-01-02 23:46:16.30	138.34	13.99	-38.4	-39.3	23.4	0.00e+00	0	39	0	182452224	50	5940
2026-01-02 23:46:17.31	138.30	14.09	-38.3	-39.1	23.5	0.00e+00	0	39	0	184549376	50	5821
2026-01-02 23:46:18.32	138.26	14.20	-38.4	-39.3	23.4	0.00e+00	0	39	0	185597952	50	5911
2026-01-02 23:46:19.33	138.23	14.30	-38.5	-39.5	23.3	0.00e+00	0	39	0	187695104	50	6041
2026-01-02 23:46:20.34	138.19	14.40	-38.5	-39.4	23.4	0.00e+00	0	39	0	189792256	50	6009
2026-01-02 23:46:21.36	138.15	14.51	-38.5	-39.4	23.4	0.00e+00	0	39	0	191889408	50	5980
2026-01-02 23:46:22.36	138.11	14.61	-38.6	-39.5	23.3	0.00e+00	0	39	0	193986560	50	6096
2026-01-02 23:46:23.37	138.07	14.72	-38.7	-39.7	23.2	0.00e+00	0	39	0	195035136	50	6179
2026-01-02 23:46:24.38	138.03	14.82	-38.6	-39.5	23.4	0.00e+00	0	39	0	197132288	50	6073
2026-01-02 23:46:25.40	138.00	14.93	-38.7	-39.6	23.3	0.00e+00	0	39	0	199229440	50	6142
2026-01-02 23:46:26.41	137.96	15.03	-38.6	-39.5	23.3	0.00e+00	0	39	0	201326592	50	6082
2026-01-02 23:46:27.42	137.92	15.14	-38.4	-39.3	23.6	0.00e+00	0	39	0	203423744	50	5932
2026-01-02 23:46:28.43	137.88	15.25	-38.4	-39.3	23.4	0.00e+00	0	39	0	204472320	50	5944
2026-01-02 23:46:29.43	137.84	15.35	-38.3	-39.2	23.6	0.00e+00	0	39	0	206569472	50	5842
2026-01-02 23:46:30.44	137.79	15.46	-38.4	-39.3	23.5	0.00e+00	0	39	0	208666624	50	5899
2026-01-02 23:46:31.46	137.75	15.57	-38.5	-39.4	23.6	0.00e+00	0	39	0	210763776	50	5991
2026-01-02 23:46:32.46	137.71	15.68	-38.3	-39.2	23.6	0.00e+00	0	39	0	212860928	50	5833
2026-01-02 23:46:33.47	137.67	15.79	-38.2	-39.1	23.6	0.00e+00	0	39	0	213909504	50	5781
2026-01-02 23:46:34.48	137.63	15.90	-38.1	-39.0	23.7	0.00e+00	0	39	0	216006656	50	5725
2026-01-02 23:46:35.49	137.58	16.01	-38.2	-39.1	23.7	0.00e+00	0	39	0	218103808	50	5779
2026-01-02 23:46:36.50	137.54	16.12	-38.2	-39.1	23.7	0.00e+00	0	39	0	220200960	50	5803
2026-01-02 23:46:37.51	137.50	16.23	-38.2	-39.1	23.6	0.00e+00	0	39	0	222298112	50	5781
2026-01-02 23:46:38.52	137.46	16.34	-38.2	-39.1	23.8	0.00e+00	0	39	0	223346688	50	5765
2026-01-02 23:46:39.53	137.41	16.46	-38.1	-39.0	23.8	0.00e+00	0	39	0	225443840	50	5715
2026-01-02 23:46:40.54	137.37	16.57	-38.0	-38.8	23.9	0.00e+00	0	39	0	227540992	50	5613
2026-01-02 23:46:41.55	137.32	16.68	-38.0	-38.8	24.0	0.00e+00	0	39	0	229638144	50	5615
2026-01-02 23:46:42.56	137.28	16.80	-38.0	-38.8	23.9	0.00e+00	0	39	0	231735296	50	5626
2026-01-02 23:46:43.57	137.23	16.91	-37.9	-38.7	24.0	0.00e+00	0	39	0	232783872	50	5559
2026-01-02 23:46:44.58	137.19	17.03	-37.8	-38.7	24.0	0.00e+00	0	39	0	234881024	50	5523
2026-01-02 23:46:45.59	137.14	17.14	-38.0	-38.8	24.0	0.00e+00	0	39	0	236978176	50	5600
2026-01-02 23:46:46.60	137.09	17.26	-38.0	-38.8	23.9	0.00e+00	0	39	0	239075328	50	5616
2026-01-02 23:46:47.61	137.05	17.37	-38.0	-38.9	24.0	0.00e+00	0	39	0	241172480	50	5645
2026-01-02 23:46:48.62	137.00	17.49	-38.1	-39.0	23.8	0.00e+00	0	39	0	242221056	50	5733
2026-01-02 23:46:49.63	136.95	17.61	-38.3	-39.1	23.6	0.00e+00	0	39	0	244318208	50	5816
2026-01-02 23:46:50.64	136.90	17.73	-38.4	-39.3	23.6	0.00e+00	0	39	0	246415360	50	5960
2026-01-02 23:46:51.65	136.86	17.85	-38.2	-39.1	23.7	0.00e+00	0	39	0	248512512	50	5817
2026-01-02 23:46:52.66	136.81	17.96	-38.3	-39.2	23.7	0.00e+00	0	39	0	250609664	50	5859
2026-01-02 23:46:53.67	136.76	18.08	-38.3	-39.2	23.6	0.00e+00	0	39	0	252706816	50	5872
2026-01-02 23:46:54.68	136.71	18.20	-38.4	-39.3	23.6	0.00e+00	0	39	0	253755392	50	5898
2026-01-02 23:46:55.69	136.66	18.33	-38.3	-39.2	23.7	0.00e+00	0	39	0	255852544	50	5864
2026-01-02 23:46:56.70	136.61	18.45	-38.3	-39.2	23.5	0.00e+00	0	39	0	257949696	50	5883
2026-01-02 23:46:57.71	136.56	18.57	-38.3	-39.2	23.7	0.00e+00	0	39	0	260046848	50	5864
2026-01-02 23:46:58.72	136.50	18.69	-38.4	-39.3	23.5	0.00e+00	0	39	0	262144000	50	5946
2026-01-02 23:46:59.73	136.45	18.82	-38.5	-39.4	23.6	0.00e+00	0	39	0	263192576	50	6000
2026-01-02 23:47:00.74	136.40	18.94	-38.5	-39.4	23.5	0.00e+00	0	39	0	265289728	50	5982
2026-01-02 23:47:01.75	136.35	19.06	-38.4	-39.3	23.6	0.00e+00	0	39	0	267386880	50	5947
2026-01-02 23:47:02.76	136.29	19.19	-38.4	-39.3	23.5	0.00e+00	0	39	0	269484032	50	5959
2026-01-02 23:47:03.77	136.24	19.31	-38.7	-39.7	23.3	0.00e+00	0	39	0	271581184	50	6176
2026-01-02 23:47:04.78	136.19	19.44	-38.6	-39.5	23.5	0.00e+00	0	39	0	272629760	50	6052
2026-01-02 23:47:05.79	136.13	19.57	-38.5	-39.4	23.5	0.00e+00	0	39	0	274726912	50	6032
2026-01-02 23:47:06.80	136.08	19.69	-38.8	-39.7	23.3	0.00e+00	0	39	0	276824064	50	6208
2026-01-02 23:47:07.81	136.02	19.82	-38.6	-39.6	23.4	0.00e+00	0	39	0	278921216	50	6111
2026-01-02 23:47:08.82	135.97	19.95	-38.8	-39.7	23.3	0.00e+00	0	39	0	281018368	50	6227
2026-01-02 23:47:09.83	135.91	20.08	-38.9	-39.8	23.2	0.00e+00	0	39	0	282066944	50	6269
2026-01-02 23:47:10.84	135.85	20.21	-38.5	-39.4	23.5	0.00e+00	0	39	0	284164096	50	5973
2026-01-02 23:47:11.85	135.79	20.34	-38.4	-39.3	23.6	0.00e+00	0	39	0	286261248	50	5932
2026-01-02 23:47:12.86	135.74	20.47	-38.2	-39.1	23.7	0.00e+00	0	39	0	288358400	50	5813
2026-01-02 23:47:13.87	135.68	20.61	-38.2	-39.1	23.9	0.00e+00	0	39	0	290455552	50	5772
2026-01-02 23:47:14.89	135.62	20.74	-38.2	-39.1	23.8	0.00e+00	0	39	0	292552704	50	5798
2026-01-02 23:47:15.90	135.56	20.87	-38.2	-39.1	23.9	0.00e+00	0	39	0	293601280	50	5771
2026-01-02 23:47:16.90	135.50	21.01	-38.4	-39.2	23.6	0.00e+00	0	39	0	295698432	50	5890
2026-01-02 23:47:17.91	135.44	21.14	-38.4	-39.3	23.7	0.00e+00	0	39	0	297795584	50	5906
2026-01-02 23:47:18.93	135.38	21.28	-38.4	-39.2	23.7	0.00e+00	0	39	0	299892736	50	5885
2026-01-02 23:47:19.93	135.31	21.41	-38.8	-39.7	23.3	0.00e+00	0	39	0	301989888	50	6236
2026-01-02 23:47:20.95	135.25	21.55	-38.6	-39.5	23.5	0.00e+00	0	39	0	303038464	50	6049
2026-01-02 23:47:21.96	135.19	21.69	-38.7	-39.6	23.4	0.00e+00	0	39	0	305135616	50	6131
2026-01-02 23:47:22.96	135.13	21.82	-38.9	-39.9	23.2	0.00e+00	0	39	0	307232768	50	6330
2026-01-02 23:47:23.98	135.06	21.96	-38.8	-39.7	23.3	0.00e+00	0	39	0	309329920	50	6235
2026-01-02 23:47:24.99	135.00	22.10	-39.0	-40.0	23.1	0.00e+00	0	39	0	311427072	50	6391
2026-01-02 23:47:26.00	134.93	22.24	-39.1	-40.0	23.1	0.00e+00	0	39	0	312475648	50	6447
2026-01-02 23:47:27.01	134.86	22.38	-38.8	-39.7	23.3	0.00e+00	0	39	0	314572800	50	6223
2026-01-02 23:47:28.02	134.80	22.53	-39.1	-40.0	23.1	0.00e+00	0	39	0	316669952	50	6461
2026-01-02 23:47:29.03	134.73	22.67	-39.0	-39.9	23.2	0.00e+00	0	39	0	318767104	50	6347
2026-01-02 23:47:30.04	134.66	22.81	-38.9	-39.8	23.4	0.00e+00	0	39	0	320864256	50	6301
2026-01-02 23:47:31.05	134.59	22.96	-38.9	-39.8	23.2	0.00e+00	0	39	0	321912832	50	6293
2026-01-02 23:47:32.06	134.52	23.10	-38.9	-39.9	23.2	0.00e+00	0	39	0	324009984	50	6347
2026-01-02 23:47:33.07	134.45	23.25	-38.8	-39.7	23.3	0.00e+00	0	39	0	326107136	50	6209
2026-01-02 23:47:34.08	134.38	23.39	-38.8	-39.8	23.3	0.00e+00	0	39	0	328204288	50	6252
2026-01-02 23:47:35.09	134.31	23.54	-39.0	-40.0	23.2	0.00e+00	0	39	0	330301440	50	6421
2026-01-02 23:47:36.10	134.24	23.69	-39.4	-40.3	23.0	0.00e+00	0	39	0	331350016	50	6673
2026-01-02 23:47:37.11	134.17	23.84	-39.3	-40.3	23.0	0.00e+00	0	39	0	333447168	50	6660
2026-01-02 23:47:38.12	134.09	23.99	-39.4	-40.4	22.7	0.00e+00	0	39	0	335544320	50	6743
2026-01-02 23:47:39.13	134.02	24.14	-39.8	-40.8	22.5	0.00e+00	0	39	0	337641472	52	6285
2026-01-02 23:47:40.14	133.94	24.29	-39.8	-40.9	22.6	0.00e+00	0	39	0	339738624	52	6319
2026-01-02 23:47:41.15	133.87	24.44	-40.3	-41.4	22.0	0.00e+00	0	39	0	340787200	52	6759
2026-01-02 23:47:42.16	133.79	24.59	-40.2	-41.3	22.0	0.00e+00	0	39	0	342884352	52	6665
2026-01-02 23:47:43.17	133.71	24.75	-40.1	-41.2	22.2	0.00e+00	0	39	0	344981504	52	6599
2026-01-02 23:47:44.18	133.64	24.90	-40.2	-41.3	22.3	0.00e+00	0	39	0	347078656	52	6633
2026-01-02 23:47:45.19	133.56	25.06	-40.2	-41.2	22.3	0.00e+00	0	39	0	349175808	52	6604
2026-01-02 23:47:46.20	133.48	25.21	-40.1	-41.1	22.4	0.00e+00	0	39	0	350224384	52	6527
2026-01-02 23:47:47.21	133.40	25.37	-39.9	-41.0	22.4	0.00e+00	0	39	0	352321536	52	6404
2026-01-02 23:47:48.22	133.32	25.53	-40.3	-41.4	22.2	0.00e+00	0	39	0	354418688	52	6696
2026-01-02 23:47:49.23	133.23	25.69	-40.2	-41.3	22.2	0.00e+00	0	39	0	356515840	52	6637
2026-01-02 23:47:50.24	133.15	25.85	-40.0	-41.1	22.4	0.00e+00	0	39	0	358612992	52	6489
2026-01-02 23:47:51.25	133.07	26.01	-40.0	-41.0	22.5	0.00e+00	0	39	0	360710144	52	6442
2026-01-02 23:47:52.26	132.98	26.17	-39.7	-40.7	22.6	0.00e+00	0	39	0	361758720	52	6219
2026-01-02 23:47:53.27	132.90	26.33	-39.8	-40.8	22.6	0.00e+00	0	39	0	363855872	52	6311
2026-01-02 23:47:54.28	132.81	26.49	-39.7	-40.7	22.7	0.00e+00	0	39	0	365953024	52	6209
2026-01-02 23:47:55.29	132.72	26.66	-39.9	-40.9	22.5	0.00e+00	0	39	0	368050176	52	6375
2026-01-02 23:47:56.30	132.63	26.82	-40.1	-41.2	22.4	0.00e+00	0	39	0	370147328	52	6551
2026-01-02 23:47:57.30	132.54	26.99	-40.0	-41.0	22.4	0.00e+00	0	39	0	371195904	52	6439
2026-01-02 23:47:58.32	132.45	27.16	-40.1	-41.2	22.2	0.00e+00	0	39	0	373293056	52	6557
2026-01-02 23:47:59.33	132.36	27.32	-39.8	-40.7	22.7	0.00e+00	0	39	0	375390208	52	6243
2026-01-02 23:48:00.34	132.27	27.49	-39.7	-40.7	22.5	0.00e+00	0	39	0	377487360	52	6181
2026-01-02 23:48:01.35	132.18	27.66	-39.8	-40.8	22.6	0.00e+00	0	39	0	379584512	52	6262
2026-01-02 23:48:02.36	132.08	27.83	-40.2	-41.2	22.2	0.00e+00	0	39	0	380633088	52	6575
2026-01-02 23:48:03.37	131.99	28.01	-40.3	-41.3	22.2	0.00e+00	0	39	0	382730240	52	6636
2026-01-02 23:48:04.38	131.89	28.18	-39.9	-40.8	22.7	0.00e+00	0	39	0	384827392	52	6300
2026-01-02 23:48:05.39	131.79	28.35	-40.0	-41.0	22.4	0.00e+00	0	39	0	386924544	52	6447
2026-01-02 23:48:06.40	131.69	28.53	-40.1	-41.1	22.4	0.00e+00	0	39	0	389021696	52	6537
2026-01-02 23:48:07.41	131.59	28.70	-40.2	-41.2	22.2	0.00e+00	0	39	0	390070272	52	6563
2026-01-02 23:48:08.42	131.49	28.88	-40.3	-41.3	22.1	0.00e+00	0	39	0	392167424	52	6680
2026-01-02 23:48:09.43	131.39	29.06	-40.5	-41.6	21.9	0.00e+00	0	39	0	394264576	54	6157
2026-01-02 23:48:10.44	131.29	29.24	-41.2	-42.4	21.4	0.00e+00	0	39	0	396361728	54	6705
2026-01-02 23:48:11.45	131.18	29.42	-40.8	-41.9	21.7	0.00e+00	0	39	0	398458880	54	6332
2026-01-02 23:48:12.46	131.08	29.60	-41.2	-42.3	21.4	0.00e+00	0	39	0	399507456	54	6659
2026-01-02 23:48:13.47	130.97	29.78	-41.7	-42.9	20.9	0.00e+00	0	39	0	401604608	56	6344
2026-01-02 23:48:14.48	130.86	29.96	-41.4	-42.6	21.3	0.00e+00	0	39	0	403701760	56	6138
2026-01-02 23:48:15.49	130.75	30.15	-41.4	-42.6	21.1	0.00e+00	0	39	0	405798912	56	6172
2026-01-02 23:48:16.50	130.64	30.33	-41.5	-42.7	21.1	0.00e+00	0	39	0	407896064	56	6204
2026-01-02 23:48:17.51	130.53	30.52	-41.4	-42.6	21.3	0.00e+00	0	39	0	408944640	56	6148
2026-01-02 23:48:18.52	130.42	30.70	-41.7	-43.0	20.8	0.00e+00	0	39	0	411041792	56	6404
2026-01-02 23:48:19.53	130.30	30.89	-41.0	-42.2	21.4	0.00e+00	0	39	0	413138944	56	5841
2026-01-02 23:48:20.54	130.18	31.08	-41.4	-42.5	21.1	0.00e+00	0	39	0	415236096	56	6097
2026-01-02 23:48:21.55	130.07	31.27	-41.5	-42.7	21.1	0.00e+00	0	39	0	417333248	56	6205
2026-01-02 23:48:22.56	129.95	31.46	-41.6	-42.7	21.1	0.00e+00	0	39	0	418381824	56	6239
2026-01-02 23:48:23.57	129.83	31.66	-42.1	-43.4	20.5	0.00e+00	0	39	0	420478976	56	6712
2026-01-02 23:48:24.58	129.70	31.85	-42.0	-43.2	20.7	0.00e+00	0	39	0	422576128	56	6602
2026-01-02 23:48:25.59	129.58	32.05	-42.1	-43.4	20.4	0.00e+00	0	39	0	424673280	56	6741
2026-01-02 23:48:26.60	129.46	32.24	-42.7	-44.0	20.0	0.00e+00	0	39	0	426770432	56	7247
2026-01-02 23:48:27.61	129.33	32.44	-42.1	-43.4	20.3	0.00e+00	0	39	0	428867584	56	6724
2026-01-02 23:48:28.62	129.20	32.64	-42.0	-43.2	20.9	0.00e+00	0	39	0	429916160	56	6565
2026-01-02 23:48:29.62	129.07	32.83	-41.6	-42.8	21.1	0.00e+00	0	39	0	432013312	56	6290
2026-01-02 23:48:30.63	128.94	33.04	-41.8	-43.0	20.9	0.00e+00	0	39	0	434110464	56	6425
2026-01-02 23:48:31.64	128.81	33.24	-42.1	-43.4	20.5	0.00e+00	0	39	0	436207616	56	6759
2026-01-02 23:48:32.65	128.67	33.44	-42.3	-43.7	20.2	0.00e+00	0	39	0	438304768	56	6942
2026-01-02 23:48:33.66	128.54	33.64	-43.2	-44.8	19.3	0.00e+00	0	39	0	439353344	58	7079
2026-01-02 23:48:34.67	128.40	33.85	-43.3	-45.0	19.0	0.00e+00	0	39	0	441450496	58	7182
2026-01-02 23:48:35.68	128.26	34.06	-43.6	-45.3	18.8	0.00e+00	0	39	0	443547648	58	7447
2026-01-02 23:48:36.69	128.12	34.26	-43.5	-45.1	19.1	0.00e+00	0	39	0	445644800	60	6515
2026-01-02 23:48:37.70	127.97	34.47	-43.5	-45.1	19.1	0.00e+00	0	39	0	447741952	60	6500
2026-01-02 23:48:38.71	127.83	34.68	-43.3	-44.9	19.3	0.00e+00	0	39	0	448790528	60	6337
2026-01-02 23:48:39.72	127.68	34.89	-43.4	-45.0	19.6	0.00e+00	0	39	0	450887680	60	6455
2026-01-02 23:48:40.73	127.53	35.11	-43.4	-45.1	19.1	0.00e+00	0	39	0	452984832	60	6472
2026-01-02 23:48:41.74	127.38	35.32	-43.8	-45.5	18.6	0.00e+00	0	39	0	455081984	60	6844
2026-01-02 23:48:42.75	127.23	35.54	-43.9	-45.7	18.2	0.00e+00	0	39	0	457179136	60	6977
2026-01-02 23:48:43.76	127.07	35.75	-44.0	-45.9	18.4	0.00e+00	0	39	0	458227712	60	7128
2026-01-02 23:48:44.77	126.91	35.97	-43.9	-45.7	18.6	0.00e+00	0	39	0	460324864	60	6980
2026-01-02 23:48:45.78	126.75	36.19	-43.7	-45.5	18.5	0.00e+00	0	39	0	462422016	60	6830
2026-01-02 23:48:46.79	126.59	36.41	-43.2	-44.8	19.4	0.00e+00	0	39	0	464519168	60	6310
2026-01-02 23:48:47.80	126.43	36.63	-42.2	-43.6	20.2	0.00e+00	0	39	0	466616320	58	6138
2026-01-02 23:48:48.81	126.26	36.85	-42.3	-43.7	20.5	0.00e+00	0	39	0	467664896	58	6178
2026-01-02 23:48:49.82	126.09	37.07	-41.8	-43.0	20.8	0.00e+00	0	39	0	469762048	58	5751
2026-01-02 23:48:50.83	125.92	37.30	-41.6	-42.8	21.1	0.00e+00	0	39	0	471859200	56	6267
2026-01-02 23:48:51.84	125.74	37.52	-41.6	-42.8	21.0	0.00e+00	0	39	0	473956352	56	6296
2026-01-02 23:48:52.85	125.57	37.75	-41.6	-42.8	20.7	0.00e+00	0	39	0	476053504	56	6292
2026-01-02 23:48:53.86	125.39	37.98	-41.8	-43.0	20.7	0.00e+00	0	39	0	477102080	56	6454
2026-01-02 23:48:54.87	125.21	38.21	-42.0	-43.3	20.4	0.00e+00	0	39	0	479199232	56	6674
2026-01-02 23:48:55.88	125.02	38.44	-41.5	-42.7	21.2	0.00e+00	0	39	0	481296384	56	6242
2026-01-02 23:48:56.89	124.84	38.67	-41.9	-43.1	20.9	0.00e+00	0	39	0	483393536	56	6515
2026-01-02 23:48:57.90	124.65	38.90	-41.8	-43.0	21.0	0.00e+00	0	39	0	485490688	56	6419
2026-01-02 23:48:58.91	124.46	39.14	-41.6	-42.8	21.1	0.00e+00	0	39	0	486539264	56	6307
2026-01-02 23:48:59.92	124.26	39.37	-41.6	-42.8	21.1	0.00e+00	0	39	0	488636416	56	6282
2026-01-02 23:49:00.93	124.06	39.61	-41.9	-43.1	21.0	0.00e+00	0	39	0	490733568	56	6490
2026-01-02 23:49:01.94	123.86	39.85	-41.5	-42.7	21.2	0.00e+00	0	39	0	492830720	56	6186
2026-01-02 23:49:02.95	123.66	40.09	-41.5	-42.8	21.2	0.00e+00	0	39	0	494927872	56	6255
2026-01-02 23:49:03.96	123.45	40.33	-41.3	-42.4	21.4	0.00e+00	0	39	0	497025024	56	6032
2026-01-02 23:49:04.97	123.24	40.57	-41.6	-42.9	21.1	0.00e+00	0	39	0	498073600	56	6319
2026-01-02 23:49:05.98	123.03	40.81	-41.7	-43.0	20.9	0.00e+00	0	39	0	500170752	56	6415
2026-01-02 23:49:06.99	122.81	41.06	-41.8	-43.0	21.0	0.00e+00	0	39	0	502267904	56	6426
2026-01-02 23:49:08.00	122.59	41.30	-41.6	-42.8	20.9	0.00e+00	0	39	0	504365056	56	6290
2026-01-02 23:49:09.01	122.37	41.55	-41.4	-42.6	21.2	0.00e+00	0	39	0	506462208	56	6114
2026-01-02 23:49:10.02	122.14	41.80	-40.9	-42.0	21.8	0.00e+00	0	39	0	507510784	56	5719
2026-01-02 23:49:11.03	121.91	42.05	-40.9	-42.0	21.8	0.00e+00	0	39	0	509607936	56	5707
2026-01-02 23:49:12.04	121.68	42.30	-41.3	-42.4	21.5	0.00e+00	0	39	0	511705088	54	6746
2026-01-02 23:49:13.05	121.44	42.55	-41.4	-42.6	21.2	0.00e+00	0	39	0	513802240	54	6867
2026-01-02 23:49:14.06	121.20	42.80	-42.1	-43.4	20.6	0.00e+00	0	39	0	515899392	56	6748
2026-01-02 23:49:15.07	120.95	43.05	-41.8	-43.1	20.9	0.00e+00	0	39	0	516947968	56	6475
2026-01-02 23:49:16.08	120.70	43.31	-42.0	-43.3	20.5	0.00e+00	0	39	0	519045120	56	6628
2026-01-02 23:49:17.09	120.45	43.56	-42.4	-43.7	20.5	0.00e+00	0	39	0	521142272	56	6958
2026-01-02 23:49:18.10	120.19	43.82	-42.0	-43.4	20.4	0.00e+00	0	39	0	523239424	56	6693
2026-01-02 23:49:19.11	119.93	44.08	-42.1	-43.4	20.6	0.00e+00	0	39	0	525336576	56	6740
2026-01-02 23:49:20.12	119.67	44.33	-41.6	-42.8	21.2	0.00e+00	0	39	0	526385152	56	6265
2026-01-02 23:49:21.13	119.39	44.59	-41.6	-42.9	21.0	0.00e+00	0	39	0	528482304	56	6330
2026-01-02 23:49:22.14	119.12	44.86	-41.3	-42.5	21.5	0.00e+00	0	39	0	530579456	56	6053
2026-01-02 23:49:23.14	118.84	45.11	-40.8	-42.0	21.5	0.00e+00	0	39	0	532676608	54	6408
2026-01-02 23:49:24.15	118.56	45.38	-40.7	-41.8	21.8	0.00e+00	0	39	0	534773760	54	6300
2026-01-02 23:49:25.16	118.27	45.64	-40.7	-41.9	21.8	0.00e+00	0	39	0	535822336	54	6319
2026-01-02 23:49:26.17	117.98	45.90	-40.8	-42.0	21.7	0.00e+00	0	39	0	537919488	54	6423
2026-01-02 23:49:27.18	117.68	46.17	-40.5	-41.5	22.1	0.00e+00	0	39	0	540016640	54	6097
2026-01-02 23:49:28.19	117.37	46.43	-40.8	-41.9	21.8	0.00e+00	0	39	0	542113792	54	6377
2026-01-02 23:49:29.20	117.06	46.70	-40.6	-41.7	22.0	0.00e+00	0	39	0	544210944	54	6184
2026-01-02 23:49:30.21	116.75	46.97	-41.0	-42.2	21.7	0.00e+00	0	39	0	545259520	54	6542
2026-01-02 23:49:31.22	116.43	47.24	-40.2	-41.2	22.3	0.00e+00	0	39	0	547356672	54	5881
2026-01-02 23:49:32.23	116.10	47.51	-39.7	-40.7	22.8	0.00e+00	0	39	0	549453824	54	5525
2026-01-02 23:49:33.24	115.77	47.78	-39.8	-40.7	22.8	0.00e+00	0	39	0	551550976	52	6240
2026-01-02 23:49:34.25	115.43	48.05	-40.0	-41.1	22.5	0.00e+00	0	39	0	553648128	52	6484
2026-01-02 23:49:35.26	115.09	48.32	-40.4	-41.6	22.0	0.00e+00	0	39	0	554696704	52	6849
2026-01-02 23:49:36.27	114.74	48.59	-40.5	-41.7	21.7	0.00e+00	0	39	0	556793856	54	6175
2026-01-02 23:49:37.28	114.39	48.86	-40.1	-41.1	22.4	0.00e+00	0	39	0	558891008	54	5828
2026-01-02 23:49:38.29	114.02	49.13	-39.7	-40.7	22.8	0.00e+00	0	39	0	560988160	52	6224
2026-01-02 23:49:39.30	113.66	49.40	-39.5	-40.4	22.9	0.00e+00	0	39	0	563085312	52	6025
2026-01-02 23:49:40.31	113.28	49.68	-40.0	-41.0	22.7	0.00e+00	0	39	0	565182464	52	6431
2026-01-02 23:49:41.32	112.90	49.95	-39.9	-41.0	22.3	0.00e+00	0	39	0	566231040	52	6400
2026-01-02 23:49:42.33	112.51	50.22	-39.8	-40.8	22.8	0.00e+00	0	39	0	568328192	52	6296
2026-01-02 23:49:43.34	112.11	50.50	-39.2	-40.1	23.3	0.00e+00	0	39	0	570425344	52	5816
2026-01-02 23:49:44.34	111.71	50.77	-38.8	-39.7	23.7	0.00e+00	0	39	0	572522496	50	6203
2026-01-02 23:49:45.35	111.30	51.04	-38.8	-39.6	23.6	0.00e+00	0	39	0	574619648	50	6169
2026-01-02 23:49:46.37	110.88	51.32	-39.4	-40.3	23.1	0.00e+00	0	39	0	575668224	50	6661
2026-01-02 23:49:47.37	110.46	51.59	-39.3	-40.3	23.1	0.00e+00	0	39	0	577765376	50	6643
2026-01-02 23:49:48.38	110.02	51.86	-38.9	-39.8	23.4	0.00e+00	0	39	0	579862528	50	6300
2026-01-02 23:49:49.39	109.58	52.14	-38.7	-39.6	23.6	0.00e+00	0	39	0	581959680	50	6125
2026-01-02 23:49:50.40	109.13	52.41	-38.7	-39.6	23.7	0.00e+00	0	39	0	584056832	50	6131
2026-01-02 23:49:51.41	108.67	52.68	-38.5	-39.3	23.8	0.00e+00	0	39	0	585105408	50	5952
2026-01-02 23:49:52.42	108.20	52.96	-38.3	-39.2	24.0	0.00e+00	0	39	0	587202560	50	5850
2026-01-02 23:49:53.43	107.73	53.23	-38.5	-39.4	23.7	0.00e+00	0	39	0	589299712	50	5978
2026-01-02 23:49:54.44	107.24	53.50	-39.3	-40.2	22.8	0.00e+00	0	39	0	591396864	50	6605
2026-01-02 23:49:55.45	106.75	53.77	-39.7	-40.8	22.9	0.00e+00	0	39	0	593494016	50	7028
2026-01-02 23:49:56.46	106.24	54.04	-39.6	-40.6	22.8	0.00e+00	0	39	0	594542592	52	6162
2026-01-02 23:49:57.47	105.73	54.31	-39.9	-40.9	22.9	0.00e+00	0	39	0	596639744	52	6359
2026-01-02 23:49:58.48	105.21	54.58	-39.8	-40.9	22.6	0.00e+00	0	39	0	598736896	52	6328
2026-01-02 23:49:59.49	104.67	54.84	-39.8	-40.8	22.7	0.00e+00	0	39	0	600834048	52	6286
2026-01-02 23:50:00.50	104.13	55.11	-39.7	-40.7	22.8	0.00e+00	0	39	0	602931200	52	6197
2026-01-02 23:50:01.51	103.57	55.37	-39.3	-40.3	23.1	0.00e+00	0	39	0	603979776	52	5927
2026-01-02 23:50:02.52	103.01	55.64	-38.9	-39.8	23.2	0.00e+00	0	39	0	606076928	52	5623
2026-01-02 23:50:03.53	102.44	55.90	-38.9	-39.9	23.5	0.00e+00	0	39	0	608174080	52	5640
2026-01-02 23:50:04.54	101.85	56.16	-39.0	-40.0	23.2	0.00e+00	0	39	0	610271232	52	5700
2026-01-02 23:50:05.55	101.25	56.42	-39.3	-40.3	23.1	0.00e+00	0	39	0	612368384	52	5919
2026-01-02 23:50:06.56	100.64	56.67	-39.4	-40.3	22.9	0.00e+00	0	39	0	613416960	52	5936
2026-01-02 23:50:07.57	100.02	56.93	-39.9	-40.9	22.6	0.00e+00	0	39	0	615514112	52	6336
2026-01-02 23:50:08.58	99.39	57.18	-40.1	-41.1	22.4	0.00e+00	0	39	0	617611264	52	6501
2026-01-02 23:50:09.59	98.75	57.43	-40.5	-41.6	22.1	0.00e+00	0	39	0	619708416	52	6852
2026-01-02 23:50:10.60	98.10	57.68	-39.7	-40.6	22.8	0.00e+00	0	39	0	621805568	52	6154
2026-01-02 23:50:11.61	97.43	57.92	-39.4	-40.3	23.1	0.00e+00	0	39	0	622854144	52	5912
2026-01-02 23:50:12.62	96.75	58.16	-40.1	-41.1	22.4	0.00e+00	0	39	0	624951296	52	6512
2026-01-02 23:50:13.63	96.06	58.40	-41.2	-42.4	21.6	0.00e+00	0	39	0	627048448	54	6736
2026-01-02 23:50:14.64	95.35	58.64	-41.1	-42.3	21.5	0.00e+00	0	39	0	629145600	54	6645
2026-01-02 23:50:15.65	94.64	58.87	-39.9	-40.9	22.6	0.00e+00	0	39	0	631242752	54	5669
2026-01-02 23:50:16.66	93.91	59.10	-39.4	-40.3	22.3	0.00e+00	0	39	0	633339904	52	5948
2026-01-02 23:50:17.66	93.17	59.32	-39.1	-40.0	23.6	0.00e+00	0	39	0	634388480	52	5701
2026-01-02 23:50:18.67	92.42	59.55	-38.6	-39.4	23.8	0.00e+00	0	39	0	636485632	50	5988
2026-01-02 23:50:19.68	91.65	59.76	-38.4	-39.2	23.9	0.00e+00	0	39	0	638582784	50	5883
2026-01-02 23:50:20.69	90.87	59.98	-38.9	-39.7	23.6	0.00e+00	0	39	0	640679936	50	6243
2026-01-02 23:50:21.70	90.08	60.19	-38.9	-39.8	23.4	0.00e+00	0	39	0	642777088	50	6302
2026-01-02 23:50:22.71	89.27	60.39	-38.5	-39.4	23.8	0.00e+00	0	39	0	643825664	50	6018
2026-01-02 23:50:23.72	88.45	60.60	-38.2	-39.0	24.0	0.00e+00	0	39	0	645922816	50	5760
2026-01-02 23:50:24.73	87.62	60.79	-38.5	-39.4	23.8	0.00e+00	0	39	0	648019968	50	6012
2026-01-02 23:50:25.74	86.77	60.98	-38.1	-38.9	24.1	0.00e+00	0	39	0	650117120	50	5691
2026-01-02 23:50:26.75	85.91	61.17	-38.1	-39.0	23.9	0.00e+00	0	39	0	652214272	50	5731
2026-01-02 23:50:27.76	85.04	61.35	-38.5	-39.4	23.5	0.00e+00	0	39	0	653262848	50	5971
2026-01-02 23:50:28.77	84.16	61.53	-38.4	-39.3	24.0	0.00e+00	0	39	0	655360000	50	5964
2026-01-02 23:50:29.78	83.26	61.70	-37.6	-38.4	24.6	0.00e+00	0	39	0	657457152	48	6032
2026-01-02 23:50:30.79	82.35	61.86	-37.4	-38.2	24.6	0.00e+00	0	39	0	659554304	48	5860
2026-01-02 23:50:31.80	81.43	62.02	-38.0	-38.8	24.0	0.00e+00	0	39	0	661651456	48	6279
2026-01-02 23:50:32.81	80.50	62.18	-38.6	-39.5	23.8	0.00e+00	0	39	0	662700032	48	6771
2026-01-02 23:50:33.82	79.56	62.32	-38.3	-39.2	23.9	0.00e+00	0	39	0	664797184	48	6546
2026-01-02 23:50:34.83	78.60	62.46	-37.8	-38.7	24.5	0.00e+00	0	39	0	666894336	48	6192
2026-01-02 23:50:35.84	77.63	62.60	-36.8	-37.6	25.0	0.00e+00	0	39	0	668991488	48	5442
2026-01-02 23:50:36.85	76.66	62.72	-37.2	-38.0	25.0	0.00e+00	0	39	0	671088640	48	5757
2026-01-02 23:50:37.86	75.67	62.84	-37.7	-38.5	24.4	0.00e+00	0	39	0	672137216	48	6083
2026-01-02 23:50:38.86	74.68	62.96	-38.5	-39.4	23.7	0.00e+00	0	39	0	674234368	48	6761
2026-01-02 23:50:39.87	73.68	63.06	-38.9	-39.8	23.4	0.00e+00	0	39	0	676331520	50	6304
2026-01-02 23:50:40.89	72.65	63.16	-39.2	-40.2	23.1	0.00e+00	0	39	0	678428672	50	6553
2026-01-02 23:50:41.90	71.63	63.25	-39.1	-40.0	23.3	0.00e+00	0	39	0	680525824	50	6449
2026-01-02 23:50:42.90	70.61	63.34	-38.4	-39.2	24.0	0.00e+00	0	39	0	681574400	50	5895
2026-01-02 23:50:43.91	69.58	63.41	-37.4	-38.2	24.7	0.00e+00	0	39	0	683671552	48	5856
2026-01-02 23:50:44.92	68.53	63.48	-36.9	-37.6	25.1	0.00e+00	0	39	0	685768704	48	5491
2026-01-02 23:50:45.93	67.48	63.54	-36.8	-37.6	25.1	0.00e+00	0	39	0	687865856	46	6134
2026-01-02 23:50:46.94	66.43	63.59	-36.7	-37.4	25.3	0.00e+00	0	39	0	689963008	46	6017
2026-01-02 23:50:47.95	65.37	63.64	-36.0	-36.8	25.5	0.00e+00	0	39	0	691011584	46	5574
2026-01-02 23:50:48.96	64.31	63.67	-35.9	-36.6	25.7	0.00e+00	0	39	0	693108736	46	5465
2026-01-02 23:50:49.97	63.24	63.70	-36.1	-36.9	25.5	0.00e+00	0	39	0	695205888	46	5654
2026-01-02 23:50:50.98	62.18	63.72	-36.2	-36.9	25.5	0.00e+00	0	39	0	697303040	46	5695
2026-01-02 23:50:51.99	61.11	63.74	-36.7	-37.5	25.1	0.00e+00	0	39	0	699400192	46	6070
2026-01-02 23:50:53.01	60.03	63.74	-37.3	-38.1	24.8	0.00e+00	0	39	0	701497344	46	6506
2026-01-02 23:50:54.01	58.97	63.73	-37.4	-38.3	24.5	0.00e+00	0	39	0	702545920	46	6628
2026-01-02 23:50:55.02	57.90	63.72	-37.3	-38.1	24.8	0.00e+00	0	39	0	704643072	46	6485
2026-01-02 23:50:56.04	56.82	63.70	-37.3	-38.2	24.8	0.00e+00	0	39	0	706740224	46	6562
2026-01-02 23:50:57.04	55.77	63.67	-37.5	-38.3	24.5	0.00e+00	0	39	0	708837376	46	6689
2026-01-02 23:50:58.06	54.69	63.64	-36.9	-37.7	25.0	0.00e+00	0	39	0	710934528	46	6184
2026-01-02 23:50:59.07	53.64	63.59	-36.4	-37.1	25.5	0.00e+00	0	39	0	711983104	46	5802
2026-01-02 23:51:00.08	52.58	63.54	-36.3	-37.1	25.3	0.00e+00	0	39	0	714080256	46	5771
2026-01-02 23:51:01.09	51.53	63.48	-36.6	-37.3	25.4	0.00e+00	0	39	0	716177408	46	5932
2026-01-02 23:51:02.10	50.49	63.41	-37.0	-37.8	24.8	0.00e+00	0	39	0	718274560	46	6286
2026-01-02 23:51:03.11	49.46	63.33	-37.8	-38.7	24.3	0.00e+00	0	39	0	720371712	48	6201
2026-01-02 23:51:04.12	48.43	63.25	-38.0	-38.8	24.2	0.00e+00	0	39	0	721420288	48	6299
2026-01-02 23:51:05.13	47.40	63.16	-38.3	-39.2	24.0	0.00e+00	0	39	0	723517440	48	6579
2026-01-02 23:51:06.14	46.39	63.06	-38.0	-38.9	24.0	0.00e+00	0	39	0	725614592	48	6321
2026-01-02 23:51:07.15	45.39	62.95	-37.4	-38.2	24.8	0.00e+00	0	39	0	727711744	48	5860
2026-01-02 23:51:08.16	44.39	62.84	-37.3	-38.1	24.7	0.00e+00	0	39	0	729808896	48	5825
2026-01-02 23:51:09.17	43.40	62.72	-36.8	-37.6	25.0	0.00e+00	0	39	0	730857472	46	6124
2026-01-02 23:51:10.18	42.43	62.59	-37.0	-37.8	24.9	0.00e+00	0	39	0	732954624	46	6261
2026-01-02 23:51:11.19	41.46	62.46	-37.0	-37.8	25.0	0.00e+00	0	39	0	735051776	46	6248
2026-01-02 23:51:12.20	40.51	62.32	-36.6	-37.4	25.1	0.00e+00	0	39	0	737148928	46	5966
2026-01-02 23:51:13.21	39.57	62.17	-37.3	-38.1	24.7	0.00e+00	0	39	0	739246080	46	6520
2026-01-02 23:51:14.22	38.63	62.02	-37.5	-38.3	24.6	0.00e+00	0	39	0	740294656	48	5922
2026-01-02 23:51:15.23	37.72	61.86	-36.4	-37.1	25.4	0.00e+00	0	39	0	742391808	46	5786
2026-01-02 23:51:16.24	36.81	61.70	-36.9	-37.7	24.8	0.00e+00	0	39	0	744488960	46	6205
2026-01-02 23:51:17.25	35.91	61.53	-38.5	-39.5	23.9	0.00e+00	0	39	0	746586112	48	6775
2026-01-02 23:51:18.26	35.03	61.35	-37.9	-38.7	24.3	0.00e+00	0	39	0	748683264	48	6239
2026-01-02 23:51:19.27	34.16	61.17	-37.8	-38.7	24.3	0.00e+00	0	39	0	749731840	48	6196
2026-01-02 23:51:20.28	33.30	60.98	-38.5	-39.4	23.9	0.00e+00	0	39	0	751828992	48	6702
2026-01-02 23:51:21.29	32.46	60.79	-39.6	-40.5	23.0	0.00e+00	0	39	0	753926144	50	6835
2026-01-02 23:51:22.30	31.63	60.59	-40.4	-41.5	22.2	0.00e+00	0	39	0	756023296	52	6834
2026-01-02 23:51:23.31	30.81	60.39	-41.6	-42.9	21.1	0.00e+00	0	39	0	758120448	54	7142
2026-01-02 23:51:24.32	30.00	60.19	-41.9	-43.3	20.8	0.00e+00	0	39	0	759169024	56	6630
2026-01-02 23:51:25.33	29.21	59.98	-40.6	-41.6	22.3	0.00e+00	0	39	0	761266176	56	5501
2026-01-02 23:51:26.34	28.43	59.76	-40.4	-41.4	22.3	0.00e+00	0	39	0	763363328	54	6008
2026-01-02 23:51:27.35	27.66	59.54	-41.2	-42.4	21.6	0.00e+00	0	39	0	765460480	54	6716
2026-01-02 23:51:28.36	26.91	59.32	-41.5	-42.7	21.2	0.00e+00	0	39	0	767557632	56	6227
2026-01-02 23:51:29.37	26.17	59.10	-40.8	-41.9	21.9	0.00e+00	0	39	0	769654784	54	6342
2026-01-02 23:51:30.38	25.44	58.87	-42.0	-43.2	20.7	0.00e+00	0	39	0	770703360	56	6613
2026-01-02 23:51:31.39	24.73	58.63	-42.6	-44.0	20.2	0.00e+00	0	39	0	772800512	58	6422
2026-01-02 23:51:32.40	24.03	58.40	-42.2	-43.6	19.9	0.00e+00	0	39	0	774897664	58	6108
2026-01-02 23:51:33.41	23.34	58.16	-42.1	-43.5	20.8	0.00e+00	0	39	0	776994816	56	6784
2026-01-02 23:51:34.42	22.66	57.92	-40.8	-41.9	22.2	0.00e+00	0	39	0	779091968	56	5650
2026-01-02 23:51:35.43	21.99	57.67	-39.1	-39.9	23.4	0.00e+00	0	39	0	780140544	52	5689
2026-01-02 23:51:36.44	21.34	57.43	-39.0	-39.9	23.5	0.00e+00	0	39	0	782237696	50	6349
2026-01-02 23:51:37.45	20.70	57.18	-39.5	-40.5	22.6	0.00e+00	0	39	0	784334848	50	6782
2026-01-02 23:51:38.46	20.07	56.93	-40.3	-41.3	22.4	0.00e+00	0	39	0	786432000	52	6632
2026-01-02 23:51:39.47	19.45	56.67	-39.7	-40.7	22.8	0.00e+00	0	39	0	788529152	52	6209
2026-01-02 23:51:40.48	18.84	56.42	-39.8	-40.8	22.6	0.00e+00	0	39	0	789577728	52	6276
2026-01-02 23:51:41.49	18.25	56.16	-40.9	-42.1	21.5	0.00e+00	0	39	0	791674880	52	7271
2026-01-02 23:51:42.50	17.66	55.90	-42.1	-43.5	20.6	0.00e+00	0	39	0	793772032	56	6780
2026-01-02 23:51:43.51	17.09	55.64	-42.3	-43.6	20.3	0.00e+00	0	39	0	795869184	56	6917
2026-01-02 23:51:44.52	16.52	55.38	-42.1	-43.4	20.5	0.00e+00	0	39	0	797966336	58	6013
2026-01-02 23:51:45.53	15.97	55.11	-41.2	-42.3	21.7	0.00e+00	0	39	0	799014912	56	5961
2026-01-02 23:51:46.54	15.43	54.85	-40.6	-41.6	22.1	0.00e+00	0	39	0	801112064	54	6159
2026-01-02 23:51:47.55	14.90	54.58	-42.4	-43.8	20.1	0.00e+00	0	39	0	803209216	56	7031
2026-01-02 23:51:48.56	14.38	54.32	-43.7	-45.6	18.5	0.00e+00	0	39	0	805306368	58	7689
2026-01-02 23:51:49.57	13.86	54.05	-43.0	-44.5	20.1	0.00e+00	0	39	0	807403520	60	6098
2026-01-02 23:51:50.58	13.36	53.78	-40.7	-41.8	21.8	0.00e+00	0	39	0	808452096	54	6314
2026-01-02 23:51:51.59	12.87	53.51	-41.5	-42.8	21.1	0.00e+00	0	39	0	810549248	54	7050
2026-01-02 23:51:52.60	12.38	53.24	-40.7	-41.8	21.8	0.00e+00	0	39	0	812646400	54	6256
2026-01-02 23:51:53.61	11.91	52.97	-41.1	-42.3	21.7	0.00e+00	0	39	0	814743552	54	6661
2026-01-02 23:51:54.62	11.44	52.69	-40.3	-41.3	22.1	0.00e+00	0	39	0	816840704	54	5943
2026-01-02 23:51:55.63	10.98	52.42	-40.8	-41.9	21.8	0.00e+00	0	39	0	818937856	54	6367
2026-01-02 23:51:56.64	10.53	52.15	-40.7	-41.8	22.0	0.00e+00	0	39	0	819986432	54	6290
2026-01-02 23:51:57.65	10.09	51.88	-40.8	-42.0	22.0	0.00e+00	0	39	0	822083584	54	6400
2026-01-02 23:51:58.66	9.66	51.60	-40.0	-41.1	22.6	0.00e+00	0	39	0	824180736	54	5763
2026-01-02 23:51:59.67	9.23	51.33	-39.6	-40.6	22.9	0.00e+00	0	39	0	826277888	54	5452
2026-01-02 23:52:00.68	8.81	51.06	-39.5	-40.4	23.1	0.00e+00	0	39	0	828375040	52	6013
2026-01-02 23:52:01.69	8.40	50.78	-38.7	-39.5	23.7	0.00e+00	0	39	0	829423616	50	6089
2026-01-02 23:52:02.70	8.00	50.51	-38.3	-39.1	24.2	0.00e+00	0	39	0	831520768	50	5786
2026-01-02 23:52:03.71	7.61	50.24	-38.6	-39.5	23.7	0.00e+00	0	39	0	833617920	50	6067
2026-01-02 23:52:04.72	7.22	49.97	-39.0	-39.8	23.3	0.00e+00	0	39	0	835715072	50	6296
2026-01-02 23:52:05.73	6.84	49.69	-40.1	-41.0	22.7	0.00e+00	0	39	0	837812224	52	6431
2026-01-02 23:52:06.74	6.46	49.42	-40.7	-41.7	21.6	0.00e+00	0	39	0	838860800	52	6980
2026-01-02 23:52:07.75	6.10	49.15	-41.7	-42.9	21.1	0.00e+00	0	39	0	840957952	54	7156
2026-01-02 23:52:08.76	5.73	48.88	-41.9	-43.2	21.0	0.00e+00	0	39	0	843055104	56	6579
2026-01-02 23:52:09.77	5.38	48.61	-41.8	-43.1	20.8	0.00e+00	0	39	0	845152256	56	6513
2026-01-02 23:52:10.78	5.03	48.34	-43.1	-44.7	19.3	0.00e+00	0	39	0	847249408	58	6955
2026-01-02 23:52:11.79	4.69	48.07	-42.0	-43.3	20.8	0.00e+00	0	39	0	848297984	58	5944
2026-01-02 23:52:12.79	4.36	47.80	-40.3	-41.3	22.2	0.00e+00	0	39	0	850395136	54	5927
2026-01-02 23:52:13.80	4.02	47.53	-40.1	-41.1	22.5	0.00e+00	0	39	0	852492288	52	6485
2026-01-02 23:52:14.81	3.70	47.26	-40.5	-41.5	22.1	0.00e+00	0	39	0	854589440	52	6820
2026-01-02 23:52:15.82	3.38	47.00	-40.0	-40.9	22.6	0.00e+00	0	39	0	856686592	52	6383
2026-01-02 23:52:16.83	3.07	46.73	-39.1	-40.0	23.6	0.00e+00	0	39	0	857735168	52	5727
2026-01-02 23:52:17.84	2.76	46.46	-39.2	-40.1	23.2	0.00e+00	0	39	0	859832320	52	5799
2026-01-02 23:52:18.85	2.45	46.20	-40.3	-41.4	22.2	0.00e+00	0	39	0	861929472	52	6722
2026-01-02 23:52:19.86	2.16	45.93	-41.3	-42.5	21.2	0.00e+00	0	39	0	864026624	54	6842
2026-01-02 23:52:20.87	1.86	45.67	-42.0	-43.4	20.4	0.00e+00	0	39	0	866123776	56	6717
2026-01-02 23:52:21.88	1.58	45.41	-42.3	-43.8	20.1	0.00e+00	0	39	0	867172352	56	7016
2026-01-02 23:52:22.89	1.29	45.15	-42.8	-44.3	19.9	0.00e+00	0	39	0	869269504	56	7457
2026-01-02 23:52:23.90	1.01	44.89	-42.3	-43.7	20.8	0.00e+00	0	39	0	871366656	58	6221
2026-01-02 23:52:24.91	0.74	44.63	-41.6	-42.8	21.0	0.00e+00	0	39	0	873463808	56	6310
2026-01-02 23:52:25.92	0.47	44.37	-41.7	-42.9	21.0	0.00e+00	0	39	0	875560960	56	6340
2026-01-02 23:52:26.93	0.20	44.11	-41.2	-42.4	21.6	0.00e+00	0	39	0	876609536	56	5985
2026-01-02 23:52:27.94	359.94	43.85	-41.1	-42.2	21.6	0.00e+00	0	39	0	878706688	56	5870
2026-01-02 23:52:28.95	359.69	43.60	-41.0	-42.1	21.6	0.00e+00	0	39	0	880803840	54	6525
2026-01-02 23:52:29.96	359.43	43.34	-40.1	-41.2	22.5	0.00e+00	0	39	0	882900992	54	5831
2026-01-02 23:52:30.97	359.18	43.09	-39.8	-40.8	22.7	0.00e+00	0	39	0	884998144	52	6272
2026-01-02 23:52:31.97	358.94	42.84	-39.6	-40.6	23.0	0.00e+00	0	39	0	886046720	52	6129
2026-01-02 23:52:32.99	358.70	42.59	-39.9	-40.9	22.7	0.00e+00	0	39	0	888143872	52	6324
2026-01-02 23:52:33.99	358.46	42.34	-40.2	-41.2	22.4	0.00e+00	0	39	0	890241024	52	6590
2026-01-02 23:52:35.00	358.23	42.09	-40.7	-41.7	21.9	0.00e+00	0	39	0	892338176	52	6999
2026-01-02 23:52:36.01	358.00	41.84	-42.6	-44.1	20.0	0.00e+00	0	39	0	894435328	56	7275
2026-01-02 23:52:37.02	357.77	41.59	-44.0	-45.9	18.1	0.00e+00	0	39	0	895483904	60	7165
2026-01-02 23:52:38.03	357.55	41.35	-44.3	-46.3	17.9	0.00e+00	0	39	0	897581056	60	7488
2026-01-02 23:52:39.04	357.33	41.10	-44.4	-46.5	17.9	0.00e+00	0	39	0	899678208	60	7600
2026-01-02 23:52:40.05	357.12	40.86	-45.0	-47.3	17.5	0.00e+00	0	39	0	901775360	60	8348
2026-01-02 23:52:41.07	356.90	40.62	-44.1	-45.9	18.6	0.00e+00	0	39	0	903872512	60	7133
2026-01-02 23:52:42.07	356.69	40.38	-43.5	-45.1	19.1	0.00e+00	0	39	0	904921088	60	6528
2026-01-02 23:52:43.08	356.49	40.14	-42.1	-43.4	20.5	0.00e+00	0	39	0	907018240	58	6031
2026-01-02 23:52:44.09	356.28	39.90	-41.7	-42.9	21.1	0.00e+00	0	39	0	909115392	56	6344
2026-01-02 23:52:45.11	356.08	39.66	-41.4	-42.5	21.0	0.00e+00	0	39	0	911212544	56	6079
2026-01-02 23:52:46.11	355.89	39.43	-40.3	-41.3	22.3	0.00e+00	0	39	0	913309696	54	5931
2026-01-02 23:52:47.12	355.69	39.19	-40.2	-41.2	22.4	0.00e+00	0	39	0	915406848	54	5831
2026-01-02 23:52:48.13	355.50	38.96	-40.4	-41.4	22.2	0.00e+00	0	39	0	916455424	54	6004
2026-01-02 23:52:49.15	355.31	38.72	-40.3	-41.3	22.3	0.00e+00	0	39	0	918552576	54	5928
2026-01-02 23:52:50.16	355.12	38.49	-40.6	-41.6	21.5	0.00e+00	0	39	0	920649728	54	6128
2026-01-02 23:52:51.16	354.94	38.26	-42.1	-43.3	20.7	0.00e+00	0	39	0	922746880	56	6662
2026-01-02 23:52:52.17	354.76	38.04	-42.8	-44.2	19.9	0.00e+00	0	39	0	924844032	56	7386
2026-01-02 23:52:53.19	354.58	37.81	-42.6	-44.0	20.1	0.00e+00	0	39	0	925892608	58	6458
2026-01-02 23:52:54.19	354.41	37.58	-43.0	-44.5	19.6	0.00e+00	0	39	0	927989760	58	6815
2026-01-02 23:52:55.21	354.23	37.35	-43.0	-44.4	19.7	0.00e+00	0	39	0	930086912	58	6759
2026-01-02 23:52:56.21	354.06	37.13	-42.7	-44.1	19.7	0.00e+00	0	39	0	932184064	58	6516
2026-01-02 23:52:57.22	353.90	36.91	-42.8	-44.2	19.9	0.00e+00	0	39	0	934281216	58	6564
2026-01-02 23:52:58.23	353.73	36.69	-43.6	-45.3	18.9	0.00e+00	0	39	0	935329792	58	7475
2026-01-02 23:52:59.24	353.57	36.47	-43.3	-44.9	19.3	0.00e+00	0	39	0	937426944	60	6354
2026-01-02 23:53:00.25	353.40	36.25	-43.1	-44.7	19.5	0.00e+00	0	39	0	939524096	60	6174
2026-01-02 23:53:01.26	353.24	36.03	-42.3	-43.6	20.2	0.00e+00	0	39	0	941621248	58	6144
2026-01-02 23:53:02.27	353.09	35.81	-42.1	-43.4	20.5	0.00e+00	0	39	0	943718400	58	6030
2026-01-02 23:53:03.28	352.93	35.60	-42.1	-43.4	20.7	0.00e+00	0	39	0	944766976	58	5977
2026-01-02 23:53:04.29	352.78	35.38	-41.3	-42.4	21.5	0.00e+00	0	39	0	946864128	56	6032
2026-01-02 23:53:05.30	352.63	35.17	-40.9	-42.0	21.8	0.00e+00	0	39	0	948961280	56	5761
2026-01-02 23:53:06.31	352.48	34.96	-40.1	-41.2	22.6	0.00e+00	0	39	0	951058432	54	5830
2026-01-02 23:53:07.32	352.33	34.75	-40.0	-41.0	22.6	0.00e+00	0	39	0	953155584	54	5707
2026-01-02 23:53:08.33	352.19	34.54	-40.0	-41.1	22.5	0.00e+00	0	39	0	955252736	54	5763
2026-01-02 23:53:09.34	352.04	34.33	-40.5	-41.6	22.1	0.00e+00	0	39	0	956301312	54	6130
2026-01-02 23:53:10.35	351.90	34.13	-41.3	-42.6	21.1	0.00e+00	0	39	0	958398464	54	6872
2026-01-02 23:53:11.36	351.76	33.92	-42.6	-44.1	19.9	0.00e+00	0	39	0	960495616	56	7335
2026-01-02 23:53:12.37	351.62	33.71	-43.7	-45.5	19.0	0.00e+00	0	39	0	962592768	60	6782
2026-01-02 23:53:13.38	351.49	33.51	-43.2	-44.7	19.5	0.00e+00	0	39	0	964689920	60	6241
2026-01-02 23:53:14.39	351.35	33.31	-43.0	-44.5	19.6	0.00e+00	0	39	0	965738496	60	6078
2026-01-02 23:53:15.40	351.22	33.11	-42.6	-44.0	20.0	0.00e+00	0	39	0	967835648	58	6410
2026-01-02 23:53:16.41	351.09	32.91	-42.4	-43.8	20.2	0.00e+00	0	39	0	969932800	58	6264
2026-01-02 23:53:17.42	350.96	32.71	-42.3	-43.7	20.3	0.00e+00	0	39	0	972029952	58	6177
2026-01-02 23:53:18.43	350.83	32.51	-42.4	-43.8	20.3	0.00e+00	0	39	0	974127104	58	6315
2026-01-02 23:53:19.45	350.71	32.31	-42.1	-43.4	20.5	0.00e+00	0	39	0	975175680	58	6004
2026-01-02 23:53:20.45	350.58	32.12	-42.2	-43.5	20.5	0.00e+00	0	39	0	977272832	58	6054
2026-01-02 23:53:21.46	350.46	31.92	-41.4	-42.6	21.4	0.00e+00	0	39	0	979369984	56	6139
2026-01-02 23:53:22.47	350.34	31.73	-41.4	-42.6	21.2	0.00e+00	0	39	0	981467136	56	6157
2026-01-02 23:53:23.48	350.22	31.54	-41.1	-42.3	21.4	0.00e+00	0	39	0	983564288	56	5911
2026-01-02 23:53:24.49	350.10	31.35	-41.1	-42.2	21.5	0.00e+00	0	39	0	984612864	56	5882
2026-01-02 23:53:25.50	349.98	31.16	-41.8	-43.0	20.9	0.00e+00	0	39	0	986710016	56	6448
2026-01-02 23:53:26.51	349.87	30.97	-41.4	-42.6	21.4	0.00e+00	0	39	0	988807168	56	6111
2026-01-02 23:53:27.52	349.75	30.78	-41.4	-42.5	21.1	0.00e+00	0	39	0	990904320	56	6073
2026-01-02 23:53:28.53	349.64	30.60	-40.9	-42.0	21.7	0.00e+00	0	39	0	993001472	54	6455
2026-01-02 23:53:29.54	349.53	30.41	-40.9	-42.0	21.9	0.00e+00	0	39	0	994050048	54	6397
2026-01-02 23:53:30.55	349.42	30.23	-41.4	-42.5	21.3	0.00e+00	0	39	0	996147200	54	6818
2026-01-02 23:53:31.56	349.31	30.04	-42.1	-43.4	20.6	0.00e+00	0	39	0	998244352	56	6735
2026-01-02 23:53:32.57	349.20	29.86	-42.8	-44.2	19.6	0.00e+00	0	39	0	1000341504	58	6604
2026-01-02 23:53:33.58	349.09	29.68	-44.0	-45.8	18.5	0.00e+00	0	39	0	1002438656	60	7036
2026-01-02 23:53:34.59	348.99	29.50	-44.5	-46.5	17.6	0.00e+00	0	39	0	1003487232	60	7596
2026-01-02 23:53:35.60	348.89	29.32	-44.5	-46.5	17.9	0.00e+00	0	39	0	1005584384	60	7630
2026-01-02 23:53:36.62	348.78	29.14	-44.2	-46.0	18.2	0.00e+00	0	39	0	1007681536	60	7227
2026-01-02 23:53:37.62	348.68	28.96	-43.9	-45.6	18.7	0.00e+00	0	39	0	1009778688	60	6864
2026-01-02 23:53:38.63	348.58	28.79	-43.1	-44.7	19.2	0.00e+00	0	39	0	1011875840	60	6179
2026-01-02 23:53:39.65	348.48	28.61	-43.3	-44.9	19.4	0.00e+00	0	39	0	1012924416	60	6340
2026-01-02 23:53:40.66	348.38	28.44	-43.1	-44.6	19.7	0.00e+00	0	39	0	1015021568	60	6123
2026-01-02 23:53:41.67	348.28	28.26	-42.8	-44.2	19.9	0.00e+00	0	39	0	1017118720	60	5860
2026-01-02 23:53:42.68	348.19	28.09	-43.1	-44.6	19.5	0.00e+00	0	39	0	1019215872	58	6874
2026-01-02 23:53:43.69	348.09	27.92	-42.8	-44.2	19.7	0.00e+00	0	39	0	1021313024	58	6571
2026-01-02 23:53:44.70	348.00	27.75	-43.0	-44.4	19.8	0.00e+00	0	39	0	1023410176	58	6722
2026-01-02 23:53:45.70	347.91	27.58	-42.6	-44.0	20.0	0.00e+00	0	39	0	1024458752	58	6391
2026-01-02 23:53:46.71	347.82	27.41	-42.2	-43.5	20.6	0.00e+00	0	39	0	1026555904	58	6067
2026-01-02 23:53:47.72	347.72	27.25	-42.1	-43.4	20.6	0.00e+00	0	39	0	1028653056	58	5969
2026-01-02 23:53:48.73	347.63	27.08	-41.8	-43.1	20.6	0.00e+00	0	39	0	1030750208	58	5792
2026-01-02 23:53:49.74	347.55	26.91	-41.5	-42.7	21.3	0.00e+00	0	39	0	1032847360	56	6198
2026-01-02 23:53:50.75	347.46	26.75	-41.4	-42.6	21.3	0.00e+00	0	39	0	1033895936	56	6107
2026-01-02 23:53:51.76	347.37	26.58	-41.3	-42.5	21.4	0.00e+00	0	39	0	1035993088	56	6055
2026-01-02 23:53:52.77	347.28	26.42	-41.5	-42.8	21.1	0.00e+00	0	39	0	1038090240	56	6257
2026-01-02 23:53:53.78	347.20	26.26	-41.7	-43.0	20.9	0.00e+00	0	39	0	1040187392	56	6439
2026-01-02 23:53:54.79	347.11	26.10	-41.9	-43.2	20.7	0.00e+00	0	39	0	1042284544	56	6561
2026-01-02 23:53:55.80	347.03	25.94	-41.7	-42.9	21.0	0.00e+00	0	39	0	1043333120	56	6390
2026-01-02 23:53:56.81	346.95	25.78	-41.9	-43.2	20.5	0.00e+00	0	39	0	1045430272	56	6566
2026-01-02 23:53:57.82	346.87	25.62	-42.2	-43.6	20.4	0.00e+00	0	39	0	1047527424	56	6887
2026-01-02 23:53:58.83	346.79	25.46	-42.2	-43.6	20.4	0.00e+00	0	39	0	1049624576	56	6884
2026-01-02 23:53:59.84	346.71	25.31	-42.3	-43.7	20.1	0.00e+00	0	39	0	1051721728	56	6956
2026-01-02 23:54:00.85	346.63	25.15	-42.7	-44.1	19.9	0.00e+00	0	39	0	1052770304	56	7295
2026-01-02 23:54:01.86	346.55	25.00	-42.6	-44.0	20.0	0.00e+00	0	39	0	1054867456	56	7223
2026-01-02 23:54:02.86	346.47	24.84	-42.3	-43.6	20.0	0.00e+00	0	39	0	1056964608	58	6135
2026-01-02 23:54:03.87	346.39	24.69	-42.4	-43.7	20.3	0.00e+00	0	39	0	1059061760	58	6243
2026-01-02 23:54:04.88	346.32	24.54	-41.4	-42.6	21.3	0.00e+00	0	39	0	1061158912	56	6132
2026-01-02 23:54:05.90	346.24	24.39	-41.1	-42.2	21.7	0.00e+00	0	39	0	1062207488	56	5853
2026-01-02 23:54:06.90	346.17	24.24	-40.5	-41.6	22.0	0.00e+00	0	39	0	1064304640	54	6112
2026-01-02 23:54:07.91	346.09	24.09	-40.2	-41.3	22.3	0.00e+00	0	39	0	1066401792	54	5899
2026-01-02 23:54:08.92	346.02	23.94	-40.3	-41.3	22.2	0.00e+00	0	39	0	1068498944	54	5927
2026-01-02 23:54:09.94	345.95	23.79	-40.6	-41.6	22.0	0.00e+00	0	39	0	1070596096	54	6163
2026-01-02 23:54:10.95	345.88	23.64	-40.2	-41.3	22.3	0.00e+00	0	39	0	1071644672	54	5911
2026-01-02 23:54:11.96	345.81	23.49	-40.6	-41.7	21.9	0.00e+00	0	39	0	1073741824	54	6187
2026-01-02 23:54:12.96	345.74	23.35	-41.1	-42.2	21.5	0.00e+00	0	39	0	1075838976	54	6568
2026-01-02 23:54:13.98	345.67	23.20	-40.8	-41.9	21.7	0.00e+00	0	39	0	1077936128	54	6359
2026-01-02 23:54:14.98	345.60	23.06	-40.9	-42.0	21.5	0.00e+00	0	39	0	1080033280	54	6438
2026-01-02 23:54:15.99	345.53	22.92	-41.4	-42.6	20.9	0.00e+00	0	39	0	1081081856	54	6910
2026-01-02 23:54:17.00	345.46	22.77	-41.1	-42.3	21.4	0.00e+00	0	39	0	1083179008	54	6659
2026-01-02 23:54:18.01	345.40	22.63	-41.2	-42.4	21.3	0.00e+00	0	39	0	1085276160	54	6749
2026-01-02 23:54:19.02	345.33	22.49	-41.1	-42.3	21.3	0.00e+00	0	39	0	1087373312	54	6638
2026-01-02 23:54:20.03	345.26	22.35	-41.0	-42.1	21.5	0.00e+00	0	39	0	1089470464	54	6511
2026-01-02 23:54:21.04	345.20	22.21	-40.6	-41.7	21.9	0.00e+00	0	39	0	1091567616	54	6220
2026-01-02 23:54:22.05	345.13	22.07	-40.6	-41.7	21.9	0.00e+00	0	39	0	1092616192	54	6232
2026-01-02 23:54:23.06	345.07	21.93	-40.7	-41.9	21.7	0.00e+00	0	39	0	1094713344	54	6327
2026-01-02 23:54:24.07	345.01	21.79	-40.8	-42.0	21.6	0.00e+00	0	39	0	1096810496	54	6425
2026-01-02 23:54:25.08	344.95	21.66	-40.9	-42.1	21.4	0.00e+00	0	39	0	1098907648	54	6522
2026-01-02 23:54:26.09	344.88	21.52	-41.1	-42.3	21.4	0.00e+00	0	39	0	1101004800	54	6651
2026-01-02 23:54:27.10	344.82	21.38	-41.3	-42.6	21.2	0.00e+00	0	39	0	1102053376	54	6853
2026-01-02 23:54:28.11	344.76	21.25	-41.3	-42.5	21.1	0.00e+00	0	39	0	1104150528	54	6807
2026-01-02 23:54:29.12	344.70	21.11	-41.1	-42.3	21.2	0.00e+00	0	39	0	1106247680	54	6692
2026-01-02 23:54:30.13	344.64	20.98	-41.3	-42.5	21.1	0.00e+00	0	39	0	1108344832	54	6842
2026-01-02 23:54:31.14	344.58	20.85	-41.5	-42.7	21.0	0.00e+00	0	39	0	1110441984	54	6974
2026-01-02 23:54:32.15	344.52	20.72	-41.4	-42.7	21.1	0.00e+00	0	39	0	1111490560	54	6950
2026-01-02 23:54:33.16	344.47	20.58	-41.5	-42.8	20.9	0.00e+00	0	39	0	1113587712	54	7016
2026-01-02 23:54:34.17	344.41	20.45	-41.6	-42.8	21.0	0.00e+00	0	39	0	1115684864	56	6296
2026-01-02 23:54:35.18	344.35	20.32	-41.2	-42.4	21.3	0.00e+00	0	39	0	1117782016	56	6001
2026-01-02 23:54:36.19	344.29	20.19	-41.0	-42.2	21.5	0.00e+00	0	39	0	1119879168	56	5850
2026-01-02 23:54:37.20	344.24	20.06	-41.0	-42.2	21.5	0.00e+00	0	39	0	1120927744	56	5864
2026-01-02 23:54:38.21	344.18	19.93	-40.9	-42.0	21.7	0.00e+00	0	39	0	1123024896	56	5759
2026-01-02 23:54:39.22	344.13	19.81	-40.7	-41.8	21.7	0.00e+00	0	39	0	1125122048	54	6305
2026-01-02 23:54:40.23	344.07	19.68	-40.9	-42.0	21.5	0.00e+00	0	39	0	1127219200	54	6436
2026-01-02 23:54:41.24	344.02	19.55	-40.6	-41.7	21.9	0.00e+00	0	39	0	1129316352	54	6227
2026-01-02 23:54:42.25	343.97	19.43	-40.5	-41.6	22.0	0.00e+00	0	39	0	1130364928	54	6135
2026-01-02 23:54:43.26	343.91	19.30	-40.5	-41.6	21.9	0.00e+00	0	39	0	1132462080	54	6108
2026-01-02 23:54:44.27	343.86	19.18	-40.3	-41.4	21.9	0.00e+00	0	39	0	1134559232	54	6002
2026-01-02 23:54:45.28	343.81	19.05	-40.4	-41.5	22.1	0.00e+00	0	39	0	1136656384	54	6057
2026-01-02 23:54:46.29	343.76	18.93	-40.5	-41.6	22.0	0.00e+00	0	39	0	1138753536	54	6126
2026-01-02 23:54:47.30	343.70	18.81	-40.4	-41.4	22.0	0.00e+00	0	39	0	1139802112	54	6016
2026-01-02 23:54:48.31	343.65	18.68	-40.5	-41.6	21.9	0.00e+00	0	39	0	1141899264	54	6111
2026-01-02 23:54:49.32	343.60	18.56	-40.3	-41.4	22.2	0.00e+00	0	39	0	1143996416	54	5979
2026-01-02 23:54:50.33	343.55	18.44	-40.4	-41.5	22.0	0.00e+00	0	39	0	1146093568	54	6068
2026-01-02 23:54:51.34	343.50	18.32	-40.2	-41.2	22.2	0.00e+00	0	39	0	1148190720	54	5886
2026-01-02 23:54:52.35	343.45	18.20	-40.2	-41.3	22.2	0.00e+00	0	39	0	1149239296	54	5904
2026-01-02 23:54:53.35	343.41	18.08	-40.2	-41.2	22.3	0.00e+00	0	39	0	1151336448	54	5886
2026-01-02 23:54:54.36	343.36	17.96	-40.2	-41.3	22.2	0.00e+00	0	39	0	1153433600	54	5899
