passes_logs/2026/01/02/R4.6S_Anadyr/R4.6S_Anadyr__20260102_183724_AQUA_rec.log

#Pass ID: 20260102_183724_AQUA
#Satellite: AQUA
#Configuration: AQUA
#almurnet v.1.7.20251203
#Start time: 2026-01-02 18:37:26

#Version: 2.2.20231116
#Station: R4.6S_Anadyr
#Location: 177.4865 lon 64.73178 lat
#TLE: 1 27424U 02022A   25365.92641127  .00002078  00000+0  42628-3 0  9999
#TLE: 2 27424  98.4058 327.1196 0001962  94.7781 340.6230 14.61783896258835

#Time	Az	El	Level	Level2	SNR	BER	BlckErr	Temp	State	Recorded	gain1	gain2
2026-01-02 18:37:26.61	25.52	0.12	-49.5	-61.2	3.5	8.46e-01	0	36	0	0	60	41287
2026-01-02 18:37:27.61	25.45	0.17	-50.0	-67.9	3.5	3.02e+01	0	37	104	0	60	95367
2026-01-02 18:37:28.62	25.39	0.23	-49.9	-67.9	3.5	3.02e+01	0	37	104	0	60	95552
2026-01-02 18:37:29.64	25.33	0.29	-50.0	-67.8	3.5	3.02e+01	0	37	104	0	60	94696
2026-01-02 18:37:30.65	25.26	0.34	-50.0	-67.8	3.5	3.02e+01	0	37	104	0	60	94985
2026-01-02 18:37:31.65	25.20	0.40	-49.9	-67.9	3.6	3.02e+01	0	37	104	0	60	95064
2026-01-02 18:37:32.66	25.13	0.46	-50.1	-67.9	3.5	3.02e+01	0	37	104	0	60	95339
2026-01-02 18:37:33.67	25.07	0.51	-49.9	-67.9	3.5	3.02e+01	0	37	104	0	60	95625
2026-01-02 18:37:34.68	25.00	0.57	-49.9	-67.8	3.5	3.02e+01	0	37	104	0	60	94702
2026-01-02 18:37:35.69	24.94	0.63	-49.9	-67.8	3.5	3.02e+01	0	37	104	0	60	94109
2026-01-02 18:37:36.70	24.87	0.68	-49.7	-67.6	3.5	3.02e+01	0	37	104	0	60	92331
2026-01-02 18:37:37.71	24.80	0.74	-49.6	-67.5	3.5	3.02e+01	0	38	104	0	60	90846
2026-01-02 18:37:38.72	24.74	0.80	-49.4	-67.1	3.5	3.02e+01	0	38	104	0	60	87552
2026-01-02 18:37:39.73	24.67	0.85	-49.2	-67.0	3.5	3.02e+01	0	37	104	0	60	85725
2026-01-02 18:37:40.74	24.60	0.91	-49.0	-66.8	3.5	3.02e+01	0	38	104	0	60	84182
2026-01-02 18:37:41.75	24.54	0.97	-48.5	-66.4	3.5	3.02e+01	0	38	104	0	60	80550
2026-01-02 18:37:42.76	24.47	1.02	-48.2	-66.0	3.5	3.02e+01	0	38	104	0	60	77175
2026-01-02 18:37:43.77	24.40	1.08	-48.2	-66.0	3.5	3.02e+01	0	37	104	0	60	77168
2026-01-02 18:37:44.78	24.33	1.14	-48.2	-66.0	3.5	3.02e+01	0	38	104	0	60	76908
2026-01-02 18:37:45.79	24.26	1.20	-48.2	-66.0	3.5	3.02e+01	0	37	104	0	60	77092
2026-01-02 18:37:46.80	24.19	1.25	-48.2	-66.1	3.5	3.02e+01	0	38	104	0	60	77711
2026-01-02 18:37:47.82	24.12	1.31	-48.2	-66.1	3.5	3.02e+01	0	38	104	0	60	77672
2026-01-02 18:37:48.83	24.05	1.37	-48.2	-66.0	3.5	3.02e+01	0	37	104	0	60	76879
2026-01-02 18:37:49.83	23.98	1.43	-48.2	-66.0	3.5	3.02e+01	0	37	104	0	60	76795
2026-01-02 18:37:50.84	23.91	1.48	-48.2	-65.8	3.5	3.02e+01	0	38	104	0	60	75342
2026-01-02 18:37:51.85	23.84	1.54	-48.2	-65.8	3.5	3.02e+01	0	38	104	0	60	75211
2026-01-02 18:37:52.86	23.77	1.60	-48.2	-65.9	3.5	3.02e+01	0	38	104	0	60	75536
2026-01-02 18:37:53.87	23.70	1.66	-48.2	-65.9	3.5	3.02e+01	0	38	104	0	60	75555
2026-01-02 18:37:54.88	23.63	1.72	-48.2	-65.9	3.5	3.02e+01	0	38	104	0	60	75680
2026-01-02 18:37:55.89	23.56	1.77	-48.2	-65.9	3.5	3.02e+01	0	38	104	0	60	75664
2026-01-02 18:37:56.90	23.49	1.83	-48.2	-65.8	3.5	3.02e+01	0	38	104	0	60	75404
2026-01-02 18:37:57.91	23.41	1.89	-48.2	-65.8	3.5	3.02e+01	0	38	104	0	60	75408
2026-01-02 18:37:58.92	23.34	1.95	-48.2	-66.0	3.5	3.02e+01	0	38	104	0	60	76415
2026-01-02 18:37:59.93	23.27	2.01	-48.2	-66.0	3.5	3.02e+01	0	38	104	0	60	76538
2026-01-02 18:38:00.94	23.19	2.07	-48.2	-66.0	3.5	3.02e+01	0	38	104	0	60	76556
2026-01-02 18:38:01.95	23.12	2.13	-48.2	-66.0	3.5	3.02e+01	0	38	104	0	60	76475
2026-01-02 18:38:02.96	23.05	2.19	-48.2	-65.9	3.5	3.02e+01	0	38	104	0	60	75878
2026-01-02 18:38:03.97	22.97	2.24	-48.2	-65.3	3.5	3.02e+01	0	38	104	0	60	71102
2026-01-02 18:38:04.98	22.90	2.30	-48.2	-65.0	3.5	3.02e+01	0	38	104	0	60	68122
2026-01-02 18:38:05.99	22.82	2.36	-48.2	-64.2	3.5	3.02e+01	0	38	104	0	60	62205
2026-01-02 18:38:07.00	22.75	2.42	-48.1	-63.4	3.6	3.02e+01	0	38	104	0	60	57065
2026-01-02 18:38:08.01	22.67	2.48	-48.1	-63.3	3.9	3.02e+01	0	38	104	0	60	56381
2026-01-02 18:38:09.02	22.59	2.54	-48.1	-64.0	3.7	3.02e+01	0	38	104	0	60	61063
2026-01-02 18:38:10.03	22.52	2.60	-48.2	-65.2	3.5	3.02e+01	0	38	104	0	60	69636
2026-01-02 18:38:11.04	22.44	2.66	-48.2	-66.0	3.5	3.02e+01	0	38	104	0	60	76480
2026-01-02 18:38:12.05	22.36	2.72	-48.2	-65.9	3.5	3.02e+01	0	38	104	0	60	76303
2026-01-02 18:38:13.07	22.28	2.78	-48.2	-65.8	3.5	3.02e+01	0	38	104	0	60	75015
2026-01-02 18:38:14.08	22.21	2.84	-48.2	-65.8	3.5	3.02e+01	0	38	104	0	60	75412
2026-01-02 18:38:15.09	22.13	2.90	-48.2	-65.6	3.5	3.02e+01	0	38	104	0	60	73595
2026-01-02 18:38:16.10	22.05	2.96	-48.1	-63.8	3.6	3.02e+01	0	38	104	0	60	59849
2026-01-02 18:38:17.11	21.97	3.02	-48.1	-62.2	3.7	3.02e+01	0	38	104	0	60	49740
2026-01-02 18:38:18.12	21.89	3.08	-48.0	-61.6	4.7	3.02e+01	0	38	104	0	60	46025
2026-01-02 18:38:19.13	21.81	3.14	-48.1	-62.1	3.7	3.02e+01	0	38	104	0	60	49204
2026-01-02 18:38:20.14	21.73	3.20	-48.2	-64.4	3.6	3.02e+01	0	38	104	0	60	64097
2026-01-02 18:38:21.15	21.65	3.26	-48.0	-60.3	5.5	3.02e+01	2	38	104	0	60	39955
2026-01-02 18:38:22.16	21.57	3.32	-47.2	-54.3	10.9	3.02e+01	52	38	0	1048576	60	19852
2026-01-02 18:38:23.17	21.49	3.38	-46.1	-50.9	14.5	3.02e+01	59	38	0	2621440	60	13505
2026-01-02 18:38:24.18	21.40	3.45	-45.6	-49.9	15.2	3.02e+01	59	38	0	4718592	60	12057
2026-01-02 18:38:25.18	21.32	3.51	-48.1	-61.6	4.6	3.02e+01	0	38	104	5242880	60	46279
2026-01-02 18:38:26.19	21.24	3.57	-48.2	-64.3	4.1	3.02e+01	0	38	104	5242880	60	63220
2026-01-02 18:38:27.20	21.16	3.63	-44.9	-48.4	17.7	3.02e+01	58	38	0	6291456	60	10152
2026-01-02 18:38:28.21	21.07	3.69	-39.1	-40.7	24.8	3.02e+01	62	38	0	8388608	54	5883
2026-01-02 18:38:29.22	20.99	3.75	-48.1	-63.8	3.6	3.02e+01	0	38	104	8912896	60	59747
2026-01-02 18:38:30.23	20.90	3.81	-39.5	-41.5	22.3	3.02e+01	63	38	104	8912896	54	6433
2026-01-02 18:38:31.24	20.82	3.87	-38.6	-40.1	25.3	3.02e+01	57	38	0	9961472	52	6188
2026-01-02 18:38:32.25	20.73	3.94	-39.1	-40.7	24.9	3.02e+01	58	38	0	12058624	52	6600
2026-01-02 18:38:33.26	20.65	4.00	-39.1	-40.7	24.9	3.02e+01	53	38	0	13631488	52	6574
2026-01-02 18:38:34.27	20.56	4.06	-38.6	-40.1	25.5	3.02e+01	57	38	0	15728640	52	6172
2026-01-02 18:38:35.28	20.48	4.12	-38.9	-40.4	25.2	3.02e+01	56	38	0	17825792	52	6385
2026-01-02 18:38:36.29	20.39	4.18	-39.1	-40.6	25.0	3.02e+01	62	38	0	19398656	52	6545
2026-01-02 18:38:37.30	20.30	4.25	-38.7	-40.3	25.4	3.02e+01	58	38	0	21495808	52	6284
2026-01-02 18:38:38.30	20.22	4.31	-39.0	-40.5	25.0	3.02e+01	52	38	0	23068672	52	6470
2026-01-02 18:38:39.31	20.13	4.37	-38.7	-40.2	25.3	3.02e+01	60	38	0	25165824	52	6275
2026-01-02 18:38:40.32	20.04	4.43	-38.8	-40.3	25.3	3.02e+01	62	38	0	27262976	52	6298
2026-01-02 18:38:41.33	19.95	4.50	-38.7	-40.2	25.4	3.02e+01	45	38	0	28835840	52	6223
2026-01-02 18:38:42.34	19.86	4.56	-39.2	-40.8	24.9	3.02e+01	61	38	0	30932992	52	6699
2026-01-02 18:38:43.35	19.77	4.62	-38.8	-40.3	25.3	3.02e+01	59	38	0	32505856	52	6332
2026-01-02 18:38:44.36	19.68	4.68	-38.6	-40.1	25.5	3.02e+01	60	38	0	34603008	52	6143
2026-01-02 18:38:45.37	19.59	4.75	-38.7	-40.3	25.5	3.02e+01	60	38	0	36700160	52	6278
2026-01-02 18:38:46.38	19.50	4.81	-38.7	-40.2	25.6	3.02e+01	48	38	0	38273024	52	6250
2026-01-02 18:38:47.39	19.41	4.87	-38.7	-40.2	25.4	3.02e+01	60	38	0	40370176	52	6242
2026-01-02 18:38:48.40	19.32	4.94	-38.6	-40.1	25.6	3.02e+01	59	38	0	41943040	52	6163
2026-01-02 18:38:49.41	19.22	5.00	-38.5	-40.0	25.7	3.02e+01	41	38	0	44040192	52	6104
2026-01-02 18:38:50.42	19.13	5.06	-38.7	-40.2	25.5	3.02e+01	59	38	0	46137344	52	6216
2026-01-02 18:38:51.43	19.04	5.13	-38.4	-39.9	25.8	3.02e+01	47	38	0	47710208	52	6005
2026-01-02 18:38:52.44	18.94	5.19	-38.4	-39.8	25.9	3.02e+01	59	38	0	49807360	52	5991
2026-01-02 18:38:53.45	18.85	5.26	-38.2	-39.6	26.1	3.02e+01	60	38	0	51904512	52	5849
2026-01-02 18:38:54.45	18.76	5.32	-38.5	-39.9	25.7	3.02e+01	52	38	0	53477376	52	6046
2026-01-02 18:38:55.46	18.66	5.38	-38.6	-40.0	25.7	3.02e+01	59	38	0	55574528	52	6111
2026-01-02 18:38:56.47	18.56	5.45	-38.4	-39.9	25.9	3.02e+01	57	38	0	57147392	52	6015
2026-01-02 18:38:57.48	18.47	5.51	-38.5	-39.9	25.8	3.02e+01	60	38	0	59244544	52	6058
2026-01-02 18:38:58.49	18.37	5.58	-38.4	-39.8	26.0	3.02e+01	57	38	0	61341696	52	5961
2026-01-02 18:38:59.50	18.27	5.64	-38.3	-39.7	26.0	3.02e+01	49	38	0	62914560	52	5902
2026-01-02 18:39:00.51	18.18	5.70	-38.6	-40.0	25.8	3.02e+01	60	38	0	65011712	52	6124
2026-01-02 18:39:01.52	18.08	5.77	-38.3	-39.7	26.0	3.02e+01	59	38	0	66584576	52	5919
2026-01-02 18:39:02.53	17.98	5.83	-38.1	-39.5	26.2	3.02e+01	46	38	0	68681728	50	6480
2026-01-02 18:39:03.54	17.88	5.90	-38.3	-39.8	25.9	3.02e+01	60	38	0	70778880	50	6678
2026-01-02 18:39:04.54	17.78	5.96	-38.2	-39.6	26.1	3.02e+01	57	38	0	72351744	50	6550
2026-01-02 18:39:05.55	17.68	6.03	-38.3	-39.8	26.0	3.02e+01	60	38	0	74448896	50	6660
2026-01-02 18:39:06.56	17.58	6.09	-38.0	-39.4	26.4	3.02e+01	59	38	0	76021760	50	6392
2026-01-02 18:39:07.57	17.48	6.16	-38.1	-39.6	26.2	3.02e+01	45	38	0	78118912	50	6500
2026-01-02 18:39:08.58	17.38	6.22	-38.1	-39.5	26.2	3.02e+01	50	38	0	80216064	50	6456
2026-01-02 18:39:09.59	17.28	6.29	-38.0	-39.4	26.5	3.02e+01	61	38	0	81788928	50	6414
2026-01-02 18:39:10.60	17.17	6.35	-38.1	-39.5	26.3	3.02e+01	49	38	0	83886080	50	6463
2026-01-02 18:39:11.60	17.07	6.42	-38.2	-39.7	26.2	3.02e+01	54	38	0	85458944	50	6586
2026-01-02 18:39:12.61	16.97	6.49	-38.2	-39.6	26.2	3.02e+01	59	38	0	87556096	50	6563
2026-01-02 18:39:13.62	16.86	6.55	-38.2	-39.6	26.3	3.02e+01	59	38	0	89653248	50	6515
2026-01-02 18:39:14.63	16.76	6.62	-38.1	-39.5	26.3	3.02e+01	57	38	0	91226112	50	6492
2026-01-02 18:39:15.64	16.65	6.68	-38.2	-39.6	26.2	3.02e+01	61	38	0	93323264	50	6571
2026-01-02 18:39:16.65	16.55	6.75	-38.1	-39.5	26.4	3.02e+01	58	38	0	94896128	50	6459
2026-01-02 18:39:17.66	16.44	6.82	-38.1	-39.6	26.3	3.02e+01	58	38	0	96993280	50	6504
2026-01-02 18:39:18.67	16.33	6.88	-37.9	-39.3	26.5	3.02e+01	44	38	0	99090432	50	6323
2026-01-02 18:39:19.68	16.23	6.95	-38.0	-39.4	26.6	3.02e+01	59	38	0	100663296	50	6352
2026-01-02 18:39:20.69	16.12	7.02	-37.9	-39.3	26.6	3.02e+01	60	38	0	102760448	50	6303
2026-01-02 18:39:21.70	16.01	7.08	-38.0	-39.4	26.6	3.02e+01	59	38	0	104857600	50	6420
2026-01-02 18:39:22.71	15.90	7.15	-37.8	-39.1	26.8	3.02e+01	58	38	0	106430464	50	6184
2026-01-02 18:39:23.72	15.79	7.22	-37.7	-39.1	26.8	3.02e+01	50	38	0	108527616	50	6151
2026-01-02 18:39:24.73	15.68	7.28	-37.8	-39.2	26.7	3.02e+01	58	38	0	110100480	50	6225
2026-01-02 18:39:25.74	15.57	7.35	-37.5	-38.9	27.1	3.02e+01	61	38	0	112197632	50	6015
2026-01-02 18:39:26.75	15.46	7.42	-37.4	-38.7	27.2	3.02e+01	54	38	0	114294784	50	5919
2026-01-02 18:39:27.76	15.35	7.48	-37.5	-38.8	27.1	3.02e+01	60	38	0	115867648	50	5991
2026-01-02 18:39:28.77	15.23	7.55	-37.5	-38.9	27.0	3.02e+01	59	38	0	117964800	50	6001
2026-01-02 18:39:29.78	15.12	7.62	-37.5	-38.9	27.0	3.02e+01	58	38	0	120061952	50	6002
2026-01-02 18:39:30.79	15.01	7.69	-37.6	-38.9	27.0	3.02e+01	57	38	0	121634816	50	6058
2026-01-02 18:39:31.80	14.89	7.75	-37.5	-38.9	27.1	3.02e+01	49	38	0	123731968	50	6005
2026-01-02 18:39:32.81	14.78	7.82	-37.6	-39.0	27.0	3.02e+01	54	38	0	125304832	50	6096
2026-01-02 18:39:33.82	14.66	7.89	-37.6	-38.9	27.1	3.02e+01	58	38	0	127401984	50	6041
2026-01-02 18:39:34.82	14.55	7.96	-37.6	-39.0	27.0	3.02e+01	60	38	0	129499136	50	6070
2026-01-02 18:39:35.83	14.43	8.03	-37.5	-38.9	27.1	3.02e+01	54	38	0	131072000	50	6005
2026-01-02 18:39:36.85	14.31	8.09	-37.4	-38.8	27.3	3.02e+01	47	38	0	133169152	50	5944
2026-01-02 18:39:37.85	14.19	8.16	-37.3	-38.7	27.4	3.02e+01	57	38	0	134742016	50	5874
2026-01-02 18:39:38.86	14.08	8.23	-37.4	-38.7	27.3	3.02e+01	58	38	0	136839168	50	5912
2026-01-02 18:39:39.87	13.96	8.30	-37.7	-39.1	26.9	3.02e+01	45	38	0	138936320	50	6142
2026-01-02 18:39:40.88	13.84	8.37	-37.8	-39.2	26.8	3.02e+01	60	38	0	140509184	50	6223
2026-01-02 18:39:41.89	13.72	8.44	-38.0	-39.4	26.7	3.02e+01	57	38	0	142606336	50	6383
2026-01-02 18:39:42.90	13.59	8.50	-38.1	-39.5	26.5	3.02e+01	57	38	0	144179200	50	6457
2026-01-02 18:39:43.91	13.47	8.57	-38.3	-39.7	26.6	3.02e+01	61	38	0	146276352	50	6592
2026-01-02 18:39:44.92	13.35	8.64	-38.0	-39.4	26.7	3.02e+01	58	38	0	148373504	50	6384
2026-01-02 18:39:45.93	13.23	8.71	-37.9	-39.2	26.9	3.02e+01	60	38	0	149946368	50	6270
2026-01-02 18:39:46.94	13.10	8.78	-37.6	-39.0	27.2	3.02e+01	59	38	0	152043520	50	6093
2026-01-02 18:39:47.95	12.98	8.85	-37.4	-38.7	27.3	3.02e+01	51	38	0	153616384	50	5926
2026-01-02 18:39:48.96	12.85	8.92	-37.4	-38.8	27.3	3.02e+01	59	38	0	155713536	50	5943
2026-01-02 18:39:49.97	12.73	8.99	-37.5	-38.8	27.3	3.02e+01	62	38	0	157810688	50	5990
2026-01-02 18:39:50.97	12.60	9.06	-37.3	-38.6	27.4	3.02e+01	54	38	0	159383552	50	5837
2026-01-02 18:39:51.98	12.48	9.13	-37.2	-38.5	27.6	3.02e+01	58	38	0	161480704	50	5730
2026-01-02 18:39:52.99	12.35	9.20	-37.2	-38.5	27.5	3.02e+01	52	38	0	163053568	50	5776
2026-01-02 18:39:54.00	12.22	9.27	-37.2	-38.5	27.6	3.02e+01	57	38	0	165150720	50	5747
2026-01-02 18:39:55.01	12.09	9.34	-37.4	-38.7	27.5	3.02e+01	59	38	0	167247872	50	5876
2026-01-02 18:39:56.02	11.96	9.41	-37.3	-38.6	27.6	3.02e+01	47	38	0	168820736	50	5833
2026-01-02 18:39:57.03	11.83	9.48	-37.2	-38.5	27.6	3.02e+01	59	38	0	170917888	50	5759
2026-01-02 18:39:58.04	11.70	9.55	-37.1	-38.4	27.7	3.02e+01	61	38	0	173015040	50	5706
2026-01-02 18:39:59.05	11.57	9.62	-37.1	-38.4	27.8	3.02e+01	61	38	0	174587904	50	5702
2026-01-02 18:40:00.06	11.43	9.69	-37.0	-38.3	27.8	3.02e+01	59	38	0	176685056	50	5644
2026-01-02 18:40:01.07	11.30	9.76	-37.0	-38.3	27.9	3.02e+01	56	38	0	178257920	50	5615
2026-01-02 18:40:02.08	11.17	9.83	-36.9	-38.2	27.9	3.02e+01	60	38	0	180355072	48	6206
2026-01-02 18:40:03.09	11.03	9.90	-36.9	-38.2	27.9	3.02e+01	60	38	0	182452224	48	6239
2026-01-02 18:40:04.10	10.90	9.97	-36.9	-38.2	27.9	3.02e+01	44	38	0	184025088	48	6249
2026-01-02 18:40:05.11	10.76	10.04	-36.7	-38.0	28.1	3.02e+01	59	38	0	186122240	48	6103
2026-01-02 18:40:06.12	10.62	10.11	-36.8	-38.1	28.0	3.02e+01	51	38	0	187695104	48	6137
2026-01-02 18:40:07.13	10.49	10.18	-36.8	-38.1	28.0	3.02e+01	59	38	0	189792256	48	6175
2026-01-02 18:40:08.13	10.35	10.25	-36.7	-38.0	28.2	3.02e+01	57	38	0	191889408	48	6089
2026-01-02 18:40:09.14	10.21	10.32	-36.9	-38.2	28.0	3.02e+01	50	38	0	193462272	48	6250
2026-01-02 18:40:10.15	10.07	10.39	-36.6	-37.9	28.3	3.02e+01	55	38	0	195559424	48	6013
2026-01-02 18:40:11.16	9.93	10.46	-36.7	-38.0	28.1	3.02e+01	60	38	0	197132288	48	6099
2026-01-02 18:40:12.17	9.79	10.53	-36.7	-37.9	28.2	3.02e+01	59	38	0	199229440	48	6044
2026-01-02 18:40:13.18	9.65	10.60	-36.7	-37.9	28.2	3.02e+01	61	38	0	201326592	48	6063
2026-01-02 18:40:14.19	9.50	10.68	-36.8	-38.1	28.1	3.02e+01	43	38	0	202899456	48	6136
2026-01-02 18:40:15.20	9.36	10.75	-36.7	-38.0	28.2	3.02e+01	58	38	0	204996608	48	6111
2026-01-02 18:40:16.21	9.21	10.82	-36.8	-38.1	28.0	3.02e+01	60	38	0	206569472	48	6174
2026-01-02 18:40:17.22	9.07	10.89	-36.8	-38.0	28.0	3.02e+01	49	38	0	208666624	48	6133
2026-01-02 18:40:18.23	8.92	10.96	-36.9	-38.2	28.0	3.02e+01	61	38	0	210763776	48	6220
2026-01-02 18:40:19.24	8.78	11.03	-36.8	-38.1	28.1	3.02e+01	57	38	0	212336640	48	6175
2026-01-02 18:40:20.25	8.63	11.10	-36.8	-38.1	28.0	3.02e+01	60	38	0	214433792	48	6149
2026-01-02 18:40:21.26	8.48	11.18	-36.9	-38.2	28.0	3.02e+01	56	38	0	216530944	48	6254
2026-01-02 18:40:22.27	8.33	11.25	-36.6	-37.9	28.3	3.02e+01	61	38	0	218103808	48	6007
2026-01-02 18:40:23.28	8.18	11.32	-36.7	-38.0	28.2	3.02e+01	63	38	0	220200960	48	6067
2026-01-02 18:40:24.29	8.03	11.39	-36.6	-37.9	28.2	3.02e+01	62	38	0	221773824	48	6028
2026-01-02 18:40:25.30	7.88	11.46	-36.6	-37.9	28.3	3.02e+01	45	38	0	223870976	48	6005
2026-01-02 18:40:26.31	7.73	11.53	-36.7	-38.0	28.2	3.02e+01	59	38	0	225968128	48	6095
2026-01-02 18:40:27.32	7.57	11.61	-36.7	-37.9	28.3	3.02e+01	58	38	0	227540992	48	6046
2026-01-02 18:40:28.33	7.42	11.68	-36.6	-37.8	28.3	3.02e+01	57	38	0	229638144	48	5983
2026-01-02 18:40:29.34	7.26	11.75	-36.6	-37.8	28.3	3.02e+01	60	38	0	231211008	48	5989
2026-01-02 18:40:30.35	7.11	11.82	-36.5	-37.8	28.4	3.02e+01	49	38	0	233308160	48	5932
2026-01-02 18:40:31.36	6.95	11.89	-36.4	-37.7	28.5	3.02e+01	63	38	0	235405312	48	5861
2026-01-02 18:40:32.37	6.79	11.97	-36.4	-37.6	28.5	3.02e+01	60	38	0	236978176	48	5826
2026-01-02 18:40:33.38	6.63	12.04	-36.5	-37.8	28.4	3.02e+01	45	38	0	239075328	48	5956
2026-01-02 18:40:34.39	6.48	12.11	-36.6	-37.8	28.4	3.02e+01	59	38	0	241172480	48	5969
2026-01-02 18:40:35.40	6.32	12.18	-36.3	-37.5	28.6	3.02e+01	60	38	0	242745344	48	5773
2026-01-02 18:40:36.40	6.16	12.25	-36.5	-37.7	28.5	3.02e+01	57	38	0	244842496	48	5896
2026-01-02 18:40:37.41	5.99	12.33	-36.4	-37.6	28.6	3.02e+01	56	38	0	246415360	48	5826
2026-01-02 18:40:38.43	5.83	12.40	-36.6	-37.9	28.3	3.02e+01	58	38	0	248512512	48	6013
2026-01-02 18:40:39.43	5.67	12.47	-36.7	-37.9	28.3	3.02e+01	61	38	0	250609664	48	6037
2026-01-02 18:40:40.44	5.50	12.54	-36.9	-38.1	28.2	3.02e+01	57	38	0	252182528	48	6203
2026-01-02 18:40:41.45	5.34	12.62	-36.7	-38.0	28.3	3.02e+01	58	38	0	254279680	48	6082
2026-01-02 18:40:42.46	5.17	12.69	-36.8	-38.1	28.1	3.02e+01	58	38	0	255852544	48	6180
2026-01-02 18:40:43.47	5.00	12.76	-36.6	-37.9	28.2	3.02e+01	48	38	0	257949696	48	6027
2026-01-02 18:40:44.48	4.84	12.83	-36.7	-37.9	28.4	3.02e+01	61	38	0	260046848	48	6050
2026-01-02 18:40:45.49	4.67	12.91	-36.2	-37.5	28.8	3.02e+01	59	38	0	261619712	48	5737
2026-01-02 18:40:46.50	4.50	12.98	-36.3	-37.6	28.7	3.02e+01	45	38	0	263716864	48	5806
2026-01-02 18:40:47.51	4.33	13.05	-36.4	-37.7	28.5	3.02e+01	60	38	0	265289728	48	5877
2026-01-02 18:40:48.52	4.16	13.12	-36.6	-37.8	28.4	3.02e+01	60	38	0	267386880	48	5981
2026-01-02 18:40:49.53	3.98	13.20	-36.5	-37.7	28.5	3.02e+01	58	38	0	269484032	48	5924
2026-01-02 18:40:50.54	3.81	13.27	-36.5	-37.8	28.4	3.02e+01	52	38	0	271056896	48	5959
2026-01-02 18:40:51.55	3.64	13.34	-36.5	-37.8	28.4	3.02e+01	46	38	0	273154048	48	5929
2026-01-02 18:40:52.56	3.46	13.41	-36.5	-37.7	28.5	3.02e+01	63	39	0	274726912	48	5918
2026-01-02 18:40:53.56	3.29	13.48	-36.6	-37.8	28.4	3.02e+01	59	38	0	276824064	48	5983
2026-01-02 18:40:54.58	3.11	13.56	-36.6	-37.8	28.4	3.02e+01	44	38	0	278921216	48	5973
2026-01-02 18:40:55.58	2.93	13.63	-36.5	-37.7	28.5	3.02e+01	57	38	0	280494080	48	5895
2026-01-02 18:40:56.59	2.75	13.70	-36.5	-37.7	28.5	3.02e+01	58	38	0	282591232	48	5920
2026-01-02 18:40:57.60	2.57	13.77	-36.5	-37.7	28.5	3.02e+01	60	38	0	284688384	48	5919
2026-01-02 18:40:58.61	2.39	13.84	-36.5	-37.8	28.4	3.02e+01	56	38	0	286261248	48	5931
2026-01-02 18:40:59.62	2.21	13.92	-36.6	-37.8	28.5	3.02e+01	45	38	0	288358400	48	5964
2026-01-02 18:41:00.63	2.02	13.99	-36.6	-37.8	28.4	3.02e+01	57	39	0	289931264	48	5990
2026-01-02 18:41:01.64	1.84	14.06	-36.6	-37.9	28.4	3.02e+01	60	38	0	292028416	48	6015
2026-01-02 18:41:02.65	1.66	14.13	-36.5	-37.8	28.5	3.02e+01	51	38	0	294125568	48	5931
2026-01-02 18:41:03.66	1.47	14.21	-36.5	-37.7	28.5	3.02e+01	59	38	0	295698432	48	5895
2026-01-02 18:41:04.67	1.28	14.28	-36.3	-37.5	28.7	3.02e+01	59	38	0	297795584	48	5770
2026-01-02 18:41:05.68	1.10	14.35	-36.3	-37.6	28.7	3.02e+01	60	38	0	299368448	48	5793
2026-01-02 18:41:06.69	0.91	14.42	-36.3	-37.5	28.7	3.02e+01	60	38	0	301465600	48	5774
2026-01-02 18:41:07.70	0.72	14.49	-36.3	-37.6	28.6	3.02e+01	46	38	0	303562752	48	5820
2026-01-02 18:41:08.70	0.53	14.56	-36.3	-37.6	28.7	3.02e+01	62	38	0	305135616	48	5812
2026-01-02 18:41:09.72	0.33	14.64	-36.3	-37.5	28.7	3.02e+01	60	38	0	307232768	48	5789
2026-01-02 18:41:10.72	0.14	14.71	-36.2	-37.5	28.8	3.02e+01	47	38	0	309329920	48	5731
2026-01-02 18:41:11.73	359.95	14.78	-36.2	-37.4	28.9	3.02e+01	61	38	0	310902784	48	5715
2026-01-02 18:41:12.74	359.75	14.85	-36.2	-37.4	28.9	3.02e+01	56	38	0	312999936	48	5699
2026-01-02 18:41:13.75	359.56	14.92	-36.2	-37.4	28.8	3.02e+01	59	38	0	314572800	48	5700
2026-01-02 18:41:14.76	359.36	14.99	-36.3	-37.6	28.8	3.02e+01	62	38	0	316669952	48	5800
2026-01-02 18:41:15.77	359.16	15.06	-36.4	-37.6	28.7	3.02e+01	55	38	0	318767104	48	5844
2026-01-02 18:41:16.78	358.96	15.13	-36.4	-37.6	28.7	3.02e+01	59	38	0	320339968	48	5853
2026-01-02 18:41:17.79	358.76	15.21	-36.6	-37.8	28.5	3.02e+01	64	38	0	322437120	48	5979
2026-01-02 18:41:18.80	358.56	15.28	-36.4	-37.6	28.7	3.02e+01	59	38	0	324009984	48	5836
2026-01-02 18:41:19.81	358.36	15.35	-36.5	-37.8	28.6	3.02e+01	61	38	0	326107136	48	5927
2026-01-02 18:41:20.82	358.16	15.42	-36.5	-37.7	28.6	3.02e+01	45	38	0	327680000	48	5912
2026-01-02 18:41:21.83	357.95	15.49	-36.5	-37.7	28.6	3.02e+01	60	38	0	329777152	48	5922
2026-01-02 18:41:22.84	357.75	15.56	-36.4	-37.6	28.7	3.02e+01	59	38	0	331874304	48	5849
2026-01-02 18:41:23.85	357.54	15.63	-36.4	-37.7	28.7	3.02e+01	43	38	0	333447168	48	5866
2026-01-02 18:41:24.86	357.34	15.70	-36.3	-37.5	28.8	3.02e+01	59	38	0	335544320	48	5774
2026-01-02 18:41:25.87	357.13	15.77	-36.3	-37.6	28.8	3.02e+01	58	39	0	337641472	48	5809
2026-01-02 18:41:26.88	356.92	15.84	-36.2	-37.5	28.9	3.02e+01	58	38	0	339214336	48	5727
2026-01-02 18:41:27.89	356.71	15.91	-36.3	-37.5	28.8	3.02e+01	58	38	0	341311488	48	5783
2026-01-02 18:41:28.90	356.50	15.98	-36.2	-37.5	28.9	3.02e+01	58	39	0	342884352	48	5740
2026-01-02 18:41:29.91	356.28	16.05	-36.4	-37.6	28.7	3.02e+01	60	39	0	344981504	48	5838
2026-01-02 18:41:30.92	356.07	16.11	-36.4	-37.6	28.8	3.02e+01	58	38	0	347078656	48	5832
2026-01-02 18:41:31.93	355.85	16.18	-36.5	-37.7	28.7	3.02e+01	38	38	0	348651520	48	5909
2026-01-02 18:41:32.94	355.64	16.25	-36.4	-37.6	28.8	3.02e+01	60	38	0	350748672	48	5833
2026-01-02 18:41:33.95	355.42	16.32	-36.6	-37.8	28.6	3.02e+01	59	38	0	352845824	48	5954
2026-01-02 18:41:34.96	355.20	16.39	-36.4	-37.6	28.8	3.02e+01	61	38	0	354418688	48	5837
2026-01-02 18:41:35.97	354.99	16.46	-36.3	-37.5	28.8	3.02e+01	62	38	0	356515840	48	5774
2026-01-02 18:41:36.98	354.77	16.53	-36.3	-37.5	28.8	3.02e+01	58	39	0	358088704	48	5781
2026-01-02 18:41:37.99	354.54	16.59	-36.4	-37.7	28.7	3.02e+01	58	38	0	360185856	48	5862
2026-01-02 18:41:39.00	354.32	16.66	-36.6	-37.8	28.6	3.02e+01	59	38	0	362283008	48	5960
2026-01-02 18:41:40.01	354.10	16.73	-36.4	-37.7	28.7	3.02e+01	45	38	0	363855872	48	5870
2026-01-02 18:41:41.02	353.87	16.80	-36.5	-37.7	28.7	3.02e+01	60	39	0	365953024	48	5896
2026-01-02 18:41:42.03	353.65	16.86	-36.6	-37.8	28.6	3.02e+01	61	38	0	367525888	48	5974
2026-01-02 18:41:43.04	353.42	16.93	-36.5	-37.7	28.7	3.02e+01	62	39	0	369623040	48	5910
2026-01-02 18:41:44.05	353.19	17.00	-36.4	-37.7	28.7	3.02e+01	60	38	0	371720192	48	5863
2026-01-02 18:41:45.06	352.97	17.06	-36.6	-37.8	28.6	3.02e+01	59	38	0	373293056	48	5971
2026-01-02 18:41:46.07	352.74	17.13	-36.6	-37.8	28.6	3.02e+01	60	38	0	375390208	48	5957
2026-01-02 18:41:47.08	352.51	17.19	-36.5	-37.7	28.6	3.02e+01	58	38	0	377487360	48	5924
2026-01-02 18:41:48.08	352.28	17.26	-36.4	-37.7	28.7	3.02e+01	45	38	0	379060224	48	5868
2026-01-02 18:41:49.09	352.04	17.32	-36.4	-37.7	28.6	3.02e+01	60	39	0	381157376	48	5871
2026-01-02 18:41:50.10	351.81	17.39	-36.5	-37.7	28.6	3.02e+01	52	39	0	382730240	48	5923
2026-01-02 18:41:51.11	351.57	17.45	-36.5	-37.7	28.7	3.02e+01	54	39	0	384827392	48	5910
2026-01-02 18:41:52.12	351.34	17.52	-36.5	-37.8	28.6	3.02e+01	61	39	0	386924544	48	5947
2026-01-02 18:41:53.13	351.10	17.58	-36.6	-37.8	28.6	3.02e+01	49	38	0	388497408	48	5977
2026-01-02 18:41:54.14	350.86	17.64	-36.5	-37.7	28.7	3.02e+01	59	39	0	390594560	48	5899
2026-01-02 18:41:55.15	350.62	17.71	-36.6	-37.9	28.6	3.02e+01	60	39	0	392167424	48	6022
2026-01-02 18:41:56.16	350.38	17.77	-36.5	-37.7	28.7	3.02e+01	59	39	0	394264576	48	5884
2026-01-02 18:41:57.17	350.14	17.83	-36.5	-37.8	28.7	3.02e+01	55	39	0	396361728	48	5929
2026-01-02 18:41:58.18	349.90	17.90	-36.6	-37.8	28.6	3.02e+01	49	39	0	397934592	48	5967
2026-01-02 18:41:59.19	349.65	17.96	-36.6	-37.8	28.6	3.02e+01	57	39	0	400031744	48	5991
2026-01-02 18:42:00.20	349.41	18.02	-36.7	-37.9	28.4	3.02e+01	59	39	0	401604608	48	6045
2026-01-02 18:42:01.21	349.16	18.08	-36.8	-38.0	28.4	3.02e+01	48	39	0	403701760	48	6134
2026-01-02 18:42:02.22	348.92	18.14	-36.8	-38.0	28.4	3.02e+01	60	39	0	405798912	48	6101
2026-01-02 18:42:03.23	348.67	18.20	-36.4	-37.6	28.7	3.02e+01	62	39	0	407371776	48	5830
2026-01-02 18:42:04.24	348.42	18.26	-36.5	-37.8	28.6	3.02e+01	57	39	0	409468928	48	5956
2026-01-02 18:42:05.25	348.17	18.32	-36.6	-37.9	28.5	3.02e+01	56	39	0	411041792	48	6018
2026-01-02 18:42:06.26	347.92	18.38	-36.7	-37.9	28.5	3.02e+01	61	39	0	413138944	48	6052
2026-01-02 18:42:07.27	347.66	18.44	-36.6	-37.9	28.5	3.02e+01	62	39	0	415236096	48	6002
2026-01-02 18:42:08.28	347.41	18.50	-36.7	-37.9	28.5	3.02e+01	60	39	0	416808960	48	6033
2026-01-02 18:42:09.29	347.16	18.56	-36.7	-38.0	28.4	3.02e+01	51	39	0	418906112	48	6084
2026-01-02 18:42:10.30	346.90	18.62	-36.7	-37.9	28.5	3.02e+01	59	39	0	421003264	48	6047
2026-01-02 18:42:11.31	346.65	18.67	-36.7	-37.9	28.6	3.02e+01	56	39	0	422576128	48	6051
2026-01-02 18:42:12.32	346.39	18.73	-36.7	-37.9	28.6	3.02e+01	58	39	0	424673280	48	6026
2026-01-02 18:42:13.33	346.13	18.79	-36.6	-37.9	28.6	3.02e+01	58	39	0	426246144	48	5999
2026-01-02 18:42:14.34	345.87	18.84	-36.7	-37.9	28.5	3.02e+01	51	39	0	428343296	48	6021
2026-01-02 18:42:15.35	345.61	18.90	-36.8	-38.0	28.5	3.02e+01	60	38	0	430440448	48	6126
2026-01-02 18:42:16.36	345.35	18.96	-36.7	-38.0	28.5	3.02e+01	60	39	0	432013312	48	6092
2026-01-02 18:42:17.37	345.08	19.01	-36.7	-38.0	28.6	3.02e+01	45	39	0	434110464	48	6075
2026-01-02 18:42:18.38	344.82	19.06	-36.7	-37.9	28.5	3.02e+01	59	39	0	435683328	48	6045
2026-01-02 18:42:19.39	344.56	19.12	-36.7	-37.9	28.5	3.02e+01	59	39	0	437780480	48	6029
2026-01-02 18:42:20.40	344.29	19.17	-36.8	-38.0	28.5	3.02e+01	60	39	0	439877632	48	6104
2026-01-02 18:42:21.41	344.02	19.22	-36.6	-37.9	28.6	3.02e+01	58	39	0	441450496	48	6027
2026-01-02 18:42:22.42	343.76	19.28	-36.8	-38.1	28.4	3.02e+01	51	39	0	443547648	48	6140
2026-01-02 18:42:23.43	343.49	19.33	-36.7	-37.9	28.5	3.02e+01	58	39	0	445644800	48	6034
2026-01-02 18:42:24.44	343.22	19.38	-36.7	-38.0	28.4	3.02e+01	58	39	0	447217664	48	6088
2026-01-02 18:42:25.45	342.95	19.43	-36.8	-38.0	28.5	3.02e+01	59	39	0	449314816	48	6110
2026-01-02 18:42:26.46	342.68	19.48	-36.9	-38.2	28.4	3.02e+01	57	39	0	450887680	48	6211
2026-01-02 18:42:27.47	342.40	19.53	-36.8	-38.0	28.5	3.02e+01	46	39	0	452984832	48	6103
2026-01-02 18:42:28.48	342.13	19.58	-36.8	-38.0	28.5	3.02e+01	62	39	0	455081984	48	6103
2026-01-02 18:42:29.49	341.86	19.63	-36.7	-38.0	28.5	3.02e+01	59	39	0	456654848	48	6083
2026-01-02 18:42:30.50	341.58	19.68	-37.0	-38.2	28.2	3.02e+01	50	39	0	458752000	48	6272
2026-01-02 18:42:31.51	341.30	19.73	-37.0	-38.2	28.3	3.02e+01	58	39	0	460324864	48	6258
2026-01-02 18:42:32.52	341.03	19.77	-37.1	-38.3	28.2	3.02e+01	62	39	0	462422016	48	6332
2026-01-02 18:42:33.53	340.75	19.82	-37.1	-38.4	28.1	3.02e+01	57	39	0	464519168	48	6365
2026-01-02 18:42:34.54	340.47	19.86	-37.1	-38.3	28.2	3.02e+01	60	39	0	466092032	48	6344
2026-01-02 18:42:35.55	340.19	19.91	-36.8	-38.1	28.5	3.02e+01	55	39	0	468189184	48	6146
2026-01-02 18:42:36.56	339.91	19.95	-36.8	-38.1	28.5	3.02e+01	57	39	0	469762048	48	6164
2026-01-02 18:42:37.57	339.63	20.00	-36.9	-38.2	28.4	3.02e+01	56	39	0	471859200	48	6222
2026-01-02 18:42:38.58	339.35	20.04	-36.9	-38.1	28.4	3.02e+01	51	39	0	473956352	48	6182
2026-01-02 18:42:39.59	339.06	20.08	-36.9	-38.2	28.4	3.02e+01	58	39	0	475529216	48	6208
2026-01-02 18:42:40.60	338.78	20.13	-36.9	-38.1	28.4	3.02e+01	59	39	0	477626368	48	6194
2026-01-02 18:42:41.61	338.49	20.17	-37.0	-38.3	28.3	3.02e+01	59	39	0	479199232	48	6284
2026-01-02 18:42:42.62	338.21	20.21	-36.9	-38.2	28.3	3.02e+01	58	39	0	481296384	48	6220
2026-01-02 18:42:43.62	337.92	20.25	-37.0	-38.2	28.3	3.02e+01	43	39	0	483393536	48	6266
2026-01-02 18:42:44.64	337.63	20.29	-36.9	-38.2	28.3	3.02e+01	58	39	0	484966400	48	6240
2026-01-02 18:42:45.65	337.35	20.33	-37.0	-38.2	28.3	3.02e+01	57	39	0	487063552	48	6255
2026-01-02 18:42:46.65	337.06	20.37	-37.0	-38.2	28.3	3.02e+01	53	39	0	489160704	48	6268
2026-01-02 18:42:47.66	336.77	20.40	-36.9	-38.2	28.4	3.02e+01	58	39	0	490733568	48	6239
2026-01-02 18:42:48.67	336.48	20.44	-37.0	-38.3	28.2	3.02e+01	59	39	0	492830720	48	6308
2026-01-02 18:42:49.68	336.19	20.48	-36.9	-38.1	28.4	3.02e+01	59	39	0	494403584	48	6204
2026-01-02 18:42:50.69	335.90	20.51	-37.0	-38.3	28.3	3.02e+01	61	39	0	496500736	48	6285
2026-01-02 18:42:51.70	335.60	20.55	-37.0	-38.3	28.3	3.02e+01	52	39	0	498597888	48	6278
2026-01-02 18:42:52.71	335.31	20.58	-36.8	-38.1	28.5	3.02e+01	61	39	0	500170752	48	6157
2026-01-02 18:42:53.72	335.02	20.62	-37.0	-38.2	28.3	3.02e+01	59	39	0	502267904	48	6273
2026-01-02 18:42:54.73	334.72	20.65	-36.9	-38.2	28.4	3.02e+01	53	39	0	503840768	48	6218
2026-01-02 18:42:55.74	334.43	20.68	-37.1	-38.3	28.3	3.02e+01	62	39	0	505937920	48	6325
2026-01-02 18:42:56.75	334.13	20.71	-37.0	-38.3	28.3	3.02e+01	61	39	0	508035072	48	6298
2026-01-02 18:42:57.76	333.84	20.74	-37.0	-38.3	28.3	3.02e+01	60	39	0	509607936	48	6311
2026-01-02 18:42:58.77	333.54	20.77	-37.0	-38.3	28.3	3.02e+01	61	39	0	511705088	48	6303
2026-01-02 18:42:59.78	333.24	20.80	-37.1	-38.3	28.3	3.02e+01	54	39	0	513802240	48	6343
2026-01-02 18:43:00.79	332.94	20.83	-36.8	-38.1	28.5	3.02e+01	58	39	0	515375104	48	6162
2026-01-02 18:43:01.80	332.64	20.86	-37.0	-38.3	28.4	3.02e+01	62	39	0	517472256	48	6278
2026-01-02 18:43:02.80	332.35	20.88	-37.1	-38.3	28.3	3.02e+01	61	39	0	519045120	48	6336
2026-01-02 18:43:03.81	332.05	20.91	-37.2	-38.5	28.2	3.02e+01	58	39	0	521142272	48	6446
2026-01-02 18:43:04.82	331.75	20.93	-37.1	-38.4	28.3	3.02e+01	44	39	0	523239424	48	6385
2026-01-02 18:43:05.83	331.44	20.96	-37.1	-38.3	28.3	3.02e+01	57	39	0	524812288	48	6339
2026-01-02 18:43:06.84	331.14	20.98	-37.0	-38.3	28.3	3.02e+01	59	39	0	526909440	48	6313
2026-01-02 18:43:07.85	330.84	21.01	-37.1	-38.4	28.3	3.02e+01	45	39	0	528482304	48	6396
2026-01-02 18:43:08.86	330.54	21.03	-37.1	-38.3	28.3	3.02e+01	59	39	0	530579456	48	6346
2026-01-02 18:43:09.87	330.23	21.05	-37.2	-38.5	28.2	3.02e+01	58	39	0	532152320	48	6444
2026-01-02 18:43:10.88	329.93	21.07	-37.1	-38.3	28.4	3.02e+01	50	39	0	534249472	48	6322
2026-01-02 18:43:11.89	329.63	21.09	-37.1	-38.4	28.3	3.02e+01	62	39	0	536346624	48	6363
2026-01-02 18:43:12.90	329.32	21.11	-37.3	-38.5	28.2	3.02e+01	47	39	0	537919488	48	6495
2026-01-02 18:43:13.91	329.02	21.13	-37.4	-38.6	28.0	3.02e+01	60	39	0	540016640	48	6560
2026-01-02 18:43:14.91	328.72	21.14	-37.2	-38.4	28.2	3.02e+01	58	39	0	542113792	48	6396
2026-01-02 18:43:15.92	328.41	21.16	-36.9	-38.2	28.4	3.02e+01	45	39	0	543686656	48	6223
2026-01-02 18:43:16.93	328.10	21.18	-37.0	-38.3	28.4	3.02e+01	59	39	0	545783808	48	6310
2026-01-02 18:43:17.94	327.80	21.19	-37.1	-38.4	28.2	3.02e+01	60	39	0	547356672	48	6371
2026-01-02 18:43:18.95	327.49	21.20	-37.2	-38.5	28.2	3.02e+01	57	39	0	549453824	48	6450
2026-01-02 18:43:19.96	327.19	21.22	-37.3	-38.6	28.1	3.02e+01	59	39	0	551550976	48	6514
2026-01-02 18:43:20.97	326.88	21.23	-37.2	-38.4	28.2	3.02e+01	59	39	0	553123840	48	6402
2026-01-02 18:43:21.98	326.57	21.24	-37.0	-38.3	28.3	3.02e+01	61	39	0	555220992	48	6318
2026-01-02 18:43:22.99	326.26	21.25	-37.1	-38.4	28.3	3.02e+01	63	39	0	556793856	48	6390
2026-01-02 18:43:24.00	325.96	21.26	-37.3	-38.5	28.1	3.02e+01	53	39	0	558891008	48	6489
2026-01-02 18:43:25.01	325.65	21.27	-37.2	-38.4	28.2	3.02e+01	59	39	0	560988160	48	6399
2026-01-02 18:43:26.02	325.34	21.28	-37.3	-38.6	28.1	3.02e+01	59	39	0	562561024	48	6535
2026-01-02 18:43:27.03	325.03	21.29	-37.3	-38.5	28.1	3.02e+01	58	39	0	564658176	48	6485
2026-01-02 18:43:28.04	324.72	21.29	-37.1	-38.4	28.2	3.02e+01	56	39	0	566755328	48	6392
2026-01-02 18:43:29.05	324.41	21.30	-37.2	-38.5	28.3	3.02e+01	46	39	0	568328192	48	6432
2026-01-02 18:43:30.05	324.11	21.30	-37.2	-38.4	28.3	3.02e+01	60	39	0	570425344	48	6408
2026-01-02 18:43:31.07	323.80	21.31	-37.3	-38.6	28.1	3.02e+01	57	39	0	571998208	48	6533
2026-01-02 18:43:32.08	323.49	21.31	-37.3	-38.6	28.2	3.02e+01	56	39	0	574095360	48	6503
2026-01-02 18:43:33.09	323.18	21.31	-37.3	-38.6	28.1	3.02e+01	58	39	0	576192512	48	6555
2026-01-02 18:43:34.09	322.87	21.32	-37.2	-38.5	28.2	3.02e+01	58	39	0	577765376	48	6438
2026-01-02 18:43:35.10	322.56	21.32	-37.1	-38.4	28.3	3.02e+01	57	39	0	579862528	48	6367
2026-01-02 18:43:36.11	322.25	21.32	-37.3	-38.5	28.2	3.02e+01	58	39	0	581435392	48	6485
2026-01-02 18:43:37.12	321.95	21.31	-37.2	-38.4	28.3	3.02e+01	58	39	0	583532544	48	6409
2026-01-02 18:43:38.13	321.64	21.31	-37.2	-38.4	28.3	3.02e+01	59	39	0	585629696	48	6399
2026-01-02 18:43:39.14	321.33	21.31	-37.3	-38.6	28.1	3.02e+01	59	39	0	587202560	48	6508
2026-01-02 18:43:40.15	321.02	21.31	-37.0	-38.3	28.3	3.02e+01	57	39	0	589299712	48	6307
2026-01-02 18:43:41.16	320.71	21.30	-37.2	-38.5	28.2	3.02e+01	59	39	0	590872576	48	6463
2026-01-02 18:43:42.17	320.40	21.30	-37.8	-39.2	27.7	3.02e+01	50	39	0	592969728	48	6967
2026-01-02 18:43:43.18	320.09	21.29	-37.6	-38.9	27.8	3.02e+01	58	39	0	595066880	48	6776
2026-01-02 18:43:44.19	319.78	21.28	-37.7	-38.9	27.9	3.02e+01	60	39	0	596639744	48	6799
2026-01-02 18:43:45.21	319.47	21.28	-37.4	-38.7	28.1	3.02e+01	45	39	0	598736896	48	6614
2026-01-02 18:43:46.22	319.16	21.27	-37.5	-38.8	27.9	3.02e+01	59	39	0	600309760	48	6683
2026-01-02 18:43:47.23	318.86	21.26	-37.5	-38.8	28.0	3.02e+01	60	39	0	602406912	50	5969
2026-01-02 18:43:48.24	318.55	21.25	-37.7	-39.0	27.8	3.02e+01	58	39	0	604504064	50	6108
2026-01-02 18:43:49.25	318.24	21.24	-37.1	-38.3	28.4	3.02e+01	52	39	0	606076928	50	5637
2026-01-02 18:43:50.26	317.93	21.22	-37.2	-38.5	28.2	3.02e+01	58	39	0	608174080	50	5763
2026-01-02 18:43:51.27	317.63	21.21	-37.8	-39.1	27.6	3.02e+01	58	39	0	610271232	50	6202
2026-01-02 18:43:52.28	317.32	21.20	-37.7	-39.0	27.9	3.02e+01	62	39	0	611844096	50	6114
2026-01-02 18:43:53.29	317.01	21.18	-37.5	-38.8	28.1	3.02e+01	50	39	0	613941248	50	5970
2026-01-02 18:43:54.30	316.71	21.17	-37.8	-39.2	27.7	3.02e+01	58	39	0	615514112	50	6224
2026-01-02 18:43:55.31	316.40	21.15	-37.2	-38.5	28.2	3.02e+01	62	39	0	617611264	50	5742
2026-01-02 18:43:56.32	316.10	21.13	-37.0	-38.3	28.4	3.02e+01	59	39	0	619708416	50	5614
2026-01-02 18:43:57.32	315.79	21.12	-37.4	-38.7	28.0	3.02e+01	61	39	0	621281280	50	5904
2026-01-02 18:43:58.33	315.49	21.10	-37.4	-38.7	28.0	3.02e+01	57	39	0	623378432	50	5878
2026-01-02 18:43:59.34	315.19	21.08	-37.3	-38.6	28.2	3.02e+01	62	39	0	624951296	50	5824
2026-01-02 18:44:00.35	314.88	21.06	-37.2	-38.5	28.3	3.02e+01	60	39	0	627048448	50	5745
2026-01-02 18:44:01.36	314.58	21.04	-37.1	-38.4	28.4	3.02e+01	46	39	0	629145600	50	5666
2026-01-02 18:44:02.37	314.27	21.02	-37.7	-39.0	27.8	3.02e+01	56	39	0	630718464	50	6132
2026-01-02 18:44:03.38	313.97	20.99	-37.6	-38.9	27.8	3.02e+01	60	39	0	632815616	50	6027
2026-01-02 18:44:04.39	313.67	20.97	-37.0	-38.2	28.5	3.02e+01	58	39	0	634912768	50	5571
2026-01-02 18:44:05.40	313.37	20.95	-37.6	-38.9	27.8	3.02e+01	55	39	0	636485632	48	6789
2026-01-02 18:44:06.41	313.07	20.92	-37.2	-38.5	28.3	3.02e+01	50	39	0	638582784	48	6458
2026-01-02 18:44:07.42	312.77	20.90	-37.6	-38.9	27.9	3.02e+01	57	39	0	640155648	48	6751
2026-01-02 18:44:08.43	312.47	20.87	-37.2	-38.5	28.2	3.02e+01	52	39	0	642252800	48	6433
2026-01-02 18:44:09.44	312.17	20.84	-37.6	-38.8	28.0	3.02e+01	62	39	0	644349952	48	6725
2026-01-02 18:44:10.45	311.87	20.81	-37.2	-38.4	28.1	3.02e+01	57	39	0	645922816	48	6398
2026-01-02 18:44:11.46	311.57	20.78	-36.9	-38.1	28.5	3.02e+01	55	39	0	648019968	48	6184
2026-01-02 18:44:12.47	311.27	20.76	-38.4	-39.8	27.0	3.02e+01	59	39	0	649592832	50	6668
2026-01-02 18:44:13.48	310.97	20.73	-36.7	-37.9	28.4	3.02e+01	58	39	0	651689984	48	6005
2026-01-02 18:44:14.49	310.68	20.69	-37.9	-39.2	27.5	3.02e+01	49	39	0	653787136	50	6220
2026-01-02 18:44:15.50	310.38	20.66	-37.8	-39.1	27.5	3.02e+01	60	39	0	655360000	48	6922
2026-01-02 18:44:16.51	310.09	20.63	-37.6	-38.9	27.8	3.02e+01	61	39	0	657457152	50	6050
2026-01-02 18:44:17.52	309.79	20.60	-37.5	-38.8	27.6	3.02e+01	61	39	0	659030016	50	5983
2026-01-02 18:44:18.52	309.50	20.56	-36.8	-38.0	28.4	3.02e+01	63	39	0	661127168	50	5459
2026-01-02 18:44:19.53	309.21	20.53	-38.3	-39.8	27.1	3.02e+01	53	39	0	663224320	50	6661
2026-01-02 18:44:20.54	308.91	20.49	-36.2	-37.4	29.0	3.02e+01	65	39	0	664797184	48	5685
2026-01-02 18:44:21.55	308.62	20.46	-38.2	-39.6	26.8	3.02e+01	59	39	0	666894336	50	6536
2026-01-02 18:44:22.56	308.33	20.42	-37.5	-38.8	27.9	3.02e+01	49	39	0	668467200	50	5954
2026-01-02 18:44:23.57	308.04	20.38	-38.1	-39.5	27.3	3.02e+01	63	39	0	670564352	50	6425
2026-01-02 18:44:24.58	307.75	20.35	-37.4	-38.6	28.0	3.02e+01	59	39	0	672661504	50	5849
2026-01-02 18:44:25.59	307.46	20.31	-38.6	-40.0	26.5	3.02e+01	59	39	0	674234368	52	6123
2026-01-02 18:44:26.60	307.17	20.27	-37.3	-38.6	27.6	3.02e+01	57	39	0	676331520	48	6503
2026-01-02 18:44:27.61	306.89	20.23	-37.5	-38.8	27.5	3.02e+01	58	39	0	678428672	50	5959
2026-01-02 18:44:28.62	306.60	20.19	-38.3	-39.6	27.0	3.02e+01	58	39	0	680001536	48	7360
2026-01-02 18:44:29.63	306.31	20.15	-37.2	-38.4	28.4	3.02e+01	60	39	0	682098688	50	5720
2026-01-02 18:44:30.63	306.03	20.10	-37.5	-38.7	28.0	3.02e+01	41	39	0	683671552	50	5923
2026-01-02 18:44:31.64	305.75	20.06	-37.4	-38.7	28.1	3.02e+01	57	39	0	685768704	50	5908
2026-01-02 18:44:32.65	305.46	20.02	-37.4	-38.7	27.9	3.02e+01	56	39	0	687865856	50	5925
2026-01-02 18:44:33.67	305.18	19.97	-37.2	-38.5	28.2	3.02e+01	55	39	0	689438720	50	5740
2026-01-02 18:44:34.68	304.90	19.93	-38.0	-39.3	27.5	3.02e+01	58	39	0	691535872	48	7102
2026-01-02 18:44:35.69	304.62	19.88	-37.7	-38.9	27.8	3.02e+01	52	39	0	693108736	50	6058
2026-01-02 18:44:36.69	304.34	19.84	-38.0	-39.4	27.4	3.02e+01	60	39	0	695205888	50	6377
2026-01-02 18:44:37.70	304.06	19.79	-37.9	-39.3	27.5	3.02e+01	57	39	0	697303040	50	6311
2026-01-02 18:44:38.71	303.78	19.75	-37.2	-38.4	28.2	3.02e+01	44	39	0	698875904	50	5702
2026-01-02 18:44:39.72	303.51	19.70	-38.0	-39.4	27.3	3.02e+01	63	39	0	700973056	50	6402
2026-01-02 18:44:40.73	303.23	19.65	-37.5	-38.8	28.0	3.02e+01	58	39	0	703070208	50	5931
2026-01-02 18:44:41.74	302.95	19.60	-38.1	-39.5	27.2	3.02e+01	62	39	0	704643072	50	6472
2026-01-02 18:44:42.75	302.68	19.55	-38.2	-39.6	27.3	3.02e+01	60	39	0	706740224	50	6506
2026-01-02 18:44:43.76	302.41	19.50	-38.7	-40.1	26.9	3.02e+01	51	39	0	708313088	50	6943
2026-01-02 18:44:44.77	302.13	19.45	-38.1	-39.4	27.6	3.02e+01	58	39	0	710410240	50	6387
2026-01-02 18:44:45.78	301.86	19.40	-37.7	-39.0	27.7	3.02e+01	60	39	0	712507392	50	6124
2026-01-02 18:44:46.79	301.59	19.35	-37.5	-38.8	27.9	3.02e+01	59	39	0	714080256	50	5936
2026-01-02 18:44:47.79	301.32	19.30	-37.3	-38.5	28.2	3.02e+01	53	39	0	716177408	50	5770
2026-01-02 18:44:48.80	301.06	19.25	-37.3	-38.6	28.0	3.02e+01	59	39	0	717750272	50	5808
2026-01-02 18:44:49.81	300.79	19.19	-37.5	-38.8	28.1	3.02e+01	55	39	0	719847424	50	5932
2026-01-02 18:44:50.82	300.52	19.14	-37.9	-39.2	27.6	3.02e+01	58	39	0	721944576	50	6268
2026-01-02 18:44:51.83	300.26	19.09	-37.0	-38.2	28.5	3.02e+01	49	39	0	723517440	50	5581
2026-01-02 18:44:52.84	299.99	19.03	-38.1	-39.4	27.4	3.02e+01	51	39	0	725614592	50	6402
2026-01-02 18:44:53.85	299.73	18.98	-36.9	-38.1	28.5	3.02e+01	58	39	0	727187456	48	6159
2026-01-02 18:44:54.86	299.46	18.92	-37.7	-39.1	27.6	3.02e+01	57	39	0	729284608	48	6909
2026-01-02 18:44:55.87	299.20	18.87	-36.6	-37.8	28.6	3.02e+01	57	39	0	731381760	48	5993
2026-01-02 18:44:56.88	298.94	18.81	-37.3	-38.6	28.0	3.02e+01	45	39	0	732954624	48	6549
2026-01-02 18:44:57.89	298.68	18.75	-37.0	-38.2	28.5	3.02e+01	60	39	0	735051776	48	6220
2026-01-02 18:44:58.90	298.42	18.70	-37.6	-38.9	27.9	3.02e+01	58	39	0	736624640	48	6766
2026-01-02 18:44:59.90	298.17	18.64	-37.3	-38.5	28.1	3.02e+01	45	39	0	738721792	48	6491
2026-01-02 18:45:00.91	297.91	18.58	-37.5	-38.8	27.9	3.02e+01	61	39	0	740818944	48	6716
2026-01-02 18:45:01.92	297.66	18.52	-37.0	-38.2	28.4	3.02e+01	60	39	0	742391808	48	6260
2026-01-02 18:45:02.93	297.40	18.47	-37.3	-38.5	27.9	3.02e+01	58	39	0	744488960	48	6498
2026-01-02 18:45:03.94	297.15	18.41	-37.9	-39.2	27.5	3.02e+01	58	39	0	746586112	50	6266
2026-01-02 18:45:04.95	296.90	18.35	-36.7	-37.9	28.5	3.02e+01	57	39	0	748158976	48	6024
2026-01-02 18:45:05.96	296.64	18.29	-38.0	-39.4	27.3	3.02e+01	56	39	0	750256128	50	6403
2026-01-02 18:45:06.97	296.39	18.23	-36.6	-37.8	28.7	3.02e+01	62	39	0	751828992	48	5928
2026-01-02 18:45:07.98	296.15	18.17	-37.6	-39.0	27.7	3.02e+01	47	39	0	753926144	48	6838
2026-01-02 18:45:08.99	295.90	18.11	-36.8	-38.0	28.6	3.02e+01	60	39	0	756023296	48	6092
2026-01-02 18:45:10.00	295.65	18.04	-37.1	-38.3	28.0	3.02e+01	59	39	0	757596160	48	6309
2026-01-02 18:45:11.01	295.40	17.98	-37.5	-38.8	27.6	3.02e+01	57	39	0	759693312	48	6695
2026-01-02 18:45:12.02	295.16	17.92	-36.6	-37.7	28.6	3.02e+01	61	39	0	761266176	48	5921
2026-01-02 18:45:13.03	294.91	17.86	-37.7	-39.0	27.6	3.02e+01	47	39	0	763363328	48	6843
2026-01-02 18:45:14.04	294.67	17.80	-37.0	-38.2	28.4	3.02e+01	60	39	0	765460480	48	6236
2026-01-02 18:45:15.05	294.43	17.73	-37.5	-38.8	27.9	3.02e+01	64	39	0	767033344	48	6682
2026-01-02 18:45:16.05	294.19	17.67	-37.1	-38.3	28.3	3.02e+01	45	39	0	769130496	48	6319
2026-01-02 18:45:17.07	293.95	17.61	-37.2	-38.4	28.2	3.02e+01	61	39	0	770703360	48	6415
2026-01-02 18:45:18.07	293.71	17.54	-37.6	-38.9	27.8	3.02e+01	50	39	0	772800512	48	6763
2026-01-02 18:45:19.08	293.48	17.48	-36.7	-37.8	28.7	3.02e+01	59	39	0	774897664	48	5992
2026-01-02 18:45:20.09	293.24	17.41	-37.4	-38.7	27.9	3.02e+01	59	39	0	776470528	48	6616
2026-01-02 18:45:21.10	293.00	17.35	-37.1	-38.4	28.0	3.02e+01	57	39	0	778567680	48	6368
2026-01-02 18:45:22.11	292.77	17.28	-37.1	-38.3	28.4	3.02e+01	58	39	0	780140544	48	6311
2026-01-02 18:45:23.12	292.54	17.22	-37.3	-38.6	28.2	3.02e+01	59	39	0	782237696	48	6532
2026-01-02 18:45:24.13	292.31	17.15	-37.3	-38.6	28.0	3.02e+01	59	39	0	784334848	48	6501
2026-01-02 18:45:25.14	292.07	17.09	-36.9	-38.1	28.6	3.02e+01	60	39	0	785907712	48	6158
2026-01-02 18:45:26.15	291.84	17.02	-37.1	-38.4	28.3	3.02e+01	52	39	0	788004864	48	6371
2026-01-02 18:45:27.16	291.62	16.95	-37.1	-38.3	28.4	3.02e+01	57	39	0	789577728	48	6322
2026-01-02 18:45:28.17	291.39	16.89	-37.1	-38.3	28.3	3.02e+01	60	39	0	791674880	48	6328
2026-01-02 18:45:29.18	291.16	16.82	-37.1	-38.4	28.2	3.02e+01	45	39	0	793772032	48	6384
2026-01-02 18:45:30.19	290.94	16.75	-37.0	-38.2	28.4	3.02e+01	58	39	0	795344896	48	6251
2026-01-02 18:45:31.20	290.71	16.68	-36.8	-38.0	28.6	3.02e+01	59	39	0	797442048	48	6115
2026-01-02 18:45:32.21	290.49	16.62	-37.1	-38.4	28.2	3.02e+01	57	39	0	799539200	48	6376
2026-01-02 18:45:33.22	290.27	16.55	-37.0	-38.2	28.4	3.02e+01	58	39	0	801112064	48	6242
2026-01-02 18:45:34.23	290.04	16.48	-37.0	-38.3	28.4	3.02e+01	49	39	0	803209216	48	6288
2026-01-02 18:45:35.24	289.82	16.41	-37.0	-38.2	28.4	3.02e+01	59	39	0	804782080	48	6264
2026-01-02 18:45:36.24	289.61	16.34	-37.1	-38.3	28.3	3.02e+01	57	39	0	806879232	48	6313
2026-01-02 18:45:37.25	289.39	16.28	-37.2	-38.5	28.1	3.02e+01	46	39	0	808976384	48	6468
2026-01-02 18:45:38.26	289.17	16.21	-37.2	-38.5	28.1	3.02e+01	58	39	0	810549248	48	6455
2026-01-02 18:45:39.27	288.96	16.14	-37.0	-38.2	28.4	3.02e+01	57	39	0	812646400	48	6254
2026-01-02 18:45:40.28	288.74	16.07	-37.0	-38.2	28.4	3.02e+01	56	39	0	814743552	48	6257
2026-01-02 18:45:41.29	288.53	16.00	-37.0	-38.2	28.3	3.02e+01	60	39	0	816316416	48	6259
2026-01-02 18:45:42.30	288.31	15.93	-37.0	-38.2	28.3	3.02e+01	53	39	0	818413568	48	6273
2026-01-02 18:45:43.31	288.10	15.86	-36.9	-38.1	28.5	3.02e+01	59	39	0	819986432	48	6192
2026-01-02 18:45:44.32	287.89	15.79	-37.1	-38.3	28.3	3.02e+01	55	39	0	822083584	48	6321
2026-01-02 18:45:45.33	287.68	15.72	-37.2	-38.5	28.2	3.02e+01	45	39	0	824180736	48	6424
2026-01-02 18:45:46.34	287.47	15.65	-37.2	-38.5	28.2	3.02e+01	58	39	0	825753600	48	6427
2026-01-02 18:45:47.35	287.27	15.58	-37.2	-38.5	28.1	3.02e+01	61	39	0	827850752	48	6440
2026-01-02 18:45:48.36	287.06	15.51	-37.0	-38.3	28.3	3.02e+01	61	39	0	829423616	48	6296
2026-01-02 18:45:49.37	286.85	15.44	-37.2	-38.5	28.1	3.02e+01	59	39	0	831520768	48	6431
2026-01-02 18:45:50.38	286.65	15.37	-37.0	-38.2	28.3	3.02e+01	47	39	0	833617920	48	6253
2026-01-02 18:45:51.39	286.45	15.30	-37.2	-38.4	28.1	3.02e+01	57	39	0	835190784	48	6418
2026-01-02 18:45:52.39	286.25	15.23	-37.3	-38.5	28.0	3.02e+01	61	39	0	837287936	48	6486
2026-01-02 18:45:53.40	286.05	15.16	-37.2	-38.5	28.1	3.02e+01	38	39	0	838860800	48	6429
2026-01-02 18:45:54.41	285.84	15.09	-37.2	-38.5	28.1	3.02e+01	60	39	0	840957952	48	6433
2026-01-02 18:45:55.42	285.65	15.01	-37.0	-38.3	28.2	3.02e+01	60	39	0	843055104	48	6319
2026-01-02 18:45:56.43	285.45	14.94	-37.0	-38.3	28.1	3.02e+01	60	39	0	844627968	48	6306
2026-01-02 18:45:57.44	285.25	14.87	-36.9	-38.2	28.3	3.02e+01	58	39	0	846725120	48	6237
2026-01-02 18:45:58.45	285.05	14.80	-37.2	-38.4	28.1	3.02e+01	57	39	0	848297984	48	6412
2026-01-02 18:45:59.46	284.86	14.73	-37.2	-38.5	28.0	3.02e+01	60	39	0	850395136	48	6444
2026-01-02 18:46:00.47	284.67	14.66	-37.2	-38.5	28.0	3.02e+01	60	39	0	852492288	48	6447
2026-01-02 18:46:01.48	284.47	14.58	-37.1	-38.4	28.1	3.02e+01	62	39	0	854065152	48	6383
2026-01-02 18:46:02.49	284.28	14.51	-36.9	-38.2	28.3	3.02e+01	57	39	0	856162304	48	6214
2026-01-02 18:46:03.50	284.09	14.44	-37.3	-38.6	28.0	3.02e+01	45	39	0	857735168	48	6543
2026-01-02 18:46:04.51	283.90	14.37	-37.5	-38.8	27.9	3.02e+01	59	39	0	859832320	48	6659
2026-01-02 18:46:05.52	283.71	14.30	-37.3	-38.6	27.9	3.02e+01	60	39	0	861929472	48	6515
2026-01-02 18:46:06.53	283.52	14.22	-37.1	-38.4	28.1	3.02e+01	48	39	0	863502336	48	6357
2026-01-02 18:46:07.53	283.34	14.15	-37.0	-38.2	28.2	3.02e+01	58	39	0	865599488	48	6243
2026-01-02 18:46:08.54	283.15	14.08	-37.1	-38.4	28.2	3.02e+01	57	38	0	867696640	48	6358
2026-01-02 18:46:09.55	282.96	14.01	-37.2	-38.5	28.0	3.02e+01	60	39	0	869269504	48	6478
2026-01-02 18:46:10.56	282.78	13.94	-37.2	-38.5	28.0	3.02e+01	63	39	0	871366656	48	6442
2026-01-02 18:46:11.57	282.60	13.86	-37.3	-38.5	27.9	3.02e+01	56	39	0	872939520	48	6485
2026-01-02 18:46:12.58	282.42	13.79	-37.0	-38.3	28.2	3.02e+01	52	39	0	875036672	48	6304
2026-01-02 18:46:13.59	282.23	13.72	-37.0	-38.2	28.2	3.02e+01	60	39	0	877133824	48	6248
2026-01-02 18:46:14.60	282.05	13.65	-37.2	-38.4	28.1	3.02e+01	52	39	0	878706688	48	6414
2026-01-02 18:46:15.61	281.87	13.57	-37.3	-38.6	27.9	3.02e+01	58	39	0	880803840	48	6532
2026-01-02 18:46:16.62	281.70	13.50	-37.4	-38.7	27.8	3.02e+01	58	39	0	882900992	48	6597
2026-01-02 18:46:17.63	281.52	13.43	-37.4	-38.7	27.8	3.02e+01	57	38	0	884473856	48	6577
2026-01-02 18:46:18.64	281.34	13.36	-37.4	-38.7	27.8	3.02e+01	58	39	0	886571008	48	6577
2026-01-02 18:46:19.65	281.17	13.28	-37.2	-38.4	28.0	3.02e+01	44	39	0	888143872	48	6419
2026-01-02 18:46:20.66	280.99	13.21	-37.3	-38.6	27.8	3.02e+01	60	39	0	890241024	48	6519
2026-01-02 18:46:21.67	280.82	13.14	-37.3	-38.6	27.9	3.02e+01	58	39	0	892338176	48	6499
2026-01-02 18:46:22.68	280.64	13.07	-37.3	-38.6	27.8	3.02e+01	46	39	0	893911040	48	6551
2026-01-02 18:46:23.69	280.47	12.99	-37.5	-38.8	27.8	3.02e+01	58	39	0	896008192	48	6671
2026-01-02 18:46:24.70	280.30	12.92	-37.5	-38.8	27.7	3.02e+01	59	39	0	897581056	48	6660
2026-01-02 18:46:25.71	280.13	12.85	-37.3	-38.6	27.8	3.02e+01	57	39	0	899678208	48	6504
2026-01-02 18:46:26.72	279.96	12.78	-37.4	-38.7	27.7	3.02e+01	59	39	0	901251072	48	6643
2026-01-02 18:46:27.73	279.79	12.70	-37.3	-38.6	27.8	3.02e+01	49	39	0	903348224	48	6526
2026-01-02 18:46:28.73	279.63	12.63	-37.3	-38.6	27.8	3.02e+01	58	39	0	905445376	48	6528
2026-01-02 18:46:29.74	279.46	12.56	-37.5	-38.8	27.6	3.02e+01	63	39	0	907018240	48	6710
2026-01-02 18:46:30.75	279.30	12.49	-37.4	-38.7	27.7	3.02e+01	46	39	0	909115392	48	6600
2026-01-02 18:46:31.76	279.13	12.41	-37.4	-38.7	27.7	3.02e+01	58	39	0	911212544	48	6589
2026-01-02 18:46:32.77	278.97	12.34	-37.4	-38.7	27.7	3.02e+01	61	39	0	912785408	48	6614
2026-01-02 18:46:33.78	278.81	12.27	-37.4	-38.7	27.7	3.02e+01	56	39	0	914882560	48	6612
2026-01-02 18:46:34.79	278.64	12.20	-37.4	-38.7	27.7	3.02e+01	57	39	0	916455424	48	6645
2026-01-02 18:46:35.80	278.48	12.12	-37.2	-38.5	27.9	3.02e+01	56	39	0	918552576	48	6426
2026-01-02 18:46:36.81	278.32	12.05	-37.2	-38.5	27.8	3.02e+01	56	39	0	920649728	48	6474
2026-01-02 18:46:37.82	278.16	11.98	-37.4	-38.7	27.7	3.02e+01	59	39	0	922222592	48	6609
2026-01-02 18:46:38.83	278.00	11.91	-37.5	-38.8	27.6	3.02e+01	57	39	0	924319744	48	6724
2026-01-02 18:46:39.84	277.85	11.83	-37.6	-39.0	27.5	3.02e+01	58	39	0	925892608	48	6815
2026-01-02 18:46:40.85	277.69	11.76	-37.8	-39.1	27.4	3.02e+01	44	39	0	927989760	48	6933
2026-01-02 18:46:41.86	277.53	11.69	-37.5	-38.8	27.5	3.02e+01	59	39	0	930086912	48	6698
2026-01-02 18:46:42.86	277.38	11.62	-37.6	-38.9	27.6	3.02e+01	60	39	0	931659776	48	6737
2026-01-02 18:46:43.87	277.22	11.55	-37.5	-38.8	27.6	3.02e+01	46	39	0	933756928	48	6651
2026-01-02 18:46:44.88	277.07	11.47	-37.5	-38.8	27.6	3.02e+01	58	39	0	935854080	48	6698
2026-01-02 18:46:45.90	276.92	11.40	-37.6	-38.8	27.5	3.02e+01	60	39	0	937426944	48	6726
2026-01-02 18:46:46.90	276.77	11.33	-37.6	-39.0	27.4	3.02e+01	58	39	0	939524096	48	6814
2026-01-02 18:46:47.91	276.61	11.26	-37.8	-39.1	27.2	3.02e+01	62	39	0	941096960	48	6929
2026-01-02 18:46:48.92	276.46	11.19	-37.8	-39.1	27.3	3.02e+01	58	39	0	943194112	48	6915
2026-01-02 18:46:49.93	276.31	11.11	-37.6	-38.9	27.5	3.02e+01	59	39	0	945291264	48	6772
2026-01-02 18:46:50.94	276.17	11.04	-37.6	-38.9	27.4	3.02e+01	58	39	0	946864128	48	6788
2026-01-02 18:46:51.95	276.02	10.97	-37.6	-38.9	27.5	3.02e+01	48	39	0	948961280	48	6783
2026-01-02 18:46:52.96	275.87	10.90	-37.6	-38.9	27.4	3.02e+01	60	39	0	950534144	48	6803
2026-01-02 18:46:53.97	275.72	10.83	-37.6	-38.9	27.5	3.02e+01	54	39	0	952631296	48	6765
2026-01-02 18:46:54.97	275.58	10.76	-37.8	-39.1	27.3	3.02e+01	59	39	0	954728448	48	6908
2026-01-02 18:46:55.98	275.44	10.68	-37.9	-39.2	27.1	3.02e+01	62	38	0	956301312	48	7030
2026-01-02 18:46:56.99	275.29	10.61	-37.7	-39.0	27.3	3.02e+01	58	38	0	958398464	48	6869
2026-01-02 18:46:58.00	275.15	10.54	-37.7	-39.1	27.3	3.02e+01	59	38	0	959971328	48	6897
2026-01-02 18:46:59.01	275.01	10.47	-37.6	-38.9	27.4	3.02e+01	61	39	0	962068480	48	6777
2026-01-02 18:47:00.02	274.86	10.40	-37.7	-39.0	27.3	3.02e+01	45	38	0	964165632	48	6856
2026-01-02 18:47:01.03	274.72	10.33	-37.7	-39.0	27.3	3.02e+01	58	38	0	965738496	48	6879
2026-01-02 18:47:02.04	274.58	10.26	-37.7	-39.0	27.4	3.02e+01	58	38	0	967835648	48	6810
2026-01-02 18:47:03.05	274.44	10.19	-37.8	-39.1	27.3	3.02e+01	59	38	0	969408512	48	6910
2026-01-02 18:47:04.06	274.30	10.12	-37.8	-39.1	27.2	3.02e+01	59	38	0	971505664	48	6953
2026-01-02 18:47:05.07	274.17	10.04	-37.8	-39.2	27.2	3.02e+01	57	38	0	973602816	48	6984
2026-01-02 18:47:06.08	274.03	9.97	-37.9	-39.2	27.0	3.02e+01	60	38	0	975175680	50	6269
2026-01-02 18:47:07.09	273.89	9.90	-37.9	-39.2	27.1	3.02e+01	56	38	0	977272832	50	6251
2026-01-02 18:47:08.10	273.76	9.83	-38.0	-39.3	27.0	3.02e+01	58	38	0	979369984	50	6348
2026-01-02 18:47:09.11	273.62	9.76	-37.8	-39.1	27.1	3.02e+01	61	39	0	980942848	50	6195
2026-01-02 18:47:10.12	273.49	9.69	-37.9	-39.2	27.1	3.02e+01	51	38	0	983040000	50	6269
2026-01-02 18:47:11.13	273.35	9.62	-37.9	-39.2	27.1	3.02e+01	57	39	0	984612864	50	6277
2026-01-02 18:47:12.14	273.22	9.55	-37.9	-39.3	27.0	3.02e+01	59	39	0	986710016	50	6296
2026-01-02 18:47:13.15	273.09	9.48	-38.0	-39.4	26.9	3.02e+01	46	39	0	988807168	50	6367
2026-01-02 18:47:14.16	272.96	9.41	-38.1	-39.4	26.8	3.02e+01	61	39	0	990380032	50	6399
2026-01-02 18:47:15.17	272.83	9.34	-38.1	-39.4	26.8	3.02e+01	57	38	0	992477184	50	6401
2026-01-02 18:47:16.18	272.70	9.27	-38.1	-39.4	26.9	3.02e+01	60	39	0	994050048	50	6406
2026-01-02 18:47:17.18	272.57	9.20	-38.1	-39.5	26.8	3.02e+01	60	38	0	996147200	50	6438
2026-01-02 18:47:18.19	272.44	9.13	-37.9	-39.3	27.0	3.02e+01	48	38	0	998244352	50	6279
2026-01-02 18:47:19.20	272.31	9.06	-37.9	-39.3	27.0	3.02e+01	55	38	0	999817216	50	6282
2026-01-02 18:47:20.21	272.18	8.99	-38.0	-39.4	26.8	3.02e+01	58	38	0	1001914368	50	6370
2026-01-02 18:47:21.22	272.06	8.92	-38.0	-39.3	26.9	3.02e+01	47	38	0	1003487232	50	6327
2026-01-02 18:47:22.23	271.93	8.85	-38.0	-39.4	26.9	3.02e+01	57	39	0	1005584384	50	6368
2026-01-02 18:47:23.24	271.80	8.78	-38.2	-39.5	26.8	3.02e+01	61	38	0	1007681536	50	6475
2026-01-02 18:47:24.25	271.68	8.71	-38.2	-39.6	26.7	3.02e+01	58	39	0	1009254400	50	6520
2026-01-02 18:47:25.26	271.56	8.64	-38.3	-39.7	26.6	3.02e+01	59	39	0	1011351552	50	6597
2026-01-02 18:47:26.27	271.43	8.57	-38.3	-39.7	26.6	3.02e+01	58	39	0	1012924416	50	6579
2026-01-02 18:47:27.28	271.31	8.51	-38.3	-39.7	26.5	3.02e+01	60	39	0	1015021568	50	6576
2026-01-02 18:47:28.29	271.19	8.44	-38.4	-39.8	26.4	3.02e+01	61	39	0	1017118720	50	6669
2026-01-02 18:47:29.29	271.07	8.37	-38.2	-39.6	26.6	3.02e+01	47	38	0	1018691584	50	6527
2026-01-02 18:47:30.30	270.95	8.30	-38.3	-39.6	26.6	3.02e+01	62	38	0	1020788736	50	6544
2026-01-02 18:47:31.31	270.83	8.23	-38.2	-39.6	26.5	3.02e+01	59	38	0	1022361600	50	6503
2026-01-02 18:47:32.32	270.71	8.16	-38.1	-39.4	26.7	3.02e+01	58	38	0	1024458752	50	6410
2026-01-02 18:47:33.33	270.59	8.09	-38.2	-39.5	26.7	3.02e+01	59	38	0	1026555904	50	6475
2026-01-02 18:47:34.34	270.47	8.03	-38.3	-39.7	26.5	3.02e+01	50	39	0	1028128768	50	6617
2026-01-02 18:47:35.35	270.35	7.96	-38.3	-39.7	26.5	3.02e+01	62	39	0	1030225920	50	6636
2026-01-02 18:47:36.36	270.23	7.89	-38.4	-39.8	26.4	3.02e+01	60	39	0	1032323072	50	6680
2026-01-02 18:47:37.37	270.12	7.82	-38.5	-39.9	26.3	3.02e+01	45	39	0	1033895936	50	6771
2026-01-02 18:47:38.38	270.00	7.75	-38.5	-39.9	26.3	3.02e+01	59	38	0	1035993088	50	6752
2026-01-02 18:47:39.39	269.89	7.69	-38.4	-39.8	26.4	3.02e+01	60	39	0	1037565952	50	6709
2026-01-02 18:47:40.40	269.77	7.62	-38.6	-40.0	26.1	3.02e+01	59	38	0	1039663104	50	6865
2026-01-02 18:47:41.41	269.66	7.55	-38.5	-39.9	26.3	3.02e+01	59	39	0	1041760256	50	6739
2026-01-02 18:47:42.42	269.54	7.48	-38.5	-39.9	26.2	3.02e+01	49	38	0	1043333120	50	6782
2026-01-02 18:47:43.43	269.43	7.41	-38.5	-39.9	26.2	3.02e+01	57	38	0	1045430272	50	6749
2026-01-02 18:47:44.44	269.32	7.35	-38.4	-39.8	26.3	3.02e+01	60	38	0	1047527424	50	6653
2026-01-02 18:47:45.45	269.21	7.28	-38.5	-40.0	26.2	3.02e+01	60	38	0	1049100288	50	6811
2026-01-02 18:47:46.46	269.09	7.21	-38.6	-40.1	26.0	3.02e+01	58	38	0	1051197440	50	6899
2026-01-02 18:47:47.47	268.98	7.15	-38.4	-39.8	26.3	3.02e+01	62	39	0	1052770304	50	6702
2026-01-02 18:47:48.48	268.87	7.08	-38.6	-40.0	26.1	3.02e+01	60	38	0	1054867456	50	6830
2026-01-02 18:47:49.49	268.76	7.01	-38.5	-39.9	26.2	3.02e+01	57	38	0	1056964608	50	6757
2026-01-02 18:47:50.50	268.65	6.94	-38.5	-39.9	26.1	3.02e+01	51	38	0	1058537472	50	6788
2026-01-02 18:47:51.50	268.55	6.88	-38.7	-40.1	26.0	3.02e+01	57	39	0	1060634624	50	6929
2026-01-02 18:47:52.51	268.44	6.81	-39.1	-40.5	25.7	3.02e+01	62	38	0	1062207488	52	6479
2026-01-02 18:47:53.52	268.33	6.75	-39.0	-40.4	25.7	3.02e+01	60	38	0	1064304640	52	6418
2026-01-02 18:47:54.53	268.22	6.68	-38.7	-40.2	25.9	3.02e+01	62	38	0	1066401792	52	6218
2026-01-02 18:47:55.54	268.12	6.61	-38.8	-40.2	25.9	3.02e+01	45	39	0	1067974656	52	6256
2026-01-02 18:47:56.55	268.01	6.55	-38.9	-40.4	25.7	3.02e+01	55	38	0	1070071808	52	6351
2026-01-02 18:47:57.56	267.91	6.48	-38.7	-40.2	25.8	3.02e+01	59	38	0	1071644672	52	6218
2026-01-02 18:47:58.57	267.80	6.41	-38.9	-40.4	25.6	3.02e+01	52	39	0	1073741824	52	6396
2026-01-02 18:47:59.58	267.70	6.35	-38.9	-40.3	25.7	3.02e+01	58	39	0	1075838976	52	6325
2026-01-02 18:48:00.59	267.60	6.28	-38.7	-40.1	25.9	3.02e+01	61	38	0	1077411840	52	6195
2026-01-02 18:48:01.60	267.49	6.22	-38.8	-40.3	25.7	3.02e+01	57	39	0	1079508992	52	6307
2026-01-02 18:48:02.60	267.39	6.15	-38.9	-40.3	25.7	3.02e+01	57	38	0	1081081856	52	6318
2026-01-02 18:48:03.61	267.29	6.09	-38.7	-40.1	25.7	3.02e+01	52	39	0	1083179008	52	6200
2026-01-02 18:48:04.62	267.19	6.02	-39.0	-40.4	25.6	3.02e+01	57	39	0	1085276160	52	6410
2026-01-02 18:48:05.63	267.09	5.96	-39.0	-40.5	25.5	3.02e+01	61	38	0	1086849024	52	6475
2026-01-02 18:48:06.64	266.98	5.89	-39.1	-40.6	25.4	3.02e+01	50	39	0	1088946176	52	6524
2026-01-02 18:48:07.65	266.88	5.83	-39.3	-40.8	25.2	3.02e+01	58	39	0	1090519040	52	6686
2026-01-02 18:48:08.65	266.79	5.76	-39.2	-40.7	25.3	3.02e+01	59	39	0	1092616192	52	6605
2026-01-02 18:48:09.66	266.69	5.70	-39.2	-40.7	25.3	3.02e+01	58	39	0	1094713344	52	6628
2026-01-02 18:48:10.68	266.59	5.63	-39.4	-40.9	25.1	3.02e+01	52	39	0	1096286208	52	6783
2026-01-02 18:48:11.69	266.49	5.57	-39.4	-41.0	25.0	3.02e+01	48	39	0	1098383360	52	6806
2026-01-02 18:48:12.70	266.39	5.50	-39.2	-40.7	25.2	3.02e+01	57	39	0	1100480512	52	6626
2026-01-02 18:48:13.70	266.30	5.44	-39.3	-40.8	25.1	3.02e+01	55	39	0	1102053376	52	6676
2026-01-02 18:48:14.71	266.20	5.37	-39.2	-40.7	25.2	3.02e+01	45	38	0	1104150528	52	6608
2026-01-02 18:48:15.72	266.10	5.31	-39.0	-40.5	25.3	3.02e+01	58	39	0	1105723392	52	6424
2026-01-02 18:48:16.73	266.01	5.25	-39.0	-40.5	25.4	3.02e+01	56	39	0	1107820544	52	6446
2026-01-02 18:48:17.74	265.91	5.18	-39.1	-40.6	25.2	3.02e+01	58	39	0	1109917696	52	6559
2026-01-02 18:48:18.75	265.82	5.12	-39.1	-40.7	25.2	3.02e+01	59	38	0	1111490560	52	6578
2026-01-02 18:48:19.75	265.72	5.05	-39.4	-41.0	25.0	3.02e+01	54	39	0	1113587712	52	6812
2026-01-02 18:48:20.76	265.63	4.99	-39.5	-41.1	24.8	3.02e+01	61	39	0	1115160576	52	6934
2026-01-02 18:48:21.77	265.54	4.93	-39.8	-41.4	24.5	3.02e+01	60	39	0	1117257728	52	7192
2026-01-02 18:48:22.78	265.44	4.86	-39.8	-41.4	24.5	3.02e+01	59	39	0	1119354880	54	6365
2026-01-02 18:48:23.79	265.35	4.80	-39.8	-41.4	24.7	3.02e+01	59	39	0	1120927744	54	6377
2026-01-02 18:48:24.80	265.26	4.74	-39.2	-40.8	24.9	3.02e+01	45	39	0	1123024896	54	5932
2026-01-02 18:48:25.81	265.17	4.67	-39.5	-41.1	24.7	3.02e+01	59	39	0	1124597760	54	6156
2026-01-02 18:48:26.83	265.08	4.61	-39.3	-40.9	24.8	3.02e+01	61	38	0	1126694912	54	6002
2026-01-02 18:48:27.83	264.99	4.55	-39.4	-41.0	24.7	3.02e+01	50	39	0	1128792064	54	6100
2026-01-02 18:48:28.84	264.90	4.48	-39.3	-40.9	24.8	3.02e+01	58	39	0	1130364928	54	6008
2026-01-02 18:48:29.85	264.81	4.42	-39.6	-41.1	24.7	3.02e+01	59	39	0	1132462080	54	6191
2026-01-02 18:48:30.86	264.72	4.36	-39.8	-41.4	24.4	3.02e+01	59	39	0	1134034944	54	6419
2026-01-02 18:48:31.87	264.63	4.30	-39.7	-41.3	24.2	3.02e+01	58	38	0	1136132096	54	6307
2026-01-02 18:48:32.88	264.54	4.23	-39.8	-41.5	24.5	3.02e+01	53	39	0	1138229248	54	6464
2026-01-02 18:48:33.89	264.45	4.17	-40.1	-41.7	24.3	3.02e+01	59	39	0	1139802112	54	6640
2026-01-02 18:48:34.90	264.36	4.11	-39.7	-41.3	24.0	3.02e+01	57	38	0	1141899264	54	6345
2026-01-02 18:48:35.91	264.28	4.05	-39.7	-41.3	24.3	3.02e+01	38	39	0	1143996416	54	6336
2026-01-02 18:48:36.92	264.19	3.98	-39.9	-41.6	24.2	3.02e+01	60	39	0	1145569280	54	6501
2026-01-02 18:48:37.93	264.10	3.92	-39.8	-41.4	24.1	3.02e+01	56	39	0	1147666432	54	6411
2026-01-02 18:48:38.94	264.02	3.86	-39.7	-41.4	24.2	3.02e+01	59	39	0	1149239296	54	6374
2026-01-02 18:48:39.95	263.93	3.80	-39.8	-41.5	24.1	3.02e+01	56	39	0	1151336448	54	6466
2026-01-02 18:48:40.96	263.85	3.74	-39.6	-41.3	24.2	3.02e+01	58	39	0	1153433600	54	6284
2026-01-02 18:48:41.97	263.76	3.68	-39.5	-41.1	24.4	3.02e+01	60	39	0	1155006464	54	6202
2026-01-02 18:48:42.98	263.68	3.61	-39.8	-41.4	24.2	3.02e+01	60	39	0	1157103616	54	6385
2026-01-02 18:48:43.99	263.59	3.55	-39.5	-41.1	24.4	3.02e+01	47	39	0	1158676480	54	6156
2026-01-02 18:48:45.00	263.51	3.49	-39.7	-41.3	24.2	3.02e+01	61	39	0	1160773632	54	6316
2026-01-02 18:48:46.01	263.43	3.43	-39.5	-41.1	24.4	3.02e+01	64	39	0	1162870784	54	6183
2026-01-02 18:48:47.01	263.34	3.37	-39.9	-41.6	23.9	3.02e+01	60	39	0	1164443648	54	6527
2026-01-02 18:48:48.02	263.26	3.31	-39.7	-41.3	24.0	3.02e+01	60	39	0	1166540800	54	6344
2026-01-02 18:48:49.03	263.18	3.25	-39.6	-41.3	24.0	3.02e+01	55	38	0	1168637952	54	6298
2026-01-02 18:48:50.04	263.10	3.19	-40.0	-41.7	23.9	3.02e+01	57	39	0	1170210816	54	6587
2026-01-02 18:48:51.05	263.02	3.13	-40.1	-41.8	23.7	3.02e+01	58	39	0	1172307968	54	6704
2026-01-02 18:48:52.06	262.94	3.07	-40.0	-41.7	23.8	3.02e+01	45	39	0	1173880832	54	6616
2026-01-02 18:48:53.07	262.86	3.01	-40.6	-42.4	23.2	3.02e+01	57	39	0	1175977984	54	7188
2026-01-02 18:48:54.08	262.78	2.94	-48.1	-64.9	3.6	3.02e+01	0	39	104	1176502272	60	67887
2026-01-02 18:48:55.09	262.70	2.88	-49.4	-67.1	3.5	3.02e+01	0	39	104	1176502272	60	87586
2026-01-02 18:48:56.10	262.62	2.82	-49.7	-67.4	3.5	3.02e+01	0	39	104	1176502272	60	90062
2026-01-02 18:48:57.11	262.54	2.76	-49.8	-67.5	3.5	3.02e+01	0	39	104	1176502272	60	91717
2026-01-02 18:48:58.12	262.46	2.70	-49.8	-67.7	3.5	3.02e+01	0	39	104	1176502272	60	92930
2026-01-02 18:48:59.13	262.38	2.64	-49.9	-67.7	3.5	3.02e+01	0	39	104	1176502272	60	93368
