passes_logs/2026/01/02/R4.6S_Anadyr/R4.6S_Anadyr__20260102_180940_FENGYUN_3D_rec.log

#Pass ID: 20260102_180940_FENGYUN 3D
#Satellite: FENGYUN 3D
#Configuration: FENGYUN 3D
#almurnet v.1.7.20251203
#Start time: 2026-01-02 18:09:42

#Version: 2.2.20231116
#Station: R4.6S_Anadyr
#Location: 177.4865 lon 64.73178 lat
#TLE: 1 43010U 17072A   26001.96529979  .00000409  00000+0  21503-3 0  9996
#TLE: 2 43010  98.9910 333.5811 0001886 133.0441 227.0893 14.19692048421405

#Time	Az	El	Level	Level2	SNR	BER	BlckErr	Temp	State	Recorded	gain1	gain2
2026-01-02 18:09:42.38	25.19	0.11	-49.4	-64.4	3.5	1.51e+00	0	36	0	0	60	59738
2026-01-02 18:09:43.38	25.16	0.16	-49.4	-61.6	3.6	8.45e-01	0	37	104	0	60	43292
2026-01-02 18:09:44.40	25.13	0.22	-49.3	-61.6	3.6	8.46e-01	0	37	104	0	60	43308
2026-01-02 18:09:45.40	25.10	0.28	-49.4	-61.6	3.6	8.46e-01	0	37	104	0	60	43238
2026-01-02 18:09:46.41	25.07	0.34	-49.4	-61.5	3.6	8.45e-01	0	37	104	0	60	43120
2026-01-02 18:09:47.42	25.03	0.40	-49.5	-61.6	3.5	8.45e-01	0	37	104	0	60	43313
2026-01-02 18:09:48.43	25.00	0.46	-49.5	-61.7	3.6	8.44e-01	0	37	104	0	60	43767
2026-01-02 18:09:49.44	24.97	0.52	-49.4	-61.6	3.6	8.44e-01	0	37	104	0	60	43254
2026-01-02 18:09:50.45	24.93	0.58	-49.4	-61.5	3.6	8.45e-01	0	37	104	0	60	42832
2026-01-02 18:09:51.46	24.90	0.64	-49.3	-61.4	3.6	8.44e-01	0	38	104	0	60	42657
2026-01-02 18:09:52.47	24.87	0.70	-49.2	-61.4	3.6	8.46e-01	0	37	104	0	60	42445
2026-01-02 18:09:53.48	24.84	0.76	-49.1	-61.3	3.6	8.45e-01	0	38	104	0	60	41824
2026-01-02 18:09:54.49	24.80	0.82	-48.9	-61.0	3.6	8.47e-01	0	38	104	0	60	40542
2026-01-02 18:09:55.50	24.77	0.88	-48.7	-60.8	3.6	8.45e-01	0	38	104	0	60	39704
2026-01-02 18:09:56.51	24.73	0.94	-48.5	-60.6	3.6	8.44e-01	0	38	104	0	60	38702
2026-01-02 18:09:57.52	24.70	1.00	-48.3	-60.4	3.6	8.45e-01	0	38	104	0	60	37886
2026-01-02 18:09:58.53	24.67	1.06	-47.9	-59.8	3.6	8.45e-01	0	38	104	0	60	35300
2026-01-02 18:09:59.55	24.63	1.12	-47.7	-59.7	3.6	8.45e-01	0	38	104	0	60	35057
2026-01-02 18:10:00.56	24.60	1.18	-47.7	-59.7	3.6	8.45e-01	0	38	104	0	60	34915
2026-01-02 18:10:01.57	24.56	1.24	-47.7	-59.8	3.6	8.44e-01	0	38	104	0	60	35313
2026-01-02 18:10:02.58	24.53	1.30	-47.7	-59.8	3.5	8.45e-01	0	38	104	0	60	35349
2026-01-02 18:10:03.59	24.49	1.36	-47.7	-59.8	3.6	8.45e-01	0	38	104	0	60	35175
2026-01-02 18:10:04.60	24.46	1.42	-47.7	-59.8	3.6	8.44e-01	0	38	104	0	60	35143
2026-01-02 18:10:05.61	24.42	1.48	-47.7	-59.7	3.6	8.46e-01	0	38	104	0	60	34799
2026-01-02 18:10:06.62	24.39	1.54	-47.7	-59.7	3.6	8.46e-01	0	38	104	0	60	34938
2026-01-02 18:10:07.63	24.35	1.60	-47.7	-59.7	3.6	8.45e-01	0	38	104	0	60	34861
2026-01-02 18:10:08.64	24.32	1.67	-47.7	-59.7	3.6	8.44e-01	0	38	104	0	60	34970
2026-01-02 18:10:09.65	24.28	1.73	-47.7	-59.7	3.6	8.45e-01	0	38	104	0	60	35078
2026-01-02 18:10:10.66	24.24	1.79	-47.7	-59.8	3.6	8.44e-01	0	38	104	0	60	35297
2026-01-02 18:10:11.67	24.21	1.85	-47.7	-59.7	3.6	8.45e-01	0	38	104	0	60	35083
2026-01-02 18:10:12.68	24.17	1.91	-47.7	-59.7	3.6	8.45e-01	0	38	104	0	60	34820
2026-01-02 18:10:13.69	24.14	1.97	-47.7	-59.5	3.5	8.44e-01	0	38	104	0	60	34154
2026-01-02 18:10:14.70	24.10	2.04	-47.7	-59.4	3.6	8.44e-01	0	38	104	0	60	33912
2026-01-02 18:10:15.71	24.06	2.10	-47.7	-59.4	3.6	8.45e-01	0	38	104	0	60	33754
2026-01-02 18:10:16.72	24.02	2.16	-47.7	-59.6	3.6	8.46e-01	0	38	104	0	60	34405
2026-01-02 18:10:17.73	23.99	2.22	-47.7	-59.7	3.6	8.46e-01	0	38	104	0	60	34785
2026-01-02 18:10:18.74	23.95	2.29	-47.7	-59.7	3.6	8.45e-01	0	38	104	0	60	35091
2026-01-02 18:10:19.75	23.91	2.35	-47.7	-59.8	3.6	8.45e-01	0	38	104	0	60	35364
2026-01-02 18:10:20.76	23.87	2.41	-47.7	-59.8	3.6	8.46e-01	0	38	104	0	60	35183
2026-01-02 18:10:21.77	23.84	2.48	-47.7	-59.7	3.6	8.45e-01	0	38	104	0	60	34891
2026-01-02 18:10:22.78	23.80	2.54	-47.7	-59.5	3.5	8.44e-01	0	38	104	0	60	34284
2026-01-02 18:10:23.79	23.76	2.60	-47.7	-59.5	3.6	8.46e-01	0	38	104	0	60	34100
2026-01-02 18:10:24.80	23.72	2.66	-47.7	-59.4	3.6	8.46e-01	0	38	104	0	60	33738
2026-01-02 18:10:25.81	23.68	2.73	-47.7	-59.3	3.6	8.46e-01	0	38	104	0	60	33278
2026-01-02 18:10:26.82	23.64	2.79	-47.6	-58.8	3.6	8.45e-01	0	38	104	0	60	31614
2026-01-02 18:10:27.82	23.61	2.86	-47.6	-58.8	3.6	8.44e-01	0	38	104	0	60	31638
2026-01-02 18:10:28.83	23.57	2.92	-47.6	-58.7	3.6	8.44e-01	0	38	104	0	60	31254
2026-01-02 18:10:29.84	23.53	2.98	-47.6	-58.8	3.6	8.44e-01	0	38	104	0	60	31510
2026-01-02 18:10:30.85	23.49	3.05	-47.7	-59.4	3.6	8.45e-01	0	38	104	0	60	33662
2026-01-02 18:10:31.86	23.45	3.11	-47.7	-59.8	3.6	8.45e-01	0	38	104	0	60	35446
2026-01-02 18:10:32.87	23.41	3.18	-47.6	-59.1	3.6	8.46e-01	0	38	104	0	60	32515
2026-01-02 18:10:33.88	23.37	3.24	-47.4	-56.5	4.0	8.43e-01	0	38	104	0	60	24191
2026-01-02 18:10:34.89	23.33	3.31	-46.8	-52.2	5.6	7.81e-01	0	38	0	0	60	14739
2026-01-02 18:10:35.90	23.29	3.37	-46.0	-50.1	7.9	1.32e-01	0	38	0	5242880	60	11566
2026-01-02 18:10:36.91	23.25	3.44	-45.0	-48.2	10.2	2.18e-02	0	38	0	11534336	60	9259
2026-01-02 18:10:37.92	23.21	3.50	-44.6	-47.4	11.0	3.59e-03	0	38	0	16777216	60	8518
2026-01-02 18:10:38.93	23.16	3.57	-43.9	-46.3	12.3	4.73e-04	0	38	0	22020096	60	7446
2026-01-02 18:10:39.94	23.12	3.63	-43.6	-45.8	13.2	1.70e-04	0	38	0	28311552	60	7039
2026-01-02 18:10:40.95	23.08	3.70	-47.8	-60.0	3.6	7.04e-01	0	38	104	31457280	60	36136
2026-01-02 18:10:41.96	23.04	3.76	-47.7	-58.8	3.6	8.46e-01	0	38	104	31457280	60	31615
2026-01-02 18:10:42.96	23.00	3.83	-46.9	-54.1	4.6	6.42e-01	0	38	104	31457280	60	18297
2026-01-02 18:10:43.97	22.96	3.89	-37.2	-38.1	20.8	0.00e+00	0	38	0	33554432	48	5791
2026-01-02 18:10:44.98	22.91	3.96	-47.6	-59.5	3.6	8.45e-01	0	38	104	36700160	60	33963
2026-01-02 18:10:45.99	22.87	4.03	-37.2	-38.1	19.4	7.98e-01	0	38	104	36700160	48	5766
2026-01-02 18:10:47.00	22.83	4.09	-37.0	-37.9	21.0	0.00e+00	0	38	0	38797312	48	5664
2026-01-02 18:10:48.01	22.78	4.16	-37.0	-37.9	21.0	0.00e+00	0	38	0	44040192	48	5680
2026-01-02 18:10:49.02	22.74	4.23	-36.8	-37.7	21.2	0.00e+00	0	38	0	50331648	46	6202
2026-01-02 18:10:50.03	22.70	4.29	-36.9	-37.7	21.2	0.00e+00	0	38	0	55574528	46	6216
2026-01-02 18:10:51.04	22.65	4.36	-36.9	-37.7	21.2	0.00e+00	0	38	0	61865984	46	6245
2026-01-02 18:10:52.05	22.61	4.43	-37.0	-37.9	21.2	0.00e+00	0	38	0	67108864	46	6328
2026-01-02 18:10:53.06	22.57	4.49	-36.5	-37.4	21.6	0.00e+00	0	38	0	73400320	46	5976
2026-01-02 18:10:54.07	22.52	4.56	-36.6	-37.4	21.6	0.00e+00	0	38	0	78643200	46	6017
2026-01-02 18:10:55.08	22.48	4.63	-36.7	-37.5	21.5	0.00e+00	0	38	0	83886080	46	6061
2026-01-02 18:10:56.09	22.43	4.70	-36.5	-37.4	21.7	0.00e+00	0	38	0	90177536	46	5972
2026-01-02 18:10:57.10	22.39	4.76	-36.8	-37.6	21.6	0.00e+00	0	38	0	95420416	46	6123
2026-01-02 18:10:58.11	22.34	4.83	-36.8	-37.6	21.5	0.00e+00	0	38	0	101711872	46	6172
2026-01-02 18:10:59.12	22.30	4.90	-36.7	-37.5	21.6	0.00e+00	0	38	0	106954752	46	6047
2026-01-02 18:11:00.13	22.25	4.97	-36.4	-37.2	21.8	0.00e+00	0	38	0	112197632	46	5888
2026-01-02 18:11:01.14	22.20	5.04	-36.5	-37.4	21.8	0.00e+00	0	38	0	118489088	46	5977
2026-01-02 18:11:02.15	22.16	5.11	-36.6	-37.5	21.7	0.00e+00	0	38	0	123731968	46	6040
2026-01-02 18:11:03.16	22.11	5.18	-36.7	-37.5	21.7	0.00e+00	0	38	0	130023424	46	6068
2026-01-02 18:11:04.17	22.07	5.24	-36.5	-37.3	21.8	0.00e+00	0	38	0	135266304	46	5964
2026-01-02 18:11:05.18	22.02	5.31	-36.7	-37.6	21.5	0.00e+00	0	38	0	140509184	46	6124
2026-01-02 18:11:06.18	21.97	5.38	-36.3	-37.1	22.0	0.00e+00	0	39	0	146800640	46	5809
2026-01-02 18:11:07.19	21.92	5.45	-36.2	-37.1	22.1	0.00e+00	0	38	0	152043520	46	5764
2026-01-02 18:11:08.20	21.88	5.52	-36.3	-37.2	22.0	0.00e+00	0	38	0	158334976	46	5839
2026-01-02 18:11:09.21	21.83	5.59	-36.4	-37.2	21.8	0.00e+00	0	38	0	163577856	46	5880
2026-01-02 18:11:10.22	21.78	5.66	-36.3	-37.1	22.0	0.00e+00	0	38	0	169869312	46	5820
2026-01-02 18:11:11.23	21.73	5.73	-36.7	-37.5	21.6	0.00e+00	0	38	0	175112192	46	6075
2026-01-02 18:11:12.24	21.68	5.80	-36.4	-37.2	21.9	0.00e+00	0	38	0	181403648	46	5849
2026-01-02 18:11:13.25	21.63	5.87	-36.6	-37.4	21.7	0.00e+00	0	38	0	186646528	46	6017
2026-01-02 18:11:14.26	21.59	5.94	-36.7	-37.5	21.7	0.00e+00	0	39	0	191889408	46	6077
2026-01-02 18:11:15.27	21.54	6.01	-36.8	-37.7	21.4	0.00e+00	0	38	0	198180864	46	6206
2026-01-02 18:11:16.28	21.49	6.08	-36.5	-37.3	21.8	0.00e+00	0	38	0	203423744	46	5955
2026-01-02 18:11:17.29	21.44	6.16	-36.8	-37.6	21.6	0.00e+00	0	39	0	209715200	46	6142
2026-01-02 18:11:18.30	21.39	6.23	-36.9	-37.7	21.4	0.00e+00	0	38	0	214958080	46	6207
2026-01-02 18:11:19.31	21.34	6.30	-36.2	-37.0	22.3	0.00e+00	0	38	0	220200960	46	5729
2026-01-02 18:11:20.32	21.29	6.37	-36.0	-36.8	22.4	0.00e+00	0	39	0	226492416	46	5614
2026-01-02 18:11:21.33	21.23	6.44	-36.1	-36.9	22.3	0.00e+00	0	39	0	231735296	46	5633
2026-01-02 18:11:22.34	21.18	6.51	-36.1	-36.9	22.4	0.00e+00	0	38	0	238026752	46	5673
2026-01-02 18:11:23.35	21.13	6.59	-36.1	-36.9	22.3	0.00e+00	0	39	0	243269632	46	5679
2026-01-02 18:11:24.36	21.08	6.66	-36.2	-37.0	22.3	0.00e+00	0	38	0	248512512	46	5717
2026-01-02 18:11:25.37	21.03	6.73	-36.2	-37.0	22.4	0.00e+00	0	39	0	254803968	46	5713
2026-01-02 18:11:26.38	20.97	6.80	-36.1	-36.9	22.3	0.00e+00	0	39	0	260046848	46	5647
2026-01-02 18:11:27.39	20.92	6.88	-36.0	-36.8	22.5	0.00e+00	0	39	0	266338304	46	5570
2026-01-02 18:11:28.40	20.87	6.95	-35.8	-36.6	22.6	0.00e+00	0	38	0	271581184	46	5465
2026-01-02 18:11:29.41	20.82	7.02	-35.9	-36.7	22.5	0.00e+00	0	39	0	277872640	46	5522
2026-01-02 18:11:30.42	20.76	7.10	-35.9	-36.7	22.5	0.00e+00	0	38	0	283115520	46	5535
2026-01-02 18:11:31.43	20.71	7.17	-36.1	-36.9	22.4	0.00e+00	0	39	0	288358400	46	5643
2026-01-02 18:11:32.44	20.65	7.24	-36.0	-36.8	22.4	0.00e+00	0	39	0	294649856	46	5595
2026-01-02 18:11:33.45	20.60	7.32	-36.0	-36.8	22.4	0.00e+00	0	39	0	299892736	46	5622
2026-01-02 18:11:34.46	20.55	7.39	-35.8	-36.6	22.6	0.00e+00	0	39	0	306184192	46	5456
2026-01-02 18:11:35.47	20.49	7.47	-35.9	-36.6	22.6	0.00e+00	0	39	0	311427072	46	5489
2026-01-02 18:11:36.48	20.43	7.54	-35.8	-36.6	22.7	0.00e+00	0	38	0	316669952	44	6148
2026-01-02 18:11:37.49	20.38	7.62	-35.9	-36.7	22.6	0.00e+00	0	39	0	322961408	44	6193
2026-01-02 18:11:38.50	20.32	7.69	-35.8	-36.6	22.6	0.00e+00	0	39	0	328204288	44	6116
2026-01-02 18:11:39.51	20.27	7.77	-35.9	-36.7	22.6	0.00e+00	0	39	0	334495744	44	6188
2026-01-02 18:11:40.52	20.21	7.84	-35.8	-36.6	22.7	0.00e+00	0	39	0	339738624	44	6117
2026-01-02 18:11:41.53	20.15	7.92	-36.0	-36.8	22.5	0.00e+00	0	39	0	344981504	44	6256
2026-01-02 18:11:42.54	20.10	7.99	-35.7	-36.5	22.8	0.00e+00	0	39	0	351272960	44	6046
2026-01-02 18:11:43.55	20.04	8.07	-35.8	-36.6	22.7	0.00e+00	0	39	0	356515840	44	6150
2026-01-02 18:11:44.55	19.98	8.14	-35.9	-36.6	22.7	0.00e+00	0	39	0	362807296	44	6168
2026-01-02 18:11:45.57	19.92	8.22	-35.7	-36.5	22.8	0.00e+00	0	39	0	368050176	44	6055
2026-01-02 18:11:46.57	19.87	8.30	-35.8	-36.6	22.7	0.00e+00	0	39	0	374341632	44	6136
2026-01-02 18:11:47.59	19.81	8.38	-35.8	-36.6	22.8	0.00e+00	0	39	0	379584512	44	6138
2026-01-02 18:11:48.60	19.75	8.45	-35.7	-36.5	22.9	0.00e+00	0	39	0	385875968	44	6059
2026-01-02 18:11:49.61	19.69	8.53	-35.7	-36.4	23.0	0.00e+00	0	39	0	391118848	44	6023
2026-01-02 18:11:50.62	19.63	8.61	-35.5	-36.2	23.1	0.00e+00	0	39	0	396361728	44	5879
2026-01-02 18:11:51.63	19.57	8.68	-35.5	-36.3	23.2	0.00e+00	0	39	0	402653184	44	5920
2026-01-02 18:11:52.64	19.51	8.76	-35.6	-36.4	23.0	0.00e+00	0	39	0	407896064	44	5997
2026-01-02 18:11:53.64	19.45	8.84	-35.4	-36.2	23.2	0.00e+00	0	39	0	414187520	44	5845
2026-01-02 18:11:54.65	19.39	8.92	-35.4	-36.1	23.3	0.00e+00	0	39	0	419430400	44	5803
2026-01-02 18:11:55.67	19.32	9.00	-35.4	-36.1	23.2	0.00e+00	0	39	0	424673280	44	5818
2026-01-02 18:11:56.68	19.26	9.08	-35.3	-36.0	23.3	0.00e+00	0	39	0	430964736	44	5750
2026-01-02 18:11:57.68	19.20	9.15	-35.4	-36.2	23.2	0.00e+00	0	39	0	436207616	44	5872
2026-01-02 18:11:58.69	19.14	9.23	-35.5	-36.2	23.2	0.00e+00	0	39	0	441450496	44	5891
2026-01-02 18:11:59.70	19.07	9.31	-35.4	-36.1	23.3	0.00e+00	0	39	0	447741952	44	5801
2026-01-02 18:12:00.71	19.01	9.39	-35.3	-36.1	23.3	0.00e+00	0	39	0	452984832	44	5783
2026-01-02 18:12:01.72	18.95	9.47	-35.3	-36.1	23.4	0.00e+00	0	39	0	459276288	44	5783
2026-01-02 18:12:02.73	18.88	9.55	-35.2	-35.9	23.5	0.00e+00	0	39	0	464519168	44	5677
2026-01-02 18:12:03.74	18.82	9.63	-35.3	-36.0	23.5	0.00e+00	0	39	0	470810624	44	5742
2026-01-02 18:12:04.75	18.75	9.71	-35.3	-36.1	23.3	0.00e+00	0	39	0	476053504	44	5765
2026-01-02 18:12:05.76	18.69	9.79	-35.4	-36.2	23.3	0.00e+00	0	39	0	482344960	44	5843
2026-01-02 18:12:06.77	18.62	9.87	-35.2	-36.0	23.5	0.00e+00	0	39	0	487587840	44	5703
2026-01-02 18:12:07.78	18.56	9.95	-35.4	-36.2	23.2	0.00e+00	0	39	0	492830720	44	5853
2026-01-02 18:12:08.79	18.49	10.04	-35.4	-36.1	23.3	0.00e+00	0	39	0	499122176	44	5822
2026-01-02 18:12:09.80	18.42	10.12	-35.2	-36.0	23.5	0.00e+00	0	39	0	504365056	44	5719
2026-01-02 18:12:10.81	18.36	10.20	-35.2	-35.9	23.6	0.00e+00	0	39	0	510656512	44	5693
2026-01-02 18:12:11.82	18.29	10.28	-35.2	-36.0	23.5	0.00e+00	0	39	0	515899392	44	5730
2026-01-02 18:12:12.83	18.22	10.36	-35.0	-35.7	23.8	0.00e+00	0	39	0	521142272	44	5547
2026-01-02 18:12:13.84	18.15	10.45	-35.0	-35.7	23.8	0.00e+00	0	39	0	527433728	44	5535
2026-01-02 18:12:14.85	18.08	10.53	-35.1	-35.8	23.7	0.00e+00	0	39	0	532676608	44	5615
2026-01-02 18:12:15.86	18.01	10.61	-35.0	-35.7	23.9	0.00e+00	0	39	0	538968064	44	5542
2026-01-02 18:12:16.87	17.94	10.69	-34.9	-35.7	23.9	0.00e+00	0	39	0	544210944	44	5512
2026-01-02 18:12:17.88	17.87	10.78	-35.1	-35.8	23.7	0.00e+00	0	39	0	549453824	44	5606
2026-01-02 18:12:18.89	17.80	10.86	-35.0	-35.8	23.8	0.00e+00	0	39	0	555745280	44	5582
2026-01-02 18:12:19.90	17.73	10.95	-35.0	-35.7	23.8	0.00e+00	0	39	0	560988160	44	5554
2026-01-02 18:12:20.91	17.66	11.03	-34.9	-35.6	23.9	0.00e+00	0	39	0	567279616	44	5476
2026-01-02 18:12:21.92	17.59	11.11	-34.7	-35.5	24.0	0.00e+00	0	39	0	572522496	44	5385
2026-01-02 18:12:22.93	17.52	11.20	-34.7	-35.4	24.1	0.00e+00	0	39	0	578813952	42	6018
2026-01-02 18:12:23.94	17.45	11.28	-34.8	-35.5	24.1	0.00e+00	0	39	0	584056832	42	6087
2026-01-02 18:12:24.95	17.37	11.37	-34.7	-35.4	24.2	0.00e+00	0	39	0	590348288	42	6000
2026-01-02 18:12:25.97	17.30	11.45	-34.5	-35.2	24.4	0.00e+00	0	39	0	595591168	42	5876
2026-01-02 18:12:26.98	17.22	11.54	-34.6	-35.3	24.3	0.00e+00	0	39	0	600834048	42	5945
2026-01-02 18:12:27.98	17.15	11.63	-34.6	-35.3	24.3	0.00e+00	0	39	0	607125504	42	5923
2026-01-02 18:12:28.99	17.08	11.71	-34.5	-35.2	24.4	0.00e+00	0	39	0	612368384	42	5881
2026-01-02 18:12:30.00	17.00	11.80	-34.5	-35.2	24.4	0.00e+00	0	39	0	618659840	42	5879
2026-01-02 18:12:31.01	16.92	11.88	-34.4	-35.2	24.4	0.00e+00	0	39	0	623902720	42	5855
2026-01-02 18:12:32.02	16.85	11.97	-34.4	-35.1	24.4	0.00e+00	0	39	0	629145600	42	5813
2026-01-02 18:12:33.03	16.77	12.06	-34.5	-35.1	24.4	0.00e+00	0	39	0	635437056	42	5821
2026-01-02 18:12:34.04	16.69	12.15	-34.4	-35.1	24.5	0.00e+00	0	39	0	640679936	42	5808
2026-01-02 18:12:35.05	16.62	12.23	-34.3	-35.0	24.5	0.00e+00	0	39	0	646971392	42	5757
2026-01-02 18:12:36.06	16.54	12.32	-34.3	-35.0	24.6	0.00e+00	0	39	0	652214272	42	5740
2026-01-02 18:12:37.07	16.46	12.41	-34.4	-35.1	24.6	0.00e+00	0	39	0	657457152	42	5780
2026-01-02 18:12:38.08	16.38	12.50	-34.5	-35.2	24.5	0.00e+00	0	39	0	663748608	42	5848
2026-01-02 18:12:39.09	16.30	12.59	-34.4	-35.1	24.4	0.00e+00	0	39	0	668991488	42	5802
2026-01-02 18:12:40.10	16.22	12.68	-34.7	-35.4	24.3	0.00e+00	0	39	0	675282944	42	5970
2026-01-02 18:12:41.12	16.14	12.77	-34.2	-34.9	24.7	0.00e+00	0	39	0	680525824	42	5671
2026-01-02 18:12:42.13	16.06	12.86	-34.3	-35.0	24.7	0.00e+00	0	39	0	686817280	42	5747
2026-01-02 18:12:43.14	15.98	12.95	-34.2	-34.9	24.7	0.00e+00	0	39	0	692060160	42	5668
2026-01-02 18:12:44.14	15.89	13.03	-34.3	-34.9	24.6	0.00e+00	0	39	0	698351616	42	5692
2026-01-02 18:12:45.16	15.81	13.13	-34.1	-34.8	24.8	0.00e+00	0	39	0	703594496	42	5607
2026-01-02 18:12:46.17	15.73	13.22	-34.3	-35.0	24.6	0.00e+00	0	39	0	708837376	42	5706
2026-01-02 18:12:47.18	15.64	13.31	-34.1	-34.8	24.8	0.00e+00	0	39	0	715128832	42	5621
2026-01-02 18:12:48.18	15.56	13.40	-34.1	-34.8	24.9	0.00e+00	0	39	0	720371712	42	5580
2026-01-02 18:12:49.19	15.47	13.49	-34.2	-34.9	24.7	0.00e+00	0	39	0	726663168	42	5652
2026-01-02 18:12:50.20	15.39	13.58	-34.1	-34.8	24.8	0.00e+00	0	39	0	731906048	42	5596
2026-01-02 18:12:51.21	15.30	13.67	-34.1	-34.8	24.8	0.00e+00	0	39	0	737148928	42	5624
2026-01-02 18:12:52.22	15.22	13.76	-34.2	-34.9	24.7	0.00e+00	0	39	0	743440384	42	5652
2026-01-02 18:12:53.23	15.13	13.86	-34.2	-34.9	24.8	0.00e+00	0	39	0	748683264	42	5633
2026-01-02 18:12:54.24	15.04	13.95	-34.1	-34.8	24.8	0.00e+00	0	39	0	753926144	42	5603
2026-01-02 18:12:55.25	14.95	14.04	-34.1	-34.8	24.8	0.00e+00	0	39	0	760217600	42	5590
2026-01-02 18:12:56.26	14.86	14.14	-34.1	-34.8	24.9	0.00e+00	0	39	0	765460480	42	5573
2026-01-02 18:12:57.27	14.77	14.23	-34.0	-34.7	25.0	0.00e+00	0	39	0	771751936	42	5503
2026-01-02 18:12:58.28	14.68	14.32	-34.0	-34.7	25.0	0.00e+00	0	39	0	776994816	42	5560
2026-01-02 18:12:59.29	14.59	14.42	-34.1	-34.8	25.0	0.00e+00	0	39	0	783286272	42	5602
2026-01-02 18:13:00.29	14.50	14.51	-33.8	-34.4	25.2	0.00e+00	0	39	0	788529152	42	5370
2026-01-02 18:13:01.30	14.41	14.61	-33.9	-34.6	25.1	0.00e+00	0	39	0	794820608	42	5459
2026-01-02 18:13:02.31	14.32	14.70	-33.7	-34.4	25.3	0.00e+00	0	39	0	800063488	42	5317
2026-01-02 18:13:03.32	14.23	14.80	-33.6	-34.3	25.3	0.00e+00	0	39	0	805306368	40	5917
2026-01-02 18:13:04.33	14.13	14.89	-33.6	-34.2	25.4	0.00e+00	0	39	0	811597824	40	5888
2026-01-02 18:13:05.34	14.04	14.99	-33.6	-34.3	25.4	0.00e+00	0	39	0	816840704	40	5931
2026-01-02 18:13:06.35	13.94	15.09	-33.6	-34.3	25.4	0.00e+00	0	39	0	823132160	40	5920
2026-01-02 18:13:07.36	13.85	15.18	-33.6	-34.3	25.4	0.00e+00	0	39	0	828375040	40	5937
2026-01-02 18:13:08.37	13.75	15.28	-33.4	-34.1	25.6	0.00e+00	0	39	0	833617920	40	5770
2026-01-02 18:13:09.38	13.65	15.38	-33.6	-34.3	25.5	0.00e+00	0	39	0	839909376	40	5900
2026-01-02 18:13:10.39	13.56	15.47	-33.4	-34.1	25.6	0.00e+00	0	39	0	845152256	40	5768
2026-01-02 18:13:11.40	13.46	15.57	-33.4	-34.1	25.5	0.00e+00	0	39	0	851443712	40	5825
2026-01-02 18:13:12.41	13.36	15.67	-33.5	-34.2	25.5	0.00e+00	0	39	0	856686592	40	5880
2026-01-02 18:13:13.42	13.26	15.77	-33.6	-34.3	25.4	0.00e+00	0	39	0	861929472	40	5910
2026-01-02 18:13:14.43	13.16	15.87	-33.5	-34.2	25.5	0.00e+00	0	39	0	868220928	40	5854
2026-01-02 18:13:15.44	13.06	15.97	-33.5	-34.2	25.5	0.00e+00	0	39	0	873463808	40	5852
2026-01-02 18:13:16.45	12.96	16.07	-33.6	-34.3	25.4	0.00e+00	0	39	0	879755264	40	5939
2026-01-02 18:13:17.46	12.85	16.17	-33.6	-34.3	25.5	0.00e+00	0	39	0	884998144	40	5913
2026-01-02 18:13:18.47	12.75	16.27	-33.6	-34.3	25.5	0.00e+00	0	39	0	891289600	40	5917
2026-01-02 18:13:19.48	12.65	16.37	-33.6	-34.2	25.5	0.00e+00	0	39	0	896532480	40	5870
2026-01-02 18:13:20.49	12.54	16.47	-33.5	-34.2	25.5	0.00e+00	0	39	0	901775360	40	5883
2026-01-02 18:13:21.50	12.44	16.57	-33.5	-34.2	25.6	0.00e+00	0	39	0	908066816	40	5833
2026-01-02 18:13:22.51	12.33	16.67	-33.4	-34.1	25.6	0.00e+00	0	39	0	913309696	40	5823
2026-01-02 18:13:23.52	12.22	16.77	-33.5	-34.1	25.5	0.00e+00	0	39	0	919601152	40	5823
2026-01-02 18:13:24.53	12.12	16.87	-33.3	-34.0	25.7	0.00e+00	0	39	0	924844032	40	5746
2026-01-02 18:13:25.54	12.01	16.97	-33.2	-33.8	25.8	0.00e+00	0	39	0	930086912	40	5628
2026-01-02 18:13:26.55	11.90	17.08	-33.2	-33.8	25.8	0.00e+00	0	39	0	936378368	40	5628
2026-01-02 18:13:27.56	11.79	17.18	-33.1	-33.8	25.9	0.00e+00	0	39	0	941621248	40	5599
2026-01-02 18:13:28.57	11.68	17.28	-33.1	-33.8	25.9	0.00e+00	0	39	0	947912704	40	5573
2026-01-02 18:13:29.58	11.57	17.39	-33.0	-33.7	26.0	0.00e+00	0	39	0	953155584	40	5503
2026-01-02 18:13:30.58	11.46	17.49	-32.9	-33.6	26.1	0.00e+00	0	39	0	958398464	40	5470
2026-01-02 18:13:31.59	11.34	17.59	-33.0	-33.7	26.0	0.00e+00	0	39	0	964689920	40	5515
2026-01-02 18:13:32.60	11.23	17.70	-33.1	-33.7	25.9	0.00e+00	0	39	0	969932800	40	5559
2026-01-02 18:13:33.61	11.12	17.80	-33.0	-33.7	26.0	0.00e+00	0	39	0	976224256	40	5540
2026-01-02 18:13:34.62	11.00	17.91	-32.8	-33.5	26.1	0.00e+00	0	39	0	981467136	40	5414
2026-01-02 18:13:35.62	10.89	18.01	-33.0	-33.6	26.0	0.00e+00	0	39	0	987758592	40	5495
2026-01-02 18:13:36.64	10.77	18.12	-32.8	-33.4	26.2	0.00e+00	0	39	0	993001472	38	6013
2026-01-02 18:13:37.65	10.65	18.22	-32.7	-33.4	26.3	0.00e+00	0	39	0	999292928	38	5984
2026-01-02 18:13:38.66	10.53	18.33	-32.8	-33.5	26.2	0.00e+00	0	39	0	1004535808	38	6039
2026-01-02 18:13:39.67	10.41	18.44	-32.9	-33.5	26.2	0.00e+00	0	39	0	1009778688	38	6096
2026-01-02 18:13:40.68	10.29	18.55	-32.8	-33.4	26.3	0.00e+00	0	39	0	1016070144	38	6010
2026-01-02 18:13:41.69	10.17	18.65	-32.7	-33.4	26.4	0.00e+00	0	39	0	1021313024	38	5978
2026-01-02 18:13:42.70	10.05	18.76	-32.8	-33.4	26.3	0.00e+00	0	39	0	1027604480	38	5998
2026-01-02 18:13:43.71	9.92	18.87	-32.7	-33.4	26.3	0.00e+00	0	39	0	1032847360	38	5976
2026-01-02 18:13:44.72	9.80	18.98	-32.7	-33.4	26.3	0.00e+00	0	39	0	1038090240	38	6004
2026-01-02 18:13:45.73	9.67	19.09	-32.7	-33.4	26.3	0.00e+00	0	39	0	1044381696	38	5980
2026-01-02 18:13:46.74	9.55	19.19	-32.9	-33.6	26.2	0.00e+00	0	39	0	1049624576	38	6110
2026-01-02 18:13:47.75	9.42	19.30	-32.8	-33.4	26.2	0.00e+00	0	39	0	1055916032	38	6019
2026-01-02 18:13:48.76	9.29	19.41	-32.8	-33.4	26.3	0.00e+00	0	39	0	1061158912	38	6003
2026-01-02 18:13:49.77	9.17	19.52	-32.8	-33.5	26.1	0.00e+00	0	39	0	1066401792	38	6052
2026-01-02 18:13:50.78	9.04	19.63	-32.7	-33.4	26.3	0.00e+00	0	39	0	1072693248	38	5996
2026-01-02 18:13:51.79	8.91	19.75	-32.8	-33.5	26.2	0.00e+00	0	39	0	1077936128	38	6037
2026-01-02 18:13:52.80	8.77	19.86	-32.7	-33.4	26.3	0.00e+00	0	39	0	1084227584	38	5987
2026-01-02 18:13:53.81	8.64	19.97	-32.6	-33.3	26.3	0.00e+00	0	39	0	1089470464	38	5908
2026-01-02 18:13:54.82	8.51	20.08	-32.5	-33.2	26.4	0.00e+00	0	39	0	1095761920	38	5854
2026-01-02 18:13:55.83	8.37	20.19	-32.5	-33.2	26.5	0.00e+00	0	39	0	1101004800	38	5843
2026-01-02 18:13:56.84	8.24	20.30	-32.3	-32.9	26.7	0.00e+00	0	39	0	1107296256	38	5654
2026-01-02 18:13:57.85	8.10	20.42	-32.3	-32.9	26.7	0.00e+00	0	39	0	1112539136	38	5677
2026-01-02 18:13:58.86	7.96	20.53	-32.1	-32.7	26.9	0.00e+00	0	39	0	1117782016	38	5558
2026-01-02 18:13:59.87	7.82	20.64	-32.2	-32.8	26.8	0.00e+00	0	39	0	1124073472	38	5591
2026-01-02 18:14:00.88	7.68	20.76	-32.2	-32.8	26.7	0.00e+00	0	39	0	1129316352	38	5600
2026-01-02 18:14:01.89	7.54	20.87	-32.2	-32.8	26.7	0.00e+00	0	39	0	1135607808	38	5587
2026-01-02 18:14:02.90	7.40	20.99	-32.2	-32.8	26.7	0.00e+00	0	39	0	1140850688	38	5621
2026-01-02 18:14:03.91	7.26	21.10	-32.3	-32.9	26.7	0.00e+00	0	39	0	1146093568	38	5679
2026-01-02 18:14:04.92	7.11	21.22	-32.4	-33.1	26.6	0.00e+00	0	39	0	1152385024	38	5788
2026-01-02 18:14:05.93	6.97	21.33	-32.5	-33.1	26.5	0.00e+00	0	39	0	1157627904	38	5796
2026-01-02 18:14:06.94	6.82	21.45	-32.2	-32.9	26.8	0.00e+00	0	39	0	1163919360	38	5662
2026-01-02 18:14:07.95	6.68	21.56	-32.0	-32.6	27.0	0.00e+00	0	39	0	1169162240	38	5481
2026-01-02 18:14:08.96	6.53	21.68	-32.1	-32.8	26.9	0.00e+00	0	39	0	1174405120	38	5587
2026-01-02 18:14:09.97	6.38	21.80	-32.0	-32.6	27.0	0.00e+00	0	39	0	1180696576	38	5461
2026-01-02 18:14:10.98	6.23	21.91	-32.0	-32.6	26.9	0.00e+00	0	39	0	1185939456	38	5482
2026-01-02 18:14:11.99	6.07	22.03	-31.8	-32.5	27.1	0.00e+00	0	39	0	1192230912	38	5402
2026-01-02 18:14:13.00	5.92	22.15	-31.9	-32.6	27.0	0.00e+00	0	39	0	1197473792	38	5469
2026-01-02 18:14:14.01	5.77	22.27	-32.1	-32.7	26.9	0.00e+00	0	39	0	1203765248	38	5527
2026-01-02 18:14:15.02	5.61	22.38	-31.9	-32.6	27.0	0.00e+00	0	39	0	1209008128	38	5442
2026-01-02 18:14:16.03	5.45	22.50	-31.8	-32.5	27.1	0.00e+00	0	39	0	1214251008	38	5391
2026-01-02 18:14:17.04	5.30	22.62	-31.8	-32.4	27.1	0.00e+00	0	39	0	1220542464	38	5372
2026-01-02 18:14:18.05	5.14	22.74	-31.9	-32.5	27.1	0.00e+00	0	39	0	1225785344	38	5423
2026-01-02 18:14:19.06	4.98	22.86	-31.7	-32.4	27.2	0.00e+00	0	39	0	1232076800	36	5971
2026-01-02 18:14:20.07	4.82	22.98	-31.7	-32.4	27.2	0.00e+00	0	39	0	1237319680	36	5984
2026-01-02 18:14:21.08	4.65	23.10	-31.6	-32.2	27.3	0.00e+00	0	39	0	1242562560	36	5891
2026-01-02 18:14:22.09	4.49	23.22	-31.7	-32.3	27.1	0.00e+00	0	39	0	1248854016	36	5964
2026-01-02 18:14:23.10	4.32	23.34	-31.5	-32.1	27.4	0.00e+00	0	39	0	1254096896	36	5827
2026-01-02 18:14:24.11	4.15	23.46	-31.7	-32.3	27.3	0.00e+00	0	39	0	1260388352	36	5955
2026-01-02 18:14:25.12	3.99	23.59	-31.7	-32.3	27.3	0.00e+00	0	39	0	1265631232	36	5927
2026-01-02 18:14:26.12	3.82	23.71	-31.7	-32.3	27.2	0.00e+00	0	39	0	1270874112	36	5939
2026-01-02 18:14:27.13	3.65	23.83	-31.7	-32.4	27.2	0.00e+00	0	39	0	1277165568	36	5995
2026-01-02 18:14:28.14	3.48	23.95	-31.8	-32.4	27.1	0.00e+00	0	39	0	1282408448	36	6007
2026-01-02 18:14:29.15	3.30	24.07	-31.9	-32.5	27.1	0.00e+00	0	39	0	1288699904	36	6090
2026-01-02 18:14:30.16	3.13	24.20	-31.8	-32.5	27.0	0.00e+00	0	39	0	1293942784	36	6036
2026-01-02 18:14:31.17	2.95	24.32	-31.9	-32.5	27.0	0.00e+00	0	39	0	1300234240	36	6091
2026-01-02 18:14:32.18	2.77	24.44	-31.8	-32.5	27.1	0.00e+00	0	39	0	1305477120	36	6043
2026-01-02 18:14:33.19	2.59	24.57	-31.7	-32.4	27.1	0.00e+00	0	39	0	1311768576	36	5980
2026-01-02 18:14:34.20	2.41	24.69	-31.8	-32.4	27.1	0.00e+00	0	39	0	1317011456	36	6016
2026-01-02 18:14:35.21	2.23	24.81	-31.5	-32.1	27.3	0.00e+00	0	39	0	1322254336	36	5812
2026-01-02 18:14:36.22	2.05	24.94	-31.6	-32.2	27.2	0.00e+00	0	39	0	1328545792	36	5853
2026-01-02 18:14:37.23	1.86	25.06	-31.4	-32.1	27.4	0.00e+00	0	39	0	1333788672	36	5775
2026-01-02 18:14:38.24	1.67	25.19	-31.3	-31.9	27.5	0.00e+00	0	39	0	1340080128	36	5683
2026-01-02 18:14:39.25	1.49	25.31	-31.3	-31.9	27.6	0.00e+00	0	39	0	1345323008	36	5659
2026-01-02 18:14:40.26	1.30	25.44	-31.2	-31.8	27.6	0.00e+00	0	39	0	1350565888	36	5571
2026-01-02 18:14:41.27	1.10	25.57	-31.1	-31.8	27.7	0.00e+00	0	39	0	1356857344	36	5580
2026-01-02 18:14:42.28	0.91	25.69	-31.1	-31.7	27.6	0.00e+00	0	39	0	1362100224	36	5552
2026-01-02 18:14:43.29	0.72	25.82	-31.2	-31.9	27.6	0.00e+00	0	39	0	1368391680	36	5640
2026-01-02 18:14:44.30	0.52	25.94	-31.3	-32.0	27.5	0.00e+00	0	39	0	1373634560	36	5698
2026-01-02 18:14:45.31	0.32	26.07	-31.4	-32.0	27.5	0.00e+00	0	39	0	1378877440	36	5719
2026-01-02 18:14:46.32	0.12	26.20	-31.4	-32.0	27.5	0.00e+00	0	39	0	1385168896	36	5747
2026-01-02 18:14:47.33	359.92	26.33	-31.4	-32.0	27.5	0.00e+00	0	39	0	1390411776	36	5710
2026-01-02 18:14:48.34	359.72	26.45	-31.4	-32.0	27.4	0.00e+00	0	39	0	1396703232	36	5753
2026-01-02 18:14:49.35	359.52	26.58	-31.3	-31.9	27.5	0.00e+00	0	39	0	1401946112	36	5680
2026-01-02 18:14:50.36	359.31	26.71	-31.4	-32.0	27.5	0.00e+00	0	39	0	1408237568	36	5735
2026-01-02 18:14:51.37	359.10	26.84	-31.2	-31.8	27.7	0.00e+00	0	39	0	1413480448	36	5613
2026-01-02 18:14:52.38	358.89	26.96	-31.1	-31.8	27.7	0.00e+00	0	39	0	1418723328	36	5586
2026-01-02 18:14:53.39	358.68	27.09	-31.3	-31.9	27.6	0.00e+00	0	39	0	1425014784	36	5693
2026-01-02 18:14:54.40	358.47	27.22	-31.2	-31.8	27.7	0.00e+00	0	39	0	1430257664	36	5604
2026-01-02 18:14:55.41	358.26	27.35	-31.2	-31.8	27.7	0.00e+00	0	39	0	1436549120	36	5591
2026-01-02 18:14:56.42	358.04	27.48	-31.3	-31.9	27.5	0.00e+00	0	39	0	1441792000	36	5672
2026-01-02 18:14:57.43	357.82	27.61	-31.3	-32.0	27.5	0.00e+00	0	39	0	1447034880	36	5703
2026-01-02 18:14:58.44	357.60	27.74	-31.4	-32.0	27.5	0.00e+00	0	39	0	1453326336	36	5750
2026-01-02 18:14:59.45	357.38	27.87	-31.4	-32.0	27.4	0.00e+00	0	39	0	1458569216	36	5761
2026-01-02 18:15:00.45	357.16	27.99	-31.4	-32.0	27.5	0.00e+00	0	39	0	1464860672	36	5726
2026-01-02 18:15:01.46	356.93	28.12	-31.5	-32.1	27.4	0.00e+00	0	39	0	1470103552	36	5793
2026-01-02 18:15:02.48	356.70	28.25	-31.3	-31.9	27.5	0.00e+00	0	39	0	1475346432	36	5691
2026-01-02 18:15:03.48	356.48	28.38	-31.2	-31.8	27.6	0.00e+00	0	39	0	1481637888	36	5604
2026-01-02 18:15:04.49	356.25	28.51	-31.3	-31.9	27.6	0.00e+00	0	39	0	1486880768	36	5687
2026-01-02 18:15:05.50	356.01	28.64	-31.2	-31.8	27.7	0.00e+00	0	39	0	1493172224	36	5589
2026-01-02 18:15:06.51	355.78	28.77	-31.3	-32.0	27.6	0.00e+00	0	39	0	1498415104	36	5723
2026-01-02 18:15:07.52	355.54	28.90	-31.2	-31.9	27.6	0.00e+00	0	39	0	1504706560	36	5646
2026-01-02 18:15:08.53	355.30	29.03	-31.2	-31.8	27.6	0.00e+00	0	39	0	1509949440	36	5625
2026-01-02 18:15:09.54	355.06	29.16	-31.3	-31.9	27.6	0.00e+00	0	39	0	1515192320	36	5671
2026-01-02 18:15:10.55	354.82	29.29	-31.4	-32.0	27.5	0.00e+00	0	39	0	1521483776	36	5744
2026-01-02 18:15:11.55	354.58	29.42	-31.2	-31.8	27.7	0.00e+00	0	39	0	1526726656	36	5627
2026-01-02 18:15:12.57	354.33	29.55	-31.1	-31.7	27.8	0.00e+00	0	39	0	1533018112	36	5555
2026-01-02 18:15:13.58	354.08	29.68	-31.0	-31.6	27.8	0.00e+00	0	39	0	1538260992	36	5497
2026-01-02 18:15:14.59	353.83	29.81	-30.9	-31.5	28.0	0.00e+00	0	39	0	1543503872	36	5420
2026-01-02 18:15:15.60	353.58	29.94	-30.9	-31.5	27.9	0.00e+00	0	39	0	1549795328	36	5427
2026-01-02 18:15:16.61	353.32	30.07	-30.9	-31.6	27.8	0.00e+00	0	39	0	1555038208	36	5448
2026-01-02 18:15:17.62	353.07	30.20	-31.0	-31.6	27.9	0.00e+00	0	39	0	1561329664	36	5476
2026-01-02 18:15:18.63	352.81	30.33	-31.1	-31.7	27.7	0.00e+00	0	39	0	1566572544	36	5556
2026-01-02 18:15:19.64	352.55	30.46	-31.0	-31.6	27.8	0.00e+00	0	39	0	1571815424	36	5495
2026-01-02 18:15:20.65	352.28	30.59	-31.1	-31.7	27.8	0.00e+00	0	39	0	1578106880	36	5563
2026-01-02 18:15:21.66	352.02	30.72	-31.1	-31.7	27.8	0.00e+00	0	39	0	1583349760	36	5530
2026-01-02 18:15:22.66	351.75	30.85	-31.1	-31.7	27.8	0.00e+00	0	39	0	1589641216	36	5561
2026-01-02 18:15:23.67	351.48	30.98	-31.2	-31.8	27.7	0.00e+00	0	39	0	1594884096	36	5614
2026-01-02 18:15:24.68	351.21	31.11	-30.9	-31.5	27.9	0.00e+00	0	39	0	1601175552	36	5408
2026-01-02 18:15:25.69	350.94	31.24	-30.9	-31.5	27.9	0.00e+00	0	39	0	1606418432	36	5439
2026-01-02 18:15:26.70	350.66	31.37	-31.0	-31.6	27.8	0.00e+00	0	39	0	1612709888	36	5460
2026-01-02 18:15:27.71	350.38	31.49	-30.9	-31.6	28.0	0.00e+00	0	39	0	1617952768	36	5443
2026-01-02 18:15:28.72	350.10	31.62	-30.9	-31.5	28.0	0.00e+00	0	39	0	1623195648	36	5430
2026-01-02 18:15:29.73	349.82	31.75	-30.8	-31.5	27.9	0.00e+00	0	39	0	1629487104	36	5379
2026-01-02 18:15:30.74	349.53	31.88	-30.9	-31.6	28.0	0.00e+00	0	39	0	1634729984	36	5442
2026-01-02 18:15:31.75	349.25	32.01	-30.9	-31.5	28.0	0.00e+00	0	39	0	1641021440	36	5406
2026-01-02 18:15:32.76	348.96	32.13	-30.9	-31.5	27.9	0.00e+00	0	39	0	1646264320	36	5405
2026-01-02 18:15:33.77	348.66	32.26	-31.0	-31.7	27.9	0.00e+00	0	39	0	1651507200	36	5503
2026-01-02 18:15:34.78	348.37	32.39	-31.1	-31.8	27.8	0.00e+00	0	39	0	1657798656	36	5571
2026-01-02 18:15:35.79	348.07	32.52	-31.1	-31.8	27.8	0.00e+00	0	39	0	1663041536	36	5586
2026-01-02 18:15:36.80	347.77	32.64	-31.1	-31.8	27.9	0.00e+00	0	39	0	1669332992	36	5589
2026-01-02 18:15:37.81	347.47	32.77	-31.1	-31.7	27.8	0.00e+00	0	39	0	1674575872	36	5537
2026-01-02 18:15:38.82	347.17	32.89	-31.0	-31.6	28.0	0.00e+00	0	39	0	1679818752	36	5450
2026-01-02 18:15:39.83	346.86	33.02	-31.1	-31.8	27.8	0.00e+00	0	39	0	1686110208	36	5591
2026-01-02 18:15:40.84	346.55	33.14	-31.1	-31.7	27.8	0.00e+00	0	39	0	1691353088	36	5564
2026-01-02 18:15:41.85	346.24	33.27	-30.8	-31.4	28.1	0.00e+00	0	39	0	1697644544	36	5364
2026-01-02 18:15:42.86	345.93	33.39	-30.6	-31.3	28.2	0.00e+00	0	39	0	1702887424	34	5934
2026-01-02 18:15:43.87	345.61	33.51	-30.7	-31.3	28.0	0.00e+00	0	39	0	1709178880	34	5923
2026-01-02 18:15:44.88	345.30	33.64	-30.7	-31.3	28.0	0.00e+00	0	39	0	1714421760	34	5964
2026-01-02 18:15:45.89	344.97	33.76	-30.7	-31.4	27.9	0.00e+00	0	39	0	1720713216	34	5983
2026-01-02 18:15:46.90	344.65	33.88	-30.8	-31.5	27.8	0.00e+00	0	39	0	1725956096	34	6054
2026-01-02 18:15:47.91	344.33	34.00	-30.6	-31.2	28.2	0.00e+00	0	39	0	1731198976	34	5855
2026-01-02 18:15:48.92	344.00	34.12	-30.5	-31.1	28.2	0.00e+00	0	39	0	1737490432	34	5777
2026-01-02 18:15:49.93	343.67	34.24	-30.6	-31.3	28.2	0.00e+00	0	39	0	1742733312	34	5901
2026-01-02 18:15:50.94	343.33	34.36	-30.7	-31.3	28.1	0.00e+00	0	39	0	1749024768	34	5925
2026-01-02 18:15:51.95	343.00	34.48	-30.8	-31.4	28.1	0.00e+00	0	39	0	1754267648	34	6023
2026-01-02 18:15:52.96	342.66	34.60	-30.7	-31.4	28.1	0.00e+00	0	39	0	1759510528	34	5982
2026-01-02 18:15:53.97	342.32	34.71	-30.8	-31.4	28.1	0.00e+00	0	39	0	1765801984	34	6027
2026-01-02 18:15:54.98	341.98	34.83	-30.7	-31.4	28.1	0.00e+00	0	39	0	1771044864	34	5968
2026-01-02 18:15:55.98	341.64	34.94	-30.6	-31.3	28.2	0.00e+00	0	39	0	1776287744	34	5906
2026-01-02 18:15:57.00	341.29	35.06	-30.7	-31.3	28.1	0.00e+00	0	39	0	1782579200	34	5927
2026-01-02 18:15:58.01	340.94	35.17	-30.6	-31.3	28.2	0.00e+00	0	39	0	1787822080	34	5897
2026-01-02 18:15:59.02	340.58	35.29	-30.8	-31.4	28.1	0.00e+00	0	39	0	1794113536	34	6004
2026-01-02 18:16:00.03	340.23	35.40	-30.9	-31.5	28.0	0.00e+00	0	39	0	1799356416	34	6078
2026-01-02 18:16:01.04	339.87	35.51	-31.0	-31.6	27.9	0.00e+00	0	39	0	1805647872	34	6150
2026-01-02 18:16:02.04	339.51	35.62	-31.0	-31.6	27.9	0.00e+00	0	39	0	1810890752	34	6133
2026-01-02 18:16:03.05	339.15	35.73	-31.0	-31.6	27.9	0.00e+00	0	39	0	1817182208	34	6160
2026-01-02 18:16:04.06	338.79	35.84	-30.8	-31.5	28.1	0.00e+00	0	39	0	1822425088	34	6061
2026-01-02 18:16:05.07	338.42	35.95	-30.9	-31.5	28.0	0.00e+00	0	39	0	1827667968	34	6057
2026-01-02 18:16:06.08	338.05	36.05	-30.8	-31.4	28.0	0.00e+00	0	39	0	1833959424	34	6012
2026-01-02 18:16:07.09	337.68	36.16	-31.0	-31.7	27.9	0.00e+00	0	39	0	1839202304	34	6187
2026-01-02 18:16:08.10	337.30	36.27	-30.7	-31.3	28.2	0.00e+00	0	39	0	1845493760	34	5931
2026-01-02 18:16:09.11	336.92	36.37	-30.6	-31.2	28.3	0.00e+00	0	39	0	1850736640	34	5846
2026-01-02 18:16:10.12	336.54	36.47	-30.4	-31.0	28.4	0.00e+00	0	39	0	1855979520	34	5718
2026-01-02 18:16:11.13	336.16	36.57	-30.6	-31.2	28.3	0.00e+00	0	38	0	1862270976	34	5865
2026-01-02 18:16:12.14	335.78	36.67	-30.6	-31.2	28.2	0.00e+00	0	38	0	1867513856	34	5844
2026-01-02 18:16:13.15	335.39	36.77	-30.8	-31.4	28.1	0.00e+00	0	39	0	1873805312	34	6008
2026-01-02 18:16:14.16	335.00	36.87	-30.8	-31.4	28.0	0.00e+00	0	39	0	1879048192	34	5997
2026-01-02 18:16:15.17	334.61	36.97	-30.7	-31.3	28.1	0.00e+00	0	39	0	1884291072	34	5959
2026-01-02 18:16:16.18	334.22	37.06	-30.7	-31.3	28.1	0.00e+00	0	39	0	1890582528	34	5900
2026-01-02 18:16:17.19	333.82	37.16	-30.8	-31.5	28.1	0.00e+00	0	39	0	1895825408	34	6051
2026-01-02 18:16:18.20	333.42	37.25	-30.7	-31.3	28.1	0.00e+00	0	39	0	1902116864	34	5951
2026-01-02 18:16:19.21	333.02	37.34	-30.9	-31.5	28.0	0.00e+00	0	39	0	1907359744	34	6077
2026-01-02 18:16:20.22	332.62	37.43	-30.9	-31.5	27.9	0.00e+00	0	39	0	1913651200	34	6080
2026-01-02 18:16:21.22	332.22	37.52	-31.2	-31.8	27.8	0.00e+00	0	39	0	1918894080	34	6312
2026-01-02 18:16:22.23	331.81	37.61	-31.2	-31.8	27.8	0.00e+00	0	39	0	1924136960	34	6317
2026-01-02 18:16:23.24	331.40	37.69	-30.9	-31.5	28.1	0.00e+00	0	39	0	1930428416	34	6062
2026-01-02 18:16:24.25	330.99	37.78	-30.8	-31.4	28.1	0.00e+00	0	38	0	1935671296	34	6011
2026-01-02 18:16:25.26	330.57	37.86	-30.7	-31.4	28.1	0.00e+00	0	39	0	1941962752	34	5992
2026-01-02 18:16:26.27	330.16	37.94	-30.8	-31.4	28.2	0.00e+00	0	38	0	1947205632	34	5972
2026-01-02 18:16:27.28	329.74	38.02	-30.6	-31.1	28.3	0.00e+00	0	38	0	1952448512	34	5828
2026-01-02 18:16:28.29	329.32	38.10	-30.6	-31.2	28.2	0.00e+00	0	38	0	1958739968	34	5892
2026-01-02 18:16:29.30	328.90	38.18	-30.6	-31.2	28.2	0.00e+00	0	39	0	1963982848	34	5848
2026-01-02 18:16:30.30	328.48	38.25	-30.8	-31.4	28.1	0.00e+00	0	39	0	1970274304	34	6029
2026-01-02 18:16:31.31	328.05	38.33	-30.8	-31.5	28.1	0.00e+00	0	39	0	1975517184	34	6051
2026-01-02 18:16:32.32	327.62	38.40	-30.9	-31.5	28.0	0.00e+00	0	39	0	1980760064	34	6084
2026-01-02 18:16:33.33	327.19	38.47	-30.9	-31.5	28.0	0.00e+00	0	39	0	1987051520	34	6100
2026-01-02 18:16:34.34	326.76	38.54	-31.0	-31.6	27.9	0.00e+00	0	39	0	1992294400	34	6155
2026-01-02 18:16:35.35	326.33	38.60	-30.8	-31.5	28.1	0.00e+00	0	39	0	1998585856	34	6072
2026-01-02 18:16:36.36	325.89	38.67	-30.8	-31.4	28.0	0.00e+00	0	39	0	2003828736	34	5974
2026-01-02 18:16:37.37	325.45	38.73	-30.9	-31.5	28.0	0.00e+00	0	39	0	2010120192	34	6100
2026-01-02 18:16:38.38	325.01	38.79	-31.0	-31.6	27.9	0.00e+00	0	39	0	2015363072	34	6157
2026-01-02 18:16:39.39	324.57	38.85	-31.2	-31.9	27.8	0.00e+00	0	39	0	2021654528	34	6329
2026-01-02 18:16:40.40	324.13	38.91	-31.0	-31.6	27.9	0.00e+00	0	39	0	2026897408	34	6141
2026-01-02 18:16:41.41	323.69	38.97	-31.0	-31.6	28.0	0.00e+00	0	39	0	2032140288	34	6119
2026-01-02 18:16:42.42	323.24	39.02	-31.0	-31.6	27.9	0.00e+00	0	39	0	2038431744	34	6169
2026-01-02 18:16:43.43	322.80	39.07	-31.3	-31.9	27.6	0.00e+00	0	39	0	2043674624	34	6364
2026-01-02 18:16:44.44	322.35	39.12	-31.0	-31.6	27.9	0.00e+00	0	39	0	2049966080	34	6129
2026-01-02 18:16:45.45	321.90	39.17	-31.0	-31.7	27.9	0.00e+00	0	39	0	2055208960	34	6199
2026-01-02 18:16:46.46	321.45	39.22	-31.1	-31.8	27.8	0.00e+00	0	39	0	2060451840	34	6247
2026-01-02 18:16:47.47	320.99	39.26	-31.2	-31.8	27.8	0.00e+00	0	39	0	2066743296	34	6301
2026-01-02 18:16:48.48	320.54	39.30	-30.8	-31.4	28.0	0.00e+00	0	39	0	2071986176	34	6013
2026-01-02 18:16:49.49	320.09	39.34	-30.7	-31.3	28.1	0.00e+00	0	39	0	2077229056	34	5920
2026-01-02 18:16:50.50	319.63	39.38	-30.5	-31.1	28.3	0.00e+00	0	39	0	2083520512	34	5800
2026-01-02 18:16:51.51	319.17	39.42	-30.7	-31.3	28.2	0.00e+00	0	39	0	2088763392	34	5945
2026-01-02 18:16:52.52	318.72	39.45	-30.9	-31.5	28.0	0.00e+00	0	39	0	2095054848	34	6057
2026-01-02 18:16:53.53	318.26	39.49	-30.9	-31.5	28.0	0.00e+00	0	39	0	2100297728	34	6063
2026-01-02 18:16:54.54	317.80	39.52	-30.9	-31.5	27.9	0.00e+00	0	39	0	2106589184	34	6054
2026-01-02 18:16:55.54	317.34	39.54	-30.7	-31.3	28.2	0.00e+00	0	39	0	2111832064	34	5922
2026-01-02 18:16:56.55	316.88	39.57	-30.7	-31.3	28.1	0.00e+00	0	39	0	2118123520	34	5931
2026-01-02 18:16:57.56	316.42	39.59	-30.8	-31.4	28.1	0.00e+00	0	39	0	2123366400	34	6012
2026-01-02 18:16:58.57	315.96	39.62	-30.8	-31.4	28.1	0.00e+00	0	39	0	2128609280	34	6020
2026-01-02 18:16:59.58	315.49	39.64	-30.6	-31.2	28.2	0.00e+00	0	39	0	2134900736	34	5864
2026-01-02 18:17:00.59	315.03	39.65	-30.6	-31.2	28.1	0.00e+00	0	39	0	2140143616	34	5895
2026-01-02 18:17:01.60	314.56	39.67	-30.7	-31.3	28.2	0.00e+00	0	39	0	2146435072	34	5954
2026-01-02 18:17:02.61	314.10	39.68	-30.9	-31.5	28.0	0.00e+00	0	39	0	2151677952	34	6080
2026-01-02 18:17:03.62	313.63	39.69	-30.7	-31.3	28.2	0.00e+00	0	39	0	2156920832	34	5956
2026-01-02 18:17:04.63	313.17	39.70	-30.8	-31.4	28.1	0.00e+00	0	39	0	2163212288	34	5994
2026-01-02 18:17:05.64	312.70	39.71	-30.6	-31.2	28.3	0.00e+00	0	39	0	2168455168	34	5831
2026-01-02 18:17:06.65	312.24	39.72	-30.6	-31.2	28.2	0.00e+00	0	39	0	2174746624	34	5888
2026-01-02 18:17:07.66	311.77	39.72	-30.7	-31.3	28.2	0.00e+00	0	39	0	2179989504	34	5919
2026-01-02 18:17:08.67	311.31	39.72	-30.5	-31.1	28.3	0.00e+00	0	39	0	2185232384	34	5791
2026-01-02 18:17:09.68	310.84	39.72	-30.5	-31.1	28.3	0.00e+00	0	39	0	2191523840	34	5812
2026-01-02 18:17:10.69	310.37	39.71	-30.8	-31.4	28.0	0.00e+00	0	39	0	2196766720	34	5996
2026-01-02 18:17:11.70	309.91	39.71	-30.8	-31.4	28.1	0.00e+00	0	39	0	2203058176	34	5986
2026-01-02 18:17:12.71	309.44	39.70	-30.7	-31.3	28.1	0.00e+00	0	39	0	2208301056	34	5944
2026-01-02 18:17:13.72	308.98	39.69	-30.9	-31.5	28.0	0.00e+00	0	39	0	2214592512	34	6068
2026-01-02 18:17:14.73	308.51	39.68	-31.1	-31.7	27.9	0.00e+00	0	39	0	2219835392	34	6204
2026-01-02 18:17:15.73	308.05	39.66	-30.9	-31.5	27.9	0.00e+00	0	39	0	2225078272	34	6085
2026-01-02 18:17:16.74	307.59	39.65	-30.9	-31.5	28.0	0.00e+00	0	39	0	2231369728	34	6075
2026-01-02 18:17:17.75	307.12	39.63	-30.9	-31.6	27.8	0.00e+00	0	39	0	2236612608	34	6106
2026-01-02 18:17:18.76	306.66	39.61	-31.1	-31.8	27.8	0.00e+00	0	39	0	2242904064	34	6281
2026-01-02 18:17:19.77	306.20	39.58	-31.0	-31.6	27.9	0.00e+00	0	39	0	2248146944	34	6135
2026-01-02 18:17:20.78	305.74	39.56	-31.1	-31.7	27.9	0.00e+00	0	39	0	2253389824	34	6219
2026-01-02 18:17:21.79	305.28	39.53	-30.9	-31.5	28.1	0.00e+00	0	39	0	2259681280	34	6055
2026-01-02 18:17:22.80	304.82	39.50	-30.7	-31.4	28.1	0.00e+00	0	39	0	2264924160	34	5968
2026-01-02 18:17:23.81	304.36	39.47	-30.2	-30.9	28.5	0.00e+00	0	39	0	2271215616	34	5652
2026-01-02 18:17:24.82	303.90	39.44	-30.4	-31.0	28.5	0.00e+00	0	39	0	2276458496	34	5696
2026-01-02 18:17:25.83	303.44	39.40	-30.5	-31.1	28.2	0.00e+00	0	39	0	2281701376	34	5816
2026-01-02 18:17:26.84	302.98	39.36	-30.6	-31.2	28.2	0.00e+00	0	39	0	2287992832	34	5881
2026-01-02 18:17:27.86	302.52	39.32	-30.4	-31.1	28.3	0.00e+00	0	39	0	2293235712	34	5781
2026-01-02 18:17:28.86	302.07	39.28	-30.3	-31.0	28.5	0.00e+00	0	39	0	2299527168	34	5711
2026-01-02 18:17:29.87	301.62	39.24	-30.5	-31.1	28.3	0.00e+00	0	39	0	2304770048	34	5813
2026-01-02 18:17:30.88	301.17	39.19	-30.6	-31.1	28.3	0.00e+00	0	39	0	2311061504	34	5809
2026-01-02 18:17:31.89	300.72	39.15	-30.4	-30.9	28.4	0.00e+00	0	39	0	2316304384	34	5691
2026-01-02 18:17:32.90	300.27	39.10	-30.4	-31.0	28.3	0.00e+00	0	39	0	2322595840	34	5750
2026-01-02 18:17:33.91	299.82	39.04	-30.6	-31.2	28.2	0.00e+00	0	39	0	2327838720	34	5879
2026-01-02 18:17:34.92	299.37	38.99	-30.8	-31.5	28.0	0.00e+00	0	39	0	2333081600	34	6034
2026-01-02 18:17:35.93	298.93	38.94	-30.8	-31.4	28.0	0.00e+00	0	39	0	2339373056	34	6031
2026-01-02 18:17:36.94	298.49	38.88	-30.7	-31.3	28.1	0.00e+00	0	39	0	2344615936	34	5924
2026-01-02 18:17:37.95	298.04	38.82	-30.8	-31.4	28.2	0.00e+00	0	39	0	2350907392	34	5997
2026-01-02 18:17:38.96	297.60	38.76	-30.6	-31.2	28.2	0.00e+00	0	39	0	2356150272	34	5893
2026-01-02 18:17:39.98	297.16	38.70	-30.6	-31.2	28.2	0.00e+00	0	39	0	2361393152	34	5886
2026-01-02 18:17:40.99	296.72	38.63	-30.6	-31.2	28.2	0.00e+00	0	39	0	2367684608	34	5876
2026-01-02 18:17:42.00	296.29	38.57	-30.5	-31.2	28.3	0.00e+00	0	39	0	2372927488	34	5838
2026-01-02 18:17:43.01	295.86	38.50	-30.3	-31.0	28.4	0.00e+00	0	39	0	2379218944	34	5738
2026-01-02 18:17:44.02	295.42	38.43	-30.3	-30.9	28.5	0.00e+00	0	39	0	2384461824	34	5661
2026-01-02 18:17:45.02	295.00	38.36	-30.3	-31.0	28.4	0.00e+00	0	39	0	2389704704	34	5724
2026-01-02 18:17:46.03	294.57	38.28	-30.6	-31.2	28.2	0.00e+00	0	39	0	2395996160	34	5863
2026-01-02 18:17:47.04	294.14	38.21	-30.7	-31.3	28.1	0.00e+00	0	39	0	2401239040	34	5900
2026-01-02 18:17:48.05	293.72	38.13	-30.5	-31.2	28.2	0.00e+00	0	39	0	2407530496	34	5848
2026-01-02 18:17:49.06	293.30	38.06	-30.3	-31.0	28.3	0.00e+00	0	39	0	2412773376	34	5736
2026-01-02 18:17:50.07	292.88	37.98	-30.5	-31.2	28.3	0.00e+00	0	39	0	2419064832	34	5844
2026-01-02 18:17:51.08	292.46	37.90	-30.7	-31.2	28.1	0.00e+00	0	39	0	2424307712	34	5888
2026-01-02 18:17:52.09	292.05	37.81	-30.7	-31.4	28.1	0.00e+00	0	39	0	2429550592	34	6022
2026-01-02 18:17:53.10	291.63	37.73	-30.6	-31.3	28.2	0.00e+00	0	39	0	2435842048	34	5943
2026-01-02 18:17:54.10	291.22	37.64	-30.6	-31.3	28.2	0.00e+00	0	39	0	2441084928	34	5926
2026-01-02 18:17:55.11	290.82	37.56	-30.7	-31.3	28.1	0.00e+00	0	39	0	2447376384	34	5930
2026-01-02 18:17:56.12	290.41	37.47	-30.8	-31.4	28.1	0.00e+00	0	39	0	2452619264	34	6022
2026-01-02 18:17:57.13	290.00	37.38	-30.5	-31.1	28.3	0.00e+00	0	39	0	2457862144	34	5793
2026-01-02 18:17:58.14	289.60	37.29	-30.4	-31.1	28.3	0.00e+00	0	39	0	2464153600	34	5814
2026-01-02 18:17:59.15	289.20	37.20	-30.5	-31.1	28.3	0.00e+00	0	39	0	2469396480	34	5765
2026-01-02 18:18:00.16	288.80	37.10	-30.5	-31.1	28.2	0.00e+00	0	39	0	2475687936	34	5798
2026-01-02 18:18:01.17	288.41	37.01	-30.4	-30.9	28.2	0.00e+00	0	39	0	2480930816	34	5694
2026-01-02 18:18:02.18	288.01	36.91	-30.5	-31.0	28.3	0.00e+00	0	39	0	2486173696	34	5758
2026-01-02 18:18:03.19	287.62	36.81	-30.6	-31.3	28.2	0.00e+00	0	39	0	2492465152	34	5907
2026-01-02 18:18:04.20	287.23	36.71	-30.5	-31.1	28.2	0.00e+00	0	39	0	2497708032	34	5786
2026-01-02 18:18:05.21	286.85	36.61	-30.5	-31.0	28.2	0.00e+00	0	39	0	2503999488	34	5746
2026-01-02 18:18:06.22	286.46	36.51	-30.5	-31.1	28.4	0.00e+00	0	39	0	2509242368	34	5807
2026-01-02 18:18:07.23	286.08	36.41	-30.7	-31.2	28.0	0.00e+00	0	39	0	2515533824	34	5872
2026-01-02 18:18:08.24	285.70	36.31	-30.9	-31.5	28.0	0.00e+00	0	39	0	2520776704	34	6036
2026-01-02 18:18:09.25	285.33	36.20	-30.9	-31.6	27.9	0.00e+00	0	39	0	2527068160	34	6154
2026-01-02 18:18:10.26	284.95	36.10	-30.9	-31.5	28.0	0.00e+00	0	39	0	2532311040	34	6068
2026-01-02 18:18:11.27	284.58	35.99	-30.9	-31.5	27.9	0.00e+00	0	39	0	2537553920	34	6042
2026-01-02 18:18:12.28	284.21	35.88	-30.9	-31.4	27.9	0.00e+00	0	39	0	2543845376	34	6025
2026-01-02 18:18:13.29	283.84	35.77	-30.8	-31.5	28.0	0.00e+00	0	39	0	2549088256	34	6073
2026-01-02 18:18:14.30	283.48	35.66	-30.6	-31.2	28.3	0.00e+00	0	39	0	2555379712	34	5853
2026-01-02 18:18:15.31	283.12	35.55	-30.4	-31.1	28.4	0.00e+00	0	39	0	2560622592	34	5763
2026-01-02 18:18:16.32	282.76	35.44	-30.4	-31.1	28.4	0.00e+00	0	39	0	2565865472	34	5781
2026-01-02 18:18:17.33	282.40	35.33	-30.4	-31.1	28.3	0.00e+00	0	39	0	2572156928	34	5818
2026-01-02 18:18:18.34	282.05	35.22	-30.4	-31.1	28.2	0.00e+00	0	39	0	2577399808	34	5781
2026-01-02 18:18:19.34	281.70	35.10	-30.4	-30.9	28.4	0.00e+00	0	39	0	2583691264	34	5675
2026-01-02 18:18:20.35	281.35	34.99	-30.5	-31.0	28.2	0.00e+00	0	39	0	2588934144	34	5747
2026-01-02 18:18:21.36	281.00	34.87	-30.7	-31.2	28.2	0.00e+00	0	39	0	2594177024	34	5892
2026-01-02 18:18:22.37	280.66	34.76	-30.7	-31.3	28.1	0.00e+00	0	39	0	2600468480	34	5920
2026-01-02 18:18:23.38	280.31	34.64	-30.7	-31.3	28.2	0.00e+00	0	39	0	2605711360	34	5908
2026-01-02 18:18:24.39	279.97	34.52	-30.6	-31.3	28.2	0.00e+00	0	39	0	2612002816	34	5900
2026-01-02 18:18:25.40	279.64	34.40	-30.7	-31.4	28.0	0.00e+00	0	39	0	2617245696	34	6007
2026-01-02 18:18:26.41	279.30	34.28	-30.8	-31.4	28.1	0.00e+00	0	39	0	2623537152	34	5986
2026-01-02 18:18:27.42	278.97	34.16	-30.8	-31.4	28.1	0.00e+00	0	39	0	2628780032	34	5978
2026-01-02 18:18:28.43	278.64	34.04	-30.6	-31.1	28.2	0.00e+00	0	39	0	2634022912	34	5818
2026-01-02 18:18:29.44	278.31	33.92	-30.5	-31.2	28.2	0.00e+00	0	39	0	2640314368	34	5860
2026-01-02 18:18:30.45	277.99	33.80	-30.5	-31.1	28.2	0.00e+00	0	39	0	2645557248	34	5763
2026-01-02 18:18:31.46	277.66	33.68	-30.5	-31.2	28.2	0.00e+00	0	39	0	2651848704	34	5873
2026-01-02 18:18:32.47	277.34	33.55	-30.5	-31.0	28.3	0.00e+00	0	39	0	2657091584	34	5759
2026-01-02 18:18:33.48	277.03	33.43	-30.4	-31.0	28.3	0.00e+00	0	39	0	2662334464	34	5705
2026-01-02 18:18:34.49	276.71	33.31	-30.4	-31.0	28.2	0.00e+00	0	39	0	2668625920	34	5756
2026-01-02 18:18:35.50	276.40	33.18	-30.5	-31.1	28.3	0.00e+00	0	39	0	2673868800	34	5780
2026-01-02 18:18:36.51	276.09	33.06	-30.7	-31.3	28.1	0.00e+00	0	39	0	2680160256	34	5923
2026-01-02 18:18:37.52	275.78	32.93	-30.8	-31.4	28.0	0.00e+00	0	39	0	2685403136	34	6003
2026-01-02 18:18:38.52	275.48	32.81	-30.8	-31.5	28.1	0.00e+00	0	39	0	2690646016	34	6040
2026-01-02 18:18:39.53	275.17	32.68	-30.8	-31.4	28.1	0.00e+00	0	39	0	2696937472	34	6032
2026-01-02 18:18:40.54	274.87	32.56	-30.7	-31.2	28.1	0.00e+00	0	39	0	2702180352	34	5895
2026-01-02 18:18:41.55	274.57	32.43	-30.7	-31.4	28.1	0.00e+00	0	39	0	2708471808	34	5968
2026-01-02 18:18:42.56	274.28	32.30	-30.7	-31.3	28.0	0.00e+00	0	39	0	2713714688	34	5923
2026-01-02 18:18:43.57	273.98	32.17	-30.6	-31.2	28.1	0.00e+00	0	39	0	2720006144	34	5888
2026-01-02 18:18:44.58	273.69	32.05	-30.4	-31.0	28.3	0.00e+00	0	39	0	2725249024	34	5717
2026-01-02 18:18:45.59	273.40	31.92	-30.6	-31.3	28.2	0.00e+00	0	39	0	2731540480	34	5927
2026-01-02 18:18:46.60	273.11	31.79	-30.6	-31.1	28.1	0.00e+00	0	39	0	2736783360	34	5816
2026-01-02 18:18:47.61	272.83	31.66	-30.8	-31.3	28.0	0.00e+00	0	39	0	2742026240	34	5960
2026-01-02 18:18:48.62	272.55	31.53	-30.7	-31.3	28.0	0.00e+00	0	39	0	2748317696	34	5931
2026-01-02 18:18:49.63	272.27	31.40	-30.7	-31.4	27.9	0.00e+00	0	39	0	2753560576	34	5992
2026-01-02 18:18:50.64	271.99	31.27	-30.7	-31.2	27.9	0.00e+00	0	39	0	2758803456	34	5881
2026-01-02 18:18:51.65	271.71	31.15	-30.7	-31.3	27.6	0.00e+00	0	39	0	2765094912	34	5922
2026-01-02 18:18:52.66	271.44	31.02	-30.8	-31.4	27.4	0.00e+00	0	39	0	2770337792	34	5984
2026-01-02 18:18:53.67	271.17	30.89	-30.8	-31.5	27.9	0.00e+00	0	39	0	2776629248	34	6039
2026-01-02 18:18:54.68	270.90	30.76	-30.8	-31.4	27.8	0.00e+00	0	39	0	2781872128	34	6003
2026-01-02 18:18:55.69	270.63	30.63	-30.8	-31.5	27.7	0.00e+00	0	39	0	2788163584	34	6069
2026-01-02 18:18:56.70	270.37	30.50	-30.8	-31.5	27.7	0.00e+00	0	39	0	2793406464	34	6078
2026-01-02 18:18:57.71	270.10	30.37	-30.9	-31.4	27.6	0.00e+00	0	39	0	2798649344	34	5990
2026-01-02 18:18:58.72	269.84	30.24	-30.9	-31.6	27.7	0.00e+00	0	39	0	2804940800	34	6148
2026-01-02 18:18:59.73	269.58	30.10	-30.9	-31.7	27.7	0.00e+00	0	39	0	2810183680	34	6177
2026-01-02 18:19:00.74	269.33	29.97	-31.0	-31.6	27.6	0.00e+00	0	39	0	2816475136	34	6107
2026-01-02 18:19:01.75	269.07	29.84	-31.0	-31.7	27.6	0.00e+00	0	39	0	2821718016	34	6208
2026-01-02 18:19:02.76	268.82	29.71	-30.9	-31.5	27.7	0.00e+00	0	39	0	2828009472	34	6056
2026-01-02 18:19:03.77	268.57	29.58	-31.0	-31.6	27.7	0.00e+00	0	39	0	2833252352	34	6173
2026-01-02 18:19:04.78	268.32	29.45	-31.2	-31.9	27.6	0.00e+00	0	39	0	2838495232	34	6330
2026-01-02 18:19:05.79	268.08	29.32	-31.2	-31.9	27.6	0.00e+00	0	39	0	2844786688	34	6342
2026-01-02 18:19:06.80	267.83	29.19	-31.2	-31.7	27.5	0.00e+00	0	39	0	2850029568	34	6218
2026-01-02 18:19:07.81	267.59	29.06	-31.2	-31.8	27.4	0.00e+00	0	39	0	2856321024	34	6270
2026-01-02 18:19:08.82	267.35	28.93	-31.0	-31.7	27.7	0.00e+00	0	39	0	2861563904	34	6228
2026-01-02 18:19:09.83	267.11	28.80	-31.1	-31.6	27.5	0.00e+00	0	39	0	2866806784	34	6159
2026-01-02 18:19:10.84	266.87	28.67	-31.1	-31.6	27.6	0.00e+00	0	39	0	2873098240	34	6169
2026-01-02 18:19:11.85	266.64	28.54	-31.1	-31.8	27.7	0.00e+00	0	39	0	2878341120	34	6278
2026-01-02 18:19:12.86	266.41	28.41	-31.0	-31.8	27.6	0.00e+00	0	39	0	2884632576	34	6255
2026-01-02 18:19:13.87	266.18	28.28	-31.2	-31.8	27.5	0.00e+00	0	39	0	2889875456	34	6291
2026-01-02 18:19:14.88	265.95	28.15	-31.2	-31.9	27.5	0.00e+00	0	39	0	2895118336	34	6339
2026-01-02 18:19:15.89	265.72	28.02	-31.0	-31.6	27.7	0.00e+00	0	39	0	2901409792	34	6120
2026-01-02 18:19:16.90	265.50	27.89	-31.1	-31.7	27.6	0.00e+00	0	39	0	2906652672	34	6193
2026-01-02 18:19:17.91	265.27	27.76	-31.4	-32.1	27.4	0.00e+00	0	39	0	2912944128	34	6479
2026-01-02 18:19:18.92	265.05	27.63	-31.3	-32.0	27.4	0.00e+00	0	39	0	2918187008	34	6417
2026-01-02 18:19:19.93	264.83	27.50	-31.3	-31.9	27.4	0.00e+00	0	39	0	2924478464	34	6345
2026-01-02 18:19:20.94	264.61	27.37	-32.4	-33.0	27.2	0.00e+00	0	39	0	2929721344	36	6455
2026-01-02 18:19:21.95	264.40	27.24	-31.6	-32.1	27.2	0.00e+00	0	39	0	2936012800	36	5820
2026-01-02 18:19:22.96	264.18	27.11	-31.5	-32.2	27.5	0.00e+00	0	39	0	2941255680	36	5872
2026-01-02 18:19:23.97	263.97	26.98	-31.4	-32.1	27.4	0.00e+00	0	39	0	2946498560	36	5800
2026-01-02 18:19:24.98	263.76	26.85	-31.3	-31.9	27.4	0.00e+00	0	39	0	2952790016	36	5641
2026-01-02 18:19:25.99	263.55	26.73	-31.4	-31.9	27.4	0.00e+00	0	39	0	2958032896	36	5675
2026-01-02 18:19:27.00	263.34	26.60	-31.4	-32.1	27.3	0.00e+00	0	39	0	2964324352	36	5784
2026-01-02 18:19:28.01	263.14	26.47	-31.4	-32.1	27.3	0.00e+00	0	39	0	2969567232	36	5817
2026-01-02 18:19:29.02	262.93	26.34	-31.5	-32.2	27.2	0.00e+00	0	39	0	2974810112	36	5886
2026-01-02 18:19:30.03	262.73	26.21	-31.6	-32.3	27.1	0.00e+00	0	39	0	2981101568	36	5938
2026-01-02 18:19:31.04	262.53	26.09	-31.8	-32.3	27.0	0.00e+00	0	39	0	2986344448	36	5951
2026-01-02 18:19:32.05	262.33	25.96	-31.7	-32.3	27.0	0.00e+00	0	39	0	2992635904	36	5899
2026-01-02 18:19:33.06	262.13	25.83	-32.0	-32.7	27.0	0.00e+00	0	39	0	2997878784	36	6198
2026-01-02 18:19:34.07	261.94	25.70	-31.8	-32.4	27.1	0.00e+00	0	39	0	3003121664	36	5966
2026-01-02 18:19:35.08	261.74	25.58	-31.8	-32.5	27.1	0.00e+00	0	39	0	3009413120	36	6041
2026-01-02 18:19:36.09	261.55	25.45	-31.6	-32.2	27.2	0.00e+00	0	39	0	3014656000	36	5839
2026-01-02 18:19:37.10	261.36	25.33	-31.6	-32.2	27.1	0.00e+00	0	39	0	3020947456	36	5864
2026-01-02 18:19:38.11	261.17	25.20	-31.6	-32.2	27.2	0.00e+00	0	39	0	3026190336	36	5861
2026-01-02 18:19:39.12	260.98	25.07	-31.6	-32.2	27.2	0.00e+00	0	39	0	3032481792	36	5858
2026-01-02 18:19:40.13	260.80	24.95	-31.9	-32.5	27.0	0.00e+00	0	39	0	3037724672	36	6040
2026-01-02 18:19:41.14	260.61	24.82	-31.9	-32.5	27.1	0.00e+00	0	39	0	3044016128	36	6066
2026-01-02 18:19:42.15	260.43	24.70	-31.8	-32.3	27.0	0.00e+00	0	39	0	3049259008	36	5954
2026-01-02 18:19:43.16	260.24	24.57	-31.8	-32.3	27.1	0.00e+00	0	39	0	3054501888	36	5949
2026-01-02 18:19:44.17	260.06	24.45	-31.8	-32.5	27.0	0.00e+00	0	39	0	3060793344	36	6083
2026-01-02 18:19:45.18	259.88	24.33	-31.6	-32.3	27.2	0.00e+00	0	39	0	3066036224	36	5955
2026-01-02 18:19:46.19	259.71	24.20	-31.6	-32.2	27.2	0.00e+00	0	39	0	3071279104	36	5846
2026-01-02 18:19:47.20	259.53	24.08	-31.6	-32.1	27.2	0.00e+00	0	39	0	3077570560	36	5811
2026-01-02 18:19:48.21	259.36	23.95	-31.6	-32.3	27.2	0.00e+00	0	39	0	3082813440	36	5935
2026-01-02 18:19:49.22	259.18	23.83	-31.6	-32.1	27.2	0.00e+00	0	39	0	3089104896	36	5812
2026-01-02 18:19:50.22	259.01	23.71	-31.6	-32.2	27.1	0.00e+00	0	39	0	3094347776	36	5856
2026-01-02 18:19:51.24	258.84	23.59	-31.6	-32.1	27.2	0.00e+00	0	39	0	3099590656	36	5823
2026-01-02 18:19:52.24	258.67	23.47	-31.6	-32.1	27.1	0.00e+00	0	39	0	3105882112	36	5828
2026-01-02 18:19:53.26	258.50	23.34	-31.5	-32.1	27.2	0.00e+00	0	39	0	3111124992	36	5790
2026-01-02 18:19:54.27	258.33	23.22	-31.6	-32.2	27.2	0.00e+00	0	39	0	3117416448	36	5832
2026-01-02 18:19:55.28	258.17	23.10	-31.6	-32.1	27.2	0.00e+00	0	39	0	3122659328	36	5821
2026-01-02 18:19:56.29	258.00	22.98	-31.6	-32.2	27.1	0.00e+00	0	39	0	3127902208	36	5842
2026-01-02 18:19:57.30	257.84	22.86	-31.8	-32.3	27.1	0.00e+00	0	39	0	3134193664	36	5963
2026-01-02 18:19:58.30	257.68	22.74	-31.9	-32.4	27.0	0.00e+00	0	39	0	3139436544	36	6026
2026-01-02 18:19:59.31	257.52	22.62	-32.0	-32.7	27.0	0.00e+00	0	39	0	3145728000	36	6189
2026-01-02 18:20:00.32	257.36	22.50	-31.9	-32.7	26.9	0.00e+00	0	39	0	3150970880	36	6189
2026-01-02 18:20:01.33	257.20	22.38	-31.9	-32.5	26.9	0.00e+00	0	39	0	3157262336	36	6071
2026-01-02 18:20:02.34	257.05	22.26	-32.0	-32.7	26.8	0.00e+00	0	39	0	3162505216	36	6222
2026-01-02 18:20:03.35	256.89	22.14	-32.0	-32.6	26.8	0.00e+00	0	39	0	3168796672	36	6146
2026-01-02 18:20:04.36	256.74	22.03	-32.2	-32.8	26.6	0.00e+00	0	39	0	3174039552	36	6302
2026-01-02 18:20:05.37	256.58	21.91	-32.0	-32.6	26.8	0.00e+00	0	39	0	3179282432	36	6119
2026-01-02 18:20:06.38	256.43	21.79	-31.8	-32.3	27.0	0.00e+00	0	39	0	3185573888	36	5941
2026-01-02 18:20:07.39	256.28	21.67	-31.7	-32.4	27.1	0.00e+00	0	39	0	3190816768	36	6003
2026-01-02 18:20:08.40	256.13	21.56	-31.9	-32.4	26.9	0.00e+00	0	39	0	3197108224	36	6026
2026-01-02 18:20:09.41	255.98	21.44	-31.9	-32.6	27.0	0.00e+00	0	39	0	3202351104	36	6110
2026-01-02 18:20:10.42	255.83	21.32	-32.0	-32.5	26.9	0.00e+00	0	39	0	3207593984	36	6082
2026-01-02 18:20:11.43	255.69	21.21	-31.8	-32.4	26.9	0.00e+00	0	39	0	3213885440	36	5983
2026-01-02 18:20:12.44	255.54	21.09	-31.9	-32.5	27.0	0.00e+00	0	39	0	3219128320	36	6079
2026-01-02 18:20:13.45	255.40	20.98	-32.0	-32.6	26.8	0.00e+00	0	39	0	3225419776	36	6165
2026-01-02 18:20:14.46	255.26	20.86	-32.2	-32.7	26.8	0.00e+00	0	39	0	3230662656	36	6231
2026-01-02 18:20:15.47	255.11	20.75	-32.1	-32.6	26.9	0.00e+00	0	39	0	3235905536	36	6170
2026-01-02 18:20:16.48	254.97	20.63	-32.0	-32.5	26.9	0.00e+00	0	39	0	3242196992	36	6103
2026-01-02 18:20:17.49	254.83	20.52	-32.0	-32.6	26.8	0.00e+00	0	39	0	3247439872	36	6140
2026-01-02 18:20:18.50	254.69	20.40	-32.0	-32.7	26.9	0.00e+00	0	39	0	3253731328	36	6194
2026-01-02 18:20:19.51	254.56	20.29	-32.1	-32.7	26.8	0.00e+00	0	39	0	3258974208	36	6196
2026-01-02 18:20:20.52	254.42	20.18	-32.1	-32.6	26.8	0.00e+00	0	39	0	3265265664	36	6159
2026-01-02 18:20:21.53	254.28	20.07	-32.1	-32.8	26.8	0.00e+00	0	39	0	3270508544	36	6287
2026-01-02 18:20:22.54	254.15	19.95	-32.2	-32.8	26.6	0.00e+00	0	39	0	3275751424	36	6271
2026-01-02 18:20:23.55	254.02	19.84	-32.3	-33.1	26.6	0.00e+00	0	39	0	3282042880	36	6467
2026-01-02 18:20:24.56	253.88	19.73	-32.4	-32.9	26.6	0.00e+00	0	39	0	3287285760	36	6388
2026-01-02 18:20:25.56	253.75	19.62	-32.4	-33.0	26.6	0.00e+00	0	39	0	3293577216	36	6403
2026-01-02 18:20:26.57	253.62	19.51	-32.3	-33.1	26.6	0.00e+00	0	39	0	3298820096	36	6468
2026-01-02 18:20:27.58	253.49	19.40	-32.4	-33.0	26.5	0.00e+00	0	39	0	3304062976	36	6415
2026-01-02 18:20:28.59	253.36	19.29	-32.4	-33.1	26.5	0.00e+00	0	39	0	3310354432	36	6494
2026-01-02 18:20:29.60	253.23	19.18	-32.4	-33.0	26.5	0.00e+00	0	39	0	3315597312	36	6430
2026-01-02 18:20:30.61	253.11	19.07	-32.5	-33.2	26.5	0.00e+00	0	39	0	3321888768	36	6568
2026-01-02 18:20:31.62	252.98	18.96	-32.6	-33.3	26.4	0.00e+00	0	39	0	3327131648	36	6636
2026-01-02 18:20:32.63	252.86	18.85	-32.5	-33.1	26.4	0.00e+00	0	39	0	3332374528	36	6471
2026-01-02 18:20:33.64	252.73	18.74	-32.4	-33.0	26.5	0.00e+00	0	39	0	3338665984	36	6439
2026-01-02 18:20:34.65	252.61	18.63	-32.5	-33.0	26.5	0.00e+00	0	39	0	3343908864	36	6462
2026-01-02 18:20:35.66	252.49	18.52	-32.5	-33.2	26.5	0.00e+00	0	39	0	3350200320	36	6589
2026-01-02 18:20:36.67	252.37	18.42	-32.6	-33.3	26.4	0.00e+00	0	39	0	3355443200	36	6660
2026-01-02 18:20:37.67	252.25	18.31	-32.7	-33.4	26.3	0.00e+00	0	39	0	3361734656	36	6768
2026-01-02 18:20:38.68	252.13	18.20	-32.7	-33.5	26.2	0.00e+00	0	39	0	3366977536	38	6052
2026-01-02 18:20:39.70	252.01	18.10	-32.7	-33.4	26.3	0.00e+00	0	39	0	3373268992	38	6031
2026-01-02 18:20:40.71	251.89	17.99	-32.9	-33.6	26.2	0.00e+00	0	39	0	3378511872	38	6133
2026-01-02 18:20:41.71	251.77	17.88	-32.7	-33.3	26.2	0.00e+00	0	39	0	3383754752	38	5952
2026-01-02 18:20:42.72	251.66	17.78	-32.8	-33.4	26.2	0.00e+00	0	39	0	3390046208	38	6013
2026-01-02 18:20:43.74	251.54	17.67	-32.9	-33.6	26.1	0.00e+00	0	39	0	3395289088	38	6132
2026-01-02 18:20:44.74	251.42	17.57	-32.9	-33.6	26.1	0.00e+00	0	39	0	3401580544	38	6169
2026-01-02 18:20:45.75	251.31	17.46	-32.9	-33.6	26.0	0.00e+00	0	39	0	3406823424	38	6155
2026-01-02 18:20:46.76	251.20	17.36	-32.8	-33.5	26.1	0.00e+00	0	39	0	3412066304	38	6046
2026-01-02 18:20:47.77	251.09	17.26	-32.9	-33.5	26.1	0.00e+00	0	39	0	3418357760	38	6049
2026-01-02 18:20:48.78	250.97	17.15	-32.8	-33.4	26.1	0.00e+00	0	39	0	3423600640	38	5969
2026-01-02 18:20:49.79	250.86	17.05	-32.8	-33.3	26.2	0.00e+00	0	39	0	3429892096	38	5953
2026-01-02 18:20:50.80	250.75	16.95	-32.8	-33.5	26.2	0.00e+00	0	39	0	3435134976	38	6074
2026-01-02 18:20:51.81	250.64	16.84	-32.9	-33.5	26.1	0.00e+00	0	39	0	3440377856	38	6043
2026-01-02 18:20:52.82	250.54	16.74	-32.9	-33.6	26.1	0.00e+00	0	39	0	3446669312	38	6171
2026-01-02 18:20:53.83	250.43	16.64	-33.0	-33.7	25.9	0.00e+00	0	39	0	3451912192	38	6228
2026-01-02 18:20:54.84	250.32	16.54	-32.9	-33.7	26.1	0.00e+00	0	39	0	3458203648	38	6189
2026-01-02 18:20:55.85	250.21	16.44	-33.1	-33.8	25.8	0.00e+00	0	39	0	3463446528	38	6292
2026-01-02 18:20:56.86	250.11	16.33	-33.1	-33.7	25.9	0.00e+00	0	39	0	3469737984	38	6205
2026-01-02 18:20:57.87	250.00	16.23	-33.2	-33.9	25.8	0.00e+00	0	39	0	3474980864	38	6365
2026-01-02 18:20:58.88	249.90	16.13	-33.3	-34.0	25.7	0.00e+00	0	39	0	3480223744	38	6453
2026-01-02 18:20:59.88	249.80	16.03	-33.4	-34.2	25.6	0.00e+00	0	39	0	3486515200	38	6552
2026-01-02 18:21:00.89	249.70	15.93	-33.5	-34.1	25.5	0.00e+00	0	39	0	3491758080	38	6517
2026-01-02 18:21:01.90	249.59	15.83	-33.5	-34.1	25.5	0.00e+00	0	39	0	3498049536	38	6490
2026-01-02 18:21:02.92	249.49	15.73	-33.4	-34.0	25.6	0.00e+00	0	39	0	3503292416	38	6448
2026-01-02 18:21:03.92	249.39	15.64	-33.5	-34.2	25.5	0.00e+00	0	39	0	3508535296	38	6588
2026-01-02 18:21:04.94	249.29	15.54	-33.6	-34.2	25.4	0.00e+00	0	39	0	3514826752	38	6578
2026-01-02 18:21:05.94	249.19	15.44	-33.5	-34.2	25.5	0.00e+00	0	39	0	3520069632	38	6594
2026-01-02 18:21:06.96	249.09	15.34	-33.6	-34.3	25.4	0.00e+00	0	39	0	3526361088	38	6680
2026-01-02 18:21:07.96	249.00	15.24	-33.7	-34.3	25.3	0.00e+00	0	39	0	3531603968	38	6681
2026-01-02 18:21:08.97	248.90	15.15	-33.6	-34.3	25.5	0.00e+00	0	39	0	3536846848	40	5935
2026-01-02 18:21:09.98	248.80	15.05	-33.7	-34.4	25.3	0.00e+00	0	39	0	3543138304	40	6030
2026-01-02 18:21:10.99	248.71	14.95	-33.6	-34.2	25.4	0.00e+00	0	39	0	3548381184	40	5841
2026-01-02 18:21:12.00	248.61	14.86	-33.6	-34.3	25.5	0.00e+00	0	39	0	3554672640	40	5915
2026-01-02 18:21:13.01	248.52	14.76	-33.7	-34.2	25.4	0.00e+00	0	39	0	3559915520	40	5896
2026-01-02 18:21:14.02	248.42	14.66	-33.7	-34.4	25.3	0.00e+00	0	39	0	3566206976	40	6020
2026-01-02 18:21:15.03	248.33	14.57	-33.8	-34.4	25.3	0.00e+00	0	39	0	3571449856	40	5978
2026-01-02 18:21:16.04	248.24	14.47	-33.8	-34.5	25.3	0.00e+00	0	39	0	3576692736	40	6062
