passes_logs/2026/01/02/R4.6S_Anadyr/R4.6S_Anadyr__20260102_172858_NOAA_20_JPSS-1_rec.log

#Pass ID: 20260102_172858_NOAA 20 (JPSS-1)
#Satellite: NOAA 20 (JPSS-1)
#Configuration: NOAA 20
#almurnet v.1.7.20251203
#Start time: 2026-01-02 17:29:00

#Version: 2.2.20231116
#Station: R4.6S_Anadyr
#Location: 177.4865 lon 64.73178 lat
#TLE: 1 43013U 17073A   26001.93781127  .00000184  00000+0  10834-3 0  9997
#TLE: 2 43013  98.7622 303.0160 0001916  58.2205 301.9158 14.19532295420889

#Time	Az	El	Level	Level2	SNR	BER	BlckErr	Temp	State	Recorded	gain1	gain2
2026-01-02 17:29:00.18	32.21	0.09	-49.9	-67.5	3.5	3.04e+01	0	36	0	0	60	91736
2026-01-02 17:29:01.19	32.15	0.14	-49.4	-64.6	3.6	1.51e+00	0	38	104	0	60	61346
2026-01-02 17:29:02.20	32.09	0.19	-49.4	-64.6	3.6	1.51e+00	0	38	104	0	60	61612
2026-01-02 17:29:03.21	32.03	0.25	-49.4	-64.6	3.6	1.51e+00	0	38	104	0	60	61388
2026-01-02 17:29:04.22	31.97	0.30	-49.4	-64.6	3.6	1.51e+00	0	38	104	0	60	61623
2026-01-02 17:29:05.23	31.91	0.36	-49.5	-64.6	3.6	1.51e+00	0	38	104	0	60	61617
2026-01-02 17:29:06.24	31.85	0.41	-49.5	-64.7	3.6	1.51e+00	0	38	104	0	60	61914
2026-01-02 17:29:07.25	31.79	0.46	-49.5	-64.7	3.6	1.51e+00	0	38	104	0	60	61858
2026-01-02 17:29:08.25	31.73	0.52	-49.4	-64.6	3.6	1.51e+00	0	38	104	0	60	61496
2026-01-02 17:29:09.26	31.67	0.57	-49.3	-64.6	3.6	1.51e+00	0	38	104	0	60	61125
2026-01-02 17:29:10.27	31.60	0.63	-49.3	-64.5	3.6	1.51e+00	0	38	104	0	60	60445
2026-01-02 17:29:11.28	31.54	0.68	-49.1	-64.3	3.6	1.51e+00	0	38	104	0	60	59536
2026-01-02 17:29:12.29	31.48	0.73	-49.0	-64.2	3.6	1.51e+00	0	38	104	0	60	58700
2026-01-02 17:29:13.30	31.42	0.79	-48.9	-64.1	3.6	1.51e+00	0	38	104	0	60	57782
2026-01-02 17:29:14.31	31.35	0.84	-48.7	-63.9	3.6	1.51e+00	0	38	104	0	60	56779
2026-01-02 17:29:15.32	31.29	0.90	-48.5	-63.7	3.6	1.51e+00	0	38	104	0	60	55209
2026-01-02 17:29:16.33	31.23	0.95	-48.2	-63.4	3.6	1.51e+00	0	38	104	0	60	53307
2026-01-02 17:29:17.34	31.16	1.01	-47.4	-62.6	3.6	1.51e+00	0	38	104	0	60	48977
2026-01-02 17:29:18.35	31.10	1.06	-47.4	-62.7	3.6	1.51e+00	0	38	104	0	60	49070
2026-01-02 17:29:19.36	31.03	1.12	-47.4	-62.6	3.6	1.51e+00	0	38	104	0	60	48722
2026-01-02 17:29:20.37	30.97	1.17	-47.4	-62.6	3.6	1.51e+00	0	38	104	0	60	48776
2026-01-02 17:29:21.38	30.90	1.23	-47.4	-62.6	3.6	1.51e+00	0	38	104	0	60	48495
2026-01-02 17:29:22.39	30.84	1.28	-47.4	-62.6	3.6	1.51e+00	0	38	104	0	60	48651
2026-01-02 17:29:23.41	30.77	1.34	-47.4	-62.6	3.6	1.51e+00	0	38	104	0	60	48768
2026-01-02 17:29:24.41	30.71	1.39	-47.4	-62.6	3.6	1.51e+00	0	38	104	0	60	48863
2026-01-02 17:29:25.42	30.64	1.45	-47.4	-62.6	3.6	1.51e+00	0	38	104	0	60	48530
2026-01-02 17:29:26.43	30.58	1.50	-47.4	-62.6	3.6	1.51e+00	0	38	104	0	60	48717
2026-01-02 17:29:27.44	30.51	1.56	-47.4	-62.6	3.6	1.51e+00	0	38	104	0	60	48628
2026-01-02 17:29:28.45	30.44	1.61	-47.4	-62.6	3.6	1.51e+00	0	38	104	0	60	48674
2026-01-02 17:29:29.46	30.38	1.67	-47.4	-62.6	3.6	1.51e+00	0	38	104	0	60	48810
2026-01-02 17:29:30.47	30.31	1.72	-47.4	-62.6	3.6	1.51e+00	0	38	104	0	60	48992
2026-01-02 17:29:31.48	30.24	1.78	-47.4	-62.6	3.6	1.51e+00	0	38	104	0	60	48978
2026-01-02 17:29:32.49	30.17	1.83	-47.4	-62.6	3.6	1.51e+00	0	38	104	0	60	48928
2026-01-02 17:29:33.51	30.11	1.89	-47.4	-62.7	3.6	1.51e+00	0	38	104	0	60	49055
2026-01-02 17:29:34.51	30.04	1.95	-47.4	-62.6	3.6	1.51e+00	0	38	104	0	60	48851
2026-01-02 17:29:35.53	29.97	2.00	-47.4	-62.6	3.6	1.51e+00	0	38	104	0	60	48582
2026-01-02 17:29:36.54	29.90	2.06	-47.4	-62.5	3.5	1.51e+00	0	38	104	0	60	48292
2026-01-02 17:29:37.55	29.83	2.11	-47.4	-62.3	3.6	1.51e+00	0	38	104	0	60	47331
2026-01-02 17:29:38.56	29.76	2.17	-47.4	-62.3	3.6	1.51e+00	0	38	104	0	60	47202
2026-01-02 17:29:39.56	29.69	2.23	-47.4	-62.2	3.6	1.51e+00	0	38	104	0	60	46460
2026-01-02 17:29:40.58	29.62	2.28	-47.4	-62.2	3.6	1.51e+00	0	38	104	0	60	46553
2026-01-02 17:29:41.59	29.55	2.34	-47.4	-62.4	3.6	1.51e+00	0	38	104	0	60	47849
2026-01-02 17:29:42.60	29.48	2.40	-47.4	-62.5	3.6	1.51e+00	0	38	104	0	60	48425
2026-01-02 17:29:43.61	29.41	2.45	-47.4	-62.6	3.6	1.51e+00	0	38	104	0	60	48800
2026-01-02 17:29:44.61	29.34	2.51	-47.4	-62.6	3.6	1.51e+00	0	38	104	0	60	48658
2026-01-02 17:29:45.62	29.27	2.56	-47.4	-62.5	3.6	1.51e+00	0	38	104	0	60	48373
2026-01-02 17:29:46.63	29.20	2.62	-47.4	-62.6	3.6	1.51e+00	0	38	104	0	60	48747
2026-01-02 17:29:47.65	29.13	2.68	-47.4	-62.6	3.6	1.51e+00	0	38	104	0	60	48882
2026-01-02 17:29:48.65	29.05	2.73	-47.4	-62.5	3.6	1.51e+00	0	38	104	0	60	48042
2026-01-02 17:29:49.66	28.98	2.79	-47.4	-62.2	3.6	1.51e+00	0	38	104	0	60	46397
2026-01-02 17:29:50.67	28.91	2.85	-47.4	-61.9	3.6	1.51e+00	0	38	104	0	60	45225
2026-01-02 17:29:51.69	28.83	2.91	-47.4	-61.7	3.6	1.51e+00	0	38	104	0	60	44097
2026-01-02 17:29:52.69	28.76	2.96	-47.4	-62.3	3.6	1.51e+00	0	38	104	0	60	47320
2026-01-02 17:29:53.71	28.69	3.02	-47.4	-62.3	3.6	1.51e+00	0	38	104	0	60	47081
2026-01-02 17:29:54.72	28.61	3.08	-47.3	-60.4	3.6	1.51e+00	0	38	104	0	60	37788
2026-01-02 17:29:55.73	28.54	3.13	-47.1	-57.5	4.6	1.20e+00	0	39	104	0	60	26998
2026-01-02 17:29:56.74	28.46	3.19	-46.8	-54.4	6.1	3.96e-01	92	39	0	1048576	60	18988
2026-01-02 17:29:57.75	28.39	3.25	-46.3	-52.3	8.7	6.61e-02	0	39	0	3145728	60	14946
2026-01-02 17:29:58.76	28.31	3.31	-46.6	-53.4	7.3	4.38e-02	91	38	0	5242880	60	16816
2026-01-02 17:29:59.77	28.24	3.36	-47.5	-62.2	3.6	4.95e-01	0	38	104	6291456	60	46610
2026-01-02 17:30:00.78	28.16	3.42	-46.0	-51.6	9.7	1.51e+00	24	38	104	6291456	60	13744
2026-01-02 17:30:01.78	28.09	3.48	-42.8	-45.0	16.9	1.17e-03	0	38	0	6291456	60	6402
2026-01-02 17:30:02.79	28.01	3.54	-47.4	-61.9	3.6	1.33e-03	0	38	104	8388608	60	44782
2026-01-02 17:30:03.80	27.93	3.59	-44.6	-48.2	5.9	1.51e+00	91	39	104	8388608	60	9239
2026-01-02 17:30:04.81	27.86	3.65	-42.5	-44.5	17.2	0.00e+00	65	39	0	8388608	58	6802
2026-01-02 17:30:05.82	27.78	3.71	-42.8	-44.9	16.8	0.00e+00	90	38	0	10485760	58	7126
2026-01-02 17:30:06.83	27.70	3.77	-42.6	-44.7	17.3	0.00e+00	16	38	0	11534336	58	6941
2026-01-02 17:30:07.84	27.62	3.83	-42.7	-44.8	17.1	0.00e+00	92	39	0	13631488	58	7056
2026-01-02 17:30:08.84	27.55	3.88	-43.1	-45.3	16.6	0.00e+00	0	38	0	15728640	58	7480
2026-01-02 17:30:09.85	27.47	3.94	-42.8	-44.9	17.1	0.00e+00	0	39	0	17825792	58	7098
2026-01-02 17:30:10.86	27.39	4.00	-42.8	-44.8	17.2	0.00e+00	64	38	0	19922944	58	7063
2026-01-02 17:30:11.87	27.31	4.06	-42.9	-44.9	17.0	0.00e+00	59	39	0	22020096	58	7161
2026-01-02 17:30:12.88	27.23	4.12	-42.8	-44.8	17.0	0.00e+00	92	39	0	23068672	58	7086
2026-01-02 17:30:13.89	27.15	4.18	-42.9	-44.9	17.1	0.00e+00	59	39	0	25165824	58	7158
2026-01-02 17:30:14.90	27.07	4.24	-42.9	-44.9	17.1	0.00e+00	90	38	0	27262976	58	7136
2026-01-02 17:30:15.91	26.99	4.29	-42.6	-44.6	17.5	0.00e+00	0	39	0	29360128	58	6861
2026-01-02 17:30:16.92	26.91	4.35	-43.0	-45.1	16.9	0.00e+00	0	39	0	31457280	58	7296
2026-01-02 17:30:17.92	26.83	4.41	-42.8	-44.8	17.2	0.00e+00	0	39	0	32505856	58	7075
2026-01-02 17:30:18.93	26.75	4.47	-42.8	-44.8	17.0	0.00e+00	0	39	0	34603008	58	7058
2026-01-02 17:30:19.94	26.66	4.53	-42.5	-44.4	17.7	0.00e+00	92	39	0	36700160	58	6732
2026-01-02 17:30:20.95	26.58	4.59	-42.7	-44.7	17.4	0.00e+00	0	39	0	38797312	58	6942
2026-01-02 17:30:21.96	26.50	4.65	-42.5	-44.4	17.8	0.00e+00	90	39	0	40894464	58	6733
2026-01-02 17:30:22.97	26.42	4.71	-42.8	-44.7	17.5	0.00e+00	0	39	0	41943040	58	6978
2026-01-02 17:30:23.98	26.33	4.77	-42.5	-44.3	17.9	0.00e+00	21	39	0	44040192	58	6656
2026-01-02 17:30:24.99	26.25	4.83	-42.7	-44.6	17.6	0.00e+00	21	39	0	46137344	58	6906
2026-01-02 17:30:26.00	26.16	4.89	-42.4	-44.2	17.9	0.00e+00	61	39	0	48234496	58	6568
2026-01-02 17:30:27.01	26.08	4.94	-42.4	-44.2	18.0	0.00e+00	1	39	0	50331648	58	6613
2026-01-02 17:30:28.02	25.99	5.00	-42.4	-44.2	18.3	0.00e+00	21	39	0	51380224	58	6541
2026-01-02 17:30:29.02	25.91	5.06	-42.4	-44.2	17.9	0.00e+00	92	39	0	53477376	58	6608
2026-01-02 17:30:30.03	25.82	5.12	-42.4	-44.3	18.1	0.00e+00	23	39	0	55574528	58	6620
2026-01-02 17:30:31.04	25.74	5.18	-42.6	-44.4	17.8	0.00e+00	92	39	0	57671680	58	6758
2026-01-02 17:30:32.05	25.65	5.24	-42.3	-44.1	18.1	0.00e+00	59	39	0	59768832	58	6510
2026-01-02 17:30:33.06	25.57	5.30	-42.3	-44.1	18.1	0.00e+00	0	39	0	60817408	58	6499
2026-01-02 17:30:34.07	25.48	5.36	-42.4	-44.3	18.1	0.00e+00	0	39	0	62914560	58	6621
2026-01-02 17:30:35.08	25.39	5.42	-42.4	-44.2	18.1	0.00e+00	0	39	0	65011712	58	6587
2026-01-02 17:30:36.09	25.30	5.48	-42.8	-44.7	17.6	0.00e+00	92	39	0	67108864	58	6960
2026-01-02 17:30:37.10	25.21	5.54	-42.6	-44.4	18.0	0.00e+00	0	39	0	69206016	58	6757
2026-01-02 17:30:38.11	25.13	5.60	-42.6	-44.4	17.8	0.00e+00	92	39	0	70254592	58	6764
2026-01-02 17:30:39.12	25.04	5.66	-42.5	-44.2	18.2	0.00e+00	0	39	0	72351744	58	6606
2026-01-02 17:30:40.12	24.95	5.72	-42.5	-44.3	18.0	0.00e+00	0	39	0	74448896	58	6647
2026-01-02 17:30:41.13	24.86	5.79	-42.5	-44.3	18.0	0.00e+00	0	39	0	76546048	58	6646
2026-01-02 17:30:42.14	24.77	5.85	-42.6	-44.5	17.9	0.00e+00	0	39	0	78643200	58	6782
2026-01-02 17:30:43.15	24.68	5.91	-42.3	-44.0	18.3	0.00e+00	13	39	0	79691776	58	6420
2026-01-02 17:30:44.17	24.59	5.97	-42.4	-44.2	18.3	0.00e+00	0	39	0	81788928	58	6556
2026-01-02 17:30:45.17	24.50	6.03	-42.4	-44.1	18.2	0.00e+00	91	39	0	83886080	58	6532
2026-01-02 17:30:46.18	24.40	6.09	-42.2	-43.9	18.5	0.00e+00	24	39	0	85983232	58	6350
2026-01-02 17:30:47.19	24.31	6.15	-42.4	-44.1	18.4	0.00e+00	23	39	0	88080384	58	6487
2026-01-02 17:30:48.20	24.22	6.21	-42.3	-44.0	18.4	0.00e+00	58	39	0	90177536	58	6403
2026-01-02 17:30:49.21	24.13	6.27	-42.2	-43.9	18.5	0.00e+00	24	39	0	91226112	58	6344
2026-01-02 17:30:50.22	24.03	6.33	-42.3	-44.0	18.5	0.00e+00	0	39	0	93323264	58	6415
2026-01-02 17:30:51.23	23.94	6.39	-42.3	-44.0	18.4	0.00e+00	0	39	0	95420416	58	6444
2026-01-02 17:30:52.24	23.85	6.46	-42.2	-43.9	18.6	0.00e+00	90	39	0	97517568	58	6359
2026-01-02 17:30:53.25	23.75	6.52	-42.3	-44.0	18.4	0.00e+00	63	39	0	99614720	58	6445
2026-01-02 17:30:54.25	23.66	6.58	-42.2	-43.8	18.6	0.00e+00	92	39	0	100663296	58	6307
2026-01-02 17:30:55.27	23.56	6.64	-42.1	-43.7	18.8	0.00e+00	59	39	0	102760448	58	6201
2026-01-02 17:30:56.28	23.46	6.70	-42.1	-43.7	18.7	0.00e+00	0	39	0	104857600	58	6231
2026-01-02 17:30:57.29	23.37	6.76	-42.0	-43.6	18.9	0.00e+00	59	39	0	106954752	58	6150
2026-01-02 17:30:58.30	23.27	6.83	-42.2	-43.8	18.7	0.00e+00	0	39	0	109051904	58	6286
2026-01-02 17:30:59.30	23.18	6.89	-42.3	-43.9	18.6	0.00e+00	92	39	0	110100480	58	6387
2026-01-02 17:31:00.31	23.08	6.95	-42.0	-43.6	18.9	0.00e+00	0	39	0	112197632	58	6149
2026-01-02 17:31:01.32	22.98	7.01	-42.2	-43.8	18.7	0.00e+00	92	39	0	114294784	58	6276
2026-01-02 17:31:02.33	22.88	7.07	-41.7	-43.3	19.1	0.00e+00	0	39	0	116391936	58	5906
2026-01-02 17:31:03.34	22.78	7.13	-41.6	-43.1	19.4	0.00e+00	17	39	0	118489088	56	6500
2026-01-02 17:31:04.35	22.68	7.20	-41.7	-43.2	19.2	0.00e+00	14	39	0	119537664	56	6614
2026-01-02 17:31:05.36	22.58	7.26	-41.7	-43.2	19.4	0.00e+00	0	39	0	121634816	56	6579
2026-01-02 17:31:06.37	22.48	7.32	-41.7	-43.2	19.4	0.00e+00	42	39	0	123731968	56	6568
2026-01-02 17:31:07.38	22.38	7.38	-41.8	-43.4	19.3	0.00e+00	0	39	0	125829120	56	6694
2026-01-02 17:31:08.39	22.28	7.45	-41.8	-43.3	19.3	0.00e+00	92	39	0	127926272	56	6641
2026-01-02 17:31:09.40	22.18	7.51	-41.8	-43.3	19.3	0.00e+00	63	39	0	128974848	56	6690
2026-01-02 17:31:10.41	22.08	7.57	-41.6	-43.1	19.4	0.00e+00	87	39	0	131072000	56	6514
2026-01-02 17:31:11.42	21.98	7.63	-41.7	-43.2	19.4	0.00e+00	23	39	0	133169152	56	6581
2026-01-02 17:31:12.43	21.87	7.70	-41.7	-43.2	19.3	0.00e+00	59	39	0	135266304	56	6544
2026-01-02 17:31:13.44	21.77	7.76	-41.6	-43.1	19.5	0.00e+00	19	39	0	137363456	56	6489
2026-01-02 17:31:14.45	21.67	7.82	-41.7	-43.2	19.5	0.00e+00	6	39	0	138412032	56	6541
2026-01-02 17:31:15.46	21.56	7.89	-41.7	-43.1	19.5	0.00e+00	92	39	0	140509184	56	6527
2026-01-02 17:31:16.47	21.46	7.95	-41.6	-43.1	19.5	0.00e+00	5	39	0	142606336	56	6504
2026-01-02 17:31:17.48	21.35	8.01	-41.7	-43.2	19.4	0.00e+00	90	39	0	144703488	56	6607
2026-01-02 17:31:18.49	21.25	8.07	-42.0	-43.6	19.2	0.00e+00	59	39	0	146800640	56	6852
2026-01-02 17:31:19.50	21.14	8.14	-41.9	-43.4	19.2	0.00e+00	0	39	0	147849216	56	6748
2026-01-02 17:31:20.50	21.03	8.20	-41.8	-43.3	19.3	0.00e+00	6	39	0	149946368	56	6685
2026-01-02 17:31:21.51	20.93	8.26	-41.8	-43.3	19.4	0.00e+00	5	39	0	152043520	56	6680
2026-01-02 17:31:22.52	20.82	8.33	-41.8	-43.4	19.3	0.00e+00	91	39	0	154140672	56	6702
2026-01-02 17:31:23.53	20.71	8.39	-41.7	-43.2	19.3	0.00e+00	5	39	0	156237824	56	6603
2026-01-02 17:31:24.54	20.60	8.45	-41.7	-43.2	19.4	0.00e+00	91	39	0	158334976	56	6580
2026-01-02 17:31:25.55	20.49	8.52	-41.8	-43.3	19.3	0.00e+00	23	39	0	159383552	56	6681
2026-01-02 17:31:26.56	20.38	8.58	-41.8	-43.3	19.2	0.00e+00	0	39	0	161480704	56	6652
2026-01-02 17:31:27.57	20.27	8.64	-42.0	-43.5	19.1	0.00e+00	0	39	0	163577856	56	6848
2026-01-02 17:31:28.58	20.16	8.71	-42.1	-43.7	19.0	0.00e+00	0	39	0	165675008	56	6991
2026-01-02 17:31:29.59	20.05	8.77	-41.9	-43.4	19.3	0.00e+00	23	39	0	167772160	56	6757
2026-01-02 17:31:30.60	19.94	8.84	-41.8	-43.3	19.4	0.00e+00	62	39	0	168820736	56	6658
2026-01-02 17:31:31.61	19.83	8.90	-41.9	-43.4	19.3	0.00e+00	92	39	0	170917888	56	6731
2026-01-02 17:31:32.62	19.72	8.96	-41.8	-43.3	19.4	0.00e+00	17	39	0	173015040	56	6645
2026-01-02 17:31:33.63	19.60	9.03	-41.8	-43.3	19.4	0.00e+00	87	39	0	175112192	56	6683
2026-01-02 17:31:34.64	19.49	9.09	-41.7	-43.2	19.4	0.00e+00	70	39	0	176160768	56	6576
2026-01-02 17:31:35.65	19.38	9.16	-41.8	-43.3	19.3	0.00e+00	69	39	0	178257920	56	6664
2026-01-02 17:31:36.66	19.26	9.22	-41.8	-43.3	19.3	0.00e+00	80	39	0	180355072	56	6686
2026-01-02 17:31:37.67	19.15	9.28	-41.8	-43.2	19.4	0.00e+00	0	39	0	182452224	56	6607
2026-01-02 17:31:38.68	19.03	9.35	-41.7	-43.1	19.6	0.00e+00	92	39	0	184549376	56	6522
2026-01-02 17:31:39.69	18.92	9.41	-41.7	-43.1	19.6	0.00e+00	71	39	0	186646528	56	6532
2026-01-02 17:31:40.70	18.80	9.48	-41.7	-43.2	19.6	0.00e+00	92	39	0	187695104	56	6565
2026-01-02 17:31:41.71	18.68	9.54	-41.5	-43.0	19.7	0.00e+00	0	39	0	189792256	56	6425
2026-01-02 17:31:42.72	18.56	9.61	-41.6	-43.1	19.7	0.00e+00	8	39	0	191889408	56	6474
2026-01-02 17:31:43.73	18.45	9.67	-41.5	-42.9	19.8	0.00e+00	0	39	0	193986560	56	6360
2026-01-02 17:31:44.74	18.33	9.74	-41.4	-42.8	20.0	0.00e+00	0	39	0	196083712	56	6281
2026-01-02 17:31:45.75	18.21	9.80	-41.5	-42.9	19.8	0.00e+00	92	39	0	197132288	56	6350
2026-01-02 17:31:46.76	18.09	9.86	-41.5	-42.9	19.9	0.00e+00	0	39	0	199229440	56	6329
2026-01-02 17:31:47.77	17.97	9.93	-41.5	-42.9	19.8	0.00e+00	92	39	0	201326592	56	6359
2026-01-02 17:31:48.78	17.85	9.99	-41.4	-42.8	20.0	0.00e+00	25	39	0	203423744	56	6275
2026-01-02 17:31:49.79	17.72	10.06	-41.3	-42.7	20.0	0.00e+00	26	39	0	205520896	56	6204
2026-01-02 17:31:50.80	17.60	10.12	-41.3	-42.7	20.1	0.00e+00	24	39	0	206569472	56	6179
2026-01-02 17:31:51.81	17.48	10.19	-41.2	-42.5	20.2	0.00e+00	23	39	0	208666624	56	6083
2026-01-02 17:31:52.82	17.36	10.25	-41.2	-42.6	20.1	0.00e+00	92	39	0	210763776	56	6115
2026-01-02 17:31:53.83	17.23	10.32	-41.3	-42.7	20.1	0.00e+00	24	39	0	212860928	56	6209
2026-01-02 17:31:54.84	17.11	10.38	-41.5	-42.9	19.8	0.00e+00	92	39	0	214958080	56	6375
2026-01-02 17:31:55.85	16.98	10.45	-41.3	-42.7	20.1	0.00e+00	2	39	0	216006656	56	6209
2026-01-02 17:31:56.86	16.86	10.51	-41.2	-42.5	20.2	0.00e+00	92	39	0	218103808	56	6101
2026-01-02 17:31:57.87	16.73	10.58	-41.4	-42.8	20.1	0.00e+00	0	39	0	220200960	56	6276
2026-01-02 17:31:58.88	16.61	10.64	-41.3	-42.7	20.0	0.00e+00	0	39	0	222298112	56	6189
2026-01-02 17:31:59.89	16.48	10.71	-41.2	-42.6	20.2	0.00e+00	68	39	0	224395264	56	6123
2026-01-02 17:32:00.90	16.35	10.77	-41.2	-42.5	20.2	0.00e+00	0	39	0	226492416	56	6069
2026-01-02 17:32:01.91	16.22	10.84	-41.3	-42.6	20.2	0.00e+00	92	39	0	227540992	56	6173
2026-01-02 17:32:02.92	16.09	10.90	-41.1	-42.4	20.0	0.00e+00	0	39	0	229638144	56	5990
2026-01-02 17:32:03.93	15.96	10.97	-41.0	-42.3	20.5	0.00e+00	91	39	0	231735296	56	5958
2026-01-02 17:32:04.94	15.83	11.03	-41.1	-42.4	20.4	0.00e+00	2	39	0	233832448	56	5985
2026-01-02 17:32:05.95	15.70	11.10	-41.0	-42.3	20.6	0.00e+00	0	39	0	235929600	56	5897
2026-01-02 17:32:06.95	15.57	11.17	-41.0	-42.3	20.5	0.00e+00	0	39	0	236978176	56	5946
2026-01-02 17:32:07.96	15.44	11.23	-41.1	-42.4	20.4	0.00e+00	0	39	0	239075328	56	5986
2026-01-02 17:32:08.98	15.31	11.30	-40.9	-42.1	20.7	0.00e+00	91	39	0	241172480	56	5809
2026-01-02 17:32:09.98	15.17	11.36	-40.8	-42.1	20.7	0.00e+00	19	39	0	243269632	56	5777
2026-01-02 17:32:10.99	15.04	11.43	-40.5	-41.7	21.0	0.00e+00	90	39	0	245366784	54	6235
2026-01-02 17:32:12.00	14.91	11.49	-40.6	-41.8	21.0	0.00e+00	58	39	0	246415360	54	6247
2026-01-02 17:32:13.01	14.77	11.56	-40.6	-41.8	21.0	0.00e+00	59	39	0	248512512	54	6260
2026-01-02 17:32:14.02	14.64	11.62	-40.6	-41.8	21.0	0.00e+00	56	39	0	250609664	54	6267
2026-01-02 17:32:15.03	14.50	11.69	-40.6	-41.8	21.0	0.00e+00	56	39	0	252706816	54	6273
2026-01-02 17:32:16.04	14.36	11.75	-40.5	-41.7	21.0	0.00e+00	7	39	0	254803968	54	6202
2026-01-02 17:32:17.05	14.23	11.82	-40.5	-41.7	21.0	0.00e+00	57	39	0	255852544	54	6243
2026-01-02 17:32:18.06	14.09	11.89	-40.7	-41.9	20.8	0.00e+00	92	39	0	257949696	54	6369
2026-01-02 17:32:19.07	13.95	11.95	-40.6	-41.9	20.9	0.00e+00	0	39	0	260046848	54	6334
2026-01-02 17:32:20.08	13.81	12.02	-40.6	-41.8	21.0	0.00e+00	75	39	0	262144000	54	6289
2026-01-02 17:32:21.09	13.67	12.08	-40.5	-41.7	21.1	0.00e+00	2	39	0	264241152	54	6232
2026-01-02 17:32:22.09	13.53	12.15	-40.5	-41.7	21.1	0.00e+00	0	39	0	265289728	54	6229
2026-01-02 17:32:23.10	13.39	12.21	-40.5	-41.7	21.1	0.00e+00	0	39	0	267386880	54	6176
2026-01-02 17:32:24.11	13.25	12.28	-40.4	-41.6	21.2	0.00e+00	0	39	0	269484032	54	6140
2026-01-02 17:32:25.12	13.10	12.34	-40.4	-41.6	21.2	0.00e+00	92	39	0	271581184	54	6133
2026-01-02 17:32:26.13	12.96	12.41	-40.5	-41.7	21.1	0.00e+00	0	39	0	273678336	54	6232
2026-01-02 17:32:27.14	12.82	12.48	-40.6	-41.8	21.0	0.00e+00	92	39	0	274726912	54	6282
2026-01-02 17:32:28.15	12.67	12.54	-40.7	-41.9	20.9	0.00e+00	25	39	0	276824064	54	6352
2026-01-02 17:32:29.16	12.53	12.61	-40.5	-41.6	21.2	0.00e+00	0	39	0	278921216	54	6162
2026-01-02 17:32:30.17	12.38	12.67	-40.4	-41.6	21.2	0.00e+00	0	39	0	281018368	54	6161
2026-01-02 17:32:31.18	12.23	12.74	-40.5	-41.6	21.2	0.00e+00	26	39	0	283115520	54	6169
2026-01-02 17:32:32.19	12.09	12.80	-40.4	-41.6	21.2	0.00e+00	90	39	0	284164096	54	6126
2026-01-02 17:32:33.20	11.94	12.87	-40.6	-41.8	21.1	0.00e+00	62	39	0	286261248	54	6247
2026-01-02 17:32:34.21	11.79	12.93	-40.6	-41.8	21.0	0.00e+00	92	39	0	288358400	54	6275
2026-01-02 17:32:35.22	11.64	13.00	-40.5	-41.7	21.1	0.00e+00	0	39	0	290455552	54	6215
2026-01-02 17:32:36.22	11.49	13.06	-40.5	-41.7	21.1	0.00e+00	35	39	0	292552704	54	6227
2026-01-02 17:32:37.23	11.34	13.13	-40.6	-41.8	21.0	0.00e+00	25	39	0	293601280	54	6305
2026-01-02 17:32:38.24	11.19	13.20	-40.6	-41.9	21.0	0.00e+00	55	39	0	295698432	54	6319
2026-01-02 17:32:39.25	11.04	13.26	-40.7	-41.9	20.9	0.00e+00	2	39	0	297795584	54	6384
2026-01-02 17:32:40.26	10.89	13.33	-40.7	-41.9	21.0	0.00e+00	60	39	0	299892736	54	6350
2026-01-02 17:32:41.27	10.73	13.39	-40.7	-41.9	21.0	0.00e+00	92	39	0	301989888	54	6342
2026-01-02 17:32:42.28	10.58	13.46	-40.7	-41.9	21.0	0.00e+00	2	39	0	303038464	54	6334
2026-01-02 17:32:43.29	10.43	13.52	-40.9	-42.1	20.8	0.00e+00	82	39	0	305135616	54	6512
2026-01-02 17:32:44.30	10.27	13.59	-40.8	-42.0	20.9	0.00e+00	0	39	0	307232768	54	6446
2026-01-02 17:32:45.31	10.11	13.65	-40.8	-42.1	20.8	0.00e+00	0	39	0	309329920	54	6490
2026-01-02 17:32:46.32	9.96	13.72	-40.9	-42.1	20.8	0.00e+00	0	39	0	311427072	54	6533
2026-01-02 17:32:47.33	9.80	13.78	-40.9	-42.1	20.9	0.00e+00	0	39	0	312475648	54	6512
2026-01-02 17:32:48.34	9.64	13.85	-40.8	-42.1	20.9	0.00e+00	92	39	0	314572800	54	6475
2026-01-02 17:32:49.35	9.48	13.91	-40.7	-41.9	21.0	0.00e+00	20	39	0	316669952	54	6362
2026-01-02 17:32:50.36	9.32	13.98	-40.7	-41.9	21.0	0.00e+00	90	39	0	318767104	54	6367
2026-01-02 17:32:51.37	9.16	14.04	-40.8	-42.0	21.0	0.00e+00	0	39	0	320864256	54	6423
2026-01-02 17:32:52.38	9.00	14.11	-40.9	-42.2	20.7	0.00e+00	0	39	0	322961408	54	6554
2026-01-02 17:32:53.39	8.84	14.17	-40.8	-42.0	21.0	0.00e+00	0	39	0	324009984	54	6412
2026-01-02 17:32:54.40	8.68	14.24	-40.8	-42.1	20.9	0.00e+00	24	39	0	326107136	54	6490
2026-01-02 17:32:55.41	8.51	14.30	-40.8	-42.0	20.9	0.00e+00	92	39	0	328204288	54	6432
2026-01-02 17:32:56.42	8.35	14.37	-40.8	-42.0	20.9	0.00e+00	20	39	0	330301440	54	6432
2026-01-02 17:32:57.43	8.18	14.43	-40.9	-42.1	20.8	0.00e+00	92	39	0	332398592	54	6514
2026-01-02 17:32:58.43	8.02	14.50	-41.1	-42.4	20.6	0.00e+00	0	39	0	333447168	54	6704
2026-01-02 17:32:59.44	7.85	14.56	-41.0	-42.3	20.5	0.00e+00	5	39	0	335544320	54	6629
2026-01-02 17:33:00.45	7.69	14.63	-41.3	-42.7	20.6	0.00e+00	56	39	0	337641472	54	6933
2026-01-02 17:33:01.46	7.52	14.69	-41.1	-42.4	20.6	0.00e+00	55	39	0	339738624	54	6745
2026-01-02 17:33:02.47	7.35	14.75	-41.3	-42.6	20.3	0.00e+00	83	39	0	341835776	54	6879
2026-01-02 17:33:03.48	7.18	14.82	-41.1	-42.4	20.5	0.00e+00	55	39	0	342884352	54	6750
2026-01-02 17:33:04.49	7.01	14.88	-41.1	-42.4	20.6	0.00e+00	92	39	0	344981504	54	6695
2026-01-02 17:33:05.50	6.84	14.95	-41.1	-42.4	20.5	0.00e+00	7	39	0	347078656	54	6718
2026-01-02 17:33:06.51	6.67	15.01	-41.1	-42.4	20.6	0.00e+00	1	39	0	349175808	54	6740
2026-01-02 17:33:07.52	6.50	15.07	-41.1	-42.4	20.6	0.00e+00	5	38	0	351272960	54	6752
2026-01-02 17:33:08.53	6.33	15.14	-41.3	-42.6	20.5	0.00e+00	6	39	0	352321536	54	6878
2026-01-02 17:33:09.54	6.15	15.20	-41.0	-42.3	20.8	0.00e+00	6	39	0	354418688	54	6616
2026-01-02 17:33:10.55	5.98	15.26	-41.0	-42.3	20.8	0.00e+00	25	39	0	356515840	54	6643
2026-01-02 17:33:11.56	5.80	15.33	-40.9	-42.2	20.8	0.00e+00	92	39	0	358612992	54	6568
2026-01-02 17:33:12.57	5.63	15.39	-41.0	-42.3	20.8	0.00e+00	0	39	0	360710144	54	6624
2026-01-02 17:33:13.58	5.45	15.45	-41.0	-42.3	20.7	0.00e+00	92	39	0	361758720	54	6649
2026-01-02 17:33:14.59	5.27	15.52	-41.0	-42.3	20.8	0.00e+00	20	39	0	363855872	54	6616
2026-01-02 17:33:15.60	5.09	15.58	-41.1	-42.3	20.7	0.00e+00	61	39	0	365953024	54	6680
2026-01-02 17:33:16.61	4.92	15.64	-41.2	-42.5	20.6	0.00e+00	22	39	0	368050176	54	6795
2026-01-02 17:33:17.62	4.74	15.71	-41.1	-42.4	20.6	0.00e+00	63	39	0	370147328	54	6747
2026-01-02 17:33:18.63	4.56	15.77	-41.2	-42.5	20.6	0.00e+00	92	39	0	371195904	54	6806
2026-01-02 17:33:19.64	4.37	15.83	-41.0	-42.3	20.7	0.00e+00	25	39	0	373293056	54	6660
2026-01-02 17:33:20.65	4.19	15.89	-41.0	-42.3	20.7	0.00e+00	91	39	0	375390208	54	6676
2026-01-02 17:33:21.66	4.01	15.96	-40.6	-41.8	21.3	0.00e+00	7	38	0	377487360	54	6271
2026-01-02 17:33:22.67	3.83	16.02	-40.6	-41.8	21.3	0.00e+00	5	39	0	379584512	54	6257
2026-01-02 17:33:23.68	3.64	16.08	-40.5	-41.6	21.4	0.00e+00	6	39	0	380633088	54	6163
2026-01-02 17:33:24.68	3.46	16.14	-40.2	-41.3	21.7	0.00e+00	7	39	0	382730240	54	5945
2026-01-02 17:33:25.69	3.27	16.20	-40.3	-41.4	21.6	0.00e+00	90	39	0	384827392	54	5980
2026-01-02 17:33:26.70	3.09	16.26	-40.0	-41.1	21.9	0.00e+00	7	39	0	386924544	54	5815
2026-01-02 17:33:27.71	2.90	16.32	-39.9	-41.0	22.0	0.00e+00	92	39	0	389021696	54	5738
2026-01-02 17:33:28.72	2.71	16.39	-39.9	-41.0	22.0	0.00e+00	0	39	0	391118848	54	5729
2026-01-02 17:33:29.73	2.52	16.45	-40.0	-41.1	22.0	0.00e+00	11	39	0	392167424	54	5784
2026-01-02 17:33:30.74	2.33	16.51	-40.0	-41.1	21.9	0.00e+00	6	39	0	394264576	54	5824
2026-01-02 17:33:31.75	2.14	16.57	-39.9	-41.0	22.1	0.00e+00	26	39	0	396361728	54	5702
2026-01-02 17:33:32.76	1.95	16.63	-39.8	-40.8	22.2	0.00e+00	3	39	0	398458880	52	6315
2026-01-02 17:33:33.77	1.76	16.69	-39.7	-40.7	22.3	0.00e+00	26	39	0	400556032	52	6241
2026-01-02 17:33:34.78	1.56	16.75	-39.6	-40.6	22.4	0.00e+00	91	39	0	401604608	52	6150
2026-01-02 17:33:35.79	1.37	16.81	-39.3	-40.3	22.6	0.00e+00	27	39	0	403701760	52	5962
2026-01-02 17:33:36.80	1.18	16.87	-39.2	-40.3	22.7	0.00e+00	92	39	0	405798912	52	5907
2026-01-02 17:33:37.81	0.98	16.93	-39.4	-40.4	22.6	0.00e+00	23	39	0	407896064	52	6022
2026-01-02 17:33:38.81	0.79	16.99	-39.2	-40.1	22.8	0.00e+00	60	39	0	409993216	52	5822
2026-01-02 17:33:39.82	0.59	17.05	-39.2	-40.2	22.8	0.00e+00	26	39	0	411041792	52	5839
2026-01-02 17:33:40.83	0.39	17.11	-39.1	-40.1	22.9	0.00e+00	56	39	0	413138944	52	5776
2026-01-02 17:33:41.84	0.19	17.16	-39.1	-40.0	23.0	0.00e+00	92	39	0	415236096	52	5740
2026-01-02 17:33:42.85	360.00	17.22	-38.8	-39.8	23.2	0.00e+00	56	39	0	417333248	52	5583
2026-01-02 17:33:43.86	359.80	17.28	-39.0	-39.9	23.0	0.00e+00	92	39	0	419430400	52	5672
2026-01-02 17:33:44.87	359.59	17.34	-38.8	-39.7	23.2	0.00e+00	66	39	0	420478976	52	5559
2026-01-02 17:33:45.88	359.39	17.40	-38.8	-39.7	23.2	0.00e+00	0	39	0	422576128	50	6229
2026-01-02 17:33:46.89	359.19	17.45	-38.7	-39.7	23.3	0.00e+00	0	39	0	424673280	50	6194
2026-01-02 17:33:47.90	358.99	17.51	-38.7	-39.6	23.3	0.00e+00	0	39	0	426770432	50	6132
2026-01-02 17:33:48.91	358.78	17.57	-38.7	-39.6	23.3	0.00e+00	0	39	0	428867584	50	6140
2026-01-02 17:33:49.92	358.58	17.63	-38.5	-39.4	23.0	0.00e+00	0	39	0	429916160	50	6029
2026-01-02 17:33:50.93	358.37	17.68	-38.5	-39.5	23.5	0.00e+00	92	39	0	432013312	50	6046
2026-01-02 17:33:51.94	358.17	17.74	-38.6	-39.5	23.4	0.00e+00	0	39	0	434110464	50	6092
2026-01-02 17:33:52.94	357.96	17.79	-38.7	-39.6	23.3	0.00e+00	27	39	0	436207616	50	6135
2026-01-02 17:33:53.95	357.76	17.85	-38.6	-39.5	23.2	0.00e+00	0	39	0	438304768	50	6102
2026-01-02 17:33:54.97	357.54	17.91	-38.7	-39.6	23.6	0.00e+00	3	39	0	439353344	50	6139
2026-01-02 17:33:55.97	357.34	17.96	-38.6	-39.5	23.3	0.00e+00	0	39	0	441450496	50	6075
2026-01-02 17:33:56.98	357.13	18.02	-38.8	-39.7	23.3	0.00e+00	0	39	0	443547648	50	6219
2026-01-02 17:33:58.00	356.91	18.07	-38.6	-39.6	23.3	0.00e+00	92	39	0	445644800	50	6106
2026-01-02 17:33:59.00	356.70	18.12	-38.4	-39.3	23.6	0.00e+00	27	39	0	447741952	50	5932
2026-01-02 17:34:00.01	356.49	18.18	-38.2	-39.1	23.8	0.00e+00	92	39	0	448790528	50	5783
2026-01-02 17:34:01.02	356.28	18.23	-38.3	-39.2	23.7	0.00e+00	62	39	0	450887680	50	5847
2026-01-02 17:34:02.03	356.07	18.29	-38.2	-39.1	23.7	0.00e+00	20	39	0	452984832	50	5796
2026-01-02 17:34:03.04	355.85	18.34	-38.2	-39.1	23.6	0.00e+00	0	39	0	455081984	50	5812
2026-01-02 17:34:04.05	355.64	18.39	-38.2	-39.1	23.8	0.00e+00	0	39	0	457179136	50	5780
2026-01-02 17:34:05.06	355.42	18.45	-38.2	-39.1	23.7	0.00e+00	90	39	0	459276288	50	5805
2026-01-02 17:34:06.07	355.20	18.50	-38.4	-39.3	23.6	0.00e+00	55	38	0	460324864	50	5928
2026-01-02 17:34:07.08	354.98	18.55	-38.4	-39.3	23.5	0.00e+00	92	39	0	462422016	50	5944
2026-01-02 17:34:08.09	354.77	18.60	-38.6	-39.6	23.4	0.00e+00	0	39	0	464519168	50	6126
2026-01-02 17:34:09.10	354.55	18.65	-38.6	-39.6	23.4	0.00e+00	73	39	0	466616320	50	6118
2026-01-02 17:34:10.11	354.33	18.70	-38.5	-39.4	23.5	0.00e+00	2	39	0	468713472	50	6027
2026-01-02 17:34:11.12	354.11	18.75	-38.6	-39.6	23.5	0.00e+00	2	39	0	469762048	50	6110
2026-01-02 17:34:12.13	353.88	18.80	-38.6	-39.5	23.4	0.00e+00	0	39	0	471859200	50	6067
2026-01-02 17:34:13.14	353.66	18.85	-38.6	-39.5	23.4	0.00e+00	2	39	0	473956352	50	6100
2026-01-02 17:34:14.15	353.44	18.90	-38.7	-39.6	23.2	0.00e+00	92	39	0	476053504	50	6160
2026-01-02 17:34:15.16	353.22	18.95	-38.8	-39.8	23.3	0.00e+00	0	39	0	478150656	50	6259
2026-01-02 17:34:16.17	352.99	19.00	-38.9	-39.8	23.2	0.00e+00	92	39	0	479199232	50	6304
2026-01-02 17:34:17.17	352.77	19.05	-38.8	-39.8	23.1	0.00e+00	0	39	0	481296384	50	6284
2026-01-02 17:34:18.18	352.54	19.10	-38.7	-39.7	23.3	0.00e+00	0	39	0	483393536	50	6210
2026-01-02 17:34:19.19	352.32	19.15	-38.8	-39.8	23.2	0.00e+00	0	39	0	485490688	50	6271
2026-01-02 17:34:20.20	352.09	19.19	-38.4	-39.3	23.6	0.00e+00	27	39	0	487587840	50	5955
2026-01-02 17:34:21.21	351.86	19.24	-38.3	-39.2	23.7	0.00e+00	92	39	0	488636416	50	5832
2026-01-02 17:34:22.22	351.63	19.29	-38.3	-39.2	23.8	0.00e+00	28	38	0	490733568	50	5840
2026-01-02 17:34:23.23	351.40	19.33	-38.2	-39.1	23.8	0.00e+00	90	39	0	492830720	50	5800
2026-01-02 17:34:24.24	351.17	19.38	-38.2	-39.1	23.8	0.00e+00	0	39	0	494927872	50	5806
2026-01-02 17:34:25.25	350.94	19.43	-38.1	-39.0	23.9	0.00e+00	62	39	0	497025024	50	5738
2026-01-02 17:34:26.26	350.71	19.47	-38.1	-39.0	23.7	0.00e+00	0	39	0	498073600	50	5727
2026-01-02 17:34:27.27	350.48	19.52	-37.9	-38.7	23.5	0.00e+00	0	39	0	500170752	50	5548
2026-01-02 17:34:28.28	350.24	19.56	-37.9	-38.7	24.2	0.00e+00	0	39	0	502267904	50	5528
2026-01-02 17:34:29.29	350.01	19.60	-37.9	-38.8	24.1	0.00e+00	0	39	0	504365056	50	5590
2026-01-02 17:34:30.30	349.78	19.65	-37.9	-38.8	24.0	0.00e+00	92	38	0	506462208	50	5578
2026-01-02 17:34:31.30	349.54	19.69	-37.9	-38.7	24.2	0.00e+00	0	39	0	507510784	50	5537
2026-01-02 17:34:32.31	349.31	19.73	-37.9	-38.8	24.0	0.00e+00	69	39	0	509607936	50	5598
2026-01-02 17:34:33.32	349.07	19.78	-37.9	-38.7	24.2	0.00e+00	0	39	0	511705088	50	5563
2026-01-02 17:34:34.33	348.84	19.82	-38.0	-38.9	23.9	0.00e+00	0	39	0	513802240	50	5664
2026-01-02 17:34:35.34	348.60	19.86	-38.1	-39.0	23.9	0.00e+00	0	39	0	515899392	50	5697
2026-01-02 17:34:36.35	348.36	19.90	-37.8	-38.7	24.2	0.00e+00	0	39	0	516947968	50	5527
2026-01-02 17:34:37.36	348.12	19.94	-37.7	-38.6	24.2	0.00e+00	90	39	0	519045120	50	5464
2026-01-02 17:34:38.38	347.88	19.98	-37.7	-38.5	24.3	0.00e+00	0	39	0	521142272	48	6079
2026-01-02 17:34:39.38	347.64	20.02	-37.8	-38.7	24.1	0.00e+00	90	39	0	523239424	48	6181
2026-01-02 17:34:40.39	347.40	20.06	-37.8	-38.6	24.2	0.00e+00	60	38	0	525336576	48	6141
2026-01-02 17:34:41.40	347.16	20.10	-37.8	-38.7	24.2	0.00e+00	62	39	0	527433728	48	6176
2026-01-02 17:34:42.41	346.92	20.13	-37.9	-38.8	24.1	0.00e+00	0	39	0	528482304	48	6254
2026-01-02 17:34:43.42	346.67	20.17	-37.6	-38.4	24.4	0.00e+00	0	39	0	530579456	48	6026
2026-01-02 17:34:44.43	346.43	20.21	-37.6	-38.5	24.3	0.00e+00	92	39	0	532676608	48	6062
2026-01-02 17:34:45.44	346.19	20.25	-37.5	-38.3	24.5	0.00e+00	27	39	0	534773760	48	5931
2026-01-02 17:34:46.45	345.94	20.28	-37.7	-38.5	24.3	0.00e+00	92	39	0	536870912	48	6082
2026-01-02 17:34:47.46	345.70	20.32	-37.8	-38.6	24.2	0.00e+00	56	39	0	537919488	48	6166
2026-01-02 17:34:48.47	345.45	20.35	-37.9	-38.7	24.2	0.00e+00	7	39	0	540016640	48	6210
2026-01-02 17:34:49.48	345.21	20.39	-37.9	-38.8	23.8	0.00e+00	62	39	0	542113792	48	6258
2026-01-02 17:34:50.49	344.96	20.42	-37.9	-38.7	24.1	0.00e+00	6	39	0	544210944	48	6222
2026-01-02 17:34:51.50	344.71	20.45	-37.8	-38.7	24.2	0.00e+00	26	39	0	546308096	48	6195
2026-01-02 17:34:52.51	344.47	20.49	-37.9	-38.7	24.1	0.00e+00	0	39	0	547356672	48	6212
2026-01-02 17:34:53.52	344.22	20.52	-38.0	-38.9	24.0	0.00e+00	90	39	0	549453824	48	6339
2026-01-02 17:34:54.53	343.97	20.55	-38.1	-39.0	23.9	0.00e+00	0	39	0	551550976	48	6411
2026-01-02 17:34:55.53	343.72	20.58	-38.2	-39.1	23.7	0.00e+00	88	39	0	553648128	48	6511
2026-01-02 17:34:56.54	343.47	20.61	-38.2	-39.1	23.8	0.00e+00	0	39	0	555745280	48	6507
2026-01-02 17:34:57.55	343.22	20.64	-38.2	-39.1	23.9	0.00e+00	0	39	0	556793856	48	6484
2026-01-02 17:34:58.56	342.97	20.67	-38.1	-39.0	23.9	0.00e+00	7	39	0	558891008	48	6417
2026-01-02 17:34:59.57	342.72	20.70	-38.2	-39.1	23.8	0.00e+00	25	39	0	560988160	48	6472
2026-01-02 17:35:00.58	342.47	20.73	-38.2	-39.1	23.8	0.00e+00	92	39	0	563085312	48	6514
2026-01-02 17:35:01.59	342.22	20.76	-38.5	-39.4	23.7	0.00e+00	25	39	0	565182464	48	6716
2026-01-02 17:35:02.60	341.96	20.79	-38.6	-39.5	23.5	0.00e+00	92	39	0	566231040	48	6814
2026-01-02 17:35:03.61	341.71	20.81	-38.8	-39.8	23.3	0.00e+00	25	39	0	568328192	50	6265
2026-01-02 17:35:04.62	341.46	20.84	-39.0	-40.0	23.0	0.00e+00	65	39	0	570425344	50	6407
2026-01-02 17:35:05.63	341.20	20.87	-38.9	-39.9	23.2	0.00e+00	4	39	0	572522496	50	6340
2026-01-02 17:35:06.64	340.95	20.89	-38.9	-39.9	23.2	0.00e+00	22	39	0	574619648	50	6328
2026-01-02 17:35:07.65	340.69	20.92	-39.0	-39.9	23.1	0.00e+00	92	39	0	575668224	50	6371
2026-01-02 17:35:08.66	340.44	20.94	-38.9	-39.9	23.1	0.00e+00	6	39	0	577765376	50	6348
2026-01-02 17:35:09.67	340.18	20.96	-39.1	-40.0	23.0	0.00e+00	92	39	0	579862528	50	6435
2026-01-02 17:35:10.59	339.95	20.99	-39.2	-40.2	22.8	0.00e+00	6	39	0	581959680	50	6563
2026-01-02 17:35:11.60	339.69	21.01	-39.3	-40.3	22.8	0.00e+00	61	39	0	584056832	50	6652
2026-01-02 17:35:12.61	339.43	21.03	-39.4	-40.3	22.7	0.00e+00	0	39	0	585105408	50	6689
2026-01-02 17:35:13.62	339.18	21.05	-39.4	-40.4	22.7	0.00e+00	0	39	0	587202560	50	6747
2026-01-02 17:35:14.63	338.92	21.07	-39.4	-40.4	22.7	0.00e+00	92	39	0	589299712	50	6725
2026-01-02 17:35:15.64	338.66	21.09	-39.4	-40.4	22.7	0.00e+00	7	39	0	591396864	50	6721
2026-01-02 17:35:16.65	338.40	21.11	-39.4	-40.4	22.7	0.00e+00	92	39	0	593494016	50	6734
2026-01-02 17:35:17.66	338.15	21.13	-39.4	-40.4	22.6	0.00e+00	0	39	0	595591168	50	6740
2026-01-02 17:35:18.67	337.89	21.15	-39.6	-40.6	22.5	0.00e+00	90	39	0	596639744	50	6914
2026-01-02 17:35:19.68	337.63	21.17	-39.6	-40.7	22.4	0.00e+00	27	39	0	598736896	50	6955
2026-01-02 17:35:20.69	337.37	21.18	-40.0	-41.0	22.2	0.00e+00	0	39	0	600834048	52	6463
2026-01-02 17:35:21.70	337.11	21.20	-40.0	-41.1	22.1	0.00e+00	0	39	0	602931200	52	6507
2026-01-02 17:35:22.71	336.85	21.22	-40.1	-41.2	22.0	0.00e+00	26	39	0	605028352	52	6568
2026-01-02 17:35:23.72	336.59	21.23	-40.0	-41.1	22.1	0.00e+00	92	39	0	606076928	52	6511
2026-01-02 17:35:24.73	336.33	21.25	-40.1	-41.2	22.2	0.00e+00	26	39	0	608174080	52	6544
2026-01-02 17:35:25.74	336.07	21.26	-39.8	-40.8	22.3	0.00e+00	90	39	0	610271232	52	6314
2026-01-02 17:35:26.75	335.81	21.27	-39.7	-40.8	22.4	0.00e+00	27	39	0	612368384	52	6263
2026-01-02 17:35:27.76	335.54	21.29	-39.9	-41.0	22.3	0.00e+00	55	39	0	613416960	52	6399
2026-01-02 17:35:28.77	335.28	21.30	-39.7	-40.8	22.5	0.00e+00	0	39	0	615514112	52	6252
2026-01-02 17:35:29.77	335.02	21.31	-39.7	-40.7	22.4	0.00e+00	55	39	0	617611264	52	6200
2026-01-02 17:35:30.78	334.76	21.32	-39.7	-40.7	22.4	0.00e+00	92	39	0	619708416	52	6199
2026-01-02 17:35:31.79	334.50	21.33	-39.6	-40.6	22.5	0.00e+00	0	39	0	621805568	52	6122
2026-01-02 17:35:32.80	334.24	21.34	-39.5	-40.5	22.6	0.00e+00	92	39	0	623902720	52	6099
2026-01-02 17:35:33.81	333.97	21.35	-39.6	-40.6	22.5	0.00e+00	0	39	0	624951296	52	6149
2026-01-02 17:35:34.82	333.71	21.36	-39.6	-40.7	22.5	0.00e+00	41	39	0	627048448	52	6187
2026-01-02 17:35:35.83	333.45	21.36	-39.8	-40.8	22.4	0.00e+00	0	39	0	629145600	52	6299
2026-01-02 17:35:36.84	333.19	21.37	-39.9	-40.9	22.3	0.00e+00	0	39	0	631242752	52	6368
2026-01-02 17:35:37.85	332.92	21.38	-39.9	-40.9	22.3	0.00e+00	92	39	0	633339904	52	6353
2026-01-02 17:35:38.86	332.66	21.38	-39.9	-40.9	22.2	0.00e+00	2	39	0	634388480	52	6379
2026-01-02 17:35:39.87	332.40	21.39	-40.0	-41.0	22.1	0.00e+00	90	39	0	636485632	52	6459
2026-01-02 17:35:40.88	332.13	21.39	-40.0	-41.1	22.1	0.00e+00	0	39	0	638582784	52	6494
2026-01-02 17:35:41.89	331.87	21.40	-39.9	-40.9	22.1	0.00e+00	41	39	0	640679936	52	6379
2026-01-02 17:35:42.90	331.61	21.40	-40.1	-41.1	22.2	0.00e+00	27	39	0	642777088	52	6512
2026-01-02 17:35:43.91	331.34	21.40	-40.1	-41.1	22.2	0.00e+00	54	39	0	643825664	52	6518
2026-01-02 17:35:44.92	331.08	21.41	-39.7	-40.8	22.4	0.00e+00	2	39	0	645922816	52	6259
2026-01-02 17:35:45.93	330.82	21.41	-39.5	-40.5	22.7	0.00e+00	27	39	0	648019968	52	6076
2026-01-02 17:35:46.94	330.55	21.41	-39.6	-40.6	22.6	0.00e+00	92	39	0	650117120	52	6109
2026-01-02 17:35:47.95	330.29	21.41	-39.6	-40.6	22.6	0.00e+00	26	39	0	652214272	52	6159
2026-01-02 17:35:48.96	330.03	21.41	-39.7	-40.8	22.5	0.00e+00	90	39	0	653262848	52	6249
2026-01-02 17:35:49.96	329.77	21.40	-39.7	-40.7	22.2	0.00e+00	54	39	0	655360000	52	6226
2026-01-02 17:35:50.97	329.50	21.40	-39.7	-40.7	22.2	0.00e+00	55	39	0	657457152	52	6220
2026-01-02 17:35:51.98	329.24	21.40	-39.6	-40.6	22.6	0.00e+00	0	39	0	659554304	52	6119
2026-01-02 17:35:52.99	328.98	21.40	-39.5	-40.5	22.6	0.00e+00	2	39	0	661651456	52	6060
2026-01-02 17:35:54.00	328.71	21.39	-39.4	-40.3	22.9	0.00e+00	92	39	0	662700032	52	5958
2026-01-02 17:35:55.01	328.45	21.39	-39.1	-40.0	23.1	0.00e+00	0	39	0	664797184	52	5728
2026-01-02 17:35:56.02	328.19	21.38	-39.1	-40.1	23.0	0.00e+00	92	39	0	666894336	52	5776
2026-01-02 17:35:57.03	327.92	21.38	-39.2	-40.1	23.1	0.00e+00	0	39	0	668991488	52	5801
2026-01-02 17:35:58.04	327.66	21.37	-38.9	-39.8	23.3	0.00e+00	50	39	0	671088640	52	5627
2026-01-02 17:35:59.05	327.40	21.36	-39.0	-40.0	23.2	0.00e+00	0	39	0	672137216	52	5704
2026-01-02 17:36:00.06	327.13	21.36	-38.9	-39.9	23.3	0.00e+00	26	39	0	674234368	52	5634
2026-01-02 17:36:01.07	326.87	21.35	-39.0	-39.9	23.2	0.00e+00	2	39	0	676331520	52	5661
2026-01-02 17:36:02.07	326.61	21.34	-39.1	-40.0	23.2	0.00e+00	0	39	0	678428672	52	5734
2026-01-02 17:36:03.09	326.35	21.33	-38.9	-39.8	23.3	0.00e+00	92	39	0	680525824	52	5628
2026-01-02 17:36:04.10	326.09	21.32	-38.8	-39.7	23.4	0.00e+00	21	39	0	681574400	52	5522
2026-01-02 17:36:05.11	325.82	21.31	-38.8	-39.7	23.4	0.00e+00	22	39	0	683671552	52	5512
2026-01-02 17:36:06.12	325.56	21.30	-38.5	-39.4	23.7	0.00e+00	60	39	0	685768704	50	5983
2026-01-02 17:36:07.12	325.30	21.28	-38.3	-39.2	23.9	0.00e+00	21	39	0	687865856	50	5863
2026-01-02 17:36:08.13	325.04	21.27	-38.3	-39.2	23.8	0.00e+00	0	39	0	689963008	50	5840
2026-01-02 17:36:09.14	324.78	21.26	-38.4	-39.3	23.8	0.00e+00	21	39	0	692060160	50	5916
2026-01-02 17:36:10.15	324.52	21.24	-38.1	-39.0	24.0	0.00e+00	92	39	0	693108736	50	5734
2026-01-02 17:36:11.16	324.26	21.23	-38.1	-39.0	24.0	0.00e+00	0	39	0	695205888	50	5702
2026-01-02 17:36:12.17	324.00	21.21	-38.2	-39.1	23.9	0.00e+00	92	39	0	697303040	50	5793
2026-01-02 17:36:13.18	323.74	21.20	-38.1	-39.0	24.0	0.00e+00	54	39	0	699400192	50	5701
2026-01-02 17:36:14.19	323.48	21.18	-38.1	-39.0	24.0	0.00e+00	0	39	0	701497344	50	5714
2026-01-02 17:36:15.20	323.22	21.17	-38.0	-38.9	24.2	0.00e+00	0	39	0	702545920	50	5639
2026-01-02 17:36:16.20	322.96	21.15	-37.9	-38.8	24.2	0.00e+00	0	39	0	704643072	50	5584
2026-01-02 17:36:17.21	322.70	21.13	-37.8	-38.6	24.3	0.00e+00	92	39	0	706740224	50	5466
2026-01-02 17:36:18.22	322.44	21.11	-37.6	-38.4	24.5	0.00e+00	0	39	0	708837376	48	6006
2026-01-02 17:36:19.24	322.18	21.09	-37.5	-38.3	24.7	0.00e+00	89	39	0	710934528	48	5914
2026-01-02 17:36:20.24	321.93	21.07	-37.6	-38.4	24.3	0.00e+00	0	39	0	711983104	48	6011
2026-01-02 17:36:21.25	321.67	21.05	-37.5	-38.3	24.6	0.00e+00	53	39	0	714080256	48	5934
2026-01-02 17:36:22.26	321.41	21.03	-37.5	-38.3	24.4	0.00e+00	24	39	0	716177408	48	5952
2026-01-02 17:36:23.27	321.16	21.01	-37.6	-38.5	24.4	0.00e+00	24	39	0	718274560	48	6052
2026-01-02 17:36:24.28	320.90	20.98	-37.4	-38.2	24.6	0.00e+00	2	38	0	720371712	48	5865
2026-01-02 17:36:25.29	320.64	20.96	-37.3	-38.2	24.7	0.00e+00	0	39	0	721420288	48	5835
2026-01-02 17:36:26.30	320.39	20.94	-37.4	-38.2	24.7	0.00e+00	92	39	0	723517440	48	5871
2026-01-02 17:36:27.31	320.13	20.91	-37.3	-38.2	24.8	0.00e+00	0	39	0	725614592	48	5833
2026-01-02 17:36:28.32	319.88	20.89	-37.3	-38.1	24.8	0.00e+00	91	39	0	727711744	48	5792
2026-01-02 17:36:29.32	319.62	20.86	-37.3	-38.1	24.8	0.00e+00	55	39	0	729808896	48	5814
2026-01-02 17:36:30.33	319.37	20.84	-37.4	-38.3	24.5	0.00e+00	56	39	0	730857472	48	5913
2026-01-02 17:36:31.34	319.12	20.81	-37.3	-38.1	24.7	0.00e+00	25	39	0	732954624	48	5824
2026-01-02 17:36:32.35	318.86	20.78	-37.7	-38.5	24.4	0.00e+00	60	39	0	735051776	48	6081
2026-01-02 17:36:33.36	318.61	20.76	-37.7	-38.5	24.5	0.00e+00	92	39	0	737148928	48	6099
2026-01-02 17:36:34.37	318.36	20.73	-37.7	-38.6	24.4	0.00e+00	0	39	0	739246080	48	6111
2026-01-02 17:36:35.38	318.11	20.70	-37.6	-38.4	24.5	0.00e+00	5	39	0	740294656	48	6015
2026-01-02 17:36:36.39	317.85	20.67	-37.6	-38.4	24.6	0.00e+00	3	39	0	742391808	48	5990
2026-01-02 17:36:37.40	317.60	20.64	-37.6	-38.4	24.5	0.00e+00	61	39	0	744488960	48	5983
2026-01-02 17:36:38.41	317.35	20.61	-37.4	-38.2	24.7	0.00e+00	3	39	0	746586112	48	5868
2026-01-02 17:36:39.42	317.10	20.58	-37.5	-38.3	24.6	0.00e+00	2	39	0	748683264	48	5956
2026-01-02 17:36:40.42	316.86	20.55	-37.7	-38.5	24.4	0.00e+00	89	39	0	749731840	48	6068
2026-01-02 17:36:41.43	316.61	20.51	-37.8	-38.6	24.2	0.00e+00	5	39	0	751828992	48	6163
2026-01-02 17:36:42.44	316.36	20.48	-37.9	-38.8	24.2	0.00e+00	90	39	0	753926144	48	6270
2026-01-02 17:36:43.45	316.11	20.45	-38.1	-38.9	24.1	0.00e+00	5	39	0	756023296	48	6368
2026-01-02 17:36:44.46	315.86	20.42	-38.3	-39.2	23.9	0.00e+00	25	39	0	758120448	48	6544
2026-01-02 17:36:45.47	315.62	20.38	-38.4	-39.2	23.8	0.00e+00	26	39	0	760217600	48	6609
2026-01-02 17:36:46.48	315.37	20.35	-38.5	-39.4	23.6	0.00e+00	0	38	0	761266176	48	6747
2026-01-02 17:36:47.49	315.12	20.31	-38.6	-39.5	23.5	0.00e+00	0	39	0	763363328	48	6828
2026-01-02 17:36:48.50	314.88	20.28	-38.7	-39.6	23.4	0.00e+00	25	39	0	765460480	48	6910
2026-01-02 17:36:49.51	314.64	20.24	-38.8	-39.7	23.4	0.00e+00	92	39	0	767557632	50	6195
2026-01-02 17:36:50.52	314.39	20.20	-38.9	-39.8	23.4	0.00e+00	27	39	0	769654784	50	6265
2026-01-02 17:36:51.53	314.15	20.17	-38.9	-39.9	23.3	0.00e+00	63	39	0	770703360	50	6342
2026-01-02 17:36:52.54	313.91	20.13	-39.0	-40.0	23.2	0.00e+00	60	39	0	772800512	50	6419
2026-01-02 17:36:53.55	313.66	20.09	-39.1	-40.0	23.1	0.00e+00	60	39	0	774897664	50	6420
2026-01-02 17:36:54.56	313.42	20.05	-39.2	-40.2	23.0	0.00e+00	4	39	0	776994816	50	6543
2026-01-02 17:36:55.56	313.18	20.01	-39.1	-40.0	23.2	0.00e+00	7	39	0	779091968	50	6449
2026-01-02 17:36:56.57	312.94	19.97	-39.2	-40.2	22.9	0.00e+00	92	39	0	780140544	50	6560
2026-01-02 17:36:57.58	312.70	19.93	-39.3	-40.3	22.9	0.00e+00	8	39	0	782237696	50	6638
2026-01-02 17:36:58.60	312.46	19.89	-39.4	-40.3	22.8	0.00e+00	92	39	0	784334848	50	6677
2026-01-02 17:36:59.60	312.23	19.85	-39.5	-40.5	22.7	0.00e+00	65	39	0	786432000	50	6815
2026-01-02 17:37:00.61	311.99	19.81	-39.4	-40.4	22.9	0.00e+00	0	39	0	788529152	50	6698
2026-01-02 17:37:01.62	311.75	19.77	-39.3	-40.3	22.9	0.00e+00	0	39	0	789577728	50	6637
2026-01-02 17:37:02.63	311.51	19.73	-39.3	-40.2	22.9	0.00e+00	3	39	0	791674880	50	6594
2026-01-02 17:37:03.64	311.28	19.68	-39.2	-40.2	23.0	0.00e+00	89	39	0	793772032	50	6541
2026-01-02 17:37:04.65	311.04	19.64	-39.4	-40.4	22.8	0.00e+00	0	39	0	795869184	50	6714
2026-01-02 17:37:05.66	310.81	19.60	-39.4	-40.4	22.8	0.00e+00	91	39	0	797966336	50	6730
2026-01-02 17:37:06.67	310.57	19.55	-39.4	-40.4	22.8	0.00e+00	0	39	0	799014912	50	6708
2026-01-02 17:37:07.68	310.34	19.51	-39.5	-40.4	22.7	0.00e+00	3	39	0	801112064	50	6767
2026-01-02 17:37:08.69	310.11	19.46	-39.6	-40.6	22.6	0.00e+00	19	39	0	803209216	50	6908
2026-01-02 17:37:09.70	309.88	19.42	-39.8	-40.8	22.5	0.00e+00	21	39	0	805306368	50	7059
2026-01-02 17:37:10.71	309.65	19.37	-39.7	-40.7	22.4	0.00e+00	0	39	0	807403520	52	6223
2026-01-02 17:37:11.72	309.42	19.33	-39.6	-40.6	22.7	0.00e+00	57	39	0	808452096	52	6124
2026-01-02 17:37:12.72	309.19	19.28	-39.5	-40.5	22.6	0.00e+00	90	39	0	810549248	52	6100
2026-01-02 17:37:13.73	308.96	19.23	-39.5	-40.5	22.7	0.00e+00	56	39	0	812646400	52	6100
2026-01-02 17:37:14.74	308.73	19.19	-39.5	-40.5	22.6	0.00e+00	76	39	0	814743552	52	6066
2026-01-02 17:37:15.75	308.50	19.14	-39.5	-40.5	22.6	0.00e+00	55	39	0	816840704	52	6065
2026-01-02 17:37:16.76	308.28	19.09	-39.6	-40.6	22.6	0.00e+00	56	39	0	817889280	52	6133
2026-01-02 17:37:17.77	308.05	19.04	-39.6	-40.6	22.4	0.00e+00	0	39	0	819986432	52	6152
2026-01-02 17:37:18.78	307.82	18.99	-39.5	-40.5	22.7	0.00e+00	2	39	0	822083584	52	6062
2026-01-02 17:37:19.79	307.60	18.94	-39.6	-40.5	22.7	0.00e+00	90	39	0	824180736	52	6103
2026-01-02 17:37:20.80	307.38	18.90	-39.4	-40.4	22.8	0.00e+00	0	39	0	826277888	52	6004
2026-01-02 17:37:21.81	307.15	18.85	-39.4	-40.3	22.8	0.00e+00	90	39	0	828375040	52	5960
2026-01-02 17:37:22.82	306.93	18.80	-39.5	-40.4	22.7	0.00e+00	0	39	0	829423616	52	6024
2026-01-02 17:37:23.83	306.71	18.74	-39.6	-40.6	22.7	0.00e+00	0	39	0	831520768	52	6123
2026-01-02 17:37:24.84	306.49	18.69	-39.7	-40.7	22.6	0.00e+00	0	39	0	833617920	52	6186
2026-01-02 17:37:25.84	306.27	18.64	-39.6	-40.6	22.6	0.00e+00	0	39	0	835715072	52	6160
2026-01-02 17:37:26.85	306.05	18.59	-39.6	-40.6	22.5	0.00e+00	75	39	0	836763648	52	6161
2026-01-02 17:37:27.86	305.83	18.54	-39.8	-40.8	22.5	0.00e+00	24	39	0	838860800	52	6262
2026-01-02 17:37:28.87	305.61	18.49	-39.6	-40.6	22.7	0.00e+00	92	39	0	840957952	52	6120
2026-01-02 17:37:29.88	305.40	18.44	-39.6	-40.6	22.6	0.00e+00	24	39	0	843055104	52	6134
2026-01-02 17:37:30.89	305.18	18.38	-39.7	-40.7	22.5	0.00e+00	86	39	0	845152256	52	6186
2026-01-02 17:37:31.90	304.96	18.33	-39.6	-40.7	22.6	0.00e+00	24	39	0	846200832	52	6184
2026-01-02 17:37:32.91	304.75	18.28	-39.8	-40.8	22.5	0.00e+00	21	39	0	848297984	52	6273
2026-01-02 17:37:33.92	304.53	18.22	-39.7	-40.8	22.5	0.00e+00	14	39	0	850395136	52	6251
2026-01-02 17:37:34.93	304.32	18.17	-39.7	-40.7	22.5	0.00e+00	62	39	0	852492288	52	6227
2026-01-02 17:37:35.94	304.11	18.11	-39.9	-40.9	22.3	0.00e+00	90	39	0	854589440	52	6383
2026-01-02 17:37:36.95	303.90	18.06	-39.9	-40.9	22.3	0.00e+00	19	39	0	856686592	52	6373
2026-01-02 17:37:37.96	303.69	18.00	-40.0	-41.1	22.2	0.00e+00	2	39	0	857735168	52	6488
2026-01-02 17:37:38.97	303.48	17.95	-39.9	-40.9	22.3	0.00e+00	0	39	0	859832320	52	6361
2026-01-02 17:37:39.98	303.27	17.89	-39.9	-40.9	22.2	0.00e+00	0	39	0	861929472	52	6373
2026-01-02 17:37:40.99	303.06	17.84	-39.7	-40.8	22.5	0.00e+00	0	39	0	864026624	52	6254
2026-01-02 17:37:42.00	302.85	17.78	-39.6	-40.6	22.6	0.00e+00	0	39	0	866123776	52	6146
2026-01-02 17:37:43.01	302.64	17.73	-39.5	-40.5	22.6	0.00e+00	92	39	0	867172352	52	6094
2026-01-02 17:37:44.02	302.44	17.67	-39.6	-40.6	22.5	0.00e+00	0	39	0	869269504	52	6110
2026-01-02 17:37:45.03	302.23	17.61	-39.6	-40.6	22.6	0.00e+00	92	39	0	871366656	52	6128
2026-01-02 17:37:46.04	302.02	17.56	-39.7	-40.7	22.6	0.00e+00	0	39	0	873463808	52	6184
2026-01-02 17:37:47.05	301.82	17.50	-39.6	-40.6	22.6	0.00e+00	0	39	0	875560960	52	6129
2026-01-02 17:37:48.05	301.62	17.44	-39.7	-40.7	22.5	0.00e+00	2	39	0	876609536	52	6224
2026-01-02 17:37:49.06	301.42	17.38	-39.7	-40.7	22.4	0.00e+00	25	39	0	878706688	52	6218
2026-01-02 17:37:50.07	301.21	17.33	-39.7	-40.7	22.5	0.00e+00	91	39	0	880803840	52	6200
2026-01-02 17:37:51.08	301.01	17.27	-39.7	-40.7	22.5	0.00e+00	25	39	0	882900992	52	6198
2026-01-02 17:37:52.09	300.81	17.21	-39.8	-40.9	22.3	0.00e+00	91	39	0	884998144	52	6328
2026-01-02 17:37:53.10	300.61	17.15	-39.7	-40.7	22.4	0.00e+00	0	39	0	886046720	52	6226
2026-01-02 17:37:54.11	300.42	17.09	-39.7	-40.7	22.4	0.00e+00	0	39	0	888143872	52	6218
2026-01-02 17:37:55.12	300.22	17.03	-39.7	-40.7	22.5	0.00e+00	0	39	0	890241024	52	6220
2026-01-02 17:37:56.13	300.02	16.97	-39.6	-40.6	22.6	0.00e+00	25	39	0	892338176	52	6123
2026-01-02 17:37:57.14	299.82	16.91	-39.6	-40.6	22.5	0.00e+00	0	39	0	894435328	52	6133
2026-01-02 17:37:58.15	299.63	16.85	-39.6	-40.6	22.5	0.00e+00	24	39	0	895483904	52	6126
2026-01-02 17:37:59.15	299.44	16.80	-39.5	-40.5	22.7	0.00e+00	92	39	0	897581056	52	6069
2026-01-02 17:38:00.17	299.24	16.73	-39.5	-40.5	22.6	0.00e+00	0	39	0	899678208	52	6073
2026-01-02 17:38:01.17	299.05	16.68	-39.4	-40.4	22.7	0.00e+00	92	39	0	901775360	52	6013
2026-01-02 17:38:02.18	298.86	16.61	-39.4	-40.4	22.8	0.00e+00	0	39	0	903872512	52	5967
2026-01-02 17:38:03.19	298.66	16.55	-39.5	-40.5	22.7	0.00e+00	0	39	0	904921088	52	6054
2026-01-02 17:38:04.20	298.47	16.49	-39.7	-40.7	22.4	0.00e+00	63	39	0	907018240	52	6201
2026-01-02 17:38:05.21	298.28	16.43	-39.9	-40.9	22.3	0.00e+00	0	39	0	909115392	52	6385
2026-01-02 17:38:06.22	298.09	16.37	-39.8	-40.8	22.4	0.00e+00	92	39	0	911212544	52	6286
2026-01-02 17:38:07.23	297.91	16.31	-39.8	-40.8	22.4	0.00e+00	0	39	0	913309696	52	6302
2026-01-02 17:38:08.24	297.72	16.25	-40.0	-41.1	22.1	0.00e+00	90	39	0	914358272	52	6493
2026-01-02 17:38:09.24	297.53	16.19	-40.0	-41.0	22.1	0.00e+00	2	39	0	916455424	52	6423
2026-01-02 17:38:10.25	297.35	16.13	-40.1	-41.1	22.1	0.00e+00	0	39	0	918552576	52	6507
2026-01-02 17:38:11.26	297.16	16.06	-40.1	-41.2	22.0	0.00e+00	0	39	0	920649728	52	6551
2026-01-02 17:38:12.27	296.98	16.00	-40.1	-41.2	22.0	0.00e+00	0	39	0	922746880	52	6571
2026-01-02 17:38:13.28	296.79	15.94	-40.2	-41.2	21.9	0.00e+00	0	39	0	924844032	52	6607
2026-01-02 17:38:14.29	296.61	15.88	-40.2	-41.3	21.8	0.00e+00	23	39	0	925892608	52	6675
2026-01-02 17:38:15.30	296.43	15.82	-40.2	-41.3	21.9	0.00e+00	92	39	0	927989760	52	6668
2026-01-02 17:38:16.31	296.25	15.75	-40.3	-41.4	21.8	0.00e+00	24	39	0	930086912	52	6765
2026-01-02 17:38:17.31	296.07	15.69	-40.2	-41.3	21.9	0.00e+00	92	39	0	932184064	52	6623
2026-01-02 17:38:18.32	295.89	15.63	-40.3	-41.4	21.8	0.00e+00	0	39	0	934281216	52	6724
2026-01-02 17:38:19.33	295.71	15.56	-40.1	-41.1	22.0	0.00e+00	0	39	0	935329792	52	6516
2026-01-02 17:38:20.35	295.53	15.50	-40.0	-41.1	22.1	0.00e+00	0	39	0	937426944	52	6494
2026-01-02 17:38:21.35	295.35	15.44	-40.0	-41.1	22.1	0.00e+00	58	39	0	939524096	52	6489
2026-01-02 17:38:22.36	295.17	15.38	-40.1	-41.1	22.0	0.00e+00	92	39	0	941621248	52	6509
2026-01-02 17:38:23.37	295.00	15.31	-40.1	-41.1	22.0	0.00e+00	60	39	0	943718400	52	6538
2026-01-02 17:38:24.38	294.82	15.25	-40.1	-41.2	22.0	0.00e+00	92	39	0	944766976	52	6541
2026-01-02 17:38:25.39	294.65	15.18	-40.2	-41.3	21.9	0.00e+00	61	39	0	946864128	52	6664
2026-01-02 17:38:26.40	294.47	15.12	-40.2	-41.3	21.9	0.00e+00	7	39	0	948961280	52	6619
2026-01-02 17:38:27.41	294.30	15.06	-40.3	-41.4	21.7	0.00e+00	5	39	0	951058432	52	6722
2026-01-02 17:38:28.42	294.13	14.99	-40.4	-41.5	21.6	0.00e+00	7	39	0	953155584	52	6845
2026-01-02 17:38:29.43	293.96	14.93	-40.3	-41.4	21.7	0.00e+00	92	39	0	954204160	52	6723
2026-01-02 17:38:30.44	293.78	14.87	-40.3	-41.4	21.7	0.00e+00	0	39	0	956301312	52	6766
2026-01-02 17:38:31.45	293.61	14.80	-40.3	-41.5	21.6	0.00e+00	92	39	0	958398464	52	6780
2026-01-02 17:38:32.46	293.45	14.74	-40.2	-41.3	21.8	0.00e+00	3	39	0	960495616	52	6664
2026-01-02 17:38:33.46	293.28	14.67	-40.1	-41.2	22.0	0.00e+00	0	39	0	962592768	52	6551
2026-01-02 17:38:34.47	293.11	14.61	-40.2	-41.3	21.8	0.00e+00	3	39	0	963641344	52	6624
2026-01-02 17:38:35.48	292.94	14.54	-40.0	-41.0	22.1	0.00e+00	17	39	0	965738496	52	6457
2026-01-02 17:38:36.49	292.78	14.48	-39.7	-40.7	22.3	0.00e+00	34	39	0	967835648	52	6231
2026-01-02 17:38:37.50	292.61	14.41	-39.8	-40.9	22.3	0.00e+00	4	39	0	969932800	52	6320
2026-01-02 17:38:38.51	292.45	14.35	-39.7	-40.7	22.3	0.00e+00	91	39	0	972029952	52	6196
2026-01-02 17:38:39.52	292.28	14.29	-39.7	-40.8	22.3	0.00e+00	71	39	0	973078528	52	6268
2026-01-02 17:38:40.53	292.12	14.22	-39.8	-40.8	22.2	0.00e+00	91	39	0	975175680	52	6299
2026-01-02 17:38:41.54	291.95	14.16	-39.9	-41.0	22.0	0.00e+00	6	39	0	977272832	52	6406
2026-01-02 17:38:42.55	291.79	14.09	-39.9	-40.9	22.1	0.00e+00	20	39	0	979369984	52	6376
2026-01-02 17:38:43.56	291.63	14.03	-40.1	-41.1	22.0	0.00e+00	77	39	0	981467136	52	6537
2026-01-02 17:38:44.57	291.47	13.96	-39.9	-41.0	22.1	0.00e+00	6	39	0	982515712	52	6407
2026-01-02 17:38:45.58	291.31	13.90	-39.8	-40.9	22.2	0.00e+00	92	39	0	984612864	52	6346
2026-01-02 17:38:46.59	291.15	13.83	-39.8	-40.9	22.2	0.00e+00	6	39	0	986710016	52	6321
2026-01-02 17:38:47.60	290.99	13.76	-39.7	-40.7	22.3	0.00e+00	92	39	0	988807168	52	6243
2026-01-02 17:38:48.61	290.83	13.70	-39.6	-40.6	22.5	0.00e+00	6	39	0	990904320	52	6165
2026-01-02 17:38:49.62	290.68	13.63	-39.6	-40.7	22.4	0.00e+00	0	39	0	993001472	52	6191
2026-01-02 17:38:50.63	290.52	13.57	-39.4	-40.4	22.7	0.00e+00	5	39	0	994050048	52	5981
2026-01-02 17:38:51.64	290.36	13.50	-39.4	-40.4	22.7	0.00e+00	0	39	0	996147200	52	6001
2026-01-02 17:38:52.65	290.21	13.44	-39.4	-40.4	22.6	0.00e+00	74	39	0	998244352	52	5997
2026-01-02 17:38:53.66	290.06	13.37	-39.2	-40.2	22.8	0.00e+00	23	39	0	1000341504	52	5870
2026-01-02 17:38:54.67	289.90	13.31	-39.0	-39.9	23.0	0.00e+00	92	39	0	1002438656	52	5667
2026-01-02 17:38:55.68	289.75	13.24	-38.9	-39.9	23.0	0.00e+00	23	39	0	1003487232	52	5648
2026-01-02 17:38:56.69	289.60	13.18	-39.0	-39.9	22.9	0.00e+00	53	39	0	1005584384	52	5695
2026-01-02 17:38:57.70	289.44	13.11	-39.0	-40.0	22.9	0.00e+00	3	39	0	1007681536	52	5724
2026-01-02 17:38:58.71	289.29	13.04	-39.0	-39.9	23.0	0.00e+00	57	39	0	1009778688	52	5692
2026-01-02 17:38:59.72	289.14	12.98	-39.0	-39.9	23.0	0.00e+00	27	39	0	1011875840	52	5675
2026-01-02 17:39:00.73	288.99	12.91	-38.9	-39.9	22.7	0.00e+00	24	39	0	1012924416	52	5662
2026-01-02 17:39:01.74	288.84	12.85	-39.0	-40.0	22.9	0.00e+00	92	39	0	1015021568	52	5728
2026-01-02 17:39:02.75	288.70	12.78	-38.9	-39.9	23.0	0.00e+00	18	39	0	1017118720	52	5656
2026-01-02 17:39:03.76	288.55	12.72	-38.9	-39.9	22.9	0.00e+00	92	39	0	1019215872	52	5661
2026-01-02 17:39:04.77	288.40	12.65	-38.8	-39.8	23.1	0.00e+00	61	39	0	1021313024	52	5602
2026-01-02 17:39:05.78	288.26	12.59	-38.9	-39.8	22.6	0.00e+00	0	39	0	1022361600	52	5626
2026-01-02 17:39:06.79	288.11	12.52	-38.9	-39.9	22.6	0.00e+00	74	39	0	1024458752	52	5632
2026-01-02 17:39:07.80	287.96	12.45	-38.7	-39.7	23.1	0.00e+00	66	39	0	1026555904	50	6180
2026-01-02 17:39:08.80	287.82	12.39	-38.6	-39.5	23.3	0.00e+00	91	39	0	1028653056	50	6094
2026-01-02 17:39:09.81	287.68	12.32	-38.8	-39.8	23.1	0.00e+00	0	39	0	1030750208	50	6262
2026-01-02 17:39:10.82	287.54	12.26	-38.6	-39.5	23.3	0.00e+00	90	39	0	1031798784	50	6066
2026-01-02 17:39:11.83	287.39	12.19	-38.7	-39.6	23.1	0.00e+00	0	39	0	1033895936	50	6155
2026-01-02 17:39:12.84	287.25	12.13	-38.8	-39.8	23.1	0.00e+00	2	39	0	1035993088	50	6256
2026-01-02 17:39:13.85	287.11	12.06	-38.8	-39.7	23.2	0.00e+00	2	39	0	1038090240	50	6216
2026-01-02 17:39:14.85	286.97	11.99	-38.7	-39.7	23.1	0.00e+00	2	39	0	1040187392	50	6191
2026-01-02 17:39:15.86	286.83	11.93	-38.9	-39.9	23.0	0.00e+00	92	39	0	1041235968	50	6319
2026-01-02 17:39:16.87	286.69	11.86	-38.9	-39.9	23.0	0.00e+00	22	39	0	1043333120	50	6331
2026-01-02 17:39:17.88	286.55	11.80	-38.9	-39.8	23.0	0.00e+00	92	39	0	1045430272	50	6294
2026-01-02 17:39:18.89	286.42	11.73	-38.9	-39.9	23.0	0.00e+00	0	39	0	1047527424	50	6329
2026-01-02 17:39:19.89	286.28	11.67	-38.9	-39.9	22.9	0.00e+00	92	39	0	1049624576	50	6357
2026-01-02 17:39:20.90	286.14	11.60	-39.0	-40.0	22.8	0.00e+00	0	39	0	1050673152	50	6412
2026-01-02 17:39:21.91	286.01	11.54	-39.0	-40.0	22.9	0.00e+00	21	39	0	1052770304	50	6411
2026-01-02 17:39:22.92	285.87	11.47	-38.9	-39.9	23.0	0.00e+00	6	39	0	1054867456	50	6344
2026-01-02 17:39:23.93	285.74	11.40	-39.0	-40.0	22.8	0.00e+00	59	39	0	1056964608	50	6425
2026-01-02 17:39:24.94	285.60	11.34	-39.0	-39.9	22.9	0.00e+00	92	39	0	1059061760	50	6381
2026-01-02 17:39:25.95	285.47	11.27	-39.0	-40.0	22.9	0.00e+00	59	39	0	1060110336	50	6417
2026-01-02 17:39:26.96	285.34	11.21	-39.2	-40.2	22.6	0.00e+00	92	39	0	1062207488	50	6603
2026-01-02 17:39:27.96	285.21	11.14	-39.2	-40.2	22.7	0.00e+00	66	39	0	1064304640	50	6599
2026-01-02 17:39:28.97	285.07	11.08	-39.4	-40.4	22.3	0.00e+00	61	39	0	1066401792	50	6719
2026-01-02 17:39:29.99	284.94	11.01	-39.4	-40.5	22.4	0.00e+00	62	39	0	1068498944	50	6771
2026-01-02 17:39:30.99	284.81	10.95	-39.5	-40.5	22.4	0.00e+00	0	39	0	1069547520	50	6835
2026-01-02 17:39:32.00	284.68	10.88	-39.4	-40.4	22.5	0.00e+00	92	39	0	1071644672	50	6759
2026-01-02 17:39:33.01	284.55	10.82	-39.6	-40.6	22.3	0.00e+00	0	39	0	1073741824	50	6890
2026-01-02 17:39:34.02	284.42	10.75	-39.6	-40.7	22.2	0.00e+00	92	39	0	1075838976	50	6933
2026-01-02 17:39:35.03	284.30	10.69	-39.4	-40.4	22.5	0.00e+00	0	39	0	1077936128	50	6763
2026-01-02 17:39:36.04	284.17	10.62	-39.2	-40.2	22.7	0.00e+00	44	39	0	1078984704	50	6596
2026-01-02 17:39:37.05	284.04	10.55	-39.2	-40.2	22.6	0.00e+00	0	39	0	1081081856	50	6599
2026-01-02 17:39:38.06	283.91	10.49	-39.2	-40.2	22.6	0.00e+00	0	39	0	1083179008	50	6592
2026-01-02 17:39:39.07	283.79	10.42	-39.2	-40.2	22.6	0.00e+00	92	39	0	1085276160	50	6601
2026-01-02 17:39:40.08	283.66	10.36	-39.3	-40.3	22.4	0.00e+00	0	39	0	1087373312	50	6675
2026-01-02 17:39:41.09	283.54	10.29	-39.1	-40.1	22.7	0.00e+00	92	39	0	1089470464	50	6496
2026-01-02 17:39:42.09	283.42	10.23	-39.2	-40.2	22.6	0.00e+00	0	39	0	1090519040	50	6580
2026-01-02 17:39:43.10	283.29	10.16	-39.3	-40.3	22.5	0.00e+00	92	39	0	1092616192	50	6669
2026-01-02 17:39:44.11	283.17	10.10	-39.3	-40.3	22.5	0.00e+00	58	39	0	1094713344	50	6683
2026-01-02 17:39:45.12	283.05	10.03	-39.4	-40.5	22.4	0.00e+00	21	39	0	1096810496	50	6771
2026-01-02 17:39:46.13	282.92	9.97	-39.5	-40.5	22.3	0.00e+00	0	39	0	1098907648	50	6799
2026-01-02 17:39:47.14	282.80	9.91	-39.5	-40.5	22.3	0.00e+00	0	39	0	1099956224	50	6818
2026-01-02 17:39:48.15	282.68	9.84	-39.6	-40.6	22.2	0.00e+00	92	39	0	1102053376	50	6880
2026-01-02 17:39:49.16	282.56	9.78	-39.7	-40.7	22.0	0.00e+00	0	39	0	1104150528	50	6966
2026-01-02 17:39:50.17	282.44	9.71	-39.9	-41.0	21.9	0.00e+00	92	39	0	1106247680	52	6401
2026-01-02 17:39:51.18	282.32	9.65	-39.9	-41.0	21.8	0.00e+00	62	39	0	1108344832	52	6437
2026-01-02 17:39:52.19	282.20	9.58	-40.0	-41.1	21.7	0.00e+00	60	39	0	1109393408	52	6507
2026-01-02 17:39:53.20	282.09	9.52	-39.9	-41.0	21.9	0.00e+00	0	39	0	1111490560	52	6399
2026-01-02 17:39:54.21	281.97	9.45	-40.0	-41.1	21.8	0.00e+00	0	39	0	1113587712	52	6478
2026-01-02 17:39:55.22	281.85	9.39	-40.0	-41.2	21.7	0.00e+00	91	39	0	1115684864	52	6540
2026-01-02 17:39:56.23	281.73	9.32	-40.0	-41.1	21.7	0.00e+00	0	39	0	1117782016	52	6520
2026-01-02 17:39:57.24	281.62	9.26	-40.1	-41.2	21.6	0.00e+00	92	39	0	1118830592	52	6558
2026-01-02 17:39:58.25	281.50	9.20	-40.1	-41.2	21.7	0.00e+00	0	39	0	1120927744	52	6588
2026-01-02 17:39:59.26	281.39	9.13	-40.2	-41.3	21.5	0.00e+00	20	39	0	1123024896	52	6638
2026-01-02 17:40:00.27	281.27	9.07	-40.3	-41.4	21.4	0.00e+00	0	39	0	1125122048	52	6767
2026-01-02 17:40:01.27	281.16	9.00	-40.4	-41.5	21.3	0.00e+00	19	39	0	1127219200	52	6826
2026-01-02 17:40:02.28	281.05	8.94	-40.3	-41.5	21.3	0.00e+00	87	39	0	1128267776	52	6805
2026-01-02 17:40:03.29	280.93	8.88	-40.5	-41.7	21.2	0.00e+00	0	39	0	1130364928	52	6973
2026-01-02 17:40:04.30	280.82	8.81	-40.5	-41.7	21.1	0.00e+00	90	39	0	1132462080	52	6998
2026-01-02 17:40:05.31	280.71	8.75	-40.7	-41.9	21.1	0.00e+00	66	39	0	1134559232	52	7100
2026-01-02 17:40:06.32	280.60	8.68	-40.6	-41.8	21.0	0.00e+00	39	39	0	1136656384	54	6296
2026-01-02 17:40:07.33	280.49	8.62	-40.6	-41.8	21.0	0.00e+00	67	39	0	1137704960	54	6312
2026-01-02 17:40:08.34	280.38	8.56	-40.6	-41.9	20.9	0.00e+00	14	39	0	1139802112	54	6323
2026-01-02 17:40:09.35	280.27	8.49	-40.8	-42.0	20.7	0.00e+00	5	39	0	1141899264	54	6449
2026-01-02 17:40:10.36	280.16	8.43	-40.9	-42.1	20.6	0.00e+00	2	39	0	1143996416	54	6522
2026-01-02 17:40:11.36	280.05	8.37	-40.9	-42.1	20.7	0.00e+00	92	39	0	1146093568	54	6512
2026-01-02 17:40:12.37	279.94	8.30	-40.8	-42.0	20.8	0.00e+00	4	39	0	1147142144	54	6449
2026-01-02 17:40:13.38	279.83	8.24	-40.8	-42.0	20.7	0.00e+00	92	39	0	1149239296	54	6437
2026-01-02 17:40:14.39	279.73	8.18	-40.7	-42.0	20.8	0.00e+00	64	39	0	1151336448	54	6401
2026-01-02 17:40:15.40	279.62	8.11	-40.8	-42.1	20.7	0.00e+00	61	39	0	1153433600	54	6468
2026-01-02 17:40:16.41	279.51	8.05	-40.7	-41.9	20.8	0.00e+00	0	39	0	1155530752	54	6365
2026-01-02 17:40:17.42	279.41	7.99	-40.9	-42.1	20.6	0.00e+00	0	39	0	1157627904	54	6521
2026-01-02 17:40:18.43	279.30	7.92	-41.0	-42.2	20.4	0.00e+00	92	39	0	1158676480	54	6609
2026-01-02 17:40:19.44	279.20	7.86	-40.9	-42.2	20.5	0.00e+00	4	39	0	1160773632	54	6553
2026-01-02 17:40:20.45	279.09	7.80	-41.0	-42.2	20.5	0.00e+00	90	39	0	1162870784	54	6608
2026-01-02 17:40:21.45	278.99	7.73	-41.1	-42.4	20.4	0.00e+00	2	39	0	1164967936	54	6696
2026-01-02 17:40:22.46	278.88	7.67	-41.0	-42.3	20.4	0.00e+00	4	39	0	1167065088	54	6687
2026-01-02 17:40:23.48	278.78	7.61	-41.1	-42.4	20.4	0.00e+00	17	39	0	1168113664	54	6722
2026-01-02 17:40:24.49	278.68	7.55	-41.1	-42.5	20.2	0.00e+00	4	39	0	1170210816	54	6777
2026-01-02 17:40:25.50	278.57	7.48	-41.1	-42.5	20.4	0.00e+00	0	39	0	1172307968	54	6773
2026-01-02 17:40:26.51	278.47	7.42	-41.2	-42.6	20.1	0.00e+00	19	39	0	1174405120	54	6853
2026-01-02 17:40:27.52	278.37	7.36	-41.1	-42.4	20.3	0.00e+00	92	39	0	1176502272	54	6754
2026-01-02 17:40:28.53	278.27	7.29	-41.0	-42.3	20.3	0.00e+00	18	39	0	1177550848	54	6646
2026-01-02 17:40:29.53	278.17	7.23	-41.0	-42.3	20.4	0.00e+00	92	39	0	1179648000	54	6638
2026-01-02 17:40:30.55	278.07	7.17	-41.2	-42.5	20.2	0.00e+00	69	39	0	1181745152	54	6799
2026-01-02 17:40:31.56	277.97	7.11	-41.2	-42.5	20.2	0.00e+00	67	39	0	1183842304	54	6809
2026-01-02 17:40:32.57	277.87	7.05	-41.1	-42.5	20.2	0.00e+00	7	39	0	1185939456	54	6779
2026-01-02 17:40:33.58	277.77	6.98	-41.2	-42.6	20.1	0.00e+00	1	39	0	1186988032	54	6879
2026-01-02 17:40:34.59	277.67	6.92	-41.3	-42.7	20.0	0.00e+00	92	39	0	1189085184	54	6961
