passes_logs/2026/01/02/R4.6S_Anadyr/R4.6S_Anadyr__20260102_213517_NOAA_21_JPSS-2_rec.log

#Pass ID: 20260102_213517_NOAA 21 (JPSS-2)
#Satellite: NOAA 21 (JPSS-2)
#Configuration: NOAA-21
#almurnet v.1.7.20251203
#Start time: 2026-01-02 21:35:19

#Version: 2.2.20231116
#Station: R4.6S_Anadyr
#Location: 177.4865 lon 64.73178 lat
#TLE: 1 54234U 22150A   26001.90243762  .00000172  00000+0  10253-3 0  9993
#TLE: 2 54234  98.7485 302.9615 0001242 351.7524   8.3631 14.19530907162956

#Time	Az	El	Level	Level2	SNR	BER	BlckErr	Temp	State	Recorded	gain1	gain2
2026-01-02 21:35:19.45	93.77	0.12	-50.0	-65.0	3.5	1.51e+00	0	36	0	0	60	64081
2026-01-02 21:35:20.46	93.71	0.17	-49.9	-62.9	3.5	1.52e+00	0	38	104	0	60	48833
2026-01-02 21:35:21.46	93.65	0.23	-49.9	-62.8	3.5	1.52e+00	0	38	104	0	60	48490
2026-01-02 21:35:22.48	93.59	0.28	-50.0	-62.9	3.5	1.52e+00	0	38	104	0	60	48851
2026-01-02 21:35:23.48	93.53	0.33	-50.0	-62.9	3.5	1.52e+00	0	38	104	0	60	49064
2026-01-02 21:35:24.49	93.47	0.39	-50.0	-62.9	3.5	1.52e+00	0	38	104	0	60	49016
2026-01-02 21:35:25.50	93.41	0.44	-50.0	-62.9	3.5	1.52e+00	0	38	104	0	60	49025
2026-01-02 21:35:26.51	93.35	0.50	-50.0	-62.9	3.5	1.52e+00	0	38	104	0	60	48864
2026-01-02 21:35:27.52	93.29	0.55	-50.0	-62.9	3.5	1.52e+00	0	38	104	0	60	49148
2026-01-02 21:35:28.53	93.23	0.61	-50.0	-62.9	3.5	1.52e+00	0	38	104	0	60	48896
2026-01-02 21:35:29.54	93.17	0.66	-50.0	-62.9	3.5	1.52e+00	0	38	104	0	60	49138
2026-01-02 21:35:30.55	93.11	0.72	-50.0	-62.9	3.5	1.52e+00	0	38	104	0	60	48969
2026-01-02 21:35:31.55	93.04	0.77	-50.0	-62.9	3.5	1.52e+00	0	38	104	0	60	49120
2026-01-02 21:35:32.56	92.98	0.83	-50.0	-62.9	3.5	1.52e+00	0	38	104	0	60	49064
2026-01-02 21:35:33.58	92.92	0.88	-49.9	-62.9	3.5	1.52e+00	0	38	104	0	60	48749
2026-01-02 21:35:34.59	92.86	0.94	-49.9	-62.7	3.5	1.52e+00	0	38	104	0	60	48171
2026-01-02 21:35:35.59	92.80	0.99	-49.7	-62.6	3.5	1.52e+00	0	38	104	0	60	47490
2026-01-02 21:35:36.60	92.73	1.05	-49.5	-62.5	3.5	1.52e+00	0	38	104	0	60	46666
2026-01-02 21:35:37.61	92.67	1.10	-49.4	-62.3	3.5	1.52e+00	0	38	104	0	60	45759
2026-01-02 21:35:38.62	92.61	1.16	-48.4	-61.9	3.5	1.52e+00	0	38	104	0	60	43804
2026-01-02 21:35:39.63	92.54	1.21	-48.2	-61.3	3.5	1.52e+00	0	38	104	0	60	40973
2026-01-02 21:35:40.64	92.48	1.27	-48.1	-61.0	3.5	1.52e+00	0	38	104	0	60	39567
2026-01-02 21:35:41.65	92.41	1.32	-48.1	-61.0	3.5	1.52e+00	0	38	104	0	60	39386
2026-01-02 21:35:42.67	92.35	1.38	-48.1	-61.1	3.5	1.52e+00	0	38	104	0	60	39622
2026-01-02 21:35:43.68	92.28	1.44	-48.1	-61.1	3.5	1.52e+00	0	38	104	0	60	39715
2026-01-02 21:35:44.68	92.22	1.49	-48.1	-61.1	3.5	1.52e+00	0	38	104	0	60	39853
2026-01-02 21:35:45.69	92.15	1.55	-48.1	-61.1	3.5	1.52e+00	0	38	104	0	60	39706
2026-01-02 21:35:46.70	92.09	1.60	-48.1	-61.0	3.5	1.52e+00	0	38	104	0	60	39414
2026-01-02 21:35:47.71	92.02	1.66	-48.1	-61.0	3.5	1.51e+00	0	38	104	0	60	39266
2026-01-02 21:35:48.72	91.96	1.71	-48.1	-61.0	3.5	1.51e+00	0	38	104	0	60	39442
2026-01-02 21:35:49.73	91.89	1.77	-48.1	-61.1	3.5	1.52e+00	0	38	104	0	60	39795
2026-01-02 21:35:50.74	91.82	1.83	-48.1	-61.1	3.5	1.52e+00	0	38	104	0	60	39855
2026-01-02 21:35:51.75	91.76	1.88	-48.1	-61.0	3.5	1.52e+00	0	38	104	0	60	39596
2026-01-02 21:35:52.76	91.69	1.94	-48.1	-61.0	3.5	1.52e+00	0	38	104	0	60	39599
2026-01-02 21:35:53.77	91.62	2.00	-48.1	-61.1	3.5	1.52e+00	0	38	104	0	60	39672
2026-01-02 21:35:54.78	91.56	2.05	-48.1	-61.0	3.5	1.52e+00	0	38	104	0	60	39504
2026-01-02 21:35:55.78	91.49	2.11	-48.1	-61.0	3.5	1.52e+00	0	38	104	0	60	39214
2026-01-02 21:35:56.80	91.42	2.17	-48.1	-60.7	3.5	1.52e+00	0	38	104	0	60	38107
2026-01-02 21:35:57.81	91.35	2.22	-48.0	-60.5	3.5	1.52e+00	0	38	104	0	60	37174
2026-01-02 21:35:58.81	91.28	2.28	-48.0	-60.3	3.5	1.52e+00	0	39	104	0	60	36307
2026-01-02 21:35:59.82	91.21	2.34	-48.0	-60.4	3.5	1.52e+00	0	38	104	0	60	36814
2026-01-02 21:36:00.83	91.15	2.39	-48.1	-60.6	3.5	1.52e+00	0	38	104	0	60	37769
2026-01-02 21:36:01.85	91.08	2.45	-48.1	-60.9	3.5	1.52e+00	0	38	104	0	60	38877
2026-01-02 21:36:02.86	91.01	2.51	-48.1	-61.1	3.5	1.52e+00	0	38	104	0	60	39764
2026-01-02 21:36:03.87	90.94	2.57	-48.1	-61.1	3.5	1.51e+00	0	38	104	0	60	39752
2026-01-02 21:36:04.87	90.87	2.62	-48.1	-61.1	3.5	1.52e+00	0	38	104	0	60	39806
2026-01-02 21:36:05.89	90.79	2.68	-48.1	-61.1	3.5	1.52e+00	0	38	104	0	60	39632
2026-01-02 21:36:06.89	90.72	2.74	-48.1	-61.1	3.5	1.52e+00	0	38	104	0	60	39659
2026-01-02 21:36:07.90	90.65	2.79	-48.1	-60.8	3.5	1.52e+00	0	38	104	0	60	38552
2026-01-02 21:36:08.91	90.58	2.85	-48.1	-60.4	3.5	1.52e+00	0	38	104	0	60	36943
2026-01-02 21:36:09.92	90.51	2.91	-48.0	-60.1	3.5	1.52e+00	0	38	104	0	60	35480
2026-01-02 21:36:10.93	90.44	2.97	-48.0	-60.1	3.5	1.52e+00	0	38	104	0	60	35693
2026-01-02 21:36:11.94	90.37	3.03	-48.0	-60.7	3.5	1.52e+00	0	38	104	0	60	37987
2026-01-02 21:36:12.95	90.29	3.08	-48.0	-60.4	3.5	1.52e+00	0	38	104	0	60	36633
2026-01-02 21:36:13.96	90.22	3.14	-47.7	-57.3	4.3	1.45e+00	0	38	104	0	60	25691
2026-01-02 21:36:14.97	90.15	3.20	-46.7	-52.7	7.7	1.62e-01	123	39	104	0	60	15090
2026-01-02 21:36:15.98	90.07	3.26	-45.4	-49.0	11.0	1.36e-02	122	38	0	2097152	60	9889
2026-01-02 21:36:16.99	90.00	3.32	-44.1	-46.8	13.5	4.42e-05	121	38	0	5242880	60	7673
2026-01-02 21:36:18.00	89.92	3.37	-46.4	-50.9	8.8	4.93e-03	123	38	0	8388608	60	12247
2026-01-02 21:36:19.01	89.85	3.43	-45.9	-49.9	10.2	1.22e-03	123	38	0	11534336	60	10984
2026-01-02 21:36:20.02	89.78	3.49	-47.2	-60.9	3.5	1.12e+00	0	38	104	14680064	60	38710
2026-01-02 21:36:21.03	89.70	3.55	-47.9	-61.1	3.5	1.52e+00	0	38	104	14680064	60	39653
2026-01-02 21:36:22.03	89.63	3.61	-42.3	-44.6	15.5	3.29e-01	122	39	104	14680064	56	7474
2026-01-02 21:36:23.04	89.55	3.67	-41.9	-43.6	16.7	0.00e+00	120	39	0	15728640	56	6720
2026-01-02 21:36:24.05	89.47	3.73	-42.5	-44.4	16.2	0.00e+00	123	39	0	18874368	56	7327
2026-01-02 21:36:25.06	89.40	3.78	-41.7	-43.3	17.1	0.00e+00	123	39	0	22020096	56	6493
2026-01-02 21:36:26.07	89.32	3.84	-41.9	-43.5	17.2	0.00e+00	123	38	0	25165824	56	6647
2026-01-02 21:36:27.08	89.24	3.90	-40.9	-42.4	18.1	0.00e+00	123	38	0	28311552	56	5851
2026-01-02 21:36:28.09	89.17	3.96	-40.5	-42.0	18.4	0.00e+00	122	39	0	31457280	54	6242
2026-01-02 21:36:29.10	89.09	4.02	-40.1	-41.6	18.7	0.00e+00	123	38	0	34603008	54	5933
2026-01-02 21:36:30.11	89.01	4.08	-40.5	-42.0	18.4	0.00e+00	122	38	0	37748736	54	6277
2026-01-02 21:36:31.12	88.93	4.14	-40.0	-41.4	19.0	0.00e+00	122	39	0	40894464	54	5810
2026-01-02 21:36:32.13	88.85	4.20	-40.0	-41.4	18.9	0.00e+00	122	38	0	44040192	52	6543
2026-01-02 21:36:33.14	88.77	4.26	-39.9	-41.2	19.1	0.00e+00	122	38	0	47185920	52	6405
2026-01-02 21:36:34.15	88.70	4.32	-39.8	-41.2	19.2	0.00e+00	123	38	0	50331648	52	6370
2026-01-02 21:36:35.16	88.62	4.38	-39.8	-41.1	19.1	0.00e+00	123	38	0	53477376	52	6330
2026-01-02 21:36:36.17	88.54	4.44	-39.6	-40.9	19.5	0.00e+00	123	38	0	56623104	52	6159
2026-01-02 21:36:37.18	88.46	4.50	-39.5	-40.8	19.5	0.00e+00	122	39	0	59768832	52	6118
2026-01-02 21:36:38.19	88.37	4.56	-39.5	-40.9	19.5	0.00e+00	123	38	0	62914560	52	6143
2026-01-02 21:36:39.19	88.29	4.62	-39.6	-40.9	19.6	0.00e+00	123	39	0	66060288	52	6167
2026-01-02 21:36:40.20	88.21	4.68	-39.5	-40.8	19.7	0.00e+00	122	39	0	69206016	52	6080
2026-01-02 21:36:41.21	88.13	4.74	-39.4	-40.7	19.9	0.00e+00	120	39	0	72351744	52	6021
2026-01-02 21:36:42.22	88.05	4.80	-39.4	-40.7	19.7	0.00e+00	123	39	0	75497472	52	6058
2026-01-02 21:36:43.23	87.97	4.86	-39.3	-40.6	19.9	0.00e+00	123	39	0	78643200	52	5992
2026-01-02 21:36:44.24	87.88	4.92	-39.4	-40.8	19.8	0.00e+00	123	38	0	81788928	52	6075
2026-01-02 21:36:45.25	87.80	4.98	-39.0	-40.3	20.2	0.00e+00	123	39	0	84934656	52	5764
2026-01-02 21:36:46.26	87.72	5.04	-39.2	-40.4	20.1	0.00e+00	123	39	0	88080384	52	5853
2026-01-02 21:36:47.27	87.63	5.10	-39.1	-40.3	20.2	0.00e+00	120	39	0	91226112	52	5776
2026-01-02 21:36:48.28	87.55	5.16	-39.2	-40.4	20.1	0.00e+00	123	39	0	94371840	52	5850
2026-01-02 21:36:49.29	87.47	5.22	-39.2	-40.5	20.2	0.00e+00	122	38	0	97517568	52	5873
2026-01-02 21:36:50.30	87.38	5.28	-38.9	-40.2	20.3	0.00e+00	123	39	0	100663296	52	5683
2026-01-02 21:36:51.31	87.30	5.34	-38.9	-40.1	20.3	0.00e+00	122	39	0	103809024	52	5646
2026-01-02 21:36:52.32	87.21	5.40	-39.0	-40.3	20.1	0.00e+00	122	39	0	106954752	52	5791
2026-01-02 21:36:53.33	87.12	5.46	-39.0	-40.3	20.2	0.00e+00	122	39	0	110100480	52	5735
2026-01-02 21:36:54.34	87.04	5.53	-38.8	-40.1	20.4	0.00e+00	122	39	0	113246208	52	5608
2026-01-02 21:36:55.35	86.95	5.59	-38.8	-40.1	20.4	0.00e+00	123	39	0	116391936	52	5601
2026-01-02 21:36:56.36	86.86	5.65	-38.7	-40.0	20.6	0.00e+00	123	39	0	119537664	50	6206
2026-01-02 21:36:57.36	86.78	5.71	-38.6	-39.8	20.7	0.00e+00	123	39	0	122683392	50	6124
2026-01-02 21:36:58.37	86.69	5.77	-38.5	-39.7	20.8	0.00e+00	122	39	0	125829120	50	6011
2026-01-02 21:36:59.38	86.60	5.83	-38.5	-39.7	20.7	0.00e+00	123	39	0	128974848	50	6013
2026-01-02 21:37:00.40	86.51	5.89	-38.6	-39.8	20.7	0.00e+00	123	39	0	132120576	50	6111
2026-01-02 21:37:01.40	86.42	5.95	-38.6	-39.8	20.8	0.00e+00	123	39	0	135266304	50	6126
2026-01-02 21:37:02.41	86.33	6.02	-38.6	-39.8	20.7	0.00e+00	123	39	0	138412032	50	6075
2026-01-02 21:37:03.42	86.24	6.08	-38.6	-39.8	20.7	0.00e+00	123	39	0	141557760	50	6126
2026-01-02 21:37:04.43	86.15	6.14	-38.6	-39.8	20.7	0.00e+00	123	38	0	144703488	50	6072
2026-01-02 21:37:05.44	86.06	6.20	-38.3	-39.5	20.9	0.00e+00	123	39	0	147849216	50	5883
2026-01-02 21:37:06.45	85.97	6.26	-38.3	-39.5	20.9	0.00e+00	122	39	0	150994944	50	5878
2026-01-02 21:37:07.46	85.88	6.33	-38.5	-39.6	20.7	0.00e+00	120	39	0	155189248	50	5987
2026-01-02 21:37:08.47	85.79	6.39	-38.4	-39.6	20.7	0.00e+00	122	39	0	158334976	50	5965
2026-01-02 21:37:09.48	85.70	6.45	-38.4	-39.6	20.7	0.00e+00	123	39	0	161480704	50	5965
2026-01-02 21:37:10.49	85.60	6.51	-38.3	-39.5	21.0	0.00e+00	122	39	0	163577856	50	5864
2026-01-02 21:37:11.50	85.51	6.58	-38.3	-39.4	21.0	0.00e+00	123	39	0	166723584	50	5857
2026-01-02 21:37:12.51	85.42	6.64	-38.3	-39.4	21.1	0.00e+00	122	39	0	169869312	50	5827
2026-01-02 21:37:13.52	85.32	6.70	-38.2	-39.4	21.0	0.00e+00	123	39	0	174063616	50	5813
2026-01-02 21:37:14.53	85.23	6.76	-38.1	-39.3	21.1	0.00e+00	120	39	0	177209344	50	5736
2026-01-02 21:37:15.54	85.13	6.83	-38.1	-39.2	21.2	0.00e+00	122	39	0	180355072	50	5706
2026-01-02 21:37:16.55	85.04	6.89	-38.1	-39.3	21.2	0.00e+00	123	39	0	183500800	50	5734
2026-01-02 21:37:17.56	84.94	6.95	-38.2	-39.4	21.1	0.00e+00	123	39	0	186646528	50	5815
2026-01-02 21:37:18.57	84.85	7.02	-38.2	-39.3	21.2	0.00e+00	123	39	0	189792256	50	5736
2026-01-02 21:37:19.58	84.75	7.08	-38.2	-39.3	21.2	0.00e+00	123	39	0	192937984	50	5751
2026-01-02 21:37:20.59	84.65	7.14	-38.2	-39.3	21.2	0.00e+00	122	39	0	196083712	50	5750
2026-01-02 21:37:21.60	84.56	7.21	-38.1	-39.2	21.2	0.00e+00	123	39	0	199229440	50	5711
2026-01-02 21:37:22.61	84.46	7.27	-38.0	-39.1	21.3	0.00e+00	122	39	0	202375168	50	5657
2026-01-02 21:37:23.62	84.36	7.33	-38.2	-39.3	21.2	0.00e+00	120	39	0	205520896	50	5771
2026-01-02 21:37:24.63	84.26	7.40	-37.9	-39.0	21.4	0.00e+00	122	39	0	208666624	50	5586
2026-01-02 21:37:25.64	84.16	7.46	-38.0	-39.1	21.3	0.00e+00	120	39	0	211812352	50	5647
2026-01-02 21:37:26.65	84.06	7.52	-38.0	-39.1	21.4	0.00e+00	123	39	0	214958080	50	5649
2026-01-02 21:37:27.66	83.96	7.59	-38.0	-39.1	21.3	0.00e+00	122	39	0	218103808	50	5653
2026-01-02 21:37:28.67	83.86	7.65	-38.1	-39.2	21.2	0.00e+00	123	39	0	221249536	50	5718
2026-01-02 21:37:29.68	83.76	7.72	-38.2	-39.3	21.3	0.00e+00	120	39	0	224395264	50	5764
2026-01-02 21:37:30.69	83.66	7.78	-38.3	-39.4	21.1	0.00e+00	122	39	0	227540992	50	5845
2026-01-02 21:37:31.70	83.56	7.84	-37.9	-39.0	21.5	0.00e+00	123	39	0	230686720	50	5568
2026-01-02 21:37:32.71	83.46	7.91	-37.9	-39.0	21.5	0.00e+00	122	39	0	233832448	50	5578
2026-01-02 21:37:33.72	83.36	7.97	-37.9	-39.0	21.5	0.00e+00	123	39	0	236978176	50	5570
2026-01-02 21:37:34.72	83.25	8.04	-37.8	-38.9	21.6	0.00e+00	120	39	0	240123904	50	5521
2026-01-02 21:37:35.73	83.15	8.10	-37.8	-38.9	21.6	0.00e+00	122	39	0	243269632	50	5483
2026-01-02 21:37:36.74	83.05	8.16	-37.7	-38.8	21.7	0.00e+00	122	39	0	246415360	50	5445
2026-01-02 21:37:37.75	82.94	8.23	-37.7	-38.8	21.7	0.00e+00	122	39	0	249561088	48	6111
2026-01-02 21:37:38.76	82.84	8.29	-37.7	-38.8	21.7	0.00e+00	123	39	0	252706816	48	6079
2026-01-02 21:37:39.77	82.73	8.36	-37.6	-38.7	21.8	0.00e+00	122	39	0	255852544	48	6049
2026-01-02 21:37:40.78	82.62	8.42	-37.7	-38.8	21.8	0.00e+00	120	39	0	258998272	48	6077
2026-01-02 21:37:41.79	82.52	8.49	-37.7	-38.8	21.8	0.00e+00	123	39	0	262144000	48	6123
2026-01-02 21:37:42.80	82.41	8.55	-37.6	-38.7	21.7	0.00e+00	123	39	0	265289728	48	6047
2026-01-02 21:37:43.81	82.30	8.62	-37.7	-38.7	21.8	0.00e+00	122	39	0	268435456	48	6061
2026-01-02 21:37:44.82	82.20	8.68	-37.6	-38.7	21.9	0.00e+00	120	39	0	271581184	48	5997
2026-01-02 21:37:45.83	82.09	8.75	-37.8	-38.9	21.7	0.00e+00	120	39	0	274726912	48	6162
2026-01-02 21:37:46.84	81.98	8.81	-37.5	-38.6	22.0	0.00e+00	122	39	0	277872640	48	5952
2026-01-02 21:37:47.84	81.87	8.88	-37.7	-38.7	21.8	0.00e+00	123	39	0	281018368	48	6045
2026-01-02 21:37:48.85	81.76	8.94	-37.5	-38.6	22.0	0.00e+00	122	39	0	284164096	48	5949
2026-01-02 21:37:49.86	81.65	9.01	-37.6	-38.6	21.9	0.00e+00	120	39	0	287309824	48	5952
2026-01-02 21:37:50.87	81.54	9.07	-37.5	-38.5	22.0	0.00e+00	123	39	0	290455552	48	5916
2026-01-02 21:37:51.88	81.43	9.14	-37.4	-38.5	22.0	0.00e+00	122	39	0	293601280	48	5878
2026-01-02 21:37:52.89	81.32	9.20	-37.5	-38.5	22.1	0.00e+00	123	39	0	296747008	48	5909
2026-01-02 21:37:53.90	81.20	9.27	-37.4	-38.4	22.1	0.00e+00	122	39	0	299892736	48	5848
2026-01-02 21:37:54.91	81.09	9.34	-37.4	-38.5	22.1	0.00e+00	123	39	0	303038464	48	5868
2026-01-02 21:37:55.92	80.98	9.40	-37.5	-38.5	22.0	0.00e+00	123	39	0	306184192	48	5920
2026-01-02 21:37:56.93	80.86	9.47	-37.5	-38.5	22.1	0.00e+00	122	39	0	309329920	48	5919
2026-01-02 21:37:57.94	80.75	9.53	-37.5	-38.6	22.0	0.00e+00	122	39	0	312475648	48	5940
2026-01-02 21:37:58.94	80.63	9.60	-37.6	-38.6	22.0	0.00e+00	120	39	0	315621376	48	5967
2026-01-02 21:37:59.96	80.52	9.67	-37.6	-38.7	22.0	0.00e+00	123	39	0	318767104	48	6019
2026-01-02 21:38:00.97	80.40	9.73	-37.5	-38.5	22.2	0.00e+00	122	39	0	321912832	48	5910
2026-01-02 21:38:01.97	80.29	9.80	-37.4	-38.5	22.1	0.00e+00	123	39	0	325058560	48	5875
2026-01-02 21:38:02.99	80.17	9.86	-37.3	-38.3	22.3	0.00e+00	122	39	0	328204288	48	5759
2026-01-02 21:38:04.00	80.05	9.93	-37.1	-38.1	22.5	0.00e+00	123	39	0	331350016	48	5645
2026-01-02 21:38:05.00	79.93	10.00	-37.1	-38.2	22.5	0.00e+00	123	39	0	334495744	48	5675
2026-01-02 21:38:06.01	79.81	10.06	-37.1	-38.1	22.5	0.00e+00	123	39	0	337641472	48	5632
2026-01-02 21:38:07.02	79.69	10.13	-37.1	-38.1	22.5	0.00e+00	123	39	0	340787200	48	5636
2026-01-02 21:38:08.03	79.57	10.19	-37.1	-38.1	22.4	0.00e+00	122	39	0	343932928	48	5650
2026-01-02 21:38:09.04	79.45	10.26	-37.0	-38.0	22.5	0.00e+00	123	39	0	347078656	48	5570
2026-01-02 21:38:10.04	79.33	10.33	-37.0	-38.0	22.5	0.00e+00	122	39	0	350224384	48	5590
2026-01-02 21:38:11.05	79.21	10.39	-37.1	-38.1	22.4	0.00e+00	123	39	0	353370112	48	5639
2026-01-02 21:38:12.06	79.09	10.46	-37.1	-38.1	22.4	0.00e+00	122	39	0	356515840	48	5656
2026-01-02 21:38:13.07	78.97	10.53	-37.2	-38.2	22.4	0.00e+00	122	39	0	359661568	48	5711
2026-01-02 21:38:14.08	78.84	10.59	-37.1	-38.1	22.6	0.00e+00	123	39	0	362807296	48	5621
2026-01-02 21:38:15.09	78.72	10.66	-37.2	-38.2	22.5	0.00e+00	123	39	0	365953024	48	5713
2026-01-02 21:38:16.10	78.59	10.73	-37.1	-38.1	22.6	0.00e+00	122	39	0	369098752	48	5648
2026-01-02 21:38:17.11	78.47	10.79	-37.0	-38.0	22.7	0.00e+00	122	39	0	372244480	48	5572
2026-01-02 21:38:18.12	78.34	10.86	-37.0	-38.0	22.6	0.00e+00	122	39	0	375390208	48	5579
2026-01-02 21:38:19.13	78.22	10.93	-37.1	-38.1	22.6	0.00e+00	123	39	0	378535936	48	5621
2026-01-02 21:38:20.14	78.09	11.00	-37.0	-38.0	22.7	0.00e+00	123	39	0	381681664	48	5541
2026-01-02 21:38:21.15	77.96	11.06	-36.7	-37.7	22.9	0.00e+00	120	39	0	384827392	48	5377
2026-01-02 21:38:22.16	77.84	11.13	-36.8	-37.7	22.9	0.00e+00	122	39	0	387973120	46	6048
2026-01-02 21:38:23.17	77.71	11.20	-36.7	-37.7	22.9	0.00e+00	123	39	0	391118848	46	6012
2026-01-02 21:38:24.18	77.58	11.26	-36.7	-37.7	22.8	0.00e+00	122	39	0	394264576	46	5999
2026-01-02 21:38:25.19	77.45	11.33	-36.8	-37.8	22.8	0.00e+00	122	39	0	397410304	46	6093
2026-01-02 21:38:26.20	77.32	11.40	-36.8	-37.8	22.7	0.00e+00	123	39	0	400556032	46	6115
2026-01-02 21:38:27.20	77.19	11.47	-37.0	-38.0	22.6	0.00e+00	120	39	0	403701760	46	6237
2026-01-02 21:38:28.21	77.06	11.53	-37.0	-38.0	22.7	0.00e+00	122	39	0	406847488	46	6235
2026-01-02 21:38:29.23	76.92	11.60	-36.9	-37.9	22.8	0.00e+00	122	39	0	409993216	46	6168
2026-01-02 21:38:30.24	76.79	11.67	-36.9	-37.9	22.8	0.00e+00	122	39	0	413138944	46	6182
2026-01-02 21:38:31.24	76.66	11.74	-36.7	-37.7	23.0	0.00e+00	122	39	0	416284672	46	6046
2026-01-02 21:38:32.25	76.52	11.80	-36.8	-37.8	23.0	0.00e+00	123	39	0	419430400	46	6072
2026-01-02 21:38:33.26	76.39	11.87	-36.7	-37.7	23.1	0.00e+00	123	39	0	422576128	46	6012
2026-01-02 21:38:34.27	76.25	11.94	-36.7	-37.6	23.1	0.00e+00	123	39	0	425721856	46	5994
2026-01-02 21:38:35.28	76.12	12.01	-36.6	-37.6	23.2	0.00e+00	122	39	0	428867584	46	5951
2026-01-02 21:38:36.29	75.98	12.07	-36.7	-37.7	23.1	0.00e+00	123	39	0	432013312	46	6003
2026-01-02 21:38:37.30	75.84	12.14	-36.6	-37.5	23.2	0.00e+00	120	39	0	435159040	46	5925
2026-01-02 21:38:38.31	75.70	12.21	-36.6	-37.6	23.1	0.00e+00	122	39	0	438304768	46	5980
2026-01-02 21:38:39.32	75.57	12.28	-36.4	-37.4	23.2	0.00e+00	120	39	0	441450496	46	5844
2026-01-02 21:38:40.33	75.43	12.34	-36.5	-37.5	23.2	0.00e+00	123	39	0	444596224	46	5903
2026-01-02 21:38:41.34	75.29	12.41	-36.5	-37.5	23.1	0.00e+00	123	39	0	447741952	46	5891
2026-01-02 21:38:42.35	75.15	12.48	-36.6	-37.6	23.1	0.00e+00	123	39	0	450887680	46	5956
2026-01-02 21:38:43.36	75.00	12.55	-36.6	-37.6	23.1	0.00e+00	120	39	0	454033408	46	5950
2026-01-02 21:38:44.36	74.86	12.61	-36.6	-37.6	23.2	0.00e+00	123	39	0	457179136	46	5947
2026-01-02 21:38:45.37	74.72	12.68	-36.5	-37.5	23.2	0.00e+00	120	39	0	460324864	46	5913
2026-01-02 21:38:46.38	74.58	12.75	-36.6	-37.6	23.2	0.00e+00	122	39	0	463470592	46	5956
2026-01-02 21:38:47.39	74.43	12.82	-36.6	-37.6	23.3	0.00e+00	120	39	0	466616320	46	5979
2026-01-02 21:38:48.40	74.29	12.89	-36.4	-37.4	23.3	0.00e+00	123	39	0	469762048	46	5824
2026-01-02 21:38:49.41	74.14	12.95	-36.5	-37.5	23.3	0.00e+00	123	39	0	472907776	46	5887
2026-01-02 21:38:50.42	74.00	13.02	-36.3	-37.3	23.3	0.00e+00	123	39	0	476053504	46	5751
2026-01-02 21:38:51.43	73.85	13.09	-36.5	-37.4	23.2	0.00e+00	121	39	0	479199232	46	5842
2026-01-02 21:38:52.44	73.70	13.16	-36.5	-37.4	23.3	0.00e+00	123	39	0	482344960	46	5838
2026-01-02 21:38:53.45	73.56	13.23	-36.7	-37.6	23.1	0.00e+00	120	39	0	485490688	46	5977
2026-01-02 21:38:54.46	73.41	13.29	-36.7	-37.6	23.2	0.00e+00	122	39	0	488636416	46	5972
2026-01-02 21:38:55.48	73.26	13.36	-36.7	-37.7	23.1	0.00e+00	120	39	0	491782144	46	6009
2026-01-02 21:38:56.48	73.11	13.43	-36.7	-37.6	23.1	0.00e+00	123	39	0	494927872	46	5980
2026-01-02 21:38:57.49	72.96	13.50	-36.8	-37.8	23.0	0.00e+00	122	39	0	498073600	46	6108
2026-01-02 21:38:58.50	72.81	13.56	-36.7	-37.7	23.1	0.00e+00	123	39	0	501219328	46	6021
2026-01-02 21:38:59.51	72.65	13.63	-36.6	-37.6	23.2	0.00e+00	123	39	0	504365056	46	5944
2026-01-02 21:39:00.52	72.50	13.70	-36.7	-37.6	23.1	0.00e+00	122	39	0	507510784	46	5993
2026-01-02 21:39:01.53	72.35	13.77	-36.7	-37.6	23.2	0.00e+00	123	39	0	510656512	46	5978
2026-01-02 21:39:02.55	72.19	13.84	-36.7	-37.7	23.1	0.00e+00	123	39	0	513802240	46	6020
2026-01-02 21:39:03.56	72.04	13.90	-36.7	-37.7	23.2	0.00e+00	123	39	0	516947968	46	6010
2026-01-02 21:39:04.56	71.88	13.97	-36.7	-37.6	23.2	0.00e+00	123	39	0	521142272	46	5991
2026-01-02 21:39:05.57	71.73	14.04	-36.8	-37.8	23.1	0.00e+00	122	39	0	524288000	46	6068
2026-01-02 21:39:06.58	71.57	14.11	-36.8	-37.8	23.1	0.00e+00	123	39	0	527433728	46	6081
2026-01-02 21:39:07.59	71.41	14.17	-36.8	-37.8	23.1	0.00e+00	122	39	0	529530880	46	6078
2026-01-02 21:39:08.60	71.25	14.24	-36.8	-37.9	23.0	0.00e+00	122	39	0	532676608	46	6135
2026-01-02 21:39:09.61	71.09	14.31	-37.0	-38.0	22.9	0.00e+00	123	39	0	535822336	46	6226
2026-01-02 21:39:10.62	70.93	14.38	-36.9	-37.9	23.1	0.00e+00	122	39	0	540016640	46	6154
2026-01-02 21:39:11.63	70.77	14.44	-36.7	-37.7	23.2	0.00e+00	120	39	0	543162368	46	6015
2026-01-02 21:39:12.64	70.61	14.51	-36.7	-37.7	23.2	0.00e+00	122	39	0	546308096	46	6003
2026-01-02 21:39:13.65	70.45	14.58	-36.6	-37.5	23.3	0.00e+00	123	39	0	549453824	46	5904
2026-01-02 21:39:14.66	70.28	14.65	-36.7	-37.7	23.2	0.00e+00	122	39	0	552599552	46	6045
2026-01-02 21:39:15.67	70.12	14.71	-36.6	-37.6	23.2	0.00e+00	120	39	0	555745280	46	5934
2026-01-02 21:39:16.68	69.96	14.78	-36.7	-37.7	23.1	0.00e+00	122	39	0	558891008	46	6061
2026-01-02 21:39:17.69	69.79	14.85	-36.7	-37.7	23.1	0.00e+00	123	39	0	562036736	46	6003
2026-01-02 21:39:18.70	69.62	14.92	-36.8	-37.8	23.0	0.00e+00	123	39	0	565182464	46	6084
2026-01-02 21:39:19.71	69.46	14.98	-36.7	-37.7	23.1	0.00e+00	123	39	0	568328192	46	6043
2026-01-02 21:39:20.72	69.29	15.05	-36.8	-37.8	23.1	0.00e+00	122	39	0	571473920	46	6065
2026-01-02 21:39:21.73	69.12	15.12	-36.6	-37.6	23.3	0.00e+00	122	39	0	574619648	46	5933
2026-01-02 21:39:22.74	68.95	15.18	-36.6	-37.6	23.3	0.00e+00	123	39	0	577765376	46	5952
2026-01-02 21:39:23.75	68.78	15.25	-36.6	-37.6	23.4	0.00e+00	123	39	0	580911104	46	5930
2026-01-02 21:39:24.76	68.61	15.32	-36.6	-37.5	23.3	0.00e+00	122	39	0	584056832	46	5904
2026-01-02 21:39:25.77	68.44	15.38	-36.6	-37.6	23.3	0.00e+00	122	39	0	587202560	46	5940
2026-01-02 21:39:26.78	68.27	15.45	-36.7	-37.6	23.2	0.00e+00	120	39	0	590348288	46	5973
2026-01-02 21:39:27.79	68.09	15.52	-36.7	-37.7	23.2	0.00e+00	123	39	0	593494016	46	6009
2026-01-02 21:39:28.80	67.92	15.58	-36.7	-37.7	23.1	0.00e+00	123	39	0	596639744	46	6030
2026-01-02 21:39:29.81	67.75	15.65	-36.5	-37.5	23.3	0.00e+00	122	39	0	599785472	46	5889
2026-01-02 21:39:30.82	67.57	15.72	-36.6	-37.6	23.2	0.00e+00	123	39	0	602931200	46	5930
2026-01-02 21:39:31.83	67.39	15.78	-36.6	-37.6	23.3	0.00e+00	121	39	0	606076928	46	5929
2026-01-02 21:39:32.84	67.22	15.85	-36.6	-37.6	23.3	0.00e+00	120	39	0	609222656	46	5928
2026-01-02 21:39:33.85	67.04	15.91	-36.6	-37.5	23.3	0.00e+00	123	39	0	612368384	46	5911
2026-01-02 21:39:34.86	66.86	15.98	-36.4	-37.3	23.5	0.00e+00	122	39	0	615514112	46	5781
2026-01-02 21:39:35.87	66.68	16.05	-36.5	-37.5	23.3	0.00e+00	123	39	0	618659840	46	5888
2026-01-02 21:39:36.87	66.50	16.11	-36.6	-37.6	23.2	0.00e+00	123	39	0	621805568	46	5967
2026-01-02 21:39:37.88	66.32	16.18	-36.7	-37.6	23.2	0.00e+00	123	39	0	624951296	46	5983
2026-01-02 21:39:38.89	66.14	16.24	-36.6	-37.6	23.2	0.00e+00	123	39	0	628097024	46	5940
2026-01-02 21:39:39.90	65.96	16.31	-36.5	-37.5	23.3	0.00e+00	122	39	0	631242752	46	5904
2026-01-02 21:39:40.91	65.77	16.37	-36.6	-37.5	23.3	0.00e+00	123	39	0	634388480	46	5910
2026-01-02 21:39:41.92	65.59	16.44	-36.6	-37.6	23.4	0.00e+00	123	39	0	637534208	46	5935
2026-01-02 21:39:42.93	65.40	16.50	-36.6	-37.6	23.3	0.00e+00	123	39	0	640679936	46	5952
2026-01-02 21:39:43.94	65.22	16.57	-36.6	-37.6	23.3	0.00e+00	123	39	0	643825664	46	5951
2026-01-02 21:39:44.94	65.03	16.63	-36.6	-37.5	23.3	0.00e+00	122	39	0	646971392	46	5915
2026-01-02 21:39:45.96	64.84	16.70	-36.6	-37.6	23.3	0.00e+00	123	39	0	650117120	46	5928
2026-01-02 21:39:46.97	64.66	16.76	-36.6	-37.6	23.3	0.00e+00	120	39	0	653262848	46	5937
2026-01-02 21:39:47.98	64.47	16.82	-36.7	-37.7	23.2	0.00e+00	122	39	0	656408576	46	5995
2026-01-02 21:39:48.99	64.28	16.89	-36.7	-37.7	23.1	0.00e+00	123	39	0	659554304	46	6039
2026-01-02 21:39:50.00	64.09	16.95	-36.7	-37.6	23.2	0.00e+00	123	39	0	662700032	46	5987
2026-01-02 21:39:51.01	63.90	17.02	-36.7	-37.7	23.2	0.00e+00	122	39	0	665845760	46	6021
2026-01-02 21:39:52.02	63.70	17.08	-36.7	-37.7	23.1	0.00e+00	123	39	0	668991488	46	6001
2026-01-02 21:39:53.03	63.51	17.14	-36.7	-37.7	23.1	0.00e+00	123	39	0	672137216	46	6011
2026-01-02 21:39:54.04	63.32	17.21	-36.7	-37.7	23.1	0.00e+00	122	39	0	675282944	46	6022
2026-01-02 21:39:55.05	63.12	17.27	-36.6	-37.6	23.3	0.00e+00	122	39	0	678428672	46	5981
2026-01-02 21:39:56.06	62.93	17.33	-36.8	-37.8	23.2	0.00e+00	123	39	0	681574400	46	6123
2026-01-02 21:39:57.07	62.73	17.39	-36.8	-37.7	23.2	0.00e+00	122	39	0	684720128	46	6062
2026-01-02 21:39:58.08	62.53	17.46	-36.8	-37.8	23.1	0.00e+00	122	39	0	687865856	46	6108
2026-01-02 21:39:59.09	62.33	17.52	-36.9	-37.9	23.2	0.00e+00	123	39	0	691011584	46	6154
2026-01-02 21:40:00.10	62.14	17.58	-36.8	-37.7	23.2	0.00e+00	122	39	0	694157312	46	6057
2026-01-02 21:40:01.11	61.94	17.64	-36.7	-37.7	23.1	0.00e+00	122	39	0	697303040	46	6026
2026-01-02 21:40:02.12	61.74	17.70	-36.7	-37.7	23.1	0.00e+00	123	39	0	700448768	46	6015
2026-01-02 21:40:03.13	61.53	17.77	-36.7	-37.7	23.2	0.00e+00	121	39	0	703594496	46	6018
2026-01-02 21:40:04.14	61.33	17.83	-36.6	-37.6	23.3	0.00e+00	120	39	0	706740224	46	5973
2026-01-02 21:40:05.15	61.13	17.89	-36.6	-37.5	23.3	0.00e+00	122	39	0	709885952	46	5916
2026-01-02 21:40:06.16	60.93	17.95	-36.7	-37.7	23.2	0.00e+00	122	39	0	713031680	46	6012
2026-01-02 21:40:07.17	60.72	18.01	-36.6	-37.6	23.3	0.00e+00	123	39	0	716177408	46	5937
2026-01-02 21:40:08.18	60.51	18.07	-36.7	-37.7	23.2	0.00e+00	122	39	0	719323136	46	6005
2026-01-02 21:40:09.19	60.31	18.13	-36.7	-37.7	23.1	0.00e+00	122	39	0	722468864	46	6025
2026-01-02 21:40:10.20	60.10	18.19	-36.6	-37.6	23.2	0.00e+00	120	39	0	725614592	46	5965
2026-01-02 21:40:11.21	59.89	18.25	-36.7	-37.7	23.2	0.00e+00	123	39	0	728760320	46	6047
2026-01-02 21:40:12.22	59.68	18.31	-36.5	-37.5	23.3	0.00e+00	120	39	0	731906048	46	5910
2026-01-02 21:40:13.23	59.48	18.37	-36.7	-37.7	23.2	0.00e+00	123	39	0	735051776	46	6015
2026-01-02 21:40:14.24	59.26	18.43	-36.6	-37.5	23.3	0.00e+00	122	39	0	738197504	46	5923
2026-01-02 21:40:15.25	59.05	18.49	-36.6	-37.5	23.4	0.00e+00	123	39	0	741343232	46	5907
2026-01-02 21:40:16.25	58.84	18.54	-36.5	-37.5	23.4	0.00e+00	122	39	0	744488960	46	5886
2026-01-02 21:40:17.26	58.63	18.60	-36.5	-37.4	23.4	0.00e+00	122	39	0	747634688	46	5846
2026-01-02 21:40:18.27	58.42	18.66	-36.2	-37.1	23.6	0.00e+00	123	39	0	750780416	46	5651
2026-01-02 21:40:19.28	58.20	18.72	-36.2	-37.2	23.7	0.00e+00	120	39	0	753926144	46	5660
2026-01-02 21:40:20.29	57.99	18.77	-36.4	-37.4	23.5	0.00e+00	122	39	0	757071872	46	5793
2026-01-02 21:40:21.30	57.77	18.83	-36.1	-37.0	23.7	0.00e+00	122	39	0	760217600	46	5579
2026-01-02 21:40:22.31	57.55	18.89	-36.1	-37.0	23.7	0.00e+00	123	39	0	763363328	46	5573
2026-01-02 21:40:23.32	57.34	18.94	-36.0	-37.0	23.8	0.00e+00	123	39	0	766509056	46	5532
2026-01-02 21:40:24.33	57.12	19.00	-36.0	-37.0	23.9	0.00e+00	122	39	0	769654784	46	5547
2026-01-02 21:40:25.34	56.90	19.06	-35.8	-36.7	24.1	0.00e+00	123	39	0	772800512	46	5391
2026-01-02 21:40:26.35	56.68	19.11	-35.8	-36.7	24.0	0.00e+00	122	39	0	775946240	46	5382
2026-01-02 21:40:27.36	56.46	19.17	-35.5	-36.4	24.2	0.00e+00	122	39	0	779091968	44	5854
2026-01-02 21:40:28.36	56.24	19.22	-35.7	-36.6	24.1	0.00e+00	123	39	0	782237696	44	5931
2026-01-02 21:40:29.38	56.01	19.28	-35.6	-36.5	24.1	0.00e+00	121	39	0	785383424	44	5901
2026-01-02 21:40:30.39	55.79	19.33	-35.8	-36.7	23.9	0.00e+00	123	39	0	788529152	44	6021
2026-01-02 21:40:31.40	55.57	19.38	-35.7	-36.6	24.0	0.00e+00	120	39	0	791674880	44	5975
2026-01-02 21:40:32.41	55.34	19.44	-35.8	-36.7	23.9	0.00e+00	123	39	0	794820608	44	6046
2026-01-02 21:40:33.42	55.12	19.49	-35.7	-36.6	24.1	0.00e+00	120	39	0	797966336	44	5937
2026-01-02 21:40:34.43	54.89	19.54	-35.7	-36.6	24.0	0.00e+00	123	39	0	801112064	44	5960
2026-01-02 21:40:35.44	54.66	19.59	-35.7	-36.7	23.9	0.00e+00	122	39	0	804257792	44	6001
2026-01-02 21:40:36.44	54.44	19.65	-35.6	-36.5	24.1	0.00e+00	123	39	0	807403520	44	5877
2026-01-02 21:40:37.45	54.21	19.70	-35.6	-36.5	24.1	0.00e+00	122	39	0	810549248	44	5901
2026-01-02 21:40:38.46	53.98	19.75	-35.7	-36.6	24.1	0.00e+00	120	39	0	813694976	44	5936
2026-01-02 21:40:39.47	53.75	19.80	-35.7	-36.6	24.0	0.00e+00	120	39	0	816840704	44	5954
2026-01-02 21:40:40.48	53.52	19.85	-35.8	-36.7	23.9	0.00e+00	122	39	0	819986432	44	6063
2026-01-02 21:40:41.49	53.28	19.90	-35.9	-36.8	23.8	0.00e+00	120	39	0	823132160	44	6096
2026-01-02 21:40:42.50	53.05	19.95	-35.8	-36.7	24.0	0.00e+00	122	39	0	826277888	44	6018
2026-01-02 21:40:43.51	52.82	20.00	-35.8	-36.7	24.0	0.00e+00	122	39	0	829423616	44	6028
2026-01-02 21:40:44.52	52.58	20.05	-35.7	-36.6	24.0	0.00e+00	123	39	0	832569344	44	5958
2026-01-02 21:40:45.53	52.35	20.10	-35.7	-36.6	24.1	0.00e+00	120	39	0	835715072	44	5970
2026-01-02 21:40:46.54	52.11	20.14	-35.6	-36.5	24.1	0.00e+00	123	39	0	838860800	44	5899
2026-01-02 21:40:47.55	51.88	20.19	-35.6	-36.5	24.2	0.00e+00	120	39	0	842006528	44	5864
2026-01-02 21:40:48.56	51.64	20.24	-35.6	-36.5	24.2	0.00e+00	120	39	0	845152256	44	5902
2026-01-02 21:40:49.57	51.40	20.29	-35.4	-36.4	24.3	0.00e+00	122	39	0	848297984	44	5793
2026-01-02 21:40:50.58	51.16	20.33	-35.3	-36.2	24.3	0.00e+00	120	39	0	851443712	44	5669
2026-01-02 21:40:51.59	50.92	20.38	-35.5	-36.4	24.3	0.00e+00	122	39	0	854589440	44	5839
2026-01-02 21:40:52.59	50.69	20.42	-35.4	-36.3	24.3	0.00e+00	123	39	0	857735168	44	5760
2026-01-02 21:40:53.61	50.44	20.47	-35.4	-36.3	24.3	0.00e+00	123	39	0	860880896	44	5768
2026-01-02 21:40:54.62	50.20	20.51	-35.5	-36.4	24.3	0.00e+00	123	39	0	865075200	44	5815
2026-01-02 21:40:55.63	49.96	20.56	-35.5	-36.4	24.2	0.00e+00	122	39	0	868220928	44	5796
2026-01-02 21:40:56.64	49.72	20.60	-35.5	-36.4	24.1	0.00e+00	120	39	0	870318080	44	5848
2026-01-02 21:40:57.64	49.47	20.64	-35.4	-36.3	24.2	0.00e+00	122	39	0	873463808	44	5774
2026-01-02 21:40:58.65	49.23	20.69	-35.7	-36.6	24.2	0.00e+00	123	39	0	876609536	44	5928
2026-01-02 21:40:59.66	48.99	20.73	-35.4	-36.3	24.4	0.00e+00	123	39	0	880803840	44	5770
2026-01-02 21:41:00.67	48.74	20.77	-35.4	-36.2	24.5	0.00e+00	123	39	0	883949568	44	5719
2026-01-02 21:41:01.68	48.49	20.81	-35.4	-36.3	24.5	0.00e+00	122	39	0	887095296	44	5744
2026-01-02 21:41:02.69	48.25	20.85	-35.4	-36.3	24.4	0.00e+00	123	39	0	890241024	44	5735
2026-01-02 21:41:03.70	48.00	20.89	-35.4	-36.3	24.5	0.00e+00	123	39	0	892338176	44	5741
2026-01-02 21:41:04.71	47.75	20.93	-35.4	-36.3	24.4	0.00e+00	122	39	0	896532480	44	5749
2026-01-02 21:41:05.72	47.50	20.97	-35.3	-36.2	24.5	0.00e+00	120	39	0	899678208	44	5686
2026-01-02 21:41:06.73	47.25	21.01	-35.4	-36.3	24.4	0.00e+00	122	39	0	902823936	44	5759
2026-01-02 21:41:07.74	47.00	21.05	-35.5	-36.4	24.3	0.00e+00	120	39	0	905969664	44	5856
2026-01-02 21:41:08.75	46.75	21.08	-35.4	-36.3	24.5	0.00e+00	123	39	0	909115392	44	5757
2026-01-02 21:41:09.76	46.50	21.12	-35.4	-36.3	24.4	0.00e+00	123	39	0	912261120	44	5745
2026-01-02 21:41:10.77	46.25	21.16	-35.5	-36.3	24.3	0.00e+00	120	39	0	915406848	44	5788
2026-01-02 21:41:11.78	46.00	21.19	-35.4	-36.3	24.3	0.00e+00	122	39	0	918552576	44	5756
2026-01-02 21:41:12.79	45.74	21.23	-35.4	-36.3	24.3	0.00e+00	122	39	0	921698304	44	5776
2026-01-02 21:41:13.80	45.49	21.26	-35.5	-36.4	24.4	0.00e+00	122	39	0	924844032	44	5797
2026-01-02 21:41:14.81	45.24	21.30	-35.5	-36.4	24.3	0.00e+00	123	39	0	927989760	44	5822
2026-01-02 21:41:15.82	44.98	21.33	-35.5	-36.5	24.3	0.00e+00	123	39	0	931135488	44	5861
2026-01-02 21:41:16.83	44.73	21.37	-35.6	-36.5	24.3	0.00e+00	123	39	0	934281216	44	5886
2026-01-02 21:41:17.83	44.47	21.40	-35.6	-36.5	24.3	0.00e+00	123	39	0	937426944	44	5861
2026-01-02 21:41:18.84	44.22	21.43	-35.5	-36.4	24.3	0.00e+00	123	39	0	940572672	44	5842
2026-01-02 21:41:19.85	43.96	21.46	-35.6	-36.5	24.2	0.00e+00	120	39	0	943718400	44	5913
2026-01-02 21:41:20.86	43.70	21.49	-35.9	-36.8	24.1	0.00e+00	122	39	0	946864128	44	6095
2026-01-02 21:41:21.88	43.44	21.52	-35.7	-36.6	24.1	0.00e+00	120	39	0	950009856	44	5933
2026-01-02 21:41:22.88	43.18	21.55	-35.8	-36.7	24.3	0.00e+00	122	39	0	953155584	44	6014
2026-01-02 21:41:23.89	42.93	21.58	-35.7	-36.6	24.2	0.00e+00	123	39	0	956301312	44	5952
2026-01-02 21:41:24.90	42.67	21.61	-35.6	-36.5	24.3	0.00e+00	123	39	0	959447040	44	5890
2026-01-02 21:41:25.91	42.41	21.64	-35.5	-36.4	24.4	0.00e+00	123	39	0	962592768	44	5853
2026-01-02 21:41:26.93	42.14	21.67	-35.6	-36.5	24.3	0.00e+00	120	39	0	965738496	44	5898
2026-01-02 21:41:27.93	41.89	21.69	-35.5	-36.4	24.3	0.00e+00	122	39	0	968884224	44	5821
2026-01-02 21:41:28.94	41.62	21.72	-35.5	-36.5	24.3	0.00e+00	122	39	0	972029952	44	5870
2026-01-02 21:41:29.96	41.36	21.74	-35.7	-36.6	24.1	0.00e+00	120	39	0	975175680	44	5962
2026-01-02 21:41:30.97	41.10	21.77	-35.8	-36.7	24.2	0.00e+00	122	39	0	978321408	44	5998
2026-01-02 21:41:31.97	40.84	21.79	-35.7	-36.6	24.2	0.00e+00	123	39	0	981467136	44	5937
2026-01-02 21:41:32.98	40.57	21.82	-35.5	-36.4	24.4	0.00e+00	121	39	0	984612864	44	5825
2026-01-02 21:41:34.00	40.31	21.84	-35.5	-36.4	24.3	0.00e+00	120	39	0	987758592	44	5801
2026-01-02 21:41:35.00	40.05	21.86	-35.5	-36.4	24.3	0.00e+00	122	39	0	990904320	44	5805
2026-01-02 21:41:36.01	39.78	21.89	-35.6	-36.5	24.1	0.00e+00	120	39	0	994050048	44	5920
2026-01-02 21:41:37.02	39.52	21.91	-35.7	-36.6	24.3	0.00e+00	123	39	0	997195776	44	5941
2026-01-02 21:41:38.03	39.25	21.93	-35.6	-36.5	24.3	0.00e+00	122	39	0	1000341504	44	5887
2026-01-02 21:41:39.04	38.99	21.95	-35.7	-36.6	24.3	0.00e+00	123	39	0	1003487232	44	5947
2026-01-02 21:41:40.05	38.72	21.97	-35.5	-36.4	24.4	0.00e+00	123	39	0	1006632960	44	5842
2026-01-02 21:41:41.06	38.46	21.99	-35.6	-36.5	24.4	0.00e+00	123	39	0	1009778688	44	5875
2026-01-02 21:41:42.07	38.19	22.00	-35.4	-36.3	24.5	0.00e+00	123	39	0	1012924416	44	5739
2026-01-02 21:41:43.08	37.92	22.02	-35.5	-36.4	24.3	0.00e+00	123	39	0	1016070144	44	5818
2026-01-02 21:41:44.09	37.66	22.04	-35.6	-36.5	24.3	0.00e+00	120	39	0	1019215872	44	5865
2026-01-02 21:41:45.10	37.39	22.05	-35.6	-36.5	24.3	0.00e+00	123	39	0	1022361600	44	5877
2026-01-02 21:41:46.11	37.12	22.07	-35.7	-36.6	24.3	0.00e+00	122	39	0	1025507328	44	5977
2026-01-02 21:41:47.12	36.86	22.08	-35.6	-36.5	24.3	0.00e+00	122	39	0	1028653056	44	5877
2026-01-02 21:41:48.14	36.58	22.10	-35.7	-36.6	24.2	0.00e+00	120	39	0	1031798784	44	5957
2026-01-02 21:41:49.15	36.32	22.11	-35.7	-36.6	24.3	0.00e+00	123	39	0	1034944512	44	5936
2026-01-02 21:41:50.16	36.05	22.12	-35.5	-36.4	24.4	0.00e+00	120	39	0	1038090240	44	5814
2026-01-02 21:41:51.16	35.78	22.14	-35.4	-36.3	24.4	0.00e+00	123	39	0	1041235968	44	5734
2026-01-02 21:41:52.17	35.51	22.15	-35.3	-36.2	24.4	0.00e+00	121	39	0	1044381696	44	5708
2026-01-02 21:41:53.18	35.24	22.16	-35.3	-36.2	24.5	0.00e+00	120	39	0	1047527424	44	5712
2026-01-02 21:41:54.19	34.98	22.17	-35.3	-36.2	24.5	0.00e+00	123	39	0	1050673152	44	5662
2026-01-02 21:41:55.20	34.71	22.18	-35.4	-36.2	24.4	0.00e+00	123	39	0	1053818880	44	5719
2026-01-02 21:41:56.21	34.44	22.19	-35.4	-36.4	24.3	0.00e+00	120	39	0	1056964608	44	5793
2026-01-02 21:41:57.22	34.17	22.19	-35.6	-36.4	24.4	0.00e+00	123	39	0	1060110336	44	5857
2026-01-02 21:41:58.23	33.90	22.20	-35.6	-36.5	24.2	0.00e+00	123	39	0	1063256064	44	5908
2026-01-02 21:41:59.24	33.63	22.21	-35.7	-36.6	24.2	0.00e+00	123	39	0	1066401792	44	5958
2026-01-02 21:42:00.25	33.36	22.21	-35.8	-36.7	24.0	0.00e+00	123	39	0	1069547520	44	5999
2026-01-02 21:42:01.26	33.09	22.22	-35.7	-36.6	24.2	0.00e+00	123	39	0	1072693248	44	5972
2026-01-02 21:42:02.27	32.82	22.22	-35.6	-36.5	24.1	0.00e+00	122	39	0	1075838976	44	5902
2026-01-02 21:42:03.28	32.55	22.23	-35.4	-36.3	24.5	0.00e+00	122	39	0	1078984704	44	5733
2026-01-02 21:42:04.29	32.28	22.23	-35.2	-36.1	24.5	0.00e+00	122	39	0	1082130432	44	5611
2026-01-02 21:42:05.30	32.01	22.23	-35.4	-36.3	24.2	0.00e+00	123	39	0	1085276160	44	5730
2026-01-02 21:42:06.31	31.74	22.24	-35.3	-36.2	24.5	0.00e+00	123	39	0	1088421888	44	5666
2026-01-02 21:42:07.32	31.47	22.24	-35.3	-36.2	24.5	0.00e+00	120	39	0	1091567616	44	5672
2026-01-02 21:42:08.33	31.20	22.24	-35.1	-36.0	24.6	0.00e+00	123	39	0	1094713344	44	5540
2026-01-02 21:42:09.34	30.93	22.24	-35.2	-36.1	24.6	0.00e+00	122	39	0	1097859072	44	5626
2026-01-02 21:42:10.35	30.66	22.24	-35.4	-36.3	24.3	0.00e+00	123	39	0	1101004800	44	5726
2026-01-02 21:42:11.36	30.39	22.24	-35.4	-36.3	24.4	0.00e+00	123	39	0	1104150528	44	5739
2026-01-02 21:42:12.37	30.12	22.23	-35.4	-36.3	24.4	0.00e+00	122	39	0	1107296256	44	5740
2026-01-02 21:42:13.38	29.84	22.23	-35.5	-36.4	24.3	0.00e+00	123	39	0	1110441984	44	5815
2026-01-02 21:42:14.39	29.57	22.23	-35.4	-36.3	24.2	0.00e+00	122	39	0	1113587712	44	5776
2026-01-02 21:42:15.40	29.30	22.22	-35.4	-36.3	24.1	0.00e+00	123	39	0	1116733440	44	5762
2026-01-02 21:42:16.41	29.03	22.22	-35.4	-36.3	24.0	0.00e+00	122	39	0	1119879168	44	5780
2026-01-02 21:42:17.42	28.76	22.21	-35.6	-36.5	23.9	0.00e+00	120	39	0	1123024896	44	5900
2026-01-02 21:42:18.43	28.49	22.21	-35.6	-36.5	24.0	0.00e+00	123	39	0	1126170624	44	5913
2026-01-02 21:42:19.44	28.23	22.20	-35.9	-36.8	23.9	0.00e+00	120	39	0	1129316352	44	6104
2026-01-02 21:42:20.45	27.96	22.19	-36.0	-36.9	23.9	0.00e+00	122	39	0	1132462080	44	6181
2026-01-02 21:42:21.46	27.69	22.18	-36.0	-36.9	23.9	0.00e+00	123	39	0	1135607808	44	6198
2026-01-02 21:42:22.47	27.42	22.18	-36.0	-36.9	24.0	0.00e+00	123	39	0	1138753536	44	6164
2026-01-02 21:42:23.48	27.15	22.17	-35.9	-36.8	24.1	0.00e+00	120	39	0	1141899264	44	6071
2026-01-02 21:42:24.49	26.88	22.16	-36.0	-36.9	24.1	0.00e+00	123	39	0	1145044992	44	6159
2026-01-02 21:42:25.50	26.61	22.14	-35.6	-36.5	24.2	0.00e+00	120	39	0	1148190720	44	5908
2026-01-02 21:42:26.51	26.34	22.13	-35.6	-36.5	24.1	0.00e+00	120	39	0	1151336448	44	5859
2026-01-02 21:42:27.52	26.07	22.12	-35.7	-36.6	24.1	0.00e+00	123	39	0	1154482176	44	5962
2026-01-02 21:42:28.53	25.81	22.11	-35.4	-36.3	24.2	0.00e+00	122	39	0	1157627904	44	5752
2026-01-02 21:42:29.54	25.54	22.09	-35.4	-36.3	24.0	0.00e+00	123	39	0	1160773632	44	5747
2026-01-02 21:42:30.55	25.27	22.08	-35.2	-36.1	24.4	0.00e+00	121	39	0	1163919360	44	5604
2026-01-02 21:42:31.56	25.00	22.06	-35.1	-36.0	24.3	0.00e+00	123	39	0	1167065088	44	5583
2026-01-02 21:42:32.57	24.74	22.05	-35.2	-36.1	24.3	0.00e+00	123	39	0	1170210816	44	5617
2026-01-02 21:42:33.58	24.47	22.03	-35.3	-36.2	24.3	0.00e+00	123	39	0	1173356544	44	5688
2026-01-02 21:42:34.59	24.20	22.02	-35.3	-36.2	24.4	0.00e+00	122	39	0	1176502272	44	5676
2026-01-02 21:42:35.60	23.94	22.00	-35.5	-36.4	24.3	0.00e+00	120	39	0	1179648000	44	5802
2026-01-02 21:42:36.61	23.67	21.98	-35.6	-36.5	24.0	0.00e+00	123	40	0	1182793728	44	5875
2026-01-02 21:42:37.62	23.40	21.96	-35.7	-36.6	24.0	0.00e+00	122	39	0	1185939456	44	5966
2026-01-02 21:42:38.63	23.14	21.94	-35.8	-36.7	23.9	0.00e+00	122	39	0	1189085184	44	6047
2026-01-02 21:42:39.64	22.87	21.92	-35.6	-36.6	24.1	0.00e+00	123	39	0	1192230912	44	5940
2026-01-02 21:42:40.65	22.61	21.90	-35.7	-36.6	24.0	0.00e+00	123	39	0	1195376640	44	5942
2026-01-02 21:42:41.66	22.35	21.88	-35.5	-36.4	24.2	0.00e+00	122	39	0	1198522368	44	5812
2026-01-02 21:42:42.67	22.08	21.86	-35.4	-36.3	24.2	0.00e+00	122	39	0	1202716672	44	5780
2026-01-02 21:42:43.68	21.82	21.84	-35.4	-36.4	24.2	0.00e+00	120	39	0	1205862400	44	5795
2026-01-02 21:42:44.69	21.55	21.81	-35.5	-36.4	24.2	0.00e+00	122	39	0	1207959552	44	5834
2026-01-02 21:42:45.70	21.29	21.79	-35.5	-36.4	24.3	0.00e+00	123	39	0	1211105280	44	5808
2026-01-02 21:42:46.70	21.03	21.76	-35.4	-36.3	24.3	0.00e+00	123	40	0	1214251008	44	5754
2026-01-02 21:42:47.72	20.77	21.74	-35.4	-36.4	24.3	0.00e+00	120	39	0	1218445312	44	5798
2026-01-02 21:42:48.73	20.51	21.71	-35.3	-36.2	24.2	0.00e+00	122	39	0	1221591040	44	5707
2026-01-02 21:42:49.74	20.25	21.69	-35.4	-36.3	24.1	0.00e+00	123	39	0	1224736768	44	5785
2026-01-02 21:42:50.75	19.99	21.66	-35.5	-36.4	24.1	0.00e+00	123	39	0	1227882496	44	5839
2026-01-02 21:42:51.76	19.73	21.63	-35.5	-36.5	24.1	0.00e+00	123	39	0	1231028224	44	5866
2026-01-02 21:42:52.77	19.47	21.60	-35.6	-36.5	24.1	0.00e+00	123	39	0	1234173952	44	5888
2026-01-02 21:42:53.78	19.21	21.57	-35.6	-36.5	24.0	0.00e+00	120	39	0	1237319680	44	5920
2026-01-02 21:42:54.78	18.95	21.55	-35.7	-36.7	23.9	0.00e+00	123	39	0	1240465408	44	6006
2026-01-02 21:42:55.79	18.69	21.52	-35.8	-36.7	23.9	0.00e+00	120	39	0	1243611136	44	6003
2026-01-02 21:42:56.80	18.44	21.49	-35.9	-36.8	23.8	0.00e+00	123	40	0	1246756864	44	6091
2026-01-02 21:42:57.81	18.18	21.45	-35.8	-36.7	23.9	0.00e+00	122	39	0	1249902592	44	6053
2026-01-02 21:42:58.82	17.92	21.42	-35.8	-36.7	24.0	0.00e+00	123	39	0	1253048320	44	6026
2026-01-02 21:42:59.83	17.67	21.39	-35.7	-36.6	24.0	0.00e+00	123	39	0	1256194048	44	5994
2026-01-02 21:43:00.84	17.41	21.36	-35.6	-36.5	24.0	0.00e+00	123	39	0	1259339776	44	5888
2026-01-02 21:43:01.85	17.16	21.32	-35.8	-36.7	23.8	0.00e+00	123	39	0	1262485504	44	6029
2026-01-02 21:43:02.86	16.90	21.29	-35.7	-36.6	23.9	0.00e+00	122	39	0	1265631232	44	5950
2026-01-02 21:43:03.87	16.65	21.26	-35.8	-36.7	24.0	0.00e+00	123	39	0	1268776960	44	6047
2026-01-02 21:43:04.88	16.39	21.22	-35.9	-36.8	24.0	0.00e+00	123	39	0	1271922688	44	6127
2026-01-02 21:43:05.89	16.14	21.19	-35.7	-36.6	24.1	0.00e+00	123	39	0	1275068416	44	5983
2026-01-02 21:43:06.90	15.89	21.15	-35.5	-36.4	24.2	0.00e+00	123	39	0	1278214144	44	5838
2026-01-02 21:43:07.91	15.64	21.11	-35.5	-36.4	24.2	0.00e+00	122	39	0	1281359872	44	5842
2026-01-02 21:43:08.92	15.39	21.08	-35.6	-36.5	24.1	0.00e+00	123	39	0	1284505600	44	5891
2026-01-02 21:43:09.93	15.14	21.04	-35.6	-36.5	24.2	0.00e+00	122	39	0	1287651328	44	5869
2026-01-02 21:43:10.94	14.89	21.00	-35.7	-36.6	24.1	0.00e+00	122	39	0	1290797056	44	5935
2026-01-02 21:43:11.94	14.64	20.96	-35.4	-36.3	24.3	0.00e+00	120	39	0	1293942784	44	5779
2026-01-02 21:43:12.95	14.39	20.92	-35.6	-36.5	24.1	0.00e+00	122	39	0	1297088512	44	5859
2026-01-02 21:43:13.96	14.15	20.88	-35.6	-36.5	24.2	0.00e+00	120	39	0	1300234240	44	5909
2026-01-02 21:43:14.97	13.90	20.84	-35.6	-36.6	24.2	0.00e+00	123	39	0	1303379968	44	5942
2026-01-02 21:43:15.98	13.65	20.80	-35.7	-36.6	24.1	0.00e+00	122	39	0	1306525696	44	5994
2026-01-02 21:43:16.99	13.41	20.76	-35.9	-36.8	24.1	0.00e+00	123	39	0	1309671424	44	6092
2026-01-02 21:43:18.00	13.16	20.72	-36.0	-36.9	24.0	0.00e+00	123	39	0	1312817152	44	6165
2026-01-02 21:43:19.01	12.92	20.68	-36.0	-36.9	24.0	0.00e+00	123	39	0	1315962880	44	6150
2026-01-02 21:43:20.02	12.67	20.63	-35.9	-36.9	24.0	0.00e+00	123	40	0	1319108608	44	6145
2026-01-02 21:43:21.03	12.43	20.59	-35.8	-36.7	24.1	0.00e+00	123	39	0	1322254336	44	6020
2026-01-02 21:43:22.04	12.19	20.55	-35.9	-36.8	24.0	0.00e+00	123	39	0	1325400064	44	6129
2026-01-02 21:43:23.05	11.95	20.50	-35.9	-36.8	24.0	0.00e+00	120	39	0	1328545792	44	6124
2026-01-02 21:43:24.06	11.71	20.46	-35.8	-36.7	24.2	0.00e+00	122	39	0	1331691520	44	6051
2026-01-02 21:43:25.07	11.47	20.41	-35.7	-36.7	24.2	0.00e+00	120	39	0	1334837248	44	5995
2026-01-02 21:43:26.08	11.23	20.37	-35.7	-36.6	24.2	0.00e+00	123	39	0	1337982976	44	5985
2026-01-02 21:43:27.09	10.99	20.32	-35.5	-36.4	24.4	0.00e+00	123	39	0	1341128704	44	5830
2026-01-02 21:43:28.10	10.75	20.28	-35.6	-36.5	24.3	0.00e+00	123	39	0	1344274432	44	5918
2026-01-02 21:43:29.11	10.51	20.23	-35.5	-36.4	24.3	0.00e+00	123	39	0	1347420160	44	5805
2026-01-02 21:43:30.12	10.28	20.18	-35.4	-36.3	24.3	0.00e+00	122	39	0	1350565888	44	5782
2026-01-02 21:43:31.13	10.04	20.13	-35.4	-36.3	24.4	0.00e+00	122	39	0	1353711616	44	5762
2026-01-02 21:43:32.14	9.81	20.09	-35.5	-36.4	24.2	0.00e+00	120	39	0	1356857344	44	5808
2026-01-02 21:43:33.15	9.57	20.04	-35.5	-36.4	24.2	0.00e+00	122	39	0	1360003072	44	5853
2026-01-02 21:43:34.16	9.34	19.99	-35.8	-36.7	24.0	0.00e+00	123	39	0	1363148800	44	6039
2026-01-02 21:43:35.17	9.11	19.94	-35.8	-36.8	24.1	0.00e+00	120	39	0	1366294528	44	6070
2026-01-02 21:43:36.18	8.87	19.89	-36.0	-36.9	24.0	0.00e+00	122	39	0	1369440256	44	6158
2026-01-02 21:43:37.19	8.64	19.84	-36.0	-37.0	23.8	0.00e+00	123	39	0	1372585984	44	6213
2026-01-02 21:43:38.20	8.41	19.79	-36.1	-37.0	23.9	0.00e+00	120	39	0	1375731712	44	6257
2026-01-02 21:43:39.21	8.18	19.74	-36.2	-37.1	23.9	0.00e+00	123	39	0	1378877440	44	6300
2026-01-02 21:43:40.22	7.95	19.69	-36.1	-37.1	23.8	0.00e+00	123	39	0	1382023168	44	6285
2026-01-02 21:43:41.23	7.73	19.64	-36.0	-36.9	23.9	0.00e+00	123	39	0	1385168896	44	6201
2026-01-02 21:43:42.24	7.50	19.58	-36.0	-36.9	24.0	0.00e+00	123	39	0	1388314624	44	6185
2026-01-02 21:43:43.25	7.27	19.53	-35.8	-36.7	24.1	0.00e+00	122	39	0	1391460352	44	6046
2026-01-02 21:43:44.26	7.05	19.48	-35.5	-36.4	24.2	0.00e+00	123	39	0	1394606080	44	5829
2026-01-02 21:43:45.27	6.82	19.43	-35.5	-36.4	24.2	0.00e+00	123	39	0	1397751808	44	5825
2026-01-02 21:43:46.28	6.60	19.37	-35.6	-36.5	24.2	0.00e+00	122	39	0	1400897536	44	5866
2026-01-02 21:43:47.29	6.37	19.32	-35.7	-36.7	24.0	0.00e+00	123	39	0	1404043264	44	5999
2026-01-02 21:43:48.30	6.15	19.27	-35.9	-36.8	24.0	0.00e+00	123	39	0	1407188992	44	6115
2026-01-02 21:43:49.31	5.93	19.21	-36.1	-37.0	23.9	0.00e+00	121	39	0	1410334720	44	6233
2026-01-02 21:43:50.32	5.71	19.16	-36.2	-37.1	23.7	0.00e+00	123	39	0	1413480448	44	6305
2026-01-02 21:43:51.33	5.49	19.10	-36.1	-37.1	23.8	0.00e+00	121	39	0	1416626176	44	6284
2026-01-02 21:43:52.34	5.27	19.05	-36.0	-36.9	23.9	0.00e+00	123	39	0	1419771904	44	6187
2026-01-02 21:43:53.35	5.05	18.99	-36.0	-37.0	23.8	0.00e+00	121	39	0	1422917632	44	6221
2026-01-02 21:43:54.36	4.83	18.93	-35.9	-36.8	23.9	0.00e+00	122	39	0	1426063360	44	6079
2026-01-02 21:43:55.37	4.62	18.88	-36.0	-36.9	23.8	0.00e+00	123	39	0	1429209088	44	6200
2026-01-02 21:43:56.38	4.40	18.82	-36.0	-36.9	23.9	0.00e+00	123	39	0	1432354816	44	6177
2026-01-02 21:43:57.39	4.18	18.76	-36.0	-36.9	24.0	0.00e+00	120	39	0	1435500544	44	6184
2026-01-02 21:43:58.40	3.97	18.71	-36.0	-36.9	24.0	0.00e+00	122	39	0	1438646272	44	6153
2026-01-02 21:43:59.41	3.76	18.65	-36.0	-36.9	23.9	0.00e+00	123	39	0	1441792000	44	6153
2026-01-02 21:44:00.42	3.54	18.59	-36.0	-36.9	23.9	0.00e+00	122	39	0	1444937728	44	6152
2026-01-02 21:44:01.43	3.33	18.53	-36.0	-36.9	23.9	0.00e+00	123	39	0	1448083456	44	6158
2026-01-02 21:44:02.44	3.12	18.48	-35.9	-36.9	23.9	0.00e+00	122	39	0	1451229184	44	6150
2026-01-02 21:44:03.45	2.91	18.42	-35.8	-36.8	24.1	0.00e+00	120	39	0	1454374912	44	6071
2026-01-02 21:44:04.46	2.70	18.36	-35.7	-36.6	24.2	0.00e+00	123	39	0	1457520640	44	5978
2026-01-02 21:44:05.47	2.49	18.30	-35.6	-36.6	24.2	0.00e+00	123	39	0	1460666368	44	5929
2026-01-02 21:44:06.48	2.28	18.24	-35.7	-36.6	24.1	0.00e+00	123	39	0	1463812096	44	5953
2026-01-02 21:44:07.50	2.07	18.18	-35.7	-36.6	24.1	0.00e+00	122	39	0	1466957824	44	5973
2026-01-02 21:44:08.50	1.87	18.12	-35.9	-36.8	24.0	0.00e+00	123	39	0	1470103552	44	6133
2026-01-02 21:44:09.51	1.66	18.06	-36.1	-37.0	23.8	0.00e+00	123	39	0	1473249280	44	6270
2026-01-02 21:44:10.52	1.46	18.00	-35.9	-36.8	23.9	0.00e+00	123	39	0	1476395008	44	6134
2026-01-02 21:44:11.53	1.26	17.94	-36.0	-37.0	23.8	0.00e+00	122	39	0	1479540736	44	6210
2026-01-02 21:44:12.54	1.05	17.88	-35.9	-36.9	24.0	0.00e+00	122	39	0	1482686464	44	6138
2026-01-02 21:44:13.55	0.85	17.82	-35.9	-36.8	23.9	0.00e+00	122	39	0	1485832192	44	6088
2026-01-02 21:44:14.56	0.65	17.76	-35.9	-36.8	23.9	0.00e+00	123	39	0	1488977920	44	6121
2026-01-02 21:44:15.57	0.45	17.70	-35.9	-36.8	23.9	0.00e+00	123	39	0	1492123648	44	6104
2026-01-02 21:44:16.58	0.25	17.63	-35.8	-36.7	24.1	0.00e+00	123	39	0	1495269376	44	6034
2026-01-02 21:44:17.59	0.05	17.57	-35.8	-36.7	24.0	0.00e+00	123	39	0	1498415104	44	6055
2026-01-02 21:44:18.60	359.85	17.51	-35.9	-36.8	23.9	0.00e+00	122	39	0	1501560832	44	6121
2026-01-02 21:44:19.61	359.66	17.45	-36.1	-37.0	23.8	0.00e+00	123	39	0	1504706560	44	6225
2026-01-02 21:44:20.62	359.46	17.39	-36.1	-37.0	23.9	0.00e+00	122	39	0	1507852288	44	6232
2026-01-02 21:44:21.63	359.26	17.32	-36.1	-37.0	23.7	0.00e+00	122	39	0	1510998016	44	6270
2026-01-02 21:44:22.64	359.07	17.26	-36.0	-36.9	23.8	0.00e+00	122	39	0	1514143744	44	6203
2026-01-02 21:44:23.65	358.88	17.20	-36.0	-37.0	23.7	0.00e+00	123	39	0	1517289472	44	6229
2026-01-02 21:44:24.66	358.68	17.14	-36.1	-37.0	23.7	0.00e+00	123	39	0	1520435200	44	6249
2026-01-02 21:44:25.67	358.49	17.07	-36.0	-36.9	23.7	0.00e+00	123	39	0	1523580928	44	6198
2026-01-02 21:44:26.68	358.30	17.01	-36.1	-37.0	23.7	0.00e+00	122	39	0	1526726656	44	6241
2026-01-02 21:44:27.69	358.11	16.95	-36.2	-37.1	23.7	0.00e+00	122	39	0	1529872384	44	6343
2026-01-02 21:44:28.70	357.92	16.88	-36.3	-37.2	23.7	0.00e+00	122	39	0	1533018112	44	6390
2026-01-02 21:44:29.71	357.73	16.82	-36.3	-37.3	23.6	0.00e+00	120	39	0	1537212416	44	6435
2026-01-02 21:44:30.72	357.54	16.75	-36.5	-37.5	23.4	0.00e+00	120	39	0	1540358144	44	6574
2026-01-02 21:44:31.73	357.35	16.69	-36.4	-37.3	23.5	0.00e+00	123	39	0	1543503872	44	6477
2026-01-02 21:44:32.74	357.17	16.63	-36.6	-37.5	23.4	0.00e+00	122	39	0	1546649600	44	6624
2026-01-02 21:44:33.75	356.98	16.56	-36.5	-37.5	23.5	0.00e+00	123	39	0	1548746752	44	6588
2026-01-02 21:44:34.76	356.80	16.50	-36.5	-37.5	23.4	0.00e+00	123	39	0	1552941056	44	6616
2026-01-02 21:44:35.77	356.61	16.43	-36.3	-37.2	23.6	0.00e+00	123	39	0	1556086784	44	6399
2026-01-02 21:44:36.78	356.43	16.37	-36.3	-37.2	23.6	0.00e+00	120	39	0	1559232512	44	6381
2026-01-02 21:44:37.79	356.25	16.30	-36.2	-37.2	23.6	0.00e+00	120	39	0	1562378240	44	6367
2026-01-02 21:44:38.80	356.06	16.24	-36.3	-37.2	23.6	0.00e+00	123	39	0	1565523968	44	6411
2026-01-02 21:44:39.81	355.88	16.17	-36.2	-37.2	23.6	0.00e+00	120	39	0	1568669696	44	6371
2026-01-02 21:44:40.83	355.70	16.10	-36.3	-37.2	23.5	0.00e+00	123	39	0	1571815424	44	6389
2026-01-02 21:44:41.83	355.52	16.04	-36.3	-37.3	23.5	0.00e+00	121	39	0	1574961152	44	6450
2026-01-02 21:44:42.85	355.34	15.97	-36.4	-37.4	23.4	0.00e+00	122	39	0	1578106880	44	6510
2026-01-02 21:44:43.85	355.17	15.91	-36.4	-37.3	23.4	0.00e+00	123	39	0	1581252608	44	6480
2026-01-02 21:44:44.86	354.99	15.84	-36.4	-37.4	23.3	0.00e+00	123	39	0	1584398336	44	6551
2026-01-02 21:44:45.87	354.81	15.78	-36.4	-37.4	23.4	0.00e+00	123	39	0	1587544064	44	6537
2026-01-02 21:44:46.88	354.64	15.71	-36.4	-37.4	23.4	0.00e+00	123	39	0	1590689792	44	6520
2026-01-02 21:44:47.89	354.46	15.65	-36.4	-37.3	23.4	0.00e+00	120	39	0	1593835520	44	6491
2026-01-02 21:44:48.90	354.29	15.58	-36.2	-37.2	23.6	0.00e+00	123	39	0	1596981248	44	6360
2026-01-02 21:44:49.91	354.12	15.51	-36.2	-37.2	23.5	0.00e+00	120	39	0	1600126976	44	6380
2026-01-02 21:44:50.92	353.95	15.45	-36.3	-37.3	23.5	0.00e+00	122	39	0	1603272704	44	6450
2026-01-02 21:44:51.93	353.77	15.38	-36.4	-37.3	23.4	0.00e+00	123	39	0	1606418432	44	6466
2026-01-02 21:44:52.94	353.60	15.31	-36.4	-37.3	23.4	0.00e+00	123	39	0	1609564160	44	6498
2026-01-02 21:44:53.96	353.43	15.25	-36.6	-37.6	23.4	0.00e+00	122	39	0	1612709888	44	6689
2026-01-02 21:44:54.97	353.26	15.18	-36.6	-37.5	23.4	0.00e+00	123	39	0	1615855616	44	6614
2026-01-02 21:44:55.98	353.09	15.11	-36.6	-37.6	23.3	0.00e+00	122	39	0	1619001344	44	6680
2026-01-02 21:44:56.99	352.93	15.05	-36.9	-37.9	23.1	0.00e+00	120	39	0	1622147072	46	6137
2026-01-02 21:44:58.00	352.76	14.98	-36.9	-37.9	23.1	0.00e+00	123	39	0	1625292800	46	6139
2026-01-02 21:44:59.00	352.60	14.91	-36.9	-37.9	23.1	0.00e+00	122	39	0	1628438528	46	6170
2026-01-02 21:45:00.01	352.43	14.85	-37.0	-38.0	22.9	0.00e+00	123	39	0	1631584256	46	6248
2026-01-02 21:45:01.03	352.26	14.78	-36.9	-37.9	23.0	0.00e+00	123	39	0	1634729984	46	6193
2026-01-02 21:45:02.04	352.10	14.71	-36.9	-37.9	22.9	0.00e+00	122	39	0	1637875712	46	6171
2026-01-02 21:45:03.05	351.94	14.64	-36.8	-37.8	23.1	0.00e+00	122	39	0	1641021440	46	6076
2026-01-02 21:45:04.06	351.78	14.58	-36.8	-37.8	23.2	0.00e+00	122	39	0	1644167168	46	6076
2026-01-02 21:45:05.07	351.61	14.51	-36.7	-37.6	23.2	0.00e+00	122	39	0	1647312896	46	5977
2026-01-02 21:45:06.08	351.45	14.44	-36.7	-37.6	23.4	0.00e+00	122	39	0	1650458624	46	5972
2026-01-02 21:45:07.09	351.29	14.37	-36.7	-37.6	23.2	0.00e+00	123	39	0	1653604352	46	5979
2026-01-02 21:45:08.10	351.13	14.31	-36.6	-37.6	23.3	0.00e+00	122	39	0	1656750080	46	5966
2026-01-02 21:45:09.11	350.98	14.24	-36.8	-37.7	23.3	0.00e+00	120	39	0	1659895808	46	6035
2026-01-02 21:45:10.11	350.82	14.17	-36.6	-37.6	23.2	0.00e+00	123	39	0	1663041536	46	5964
2026-01-02 21:45:11.12	350.66	14.11	-36.7	-37.6	23.1	0.00e+00	120	39	0	1666187264	46	5984
2026-01-02 21:45:12.13	350.51	14.04	-36.5	-37.4	23.3	0.00e+00	123	39	0	1669332992	46	5851
2026-01-02 21:45:13.14	350.35	13.97	-36.5	-37.5	23.3	0.00e+00	122	39	0	1672478720	46	5871
2026-01-02 21:45:14.15	350.19	13.90	-36.4	-37.3	23.4	0.00e+00	123	39	0	1675624448	46	5766
2026-01-02 21:45:15.16	350.04	13.84	-36.3	-37.3	23.4	0.00e+00	122	39	0	1678770176	46	5738
2026-01-02 21:45:16.17	349.89	13.77	-36.3	-37.2	23.4	0.00e+00	123	39	0	1681915904	46	5720
2026-01-02 21:45:17.18	349.73	13.70	-36.4	-37.3	23.4	0.00e+00	123	39	0	1685061632	46	5767
2026-01-02 21:45:18.19	349.58	13.63	-36.5	-37.4	23.2	0.00e+00	123	39	0	1688207360	46	5849
2026-01-02 21:45:19.20	349.43	13.57	-36.5	-37.5	23.3	0.00e+00	123	39	0	1691353088	46	5860
2026-01-02 21:45:20.21	349.28	13.50	-36.6	-37.5	23.3	0.00e+00	123	39	0	1694498816	46	5882
2026-01-02 21:45:21.22	349.13	13.43	-36.5	-37.5	23.3	0.00e+00	122	39	0	1697644544	46	5878
2026-01-02 21:45:22.23	348.98	13.36	-36.5	-37.5	23.2	0.00e+00	122	39	0	1700790272	46	5870
2026-01-02 21:45:23.24	348.83	13.29	-36.7	-37.7	23.2	0.00e+00	123	39	0	1703936000	46	6019
2026-01-02 21:45:24.25	348.68	13.23	-36.8	-37.8	23.0	0.00e+00	120	39	0	1707081728	46	6091
2026-01-02 21:45:25.26	348.54	13.16	-36.7	-37.7	23.1	0.00e+00	122	39	0	1710227456	46	6013
2026-01-02 21:45:26.27	348.39	13.09	-36.8	-37.8	23.1	0.00e+00	123	39	0	1713373184	46	6069
2026-01-02 21:45:27.28	348.24	13.02	-36.7	-37.7	23.1	0.00e+00	122	39	0	1716518912	46	5996
2026-01-02 21:45:28.28	348.10	12.96	-36.8	-37.8	23.1	0.00e+00	122	39	0	1719664640	46	6084
2026-01-02 21:45:29.29	347.96	12.89	-36.7	-37.7	23.1	0.00e+00	123	39	0	1722810368	46	6026
2026-01-02 21:45:30.30	347.81	12.82	-36.8	-37.7	23.1	0.00e+00	120	39	0	1725956096	46	6043
2026-01-02 21:45:31.31	347.67	12.75	-36.9	-37.9	23.0	0.00e+00	122	39	0	1729101824	46	6178
2026-01-02 21:45:32.32	347.53	12.69	-37.1	-38.1	22.9	0.00e+00	123	39	0	1732247552	46	6281
2026-01-02 21:45:33.33	347.39	12.62	-37.4	-38.4	22.7	0.00e+00	123	39	0	1735393280	46	6503
2026-01-02 21:45:34.34	347.24	12.55	-37.4	-38.4	22.5	0.00e+00	123	39	0	1738539008	46	6546
2026-01-02 21:45:35.35	347.10	12.48	-37.6	-38.6	22.4	0.00e+00	123	39	0	1741684736	46	6684
2026-01-02 21:45:36.36	346.96	12.42	-37.7	-38.7	22.3	0.00e+00	123	39	0	1744830464	48	6044
2026-01-02 21:45:37.37	346.82	12.35	-37.7	-38.7	22.4	0.00e+00	122	39	0	1747976192	48	6018
2026-01-02 21:45:38.38	346.69	12.28	-37.7	-38.7	22.3	0.00e+00	122	39	0	1751121920	48	6039
2026-01-02 21:45:39.39	346.55	12.21	-37.6	-38.6	22.3	0.00e+00	123	39	0	1754267648	48	5956
2026-01-02 21:45:40.40	346.41	12.15	-37.6	-38.6	22.3	0.00e+00	123	39	0	1757413376	48	5992
2026-01-02 21:45:41.41	346.27	12.08	-37.4	-38.4	22.4	0.00e+00	123	39	0	1760559104	48	5841
2026-01-02 21:45:42.42	346.14	12.01	-37.4	-38.4	22.4	0.00e+00	123	39	0	1763704832	48	5841
2026-01-02 21:45:43.43	346.00	11.94	-37.3	-38.3	22.5	0.00e+00	122	39	0	1766850560	48	5773
2026-01-02 21:45:44.44	345.87	11.88	-37.2	-38.2	22.6	0.00e+00	122	39	0	1769996288	48	5720
2026-01-02 21:45:45.45	345.74	11.81	-37.3	-38.3	22.5	0.00e+00	122	39	0	1773142016	48	5790
2026-01-02 21:45:46.46	345.60	11.74	-37.3	-38.3	22.5	0.00e+00	120	39	0	1776287744	48	5779
2026-01-02 21:45:47.46	345.47	11.67	-37.4	-38.5	22.4	0.00e+00	123	39	0	1779433472	48	5875
2026-01-02 21:45:48.47	345.34	11.61	-37.4	-38.4	22.4	0.00e+00	123	39	0	1782579200	48	5857
2026-01-02 21:45:49.48	345.21	11.54	-37.6	-38.7	22.3	0.00e+00	123	39	0	1785724928	48	6002
2026-01-02 21:45:50.49	345.08	11.47	-37.6	-38.7	22.3	0.00e+00	122	39	0	1788870656	48	6015
2026-01-02 21:45:51.50	344.95	11.41	-37.7	-38.7	22.2	0.00e+00	122	39	0	1792016384	48	6036
2026-01-02 21:45:52.51	344.82	11.34	-37.8	-38.9	22.1	0.00e+00	122	39	0	1795162112	48	6143
2026-01-02 21:45:53.52	344.69	11.27	-37.8	-38.9	22.0	0.00e+00	123	39	0	1798307840	48	6185
2026-01-02 21:45:54.53	344.56	11.20	-37.7	-38.8	22.1	0.00e+00	123	39	0	1801453568	48	6078
2026-01-02 21:45:55.54	344.43	11.14	-37.6	-38.7	22.1	0.00e+00	123	39	0	1804599296	48	6003
2026-01-02 21:45:56.55	344.30	11.07	-37.6	-38.7	22.1	0.00e+00	123	39	0	1807745024	48	6007
2026-01-02 21:45:57.56	344.18	11.00	-37.5	-38.5	22.2	0.00e+00	121	39	0	1810890752	48	5900
2026-01-02 21:45:58.57	344.05	10.94	-37.4	-38.4	22.3	0.00e+00	120	39	0	1814036480	48	5826
2026-01-02 21:45:59.58	343.92	10.87	-37.4	-38.4	22.4	0.00e+00	122	39	0	1817182208	48	5805
2026-01-02 21:46:00.58	343.80	10.80	-37.4	-38.4	22.4	0.00e+00	120	39	0	1820327936	48	5816
2026-01-02 21:46:01.60	343.68	10.74	-37.3	-38.3	22.5	0.00e+00	123	39	0	1823473664	48	5739
2026-01-02 21:46:02.60	343.55	10.67	-37.3	-38.3	22.5	0.00e+00	122	39	0	1826619392	48	5762
2026-01-02 21:46:03.61	343.43	10.60	-37.4	-38.4	22.4	0.00e+00	122	39	0	1829765120	48	5848
2026-01-02 21:46:04.62	343.31	10.54	-37.6	-38.6	22.2	0.00e+00	123	39	0	1832910848	48	5980
2026-01-02 21:46:05.63	343.19	10.47	-37.7	-38.8	22.1	0.00e+00	120	39	0	1836056576	48	6079
2026-01-02 21:46:06.64	343.06	10.40	-37.8	-38.9	22.0	0.00e+00	123	39	0	1839202304	48	6137
2026-01-02 21:46:07.65	342.94	10.34	-38.0	-39.0	21.9	0.00e+00	122	39	0	1842348032	48	6255
2026-01-02 21:46:08.66	342.82	10.27	-38.0	-39.1	21.9	0.00e+00	122	39	0	1845493760	48	6323
2026-01-02 21:46:09.67	342.70	10.21	-38.0	-39.1	21.8	0.00e+00	122	39	0	1848639488	48	6324
2026-01-02 21:46:10.69	342.58	10.14	-38.0	-39.1	21.7	0.00e+00	123	39	0	1851785216	48	6330
2026-01-02 21:46:11.70	342.46	10.07	-38.1	-39.1	21.7	0.00e+00	123	39	0	1854930944	48	6335
2026-01-02 21:46:12.71	342.35	10.01	-38.0	-39.0	21.8	0.00e+00	123	39	0	1858076672	48	6244
2026-01-02 21:46:13.72	342.23	9.94	-37.9	-39.0	21.8	0.00e+00	123	39	0	1862270976	48	6238
2026-01-02 21:46:14.72	342.11	9.87	-38.0	-39.1	21.7	0.00e+00	122	39	0	1864368128	48	6310
2026-01-02 21:46:15.73	342.00	9.81	-37.8	-38.9	21.8	0.00e+00	122	39	0	1867513856	48	6177
2026-01-02 21:46:16.74	341.88	9.74	-37.8	-38.9	21.8	0.00e+00	123	39	0	1870659584	48	6152
2026-01-02 21:46:17.75	341.76	9.68	-37.9	-39.0	21.9	0.00e+00	121	39	0	1873805312	48	6220
2026-01-02 21:46:18.76	341.65	9.61	-37.9	-39.0	21.8	0.00e+00	123	39	0	1877999616	48	6223
2026-01-02 21:46:19.77	341.54	9.54	-37.8	-38.9	21.9	0.00e+00	123	39	0	1881145344	48	6164
2026-01-02 21:46:20.78	341.42	9.48	-37.8	-38.9	22.0	0.00e+00	122	39	0	1884291072	48	6153
2026-01-02 21:46:21.80	341.31	9.41	-37.9	-39.0	22.0	0.00e+00	120	39	0	1886388224	48	6215
2026-01-02 21:46:22.80	341.20	9.35	-38.1	-39.1	21.7	0.00e+00	123	39	0	1889533952	48	6349
2026-01-02 21:46:23.81	341.08	9.28	-38.3	-39.4	21.6	0.00e+00	123	39	0	1893728256	48	6544
2026-01-02 21:46:24.82	340.97	9.22	-38.3	-39.5	21.5	0.00e+00	122	39	0	1896873984	48	6602
2026-01-02 21:46:25.83	340.86	9.15	-38.4	-39.6	21.3	0.00e+00	122	39	0	1900019712	48	6678
2026-01-02 21:46:26.84	340.75	9.09	-38.6	-39.8	21.3	0.00e+00	120	39	0	1903165440	48	6820
2026-01-02 21:46:27.85	340.64	9.02	-38.5	-39.7	21.2	0.00e+00	122	39	0	1906311168	48	6752
2026-01-02 21:46:28.86	340.53	8.96	-38.7	-39.8	21.1	0.00e+00	123	39	0	1909456896	48	6860
2026-01-02 21:46:29.87	340.42	8.89	-38.6	-39.8	21.2	0.00e+00	122	39	0	1912602624	50	6078
2026-01-02 21:46:30.88	340.31	8.83	-38.7	-39.9	21.0	0.00e+00	123	39	0	1915748352	50	6148
2026-01-02 21:46:31.89	340.20	8.76	-38.5	-39.6	21.1	0.00e+00	123	39	0	1918894080	50	5977
2026-01-02 21:46:32.90	340.10	8.70	-38.4	-39.6	21.3	0.00e+00	122	39	0	1922039808	50	5955
2026-01-02 21:46:33.91	339.99	8.63	-38.4	-39.5	21.3	0.00e+00	123	39	0	1925185536	50	5893
2026-01-02 21:46:34.92	339.88	8.57	-38.1	-39.3	21.4	0.00e+00	122	39	0	1928331264	50	5734
2026-01-02 21:46:35.93	339.78	8.50	-38.1	-39.3	21.6	0.00e+00	123	39	0	1931476992	50	5730
2026-01-02 21:46:36.94	339.67	8.44	-38.1	-39.2	21.6	0.00e+00	122	39	0	1934622720	50	5683
2026-01-02 21:46:37.95	339.57	8.37	-38.1	-39.2	21.7	0.00e+00	123	39	0	1937768448	50	5662
2026-01-02 21:46:38.96	339.46	8.31	-38.0	-39.1	21.7	0.00e+00	123	39	0	1940914176	50	5648
2026-01-02 21:46:39.96	339.36	8.24	-38.2	-39.3	21.4	0.00e+00	123	39	0	1944059904	50	5746
2026-01-02 21:46:40.97	339.25	8.18	-38.1	-39.2	21.7	0.00e+00	123	39	0	1947205632	50	5667
2026-01-02 21:46:41.98	339.15	8.12	-38.1	-39.2	21.7	0.00e+00	123	39	0	1950351360	50	5685
2026-01-02 21:46:42.99	339.05	8.05	-38.3	-39.4	21.5	0.00e+00	123	39	0	1953497088	50	5819
2026-01-02 21:46:44.00	338.95	7.99	-38.2	-39.4	21.5	0.00e+00	123	39	0	1956642816	50	5795
