passes_logs/2026/01/02/R4.6S_Anadyr/R4.6S_Anadyr__20260102_215002_AQUA_rec.log

#Pass ID: 20260102_215002_AQUA
#Satellite: AQUA
#Configuration: AQUA
#almurnet v.1.7.20251203
#Start time: 2026-01-02 21:50:03

#Version: 2.2.20231116
#Station: R4.6S_Anadyr
#Location: 177.4865 lon 64.73178 lat
#TLE: 1 27424U 02022A   25365.92641127  .00002078  00000+0  42628-3 0  9999
#TLE: 2 27424  98.4058 327.1196 0001962  94.7781 340.6230 14.61783896258835

#Time	Az	El	Level	Level2	SNR	BER	BlckErr	Temp	State	Recorded	gain1	gain2
2026-01-02 21:50:03.54	60.03	0.06	-50.0	-62.5	3.4	1.52e+00	0	37	0	0	60	46760
2026-01-02 21:50:04.54	59.94	0.10	-50.4	-68.3	3.5	3.05e+01	0	38	104	0	60	99538
2026-01-02 21:50:05.55	59.85	0.15	-50.4	-68.2	3.5	3.05e+01	0	38	104	0	60	99255
2026-01-02 21:50:06.56	59.75	0.20	-50.4	-68.3	3.5	3.05e+01	0	39	104	0	60	99670
2026-01-02 21:50:07.57	59.66	0.25	-50.4	-68.3	3.5	3.05e+01	0	38	104	0	60	100108
2026-01-02 21:50:08.58	59.57	0.29	-50.4	-68.3	3.5	3.05e+01	0	38	104	0	60	99904
2026-01-02 21:50:09.59	59.47	0.34	-50.4	-68.2	3.5	3.05e+01	0	38	104	0	60	99258
2026-01-02 21:50:10.60	59.38	0.39	-50.2	-68.2	3.5	3.05e+01	0	38	104	0	60	99353
2026-01-02 21:50:11.61	59.28	0.44	-50.2	-68.3	3.5	3.05e+01	0	38	104	0	60	99649
2026-01-02 21:50:12.62	59.19	0.49	-50.2	-68.2	3.5	3.05e+01	0	38	104	0	60	99387
2026-01-02 21:50:13.63	59.09	0.53	-49.7	-68.2	3.5	3.05e+01	0	39	104	0	60	99298
2026-01-02 21:50:14.64	59.00	0.58	-50.1	-68.2	3.5	3.05e+01	0	39	104	0	60	98656
2026-01-02 21:50:15.65	58.90	0.63	-50.0	-68.1	3.5	3.05e+01	0	39	104	0	60	97890
2026-01-02 21:50:16.66	58.80	0.68	-49.9	-68.0	3.5	3.05e+01	0	39	104	0	60	96435
2026-01-02 21:50:17.67	58.71	0.72	-49.9	-67.8	3.5	3.05e+01	0	39	104	0	60	94903
2026-01-02 21:50:18.68	58.61	0.77	-48.6	-67.6	3.5	3.05e+01	0	39	104	0	60	92586
2026-01-02 21:50:19.69	58.51	0.82	-48.5	-67.2	3.5	3.05e+01	0	39	104	0	60	87943
2026-01-02 21:50:20.70	58.41	0.87	-47.8	-66.4	3.5	3.05e+01	0	39	104	0	60	80587
2026-01-02 21:50:21.71	58.32	0.92	-47.8	-66.4	3.5	3.05e+01	0	39	104	0	60	80429
2026-01-02 21:50:22.72	58.22	0.96	-47.8	-66.5	3.5	3.05e+01	0	39	104	0	60	80959
2026-01-02 21:50:23.73	58.12	1.01	-47.8	-66.4	3.5	3.05e+01	0	39	104	0	60	80507
2026-01-02 21:50:24.74	58.02	1.06	-47.8	-66.4	3.5	3.05e+01	0	39	104	0	60	80051
2026-01-02 21:50:25.75	57.92	1.11	-47.8	-66.4	3.5	3.05e+01	0	39	104	0	60	80647
2026-01-02 21:50:26.76	57.82	1.16	-47.8	-66.4	3.5	3.05e+01	0	39	104	0	60	80665
2026-01-02 21:50:27.77	57.72	1.21	-47.8	-66.4	3.5	3.05e+01	0	39	104	0	60	80113
2026-01-02 21:50:28.78	57.62	1.25	-47.8	-66.4	3.5	3.05e+01	0	39	104	0	60	80161
2026-01-02 21:50:29.79	57.52	1.30	-47.8	-66.4	3.5	3.05e+01	0	39	104	0	60	80657
2026-01-02 21:50:30.80	57.41	1.35	-47.8	-66.4	3.5	3.05e+01	0	39	104	0	60	80684
2026-01-02 21:50:31.81	57.31	1.40	-47.8	-66.4	3.5	3.05e+01	0	39	104	0	60	80675
2026-01-02 21:50:32.82	57.21	1.45	-47.8	-66.4	3.5	3.05e+01	0	39	104	0	60	80571
2026-01-02 21:50:33.83	57.11	1.49	-47.8	-66.4	3.5	3.05e+01	0	39	104	0	60	80209
2026-01-02 21:50:34.84	57.00	1.54	-47.8	-66.4	3.5	3.05e+01	0	39	104	0	60	80344
2026-01-02 21:50:35.85	56.90	1.59	-47.8	-66.4	3.5	3.05e+01	0	39	104	0	60	80349
2026-01-02 21:50:36.86	56.80	1.64	-47.8	-66.3	3.5	3.05e+01	0	39	104	0	60	79926
2026-01-02 21:50:37.87	56.69	1.69	-47.8	-66.4	3.5	3.05e+01	0	39	104	0	60	80189
2026-01-02 21:50:38.88	56.59	1.73	-47.8	-66.3	3.5	3.05e+01	0	39	104	0	60	79735
2026-01-02 21:50:39.89	56.48	1.78	-47.8	-66.4	3.5	3.05e+01	0	39	104	0	60	80458
2026-01-02 21:50:40.91	56.38	1.83	-47.8	-66.4	3.5	3.05e+01	0	39	104	0	60	80324
2026-01-02 21:50:41.92	56.27	1.88	-47.8	-66.4	3.5	3.05e+01	0	39	104	0	60	80029
2026-01-02 21:50:42.93	56.16	1.93	-47.8	-66.4	3.5	3.05e+01	0	39	104	0	60	80227
2026-01-02 21:50:43.94	56.06	1.98	-47.8	-66.4	3.5	3.05e+01	0	39	104	0	60	80119
2026-01-02 21:50:44.94	55.95	2.02	-47.8	-66.3	3.5	3.05e+01	0	39	104	0	60	79473
2026-01-02 21:50:45.96	55.84	2.07	-47.8	-66.3	3.5	3.05e+01	0	39	104	0	60	79566
2026-01-02 21:50:46.96	55.74	2.12	-47.8	-66.4	3.5	3.05e+01	0	39	104	0	60	79981
2026-01-02 21:50:47.97	55.63	2.17	-47.8	-66.4	3.5	3.05e+01	0	39	104	0	60	80582
2026-01-02 21:50:48.98	55.52	2.22	-47.8	-66.4	3.5	3.05e+01	0	39	104	0	60	80387
2026-01-02 21:50:49.99	55.41	2.27	-47.8	-66.4	3.5	3.05e+01	0	39	104	0	60	80007
2026-01-02 21:50:51.00	55.30	2.31	-47.8	-66.3	3.5	3.05e+01	0	39	104	0	60	79121
2026-01-02 21:50:52.01	55.19	2.36	-47.8	-66.1	3.5	3.05e+01	0	39	104	0	60	77980
2026-01-02 21:50:53.02	55.08	2.41	-47.7	-66.0	3.5	3.05e+01	0	39	104	0	60	77205
2026-01-02 21:50:54.03	54.97	2.46	-47.7	-66.1	3.5	3.05e+01	0	39	104	0	60	77675
2026-01-02 21:50:55.04	54.86	2.51	-47.8	-66.4	3.5	3.05e+01	0	39	104	0	60	79945
2026-01-02 21:50:56.05	54.75	2.55	-47.8	-66.4	3.5	3.05e+01	0	39	104	0	60	80654
2026-01-02 21:50:57.06	54.64	2.60	-47.8	-66.3	3.5	3.05e+01	0	39	104	0	60	79149
2026-01-02 21:50:58.07	54.52	2.65	-47.8	-66.3	3.5	3.05e+01	0	39	104	0	60	79083
2026-01-02 21:50:59.08	54.41	2.70	-47.8	-66.3	3.5	3.05e+01	0	39	104	0	60	79549
2026-01-02 21:51:00.09	54.30	2.75	-47.8	-66.1	3.5	3.05e+01	0	39	104	0	60	77510
2026-01-02 21:51:01.10	54.18	2.80	-47.7	-65.5	3.5	3.05e+01	0	39	104	0	60	72528
2026-01-02 21:51:02.10	54.07	2.84	-47.6	-65.3	3.5	3.05e+01	0	39	104	0	60	70738
2026-01-02 21:51:03.11	53.96	2.89	-47.7	-66.1	3.5	3.05e+01	0	39	104	0	60	77308
2026-01-02 21:51:04.12	53.84	2.94	-47.6	-65.0	3.5	3.05e+01	0	39	104	0	60	68099
2026-01-02 21:51:05.13	53.73	2.99	-46.4	-60.8	3.5	3.05e+01	0	39	104	0	60	42207
2026-01-02 21:51:06.14	53.61	3.04	-44.9	-57.4	3.5	3.05e+01	0	39	104	0	60	28492
2026-01-02 21:51:07.15	53.50	3.08	-46.7	-66.2	3.5	3.05e+01	0	39	104	0	60	78179
2026-01-02 21:51:08.16	53.38	3.13	-45.0	-58.7	3.5	3.05e+01	0	39	104	0	60	33226
2026-01-02 21:51:09.17	53.26	3.18	-47.4	-66.3	3.5	3.05e+01	0	39	104	0	60	79164
2026-01-02 21:51:10.18	53.14	3.23	-47.7	-65.9	3.5	3.05e+01	0	39	104	0	60	76157
2026-01-02 21:51:11.19	53.03	3.28	-42.6	-53.8	3.6	3.05e+01	0	39	104	0	60	18868
2026-01-02 21:51:12.20	52.91	3.32	-41.9	-53.1	3.5	3.05e+01	0	39	104	0	58	19520
2026-01-02 21:51:13.21	52.79	3.37	-41.1	-52.1	3.5	3.05e+01	0	39	104	0	56	19573
2026-01-02 21:51:14.22	52.67	3.42	-40.4	-51.2	3.5	3.05e+01	0	39	104	0	56	17675
2026-01-02 21:51:15.23	52.55	3.47	-40.3	-51.0	3.5	3.05e+01	0	39	104	0	56	17289
2026-01-02 21:51:16.24	52.43	3.52	-40.9	-51.6	3.6	3.05e+01	0	39	104	0	56	18346
2026-01-02 21:51:17.25	52.31	3.57	-42.2	-53.2	3.5	3.05e+01	0	39	104	0	58	19691
2026-01-02 21:51:18.26	52.19	3.61	-48.1	-66.3	3.5	3.05e+01	0	39	104	0	60	79403
2026-01-02 21:51:19.27	52.07	3.66	-40.8	-52.0	3.5	3.05e+01	0	39	104	0	60	15298
2026-01-02 21:51:20.28	51.95	3.71	-48.3	-66.1	3.5	3.05e+01	0	39	104	0	60	77289
2026-01-02 21:51:21.29	51.83	3.76	-41.6	-52.5	3.5	3.05e+01	0	39	104	0	58	18203
2026-01-02 21:51:22.29	51.70	3.80	-41.4	-52.2	3.5	3.05e+01	0	39	104	0	56	19849
2026-01-02 21:51:23.30	51.58	3.85	-40.5	-51.3	3.6	3.05e+01	0	39	104	0	56	17734
2026-01-02 21:51:24.31	51.46	3.90	-39.9	-50.5	3.5	3.05e+01	0	39	104	0	54	18287
2026-01-02 21:51:25.32	51.33	3.95	-41.5	-52.5	3.5	3.05e+01	0	39	104	0	58	18178
2026-01-02 21:51:26.33	51.21	4.00	-41.7	-52.8	3.5	3.05e+01	0	39	104	0	58	18768
2026-01-02 21:51:27.34	51.08	4.04	-48.4	-66.3	3.5	3.05e+01	0	39	104	0	60	79599
2026-01-02 21:51:28.35	50.96	4.09	-40.1	-50.7	3.6	3.05e+01	0	39	104	0	56	16591
2026-01-02 21:51:29.36	50.83	4.14	-48.2	-66.1	3.5	3.05e+01	0	39	104	0	60	77753
2026-01-02 21:51:30.37	50.71	4.19	-39.6	-50.2	3.5	3.05e+01	0	39	104	0	54	17664
2026-01-02 21:51:31.38	50.58	4.24	-39.4	-49.9	3.5	3.05e+01	0	39	104	0	54	17028
2026-01-02 21:51:32.39	50.45	4.28	-39.3	-49.8	3.5	3.05e+01	0	39	104	0	54	16800
2026-01-02 21:51:33.40	50.33	4.33	-39.9	-50.7	3.5	3.05e+01	0	39	104	0	54	18665
2026-01-02 21:51:34.41	50.20	4.38	-44.3	-56.0	3.5	3.05e+01	0	39	104	0	60	24409
2026-01-02 21:51:35.42	50.07	4.43	-41.7	-52.6	3.5	3.05e+01	0	39	104	0	56	20752
2026-01-02 21:51:36.43	49.94	4.47	-47.7	-63.3	3.5	3.05e+01	0	39	104	0	60	56277
2026-01-02 21:51:37.43	49.81	4.52	-40.0	-50.6	3.5	3.05e+01	0	39	104	0	56	16508
2026-01-02 21:51:38.44	49.68	4.57	-48.0	-64.9	3.5	3.05e+01	0	39	104	0	60	67376
2026-01-02 21:51:39.45	49.55	4.62	-40.8	-51.5	3.5	3.05e+01	0	39	104	0	56	18301
2026-01-02 21:51:40.46	49.42	4.66	-41.3	-52.1	3.5	3.05e+01	0	39	104	0	56	19530
2026-01-02 21:51:41.47	49.29	4.71	-41.1	-52.0	3.5	3.05e+01	0	39	104	0	56	19207
2026-01-02 21:51:42.48	49.16	4.76	-40.4	-51.0	3.5	3.05e+01	0	39	104	0	56	17266
2026-01-02 21:51:43.49	49.02	4.81	-40.3	-51.2	3.5	3.05e+01	0	39	104	0	58	15686
2026-01-02 21:51:44.50	48.89	4.85	-41.7	-52.6	3.4	3.05e+01	0	39	104	0	56	20772
2026-01-02 21:51:45.51	48.76	4.90	-46.3	-61.9	3.6	3.05e+01	0	39	104	0	60	48126
2026-01-02 21:51:46.52	48.62	4.95	-39.3	-50.0	3.5	3.05e+01	0	39	104	0	54	17261
2026-01-02 21:51:47.53	48.49	4.99	-47.6	-63.7	3.5	3.05e+01	0	39	104	0	60	59119
2026-01-02 21:51:48.54	48.35	5.04	-40.1	-50.9	3.5	3.05e+01	0	39	104	0	56	16922
2026-01-02 21:51:49.55	48.22	5.09	-39.6	-50.3	3.5	3.05e+01	0	39	104	0	54	17804
2026-01-02 21:51:50.56	48.08	5.14	-39.5	-50.1	3.6	3.05e+01	0	39	104	0	54	17459
2026-01-02 21:51:51.57	47.95	5.18	-41.9	-52.9	3.6	3.05e+01	0	39	104	0	54	23888
2026-01-02 21:51:52.58	47.81	5.23	-43.9	-55.5	3.6	3.05e+01	0	39	104	0	60	22891
2026-01-02 21:51:53.59	47.67	5.28	-44.3	-56.3	3.7	3.05e+01	0	39	104	0	56	31668
2026-01-02 21:51:54.60	47.54	5.32	-44.8	-57.1	3.5	3.05e+01	0	39	104	0	60	27643
2026-01-02 21:51:55.61	47.40	5.37	-41.7	-52.7	3.5	3.05e+01	0	39	104	0	54	23383
2026-01-02 21:51:56.62	47.26	5.42	-46.0	-58.7	3.6	3.05e+01	0	39	104	0	60	33257
2026-01-02 21:51:57.63	47.12	5.46	-40.6	-51.3	3.5	3.05e+01	0	39	104	0	56	17867
2026-01-02 21:51:58.64	46.98	5.51	-40.5	-51.2	3.5	3.05e+01	0	39	104	0	56	17627
2026-01-02 21:51:59.65	46.84	5.56	-40.7	-51.5	3.5	3.05e+01	0	39	104	0	56	18168
2026-01-02 21:52:00.66	46.70	5.60	-45.3	-57.7	3.5	3.05e+01	0	39	104	0	60	29585
2026-01-02 21:52:01.67	46.56	5.65	-44.4	-56.3	3.5	3.05e+01	0	39	104	0	60	25071
2026-01-02 21:52:02.68	46.42	5.70	-45.5	-58.1	3.5	3.05e+01	0	39	104	0	60	30995
2026-01-02 21:52:03.69	46.27	5.74	-45.3	-58.7	3.5	3.05e+01	0	39	104	0	60	32983
2026-01-02 21:52:04.70	46.13	5.79	-43.2	-54.5	3.5	3.05e+01	0	39	104	0	56	25753
2026-01-02 21:52:05.71	45.99	5.83	-43.6	-55.1	3.5	3.05e+01	0	39	104	0	60	21783
2026-01-02 21:52:06.72	45.84	5.88	-41.1	-51.8	3.5	3.05e+01	0	39	104	0	58	16759
2026-01-02 21:52:07.72	45.70	5.93	-41.1	-51.8	3.5	3.05e+01	0	39	104	0	56	18750
2026-01-02 21:52:08.73	45.56	5.97	-41.4	-52.1	3.5	3.05e+01	0	39	104	0	56	19499
2026-01-02 21:52:09.74	45.41	6.02	-40.7	-51.5	3.5	3.05e+01	0	39	104	0	54	20420
2026-01-02 21:52:10.75	45.27	6.06	-39.4	-50.0	3.5	3.05e+01	0	39	104	0	54	17117
2026-01-02 21:52:11.76	45.12	6.11	-47.8	-64.5	3.5	3.05e+01	0	39	104	0	60	64516
2026-01-02 21:52:12.77	44.97	6.16	-45.0	-57.0	3.5	3.05e+01	0	39	104	0	60	27191
2026-01-02 21:52:13.78	44.83	6.20	-47.6	-61.9	3.5	3.05e+01	0	39	104	0	60	47728
2026-01-02 21:52:14.79	44.68	6.25	-43.2	-54.6	3.5	3.05e+01	0	39	104	0	60	20590
2026-01-02 21:52:15.80	44.53	6.29	-40.9	-51.7	3.5	3.05e+01	0	39	104	0	58	16609
2026-01-02 21:52:16.81	44.38	6.34	-40.2	-50.8	3.5	3.05e+01	0	39	104	0	56	16749
2026-01-02 21:52:17.82	44.23	6.38	-40.4	-51.0	3.5	3.05e+01	0	39	104	0	56	17153
2026-01-02 21:52:18.83	44.08	6.43	-43.6	-55.0	3.5	3.05e+01	0	39	104	0	58	24213
2026-01-02 21:52:19.84	43.93	6.47	-39.2	-49.7	3.5	3.05e+01	0	39	104	0	54	16516
2026-01-02 21:52:20.85	43.78	6.52	-48.1	-66.5	3.5	3.05e+01	0	39	104	0	60	81509
2026-01-02 21:52:21.86	43.63	6.56	-43.6	-54.9	3.5	3.05e+01	0	39	104	0	60	21373
2026-01-02 21:52:22.87	43.48	6.61	-48.5	-66.2	3.5	3.05e+01	0	39	104	0	60	78389
2026-01-02 21:52:23.88	43.32	6.65	-40.6	-51.2	3.5	3.05e+01	0	39	104	0	58	15680
2026-01-02 21:52:24.89	43.17	6.70	-39.2	-49.8	3.5	3.05e+01	0	39	104	0	54	16736
2026-01-02 21:52:25.89	43.02	6.74	-38.9	-49.4	3.5	3.05e+01	0	39	104	0	52	18025
2026-01-02 21:52:26.90	42.87	6.79	-38.7	-49.1	3.5	3.05e+01	0	39	104	0	52	17384
2026-01-02 21:52:27.91	42.71	6.83	-44.7	-56.2	3.5	3.05e+01	0	39	104	0	60	24864
2026-01-02 21:52:28.92	42.56	6.87	-39.6	-50.2	3.5	3.05e+01	0	39	104	0	52	19629
2026-01-02 21:52:29.93	42.40	6.92	-48.8	-66.3	3.5	3.05e+01	0	39	104	0	60	79606
2026-01-02 21:52:30.94	42.24	6.96	-43.4	-54.9	3.5	3.05e+01	0	39	104	0	60	21369
2026-01-02 21:52:31.95	42.09	7.01	-49.1	-66.6	3.5	3.05e+01	0	39	104	0	60	81965
2026-01-02 21:52:32.96	41.93	7.05	-40.3	-50.9	3.5	3.05e+01	0	39	104	0	56	16979
2026-01-02 21:52:33.97	41.77	7.09	-39.5	-49.9	3.5	3.05e+01	0	39	104	0	54	17057
2026-01-02 21:52:34.98	41.62	7.14	-39.0	-49.5	3.5	3.05e+01	0	39	104	0	52	18194
2026-01-02 21:52:35.99	41.46	7.18	-38.9	-49.4	3.5	3.05e+01	0	39	104	0	52	17908
2026-01-02 21:52:37.00	41.30	7.23	-46.3	-59.2	3.5	3.05e+01	0	39	104	0	60	34931
2026-01-02 21:52:38.01	41.14	7.27	-40.0	-50.5	3.6	3.05e+01	0	39	104	0	52	20443
2026-01-02 21:52:39.02	40.98	7.31	-48.6	-66.2	3.5	3.05e+01	0	39	104	0	60	78214
2026-01-02 21:52:40.03	40.82	7.36	-44.0	-55.2	3.5	3.05e+01	0	39	104	0	60	22262
2026-01-02 21:52:41.04	40.66	7.40	-49.2	-66.6	3.5	3.05e+01	0	39	104	0	60	82178
2026-01-02 21:52:42.05	40.49	7.44	-39.8	-50.3	3.5	3.05e+01	0	39	104	0	56	15910
2026-01-02 21:52:43.06	40.33	7.48	-39.4	-49.8	3.6	3.05e+01	0	39	104	0	54	16853
2026-01-02 21:52:44.07	40.17	7.53	-38.8	-49.2	3.5	3.05e+01	0	39	104	0	52	17602
2026-01-02 21:52:45.08	40.00	7.57	-38.9	-49.4	3.5	3.05e+01	0	39	104	0	52	17993
2026-01-02 21:52:46.09	39.84	7.61	-45.8	-57.9	3.5	3.05e+01	0	39	104	0	60	30361
2026-01-02 21:52:47.10	39.68	7.65	-40.1	-50.6	3.5	3.05e+01	0	39	104	0	56	16369
2026-01-02 21:52:48.11	39.51	7.70	-48.8	-66.0	3.5	3.05e+01	0	39	104	0	60	76429
2026-01-02 21:52:49.11	39.35	7.74	-44.0	-55.4	3.5	3.05e+01	0	39	104	0	60	22544
2026-01-02 21:52:50.12	39.18	7.78	-49.0	-66.7	3.5	3.05e+01	0	39	104	0	60	83528
2026-01-02 21:52:51.13	39.02	7.82	-39.5	-50.0	3.5	3.05e+01	0	39	104	0	54	17144
2026-01-02 21:52:52.14	38.85	7.86	-39.9	-50.4	3.5	3.05e+01	0	39	104	0	54	18095
2026-01-02 21:52:53.16	38.68	7.90	-39.0	-49.4	3.5	3.05e+01	0	39	104	0	54	16083
2026-01-02 21:52:54.16	38.51	7.94	-39.1	-49.5	3.5	3.05e+01	0	39	104	0	52	18290
2026-01-02 21:52:55.17	38.34	7.99	-48.3	-63.6	3.5	3.05e+01	0	39	104	0	60	58318
2026-01-02 21:52:56.18	38.17	8.03	-39.7	-50.2	3.5	3.05e+01	0	39	104	0	54	17527
2026-01-02 21:52:57.19	38.00	8.07	-49.0	-66.0	3.5	3.05e+01	0	39	104	0	60	77151
2026-01-02 21:52:58.20	37.83	8.11	-43.1	-54.3	3.6	3.05e+01	0	39	104	0	60	20058
2026-01-02 21:52:59.21	37.66	8.15	-49.2	-67.1	3.5	3.05e+01	0	39	104	0	60	87382
2026-01-02 21:53:00.22	37.49	8.19	-43.8	-54.9	3.5	3.05e+01	0	39	104	0	60	21321
2026-01-02 21:53:01.23	37.32	8.23	-44.1	-55.3	3.5	3.05e+01	0	39	104	0	60	22289
2026-01-02 21:53:02.24	37.15	8.27	-44.1	-55.3	3.5	3.05e+01	0	39	104	0	60	22475
2026-01-02 21:53:03.25	36.98	8.31	-42.0	-52.8	3.5	3.05e+01	0	39	104	0	60	16749
2026-01-02 21:53:04.26	36.80	8.35	-41.5	-52.2	3.5	3.05e+01	0	39	104	0	58	17655
2026-01-02 21:53:05.27	36.63	8.39	-39.5	-49.9	3.5	3.05e+01	0	39	104	0	52	19139
2026-01-02 21:53:06.28	36.45	8.43	-49.4	-66.8	3.5	3.05e+01	0	39	104	0	60	84659
2026-01-02 21:53:07.29	36.28	8.47	-41.6	-52.3	3.5	3.05e+01	0	39	104	0	60	15867
2026-01-02 21:53:08.30	36.10	8.51	-49.2	-66.5	3.5	3.05e+01	0	39	104	0	60	81375
2026-01-02 21:53:09.31	35.93	8.54	-39.4	-49.7	3.5	3.05e+01	0	39	104	0	54	16643
2026-01-02 21:53:10.32	35.75	8.58	-38.9	-49.3	3.5	3.05e+01	0	39	104	0	54	15855
2026-01-02 21:53:11.33	35.57	8.62	-39.4	-49.8	3.5	3.05e+01	0	39	104	0	52	18872
2026-01-02 21:53:12.34	35.40	8.66	-39.5	-49.9	3.5	3.05e+01	0	39	104	0	52	19051
2026-01-02 21:53:13.35	35.22	8.70	-47.4	-61.0	3.5	3.05e+01	0	39	104	0	60	42982
2026-01-02 21:53:14.36	35.04	8.74	-39.7	-50.1	3.5	3.05e+01	0	39	104	0	54	17338
2026-01-02 21:53:15.37	34.86	8.77	-48.8	-64.9	3.5	3.05e+01	0	39	104	0	60	67394
2026-01-02 21:53:16.38	34.68	8.81	-39.0	-49.4	3.4	3.05e+01	0	39	104	0	56	14275
2026-01-02 21:53:17.39	34.50	8.85	-48.8	-64.8	3.5	3.05e+01	0	39	104	0	60	67126
2026-01-02 21:53:18.40	34.32	8.89	-38.7	-49.0	3.5	3.05e+01	0	39	104	0	52	17206
2026-01-02 21:53:19.41	34.14	8.92	-38.1	-48.3	3.5	3.05e+01	0	39	104	0	52	15905
2026-01-02 21:53:20.42	33.96	8.96	-38.1	-48.4	3.5	3.05e+01	0	39	104	0	52	16097
2026-01-02 21:53:21.42	33.78	9.00	-38.7	-49.1	3.5	3.05e+01	0	39	104	0	52	17407
2026-01-02 21:53:22.43	33.60	9.03	-45.5	-57.3	3.6	3.05e+01	0	39	104	0	60	28302
2026-01-02 21:53:23.44	33.41	9.07	-40.1	-50.5	3.5	3.05e+01	0	39	104	0	54	18137
2026-01-02 21:53:24.45	33.23	9.11	-49.1	-65.9	3.5	3.05e+01	0	39	104	0	60	75970
2026-01-02 21:53:25.46	33.04	9.14	-39.8	-50.3	3.5	3.05e+01	0	39	104	0	56	15800
2026-01-02 21:53:26.47	32.86	9.18	-48.9	-66.3	3.5	3.05e+01	0	39	104	0	60	79937
2026-01-02 21:53:27.48	32.67	9.21	-44.1	-55.2	3.5	3.05e+01	0	39	104	0	60	22186
2026-01-02 21:53:28.49	32.49	9.25	-43.0	-53.9	3.5	3.05e+01	0	39	104	0	60	19147
2026-01-02 21:53:29.50	32.30	9.28	-41.3	-51.8	3.5	3.05e+01	0	39	104	0	58	16884
2026-01-02 21:53:30.51	32.12	9.32	-40.6	-51.2	3.5	3.05e+01	0	39	104	0	56	17537
2026-01-02 21:53:31.52	31.93	9.35	-39.1	-49.4	3.3	3.05e+01	0	39	104	0	56	14302
2026-01-02 21:53:32.52	31.74	9.39	-42.3	-53.6	3.8	3.05e+01	0	39	104	0	54	25938
2026-01-02 21:53:33.53	31.56	9.42	-45.7	-58.1	3.6	3.05e+01	0	39	104	0	60	30939
2026-01-02 21:53:34.54	31.37	9.45	-38.2	-48.7	3.5	3.05e+01	0	39	104	0	54	14806
2026-01-02 21:53:35.55	31.18	9.49	-46.0	-58.4	3.5	3.05e+01	0	39	104	0	60	32130
2026-01-02 21:53:36.56	30.99	9.52	-38.9	-49.2	3.5	3.05e+01	0	39	104	0	52	17625
2026-01-02 21:53:37.57	30.80	9.55	-38.3	-48.6	3.5	3.05e+01	0	39	104	0	52	16412
2026-01-02 21:53:38.58	30.61	9.59	-38.3	-48.6	3.5	3.05e+01	0	39	104	0	52	16452
2026-01-02 21:53:39.59	30.42	9.62	-39.4	-49.8	3.5	3.05e+01	0	39	104	0	52	18919
2026-01-02 21:53:40.60	30.23	9.65	-38.4	-48.7	3.5	3.05e+01	0	39	104	0	54	14874
2026-01-02 21:53:41.61	30.04	9.68	-43.9	-55.1	3.4	3.05e+01	0	39	104	0	56	27683
2026-01-02 21:53:42.62	29.84	9.72	-45.3	-57.3	3.5	3.05e+01	0	39	104	0	60	28122
2026-01-02 21:53:43.63	29.65	9.75	-39.8	-50.2	3.5	3.05e+01	0	39	104	0	52	19657
2026-01-02 21:53:44.64	29.46	9.78	-45.4	-57.2	3.5	3.05e+01	0	39	104	0	60	27768
2026-01-02 21:53:45.65	29.26	9.81	-39.2	-49.5	3.6	3.05e+01	0	39	104	0	52	18280
2026-01-02 21:53:46.66	29.07	9.84	-39.3	-49.6	3.5	3.05e+01	0	39	104	0	52	18507
2026-01-02 21:53:47.67	28.88	9.87	-38.9	-49.2	3.5	3.05e+01	0	39	104	0	52	17682
2026-01-02 21:53:48.68	28.68	9.90	-40.5	-50.9	3.4	3.05e+01	0	39	104	0	52	21473
2026-01-02 21:53:49.69	28.48	9.93	-38.5	-48.8	3.5	3.05e+01	0	39	104	0	54	14919
2026-01-02 21:53:50.70	28.29	9.96	-48.8	-64.2	3.5	3.05e+01	0	39	104	0	60	62115
2026-01-02 21:53:51.71	28.09	9.99	-41.5	-52.1	3.5	3.05e+01	0	39	104	0	60	15486
2026-01-02 21:53:52.72	27.90	10.02	-45.5	-57.1	3.5	3.05e+01	0	39	104	0	56	34656
2026-01-02 21:53:53.73	27.70	10.05	-45.3	-56.8	3.5	3.05e+01	0	39	104	0	60	26767
2026-01-02 21:53:54.74	27.50	10.08	-41.4	-52.0	3.5	3.05e+01	0	39	104	0	58	17134
2026-01-02 21:53:55.75	27.30	10.11	-41.3	-51.9	3.5	3.05e+01	0	39	104	0	56	19071
2026-01-02 21:53:56.76	27.11	10.14	-40.8	-51.3	3.5	3.05e+01	0	39	104	0	56	17892
2026-01-02 21:53:57.77	26.91	10.16	-38.5	-48.8	3.5	3.05e+01	0	39	104	0	52	16841
2026-01-02 21:53:58.77	26.71	10.19	-38.6	-48.9	3.5	3.05e+01	0	39	104	0	52	17084
2026-01-02 21:53:59.78	26.51	10.22	-49.2	-65.9	3.5	3.05e+01	0	39	104	0	60	75838
2026-01-02 21:54:00.80	26.31	10.25	-43.1	-53.9	3.5	3.05e+01	0	39	104	0	60	19077
2026-01-02 21:54:01.81	26.11	10.27	-49.1	-65.4	3.5	3.05e+01	0	39	104	0	60	71282
2026-01-02 21:54:02.82	25.91	10.30	-41.6	-52.2	3.6	3.05e+01	0	39	104	0	60	15700
2026-01-02 21:54:03.83	25.70	10.33	-38.7	-49.0	3.5	3.05e+01	0	39	104	0	52	17252
2026-01-02 21:54:04.84	25.50	10.35	-38.3	-48.6	3.5	3.05e+01	0	39	104	0	52	16349
2026-01-02 21:54:05.84	25.30	10.38	-38.3	-48.6	3.5	3.05e+01	0	39	104	0	52	16381
2026-01-02 21:54:06.86	25.10	10.40	-45.8	-57.8	3.5	3.05e+01	0	39	104	0	60	29875
2026-01-02 21:54:07.86	24.90	10.43	-38.4	-48.7	3.5	3.05e+01	0	39	104	0	52	16605
2026-01-02 21:54:08.87	24.69	10.45	-49.4	-66.6	3.5	3.05e+01	0	39	104	0	60	81987
2026-01-02 21:54:09.88	24.49	10.48	-43.0	-53.8	3.5	3.05e+01	0	39	104	0	60	18923
2026-01-02 21:54:10.89	24.29	10.50	-49.3	-66.6	3.5	3.05e+01	0	39	104	0	60	82273
2026-01-02 21:54:11.91	24.08	10.53	-40.1	-50.5	3.5	3.05e+01	0	39	104	0	56	16296
2026-01-02 21:54:12.92	23.88	10.55	-38.6	-48.9	3.5	3.05e+01	0	39	104	0	52	16979
2026-01-02 21:54:13.93	23.67	10.57	-38.3	-48.5	3.5	3.05e+01	0	39	104	0	52	16281
2026-01-02 21:54:14.94	23.47	10.60	-38.0	-48.3	3.5	3.05e+01	0	39	104	0	52	15833
2026-01-02 21:54:15.95	23.26	10.62	-44.0	-55.1	3.5	3.05e+01	0	39	104	0	60	21932
2026-01-02 21:54:16.96	23.05	10.64	-38.7	-49.0	3.4	3.05e+01	0	39	104	0	50	19272
2026-01-02 21:54:17.97	22.85	10.66	-49.3	-66.2	3.5	3.05e+01	0	39	104	0	60	78723
2026-01-02 21:54:18.98	22.64	10.69	-41.9	-52.5	3.5	3.05e+01	0	39	104	0	56	20482
2026-01-02 21:54:19.99	22.43	10.71	-49.4	-66.5	3.5	3.05e+01	0	39	104	0	60	81781
2026-01-02 21:54:21.00	22.23	10.73	-43.2	-54.1	3.5	3.05e+01	0	39	104	0	60	19609
2026-01-02 21:54:22.01	22.02	10.75	-42.7	-53.5	3.6	3.05e+01	0	39	104	0	60	18242
2026-01-02 21:54:23.02	21.81	10.77	-42.5	-53.2	3.5	3.05e+01	0	39	104	0	60	17556
2026-01-02 21:54:24.03	21.60	10.79	-42.6	-53.3	3.5	3.05e+01	0	39	104	0	60	17817
2026-01-02 21:54:25.04	21.39	10.81	-38.2	-48.5	3.5	3.05e+01	0	39	104	0	52	16162
2026-01-02 21:54:26.05	21.19	10.83	-39.4	-49.8	3.5	3.05e+01	0	39	104	0	52	18801
2026-01-02 21:54:27.06	20.98	10.85	-49.1	-66.0	3.5	3.05e+01	0	39	104	0	60	76743
2026-01-02 21:54:28.07	20.77	10.87	-43.4	-54.3	3.5	3.05e+01	0	39	104	0	60	19887
2026-01-02 21:54:29.08	20.56	10.89	-49.5	-67.4	3.6	3.05e+01	0	39	104	0	60	89856
2026-01-02 21:54:30.09	20.35	10.90	-39.3	-49.6	3.5	3.05e+01	0	39	104	0	54	16461
2026-01-02 21:54:31.10	20.14	10.92	-38.4	-48.8	3.5	3.05e+01	0	39	104	0	52	16834
2026-01-02 21:54:32.11	19.93	10.94	-38.2	-48.5	3.5	3.05e+01	0	39	104	0	52	16182
2026-01-02 21:54:33.12	19.71	10.96	-38.1	-48.5	3.5	3.05e+01	0	39	104	0	52	16137
2026-01-02 21:54:34.13	19.50	10.97	-48.4	-62.8	3.5	3.05e+01	0	39	104	0	60	53025
2026-01-02 21:54:35.14	19.29	10.99	-39.5	-49.8	3.5	3.05e+01	0	39	104	0	52	18926
2026-01-02 21:54:36.14	19.08	11.01	-49.3	-66.0	3.5	3.05e+01	0	39	104	0	60	76997
2026-01-02 21:54:37.15	18.87	11.02	-42.3	-53.0	3.5	3.05e+01	0	39	104	0	60	17268
2026-01-02 21:54:38.16	18.66	11.04	-49.5	-67.4	3.5	3.05e+01	0	39	104	0	60	89986
2026-01-02 21:54:39.17	18.45	11.05	-39.3	-49.6	3.5	3.05e+01	0	39	104	0	54	16408
2026-01-02 21:54:40.18	18.23	11.07	-38.7	-48.9	3.5	3.05e+01	0	39	104	0	52	17089
2026-01-02 21:54:41.19	18.02	11.08	-38.7	-49.0	3.5	3.05e+01	0	39	104	0	52	17194
2026-01-02 21:54:42.20	17.81	11.09	-38.2	-48.4	3.5	3.05e+01	0	39	104	0	52	16116
2026-01-02 21:54:43.21	17.59	11.11	-45.0	-56.4	3.5	3.05e+01	0	39	104	0	60	25454
2026-01-02 21:54:44.22	17.38	11.12	-39.6	-49.9	3.5	3.05e+01	0	39	104	0	52	19137
2026-01-02 21:54:45.23	17.17	11.13	-49.6	-66.7	3.5	3.05e+01	0	39	104	0	60	83421
2026-01-02 21:54:46.24	16.95	11.15	-42.5	-53.3	3.5	3.05e+01	0	39	104	0	60	17753
2026-01-02 21:54:47.25	16.74	11.16	-49.6	-67.2	3.5	3.05e+01	0	39	104	0	60	88021
2026-01-02 21:54:48.26	16.52	11.17	-40.6	-51.1	3.5	3.05e+01	0	39	104	0	56	17462
2026-01-02 21:54:49.27	16.31	11.18	-39.5	-49.8	3.5	3.05e+01	0	39	104	0	54	16764
2026-01-02 21:54:50.27	16.10	11.19	-39.1	-49.4	3.5	3.05e+01	0	39	104	0	54	16016
2026-01-02 21:54:51.29	15.88	11.20	-39.1	-49.4	3.6	3.05e+01	0	39	104	0	54	15952
2026-01-02 21:54:52.30	15.66	11.22	-48.2	-62.1	3.5	3.05e+01	0	39	104	0	60	49224
2026-01-02 21:54:53.30	15.45	11.23	-43.2	-54.1	3.5	3.05e+01	0	39	104	0	60	19601
2026-01-02 21:54:54.31	15.24	11.23	-49.1	-65.5	3.5	3.05e+01	0	39	104	0	60	72462
2026-01-02 21:54:55.32	15.02	11.24	-49.6	-67.2	3.5	3.05e+01	0	39	104	0	60	87811
2026-01-02 21:54:56.33	14.80	11.25	-39.5	-49.8	3.5	3.05e+01	0	39	104	0	54	16828
2026-01-02 21:54:57.34	14.59	11.26	-39.3	-49.6	3.5	3.05e+01	0	39	104	0	54	16400
2026-01-02 21:54:58.35	14.37	11.27	-38.6	-48.9	3.5	3.05e+01	0	39	104	0	52	16977
2026-01-02 21:54:59.36	14.16	11.28	-38.9	-49.2	3.5	3.05e+01	0	39	104	0	52	17502
2026-01-02 21:55:00.37	13.94	11.29	-38.2	-48.5	3.5	3.05e+01	0	39	104	0	52	16211
2026-01-02 21:55:01.38	13.72	11.29	-38.0	-48.3	3.5	3.05e+01	0	39	104	0	52	15855
2026-01-02 21:55:02.39	13.51	11.30	-40.1	-50.5	3.5	3.05e+01	0	39	104	0	52	20516
2026-01-02 21:55:03.40	13.29	11.31	-49.4	-66.5	3.6	3.05e+01	0	39	104	0	60	80940
2026-01-02 21:55:04.41	13.07	11.31	-38.4	-48.7	3.5	3.05e+01	0	39	104	0	54	14769
2026-01-02 21:55:05.42	12.86	11.32	-49.6	-67.2	3.6	3.05e+01	0	39	104	0	60	88150
2026-01-02 21:55:06.43	12.64	11.32	-39.5	-49.9	3.6	3.05e+01	0	39	104	0	54	16909
2026-01-02 21:55:07.44	12.42	11.33	-38.4	-48.7	3.5	3.05e+01	0	39	104	0	52	16598
2026-01-02 21:55:08.45	12.21	11.33	-38.1	-48.3	3.5	3.05e+01	0	39	104	0	52	15869
2026-01-02 21:55:09.46	11.99	11.34	-39.3	-49.6	3.5	3.05e+01	0	39	104	0	52	18446
2026-01-02 21:55:10.47	11.77	11.34	-39.5	-49.9	3.5	3.05e+01	0	39	104	0	56	15107
2026-01-02 21:55:11.47	11.56	11.34	-41.8	-52.4	3.5	3.05e+01	0	39	104	0	54	22584
2026-01-02 21:55:12.48	11.34	11.35	-49.1	-64.7	3.5	3.05e+01	0	39	104	0	60	66114
2026-01-02 21:55:13.49	11.12	11.35	-38.0	-48.3	3.5	3.05e+01	0	39	104	0	52	15827
2026-01-02 21:55:14.50	10.90	11.35	-48.9	-63.8	3.5	3.05e+01	0	39	104	0	60	59447
2026-01-02 21:55:15.51	10.69	11.35	-40.4	-50.7	3.6	3.05e+01	0	39	104	0	56	16643
2026-01-02 21:55:16.52	10.47	11.35	-38.6	-40.2	23.7	3.05e+01	59	39	104	0	52	6241
2026-01-02 21:55:17.53	10.25	11.36	-37.8	-39.1	27.6	3.05e+01	59	39	0	1572864	50	6168
2026-01-02 21:55:18.54	10.04	11.36	-37.7	-39.0	27.7	3.05e+01	50	39	0	3145728	50	6097
2026-01-02 21:55:19.55	9.82	11.36	-37.7	-39.0	27.6	3.05e+01	59	39	0	5242880	50	6128
2026-01-02 21:55:20.56	9.60	11.36	-37.5	-38.8	27.7	3.05e+01	62	39	0	7340032	50	5956
2026-01-02 21:55:21.57	9.38	11.36	-37.7	-39.0	27.7	3.05e+01	60	39	0	8912896	50	6087
2026-01-02 21:55:22.58	9.17	11.36	-37.6	-38.9	27.7	3.05e+01	59	39	0	11010048	50	6053
2026-01-02 21:55:23.59	8.95	11.35	-37.6	-38.9	27.7	3.05e+01	46	39	0	12582912	50	6063
2026-01-02 21:55:24.60	8.73	11.35	-37.5	-38.8	27.8	3.05e+01	60	39	0	14680064	50	5949
2026-01-02 21:55:25.61	8.51	11.35	-37.5	-38.8	27.8	3.05e+01	60	39	0	16777216	50	5962
2026-01-02 21:55:26.62	8.30	11.35	-37.4	-38.7	27.7	3.05e+01	48	39	0	18350080	50	5906
2026-01-02 21:55:27.63	8.08	11.35	-37.4	-38.7	28.0	3.05e+01	60	39	0	20447232	50	5909
2026-01-02 21:55:28.63	7.86	11.34	-37.4	-38.7	27.9	3.05e+01	60	39	0	22020096	50	5866
2026-01-02 21:55:29.64	7.65	11.34	-37.3	-38.6	28.0	3.05e+01	59	39	0	24117248	50	5806
2026-01-02 21:55:30.65	7.43	11.34	-37.4	-38.6	28.0	3.05e+01	57	39	0	26214400	50	5847
2026-01-02 21:55:31.66	7.21	11.33	-37.4	-38.7	27.9	3.05e+01	58	39	0	27787264	50	5861
2026-01-02 21:55:32.67	7.00	11.33	-37.5	-38.8	27.8	3.05e+01	56	39	0	29884416	50	5971
2026-01-02 21:55:33.68	6.78	11.32	-37.4	-38.7	27.9	3.05e+01	57	39	0	31457280	50	5908
2026-01-02 21:55:34.69	6.56	11.32	-37.4	-38.7	27.9	3.05e+01	52	39	0	33554432	50	5910
2026-01-02 21:55:35.70	6.34	11.31	-37.4	-38.7	28.0	3.05e+01	57	39	0	35651584	50	5859
2026-01-02 21:55:36.71	6.13	11.31	-37.4	-38.7	27.9	3.05e+01	58	39	0	37224448	50	5887
2026-01-02 21:55:37.72	5.91	11.30	-37.4	-38.7	28.0	3.05e+01	60	39	0	39321600	50	5880
2026-01-02 21:55:38.73	5.69	11.29	-37.4	-38.7	28.0	3.05e+01	60	39	0	40894464	50	5865
2026-01-02 21:55:39.74	5.48	11.28	-37.4	-38.7	27.8	3.05e+01	45	39	0	42991616	50	5913
2026-01-02 21:55:40.75	5.26	11.28	-37.7	-39.0	27.7	3.05e+01	61	39	0	45088768	50	6113
2026-01-02 21:55:41.76	5.05	11.27	-37.6	-38.9	27.5	3.05e+01	61	39	0	46661632	50	6060
2026-01-02 21:55:42.77	4.83	11.26	-37.8	-39.1	27.8	3.05e+01	44	39	0	48758784	50	6161
2026-01-02 21:55:43.77	4.62	11.25	-37.6	-38.9	27.6	3.05e+01	59	39	0	50855936	50	6028
2026-01-02 21:55:44.78	4.40	11.24	-37.8	-39.1	27.6	3.05e+01	58	39	0	52428800	50	6151
2026-01-02 21:55:45.79	4.19	11.23	-37.8	-39.1	27.7	3.05e+01	59	39	0	54525952	50	6160
2026-01-02 21:55:46.80	3.97	11.22	-38.0	-39.4	27.4	3.05e+01	61	39	0	56098816	50	6358
2026-01-02 21:55:47.81	3.75	11.21	-38.1	-39.4	27.2	3.05e+01	55	39	0	58195968	50	6419
2026-01-02 21:55:48.82	3.54	11.20	-37.7	-39.0	27.7	3.05e+01	59	39	0	60293120	50	6095
2026-01-02 21:55:49.83	3.32	11.19	-37.8	-39.1	27.5	3.05e+01	61	39	0	61865984	50	6153
2026-01-02 21:55:50.84	3.11	11.18	-37.9	-39.2	27.5	3.05e+01	45	39	0	63963136	50	6268
2026-01-02 21:55:51.85	2.90	11.17	-37.5	-38.8	27.8	3.05e+01	57	39	0	65536000	50	5957
2026-01-02 21:55:52.86	2.68	11.16	-37.5	-38.8	27.8	3.05e+01	43	39	0	67633152	50	5984
2026-01-02 21:55:53.87	2.47	11.15	-37.5	-38.8	27.8	3.05e+01	60	39	0	69730304	50	5992
2026-01-02 21:55:54.88	2.25	11.13	-37.5	-38.8	27.8	3.05e+01	60	39	0	71303168	50	5976
2026-01-02 21:55:55.89	2.04	11.12	-37.4	-38.7	27.9	3.05e+01	46	39	0	73400320	50	5892
2026-01-02 21:55:56.90	1.83	11.11	-37.5	-38.7	27.9	3.05e+01	59	39	0	75497472	50	5924
2026-01-02 21:55:57.91	1.61	11.09	-37.5	-38.8	27.9	3.05e+01	56	39	0	77070336	50	5954
2026-01-02 21:55:58.91	1.40	11.08	-37.5	-38.8	27.8	3.05e+01	57	39	0	79167488	50	5960
2026-01-02 21:55:59.92	1.19	11.07	-37.5	-38.8	27.7	3.05e+01	58	39	0	80740352	50	5990
2026-01-02 21:56:00.93	0.98	11.05	-37.5	-38.8	27.7	3.05e+01	45	39	0	82837504	50	5972
2026-01-02 21:56:01.94	0.76	11.04	-37.6	-38.9	27.8	3.05e+01	57	39	0	84410368	50	6016
2026-01-02 21:56:02.95	0.55	11.02	-37.5	-38.8	27.8	3.05e+01	61	39	0	86507520	50	5944
2026-01-02 21:56:03.96	0.34	11.00	-37.5	-38.8	27.9	3.05e+01	44	39	0	88604672	50	5943
2026-01-02 21:56:04.97	0.13	10.99	-37.5	-38.8	27.9	3.05e+01	59	39	0	90177536	50	5958
2026-01-02 21:56:05.98	359.92	10.97	-37.5	-38.8	27.8	3.05e+01	56	39	0	92274688	50	5982
2026-01-02 21:56:06.99	359.71	10.95	-37.5	-38.8	27.9	3.05e+01	57	39	0	93847552	50	5943
2026-01-02 21:56:07.99	359.50	10.94	-37.4	-38.7	27.9	3.05e+01	59	39	0	95944704	50	5903
2026-01-02 21:56:09.00	359.29	10.92	-37.5	-38.8	27.8	3.05e+01	60	39	0	98041856	50	5961
2026-01-02 21:56:10.01	359.08	10.90	-37.6	-38.9	27.7	3.05e+01	57	39	0	99614720	50	6039
2026-01-02 21:56:11.02	358.87	10.88	-37.6	-39.0	27.6	3.05e+01	59	39	0	101711872	50	6066
2026-01-02 21:56:12.03	358.66	10.87	-37.7	-39.0	27.7	3.05e+01	52	39	0	103809024	50	6085
2026-01-02 21:56:13.04	358.45	10.85	-37.7	-39.0	27.7	3.05e+01	61	39	0	105381888	50	6076
2026-01-02 21:56:14.05	358.24	10.83	-37.7	-39.0	27.6	3.05e+01	60	39	0	107479040	50	6076
2026-01-02 21:56:15.06	358.03	10.81	-37.5	-38.8	27.9	3.05e+01	61	39	0	109051904	50	5945
2026-01-02 21:56:16.07	357.82	10.79	-37.6	-38.9	27.6	3.05e+01	60	39	0	111149056	50	6026
2026-01-02 21:56:17.08	357.61	10.77	-37.7	-39.0	27.6	3.05e+01	45	39	0	113246208	50	6112
2026-01-02 21:56:18.09	357.40	10.75	-37.6	-38.9	27.7	3.05e+01	59	39	0	114819072	50	6055
2026-01-02 21:56:19.10	357.20	10.73	-37.6	-39.0	27.7	3.05e+01	59	39	0	116916224	50	6069
2026-01-02 21:56:20.11	356.99	10.71	-37.7	-39.0	27.7	3.05e+01	44	39	0	119013376	50	6069
2026-01-02 21:56:21.12	356.78	10.68	-37.7	-39.0	27.6	3.05e+01	58	39	0	120586240	50	6077
2026-01-02 21:56:22.13	356.58	10.66	-37.5	-38.7	27.9	3.05e+01	61	39	0	122683392	50	5912
2026-01-02 21:56:23.14	356.37	10.64	-37.4	-38.7	27.9	3.05e+01	59	39	0	124256256	50	5906
2026-01-02 21:56:24.15	356.16	10.62	-37.6	-38.9	27.8	3.05e+01	57	39	0	126353408	50	6007
2026-01-02 21:56:25.16	355.96	10.60	-37.6	-38.8	27.8	3.05e+01	57	39	0	128450560	50	5994
2026-01-02 21:56:26.17	355.75	10.57	-37.8	-39.1	27.6	3.05e+01	59	39	0	130023424	50	6162
2026-01-02 21:56:27.18	355.55	10.55	-37.6	-38.9	27.7	3.05e+01	60	39	0	132120576	50	6041
2026-01-02 21:56:28.19	355.34	10.53	-37.8	-39.1	27.5	3.05e+01	45	39	0	133693440	50	6141
2026-01-02 21:56:29.20	355.14	10.50	-37.7	-39.0	27.6	3.05e+01	60	39	0	135790592	50	6068
2026-01-02 21:56:30.20	354.94	10.48	-37.8	-39.2	27.5	3.05e+01	46	39	0	137887744	50	6210
2026-01-02 21:56:31.21	354.73	10.45	-37.6	-39.0	27.7	3.05e+01	56	39	0	139460608	50	6066
2026-01-02 21:56:32.22	354.53	10.43	-37.7	-39.0	27.6	3.05e+01	59	39	0	141557760	50	6094
2026-01-02 21:56:33.23	354.33	10.40	-37.5	-38.8	27.7	3.05e+01	47	39	0	143130624	50	5945
2026-01-02 21:56:34.24	354.13	10.38	-37.7	-39.0	27.6	3.05e+01	58	39	0	145227776	50	6091
2026-01-02 21:56:35.25	353.92	10.35	-37.7	-39.0	27.6	3.05e+01	58	39	0	147324928	50	6128
2026-01-02 21:56:36.26	353.72	10.33	-37.8	-39.1	27.5	3.05e+01	59	39	0	148897792	50	6186
2026-01-02 21:56:37.27	353.52	10.30	-37.9	-39.2	27.3	3.05e+01	57	39	0	150994944	50	6275
2026-01-02 21:56:38.28	353.32	10.27	-38.1	-39.5	27.3	3.05e+01	50	39	0	152567808	50	6461
2026-01-02 21:56:39.29	353.12	10.25	-37.8	-39.2	27.4	3.05e+01	60	39	0	154664960	50	6223
2026-01-02 21:56:40.30	352.92	10.22	-37.8	-39.1	27.5	3.05e+01	58	39	0	156762112	50	6189
2026-01-02 21:56:41.31	352.72	10.19	-37.9	-39.2	27.5	3.05e+01	50	39	0	158334976	50	6266
2026-01-02 21:56:42.32	352.52	10.16	-37.6	-38.9	27.8	3.05e+01	58	39	0	160432128	50	6029
2026-01-02 21:56:43.33	352.32	10.14	-38.1	-39.4	27.3	3.05e+01	54	39	0	162004992	50	6419
2026-01-02 21:56:44.34	352.13	10.11	-37.8	-39.1	27.5	3.05e+01	61	39	0	164102144	50	6163
2026-01-02 21:56:45.35	351.93	10.08	-38.2	-39.5	27.1	3.05e+01	61	39	0	166199296	50	6471
2026-01-02 21:56:46.36	351.73	10.05	-38.1	-39.4	27.2	3.05e+01	56	39	0	167772160	50	6389
2026-01-02 21:56:47.37	351.53	10.02	-38.3	-39.7	27.1	3.05e+01	60	39	0	169869312	50	6588
2026-01-02 21:56:48.38	351.34	9.99	-38.2	-39.5	27.1	3.05e+01	59	39	0	171966464	50	6462
2026-01-02 21:56:49.39	351.14	9.96	-38.0	-39.3	27.2	3.05e+01	48	39	0	173539328	50	6329
2026-01-02 21:56:50.40	350.94	9.93	-38.0	-39.3	27.4	3.05e+01	58	39	0	175636480	50	6313
2026-01-02 21:56:51.41	350.75	9.90	-37.8	-39.1	27.5	3.05e+01	60	39	0	177209344	50	6147
2026-01-02 21:56:52.42	350.55	9.87	-38.4	-39.8	27.0	3.05e+01	58	39	0	179306496	50	6670
2026-01-02 21:56:53.43	350.36	9.84	-38.3	-39.6	27.0	3.05e+01	61	39	0	181403648	50	6566
2026-01-02 21:56:54.44	350.17	9.81	-38.8	-40.2	26.4	3.05e+01	50	39	0	182976512	50	6984
2026-01-02 21:56:55.45	349.97	9.78	-37.8	-39.1	27.4	3.05e+01	57	39	0	185073664	50	6196
2026-01-02 21:56:56.46	349.78	9.75	-38.1	-39.5	27.1	3.05e+01	56	39	0	187170816	50	6449
2026-01-02 21:56:57.47	349.59	9.71	-37.8	-39.1	27.5	3.05e+01	46	39	0	188743680	50	6154
2026-01-02 21:56:58.48	349.40	9.68	-38.3	-39.6	27.0	3.05e+01	60	39	0	190840832	50	6571
2026-01-02 21:56:59.49	349.20	9.65	-37.9	-39.2	27.4	3.05e+01	57	39	0	192413696	50	6246
2026-01-02 21:57:00.50	349.01	9.62	-38.4	-39.7	26.9	3.05e+01	61	39	0	194510848	50	6647
2026-01-02 21:57:01.51	348.82	9.59	-38.1	-39.4	27.2	3.05e+01	59	39	0	196608000	50	6415
2026-01-02 21:57:02.52	348.63	9.55	-38.8	-40.3	26.4	3.05e+01	54	39	0	198180864	50	7060
2026-01-02 21:57:03.52	348.44	9.52	-37.9	-39.2	27.4	3.05e+01	62	39	0	200278016	50	6232
2026-01-02 21:57:04.53	348.26	9.49	-38.9	-40.3	26.3	3.05e+01	59	39	0	201850880	52	6327
2026-01-02 21:57:05.54	348.07	9.45	-38.2	-39.5	27.1	3.05e+01	57	39	0	203948032	52	5764
2026-01-02 21:57:06.55	347.88	9.42	-39.0	-40.4	26.4	3.05e+01	60	39	0	206045184	52	6382
2026-01-02 21:57:07.56	347.69	9.38	-38.0	-39.3	27.2	3.05e+01	44	39	0	207618048	52	5636
2026-01-02 21:57:08.57	347.50	9.35	-38.6	-40.0	26.7	3.05e+01	58	39	0	209715200	52	6094
2026-01-02 21:57:09.58	347.32	9.32	-38.2	-39.5	27.0	3.05e+01	63	39	0	211288064	52	5758
2026-01-02 21:57:10.59	347.13	9.28	-39.5	-41.1	25.7	3.05e+01	51	39	0	213385216	52	6895
2026-01-02 21:57:11.60	346.94	9.25	-39.2	-40.6	26.0	3.05e+01	63	39	0	215482368	52	6518
2026-01-02 21:57:12.61	346.76	9.21	-40.6	-42.3	24.5	3.05e+01	61	39	0	217055232	54	7054
2026-01-02 21:57:13.62	346.57	9.18	-38.2	-39.5	27.0	3.05e+01	60	39	0	219152384	52	5774
2026-01-02 21:57:14.63	346.39	9.14	-39.6	-41.2	25.5	3.05e+01	60	39	0	220725248	52	6993
2026-01-02 21:57:15.64	346.21	9.10	-38.0	-39.3	27.2	3.05e+01	55	39	0	222822400	52	5630
2026-01-02 21:57:16.65	346.02	9.07	-38.7	-40.1	26.6	3.05e+01	58	39	0	224919552	52	6159
2026-01-02 21:57:17.66	345.84	9.03	-38.5	-39.9	26.7	3.05e+01	58	39	0	226492416	52	6021
2026-01-02 21:57:18.67	345.66	9.00	-38.2	-39.6	26.8	3.05e+01	51	39	0	228589568	52	5800
2026-01-02 21:57:19.67	345.48	8.96	-38.6	-39.9	26.4	3.05e+01	60	39	0	230162432	52	6051
2026-01-02 21:57:20.68	345.30	8.92	-38.2	-39.5	26.8	3.05e+01	57	39	0	232259584	50	6470
2026-01-02 21:57:21.69	345.11	8.89	-38.4	-39.8	26.6	3.05e+01	56	39	0	234356736	52	5941
2026-01-02 21:57:22.70	344.93	8.85	-38.8	-40.2	26.2	3.05e+01	57	39	0	235929600	52	6274
2026-01-02 21:57:23.71	344.75	8.81	-39.1	-40.5	26.2	3.05e+01	61	39	0	238026752	52	6429
2026-01-02 21:57:24.72	344.57	8.77	-39.3	-40.7	26.1	3.05e+01	58	39	0	240123904	52	6601
2026-01-02 21:57:25.73	344.40	8.74	-38.9	-40.4	26.3	3.05e+01	57	39	0	241696768	52	6351
2026-01-02 21:57:26.74	344.22	8.70	-38.6	-40.0	26.7	3.05e+01	52	39	0	243793920	52	6091
2026-01-02 21:57:27.75	344.04	8.66	-39.6	-41.1	25.5	3.05e+01	60	39	0	245366784	52	6947
2026-01-02 21:57:28.76	343.86	8.62	-38.8	-40.2	26.3	3.05e+01	59	39	0	247463936	52	6234
2026-01-02 21:57:29.77	343.69	8.58	-39.7	-41.2	25.4	3.05e+01	54	39	0	249561088	52	7002
2026-01-02 21:57:30.78	343.51	8.54	-38.3	-39.6	27.1	3.05e+01	58	39	0	251133952	52	5809
2026-01-02 21:57:31.78	343.34	8.51	-39.2	-40.6	26.1	3.05e+01	52	39	0	253231104	52	6571
2026-01-02 21:57:32.80	343.16	8.47	-38.6	-40.0	26.5	3.05e+01	53	39	0	254803968	52	6072
2026-01-02 21:57:33.80	342.99	8.43	-38.7	-40.0	26.5	3.05e+01	60	39	0	256901120	52	6130
2026-01-02 21:57:34.81	342.81	8.39	-38.7	-40.1	26.5	3.05e+01	48	39	0	258998272	52	6193
2026-01-02 21:57:35.82	342.64	8.35	-38.4	-39.7	26.8	3.05e+01	59	39	0	260571136	52	5896
2026-01-02 21:57:36.83	342.46	8.31	-38.8	-40.2	26.4	3.05e+01	59	39	0	262668288	52	6259
2026-01-02 21:57:37.84	342.29	8.27	-38.2	-39.6	26.9	3.05e+01	60	39	0	264241152	52	5831
2026-01-02 21:57:38.85	342.12	8.23	-38.6	-40.1	26.4	3.05e+01	64	39	0	266338304	52	6144
2026-01-02 21:57:39.86	341.95	8.19	-38.6	-40.0	26.5	3.05e+01	49	39	0	268435456	52	6112
2026-01-02 21:57:40.87	341.78	8.15	-38.5	-39.9	26.7	3.05e+01	59	39	0	270008320	52	6052
2026-01-02 21:57:41.88	341.61	8.11	-39.1	-40.5	26.1	3.05e+01	60	39	0	272105472	52	6498
2026-01-02 21:57:42.89	341.44	8.07	-38.9	-40.3	26.3	3.05e+01	52	39	0	273678336	52	6291
2026-01-02 21:57:43.90	341.27	8.03	-39.4	-40.9	25.7	3.05e+01	59	39	0	275775488	52	6774
2026-01-02 21:57:44.91	341.10	7.99	-39.1	-40.5	26.2	3.05e+01	47	39	0	277872640	52	6459
2026-01-02 21:57:45.92	340.93	7.94	-39.5	-41.0	25.8	3.05e+01	59	39	0	279445504	52	6861
2026-01-02 21:57:46.93	340.76	7.90	-39.4	-40.9	25.5	3.05e+01	57	39	0	281542656	52	6740
2026-01-02 21:57:47.94	340.59	7.86	-39.0	-40.4	25.8	3.05e+01	45	39	0	283639808	52	6400
2026-01-02 21:57:48.95	340.43	7.82	-39.6	-41.1	25.7	3.05e+01	57	39	0	285212672	52	6931
2026-01-02 21:57:49.96	340.26	7.78	-39.2	-40.7	25.9	3.05e+01	59	39	0	287309824	52	6576
2026-01-02 21:57:50.97	340.09	7.74	-39.3	-40.8	25.9	3.05e+01	59	39	0	288882688	52	6686
2026-01-02 21:57:51.98	339.93	7.70	-39.5	-41.0	25.5	3.05e+01	60	39	0	290979840	52	6856
2026-01-02 21:57:52.99	339.76	7.65	-39.4	-40.8	25.8	3.05e+01	47	39	0	293076992	52	6707
2026-01-02 21:57:54.00	339.60	7.61	-39.7	-41.2	25.4	3.05e+01	57	39	0	294649856	52	7034
2026-01-02 21:57:55.01	339.44	7.57	-38.6	-39.9	26.6	3.05e+01	58	39	0	296747008	52	6058
2026-01-02 21:57:56.02	339.27	7.53	-39.2	-40.7	25.9	3.05e+01	51	39	0	298319872	52	6596
2026-01-02 21:57:57.02	339.11	7.48	-38.9	-40.3	26.2	3.05e+01	57	39	0	300417024	52	6289
2026-01-02 21:57:58.03	338.95	7.44	-39.4	-40.8	25.8	3.05e+01	56	39	0	302514176	52	6694
2026-01-02 21:57:59.04	338.79	7.40	-39.4	-40.8	25.8	3.05e+01	62	39	0	304087040	52	6719
2026-01-02 21:58:00.06	338.63	7.36	-39.4	-40.8	25.7	3.05e+01	56	39	0	306184192	52	6708
2026-01-02 21:58:01.07	338.46	7.31	-39.4	-40.9	25.5	3.05e+01	47	39	0	308281344	52	6767
2026-01-02 21:58:02.08	338.30	7.27	-39.6	-41.1	25.6	3.05e+01	61	39	0	309854208	52	6936
2026-01-02 21:58:03.08	338.15	7.23	-39.5	-41.0	25.6	3.05e+01	59	39	0	311951360	52	6819
2026-01-02 21:58:04.09	337.99	7.18	-38.6	-40.0	26.5	3.05e+01	53	39	0	313524224	52	6099
2026-01-02 21:58:05.10	337.83	7.14	-39.2	-40.7	25.7	3.05e+01	60	39	0	315621376	52	6635
2026-01-02 21:58:06.11	337.67	7.10	-38.5	-39.9	26.7	3.05e+01	61	39	0	317718528	52	6013
2026-01-02 21:58:07.12	337.51	7.05	-39.5	-41.1	25.4	3.05e+01	59	39	0	319291392	52	6907
2026-01-02 21:58:08.13	337.36	7.01	-39.4	-40.9	25.3	3.05e+01	59	39	0	321388544	52	6761
2026-01-02 21:58:09.14	337.20	6.96	-39.5	-40.9	25.4	3.05e+01	47	39	0	322961408	52	6780
2026-01-02 21:58:10.15	337.04	6.92	-40.6	-42.3	24.0	3.05e+01	60	39	0	325058560	54	7094
2026-01-02 21:58:11.16	336.89	6.88	-39.7	-41.1	25.3	3.05e+01	58	39	0	327155712	54	6203
2026-01-02 21:58:12.17	336.73	6.83	-40.2	-41.8	24.7	3.05e+01	56	39	0	328728576	54	6716
2026-01-02 21:58:13.18	336.58	6.79	-39.3	-40.8	25.3	3.05e+01	58	39	0	330825728	54	5967
2026-01-02 21:58:14.19	336.43	6.74	-39.5	-41.0	25.5	3.05e+01	52	39	0	332398592	54	6107
2026-01-02 21:58:15.20	336.27	6.70	-40.0	-41.6	24.7	3.05e+01	58	39	0	334495744	54	6501
2026-01-02 21:58:16.21	336.12	6.65	-39.0	-40.3	25.8	3.05e+01	61	39	0	336592896	54	5659
2026-01-02 21:58:17.22	335.97	6.61	-39.9	-41.5	24.9	3.05e+01	48	39	0	338165760	54	6426
2026-01-02 21:58:18.23	335.82	6.56	-39.5	-40.9	25.4	3.05e+01	59	39	0	340262912	54	6055
2026-01-02 21:58:19.24	335.67	6.52	-39.3	-40.7	25.5	3.05e+01	63	39	0	341835776	54	5919
2026-01-02 21:58:20.25	335.52	6.47	-39.3	-40.8	25.4	3.05e+01	58	39	0	343932928	54	5937
2026-01-02 21:58:21.26	335.36	6.43	-39.1	-40.5	25.7	3.05e+01	55	39	0	346030080	52	6467
2026-01-02 21:58:22.27	335.22	6.38	-39.8	-41.4	24.9	3.05e+01	45	39	0	347602944	52	7181
2026-01-02 21:58:23.28	335.07	6.34	-39.2	-40.6	25.4	3.05e+01	58	39	0	349700096	52	6547
2026-01-02 21:58:24.28	334.92	6.29	-39.4	-40.9	25.1	3.05e+01	57	39	0	351797248	52	6787
2026-01-02 21:58:25.29	334.77	6.25	-39.8	-41.4	24.5	3.05e+01	49	39	0	353370112	54	6399
2026-01-02 21:58:26.30	334.62	6.20	-39.2	-40.6	25.4	3.05e+01	58	39	0	355467264	54	5852
2026-01-02 21:58:27.31	334.48	6.16	-40.3	-41.9	24.0	3.05e+01	59	39	0	357040128	54	6802
2026-01-02 21:58:28.32	334.33	6.11	-39.9	-41.5	24.3	3.05e+01	60	39	0	359137280	54	6470
2026-01-02 21:58:29.33	334.18	6.07	-40.1	-41.8	24.0	3.05e+01	59	39	0	361234432	54	6686
2026-01-02 21:58:30.34	334.04	6.02	-41.1	-43.0	22.9	3.05e+01	50	39	0	362807296	56	6865
2026-01-02 21:58:31.35	333.89	5.97	-40.4	-42.1	23.8	3.05e+01	57	39	0	364904448	56	6201
2026-01-02 21:58:32.36	333.75	5.93	-40.1	-41.8	24.1	3.05e+01	59	39	0	366477312	56	5937
2026-01-02 21:58:33.37	333.60	5.88	-40.4	-42.1	23.9	3.05e+01	44	39	0	368574464	56	6175
2026-01-02 21:58:34.38	333.46	5.84	-39.7	-41.2	24.7	3.05e+01	60	39	0	370671616	54	6275
2026-01-02 21:58:35.39	333.32	5.79	-39.8	-41.4	24.6	3.05e+01	54	39	0	372244480	54	6365
2026-01-02 21:58:36.40	333.18	5.74	-39.9	-41.6	24.5	3.05e+01	62	39	0	374341632	54	6518
2026-01-02 21:58:37.41	333.03	5.70	-39.9	-41.5	24.5	3.05e+01	59	39	0	376438784	54	6487
2026-01-02 21:58:38.42	332.89	5.65	-40.2	-41.8	24.3	3.05e+01	48	39	0	378011648	54	6722
2026-01-02 21:58:39.43	332.75	5.60	-39.7	-41.2	24.8	3.05e+01	56	39	0	380108800	54	6247
2026-01-02 21:58:40.44	332.61	5.56	-39.8	-41.3	24.7	3.05e+01	62	39	0	381681664	54	6340
2026-01-02 21:58:41.45	332.47	5.51	-39.9	-41.5	24.7	3.05e+01	44	39	0	383778816	54	6467
2026-01-02 21:58:42.45	332.33	5.47	-39.6	-41.1	25.0	3.05e+01	61	39	0	385875968	54	6189
2026-01-02 21:58:43.46	332.19	5.42	-39.7	-41.2	24.9	3.05e+01	61	39	0	387448832	54	6266
2026-01-02 21:58:44.47	332.06	5.37	-39.8	-41.4	24.8	3.05e+01	59	39	0	389545984	54	6385
2026-01-02 21:58:45.48	331.92	5.33	-39.7	-41.3	24.9	3.05e+01	59	39	0	391118848	54	6298
2026-01-02 21:58:46.48	331.78	5.28	-39.6	-41.1	25.2	3.05e+01	57	39	0	393216000	54	6205
2026-01-02 21:58:47.49	331.64	5.23	-39.7	-41.3	25.0	3.05e+01	57	39	0	394788864	54	6279
2026-01-02 21:58:48.50	331.51	5.19	-39.7	-41.2	25.1	3.05e+01	58	39	0	396886016	54	6227
2026-01-02 21:58:49.51	331.37	5.14	-39.1	-40.6	25.7	3.05e+01	47	39	0	398983168	54	5814
2026-01-02 21:58:50.52	331.24	5.09	-39.5	-41.0	25.2	3.05e+01	60	39	0	400556032	54	6132
2026-01-02 21:58:51.53	331.10	5.04	-39.6	-41.1	25.2	3.05e+01	46	39	0	402653184	54	6197
2026-01-02 21:58:52.54	330.97	5.00	-39.5	-41.0	25.2	3.05e+01	58	39	0	404750336	54	6076
2026-01-02 21:58:53.55	330.83	4.95	-40.2	-41.8	24.5	3.05e+01	58	39	0	406323200	54	6719
2026-01-02 21:58:54.55	330.70	4.90	-40.1	-41.8	24.6	3.05e+01	47	39	0	408420352	54	6650
2026-01-02 21:58:55.56	330.57	4.86	-39.9	-41.4	24.8	3.05e+01	58	39	0	409993216	54	6393
2026-01-02 21:58:56.57	330.43	4.81	-40.4	-42.0	24.4	3.05e+01	57	39	0	412090368	54	6859
2026-01-02 21:58:57.58	330.30	4.76	-40.0	-41.6	24.6	3.05e+01	58	39	0	414187520	54	6505
2026-01-02 21:58:58.59	330.17	4.71	-40.1	-41.7	24.4	3.05e+01	60	39	0	415760384	54	6645
2026-01-02 21:58:59.59	330.04	4.67	-40.0	-41.5	24.8	3.05e+01	47	39	0	417857536	54	6487
2026-01-02 21:59:00.61	329.91	4.62	-39.6	-41.2	24.9	3.05e+01	60	39	0	419954688	54	6206
2026-01-02 21:59:01.61	329.78	4.57	-40.3	-41.9	24.3	3.05e+01	59	39	0	421527552	54	6759
2026-01-02 21:59:02.63	329.65	4.52	-40.0	-41.6	24.6	3.05e+01	47	39	0	423624704	54	6550
2026-01-02 21:59:03.64	329.52	4.48	-40.1	-41.7	24.7	3.05e+01	63	39	0	425197568	54	6583
2026-01-02 21:59:04.65	329.39	4.43	-39.9	-41.5	24.7	3.05e+01	61	39	0	427294720	54	6456
2026-01-02 21:59:05.65	329.26	4.38	-40.2	-41.8	24.4	3.05e+01	57	39	0	429391872	54	6672
2026-01-02 21:59:06.66	329.14	4.33	-39.8	-41.4	24.7	3.05e+01	57	39	0	430964736	54	6360
2026-01-02 21:59:07.67	329.01	4.29	-40.0	-41.6	24.5	3.05e+01	55	39	0	433061888	54	6535
2026-01-02 21:59:08.68	328.88	4.24	-40.4	-42.0	24.1	3.05e+01	53	39	0	434634752	54	6874
2026-01-02 21:59:09.69	328.75	4.19	-40.2	-41.9	24.4	3.05e+01	58	39	0	436731904	54	6765
2026-01-02 21:59:10.70	328.63	4.14	-40.2	-41.9	24.3	3.05e+01	44	39	0	438829056	54	6738
2026-01-02 21:59:11.71	328.50	4.10	-40.3	-41.9	24.1	3.05e+01	57	39	0	440401920	54	6779
2026-01-02 21:59:12.72	328.38	4.05	-40.3	-41.9	24.2	3.05e+01	59	39	0	442499072	54	6780
2026-01-02 21:59:13.73	328.25	4.00	-40.7	-42.4	23.7	3.05e+01	59	39	0	444071936	54	7193
2026-01-02 21:59:14.74	328.13	3.95	-39.9	-41.5	24.6	3.05e+01	53	39	0	446169088	54	6434
2026-01-02 21:59:15.75	328.00	3.90	-39.7	-41.2	24.9	3.05e+01	53	39	0	448266240	54	6268
2026-01-02 21:59:16.76	327.88	3.86	-40.0	-41.6	24.5	3.05e+01	58	39	0	449839104	54	6513
2026-01-02 21:59:17.77	327.76	3.81	-40.9	-42.7	23.5	3.05e+01	61	39	0	451936256	54	7394
2026-01-02 21:59:18.78	327.64	3.76	-40.4	-42.1	23.9	3.05e+01	45	39	0	453509120	56	6163
2026-01-02 21:59:19.79	327.51	3.71	-40.2	-41.8	24.4	3.05e+01	58	39	0	455606272	56	5942
2026-01-02 21:59:20.80	327.39	3.66	-40.5	-42.1	24.1	3.05e+01	62	39	0	457703424	56	6173
2026-01-02 21:59:21.81	327.27	3.62	-41.2	-43.1	22.9	3.05e+01	59	39	0	459276288	56	6916
2026-01-02 21:59:22.82	327.15	3.57	-40.9	-42.7	23.2	3.05e+01	61	39	0	461373440	56	6619
2026-01-02 21:59:23.83	327.03	3.52	-40.6	-42.3	23.8	3.05e+01	55	39	0	462946304	56	6309
2026-01-02 21:59:24.84	326.91	3.47	-40.5	-42.1	24.0	3.05e+01	61	39	0	465043456	56	6195
2026-01-02 21:59:25.85	326.79	3.42	-40.8	-42.5	23.7	3.05e+01	63	39	0	467140608	56	6442
2026-01-02 21:59:26.86	326.67	3.38	-41.0	-42.8	23.4	3.05e+01	54	39	0	468713472	56	6667
2026-01-02 21:59:27.86	326.56	3.33	-41.0	-42.8	23.3	3.05e+01	56	39	0	470810624	56	6652
2026-01-02 21:59:28.87	326.44	3.28	-40.8	-42.6	23.4	3.05e+01	45	39	0	472907776	56	6510
2026-01-02 21:59:29.88	326.32	3.23	-40.7	-42.4	23.7	3.05e+01	62	39	0	474480640	56	6378
2026-01-02 21:59:30.89	326.20	3.18	-41.4	-43.2	22.8	3.05e+01	60	39	0	476577792	56	7024
2026-01-02 21:59:31.90	326.09	3.14	-41.3	-43.2	22.8	3.05e+01	45	39	0	478150656	56	7005
2026-01-02 21:59:32.91	325.97	3.09	-41.7	-43.7	22.3	3.05e+01	60	39	0	480247808	56	7412
2026-01-02 21:59:33.92	325.85	3.04	-41.7	-43.6	22.4	3.05e+01	57	39	0	482344960	56	7371
2026-01-02 21:59:34.93	325.74	2.99	-49.1	-66.9	3.5	3.05e+01	0	39	104	483393536	60	85321
2026-01-02 21:59:35.94	325.62	2.94	-49.3	-67.5	3.5	3.05e+01	0	39	104	483393536	60	90908
2026-01-02 21:59:36.96	325.51	2.90	-49.9	-67.8	3.5	3.05e+01	0	39	104	483393536	60	94227
2026-01-02 21:59:37.96	325.40	2.85	-50.1	-68.0	3.6	3.05e+01	0	39	104	483393536	60	96507
2026-01-02 21:59:38.97	325.28	2.80	-50.2	-68.1	3.5	3.05e+01	0	39	104	483393536	60	97469
2026-01-02 21:59:39.99	325.17	2.75	-49.9	-68.1	3.5	3.05e+01	0	39	104	483393536	60	98147
2026-01-02 21:59:41.00	325.05	2.70	-50.1	-68.2	3.5	3.05e+01	0	39	104	483393536	60	99287
2026-01-02 21:59:42.00	324.94	2.65	-50.1	-68.2	3.5	3.05e+01	0	39	104	483393536	60	99103
2026-01-02 21:59:43.01	324.83	2.61	-50.2	-68.2	3.5	3.05e+01	0	39	104	483393536	60	99180
2026-01-02 21:59:44.02	324.72	2.56	-50.2	-68.2	3.5	3.05e+01	0	39	104	483393536	60	99219
2026-01-02 21:59:45.03	324.61	2.51	-50.3	-68.2	3.5	3.05e+01	0	39	104	483393536	60	98954
2026-01-02 21:59:46.04	324.50	2.46	-50.3	-68.2	3.5	3.05e+01	0	39	104	483393536	60	98586
2026-01-02 21:59:47.05	324.39	2.41	-50.2	-68.1	3.5	3.05e+01	0	39	104	483393536	60	98197
2026-01-02 21:59:48.06	324.28	2.37	-50.2	-68.1	3.5	3.05e+01	0	39	104	483393536	60	98115
2026-01-02 21:59:49.07	324.17	2.32	-50.3	-68.1	3.5	3.05e+01	0	39	104	483393536	60	97738
2026-01-02 21:59:50.08	324.06	2.27	-49.9	-68.1	3.5	3.05e+01	0	39	104	483393536	60	97862
2026-01-02 21:59:51.09	323.95	2.22	-50.3	-68.1	3.5	3.05e+01	0	39	104	483393536	60	98147
2026-01-02 21:59:52.10	323.84	2.17	-50.3	-68.1	3.5	3.05e+01	0	39	104	483393536	60	98119
2026-01-02 21:59:53.11	323.73	2.12	-50.3	-68.2	3.5	3.05e+01	0	39	104	483393536	60	98810
2026-01-02 21:59:54.12	323.63	2.08	-50.3	-68.2	3.5	3.05e+01	0	39	104	483393536	60	98540
2026-01-02 21:59:55.13	323.52	2.03	-50.3	-68.2	3.5	3.05e+01	0	39	104	483393536	60	98612
2026-01-02 21:59:56.14	323.41	1.98	-50.3	-68.1	3.5	3.05e+01	0	39	104	483393536	60	98145
2026-01-02 21:59:57.15	323.31	1.93	-50.3	-68.1	3.5	3.05e+01	0	39	104	483393536	60	98151
2026-01-02 21:59:58.16	323.20	1.88	-50.3	-68.2	3.5	3.05e+01	0	39	104	483393536	60	98445
2026-01-02 21:59:59.17	323.09	1.84	-50.3	-68.1	3.5	3.05e+01	0	39	104	483393536	60	97867
2026-01-02 22:00:00.18	322.99	1.79	-50.3	-68.1	3.5	3.05e+01	0	39	104	483393536	60	97927
2026-01-02 22:00:01.19	322.88	1.74	-50.3	-68.1	3.5	3.05e+01	0	39	104	483393536	60	97525
2026-01-02 22:00:02.20	322.78	1.69	-50.3	-68.1	3.5	3.05e+01	0	39	104	483393536	60	97677
2026-01-02 22:00:03.21	322.67	1.64	-50.3	-68.1	3.5	3.05e+01	0	39	104	483393536	60	98130
2026-01-02 22:00:04.22	322.57	1.59	-50.3	-68.1	3.5	3.05e+01	0	39	104	483393536	60	98197
2026-01-02 22:00:05.23	322.47	1.55	-50.3	-68.2	3.5	3.05e+01	0	39	104	483393536	60	98501
2026-01-02 22:00:06.24	322.37	1.50	-50.3	-68.1	3.5	3.05e+01	0	39	104	483393536	60	97541
2026-01-02 22:00:07.25	322.26	1.45	-50.3	-68.1	3.5	3.05e+01	0	39	104	483393536	60	98209
2026-01-02 22:00:08.26	322.16	1.40	-50.3	-68.1	3.5	3.05e+01	0	39	104	483393536	60	97327
2026-01-02 22:00:09.27	322.06	1.35	-50.3	-68.1	3.6	3.05e+01	0	39	104	483393536	60	97783
2026-01-02 22:00:10.28	321.96	1.31	-50.3	-68.1	3.5	3.05e+01	0	39	104	483393536	60	97882
2026-01-02 22:00:11.29	321.86	1.26	-50.3	-68.1	3.5	3.05e+01	0	39	104	483393536	60	98054
2026-01-02 22:00:12.30	321.76	1.21	-50.3	-68.1	3.5	3.05e+01	0	39	104	483393536	60	97355
2026-01-02 22:00:13.30	321.66	1.16	-50.3	-68.1	3.5	3.05e+01	0	39	104	483393536	60	97780
2026-01-02 22:00:14.31	321.56	1.11	-50.3	-68.1	3.5	3.05e+01	0	39	104	483393536	60	97679
2026-01-02 22:00:15.32	321.46	1.07	-50.3	-68.1	3.5	3.05e+01	0	39	104	483393536	60	97455
2026-01-02 22:00:16.33	321.36	1.02	-50.3	-68.1	3.5	3.05e+01	0	39	104	483393536	60	98035
2026-01-02 22:00:17.34	321.26	0.97	-50.3	-68.1	3.5	3.05e+01	0	39	104	483393536	60	97287
2026-01-02 22:00:18.35	321.16	0.92	-50.3	-68.1	3.5	3.05e+01	0	39	104	483393536	60	97773
2026-01-02 22:00:19.36	321.06	0.87	-50.3	-68.1	3.5	3.05e+01	0	39	104	483393536	60	97373
2026-01-02 22:00:20.37	320.96	0.83	-50.3	-68.0	3.5	3.05e+01	0	39	104	483393536	60	97050
2026-01-02 22:00:21.38	320.87	0.78	-50.3	-68.1	3.5	3.05e+01	0	39	104	483393536	60	97987
2026-01-02 22:00:22.39	320.77	0.73	-50.3	-68.1	3.5	3.05e+01	0	39	104	483393536	60	97579
2026-01-02 22:00:23.40	320.67	0.68	-50.3	-68.1	3.5	3.05e+01	0	39	104	483393536	60	97956
2026-01-02 22:00:24.41	320.58	0.63	-50.3	-68.1	3.5	3.05e+01	0	39	104	483393536	60	97779
2026-01-02 22:00:25.42	320.48	0.59	-50.3	-68.1	3.5	3.05e+01	0	39	104	483393536	60	97686
2026-01-02 22:00:26.43	320.38	0.54	-50.3	-68.0	3.5	3.05e+01	0	39	104	483393536	60	97128
2026-01-02 22:00:27.44	320.29	0.49	-50.3	-68.1	3.5	3.05e+01	0	39	104	483393536	60	97963
2026-01-02 22:00:28.45	320.19	0.44	-50.3	-68.0	3.5	3.05e+01	0	39	104	483393536	60	97135
2026-01-02 22:00:29.46	320.10	0.40	-50.3	-68.1	3.5	3.05e+01	0	39	104	483393536	60	98057
2026-01-02 22:00:30.48	320.00	0.35	-50.3	-68.1	3.5	3.05e+01	0	39	104	483393536	60	97580
2026-01-02 22:00:31.49	319.91	0.30	-50.3	-68.1	3.5	3.05e+01	0	39	104	483393536	60	97734
2026-01-02 22:00:32.50	319.82	0.25	-50.3	-68.1	3.5	3.05e+01	0	39	104	483393536	60	97450
2026-01-02 22:00:33.51	319.72	0.20	-50.3	-68.1	3.5	3.05e+01	0	39	104	483393536	60	97659
2026-01-02 22:00:34.52	319.63	0.16	-50.3	-68.1	3.5	3.05e+01	0	39	104	483393536	60	97673
2026-01-02 22:00:35.53	319.54	0.11	-50.3	-68.1	3.5	3.05e+01	0	39	104	483393536	60	97547
2026-01-02 22:00:36.53	319.45	0.06	-50.3	-68.2	3.5	3.05e+01	0	39	104	483393536	60	98537
2026-01-02 22:00:37.55	319.35	0.01	-50.3	-68.1	3.5	3.05e+01	0	39	104	483393536	60	97327
2026-01-02 22:00:38.56	319.26	-0.03	-50.3	-68.1	3.5	3.05e+01	0	39	104	483393536	60	97773
2026-01-02 22:00:39.56	319.17	-0.08	-50.3	-68.1	3.5	3.05e+01	0	39	104	483393536	60	97463
2026-01-02 22:00:40.57	319.08	-0.13	-50.3	-68.1	3.5	3.05e+01	0	39	104	483393536	60	97271

#Closed at: 2026-01-02 22:00:40
#Recorded file [483 MB]: D:/lorett/data/35029_260103_095003.dat