passes_logs/2026/01/02/R4.6S_Anadyr/R4.6S_Anadyr__20260102_154858_NOAA_20_JPSS-1_rec.log

#Pass ID: 20260102_154858_NOAA 20 (JPSS-1)
#Satellite: NOAA 20 (JPSS-1)
#Configuration: NOAA 20
#almurnet v.1.7.20251203
#Start time: 2026-01-02 15:49:00

#Version: 2.2.20231116
#Station: R4.6S_Anadyr
#Location: 177.4865 lon 64.73178 lat
#TLE: 1 43013U 17073A   26001.93781127  .00000184  00000+0  10834-3 0  9997
#TLE: 2 43013  98.7622 303.0160 0001916  58.2205 301.9158 14.19532295420889

#Time	Az	El	Level	Level2	SNR	BER	BlckErr	Temp	State	Recorded	gain1	gain2
2026-01-02 15:49:00.09	23.52	0.12	-49.4	-64.3	3.5	1.51e+00	0	36	0	0	60	59090
2026-01-02 15:49:01.09	23.49	0.18	-49.5	-64.7	3.6	1.51e+00	0	37	104	0	60	61995
2026-01-02 15:49:02.10	23.47	0.24	-49.5	-64.7	3.6	1.51e+00	0	37	104	0	60	61966
2026-01-02 15:49:03.11	23.44	0.29	-49.5	-64.7	3.6	1.51e+00	0	37	104	0	60	61887
2026-01-02 15:49:04.12	23.42	0.35	-49.5	-64.7	3.6	1.51e+00	0	38	104	0	60	62242
2026-01-02 15:49:05.13	23.39	0.41	-49.6	-64.8	3.6	1.51e+00	0	38	104	0	60	62693
2026-01-02 15:49:06.14	23.36	0.47	-49.5	-64.7	3.6	1.51e+00	0	38	104	0	60	62401
2026-01-02 15:49:07.15	23.34	0.53	-49.5	-64.7	3.6	1.51e+00	0	38	104	0	60	62405
2026-01-02 15:49:08.16	23.31	0.59	-49.4	-64.7	3.6	1.51e+00	0	38	104	0	60	61761
2026-01-02 15:49:09.17	23.29	0.65	-49.4	-64.5	3.6	1.51e+00	0	38	104	0	60	60848
2026-01-02 15:49:10.18	23.26	0.71	-49.2	-64.4	3.6	1.51e+00	0	38	104	0	60	59897
2026-01-02 15:49:11.19	23.23	0.78	-49.1	-64.2	3.6	1.51e+00	0	38	104	0	60	58828
2026-01-02 15:49:12.20	23.21	0.84	-48.8	-64.0	3.6	1.51e+00	0	38	104	0	60	57516
2026-01-02 15:49:13.21	23.18	0.90	-48.7	-63.9	3.6	1.51e+00	0	38	104	0	60	56358
2026-01-02 15:49:14.22	23.15	0.96	-48.4	-63.6	3.6	1.51e+00	0	38	104	0	60	54894
2026-01-02 15:49:15.23	23.12	1.02	-47.9	-63.0	3.6	1.51e+00	0	38	104	0	60	51175
2026-01-02 15:49:16.24	23.10	1.08	-47.7	-62.9	3.6	1.51e+00	0	38	104	0	60	50207
2026-01-02 15:49:17.24	23.07	1.14	-47.7	-62.9	3.6	1.51e+00	0	38	104	0	60	50236
2026-01-02 15:49:18.25	23.04	1.20	-47.7	-62.8	3.6	1.51e+00	0	38	104	0	60	49939
2026-01-02 15:49:19.26	23.02	1.26	-47.7	-62.8	3.6	1.51e+00	0	38	104	0	60	50042
2026-01-02 15:49:20.27	22.99	1.32	-47.7	-62.8	3.6	1.51e+00	0	38	104	0	60	50066
2026-01-02 15:49:21.28	22.96	1.39	-47.7	-62.9	3.6	1.51e+00	0	38	104	0	60	50197
2026-01-02 15:49:22.29	22.93	1.45	-47.7	-62.8	3.6	1.51e+00	0	38	104	0	60	50163
2026-01-02 15:49:23.30	22.90	1.51	-47.7	-62.9	3.6	1.51e+00	0	38	104	0	60	50259
2026-01-02 15:49:24.31	22.88	1.57	-47.7	-62.9	3.6	1.51e+00	0	38	104	0	60	50391
2026-01-02 15:49:25.32	22.85	1.63	-47.7	-62.9	3.6	1.51e+00	0	38	104	0	60	50441
2026-01-02 15:49:26.33	22.82	1.70	-47.7	-62.9	3.6	1.51e+00	0	38	104	0	60	50191
2026-01-02 15:49:27.34	22.79	1.76	-47.7	-62.8	3.6	1.51e+00	0	38	104	0	60	49920
2026-01-02 15:49:28.35	22.76	1.82	-47.7	-62.7	3.6	1.51e+00	0	38	104	0	60	49566
2026-01-02 15:49:29.36	22.73	1.88	-47.7	-62.6	3.6	1.51e+00	0	38	104	0	60	48994
2026-01-02 15:49:30.36	22.70	1.95	-47.7	-62.6	3.6	1.51e+00	0	38	104	0	60	49034
2026-01-02 15:49:31.37	22.67	2.01	-47.7	-62.6	3.6	1.51e+00	0	38	104	0	60	48785
2026-01-02 15:49:32.38	22.65	2.07	-47.7	-62.6	3.6	1.51e+00	0	38	104	0	60	49002
2026-01-02 15:49:33.39	22.62	2.14	-47.7	-62.8	3.6	1.51e+00	0	38	104	0	60	49762
2026-01-02 15:49:34.40	22.59	2.20	-47.7	-62.8	3.6	1.51e+00	0	38	104	0	60	50164
2026-01-02 15:49:35.41	22.56	2.26	-47.7	-62.8	3.6	1.51e+00	0	38	104	0	60	50154
2026-01-02 15:49:36.42	22.53	2.33	-47.7	-62.9	3.6	1.51e+00	0	38	104	0	60	50594
2026-01-02 15:49:37.43	22.50	2.39	-47.7	-62.8	3.6	1.51e+00	0	38	104	0	60	49987
2026-01-02 15:49:38.44	22.47	2.45	-47.7	-62.7	3.6	1.51e+00	0	38	104	0	60	49336
2026-01-02 15:49:39.45	22.44	2.52	-47.7	-62.6	3.6	1.51e+00	0	38	104	0	60	49005
2026-01-02 15:49:40.46	22.40	2.58	-47.7	-62.6	3.6	1.51e+00	0	38	104	0	60	48977
2026-01-02 15:49:41.47	22.37	2.65	-47.7	-62.5	3.6	1.51e+00	0	38	104	0	60	48110
2026-01-02 15:49:42.48	22.34	2.71	-47.7	-62.2	3.6	1.51e+00	0	38	104	0	60	46505
2026-01-02 15:49:43.49	22.31	2.77	-47.7	-62.0	3.6	1.51e+00	0	38	104	0	60	45704
2026-01-02 15:49:44.50	22.28	2.84	-47.6	-61.7	3.6	1.51e+00	0	38	104	0	60	43885
2026-01-02 15:49:45.51	22.25	2.90	-47.6	-61.8	3.6	1.51e+00	0	38	104	0	60	44515
2026-01-02 15:49:46.52	22.22	2.97	-47.6	-62.0	3.6	1.51e+00	0	38	104	0	60	45536
2026-01-02 15:49:47.53	22.19	3.03	-47.7	-62.5	3.6	1.51e+00	0	38	104	0	60	48216
2026-01-02 15:49:48.54	22.15	3.10	-47.7	-62.8	3.6	1.51e+00	0	38	104	0	60	50182
2026-01-02 15:49:49.55	22.12	3.16	-47.7	-62.4	3.6	1.51e+00	0	38	104	0	60	47708
2026-01-02 15:49:50.56	22.09	3.23	-47.6	-60.6	3.6	1.51e+00	0	38	104	0	60	38784
2026-01-02 15:49:51.57	22.06	3.30	-47.4	-57.6	4.5	1.29e+00	51	38	0	0	60	27338
2026-01-02 15:49:52.58	22.03	3.36	-47.1	-54.7	6.2	4.93e-01	37	38	0	2097152	60	19743
2026-01-02 15:49:53.59	21.99	3.43	-46.8	-53.3	7.8	1.09e-01	0	38	0	3145728	60	16801
2026-01-02 15:49:54.59	21.96	3.49	-46.4	-51.9	9.5	2.45e-02	48	38	0	5242880	60	14257
2026-01-02 15:49:55.61	21.93	3.56	-46.0	-50.9	10.6	6.58e-03	92	38	0	7340032	60	12701
2026-01-02 15:49:56.61	21.90	3.63	-45.9	-50.4	11.2	2.96e-03	7	38	0	9437184	60	11994
2026-01-02 15:49:57.62	21.86	3.69	-45.8	-50.4	11.2	1.42e-03	92	38	0	11534336	60	11934
2026-01-02 15:49:58.63	21.83	3.76	-46.2	-51.4	9.2	2.08e-03	35	38	0	12582912	60	13388
2026-01-02 15:49:59.64	21.79	3.83	-47.5	-57.1	3.9	2.07e-01	44	38	0	14680064	60	26014
2026-01-02 15:50:00.65	21.76	3.89	-46.8	-53.8	6.6	2.77e-01	0	38	104	14680064	60	17688
2026-01-02 15:50:01.66	21.73	3.96	-42.0	-43.8	17.8	1.08e+00	0	39	104	14680064	60	5574
2026-01-02 15:50:02.67	21.69	4.03	-47.7	-61.6	3.5	0.00e+00	36	38	104	15728640	60	43672
2026-01-02 15:50:03.68	21.66	4.09	-43.0	-45.3	6.1	1.50e+00	0	38	104	15728640	60	6616
2026-01-02 15:50:04.69	21.62	4.16	-40.8	-42.2	19.7	0.00e+00	92	39	0	15728640	54	6558
2026-01-02 15:50:05.70	21.59	4.23	-40.8	-42.2	19.7	0.00e+00	0	38	0	17825792	54	6567
2026-01-02 15:50:06.71	21.55	4.30	-40.6	-42.0	19.9	0.00e+00	45	38	0	18874368	54	6433
2026-01-02 15:50:07.71	21.52	4.37	-40.6	-42.0	19.9	0.00e+00	0	38	0	20971520	54	6422
2026-01-02 15:50:08.72	21.48	4.43	-40.7	-42.1	19.7	0.00e+00	47	38	0	23068672	54	6525
2026-01-02 15:50:09.73	21.45	4.50	-40.5	-41.8	20.1	0.00e+00	7	38	0	25165824	54	6316
2026-01-02 15:50:10.74	21.41	4.57	-40.8	-42.2	19.7	0.00e+00	46	39	0	27262976	54	6576
2026-01-02 15:50:11.75	21.38	4.64	-40.8	-42.2	19.8	0.00e+00	92	38	0	28311552	54	6592
2026-01-02 15:50:12.76	21.34	4.71	-40.9	-42.3	19.7	0.00e+00	31	38	0	30408704	54	6658
2026-01-02 15:50:13.77	21.31	4.78	-40.7	-42.1	19.8	0.00e+00	92	38	0	32505856	54	6534
2026-01-02 15:50:14.78	21.27	4.85	-40.9	-42.3	19.9	0.00e+00	52	38	0	34603008	54	6665
2026-01-02 15:50:15.79	21.23	4.92	-40.8	-42.2	19.7	0.00e+00	51	38	0	36700160	54	6591
2026-01-02 15:50:16.80	21.20	4.99	-40.5	-41.8	20.2	0.00e+00	32	38	0	37748736	54	6311
2026-01-02 15:50:17.81	21.16	5.06	-40.5	-41.9	20.2	0.00e+00	2	38	0	39845888	54	6323
2026-01-02 15:50:18.82	21.12	5.13	-40.5	-41.8	20.2	0.00e+00	92	38	0	41943040	54	6314
2026-01-02 15:50:19.83	21.08	5.20	-40.6	-41.9	20.3	0.00e+00	30	39	0	44040192	54	6342
2026-01-02 15:50:20.84	21.05	5.27	-40.5	-41.8	20.3	0.00e+00	90	38	0	46137344	54	6272
2026-01-02 15:50:21.85	21.01	5.34	-40.6	-42.0	20.2	0.00e+00	0	38	0	47185920	54	6413
2026-01-02 15:50:22.86	20.97	5.41	-40.3	-41.6	20.7	0.00e+00	0	38	0	49283072	54	6110
2026-01-02 15:50:23.87	20.93	5.48	-40.3	-41.6	20.6	0.00e+00	0	38	0	51380224	54	6128
2026-01-02 15:50:24.88	20.90	5.55	-40.5	-41.8	20.5	0.00e+00	0	39	0	53477376	54	6248
2026-01-02 15:50:25.89	20.86	5.62	-40.3	-41.5	20.7	0.00e+00	92	39	0	55574528	54	6093
2026-01-02 15:50:26.89	20.82	5.69	-40.1	-41.3	20.9	0.00e+00	0	39	0	56623104	54	5938
2026-01-02 15:50:27.90	20.78	5.76	-40.3	-41.5	20.7	0.00e+00	92	39	0	58720256	54	6101
2026-01-02 15:50:28.92	20.74	5.84	-40.3	-41.6	20.7	0.00e+00	51	39	0	60817408	54	6110
2026-01-02 15:50:29.92	20.70	5.91	-40.4	-41.6	20.7	0.00e+00	53	39	0	62914560	54	6164
2026-01-02 15:50:30.94	20.66	5.98	-40.4	-41.7	20.6	0.00e+00	51	38	0	65011712	54	6211
2026-01-02 15:50:31.94	20.62	6.05	-40.2	-41.4	20.9	0.00e+00	51	39	0	66060288	54	6023
2026-01-02 15:50:32.95	20.58	6.12	-40.2	-41.4	20.9	0.00e+00	28	38	0	68157440	54	5983
2026-01-02 15:50:33.96	20.54	6.20	-40.3	-41.5	20.8	0.00e+00	41	39	0	70254592	54	6099
2026-01-02 15:50:34.97	20.50	6.27	-40.3	-41.5	20.8	0.00e+00	90	38	0	72351744	54	6084
2026-01-02 15:50:35.98	20.46	6.34	-40.3	-41.5	20.8	0.00e+00	34	39	0	74448896	54	6079
2026-01-02 15:50:36.99	20.42	6.41	-40.3	-41.5	20.8	0.00e+00	91	39	0	75497472	54	6084
2026-01-02 15:50:38.00	20.38	6.49	-40.1	-41.3	21.0	0.00e+00	0	39	0	77594624	54	5926
2026-01-02 15:50:39.01	20.34	6.56	-40.1	-41.3	21.0	0.00e+00	0	39	0	79691776	54	5942
2026-01-02 15:50:40.02	20.29	6.64	-40.2	-41.4	21.0	0.00e+00	0	39	0	81788928	54	5972
2026-01-02 15:50:41.02	20.25	6.71	-40.4	-41.7	20.6	0.00e+00	2	39	0	83886080	54	6221
2026-01-02 15:50:42.03	20.21	6.78	-40.3	-41.5	20.9	0.00e+00	92	39	0	85983232	54	6062
2026-01-02 15:50:43.04	20.17	6.86	-40.1	-41.2	21.1	0.00e+00	0	39	0	87031808	54	5895
2026-01-02 15:50:44.05	20.13	6.93	-40.1	-41.3	21.1	0.00e+00	92	39	0	89128960	54	5941
2026-01-02 15:50:45.06	20.08	7.01	-39.9	-41.1	21.4	0.00e+00	0	39	0	91226112	54	5776
2026-01-02 15:50:46.07	20.04	7.08	-40.0	-41.2	21.3	0.00e+00	0	39	0	93323264	54	5847
2026-01-02 15:50:47.08	20.00	7.16	-39.9	-41.0	21.4	0.00e+00	0	39	0	95420416	54	5756
2026-01-02 15:50:48.09	19.95	7.23	-40.0	-41.1	21.2	0.00e+00	0	39	0	96468992	54	5812
2026-01-02 15:50:49.10	19.91	7.31	-40.0	-41.1	21.3	0.00e+00	92	39	0	98566144	54	5824
2026-01-02 15:50:50.11	19.87	7.38	-40.0	-41.1	21.2	0.00e+00	0	39	0	100663296	54	5827
2026-01-02 15:50:51.12	19.82	7.46	-40.0	-41.2	21.2	0.00e+00	92	39	0	102760448	54	5844
2026-01-02 15:50:52.13	19.78	7.54	-40.0	-41.2	21.3	0.00e+00	0	39	0	104857600	54	5862
2026-01-02 15:50:53.14	19.73	7.61	-40.0	-41.2	21.3	0.00e+00	61	39	0	105906176	54	5831
2026-01-02 15:50:54.15	19.69	7.69	-39.8	-40.9	21.5	0.00e+00	0	39	0	108003328	54	5685
2026-01-02 15:50:55.16	19.64	7.77	-39.8	-41.0	21.5	0.00e+00	54	39	0	110100480	54	5702
2026-01-02 15:50:56.17	19.60	7.84	-39.8	-40.9	21.6	0.00e+00	0	39	0	112197632	54	5642
2026-01-02 15:50:57.17	19.55	7.92	-40.0	-41.1	21.4	0.00e+00	28	39	0	114294784	52	6512
2026-01-02 15:50:58.18	19.50	8.00	-39.8	-41.0	21.5	0.00e+00	92	39	0	115343360	52	6404
2026-01-02 15:50:59.19	19.46	8.07	-39.8	-40.9	21.6	0.00e+00	0	39	0	117440512	52	6382
2026-01-02 15:51:00.20	19.41	8.15	-40.0	-41.1	21.6	0.00e+00	90	39	0	119537664	52	6501
2026-01-02 15:51:01.21	19.36	8.23	-40.1	-41.2	21.6	0.00e+00	27	39	0	121634816	52	6584
2026-01-02 15:51:02.22	19.32	8.31	-40.0	-41.2	21.4	0.00e+00	0	39	0	123731968	52	6558
2026-01-02 15:51:03.23	19.27	8.39	-39.7	-40.8	21.8	0.00e+00	2	39	0	124780544	52	6294
2026-01-02 15:51:04.24	19.22	8.47	-39.9	-41.0	21.6	0.00e+00	33	39	0	126877696	52	6451
2026-01-02 15:51:05.25	19.17	8.55	-39.9	-41.1	21.6	0.00e+00	92	39	0	128974848	52	6484
2026-01-02 15:51:06.26	19.13	8.62	-39.8	-40.9	21.7	0.00e+00	0	39	0	131072000	52	6388
2026-01-02 15:51:07.27	19.08	8.70	-40.0	-41.1	21.6	0.00e+00	70	39	0	133169152	52	6498
2026-01-02 15:51:08.28	19.03	8.78	-39.9	-41.1	21.6	0.00e+00	2	39	0	134217728	52	6479
2026-01-02 15:51:09.29	18.98	8.86	-40.1	-41.2	21.6	0.00e+00	18	39	0	136314880	52	6602
2026-01-02 15:51:10.30	18.93	8.94	-40.0	-41.1	21.6	0.00e+00	0	39	0	138412032	52	6507
2026-01-02 15:51:11.31	18.88	9.02	-40.0	-41.2	21.5	0.00e+00	47	39	0	140509184	52	6550
2026-01-02 15:51:12.32	18.83	9.11	-39.9	-41.1	21.5	0.00e+00	90	39	0	142606336	52	6473
2026-01-02 15:51:13.33	18.78	9.19	-40.1	-41.2	21.6	0.00e+00	0	39	0	143654912	52	6573
2026-01-02 15:51:14.34	18.73	9.27	-40.0	-41.2	21.4	0.00e+00	92	39	0	145752064	52	6563
2026-01-02 15:51:15.35	18.68	9.35	-40.0	-41.2	21.6	0.00e+00	0	39	0	147849216	52	6557
2026-01-02 15:51:16.36	18.63	9.43	-39.8	-40.9	21.8	0.00e+00	28	39	0	149946368	52	6323
2026-01-02 15:51:17.37	18.58	9.51	-39.7	-40.8	21.9	0.00e+00	55	39	0	152043520	52	6293
2026-01-02 15:51:18.38	18.52	9.59	-39.6	-40.6	22.0	0.00e+00	52	39	0	154140672	52	6163
2026-01-02 15:51:19.39	18.47	9.68	-39.6	-40.7	22.0	0.00e+00	52	39	0	155189248	52	6211
2026-01-02 15:51:20.40	18.42	9.76	-39.8	-41.0	21.7	0.00e+00	5	39	0	157286400	52	6396
2026-01-02 15:51:21.41	18.37	9.84	-39.7	-40.7	21.9	0.00e+00	92	39	0	159383552	52	6239
2026-01-02 15:51:22.41	18.31	9.92	-39.6	-40.7	21.9	0.00e+00	0	39	0	161480704	52	6221
2026-01-02 15:51:23.42	18.26	10.01	-39.7	-40.8	21.9	0.00e+00	45	39	0	163577856	52	6293
2026-01-02 15:51:24.44	18.21	10.09	-39.9	-41.0	21.7	0.00e+00	7	39	0	164626432	52	6438
2026-01-02 15:51:25.44	18.15	10.18	-40.0	-41.1	21.6	0.00e+00	28	39	0	166723584	52	6486
2026-01-02 15:51:26.45	18.10	10.26	-39.7	-40.8	21.9	0.00e+00	7	39	0	168820736	52	6296
2026-01-02 15:51:27.47	18.04	10.34	-39.7	-40.8	22.0	0.00e+00	6	39	0	170917888	52	6252
2026-01-02 15:51:28.48	17.99	10.43	-39.7	-40.8	22.0	0.00e+00	90	39	0	173015040	52	6251
2026-01-02 15:51:29.48	17.93	10.51	-39.5	-40.5	22.2	0.00e+00	6	39	0	174063616	52	6102
2026-01-02 15:51:30.49	17.88	10.60	-39.5	-40.6	22.2	0.00e+00	92	39	0	176160768	52	6128
2026-01-02 15:51:31.50	17.82	10.68	-39.6	-40.6	22.1	0.00e+00	54	39	0	178257920	52	6163
2026-01-02 15:51:32.51	17.76	10.77	-39.7	-40.8	22.0	0.00e+00	51	39	0	180355072	52	6249
2026-01-02 15:51:33.52	17.71	10.86	-39.5	-40.6	22.1	0.00e+00	0	39	0	182452224	52	6135
2026-01-02 15:51:34.53	17.65	10.94	-39.5	-40.5	22.2	0.00e+00	52	39	0	183500800	52	6101
2026-01-02 15:51:35.54	17.59	11.03	-39.5	-40.5	22.2	0.00e+00	17	39	0	185597952	52	6088
2026-01-02 15:51:36.55	17.53	11.12	-39.5	-40.6	22.2	0.00e+00	48	39	0	187695104	52	6123
2026-01-02 15:51:37.56	17.48	11.20	-39.5	-40.5	22.2	0.00e+00	92	39	0	189792256	52	6097
2026-01-02 15:51:38.57	17.42	11.29	-39.4	-40.4	22.3	0.00e+00	55	39	0	191889408	52	6022
2026-01-02 15:51:39.58	17.36	11.38	-39.4	-40.4	22.4	0.00e+00	36	39	0	192937984	52	5979
2026-01-02 15:51:40.59	17.30	11.47	-39.2	-40.2	22.5	0.00e+00	55	39	0	195035136	52	5891
2026-01-02 15:51:41.60	17.24	11.55	-39.3	-40.4	22.5	0.00e+00	6	39	0	197132288	52	5971
2026-01-02 15:51:42.61	17.18	11.64	-39.2	-40.2	22.6	0.00e+00	82	39	0	199229440	52	5887
2026-01-02 15:51:43.62	17.12	11.73	-39.3	-40.3	22.5	0.00e+00	6	39	0	201326592	52	5954
2026-01-02 15:51:44.63	17.06	11.82	-39.6	-40.6	22.3	0.00e+00	90	39	0	202375168	52	6144
2026-01-02 15:51:45.64	16.99	11.91	-39.3	-40.3	22.5	0.00e+00	0	39	0	204472320	52	5931
2026-01-02 15:51:46.65	16.93	12.00	-39.2	-40.2	22.6	0.00e+00	54	39	0	206569472	52	5891
2026-01-02 15:51:47.66	16.87	12.09	-39.2	-40.2	22.6	0.00e+00	0	39	0	208666624	52	5874
2026-01-02 15:51:48.67	16.81	12.18	-39.1	-40.1	22.7	0.00e+00	0	39	0	210763776	52	5789
2026-01-02 15:51:49.68	16.74	12.27	-39.2	-40.2	22.6	0.00e+00	0	39	0	211812352	52	5838
2026-01-02 15:51:50.69	16.68	12.36	-39.1	-40.1	22.8	0.00e+00	6	39	0	213909504	52	5773
2026-01-02 15:51:51.69	16.62	12.45	-39.1	-40.1	22.7	0.00e+00	92	39	0	216006656	52	5812
2026-01-02 15:51:52.71	16.55	12.54	-39.2	-40.2	22.5	0.00e+00	0	39	0	218103808	52	5896
2026-01-02 15:51:53.72	16.49	12.64	-39.1	-40.1	22.7	0.00e+00	92	39	0	220200960	52	5807
2026-01-02 15:51:54.73	16.42	12.73	-39.1	-40.1	22.8	0.00e+00	55	39	0	222298112	52	5776
2026-01-02 15:51:55.73	16.36	12.82	-39.1	-40.1	22.7	0.00e+00	0	39	0	223346688	52	5806
2026-01-02 15:51:56.74	16.29	12.91	-39.2	-40.2	22.6	0.00e+00	0	39	0	225443840	52	5864
2026-01-02 15:51:57.75	16.23	13.01	-39.1	-40.1	22.6	0.00e+00	25	39	0	227540992	52	5794
2026-01-02 15:51:58.76	16.16	13.10	-39.2	-40.2	22.7	0.00e+00	92	39	0	229638144	52	5835
2026-01-02 15:51:59.77	16.09	13.19	-39.0	-40.0	22.9	0.00e+00	44	39	0	231735296	52	5718
2026-01-02 15:52:00.78	16.02	13.29	-39.0	-40.0	22.9	0.00e+00	91	39	0	232783872	52	5712
2026-01-02 15:52:01.79	15.96	13.38	-39.2	-40.2	22.7	0.00e+00	50	39	0	234881024	52	5832
2026-01-02 15:52:02.80	15.89	13.47	-39.0	-40.0	22.9	0.00e+00	92	39	0	236978176	52	5714
2026-01-02 15:52:03.81	15.82	13.57	-39.0	-40.0	23.0	0.00e+00	0	39	0	239075328	52	5705
2026-01-02 15:52:04.82	15.75	13.67	-39.0	-40.0	23.0	0.00e+00	0	39	0	241172480	52	5709
2026-01-02 15:52:05.83	15.68	13.76	-39.1	-40.1	22.8	0.00e+00	0	39	0	242221056	52	5780
2026-01-02 15:52:06.83	15.61	13.86	-39.0	-40.0	22.9	0.00e+00	27	39	0	244318208	52	5737
2026-01-02 15:52:07.84	15.54	13.95	-39.0	-40.0	22.9	0.00e+00	92	39	0	246415360	52	5736
2026-01-02 15:52:08.85	15.46	14.05	-39.0	-40.0	22.9	0.00e+00	0	39	0	248512512	52	5715
2026-01-02 15:52:09.86	15.39	14.15	-39.0	-40.0	22.9	0.00e+00	65	39	0	250609664	52	5725
2026-01-02 15:52:10.87	15.32	14.24	-39.1	-40.1	22.9	0.00e+00	2	39	0	251658240	52	5779
2026-01-02 15:52:11.88	15.25	14.34	-39.0	-40.0	22.9	0.00e+00	0	39	0	253755392	52	5716
2026-01-02 15:52:12.89	15.17	14.44	-39.0	-40.0	23.0	0.00e+00	0	39	0	255852544	52	5714
2026-01-02 15:52:13.90	15.10	14.54	-38.9	-39.9	23.0	0.00e+00	57	39	0	257949696	52	5670
2026-01-02 15:52:14.91	15.02	14.64	-39.0	-39.9	23.0	0.00e+00	90	39	0	260046848	52	5675
2026-01-02 15:52:15.92	14.95	14.73	-39.0	-40.0	22.9	0.00e+00	50	39	0	261095424	52	5706
2026-01-02 15:52:16.93	14.87	14.83	-38.9	-39.9	23.0	0.00e+00	92	39	0	263192576	52	5663
2026-01-02 15:52:17.94	14.80	14.93	-38.9	-39.9	23.0	0.00e+00	0	39	0	265289728	52	5641
2026-01-02 15:52:18.95	14.72	15.03	-39.0	-40.0	23.1	0.00e+00	4	39	0	267386880	52	5698
2026-01-02 15:52:19.96	14.64	15.13	-38.9	-39.9	23.0	0.00e+00	55	39	0	269484032	52	5638
2026-01-02 15:52:20.97	14.57	15.23	-39.1	-40.0	22.9	0.00e+00	26	39	0	270532608	52	5747
2026-01-02 15:52:21.97	14.49	15.33	-39.1	-40.1	22.9	0.00e+00	0	39	0	272629760	52	5791
2026-01-02 15:52:22.99	14.41	15.44	-39.0	-39.9	23.0	0.00e+00	25	39	0	274726912	52	5675
2026-01-02 15:52:24.00	14.33	15.54	-39.1	-40.0	23.0	0.00e+00	92	39	0	276824064	52	5744
2026-01-02 15:52:25.01	14.25	15.64	-39.0	-40.0	23.1	0.00e+00	0	39	0	278921216	52	5703
2026-01-02 15:52:26.02	14.17	15.74	-39.0	-40.0	23.0	0.00e+00	46	39	0	279969792	52	5717
2026-01-02 15:52:27.02	14.09	15.85	-39.1	-40.0	23.1	0.00e+00	0	39	0	282066944	52	5745
2026-01-02 15:52:28.03	14.01	15.95	-39.0	-39.9	23.1	0.00e+00	0	39	0	284164096	52	5680
2026-01-02 15:52:29.04	13.92	16.05	-39.0	-40.0	23.1	0.00e+00	0	39	0	286261248	52	5699
2026-01-02 15:52:30.05	13.84	16.16	-39.1	-40.0	23.0	0.00e+00	0	39	0	288358400	52	5761
2026-01-02 15:52:31.06	13.76	16.26	-39.0	-39.9	23.0	0.00e+00	92	39	0	290455552	52	5686
2026-01-02 15:52:32.07	13.67	16.37	-39.0	-40.0	23.0	0.00e+00	0	39	0	291504128	52	5736
2026-01-02 15:52:33.08	13.59	16.47	-39.1	-40.0	23.1	0.00e+00	91	39	0	293601280	52	5742
2026-01-02 15:52:34.09	13.50	16.58	-39.2	-40.1	22.9	0.00e+00	0	39	0	295698432	52	5815
2026-01-02 15:52:35.10	13.42	16.68	-38.9	-39.9	23.1	0.00e+00	0	39	0	297795584	52	5658
2026-01-02 15:52:36.11	13.33	16.79	-39.1	-40.0	23.0	0.00e+00	0	39	0	299892736	52	5743
2026-01-02 15:52:37.12	13.24	16.90	-39.0	-40.0	23.0	0.00e+00	0	39	0	300941312	52	5712
2026-01-02 15:52:38.13	13.15	17.00	-39.0	-39.9	23.1	0.00e+00	92	39	0	303038464	52	5691
2026-01-02 15:52:39.14	13.06	17.11	-39.2	-40.1	22.9	0.00e+00	0	39	0	305135616	52	5802
2026-01-02 15:52:40.15	12.98	17.22	-39.1	-40.0	23.0	0.00e+00	92	39	0	307232768	52	5739
2026-01-02 15:52:41.16	12.89	17.33	-39.1	-40.0	23.0	0.00e+00	30	39	0	309329920	52	5739
2026-01-02 15:52:42.17	12.79	17.44	-39.0	-39.9	23.0	0.00e+00	0	39	0	310378496	52	5687
2026-01-02 15:52:43.18	12.70	17.55	-38.9	-39.9	22.9	0.00e+00	0	39	0	312475648	52	5641
2026-01-02 15:52:44.19	12.61	17.66	-39.0	-39.9	23.0	0.00e+00	58	39	0	314572800	52	5689
2026-01-02 15:52:45.20	12.52	17.77	-39.0	-40.0	23.1	0.00e+00	0	39	0	316669952	52	5698
2026-01-02 15:52:46.21	12.42	17.88	-39.1	-40.1	23.0	0.00e+00	24	39	0	318767104	52	5802
2026-01-02 15:52:47.22	12.33	17.99	-39.0	-40.0	23.1	0.00e+00	92	39	0	319815680	52	5720
2026-01-02 15:52:48.23	12.24	18.10	-39.1	-40.1	23.0	0.00e+00	0	39	0	321912832	52	5764
2026-01-02 15:52:49.24	12.14	18.21	-39.1	-40.1	23.0	0.00e+00	92	39	0	324009984	52	5770
2026-01-02 15:52:50.24	12.04	18.32	-39.2	-40.2	22.9	0.00e+00	0	39	0	326107136	52	5844
2026-01-02 15:52:51.26	11.95	18.44	-39.1	-40.0	23.0	0.00e+00	0	39	0	328204288	52	5749
2026-01-02 15:52:52.27	11.85	18.55	-39.3	-40.2	22.9	0.00e+00	0	39	0	329252864	52	5875
2026-01-02 15:52:53.28	11.75	18.66	-39.3	-40.2	22.9	0.00e+00	0	39	0	331350016	52	5888
2026-01-02 15:52:54.29	11.65	18.78	-39.2	-40.2	23.0	0.00e+00	92	39	0	333447168	52	5867
2026-01-02 15:52:55.30	11.55	18.89	-39.3	-40.3	22.9	0.00e+00	0	39	0	335544320	52	5914
2026-01-02 15:52:56.30	11.45	19.00	-39.3	-40.3	22.8	0.00e+00	92	39	0	337641472	52	5928
2026-01-02 15:52:57.31	11.35	19.12	-39.3	-40.3	22.9	0.00e+00	49	39	0	338690048	52	5937
2026-01-02 15:52:58.32	11.25	19.23	-39.3	-40.2	23.0	0.00e+00	0	39	0	340787200	52	5879
2026-01-02 15:52:59.33	11.14	19.35	-39.2	-40.1	23.0	0.00e+00	0	39	0	342884352	52	5824
2026-01-02 15:53:00.33	11.04	19.47	-39.2	-40.2	23.0	0.00e+00	55	39	0	344981504	52	5867
2026-01-02 15:53:01.34	10.93	19.58	-39.3	-40.2	22.9	0.00e+00	92	39	0	347078656	52	5885
2026-01-02 15:53:02.36	10.83	19.70	-39.4	-40.3	22.9	0.00e+00	25	39	0	348127232	52	5952
2026-01-02 15:53:03.36	10.72	19.82	-39.4	-40.4	22.7	0.00e+00	92	39	0	350224384	52	5974
2026-01-02 15:53:04.37	10.61	19.94	-39.5	-40.5	22.7	0.00e+00	30	39	0	352321536	52	6100
2026-01-02 15:53:05.38	10.51	20.06	-39.5	-40.5	22.8	0.00e+00	50	39	0	354418688	52	6049
2026-01-02 15:53:06.40	10.40	20.18	-39.6	-40.6	22.6	0.00e+00	0	39	0	356515840	52	6134
2026-01-02 15:53:07.41	10.29	20.30	-39.7	-40.7	22.5	0.00e+00	5	39	0	358612992	52	6209
2026-01-02 15:53:08.42	10.17	20.42	-39.8	-40.9	22.3	0.00e+00	90	39	0	359661568	52	6321
2026-01-02 15:53:09.43	10.06	20.54	-39.7	-40.7	22.6	0.00e+00	26	39	0	361758720	52	6183
2026-01-02 15:53:10.43	9.95	20.66	-39.8	-40.9	22.4	0.00e+00	90	39	0	363855872	52	6318
2026-01-02 15:53:11.44	9.84	20.78	-39.8	-40.8	22.4	0.00e+00	4	39	0	365953024	52	6304
2026-01-02 15:53:12.45	9.72	20.90	-40.0	-41.0	22.2	0.00e+00	92	39	0	368050176	52	6455
2026-01-02 15:53:13.46	9.61	21.02	-39.9	-40.9	22.2	0.00e+00	6	39	0	369098752	52	6378
2026-01-02 15:53:14.47	9.49	21.14	-40.0	-41.1	22.0	0.00e+00	0	39	0	371195904	52	6468
2026-01-02 15:53:15.48	9.37	21.27	-39.9	-40.9	22.3	0.00e+00	5	39	0	373293056	52	6337
2026-01-02 15:53:16.49	9.25	21.39	-39.8	-40.8	22.3	0.00e+00	0	39	0	375390208	52	6316
2026-01-02 15:53:17.50	9.13	21.52	-39.8	-40.8	22.4	0.00e+00	91	39	0	377487360	52	6269
2026-01-02 15:53:18.51	9.01	21.64	-39.9	-40.9	22.4	0.00e+00	0	39	0	378535936	52	6372
2026-01-02 15:53:19.52	8.89	21.77	-39.8	-40.8	22.4	0.00e+00	92	39	0	380633088	52	6288
2026-01-02 15:53:20.53	8.77	21.89	-40.0	-41.0	22.2	0.00e+00	0	39	0	382730240	52	6456
2026-01-02 15:53:21.54	8.65	22.02	-39.9	-40.9	22.3	0.00e+00	4	39	0	384827392	52	6360
2026-01-02 15:53:22.55	8.52	22.15	-39.9	-40.9	22.3	0.00e+00	54	39	0	386924544	52	6365
2026-01-02 15:53:23.56	8.40	22.27	-40.0	-41.0	22.3	0.00e+00	31	39	0	387973120	52	6442
2026-01-02 15:53:24.57	8.27	22.40	-40.1	-41.1	22.2	0.00e+00	92	39	0	390070272	52	6508
2026-01-02 15:53:25.58	8.14	22.53	-40.0	-41.1	22.3	0.00e+00	35	39	0	392167424	52	6469
2026-01-02 15:53:26.59	8.01	22.66	-40.1	-41.1	22.1	0.00e+00	92	39	0	394264576	52	6528
2026-01-02 15:53:27.59	7.88	22.78	-40.1	-41.1	22.1	0.00e+00	38	39	0	396361728	52	6532
2026-01-02 15:53:28.60	7.75	22.91	-40.1	-41.1	22.2	0.00e+00	7	39	0	397410304	52	6517
2026-01-02 15:53:29.61	7.62	23.04	-40.2	-41.3	22.1	0.00e+00	7	39	0	399507456	52	6660
2026-01-02 15:53:30.62	7.49	23.17	-40.1	-41.1	22.2	0.00e+00	28	39	0	401604608	52	6539
2026-01-02 15:53:31.63	7.35	23.31	-39.9	-41.0	22.4	0.00e+00	92	39	0	403701760	52	6398
2026-01-02 15:53:32.64	7.22	23.44	-39.9	-41.0	22.3	0.00e+00	6	39	0	405798912	52	6412
2026-01-02 15:53:33.65	7.08	23.57	-39.9	-40.9	22.4	0.00e+00	92	39	0	406847488	52	6368
2026-01-02 15:53:34.66	6.94	23.70	-39.9	-40.9	22.4	0.00e+00	0	39	0	408944640	52	6378
2026-01-02 15:53:35.67	6.80	23.84	-39.9	-40.9	22.4	0.00e+00	66	38	0	411041792	52	6390
2026-01-02 15:53:36.68	6.66	23.97	-40.0	-41.0	22.3	0.00e+00	6	39	0	413138944	52	6427
2026-01-02 15:53:37.69	6.52	24.10	-40.0	-41.1	22.1	0.00e+00	0	39	0	415236096	52	6471
2026-01-02 15:53:38.70	6.38	24.24	-39.9	-40.9	22.1	0.00e+00	0	39	0	416284672	52	6390
2026-01-02 15:53:39.71	6.23	24.37	-39.9	-41.0	22.4	0.00e+00	0	39	0	418381824	52	6395
2026-01-02 15:53:40.72	6.09	24.51	-39.9	-40.9	22.4	0.00e+00	92	39	0	420478976	52	6371
2026-01-02 15:53:41.73	5.94	24.64	-39.8	-40.8	22.5	0.00e+00	0	39	0	422576128	52	6301
2026-01-02 15:53:42.74	5.79	24.78	-39.8	-40.8	22.5	0.00e+00	92	39	0	424673280	52	6257
2026-01-02 15:53:43.75	5.64	24.92	-39.8	-40.8	22.5	0.00e+00	29	39	0	426770432	52	6300
2026-01-02 15:53:44.76	5.49	25.06	-39.7	-40.8	22.6	0.00e+00	28	39	0	427819008	52	6250
2026-01-02 15:53:45.77	5.34	25.19	-39.8	-40.8	22.5	0.00e+00	23	39	0	429916160	52	6290
2026-01-02 15:53:46.78	5.19	25.33	-39.7	-40.7	22.7	0.00e+00	22	39	0	432013312	52	6241
2026-01-02 15:53:47.79	5.03	25.47	-39.9	-40.9	22.4	0.00e+00	58	39	0	434110464	52	6339
2026-01-02 15:53:48.80	4.88	25.61	-39.7	-40.7	22.6	0.00e+00	22	38	0	435159040	52	6209
2026-01-02 15:53:49.81	4.72	25.75	-39.8	-40.9	22.4	0.00e+00	92	39	0	437256192	52	6323
2026-01-02 15:53:50.81	4.56	25.89	-39.9	-41.0	22.4	0.00e+00	23	38	0	439353344	52	6404
2026-01-02 15:53:51.82	4.40	26.03	-40.0	-41.0	22.4	0.00e+00	92	39	0	441450496	52	6451
2026-01-02 15:53:52.83	4.24	26.17	-39.9	-40.9	22.5	0.00e+00	0	39	0	443547648	52	6374
2026-01-02 15:53:53.84	4.07	26.31	-40.0	-41.0	22.3	0.00e+00	23	39	0	444596224	52	6449
2026-01-02 15:53:54.85	3.91	26.46	-40.0	-41.1	22.3	0.00e+00	0	39	0	446693376	52	6469
2026-01-02 15:53:55.86	3.74	26.60	-40.1	-41.2	22.3	0.00e+00	2	39	0	448790528	52	6543
2026-01-02 15:53:56.87	3.58	26.74	-40.1	-41.1	22.3	0.00e+00	90	39	0	450887680	52	6512
2026-01-02 15:53:57.88	3.41	26.89	-40.0	-41.0	22.1	0.00e+00	0	39	0	452984832	52	6419
2026-01-02 15:53:58.89	3.23	27.03	-39.9	-40.9	22.5	0.00e+00	92	39	0	455081984	52	6371
2026-01-02 15:53:59.90	3.06	27.18	-39.8	-40.8	22.5	0.00e+00	0	39	0	456130560	52	6312
2026-01-02 15:54:00.91	2.89	27.32	-39.7	-40.7	22.7	0.00e+00	57	38	0	458227712	52	6178
2026-01-02 15:54:01.92	2.71	27.47	-39.7	-40.6	22.8	0.00e+00	0	38	0	460324864	52	6173
2026-01-02 15:54:02.93	2.53	27.61	-39.9	-41.0	22.5	0.00e+00	0	38	0	462422016	52	6392
2026-01-02 15:54:03.94	2.35	27.76	-39.8	-40.8	22.6	0.00e+00	92	38	0	464519168	52	6264
2026-01-02 15:54:04.95	2.17	27.91	-39.9	-40.9	22.4	0.00e+00	23	39	0	465567744	52	6369
2026-01-02 15:54:05.96	1.99	28.06	-39.9	-40.9	22.5	0.00e+00	92	39	0	467664896	52	6364
2026-01-02 15:54:06.97	1.81	28.20	-39.9	-40.9	22.5	0.00e+00	22	38	0	469762048	52	6368
2026-01-02 15:54:07.98	1.62	28.35	-39.9	-40.9	22.4	0.00e+00	23	39	0	471859200	52	6362
2026-01-02 15:54:08.99	1.43	28.50	-39.7	-40.7	22.6	0.00e+00	22	38	0	473956352	52	6220
2026-01-02 15:54:09.99	1.24	28.65	-39.8	-40.8	22.5	0.00e+00	23	38	0	475004928	52	6294
2026-01-02 15:54:11.00	1.05	28.80	-39.8	-40.8	22.5	0.00e+00	92	39	0	477102080	52	6269
2026-01-02 15:54:12.01	0.86	28.95	-39.9	-40.9	22.5	0.00e+00	23	39	0	479199232	52	6381
2026-01-02 15:54:13.02	0.66	29.10	-39.8	-40.9	22.5	0.00e+00	92	39	0	481296384	52	6322
2026-01-02 15:54:14.03	0.47	29.25	-39.9	-40.9	21.6	0.00e+00	0	39	0	483393536	52	6343
2026-01-02 15:54:15.04	0.27	29.40	-40.0	-41.0	22.3	0.00e+00	60	38	0	484442112	52	6446
2026-01-02 15:54:16.05	0.07	29.56	-39.9	-40.9	22.4	0.00e+00	0	39	0	486539264	52	6363
2026-01-02 15:54:17.06	359.86	29.71	-40.0	-41.1	22.3	0.00e+00	0	38	0	488636416	52	6489
2026-01-02 15:54:18.07	359.66	29.86	-40.2	-41.3	22.1	0.00e+00	0	39	0	490733568	52	6641
2026-01-02 15:54:19.08	359.45	30.01	-40.4	-41.5	22.0	0.00e+00	0	39	0	492830720	52	6792
2026-01-02 15:54:20.09	359.24	30.17	-40.6	-41.7	21.7	0.00e+00	90	38	0	493879296	52	6949
2026-01-02 15:54:21.10	359.03	30.32	-40.9	-42.0	21.4	0.00e+00	0	38	0	495976448	54	6452
2026-01-02 15:54:22.11	358.82	30.48	-41.4	-42.6	20.8	0.00e+00	90	39	0	498073600	54	6893
2026-01-02 15:54:23.12	358.61	30.63	-41.6	-42.8	20.8	0.00e+00	60	38	0	500170752	54	7064
2026-01-02 15:54:24.13	358.39	30.79	-41.5	-42.7	20.7	0.00e+00	61	39	0	502267904	54	7001
2026-01-02 15:54:25.14	358.17	30.94	-41.6	-42.9	20.6	0.00e+00	0	39	0	503316480	54	7137
2026-01-02 15:54:26.15	357.95	31.10	-41.7	-43.0	20.6	0.00e+00	0	38	0	505413632	54	7187
2026-01-02 15:54:27.15	357.73	31.25	-42.0	-43.4	20.3	0.00e+00	92	39	0	507510784	56	6719
2026-01-02 15:54:28.16	357.50	31.41	-41.9	-43.3	20.2	0.00e+00	22	38	0	509607936	56	6648
2026-01-02 15:54:29.17	357.27	31.57	-42.1	-43.5	20.0	0.00e+00	92	39	0	511705088	56	6835
2026-01-02 15:54:30.18	357.04	31.72	-42.1	-43.5	20.2	0.00e+00	20	39	0	512753664	56	6818
2026-01-02 15:54:31.19	356.81	31.88	-42.1	-43.5	20.1	0.00e+00	67	39	0	514850816	56	6844
2026-01-02 15:54:32.20	356.58	32.04	-42.1	-43.4	20.1	0.00e+00	0	39	0	516947968	56	6767
2026-01-02 15:54:33.21	356.34	32.20	-42.1	-43.4	20.2	0.00e+00	23	39	0	519045120	56	6751
2026-01-02 15:54:34.22	356.10	32.36	-42.1	-43.4	20.2	0.00e+00	92	39	0	521142272	56	6763
2026-01-02 15:54:35.23	355.86	32.52	-42.0	-43.3	20.4	0.00e+00	0	39	0	523239424	56	6635
2026-01-02 15:54:36.24	355.61	32.67	-42.2	-43.6	20.0	0.00e+00	92	39	0	524288000	56	6895
2026-01-02 15:54:37.25	355.37	32.83	-42.1	-43.5	20.1	0.00e+00	0	39	0	526385152	56	6783
2026-01-02 15:54:38.26	355.12	32.99	-42.3	-43.6	20.0	0.00e+00	58	38	0	528482304	56	6921
2026-01-02 15:54:39.27	354.86	33.15	-42.4	-43.9	19.8	0.00e+00	0	39	0	530579456	56	7089
2026-01-02 15:54:40.28	354.61	33.31	-42.4	-43.7	20.0	0.00e+00	0	38	0	532676608	56	7003
2026-01-02 15:54:41.29	354.35	33.47	-42.3	-43.8	19.9	0.00e+00	2	39	0	533725184	56	7023
2026-01-02 15:54:42.30	354.09	33.63	-42.3	-43.8	19.9	0.00e+00	0	39	0	535822336	56	7034
2026-01-02 15:54:43.31	353.83	33.79	-42.5	-44.0	19.7	0.00e+00	90	39	0	537919488	56	7207
2026-01-02 15:54:44.32	353.57	33.95	-42.3	-43.8	19.9	0.00e+00	59	38	0	540016640	56	7040
2026-01-02 15:54:45.32	353.30	34.11	-42.2	-43.6	20.0	0.00e+00	90	39	0	542113792	56	6896
2026-01-02 15:54:46.33	353.03	34.27	-42.0	-43.4	20.1	0.00e+00	58	39	0	543162368	56	6760
2026-01-02 15:54:47.35	352.76	34.44	-42.0	-43.4	20.2	0.00e+00	60	38	0	545259520	56	6739
2026-01-02 15:54:48.35	352.49	34.60	-42.0	-43.4	20.2	0.00e+00	36	39	0	547356672	56	6726
2026-01-02 15:54:49.37	352.21	34.76	-42.1	-43.4	20.2	0.00e+00	59	39	0	549453824	56	6762
2026-01-02 15:54:50.37	351.93	34.92	-42.1	-43.4	20.2	0.00e+00	92	39	0	551550976	56	6757
2026-01-02 15:54:51.38	351.64	35.08	-42.0	-43.3	20.0	0.00e+00	0	39	0	552599552	56	6682
2026-01-02 15:54:52.39	351.36	35.24	-41.9	-43.2	20.5	0.00e+00	92	39	0	554696704	56	6611
2026-01-02 15:54:53.40	351.07	35.40	-41.7	-42.9	20.7	0.00e+00	22	39	0	556793856	56	6367
2026-01-02 15:54:54.41	350.78	35.56	-41.6	-42.8	20.9	0.00e+00	6	39	0	558891008	56	6281
2026-01-02 15:54:55.42	350.48	35.72	-41.5	-42.7	20.9	0.00e+00	23	39	0	560988160	56	6232
2026-01-02 15:54:56.43	350.18	35.88	-41.3	-42.5	21.2	0.00e+00	22	39	0	562036736	56	6056
2026-01-02 15:54:57.44	349.88	36.05	-41.1	-42.3	21.3	0.00e+00	92	39	0	564133888	56	5935
2026-01-02 15:54:58.45	349.58	36.21	-41.1	-42.3	21.3	0.00e+00	7	39	0	566231040	56	5938
2026-01-02 15:54:59.46	349.27	36.37	-40.9	-42.1	21.6	0.00e+00	92	39	0	568328192	56	5770
2026-01-02 15:55:00.47	348.96	36.53	-40.8	-41.9	21.7	0.00e+00	0	38	0	570425344	56	5667
2026-01-02 15:55:01.47	348.65	36.69	-40.9	-42.0	21.4	0.00e+00	65	39	0	571473920	54	6436
2026-01-02 15:55:02.48	348.33	36.85	-40.7	-41.8	21.7	0.00e+00	0	38	0	573571072	54	6288
2026-01-02 15:55:03.49	348.01	37.01	-40.5	-41.6	21.9	0.00e+00	0	38	0	575668224	54	6105
2026-01-02 15:55:04.50	347.69	37.17	-40.6	-41.7	21.9	0.00e+00	47	38	0	577765376	54	6245
2026-01-02 15:55:05.51	347.36	37.33	-40.4	-41.5	22.1	0.00e+00	0	39	0	579862528	54	6055
2026-01-02 15:55:06.52	347.03	37.48	-40.2	-41.3	22.2	0.00e+00	92	39	0	580911104	54	5930
2026-01-02 15:55:07.53	346.70	37.64	-40.4	-41.5	22.1	0.00e+00	53	39	0	583008256	54	6075
2026-01-02 15:55:08.54	346.37	37.80	-40.5	-41.5	22.0	0.00e+00	92	38	0	585105408	54	6095
2026-01-02 15:55:09.55	346.03	37.96	-40.7	-41.8	21.9	0.00e+00	55	38	0	587202560	54	6252
2026-01-02 15:55:10.56	345.68	38.12	-40.6	-41.6	21.8	0.00e+00	31	39	0	589299712	54	6165
2026-01-02 15:55:11.57	345.34	38.27	-40.7	-41.8	21.8	0.00e+00	43	38	0	591396864	54	6260
2026-01-02 15:55:12.58	344.99	38.43	-40.5	-41.6	21.9	0.00e+00	58	39	0	592445440	54	6147
2026-01-02 15:55:13.58	344.64	38.58	-40.5	-41.6	22.0	0.00e+00	91	39	0	594542592	54	6135
2026-01-02 15:55:14.60	344.28	38.74	-40.4	-41.5	22.0	0.00e+00	27	38	0	596639744	54	6049
2026-01-02 15:55:15.61	343.92	38.90	-40.4	-41.4	22.1	0.00e+00	92	38	0	598736896	54	6011
2026-01-02 15:55:16.61	343.56	39.05	-40.6	-41.6	22.0	0.00e+00	6	38	0	600834048	54	6154
2026-01-02 15:55:17.62	343.20	39.20	-40.7	-41.8	21.7	0.00e+00	31	38	0	601882624	54	6295
2026-01-02 15:55:18.63	342.83	39.36	-41.0	-42.1	21.4	0.00e+00	27	39	0	603979776	54	6529
2026-01-02 15:55:19.64	342.45	39.51	-41.1	-42.3	21.1	0.00e+00	7	39	0	606076928	54	6630
2026-01-02 15:55:20.65	342.08	39.66	-41.2	-42.4	21.2	0.00e+00	92	39	0	608174080	54	6732
2026-01-02 15:55:21.66	341.69	39.81	-41.3	-42.5	21.2	0.00e+00	7	39	0	610271232	54	6770
2026-01-02 15:55:22.67	341.31	39.96	-41.4	-42.6	21.1	0.00e+00	90	38	0	611319808	54	6897
2026-01-02 15:55:23.68	340.92	40.11	-41.4	-42.7	20.9	0.00e+00	7	38	0	613416960	54	6942
2026-01-02 15:55:24.69	340.53	40.26	-41.6	-42.9	20.8	0.00e+00	86	38	0	615514112	54	7121
2026-01-02 15:55:25.70	340.14	40.41	-41.8	-43.1	20.6	0.00e+00	59	39	0	617611264	56	6517
2026-01-02 15:55:26.71	339.74	40.55	-41.5	-42.7	21.0	0.00e+00	60	39	0	619708416	56	6204
2026-01-02 15:55:27.72	339.34	40.70	-41.2	-42.4	21.2	0.00e+00	0	39	0	620756992	56	6018
2026-01-02 15:55:28.73	338.93	40.84	-41.0	-42.2	21.5	0.00e+00	0	38	0	622854144	56	5867
2026-01-02 15:55:29.74	338.52	40.99	-40.8	-41.9	21.7	0.00e+00	91	39	0	624951296	56	5691
2026-01-02 15:55:30.75	338.11	41.13	-40.4	-41.5	22.1	0.00e+00	60	39	0	627048448	54	6045
2026-01-02 15:55:31.76	337.69	41.27	-40.2	-41.2	22.3	0.00e+00	92	39	0	629145600	54	5886
2026-01-02 15:55:32.77	337.27	41.41	-40.2	-41.3	22.4	0.00e+00	60	39	0	630194176	54	5907
2026-01-02 15:55:33.78	336.85	41.55	-39.6	-40.5	23.0	0.00e+00	25	38	0	632291328	52	6103
2026-01-02 15:55:34.79	336.42	41.69	-39.4	-40.4	22.9	0.00e+00	26	38	0	634388480	52	6008
2026-01-02 15:55:35.80	335.99	41.82	-39.3	-40.2	23.2	0.00e+00	26	39	0	636485632	52	5864
2026-01-02 15:55:36.81	335.55	41.96	-39.0	-39.9	23.5	0.00e+00	92	39	0	638582784	52	5676
2026-01-02 15:55:37.82	335.11	42.09	-38.8	-39.7	23.7	0.00e+00	0	39	0	639631360	52	5509
2026-01-02 15:55:38.83	334.67	42.22	-38.9	-39.8	23.5	0.00e+00	92	39	0	641728512	52	5606
2026-01-02 15:55:39.83	334.23	42.35	-38.7	-39.6	23.8	0.00e+00	0	39	0	643825664	50	6134
2026-01-02 15:55:40.84	333.78	42.48	-38.7	-39.6	23.7	0.00e+00	73	38	0	645922816	50	6170
2026-01-02 15:55:41.85	333.33	42.61	-38.5	-39.4	23.7	0.00e+00	0	39	0	648019968	50	5976
2026-01-02 15:55:42.86	332.87	42.73	-38.6	-39.4	23.8	0.00e+00	0	38	0	649068544	50	6030
2026-01-02 15:55:43.87	332.41	42.86	-38.6	-39.4	23.9	0.00e+00	90	39	0	651165696	50	6033
2026-01-02 15:55:44.88	331.94	42.98	-38.7	-39.6	23.8	0.00e+00	0	38	0	653262848	50	6141
2026-01-02 15:55:45.89	331.48	43.10	-38.5	-39.4	24.0	0.00e+00	91	39	0	655360000	50	5994
2026-01-02 15:55:46.90	331.01	43.22	-38.4	-39.3	24.1	0.00e+00	0	39	0	657457152	50	5935
2026-01-02 15:55:47.91	330.53	43.34	-38.5	-39.4	23.9	0.00e+00	69	39	0	659554304	50	5985
2026-01-02 15:55:48.92	330.05	43.45	-38.6	-39.5	23.9	0.00e+00	0	39	0	660602880	50	6058
2026-01-02 15:55:49.93	329.57	43.56	-38.8	-39.7	23.6	0.00e+00	0	39	0	662700032	50	6230
2026-01-02 15:55:50.94	329.09	43.67	-39.0	-39.9	23.4	0.00e+00	0	39	0	664797184	50	6388
2026-01-02 15:55:51.95	328.60	43.78	-39.3	-40.2	23.1	0.00e+00	0	39	0	666894336	50	6593
2026-01-02 15:55:52.96	328.11	43.89	-39.8	-40.8	22.7	0.00e+00	90	39	0	668991488	52	6281
2026-01-02 15:55:53.97	327.61	44.00	-40.3	-41.3	22.2	0.00e+00	23	39	0	670040064	52	6649
2026-01-02 15:55:54.98	327.11	44.10	-40.3	-41.4	22.2	0.00e+00	91	39	0	672137216	52	6703
2026-01-02 15:55:55.99	326.61	44.20	-40.3	-41.3	22.0	0.00e+00	21	39	0	674234368	52	6671
2026-01-02 15:55:57.00	326.11	44.30	-40.2	-41.2	22.4	0.00e+00	22	39	0	676331520	52	6575
2026-01-02 15:55:58.01	325.60	44.39	-39.8	-40.8	22.8	0.00e+00	22	39	0	678428672	52	6256
2026-01-02 15:55:59.02	325.09	44.49	-40.0	-41.0	22.5	0.00e+00	0	39	0	679477248	52	6420
2026-01-02 15:56:00.03	324.57	44.58	-40.2	-41.2	22.4	0.00e+00	92	38	0	681574400	52	6573
2026-01-02 15:56:01.04	324.06	44.67	-40.0	-41.0	22.5	0.00e+00	20	39	0	683671552	52	6445
2026-01-02 15:56:02.05	323.54	44.76	-40.2	-41.2	22.4	0.00e+00	91	38	0	685768704	52	6557
2026-01-02 15:56:03.06	323.01	44.84	-40.3	-41.4	22.1	0.00e+00	0	39	0	687865856	52	6727
2026-01-02 15:56:04.07	322.49	44.92	-40.2	-41.2	22.4	0.00e+00	21	38	0	688914432	52	6576
2026-01-02 15:56:05.08	321.96	45.00	-40.2	-41.3	22.3	0.00e+00	0	39	0	691011584	52	6626
2026-01-02 15:56:06.09	321.43	45.08	-40.3	-41.3	22.2	0.00e+00	0	39	0	693108736	52	6691
2026-01-02 15:56:07.09	320.90	45.15	-40.5	-41.6	21.9	0.00e+00	38	38	0	695205888	52	6892
2026-01-02 15:56:08.10	320.37	45.22	-40.5	-41.6	22.1	0.00e+00	56	38	0	697303040	52	6862
2026-01-02 15:56:09.11	319.83	45.29	-40.5	-41.5	22.1	0.00e+00	92	38	0	698351616	52	6814
2026-01-02 15:56:10.12	319.29	45.36	-40.6	-41.6	21.9	0.00e+00	0	39	0	700448768	52	6926
2026-01-02 15:56:11.13	318.75	45.42	-40.9	-42.0	21.7	0.00e+00	0	39	0	702545920	54	6417
2026-01-02 15:56:12.14	318.20	45.48	-41.2	-42.4	21.2	0.00e+00	0	39	0	704643072	54	6737
2026-01-02 15:56:13.15	317.65	45.54	-41.5	-42.7	21.0	0.00e+00	19	39	0	706740224	54	7004
2026-01-02 15:56:14.16	317.10	45.60	-41.3	-42.6	21.2	0.00e+00	32	38	0	707788800	54	6849
2026-01-02 15:56:15.17	316.55	45.65	-41.4	-42.6	20.9	0.00e+00	20	39	0	709885952	54	6926
2026-01-02 15:56:16.18	316.00	45.70	-41.7	-43.0	20.8	0.00e+00	91	39	0	711983104	54	7218
2026-01-02 15:56:17.19	315.45	45.74	-41.5	-42.7	21.0	0.00e+00	55	39	0	714080256	54	6975
2026-01-02 15:56:18.20	314.89	45.79	-41.1	-42.3	21.4	0.00e+00	90	39	0	716177408	54	6628
2026-01-02 15:56:19.21	314.33	45.83	-40.6	-41.7	21.9	0.00e+00	0	39	0	717225984	54	6203
2026-01-02 15:56:20.22	313.78	45.87	-40.8	-41.8	21.8	0.00e+00	20	39	0	719323136	54	6314
2026-01-02 15:56:21.23	313.22	45.90	-40.9	-42.1	21.6	0.00e+00	21	39	0	721420288	54	6479
2026-01-02 15:56:22.23	312.66	45.93	-41.3	-42.5	21.2	0.00e+00	19	39	0	723517440	54	6775
2026-01-02 15:56:23.24	312.10	45.96	-41.9	-43.2	20.4	0.00e+00	91	39	0	725614592	56	6590
2026-01-02 15:56:24.25	311.53	45.99	-42.3	-43.6	20.2	0.00e+00	0	38	0	727711744	56	6923
2026-01-02 15:56:25.26	310.97	46.01	-42.1	-43.5	20.4	0.00e+00	92	39	0	728760320	56	6784
2026-01-02 15:56:26.27	310.41	46.03	-41.8	-43.0	20.6	0.00e+00	2	39	0	730857472	56	6454
2026-01-02 15:56:27.28	309.84	46.05	-41.5	-42.7	21.1	0.00e+00	0	38	0	732954624	56	6191
2026-01-02 15:56:28.29	309.27	46.06	-41.7	-43.0	20.8	0.00e+00	0	39	0	735051776	56	6428
2026-01-02 15:56:29.30	308.71	46.07	-41.8	-43.0	20.6	0.00e+00	59	39	0	737148928	56	6434
2026-01-02 15:56:30.31	308.14	46.08	-41.8	-43.0	20.9	0.00e+00	75	39	0	738197504	56	6435
2026-01-02 15:56:31.32	307.57	46.08	-41.7	-42.9	20.8	0.00e+00	58	38	0	740294656	56	6388
2026-01-02 15:56:32.33	307.01	46.08	-41.5	-42.8	21.0	0.00e+00	91	38	0	742391808	56	6250
2026-01-02 15:56:33.34	306.44	46.08	-41.2	-42.3	21.4	0.00e+00	57	39	0	744488960	56	5944
2026-01-02 15:56:34.35	305.87	46.07	-41.0	-42.1	21.4	0.00e+00	72	39	0	745537536	56	5820
2026-01-02 15:56:35.36	305.30	46.07	-41.1	-42.2	21.5	0.00e+00	0	39	0	747634688	56	5851
2026-01-02 15:56:36.37	304.74	46.05	-41.2	-42.3	21.4	0.00e+00	28	39	0	749731840	56	5963
2026-01-02 15:56:37.38	304.17	46.04	-41.1	-42.3	21.6	0.00e+00	0	39	0	751828992	56	5897
2026-01-02 15:56:38.39	303.61	46.02	-41.1	-42.3	21.4	0.00e+00	29	39	0	753926144	56	5929
2026-01-02 15:56:39.40	303.04	46.00	-41.3	-42.5	21.3	0.00e+00	91	39	0	756023296	56	6056
2026-01-02 15:56:40.41	302.48	45.98	-41.6	-42.8	21.0	0.00e+00	5	39	0	757071872	56	6266
2026-01-02 15:56:41.41	301.92	45.95	-41.7	-43.0	20.8	0.00e+00	92	39	0	759169024	56	6408
2026-01-02 15:56:42.43	301.35	45.92	-42.0	-43.4	20.5	0.00e+00	6	39	0	761266176	56	6697
2026-01-02 15:56:43.44	300.79	45.89	-41.9	-43.2	20.6	0.00e+00	0	39	0	763363328	56	6612
2026-01-02 15:56:44.45	300.23	45.85	-41.6	-42.8	21.0	0.00e+00	5	39	0	765460480	56	6300
2026-01-02 15:56:45.46	299.67	45.81	-41.3	-42.5	21.3	0.00e+00	6	39	0	766509056	56	6067
2026-01-02 15:56:46.47	299.12	45.77	-41.5	-42.7	20.9	0.00e+00	92	39	0	768606208	56	6228
2026-01-02 15:56:47.48	298.56	45.73	-41.6	-42.8	21.0	0.00e+00	6	38	0	770703360	56	6255
2026-01-02 15:56:48.49	298.01	45.68	-41.7	-43.0	20.8	0.00e+00	92	39	0	772800512	56	6411
2026-01-02 15:56:49.50	297.45	45.63	-42.2	-43.5	20.2	0.00e+00	6	39	0	774897664	56	6842
2026-01-02 15:56:50.50	296.91	45.57	-42.9	-44.4	19.5	0.00e+00	0	39	0	775946240	58	6746
2026-01-02 15:56:51.51	296.36	45.52	-42.8	-44.3	19.6	0.00e+00	0	39	0	778043392	58	6632
2026-01-02 15:56:52.52	295.81	45.46	-42.2	-43.6	20.2	0.00e+00	58	39	0	780140544	58	6118
2026-01-02 15:56:53.53	295.27	45.40	-42.0	-43.3	20.5	0.00e+00	59	39	0	782237696	58	5914
2026-01-02 15:56:54.54	294.73	45.33	-42.0	-43.3	20.4	0.00e+00	59	39	0	784334848	58	5947
2026-01-02 15:56:55.55	294.19	45.27	-41.9	-43.2	20.5	0.00e+00	90	39	0	785383424	58	5862
2026-01-02 15:56:56.56	293.65	45.20	-42.2	-43.5	20.4	0.00e+00	56	39	0	787480576	58	6045
2026-01-02 15:56:57.57	293.12	45.12	-42.7	-44.1	19.8	0.00e+00	0	39	0	789577728	58	6519
2026-01-02 15:56:58.58	292.58	45.05	-42.3	-43.6	20.2	0.00e+00	27	39	0	791674880	58	6146
2026-01-02 15:56:59.59	292.05	44.97	-41.8	-43.0	20.7	0.00e+00	59	39	0	793772032	58	5757
2026-01-02 15:57:00.60	291.53	44.89	-41.7	-42.9	20.8	0.00e+00	41	39	0	794820608	56	6363
2026-01-02 15:57:01.61	291.00	44.81	-41.7	-42.9	21.0	0.00e+00	6	39	0	796917760	56	6361
2026-01-02 15:57:02.62	290.48	44.72	-41.3	-42.5	21.1	0.00e+00	92	39	0	799014912	56	6075
2026-01-02 15:57:03.63	289.96	44.63	-41.4	-42.6	21.2	0.00e+00	34	39	0	801112064	56	6143
2026-01-02 15:57:04.64	289.44	44.54	-41.2	-42.3	21.5	0.00e+00	92	39	0	803209216	56	5961
2026-01-02 15:57:05.65	288.93	44.45	-40.8	-42.0	21.8	0.00e+00	7	39	0	804257792	56	5698
2026-01-02 15:57:06.65	288.42	44.35	-40.4	-41.5	22.1	0.00e+00	0	39	0	806354944	54	6051
2026-01-02 15:57:07.67	287.91	44.26	-40.4	-41.4	22.2	0.00e+00	7	39	0	808452096	54	6014
2026-01-02 15:57:08.68	287.41	44.16	-40.2	-41.2	22.4	0.00e+00	6	39	0	810549248	54	5896
2026-01-02 15:57:09.68	286.91	44.06	-40.3	-41.3	22.1	0.00e+00	92	39	0	812646400	54	5935
2026-01-02 15:57:10.69	286.41	43.95	-40.4	-41.4	22.3	0.00e+00	7	39	0	813694976	54	6003
2026-01-02 15:57:11.70	285.92	43.85	-40.2	-41.3	22.2	0.00e+00	92	39	0	815792128	54	5927
2026-01-02 15:57:12.71	285.43	43.74	-40.1	-41.2	22.5	0.00e+00	0	39	0	817889280	54	5842
2026-01-02 15:57:13.72	284.94	43.63	-39.6	-40.5	23.1	0.00e+00	1	39	0	819986432	52	6103
2026-01-02 15:57:14.73	284.46	43.51	-39.4	-40.3	23.2	0.00e+00	0	39	0	822083584	52	5943
2026-01-02 15:57:15.74	283.98	43.40	-38.9	-39.8	23.7	0.00e+00	59	39	0	824180736	52	5605
2026-01-02 15:57:16.75	283.50	43.28	-38.9	-39.8	23.7	0.00e+00	7	39	0	825229312	52	5621
2026-01-02 15:57:17.76	283.02	43.17	-38.9	-39.8	23.8	0.00e+00	22	39	0	827326464	52	5581
2026-01-02 15:57:18.77	282.55	43.05	-38.8	-39.7	23.7	0.00e+00	92	39	0	829423616	52	5520
2026-01-02 15:57:19.78	282.09	42.93	-38.7	-39.6	23.8	0.00e+00	23	39	0	831520768	50	6126
2026-01-02 15:57:20.79	281.62	42.80	-38.5	-39.4	24.0	0.00e+00	92	39	0	833617920	50	5981
2026-01-02 15:57:21.80	281.16	42.68	-38.2	-39.0	24.4	0.00e+00	59	39	0	834666496	50	5724
2026-01-02 15:57:22.81	280.71	42.55	-37.9	-38.7	24.5	0.00e+00	20	39	0	836763648	50	5516
2026-01-02 15:57:23.81	280.26	42.42	-37.6	-38.4	24.9	0.00e+00	27	39	0	838860800	48	5974
2026-01-02 15:57:24.83	279.81	42.29	-37.5	-38.3	24.8	0.00e+00	0	39	0	840957952	48	5959
2026-01-02 15:57:25.83	279.37	42.16	-37.4	-38.2	24.9	0.00e+00	92	39	0	843055104	48	5864
2026-01-02 15:57:26.85	278.92	42.03	-37.3	-38.1	24.9	0.00e+00	0	39	0	844103680	48	5794
2026-01-02 15:57:27.86	278.48	41.89	-37.2	-38.0	25.2	0.00e+00	92	39	0	846200832	48	5703
2026-01-02 15:57:28.87	278.05	41.76	-37.3	-38.1	25.0	0.00e+00	0	39	0	848297984	48	5809
2026-01-02 15:57:29.88	277.62	41.62	-37.4	-38.2	24.9	0.00e+00	0	39	0	850395136	48	5867
2026-01-02 15:57:30.89	277.19	41.48	-37.2	-38.0	25.2	0.00e+00	0	39	0	852492288	48	5728
2026-01-02 15:57:31.90	276.77	41.34	-37.3	-38.1	25.0	0.00e+00	0	39	0	853540864	48	5787
2026-01-02 15:57:32.91	276.35	41.20	-37.1	-37.9	25.2	0.00e+00	92	39	0	855638016	48	5650
2026-01-02 15:57:33.91	275.93	41.06	-37.3	-38.1	25.2	0.00e+00	54	39	0	857735168	48	5784
2026-01-02 15:57:34.92	275.52	40.92	-37.3	-38.1	25.0	0.00e+00	92	39	0	859832320	48	5818
2026-01-02 15:57:35.93	275.11	40.78	-37.6	-38.4	24.8	0.00e+00	0	39	0	861929472	48	6009
2026-01-02 15:57:36.94	274.71	40.63	-37.9	-38.7	24.6	0.00e+00	67	39	0	862978048	48	6225
2026-01-02 15:57:37.95	274.31	40.48	-37.7	-38.5	24.7	0.00e+00	54	39	0	865075200	48	6096
2026-01-02 15:57:38.96	273.91	40.34	-37.5	-38.3	25.0	0.00e+00	0	39	0	867172352	48	5911
2026-01-02 15:57:39.97	273.51	40.19	-37.4	-38.2	25.0	0.00e+00	0	39	0	869269504	48	5856
2026-01-02 15:57:40.98	273.12	40.04	-37.3	-38.0	25.1	0.00e+00	53	39	0	871366656	48	5752
2026-01-02 15:57:41.99	272.74	39.89	-37.3	-38.1	25.0	0.00e+00	91	39	0	872415232	48	5800
2026-01-02 15:57:43.00	272.35	39.74	-37.5	-38.3	24.9	0.00e+00	27	39	0	874512384	48	5947
2026-01-02 15:57:44.01	271.97	39.59	-37.7	-38.6	24.6	0.00e+00	50	39	0	876609536	48	6110
2026-01-02 15:57:45.02	271.60	39.43	-37.9	-38.8	24.5	0.00e+00	22	39	0	878706688	48	6256
2026-01-02 15:57:46.03	271.22	39.28	-38.0	-38.8	24.4	0.00e+00	23	39	0	880803840	48	6265
2026-01-02 15:57:47.04	270.86	39.13	-37.9	-38.7	24.6	0.00e+00	0	39	0	881852416	48	6232
2026-01-02 15:57:48.04	270.49	38.98	-37.7	-38.5	24.7	0.00e+00	23	39	0	883949568	48	6100
2026-01-02 15:57:49.05	270.13	38.82	-37.8	-38.6	24.6	0.00e+00	90	39	0	886046720	48	6134
2026-01-02 15:57:50.06	269.77	38.66	-37.8	-38.7	24.4	0.00e+00	0	39	0	888143872	48	6185
2026-01-02 15:57:51.07	269.42	38.51	-37.8	-38.7	24.5	0.00e+00	90	39	0	890241024	48	6188
2026-01-02 15:57:52.08	269.06	38.35	-38.0	-38.8	24.3	0.00e+00	0	39	0	892338176	48	6299
2026-01-02 15:57:53.09	268.72	38.19	-38.1	-39.0	24.2	0.00e+00	0	39	0	893386752	48	6418
2026-01-02 15:57:54.10	268.37	38.04	-38.4	-39.2	24.0	0.00e+00	0	39	0	895483904	48	6609
2026-01-02 15:57:55.11	268.03	37.88	-38.4	-39.3	24.0	0.00e+00	0	39	0	897581056	48	6620
2026-01-02 15:57:56.12	267.69	37.72	-38.5	-39.3	24.0	0.00e+00	92	39	0	899678208	48	6657
2026-01-02 15:57:57.13	267.36	37.56	-38.5	-39.4	23.9	0.00e+00	60	39	0	901775360	48	6733
2026-01-02 15:57:58.14	267.02	37.40	-38.9	-39.7	23.7	0.00e+00	92	39	0	902823936	50	6243
2026-01-02 15:57:59.15	266.69	37.24	-38.9	-39.8	23.6	0.00e+00	61	39	0	904921088	50	6282
2026-01-02 15:58:00.15	266.37	37.08	-39.1	-40.0	23.5	0.00e+00	22	39	0	907018240	50	6411
2026-01-02 15:58:01.17	266.05	36.92	-38.9	-39.8	23.6	0.00e+00	59	39	0	909115392	50	6247
2026-01-02 15:58:02.18	265.73	36.76	-38.9	-39.8	23.6	0.00e+00	0	39	0	911212544	50	6300
2026-01-02 15:58:03.19	265.41	36.60	-39.0	-39.9	23.6	0.00e+00	14	39	0	912261120	50	6337
2026-01-02 15:58:04.19	265.10	36.44	-39.1	-40.0	23.5	0.00e+00	53	39	0	914358272	50	6402
2026-01-02 15:58:05.21	264.79	36.28	-39.1	-40.0	23.4	0.00e+00	90	39	0	916455424	50	6415
2026-01-02 15:58:06.21	264.49	36.12	-43.4	-44.9	21.0	6.03e-01	28	39	104	917504000	60	6364
2026-01-02 15:58:07.22	264.18	35.96	-39.8	-40.8	21.3	0.00e+00	92	39	0	918552576	52	6310
2026-01-02 15:58:08.23	263.88	35.80	-40.7	-41.8	22.5	0.00e+00	0	39	0	919601152	54	6253
2026-01-02 15:58:09.24	263.58	35.64	-40.3	-41.4	22.2	0.00e+00	27	39	0	921698304	54	5980
2026-01-02 15:58:10.25	263.29	35.47	-40.5	-41.6	22.0	0.00e+00	0	39	0	923795456	54	6105
2026-01-02 15:58:11.26	263.00	35.31	-40.5	-41.5	22.1	0.00e+00	0	39	0	925892608	54	6098
2026-01-02 15:58:12.27	262.71	35.15	-40.3	-41.3	22.2	0.00e+00	92	39	0	927989760	54	5935
2026-01-02 15:58:13.28	262.42	34.99	-40.4	-41.5	22.2	0.00e+00	0	39	0	929038336	54	6039
2026-01-02 15:58:14.29	262.14	34.83	-40.7	-41.8	21.7	0.00e+00	91	39	0	931135488	54	6259
2026-01-02 15:58:15.30	261.86	34.67	-41.1	-42.2	21.3	0.00e+00	0	39	0	933232640	54	6602
2026-01-02 15:58:16.31	261.58	34.50	-41.2	-42.4	21.2	0.00e+00	57	39	0	935329792	54	6740
2026-01-02 15:58:17.32	261.31	34.34	-41.7	-43.0	20.7	0.00e+00	48	39	0	937426944	54	7183
2026-01-02 15:58:18.33	261.03	34.18	-41.9	-43.2	20.6	0.00e+00	0	39	0	938475520	56	6550
2026-01-02 15:58:19.34	260.76	34.02	-41.9	-43.1	20.6	0.00e+00	37	39	0	940572672	56	6524
2026-01-02 15:58:20.35	260.50	33.86	-41.8	-43.0	20.7	0.00e+00	58	39	0	942669824	56	6453
2026-01-02 15:58:21.36	260.23	33.70	-41.9	-43.1	20.6	0.00e+00	92	39	0	944766976	56	6504
2026-01-02 15:58:22.36	259.97	33.54	-42.1	-43.4	20.3	0.00e+00	56	39	0	946864128	56	6704
2026-01-02 15:58:23.38	259.71	33.38	-42.2	-43.6	20.1	0.00e+00	57	39	0	948961280	56	6871
2026-01-02 15:58:24.38	259.46	33.22	-42.3	-43.6	20.2	0.00e+00	24	39	0	950009856	56	6924
2026-01-02 15:58:25.40	259.20	33.06	-42.5	-43.9	19.9	0.00e+00	24	39	0	952107008	56	7149
2026-01-02 15:58:26.40	258.95	32.90	-42.6	-44.1	19.8	0.00e+00	0	39	0	954204160	56	7267
2026-01-02 15:58:27.41	258.70	32.74	-42.6	-44.0	19.8	0.00e+00	0	39	0	956301312	56	7187
2026-01-02 15:58:28.42	258.46	32.58	-42.5	-43.9	19.8	0.00e+00	92	39	0	958398464	56	7138
2026-01-02 15:58:29.43	258.21	32.42	-42.7	-44.1	19.8	0.00e+00	25	39	0	959447040	56	7318
2026-01-02 15:58:30.44	257.97	32.26	-42.5	-43.9	19.8	0.00e+00	92	39	0	961544192	58	6331
2026-01-02 15:58:31.45	257.73	32.10	-42.4	-43.7	19.9	0.00e+00	7	39	0	963641344	58	6223
2026-01-02 15:58:32.46	257.50	31.94	-42.1	-43.4	20.2	0.00e+00	0	39	0	965738496	58	6029
2026-01-02 15:58:33.47	257.26	31.78	-42.1	-43.5	20.3	0.00e+00	0	39	0	967835648	58	6040
2026-01-02 15:58:34.47	257.03	31.63	-41.8	-43.0	20.3	0.00e+00	6	39	0	968884224	58	5748
2026-01-02 15:58:35.48	256.80	31.47	-42.0	-43.3	20.4	0.00e+00	91	39	0	970981376	56	6635
2026-01-02 15:58:36.49	256.57	31.31	-41.8	-43.0	20.6	0.00e+00	6	39	0	973078528	56	6460
2026-01-02 15:58:37.50	256.35	31.16	-41.9	-43.2	20.4	0.00e+00	92	39	0	975175680	56	6568
2026-01-02 15:58:38.51	256.13	31.00	-41.9	-43.2	20.5	0.00e+00	0	39	0	977272832	56	6605
2026-01-02 15:58:39.51	255.91	30.84	-41.9	-43.2	20.5	0.00e+00	0	39	0	978321408	56	6598
2026-01-02 15:58:40.52	255.69	30.69	-42.0	-43.3	20.5	0.00e+00	52	39	0	980418560	56	6618
2026-01-02 15:58:41.53	255.47	30.53	-42.0	-43.3	20.4	0.00e+00	7	39	0	982515712	56	6688
2026-01-02 15:58:42.54	255.26	30.38	-41.9	-43.2	20.5	0.00e+00	1	39	0	984612864	56	6570
2026-01-02 15:58:43.55	255.04	30.22	-41.8	-43.0	20.7	0.00e+00	33	39	0	986710016	56	6451
2026-01-02 15:58:44.56	254.83	30.07	-41.5	-42.7	21.0	0.00e+00	92	39	0	987758592	56	6226
2026-01-02 15:58:45.57	254.62	29.91	-41.5	-42.7	21.0	0.00e+00	56	39	0	989855744	56	6192
2026-01-02 15:58:46.58	254.42	29.76	-41.4	-42.6	21.2	0.00e+00	92	39	0	991952896	56	6131
2026-01-02 15:58:47.59	254.21	29.61	-41.1	-42.3	21.5	0.00e+00	55	39	0	994050048	56	5901
2026-01-02 15:58:48.60	254.01	29.45	-41.1	-42.3	21.4	0.00e+00	29	39	0	996147200	56	5919
2026-01-02 15:58:49.61	253.81	29.30	-41.0	-42.2	21.5	0.00e+00	0	39	0	997195776	56	5860
2026-01-02 15:58:50.62	253.61	29.15	-41.0	-42.2	21.4	0.00e+00	30	39	0	999292928	56	5847
2026-01-02 15:58:51.63	253.41	29.00	-41.1	-42.3	21.3	0.00e+00	92	39	0	1001390080	56	5949
2026-01-02 15:58:52.64	253.22	28.85	-41.1	-42.3	21.4	0.00e+00	9	39	0	1003487232	56	5905
2026-01-02 15:58:53.64	253.03	28.70	-41.1	-42.2	21.4	0.00e+00	90	39	0	1005584384	56	5871
2026-01-02 15:58:54.66	252.83	28.55	-41.1	-42.3	21.4	0.00e+00	0	39	0	1006632960	56	5900
2026-01-02 15:58:55.67	252.64	28.40	-41.2	-42.3	21.4	0.00e+00	0	39	0	1008730112	56	5964
2026-01-02 15:58:56.68	252.46	28.25	-41.0	-42.2	21.4	0.00e+00	5	39	0	1010827264	56	5859
2026-01-02 15:58:57.68	252.27	28.10	-41.0	-42.1	21.5	0.00e+00	0	39	0	1012924416	56	5823
2026-01-02 15:58:58.69	252.09	27.95	-41.1	-42.3	21.4	0.00e+00	92	39	0	1015021568	56	5899
2026-01-02 15:58:59.70	251.91	27.80	-41.1	-42.3	21.3	0.00e+00	0	39	0	1017118720	56	5906
2026-01-02 15:59:00.71	251.72	27.66	-41.1	-42.3	21.5	0.00e+00	91	39	0	1018167296	56	5935
2026-01-02 15:59:01.72	251.55	27.51	-40.9	-42.0	21.5	0.00e+00	0	39	0	1020264448	56	5738
2026-01-02 15:59:02.73	251.37	27.36	-41.0	-42.2	21.5	0.00e+00	67	39	0	1022361600	56	5849
2026-01-02 15:59:03.74	251.19	27.22	-40.8	-41.9	21.6	0.00e+00	0	39	0	1024458752	56	5679
2026-01-02 15:59:04.75	251.02	27.07	-40.8	-41.9	21.7	0.00e+00	0	39	0	1025507328	54	6336
2026-01-02 15:59:05.76	250.84	26.92	-40.7	-41.8	21.7	0.00e+00	92	39	0	1027604480	54	6291
2026-01-02 15:59:06.77	250.67	26.78	-40.8	-41.9	21.7	0.00e+00	29	39	0	1029701632	54	6340
2026-01-02 15:59:07.78	250.50	26.64	-40.6	-41.7	21.9	0.00e+00	91	39	0	1031798784	54	6188
2026-01-02 15:59:08.79	250.34	26.49	-40.5	-41.6	21.9	0.00e+00	37	39	0	1033895936	54	6154
2026-01-02 15:59:09.80	250.17	26.35	-40.5	-41.6	21.8	0.00e+00	90	39	0	1034944512	54	6135
2026-01-02 15:59:10.81	250.00	26.21	-40.6	-41.7	21.8	0.00e+00	30	39	0	1037041664	54	6244
2026-01-02 15:59:11.82	249.84	26.06	-40.7	-41.9	21.7	0.00e+00	30	39	0	1039138816	54	6322
2026-01-02 15:59:12.82	249.68	25.92	-40.9	-42.0	21.5	0.00e+00	40	39	0	1041235968	54	6436
2026-01-02 15:59:13.83	249.52	25.78	-41.0	-42.2	21.3	0.00e+00	26	39	0	1043333120	54	6578
2026-01-02 15:59:14.84	249.36	25.64	-40.9	-42.1	21.5	0.00e+00	92	39	0	1045430272	54	6487
2026-01-02 15:59:15.85	249.20	25.50	-40.9	-42.0	21.5	0.00e+00	2	39	0	1046478848	54	6460
2026-01-02 15:59:16.86	249.05	25.36	-40.7	-41.8	21.7	0.00e+00	90	39	0	1048576000	54	6255
2026-01-02 15:59:17.87	248.89	25.22	-40.2	-41.2	22.2	0.00e+00	0	39	0	1050673152	54	5886
2026-01-02 15:59:18.88	248.74	25.08	-40.3	-41.4	22.2	0.00e+00	2	39	0	1052770304	54	5982
2026-01-02 15:59:19.89	248.59	24.95	-40.1	-41.1	22.3	0.00e+00	0	39	0	1054867456	54	5802
2026-01-02 15:59:20.90	248.44	24.81	-39.9	-40.9	22.5	0.00e+00	0	39	0	1055916032	54	5690
2026-01-02 15:59:21.91	248.29	24.67	-39.8	-40.8	22.6	0.00e+00	92	39	0	1058013184	52	6279
2026-01-02 15:59:22.92	248.14	24.53	-39.9	-40.9	22.4	0.00e+00	0	39	0	1060110336	52	6350
2026-01-02 15:59:23.93	247.99	24.40	-39.9	-40.9	22.5	0.00e+00	92	39	0	1062207488	52	6367
2026-01-02 15:59:24.94	247.85	24.26	-40.0	-41.0	22.4	0.00e+00	0	39	0	1064304640	52	6463
2026-01-02 15:59:25.95	247.70	24.13	-40.1	-41.1	22.3	0.00e+00	92	39	0	1065353216	52	6488
2026-01-02 15:59:26.96	247.56	23.99	-40.2	-41.2	22.2	0.00e+00	55	39	0	1067450368	52	6583
2026-01-02 15:59:27.96	247.42	23.86	-40.3	-41.4	22.1	0.00e+00	25	39	0	1069547520	52	6695
2026-01-02 15:59:28.97	247.28	23.72	-40.3	-41.4	22.0	0.00e+00	38	39	0	1071644672	52	6716
2026-01-02 15:59:29.98	247.14	23.59	-40.5	-41.6	21.9	0.00e+00	26	39	0	1073741824	52	6872
2026-01-02 15:59:30.99	247.00	23.46	-40.6	-41.7	21.7	0.00e+00	92	39	0	1074790400	52	6962
2026-01-02 15:59:32.00	246.86	23.33	-40.6	-41.7	21.8	0.00e+00	0	39	0	1076887552	52	6981
2026-01-02 15:59:33.01	246.73	23.19	-40.7	-41.8	21.8	0.00e+00	92	39	0	1078984704	52	7019
2026-01-02 15:59:34.02	246.59	23.06	-40.6	-41.7	21.8	0.00e+00	0	39	0	1081081856	52	6957
2026-01-02 15:59:35.03	246.46	22.93	-40.7	-41.8	21.8	0.00e+00	30	39	0	1083179008	52	7015
2026-01-02 15:59:36.04	246.33	22.80	-40.5	-41.6	21.8	0.00e+00	0	39	0	1084227584	52	6896
2026-01-02 15:59:37.05	246.20	22.67	-40.6	-41.7	21.8	0.00e+00	0	39	0	1086324736	52	6952
2026-01-02 15:59:38.06	246.07	22.54	-40.6	-41.7	21.7	0.00e+00	92	39	0	1088421888	52	7004
2026-01-02 15:59:39.07	245.94	22.41	-40.7	-41.9	21.5	0.00e+00	0	39	0	1090519040	52	7114
2026-01-02 15:59:40.08	245.81	22.29	-40.4	-41.5	21.9	0.00e+00	92	39	0	1092616192	52	6817
2026-01-02 15:59:41.09	245.68	22.16	-40.5	-41.5	21.9	0.00e+00	0	39	0	1093664768	52	6847
2026-01-02 15:59:42.10	245.56	22.03	-40.3	-41.4	22.0	0.00e+00	7	39	0	1095761920	52	6696
2026-01-02 15:59:43.11	245.43	21.90	-40.2	-41.2	22.2	0.00e+00	0	39	0	1097859072	52	6583
2026-01-02 15:59:44.12	245.31	21.78	-40.0	-41.1	22.3	0.00e+00	55	39	0	1099956224	52	6472
2026-01-02 15:59:45.13	245.18	21.65	-40.0	-41.0	22.3	0.00e+00	92	39	0	1102053376	52	6464
2026-01-02 15:59:46.14	245.06	21.53	-40.1	-41.1	22.2	0.00e+00	0	39	0	1103101952	52	6524
2026-01-02 15:59:47.14	244.94	21.40	-40.0	-41.1	22.3	0.00e+00	92	39	0	1105199104	52	6476
2026-01-02 15:59:48.16	244.82	21.28	-40.2	-41.2	22.2	0.00e+00	24	39	0	1107296256	52	6576
2026-01-02 15:59:49.17	244.70	21.15	-40.2	-41.3	22.2	0.00e+00	27	39	0	1109393408	52	6622
2026-01-02 15:59:50.18	244.59	21.03	-40.3	-41.3	22.1	0.00e+00	57	39	0	1111490560	52	6684
2026-01-02 15:59:51.18	244.47	20.91	-40.2	-41.3	22.1	0.00e+00	54	39	0	1112539136	52	6655
2026-01-02 15:59:52.19	244.35	20.78	-40.2	-41.3	22.1	0.00e+00	0	39	0	1114636288	52	6644
2026-01-02 15:59:53.20	244.24	20.66	-40.1	-41.2	22.2	0.00e+00	2	39	0	1116733440	52	6568
2026-01-02 15:59:54.21	244.13	20.54	-40.1	-41.2	22.1	0.00e+00	92	39	0	1118830592	52	6563
2026-01-02 15:59:55.22	244.01	20.42	-40.1	-41.1	22.3	0.00e+00	0	39	0	1120927744	52	6527
2026-01-02 15:59:56.23	243.90	20.30	-40.1	-41.1	22.2	0.00e+00	91	39	0	1123024896	52	6534
2026-01-02 15:59:57.24	243.79	20.18	-40.2	-41.3	22.1	0.00e+00	0	39	0	1124073472	52	6637
2026-01-02 15:59:58.25	243.68	20.06	-40.1	-41.2	22.2	0.00e+00	0	39	0	1126170624	52	6554
2026-01-02 15:59:59.26	243.57	19.94	-40.2	-41.2	22.2	0.00e+00	0	39	0	1128267776	52	6607
2026-01-02 16:00:00.27	243.46	19.82	-40.1	-41.2	22.1	0.00e+00	0	39	0	1130364928	52	6551
2026-01-02 16:00:01.28	243.35	19.70	-40.2	-41.3	22.1	0.00e+00	91	39	0	1132462080	52	6637
2026-01-02 16:00:02.29	243.25	19.58	-40.1	-41.2	22.2	0.00e+00	0	39	0	1133510656	52	6561
2026-01-02 16:00:03.30	243.14	19.47	-40.2	-41.3	22.1	0.00e+00	92	39	0	1135607808	52	6654
2026-01-02 16:00:04.31	243.03	19.35	-40.3	-41.3	21.9	0.00e+00	47	39	0	1137704960	52	6680
2026-01-02 16:00:05.32	242.93	19.23	-40.4	-41.5	21.9	0.00e+00	49	39	0	1139802112	52	6808
2026-01-02 16:00:06.33	242.83	19.12	-40.4	-41.4	21.9	0.00e+00	0	39	0	1141899264	52	6755
2026-01-02 16:00:07.34	242.72	19.00	-40.2	-41.3	22.0	0.00e+00	47	39	0	1142947840	52	6643
2026-01-02 16:00:08.34	242.62	18.89	-40.3	-41.3	22.0	0.00e+00	27	39	0	1145044992	52	6685
2026-01-02 16:00:09.35	242.52	18.77	-40.3	-41.4	21.9	0.00e+00	47	39	0	1147142144	52	6750
2026-01-02 16:00:10.37	242.42	18.66	-40.4	-41.5	21.8	0.00e+00	92	39	0	1149239296	52	6830
2026-01-02 16:00:11.37	242.32	18.54	-40.5	-41.6	21.7	0.00e+00	0	39	0	1151336448	52	6885
2026-01-02 16:00:12.39	242.22	18.43	-40.6	-41.7	21.7	0.00e+00	28	39	0	1152385024	52	6964
2026-01-02 16:00:13.39	242.12	18.32	-40.6	-41.8	21.6	0.00e+00	28	39	0	1154482176	52	7015
2026-01-02 16:00:14.40	242.03	18.20	-40.5	-41.6	21.6	0.00e+00	28	39	0	1156579328	52	6887
2026-01-02 16:00:15.41	241.93	18.09	-40.6	-41.7	21.6	0.00e+00	92	39	0	1158676480	52	6966
2026-01-02 16:00:16.42	241.83	17.98	-40.5	-41.6	21.8	0.00e+00	27	39	0	1160773632	52	6863
2026-01-02 16:00:17.43	241.74	17.87	-40.5	-41.6	21.7	0.00e+00	91	39	0	1161822208	52	6862
2026-01-02 16:00:18.44	241.64	17.76	-40.4	-41.5	21.8	0.00e+00	0	39	0	1163919360	52	6830
2026-01-02 16:00:19.45	241.55	17.65	-40.5	-41.6	21.7	0.00e+00	6	39	0	1166016512	52	6888
2026-01-02 16:00:20.46	241.46	17.54	-40.6	-41.7	21.6	0.00e+00	6	39	0	1168113664	52	6974
2026-01-02 16:00:21.47	241.36	17.43	-40.6	-41.8	21.6	0.00e+00	5	39	0	1170210816	52	7024
2026-01-02 16:00:22.48	241.27	17.32	-40.4	-41.5	21.8	0.00e+00	0	39	0	1171259392	52	6799
2026-01-02 16:00:23.49	241.18	17.21	-40.4	-41.5	21.8	0.00e+00	0	39	0	1173356544	52	6789
2026-01-02 16:00:24.50	241.09	17.10	-40.5	-41.6	21.7	0.00e+00	92	39	0	1175453696	52	6860
2026-01-02 16:00:25.51	241.00	16.99	-40.5	-41.6	21.6	0.00e+00	5	39	0	1177550848	52	6893
2026-01-02 16:00:26.52	240.91	16.88	-40.6	-41.7	21.6	0.00e+00	92	39	0	1179648000	52	6997
2026-01-02 16:00:27.53	240.82	16.78	-40.4	-41.5	21.7	0.00e+00	51	39	0	1180696576	52	6844
2026-01-02 16:00:28.54	240.74	16.67	-40.4	-41.5	21.8	0.00e+00	2	39	0	1182793728	52	6793
2026-01-02 16:00:29.54	240.65	16.56	-40.4	-41.5	21.7	0.00e+00	50	39	0	1184890880	52	6841
2026-01-02 16:00:30.55	240.56	16.46	-40.5	-41.6	21.7	0.00e+00	53	39	0	1186988032	52	6863
2026-01-02 16:00:31.56	240.48	16.35	-40.5	-41.7	21.6	0.00e+00	92	39	0	1189085184	52	6931
2026-01-02 16:00:32.57	240.39	16.25	-40.6	-41.7	21.6	0.00e+00	36	39	0	1191182336	52	6996
2026-01-02 16:00:33.58	240.31	16.14	-40.7	-41.8	21.4	0.00e+00	92	39	0	1192230912	52	7072
