passes_logs/2026/01/02/R4.6S_Anadyr/R4.6S_Anadyr__20260102_220418_SUOMI_NPP_rec.log

#Pass ID: 20260102_220418_SUOMI NPP
#Satellite: SUOMI NPP
#Configuration: NPP
#almurnet v.1.7.20251203
#Start time: 2026-01-02 22:04:21

#Version: 2.2.20231116
#Station: R4.6S_Anadyr
#Location: 177.4865 lon 64.73178 lat
#TLE: 1 37849U 11061A   26001.07732418  .00000182  00000+0  10735-3 0  9990
#TLE: 2 37849  98.7795 303.2470 0002580  87.2016 272.9455 14.19520779734739

#Time	Az	El	Level	Level2	SNR	BER	BlckErr	Temp	State	Recorded	gain1	gain2
2026-01-02 22:04:21.49	102.98	0.17	-49.9	-63.8	3.3	1.54e+00	0	38	0	0	60	55672
2026-01-02 22:04:22.50	102.93	0.23	-49.9	-65.2	3.6	1.51e+00	0	38	104	0	60	65492
2026-01-02 22:04:23.50	102.88	0.28	-50.0	-65.2	3.6	1.51e+00	0	38	104	0	60	65607
2026-01-02 22:04:24.52	102.82	0.34	-49.7	-65.1	3.6	1.51e+00	0	38	104	0	60	65397
2026-01-02 22:04:25.53	102.77	0.39	-50.0	-65.2	3.6	1.51e+00	0	38	104	0	60	65775
2026-01-02 22:04:26.54	102.72	0.45	-49.9	-65.2	3.6	1.51e+00	0	38	104	0	60	65761
2026-01-02 22:04:27.54	102.67	0.51	-49.6	-65.2	3.6	1.51e+00	0	38	104	0	60	65504
2026-01-02 22:04:28.55	102.61	0.56	-49.9	-65.1	3.6	1.51e+00	0	38	104	0	60	65228
2026-01-02 22:04:29.56	102.56	0.62	-49.8	-65.0	3.6	1.51e+00	0	38	104	0	60	64500
2026-01-02 22:04:30.57	102.51	0.67	-49.7	-65.0	3.6	1.51e+00	0	38	104	0	60	64229
2026-01-02 22:04:31.58	102.45	0.73	-49.6	-64.8	3.6	1.51e+00	0	38	104	0	60	63022
2026-01-02 22:04:32.59	102.40	0.79	-49.2	-64.6	3.6	1.51e+00	0	38	104	0	60	61093
2026-01-02 22:04:33.60	102.34	0.84	-48.9	-64.4	3.6	1.51e+00	0	38	104	0	60	59702
2026-01-02 22:04:34.61	102.29	0.90	-47.9	-63.0	3.6	1.51e+00	0	38	104	0	60	50940
2026-01-02 22:04:35.62	102.23	0.96	-46.4	-63.2	3.6	1.51e+00	0	38	104	0	60	52299
2026-01-02 22:04:36.63	102.18	1.02	-46.3	-63.1	3.6	1.51e+00	0	38	104	0	60	51815
2026-01-02 22:04:37.64	102.12	1.07	-46.2	-63.2	3.6	1.51e+00	0	38	104	0	60	52107
2026-01-02 22:04:38.65	102.07	1.13	-46.1	-63.0	3.6	1.51e+00	0	38	104	0	60	51235
2026-01-02 22:04:39.66	102.01	1.19	-45.9	-63.0	3.6	1.51e+00	0	38	104	0	60	51175
2026-01-02 22:04:40.67	101.96	1.24	-46.0	-63.1	3.6	1.51e+00	0	38	104	0	60	51808
2026-01-02 22:04:41.68	101.90	1.30	-46.0	-63.1	3.6	1.51e+00	0	38	104	0	60	51412
2026-01-02 22:04:42.69	101.84	1.36	-46.2	-63.2	3.6	1.51e+00	0	38	104	0	60	52130
2026-01-02 22:04:43.70	101.79	1.42	-46.3	-63.1	3.6	1.51e+00	0	38	104	0	60	51645
2026-01-02 22:04:44.71	101.73	1.48	-46.4	-63.0	3.6	1.51e+00	0	38	104	0	60	51292
2026-01-02 22:04:45.72	101.67	1.53	-46.5	-63.1	3.6	1.51e+00	0	38	104	0	60	51880
2026-01-02 22:04:46.73	101.62	1.59	-46.3	-63.1	3.6	1.51e+00	0	38	104	0	60	51459
2026-01-02 22:04:47.74	101.56	1.65	-46.1	-63.1	3.6	1.51e+00	0	38	104	0	60	51806
2026-01-02 22:04:48.75	101.50	1.71	-46.1	-63.1	3.6	1.51e+00	0	38	104	0	60	51691
2026-01-02 22:04:49.76	101.44	1.77	-46.4	-63.2	3.6	1.51e+00	0	38	104	0	60	51991
2026-01-02 22:04:50.77	101.38	1.82	-46.3	-63.1	3.6	1.51e+00	0	38	104	0	60	51870
2026-01-02 22:04:51.78	101.33	1.88	-46.5	-63.1	3.6	1.51e+00	0	38	104	0	60	51476
2026-01-02 22:04:52.79	101.27	1.94	-46.6	-63.1	3.6	1.51e+00	0	38	104	0	60	51815
2026-01-02 22:04:53.80	101.21	2.00	-46.6	-63.0	3.6	1.51e+00	0	38	104	0	60	50816
2026-01-02 22:04:54.81	101.15	2.06	-46.6	-62.8	3.6	1.51e+00	0	38	104	0	60	50059
2026-01-02 22:04:55.82	101.09	2.12	-46.6	-62.8	3.6	1.51e+00	0	38	104	0	60	49889
2026-01-02 22:04:56.83	101.03	2.17	-46.5	-62.8	3.6	1.51e+00	0	38	104	0	60	50034
2026-01-02 22:04:57.84	100.97	2.23	-46.6	-62.9	3.6	1.51e+00	0	38	104	0	60	50240
2026-01-02 22:04:58.85	100.91	2.29	-46.6	-62.9	3.6	1.51e+00	0	38	104	0	60	50540
2026-01-02 22:04:59.86	100.85	2.35	-46.7	-63.1	3.6	1.51e+00	0	38	104	0	60	51488
2026-01-02 22:05:00.87	100.79	2.41	-46.7	-63.2	3.6	1.51e+00	0	38	104	0	60	52161
2026-01-02 22:05:01.88	100.73	2.47	-46.7	-63.2	3.6	1.51e+00	0	38	104	0	60	52159
2026-01-02 22:05:02.89	100.67	2.53	-46.6	-63.2	3.5	1.51e+00	0	38	104	0	60	52491
2026-01-02 22:05:03.90	100.60	2.59	-46.7	-63.1	3.6	1.51e+00	0	38	104	0	60	51414
2026-01-02 22:05:04.91	100.54	2.65	-46.5	-63.1	3.6	1.51e+00	0	38	104	0	60	51736
2026-01-02 22:05:05.92	100.48	2.71	-46.5	-62.9	3.6	1.51e+00	0	38	104	0	60	50651
2026-01-02 22:05:06.93	100.42	2.77	-46.4	-63.0	3.6	1.51e+00	0	38	104	0	60	50838
2026-01-02 22:05:07.94	100.36	2.83	-46.3	-62.8	3.6	1.51e+00	0	38	104	0	60	49798
2026-01-02 22:05:08.95	100.29	2.89	-46.2	-62.6	3.6	1.51e+00	0	38	104	0	60	49035
2026-01-02 22:05:09.96	100.23	2.95	-46.1	-62.9	3.6	1.51e+00	0	38	104	0	60	50204
2026-01-02 22:05:10.97	100.17	3.01	-46.1	-62.8	3.6	1.51e+00	0	38	104	0	60	49930
2026-01-02 22:05:11.98	100.10	3.07	-46.1	-61.6	3.6	1.51e+00	0	39	104	0	60	43465
2026-01-02 22:05:12.99	100.04	3.13	-45.9	-58.1	4.3	1.33e+00	0	38	0	0	60	29134
2026-01-02 22:05:14.00	99.97	3.19	-45.7	-54.3	6.8	3.70e-01	72	38	0	2097152	60	18764
2026-01-02 22:05:15.01	99.91	3.25	-45.3	-52.5	8.9	9.52e-02	0	38	0	3145728	60	15227
2026-01-02 22:05:16.02	99.84	3.31	-44.6	-49.9	11.9	9.67e-04	92	38	0	5242880	60	11340
2026-01-02 22:05:17.03	99.78	3.37	-48.4	-63.5	3.6	1.14e+00	0	38	104	6291456	60	54328
2026-01-02 22:05:18.04	99.71	3.43	-46.9	-54.0	5.0	1.51e+00	0	39	104	6291456	60	18079
2026-01-02 22:05:19.05	99.65	3.49	-46.3	-62.9	3.5	1.12e+00	0	39	104	6291456	60	50712
2026-01-02 22:05:20.06	99.58	3.55	-46.7	-63.2	3.6	1.51e+00	0	39	104	6291456	60	52531
2026-01-02 22:05:21.07	99.52	3.62	-44.5	-49.0	5.7	1.49e+00	0	38	104	6291456	60	10151
2026-01-02 22:05:22.08	99.45	3.68	-44.7	-48.0	14.0	5.30e-06	0	39	0	6291456	60	9050
2026-01-02 22:05:23.09	99.38	3.74	-44.4	-48.0	14.3	3.00e-06	63	38	0	8388608	60	9068
2026-01-02 22:05:24.10	99.32	3.80	-43.8	-47.2	14.8	0.00e+00	0	38	0	9437184	60	8248
2026-01-02 22:05:25.11	99.25	3.86	-43.7	-46.7	15.6	0.00e+00	92	38	0	11534336	60	7827
2026-01-02 22:05:26.11	99.18	3.92	-43.6	-46.4	16.2	0.00e+00	0	38	0	13631488	60	7519
2026-01-02 22:05:27.12	99.11	3.98	-43.1	-45.6	16.8	0.00e+00	92	39	0	15728640	60	6907
2026-01-02 22:05:28.13	99.05	4.05	-42.9	-45.5	17.1	0.00e+00	92	38	0	17825792	60	6811
2026-01-02 22:05:29.14	98.98	4.11	-42.8	-45.3	17.2	0.00e+00	0	38	0	19922944	58	7447
2026-01-02 22:05:30.15	98.91	4.17	-42.7	-45.0	17.3	0.00e+00	92	38	0	20971520	58	7253
2026-01-02 22:05:31.16	98.84	4.23	-43.0	-45.3	17.1	0.00e+00	0	38	0	23068672	58	7473
2026-01-02 22:05:32.17	98.77	4.29	-43.2	-45.3	17.2	0.00e+00	92	38	0	25165824	58	7498
2026-01-02 22:05:33.18	98.70	4.36	-43.3	-45.4	17.1	0.00e+00	20	38	0	27262976	58	7522
2026-01-02 22:05:34.19	98.63	4.42	-43.4	-45.4	17.1	0.00e+00	92	38	0	29360128	58	7547
2026-01-02 22:05:35.20	98.56	4.48	-43.6	-45.8	16.8	0.00e+00	90	38	0	30408704	58	7870
2026-01-02 22:05:36.21	98.49	4.54	-44.0	-46.5	16.2	0.00e+00	16	39	0	32505856	60	7646
2026-01-02 22:05:37.21	98.42	4.61	-43.8	-46.2	16.5	0.00e+00	92	38	0	34603008	60	7407
2026-01-02 22:05:38.22	98.35	4.67	-43.9	-46.4	16.4	0.00e+00	0	39	0	36700160	60	7558
2026-01-02 22:05:39.23	98.28	4.73	-43.2	-45.3	17.4	0.00e+00	92	38	0	38797312	60	6646
2026-01-02 22:05:40.24	98.20	4.79	-43.0	-45.0	17.7	0.00e+00	0	38	0	39845888	60	6426
2026-01-02 22:05:41.25	98.13	4.86	-43.1	-45.1	17.5	0.00e+00	92	38	0	41943040	60	6521
2026-01-02 22:05:42.26	98.06	4.92	-43.0	-44.9	17.7	0.00e+00	90	38	0	44040192	60	6380
2026-01-02 22:05:43.27	97.99	4.98	-42.9	-44.8	17.8	0.00e+00	0	39	0	46137344	60	6270
2026-01-02 22:05:44.28	97.91	5.05	-43.0	-45.0	17.6	0.00e+00	90	39	0	48234496	60	6448
2026-01-02 22:05:45.29	97.84	5.11	-42.5	-44.3	18.2	0.00e+00	0	39	0	49283072	58	6654
2026-01-02 22:05:46.30	97.76	5.18	-42.5	-44.3	18.0	0.00e+00	92	38	0	51380224	58	6678
2026-01-02 22:05:47.31	97.69	5.24	-42.3	-44.1	18.3	0.00e+00	0	39	0	53477376	58	6515
2026-01-02 22:05:48.32	97.62	5.30	-42.4	-44.2	18.1	0.00e+00	90	38	0	55574528	58	6600
2026-01-02 22:05:49.33	97.54	5.37	-42.6	-44.4	18.0	0.00e+00	92	39	0	57671680	58	6727
2026-01-02 22:05:50.34	97.47	5.43	-42.5	-44.3	18.3	0.00e+00	0	38	0	58720256	58	6654
2026-01-02 22:05:51.34	97.39	5.49	-42.4	-44.1	18.3	0.00e+00	92	39	0	60817408	58	6498
2026-01-02 22:05:52.35	97.31	5.56	-42.3	-44.0	18.5	0.00e+00	0	39	0	62914560	58	6391
2026-01-02 22:05:53.36	97.24	5.62	-42.0	-43.6	18.8	0.00e+00	86	39	0	65011712	58	6113
2026-01-02 22:05:54.37	97.16	5.69	-42.3	-44.0	18.4	0.00e+00	0	39	0	67108864	58	6417
2026-01-02 22:05:55.38	97.08	5.75	-42.1	-43.8	18.7	0.00e+00	90	39	0	68157440	58	6279
2026-01-02 22:05:56.39	97.01	5.82	-42.1	-43.8	18.6	0.00e+00	91	38	0	70254592	58	6255
2026-01-02 22:05:57.40	96.93	5.88	-42.4	-44.2	18.3	0.00e+00	0	39	0	72351744	58	6563
2026-01-02 22:05:58.41	96.85	5.95	-42.5	-44.2	18.4	0.00e+00	92	39	0	74448896	58	6615
2026-01-02 22:05:59.42	96.77	6.01	-42.4	-44.1	18.6	0.00e+00	0	38	0	76546048	58	6516
2026-01-02 22:06:00.43	96.69	6.08	-42.5	-44.2	18.5	0.00e+00	92	39	0	77594624	58	6592
2026-01-02 22:06:01.44	96.61	6.14	-42.2	-43.8	18.8	0.00e+00	0	39	0	79691776	58	6294
2026-01-02 22:06:02.45	96.53	6.21	-42.3	-43.9	18.8	0.00e+00	92	39	0	81788928	58	6356
2026-01-02 22:06:03.46	96.45	6.27	-42.1	-43.8	18.7	0.00e+00	42	39	0	83886080	58	6290
2026-01-02 22:06:04.47	96.37	6.34	-42.0	-43.6	19.1	0.00e+00	69	38	0	85983232	58	6146
2026-01-02 22:06:05.48	96.29	6.41	-42.2	-43.9	18.7	0.00e+00	92	38	0	88080384	58	6328
2026-01-02 22:06:06.49	96.21	6.47	-41.9	-43.5	19.2	0.00e+00	0	38	0	89128960	58	6039
2026-01-02 22:06:07.50	96.13	6.54	-42.1	-43.7	19.1	0.00e+00	80	38	0	91226112	58	6178
2026-01-02 22:06:08.51	96.05	6.60	-42.1	-43.7	18.9	0.00e+00	0	39	0	93323264	58	6189
2026-01-02 22:06:09.52	95.97	6.67	-42.0	-43.5	19.0	0.00e+00	90	39	0	95420416	58	6075
2026-01-02 22:06:10.53	95.88	6.74	-41.9	-43.4	19.1	0.00e+00	28	39	0	97517568	58	6023
2026-01-02 22:06:11.54	95.80	6.80	-42.1	-43.7	18.9	0.00e+00	92	39	0	98566144	58	6205
2026-01-02 22:06:12.55	95.72	6.87	-42.0	-43.6	19.0	0.00e+00	92	39	0	100663296	58	6149
2026-01-02 22:06:13.56	95.63	6.94	-42.3	-43.9	18.8	0.00e+00	0	38	0	102760448	58	6339
2026-01-02 22:06:14.57	95.55	7.00	-41.9	-43.4	19.3	0.00e+00	78	39	0	104857600	58	5981
2026-01-02 22:06:15.58	95.47	7.07	-41.8	-43.3	19.4	0.00e+00	0	39	0	106954752	58	5906
2026-01-02 22:06:16.59	95.38	7.14	-41.9	-43.4	19.3	0.00e+00	92	39	0	108003328	56	6745
2026-01-02 22:06:17.60	95.29	7.20	-41.9	-43.3	19.5	0.00e+00	6	39	0	110100480	56	6687
2026-01-02 22:06:18.61	95.21	7.27	-41.7	-43.1	19.5	0.00e+00	92	39	0	112197632	56	6516
2026-01-02 22:06:19.62	95.12	7.34	-41.9	-43.4	19.3	0.00e+00	92	39	0	114294784	56	6723
2026-01-02 22:06:20.63	95.04	7.41	-41.8	-43.4	19.4	0.00e+00	0	39	0	116391936	56	6696
2026-01-02 22:06:21.64	94.95	7.47	-41.9	-43.4	19.4	0.00e+00	92	39	0	117440512	56	6764
2026-01-02 22:06:22.65	94.86	7.54	-41.7	-43.2	19.5	0.00e+00	0	39	0	119537664	56	6611
2026-01-02 22:06:23.65	94.77	7.61	-41.8	-43.3	19.5	0.00e+00	92	39	0	121634816	56	6663
2026-01-02 22:06:24.66	94.69	7.68	-41.8	-43.4	19.4	0.00e+00	29	39	0	123731968	56	6705
2026-01-02 22:06:25.67	94.60	7.75	-42.0	-43.5	19.3	0.00e+00	92	39	0	125829120	56	6846
2026-01-02 22:06:26.68	94.51	7.81	-42.1	-43.7	19.1	0.00e+00	90	39	0	126877696	56	6974
2026-01-02 22:06:27.69	94.42	7.88	-42.1	-43.7	19.0	0.00e+00	0	39	0	128974848	56	6976
2026-01-02 22:06:28.70	94.33	7.95	-41.9	-43.4	19.5	0.00e+00	90	39	0	131072000	56	6718
2026-01-02 22:06:29.71	94.24	8.02	-42.1	-43.6	19.2	0.00e+00	0	39	0	133169152	56	6894
2026-01-02 22:06:30.72	94.15	8.09	-42.1	-43.5	19.3	0.00e+00	92	39	0	135266304	56	6844
2026-01-02 22:06:31.73	94.06	8.16	-42.1	-43.7	19.2	0.00e+00	0	39	0	136314880	56	6958
2026-01-02 22:06:32.74	93.96	8.23	-42.4	-44.0	18.7	0.00e+00	92	39	0	138412032	56	7237
2026-01-02 22:06:33.75	93.87	8.29	-42.2	-43.9	18.8	0.00e+00	92	39	0	140509184	56	7113
2026-01-02 22:06:34.76	93.78	8.36	-42.2	-43.9	18.9	0.00e+00	0	39	0	142606336	56	7124
2026-01-02 22:06:35.77	93.69	8.43	-42.2	-43.9	18.9	0.00e+00	92	39	0	144703488	56	7148
2026-01-02 22:06:36.78	93.59	8.50	-42.1	-43.9	19.0	0.00e+00	0	39	0	145752064	56	7111
2026-01-02 22:06:37.79	93.50	8.57	-42.2	-43.9	18.9	0.00e+00	92	39	0	147849216	56	7161
2026-01-02 22:06:38.80	93.40	8.64	-42.2	-43.9	19.1	0.00e+00	0	39	0	149946368	56	7131
2026-01-02 22:06:39.81	93.31	8.71	-42.2	-43.9	19.1	0.00e+00	92	39	0	152043520	56	7096
2026-01-02 22:06:40.81	93.21	8.78	-42.3	-44.0	18.9	0.00e+00	90	39	0	154140672	56	7239
2026-01-02 22:06:41.82	93.12	8.85	-42.1	-43.7	19.3	0.00e+00	0	39	0	156237824	56	6939
2026-01-02 22:06:42.83	93.02	8.92	-42.0	-43.6	19.3	0.00e+00	90	39	0	157286400	56	6883
2026-01-02 22:06:43.84	92.92	8.99	-41.9	-43.4	19.5	0.00e+00	0	39	0	159383552	56	6742
2026-01-02 22:06:44.84	92.83	9.06	-41.8	-43.3	19.4	0.00e+00	57	39	0	161480704	56	6631
2026-01-02 22:06:45.85	92.73	9.13	-41.6	-43.0	19.9	0.00e+00	32	39	0	163577856	56	6448
2026-01-02 22:06:46.86	92.63	9.20	-41.5	-42.9	20.0	0.00e+00	92	39	0	165675008	56	6343
2026-01-02 22:06:47.87	92.53	9.27	-41.4	-42.8	20.0	0.00e+00	0	39	0	166723584	56	6272
2026-01-02 22:06:48.88	92.43	9.34	-41.3	-42.7	20.2	0.00e+00	74	39	0	168820736	56	6174
2026-01-02 22:06:49.89	92.33	9.41	-41.2	-42.5	20.3	0.00e+00	92	39	0	170917888	56	6057
2026-01-02 22:06:50.90	92.23	9.49	-41.4	-42.7	20.1	0.00e+00	0	39	0	173015040	56	6237
2026-01-02 22:06:51.91	92.13	9.56	-41.4	-42.7	20.1	0.00e+00	34	39	0	175112192	56	6188
2026-01-02 22:06:52.92	92.03	9.63	-41.6	-42.9	19.9	0.00e+00	0	39	0	176160768	56	6362
2026-01-02 22:06:53.93	91.93	9.70	-41.9	-43.3	19.7	0.00e+00	82	39	0	178257920	56	6682
2026-01-02 22:06:54.94	91.83	9.77	-41.9	-43.4	19.7	0.00e+00	0	39	0	180355072	56	6726
2026-01-02 22:06:55.95	91.72	9.84	-41.6	-43.0	20.0	0.00e+00	90	39	0	182452224	56	6407
2026-01-02 22:06:56.96	91.62	9.91	-41.5	-42.9	20.2	0.00e+00	92	39	0	184549376	56	6336
2026-01-02 22:06:57.96	91.52	9.98	-41.3	-42.7	20.2	0.00e+00	0	39	0	185597952	56	6176
2026-01-02 22:06:58.97	91.41	10.06	-41.0	-42.3	20.6	0.00e+00	89	39	0	187695104	56	5953
2026-01-02 22:06:59.99	91.31	10.13	-40.9	-42.2	20.6	0.00e+00	0	39	0	189792256	56	5849
2026-01-02 22:07:00.99	91.20	10.20	-41.0	-42.3	20.6	0.00e+00	90	39	0	191889408	56	5916
2026-01-02 22:07:02.01	91.10	10.27	-41.3	-42.7	20.3	0.00e+00	0	39	0	193986560	56	6185
2026-01-02 22:07:03.02	90.99	10.35	-41.4	-42.8	20.2	0.00e+00	92	39	0	195035136	56	6292
2026-01-02 22:07:04.03	90.88	10.42	-41.5	-42.9	20.0	0.00e+00	59	39	0	197132288	56	6375
2026-01-02 22:07:05.03	90.77	10.49	-41.6	-42.9	20.0	0.00e+00	0	39	0	199229440	56	6381
2026-01-02 22:07:06.04	90.67	10.56	-41.5	-42.8	20.2	0.00e+00	90	39	0	201326592	56	6316
2026-01-02 22:07:07.05	90.56	10.64	-41.3	-42.6	20.4	0.00e+00	0	39	0	203423744	56	6146
2026-01-02 22:07:08.06	90.45	10.71	-41.3	-42.6	20.4	0.00e+00	53	39	0	204472320	56	6142
2026-01-02 22:07:09.07	90.34	10.78	-41.1	-42.4	20.5	0.00e+00	0	39	0	206569472	56	5975
2026-01-02 22:07:10.08	90.23	10.86	-41.2	-42.5	20.3	0.00e+00	92	39	0	208666624	56	6100
2026-01-02 22:07:11.09	90.12	10.93	-41.2	-42.5	20.5	0.00e+00	27	39	0	210763776	56	6051
2026-01-02 22:07:12.10	90.01	11.00	-41.4	-42.8	20.3	0.00e+00	0	39	0	212860928	56	6279
2026-01-02 22:07:13.11	89.89	11.08	-41.5	-42.8	20.2	0.00e+00	92	39	0	213909504	56	6314
2026-01-02 22:07:14.12	89.78	11.15	-41.3	-42.6	20.5	0.00e+00	0	39	0	216006656	56	6143
2026-01-02 22:07:15.13	89.67	11.22	-41.2	-42.6	20.5	0.00e+00	92	39	0	218103808	56	6116
2026-01-02 22:07:16.14	89.55	11.30	-41.2	-42.5	20.7	0.00e+00	0	39	0	220200960	56	6097
2026-01-02 22:07:17.15	89.44	11.37	-41.2	-42.6	20.5	0.00e+00	92	39	0	222298112	56	6133
2026-01-02 22:07:18.15	89.32	11.45	-41.2	-42.6	20.5	0.00e+00	79	39	0	224395264	56	6142
2026-01-02 22:07:19.16	89.21	11.52	-41.4	-42.9	20.2	0.00e+00	33	39	0	225443840	56	6326
2026-01-02 22:07:20.17	89.09	11.59	-41.4	-42.8	20.3	0.00e+00	85	39	0	227540992	56	6272
2026-01-02 22:07:21.18	88.98	11.67	-41.4	-42.8	20.4	0.00e+00	0	39	0	229638144	56	6246
2026-01-02 22:07:22.19	88.86	11.74	-41.6	-43.0	20.2	0.00e+00	78	39	0	231735296	56	6406
2026-01-02 22:07:23.20	88.74	11.82	-41.8	-43.2	20.0	0.00e+00	19	39	0	232783872	56	6595
2026-01-02 22:07:24.21	88.62	11.89	-42.1	-43.5	19.6	0.00e+00	93	39	0	234881024	56	6813
2026-01-02 22:07:25.22	88.50	11.97	-41.8	-43.2	20.0	0.00e+00	11	39	0	236978176	56	6566
2026-01-02 22:07:26.23	88.38	12.04	-41.8	-43.2	20.0	0.00e+00	14	39	0	239075328	56	6566
2026-01-02 22:07:27.24	88.26	12.12	-42.0	-43.4	19.8	0.00e+00	92	39	0	241172480	56	6711
2026-01-02 22:07:28.25	88.14	12.19	-41.8	-43.1	19.9	0.00e+00	0	39	0	242221056	56	6520
2026-01-02 22:07:29.25	88.02	12.27	-41.7	-43.0	20.0	0.00e+00	92	39	0	244318208	56	6462
2026-01-02 22:07:30.26	87.90	12.34	-41.9	-43.3	19.7	0.00e+00	0	39	0	246415360	56	6660
2026-01-02 22:07:31.27	87.77	12.42	-42.0	-43.4	19.8	0.00e+00	92	39	0	248512512	56	6722
2026-01-02 22:07:32.28	87.65	12.49	-41.6	-42.9	20.3	0.00e+00	33	39	0	250609664	56	6353
2026-01-02 22:07:33.29	87.52	12.57	-41.6	-42.9	20.2	0.00e+00	92	39	0	252706816	56	6348
2026-01-02 22:07:34.30	87.40	12.65	-41.3	-42.6	20.6	0.00e+00	92	39	0	253755392	56	6153
2026-01-02 22:07:35.31	87.27	12.72	-41.0	-42.2	20.4	0.00e+00	0	39	0	255852544	56	5890
2026-01-02 22:07:36.32	87.15	12.80	-40.9	-42.1	21.0	0.00e+00	92	39	0	257949696	56	5785
2026-01-02 22:07:37.33	87.02	12.87	-40.6	-41.8	21.2	0.00e+00	0	39	0	260046848	54	6261
2026-01-02 22:07:38.33	86.89	12.95	-40.4	-41.5	21.3	0.00e+00	92	39	0	262144000	54	6066
2026-01-02 22:07:39.35	86.76	13.03	-40.1	-41.2	21.6	0.00e+00	0	39	0	263192576	54	5865
2026-01-02 22:07:40.36	86.63	13.10	-40.2	-41.3	21.6	0.00e+00	92	39	0	265289728	54	5905
2026-01-02 22:07:41.36	86.51	13.18	-40.3	-41.4	21.5	0.00e+00	92	39	0	267386880	54	6022
2026-01-02 22:07:42.37	86.38	13.25	-40.2	-41.2	21.6	0.00e+00	0	39	0	269484032	54	5885
2026-01-02 22:07:43.38	86.24	13.33	-40.2	-41.2	21.7	0.00e+00	92	39	0	271581184	54	5884
2026-01-02 22:07:44.39	86.11	13.41	-40.1	-41.2	21.8	0.00e+00	0	39	0	272629760	54	5830
2026-01-02 22:07:45.40	85.98	13.48	-40.1	-41.2	21.7	0.00e+00	92	39	0	274726912	54	5867
2026-01-02 22:07:46.41	85.85	13.56	-40.3	-41.4	21.6	0.00e+00	0	39	0	276824064	54	5996
2026-01-02 22:07:47.41	85.71	13.64	-40.3	-41.5	21.5	0.00e+00	92	39	0	278921216	54	6048
2026-01-02 22:07:48.42	85.58	13.71	-40.4	-41.5	21.4	0.00e+00	34	39	0	281018368	54	6077
2026-01-02 22:07:49.43	85.44	13.79	-40.3	-41.4	21.6	0.00e+00	92	39	0	282066944	54	5998
2026-01-02 22:07:50.44	85.31	13.87	-40.2	-41.3	21.6	0.00e+00	92	39	0	284164096	54	5956
2026-01-02 22:07:51.45	85.17	13.95	-40.3	-41.5	21.5	0.00e+00	0	39	0	286261248	54	6042
2026-01-02 22:07:52.46	85.03	14.02	-40.4	-41.5	21.6	0.00e+00	92	39	0	288358400	54	6077
2026-01-02 22:07:53.47	84.89	14.10	-40.2	-41.2	21.7	0.00e+00	0	39	0	290455552	54	5893
2026-01-02 22:07:54.48	84.76	14.18	-40.2	-41.3	21.7	0.00e+00	90	39	0	291504128	54	5936
2026-01-02 22:07:55.49	84.62	14.26	-40.3	-41.5	21.6	0.00e+00	0	39	0	293601280	54	6062
2026-01-02 22:07:56.50	84.48	14.33	-40.4	-41.6	21.4	0.00e+00	92	39	0	295698432	54	6111
2026-01-02 22:07:57.51	84.33	14.41	-40.3	-41.4	21.5	0.00e+00	90	39	0	297795584	54	6032
2026-01-02 22:07:58.51	84.19	14.49	-40.4	-41.5	21.5	0.00e+00	0	39	0	299892736	54	6074
2026-01-02 22:07:59.52	84.05	14.57	-40.1	-41.2	21.9	0.00e+00	90	39	0	300941312	54	5859
2026-01-02 22:08:00.53	83.91	14.65	-39.8	-40.8	22.1	0.00e+00	0	39	0	303038464	52	6295
2026-01-02 22:08:01.54	83.76	14.72	-39.9	-40.9	21.9	0.00e+00	92	39	0	305135616	52	6369
2026-01-02 22:08:02.55	83.62	14.80	-39.9	-40.9	22.0	0.00e+00	0	39	0	307232768	52	6388
2026-01-02 22:08:03.56	83.47	14.88	-40.0	-41.1	21.9	0.00e+00	92	39	0	309329920	52	6494
2026-01-02 22:08:04.57	83.33	14.96	-40.1	-41.2	21.7	0.00e+00	92	39	0	310378496	52	6582
2026-01-02 22:08:05.58	83.18	15.04	-40.0	-41.1	21.9	0.00e+00	0	39	0	312475648	52	6506
2026-01-02 22:08:06.59	83.03	15.11	-39.8	-40.9	22.0	0.00e+00	92	39	0	314572800	52	6354
2026-01-02 22:08:07.60	82.88	15.19	-39.6	-40.6	22.3	0.00e+00	0	39	0	316669952	52	6110
2026-01-02 22:08:08.61	82.73	15.27	-39.8	-40.9	22.0	0.00e+00	73	39	0	318767104	52	6333
2026-01-02 22:08:09.62	82.58	15.35	-39.8	-40.9	22.1	0.00e+00	0	39	0	320864256	52	6320
2026-01-02 22:08:10.63	82.43	15.43	-40.0	-41.1	21.9	0.00e+00	92	39	0	321912832	52	6470
2026-01-02 22:08:11.64	82.28	15.51	-40.2	-41.2	21.8	0.00e+00	28	39	0	324009984	52	6605
2026-01-02 22:08:12.65	82.12	15.59	-40.5	-41.6	21.4	0.00e+00	0	39	0	326107136	52	6923
2026-01-02 22:08:13.66	81.97	15.66	-40.7	-41.9	21.2	0.00e+00	92	39	0	328204288	52	7089
2026-01-02 22:08:14.67	81.81	15.74	-40.7	-41.9	21.3	0.00e+00	0	39	0	330301440	54	6331
2026-01-02 22:08:15.68	81.66	15.82	-40.6	-41.8	21.3	0.00e+00	90	39	0	331350016	54	6260
2026-01-02 22:08:16.69	81.50	15.90	-40.7	-41.9	21.3	0.00e+00	0	39	0	333447168	54	6318
2026-01-02 22:08:17.70	81.34	15.98	-40.7	-41.9	21.2	0.00e+00	92	39	0	335544320	54	6340
2026-01-02 22:08:18.70	81.19	16.06	-40.7	-41.8	21.2	0.00e+00	36	39	0	337641472	54	6312
2026-01-02 22:08:19.71	81.03	16.14	-41.1	-42.3	20.6	0.00e+00	0	39	0	339738624	54	6636
2026-01-02 22:08:20.72	80.87	16.22	-41.1	-42.4	20.4	0.00e+00	92	39	0	340787200	54	6702
2026-01-02 22:08:21.73	80.71	16.30	-41.3	-42.5	20.7	0.00e+00	0	39	0	342884352	54	6833
2026-01-02 22:08:22.74	80.55	16.37	-41.2	-42.5	20.8	0.00e+00	92	39	0	344981504	54	6774
2026-01-02 22:08:23.75	80.39	16.45	-41.0	-42.2	21.0	0.00e+00	0	39	0	347078656	54	6553
2026-01-02 22:08:24.76	80.22	16.53	-41.0	-42.2	20.9	0.00e+00	92	39	0	349175808	54	6595
2026-01-02 22:08:25.77	80.06	16.61	-41.0	-42.3	21.1	0.00e+00	32	39	0	350224384	54	6628
2026-01-02 22:08:26.78	79.89	16.69	-40.9	-42.1	21.1	0.00e+00	88	39	0	352321536	54	6484
2026-01-02 22:08:27.79	79.73	16.77	-40.9	-42.1	21.1	0.00e+00	92	39	0	354418688	54	6528
2026-01-02 22:08:28.80	79.56	16.85	-41.0	-42.2	21.1	0.00e+00	0	39	0	356515840	54	6559
2026-01-02 22:08:29.80	79.39	16.93	-40.9	-42.0	21.1	0.00e+00	78	39	0	358612992	54	6464
2026-01-02 22:08:30.81	79.23	17.01	-40.8	-42.0	21.1	0.00e+00	0	39	0	359661568	54	6427
2026-01-02 22:08:31.82	79.06	17.09	-40.9	-42.1	21.0	0.00e+00	92	39	0	361758720	54	6533
2026-01-02 22:08:32.83	78.89	17.17	-40.6	-41.7	21.4	0.00e+00	34	39	0	363855872	54	6217
2026-01-02 22:08:33.83	78.72	17.24	-40.7	-41.8	21.3	0.00e+00	92	39	0	365953024	54	6308
2026-01-02 22:08:34.84	78.54	17.32	-40.6	-41.7	21.4	0.00e+00	92	39	0	368050176	54	6234
2026-01-02 22:08:35.85	78.37	17.40	-40.7	-41.9	21.4	0.00e+00	0	39	0	369098752	54	6345
2026-01-02 22:08:36.86	78.20	17.48	-40.6	-41.8	21.3	0.00e+00	92	39	0	371195904	54	6283
2026-01-02 22:08:37.87	78.02	17.56	-40.4	-41.5	21.7	0.00e+00	0	39	0	373293056	54	6035
2026-01-02 22:08:38.87	77.85	17.64	-40.3	-41.4	21.7	0.00e+00	92	39	0	375390208	54	5990
2026-01-02 22:08:39.88	77.67	17.72	-40.2	-41.3	21.7	0.00e+00	0	39	0	377487360	54	5944
2026-01-02 22:08:40.89	77.49	17.80	-40.5	-41.7	21.4	0.00e+00	92	39	0	378535936	54	6175
2026-01-02 22:08:41.90	77.32	17.88	-40.7	-41.8	21.4	0.00e+00	92	39	0	380633088	54	6267
2026-01-02 22:08:42.91	77.14	17.95	-40.3	-41.4	21.5	0.00e+00	0	39	0	382730240	54	5996
2026-01-02 22:08:43.92	76.96	18.03	-40.7	-41.8	21.3	0.00e+00	36	39	0	384827392	54	6295
2026-01-02 22:08:44.93	76.77	18.11	-40.8	-42.0	21.6	0.00e+00	0	39	0	386924544	54	6405
2026-01-02 22:08:45.94	76.59	18.19	-40.8	-42.0	21.1	0.00e+00	81	39	0	387973120	54	6453
2026-01-02 22:08:46.95	76.41	18.27	-41.0	-42.2	21.0	0.00e+00	0	39	0	390070272	54	6596
2026-01-02 22:08:47.96	76.22	18.35	-40.7	-41.9	21.2	0.00e+00	91	39	0	392167424	54	6343
2026-01-02 22:08:48.97	76.04	18.43	-40.6	-41.7	21.5	0.00e+00	92	39	0	394264576	54	6213
2026-01-02 22:08:49.98	75.85	18.51	-40.5	-41.6	21.5	0.00e+00	0	39	0	396361728	54	6132
2026-01-02 22:08:50.99	75.66	18.58	-40.6	-41.7	21.5	0.00e+00	92	39	0	397410304	54	6184
2026-01-02 22:08:51.99	75.48	18.66	-40.5	-41.6	21.6	0.00e+00	0	39	0	399507456	54	6116
2026-01-02 22:08:53.01	75.29	18.74	-40.2	-41.3	21.8	0.00e+00	91	39	0	401604608	54	5920
2026-01-02 22:08:54.01	75.10	18.82	-40.1	-41.2	21.9	0.00e+00	0	39	0	403701760	54	5839
2026-01-02 22:08:55.02	74.91	18.90	-40.2	-41.2	21.9	0.00e+00	92	39	0	405798912	54	5867
2026-01-02 22:08:56.03	74.72	18.97	-40.5	-41.6	21.6	0.00e+00	91	39	0	406847488	54	6140
2026-01-02 22:08:57.04	74.52	19.05	-40.4	-41.5	21.6	0.00e+00	0	39	0	408944640	54	6099
2026-01-02 22:08:58.04	74.33	19.13	-40.5	-41.6	21.6	0.00e+00	92	39	0	411041792	54	6157
2026-01-02 22:08:59.05	74.13	19.21	-40.6	-41.8	21.5	0.00e+00	0	39	0	413138944	54	6267
2026-01-02 22:09:00.06	73.94	19.28	-40.7	-41.9	21.3	0.00e+00	91	39	0	415236096	54	6336
2026-01-02 22:09:01.07	73.74	19.36	-40.8	-42.1	21.3	0.00e+00	0	39	0	417333248	54	6466
2026-01-02 22:09:02.08	73.54	19.44	-40.3	-41.5	21.6	0.00e+00	91	39	0	418381824	54	6040
2026-01-02 22:09:03.09	73.34	19.52	-40.3	-41.4	21.6	0.00e+00	0	39	0	420478976	54	6017
2026-01-02 22:09:04.10	73.14	19.59	-40.3	-41.4	21.9	0.00e+00	0	39	0	422576128	54	5972
2026-01-02 22:09:05.11	72.94	19.67	-40.1	-41.2	22.0	0.00e+00	85	39	0	424673280	54	5863
2026-01-02 22:09:06.12	72.74	19.75	-40.0	-41.1	22.0	0.00e+00	0	39	0	426770432	54	5778
2026-01-02 22:09:07.13	72.54	19.83	-40.0	-41.1	22.0	0.00e+00	13	39	0	427819008	54	5794
2026-01-02 22:09:08.14	72.33	19.90	-40.1	-41.2	21.9	0.00e+00	0	39	0	429916160	54	5877
2026-01-02 22:09:09.14	72.13	19.98	-40.3	-41.4	21.8	0.00e+00	92	39	0	432013312	54	6024
2026-01-02 22:09:10.15	71.92	20.05	-39.9	-40.9	22.1	0.00e+00	20	39	0	434110464	54	5666
2026-01-02 22:09:11.17	71.71	20.13	-39.6	-40.7	22.4	0.00e+00	35	39	0	436207616	52	6178
2026-01-02 22:09:12.17	71.51	20.21	-39.6	-40.7	22.4	0.00e+00	87	39	0	437256192	52	6198
2026-01-02 22:09:13.18	71.30	20.28	-39.5	-40.6	22.4	0.00e+00	22	39	0	439353344	52	6122
2026-01-02 22:09:14.19	71.09	20.36	-39.5	-40.5	22.6	0.00e+00	68	39	0	441450496	52	6099
2026-01-02 22:09:15.20	70.87	20.43	-39.4	-40.4	22.6	0.00e+00	22	39	0	443547648	52	6003
2026-01-02 22:09:16.21	70.66	20.51	-39.3	-40.3	22.8	0.00e+00	92	39	0	445644800	52	5902
2026-01-02 22:09:17.22	70.45	20.58	-38.9	-39.8	23.0	0.00e+00	0	39	0	446693376	52	5623
2026-01-02 22:09:18.23	70.23	20.66	-39.0	-40.0	23.0	0.00e+00	92	39	0	448790528	52	5704
2026-01-02 22:09:19.24	70.02	20.73	-38.9	-39.8	23.1	0.00e+00	92	39	0	450887680	52	5629
2026-01-02 22:09:20.25	69.80	20.81	-38.8	-39.7	23.3	0.00e+00	0	39	0	452984832	52	5543
2026-01-02 22:09:21.25	69.58	20.88	-38.7	-39.6	23.1	0.00e+00	47	39	0	455081984	50	6163
2026-01-02 22:09:22.26	69.37	20.96	-38.6	-39.5	23.5	0.00e+00	0	39	0	456130560	50	6038
2026-01-02 22:09:23.27	69.15	21.03	-38.3	-39.2	23.6	0.00e+00	92	39	0	458227712	50	5852
2026-01-02 22:09:24.28	68.92	21.10	-38.3	-39.2	23.6	0.00e+00	0	39	0	460324864	50	5868
2026-01-02 22:09:25.29	68.70	21.18	-38.5	-39.4	23.4	0.00e+00	92	39	0	462422016	50	6013
2026-01-02 22:09:26.30	68.48	21.25	-38.4	-39.3	23.5	0.00e+00	47	39	0	464519168	50	5930
2026-01-02 22:09:27.31	68.25	21.32	-38.5	-39.4	23.5	0.00e+00	0	39	0	465567744	50	6002
2026-01-02 22:09:28.32	68.03	21.39	-38.8	-39.7	23.1	0.00e+00	65	39	0	467664896	50	6244
2026-01-02 22:09:29.33	67.80	21.47	-38.9	-39.8	23.1	0.00e+00	0	39	0	469762048	50	6281
2026-01-02 22:09:30.33	67.58	21.54	-38.9	-39.9	23.2	0.00e+00	92	39	0	471859200	50	6352
2026-01-02 22:09:31.34	67.35	21.61	-38.7	-39.6	23.3	0.00e+00	0	39	0	473956352	50	6152
2026-01-02 22:09:32.35	67.12	21.68	-38.7	-39.6	23.2	0.00e+00	92	39	0	475004928	50	6162
2026-01-02 22:09:33.36	66.89	21.75	-38.7	-39.6	23.3	0.00e+00	39	39	0	477102080	50	6122
2026-01-02 22:09:34.37	66.66	21.82	-38.5	-39.4	23.5	0.00e+00	0	39	0	479199232	50	5989
2026-01-02 22:09:35.38	66.42	21.89	-38.3	-39.2	23.6	0.00e+00	92	39	0	481296384	50	5858
2026-01-02 22:09:36.39	66.19	21.96	-38.2	-39.1	23.6	0.00e+00	0	39	0	483393536	50	5788
2026-01-02 22:09:37.40	65.96	22.03	-38.3	-39.2	23.6	0.00e+00	77	39	0	484442112	50	5831
2026-01-02 22:09:38.41	65.72	22.10	-38.1	-39.0	23.8	0.00e+00	0	39	0	486539264	50	5750
2026-01-02 22:09:39.42	65.48	22.17	-38.1	-39.0	23.7	0.00e+00	91	39	0	488636416	50	5714
2026-01-02 22:09:40.43	65.24	22.24	-38.2	-39.1	23.7	0.00e+00	5	39	0	490733568	50	5793
2026-01-02 22:09:41.43	65.01	22.31	-38.4	-39.3	23.5	0.00e+00	0	39	0	492830720	50	5934
2026-01-02 22:09:42.44	64.77	22.38	-38.5	-39.4	23.5	0.00e+00	90	39	0	493879296	50	5977
2026-01-02 22:09:43.45	64.53	22.45	-38.3	-39.2	23.5	0.00e+00	0	39	0	495976448	50	5867
2026-01-02 22:09:44.46	64.28	22.51	-37.9	-38.7	23.9	0.00e+00	90	39	0	498073600	50	5551
2026-01-02 22:09:45.47	64.04	22.58	-37.8	-38.7	24.0	0.00e+00	0	39	0	500170752	50	5527
2026-01-02 22:09:46.48	63.79	22.65	-37.8	-38.6	24.1	0.00e+00	90	39	0	502267904	48	6148
2026-01-02 22:09:47.49	63.55	22.71	-37.8	-38.6	23.6	0.00e+00	0	39	0	503316480	48	6162
2026-01-02 22:09:48.50	63.30	22.78	-38.0	-38.9	23.8	0.00e+00	0	39	0	505413632	48	6351
2026-01-02 22:09:49.51	63.05	22.85	-38.2	-39.1	23.6	0.00e+00	92	39	0	507510784	48	6479
2026-01-02 22:09:50.52	62.81	22.91	-38.4	-39.3	23.6	0.00e+00	0	39	0	509607936	48	6621
2026-01-02 22:09:51.53	62.56	22.97	-38.4	-39.3	23.6	0.00e+00	92	39	0	511705088	48	6624
2026-01-02 22:09:52.54	62.31	23.04	-38.3	-39.2	23.6	0.00e+00	0	39	0	513802240	48	6588
2026-01-02 22:09:53.55	62.05	23.10	-38.4	-39.3	23.5	0.00e+00	47	39	0	514850816	48	6633
2026-01-02 22:09:54.56	61.80	23.17	-38.4	-39.3	23.5	0.00e+00	9	39	0	516947968	48	6683
2026-01-02 22:09:55.56	61.55	23.23	-38.2	-39.1	23.7	0.00e+00	82	39	0	519045120	48	6527
2026-01-02 22:09:56.57	61.29	23.29	-38.3	-39.1	23.6	0.00e+00	92	39	0	521142272	48	6536
2026-01-02 22:09:57.58	61.04	23.35	-38.5	-39.4	23.4	0.00e+00	0	39	0	523239424	48	6715
2026-01-02 22:09:58.59	60.78	23.41	-38.3	-39.1	23.6	0.00e+00	30	39	0	524288000	48	6532
2026-01-02 22:09:59.59	60.53	23.48	-38.0	-38.9	23.9	0.00e+00	0	39	0	526385152	48	6324
2026-01-02 22:10:00.61	60.26	23.54	-37.9	-38.8	23.9	0.00e+00	92	39	0	528482304	48	6248
2026-01-02 22:10:01.62	60.00	23.60	-37.8	-38.7	24.0	0.00e+00	0	39	0	530579456	48	6186
2026-01-02 22:10:02.63	59.74	23.66	-37.9	-38.7	23.9	0.00e+00	77	39	0	532676608	48	6212
2026-01-02 22:10:03.64	59.48	23.72	-38.1	-38.9	23.8	0.00e+00	92	39	0	533725184	48	6379
2026-01-02 22:10:04.65	59.22	23.77	-38.1	-39.0	23.8	0.00e+00	0	39	0	535822336	48	6442
2026-01-02 22:10:05.66	58.95	23.83	-38.1	-39.0	23.8	0.00e+00	40	39	0	537919488	48	6417
2026-01-02 22:10:06.67	58.69	23.89	-37.9	-38.8	23.9	0.00e+00	0	39	0	540016640	48	6271
2026-01-02 22:10:07.68	58.42	23.95	-38.0	-38.9	23.7	0.00e+00	92	39	0	542113792	48	6329
2026-01-02 22:10:08.68	58.16	24.00	-38.0	-38.9	23.5	0.00e+00	0	39	0	543162368	48	6325
2026-01-02 22:10:09.69	57.89	24.06	-37.9	-38.7	23.9	0.00e+00	83	39	0	545259520	48	6242
2026-01-02 22:10:10.70	57.62	24.11	-37.9	-38.7	23.8	0.00e+00	91	39	0	547356672	48	6240
2026-01-02 22:10:11.71	57.35	24.17	-37.9	-38.8	24.0	0.00e+00	0	39	0	549453824	48	6252
2026-01-02 22:10:12.72	57.08	24.22	-37.7	-38.6	24.1	0.00e+00	33	39	0	551550976	48	6112
2026-01-02 22:10:13.73	56.81	24.28	-37.7	-38.6	24.0	0.00e+00	0	39	0	552599552	48	6105
2026-01-02 22:10:14.74	56.54	24.33	-37.8	-38.7	23.9	0.00e+00	91	39	0	554696704	48	6192
2026-01-02 22:10:15.75	56.26	24.38	-37.6	-38.4	24.2	0.00e+00	0	39	0	556793856	48	6027
2026-01-02 22:10:16.76	55.99	24.43	-37.9	-38.8	23.9	0.00e+00	92	39	0	558891008	48	6281
2026-01-02 22:10:17.77	55.71	24.48	-37.9	-38.8	23.9	0.00e+00	34	39	0	560988160	48	6269
2026-01-02 22:10:18.78	55.44	24.53	-37.8	-38.6	23.0	0.00e+00	0	39	0	562036736	48	6156
2026-01-02 22:10:19.79	55.16	24.58	-37.9	-38.7	24.0	0.00e+00	90	39	0	564133888	48	6223
2026-01-02 22:10:20.80	54.88	24.63	-37.8	-38.7	24.0	0.00e+00	0	39	0	566231040	48	6176
2026-01-02 22:10:21.81	54.60	24.68	-37.8	-38.6	24.1	0.00e+00	92	39	0	568328192	48	6155
2026-01-02 22:10:22.82	54.32	24.73	-37.7	-38.6	24.1	0.00e+00	0	39	0	570425344	48	6111
2026-01-02 22:10:23.83	54.04	24.78	-37.8	-38.6	24.1	0.00e+00	92	39	0	571473920	48	6130
2026-01-02 22:10:24.83	53.77	24.82	-37.6	-38.4	24.2	0.00e+00	0	39	0	573571072	48	5991
2026-01-02 22:10:25.84	53.48	24.87	-37.7	-38.5	24.2	0.00e+00	0	39	0	575668224	48	6077
2026-01-02 22:10:26.86	53.20	24.92	-38.0	-38.9	23.8	0.00e+00	92	39	0	577765376	48	6319
2026-01-02 22:10:27.87	52.91	24.96	-38.4	-39.3	23.4	0.00e+00	0	39	0	579862528	48	6653
2026-01-02 22:10:28.87	52.63	25.00	-38.7	-39.7	23.2	0.00e+00	38	39	0	581959680	48	6928
2026-01-02 22:10:29.88	52.35	25.05	-38.8	-39.7	23.2	0.00e+00	0	39	0	583008256	50	6185
2026-01-02 22:10:30.89	52.06	25.09	-38.7	-39.6	23.3	0.00e+00	90	39	0	585105408	50	6133
2026-01-02 22:10:31.90	51.77	25.13	-38.8	-39.7	23.2	0.00e+00	0	39	0	587202560	50	6242
2026-01-02 22:10:32.91	51.49	25.17	-39.6	-40.5	22.5	0.00e+00	7	39	0	589299712	50	6844
2026-01-02 22:10:33.92	51.20	25.21	-40.0	-41.1	22.0	0.00e+00	92	39	0	591396864	52	6471
2026-01-02 22:10:34.93	50.91	25.25	-40.4	-41.5	21.8	0.00e+00	0	39	0	592445440	52	6818
2026-01-02 22:10:35.94	50.62	25.29	-40.3	-41.4	22.0	0.00e+00	75	39	0	594542592	52	6753
2026-01-02 22:10:36.95	50.33	25.33	-39.9	-40.9	22.3	0.00e+00	2	39	0	596639744	52	6376
2026-01-02 22:10:37.96	50.04	25.37	-39.7	-40.7	22.5	0.00e+00	92	39	0	598736896	52	6197
2026-01-02 22:10:38.97	49.74	25.40	-39.5	-40.5	22.6	0.00e+00	0	39	0	600834048	52	6057
2026-01-02 22:10:39.98	49.45	25.44	-39.6	-40.5	22.7	0.00e+00	31	39	0	601882624	52	6080
2026-01-02 22:10:40.98	49.16	25.47	-39.5	-40.4	22.7	0.00e+00	51	39	0	603979776	52	6026
2026-01-02 22:10:41.99	48.87	25.51	-39.4	-40.5	22.8	0.00e+00	0	39	0	606076928	52	6040
2026-01-02 22:10:43.00	48.57	25.54	-39.5	-40.5	22.5	0.00e+00	37	39	0	608174080	52	6061
2026-01-02 22:10:44.01	48.28	25.57	-39.9	-40.9	22.3	0.00e+00	0	39	0	610271232	52	6375
2026-01-02 22:10:45.02	47.98	25.60	-40.0	-41.0	22.3	0.00e+00	85	39	0	611319808	52	6463
2026-01-02 22:10:46.03	47.69	25.64	-39.9	-41.0	22.3	0.00e+00	0	39	0	613416960	52	6415
2026-01-02 22:10:47.04	47.39	25.67	-39.9	-41.0	22.3	0.00e+00	88	39	0	615514112	52	6399
2026-01-02 22:10:48.05	47.09	25.70	-39.7	-40.7	22.4	0.00e+00	0	39	0	617611264	52	6233
2026-01-02 22:10:49.06	46.79	25.72	-39.7	-40.7	22.5	0.00e+00	0	39	0	619708416	52	6227
2026-01-02 22:10:50.07	46.49	25.75	-39.8	-40.8	22.5	0.00e+00	14	39	0	620756992	52	6251
2026-01-02 22:10:51.08	46.20	25.78	-39.7	-40.7	22.5	0.00e+00	0	39	0	622854144	52	6207
2026-01-02 22:10:52.09	45.90	25.80	-40.0	-41.0	22.1	0.00e+00	72	39	0	624951296	52	6447
2026-01-02 22:10:53.10	45.60	25.83	-40.1	-41.2	22.0	0.00e+00	0	39	0	627048448	52	6584
2026-01-02 22:10:54.11	45.29	25.85	-40.3	-41.3	21.9	0.00e+00	92	39	0	629145600	52	6666
2026-01-02 22:10:55.12	44.99	25.88	-40.2	-41.3	22.2	0.00e+00	0	39	0	630194176	52	6647
2026-01-02 22:10:56.13	44.69	25.90	-40.2	-41.2	22.0	0.00e+00	0	39	0	632291328	52	6583
2026-01-02 22:10:57.14	44.39	25.92	-39.7	-40.7	22.4	0.00e+00	77	39	0	634388480	52	6236
2026-01-02 22:10:58.14	44.09	25.94	-39.6	-40.6	22.5	0.00e+00	0	39	0	636485632	52	6124
2026-01-02 22:10:59.15	43.79	25.96	-39.6	-40.6	22.6	0.00e+00	91	39	0	638582784	52	6125
2026-01-02 22:11:00.16	43.49	25.98	-39.5	-40.5	22.7	0.00e+00	33	39	0	639631360	52	6060
2026-01-02 22:11:01.17	43.18	26.00	-39.6	-40.6	22.5	0.00e+00	91	39	0	641728512	52	6141
2026-01-02 22:11:02.18	42.88	26.02	-39.7	-40.7	22.5	0.00e+00	17	39	0	643825664	52	6231
2026-01-02 22:11:03.19	42.57	26.04	-39.6	-40.5	22.6	0.00e+00	0	39	0	645922816	52	6086
2026-01-02 22:11:04.20	42.27	26.05	-39.6	-40.6	22.5	0.00e+00	92	39	0	648019968	52	6155
2026-01-02 22:11:05.21	41.97	26.07	-40.1	-41.1	22.0	0.00e+00	0	39	0	650117120	52	6514
2026-01-02 22:11:06.22	41.66	26.08	-40.3	-41.4	22.0	0.00e+00	92	39	0	651165696	52	6730
2026-01-02 22:11:07.23	41.35	26.09	-40.5	-41.6	21.8	0.00e+00	5	39	0	653262848	52	6896
2026-01-02 22:11:08.24	41.05	26.11	-40.4	-41.5	21.9	0.00e+00	70	39	0	655360000	52	6771
2026-01-02 22:11:09.25	40.74	26.12	-40.6	-41.6	21.7	0.00e+00	0	39	0	657457152	52	6923
2026-01-02 22:11:10.26	40.44	26.13	-40.0	-41.0	22.3	0.00e+00	0	39	0	659554304	52	6441
2026-01-02 22:11:11.27	40.13	26.14	-40.0	-41.0	22.3	0.00e+00	92	39	0	660602880	52	6444
2026-01-02 22:11:12.28	39.83	26.15	-39.8	-40.8	22.2	0.00e+00	0	39	0	662700032	52	6282
2026-01-02 22:11:13.28	39.52	26.15	-39.6	-40.5	22.6	0.00e+00	38	39	0	664797184	52	6087
2026-01-02 22:11:14.29	39.22	26.16	-39.4	-40.3	22.7	0.00e+00	0	39	0	666894336	52	5944
2026-01-02 22:11:15.30	38.91	26.17	-39.5	-40.4	22.6	0.00e+00	90	39	0	668991488	52	6030
2026-01-02 22:11:16.31	38.60	26.17	-39.6	-40.6	22.6	0.00e+00	0	39	0	670040064	52	6164
2026-01-02 22:11:17.32	38.30	26.18	-40.2	-41.2	22.0	0.00e+00	25	39	0	672137216	52	6598
2026-01-02 22:11:18.33	37.99	26.18	-40.5	-41.6	21.8	0.00e+00	91	39	0	674234368	52	6920
2026-01-02 22:11:19.34	37.68	26.18	-40.9	-42.1	21.2	0.00e+00	0	39	0	676331520	54	6491
2026-01-02 22:11:20.35	37.37	26.18	-40.5	-41.6	21.7	0.00e+00	92	39	0	678428672	54	6133
2026-01-02 22:11:21.36	37.07	26.18	-40.5	-41.6	21.7	0.00e+00	0	39	0	679477248	54	6108
2026-01-02 22:11:22.37	36.76	26.18	-40.4	-41.5	21.9	0.00e+00	92	39	0	681574400	54	6035
2026-01-02 22:11:23.38	36.45	26.18	-40.0	-41.1	22.2	0.00e+00	0	39	0	683671552	54	5782
2026-01-02 22:11:24.39	36.15	26.18	-39.9	-41.0	22.3	0.00e+00	92	39	0	685768704	54	5710
2026-01-02 22:11:25.40	35.84	26.18	-39.7	-40.7	22.5	0.00e+00	37	39	0	687865856	54	5525
2026-01-02 22:11:26.41	35.53	26.17	-39.6	-40.6	22.5	0.00e+00	0	39	0	688914432	52	6118
2026-01-02 22:11:27.42	35.23	26.17	-39.1	-40.0	23.1	0.00e+00	43	39	0	691011584	52	5747
2026-01-02 22:11:28.43	34.92	26.16	-38.8	-39.7	23.4	0.00e+00	0	39	0	693108736	52	5513
2026-01-02 22:11:29.43	34.62	26.16	-38.5	-39.4	23.5	0.00e+00	25	39	0	695205888	50	6008
2026-01-02 22:11:30.44	34.31	26.15	-38.6	-39.5	23.4	0.00e+00	0	39	0	697303040	50	6047
2026-01-02 22:11:31.45	34.00	26.14	-38.4	-39.2	23.1	0.00e+00	0	39	0	698351616	50	5880
2026-01-02 22:11:32.46	33.70	26.13	-38.7	-39.6	23.3	0.00e+00	0	39	0	700448768	50	6132
2026-01-02 22:11:33.47	33.39	26.12	-38.8	-39.7	23.1	0.00e+00	0	39	0	702545920	50	6210
2026-01-02 22:11:34.48	33.09	26.11	-38.5	-39.4	23.5	0.00e+00	92	39	0	704643072	50	5993
2026-01-02 22:11:35.48	32.78	26.10	-38.4	-39.3	23.7	0.00e+00	0	39	0	706740224	50	5930
2026-01-02 22:11:36.49	32.48	26.09	-38.1	-39.0	23.9	0.00e+00	92	39	0	707788800	50	5731
2026-01-02 22:11:37.50	32.17	26.07	-37.9	-38.7	24.0	0.00e+00	0	39	0	709885952	50	5555
2026-01-02 22:11:38.51	31.87	26.06	-37.7	-38.6	24.0	0.00e+00	0	39	0	711983104	48	6105
2026-01-02 22:11:39.52	31.56	26.04	-37.3	-38.0	24.5	0.00e+00	0	39	0	714080256	48	5757
2026-01-02 22:11:40.53	31.26	26.02	-36.8	-37.6	24.7	0.00e+00	0	39	0	716177408	48	5451
2026-01-02 22:11:41.54	30.96	26.01	-37.0	-37.7	24.7	0.00e+00	31	39	0	717225984	48	5548
2026-01-02 22:11:42.55	30.65	25.99	-37.3	-38.1	24.4	0.00e+00	0	39	0	719323136	48	5815
2026-01-02 22:11:43.56	30.35	25.97	-37.3	-38.1	24.5	0.00e+00	92	39	0	721420288	48	5803
2026-01-02 22:11:44.57	30.05	25.95	-37.3	-38.1	24.5	0.00e+00	0	39	0	723517440	48	5782
2026-01-02 22:11:45.58	29.74	25.93	-37.3	-38.0	24.4	0.00e+00	0	39	0	725614592	48	5751
2026-01-02 22:11:46.59	29.44	25.91	-37.5	-38.3	24.3	0.00e+00	0	39	0	726663168	48	5919
2026-01-02 22:11:47.60	29.14	25.89	-37.5	-38.3	24.2	0.00e+00	0	39	0	728760320	48	5954
2026-01-02 22:11:48.61	28.84	25.86	-37.9	-38.8	23.9	0.00e+00	32	39	0	730857472	48	6271
2026-01-02 22:11:49.62	28.54	25.84	-38.0	-38.9	23.4	0.00e+00	0	39	0	732954624	48	6377
2026-01-02 22:11:50.63	28.24	25.81	-38.0	-38.9	23.7	0.00e+00	92	39	0	735051776	48	6339
2026-01-02 22:11:51.64	27.94	25.79	-38.3	-39.1	23.5	0.00e+00	0	39	0	736100352	48	6525
2026-01-02 22:11:52.65	27.64	25.76	-38.2	-39.1	23.6	0.00e+00	0	39	0	738197504	48	6529
2026-01-02 22:11:53.65	27.35	25.73	-38.3	-39.2	23.6	0.00e+00	0	39	0	740294656	48	6608
2026-01-02 22:11:54.66	27.05	25.70	-38.2	-39.1	23.6	0.00e+00	0	39	0	742391808	48	6491
2026-01-02 22:11:55.67	26.75	25.68	-38.3	-39.2	23.6	0.00e+00	33	39	0	744488960	48	6559
2026-01-02 22:11:56.68	26.45	25.65	-38.4	-39.3	23.5	0.00e+00	0	39	0	746586112	48	6642
2026-01-02 22:11:57.69	26.16	25.62	-38.5	-39.4	23.4	0.00e+00	75	39	0	747634688	48	6736
2026-01-02 22:11:58.70	25.86	25.58	-38.7	-39.7	22.9	0.00e+00	0	39	0	749731840	50	6188
2026-01-02 22:11:59.71	25.57	25.55	-39.0	-40.0	22.9	0.00e+00	0	39	0	751828992	50	6420
2026-01-02 22:12:00.72	25.27	25.52	-38.7	-39.6	23.2	0.00e+00	0	39	0	753926144	50	6154
2026-01-02 22:12:01.73	24.98	25.48	-38.8	-39.7	23.2	0.00e+00	0	39	0	756023296	50	6194
2026-01-02 22:12:02.74	24.69	25.45	-39.1	-40.0	23.0	0.00e+00	13	39	0	757071872	50	6449
2026-01-02 22:12:03.75	24.39	25.41	-39.4	-40.4	22.7	0.00e+00	0	39	0	759169024	50	6741
2026-01-02 22:12:04.76	24.10	25.38	-39.7	-40.8	22.5	0.00e+00	91	39	0	761266176	50	7014
2026-01-02 22:12:05.77	23.81	25.34	-39.3	-40.2	22.8	0.00e+00	0	39	0	763363328	50	6595
2026-01-02 22:12:06.77	23.52	25.30	-39.0	-39.9	23.1	0.00e+00	91	39	0	765460480	50	6361
2026-01-02 22:12:07.78	23.23	25.26	-38.6	-39.5	23.3	0.00e+00	0	39	0	766509056	50	6066
2026-01-02 22:12:08.80	22.94	25.23	-38.6	-39.5	23.2	0.00e+00	0	39	0	768606208	50	6083
2026-01-02 22:12:09.80	22.66	25.19	-39.0	-39.9	23.0	0.00e+00	17	39	0	770703360	50	6358
2026-01-02 22:12:10.81	22.37	25.14	-39.3	-40.2	22.7	0.00e+00	0	39	0	772800512	50	6608
2026-01-02 22:12:11.82	22.08	25.10	-39.3	-40.2	22.7	0.00e+00	92	39	0	774897664	50	6585
2026-01-02 22:12:12.83	21.79	25.06	-39.6	-40.6	22.5	0.00e+00	0	39	0	775946240	50	6908
2026-01-02 22:12:13.84	21.51	25.02	-39.6	-40.6	22.5	0.00e+00	92	39	0	778043392	50	6851
2026-01-02 22:12:14.85	21.23	24.97	-39.8	-40.8	22.3	0.00e+00	0	39	0	780140544	52	6314
2026-01-02 22:12:15.86	20.94	24.93	-39.8	-40.8	22.2	0.00e+00	0	39	0	782237696	52	6271
2026-01-02 22:12:16.87	20.66	24.89	-39.7	-40.7	22.4	0.00e+00	0	39	0	784334848	52	6218
2026-01-02 22:12:17.88	20.38	24.84	-39.7	-40.7	22.4	0.00e+00	0	39	0	785383424	52	6203
2026-01-02 22:12:18.89	20.10	24.79	-39.9	-40.9	22.2	0.00e+00	37	39	0	787480576	52	6358
2026-01-02 22:12:19.90	19.81	24.75	-40.0	-41.1	22.0	0.00e+00	0	39	0	789577728	52	6512
2026-01-02 22:12:20.91	19.54	24.70	-40.4	-41.5	21.6	0.00e+00	58	39	0	791674880	52	6833
2026-01-02 22:12:21.92	19.26	24.65	-40.2	-41.3	21.9	0.00e+00	0	39	0	793772032	52	6625
2026-01-02 22:12:22.93	18.98	24.60	-40.0	-41.1	22.1	0.00e+00	0	39	0	794820608	52	6503
2026-01-02 22:12:23.93	18.70	24.55	-40.0	-41.1	22.0	0.00e+00	0	39	0	796917760	52	6477
2026-01-02 22:12:24.95	18.43	24.50	-40.0	-41.0	22.1	0.00e+00	0	39	0	799014912	52	6428
2026-01-02 22:12:25.95	18.15	24.45	-40.1	-41.1	22.1	0.00e+00	53	39	0	801112064	52	6532
2026-01-02 22:12:26.96	17.88	24.40	-39.8	-40.8	22.3	0.00e+00	0	39	0	803209216	52	6271
2026-01-02 22:12:27.97	17.61	24.35	-40.2	-41.2	22.0	0.00e+00	92	39	0	804257792	52	6584
2026-01-02 22:12:28.98	17.33	24.30	-40.0	-41.1	22.2	0.00e+00	0	39	0	806354944	52	6482
2026-01-02 22:12:29.99	17.06	24.24	-40.0	-41.1	22.1	0.00e+00	8	39	0	808452096	52	6483
2026-01-02 22:12:31.00	16.79	24.19	-40.0	-41.0	22.2	0.00e+00	0	39	0	810549248	52	6416
2026-01-02 22:12:32.01	16.52	24.13	-39.9	-40.9	22.3	0.00e+00	0	39	0	812646400	52	6376
2026-01-02 22:12:33.02	16.25	24.08	-39.7	-40.7	22.5	0.00e+00	53	39	0	814743552	52	6194
2026-01-02 22:12:34.02	15.99	24.02	-39.7	-40.7	22.4	0.00e+00	0	39	0	815792128	52	6238
2026-01-02 22:12:35.03	15.72	23.97	-39.6	-40.6	22.3	0.00e+00	68	39	0	817889280	52	6157
2026-01-02 22:12:36.04	15.46	23.91	-39.5	-40.5	22.6	0.00e+00	0	39	0	819986432	52	6083
2026-01-02 22:12:37.05	15.19	23.85	-39.7	-40.8	22.3	0.00e+00	36	39	0	822083584	52	6249
2026-01-02 22:12:38.06	14.93	23.80	-39.8	-40.8	22.0	0.00e+00	0	39	0	824180736	52	6307
2026-01-02 22:12:39.07	14.66	23.74	-40.0	-41.1	21.9	0.00e+00	0	39	0	825229312	52	6494
2026-01-02 22:12:40.08	14.40	23.68	-40.4	-41.5	21.7	0.00e+00	15	39	0	827326464	52	6772
2026-01-02 22:12:41.09	14.14	23.62	-40.6	-41.8	21.3	0.00e+00	0	39	0	829423616	54	6284
2026-01-02 22:12:42.10	13.88	23.56	-40.5	-41.6	21.5	0.00e+00	92	39	0	831520768	54	6146
2026-01-02 22:12:43.11	13.62	23.50	-40.0	-41.1	22.1	0.00e+00	0	39	0	833617920	54	5772
2026-01-02 22:12:44.12	13.37	23.44	-39.4	-40.4	22.6	0.00e+00	63	39	0	834666496	52	5982
2026-01-02 22:12:45.13	13.11	23.38	-39.6	-40.6	22.5	0.00e+00	0	39	0	836763648	52	6146
2026-01-02 22:12:46.14	12.85	23.32	-39.3	-40.2	22.6	0.00e+00	0	39	0	838860800	52	5884
2026-01-02 22:12:47.15	12.60	23.25	-39.5	-40.6	22.4	0.00e+00	0	39	0	840957952	52	6117
2026-01-02 22:12:48.16	12.34	23.19	-40.0	-41.1	21.8	0.00e+00	0	39	0	843055104	52	6474
2026-01-02 22:12:49.17	12.09	23.13	-40.6	-41.7	21.6	0.00e+00	83	39	0	844103680	52	6981
2026-01-02 22:12:50.18	11.84	23.06	-40.8	-42.0	21.4	0.00e+00	0	39	0	846200832	54	6444
2026-01-02 22:12:51.19	11.59	23.00	-41.0	-42.3	21.0	0.00e+00	90	39	0	848297984	54	6635
2026-01-02 22:12:52.20	11.34	22.94	-40.8	-42.0	21.2	0.00e+00	0	39	0	850395136	54	6464
2026-01-02 22:12:53.21	11.09	22.87	-40.7	-41.9	21.4	0.00e+00	0	39	0	852492288	54	6350
2026-01-02 22:12:54.22	10.84	22.81	-40.3	-41.4	21.8	0.00e+00	20	39	0	853540864	54	6002
2026-01-02 22:12:55.23	10.60	22.74	-40.0	-41.1	22.1	0.00e+00	0	39	0	855638016	54	5785
2026-01-02 22:12:56.24	10.35	22.67	-39.8	-40.9	22.3	0.00e+00	34	39	0	857735168	52	6337
2026-01-02 22:12:57.25	10.11	22.61	-39.1	-40.1	23.0	0.00e+00	0	39	0	859832320	52	5766
2026-01-02 22:12:58.26	9.86	22.54	-38.8	-39.7	23.1	0.00e+00	91	39	0	861929472	50	6235
2026-01-02 22:12:59.27	9.62	22.47	-38.9	-39.8	23.1	0.00e+00	0	39	0	862978048	50	6317
2026-01-02 22:13:00.28	9.38	22.41	-39.1	-40.1	22.8	0.00e+00	0	39	0	865075200	50	6488
2026-01-02 22:13:01.29	9.14	22.34	-39.4	-40.5	22.6	0.00e+00	0	39	0	867172352	50	6776
2026-01-02 22:13:02.30	8.90	22.27	-40.0	-41.1	22.0	0.00e+00	0	39	0	869269504	52	6508
2026-01-02 22:13:03.31	8.66	22.20	-40.3	-41.5	21.8	0.00e+00	68	39	0	871366656	52	6780
2026-01-02 22:13:04.32	8.43	22.13	-40.1	-41.2	22.0	0.00e+00	0	39	0	872415232	52	6596
2026-01-02 22:13:05.33	8.19	22.06	-39.8	-40.9	22.2	0.00e+00	92	39	0	874512384	52	6342
2026-01-02 22:13:06.34	7.96	21.99	-39.6	-40.7	22.5	0.00e+00	0	39	0	876609536	52	6207
2026-01-02 22:13:07.35	7.72	21.92	-39.2	-40.2	22.8	0.00e+00	0	39	0	878706688	52	5875
2026-01-02 22:13:08.36	7.49	21.85	-38.7	-39.7	23.2	0.00e+00	0	39	0	880803840	52	5515
2026-01-02 22:13:09.37	7.26	21.78	-38.1	-38.9	23.8	0.00e+00	0	39	0	882900992	50	5675
2026-01-02 22:13:10.38	7.03	21.71	-38.1	-38.9	23.7	0.00e+00	5	39	0	883949568	50	5692
2026-01-02 22:13:11.39	6.80	21.64	-38.0	-38.9	23.9	0.00e+00	0	39	0	886046720	50	5648
2026-01-02 22:13:12.40	6.57	21.57	-38.1	-39.0	23.6	0.00e+00	70	39	0	888143872	50	5699
2026-01-02 22:13:13.41	6.34	21.50	-38.3	-39.2	23.6	0.00e+00	0	39	0	890241024	50	5852
2026-01-02 22:13:14.42	6.12	21.42	-38.5	-39.4	23.4	0.00e+00	57	39	0	892338176	50	6031
2026-01-02 22:13:15.43	5.89	21.35	-38.5	-39.5	23.4	0.00e+00	0	39	0	893386752	50	6044
2026-01-02 22:13:16.43	5.67	21.28	-38.6	-39.5	23.3	0.00e+00	0	39	0	895483904	50	6064
2026-01-02 22:13:17.44	5.45	21.21	-38.6	-39.5	23.3	0.00e+00	0	39	0	897581056	50	6093
2026-01-02 22:13:18.45	5.23	21.13	-38.6	-39.5	23.2	0.00e+00	0	39	0	899678208	50	6093
2026-01-02 22:13:19.46	5.01	21.06	-38.6	-39.5	23.2	0.00e+00	66	39	0	901775360	50	6078
2026-01-02 22:13:20.47	4.79	20.99	-38.6	-39.5	23.3	0.00e+00	0	39	0	902823936	50	6087
2026-01-02 22:13:21.48	4.57	20.91	-38.7	-39.6	23.2	0.00e+00	92	39	0	904921088	50	6160
2026-01-02 22:13:22.49	4.35	20.84	-38.7	-39.7	23.2	0.00e+00	0	39	0	907018240	50	6212
2026-01-02 22:13:23.50	4.13	20.77	-38.6	-39.5	23.2	0.00e+00	0	39	0	909115392	50	6094
2026-01-02 22:13:24.51	3.92	20.69	-38.6	-39.5	23.1	0.00e+00	0	39	0	911212544	50	6071
2026-01-02 22:13:25.52	3.70	20.62	-38.6	-39.5	23.3	0.00e+00	0	39	0	912261120	50	6092
2026-01-02 22:13:26.53	3.49	20.54	-38.7	-39.7	23.2	0.00e+00	31	39	0	914358272	50	6174
2026-01-02 22:13:27.53	3.28	20.47	-38.6	-39.6	23.0	0.00e+00	0	39	0	916455424	50	6134
2026-01-02 22:13:28.54	3.07	20.39	-38.5	-39.5	23.2	0.00e+00	90	39	0	918552576	50	6048
2026-01-02 22:13:29.55	2.86	20.32	-38.6	-39.5	23.2	0.00e+00	0	39	0	920649728	50	6079
2026-01-02 22:13:30.56	2.65	20.24	-39.0	-39.9	23.1	0.00e+00	0	39	0	921698304	50	6374
2026-01-02 22:13:31.57	2.44	20.17	-39.0	-40.0	22.8	0.00e+00	0	39	0	923795456	50	6407
2026-01-02 22:13:32.58	2.23	20.09	-39.3	-40.3	22.5	0.00e+00	0	39	0	925892608	50	6653
2026-01-02 22:13:33.59	2.03	20.01	-39.4	-40.4	22.4	0.00e+00	76	39	0	927989760	50	6746
2026-01-02 22:13:34.60	1.82	19.94	-39.6	-40.6	22.4	0.00e+00	0	39	0	930086912	50	6916
2026-01-02 22:13:35.62	1.62	19.86	-39.2	-40.2	22.7	0.00e+00	92	39	0	931135488	50	6551
2026-01-02 22:13:36.62	1.41	19.78	-39.1	-40.1	22.8	0.00e+00	0	39	0	933232640	50	6486
2026-01-02 22:13:37.63	1.21	19.71	-38.7	-39.6	23.1	0.00e+00	0	39	0	935329792	50	6166
2026-01-02 22:13:38.64	1.01	19.63	-38.8	-39.8	23.0	0.00e+00	0	39	0	937426944	50	6269
2026-01-02 22:13:39.65	0.81	19.55	-39.0	-40.0	22.9	0.00e+00	0	39	0	939524096	50	6394
2026-01-02 22:13:40.66	0.61	19.48	-39.2	-40.1	22.7	0.00e+00	39	39	0	940572672	50	6535
2026-01-02 22:13:41.67	0.41	19.40	-39.2	-40.2	22.6	0.00e+00	0	39	0	942669824	50	6566
2026-01-02 22:13:42.68	0.22	19.32	-38.8	-39.8	23.0	0.00e+00	92	39	0	944766976	50	6265
2026-01-02 22:13:43.69	0.02	19.24	-38.6	-39.5	23.3	0.00e+00	0	39	0	946864128	50	6087
2026-01-02 22:13:44.70	359.83	19.17	-38.3	-39.2	23.5	0.00e+00	51	39	0	948961280	50	5891
2026-01-02 22:13:45.71	359.63	19.09	-37.8	-38.6	23.9	0.00e+00	0	39	0	951058432	50	5480
2026-01-02 22:13:46.72	359.44	19.01	-37.6	-38.5	24.2	0.00e+00	0	39	0	952107008	48	6054
2026-01-02 22:13:47.73	359.25	18.93	-37.5	-38.4	24.0	0.00e+00	41	39	0	954204160	48	5977
2026-01-02 22:13:48.74	359.06	18.86	-37.6	-38.5	24.1	0.00e+00	0	39	0	956301312	48	6035
2026-01-02 22:13:49.74	358.87	18.78	-37.5	-38.3	24.0	0.00e+00	92	39	0	958398464	48	5944
2026-01-02 22:13:50.75	358.68	18.70	-37.8	-38.6	24.0	0.00e+00	0	39	0	960495616	48	6158
2026-01-02 22:13:51.76	358.49	18.62	-37.7	-38.6	23.8	0.00e+00	0	39	0	961544192	48	6136
2026-01-02 22:13:52.77	358.31	18.54	-37.8	-38.7	23.6	0.00e+00	0	39	0	963641344	48	6202
2026-01-02 22:13:53.78	358.12	18.47	-38.1	-39.0	23.4	0.00e+00	0	39	0	965738496	48	6442
2026-01-02 22:13:54.79	357.93	18.39	-38.4	-39.3	23.2	0.00e+00	27	39	0	967835648	48	6676
2026-01-02 22:13:55.80	357.75	18.31	-38.4	-39.4	23.3	0.00e+00	0	39	0	968884224	48	6716
2026-01-02 22:13:56.81	357.57	18.23	-38.1	-39.0	23.6	0.00e+00	29	39	0	970981376	48	6418
2026-01-02 22:13:57.82	357.39	18.15	-38.1	-39.0	23.6	0.00e+00	0	39	0	973078528	48	6401
2026-01-02 22:13:58.83	357.20	18.07	-37.8	-38.6	23.8	0.00e+00	59	39	0	975175680	48	6164
2026-01-02 22:13:59.84	357.02	17.99	-37.6	-38.4	24.0	0.00e+00	0	39	0	977272832	48	6024
2026-01-02 22:14:00.84	356.85	17.92	-37.6	-38.5	23.9	0.00e+00	0	39	0	979369984	48	6047
2026-01-02 22:14:01.85	356.67	17.84	-37.8	-38.7	23.8	0.00e+00	0	39	0	980418560	48	6184
2026-01-02 22:14:02.86	356.49	17.76	-37.8	-38.6	23.8	0.00e+00	0	39	0	982515712	48	6171
2026-01-02 22:14:03.87	356.32	17.68	-38.0	-38.9	23.7	0.00e+00	50	39	0	984612864	48	6364
2026-01-02 22:14:04.88	356.14	17.60	-38.3	-39.2	23.5	0.00e+00	0	39	0	986710016	48	6597
2026-01-02 22:14:05.88	355.97	17.52	-38.4	-39.3	23.3	0.00e+00	74	39	0	988807168	48	6649
2026-01-02 22:14:06.90	355.79	17.44	-38.6	-39.5	23.2	0.00e+00	0	39	0	989855744	48	6794
2026-01-02 22:14:07.91	355.62	17.37	-38.6	-39.5	23.1	0.00e+00	0	39	0	991952896	48	6796
2026-01-02 22:14:08.91	355.45	17.29	-38.5	-39.4	23.2	0.00e+00	0	39	0	994050048	48	6744
2026-01-02 22:14:09.92	355.28	17.21	-38.7	-39.6	23.1	0.00e+00	0	39	0	996147200	48	6896
2026-01-02 22:14:10.93	355.11	17.13	-38.6	-39.5	23.2	0.00e+00	34	39	0	998244352	50	6073
2026-01-02 22:14:11.94	354.94	17.05	-38.3	-39.2	23.4	0.00e+00	0	39	0	999292928	50	5892
2026-01-02 22:14:12.95	354.77	16.97	-37.9	-38.8	23.7	0.00e+00	90	39	0	1001390080	50	5583
2026-01-02 22:14:13.96	354.60	16.89	-37.7	-38.6	23.8	0.00e+00	0	39	0	1003487232	48	6115
2026-01-02 22:14:14.97	354.44	16.81	-37.7	-38.5	23.9	0.00e+00	0	39	0	1005584384	48	6071
2026-01-02 22:14:15.98	354.27	16.73	-37.6	-38.4	24.0	0.00e+00	0	39	0	1007681536	48	6020
2026-01-02 22:14:16.99	354.11	16.66	-37.8	-38.7	23.8	0.00e+00	0	39	0	1008730112	48	6211
2026-01-02 22:14:18.00	353.94	16.58	-38.2	-39.1	23.4	0.00e+00	0	39	0	1010827264	48	6480
2026-01-02 22:14:19.01	353.78	16.50	-38.5	-39.4	23.1	0.00e+00	0	39	0	1012924416	48	6762
2026-01-02 22:14:20.02	353.62	16.42	-38.9	-39.8	22.8	0.00e+00	88	39	0	1015021568	50	6304
2026-01-02 22:14:21.03	353.46	16.34	-39.3	-40.4	22.6	0.00e+00	0	39	0	1017118720	50	6695
2026-01-02 22:14:22.04	353.30	16.26	-39.3	-40.3	22.5	0.00e+00	0	39	0	1018167296	50	6680
2026-01-02 22:14:23.05	353.14	16.18	-39.1	-40.0	22.7	0.00e+00	0	39	0	1020264448	50	6448
2026-01-02 22:14:24.06	352.98	16.10	-39.0	-40.0	22.7	0.00e+00	0	39	0	1022361600	50	6435
2026-01-02 22:14:25.07	352.82	16.03	-38.8	-39.7	23.0	0.00e+00	27	39	0	1024458752	50	6216
2026-01-02 22:14:26.08	352.66	15.95	-38.6	-39.5	23.1	0.00e+00	0	39	0	1026555904	50	6076
2026-01-02 22:14:27.09	352.51	15.87	-38.7	-39.7	22.9	0.00e+00	50	39	0	1027604480	50	6183
2026-01-02 22:14:28.10	352.35	15.79	-38.6	-39.6	23.0	0.00e+00	0	39	0	1029701632	50	6108
2026-01-02 22:14:29.11	352.20	15.71	-38.6	-39.6	22.7	0.00e+00	62	39	0	1031798784	50	6121
2026-01-02 22:14:30.11	352.05	15.63	-38.6	-39.6	22.9	0.00e+00	0	39	0	1033895936	50	6126
2026-01-02 22:14:31.12	351.89	15.55	-38.5	-39.5	23.1	0.00e+00	0	39	0	1035993088	50	6043
2026-01-02 22:14:32.13	351.74	15.48	-38.5	-39.4	23.1	0.00e+00	0	39	0	1037041664	50	5981
2026-01-02 22:14:33.14	351.59	15.40	-38.7	-39.7	22.8	0.00e+00	0	39	0	1039138816	50	6184
2026-01-02 22:14:34.15	351.44	15.32	-38.9	-39.9	22.9	0.00e+00	20	39	0	1041235968	50	6341
2026-01-02 22:14:35.16	351.29	15.24	-39.1	-40.1	22.5	0.00e+00	0	39	0	1043333120	50	6467
2026-01-02 22:14:36.17	351.14	15.16	-39.4	-40.4	22.3	0.00e+00	92	39	0	1045430272	50	6706
2026-01-02 22:14:37.18	351.00	15.08	-39.7	-40.7	22.1	0.00e+00	0	39	0	1047527424	50	6998
2026-01-02 22:14:38.19	350.85	15.01	-39.8	-40.9	21.9	0.00e+00	32	39	0	1048576000	52	6383
2026-01-02 22:14:39.20	350.70	14.93	-40.0	-41.1	21.8	0.00e+00	0	39	0	1050673152	52	6483
2026-01-02 22:14:40.21	350.56	14.85	-40.1	-41.2	21.8	0.00e+00	0	39	0	1052770304	52	6564
2026-01-02 22:14:41.22	350.41	14.77	-39.9	-41.0	21.8	0.00e+00	90	39	0	1054867456	52	6462
2026-01-02 22:14:42.23	350.27	14.69	-39.9	-41.0	22.1	0.00e+00	0	39	0	1056964608	52	6404
2026-01-02 22:14:43.23	350.13	14.62	-39.2	-40.2	22.6	0.00e+00	92	39	0	1058013184	52	5886
2026-01-02 22:14:44.24	349.98	14.54	-38.8	-39.8	22.9	0.00e+00	33	39	0	1060110336	52	5580
2026-01-02 22:14:45.25	349.84	14.46	-38.3	-39.2	23.3	0.00e+00	0	39	0	1062207488	50	5871
2026-01-02 22:14:46.26	349.70	14.38	-38.4	-39.3	23.2	0.00e+00	0	39	0	1064304640	50	5939
2026-01-02 22:14:47.27	349.56	14.31	-38.6	-39.6	23.1	0.00e+00	0	39	0	1066401792	50	6112
2026-01-02 22:14:48.28	349.42	14.23	-38.4	-39.4	23.1	0.00e+00	48	39	0	1067450368	50	5971
2026-01-02 22:14:49.29	349.28	14.15	-38.6	-39.5	23.0	0.00e+00	3	39	0	1069547520	50	6096
2026-01-02 22:14:50.30	349.14	14.07	-38.7	-39.6	22.9	0.00e+00	90	39	0	1071644672	50	6173
2026-01-02 22:14:51.31	349.01	14.00	-38.9	-39.8	22.7	0.00e+00	0	39	0	1073741824	50	6292
2026-01-02 22:14:52.32	348.87	13.92	-38.9	-39.8	22.8	0.00e+00	0	39	0	1075838976	50	6278
2026-01-02 22:14:53.33	348.74	13.84	-39.1	-40.1	22.5	0.00e+00	0	39	0	1076887552	50	6488
2026-01-02 22:14:54.34	348.60	13.77	-39.0	-39.9	22.7	0.00e+00	0	39	0	1078984704	50	6386
2026-01-02 22:14:55.35	348.47	13.69	-38.9	-39.9	22.7	0.00e+00	34	39	0	1081081856	50	6337
2026-01-02 22:14:56.36	348.33	13.61	-39.1	-40.0	22.6	0.00e+00	0	39	0	1083179008	50	6453
2026-01-02 22:14:57.37	348.20	13.54	-39.0	-39.9	22.7	0.00e+00	92	39	0	1085276160	50	6366
2026-01-02 22:14:58.38	348.07	13.46	-39.2	-40.2	22.5	0.00e+00	0	39	0	1086324736	50	6549
2026-01-02 22:14:59.39	347.94	13.38	-39.4	-40.4	22.4	0.00e+00	10	39	0	1088421888	50	6739
2026-01-02 22:15:00.39	347.81	13.31	-39.5	-40.5	22.4	0.00e+00	0	39	0	1090519040	50	6813
2026-01-02 22:15:01.41	347.68	13.23	-39.0	-40.0	22.6	0.00e+00	0	39	0	1092616192	50	6399
2026-01-02 22:15:02.41	347.55	13.15	-39.4	-40.4	22.3	0.00e+00	8	39	0	1094713344	50	6735
2026-01-02 22:15:03.42	347.42	13.08	-39.4	-40.4	22.2	0.00e+00	0	39	0	1095761920	50	6751
2026-01-02 22:15:04.43	347.29	13.00	-39.4	-40.4	22.2	0.00e+00	31	39	0	1097859072	50	6736
2026-01-02 22:15:05.44	347.16	12.93	-39.5	-40.5	22.1	0.00e+00	0	39	0	1099956224	50	6839
2026-01-02 22:15:06.45	347.04	12.85	-39.4	-40.5	22.2	0.00e+00	90	39	0	1102053376	50	6809
2026-01-02 22:15:07.46	346.91	12.77	-39.4	-40.5	22.2	0.00e+00	0	39	0	1104150528	50	6783
2026-01-02 22:15:08.47	346.78	12.70	-39.5	-40.6	22.2	0.00e+00	0	39	0	1105199104	50	6868
2026-01-02 22:15:09.48	346.66	12.62	-40.0	-41.1	21.7	0.00e+00	17	39	0	1107296256	52	6528
2026-01-02 22:15:10.49	346.54	12.55	-39.9	-41.0	21.8	0.00e+00	0	39	0	1109393408	52	6398
2026-01-02 22:15:11.50	346.41	12.47	-40.1	-41.2	21.6	0.00e+00	25	39	0	1111490560	52	6573
2026-01-02 22:15:12.51	346.29	12.40	-40.2	-41.3	21.4	0.00e+00	0	39	0	1113587712	52	6659
2026-01-02 22:15:13.52	346.17	12.32	-40.4	-41.6	21.2	0.00e+00	92	39	0	1115684864	52	6869
2026-01-02 22:15:14.53	346.05	12.25	-40.5	-41.6	21.2	0.00e+00	0	39	0	1116733440	52	6919
2026-01-02 22:15:15.54	345.93	12.17	-40.5	-41.7	21.2	0.00e+00	0	39	0	1118830592	52	6964
2026-01-02 22:15:16.55	345.81	12.10	-40.5	-41.6	21.2	0.00e+00	0	39	0	1120927744	52	6894
2026-01-02 22:15:17.56	345.69	12.02	-40.0	-41.2	21.6	0.00e+00	0	39	0	1123024896	52	6542
2026-01-02 22:15:18.57	345.57	11.95	-40.1	-41.2	21.6	0.00e+00	24	39	0	1125122048	52	6547
2026-01-02 22:15:19.58	345.45	11.87	-39.9	-41.0	21.9	0.00e+00	0	39	0	1126170624	52	6397
2026-01-02 22:15:20.59	345.33	11.80	-40.0	-41.0	21.6	0.00e+00	92	39	0	1128267776	52	6463
2026-01-02 22:15:21.59	345.22	11.72	-40.0	-41.1	21.7	0.00e+00	0	39	0	1130364928	52	6484
2026-01-02 22:15:22.61	345.10	11.65	-39.7	-40.8	21.9	0.00e+00	0	39	0	1132462080	52	6285
2026-01-02 22:15:23.61	344.98	11.57	-40.1	-41.2	21.6	0.00e+00	0	39	0	1134559232	52	6594
2026-01-02 22:15:24.62	344.87	11.50	-40.2	-41.3	21.5	0.00e+00	0	39	0	1135607808	52	6672
2026-01-02 22:15:25.63	344.75	11.43	-40.6	-41.8	21.0	0.00e+00	26	39	0	1137704960	52	7077
2026-01-02 22:15:26.64	344.64	11.35	-40.6	-41.8	21.0	0.00e+00	0	39	0	1139802112	52	7067
2026-01-02 22:15:27.65	344.53	11.28	-41.1	-42.4	20.4	0.00e+00	61	39	0	1141899264	54	6765
2026-01-02 22:15:28.66	344.41	11.21	-41.0	-42.3	20.6	0.00e+00	0	39	0	1143996416	54	6680
2026-01-02 22:15:29.67	344.30	11.13	-41.1	-42.4	20.6	0.00e+00	35	39	0	1145044992	54	6740
2026-01-02 22:15:30.68	344.19	11.06	-41.3	-42.6	20.4	0.00e+00	0	39	0	1147142144	54	6879
2026-01-02 22:15:31.69	344.08	10.99	-40.9	-42.2	20.7	0.00e+00	0	39	0	1149239296	54	6540
2026-01-02 22:15:32.70	343.97	10.91	-40.7	-42.0	20.9	0.00e+00	32	39	0	1151336448	54	6409
2026-01-02 22:15:33.71	343.86	10.84	-40.4	-41.6	21.1	0.00e+00	0	39	0	1153433600	54	6105
2026-01-02 22:15:34.72	343.75	10.77	-40.4	-41.5	21.3	0.00e+00	61	39	0	1154482176	54	6095
2026-01-02 22:15:35.73	343.64	10.69	-40.1	-41.3	21.4	0.00e+00	0	39	0	1156579328	54	5902
2026-01-02 22:15:36.74	343.53	10.62	-40.0	-41.1	21.5	0.00e+00	56	39	0	1158676480	54	5819
2026-01-02 22:15:37.75	343.42	10.55	-40.0	-41.2	21.5	0.00e+00	0	39	0	1160773632	54	5859
2026-01-02 22:15:38.76	343.31	10.48	-39.7	-40.8	21.8	0.00e+00	0	39	0	1162870784	54	5630
2026-01-02 22:15:39.76	343.21	10.40	-40.1	-41.2	21.5	0.00e+00	0	39	0	1163919360	52	6594
2026-01-02 22:15:40.77	343.10	10.33	-40.1	-41.2	21.5	0.00e+00	0	39	0	1166016512	52	6598
2026-01-02 22:15:41.79	343.00	10.26	-40.2	-41.5	21.3	0.00e+00	85	39	0	1168113664	52	6775
2026-01-02 22:15:42.79	342.89	10.19	-40.5	-41.7	21.1	0.00e+00	0	39	0	1170210816	52	6985
2026-01-02 22:15:43.81	342.79	10.11	-40.7	-41.9	20.9	0.00e+00	60	39	0	1172307968	52	7132
2026-01-02 22:15:44.81	342.68	10.04	-40.8	-42.1	20.6	0.00e+00	0	39	0	1173356544	54	6503
2026-01-02 22:15:45.82	342.58	9.97	-41.0	-42.3	20.4	0.00e+00	0	39	0	1175453696	54	6686
2026-01-02 22:15:46.83	342.48	9.90	-41.2	-42.6	20.4	0.00e+00	0	39	0	1177550848	54	6850
2026-01-02 22:15:47.84	342.38	9.83	-41.2	-42.6	20.2	0.00e+00	0	39	0	1179648000	54	6896
2026-01-02 22:15:48.85	342.27	9.76	-41.5	-43.0	19.8	0.00e+00	30	39	0	1181745152	54	7191
2026-01-02 22:15:49.86	342.17	9.69	-41.6	-43.0	19.8	0.00e+00	0	39	0	1182793728	54	7239
2026-01-02 22:15:50.87	342.07	9.61	-41.8	-43.4	19.5	0.00e+00	86	39	0	1184890880	56	6701
2026-01-02 22:15:51.88	341.97	9.54	-41.9	-43.4	19.6	0.00e+00	0	39	0	1186988032	56	6741
2026-01-02 22:15:52.89	341.87	9.47	-41.9	-43.5	19.6	0.00e+00	0	39	0	1189085184	56	6780
2026-01-02 22:15:53.91	341.77	9.40	-42.0	-43.6	19.4	0.00e+00	0	39	0	1191182336	56	6857
2026-01-02 22:15:54.91	341.67	9.33	-41.8	-43.4	19.6	0.00e+00	0	39	0	1193279488	56	6720
2026-01-02 22:15:55.93	341.57	9.26	-42.0	-43.6	19.5	0.00e+00	58	39	0	1194328064	56	6855
2026-01-02 22:15:56.94	341.48	9.19	-42.0	-43.7	19.3	0.00e+00	0	39	0	1196425216	56	6955
2026-01-02 22:15:57.94	341.38	9.12	-41.8	-43.3	19.6	0.00e+00	90	39	0	1198522368	56	6651
2026-01-02 22:15:58.95	341.28	9.05	-41.8	-43.3	19.6	0.00e+00	0	39	0	1200619520	56	6659
