passes_logs/2026/01/02/R4.6S_Anadyr/R4.6S_Anadyr__20260102_011300_NOAA_21_JPSS-2_rec.log

#Pass ID: 20260102_011300_NOAA 21 (JPSS-2)
#Satellite: NOAA 21 (JPSS-2)
#Configuration: NOAA-21
#almurnet v.1.7.20251203
#Start time: 2026-01-02 01:13:01

#Version: 2.2.20231116
#Station: R4.6S_Anadyr
#Location: 177.4865 lon 64.73178 lat
#TLE: 1 54234U 22150A   26001.62049579  .00000200  00000+0  11561-3 0  9997
#TLE: 2 54234  98.7484 302.6830 0001258 352.4447   7.6710 14.19530916162916

#Time	Az	El	Level	Level2	SNR	BER	BlckErr	Temp	State	Recorded	gain1	gain2
2026-01-02 01:13:01.39	181.64	0.06	-49.3	-64.1	3.5	1.51e+00	0	36	0	0	60	58097
2026-01-02 01:13:02.40	181.67	0.12	-49.2	-62.1	3.5	1.52e+00	0	38	104	0	60	44844
2026-01-02 01:13:03.40	181.70	0.17	-49.3	-62.1	3.5	1.52e+00	0	38	104	0	60	44657
2026-01-02 01:13:04.41	181.74	0.23	-49.3	-62.1	3.5	1.52e+00	0	38	104	0	60	44896
2026-01-02 01:13:05.43	181.77	0.29	-49.3	-62.2	3.5	1.52e+00	0	38	104	0	60	45058
2026-01-02 01:13:06.44	181.81	0.35	-49.4	-62.2	3.5	1.52e+00	0	38	104	0	60	45293
2026-01-02 01:13:07.45	181.84	0.41	-49.3	-62.2	3.5	1.52e+00	0	38	104	0	60	45061
2026-01-02 01:13:08.46	181.87	0.47	-49.3	-62.1	3.5	1.52e+00	0	38	104	0	60	44912
2026-01-02 01:13:09.46	181.91	0.53	-49.2	-62.1	3.5	1.52e+00	0	38	104	0	60	44802
2026-01-02 01:13:10.48	181.94	0.59	-49.1	-62.1	3.5	1.52e+00	0	38	104	0	60	44608
2026-01-02 01:13:11.49	181.98	0.65	-49.2	-62.1	3.5	1.51e+00	0	38	104	0	60	44530
2026-01-02 01:13:12.50	182.01	0.71	-49.1	-61.9	3.5	1.52e+00	0	38	104	0	60	43902
2026-01-02 01:13:13.50	182.05	0.77	-48.9	-61.8	3.5	1.52e+00	0	38	104	0	60	43178
2026-01-02 01:13:14.51	182.08	0.83	-48.7	-61.6	3.5	1.52e+00	0	38	104	0	60	42351
2026-01-02 01:13:15.52	182.12	0.89	-48.5	-61.3	3.5	1.52e+00	0	38	104	0	60	40896
2026-01-02 01:13:16.54	182.15	0.95	-48.2	-61.0	3.5	1.52e+00	0	38	104	0	60	39209
2026-01-02 01:13:17.55	182.19	1.01	-47.9	-60.7	3.5	1.52e+00	0	38	104	0	60	37868
2026-01-02 01:13:18.56	182.22	1.07	-48.0	-60.8	3.5	1.52e+00	0	38	104	0	60	38266
2026-01-02 01:13:19.57	182.26	1.13	-48.0	-60.7	3.5	1.52e+00	0	38	104	0	60	38088
2026-01-02 01:13:20.57	182.30	1.19	-48.0	-60.8	3.5	1.52e+00	0	38	104	0	60	38305
2026-01-02 01:13:21.59	182.33	1.25	-47.9	-60.8	3.5	1.52e+00	0	38	104	0	60	38366
2026-01-02 01:13:22.59	182.37	1.31	-47.9	-60.7	3.5	1.52e+00	0	38	104	0	60	38093
2026-01-02 01:13:23.61	182.40	1.38	-47.9	-60.7	3.5	1.52e+00	0	39	104	0	60	38169
2026-01-02 01:13:24.62	182.44	1.44	-47.9	-60.8	3.5	1.52e+00	0	39	104	0	60	38385
2026-01-02 01:13:25.63	182.48	1.50	-47.9	-60.8	3.5	1.52e+00	0	39	104	0	60	38276
2026-01-02 01:13:26.63	182.51	1.56	-47.9	-60.7	3.5	1.52e+00	0	38	104	0	60	38212
2026-01-02 01:13:27.64	182.55	1.62	-47.9	-60.7	3.5	1.52e+00	0	38	104	0	60	38202
2026-01-02 01:13:28.65	182.59	1.68	-47.9	-60.7	3.5	1.52e+00	0	39	104	0	60	38229
2026-01-02 01:13:29.66	182.62	1.75	-47.9	-60.6	3.5	1.51e+00	0	39	104	0	60	37750
2026-01-02 01:13:30.67	182.66	1.81	-47.9	-60.6	3.5	1.52e+00	0	39	104	0	60	37748
2026-01-02 01:13:31.68	182.70	1.87	-47.9	-60.7	3.5	1.52e+00	0	39	104	0	60	37970
2026-01-02 01:13:32.69	182.74	1.93	-47.9	-60.7	3.5	1.52e+00	0	39	104	0	60	37945
2026-01-02 01:13:33.70	182.77	1.99	-47.9	-60.7	3.5	1.52e+00	0	39	104	0	60	38044
2026-01-02 01:13:34.71	182.81	2.06	-47.9	-60.7	3.5	1.52e+00	0	39	104	0	60	38112
2026-01-02 01:13:35.72	182.85	2.12	-47.9	-60.7	3.5	1.52e+00	0	39	104	0	60	37942
2026-01-02 01:13:36.73	182.89	2.18	-47.9	-60.7	3.5	1.52e+00	0	39	104	0	60	37940
2026-01-02 01:13:37.74	182.93	2.25	-47.9	-60.7	3.5	1.52e+00	0	39	104	0	60	37870
2026-01-02 01:13:38.75	182.97	2.31	-47.9	-60.7	3.5	1.52e+00	0	39	104	0	60	38107
2026-01-02 01:13:39.76	183.00	2.37	-47.9	-60.8	3.5	1.51e+00	0	39	104	0	60	38335
2026-01-02 01:13:40.77	183.04	2.44	-47.9	-60.6	3.5	1.52e+00	0	39	104	0	60	37711
2026-01-02 01:13:41.78	183.08	2.50	-47.9	-60.2	3.5	1.52e+00	0	39	104	0	60	35934
2026-01-02 01:13:42.79	183.12	2.56	-47.8	-59.6	3.5	1.51e+00	0	39	104	0	60	33353
2026-01-02 01:13:43.80	183.16	2.63	-47.7	-58.7	3.5	1.51e+00	0	39	104	0	60	30253
2026-01-02 01:13:44.81	183.20	2.69	-47.7	-58.3	3.8	1.45e+00	0	39	104	0	60	28887
2026-01-02 01:13:45.81	183.24	2.75	-47.7	-58.5	3.8	1.50e+00	0	39	104	0	60	29451
2026-01-02 01:13:46.82	183.28	2.82	-47.8	-59.1	3.5	1.50e+00	0	39	104	0	60	31495
2026-01-02 01:13:47.83	183.32	2.88	-47.8	-59.6	3.5	1.52e+00	0	39	104	0	60	33431
2026-01-02 01:13:48.84	183.36	2.95	-47.7	-58.0	3.9	1.50e+00	0	39	104	0	60	28031
2026-01-02 01:13:49.85	183.40	3.01	-47.2	-54.9	5.5	5.96e-01	123	39	104	0	60	19614
2026-01-02 01:13:50.86	183.44	3.08	-46.1	-50.5	9.3	9.09e-02	123	39	0	2097152	60	11694
2026-01-02 01:13:51.87	183.48	3.14	-44.8	-48.0	11.9	3.10e-03	122	39	0	5242880	60	8812
2026-01-02 01:13:52.88	183.52	3.21	-43.4	-45.8	14.3	9.10e-06	123	39	0	8388608	60	6835
2026-01-02 01:13:53.89	183.56	3.27	-42.0	-43.9	15.9	0.00e+00	123	39	0	11534336	58	6171
2026-01-02 01:13:54.90	183.60	3.34	-41.4	-43.0	17.0	0.00e+00	122	39	0	14680064	56	6276
2026-01-02 01:13:55.91	183.64	3.40	-40.3	-41.8	18.0	0.00e+00	122	39	0	17825792	54	6073
2026-01-02 01:13:56.92	183.68	3.47	-40.3	-41.8	18.1	0.00e+00	123	39	0	20971520	54	6086
2026-01-02 01:13:57.93	183.72	3.53	-40.1	-41.5	18.3	0.00e+00	123	39	0	24117248	54	5885
2026-01-02 01:13:58.94	183.77	3.60	-40.7	-42.2	17.7	0.00e+00	123	39	0	27262976	54	6401
2026-01-02 01:13:59.94	183.81	3.66	-43.9	-46.5	13.0	0.00e+00	122	39	0	30408704	56	9345
2026-01-02 01:14:00.95	183.85	3.73	-44.3	-47.1	13.0	1.44e-05	123	39	0	33554432	60	7951
2026-01-02 01:14:01.96	183.89	3.80	-47.8	-59.7	3.5	3.06e-01	0	39	104	35651584	60	33975
2026-01-02 01:14:02.97	183.93	3.86	-47.6	-57.5	3.6	1.50e+00	0	39	104	35651584	60	26350
2026-01-02 01:14:03.98	183.98	3.93	-40.4	-41.9	17.8	0.00e+00	122	39	0	35651584	52	6924
2026-01-02 01:14:04.99	184.02	4.00	-39.8	-41.2	18.7	0.00e+00	123	39	0	38797312	52	6380
2026-01-02 01:14:06.00	184.06	4.06	-39.7	-41.0	19.0	0.00e+00	122	39	0	41943040	52	6246
2026-01-02 01:14:07.01	184.11	4.13	-39.3	-40.6	19.3	0.00e+00	122	39	0	45088768	52	5951
2026-01-02 01:14:08.02	184.15	4.20	-39.4	-40.8	19.6	7.00e-07	122	39	0	48234496	52	6083
2026-01-02 01:14:09.03	184.19	4.26	-39.5	-40.8	19.1	0.00e+00	122	39	0	51380224	52	6115
2026-01-02 01:14:10.04	184.24	4.33	-39.1	-40.3	19.5	0.00e+00	123	39	0	54525952	52	5771
2026-01-02 01:14:11.05	184.28	4.40	-39.2	-40.5	19.3	0.00e+00	123	39	0	57671680	52	5896
2026-01-02 01:14:12.06	184.32	4.47	-38.8	-40.0	20.0	0.00e+00	123	39	0	60817408	50	6247
2026-01-02 01:14:13.07	184.37	4.54	-38.7	-39.9	20.1	0.00e+00	123	39	0	63963136	50	6159
2026-01-02 01:14:14.08	184.41	4.60	-38.6	-39.8	20.1	0.00e+00	123	39	0	67108864	50	6104
2026-01-02 01:14:15.09	184.46	4.67	-38.8	-40.0	20.1	0.00e+00	122	39	0	70254592	50	6246
2026-01-02 01:14:16.09	184.50	4.74	-38.4	-39.5	20.5	0.00e+00	120	39	0	73400320	50	5915
2026-01-02 01:14:17.10	184.55	4.81	-38.3	-39.4	20.6	0.00e+00	122	39	0	76546048	50	5840
2026-01-02 01:14:18.11	184.59	4.88	-38.2	-39.3	20.6	0.00e+00	123	39	0	79691776	50	5766
2026-01-02 01:14:19.12	184.64	4.95	-38.1	-39.3	20.7	0.00e+00	123	39	0	82837504	50	5734
2026-01-02 01:14:20.13	184.68	5.02	-38.2	-39.3	20.6	0.00e+00	122	39	0	85983232	50	5768
2026-01-02 01:14:21.15	184.73	5.09	-38.2	-39.4	20.6	0.00e+00	122	39	0	89128960	50	5795
2026-01-02 01:14:22.15	184.77	5.15	-38.2	-39.3	20.7	0.00e+00	120	39	0	92274688	50	5782
2026-01-02 01:14:23.16	184.82	5.22	-38.1	-39.3	20.6	0.00e+00	122	39	0	95420416	50	5733
2026-01-02 01:14:24.17	184.87	5.29	-38.0	-39.1	20.8	0.00e+00	122	39	0	98566144	50	5648
2026-01-02 01:14:25.18	184.91	5.36	-37.8	-38.9	21.0	0.00e+00	123	39	0	101711872	50	5504
2026-01-02 01:14:26.19	184.96	5.43	-37.9	-39.0	20.9	0.00e+00	122	39	0	104857600	50	5576
2026-01-02 01:14:27.20	185.01	5.50	-37.8	-38.9	21.1	0.00e+00	123	39	0	108003328	50	5501
2026-01-02 01:14:28.21	185.05	5.57	-37.9	-39.0	21.0	0.00e+00	123	39	0	111149056	48	6257
2026-01-02 01:14:29.22	185.10	5.65	-37.8	-39.0	21.0	0.00e+00	122	39	0	114294784	48	6209
2026-01-02 01:14:30.23	185.15	5.72	-37.9	-39.0	20.9	0.00e+00	122	39	0	117440512	48	6266
2026-01-02 01:14:31.24	185.20	5.79	-37.9	-39.0	20.9	0.00e+00	123	39	0	120586240	48	6269
2026-01-02 01:14:32.25	185.24	5.86	-37.7	-38.8	21.1	0.00e+00	122	39	0	124780544	48	6122
2026-01-02 01:14:33.26	185.29	5.93	-37.9	-39.0	21.0	0.00e+00	123	39	0	127926272	48	6247
2026-01-02 01:14:34.27	185.34	6.00	-37.6	-38.6	21.3	0.00e+00	123	39	0	130023424	48	5986
2026-01-02 01:14:35.28	185.39	6.07	-37.7	-38.7	21.2	0.00e+00	122	39	0	133169152	48	6064
2026-01-02 01:14:36.29	185.44	6.15	-37.6	-38.7	21.2	0.00e+00	123	39	0	136314880	48	6036
2026-01-02 01:14:37.31	185.49	6.22	-37.7	-38.8	21.2	0.00e+00	120	39	0	140509184	48	6097
2026-01-02 01:14:38.31	185.54	6.29	-37.7	-38.8	21.2	0.00e+00	123	39	0	143654912	48	6085
2026-01-02 01:14:39.32	185.59	6.36	-37.5	-38.5	21.4	0.00e+00	123	39	0	146800640	48	5922
2026-01-02 01:14:40.33	185.64	6.44	-37.4	-38.5	21.5	0.00e+00	123	39	0	149946368	48	5903
2026-01-02 01:14:41.34	185.69	6.51	-37.5	-38.5	21.5	0.00e+00	122	39	0	152043520	48	5908
2026-01-02 01:14:42.35	185.74	6.58	-37.6	-38.6	21.4	0.00e+00	123	39	0	156237824	48	5986
2026-01-02 01:14:43.36	185.79	6.65	-37.5	-38.5	21.4	0.00e+00	122	39	0	159383552	48	5922
2026-01-02 01:14:44.37	185.84	6.73	-37.4	-38.5	21.5	0.00e+00	123	39	0	162529280	48	5889
2026-01-02 01:14:45.38	185.89	6.80	-37.5	-38.6	21.4	0.00e+00	122	39	0	165675008	48	5973
2026-01-02 01:14:46.39	185.94	6.88	-37.4	-38.5	21.5	0.00e+00	122	39	0	168820736	48	5891
2026-01-02 01:14:47.40	185.99	6.95	-37.5	-38.6	21.5	0.00e+00	123	39	0	171966464	48	5937
2026-01-02 01:14:48.41	186.04	7.02	-37.4	-38.5	21.5	0.00e+00	122	39	0	175112192	48	5890
2026-01-02 01:14:49.41	186.10	7.10	-37.4	-38.4	21.6	0.00e+00	123	39	0	178257920	48	5833
2026-01-02 01:14:50.42	186.15	7.17	-37.4	-38.4	21.5	0.00e+00	122	39	0	181403648	48	5851
2026-01-02 01:14:51.44	186.20	7.25	-37.3	-38.4	21.6	0.00e+00	123	39	0	184549376	48	5819
2026-01-02 01:14:52.44	186.25	7.32	-37.5	-38.6	21.4	0.00e+00	123	39	0	187695104	48	5957
2026-01-02 01:14:53.45	186.31	7.40	-37.4	-38.5	21.6	0.00e+00	123	39	0	190840832	48	5863
2026-01-02 01:14:54.46	186.36	7.47	-37.2	-38.3	21.7	0.00e+00	122	39	0	193986560	48	5760
2026-01-02 01:14:55.46	186.41	7.55	-37.3	-38.3	21.7	0.00e+00	123	39	0	197132288	48	5779
2026-01-02 01:14:56.47	186.47	7.62	-37.2	-38.3	21.8	0.00e+00	122	39	0	200278016	48	5726
2026-01-02 01:14:57.48	186.52	7.70	-37.2	-38.3	21.7	0.00e+00	123	39	0	203423744	48	5731
2026-01-02 01:14:58.49	186.57	7.78	-37.3	-38.3	21.7	0.00e+00	123	39	0	206569472	48	5775
2026-01-02 01:14:59.50	186.63	7.85	-37.2	-38.2	21.8	0.00e+00	123	39	0	209715200	48	5698
2026-01-02 01:15:00.51	186.68	7.93	-37.1	-38.1	21.9	0.00e+00	123	39	0	212860928	48	5651
2026-01-02 01:15:01.52	186.74	8.01	-37.0	-38.1	21.9	0.00e+00	122	39	0	216006656	48	5611
2026-01-02 01:15:02.53	186.79	8.08	-37.1	-38.2	21.8	0.00e+00	123	39	0	219152384	48	5671
2026-01-02 01:15:03.54	186.85	8.16	-37.2	-38.2	21.8	0.00e+00	123	39	0	222298112	48	5697
2026-01-02 01:15:04.55	186.91	8.24	-37.0	-38.0	22.0	0.00e+00	123	39	0	225443840	48	5573
2026-01-02 01:15:05.56	186.96	8.32	-37.0	-38.0	22.0	0.00e+00	123	39	0	228589568	48	5576
2026-01-02 01:15:06.56	187.02	8.39	-37.0	-38.0	22.0	0.00e+00	122	39	0	231735296	48	5579
2026-01-02 01:15:07.57	187.07	8.47	-37.1	-38.1	22.0	0.00e+00	123	39	0	234881024	48	5641
2026-01-02 01:15:08.58	187.13	8.55	-36.9	-37.9	22.1	0.00e+00	123	39	0	238026752	48	5507
2026-01-02 01:15:09.59	187.19	8.63	-36.9	-37.9	22.1	0.00e+00	123	39	0	241172480	48	5511
2026-01-02 01:15:10.60	187.25	8.71	-36.9	-37.9	22.1	0.00e+00	123	39	0	244318208	48	5529
2026-01-02 01:15:11.61	187.30	8.79	-36.8	-37.8	22.2	0.00e+00	123	39	0	247463936	48	5429
2026-01-02 01:15:12.62	187.36	8.87	-36.8	-37.9	22.2	0.00e+00	123	39	0	250609664	46	6151
2026-01-02 01:15:13.63	187.42	8.94	-36.9	-37.9	22.2	0.00e+00	123	39	0	253755392	46	6202
2026-01-02 01:15:14.64	187.48	9.02	-36.7	-37.7	22.4	0.00e+00	123	39	0	256901120	46	6059
2026-01-02 01:15:15.65	187.54	9.10	-36.8	-37.8	22.2	0.00e+00	123	39	0	260046848	46	6119
2026-01-02 01:15:16.66	187.60	9.18	-36.7	-37.7	22.4	0.00e+00	122	39	0	263192576	46	6018
2026-01-02 01:15:17.67	187.66	9.27	-36.7	-37.7	22.4	0.00e+00	122	39	0	266338304	46	6008
2026-01-02 01:15:18.68	187.72	9.35	-36.6	-37.6	22.5	0.00e+00	123	39	0	269484032	46	5935
2026-01-02 01:15:19.69	187.78	9.43	-36.6	-37.6	22.4	0.00e+00	123	39	0	272629760	46	5983
2026-01-02 01:15:20.70	187.84	9.51	-36.6	-37.6	22.5	0.00e+00	122	39	0	275775488	46	5930
2026-01-02 01:15:21.70	187.90	9.59	-36.4	-37.4	22.6	0.00e+00	122	39	0	278921216	46	5855
2026-01-02 01:15:22.71	187.96	9.67	-36.4	-37.4	22.6	0.00e+00	123	39	0	282066944	46	5846
2026-01-02 01:15:23.72	188.02	9.75	-36.5	-37.5	22.5	0.00e+00	123	39	0	285212672	46	5873
2026-01-02 01:15:24.73	188.08	9.83	-36.5	-37.5	22.6	0.00e+00	123	39	0	288358400	46	5888
2026-01-02 01:15:25.74	188.15	9.92	-36.5	-37.5	22.5	0.00e+00	120	39	0	291504128	46	5916
2026-01-02 01:15:26.75	188.21	10.00	-36.7	-37.7	22.4	0.00e+00	123	39	0	294649856	46	6014
2026-01-02 01:15:27.76	188.27	10.08	-36.4	-37.4	22.7	0.00e+00	122	39	0	297795584	46	5803
2026-01-02 01:15:28.77	188.33	10.17	-36.4	-37.3	22.7	0.00e+00	123	39	0	300941312	46	5779
2026-01-02 01:15:29.78	188.40	10.25	-36.2	-37.2	22.8	0.00e+00	123	39	0	304087040	46	5679
2026-01-02 01:15:30.79	188.46	10.33	-36.2	-37.2	22.8	0.00e+00	123	39	0	307232768	46	5709
2026-01-02 01:15:31.80	188.53	10.42	-36.3	-37.3	22.8	0.00e+00	120	39	0	310378496	46	5735
2026-01-02 01:15:32.81	188.59	10.50	-36.3	-37.3	22.8	0.00e+00	122	39	0	313524224	46	5730
2026-01-02 01:15:33.82	188.66	10.59	-36.1	-37.1	23.0	0.00e+00	123	39	0	316669952	46	5621
2026-01-02 01:15:34.83	188.72	10.67	-36.0	-37.0	23.0	0.00e+00	122	39	0	319815680	46	5564
2026-01-02 01:15:35.84	188.79	10.75	-36.2	-37.2	22.8	0.00e+00	120	39	0	322961408	46	5675
2026-01-02 01:15:36.85	188.85	10.84	-36.0	-37.0	23.0	0.00e+00	122	39	0	326107136	46	5532
2026-01-02 01:15:37.86	188.92	10.93	-35.9	-36.9	23.1	0.00e+00	120	39	0	329252864	46	5500
2026-01-02 01:15:38.87	188.99	11.01	-36.0	-37.0	23.0	0.00e+00	123	39	0	332398592	46	5569
2026-01-02 01:15:39.88	189.05	11.10	-36.1	-37.1	22.9	0.00e+00	120	39	0	335544320	46	5602
2026-01-02 01:15:40.89	189.12	11.18	-36.0	-37.0	23.1	0.00e+00	123	39	0	338690048	46	5550
2026-01-02 01:15:41.90	189.19	11.27	-35.8	-36.7	23.2	0.00e+00	120	39	0	341835776	46	5403
2026-01-02 01:15:42.91	189.26	11.36	-35.7	-36.7	23.3	0.00e+00	123	39	0	344981504	46	5366
2026-01-02 01:15:43.92	189.33	11.44	-35.7	-36.7	23.2	0.00e+00	120	39	0	348127232	44	6037
2026-01-02 01:15:44.93	189.40	11.53	-35.8	-36.7	23.2	0.00e+00	123	39	0	351272960	44	6045
2026-01-02 01:15:45.94	189.46	11.62	-35.7	-36.7	23.3	0.00e+00	122	39	0	354418688	44	6016
2026-01-02 01:15:46.94	189.53	11.71	-35.8	-36.8	23.2	0.00e+00	123	39	0	357564416	44	6074
2026-01-02 01:15:47.95	189.60	11.79	-35.8	-36.7	23.2	0.00e+00	123	40	0	360710144	44	6026
2026-01-02 01:15:48.97	189.68	11.88	-35.6	-36.6	23.4	0.00e+00	123	39	0	363855872	44	5965
2026-01-02 01:15:49.98	189.75	11.97	-35.6	-36.5	23.4	0.00e+00	123	40	0	367001600	44	5912
2026-01-02 01:15:50.98	189.82	12.06	-35.7	-36.6	23.3	0.00e+00	122	39	0	370147328	44	5978
2026-01-02 01:15:52.00	189.89	12.15	-35.5	-36.5	23.5	0.00e+00	123	39	0	373293056	44	5864
2026-01-02 01:15:53.01	189.96	12.24	-35.6	-36.6	23.4	0.00e+00	123	39	0	376438784	44	5946
2026-01-02 01:15:54.01	190.03	12.33	-35.6	-36.6	23.2	0.00e+00	122	40	0	379584512	44	5944
2026-01-02 01:15:55.02	190.11	12.42	-35.6	-36.5	23.4	0.00e+00	120	40	0	382730240	44	5923
2026-01-02 01:15:56.03	190.18	12.51	-35.7	-36.7	23.3	0.00e+00	123	40	0	385875968	44	6011
2026-01-02 01:15:57.04	190.25	12.60	-35.6	-36.5	23.4	0.00e+00	122	39	0	389021696	44	5904
2026-01-02 01:15:58.06	190.33	12.69	-35.6	-36.5	23.5	0.00e+00	123	40	0	392167424	44	5900
2026-01-02 01:15:59.06	190.40	12.78	-35.7	-36.6	23.3	0.00e+00	120	39	0	395313152	44	5971
2026-01-02 01:16:00.08	190.48	12.88	-35.5	-36.4	23.5	0.00e+00	122	40	0	398458880	44	5853
2026-01-02 01:16:01.09	190.56	12.97	-35.7	-36.6	23.4	0.00e+00	123	40	0	401604608	44	5968
2026-01-02 01:16:02.10	190.63	13.06	-35.7	-36.7	23.3	0.00e+00	123	40	0	404750336	44	6008
2026-01-02 01:16:03.11	190.71	13.15	-35.4	-36.3	23.6	0.00e+00	123	40	0	407896064	44	5761
2026-01-02 01:16:04.12	190.79	13.25	-35.5	-36.5	23.5	0.00e+00	120	39	0	411041792	44	5871
2026-01-02 01:16:05.13	190.86	13.34	-35.4	-36.4	23.5	0.00e+00	122	40	0	414187520	44	5805
2026-01-02 01:16:06.14	190.94	13.43	-35.5	-36.5	23.5	0.00e+00	120	40	0	417333248	44	5873
2026-01-02 01:16:07.15	191.02	13.53	-35.4	-36.3	23.7	0.00e+00	122	40	0	420478976	44	5742
2026-01-02 01:16:08.16	191.10	13.62	-35.5	-36.4	23.6	0.00e+00	123	39	0	423624704	44	5818
2026-01-02 01:16:09.17	191.18	13.72	-35.5	-36.4	23.5	0.00e+00	122	40	0	426770432	44	5824
2026-01-02 01:16:10.18	191.26	13.81	-35.6	-36.6	23.4	0.00e+00	120	39	0	429916160	44	5928
2026-01-02 01:16:11.19	191.34	13.91	-35.6	-36.6	23.4	0.00e+00	122	40	0	433061888	44	5927
2026-01-02 01:16:12.20	191.42	14.00	-35.3	-36.2	23.7	0.00e+00	120	40	0	436207616	44	5697
2026-01-02 01:16:13.21	191.50	14.10	-35.4	-36.3	23.7	0.00e+00	123	40	0	439353344	44	5766
2026-01-02 01:16:14.22	191.58	14.19	-35.3	-36.3	23.6	0.00e+00	123	40	0	442499072	44	5740
2026-01-02 01:16:15.23	191.66	14.29	-35.5	-36.4	23.6	0.00e+00	123	40	0	445644800	44	5857
2026-01-02 01:16:16.24	191.75	14.39	-35.7	-36.6	23.4	0.00e+00	122	40	0	448790528	44	5992
2026-01-02 01:16:17.25	191.83	14.48	-35.6	-36.5	23.6	0.00e+00	120	40	0	451936256	44	5896
2026-01-02 01:16:18.26	191.92	14.58	-35.5	-36.4	23.6	0.00e+00	122	40	0	455081984	44	5835
2026-01-02 01:16:19.27	192.00	14.68	-35.6	-36.6	23.5	0.00e+00	123	40	0	458227712	44	5932
2026-01-02 01:16:20.28	192.08	14.78	-35.4	-36.3	23.6	0.00e+00	123	39	0	461373440	44	5771
2026-01-02 01:16:21.28	192.17	14.87	-35.6	-36.5	23.5	0.00e+00	123	40	0	464519168	44	5901
2026-01-02 01:16:22.29	192.26	14.97	-35.6	-36.5	23.5	0.00e+00	122	39	0	467664896	44	5896
2026-01-02 01:16:23.31	192.34	15.07	-35.7	-36.6	23.5	0.00e+00	123	39	0	470810624	44	5976
2026-01-02 01:16:24.32	192.43	15.17	-35.6	-36.5	23.5	0.00e+00	121	39	0	473956352	44	5918
2026-01-02 01:16:25.33	192.52	15.27	-35.7	-36.6	23.5	0.00e+00	122	39	0	477102080	44	5991
2026-01-02 01:16:26.33	192.61	15.37	-35.5	-36.5	23.6	0.00e+00	123	40	0	480247808	44	5869
2026-01-02 01:16:27.34	192.69	15.47	-35.6	-36.5	23.5	0.00e+00	123	39	0	483393536	44	5916
2026-01-02 01:16:28.35	192.78	15.57	-35.6	-36.5	23.5	0.00e+00	122	40	0	487587840	44	5921
2026-01-02 01:16:29.36	192.87	15.67	-35.5	-36.4	23.6	0.00e+00	123	40	0	490733568	44	5837
2026-01-02 01:16:30.37	192.96	15.78	-35.4	-36.3	23.7	0.00e+00	122	39	0	492830720	44	5766
2026-01-02 01:16:31.38	193.06	15.88	-35.6	-36.5	23.6	0.00e+00	122	40	0	495976448	44	5902
2026-01-02 01:16:32.39	193.15	15.98	-35.5	-36.4	23.8	0.00e+00	123	40	0	499122176	44	5822
2026-01-02 01:16:33.40	193.24	16.08	-35.5	-36.4	23.7	0.00e+00	123	39	0	502267904	44	5817
2026-01-02 01:16:34.41	193.33	16.19	-35.4	-36.4	23.7	0.00e+00	123	39	0	506462208	44	5799
2026-01-02 01:16:35.42	193.43	16.29	-35.5	-36.5	23.7	0.00e+00	123	40	0	509607936	44	5866
2026-01-02 01:16:36.43	193.52	16.39	-35.6	-36.5	23.5	0.00e+00	122	39	0	512753664	44	5890
2026-01-02 01:16:37.44	193.62	16.50	-35.6	-36.6	23.6	0.00e+00	122	40	0	515899392	44	5947
2026-01-02 01:16:38.44	193.71	16.60	-35.8	-36.7	23.5	0.00e+00	123	39	0	517996544	44	6036
2026-01-02 01:16:39.45	193.81	16.71	-35.8	-36.8	23.4	0.00e+00	123	39	0	522190848	44	6067
2026-01-02 01:16:40.46	193.90	16.81	-35.8	-36.8	23.4	0.00e+00	123	39	0	525336576	44	6075
2026-01-02 01:16:41.47	194.00	16.92	-35.9	-36.9	23.4	0.00e+00	122	39	0	528482304	44	6147
2026-01-02 01:16:42.48	194.10	17.02	-35.9	-36.8	23.3	0.00e+00	123	39	0	531628032	44	6116
2026-01-02 01:16:43.49	194.20	17.13	-36.1	-37.0	23.1	0.00e+00	123	40	0	534773760	44	6264
2026-01-02 01:16:44.50	194.30	17.24	-35.7	-36.7	23.5	0.00e+00	122	40	0	537919488	44	5995
2026-01-02 01:16:45.51	194.40	17.34	-35.6	-36.5	23.5	0.00e+00	120	40	0	541065216	44	5923
2026-01-02 01:16:46.52	194.50	17.45	-35.7	-36.6	23.5	0.00e+00	120	39	0	544210944	44	5986
2026-01-02 01:16:47.53	194.60	17.56	-35.5	-36.5	23.7	0.00e+00	123	40	0	547356672	44	5861
2026-01-02 01:16:48.54	194.70	17.67	-35.6	-36.5	23.6	0.00e+00	123	39	0	550502400	44	5926
2026-01-02 01:16:49.55	194.80	17.78	-35.6	-36.5	23.6	0.00e+00	120	39	0	553648128	44	5906
2026-01-02 01:16:50.56	194.91	17.89	-35.6	-36.5	23.6	0.00e+00	123	40	0	556793856	44	5900
2026-01-02 01:16:51.57	195.01	18.00	-35.6	-36.5	23.7	0.00e+00	122	40	0	559939584	44	5894
2026-01-02 01:16:52.58	195.12	18.11	-35.7	-36.6	23.5	0.00e+00	122	39	0	563085312	44	5988
2026-01-02 01:16:53.58	195.22	18.21	-35.6	-36.5	23.6	0.00e+00	120	40	0	566231040	44	5880
2026-01-02 01:16:54.59	195.33	18.33	-35.6	-36.5	23.7	0.00e+00	122	40	0	569376768	44	5891
2026-01-02 01:16:55.60	195.44	18.44	-35.5	-36.5	23.7	0.00e+00	122	40	0	572522496	44	5863
2026-01-02 01:16:56.61	195.54	18.55	-35.6	-36.6	23.6	0.00e+00	120	40	0	575668224	44	5954
2026-01-02 01:16:57.63	195.65	18.66	-35.6	-36.5	23.6	0.00e+00	122	40	0	578813952	44	5888
2026-01-02 01:16:58.63	195.76	18.77	-35.5	-36.4	23.6	0.00e+00	122	40	0	581959680	44	5840
2026-01-02 01:16:59.65	195.87	18.89	-35.5	-36.4	23.6	0.00e+00	122	39	0	585105408	44	5852
2026-01-02 01:17:00.65	195.98	19.00	-35.3	-36.3	23.8	0.00e+00	123	39	0	588251136	44	5745
2026-01-02 01:17:01.66	196.10	19.11	-35.5	-36.4	23.6	0.00e+00	123	40	0	591396864	44	5828
2026-01-02 01:17:02.67	196.21	19.23	-35.1	-36.0	24.0	0.00e+00	121	40	0	594542592	44	5549
2026-01-02 01:17:03.68	196.32	19.34	-35.1	-36.0	24.0	0.00e+00	123	40	0	597688320	44	5573
2026-01-02 01:17:04.69	196.44	19.46	-35.0	-35.9	24.0	0.00e+00	123	40	0	600834048	44	5496
2026-01-02 01:17:05.70	196.55	19.57	-35.1	-36.0	24.1	0.00e+00	122	40	0	603979776	44	5551
2026-01-02 01:17:06.71	196.67	19.69	-35.0	-35.9	24.0	0.00e+00	123	40	0	607125504	44	5507
2026-01-02 01:17:07.72	196.78	19.80	-35.0	-35.9	24.0	0.00e+00	123	40	0	610271232	44	5507
2026-01-02 01:17:08.73	196.90	19.92	-35.1	-36.0	24.0	0.00e+00	123	40	0	613416960	44	5545
2026-01-02 01:17:09.74	197.02	20.04	-35.1	-36.0	23.9	0.00e+00	123	40	0	616562688	44	5594
2026-01-02 01:17:10.75	197.14	20.16	-35.2	-36.1	23.9	0.00e+00	122	40	0	619708416	44	5636
2026-01-02 01:17:11.76	197.26	20.27	-35.0	-36.0	24.0	0.00e+00	123	40	0	622854144	44	5538
2026-01-02 01:17:12.77	197.38	20.39	-35.0	-35.9	24.0	0.00e+00	123	40	0	625999872	44	5487
2026-01-02 01:17:13.78	197.50	20.51	-34.7	-35.7	24.1	0.00e+00	123	40	0	629145600	44	5346
2026-01-02 01:17:14.78	197.63	20.63	-34.7	-35.6	24.2	0.00e+00	123	40	0	632291328	42	5992
2026-01-02 01:17:15.79	197.75	20.75	-34.7	-35.6	24.2	0.00e+00	123	40	0	635437056	42	5941
2026-01-02 01:17:16.80	197.87	20.87	-34.6	-35.5	24.2	0.00e+00	123	40	0	638582784	42	5888
2026-01-02 01:17:17.81	198.00	20.99	-34.5	-35.4	24.3	0.00e+00	123	40	0	641728512	42	5841
2026-01-02 01:17:18.82	198.13	21.11	-34.5	-35.3	24.4	0.00e+00	120	40	0	644874240	42	5791
2026-01-02 01:17:19.83	198.25	21.23	-34.6	-35.5	24.3	0.00e+00	123	40	0	648019968	42	5865
2026-01-02 01:17:20.84	198.38	21.35	-34.6	-35.5	24.4	0.00e+00	123	40	0	651165696	42	5902
2026-01-02 01:17:21.85	198.51	21.48	-34.4	-35.3	24.5	0.00e+00	123	40	0	654311424	42	5768
2026-01-02 01:17:22.86	198.64	21.60	-34.5	-35.4	24.5	0.00e+00	123	40	0	657457152	42	5819
2026-01-02 01:17:23.87	198.78	21.72	-34.6	-35.5	24.3	0.00e+00	122	40	0	660602880	42	5879
2026-01-02 01:17:24.88	198.91	21.85	-34.6	-35.5	24.4	0.00e+00	120	40	0	663748608	42	5874
2026-01-02 01:17:25.89	199.04	21.97	-34.5	-35.4	24.4	0.00e+00	123	40	0	666894336	42	5846
2026-01-02 01:17:26.90	199.18	22.09	-34.6	-35.5	24.3	0.00e+00	123	40	0	670040064	42	5912
2026-01-02 01:17:27.91	199.31	22.22	-34.7	-35.6	24.2	0.00e+00	123	40	0	673185792	42	5992
2026-01-02 01:17:28.92	199.45	22.35	-34.3	-35.2	24.5	0.00e+00	120	40	0	676331520	42	5692
2026-01-02 01:17:29.93	199.59	22.47	-34.3	-35.2	24.4	0.00e+00	123	40	0	679477248	42	5714
2026-01-02 01:17:30.94	199.73	22.60	-34.2	-35.1	24.6	0.00e+00	122	40	0	682622976	42	5604
2026-01-02 01:17:31.95	199.87	22.72	-34.2	-35.1	24.5	0.00e+00	123	40	0	685768704	42	5642
2026-01-02 01:17:32.96	200.01	22.85	-34.2	-35.1	24.5	0.00e+00	123	40	0	688914432	42	5602
2026-01-02 01:17:33.97	200.15	22.98	-34.3	-35.2	24.6	0.00e+00	122	40	0	692060160	42	5703
2026-01-02 01:17:34.98	200.30	23.11	-34.3	-35.2	24.5	0.00e+00	122	40	0	695205888	42	5680
2026-01-02 01:17:35.99	200.44	23.24	-34.3	-35.2	24.6	0.00e+00	123	40	0	698351616	42	5701
2026-01-02 01:17:37.00	200.59	23.37	-34.1	-35.0	24.7	0.00e+00	123	40	0	701497344	42	5584
2026-01-02 01:17:38.00	200.73	23.49	-34.2	-35.1	24.6	0.00e+00	123	40	0	704643072	42	5629
2026-01-02 01:17:39.01	200.88	23.63	-34.3	-35.2	24.6	0.00e+00	120	40	0	707788800	42	5660
2026-01-02 01:17:40.02	201.03	23.76	-34.2	-35.1	24.5	0.00e+00	123	40	0	710934528	42	5656
2026-01-02 01:17:41.03	201.18	23.89	-34.0	-34.9	24.7	0.00e+00	122	40	0	714080256	42	5515
2026-01-02 01:17:42.04	201.33	24.02	-34.2	-35.1	24.7	0.00e+00	122	40	0	717225984	42	5628
2026-01-02 01:17:43.05	201.48	24.15	-34.2	-35.0	24.7	0.00e+00	120	40	0	720371712	42	5593
2026-01-02 01:17:44.06	201.64	24.28	-34.1	-35.0	24.7	0.00e+00	122	40	0	723517440	42	5549
2026-01-02 01:17:45.07	201.79	24.42	-34.0	-34.9	24.8	0.00e+00	120	40	0	726663168	42	5507
2026-01-02 01:17:46.08	201.95	24.55	-34.1	-35.0	24.8	0.00e+00	122	40	0	729808896	42	5544
2026-01-02 01:17:47.09	202.11	24.68	-34.1	-35.0	24.8	0.00e+00	122	40	0	732954624	42	5568
2026-01-02 01:17:48.10	202.27	24.82	-34.0	-34.9	24.9	0.00e+00	123	40	0	736100352	42	5483
2026-01-02 01:17:49.10	202.43	24.95	-34.2	-35.0	24.8	0.00e+00	120	40	0	739246080	42	5581
2026-01-02 01:17:50.11	202.59	25.09	-34.2	-35.1	24.8	0.00e+00	123	40	0	742391808	42	5612
2026-01-02 01:17:51.12	202.75	25.22	-34.2	-35.1	24.7	0.00e+00	122	40	0	745537536	42	5647
2026-01-02 01:17:52.13	202.92	25.36	-34.3	-35.2	24.7	0.00e+00	122	40	0	748683264	42	5666
2026-01-02 01:17:53.14	203.09	25.49	-34.4	-35.3	24.6	0.00e+00	123	40	0	751828992	42	5759
2026-01-02 01:17:54.15	203.25	25.63	-34.4	-35.3	24.6	0.00e+00	120	40	0	754974720	42	5780
2026-01-02 01:17:55.16	203.42	25.77	-34.4	-35.3	24.6	0.00e+00	122	40	0	758120448	42	5767
2026-01-02 01:17:56.17	203.59	25.91	-34.5	-35.4	24.7	0.00e+00	121	40	0	761266176	42	5808
2026-01-02 01:17:57.18	203.77	26.04	-34.4	-35.2	24.7	0.00e+00	120	40	0	764411904	42	5724
2026-01-02 01:17:58.19	203.94	26.18	-34.5	-35.4	24.6	0.00e+00	122	40	0	767557632	42	5835
2026-01-02 01:17:59.20	204.11	26.32	-34.5	-35.4	24.7	0.00e+00	123	40	0	770703360	42	5811
2026-01-02 01:18:00.21	204.29	26.46	-34.6	-35.5	24.5	0.00e+00	120	40	0	773849088	42	5902
2026-01-02 01:18:01.22	204.47	26.60	-34.7	-35.6	24.5	0.00e+00	122	40	0	776994816	42	5979
2026-01-02 01:18:02.23	204.65	26.74	-34.8	-35.7	24.4	0.00e+00	123	40	0	780140544	42	6032
2026-01-02 01:18:03.24	204.83	26.88	-34.9	-35.9	24.2	0.00e+00	123	40	0	783286272	42	6141
2026-01-02 01:18:04.25	205.01	27.03	-35.0	-35.9	24.1	0.00e+00	122	40	0	786432000	42	6157
2026-01-02 01:18:05.26	205.20	27.17	-35.0	-35.9	24.1	0.00e+00	123	40	0	789577728	42	6173
2026-01-02 01:18:06.27	205.38	27.31	-34.9	-35.8	24.0	0.00e+00	120	40	0	792723456	42	6110
2026-01-02 01:18:07.28	205.57	27.45	-34.9	-35.9	24.0	0.00e+00	123	40	0	795869184	42	6151
2026-01-02 01:18:08.29	205.76	27.60	-35.1	-36.0	23.9	0.00e+00	120	40	0	799014912	42	6262
2026-01-02 01:18:09.30	205.95	27.74	-35.1	-36.0	24.0	0.00e+00	120	40	0	802160640	42	6271
2026-01-02 01:18:10.31	206.14	27.88	-35.0	-35.8	24.2	0.00e+00	120	40	0	805306368	42	6125
2026-01-02 01:18:11.32	206.34	28.03	-35.0	-35.9	24.1	0.00e+00	122	40	0	808452096	42	6167
2026-01-02 01:18:12.33	206.53	28.17	-35.2	-36.1	24.0	0.00e+00	123	40	0	811597824	42	6311
2026-01-02 01:18:13.34	206.73	28.32	-35.2	-36.2	23.9	0.00e+00	120	40	0	814743552	42	6367
2026-01-02 01:18:14.34	206.93	28.46	-35.2	-36.1	23.9	0.00e+00	122	40	0	817889280	42	6345
2026-01-02 01:18:15.35	207.13	28.61	-35.2	-36.1	23.9	0.00e+00	123	40	0	821035008	42	6324
2026-01-02 01:18:16.36	207.33	28.75	-35.2	-36.1	24.0	0.00e+00	120	40	0	824180736	42	6325
2026-01-02 01:18:17.37	207.53	28.90	-35.2	-36.1	23.9	0.00e+00	123	40	0	827326464	42	6314
2026-01-02 01:18:18.38	207.74	29.05	-35.2	-36.2	23.9	0.00e+00	122	40	0	830472192	42	6352
2026-01-02 01:18:19.39	207.95	29.20	-35.1	-36.0	23.9	0.00e+00	122	40	0	833617920	42	6276
2026-01-02 01:18:20.40	208.16	29.34	-35.1	-36.0	24.1	0.00e+00	123	40	0	836763648	42	6228
2026-01-02 01:18:21.41	208.37	29.49	-35.0	-35.9	24.1	0.00e+00	122	40	0	839909376	42	6199
2026-01-02 01:18:22.42	208.59	29.64	-35.1	-36.0	24.1	0.00e+00	120	40	0	843055104	42	6242
2026-01-02 01:18:23.43	208.80	29.79	-35.0	-35.9	24.1	0.00e+00	123	40	0	846200832	42	6199
2026-01-02 01:18:24.44	209.02	29.94	-35.1	-36.0	24.0	0.00e+00	123	40	0	849346560	42	6253
2026-01-02 01:18:25.45	209.24	30.09	-34.9	-35.9	24.1	0.00e+00	123	40	0	852492288	42	6149
2026-01-02 01:18:26.46	209.46	30.24	-35.1	-36.0	24.0	0.00e+00	123	40	0	856686592	42	6249
2026-01-02 01:18:27.47	209.69	30.39	-34.9	-35.8	24.2	0.00e+00	121	40	0	858783744	42	6119
2026-01-02 01:18:28.48	209.91	30.54	-35.0	-35.9	24.1	0.00e+00	122	40	0	861929472	42	6188
2026-01-02 01:18:29.49	210.14	30.69	-34.9	-35.8	24.4	0.00e+00	123	40	0	865075200	42	6074
2026-01-02 01:18:30.50	210.37	30.84	-34.7	-35.6	24.4	0.00e+00	122	40	0	869269504	42	5969
2026-01-02 01:18:31.51	210.60	30.99	-35.0	-35.9	24.2	0.00e+00	122	40	0	872415232	42	6153
2026-01-02 01:18:32.52	210.84	31.15	-34.9	-35.8	24.3	0.00e+00	123	40	0	875560960	42	6133
2026-01-02 01:18:33.53	211.07	31.30	-35.0	-35.9	24.1	0.00e+00	123	40	0	878706688	42	6190
2026-01-02 01:18:34.54	211.31	31.45	-35.0	-35.8	24.2	0.00e+00	122	40	0	880803840	42	6133
2026-01-02 01:18:35.55	211.55	31.60	-35.1	-36.0	24.2	0.00e+00	123	40	0	883949568	42	6213
2026-01-02 01:18:36.56	211.80	31.76	-35.2	-36.1	24.1	0.00e+00	122	40	0	888143872	42	6293
2026-01-02 01:18:37.57	212.04	31.91	-35.3	-36.2	23.9	0.00e+00	122	40	0	891289600	42	6370
2026-01-02 01:18:38.58	212.29	32.06	-35.4	-36.3	23.8	0.00e+00	123	40	0	894435328	42	6495
2026-01-02 01:18:39.59	212.54	32.22	-35.6	-36.5	23.5	0.00e+00	123	40	0	897581056	42	6645
2026-01-02 01:18:40.60	212.79	32.37	-35.5	-36.5	23.5	0.00e+00	123	40	0	900726784	42	6594
2026-01-02 01:18:41.61	213.05	32.52	-35.7	-36.7	23.3	0.00e+00	123	40	0	903872512	42	6750
2026-01-02 01:18:42.62	213.30	32.68	-35.5	-36.5	23.4	0.00e+00	120	40	0	907018240	44	5884
2026-01-02 01:18:43.63	213.56	32.83	-35.7	-36.6	23.4	0.00e+00	123	40	0	910163968	44	5977
2026-01-02 01:18:44.64	213.83	32.99	-35.9	-36.9	23.3	0.00e+00	123	40	0	913309696	44	6155
2026-01-02 01:18:45.64	214.09	33.14	-35.9	-36.9	23.1	0.00e+00	122	40	0	916455424	44	6184
2026-01-02 01:18:46.65	214.35	33.29	-35.9	-36.9	23.3	0.00e+00	123	40	0	919601152	44	6164
2026-01-02 01:18:47.66	214.62	33.45	-35.9	-36.9	23.3	0.00e+00	120	40	0	922746880	44	6174
2026-01-02 01:18:48.67	214.90	33.60	-35.8	-36.7	23.5	0.00e+00	123	40	0	925892608	44	6024
2026-01-02 01:18:49.68	215.17	33.76	-35.7	-36.7	23.6	0.00e+00	120	40	0	929038336	44	6009
2026-01-02 01:18:50.69	215.45	33.91	-35.8	-36.7	23.6	0.00e+00	122	40	0	932184064	44	6026
2026-01-02 01:18:51.70	215.73	34.07	-36.0	-36.9	23.4	0.00e+00	123	40	0	935329792	44	6190
2026-01-02 01:18:52.71	216.01	34.22	-35.8	-36.8	23.5	0.00e+00	123	40	0	938475520	44	6072
2026-01-02 01:18:53.72	216.29	34.38	-35.8	-36.7	23.3	0.00e+00	122	40	0	941621248	44	6061
2026-01-02 01:18:54.73	216.58	34.53	-35.9	-36.9	23.3	0.00e+00	122	40	0	944766976	44	6144
2026-01-02 01:18:55.74	216.87	34.69	-35.9	-36.8	23.2	0.00e+00	123	40	0	947912704	44	6109
2026-01-02 01:18:56.75	217.16	34.84	-35.8	-36.7	23.4	0.00e+00	123	40	0	951058432	44	6023
2026-01-02 01:18:57.75	217.46	35.00	-35.8	-36.7	23.6	0.00e+00	122	40	0	954204160	44	6031
2026-01-02 01:18:58.76	217.76	35.15	-36.0	-36.9	23.5	0.00e+00	123	40	0	957349888	44	6193
2026-01-02 01:18:59.77	218.06	35.31	-36.2	-37.1	23.3	0.00e+00	120	40	0	960495616	44	6335
2026-01-02 01:19:00.78	218.36	35.46	-36.4	-37.4	23.1	0.00e+00	122	40	0	963641344	44	6528
2026-01-02 01:19:01.79	218.67	35.61	-36.4	-37.3	23.1	0.00e+00	123	40	0	966787072	44	6496
2026-01-02 01:19:02.80	218.98	35.77	-36.4	-37.4	23.1	0.00e+00	123	40	0	969932800	44	6549
2026-01-02 01:19:03.82	219.29	35.92	-36.7	-37.7	22.9	0.00e+00	123	40	0	973078528	44	6728
2026-01-02 01:19:04.82	219.61	36.08	-36.7	-37.7	22.8	0.00e+00	123	40	0	976224256	46	6026
2026-01-02 01:19:05.83	219.92	36.23	-36.9	-37.9	22.6	0.00e+00	123	40	0	979369984	46	6181
2026-01-02 01:19:06.84	220.25	36.38	-37.0	-38.0	22.6	0.00e+00	123	40	0	982515712	46	6227
2026-01-02 01:19:07.85	220.57	36.54	-37.1	-38.1	22.4	0.00e+00	122	40	0	985661440	46	6337
2026-01-02 01:19:08.86	220.90	36.69	-37.4	-38.4	22.2	0.00e+00	120	40	0	988807168	46	6527
2026-01-02 01:19:09.87	221.23	36.84	-37.3	-38.4	22.2	0.00e+00	123	40	0	991952896	46	6512
2026-01-02 01:19:10.88	221.56	36.99	-37.3	-38.4	22.2	0.00e+00	123	40	0	995098624	46	6521
2026-01-02 01:19:11.89	221.90	37.15	-37.6	-38.7	22.0	0.00e+00	122	40	0	998244352	46	6737
2026-01-02 01:19:12.90	222.24	37.30	-37.3	-38.4	22.3	0.00e+00	123	40	0	1001390080	46	6508
2026-01-02 01:19:13.91	222.58	37.45	-37.3	-38.3	22.3	0.00e+00	123	40	0	1004535808	46	6468
2026-01-02 01:19:14.92	222.93	37.60	-37.3	-38.4	22.3	0.00e+00	121	40	0	1007681536	46	6518
2026-01-02 01:19:15.93	223.27	37.75	-37.5	-38.5	22.3	0.00e+00	122	40	0	1010827264	46	6615
2026-01-02 01:19:16.94	223.63	37.90	-37.4	-38.5	22.2	0.00e+00	123	40	0	1013972992	46	6595
2026-01-02 01:19:17.95	223.98	38.05	-37.3	-38.4	22.4	0.00e+00	122	40	0	1017118720	46	6512
2026-01-02 01:19:18.96	224.34	38.20	-37.1	-38.1	22.6	0.00e+00	122	40	0	1020264448	46	6314
2026-01-02 01:19:19.97	224.70	38.34	-36.8	-37.7	22.8	0.00e+00	122	40	0	1023410176	46	6051
2026-01-02 01:19:20.98	225.07	38.49	-36.4	-37.4	23.1	0.00e+00	122	40	0	1026555904	46	5832
2026-01-02 01:19:21.99	225.44	38.64	-36.4	-37.4	23.0	0.00e+00	123	40	0	1029701632	46	5827
2026-01-02 01:19:23.00	225.81	38.78	-36.4	-37.3	23.1	0.00e+00	123	40	0	1032847360	46	5786
2026-01-02 01:19:24.01	226.18	38.93	-36.5	-37.5	23.0	0.00e+00	123	40	0	1035993088	46	5885
2026-01-02 01:19:25.02	226.56	39.07	-36.6	-37.6	22.9	0.00e+00	123	40	0	1039138816	46	5942
2026-01-02 01:19:26.02	226.94	39.22	-36.8	-37.8	22.8	0.00e+00	120	40	0	1042284544	46	6089
2026-01-02 01:19:27.03	227.32	39.36	-36.9	-38.0	22.7	0.00e+00	123	40	0	1045430272	46	6211
2026-01-02 01:19:28.04	227.71	39.50	-36.8	-37.8	22.8	0.00e+00	123	40	0	1048576000	46	6108
2026-01-02 01:19:29.05	228.10	39.64	-36.7	-37.6	22.9	0.00e+00	123	40	0	1051721728	46	5982
2026-01-02 01:19:30.06	228.50	39.78	-37.0	-38.0	22.7	0.00e+00	123	40	0	1054867456	46	6240
2026-01-02 01:19:31.07	228.89	39.92	-37.1	-38.1	22.6	0.00e+00	123	40	0	1058013184	46	6297
2026-01-02 01:19:32.08	229.30	40.06	-37.3	-38.3	22.4	0.00e+00	123	40	0	1061158912	46	6430
2026-01-02 01:19:33.09	229.70	40.20	-37.4	-38.4	22.3	0.00e+00	123	40	0	1064304640	46	6551
2026-01-02 01:19:34.10	230.11	40.33	-37.1	-38.1	22.5	0.00e+00	122	40	0	1067450368	46	6338
2026-01-02 01:19:35.11	230.52	40.47	-37.5	-38.5	22.4	0.00e+00	122	40	0	1070596096	46	6617
2026-01-02 01:19:36.12	230.94	40.60	-37.4	-38.4	22.4	0.00e+00	122	40	0	1073741824	46	6516
2026-01-02 01:19:37.13	231.35	40.73	-37.2	-38.2	22.5	0.00e+00	123	40	0	1076887552	46	6406
2026-01-02 01:19:38.14	231.78	40.87	-37.1	-38.1	22.6	0.00e+00	122	40	0	1080033280	46	6283
2026-01-02 01:19:39.14	232.20	40.99	-37.3	-38.3	22.3	0.00e+00	122	40	0	1083179008	46	6480
2026-01-02 01:19:40.16	232.63	41.13	-37.4	-38.4	22.3	0.00e+00	123	40	0	1086324736	46	6500
2026-01-02 01:19:41.16	233.06	41.25	-37.3	-38.2	22.5	0.00e+00	122	40	0	1089470464	46	6420
2026-01-02 01:19:42.18	233.50	41.38	-37.3	-38.3	22.4	0.00e+00	122	40	0	1092616192	46	6457
2026-01-02 01:19:43.18	233.93	41.50	-37.3	-38.4	22.4	0.00e+00	122	40	0	1095761920	46	6500
2026-01-02 01:19:44.20	234.38	41.63	-37.3	-38.3	22.4	0.00e+00	122	40	0	1098907648	46	6449
2026-01-02 01:19:45.21	234.82	41.75	-37.5	-38.5	22.3	0.00e+00	122	40	0	1102053376	46	6586
2026-01-02 01:19:46.21	235.27	41.87	-37.6	-38.7	22.0	0.00e+00	122	40	0	1105199104	46	6752
2026-01-02 01:19:47.22	235.72	41.99	-37.6	-38.6	22.1	0.00e+00	123	40	0	1108344832	46	6665
2026-01-02 01:19:48.23	236.17	42.11	-37.7	-38.7	22.0	0.00e+00	123	40	0	1111490560	48	6039
2026-01-02 01:19:49.24	236.63	42.22	-37.9	-38.9	21.8	0.00e+00	122	40	0	1114636288	48	6183
2026-01-02 01:19:50.25	237.09	42.34	-38.0	-39.0	21.8	0.00e+00	121	40	0	1117782016	48	6252
2026-01-02 01:19:51.26	237.56	42.45	-38.0	-39.1	21.4	0.00e+00	123	40	0	1120927744	48	6323
2026-01-02 01:19:52.27	238.02	42.56	-38.6	-39.7	21.1	0.00e+00	123	40	0	1124073472	48	6781
2026-01-02 01:19:53.28	238.50	42.67	-38.6	-39.7	21.1	0.00e+00	123	40	0	1127219200	48	6790
2026-01-02 01:19:54.29	238.97	42.77	-38.3	-39.4	21.4	0.00e+00	122	40	0	1130364928	48	6552
2026-01-02 01:19:55.30	239.45	42.88	-38.2	-39.3	21.4	0.00e+00	123	40	0	1133510656	48	6447
2026-01-02 01:19:56.31	239.93	42.98	-37.7	-38.8	21.8	0.00e+00	123	40	0	1136656384	48	6090
2026-01-02 01:19:57.32	240.41	43.08	-37.6	-38.6	21.9	0.00e+00	120	40	0	1139802112	48	5980
2026-01-02 01:19:58.33	240.90	43.18	-37.6	-38.7	21.7	0.00e+00	122	40	0	1142947840	48	6019
2026-01-02 01:19:59.33	241.38	43.28	-37.8	-38.9	21.7	0.00e+00	123	40	0	1146093568	48	6175
2026-01-02 01:20:00.35	241.88	43.38	-37.8	-38.9	21.9	0.00e+00	123	40	0	1149239296	48	6140
2026-01-02 01:20:01.35	242.37	43.47	-37.6	-38.6	22.2	0.00e+00	122	40	0	1152385024	48	5952
2026-01-02 01:20:02.36	242.87	43.56	-37.3	-38.4	22.3	0.00e+00	123	40	0	1155530752	48	5792
2026-01-02 01:20:03.37	243.37	43.65	-37.4	-38.5	22.0	0.00e+00	123	40	0	1158676480	48	5866
2026-01-02 01:20:04.38	243.87	43.74	-38.0	-39.1	21.4	0.00e+00	123	40	0	1161822208	48	6286
2026-01-02 01:20:05.39	244.38	43.82	-38.3	-39.4	21.2	0.00e+00	123	40	0	1164967936	48	6570
2026-01-02 01:20:06.40	244.89	43.90	-37.9	-38.9	21.8	0.00e+00	122	40	0	1168113664	48	6179
2026-01-02 01:20:07.41	245.40	43.98	-37.9	-38.9	21.8	0.00e+00	123	40	0	1171259392	48	6193
2026-01-02 01:20:08.42	245.91	44.06	-37.4	-38.5	22.0	0.00e+00	123	40	0	1174405120	48	5866
2026-01-02 01:20:09.43	246.43	44.14	-37.9	-39.0	21.4	0.00e+00	123	40	0	1177550848	48	6253
2026-01-02 01:20:10.44	246.94	44.21	-38.4	-39.6	21.1	0.00e+00	123	40	0	1180696576	48	6672
2026-01-02 01:20:11.45	247.47	44.28	-38.7	-39.9	21.0	0.00e+00	123	40	0	1183842304	50	6152
2026-01-02 01:20:12.46	247.99	44.35	-38.7	-39.8	21.1	0.00e+00	122	40	0	1186988032	50	6131
2026-01-02 01:20:13.47	248.51	44.41	-38.4	-39.5	21.4	0.00e+00	123	40	0	1190133760	50	5896
2026-01-02 01:20:14.48	249.04	44.48	-38.0	-39.1	21.6	0.00e+00	122	40	0	1193279488	50	5616
2026-01-02 01:20:15.49	249.57	44.54	-38.1	-39.1	21.4	0.00e+00	123	40	0	1196425216	50	5655
2026-01-02 01:20:16.50	250.10	44.59	-38.1	-39.2	21.6	0.00e+00	123	40	0	1199570944	50	5685
2026-01-02 01:20:17.51	250.63	44.65	-38.4	-39.4	21.4	0.00e+00	122	40	0	1202716672	50	5858
2026-01-02 01:20:18.52	251.17	44.70	-38.5	-39.5	21.4	0.00e+00	123	40	0	1205862400	50	5920
2026-01-02 01:20:19.53	251.71	44.75	-38.3	-39.3	21.6	0.00e+00	123	40	0	1209008128	50	5776
2026-01-02 01:20:20.54	252.24	44.80	-37.9	-38.9	22.0	0.00e+00	122	40	0	1212153856	50	5503
2026-01-02 01:20:21.55	252.78	44.84	-37.4	-38.4	22.2	0.00e+00	122	40	0	1215299584	48	5840
2026-01-02 01:20:22.56	253.32	44.89	-37.4	-38.4	22.2	0.00e+00	120	40	0	1219493888	48	5811
2026-01-02 01:20:23.56	253.86	44.93	-37.5	-38.5	22.3	0.00e+00	123	40	0	1221591040	48	5867
2026-01-02 01:20:24.57	254.40	44.96	-37.3	-38.3	22.2	0.00e+00	122	40	0	1224736768	48	5772
2026-01-02 01:20:25.58	254.95	45.00	-37.6	-38.6	21.9	0.00e+00	123	40	0	1227882496	48	5950
2026-01-02 01:20:26.59	255.50	45.03	-37.8	-38.9	21.9	0.00e+00	123	40	0	1231028224	48	6160
2026-01-02 01:20:27.60	256.04	45.06	-37.6	-38.6	22.2	0.00e+00	122	40	0	1235222528	48	5959
2026-01-02 01:20:28.61	256.59	45.08	-37.5	-38.5	22.0	0.00e+00	123	40	0	1238368256	48	5918
2026-01-02 01:20:29.62	257.14	45.10	-37.7	-38.8	21.4	0.00e+00	123	40	0	1241513984	48	6071
2026-01-02 01:20:30.63	257.69	45.12	-38.1	-39.2	21.2	0.00e+00	122	40	0	1244659712	48	6401
2026-01-02 01:20:31.64	258.24	45.14	-38.1	-39.2	21.4	0.00e+00	123	40	0	1246756864	48	6393
2026-01-02 01:20:32.65	258.79	45.15	-38.1	-39.2	21.5	0.00e+00	122	40	0	1250951168	48	6358
2026-01-02 01:20:33.66	259.34	45.16	-38.0	-39.0	21.8	0.00e+00	120	40	0	1254096896	48	6260
2026-01-02 01:20:34.67	259.89	45.17	-37.9	-38.9	21.7	0.00e+00	122	40	0	1257242624	48	6203
2026-01-02 01:20:35.68	260.44	45.18	-37.9	-39.0	21.8	0.00e+00	122	40	0	1260388352	48	6227
2026-01-02 01:20:36.69	260.99	45.18	-37.7	-38.8	21.8	0.00e+00	122	40	0	1263534080	48	6098
2026-01-02 01:20:37.70	261.55	45.18	-37.6	-38.7	22.0	0.00e+00	121	40	0	1266679808	48	5995
2026-01-02 01:20:38.71	262.10	45.18	-37.6	-38.6	22.0	0.00e+00	123	40	0	1269825536	48	5970
2026-01-02 01:20:39.72	262.65	45.17	-37.5	-38.6	22.2	0.00e+00	120	40	0	1272971264	48	5939
2026-01-02 01:20:40.73	263.20	45.16	-37.6	-38.7	21.9	0.00e+00	123	40	0	1276116992	48	6032
2026-01-02 01:20:41.74	263.75	45.15	-37.8	-38.8	21.9	0.00e+00	123	40	0	1279262720	48	6120
2026-01-02 01:20:42.76	264.31	45.14	-37.9	-39.0	21.9	0.00e+00	123	40	0	1282408448	48	6225
2026-01-02 01:20:43.77	264.86	45.12	-37.8	-38.9	21.8	0.00e+00	122	40	0	1285554176	48	6169
2026-01-02 01:20:44.77	265.40	45.10	-37.8	-38.9	21.8	0.00e+00	120	40	0	1288699904	48	6156
2026-01-02 01:20:45.78	265.95	45.07	-37.8	-38.8	21.8	0.00e+00	123	40	0	1291845632	48	6122
2026-01-02 01:20:46.80	266.50	45.05	-37.5	-38.5	22.1	0.00e+00	123	40	0	1294991360	48	5908
2026-01-02 01:20:47.81	267.05	45.02	-37.3	-38.3	22.3	0.00e+00	122	40	0	1298137088	48	5789
2026-01-02 01:20:48.81	267.59	44.99	-37.4	-38.4	22.3	0.00e+00	120	40	0	1301282816	48	5802
2026-01-02 01:20:49.83	268.14	44.95	-37.0	-38.0	22.6	0.00e+00	123	40	0	1304428544	48	5565
2026-01-02 01:20:50.84	268.68	44.92	-37.1	-38.1	22.6	0.00e+00	123	40	0	1307574272	48	5625
2026-01-02 01:20:51.85	269.22	44.88	-37.1	-38.1	22.6	0.00e+00	122	40	0	1310720000	48	5641
2026-01-02 01:20:52.85	269.76	44.83	-37.3	-38.3	22.3	0.00e+00	123	40	0	1313865728	48	5775
2026-01-02 01:20:53.86	270.29	44.79	-37.3	-38.3	22.3	0.00e+00	123	40	0	1317011456	48	5741
2026-01-02 01:20:54.87	270.83	44.74	-37.1	-38.1	22.3	0.00e+00	120	40	0	1320157184	48	5645
2026-01-02 01:20:55.88	271.37	44.69	-36.8	-37.8	22.6	0.00e+00	122	40	0	1323302912	48	5421
2026-01-02 01:20:56.89	271.90	44.64	-37.1	-38.1	22.4	0.00e+00	123	40	0	1326448640	48	5606
2026-01-02 01:20:57.90	272.43	44.58	-37.7	-38.7	22.1	0.00e+00	122	40	0	1329594368	48	6027
2026-01-02 01:20:58.91	272.96	44.52	-37.9	-38.9	21.9	0.00e+00	120	40	0	1332740096	48	6175
2026-01-02 01:20:59.92	273.49	44.46	-38.0	-39.0	21.6	0.00e+00	122	40	0	1335885824	48	6263
2026-01-02 01:21:00.93	274.02	44.40	-38.0	-39.1	21.7	0.00e+00	123	40	0	1339031552	48	6281
2026-01-02 01:21:01.94	274.54	44.33	-37.6	-38.6	22.0	0.00e+00	123	40	0	1342177280	48	5955
2026-01-02 01:21:02.95	275.06	44.26	-37.2	-38.2	22.4	0.00e+00	122	40	0	1345323008	48	5701
2026-01-02 01:21:03.96	275.58	44.19	-37.4	-38.4	22.2	0.00e+00	122	40	0	1348468736	48	5824
2026-01-02 01:21:04.97	276.10	44.12	-37.5	-38.5	22.1	0.00e+00	123	40	0	1351614464	48	5895
2026-01-02 01:21:05.98	276.61	44.04	-37.7	-38.7	22.0	0.00e+00	123	40	0	1354760192	48	6052
2026-01-02 01:21:06.99	277.13	43.97	-38.1	-39.2	21.7	0.00e+00	123	40	0	1357905920	48	6370
2026-01-02 01:21:07.99	277.63	43.89	-38.3	-39.4	21.5	0.00e+00	123	40	0	1361051648	48	6519
2026-01-02 01:21:09.00	278.14	43.80	-38.1	-39.2	21.7	0.00e+00	120	40	0	1364197376	48	6354
2026-01-02 01:21:10.01	278.64	43.72	-37.7	-38.7	21.9	0.00e+00	123	40	0	1367343104	48	6040
2026-01-02 01:21:11.02	279.14	43.63	-37.6	-38.7	21.9	0.00e+00	120	40	0	1370488832	48	6017
2026-01-02 01:21:12.03	279.64	43.54	-37.2	-38.2	22.4	0.00e+00	123	40	0	1373634560	48	5693
2026-01-02 01:21:13.04	280.14	43.45	-37.1	-38.0	22.6	0.00e+00	123	40	0	1376780288	48	5585
2026-01-02 01:21:14.05	280.63	43.36	-37.4	-38.5	22.2	0.00e+00	123	40	0	1379926016	48	5861
2026-01-02 01:21:15.06	281.12	43.26	-38.2	-39.3	21.6	0.00e+00	120	40	0	1383071744	48	6470
2026-01-02 01:21:16.07	281.61	43.16	-38.5	-39.7	21.2	0.00e+00	123	40	0	1386217472	48	6749
2026-01-02 01:21:17.08	282.10	43.06	-38.3	-39.3	21.6	0.00e+00	123	40	0	1389363200	48	6498
2026-01-02 01:21:18.09	282.58	42.96	-38.0	-39.0	21.8	0.00e+00	123	40	0	1392508928	48	6263
2026-01-02 01:21:19.10	283.06	42.86	-37.1	-38.1	22.2	0.00e+00	122	40	0	1395654656	48	5625
2026-01-02 01:21:20.11	283.53	42.75	-37.2	-38.2	22.2	0.00e+00	122	40	0	1398800384	48	5672
2026-01-02 01:21:21.12	284.00	42.65	-37.3	-38.3	22.3	0.00e+00	120	40	0	1401946112	48	5784
2026-01-02 01:21:22.13	284.47	42.54	-37.4	-38.4	22.3	0.00e+00	123	40	0	1405091840	48	5823
2026-01-02 01:21:23.14	284.94	42.43	-37.5	-38.5	22.2	0.00e+00	123	40	0	1408237568	48	5884
2026-01-02 01:21:24.15	285.40	42.32	-37.8	-38.8	21.6	0.00e+00	123	40	0	1411383296	48	6116
2026-01-02 01:21:25.16	285.86	42.20	-38.0	-39.1	21.3	0.00e+00	120	40	0	1414529024	48	6315
2026-01-02 01:21:26.17	286.32	42.09	-38.2	-39.3	21.4	0.00e+00	122	40	0	1417674752	48	6464
2026-01-02 01:21:27.18	286.77	41.97	-37.9	-38.9	21.9	0.00e+00	122	40	0	1420820480	48	6175
2026-01-02 01:21:28.19	287.22	41.85	-37.6	-38.7	21.9	0.00e+00	123	40	0	1423966208	48	6001
2026-01-02 01:21:29.20	287.67	41.73	-37.5	-38.5	21.8	0.00e+00	123	40	0	1427111936	48	5925
2026-01-02 01:21:30.21	288.11	41.61	-37.9	-39.0	21.5	0.00e+00	123	40	0	1430257664	48	6237
2026-01-02 01:21:31.22	288.55	41.48	-38.0	-39.0	21.5	0.00e+00	122	40	0	1433403392	48	6263
2026-01-02 01:21:32.23	288.99	41.36	-38.0	-39.1	21.5	0.00e+00	123	40	0	1436549120	48	6280
2026-01-02 01:21:33.24	289.42	41.23	-38.0	-39.1	21.5	0.00e+00	123	40	0	1439694848	48	6282
2026-01-02 01:21:34.24	289.85	41.11	-37.8	-38.9	21.8	0.00e+00	122	40	0	1442840576	48	6141
2026-01-02 01:21:35.25	290.27	40.98	-37.5	-38.6	22.1	0.00e+00	123	40	0	1445986304	48	5947
2026-01-02 01:21:36.26	290.70	40.85	-36.9	-37.9	22.7	0.00e+00	123	40	0	1449132032	48	5512
2026-01-02 01:21:37.27	291.12	40.72	-36.6	-37.6	23.0	0.00e+00	120	40	0	1452277760	46	5933
2026-01-02 01:21:38.28	291.53	40.58	-36.6	-37.5	22.9	0.00e+00	123	40	0	1455423488	46	5897
2026-01-02 01:21:39.29	291.95	40.45	-36.8	-37.8	22.5	0.00e+00	122	40	0	1458569216	46	6110
2026-01-02 01:21:40.30	292.36	40.31	-37.1	-38.1	22.4	0.00e+00	122	40	0	1461714944	46	6326
2026-01-02 01:21:41.31	292.76	40.18	-37.1	-38.1	22.5	0.00e+00	120	40	0	1464860672	46	6332
2026-01-02 01:21:42.32	293.17	40.04	-37.0	-38.0	22.6	0.00e+00	122	40	0	1468006400	46	6241
2026-01-02 01:21:43.33	293.57	39.90	-36.6	-37.6	23.0	0.00e+00	120	40	0	1471152128	46	5931
2026-01-02 01:21:44.34	293.96	39.77	-32.2	-37.4	17.2	2.92e-02	122	40	0	1474297856	36	10348
2026-01-02 01:21:45.34	294.35	39.63	-32.2	-37.8	17.0	2.40e-02	122	40	0	1477443584	36	10792
2026-01-02 01:21:46.35	294.74	39.49	-32.4	-38.4	16.5	2.93e-02	122	40	0	1480589312	36	11563
2026-01-02 01:21:47.36	295.13	39.35	-32.4	-38.5	16.8	2.47e-02	120	40	0	1483735040	36	11774
2026-01-02 01:21:48.37	295.51	39.20	-32.4	-38.4	16.7	2.42e-02	122	40	0	1486880768	36	11657
2026-01-02 01:21:49.38	295.89	39.06	-32.4	-38.5	16.6	2.88e-02	120	40	0	1490026496	36	11805
2026-01-02 01:21:50.39	296.27	38.92	-32.3	-38.9	16.9	2.52e-02	123	40	0	1493172224	36	12363
2026-01-02 01:21:51.40	296.64	38.77	-32.1	-38.9	16.7	2.62e-02	122	40	0	1496317952	36	12252
2026-01-02 01:21:52.41	297.01	38.63	-32.3	-38.7	17.0	2.58e-02	123	40	0	1499463680	36	12088
2026-01-02 01:21:53.42	297.38	38.48	-31.8	-38.5	16.8	2.47e-02	120	40	0	1502609408	36	11727
2026-01-02 01:21:54.43	297.74	38.33	-32.3	-38.5	16.7	2.52e-02	123	40	0	1505755136	36	11772
2026-01-02 01:21:55.44	298.10	38.19	-31.7	-38.4	17.0	2.49e-02	123	40	0	1508900864	36	11652
2026-01-02 01:21:56.45	298.46	38.04	-32.3	-38.2	16.9	2.51e-02	123	40	0	1512046592	36	11318
2026-01-02 01:21:57.46	298.81	37.89	-32.2	-38.1	16.8	2.48e-02	120	40	0	1515192320	36	11236
2026-01-02 01:21:58.47	299.16	37.74	-32.2	-37.8	16.8	2.75e-02	123	40	0	1518338048	36	10806
2026-01-02 01:21:59.48	299.51	37.59	-32.2	-38.0	17.1	2.88e-02	122	40	0	1521483776	36	11059
2026-01-02 01:22:00.49	299.85	37.44	-32.1	-37.6	16.8	2.54e-02	123	40	0	1524629504	36	10607
2026-01-02 01:22:01.50	300.19	37.29	-36.6	-37.6	23.0	0.00e+00	123	40	0	1527775232	46	5934
2026-01-02 01:22:02.50	300.53	37.14	-36.7	-37.7	22.9	0.00e+00	123	40	0	1530920960	46	6015
2026-01-02 01:22:03.51	300.86	36.99	-36.5	-37.5	23.0	0.00e+00	122	40	0	1534066688	46	5880
2026-01-02 01:22:04.52	301.19	36.84	-36.4	-37.4	23.0	0.00e+00	123	40	0	1537212416	46	5802
2026-01-02 01:22:05.53	301.52	36.69	-36.4	-37.4	23.0	0.00e+00	122	40	0	1540358144	46	5814
2026-01-02 01:22:06.54	301.85	36.54	-36.1	-37.0	23.1	0.00e+00	122	40	0	1543503872	46	5585
2026-01-02 01:22:07.55	302.17	36.38	-36.0	-37.0	23.2	0.00e+00	120	40	0	1546649600	46	5534
2026-01-02 01:22:08.56	302.49	36.23	-36.3	-37.2	23.1	0.00e+00	122	40	0	1549795328	46	5713
2026-01-02 01:22:09.57	302.81	36.08	-36.2	-37.1	23.4	0.00e+00	120	40	0	1552941056	46	5653
2026-01-02 01:22:10.58	303.12	35.93	-36.3	-37.3	23.2	0.00e+00	123	40	0	1556086784	46	5741
2026-01-02 01:22:11.59	303.43	35.77	-36.5	-37.5	23.1	0.00e+00	122	40	0	1559232512	46	5902
2026-01-02 01:22:12.60	303.74	35.62	-36.5	-37.4	23.0	0.00e+00	123	40	0	1562378240	46	5854
2026-01-02 01:22:13.61	304.05	35.46	-36.6	-37.6	22.8	0.00e+00	122	40	0	1565523968	46	5947
2026-01-02 01:22:14.62	304.35	35.31	-36.7	-37.7	22.7	0.00e+00	123	40	0	1568669696	46	6045
2026-01-02 01:22:15.63	304.65	35.16	-36.7	-37.7	22.7	0.00e+00	123	40	0	1571815424	46	6041
2026-01-02 01:22:16.64	304.95	35.00	-36.7	-37.7	22.7	0.00e+00	123	40	0	1574961152	46	6024
2026-01-02 01:22:17.65	305.24	34.85	-36.6	-37.6	22.7	0.00e+00	123	40	0	1578106880	46	5970
2026-01-02 01:22:18.66	305.53	34.70	-36.5	-37.5	22.8	0.00e+00	122	40	0	1582301184	46	5890
2026-01-02 01:22:19.67	305.82	34.54	-36.6	-37.6	22.8	0.00e+00	120	40	0	1584398336	46	5951
2026-01-02 01:22:20.67	306.10	34.39	-36.7	-37.7	22.8	0.00e+00	120	40	0	1587544064	46	5995
2026-01-02 01:22:21.68	306.39	34.23	-36.6	-37.6	22.8	0.00e+00	123	40	0	1590689792	46	5939
2026-01-02 01:22:22.69	306.67	34.08	-36.5	-37.5	23.0	0.00e+00	123	40	0	1593835520	46	5876
2026-01-02 01:22:23.70	306.95	33.93	-36.1	-37.1	23.2	0.00e+00	122	40	0	1598029824	46	5628
2026-01-02 01:22:24.71	307.22	33.77	-36.0	-36.9	23.3	0.00e+00	120	40	0	1601175552	46	5528
2026-01-02 01:22:25.72	307.50	33.62	-36.0	-37.0	23.4	0.00e+00	123	40	0	1604321280	46	5575
2026-01-02 01:22:26.73	307.77	33.46	-35.8	-36.7	23.6	0.00e+00	123	40	0	1607467008	46	5383
2026-01-02 01:22:27.74	308.04	33.31	-35.7	-36.7	23.7	0.00e+00	123	40	0	1609564160	44	5997
2026-01-02 01:22:28.75	308.30	33.16	-35.6	-36.5	23.8	0.00e+00	123	40	0	1612709888	44	5905
2026-01-02 01:22:29.76	308.56	33.00	-35.4	-36.3	24.0	0.00e+00	123	40	0	1616904192	44	5755
2026-01-02 01:22:30.77	308.82	32.85	-35.2	-36.1	24.1	0.00e+00	121	40	0	1620049920	44	5621
2026-01-02 01:22:31.78	309.08	32.70	-35.3	-36.2	24.0	0.00e+00	122	40	0	1623195648	44	5672
2026-01-02 01:22:32.79	309.34	32.54	-35.1	-36.0	24.2	0.00e+00	123	40	0	1626341376	44	5579
2026-01-02 01:22:33.80	309.59	32.39	-34.9	-35.9	24.2	0.00e+00	123	40	0	1629487104	44	5470
2026-01-02 01:22:34.81	309.84	32.24	-34.8	-35.7	24.5	0.00e+00	120	40	0	1632632832	44	5347
2026-01-02 01:22:35.82	310.09	32.09	-34.9	-35.8	24.4	0.00e+00	123	40	0	1635778560	44	5427
2026-01-02 01:22:36.83	310.34	31.93	-35.0	-35.9	24.3	0.00e+00	122	40	0	1638924288	44	5482
2026-01-02 01:22:37.85	310.59	31.78	-34.8	-35.7	24.3	0.00e+00	122	40	0	1642070016	44	5396
2026-01-02 01:22:38.85	310.83	31.63	-34.8	-35.8	24.3	0.00e+00	120	40	0	1645215744	44	5405
2026-01-02 01:22:39.86	311.07	31.48	-34.9	-35.8	24.4	0.00e+00	122	40	0	1648361472	42	6101
2026-01-02 01:22:40.88	311.31	31.32	-34.6	-35.5	24.4	0.00e+00	120	40	0	1651507200	42	5912
2026-01-02 01:22:41.89	311.54	31.17	-34.6	-35.5	24.4	0.00e+00	122	40	0	1654652928	42	5922
2026-01-02 01:22:42.90	311.78	31.02	-34.7	-35.6	24.3	0.00e+00	123	40	0	1657798656	42	5967
2026-01-02 01:22:43.90	312.00	30.87	-34.7	-35.6	24.3	0.00e+00	120	40	0	1660944384	42	5962
2026-01-02 01:22:44.91	312.23	30.72	-34.7	-35.5	24.3	0.00e+00	122	40	0	1664090112	42	5923
2026-01-02 01:22:45.92	312.46	30.57	-34.6	-35.5	24.4	0.00e+00	120	40	0	1667235840	42	5894
2026-01-02 01:22:46.93	312.69	30.42	-34.7	-35.6	24.3	0.00e+00	122	40	0	1670381568	42	5971
2026-01-02 01:22:47.94	312.91	30.27	-34.7	-35.6	24.4	0.00e+00	123	40	0	1673527296	42	5956
2026-01-02 01:22:48.95	313.13	30.13	-34.8	-35.7	24.2	0.00e+00	123	40	0	1676673024	42	6044
2026-01-02 01:22:49.96	313.35	29.98	-34.9	-35.8	24.2	0.00e+00	123	40	0	1679818752	42	6075
2026-01-02 01:22:50.97	313.57	29.83	-34.6	-35.5	24.2	0.00e+00	122	40	0	1682964480	42	5909
2026-01-02 01:22:51.98	313.78	29.68	-34.8	-35.7	24.1	0.00e+00	122	40	0	1686110208	42	6039
2026-01-02 01:22:52.99	314.00	29.53	-34.9	-35.8	24.0	0.00e+00	123	40	0	1689255936	42	6102
2026-01-02 01:22:54.00	314.21	29.38	-34.9	-35.8	24.2	0.00e+00	122	40	0	1692401664	42	6126
2026-01-02 01:22:55.01	314.42	29.24	-35.0	-36.0	24.0	0.00e+00	123	40	0	1695547392	42	6218
2026-01-02 01:22:56.02	314.62	29.09	-35.1	-36.0	24.1	0.00e+00	123	40	0	1698693120	42	6211
2026-01-02 01:22:57.03	314.83	28.95	-35.1	-36.0	24.2	0.00e+00	122	40	0	1701838848	42	6222
2026-01-02 01:22:58.04	315.03	28.80	-35.2	-36.1	24.0	0.00e+00	123	40	0	1704984576	42	6317
2026-01-02 01:22:59.05	315.24	28.65	-35.3	-36.3	23.9	0.00e+00	122	40	0	1708130304	42	6426
2026-01-02 01:23:00.06	315.44	28.51	-35.4	-36.4	24.0	0.00e+00	123	40	0	1711276032	42	6511
2026-01-02 01:23:01.08	315.64	28.36	-35.4	-36.3	24.0	0.00e+00	122	40	0	1714421760	42	6456
2026-01-02 01:23:02.08	315.83	28.22	-35.5	-36.4	23.9	0.00e+00	120	40	0	1717567488	42	6566
2026-01-02 01:23:03.09	316.03	28.08	-35.3	-36.2	24.0	0.00e+00	122	40	0	1720713216	42	6417
2026-01-02 01:23:04.10	316.22	27.93	-35.4	-36.3	24.0	0.00e+00	123	40	0	1723858944	42	6459
2026-01-02 01:23:05.11	316.41	27.79	-35.5	-36.4	23.8	0.00e+00	123	40	0	1727004672	42	6520
2026-01-02 01:23:06.12	316.60	27.65	-35.7	-36.6	23.6	0.00e+00	122	40	0	1730150400	44	5984
2026-01-02 01:23:07.13	316.79	27.50	-35.5	-36.4	23.9	0.00e+00	123	40	0	1733296128	44	5807
2026-01-02 01:23:08.14	316.98	27.36	-35.4	-36.3	24.0	0.00e+00	122	40	0	1736441856	44	5737
2026-01-02 01:23:09.16	317.16	27.22	-35.0	-35.9	24.3	0.00e+00	123	40	0	1739587584	44	5516
2026-01-02 01:23:10.16	317.35	27.08	-35.0	-35.9	24.3	0.00e+00	123	40	0	1742733312	44	5474
2026-01-02 01:23:11.17	317.53	26.94	-34.9	-35.8	24.3	0.00e+00	123	40	0	1745879040	44	5446
2026-01-02 01:23:12.18	317.71	26.80	-35.0	-35.9	24.2	0.00e+00	122	40	0	1749024768	44	5476
2026-01-02 01:23:13.19	317.89	26.66	-34.9	-35.8	24.3	0.00e+00	120	40	0	1752170496	44	5427
2026-01-02 01:23:14.20	318.07	26.52	-34.7	-35.5	24.5	0.00e+00	122	40	0	1755316224	42	5923
2026-01-02 01:23:15.21	318.24	26.38	-34.6	-35.5	24.5	0.00e+00	123	40	0	1758461952	42	5917
2026-01-02 01:23:16.22	318.42	26.24	-34.5	-35.4	24.5	0.00e+00	122	40	0	1761607680	42	5846
2026-01-02 01:23:17.23	318.59	26.11	-34.6	-35.5	24.4	0.00e+00	120	40	0	1764753408	42	5865
2026-01-02 01:23:18.24	318.76	25.97	-34.6	-35.5	24.3	0.00e+00	123	40	0	1767899136	42	5917
2026-01-02 01:23:19.25	318.93	25.83	-34.9	-35.8	24.2	0.00e+00	122	40	0	1771044864	42	6086
2026-01-02 01:23:20.26	319.10	25.69	-35.0	-35.9	24.1	0.00e+00	123	40	0	1774190592	42	6158
2026-01-02 01:23:21.26	319.27	25.56	-34.9	-35.9	24.1	0.00e+00	120	40	0	1777336320	42	6140
2026-01-02 01:23:22.27	319.43	25.42	-34.8	-35.7	24.3	0.00e+00	122	40	0	1780482048	42	6022
2026-01-02 01:23:23.28	319.60	25.29	-34.8	-35.7	24.3	0.00e+00	120	40	0	1783627776	42	6018
2026-01-02 01:23:24.30	319.76	25.15	-34.5	-35.4	24.5	0.00e+00	122	40	0	1786773504	42	5840
2026-01-02 01:23:25.31	319.92	25.02	-34.5	-35.3	24.5	0.00e+00	120	40	0	1789919232	42	5791
2026-01-02 01:23:26.32	320.08	24.88	-34.4	-35.2	24.6	0.00e+00	123	40	0	1793064960	42	5724
2026-01-02 01:23:27.33	320.24	24.75	-34.5	-35.3	24.6	0.00e+00	122	40	0	1796210688	42	5786
2026-01-02 01:23:28.34	320.40	24.62	-34.4	-35.3	24.6	0.00e+00	122	40	0	1799356416	42	5729
2026-01-02 01:23:29.34	320.55	24.49	-34.5	-35.4	24.4	0.00e+00	123	40	0	1802502144	42	5834
2026-01-02 01:23:30.35	320.71	24.36	-34.6	-35.5	24.4	0.00e+00	123	40	0	1805647872	42	5892
2026-01-02 01:23:31.36	320.86	24.22	-34.7	-35.6	24.2	0.00e+00	123	40	0	1808793600	42	5942
2026-01-02 01:23:32.37	321.02	24.09	-34.9	-35.8	24.3	0.00e+00	123	40	0	1811939328	42	6081
2026-01-02 01:23:33.38	321.17	23.96	-35.0	-35.9	24.1	0.00e+00	123	40	0	1815085056	42	6194
2026-01-02 01:23:34.39	321.32	23.83	-35.0	-35.9	24.1	0.00e+00	123	40	0	1818230784	42	6168
2026-01-02 01:23:35.41	321.47	23.70	-35.1	-36.0	24.1	0.00e+00	123	40	0	1821376512	42	6254
2026-01-02 01:23:36.41	321.62	23.57	-34.7	-35.6	24.4	0.00e+00	123	40	0	1824522240	42	5990
2026-01-02 01:23:37.43	321.76	23.44	-34.8	-35.7	24.4	0.00e+00	120	40	0	1827667968	42	5995
2026-01-02 01:23:38.44	321.91	23.31	-34.8	-35.7	24.3	0.00e+00	123	40	0	1830813696	42	6047
2026-01-02 01:23:39.45	322.05	23.19	-34.9	-35.8	24.3	0.00e+00	123	40	0	1833959424	42	6128
2026-01-02 01:23:40.46	322.20	23.06	-34.9	-35.9	24.2	0.00e+00	122	40	0	1837105152	42	6138
2026-01-02 01:23:41.46	322.34	22.93	-35.0	-35.9	24.2	0.00e+00	120	40	0	1840250880	42	6201
2026-01-02 01:23:42.48	322.48	22.81	-35.1	-36.0	24.0	0.00e+00	120	40	0	1843396608	42	6235
2026-01-02 01:23:43.49	322.62	22.68	-35.2	-36.1	24.0	0.00e+00	123	40	0	1846542336	42	6312
2026-01-02 01:23:44.50	322.76	22.55	-35.0	-35.9	24.1	0.00e+00	122	40	0	1849688064	42	6180
2026-01-02 01:23:45.51	322.90	22.43	-34.9	-35.8	24.2	0.00e+00	122	40	0	1852833792	42	6099
2026-01-02 01:23:46.52	323.03	22.30	-35.0	-35.9	24.2	0.00e+00	122	40	0	1855979520	42	6203
2026-01-02 01:23:47.53	323.17	22.18	-34.9	-35.8	24.2	0.00e+00	123	40	0	1859125248	42	6113
2026-01-02 01:23:48.54	323.31	22.06	-34.8	-35.7	24.3	0.00e+00	120	40	0	1862270976	42	6043
2026-01-02 01:23:49.55	323.44	21.93	-34.8	-35.7	24.4	0.00e+00	123	40	0	1865416704	42	5998
2026-01-02 01:23:50.56	323.57	21.81	-34.7	-35.5	24.4	0.00e+00	120	40	0	1868562432	42	5913
2026-01-02 01:23:51.57	323.70	21.69	-34.6	-35.5	24.4	0.00e+00	122	40	0	1871708160	42	5894
2026-01-02 01:23:52.58	323.83	21.56	-34.6	-35.5	24.5	0.00e+00	121	40	0	1874853888	42	5878
2026-01-02 01:23:53.59	323.96	21.44	-34.6	-35.5	24.4	0.00e+00	123	40	0	1877999616	42	5880
2026-01-02 01:23:54.60	324.09	21.32	-34.6	-35.5	24.4	0.00e+00	122	40	0	1881145344	42	5879
2026-01-02 01:23:55.60	324.22	21.20	-34.7	-35.6	24.4	0.00e+00	123	40	0	1884291072	42	5966
2026-01-02 01:23:56.61	324.35	21.08	-34.8	-35.7	24.3	0.00e+00	123	40	0	1887436800	42	6014
2026-01-02 01:23:57.62	324.47	20.96	-34.8	-35.8	24.2	0.00e+00	123	40	0	1890582528	42	6068
2026-01-02 01:23:58.63	324.60	20.84	-34.8	-35.7	24.3	0.00e+00	123	40	0	1893728256	42	6005
2026-01-02 01:23:59.64	324.72	20.72	-34.9	-35.8	24.2	0.00e+00	123	40	0	1896873984	42	6125
2026-01-02 01:24:00.65	324.84	20.61	-34.9	-35.8	24.1	0.00e+00	120	40	0	1900019712	42	6082
2026-01-02 01:24:01.66	324.96	20.49	-35.0	-35.9	24.0	0.00e+00	123	40	0	1903165440	42	6184
2026-01-02 01:24:02.67	325.09	20.37	-34.8	-35.7	24.2	0.00e+00	122	40	0	1906311168	42	6040
2026-01-02 01:24:03.68	325.21	20.25	-35.1	-36.0	24.1	0.00e+00	123	40	0	1909456896	42	6236
2026-01-02 01:24:04.69	325.33	20.14	-34.8	-35.7	24.2	0.00e+00	122	40	0	1912602624	42	6008
2026-01-02 01:24:05.70	325.44	20.02	-34.7	-35.6	24.3	0.00e+00	120	40	0	1915748352	42	5930
2026-01-02 01:24:06.71	325.56	19.90	-34.6	-35.5	24.4	0.00e+00	123	40	0	1919942656	42	5885
2026-01-02 01:24:07.72	325.68	19.79	-34.6	-35.5	24.3	0.00e+00	123	40	0	1923088384	42	5900
2026-01-02 01:24:08.73	325.80	19.67	-34.7	-35.6	24.2	0.00e+00	123	40	0	1925185536	42	5954
2026-01-02 01:24:09.74	325.91	19.56	-34.5	-35.4	24.3	0.00e+00	123	40	0	1928331264	42	5819
2026-01-02 01:24:10.75	326.02	19.44	-34.6	-35.5	24.2	0.00e+00	123	40	0	1931476992	42	5878
2026-01-02 01:24:11.76	326.14	19.33	-34.6	-35.5	24.1	0.00e+00	121	40	0	1935671296	42	5921
2026-01-02 01:24:12.77	326.25	19.22	-34.7	-35.6	24.1	0.00e+00	123	40	0	1938817024	42	5987
2026-01-02 01:24:13.78	326.36	19.10	-34.8	-35.7	24.0	0.00e+00	122	40	0	1941962752	42	6050
2026-01-02 01:24:14.79	326.47	18.99	-34.7	-35.6	24.1	0.00e+00	120	40	0	1945108480	42	5941
2026-01-02 01:24:15.80	326.58	18.88	-34.6	-35.5	24.2	0.00e+00	122	40	0	1948254208	42	5923
2026-01-02 01:24:16.81	326.69	18.77	-34.7	-35.6	24.1	0.00e+00	123	40	0	1951399936	42	5986
2026-01-02 01:24:17.82	326.80	18.66	-34.7	-35.6	24.2	0.00e+00	122	40	0	1954545664	42	5981
