passes_logs/2026/01/02/R4.6S_Anadyr/R4.6S_Anadyr__20260102_140834_NOAA_20_JPSS-1_rec.log

#Pass ID: 20260102_140834_NOAA 20 (JPSS-1)
#Satellite: NOAA 20 (JPSS-1)
#Configuration: NOAA 20
#almurnet v.1.7.20251203
#Start time: 2026-01-02 14:08:37

#Version: 2.2.20231116
#Station: R4.6S_Anadyr
#Location: 177.4865 lon 64.73178 lat
#TLE: 1 43013U 17073A   26001.93781127  .00000184  00000+0  10834-3 0  9997
#TLE: 2 43013  98.7622 303.0160 0001916  58.2205 301.9158 14.19532295420889

#Time	Az	El	Level	Level2	SNR	BER	BlckErr	Temp	State	Recorded	gain1	gain2
2026-01-02 14:08:37.28	19.57	0.17	-49.5	-63.3	3.3	1.54e+00	0	38	0	0	60	52763
2026-01-02 14:08:38.28	19.59	0.23	-49.5	-64.7	3.6	1.51e+00	0	38	104	0	60	61904
2026-01-02 14:08:39.29	19.61	0.29	-49.5	-64.7	3.6	1.51e+00	0	38	104	0	60	62323
2026-01-02 14:08:40.30	19.63	0.35	-49.5	-64.7	3.6	1.51e+00	0	38	104	0	60	62433
2026-01-02 14:08:41.31	19.66	0.41	-49.5	-64.7	3.6	1.51e+00	0	38	104	0	60	62419
2026-01-02 14:08:42.32	19.68	0.47	-49.5	-64.7	3.5	1.51e+00	0	38	104	0	60	61772
2026-01-02 14:08:43.33	19.70	0.53	-49.4	-64.6	3.6	1.51e+00	0	38	104	0	60	61503
2026-01-02 14:08:44.34	19.72	0.59	-49.3	-64.5	3.6	1.51e+00	0	39	104	0	60	60875
2026-01-02 14:08:45.35	19.75	0.65	-49.2	-64.4	3.6	1.51e+00	0	38	104	0	60	59652
2026-01-02 14:08:46.36	19.77	0.71	-49.0	-64.2	3.6	1.51e+00	0	38	104	0	60	58870
2026-01-02 14:08:47.37	19.79	0.77	-48.8	-64.0	3.6	1.51e+00	0	38	104	0	60	57223
2026-01-02 14:08:48.38	19.81	0.84	-48.7	-63.9	3.6	1.51e+00	0	39	104	0	60	56336
2026-01-02 14:08:49.39	19.84	0.90	-48.4	-63.6	3.6	1.51e+00	0	38	104	0	60	54528
2026-01-02 14:08:50.40	19.86	0.96	-47.8	-63.0	3.6	1.51e+00	0	38	104	0	60	50946
2026-01-02 14:08:51.41	19.88	1.02	-47.6	-62.8	3.6	1.51e+00	0	38	104	0	60	49993
2026-01-02 14:08:52.42	19.90	1.08	-47.6	-62.8	3.6	1.51e+00	0	39	104	0	60	50124
2026-01-02 14:08:53.43	19.93	1.14	-47.6	-62.8	3.6	1.51e+00	0	39	104	0	60	49982
2026-01-02 14:08:54.44	19.95	1.20	-47.6	-62.8	3.6	1.51e+00	0	39	104	0	60	49615
2026-01-02 14:08:55.45	19.97	1.27	-47.6	-62.7	3.6	1.51e+00	0	39	104	0	60	49260
2026-01-02 14:08:56.46	20.00	1.33	-47.6	-62.7	3.6	1.51e+00	0	39	104	0	60	49242
2026-01-02 14:08:57.47	20.02	1.39	-47.6	-62.7	3.6	1.51e+00	0	39	104	0	60	49571
2026-01-02 14:08:58.47	20.04	1.45	-47.6	-62.8	3.6	1.51e+00	0	39	104	0	60	49743
2026-01-02 14:08:59.49	20.07	1.51	-47.6	-62.7	3.6	1.51e+00	0	39	104	0	60	49563
2026-01-02 14:09:00.50	20.09	1.58	-47.6	-62.8	3.6	1.51e+00	0	39	104	0	60	49809
2026-01-02 14:09:01.51	20.11	1.64	-47.6	-62.8	3.6	1.51e+00	0	39	104	0	60	49639
2026-01-02 14:09:02.52	20.14	1.70	-47.6	-62.7	3.6	1.51e+00	0	39	104	0	60	49574
2026-01-02 14:09:03.53	20.16	1.76	-47.6	-62.7	3.6	1.51e+00	0	39	104	0	60	49370
2026-01-02 14:09:04.54	20.18	1.83	-47.6	-62.7	3.6	1.51e+00	0	39	104	0	60	49538
2026-01-02 14:09:05.54	20.21	1.89	-47.6	-62.8	3.6	1.51e+00	0	39	104	0	60	49617
2026-01-02 14:09:06.56	20.23	1.95	-47.6	-62.7	3.6	1.51e+00	0	39	104	0	60	49488
2026-01-02 14:09:07.56	20.25	2.02	-47.6	-62.7	3.6	1.51e+00	0	39	104	0	60	49354
2026-01-02 14:09:08.58	20.28	2.08	-47.6	-62.4	3.6	1.51e+00	0	39	104	0	60	47873
2026-01-02 14:09:09.58	20.30	2.14	-47.6	-62.0	3.6	1.51e+00	0	39	104	0	60	45444
2026-01-02 14:09:10.60	20.33	2.21	-47.6	-61.3	3.6	1.51e+00	0	39	104	0	60	42071
2026-01-02 14:09:11.61	20.35	2.27	-47.5	-60.5	3.6	1.50e+00	0	39	104	0	60	38322
2026-01-02 14:09:12.62	20.38	2.34	-47.5	-60.2	3.8	1.50e+00	0	39	104	0	60	36902
2026-01-02 14:09:13.62	20.40	2.40	-47.5	-60.0	3.6	1.46e+00	0	39	104	0	60	36027
2026-01-02 14:09:14.64	20.42	2.47	-47.5	-60.5	3.6	1.47e+00	0	39	104	0	60	38290
2026-01-02 14:09:15.65	20.45	2.53	-47.5	-60.5	3.7	1.48e+00	0	39	104	0	60	38462
2026-01-02 14:09:16.66	20.47	2.59	-47.4	-59.7	3.7	1.47e+00	0	39	104	0	60	34871
2026-01-02 14:09:17.67	20.50	2.66	-47.3	-57.3	4.5	1.25e+00	0	39	0	0	60	26510
2026-01-02 14:09:18.68	20.52	2.72	-47.0	-54.2	6.5	5.29e-01	0	39	0	2097152	60	18575
2026-01-02 14:09:19.69	20.55	2.79	-46.5	-52.5	8.6	7.60e-02	0	39	0	3145728	60	15198
2026-01-02 14:09:20.70	20.57	2.85	-45.8	-50.3	11.4	6.91e-03	0	39	0	5242880	60	11859
2026-01-02 14:09:21.71	20.60	2.92	-45.3	-49.2	12.4	3.34e-04	0	39	0	7340032	60	10428
2026-01-02 14:09:22.72	20.62	2.99	-44.5	-47.6	14.3	3.73e-05	0	39	0	9437184	60	8643
2026-01-02 14:09:23.73	20.65	3.05	-44.1	-47.0	14.9	0.00e+00	0	39	0	11534336	60	8079
2026-01-02 14:09:24.74	20.68	3.12	-43.5	-46.0	15.9	0.00e+00	0	39	0	12582912	60	7176
2026-01-02 14:09:25.75	20.70	3.18	-43.6	-46.0	16.1	0.00e+00	0	39	0	14680064	60	7246
2026-01-02 14:09:26.76	20.73	3.25	-43.4	-45.7	16.0	0.00e+00	0	39	0	16777216	60	7000
2026-01-02 14:09:27.77	20.75	3.32	-43.3	-45.7	16.1	0.00e+00	0	39	0	18874368	60	6928
2026-01-02 14:09:28.78	20.78	3.38	-44.3	-47.2	14.6	0.00e+00	0	39	0	20971520	60	8291
2026-01-02 14:09:29.78	20.80	3.45	-44.6	-47.8	13.8	1.50e-06	0	39	0	22020096	60	8905
2026-01-02 14:09:30.80	20.83	3.52	-45.5	-49.7	11.8	1.37e-05	0	39	0	24117248	60	11084
2026-01-02 14:09:31.81	20.86	3.58	-46.1	-51.3	10.1	1.16e-03	0	39	0	26214400	60	13263
2026-01-02 14:09:32.81	20.88	3.65	-42.3	-44.1	17.7	0.00e+00	0	39	0	28311552	58	6523
2026-01-02 14:09:33.82	20.91	3.72	-43.8	-46.3	15.7	0.00e+00	0	39	0	30408704	58	8340
2026-01-02 14:09:34.83	20.93	3.78	-47.5	-62.2	3.6	4.05e-04	0	39	104	31457280	60	46689
2026-01-02 14:09:35.84	20.96	3.85	-43.0	-45.2	16.2	1.35e+00	28	39	104	31457280	60	6547
2026-01-02 14:09:36.85	20.99	3.92	-47.7	-58.7	3.6	2.13e-03	37	39	0	31457280	60	31273
2026-01-02 14:09:37.86	21.01	3.99	-43.4	-45.8	16.0	6.03e-01	0	39	104	31457280	60	7028
2026-01-02 14:09:38.87	21.04	4.06	-43.1	-45.2	16.9	0.00e+00	0	39	0	32505856	60	6597
2026-01-02 14:09:39.88	21.07	4.12	-42.9	-45.0	17.2	0.00e+00	0	39	0	34603008	60	6412
2026-01-02 14:09:40.89	21.10	4.19	-42.9	-45.0	16.9	0.00e+00	0	39	0	36700160	60	6435
2026-01-02 14:09:41.90	21.12	4.26	-43.1	-45.2	17.2	0.00e+00	0	39	0	38797312	60	6550
2026-01-02 14:09:42.91	21.15	4.33	-43.3	-45.5	16.9	0.00e+00	0	39	0	39845888	60	6833
2026-01-02 14:09:43.92	21.18	4.40	-42.1	-43.8	18.4	0.00e+00	0	39	0	41943040	58	6265
2026-01-02 14:09:44.93	21.20	4.47	-41.8	-43.4	18.9	0.00e+00	0	39	0	44040192	58	5991
2026-01-02 14:09:45.94	21.23	4.54	-41.9	-43.5	18.7	0.00e+00	0	39	0	46137344	56	6838
2026-01-02 14:09:46.95	21.26	4.61	-41.9	-43.6	18.7	0.00e+00	0	39	0	48234496	56	6866
2026-01-02 14:09:47.95	21.29	4.68	-41.8	-43.3	19.0	0.00e+00	0	39	0	49283072	56	6690
2026-01-02 14:09:48.96	21.31	4.75	-42.2	-43.9	18.5	0.00e+00	0	39	0	51380224	56	7115
2026-01-02 14:09:49.97	21.34	4.82	-41.1	-42.5	19.8	0.00e+00	0	39	0	53477376	56	6066
2026-01-02 14:09:50.98	21.37	4.89	-41.3	-42.8	19.5	0.00e+00	0	39	0	55574528	56	6250
2026-01-02 14:09:51.99	21.40	4.96	-41.4	-42.9	19.5	0.00e+00	0	39	0	57671680	56	6327
2026-01-02 14:09:53.00	21.43	5.03	-41.2	-42.6	19.7	0.00e+00	0	39	0	58720256	56	6146
2026-01-02 14:09:54.01	21.46	5.10	-41.2	-42.7	19.7	0.00e+00	0	39	0	60817408	56	6184
2026-01-02 14:09:55.02	21.48	5.17	-41.1	-42.5	19.9	0.00e+00	0	39	0	62914560	56	6053
2026-01-02 14:09:56.03	21.51	5.24	-41.2	-42.6	19.8	0.00e+00	0	39	0	65011712	56	6124
2026-01-02 14:09:57.04	21.54	5.31	-41.1	-42.5	19.9	0.00e+00	0	39	0	67108864	56	6082
2026-01-02 14:09:58.04	21.57	5.38	-41.2	-42.7	19.8	0.00e+00	0	39	0	68157440	56	6177
2026-01-02 14:09:59.05	21.60	5.45	-40.9	-42.2	20.2	0.00e+00	0	39	0	70254592	56	5885
2026-01-02 14:10:00.06	21.63	5.52	-41.2	-42.6	19.8	0.00e+00	0	39	0	72351744	56	6149
2026-01-02 14:10:01.07	21.66	5.60	-41.0	-42.3	20.1	0.00e+00	0	39	0	74448896	56	5940
2026-01-02 14:10:02.08	21.69	5.67	-41.0	-42.4	20.1	0.00e+00	0	39	0	76546048	56	5970
2026-01-02 14:10:03.09	21.72	5.74	-40.9	-42.2	20.2	0.00e+00	0	39	0	78643200	56	5889
2026-01-02 14:10:04.10	21.75	5.81	-40.8	-42.2	20.3	0.00e+00	0	39	0	79691776	56	5835
2026-01-02 14:10:05.11	21.78	5.89	-40.9	-42.3	20.2	0.00e+00	0	39	0	81788928	56	5901
2026-01-02 14:10:06.12	21.81	5.96	-40.8	-42.2	20.2	0.00e+00	0	39	0	83886080	54	6561
2026-01-02 14:10:07.12	21.84	6.03	-41.0	-42.4	20.1	0.00e+00	0	39	0	85983232	54	6731
2026-01-02 14:10:08.13	21.87	6.11	-40.8	-42.1	20.3	0.00e+00	0	39	0	87031808	54	6510
2026-01-02 14:10:09.14	21.90	6.18	-40.8	-42.2	20.3	0.00e+00	0	39	0	89128960	54	6544
2026-01-02 14:10:10.15	21.93	6.25	-40.8	-42.1	20.4	0.00e+00	0	39	0	91226112	54	6472
2026-01-02 14:10:11.16	21.96	6.33	-41.0	-42.4	20.2	0.00e+00	0	39	0	93323264	54	6714
2026-01-02 14:10:12.18	21.99	6.40	-40.5	-41.7	20.7	0.00e+00	0	39	0	95420416	54	6225
2026-01-02 14:10:13.18	22.02	6.48	-40.6	-41.9	20.6	0.00e+00	0	39	0	96468992	54	6342
2026-01-02 14:10:14.19	22.05	6.55	-40.7	-42.0	20.5	0.00e+00	0	39	0	98566144	54	6429
2026-01-02 14:10:15.20	22.08	6.63	-40.5	-41.8	20.7	0.00e+00	0	39	0	100663296	54	6263
2026-01-02 14:10:16.21	22.11	6.70	-40.6	-41.8	20.7	0.00e+00	0	39	0	102760448	54	6286
2026-01-02 14:10:17.22	22.14	6.78	-40.5	-41.7	20.8	0.00e+00	0	39	0	104857600	54	6204
2026-01-02 14:10:18.23	22.17	6.85	-40.5	-41.8	20.8	0.00e+00	0	39	0	106954752	54	6265
2026-01-02 14:10:19.24	22.21	6.93	-40.5	-41.7	20.8	0.00e+00	0	39	0	108003328	54	6203
2026-01-02 14:10:20.25	22.24	7.00	-40.4	-41.6	21.0	0.00e+00	0	39	0	110100480	54	6114
2026-01-02 14:10:21.26	22.27	7.08	-40.5	-41.7	20.8	0.00e+00	0	39	0	112197632	54	6199
2026-01-02 14:10:22.27	22.30	7.16	-40.5	-41.8	20.9	0.00e+00	0	39	0	114294784	54	6247
2026-01-02 14:10:23.28	22.33	7.23	-40.3	-41.5	21.0	0.00e+00	0	39	0	116391936	54	6094
2026-01-02 14:10:24.29	22.37	7.31	-40.2	-41.4	21.2	0.00e+00	0	39	0	117440512	54	5970
2026-01-02 14:10:25.30	22.40	7.39	-40.4	-41.6	21.0	0.00e+00	0	39	0	119537664	54	6134
2026-01-02 14:10:26.31	22.43	7.46	-40.4	-41.6	21.0	0.00e+00	0	39	0	121634816	54	6166
2026-01-02 14:10:27.32	22.46	7.54	-40.4	-41.6	21.0	0.00e+00	0	39	0	123731968	54	6129
2026-01-02 14:10:28.32	22.50	7.62	-40.5	-41.7	21.0	0.00e+00	0	39	0	125829120	54	6193
2026-01-02 14:10:29.33	22.53	7.70	-40.4	-41.6	21.0	0.00e+00	0	39	0	126877696	54	6137
2026-01-02 14:10:30.34	22.56	7.77	-40.3	-41.5	21.1	0.00e+00	0	39	0	128974848	54	6098
2026-01-02 14:10:31.35	22.60	7.85	-40.3	-41.5	21.2	0.00e+00	0	39	0	131072000	54	6045
2026-01-02 14:10:32.36	22.63	7.93	-40.3	-41.5	21.1	0.00e+00	0	39	0	133169152	54	6066
2026-01-02 14:10:33.37	22.66	8.01	-40.3	-41.4	21.1	0.00e+00	0	39	0	135266304	54	6024
2026-01-02 14:10:34.38	22.70	8.09	-40.6	-41.8	20.9	0.00e+00	0	39	0	136314880	54	6299
2026-01-02 14:10:35.39	22.73	8.17	-40.2	-41.4	21.2	0.00e+00	0	39	0	138412032	54	6004
2026-01-02 14:10:36.40	22.77	8.25	-40.4	-41.7	21.1	0.00e+00	0	39	0	140509184	54	6180
2026-01-02 14:10:37.41	22.80	8.33	-40.2	-41.4	21.2	0.00e+00	0	39	0	142606336	54	6002
2026-01-02 14:10:38.42	22.83	8.41	-40.4	-41.6	21.1	0.00e+00	0	39	0	144703488	54	6156
2026-01-02 14:10:39.43	22.87	8.49	-40.3	-41.5	21.2	0.00e+00	0	39	0	145752064	54	6055
2026-01-02 14:10:40.44	22.90	8.57	-40.2	-41.4	21.3	0.00e+00	0	39	0	147849216	54	5987
2026-01-02 14:10:41.45	22.94	8.65	-40.1	-41.3	21.4	0.00e+00	0	39	0	149946368	54	5926
2026-01-02 14:10:42.46	22.97	8.73	-40.1	-41.2	21.5	0.00e+00	0	39	0	152043520	54	5860
2026-01-02 14:10:43.47	23.01	8.81	-40.2	-41.4	21.3	0.00e+00	0	39	0	154140672	54	5992
2026-01-02 14:10:44.48	23.04	8.90	-40.2	-41.3	21.4	0.00e+00	0	39	0	155189248	54	5963
2026-01-02 14:10:45.49	23.08	8.98	-40.1	-41.2	21.5	0.00e+00	0	39	0	157286400	54	5888
2026-01-02 14:10:46.50	23.12	9.06	-40.1	-41.2	21.5	0.00e+00	0	39	0	159383552	54	5857
2026-01-02 14:10:47.51	23.15	9.14	-40.1	-41.3	21.5	0.00e+00	0	39	0	161480704	54	5902
2026-01-02 14:10:48.52	23.19	9.23	-40.1	-41.2	21.4	0.00e+00	0	39	0	163577856	54	5868
2026-01-02 14:10:49.53	23.23	9.31	-40.1	-41.3	21.5	0.00e+00	0	39	0	164626432	54	5912
2026-01-02 14:10:50.54	23.26	9.39	-40.0	-41.1	21.6	0.00e+00	0	39	0	166723584	54	5810
2026-01-02 14:10:51.54	23.30	9.47	-39.9	-41.1	21.6	0.00e+00	0	39	0	168820736	54	5768
2026-01-02 14:10:52.56	23.34	9.56	-40.1	-41.2	21.7	0.00e+00	0	39	0	170917888	54	5849
2026-01-02 14:10:53.56	23.37	9.64	-39.8	-40.9	21.7	0.00e+00	0	39	0	173015040	54	5669
2026-01-02 14:10:54.57	23.41	9.73	-40.1	-41.2	21.6	0.00e+00	0	39	0	175112192	54	5887
2026-01-02 14:10:55.58	23.45	9.81	-39.9	-41.0	21.8	0.00e+00	0	39	0	176160768	54	5713
2026-01-02 14:10:56.59	23.48	9.90	-39.9	-41.0	21.8	0.00e+00	0	39	0	178257920	54	5716
2026-01-02 14:10:57.60	23.52	9.98	-39.9	-41.0	21.7	0.00e+00	0	39	0	180355072	54	5755
2026-01-02 14:10:58.61	23.56	10.07	-39.9	-41.0	21.7	0.00e+00	0	39	0	182452224	54	5701
2026-01-02 14:10:59.62	23.60	10.15	-39.9	-41.0	21.8	0.00e+00	0	39	0	184549376	54	5755
2026-01-02 14:11:00.62	23.64	10.24	-40.0	-41.1	21.7	0.00e+00	0	39	0	185597952	54	5781
2026-01-02 14:11:01.63	23.68	10.32	-39.9	-41.0	21.7	0.00e+00	0	39	0	187695104	54	5705
2026-01-02 14:11:02.64	23.71	10.41	-39.9	-41.1	21.7	0.00e+00	0	39	0	189792256	54	5766
2026-01-02 14:11:03.65	23.75	10.50	-39.8	-40.9	21.8	0.00e+00	0	39	0	191889408	54	5689
2026-01-02 14:11:04.66	23.79	10.59	-39.8	-40.9	21.9	0.00e+00	0	39	0	193986560	54	5631
2026-01-02 14:11:05.67	23.83	10.67	-39.9	-41.0	21.7	0.00e+00	0	39	0	195035136	54	5737
2026-01-02 14:11:06.67	23.87	10.76	-39.8	-40.9	21.9	0.00e+00	0	39	0	197132288	54	5682
2026-01-02 14:11:07.68	23.91	10.85	-39.8	-40.9	21.8	0.00e+00	0	39	0	199229440	54	5664
2026-01-02 14:11:08.70	23.95	10.94	-39.9	-41.0	21.8	0.00e+00	0	39	0	201326592	54	5719
2026-01-02 14:11:09.70	23.99	11.03	-39.8	-40.9	21.9	0.00e+00	0	39	0	203423744	54	5669
2026-01-02 14:11:10.71	24.03	11.11	-39.9	-41.0	21.8	0.00e+00	0	39	0	204472320	52	6407
2026-01-02 14:11:11.72	24.07	11.20	-39.9	-41.0	21.9	0.00e+00	0	39	0	206569472	52	6399
2026-01-02 14:11:12.73	24.11	11.29	-39.8	-40.9	21.9	0.00e+00	0	39	0	208666624	52	6350
2026-01-02 14:11:13.74	24.16	11.38	-39.9	-40.9	22.0	0.00e+00	0	39	0	210763776	52	6389
2026-01-02 14:11:14.75	24.20	11.47	-39.8	-40.9	21.9	0.00e+00	0	39	0	212860928	52	6373
2026-01-02 14:11:15.76	24.24	11.57	-39.8	-40.9	22.0	0.00e+00	0	39	0	213909504	52	6330
2026-01-02 14:11:16.77	24.28	11.66	-39.9	-41.0	21.8	0.00e+00	0	39	0	216006656	52	6453
2026-01-02 14:11:17.78	24.32	11.75	-39.9	-41.0	21.9	0.00e+00	0	39	0	218103808	52	6397
2026-01-02 14:11:18.79	24.37	11.84	-39.9	-40.9	21.9	0.00e+00	0	39	0	220200960	52	6389
2026-01-02 14:11:19.80	24.41	11.93	-40.0	-41.1	21.7	0.00e+00	0	39	0	222298112	52	6511
2026-01-02 14:11:20.81	24.45	12.02	-40.0	-41.1	21.9	0.00e+00	0	39	0	223346688	52	6480
2026-01-02 14:11:21.82	24.49	12.12	-39.7	-40.7	22.1	0.00e+00	0	39	0	225443840	52	6229
2026-01-02 14:11:22.82	24.54	12.21	-39.7	-40.7	22.2	0.00e+00	0	39	0	227540992	52	6230
2026-01-02 14:11:23.83	24.58	12.30	-39.6	-40.7	22.2	0.00e+00	0	39	0	229638144	52	6197
2026-01-02 14:11:24.84	24.62	12.40	-39.6	-40.7	22.2	0.00e+00	0	39	0	231735296	52	6183
2026-01-02 14:11:25.85	24.67	12.49	-39.7	-40.7	22.2	0.00e+00	0	39	0	232783872	52	6212
2026-01-02 14:11:26.86	24.71	12.58	-39.5	-40.6	22.3	0.00e+00	0	39	0	234881024	52	6106
2026-01-02 14:11:27.87	24.76	12.68	-39.5	-40.6	22.3	0.00e+00	0	39	0	236978176	52	6122
2026-01-02 14:11:28.88	24.80	12.77	-39.7	-40.7	22.2	0.00e+00	0	39	0	239075328	52	6227
2026-01-02 14:11:29.89	24.85	12.87	-39.6	-40.6	22.4	0.00e+00	0	39	0	241172480	52	6152
2026-01-02 14:11:30.90	24.89	12.97	-39.5	-40.6	22.3	0.00e+00	0	39	0	243269632	52	6119
2026-01-02 14:11:31.91	24.94	13.06	-39.6	-40.6	22.2	0.00e+00	0	39	0	244318208	52	6163
2026-01-02 14:11:32.92	24.98	13.16	-39.4	-40.4	22.4	0.00e+00	0	39	0	246415360	52	5994
2026-01-02 14:11:33.93	25.03	13.26	-39.5	-40.6	22.4	0.00e+00	0	39	0	248512512	52	6105
2026-01-02 14:11:34.94	25.08	13.35	-39.5	-40.5	22.4	0.00e+00	0	39	0	250609664	52	6075
2026-01-02 14:11:35.95	25.12	13.45	-39.4	-40.4	22.5	0.00e+00	0	39	0	252706816	52	6025
2026-01-02 14:11:36.96	25.17	13.55	-39.4	-40.5	22.5	0.00e+00	0	39	0	253755392	52	6042
2026-01-02 14:11:37.97	25.22	13.65	-39.4	-40.4	22.5	0.00e+00	0	39	0	255852544	52	6016
2026-01-02 14:11:38.98	25.27	13.75	-39.5	-40.5	22.5	0.00e+00	0	39	0	257949696	52	6071
2026-01-02 14:11:39.99	25.31	13.85	-39.4	-40.4	22.5	0.00e+00	0	39	0	260046848	52	6016
2026-01-02 14:11:41.00	25.36	13.94	-39.4	-40.5	22.5	0.00e+00	0	39	0	262144000	52	6035
2026-01-02 14:11:42.01	25.41	14.04	-39.4	-40.4	22.5	0.00e+00	0	39	0	263192576	52	6002
2026-01-02 14:11:43.01	25.46	14.14	-39.4	-40.4	22.5	0.00e+00	0	39	0	265289728	52	6032
2026-01-02 14:11:44.03	25.51	14.25	-39.4	-40.4	22.6	0.00e+00	0	39	0	267386880	52	6003
2026-01-02 14:11:45.03	25.56	14.35	-39.4	-40.5	22.6	0.00e+00	0	39	0	269484032	52	6035
2026-01-02 14:11:46.04	25.61	14.45	-39.4	-40.4	22.5	0.00e+00	0	39	0	271581184	52	6017
2026-01-02 14:11:47.05	25.66	14.55	-39.3	-40.3	22.6	0.00e+00	0	39	0	272629760	52	5928
2026-01-02 14:11:48.06	25.71	14.65	-39.3	-40.3	22.6	0.00e+00	0	39	0	274726912	52	5936
2026-01-02 14:11:49.07	25.76	14.76	-39.4	-40.4	22.6	0.00e+00	0	39	0	276824064	52	5997
2026-01-02 14:11:50.08	25.81	14.86	-39.3	-40.3	22.6	0.00e+00	0	39	0	278921216	52	5936
2026-01-02 14:11:51.09	25.86	14.96	-39.4	-40.4	22.6	0.00e+00	0	39	0	281018368	52	5970
2026-01-02 14:11:52.10	25.91	15.07	-39.3	-40.2	22.7	0.00e+00	0	39	0	282066944	52	5894
2026-01-02 14:11:53.11	25.96	15.17	-39.4	-40.4	22.6	0.00e+00	0	39	0	284164096	52	5969
2026-01-02 14:11:54.12	26.01	15.28	-39.3	-40.3	22.6	0.00e+00	0	39	0	286261248	52	5933
2026-01-02 14:11:55.13	26.07	15.38	-39.3	-40.3	22.7	0.00e+00	0	39	0	288358400	52	5902
2026-01-02 14:11:56.14	26.12	15.49	-39.4	-40.4	22.6	0.00e+00	0	39	0	290455552	52	5985
2026-01-02 14:11:57.15	26.17	15.59	-39.3	-40.3	22.7	0.00e+00	0	39	0	291504128	52	5939
2026-01-02 14:11:58.16	26.23	15.70	-39.4	-40.4	22.6	0.00e+00	0	39	0	293601280	52	6018
2026-01-02 14:11:59.17	26.28	15.81	-39.4	-40.4	22.6	0.00e+00	0	39	0	295698432	52	6017
2026-01-02 14:12:00.18	26.34	15.92	-39.3	-40.3	22.7	0.00e+00	0	39	0	297795584	52	5937
2026-01-02 14:12:01.19	26.39	16.02	-39.2	-40.1	22.8	0.00e+00	0	39	0	299892736	52	5814
2026-01-02 14:12:02.20	26.44	16.13	-39.3	-40.3	22.7	0.00e+00	0	39	0	301989888	52	5898
2026-01-02 14:12:03.20	26.50	16.24	-39.3	-40.3	22.7	0.00e+00	0	39	0	303038464	52	5928
2026-01-02 14:12:04.21	26.56	16.35	-39.3	-40.3	22.8	0.00e+00	0	39	0	305135616	52	5920
2026-01-02 14:12:05.22	26.61	16.46	-39.3	-40.2	22.7	0.00e+00	0	39	0	307232768	52	5895
2026-01-02 14:12:06.23	26.67	16.57	-39.2	-40.1	22.9	0.00e+00	0	39	0	309329920	52	5822
2026-01-02 14:12:07.24	26.73	16.68	-39.1	-40.1	22.9	0.00e+00	0	39	0	311427072	52	5798
2026-01-02 14:12:08.25	26.78	16.79	-39.1	-40.1	22.9	0.00e+00	0	39	0	312475648	52	5774
2026-01-02 14:12:09.26	26.84	16.91	-39.0	-40.0	23.0	0.00e+00	0	39	0	314572800	52	5734
2026-01-02 14:12:10.27	26.90	17.02	-39.1	-40.0	23.0	0.00e+00	0	39	0	316669952	52	5748
2026-01-02 14:12:11.28	26.96	17.13	-39.0	-40.0	23.0	0.00e+00	0	39	0	318767104	52	5711
2026-01-02 14:12:12.29	27.02	17.24	-39.2	-40.1	22.9	0.00e+00	0	39	0	320864256	52	5825
2026-01-02 14:12:13.30	27.07	17.36	-39.0	-40.0	23.0	0.00e+00	0	39	0	321912832	52	5729
2026-01-02 14:12:14.31	27.13	17.47	-39.0	-39.9	23.0	0.00e+00	0	39	0	324009984	52	5685
2026-01-02 14:12:15.32	27.19	17.59	-39.0	-39.9	23.0	0.00e+00	0	39	0	326107136	52	5684
2026-01-02 14:12:16.33	27.26	17.70	-39.0	-40.0	23.0	0.00e+00	0	39	0	328204288	52	5711
2026-01-02 14:12:17.34	27.32	17.82	-39.0	-39.9	23.1	0.00e+00	0	39	0	330301440	52	5679
2026-01-02 14:12:18.34	27.38	17.93	-39.0	-40.0	23.0	0.00e+00	0	39	0	331350016	52	5703
2026-01-02 14:12:19.36	27.44	18.05	-39.0	-39.9	23.0	0.00e+00	0	39	0	333447168	52	5663
2026-01-02 14:12:20.36	27.50	18.17	-39.0	-39.9	23.0	0.00e+00	0	39	0	335544320	52	5684
2026-01-02 14:12:21.37	27.56	18.29	-38.9	-39.8	23.2	0.00e+00	0	39	0	337641472	52	5620
2026-01-02 14:12:22.38	27.63	18.41	-38.9	-39.8	23.2	0.00e+00	0	39	0	339738624	52	5611
2026-01-02 14:12:23.39	27.69	18.53	-39.0	-40.0	23.1	0.00e+00	0	39	0	340787200	52	5696
2026-01-02 14:12:24.40	27.76	18.65	-38.9	-39.9	23.1	0.00e+00	0	39	0	342884352	52	5648
2026-01-02 14:12:25.41	27.82	18.77	-38.9	-39.8	23.2	0.00e+00	0	39	0	344981504	52	5628
2026-01-02 14:12:26.42	27.88	18.89	-38.8	-39.7	23.3	0.00e+00	0	39	0	347078656	52	5547
2026-01-02 14:12:27.43	27.95	19.01	-38.8	-39.7	23.3	0.00e+00	0	39	0	349175808	50	6236
2026-01-02 14:12:28.44	28.02	19.13	-38.8	-39.7	23.3	0.00e+00	0	39	0	350224384	50	6200
2026-01-02 14:12:29.45	28.08	19.25	-38.7	-39.6	23.4	0.00e+00	0	39	0	352321536	50	6133
2026-01-02 14:12:30.46	28.15	19.38	-38.7	-39.6	23.4	0.00e+00	0	39	0	354418688	50	6163
2026-01-02 14:12:31.46	28.22	19.50	-38.6	-39.5	23.5	0.00e+00	0	39	0	356515840	50	6063
2026-01-02 14:12:32.47	28.29	19.62	-38.6	-39.6	23.4	0.00e+00	0	39	0	358612992	50	6104
2026-01-02 14:12:33.48	28.35	19.75	-38.4	-39.3	23.7	0.00e+00	0	39	0	359661568	50	5927
2026-01-02 14:12:34.49	28.42	19.87	-38.4	-39.3	23.7	0.00e+00	0	39	0	361758720	50	5931
2026-01-02 14:12:35.50	28.49	20.00	-38.4	-39.3	23.7	0.00e+00	0	39	0	363855872	50	5960
2026-01-02 14:12:36.51	28.56	20.13	-38.4	-39.3	23.7	0.00e+00	0	39	0	365953024	50	5929
2026-01-02 14:12:37.52	28.63	20.25	-38.5	-39.4	23.6	0.00e+00	0	39	0	368050176	50	5965
2026-01-02 14:12:38.52	28.70	20.38	-38.3	-39.2	23.8	0.00e+00	0	39	0	369098752	50	5884
2026-01-02 14:12:39.53	28.78	20.51	-38.1	-38.9	24.0	0.00e+00	0	39	0	371195904	50	5679
2026-01-02 14:12:40.54	28.85	20.64	-38.1	-38.9	24.0	0.00e+00	0	39	0	373293056	50	5677
2026-01-02 14:12:41.55	28.92	20.77	-37.9	-38.7	24.2	0.00e+00	0	39	0	375390208	50	5556
2026-01-02 14:12:42.56	29.00	20.90	-37.9	-38.8	24.1	0.00e+00	0	39	0	377487360	50	5579
2026-01-02 14:12:43.57	29.07	21.03	-37.8	-38.6	24.3	0.00e+00	0	39	0	378535936	50	5493
2026-01-02 14:12:44.58	29.14	21.16	-37.7	-38.5	24.4	0.00e+00	0	39	0	380633088	48	6102
2026-01-02 14:12:45.59	29.22	21.29	-37.8	-38.6	24.3	0.00e+00	0	39	0	382730240	48	6145
2026-01-02 14:12:46.60	29.30	21.43	-37.6	-38.4	24.4	0.00e+00	0	39	0	384827392	48	6017
2026-01-02 14:12:47.61	29.37	21.56	-37.6	-38.5	24.4	0.00e+00	0	39	0	386924544	48	6053
2026-01-02 14:12:48.62	29.45	21.69	-37.5	-38.3	24.6	0.00e+00	0	39	0	387973120	48	5937
2026-01-02 14:12:49.63	29.53	21.83	-37.5	-38.3	24.5	0.00e+00	0	39	0	390070272	48	5962
2026-01-02 14:12:50.63	29.60	21.96	-37.4	-38.2	24.6	0.00e+00	0	39	0	392167424	48	5856
2026-01-02 14:12:51.64	29.68	22.10	-37.4	-38.2	24.6	0.00e+00	0	39	0	394264576	48	5858
2026-01-02 14:12:52.65	29.76	22.24	-37.4	-38.2	24.6	0.00e+00	0	39	0	396361728	48	5884
2026-01-02 14:12:53.66	29.84	22.37	-37.3	-38.2	24.6	0.00e+00	0	39	0	398458880	48	5836
2026-01-02 14:12:54.67	29.93	22.51	-37.4	-38.2	24.7	0.00e+00	0	39	0	399507456	48	5859
2026-01-02 14:12:55.68	30.01	22.65	-37.4	-38.2	24.6	0.00e+00	0	39	0	401604608	48	5857
2026-01-02 14:12:56.69	30.09	22.79	-37.3	-38.1	24.7	0.00e+00	0	39	0	403701760	48	5788
2026-01-02 14:12:57.70	30.17	22.93	-37.5	-38.4	24.5	0.00e+00	0	39	0	405798912	48	5969
2026-01-02 14:12:58.71	30.26	23.07	-37.3	-38.1	24.7	0.00e+00	0	39	0	407896064	48	5826
2026-01-02 14:12:59.72	30.34	23.22	-37.4	-38.2	24.4	0.00e+00	0	39	0	408944640	48	5852
2026-01-02 14:13:00.73	30.43	23.36	-37.3	-38.2	24.4	0.00e+00	0	39	0	411041792	48	5831
2026-01-02 14:13:01.74	30.51	23.50	-37.4	-38.2	24.5	0.00e+00	0	39	0	413138944	48	5844
2026-01-02 14:13:02.75	30.60	23.65	-37.4	-38.2	24.6	0.00e+00	0	39	0	415236096	48	5871
2026-01-02 14:13:03.76	30.69	23.79	-37.5	-38.3	24.5	0.00e+00	0	39	0	417333248	48	5957
2026-01-02 14:13:04.77	30.78	23.94	-37.5	-38.3	24.6	0.00e+00	0	39	0	418381824	48	5959
2026-01-02 14:13:05.78	30.87	24.08	-37.5	-38.4	24.5	0.00e+00	0	39	0	420478976	48	5980
2026-01-02 14:13:06.78	30.95	24.23	-37.7	-38.5	24.6	0.00e+00	0	39	0	422576128	48	6067
2026-01-02 14:13:07.79	31.05	24.38	-37.3	-38.2	24.7	0.00e+00	0	39	0	424673280	48	5836
2026-01-02 14:13:08.80	31.14	24.53	-37.4	-38.2	24.7	0.00e+00	0	39	0	426770432	48	5888
2026-01-02 14:13:09.81	31.23	24.68	-37.3	-38.1	24.8	0.00e+00	0	39	0	427819008	48	5798
2026-01-02 14:13:10.82	31.32	24.83	-37.4	-38.2	24.6	0.00e+00	0	39	0	429916160	48	5848
2026-01-02 14:13:11.83	31.42	24.98	-37.4	-38.2	24.7	0.00e+00	0	39	0	432013312	48	5863
2026-01-02 14:13:12.84	31.51	25.13	-37.4	-38.2	24.6	0.00e+00	0	39	0	434110464	48	5845
2026-01-02 14:13:13.85	31.61	25.28	-37.4	-38.2	24.6	0.00e+00	0	39	0	436207616	48	5874
2026-01-02 14:13:14.86	31.70	25.43	-37.4	-38.2	24.6	0.00e+00	0	39	0	437256192	48	5896
2026-01-02 14:13:15.86	31.80	25.59	-37.5	-38.3	24.6	0.00e+00	0	39	0	439353344	48	5945
2026-01-02 14:13:16.88	31.90	25.74	-37.5	-38.3	24.4	0.00e+00	0	39	0	441450496	48	5956
2026-01-02 14:13:17.88	32.00	25.90	-37.5	-38.4	24.6	0.00e+00	0	39	0	443547648	48	5968
2026-01-02 14:13:18.89	32.10	26.06	-37.6	-38.5	24.5	0.00e+00	0	39	0	445644800	48	6037
2026-01-02 14:13:19.90	32.20	26.21	-37.7	-38.5	24.4	0.00e+00	0	39	0	446693376	48	6086
2026-01-02 14:13:20.91	32.30	26.37	-37.7	-38.5	24.5	0.00e+00	0	39	0	448790528	48	6063
2026-01-02 14:13:21.92	32.41	26.53	-37.7	-38.5	24.4	0.00e+00	0	39	0	450887680	48	6081
2026-01-02 14:13:22.93	32.51	26.69	-37.7	-38.5	24.4	0.00e+00	0	39	0	452984832	48	6093
2026-01-02 14:13:23.94	32.62	26.85	-37.7	-38.6	24.5	0.00e+00	0	39	0	455081984	48	6104
2026-01-02 14:13:24.95	32.72	27.01	-37.7	-38.5	24.5	0.00e+00	0	39	0	456130560	48	6059
2026-01-02 14:13:25.96	32.83	27.18	-37.7	-38.6	24.3	0.00e+00	0	39	0	458227712	48	6122
2026-01-02 14:13:26.97	32.94	27.34	-38.0	-38.8	24.2	0.00e+00	0	39	0	460324864	48	6301
2026-01-02 14:13:27.98	33.05	27.50	-38.0	-38.8	23.8	0.00e+00	0	39	0	462422016	48	6282
2026-01-02 14:13:28.99	33.16	27.67	-38.1	-39.0	24.0	0.00e+00	0	39	0	464519168	48	6395
2026-01-02 14:13:30.00	33.27	27.84	-38.1	-39.0	24.1	0.00e+00	0	39	0	466616320	48	6399
2026-01-02 14:13:31.01	33.38	28.00	-38.1	-38.9	24.1	0.00e+00	0	39	0	467664896	48	6387
2026-01-02 14:13:32.02	33.50	28.17	-38.2	-39.1	23.9	0.00e+00	0	39	0	469762048	48	6512
2026-01-02 14:13:33.03	33.61	28.34	-38.5	-39.4	23.7	0.00e+00	0	39	0	471859200	48	6703
2026-01-02 14:13:34.04	33.73	28.51	-38.6	-39.5	23.5	0.00e+00	0	39	0	473956352	48	6835
2026-01-02 14:13:35.04	33.85	28.68	-39.0	-39.9	23.3	0.00e+00	0	39	0	476053504	50	6367
2026-01-02 14:13:36.05	33.97	28.85	-38.9	-39.9	23.2	0.00e+00	0	39	0	477102080	50	6334
2026-01-02 14:13:37.06	34.09	29.02	-39.2	-40.1	23.1	0.00e+00	0	39	0	479199232	50	6512
2026-01-02 14:13:38.08	34.21	29.20	-39.3	-40.2	23.0	0.00e+00	0	39	0	481296384	50	6604
2026-01-02 14:13:39.08	34.33	29.37	-39.5	-40.5	22.7	0.00e+00	0	39	0	483393536	50	6800
2026-01-02 14:13:40.09	34.45	29.55	-39.7	-40.7	22.6	0.00e+00	0	39	0	485490688	50	6963
2026-01-02 14:13:41.10	34.58	29.72	-39.9	-41.0	22.4	0.00e+00	0	39	0	486539264	52	6392
2026-01-02 14:13:42.11	34.70	29.90	-40.1	-41.1	22.2	0.00e+00	0	39	0	488636416	52	6524
2026-01-02 14:13:43.12	34.83	30.08	-40.4	-41.5	21.9	0.00e+00	0	39	0	490733568	52	6799
2026-01-02 14:13:44.13	34.96	30.26	-40.7	-41.8	21.6	0.00e+00	0	39	0	492830720	52	7037
2026-01-02 14:13:45.14	35.09	30.44	-40.9	-42.1	21.3	0.00e+00	0	39	0	494927872	54	6484
2026-01-02 14:13:46.15	35.22	30.62	-41.1	-42.3	21.0	0.00e+00	0	39	0	495976448	54	6678
2026-01-02 14:13:47.16	35.36	30.80	-41.3	-42.6	20.8	0.00e+00	0	39	0	498073600	54	6878
2026-01-02 14:13:48.17	35.49	30.99	-41.5	-42.8	20.5	0.00e+00	0	39	0	500170752	54	7040
2026-01-02 14:13:49.18	35.63	31.17	-41.6	-42.9	20.2	0.00e+00	0	39	0	502267904	54	7155
2026-01-02 14:13:50.19	35.77	31.36	-41.8	-43.1	20.4	0.00e+00	0	39	0	504365056	56	6514
2026-01-02 14:13:51.20	35.91	31.54	-41.9	-43.3	20.3	0.00e+00	0	39	0	505413632	56	6628
2026-01-02 14:13:52.21	36.05	31.73	-42.0	-43.3	20.2	0.00e+00	0	39	0	507510784	56	6664
2026-01-02 14:13:53.22	36.19	31.92	-42.1	-43.5	20.1	0.00e+00	0	39	0	509607936	56	6775
2026-01-02 14:13:54.22	36.33	32.11	-41.8	-43.1	20.4	0.00e+00	0	39	0	511705088	56	6535
2026-01-02 14:13:55.23	36.48	32.30	-41.9	-43.2	20.3	0.00e+00	0	39	0	513802240	56	6613
2026-01-02 14:13:56.24	36.63	32.49	-41.7	-43.0	20.5	0.00e+00	0	39	0	514850816	56	6401
2026-01-02 14:13:57.25	36.78	32.68	-41.5	-42.8	20.7	0.00e+00	0	39	0	516947968	56	6251
2026-01-02 14:13:58.26	36.93	32.88	-41.4	-42.6	20.9	0.00e+00	0	39	0	519045120	56	6131
2026-01-02 14:13:59.27	37.08	33.07	-41.4	-42.6	20.9	0.00e+00	0	39	0	521142272	56	6148
2026-01-02 14:14:00.28	37.23	33.27	-41.0	-42.1	21.4	0.00e+00	0	39	0	523239424	56	5822
2026-01-02 14:14:01.29	37.39	33.46	-40.8	-42.0	21.5	0.00e+00	0	39	0	524288000	56	5707
2026-01-02 14:14:02.30	37.55	33.66	-40.7	-41.8	21.6	0.00e+00	0	39	0	526385152	54	6312
2026-01-02 14:14:03.31	37.71	33.86	-40.6	-41.7	21.7	0.00e+00	0	39	0	528482304	54	6207
2026-01-02 14:14:04.32	37.87	34.06	-40.7	-41.8	21.6	0.00e+00	0	39	0	530579456	54	6304
2026-01-02 14:14:05.33	38.03	34.26	-40.8	-41.9	21.5	0.00e+00	0	39	0	532676608	54	6375
2026-01-02 14:14:06.34	38.20	34.46	-41.0	-42.2	21.2	0.00e+00	0	39	0	534773760	54	6556
2026-01-02 14:14:07.35	38.37	34.66	-41.2	-42.3	21.1	0.00e+00	0	39	0	535822336	54	6689
2026-01-02 14:14:08.36	38.54	34.87	-41.2	-42.4	21.1	0.00e+00	0	39	0	537919488	54	6701
2026-01-02 14:14:09.37	38.71	35.07	-41.2	-42.4	21.1	0.00e+00	0	39	0	540016640	54	6700
2026-01-02 14:14:10.38	38.89	35.28	-41.1	-42.3	21.2	0.00e+00	0	39	0	542113792	54	6659
2026-01-02 14:14:11.39	39.06	35.49	-41.0	-42.1	21.3	0.00e+00	0	39	0	544210944	54	6524
2026-01-02 14:14:12.40	39.24	35.70	-40.8	-42.0	21.4	0.00e+00	0	39	0	545259520	54	6396
2026-01-02 14:14:13.41	39.42	35.91	-40.6	-41.7	21.7	0.00e+00	0	39	0	547356672	54	6213
2026-01-02 14:14:14.42	39.60	36.12	-40.6	-41.7	21.7	0.00e+00	0	39	0	549453824	54	6237
2026-01-02 14:14:15.43	39.79	36.33	-40.5	-41.6	21.9	0.00e+00	0	39	0	551550976	54	6122
2026-01-02 14:14:16.44	39.98	36.54	-40.1	-41.2	22.2	0.00e+00	0	39	0	553648128	54	5850
2026-01-02 14:14:17.45	40.17	36.75	-40.1	-41.1	22.2	0.00e+00	0	39	0	554696704	54	5815
2026-01-02 14:14:18.46	40.36	36.97	-39.9	-41.0	22.3	0.00e+00	0	39	0	556793856	54	5703
2026-01-02 14:14:19.47	40.56	37.18	-39.8	-40.8	22.4	0.00e+00	0	39	0	558891008	54	5578
2026-01-02 14:14:20.48	40.75	37.40	-39.7	-40.7	22.4	0.00e+00	0	39	0	560988160	52	6206
2026-01-02 14:14:21.49	40.95	37.62	-39.5	-40.5	22.7	0.00e+00	0	39	0	563085312	52	6070
2026-01-02 14:14:22.49	41.16	37.84	-39.7	-40.7	22.6	0.00e+00	0	39	0	564133888	52	6205
2026-01-02 14:14:23.50	41.36	38.06	-39.7	-40.6	22.7	0.00e+00	0	39	0	566231040	52	6161
2026-01-02 14:14:24.51	41.57	38.28	-39.8	-40.7	22.6	0.00e+00	0	39	0	568328192	52	6238
2026-01-02 14:14:25.52	41.78	38.50	-39.9	-40.9	22.4	0.00e+00	0	39	0	570425344	52	6360
2026-01-02 14:14:26.53	41.99	38.72	-40.0	-41.0	22.3	0.00e+00	0	39	0	572522496	52	6458
2026-01-02 14:14:27.54	42.21	38.95	-40.1	-41.1	22.3	0.00e+00	0	39	0	573571072	52	6497
2026-01-02 14:14:28.55	42.43	39.17	-40.0	-41.0	22.4	0.00e+00	0	39	0	575668224	52	6442
2026-01-02 14:14:29.56	42.65	39.40	-39.8	-40.8	22.5	0.00e+00	0	39	0	577765376	52	6282
2026-01-02 14:14:30.57	42.88	39.63	-39.6	-40.6	22.8	0.00e+00	0	39	0	579862528	52	6125
2026-01-02 14:14:31.58	43.11	39.85	-39.3	-40.3	22.9	0.00e+00	0	39	0	581959680	52	5919
2026-01-02 14:14:32.59	43.34	40.08	-39.0	-39.9	23.3	0.00e+00	0	39	0	583008256	52	5687
2026-01-02 14:14:33.60	43.58	40.31	-38.9	-39.8	23.5	0.00e+00	0	39	0	585105408	52	5603
2026-01-02 14:14:34.61	43.82	40.55	-38.8	-39.7	23.6	0.00e+00	0	39	0	587202560	50	6201
2026-01-02 14:14:35.62	44.06	40.78	-38.5	-39.4	23.6	0.00e+00	0	39	0	589299712	50	6014
2026-01-02 14:14:36.63	44.30	41.01	-38.7	-39.6	23.6	0.00e+00	0	39	0	591396864	50	6163
2026-01-02 14:14:37.64	44.55	41.24	-38.9	-39.8	23.4	0.00e+00	0	39	0	592445440	50	6303
2026-01-02 14:14:38.65	44.81	41.48	-39.0	-39.9	23.3	0.00e+00	0	39	0	594542592	50	6381
2026-01-02 14:14:39.66	45.06	41.72	-39.0	-40.0	23.3	0.00e+00	0	39	0	596639744	50	6391
2026-01-02 14:14:40.67	45.32	41.95	-39.0	-39.9	23.3	0.00e+00	0	39	0	598736896	50	6378
2026-01-02 14:14:41.68	45.59	42.19	-38.9	-39.9	23.3	0.00e+00	0	39	0	600834048	50	6320
2026-01-02 14:14:42.69	45.85	42.43	-39.2	-40.1	23.2	0.00e+00	0	39	0	601882624	50	6521
2026-01-02 14:14:43.70	46.13	42.67	-39.2	-40.2	23.1	0.00e+00	0	39	0	603979776	50	6550
2026-01-02 14:14:44.71	46.40	42.91	-39.3	-40.3	23.0	0.00e+00	0	39	0	606076928	50	6635
2026-01-02 14:14:45.72	46.68	43.15	-39.3	-40.3	23.0	0.00e+00	0	39	0	608174080	50	6640
2026-01-02 14:14:46.73	46.97	43.39	-39.4	-40.3	23.0	0.00e+00	0	39	0	610271232	50	6666
2026-01-02 14:14:47.74	47.25	43.63	-39.4	-40.3	22.9	0.00e+00	0	39	0	611319808	50	6687
2026-01-02 14:14:48.75	47.55	43.88	-39.6	-40.5	22.8	0.00e+00	0	39	0	613416960	50	6844
2026-01-02 14:14:49.75	47.84	44.12	-39.5	-40.5	22.8	0.00e+00	0	39	0	615514112	50	6801
2026-01-02 14:14:50.76	48.14	44.36	-40.0	-41.0	22.3	0.00e+00	0	39	0	617611264	52	6446
2026-01-02 14:14:51.77	48.45	44.61	-40.4	-41.5	21.9	0.00e+00	0	39	0	619708416	52	6812
2026-01-02 14:14:52.78	48.76	44.86	-40.6	-41.7	21.6	0.00e+00	0	39	0	620756992	52	6981
2026-01-02 14:14:53.79	49.08	45.10	-40.6	-41.7	21.7	0.00e+00	0	39	0	622854144	52	6971
2026-01-02 14:14:54.80	49.40	45.35	-40.6	-41.7	21.6	0.00e+00	0	39	0	624951296	52	6989
2026-01-02 14:14:55.81	49.72	45.60	-40.8	-41.9	21.5	0.00e+00	0	39	0	627048448	54	6341
2026-01-02 14:14:56.82	50.05	45.85	-40.9	-42.0	21.4	0.00e+00	0	39	0	629145600	54	6427
2026-01-02 14:14:57.83	50.39	46.10	-41.1	-42.3	21.0	0.00e+00	0	39	0	631242752	54	6682
2026-01-02 14:14:58.84	50.73	46.35	-41.3	-42.6	20.6	0.00e+00	0	39	0	632291328	54	6849
2026-01-02 14:14:59.85	51.08	46.60	-41.5	-42.7	20.9	0.00e+00	0	39	0	634388480	54	7002
2026-01-02 14:15:00.85	51.43	46.84	-41.3	-42.5	21.0	0.00e+00	0	39	0	636485632	54	6844
2026-01-02 14:15:01.86	51.78	47.09	-41.3	-42.5	21.0	0.00e+00	0	39	0	638582784	54	6789
2026-01-02 14:15:02.87	52.15	47.35	-41.5	-42.7	20.8	0.00e+00	0	39	0	640679936	54	7002
2026-01-02 14:15:03.88	52.52	47.60	-41.5	-42.8	20.7	0.00e+00	0	39	0	641728512	54	7012
2026-01-02 14:15:04.89	52.89	47.85	-41.9	-43.2	20.3	0.00e+00	0	39	0	643825664	56	6546
2026-01-02 14:15:05.90	53.27	48.10	-42.2	-43.6	20.0	0.00e+00	0	39	0	645922816	56	6895
2026-01-02 14:15:06.91	53.66	48.35	-42.4	-43.9	19.7	0.00e+00	0	39	0	648019968	56	7099
2026-01-02 14:15:07.92	54.05	48.60	-42.3	-43.7	19.9	0.00e+00	0	39	0	650117120	56	6954
2026-01-02 14:15:08.93	54.45	48.85	-42.3	-43.7	19.9	0.00e+00	0	39	0	651165696	56	6983
2026-01-02 14:15:09.94	54.86	49.11	-42.3	-43.7	20.0	0.00e+00	0	39	0	653262848	56	6959
2026-01-02 14:15:10.95	55.27	49.36	-41.8	-43.1	20.5	0.00e+00	0	39	0	655360000	56	6488
2026-01-02 14:15:11.96	55.69	49.61	-41.7	-42.9	20.7	0.00e+00	0	39	0	657457152	56	6369
2026-01-02 14:15:12.97	56.12	49.86	-41.9	-43.2	20.5	0.00e+00	0	39	0	659554304	56	6545
2026-01-02 14:15:13.98	56.55	50.11	-41.9	-43.3	20.4	0.00e+00	0	39	0	660602880	56	6627
2026-01-02 14:15:14.99	56.99	50.36	-41.6	-42.8	20.8	0.00e+00	0	39	0	662700032	56	6308
2026-01-02 14:15:16.00	57.44	50.61	-41.0	-42.1	21.4	0.00e+00	0	39	0	664797184	56	5815
2026-01-02 14:15:17.01	57.90	50.86	-40.4	-41.5	21.8	0.00e+00	0	39	0	666894336	54	6079
2026-01-02 14:15:18.02	58.36	51.11	-40.2	-41.3	22.1	0.00e+00	0	39	0	668991488	54	5922
2026-01-02 14:15:19.03	58.83	51.36	-40.0	-41.0	22.4	0.00e+00	0	39	0	670040064	54	5721
2026-01-02 14:15:20.04	59.31	51.61	-39.9	-40.9	22.5	0.00e+00	0	39	0	672137216	54	5643
2026-01-02 14:15:21.05	59.80	51.85	-39.6	-40.6	22.7	0.00e+00	0	39	0	674234368	52	6135
2026-01-02 14:15:22.06	60.29	52.10	-39.5	-40.5	22.9	0.00e+00	0	39	0	676331520	52	6057
2026-01-02 14:15:23.06	60.79	52.34	-39.5	-40.4	23.0	0.00e+00	0	39	0	678428672	52	6017
2026-01-02 14:15:24.07	61.30	52.59	-39.0	-39.9	23.3	0.00e+00	0	39	0	679477248	52	5648
2026-01-02 14:15:25.08	61.82	52.83	-38.9	-39.8	23.4	0.00e+00	0	39	0	681574400	52	5591
2026-01-02 14:15:26.09	62.35	53.07	-38.4	-39.2	23.9	0.00e+00	0	39	0	683671552	50	5891
2026-01-02 14:15:27.10	62.89	53.31	-38.3	-39.2	24.0	0.00e+00	0	39	0	685768704	50	5864
2026-01-02 14:15:28.11	63.44	53.55	-38.5	-39.4	23.7	0.00e+00	0	39	0	687865856	50	6016
2026-01-02 14:15:29.12	63.99	53.79	-38.7	-39.6	23.6	0.00e+00	0	39	0	688914432	50	6147
2026-01-02 14:15:30.12	64.55	54.02	-38.4	-39.3	23.9	0.00e+00	0	39	0	691011584	50	5935
2026-01-02 14:15:31.13	65.12	54.26	-38.1	-38.9	23.9	0.00e+00	0	39	0	693108736	50	5680
2026-01-02 14:15:32.14	65.71	54.49	-37.9	-38.7	24.4	0.00e+00	0	39	0	695205888	50	5544
2026-01-02 14:15:33.15	66.30	54.72	-37.9	-38.8	24.3	0.00e+00	0	39	0	697303040	50	5577
2026-01-02 14:15:34.16	66.90	54.95	-38.5	-39.4	23.6	0.00e+00	0	39	0	699400192	50	6015
2026-01-02 14:15:35.17	67.51	55.18	-38.9	-39.8	23.4	0.00e+00	0	39	0	700448768	50	6272
2026-01-02 14:15:36.18	68.13	55.40	-38.8	-39.7	23.5	0.00e+00	0	39	0	702545920	50	6232
2026-01-02 14:15:37.19	68.76	55.62	-38.7	-39.6	23.5	0.00e+00	0	39	0	704643072	50	6124
2026-01-02 14:15:38.20	69.40	55.84	-38.7	-39.6	23.5	0.00e+00	0	39	0	706740224	50	6158
2026-01-02 14:15:39.21	70.05	56.06	-39.1	-40.0	23.1	0.00e+00	0	39	0	708837376	50	6428
2026-01-02 14:15:40.22	70.71	56.27	-39.3	-40.3	23.0	0.00e+00	0	39	0	709885952	50	6641
2026-01-02 14:15:41.22	71.38	56.48	-39.5	-40.5	22.9	0.00e+00	0	39	0	711983104	50	6784
2026-01-02 14:15:42.23	72.06	56.69	-39.5	-40.5	22.7	0.00e+00	0	39	0	714080256	50	6809
2026-01-02 14:15:43.24	72.75	56.90	-39.6	-40.6	22.6	0.00e+00	0	39	0	716177408	50	6879
2026-01-02 14:15:44.25	73.45	57.10	-39.4	-40.4	22.9	0.00e+00	0	39	0	718274560	50	6756
2026-01-02 14:15:45.26	74.17	57.30	-39.3	-40.3	22.9	0.00e+00	0	39	0	719323136	50	6662
2026-01-02 14:15:46.27	74.89	57.49	-39.6	-40.6	22.6	0.00e+00	0	39	0	721420288	50	6857
2026-01-02 14:15:47.28	75.62	57.68	-39.8	-40.8	22.6	0.00e+00	0	39	0	723517440	52	6272
2026-01-02 14:15:48.29	76.36	57.87	-39.6	-40.6	22.7	0.00e+00	0	39	0	725614592	52	6140
2026-01-02 14:15:49.30	77.12	58.05	-39.5	-40.5	22.7	0.00e+00	0	39	0	727711744	52	6097
2026-01-02 14:15:50.31	77.88	58.23	-39.4	-40.4	22.9	0.00e+00	0	39	0	728760320	52	5976
2026-01-02 14:15:51.32	78.65	58.41	-39.7	-40.7	22.7	0.00e+00	0	39	0	730857472	52	6191
2026-01-02 14:15:52.33	79.44	58.58	-39.6	-40.6	22.8	0.00e+00	0	39	0	732954624	52	6138
2026-01-02 14:15:53.34	80.23	58.75	-39.5	-40.5	22.8	0.00e+00	0	39	0	735051776	52	6077
2026-01-02 14:15:54.34	81.03	58.91	-39.2	-40.2	23.2	0.00e+00	0	39	0	737148928	52	5829
2026-01-02 14:15:55.35	81.84	59.06	-39.2	-40.1	23.2	0.00e+00	0	39	0	738197504	52	5799
2026-01-02 14:15:56.36	82.66	59.22	-39.0	-40.0	23.2	0.00e+00	0	39	0	740294656	52	5703
2026-01-02 14:15:57.37	83.49	59.36	-39.1	-40.0	23.3	0.00e+00	0	39	0	742391808	52	5745
2026-01-02 14:15:58.38	84.34	59.51	-39.0	-40.0	23.4	0.00e+00	0	39	0	744488960	52	5711
2026-01-02 14:15:59.39	85.19	59.64	-38.8	-39.8	23.4	0.00e+00	0	39	0	746586112	50	6257
2026-01-02 14:16:00.40	86.05	59.77	-38.7	-39.6	23.5	0.00e+00	0	39	0	747634688	50	6141
2026-01-02 14:16:01.41	86.91	59.90	-39.1	-40.1	23.1	0.00e+00	0	39	0	749731840	50	6491
2026-01-02 14:16:02.42	87.79	60.02	-39.4	-40.4	22.9	0.00e+00	0	39	0	751828992	50	6740
2026-01-02 14:16:03.43	88.67	60.13	-39.8	-40.8	22.5	0.00e+00	0	39	0	753926144	52	6289
2026-01-02 14:16:04.44	89.57	60.24	-39.1	-40.0	23.3	0.00e+00	0	39	0	756023296	52	5728
2026-01-02 14:16:05.45	90.46	60.34	-38.6	-39.5	23.5	0.00e+00	0	39	0	757071872	50	6097
2026-01-02 14:16:06.46	91.37	60.44	-39.1	-40.0	22.9	0.00e+00	0	39	0	759169024	50	6449
2026-01-02 14:16:07.47	92.28	60.53	-39.8	-40.8	22.6	0.00e+00	0	39	0	761266176	52	6317
2026-01-02 14:16:08.48	93.20	60.62	-39.8	-40.9	22.4	0.00e+00	0	39	0	763363328	52	6324
2026-01-02 14:16:09.49	94.13	60.69	-39.7	-40.7	22.7	0.00e+00	0	39	0	765460480	52	6200
2026-01-02 14:16:10.50	95.06	60.76	-39.3	-40.2	23.1	0.00e+00	0	39	0	767557632	52	5894
2026-01-02 14:16:11.51	95.99	60.83	-38.7	-39.6	23.5	0.00e+00	0	39	0	768606208	52	5463
2026-01-02 14:16:12.52	96.93	60.89	-38.9	-39.8	23.5	0.00e+00	0	39	0	770703360	50	6298
2026-01-02 14:16:13.53	97.88	60.94	-39.4	-40.4	22.9	0.00e+00	0	39	0	772800512	50	6718
2026-01-02 14:16:14.53	98.82	60.98	-39.4	-40.4	23.0	0.00e+00	0	39	0	774897664	50	6696
2026-01-02 14:16:15.54	99.77	61.02	-39.5	-40.5	22.8	0.00e+00	0	39	0	776994816	50	6810
2026-01-02 14:16:16.55	100.72	61.05	-39.7	-40.7	22.7	0.00e+00	0	39	0	778043392	50	6988
2026-01-02 14:16:17.56	101.67	61.07	-38.6	-39.5	23.7	0.00e+00	0	39	0	780140544	50	6036
2026-01-02 14:16:18.57	102.63	61.09	-38.1	-39.0	24.1	0.00e+00	0	39	0	782237696	50	5712
2026-01-02 14:16:19.58	103.59	61.10	-38.4	-39.3	23.8	0.00e+00	0	39	0	784334848	50	5943
2026-01-02 14:16:20.59	104.55	61.10	-38.9	-39.8	23.3	0.00e+00	0	39	0	786432000	50	6316
2026-01-02 14:16:21.60	105.51	61.10	-38.1	-38.9	24.2	0.00e+00	0	39	0	787480576	50	5676
2026-01-02 14:16:22.61	106.47	61.09	-37.5	-38.3	24.1	0.00e+00	0	39	0	789577728	48	5919
2026-01-02 14:16:23.62	107.42	61.07	-37.7	-38.5	24.4	0.00e+00	0	39	0	791674880	48	6058
2026-01-02 14:16:24.63	108.38	61.05	-37.5	-38.4	24.7	0.00e+00	0	39	0	793772032	48	5968
2026-01-02 14:16:25.64	109.33	61.02	-36.9	-37.7	25.2	0.00e+00	0	39	0	795869184	48	5544
2026-01-02 14:16:26.65	110.28	60.98	-36.9	-37.7	25.1	0.00e+00	0	39	0	796917760	48	5526
2026-01-02 14:16:27.66	111.23	60.93	-37.3	-38.1	24.7	0.00e+00	0	39	0	799014912	48	5791
2026-01-02 14:16:28.67	112.17	60.88	-37.8	-38.6	24.4	0.00e+00	0	39	0	801112064	48	6152
2026-01-02 14:16:29.68	113.11	60.82	-38.4	-39.3	23.9	0.00e+00	0	39	0	803209216	48	6639
2026-01-02 14:16:30.68	114.04	60.76	-38.5	-39.4	23.7	0.00e+00	0	39	0	805306368	48	6765
2026-01-02 14:16:31.70	114.98	60.69	-38.7	-39.6	23.6	0.00e+00	0	39	0	806354944	48	6888
2026-01-02 14:16:32.70	115.90	60.61	-39.5	-40.5	22.8	0.00e+00	0	39	0	808452096	50	6794
2026-01-02 14:16:33.71	116.81	60.53	-40.1	-41.2	22.3	0.00e+00	0	39	0	810549248	52	6552
2026-01-02 14:16:34.72	117.73	60.43	-39.3	-40.3	23.1	0.00e+00	0	39	0	812646400	52	5923
2026-01-02 14:16:35.73	118.63	60.34	-39.2	-40.1	23.1	0.00e+00	0	39	0	814743552	52	5793
2026-01-02 14:16:36.74	119.53	60.23	-40.0	-41.1	22.2	0.00e+00	0	39	0	815792128	52	6475
2026-01-02 14:16:37.75	120.43	60.13	-40.7	-41.9	21.6	0.00e+00	0	39	0	817889280	52	7107
2026-01-02 14:16:38.76	121.31	60.01	-40.5	-41.6	21.7	0.00e+00	0	39	0	819986432	54	6132
2026-01-02 14:16:39.76	122.18	59.89	-40.1	-41.2	22.1	0.00e+00	0	39	0	822083584	54	5854
2026-01-02 14:16:40.77	123.05	59.76	-39.6	-40.6	22.7	0.00e+00	0	39	0	824180736	52	6145
2026-01-02 14:16:41.78	123.90	59.63	-39.5	-40.5	22.8	0.00e+00	0	39	0	825229312	52	6069
2026-01-02 14:16:42.79	124.76	59.50	-40.5	-41.5	21.8	0.00e+00	0	39	0	827326464	52	6835
2026-01-02 14:16:43.80	125.60	59.35	-40.3	-41.4	22.0	0.00e+00	0	39	0	829423616	52	6714
2026-01-02 14:16:44.81	126.43	59.21	-39.6	-40.6	22.6	0.00e+00	0	39	0	831520768	52	6150
2026-01-02 14:16:45.82	127.25	59.05	-40.0	-41.0	22.3	0.00e+00	0	39	0	833617920	52	6415
2026-01-02 14:16:46.82	128.06	58.90	-40.7	-41.8	21.5	0.00e+00	0	39	0	834666496	52	7076
2026-01-02 14:16:47.83	128.86	58.73	-40.6	-41.8	21.6	0.00e+00	0	39	0	836763648	54	6258
2026-01-02 14:16:48.84	129.66	58.57	-40.0	-41.0	22.4	0.00e+00	0	39	0	838860800	54	5709
2026-01-02 14:16:49.85	130.44	58.40	-39.9	-40.9	22.4	0.00e+00	0	39	0	840957952	52	6363
2026-01-02 14:16:50.86	131.21	58.22	-40.1	-41.2	22.2	0.00e+00	0	39	0	843055104	52	6546
2026-01-02 14:16:51.87	131.98	58.04	-40.6	-41.8	21.7	0.00e+00	0	39	0	844103680	54	6253
2026-01-02 14:16:52.88	132.73	57.86	-40.5	-41.6	21.7	0.00e+00	0	39	0	846200832	54	6160
2026-01-02 14:16:53.89	133.47	57.67	-40.1	-41.2	22.2	0.00e+00	0	39	0	848297984	54	5854
2026-01-02 14:16:54.90	134.21	57.48	-39.8	-40.8	22.6	0.00e+00	0	39	0	850395136	52	6264
2026-01-02 14:16:55.91	134.93	57.28	-39.2	-40.2	23.1	0.00e+00	0	39	0	852492288	52	5844
2026-01-02 14:16:56.92	135.64	57.08	-39.0	-39.9	23.4	0.00e+00	0	39	0	853540864	52	5681
2026-01-02 14:16:57.93	136.34	56.88	-39.5	-40.5	22.9	0.00e+00	0	39	0	855638016	52	6071
2026-01-02 14:16:58.94	137.04	56.67	-39.4	-40.3	23.0	0.00e+00	0	39	0	857735168	52	5956
2026-01-02 14:16:59.95	137.72	56.46	-38.6	-39.5	23.6	0.00e+00	0	39	0	859832320	50	6060
2026-01-02 14:17:00.96	138.39	56.25	-38.1	-39.0	24.2	0.00e+00	0	39	0	861929472	50	5735
2026-01-02 14:17:01.97	139.05	56.04	-37.9	-38.7	24.3	0.00e+00	0	39	0	864026624	50	5555
2026-01-02 14:17:02.98	139.70	55.82	-37.7	-38.6	24.1	0.00e+00	0	39	0	865075200	50	5447
2026-01-02 14:17:03.99	140.34	55.60	-37.2	-38.0	24.9	0.00e+00	0	39	0	867172352	48	5740
2026-01-02 14:17:05.00	140.97	55.38	-37.1	-37.9	25.0	0.00e+00	0	39	0	869269504	48	5667
2026-01-02 14:17:06.01	141.59	55.15	-36.9	-37.7	25.2	0.00e+00	0	39	0	871366656	46	6184
2026-01-02 14:17:07.02	142.21	54.92	-36.3	-37.0	25.8	0.00e+00	0	39	0	873463808	46	5738
2026-01-02 14:17:08.03	142.81	54.69	-35.8	-36.5	25.8	0.00e+00	0	39	0	874512384	46	5434
2026-01-02 14:17:09.04	143.40	54.46	-35.8	-36.5	25.9	0.00e+00	0	39	0	876609536	44	6057
2026-01-02 14:17:10.04	143.98	54.23	-35.8	-36.6	26.1	0.00e+00	0	39	0	878706688	44	6118
2026-01-02 14:17:11.05	144.55	54.00	-35.2	-35.9	26.6	0.00e+00	0	39	0	880803840	44	5653
2026-01-02 14:17:12.06	145.11	53.76	-35.0	-35.7	26.7	0.00e+00	0	39	0	882900992	44	5525
2026-01-02 14:17:13.07	145.67	53.52	-35.5	-36.2	26.3	0.00e+00	0	39	0	883949568	44	5884
2026-01-02 14:17:14.08	146.22	53.28	-36.3	-37.1	25.7	0.00e+00	0	39	0	886046720	44	6465
2026-01-02 14:17:15.09	146.75	53.04	-36.0	-36.8	26.0	0.00e+00	0	39	0	888143872	44	6257
2026-01-02 14:17:16.10	147.28	52.80	-35.6	-36.3	26.3	0.00e+00	0	39	0	890241024	44	5936
2026-01-02 14:17:17.11	147.80	52.55	-35.8	-36.6	26.1	0.00e+00	0	39	0	892338176	44	6116
2026-01-02 14:17:18.12	148.31	52.31	-36.2	-37.0	25.9	0.00e+00	0	39	0	893386752	44	6393
2026-01-02 14:17:19.13	148.82	52.06	-36.1	-36.9	25.9	0.00e+00	0	39	0	895483904	44	6326
2026-01-02 14:17:20.13	149.31	51.82	-36.1	-36.8	26.0	0.00e+00	0	39	0	897581056	44	6279
2026-01-02 14:17:21.14	149.79	51.57	-36.2	-37.0	25.7	0.00e+00	0	39	0	899678208	44	6408
2026-01-02 14:17:22.15	150.27	51.32	-36.6	-37.4	25.5	0.00e+00	0	39	0	901775360	44	6702
2026-01-02 14:17:23.16	150.74	51.07	-37.0	-37.7	25.0	0.00e+00	0	39	0	902823936	46	6236
2026-01-02 14:17:24.17	151.21	50.82	-37.8	-38.6	24.4	0.00e+00	0	39	0	904921088	46	6877
2026-01-02 14:17:25.18	151.66	50.57	-38.4	-39.3	23.8	0.00e+00	0	39	0	907018240	48	6625
2026-01-02 14:17:26.19	152.11	50.32	-38.4	-39.2	23.9	0.00e+00	0	39	0	909115392	48	6608
2026-01-02 14:17:27.20	152.55	50.07	-38.2	-39.0	24.1	0.00e+00	0	39	0	911212544	48	6440
2026-01-02 14:17:28.21	152.99	49.82	-38.6	-39.5	23.7	0.00e+00	0	39	0	912261120	48	6824
2026-01-02 14:17:29.22	153.41	49.56	-39.7	-40.7	22.4	0.00e+00	0	39	0	914358272	50	6996
2026-01-02 14:17:30.23	153.83	49.31	-41.2	-42.4	21.0	0.00e+00	0	39	0	916455424	54	6708
2026-01-02 14:17:31.24	154.25	49.06	-41.1	-42.3	21.3	0.00e+00	0	39	0	918552576	54	6641
2026-01-02 14:17:32.25	154.65	48.81	-41.0	-42.2	21.3	0.00e+00	0	39	0	920649728	54	6563
2026-01-02 14:17:33.26	155.05	48.55	-41.1	-42.3	21.3	0.00e+00	0	39	0	921698304	54	6623
2026-01-02 14:17:34.27	155.45	48.30	-41.2	-42.4	21.1	0.00e+00	0	39	0	923795456	54	6696
2026-01-02 14:17:35.28	155.83	48.05	-41.1	-42.3	21.2	0.00e+00	0	39	0	925892608	54	6653
2026-01-02 14:17:36.29	156.22	47.80	-41.9	-43.2	20.3	0.00e+00	0	39	0	927989760	56	6583
2026-01-02 14:17:37.30	156.59	47.54	-43.3	-45.0	18.6	0.00e+00	0	39	0	930086912	58	7238
2026-01-02 14:17:38.31	156.96	47.29	-44.4	-46.4	17.2	0.00e+00	0	39	0	932184064	60	7588
2026-01-02 14:17:39.32	157.32	47.04	-43.2	-44.8	19.0	0.00e+00	0	39	0	933232640	60	6300
2026-01-02 14:17:40.33	157.68	46.79	-42.4	-43.8	19.8	0.00e+00	0	39	0	935329792	58	6260
2026-01-02 14:17:41.34	158.03	46.54	-42.6	-44.0	19.6	0.00e+00	0	39	0	937426944	58	6446
2026-01-02 14:17:42.35	158.38	46.29	-44.2	-46.3	17.4	0.00e+00	0	39	0	939524096	60	7425
2026-01-02 14:17:43.36	158.72	46.04	-45.0	-47.3	16.4	0.00e+00	0	39	0	941621248	60	8413
2026-01-02 14:17:44.36	159.05	45.79	-43.8	-45.7	18.3	0.00e+00	0	39	0	942669824	60	6978
2026-01-02 14:17:45.38	159.39	45.54	-42.9	-44.4	19.5	0.00e+00	0	39	0	944766976	60	5986
2026-01-02 14:17:46.39	159.71	45.29	-41.9	-43.3	20.3	0.00e+00	0	39	0	946864128	58	5902
2026-01-02 14:17:47.40	160.03	45.04	-43.3	-45.0	18.5	0.00e+00	0	39	0	948961280	58	7224
2026-01-02 14:17:48.41	160.35	44.79	-44.2	-46.2	17.7	0.00e+00	0	39	0	951058432	60	7412
2026-01-02 14:17:49.42	160.66	44.55	-42.5	-44.1	19.6	0.00e+00	0	39	0	952107008	60	5816
2026-01-02 14:17:50.42	160.96	44.30	-40.8	-41.9	21.6	0.00e+00	0	39	0	954204160	56	5679
2026-01-02 14:17:51.43	161.26	44.06	-40.1	-41.2	22.1	0.00e+00	0	39	0	956301312	54	5863
2026-01-02 14:17:52.44	161.56	43.81	-39.7	-40.7	22.7	0.00e+00	0	39	0	958398464	54	5516
2026-01-02 14:17:53.45	161.85	43.57	-39.2	-40.1	23.1	0.00e+00	0	39	0	960495616	52	5816
2026-01-02 14:17:54.46	162.14	43.32	-39.3	-40.3	23.0	0.00e+00	0	39	0	961544192	52	5906
2026-01-02 14:17:55.47	162.43	43.08	-39.7	-40.8	22.5	0.00e+00	0	39	0	963641344	52	6257
2026-01-02 14:17:56.48	162.71	42.84	-39.9	-40.9	22.4	0.00e+00	0	39	0	965738496	52	6377
2026-01-02 14:17:57.49	162.98	42.60	-39.6	-40.6	22.7	0.00e+00	0	39	0	967835648	52	6158
2026-01-02 14:17:58.50	163.25	42.36	-38.6	-39.5	23.9	0.00e+00	0	39	0	969932800	50	6062
2026-01-02 14:17:59.51	163.52	42.12	-37.5	-38.3	24.7	0.00e+00	0	39	0	970981376	48	5961
2026-01-02 14:18:00.52	163.78	41.88	-37.0	-37.8	25.2	0.00e+00	0	39	0	973078528	48	5579
2026-01-02 14:18:01.53	164.04	41.64	-37.5	-38.3	24.7	0.00e+00	0	39	0	975175680	48	5944
2026-01-02 14:18:02.54	164.30	41.40	-38.8	-39.7	23.4	0.00e+00	0	39	0	977272832	48	6979
2026-01-02 14:18:03.55	164.55	41.17	-40.2	-41.3	22.1	0.00e+00	0	39	0	979369984	52	6656
2026-01-02 14:18:04.56	164.80	40.93	-40.2	-41.4	21.8	0.00e+00	0	39	0	980418560	52	6708
2026-01-02 14:18:05.56	165.04	40.70	-39.3	-40.3	23.1	0.00e+00	0	39	0	982515712	52	5930
2026-01-02 14:18:06.57	165.29	40.47	-38.8	-39.7	23.2	0.00e+00	0	39	0	984612864	50	6203
2026-01-02 14:18:07.58	165.53	40.24	-38.2	-39.1	24.0	0.00e+00	0	39	0	986710016	50	5784
2026-01-02 14:18:08.59	165.76	40.01	-38.2	-39.0	24.2	0.00e+00	0	39	0	988807168	50	5726
2026-01-02 14:18:09.60	165.99	39.78	-37.8	-38.7	24.3	0.00e+00	0	39	0	989855744	50	5525
2026-01-02 14:18:10.61	166.22	39.55	-38.8	-39.7	23.4	0.00e+00	0	39	0	991952896	50	6205
2026-01-02 14:18:11.62	166.45	39.32	-39.6	-40.7	22.6	0.00e+00	0	39	0	994050048	50	6944
2026-01-02 14:18:12.63	166.67	39.09	-40.0	-41.1	22.2	0.00e+00	0	39	0	996147200	52	6502
2026-01-02 14:18:13.64	166.89	38.86	-39.4	-40.4	22.9	0.00e+00	0	39	0	998244352	52	6022
2026-01-02 14:18:14.65	167.11	38.64	-38.9	-39.9	23.5	0.00e+00	0	39	0	1000341504	52	5649
2026-01-02 14:18:15.66	167.32	38.42	-38.3	-39.2	23.9	0.00e+00	0	39	0	1001390080	50	5871
2026-01-02 14:18:16.67	167.53	38.19	-37.8	-38.6	24.5	0.00e+00	0	39	0	1003487232	50	5469
2026-01-02 14:18:17.67	167.74	37.97	-37.1	-37.9	25.0	0.00e+00	0	39	0	1005584384	48	5683
2026-01-02 14:18:18.69	167.95	37.75	-37.2	-38.0	24.9	0.00e+00	0	39	0	1007681536	48	5733
2026-01-02 14:18:19.69	168.15	37.53	-37.6	-38.5	24.5	0.00e+00	0	39	0	1009778688	48	6050
2026-01-02 14:18:20.70	168.35	37.31	-38.2	-39.1	24.1	0.00e+00	0	39	0	1010827264	48	6496
2026-01-02 14:18:21.71	168.54	37.10	-38.8	-39.8	23.4	0.00e+00	0	39	0	1012924416	48	7036
2026-01-02 14:18:22.72	168.74	36.88	-39.1	-40.1	23.2	0.00e+00	0	39	0	1015021568	50	6484
2026-01-02 14:18:23.73	168.93	36.66	-39.7	-40.7	22.6	0.00e+00	0	39	0	1017118720	50	6969
2026-01-02 14:18:24.74	169.12	36.45	-39.2	-40.2	23.2	0.00e+00	0	39	0	1019215872	52	5849
2026-01-02 14:18:25.75	169.31	36.24	-39.0	-40.0	23.2	0.00e+00	0	39	0	1020264448	52	5711
2026-01-02 14:18:26.76	169.49	36.02	-38.5	-39.4	23.8	0.00e+00	0	39	0	1022361600	50	6024
2026-01-02 14:18:27.77	169.68	35.81	-38.4	-39.3	23.9	0.00e+00	0	39	0	1024458752	50	5918
2026-01-02 14:18:28.78	169.86	35.60	-38.2	-39.0	24.0	0.00e+00	0	39	0	1026555904	50	5732
2026-01-02 14:18:29.79	170.04	35.39	-38.2	-39.0	24.1	0.00e+00	0	39	0	1028653056	50	5732
2026-01-02 14:18:30.80	170.21	35.19	-38.4	-39.2	23.9	0.00e+00	0	39	0	1029701632	50	5888
2026-01-02 14:18:31.81	170.39	34.98	-38.5	-39.4	23.8	0.00e+00	0	39	0	1031798784	50	5969
2026-01-02 14:18:32.82	170.56	34.77	-38.9	-39.9	23.2	0.00e+00	0	39	0	1033895936	50	6336
2026-01-02 14:18:33.83	170.73	34.57	-39.2	-40.1	23.1	0.00e+00	0	39	0	1035993088	50	6498
2026-01-02 14:18:34.84	170.90	34.36	-39.3	-40.3	22.9	0.00e+00	0	39	0	1038090240	50	6669
2026-01-02 14:18:35.85	171.06	34.16	-39.6	-40.6	22.7	0.00e+00	0	39	0	1039138816	50	6856
2026-01-02 14:18:36.86	171.23	33.96	-39.3	-40.2	23.0	0.00e+00	0	39	0	1041235968	50	6592
2026-01-02 14:18:37.87	171.39	33.76	-39.1	-40.0	23.1	0.00e+00	0	39	0	1043333120	50	6454
2026-01-02 14:18:38.87	171.55	33.56	-39.0	-39.9	23.3	0.00e+00	0	39	0	1045430272	50	6369
2026-01-02 14:18:39.88	171.70	33.36	-38.7	-39.6	23.6	0.00e+00	0	39	0	1047527424	50	6130
2026-01-02 14:18:40.89	171.86	33.17	-38.7	-39.6	23.5	0.00e+00	0	39	0	1048576000	50	6148
2026-01-02 14:18:41.90	172.01	32.97	-38.8	-39.7	23.4	0.00e+00	0	39	0	1050673152	50	6239
2026-01-02 14:18:42.91	172.17	32.77	-38.9	-39.8	23.4	0.00e+00	0	39	0	1052770304	50	6251
2026-01-02 14:18:43.91	172.32	32.58	-39.2	-40.1	23.1	0.00e+00	0	39	0	1054867456	50	6513
2026-01-02 14:18:44.92	172.46	32.39	-39.4	-40.4	22.8	0.00e+00	0	39	0	1056964608	50	6731
2026-01-02 14:18:45.94	172.61	32.19	-39.5	-40.5	22.7	0.00e+00	0	39	0	1058013184	50	6792
2026-01-02 14:18:46.94	172.76	32.01	-39.9	-41.0	22.3	0.00e+00	0	39	0	1060110336	52	6406
2026-01-02 14:18:47.96	172.90	31.81	-40.2	-41.3	22.0	0.00e+00	0	39	0	1062207488	52	6654
2026-01-02 14:18:48.96	173.04	31.63	-40.3	-41.4	21.9	0.00e+00	0	39	0	1064304640	52	6732
2026-01-02 14:18:49.97	173.18	31.44	-40.6	-41.7	21.6	0.00e+00	0	39	0	1066401792	52	6946
2026-01-02 14:18:50.98	173.32	31.25	-40.8	-41.9	21.5	0.00e+00	0	39	0	1067450368	54	6365
2026-01-02 14:18:51.99	173.46	31.07	-40.8	-42.0	21.4	0.00e+00	0	39	0	1069547520	54	6397
2026-01-02 14:18:53.00	173.60	30.88	-40.8	-42.0	21.4	0.00e+00	0	39	0	1071644672	54	6424
2026-01-02 14:18:54.01	173.73	30.70	-40.8	-42.0	21.4	0.00e+00	0	39	0	1073741824	54	6403
2026-01-02 14:18:55.02	173.87	30.51	-40.7	-41.9	21.4	0.00e+00	0	39	0	1075838976	54	6357
2026-01-02 14:18:56.03	174.00	30.33	-40.8	-42.0	21.4	0.00e+00	0	39	0	1076887552	54	6443
2026-01-02 14:18:57.04	174.13	30.15	-40.3	-41.4	21.9	0.00e+00	0	39	0	1078984704	54	6001
2026-01-02 14:18:58.05	174.26	29.97	-40.4	-41.5	21.8	0.00e+00	0	39	0	1081081856	54	6080
2026-01-02 14:18:59.06	174.38	29.79	-40.5	-41.6	21.7	0.00e+00	0	39	0	1083179008	54	6159
2026-01-02 14:19:00.07	174.51	29.61	-40.2	-41.3	22.0	0.00e+00	0	39	0	1085276160	54	5900
2026-01-02 14:19:01.08	174.63	29.44	-40.1	-41.2	22.1	0.00e+00	0	39	0	1086324736	54	5864
2026-01-02 14:19:02.09	174.76	29.26	-40.0	-41.0	22.2	0.00e+00	0	39	0	1088421888	54	5735
2026-01-02 14:19:03.10	174.88	29.08	-40.1	-41.2	22.1	0.00e+00	0	39	0	1090519040	54	5839
2026-01-02 14:19:04.11	175.00	28.91	-39.9	-40.9	22.2	0.00e+00	0	39	0	1092616192	54	5658
2026-01-02 14:19:05.12	175.12	28.74	-40.0	-41.0	22.1	0.00e+00	0	39	0	1094713344	54	5760
2026-01-02 14:19:06.13	175.24	28.56	-39.8	-40.8	22.5	0.00e+00	0	39	0	1096810496	52	6270
2026-01-02 14:19:07.14	175.36	28.39	-39.8	-40.8	22.4	0.00e+00	0	39	0	1097859072	52	6294
2026-01-02 14:19:08.14	175.47	28.22	-39.8	-40.9	22.3	0.00e+00	0	39	0	1099956224	52	6329
2026-01-02 14:19:09.15	175.59	28.06	-40.0	-41.1	22.1	0.00e+00	0	39	0	1102053376	52	6500
2026-01-02 14:19:10.16	175.70	27.89	-40.1	-41.2	22.1	0.00e+00	0	39	0	1104150528	52	6588
2026-01-02 14:19:11.17	175.81	27.72	-40.1	-41.2	22.1	0.00e+00	0	39	0	1106247680	52	6559
2026-01-02 14:19:12.19	175.93	27.55	-40.1	-41.2	22.1	0.00e+00	0	39	0	1107296256	52	6603
2026-01-02 14:19:13.20	176.04	27.38	-40.0	-41.1	22.2	0.00e+00	0	39	0	1109393408	52	6513
2026-01-02 14:19:14.20	176.14	27.22	-39.9	-41.0	22.3	0.00e+00	0	39	0	1111490560	52	6432
2026-01-02 14:19:15.21	176.25	27.06	-39.7	-40.7	22.5	0.00e+00	0	39	0	1113587712	52	6207
2026-01-02 14:19:16.22	176.36	26.89	-39.5	-40.5	22.8	0.00e+00	0	39	0	1115684864	52	6068
2026-01-02 14:19:17.23	176.47	26.73	-39.1	-40.0	23.1	0.00e+00	0	39	0	1116733440	52	5733
2026-01-02 14:19:18.24	176.57	26.57	-38.8	-39.7	23.4	0.00e+00	0	39	0	1118830592	52	5545
2026-01-02 14:19:19.25	176.67	26.41	-38.6	-39.5	23.6	0.00e+00	0	39	0	1120927744	50	6069
2026-01-02 14:19:20.26	176.78	26.25	-38.5	-39.4	23.7	0.00e+00	0	39	0	1123024896	50	6012
2026-01-02 14:19:21.27	176.88	26.09	-38.5	-39.4	23.7	0.00e+00	0	39	0	1125122048	50	5979
2026-01-02 14:19:22.28	176.98	25.93	-38.4	-39.3	23.8	0.00e+00	0	39	0	1126170624	50	5914
2026-01-02 14:19:23.28	177.08	25.78	-38.6	-39.5	23.6	0.00e+00	0	39	0	1128267776	50	6088
2026-01-02 14:19:24.29	177.18	25.62	-38.8	-39.7	23.3	0.00e+00	0	39	0	1130364928	50	6205
2026-01-02 14:19:25.30	177.28	25.46	-38.9	-39.9	23.3	0.00e+00	0	39	0	1132462080	50	6319
2026-01-02 14:19:26.32	177.37	25.31	-39.0	-40.0	23.1	0.00e+00	0	39	0	1134559232	50	6415
2026-01-02 14:19:27.32	177.47	25.16	-39.2	-40.2	22.9	0.00e+00	0	39	0	1135607808	50	6584
2026-01-02 14:19:28.34	177.57	25.00	-39.4	-40.4	22.8	0.00e+00	0	39	0	1137704960	50	6742
2026-01-02 14:19:29.35	177.66	24.85	-39.5	-40.5	22.6	0.00e+00	0	39	0	1139802112	50	6835
2026-01-02 14:19:30.35	177.75	24.70	-39.3	-40.4	22.8	0.00e+00	0	39	0	1141899264	50	6694
2026-01-02 14:19:31.36	177.85	24.55	-39.1	-40.1	23.0	0.00e+00	0	39	0	1143996416	50	6493
2026-01-02 14:19:32.37	177.94	24.40	-39.0	-40.0	23.1	0.00e+00	0	39	0	1145044992	50	6421
2026-01-02 14:19:33.38	178.03	24.25	-39.0	-39.9	23.1	0.00e+00	0	39	0	1147142144	50	6390
2026-01-02 14:19:34.39	178.12	24.10	-38.7	-39.7	23.4	0.00e+00	0	39	0	1149239296	50	6193
2026-01-02 14:19:35.40	178.21	23.95	-38.3	-39.2	23.8	0.00e+00	0	39	0	1151336448	50	5846
2026-01-02 14:19:36.41	178.30	23.81	-38.2	-39.1	23.7	0.00e+00	0	39	0	1153433600	50	5819
2026-01-02 14:19:37.42	178.39	23.66	-37.9	-38.8	24.1	0.00e+00	0	39	0	1154482176	50	5588
2026-01-02 14:19:38.43	178.47	23.51	-37.7	-38.5	24.4	0.00e+00	0	39	0	1156579328	48	6068
2026-01-02 14:19:39.44	178.56	23.37	-37.7	-38.5	24.4	0.00e+00	0	39	0	1158676480	48	6082
2026-01-02 14:19:40.44	178.65	23.23	-37.4	-38.2	24.7	0.00e+00	0	39	0	1160773632	48	5842
2026-01-02 14:19:41.45	178.73	23.08	-37.3	-38.1	24.7	0.00e+00	0	39	0	1162870784	48	5797
2026-01-02 14:19:42.46	178.81	22.94	-37.3	-38.1	24.7	0.00e+00	0	39	0	1164967936	48	5792
2026-01-02 14:19:43.47	178.90	22.80	-37.3	-38.1	24.8	0.00e+00	0	39	0	1166016512	48	5785
2026-01-02 14:19:44.48	178.98	22.66	-37.3	-38.1	24.7	0.00e+00	0	39	0	1168113664	48	5800
2026-01-02 14:19:45.49	179.06	22.52	-37.3	-38.1	24.7	0.00e+00	0	39	0	1170210816	48	5799
2026-01-02 14:19:46.50	179.14	22.38	-37.4	-38.2	24.7	0.00e+00	0	39	0	1172307968	48	5851
2026-01-02 14:19:47.51	179.22	22.24	-37.5	-38.3	24.5	0.00e+00	0	39	0	1174405120	48	5946
2026-01-02 14:19:48.52	179.30	22.10	-37.6	-38.5	24.5	0.00e+00	0	39	0	1175453696	48	6055
2026-01-02 14:19:49.53	179.38	21.96	-37.8	-38.6	24.3	0.00e+00	0	39	0	1177550848	48	6156
2026-01-02 14:19:50.54	179.46	21.83	-37.9	-38.7	24.3	0.00e+00	0	39	0	1179648000	48	6237
2026-01-02 14:19:51.55	179.54	21.69	-37.9	-38.8	24.1	0.00e+00	0	39	0	1181745152	48	6306
2026-01-02 14:19:52.56	179.62	21.56	-38.0	-38.9	24.0	0.00e+00	0	39	0	1183842304	48	6382
2026-01-02 14:19:53.57	179.70	21.42	-38.1	-39.0	24.0	0.00e+00	0	39	0	1184890880	48	6405
2026-01-02 14:19:54.58	179.77	21.29	-38.1	-39.0	23.9	0.00e+00	0	39	0	1186988032	48	6450
2026-01-02 14:19:55.59	179.85	21.15	-38.2	-39.1	23.8	0.00e+00	0	39	0	1189085184	48	6536
2026-01-02 14:19:56.59	179.92	21.02	-38.1	-39.0	24.0	0.00e+00	0	39	0	1191182336	48	6402
2026-01-02 14:19:57.60	179.99	20.89	-38.0	-38.9	24.0	0.00e+00	0	39	0	1193279488	48	6352
2026-01-02 14:19:58.62	180.07	20.76	-37.9	-38.8	24.1	0.00e+00	0	39	0	1194328064	48	6288
2026-01-02 14:19:59.62	180.14	20.63	-38.0	-38.9	24.0	0.00e+00	0	39	0	1196425216	48	6326
2026-01-02 14:20:00.63	180.21	20.50	-37.7	-38.6	24.3	0.00e+00	0	39	0	1198522368	48	6134
2026-01-02 14:20:01.64	180.29	20.37	-37.7	-38.6	24.2	0.00e+00	0	39	0	1200619520	48	6118
2026-01-02 14:20:02.65	180.36	20.24	-37.6	-38.5	24.2	0.00e+00	0	39	0	1202716672	48	6050
2026-01-02 14:20:03.66	180.43	20.11	-37.6	-38.5	24.4	0.00e+00	0	39	0	1203765248	48	6036
2026-01-02 14:20:04.67	180.50	19.98	-37.4	-38.2	24.6	0.00e+00	0	39	0	1205862400	48	5864
2026-01-02 14:20:05.68	180.57	19.86	-37.4	-38.2	24.5	0.00e+00	0	39	0	1207959552	48	5889
2026-01-02 14:20:06.69	180.64	19.73	-37.3	-38.1	24.7	0.00e+00	0	39	0	1210056704	48	5807
2026-01-02 14:20:07.70	180.71	19.60	-37.5	-38.3	24.5	0.00e+00	0	39	0	1212153856	48	5932
2026-01-02 14:20:08.71	180.77	19.48	-37.4	-38.2	24.6	0.00e+00	0	39	0	1213202432	48	5863
2026-01-02 14:20:09.72	180.84	19.35	-37.4	-38.2	24.5	0.00e+00	0	39	0	1215299584	48	5876
2026-01-02 14:20:10.73	180.91	19.23	-37.4	-38.2	24.6	0.00e+00	0	39	0	1217396736	48	5880
2026-01-02 14:20:11.74	180.98	19.11	-37.5	-38.3	24.4	0.00e+00	0	39	0	1219493888	48	5919
2026-01-02 14:20:12.75	181.04	18.98	-37.5	-38.3	24.5	0.00e+00	0	39	0	1221591040	48	5942
2026-01-02 14:20:13.76	181.11	18.86	-37.6	-38.4	24.0	0.00e+00	0	39	0	1222639616	48	6027
2026-01-02 14:20:14.77	181.17	18.74	-37.7	-38.5	24.0	0.00e+00	0	39	0	1224736768	48	6066
2026-01-02 14:20:15.78	181.24	18.62	-37.8	-38.6	24.1	0.00e+00	0	39	0	1226833920	48	6168
