passes_logs/2026/01/02/R4.6S_Anadyr/R4.6S_Anadyr__20260102_201413_AQUA_rec.log

#Pass ID: 20260102_201413_AQUA
#Satellite: AQUA
#Configuration: AQUA
#almurnet v.1.7.20251203
#Start time: 2026-01-02 20:14:14

#Version: 2.2.20231116
#Station: R4.6S_Anadyr
#Location: 177.4865 lon 64.73178 lat
#TLE: 1 27424U 02022A   25365.92641127  .00002078  00000+0  42628-3 0  9999
#TLE: 2 27424  98.4058 327.1196 0001962  94.7781 340.6230 14.61783896258835

#Time	Az	El	Level	Level2	SNR	BER	BlckErr	Temp	State	Recorded	gain1	gain2
2026-01-02 20:14:14.19	37.28	0.04	-50.0	-61.6	3.5	8.45e-01	0	36	0	0	60	43558
2026-01-02 20:14:15.20	37.19	0.09	-50.5	-68.3	3.5	3.03e+01	0	37	104	0	60	99823
2026-01-02 20:14:16.21	37.10	0.14	-50.5	-68.3	3.5	3.03e+01	0	37	104	0	60	100462
2026-01-02 20:14:17.22	37.01	0.19	-50.4	-68.3	3.5	3.03e+01	0	37	104	0	60	100459
2026-01-02 20:14:18.23	36.92	0.24	-50.5	-68.3	3.5	3.03e+01	0	37	104	0	60	100404
2026-01-02 20:14:19.24	36.83	0.28	-50.4	-68.4	3.5	3.03e+01	0	37	104	0	60	101086
2026-01-02 20:14:20.25	36.74	0.33	-50.4	-68.3	3.5	3.03e+01	0	37	104	0	60	100613
2026-01-02 20:14:21.26	36.65	0.38	-50.2	-68.3	3.5	3.03e+01	0	37	104	0	60	100045
2026-01-02 20:14:22.27	36.55	0.43	-50.4	-68.3	3.5	3.03e+01	0	37	104	0	60	100117
2026-01-02 20:14:23.28	36.46	0.48	-50.0	-68.2	3.5	3.03e+01	0	37	104	0	60	99445
2026-01-02 20:14:24.29	36.37	0.53	-50.3	-68.2	3.5	3.03e+01	0	37	104	0	60	98961
2026-01-02 20:14:25.31	36.28	0.58	-50.2	-68.1	3.5	3.03e+01	0	38	104	0	60	97290
2026-01-02 20:14:26.31	36.18	0.63	-49.9	-68.0	3.5	3.03e+01	0	38	104	0	60	96685
2026-01-02 20:14:27.33	36.09	0.68	-49.8	-67.8	3.5	3.03e+01	0	38	104	0	60	94927
2026-01-02 20:14:28.34	35.99	0.72	-49.5	-67.6	3.5	3.03e+01	0	38	104	0	60	92669
2026-01-02 20:14:29.34	35.90	0.77	-49.5	-67.4	3.5	3.03e+01	0	38	104	0	60	90585
2026-01-02 20:14:30.35	35.81	0.82	-49.1	-67.1	3.5	3.03e+01	0	38	104	0	60	86791
2026-01-02 20:14:31.36	35.71	0.87	-48.2	-66.5	3.5	3.03e+01	0	38	104	0	60	80951
2026-01-02 20:14:32.38	35.61	0.92	-48.2	-66.3	3.5	3.03e+01	0	38	104	0	60	79818
2026-01-02 20:14:33.38	35.52	0.97	-48.2	-66.3	3.5	3.03e+01	0	38	104	0	60	79922
2026-01-02 20:14:34.39	35.42	1.02	-48.1	-66.4	3.5	3.03e+01	0	38	104	0	60	79956
2026-01-02 20:14:35.40	35.33	1.07	-48.2	-66.4	3.5	3.03e+01	0	38	104	0	60	80076
2026-01-02 20:14:36.41	35.23	1.11	-48.2	-66.4	3.5	3.03e+01	0	38	104	0	60	80095
2026-01-02 20:14:37.42	35.13	1.16	-48.2	-66.4	3.5	3.03e+01	0	38	104	0	60	80035
2026-01-02 20:14:38.43	35.03	1.21	-48.2	-66.3	3.5	3.03e+01	0	38	104	0	60	79300
2026-01-02 20:14:39.44	34.94	1.26	-48.2	-66.3	3.5	3.03e+01	0	38	104	0	60	79822
2026-01-02 20:14:40.45	34.84	1.31	-48.2	-66.4	3.5	3.03e+01	0	38	104	0	60	80005
2026-01-02 20:14:41.46	34.74	1.36	-48.1	-66.3	3.5	3.03e+01	0	38	104	0	60	79877
2026-01-02 20:14:42.47	34.64	1.41	-48.1	-66.4	3.5	3.03e+01	0	38	104	0	60	80084
2026-01-02 20:14:43.48	34.54	1.46	-48.2	-66.4	3.5	3.03e+01	0	38	104	0	60	80174
2026-01-02 20:14:44.49	34.44	1.51	-48.2	-66.4	3.5	3.03e+01	0	38	104	0	60	79954
2026-01-02 20:14:45.50	34.34	1.56	-48.1	-66.3	3.5	3.03e+01	0	38	104	0	60	79885
2026-01-02 20:14:46.51	34.24	1.61	-48.1	-66.2	3.5	3.03e+01	0	38	104	0	60	78357
2026-01-02 20:14:47.52	34.14	1.65	-48.2	-66.3	3.5	3.03e+01	0	38	104	0	60	79209
2026-01-02 20:14:48.53	34.04	1.70	-48.2	-66.3	3.5	3.03e+01	0	38	104	0	60	79221
2026-01-02 20:14:49.54	33.93	1.75	-48.2	-66.3	3.5	3.03e+01	0	38	104	0	60	79254
2026-01-02 20:14:50.55	33.83	1.80	-48.2	-66.3	3.5	3.03e+01	0	38	104	0	60	79787
2026-01-02 20:14:51.56	33.73	1.85	-48.2	-66.1	3.5	3.03e+01	0	38	104	0	60	77395
2026-01-02 20:14:52.57	33.63	1.90	-48.2	-66.0	3.5	3.03e+01	0	38	104	0	60	76403
2026-01-02 20:14:53.58	33.52	1.95	-48.1	-65.8	3.5	3.03e+01	0	38	104	0	60	75026
2026-01-02 20:14:54.59	33.42	2.00	-48.1	-65.8	3.5	3.03e+01	0	38	104	0	60	74798
2026-01-02 20:14:55.60	33.31	2.05	-48.2	-65.9	3.5	3.03e+01	0	38	104	0	60	75659
2026-01-02 20:14:56.61	33.21	2.10	-48.2	-66.1	3.5	3.03e+01	0	38	104	0	60	77603
2026-01-02 20:14:57.62	33.10	2.15	-48.2	-66.2	3.5	3.03e+01	0	38	104	0	60	78952
2026-01-02 20:14:58.63	33.00	2.20	-48.2	-66.2	3.5	3.03e+01	0	38	104	0	60	78311
2026-01-02 20:14:59.63	32.89	2.25	-48.1	-65.7	3.5	3.03e+01	0	38	104	0	60	74184
2026-01-02 20:15:00.63	32.79	2.29	-48.1	-64.9	3.5	3.03e+01	0	38	104	0	60	67664
2026-01-02 20:15:01.64	32.68	2.34	-48.1	-64.1	3.6	3.03e+01	0	38	104	0	60	61949
2026-01-02 20:15:02.65	32.58	2.39	-48.1	-64.1	3.5	3.03e+01	0	38	104	0	60	61675
2026-01-02 20:15:03.66	32.47	2.44	-48.1	-64.7	3.6	3.03e+01	0	38	104	0	60	66274
2026-01-02 20:15:04.67	32.36	2.49	-48.1	-65.8	3.5	3.03e+01	0	38	104	0	60	75100
2026-01-02 20:15:05.68	32.25	2.54	-48.1	-66.2	3.5	3.03e+01	0	38	104	0	60	79001
2026-01-02 20:15:06.69	32.14	2.59	-48.1	-65.3	3.5	3.03e+01	0	38	104	0	60	71233
2026-01-02 20:15:07.70	32.03	2.64	-48.1	-65.1	3.5	3.03e+01	0	38	104	0	60	69248
2026-01-02 20:15:08.71	31.93	2.69	-48.1	-65.5	3.5	3.03e+01	0	38	104	0	60	72736
2026-01-02 20:15:09.72	31.82	2.74	-48.1	-64.2	3.6	3.03e+01	0	38	104	0	60	62770
2026-01-02 20:15:10.73	31.71	2.79	-48.0	-61.7	3.7	3.03e+01	0	38	104	0	60	46596
2026-01-02 20:15:11.74	31.59	2.84	-47.9	-61.3	3.8	3.03e+01	0	38	104	0	60	44671
2026-01-02 20:15:12.75	31.48	2.89	-48.0	-62.8	4.1	3.03e+01	0	38	104	0	60	53153
2026-01-02 20:15:13.76	31.37	2.94	-48.0	-61.8	4.9	3.03e+01	0	38	104	0	60	47309
2026-01-02 20:15:14.77	31.26	2.99	-47.3	-55.1	10.6	3.03e+01	3	38	0	524288	60	21931
2026-01-02 20:15:15.78	31.15	3.04	-45.8	-50.3	15.4	3.03e+01	0	38	0	2621440	60	12622
2026-01-02 20:15:16.79	31.03	3.09	-46.6	-52.0	13.7	3.03e+01	0	38	0	4718592	60	15367
2026-01-02 20:15:17.80	30.92	3.13	-48.4	-62.9	3.7	3.03e+01	0	38	104	5767168	60	53903
2026-01-02 20:15:18.81	30.81	3.18	-43.8	-46.7	19.0	3.03e+01	0	38	0	5767168	60	8276
2026-01-02 20:15:19.82	30.69	3.23	-40.3	-42.1	23.4	3.03e+01	0	38	0	7864320	54	6919
2026-01-02 20:15:20.83	30.58	3.28	-47.8	-62.3	3.7	3.03e+01	0	38	104	9437184	60	50418
2026-01-02 20:15:21.84	30.46	3.33	-41.7	-43.8	22.9	3.03e+01	0	38	0	9437184	60	5940
2026-01-02 20:15:22.85	30.35	3.38	-40.6	-42.3	23.5	3.03e+01	0	38	0	11010048	56	6326
2026-01-02 20:15:23.86	30.23	3.43	-40.7	-42.5	23.7	3.03e+01	0	38	0	13107200	56	6438
2026-01-02 20:15:24.86	30.12	3.48	-40.9	-42.7	23.4	3.03e+01	0	38	0	15204352	56	6575
2026-01-02 20:15:25.87	30.00	3.53	-39.5	-41.0	25.0	3.03e+01	0	38	0	16777216	54	6133
2026-01-02 20:15:26.88	29.88	3.58	-39.6	-41.2	24.8	3.03e+01	0	38	0	18874368	54	6229
2026-01-02 20:15:27.89	29.77	3.63	-39.6	-41.2	24.7	3.03e+01	0	38	0	20447232	54	6257
2026-01-02 20:15:28.90	29.65	3.68	-39.4	-41.0	24.9	3.03e+01	0	38	0	22544384	54	6098
2026-01-02 20:15:29.91	29.53	3.73	-39.8	-41.5	24.5	3.03e+01	0	38	0	24641536	54	6425
2026-01-02 20:15:30.92	29.41	3.78	-39.4	-41.0	25.0	3.03e+01	0	38	0	26214400	54	6089
2026-01-02 20:15:31.93	29.29	3.83	-39.7	-41.3	24.7	3.03e+01	0	38	0	28311552	54	6331
2026-01-02 20:15:32.93	29.17	3.87	-39.3	-40.9	25.2	3.03e+01	0	38	0	29884416	54	6025
2026-01-02 20:15:33.94	29.05	3.92	-39.4	-41.0	25.0	3.03e+01	0	38	0	31981568	54	6077
2026-01-02 20:15:34.95	28.93	3.97	-39.5	-41.0	25.0	3.03e+01	0	38	0	34078720	54	6106
2026-01-02 20:15:35.96	28.81	4.02	-39.8	-41.4	24.7	3.03e+01	0	38	0	35651584	54	6362
2026-01-02 20:15:36.97	28.69	4.07	-39.5	-41.0	25.0	3.03e+01	0	38	0	37748736	54	6133
2026-01-02 20:15:37.98	28.57	4.12	-39.5	-41.1	25.0	3.03e+01	0	38	0	39845888	54	6186
2026-01-02 20:15:38.99	28.44	4.17	-39.3	-40.9	25.2	3.03e+01	0	38	0	41418752	54	6045
2026-01-02 20:15:40.00	28.32	4.22	-39.2	-40.8	25.2	3.03e+01	0	38	0	43515904	52	6677
2026-01-02 20:15:41.01	28.20	4.27	-39.2	-40.7	25.4	3.03e+01	0	38	0	45088768	52	6585
2026-01-02 20:15:42.02	28.07	4.32	-39.5	-41.1	24.9	3.03e+01	0	38	0	47185920	52	6895
2026-01-02 20:15:43.03	27.95	4.37	-39.3	-40.8	25.2	3.03e+01	0	38	0	49283072	52	6705
2026-01-02 20:15:44.04	27.82	4.42	-39.7	-41.2	25.1	3.03e+01	0	38	0	50855936	52	7038
2026-01-02 20:15:45.05	27.70	4.47	-38.9	-40.4	25.7	3.03e+01	0	38	0	52953088	52	6392
2026-01-02 20:15:46.06	27.57	4.52	-39.3	-40.8	25.4	3.03e+01	0	38	0	54525952	52	6657
2026-01-02 20:15:47.07	27.45	4.56	-39.7	-41.2	24.9	3.03e+01	0	38	0	56623104	52	7040
2026-01-02 20:15:48.07	27.32	4.61	-39.0	-40.5	25.6	3.03e+01	0	38	0	58720256	52	6435
2026-01-02 20:15:49.08	27.19	4.66	-39.0	-40.5	25.7	3.03e+01	0	38	0	60293120	52	6486
2026-01-02 20:15:50.09	27.06	4.71	-39.1	-40.6	25.6	3.03e+01	0	38	0	62390272	52	6533
2026-01-02 20:15:51.10	26.94	4.76	-38.9	-40.3	25.8	3.03e+01	0	38	0	63963136	52	6339
2026-01-02 20:15:52.11	26.81	4.81	-39.3	-40.9	25.4	3.03e+01	0	38	0	66060288	52	6733
2026-01-02 20:15:53.12	26.68	4.86	-39.0	-40.5	25.7	3.03e+01	0	38	0	68157440	52	6441
2026-01-02 20:15:54.13	26.55	4.91	-38.9	-40.3	25.9	3.03e+01	0	38	0	69730304	52	6320
2026-01-02 20:15:55.14	26.42	4.96	-39.0	-40.4	25.8	3.03e+01	0	38	0	71827456	52	6394
2026-01-02 20:15:56.15	26.29	5.01	-38.9	-40.4	25.8	3.03e+01	0	38	0	73400320	52	6392
2026-01-02 20:15:57.16	26.16	5.05	-38.9	-40.4	25.9	3.03e+01	0	38	0	75497472	52	6352
2026-01-02 20:15:58.17	26.02	5.10	-38.7	-40.2	26.1	3.03e+01	0	38	0	77594624	52	6213
2026-01-02 20:15:59.18	25.89	5.15	-38.7	-40.2	26.1	3.03e+01	0	38	0	79167488	52	6208
2026-01-02 20:16:00.18	25.76	5.20	-38.7	-40.2	26.1	3.03e+01	0	38	0	81264640	52	6213
2026-01-02 20:16:01.19	25.63	5.25	-39.0	-40.5	25.7	3.03e+01	0	38	0	83361792	52	6448
2026-01-02 20:16:02.20	25.49	5.30	-39.0	-40.5	25.8	3.03e+01	0	38	0	84934656	52	6429
2026-01-02 20:16:03.21	25.36	5.35	-38.8	-40.3	25.9	3.03e+01	0	38	0	87031808	52	6320
2026-01-02 20:16:04.22	25.22	5.40	-39.1	-40.6	25.6	3.03e+01	0	38	0	88604672	52	6554
2026-01-02 20:16:05.23	25.09	5.44	-39.1	-40.6	25.7	3.03e+01	0	38	0	90701824	52	6530
2026-01-02 20:16:06.24	24.95	5.49	-39.1	-40.5	25.7	3.03e+01	0	38	0	92798976	52	6483
2026-01-02 20:16:07.25	24.82	5.54	-39.4	-40.9	25.4	3.03e+01	0	38	0	94371840	52	6787
2026-01-02 20:16:08.26	24.68	5.59	-38.9	-40.4	26.0	3.03e+01	0	38	0	96468992	52	6381
2026-01-02 20:16:09.26	24.54	5.64	-39.0	-40.5	25.9	3.03e+01	0	38	0	98041856	52	6455
2026-01-02 20:16:10.28	24.41	5.69	-39.0	-40.5	26.0	3.03e+01	0	38	0	100139008	52	6436
2026-01-02 20:16:11.29	24.27	5.73	-38.6	-40.0	26.3	3.03e+01	0	38	0	102236160	52	6109
2026-01-02 20:16:12.29	24.13	5.78	-38.9	-40.4	25.9	3.03e+01	0	38	0	103809024	52	6377
2026-01-02 20:16:13.30	23.99	5.83	-38.7	-40.1	26.3	3.03e+01	0	38	0	105906176	52	6185
2026-01-02 20:16:14.31	23.85	5.88	-38.7	-40.1	26.2	3.03e+01	0	38	0	108003328	52	6159
2026-01-02 20:16:15.32	23.71	5.93	-38.6	-40.0	26.4	3.03e+01	0	38	0	109576192	52	6108
2026-01-02 20:16:16.33	23.57	5.98	-38.9	-40.4	26.0	3.03e+01	0	38	0	111673344	52	6363
2026-01-02 20:16:17.34	23.43	6.02	-38.5	-39.9	26.4	3.03e+01	0	38	0	113246208	52	6048
2026-01-02 20:16:18.35	23.29	6.07	-38.9	-40.3	26.1	3.03e+01	0	38	0	115343360	52	6338
2026-01-02 20:16:19.36	23.14	6.12	-38.7	-40.1	26.2	3.03e+01	0	38	0	117440512	52	6167
2026-01-02 20:16:20.37	23.00	6.17	-38.4	-39.8	26.5	3.03e+01	0	38	0	119013376	52	5964
2026-01-02 20:16:21.38	22.86	6.21	-38.6	-40.0	26.4	3.03e+01	0	38	0	121110528	52	6087
2026-01-02 20:16:22.39	22.71	6.26	-39.0	-40.4	26.1	3.03e+01	0	38	0	122683392	52	6400
2026-01-02 20:16:23.40	22.57	6.31	-38.5	-39.9	26.6	3.03e+01	0	38	0	124780544	52	6002
2026-01-02 20:16:24.41	22.42	6.36	-38.6	-40.0	26.4	3.03e+01	0	38	0	126353408	52	6067
2026-01-02 20:16:25.42	22.28	6.41	-38.4	-39.8	26.4	3.03e+01	0	38	0	128450560	52	5978
2026-01-02 20:16:26.43	22.13	6.45	-38.7	-40.1	26.4	3.03e+01	0	38	0	130547712	52	6181
2026-01-02 20:16:27.44	21.99	6.50	-38.7	-40.1	26.4	3.03e+01	0	38	0	132120576	52	6142
2026-01-02 20:16:28.44	21.84	6.55	-38.4	-39.8	26.6	3.03e+01	0	38	0	134217728	52	5932
2026-01-02 20:16:29.45	21.69	6.59	-38.5	-39.9	26.5	3.03e+01	0	38	0	136314880	52	6047
2026-01-02 20:16:30.46	21.54	6.64	-38.7	-40.1	26.4	3.03e+01	0	38	0	137887744	52	6145
2026-01-02 20:16:31.47	21.40	6.69	-38.8	-40.2	26.2	3.03e+01	0	38	0	139984896	52	6261
2026-01-02 20:16:32.48	21.25	6.74	-38.6	-40.0	26.5	3.03e+01	0	38	0	141557760	52	6079
2026-01-02 20:16:33.49	21.10	6.78	-38.3	-39.7	26.7	3.03e+01	0	38	0	143654912	52	5898
2026-01-02 20:16:34.50	20.95	6.83	-38.2	-39.5	26.9	3.03e+01	0	38	0	145752064	52	5771
2026-01-02 20:16:35.51	20.80	6.88	-38.5	-39.8	26.6	3.03e+01	0	38	0	147324928	52	5994
2026-01-02 20:16:36.52	20.64	6.92	-38.4	-39.8	26.7	3.03e+01	0	38	0	149422080	52	5956
2026-01-02 20:16:37.53	20.49	6.97	-38.3	-39.6	26.8	3.03e+01	0	38	0	151519232	52	5834
2026-01-02 20:16:38.54	20.34	7.02	-38.3	-39.6	26.8	3.03e+01	0	38	0	153092096	52	5838
2026-01-02 20:16:39.55	20.19	7.06	-38.3	-39.7	26.8	3.03e+01	0	38	0	155189248	52	5870
2026-01-02 20:16:40.56	20.03	7.11	-38.4	-39.8	26.7	3.03e+01	0	38	0	156762112	52	5929
2026-01-02 20:16:41.57	19.88	7.16	-38.3	-39.7	26.8	3.03e+01	0	38	0	158859264	52	5880
2026-01-02 20:16:42.58	19.72	7.20	-38.3	-39.7	26.7	3.03e+01	0	38	0	160956416	52	5888
2026-01-02 20:16:43.58	19.57	7.25	-38.1	-39.5	27.0	3.03e+01	0	38	0	162529280	52	5735
2026-01-02 20:16:44.59	19.41	7.29	-38.2	-39.5	26.9	3.03e+01	0	38	0	164626432	52	5782
2026-01-02 20:16:45.60	19.26	7.34	-38.3	-39.6	26.9	3.03e+01	0	38	0	166199296	52	5842
2026-01-02 20:16:46.61	19.10	7.39	-38.2	-39.6	26.9	3.03e+01	0	38	0	168296448	52	5811
2026-01-02 20:16:47.62	18.94	7.43	-38.2	-39.6	26.9	3.03e+01	0	38	0	170393600	52	5802
2026-01-02 20:16:48.63	18.79	7.48	-38.2	-39.5	27.0	3.03e+01	0	38	0	171966464	52	5789
2026-01-02 20:16:49.64	18.63	7.52	-38.1	-39.5	27.0	3.03e+01	0	38	0	174063616	52	5755
2026-01-02 20:16:50.65	18.47	7.57	-38.2	-39.5	27.0	3.03e+01	0	38	0	175636480	52	5782
2026-01-02 20:16:51.66	18.31	7.61	-38.1	-39.5	27.0	3.03e+01	0	38	0	177733632	52	5742
2026-01-02 20:16:52.67	18.15	7.66	-38.1	-39.5	27.1	3.03e+01	0	38	0	179830784	52	5735
2026-01-02 20:16:53.68	17.99	7.70	-38.3	-39.6	26.9	3.03e+01	0	38	0	181403648	52	5843
2026-01-02 20:16:54.68	17.83	7.75	-38.2	-39.6	27.0	3.03e+01	0	38	0	183500800	52	5798
2026-01-02 20:16:55.69	17.67	7.79	-38.2	-39.5	26.9	3.03e+01	0	38	0	185073664	52	5766
2026-01-02 20:16:56.70	17.50	7.84	-38.0	-39.4	27.2	3.03e+01	0	38	0	187170816	52	5667
2026-01-02 20:16:57.71	17.34	7.88	-38.4	-39.7	26.8	3.03e+01	0	38	0	189267968	52	5902
2026-01-02 20:16:58.72	17.18	7.93	-38.2	-39.5	27.0	3.03e+01	0	38	0	190840832	52	5779
2026-01-02 20:16:59.73	17.01	7.97	-38.3	-39.6	27.0	3.03e+01	0	38	0	192937984	52	5830
2026-01-02 20:17:00.74	16.85	8.02	-38.3	-39.6	27.0	3.03e+01	0	38	0	194510848	52	5833
2026-01-02 20:17:01.75	16.68	8.06	-38.2	-39.6	27.0	3.03e+01	0	38	0	196608000	52	5792
2026-01-02 20:17:02.76	16.52	8.10	-38.4	-39.8	26.9	3.03e+01	0	39	0	198705152	52	5935
2026-01-02 20:17:03.77	16.35	8.15	-37.9	-39.3	27.2	3.03e+01	0	38	0	200278016	50	6286
2026-01-02 20:17:04.78	16.18	8.19	-38.1	-39.4	27.1	3.03e+01	0	38	0	202375168	50	6394
2026-01-02 20:17:05.79	16.02	8.23	-38.1	-39.4	27.1	3.03e+01	0	38	0	204472320	50	6412
2026-01-02 20:17:06.80	15.85	8.28	-38.0	-39.3	27.2	3.03e+01	0	38	0	206045184	50	6341
2026-01-02 20:17:07.81	15.68	8.32	-38.2	-39.6	27.1	3.03e+01	0	39	0	208142336	50	6499
2026-01-02 20:17:08.82	15.51	8.36	-38.4	-39.7	26.9	3.03e+01	0	38	0	209715200	50	6638
2026-01-02 20:17:09.82	15.34	8.41	-38.1	-39.4	27.1	3.03e+01	0	39	0	211812352	50	6411
2026-01-02 20:17:10.84	15.17	8.45	-37.9	-39.2	27.3	3.03e+01	0	39	0	213909504	50	6260
2026-01-02 20:17:11.84	15.00	8.49	-37.9	-39.2	27.3	3.03e+01	0	38	0	215482368	50	6261
2026-01-02 20:17:12.86	14.83	8.54	-37.8	-39.2	27.3	3.03e+01	0	38	0	217579520	50	6221
2026-01-02 20:17:13.86	14.66	8.58	-37.8	-39.2	27.4	3.03e+01	0	38	0	219676672	50	6222
2026-01-02 20:17:14.87	14.49	8.62	-38.0	-39.3	27.3	3.03e+01	0	38	0	221249536	50	6301
2026-01-02 20:17:15.88	14.32	8.66	-38.0	-39.3	27.2	3.03e+01	0	38	0	223346688	50	6341
2026-01-02 20:17:16.89	14.14	8.70	-38.0	-39.3	27.2	3.03e+01	0	39	0	224919552	50	6349
2026-01-02 20:17:17.90	13.97	8.75	-37.9	-39.3	27.3	3.03e+01	0	38	0	227016704	50	6288
2026-01-02 20:17:18.91	13.79	8.79	-38.3	-39.6	27.0	3.03e+01	0	39	0	229113856	50	6570
2026-01-02 20:17:19.92	13.62	8.83	-38.6	-39.9	26.8	3.03e+01	0	38	0	230686720	50	6786
2026-01-02 20:17:20.93	13.44	8.87	-38.4	-39.7	26.8	3.03e+01	0	38	0	232783872	50	6644
2026-01-02 20:17:21.94	13.27	8.91	-38.6	-40.0	26.8	3.03e+01	0	38	0	234356736	50	6827
2026-01-02 20:17:22.95	13.09	8.95	-38.2	-39.6	27.1	3.03e+01	0	39	0	236453888	50	6520
2026-01-02 20:17:23.96	12.91	8.99	-38.2	-39.6	27.2	3.03e+01	0	38	0	238551040	50	6503
2026-01-02 20:17:24.97	12.73	9.04	-38.0	-39.3	27.2	3.03e+01	0	38	0	240123904	50	6346
2026-01-02 20:17:25.98	12.56	9.08	-38.2	-39.5	27.0	3.03e+01	0	39	0	242221056	50	6486
2026-01-02 20:17:26.99	12.38	9.12	-38.2	-39.5	27.1	3.03e+01	0	39	0	243793920	50	6462
2026-01-02 20:17:28.00	12.20	9.16	-38.4	-39.8	26.8	3.03e+01	0	39	0	245891072	50	6679
2026-01-02 20:17:29.00	12.02	9.20	-38.2	-39.6	27.0	3.03e+01	0	38	0	247988224	50	6531
2026-01-02 20:17:30.01	11.84	9.24	-37.8	-39.1	27.5	3.03e+01	0	39	0	249561088	50	6176
2026-01-02 20:17:31.02	11.66	9.28	-38.0	-39.3	27.4	3.03e+01	0	38	0	251658240	50	6305
2026-01-02 20:17:32.03	11.48	9.31	-37.7	-39.0	27.6	3.03e+01	0	38	0	253231104	50	6087
2026-01-02 20:17:33.04	11.29	9.35	-37.7	-39.1	27.5	3.03e+01	0	39	0	255328256	50	6142
2026-01-02 20:17:34.05	11.11	9.39	-37.8	-39.2	27.4	3.03e+01	0	39	0	257425408	50	6211
2026-01-02 20:17:35.06	10.93	9.43	-37.8	-39.1	27.5	3.03e+01	0	39	0	258998272	50	6151
2026-01-02 20:17:36.07	10.74	9.47	-37.8	-39.2	27.4	3.03e+01	0	39	0	261095424	50	6220
2026-01-02 20:17:37.08	10.56	9.51	-38.0	-39.3	27.3	3.03e+01	0	39	0	262668288	50	6336
2026-01-02 20:17:38.09	10.37	9.55	-37.8	-39.2	27.4	3.03e+01	0	38	0	264765440	50	6214
2026-01-02 20:17:39.10	10.19	9.59	-37.8	-39.1	27.5	3.03e+01	0	39	0	266862592	50	6194
2026-01-02 20:17:40.11	10.00	9.62	-37.7	-39.0	27.6	3.03e+01	0	39	0	268435456	50	6097
2026-01-02 20:17:41.12	9.82	9.66	-37.6	-38.9	27.7	3.03e+01	0	39	0	270532608	50	6002
2026-01-02 20:17:42.13	9.63	9.70	-37.7	-39.0	27.6	3.03e+01	0	39	0	272629760	50	6099
2026-01-02 20:17:43.14	9.44	9.74	-37.7	-39.0	27.5	3.03e+01	0	39	0	274202624	50	6083
2026-01-02 20:17:44.15	9.25	9.77	-37.7	-39.0	27.7	3.03e+01	0	39	0	276299776	50	6088
2026-01-02 20:17:45.16	9.07	9.81	-37.7	-39.0	27.6	3.03e+01	0	39	0	277872640	50	6105
2026-01-02 20:17:46.17	8.88	9.85	-37.7	-39.0	27.5	3.03e+01	0	39	0	279969792	50	6095
2026-01-02 20:17:47.18	8.69	9.88	-37.8	-39.1	27.6	3.03e+01	0	39	0	282066944	50	6198
2026-01-02 20:17:48.18	8.50	9.92	-37.6	-38.9	27.6	3.03e+01	0	39	0	283639808	50	6064
2026-01-02 20:17:49.20	8.31	9.95	-37.6	-38.9	27.6	3.03e+01	0	39	0	285736960	50	6027
2026-01-02 20:17:50.20	8.12	9.99	-37.6	-38.9	27.7	3.03e+01	0	39	0	287309824	50	6023
2026-01-02 20:17:51.22	7.92	10.03	-37.6	-38.9	27.7	3.03e+01	0	39	0	289406976	50	6062
2026-01-02 20:17:52.22	7.73	10.06	-37.7	-39.1	27.6	3.03e+01	0	39	0	291504128	50	6138
2026-01-02 20:17:53.23	7.54	10.10	-37.6	-38.9	27.7	3.03e+01	0	39	0	293076992	50	6012
2026-01-02 20:17:54.24	7.35	10.13	-37.7	-39.0	27.6	3.03e+01	0	39	0	295174144	50	6107
2026-01-02 20:17:55.25	7.15	10.16	-37.6	-38.9	27.8	3.03e+01	0	39	0	296747008	50	6006
2026-01-02 20:17:56.26	6.96	10.20	-37.6	-38.9	27.7	3.03e+01	0	39	0	298844160	50	6051
2026-01-02 20:17:57.27	6.77	10.23	-37.7	-39.0	27.6	3.03e+01	0	39	0	300941312	50	6085
2026-01-02 20:17:58.28	6.57	10.27	-37.6	-38.9	27.7	3.03e+01	0	39	0	302514176	50	6004
2026-01-02 20:17:59.29	6.37	10.30	-37.6	-38.9	27.7	3.03e+01	0	39	0	304611328	50	6046
2026-01-02 20:18:00.30	6.18	10.33	-37.6	-38.9	27.7	3.03e+01	0	39	0	306184192	50	6044
2026-01-02 20:18:01.31	5.98	10.37	-37.8	-39.1	27.5	3.03e+01	0	39	0	308281344	50	6205
2026-01-02 20:18:02.32	5.78	10.40	-37.8	-39.1	27.7	3.03e+01	0	39	0	310378496	50	6201
2026-01-02 20:18:03.33	5.59	10.43	-37.7	-39.0	27.5	3.03e+01	0	39	0	311951360	50	6097
2026-01-02 20:18:04.34	5.39	10.46	-38.0	-39.3	27.5	3.03e+01	0	39	0	314048512	50	6341
2026-01-02 20:18:05.34	5.19	10.49	-37.6	-38.9	27.7	3.03e+01	0	39	0	316145664	50	6040
2026-01-02 20:18:06.35	4.99	10.53	-37.7	-39.0	27.6	3.03e+01	0	39	0	317718528	50	6109
2026-01-02 20:18:07.36	4.79	10.56	-37.7	-39.0	27.7	3.03e+01	0	39	0	319815680	50	6108
2026-01-02 20:18:08.37	4.59	10.59	-37.6	-38.9	27.8	3.03e+01	0	39	0	321388544	50	6060
2026-01-02 20:18:09.38	4.39	10.62	-37.5	-38.8	27.9	3.03e+01	0	39	0	323485696	50	5949
2026-01-02 20:18:10.39	4.19	10.65	-37.5	-38.8	27.9	3.03e+01	0	39	0	325582848	50	5946
2026-01-02 20:18:11.40	3.99	10.68	-37.6	-38.8	27.8	3.03e+01	0	39	0	327155712	50	5993
2026-01-02 20:18:12.41	3.79	10.71	-37.6	-38.9	27.8	3.03e+01	0	39	0	329252864	50	6016
2026-01-02 20:18:13.42	3.59	10.74	-37.7	-39.0	27.6	3.03e+01	0	39	0	330825728	50	6100
2026-01-02 20:18:14.43	3.38	10.77	-37.6	-38.9	27.7	3.03e+01	0	39	0	332922880	50	6039
2026-01-02 20:18:15.44	3.18	10.80	-37.7	-39.0	27.8	3.03e+01	0	39	0	335020032	50	6076
2026-01-02 20:18:16.45	2.98	10.83	-37.6	-38.9	27.8	3.03e+01	0	39	0	336592896	50	6051
2026-01-02 20:18:17.46	2.77	10.86	-37.7	-39.0	27.9	3.03e+01	0	39	0	338690048	50	6101
2026-01-02 20:18:18.47	2.57	10.88	-37.7	-38.9	27.8	3.03e+01	0	39	0	340787200	50	6058
2026-01-02 20:18:19.48	2.36	10.91	-37.6	-38.9	27.8	3.03e+01	0	39	0	342360064	50	6008
2026-01-02 20:18:20.49	2.16	10.94	-37.7	-39.0	27.6	3.03e+01	0	39	0	344457216	50	6117
2026-01-02 20:18:21.50	1.95	10.97	-37.4	-38.7	28.0	3.03e+01	0	39	0	346030080	50	5878
2026-01-02 20:18:22.51	1.75	10.99	-37.5	-38.7	28.0	3.03e+01	0	39	0	348127232	50	5925
2026-01-02 20:18:23.52	1.54	11.02	-37.3	-38.6	28.1	3.03e+01	0	39	0	350224384	50	5832
2026-01-02 20:18:24.52	1.34	11.05	-37.6	-38.9	27.9	3.03e+01	0	39	0	351797248	50	6000
2026-01-02 20:18:25.54	1.13	11.07	-37.5	-38.8	27.9	3.03e+01	0	39	0	353894400	50	5935
2026-01-02 20:18:26.55	0.92	11.10	-37.6	-38.9	27.8	3.03e+01	0	39	0	355467264	50	6051
2026-01-02 20:18:27.56	0.71	11.12	-37.6	-38.9	27.8	3.03e+01	0	39	0	357564416	50	6028
2026-01-02 20:18:28.57	0.50	11.15	-37.6	-38.9	27.9	3.03e+01	0	39	0	359661568	50	6025
2026-01-02 20:18:29.58	0.29	11.17	-37.5	-38.8	28.0	3.03e+01	0	39	0	361234432	50	5928
2026-01-02 20:18:30.59	0.08	11.20	-37.4	-38.7	28.0	3.03e+01	0	39	0	363331584	50	5859
2026-01-02 20:18:31.60	359.87	11.22	-37.5	-38.7	28.0	3.03e+01	0	39	0	364904448	50	5921
2026-01-02 20:18:32.61	359.66	11.25	-37.5	-38.8	28.0	3.03e+01	0	39	0	367001600	50	5927
2026-01-02 20:18:33.62	359.45	11.27	-37.6	-38.9	27.9	3.03e+01	0	39	0	369098752	50	5999
2026-01-02 20:18:34.63	359.24	11.29	-37.6	-38.9	27.8	3.03e+01	0	39	0	370671616	50	6023
2026-01-02 20:18:35.64	359.03	11.32	-37.7	-39.0	27.7	3.03e+01	0	39	0	372768768	50	6107
2026-01-02 20:18:36.64	358.82	11.34	-37.6	-38.9	27.8	3.03e+01	0	39	0	374341632	50	6006
2026-01-02 20:18:37.65	358.61	11.36	-37.6	-38.9	27.8	3.03e+01	0	39	0	376438784	50	6001
2026-01-02 20:18:38.66	358.40	11.38	-37.5	-38.8	27.9	3.03e+01	0	39	0	378535936	50	5989
2026-01-02 20:18:39.67	358.19	11.41	-37.4	-38.7	28.0	3.03e+01	0	39	0	380108800	50	5897
2026-01-02 20:18:40.68	357.97	11.43	-37.3	-38.5	28.2	3.03e+01	0	39	0	382205952	50	5791
2026-01-02 20:18:41.69	357.76	11.45	-37.4	-38.7	28.0	3.03e+01	0	39	0	384303104	50	5906
2026-01-02 20:18:42.70	357.55	11.47	-37.6	-38.9	27.8	3.03e+01	0	39	0	385875968	50	6016
2026-01-02 20:18:43.71	357.33	11.49	-37.6	-38.9	27.8	3.03e+01	0	39	0	387973120	50	6040
2026-01-02 20:18:44.72	357.12	11.51	-37.7	-39.0	27.8	3.03e+01	0	39	0	389545984	50	6079
2026-01-02 20:18:45.73	356.90	11.53	-37.7	-39.0	27.7	3.03e+01	0	39	0	391643136	50	6090
2026-01-02 20:18:46.74	356.69	11.55	-37.6	-38.9	27.8	3.03e+01	0	39	0	393740288	50	6053
2026-01-02 20:18:47.75	356.47	11.56	-37.5	-38.8	27.9	3.03e+01	0	39	0	395313152	50	5955
2026-01-02 20:18:48.76	356.26	11.58	-37.5	-38.8	28.0	3.03e+01	0	39	0	397410304	50	5936
2026-01-02 20:18:49.77	356.04	11.60	-37.6	-38.9	27.9	3.03e+01	0	39	0	398983168	50	6012
2026-01-02 20:18:50.78	355.83	11.62	-37.6	-38.9	27.9	3.03e+01	0	39	0	401080320	50	6015
2026-01-02 20:18:51.79	355.61	11.64	-37.7	-38.9	27.9	3.03e+01	0	39	0	403177472	50	6060
2026-01-02 20:18:52.80	355.39	11.65	-37.7	-39.0	27.8	3.03e+01	0	39	0	404750336	50	6073
2026-01-02 20:18:53.80	355.18	11.67	-37.7	-39.0	27.8	3.03e+01	0	39	0	406847488	50	6066
2026-01-02 20:18:54.81	354.96	11.69	-37.6	-38.9	27.8	3.03e+01	0	39	0	408944640	50	6033
2026-01-02 20:18:55.82	354.74	11.70	-37.6	-38.9	27.9	3.03e+01	0	39	0	410517504	50	6005
2026-01-02 20:18:56.83	354.53	11.72	-37.6	-38.9	27.9	3.03e+01	0	39	0	412614656	50	6041
2026-01-02 20:18:57.84	354.31	11.73	-37.5	-38.8	27.9	3.03e+01	0	39	0	414187520	50	5966
2026-01-02 20:18:58.85	354.09	11.75	-37.7	-39.0	27.8	3.03e+01	0	39	0	416284672	50	6066
2026-01-02 20:18:59.86	353.87	11.76	-37.6	-38.9	27.8	3.03e+01	0	39	0	418381824	50	6058
2026-01-02 20:19:00.87	353.65	11.78	-37.6	-38.9	27.8	3.03e+01	0	39	0	419954688	50	6037
2026-01-02 20:19:01.88	353.43	11.79	-37.7	-39.0	27.7	3.03e+01	0	39	0	422051840	50	6083
2026-01-02 20:19:02.89	353.21	11.80	-37.7	-39.0	27.8	3.03e+01	0	39	0	423624704	50	6087
2026-01-02 20:19:03.90	353.00	11.82	-37.6	-38.9	27.8	3.03e+01	0	39	0	425721856	50	6021
2026-01-02 20:19:04.91	352.78	11.83	-37.8	-39.1	27.7	3.03e+01	0	39	0	427294720	50	6163
2026-01-02 20:19:05.92	352.56	11.84	-37.7	-39.0	27.8	3.03e+01	0	39	0	429391872	50	6077
2026-01-02 20:19:06.93	352.34	11.85	-37.7	-39.0	27.7	3.03e+01	0	39	0	431489024	50	6101
2026-01-02 20:19:07.94	352.12	11.86	-37.7	-39.0	27.7	3.03e+01	0	39	0	433061888	50	6132
2026-01-02 20:19:08.95	351.90	11.87	-37.7	-39.0	27.7	3.03e+01	0	39	0	435159040	50	6099
2026-01-02 20:19:09.96	351.68	11.88	-37.5	-38.8	28.0	3.03e+01	0	39	0	437256192	50	5947
2026-01-02 20:19:10.97	351.46	11.89	-37.5	-38.7	28.0	3.03e+01	0	39	0	438829056	50	5923
2026-01-02 20:19:11.98	351.23	11.90	-37.6	-38.9	27.9	3.03e+01	0	39	0	440926208	50	6010
2026-01-02 20:19:12.99	351.01	11.91	-37.6	-38.9	27.9	3.03e+01	0	39	0	442499072	50	6022
2026-01-02 20:19:13.99	350.79	11.92	-37.8	-39.1	27.7	3.03e+01	0	39	0	444596224	50	6142
2026-01-02 20:19:15.00	350.57	11.93	-37.7	-39.0	27.8	3.03e+01	0	39	0	446693376	50	6095
2026-01-02 20:19:16.01	350.35	11.94	-37.6	-38.9	27.8	3.03e+01	0	39	0	448266240	50	6052
2026-01-02 20:19:17.02	350.13	11.95	-37.7	-38.9	27.8	3.03e+01	0	39	0	450363392	50	6044
2026-01-02 20:19:18.03	349.91	11.96	-37.6	-38.8	27.9	3.03e+01	0	39	0	452460544	50	5985
2026-01-02 20:19:19.04	349.69	11.96	-37.7	-39.0	27.7	3.03e+01	0	39	0	454033408	50	6117
2026-01-02 20:19:20.04	349.47	11.97	-37.8	-39.1	27.7	3.03e+01	0	39	0	456130560	50	6165
2026-01-02 20:19:21.05	349.25	11.98	-38.0	-39.3	27.5	3.03e+01	0	39	0	457703424	50	6336
2026-01-02 20:19:22.06	349.02	11.98	-37.8	-39.1	27.7	3.03e+01	0	39	0	459800576	50	6140
2026-01-02 20:19:23.07	348.80	11.99	-37.7	-39.0	27.7	3.03e+01	0	39	0	461897728	50	6122
2026-01-02 20:19:24.08	348.58	11.99	-37.7	-39.0	27.8	3.03e+01	0	39	0	463470592	50	6096
2026-01-02 20:19:25.09	348.36	12.00	-37.6	-38.9	27.8	3.03e+01	0	39	0	465567744	50	6040
2026-01-02 20:19:26.10	348.13	12.00	-37.8	-39.1	27.8	3.03e+01	0	39	0	467140608	50	6156
2026-01-02 20:19:27.11	347.91	12.00	-37.7	-39.0	27.7	3.03e+01	0	39	0	469237760	50	6093
2026-01-02 20:19:28.12	347.69	12.01	-37.7	-39.0	27.8	3.03e+01	0	39	0	471334912	50	6120
2026-01-02 20:19:29.12	347.47	12.01	-37.7	-39.0	27.9	3.03e+01	0	39	0	472907776	50	6118
2026-01-02 20:19:30.14	347.24	12.01	-37.8	-39.1	27.7	3.03e+01	0	39	0	475004928	50	6199
2026-01-02 20:19:31.15	347.02	12.02	-37.8	-39.1	27.7	3.03e+01	0	39	0	476577792	50	6198
2026-01-02 20:19:32.16	346.80	12.02	-37.8	-39.1	27.7	3.03e+01	0	39	0	478674944	50	6155
2026-01-02 20:19:33.16	346.58	12.02	-37.8	-39.1	27.7	3.03e+01	0	39	0	480772096	50	6195
2026-01-02 20:19:34.17	346.36	12.02	-37.9	-39.2	27.6	3.03e+01	0	39	0	482344960	50	6227
2026-01-02 20:19:35.18	346.13	12.02	-37.8	-39.0	27.8	3.03e+01	0	39	0	484442112	50	6130
2026-01-02 20:19:36.19	345.91	12.02	-37.9	-39.2	27.6	3.03e+01	0	39	0	486014976	50	6274
2026-01-02 20:19:37.19	345.69	12.02	-37.8	-39.1	27.7	3.03e+01	0	39	0	488112128	50	6179
2026-01-02 20:19:38.20	345.47	12.02	-38.0	-39.3	27.6	3.03e+01	0	39	0	490209280	50	6322
2026-01-02 20:19:39.21	345.24	12.02	-37.7	-39.0	27.8	3.03e+01	0	39	0	491782144	50	6087
2026-01-02 20:19:40.22	345.02	12.02	-37.7	-39.0	27.8	3.03e+01	0	39	0	493879296	50	6096
2026-01-02 20:19:41.23	344.80	12.02	-37.8	-39.1	27.7	3.03e+01	0	39	0	495452160	50	6146
2026-01-02 20:19:42.24	344.58	12.02	-37.8	-39.1	27.7	3.03e+01	0	39	0	497549312	50	6157
2026-01-02 20:19:43.25	344.35	12.01	-37.9	-39.2	27.6	3.03e+01	0	39	0	499646464	50	6233
2026-01-02 20:19:44.26	344.13	12.01	-37.9	-39.2	27.7	3.03e+01	0	39	0	501219328	50	6227
2026-01-02 20:19:45.27	343.91	12.01	-38.0	-39.3	27.6	3.03e+01	0	39	0	503316480	50	6299
2026-01-02 20:19:46.28	343.69	12.00	-37.8	-39.1	27.8	3.03e+01	0	39	0	505413632	50	6151
2026-01-02 20:19:47.29	343.46	12.00	-37.7	-39.0	27.8	3.03e+01	0	39	0	506986496	50	6121
2026-01-02 20:19:48.30	343.24	11.99	-37.8	-39.0	27.8	3.03e+01	0	39	0	509083648	50	6130
2026-01-02 20:19:49.31	343.02	11.99	-37.7	-39.0	27.8	3.03e+01	0	39	0	510656512	50	6097
2026-01-02 20:19:50.32	342.80	11.98	-37.9	-39.2	27.7	3.03e+01	0	39	0	512753664	50	6230
2026-01-02 20:19:51.32	342.58	11.98	-37.9	-39.2	27.6	3.03e+01	0	39	0	514850816	50	6227
2026-01-02 20:19:52.33	342.35	11.97	-38.1	-39.5	27.3	3.03e+01	0	39	0	516423680	50	6426
2026-01-02 20:19:53.34	342.13	11.97	-37.9	-39.2	27.6	3.03e+01	0	39	0	518520832	50	6247
2026-01-02 20:19:54.35	341.91	11.96	-38.0	-39.3	27.5	3.03e+01	0	39	0	520093696	50	6345
2026-01-02 20:19:55.36	341.69	11.95	-37.7	-38.9	27.9	3.03e+01	0	39	0	522190848	50	6051
2026-01-02 20:19:56.37	341.47	11.95	-37.9	-39.2	27.7	3.03e+01	0	39	0	524288000	50	6229
2026-01-02 20:19:57.38	341.25	11.94	-37.9	-39.2	27.7	3.03e+01	0	39	0	525860864	50	6211
2026-01-02 20:19:58.39	341.02	11.93	-37.9	-39.2	27.7	3.03e+01	0	39	0	527958016	50	6261
2026-01-02 20:19:59.40	340.80	11.92	-37.9	-39.1	27.8	3.03e+01	0	39	0	529530880	50	6201
2026-01-02 20:20:00.41	340.58	11.91	-38.0	-39.3	27.5	3.03e+01	0	39	0	531628032	50	6340
2026-01-02 20:20:01.42	340.36	11.90	-37.9	-39.2	27.6	3.03e+01	0	39	0	533725184	50	6262
2026-01-02 20:20:02.43	340.14	11.89	-37.9	-39.2	27.7	3.03e+01	0	39	0	535298048	50	6211
2026-01-02 20:20:03.44	339.92	11.88	-37.8	-39.1	27.7	3.03e+01	0	39	0	537395200	50	6203
2026-01-02 20:20:04.45	339.70	11.87	-38.2	-39.5	27.6	3.03e+01	0	39	0	538968064	50	6439
2026-01-02 20:20:05.46	339.48	11.86	-38.2	-39.5	27.3	3.03e+01	0	39	0	541065216	50	6492
2026-01-02 20:20:06.47	339.26	11.85	-38.5	-39.8	27.0	3.03e+01	0	39	0	543162368	50	6701
2026-01-02 20:20:07.48	339.04	11.84	-38.1	-39.5	27.3	3.03e+01	0	39	0	544735232	50	6429
2026-01-02 20:20:08.49	338.82	11.82	-38.0	-39.3	27.6	3.03e+01	0	39	0	546832384	50	6289
2026-01-02 20:20:09.49	338.60	11.81	-38.0	-39.3	27.6	3.03e+01	0	39	0	548929536	50	6319
2026-01-02 20:20:10.50	338.38	11.80	-37.9	-39.2	27.7	3.03e+01	0	39	0	550502400	50	6223
2026-01-02 20:20:11.51	338.16	11.78	-38.4	-39.8	27.1	3.03e+01	0	39	0	552599552	50	6662
2026-01-02 20:20:12.52	337.94	11.77	-37.7	-39.0	27.8	3.03e+01	0	39	0	554172416	50	6078
2026-01-02 20:20:13.53	337.73	11.76	-38.2	-39.5	27.4	3.03e+01	0	39	0	556269568	50	6486
2026-01-02 20:20:14.54	337.51	11.74	-37.8	-39.1	27.7	3.03e+01	0	39	0	558366720	50	6163
2026-01-02 20:20:15.55	337.29	11.73	-38.2	-39.6	27.3	3.03e+01	0	39	0	559939584	50	6502
2026-01-02 20:20:16.56	337.07	11.71	-38.3	-39.6	27.2	3.03e+01	0	39	0	562036736	50	6541
2026-01-02 20:20:17.57	336.85	11.70	-38.5	-39.9	26.9	3.03e+01	0	39	0	563609600	50	6796
2026-01-02 20:20:18.57	336.64	11.68	-38.7	-40.1	26.9	3.03e+01	0	39	0	565706752	50	6951
2026-01-02 20:20:19.59	336.42	11.66	-38.5	-39.8	27.0	3.03e+01	0	39	0	567803904	50	6712
2026-01-02 20:20:20.59	336.20	11.65	-38.9	-40.3	26.8	3.03e+01	0	39	0	569376768	50	7110
2026-01-02 20:20:21.60	335.99	11.63	-38.0	-39.3	27.6	3.03e+01	0	39	0	571473920	52	5620
2026-01-02 20:20:22.61	335.77	11.61	-38.4	-39.8	27.1	3.03e+01	0	39	0	573571072	50	6698
2026-01-02 20:20:23.63	335.55	11.60	-37.6	-38.9	27.7	3.03e+01	0	39	0	575143936	50	6012
2026-01-02 20:20:24.63	335.34	11.58	-38.3	-39.7	27.2	3.03e+01	0	39	0	577241088	50	6597
2026-01-02 20:20:25.64	335.12	11.56	-37.6	-38.9	27.7	3.03e+01	0	39	0	578813952	50	6032
2026-01-02 20:20:26.65	334.91	11.54	-37.9	-39.2	27.7	3.03e+01	0	39	0	580911104	50	6228
2026-01-02 20:20:27.66	334.69	11.52	-38.0	-39.4	27.5	3.03e+01	0	39	0	583008256	50	6375
2026-01-02 20:20:28.67	334.48	11.50	-37.9	-39.2	27.6	3.03e+01	0	39	0	584581120	50	6269
2026-01-02 20:20:29.68	334.27	11.48	-38.6	-40.0	26.8	3.03e+01	0	39	0	586678272	50	6869
2026-01-02 20:20:30.69	334.05	11.46	-37.7	-39.0	27.8	3.03e+01	0	39	0	588251136	50	6087
2026-01-02 20:20:31.70	333.84	11.44	-38.1	-39.4	27.5	3.03e+01	0	39	0	590348288	50	6370
2026-01-02 20:20:32.71	333.62	11.42	-37.9	-39.2	27.6	3.03e+01	0	39	0	592445440	50	6211
2026-01-02 20:20:33.72	333.41	11.40	-38.0	-39.3	27.6	3.03e+01	0	39	0	594018304	50	6326
2026-01-02 20:20:34.73	333.20	11.38	-38.0	-39.3	27.5	3.03e+01	0	39	0	596115456	50	6350
2026-01-02 20:20:35.74	332.99	11.35	-38.1	-39.4	27.4	3.03e+01	0	39	0	597688320	50	6398
2026-01-02 20:20:36.74	332.78	11.33	-38.2	-39.6	27.3	3.03e+01	0	39	0	599785472	50	6500
2026-01-02 20:20:37.75	332.57	11.31	-38.1	-39.4	27.4	3.03e+01	0	39	0	601882624	50	6359
2026-01-02 20:20:38.76	332.35	11.29	-38.5	-39.9	27.1	3.03e+01	0	39	0	603455488	50	6755
2026-01-02 20:20:39.77	332.14	11.26	-38.0	-39.3	27.5	3.03e+01	0	39	0	605552640	50	6285
2026-01-02 20:20:40.78	331.93	11.24	-38.0	-39.3	27.5	3.03e+01	0	39	0	607125504	50	6339
2026-01-02 20:20:41.79	331.72	11.22	-38.2	-39.5	27.4	3.03e+01	0	39	0	609222656	50	6444
2026-01-02 20:20:42.80	331.51	11.19	-37.9	-39.2	27.6	3.03e+01	0	39	0	611319808	50	6249
2026-01-02 20:20:43.81	331.30	11.17	-38.1	-39.4	27.4	3.03e+01	0	39	0	612892672	50	6405
2026-01-02 20:20:44.82	331.09	11.14	-38.2	-39.6	27.2	3.03e+01	0	39	0	614989824	50	6523
2026-01-02 20:20:45.83	330.89	11.12	-37.8	-39.1	27.7	3.03e+01	0	39	0	617086976	50	6154
2026-01-02 20:20:46.84	330.68	11.09	-38.2	-39.6	27.2	3.03e+01	0	39	0	618659840	50	6517
2026-01-02 20:20:47.85	330.47	11.06	-37.9	-39.1	27.6	3.03e+01	0	39	0	620756992	50	6198
2026-01-02 20:20:48.86	330.26	11.04	-38.1	-39.5	27.3	3.03e+01	0	39	0	622329856	50	6428
2026-01-02 20:20:49.86	330.06	11.01	-38.4	-39.8	27.2	3.03e+01	0	39	0	624427008	50	6659
2026-01-02 20:20:50.87	329.85	10.99	-38.4	-39.7	27.1	3.03e+01	0	39	0	626524160	50	6608
2026-01-02 20:20:51.88	329.64	10.96	-38.6	-40.0	26.9	3.03e+01	0	39	0	628097024	52	6087
2026-01-02 20:20:52.90	329.44	10.93	-38.5	-39.8	27.0	3.03e+01	0	39	0	630194176	52	5963
2026-01-02 20:20:53.90	329.23	10.90	-38.3	-39.6	27.2	3.03e+01	0	39	0	631767040	52	5833
2026-01-02 20:20:54.91	329.03	10.87	-39.2	-40.6	26.4	3.03e+01	0	38	0	633864192	52	6532
2026-01-02 20:20:55.92	328.82	10.85	-38.3	-39.6	27.3	3.03e+01	0	39	0	635961344	52	5817
2026-01-02 20:20:56.93	328.62	10.82	-38.4	-39.8	27.2	3.03e+01	0	39	0	637534208	52	5939
2026-01-02 20:20:57.94	328.42	10.79	-38.4	-39.8	27.2	3.03e+01	0	39	0	639631360	52	5930
2026-01-02 20:20:58.95	328.21	10.76	-38.1	-39.4	27.5	3.03e+01	0	39	0	641204224	52	5681
2026-01-02 20:20:59.96	328.01	10.73	-38.1	-39.4	27.4	3.03e+01	0	39	0	643301376	52	5686
2026-01-02 20:21:00.97	327.81	10.70	-38.3	-39.6	27.3	3.03e+01	0	39	0	645398528	52	5806
2026-01-02 20:21:01.98	327.61	10.67	-38.5	-39.8	27.1	3.03e+01	0	39	0	646971392	52	5968
2026-01-02 20:21:02.99	327.41	10.64	-38.2	-39.6	27.3	3.03e+01	0	39	0	649068544	52	5804
2026-01-02 20:21:04.00	327.20	10.61	-38.2	-39.6	27.1	3.03e+01	0	39	0	650641408	50	6519
2026-01-02 20:21:05.01	327.00	10.58	-38.4	-39.7	27.1	3.03e+01	0	39	0	652738560	52	5902
2026-01-02 20:21:06.02	326.80	10.55	-38.8	-40.2	26.6	3.03e+01	0	39	0	654835712	52	6261
2026-01-02 20:21:07.03	326.60	10.52	-38.9	-40.3	26.5	3.03e+01	0	39	0	656408576	52	6308
2026-01-02 20:21:08.04	326.41	10.48	-38.7	-40.1	26.8	3.03e+01	0	39	0	658505728	52	6155
2026-01-02 20:21:09.04	326.21	10.45	-39.5	-41.0	26.0	3.03e+01	0	39	0	660078592	52	6836
2026-01-02 20:21:10.05	326.01	10.42	-38.8	-40.1	26.8	3.03e+01	0	39	0	662175744	52	6161
2026-01-02 20:21:11.06	325.81	10.39	-39.0	-40.4	26.4	3.03e+01	0	39	0	664272896	52	6409
2026-01-02 20:21:12.07	325.62	10.35	-38.6	-39.9	26.8	3.03e+01	0	39	0	665845760	52	6026
2026-01-02 20:21:13.08	325.42	10.32	-38.1	-39.4	27.1	3.03e+01	0	39	0	667942912	50	6351
2026-01-02 20:21:14.09	325.22	10.29	-38.8	-40.2	26.3	3.03e+01	0	39	0	670040064	52	6256
2026-01-02 20:21:15.10	325.03	10.25	-37.5	-38.8	27.7	3.03e+01	0	39	0	671612928	50	5939
2026-01-02 20:21:16.11	324.83	10.22	-38.9	-40.4	26.4	3.03e+01	0	39	0	673710080	52	6387
2026-01-02 20:21:17.12	324.64	10.19	-38.0	-39.3	27.4	3.03e+01	0	39	0	675282944	52	5642
2026-01-02 20:21:18.13	324.44	10.15	-38.9	-40.3	26.8	3.03e+01	0	39	0	677380096	52	6290
2026-01-02 20:21:19.14	324.25	10.12	-38.7	-40.1	26.8	3.03e+01	0	38	0	679477248	52	6155
2026-01-02 20:21:20.14	324.06	10.08	-38.4	-39.7	27.2	3.03e+01	0	38	0	681050112	52	5874
2026-01-02 20:21:21.15	323.87	10.05	-39.3	-40.7	26.1	3.03e+01	0	39	0	683147264	52	6648
2026-01-02 20:21:22.16	323.67	10.01	-38.6	-39.9	26.9	3.03e+01	0	39	0	685244416	52	6013
2026-01-02 20:21:23.17	323.48	9.98	-39.2	-40.7	26.1	3.03e+01	0	39	0	686817280	52	6607
2026-01-02 20:21:24.18	323.29	9.94	-38.4	-39.8	26.8	3.03e+01	0	39	0	688914432	52	5937
2026-01-02 20:21:25.19	323.10	9.91	-38.3	-39.6	27.2	3.03e+01	0	39	0	690487296	50	6541
2026-01-02 20:21:26.20	322.91	9.87	-38.7	-40.0	26.7	3.03e+01	0	39	0	692584448	50	6882
2026-01-02 20:21:27.21	322.72	9.83	-38.3	-39.7	27.1	3.03e+01	0	39	0	694681600	50	6585
2026-01-02 20:21:28.22	322.53	9.80	-38.5	-39.9	26.9	3.03e+01	0	39	0	696254464	50	6754
2026-01-02 20:21:29.23	322.34	9.76	-38.8	-40.2	26.6	3.03e+01	0	39	0	698351616	52	6224
2026-01-02 20:21:30.24	322.15	9.72	-37.9	-39.2	27.5	3.03e+01	0	39	0	699924480	50	6232
2026-01-02 20:21:31.25	321.97	9.68	-39.0	-40.4	26.4	3.03e+01	0	38	0	702021632	50	7174
2026-01-02 20:21:32.26	321.78	9.65	-38.2	-39.5	27.3	3.03e+01	0	39	0	704118784	52	5745
2026-01-02 20:21:33.27	321.59	9.61	-38.7	-40.1	26.6	3.03e+01	0	39	0	705691648	52	6179
2026-01-02 20:21:34.28	321.41	9.57	-38.7	-40.1	26.8	3.03e+01	0	38	0	707788800	52	6142
2026-01-02 20:21:35.29	321.22	9.53	-38.8	-40.1	26.8	3.03e+01	0	38	0	709361664	52	6187
2026-01-02 20:21:36.30	321.04	9.50	-38.6	-40.0	26.8	3.03e+01	0	38	0	711458816	52	6087
2026-01-02 20:21:37.31	320.85	9.46	-38.9	-40.3	26.6	3.03e+01	0	39	0	713555968	52	6302
2026-01-02 20:21:38.32	320.67	9.42	-38.2	-39.5	27.2	3.03e+01	0	39	0	715128832	52	5783
2026-01-02 20:21:39.33	320.49	9.38	-38.6	-40.0	26.9	3.03e+01	0	39	0	717225984	52	6075
2026-01-02 20:21:40.34	320.30	9.34	-38.5	-39.8	26.9	3.03e+01	0	39	0	718798848	52	5962
2026-01-02 20:21:41.35	320.12	9.30	-38.6	-39.9	26.9	3.03e+01	0	38	0	720896000	52	6051
2026-01-02 20:21:42.36	319.94	9.26	-39.1	-40.5	26.4	3.03e+01	0	38	0	722993152	52	6445
2026-01-02 20:21:43.37	319.76	9.22	-38.9	-40.3	26.5	3.03e+01	0	39	0	724566016	52	6320
2026-01-02 20:21:44.38	319.58	9.18	-38.9	-40.3	26.7	3.03e+01	0	39	0	726663168	52	6290
2026-01-02 20:21:45.39	319.40	9.14	-39.1	-40.5	26.5	3.03e+01	0	39	0	728236032	52	6435
2026-01-02 20:21:46.40	319.22	9.10	-38.7	-40.0	26.8	3.03e+01	0	39	0	730333184	52	6119
2026-01-02 20:21:47.41	319.04	9.06	-38.4	-39.8	27.0	3.03e+01	0	38	0	732430336	52	5931
2026-01-02 20:21:48.42	318.86	9.02	-38.7	-40.1	26.7	3.03e+01	0	39	0	734003200	52	6172
2026-01-02 20:21:49.43	318.68	8.98	-38.6	-39.9	26.9	3.03e+01	0	39	0	736100352	52	6040
2026-01-02 20:21:50.44	318.50	8.94	-38.5	-39.9	26.9	3.03e+01	0	39	0	738197504	52	6023
2026-01-02 20:21:51.45	318.33	8.90	-38.7	-40.1	26.7	3.03e+01	0	39	0	739770368	52	6147
2026-01-02 20:21:52.46	318.15	8.86	-38.7	-40.1	26.7	3.03e+01	0	39	0	741867520	52	6146
2026-01-02 20:21:53.47	317.98	8.81	-38.6	-40.0	26.9	3.03e+01	0	39	0	743440384	52	6070
2026-01-02 20:21:54.47	317.80	8.77	-38.8	-40.2	26.6	3.03e+01	0	39	0	745537536	52	6271
2026-01-02 20:21:55.48	317.63	8.73	-38.7	-40.1	26.7	3.03e+01	0	38	0	747634688	52	6147
2026-01-02 20:21:56.49	317.45	8.69	-38.7	-40.1	26.8	3.03e+01	0	38	0	749207552	52	6144
2026-01-02 20:21:57.50	317.28	8.65	-39.3	-40.8	26.0	3.03e+01	0	39	0	751304704	52	6690
2026-01-02 20:21:58.51	317.11	8.60	-38.6	-40.0	26.7	3.03e+01	0	38	0	752877568	52	6087
2026-01-02 20:21:59.52	316.93	8.56	-38.7	-40.1	26.7	3.03e+01	0	39	0	754974720	52	6147
2026-01-02 20:22:00.53	316.76	8.52	-39.2	-40.6	26.2	3.03e+01	0	38	0	757071872	52	6548
2026-01-02 20:22:01.54	316.59	8.48	-38.6	-39.9	26.8	3.03e+01	0	38	0	758644736	52	6062
2026-01-02 20:22:02.55	316.42	8.43	-39.0	-40.4	26.4	3.03e+01	0	38	0	760741888	52	6368
2026-01-02 20:22:03.56	316.25	8.39	-39.0	-40.4	26.3	3.03e+01	0	39	0	762839040	52	6399
2026-01-02 20:22:04.57	316.08	8.35	-38.6	-39.9	26.9	3.03e+01	0	39	0	764411904	52	6058
2026-01-02 20:22:05.58	315.91	8.30	-38.9	-40.3	26.5	3.03e+01	0	39	0	766509056	52	6317
2026-01-02 20:22:06.59	315.74	8.26	-38.9	-40.3	26.5	3.03e+01	0	39	0	768081920	52	6311
2026-01-02 20:22:07.60	315.58	8.22	-38.9	-40.4	26.4	3.03e+01	0	39	0	770179072	52	6356
2026-01-02 20:22:08.61	315.41	8.17	-39.5	-41.0	25.7	3.03e+01	0	39	0	771751936	52	6825
2026-01-02 20:22:09.62	315.24	8.13	-39.1	-40.6	26.2	3.03e+01	0	38	0	773849088	52	6502
2026-01-02 20:22:10.63	315.07	8.09	-39.4	-40.9	25.6	3.03e+01	0	39	0	775946240	52	6732
2026-01-02 20:22:11.64	314.91	8.04	-40.3	-42.0	25.1	3.03e+01	0	38	0	777519104	54	6818
2026-01-02 20:22:12.64	314.75	8.00	-39.3	-40.8	25.8	3.03e+01	0	38	0	779616256	54	5945
2026-01-02 20:22:13.65	314.58	7.95	-38.7	-40.1	26.6	3.03e+01	0	38	0	781189120	52	6166
2026-01-02 20:22:14.66	314.42	7.91	-39.7	-41.2	25.6	3.03e+01	0	39	0	783286272	52	7028
2026-01-02 20:22:15.67	314.25	7.86	-39.1	-40.5	26.1	3.03e+01	0	39	0	785383424	52	6457
2026-01-02 20:22:16.68	314.09	7.82	-39.0	-40.4	26.1	3.03e+01	0	39	0	786956288	52	6395
2026-01-02 20:22:17.69	313.93	7.78	-39.7	-41.3	25.4	3.03e+01	0	39	0	789053440	52	7113
2026-01-02 20:22:18.70	313.77	7.73	-39.0	-40.4	26.2	3.03e+01	0	38	0	791150592	52	6383
2026-01-02 20:22:19.71	313.60	7.69	-38.8	-40.1	26.6	3.03e+01	0	39	0	792723456	52	6204
2026-01-02 20:22:20.72	313.44	7.64	-39.5	-41.1	25.8	3.03e+01	0	38	0	794820608	52	6926
2026-01-02 20:22:21.73	313.28	7.59	-39.0	-40.4	26.2	3.03e+01	0	39	0	796393472	52	6420
2026-01-02 20:22:22.74	313.12	7.55	-38.9	-40.3	26.5	3.03e+01	0	39	0	798490624	52	6281
2026-01-02 20:22:23.76	312.96	7.50	-39.2	-40.7	26.0	3.03e+01	0	39	0	800587776	52	6644
2026-01-02 20:22:24.76	312.81	7.46	-39.3	-40.8	26.0	3.03e+01	0	38	0	802160640	52	6656
2026-01-02 20:22:25.77	312.65	7.41	-39.3	-40.7	25.9	3.03e+01	0	38	0	804257792	52	6602
2026-01-02 20:22:26.78	312.49	7.37	-39.6	-41.1	25.6	3.03e+01	0	38	0	806354944	52	6928
2026-01-02 20:22:27.79	312.33	7.32	-39.6	-41.1	25.6	3.03e+01	0	38	0	807927808	52	6954
2026-01-02 20:22:28.80	312.18	7.27	-39.6	-41.1	25.6	3.03e+01	0	39	0	810024960	52	6921
2026-01-02 20:22:29.82	312.02	7.23	-39.9	-41.5	25.4	3.03e+01	0	38	0	811597824	52	7210
2026-01-02 20:22:30.82	311.87	7.18	-40.0	-41.6	25.1	3.03e+01	0	39	0	813694976	54	6567
2026-01-02 20:22:31.84	311.71	7.14	-39.1	-40.5	26.0	3.03e+01	0	38	0	815792128	54	5770
2026-01-02 20:22:32.85	311.55	7.09	-39.0	-40.4	26.2	3.03e+01	0	39	0	817364992	52	6418
2026-01-02 20:22:33.86	311.40	7.04	-39.7	-41.3	25.5	3.03e+01	0	38	0	819462144	52	7061
2026-01-02 20:22:34.87	311.25	7.00	-39.5	-41.0	25.6	3.03e+01	0	38	0	821035008	52	6863
2026-01-02 20:22:35.88	311.10	6.95	-39.0	-40.5	26.2	3.03e+01	0	39	0	823132160	52	6440
2026-01-02 20:22:36.89	310.94	6.90	-39.1	-40.6	26.2	3.03e+01	0	39	0	825229312	52	6536
2026-01-02 20:22:37.90	310.79	6.86	-39.3	-40.8	26.0	3.03e+01	0	39	0	826802176	52	6656
2026-01-02 20:22:38.91	310.64	6.81	-39.2	-40.7	26.0	3.03e+01	0	39	0	828899328	52	6610
2026-01-02 20:22:39.92	310.49	6.76	-39.3	-40.8	25.9	3.03e+01	0	39	0	830996480	52	6678
2026-01-02 20:22:40.92	310.34	6.72	-39.3	-40.8	25.9	3.03e+01	0	38	0	832569344	52	6716
2026-01-02 20:22:41.93	310.19	6.67	-39.3	-40.9	25.8	3.03e+01	0	39	0	834666496	52	6743
2026-01-02 20:22:42.95	310.04	6.62	-39.2	-40.7	26.0	3.03e+01	0	39	0	836239360	52	6594
2026-01-02 20:22:43.96	309.89	6.57	-39.3	-40.8	25.7	3.03e+01	0	39	0	838336512	52	6714
2026-01-02 20:22:44.97	309.75	6.53	-39.5	-41.0	25.7	3.03e+01	0	39	0	840433664	52	6837
2026-01-02 20:22:45.98	309.60	6.48	-39.7	-41.3	25.5	3.03e+01	0	39	0	842006528	52	7102
2026-01-02 20:22:46.99	309.45	6.43	-39.7	-41.3	25.5	3.03e+01	0	39	0	844103680	52	7049
2026-01-02 20:22:48.00	309.31	6.38	-39.2	-40.8	25.8	3.03e+01	0	39	0	845676544	52	6655
2026-01-02 20:22:49.01	309.16	6.34	-39.3	-40.8	25.9	3.03e+01	0	39	0	847773696	52	6693
2026-01-02 20:22:50.02	309.02	6.29	-39.1	-40.6	26.0	3.03e+01	0	39	0	849870848	52	6543
2026-01-02 20:22:51.03	308.87	6.24	-39.3	-40.9	25.9	3.03e+01	0	39	0	851443712	52	6728
2026-01-02 20:22:52.04	308.73	6.19	-39.3	-40.8	25.8	3.03e+01	0	39	0	853540864	52	6678
2026-01-02 20:22:53.05	308.58	6.14	-39.4	-40.9	25.8	3.03e+01	0	39	0	855113728	52	6745
2026-01-02 20:22:54.05	308.44	6.10	-39.5	-41.1	25.6	3.03e+01	0	39	0	857210880	52	6895
2026-01-02 20:22:55.06	308.30	6.05	-39.6	-41.1	25.5	3.03e+01	0	39	0	859308032	52	6938
2026-01-02 20:22:56.07	308.16	6.00	-39.4	-41.0	25.7	3.03e+01	0	39	0	860880896	52	6827
2026-01-02 20:22:57.08	308.02	5.95	-39.7	-41.3	25.3	3.03e+01	0	38	0	862978048	52	7116
2026-01-02 20:22:58.09	307.87	5.91	-39.6	-41.2	25.5	3.03e+01	0	39	0	864550912	52	6987
2026-01-02 20:22:59.10	307.73	5.86	-39.5	-41.1	25.5	3.03e+01	0	39	0	866648064	52	6919
2026-01-02 20:23:00.11	307.59	5.81	-39.3	-40.9	25.7	3.03e+01	0	39	0	868745216	52	6733
2026-01-02 20:23:01.12	307.45	5.76	-39.5	-41.1	25.6	3.03e+01	0	38	0	870318080	52	6931
2026-01-02 20:23:02.13	307.32	5.71	-39.9	-41.5	25.0	3.03e+01	0	38	0	872415232	52	7283
2026-01-02 20:23:03.14	307.18	5.66	-39.8	-41.5	25.0	3.03e+01	0	38	0	874512384	54	6433
2026-01-02 20:23:04.15	307.04	5.62	-39.3	-40.8	25.7	3.03e+01	0	39	0	876085248	54	5959
2026-01-02 20:23:05.16	306.90	5.57	-39.4	-40.9	25.6	3.03e+01	0	39	0	878182400	54	6056
2026-01-02 20:23:06.17	306.77	5.52	-39.5	-41.0	25.5	3.03e+01	0	38	0	879755264	54	6109
2026-01-02 20:23:07.18	306.63	5.47	-39.2	-40.7	25.8	3.03e+01	0	39	0	881852416	54	5920
2026-01-02 20:23:08.19	306.49	5.42	-39.3	-40.8	25.7	3.03e+01	0	39	0	883949568	54	5990
2026-01-02 20:23:09.20	306.36	5.37	-39.5	-41.1	25.5	3.03e+01	0	38	0	885522432	54	6174
2026-01-02 20:23:10.20	306.22	5.32	-39.9	-41.5	25.1	3.03e+01	0	39	0	887619584	54	6445
2026-01-02 20:23:11.21	306.09	5.28	-39.9	-41.6	24.9	3.03e+01	0	38	0	889192448	54	6504
2026-01-02 20:23:12.22	305.96	5.23	-40.0	-41.6	24.9	3.03e+01	0	38	0	891289600	54	6511
2026-01-02 20:23:13.23	305.82	5.18	-39.7	-41.2	25.2	3.03e+01	0	39	0	893386752	54	6267
2026-01-02 20:23:14.24	305.69	5.13	-39.6	-41.2	25.3	3.03e+01	0	38	0	894959616	54	6222
2026-01-02 20:23:15.25	305.56	5.08	-39.6	-41.2	25.2	3.03e+01	0	39	0	897056768	54	6252
2026-01-02 20:23:16.26	305.43	5.03	-39.7	-41.3	25.2	3.03e+01	0	39	0	899153920	54	6308
2026-01-02 20:23:17.27	305.29	4.98	-39.9	-41.5	25.0	3.03e+01	0	39	0	900726784	54	6495
2026-01-02 20:23:18.28	305.16	4.93	-39.9	-41.5	25.0	3.03e+01	0	39	0	902823936	54	6445
2026-01-02 20:23:19.29	305.03	4.88	-39.8	-41.5	25.0	3.03e+01	0	39	0	904396800	54	6434
2026-01-02 20:23:20.30	304.90	4.84	-40.0	-41.6	24.9	3.03e+01	0	39	0	906493952	54	6511
2026-01-02 20:23:21.31	304.77	4.79	-40.4	-42.1	24.3	3.03e+01	0	39	0	908591104	54	6898
2026-01-02 20:23:22.32	304.65	4.74	-40.2	-41.9	24.6	3.03e+01	0	39	0	910163968	54	6766
2026-01-02 20:23:23.33	304.52	4.69	-40.2	-41.9	24.5	3.03e+01	0	39	0	912261120	54	6747
2026-01-02 20:23:24.34	304.39	4.64	-40.0	-41.6	24.8	3.03e+01	0	39	0	913833984	54	6517
2026-01-02 20:23:25.35	304.26	4.59	-40.1	-41.7	24.8	3.03e+01	0	39	0	915931136	54	6614
2026-01-02 20:23:26.36	304.13	4.54	-40.2	-41.8	24.6	3.03e+01	0	39	0	918028288	54	6718
2026-01-02 20:23:27.37	304.01	4.49	-40.5	-42.2	23.9	3.03e+01	0	39	0	919601152	54	7043
2026-01-02 20:23:28.38	303.88	4.44	-40.7	-42.4	24.1	3.03e+01	0	39	0	921698304	54	7187
2026-01-02 20:23:29.39	303.76	4.39	-40.8	-42.6	23.9	3.03e+01	0	39	0	923271168	54	7298
2026-01-02 20:23:30.40	303.63	4.34	-40.0	-41.6	24.8	3.03e+01	0	39	0	925368320	54	6536
2026-01-02 20:23:31.41	303.51	4.29	-39.8	-41.4	24.9	3.03e+01	0	39	0	927465472	54	6380
2026-01-02 20:23:32.42	303.38	4.24	-39.7	-41.2	25.1	3.03e+01	0	39	0	929038336	54	6265
2026-01-02 20:23:33.43	303.26	4.20	-40.0	-41.6	24.7	3.03e+01	0	39	0	931135488	54	6537
2026-01-02 20:23:34.44	303.14	4.15	-40.1	-41.8	24.6	3.03e+01	0	38	0	932708352	54	6655
2026-01-02 20:23:35.45	303.01	4.10	-40.3	-42.0	24.3	3.03e+01	0	39	0	934805504	54	6838
2026-01-02 20:23:36.46	302.89	4.05	-40.6	-42.3	24.0	3.03e+01	0	38	0	936902656	54	7080
2026-01-02 20:23:37.47	302.77	4.00	-40.5	-42.2	24.1	3.03e+01	0	39	0	938475520	54	7010
2026-01-02 20:23:38.48	302.65	3.95	-40.4	-42.1	24.3	3.03e+01	0	38	0	940572672	54	6900
2026-01-02 20:23:39.49	302.53	3.90	-40.5	-42.2	24.1	3.03e+01	0	39	0	942669824	54	6994
2026-01-02 20:23:40.50	302.41	3.85	-40.1	-41.7	24.6	3.03e+01	0	39	0	944242688	54	6601
2026-01-02 20:23:41.51	302.29	3.80	-40.2	-41.8	24.4	3.03e+01	0	39	0	946339840	54	6708
2026-01-02 20:23:42.52	302.17	3.75	-40.6	-42.3	24.1	3.03e+01	0	39	0	947912704	54	7109
2026-01-02 20:23:43.53	302.05	3.70	-40.4	-42.1	24.2	3.03e+01	0	38	0	950009856	54	6898
2026-01-02 20:23:44.54	301.93	3.65	-40.4	-42.1	24.1	3.03e+01	0	39	0	952107008	54	6939
2026-01-02 20:23:45.55	301.81	3.60	-40.6	-42.4	23.9	3.03e+01	0	39	0	953679872	54	7134
2026-01-02 20:23:46.56	301.69	3.55	-40.5	-42.2	24.0	3.03e+01	0	39	0	955777024	54	7036
2026-01-02 20:23:47.57	301.58	3.50	-40.2	-41.8	24.3	3.03e+01	0	39	0	957349888	54	6705
2026-01-02 20:23:48.58	301.46	3.45	-40.4	-42.1	24.1	3.03e+01	0	39	0	959447040	54	6903
2026-01-02 20:23:49.59	301.34	3.40	-40.3	-41.9	24.4	3.03e+01	0	39	0	961544192	54	6764
2026-01-02 20:23:50.60	301.23	3.36	-41.0	-42.8	23.2	3.03e+01	0	39	0	963117056	54	7544
2026-01-02 20:23:51.60	301.11	3.31	-40.9	-42.7	23.5	3.03e+01	0	39	0	965214208	56	6590
2026-01-02 20:23:52.61	301.00	3.26	-41.2	-43.0	23.2	3.03e+01	0	39	0	967311360	56	6841
2026-01-02 20:23:53.62	300.88	3.21	-42.0	-44.0	22.3	3.03e+01	0	39	0	968884224	56	7641
2026-01-02 20:23:54.63	300.77	3.16	-41.4	-43.3	22.8	3.03e+01	0	39	0	970981376	58	6279
2026-01-02 20:23:55.64	300.65	3.11	-41.7	-43.6	22.5	3.03e+01	0	39	0	972554240	58	6525
2026-01-02 20:23:56.65	300.54	3.06	-41.5	-43.4	22.7	3.03e+01	0	39	0	974651392	58	6370
2026-01-02 20:23:57.66	300.43	3.01	-49.2	-66.8	3.5	3.03e+01	0	39	104	976224256	60	84519
2026-01-02 20:23:58.67	300.31	2.96	-49.8	-67.6	3.5	3.03e+01	0	39	104	976224256	60	91972
2026-01-02 20:23:59.68	300.20	2.91	-50.1	-67.8	3.5	3.03e+01	0	39	104	976224256	60	94823
2026-01-02 20:24:00.69	300.09	2.86	-50.2	-68.1	3.5	3.03e+01	0	39	104	976224256	60	97733
2026-01-02 20:24:01.70	299.98	2.81	-50.3	-68.1	3.5	3.03e+01	0	39	104	976224256	60	97940
2026-01-02 20:24:02.71	299.87	2.76	-50.5	-68.3	3.5	3.03e+01	0	39	104	976224256	60	99997
2026-01-02 20:24:03.72	299.76	2.71	-50.5	-68.3	3.5	3.03e+01	0	39	104	976224256	60	100425
2026-01-02 20:24:04.73	299.65	2.66	-50.5	-68.4	3.5	3.03e+01	0	39	104	976224256	60	100917
2026-01-02 20:24:05.73	299.54	2.61	-50.5	-68.4	3.5	3.03e+01	0	39	104	976224256	60	100659
2026-01-02 20:24:06.75	299.43	2.56	-50.5	-68.3	3.5	3.03e+01	0	39	104	976224256	60	100333
2026-01-02 20:24:07.76	299.32	2.51	-50.3	-68.4	3.5	3.03e+01	0	39	104	976224256	60	100844
2026-01-02 20:24:08.77	299.21	2.47	-50.3	-68.3	3.5	3.03e+01	0	39	104	976224256	60	100079
2026-01-02 20:24:09.77	299.11	2.42	-50.2	-68.2	3.5	3.03e+01	0	39	104	976224256	60	99356
2026-01-02 20:24:10.78	299.00	2.37	-50.4	-68.3	3.5	3.03e+01	0	39	104	976224256	60	99627
2026-01-02 20:24:11.79	298.89	2.32	-50.5	-68.3	3.5	3.03e+01	0	39	104	976224256	60	99520
2026-01-02 20:24:12.80	298.78	2.27	-50.3	-68.2	3.5	3.03e+01	0	39	104	976224256	60	99343
2026-01-02 20:24:13.81	298.68	2.22	-50.4	-68.2	3.5	3.03e+01	0	39	104	976224256	60	99160
2026-01-02 20:24:14.82	298.57	2.17	-50.4	-68.2	3.5	3.03e+01	0	39	104	976224256	60	99405
2026-01-02 20:24:15.83	298.47	2.12	-50.4	-68.2	3.5	3.03e+01	0	39	104	976224256	60	99445
2026-01-02 20:24:16.84	298.36	2.07	-50.4	-68.2	3.5	3.03e+01	0	39	104	976224256	60	99286
2026-01-02 20:24:17.85	298.26	2.02	-50.4	-68.2	3.5	3.03e+01	0	39	104	976224256	60	99142
2026-01-02 20:24:18.86	298.15	1.97	-50.4	-68.2	3.5	3.03e+01	0	39	104	976224256	60	98659
2026-01-02 20:24:19.87	298.05	1.92	-50.4	-68.2	3.5	3.03e+01	0	39	104	976224256	60	98857
2026-01-02 20:24:20.88	297.94	1.87	-50.4	-68.2	3.5	3.03e+01	0	39	104	976224256	60	98854
2026-01-02 20:24:21.89	297.84	1.82	-50.4	-68.2	3.5	3.03e+01	0	39	104	976224256	60	99010
2026-01-02 20:24:22.90	297.74	1.77	-50.4	-68.2	3.5	3.03e+01	0	39	104	976224256	60	99102
2026-01-02 20:24:23.91	297.64	1.73	-50.4	-68.2	3.5	3.03e+01	0	39	104	976224256	60	99124
2026-01-02 20:24:24.92	297.53	1.68	-50.4	-68.2	3.5	3.03e+01	0	39	104	976224256	60	98938
2026-01-02 20:24:25.93	297.43	1.63	-50.4	-68.2	3.5	3.03e+01	0	39	104	976224256	60	98739
2026-01-02 20:24:26.94	297.33	1.58	-50.4	-68.2	3.5	3.03e+01	0	39	104	976224256	60	98911
2026-01-02 20:24:27.95	297.23	1.53	-50.4	-68.2	3.5	3.03e+01	0	39	104	976224256	60	98987
2026-01-02 20:24:28.96	297.13	1.48	-50.4	-68.2	3.5	3.03e+01	0	39	104	976224256	60	99396
2026-01-02 20:24:29.97	297.03	1.43	-50.4	-68.2	3.5	3.03e+01	0	39	104	976224256	60	98839
2026-01-02 20:24:30.98	296.93	1.38	-50.4	-68.2	3.5	3.03e+01	0	39	104	976224256	60	98854
2026-01-02 20:24:31.99	296.83	1.33	-50.4	-68.2	3.5	3.03e+01	0	39	104	976224256	60	98670
2026-01-02 20:24:33.00	296.73	1.28	-50.4	-68.2	3.5	3.03e+01	0	39	104	976224256	60	99028
2026-01-02 20:24:34.00	296.63	1.23	-50.4	-68.2	3.5	3.03e+01	0	39	104	976224256	60	99399
2026-01-02 20:24:35.02	296.53	1.18	-50.4	-68.2	3.5	3.03e+01	0	39	104	976224256	60	98841
2026-01-02 20:24:36.03	296.44	1.14	-50.4	-68.2	3.5	3.03e+01	0	39	104	976224256	60	99073
2026-01-02 20:24:37.04	296.34	1.09	-50.4	-68.2	3.5	3.03e+01	0	39	104	976224256	60	98816
2026-01-02 20:24:38.05	296.24	1.04	-50.4	-68.2	3.5	3.03e+01	0	39	104	976224256	60	98650
2026-01-02 20:24:39.05	296.15	0.99	-50.4	-68.2	3.5	3.03e+01	0	39	104	976224256	60	99264
2026-01-02 20:24:40.06	296.05	0.94	-50.4	-68.2	3.5	3.03e+01	0	39	104	976224256	60	99239
2026-01-02 20:24:41.07	295.95	0.89	-50.4	-68.2	3.5	3.03e+01	0	39	104	976224256	60	99337
2026-01-02 20:24:42.08	295.86	0.84	-50.4	-68.2	3.5	3.03e+01	0	39	104	976224256	60	99040
2026-01-02 20:24:43.09	295.76	0.79	-50.4	-68.2	3.5	3.03e+01	0	39	104	976224256	60	99306
2026-01-02 20:24:44.10	295.67	0.74	-50.4	-68.2	3.5	3.03e+01	0	39	104	976224256	60	98716
2026-01-02 20:24:45.11	295.57	0.70	-50.4	-68.3	3.5	3.03e+01	0	39	104	976224256	60	99636
2026-01-02 20:24:46.12	295.48	0.65	-50.4	-68.2	3.5	3.03e+01	0	39	104	976224256	60	99403
2026-01-02 20:24:47.13	295.38	0.60	-50.4	-68.2	3.5	3.03e+01	0	39	104	976224256	60	99319
2026-01-02 20:24:48.14	295.29	0.55	-50.4	-68.2	3.5	3.03e+01	0	39	104	976224256	60	99105
2026-01-02 20:24:49.15	295.20	0.50	-50.4	-68.2	3.5	3.03e+01	0	39	104	976224256	60	99385
2026-01-02 20:24:50.16	295.10	0.45	-50.4	-68.2	3.5	3.03e+01	0	39	104	976224256	60	99298
2026-01-02 20:24:51.17	295.01	0.40	-50.4	-68.2	3.5	3.03e+01	0	39	104	976224256	60	98747
2026-01-02 20:24:52.18	294.92	0.35	-50.4	-68.2	3.5	3.03e+01	0	39	104	976224256	60	99157
2026-01-02 20:24:53.19	294.83	0.31	-50.4	-68.2	3.5	3.03e+01	0	39	104	976224256	60	98799
2026-01-02 20:24:54.20	294.74	0.26	-50.4	-68.2	3.5	3.03e+01	0	39	104	976224256	60	98803
2026-01-02 20:24:55.21	294.65	0.21	-50.4	-68.2	3.5	3.03e+01	0	39	104	976224256	60	99178
2026-01-02 20:24:56.22	294.55	0.16	-50.4	-68.2	3.5	3.03e+01	0	39	104	976224256	60	98896
2026-01-02 20:24:57.23	294.46	0.11	-50.4	-68.2	3.5	3.03e+01	0	39	104	976224256	60	99408
2026-01-02 20:24:58.24	294.37	0.06	-50.4	-68.2	3.5	3.03e+01	0	39	104	976224256	60	99292
2026-01-02 20:24:59.25	294.28	0.01	-50.4	-68.2	3.5	3.03e+01	0	39	104	976224256	60	99117

#Closed at: 2026-01-02 20:25:00
#Recorded file [976 MB]: D:/lorett/data/35029_260103_081414.dat