passes_logs/2026/01/02/R4.6S_Anadyr/R4.6S_Anadyr__20260102_033845_AQUA_rec.log

#Pass ID: 20260102_033845_AQUA
#Satellite: AQUA
#Configuration: AQUA
#almurnet v.1.7.20251203
#Start time: 2026-01-02 03:38:46

#Version: 2.2.20231116
#Station: R4.6S_Anadyr
#Location: 177.4865 lon 64.73178 lat
#TLE: 1 27424U 02022A   25365.92641127  .00002078  00000+0  42628-3 0  9999
#TLE: 2 27424  98.4058 327.1196 0001962  94.7781 340.6230 14.61783896258835

#Time	Az	El	Level	Level2	SNR	BER	BlckErr	Temp	State	Recorded	gain1	gain2
2026-01-02 03:38:46.27	203.08	0.06	-49.2	-64.2	3.5	1.51e+00	0	36	0	0	60	58429
2026-01-02 03:38:47.27	203.14	0.12	-48.9	-67.3	3.5	3.02e+01	0	37	104	0	60	89094
2026-01-02 03:38:48.28	203.21	0.17	-49.4	-67.3	3.5	3.02e+01	0	37	104	0	60	89472
2026-01-02 03:38:49.29	203.27	0.23	-48.6	-67.3	3.5	3.02e+01	0	37	104	0	60	89547
2026-01-02 03:38:50.31	203.34	0.29	-49.4	-67.3	3.5	3.02e+01	0	37	104	0	60	89220
2026-01-02 03:38:51.31	203.40	0.34	-49.2	-67.4	3.5	3.02e+01	0	38	104	0	60	89978
2026-01-02 03:38:52.33	203.47	0.40	-49.1	-67.3	3.5	3.02e+01	0	37	104	0	60	89539
2026-01-02 03:38:53.33	203.54	0.46	-49.5	-67.4	3.5	3.02e+01	0	38	104	0	60	90435
2026-01-02 03:38:54.34	203.60	0.51	-49.4	-67.3	3.5	3.02e+01	0	38	104	0	60	88966
2026-01-02 03:38:55.35	203.67	0.57	-49.4	-67.2	3.5	3.02e+01	0	38	104	0	60	88145
2026-01-02 03:38:56.36	203.74	0.63	-49.3	-67.2	3.5	3.02e+01	0	37	104	0	60	87789
2026-01-02 03:38:57.37	203.80	0.68	-49.2	-67.0	3.5	3.02e+01	0	38	104	0	60	86286
2026-01-02 03:38:58.38	203.87	0.74	-49.2	-67.0	3.5	3.02e+01	0	38	104	0	60	86192
2026-01-02 03:38:59.39	203.94	0.80	-49.1	-66.9	3.5	3.02e+01	0	38	104	0	60	85381
2026-01-02 03:39:00.40	204.01	0.85	-48.9	-66.8	3.5	3.02e+01	0	38	104	0	60	84221
2026-01-02 03:39:01.41	204.08	0.91	-48.8	-66.6	3.5	3.02e+01	0	38	104	0	60	81938
2026-01-02 03:39:02.42	204.15	0.97	-48.4	-66.2	3.5	3.02e+01	0	38	104	0	60	78839
2026-01-02 03:39:03.43	204.21	1.03	-48.1	-65.7	3.5	3.02e+01	0	38	104	0	60	74377
2026-01-02 03:39:04.44	204.28	1.08	-48.1	-65.8	3.5	3.02e+01	0	38	104	0	60	74911
2026-01-02 03:39:05.45	204.35	1.14	-48.1	-65.9	3.5	3.02e+01	0	38	104	0	60	75689
2026-01-02 03:39:06.46	204.42	1.20	-48.1	-65.8	3.5	3.02e+01	0	38	104	0	60	75447
2026-01-02 03:39:07.47	204.49	1.26	-48.1	-65.6	3.5	3.02e+01	0	38	104	0	60	73505
2026-01-02 03:39:08.48	204.56	1.32	-48.1	-65.8	3.5	3.02e+01	0	38	104	0	60	75244
2026-01-02 03:39:09.49	204.63	1.37	-48.1	-65.6	3.5	3.02e+01	0	38	104	0	60	73432
2026-01-02 03:39:10.50	204.71	1.43	-48.1	-65.4	3.5	3.02e+01	0	38	104	0	60	71964
2026-01-02 03:39:11.51	204.78	1.49	-48.1	-65.7	3.5	3.02e+01	0	38	104	0	60	74128
2026-01-02 03:39:12.52	204.85	1.55	-48.1	-65.7	3.5	3.02e+01	0	38	104	0	60	74364
2026-01-02 03:39:13.53	204.92	1.61	-48.1	-65.6	3.5	3.02e+01	0	38	104	0	60	73455
2026-01-02 03:39:14.54	204.99	1.66	-48.1	-65.6	3.5	3.02e+01	0	38	104	0	60	73738
2026-01-02 03:39:15.55	205.07	1.72	-48.1	-65.8	3.5	3.02e+01	0	38	104	0	60	74620
2026-01-02 03:39:16.56	205.14	1.78	-48.1	-65.9	3.5	3.02e+01	0	38	104	0	60	75523
2026-01-02 03:39:17.56	205.21	1.84	-48.1	-65.8	3.5	3.02e+01	0	38	104	0	60	74797
2026-01-02 03:39:18.58	205.29	1.90	-48.0	-65.7	3.5	3.02e+01	0	38	104	0	60	74103
2026-01-02 03:39:19.59	205.36	1.96	-48.1	-65.7	3.5	3.02e+01	0	38	104	0	60	74133
2026-01-02 03:39:20.60	205.43	2.02	-48.1	-65.8	3.5	3.02e+01	0	38	104	0	60	74995
2026-01-02 03:39:21.60	205.51	2.08	-48.0	-65.8	3.5	3.02e+01	0	38	104	0	60	75351
2026-01-02 03:39:22.61	205.58	2.14	-48.1	-65.8	3.5	3.02e+01	0	38	104	0	60	75413
2026-01-02 03:39:23.62	205.66	2.20	-48.0	-65.7	3.5	3.02e+01	0	38	104	0	60	74455
2026-01-02 03:39:24.63	205.73	2.26	-48.0	-65.7	3.5	3.02e+01	0	38	104	0	60	73998
2026-01-02 03:39:25.64	205.81	2.31	-48.0	-65.7	3.5	3.02e+01	0	38	104	0	60	73836
2026-01-02 03:39:26.65	205.88	2.37	-48.0	-65.7	3.5	3.02e+01	0	38	104	0	60	74273
2026-01-02 03:39:27.66	205.96	2.43	-48.0	-65.4	3.5	3.02e+01	0	38	104	0	60	71862
2026-01-02 03:39:28.67	206.04	2.49	-48.0	-65.0	3.5	3.02e+01	0	38	104	0	60	68659
2026-01-02 03:39:29.68	206.11	2.55	-48.0	-65.2	3.5	3.02e+01	0	38	104	0	60	70172
2026-01-02 03:39:30.69	206.19	2.61	-48.0	-65.4	3.5	3.02e+01	0	38	104	0	60	71917
2026-01-02 03:39:31.70	206.27	2.67	-48.0	-64.6	3.5	3.02e+01	0	38	104	0	60	65612
2026-01-02 03:39:32.71	206.35	2.74	-47.9	-62.7	4.3	3.02e+01	0	38	104	0	60	52226
2026-01-02 03:39:33.72	206.42	2.80	-47.8	-60.3	3.9	3.02e+01	0	38	104	0	60	39775
2026-01-02 03:39:34.73	206.50	2.86	-47.7	-58.2	6.4	3.02e+01	90	38	0	0	60	31415
2026-01-02 03:39:35.74	206.58	2.92	-47.7	-58.4	6.3	3.02e+01	92	38	0	2097152	60	32107
2026-01-02 03:39:36.75	206.66	2.98	-47.9	-61.5	4.7	3.02e+01	0	38	104	2621440	60	45831
2026-01-02 03:39:37.76	206.74	3.04	-47.9	-62.3	4.6	3.02e+01	0	38	104	2621440	60	50231
2026-01-02 03:39:38.77	206.82	3.10	-47.5	-57.3	8.5	3.02e+01	90	38	104	2621440	60	28271
2026-01-02 03:39:39.78	206.90	3.16	-46.3	-51.6	13.7	3.02e+01	91	38	0	3670016	60	14661
2026-01-02 03:39:40.78	206.98	3.22	-44.6	-48.1	17.3	3.02e+01	88	38	0	5767168	60	9725
2026-01-02 03:39:41.79	207.06	3.28	-43.4	-46.1	19.3	3.02e+01	92	38	0	7864320	60	7760
2026-01-02 03:39:42.81	207.14	3.34	-42.8	-45.3	20.1	3.02e+01	92	38	0	9437184	60	7097
2026-01-02 03:39:43.81	207.22	3.41	-42.6	-45.1	20.2	3.02e+01	92	38	0	11534336	60	6893
2026-01-02 03:39:44.82	207.31	3.47	-44.4	-47.8	16.9	3.02e+01	90	38	0	13107200	60	9445
2026-01-02 03:39:45.83	207.39	3.53	-47.8	-63.1	3.7	3.02e+01	0	38	104	14680064	60	54792
2026-01-02 03:39:46.84	207.47	3.59	-39.7	-41.4	23.8	3.02e+01	91	38	0	14680064	54	6412
2026-01-02 03:39:47.85	207.55	3.65	-46.1	-50.9	14.5	3.02e+01	92	38	0	16777216	60	13539
2026-01-02 03:39:48.86	207.64	3.71	-43.2	-45.8	19.3	3.02e+01	90	38	0	18350080	58	8410
2026-01-02 03:39:49.87	207.72	3.78	-41.3	-43.2	22.3	3.02e+01	90	38	0	20447232	58	6258
2026-01-02 03:39:50.88	207.81	3.84	-40.9	-42.8	22.9	3.02e+01	90	38	0	22544384	56	6698
2026-01-02 03:39:51.89	207.89	3.90	-40.8	-42.6	22.9	3.02e+01	91	38	0	24117248	56	6566
2026-01-02 03:39:52.90	207.98	3.96	-40.7	-42.5	23.3	3.02e+01	92	38	0	26214400	56	6456
2026-01-02 03:39:53.91	208.06	4.03	-40.4	-42.2	23.4	3.02e+01	89	38	0	28311552	56	6214
2026-01-02 03:39:54.92	208.15	4.09	-39.9	-41.6	24.0	3.02e+01	91	38	0	29884416	54	6522
2026-01-02 03:39:55.92	208.23	4.15	-39.8	-41.4	24.2	3.02e+01	89	38	0	31981568	54	6403
2026-01-02 03:39:56.93	208.32	4.22	-38.9	-40.5	23.8	3.02e+01	92	38	0	33554432	54	5731
2026-01-02 03:39:57.94	208.41	4.28	-38.8	-40.3	25.1	3.02e+01	91	38	0	35651584	52	6332
2026-01-02 03:39:58.95	208.49	4.34	-39.1	-40.7	24.9	3.02e+01	91	38	0	37748736	52	6582
2026-01-02 03:39:59.96	208.58	4.40	-38.7	-40.3	25.2	3.02e+01	90	38	0	39321600	52	6285
2026-01-02 03:40:00.97	208.67	4.47	-38.8	-40.3	25.2	3.02e+01	91	38	0	41418752	52	6337
2026-01-02 03:40:01.98	208.76	4.53	-38.8	-40.3	25.3	3.02e+01	92	38	0	42991616	52	6327
2026-01-02 03:40:02.99	208.85	4.60	-38.7	-40.2	25.3	3.02e+01	92	38	0	45088768	52	6264
2026-01-02 03:40:04.00	208.94	4.66	-38.8	-40.4	25.2	3.02e+01	90	38	0	47185920	52	6370
2026-01-02 03:40:05.01	209.02	4.72	-38.5	-40.0	25.6	3.02e+01	92	38	0	48758784	52	6088
2026-01-02 03:40:06.02	209.12	4.79	-38.5	-40.0	25.6	3.02e+01	88	38	0	50855936	52	6088
2026-01-02 03:40:07.03	209.21	4.85	-38.7	-40.2	25.4	3.02e+01	90	38	0	52428800	52	6206
2026-01-02 03:40:08.04	209.30	4.92	-38.6	-40.1	25.5	3.02e+01	91	38	0	54525952	52	6194
2026-01-02 03:40:09.05	209.39	4.98	-38.2	-39.7	26.0	3.02e+01	92	38	0	56623104	52	5865
2026-01-02 03:40:10.05	209.48	5.04	-38.4	-39.9	25.8	3.02e+01	90	38	0	58195968	52	5995
2026-01-02 03:40:11.06	209.57	5.11	-38.5	-40.0	25.6	3.02e+01	92	38	0	60293120	52	6095
2026-01-02 03:40:12.07	209.66	5.17	-38.4	-39.8	25.8	3.02e+01	90	38	0	61865984	52	5964
2026-01-02 03:40:13.08	209.76	5.24	-38.5	-40.0	25.6	3.02e+01	92	38	0	63963136	52	6087
2026-01-02 03:40:14.09	209.85	5.30	-38.2	-39.6	26.0	3.02e+01	92	38	0	66060288	52	5844
2026-01-02 03:40:15.10	209.94	5.37	-38.4	-39.9	25.8	3.02e+01	92	38	0	67633152	52	6016
2026-01-02 03:40:16.11	210.04	5.43	-38.2	-39.6	25.9	3.02e+01	92	38	0	69730304	52	5815
2026-01-02 03:40:17.12	210.13	5.50	-38.3	-39.8	25.9	3.02e+01	92	38	0	71827456	52	5969
2026-01-02 03:40:18.13	210.23	5.56	-38.2	-39.6	26.0	3.02e+01	90	37	0	73400320	52	5841
2026-01-02 03:40:19.14	210.32	5.63	-38.1	-39.6	26.1	3.02e+01	92	38	0	75497472	52	5803
2026-01-02 03:40:20.15	210.42	5.70	-38.1	-39.5	26.2	3.02e+01	90	38	0	77070336	52	5741
2026-01-02 03:40:21.16	210.52	5.76	-38.1	-39.5	26.1	3.02e+01	92	38	0	79167488	52	5771
2026-01-02 03:40:22.17	210.61	5.83	-38.2	-39.6	26.0	3.02e+01	92	38	0	81264640	52	5845
2026-01-02 03:40:23.17	210.71	5.89	-38.3	-39.7	26.0	3.02e+01	92	38	0	82837504	52	5895
2026-01-02 03:40:24.18	210.81	5.96	-38.1	-39.6	26.1	3.02e+01	90	38	0	84934656	52	5800
2026-01-02 03:40:25.19	210.91	6.03	-38.1	-39.5	26.2	3.02e+01	90	38	0	86507520	52	5747
2026-01-02 03:40:26.20	211.01	6.09	-38.0	-39.4	26.2	3.02e+01	92	38	0	88604672	50	6370
2026-01-02 03:40:27.21	211.11	6.16	-37.9	-39.3	26.3	3.02e+01	92	38	0	90701824	50	6336
2026-01-02 03:40:28.22	211.21	6.23	-38.0	-39.5	26.2	3.02e+01	92	38	0	92274688	50	6427
2026-01-02 03:40:29.23	211.31	6.29	-37.9	-39.3	26.4	3.02e+01	92	38	0	94371840	50	6324
2026-01-02 03:40:30.24	211.41	6.36	-38.0	-39.4	26.3	3.02e+01	92	38	0	96468992	50	6408
2026-01-02 03:40:31.25	211.51	6.43	-38.0	-39.4	26.3	3.02e+01	90	38	0	98041856	50	6373
2026-01-02 03:40:32.26	211.61	6.49	-37.9	-39.3	26.4	3.02e+01	92	38	0	100139008	50	6316
2026-01-02 03:40:33.27	211.71	6.56	-37.9	-39.2	26.4	3.02e+01	92	38	0	101711872	50	6271
2026-01-02 03:40:34.27	211.81	6.63	-37.9	-39.3	26.4	3.02e+01	92	38	0	103809024	50	6297
2026-01-02 03:40:35.28	211.92	6.70	-37.9	-39.3	26.4	3.02e+01	92	38	0	105906176	50	6307
2026-01-02 03:40:36.29	212.02	6.76	-37.9	-39.3	26.4	3.02e+01	92	38	0	107479040	50	6286
2026-01-02 03:40:37.30	212.13	6.83	-37.8	-39.2	26.5	3.02e+01	92	38	0	109576192	50	6255
2026-01-02 03:40:38.31	212.23	6.90	-37.8	-39.2	26.6	3.02e+01	92	38	0	111149056	50	6211
2026-01-02 03:40:39.32	212.34	6.97	-37.7	-39.0	26.7	3.02e+01	92	38	0	113246208	50	6112
2026-01-02 03:40:40.33	212.44	7.03	-37.8	-39.1	26.6	3.02e+01	92	38	0	114819072	50	6196
2026-01-02 03:40:41.34	212.55	7.10	-37.6	-39.0	26.7	3.02e+01	92	38	0	116916224	50	6088
2026-01-02 03:40:42.35	212.66	7.17	-38.0	-39.4	26.5	3.02e+01	92	38	0	119013376	50	6368
2026-01-02 03:40:43.36	212.76	7.24	-38.2	-39.6	26.2	3.02e+01	92	38	0	120586240	50	6510
2026-01-02 03:40:44.37	212.87	7.31	-37.6	-39.0	26.7	3.02e+01	91	38	0	122683392	50	6096
2026-01-02 03:40:45.38	212.98	7.38	-37.6	-38.9	26.8	3.02e+01	92	38	0	124780544	50	6041
2026-01-02 03:40:46.39	213.09	7.45	-37.5	-38.9	26.9	3.02e+01	91	38	0	126353408	50	6035
2026-01-02 03:40:47.40	213.20	7.52	-37.6	-38.9	26.8	3.02e+01	90	38	0	128450560	50	6062
2026-01-02 03:40:48.40	213.31	7.58	-37.5	-38.8	26.9	3.02e+01	92	37	0	130023424	50	5970
2026-01-02 03:40:49.41	213.42	7.65	-37.5	-38.9	26.8	3.02e+01	89	38	0	132120576	50	6027
2026-01-02 03:40:50.42	213.53	7.72	-37.5	-38.8	26.9	3.02e+01	92	37	0	134217728	50	5962
2026-01-02 03:40:51.43	213.64	7.79	-37.6	-39.0	26.8	3.02e+01	92	38	0	135790592	50	6065
2026-01-02 03:40:52.44	213.75	7.86	-37.4	-38.7	27.1	3.02e+01	92	38	0	137887744	50	5893
2026-01-02 03:40:53.45	213.87	7.93	-37.5	-38.9	26.9	3.02e+01	92	38	0	139984896	50	6004
2026-01-02 03:40:54.46	213.98	8.00	-37.5	-38.9	26.9	3.02e+01	90	38	0	141557760	50	5995
2026-01-02 03:40:55.47	214.09	8.07	-37.5	-38.9	26.9	3.02e+01	92	38	0	143654912	50	6006
2026-01-02 03:40:56.48	214.21	8.14	-37.5	-38.9	26.9	3.02e+01	92	38	0	145227776	50	6006
2026-01-02 03:40:57.49	214.32	8.21	-37.4	-38.7	27.0	3.02e+01	92	38	0	147324928	50	5906
2026-01-02 03:40:58.50	214.44	8.28	-37.5	-38.8	27.0	3.02e+01	92	38	0	149422080	50	5965
2026-01-02 03:40:59.51	214.56	8.35	-37.2	-38.5	27.3	3.02e+01	92	38	0	150994944	50	5757
2026-01-02 03:41:00.51	214.67	8.42	-37.2	-38.6	27.2	3.02e+01	92	38	0	153092096	50	5821
2026-01-02 03:41:01.53	214.79	8.50	-37.1	-38.4	27.3	3.02e+01	91	38	0	154664960	50	5723
2026-01-02 03:41:02.53	214.91	8.57	-37.1	-38.5	27.3	3.02e+01	92	38	0	156762112	50	5752
2026-01-02 03:41:03.54	215.03	8.64	-37.2	-38.6	27.2	3.02e+01	92	38	0	158859264	50	5807
2026-01-02 03:41:04.55	215.14	8.71	-37.1	-38.4	27.4	3.02e+01	92	38	0	160432128	50	5712
2026-01-02 03:41:05.56	215.26	8.78	-37.1	-38.4	27.3	3.02e+01	91	38	0	162529280	50	5704
2026-01-02 03:41:06.57	215.39	8.85	-37.2	-38.5	27.2	3.02e+01	92	38	0	164102144	50	5788
2026-01-02 03:41:07.58	215.51	8.92	-37.1	-38.5	27.3	3.02e+01	90	38	0	166199296	50	5726
2026-01-02 03:41:08.59	215.63	8.99	-37.2	-38.6	27.2	3.02e+01	92	38	0	168296448	50	5800
2026-01-02 03:41:09.60	215.75	9.07	-37.1	-38.5	27.3	3.02e+01	92	38	0	169869312	50	5735
2026-01-02 03:41:10.61	215.87	9.14	-37.2	-38.5	27.3	3.02e+01	92	38	0	171966464	50	5781
2026-01-02 03:41:11.62	216.00	9.21	-36.9	-38.3	27.5	3.02e+01	92	38	0	173539328	48	6291
2026-01-02 03:41:12.63	216.12	9.28	-36.9	-38.2	27.5	3.02e+01	92	38	0	175636480	48	6256
2026-01-02 03:41:13.64	216.25	9.36	-36.9	-38.3	27.5	3.02e+01	92	38	0	177733632	48	6286
2026-01-02 03:41:14.65	216.37	9.43	-37.0	-38.3	27.5	3.02e+01	92	38	0	179306496	48	6303
2026-01-02 03:41:15.66	216.50	9.50	-37.0	-38.3	27.5	3.02e+01	92	38	0	181403648	48	6288
2026-01-02 03:41:16.67	216.63	9.57	-37.0	-38.3	27.5	3.02e+01	92	38	0	182976512	48	6294
2026-01-02 03:41:17.68	216.75	9.65	-36.9	-38.2	27.5	3.02e+01	92	38	0	185073664	48	6272
2026-01-02 03:41:18.69	216.88	9.72	-36.8	-38.1	27.7	3.02e+01	92	38	0	187170816	48	6188
2026-01-02 03:41:19.70	217.01	9.79	-36.9	-38.2	27.5	3.02e+01	92	38	0	188743680	48	6254
2026-01-02 03:41:20.71	217.14	9.87	-36.9	-38.3	27.6	3.02e+01	92	38	0	190840832	48	6290
2026-01-02 03:41:21.71	217.27	9.94	-37.0	-38.3	27.6	3.02e+01	92	38	0	192937984	48	6303
2026-01-02 03:41:22.72	217.40	10.01	-36.8	-38.1	27.7	3.02e+01	89	38	0	194510848	48	6192
2026-01-02 03:41:23.73	217.53	10.08	-36.8	-38.1	27.6	3.02e+01	90	38	0	196608000	48	6199
2026-01-02 03:41:24.74	217.66	10.16	-37.0	-38.3	27.6	3.02e+01	92	38	0	198180864	48	6314
2026-01-02 03:41:25.75	217.80	10.23	-36.9	-38.2	27.7	3.02e+01	92	38	0	200278016	48	6226
2026-01-02 03:41:26.76	217.93	10.31	-36.8	-38.2	27.7	3.02e+01	92	38	0	202375168	48	6206
2026-01-02 03:41:27.77	218.07	10.38	-36.8	-38.1	27.7	3.02e+01	92	38	0	203948032	48	6138
2026-01-02 03:41:28.78	218.20	10.45	-36.6	-37.9	27.9	3.02e+01	92	38	0	206045184	48	6020
2026-01-02 03:41:29.78	218.34	10.53	-36.7	-38.0	27.9	3.02e+01	92	38	0	208142336	48	6069
2026-01-02 03:41:30.79	218.47	10.60	-36.6	-37.9	27.9	3.02e+01	92	38	0	209715200	48	6018
2026-01-02 03:41:31.80	218.61	10.68	-36.8	-38.1	27.8	3.02e+01	92	38	0	211812352	48	6139
2026-01-02 03:41:32.81	218.75	10.75	-36.6	-37.9	27.9	3.02e+01	92	38	0	213385216	48	6024
2026-01-02 03:41:33.82	218.89	10.83	-36.8	-38.1	27.8	3.02e+01	92	38	0	215482368	48	6166
2026-01-02 03:41:34.82	219.02	10.90	-36.6	-37.9	28.0	3.02e+01	92	38	0	217055232	48	6030
2026-01-02 03:41:35.83	219.17	10.98	-36.8	-38.1	27.8	3.02e+01	89	38	0	219152384	48	6160
2026-01-02 03:41:36.84	219.31	11.05	-36.5	-37.8	28.0	3.02e+01	92	38	0	221249536	48	5963
2026-01-02 03:41:37.85	219.45	11.13	-36.7	-38.0	27.9	3.02e+01	91	38	0	222822400	48	6069
2026-01-02 03:41:38.86	219.59	11.20	-36.7	-38.0	27.8	3.02e+01	92	38	0	224919552	48	6079
2026-01-02 03:41:39.87	219.73	11.28	-36.6	-37.9	27.9	3.02e+01	91	38	0	226492416	48	6029
2026-01-02 03:41:40.88	219.88	11.35	-36.7	-38.0	27.9	3.02e+01	92	38	0	228589568	48	6074
2026-01-02 03:41:41.89	220.02	11.43	-36.6	-37.8	27.9	3.02e+01	88	38	0	230686720	48	5993
2026-01-02 03:41:42.90	220.17	11.50	-36.5	-37.8	28.0	3.02e+01	92	38	0	232259584	48	5936
2026-01-02 03:41:43.91	220.32	11.58	-36.6	-37.9	27.9	3.02e+01	92	38	0	234356736	48	6016
2026-01-02 03:41:44.92	220.46	11.65	-36.6	-37.9	28.0	3.02e+01	85	38	0	236453888	48	6025
2026-01-02 03:41:45.93	220.61	11.73	-36.5	-37.8	28.0	3.02e+01	92	38	0	238026752	48	5966
2026-01-02 03:41:46.94	220.76	11.81	-36.5	-37.7	28.1	3.02e+01	92	38	0	240123904	48	5924
2026-01-02 03:41:47.95	220.91	11.88	-36.6	-37.9	28.0	3.02e+01	92	38	0	241696768	48	5997
2026-01-02 03:41:48.96	221.06	11.96	-36.7	-37.9	27.9	3.02e+01	92	38	0	243793920	48	6058
2026-01-02 03:41:49.97	221.21	12.04	-36.6	-37.9	27.9	3.02e+01	92	38	0	245891072	48	5996
2026-01-02 03:41:50.98	221.36	12.11	-36.4	-37.7	28.1	3.02e+01	92	38	0	247463936	48	5876
2026-01-02 03:41:51.99	221.52	12.19	-36.3	-37.6	28.3	3.02e+01	91	38	0	249561088	48	5823
2026-01-02 03:41:53.00	221.67	12.27	-36.5	-37.7	28.1	3.02e+01	92	38	0	251133952	48	5924
2026-01-02 03:41:54.01	221.82	12.34	-36.5	-37.8	28.1	3.02e+01	92	37	0	253231104	48	5934
2026-01-02 03:41:55.01	221.98	12.42	-36.3	-37.6	28.3	3.02e+01	90	37	0	255328256	48	5843
2026-01-02 03:41:56.02	222.13	12.50	-36.4	-37.7	28.2	3.02e+01	90	37	0	256901120	48	5859
2026-01-02 03:41:57.03	222.29	12.57	-36.4	-37.6	28.2	3.02e+01	92	38	0	258998272	48	5854
2026-01-02 03:41:58.04	222.45	12.65	-36.4	-37.6	28.2	3.02e+01	90	38	0	261095424	48	5852
2026-01-02 03:41:59.05	222.61	12.73	-36.3	-37.6	28.3	3.02e+01	92	38	0	262668288	48	5792
2026-01-02 03:42:00.06	222.77	12.80	-36.4	-37.6	28.3	3.02e+01	90	38	0	264765440	48	5844
2026-01-02 03:42:01.07	222.93	12.88	-36.3	-37.6	28.3	3.02e+01	92	38	0	266338304	48	5797
2026-01-02 03:42:02.08	223.09	12.96	-36.3	-37.6	28.3	3.02e+01	88	38	0	268435456	48	5819
2026-01-02 03:42:03.09	223.25	13.04	-36.2	-37.5	28.4	3.02e+01	92	38	0	270532608	48	5726
2026-01-02 03:42:04.10	223.42	13.11	-36.3	-37.6	28.3	3.02e+01	90	38	0	272105472	48	5811
2026-01-02 03:42:05.11	223.58	13.19	-36.4	-37.7	28.2	3.02e+01	92	38	0	274202624	48	5875
2026-01-02 03:42:06.11	223.74	13.27	-36.4	-37.7	28.1	3.02e+01	92	38	0	275775488	48	5874
2026-01-02 03:42:07.13	223.91	13.35	-36.5	-37.7	28.2	3.02e+01	86	37	0	277872640	48	5907
2026-01-02 03:42:08.14	224.08	13.43	-36.2	-37.4	28.4	3.02e+01	92	38	0	279969792	48	5702
2026-01-02 03:42:09.15	224.24	13.50	-36.0	-37.3	28.5	3.02e+01	92	38	0	281542656	48	5617
2026-01-02 03:42:10.15	224.41	13.58	-36.0	-37.2	28.7	3.02e+01	92	38	0	283639808	48	5581
2026-01-02 03:42:11.16	224.58	13.66	-36.0	-37.3	28.6	3.02e+01	92	38	0	285212672	46	6300
2026-01-02 03:42:12.17	224.75	13.74	-36.1	-37.3	28.5	3.02e+01	90	38	0	287309824	46	6321
2026-01-02 03:42:13.18	224.92	13.82	-36.2	-37.4	28.4	3.02e+01	92	38	0	289406976	46	6398
2026-01-02 03:42:14.19	225.10	13.89	-36.2	-37.4	28.5	3.02e+01	92	38	0	290979840	46	6416
2026-01-02 03:42:15.20	225.27	13.97	-36.0	-37.2	28.6	3.02e+01	92	38	0	293076992	46	6275
2026-01-02 03:42:16.21	225.44	14.05	-35.9	-37.2	28.7	3.02e+01	90	38	0	294649856	46	6219
2026-01-02 03:42:17.22	225.62	14.13	-35.9	-37.1	28.8	3.02e+01	92	38	0	296747008	46	6169
2026-01-02 03:42:18.23	225.79	14.21	-35.9	-37.1	28.7	3.02e+01	90	38	0	298844160	46	6203
2026-01-02 03:42:19.24	225.97	14.29	-35.9	-37.2	28.7	3.02e+01	92	38	0	300417024	46	6207
2026-01-02 03:42:20.24	226.15	14.36	-36.0	-37.2	28.7	3.02e+01	92	38	0	302514176	46	6242
2026-01-02 03:42:21.26	226.33	14.44	-36.0	-37.2	28.7	3.02e+01	92	38	0	304611328	46	6242
2026-01-02 03:42:22.27	226.51	14.52	-35.9	-37.2	28.7	3.02e+01	92	38	0	306184192	46	6212
2026-01-02 03:42:23.28	226.69	14.60	-36.0	-37.2	28.8	3.02e+01	91	38	0	308281344	46	6240
2026-01-02 03:42:24.29	226.87	14.68	-35.9	-37.1	28.8	3.02e+01	91	38	0	309854208	46	6200
2026-01-02 03:42:25.29	227.05	14.76	-35.8	-37.0	28.8	3.02e+01	91	38	0	311951360	46	6115
2026-01-02 03:42:26.30	227.24	14.84	-35.9	-37.1	28.7	3.02e+01	85	38	0	314048512	46	6184
2026-01-02 03:42:27.31	227.42	14.91	-35.7	-37.0	28.8	3.02e+01	90	38	0	315621376	46	6073
2026-01-02 03:42:28.32	227.61	14.99	-36.0	-37.2	28.7	3.02e+01	91	38	0	317718528	46	6231
2026-01-02 03:42:29.33	227.80	15.07	-36.0	-37.2	28.7	3.02e+01	90	38	0	319291392	46	6235
2026-01-02 03:42:30.34	227.98	15.15	-35.9	-37.1	28.7	3.02e+01	91	38	0	321388544	46	6171
2026-01-02 03:42:31.35	228.17	15.23	-36.0	-37.3	28.6	3.02e+01	90	38	0	323485696	46	6289
2026-01-02 03:42:32.36	228.36	15.31	-35.8	-37.1	28.7	3.02e+01	92	38	0	325058560	46	6148
2026-01-02 03:42:33.37	228.56	15.39	-35.9	-37.2	28.8	3.02e+01	91	38	0	327155712	46	6211
2026-01-02 03:42:34.38	228.75	15.47	-35.9	-37.2	28.7	3.02e+01	91	38	0	328728576	46	6220
2026-01-02 03:42:35.39	228.94	15.54	-36.0	-37.2	28.7	3.02e+01	91	38	0	330825728	46	6263
2026-01-02 03:42:36.40	229.14	15.62	-35.9	-37.1	28.8	3.02e+01	92	38	0	332922880	46	6184
2026-01-02 03:42:37.41	229.33	15.70	-35.9	-37.2	28.8	3.02e+01	90	38	0	334495744	46	6224
2026-01-02 03:42:38.42	229.53	15.78	-35.8	-37.0	28.9	3.02e+01	91	38	0	336592896	46	6082
2026-01-02 03:42:39.43	229.73	15.86	-35.9	-37.2	28.6	3.02e+01	92	38	0	338165760	46	6226
2026-01-02 03:42:40.44	229.92	15.94	-35.9	-37.1	28.8	3.02e+01	92	38	0	340262912	46	6147
2026-01-02 03:42:41.45	230.12	16.02	-35.9	-37.1	28.8	3.02e+01	90	38	0	342360064	46	6164
2026-01-02 03:42:42.46	230.33	16.10	-35.9	-37.1	28.8	3.02e+01	92	38	0	343932928	46	6161
2026-01-02 03:42:43.46	230.53	16.17	-35.8	-37.0	28.8	3.02e+01	92	38	0	346030080	46	6119
2026-01-02 03:42:44.48	230.73	16.25	-36.0	-37.2	28.7	3.02e+01	92	38	0	347602944	46	6252
2026-01-02 03:42:45.48	230.93	16.33	-35.8	-37.0	28.9	3.02e+01	87	38	0	349700096	46	6098
2026-01-02 03:42:46.50	231.14	16.41	-35.7	-36.9	28.9	3.02e+01	92	38	0	351797248	46	6056
2026-01-02 03:42:47.51	231.35	16.49	-35.8	-37.0	28.9	3.02e+01	92	38	0	353370112	46	6108
2026-01-02 03:42:48.51	231.55	16.57	-35.6	-36.9	29.1	3.02e+01	92	38	0	355467264	46	6005
2026-01-02 03:42:49.52	231.76	16.64	-35.7	-36.9	28.9	3.02e+01	91	38	0	357564416	46	6046
2026-01-02 03:42:50.53	231.97	16.72	-35.7	-36.9	29.0	3.02e+01	92	38	0	359137280	46	6044
2026-01-02 03:42:51.54	232.18	16.80	-35.7	-36.9	29.0	3.02e+01	92	38	0	361234432	46	6034
2026-01-02 03:42:52.55	232.39	16.88	-35.7	-36.9	29.0	3.02e+01	91	38	0	362807296	46	6044
2026-01-02 03:42:53.56	232.61	16.96	-35.7	-37.0	29.0	3.02e+01	92	38	0	364904448	46	6071
2026-01-02 03:42:54.57	232.82	17.03	-35.8	-37.0	28.9	3.02e+01	92	38	0	367001600	46	6096
2026-01-02 03:42:55.58	233.04	17.11	-35.7	-36.9	28.9	3.02e+01	92	38	0	368574464	46	6057
2026-01-02 03:42:56.59	233.25	17.19	-35.7	-36.9	29.0	3.02e+01	92	38	0	370671616	46	6028
2026-01-02 03:42:57.60	233.47	17.27	-35.7	-36.9	29.1	3.02e+01	92	38	0	372768768	46	6024
2026-01-02 03:42:58.61	233.69	17.34	-35.8	-37.0	28.9	3.02e+01	92	38	0	374341632	46	6101
2026-01-02 03:42:59.62	233.91	17.42	-35.8	-37.0	28.9	3.02e+01	92	38	0	376438784	46	6094
2026-01-02 03:43:00.63	234.13	17.50	-35.9	-37.2	28.8	3.02e+01	92	38	0	378011648	46	6212
2026-01-02 03:43:01.63	234.35	17.57	-35.8	-37.1	28.9	3.02e+01	92	38	0	380108800	46	6136
2026-01-02 03:43:02.64	234.58	17.65	-35.8	-37.0	28.9	3.02e+01	90	38	0	382205952	46	6112
2026-01-02 03:43:03.65	234.80	17.73	-36.0	-37.3	28.7	3.02e+01	92	38	0	383778816	46	6294
2026-01-02 03:43:04.66	235.03	17.81	-36.0	-37.2	28.7	3.02e+01	92	38	0	385875968	46	6233
2026-01-02 03:43:05.67	235.25	17.88	-35.7	-37.0	29.0	3.02e+01	92	38	0	387448832	46	6065
2026-01-02 03:43:06.68	235.48	17.96	-35.7	-36.9	29.0	3.02e+01	92	38	0	389545984	46	6045
2026-01-02 03:43:07.69	235.71	18.03	-35.6	-36.8	29.1	3.02e+01	92	38	0	391643136	46	5952
2026-01-02 03:43:08.70	235.94	18.11	-35.6	-36.8	29.1	3.02e+01	92	38	0	393216000	46	5966
2026-01-02 03:43:09.71	236.17	18.19	-35.6	-36.8	29.0	3.02e+01	92	38	0	395313152	46	5990
2026-01-02 03:43:10.72	236.41	18.26	-35.7	-37.0	29.0	3.02e+01	90	38	0	396886016	46	6067
2026-01-02 03:43:11.73	236.64	18.34	-35.7	-36.9	29.0	3.02e+01	92	38	0	398983168	46	6012
2026-01-02 03:43:12.74	236.88	18.41	-35.7	-37.0	28.9	3.02e+01	92	38	0	401080320	46	6069
2026-01-02 03:43:13.75	237.11	18.49	-35.6	-36.8	29.1	3.02e+01	92	38	0	402653184	46	5985
2026-01-02 03:43:14.76	237.35	18.56	-35.8	-37.0	29.0	3.02e+01	92	38	0	404750336	46	6091
2026-01-02 03:43:15.77	237.59	18.64	-35.7	-36.9	29.0	3.02e+01	90	38	0	406323200	46	6040
2026-01-02 03:43:16.78	237.83	18.71	-35.7	-36.9	29.1	3.02e+01	92	38	0	408420352	46	6054
2026-01-02 03:43:17.79	238.07	18.79	-35.7	-36.9	29.0	3.02e+01	92	38	0	410517504	46	6023
2026-01-02 03:43:18.80	238.31	18.86	-35.7	-36.9	29.0	3.02e+01	92	38	0	412090368	46	6051
2026-01-02 03:43:19.80	238.56	18.93	-35.6	-36.9	29.0	3.02e+01	92	38	0	414187520	46	6001
2026-01-02 03:43:20.82	238.80	19.01	-35.7	-36.9	29.0	3.02e+01	90	38	0	415760384	46	6056
2026-01-02 03:43:21.83	239.05	19.08	-35.8	-37.0	28.9	3.02e+01	92	38	0	417857536	46	6127
2026-01-02 03:43:22.83	239.30	19.15	-35.8	-37.0	29.0	3.02e+01	90	38	0	419954688	46	6091
2026-01-02 03:43:23.84	239.54	19.22	-35.6	-36.8	29.1	3.02e+01	92	38	0	421527552	46	5991
2026-01-02 03:43:24.85	239.79	19.30	-35.6	-36.8	29.1	3.02e+01	90	38	0	423624704	46	5992
2026-01-02 03:43:25.86	240.05	19.37	-35.7	-37.0	29.0	3.02e+01	90	38	0	425721856	46	6065
2026-01-02 03:43:26.87	240.30	19.44	-36.0	-37.3	28.8	3.02e+01	91	37	0	427294720	46	6313
2026-01-02 03:43:27.87	240.55	19.51	-36.0	-37.3	28.8	3.02e+01	88	38	0	429391872	46	6286
2026-01-02 03:43:28.89	240.81	19.58	-36.1	-37.3	28.8	3.02e+01	92	38	0	430964736	46	6343
2026-01-02 03:43:29.89	241.06	19.65	-35.9	-37.1	28.9	3.02e+01	92	38	0	433061888	46	6162
2026-01-02 03:43:30.90	241.32	19.72	-35.8	-37.0	28.9	3.02e+01	92	38	0	435159040	46	6101
2026-01-02 03:43:31.91	241.58	19.79	-36.1	-37.4	28.8	3.02e+01	92	37	0	436731904	46	6381
2026-01-02 03:43:32.92	241.84	19.86	-35.9	-37.1	28.8	3.02e+01	92	37	0	438829056	46	6181
2026-01-02 03:43:33.93	242.10	19.93	-36.1	-37.4	28.7	3.02e+01	90	37	0	440926208	46	6375
2026-01-02 03:43:34.94	242.36	20.00	-35.7	-37.0	29.0	3.02e+01	92	37	0	442499072	46	6068
2026-01-02 03:43:35.95	242.62	20.07	-35.7	-37.0	29.0	3.02e+01	92	37	0	444596224	46	6072
2026-01-02 03:43:36.96	242.89	20.14	-35.8	-37.0	29.0	3.02e+01	92	38	0	446169088	46	6096
2026-01-02 03:43:37.97	243.15	20.21	-35.9	-37.1	28.9	3.02e+01	90	37	0	448266240	46	6202
2026-01-02 03:43:38.98	243.42	20.28	-36.0	-37.2	28.8	3.02e+01	91	38	0	450363392	46	6268
2026-01-02 03:43:39.99	243.69	20.34	-35.8	-37.0	29.0	3.02e+01	91	38	0	451936256	46	6084
2026-01-02 03:43:41.00	243.96	20.41	-35.9	-37.1	28.9	3.02e+01	91	37	0	454033408	46	6203
2026-01-02 03:43:42.01	244.23	20.48	-36.0	-37.2	28.8	3.02e+01	90	37	0	455606272	46	6253
2026-01-02 03:43:43.02	244.50	20.54	-35.8	-37.0	29.0	3.02e+01	92	38	0	457703424	46	6105
2026-01-02 03:43:44.03	244.77	20.61	-35.9	-37.1	28.9	3.02e+01	91	37	0	459276288	46	6149
2026-01-02 03:43:45.04	245.05	20.67	-35.9	-37.2	28.8	3.02e+01	91	38	0	461373440	46	6235
2026-01-02 03:43:46.04	245.32	20.74	-36.0	-37.2	28.7	3.02e+01	92	38	0	463470592	46	6274
2026-01-02 03:43:47.06	245.60	20.80	-36.3	-37.5	28.6	3.02e+01	92	37	0	465043456	46	6466
2026-01-02 03:43:48.06	245.88	20.87	-36.2	-37.4	28.6	3.02e+01	89	37	0	467140608	46	6397
2026-01-02 03:43:49.07	246.15	20.93	-36.3	-37.5	28.6	3.02e+01	92	37	0	469237760	46	6461
2026-01-02 03:43:50.08	246.44	20.99	-35.9	-37.1	29.0	3.02e+01	92	37	0	470810624	46	6145
2026-01-02 03:43:51.09	246.72	21.05	-36.0	-37.2	28.9	3.02e+01	90	37	0	472907776	46	6239
2026-01-02 03:43:52.11	247.00	21.12	-35.9	-37.1	28.8	3.02e+01	92	38	0	474480640	46	6196
2026-01-02 03:43:53.12	247.29	21.18	-35.8	-37.0	29.0	3.02e+01	90	38	0	476577792	46	6134
2026-01-02 03:43:54.13	247.57	21.24	-35.9	-37.1	28.9	3.02e+01	92	38	0	478674944	46	6199
2026-01-02 03:43:55.14	247.86	21.30	-36.0	-37.2	28.8	3.02e+01	92	38	0	480247808	46	6251
2026-01-02 03:43:56.15	248.14	21.36	-36.0	-37.2	28.8	3.02e+01	92	37	0	482344960	46	6245
2026-01-02 03:43:57.16	248.43	21.42	-36.0	-37.2	28.8	3.02e+01	92	37	0	483917824	46	6232
2026-01-02 03:43:58.17	248.72	21.48	-36.5	-37.7	28.4	3.02e+01	92	37	0	486014976	46	6633
2026-01-02 03:43:59.18	249.01	21.54	-36.4	-37.7	28.4	3.02e+01	90	37	0	488112128	46	6589
2026-01-02 03:44:00.19	249.30	21.59	-35.9	-37.1	28.9	3.02e+01	91	37	0	489684992	46	6175
2026-01-02 03:44:01.20	249.60	21.65	-35.9	-37.1	28.9	3.02e+01	90	37	0	491782144	46	6184
2026-01-02 03:44:02.21	249.89	21.71	-36.0	-37.3	28.8	3.02e+01	92	37	0	493879296	46	6286
2026-01-02 03:44:03.22	250.18	21.76	-36.1	-37.3	28.8	3.02e+01	90	37	0	495452160	46	6307
2026-01-02 03:44:04.23	250.48	21.82	-35.9	-37.2	28.9	3.02e+01	92	38	0	497549312	46	6219
2026-01-02 03:44:05.23	250.77	21.87	-36.0	-37.3	28.8	3.02e+01	92	38	0	499122176	46	6315
2026-01-02 03:44:06.24	251.07	21.92	-36.0	-37.3	28.8	3.02e+01	92	37	0	501219328	46	6280
2026-01-02 03:44:07.25	251.37	21.98	-36.2	-37.4	28.6	3.02e+01	92	37	0	503316480	46	6420
2026-01-02 03:44:08.26	251.67	22.03	-36.1	-37.3	28.8	3.02e+01	92	37	0	504889344	46	6329
2026-01-02 03:44:09.27	251.97	22.08	-36.0	-37.2	28.8	3.02e+01	92	38	0	506986496	46	6275
2026-01-02 03:44:10.28	252.28	22.13	-35.8	-37.0	29.0	3.02e+01	90	37	0	509083648	46	6114
2026-01-02 03:44:11.30	252.58	22.18	-36.0	-37.2	28.9	3.02e+01	92	37	0	510656512	46	6258
2026-01-02 03:44:12.30	252.88	22.23	-36.1	-37.4	28.6	3.02e+01	90	37	0	512753664	46	6354
2026-01-02 03:44:13.31	253.19	22.28	-36.0	-37.2	28.9	3.02e+01	92	38	0	514326528	46	6244
2026-01-02 03:44:14.32	253.50	22.33	-36.0	-37.2	28.8	3.02e+01	92	38	0	516423680	46	6266
2026-01-02 03:44:15.33	253.80	22.38	-36.2	-37.4	28.6	3.02e+01	89	37	0	518520832	46	6388
2026-01-02 03:44:16.34	254.11	22.43	-36.1	-37.3	28.7	3.02e+01	90	37	0	520093696	46	6339
2026-01-02 03:44:17.35	254.42	22.47	-36.2	-37.4	28.7	3.02e+01	90	37	0	522190848	46	6395
2026-01-02 03:44:18.36	254.73	22.52	-36.1	-37.3	28.8	3.02e+01	91	37	0	523763712	46	6347
2026-01-02 03:44:19.37	255.04	22.56	-36.1	-37.3	28.7	3.02e+01	90	38	0	525860864	46	6316
2026-01-02 03:44:20.38	255.35	22.61	-36.0	-37.2	28.8	3.02e+01	91	38	0	527958016	46	6273
2026-01-02 03:44:21.39	255.67	22.65	-36.1	-37.4	28.7	3.02e+01	90	38	0	529530880	46	6368
2026-01-02 03:44:22.40	255.98	22.69	-36.2	-37.4	28.6	3.02e+01	90	38	0	531628032	46	6421
2026-01-02 03:44:23.41	256.29	22.74	-35.9	-37.1	28.9	3.02e+01	92	38	0	533200896	46	6202
2026-01-02 03:44:24.42	256.61	22.78	-36.0	-37.3	28.7	3.02e+01	89	37	0	535298048	46	6300
2026-01-02 03:44:25.43	256.93	22.82	-36.1	-37.3	28.8	3.02e+01	90	37	0	537395200	46	6317
2026-01-02 03:44:26.44	257.24	22.86	-36.1	-37.3	28.7	3.02e+01	92	38	0	538968064	46	6346
2026-01-02 03:44:27.44	257.56	22.90	-36.0	-37.2	28.9	3.02e+01	92	37	0	541065216	46	6222
2026-01-02 03:44:28.45	257.88	22.93	-36.0	-37.2	28.8	3.02e+01	92	37	0	542638080	46	6270
2026-01-02 03:44:29.46	258.20	22.97	-35.9	-37.2	28.9	3.02e+01	92	37	0	544735232	46	6221
2026-01-02 03:44:30.47	258.52	23.01	-36.1	-37.3	28.7	3.02e+01	90	38	0	546832384	46	6343
2026-01-02 03:44:31.48	258.84	23.04	-36.1	-37.4	28.7	3.02e+01	92	38	0	548405248	46	6355
2026-01-02 03:44:32.49	259.16	23.08	-36.0	-37.3	28.7	3.02e+01	90	38	0	550502400	46	6294
2026-01-02 03:44:33.50	259.48	23.11	-36.2	-37.4	28.6	3.02e+01	92	37	0	552075264	46	6377
2026-01-02 03:44:34.51	259.80	23.14	-36.1	-37.3	28.7	3.02e+01	89	37	0	554172416	46	6325
2026-01-02 03:44:35.52	260.13	23.18	-36.1	-37.4	28.6	3.02e+01	92	37	0	556269568	46	6358
2026-01-02 03:44:36.53	260.45	23.21	-35.9	-37.2	28.8	3.02e+01	89	38	0	557842432	46	6208
2026-01-02 03:44:37.54	260.78	23.24	-36.0	-37.3	28.8	3.02e+01	90	37	0	559939584	46	6285
2026-01-02 03:44:38.55	261.10	23.27	-36.1	-37.3	28.8	3.02e+01	91	37	0	562036736	46	6307
2026-01-02 03:44:39.56	261.43	23.30	-36.0	-37.3	28.7	3.02e+01	91	37	0	563609600	46	6285
2026-01-02 03:44:40.57	261.76	23.32	-36.1	-37.3	28.6	3.02e+01	92	37	0	565706752	46	6311
2026-01-02 03:44:41.58	262.09	23.35	-36.1	-37.3	28.7	3.02e+01	90	38	0	567279616	46	6315
2026-01-02 03:44:42.59	262.41	23.38	-36.1	-37.3	28.7	3.02e+01	92	37	0	569376768	46	6329
2026-01-02 03:44:43.60	262.74	23.40	-36.0	-37.3	28.8	3.02e+01	90	37	0	571473920	46	6290
2026-01-02 03:44:44.61	263.07	23.43	-36.0	-37.2	28.8	3.02e+01	92	37	0	573046784	46	6276
2026-01-02 03:44:45.62	263.40	23.45	-36.1	-37.3	28.7	3.02e+01	90	37	0	575143936	46	6344
2026-01-02 03:44:46.63	263.73	23.47	-36.1	-37.3	28.7	3.02e+01	86	37	0	576716800	46	6309
2026-01-02 03:44:47.63	264.06	23.49	-36.0	-37.2	28.8	3.02e+01	90	37	0	578813952	46	6253
2026-01-02 03:44:48.64	264.39	23.51	-35.9	-37.2	28.9	3.02e+01	90	37	0	580911104	46	6208
2026-01-02 03:44:49.65	264.72	23.53	-36.0	-37.2	28.8	3.02e+01	92	37	0	582483968	46	6231
2026-01-02 03:44:50.66	265.05	23.55	-36.1	-37.4	28.7	3.02e+01	92	38	0	584581120	46	6356
2026-01-02 03:44:51.67	265.39	23.57	-36.0	-37.2	28.9	3.02e+01	92	37	0	586153984	46	6253
2026-01-02 03:44:52.68	265.72	23.58	-36.1	-37.4	28.7	3.02e+01	92	38	0	588251136	46	6376
2026-01-02 03:44:53.69	266.05	23.60	-36.1	-37.3	28.7	3.02e+01	92	37	0	590348288	46	6331
2026-01-02 03:44:54.70	266.38	23.62	-35.9	-37.1	29.0	3.02e+01	92	37	0	591921152	46	6177
2026-01-02 03:44:55.70	266.71	23.63	-35.9	-37.1	29.0	3.02e+01	91	38	0	594018304	46	6183
2026-01-02 03:44:56.71	267.05	23.64	-36.1	-37.3	28.7	3.02e+01	92	38	0	595591168	46	6333
2026-01-02 03:44:57.72	267.38	23.65	-36.0	-37.3	28.8	3.02e+01	91	37	0	597688320	46	6290
2026-01-02 03:44:58.73	267.72	23.66	-36.1	-37.4	28.7	3.02e+01	90	37	0	599785472	46	6360
2026-01-02 03:44:59.74	268.05	23.67	-36.0	-37.3	28.8	3.02e+01	92	38	0	601358336	46	6300
2026-01-02 03:45:00.75	268.39	23.68	-35.7	-36.9	29.1	3.02e+01	92	38	0	603455488	46	6011
2026-01-02 03:45:01.76	268.72	23.69	-35.8	-37.0	29.0	3.02e+01	92	38	0	605552640	46	6133
2026-01-02 03:45:02.77	269.06	23.70	-36.0	-37.3	28.7	3.02e+01	92	37	0	607125504	46	6305
2026-01-02 03:45:03.78	269.39	23.71	-36.0	-37.3	28.7	3.02e+01	92	37	0	609222656	46	6282
2026-01-02 03:45:04.79	269.73	23.71	-35.8	-37.0	28.9	3.02e+01	92	37	0	610795520	46	6130
2026-01-02 03:45:05.79	270.06	23.71	-35.9	-37.1	28.9	3.02e+01	87	37	0	612892672	46	6151
2026-01-02 03:45:06.80	270.40	23.72	-35.9	-37.1	28.9	3.02e+01	92	37	0	614989824	46	6169
2026-01-02 03:45:07.82	270.73	23.72	-35.9	-37.1	28.9	3.02e+01	92	38	0	616562688	46	6177
2026-01-02 03:45:08.82	271.07	23.72	-36.1	-37.4	28.8	3.02e+01	92	38	0	618659840	46	6358
2026-01-02 03:45:09.83	271.40	23.72	-36.2	-37.5	28.6	3.02e+01	92	37	0	620232704	46	6450
2026-01-02 03:45:10.84	271.74	23.72	-35.9	-37.1	28.9	3.02e+01	92	37	0	622329856	46	6169
2026-01-02 03:45:11.85	272.07	23.72	-35.8	-37.0	29.1	3.02e+01	92	37	0	624427008	46	6092
2026-01-02 03:45:12.86	272.41	23.72	-35.8	-37.0	29.1	3.02e+01	92	37	0	625999872	46	6110
2026-01-02 03:45:13.87	272.75	23.71	-35.9	-37.1	28.9	3.02e+01	92	37	0	628097024	46	6193
2026-01-02 03:45:14.88	273.08	23.71	-35.9	-37.1	29.0	3.02e+01	92	37	0	629669888	46	6158
2026-01-02 03:45:15.89	273.42	23.70	-35.8	-37.1	29.0	3.02e+01	91	37	0	631767040	46	6135
2026-01-02 03:45:16.90	273.75	23.70	-35.9	-37.1	28.8	3.02e+01	91	38	0	633864192	46	6154
2026-01-02 03:45:17.91	274.09	23.69	-35.8	-37.1	28.9	3.02e+01	92	37	0	635437056	46	6136
2026-01-02 03:45:18.92	274.42	23.68	-36.0	-37.2	28.9	3.02e+01	90	37	0	637534208	46	6242
2026-01-02 03:45:19.93	274.76	23.67	-35.8	-37.0	29.0	3.02e+01	91	37	0	639107072	46	6113
2026-01-02 03:45:20.93	275.09	23.66	-35.9	-37.1	28.9	3.02e+01	92	37	0	641204224	46	6186
2026-01-02 03:45:21.94	275.42	23.65	-36.0	-37.2	28.7	3.02e+01	92	37	0	643301376	46	6229
2026-01-02 03:45:22.95	275.75	23.64	-36.1	-37.3	28.8	3.02e+01	92	37	0	644874240	46	6331
2026-01-02 03:45:23.96	276.09	23.62	-36.0	-37.2	28.8	3.02e+01	92	37	0	646971392	46	6247
2026-01-02 03:45:24.97	276.42	23.61	-35.9	-37.2	29.0	3.02e+01	92	37	0	648544256	46	6206
2026-01-02 03:45:25.98	276.75	23.59	-36.2	-37.4	28.7	3.02e+01	89	37	0	650641408	46	6394
2026-01-02 03:45:26.99	277.09	23.58	-36.2	-37.4	28.7	3.02e+01	91	37	0	652738560	46	6397
2026-01-02 03:45:28.00	277.42	23.56	-36.0	-37.2	28.7	3.02e+01	89	37	0	654311424	46	6255
2026-01-02 03:45:29.01	277.75	23.54	-36.1	-37.3	28.9	3.02e+01	92	37	0	656408576	46	6306
2026-01-02 03:45:30.02	278.08	23.52	-35.9	-37.1	28.9	3.02e+01	88	37	0	658505728	46	6176
2026-01-02 03:45:31.03	278.41	23.50	-35.7	-36.9	29.1	3.02e+01	92	37	0	660078592	46	6064
2026-01-02 03:45:32.04	278.74	23.48	-35.7	-36.9	29.1	3.02e+01	88	37	0	662175744	46	6021
2026-01-02 03:45:33.05	279.07	23.46	-35.7	-36.9	29.0	3.02e+01	91	37	0	663748608	46	6048
2026-01-02 03:45:34.06	279.40	23.44	-35.7	-36.9	29.0	3.02e+01	90	37	0	665845760	46	6044
2026-01-02 03:45:35.07	279.73	23.41	-35.7	-36.9	29.0	3.02e+01	92	38	0	667942912	46	6045
2026-01-02 03:45:36.07	280.06	23.39	-35.9	-37.2	28.8	3.02e+01	91	37	0	669515776	46	6211
2026-01-02 03:45:37.08	280.39	23.36	-35.7	-37.0	29.0	3.02e+01	91	37	0	671612928	46	6066
2026-01-02 03:45:38.09	280.71	23.34	-35.5	-36.7	29.2	3.02e+01	91	37	0	673185792	46	5911
2026-01-02 03:45:39.10	281.04	23.31	-35.6	-36.8	29.1	3.02e+01	90	37	0	675282944	46	5991
2026-01-02 03:45:40.11	281.37	23.28	-35.7	-36.9	29.1	3.02e+01	92	37	0	677380096	46	6009
2026-01-02 03:45:41.12	281.69	23.25	-35.6	-36.8	29.1	3.02e+01	90	37	0	678952960	46	5982
2026-01-02 03:45:42.13	282.02	23.22	-35.6	-36.8	29.1	3.02e+01	91	37	0	681050112	46	5943
2026-01-02 03:45:43.14	282.34	23.19	-35.6	-36.9	29.1	3.02e+01	59	37	0	683147264	46	5996
2026-01-02 03:45:44.15	282.66	23.16	-35.6	-36.8	29.2	3.02e+01	53	37	0	684720128	46	5957
2026-01-02 03:45:45.16	282.99	23.13	-35.6	-36.8	29.1	3.02e+01	44	37	0	686817280	46	5984
2026-01-02 03:45:46.17	283.31	23.10	-35.6	-36.8	29.2	3.02e+01	62	37	0	688390144	46	5943
2026-01-02 03:45:47.18	283.63	23.06	-35.6	-36.9	29.0	3.02e+01	53	37	0	690487296	46	6005
2026-01-02 03:45:48.19	283.95	23.03	-35.6	-36.8	29.1	3.02e+01	59	37	0	692584448	46	5980
2026-01-02 03:45:49.20	284.27	22.99	-35.8	-37.0	29.1	3.02e+01	58	37	0	694157312	46	6127
2026-01-02 03:45:50.21	284.59	22.95	-35.7	-36.9	29.0	3.02e+01	55	37	0	696254464	46	6040
2026-01-02 03:45:51.22	284.91	22.92	-35.6	-36.8	29.1	3.02e+01	60	37	0	697827328	46	5946
2026-01-02 03:45:52.23	285.23	22.88	-35.5	-36.7	29.2	3.02e+01	60	37	0	699924480	46	5911
2026-01-02 03:45:53.24	285.54	22.84	-35.6	-36.8	29.2	3.02e+01	44	38	0	702021632	46	5950
2026-01-02 03:45:54.25	285.86	22.80	-35.6	-36.8	29.1	3.02e+01	59	38	0	703594496	46	5985
2026-01-02 03:45:55.26	286.17	22.76	-35.5	-36.7	29.2	3.02e+01	60	37	0	705691648	46	5907
2026-01-02 03:45:56.27	286.49	22.72	-35.7	-36.9	29.1	3.02e+01	58	37	0	707264512	46	6021
2026-01-02 03:45:57.27	286.80	22.68	-35.7	-36.9	29.1	3.02e+01	62	38	0	709361664	46	6010
2026-01-02 03:45:58.28	287.11	22.63	-36.0	-37.2	28.9	3.02e+01	63	37	0	711458816	46	6274
2026-01-02 03:45:59.29	287.42	22.59	-35.7	-37.0	29.0	3.02e+01	59	37	0	713031680	46	6088
2026-01-02 03:46:00.30	287.73	22.55	-35.5	-36.8	29.2	3.02e+01	57	37	0	715128832	46	5930
2026-01-02 03:46:01.31	288.04	22.50	-35.4	-36.6	29.3	3.02e+01	45	37	0	716701696	46	5799
2026-01-02 03:46:02.32	288.35	22.45	-35.4	-36.6	29.4	3.02e+01	61	37	0	718798848	46	5800
2026-01-02 03:46:03.33	288.66	22.41	-35.4	-36.6	29.3	3.02e+01	61	38	0	720896000	46	5834
2026-01-02 03:46:04.34	288.97	22.36	-35.3	-36.5	29.3	3.02e+01	61	37	0	722468864	46	5763
2026-01-02 03:46:05.35	289.27	22.31	-35.4	-36.6	29.4	3.02e+01	61	37	0	724566016	46	5809
2026-01-02 03:46:06.36	289.58	22.26	-35.4	-36.6	29.3	3.02e+01	43	37	0	726663168	46	5823
2026-01-02 03:46:07.37	289.88	22.21	-35.5	-36.7	29.2	3.02e+01	60	38	0	728236032	46	5926
2026-01-02 03:46:08.38	290.19	22.16	-35.5	-36.7	29.2	3.02e+01	59	37	0	730333184	46	5913
2026-01-02 03:46:09.39	290.49	22.11	-35.4	-36.6	29.3	3.02e+01	48	37	0	731906048	46	5852
2026-01-02 03:46:10.40	290.79	22.06	-35.3	-36.5	29.4	3.02e+01	57	37	0	734003200	46	5786
2026-01-02 03:46:11.41	291.09	22.01	-35.3	-36.5	29.4	3.02e+01	57	37	0	736100352	46	5782
2026-01-02 03:46:12.42	291.39	21.96	-35.4	-36.6	29.4	3.02e+01	60	37	0	737673216	46	5840
2026-01-02 03:46:13.42	291.68	21.91	-35.3	-36.5	29.4	3.02e+01	62	37	0	739770368	46	5781
2026-01-02 03:46:14.43	291.98	21.85	-35.6	-36.8	29.2	3.02e+01	50	37	0	741343232	46	5960
2026-01-02 03:46:15.44	292.27	21.80	-35.8	-37.0	29.0	3.02e+01	60	37	0	743440384	46	6100
2026-01-02 03:46:16.45	292.57	21.74	-35.5	-36.7	29.2	3.02e+01	60	37	0	745537536	46	5906
2026-01-02 03:46:17.46	292.86	21.69	-35.3	-36.5	29.4	3.02e+01	59	37	0	747110400	46	5738
2026-01-02 03:46:18.47	293.15	21.63	-35.2	-36.4	29.4	3.02e+01	61	37	0	749207552	46	5687
2026-01-02 03:46:19.48	293.45	21.57	-35.3	-36.5	29.3	3.02e+01	46	37	0	751304704	46	5785
2026-01-02 03:46:20.49	293.74	21.52	-35.4	-36.7	29.3	3.02e+01	60	37	0	752877568	46	5866
2026-01-02 03:46:21.50	294.03	21.46	-35.4	-36.6	29.3	3.02e+01	60	37	0	754974720	46	5796
2026-01-02 03:46:22.51	294.31	21.40	-35.2	-36.4	29.6	3.02e+01	46	37	0	756547584	46	5664
2026-01-02 03:46:23.52	294.60	21.34	-35.4	-36.6	29.4	3.02e+01	61	37	0	758644736	46	5818
2026-01-02 03:46:24.53	294.89	21.28	-35.7	-36.9	29.2	3.02e+01	61	37	0	760217600	46	6013
2026-01-02 03:46:25.54	295.17	21.22	-35.5	-36.7	29.2	3.02e+01	55	37	0	762314752	46	5904
2026-01-02 03:46:26.55	295.45	21.16	-35.5	-36.7	29.1	3.02e+01	61	37	0	764411904	46	5920
2026-01-02 03:46:27.56	295.74	21.10	-35.5	-36.7	29.4	3.02e+01	57	37	0	765984768	46	5902
2026-01-02 03:46:28.56	296.01	21.04	-35.3	-36.5	29.3	3.02e+01	57	38	0	768081920	46	5785
2026-01-02 03:46:29.58	296.30	20.97	-35.3	-36.5	29.5	3.02e+01	60	37	0	769654784	46	5769
2026-01-02 03:46:30.59	296.58	20.91	-35.2	-36.4	29.5	3.02e+01	50	37	0	771751936	46	5670
2026-01-02 03:46:31.59	296.85	20.85	-35.3	-36.5	29.4	3.02e+01	60	38	0	773849088	46	5737
2026-01-02 03:46:32.60	297.13	20.78	-35.2	-36.4	29.5	3.02e+01	58	37	0	775421952	46	5677
2026-01-02 03:46:33.61	297.40	20.72	-35.3	-36.5	29.5	3.02e+01	58	37	0	777519104	46	5736
2026-01-02 03:46:34.62	297.68	20.66	-35.3	-36.5	29.4	3.02e+01	57	37	0	779616256	46	5761
2026-01-02 03:46:35.63	297.95	20.59	-35.3	-36.6	29.4	3.02e+01	56	38	0	781189120	46	5796
2026-01-02 03:46:36.64	298.22	20.53	-35.4	-36.6	29.4	3.02e+01	57	38	0	783286272	46	5797
2026-01-02 03:46:37.65	298.49	20.46	-35.3	-36.5	29.4	3.02e+01	61	37	0	784859136	46	5762
2026-01-02 03:46:38.66	298.76	20.39	-35.2	-36.4	29.5	3.02e+01	49	37	0	786956288	46	5713
2026-01-02 03:46:39.67	299.03	20.33	-35.1	-36.3	29.6	3.02e+01	56	37	0	789053440	46	5596
2026-01-02 03:46:40.68	299.29	20.26	-35.2	-36.4	29.5	3.02e+01	60	37	0	790626304	46	5687
2026-01-02 03:46:41.69	299.56	20.19	-35.2	-36.4	29.5	3.02e+01	61	37	0	792723456	46	5705
2026-01-02 03:46:42.70	299.82	20.12	-35.3	-36.5	29.4	3.02e+01	60	38	0	794820608	46	5750
2026-01-02 03:46:43.70	300.08	20.06	-35.2	-36.4	29.4	3.02e+01	44	38	0	796393472	46	5687
2026-01-02 03:46:44.71	300.35	19.99	-35.3	-36.5	29.4	3.02e+01	54	38	0	798490624	46	5757
2026-01-02 03:46:45.72	300.61	19.92	-35.2	-36.5	29.4	3.02e+01	61	38	0	800063488	46	5727
2026-01-02 03:46:46.73	300.87	19.85	-35.2	-36.4	29.4	3.02e+01	46	37	0	802160640	46	5706
2026-01-02 03:46:47.74	301.12	19.78	-34.8	-36.0	29.7	3.02e+01	59	38	0	804257792	44	6099
2026-01-02 03:46:48.75	301.38	19.71	-34.8	-36.0	29.8	3.02e+01	59	37	0	805830656	44	6090
2026-01-02 03:46:49.76	301.64	19.64	-34.9	-36.1	29.7	3.02e+01	62	37	0	807927808	44	6162
2026-01-02 03:46:50.77	301.89	19.57	-35.0	-36.2	29.6	3.02e+01	58	37	0	809500672	44	6262
2026-01-02 03:46:51.78	302.15	19.50	-35.1	-36.3	29.5	3.02e+01	57	37	0	811597824	44	6301
2026-01-02 03:46:52.79	302.40	19.43	-35.1	-36.4	29.5	3.02e+01	60	38	0	813694976	44	6360
2026-01-02 03:46:53.80	302.65	19.36	-35.1	-36.3	29.5	3.02e+01	60	37	0	815267840	44	6339
2026-01-02 03:46:54.81	302.90	19.28	-35.0	-36.2	29.6	3.02e+01	59	37	0	817364992	44	6266
2026-01-02 03:46:55.82	303.15	19.21	-35.0	-36.2	29.7	3.02e+01	57	37	0	818937856	44	6215
2026-01-02 03:46:56.82	303.39	19.14	-34.9	-36.1	29.8	3.02e+01	44	37	0	821035008	44	6178
2026-01-02 03:46:57.83	303.64	19.07	-34.9	-36.1	29.7	3.02e+01	56	37	0	823132160	44	6177
2026-01-02 03:46:58.84	303.88	19.00	-35.0	-36.2	29.6	3.02e+01	58	38	0	824705024	44	6244
2026-01-02 03:46:59.85	304.13	18.92	-35.1	-36.3	29.6	3.02e+01	44	38	0	826802176	44	6297
2026-01-02 03:47:00.86	304.37	18.85	-34.9	-36.1	29.7	3.02e+01	60	37	0	828375040	44	6150
2026-01-02 03:47:01.87	304.61	18.78	-34.9	-36.1	29.7	3.02e+01	60	37	0	830472192	44	6188
2026-01-02 03:47:02.88	304.85	18.70	-34.9	-36.2	29.6	3.02e+01	60	37	0	832569344	44	6208
2026-01-02 03:47:03.89	305.09	18.63	-35.1	-36.3	29.5	3.02e+01	59	37	0	834142208	44	6338
2026-01-02 03:47:04.90	305.33	18.55	-35.3	-36.6	29.3	3.02e+01	59	37	0	836239360	44	6515
2026-01-02 03:47:05.90	305.56	18.48	-35.1	-36.4	29.5	3.02e+01	57	37	0	837812224	44	6365
2026-01-02 03:47:06.91	305.80	18.41	-35.0	-36.2	29.6	3.02e+01	63	37	0	839909376	44	6229
2026-01-02 03:47:07.92	306.03	18.33	-35.0	-36.2	29.7	3.02e+01	51	37	0	842006528	44	6235
2026-01-02 03:47:08.93	306.26	18.26	-34.9	-36.2	29.6	3.02e+01	61	38	0	843579392	44	6208
2026-01-02 03:47:09.94	306.50	18.18	-35.1	-36.3	29.6	3.02e+01	59	38	0	845676544	44	6321
2026-01-02 03:47:10.95	306.73	18.10	-35.0	-36.3	29.6	3.02e+01	61	37	0	847773696	44	6278
2026-01-02 03:47:11.96	306.95	18.03	-35.0	-36.2	29.6	3.02e+01	57	38	0	849346560	44	6274
2026-01-02 03:47:12.97	307.18	17.95	-35.0	-36.2	29.6	3.02e+01	53	37	0	851443712	44	6272
2026-01-02 03:47:13.98	307.41	17.88	-35.2	-36.4	29.4	3.02e+01	61	38	0	853016576	44	6389
2026-01-02 03:47:14.99	307.64	17.80	-35.1	-36.4	29.5	3.02e+01	58	38	0	855113728	44	6357
2026-01-02 03:47:16.00	307.86	17.73	-35.1	-36.3	29.5	3.02e+01	44	37	0	857210880	44	6308
2026-01-02 03:47:17.00	308.08	17.65	-34.9	-36.1	29.7	3.02e+01	61	38	0	858783744	44	6183
2026-01-02 03:47:18.02	308.31	17.57	-34.9	-36.1	29.7	3.02e+01	59	37	0	860880896	44	6188
2026-01-02 03:47:19.03	308.53	17.50	-34.9	-36.1	29.6	3.02e+01	59	38	0	862453760	44	6189
2026-01-02 03:47:20.03	308.74	17.42	-35.0	-36.2	29.6	3.02e+01	59	37	0	864550912	44	6212
2026-01-02 03:47:21.04	308.96	17.34	-34.9	-36.1	29.6	3.02e+01	54	37	0	866648064	44	6154
2026-01-02 03:47:22.06	309.18	17.27	-34.8	-36.0	29.8	3.02e+01	56	37	0	868220928	44	6103
2026-01-02 03:47:23.06	309.40	17.19	-34.9	-36.1	29.6	3.02e+01	57	37	0	870318080	44	6155
2026-01-02 03:47:24.08	309.61	17.11	-34.9	-36.1	29.7	3.02e+01	47	37	0	871890944	44	6199
2026-01-02 03:47:25.09	309.83	17.03	-34.9	-36.1	29.6	3.02e+01	59	37	0	873988096	44	6163
2026-01-02 03:47:26.10	310.04	16.96	-35.0	-36.1	29.6	3.02e+01	40	37	0	876085248	44	6204
2026-01-02 03:47:27.10	310.25	16.88	-34.9	-36.1	29.6	3.02e+01	59	37	0	877658112	44	6199
2026-01-02 03:47:28.11	310.46	16.80	-35.0	-36.1	29.7	3.02e+01	58	37	0	879755264	44	6202
2026-01-02 03:47:29.12	310.67	16.73	-35.0	-36.2	29.6	3.02e+01	49	37	0	881328128	44	6270
2026-01-02 03:47:30.13	310.88	16.65	-34.9	-36.1	29.6	3.02e+01	58	38	0	883425280	44	6182
2026-01-02 03:47:31.14	311.09	16.57	-34.9	-36.1	29.6	3.02e+01	58	38	0	885522432	44	6176
2026-01-02 03:47:32.15	311.29	16.49	-34.9	-36.1	29.6	3.02e+01	57	38	0	887095296	44	6160
2026-01-02 03:47:33.16	311.50	16.41	-35.0	-36.1	29.7	3.02e+01	58	38	0	889192448	44	6200
2026-01-02 03:47:34.17	311.70	16.34	-35.0	-36.2	29.6	3.02e+01	48	38	0	891289600	44	6231
2026-01-02 03:47:35.18	311.91	16.26	-35.0	-36.2	29.6	3.02e+01	60	38	0	892862464	44	6220
2026-01-02 03:47:36.19	312.11	16.18	-35.0	-36.2	29.6	3.02e+01	61	37	0	894959616	44	6252
2026-01-02 03:47:37.20	312.31	16.10	-35.0	-36.2	29.6	3.02e+01	47	37	0	896532480	44	6269
2026-01-02 03:47:38.21	312.51	16.03	-35.1	-36.2	29.5	3.02e+01	60	37	0	898629632	44	6273
2026-01-02 03:47:39.22	312.71	15.95	-35.1	-36.3	29.5	3.02e+01	61	38	0	900726784	44	6280
2026-01-02 03:47:40.23	312.91	15.87	-35.0	-36.2	29.5	3.02e+01	57	37	0	902299648	44	6252
2026-01-02 03:47:41.24	313.10	15.79	-34.9	-36.1	29.6	3.02e+01	58	37	0	904396800	44	6185
2026-01-02 03:47:42.25	313.30	15.71	-34.9	-36.1	29.6	3.02e+01	54	37	0	905969664	44	6190
2026-01-02 03:47:43.26	313.49	15.63	-35.0	-36.1	29.6	3.02e+01	57	38	0	908066816	44	6203
2026-01-02 03:47:44.26	313.68	15.56	-35.0	-36.1	29.5	3.02e+01	60	37	0	910163968	44	6200
2026-01-02 03:47:45.28	313.88	15.48	-35.1	-36.3	29.4	3.02e+01	44	38	0	911736832	44	6291
2026-01-02 03:47:46.29	314.07	15.40	-35.1	-36.3	29.5	3.02e+01	58	37	0	913833984	44	6312
2026-01-02 03:47:47.30	314.26	15.32	-35.2	-36.4	29.3	3.02e+01	61	37	0	915931136	44	6422
2026-01-02 03:47:48.30	314.45	15.24	-35.2	-36.5	29.3	3.02e+01	55	37	0	917504000	44	6424
2026-01-02 03:47:49.31	314.63	15.17	-35.2	-36.4	29.4	3.02e+01	60	38	0	919601152	44	6420
2026-01-02 03:47:50.32	314.82	15.09	-35.2	-36.4	29.4	3.02e+01	61	37	0	921174016	44	6365
2026-01-02 03:47:51.33	315.01	15.01	-35.1	-36.3	29.4	3.02e+01	57	37	0	923271168	44	6319
2026-01-02 03:47:52.34	315.19	14.93	-35.1	-36.3	29.5	3.02e+01	57	37	0	925368320	44	6320
2026-01-02 03:47:53.35	315.38	14.85	-35.3	-36.5	29.4	3.02e+01	45	37	0	926941184	44	6461
2026-01-02 03:47:54.36	315.56	14.78	-35.2	-36.4	29.3	3.02e+01	56	37	0	929038336	44	6399
2026-01-02 03:47:55.37	315.74	14.70	-35.3	-36.5	29.4	3.02e+01	55	37	0	930611200	44	6450
2026-01-02 03:47:56.38	315.92	14.62	-35.1	-36.3	29.4	3.02e+01	61	37	0	932708352	44	6319
2026-01-02 03:47:57.39	316.10	14.54	-35.1	-36.4	29.4	3.02e+01	60	37	0	934805504	44	6351
2026-01-02 03:47:58.40	316.28	14.46	-35.1	-36.3	29.4	3.02e+01	53	37	0	936378368	44	6349
2026-01-02 03:47:59.41	316.46	14.39	-35.2	-36.4	29.3	3.02e+01	61	37	0	938475520	44	6397
2026-01-02 03:48:00.42	316.64	14.31	-35.2	-36.4	29.4	3.02e+01	59	37	0	940048384	44	6365
2026-01-02 03:48:01.42	316.81	14.23	-35.2	-36.4	29.3	3.02e+01	45	37	0	942145536	44	6400
2026-01-02 03:48:02.43	316.99	14.15	-35.3	-36.5	29.2	3.02e+01	59	38	0	944242688	44	6457
2026-01-02 03:48:03.44	317.16	14.07	-35.4	-36.6	29.2	3.02e+01	56	37	0	945815552	44	6526
2026-01-02 03:48:04.45	317.33	14.00	-35.4	-36.6	29.2	3.02e+01	59	38	0	947912704	44	6539
2026-01-02 03:48:05.46	317.51	13.92	-35.3	-36.6	29.2	3.02e+01	57	37	0	949485568	44	6502
2026-01-02 03:48:06.47	317.68	13.84	-35.4	-36.6	29.2	3.02e+01	52	37	0	951582720	44	6535
2026-01-02 03:48:07.48	317.85	13.76	-35.2	-36.4	29.3	3.02e+01	60	38	0	953679872	44	6393
2026-01-02 03:48:08.49	318.02	13.69	-35.2	-36.4	29.3	3.02e+01	59	37	0	955252736	44	6399
2026-01-02 03:48:09.50	318.19	13.61	-35.3	-36.5	29.3	3.02e+01	62	37	0	957349888	44	6484
2026-01-02 03:48:10.50	318.35	13.53	-35.3	-36.5	29.3	3.02e+01	57	38	0	959447040	44	6454
2026-01-02 03:48:11.51	318.52	13.46	-35.4	-36.6	29.2	3.02e+01	47	38	0	961019904	44	6548
2026-01-02 03:48:12.52	318.69	13.38	-35.3	-36.5	29.3	3.02e+01	59	38	0	963117056	44	6458
2026-01-02 03:48:13.53	318.85	13.30	-35.2	-36.4	29.3	3.02e+01	61	38	0	964689920	44	6410
2026-01-02 03:48:14.54	319.02	13.22	-35.4	-36.6	29.1	3.02e+01	46	37	0	966787072	44	6548
2026-01-02 03:48:15.55	319.18	13.15	-35.3	-36.5	29.2	3.02e+01	58	37	0	968884224	44	6445
2026-01-02 03:48:16.56	319.34	13.07	-35.4	-36.6	29.1	3.02e+01	58	37	0	970457088	44	6565
2026-01-02 03:48:17.56	319.50	12.99	-35.3	-36.5	29.2	3.02e+01	61	37	0	972554240	44	6468
2026-01-02 03:48:18.58	319.66	12.92	-35.4	-36.6	29.1	3.02e+01	59	37	0	974127104	44	6559
2026-01-02 03:48:19.58	319.82	12.84	-35.3	-36.5	29.1	3.02e+01	59	38	0	976224256	44	6496
2026-01-02 03:48:20.59	319.98	12.76	-35.3	-36.6	29.1	3.02e+01	59	38	0	978321408	44	6509
2026-01-02 03:48:21.60	320.14	12.69	-35.3	-36.5	29.1	3.02e+01	58	37	0	979894272	44	6483
2026-01-02 03:48:22.61	320.30	12.61	-35.5	-36.7	29.0	3.02e+01	46	37	0	981991424	44	6618
2026-01-02 03:48:23.62	320.45	12.53	-35.3	-36.6	29.1	3.02e+01	59	37	0	983564288	44	6509
2026-01-02 03:48:24.63	320.61	12.46	-35.4	-36.6	29.1	3.02e+01	59	37	0	985661440	44	6566
2026-01-02 03:48:25.64	320.76	12.38	-35.4	-36.6	29.1	3.02e+01	58	37	0	987758592	44	6520
2026-01-02 03:48:26.65	320.92	12.30	-35.5	-36.7	29.0	3.02e+01	56	38	0	989331456	44	6612
2026-01-02 03:48:27.66	321.07	12.23	-35.5	-36.7	29.1	3.02e+01	58	38	0	991428608	44	6611
2026-01-02 03:48:28.67	321.22	12.15	-35.4	-36.7	29.1	3.02e+01	61	38	0	993001472	44	6584
2026-01-02 03:48:29.68	321.37	12.08	-35.5	-36.7	29.0	3.02e+01	60	38	0	995098624	44	6609
2026-01-02 03:48:30.69	321.52	12.00	-35.4	-36.6	29.1	3.02e+01	46	37	0	997195776	44	6567
2026-01-02 03:48:31.70	321.67	11.93	-35.4	-36.6	29.0	3.02e+01	58	38	0	998768640	44	6550
2026-01-02 03:48:32.70	321.82	11.85	-35.4	-36.7	29.0	3.02e+01	60	37	0	1000865792	44	6579
2026-01-02 03:48:33.71	321.97	11.77	-35.5	-36.7	29.0	3.02e+01	59	37	0	1002438656	44	6635
2026-01-02 03:48:34.72	322.12	11.70	-35.6	-36.8	28.9	3.02e+01	61	37	0	1004535808	44	6700
2026-01-02 03:48:35.73	322.26	11.62	-35.8	-37.0	28.7	3.02e+01	59	37	0	1006632960	44	6833
2026-01-02 03:48:36.74	322.41	11.55	-35.6	-36.8	29.0	3.02e+01	61	37	0	1008205824	44	6704
2026-01-02 03:48:37.75	322.55	11.47	-35.6	-36.8	28.9	3.02e+01	61	37	0	1010302976	44	6677
2026-01-02 03:48:38.76	322.70	11.40	-35.7	-36.9	28.8	3.02e+01	61	37	0	1012400128	44	6752
2026-01-02 03:48:39.77	322.84	11.32	-35.7	-36.9	28.8	3.02e+01	59	38	0	1013972992	44	6770
2026-01-02 03:48:40.78	322.98	11.25	-35.6	-36.8	28.8	3.02e+01	53	37	0	1016070144	44	6720
2026-01-02 03:48:41.79	323.13	11.17	-35.7	-36.9	28.8	3.02e+01	56	38	0	1017643008	44	6787
2026-01-02 03:48:42.80	323.27	11.10	-35.9	-37.1	28.7	3.02e+01	58	38	0	1019740160	44	6938
2026-01-02 03:48:43.80	323.41	11.03	-35.9	-37.1	28.6	3.02e+01	44	37	0	1021837312	46	6171
2026-01-02 03:48:44.81	323.55	10.95	-35.9	-37.2	28.6	3.02e+01	59	37	0	1023410176	46	6230
2026-01-02 03:48:45.82	323.69	10.88	-35.9	-37.1	28.6	3.02e+01	58	38	0	1025507328	46	6183
2026-01-02 03:48:46.83	323.82	10.80	-36.0	-37.2	28.3	3.02e+01	59	38	0	1027604480	46	6277
2026-01-02 03:48:47.84	323.96	10.73	-35.9	-37.1	28.5	3.02e+01	61	37	0	1029177344	46	6195
2026-01-02 03:48:48.85	324.10	10.66	-36.0	-37.2	28.5	3.02e+01	37	38	0	1031274496	46	6261
2026-01-02 03:48:49.86	324.24	10.58	-36.0	-37.3	28.4	3.02e+01	57	37	0	1032847360	46	6307
2026-01-02 03:48:50.87	324.37	10.51	-36.1	-37.4	28.4	3.02e+01	57	38	0	1034944512	46	6364
2026-01-02 03:48:51.88	324.51	10.43	-36.2	-37.5	28.3	3.02e+01	48	37	0	1037041664	46	6441
2026-01-02 03:48:52.89	324.64	10.36	-36.2	-37.4	28.4	3.02e+01	59	38	0	1038614528	46	6410
2026-01-02 03:48:53.90	324.77	10.29	-36.1	-37.4	28.4	3.02e+01	60	37	0	1040711680	46	6373
2026-01-02 03:48:54.90	324.90	10.22	-36.3	-37.5	28.3	3.02e+01	60	38	0	1042284544	46	6482
2026-01-02 03:48:55.92	325.04	10.14	-36.2	-37.5	28.3	3.02e+01	59	37	0	1044381696	46	6450
2026-01-02 03:48:56.92	325.17	10.07	-36.3	-37.5	28.3	3.02e+01	48	38	0	1045954560	46	6481
2026-01-02 03:48:57.93	325.30	10.00	-36.1	-37.3	28.5	3.02e+01	59	38	0	1048051712	46	6332
2026-01-02 03:48:58.94	325.43	9.92	-36.0	-37.2	28.5	3.02e+01	61	38	0	1050148864	46	6268
2026-01-02 03:48:59.95	325.56	9.85	-36.1	-37.3	28.4	3.02e+01	50	38	0	1051721728	46	6342
2026-01-02 03:49:00.96	325.69	9.78	-36.0	-37.3	28.5	3.02e+01	60	38	0	1053818880	46	6288
2026-01-02 03:49:01.97	325.81	9.71	-36.0	-37.2	28.4	3.02e+01	59	38	0	1055916032	46	6269
2026-01-02 03:49:02.98	325.94	9.63	-36.2	-37.5	28.2	3.02e+01	60	38	0	1057488896	46	6437
2026-01-02 03:49:03.99	326.07	9.56	-36.1	-37.4	28.4	3.02e+01	60	38	0	1059586048	46	6364
2026-01-02 03:49:05.00	326.19	9.49	-36.1	-37.3	28.5	3.02e+01	54	38	0	1061158912	46	6333
2026-01-02 03:49:06.00	326.32	9.42	-36.3	-37.5	28.0	3.02e+01	64	38	0	1063256064	46	6494
2026-01-02 03:49:07.01	326.44	9.35	-36.0	-37.3	28.4	3.02e+01	59	38	0	1065353216	46	6314
2026-01-02 03:49:08.02	326.57	9.28	-36.2	-37.4	28.2	3.02e+01	47	38	0	1066926080	46	6407
2026-01-02 03:49:09.03	326.69	9.20	-36.2	-37.5	28.2	3.02e+01	59	38	0	1069023232	46	6455
2026-01-02 03:49:10.04	326.81	9.13	-36.3	-37.5	28.3	3.02e+01	59	38	0	1070596096	46	6494
2026-01-02 03:49:11.05	326.93	9.06	-36.4	-37.7	28.0	3.02e+01	58	37	0	1072693248	46	6629
2026-01-02 03:49:12.05	327.05	8.99	-36.4	-37.6	28.1	3.02e+01	60	37	0	1074790400	46	6560
2026-01-02 03:49:13.06	327.18	8.92	-36.6	-37.9	27.9	3.02e+01	46	38	0	1076363264	46	6751
2026-01-02 03:49:14.07	327.30	8.85	-36.7	-38.0	27.9	3.02e+01	57	38	0	1078460416	46	6823
2026-01-02 03:49:15.08	327.42	8.78	-36.5	-37.8	27.9	3.02e+01	59	37	0	1080557568	46	6691
2026-01-02 03:49:16.09	327.54	8.71	-36.7	-38.0	27.7	3.02e+01	45	37	0	1082130432	46	6828
2026-01-02 03:49:17.10	327.65	8.64	-36.7	-38.0	27.6	3.02e+01	58	38	0	1084227584	46	6823
2026-01-02 03:49:18.11	327.77	8.57	-36.6	-37.9	27.7	3.02e+01	48	37	0	1085800448	46	6792
2026-01-02 03:49:19.12	327.89	8.50	-36.6	-37.9	27.8	3.02e+01	57	38	0	1087897600	46	6741
2026-01-02 03:49:20.12	328.00	8.43	-36.5	-37.8	27.8	3.02e+01	59	37	0	1089470464	46	6705
2026-01-02 03:49:21.14	328.12	8.36	-36.6	-37.8	27.8	3.02e+01	50	37	0	1091567616	46	6726
2026-01-02 03:49:22.14	328.24	8.29	-36.5	-37.8	27.8	3.02e+01	61	38	0	1093664768	46	6690
2026-01-02 03:49:23.15	328.35	8.22	-36.4	-37.7	27.9	3.02e+01	58	38	0	1095237632	46	6630
2026-01-02 03:49:24.16	328.47	8.15	-36.6	-38.0	27.6	3.02e+01	63	37	0	1097334784	46	6806
2026-01-02 03:49:25.17	328.58	8.08	-36.4	-37.7	27.9	3.02e+01	57	38	0	1098907648	46	6619
2026-01-02 03:49:26.18	328.69	8.01	-36.5	-37.9	27.7	3.02e+01	47	37	0	1101004800	46	6730
2026-01-02 03:49:27.19	328.81	7.94	-36.6	-38.0	27.6	3.02e+01	63	38	0	1103101952	46	6810
2026-01-02 03:49:28.20	328.92	7.87	-36.5	-37.8	3.1	3.02e+01	58	38	0	1104674816	46	6715
2026-01-02 03:49:29.21	329.03	7.80	-37.1	-47.3	3.6	3.02e+01	0	37	104	1104674816	48	17743
2026-01-02 03:49:30.22	329.14	7.73	-37.1	-47.2	3.4	3.02e+01	0	38	104	1104674816	48	17601
2026-01-02 03:49:31.23	329.25	7.66	-37.4	-47.5	3.5	3.02e+01	0	38	104	1104674816	48	18122
2026-01-02 03:49:32.24	329.36	7.59	-37.8	-47.9	3.6	3.02e+01	0	38	104	1104674816	50	17034
2026-01-02 03:49:33.25	329.47	7.53	-39.1	-49.4	3.6	3.02e+01	0	38	104	1104674816	56	14250
2026-01-02 03:49:34.26	329.58	7.46	-47.8	-63.0	3.5	3.02e+01	0	38	104	1104674816	60	54364
2026-01-02 03:49:35.27	329.69	7.39	-45.2	-57.3	3.4	3.02e+01	0	38	104	1104674816	60	28299
2026-01-02 03:49:36.28	329.80	7.32	-40.5	-51.0	3.6	3.02e+01	0	38	104	1104674816	54	19332
2026-01-02 03:49:37.28	329.90	7.25	-38.8	-49.0	3.6	3.02e+01	0	38	104	1104674816	52	17243
2026-01-02 03:49:38.29	330.01	7.19	-38.7	-49.0	3.5	3.02e+01	0	37	104	1104674816	52	17130
2026-01-02 03:49:39.30	330.12	7.12	-38.8	-49.0	3.6	3.02e+01	0	37	104	1104674816	52	17183
2026-01-02 03:49:40.31	330.22	7.05	-38.9	-49.1	3.6	3.02e+01	0	38	104	1104674816	52	17449
2026-01-02 03:49:41.32	330.33	6.98	-38.7	-49.1	3.6	3.02e+01	0	38	104	1104674816	52	17353
2026-01-02 03:49:42.33	330.43	6.92	-39.6	-49.9	4.1	3.02e+01	0	38	104	1104674816	56	15112
2026-01-02 03:49:43.34	330.54	6.85	-47.5	-62.4	3.5	3.02e+01	0	38	104	1104674816	60	50842
2026-01-02 03:49:44.34	330.64	6.78	-46.5	-59.7	4.0	3.02e+01	0	38	104	1104674816	60	37277
2026-01-02 03:49:45.35	330.74	6.72	-40.7	-51.2	4.1	3.02e+01	0	38	104	1104674816	58	15739
2026-01-02 03:49:46.37	330.85	6.65	-38.4	-48.7	3.4	3.02e+01	0	37	104	1104674816	52	16585
2026-01-02 03:49:47.37	330.95	6.58	-38.1	-48.4	4.1	3.02e+01	0	37	104	1104674816	50	17995
2026-01-02 03:49:48.38	331.05	6.51	-38.1	-48.3	4.0	3.02e+01	0	37	104	1104674816	50	17875
2026-01-02 03:49:49.40	331.15	6.45	-38.4	-48.8	3.6	3.02e+01	0	38	104	1104674816	50	18888
2026-01-02 03:49:50.40	331.25	6.38	-41.7	-52.5	3.5	3.02e+01	0	38	104	1104674816	56	20506
2026-01-02 03:49:51.41	331.35	6.32	-37.9	-48.3	3.5	3.02e+01	0	37	104	1104674816	52	15904
2026-01-02 03:49:52.42	331.45	6.25	-47.5	-62.5	3.5	3.02e+01	0	37	104	1104674816	60	51612
2026-01-02 03:49:53.43	331.55	6.18	-40.5	-51.3	3.5	3.02e+01	0	38	104	1104674816	60	14059
2026-01-02 03:49:54.44	331.65	6.12	-40.5	-51.2	3.5	3.02e+01	0	38	104	1104674816	56	17527
2026-01-02 03:49:55.45	331.75	6.05	-39.3	-49.9	3.5	3.02e+01	0	38	104	1104674816	54	17003
2026-01-02 03:49:56.46	331.85	5.99	-38.6	-49.1	3.5	3.02e+01	0	38	104	1104674816	52	17314
2026-01-02 03:49:57.47	331.94	5.92	-37.8	-48.1	3.5	3.02e+01	0	38	104	1104674816	50	17420
2026-01-02 03:49:58.48	332.04	5.85	-37.7	-48.1	3.5	3.02e+01	0	37	104	1104674816	50	17372
2026-01-02 03:49:59.49	332.14	5.79	-37.9	-48.3	3.5	3.02e+01	0	38	104	1104674816	50	17778
2026-01-02 03:50:00.50	332.23	5.72	-38.7	-49.3	3.5	3.02e+01	0	38	104	1104674816	54	15818
2026-01-02 03:50:01.51	332.33	5.66	-46.9	-63.4	3.5	3.02e+01	0	37	104	1104674816	60	56783
2026-01-02 03:50:02.51	332.42	5.60	-42.0	-53.2	3.6	3.02e+01	0	38	104	1104674816	60	17578
2026-01-02 03:50:03.52	332.52	5.53	-42.2	-53.3	3.5	3.02e+01	0	38	104	1104674816	58	19937
2026-01-02 03:50:04.53	332.61	5.47	-41.9	-53.0	3.5	3.02e+01	0	38	104	1104674816	58	19309
2026-01-02 03:50:05.54	332.71	5.40	-41.7	-52.8	3.5	3.02e+01	0	38	104	1104674816	58	18875
2026-01-02 03:50:06.55	332.80	5.34	-42.2	-53.6	3.5	3.02e+01	0	38	104	1104674816	58	20585
2026-01-02 03:50:07.56	332.90	5.27	-44.0	-56.1	3.5	3.02e+01	0	38	104	1104674816	60	24448
2026-01-02 03:50:08.57	332.99	5.21	-45.3	-58.5	3.5	3.02e+01	0	38	104	1104674816	60	32434
2026-01-02 03:50:09.58	333.08	5.14	-41.3	-52.7	3.4	3.02e+01	0	37	104	1104674816	56	20806
2026-01-02 03:50:10.58	333.17	5.08	-43.7	-58.0	3.5	3.02e+01	0	38	104	1104674816	60	30515
2026-01-02 03:50:11.59	333.26	5.02	-41.9	-53.8	3.5	3.02e+01	0	38	104	1104674816	60	18741
2026-01-02 03:50:12.60	333.35	4.95	-42.8	-55.0	3.5	3.02e+01	0	38	104	1104674816	60	21666
2026-01-02 03:50:13.61	333.45	4.89	-43.0	-55.7	3.5	3.02e+01	0	38	104	1104674816	60	23344
