passes_logs/2026/01/02/R4.6S_Anadyr/R4.6S_Anadyr__20260102_222000_TY-42_rec.log

#Pass ID: 20260102_222000_TY-42
#Satellite: TY-42
#Configuration: TY-42_900M
#almurnet v.1.7.20251203
#Start time: 2026-01-02 22:20:30

#Version: 2.2.20231116
#Station: R4.6S_Anadyr
#Location: 177.4865 lon 64.73178 lat
#TLE: 1 64048U 25103A   26002.21768519  .00008010  00000-0  38191-3 0 09996
#TLE: 2 64048 097.4116 077.8767 0001783 096.3425 062.0388 15.19169548 34870

#Time	Az	El	Level	Level2	SNR	BER	BlckErr	Temp	State	Recorded	gain1	gain2
2026-01-02 22:20:30.43	22.40	1.85	-49.8	-64.8	3.5	1.51e+00	0	37	0	0	60	62623
2026-01-02 22:20:31.43	22.47	1.91	-48.5	-51.0	6.1	0.00e+00	0	38	104	0	60	43450
2026-01-02 22:20:32.44	22.54	1.97	-48.5	-51.0	6.1	0.00e+00	0	38	104	0	60	43334
2026-01-02 22:20:33.45	22.62	2.04	-48.5	-50.9	6.1	0.00e+00	0	38	104	0	60	43189
2026-01-02 22:20:34.47	22.69	2.10	-48.5	-51.0	6.1	0.00e+00	0	38	104	0	60	43322
2026-01-02 22:20:35.48	22.77	2.17	-48.5	-51.0	6.0	0.00e+00	0	38	104	0	60	43355
2026-01-02 22:20:36.49	22.84	2.23	-48.5	-51.0	6.1	0.00e+00	0	38	104	0	60	43559
2026-01-02 22:20:37.50	22.91	2.30	-48.5	-51.0	6.1	0.00e+00	0	38	104	0	60	43288
2026-01-02 22:20:38.51	22.99	2.36	-48.5	-51.0	6.1	0.00e+00	0	38	104	0	60	43357
2026-01-02 22:20:39.52	23.06	2.43	-48.5	-51.0	6.1	0.00e+00	0	38	104	0	60	43453
2026-01-02 22:20:40.53	23.14	2.49	-48.5	-51.0	6.1	0.00e+00	0	38	104	0	60	43281
2026-01-02 22:20:41.54	23.22	2.56	-48.5	-50.9	6.1	0.00e+00	0	38	104	0	60	43205
2026-01-02 22:20:42.55	23.29	2.63	-48.5	-51.0	6.1	0.00e+00	0	38	104	0	60	43388
2026-01-02 22:20:43.56	23.37	2.69	-48.5	-51.0	6.0	0.00e+00	0	39	104	0	60	43380
2026-01-02 22:20:44.57	23.45	2.76	-48.5	-51.0	6.1	0.00e+00	0	39	104	0	60	43420
2026-01-02 22:20:45.58	23.53	2.82	-48.5	-51.0	6.1	0.00e+00	0	39	104	0	60	43446
2026-01-02 22:20:46.59	23.60	2.89	-48.5	-51.0	6.1	0.00e+00	0	39	104	0	60	43427
2026-01-02 22:20:47.60	23.68	2.96	-48.5	-50.9	6.1	0.00e+00	0	39	104	0	60	43202
2026-01-02 22:20:48.61	23.76	3.02	-48.4	-50.9	6.1	0.00e+00	0	39	104	0	60	42806
2026-01-02 22:20:49.62	23.84	3.09	-48.4	-50.8	6.1	0.00e+00	0	39	104	0	60	42287
2026-01-02 22:20:50.63	23.92	3.16	-48.3	-50.7	6.1	0.00e+00	0	39	104	0	60	42120
2026-01-02 22:20:51.64	24.00	3.23	-48.3	-50.7	6.1	0.00e+00	0	39	104	0	60	42016
2026-01-02 22:20:52.65	24.08	3.29	-48.3	-50.7	6.1	0.00e+00	0	39	104	0	60	42215
2026-01-02 22:20:53.66	24.16	3.36	-48.4	-50.8	6.1	0.00e+00	0	39	104	0	60	42575
2026-01-02 22:20:54.67	24.24	3.43	-48.4	-50.9	6.1	0.00e+00	0	39	104	0	60	43070
2026-01-02 22:20:55.68	24.33	3.50	-30.2	-30.5	12.8	0.00e+00	2404	39	104	0	34	18361
2026-01-02 22:20:56.69	24.41	3.57	-31.4	-31.8	14.5	3.78e-02	0	39	0	41943040	36	18921
2026-01-02 22:20:57.70	24.49	3.63	-34.0	-34.3	13.2	3.78e-02	0	39	0	159383552	42	17988
2026-01-02 22:20:58.71	24.58	3.70	-33.1	-33.6	12.7	3.76e-02	0	39	0	276824064	38	20729
2026-01-02 22:20:59.72	24.66	3.77	-31.5	-31.9	14.6	3.76e-02	0	39	0	385875968	40	15217
2026-01-02 22:21:00.72	24.74	3.84	-41.8	-42.3	6.6	1.02e-01	117	39	104	494927872	46	35623
2026-01-02 22:21:01.73	24.83	3.91	-40.1	-40.6	9.6	0.00e+00	417	39	104	494927872	60	13149
2026-01-02 22:21:02.74	24.91	3.98	-32.7	-33.0	12.0	0.00e+00	1661	39	104	494927872	36	21870
2026-01-02 22:21:03.75	25.00	4.05	-36.4	-36.8	10.8	0.00e+00	534	39	104	494927872	52	13367
2026-01-02 22:21:04.76	25.09	4.12	-34.6	-35.0	12.0	0.00e+00	4527	39	104	494927872	44	17205
2026-01-02 22:21:05.78	25.17	4.19	-34.9	-35.2	12.8	6.03e-02	0	39	0	587202560	44	17791
2026-01-02 22:21:06.79	25.26	4.26	-34.8	-35.1	12.5	7.69e-02	0	39	0	696254464	44	17558
2026-01-02 22:21:07.80	25.35	4.33	-36.3	-36.6	12.2	7.69e-02	92	39	0	813694976	46	18440
2026-01-02 22:21:08.81	25.44	4.40	-35.4	-35.7	12.8	7.69e-02	0	39	0	931135488	46	16790
2026-01-02 22:21:09.82	25.53	4.47	-33.2	-33.6	13.9	1.11e-01	0	39	0	1040187392	42	16518
2026-01-02 22:21:10.83	25.62	4.54	-31.5	-31.9	14.7	1.11e-01	0	40	0	1149239296	38	17027
2026-01-02 22:21:11.84	25.71	4.61	-30.6	-31.0	15.0	2.75e-02	0	39	0	1266679808	36	17349
2026-01-02 22:21:12.85	25.80	4.69	-30.5	-30.9	15.1	2.75e-02	0	39	0	1384120320	36	17016
2026-01-02 22:21:13.86	25.89	4.76	-30.8	-31.1	15.0	3.91e-03	0	40	0	1493172224	36	17558
2026-01-02 22:21:14.86	25.98	4.83	-30.7	-31.1	15.1	3.91e-03	0	39	0	1610612736	36	17408
2026-01-02 22:21:15.88	26.07	4.90	-31.0	-31.4	15.2	3.86e-03	0	39	0	1719664640	36	18075
2026-01-02 22:21:16.89	26.16	4.97	-30.9	-31.2	15.1	3.86e-03	0	40	0	1828716544	36	17783
2026-01-02 22:21:17.90	26.26	5.05	-30.5	-30.9	15.3	3.86e-03	0	40	0	1954545664	36	17013
2026-01-02 22:21:18.91	26.35	5.12	-30.5	-30.9	15.1	3.36e-03	0	40	0	2063597568	36	17120
2026-01-02 22:21:19.91	26.44	5.19	-31.0	-31.4	15.1	3.36e-03	0	40	0	2172649472	36	18045
2026-01-02 22:21:20.93	26.54	5.26	-30.3	-30.7	15.4	3.72e-03	0	40	0	2290089984	36	16625
2026-01-02 22:21:21.94	26.63	5.34	-29.3	-29.7	15.7	3.72e-03	0	40	0	2399141888	34	16721
2026-01-02 22:21:22.95	26.73	5.41	-29.1	-29.4	15.9	1.72e-03	0	40	0	2516582400	34	16228
2026-01-02 22:21:23.96	26.83	5.48	-29.2	-29.6	15.8	1.72e-03	0	40	0	2634022912	34	16449
2026-01-02 22:21:24.97	26.92	5.56	-28.9	-29.3	15.9	1.72e-03	0	40	0	2743074816	34	16011
2026-01-02 22:21:25.98	27.02	5.63	-29.3	-29.7	15.8	7.57e-04	0	40	0	2860515328	34	16632
2026-01-02 22:21:26.99	27.12	5.71	-28.6	-29.0	16.0	7.03e-04	0	40	0	2969567232	34	15461
2026-01-02 22:21:28.00	27.22	5.78	-28.9	-29.3	15.9	7.03e-04	0	40	0	3087007744	32	17934
2026-01-02 22:21:29.00	27.32	5.86	-28.8	-29.2	15.9	6.87e-04	0	40	0	3196059648	32	17734
2026-01-02 22:21:30.02	27.42	5.93	-28.9	-29.3	15.9	6.87e-04	0	40	0	3313500160	32	17826
2026-01-02 22:21:31.02	27.52	6.01	-28.9	-29.3	15.9	6.87e-04	0	40	0	3422552064	32	17963
2026-01-02 22:21:32.03	27.62	6.08	-29.0	-29.4	15.9	7.57e-04	0	40	0	3539992576	32	18100
2026-01-02 22:21:33.04	27.72	6.16	-28.8	-29.2	16.0	7.57e-04	0	40	0	3649044480	32	17672
2026-01-02 22:21:34.05	27.83	6.23	-28.8	-29.3	16.0	5.50e-04	0	40	0	3766484992	32	17816
2026-01-02 22:21:35.06	27.93	6.31	-28.8	-29.2	16.0	5.50e-04	0	40	0	3883925504	32	17760
2026-01-02 22:21:36.07	28.03	6.39	-28.8	-29.2	16.0	4.20e-04	0	40	0	3992977408	32	17711
2026-01-02 22:21:37.08	28.14	6.46	-28.7	-29.1	16.1	3.05e-04	0	40	0	4102029312	32	17564
2026-01-02 22:21:38.09	28.24	6.54	-28.5	-28.9	16.1	3.05e-04	0	40	0	4219469824	32	17181
2026-01-02 22:21:39.10	28.35	6.62	-28.5	-28.9	16.1	3.27e-04	0	40	0	4336910336	32	17184
2026-01-02 22:21:40.10	28.45	6.69	-28.7	-29.1	16.1	3.27e-04	0	40	0	4445962240	32	17547
2026-01-02 22:21:41.11	28.56	6.77	-28.8	-29.2	16.0	3.27e-04	0	40	0	4563402752	32	17690
2026-01-02 22:21:42.12	28.67	6.85	-28.7	-29.1	16.0	2.12e-04	0	40	0	4672454656	32	17491
2026-01-02 22:21:43.13	28.78	6.93	-28.6	-29.0	16.1	2.12e-04	0	40	0	4789895168	32	17225
2026-01-02 22:21:44.14	28.89	7.01	-28.7	-29.1	16.1	3.76e-04	0	40	0	4898947072	32	17472
2026-01-02 22:21:45.15	29.00	7.08	-28.5	-28.9	16.1	3.76e-04	0	40	0	5016387584	32	17121
2026-01-02 22:21:46.16	29.11	7.16	-28.7	-29.1	16.1	4.09e-04	0	40	0	5125439488	32	17559
2026-01-02 22:21:47.17	29.22	7.24	-28.7	-29.1	16.1	4.09e-04	0	40	0	5242880000	32	17503
2026-01-02 22:21:48.18	29.33	7.32	-28.2	-28.6	16.3	2.02e-04	0	40	0	5351931904	32	16565
2026-01-02 22:21:49.19	29.45	7.40	-28.3	-28.6	16.2	2.02e-04	0	40	0	5469372416	32	16612
2026-01-02 22:21:50.20	29.56	7.48	-28.3	-28.7	16.3	2.40e-04	0	40	0	5586812928	32	16648
2026-01-02 22:21:51.21	29.67	7.56	-28.5	-28.9	16.2	2.40e-04	0	40	0	5695864832	32	17075
2026-01-02 22:21:52.22	29.79	7.64	-28.2	-28.6	16.3	2.40e-04	0	40	0	5813305344	32	16521
2026-01-02 22:21:53.23	29.91	7.72	-28.4	-28.8	16.3	1.47e-04	0	40	0	5922357248	32	16918
2026-01-02 22:21:54.24	30.02	7.80	-28.1	-28.5	16.3	1.47e-04	0	40	0	6031409152	32	16402
2026-01-02 22:21:55.25	30.14	7.88	-28.1	-28.5	16.3	1.03e-04	0	40	0	6148849664	32	16391
2026-01-02 22:21:56.25	30.26	7.97	-28.2	-28.6	16.3	1.03e-04	0	40	0	6266290176	32	16565
2026-01-02 22:21:57.26	30.38	8.05	-28.0	-28.5	16.3	1.42e-04	0	40	0	6375342080	32	16282
2026-01-02 22:21:58.28	30.50	8.13	-28.1	-28.5	16.3	1.42e-04	0	40	0	6492782592	32	16295
2026-01-02 22:21:59.29	30.62	8.21	-28.2	-28.6	16.2	1.42e-04	0	40	0	6601834496	32	16477
2026-01-02 22:22:00.30	30.74	8.29	-28.1	-28.5	16.2	1.25e-04	0	40	0	6719275008	32	16418
2026-01-02 22:22:01.31	30.86	8.38	-28.1	-28.5	16.2	1.25e-04	0	40	0	6836715520	32	16411
2026-01-02 22:22:02.32	30.98	8.46	-27.9	-28.3	16.3	2.12e-04	0	40	0	6945767424	32	15997
2026-01-02 22:22:03.33	31.11	8.54	-27.9	-28.3	16.4	2.12e-04	0	40	0	7054819328	32	15988
2026-01-02 22:22:04.33	31.23	8.63	-28.0	-28.4	16.4	1.14e-04	0	40	0	7172259840	32	16209
2026-01-02 22:22:05.34	31.36	8.71	-27.9	-28.3	16.3	1.14e-04	0	40	0	7281311744	32	15976
2026-01-02 22:22:06.36	31.49	8.80	-27.8	-28.2	16.4	1.14e-04	0	40	0	7398752256	30	17670
2026-01-02 22:22:07.37	31.61	8.88	-28.0	-28.4	16.3	1.14e-04	0	40	0	7516192768	30	18214
2026-01-02 22:22:08.37	31.74	8.96	-27.7	-28.2	16.4	1.14e-04	0	40	0	7625244672	30	17627
2026-01-02 22:22:09.38	31.87	9.05	-27.7	-28.1	16.4	1.14e-04	0	40	0	7742685184	30	17600
2026-01-02 22:22:10.40	32.00	9.13	-27.7	-28.1	16.5	7.08e-05	0	40	0	7851737088	30	17540
2026-01-02 22:22:11.40	32.13	9.22	-27.6	-28.1	16.5	7.08e-05	0	40	0	7969177600	30	17429
2026-01-02 22:22:12.41	32.26	9.30	-27.7	-28.1	16.5	4.35e-05	0	40	0	8078229504	30	17559
2026-01-02 22:22:13.42	32.40	9.39	-27.4	-27.8	16.5	4.35e-05	0	40	0	8195670016	30	16930
2026-01-02 22:22:14.43	32.53	9.48	-27.4	-27.9	16.5	2.17e-05	0	41	0	8304721920	30	17032
2026-01-02 22:22:15.44	32.66	9.56	-27.5	-27.9	16.5	2.17e-05	0	41	0	8422162432	30	17157
2026-01-02 22:22:16.45	32.80	9.65	-27.3	-27.8	16.3	5.44e-05	0	41	0	8539602944	30	16852
2026-01-02 22:22:17.46	32.94	9.74	-27.1	-27.6	16.3	5.44e-05	0	41	0	8648654848	30	16446
2026-01-02 22:22:18.47	33.07	9.83	-27.2	-27.6	16.3	5.99e-05	0	41	0	8766095360	30	16550
2026-01-02 22:22:19.48	33.21	9.91	-27.0	-27.4	16.4	5.99e-05	0	41	0	8875147264	30	16169
2026-01-02 22:22:20.49	33.35	10.00	-27.0	-27.4	16.4	4.90e-05	0	41	0	8984199168	30	16196
2026-01-02 22:22:21.50	33.49	10.09	-27.0	-27.5	16.5	4.90e-05	0	41	0	9101639680	30	16244
2026-01-02 22:22:22.51	33.63	10.18	-27.0	-27.5	16.5	3.26e-05	0	41	0	9219080192	30	16313
2026-01-02 22:22:23.51	33.78	10.27	-27.1	-27.5	16.6	3.26e-05	0	41	0	9328132096	30	16358
2026-01-02 22:22:24.52	33.92	10.36	-26.9	-27.3	16.6	2.72e-05	0	41	0	9445572608	30	16042
2026-01-02 22:22:25.53	34.06	10.44	-27.1	-27.5	16.6	2.72e-05	0	41	0	9554624512	30	16331
2026-01-02 22:22:26.55	34.21	10.54	-26.9	-27.3	16.7	2.72e-05	0	41	0	9672065024	30	15960
2026-01-02 22:22:27.56	34.36	10.63	-26.9	-27.4	16.6	1.08e-05	0	41	0	9789505536	30	16085
2026-01-02 22:22:28.56	34.50	10.71	-27.0	-27.4	16.7	1.08e-05	0	41	0	9898557440	30	16171
2026-01-02 22:22:29.57	34.65	10.81	-26.8	-27.3	16.7	5.40e-06	0	41	0	10007609344	30	15944
2026-01-02 22:22:30.58	34.80	10.90	-27.0	-27.5	16.6	5.40e-06	0	41	0	10125049856	30	16315
2026-01-02 22:22:31.59	34.95	10.99	-26.9	-27.3	16.6	1.63e-05	0	41	0	10234101760	30	16004
2026-01-02 22:22:32.60	35.11	11.08	-27.0	-27.4	16.6	5.40e-06	0	41	0	10351542272	30	16192
2026-01-02 22:22:33.61	35.26	11.17	-27.0	-27.4	16.6	5.40e-06	0	41	0	10468982784	30	16124
2026-01-02 22:22:34.62	35.41	11.26	-26.9	-27.3	16.7	5.40e-06	0	41	0	10578034688	30	16035
2026-01-02 22:22:35.63	35.57	11.36	-26.7	-27.1	16.7	5.40e-06	0	41	0	10687086592	28	17597
2026-01-02 22:22:36.64	35.73	11.45	-26.9	-27.3	16.6	5.40e-06	0	41	0	10804527104	28	17925
2026-01-02 22:22:37.65	35.88	11.54	-26.9	-27.4	16.7	0.00e+00	0	41	0	10921967616	28	18019
2026-01-02 22:22:38.66	36.04	11.63	-26.8	-27.2	16.7	0.00e+00	0	41	0	11031019520	28	17772
2026-01-02 22:22:39.67	36.20	11.73	-26.7	-27.1	16.7	1.08e-05	0	41	0	11148460032	28	17581
2026-01-02 22:22:40.68	36.37	11.82	-26.6	-27.1	16.7	1.08e-05	0	41	0	11257511936	28	17492
2026-01-02 22:22:41.69	36.53	11.92	-26.6	-27.1	16.7	1.63e-05	0	41	0	11374952448	28	17471
2026-01-02 22:22:42.70	36.69	12.01	-26.5	-27.0	16.7	1.63e-05	0	41	0	11492392960	28	17299
2026-01-02 22:22:43.70	36.86	12.10	-26.7	-27.1	16.6	5.40e-06	0	41	0	11601444864	28	17572
2026-01-02 22:22:44.71	37.02	12.20	-26.6	-27.0	16.4	5.40e-06	0	41	0	11718885376	28	17215
2026-01-02 22:22:45.72	37.19	12.30	-26.6	-27.1	16.3	3.81e-05	0	41	0	11827937280	28	17415
2026-01-02 22:22:46.73	37.36	12.39	-26.3	-26.8	16.3	3.81e-05	0	41	0	11936989184	28	16826
2026-01-02 22:22:47.74	37.53	12.49	-26.2	-26.7	16.3	5.44e-05	0	41	0	12054429696	28	16660
2026-01-02 22:22:48.75	37.70	12.58	-26.1	-26.6	16.4	5.44e-05	0	41	0	12171870208	28	16471
2026-01-02 22:22:49.76	37.87	12.68	-26.2	-26.6	16.5	3.81e-05	0	41	0	12280922112	28	16510
2026-01-02 22:22:50.77	38.05	12.78	-26.1	-26.5	16.6	3.81e-05	0	41	0	12398362624	28	16321
2026-01-02 22:22:51.78	38.22	12.87	-25.9	-26.3	16.8	1.08e-05	0	41	0	12507414528	28	16006
2026-01-02 22:22:52.79	38.40	12.97	-25.9	-26.4	16.8	1.08e-05	0	41	0	12624855040	28	16098
2026-01-02 22:22:53.80	38.58	13.07	-25.8	-26.3	16.9	0.00e+00	0	41	0	12742295552	28	15950
2026-01-02 22:22:54.81	38.76	13.17	-25.9	-26.3	16.9	0.00e+00	0	41	0	12851347456	28	16034
2026-01-02 22:22:55.82	38.94	13.27	-25.8	-26.3	16.9	0.00e+00	0	41	0	12968787968	26	17825
2026-01-02 22:22:56.82	39.12	13.36	-25.7	-26.1	17.0	0.00e+00	0	41	0	13077839872	26	17567
2026-01-02 22:22:57.84	39.31	13.46	-25.7	-26.2	17.0	0.00e+00	0	41	0	13186891776	26	17697
2026-01-02 22:22:58.85	39.49	13.56	-25.8	-26.3	17.0	0.00e+00	0	41	0	13304332288	26	17831
2026-01-02 22:22:59.86	39.68	13.66	-25.7	-26.1	17.0	0.00e+00	0	41	0	13421772800	26	17534
2026-01-02 22:23:00.86	39.87	13.76	-25.6	-26.1	16.9	0.00e+00	0	41	0	13530824704	26	17453
2026-01-02 22:23:01.87	40.06	13.86	-25.4	-25.8	16.9	0.00e+00	0	41	0	13648265216	26	16943
2026-01-02 22:23:02.88	40.25	13.96	-25.5	-25.9	16.9	0.00e+00	0	41	0	13757317120	26	17168
2026-01-02 22:23:03.89	40.44	14.06	-25.4	-25.9	17.0	0.00e+00	0	41	0	13866369024	26	17045
2026-01-02 22:23:04.90	40.63	14.16	-25.4	-25.9	17.0	0.00e+00	0	41	0	13992198144	26	17030
2026-01-02 22:23:05.91	40.83	14.27	-25.4	-25.8	17.0	0.00e+00	0	41	0	14101250048	26	16896
2026-01-02 22:23:06.92	41.03	14.37	-25.4	-25.9	17.0	0.00e+00	0	41	0	14210301952	26	17013
2026-01-02 22:23:07.93	41.23	14.47	-25.2	-25.7	17.1	0.00e+00	0	41	0	14327742464	26	16635
2026-01-02 22:23:08.94	41.43	14.57	-25.1	-25.6	17.1	0.00e+00	0	41	0	14436794368	26	16493
2026-01-02 22:23:09.95	41.63	14.67	-25.4	-25.8	17.0	0.00e+00	0	41	0	14554234880	26	16974
2026-01-02 22:23:10.96	41.83	14.78	-25.2	-25.7	17.1	0.00e+00	0	41	0	14671675392	26	16648
2026-01-02 22:23:11.96	42.04	14.88	-25.3	-25.8	16.9	0.00e+00	0	41	0	14780727296	26	16909
2026-01-02 22:23:12.97	42.24	14.98	-25.2	-25.7	16.8	0.00e+00	0	41	0	14898167808	26	16738
2026-01-02 22:23:13.98	42.45	15.08	-25.0	-25.5	16.8	0.00e+00	0	41	0	15007219712	26	16273
2026-01-02 22:23:14.99	42.66	15.19	-24.9	-25.4	16.8	0.00e+00	0	41	0	15116271616	26	16189
2026-01-02 22:23:16.00	42.87	15.29	-24.9	-25.4	16.9	0.00e+00	0	41	0	15233712128	26	16114
2026-01-02 22:23:17.01	43.09	15.40	-25.0	-25.5	17.0	0.00e+00	0	41	0	15351152640	26	16321
2026-01-02 22:23:18.02	43.30	15.50	-24.7	-25.2	17.1	0.00e+00	0	41	0	15460204544	24	17720
2026-01-02 22:23:19.03	43.52	15.61	-24.8	-25.3	17.2	0.00e+00	0	41	0	15577645056	24	17871
2026-01-02 22:23:20.03	43.74	15.71	-24.7	-25.2	17.2	0.00e+00	0	41	0	15686696960	24	17710
2026-01-02 22:23:21.04	43.96	15.81	-24.6	-25.1	17.2	0.00e+00	0	41	0	15795748864	24	17409
2026-01-02 22:23:22.06	44.18	15.92	-24.6	-25.1	17.2	0.00e+00	0	41	0	15921577984	24	17542
2026-01-02 22:23:23.06	44.41	16.03	-24.6	-25.1	17.2	0.00e+00	0	41	0	16030629888	24	17434
2026-01-02 22:23:24.07	44.63	16.13	-24.5	-25.0	17.3	0.00e+00	0	41	0	16139681792	24	17245
2026-01-02 22:23:25.08	44.86	16.24	-24.4	-24.9	17.3	0.00e+00	0	41	0	16257122304	24	17140
2026-01-02 22:23:26.09	45.09	16.34	-24.5	-24.9	17.2	0.00e+00	0	41	0	16366174208	24	17167
2026-01-02 22:23:27.10	45.32	16.45	-24.4	-24.9	17.1	0.00e+00	0	41	0	16483614720	24	17026
2026-01-02 22:23:28.11	45.56	16.56	-24.3	-24.8	17.2	0.00e+00	0	41	0	16601055232	24	16863
2026-01-02 22:23:29.12	45.79	16.66	-24.3	-24.8	17.2	0.00e+00	0	41	0	16710107136	24	16815
2026-01-02 22:23:30.13	46.03	16.77	-24.2	-24.7	17.3	0.00e+00	0	41	0	16827547648	24	16773
2026-01-02 22:23:31.14	46.27	16.88	-24.3	-24.7	17.3	0.00e+00	0	41	0	16936599552	24	16777
2026-01-02 22:23:32.15	46.51	16.99	-24.0	-24.5	17.3	0.00e+00	0	41	0	17054040064	24	16319
2026-01-02 22:23:33.16	46.75	17.09	-24.0	-24.5	17.3	0.00e+00	0	41	0	17163091968	24	16260
2026-01-02 22:23:34.17	47.00	17.20	-24.0	-24.5	17.3	0.00e+00	0	41	0	17280532480	24	16328
2026-01-02 22:23:35.18	47.25	17.31	-24.0	-24.5	17.3	0.00e+00	0	41	0	17389584384	24	16348
2026-01-02 22:23:36.19	47.50	17.42	-23.8	-24.3	17.4	0.00e+00	0	41	0	17507024896	24	15902
2026-01-02 22:23:37.19	47.74	17.52	-23.9	-24.3	17.3	0.00e+00	0	41	0	17616076800	24	16039
2026-01-02 22:23:38.20	48.00	17.63	-23.9	-24.4	17.3	0.00e+00	0	41	0	17733517312	22	18061
2026-01-02 22:23:39.21	48.25	17.74	-23.8	-24.3	17.4	0.00e+00	0	41	0	17850957824	22	17830
2026-01-02 22:23:40.22	48.51	17.85	-23.7	-24.2	17.4	0.00e+00	0	41	0	17960009728	22	17689
2026-01-02 22:23:41.23	48.77	17.96	-23.8	-24.2	17.4	0.00e+00	0	41	0	18069061632	22	17780
2026-01-02 22:23:42.24	49.03	18.07	-23.7	-24.2	17.4	0.00e+00	0	41	0	18186502144	22	17636
2026-01-02 22:23:43.25	49.30	18.18	-23.6	-24.1	17.4	0.00e+00	0	41	0	18303942656	22	17557
2026-01-02 22:23:44.26	49.56	18.28	-23.6	-24.0	17.4	0.00e+00	0	41	0	18412994560	22	17393
2026-01-02 22:23:45.27	49.83	18.39	-23.6	-24.1	17.4	0.00e+00	0	41	0	18530435072	22	17410
2026-01-02 22:23:46.28	50.10	18.50	-23.5	-24.0	17.3	0.00e+00	0	41	0	18639486976	22	17317
2026-01-02 22:23:47.28	50.37	18.61	-23.5	-24.0	17.3	0.00e+00	0	41	0	18756927488	22	17322
2026-01-02 22:23:48.29	50.65	18.72	-23.4	-23.9	17.3	0.00e+00	0	41	0	18865979392	22	17082
2026-01-02 22:23:49.30	50.92	18.83	-23.5	-24.0	17.4	0.00e+00	0	41	0	18983419904	22	17274
2026-01-02 22:23:50.31	51.20	18.94	-23.3	-23.8	17.3	0.00e+00	0	41	0	19092471808	22	16853
2026-01-02 22:23:51.32	51.49	19.05	-23.4	-23.9	17.4	0.00e+00	0	41	0	19209912320	22	17033
2026-01-02 22:23:52.33	51.77	19.16	-23.3	-23.8	17.4	0.00e+00	0	41	0	19318964224	22	16858
2026-01-02 22:23:53.34	52.06	19.27	-23.3	-23.8	17.4	0.00e+00	0	41	0	19436404736	22	16965
2026-01-02 22:23:54.35	52.35	19.38	-23.3	-23.8	17.4	0.00e+00	0	42	0	19553845248	22	16845
2026-01-02 22:23:55.36	52.64	19.48	-23.3	-23.8	17.4	0.00e+00	0	41	0	19662897152	22	16904
2026-01-02 22:23:56.37	52.93	19.59	-23.3	-23.8	17.4	0.00e+00	0	41	0	19780337664	22	16894
2026-01-02 22:23:57.38	53.23	19.70	-23.3	-23.8	17.4	0.00e+00	0	41	0	19889389568	22	16869
2026-01-02 22:23:58.39	53.52	19.81	-23.3	-23.7	17.4	0.00e+00	0	41	0	19998441472	22	16806
2026-01-02 22:23:59.40	53.82	19.92	-23.1	-23.6	17.4	0.00e+00	0	41	0	20115881984	22	16463
2026-01-02 22:24:00.41	54.13	20.03	-23.0	-23.5	17.4	0.00e+00	0	41	0	20233322496	22	16366
2026-01-02 22:24:01.42	54.43	20.14	-22.9	-23.4	17.4	0.00e+00	0	42	0	20342374400	22	16185
2026-01-02 22:24:02.43	54.74	20.25	-23.0	-23.5	17.4	0.00e+00	0	41	0	20459814912	22	16278
2026-01-02 22:24:03.44	55.05	20.35	-23.2	-23.7	17.4	0.00e+00	0	41	0	20568866816	22	16687
2026-01-02 22:24:04.45	55.36	20.46	-23.0	-23.5	17.2	0.00e+00	0	41	0	20686307328	22	16346
2026-01-02 22:24:05.46	55.68	20.57	-22.8	-23.3	17.1	0.00e+00	0	42	0	20803747840	22	15991
2026-01-02 22:24:06.46	55.99	20.68	-22.8	-23.3	17.2	0.00e+00	0	41	0	20912799744	22	15995
2026-01-02 22:24:07.47	56.31	20.79	-22.8	-23.3	17.4	0.00e+00	0	42	0	21021851648	22	15996
2026-01-02 22:24:08.48	56.64	20.89	-22.8	-23.3	17.5	0.00e+00	0	42	0	21139292160	22	15891
2026-01-02 22:24:09.49	56.96	21.00	-22.9	-23.4	17.4	0.00e+00	0	42	0	21248344064	22	16165
2026-01-02 22:24:10.50	57.29	21.11	-22.6	-23.1	17.4	0.00e+00	0	42	0	21365784576	20	17504
2026-01-02 22:24:11.51	57.62	21.21	-22.8	-23.3	17.4	0.00e+00	0	42	0	21483225088	20	17874
2026-01-02 22:24:12.52	57.95	21.32	-22.6	-23.1	17.4	0.00e+00	0	42	0	21592276992	20	17494
2026-01-02 22:24:13.53	58.29	21.42	-22.8	-23.3	17.3	0.00e+00	0	42	0	21709717504	20	17901
2026-01-02 22:24:14.54	58.63	21.53	-22.6	-23.1	17.2	0.00e+00	0	42	0	21818769408	20	17437
2026-01-02 22:24:15.55	58.97	21.64	-22.5	-23.0	17.0	0.00e+00	0	41	0	21936209920	20	17329
2026-01-02 22:24:16.56	59.31	21.74	-22.6	-23.1	16.8	0.00e+00	0	41	0	22045261824	20	17544
2026-01-02 22:24:17.57	59.66	21.84	-22.4	-22.9	17.2	0.00e+00	0	42	0	22162702336	20	17026
2026-01-02 22:24:18.58	60.00	21.95	-22.5	-23.0	17.3	0.00e+00	0	42	0	22271754240	20	17253
2026-01-02 22:24:19.59	60.35	22.05	-22.4	-22.9	17.4	0.00e+00	0	42	0	22389194752	20	17058
2026-01-02 22:24:20.60	60.71	22.15	-22.5	-23.0	17.3	0.00e+00	0	41	0	22506635264	20	17266
2026-01-02 22:24:21.61	61.06	22.26	-22.5	-23.0	17.3	0.00e+00	0	42	0	22615687168	20	17256
2026-01-02 22:24:22.62	61.42	22.36	-22.2	-22.7	17.4	0.00e+00	0	41	0	22733127680	20	16771
2026-01-02 22:24:23.63	61.78	22.46	-22.2	-22.7	17.5	0.00e+00	0	42	0	22842179584	20	16671
2026-01-02 22:24:24.64	62.15	22.56	-22.2	-22.7	17.5	0.00e+00	0	42	0	22951231488	20	16640
2026-01-02 22:24:25.64	62.51	22.66	-22.1	-22.6	17.4	0.00e+00	0	41	0	23068672000	20	16442
2026-01-02 22:24:26.65	62.88	22.76	-22.0	-22.5	17.4	0.00e+00	0	42	0	23186112512	20	16327
2026-01-02 22:24:27.66	63.25	22.86	-22.2	-22.7	17.4	0.00e+00	0	41	0	23295164416	20	16791
2026-01-02 22:24:28.67	63.63	22.96	-22.1	-22.6	17.4	0.00e+00	0	41	0	23412604928	20	16554
2026-01-02 22:24:29.68	64.00	23.05	-22.2	-22.7	17.4	0.00e+00	0	41	0	23521656832	20	16751
2026-01-02 22:24:30.69	64.38	23.15	-22.2	-22.7	17.3	0.00e+00	0	42	0	23639097344	20	16789
2026-01-02 22:24:31.70	64.77	23.25	-21.9	-22.4	17.2	0.00e+00	0	41	0	23748149248	20	16081
2026-01-02 22:24:32.70	65.15	23.34	-22.0	-22.5	17.3	0.00e+00	0	42	0	23865589760	20	16259
2026-01-02 22:24:33.72	65.54	23.44	-22.1	-22.6	17.3	0.00e+00	0	42	0	23974641664	20	16460
2026-01-02 22:24:34.72	65.92	23.53	-21.9	-22.4	17.5	0.00e+00	0	42	0	24092082176	20	16077
2026-01-02 22:24:35.73	66.32	23.62	-21.9	-22.4	17.5	0.00e+00	0	42	0	24201134080	20	16170
2026-01-02 22:24:36.74	66.71	23.72	-21.8	-22.3	17.5	0.00e+00	0	42	0	24318574592	20	16039
2026-01-02 22:24:37.75	67.11	23.81	-21.7	-22.2	17.6	0.00e+00	0	42	0	24436015104	18	17626
2026-01-02 22:24:38.76	67.51	23.90	-21.7	-22.2	17.5	0.00e+00	0	42	0	24545067008	18	17766
2026-01-02 22:24:39.77	67.91	23.99	-21.7	-22.1	17.5	0.00e+00	0	42	0	24662507520	18	17564
2026-01-02 22:24:40.78	68.32	24.07	-21.7	-22.1	17.5	0.00e+00	0	42	0	24771559424	18	17578
2026-01-02 22:24:41.79	68.73	24.16	-21.6	-22.1	17.5	0.00e+00	0	42	0	24880611328	18	17487
2026-01-02 22:24:42.80	69.14	24.25	-21.6	-22.1	17.6	0.00e+00	0	42	0	25006440448	18	17537
2026-01-02 22:24:43.81	69.55	24.33	-21.5	-22.0	17.5	0.00e+00	0	42	0	25115492352	18	17291
2026-01-02 22:24:44.82	69.97	24.42	-21.4	-21.9	17.5	0.00e+00	0	42	0	25224544256	18	17016
2026-01-02 22:24:45.83	70.38	24.50	-21.6	-22.1	17.6	0.00e+00	0	42	0	25341984768	18	17475
2026-01-02 22:24:46.84	70.80	24.58	-21.3	-21.8	17.6	0.00e+00	0	42	0	25451036672	18	16841
2026-01-02 22:24:47.85	71.23	24.66	-21.6	-22.0	17.5	0.00e+00	0	42	0	25568477184	18	17365
2026-01-02 22:24:48.86	71.65	24.74	-21.5	-21.9	17.5	0.00e+00	0	42	0	25685917696	18	17157
2026-01-02 22:24:49.87	72.08	24.82	-21.4	-21.9	17.6	0.00e+00	0	42	0	25794969600	18	17023
2026-01-02 22:24:50.88	72.51	24.90	-21.1	-21.6	17.6	0.00e+00	0	42	0	25904021504	18	16564
2026-01-02 22:24:51.89	72.94	24.97	-21.2	-21.7	17.5	0.00e+00	0	42	0	26021462016	18	16731
2026-01-02 22:24:52.90	73.37	25.05	-21.1	-21.6	17.5	0.00e+00	0	42	0	26138902528	18	16480
2026-01-02 22:24:53.90	73.81	25.12	-49.6	-52.2	6.1	0.00e+00	0	42	104	26189234176	60	49892
2026-01-02 22:24:54.92	74.25	25.19	-49.4	-52.0	6.1	0.00e+00	0	41	104	26189234176	60	48958
2026-01-02 22:24:55.92	74.69	25.26	-49.3	-51.9	6.1	0.00e+00	0	41	104	26189234176	60	48262
2026-01-02 22:24:56.93	75.13	25.33	-48.3	-51.0	6.2	0.00e+00	0	42	104	26189234176	60	43693
2026-01-02 22:24:57.94	75.57	25.40	-48.2	-50.9	6.1	0.00e+00	0	41	104	26189234176	60	43087
2026-01-02 22:24:58.96	76.03	25.46	-47.8	-50.6	6.2	0.00e+00	0	42	104	26189234176	60	41354
2026-01-02 22:24:59.96	76.47	25.53	-48.8	-51.5	6.1	0.00e+00	0	42	104	26189234176	60	45856
2026-01-02 22:25:00.97	76.92	25.59	-48.5	-51.2	6.1	0.00e+00	0	41	104	26189234176	60	44364
2026-01-02 22:25:01.98	77.37	25.65	-50.0	-52.6	6.1	0.00e+00	0	42	104	26189234176	60	51966
2026-01-02 22:25:02.99	77.83	25.71	-50.2	-52.7	6.1	0.00e+00	0	41	104	26189234176	60	52862
2026-01-02 22:25:04.00	78.29	25.77	-50.2	-52.7	6.1	0.00e+00	0	42	104	26189234176	60	52794
2026-01-02 22:25:05.01	78.75	25.83	-50.1	-52.7	6.1	0.00e+00	0	41	104	26189234176	60	52579
2026-01-02 22:25:06.02	79.21	25.88	-50.1	-52.6	6.1	0.00e+00	0	42	104	26189234176	60	52143
2026-01-02 22:25:07.03	79.67	25.94	-50.2	-52.6	6.1	0.00e+00	0	42	104	26189234176	60	52346
2026-01-02 22:25:08.04	80.13	25.99	-50.0	-52.5	6.1	0.00e+00	0	41	104	26189234176	60	51512
2026-01-02 22:25:09.05	80.60	26.04	-50.0	-52.5	6.1	0.00e+00	0	41	104	26189234176	60	51491
2026-01-02 22:25:10.06	81.07	26.08	-50.2	-52.6	6.1	0.00e+00	0	42	104	26189234176	60	52372
2026-01-02 22:25:11.07	81.53	26.13	-49.9	-52.4	6.1	0.00e+00	0	41	104	26189234176	60	51339
2026-01-02 22:25:12.07	82.00	26.18	-50.0	-52.5	6.1	0.00e+00	0	42	104	26189234176	60	51678
2026-01-02 22:25:13.09	82.48	26.22	-48.4	-51.1	6.1	0.00e+00	0	42	104	26189234176	60	43781
2026-01-02 22:25:14.09	82.94	26.26	-49.8	-52.4	6.1	0.00e+00	0	41	104	26189234176	60	50791
2026-01-02 22:25:15.10	83.42	26.30	-49.5	-52.1	6.1	0.00e+00	0	42	104	26189234176	60	49232
2026-01-02 22:25:16.11	83.89	26.34	-49.8	-52.4	6.1	0.00e+00	0	41	104	26189234176	60	50855
2026-01-02 22:25:17.12	84.37	26.37	-50.2	-52.7	6.1	0.00e+00	0	41	104	26189234176	60	52617
2026-01-02 22:25:18.13	84.85	26.40	-50.0	-52.5	6.1	0.00e+00	0	41	104	26189234176	60	51929
2026-01-02 22:25:19.14	85.33	26.44	-50.2	-52.7	6.1	0.00e+00	0	41	104	26189234176	60	52689
2026-01-02 22:25:20.15	85.81	26.47	-50.0	-52.6	6.1	0.00e+00	0	41	104	26189234176	60	52044
2026-01-02 22:25:21.17	86.29	26.49	-50.1	-52.6	6.1	0.00e+00	0	42	104	26189234176	60	52168
2026-01-02 22:25:22.18	86.78	26.52	-49.9	-52.4	6.1	0.00e+00	0	41	104	26189234176	60	51175
2026-01-02 22:25:23.18	87.25	26.54	-50.2	-52.7	6.1	0.00e+00	0	41	104	26189234176	60	52732
2026-01-02 22:25:24.20	87.74	26.56	-50.1	-52.6	6.1	0.00e+00	0	41	104	26189234176	60	52173
2026-01-02 22:25:25.21	88.23	26.58	-50.1	-52.6	6.1	0.00e+00	0	41	104	26189234176	60	52169
2026-01-02 22:25:26.21	88.71	26.60	-50.1	-52.6	6.1	0.00e+00	0	41	104	26189234176	60	52167
2026-01-02 22:25:27.22	89.19	26.62	-50.2	-52.7	6.1	0.00e+00	0	42	104	26189234176	60	52695
2026-01-02 22:25:28.23	89.68	26.63	-50.2	-52.7	6.1	0.00e+00	0	42	104	26189234176	60	52704
2026-01-02 22:25:29.24	90.16	26.64	-50.1	-52.6	6.1	0.00e+00	0	41	104	26189234176	60	52264
2026-01-02 22:25:30.25	90.65	26.65	-50.2	-52.6	6.1	0.00e+00	0	41	104	26189234176	60	52441
2026-01-02 22:25:31.26	91.14	26.66	-50.2	-52.6	6.1	0.00e+00	0	41	104	26189234176	60	52321
2026-01-02 22:25:32.27	91.62	26.67	-50.0	-52.5	6.1	0.00e+00	0	41	104	26189234176	60	51882
2026-01-02 22:25:33.28	92.11	26.67	-50.1	-52.6	6.1	0.00e+00	0	41	104	26189234176	60	52314
2026-01-02 22:25:34.29	92.60	26.67	-50.0	-52.5	6.1	0.00e+00	0	41	104	26189234176	60	51523
2026-01-02 22:25:35.30	93.09	26.67	-50.1	-52.6	6.1	0.00e+00	0	41	104	26189234176	60	52338
2026-01-02 22:25:36.31	93.57	26.67	-50.0	-52.5	6.1	0.00e+00	0	41	104	26189234176	60	51416
2026-01-02 22:25:37.32	94.06	26.67	-49.9	-52.5	6.0	0.00e+00	0	41	104	26189234176	60	51629
2026-01-02 22:25:38.33	94.55	26.66	-49.6	-52.2	6.1	0.00e+00	0	41	104	26189234176	60	49841
2026-01-02 22:25:39.34	95.04	26.65	-49.7	-52.2	6.1	0.00e+00	0	41	104	26189234176	60	50176
2026-01-02 22:25:40.34	95.52	26.64	-50.0	-52.5	6.1	0.00e+00	0	41	104	26189234176	60	51449
2026-01-02 22:25:41.35	96.01	26.63	-50.2	-52.6	6.1	0.00e+00	0	41	104	26189234176	60	52468
2026-01-02 22:25:42.36	96.49	26.61	-49.3	-51.9	6.1	0.00e+00	0	41	104	26189234176	60	48389
2026-01-02 22:25:43.38	96.98	26.60	-49.6	-52.1	6.1	0.00e+00	0	41	104	26189234176	60	49567
2026-01-02 22:25:44.38	97.46	26.58	-49.9	-52.4	6.1	0.00e+00	0	41	104	26189234176	60	51120
2026-01-02 22:25:45.39	97.95	26.56	-49.0	-51.6	6.1	0.00e+00	0	41	104	26189234176	60	46683
2026-01-02 22:25:46.40	98.43	26.53	-49.6	-52.2	6.1	0.00e+00	0	41	104	26189234176	60	49656
2026-01-02 22:25:47.41	98.91	26.51	-49.3	-51.9	6.1	0.00e+00	0	41	104	26189234176	60	48418
2026-01-02 22:25:48.42	99.39	26.48	-49.8	-52.3	6.1	0.00e+00	0	41	104	26189234176	60	50667
2026-01-02 22:25:49.43	99.88	26.45	-49.7	-52.3	6.1	0.00e+00	0	41	104	26189234176	60	50403
2026-01-02 22:25:50.44	100.36	26.42	-49.7	-52.3	6.1	0.00e+00	0	41	104	26189234176	60	50199
2026-01-02 22:25:51.45	100.84	26.39	-49.9	-52.4	6.1	0.00e+00	0	41	104	26189234176	60	51244
2026-01-02 22:25:52.46	101.31	26.36	-49.9	-52.4	6.1	0.00e+00	0	41	104	26189234176	60	51052
2026-01-02 22:25:53.46	101.79	26.32	-50.1	-52.6	6.1	0.00e+00	0	41	104	26189234176	60	52341
2026-01-02 22:25:54.47	102.26	26.28	-50.2	-52.6	6.1	0.00e+00	0	41	104	26189234176	60	52505
2026-01-02 22:25:55.48	102.74	26.24	-50.1	-52.6	6.1	0.00e+00	0	41	104	26189234176	60	52408
2026-01-02 22:25:56.49	103.21	26.20	-50.2	-52.6	6.1	0.00e+00	0	41	104	26189234176	60	52253
2026-01-02 22:25:57.50	103.68	26.16	-50.1	-52.6	6.1	0.00e+00	0	41	104	26189234176	60	52410
2026-01-02 22:25:58.51	104.15	26.11	-50.0	-52.5	6.1	0.00e+00	0	41	104	26189234176	60	51812
2026-01-02 22:25:59.52	104.62	26.07	-50.0	-52.5	6.1	0.00e+00	0	41	104	26189234176	60	51719
2026-01-02 22:26:00.53	105.09	26.02	-50.0	-52.5	6.1	0.00e+00	0	41	104	26189234176	60	51589
2026-01-02 22:26:01.54	105.55	25.97	-50.2	-52.6	6.1	0.00e+00	0	41	104	26189234176	60	52303
2026-01-02 22:26:02.55	106.02	25.92	-50.1	-52.6	6.1	0.00e+00	0	41	104	26189234176	60	52183
2026-01-02 22:26:03.56	106.48	25.86	-50.0	-52.5	6.1	0.00e+00	0	41	104	26189234176	60	51515
2026-01-02 22:26:04.57	106.94	25.81	-50.1	-52.6	6.1	0.00e+00	0	41	104	26189234176	60	52367
2026-01-02 22:26:05.58	107.40	25.75	-50.1	-52.6	6.1	0.00e+00	0	41	104	26189234176	60	52502
2026-01-02 22:26:06.59	107.86	25.69	-50.2	-52.6	6.1	0.00e+00	0	41	104	26189234176	60	52316
2026-01-02 22:26:07.60	108.31	25.63	-50.0	-52.5	6.1	0.00e+00	0	41	104	26189234176	60	51818
2026-01-02 22:26:08.61	108.77	25.57	-50.0	-52.5	6.1	0.00e+00	0	41	104	26189234176	60	51795
2026-01-02 22:26:09.62	109.22	25.50	-49.9	-52.4	6.1	0.00e+00	0	41	104	26189234176	60	51140
2026-01-02 22:26:10.62	109.67	25.44	-50.2	-52.6	6.1	0.00e+00	0	41	104	26189234176	60	52515
2026-01-02 22:26:11.63	110.11	25.37	-50.1	-52.5	6.1	0.00e+00	0	41	104	26189234176	60	51663
2026-01-02 22:26:12.64	110.56	25.30	-50.1	-52.6	6.1	0.00e+00	0	41	104	26189234176	60	52195
2026-01-02 22:26:13.65	111.00	25.23	-50.0	-52.5	6.1	0.00e+00	0	41	104	26189234176	60	51458
2026-01-02 22:26:14.66	111.44	25.16	-50.1	-52.6	6.1	0.00e+00	0	41	104	26189234176	60	52331
2026-01-02 22:26:15.67	111.88	25.09	-50.1	-52.6	6.1	0.00e+00	0	41	104	26189234176	60	52307
2026-01-02 22:26:16.68	112.32	25.02	-50.1	-52.6	6.1	0.00e+00	0	41	104	26189234176	60	52203
2026-01-02 22:26:17.69	112.75	24.94	-50.1	-52.5	6.1	0.00e+00	0	41	104	26189234176	60	51872
2026-01-02 22:26:18.70	113.19	24.86	-50.1	-52.5	6.1	0.00e+00	0	41	104	26189234176	60	51920
2026-01-02 22:26:19.71	113.62	24.79	-50.1	-52.6	6.0	0.00e+00	0	41	104	26189234176	60	51957
2026-01-02 22:26:20.72	114.05	24.71	-50.0	-52.5	6.1	0.00e+00	0	41	104	26189234176	60	51709
2026-01-02 22:26:21.72	114.47	24.63	-50.0	-52.5	6.1	0.00e+00	0	41	104	26189234176	60	51464
2026-01-02 22:26:22.73	114.89	24.55	-50.1	-52.5	6.1	0.00e+00	0	41	104	26189234176	60	51803
2026-01-02 22:26:23.74	115.31	24.46	-50.1	-52.6	6.1	0.00e+00	0	41	104	26189234176	60	52092
2026-01-02 22:26:24.75	115.73	24.38	-50.1	-52.5	6.1	0.00e+00	0	41	104	26189234176	60	51776
2026-01-02 22:26:25.76	116.14	24.30	-50.0	-52.5	6.1	0.00e+00	0	41	104	26189234176	60	51612
2026-01-02 22:26:26.77	116.56	24.21	-50.0	-52.5	6.1	0.00e+00	0	41	104	26189234176	60	51574
2026-01-02 22:26:27.78	116.97	24.12	-50.0	-52.6	6.1	0.00e+00	0	41	104	26189234176	60	51963
2026-01-02 22:26:28.79	117.38	24.03	-50.0	-52.5	6.1	0.00e+00	0	41	104	26189234176	60	51678
2026-01-02 22:26:29.80	117.78	23.95	-50.1	-52.6	6.1	0.00e+00	0	41	104	26189234176	60	52221
2026-01-02 22:26:30.81	118.19	23.86	-50.1	-52.6	6.1	0.00e+00	0	41	104	26189234176	60	51980
2026-01-02 22:26:31.82	118.59	23.76	-50.1	-52.6	6.1	0.00e+00	0	41	104	26189234176	60	52048
2026-01-02 22:26:32.83	118.99	23.67	-50.1	-52.6	6.1	0.00e+00	0	41	104	26189234176	60	52118
2026-01-02 22:26:33.84	119.38	23.58	-50.1	-52.6	6.1	0.00e+00	0	41	104	26189234176	60	52025
2026-01-02 22:26:34.85	119.78	23.49	-50.1	-52.6	6.1	0.00e+00	0	41	104	26189234176	60	52004
2026-01-02 22:26:35.86	120.17	23.39	-50.0	-52.5	6.1	0.00e+00	0	41	104	26189234176	60	51804
2026-01-02 22:26:36.87	120.55	23.30	-50.0	-52.5	6.1	0.00e+00	0	41	104	26189234176	60	51752
2026-01-02 22:26:37.88	120.94	23.20	-50.1	-52.6	6.1	0.00e+00	0	41	104	26189234176	60	52079
2026-01-02 22:26:38.89	121.32	23.10	-50.0	-52.5	6.0	0.00e+00	0	41	104	26189234176	60	51810
2026-01-02 22:26:39.90	121.70	23.00	-50.1	-52.5	6.1	0.00e+00	0	41	104	26189234176	60	51782
2026-01-02 22:26:40.91	122.08	22.91	-50.1	-52.6	6.1	0.00e+00	0	41	104	26189234176	60	52016
2026-01-02 22:26:41.92	122.46	22.81	-50.0	-52.6	6.1	0.00e+00	0	41	104	26189234176	60	52047
2026-01-02 22:26:42.93	122.83	22.71	-50.1	-52.6	6.1	0.00e+00	0	41	104	26189234176	60	52024
2026-01-02 22:26:43.93	123.19	22.61	-50.1	-52.6	6.1	0.00e+00	0	41	104	26189234176	60	52035
2026-01-02 22:26:44.94	123.56	22.51	-49.9	-52.4	6.1	0.00e+00	0	41	104	26189234176	60	51114
2026-01-02 22:26:45.95	123.93	22.41	-50.0	-52.5	6.1	0.00e+00	0	41	104	26189234176	60	51849
2026-01-02 22:26:46.96	124.29	22.30	-50.0	-52.5	6.1	0.00e+00	0	41	104	26189234176	60	51412
2026-01-02 22:26:47.97	124.65	22.20	-50.1	-52.5	6.1	0.00e+00	0	41	104	26189234176	60	51911
2026-01-02 22:26:48.98	125.00	22.10	-50.0	-52.5	6.1	0.00e+00	0	41	104	26189234176	60	51556
2026-01-02 22:26:49.99	125.36	21.99	-50.1	-52.5	6.1	0.00e+00	0	41	104	26189234176	60	51837
2026-01-02 22:26:51.00	125.71	21.89	-50.0	-52.5	6.1	0.00e+00	0	41	104	26189234176	60	51491
2026-01-02 22:26:52.01	126.06	21.78	-49.9	-52.5	6.1	0.00e+00	0	41	104	26189234176	60	51508
2026-01-02 22:26:53.02	126.40	21.68	-49.9	-52.4	6.1	0.00e+00	0	41	104	26189234176	60	51122
2026-01-02 22:26:54.03	126.75	21.57	-49.9	-52.4	6.1	0.00e+00	0	41	104	26189234176	60	51211
2026-01-02 22:26:55.04	127.09	21.47	-50.1	-52.5	6.1	0.00e+00	0	41	104	26189234176	60	51796
2026-01-02 22:26:56.05	127.43	21.36	-50.1	-52.6	6.1	0.00e+00	0	41	104	26189234176	60	52101
2026-01-02 22:26:57.06	127.76	21.25	-50.0	-52.5	6.1	0.00e+00	0	41	104	26189234176	60	51574
2026-01-02 22:26:58.07	128.10	21.15	-50.0	-52.5	6.1	0.00e+00	0	41	104	26189234176	60	51903
2026-01-02 22:26:59.08	128.43	21.04	-50.0	-52.5	6.1	0.00e+00	0	41	104	26189234176	60	51650
2026-01-02 22:27:00.09	128.76	20.93	-50.0	-52.5	6.0	0.00e+00	0	41	104	26189234176	60	51729
2026-01-02 22:27:01.10	129.08	20.82	-49.9	-52.4	6.1	0.00e+00	0	41	104	26189234176	60	51039
2026-01-02 22:27:02.10	129.40	20.72	-50.0	-52.5	6.1	0.00e+00	0	41	104	26189234176	60	51372
2026-01-02 22:27:03.11	129.72	20.61	-50.0	-52.5	6.1	0.00e+00	0	41	104	26189234176	60	51633
2026-01-02 22:27:04.12	130.04	20.50	-50.1	-52.5	6.1	0.00e+00	0	41	104	26189234176	60	51826
2026-01-02 22:27:05.13	130.36	20.39	-50.0	-52.4	6.1	0.00e+00	0	41	104	26189234176	60	51239
2026-01-02 22:27:06.14	130.67	20.28	-50.0	-52.5	6.1	0.00e+00	0	41	104	26189234176	60	51776
2026-01-02 22:27:07.15	130.98	20.17	-50.0	-52.4	6.1	0.00e+00	0	41	104	26189234176	60	51314
2026-01-02 22:27:08.16	131.29	20.06	-49.9	-52.4	6.1	0.00e+00	0	41	104	26189234176	60	51267
2026-01-02 22:27:09.16	131.59	19.96	-50.0	-52.4	6.1	0.00e+00	0	41	104	26189234176	60	51303
2026-01-02 22:27:10.17	131.89	19.85	-50.0	-52.5	6.1	0.00e+00	0	41	104	26189234176	60	51497
2026-01-02 22:27:11.18	132.20	19.74	-50.0	-52.5	6.1	0.00e+00	0	41	104	26189234176	60	51516
2026-01-02 22:27:12.19	132.49	19.63	-50.0	-52.5	6.1	0.00e+00	0	41	104	26189234176	60	51463
2026-01-02 22:27:13.20	132.79	19.52	-50.0	-52.5	6.1	0.00e+00	0	41	104	26189234176	60	51432
2026-01-02 22:27:14.21	133.08	19.41	-50.0	-52.5	6.1	0.00e+00	0	41	104	26189234176	60	51429
2026-01-02 22:27:15.22	133.38	19.30	-49.9	-52.4	6.1	0.00e+00	0	41	104	26189234176	60	51034
2026-01-02 22:27:16.23	133.66	19.19	-50.0	-52.4	6.1	0.00e+00	0	41	104	26189234176	60	51138
2026-01-02 22:27:17.24	133.95	19.08	-50.0	-52.5	6.1	0.00e+00	0	41	104	26189234176	60	51572
2026-01-02 22:27:18.25	134.24	18.97	-50.0	-52.5	6.1	0.00e+00	0	41	104	26189234176	60	51391
2026-01-02 22:27:19.26	134.52	18.86	-50.0	-52.5	6.1	0.00e+00	0	41	104	26189234176	60	51582
2026-01-02 22:27:20.27	134.80	18.75	-50.0	-52.4	6.1	0.00e+00	0	41	104	26189234176	60	51342
2026-01-02 22:27:21.27	135.07	18.64	-49.9	-52.4	6.1	0.00e+00	0	41	104	26189234176	60	50960
2026-01-02 22:27:22.28	135.35	18.53	-50.0	-52.5	6.1	0.00e+00	0	41	104	26189234176	60	51598
2026-01-02 22:27:23.29	135.62	18.42	-49.9	-52.4	6.1	0.00e+00	0	41	104	26189234176	60	50817
2026-01-02 22:27:24.30	135.89	18.31	-49.9	-52.4	6.1	0.00e+00	0	41	104	26189234176	60	51144
2026-01-02 22:27:25.31	136.16	18.20	-50.0	-52.4	6.1	0.00e+00	0	41	104	26189234176	60	51348
2026-01-02 22:27:26.32	136.43	18.09	-49.9	-52.4	6.1	0.00e+00	0	41	104	26189234176	60	51046
2026-01-02 22:27:27.33	136.69	17.98	-49.9	-52.4	6.1	0.00e+00	0	41	104	26189234176	60	51208
2026-01-02 22:27:28.34	136.95	17.87	-50.0	-52.5	6.1	0.00e+00	0	41	104	26189234176	60	51380
2026-01-02 22:27:29.35	137.21	17.76	-50.0	-52.4	6.1	0.00e+00	0	41	104	26189234176	60	51109
2026-01-02 22:27:30.36	137.47	17.65	-49.9	-52.4	6.1	0.00e+00	0	41	104	26189234176	60	51275
2026-01-02 22:27:31.37	137.73	17.54	-50.0	-52.4	6.1	0.00e+00	0	41	104	26189234176	60	51181
2026-01-02 22:27:32.38	137.98	17.43	-49.9	-52.4	6.1	0.00e+00	0	41	104	26189234176	60	51109
2026-01-02 22:27:33.39	138.23	17.32	-50.0	-52.4	6.1	0.00e+00	0	41	104	26189234176	60	51253
2026-01-02 22:27:34.39	138.48	17.22	-49.7	-52.3	6.1	0.00e+00	0	41	104	26189234176	60	50217
2026-01-02 22:27:35.41	138.73	17.11	-49.8	-52.3	6.1	0.00e+00	0	41	104	26189234176	60	50461
2026-01-02 22:27:36.41	138.97	17.00	-49.9	-52.4	6.1	0.00e+00	0	41	104	26189234176	60	50995
2026-01-02 22:27:37.42	139.22	16.89	-49.9	-52.4	6.1	0.00e+00	0	41	104	26189234176	60	51348
2026-01-02 22:27:38.43	139.46	16.78	-49.9	-52.4	6.1	0.00e+00	0	41	104	26189234176	60	50873
2026-01-02 22:27:39.44	139.70	16.67	-49.8	-52.3	6.1	0.00e+00	0	41	104	26189234176	60	50739
2026-01-02 22:27:40.45	139.94	16.57	-49.9	-52.4	6.1	0.00e+00	0	41	104	26189234176	60	51209
2026-01-02 22:27:41.46	140.17	16.46	-49.9	-52.4	6.1	0.00e+00	0	41	104	26189234176	60	51225
2026-01-02 22:27:42.47	140.41	16.35	-50.0	-52.4	6.1	0.00e+00	0	41	104	26189234176	60	51281
2026-01-02 22:27:43.48	140.64	16.24	-49.9	-52.3	6.1	0.00e+00	0	41	104	26189234176	60	50408
2026-01-02 22:27:44.49	140.87	16.14	-49.9	-52.4	6.1	0.00e+00	0	41	104	26189234176	60	51124
2026-01-02 22:27:45.50	141.10	16.03	-49.9	-52.4	6.1	0.00e+00	0	41	104	26189234176	60	51048
2026-01-02 22:27:46.51	141.32	15.92	-49.9	-52.4	6.1	0.00e+00	0	41	104	26189234176	60	50962
2026-01-02 22:27:47.52	141.55	15.82	-49.8	-52.3	6.1	0.00e+00	0	41	104	26189234176	60	50281
2026-01-02 22:27:48.53	141.77	15.71	-49.8	-52.3	6.1	0.00e+00	0	41	104	26189234176	60	50466
2026-01-02 22:27:49.54	141.99	15.60	-49.9	-52.4	6.1	0.00e+00	0	41	104	26189234176	60	50882
2026-01-02 22:27:50.55	142.21	15.50	-49.8	-52.3	6.1	0.00e+00	0	41	104	26189234176	60	50493
2026-01-02 22:27:51.56	142.43	15.39	-49.8	-52.3	6.1	0.00e+00	0	41	104	26189234176	60	50312
2026-01-02 22:27:52.56	142.64	15.29	-49.8	-52.3	6.0	0.00e+00	0	41	104	26189234176	60	50272
2026-01-02 22:27:53.57	142.86	15.18	-49.9	-52.3	6.1	0.00e+00	0	41	104	26189234176	60	50451
2026-01-02 22:27:54.58	143.07	15.08	-49.9	-52.3	6.1	0.00e+00	0	41	104	26189234176	60	50466
2026-01-02 22:27:55.59	143.28	14.98	-49.8	-52.3	6.1	0.00e+00	0	41	104	26189234176	60	50410
2026-01-02 22:27:56.60	143.49	14.87	-49.7	-52.2	6.1	0.00e+00	0	41	104	26189234176	60	49826
2026-01-02 22:27:57.61	143.70	14.77	-49.8	-52.3	6.1	0.00e+00	0	41	104	26189234176	60	50342
2026-01-02 22:27:58.62	143.90	14.66	-49.8	-52.3	6.1	0.00e+00	0	41	104	26189234176	60	50653
2026-01-02 22:27:59.63	144.10	14.56	-49.8	-52.3	6.1	0.00e+00	0	41	104	26189234176	60	50343
2026-01-02 22:28:00.64	144.31	14.46	-49.8	-52.3	6.1	0.00e+00	0	41	104	26189234176	60	50196
2026-01-02 22:28:01.64	144.51	14.36	-49.9	-52.3	6.0	0.00e+00	0	41	104	26189234176	60	50652
2026-01-02 22:28:02.66	144.71	14.25	-49.8	-52.3	6.1	0.00e+00	0	41	104	26189234176	60	50423
2026-01-02 22:28:03.67	144.90	14.15	-49.8	-52.3	6.1	0.00e+00	0	41	104	26189234176	60	50429
2026-01-02 22:28:04.67	145.10	14.05	-49.7	-52.2	6.1	0.00e+00	0	41	104	26189234176	60	49999
2026-01-02 22:28:05.68	145.29	13.95	-49.8	-52.3	6.1	0.00e+00	0	41	104	26189234176	60	50184
2026-01-02 22:28:06.69	145.49	13.85	-49.9	-52.3	6.1	0.00e+00	0	41	104	26189234176	60	50639
2026-01-02 22:28:07.70	145.68	13.75	-49.8	-52.3	6.1	0.00e+00	0	41	104	26189234176	60	50347
2026-01-02 22:28:08.71	145.87	13.64	-49.7	-52.2	6.1	0.00e+00	0	41	104	26189234176	60	49735
2026-01-02 22:28:09.72	146.05	13.54	-49.8	-52.3	6.1	0.00e+00	0	41	104	26189234176	60	50601
2026-01-02 22:28:10.73	146.24	13.44	-49.7	-52.2	6.1	0.00e+00	0	41	104	26189234176	60	50068
2026-01-02 22:28:11.74	146.43	13.34	-49.8	-52.3	6.1	0.00e+00	0	41	104	26189234176	60	50359
2026-01-02 22:28:12.75	146.61	13.24	-49.8	-52.2	6.1	0.00e+00	0	41	104	26189234176	60	50006
2026-01-02 22:28:13.76	146.79	13.15	-49.7	-52.3	6.1	0.00e+00	0	41	104	26189234176	60	50219
2026-01-02 22:28:14.77	146.97	13.05	-49.7	-52.3	6.1	0.00e+00	0	41	104	26189234176	60	50253
2026-01-02 22:28:15.77	147.15	12.95	-49.8	-52.2	6.1	0.00e+00	0	41	104	26189234176	60	49851
2026-01-02 22:28:16.79	147.33	12.85	-49.8	-52.2	6.1	0.00e+00	0	41	104	26189234176	60	49935
2026-01-02 22:28:17.80	147.51	12.75	-49.7	-52.3	6.1	0.00e+00	0	41	104	26189234176	60	50304
2026-01-02 22:28:18.81	147.68	12.65	-49.7	-52.1	6.1	0.00e+00	0	41	104	26189234176	60	49511
2026-01-02 22:28:19.82	147.86	12.56	-49.8	-52.2	6.1	0.00e+00	0	41	104	26189234176	60	50046
2026-01-02 22:28:20.82	148.03	12.46	-49.8	-52.2	6.1	0.00e+00	0	41	104	26189234176	60	49989
2026-01-02 22:28:21.83	148.20	12.36	-49.8	-52.3	6.1	0.00e+00	0	41	104	26189234176	60	50479
2026-01-02 22:28:22.84	148.37	12.27	-49.8	-52.2	6.1	0.00e+00	0	41	104	26189234176	60	50051
2026-01-02 22:28:23.85	148.54	12.17	-49.8	-52.2	6.1	0.00e+00	0	41	104	26189234176	60	50011
2026-01-02 22:28:24.86	148.71	12.07	-49.7	-52.1	6.1	0.00e+00	0	41	104	26189234176	60	49354
2026-01-02 22:28:25.87	148.88	11.98	-49.8	-52.3	6.1	0.00e+00	0	41	104	26189234176	60	50277
2026-01-02 22:28:26.88	149.04	11.88	-49.8	-52.2	6.1	0.00e+00	0	41	104	26189234176	60	49937
2026-01-02 22:28:27.89	149.20	11.79	-49.7	-52.2	6.1	0.00e+00	0	41	104	26189234176	60	49930
2026-01-02 22:28:28.90	149.37	11.69	-49.7	-52.2	6.1	0.00e+00	0	41	104	26189234176	60	49810
2026-01-02 22:28:29.91	149.53	11.60	-49.7	-52.2	6.1	0.00e+00	0	41	104	26189234176	60	49787
2026-01-02 22:28:30.92	149.69	11.50	-49.7	-52.1	6.1	0.00e+00	0	41	104	26189234176	60	49436
2026-01-02 22:28:31.92	149.85	11.41	-49.7	-52.2	6.1	0.00e+00	0	41	104	26189234176	60	49914
2026-01-02 22:28:32.93	150.00	11.32	-49.6	-52.1	6.1	0.00e+00	0	41	104	26189234176	60	49232
2026-01-02 22:28:33.95	150.16	11.22	-49.7	-52.2	6.1	0.00e+00	0	41	104	26189234176	60	49778
2026-01-02 22:28:34.96	150.32	11.13	-49.7	-52.2	6.1	0.00e+00	0	41	104	26189234176	60	49724
2026-01-02 22:28:35.96	150.47	11.04	-49.7	-52.1	6.1	0.00e+00	0	41	104	26189234176	60	49496
2026-01-02 22:28:36.97	150.62	10.95	-49.6	-52.1	6.1	0.00e+00	0	41	104	26189234176	60	49177
2026-01-02 22:28:37.98	150.78	10.85	-49.7	-52.2	6.1	0.00e+00	0	41	104	26189234176	60	49887
2026-01-02 22:28:38.99	150.93	10.76	-49.7	-52.1	6.1	0.00e+00	0	41	104	26189234176	60	49438
2026-01-02 22:28:40.00	151.08	10.67	-49.7	-52.2	6.1	0.00e+00	0	41	104	26189234176	60	49695
2026-01-02 22:28:41.01	151.22	10.58	-49.6	-52.1	6.1	0.00e+00	0	41	104	26189234176	60	49220
2026-01-02 22:28:42.02	151.37	10.49	-49.7	-52.1	6.1	0.00e+00	0	41	104	26189234176	60	49500
2026-01-02 22:28:43.03	151.52	10.40	-49.6	-52.0	6.1	0.00e+00	0	41	104	26189234176	60	48988
2026-01-02 22:28:44.04	151.66	10.31	-49.7	-52.2	6.1	0.00e+00	0	41	104	26189234176	60	49717
2026-01-02 22:28:45.05	151.81	10.22	-49.6	-52.0	6.1	0.00e+00	0	41	104	26189234176	60	48589
2026-01-02 22:28:46.06	151.95	10.13	-49.6	-52.1	6.1	0.00e+00	0	41	104	26189234176	60	49490
2026-01-02 22:28:47.07	152.10	10.04	-49.6	-52.0	6.1	0.00e+00	0	41	104	26189234176	60	48790
2026-01-02 22:28:48.07	152.23	9.95	-49.6	-52.0	6.1	0.00e+00	0	41	104	26189234176	60	49040
2026-01-02 22:28:49.08	152.38	9.86	-49.5	-52.0	6.1	0.00e+00	0	41	104	26189234176	60	48514
2026-01-02 22:28:50.09	152.51	9.77	-49.6	-52.0	6.1	0.00e+00	0	41	104	26189234176	60	48789
2026-01-02 22:28:51.10	152.65	9.69	-49.4	-51.8	6.1	0.00e+00	0	41	104	26189234176	60	47669
2026-01-02 22:28:52.11	152.79	9.60	-49.5	-51.9	6.1	0.00e+00	0	41	104	26189234176	60	48429
2026-01-02 22:28:53.12	152.93	9.51	-49.4	-51.9	6.1	0.00e+00	0	41	104	26189234176	60	48208
2026-01-02 22:28:54.13	153.06	9.42	-49.3	-51.8	6.1	0.00e+00	0	41	104	26189234176	60	47770
2026-01-02 22:28:55.14	153.20	9.34	-48.9	-51.4	6.1	0.00e+00	0	41	104	26189234176	60	45386
2026-01-02 22:28:56.15	153.33	9.25	-49.4	-51.9	6.1	0.00e+00	0	41	104	26189234176	60	48218
2026-01-02 22:28:57.16	153.46	9.16	-49.2	-51.7	6.1	0.00e+00	0	41	104	26189234176	60	46994
2026-01-02 22:28:58.17	153.59	9.08	-48.9	-51.4	6.1	0.00e+00	0	41	104	26189234176	60	45483
2026-01-02 22:28:59.18	153.73	8.99	-48.6	-51.1	6.1	0.00e+00	0	41	104	26189234176	60	43922
2026-01-02 22:29:00.19	153.86	8.90	-49.0	-51.5	6.1	0.00e+00	0	41	104	26189234176	60	46261
2026-01-02 22:29:01.20	153.98	8.82	-48.8	-51.3	6.1	0.00e+00	0	41	104	26189234176	60	44874
2026-01-02 22:29:02.21	154.11	8.73	-48.4	-50.9	6.1	0.00e+00	0	41	104	26189234176	60	42942
2026-01-02 22:29:03.22	154.24	8.65	-48.4	-50.8	6.1	0.00e+00	0	41	104	26189234176	60	42555
2026-01-02 22:29:04.22	154.36	8.57	-48.7	-51.1	6.1	0.00e+00	0	41	104	26189234176	60	44132
2026-01-02 22:29:05.23	154.49	8.48	-48.5	-51.0	6.1	0.00e+00	0	41	104	26189234176	60	43552
2026-01-02 22:29:06.24	154.61	8.40	-48.2	-50.6	6.1	0.00e+00	0	41	104	26189234176	60	41702
2026-01-02 22:29:07.25	154.74	8.31	-48.3	-50.8	6.1	0.00e+00	0	41	104	26189234176	60	42242
2026-01-02 22:29:08.26	154.86	8.23	-48.4	-50.9	6.1	0.00e+00	0	41	104	26189234176	60	42825
2026-01-02 22:29:09.27	154.98	8.15	-48.2	-50.7	6.1	0.00e+00	0	41	104	26189234176	60	41995
2026-01-02 22:29:10.28	155.10	8.06	-48.2	-50.7	6.1	0.00e+00	0	41	104	26189234176	60	42093
2026-01-02 22:29:11.29	155.22	7.98	-48.5	-51.0	6.1	0.00e+00	0	41	104	26189234176	60	43301
2026-01-02 22:29:12.30	155.34	7.90	-48.2	-50.7	6.1	0.00e+00	0	41	104	26189234176	60	42195
2026-01-02 22:29:13.31	155.46	7.82	-48.2	-50.8	6.1	0.00e+00	0	41	104	26189234176	60	42312
2026-01-02 22:29:14.32	155.58	7.73	-48.6	-51.1	6.1	0.00e+00	0	41	104	26189234176	60	44192
2026-01-02 22:29:15.33	155.70	7.65	-48.7	-51.2	6.1	0.00e+00	0	41	104	26189234176	60	44706
2026-01-02 22:29:16.34	155.81	7.57	-48.4	-50.9	6.1	0.00e+00	0	41	104	26189234176	60	43009
2026-01-02 22:29:17.35	155.93	7.49	-48.7	-51.2	6.1	0.00e+00	0	41	104	26189234176	60	44223
2026-01-02 22:29:18.35	156.04	7.41	-48.9	-51.3	6.1	0.00e+00	0	41	104	26189234176	60	45132
2026-01-02 22:29:19.36	156.16	7.33	-48.9	-51.3	6.1	0.00e+00	0	41	104	26189234176	60	45197
2026-01-02 22:29:20.37	156.27	7.25	-48.7	-51.1	6.1	0.00e+00	0	41	104	26189234176	60	44199
2026-01-02 22:29:21.38	156.38	7.17	-48.7	-51.2	6.1	0.00e+00	0	41	104	26189234176	60	44360
2026-01-02 22:29:22.39	156.50	7.09	-49.1	-51.5	6.1	0.00e+00	0	41	104	26189234176	60	46241
2026-01-02 22:29:23.40	156.61	7.01	-49.0	-51.4	6.1	0.00e+00	0	41	104	26189234176	60	45741
2026-01-02 22:29:24.41	156.72	6.93	-48.8	-51.3	6.1	0.00e+00	0	41	104	26189234176	60	45068
2026-01-02 22:29:25.42	156.83	6.85	-48.8	-51.3	6.1	0.00e+00	0	41	104	26189234176	60	45036
2026-01-02 22:29:26.43	156.94	6.77	-49.1	-51.6	6.1	0.00e+00	0	41	104	26189234176	60	46629
2026-01-02 22:29:27.44	157.04	6.69	-49.0	-51.5	6.1	0.00e+00	0	41	104	26189234176	60	45865
2026-01-02 22:29:28.44	157.15	6.62	-48.9	-51.4	6.1	0.00e+00	0	41	104	26189234176	60	45349
2026-01-02 22:29:29.45	157.26	6.54	-48.9	-51.4	6.1	0.00e+00	0	41	104	26189234176	60	45246
2026-01-02 22:29:30.46	157.36	6.46	-49.2	-51.7	6.1	0.00e+00	0	41	104	26189234176	60	46956
2026-01-02 22:29:31.47	157.47	6.38	-49.1	-51.6	6.1	0.00e+00	0	41	104	26189234176	60	46457
2026-01-02 22:29:32.48	157.57	6.31	-49.0	-51.5	6.1	0.00e+00	0	41	104	26189234176	60	46070
2026-01-02 22:29:33.49	157.68	6.23	-49.0	-51.5	6.1	0.00e+00	0	41	104	26189234176	60	45907
2026-01-02 22:29:34.50	157.78	6.15	-49.2	-51.6	6.1	0.00e+00	0	41	104	26189234176	60	46805
2026-01-02 22:29:35.51	157.88	6.08	-49.1	-51.6	6.1	0.00e+00	0	41	104	26189234176	60	46403
2026-01-02 22:29:36.52	157.99	6.00	-49.1	-51.6	6.0	0.00e+00	0	41	104	26189234176	60	46359
2026-01-02 22:29:37.53	158.09	5.92	-49.1	-51.5	6.1	0.00e+00	0	41	104	26189234176	60	46190
2026-01-02 22:29:38.54	158.19	5.85	-49.2	-51.6	6.1	0.00e+00	0	41	104	26189234176	60	46583
2026-01-02 22:29:39.55	158.29	5.77	-49.1	-51.5	6.1	0.00e+00	0	41	104	26189234176	60	46243
2026-01-02 22:29:40.56	158.39	5.70	-49.1	-51.5	6.1	0.00e+00	0	41	104	26189234176	60	46154
2026-01-02 22:29:41.56	158.49	5.62	-49.1	-51.5	6.1	0.00e+00	0	41	104	26189234176	60	46141
2026-01-02 22:29:42.57	158.59	5.55	-49.0	-51.5	6.1	0.00e+00	0	41	104	26189234176	60	46228
2026-01-02 22:29:43.58	158.68	5.47	-49.0	-51.4	6.1	0.00e+00	0	41	104	26189234176	60	45748
2026-01-02 22:29:44.59	158.78	5.40	-49.0	-51.5	6.1	0.00e+00	0	41	104	26189234176	60	45959
2026-01-02 22:29:45.61	158.88	5.32	-49.0	-51.4	6.1	0.00e+00	0	41	104	26189234176	60	45657
2026-01-02 22:29:46.62	158.98	5.25	-48.9	-51.4	6.1	0.00e+00	0	41	104	26189234176	60	45502
2026-01-02 22:29:47.63	159.07	5.17	-48.9	-51.4	6.1	0.00e+00	0	41	104	26189234176	60	45623
2026-01-02 22:29:48.63	159.16	5.10	-49.0	-51.4	6.1	0.00e+00	0	41	104	26189234176	60	45710
2026-01-02 22:29:49.64	159.26	5.03	-48.9	-51.3	6.1	0.00e+00	0	41	104	26189234176	60	45203
2026-01-02 22:29:50.65	159.35	4.96	-49.0	-51.4	6.1	0.00e+00	0	41	104	26189234176	60	45591
2026-01-02 22:29:51.66	159.45	4.88	-48.9	-51.3	6.1	0.00e+00	0	41	104	26189234176	60	45210
2026-01-02 22:29:52.67	159.54	4.81	-48.9	-51.3	6.1	0.00e+00	0	41	104	26189234176	60	44979
2026-01-02 22:29:53.68	159.63	4.74	-49.0	-51.5	6.1	0.00e+00	0	41	104	26189234176	60	45894
2026-01-02 22:29:54.69	159.72	4.66	-49.0	-51.4	6.1	0.00e+00	0	41	104	26189234176	60	45546
2026-01-02 22:29:55.70	159.81	4.59	-48.9	-51.4	6.1	0.00e+00	0	41	104	26189234176	60	45500
2026-01-02 22:29:56.71	159.90	4.52	-48.9	-51.4	6.1	0.00e+00	0	41	104	26189234176	60	45413
2026-01-02 22:29:57.72	159.99	4.45	-49.0	-51.4	6.1	0.00e+00	0	41	104	26189234176	60	45640
2026-01-02 22:29:58.73	160.08	4.38	-48.9	-51.4	6.1	0.00e+00	0	41	104	26189234176	60	45553
2026-01-02 22:29:59.74	160.17	4.31	-48.9	-51.4	6.1	0.00e+00	0	41	104	26189234176	60	45604
2026-01-02 22:30:00.75	160.26	4.23	-48.7	-51.2	6.1	0.00e+00	0	41	104	26189234176	60	44215
2026-01-02 22:30:01.76	160.35	4.16	-48.9	-51.4	6.1	0.00e+00	0	41	104	26189234176	60	45418
2026-01-02 22:30:02.77	160.44	4.09	-48.9	-51.3	6.1	0.00e+00	0	41	104	26189234176	60	45187
2026-01-02 22:30:03.78	160.52	4.02	-48.9	-51.3	6.1	0.00e+00	0	41	104	26189234176	60	44891
2026-01-02 22:30:04.79	160.61	3.95	-48.7	-51.2	6.1	0.00e+00	0	41	104	26189234176	60	44480
2026-01-02 22:30:05.80	160.69	3.88	-48.9	-51.3	6.1	0.00e+00	0	41	104	26189234176	60	45031
2026-01-02 22:30:06.81	160.78	3.81	-48.8	-51.3	6.1	0.00e+00	0	41	104	26189234176	60	45031
2026-01-02 22:30:07.81	160.86	3.74	-48.8	-51.3	6.1	0.00e+00	0	41	104	26189234176	60	44939
2026-01-02 22:30:08.83	160.95	3.67	-48.6	-51.1	6.1	0.00e+00	0	41	104	26189234176	60	43903
2026-01-02 22:30:09.83	161.03	3.60	-48.8	-51.3	6.1	0.00e+00	0	41	104	26189234176	60	45044
2026-01-02 22:30:10.84	161.12	3.53	-48.8	-51.2	6.1	0.00e+00	0	41	104	26189234176	60	44609
2026-01-02 22:30:11.85	161.20	3.47	-48.8	-51.3	6.1	0.00e+00	0	41	104	26189234176	60	45089
2026-01-02 22:30:12.86	161.28	3.40	-48.5	-51.0	6.1	0.00e+00	0	41	104	26189234176	60	43237
2026-01-02 22:30:13.87	161.36	3.33	-48.6	-51.2	6.1	0.00e+00	0	41	104	26189234176	60	44316
2026-01-02 22:30:14.88	161.44	3.26	-48.5	-51.0	6.1	0.00e+00	0	41	104	26189234176	60	43606
2026-01-02 22:30:15.89	161.53	3.19	-48.8	-51.2	6.1	0.00e+00	0	41	104	26189234176	60	44505
2026-01-02 22:30:16.90	161.61	3.12	-48.4	-50.9	6.1	0.00e+00	0	41	104	26189234176	60	42850
2026-01-02 22:30:17.91	161.69	3.06	-48.7	-51.2	6.1	0.00e+00	0	41	104	26189234176	60	44566
2026-01-02 22:30:18.92	161.77	2.99	-49.0	-51.5	6.1	0.00e+00	0	41	104	26189234176	60	45908
2026-01-02 22:30:19.93	161.85	2.92	-48.6	-51.1	6.1	0.00e+00	0	41	104	26189234176	60	43776
2026-01-02 22:30:20.94	161.92	2.85	-49.7	-52.1	6.1	0.00e+00	0	41	104	26189234176	60	49511
2026-01-02 22:30:21.95	162.00	2.79	-49.9	-52.3	6.1	0.00e+00	0	41	104	26189234176	60	50744
2026-01-02 22:30:22.96	162.08	2.72	-50.0	-52.5	6.1	0.00e+00	0	41	104	26189234176	60	51456
2026-01-02 22:30:23.96	162.16	2.65	-50.2	-52.6	6.1	0.00e+00	0	41	104	26189234176	60	52324
2026-01-02 22:30:24.97	162.23	2.59	-50.3	-52.8	6.1	0.00e+00	0	41	104	26189234176	60	53267
2026-01-02 22:30:25.98	162.31	2.52	-50.3	-52.8	6.1	0.00e+00	0	41	104	26189234176	60	53407
2026-01-02 22:30:26.99	162.39	2.45	-50.4	-52.9	6.1	0.00e+00	0	41	104	26189234176	60	53914
2026-01-02 22:30:28.00	162.46	2.39	-50.4	-52.9	6.1	0.00e+00	0	41	104	26189234176	60	53920
2026-01-02 22:30:29.01	162.54	2.32	-50.4	-52.9	6.1	0.00e+00	0	41	104	26189234176	60	54019
2026-01-02 22:30:30.02	162.61	2.26	-50.4	-52.9	6.1	0.00e+00	0	41	104	26189234176	60	53774
2026-01-02 22:30:31.03	162.69	2.19	-50.4	-52.8	6.1	0.00e+00	0	41	104	26189234176	60	53730
2026-01-02 22:30:32.04	162.76	2.12	-50.4	-52.8	6.1	0.00e+00	0	41	104	26189234176	60	53564
2026-01-02 22:30:33.05	162.84	2.06	-50.4	-52.9	6.1	0.00e+00	0	41	104	26189234176	60	53886
2026-01-02 22:30:34.06	162.91	1.99	-50.4	-52.9	6.1	0.00e+00	0	41	104	26189234176	60	54026
2026-01-02 22:30:35.07	162.98	1.93	-50.4	-52.9	6.1	0.00e+00	0	41	104	26189234176	60	53908
2026-01-02 22:30:36.08	163.06	1.86	-50.4	-52.8	6.1	0.00e+00	0	41	104	26189234176	60	53671
2026-01-02 22:30:37.09	163.13	1.80	-50.4	-52.8	6.1	0.00e+00	0	41	104	26189234176	60	53509
2026-01-02 22:30:38.10	163.20	1.73	-50.4	-52.8	6.1	0.00e+00	0	41	104	26189234176	60	53690
2026-01-02 22:30:39.11	163.27	1.67	-50.4	-52.9	6.1	0.00e+00	0	41	104	26189234176	60	53810
2026-01-02 22:30:40.12	163.34	1.61	-50.4	-52.8	6.1	0.00e+00	0	41	104	26189234176	60	53470
2026-01-02 22:30:41.13	163.41	1.54	-50.4	-52.9	6.1	0.00e+00	0	41	104	26189234176	60	53798
2026-01-02 22:30:42.14	163.48	1.48	-50.4	-52.8	6.1	0.00e+00	0	41	104	26189234176	60	53723
2026-01-02 22:30:43.14	163.55	1.42	-50.4	-52.8	6.1	0.00e+00	0	41	104	26189234176	60	53749
2026-01-02 22:30:44.16	163.62	1.35	-50.4	-52.9	6.1	0.00e+00	0	41	104	26189234176	60	53982
2026-01-02 22:30:45.17	163.69	1.29	-50.4	-52.9	6.1	0.00e+00	0	41	104	26189234176	60	53872
2026-01-02 22:30:46.18	163.76	1.22	-50.4	-52.8	6.1	0.00e+00	0	41	104	26189234176	60	53666
2026-01-02 22:30:47.19	163.83	1.16	-50.4	-52.9	6.1	0.00e+00	0	41	104	26189234176	60	54005
2026-01-02 22:30:48.20	163.90	1.10	-50.4	-52.8	6.1	0.00e+00	0	41	104	26189234176	60	53595
2026-01-02 22:30:49.20	163.97	1.04	-50.4	-52.9	6.1	0.00e+00	0	41	104	26189234176	60	53821
2026-01-02 22:30:50.21	164.03	0.97	-50.4	-52.9	6.1	0.00e+00	0	41	104	26189234176	60	53962
2026-01-02 22:30:51.22	164.10	0.91	-50.4	-52.8	6.1	0.00e+00	0	41	104	26189234176	60	53707
2026-01-02 22:30:52.23	164.17	0.85	-50.4	-52.8	6.1	0.00e+00	0	41	104	26189234176	60	53710
2026-01-02 22:30:53.24	164.23	0.79	-50.4	-52.8	6.1	0.00e+00	0	41	104	26189234176	60	53718
2026-01-02 22:30:54.26	164.30	0.72	-50.4	-52.9	6.1	0.00e+00	0	41	104	26189234176	60	53933
2026-01-02 22:30:55.27	164.37	0.66	-50.4	-52.8	6.1	0.00e+00	0	41	104	26189234176	60	53715
2026-01-02 22:30:56.28	164.43	0.60	-50.4	-52.8	6.1	0.00e+00	0	41	104	26189234176	60	53537
2026-01-02 22:30:57.28	164.50	0.54	-50.4	-52.9	6.1	0.00e+00	0	41	104	26189234176	60	53930
2026-01-02 22:30:58.29	164.56	0.48	-50.4	-52.9	6.1	0.00e+00	0	41	104	26189234176	60	53952
2026-01-02 22:30:59.31	164.63	0.42	-50.4	-52.9	6.1	0.00e+00	0	41	104	26189234176	60	53856
2026-01-02 22:31:00.32	164.69	0.36	-50.4	-52.8	6.1	0.00e+00	0	41	104	26189234176	60	53481
2026-01-02 22:31:01.32	164.76	0.29	-50.4	-52.9	6.1	0.00e+00	0	41	104	26189234176	60	53934
2026-01-02 22:31:02.33	164.82	0.23	-50.4	-52.9	6.1	0.00e+00	0	41	104	26189234176	60	53881
2026-01-02 22:31:03.34	164.88	0.17	-50.4	-52.9	6.1	0.00e+00	0	41	104	26189234176	60	54029
2026-01-02 22:31:04.35	164.95	0.11	-50.4	-52.8	6.1	0.00e+00	0	41	104	26189234176	60	53744
2026-01-02 22:31:05.36	165.01	0.05	-50.4	-52.8	6.1	0.00e+00	0	41	104	26189234176	60	53615
2026-01-02 22:31:06.37	165.07	-0.01	-50.4	-52.8	6.1	0.00e+00	0	41	104	26189234176	60	53689
2026-01-02 22:31:07.38	165.13	-0.07	-50.4	-52.8	6.1	0.00e+00	0	41	104	26189234176	60	53676

#Closed at: 2026-01-02 22:31:07
#Recorded file [26189 MB]: D:/lorett/data/35029_260103_102030.dat