passes_logs/2026/01/02/R4.6S_Anadyr/R4.6S_Anadyr__20260102_020008_AQUA_rec.log

#Pass ID: 20260102_020008_AQUA
#Satellite: AQUA
#Configuration: AQUA
#almurnet v.1.7.20251203
#Start time: 2026-01-02 02:00:10

#Version: 2.2.20231116
#Station: R4.6S_Anadyr
#Location: 177.4865 lon 64.73178 lat
#TLE: 1 27424U 02022A   25365.92641127  .00002078  00000+0  42628-3 0  9999
#TLE: 2 27424  98.4058 327.1196 0001962  94.7781 340.6230 14.61783896258835

#Time	Az	El	Level	Level2	SNR	BER	BlckErr	Temp	State	Recorded	gain1	gain2
2026-01-02 02:00:10.03	158.49	0.07	-49.1	-64.0	3.5	1.51e+00	0	37	0	0	60	57425
2026-01-02 02:00:11.03	158.49	0.14	-49.5	-67.3	3.5	3.02e+01	0	38	104	0	60	89305
2026-01-02 02:00:12.04	158.50	0.20	-49.4	-67.3	3.5	3.02e+01	0	38	104	0	60	89149
2026-01-02 02:00:13.05	158.50	0.26	-49.4	-67.3	3.5	3.02e+01	0	38	104	0	60	88974
2026-01-02 02:00:14.06	158.51	0.33	-49.3	-67.2	3.5	3.02e+01	0	38	104	0	60	88125
2026-01-02 02:00:15.07	158.51	0.39	-49.4	-67.2	3.5	3.02e+01	0	38	104	0	60	88611
2026-01-02 02:00:16.08	158.52	0.45	-49.5	-67.3	3.5	3.02e+01	0	38	104	0	60	89054
2026-01-02 02:00:17.09	158.52	0.52	-49.3	-67.2	3.5	3.02e+01	0	38	104	0	60	88367
2026-01-02 02:00:18.10	158.53	0.58	-49.4	-67.2	3.5	3.02e+01	0	38	104	0	60	88006
2026-01-02 02:00:19.11	158.53	0.64	-49.1	-67.2	3.5	3.02e+01	0	38	104	0	60	87978
2026-01-02 02:00:20.12	158.54	0.71	-48.9	-67.0	3.5	3.02e+01	0	38	104	0	60	86399
2026-01-02 02:00:21.13	158.55	0.77	-49.0	-66.8	3.5	3.02e+01	0	38	104	0	60	84586
2026-01-02 02:00:22.14	158.55	0.84	-48.8	-66.6	3.5	3.02e+01	0	39	104	0	60	82610
2026-01-02 02:00:23.15	158.56	0.90	-47.5	-65.3	3.5	3.02e+01	0	38	104	0	60	71128
2026-01-02 02:00:24.16	158.56	0.96	-48.2	-66.0	3.5	3.02e+01	0	39	104	0	60	76493
2026-01-02 02:00:25.17	158.57	1.03	-48.1	-65.9	3.5	3.02e+01	0	38	104	0	60	75913
2026-01-02 02:00:26.18	158.57	1.09	-48.1	-65.9	3.5	3.02e+01	0	39	104	0	60	75915
2026-01-02 02:00:27.19	158.58	1.16	-48.1	-65.9	3.5	3.02e+01	0	38	104	0	60	75824
2026-01-02 02:00:28.20	158.58	1.22	-48.1	-65.9	3.5	3.02e+01	0	39	104	0	60	75919
2026-01-02 02:00:29.21	158.59	1.29	-48.1	-65.8	3.5	3.02e+01	0	39	104	0	60	75159
2026-01-02 02:00:30.22	158.59	1.36	-48.1	-65.8	3.5	3.02e+01	0	39	104	0	60	74815
2026-01-02 02:00:31.23	158.60	1.42	-48.0	-65.7	3.5	3.02e+01	0	38	104	0	60	74158
2026-01-02 02:00:32.24	158.61	1.49	-48.1	-65.6	3.5	3.02e+01	0	39	104	0	60	73583
2026-01-02 02:00:33.25	158.61	1.55	-48.1	-65.5	3.5	3.02e+01	0	39	104	0	60	72680
2026-01-02 02:00:34.26	158.62	1.62	-48.0	-65.3	3.5	3.02e+01	0	39	104	0	60	71175
2026-01-02 02:00:35.27	158.62	1.69	-48.1	-65.3	3.5	3.02e+01	0	39	104	0	60	70869
2026-01-02 02:00:36.28	158.63	1.75	-48.1	-65.1	3.5	3.02e+01	0	39	104	0	60	68903
2026-01-02 02:00:37.29	158.63	1.82	-48.1	-64.8	3.5	3.02e+01	0	39	104	0	60	66946
2026-01-02 02:00:38.30	158.64	1.89	-48.1	-64.8	3.5	3.02e+01	0	39	104	0	60	66664
2026-01-02 02:00:39.31	158.64	1.95	-48.0	-64.8	3.5	3.02e+01	0	39	104	0	60	67156
2026-01-02 02:00:40.32	158.65	2.02	-48.1	-64.9	3.5	3.02e+01	0	39	104	0	60	67717
2026-01-02 02:00:41.33	158.66	2.09	-48.1	-65.2	3.5	3.02e+01	0	39	104	0	60	70415
2026-01-02 02:00:42.34	158.66	2.15	-48.1	-65.4	3.5	3.02e+01	0	39	104	0	60	71942
2026-01-02 02:00:43.35	158.67	2.22	-48.1	-65.6	3.5	3.02e+01	0	39	104	0	60	73675
2026-01-02 02:00:44.36	158.67	2.29	-48.1	-65.8	3.5	3.02e+01	0	39	104	0	60	74808
2026-01-02 02:00:45.37	158.68	2.36	-48.1	-65.8	3.5	3.02e+01	0	39	104	0	60	74770
2026-01-02 02:00:46.38	158.68	2.43	-48.1	-65.8	3.5	3.02e+01	0	39	104	0	60	75440
2026-01-02 02:00:47.39	158.69	2.49	-48.0	-65.7	3.5	3.02e+01	0	39	104	0	60	73804
2026-01-02 02:00:48.40	158.69	2.56	-48.0	-65.6	3.5	3.02e+01	0	39	104	0	60	73275
2026-01-02 02:00:49.41	158.70	2.63	-48.0	-65.1	3.5	3.02e+01	0	39	104	0	60	69624
2026-01-02 02:00:50.42	158.71	2.70	-48.0	-64.4	3.5	3.02e+01	0	39	104	0	60	63677
2026-01-02 02:00:51.43	158.71	2.77	-48.0	-63.3	3.8	3.02e+01	0	39	104	0	60	56173
2026-01-02 02:00:52.44	158.72	2.84	-47.9	-62.3	4.2	3.02e+01	0	39	104	0	60	50272
2026-01-02 02:00:53.45	158.72	2.91	-47.9	-61.5	4.5	3.02e+01	0	39	104	0	60	45803
2026-01-02 02:00:54.46	158.73	2.98	-47.8	-61.1	4.8	3.02e+01	0	39	104	0	60	43617
2026-01-02 02:00:55.47	158.73	3.05	-47.9	-61.8	3.6	3.02e+01	0	39	104	0	60	47502
2026-01-02 02:00:56.48	158.74	3.12	-47.9	-62.1	4.2	3.02e+01	0	39	104	0	60	49146
2026-01-02 02:00:57.49	158.75	3.19	-47.7	-59.0	5.9	3.02e+01	44	39	0	0	60	34104
2026-01-02 02:00:58.50	158.75	3.26	-47.4	-56.0	8.6	3.02e+01	22	39	0	1572864	60	24382
2026-01-02 02:00:59.51	158.76	3.33	-46.7	-53.1	12.1	3.02e+01	0	39	0	3670016	60	17316
2026-01-02 02:01:00.52	158.76	3.40	-45.4	-49.7	15.7	3.02e+01	0	39	0	5767168	60	11709
2026-01-02 02:01:01.53	158.77	3.47	-44.1	-47.2	18.5	3.02e+01	0	39	0	7340032	60	8805
2026-01-02 02:01:02.53	158.78	3.54	-42.2	-44.4	21.1	3.02e+01	0	39	0	9437184	60	6407
2026-01-02 02:01:03.54	158.78	3.62	-41.4	-43.4	22.0	3.02e+01	0	39	0	11010048	58	6417
2026-01-02 02:01:04.55	158.79	3.69	-40.4	-42.3	23.0	3.02e+01	0	39	0	13107200	56	6289
2026-01-02 02:01:05.56	158.79	3.76	-40.1	-41.9	23.4	3.02e+01	0	39	0	15204352	56	6042
2026-01-02 02:01:06.57	158.80	3.83	-40.6	-42.4	23.0	3.02e+01	0	39	0	16777216	56	6416
2026-01-02 02:01:07.58	158.81	3.90	-40.5	-42.3	23.0	3.02e+01	0	39	0	18874368	56	6337
2026-01-02 02:01:08.59	158.81	3.98	-46.8	-53.3	8.3	3.02e+01	0	39	0	20447232	60	17693
2026-01-02 02:01:09.60	158.82	4.05	-38.5	-40.3	5.2	3.02e+01	0	39	104	20971520	56	5025
2026-01-02 02:01:10.61	158.82	4.12	-43.2	-46.2	17.6	3.02e+01	0	39	0	20971520	54	11075
2026-01-02 02:01:11.62	158.83	4.20	-44.0	-47.5	17.4	3.02e+01	0	39	104	21495808	60	9097
2026-01-02 02:01:12.63	158.84	4.27	-41.5	-43.6	20.4	3.02e+01	0	39	0	22544384	50	10412
2026-01-02 02:01:13.64	158.84	4.34	-40.4	-42.0	23.8	3.02e+01	0	39	0	24117248	60	4866
2026-01-02 02:01:14.65	158.85	4.42	-38.4	-39.9	25.4	3.02e+01	0	39	0	26214400	52	6011
2026-01-02 02:01:15.66	158.85	4.49	-38.0	-39.5	25.9	3.02e+01	0	39	0	28311552	52	5727
2026-01-02 02:01:16.67	158.86	4.57	-38.2	-39.6	25.8	3.02e+01	0	39	0	29884416	52	5847
2026-01-02 02:01:17.68	158.87	4.64	-38.2	-39.7	25.7	3.02e+01	0	39	0	31981568	50	6615
2026-01-02 02:01:18.69	158.87	4.72	-37.8	-39.3	26.2	3.02e+01	0	39	0	33554432	50	6284
2026-01-02 02:01:19.70	158.88	4.79	-37.8	-39.3	26.1	3.02e+01	0	39	0	35651584	50	6300
2026-01-02 02:01:20.71	158.88	4.87	-37.7	-39.1	26.2	3.02e+01	0	39	0	37748736	50	6166
2026-01-02 02:01:21.72	158.89	4.94	-37.6	-39.0	26.4	3.02e+01	0	39	0	39321600	50	6112
2026-01-02 02:01:22.73	158.90	5.02	-37.4	-38.8	26.6	3.02e+01	0	39	0	41418752	50	5965
2026-01-02 02:01:23.73	158.90	5.09	-37.4	-38.8	26.5	3.02e+01	0	39	0	42991616	50	5984
2026-01-02 02:01:24.74	158.91	5.17	-37.5	-38.8	26.6	3.02e+01	0	39	0	45088768	50	5992
2026-01-02 02:01:25.75	158.92	5.25	-37.6	-39.0	26.4	3.02e+01	0	39	0	47185920	50	6115
2026-01-02 02:01:26.76	158.92	5.32	-38.0	-39.4	26.1	3.02e+01	0	39	0	48758784	50	6414
2026-01-02 02:01:27.77	158.93	5.40	-37.8	-39.2	26.2	3.02e+01	0	39	0	50855936	50	6226
2026-01-02 02:01:28.78	158.93	5.48	-37.6	-39.0	26.4	3.02e+01	0	39	0	52953088	50	6119
2026-01-02 02:01:29.79	158.94	5.56	-37.6	-39.0	26.3	3.02e+01	0	39	0	54525952	50	6096
2026-01-02 02:01:30.80	158.95	5.63	-37.8	-39.2	26.3	3.02e+01	0	39	0	56623104	50	6231
2026-01-02 02:01:31.81	158.95	5.71	-37.6	-39.0	26.4	3.02e+01	0	39	0	58195968	50	6090
2026-01-02 02:01:32.82	158.96	5.79	-37.2	-38.5	26.9	3.02e+01	0	39	0	60293120	50	5791
2026-01-02 02:01:33.83	158.97	5.87	-37.1	-38.5	26.9	3.02e+01	0	39	0	62390272	48	6448
2026-01-02 02:01:34.84	158.97	5.95	-37.0	-38.4	26.9	3.02e+01	0	39	0	63963136	48	6384
2026-01-02 02:01:35.85	158.98	6.03	-37.0	-38.3	27.0	3.02e+01	0	39	0	66060288	48	6344
2026-01-02 02:01:36.85	158.99	6.11	-37.0	-38.4	27.1	3.02e+01	0	39	0	67633152	48	6361
2026-01-02 02:01:37.86	158.99	6.19	-36.9	-38.3	27.1	3.02e+01	0	39	0	69730304	48	6282
2026-01-02 02:01:38.87	159.00	6.27	-37.0	-38.3	27.2	3.02e+01	0	39	0	71827456	48	6320
2026-01-02 02:01:39.88	159.01	6.35	-36.9	-38.2	27.1	3.02e+01	0	39	0	73400320	48	6275
2026-01-02 02:01:40.89	159.01	6.43	-37.0	-38.4	27.0	3.02e+01	0	39	0	75497472	48	6386
2026-01-02 02:01:41.90	159.02	6.51	-36.9	-38.3	27.2	3.02e+01	0	39	0	77594624	48	6312
2026-01-02 02:01:42.91	159.02	6.59	-36.9	-38.3	27.1	3.02e+01	0	39	0	79167488	48	6302
2026-01-02 02:01:43.92	159.03	6.67	-36.9	-38.2	27.2	3.02e+01	0	39	0	81264640	48	6276
2026-01-02 02:01:44.93	159.04	6.75	-36.8	-38.1	27.3	3.02e+01	0	39	0	82837504	48	6158
2026-01-02 02:01:45.93	159.04	6.83	-36.8	-38.1	27.4	3.02e+01	0	39	0	84934656	48	6158
2026-01-02 02:01:46.94	159.05	6.91	-36.6	-37.9	27.5	3.02e+01	0	39	0	87031808	48	6061
2026-01-02 02:01:47.95	159.06	7.00	-36.7	-38.0	27.4	3.02e+01	0	39	0	88604672	48	6132
2026-01-02 02:01:48.96	159.06	7.08	-36.7	-38.0	27.4	3.02e+01	0	39	0	90701824	48	6106
2026-01-02 02:01:49.97	159.07	7.16	-36.7	-38.0	27.5	3.02e+01	0	39	0	92274688	48	6087
2026-01-02 02:01:50.98	159.08	7.25	-36.7	-38.1	27.5	3.02e+01	0	39	0	94371840	48	6137
2026-01-02 02:01:51.99	159.08	7.33	-36.9	-38.2	27.3	3.02e+01	0	39	0	95944704	48	6258
2026-01-02 02:01:52.99	159.09	7.41	-36.8	-38.1	27.4	3.02e+01	0	39	0	98041856	48	6179
2026-01-02 02:01:54.00	159.10	7.50	-36.7	-38.0	27.5	3.02e+01	0	39	0	100139008	48	6069
2026-01-02 02:01:55.01	159.11	7.58	-36.7	-38.0	27.5	3.02e+01	0	39	0	101711872	48	6096
2026-01-02 02:01:56.02	159.11	7.67	-36.7	-38.0	27.5	3.02e+01	0	39	0	103809024	48	6095
2026-01-02 02:01:57.03	159.12	7.75	-36.6	-37.9	27.7	3.02e+01	0	39	0	105906176	48	6012
2026-01-02 02:01:58.04	159.13	7.84	-36.6	-37.9	27.6	3.02e+01	0	39	0	107479040	48	6062
2026-01-02 02:01:59.05	159.13	7.92	-36.5	-37.8	27.7	3.02e+01	0	39	0	109576192	48	5950
2026-01-02 02:02:00.06	159.14	8.01	-36.5	-37.8	27.7	3.02e+01	0	39	0	111149056	48	5987
2026-01-02 02:02:01.07	159.15	8.10	-36.4	-37.7	27.8	3.02e+01	0	39	0	113246208	48	5914
2026-01-02 02:02:02.08	159.15	8.18	-36.5	-37.8	27.7	3.02e+01	0	39	0	115343360	48	5991
2026-01-02 02:02:03.09	159.16	8.27	-36.5	-37.7	27.8	3.02e+01	0	39	0	116916224	48	5920
2026-01-02 02:02:04.09	159.17	8.36	-36.5	-37.8	27.7	3.02e+01	0	39	0	119013376	48	5989
2026-01-02 02:02:05.10	159.17	8.45	-36.4	-37.7	27.7	3.02e+01	0	39	0	121110528	48	5926
2026-01-02 02:02:06.11	159.18	8.54	-36.4	-37.7	27.8	3.02e+01	0	39	0	122683392	48	5908
2026-01-02 02:02:07.12	159.19	8.62	-36.4	-37.7	27.8	3.02e+01	0	39	0	124780544	48	5901
2026-01-02 02:02:08.13	159.20	8.71	-36.3	-37.6	27.9	3.02e+01	0	39	0	126353408	48	5851
2026-01-02 02:02:09.13	159.20	8.80	-36.4	-37.6	27.9	3.02e+01	0	39	0	128450560	48	5848
2026-01-02 02:02:10.14	159.21	8.89	-36.3	-37.6	27.9	3.02e+01	0	39	0	130547712	48	5807
2026-01-02 02:02:11.15	159.22	8.98	-36.3	-37.6	28.0	3.02e+01	0	39	0	132120576	48	5815
2026-01-02 02:02:12.16	159.22	9.07	-36.4	-37.7	27.9	3.02e+01	0	39	0	134217728	48	5904
2026-01-02 02:02:13.17	159.23	9.16	-36.3	-37.6	27.9	3.02e+01	0	39	0	135790592	48	5831
2026-01-02 02:02:14.18	159.24	9.25	-36.2	-37.5	28.2	3.02e+01	0	39	0	137887744	48	5748
2026-01-02 02:02:15.19	159.25	9.35	-36.2	-37.4	28.1	3.02e+01	0	39	0	139460608	48	5710
2026-01-02 02:02:16.20	159.25	9.44	-36.1	-37.3	28.2	3.02e+01	0	39	0	141557760	48	5656
2026-01-02 02:02:17.21	159.26	9.53	-36.1	-37.4	28.2	3.02e+01	0	39	0	143654912	48	5704
2026-01-02 02:02:18.22	159.27	9.62	-36.1	-37.4	28.2	3.02e+01	0	39	0	145227776	48	5667
2026-01-02 02:02:19.23	159.28	9.72	-36.1	-37.4	28.2	3.02e+01	0	39	0	147324928	48	5715
2026-01-02 02:02:20.23	159.28	9.81	-36.2	-37.4	28.3	3.02e+01	0	39	0	149422080	48	5708
2026-01-02 02:02:21.24	159.29	9.90	-36.0	-37.3	28.4	3.02e+01	0	39	0	150994944	46	6313
2026-01-02 02:02:22.25	159.30	10.00	-36.0	-37.2	28.4	3.02e+01	0	39	0	153092096	46	6248
2026-01-02 02:02:23.26	159.31	10.09	-36.0	-37.2	28.4	3.02e+01	0	39	0	154664960	46	6243
2026-01-02 02:02:24.27	159.31	10.19	-36.0	-37.2	28.4	3.02e+01	0	39	0	156762112	46	6255
2026-01-02 02:02:25.28	159.32	10.28	-35.8	-37.0	28.5	3.02e+01	0	39	0	158859264	46	6130
2026-01-02 02:02:26.29	159.33	10.38	-35.7	-36.9	28.6	3.02e+01	0	39	0	160432128	46	6057
2026-01-02 02:02:27.30	159.34	10.47	-35.7	-36.9	28.7	3.02e+01	0	39	0	162529280	46	6030
2026-01-02 02:02:28.31	159.34	10.57	-35.8	-37.0	28.6	3.02e+01	0	39	0	164102144	46	6115
2026-01-02 02:02:29.32	159.35	10.67	-35.7	-37.0	28.6	3.02e+01	0	39	0	166199296	46	6083
2026-01-02 02:02:30.33	159.36	10.77	-35.7	-36.9	28.7	3.02e+01	0	39	0	168296448	46	6047
2026-01-02 02:02:31.34	159.37	10.86	-35.7	-36.9	28.7	3.02e+01	0	39	0	169869312	46	6026
2026-01-02 02:02:32.35	159.38	10.96	-35.7	-36.9	28.7	3.02e+01	0	39	0	171966464	46	6062
2026-01-02 02:02:33.36	159.38	11.06	-35.7	-37.0	28.7	3.02e+01	0	39	0	174063616	46	6096
2026-01-02 02:02:34.36	159.39	11.16	-35.7	-37.0	28.7	3.02e+01	0	39	0	175636480	46	6073
2026-01-02 02:02:35.37	159.40	11.26	-35.7	-36.9	28.7	3.02e+01	0	39	0	177733632	46	6028
2026-01-02 02:02:36.38	159.41	11.36	-35.5	-36.7	28.9	3.02e+01	0	39	0	179306496	46	5923
2026-01-02 02:02:37.39	159.42	11.46	-35.6	-36.8	28.8	3.02e+01	0	39	0	181403648	46	5970
2026-01-02 02:02:38.40	159.42	11.56	-35.5	-36.8	28.9	3.02e+01	0	39	0	183500800	46	5932
2026-01-02 02:02:39.41	159.43	11.66	-35.5	-36.7	28.9	3.02e+01	0	39	0	185073664	46	5913
2026-01-02 02:02:40.41	159.44	11.76	-35.5	-36.7	28.9	3.02e+01	0	39	0	187170816	46	5883
2026-01-02 02:02:41.42	159.45	11.87	-35.5	-36.7	28.9	3.02e+01	0	39	0	188743680	46	5900
2026-01-02 02:02:42.43	159.46	11.97	-35.5	-36.8	28.9	3.02e+01	0	39	0	190840832	46	5931
2026-01-02 02:02:43.45	159.46	12.07	-35.5	-36.7	28.9	3.02e+01	0	39	0	192937984	46	5888
2026-01-02 02:02:44.46	159.47	12.18	-35.5	-36.8	28.8	3.02e+01	0	39	0	194510848	46	5933
2026-01-02 02:02:45.47	159.48	12.28	-35.5	-36.7	28.9	3.02e+01	0	39	0	196608000	46	5916
2026-01-02 02:02:46.48	159.49	12.39	-35.6	-36.8	28.9	3.02e+01	0	39	0	198180864	46	5988
2026-01-02 02:02:47.49	159.50	12.49	-35.6	-36.8	28.9	3.02e+01	0	39	0	200278016	46	5949
2026-01-02 02:02:48.50	159.51	12.60	-35.5	-36.7	29.0	3.02e+01	0	39	0	202375168	46	5920
2026-01-02 02:02:49.51	159.51	12.71	-35.5	-36.8	28.8	3.02e+01	0	39	0	203948032	46	5945
2026-01-02 02:02:50.52	159.52	12.81	-35.6	-36.8	28.9	3.02e+01	0	39	0	206045184	46	5960
2026-01-02 02:02:51.53	159.53	12.92	-35.5	-36.7	28.9	3.02e+01	0	39	0	207618048	46	5901
2026-01-02 02:02:52.54	159.54	13.03	-35.7	-36.9	28.8	3.02e+01	0	39	0	209715200	46	6048
2026-01-02 02:02:53.55	159.55	13.14	-35.5	-36.8	28.8	3.02e+01	0	39	0	211812352	46	5944
2026-01-02 02:02:54.56	159.56	13.25	-35.5	-36.8	28.9	3.02e+01	0	39	0	213385216	46	5938
2026-01-02 02:02:55.56	159.57	13.36	-35.6	-36.8	28.8	3.02e+01	0	39	0	215482368	46	5990
2026-01-02 02:02:56.57	159.57	13.47	-35.6	-36.8	28.9	3.02e+01	0	39	0	217579520	46	5970
2026-01-02 02:02:57.58	159.58	13.58	-35.3	-36.6	29.1	3.02e+01	0	39	0	219152384	46	5792
2026-01-02 02:02:58.59	159.59	13.69	-35.4	-36.6	29.0	3.02e+01	0	39	0	221249536	46	5837
2026-01-02 02:02:59.60	159.60	13.80	-35.3	-36.5	29.1	3.02e+01	0	39	0	222822400	46	5781
2026-01-02 02:03:00.61	159.61	13.91	-35.3	-36.5	29.1	3.02e+01	0	39	0	224919552	46	5770
2026-01-02 02:03:01.62	159.62	14.03	-35.3	-36.5	29.1	3.02e+01	0	39	0	227016704	46	5767
2026-01-02 02:03:02.63	159.63	14.14	-35.2	-36.5	29.2	3.02e+01	0	39	0	228589568	46	5734
2026-01-02 02:03:03.64	159.64	14.26	-35.3	-36.5	29.2	3.02e+01	0	39	0	230686720	46	5768
2026-01-02 02:03:04.65	159.65	14.37	-35.1	-36.3	29.3	3.02e+01	0	39	0	232259584	46	5648
2026-01-02 02:03:05.66	159.66	14.49	-35.1	-36.3	29.4	3.02e+01	0	39	0	234356736	46	5624
2026-01-02 02:03:06.67	159.66	14.60	-35.1	-36.3	29.3	3.02e+01	0	39	0	236453888	46	5653
2026-01-02 02:03:07.68	159.67	14.72	-35.1	-36.3	29.3	3.02e+01	0	39	0	238026752	46	5631
2026-01-02 02:03:08.68	159.68	14.84	-35.0	-36.2	29.5	3.02e+01	0	39	0	240123904	46	5590
2026-01-02 02:03:09.69	159.69	14.95	-34.9	-36.1	29.5	3.02e+01	0	39	0	242221056	44	6161
2026-01-02 02:03:10.70	159.70	15.07	-34.9	-36.1	29.5	3.02e+01	0	39	0	243793920	44	6180
2026-01-02 02:03:11.71	159.71	15.19	-34.9	-36.1	29.5	3.02e+01	0	39	0	245891072	44	6194
2026-01-02 02:03:12.72	159.72	15.31	-35.0	-36.2	29.4	3.02e+01	0	39	0	247463936	44	6216
2026-01-02 02:03:13.73	159.73	15.43	-35.0	-36.2	29.4	3.02e+01	0	39	0	249561088	44	6216
2026-01-02 02:03:14.74	159.74	15.55	-35.1	-36.3	29.3	3.02e+01	0	39	0	251658240	44	6285
2026-01-02 02:03:15.75	159.75	15.68	-35.1	-36.3	29.4	3.02e+01	0	39	0	253231104	44	6316
2026-01-02 02:03:16.76	159.76	15.80	-35.2	-36.4	29.3	3.02e+01	0	39	0	255328256	44	6376
2026-01-02 02:03:17.77	159.77	15.92	-35.1	-36.3	29.4	3.02e+01	0	39	0	256901120	44	6328
2026-01-02 02:03:18.78	159.78	16.05	-35.1	-36.3	29.3	3.02e+01	0	39	0	258998272	44	6283
2026-01-02 02:03:19.79	159.79	16.17	-35.2	-36.4	29.3	3.02e+01	0	39	0	260571136	44	6372
2026-01-02 02:03:20.80	159.80	16.30	-35.2	-36.4	29.4	3.02e+01	0	39	0	262668288	44	6355
2026-01-02 02:03:21.81	159.81	16.42	-35.2	-36.4	29.3	3.02e+01	0	39	0	264765440	44	6367
2026-01-02 02:03:22.81	159.82	16.55	-35.1	-36.3	29.4	3.02e+01	0	39	0	266338304	44	6341
2026-01-02 02:03:23.82	159.83	16.68	-35.0	-36.2	29.4	3.02e+01	0	39	0	268435456	44	6271
2026-01-02 02:03:24.83	159.84	16.80	-35.0	-36.2	29.5	3.02e+01	0	39	0	270532608	44	6240
2026-01-02 02:03:25.84	159.85	16.93	-35.0	-36.2	29.4	3.02e+01	0	39	0	272105472	44	6222
2026-01-02 02:03:26.85	159.86	17.06	-34.9	-36.1	29.5	3.02e+01	0	39	0	274202624	44	6182
2026-01-02 02:03:27.86	159.87	17.19	-35.1	-36.3	29.4	3.02e+01	0	39	0	275775488	44	6289
2026-01-02 02:03:28.87	159.88	17.33	-34.9	-36.1	29.6	3.02e+01	0	39	0	277872640	44	6190
2026-01-02 02:03:29.89	159.89	17.46	-34.8	-36.0	29.7	3.02e+01	0	39	0	279969792	44	6073
2026-01-02 02:03:30.89	159.90	17.59	-34.7	-35.9	29.7	3.02e+01	0	39	0	281542656	44	6019
2026-01-02 02:03:31.90	159.91	17.72	-34.8	-36.0	29.7	3.02e+01	0	39	0	283639808	44	6092
2026-01-02 02:03:32.92	159.92	17.86	-34.7	-35.9	29.8	3.02e+01	0	39	0	285736960	44	6014
2026-01-02 02:03:33.93	159.93	18.00	-34.7	-35.9	29.7	3.02e+01	0	39	0	287309824	44	6056
2026-01-02 02:03:34.94	159.94	18.13	-34.7	-35.9	29.8	3.02e+01	0	39	0	289406976	44	6026
2026-01-02 02:03:35.95	159.95	18.27	-34.8	-36.0	29.6	3.02e+01	0	39	0	290979840	44	6084
2026-01-02 02:03:36.96	159.97	18.41	-34.9	-36.1	29.6	3.02e+01	0	39	0	293076992	44	6161
2026-01-02 02:03:37.96	159.98	18.54	-35.0	-36.2	29.4	3.02e+01	0	39	0	295174144	44	6272
2026-01-02 02:03:38.97	159.99	18.68	-35.1	-36.3	29.5	3.02e+01	0	39	0	296747008	44	6294
2026-01-02 02:03:39.98	160.00	18.82	-35.2	-36.4	29.3	3.02e+01	0	39	0	298844160	44	6412
2026-01-02 02:03:40.99	160.01	18.97	-35.2	-36.5	29.3	3.02e+01	0	39	0	300417024	44	6427
2026-01-02 02:03:42.00	160.02	19.11	-35.2	-36.5	29.3	3.02e+01	0	39	0	302514176	44	6424
2026-01-02 02:03:43.01	160.03	19.25	-35.3	-36.5	29.2	3.02e+01	0	39	0	304611328	44	6431
2026-01-02 02:03:44.02	160.04	19.40	-35.3	-36.5	29.3	3.02e+01	0	39	0	306184192	44	6449
2026-01-02 02:03:45.03	160.06	19.54	-35.2	-36.4	29.3	3.02e+01	0	39	0	308281344	44	6401
2026-01-02 02:03:46.04	160.07	19.69	-35.4	-36.6	29.2	3.02e+01	0	39	0	310378496	44	6515
2026-01-02 02:03:47.05	160.08	19.83	-35.3	-36.5	29.3	3.02e+01	0	39	0	311951360	44	6449
2026-01-02 02:03:48.06	160.09	19.98	-35.3	-36.5	29.3	3.02e+01	0	39	0	314048512	44	6479
2026-01-02 02:03:49.07	160.10	20.13	-35.2	-36.4	29.4	3.02e+01	0	39	0	315621376	44	6382
2026-01-02 02:03:50.08	160.12	20.28	-35.3	-36.5	29.3	3.02e+01	0	39	0	317718528	44	6477
2026-01-02 02:03:51.09	160.13	20.43	-35.2	-36.4	29.4	3.02e+01	0	39	0	319291392	44	6364
2026-01-02 02:03:52.09	160.14	20.58	-35.3	-36.5	29.3	3.02e+01	0	39	0	321388544	44	6450
2026-01-02 02:03:53.10	160.15	20.73	-35.3	-36.6	29.3	3.02e+01	0	39	0	323485696	44	6508
2026-01-02 02:03:54.11	160.16	20.89	-35.3	-36.5	29.3	3.02e+01	0	39	0	325058560	44	6434
2026-01-02 02:03:55.12	160.18	21.04	-35.4	-36.6	29.3	3.02e+01	0	39	0	327155712	44	6507
2026-01-02 02:03:56.13	160.19	21.20	-35.3	-36.5	29.3	3.02e+01	0	39	0	328728576	44	6485
2026-01-02 02:03:57.14	160.20	21.36	-35.4	-36.6	29.2	3.02e+01	0	39	0	330825728	44	6571
2026-01-02 02:03:58.15	160.21	21.51	-35.5	-36.7	29.2	3.02e+01	0	39	0	332922880	44	6595
2026-01-02 02:03:59.15	160.23	21.67	-35.4	-36.6	29.2	3.02e+01	0	39	0	334495744	44	6560
2026-01-02 02:04:00.16	160.24	21.83	-35.6	-36.8	29.0	3.02e+01	0	39	0	336592896	44	6672
2026-01-02 02:04:01.17	160.25	21.99	-35.5	-36.7	29.1	3.02e+01	0	39	0	338690048	44	6602
2026-01-02 02:04:02.18	160.27	22.15	-35.5	-36.7	29.2	3.02e+01	0	39	0	340262912	44	6636
2026-01-02 02:04:03.18	160.28	22.32	-35.5	-36.7	29.2	3.02e+01	0	39	0	342360064	44	6599
2026-01-02 02:04:04.19	160.29	22.48	-35.4	-36.6	29.3	3.02e+01	0	39	0	343932928	44	6564
2026-01-02 02:04:05.20	160.31	22.65	-35.4	-36.6	29.2	3.02e+01	0	39	0	346030080	44	6549
2026-01-02 02:04:06.21	160.32	22.81	-35.4	-36.6	29.3	3.02e+01	0	39	0	348127232	44	6540
2026-01-02 02:04:07.22	160.33	22.98	-35.4	-36.7	29.2	3.02e+01	0	39	0	349700096	44	6585
2026-01-02 02:04:08.24	160.35	23.15	-35.5	-36.8	29.1	3.02e+01	0	39	0	351797248	44	6655
2026-01-02 02:04:09.25	160.36	23.32	-35.5	-36.8	29.1	3.02e+01	0	39	0	353894400	44	6668
2026-01-02 02:04:10.25	160.37	23.49	-35.6	-36.9	29.1	3.02e+01	0	39	0	355467264	44	6727
2026-01-02 02:04:11.26	160.39	23.67	-35.7	-36.9	29.1	3.02e+01	0	39	0	357564416	44	6784
2026-01-02 02:04:12.27	160.40	23.84	-35.7	-37.0	29.0	3.02e+01	0	39	0	359137280	44	6827
2026-01-02 02:04:13.28	160.42	24.02	-35.7	-36.9	29.0	3.02e+01	0	39	0	361234432	44	6737
2026-01-02 02:04:14.29	160.43	24.19	-35.3	-36.5	29.4	3.02e+01	0	39	0	363331584	44	6461
2026-01-02 02:04:15.30	160.45	24.37	-35.3	-36.5	29.4	3.02e+01	0	39	0	364904448	44	6459
2026-01-02 02:04:16.31	160.46	24.55	-35.2	-36.4	29.5	3.02e+01	0	39	0	367001600	44	6405
2026-01-02 02:04:17.32	160.48	24.73	-35.3	-36.5	29.3	3.02e+01	0	39	0	368574464	44	6490
2026-01-02 02:04:18.33	160.49	24.92	-35.3	-36.5	29.4	3.02e+01	0	39	0	370671616	44	6489
2026-01-02 02:04:19.34	160.51	25.10	-35.4	-36.6	29.3	3.02e+01	0	39	0	372244480	44	6571
2026-01-02 02:04:20.35	160.52	25.28	-35.4	-36.6	29.3	3.02e+01	0	39	0	374341632	44	6553
2026-01-02 02:04:21.36	160.54	25.47	-35.6	-36.8	29.2	3.02e+01	0	39	0	376438784	44	6691
2026-01-02 02:04:22.37	160.55	25.66	-35.5	-36.7	29.2	3.02e+01	0	39	0	378011648	44	6632
2026-01-02 02:04:23.38	160.57	25.85	-35.4	-36.6	29.4	3.02e+01	0	39	0	380108800	44	6521
2026-01-02 02:04:24.39	160.58	26.04	-35.3	-36.5	29.4	3.02e+01	0	39	0	382205952	44	6469
2026-01-02 02:04:25.40	160.60	26.23	-35.6	-36.8	29.2	3.02e+01	0	39	0	383778816	44	6674
2026-01-02 02:04:26.40	160.62	26.42	-35.2	-36.4	29.5	3.02e+01	0	39	0	385875968	44	6399
2026-01-02 02:04:27.41	160.63	26.62	-35.3	-36.5	29.4	3.02e+01	0	39	0	387448832	44	6464
2026-01-02 02:04:28.42	160.65	26.81	-35.1	-36.2	29.7	3.02e+01	0	39	0	389545984	44	6264
2026-01-02 02:04:29.43	160.67	27.01	-34.9	-36.1	29.8	3.02e+01	0	39	0	391643136	44	6153
2026-01-02 02:04:30.44	160.68	27.21	-34.9	-36.1	29.8	3.02e+01	0	39	0	393216000	44	6145
2026-01-02 02:04:31.45	160.70	27.41	-35.0	-36.2	29.7	3.02e+01	0	39	0	395313152	44	6224
2026-01-02 02:04:32.46	160.72	27.62	-34.9	-36.1	29.8	3.02e+01	0	39	0	396886016	44	6189
2026-01-02 02:04:33.47	160.74	27.82	-35.0	-36.2	29.7	3.02e+01	0	39	0	398983168	44	6261
2026-01-02 02:04:34.48	160.75	28.03	-35.2	-36.4	29.6	3.02e+01	0	39	0	401080320	44	6374
2026-01-02 02:04:35.49	160.77	28.24	-35.1	-36.3	29.6	3.02e+01	0	39	0	402653184	44	6292
2026-01-02 02:04:36.50	160.79	28.45	-34.9	-36.1	29.8	3.02e+01	0	39	0	404750336	44	6160
2026-01-02 02:04:37.51	160.81	28.66	-34.9	-36.1	29.8	3.02e+01	0	39	0	406847488	44	6141
2026-01-02 02:04:38.52	160.83	28.87	-34.9	-36.0	29.9	3.02e+01	0	39	0	408420352	44	6125
2026-01-02 02:04:39.53	160.84	29.09	-34.7	-35.9	30.0	3.02e+01	0	39	0	410517504	44	6003
2026-01-02 02:04:40.54	160.86	29.30	-34.6	-35.7	30.1	3.02e+01	0	39	0	412090368	44	5925
2026-01-02 02:04:41.55	160.88	29.52	-34.7	-35.9	30.0	3.02e+01	0	39	0	414187520	44	6033
2026-01-02 02:04:42.56	160.90	29.74	-34.8	-36.0	29.9	3.02e+01	0	39	0	416284672	44	6097
2026-01-02 02:04:43.57	160.92	29.96	-35.0	-36.1	29.7	3.02e+01	0	39	0	417857536	44	6205
2026-01-02 02:04:44.58	160.94	30.19	-35.0	-36.2	29.7	3.02e+01	0	39	0	419954688	44	6268
2026-01-02 02:04:45.59	160.96	30.41	-34.9	-36.1	29.8	3.02e+01	0	39	0	421527552	44	6159
2026-01-02 02:04:46.60	160.98	30.64	-34.9	-36.1	29.8	3.02e+01	0	39	0	423624704	44	6179
2026-01-02 02:04:47.61	161.00	30.87	-34.8	-36.0	29.9	3.02e+01	0	39	0	425721856	44	6081
2026-01-02 02:04:48.61	161.02	31.10	-34.8	-36.0	29.9	3.02e+01	0	39	0	427294720	44	6087
2026-01-02 02:04:49.62	161.04	31.33	-34.7	-35.9	30.0	3.02e+01	0	39	0	429391872	44	6039
2026-01-02 02:04:50.63	161.06	31.57	-34.8	-36.0	29.9	3.02e+01	0	39	0	430964736	44	6070
2026-01-02 02:04:51.64	161.09	31.81	-34.8	-36.0	29.8	3.02e+01	0	39	0	433061888	44	6121
2026-01-02 02:04:52.65	161.11	32.05	-34.9	-36.1	29.8	3.02e+01	0	39	0	435159040	44	6159
2026-01-02 02:04:53.66	161.13	32.29	-35.2	-36.4	29.6	3.02e+01	0	39	0	436731904	44	6370
2026-01-02 02:04:54.67	161.15	32.53	-35.1	-36.3	29.7	3.02e+01	0	39	0	438829056	44	6327
2026-01-02 02:04:55.68	161.17	32.78	-35.1	-36.3	29.7	3.02e+01	0	39	0	440401920	44	6291
2026-01-02 02:04:56.69	161.20	33.03	-35.1	-36.3	29.7	3.02e+01	0	39	0	442499072	44	6284
2026-01-02 02:04:57.70	161.22	33.28	-35.1	-36.3	29.6	3.02e+01	0	39	0	444596224	44	6320
2026-01-02 02:04:58.71	161.24	33.53	-35.3	-36.5	29.5	3.02e+01	0	39	0	446169088	44	6457
2026-01-02 02:04:59.72	161.27	33.78	-35.5	-36.7	29.4	3.02e+01	0	39	0	448266240	44	6639
2026-01-02 02:05:00.73	161.29	34.04	-35.5	-36.8	29.3	3.02e+01	0	39	0	450363392	44	6653
2026-01-02 02:05:01.73	161.32	34.30	-35.5	-36.7	29.3	3.02e+01	0	39	0	451936256	44	6629
2026-01-02 02:05:02.74	161.34	34.56	-35.6	-36.8	29.3	3.02e+01	0	39	0	454033408	44	6720
2026-01-02 02:05:03.75	161.37	34.82	-35.8	-37.0	29.1	3.02e+01	0	39	0	455606272	44	6819
2026-01-02 02:05:04.76	161.39	35.09	-36.0	-37.2	28.9	3.02e+01	0	39	0	457703424	44	7010
2026-01-02 02:05:05.77	161.42	35.36	-36.1	-37.3	28.9	3.02e+01	0	39	0	459800576	46	6299
2026-01-02 02:05:06.78	161.44	35.63	-36.2	-37.4	28.7	3.02e+01	0	39	0	461373440	46	6390
2026-01-02 02:05:07.79	161.47	35.90	-36.3	-37.5	28.6	3.02e+01	0	39	0	463470592	46	6480
2026-01-02 02:05:08.80	161.50	36.18	-36.5	-37.8	28.5	3.02e+01	0	39	0	465043456	46	6657
2026-01-02 02:05:09.81	161.53	36.46	-36.7	-37.9	28.3	3.02e+01	0	39	0	467140608	46	6798
2026-01-02 02:05:10.82	161.55	36.74	-36.8	-38.1	28.1	3.02e+01	0	39	0	469237760	46	6911
2026-01-02 02:05:11.83	161.58	37.02	-36.9	-38.2	28.1	3.02e+01	0	39	0	470810624	46	7024
2026-01-02 02:05:12.84	161.61	37.31	-36.9	-38.2	28.0	3.02e+01	0	39	0	472907776	48	6254
2026-01-02 02:05:13.84	161.64	37.60	-37.1	-38.4	27.9	3.02e+01	0	39	0	475004928	48	6377
2026-01-02 02:05:14.85	161.67	37.89	-37.2	-38.5	27.9	3.02e+01	0	39	0	476577792	48	6430
2026-01-02 02:05:15.86	161.70	38.18	-37.5	-38.8	27.5	3.02e+01	0	39	0	478674944	48	6726
2026-01-02 02:05:16.87	161.73	38.48	-37.5	-38.8	27.5	3.02e+01	0	39	0	480247808	48	6725
2026-01-02 02:05:17.88	161.76	38.78	-37.5	-38.8	27.5	3.02e+01	0	39	0	482344960	48	6675
2026-01-02 02:05:18.89	161.79	39.08	-37.3	-38.6	27.7	3.02e+01	0	39	0	483917824	48	6514
2026-01-02 02:05:19.90	161.82	39.39	-37.2	-38.4	27.8	3.02e+01	0	39	0	486014976	48	6421
2026-01-02 02:05:20.91	161.86	39.69	-37.0	-38.3	28.0	3.02e+01	0	39	0	488112128	48	6316
2026-01-02 02:05:21.92	161.89	40.01	-37.2	-38.5	27.8	3.02e+01	0	39	0	489684992	48	6437
2026-01-02 02:05:22.93	161.93	40.32	-37.2	-38.5	27.8	3.02e+01	0	39	0	491782144	48	6432
2026-01-02 02:05:23.93	161.96	40.63	-36.7	-38.0	28.2	3.02e+01	0	39	0	493355008	48	6090
2026-01-02 02:05:24.94	161.99	40.95	-36.7	-38.0	28.3	3.02e+01	0	39	0	495452160	48	6105
2026-01-02 02:05:25.95	162.03	41.28	-36.5	-37.8	28.4	3.02e+01	0	39	0	497549312	48	5959
2026-01-02 02:05:26.96	162.07	41.60	-36.3	-37.6	28.6	3.02e+01	0	39	0	499122176	48	5799
2026-01-02 02:05:27.97	162.10	41.93	-36.4	-37.7	28.5	3.02e+01	0	39	0	501219328	48	5890
2026-01-02 02:05:28.98	162.14	42.26	-36.0	-37.3	28.8	3.02e+01	0	39	0	503316480	48	5613
2026-01-02 02:05:29.99	162.18	42.60	-35.8	-37.1	29.0	3.02e+01	0	39	0	504889344	46	6146
2026-01-02 02:05:31.00	162.22	42.94	-35.8	-37.0	29.1	3.02e+01	0	39	0	506986496	46	6109
2026-01-02 02:05:32.01	162.26	43.28	-35.8	-37.0	29.1	3.02e+01	0	39	0	508559360	46	6086
2026-01-02 02:05:33.02	162.30	43.63	-35.8	-37.0	29.0	3.02e+01	0	39	0	510656512	46	6113
2026-01-02 02:05:34.03	162.34	43.97	-35.9	-37.1	29.1	3.02e+01	0	39	0	512753664	46	6184
2026-01-02 02:05:35.04	162.39	44.33	-35.8	-37.0	29.1	3.02e+01	0	39	0	514326528	46	6123
2026-01-02 02:05:36.05	162.43	44.68	-35.4	-36.6	29.4	3.02e+01	0	39	0	516423680	46	5828
2026-01-02 02:05:37.05	162.47	45.04	-35.2	-36.4	29.6	3.02e+01	0	39	0	518520832	46	5672
2026-01-02 02:05:38.06	162.52	45.40	-35.3	-36.5	29.5	3.02e+01	0	39	0	520093696	46	5763
2026-01-02 02:05:39.07	162.56	45.76	-35.5	-36.7	29.4	3.02e+01	0	39	0	522190848	46	5880
2026-01-02 02:05:40.08	162.61	46.13	-35.4	-36.6	29.3	3.02e+01	0	39	0	523763712	46	5850
2026-01-02 02:05:41.09	162.66	46.50	-35.5	-36.7	29.3	3.02e+01	0	39	0	525860864	46	5865
2026-01-02 02:05:42.10	162.71	46.88	-35.2	-36.4	29.6	3.02e+01	0	39	0	527958016	46	5661
2026-01-02 02:05:43.11	162.76	47.26	-35.3	-36.5	29.6	3.02e+01	0	39	0	529530880	46	5739
2026-01-02 02:05:44.12	162.81	47.64	-35.5	-36.7	29.3	3.02e+01	0	39	0	531628032	46	5888
2026-01-02 02:05:45.12	162.86	48.02	-35.3	-36.4	29.5	3.02e+01	0	39	0	533200896	46	5719
2026-01-02 02:05:46.13	162.92	48.41	-35.2	-36.3	29.6	3.02e+01	0	39	0	535298048	46	5649
2026-01-02 02:05:47.14	162.97	48.80	-35.2	-36.4	29.6	3.02e+01	0	39	0	537395200	46	5711
2026-01-02 02:05:48.15	163.03	49.20	-35.5	-36.7	29.4	3.02e+01	0	39	0	538968064	46	5886
2026-01-02 02:05:49.16	163.09	49.60	-35.4	-36.5	29.4	3.02e+01	0	39	0	541065216	46	5791
2026-01-02 02:05:50.17	163.15	50.01	-35.2	-36.4	29.6	3.02e+01	0	39	0	542638080	46	5673
2026-01-02 02:05:51.18	163.21	50.42	-34.8	-36.0	29.9	3.02e+01	0	39	0	544735232	44	6072
2026-01-02 02:05:52.19	163.27	50.83	-35.0	-36.2	29.8	3.02e+01	0	39	0	546832384	44	6222
2026-01-02 02:05:53.20	163.34	51.24	-34.7	-35.9	29.9	3.02e+01	0	39	0	548405248	44	6037
2026-01-02 02:05:54.21	163.40	51.66	-34.6	-35.8	30.0	3.02e+01	0	39	0	550502400	44	5978
2026-01-02 02:05:55.22	163.47	52.09	-34.4	-35.6	30.2	3.02e+01	0	39	0	552075264	44	5809
2026-01-02 02:05:56.23	163.54	52.51	-34.2	-35.4	30.4	3.02e+01	0	39	0	554172416	44	5677
2026-01-02 02:05:57.24	163.62	52.94	-34.2	-35.4	30.4	3.02e+01	0	39	0	556269568	44	5698
2026-01-02 02:05:58.25	163.69	53.38	-34.1	-35.3	30.4	3.02e+01	0	39	0	557842432	44	5626
2026-01-02 02:05:59.26	163.77	53.82	-34.5	-35.6	30.2	3.02e+01	0	39	0	559939584	44	5854
2026-01-02 02:06:00.25	163.84	54.25	-34.4	-35.6	30.2	3.02e+01	0	39	0	561512448	44	5819
2026-01-02 02:06:01.26	163.92	54.70	-34.6	-35.8	30.0	3.02e+01	0	39	0	563609600	44	5949
2026-01-02 02:06:02.27	164.01	55.15	-35.0	-36.3	29.7	3.02e+01	0	39	0	565706752	44	6291
2026-01-02 02:06:03.28	164.09	55.60	-34.9	-36.1	29.7	3.02e+01	0	39	0	567279616	44	6160
2026-01-02 02:06:04.28	164.18	56.06	-35.2	-36.4	29.6	3.02e+01	0	39	0	569376768	44	6411
2026-01-02 02:06:05.29	164.27	56.52	-35.2	-36.4	29.6	3.02e+01	0	39	0	571473920	44	6383
2026-01-02 02:06:06.30	164.37	56.99	-35.6	-36.9	29.1	3.02e+01	0	39	0	573046784	44	6752
2026-01-02 02:06:07.31	164.46	57.46	-35.9	-37.2	28.9	3.02e+01	0	39	0	575143936	46	6222
2026-01-02 02:06:08.32	164.57	57.93	-35.7	-36.9	29.1	3.02e+01	0	39	0	576716800	46	6050
2026-01-02 02:06:09.33	164.67	58.41	-36.5	-37.8	28.4	3.02e+01	0	39	0	578813952	46	6681
2026-01-02 02:06:10.34	164.78	58.89	-36.7	-37.9	28.3	3.02e+01	0	39	0	580911104	46	6795
2026-01-02 02:06:11.35	164.89	59.38	-36.3	-37.6	28.6	3.02e+01	0	39	0	582483968	46	6504
2026-01-02 02:06:12.36	165.01	59.87	-36.9	-38.2	28.0	3.02e+01	0	39	0	584581120	46	7019
2026-01-02 02:06:13.37	165.13	60.36	-37.4	-38.7	27.6	3.02e+01	0	39	0	586153984	48	6644
2026-01-02 02:06:14.38	165.25	60.86	-36.9	-38.2	28.0	3.02e+01	0	39	0	588251136	48	6241
2026-01-02 02:06:15.39	165.38	61.36	-36.9	-38.1	28.1	3.02e+01	0	39	0	589824000	48	6205
2026-01-02 02:06:16.39	165.52	61.86	-37.5	-38.8	27.5	3.02e+01	0	39	0	591921152	48	6699
2026-01-02 02:06:17.41	165.66	62.37	-37.9	-39.2	27.1	3.02e+01	0	39	0	594018304	50	6274
2026-01-02 02:06:18.41	165.81	62.88	-38.0	-39.3	27.0	3.02e+01	0	39	0	595591168	50	6336
2026-01-02 02:06:19.42	165.96	63.40	-37.9	-39.3	27.1	3.02e+01	0	39	0	597688320	50	6287
2026-01-02 02:06:20.43	166.12	63.92	-38.6	-40.0	26.4	3.02e+01	0	39	0	599785472	50	6823
2026-01-02 02:06:21.44	166.29	64.44	-38.9	-40.4	26.1	3.02e+01	0	39	0	601358336	52	6362
2026-01-02 02:06:22.45	166.46	64.97	-39.5	-41.0	25.5	3.02e+01	0	39	0	603455488	52	6842
2026-01-02 02:06:23.46	166.64	65.50	-39.5	-41.0	25.3	3.02e+01	0	39	0	605028352	52	6863
2026-01-02 02:06:24.47	166.84	66.04	-40.2	-41.8	24.7	3.02e+01	0	39	0	607125504	54	6659
2026-01-02 02:06:25.48	167.04	66.57	-40.2	-41.8	24.7	3.02e+01	0	39	0	609222656	54	6663
2026-01-02 02:06:26.49	167.25	67.12	-39.7	-41.2	25.3	3.02e+01	0	39	0	610795520	54	6238
2026-01-02 02:06:27.50	167.47	67.66	-39.9	-41.4	25.1	3.02e+01	0	39	0	612892672	54	6407
2026-01-02 02:06:28.51	167.71	68.21	-40.4	-42.0	24.6	3.02e+01	0	39	0	614989824	54	6857
2026-01-02 02:06:29.52	167.96	68.76	-40.2	-41.8	24.7	3.02e+01	0	39	0	616562688	54	6669
2026-01-02 02:06:30.53	168.22	69.32	-40.7	-42.4	23.9	3.02e+01	0	39	0	618659840	54	7168
2026-01-02 02:06:31.54	168.50	69.87	-41.0	-42.7	24.1	3.02e+01	0	39	0	620232704	56	6622
2026-01-02 02:06:32.55	168.79	70.43	-40.7	-42.4	24.2	3.02e+01	0	39	0	622329856	56	6363
2026-01-02 02:06:33.55	169.10	70.99	-40.5	-42.1	24.5	3.02e+01	0	39	0	624427008	56	6142
2026-01-02 02:06:34.56	169.43	71.56	-40.7	-42.3	24.2	3.02e+01	0	39	0	625999872	56	6342
2026-01-02 02:06:35.57	169.79	72.13	-40.2	-41.8	24.9	3.02e+01	0	39	0	628097024	56	5928
2026-01-02 02:06:36.58	170.17	72.70	-40.2	-41.8	24.7	3.02e+01	0	39	0	629669888	56	5988
2026-01-02 02:06:37.59	170.58	73.27	-40.1	-41.7	25.1	3.02e+01	0	39	0	631767040	54	6617
2026-01-02 02:06:38.60	171.01	73.84	-39.7	-41.3	25.1	3.02e+01	0	39	0	633864192	54	6279
2026-01-02 02:06:39.61	171.48	74.42	-39.6	-41.1	25.6	3.02e+01	0	39	0	635437056	54	6190
2026-01-02 02:06:40.62	171.99	75.00	-39.3	-40.8	25.6	3.02e+01	0	39	0	637534208	54	5962
2026-01-02 02:06:41.63	172.54	75.58	-38.9	-40.3	26.2	3.02e+01	0	39	0	639107072	52	6315
2026-01-02 02:06:42.64	173.14	76.16	-38.5	-39.9	26.6	3.02e+01	0	39	0	641204224	52	6001
2026-01-02 02:06:43.65	173.79	76.74	-38.0	-39.4	27.0	3.02e+01	0	39	0	643301376	52	5666
2026-01-02 02:06:44.65	174.50	77.32	-38.0	-39.3	27.1	3.02e+01	0	39	0	644874240	50	6335
2026-01-02 02:06:45.67	175.29	77.91	-37.6	-38.9	27.4	3.02e+01	0	39	0	646971392	50	6039
2026-01-02 02:06:46.67	176.14	78.48	-37.4	-38.8	27.5	3.02e+01	0	39	0	648544256	50	5940
2026-01-02 02:06:47.68	177.10	79.07	-37.4	-38.7	27.7	3.02e+01	0	39	0	650641408	50	5913
2026-01-02 02:06:48.69	178.17	79.65	-36.8	-38.0	28.2	3.02e+01	0	39	0	652738560	48	6122
2026-01-02 02:06:49.70	179.36	80.22	-36.5	-37.8	28.4	3.02e+01	0	39	0	654311424	48	5951
2026-01-02 02:06:50.70	180.70	80.79	-36.3	-37.6	28.6	3.02e+01	0	39	0	656408576	48	5808
2026-01-02 02:06:51.71	182.23	81.37	-36.1	-37.3	28.9	3.02e+01	0	39	0	657981440	48	5636
2026-01-02 02:06:52.72	183.97	81.93	-35.9	-37.2	29.0	3.02e+01	0	39	0	660078592	46	6213
2026-01-02 02:06:53.73	185.98	82.49	-35.8	-37.0	29.0	3.02e+01	0	39	0	662175744	46	6126
2026-01-02 02:06:54.74	188.31	83.04	-35.4	-36.6	29.4	3.02e+01	0	39	0	663748608	46	5823
2026-01-02 02:06:55.75	191.04	83.58	-36.2	-37.5	28.7	3.02e+01	0	39	0	665845760	46	6450
2026-01-02 02:06:56.76	194.26	84.10	-36.2	-37.4	28.8	3.02e+01	0	39	0	667942912	46	6373
2026-01-02 02:06:57.77	198.09	84.60	-36.0	-37.2	28.9	3.02e+01	0	39	0	669515776	46	6217
2026-01-02 02:06:58.78	202.68	85.07	-36.2	-37.4	28.8	3.02e+01	0	39	0	671612928	46	6390
2026-01-02 02:06:59.79	208.20	85.50	-36.1	-37.4	28.7	3.02e+01	0	39	0	673185792	46	6361
2026-01-02 02:07:00.79	214.76	85.88	-35.9	-37.2	28.9	3.02e+01	0	39	0	675282944	46	6207
2026-01-02 02:07:01.80	222.61	86.20	-36.6	-37.9	28.6	3.02e+01	0	39	0	677380096	46	6778
2026-01-02 02:07:02.81	231.70	86.44	-35.9	-37.1	29.1	3.02e+01	0	39	0	678952960	46	6198
2026-01-02 02:07:03.82	241.79	86.57	-35.4	-36.6	29.4	3.02e+01	0	39	0	681050112	46	5841
2026-01-02 02:07:04.83	252.37	86.60	-35.7	-37.0	29.2	3.02e+01	0	39	0	682622976	46	6077
2026-01-02 02:07:05.84	262.73	86.51	-35.2	-36.4	29.4	3.02e+01	0	39	0	684720128	46	5712
2026-01-02 02:07:06.85	272.28	86.31	-35.4	-36.6	29.4	3.02e+01	0	39	0	686817280	46	5852
2026-01-02 02:07:07.86	280.66	86.02	-35.2	-36.3	29.6	3.02e+01	0	39	0	688390144	46	5647
2026-01-02 02:07:08.87	287.77	85.66	-35.6	-36.9	29.3	3.02e+01	0	39	0	690487296	46	5995
2026-01-02 02:07:09.88	293.71	85.25	-35.6	-36.8	29.3	3.02e+01	0	39	0	692060160	46	5966
2026-01-02 02:07:10.89	298.66	84.79	-36.3	-37.6	28.5	3.02e+01	0	39	0	694157312	46	6506
2026-01-02 02:07:11.90	302.77	84.30	-36.2	-37.5	28.7	3.02e+01	0	39	0	696254464	46	6457
2026-01-02 02:07:12.90	306.19	83.79	-36.3	-37.6	28.6	3.02e+01	0	39	0	697827328	46	6531
2026-01-02 02:07:13.91	309.11	83.26	-36.5	-37.7	28.4	3.02e+01	0	39	0	699924480	46	6622
2026-01-02 02:07:14.92	311.59	82.72	-36.6	-37.9	28.3	3.02e+01	0	39	0	701497344	46	6781
2026-01-02 02:07:15.93	313.73	82.16	-36.1	-37.4	28.8	3.02e+01	0	39	0	703594496	46	6364
2026-01-02 02:07:16.93	315.56	81.61	-36.1	-37.4	28.8	3.02e+01	0	39	0	705691648	46	6352
2026-01-02 02:07:17.94	317.17	81.04	-36.2	-37.5	28.6	3.02e+01	0	39	0	707264512	46	6453
2026-01-02 02:07:18.95	318.59	80.47	-36.2	-37.4	28.8	3.02e+01	0	39	0	709361664	46	6385
2026-01-02 02:07:19.96	319.84	79.89	-36.6	-37.9	28.4	3.02e+01	0	39	0	711458816	46	6757
2026-01-02 02:07:20.97	320.96	79.31	-36.7	-38.0	28.2	3.02e+01	0	39	0	713031680	46	6870
2026-01-02 02:07:21.98	321.96	78.73	-36.9	-38.3	27.9	3.02e+01	0	39	0	715128832	46	7068
2026-01-02 02:07:22.99	322.86	78.15	-37.3	-38.6	27.7	3.02e+01	0	39	0	716701696	48	6562
2026-01-02 02:07:24.00	323.68	77.57	-37.8	-39.2	27.1	3.02e+01	0	39	0	718798848	48	7018
2026-01-02 02:07:25.01	324.42	76.98	-38.3	-39.7	26.7	3.02e+01	0	39	0	720896000	50	6635
2026-01-02 02:07:26.01	325.08	76.41	-38.5	-40.0	26.4	3.02e+01	0	39	0	722468864	50	6840
2026-01-02 02:07:27.03	325.71	75.82	-38.6	-40.1	26.3	3.02e+01	0	39	0	724566016	50	6934
2026-01-02 02:07:28.03	326.27	75.25	-38.3	-39.7	26.6	3.02e+01	0	39	0	726138880	50	6644
2026-01-02 02:07:29.04	326.80	74.67	-39.5	-41.1	25.5	3.02e+01	0	39	0	728236032	52	6927
2026-01-02 02:07:30.05	327.28	74.09	-39.0	-40.5	26.0	3.02e+01	0	39	0	730333184	52	6461
2026-01-02 02:07:31.06	327.73	73.52	-38.6	-40.0	26.4	3.02e+01	0	39	0	731906048	52	6115
2026-01-02 02:07:32.07	328.15	72.94	-39.2	-40.8	25.8	3.02e+01	0	39	0	734003200	52	6660
2026-01-02 02:07:33.08	328.54	72.37	-39.2	-40.7	25.9	3.02e+01	0	39	0	735576064	52	6577
2026-01-02 02:07:34.09	328.91	71.81	-39.0	-40.5	26.1	3.02e+01	0	39	0	737673216	52	6440
2026-01-02 02:07:35.10	329.25	71.24	-38.7	-40.1	26.4	3.02e+01	0	39	0	739770368	52	6151
2026-01-02 02:07:36.11	329.57	70.68	-39.5	-41.1	25.5	3.02e+01	0	39	0	741343232	52	6916
2026-01-02 02:07:37.12	329.87	70.12	-39.5	-41.1	25.4	3.02e+01	0	39	0	743440384	52	6917
2026-01-02 02:07:38.13	330.16	69.56	-39.2	-40.7	25.7	3.02e+01	0	39	0	745013248	52	6592
2026-01-02 02:07:39.14	330.43	69.00	-39.3	-40.8	25.7	3.02e+01	0	39	0	747110400	52	6681
2026-01-02 02:07:40.15	330.68	68.45	-39.9	-41.5	25.1	3.02e+01	0	39	0	749207552	52	7254
2026-01-02 02:07:41.16	330.92	67.90	-39.8	-41.4	25.2	3.02e+01	0	39	0	750780416	52	7167
2026-01-02 02:07:42.17	331.15	67.36	-39.6	-41.1	25.3	3.02e+01	0	39	0	752877568	52	6941
2026-01-02 02:07:43.17	331.36	66.82	-39.1	-40.6	26.0	3.02e+01	0	39	0	754450432	52	6537
2026-01-02 02:07:44.18	331.57	66.28	-38.9	-40.4	26.1	3.02e+01	0	39	0	756547584	52	6353
2026-01-02 02:07:45.19	331.76	65.75	-38.9	-40.3	26.1	3.02e+01	0	39	0	758644736	52	6345
2026-01-02 02:07:46.20	331.95	65.22	-38.7	-40.2	26.2	3.02e+01	0	39	0	760217600	52	6214
2026-01-02 02:07:47.21	332.13	64.69	-38.2	-39.5	26.8	3.02e+01	0	39	0	762314752	52	5784
2026-01-02 02:07:48.22	332.30	64.16	-37.4	-38.7	27.6	3.02e+01	0	39	0	764411904	50	5889
2026-01-02 02:07:49.23	332.46	63.64	-37.1	-38.4	27.9	3.02e+01	0	39	0	765984768	50	5706
2026-01-02 02:07:50.24	332.62	63.13	-36.9	-38.2	28.0	3.02e+01	0	39	0	768081920	48	6254
2026-01-02 02:07:51.25	332.77	62.61	-37.2	-38.6	27.7	3.02e+01	0	39	0	769654784	48	6522
2026-01-02 02:07:52.26	332.91	62.10	-36.6	-37.8	28.3	3.02e+01	0	39	0	771751936	48	5989
2026-01-02 02:07:53.27	333.05	61.60	-36.6	-37.9	28.3	3.02e+01	0	39	0	773849088	48	6004
2026-01-02 02:07:54.28	333.18	61.10	-36.1	-37.3	28.8	3.02e+01	0	39	0	775421952	48	5632
2026-01-02 02:07:55.29	333.31	60.60	-36.4	-37.7	28.6	3.02e+01	0	39	0	777519104	48	5886
2026-01-02 02:07:56.30	333.43	60.10	-36.9	-38.2	28.0	3.02e+01	0	39	0	779616256	48	6229
2026-01-02 02:07:57.31	333.55	59.61	-36.3	-37.6	28.4	3.02e+01	0	39	0	781189120	48	5815
2026-01-02 02:07:58.32	333.67	59.13	-36.0	-37.3	28.8	3.02e+01	0	39	0	783286272	48	5599
2026-01-02 02:07:59.33	333.78	58.64	-35.9	-37.1	29.0	3.02e+01	0	39	0	784859136	46	6203
2026-01-02 02:08:00.34	333.88	58.17	-36.1	-37.3	28.9	3.02e+01	0	39	0	786956288	46	6316
2026-01-02 02:08:01.34	333.98	57.70	-36.3	-37.6	28.6	3.02e+01	0	39	0	789053440	46	6542
2026-01-02 02:08:02.35	334.08	57.23	-36.4	-37.7	28.4	3.02e+01	0	39	0	790626304	46	6635
2026-01-02 02:08:03.36	334.18	56.76	-35.1	-36.3	29.6	3.02e+01	0	39	0	792723456	46	5629
2026-01-02 02:08:04.36	334.27	56.30	-34.8	-36.0	29.9	3.02e+01	0	39	0	794296320	44	6068
2026-01-02 02:08:05.37	334.36	55.84	-34.9	-36.1	29.9	3.02e+01	0	39	0	796393472	44	6147
2026-01-02 02:08:06.38	334.45	55.39	-35.2	-36.4	29.6	3.02e+01	0	39	0	797966336	44	6415
2026-01-02 02:08:07.39	334.53	54.94	-34.9	-36.1	29.9	3.02e+01	0	39	0	800063488	44	6164
2026-01-02 02:08:08.40	334.61	54.49	-34.5	-35.7	30.1	3.02e+01	0	39	0	802160640	44	5878
2026-01-02 02:08:09.41	334.69	54.05	-34.5	-35.7	30.1	3.02e+01	0	39	0	803733504	44	5869
2026-01-02 02:08:10.42	334.77	53.61	-34.4	-35.5	30.3	3.02e+01	0	39	0	805830656	44	5789
2026-01-02 02:08:11.43	334.85	53.17	-34.6	-35.7	30.0	3.02e+01	0	39	0	807927808	44	5920
2026-01-02 02:08:12.44	334.92	52.74	-34.5	-35.6	30.2	3.02e+01	0	39	0	809500672	44	5850
2026-01-02 02:08:13.45	334.99	52.31	-34.6	-35.8	30.0	3.02e+01	0	39	0	811597824	44	5961
2026-01-02 02:08:14.45	335.06	51.89	-35.1	-36.3	29.7	3.02e+01	0	39	0	813170688	44	6345
2026-01-02 02:08:15.46	335.13	51.47	-35.2	-36.4	29.6	3.02e+01	0	39	0	815267840	44	6366
2026-01-02 02:08:16.47	335.19	51.06	-35.2	-36.5	29.5	3.02e+01	0	39	0	817364992	44	6426
2026-01-02 02:08:17.48	335.26	50.64	-35.3	-36.5	29.4	3.02e+01	0	39	0	818937856	44	6483
2026-01-02 02:08:18.48	335.32	50.24	-35.4	-36.6	29.4	3.02e+01	0	39	0	821035008	44	6499
2026-01-02 02:08:19.49	335.38	49.83	-35.4	-36.6	29.5	3.02e+01	0	39	0	822607872	44	6557
2026-01-02 02:08:20.50	335.44	49.43	-35.6	-36.8	29.3	3.02e+01	0	39	0	824705024	44	6685
2026-01-02 02:08:21.51	335.49	49.04	-35.6	-36.8	29.2	3.02e+01	0	39	0	826802176	44	6705
2026-01-02 02:08:22.52	335.55	48.64	-36.0	-37.2	29.0	3.02e+01	0	39	0	828375040	44	6997
2026-01-02 02:08:23.53	335.61	48.25	-36.0	-37.3	28.8	3.02e+01	0	39	0	830472192	46	6285
2026-01-02 02:08:24.54	335.66	47.87	-36.0	-37.2	28.9	3.02e+01	0	39	0	832569344	46	6235
2026-01-02 02:08:25.55	335.71	47.48	-36.0	-37.2	28.9	3.02e+01	0	39	0	834142208	46	6216
2026-01-02 02:08:26.56	335.76	47.10	-36.5	-37.7	28.6	3.02e+01	0	39	0	836239360	46	6638
2026-01-02 02:08:27.56	335.81	46.73	-36.1	-37.3	28.8	3.02e+01	0	39	0	837812224	46	6346
2026-01-02 02:08:28.57	335.86	46.36	-35.7	-36.9	29.2	3.02e+01	0	39	0	839909376	46	6039
2026-01-02 02:08:29.58	335.91	45.99	-35.8	-37.0	29.0	3.02e+01	0	39	0	841482240	46	6120
2026-01-02 02:08:30.59	335.96	45.62	-35.7	-36.9	29.2	3.02e+01	0	39	0	843579392	46	6008
2026-01-02 02:08:31.60	336.00	45.26	-35.6	-36.8	29.1	3.02e+01	0	39	0	845676544	46	5994
2026-01-02 02:08:32.61	336.05	44.90	-35.7	-36.9	29.2	3.02e+01	0	39	0	847249408	46	6011
2026-01-02 02:08:33.62	336.09	44.55	-35.9	-37.1	29.0	3.02e+01	0	39	0	849346560	46	6180
2026-01-02 02:08:34.63	336.14	44.20	-35.8	-37.0	29.0	3.02e+01	0	39	0	850919424	46	6128
2026-01-02 02:08:35.64	336.18	43.85	-35.8	-37.0	29.1	3.02e+01	0	39	0	853016576	46	6102
2026-01-02 02:08:36.65	336.22	43.50	-35.8	-37.0	29.1	3.02e+01	0	39	0	855113728	46	6118
2026-01-02 02:08:37.66	336.26	43.16	-36.0	-37.2	29.0	3.02e+01	0	39	0	856686592	46	6236
2026-01-02 02:08:38.67	336.30	42.82	-36.0	-37.2	28.9	3.02e+01	0	39	0	858783744	46	6277
2026-01-02 02:08:39.68	336.34	42.49	-35.9	-37.1	28.9	3.02e+01	0	39	0	860880896	46	6192
2026-01-02 02:08:40.69	336.38	42.15	-35.8	-37.1	29.0	3.02e+01	0	39	0	862453760	46	6143
2026-01-02 02:08:41.70	336.41	41.82	-36.1	-37.3	28.9	3.02e+01	0	39	0	864550912	46	6317
2026-01-02 02:08:42.71	336.45	41.50	-36.4	-37.6	28.6	3.02e+01	0	39	0	866123776	46	6567
2026-01-02 02:08:43.72	336.49	41.17	-36.6	-37.8	28.4	3.02e+01	0	39	0	868220928	46	6720
2026-01-02 02:08:44.73	336.52	40.85	-36.7	-37.9	28.3	3.02e+01	0	39	0	870318080	46	6796
2026-01-02 02:08:45.73	336.56	40.54	-36.6	-37.8	28.3	3.02e+01	0	39	0	871890944	46	6716
2026-01-02 02:08:46.74	336.59	40.23	-36.4	-37.7	28.4	3.02e+01	0	39	0	873988096	46	6583
2026-01-02 02:08:47.75	336.63	39.91	-36.4	-37.6	28.5	3.02e+01	0	39	0	876085248	46	6562
2026-01-02 02:08:48.76	336.66	39.61	-36.7	-38.0	28.3	3.02e+01	0	39	0	877658112	46	6853
2026-01-02 02:08:49.77	336.69	39.30	-36.9	-38.2	28.1	3.02e+01	0	39	0	879755264	46	7013
2026-01-02 02:08:50.77	336.72	39.00	-37.0	-38.3	28.0	3.02e+01	0	39	0	881328128	48	6332
2026-01-02 02:08:51.78	336.76	38.70	-36.9	-38.2	28.0	3.02e+01	0	39	0	883425280	48	6239
2026-01-02 02:08:52.79	336.79	38.40	-36.8	-38.1	28.1	3.02e+01	0	39	0	885522432	48	6153
2026-01-02 02:08:53.80	336.82	38.11	-36.8	-38.1	28.1	3.02e+01	0	39	0	887095296	48	6192
2026-01-02 02:08:54.81	336.85	37.82	-36.6	-37.9	28.3	3.02e+01	0	39	0	889192448	48	6043
2026-01-02 02:08:55.82	336.88	37.53	-36.7	-38.0	28.2	3.02e+01	0	39	0	890765312	48	6085
2026-01-02 02:08:56.83	336.91	37.24	-36.5	-37.7	28.5	3.02e+01	0	39	0	892862464	48	5894
2026-01-02 02:08:57.84	336.94	36.96	-36.1	-37.3	28.8	3.02e+01	0	39	0	894435328	48	5613
2026-01-02 02:08:58.84	336.96	36.68	-36.1	-37.3	28.9	3.02e+01	0	39	0	896532480	48	5604
2026-01-02 02:08:59.85	336.99	36.40	-35.8	-37.0	29.2	3.02e+01	0	39	0	898629632	46	6076
2026-01-02 02:09:00.86	337.02	36.12	-35.8	-37.0	29.2	3.02e+01	0	39	0	900202496	46	6095
2026-01-02 02:09:01.87	337.05	35.85	-35.6	-36.8	29.3	3.02e+01	0	39	0	902299648	46	5980
2026-01-02 02:09:02.87	337.07	35.58	-35.7	-36.9	29.2	3.02e+01	0	39	0	904396800	46	6023
2026-01-02 02:09:03.88	337.10	35.31	-35.7	-36.9	29.2	3.02e+01	0	39	0	905969664	46	6033
2026-01-02 02:09:04.89	337.13	35.04	-35.4	-36.6	29.4	3.02e+01	0	39	0	908066816	46	5857
2026-01-02 02:09:05.90	337.15	34.78	-35.4	-36.6	29.5	3.02e+01	0	39	0	909639680	46	5810
2026-01-02 02:09:06.91	337.18	34.52	-35.4	-36.6	29.4	3.02e+01	0	39	0	911736832	46	5829
2026-01-02 02:09:07.92	337.20	34.26	-35.1	-36.3	29.7	3.02e+01	0	39	0	913833984	46	5619
2026-01-02 02:09:08.92	337.23	34.00	-35.2	-36.4	29.6	3.02e+01	0	39	0	915406848	46	5684
2026-01-02 02:09:09.93	337.25	33.75	-34.8	-35.9	30.0	3.02e+01	0	39	0	917504000	44	6053
2026-01-02 02:09:10.94	337.27	33.49	-34.7	-35.9	30.0	3.02e+01	0	39	0	919076864	44	6026
2026-01-02 02:09:11.95	337.30	33.24	-34.6	-35.8	30.2	3.02e+01	0	39	0	921174016	44	5927
2026-01-02 02:09:12.95	337.32	33.00	-34.6	-35.8	30.1	3.02e+01	0	39	0	923271168	44	5958
2026-01-02 02:09:13.96	337.34	32.75	-34.6	-35.8	30.1	3.02e+01	0	39	0	924844032	44	5950
2026-01-02 02:09:14.97	337.37	32.51	-34.7	-35.9	30.0	3.02e+01	0	39	0	926941184	44	6035
2026-01-02 02:09:15.98	337.39	32.27	-34.4	-35.6	30.2	3.02e+01	0	39	0	928514048	44	5806
2026-01-02 02:09:16.99	337.41	32.03	-34.2	-35.4	30.4	3.02e+01	0	39	0	930611200	44	5677
2026-01-02 02:09:18.00	337.43	31.79	-34.4	-35.5	30.2	3.02e+01	0	39	0	932708352	44	5791
2026-01-02 02:09:19.01	337.45	31.55	-34.3	-35.5	30.3	3.02e+01	0	39	0	934281216	44	5730
2026-01-02 02:09:20.02	337.48	31.32	-34.3	-35.5	30.3	3.02e+01	0	39	0	936378368	44	5748
2026-01-02 02:09:21.03	337.50	31.09	-34.5	-35.6	30.3	3.02e+01	0	39	0	937951232	44	5849
2026-01-02 02:09:22.04	337.52	30.86	-34.4	-35.6	30.2	3.02e+01	0	39	0	940048384	44	5833
2026-01-02 02:09:23.04	337.54	30.63	-34.5	-35.7	30.1	3.02e+01	0	39	0	942145536	44	5911
2026-01-02 02:09:24.05	337.56	30.40	-34.4	-35.6	30.2	3.02e+01	0	39	0	943718400	44	5817
2026-01-02 02:09:25.06	337.58	30.18	-34.5	-35.7	30.1	3.02e+01	0	39	0	945815552	44	5892
2026-01-02 02:09:26.07	337.60	29.96	-34.5	-35.7	30.1	3.02e+01	0	39	0	947388416	44	5893
2026-01-02 02:09:27.08	337.62	29.74	-34.6	-35.8	30.1	3.02e+01	0	39	0	949485568	44	5983
2026-01-02 02:09:28.09	337.64	29.52	-34.7	-35.8	30.0	3.02e+01	0	39	0	951582720	44	5983
2026-01-02 02:09:29.10	337.66	29.30	-34.7	-35.9	30.0	3.02e+01	0	39	0	953155584	44	6018
2026-01-02 02:09:30.11	337.68	29.09	-34.8	-36.0	29.8	3.02e+01	0	39	0	955252736	44	6109
2026-01-02 02:09:31.12	337.70	28.87	-34.9	-36.1	29.7	3.02e+01	0	39	0	957349888	44	6187
2026-01-02 02:09:32.13	337.71	28.66	-34.9	-36.1	29.8	3.02e+01	0	39	0	958922752	44	6146
2026-01-02 02:09:33.13	337.73	28.45	-34.8	-36.0	29.7	3.02e+01	0	39	0	961019904	44	6118
2026-01-02 02:09:34.14	337.75	28.25	-34.8	-35.9	29.9	3.02e+01	0	39	0	962592768	44	6057
2026-01-02 02:09:35.15	337.77	28.04	-34.7	-35.9	29.9	3.02e+01	0	39	0	964689920	44	6045
2026-01-02 02:09:36.16	337.79	27.83	-34.8	-36.0	29.8	3.02e+01	0	39	0	966787072	44	6123
2026-01-02 02:09:37.17	337.80	27.63	-34.9	-36.0	29.8	3.02e+01	0	39	0	968359936	44	6127
2026-01-02 02:09:38.18	337.82	27.43	-34.9	-36.0	29.8	3.02e+01	0	39	0	970457088	44	6130
2026-01-02 02:09:39.19	337.84	27.23	-34.8	-36.0	29.8	3.02e+01	0	39	0	972029952	44	6119
2026-01-02 02:09:40.19	337.86	27.03	-35.0	-36.2	29.7	3.02e+01	0	39	0	974127104	44	6224
2026-01-02 02:09:41.20	337.87	26.84	-34.9	-36.1	29.7	3.02e+01	0	39	0	976224256	44	6190
2026-01-02 02:09:42.21	337.89	26.64	-35.1	-36.3	29.6	3.02e+01	0	39	0	977797120	44	6279
2026-01-02 02:09:43.22	337.91	26.45	-35.1	-36.3	29.6	3.02e+01	0	39	0	979894272	44	6316
2026-01-02 02:09:44.23	337.92	26.25	-35.2	-36.4	29.5	3.02e+01	0	39	0	981467136	44	6371
2026-01-02 02:09:45.24	337.94	26.06	-35.2	-36.4	29.4	3.02e+01	0	39	0	983564288	44	6410
2026-01-02 02:09:46.25	337.96	25.87	-35.3	-36.5	29.4	3.02e+01	0	39	0	985661440	44	6454
2026-01-02 02:09:47.26	337.97	25.69	-35.5	-36.7	29.3	3.02e+01	0	39	0	987234304	44	6581
2026-01-02 02:09:48.27	337.99	25.50	-35.4	-36.6	29.4	3.02e+01	0	39	0	989331456	44	6528
2026-01-02 02:09:49.28	338.00	25.31	-35.5	-36.8	29.2	3.02e+01	0	39	0	990904320	44	6656
2026-01-02 02:09:50.29	338.02	25.13	-35.7	-36.9	29.1	3.02e+01	0	39	0	993001472	44	6795
2026-01-02 02:09:51.30	338.04	24.95	-35.6	-36.8	29.2	3.02e+01	0	39	0	995098624	44	6697
2026-01-02 02:09:52.31	338.05	24.77	-35.7	-36.9	29.1	3.02e+01	0	39	0	996671488	44	6771
2026-01-02 02:09:53.32	338.07	24.59	-35.7	-36.9	29.1	3.02e+01	0	39	0	998768640	44	6775
2026-01-02 02:09:54.33	338.08	24.41	-35.7	-37.0	29.0	3.02e+01	0	39	0	1000865792	44	6806
2026-01-02 02:09:55.34	338.10	24.23	-35.8	-37.1	28.9	3.02e+01	0	39	0	1002438656	44	6890
2026-01-02 02:09:56.35	338.11	24.06	-35.9	-37.1	28.8	3.02e+01	0	39	0	1004535808	44	6931
2026-01-02 02:09:57.36	338.13	23.88	-35.8	-37.0	28.9	3.02e+01	0	39	0	1006108672	44	6869
2026-01-02 02:09:58.36	338.14	23.71	-35.8	-37.0	29.0	3.02e+01	0	39	0	1008205824	44	6853
2026-01-02 02:09:59.37	338.15	23.54	-35.7	-36.9	29.0	3.02e+01	0	39	0	1010302976	44	6796
2026-01-02 02:10:00.38	338.17	23.37	-35.7	-36.9	29.0	3.02e+01	0	39	0	1011875840	44	6769
2026-01-02 02:10:01.39	338.18	23.20	-35.7	-36.9	28.9	3.02e+01	0	39	0	1013972992	44	6778
2026-01-02 02:10:02.40	338.20	23.03	-35.8	-37.0	28.9	3.02e+01	0	39	0	1015545856	44	6853
2026-01-02 02:10:03.41	338.21	22.86	-35.5	-36.8	29.1	3.02e+01	0	39	0	1017643008	44	6662
2026-01-02 02:10:04.42	338.23	22.70	-35.6	-36.8	29.2	3.02e+01	0	39	0	1019740160	44	6681
2026-01-02 02:10:05.42	338.24	22.53	-35.5	-36.7	29.2	3.02e+01	0	39	0	1021313024	44	6627
2026-01-02 02:10:06.43	338.25	22.37	-35.5	-36.7	29.2	3.02e+01	0	39	0	1023410176	44	6594
2026-01-02 02:10:07.44	338.27	22.21	-35.5	-36.7	29.2	3.02e+01	0	39	0	1024983040	44	6595
2026-01-02 02:10:08.45	338.28	22.04	-35.3	-36.5	29.3	3.02e+01	0	39	0	1027080192	44	6472
2026-01-02 02:10:09.46	338.29	21.88	-35.4	-36.7	29.3	3.02e+01	0	39	0	1029177344	44	6576
2026-01-02 02:10:10.47	338.31	21.72	-35.4	-36.6	29.3	3.02e+01	0	39	0	1030750208	44	6503
2026-01-02 02:10:11.48	338.32	21.57	-35.5	-36.7	29.2	3.02e+01	0	39	0	1032847360	44	6609
2026-01-02 02:10:12.49	338.33	21.41	-35.6	-36.8	29.1	3.02e+01	0	39	0	1034420224	44	6704
2026-01-02 02:10:13.50	338.35	21.25	-35.5	-36.7	29.2	3.02e+01	0	39	0	1036517376	44	6592
2026-01-02 02:10:14.50	338.36	21.10	-35.3	-36.5	29.4	3.02e+01	0	39	0	1038614528	44	6461
2026-01-02 02:10:15.51	338.37	20.95	-35.4	-36.6	29.3	3.02e+01	0	39	0	1040187392	44	6547
2026-01-02 02:10:16.52	338.38	20.79	-35.4	-36.6	29.3	3.02e+01	0	39	0	1042284544	44	6550
2026-01-02 02:10:17.53	338.40	20.64	-35.3	-36.5	29.4	3.02e+01	0	39	0	1043857408	44	6497
2026-01-02 02:10:18.54	338.41	20.49	-35.4	-36.6	29.3	3.02e+01	0	39	0	1045954560	44	6515
2026-01-02 02:10:19.55	338.42	20.34	-35.5	-36.7	29.2	3.02e+01	0	39	0	1048051712	44	6616
2026-01-02 02:10:20.56	338.43	20.19	-35.3	-36.6	29.3	3.02e+01	0	39	0	1049624576	44	6500
2026-01-02 02:10:21.57	338.45	20.04	-35.5	-36.7	29.2	3.02e+01	0	39	0	1051721728	44	6591
2026-01-02 02:10:22.58	338.46	19.90	-35.4	-36.7	29.2	3.02e+01	0	39	0	1053818880	44	6574
2026-01-02 02:10:23.59	338.47	19.75	-35.4	-36.6	29.3	3.02e+01	0	39	0	1055391744	44	6529
2026-01-02 02:10:24.60	338.48	19.61	-35.4	-36.6	29.3	3.02e+01	0	39	0	1057488896	44	6552
2026-01-02 02:10:25.61	338.50	19.46	-35.4	-36.6	29.3	3.02e+01	0	39	0	1059061760	44	6520
2026-01-02 02:10:26.62	338.51	19.32	-35.5	-36.7	29.2	3.02e+01	0	39	0	1061158912	44	6595
2026-01-02 02:10:27.63	338.52	19.18	-35.4	-36.6	29.3	3.02e+01	0	39	0	1063256064	44	6562
2026-01-02 02:10:28.64	338.53	19.03	-35.4	-36.6	29.3	3.02e+01	0	39	0	1064828928	44	6533
2026-01-02 02:10:29.65	338.54	18.89	-35.5	-36.7	29.2	3.02e+01	0	39	0	1066926080	44	6622
2026-01-02 02:10:30.66	338.55	18.75	-35.5	-36.7	29.2	3.02e+01	0	39	0	1069023232	44	6627
2026-01-02 02:10:31.67	338.57	18.61	-35.4	-36.6	29.3	3.02e+01	0	39	0	1070596096	44	6526
2026-01-02 02:10:32.68	338.58	18.48	-35.5	-36.7	29.2	3.02e+01	0	39	0	1072693248	44	6617
2026-01-02 02:10:33.69	338.59	18.34	-35.5	-36.7	29.2	3.02e+01	0	39	0	1074266112	44	6634
2026-01-02 02:10:34.70	338.60	18.20	-35.6	-36.8	29.1	3.02e+01	0	39	0	1076363264	44	6705
2026-01-02 02:10:35.70	338.61	18.07	-35.7	-36.9	29.0	3.02e+01	0	39	0	1078460416	44	6769
2026-01-02 02:10:36.71	338.62	17.93	-35.6	-36.8	29.0	3.02e+01	0	39	0	1080033280	44	6720
2026-01-02 02:10:37.72	338.63	17.80	-35.6	-36.8	29.0	3.02e+01	0	39	0	1082130432	44	6725
2026-01-02 02:10:38.73	338.64	17.67	-35.5	-36.7	29.1	3.02e+01	0	39	0	1083703296	44	6609
2026-01-02 02:10:39.74	338.66	17.54	-35.6	-36.9	29.0	3.02e+01	0	39	0	1085800448	44	6728
2026-01-02 02:10:40.75	338.67	17.40	-35.7	-36.9	29.0	3.02e+01	0	39	0	1087897600	44	6770
2026-01-02 02:10:41.76	338.68	17.27	-35.5	-36.8	29.0	3.02e+01	0	39	0	1089470464	44	6666
2026-01-02 02:10:42.76	338.69	17.14	-35.5	-36.8	28.9	3.02e+01	0	39	0	1091567616	44	6673
2026-01-02 02:10:43.77	338.70	17.01	-35.4	-36.6	29.1	3.02e+01	0	39	0	1093140480	44	6554
2026-01-02 02:10:44.78	338.71	16.89	-35.4	-36.6	29.1	3.02e+01	0	39	0	1095237632	44	6556
2026-01-02 02:10:45.79	338.72	16.76	-35.4	-36.6	29.1	3.02e+01	0	39	0	1097334784	44	6554
2026-01-02 02:10:46.80	338.73	16.63	-35.5	-36.8	29.0	3.02e+01	0	39	0	1098907648	44	6671
2026-01-02 02:10:47.81	338.74	16.51	-35.4	-36.6	29.1	3.02e+01	0	39	0	1101004800	44	6545
2026-01-02 02:10:48.82	338.75	16.38	-35.4	-36.6	29.1	3.02e+01	0	39	0	1102577664	44	6541
2026-01-02 02:10:49.83	338.76	16.25	-35.3	-36.5	29.1	3.02e+01	0	39	0	1104674816	44	6476
2026-01-02 02:10:50.84	338.77	16.13	-35.4	-36.7	29.1	3.02e+01	0	39	0	1106771968	44	6576
2026-01-02 02:10:51.85	338.78	16.01	-35.3	-36.5	29.2	3.02e+01	0	39	0	1108344832	44	6484
2026-01-02 02:10:52.86	338.79	15.88	-35.3	-36.5	29.1	3.02e+01	0	39	0	1110441984	44	6488
2026-01-02 02:10:53.87	338.80	15.76	-35.3	-36.5	29.2	3.02e+01	0	39	0	1112014848	44	6487
2026-01-02 02:10:54.88	338.81	15.64	-35.3	-36.5	29.1	3.02e+01	0	39	0	1114112000	44	6479
2026-01-02 02:10:55.88	338.82	15.52	-35.3	-36.5	29.2	3.02e+01	0	39	0	1116209152	44	6439
2026-01-02 02:10:56.89	338.83	15.40	-35.2	-36.4	29.3	3.02e+01	0	39	0	1117782016	44	6409
2026-01-02 02:10:57.90	338.84	15.28	-35.2	-36.4	29.3	3.02e+01	0	39	0	1119879168	44	6402
2026-01-02 02:10:58.91	338.85	15.16	-35.2	-36.4	29.2	3.02e+01	0	39	0	1121976320	44	6413
2026-01-02 02:10:59.92	338.86	15.04	-35.4	-36.6	29.1	3.02e+01	0	39	0	1123549184	44	6539
2026-01-02 02:11:00.93	338.87	14.93	-35.2	-36.5	29.2	3.02e+01	0	39	0	1125646336	44	6433
2026-01-02 02:11:01.94	338.88	14.81	-35.3	-36.5	29.1	3.02e+01	0	39	0	1127219200	44	6437
2026-01-02 02:11:02.95	338.89	14.69	-35.2	-36.4	29.1	3.02e+01	0	39	0	1129316352	44	6385
2026-01-02 02:11:03.96	338.90	14.58	-35.2	-36.4	29.3	3.02e+01	0	39	0	1131413504	44	6413
2026-01-02 02:11:04.97	338.91	14.46	-35.2	-36.4	29.3	3.02e+01	0	39	0	1132986368	44	6380
2026-01-02 02:11:05.98	338.92	14.35	-35.4	-36.6	29.2	3.02e+01	0	39	0	1135083520	44	6525
2026-01-02 02:11:06.99	338.93	14.24	-35.4	-36.6	29.1	3.02e+01	0	39	0	1136656384	44	6528
2026-01-02 02:11:07.99	338.94	14.12	-35.6	-36.8	28.8	3.02e+01	0	39	0	1138753536	44	6695
2026-01-02 02:11:09.01	338.95	14.01	-35.4	-36.6	29.0	3.02e+01	0	39	0	1140850688	44	6560
2026-01-02 02:11:10.01	338.96	13.90	-35.2	-36.4	29.2	3.02e+01	0	39	0	1142423552	44	6413
2026-01-02 02:11:11.02	338.97	13.79	-35.3	-36.5	29.1	3.02e+01	0	39	0	1144520704	44	6478
2026-01-02 02:11:12.03	338.98	13.68	-35.3	-36.5	29.1	3.02e+01	0	39	0	1146093568	44	6498
2026-01-02 02:11:13.04	338.99	13.57	-35.4	-36.6	29.1	3.02e+01	0	39	0	1148190720	44	6531
2026-01-02 02:11:14.05	339.00	13.46	-35.3	-36.5	29.2	3.02e+01	0	39	0	1150287872	44	6474
2026-01-02 02:11:15.06	339.01	13.35	-35.4	-36.6	29.0	3.02e+01	0	39	0	1151860736	44	6528
2026-01-02 02:11:16.07	339.02	13.24	-35.5	-36.7	28.8	3.02e+01	0	39	0	1153957888	44	6647
2026-01-02 02:11:17.08	339.03	13.13	-35.5	-36.7	29.0	3.02e+01	0	39	0	1155530752	44	6631
2026-01-02 02:11:18.08	339.04	13.02	-35.5	-36.7	28.9	3.02e+01	0	39	0	1157627904	44	6636
2026-01-02 02:11:19.09	339.04	12.92	-35.3	-36.5	29.1	3.02e+01	0	39	0	1159725056	44	6467
2026-01-02 02:11:20.10	339.05	12.81	-35.4	-36.6	29.1	3.02e+01	0	39	0	1161297920	44	6529
2026-01-02 02:11:21.10	339.06	12.70	-36.0	-46.0	3.6	3.02e+01	0	39	104	1161822208	46	17092
2026-01-02 02:11:22.11	339.07	12.60	-36.0	-45.9	3.6	3.02e+01	0	39	104	1161822208	46	17065
2026-01-02 02:11:23.12	339.08	12.49	-36.0	-46.1	3.4	3.02e+01	0	39	104	1161822208	46	17455
2026-01-02 02:11:24.13	339.09	12.39	-38.0	-48.2	3.6	3.02e+01	0	39	104	1161822208	52	15589
2026-01-02 02:11:25.14	339.10	12.28	-38.1	-48.2	3.6	3.02e+01	0	39	104	1161822208	52	15763
2026-01-02 02:11:26.15	339.11	12.18	-48.6	-65.0	3.5	3.02e+01	0	39	104	1161822208	60	68045
2026-01-02 02:11:27.16	339.12	12.08	-41.1	-51.4	3.6	3.02e+01	0	39	104	1161822208	58	16069
2026-01-02 02:11:28.17	339.12	11.97	-44.2	-55.4	3.4	3.02e+01	0	39	104	1161822208	60	22702
2026-01-02 02:11:29.18	339.13	11.87	-37.2	-47.3	3.6	3.02e+01	0	39	104	1161822208	50	15865
2026-01-02 02:11:30.19	339.14	11.77	-36.5	-46.5	3.6	3.02e+01	0	39	104	1161822208	48	16250
2026-01-02 02:11:31.20	339.15	11.67	-36.2	-46.2	3.6	3.02e+01	0	39	104	1161822208	48	15716
2026-01-02 02:11:32.21	339.16	11.57	-36.3	-46.4	3.6	3.02e+01	0	39	104	1161822208	48	16029
2026-01-02 02:11:33.22	339.17	11.47	-38.9	-49.2	3.4	3.02e+01	0	39	104	1161822208	52	17615
2026-01-02 02:11:34.23	339.18	11.37	-38.0	-48.3	4.3	3.02e+01	0	39	104	1161822208	52	15825
2026-01-02 02:11:35.24	339.19	11.27	-48.3	-64.9	3.5	3.02e+01	0	39	104	1161822208	60	67578
2026-01-02 02:11:36.25	339.19	11.17	-40.7	-51.1	4.1	3.02e+01	0	39	104	1161822208	60	13847
2026-01-02 02:11:37.26	339.20	11.07	-45.2	-56.9	3.9	3.02e+01	0	39	104	1161822208	60	26833
2026-01-02 02:11:38.27	339.21	10.97	-39.6	-49.9	3.9	3.02e+01	0	39	104	1161822208	54	16921
2026-01-02 02:11:39.28	339.22	10.88	-39.5	-49.8	3.4	3.02e+01	0	39	104	1161822208	54	16854
2026-01-02 02:11:40.28	339.23	10.78	-38.7	-48.9	4.1	3.02e+01	0	39	104	1161822208	52	17003
2026-01-02 02:11:41.29	339.24	10.68	-37.6	-47.8	3.6	3.02e+01	0	39	104	1161822208	50	16807
2026-01-02 02:11:42.30	339.24	10.59	-39.7	-50.1	3.5	3.02e+01	0	39	104	1161822208	54	17463
2026-01-02 02:11:43.31	339.25	10.49	-36.6	-46.8	3.5	3.02e+01	0	39	104	1161822208	50	15056
