passes_logs/2026/01/02/R4.6S_Anadyr/R4.6S_Anadyr__20260102_204626_NOAA_20_JPSS-1_rec.log

#Pass ID: 20260102_204626_NOAA 20 (JPSS-1)
#Satellite: NOAA 20 (JPSS-1)
#Configuration: NOAA 20
#almurnet v.1.7.20251203
#Start time: 2026-01-02 20:46:30

#Version: 2.2.20231116
#Station: R4.6S_Anadyr
#Location: 177.4865 lon 64.73178 lat
#TLE: 1 43013U 17073A   26001.93781127  .00000184  00000+0  10834-3 0  9997
#TLE: 2 43013  98.7622 303.0160 0001916  58.2205 301.9158 14.19532295420889

#Time	Az	El	Level	Level2	SNR	BER	BlckErr	Temp	State	Recorded	gain1	gain2
2026-01-02 20:46:30.37	76.48	0.17	-50.2	-64.0	3.4	1.54e+00	0	38	0	0	60	57119
2026-01-02 20:46:31.37	76.41	0.22	-50.1	-65.4	3.6	1.51e+00	0	38	104	0	60	67017
2026-01-02 20:46:32.38	76.34	0.27	-50.1	-65.4	3.6	1.51e+00	0	38	104	0	60	67134
2026-01-02 20:46:33.39	76.27	0.33	-50.1	-65.3	3.6	1.51e+00	0	38	104	0	60	66921
2026-01-02 20:46:34.40	76.20	0.38	-50.1	-65.3	3.6	1.51e+00	0	38	104	0	60	66740
2026-01-02 20:46:35.41	76.13	0.43	-50.1	-65.3	3.6	1.51e+00	0	38	104	0	60	66278
2026-01-02 20:46:36.42	76.05	0.48	-50.0	-65.3	3.6	1.51e+00	0	38	104	0	60	66544
2026-01-02 20:46:37.43	75.98	0.53	-50.1	-65.3	3.6	1.51e+00	0	38	104	0	60	66393
2026-01-02 20:46:38.44	75.91	0.58	-50.0	-65.3	3.6	1.51e+00	0	38	104	0	60	66472
2026-01-02 20:46:39.45	75.84	0.63	-50.0	-65.3	3.6	1.51e+00	0	38	104	0	60	66181
2026-01-02 20:46:40.46	75.76	0.69	-49.9	-65.1	3.6	1.51e+00	0	38	104	0	60	64974
2026-01-02 20:46:41.47	75.69	0.74	-49.5	-65.0	3.6	1.51e+00	0	38	104	0	60	64122
2026-01-02 20:46:42.48	75.62	0.79	-49.5	-64.8	3.6	1.51e+00	0	38	104	0	60	62455
2026-01-02 20:46:43.50	75.54	0.84	-49.2	-64.4	3.6	1.51e+00	0	38	104	0	60	59840
2026-01-02 20:46:44.51	75.47	0.89	-48.7	-63.9	3.6	1.51e+00	0	38	104	0	60	56418
2026-01-02 20:46:45.51	75.40	0.94	-48.2	-63.5	3.6	1.51e+00	0	38	104	0	60	53845
2026-01-02 20:46:46.53	75.32	1.00	-48.2	-63.5	3.6	1.51e+00	0	38	104	0	60	53817
2026-01-02 20:46:47.53	75.25	1.05	-48.2	-63.4	3.6	1.51e+00	0	38	104	0	60	53678
2026-01-02 20:46:48.54	75.17	1.10	-48.2	-63.4	3.6	1.51e+00	0	38	104	0	60	53627
2026-01-02 20:46:49.55	75.10	1.15	-48.2	-63.5	3.6	1.51e+00	0	38	104	0	60	53895
2026-01-02 20:46:50.56	75.02	1.20	-48.2	-63.4	3.6	1.51e+00	0	38	104	0	60	53701
2026-01-02 20:46:51.57	74.95	1.26	-48.2	-63.5	3.6	1.51e+00	0	38	104	0	60	54027
2026-01-02 20:46:52.58	74.87	1.31	-48.2	-63.5	3.6	1.51e+00	0	38	104	0	60	53845
2026-01-02 20:46:53.59	74.80	1.36	-48.2	-63.4	3.6	1.51e+00	0	38	104	0	60	53702
2026-01-02 20:46:54.60	74.72	1.41	-48.2	-63.5	3.6	1.51e+00	0	38	104	0	60	54015
2026-01-02 20:46:55.61	74.64	1.47	-48.2	-63.4	3.6	1.51e+00	0	38	104	0	60	53668
2026-01-02 20:46:56.63	74.56	1.52	-48.2	-63.4	3.6	1.51e+00	0	38	104	0	60	53737
2026-01-02 20:46:57.63	74.49	1.57	-48.2	-63.5	3.6	1.51e+00	0	38	104	0	60	53835
2026-01-02 20:46:58.64	74.41	1.62	-48.2	-63.4	3.5	1.51e+00	0	38	104	0	60	53670
2026-01-02 20:46:59.65	74.33	1.67	-48.2	-63.4	3.6	1.51e+00	0	38	104	0	60	53548
2026-01-02 20:47:00.67	74.25	1.73	-48.2	-63.5	3.6	1.51e+00	0	38	104	0	60	53777
2026-01-02 20:47:01.68	74.17	1.78	-48.2	-63.4	3.6	1.51e+00	0	38	104	0	60	53672
2026-01-02 20:47:02.69	74.10	1.83	-48.2	-63.4	3.6	1.51e+00	0	38	104	0	60	53310
2026-01-02 20:47:03.70	74.02	1.89	-48.2	-63.4	3.6	1.51e+00	0	38	104	0	60	53423
2026-01-02 20:47:04.71	73.94	1.94	-48.2	-63.4	3.6	1.51e+00	0	38	104	0	60	53232
2026-01-02 20:47:05.72	73.86	1.99	-48.2	-63.3	3.6	1.51e+00	0	38	104	0	60	53104
2026-01-02 20:47:06.73	73.78	2.04	-48.1	-63.1	3.6	1.51e+00	0	38	104	0	60	51499
2026-01-02 20:47:07.74	73.70	2.10	-48.2	-63.0	3.6	1.51e+00	0	38	104	0	60	51057
2026-01-02 20:47:08.75	73.62	2.15	-48.1	-63.0	3.6	1.51e+00	0	38	104	0	60	51312
2026-01-02 20:47:09.76	73.54	2.20	-48.2	-63.1	3.6	1.51e+00	0	39	104	0	60	51907
2026-01-02 20:47:10.77	73.45	2.26	-48.2	-63.3	3.6	1.51e+00	0	38	104	0	60	52979
2026-01-02 20:47:11.78	73.37	2.31	-48.2	-63.4	3.6	1.51e+00	0	38	104	0	60	53755
2026-01-02 20:47:12.79	73.29	2.36	-48.2	-63.5	3.6	1.51e+00	0	38	104	0	60	53847
2026-01-02 20:47:13.80	73.21	2.41	-48.2	-63.4	3.6	1.51e+00	0	38	104	0	60	53423
2026-01-02 20:47:14.81	73.13	2.47	-48.2	-63.4	3.6	1.51e+00	0	39	104	0	60	53317
2026-01-02 20:47:15.82	73.04	2.52	-48.2	-63.4	3.6	1.51e+00	0	39	104	0	60	53438
2026-01-02 20:47:16.83	72.96	2.57	-48.1	-63.3	3.6	1.51e+00	0	38	104	0	60	52652
2026-01-02 20:47:17.84	72.88	2.63	-48.1	-62.9	3.6	1.51e+00	0	38	104	0	60	50490
2026-01-02 20:47:18.85	72.79	2.68	-48.1	-62.4	3.6	1.51e+00	0	38	104	0	60	47774
2026-01-02 20:47:19.86	72.71	2.73	-48.1	-62.7	3.6	1.51e+00	0	38	104	0	60	49130
2026-01-02 20:47:20.87	72.63	2.79	-48.2	-63.2	3.6	1.51e+00	0	39	104	0	60	52187
2026-01-02 20:47:21.88	72.54	2.84	-48.1	-62.1	3.6	1.51e+00	0	38	104	0	60	46229
2026-01-02 20:47:22.89	72.46	2.89	-47.9	-58.7	4.5	1.50e+00	25	39	104	0	60	31082
2026-01-02 20:47:23.90	72.37	2.95	-47.4	-54.5	7.1	2.97e-01	0	39	0	0	60	19102
2026-01-02 20:47:24.91	72.29	3.00	-46.6	-51.6	10.4	2.90e-02	0	39	0	2097152	60	13802
2026-01-02 20:47:25.92	72.20	3.06	-47.4	-54.5	7.2	2.56e-03	0	39	0	4194304	60	19236
2026-01-02 20:47:26.93	72.11	3.11	-46.8	-52.1	9.9	1.28e-02	0	39	0	6291456	60	14520
2026-01-02 20:47:27.94	72.03	3.16	-48.0	-59.8	3.4	2.25e-03	47	38	0	8388608	60	35301
2026-01-02 20:47:28.95	71.94	3.22	-48.2	-62.9	3.6	1.51e+00	0	38	104	8388608	60	50215
2026-01-02 20:47:29.96	71.85	3.27	-45.1	-48.3	14.2	1.50e+00	0	38	0	8388608	60	9350
2026-01-02 20:47:30.97	71.77	3.32	-45.3	-48.7	13.7	9.90e-06	0	39	0	9437184	60	9826
2026-01-02 20:47:31.98	71.68	3.38	-45.6	-49.2	13.1	8.30e-06	0	39	0	11534336	60	10413
2026-01-02 20:47:32.99	71.59	3.43	-45.5	-49.0	13.5	1.67e-05	0	39	0	13631488	60	10231
2026-01-02 20:47:33.99	71.50	3.49	-44.4	-47.0	15.2	0.00e+00	0	39	0	15728640	60	8136
2026-01-02 20:47:35.00	71.41	3.54	-44.4	-47.0	15.6	0.00e+00	0	38	0	17825792	60	8104
2026-01-02 20:47:36.01	71.32	3.59	-44.0	-46.4	16.0	0.00e+00	0	39	0	18874368	60	7573
2026-01-02 20:47:37.02	71.23	3.65	-43.7	-46.0	16.7	0.00e+00	0	39	0	20971520	60	7191
2026-01-02 20:47:38.03	71.14	3.70	-43.6	-45.8	16.8	0.00e+00	0	39	0	23068672	60	7077
2026-01-02 20:47:39.04	71.05	3.76	-43.8	-46.1	16.5	0.00e+00	0	39	0	25165824	60	7328
2026-01-02 20:47:40.05	70.96	3.81	-43.6	-45.7	17.0	0.00e+00	0	39	0	27262976	60	6949
2026-01-02 20:47:41.06	70.87	3.86	-43.9	-46.1	16.5	0.00e+00	0	39	0	28311552	60	7332
2026-01-02 20:47:42.07	70.78	3.92	-43.6	-45.7	17.0	0.00e+00	0	39	0	30408704	60	6939
2026-01-02 20:47:43.07	70.69	3.97	-43.5	-45.6	17.0	0.00e+00	0	39	0	32505856	60	6922
2026-01-02 20:47:44.08	70.60	4.03	-43.8	-46.0	16.6	0.00e+00	0	39	0	34603008	60	7246
2026-01-02 20:47:45.09	70.51	4.08	-43.7	-45.9	16.7	0.00e+00	0	39	0	36700160	60	7142
2026-01-02 20:47:46.10	70.41	4.14	-44.0	-46.2	16.5	0.00e+00	0	39	0	38797312	60	7418
2026-01-02 20:47:47.11	70.32	4.19	-44.1	-46.5	16.1	0.00e+00	0	39	0	39845888	60	7607
2026-01-02 20:47:48.12	70.23	4.25	-44.2	-46.6	16.1	0.00e+00	0	38	0	41943040	60	7763
2026-01-02 20:47:49.13	70.13	4.30	-44.3	-46.7	16.0	0.00e+00	0	38	0	44040192	60	7803
2026-01-02 20:47:50.14	70.04	4.35	-44.0	-46.3	16.4	0.00e+00	0	39	0	46137344	60	7456
2026-01-02 20:47:51.15	69.94	4.41	-43.9	-46.1	16.6	0.00e+00	0	39	0	48234496	60	7328
2026-01-02 20:47:52.16	69.85	4.46	-43.7	-45.8	16.9	0.00e+00	0	39	0	49283072	60	7053
2026-01-02 20:47:53.17	69.75	4.52	-43.6	-45.7	17.0	0.00e+00	0	39	0	51380224	60	6999
2026-01-02 20:47:54.18	69.66	4.57	-43.6	-45.7	17.0	0.00e+00	0	39	0	53477376	60	6999
2026-01-02 20:47:55.18	69.56	4.63	-43.8	-46.0	16.7	0.00e+00	0	38	0	55574528	60	7206
2026-01-02 20:47:56.19	69.47	4.68	-43.9	-46.2	16.6	0.00e+00	0	39	0	57671680	60	7347
2026-01-02 20:47:57.21	69.37	4.74	-43.8	-45.9	16.8	0.00e+00	0	39	0	58720256	60	7163
2026-01-02 20:47:58.21	69.27	4.79	-43.9	-46.2	16.7	0.00e+00	0	39	0	60817408	60	7362
2026-01-02 20:47:59.22	69.18	4.85	-43.7	-45.9	16.8	0.00e+00	0	39	0	62914560	60	7106
2026-01-02 20:48:00.23	69.08	4.90	-43.8	-46.0	16.8	0.00e+00	0	39	0	65011712	60	7223
2026-01-02 20:48:01.24	68.98	4.96	-43.7	-45.9	17.0	0.00e+00	0	39	0	67108864	60	7122
2026-01-02 20:48:02.25	68.88	5.01	-43.6	-45.7	17.1	0.00e+00	0	39	0	68157440	60	6986
2026-01-02 20:48:03.26	68.78	5.07	-43.5	-45.6	17.2	0.00e+00	0	39	0	70254592	60	6863
2026-01-02 20:48:04.27	68.68	5.12	-43.7	-45.8	17.0	0.00e+00	0	39	0	72351744	60	7054
2026-01-02 20:48:05.28	68.58	5.18	-43.5	-45.5	17.3	0.00e+00	0	39	0	74448896	60	6842
2026-01-02 20:48:06.29	68.48	5.23	-43.6	-45.7	17.2	0.00e+00	0	39	0	76546048	60	6933
2026-01-02 20:48:07.30	68.38	5.29	-43.7	-45.9	16.9	0.00e+00	0	39	0	77594624	60	7120
2026-01-02 20:48:08.31	68.28	5.34	-43.6	-45.7	17.1	0.00e+00	0	39	0	79691776	60	6980
2026-01-02 20:48:09.31	68.18	5.40	-43.6	-45.6	17.3	0.00e+00	0	39	0	81788928	60	6878
2026-01-02 20:48:10.32	68.08	5.45	-43.6	-45.7	17.1	0.00e+00	0	39	0	83886080	60	6949
2026-01-02 20:48:11.33	67.98	5.51	-43.6	-45.7	17.1	0.00e+00	0	38	0	85983232	60	6964
2026-01-02 20:48:12.34	67.88	5.56	-43.5	-45.5	17.3	0.00e+00	0	39	0	87031808	60	6821
2026-01-02 20:48:13.35	67.77	5.62	-43.4	-45.4	17.5	0.00e+00	0	39	0	89128960	60	6712
2026-01-02 20:48:14.36	67.67	5.68	-43.4	-45.4	17.4	0.00e+00	0	39	0	91226112	60	6730
2026-01-02 20:48:15.37	67.57	5.73	-43.6	-45.7	17.2	0.00e+00	0	39	0	93323264	60	6954
2026-01-02 20:48:16.38	67.46	5.79	-43.6	-45.6	17.2	0.00e+00	0	39	0	95420416	60	6923
2026-01-02 20:48:17.39	67.36	5.84	-43.5	-45.5	17.3	0.00e+00	0	39	0	96468992	60	6827
2026-01-02 20:48:18.40	67.25	5.90	-43.5	-45.6	17.3	0.00e+00	0	39	0	98566144	60	6879
2026-01-02 20:48:19.41	67.15	5.95	-43.4	-45.4	17.5	0.00e+00	0	39	0	100663296	60	6705
2026-01-02 20:48:20.42	67.04	6.01	-43.5	-45.5	17.4	0.00e+00	0	39	0	102760448	60	6785
2026-01-02 20:48:21.43	66.94	6.06	-43.5	-45.6	17.4	0.00e+00	0	39	0	104857600	60	6849
2026-01-02 20:48:22.43	66.83	6.12	-43.4	-45.3	17.6	0.00e+00	0	39	0	106954752	60	6655
2026-01-02 20:48:23.44	66.72	6.18	-43.3	-45.2	17.7	0.00e+00	0	38	0	108003328	60	6595
2026-01-02 20:48:24.45	66.62	6.23	-43.5	-45.5	17.3	0.00e+00	0	38	0	110100480	60	6836
2026-01-02 20:48:25.46	66.51	6.29	-43.2	-45.1	17.8	0.00e+00	0	39	0	112197632	60	6516
2026-01-02 20:48:26.47	66.40	6.34	-43.3	-45.3	17.7	0.00e+00	0	39	0	114294784	60	6639
2026-01-02 20:48:27.48	66.29	6.40	-43.1	-45.0	17.9	0.00e+00	0	38	0	115343360	60	6406
2026-01-02 20:48:28.49	66.18	6.45	-43.2	-45.1	17.9	0.00e+00	0	39	0	117440512	60	6470
2026-01-02 20:48:29.49	66.07	6.51	-43.0	-44.7	18.3	0.00e+00	0	38	0	119537664	60	6232
2026-01-02 20:48:30.50	65.96	6.56	-43.1	-44.9	18.1	0.00e+00	0	39	0	121634816	60	6359
2026-01-02 20:48:31.51	65.85	6.62	-42.9	-44.7	18.3	0.00e+00	0	38	0	123731968	60	6210
2026-01-02 20:48:32.52	65.74	6.68	-43.0	-44.8	18.3	0.00e+00	0	38	0	124780544	60	6265
2026-01-02 20:48:33.53	65.63	6.73	-42.8	-44.5	18.5	0.00e+00	0	39	0	126877696	60	6071
2026-01-02 20:48:34.54	65.52	6.79	-42.8	-44.5	18.5	0.00e+00	0	39	0	128974848	60	6095
2026-01-02 20:48:35.55	65.41	6.84	-43.0	-44.7	18.3	0.00e+00	0	38	0	131072000	60	6222
2026-01-02 20:48:36.56	65.29	6.90	-42.7	-44.4	18.6	0.00e+00	0	38	0	133169152	58	6701
2026-01-02 20:48:37.57	65.18	6.96	-42.6	-44.2	18.7	0.00e+00	0	39	0	135266304	58	6613
2026-01-02 20:48:38.58	65.07	7.01	-42.9	-44.7	18.4	0.00e+00	0	39	0	136314880	58	6940
2026-01-02 20:48:39.59	64.95	7.07	-42.9	-44.6	18.4	0.00e+00	0	38	0	138412032	58	6882
2026-01-02 20:48:40.60	64.84	7.12	-42.6	-44.3	18.8	0.00e+00	0	39	0	140509184	58	6623
2026-01-02 20:48:41.61	64.72	7.18	-42.5	-44.1	19.0	0.00e+00	0	39	0	142606336	58	6465
2026-01-02 20:48:42.62	64.61	7.24	-42.4	-44.0	19.1	0.00e+00	0	39	0	144703488	58	6414
2026-01-02 20:48:43.62	64.49	7.29	-42.6	-44.2	18.8	0.00e+00	0	39	0	145752064	58	6565
2026-01-02 20:48:44.63	64.38	7.35	-42.4	-43.9	19.2	0.00e+00	0	39	0	147849216	58	6356
2026-01-02 20:48:45.64	64.26	7.40	-42.5	-44.1	19.0	0.00e+00	0	38	0	149946368	58	6509
2026-01-02 20:48:46.65	64.14	7.46	-42.5	-44.1	19.0	0.00e+00	0	38	0	152043520	58	6491
2026-01-02 20:48:47.66	64.03	7.52	-42.7	-44.4	18.7	0.00e+00	0	38	0	154140672	58	6696
2026-01-02 20:48:48.67	63.91	7.57	-42.7	-44.3	18.8	0.00e+00	0	38	0	155189248	58	6678
2026-01-02 20:48:49.68	63.79	7.63	-42.6	-44.2	19.0	0.00e+00	0	38	0	157286400	58	6547
2026-01-02 20:48:50.69	63.67	7.68	-42.4	-43.9	19.2	0.00e+00	0	38	0	159383552	58	6368
2026-01-02 20:48:51.70	63.55	7.74	-42.4	-43.9	19.2	0.00e+00	0	38	0	161480704	58	6367
2026-01-02 20:48:52.71	63.43	7.80	-42.4	-43.9	19.3	0.00e+00	0	38	0	163577856	58	6368
2026-01-02 20:48:53.71	63.31	7.85	-42.2	-43.7	19.5	0.00e+00	0	38	0	164626432	58	6209
2026-01-02 20:48:54.72	63.19	7.91	-42.2	-43.7	19.6	0.00e+00	0	38	0	166723584	58	6197
2026-01-02 20:48:55.73	63.07	7.96	-42.3	-43.7	19.5	0.00e+00	0	39	0	168820736	58	6242
2026-01-02 20:48:56.74	62.95	8.02	-42.0	-43.5	19.7	0.00e+00	0	39	0	170917888	58	6036
2026-01-02 20:48:57.75	62.83	8.08	-42.0	-43.4	19.7	0.00e+00	0	38	0	173015040	58	6020
2026-01-02 20:48:58.76	62.70	8.13	-42.0	-43.4	19.7	0.00e+00	0	39	0	174063616	58	6031
2026-01-02 20:48:59.77	62.58	8.19	-42.1	-43.6	19.5	0.00e+00	0	38	0	176160768	58	6153
2026-01-02 20:49:00.78	62.46	8.25	-42.1	-43.6	19.6	0.00e+00	0	38	0	178257920	58	6152
2026-01-02 20:49:01.79	62.33	8.30	-42.2	-43.6	19.6	0.00e+00	0	39	0	180355072	58	6150
2026-01-02 20:49:02.80	62.21	8.36	-42.2	-43.7	19.4	0.00e+00	0	39	0	182452224	58	6222
2026-01-02 20:49:03.81	62.08	8.41	-42.4	-43.9	19.3	0.00e+00	0	38	0	183500800	58	6321
2026-01-02 20:49:04.82	61.96	8.47	-42.4	-43.8	19.4	0.00e+00	0	39	0	185597952	58	6316
2026-01-02 20:49:05.83	61.83	8.53	-42.4	-43.8	19.4	0.00e+00	0	39	0	187695104	58	6309
2026-01-02 20:49:06.84	61.70	8.58	-42.4	-43.9	19.3	0.00e+00	0	39	0	189792256	58	6384
2026-01-02 20:49:07.85	61.58	8.64	-42.4	-43.9	19.3	0.00e+00	0	39	0	191889408	58	6382
2026-01-02 20:49:08.86	61.45	8.69	-42.5	-44.1	19.2	0.00e+00	0	39	0	192937984	58	6468
2026-01-02 20:49:09.87	61.32	8.75	-42.3	-43.8	19.5	0.00e+00	0	39	0	195035136	58	6277
2026-01-02 20:49:10.88	61.19	8.81	-42.3	-43.8	19.4	0.00e+00	0	38	0	197132288	58	6252
2026-01-02 20:49:11.88	61.06	8.86	-42.3	-43.8	19.5	0.00e+00	0	38	0	199229440	58	6254
2026-01-02 20:49:12.89	60.93	8.92	-42.2	-43.7	19.5	0.00e+00	0	38	0	201326592	58	6221
2026-01-02 20:49:13.90	60.80	8.97	-42.2	-43.7	19.5	0.00e+00	0	39	0	203423744	58	6216
2026-01-02 20:49:14.91	60.67	9.03	-42.3	-43.7	19.5	0.00e+00	0	39	0	204472320	58	6244
2026-01-02 20:49:15.92	60.54	9.09	-42.1	-43.5	19.7	0.00e+00	0	39	0	206569472	58	6091
2026-01-02 20:49:16.93	60.41	9.14	-41.9	-43.3	20.0	0.00e+00	0	38	0	208666624	58	5941
2026-01-02 20:49:17.94	60.28	9.20	-41.8	-43.2	20.1	0.00e+00	0	39	0	210763776	58	5888
2026-01-02 20:49:18.95	60.15	9.25	-41.8	-43.2	20.1	0.00e+00	0	39	0	212860928	58	5839
2026-01-02 20:49:19.96	60.01	9.31	-41.8	-43.2	20.2	0.00e+00	0	39	0	213909504	56	6566
2026-01-02 20:49:20.97	59.88	9.37	-41.8	-43.2	20.1	0.00e+00	0	38	0	216006656	56	6566
2026-01-02 20:49:21.98	59.74	9.42	-41.8	-43.2	20.1	0.00e+00	0	38	0	218103808	56	6573
2026-01-02 20:49:22.99	59.61	9.48	-41.8	-43.2	20.0	0.00e+00	0	39	0	220200960	56	6580
2026-01-02 20:49:24.00	59.47	9.53	-41.8	-43.1	20.2	0.00e+00	0	38	0	222298112	56	6498
2026-01-02 20:49:25.01	59.34	9.59	-41.9	-43.3	20.3	0.00e+00	0	39	0	223346688	56	6629
2026-01-02 20:49:26.02	59.20	9.64	-41.9	-43.2	20.1	0.00e+00	0	39	0	225443840	56	6608
2026-01-02 20:49:27.03	59.06	9.70	-41.8	-43.2	20.2	0.00e+00	0	39	0	227540992	56	6540
2026-01-02 20:49:28.04	58.93	9.76	-41.8	-43.2	20.2	0.00e+00	0	39	0	229638144	56	6551
2026-01-02 20:49:29.05	58.79	9.81	-41.8	-43.2	20.2	0.00e+00	0	38	0	231735296	56	6544
2026-01-02 20:49:30.06	58.65	9.87	-41.7	-43.1	20.3	0.00e+00	0	39	0	232783872	56	6477
2026-01-02 20:49:31.07	58.51	9.92	-42.0	-43.3	20.1	0.00e+00	0	39	0	234881024	56	6674
2026-01-02 20:49:32.08	58.37	9.98	-41.7	-43.0	20.4	0.00e+00	0	39	0	236978176	56	6431
2026-01-02 20:49:33.09	58.23	10.03	-41.7	-43.1	20.3	0.00e+00	0	39	0	239075328	56	6471
2026-01-02 20:49:34.10	58.09	10.09	-41.9	-43.2	20.2	0.00e+00	0	39	0	241172480	56	6604
2026-01-02 20:49:35.11	57.95	10.14	-42.0	-43.4	20.1	0.00e+00	0	39	0	242221056	56	6698
2026-01-02 20:49:36.12	57.81	10.20	-42.2	-43.6	19.9	0.00e+00	0	39	0	244318208	56	6869
2026-01-02 20:49:37.13	57.66	10.25	-42.3	-43.7	19.7	0.00e+00	0	39	0	246415360	56	6969
2026-01-02 20:49:38.14	57.52	10.31	-42.0	-43.3	20.1	0.00e+00	0	39	0	248512512	56	6687
2026-01-02 20:49:39.15	57.38	10.37	-42.0	-43.3	20.1	0.00e+00	0	39	0	250609664	56	6682
2026-01-02 20:49:40.16	57.23	10.42	-41.9	-43.2	20.2	0.00e+00	0	39	0	251658240	56	6602
2026-01-02 20:49:41.17	57.09	10.48	-41.9	-43.3	20.2	0.00e+00	0	39	0	253755392	56	6616
2026-01-02 20:49:42.17	56.95	10.53	-41.9	-43.2	20.3	0.00e+00	0	39	0	255852544	56	6571
2026-01-02 20:49:43.18	56.80	10.58	-41.8	-43.2	20.3	0.00e+00	0	39	0	257949696	56	6560
2026-01-02 20:49:44.19	56.65	10.64	-41.9	-43.3	20.2	0.00e+00	0	39	0	260046848	56	6647
2026-01-02 20:49:45.20	56.51	10.69	-41.9	-43.3	20.2	0.00e+00	0	39	0	261095424	56	6627
2026-01-02 20:49:46.21	56.36	10.75	-41.9	-43.3	20.2	0.00e+00	0	39	0	263192576	56	6650
2026-01-02 20:49:47.22	56.21	10.80	-42.0	-43.3	20.2	0.00e+00	0	39	0	265289728	56	6690
2026-01-02 20:49:48.23	56.06	10.86	-42.0	-43.4	20.2	0.00e+00	0	39	0	267386880	56	6699
2026-01-02 20:49:49.24	55.91	10.91	-42.1	-43.5	19.9	0.00e+00	0	39	0	269484032	56	6807
2026-01-02 20:49:50.25	55.76	10.97	-41.9	-43.2	20.3	0.00e+00	0	39	0	271581184	56	6571
2026-01-02 20:49:51.26	55.61	11.02	-41.9	-43.2	20.2	0.00e+00	0	39	0	272629760	56	6592
2026-01-02 20:49:52.27	55.46	11.08	-42.0	-43.4	20.1	0.00e+00	0	39	0	274726912	56	6698
2026-01-02 20:49:53.28	55.31	11.13	-41.9	-43.2	20.3	0.00e+00	0	39	0	276824064	56	6603
2026-01-02 20:49:54.29	55.16	11.19	-42.0	-43.3	20.2	0.00e+00	0	39	0	278921216	56	6677
2026-01-02 20:49:55.30	55.01	11.24	-42.0	-43.4	20.2	0.00e+00	0	39	0	281018368	56	6725
2026-01-02 20:49:56.31	54.85	11.29	-42.1	-43.5	20.1	0.00e+00	0	39	0	282066944	56	6771
2026-01-02 20:49:57.32	54.70	11.35	-42.1	-43.4	20.1	0.00e+00	0	39	0	284164096	56	6750
2026-01-02 20:49:58.33	54.55	11.40	-42.0	-43.3	20.2	0.00e+00	0	39	0	286261248	56	6640
2026-01-02 20:49:59.34	54.39	11.45	-41.9	-43.2	20.3	0.00e+00	0	39	0	288358400	56	6599
2026-01-02 20:50:00.35	54.24	11.51	-41.7	-43.0	20.6	0.00e+00	0	39	0	290455552	56	6446
2026-01-02 20:50:01.36	54.08	11.56	-41.7	-42.9	20.7	0.00e+00	0	39	0	291504128	56	6377
2026-01-02 20:50:02.37	53.92	11.62	-41.7	-42.9	20.6	0.00e+00	0	39	0	293601280	56	6388
2026-01-02 20:50:03.38	53.77	11.67	-41.5	-42.7	20.8	0.00e+00	0	39	0	295698432	56	6234
2026-01-02 20:50:04.39	53.61	11.72	-41.6	-42.8	20.7	0.00e+00	0	39	0	297795584	56	6303
2026-01-02 20:50:05.40	53.45	11.78	-41.5	-42.7	20.9	0.00e+00	0	39	0	299892736	56	6206
2026-01-02 20:50:06.41	53.29	11.83	-41.4	-42.7	20.9	0.00e+00	0	39	0	300941312	56	6192
2026-01-02 20:50:07.41	53.13	11.88	-41.2	-42.4	21.1	0.00e+00	0	39	0	303038464	56	6025
2026-01-02 20:50:08.42	52.97	11.93	-41.4	-42.6	20.9	0.00e+00	0	39	0	305135616	56	6170
2026-01-02 20:50:09.43	52.81	11.99	-41.2	-42.4	21.2	0.00e+00	0	39	0	307232768	56	5979
2026-01-02 20:50:10.44	52.65	12.04	-41.2	-42.4	21.3	0.00e+00	0	39	0	309329920	56	6015
2026-01-02 20:50:11.45	52.49	12.09	-41.1	-42.2	21.3	0.00e+00	0	39	0	310378496	56	5883
2026-01-02 20:50:12.46	52.33	12.15	-40.9	-42.0	21.6	0.00e+00	0	39	0	312475648	56	5728
2026-01-02 20:50:13.47	52.16	12.20	-40.8	-41.8	21.7	0.00e+00	0	39	0	314572800	56	5624
2026-01-02 20:50:14.47	52.00	12.25	-40.6	-41.7	21.7	0.00e+00	0	39	0	316669952	54	6218
2026-01-02 20:50:15.48	51.84	12.30	-40.4	-41.5	21.9	0.00e+00	0	39	0	318767104	54	6071
2026-01-02 20:50:16.49	51.67	12.35	-40.5	-41.6	21.9	0.00e+00	0	39	0	319815680	54	6133
2026-01-02 20:50:17.50	51.51	12.41	-40.4	-41.4	22.0	0.00e+00	0	39	0	321912832	54	6026
2026-01-02 20:50:18.51	51.34	12.46	-40.4	-41.5	21.9	0.00e+00	0	39	0	324009984	54	6067
2026-01-02 20:50:19.52	51.18	12.51	-40.4	-41.4	22.0	0.00e+00	0	39	0	326107136	54	6016
2026-01-02 20:50:20.53	51.01	12.56	-40.2	-41.2	22.3	0.00e+00	0	39	0	328204288	54	5885
2026-01-02 20:50:21.54	50.84	12.61	-40.3	-41.4	22.1	0.00e+00	0	39	0	329252864	54	5983
2026-01-02 20:50:22.55	50.67	12.66	-40.5	-41.6	21.9	0.00e+00	0	39	0	331350016	54	6120
2026-01-02 20:50:23.56	50.50	12.71	-40.5	-41.6	21.9	0.00e+00	0	39	0	333447168	54	6116
2026-01-02 20:50:24.57	50.33	12.77	-40.3	-41.4	22.1	0.00e+00	0	39	0	335544320	54	5987
2026-01-02 20:50:25.58	50.16	12.82	-40.3	-41.4	22.1	0.00e+00	0	39	0	337641472	54	5983
2026-01-02 20:50:26.59	49.99	12.87	-40.4	-41.5	22.0	0.00e+00	0	39	0	339738624	54	6091
2026-01-02 20:50:27.60	49.82	12.92	-40.3	-41.3	22.1	0.00e+00	0	38	0	340787200	54	5945
2026-01-02 20:50:28.61	49.65	12.97	-40.1	-41.2	22.3	0.00e+00	0	39	0	342884352	54	5845
2026-01-02 20:50:29.62	49.48	13.02	-40.2	-41.3	22.2	0.00e+00	0	39	0	344981504	54	5902
2026-01-02 20:50:30.63	49.31	13.07	-40.1	-41.2	22.3	0.00e+00	0	39	0	347078656	54	5847
2026-01-02 20:50:31.64	49.13	13.12	-40.2	-41.2	22.4	0.00e+00	0	39	0	349175808	54	5872
2026-01-02 20:50:32.64	48.96	13.17	-40.0	-41.1	22.4	0.00e+00	0	39	0	350224384	54	5768
2026-01-02 20:50:33.65	48.78	13.22	-39.9	-40.9	22.6	0.00e+00	0	39	0	352321536	54	5678
2026-01-02 20:50:34.66	48.61	13.27	-39.8	-40.8	22.7	0.00e+00	0	39	0	354418688	54	5610
2026-01-02 20:50:35.67	48.43	13.32	-39.7	-40.7	22.8	0.00e+00	0	39	0	356515840	54	5528
2026-01-02 20:50:36.68	48.26	13.36	-39.8	-40.8	22.7	0.00e+00	0	39	0	357564416	52	6308
2026-01-02 20:50:37.69	48.08	13.41	-39.7	-40.7	22.8	0.00e+00	0	39	0	359661568	52	6217
2026-01-02 20:50:38.70	47.90	13.46	-39.8	-40.8	22.7	0.00e+00	0	39	0	361758720	52	6259
2026-01-02 20:50:39.71	47.72	13.51	-39.6	-40.6	22.9	0.00e+00	0	39	0	363855872	52	6133
2026-01-02 20:50:40.72	47.54	13.56	-39.6	-40.6	22.9	0.00e+00	0	39	0	365953024	52	6137
2026-01-02 20:50:41.73	47.36	13.61	-39.5	-40.4	23.0	0.00e+00	0	39	0	368050176	52	6003
2026-01-02 20:50:42.74	47.18	13.66	-39.4	-40.4	23.1	0.00e+00	0	39	0	369098752	52	5978
2026-01-02 20:50:43.75	47.00	13.70	-39.5	-40.4	22.6	0.00e+00	0	39	0	371195904	52	5989
2026-01-02 20:50:44.76	46.82	13.75	-39.4	-40.4	23.1	0.00e+00	0	39	0	373293056	52	5982
2026-01-02 20:50:45.77	46.64	13.80	-39.5	-40.4	23.1	0.00e+00	0	39	0	375390208	52	6003
2026-01-02 20:50:46.78	46.46	13.85	-39.5	-40.4	23.0	0.00e+00	0	39	0	377487360	52	6031
2026-01-02 20:50:47.79	46.27	13.89	-39.5	-40.4	23.0	0.00e+00	0	39	0	378535936	52	6025
2026-01-02 20:50:48.79	46.09	13.94	-39.5	-40.4	23.1	0.00e+00	0	39	0	380633088	52	6030
2026-01-02 20:50:49.80	45.91	13.99	-39.4	-40.3	23.1	0.00e+00	0	39	0	382730240	52	5949
2026-01-02 20:50:50.81	45.72	14.03	-39.5	-40.5	23.1	0.00e+00	0	39	0	384827392	52	6065
2026-01-02 20:50:51.82	45.54	14.08	-39.4	-40.4	23.1	0.00e+00	0	39	0	386924544	52	5983
2026-01-02 20:50:52.83	45.35	14.12	-39.5	-40.5	23.1	0.00e+00	0	39	0	387973120	52	6034
2026-01-02 20:50:53.84	45.17	14.17	-39.6	-40.6	22.9	0.00e+00	0	39	0	390070272	52	6111
2026-01-02 20:50:54.85	44.98	14.22	-39.7	-40.7	22.9	0.00e+00	0	39	0	392167424	52	6180
2026-01-02 20:50:55.86	44.79	14.26	-39.8	-40.8	22.8	0.00e+00	0	39	0	394264576	52	6246
2026-01-02 20:50:56.87	44.60	14.31	-39.8	-40.8	22.7	0.00e+00	0	39	0	396361728	52	6281
2026-01-02 20:50:57.88	44.41	14.35	-39.8	-40.8	22.5	0.00e+00	0	39	0	397410304	52	6292
2026-01-02 20:50:58.89	44.22	14.40	-39.9	-40.9	22.6	0.00e+00	0	39	0	399507456	52	6352
2026-01-02 20:50:59.90	44.03	14.44	-39.9	-40.9	22.7	0.00e+00	0	39	0	401604608	52	6359
2026-01-02 20:51:00.91	43.84	14.48	-39.9	-40.9	22.7	0.00e+00	0	39	0	403701760	52	6324
2026-01-02 20:51:01.92	43.65	14.53	-39.9	-40.9	22.6	0.00e+00	0	39	0	405798912	52	6348
2026-01-02 20:51:02.93	43.46	14.57	-39.9	-40.9	22.7	0.00e+00	0	39	0	406847488	52	6347
2026-01-02 20:51:03.94	43.27	14.62	-39.8	-40.8	22.8	0.00e+00	0	39	0	408944640	52	6256
2026-01-02 20:51:04.95	43.08	14.66	-39.7	-40.7	22.8	0.00e+00	0	39	0	411041792	52	6181
2026-01-02 20:51:05.95	42.88	14.70	-39.7	-40.7	22.8	0.00e+00	0	39	0	413138944	52	6213
2026-01-02 20:51:06.96	42.69	14.74	-39.8	-40.8	22.8	0.00e+00	0	39	0	415236096	52	6247
2026-01-02 20:51:07.97	42.49	14.79	-39.9	-40.9	22.7	0.00e+00	0	39	0	416284672	52	6333
2026-01-02 20:51:08.98	42.30	14.83	-39.9	-40.8	22.7	0.00e+00	0	39	0	418381824	52	6316
2026-01-02 20:51:09.99	42.10	14.87	-39.8	-40.8	22.7	0.00e+00	0	39	0	420478976	52	6271
2026-01-02 20:51:10.99	41.91	14.91	-39.8	-40.8	22.7	0.00e+00	0	39	0	422576128	52	6295
2026-01-02 20:51:12.00	41.71	14.95	-40.0	-40.9	22.2	0.00e+00	0	39	0	424673280	52	6390
2026-01-02 20:51:13.01	41.52	15.00	-39.8	-40.8	22.8	0.00e+00	0	39	0	425721856	52	6255
2026-01-02 20:51:14.02	41.32	15.04	-39.6	-40.5	23.0	0.00e+00	0	39	0	427819008	52	6082
2026-01-02 20:51:15.03	41.12	15.08	-39.5	-40.4	23.1	0.00e+00	0	39	0	429916160	52	6007
2026-01-02 20:51:16.04	40.92	15.12	-39.4	-40.4	23.2	0.00e+00	0	39	0	432013312	52	5986
2026-01-02 20:51:17.05	40.72	15.16	-39.4	-40.3	23.3	0.00e+00	0	39	0	434110464	52	5918
2026-01-02 20:51:18.06	40.52	15.20	-39.5	-40.4	23.1	0.00e+00	0	39	0	436207616	52	5994
2026-01-02 20:51:19.07	40.32	15.24	-39.5	-40.4	23.1	0.00e+00	0	39	0	437256192	52	6009
2026-01-02 20:51:20.08	40.12	15.28	-39.4	-40.3	23.3	0.00e+00	0	39	0	439353344	52	5936
2026-01-02 20:51:21.08	39.92	15.31	-39.2	-40.2	23.3	0.00e+00	0	39	0	441450496	52	5837
2026-01-02 20:51:22.09	39.72	15.35	-39.3	-40.2	23.3	0.00e+00	0	39	0	443547648	52	5887
2026-01-02 20:51:23.10	39.51	15.39	-39.2	-40.1	23.3	0.00e+00	0	39	0	445644800	52	5779
2026-01-02 20:51:24.11	39.31	15.43	-39.2	-40.1	23.3	0.00e+00	0	39	0	446693376	52	5816
2026-01-02 20:51:25.12	39.11	15.47	-39.4	-40.3	23.2	0.00e+00	0	39	0	448790528	52	5940
2026-01-02 20:51:26.13	38.90	15.50	-39.4	-40.3	23.2	0.00e+00	0	39	0	450887680	52	5959
2026-01-02 20:51:27.14	38.70	15.54	-39.3	-40.2	23.3	0.00e+00	0	39	0	452984832	52	5885
2026-01-02 20:51:28.15	38.49	15.58	-39.4	-40.3	23.2	0.00e+00	0	39	0	455081984	52	5936
2026-01-02 20:51:29.16	38.29	15.61	-39.2	-40.1	23.3	0.00e+00	0	39	0	456130560	52	5827
2026-01-02 20:51:30.17	38.08	15.65	-39.1	-40.0	23.5	0.00e+00	0	39	0	458227712	52	5715
2026-01-02 20:51:31.18	37.87	15.69	-39.1	-40.0	23.5	0.00e+00	0	39	0	460324864	52	5722
2026-01-02 20:51:32.19	37.67	15.72	-39.0	-40.0	23.5	0.00e+00	0	39	0	462422016	52	5696
2026-01-02 20:51:33.20	37.46	15.76	-39.0	-39.9	23.6	0.00e+00	0	39	0	464519168	52	5663
2026-01-02 20:51:34.21	37.25	15.79	-39.1	-40.0	23.5	0.00e+00	0	39	0	465567744	52	5757
2026-01-02 20:51:35.21	37.04	15.83	-39.1	-40.0	23.6	0.00e+00	0	39	0	467664896	52	5711
2026-01-02 20:51:36.22	36.83	15.86	-39.1	-40.0	23.5	0.00e+00	0	39	0	469762048	52	5715
2026-01-02 20:51:37.23	36.62	15.89	-39.0	-39.9	23.6	0.00e+00	0	39	0	471859200	52	5648
2026-01-02 20:51:38.24	36.41	15.93	-39.1	-40.1	23.4	0.00e+00	0	39	0	473956352	52	5765
2026-01-02 20:51:39.25	36.20	15.96	-39.1	-40.1	23.4	0.00e+00	0	39	0	475004928	52	5773
2026-01-02 20:51:40.26	35.99	15.99	-39.2	-40.1	23.5	0.00e+00	0	39	0	477102080	52	5819
2026-01-02 20:51:41.27	35.78	16.02	-39.3	-40.2	23.4	0.00e+00	0	39	0	479199232	52	5849
2026-01-02 20:51:42.28	35.57	16.06	-39.2	-40.1	23.4	0.00e+00	0	39	0	481296384	52	5803
2026-01-02 20:51:43.29	35.36	16.09	-39.2	-40.2	23.4	0.00e+00	0	39	0	483393536	52	5841
2026-01-02 20:51:44.30	35.14	16.12	-39.4	-40.4	23.2	0.00e+00	0	39	0	484442112	52	5994
2026-01-02 20:51:45.31	34.93	16.15	-39.4	-40.3	23.2	0.00e+00	0	39	0	486539264	52	5963
2026-01-02 20:51:46.32	34.71	16.18	-39.4	-40.4	23.2	0.00e+00	0	39	0	488636416	52	5975
2026-01-02 20:51:47.33	34.50	16.21	-39.5	-40.4	23.2	0.00e+00	0	39	0	490733568	52	6020
2026-01-02 20:51:48.34	34.29	16.24	-39.3	-40.2	23.3	0.00e+00	0	39	0	492830720	52	5896
2026-01-02 20:51:49.35	34.07	16.27	-39.4	-40.3	23.2	0.00e+00	0	39	0	493879296	52	5939
2026-01-02 20:51:50.36	33.85	16.30	-39.3	-40.3	23.3	0.00e+00	0	39	0	495976448	52	5914
2026-01-02 20:51:51.37	33.64	16.33	-39.4	-40.4	23.2	0.00e+00	0	39	0	498073600	52	5983
2026-01-02 20:51:52.37	33.42	16.36	-39.5	-40.4	23.1	0.00e+00	0	39	0	500170752	52	6005
2026-01-02 20:51:53.38	33.21	16.38	-39.4	-40.3	23.2	0.00e+00	0	39	0	502267904	52	5953
2026-01-02 20:51:54.39	32.99	16.41	-39.3	-40.2	23.3	0.00e+00	0	39	0	504365056	52	5882
2026-01-02 20:51:55.40	32.77	16.44	-39.1	-40.0	23.5	0.00e+00	0	39	0	505413632	52	5734
2026-01-02 20:51:56.41	32.55	16.47	-39.1	-40.0	23.5	0.00e+00	0	39	0	507510784	52	5760
2026-01-02 20:51:57.42	32.34	16.49	-39.3	-40.2	23.3	0.00e+00	0	39	0	509607936	52	5866
2026-01-02 20:51:58.43	32.12	16.52	-39.5	-40.4	23.2	0.00e+00	0	39	0	511705088	52	6023
2026-01-02 20:51:59.44	31.90	16.54	-39.6	-40.5	23.0	0.00e+00	0	39	0	513802240	52	6081
2026-01-02 20:52:00.45	31.68	16.57	-39.6	-40.5	23.1	0.00e+00	0	39	0	514850816	52	6090
2026-01-02 20:52:01.46	31.46	16.59	-39.7	-40.7	23.0	0.00e+00	0	39	0	516947968	52	6195
2026-01-02 20:52:02.47	31.24	16.62	-39.7	-40.6	22.9	0.00e+00	0	39	0	519045120	52	6162
2026-01-02 20:52:03.48	31.02	16.64	-39.9	-40.9	22.8	0.00e+00	0	39	0	521142272	52	6351
2026-01-02 20:52:04.49	30.80	16.67	-40.1	-41.1	22.5	0.00e+00	0	39	0	523239424	52	6518
2026-01-02 20:52:05.50	30.58	16.69	-40.3	-41.3	22.5	0.00e+00	0	39	0	524288000	52	6672
2026-01-02 20:52:06.51	30.35	16.71	-40.2	-41.2	22.5	0.00e+00	0	39	0	526385152	52	6578
2026-01-02 20:52:07.52	30.13	16.73	-40.0	-41.0	22.6	0.00e+00	0	39	0	528482304	52	6462
2026-01-02 20:52:08.53	29.91	16.76	-40.0	-41.0	22.6	0.00e+00	0	39	0	530579456	52	6429
2026-01-02 20:52:09.54	29.69	16.78	-40.0	-41.0	22.6	0.00e+00	0	39	0	532676608	52	6438
2026-01-02 20:52:10.55	29.46	16.80	-40.0	-41.0	22.7	0.00e+00	0	39	0	533725184	52	6397
2026-01-02 20:52:11.56	29.24	16.82	-40.1	-41.1	22.6	0.00e+00	0	39	0	535822336	52	6473
2026-01-02 20:52:12.57	29.02	16.84	-39.8	-40.8	22.7	0.00e+00	0	39	0	537919488	52	6284
2026-01-02 20:52:13.58	28.79	16.86	-39.8	-40.8	22.8	0.00e+00	0	39	0	540016640	52	6277
2026-01-02 20:52:14.59	28.57	16.88	-39.8	-40.7	22.9	0.00e+00	0	39	0	542113792	52	6223
2026-01-02 20:52:15.60	28.34	16.90	-39.5	-40.5	23.1	0.00e+00	0	39	0	543162368	52	6038
2026-01-02 20:52:16.61	28.12	16.92	-39.6	-40.6	23.1	0.00e+00	0	39	0	545259520	52	6116
2026-01-02 20:52:17.62	27.89	16.93	-39.7	-40.6	22.9	0.00e+00	0	39	0	547356672	52	6168
2026-01-02 20:52:18.63	27.67	16.95	-39.8	-40.8	22.8	0.00e+00	0	39	0	549453824	52	6297
2026-01-02 20:52:19.64	27.44	16.97	-40.0	-41.0	22.6	0.00e+00	0	39	0	551550976	52	6404
2026-01-02 20:52:20.65	27.22	16.98	-39.9	-40.9	22.6	0.00e+00	0	39	0	552599552	52	6377
2026-01-02 20:52:21.65	26.99	17.00	-39.9	-40.9	22.8	0.00e+00	0	39	0	554696704	52	6352
2026-01-02 20:52:22.66	26.77	17.02	-39.9	-40.9	22.7	0.00e+00	0	39	0	556793856	52	6325
2026-01-02 20:52:23.67	26.54	17.03	-40.0	-41.0	22.6	0.00e+00	0	39	0	558891008	52	6454
2026-01-02 20:52:24.68	26.31	17.05	-40.2	-41.2	22.5	0.00e+00	0	39	0	560988160	52	6554
2026-01-02 20:52:25.69	26.09	17.06	-40.2	-41.2	22.5	0.00e+00	0	39	0	562036736	52	6577
2026-01-02 20:52:26.70	25.86	17.08	-40.2	-41.2	22.5	0.00e+00	0	39	0	564133888	52	6581
2026-01-02 20:52:27.71	25.63	17.09	-40.1	-41.1	22.5	0.00e+00	0	39	0	566231040	52	6490
2026-01-02 20:52:28.72	25.40	17.10	-40.1	-41.1	22.5	0.00e+00	0	39	0	568328192	52	6491
2026-01-02 20:52:29.73	25.18	17.11	-40.1	-41.1	22.6	0.00e+00	0	39	0	570425344	52	6490
2026-01-02 20:52:30.74	24.95	17.13	-40.1	-41.1	22.5	0.00e+00	0	39	0	572522496	52	6473
2026-01-02 20:52:31.75	24.72	17.14	-40.2	-41.2	22.4	0.00e+00	0	39	0	573571072	52	6597
2026-01-02 20:52:32.76	24.49	17.15	-40.4	-41.4	22.3	0.00e+00	0	39	0	575668224	52	6722
2026-01-02 20:52:33.77	24.26	17.16	-40.4	-41.5	22.2	0.00e+00	0	39	0	577765376	52	6801
2026-01-02 20:52:34.77	24.04	17.17	-40.3	-41.3	22.3	0.00e+00	0	39	0	579862528	52	6689
2026-01-02 20:52:35.79	23.81	17.18	-40.2	-41.3	22.4	0.00e+00	0	39	0	581959680	52	6624
2026-01-02 20:52:36.79	23.58	17.19	-40.1	-41.2	22.4	0.00e+00	0	39	0	583008256	52	6548
2026-01-02 20:52:37.80	23.35	17.20	-40.1	-41.1	22.5	0.00e+00	0	39	0	585105408	52	6523
2026-01-02 20:52:38.81	23.12	17.21	-40.2	-41.2	22.5	0.00e+00	0	39	0	587202560	52	6564
2026-01-02 20:52:39.82	22.89	17.22	-40.3	-41.3	22.4	0.00e+00	0	39	0	589299712	52	6648
2026-01-02 20:52:40.83	22.66	17.22	-40.3	-41.3	22.4	0.00e+00	0	39	0	591396864	52	6654
2026-01-02 20:52:41.84	22.43	17.23	-40.2	-41.2	22.4	0.00e+00	0	39	0	592445440	52	6572
2026-01-02 20:52:42.85	22.20	17.24	-40.2	-41.2	22.5	0.00e+00	0	39	0	594542592	52	6549
2026-01-02 20:52:43.86	21.97	17.24	-40.2	-41.2	22.5	0.00e+00	0	39	0	596639744	52	6559
2026-01-02 20:52:44.87	21.74	17.25	-40.1	-41.2	22.5	0.00e+00	0	39	0	598736896	52	6545
2026-01-02 20:52:45.87	21.52	17.25	-39.9	-40.9	22.7	0.00e+00	0	39	0	600834048	52	6371
2026-01-02 20:52:46.88	21.29	17.26	-40.1	-41.1	22.6	0.00e+00	0	39	0	601882624	52	6477
2026-01-02 20:52:47.89	21.06	17.26	-40.1	-41.1	22.4	0.00e+00	0	39	0	603979776	52	6487
2026-01-02 20:52:48.90	20.83	17.27	-40.2	-41.2	22.4	0.00e+00	0	39	0	606076928	52	6611
2026-01-02 20:52:49.91	20.59	17.27	-40.1	-41.2	22.5	0.00e+00	0	39	0	608174080	52	6548
2026-01-02 20:52:50.92	20.36	17.27	-40.3	-41.3	22.3	0.00e+00	0	39	0	610271232	52	6662
2026-01-02 20:52:51.93	20.13	17.27	-40.3	-41.3	22.3	0.00e+00	0	39	0	611319808	52	6674
2026-01-02 20:52:52.94	19.90	17.28	-40.3	-41.4	22.3	0.00e+00	0	39	0	613416960	52	6718
2026-01-02 20:52:53.95	19.67	17.28	-40.3	-41.3	22.3	0.00e+00	0	39	0	615514112	52	6680
2026-01-02 20:52:54.96	19.44	17.28	-40.3	-41.3	22.3	0.00e+00	0	39	0	617611264	52	6679
2026-01-02 20:52:55.97	19.21	17.28	-40.2	-41.2	22.4	0.00e+00	0	39	0	619708416	52	6612
2026-01-02 20:52:56.98	18.98	17.28	-40.2	-41.2	22.4	0.00e+00	0	39	0	620756992	52	6580
2026-01-02 20:52:57.99	18.75	17.28	-40.3	-41.3	22.3	0.00e+00	0	39	0	622854144	52	6672
2026-01-02 20:52:59.00	18.52	17.28	-40.2	-41.2	21.7	0.00e+00	0	39	0	624951296	52	6577
2026-01-02 20:53:00.02	18.29	17.28	-40.0	-40.9	22.6	0.00e+00	0	39	0	627048448	52	6387
2026-01-02 20:53:01.02	18.06	17.27	-39.8	-40.8	22.8	0.00e+00	0	39	0	629145600	52	6264
2026-01-02 20:53:02.03	17.83	17.27	-39.9	-40.9	22.6	0.00e+00	0	39	0	630194176	52	6367
2026-01-02 20:53:03.04	17.60	17.27	-39.9	-40.9	22.7	0.00e+00	0	39	0	632291328	52	6363
2026-01-02 20:53:04.05	17.37	17.27	-39.9	-40.9	22.7	0.00e+00	0	39	0	634388480	52	6371
2026-01-02 20:53:05.06	17.14	17.26	-40.1	-41.1	22.6	0.00e+00	0	39	0	636485632	52	6490
2026-01-02 20:53:06.07	16.91	17.26	-40.1	-41.1	22.6	0.00e+00	0	39	0	638582784	52	6525
2026-01-02 20:53:07.08	16.68	17.25	-40.2	-41.2	22.4	0.00e+00	0	39	0	640679936	52	6601
2026-01-02 20:53:08.09	16.45	17.25	-40.1	-41.1	22.6	0.00e+00	0	39	0	641728512	52	6522
2026-01-02 20:53:09.10	16.22	17.24	-39.9	-40.9	22.7	0.00e+00	0	39	0	643825664	52	6333
2026-01-02 20:53:10.11	15.99	17.23	-40.0	-41.0	22.6	0.00e+00	0	39	0	645922816	52	6397
2026-01-02 20:53:11.12	15.76	17.23	-39.8	-40.7	22.9	0.00e+00	0	39	0	648019968	52	6230
2026-01-02 20:53:12.13	15.53	17.22	-39.8	-40.7	22.8	0.00e+00	0	39	0	649068544	52	6242
2026-01-02 20:53:13.14	15.30	17.21	-39.9	-40.9	22.7	0.00e+00	0	39	0	651165696	52	6351
2026-01-02 20:53:14.14	15.08	17.21	-39.8	-40.8	22.8	0.00e+00	0	39	0	653262848	52	6252
2026-01-02 20:53:15.15	14.85	17.20	-39.8	-40.8	22.8	0.00e+00	0	39	0	655360000	52	6296
2026-01-02 20:53:16.17	14.61	17.19	-39.7	-40.7	22.9	0.00e+00	0	39	0	657457152	52	6187
2026-01-02 20:53:17.17	14.39	17.18	-39.6	-40.6	22.9	0.00e+00	0	39	0	658505728	52	6131
2026-01-02 20:53:18.19	14.16	17.17	-39.5	-40.5	23.1	0.00e+00	0	39	0	660602880	52	6057
2026-01-02 20:53:19.19	13.93	17.16	-39.4	-40.4	23.1	0.00e+00	0	39	0	662700032	52	5984
2026-01-02 20:53:20.20	13.70	17.15	-39.5	-40.5	23.1	0.00e+00	0	39	0	664797184	52	6065
2026-01-02 20:53:21.21	13.47	17.14	-39.4	-40.4	23.2	0.00e+00	0	39	0	666894336	52	5990
2026-01-02 20:53:22.22	13.25	17.12	-39.6	-40.5	23.1	0.00e+00	0	39	0	668991488	52	6068
2026-01-02 20:53:23.23	13.02	17.11	-39.5	-40.4	23.1	0.00e+00	0	39	0	670040064	52	6023
2026-01-02 20:53:24.24	12.79	17.10	-39.5	-40.4	23.1	0.00e+00	0	39	0	672137216	52	6017
2026-01-02 20:53:25.25	12.56	17.09	-39.5	-40.5	23.1	0.00e+00	0	39	0	674234368	52	6047
2026-01-02 20:53:26.26	12.34	17.07	-39.5	-40.5	23.1	0.00e+00	0	39	0	676331520	52	6041
2026-01-02 20:53:27.27	12.11	17.06	-39.4	-40.4	23.3	0.00e+00	0	39	0	678428672	52	5973
2026-01-02 20:53:28.28	11.88	17.04	-39.3	-40.2	23.3	0.00e+00	0	39	0	679477248	52	5885
2026-01-02 20:53:29.29	11.66	17.03	-39.2	-40.1	23.5	0.00e+00	0	39	0	681574400	52	5774
2026-01-02 20:53:30.30	11.43	17.01	-39.0	-39.9	23.4	0.00e+00	0	39	0	683671552	52	5693
2026-01-02 20:53:31.31	11.20	17.00	-38.9	-39.8	23.8	0.00e+00	0	39	0	685768704	52	5570
2026-01-02 20:53:32.32	10.98	16.98	-38.9	-39.8	23.7	0.00e+00	0	39	0	687865856	52	5588
2026-01-02 20:53:33.33	10.75	16.96	-38.9	-39.8	23.6	0.00e+00	0	39	0	688914432	52	5588
2026-01-02 20:53:34.33	10.53	16.95	-39.0	-39.9	23.6	0.00e+00	0	39	0	691011584	52	5672
2026-01-02 20:53:35.35	10.30	16.93	-38.9	-39.7	23.7	0.00e+00	0	39	0	693108736	52	5562
2026-01-02 20:53:36.36	10.08	16.91	-38.9	-39.8	23.7	0.00e+00	0	39	0	695205888	52	5623
2026-01-02 20:53:37.37	9.85	16.89	-38.9	-39.8	23.6	0.00e+00	0	39	0	697303040	52	5619
2026-01-02 20:53:38.37	9.63	16.87	-39.0	-39.9	23.6	0.00e+00	0	39	0	698351616	52	5652
2026-01-02 20:53:39.38	9.41	16.85	-39.1	-40.0	23.5	0.00e+00	0	39	0	700448768	52	5761
2026-01-02 20:53:40.39	9.18	16.83	-39.1	-40.0	23.5	0.00e+00	0	39	0	702545920	52	5715
2026-01-02 20:53:41.40	8.96	16.81	-39.2	-40.1	23.4	0.00e+00	0	39	0	704643072	52	5809
2026-01-02 20:53:42.41	8.74	16.79	-39.1	-40.0	23.5	0.00e+00	0	39	0	706740224	52	5751
2026-01-02 20:53:43.42	8.51	16.77	-39.0	-40.0	23.5	0.00e+00	0	39	0	707788800	52	5704
2026-01-02 20:53:44.43	8.29	16.75	-39.1	-40.0	23.4	0.00e+00	0	39	0	709885952	52	5760
2026-01-02 20:53:45.44	8.07	16.73	-39.2	-40.1	23.4	0.00e+00	0	39	0	711983104	52	5782
2026-01-02 20:53:46.45	7.85	16.71	-39.2	-40.1	23.4	0.00e+00	0	39	0	714080256	52	5788
2026-01-02 20:53:47.46	7.63	16.68	-39.2	-40.2	23.2	0.00e+00	0	39	0	716177408	52	5853
2026-01-02 20:53:48.47	7.40	16.66	-39.4	-40.3	23.1	0.00e+00	0	39	0	717225984	52	5936
2026-01-02 20:53:49.48	7.18	16.64	-39.4	-40.4	23.1	0.00e+00	0	39	0	719323136	52	5978
2026-01-02 20:53:50.49	6.96	16.61	-39.6	-40.5	23.1	0.00e+00	0	39	0	721420288	52	6088
2026-01-02 20:53:51.50	6.74	16.59	-39.6	-40.6	22.9	0.00e+00	0	39	0	723517440	52	6128
2026-01-02 20:53:52.51	6.52	16.56	-39.5	-40.4	23.1	0.00e+00	0	39	0	725614592	52	6019
2026-01-02 20:53:53.52	6.30	16.54	-39.4	-40.3	23.1	0.00e+00	0	39	0	726663168	52	5942
2026-01-02 20:53:54.53	6.08	16.51	-39.4	-40.4	23.1	0.00e+00	0	39	0	728760320	52	5988
2026-01-02 20:53:55.54	5.87	16.49	-39.5	-40.5	23.1	0.00e+00	0	39	0	730857472	52	6038
2026-01-02 20:53:56.55	5.65	16.46	-39.5	-40.5	23.0	0.00e+00	0	39	0	732954624	52	6069
2026-01-02 20:53:57.56	5.43	16.43	-39.5	-40.5	23.0	0.00e+00	0	39	0	735051776	52	6067
2026-01-02 20:53:58.56	5.22	16.41	-39.6	-40.5	23.0	0.00e+00	0	39	0	737148928	52	6103
2026-01-02 20:53:59.57	5.00	16.38	-39.8	-40.8	22.8	0.00e+00	0	39	0	738197504	52	6273
2026-01-02 20:54:00.58	4.78	16.35	-39.8	-40.8	22.7	0.00e+00	0	39	0	740294656	52	6264
2026-01-02 20:54:01.59	4.57	16.32	-39.9	-40.9	22.7	0.00e+00	0	39	0	742391808	52	6359
2026-01-02 20:54:02.60	4.35	16.29	-40.0	-41.1	22.5	0.00e+00	0	39	0	744488960	52	6468
2026-01-02 20:54:03.61	4.13	16.27	-40.0	-41.0	22.5	0.00e+00	0	39	0	746586112	52	6438
2026-01-02 20:54:04.62	3.92	16.24	-39.9	-40.9	22.6	0.00e+00	0	39	0	747634688	52	6376
2026-01-02 20:54:05.63	3.71	16.21	-40.0	-41.0	22.5	0.00e+00	0	39	0	749731840	52	6459
2026-01-02 20:54:06.64	3.49	16.18	-40.0	-41.0	22.6	0.00e+00	0	39	0	751828992	52	6406
2026-01-02 20:54:07.64	3.28	16.15	-40.1	-41.1	22.5	0.00e+00	0	39	0	753926144	52	6507
2026-01-02 20:54:08.65	3.07	16.11	-40.1	-41.1	22.5	0.00e+00	0	39	0	756023296	52	6504
2026-01-02 20:54:09.66	2.85	16.08	-39.9	-40.9	22.6	0.00e+00	0	39	0	757071872	52	6383
2026-01-02 20:54:10.67	2.64	16.05	-40.0	-41.0	22.6	0.00e+00	0	39	0	759169024	52	6439
2026-01-02 20:54:11.68	2.43	16.02	-40.0	-41.0	22.7	0.00e+00	0	39	0	761266176	52	6408
2026-01-02 20:54:12.69	2.22	15.99	-39.8	-40.8	22.8	0.00e+00	0	39	0	763363328	52	6313
2026-01-02 20:54:13.70	2.01	15.95	-39.9	-40.8	22.8	0.00e+00	0	39	0	765460480	52	6316
2026-01-02 20:54:14.71	1.80	15.92	-39.6	-40.6	22.9	0.00e+00	0	39	0	766509056	52	6133
2026-01-02 20:54:15.72	1.59	15.89	-39.7	-40.6	22.9	0.00e+00	0	39	0	768606208	52	6151
2026-01-02 20:54:16.73	1.38	15.85	-39.6	-40.5	23.0	0.00e+00	0	39	0	770703360	52	6084
2026-01-02 20:54:17.74	1.17	15.82	-39.6	-40.6	22.9	0.00e+00	0	39	0	772800512	52	6151
2026-01-02 20:54:18.75	0.96	15.79	-39.4	-40.4	23.1	0.00e+00	0	39	0	774897664	52	5978
2026-01-02 20:54:19.76	0.75	15.75	-39.5	-40.4	23.0	0.00e+00	0	39	0	775946240	52	6024
2026-01-02 20:54:20.77	0.55	15.72	-39.5	-40.5	23.0	0.00e+00	0	39	0	778043392	52	6054
2026-01-02 20:54:21.77	0.34	15.68	-39.6	-40.6	23.0	0.00e+00	0	39	0	780140544	52	6142
2026-01-02 20:54:22.78	0.13	15.64	-39.6	-40.5	22.9	0.00e+00	0	39	0	782237696	52	6102
2026-01-02 20:54:23.79	359.93	15.61	-39.6	-40.6	22.9	0.00e+00	0	39	0	784334848	52	6118
2026-01-02 20:54:24.80	359.72	15.57	-39.8	-40.8	22.7	0.00e+00	0	39	0	785383424	52	6284
2026-01-02 20:54:25.81	359.52	15.53	-39.7	-40.6	22.9	0.00e+00	0	39	0	787480576	52	6155
2026-01-02 20:54:26.82	359.31	15.50	-39.7	-40.7	22.7	0.00e+00	0	39	0	789577728	52	6188
2026-01-02 20:54:27.83	359.11	15.46	-39.8	-40.8	22.7	0.00e+00	0	39	0	791674880	52	6311
2026-01-02 20:54:28.84	358.91	15.42	-39.8	-40.8	22.7	0.00e+00	0	39	0	793772032	52	6296
2026-01-02 20:54:29.85	358.70	15.38	-39.8	-40.8	22.7	0.00e+00	0	39	0	794820608	52	6292
2026-01-02 20:54:30.86	358.50	15.35	-39.8	-40.8	22.7	0.00e+00	0	39	0	796917760	52	6311
2026-01-02 20:54:31.87	358.30	15.31	-39.8	-40.8	22.7	0.00e+00	0	39	0	799014912	52	6313
2026-01-02 20:54:32.87	358.10	15.27	-39.6	-40.6	22.9	0.00e+00	0	39	0	801112064	52	6154
2026-01-02 20:54:33.88	357.90	15.23	-39.5	-40.5	22.7	0.00e+00	0	39	0	803209216	52	6035
2026-01-02 20:54:34.89	357.70	15.19	-39.5	-40.4	23.0	0.00e+00	0	39	0	805306368	52	6004
2026-01-02 20:54:35.90	357.50	15.15	-39.6	-40.5	23.0	0.00e+00	0	39	0	806354944	52	6081
2026-01-02 20:54:36.91	357.30	15.11	-39.5	-40.4	22.8	0.00e+00	0	39	0	808452096	52	6012
2026-01-02 20:54:37.92	357.10	15.07	-39.7	-40.6	22.8	0.00e+00	0	39	0	810549248	52	6152
2026-01-02 20:54:38.93	356.90	15.03	-39.8	-40.8	22.8	0.00e+00	0	39	0	812646400	52	6260
2026-01-02 20:54:39.94	356.71	14.99	-39.8	-40.8	22.7	0.00e+00	0	39	0	814743552	52	6263
2026-01-02 20:54:40.95	356.51	14.95	-40.0	-41.0	22.5	0.00e+00	0	39	0	815792128	52	6434
2026-01-02 20:54:41.95	356.31	14.91	-40.1	-41.1	22.4	0.00e+00	0	39	0	817889280	52	6510
2026-01-02 20:54:42.96	356.12	14.87	-40.2	-41.2	22.3	0.00e+00	0	39	0	819986432	52	6604
2026-01-02 20:54:43.97	355.92	14.82	-40.2	-41.2	22.4	0.00e+00	0	39	0	822083584	52	6577
2026-01-02 20:54:44.98	355.73	14.78	-40.1	-41.2	22.4	0.00e+00	0	39	0	823132160	52	6560
2026-01-02 20:54:45.99	355.53	14.74	-40.1	-41.1	22.4	0.00e+00	0	39	0	825229312	52	6521
2026-01-02 20:54:46.99	355.34	14.70	-39.9	-40.9	22.6	0.00e+00	0	39	0	827326464	52	6370
2026-01-02 20:54:48.00	355.15	14.65	-39.8	-40.8	22.7	0.00e+00	0	39	0	829423616	52	6306
2026-01-02 20:54:49.01	354.96	14.61	-40.0	-41.0	22.5	0.00e+00	0	39	0	831520768	52	6450
2026-01-02 20:54:50.02	354.76	14.57	-39.8	-40.8	22.7	0.00e+00	0	39	0	833617920	52	6311
2026-01-02 20:54:51.03	354.57	14.52	-40.0	-41.0	22.5	0.00e+00	0	39	0	834666496	52	6459
2026-01-02 20:54:52.04	354.38	14.48	-40.3	-41.3	22.2	0.00e+00	0	39	0	836763648	52	6690
2026-01-02 20:54:53.05	354.19	14.43	-40.2	-41.3	22.3	0.00e+00	0	39	0	838860800	52	6638
2026-01-02 20:54:54.05	354.00	14.39	-40.3	-41.4	22.1	0.00e+00	0	39	0	840957952	52	6731
2026-01-02 20:54:55.06	353.82	14.35	-40.6	-41.7	21.9	0.00e+00	0	39	0	843055104	52	6940
2026-01-02 20:54:56.07	353.63	14.30	-40.4	-41.4	22.1	0.00e+00	0	39	0	844103680	52	6764
2026-01-02 20:54:57.08	353.44	14.26	-40.4	-41.5	22.1	0.00e+00	0	39	0	846200832	52	6791
2026-01-02 20:54:58.09	353.25	14.21	-40.5	-41.6	22.1	0.00e+00	0	39	0	848297984	52	6873
2026-01-02 20:54:59.10	353.07	14.17	-40.3	-41.3	22.3	0.00e+00	0	39	0	850395136	52	6656
2026-01-02 20:55:00.11	352.88	14.12	-40.4	-41.5	22.1	0.00e+00	0	39	0	852492288	52	6787
2026-01-02 20:55:01.12	352.69	14.07	-40.4	-41.4	22.1	0.00e+00	0	39	0	853540864	52	6754
2026-01-02 20:55:02.13	352.51	14.03	-40.5	-41.5	22.0	0.00e+00	0	39	0	855638016	52	6839
2026-01-02 20:55:03.14	352.32	13.98	-40.5	-41.6	21.9	0.00e+00	0	39	0	857735168	52	6909
2026-01-02 20:55:04.15	352.14	13.93	-40.7	-41.8	21.8	0.00e+00	0	39	0	859832320	52	7010
2026-01-02 20:55:05.16	351.96	13.89	-40.6	-41.7	21.8	0.00e+00	0	39	0	861929472	52	7000
2026-01-02 20:55:06.17	351.77	13.84	-40.8	-41.9	21.6	0.00e+00	0	39	0	862978048	54	6388
2026-01-02 20:55:07.18	351.59	13.79	-40.7	-41.8	21.8	0.00e+00	0	39	0	865075200	54	6276
2026-01-02 20:55:08.19	351.41	13.75	-40.8	-41.9	21.7	0.00e+00	0	39	0	867172352	54	6341
2026-01-02 20:55:09.20	351.23	13.70	-40.9	-42.0	21.4	0.00e+00	0	39	0	869269504	54	6442
2026-01-02 20:55:10.20	351.05	13.65	-41.0	-42.2	21.4	0.00e+00	0	39	0	871366656	54	6556
2026-01-02 20:55:11.22	350.87	13.60	-41.2	-42.4	21.2	0.00e+00	0	39	0	872415232	54	6731
2026-01-02 20:55:12.22	350.69	13.55	-41.3	-42.5	21.1	0.00e+00	0	39	0	874512384	54	6821
2026-01-02 20:55:13.23	350.51	13.51	-41.4	-42.7	20.9	0.00e+00	0	39	0	876609536	54	6950
2026-01-02 20:55:14.24	350.34	13.46	-41.4	-42.7	20.9	0.00e+00	0	39	0	878706688	54	6933
2026-01-02 20:55:15.25	350.16	13.41	-41.5	-42.8	20.8	0.00e+00	0	39	0	880803840	54	7038
2026-01-02 20:55:16.26	349.98	13.36	-41.4	-42.7	20.8	0.00e+00	0	39	0	881852416	54	6947
2026-01-02 20:55:17.27	349.81	13.31	-41.5	-42.8	20.8	0.00e+00	0	39	0	883949568	54	7020
2026-01-02 20:55:18.28	349.63	13.26	-41.3	-42.6	21.0	0.00e+00	0	39	0	886046720	54	6849
2026-01-02 20:55:19.29	349.46	13.21	-41.3	-42.5	21.1	0.00e+00	0	39	0	888143872	54	6788
2026-01-02 20:55:20.30	349.28	13.16	-41.4	-42.6	20.9	0.00e+00	0	39	0	890241024	54	6888
2026-01-02 20:55:21.31	349.11	13.11	-41.2	-42.4	21.1	0.00e+00	0	39	0	891289600	54	6746
2026-01-02 20:55:22.32	348.93	13.06	-41.3	-42.5	21.0	0.00e+00	0	39	0	893386752	54	6842
2026-01-02 20:55:23.33	348.76	13.01	-41.5	-42.7	20.9	0.00e+00	0	39	0	895483904	54	6983
2026-01-02 20:55:24.34	348.59	12.96	-41.6	-42.9	20.7	0.00e+00	0	39	0	897581056	54	7103
2026-01-02 20:55:25.35	348.42	12.91	-41.9	-43.2	20.5	0.00e+00	0	39	0	899678208	56	6556
2026-01-02 20:55:26.36	348.25	12.86	-41.9	-43.2	20.4	0.00e+00	0	39	0	901775360	56	6573
2026-01-02 20:55:27.37	348.08	12.81	-42.0	-43.4	20.3	0.00e+00	0	39	0	902823936	56	6697
2026-01-02 20:55:28.38	347.91	12.76	-42.1	-43.5	20.2	0.00e+00	0	39	0	904921088	56	6784
2026-01-02 20:55:29.38	347.74	12.71	-42.0	-43.3	20.3	0.00e+00	0	39	0	907018240	56	6640
2026-01-02 20:55:30.39	347.57	12.66	-42.1	-43.4	20.2	0.00e+00	0	39	0	909115392	56	6739
2026-01-02 20:55:31.40	347.41	12.61	-42.0	-43.4	20.2	0.00e+00	0	39	0	911212544	56	6708
2026-01-02 20:55:32.41	347.24	12.56	-42.0	-43.3	20.3	0.00e+00	0	39	0	912261120	56	6689
2026-01-02 20:55:33.42	347.07	12.51	-42.2	-43.5	20.2	0.00e+00	0	39	0	914358272	56	6824
2026-01-02 20:55:34.43	346.91	12.45	-42.2	-43.6	20.2	0.00e+00	0	39	0	916455424	56	6850
2026-01-02 20:55:35.44	346.74	12.40	-42.3	-43.7	20.0	0.00e+00	0	39	0	918552576	56	6951
2026-01-02 20:55:36.45	346.57	12.35	-42.0	-43.4	20.2	0.00e+00	0	39	0	920649728	56	6710
2026-01-02 20:55:37.46	346.41	12.30	-42.0	-43.4	20.1	0.00e+00	0	39	0	921698304	56	6721
2026-01-02 20:55:38.47	346.25	12.25	-42.0	-43.4	20.2	0.00e+00	0	39	0	923795456	56	6700
2026-01-02 20:55:39.48	346.08	12.19	-42.1	-43.5	20.2	0.00e+00	0	39	0	925892608	56	6803
2026-01-02 20:55:40.48	345.92	12.14	-42.1	-43.4	20.2	0.00e+00	0	39	0	927989760	56	6742
2026-01-02 20:55:41.49	345.76	12.09	-42.1	-43.4	20.1	0.00e+00	0	39	0	930086912	56	6764
2026-01-02 20:55:42.50	345.60	12.04	-42.1	-43.5	20.1	0.00e+00	0	39	0	931135488	56	6806
2026-01-02 20:55:43.51	345.44	11.98	-42.1	-43.5	20.2	0.00e+00	0	39	0	933232640	56	6814
2026-01-02 20:55:44.52	345.28	11.93	-42.1	-43.5	20.1	0.00e+00	0	39	0	935329792	56	6793
2026-01-02 20:55:45.53	345.12	11.88	-42.3	-43.7	19.9	0.00e+00	0	39	0	937426944	56	6998
2026-01-02 20:55:46.54	344.96	11.83	-42.2	-43.6	20.0	0.00e+00	0	39	0	939524096	56	6898
2026-01-02 20:55:47.55	344.80	11.77	-42.3	-43.7	20.0	0.00e+00	0	39	0	940572672	56	6951
2026-01-02 20:55:48.56	344.64	11.72	-42.4	-43.8	19.8	0.00e+00	0	39	0	942669824	56	7070
2026-01-02 20:55:49.56	344.49	11.67	-42.3	-43.7	19.9	0.00e+00	0	39	0	944766976	56	6967
2026-01-02 20:55:50.57	344.33	11.61	-42.1	-43.5	20.0	0.00e+00	0	39	0	946864128	56	6802
2026-01-02 20:55:51.58	344.18	11.56	-42.1	-43.5	20.1	0.00e+00	0	39	0	948961280	56	6810
2026-01-02 20:55:52.59	344.02	11.51	-42.1	-43.4	20.1	0.00e+00	0	39	0	950009856	56	6760
2026-01-02 20:55:53.60	343.87	11.45	-42.0	-43.4	20.3	0.00e+00	0	39	0	952107008	56	6695
2026-01-02 20:55:54.61	343.71	11.40	-41.8	-43.1	20.5	0.00e+00	0	39	0	954204160	56	6479
2026-01-02 20:55:55.62	343.56	11.35	-41.7	-42.9	20.6	0.00e+00	0	39	0	956301312	56	6367
2026-01-02 20:55:56.63	343.40	11.29	-41.6	-42.9	20.6	0.00e+00	0	39	0	958398464	56	6335
2026-01-02 20:55:57.64	343.25	11.24	-41.6	-42.9	20.5	0.00e+00	0	39	0	959447040	56	6346
2026-01-02 20:55:58.65	343.10	11.18	-41.5	-42.8	20.8	0.00e+00	0	39	0	961544192	56	6253
2026-01-02 20:55:59.65	342.95	11.13	-41.6	-42.9	20.7	0.00e+00	0	39	0	963641344	56	6326
2026-01-02 20:56:00.66	342.80	11.08	-41.5	-42.7	20.8	0.00e+00	0	39	0	965738496	56	6223
2026-01-02 20:56:01.67	342.65	11.02	-41.5	-42.8	20.8	0.00e+00	0	39	0	967835648	56	6285
2026-01-02 20:56:02.68	342.50	10.97	-41.5	-42.8	20.8	0.00e+00	0	39	0	969932800	56	6272
2026-01-02 20:56:03.69	342.35	10.91	-41.3	-42.6	20.9	0.00e+00	0	39	0	970981376	56	6104
2026-01-02 20:56:04.70	342.20	10.86	-41.2	-42.4	21.1	0.00e+00	0	39	0	973078528	56	6030
2026-01-02 20:56:05.71	342.05	10.80	-41.1	-42.4	21.1	0.00e+00	0	39	0	975175680	56	5981
2026-01-02 20:56:06.72	341.91	10.75	-41.2	-42.4	21.1	0.00e+00	0	39	0	977272832	56	5995
2026-01-02 20:56:07.73	341.76	10.69	-41.2	-42.4	21.0	0.00e+00	0	39	0	979369984	56	6023
2026-01-02 20:56:08.74	341.61	10.64	-41.1	-42.3	21.1	0.00e+00	0	39	0	980418560	56	5955
2026-01-02 20:56:09.75	341.47	10.58	-41.2	-42.4	21.0	0.00e+00	0	39	0	982515712	56	5998
2026-01-02 20:56:10.76	341.32	10.53	-41.0	-42.2	21.1	0.00e+00	0	39	0	984612864	56	5874
2026-01-02 20:56:11.77	341.18	10.47	-41.1	-42.3	21.1	0.00e+00	0	39	0	986710016	56	5923
2026-01-02 20:56:12.78	341.03	10.42	-41.0	-42.2	21.3	0.00e+00	0	39	0	987758592	56	5866
2026-01-02 20:56:13.79	340.89	10.36	-40.9	-42.2	21.3	0.00e+00	0	39	0	989855744	56	5831
2026-01-02 20:56:14.80	340.75	10.31	-40.8	-42.0	21.4	0.00e+00	0	39	0	991952896	56	5728
2026-01-02 20:56:15.81	340.60	10.25	-40.8	-42.0	21.3	0.00e+00	0	39	0	994050048	54	6409
2026-01-02 20:56:16.82	340.46	10.20	-40.5	-41.6	21.6	0.00e+00	0	39	0	996147200	54	6170
2026-01-02 20:56:17.83	340.32	10.14	-40.6	-41.7	21.6	0.00e+00	0	39	0	998244352	54	6240
2026-01-02 20:56:18.83	340.18	10.09	-40.5	-41.6	21.7	0.00e+00	0	39	0	999292928	54	6156
2026-01-02 20:56:19.84	340.04	10.03	-40.4	-41.6	21.7	0.00e+00	0	39	0	1001390080	54	6128
2026-01-02 20:56:20.85	339.90	9.98	-40.3	-41.5	21.8	0.00e+00	0	39	0	1003487232	54	6046
2026-01-02 20:56:21.86	339.76	9.92	-40.4	-41.5	21.7	0.00e+00	0	39	0	1005584384	54	6095
2026-01-02 20:56:22.87	339.62	9.87	-40.3	-41.4	21.9	0.00e+00	0	39	0	1007681536	54	6004
2026-01-02 20:56:23.88	339.49	9.81	-40.2	-41.3	21.9	0.00e+00	0	39	0	1008730112	54	5959
2026-01-02 20:56:24.89	339.35	9.76	-40.2	-41.3	22.0	0.00e+00	0	39	0	1010827264	54	5913
2026-01-02 20:56:25.90	339.21	9.70	-40.2	-41.3	22.0	0.00e+00	0	39	0	1012924416	54	5913
2026-01-02 20:56:26.91	339.07	9.65	-40.2	-41.3	21.9	0.00e+00	0	39	0	1015021568	54	5926
2026-01-02 20:56:27.92	338.94	9.59	-40.2	-41.3	22.0	0.00e+00	0	39	0	1017118720	54	5912
2026-01-02 20:56:28.93	338.80	9.53	-40.2	-41.3	21.9	0.00e+00	0	39	0	1018167296	54	5900
2026-01-02 20:56:29.94	338.67	9.48	-39.9	-41.0	22.2	0.00e+00	0	39	0	1020264448	54	5747
2026-01-02 20:56:30.95	338.53	9.42	-40.0	-41.1	22.1	0.00e+00	0	39	0	1022361600	54	5787
2026-01-02 20:56:31.95	338.40	9.37	-39.9	-41.0	22.2	0.00e+00	0	39	0	1024458752	54	5708
2026-01-02 20:56:32.96	338.27	9.31	-40.0	-41.1	22.2	0.00e+00	0	39	0	1026555904	54	5809
2026-01-02 20:56:33.97	338.13	9.26	-39.9	-41.0	22.1	0.00e+00	0	39	0	1027604480	54	5740
2026-01-02 20:56:34.98	338.00	9.20	-39.8	-40.9	22.3	0.00e+00	0	39	0	1029701632	54	5637
2026-01-02 20:56:35.99	337.87	9.14	-39.8	-40.9	22.3	0.00e+00	0	39	0	1031798784	54	5636
2026-01-02 20:56:37.00	337.74	9.09	-39.9	-40.9	22.1	0.00e+00	0	39	0	1033895936	54	5680
2026-01-02 20:56:38.01	337.61	9.03	-39.8	-40.8	22.3	0.00e+00	0	39	0	1035993088	54	5605
2026-01-02 20:56:39.02	337.48	8.98	-39.9	-40.9	21.9	0.00e+00	0	39	0	1037041664	54	5695
2026-01-02 20:56:40.03	337.35	8.92	-39.9	-41.0	22.1	0.00e+00	0	39	0	1039138816	54	5716
2026-01-02 20:56:41.04	337.22	8.86	-40.1	-41.2	21.9	0.00e+00	0	39	0	1041235968	54	5858
2026-01-02 20:56:42.05	337.09	8.81	-40.0	-41.1	21.9	0.00e+00	0	39	0	1043333120	54	5787
2026-01-02 20:56:43.06	336.96	8.75	-40.0	-41.1	21.9	0.00e+00	0	39	0	1045430272	54	5819
2026-01-02 20:56:44.07	336.83	8.70	-40.1	-41.3	21.8	0.00e+00	0	39	0	1046478848	54	5901
2026-01-02 20:56:45.07	336.71	8.64	-40.0	-41.1	21.9	0.00e+00	0	39	0	1048576000	54	5808
2026-01-02 20:56:46.08	336.58	8.59	-40.1	-41.2	21.9	0.00e+00	0	39	0	1050673152	54	5876
2026-01-02 20:56:47.09	336.46	8.53	-40.2	-41.3	21.8	0.00e+00	0	39	0	1052770304	54	5949
2026-01-02 20:56:48.10	336.33	8.47	-40.3	-41.4	21.7	0.00e+00	0	39	0	1054867456	54	6010
2026-01-02 20:56:49.11	336.20	8.42	-40.2	-41.3	21.8	0.00e+00	0	39	0	1055916032	54	5949
2026-01-02 20:56:50.12	336.08	8.36	-40.3	-41.4	21.7	0.00e+00	0	39	0	1058013184	54	6011
2026-01-02 20:56:51.13	335.96	8.31	-40.4	-41.5	21.7	0.00e+00	0	39	0	1060110336	54	6085
2026-01-02 20:56:52.13	335.83	8.25	-40.3	-41.5	21.6	0.00e+00	0	39	0	1062207488	54	6046
2026-01-02 20:56:53.14	335.71	8.19	-40.4	-41.6	21.5	0.00e+00	0	39	0	1064304640	54	6121
2026-01-02 20:56:54.15	335.59	8.14	-40.6	-41.8	21.4	0.00e+00	0	39	0	1066401792	54	6253
2026-01-02 20:56:55.16	335.46	8.08	-40.5	-41.7	21.4	0.00e+00	0	39	0	1067450368	54	6188
2026-01-02 20:56:56.17	335.34	8.03	-40.7	-41.9	21.1	0.00e+00	0	39	0	1069547520	54	6386
2026-01-02 20:56:57.17	335.22	7.97	-40.7	-41.9	21.1	0.00e+00	0	39	0	1071644672	54	6384
2026-01-02 20:56:58.18	335.10	7.91	-40.6	-41.8	21.3	0.00e+00	0	39	0	1073741824	54	6307
2026-01-02 20:56:59.19	334.98	7.86	-40.7	-41.9	21.2	0.00e+00	0	39	0	1075838976	54	6325
2026-01-02 20:57:00.20	334.86	7.80	-40.5	-41.7	21.4	0.00e+00	0	39	0	1076887552	54	6197
2026-01-02 20:57:01.20	334.74	7.75	-40.5	-41.7	21.3	0.00e+00	0	39	0	1078984704	54	6226
2026-01-02 20:57:02.21	334.62	7.69	-40.5	-41.7	21.4	0.00e+00	0	39	0	1081081856	54	6205
2026-01-02 20:57:03.22	334.51	7.63	-40.7	-41.9	21.1	0.00e+00	0	39	0	1083179008	54	6337
2026-01-02 20:57:04.23	334.39	7.58	-40.6	-41.7	21.3	0.00e+00	0	39	0	1085276160	54	6231
2026-01-02 20:57:05.24	334.27	7.52	-40.5	-41.7	21.3	0.00e+00	0	39	0	1086324736	54	6216
2026-01-02 20:57:06.25	334.15	7.47	-40.4	-41.6	21.5	0.00e+00	0	39	0	1088421888	54	6106
2026-01-02 20:57:07.26	334.04	7.41	-40.3	-41.5	21.5	0.00e+00	0	39	0	1090519040	54	6035
2026-01-02 20:57:08.27	333.92	7.35	-40.4	-41.6	21.5	0.00e+00	0	39	0	1092616192	54	6109
2026-01-02 20:57:09.28	333.80	7.30	-40.7	-41.9	21.2	0.00e+00	0	39	0	1094713344	54	6326
2026-01-02 20:57:10.29	333.69	7.24	-40.6	-41.7	21.3	0.00e+00	0	39	0	1095761920	54	6230
2026-01-02 20:57:11.30	333.57	7.19	-40.7	-41.9	21.2	0.00e+00	0	39	0	1097859072	54	6331
2026-01-02 20:57:12.31	333.46	7.13	-40.7	-41.9	21.1	0.00e+00	0	39	0	1099956224	54	6329
2026-01-02 20:57:13.31	333.35	7.08	-40.9	-42.1	20.9	0.00e+00	0	39	0	1102053376	54	6501
2026-01-02 20:57:14.32	333.23	7.02	-41.0	-42.2	21.0	0.00e+00	0	39	0	1104150528	54	6599
2026-01-02 20:57:15.33	333.12	6.96	-41.1	-42.3	20.8	0.00e+00	0	39	0	1105199104	54	6659
2026-01-02 20:57:16.34	333.01	6.91	-41.0	-42.3	20.7	0.00e+00	0	39	0	1107296256	54	6652
2026-01-02 20:57:17.35	332.90	6.85	-41.3	-42.6	20.5	0.00e+00	0	39	0	1109393408	54	6876
2026-01-02 20:57:18.36	332.78	6.80	-41.5	-42.8	20.1	0.00e+00	0	39	0	1111490560	54	7080
2026-01-02 20:57:19.37	332.67	6.74	-41.3	-42.6	20.3	0.00e+00	0	39	0	1113587712	54	6899
2026-01-02 20:57:20.38	332.56	6.68	-41.3	-42.6	20.4	0.00e+00	0	39	0	1114636288	54	6918
2026-01-02 20:57:21.39	332.45	6.63	-41.5	-42.8	20.2	0.00e+00	0	39	0	1116733440	54	7040
2026-01-02 20:57:22.40	332.34	6.57	-41.3	-42.6	20.4	0.00e+00	0	39	0	1118830592	54	6887
2026-01-02 20:57:23.41	332.23	6.52	-41.4	-42.7	20.3	0.00e+00	0	39	0	1120927744	54	6981
2026-01-02 20:57:24.42	332.12	6.46	-41.4	-42.8	20.2	0.00e+00	0	39	0	1123024896	54	7018
2026-01-02 20:57:25.43	332.01	6.41	-41.5	-42.8	20.1	0.00e+00	0	39	0	1124073472	54	7043
2026-01-02 20:57:26.44	331.91	6.35	-41.4	-42.7	20.2	0.00e+00	0	39	0	1126170624	54	6993
2026-01-02 20:57:27.45	331.80	6.29	-41.5	-42.9	20.0	0.00e+00	0	39	0	1128267776	54	7116
2026-01-02 20:57:28.45	331.69	6.24	-41.6	-43.0	20.0	0.00e+00	0	39	0	1130364928	54	7171
2026-01-02 20:57:29.46	331.59	6.18	-41.7	-43.1	19.8	0.00e+00	0	39	0	1132462080	54	7262
2026-01-02 20:57:30.47	331.48	6.13	-41.7	-43.1	19.8	0.00e+00	0	39	0	1133510656	56	6513
2026-01-02 20:57:31.48	331.37	6.07	-41.7	-43.1	19.9	0.00e+00	0	39	0	1135607808	56	6523
2026-01-02 20:57:32.49	331.27	6.02	-41.8	-43.2	19.9	0.00e+00	0	39	0	1137704960	56	6603
2026-01-02 20:57:33.49	331.16	5.96	-42.0	-43.4	19.6	0.00e+00	0	39	0	1139802112	56	6758
2026-01-02 20:57:34.50	331.06	5.91	-42.2	-43.7	19.4	0.00e+00	0	39	0	1141899264	56	6941
2026-01-02 20:57:35.51	330.95	5.85	-42.3	-43.9	19.2	0.00e+00	0	39	0	1142947840	56	7103
2026-01-02 20:57:36.52	330.85	5.80	-42.2	-43.7	19.3	0.00e+00	0	39	0	1145044992	56	6943
2026-01-02 20:57:37.53	330.75	5.74	-42.1	-43.6	19.4	0.00e+00	0	39	0	1147142144	56	6851
2026-01-02 20:57:38.54	330.64	5.68	-42.2	-43.7	19.4	0.00e+00	0	39	0	1149239296	56	6940
2026-01-02 20:57:39.55	330.54	5.63	-42.3	-43.8	19.2	0.00e+00	0	39	0	1151336448	56	7031
2026-01-02 20:57:40.56	330.44	5.57	-42.2	-43.7	19.2	0.00e+00	0	39	0	1152385024	56	7007
2026-01-02 20:57:41.57	330.34	5.52	-42.3	-43.8	19.2	0.00e+00	0	39	0	1154482176	56	7048
2026-01-02 20:57:42.58	330.23	5.46	-42.3	-43.9	19.3	0.00e+00	0	39	0	1156579328	56	7090
2026-01-02 20:57:43.59	330.13	5.41	-42.4	-43.9	19.0	0.00e+00	0	39	0	1158676480	56	7158
2026-01-02 20:57:44.60	330.03	5.35	-42.4	-44.0	18.9	0.00e+00	0	39	0	1160773632	56	7225
2026-01-02 20:57:45.61	329.93	5.30	-42.4	-44.0	19.1	0.00e+00	0	39	0	1162870784	56	7179
2026-01-02 20:57:46.61	329.83	5.24	-42.5	-44.0	18.9	0.00e+00	0	39	0	1163919360	56	7245
2026-01-02 20:57:47.63	329.73	5.19	-42.5	-44.1	18.9	0.00e+00	0	39	0	1166016512	56	7294
2026-01-02 20:57:48.63	329.63	5.13	-42.4	-44.0	18.9	0.00e+00	0	39	0	1168113664	56	7242
2026-01-02 20:57:49.64	329.53	5.08	-42.5	-44.1	18.9	0.00e+00	0	39	0	1170210816	56	7336
2026-01-02 20:57:50.65	329.44	5.02	-42.8	-44.5	18.5	0.00e+00	0	39	0	1172307968	58	6791
2026-01-02 20:57:51.66	329.34	4.97	-42.6	-44.3	18.7	0.00e+00	0	39	0	1173356544	58	6625
2026-01-02 20:57:52.67	329.24	4.91	-42.6	-44.3	18.6	0.00e+00	0	39	0	1175453696	58	6620
2026-01-02 20:57:53.68	329.14	4.86	-42.7	-44.4	18.6	0.00e+00	0	39	0	1177550848	58	6706
2026-01-02 20:57:54.69	329.05	4.80	-42.6	-44.3	18.7	0.00e+00	0	39	0	1179648000	58	6644
2026-01-02 20:57:55.70	328.95	4.75	-42.6	-44.2	18.5	0.00e+00	0	39	0	1181745152	58	6587
2026-01-02 20:57:56.71	328.85	4.69	-42.7	-44.3	18.5	0.00e+00	0	39	0	1182793728	58	6685
2026-01-02 20:57:57.72	328.76	4.64	-42.8	-44.5	18.4	0.00e+00	0	39	0	1184890880	58	6811
2026-01-02 20:57:58.73	328.66	4.58	-43.1	-44.9	18.1	0.00e+00	0	39	0	1186988032	58	7109
2026-01-02 20:57:59.73	328.57	4.53	-42.6	-44.2	18.6	0.00e+00	0	39	0	1189085184	58	6610
2026-01-02 20:58:00.74	328.47	4.47	-43.0	-44.8	18.1	0.00e+00	0	39	0	1191182336	58	7072
2026-01-02 20:58:01.75	328.38	4.42	-42.9	-44.7	18.2	0.00e+00	0	39	0	1192230912	58	6958
2026-01-02 20:58:02.76	328.28	4.37	-42.7	-44.5	18.3	0.00e+00	0	39	0	1194328064	58	6774
2026-01-02 20:58:03.77	328.19	4.31	-42.9	-44.7	18.2	0.00e+00	0	39	0	1196425216	58	6948
2026-01-02 20:58:04.78	328.10	4.26	-43.1	-44.9	18.0	0.00e+00	0	39	0	1198522368	58	7122
2026-01-02 20:58:05.79	328.00	4.20	-42.9	-44.7	18.0	0.00e+00	0	39	0	1200619520	58	6955
2026-01-02 20:58:06.80	327.91	4.15	-43.1	-45.0	17.8	0.00e+00	0	39	0	1201668096	58	7204
2026-01-02 20:58:07.81	327.82	4.09	-43.1	-45.0	17.8	0.00e+00	0	39	0	1203765248	58	7183
2026-01-02 20:58:08.82	327.73	4.04	-43.2	-45.2	17.7	0.00e+00	0	39	0	1205862400	58	7342
2026-01-02 20:58:09.83	327.64	3.98	-43.1	-45.0	17.8	0.00e+00	0	39	0	1207959552	58	7219
2026-01-02 20:58:10.84	327.55	3.93	-43.2	-45.1	17.6	0.00e+00	0	39	0	1210056704	58	7327
2026-01-02 20:58:11.85	327.45	3.88	-43.3	-45.2	17.4	0.00e+00	0	39	0	1211105280	58	7394
