passes_logs/2026/01/02/R4.6S_Anadyr/R4.6S_Anadyr__20260102_145836_NOAA_21_JPSS-2_rec.log

#Pass ID: 20260102_145836_NOAA 21 (JPSS-2)
#Satellite: NOAA 21 (JPSS-2)
#Configuration: NOAA-21
#almurnet v.1.7.20251203
#Start time: 2026-01-02 14:58:38

#Version: 2.2.20231116
#Station: R4.6S_Anadyr
#Location: 177.4865 lon 64.73178 lat
#TLE: 1 54234U 22150A   26001.90243762  .00000172  00000+0  10253-3 0  9993
#TLE: 2 54234  98.7485 302.9615 0001242 351.7524   8.3631 14.19530907162956

#Time	Az	El	Level	Level2	SNR	BER	BlckErr	Temp	State	Recorded	gain1	gain2
2026-01-02 14:58:38.12	21.05	0.09	-49.5	-64.4	3.5	1.51e+00	0	36	0	0	60	60191
2026-01-02 14:58:39.13	21.04	0.15	-49.5	-62.4	3.5	1.52e+00	0	38	104	0	60	46019
2026-01-02 14:58:40.14	21.04	0.21	-49.5	-62.4	3.5	1.52e+00	0	38	104	0	60	46111
2026-01-02 14:58:41.14	21.04	0.27	-49.5	-62.4	3.5	1.52e+00	0	38	104	0	60	46186
2026-01-02 14:58:42.15	21.03	0.33	-49.5	-62.4	3.5	1.52e+00	0	38	104	0	60	46151
2026-01-02 14:58:43.16	21.03	0.40	-49.5	-62.4	3.5	1.52e+00	0	38	104	0	60	46251
2026-01-02 14:58:44.17	21.03	0.46	-49.5	-62.4	3.5	1.52e+00	0	38	104	0	60	46107
2026-01-02 14:58:45.18	21.03	0.52	-49.6	-62.4	3.5	1.52e+00	0	38	104	0	60	46360
2026-01-02 14:58:46.19	21.02	0.58	-49.5	-62.4	3.5	1.52e+00	0	38	104	0	60	46334
2026-01-02 14:58:47.20	21.02	0.64	-49.5	-62.3	3.5	1.52e+00	0	38	104	0	60	45989
2026-01-02 14:58:48.21	21.02	0.70	-49.4	-62.2	3.5	1.52e+00	0	38	104	0	60	45422
2026-01-02 14:58:49.22	21.01	0.76	-49.3	-62.2	3.5	1.52e+00	0	38	104	0	60	44994
2026-01-02 14:58:50.23	21.01	0.83	-49.1	-62.0	3.5	1.52e+00	0	38	104	0	60	43991
2026-01-02 14:58:51.24	21.01	0.89	-48.9	-61.7	3.5	1.52e+00	0	38	104	0	60	42922
2026-01-02 14:58:52.25	21.00	0.95	-48.7	-61.6	3.5	1.52e+00	0	38	104	0	60	42031
2026-01-02 14:58:53.26	21.00	1.01	-48.5	-61.4	3.5	1.52e+00	0	38	104	0	60	41150
2026-01-02 14:58:54.27	21.00	1.07	-48.2	-61.0	3.5	1.52e+00	0	38	104	0	60	39479
2026-01-02 14:58:55.27	20.99	1.14	-47.7	-60.5	3.5	1.52e+00	0	38	104	0	60	37322
2026-01-02 14:58:56.29	20.99	1.20	-47.7	-60.5	3.5	1.52e+00	0	38	104	0	60	37025
2026-01-02 14:58:57.29	20.99	1.26	-47.7	-60.5	3.5	1.52e+00	0	38	104	0	60	36978
2026-01-02 14:58:58.30	20.98	1.32	-47.6	-60.4	3.5	1.52e+00	0	38	104	0	60	36781
2026-01-02 14:58:59.31	20.98	1.39	-47.6	-60.2	3.5	1.52e+00	0	38	104	0	60	35812
2026-01-02 14:59:00.32	20.98	1.45	-47.6	-60.2	3.5	1.52e+00	0	38	104	0	60	35841
2026-01-02 14:59:01.33	20.97	1.51	-47.6	-60.0	3.5	1.52e+00	0	38	104	0	60	35061
2026-01-02 14:59:02.34	20.97	1.58	-47.6	-60.0	3.5	1.52e+00	0	38	104	0	60	35264
2026-01-02 14:59:03.35	20.97	1.64	-47.6	-60.0	3.5	1.52e+00	0	38	104	0	60	35263
2026-01-02 14:59:04.36	20.96	1.70	-47.6	-60.0	3.5	1.52e+00	0	38	104	0	60	35256
2026-01-02 14:59:05.37	20.96	1.77	-47.6	-60.3	3.5	1.52e+00	0	38	104	0	60	36282
2026-01-02 14:59:06.38	20.96	1.83	-47.6	-60.3	3.5	1.52e+00	0	38	104	0	60	36248
2026-01-02 14:59:07.39	20.95	1.89	-47.6	-60.4	3.5	1.52e+00	0	38	104	0	60	36607
2026-01-02 14:59:08.40	20.95	1.96	-47.6	-60.4	3.5	1.52e+00	0	38	104	0	60	36862
2026-01-02 14:59:09.41	20.94	2.02	-47.6	-60.5	3.5	1.52e+00	0	38	104	0	60	37035
2026-01-02 14:59:10.42	20.94	2.09	-47.6	-60.5	3.5	1.52e+00	0	38	104	0	60	37129
2026-01-02 14:59:11.43	20.94	2.15	-47.6	-60.5	3.5	1.52e+00	0	38	104	0	60	37064
2026-01-02 14:59:12.44	20.93	2.22	-47.6	-60.4	3.5	1.52e+00	0	39	104	0	60	36798
2026-01-02 14:59:13.45	20.93	2.28	-47.6	-60.4	3.5	1.51e+00	0	38	104	0	60	36779
2026-01-02 14:59:14.46	20.93	2.35	-47.6	-60.4	3.5	1.51e+00	0	39	104	0	60	36637
2026-01-02 14:59:15.47	20.92	2.41	-47.6	-60.2	3.5	1.52e+00	0	39	104	0	60	35809
2026-01-02 14:59:16.48	20.92	2.48	-47.6	-59.9	3.5	1.52e+00	0	39	104	0	60	34559
2026-01-02 14:59:17.49	20.91	2.54	-47.6	-59.4	3.5	1.51e+00	0	39	104	0	60	32833
2026-01-02 14:59:18.50	20.91	2.61	-47.5	-59.1	3.5	1.51e+00	0	39	104	0	60	31606
2026-01-02 14:59:19.50	20.90	2.67	-47.5	-59.0	3.5	1.51e+00	0	39	104	0	60	31177
2026-01-02 14:59:20.51	20.90	2.74	-47.5	-59.0	3.5	1.51e+00	0	39	104	0	60	31394
2026-01-02 14:59:21.52	20.90	2.81	-47.5	-59.0	3.5	1.51e+00	0	39	104	0	60	31315
2026-01-02 14:59:22.54	20.89	2.87	-47.5	-59.1	3.5	1.51e+00	0	39	104	0	60	31805
2026-01-02 14:59:23.54	20.89	2.94	-47.5	-58.5	3.6	1.51e+00	0	39	104	0	60	29553
2026-01-02 14:59:24.55	20.88	3.01	-47.3	-57.1	4.2	1.47e+00	0	39	104	0	60	25080
2026-01-02 14:59:25.56	20.88	3.07	-47.0	-55.0	5.3	1.20e+00	122	39	104	0	60	19799
2026-01-02 14:59:26.57	20.87	3.14	-46.5	-52.1	6.8	2.02e-01	122	39	0	1048576	60	14185
2026-01-02 14:59:27.58	20.87	3.21	-45.9	-50.4	8.7	5.51e-02	123	39	0	4194304	60	11667
2026-01-02 14:59:28.59	20.87	3.27	-45.4	-49.3	10.1	8.04e-03	120	39	0	7340032	60	10271
2026-01-02 14:59:29.60	20.86	3.34	-44.8	-48.1	11.3	1.16e-03	122	39	0	10485760	60	8906
2026-01-02 14:59:30.61	20.86	3.41	-44.2	-47.1	12.6	3.75e-04	120	39	0	13631488	60	7932
2026-01-02 14:59:31.62	20.85	3.48	-44.2	-47.2	12.6	1.88e-04	122	39	0	16777216	60	8034
2026-01-02 14:59:32.63	20.85	3.55	-44.0	-46.8	12.9	5.11e-05	123	39	0	19922944	60	7695
2026-01-02 14:59:33.64	20.84	3.61	-44.2	-47.2	12.4	5.11e-05	123	39	0	23068672	60	8003
2026-01-02 14:59:34.65	20.84	3.68	-44.3	-47.3	12.3	1.96e-04	122	39	0	26214400	60	8108
2026-01-02 14:59:35.66	20.83	3.75	-44.9	-48.3	11.3	9.44e-04	123	39	0	29360128	60	9113
2026-01-02 14:59:36.67	20.83	3.82	-43.3	-45.6	14.3	2.78e-03	120	39	0	32505856	60	6684
2026-01-02 14:59:37.68	20.82	3.89	-39.8	-41.2	17.9	0.00e+00	121	39	0	35651584	52	6394
2026-01-02 14:59:38.69	20.82	3.96	-43.7	-46.2	13.1	2.36e-02	122	39	0	38797312	60	7207
2026-01-02 14:59:39.69	20.81	4.02	-47.4	-58.5	3.7	1.52e+00	0	39	104	39845888	60	29583
2026-01-02 14:59:40.70	20.81	4.09	-41.8	-44.1	14.8	0.00e+00	120	39	104	39845888	54	7906
2026-01-02 14:59:41.71	20.80	4.16	-47.4	-57.0	5.6	1.51e+00	24	39	104	39845888	60	24781
2026-01-02 14:59:42.72	20.80	4.23	-39.8	-41.2	18.6	0.00e+00	121	39	0	41943040	54	5670
2026-01-02 14:59:43.73	20.79	4.30	-39.9	-41.3	18.6	0.00e+00	123	39	0	45088768	52	6485
2026-01-02 14:59:44.74	20.79	4.37	-39.4	-40.8	19.2	0.00e+00	122	39	0	48234496	52	6080
2026-01-02 14:59:45.75	20.78	4.44	-39.7	-41.1	18.9	0.00e+00	123	39	0	51380224	52	6284
2026-01-02 14:59:46.76	20.78	4.51	-39.6	-41.0	19.1	0.00e+00	123	39	0	54525952	52	6248
2026-01-02 14:59:47.77	20.77	4.58	-39.4	-40.7	19.1	0.00e+00	122	39	0	57671680	52	6014
2026-01-02 14:59:48.77	20.77	4.65	-39.1	-40.3	19.6	0.00e+00	120	39	0	60817408	52	5777
2026-01-02 14:59:49.78	20.76	4.73	-39.3	-40.6	19.4	0.00e+00	123	39	0	63963136	52	5942
2026-01-02 14:59:50.79	20.76	4.80	-38.5	-39.8	20.1	0.00e+00	120	39	0	67108864	50	6066
2026-01-02 14:59:51.80	20.75	4.87	-39.1	-40.4	19.8	0.00e+00	122	39	0	70254592	50	6546
2026-01-02 14:59:52.81	20.74	4.94	-38.9	-40.2	19.7	0.00e+00	122	39	0	73400320	50	6375
2026-01-02 14:59:53.82	20.74	5.01	-39.0	-40.3	19.8	0.00e+00	122	39	0	76546048	50	6428
2026-01-02 14:59:54.83	20.73	5.08	-38.8	-40.0	20.0	0.00e+00	120	39	0	79691776	50	6252
2026-01-02 14:59:55.84	20.73	5.15	-39.0	-40.3	19.9	0.00e+00	122	39	0	82837504	50	6444
2026-01-02 14:59:56.85	20.72	5.23	-38.8	-40.0	20.1	0.00e+00	120	39	0	85983232	50	6219
2026-01-02 14:59:57.86	20.72	5.30	-38.8	-40.0	20.1	0.00e+00	123	39	0	89128960	50	6219
2026-01-02 14:59:58.87	20.71	5.37	-38.6	-39.8	20.3	0.00e+00	121	39	0	92274688	50	6074
2026-01-02 14:59:59.88	20.70	5.45	-38.8	-40.0	20.1	0.00e+00	123	39	0	95420416	50	6260
2026-01-02 15:00:00.89	20.70	5.52	-38.7	-39.9	20.2	0.00e+00	123	39	0	98566144	50	6178
2026-01-02 15:00:01.90	20.69	5.59	-38.7	-39.9	20.2	0.00e+00	123	39	0	101711872	50	6198
2026-01-02 15:00:02.91	20.69	5.66	-38.7	-39.9	20.4	0.00e+00	122	39	0	104857600	50	6135
2026-01-02 15:00:03.92	20.68	5.74	-38.6	-39.8	20.3	0.00e+00	123	39	0	108003328	50	6133
2026-01-02 15:00:04.93	20.67	5.81	-38.6	-39.7	20.5	0.00e+00	123	39	0	111149056	50	6063
2026-01-02 15:00:05.94	20.67	5.89	-38.7	-39.9	20.3	0.00e+00	123	39	0	114294784	50	6193
2026-01-02 15:00:06.95	20.66	5.96	-38.5	-39.7	20.5	0.00e+00	120	39	0	117440512	50	6027
2026-01-02 15:00:07.96	20.65	6.04	-38.5	-39.7	20.5	0.00e+00	123	39	0	120586240	50	5996
2026-01-02 15:00:08.97	20.65	6.11	-38.5	-39.7	20.6	0.00e+00	122	39	0	123731968	50	6014
2026-01-02 15:00:09.98	20.64	6.19	-38.4	-39.5	20.6	0.00e+00	123	39	0	126877696	50	5912
2026-01-02 15:00:10.99	20.63	6.26	-38.2	-39.4	20.8	0.00e+00	120	39	0	130023424	50	5795
2026-01-02 15:00:12.00	20.63	6.34	-38.3	-39.5	20.8	0.00e+00	122	39	0	133169152	50	5863
2026-01-02 15:00:13.01	20.62	6.41	-38.3	-39.5	20.7	0.00e+00	122	39	0	136314880	50	5869
2026-01-02 15:00:14.02	20.61	6.49	-38.3	-39.4	20.8	0.00e+00	123	39	0	139460608	50	5836
2026-01-02 15:00:15.03	20.61	6.56	-38.1	-39.2	21.0	0.00e+00	122	39	0	142606336	50	5687
2026-01-02 15:00:16.04	20.60	6.64	-38.1	-39.3	20.9	0.00e+00	123	39	0	145752064	50	5749
2026-01-02 15:00:17.05	20.59	6.72	-38.3	-39.4	20.8	0.00e+00	122	39	0	148897792	50	5848
2026-01-02 15:00:18.06	20.59	6.79	-38.0	-39.1	21.2	0.00e+00	120	39	0	152043520	50	5602
2026-01-02 15:00:19.07	20.58	6.87	-38.0	-39.1	21.0	0.00e+00	123	39	0	155189248	50	5658
2026-01-02 15:00:20.08	20.57	6.95	-37.9	-39.0	21.2	0.00e+00	122	39	0	158334976	50	5550
2026-01-02 15:00:21.09	20.57	7.02	-38.1	-39.3	21.0	0.00e+00	123	39	0	161480704	50	5731
2026-01-02 15:00:22.10	20.56	7.10	-38.1	-39.2	21.1	0.00e+00	122	39	0	164626432	50	5667
2026-01-02 15:00:23.11	20.55	7.18	-37.9	-39.0	21.2	0.00e+00	123	39	0	167772160	50	5561
2026-01-02 15:00:24.12	20.54	7.26	-38.2	-39.4	20.9	0.00e+00	122	39	0	170917888	50	5798
2026-01-02 15:00:25.13	20.54	7.34	-38.0	-39.1	21.2	0.00e+00	120	39	0	174063616	50	5615
2026-01-02 15:00:26.14	20.53	7.41	-37.9	-39.0	21.3	0.00e+00	123	39	0	177209344	50	5557
2026-01-02 15:00:27.15	20.52	7.49	-37.8	-38.9	21.3	0.00e+00	122	39	0	180355072	48	6163
2026-01-02 15:00:28.16	20.51	7.57	-37.7	-38.8	21.4	0.00e+00	122	39	0	183500800	48	6104
2026-01-02 15:00:29.17	20.51	7.65	-37.8	-38.9	21.4	0.00e+00	123	39	0	186646528	48	6145
2026-01-02 15:00:30.18	20.50	7.73	-37.7	-38.8	21.5	0.00e+00	123	39	0	189792256	48	6123
2026-01-02 15:00:31.19	20.49	7.81	-37.7	-38.8	21.5	0.00e+00	123	39	0	192937984	48	6069
2026-01-02 15:00:32.20	20.48	7.89	-37.7	-38.8	21.5	0.00e+00	123	39	0	196083712	48	6087
2026-01-02 15:00:33.21	20.48	7.97	-37.8	-38.9	21.5	0.00e+00	120	39	0	199229440	48	6151
2026-01-02 15:00:34.22	20.47	8.05	-37.7	-38.8	21.4	0.00e+00	121	39	0	202375168	48	6094
2026-01-02 15:00:35.23	20.46	8.13	-37.7	-38.7	21.6	0.00e+00	118	39	0	205520896	48	6058
2026-01-02 15:00:36.24	20.45	8.21	-37.5	-38.6	21.7	0.00e+00	120	39	0	208666624	48	5946
2026-01-02 15:00:37.25	20.44	8.30	-37.4	-38.5	21.8	0.00e+00	122	39	0	211812352	48	5881
2026-01-02 15:00:38.26	20.44	8.38	-37.4	-38.5	21.8	0.00e+00	123	39	0	214958080	48	5900
2026-01-02 15:00:39.27	20.43	8.46	-37.5	-38.5	21.8	0.00e+00	123	39	0	218103808	48	5902
2026-01-02 15:00:40.28	20.42	8.54	-37.4	-38.4	21.8	0.00e+00	123	39	0	221249536	48	5849
2026-01-02 15:00:41.29	20.41	8.62	-37.4	-38.4	21.8	0.00e+00	123	39	0	224395264	48	5854
2026-01-02 15:00:42.29	20.40	8.71	-37.3	-38.3	21.9	0.00e+00	123	39	0	227540992	48	5773
2026-01-02 15:00:43.30	20.39	8.79	-37.3	-38.4	21.9	0.00e+00	120	39	0	230686720	48	5811
2026-01-02 15:00:44.31	20.38	8.87	-37.3	-38.3	22.0	0.00e+00	122	39	0	233832448	48	5759
2026-01-02 15:00:45.32	20.38	8.96	-37.3	-38.4	21.9	0.00e+00	120	39	0	236978176	48	5823
2026-01-02 15:00:46.33	20.37	9.04	-37.2	-38.2	22.1	0.00e+00	122	39	0	240123904	48	5685
2026-01-02 15:00:47.34	20.36	9.12	-37.3	-38.4	22.0	0.00e+00	120	39	0	243269632	48	5797
2026-01-02 15:00:48.35	20.35	9.21	-37.0	-38.1	22.2	0.00e+00	122	39	0	246415360	48	5595
2026-01-02 15:00:49.36	20.34	9.29	-37.1	-38.2	22.1	0.00e+00	120	39	0	249561088	48	5676
2026-01-02 15:00:50.37	20.33	9.38	-37.2	-38.3	22.0	0.00e+00	123	39	0	252706816	48	5745
2026-01-02 15:00:51.39	20.32	9.46	-36.9	-37.9	22.3	0.00e+00	122	39	0	255852544	48	5520
2026-01-02 15:00:52.39	20.31	9.55	-37.0	-38.0	22.2	0.00e+00	123	39	0	258998272	48	5588
2026-01-02 15:00:53.40	20.30	9.63	-36.9	-38.0	22.3	0.00e+00	123	39	0	262144000	48	5531
2026-01-02 15:00:54.41	20.29	9.72	-37.1	-38.1	22.1	0.00e+00	123	39	0	265289728	48	5629
2026-01-02 15:00:55.42	20.28	9.81	-37.0	-38.0	22.4	0.00e+00	122	39	0	268435456	48	5560
2026-01-02 15:00:56.44	20.27	9.89	-37.0	-38.0	22.3	0.00e+00	122	39	0	271581184	48	5539
2026-01-02 15:00:57.44	20.26	9.98	-36.8	-37.8	22.5	0.00e+00	123	39	0	274726912	48	5426
2026-01-02 15:00:58.45	20.25	10.07	-36.9	-37.9	22.4	0.00e+00	122	39	0	277872640	48	5519
2026-01-02 15:00:59.46	20.24	10.15	-36.9	-38.0	22.3	0.00e+00	122	39	0	281018368	48	5531
2026-01-02 15:01:00.47	20.23	10.24	-36.7	-37.6	22.7	0.00e+00	123	39	0	284164096	46	5994
2026-01-02 15:01:01.49	20.22	10.33	-36.7	-37.8	22.5	0.00e+00	123	39	0	288358400	46	6073
2026-01-02 15:01:02.49	20.21	10.42	-36.7	-37.7	22.7	0.00e+00	123	39	0	291504128	46	6005
2026-01-02 15:01:03.51	20.20	10.51	-36.6	-37.6	22.7	0.00e+00	120	39	0	293601280	46	5982
2026-01-02 15:01:04.52	20.19	10.60	-36.7	-37.7	22.7	0.00e+00	123	39	0	296747008	46	6031
2026-01-02 15:01:05.53	20.18	10.69	-36.5	-37.5	22.7	0.00e+00	122	39	0	299892736	46	5921
2026-01-02 15:01:06.54	20.17	10.78	-36.6	-37.6	22.7	0.00e+00	123	39	0	304087040	46	5948
2026-01-02 15:01:07.54	20.16	10.87	-36.5	-37.5	22.7	0.00e+00	123	39	0	307232768	46	5917
2026-01-02 15:01:08.55	20.15	10.96	-36.5	-37.5	22.7	0.00e+00	123	39	0	310378496	46	5913
2026-01-02 15:01:09.56	20.14	11.05	-36.4	-37.4	22.9	0.00e+00	122	39	0	313524224	46	5833
2026-01-02 15:01:10.57	20.13	11.14	-36.4	-37.4	22.8	0.00e+00	123	39	0	315621376	46	5829
2026-01-02 15:01:11.58	20.12	11.23	-36.5	-37.5	22.8	0.00e+00	122	39	0	319815680	46	5885
2026-01-02 15:01:12.59	20.11	11.32	-36.6	-37.6	22.8	0.00e+00	123	39	0	322961408	46	5931
2026-01-02 15:01:13.60	20.10	11.42	-36.7	-37.7	22.6	0.00e+00	123	39	0	326107136	46	6014
2026-01-02 15:01:14.61	20.09	11.51	-36.4	-37.4	22.9	0.00e+00	122	39	0	329252864	46	5829
2026-01-02 15:01:15.62	20.07	11.60	-36.4	-37.4	23.0	0.00e+00	122	39	0	332398592	46	5793
2026-01-02 15:01:16.63	20.06	11.69	-36.3	-37.3	23.0	0.00e+00	123	39	0	335544320	46	5771
2026-01-02 15:01:17.64	20.05	11.79	-36.6	-37.6	22.8	0.00e+00	123	39	0	338690048	46	5930
2026-01-02 15:01:18.65	20.04	11.88	-36.3	-37.2	23.1	0.00e+00	123	39	0	341835776	46	5708
2026-01-02 15:01:19.66	20.03	11.98	-36.4	-37.4	23.0	0.00e+00	123	39	0	344981504	46	5799
2026-01-02 15:01:20.67	20.02	12.07	-36.5	-37.4	23.0	0.00e+00	120	39	0	348127232	46	5857
2026-01-02 15:01:21.68	20.00	12.17	-36.3	-37.3	23.1	0.00e+00	123	39	0	351272960	46	5733
2026-01-02 15:01:22.69	19.99	12.26	-36.3	-37.3	23.1	0.00e+00	123	39	0	354418688	46	5748
2026-01-02 15:01:23.70	19.98	12.36	-36.1	-37.1	23.2	0.00e+00	122	39	0	357564416	46	5632
2026-01-02 15:01:24.71	19.97	12.45	-36.3	-37.3	23.0	0.00e+00	122	39	0	360710144	46	5765
2026-01-02 15:01:25.72	19.96	12.55	-36.1	-37.1	23.2	0.00e+00	123	39	0	363855872	46	5628
2026-01-02 15:01:26.73	19.94	12.65	-36.2	-37.2	23.2	0.00e+00	122	39	0	367001600	46	5684
2026-01-02 15:01:27.74	19.93	12.74	-36.1	-37.1	23.2	0.00e+00	122	39	0	370147328	46	5625
2026-01-02 15:01:28.75	19.92	12.84	-36.3	-37.2	23.1	0.00e+00	122	39	0	373293056	46	5719
2026-01-02 15:01:29.76	19.90	12.94	-36.1	-37.1	23.2	0.00e+00	123	39	0	376438784	46	5626
2026-01-02 15:01:30.77	19.89	13.04	-35.9	-36.9	23.4	0.00e+00	122	39	0	379584512	46	5484
2026-01-02 15:01:31.78	19.88	13.14	-36.0	-37.0	23.4	0.00e+00	123	39	0	382730240	46	5531
2026-01-02 15:01:32.79	19.87	13.24	-36.0	-37.0	23.4	0.00e+00	123	39	0	385875968	46	5532
2026-01-02 15:01:33.80	19.85	13.34	-36.0	-36.9	23.3	0.00e+00	122	39	0	389021696	46	5522
2026-01-02 15:01:34.81	19.84	13.44	-35.9	-36.9	23.4	0.00e+00	122	39	0	392167424	46	5475
2026-01-02 15:01:35.82	19.83	13.54	-36.0	-36.9	23.4	0.00e+00	122	39	0	395313152	46	5524
2026-01-02 15:01:36.83	19.81	13.64	-36.0	-37.0	23.3	0.00e+00	121	39	0	398458880	46	5548
2026-01-02 15:01:37.84	19.80	13.74	-36.1	-37.1	23.2	0.00e+00	122	39	0	401604608	46	5628
2026-01-02 15:01:38.85	19.78	13.84	-35.9	-36.9	23.4	0.00e+00	123	39	0	404750336	46	5473
2026-01-02 15:01:39.86	19.77	13.94	-36.0	-37.0	23.4	0.00e+00	123	39	0	407896064	46	5535
2026-01-02 15:01:40.87	19.76	14.05	-36.0	-36.9	23.4	0.00e+00	123	39	0	411041792	46	5522
2026-01-02 15:01:41.88	19.74	14.15	-35.9	-36.9	23.5	0.00e+00	123	39	0	414187520	46	5490
2026-01-02 15:01:42.89	19.73	14.25	-35.9	-36.9	23.5	0.00e+00	123	39	0	417333248	46	5473
2026-01-02 15:01:43.90	19.71	14.36	-36.0	-36.9	23.4	0.00e+00	123	39	0	420478976	46	5525
2026-01-02 15:01:44.91	19.70	14.46	-36.2	-37.1	23.3	0.00e+00	123	39	0	423624704	46	5634
2026-01-02 15:01:45.92	19.68	14.57	-36.2	-37.2	23.3	0.00e+00	123	39	0	426770432	46	5661
2026-01-02 15:01:46.93	19.67	14.67	-35.8	-36.8	23.5	0.00e+00	122	39	0	429916160	46	5415
2026-01-02 15:01:47.94	19.65	14.78	-35.9	-36.9	23.5	0.00e+00	123	39	0	433061888	46	5473
2026-01-02 15:01:48.95	19.64	14.88	-36.0	-36.9	23.4	0.00e+00	123	39	0	436207616	46	5529
2026-01-02 15:01:49.96	19.62	14.99	-35.9	-36.8	23.5	0.00e+00	122	39	0	439353344	46	5450
2026-01-02 15:01:50.97	19.61	15.10	-36.0	-36.9	23.5	0.00e+00	123	39	0	442499072	46	5511
2026-01-02 15:01:51.98	19.59	15.20	-36.0	-37.0	23.4	0.00e+00	123	39	0	445644800	46	5549
2026-01-02 15:01:52.99	19.58	15.31	-36.0	-36.9	23.5	0.00e+00	122	39	0	448790528	46	5510
2026-01-02 15:01:54.00	19.56	15.42	-35.9	-36.9	23.5	0.00e+00	123	39	0	451936256	46	5471
2026-01-02 15:01:55.01	19.54	15.53	-35.9	-36.9	23.6	0.00e+00	122	39	0	455081984	46	5468
2026-01-02 15:01:56.02	19.53	15.64	-35.9	-36.9	23.5	0.00e+00	120	39	0	458227712	46	5486
2026-01-02 15:01:57.03	19.51	15.75	-35.9	-36.8	23.6	0.00e+00	123	39	0	461373440	46	5435
2026-01-02 15:01:58.04	19.50	15.86	-35.9	-36.8	23.6	0.00e+00	123	39	0	464519168	46	5462
2026-01-02 15:01:59.05	19.48	15.97	-36.0	-37.0	23.5	0.00e+00	122	39	0	467664896	46	5540
2026-01-02 15:02:00.06	19.46	16.08	-36.1	-37.1	23.5	0.00e+00	122	39	0	470810624	46	5599
2026-01-02 15:02:01.07	19.44	16.19	-36.3	-37.2	23.2	0.00e+00	123	39	0	473956352	46	5719
2026-01-02 15:02:02.08	19.43	16.31	-36.0	-37.0	23.4	0.00e+00	123	39	0	477102080	46	5560
2026-01-02 15:02:03.09	19.41	16.42	-36.1	-37.1	23.3	0.00e+00	122	39	0	480247808	46	5607
2026-01-02 15:02:04.10	19.39	16.53	-36.0	-36.9	23.5	0.00e+00	123	39	0	483393536	46	5516
2026-01-02 15:02:05.10	19.38	16.65	-35.9	-36.9	23.5	0.00e+00	122	39	0	486539264	46	5486
2026-01-02 15:02:06.11	19.36	16.76	-36.0	-36.9	23.5	0.00e+00	123	39	0	489684992	46	5526
2026-01-02 15:02:07.12	19.34	16.88	-36.0	-36.9	23.5	0.00e+00	121	39	0	492830720	46	5530
2026-01-02 15:02:08.13	19.32	16.99	-36.0	-36.9	23.5	0.00e+00	122	39	0	495976448	46	5522
2026-01-02 15:02:09.15	19.30	17.11	-36.0	-37.0	23.5	0.00e+00	122	39	0	499122176	46	5538
2026-01-02 15:02:10.15	19.28	17.22	-36.0	-37.0	23.5	0.00e+00	122	39	0	502267904	46	5557
2026-01-02 15:02:11.17	19.27	17.34	-36.0	-36.9	23.5	0.00e+00	122	39	0	505413632	46	5511
2026-01-02 15:02:12.17	19.25	17.46	-36.1	-37.1	23.3	0.00e+00	122	39	0	508559360	46	5606
2026-01-02 15:02:13.18	19.23	17.58	-36.0	-36.9	23.5	0.00e+00	123	39	0	511705088	46	5523
2026-01-02 15:02:14.19	19.21	17.70	-36.2	-37.2	23.4	0.00e+00	123	39	0	514850816	46	5690
2026-01-02 15:02:15.20	19.19	17.82	-36.1	-37.0	23.4	0.00e+00	123	39	0	517996544	46	5577
2026-01-02 15:02:16.21	19.17	17.94	-36.0	-37.0	23.4	0.00e+00	123	39	0	521142272	46	5544
2026-01-02 15:02:17.22	19.15	18.06	-36.0	-37.0	23.5	0.00e+00	123	39	0	524288000	46	5559
2026-01-02 15:02:18.23	19.13	18.18	-36.1	-37.0	23.4	0.00e+00	123	39	0	527433728	46	5593
2026-01-02 15:02:19.24	19.11	18.30	-36.1	-37.1	23.4	0.00e+00	122	39	0	530579456	46	5627
2026-01-02 15:02:20.25	19.09	18.42	-36.2	-37.1	23.3	0.00e+00	122	39	0	533725184	46	5654
2026-01-02 15:02:21.26	19.07	18.55	-36.0	-37.0	23.4	0.00e+00	123	39	0	536870912	46	5558
2026-01-02 15:02:22.27	19.05	18.67	-36.1	-37.1	23.4	0.00e+00	121	40	0	540016640	46	5618
2026-01-02 15:02:23.28	19.03	18.80	-36.1	-37.1	23.4	0.00e+00	122	39	0	543162368	46	5643
2026-01-02 15:02:24.29	19.01	18.92	-36.0	-37.0	23.5	0.00e+00	122	39	0	546308096	46	5545
2026-01-02 15:02:25.30	18.99	19.05	-36.1	-37.1	23.4	0.00e+00	123	40	0	549453824	46	5625
2026-01-02 15:02:26.31	18.96	19.17	-36.2	-37.2	23.3	0.00e+00	123	39	0	552599552	46	5677
2026-01-02 15:02:27.32	18.94	19.30	-36.3	-37.2	23.3	0.00e+00	123	39	0	555745280	46	5716
2026-01-02 15:02:28.33	18.92	19.43	-36.3	-37.2	23.2	0.00e+00	122	39	0	558891008	46	5707
2026-01-02 15:02:29.34	18.90	19.56	-36.0	-37.0	23.5	0.00e+00	123	40	0	562036736	46	5562
2026-01-02 15:02:30.35	18.88	19.68	-35.9	-36.8	23.6	0.00e+00	120	39	0	565182464	46	5462
2026-01-02 15:02:31.36	18.85	19.81	-35.9	-36.8	23.6	0.00e+00	122	39	0	568328192	46	5457
2026-01-02 15:02:32.37	18.83	19.94	-35.9	-36.9	23.5	0.00e+00	123	39	0	571473920	46	5489
2026-01-02 15:02:33.38	18.81	20.07	-36.0	-36.9	23.5	0.00e+00	123	39	0	574619648	46	5516
2026-01-02 15:02:34.39	18.78	20.21	-35.7	-36.6	23.7	0.00e+00	121	40	0	577765376	44	5989
2026-01-02 15:02:35.40	18.76	20.34	-35.8	-36.7	23.7	0.00e+00	123	39	0	580911104	44	6026
2026-01-02 15:02:36.41	18.74	20.47	-35.8	-36.7	23.8	0.00e+00	120	39	0	584056832	44	6028
2026-01-02 15:02:37.42	18.71	20.61	-35.8	-36.7	23.7	0.00e+00	122	40	0	587202560	44	6027
2026-01-02 15:02:38.43	18.69	20.74	-35.6	-36.5	23.9	0.00e+00	120	40	0	590348288	44	5889
2026-01-02 15:02:39.44	18.66	20.88	-35.6	-36.5	23.9	0.00e+00	123	39	0	593494016	44	5884
2026-01-02 15:02:40.45	18.64	21.01	-35.6	-36.5	24.0	0.00e+00	120	39	0	596639744	44	5907
2026-01-02 15:02:41.46	18.61	21.15	-35.4	-36.3	24.1	0.00e+00	123	39	0	599785472	44	5763
2026-01-02 15:02:42.47	18.59	21.29	-35.3	-36.2	24.1	0.00e+00	123	39	0	602931200	44	5718
2026-01-02 15:02:43.48	18.56	21.42	-35.5	-36.4	23.9	0.00e+00	124	39	0	606076928	44	5847
2026-01-02 15:02:44.49	18.54	21.56	-35.3	-36.2	24.2	0.00e+00	122	39	0	609222656	44	5680
2026-01-02 15:02:45.50	18.51	21.70	-35.1	-36.0	24.3	0.00e+00	123	39	0	612368384	44	5543
2026-01-02 15:02:46.51	18.48	21.84	-35.1	-36.0	24.3	0.00e+00	122	40	0	615514112	44	5559
2026-01-02 15:02:47.52	18.46	21.98	-35.2	-36.1	24.3	0.00e+00	122	39	0	618659840	44	5607
2026-01-02 15:02:48.53	18.43	22.13	-35.1	-36.0	24.3	0.00e+00	123	40	0	621805568	44	5585
2026-01-02 15:02:49.54	18.40	22.27	-35.0	-35.9	24.4	0.00e+00	122	39	0	625999872	44	5503
2026-01-02 15:02:50.55	18.38	22.41	-34.8	-35.7	24.5	0.00e+00	123	39	0	629145600	44	5347
2026-01-02 15:02:51.56	18.35	22.56	-34.8	-35.7	24.6	0.00e+00	123	39	0	632291328	42	6003
2026-01-02 15:02:52.57	18.32	22.70	-34.8	-35.6	24.6	0.00e+00	123	39	0	634388480	42	5991
2026-01-02 15:02:53.58	18.29	22.85	-34.9	-35.8	24.4	0.00e+00	122	39	0	638582784	42	6103
2026-01-02 15:02:54.59	18.26	22.99	-34.7	-35.6	24.7	0.00e+00	122	39	0	641728512	42	5933
2026-01-02 15:02:55.60	18.23	23.14	-34.8	-35.7	24.6	0.00e+00	123	39	0	644874240	42	6030
2026-01-02 15:02:56.61	18.20	23.29	-34.8	-35.7	24.5	0.00e+00	123	40	0	648019968	42	6010
2026-01-02 15:02:57.62	18.18	23.44	-34.5	-35.3	24.8	0.00e+00	121	40	0	651165696	42	5789
2026-01-02 15:02:58.63	18.15	23.59	-34.4	-35.3	24.8	0.00e+00	123	39	0	654311424	42	5785
2026-01-02 15:02:59.64	18.11	23.74	-34.5	-35.4	24.7	0.00e+00	123	40	0	657457152	42	5824
2026-01-02 15:03:00.65	18.08	23.89	-34.3	-35.2	24.8	0.00e+00	123	40	0	660602880	42	5705
2026-01-02 15:03:01.66	18.05	24.04	-34.4	-35.3	24.7	0.00e+00	122	40	0	663748608	42	5776
2026-01-02 15:03:02.67	18.02	24.20	-34.4	-35.3	24.8	0.00e+00	122	40	0	666894336	42	5753
2026-01-02 15:03:03.68	17.99	24.35	-34.5	-35.4	24.6	0.00e+00	122	40	0	670040064	42	5846
2026-01-02 15:03:04.69	17.96	24.51	-34.4	-35.3	24.7	0.00e+00	122	40	0	673185792	42	5773
2026-01-02 15:03:05.70	17.93	24.66	-34.5	-35.4	24.6	0.00e+00	120	39	0	676331520	42	5797
2026-01-02 15:03:06.71	17.89	24.82	-34.5	-35.4	24.7	0.00e+00	122	40	0	679477248	42	5841
2026-01-02 15:03:07.72	17.86	24.98	-34.6	-35.5	24.5	0.00e+00	122	40	0	682622976	42	5922
2026-01-02 15:03:08.73	17.83	25.14	-34.7	-35.6	24.5	0.00e+00	122	40	0	685768704	42	5981
2026-01-02 15:03:09.74	17.79	25.30	-34.8	-35.7	24.4	0.00e+00	123	40	0	688914432	42	6041
2026-01-02 15:03:10.75	17.76	25.46	-35.0	-35.9	24.3	0.00e+00	123	39	0	692060160	42	6157
2026-01-02 15:03:11.76	17.72	25.62	-34.9	-35.8	24.3	0.00e+00	123	40	0	695205888	42	6084
2026-01-02 15:03:12.77	17.69	25.79	-35.0	-35.9	24.3	0.00e+00	123	40	0	698351616	42	6192
2026-01-02 15:03:13.78	17.65	25.95	-35.1	-36.0	24.2	0.00e+00	120	40	0	701497344	42	6237
2026-01-02 15:03:14.79	17.62	26.12	-35.1	-36.0	24.1	0.00e+00	123	39	0	704643072	42	6277
2026-01-02 15:03:15.80	17.58	26.28	-35.4	-36.3	23.9	0.00e+00	120	40	0	707788800	42	6455
2026-01-02 15:03:16.81	17.54	26.45	-35.4	-36.3	24.0	0.00e+00	123	40	0	710934528	42	6494
2026-01-02 15:03:17.82	17.51	26.62	-35.4	-36.4	23.9	0.00e+00	121	40	0	714080256	42	6501
2026-01-02 15:03:18.83	17.47	26.79	-35.6	-36.6	23.8	0.00e+00	123	40	0	717225984	42	6661
2026-01-02 15:03:19.84	17.43	26.96	-35.8	-36.7	23.8	0.00e+00	123	40	0	720371712	42	6804
2026-01-02 15:03:20.85	17.39	27.13	-35.7	-36.7	23.7	0.00e+00	122	40	0	723517440	44	6015
2026-01-02 15:03:21.86	17.35	27.30	-36.0	-36.9	23.6	0.00e+00	123	40	0	726663168	44	6204
2026-01-02 15:03:22.87	17.31	27.47	-35.9	-36.8	23.7	0.00e+00	123	40	0	729808896	44	6123
2026-01-02 15:03:23.88	17.27	27.65	-36.0	-37.0	23.6	0.00e+00	123	40	0	732954624	44	6206
2026-01-02 15:03:24.89	17.23	27.82	-36.1	-37.0	23.6	0.00e+00	123	40	0	736100352	44	6253
2026-01-02 15:03:25.90	17.19	28.00	-36.3	-37.3	23.4	0.00e+00	122	40	0	739246080	44	6444
2026-01-02 15:03:26.91	17.15	28.18	-36.2	-37.1	23.5	0.00e+00	123	40	0	742391808	44	6344
2026-01-02 15:03:27.92	17.11	28.36	-36.2	-37.1	23.6	0.00e+00	120	40	0	745537536	44	6347
2026-01-02 15:03:28.93	17.07	28.54	-36.2	-37.2	23.5	0.00e+00	123	40	0	748683264	44	6380
2026-01-02 15:03:29.94	17.03	28.72	-36.2	-37.1	23.6	0.00e+00	123	40	0	751828992	44	6333
2026-01-02 15:03:30.95	16.98	28.90	-36.0	-36.9	23.7	0.00e+00	123	40	0	754974720	44	6203
2026-01-02 15:03:31.96	16.94	29.08	-35.9	-36.8	23.8	0.00e+00	123	40	0	758120448	44	6123
2026-01-02 15:03:32.97	16.89	29.27	-35.9	-36.8	23.7	0.00e+00	120	40	0	761266176	44	6108
2026-01-02 15:03:33.97	16.85	29.45	-35.7	-36.6	23.9	0.00e+00	122	40	0	764411904	44	5954
2026-01-02 15:03:34.99	16.80	29.64	-35.7	-36.7	23.8	0.00e+00	123	40	0	767557632	44	6002
2026-01-02 15:03:36.00	16.76	29.83	-35.5	-36.5	24.0	0.00e+00	122	40	0	770703360	44	5859
2026-01-02 15:03:37.01	16.71	30.02	-35.4	-36.3	24.1	0.00e+00	123	40	0	773849088	44	5747
2026-01-02 15:03:38.02	16.66	30.21	-35.4	-36.3	24.0	0.00e+00	120	40	0	776994816	44	5773
2026-01-02 15:03:39.03	16.61	30.40	-35.4	-36.3	24.0	0.00e+00	122	40	0	780140544	44	5728
2026-01-02 15:03:40.04	16.57	30.60	-35.2	-36.1	24.1	0.00e+00	123	40	0	783286272	44	5607
2026-01-02 15:03:41.05	16.52	30.79	-35.2	-36.1	24.0	0.00e+00	122	40	0	786432000	44	5608
2026-01-02 15:03:42.06	16.47	30.99	-35.3	-36.2	24.0	0.00e+00	123	40	0	789577728	44	5698
2026-01-02 15:03:43.06	16.42	31.18	-35.3	-36.2	23.9	0.00e+00	123	40	0	792723456	44	5707
2026-01-02 15:03:44.07	16.36	31.38	-35.2	-36.1	24.0	0.00e+00	123	40	0	795869184	44	5624
2026-01-02 15:03:45.08	16.31	31.58	-35.2	-36.1	23.9	0.00e+00	122	40	0	799014912	44	5609
2026-01-02 15:03:46.09	16.26	31.78	-35.2	-36.1	23.9	0.00e+00	123	40	0	802160640	44	5640
2026-01-02 15:03:47.10	16.21	31.98	-35.1	-36.0	23.9	0.00e+00	122	40	0	805306368	44	5576
2026-01-02 15:03:48.11	16.15	32.19	-35.2	-36.1	23.9	0.00e+00	122	40	0	808452096	44	5641
2026-01-02 15:03:49.12	16.10	32.39	-35.3	-36.2	23.9	0.00e+00	120	40	0	811597824	44	5705
2026-01-02 15:03:50.13	16.04	32.60	-35.6	-36.5	23.7	0.00e+00	122	40	0	814743552	44	5912
2026-01-02 15:03:51.14	15.99	32.81	-35.4	-36.3	23.9	0.00e+00	123	40	0	817889280	44	5761
2026-01-02 15:03:52.15	15.93	33.02	-35.3	-36.3	24.1	0.00e+00	123	40	0	821035008	44	5728
2026-01-02 15:03:53.16	15.87	33.23	-35.4	-36.3	24.1	0.00e+00	123	40	0	824180736	44	5771
2026-01-02 15:03:54.17	15.81	33.44	-35.5	-36.5	24.0	0.00e+00	123	40	0	827326464	44	5859
2026-01-02 15:03:55.18	15.75	33.66	-35.6	-36.6	24.0	0.00e+00	122	40	0	830472192	44	5929
2026-01-02 15:03:56.19	15.69	33.87	-35.6	-36.5	24.0	0.00e+00	123	40	0	833617920	44	5885
2026-01-02 15:03:57.20	15.63	34.09	-35.8	-36.7	23.9	0.00e+00	123	39	0	836763648	44	6043
2026-01-02 15:03:58.21	15.57	34.31	-35.9	-36.8	23.9	0.00e+00	123	39	0	839909376	44	6111
2026-01-02 15:03:59.22	15.51	34.53	-36.0	-36.9	23.8	0.00e+00	123	40	0	843055104	44	6200
2026-01-02 15:04:00.23	15.44	34.75	-36.1	-37.0	23.7	0.00e+00	122	39	0	846200832	44	6275
2026-01-02 15:04:01.24	15.38	34.97	-36.4	-37.3	23.5	0.00e+00	123	39	0	849346560	44	6487
2026-01-02 15:04:02.25	15.31	35.19	-36.5	-37.5	23.3	0.00e+00	122	39	0	852492288	44	6599
2026-01-02 15:04:03.26	15.24	35.42	-36.7	-37.7	23.2	0.00e+00	122	39	0	855638016	44	6731
2026-01-02 15:04:04.27	15.18	35.65	-36.9	-37.8	23.0	0.00e+00	122	39	0	858783744	46	6094
2026-01-02 15:04:05.28	15.11	35.88	-36.9	-37.9	23.0	0.00e+00	121	40	0	861929472	46	6160
2026-01-02 15:04:06.29	15.04	36.11	-37.0	-37.9	23.0	0.00e+00	123	40	0	865075200	46	6183
2026-01-02 15:04:07.30	14.97	36.34	-37.0	-37.9	23.0	0.00e+00	123	39	0	868220928	46	6191
2026-01-02 15:04:08.31	14.90	36.57	-37.0	-37.9	23.0	0.00e+00	121	39	0	871366656	46	6180
2026-01-02 15:04:09.32	14.82	36.81	-37.1	-38.1	22.9	0.00e+00	122	39	0	874512384	46	6294
2026-01-02 15:04:10.33	14.75	37.05	-37.3	-38.2	22.8	0.00e+00	123	39	0	877658112	46	6409
2026-01-02 15:04:11.35	14.67	37.29	-37.2	-38.2	22.8	0.00e+00	122	39	0	880803840	46	6396
2026-01-02 15:04:12.36	14.60	37.53	-37.3	-38.3	22.8	0.00e+00	122	39	0	883949568	46	6447
2026-01-02 15:04:13.36	14.52	37.77	-37.4	-38.4	22.7	0.00e+00	122	39	0	887095296	46	6509
2026-01-02 15:04:14.37	14.44	38.01	-37.5	-38.5	22.6	0.00e+00	123	39	0	890241024	46	6586
2026-01-02 15:04:15.38	14.36	38.26	-37.2	-38.2	22.8	0.00e+00	123	39	0	893386752	46	6354
2026-01-02 15:04:16.39	14.28	38.51	-37.2	-38.2	22.8	0.00e+00	122	39	0	896532480	46	6363
2026-01-02 15:04:17.40	14.20	38.75	-37.1	-38.0	22.9	0.00e+00	122	39	0	899678208	46	6271
2026-01-02 15:04:18.41	14.11	39.01	-37.2	-38.1	22.9	0.00e+00	122	39	0	902823936	46	6330
2026-01-02 15:04:19.42	14.03	39.26	-37.1	-38.1	22.9	0.00e+00	123	39	0	905969664	46	6333
2026-01-02 15:04:20.43	13.94	39.51	-37.3	-38.3	22.8	0.00e+00	123	39	0	909115392	46	6445
2026-01-02 15:04:21.44	13.85	39.77	-37.0	-38.0	22.9	0.00e+00	120	40	0	912261120	46	6215
2026-01-02 15:04:22.45	13.76	40.03	-37.3	-38.3	22.8	0.00e+00	123	40	0	915406848	46	6427
2026-01-02 15:04:23.46	13.67	40.29	-37.3	-38.3	22.7	0.00e+00	120	40	0	918552576	46	6444
2026-01-02 15:04:24.47	13.58	40.55	-37.0	-37.9	22.8	0.00e+00	123	40	0	921698304	46	6196
2026-01-02 15:04:25.48	13.48	40.81	-37.1	-38.1	22.8	0.00e+00	123	39	0	924844032	46	6279
2026-01-02 15:04:26.49	13.39	41.08	-36.9	-37.9	22.9	0.00e+00	122	39	0	927989760	46	6162
2026-01-02 15:04:27.50	13.29	41.35	-36.9	-37.9	22.9	0.00e+00	120	39	0	931135488	46	6175
2026-01-02 15:04:28.51	13.19	41.61	-36.7	-37.7	23.2	0.00e+00	123	39	0	934281216	46	6033
2026-01-02 15:04:29.52	13.09	41.89	-36.9	-37.8	23.2	0.00e+00	120	39	0	937426944	46	6103
2026-01-02 15:04:30.53	12.99	42.16	-37.0	-37.9	23.0	0.00e+00	123	39	0	940572672	46	6188
2026-01-02 15:04:31.54	12.88	42.43	-37.1	-38.1	22.8	0.00e+00	120	39	0	944766976	46	6304
2026-01-02 15:04:32.55	12.78	42.71	-37.4	-38.4	22.5	0.00e+00	122	39	0	947912704	46	6507
2026-01-02 15:04:33.56	12.67	42.99	-37.6	-38.6	22.2	0.00e+00	120	39	0	950009856	46	6692
2026-01-02 15:04:34.57	12.56	43.27	-37.7	-38.8	22.0	0.00e+00	122	39	0	953155584	48	6077
2026-01-02 15:04:35.58	12.44	43.55	-37.9	-39.0	21.7	0.00e+00	121	39	0	957349888	48	6243
2026-01-02 15:04:36.59	12.33	43.84	-38.0	-39.1	21.7	0.00e+00	123	39	0	960495616	48	6304
2026-01-02 15:04:37.60	12.21	44.12	-38.2	-39.3	21.6	0.00e+00	120	39	0	963641344	48	6435
2026-01-02 15:04:38.61	12.09	44.41	-38.3	-39.4	21.6	0.00e+00	123	39	0	966787072	48	6511
2026-01-02 15:04:39.62	11.97	44.70	-38.4	-39.5	21.7	0.00e+00	123	39	0	969932800	48	6587
2026-01-02 15:04:40.63	11.85	45.00	-38.6	-39.7	21.5	0.00e+00	123	39	0	973078528	48	6739
2026-01-02 15:04:41.64	11.72	45.29	-38.8	-39.9	21.3	0.00e+00	123	39	0	976224256	50	6205
2026-01-02 15:04:42.65	11.60	45.59	-38.9	-40.1	21.3	0.00e+00	122	39	0	979369984	50	6283
2026-01-02 15:04:43.66	11.46	45.89	-39.0	-40.1	21.2	0.00e+00	122	39	0	982515712	50	6309
2026-01-02 15:04:44.67	11.33	46.19	-38.6	-39.7	21.4	0.00e+00	123	39	0	985661440	50	6016
2026-01-02 15:04:45.68	11.20	46.49	-38.3	-39.3	21.6	0.00e+00	123	39	0	988807168	50	5789
2026-01-02 15:04:46.69	11.06	46.80	-38.1	-39.1	21.7	0.00e+00	120	39	0	991952896	50	5658
2026-01-02 15:04:47.70	10.91	47.10	-37.8	-38.9	22.0	0.00e+00	122	39	0	995098624	50	5511
2026-01-02 15:04:48.71	10.77	47.41	-37.7	-38.8	22.0	0.00e+00	123	39	0	998244352	50	5420
2026-01-02 15:04:49.72	10.62	47.72	-37.6	-38.6	22.3	0.00e+00	123	39	0	1001390080	48	5988
2026-01-02 15:04:50.73	10.47	48.04	-37.6	-38.7	22.3	0.00e+00	123	39	0	1004535808	48	6027
2026-01-02 15:04:51.74	10.32	48.35	-37.5	-38.5	22.5	0.00e+00	120	39	0	1007681536	48	5904
2026-01-02 15:04:52.75	10.16	48.67	-37.2	-38.2	22.7	0.00e+00	123	39	0	1010827264	48	5665
2026-01-02 15:04:53.76	10.00	48.99	-37.1	-38.1	22.8	0.00e+00	122	39	0	1013972992	48	5622
2026-01-02 15:04:54.77	9.84	49.31	-37.2	-38.2	22.6	0.00e+00	122	39	0	1017118720	48	5688
2026-01-02 15:04:55.77	9.67	49.63	-37.2	-38.2	22.6	0.00e+00	122	39	0	1020264448	48	5668
2026-01-02 15:04:56.79	9.50	49.96	-37.4	-38.4	22.4	0.00e+00	123	39	0	1023410176	48	5823
2026-01-02 15:04:57.79	9.33	50.28	-37.7	-38.7	22.2	0.00e+00	122	39	0	1026555904	48	6049
2026-01-02 15:04:58.80	9.15	50.61	-38.0	-39.0	22.1	0.00e+00	123	39	0	1029701632	48	6260
2026-01-02 15:04:59.81	8.96	50.94	-38.0	-39.1	22.1	0.00e+00	122	39	0	1032847360	48	6311
2026-01-02 15:05:00.82	8.78	51.28	-37.7	-38.7	22.3	0.00e+00	123	39	0	1035993088	48	6045
2026-01-02 15:05:01.83	8.59	51.61	-37.3	-38.3	22.6	0.00e+00	123	39	0	1039138816	48	5756
2026-01-02 15:05:02.84	8.39	51.95	-37.3	-38.3	22.5	0.00e+00	120	39	0	1042284544	48	5788
2026-01-02 15:05:03.85	8.19	52.29	-36.7	-37.6	22.9	0.00e+00	123	39	0	1045430272	46	5985
2026-01-02 15:05:04.86	7.99	52.63	-36.8	-37.7	23.1	0.00e+00	120	39	0	1048576000	46	6053
2026-01-02 15:05:05.87	7.78	52.98	-36.8	-37.8	23.1	0.00e+00	122	39	0	1051721728	46	6070
2026-01-02 15:05:06.88	7.56	53.32	-36.7	-37.7	23.2	0.00e+00	120	39	0	1054867456	46	6010
2026-01-02 15:05:07.89	7.34	53.67	-36.9	-37.9	23.1	0.00e+00	123	39	0	1058013184	46	6149
2026-01-02 15:05:08.90	7.11	54.02	-36.7	-37.7	23.2	0.00e+00	120	39	0	1061158912	46	6019
2026-01-02 15:05:09.91	6.88	54.37	-36.5	-37.4	23.3	0.00e+00	123	39	0	1064304640	46	5824
2026-01-02 15:05:10.92	6.65	54.73	-36.4	-37.3	23.4	0.00e+00	122	39	0	1067450368	46	5771
2026-01-02 15:05:11.93	6.40	55.08	-36.2	-37.2	23.5	0.00e+00	122	39	0	1070596096	46	5662
2026-01-02 15:05:12.94	6.15	55.44	-36.1	-37.1	23.7	0.00e+00	122	39	0	1073741824	46	5612
2026-01-02 15:05:13.95	5.90	55.80	-36.0	-36.9	23.8	0.00e+00	123	39	0	1076887552	46	5488
2026-01-02 15:05:14.96	5.63	56.16	-35.8	-36.7	23.9	0.00e+00	123	39	0	1080033280	46	5401
2026-01-02 15:05:15.97	5.36	56.52	-35.8	-36.7	23.8	0.00e+00	123	39	0	1083179008	46	5396
2026-01-02 15:05:16.98	5.09	56.89	-35.4	-36.3	24.0	0.00e+00	123	39	0	1086324736	44	5774
2026-01-02 15:05:17.99	4.80	57.25	-35.3	-36.2	24.0	0.00e+00	123	39	0	1089470464	44	5715
2026-01-02 15:05:19.00	4.51	57.62	-35.2	-36.2	24.0	0.00e+00	120	39	0	1092616192	44	5663
2026-01-02 15:05:20.01	4.21	57.99	-35.2	-36.2	24.4	0.00e+00	122	39	0	1095761920	44	5661
2026-01-02 15:05:21.02	3.90	58.36	-35.1	-35.9	24.5	0.00e+00	123	39	0	1098907648	44	5527
2026-01-02 15:05:22.03	3.58	58.73	-35.3	-36.2	24.4	0.00e+00	120	39	0	1102053376	44	5673
2026-01-02 15:05:23.04	3.25	59.11	-35.3	-36.2	24.2	0.00e+00	123	39	0	1105199104	44	5701
2026-01-02 15:05:24.05	2.91	59.48	-35.1	-35.9	24.6	0.00e+00	121	39	0	1108344832	44	5517
2026-01-02 15:05:25.06	2.57	59.86	-34.7	-35.6	24.7	0.00e+00	122	39	0	1111490560	42	5942
2026-01-02 15:05:26.07	2.21	60.24	-34.6	-35.5	24.6	0.00e+00	123	39	0	1114636288	42	5866
2026-01-02 15:05:27.08	1.84	60.62	-34.5	-35.4	24.8	0.00e+00	123	39	0	1117782016	42	5841
2026-01-02 15:05:28.09	1.46	61.00	-34.5	-35.4	24.9	0.00e+00	120	39	0	1120927744	42	5806
2026-01-02 15:05:29.10	1.07	61.38	-34.4	-35.3	24.8	0.00e+00	123	39	0	1124073472	42	5772
2026-01-02 15:05:30.11	0.67	61.76	-34.3	-35.2	25.0	0.00e+00	122	39	0	1127219200	42	5700
2026-01-02 15:05:31.12	0.25	62.15	-34.3	-35.2	25.0	0.00e+00	123	39	0	1130364928	42	5678
2026-01-02 15:05:32.13	359.82	62.53	-34.4	-35.3	24.9	0.00e+00	123	39	0	1133510656	42	5739
2026-01-02 15:05:33.14	359.37	62.92	-34.3	-35.1	25.0	0.00e+00	122	39	0	1136656384	42	5645
2026-01-02 15:05:34.15	358.92	63.30	-34.3	-35.2	24.9	0.00e+00	120	39	0	1139802112	42	5696
2026-01-02 15:05:35.16	358.44	63.69	-34.5	-35.4	24.8	0.00e+00	123	39	0	1142947840	42	5845
2026-01-02 15:05:36.17	357.95	64.07	-34.5	-35.4	24.9	0.00e+00	123	39	0	1146093568	42	5811
2026-01-02 15:05:37.18	357.44	64.46	-34.4	-35.3	24.9	0.00e+00	123	39	0	1149239296	42	5786
2026-01-02 15:05:38.19	356.92	64.85	-34.4	-35.3	25.0	0.00e+00	123	39	0	1152385024	42	5766
2026-01-02 15:05:39.20	356.38	65.24	-34.5	-35.3	24.9	0.00e+00	123	39	0	1155530752	42	5787
2026-01-02 15:05:40.20	355.82	65.62	-34.6	-35.5	24.8	0.00e+00	122	39	0	1158676480	42	5895
2026-01-02 15:05:41.22	355.23	66.01	-34.6	-35.4	24.9	0.00e+00	123	39	0	1161822208	42	5858
2026-01-02 15:05:42.23	354.63	66.39	-34.2	-35.0	25.2	0.00e+00	122	39	0	1164967936	42	5579
2026-01-02 15:05:43.24	354.00	66.78	-34.1	-35.0	25.2	0.00e+00	123	39	0	1168113664	42	5540
2026-01-02 15:05:44.25	353.35	67.16	-34.4	-35.3	24.9	0.00e+00	123	39	0	1171259392	42	5781
2026-01-02 15:05:45.26	352.68	67.55	-34.5	-35.4	24.8	0.00e+00	123	39	0	1174405120	42	5856
2026-01-02 15:05:46.27	351.98	67.93	-34.7	-35.6	24.6	0.00e+00	122	39	0	1177550848	42	5955
2026-01-02 15:05:47.28	351.25	68.31	-34.7	-35.6	24.6	0.00e+00	122	39	0	1180696576	42	5957
2026-01-02 15:05:48.29	350.49	68.69	-34.5	-35.4	24.8	0.00e+00	120	39	0	1183842304	42	5841
2026-01-02 15:05:49.30	349.71	69.07	-34.1	-35.0	25.1	0.00e+00	122	39	0	1186988032	42	5549
2026-01-02 15:05:50.31	348.89	69.44	-33.9	-34.8	25.3	0.00e+00	120	39	0	1190133760	42	5406
2026-01-02 15:05:51.32	348.05	69.81	-33.9	-34.7	25.2	0.00e+00	123	39	0	1193279488	42	5383
2026-01-02 15:05:52.33	347.16	70.18	-33.6	-34.4	25.5	0.00e+00	123	39	0	1196425216	40	5842
2026-01-02 15:05:53.34	346.24	70.55	-33.7	-34.5	25.3	0.00e+00	122	39	0	1199570944	40	5906
2026-01-02 15:05:54.35	345.29	70.91	-33.7	-34.5	25.4	0.00e+00	122	39	0	1202716672	40	5922
2026-01-02 15:05:55.36	344.29	71.27	-33.5	-34.4	25.6	0.00e+00	123	39	0	1205862400	40	5806
2026-01-02 15:05:56.37	343.26	71.62	-33.8	-34.7	25.4	0.00e+00	123	39	0	1209008128	40	6005
2026-01-02 15:05:57.38	342.18	71.97	-33.8	-34.7	25.2	0.00e+00	122	39	0	1212153856	40	5996
2026-01-02 15:05:58.39	341.05	72.32	-34.0	-34.8	24.9	0.00e+00	123	39	0	1215299584	40	6118
2026-01-02 15:05:59.40	339.88	72.66	-33.7	-34.5	25.4	0.00e+00	121	39	0	1218445312	40	5926
2026-01-02 15:06:00.41	338.66	72.99	-33.4	-34.3	25.6	0.00e+00	122	39	0	1221591040	40	5737
2026-01-02 15:06:01.42	337.39	73.31	-33.4	-34.3	25.5	0.00e+00	123	39	0	1224736768	40	5750
2026-01-02 15:06:02.43	336.07	73.63	-33.6	-34.4	25.5	0.00e+00	123	39	0	1227882496	40	5839
2026-01-02 15:06:03.44	334.69	73.94	-33.8	-34.7	25.3	0.00e+00	123	39	0	1231028224	40	5996
2026-01-02 15:06:04.44	333.27	74.24	-33.7	-34.5	25.5	0.00e+00	123	39	0	1234173952	40	5924
2026-01-02 15:06:05.45	331.78	74.53	-33.5	-34.4	25.5	0.00e+00	120	39	0	1237319680	40	5814
2026-01-02 15:06:06.46	330.23	74.82	-33.7	-34.5	25.5	0.00e+00	123	39	0	1240465408	40	5895
2026-01-02 15:06:07.47	328.62	75.09	-33.9	-34.7	25.3	0.00e+00	123	39	0	1243611136	40	6029
2026-01-02 15:06:08.48	326.94	75.35	-34.0	-34.8	25.1	0.00e+00	123	39	0	1246756864	40	6124
2026-01-02 15:06:09.49	325.21	75.60	-33.9	-34.8	25.3	0.00e+00	120	39	0	1249902592	40	6073
2026-01-02 15:06:10.50	323.41	75.84	-34.3	-35.1	25.1	0.00e+00	122	39	0	1253048320	40	6344
2026-01-02 15:06:11.52	321.54	76.06	-34.4	-35.3	24.9	0.00e+00	120	39	0	1256194048	40	6448
2026-01-02 15:06:12.52	319.64	76.27	-34.1	-35.0	24.9	0.00e+00	123	39	0	1259339776	40	6243
2026-01-02 15:06:13.53	317.66	76.46	-34.1	-35.0	25.0	0.00e+00	123	39	0	1262485504	40	6217
2026-01-02 15:06:14.54	315.63	76.64	-34.1	-35.0	25.1	0.00e+00	122	39	0	1265631232	40	6250
2026-01-02 15:06:15.55	313.55	76.80	-34.3	-35.2	25.0	0.00e+00	123	39	0	1268776960	40	6362
2026-01-02 15:06:16.56	311.41	76.94	-34.3	-35.1	25.1	0.00e+00	121	39	0	1271922688	40	6343
2026-01-02 15:06:17.57	309.23	77.07	-34.0	-34.8	25.3	0.00e+00	123	39	0	1275068416	40	6110
2026-01-02 15:06:18.58	307.00	77.17	-33.8	-34.7	25.3	0.00e+00	123	39	0	1278214144	40	6013
2026-01-02 15:06:19.59	304.74	77.26	-34.0	-34.9	25.2	0.00e+00	123	39	0	1282408448	40	6180
2026-01-02 15:06:20.60	302.46	77.33	-34.3	-35.2	24.9	0.00e+00	120	39	0	1285554176	40	6369
2026-01-02 15:06:21.61	300.15	77.38	-34.4	-35.3	24.6	0.00e+00	122	39	0	1288699904	40	6455
2026-01-02 15:06:22.62	297.83	77.41	-34.5	-35.4	24.3	0.00e+00	122	39	0	1290797056	40	6531
2026-01-02 15:06:23.63	295.50	77.41	-34.5	-35.5	24.5	0.00e+00	122	39	0	1293942784	40	6577
2026-01-02 15:06:24.64	293.17	77.40	-34.7	-35.6	24.6	0.00e+00	122	39	0	1298137088	42	5986
2026-01-02 15:06:25.64	290.87	77.37	-34.5	-35.4	24.6	0.00e+00	120	39	0	1301282816	42	5853
2026-01-02 15:06:26.65	288.56	77.32	-34.3	-35.2	24.8	0.00e+00	122	39	0	1304428544	42	5670
2026-01-02 15:06:27.67	286.26	77.24	-34.0	-34.9	25.1	0.00e+00	122	39	0	1307574272	42	5492
2026-01-02 15:06:28.67	284.03	77.15	-34.3	-35.2	24.6	0.00e+00	122	39	0	1310720000	42	5664
2026-01-02 15:06:29.69	281.79	77.04	-34.8	-35.6	24.6	0.00e+00	120	39	0	1313865728	42	5992
2026-01-02 15:06:30.69	279.64	76.91	-34.4	-35.3	24.9	0.00e+00	122	39	0	1317011456	42	5751
2026-01-02 15:06:31.70	277.51	76.76	-34.3	-35.2	24.9	0.00e+00	123	39	0	1320157184	42	5704
2026-01-02 15:06:32.71	275.44	76.60	-34.4	-35.2	24.8	0.00e+00	122	39	0	1323302912	42	5725
2026-01-02 15:06:33.72	273.41	76.42	-34.0	-34.9	24.9	0.00e+00	123	39	0	1326448640	42	5496
2026-01-02 15:06:34.73	271.45	76.22	-34.4	-35.3	24.9	0.00e+00	123	39	0	1329594368	42	5752
2026-01-02 15:06:35.74	269.54	76.01	-34.5	-35.4	24.9	0.00e+00	122	39	0	1332740096	42	5816
2026-01-02 15:06:36.75	267.70	75.79	-34.3	-35.2	25.1	0.00e+00	123	39	0	1335885824	42	5694
2026-01-02 15:06:37.76	265.92	75.55	-34.2	-35.1	25.0	0.00e+00	120	39	0	1339031552	42	5627
2026-01-02 15:06:38.77	264.20	75.29	-33.8	-34.6	25.3	0.00e+00	123	39	0	1342177280	42	5312
2026-01-02 15:06:39.78	262.54	75.03	-33.8	-34.6	25.5	0.00e+00	123	39	0	1345323008	42	5343
2026-01-02 15:06:40.79	260.94	74.76	-33.7	-34.5	25.5	0.00e+00	123	39	0	1348468736	40	5894
2026-01-02 15:06:41.80	259.40	74.47	-33.5	-34.3	25.7	0.00e+00	122	39	0	1351614464	40	5738
2026-01-02 15:06:42.81	257.92	74.18	-33.4	-34.3	25.5	0.00e+00	123	39	0	1354760192	40	5741
2026-01-02 15:06:43.82	256.49	73.87	-33.6	-34.4	25.3	0.00e+00	123	39	0	1357905920	40	5850
2026-01-02 15:06:44.84	255.11	73.56	-33.7	-34.6	25.0	0.00e+00	122	39	0	1361051648	40	5952
2026-01-02 15:06:45.85	253.80	73.24	-33.9	-34.8	25.0	0.00e+00	123	39	0	1364197376	40	6070
2026-01-02 15:06:46.85	252.56	72.91	-33.8	-34.6	25.4	0.00e+00	123	39	0	1367343104	40	5990
2026-01-02 15:06:47.86	251.35	72.58	-33.6	-34.4	25.5	0.00e+00	120	39	0	1370488832	40	5828
2026-01-02 15:06:48.87	250.18	72.24	-34.2	-35.0	25.0	0.00e+00	123	39	0	1373634560	40	6260
2026-01-02 15:06:49.88	249.07	71.89	-34.6	-35.5	24.8	0.00e+00	123	39	0	1376780288	40	6590
2026-01-02 15:06:50.89	248.00	71.54	-34.8	-35.7	24.5	0.00e+00	122	39	0	1379926016	42	6058
2026-01-02 15:06:51.90	246.97	71.18	-34.7	-35.6	24.5	0.00e+00	122	39	0	1383071744	42	5942
2026-01-02 15:06:52.91	245.98	70.82	-34.6	-35.5	24.8	0.00e+00	120	39	0	1386217472	42	5859
2026-01-02 15:06:53.92	245.03	70.46	-33.9	-34.8	25.3	0.00e+00	123	39	0	1389363200	42	5433
2026-01-02 15:06:54.93	244.12	70.09	-34.1	-34.9	25.2	0.00e+00	120	39	0	1392508928	42	5527
2026-01-02 15:06:55.94	243.25	69.72	-34.3	-35.2	25.1	0.00e+00	123	39	0	1395654656	42	5703
2026-01-02 15:06:56.95	242.41	69.35	-34.4	-35.3	24.9	0.00e+00	120	39	0	1398800384	42	5755
2026-01-02 15:06:57.96	241.60	68.97	-33.9	-34.8	25.2	0.00e+00	123	39	0	1401946112	42	5420
2026-01-02 15:06:58.97	240.82	68.60	-33.6	-34.4	25.1	0.00e+00	120	39	0	1405091840	40	5824
2026-01-02 15:06:59.98	240.07	68.22	-33.0	-33.9	25.4	0.00e+00	122	39	0	1408237568	40	5469
2026-01-02 15:07:00.99	239.35	67.83	-33.9	-34.8	25.1	0.00e+00	123	39	0	1411383296	40	6072
2026-01-02 15:07:02.00	238.65	67.45	-34.8	-35.7	24.6	0.00e+00	122	39	0	1414529024	40	6745
2026-01-02 15:07:03.01	237.99	67.07	-35.4	-36.3	24.2	0.00e+00	120	39	0	1417674752	42	6467
2026-01-02 15:07:04.02	237.34	66.68	-35.1	-36.0	24.1	0.00e+00	122	39	0	1420820480	42	6257
2026-01-02 15:07:05.03	236.72	66.29	-34.6	-35.5	23.8	0.00e+00	123	39	0	1423966208	42	5918
2026-01-02 15:07:06.04	236.12	65.91	-34.6	-35.5	24.0	0.00e+00	123	39	0	1427111936	42	5870
2026-01-02 15:07:07.05	235.54	65.52	-34.1	-35.0	25.1	0.00e+00	123	39	0	1430257664	42	5569
2026-01-02 15:07:08.06	234.98	65.13	-33.7	-34.5	25.3	0.00e+00	122	39	0	1433403392	40	5914
2026-01-02 15:07:09.06	234.45	64.75	-34.2	-35.1	24.6	0.00e+00	122	39	0	1436549120	40	6289
2026-01-02 15:07:10.07	233.93	64.36	-35.2	-36.1	24.1	0.00e+00	123	39	0	1439694848	42	6315
2026-01-02 15:07:11.08	233.42	63.97	-35.2	-36.2	24.1	0.00e+00	122	39	0	1442840576	42	6351
2026-01-02 15:07:12.09	232.93	63.59	-34.7	-35.6	24.2	0.00e+00	122	39	0	1445986304	42	5973
2026-01-02 15:07:13.10	232.46	63.20	-33.9	-34.7	25.1	0.00e+00	123	39	0	1449132032	42	5388
2026-01-02 15:07:14.11	232.01	62.81	-33.7	-34.6	25.4	0.00e+00	120	39	0	1452277760	40	5928
2026-01-02 15:07:15.12	231.57	62.43	-33.6	-34.5	25.4	0.00e+00	123	39	0	1455423488	40	5870
2026-01-02 15:07:16.13	231.14	62.04	-33.8	-34.6	25.0	0.00e+00	122	39	0	1458569216	40	5963
2026-01-02 15:07:17.14	230.72	61.66	-34.4	-35.2	24.4	0.00e+00	122	39	0	1461714944	40	6414
2026-01-02 15:07:18.15	230.32	61.27	-35.3	-36.2	23.9	0.00e+00	120	39	0	1464860672	42	6375
2026-01-02 15:07:19.16	229.93	60.89	-35.5	-36.4	23.9	0.00e+00	122	39	0	1468006400	42	6560
2026-01-02 15:07:20.17	229.55	60.51	-34.9	-35.9	23.1	0.00e+00	120	39	0	1471152128	42	6138
2026-01-02 15:07:21.18	229.19	60.13	-34.6	-35.5	23.5	0.00e+00	123	39	0	1474297856	42	5884
2026-01-02 15:07:22.19	228.83	59.75	-34.2	-35.1	24.9	0.00e+00	123	39	0	1477443584	42	5599
2026-01-02 15:07:23.20	228.49	59.37	-34.5	-35.3	24.8	0.00e+00	122	39	0	1480589312	42	5762
2026-01-02 15:07:24.21	228.15	59.00	-35.8	-36.7	23.8	0.00e+00	120	39	0	1483735040	42	6791
2026-01-02 15:07:25.22	227.83	58.62	-36.3	-37.3	22.9	0.00e+00	122	39	0	1486880768	44	6439
2026-01-02 15:07:26.23	227.51	58.25	-37.0	-38.0	22.7	0.00e+00	120	39	0	1490026496	46	6208
2026-01-02 15:07:27.24	227.20	57.88	-37.3	-38.3	22.2	0.00e+00	122	39	0	1493172224	46	6474
2026-01-02 15:07:28.25	226.90	57.51	-36.9	-38.1	22.1	0.00e+00	123	39	0	1496317952	46	6282
2026-01-02 15:07:29.26	226.61	57.14	-36.2	-37.2	22.8	0.00e+00	122	39	0	1499463680	46	5724
2026-01-02 15:07:30.28	226.32	56.77	-35.5	-36.5	23.8	0.00e+00	120	39	0	1502609408	44	5869
2026-01-02 15:07:31.29	226.05	56.41	-35.2	-36.1	24.3	0.00e+00	123	39	0	1505755136	44	5605
2026-01-02 15:07:32.29	225.78	56.05	-35.0	-35.9	24.3	0.00e+00	120	39	0	1508900864	44	5511
2026-01-02 15:07:33.31	225.52	55.68	-34.9	-35.8	23.8	0.00e+00	123	39	0	1512046592	44	5424
2026-01-02 15:07:34.31	225.27	55.32	-35.4	-36.3	23.1	0.00e+00	122	39	0	1515192320	44	5766
2026-01-02 15:07:35.32	225.02	54.97	-36.2	-37.1	23.0	0.00e+00	122	39	0	1518338048	44	6333
2026-01-02 15:07:36.33	224.77	54.61	-36.7	-37.7	23.1	0.00e+00	120	39	0	1521483776	44	6742
2026-01-02 15:07:37.34	224.54	54.26	-36.6	-37.6	22.6	0.00e+00	123	39	0	1524629504	44	6718
2026-01-02 15:07:38.35	224.31	53.90	-36.6	-37.7	22.3	0.00e+00	121	39	0	1527775232	44	6728
2026-01-02 15:07:39.36	224.08	53.55	-36.7	-37.7	22.8	0.00e+00	123	39	0	1530920960	44	6787
2026-01-02 15:07:40.37	223.86	53.21	-36.6	-37.5	23.2	0.00e+00	122	39	0	1534066688	44	6647
2026-01-02 15:07:41.38	223.65	52.86	-36.3	-37.3	23.5	0.00e+00	123	39	0	1537212416	44	6427
2026-01-02 15:07:42.39	223.44	52.51	-36.1	-37.0	23.6	0.00e+00	123	39	0	1540358144	44	6273
2026-01-02 15:07:43.40	223.24	52.17	-36.5	-37.5	23.1	0.00e+00	122	39	0	1543503872	44	6581
2026-01-02 15:07:44.41	223.04	51.83	-36.9	-37.9	22.6	0.00e+00	120	39	0	1546649600	46	6165
2026-01-02 15:07:45.42	222.84	51.49	-37.7	-38.7	21.6	0.00e+00	123	39	0	1549795328	46	6796
2026-01-02 15:07:46.43	222.65	51.16	-38.1	-39.2	21.7	0.00e+00	122	39	0	1552941056	48	6378
2026-01-02 15:07:47.44	222.46	50.82	-38.1	-39.1	22.0	0.00e+00	122	39	0	1556086784	48	6340
2026-01-02 15:07:48.45	222.28	50.49	-37.6	-38.6	22.2	0.00e+00	122	39	0	1559232512	48	5970
2026-01-02 15:07:49.46	222.10	50.16	-37.5	-38.5	22.1	0.00e+00	123	39	0	1562378240	48	5882
2026-01-02 15:07:50.47	221.93	49.83	-37.0	-38.0	22.8	0.00e+00	120	39	0	1565523968	48	5567
2026-01-02 15:07:51.48	221.76	49.51	-36.5	-37.5	23.3	0.00e+00	123	39	0	1568669696	46	5865
2026-01-02 15:07:52.49	221.59	49.18	-37.0	-37.9	22.9	0.00e+00	123	39	0	1571815424	46	6178
2026-01-02 15:07:53.50	221.43	48.86	-37.6	-38.6	22.3	0.00e+00	123	39	0	1574961152	46	6708
2026-01-02 15:07:54.51	221.27	48.54	-37.8	-38.8	22.3	0.00e+00	123	39	0	1578106880	48	6128
2026-01-02 15:07:55.52	221.11	48.22	-37.7	-38.8	22.1	0.00e+00	123	39	0	1581252608	48	6070
2026-01-02 15:07:56.53	220.96	47.91	-37.3	-38.3	22.4	0.00e+00	123	39	0	1584398336	48	5762
2026-01-02 15:07:57.54	220.81	47.59	-37.5	-38.5	22.3	0.00e+00	122	39	0	1587544064	48	5888
2026-01-02 15:07:58.54	220.66	47.29	-37.6	-38.6	22.2	0.00e+00	122	39	0	1590689792	48	5969
2026-01-02 15:07:59.55	220.52	46.98	-37.8	-38.8	22.2	0.00e+00	123	39	0	1593835520	48	6094
2026-01-02 15:08:00.56	220.38	46.67	-37.8	-38.8	22.2	0.00e+00	123	39	0	1596981248	48	6090
2026-01-02 15:08:01.57	220.24	46.36	-37.6	-38.6	22.0	0.00e+00	120	39	0	1600126976	48	5951
2026-01-02 15:08:02.58	220.10	46.06	-37.3	-38.4	21.5	0.00e+00	123	39	0	1604321280	48	5792
2026-01-02 15:08:03.59	219.97	45.76	-37.2	-38.3	21.4	0.00e+00	120	39	0	1606418432	48	5728
2026-01-02 15:08:04.60	219.84	45.46	-37.4	-38.4	21.9	0.00e+00	123	39	0	1609564160	48	5831
2026-01-02 15:08:05.61	219.71	45.16	-37.6	-38.6	22.3	0.00e+00	120	39	0	1612709888	48	5938
2026-01-02 15:08:06.62	219.59	44.87	-37.5	-38.4	22.6	0.00e+00	122	39	0	1615855616	48	5848
2026-01-02 15:08:07.63	219.46	44.57	-37.4	-38.4	22.6	0.00e+00	120	39	0	1619001344	48	5806
2026-01-02 15:08:08.64	219.34	44.28	-37.9	-38.9	22.1	0.00e+00	123	39	0	1623195648	48	6141
2026-01-02 15:08:09.65	219.22	43.99	-38.4	-39.5	21.6	0.00e+00	123	39	0	1626341376	48	6627
2026-01-02 15:08:10.66	219.11	43.71	-38.4	-39.4	21.8	0.00e+00	120	39	0	1628438528	48	6558
2026-01-02 15:08:11.67	218.99	43.42	-38.1	-39.1	22.0	0.00e+00	123	39	0	1631584256	48	6309
2026-01-02 15:08:12.68	218.88	43.14	-37.6	-38.5	22.4	0.00e+00	123	39	0	1634729984	48	5916
2026-01-02 15:08:13.69	218.77	42.86	-37.5	-38.5	22.4	0.00e+00	123	39	0	1638924288	48	5899
2026-01-02 15:08:14.70	218.66	42.58	-37.5	-38.5	22.5	0.00e+00	123	39	0	1642070016	48	5910
2026-01-02 15:08:15.71	218.56	42.30	-37.6	-38.6	22.4	0.00e+00	122	39	0	1645215744	48	5968
2026-01-02 15:08:16.72	218.45	42.03	-37.9	-39.0	22.0	0.00e+00	121	39	0	1648361472	48	6217
2026-01-02 15:08:17.73	218.35	41.75	-38.5	-39.6	21.5	0.00e+00	123	39	0	1651507200	48	6665
2026-01-02 15:08:18.74	218.25	41.48	-38.9	-40.1	21.1	0.00e+00	123	39	0	1654652928	50	6316
2026-01-02 15:08:19.75	218.15	41.21	-38.8	-40.0	21.1	0.00e+00	123	39	0	1657798656	50	6231
2026-01-02 15:08:20.76	218.05	40.94	-38.6	-39.7	21.4	0.00e+00	123	39	0	1660944384	50	6038
2026-01-02 15:08:21.77	217.96	40.68	-38.0	-39.0	22.0	0.00e+00	123	39	0	1664090112	50	5583
2026-01-02 15:08:22.78	217.86	40.41	-37.7	-38.6	22.2	0.00e+00	123	39	0	1667235840	50	5340
2026-01-02 15:08:23.79	217.77	40.15	-37.0	-37.9	22.7	0.00e+00	123	39	0	1670381568	48	5519
2026-01-02 15:08:24.80	217.68	39.89	-36.9	-37.9	22.6	0.00e+00	123	39	0	1673527296	48	5482
2026-01-02 15:08:25.81	217.59	39.63	-37.2	-38.2	22.6	0.00e+00	123	39	0	1676673024	48	5664
2026-01-02 15:08:26.83	217.50	39.37	-37.4	-38.4	22.4	0.00e+00	120	39	0	1679818752	48	5851
2026-01-02 15:08:27.84	217.41	39.12	-37.6	-38.6	22.2	0.00e+00	123	39	0	1682964480	48	5957
2026-01-02 15:08:28.85	217.33	38.87	-37.8	-38.9	22.0	0.00e+00	122	39	0	1686110208	48	6157
2026-01-02 15:08:29.85	217.24	38.62	-38.0	-39.1	21.8	0.00e+00	122	39	0	1689255936	48	6296
2026-01-02 15:08:30.86	217.16	38.37	-37.9	-39.0	22.0	0.00e+00	123	39	0	1692401664	48	6239
2026-01-02 15:08:31.87	217.08	38.12	-38.0	-39.0	22.1	0.00e+00	122	39	0	1695547392	48	6242
2026-01-02 15:08:32.88	217.00	37.87	-37.9	-38.9	22.1	0.00e+00	123	39	0	1698693120	48	6191
2026-01-02 15:08:33.89	216.92	37.63	-38.2	-39.2	21.8	0.00e+00	123	39	0	1701838848	48	6416
2026-01-02 15:08:34.90	216.84	37.39	-38.1	-39.2	21.9	0.00e+00	122	39	0	1704984576	48	6392
2026-01-02 15:08:35.91	216.77	37.15	-38.1	-39.2	21.9	0.00e+00	120	39	0	1708130304	48	6359
2026-01-02 15:08:36.92	216.69	36.91	-37.9	-38.9	22.0	0.00e+00	123	39	0	1711276032	48	6189
2026-01-02 15:08:37.93	216.62	36.67	-37.8	-38.8	22.0	0.00e+00	122	39	0	1714421760	48	6104
2026-01-02 15:08:38.94	216.54	36.43	-37.4	-38.4	22.4	0.00e+00	123	39	0	1717567488	48	5835
2026-01-02 15:08:39.95	216.47	36.20	-36.8	-37.8	23.0	0.00e+00	121	39	0	1720713216	48	5427
2026-01-02 15:08:40.96	216.40	35.97	-36.6	-37.6	23.3	0.00e+00	122	39	0	1723858944	46	5934
2026-01-02 15:08:41.97	216.33	35.74	-36.4	-37.3	23.5	0.00e+00	127	39	0	1727004672	46	5764
2026-01-02 15:08:42.98	216.26	35.51	-36.4	-37.4	23.2	0.00e+00	123	39	0	1730150400	46	5795
2026-01-02 15:08:43.99	216.19	35.28	-36.5	-37.5	23.1	0.00e+00	123	39	0	1733296128	46	5892
2026-01-02 15:08:45.00	216.13	35.05	-36.8	-37.8	22.9	0.00e+00	123	39	0	1736441856	46	6112
2026-01-02 15:08:46.01	216.06	34.83	-36.9	-37.9	23.0	0.00e+00	123	39	0	1739587584	46	6170
2026-01-02 15:08:47.02	216.00	34.60	-37.1	-38.1	22.8	0.00e+00	122	39	0	1742733312	46	6315
2026-01-02 15:08:48.03	215.93	34.38	-37.0	-38.0	22.9	0.00e+00	123	39	0	1745879040	46	6229
2026-01-02 15:08:49.04	215.87	34.16	-37.1	-38.1	22.8	0.00e+00	122	39	0	1749024768	46	6284
2026-01-02 15:08:50.05	215.81	33.94	-36.6	-37.5	23.2	0.00e+00	123	39	0	1752170496	46	5906
2026-01-02 15:08:51.06	215.74	33.73	-36.8	-37.7	23.1	0.00e+00	122	39	0	1755316224	46	6041
2026-01-02 15:08:52.07	215.68	33.51	-36.7	-37.6	23.2	0.00e+00	123	39	0	1758461952	46	5975
2026-01-02 15:08:53.08	215.62	33.30	-36.7	-37.7	23.1	0.00e+00	123	39	0	1761607680	46	6048
2026-01-02 15:08:54.09	215.57	33.09	-36.9	-37.9	22.9	0.00e+00	123	39	0	1764753408	46	6182
2026-01-02 15:08:55.10	215.51	32.87	-36.9	-37.9	22.9	0.00e+00	123	39	0	1767899136	46	6182
2026-01-02 15:08:56.11	215.45	32.66	-36.9	-37.9	22.9	0.00e+00	123	39	0	1771044864	46	6154
2026-01-02 15:08:57.12	215.39	32.46	-36.8	-37.8	23.0	0.00e+00	122	39	0	1774190592	46	6120
2026-01-02 15:08:58.13	215.34	32.25	-36.9	-37.9	22.9	0.00e+00	122	39	0	1777336320	46	6160
2026-01-02 15:08:59.14	215.28	32.04	-36.6	-37.6	23.2	0.00e+00	122	39	0	1780482048	46	5939
2026-01-02 15:09:00.15	215.23	31.84	-36.3	-37.3	23.4	0.00e+00	122	39	0	1783627776	46	5749
2026-01-02 15:09:01.16	215.18	31.64	-36.1	-37.1	23.5	0.00e+00	123	39	0	1786773504	46	5618
2026-01-02 15:09:02.16	215.12	31.44	-36.0	-36.9	23.7	0.00e+00	123	39	0	1789919232	46	5524
2026-01-02 15:09:03.17	215.07	31.24	-35.8	-36.8	23.8	0.00e+00	123	39	0	1793064960	46	5411
2026-01-02 15:09:04.18	215.02	31.04	-35.6	-36.5	24.0	0.00e+00	122	39	0	1796210688	44	5883
2026-01-02 15:09:05.19	214.97	30.84	-35.4	-36.4	24.2	0.00e+00	120	39	0	1799356416	44	5794
2026-01-02 15:09:06.20	214.92	30.64	-35.5	-36.4	24.1	0.00e+00	123	39	0	1802502144	44	5836
2026-01-02 15:09:07.21	214.87	30.45	-35.2	-36.1	24.3	0.00e+00	122	39	0	1805647872	44	5622
2026-01-02 15:09:08.23	214.82	30.25	-35.0	-35.9	24.5	0.00e+00	122	39	0	1808793600	44	5480
2026-01-02 15:09:09.24	214.77	30.06	-35.0	-35.9	24.6	0.00e+00	120	39	0	1811939328	44	5481
2026-01-02 15:09:10.25	214.72	29.87	-35.0	-35.8	24.5	0.00e+00	123	39	0	1815085056	44	5457
2026-01-02 15:09:11.26	214.68	29.68	-34.8	-35.6	24.7	0.00e+00	123	39	0	1818230784	44	5337
2026-01-02 15:09:12.27	214.63	29.49	-34.8	-35.7	24.7	0.00e+00	123	39	0	1821376512	42	6009
2026-01-02 15:09:13.28	214.58	29.30	-34.7	-35.6	24.7	0.00e+00	123	39	0	1824522240	42	5965
2026-01-02 15:09:14.28	214.54	29.12	-34.7	-35.6	24.8	0.00e+00	123	39	0	1827667968	42	5941
2026-01-02 15:09:15.29	214.49	28.94	-34.8	-35.6	24.7	0.00e+00	123	39	0	1830813696	42	5993
2026-01-02 15:09:16.31	214.45	28.75	-34.9	-35.8	24.6	0.00e+00	123	39	0	1833959424	42	6105
2026-01-02 15:09:17.32	214.41	28.57	-35.1	-36.0	24.4	0.00e+00	120	39	0	1837105152	42	6263
2026-01-02 15:09:18.32	214.36	28.39	-35.2	-36.0	24.4	0.00e+00	122	39	0	1840250880	42	6266
2026-01-02 15:09:19.34	214.32	28.21	-35.3	-36.2	24.2	0.00e+00	123	39	0	1843396608	42	6358
2026-01-02 15:09:20.35	214.28	28.03	-35.4	-36.3	24.1	0.00e+00	122	39	0	1846542336	42	6470
2026-01-02 15:09:21.36	214.24	27.85	-35.5	-36.4	24.1	0.00e+00	120	39	0	1849688064	42	6551
2026-01-02 15:09:22.37	214.20	27.67	-35.5	-36.4	24.2	0.00e+00	122	39	0	1852833792	42	6500
2026-01-02 15:09:23.38	214.15	27.50	-35.6	-36.5	24.1	0.00e+00	122	39	0	1855979520	42	6590
2026-01-02 15:09:24.39	214.11	27.32	-35.5	-36.4	24.2	0.00e+00	123	39	0	1859125248	42	6515
2026-01-02 15:09:25.40	214.07	27.15	-35.4	-36.3	24.1	0.00e+00	123	39	0	1862270976	42	6484
2026-01-02 15:09:26.41	214.04	26.97	-35.4	-36.3	24.2	0.00e+00	122	39	0	1865416704	42	6497
2026-01-02 15:09:27.42	214.00	26.80	-35.3	-36.2	24.3	0.00e+00	120	39	0	1868562432	42	6421
2026-01-02 15:09:28.43	213.96	26.63	-35.3	-36.2	24.3	0.00e+00	122	39	0	1871708160	42	6369
2026-01-02 15:09:29.43	213.92	26.47	-35.3	-36.2	24.3	0.00e+00	123	39	0	1874853888	42	6416
2026-01-02 15:09:30.44	213.88	26.30	-35.2	-36.1	24.3	0.00e+00	122	39	0	1877999616	42	6336
2026-01-02 15:09:31.45	213.85	26.13	-35.2	-36.1	24.4	0.00e+00	120	39	0	1881145344	42	6319
2026-01-02 15:09:32.46	213.81	25.96	-35.2	-36.1	24.3	0.00e+00	122	39	0	1884291072	42	6304
2026-01-02 15:09:33.47	213.77	25.80	-35.2	-36.1	24.4	0.00e+00	120	39	0	1887436800	42	6343
2026-01-02 15:09:34.48	213.74	25.63	-35.1	-36.0	24.5	0.00e+00	120	39	0	1890582528	42	6248
2026-01-02 15:09:35.49	213.70	25.47	-35.2	-36.1	24.4	0.00e+00	120	39	0	1893728256	42	6328
2026-01-02 15:09:36.50	213.67	25.31	-35.3	-36.2	24.3	0.00e+00	122	39	0	1896873984	42	6351
2026-01-02 15:09:37.51	213.63	25.15	-35.2	-36.1	24.3	0.00e+00	120	39	0	1900019712	42	6333
2026-01-02 15:09:38.52	213.60	24.99	-35.4	-36.3	24.1	0.00e+00	123	39	0	1903165440	42	6476
2026-01-02 15:09:39.53	213.56	24.83	-35.6	-36.6	24.0	0.00e+00	121	39	0	1906311168	42	6656
2026-01-02 15:09:40.54	213.53	24.67	-35.6	-36.5	24.0	0.00e+00	123	39	0	1909456896	42	6612
2026-01-02 15:09:41.55	213.50	24.51	-35.5	-36.5	24.1	0.00e+00	123	39	0	1912602624	42	6587
2026-01-02 15:09:42.56	213.46	24.36	-35.7	-36.7	23.9	0.00e+00	120	39	0	1915748352	44	6003
2026-01-02 15:09:43.57	213.43	24.20	-35.7	-36.7	23.8	0.00e+00	123	39	0	1918894080	44	6018
2026-01-02 15:09:44.58	213.40	24.04	-35.8	-36.8	23.7	0.00e+00	120	39	0	1922039808	44	6071
2026-01-02 15:09:45.59	213.37	23.89	-35.9	-36.8	23.7	0.00e+00	123	39	0	1925185536	44	6119
2026-01-02 15:09:46.60	213.34	23.74	-35.8	-36.7	23.7	0.00e+00	120	39	0	1928331264	44	6045
2026-01-02 15:09:47.61	213.31	23.59	-35.9	-36.8	23.8	0.00e+00	123	39	0	1931476992	44	6123
2026-01-02 15:09:48.61	213.28	23.44	-35.7	-36.6	23.9	0.00e+00	127	39	0	1934622720	44	5981
2026-01-02 15:09:49.62	213.25	23.29	-35.7	-36.7	23.8	0.00e+00	122	39	0	1937768448	44	5996
2026-01-02 15:09:50.63	213.22	23.14	-35.5	-36.5	24.0	0.00e+00	122	39	0	1941962752	44	5867
2026-01-02 15:09:51.64	213.19	22.99	-35.6	-36.5	24.0	0.00e+00	122	39	0	1944059904	44	5920
2026-01-02 15:09:52.65	213.16	22.84	-35.4	-36.3	24.0	0.00e+00	120	39	0	1947205632	44	5788
2026-01-02 15:09:53.66	213.13	22.69	-35.4	-36.4	24.0	0.00e+00	122	39	0	1950351360	44	5809
2026-01-02 15:09:54.67	213.10	22.55	-35.4	-36.3	24.0	0.00e+00	122	39	0	1953497088	44	5784
2026-01-02 15:09:55.68	213.07	22.40	-35.3	-36.2	24.1	0.00e+00	122	39	0	1956642816	44	5696
2026-01-02 15:09:56.69	213.04	22.26	-35.1	-36.0	24.2	0.00e+00	123	39	0	1960837120	44	5582
2026-01-02 15:09:57.70	213.01	22.11	-35.0	-35.9	24.2	0.00e+00	122	39	0	1963982848	44	5500
2026-01-02 15:09:58.71	212.99	21.97	-35.1	-36.0	24.2	0.00e+00	122	39	0	1967128576	44	5564
2026-01-02 15:09:59.72	212.96	21.83	-35.0	-35.9	24.3	0.00e+00	120	39	0	1969225728	44	5511
