passes_logs/2026/01/12/T1/T1__20260112_120514_SUOMI_NPP_rec.log

#Pass ID: 20260112_120514_SUOMI NPP
#Satellite: SUOMI NPP
#Configuration: NPP
#almurnet v.1.7.20251203
#Start time: 2026-01-12 12:05:14

#Version: 2.0.20230620
#Station: T1
#Location: 37.570604 lon 55.790049 lat
#TLE: 1 37849U 11061A   26011.93213985  .00000107  00000+0  71660-4 0  9991
#TLE: 2 37849  98.7807 314.0072 0002512  68.9429 291.2016 14.19524668736279

#Time	Az	El	Level	Level2	SNR	BER	BlckErr	Temp	State	Recorded	gain1	gain2
2026-01-12 12:05:14.29	231.91	4.98	-51.9	-67.0	3.8	1.49e+00	0	37	0	0	75	20350
2026-01-12 12:05:15.28	232.03	5.03	-51.9	-66.9	3.8	1.49e+00	0	38	104	0	75	20214
2026-01-12 12:05:16.28	232.14	5.08	-51.9	-67.0	3.8	1.49e+00	0	38	104	0	75	20405
2026-01-12 12:05:17.27	232.26	5.12	-51.9	-67.0	3.8	1.49e+00	0	38	104	0	75	20364
2026-01-12 12:05:18.26	232.37	5.17	-51.8	-66.9	3.8	1.49e+00	0	38	104	0	75	20296
2026-01-12 12:05:19.26	232.49	5.22	-51.8	-67.0	3.8	1.49e+00	0	38	104	0	75	20347
2026-01-12 12:05:20.25	232.60	5.26	-51.8	-67.0	3.8	1.49e+00	0	38	104	0	75	20308
2026-01-12 12:05:21.24	232.72	5.31	-51.9	-67.0	3.8	1.49e+00	0	38	104	0	75	20310
2026-01-12 12:05:22.24	232.83	5.36	-51.9	-67.0	3.8	1.49e+00	0	38	104	0	75	20427
2026-01-12 12:05:23.23	232.95	5.40	-51.9	-66.9	3.8	1.49e+00	0	38	104	0	75	20225
2026-01-12 12:05:24.22	233.07	5.45	-51.8	-67.0	3.8	1.49e+00	0	38	104	0	75	20311
2026-01-12 12:05:25.22	233.18	5.50	-51.9	-67.0	3.8	1.49e+00	0	38	104	0	75	20306
2026-01-12 12:05:26.21	233.30	5.55	-51.8	-67.0	3.8	1.49e+00	0	38	104	0	75	20312
2026-01-12 12:05:27.20	233.42	5.59	-51.8	-67.0	3.8	1.49e+00	0	38	104	0	75	20335
2026-01-12 12:05:28.19	233.54	5.64	-51.8	-67.0	3.8	1.49e+00	0	38	104	0	75	20343
2026-01-12 12:05:29.19	233.66	5.69	-51.8	-67.0	3.8	1.49e+00	0	38	104	0	75	20352
2026-01-12 12:05:30.18	233.78	5.73	-51.8	-66.9	3.8	1.49e+00	0	38	104	0	75	20300
2026-01-12 12:05:31.17	233.89	5.78	-51.8	-66.9	3.8	1.49e+00	0	38	104	0	75	20280
2026-01-12 12:05:32.17	234.01	5.83	-51.8	-66.9	3.8	1.49e+00	0	38	104	0	75	20248
2026-01-12 12:05:33.16	234.13	5.87	-51.8	-66.9	3.8	1.49e+00	0	38	104	0	75	20238
2026-01-12 12:05:34.15	234.25	5.92	-51.8	-66.9	3.8	1.49e+00	0	38	104	0	75	20208
2026-01-12 12:05:35.15	234.38	5.97	-51.8	-67.0	3.8	1.49e+00	0	38	104	0	75	20311
2026-01-12 12:05:36.14	234.50	6.01	-51.8	-66.9	3.8	1.49e+00	0	38	104	0	75	20216
2026-01-12 12:05:37.13	234.62	6.06	-51.8	-66.9	3.8	1.49e+00	0	38	104	0	75	20273
2026-01-12 12:05:38.13	234.74	6.11	-51.8	-67.0	3.8	1.49e+00	0	39	104	0	75	20375
2026-01-12 12:05:39.12	234.86	6.15	-51.8	-66.9	3.8	1.49e+00	0	39	104	0	75	20244
2026-01-12 12:05:40.11	234.99	6.20	-51.8	-67.0	3.8	1.49e+00	0	38	104	0	75	20306
2026-01-12 12:05:41.10	235.11	6.25	-51.8	-66.9	3.8	1.49e+00	0	38	104	0	75	20272
2026-01-12 12:05:42.10	235.23	6.29	-51.8	-66.9	3.8	1.49e+00	0	38	104	0	75	20165
2026-01-12 12:05:43.09	235.36	6.34	-51.8	-66.9	3.8	1.49e+00	0	38	104	0	75	20096
2026-01-12 12:05:44.08	235.48	6.39	-51.8	-66.8	3.8	1.49e+00	0	39	104	0	75	20067
2026-01-12 12:05:45.08	235.61	6.43	-51.8	-66.8	3.8	1.49e+00	0	39	104	0	75	19988
2026-01-12 12:05:46.07	235.73	6.48	-51.8	-66.8	3.8	1.49e+00	0	39	104	0	75	20039
2026-01-12 12:05:47.06	235.86	6.52	-51.8	-66.8	3.8	1.49e+00	0	39	104	0	75	20043
2026-01-12 12:05:48.05	235.98	6.57	-51.8	-66.8	3.8	1.49e+00	0	38	104	0	75	20070
2026-01-12 12:05:49.05	236.11	6.62	-51.8	-66.9	3.8	1.49e+00	0	39	104	0	75	20208
2026-01-12 12:05:50.04	236.24	6.66	-51.8	-66.9	3.8	1.49e+00	0	39	104	0	75	20176
2026-01-12 12:05:51.03	236.36	6.71	-51.8	-66.9	3.8	1.49e+00	0	39	104	0	75	20215
2026-01-12 12:05:52.03	236.49	6.76	-51.8	-66.9	3.8	1.49e+00	0	39	104	0	75	20265
2026-01-12 12:05:53.02	236.62	6.80	-51.8	-66.9	3.8	1.49e+00	0	39	104	0	75	20200
2026-01-12 12:05:54.01	236.75	6.85	-51.8	-66.9	3.8	1.49e+00	0	39	104	0	75	20282
2026-01-12 12:05:55.01	236.88	6.89	-51.8	-66.9	3.8	1.49e+00	0	39	104	0	75	20251
2026-01-12 12:05:56.00	237.00	6.94	-51.8	-66.9	3.8	1.49e+00	0	39	104	0	75	20239
2026-01-12 12:05:56.99	237.13	6.99	-51.8	-66.9	3.8	1.49e+00	0	39	104	0	75	20145
2026-01-12 12:05:57.99	237.26	7.03	-51.8	-66.9	3.8	1.49e+00	0	39	104	0	75	20074
2026-01-12 12:05:58.98	237.39	7.08	-51.8	-66.8	3.8	1.49e+00	0	39	104	0	75	20013
2026-01-12 12:05:59.97	237.52	7.12	-51.8	-66.8	3.8	1.49e+00	0	39	104	0	75	19873
2026-01-12 12:06:00.97	237.66	7.17	-51.8	-66.7	3.8	1.49e+00	0	39	104	0	75	19815
2026-01-12 12:06:01.96	237.79	7.22	-51.8	-66.7	3.8	1.49e+00	0	39	104	0	75	19802
2026-01-12 12:06:02.95	237.92	7.26	-51.8	-66.7	3.8	1.49e+00	0	39	104	0	75	19703
2026-01-12 12:06:03.95	238.05	7.31	-51.8	-66.7	3.8	1.49e+00	0	39	104	0	75	19727
2026-01-12 12:06:04.94	238.18	7.35	-51.8	-66.7	3.8	1.49e+00	0	39	104	0	75	19667
2026-01-12 12:06:05.93	238.32	7.40	-51.8	-66.5	3.8	1.49e+00	0	39	104	0	75	19341
2026-01-12 12:06:06.93	238.45	7.44	-51.8	-66.6	3.8	1.49e+00	0	39	104	0	75	19498
2026-01-12 12:06:07.92	238.58	7.49	-51.8	-66.6	3.8	1.49e+00	0	39	104	0	75	19503
2026-01-12 12:06:08.91	238.72	7.54	-51.8	-66.8	3.8	1.49e+00	0	39	104	0	75	19852
2026-01-12 12:06:09.91	238.85	7.58	-51.8	-66.8	3.8	1.49e+00	0	39	104	0	75	19868
2026-01-12 12:06:10.90	238.99	7.63	-51.8	-66.7	3.8	1.49e+00	0	39	104	0	75	19650
2026-01-12 12:06:11.89	239.12	7.67	-51.8	-66.5	3.8	1.49e+00	0	39	104	0	75	19322
2026-01-12 12:06:12.89	239.26	7.72	-51.8	-66.5	3.8	1.49e+00	0	39	104	0	75	19313
2026-01-12 12:06:13.88	239.40	7.76	-51.8	-66.6	3.8	1.49e+00	0	39	104	0	75	19410
2026-01-12 12:06:14.87	239.53	7.81	-51.8	-66.7	3.8	1.49e+00	0	39	104	0	75	19714
2026-01-12 12:06:15.87	239.67	7.85	-51.8	-66.8	3.8	1.49e+00	0	39	104	0	75	19961
2026-01-12 12:06:16.86	239.81	7.90	-51.8	-66.8	3.8	1.49e+00	0	39	104	0	75	19871
2026-01-12 12:06:17.85	239.94	7.94	-51.8	-66.6	3.8	1.49e+00	0	39	104	0	75	19591
2026-01-12 12:06:18.85	240.08	7.99	-51.8	-66.5	3.8	1.49e+00	0	39	104	0	75	19294
2026-01-12 12:06:19.84	240.22	8.03	-51.8	-66.3	3.8	1.49e+00	0	39	104	0	75	18889
2026-01-12 12:06:20.83	240.36	8.08	-51.8	-66.1	3.8	1.49e+00	0	39	104	0	75	18474
2026-01-12 12:06:21.83	240.50	8.12	-51.8	-66.0	3.8	1.49e+00	0	39	104	0	75	18103
2026-01-12 12:06:22.82	240.64	8.17	-51.8	-66.0	3.8	1.49e+00	0	39	104	0	75	18103
2026-01-12 12:06:23.81	240.78	8.21	-51.8	-65.8	3.8	1.49e+00	0	40	104	0	75	17841
2026-01-12 12:06:24.81	240.92	8.26	-51.7	-65.5	3.8	1.49e+00	0	40	104	0	75	17155
2026-01-12 12:06:25.80	241.06	8.30	-51.7	-65.0	3.8	1.49e+00	0	40	104	0	75	16179
2026-01-12 12:06:26.79	241.20	8.34	-51.7	-64.6	3.9	1.49e+00	0	39	104	0	75	15559
2026-01-12 12:06:27.79	241.35	8.39	-51.7	-64.8	3.8	1.48e+00	0	39	104	0	75	15829
2026-01-12 12:06:28.78	241.49	8.43	-51.8	-66.0	3.8	1.49e+00	0	39	104	0	75	18245
2026-01-12 12:06:29.78	241.63	8.48	-51.8	-66.6	3.8	1.49e+00	0	39	104	0	75	19549
2026-01-12 12:06:30.77	241.78	8.52	-51.6	-64.0	3.9	1.49e+00	0	40	104	0	75	14529
2026-01-12 12:06:31.76	241.92	8.56	-51.1	-59.8	6.0	6.08e-01	0	40	0	1048576	74	9409
2026-01-12 12:06:32.76	242.06	8.61	-50.2	-56.5	9.0	9.16e-02	0	40	0	2097152	72	7254
2026-01-12 12:06:33.75	242.21	8.65	-49.4	-54.2	11.4	5.87e-03	0	40	0	4194304	70	6256
2026-01-12 12:06:34.74	242.35	8.70	-48.6	-52.7	13.0	6.48e-05	0	40	0	6291456	69	5534
2026-01-12 12:06:35.74	242.50	8.74	-48.0	-51.6	14.1	5.30e-06	0	40	0	8388608	68	5177
2026-01-12 12:06:36.73	242.64	8.78	-47.5	-51.0	14.5	2.20e-06	0	40	0	9437184	67	5113
2026-01-12 12:06:37.72	242.79	8.83	-47.6	-51.1	14.4	1.50e-06	0	40	0	11534336	67	5188
2026-01-12 12:06:38.72	242.94	8.87	-47.9	-51.6	13.9	2.20e-06	0	40	0	13631488	67	5500
2026-01-12 12:06:39.71	243.08	8.91	-48.5	-52.6	12.9	1.90e-05	0	40	0	15728640	67	6166
2026-01-12 12:06:40.71	243.23	8.96	-49.3	-54.1	11.6	1.80e-04	0	40	0	17825792	69	6524
2026-01-12 12:06:41.70	243.38	9.00	-49.9	-55.3	10.3	3.96e-03	0	40	0	18874368	70	7098
2026-01-12 12:06:42.69	243.53	9.04	-51.8	-64.9	3.8	3.42e-01	0	40	104	20971520	74	16999
2026-01-12 12:06:43.69	243.68	9.09	-49.6	-54.7	7.8	1.49e+00	0	40	104	20971520	71	6260
2026-01-12 12:06:44.68	243.83	9.13	-50.3	-56.4	9.4	2.05e-02	0	40	0	22020096	71	7605
2026-01-12 12:06:45.72	243.98	9.17	-49.5	-54.4	11.3	5.15e-02	0	40	0	24117248	71	5997
2026-01-12 12:06:46.70	244.13	9.22	-50.8	-58.4	7.4	2.91e-03	0	40	0	26214400	72	9031
2026-01-12 12:06:47.70	244.28	9.26	-49.6	-54.6	10.8	3.58e-01	0	40	0	27262976	71	6191
2026-01-12 12:06:48.69	244.43	9.30	-48.9	-53.2	12.5	9.68e-05	0	40	0	29360128	69	5867
2026-01-12 12:06:49.83	244.61	9.35	-48.7	-52.8	12.9	7.62e-05	0	40	0	31457280	69	5643
2026-01-12 12:06:50.73	244.75	9.39	-48.7	-52.8	12.9	3.50e-05	0	40	0	33554432	69	5616
2026-01-12 12:06:51.84	244.92	9.43	-48.6	-52.6	13.1	3.43e-05	0	40	0	35651584	69	5505
2026-01-12 12:06:52.78	245.06	9.47	-48.5	-52.5	13.3	2.51e-05	0	40	0	36700160	68	5736
2026-01-12 12:06:53.94	245.24	9.52	-48.5	-52.4	13.3	3.12e-05	0	40	0	38797312	68	5695
2026-01-12 12:06:54.81	245.37	9.56	-48.3	-52.2	13.6	1.37e-05	0	40	0	40894464	68	5541
2026-01-12 12:06:56.12	245.58	9.62	-48.4	-52.3	13.5	1.22e-05	0	40	0	42991616	68	5611
2026-01-12 12:06:57.28	245.76	9.66	-48.2	-51.9	13.9	1.22e-05	0	40	0	45088768	68	5353
2026-01-12 12:06:58.14	245.89	9.70	-48.2	-51.9	13.9	3.00e-06	0	40	0	47185920	68	5359
2026-01-12 12:06:59.27	246.07	9.75	-47.8	-51.4	14.2	3.00e-06	0	40	0	49283072	67	5377
2026-01-12 12:07:00.13	246.20	9.78	-47.7	-51.2	14.4	0.00e+00	0	40	0	51380224	67	5241
2026-01-12 12:07:01.30	246.39	9.83	-47.5	-51.0	14.7	7.00e-07	0	40	0	53477376	67	5102
2026-01-12 12:07:02.15	246.52	9.87	-47.5	-50.9	14.7	0.00e+00	0	40	0	54525952	66	5346
2026-01-12 12:07:03.29	246.70	9.91	-47.6	-51.1	14.5	0.00e+00	0	40	0	56623104	66	5506
2026-01-12 12:07:04.14	246.84	9.95	-47.5	-50.9	14.7	0.00e+00	0	40	0	58720256	66	5372
2026-01-12 12:07:05.28	247.02	9.99	-47.8	-51.3	14.3	7.00e-07	0	40	0	60817408	66	5618
2026-01-12 12:07:06.13	247.15	10.03	-47.8	-51.3	14.3	0.00e+00	0	40	0	61865984	66	5650
2026-01-12 12:07:07.49	247.37	10.08	-48.0	-51.7	13.9	3.80e-06	0	40	0	65011712	66	5916
2026-01-12 12:07:08.20	247.48	10.11	-48.0	-51.7	14.0	3.80e-06	0	40	0	66060288	66	5882
2026-01-12 12:07:09.48	247.69	10.16	-47.9	-51.6	14.0	1.50e-06	0	40	0	68157440	66	5796
2026-01-12 12:07:10.19	247.81	10.19	-47.7	-51.2	14.5	0.00e+00	0	40	0	70254592	66	5538
2026-01-12 12:07:11.75	248.06	10.26	-47.8	-51.4	14.2	2.20e-06	0	40	0	72351744	66	5702
2026-01-12 12:07:12.46	248.17	10.28	-47.7	-51.1	14.5	1.50e-06	0	40	0	74448896	66	5512
2026-01-12 12:07:13.74	248.38	10.33	-47.5	-50.8	14.8	0.00e+00	0	40	0	76546048	66	5315
2026-01-12 12:07:14.48	248.50	10.36	-47.5	-50.8	14.8	0.00e+00	0	40	0	77594624	66	5333
2026-01-12 12:07:15.84	248.72	10.42	-47.6	-51.0	14.6	0.00e+00	0	40	0	80740352	66	5443
2026-01-12 12:07:16.55	248.84	10.45	-47.6	-51.0	14.6	1.50e-06	0	40	0	81788928	66	5446
2026-01-12 12:07:17.83	249.05	10.50	-47.7	-51.3	14.3	7.00e-07	0	40	0	83886080	66	5621
2026-01-12 12:07:18.56	249.17	10.52	-47.7	-51.3	14.3	1.50e-06	0	40	0	85983232	66	5646
2026-01-12 12:07:19.84	249.38	10.57	-47.8	-51.4	14.2	1.50e-06	0	40	0	88080384	66	5707
2026-01-12 12:07:20.56	249.50	10.60	-47.9	-51.6	14.1	0.00e+00	0	40	0	89128960	66	5797
2026-01-12 12:07:21.84	249.71	10.65	-47.9	-51.5	14.1	3.00e-06	0	40	0	91226112	66	5771
2026-01-12 12:07:22.55	249.83	10.68	-47.8	-51.4	14.3	1.50e-06	0	40	0	93323264	66	5669
2026-01-12 12:07:23.83	250.05	10.73	-47.8	-51.4	14.2	7.00e-07	0	40	0	95420416	66	5714
2026-01-12 12:07:24.59	250.17	10.76	-47.8	-51.4	14.2	2.20e-06	0	40	0	96468992	66	5702
2026-01-12 12:07:26.17	250.44	10.82	-47.8	-51.3	14.3	1.50e-06	0	40	0	99614720	66	5651
2026-01-12 12:07:26.80	250.55	10.84	-47.8	-51.5	14.2	2.20e-06	0	40	0	100663296	66	5726
2026-01-12 12:07:28.44	250.82	10.90	-47.9	-51.5	14.2	3.00e-06	0	40	0	103809024	66	5748
2026-01-12 12:07:29.01	250.92	10.92	-47.8	-51.4	14.3	7.00e-07	0	40	0	104857600	66	5670
2026-01-12 12:07:30.72	251.21	10.99	-47.9	-51.6	14.1	7.00e-07	0	40	0	108003328	66	5792
2026-01-12 12:07:31.29	251.31	11.01	-48.1	-51.8	13.9	1.50e-06	0	40	0	109051904	66	5938
2026-01-12 12:07:32.98	251.59	11.07	-48.1	-51.8	13.8	7.00e-07	0	40	0	112197632	66	5988
2026-01-12 12:07:33.55	251.69	11.09	-48.0	-51.7	14.0	3.80e-06	0	40	0	113246208	66	5865
2026-01-12 12:07:35.25	251.98	11.15	-48.1	-51.8	13.8	6.10e-06	0	40	0	116391936	66	5986
2026-01-12 12:07:35.82	252.08	11.17	-48.1	-51.8	13.8	4.50e-06	0	40	0	117440512	66	5983
2026-01-12 12:07:37.53	252.38	11.23	-48.1	-52.0	13.7	7.60e-06	0	40	0	120586240	67	5744
2026-01-12 12:07:38.10	252.48	11.26	-48.2	-52.0	13.7	1.14e-05	0	40	0	121634816	67	5761
2026-01-12 12:07:39.81	252.77	11.32	-48.1	-51.9	13.8	9.10e-06	0	40	0	125829120	67	5671
2026-01-12 12:07:40.42	252.88	11.34	-48.2	-52.0	13.7	6.80e-06	0	40	0	126877696	67	5754
2026-01-12 12:07:41.98	253.15	11.39	-48.2	-52.0	13.6	9.90e-06	0	40	0	128974848	67	5781
2026-01-12 12:07:42.69	253.27	11.42	-48.1	-51.9	13.7	7.60e-06	0	40	0	131072000	67	5702
2026-01-12 12:07:44.21	253.54	11.47	-48.3	-52.2	13.5	6.10e-06	0	40	0	133169152	67	5860
2026-01-12 12:07:44.92	253.67	11.49	-48.2	-52.0	13.7	9.10e-06	0	40	0	135266304	67	5729
2026-01-12 12:07:46.26	253.90	11.54	-48.3	-52.2	13.5	8.30e-06	0	40	0	137363456	67	5856
2026-01-12 12:07:46.97	254.03	11.56	-48.3	-52.2	13.5	9.10e-06	0	40	0	138412032	67	5906
2026-01-12 12:07:48.27	254.26	11.61	-48.3	-52.2	13.5	2.28e-05	0	40	0	141557760	67	5898
2026-01-12 12:07:48.98	254.38	11.63	-48.3	-52.3	13.3	1.29e-05	0	40	0	142606336	67	5974
2026-01-12 12:07:50.26	254.61	11.68	-48.2	-52.1	13.5	1.98e-05	0	40	0	144703488	67	5841
2026-01-12 12:07:51.00	254.74	11.70	-48.3	-52.4	13.3	1.29e-05	0	40	0	146800640	67	5995
2026-01-12 12:07:52.28	254.97	11.74	-48.2	-52.1	13.5	6.80e-06	0	40	0	148897792	67	5837
2026-01-12 12:07:52.99	255.10	11.77	-48.2	-52.2	13.5	9.90e-06	0	40	0	149946368	67	5879
2026-01-12 12:07:54.27	255.33	11.81	-48.1	-51.9	13.7	5.30e-06	0	40	0	152043520	67	5717
2026-01-12 12:07:54.99	255.46	11.83	-48.3	-52.2	13.5	9.90e-06	0	40	0	154140672	67	5888
2026-01-12 12:07:56.27	255.69	11.87	-48.2	-52.0	13.6	1.83e-05	0	40	0	156237824	67	5770
2026-01-12 12:07:56.98	255.82	11.90	-48.3	-52.2	13.5	1.37e-05	0	40	0	157286400	67	5860
2026-01-12 12:07:58.26	256.05	11.94	-48.4	-52.3	13.4	1.22e-05	0	40	0	160432128	67	5971
2026-01-12 12:07:59.09	256.20	11.96	-48.4	-52.4	13.3	1.44e-05	0	40	0	161480704	67	5998
2026-01-12 12:08:00.50	256.45	12.01	-48.2	-52.0	13.6	1.14e-05	0	40	0	164626432	67	5776
2026-01-12 12:08:01.21	256.58	12.03	-48.2	-52.0	13.7	7.60e-06	0	40	0	165675008	67	5737
2026-01-12 12:08:02.49	256.82	12.07	-48.1	-51.9	13.7	3.00e-06	0	40	0	167772160	67	5714
2026-01-12 12:08:03.21	256.95	12.09	-48.1	-51.9	13.8	4.50e-06	0	40	0	168820736	67	5676
2026-01-12 12:08:04.74	257.23	12.14	-48.1	-51.9	13.8	7.60e-06	0	40	0	171966464	67	5686
2026-01-12 12:08:05.46	257.36	12.16	-48.0	-51.7	14.0	5.30e-06	0	40	0	173015040	67	5558
2026-01-12 12:08:06.73	257.59	12.20	-48.1	-51.9	13.8	5.30e-06	0	40	0	176160768	67	5671
2026-01-12 12:08:07.46	257.73	12.22	-48.1	-52.0	13.8	4.50e-06	0	40	0	177209344	67	5726
2026-01-12 12:08:08.74	257.97	12.26	-48.1	-51.9	13.8	4.50e-06	0	40	0	179306496	67	5687
2026-01-12 12:08:09.46	258.10	12.28	-48.2	-52.1	13.6	8.30e-06	0	40	0	181403648	67	5831
2026-01-12 12:08:10.75	258.34	12.32	-48.4	-52.3	13.5	5.30e-06	0	40	0	183500800	67	5949
2026-01-12 12:08:11.49	258.48	12.34	-48.3	-52.2	13.5	9.90e-06	0	40	0	184549376	67	5876
2026-01-12 12:08:12.77	258.71	12.37	-48.3	-52.2	13.5	9.90e-06	0	40	0	186646528	67	5894
2026-01-12 12:08:13.48	258.85	12.39	-48.1	-51.9	13.8	5.30e-06	0	40	0	188743680	67	5692
2026-01-12 12:08:14.76	259.09	12.43	-48.2	-52.2	13.5	4.50e-06	0	40	0	190840832	67	5876
2026-01-12 12:08:15.50	259.22	12.45	-48.2	-52.2	13.5	1.37e-05	0	40	0	191889408	67	5916
2026-01-12 12:08:16.78	259.46	12.49	-48.1	-52.0	13.7	6.80e-06	0	40	0	195035136	67	5761
2026-01-12 12:08:17.52	259.60	12.51	-48.1	-51.9	13.8	3.00e-06	0	40	0	196083712	67	5700
2026-01-12 12:08:18.80	259.84	12.54	-48.0	-51.8	13.9	3.80e-06	0	40	0	198180864	67	5654
2026-01-12 12:08:19.51	259.98	12.56	-48.0	-51.7	14.1	2.20e-06	0	40	0	200278016	67	5550
2026-01-12 12:08:20.79	260.22	12.59	-47.9	-51.5	14.2	1.50e-06	0	40	0	202375168	67	5424
2026-01-12 12:08:21.75	260.40	12.62	-47.9	-51.5	14.1	1.50e-06	0	40	0	204472320	67	5460
2026-01-12 12:08:22.74	260.59	12.64	-47.8	-51.3	14.4	7.00e-07	0	40	0	205520896	67	5335
2026-01-12 12:08:23.74	260.78	12.67	-47.6	-51.1	14.6	0.00e+00	0	40	0	207618048	67	5182
2026-01-12 12:08:24.73	260.97	12.70	-47.5	-51.0	14.8	7.00e-07	0	40	0	209715200	67	5108
2026-01-12 12:08:25.73	261.16	12.72	-47.4	-50.8	14.9	7.00e-07	0	40	0	211812352	66	5305
2026-01-12 12:08:26.72	261.35	12.75	-47.3	-50.6	15.0	0.00e+00	0	40	0	212860928	66	5213
2026-01-12 12:08:27.72	261.54	12.77	-47.3	-50.6	15.1	0.00e+00	0	40	0	214958080	66	5186
2026-01-12 12:08:28.71	261.73	12.79	-47.3	-50.6	15.1	0.00e+00	0	40	0	217055232	66	5166
2026-01-12 12:08:29.70	261.92	12.82	-47.4	-50.7	15.0	0.00e+00	0	40	0	219152384	66	5251
2026-01-12 12:08:30.78	262.12	12.84	-47.6	-51.0	14.8	0.00e+00	0	40	0	221249536	66	5409
2026-01-12 12:08:31.63	262.29	12.86	-47.6	-51.0	14.7	0.00e+00	0	40	0	222298112	66	5443
2026-01-12 12:08:32.97	262.55	12.90	-47.8	-51.4	14.3	1.50e-06	0	40	0	225443840	66	5674
2026-01-12 12:08:33.68	262.68	12.91	-47.8	-51.4	14.3	2.20e-06	0	40	0	226492416	66	5700
2026-01-12 12:08:35.17	262.97	12.95	-47.8	-51.4	14.2	7.00e-07	0	40	0	228589568	66	5722
2026-01-12 12:08:35.88	263.11	12.96	-47.6	-51.1	14.6	7.00e-07	0	40	0	230686720	66	5511
2026-01-12 12:08:37.15	263.35	12.99	-47.4	-50.7	15.0	0.00e+00	0	40	0	232783872	66	5267
2026-01-12 12:08:37.86	263.49	13.01	-47.2	-50.5	15.2	0.00e+00	0	40	0	233832448	66	5127
2026-01-12 12:08:39.25	263.76	13.04	-47.0	-50.2	15.5	0.00e+00	0	40	0	236978176	65	5232
2026-01-12 12:08:39.96	263.90	13.05	-47.1	-50.4	15.3	0.00e+00	0	40	0	238026752	65	5346
2026-01-12 12:08:41.24	264.15	13.08	-47.3	-50.6	15.1	0.00e+00	0	40	0	240123904	65	5486
2026-01-12 12:08:41.95	264.29	13.09	-47.5	-50.9	14.8	0.00e+00	0	40	0	242221056	65	5667
2026-01-12 12:08:43.24	264.54	13.12	-47.6	-51.0	14.7	0.00e+00	0	40	0	244318208	65	5788
2026-01-12 12:08:43.95	264.68	13.13	-47.6	-51.0	14.7	7.00e-07	0	40	0	245366784	65	5748
2026-01-12 12:08:45.22	264.93	13.16	-47.4	-50.7	15.0	0.00e+00	0	40	0	247463936	65	5555
2026-01-12 12:08:45.94	265.07	13.17	-47.4	-50.6	15.1	0.00e+00	0	40	0	249561088	65	5518
2026-01-12 12:08:47.21	265.32	13.20	-47.1	-50.2	15.5	0.00e+00	0	40	0	251658240	65	5252
2026-01-12 12:08:47.93	265.46	13.21	-47.3	-50.4	15.4	9.90e-06	0	40	0	252706816	66	5080
2026-01-12 12:08:49.20	265.71	13.24	-47.1	-50.2	15.5	0.00e+00	0	40	0	255852544	66	4983
2026-01-12 12:08:50.02	265.87	13.25	-47.2	-50.5	15.2	0.00e+00	0	40	0	256901120	66	5118
2026-01-12 12:08:51.16	266.10	13.27	-47.5	-50.8	14.8	0.00e+00	0	40	0	258998272	66	5327
2026-01-12 12:08:52.01	266.27	13.29	-47.8	-51.3	14.4	7.00e-07	0	40	0	261095424	66	5624
2026-01-12 12:08:53.15	266.49	13.31	-47.9	-51.6	14.1	7.00e-07	0	40	0	263192576	66	5809
2026-01-12 12:08:54.00	266.66	13.32	-47.9	-51.5	14.2	1.50e-06	0	40	0	264241152	66	5776
2026-01-12 12:08:55.14	266.89	13.34	-47.8	-51.3	14.4	7.00e-07	0	40	0	266338304	66	5621
2026-01-12 12:08:56.32	267.12	13.36	-47.6	-50.9	14.8	0.00e+00	0	40	0	268435456	66	5398
2026-01-12 12:08:57.17	267.29	13.37	-47.6	-50.9	14.8	0.00e+00	0	40	0	270532608	66	5402
2026-01-12 12:08:58.31	267.52	13.39	-47.8	-51.3	14.4	7.00e-07	0	40	0	272629760	66	5625
2026-01-12 12:08:59.16	267.69	13.41	-48.1	-51.9	13.9	0.00e+00	0	40	0	273678336	66	6005
2026-01-12 12:09:00.30	267.91	13.42	-48.5	-52.6	13.2	1.22e-05	0	40	0	275775488	67	6133
2026-01-12 12:09:01.15	268.08	13.44	-48.7	-52.8	12.9	4.19e-05	0	40	0	277872640	67	6336
2026-01-12 12:09:02.30	268.31	13.45	-49.2	-53.7	12.2	1.13e-04	0	40	0	279969792	69	6216
2026-01-12 12:09:03.15	268.48	13.47	-48.9	-53.2	12.7	1.27e-04	0	40	0	282066944	69	5901
2026-01-12 12:09:04.37	268.73	13.48	-48.6	-52.6	13.3	1.98e-05	0	40	0	284164096	69	5483
2026-01-12 12:09:05.22	268.90	13.50	-48.4	-52.2	13.6	1.14e-05	0	40	0	285212672	68	5579
2026-01-12 12:09:06.42	269.14	13.51	-48.0	-51.7	14.3	2.20e-06	0	40	0	287309824	68	5224
2026-01-12 12:09:07.28	269.31	13.52	-48.1	-51.7	14.2	3.00e-06	0	40	0	289406976	68	5243
2026-01-12 12:09:08.46	269.55	13.54	-48.2	-51.9	14.1	1.50e-06	0	40	0	291504128	68	5350
2026-01-12 12:09:09.31	269.72	13.55	-48.4	-52.2	13.7	4.50e-06	0	40	0	293601280	68	5585
2026-01-12 12:09:10.45	269.95	13.56	-48.5	-52.3	13.5	6.10e-06	0	40	0	295698432	68	5650
2026-01-12 12:09:11.30	270.12	13.57	-48.5	-52.4	13.5	1.29e-05	0	40	0	296747008	68	5702
2026-01-12 12:09:12.58	270.38	13.59	-48.4	-52.3	13.6	9.10e-06	0	40	0	298844160	68	5628
2026-01-12 12:09:13.30	270.52	13.60	-48.2	-51.9	14.0	5.30e-06	0	40	0	300941312	68	5366
2026-01-12 12:09:14.58	270.78	13.61	-48.0	-51.6	14.3	7.00e-07	0	40	0	303038464	68	5199
2026-01-12 12:09:15.29	270.93	13.62	-47.8	-51.4	14.3	0.00e+00	0	40	0	304087040	67	5366
2026-01-12 12:09:16.57	271.18	13.63	-47.9	-51.4	14.3	4.50e-06	0	40	0	307232768	67	5402
2026-01-12 12:09:17.31	271.33	13.64	-47.8	-51.4	14.4	0.00e+00	0	40	0	308281344	67	5358
2026-01-12 12:09:18.59	271.59	13.65	-48.1	-51.7	14.0	2.20e-06	0	40	0	310378496	67	5574
2026-01-12 12:09:19.38	271.75	13.66	-48.2	-52.0	13.8	3.80e-06	0	40	0	312475648	67	5726
2026-01-12 12:09:20.56	271.99	13.67	-48.2	-52.0	13.8	1.50e-06	0	40	0	314572800	67	5725
2026-01-12 12:09:21.42	272.17	13.68	-48.0	-51.6	14.2	2.20e-06	0	40	0	315621376	67	5482
2026-01-12 12:09:22.56	272.40	13.69	-47.8	-51.3	14.5	1.50e-06	0	40	0	317718528	67	5286
2026-01-12 12:09:23.41	272.57	13.69	-47.5	-50.8	14.9	1.50e-06	0	40	0	319815680	67	5009
2026-01-12 12:09:24.54	272.80	13.70	-47.4	-50.6	15.1	0.00e+00	0	40	0	321912832	66	5197
2026-01-12 12:09:25.40	272.97	13.71	-47.4	-50.7	15.1	0.00e+00	0	40	0	322961408	66	5224
2026-01-12 12:09:26.54	273.21	13.71	-47.4	-50.7	15.0	0.00e+00	0	40	0	325058560	66	5235
2026-01-12 12:09:27.39	273.38	13.72	-47.5	-50.8	14.9	0.00e+00	0	40	0	327155712	66	5332
2026-01-12 12:09:28.53	273.61	13.73	-47.8	-51.2	14.5	0.00e+00	0	40	0	329252864	66	5585
2026-01-12 12:09:29.38	273.78	13.73	-47.8	-51.4	14.4	7.00e-07	0	40	0	330301440	66	5679
2026-01-12 12:09:30.52	274.02	13.74	-47.8	-51.3	14.4	0.00e+00	0	40	0	332398592	66	5625
2026-01-12 12:09:31.37	274.19	13.74	-47.6	-51.1	14.7	0.00e+00	0	40	0	334495744	66	5495
2026-01-12 12:09:32.65	274.45	13.75	-47.3	-50.5	15.2	0.00e+00	0	40	0	336592896	66	5157
2026-01-12 12:09:33.39	274.60	13.75	-47.1	-50.2	15.5	0.00e+00	0	40	0	338690048	66	4968
2026-01-12 12:09:34.83	274.89	13.76	-46.8	-49.9	15.8	0.00e+00	0	40	0	340787200	65	5062
2026-01-12 12:09:35.54	275.04	13.76	-46.8	-49.8	15.9	0.00e+00	0	40	0	341835776	65	4990
2026-01-12 12:09:36.82	275.30	13.77	-46.8	-49.9	15.8	0.00e+00	0	40	0	344981504	65	5050
2026-01-12 12:09:37.55	275.45	13.77	-46.8	-49.9	15.8	0.00e+00	0	40	0	346030080	65	5046
2026-01-12 12:09:38.83	275.71	13.77	-47.1	-50.2	15.5	0.00e+00	0	40	0	348127232	65	5267
2026-01-12 12:09:39.57	275.86	13.78	-47.1	-50.3	15.5	0.00e+00	0	40	0	350224384	65	5291
2026-01-12 12:09:40.85	276.12	13.78	-47.1	-50.4	15.3	0.00e+00	0	40	0	352321536	65	5342
2026-01-12 12:09:41.56	276.27	13.78	-47.2	-50.4	15.3	0.00e+00	0	40	0	353370112	65	5369
2026-01-12 12:09:42.84	276.53	13.78	-47.2	-50.4	15.3	0.00e+00	0	40	0	355467264	65	5379
2026-01-12 12:09:43.55	276.67	13.78	-47.3	-50.5	15.2	0.00e+00	0	40	0	357564416	65	5419
2026-01-12 12:09:44.83	276.93	13.78	-47.4	-50.7	15.1	0.00e+00	0	40	0	359661568	65	5535
2026-01-12 12:09:45.55	277.08	13.78	-47.4	-50.7	15.0	0.00e+00	0	40	0	360710144	65	5548
2026-01-12 12:09:46.83	277.34	13.79	-47.4	-50.7	15.0	7.00e-07	0	40	0	363855872	65	5568
2026-01-12 12:09:47.68	277.52	13.79	-47.4	-50.7	15.0	0.00e+00	0	40	0	364904448	65	5585
2026-01-12 12:09:49.10	277.81	13.78	-47.2	-50.5	15.2	0.00e+00	0	40	0	368050176	65	5432
2026-01-12 12:09:49.82	277.95	13.78	-47.2	-50.5	15.2	0.00e+00	0	40	0	369098752	65	5419
2026-01-12 12:09:51.10	278.21	13.78	-47.2	-50.4	15.2	0.00e+00	0	40	0	371195904	65	5376
2026-01-12 12:09:51.81	278.36	13.78	-47.2	-50.3	15.4	0.00e+00	0	40	0	373293056	65	5340
2026-01-12 12:09:53.09	278.62	13.78	-47.4	-50.6	15.1	0.00e+00	0	40	0	375390208	65	5509
2026-01-12 12:09:53.81	278.77	13.78	-47.5	-50.8	14.9	0.00e+00	0	40	0	376438784	65	5624
2026-01-12 12:09:55.09	279.03	13.77	-47.5	-50.8	14.9	0.00e+00	0	40	0	378535936	65	5625
2026-01-12 12:09:55.88	279.19	13.77	-47.5	-50.8	14.9	7.00e-07	0	40	0	380633088	65	5644
2026-01-12 12:09:57.08	279.43	13.77	-47.5	-50.8	14.9	0.00e+00	0	40	0	382730240	65	5639
2026-01-12 12:09:57.93	279.61	13.77	-47.4	-50.8	15.0	0.00e+00	0	40	0	383778816	65	5600
2026-01-12 12:09:59.07	279.84	13.76	-47.3	-50.5	15.2	0.00e+00	0	40	0	386924544	65	5454
2026-01-12 12:10:00.16	280.06	13.76	-47.3	-50.5	15.2	0.00e+00	0	40	0	387973120	65	5420
2026-01-12 12:10:01.01	280.24	13.75	-47.3	-50.6	15.1	0.00e+00	0	40	0	390070272	65	5482
2026-01-12 12:10:02.15	280.47	13.75	-47.4	-50.7	15.1	0.00e+00	0	40	0	392167424	65	5536
2026-01-12 12:10:03.24	280.69	13.74	-47.5	-50.9	14.8	7.00e-07	0	40	0	394264576	65	5683
2026-01-12 12:10:04.09	280.86	13.74	-47.4	-50.8	15.0	0.00e+00	0	40	0	395313152	65	5593
2026-01-12 12:10:05.23	281.09	13.73	-47.4	-50.7	15.1	0.00e+00	0	40	0	398458880	65	5555
2026-01-12 12:10:06.08	281.27	13.73	-47.2	-50.5	15.3	0.00e+00	0	40	0	399507456	65	5404
2026-01-12 12:10:07.22	281.50	13.72	-47.1	-50.3	15.4	0.00e+00	0	40	0	401604608	65	5313
2026-01-12 12:10:08.07	281.67	13.71	-47.1	-50.2	15.5	0.00e+00	0	40	0	403701760	65	5262
2026-01-12 12:10:09.21	281.90	13.70	-47.1	-50.3	15.4	0.00e+00	0	40	0	405798912	65	5283
2026-01-12 12:10:10.06	282.07	13.70	-47.1	-50.3	15.4	0.00e+00	0	40	0	406847488	65	5309
2026-01-12 12:10:11.23	282.31	13.69	-47.2	-50.4	15.3	0.00e+00	0	40	0	408944640	65	5358
2026-01-12 12:10:12.08	282.48	13.68	-47.2	-50.4	15.3	0.00e+00	0	40	0	411041792	65	5389
2026-01-12 12:10:13.21	282.71	13.67	-47.2	-50.4	15.3	0.00e+00	0	40	0	413138944	65	5367
2026-01-12 12:10:14.07	282.89	13.66	-47.1	-50.3	15.4	0.00e+00	0	40	0	414187520	65	5298
2026-01-12 12:10:15.30	283.14	13.65	-47.1	-50.2	15.5	0.00e+00	0	40	0	417333248	65	5276
2026-01-12 12:10:16.15	283.31	13.64	-46.8	-49.8	15.9	0.00e+00	0	40	0	418381824	65	5014
2026-01-12 12:10:17.29	283.54	13.63	-46.6	-49.5	16.1	0.00e+00	0	40	0	420478976	65	4870
2026-01-12 12:10:18.14	283.71	13.63	-46.5	-49.5	16.2	0.00e+00	0	40	0	422576128	65	4821
2026-01-12 12:10:19.28	283.94	13.61	-46.5	-49.3	16.4	0.00e+00	0	40	0	424673280	64	5035
2026-01-12 12:10:20.13	284.11	13.60	-46.5	-49.5	16.2	0.00e+00	0	40	0	425721856	64	5110
2026-01-12 12:10:21.49	284.39	13.59	-46.6	-49.5	16.2	0.00e+00	0	40	0	428867584	64	5143
2026-01-12 12:10:22.20	284.53	13.58	-46.6	-49.6	16.1	0.00e+00	0	40	0	429916160	64	5176
2026-01-12 12:10:23.48	284.79	13.57	-46.7	-49.7	16.0	0.00e+00	0	40	0	432013312	64	5260
2026-01-12 12:10:24.19	284.93	13.56	-46.8	-49.7	15.9	0.00e+00	0	40	0	433061888	64	5276
2026-01-12 12:10:25.76	285.24	13.54	-46.7	-49.7	16.0	0.00e+00	0	40	0	436207616	64	5231
2026-01-12 12:10:26.42	285.38	13.53	-46.7	-49.7	16.0	0.00e+00	0	40	0	437256192	64	5249
2026-01-12 12:10:27.85	285.66	13.51	-46.9	-50.0	15.7	0.00e+00	0	40	0	440401920	64	5422
2026-01-12 12:10:28.56	285.80	13.50	-46.9	-49.9	15.8	0.00e+00	0	40	0	441450496	64	5361
2026-01-12 12:10:29.84	286.06	13.48	-47.1	-50.2	15.5	0.00e+00	0	40	0	444596224	64	5579
2026-01-12 12:10:30.55	286.20	13.47	-47.3	-50.5	15.2	0.00e+00	0	40	0	445644800	65	5450
2026-01-12 12:10:31.83	286.46	13.46	-47.2	-50.3	15.3	0.00e+00	0	40	0	447741952	65	5324
2026-01-12 12:10:32.55	286.60	13.44	-47.3	-50.4	15.3	0.00e+00	0	40	0	448790528	65	5398
2026-01-12 12:10:33.83	286.86	13.43	-47.3	-50.5	15.3	0.00e+00	0	40	0	451936256	65	5416
2026-01-12 12:10:34.54	287.00	13.41	-47.2	-50.4	15.4	0.00e+00	0	40	0	452984832	65	5356
2026-01-12 12:10:35.82	287.25	13.39	-47.1	-50.2	15.5	0.00e+00	0	40	0	455081984	65	5247
2026-01-12 12:10:36.55	287.40	13.38	-47.1	-50.2	15.4	0.00e+00	0	40	0	457179136	65	5272
2026-01-12 12:10:37.83	287.65	13.36	-47.0	-50.1	15.5	0.00e+00	0	40	0	459276288	65	5200
2026-01-12 12:10:38.54	287.79	13.35	-47.1	-50.3	15.4	0.00e+00	0	40	0	460324864	65	5305
2026-01-12 12:10:39.82	288.05	13.33	-47.2	-50.3	15.4	0.00e+00	0	40	0	462422016	65	5327
2026-01-12 12:10:40.54	288.19	13.32	-47.3	-50.5	15.2	0.00e+00	0	40	0	464519168	65	5425
2026-01-12 12:10:41.82	288.44	13.29	-47.2	-50.5	15.1	0.00e+00	0	40	0	466616320	65	5443
2026-01-12 12:10:42.72	288.62	13.28	-47.3	-50.6	15.1	0.00e+00	0	40	0	468713472	65	5485
2026-01-12 12:10:43.81	288.83	13.26	-47.2	-50.5	15.2	0.00e+00	0	40	0	470810624	65	5416
2026-01-12 12:10:44.66	289.00	13.24	-47.1	-50.3	15.4	0.00e+00	0	40	0	471859200	65	5301
2026-01-12 12:10:45.80	289.23	13.22	-47.0	-50.1	15.5	0.00e+00	0	40	0	473956352	65	5213
2026-01-12 12:10:46.65	289.39	13.21	-46.9	-49.9	15.7	0.00e+00	0	40	0	476053504	65	5098
2026-01-12 12:10:47.78	289.61	13.18	-46.9	-50.0	15.6	0.00e+00	0	40	0	478150656	65	5146
2026-01-12 12:10:48.64	289.78	13.17	-46.9	-49.9	15.8	0.00e+00	0	40	0	479199232	65	5042
2026-01-12 12:10:49.77	290.00	13.15	-46.9	-50.0	15.7	0.00e+00	0	40	0	481296384	65	5106
2026-01-12 12:10:50.62	290.17	13.13	-47.0	-50.1	15.6	0.00e+00	0	40	0	483393536	65	5181
2026-01-12 12:10:51.76	290.39	13.11	-46.9	-49.9	15.7	0.00e+00	0	40	0	485490688	65	5093
2026-01-12 12:10:52.61	290.56	13.09	-46.9	-50.0	15.7	0.00e+00	0	40	0	486539264	65	5122
2026-01-12 12:10:53.75	290.78	13.06	-46.8	-49.8	15.9	0.00e+00	0	40	0	488636416	65	4996
2026-01-12 12:10:54.70	290.96	13.04	-46.7	-49.7	16.0	0.00e+00	0	40	0	490733568	65	4958
2026-01-12 12:10:55.87	291.19	13.02	-46.8	-49.8	15.9	0.00e+00	0	40	0	492830720	65	4984
2026-01-12 12:10:56.73	291.36	13.00	-46.7	-49.7	15.9	0.00e+00	0	40	0	494927872	65	4960
2026-01-12 12:10:58.03	291.61	12.97	-46.7	-49.7	15.9	0.00e+00	0	40	0	497025024	65	4961
2026-01-12 12:10:58.74	291.75	12.96	-46.7	-49.6	16.1	0.00e+00	0	40	0	498073600	65	4887
2026-01-12 12:11:00.24	292.03	12.92	-46.7	-49.6	16.0	0.00e+00	0	40	0	501219328	65	4890
2026-01-12 12:11:00.95	292.17	12.91	-46.7	-49.6	16.0	0.00e+00	0	40	0	502267904	65	4921
2026-01-12 12:11:02.23	292.42	12.88	-46.6	-49.6	16.1	0.00e+00	0	40	0	504365056	65	4873
2026-01-12 12:11:02.95	292.56	12.86	-46.8	-49.9	15.8	0.00e+00	0	40	0	506462208	65	5044
2026-01-12 12:11:04.23	292.80	12.83	-46.8	-49.8	15.8	0.00e+00	0	40	0	508559360	65	5033
2026-01-12 12:11:04.94	292.94	12.81	-46.8	-49.8	15.8	0.00e+00	0	40	0	509607936	65	5027
2026-01-12 12:11:06.22	293.18	12.78	-46.7	-49.7	15.9	0.00e+00	0	40	0	512753664	65	4966
2026-01-12 12:11:06.97	293.32	12.76	-46.6	-49.6	16.0	0.00e+00	0	40	0	513802240	65	4890
2026-01-12 12:11:08.25	293.57	12.73	-46.7	-49.7	15.9	0.00e+00	0	40	0	515899392	65	4959
2026-01-12 12:11:08.96	293.70	12.71	-46.8	-49.8	15.8	0.00e+00	0	40	0	517996544	65	5018
2026-01-12 12:11:10.27	293.95	12.68	-46.9	-49.9	15.7	0.00e+00	0	40	0	520093696	65	5088
2026-01-12 12:11:10.98	294.08	12.66	-47.0	-50.1	15.6	0.00e+00	0	40	0	521142272	65	5162
2026-01-12 12:11:12.26	294.33	12.63	-47.2	-50.3	15.3	0.00e+00	0	40	0	523239424	65	5326
2026-01-12 12:11:13.05	294.48	12.61	-47.2	-50.4	15.2	0.00e+00	0	40	0	525336576	65	5382
2026-01-12 12:11:14.26	294.70	12.58	-47.1	-50.3	15.4	0.00e+00	0	40	0	527433728	65	5283
2026-01-12 12:11:15.12	294.86	12.55	-47.1	-50.2	15.4	0.00e+00	0	40	0	529530880	65	5221
2026-01-12 12:11:16.25	295.08	12.52	-46.9	-50.0	15.7	0.00e+00	0	40	0	531628032	65	5111
2026-01-12 12:11:17.11	295.24	12.50	-46.8	-49.9	15.7	0.00e+00	0	40	0	532676608	65	5058
2026-01-12 12:11:18.24	295.45	12.47	-46.8	-49.8	15.8	0.00e+00	0	40	0	534773760	65	5017
2026-01-12 12:11:19.10	295.61	12.44	-46.8	-49.9	15.7	0.00e+00	0	40	0	536870912	65	5063
2026-01-12 12:11:20.23	295.82	12.41	-46.7	-49.6	16.0	0.00e+00	0	40	0	538968064	65	4923
2026-01-12 12:11:21.08	295.98	12.39	-46.7	-49.6	16.0	0.00e+00	0	40	0	540016640	65	4920
2026-01-12 12:11:22.30	296.20	12.35	-46.8	-49.8	15.9	0.00e+00	0	40	0	542113792	65	4987
2026-01-12 12:11:23.15	296.36	12.33	-46.8	-49.8	15.8	0.00e+00	0	40	0	544210944	65	5020
2026-01-12 12:11:24.29	296.57	12.30	-46.8	-49.8	15.8	0.00e+00	0	40	0	546308096	65	5014
2026-01-12 12:11:25.14	296.73	12.27	-46.7	-49.7	16.0	0.00e+00	0	40	0	547356672	65	4928
2026-01-12 12:11:26.41	296.96	12.24	-46.6	-49.6	16.0	0.00e+00	0	40	0	550502400	65	4875
2026-01-12 12:11:27.20	297.11	12.21	-46.6	-49.6	16.1	0.00e+00	0	40	0	551550976	65	4880
2026-01-12 12:11:28.40	297.33	12.18	-46.5	-49.4	16.2	0.00e+00	0	40	0	553648128	65	4791
2026-01-12 12:11:29.25	297.48	12.15	-46.6	-49.5	16.1	0.00e+00	0	40	0	555745280	65	4842
2026-01-12 12:11:30.38	297.69	12.12	-46.5	-49.4	16.2	0.00e+00	0	40	0	557842432	65	4809
2026-01-12 12:11:31.24	297.85	12.09	-46.6	-49.5	16.0	0.00e+00	0	40	0	558891008	65	4867
2026-01-12 12:11:32.37	298.05	12.06	-46.5	-49.4	16.2	0.00e+00	0	40	0	560988160	65	4794
2026-01-12 12:11:33.23	298.21	12.03	-46.6	-49.5	16.1	0.00e+00	0	40	0	563085312	64	5141
2026-01-12 12:11:34.36	298.41	11.99	-46.6	-49.6	16.0	0.00e+00	0	40	0	565182464	64	5168
2026-01-12 12:11:35.21	298.57	11.97	-46.6	-49.6	16.0	0.00e+00	0	40	0	566231040	64	5170
2026-01-12 12:11:36.35	298.77	11.93	-46.7	-49.7	15.9	0.00e+00	0	40	0	569376768	64	5271
2026-01-12 12:11:37.20	298.93	11.91	-46.7	-49.8	15.8	0.00e+00	0	40	0	570425344	64	5287
2026-01-12 12:11:38.34	299.13	11.87	-46.9	-49.9	15.7	0.00e+00	0	40	0	572522496	64	5376
2026-01-12 12:11:39.19	299.28	11.84	-46.9	-49.9	15.7	0.00e+00	0	40	0	574619648	64	5381
2026-01-12 12:11:40.33	299.49	11.81	-47.0	-50.1	15.5	0.00e+00	0	40	0	576716800	64	5503
2026-01-12 12:11:41.18	299.64	11.78	-47.1	-50.2	15.4	0.00e+00	0	40	0	577765376	64	5569
2026-01-12 12:11:42.32	299.84	11.74	-46.8	-49.9	15.7	0.00e+00	0	40	0	579862528	64	5353
2026-01-12 12:11:43.17	299.99	11.71	-46.8	-49.9	15.6	0.00e+00	0	40	0	581959680	64	5384
2026-01-12 12:11:44.31	300.20	11.67	-46.8	-49.8	15.8	0.00e+00	0	40	0	584056832	64	5314
2026-01-12 12:11:45.16	300.35	11.65	-46.7	-49.8	15.8	0.00e+00	0	40	0	585105408	64	5284
2026-01-12 12:11:46.30	300.55	11.61	-46.7	-49.7	15.9	0.00e+00	0	40	0	587202560	64	5250
2026-01-12 12:11:47.15	300.70	11.58	-46.7	-49.7	15.9	0.00e+00	0	40	0	589299712	64	5246
2026-01-12 12:11:48.48	300.93	11.53	-46.7	-49.7	15.8	0.00e+00	0	40	0	591396864	64	5266
2026-01-12 12:11:49.19	301.05	11.51	-46.9	-49.9	15.6	0.00e+00	0	40	0	592445440	64	5387
2026-01-12 12:11:50.47	301.28	11.47	-46.9	-49.9	15.6	0.00e+00	0	40	0	595591168	64	5398
2026-01-12 12:11:51.18	301.40	11.44	-47.0	-50.1	15.5	0.00e+00	0	40	0	596639744	64	5498
2026-01-12 12:11:52.74	301.67	11.39	-47.0	-50.1	15.4	0.00e+00	0	40	0	599785472	64	5491
2026-01-12 12:11:53.45	301.80	11.36	-47.0	-50.2	15.4	0.00e+00	0	40	0	600834048	64	5544
2026-01-12 12:11:54.74	302.02	11.32	-47.1	-50.3	15.3	0.00e+00	0	40	0	602931200	64	5601
2026-01-12 12:11:55.45	302.14	11.29	-47.2	-50.5	15.1	0.00e+00	0	40	0	605028352	65	5404
2026-01-12 12:11:56.74	302.37	11.25	-47.3	-50.6	15.0	7.00e-07	0	40	0	607125504	65	5486
2026-01-12 12:11:57.45	302.49	11.22	-47.4	-50.7	14.8	7.00e-07	0	40	0	608174080	65	5581
2026-01-12 12:11:58.74	302.71	11.18	-47.4	-50.8	14.7	0.00e+00	0	40	0	610271232	65	5652
2026-01-12 12:11:59.45	302.83	11.15	-47.5	-51.0	14.6	7.00e-07	0	40	0	612368384	65	5744
2026-01-12 12:12:00.72	303.05	11.10	-47.5	-51.0	14.6	7.00e-07	0	40	0	614465536	65	5742
2026-01-12 12:12:01.44	303.17	11.08	-47.6	-51.1	14.5	0.00e+00	0	40	0	615514112	65	5824
2026-01-12 12:12:02.72	303.39	11.03	-47.6	-51.2	14.3	7.00e-07	0	40	0	618659840	65	5920
2026-01-12 12:12:03.49	303.52	11.00	-47.6	-51.1	14.5	7.00e-07	0	40	0	619708416	65	5834
2026-01-12 12:12:04.77	303.74	10.96	-47.8	-51.4	14.2	1.50e-06	0	40	0	621805568	66	5682
2026-01-12 12:12:05.48	303.85	10.93	-47.7	-51.3	14.3	1.50e-06	0	40	0	623902720	66	5596
2026-01-12 12:12:06.76	304.07	10.88	-47.6	-51.1	14.5	7.00e-07	0	40	0	625999872	66	5493
2026-01-12 12:12:07.58	304.21	10.85	-47.6	-51.0	14.5	0.00e+00	0	40	0	627048448	66	5463
2026-01-12 12:12:08.72	304.40	10.81	-47.5	-50.9	14.6	7.00e-07	0	40	0	629145600	66	5398
2026-01-12 12:12:09.75	304.57	10.77	-47.5	-50.9	14.7	0.00e+00	0	40	0	631242752	66	5378
2026-01-12 12:12:10.90	304.76	10.73	-47.6	-51.0	14.5	7.00e-07	0	40	0	633339904	66	5456
2026-01-12 12:12:11.75	304.90	10.69	-47.6	-51.1	14.5	0.00e+00	0	40	0	635437056	66	5511
2026-01-12 12:12:13.10	305.13	10.64	-47.9	-51.6	14.0	1.50e-06	0	40	0	637534208	66	5826
2026-01-12 12:12:13.81	305.24	10.62	-48.2	-52.1	13.5	6.10e-06	0	40	0	638582784	67	5789
2026-01-12 12:12:15.09	305.45	10.57	-48.4	-52.4	13.2	1.52e-05	0	40	0	641728512	67	6016
2026-01-12 12:12:16.32	305.66	10.52	-48.6	-52.9	12.7	3.81e-05	0	40	0	643825664	67	6369
2026-01-12 12:12:17.17	305.80	10.49	-48.6	-52.9	12.7	6.94e-05	0	40	0	644874240	67	6369
2026-01-12 12:12:18.31	305.98	10.44	-48.5	-52.8	12.7	4.95e-05	0	40	0	648019968	67	6322
2026-01-12 12:12:19.16	306.12	10.41	-48.5	-52.7	12.8	6.40e-05	0	40	0	649068544	67	6265
2026-01-12 12:12:20.30	306.31	10.36	-48.2	-52.3	13.3	2.21e-05	0	40	0	651165696	67	5974
2026-01-12 12:12:21.15	306.44	10.33	-48.1	-52.1	13.4	1.22e-05	0	40	0	653262848	67	5837
2026-01-12 12:12:22.34	306.64	10.28	-48.1	-52.2	13.4	1.60e-05	0	40	0	655360000	67	5881
2026-01-12 12:12:23.19	306.77	10.25	-48.1	-52.4	13.2	1.98e-05	0	40	0	656408576	67	6000
2026-01-12 12:12:24.40	306.97	10.20	-48.4	-52.8	12.7	3.35e-05	0	40	0	658505728	67	6309
2026-01-12 12:12:25.26	307.11	10.17	-48.5	-52.9	12.6	3.96e-05	0	40	0	660602880	67	6372
2026-01-12 12:12:26.39	307.29	10.12	-48.6	-52.9	12.7	6.71e-05	0	40	0	662700032	67	6399
2026-01-12 12:12:27.24	307.42	10.09	-48.5	-52.9	12.6	5.34e-05	0	40	0	664797184	67	6381
2026-01-12 12:12:28.38	307.60	10.04	-48.4	-52.8	12.7	1.09e-04	0	40	0	665845760	67	6333
2026-01-12 12:12:29.23	307.74	10.01	-48.3	-52.7	12.8	4.80e-05	0	40	0	667942912	67	6255
2026-01-12 12:12:30.58	307.95	9.95	-48.3	-52.4	13.1	3.50e-05	0	40	0	670040064	67	6037
2026-01-12 12:12:31.29	308.06	9.92	-48.2	-52.2	13.3	1.37e-05	0	40	0	672137216	67	5866
2026-01-12 12:12:32.77	308.30	9.86	-48.2	-52.2	13.3	9.10e-06	0	40	0	674234368	67	5911
2026-01-12 12:12:33.48	308.41	9.84	-48.2	-52.3	13.3	1.37e-05	0	40	0	676331520	67	5931
2026-01-12 12:12:34.85	308.62	9.78	-48.3	-52.4	13.0	3.35e-05	0	40	0	678428672	67	6058
2026-01-12 12:12:35.56	308.73	9.75	-48.5	-52.8	12.7	3.96e-05	0	40	0	679477248	67	6328
2026-01-12 12:12:36.86	308.93	9.70	-48.6	-52.8	12.7	5.41e-05	0	40	0	682622976	67	6326
2026-01-12 12:12:37.57	309.05	9.67	-48.6	-52.8	12.7	9.61e-05	0	40	0	683671552	67	6327
2026-01-12 12:12:38.85	309.24	9.61	-48.6	-53.0	12.6	1.01e-04	0	40	0	685768704	67	6441
2026-01-12 12:12:39.57	309.35	9.58	-48.6	-53.0	12.5	8.08e-05	0	40	0	687865856	67	6446
2026-01-12 12:12:40.85	309.55	9.53	-48.4	-52.9	12.6	9.84e-05	0	40	0	689963008	67	6366
2026-01-12 12:12:41.59	309.66	9.50	-48.5	-53.0	12.6	7.78e-05	0	40	0	691011584	67	6426
2026-01-12 12:12:42.87	309.86	9.45	-48.9	-53.4	12.3	1.23e-04	0	40	0	693108736	68	6383
2026-01-12 12:12:43.60	309.97	9.42	-48.8	-53.2	12.5	1.51e-04	0	40	0	695205888	68	6224
2026-01-12 12:12:45.16	310.21	9.35	-48.6	-53.1	12.6	1.46e-04	0	40	0	698351616	68	6141
2026-01-12 12:12:45.78	310.30	9.32	-48.6	-53.0	12.6	8.69e-05	0	40	0	699400192	68	6105
2026-01-12 12:12:47.34	310.54	9.26	-48.7	-53.1	12.6	1.25e-04	0	40	0	701497344	68	6180
2026-01-12 12:12:47.97	310.63	9.23	-48.8	-53.2	12.5	1.19e-04	0	40	0	703594496	68	6215
2026-01-12 12:12:49.52	310.87	9.16	-48.8	-53.3	12.4	1.29e-04	0	40	0	705691648	68	6293
2026-01-12 12:12:50.23	310.97	9.13	-48.8	-53.3	12.4	1.98e-04	0	40	0	707788800	68	6284
2026-01-12 12:12:51.86	311.21	9.06	-48.7	-53.2	12.4	8.31e-05	0	40	0	710934528	68	6255
2026-01-12 12:12:52.42	311.30	9.04	-48.7	-53.2	12.4	1.64e-04	0	40	0	710934528	68	6241
2026-01-12 12:12:54.13	311.55	8.97	-51.4	-66.7	3.8	2.25e-03	0	40	104	714080256	73	22075
2026-01-12 12:12:54.69	311.63	8.94	-51.9	-66.9	3.8	1.49e+00	0	40	104	714080256	74	21352
2026-01-12 12:12:56.39	311.88	8.87	-52.1	-67.3	3.8	1.49e+00	0	40	104	714080256	74	22496
2026-01-12 12:12:56.96	311.97	8.84	-52.3	-67.4	3.8	1.49e+00	0	40	104	714080256	75	21359
2026-01-12 12:12:58.66	312.22	8.77	-52.3	-67.5	3.8	1.49e+00	0	40	104	714080256	75	21623
2026-01-12 12:12:59.23	312.30	8.75	-52.2	-67.5	3.8	1.49e+00	0	40	104	714080256	75	21671
2026-01-12 12:13:00.98	312.55	8.67	-52.3	-67.6	3.8	1.49e+00	0	40	104	714080256	75	21834
2026-01-12 12:13:01.55	312.64	8.65	-52.4	-67.6	3.8	1.49e+00	0	40	104	714080256	75	21887
2026-01-12 12:13:03.25	312.88	8.57	-52.5	-67.6	3.8	1.49e+00	0	40	104	714080256	75	21839
2026-01-12 12:13:03.95	312.98	8.54	-52.5	-67.6	3.8	1.49e+00	0	40	104	714080256	75	21989
2026-01-12 12:13:05.36	313.19	8.48	-52.5	-67.6	3.8	1.49e+00	0	40	104	714080256	75	21953
2026-01-12 12:13:06.14	313.30	8.44	-52.4	-67.6	3.8	1.49e+00	0	40	104	714080256	75	21903
2026-01-12 12:13:07.73	313.52	8.37	-52.5	-67.6	3.8	1.49e+00	0	40	104	714080256	75	21967
2026-01-12 12:13:08.31	313.61	8.35	-52.5	-67.7	3.8	1.49e+00	0	40	104	714080256	75	22016
2026-01-12 12:13:10.06	313.85	8.27	-52.4	-67.6	3.8	1.49e+00	0	40	104	714080256	75	21996
2026-01-12 12:13:10.63	313.93	8.25	-52.4	-67.6	3.8	1.49e+00	0	40	104	714080256	75	21960
2026-01-12 12:13:12.33	314.17	8.17	-52.4	-67.6	3.8	1.49e+00	0	40	104	714080256	75	21936
2026-01-12 12:13:12.90	314.25	8.14	-52.4	-67.6	3.8	1.49e+00	0	40	104	714080256	75	21852
2026-01-12 12:13:14.60	314.49	8.07	-52.3	-67.6	3.8	1.49e+00	0	40	104	714080256	75	21762
2026-01-12 12:13:15.17	314.57	8.04	-52.3	-67.6	3.8	1.49e+00	0	40	104	714080256	75	21833
2026-01-12 12:13:16.91	314.81	7.97	-52.3	-67.6	3.8	1.49e+00	0	40	104	714080256	75	21820
2026-01-12 12:13:17.47	314.89	7.94	-52.3	-67.6	3.8	1.49e+00	0	40	104	714080256	75	21808
2026-01-12 12:13:19.18	315.12	7.86	-52.3	-67.6	3.8	1.49e+00	0	40	104	714080256	75	21788
2026-01-12 12:13:19.74	315.20	7.84	-52.3	-67.6	3.8	1.49e+00	0	40	104	714080256	75	21832
2026-01-12 12:13:21.45	315.43	7.76	-52.3	-67.6	3.8	1.49e+00	0	40	104	714080256	75	21860
2026-01-12 12:13:22.02	315.51	7.74	-52.3	-67.6	3.8	1.49e+00	0	40	104	714080256	75	21845
2026-01-12 12:13:23.72	315.74	7.66	-52.3	-67.6	3.8	1.49e+00	0	40	104	714080256	75	21800
2026-01-12 12:13:24.29	315.82	7.63	-52.3	-67.6	3.8	1.49e+00	0	40	104	714080256	75	21769
2026-01-12 12:13:25.99	316.05	7.56	-52.3	-67.5	3.8	1.49e+00	0	40	104	714080256	75	21738
2026-01-12 12:13:26.56	316.13	7.53	-52.3	-67.6	3.8	1.49e+00	0	40	104	714080256	75	21795
2026-01-12 12:13:28.26	316.35	7.45	-52.3	-67.6	3.8	1.49e+00	0	40	104	714080256	75	21782
2026-01-12 12:13:28.83	316.43	7.43	-52.3	-67.6	3.8	1.49e+00	0	40	104	714080256	75	21829
2026-01-12 12:13:30.53	316.66	7.35	-52.3	-67.6	3.8	1.49e+00	0	40	104	714080256	75	21814
2026-01-12 12:13:31.10	316.73	7.33	-52.3	-67.6	3.8	1.49e+00	0	40	104	714080256	75	21825
2026-01-12 12:13:32.80	316.96	7.25	-52.3	-67.6	3.8	1.49e+00	0	40	104	714080256	75	21783
2026-01-12 12:13:33.37	317.03	7.22	-52.3	-67.5	3.8	1.49e+00	0	40	104	714080256	75	21750
2026-01-12 12:13:35.07	317.25	7.14	-52.3	-67.6	3.8	1.49e+00	0	40	104	714080256	75	21855
2026-01-12 12:13:35.64	317.33	7.12	-52.3	-67.5	3.8	1.49e+00	0	40	104	714080256	75	21661
2026-01-12 12:13:37.34	317.55	7.04	-52.3	-67.5	3.8	1.49e+00	0	40	104	714080256	75	21695
2026-01-12 12:13:37.91	317.63	7.01	-52.3	-67.6	3.8	1.49e+00	0	40	104	714080256	75	21861
2026-01-12 12:13:39.61	317.85	6.94	-52.3	-67.6	3.8	1.49e+00	0	40	104	714080256	75	21783
2026-01-12 12:13:40.18	317.92	6.91	-52.3	-67.6	3.8	1.49e+00	0	40	104	714080256	75	21762
2026-01-12 12:13:41.88	318.14	6.83	-52.3	-67.5	3.8	1.49e+00	0	40	104	714080256	75	21727
2026-01-12 12:13:42.45	318.21	6.81	-52.3	-67.6	3.8	1.49e+00	0	40	104	714080256	75	21756
2026-01-12 12:13:44.15	318.43	6.73	-52.3	-67.6	3.8	1.49e+00	0	40	104	714080256	75	21760
2026-01-12 12:13:44.72	318.50	6.70	-52.2	-67.5	3.8	1.49e+00	0	40	104	714080256	75	21719
2026-01-12 12:13:46.42	318.72	6.62	-52.3	-67.5	3.8	1.49e+00	0	40	104	714080256	75	21710
2026-01-12 12:13:46.99	318.79	6.60	-52.3	-67.5	3.8	1.49e+00	0	40	104	714080256	75	21705
2026-01-12 12:13:48.69	319.00	6.52	-52.3	-67.6	3.8	1.49e+00	0	40	104	714080256	75	21873
2026-01-12 12:13:49.26	319.07	6.49	-52.3	-67.5	3.8	1.49e+00	0	40	104	714080256	75	21749
2026-01-12 12:13: