passes_logs/2026/01/12/T1/T1__20260112_220313_NOAA_21_JPSS-2_rec.log

#Pass ID: 20260112_220313_NOAA 21 (JPSS-2)
#Satellite: NOAA 21 (JPSS-2)
#Configuration: NOAA 21
#almurnet v.1.7.20251203
#Start time: 2026-01-12 22:03:14

#Version: 2.0.20230620
#Station: T1
#Location: 37.570604 lon 55.790049 lat
#TLE: 1 54234U 22150A   26012.26378519  .00000063  00000+0  50547-4 0  9993
#TLE: 2 54234  98.7495 313.1967 0000726 309.1075  51.0036 14.19534275164425

#Time	Az	El	Level	Level2	SNR	BER	BlckErr	Temp	State	Recorded	gain1	gain2
2026-01-12 22:03:14.26	31.20	5.05	-50.3	-64.7	3.8	1.49e+00	0	40	0	0	72	18608
2026-01-12 22:03:15.25	31.29	5.11	-50.3	-64.6	3.8	1.49e+00	0	40	104	0	71	19600
2026-01-12 22:03:16.25	31.38	5.17	-50.3	-64.5	3.8	1.49e+00	0	41	104	0	71	19325
2026-01-12 22:03:17.24	31.48	5.22	-50.3	-64.6	3.8	1.49e+00	0	40	104	0	71	19411
2026-01-12 22:03:18.23	31.57	5.28	-50.3	-64.7	3.8	1.49e+00	0	41	104	0	71	19670
2026-01-12 22:03:19.23	31.67	5.33	-50.3	-64.6	3.8	1.49e+00	0	40	104	0	71	19461
2026-01-12 22:03:20.22	31.76	5.39	-50.3	-64.7	3.8	1.49e+00	0	41	104	0	71	19740
2026-01-12 22:03:21.21	31.85	5.44	-50.3	-64.7	3.8	1.49e+00	0	40	104	0	71	19741
2026-01-12 22:03:22.21	31.95	5.50	-50.3	-64.8	3.8	1.49e+00	0	41	104	0	71	19845
2026-01-12 22:03:23.20	32.05	5.56	-50.3	-64.7	3.8	1.49e+00	0	41	104	0	71	19632
2026-01-12 22:03:24.19	32.14	5.61	-50.3	-64.7	3.8	1.49e+00	0	41	104	0	71	19631
2026-01-12 22:03:25.18	32.24	5.67	-50.3	-64.6	3.8	1.49e+00	0	41	104	0	71	19482
2026-01-12 22:03:26.18	32.34	5.72	-50.3	-64.7	3.8	1.49e+00	0	41	104	0	71	19769
2026-01-12 22:03:27.17	32.43	5.78	-50.3	-64.7	3.8	1.49e+00	0	41	104	0	71	19692
2026-01-12 22:03:28.16	32.53	5.84	-50.3	-64.7	3.8	1.49e+00	0	41	104	0	71	19637
2026-01-12 22:03:29.16	32.63	5.89	-50.3	-64.7	3.8	1.49e+00	0	41	104	0	71	19676
2026-01-12 22:03:30.15	32.73	5.95	-50.3	-64.7	3.8	1.49e+00	0	41	104	0	71	19763
2026-01-12 22:03:31.14	32.83	6.00	-50.3	-64.7	3.8	1.49e+00	0	41	104	0	71	19735
2026-01-12 22:03:32.14	32.93	6.06	-50.3	-64.5	3.8	1.49e+00	0	41	104	0	71	19358
2026-01-12 22:03:33.13	33.03	6.12	-50.3	-64.5	3.8	1.49e+00	0	41	104	0	71	19301
2026-01-12 22:03:34.12	33.12	6.17	-50.3	-64.6	3.8	1.49e+00	0	41	104	0	71	19409
2026-01-12 22:03:35.12	33.23	6.23	-50.3	-64.6	3.8	1.49e+00	0	41	104	0	71	19394
2026-01-12 22:03:36.11	33.33	6.29	-50.3	-64.7	3.8	1.49e+00	0	41	104	0	71	19669
2026-01-12 22:03:37.10	33.43	6.34	-50.3	-64.6	3.8	1.49e+00	0	41	104	0	71	19591
2026-01-12 22:03:38.09	33.53	6.40	-50.3	-64.5	3.8	1.49e+00	0	41	104	0	71	19382
2026-01-12 22:03:39.09	33.63	6.46	-50.3	-64.4	3.8	1.49e+00	0	41	104	0	71	19141
2026-01-12 22:03:40.08	33.73	6.51	-50.3	-64.5	3.8	1.49e+00	0	41	104	0	71	19207
2026-01-12 22:03:41.07	33.83	6.57	-50.3	-64.6	3.8	1.49e+00	0	41	104	0	71	19547
2026-01-12 22:03:42.06	33.94	6.63	-50.3	-64.5	3.8	1.49e+00	0	41	104	0	71	19382
2026-01-12 22:03:43.06	34.04	6.68	-50.3	-64.6	3.8	1.49e+00	0	41	104	0	71	19414
2026-01-12 22:03:44.05	34.14	6.74	-50.3	-64.5	3.8	1.49e+00	0	41	104	0	71	19200
2026-01-12 22:03:45.04	34.25	6.80	-50.3	-64.5	3.8	1.49e+00	0	42	104	0	71	19359
2026-01-12 22:03:46.04	34.35	6.86	-50.3	-64.5	3.8	1.49e+00	0	42	104	0	71	19309
2026-01-12 22:03:47.03	34.46	6.91	-50.3	-64.5	3.8	1.49e+00	0	42	104	0	71	19280
2026-01-12 22:03:48.02	34.56	6.97	-50.3	-64.6	3.8	1.49e+00	0	42	104	0	71	19459
2026-01-12 22:03:49.02	34.67	7.03	-50.3	-64.6	3.8	1.49e+00	0	42	104	0	71	19429
2026-01-12 22:03:50.01	34.77	7.08	-50.3	-64.5	3.8	1.49e+00	0	42	104	0	71	19293
2026-01-12 22:03:51.00	34.88	7.14	-50.3	-64.5	3.8	1.49e+00	0	42	104	0	71	19353
2026-01-12 22:03:52.00	34.99	7.20	-50.3	-64.5	3.8	1.49e+00	0	42	104	0	71	19330
2026-01-12 22:03:52.99	35.09	7.26	-50.3	-64.6	3.8	1.49e+00	0	42	104	0	71	19554
2026-01-12 22:03:53.98	35.20	7.31	-50.3	-64.6	3.8	1.49e+00	0	42	104	0	71	19588
2026-01-12 22:03:54.98	35.31	7.37	-50.3	-64.6	3.8	1.49e+00	0	42	104	0	71	19495
2026-01-12 22:03:55.97	35.42	7.43	-50.3	-64.5	3.8	1.49e+00	0	42	104	0	71	19178
2026-01-12 22:03:56.96	35.53	7.49	-50.3	-64.4	3.8	1.49e+00	0	42	104	0	71	19090
2026-01-12 22:03:57.96	35.64	7.54	-50.3	-64.5	3.8	1.49e+00	0	42	104	0	71	19202
2026-01-12 22:03:58.95	35.75	7.60	-50.3	-64.4	3.8	1.49e+00	0	42	104	0	71	19100
2026-01-12 22:03:59.94	35.86	7.66	-50.3	-64.6	3.8	1.49e+00	0	42	104	0	71	19444
2026-01-12 22:04:00.94	35.97	7.72	-50.3	-64.6	3.8	1.49e+00	0	42	104	0	71	19524
2026-01-12 22:04:01.93	36.08	7.78	-50.3	-64.5	3.8	1.49e+00	0	42	104	0	71	19303
2026-01-12 22:04:02.92	36.19	7.83	-50.3	-64.5	3.8	1.49e+00	0	42	104	0	71	19357
2026-01-12 22:04:03.92	36.30	7.89	-50.3	-64.5	3.8	1.49e+00	0	42	104	0	71	19171
2026-01-12 22:04:04.91	36.41	7.95	-50.3	-64.5	3.8	1.49e+00	0	42	104	0	71	19187
2026-01-12 22:04:05.90	36.53	8.01	-50.3	-64.6	3.8	1.49e+00	0	42	104	0	71	19425
2026-01-12 22:04:06.90	36.64	8.07	-50.2	-64.6	3.8	1.49e+00	0	42	104	0	71	19478
2026-01-12 22:04:07.89	36.75	8.12	-50.2	-64.4	3.8	1.49e+00	0	42	104	0	71	19122
2026-01-12 22:04:08.88	36.87	8.18	-50.3	-64.7	3.8	1.49e+00	0	42	104	0	71	19667
2026-01-12 22:04:09.87	36.98	8.24	-50.3	-64.5	3.8	1.49e+00	0	42	104	0	71	19203
2026-01-12 22:04:10.87	37.10	8.30	-50.3	-64.6	3.8	1.49e+00	0	42	104	0	71	19416
2026-01-12 22:04:11.86	37.21	8.36	-50.3	-64.6	3.8	1.49e+00	0	42	104	0	71	19487
2026-01-12 22:04:12.85	37.33	8.41	-50.3	-64.6	3.8	1.49e+00	0	42	104	0	71	19399
2026-01-12 22:04:13.85	37.44	8.47	-50.3	-64.5	3.8	1.49e+00	0	42	104	0	71	19305
2026-01-12 22:04:14.84	37.56	8.53	-50.3	-64.4	3.8	1.49e+00	0	42	104	0	71	19165
2026-01-12 22:04:15.83	37.68	8.59	-50.2	-64.7	3.8	1.49e+00	0	42	104	0	71	19649
2026-01-12 22:04:16.83	37.79	8.65	-50.3	-64.5	3.8	1.49e+00	0	42	104	0	71	19232
2026-01-12 22:04:17.82	37.91	8.71	-50.3	-64.5	3.8	1.49e+00	0	42	104	0	71	19370
2026-01-12 22:04:18.81	38.03	8.77	-50.3	-64.5	3.8	1.49e+00	0	42	104	0	71	19389
2026-01-12 22:04:19.81	38.15	8.82	-50.2	-64.5	3.8	1.49e+00	0	42	104	0	71	19187
2026-01-12 22:04:20.80	38.27	8.88	-50.3	-64.3	3.8	1.49e+00	0	42	104	0	71	18759
2026-01-12 22:04:21.79	38.39	8.94	-50.2	-64.2	3.8	1.49e+00	0	42	104	0	71	18648
2026-01-12 22:04:22.78	38.51	9.00	-50.2	-64.1	3.8	1.49e+00	0	42	104	0	71	18404
2026-01-12 22:04:23.78	38.63	9.06	-49.2	-54.2	9.5	2.05e-02	0	42	0	0	69	6619
2026-01-12 22:04:24.77	38.75	9.12	-51.5	-64.2	3.8	6.88e-01	0	42	104	0	73	16652
2026-01-12 22:04:25.77	38.87	9.18	-50.4	-63.0	3.8	1.49e+00	0	42	104	0	72	15266
2026-01-12 22:04:26.76	38.99	9.23	-50.8	-61.4	4.1	1.49e+00	0	42	104	0	72	12752
2026-01-12 22:04:27.75	39.12	9.29	-49.4	-54.5	8.9	1.22e+00	0	42	0	0	70	6439
2026-01-12 22:04:28.75	39.24	9.35	-48.4	-52.2	11.6	6.42e-04	0	42	0	0	68	5551
2026-01-12 22:04:29.84	39.38	9.42	-47.5	-50.8	12.8	1.38e-04	0	43	0	0	67	5025
2026-01-12 22:04:30.73	39.49	9.47	-47.4	-50.7	12.9	4.04e-05	0	42	0	0	66	5240
2026-01-12 22:04:31.86	39.63	9.54	-47.3	-50.5	13.1	3.05e-05	0	43	0	0	66	5129
2026-01-12 22:04:32.72	39.74	9.59	-47.1	-50.2	13.4	3.35e-05	0	42	0	0	66	4944
2026-01-12 22:04:33.85	39.88	9.66	-46.7	-49.6	14.0	3.80e-06	0	42	0	0	65	4915
2026-01-12 22:04:34.71	39.99	9.71	-46.9	-49.8	13.7	1.50e-06	0	42	0	0	65	5024
2026-01-12 22:04:35.85	40.13	9.77	-46.5	-49.4	14.2	3.00e-06	0	42	0	0	65	4778
2026-01-12 22:04:36.70	40.24	9.82	-46.3	-49.2	14.4	1.50e-06	0	42	0	0	64	4932
2026-01-12 22:04:37.84	40.39	9.89	-46.2	-49.0	14.6	0.00e+00	0	43	0	0	64	4834
2026-01-12 22:04:38.69	40.50	9.94	-46.1	-48.8	14.8	0.00e+00	0	42	0	0	64	4733
2026-01-12 22:04:39.83	40.65	10.01	-46.1	-48.7	14.9	0.00e+00	0	42	0	0	64	4669
2026-01-12 22:04:40.68	40.76	10.06	-46.1	-48.7	14.9	7.00e-07	0	42	0	0	64	4683
2026-01-12 22:04:41.90	40.92	10.13	-46.2	-48.9	14.8	0.00e+00	0	42	0	0	64	4767
2026-01-12 22:04:42.75	41.03	10.18	-46.3	-49.1	14.6	7.00e-07	0	42	0	0	64	4872
2026-01-12 22:04:43.89	41.18	10.25	-46.4	-49.2	14.4	0.00e+00	0	42	0	0	64	4960
2026-01-12 22:04:44.74	41.29	10.30	-46.2	-48.9	14.7	0.00e+00	0	42	0	0	64	4780
2026-01-12 22:04:45.87	41.44	10.37	-46.0	-48.6	15.1	0.00e+00	0	43	0	0	63	4914
2026-01-12 22:04:46.73	41.55	10.42	-46.2	-48.8	14.9	0.00e+00	0	43	0	0	63	5020
2026-01-12 22:04:47.86	41.70	10.49	-46.5	-49.2	14.5	0.00e+00	0	43	0	0	63	5257
2026-01-12 22:04:48.72	41.82	10.54	-46.4	-49.0	14.7	7.00e-07	0	43	0	0	63	5143
2026-01-12 22:04:49.85	41.97	10.61	-46.0	-48.6	15.2	0.00e+00	0	43	0	0	63	4883
2026-01-12 22:04:50.70	42.09	10.66	-45.9	-48.4	15.3	0.00e+00	0	42	0	0	63	4803
2026-01-12 22:04:51.84	42.24	10.73	-46.1	-48.7	15.1	0.00e+00	0	43	0	0	63	4945
2026-01-12 22:04:52.69	42.36	10.78	-46.0	-48.5	15.2	0.00e+00	0	43	0	0	63	4862
2026-01-12 22:04:53.83	42.51	10.85	-46.1	-48.6	15.1	7.00e-07	0	43	0	0	63	4917
2026-01-12 22:04:54.68	42.63	10.90	-46.2	-48.7	15.1	0.00e+00	0	43	0	0	63	4970
2026-01-12 22:04:55.90	42.80	10.97	-46.2	-48.7	15.1	0.00e+00	0	42	0	0	63	4963
2026-01-12 22:04:56.76	42.92	11.02	-46.3	-48.8	15.0	7.00e-07	0	43	0	0	63	5018
2026-01-12 22:04:57.89	43.07	11.09	-46.4	-48.9	14.9	0.00e+00	0	43	0	0	63	5070
2026-01-12 22:04:58.74	43.19	11.14	-46.3	-48.9	15.0	7.00e-07	0	43	0	0	63	5044
2026-01-12 22:04:59.88	43.35	11.21	-46.3	-48.8	15.0	0.00e+00	0	43	0	0	63	4988
2026-01-12 22:05:00.79	43.48	11.26	-46.2	-48.6	15.2	0.00e+00	0	43	0	0	63	4912
2026-01-12 22:05:01.96	43.65	11.33	-46.2	-48.6	15.2	0.00e+00	0	42	0	0	63	4916
2026-01-12 22:05:02.82	43.77	11.38	-46.1	-48.5	15.3	0.00e+00	0	43	0	0	63	4829
2026-01-12 22:05:03.96	43.93	11.45	-46.0	-48.4	15.4	0.00e+00	0	42	0	0	63	4803
2026-01-12 22:05:04.81	44.05	11.50	-46.0	-48.4	15.4	0.00e+00	0	42	0	0	63	4786
2026-01-12 22:05:05.95	44.21	11.57	-46.0	-48.4	15.4	0.00e+00	0	43	0	0	63	4763
2026-01-12 22:05:06.80	44.34	11.62	-46.1	-48.5	15.4	0.00e+00	0	43	0	0	63	4830
2026-01-12 22:05:07.94	44.50	11.69	-45.9	-48.3	15.5	0.00e+00	0	43	0	0	63	4747
2026-01-12 22:05:08.79	44.62	11.74	-46.0	-48.3	15.5	0.00e+00	0	43	0	0	63	4753
2026-01-12 22:05:09.93	44.79	11.81	-46.0	-48.4	15.5	0.00e+00	0	43	0	0	63	4773
2026-01-12 22:05:10.78	44.91	11.86	-45.9	-48.3	15.6	0.00e+00	0	43	0	0	63	4727
2026-01-12 22:05:11.91	45.08	11.92	-46.0	-48.4	15.5	0.00e+00	0	43	0	0	63	4799
2026-01-12 22:05:12.77	45.21	11.97	-45.8	-48.2	15.6	0.00e+00	0	43	0	0	63	4687
2026-01-12 22:05:13.91	45.38	12.04	-45.9	-48.3	15.6	0.00e+00	0	43	0	0	63	4706
2026-01-12 22:05:14.76	45.50	12.09	-45.9	-48.3	15.6	0.00e+00	0	43	0	0	63	4717
2026-01-12 22:05:15.89	45.67	12.16	-45.9	-48.3	15.6	0.00e+00	0	43	0	0	63	4721
2026-01-12 22:05:16.75	45.80	12.21	-45.8	-48.2	15.7	0.00e+00	0	43	0	0	63	4664
2026-01-12 22:05:17.88	45.97	12.28	-45.8	-48.2	15.7	0.00e+00	0	43	0	0	63	4664
2026-01-12 22:05:18.73	46.10	12.33	-45.7	-48.0	15.8	0.00e+00	0	43	0	0	63	4562
2026-01-12 22:05:20.08	46.30	12.41	-45.7	-48.0	15.9	0.00e+00	0	43	0	0	63	4566
2026-01-12 22:05:20.79	46.41	12.45	-45.8	-48.1	15.7	0.00e+00	0	43	0	0	63	4649
2026-01-12 22:05:22.06	46.60	12.53	-45.8	-48.1	15.8	0.00e+00	0	43	0	0	63	4625
2026-01-12 22:05:22.78	46.71	12.57	-45.9	-48.2	15.6	0.00e+00	0	43	0	0	63	4696
2026-01-12 22:05:24.05	46.91	12.64	-45.8	-48.1	15.7	0.00e+00	0	43	0	0	63	4638
2026-01-12 22:05:24.86	47.03	12.69	-45.8	-48.2	15.6	0.00e+00	0	43	0	0	63	4668
2026-01-12 22:05:26.00	47.21	12.76	-45.8	-48.2	15.6	0.00e+00	0	43	0	0	63	4684
2026-01-12 22:05:26.85	47.34	12.81	-45.8	-48.1	15.7	0.00e+00	0	43	0	0	63	4644
2026-01-12 22:05:27.98	47.52	12.88	-45.8	-48.2	15.7	0.00e+00	0	43	0	0	63	4653
2026-01-12 22:05:28.84	47.66	12.93	-45.8	-48.2	15.7	0.00e+00	0	43	0	0	63	4668
2026-01-12 22:05:29.97	47.83	12.99	-45.8	-48.1	15.7	0.00e+00	0	43	0	0	63	4646
2026-01-12 22:05:30.83	47.97	13.04	-45.7	-48.0	15.8	0.00e+00	0	43	0	0	63	4595
2026-01-12 22:05:31.96	48.15	13.11	-45.8	-48.1	15.8	0.00e+00	0	43	0	0	63	4614
2026-01-12 22:05:32.82	48.29	13.16	-45.8	-48.1	15.8	0.00e+00	0	43	0	0	63	4648
2026-01-12 22:05:34.08	48.49	13.23	-45.7	-48.0	15.9	0.00e+00	0	43	0	0	63	4576
2026-01-12 22:05:34.88	48.62	13.28	-45.7	-48.0	15.9	0.00e+00	0	43	0	0	63	4564
2026-01-12 22:05:36.11	48.81	13.35	-45.7	-48.0	16.0	0.00e+00	0	43	0	0	63	4549
2026-01-12 22:05:36.96	48.95	13.40	-45.7	-48.1	15.9	0.00e+00	0	43	0	0	63	4604
2026-01-12 22:05:38.10	49.14	13.47	-45.7	-48.0	15.9	0.00e+00	0	43	0	0	63	4598
2026-01-12 22:05:38.95	49.28	13.52	-45.6	-47.9	16.1	0.00e+00	0	43	0	0	63	4499
2026-01-12 22:05:40.09	49.46	13.58	-45.5	-47.8	16.1	0.00e+00	0	43	0	0	63	4472
2026-01-12 22:05:40.94	49.60	13.63	-45.6	-47.9	16.0	0.00e+00	0	43	0	0	63	4522
2026-01-12 22:05:42.08	49.79	13.70	-45.6	-47.9	16.0	0.00e+00	0	43	0	0	63	4524
2026-01-12 22:05:42.93	49.93	13.75	-45.6	-47.8	16.1	0.00e+00	0	43	0	0	63	4493
2026-01-12 22:05:44.07	50.12	13.82	-45.5	-47.8	16.1	0.00e+00	0	43	0	0	62	4725
2026-01-12 22:05:45.12	50.30	13.88	-45.6	-47.9	16.1	0.00e+00	0	43	0	0	62	4774
2026-01-12 22:05:46.17	50.47	13.94	-45.5	-47.8	16.1	0.00e+00	0	43	0	0	62	4721
2026-01-12 22:05:47.11	50.63	13.99	-45.5	-47.8	16.1	0.00e+00	0	43	0	0	62	4732
2026-01-12 22:05:48.33	50.84	14.06	-45.6	-48.0	16.0	0.00e+00	0	43	0	0	62	4816
2026-01-12 22:05:49.21	50.99	14.11	-45.5	-47.8	16.1	0.00e+00	0	43	0	0	62	4746
2026-01-12 22:05:50.35	51.18	14.18	-45.7	-48.0	16.0	0.00e+00	0	43	0	0	62	4825
2026-01-12 22:05:51.28	51.34	14.23	-45.7	-47.9	16.0	0.00e+00	0	43	0	0	62	4809
2026-01-12 22:05:52.28	51.51	14.29	-45.6	-47.9	16.1	0.00e+00	0	43	0	0	62	4780
2026-01-12 22:05:53.27	51.68	14.34	-45.7	-47.9	16.0	0.00e+00	0	43	0	0	62	4799
2026-01-12 22:05:54.27	51.85	14.40	-45.7	-47.9	16.0	0.00e+00	0	43	0	0	62	4799
2026-01-12 22:05:55.26	52.03	14.46	-45.7	-48.1	15.9	0.00e+00	0	43	0	0	62	4873
2026-01-12 22:05:56.25	52.20	14.51	-45.7	-48.1	15.9	0.00e+00	0	43	0	0	62	4885
2026-01-12 22:05:57.25	52.37	14.57	-45.8	-48.1	15.9	0.00e+00	0	43	0	0	62	4903
2026-01-12 22:05:58.24	52.55	14.63	-45.6	-47.9	16.1	0.00e+00	0	43	0	0	62	4786
2026-01-12 22:05:59.24	52.72	14.68	-45.7	-48.0	16.0	0.00e+00	0	43	0	0	62	4821
2026-01-12 22:06:00.23	52.90	14.74	-45.6	-47.9	16.1	0.00e+00	0	43	0	0	62	4795
2026-01-12 22:06:01.28	53.08	14.80	-45.6	-47.8	16.1	0.00e+00	0	43	0	0	62	4758
2026-01-12 22:06:02.24	53.26	14.85	-45.6	-47.8	16.1	0.00e+00	0	43	0	0	62	4740
2026-01-12 22:06:03.23	53.43	14.91	-45.6	-47.9	16.1	0.00e+00	0	43	0	0	62	4760
2026-01-12 22:06:04.22	53.61	14.96	-45.4	-47.6	16.3	0.00e+00	0	43	0	0	62	4635
2026-01-12 22:06:05.21	53.79	15.02	-45.5	-47.7	16.2	0.00e+00	0	43	0	0	62	4684
2026-01-12 22:06:06.21	53.97	15.07	-45.5	-47.7	16.2	0.00e+00	0	43	0	0	62	4704
2026-01-12 22:06:07.21	54.15	15.13	-45.6	-47.8	16.1	0.00e+00	0	43	0	0	62	4741
2026-01-12 22:06:08.44	54.37	15.20	-45.6	-47.9	16.0	0.00e+00	0	43	0	0	62	4795
2026-01-12 22:06:09.32	54.53	15.25	-45.7	-47.9	16.0	0.00e+00	0	43	0	0	62	4809
2026-01-12 22:06:10.63	54.77	15.32	-45.7	-48.0	15.9	0.00e+00	0	43	0	0	62	4862
2026-01-12 22:06:11.34	54.91	15.36	-45.8	-48.1	15.8	0.00e+00	0	43	0	0	62	4918
2026-01-12 22:06:12.83	55.18	15.44	-45.6	-47.9	16.1	0.00e+00	0	43	0	0	62	4775
2026-01-12 22:06:13.54	55.31	15.48	-45.5	-47.7	16.2	0.00e+00	0	43	0	0	62	4687
2026-01-12 22:06:14.82	55.55	15.55	-45.6	-47.9	16.1	0.00e+00	0	43	0	0	62	4803
2026-01-12 22:06:15.54	55.69	15.58	-45.5	-47.8	16.2	0.00e+00	0	43	0	0	62	4742
2026-01-12 22:06:16.82	55.93	15.65	-45.5	-47.8	16.2	0.00e+00	0	43	0	0	62	4717
2026-01-12 22:06:17.55	56.06	15.69	-45.4	-47.6	16.4	0.00e+00	0	43	0	0	62	4634
2026-01-12 22:06:18.83	56.31	15.76	-45.4	-47.6	16.3	0.00e+00	0	43	0	0	62	4631
2026-01-12 22:06:19.54	56.44	15.80	-45.4	-47.6	16.3	0.00e+00	0	43	0	0	62	4624
2026-01-12 22:06:20.82	56.68	15.87	-45.3	-47.5	16.4	0.00e+00	0	43	0	0	62	4584
2026-01-12 22:06:21.56	56.82	15.91	-45.3	-47.5	16.5	0.00e+00	0	43	0	0	62	4550
2026-01-12 22:06:22.84	57.07	15.98	-45.3	-47.5	16.4	0.00e+00	0	43	0	0	62	4572
2026-01-12 22:06:23.61	57.22	16.02	-45.3	-47.5	16.4	0.00e+00	0	43	0	0	62	4586
2026-01-12 22:06:25.18	57.52	16.10	-45.5	-47.7	16.2	0.00e+00	0	43	0	0	62	4694
2026-01-12 22:06:25.83	57.65	16.13	-45.5	-47.8	16.2	0.00e+00	0	43	0	0	62	4723
2026-01-12 22:06:27.39	57.95	16.21	-45.5	-47.7	16.3	0.00e+00	0	43	0	0	62	4686
2026-01-12 22:06:28.02	58.07	16.25	-45.4	-47.6	16.4	0.00e+00	0	43	0	0	62	4612
2026-01-12 22:06:29.55	58.37	16.33	-45.3	-47.5	16.5	0.00e+00	0	43	0	0	62	4557
2026-01-12 22:06:30.26	58.51	16.36	-45.3	-47.5	16.5	0.00e+00	0	43	0	0	62	4587
2026-01-12 22:06:31.55	58.77	16.43	-45.2	-47.3	16.6	0.00e+00	0	43	0	0	62	4481
2026-01-12 22:06:32.27	58.91	16.46	-45.2	-47.3	16.7	0.00e+00	0	43	0	0	62	4478
2026-01-12 22:06:33.55	59.16	16.53	-45.2	-47.4	16.6	0.00e+00	0	43	0	0	62	4522
2026-01-12 22:06:34.26	59.31	16.57	-45.0	-47.1	16.8	0.00e+00	0	43	0	0	62	4387
2026-01-12 22:06:35.54	59.56	16.63	-45.1	-47.2	16.8	0.00e+00	0	43	0	0	62	4408
2026-01-12 22:06:36.26	59.71	16.67	-45.2	-47.3	16.6	0.00e+00	0	43	0	0	62	4464
2026-01-12 22:06:37.54	59.96	16.73	-45.1	-47.2	16.7	0.00e+00	0	43	0	0	62	4437
2026-01-12 22:06:38.28	60.11	16.77	-45.2	-47.3	16.6	0.00e+00	0	43	0	0	62	4489
2026-01-12 22:06:39.56	60.37	16.83	-45.0	-47.2	16.8	0.00e+00	0	43	0	0	62	4394
2026-01-12 22:06:40.29	60.52	16.87	-45.1	-47.3	16.7	0.00e+00	0	43	0	0	62	4458
2026-01-12 22:06:41.56	60.78	16.93	-45.1	-47.3	16.7	0.00e+00	0	43	0	0	62	4450
2026-01-12 22:06:42.28	60.93	16.96	-45.2	-47.3	16.7	0.00e+00	0	43	0	0	62	4479
2026-01-12 22:06:43.55	61.19	17.02	-45.2	-47.4	16.6	0.00e+00	0	43	0	0	62	4510
2026-01-12 22:06:44.26	61.33	17.06	-45.1	-47.2	16.8	0.00e+00	0	43	0	0	62	4430
2026-01-12 22:06:45.75	61.64	17.13	-45.1	-47.2	16.7	0.00e+00	0	43	0	0	62	4416
2026-01-12 22:06:46.46	61.79	17.16	-44.9	-47.0	16.9	0.00e+00	0	43	0	0	61	4598
2026-01-12 22:06:47.74	62.05	17.22	-45.0	-47.1	16.8	0.00e+00	0	43	0	0	61	4619
2026-01-12 22:06:48.45	62.20	17.26	-45.0	-47.1	16.9	0.00e+00	0	43	0	0	61	4611
2026-01-12 22:06:49.73	62.47	17.32	-45.1	-47.2	16.7	0.00e+00	0	43	0	0	61	4703
2026-01-12 22:06:50.45	62.62	17.35	-45.1	-47.3	16.7	0.00e+00	0	43	0	0	61	4711
2026-01-12 22:06:51.73	62.89	17.41	-45.0	-47.1	16.9	0.00e+00	0	43	0	0	61	4620
2026-01-12 22:06:52.46	63.05	17.44	-45.0	-47.1	16.9	0.00e+00	0	43	0	0	61	4603
2026-01-12 22:06:53.74	63.32	17.50	-44.9	-47.0	16.9	0.00e+00	0	43	0	0	61	4567
2026-01-12 22:06:54.46	63.47	17.54	-44.9	-47.0	16.9	0.00e+00	0	43	0	0	61	4597
2026-01-12 22:06:55.74	63.74	17.59	-44.9	-47.1	16.9	0.00e+00	0	43	0	0	61	4608
2026-01-12 22:06:56.45	63.89	17.62	-44.9	-47.0	16.9	0.00e+00	0	43	0	0	61	4592
2026-01-12 22:06:57.73	64.17	17.68	-44.8	-46.8	17.1	0.00e+00	0	43	0	0	61	4477
2026-01-12 22:06:58.44	64.32	17.71	-44.7	-46.8	17.2	0.00e+00	0	43	0	0	61	4443
2026-01-12 22:06:59.72	64.60	17.77	-44.6	-46.7	17.3	0.00e+00	0	43	0	0	61	4394
2026-01-12 22:07:00.43	64.75	17.80	-44.6	-46.6	17.3	0.00e+00	0	43	0	0	61	4375
2026-01-12 22:07:01.71	65.03	17.86	-44.7	-46.8	17.2	0.00e+00	0	43	0	0	61	4449
2026-01-12 22:07:02.42	65.18	17.89	-44.8	-46.8	17.1	0.00e+00	0	43	0	0	61	4493
2026-01-12 22:07:03.70	65.46	17.94	-44.8	-46.8	17.0	0.00e+00	0	43	0	0	61	4486
2026-01-12 22:07:04.41	65.61	17.97	-44.7	-46.7	17.2	0.00e+00	0	43	0	0	61	4429
2026-01-12 22:07:05.69	65.90	18.02	-44.7	-46.7	17.2	0.00e+00	0	43	0	0	61	4412
2026-01-12 22:07:06.43	66.06	18.06	-44.7	-46.8	17.2	0.00e+00	0	43	0	0	61	4445
2026-01-12 22:07:07.71	66.34	18.11	-44.7	-46.8	17.1	0.00e+00	0	43	0	0	61	4443
2026-01-12 22:07:08.56	66.53	18.14	-44.7	-46.8	17.1	0.00e+00	0	43	0	0	61	4442
2026-01-12 22:07:09.70	66.78	18.19	-44.6	-46.6	17.3	0.00e+00	0	43	0	0	61	4372
2026-01-12 22:07:10.55	66.97	18.22	-44.6	-46.7	17.3	0.00e+00	0	43	0	0	61	4395
2026-01-12 22:07:11.69	67.22	18.27	-44.6	-46.6	17.3	0.00e+00	0	43	0	0	61	4380
2026-01-12 22:07:12.79	67.47	18.31	-44.5	-46.5	17.4	0.00e+00	0	43	0	0	61	4335
2026-01-12 22:07:13.82	67.70	18.35	-44.5	-46.5	17.5	0.00e+00	0	43	0	0	61	4308
2026-01-12 22:07:14.81	67.92	18.39	-44.6	-46.6	17.4	0.00e+00	0	43	0	0	61	4350
2026-01-12 22:07:15.81	68.15	18.43	-44.6	-46.6	17.3	0.00e+00	0	43	0	0	61	4379
2026-01-12 22:07:16.80	68.37	18.47	-44.6	-46.5	17.4	0.00e+00	0	43	0	0	61	4339
2026-01-12 22:07:17.80	68.60	18.50	-44.4	-46.3	17.6	0.00e+00	0	43	0	0	60	4488
2026-01-12 22:07:18.79	68.82	18.54	-44.5	-46.5	17.5	0.00e+00	0	43	0	0	60	4565
2026-01-12 22:07:19.79	69.05	18.58	-44.5	-46.5	17.4	0.00e+00	0	43	0	0	60	4597
2026-01-12 22:07:20.78	69.27	18.61	-44.6	-46.6	17.4	0.00e+00	0	43	0	0	60	4609
2026-01-12 22:07:21.77	69.50	18.65	-44.6	-46.7	17.3	0.00e+00	0	43	0	0	60	4659
2026-01-12 22:07:22.77	69.73	18.69	-44.7	-46.7	17.3	0.00e+00	0	43	0	0	60	4660
2026-01-12 22:07:23.76	69.95	18.72	-44.5	-46.5	17.5	0.00e+00	0	43	0	0	60	4594
2026-01-12 22:07:24.76	70.18	18.76	-44.4	-46.4	17.6	0.00e+00	0	43	0	0	60	4519
2026-01-12 22:07:25.75	70.41	18.79	-44.4	-46.3	17.6	0.00e+00	0	43	0	0	60	4490
2026-01-12 22:07:26.75	70.64	18.82	-44.3	-46.3	17.7	0.00e+00	0	43	0	0	60	4442
2026-01-12 22:07:27.94	70.92	18.86	-44.4	-46.4	17.6	0.00e+00	0	43	0	0	60	4499
2026-01-12 22:07:28.82	71.12	18.89	-44.5	-46.5	17.5	0.00e+00	0	43	0	0	60	4550
2026-01-12 22:07:29.95	71.38	18.93	-44.5	-46.5	17.4	0.00e+00	0	43	0	0	60	4572
2026-01-12 22:07:30.81	71.59	18.96	-44.6	-46.6	17.4	0.00e+00	0	43	0	0	60	4609
2026-01-12 22:07:31.94	71.85	19.00	-44.5	-46.5	17.4	0.00e+00	0	43	0	0	60	4593
2026-01-12 22:07:32.80	72.05	19.02	-44.6	-46.6	17.4	0.00e+00	0	43	0	0	60	4630
2026-01-12 22:07:33.94	72.32	19.06	-44.5	-46.4	17.5	0.00e+00	0	43	0	0	60	4539
2026-01-12 22:07:34.79	72.52	19.08	-44.4	-46.4	17.6	0.00e+00	0	43	0	0	60	4523
2026-01-12 22:07:35.92	72.78	19.12	-44.5	-46.5	17.5	0.00e+00	0	43	0	0	60	4564
2026-01-12 22:07:36.78	72.99	19.14	-44.4	-46.4	17.6	0.00e+00	0	43	0	0	60	4522
2026-01-12 22:07:37.92	73.26	19.18	-44.5	-46.5	17.4	0.00e+00	0	43	0	0	60	4574
2026-01-12 22:07:38.77	73.46	19.20	-44.5	-46.5	17.4	0.00e+00	0	43	0	0	60	4559
2026-01-12 22:07:39.91	73.73	19.24	-44.4	-46.4	17.6	0.00e+00	0	43	0	0	60	4506
2026-01-12 22:07:40.76	73.93	19.26	-44.4	-46.4	17.6	0.00e+00	0	43	0	0	60	4510
2026-01-12 22:07:41.97	74.22	19.29	-44.4	-46.4	17.6	0.00e+00	0	43	0	0	60	4512
2026-01-12 22:07:42.83	74.42	19.32	-44.4	-46.4	17.6	0.00e+00	0	43	0	0	60	4530
2026-01-12 22:07:43.97	74.69	19.35	-44.4	-46.4	17.6	0.00e+00	0	43	0	0	60	4524
2026-01-12 22:07:44.82	74.90	19.37	-44.4	-46.4	17.7	0.00e+00	0	43	0	0	60	4502
2026-01-12 22:07:45.95	75.17	19.40	-44.5	-46.5	17.5	0.00e+00	0	43	0	0	60	4556
2026-01-12 22:07:46.81	75.37	19.42	-44.5	-46.5	17.5	0.00e+00	0	43	0	0	60	4565
2026-01-12 22:07:47.94	75.65	19.45	-44.5	-46.5	17.4	0.00e+00	0	43	0	0	60	4589
2026-01-12 22:07:48.80	75.85	19.47	-44.6	-46.6	17.4	0.00e+00	0	43	0	0	60	4611
2026-01-12 22:07:49.93	76.13	19.50	-44.6	-46.7	17.3	0.00e+00	0	43	0	0	60	4662
2026-01-12 22:07:50.79	76.33	19.52	-44.6	-46.7	17.3	0.00e+00	0	43	0	0	60	4670
2026-01-12 22:07:51.92	76.61	19.54	-44.7	-46.8	17.2	0.00e+00	0	43	0	0	60	4714
2026-01-12 22:07:52.78	76.82	19.56	-44.8	-46.8	17.2	0.00e+00	0	43	0	0	60	4755
2026-01-12 22:07:53.91	77.09	19.59	-44.7	-46.8	17.2	0.00e+00	0	43	0	0	60	4738
2026-01-12 22:07:54.76	77.30	19.61	-44.6	-46.7	17.3	0.00e+00	0	43	0	0	60	4671
2026-01-12 22:07:55.90	77.57	19.63	-44.6	-46.7	17.3	0.00e+00	0	43	0	0	60	4665
2026-01-12 22:07:56.75	77.78	19.65	-44.7	-46.8	17.2	0.00e+00	0	43	0	0	60	4706
2026-01-12 22:07:57.94	78.07	19.67	-44.8	-46.8	17.1	0.00e+00	0	43	0	0	60	4758
2026-01-12 22:07:58.79	78.28	19.69	-44.8	-46.8	17.2	0.00e+00	0	43	0	0	60	4740
2026-01-12 22:07:59.98	78.57	19.71	-44.7	-46.8	17.2	0.00e+00	0	43	0	0	60	4718
2026-01-12 22:08:00.83	78.78	19.73	-44.6	-46.7	17.3	0.00e+00	0	43	0	0	60	4673
2026-01-12 22:08:02.09	79.09	19.75	-44.6	-46.7	17.3	0.00e+00	0	43	0	0	60	4666
2026-01-12 22:08:02.89	79.28	19.76	-44.7	-46.7	17.3	0.00e+00	0	43	0	0	60	4697
2026-01-12 22:08:04.14	79.59	19.78	-44.7	-46.7	17.3	0.00e+00	0	43	0	0	60	4685
2026-01-12 22:08:05.39	79.90	19.80	-44.7	-46.7	17.3	0.00e+00	0	43	0	0	60	4674
2026-01-12 22:08:06.42	80.15	19.82	-44.7	-46.8	17.3	0.00e+00	0	43	0	0	60	4710
2026-01-12 22:08:07.41	80.40	19.84	-44.7	-46.7	17.3	0.00e+00	0	43	0	0	60	4695
2026-01-12 22:08:08.41	80.64	19.85	-44.6	-46.7	17.4	0.00e+00	0	43	0	0	60	4652
2026-01-12 22:08:09.41	80.89	19.86	-44.6	-46.6	17.4	0.00e+00	0	43	0	0	60	4643
2026-01-12 22:08:10.40	81.14	19.88	-44.7	-46.8	17.2	0.00e+00	0	43	0	0	60	4711
2026-01-12 22:08:11.39	81.38	19.89	-44.6	-46.7	17.3	0.00e+00	0	43	0	0	60	4687
2026-01-12 22:08:12.39	81.63	19.90	-44.8	-46.9	17.1	0.00e+00	0	43	0	0	60	4774
2026-01-12 22:08:13.39	81.88	19.92	-44.8	-46.9	17.1	0.00e+00	0	43	0	0	60	4788
2026-01-12 22:08:14.38	82.12	19.93	-44.8	-46.9	17.1	0.00e+00	0	43	0	0	60	4811
2026-01-12 22:08:15.38	82.37	19.94	-44.8	-47.0	17.1	0.00e+00	0	43	0	0	60	4815
2026-01-12 22:08:16.37	82.62	19.95	-44.7	-46.9	17.2	0.00e+00	0	43	0	0	60	4762
2026-01-12 22:08:17.37	82.87	19.96	-44.7	-46.8	17.2	0.00e+00	0	43	0	0	60	4746
2026-01-12 22:08:18.44	83.13	19.97	-44.7	-46.8	17.2	0.00e+00	0	43	0	0	60	4721
2026-01-12 22:08:19.32	83.35	19.98	-44.7	-46.8	17.2	0.00e+00	0	43	0	0	60	4745
2026-01-12 22:08:20.46	83.64	19.99	-44.7	-46.9	17.1	0.00e+00	0	43	0	0	60	4780
2026-01-12 22:08:21.31	83.85	19.99	-44.7	-46.9	17.2	0.00e+00	0	43	0	0	60	4772
2026-01-12 22:08:22.45	84.13	20.00	-44.7	-46.8	17.2	0.00e+00	0	43	0	0	60	4725
2026-01-12 22:08:23.30	84.35	20.01	-44.7	-46.7	17.2	0.00e+00	0	43	0	0	60	4702
2026-01-12 22:08:24.44	84.63	20.02	-44.6	-46.7	17.3	0.00e+00	0	43	0	0	60	4653
2026-01-12 22:08:25.29	84.84	20.02	-44.6	-46.7	17.3	0.00e+00	0	43	0	0	60	4653
2026-01-12 22:08:26.43	85.13	20.03	-44.6	-46.7	17.3	0.00e+00	0	43	0	0	60	4657
2026-01-12 22:08:27.28	85.34	20.03	-44.6	-46.7	17.3	0.00e+00	0	43	0	0	60	4652
2026-01-12 22:08:28.42	85.63	20.04	-44.5	-46.6	17.4	0.00e+00	0	43	0	0	60	4616
2026-01-12 22:08:29.27	85.84	20.04	-44.5	-46.6	17.4	0.00e+00	0	43	0	0	60	4602
2026-01-12 22:08:30.41	86.12	20.04	-44.6	-46.6	17.3	0.00e+00	0	43	0	0	60	4650
2026-01-12 22:08:31.26	86.34	20.04	-44.5	-46.6	17.3	0.00e+00	0	43	0	0	60	4637
2026-01-12 22:08:32.40	86.62	20.05	-44.6	-46.7	17.3	0.00e+00	0	43	0	0	60	4666
2026-01-12 22:08:33.25	86.83	20.05	-44.5	-46.6	17.4	0.00e+00	0	43	0	0	60	4631
2026-01-12 22:08:34.39	87.12	20.05	-44.6	-46.8	17.2	0.00e+00	0	43	0	0	60	4709
2026-01-12 22:08:35.24	87.33	20.05	-44.7	-46.8	17.2	0.00e+00	0	43	0	0	60	4726
2026-01-12 22:08:36.38	87.62	20.05	-44.7	-46.9	17.2	0.00e+00	0	43	0	0	60	4761
2026-01-12 22:08:37.23	87.83	20.05	-44.6	-46.7	17.3	0.00e+00	0	43	0	0	60	4671
2026-01-12 22:08:38.37	88.12	20.05	-44.6	-46.6	17.3	0.00e+00	0	43	0	0	60	4649
2026-01-12 22:08:39.22	88.33	20.05	-44.6	-46.6	17.3	0.00e+00	0	43	0	0	60	4635
2026-01-12 22:08:40.36	88.61	20.04	-44.7	-46.7	17.2	0.00e+00	0	43	0	0	60	4693
2026-01-12 22:08:41.21	88.83	20.04	-44.6	-46.7	17.3	0.00e+00	0	43	0	0	60	4663
2026-01-12 22:08:42.35	89.11	20.04	-44.7	-46.8	17.2	0.00e+00	0	43	0	0	60	4736
2026-01-12 22:08:43.20	89.33	20.03	-44.7	-46.7	17.3	0.00e+00	0	43	0	0	60	4700
2026-01-12 22:08:44.34	89.61	20.03	-44.7	-46.8	17.3	0.00e+00	0	43	0	0	60	4717
2026-01-12 22:08:45.19	89.82	20.02	-44.5	-46.6	17.4	0.00e+00	0	43	0	0	60	4606
2026-01-12 22:08:46.33	90.11	20.02	-44.6	-46.6	17.4	0.00e+00	0	43	0	0	60	4630
2026-01-12 22:08:47.18	90.32	20.01	-44.6	-46.7	17.3	0.00e+00	0	43	0	0	60	4653
2026-01-12 22:08:48.32	90.61	20.01	-44.5	-46.6	17.4	0.00e+00	0	43	0	0	60	4614
2026-01-12 22:08:49.17	90.82	20.00	-44.6	-46.7	17.3	0.00e+00	0	43	0	0	60	4666
2026-01-12 22:08:50.31	91.10	19.99	-44.6	-46.7	17.3	0.00e+00	0	43	0	0	60	4679
2026-01-12 22:08:51.16	91.32	19.98	-44.7	-46.8	17.2	0.00e+00	0	43	0	0	60	4718
2026-01-12 22:08:52.52	91.65	19.97	-44.6	-46.7	17.3	0.00e+00	0	43	0	0	60	4669
2026-01-12 22:08:53.23	91.83	19.97	-44.7	-46.7	17.3	0.00e+00	0	43	0	0	60	4695
2026-01-12 22:08:54.51	92.15	19.95	-44.5	-46.6	17.4	0.00e+00	0	43	0	0	60	4605
2026-01-12 22:08:55.24	92.33	19.95	-44.6	-46.6	17.4	0.00e+00	0	43	0	0	60	4615
2026-01-12 22:08:56.52	92.65	19.93	-44.6	-46.7	17.3	0.00e+00	0	43	0	0	60	4668
2026-01-12 22:08:57.23	92.83	19.92	-44.7	-46.7	17.3	0.00e+00	0	43	0	0	60	4687
2026-01-12 22:08:58.83	93.22	19.90	-44.6	-46.6	17.4	0.00e+00	0	43	0	0	60	4638
2026-01-12 22:08:59.40	93.37	19.90	-44.6	-46.6	17.4	0.00e+00	0	43	0	0	60	4625
2026-01-12 22:09:01.26	93.83	19.87	-44.4	-46.4	17.5	0.00e+00	0	43	0	0	60	4516
2026-01-12 22:09:01.83	93.97	19.87	-44.4	-46.4	17.5	0.00e+00	0	43	0	0	60	4536
2026-01-12 22:09:03.53	94.39	19.84	-44.4	-46.4	17.5	0.00e+00	0	43	0	0	60	4531
2026-01-12 22:09:04.10	94.53	19.83	-44.4	-46.4	17.6	0.00e+00	0	43	0	0	60	4500
2026-01-12 22:09:05.81	94.95	19.81	-44.4	-46.4	17.6	0.00e+00	0	43	0	0	60	4500
2026-01-12 22:09:06.38	95.09	19.80	-44.4	-46.4	17.6	0.00e+00	0	43	0	0	60	4533
2026-01-12 22:09:08.08	95.51	19.77	-44.4	-46.4	17.6	0.00e+00	0	43	0	0	60	4508
2026-01-12 22:09:08.76	95.68	19.76	-44.3	-46.3	17.6	0.00e+00	0	43	0	0	60	4472
2026-01-12 22:09:10.18	96.03	19.73	-44.4	-46.4	17.6	0.00e+00	0	43	0	0	60	4499
2026-01-12 22:09:10.97	96.22	19.72	-44.3	-46.3	17.6	0.00e+00	0	43	0	0	60	4468
2026-01-12 22:09:12.17	96.52	19.69	-44.4	-46.3	17.6	0.00e+00	0	43	0	0	60	4486
2026-01-12 22:09:13.02	96.73	19.68	-44.4	-46.3	17.6	0.00e+00	0	43	0	0	60	4477
2026-01-12 22:09:14.16	97.00	19.65	-44.3	-46.3	17.7	0.00e+00	0	43	0	0	60	4446
2026-01-12 22:09:15.23	97.27	19.63	-44.3	-46.3	17.7	0.00e+00	0	43	0	0	60	4458
2026-01-12 22:09:16.08	97.47	19.61	-44.4	-46.4	17.6	0.00e+00	0	43	0	0	60	4496
2026-01-12 22:09:17.22	97.75	19.59	-44.3	-46.3	17.7	0.00e+00	0	43	0	0	60	4480
2026-01-12 22:09:18.07	97.96	19.57	-44.4	-46.4	17.6	0.00e+00	0	43	0	0	60	4510
2026-01-12 22:09:19.21	98.23	19.54	-44.5	-46.5	17.5	0.00e+00	0	43	0	0	60	4551
2026-01-12 22:09:20.06	98.44	19.53	-44.3	-46.3	17.7	0.00e+00	0	43	0	0	60	4467
2026-01-12 22:09:21.20	98.72	19.50	-44.2	-46.2	17.7	0.00e+00	0	43	0	0	60	4432
2026-01-12 22:09:22.06	98.92	19.48	-44.2	-46.2	17.7	0.00e+00	0	43	0	0	60	4421
2026-01-12 22:09:23.19	99.20	19.45	-44.4	-46.3	17.6	0.00e+00	0	43	0	0	60	4488
2026-01-12 22:09:24.05	99.40	19.43	-44.4	-46.4	17.5	0.00e+00	0	43	0	0	60	4523
2026-01-12 22:09:25.18	99.68	19.40	-44.6	-46.6	17.3	0.00e+00	0	43	0	0	60	4651
2026-01-12 22:09:26.03	99.88	19.38	-44.5	-46.6	17.4	0.00e+00	0	43	0	0	60	4600
2026-01-12 22:09:27.17	100.16	19.35	-44.6	-46.6	17.4	0.00e+00	0	43	0	0	60	4648
2026-01-12 22:09:28.14	100.39	19.32	-44.6	-46.6	17.4	0.00e+00	0	43	0	0	60	4627
2026-01-12 22:09:29.13	100.62	19.30	-44.6	-46.6	17.4	0.00e+00	0	43	0	0	60	4638
2026-01-12 22:09:30.13	100.86	19.27	-44.6	-46.6	17.3	0.00e+00	0	43	0	0	60	4649
2026-01-12 22:09:31.12	101.10	19.24	-44.5	-46.5	17.4	0.00e+00	0	43	0	0	60	4577
2026-01-12 22:09:32.12	101.34	19.21	-44.5	-46.4	17.5	0.00e+00	0	43	0	0	60	4540
2026-01-12 22:09:33.11	101.57	19.18	-44.5	-46.5	17.5	0.00e+00	0	43	0	0	60	4561
2026-01-12 22:09:34.11	101.81	19.15	-44.5	-46.5	17.4	0.00e+00	0	43	0	0	60	4588
2026-01-12 22:09:35.10	102.04	19.12	-44.4	-46.4	17.5	0.00e+00	0	43	0	0	60	4537
2026-01-12 22:09:36.10	102.28	19.09	-44.4	-46.4	17.6	0.00e+00	0	43	0	0	60	4526
2026-01-12 22:09:37.09	102.51	19.06	-44.4	-46.4	17.6	0.00e+00	0	43	0	0	60	4525
2026-01-12 22:09:38.09	102.75	19.03	-44.4	-46.4	17.5	0.00e+00	0	43	0	0	60	4541
2026-01-12 22:09:39.08	102.98	19.00	-44.5	-46.5	17.5	0.00e+00	0	43	0	0	60	4546
2026-01-12 22:09:40.08	103.21	18.97	-44.5	-46.5	17.5	0.00e+00	0	43	0	0	60	4559
2026-01-12 22:09:41.07	103.45	18.94	-44.5	-46.5	17.5	0.00e+00	0	43	0	0	60	4575
2026-01-12 22:09:42.06	103.68	18.90	-44.6	-46.6	17.4	0.00e+00	0	43	0	0	60	4624
2026-01-12 22:09:43.06	103.91	18.87	-44.5	-46.6	17.4	0.00e+00	0	43	0	0	60	4606
2026-01-12 22:09:44.05	104.14	18.84	-44.4	-46.3	17.6	0.00e+00	0	43	0	0	60	4486
2026-01-12 22:09:45.05	104.37	18.80	-44.3	-46.3	17.7	0.00e+00	0	43	0	0	60	4443
2026-01-12 22:09:46.05	104.60	18.77	-44.3	-46.2	17.7	0.00e+00	0	43	0	0	60	4439
2026-01-12 22:09:47.04	104.83	18.73	-44.4	-46.4	17.6	0.00e+00	0	43	0	0	60	4509
2026-01-12 22:09:48.04	105.06	18.70	-44.4	-46.3	17.6	0.00e+00	0	43	0	0	60	4479
2026-01-12 22:09:49.03	105.29	18.66	-44.4	-46.4	17.5	0.00e+00	0	43	0	0	60	4509
2026-01-12 22:09:50.02	105.52	18.63	-44.5	-46.5	17.4	0.00e+00	0	43	0	0	60	4593
2026-01-12 22:09:51.02	105.75	18.59	-44.5	-46.5	17.5	0.00e+00	0	43	0	0	60	4573
2026-01-12 22:09:52.01	105.97	18.55	-44.4	-46.4	17.6	0.00e+00	0	43	0	0	60	4521
2026-01-12 22:09:53.01	106.20	18.52	-44.3	-46.3	17.7	0.00e+00	0	43	0	0	60	4473
2026-01-12 22:09:54.01	106.43	18.48	-44.4	-46.4	17.5	0.00e+00	0	43	0	0	60	4505
2026-01-12 22:09:55.00	106.65	18.44	-44.4	-46.4	17.5	0.00e+00	0	43	0	0	60	4535
2026-01-12 22:09:56.00	106.88	18.40	-44.4	-46.4	17.5	0.00e+00	0	43	0	0	60	4518
2026-01-12 22:09:56.99	107.10	18.36	-44.4	-46.4	17.6	0.00e+00	0	43	0	0	60	4508
2026-01-12 22:09:57.99	107.33	18.32	-44.4	-46.3	17.6	0.00e+00	0	43	0	0	60	4493
2026-01-12 22:09:58.98	107.55	18.29	-44.4	-46.4	17.5	0.00e+00	0	43	0	0	60	4520
2026-01-12 22:09:59.98	107.77	18.25	-44.5	-46.5	17.4	0.00e+00	0	43	0	0	60	4568
2026-01-12 22:10:00.97	107.99	18.21	-44.6	-46.6	17.3	0.00e+00	0	43	0	0	60	4633
2026-01-12 22:10:01.96	108.21	18.17	-44.6	-46.6	17.3	0.00e+00	0	43	0	0	60	4638
2026-01-12 22:10:02.96	108.44	18.12	-44.6	-46.6	17.3	0.00e+00	0	43	0	0	60	4620
2026-01-12 22:10:03.95	108.65	18.08	-44.6	-46.7	17.2	0.00e+00	0	43	0	0	60	4661
2026-01-12 22:10:04.95	108.88	18.04	-44.7	-46.8	17.1	0.00e+00	0	43	0	0	60	4736
2026-01-12 22:10:05.94	109.09	18.00	-44.8	-46.9	17.0	0.00e+00	0	43	0	0	60	4793
2026-01-12 22:10:06.94	109.31	17.96	-44.7	-46.8	17.1	0.00e+00	0	43	0	0	60	4742
2026-01-12 22:10:07.93	109.53	17.92	-44.8	-46.9	17.1	0.00e+00	0	43	0	0	60	4762
2026-01-12 22:10:08.93	109.75	17.87	-44.8	-46.9	17.0	0.00e+00	0	43	0	0	60	4763
2026-01-12 22:10:09.92	109.96	17.83	-44.8	-46.8	17.1	0.00e+00	0	43	0	0	60	4751
2026-01-12 22:10:10.91	110.18	17.79	-44.7	-46.8	17.1	0.00e+00	0	43	0	0	60	4730
2026-01-12 22:10:11.91	110.40	17.74	-44.7	-46.8	17.1	0.00e+00	0	43	0	0	60	4746
2026-01-12 22:10:12.91	110.61	17.70	-44.8	-46.9	17.1	0.00e+00	0	43	0	0	60	4783
2026-01-12 22:10:13.90	110.83	17.65	-44.9	-47.0	17.0	0.00e+00	0	43	0	0	60	4840
2026-01-12 22:10:14.90	111.04	17.61	-44.9	-47.0	17.0	0.00e+00	0	43	0	0	60	4839
2026-01-12 22:10:15.97	111.27	17.56	-44.9	-47.0	16.9	0.00e+00	0	43	0	0	60	4846
2026-01-12 22:10:16.82	111.45	17.52	-44.9	-47.0	16.9	0.00e+00	0	43	0	0	60	4868
2026-01-12 22:10:17.96	111.70	17.47	-44.9	-47.0	16.8	0.00e+00	0	43	0	0	60	4860
2026-01-12 22:10:18.81	111.88	17.43	-44.9	-47.0	16.8	0.00e+00	0	43	0	0	60	4857
2026-01-12 22:10:19.95	112.12	17.38	-44.9	-47.0	16.8	0.00e+00	0	43	0	0	60	4863
2026-01-12 22:10:20.80	112.30	17.34	-44.8	-46.9	16.9	0.00e+00	0	43	0	0	60	4808
2026-01-12 22:10:21.94	112.54	17.28	-44.8	-46.9	17.0	0.00e+00	0	43	0	0	60	4774
2026-01-12 22:10:22.79	112.72	17.24	-44.7	-46.8	17.1	0.00e+00	0	43	0	0	60	4733
2026-01-12 22:10:23.93	112.95	17.19	-44.8	-46.8	17.1	0.00e+00	0	43	0	0	60	4746
2026-01-12 22:10:24.79	113.13	17.15	-44.6	-46.7	17.2	0.00e+00	0	43	0	0	60	4656
2026-01-12 22:10:25.92	113.37	17.09	-44.7	-46.7	17.2	0.00e+00	0	43	0	0	60	4671
2026-01-12 22:10:26.78	113.55	17.05	-44.8	-46.8	17.1	0.00e+00	0	43	0	0	60	4745
2026-01-12 22:10:27.92	113.78	17.00	-44.8	-46.9	17.0	0.00e+00	0	43	0	0	60	4786
2026-01-12 22:10:28.77	113.96	16.96	-44.9	-46.9	17.0	0.00e+00	0	43	0	0	60	4808
2026-01-12 22:10:30.02	114.21	16.90	-45.0	-47.1	16.9	0.00e+00	0	43	0	0	60	4879
2026-01-12 22:10:30.87	114.39	16.85	-45.1	-47.3	16.7	0.00e+00	0	43	0	0	60	5004
2026-01-12 22:10:32.01	114.62	16.80	-45.2	-47.3	16.6	0.00e+00	0	43	0	0	61	4730
2026-01-12 22:10:32.86	114.79	16.75	-45.2	-47.3	16.6	0.00e+00	0	43	0	0	61	4749
2026-01-12 22:10:34.13	115.05	16.69	-45.2	-47.3	16.7	0.00e+00	0	43	0	0	61	4735
2026-01-12 22:10:34.91	115.21	16.65	-45.2	-47.3	16.6	0.00e+00	0	43	0	0	61	4725
2026-01-12 22:10:36.19	115.47	16.59	-45.1	-47.2	16.7	0.00e+00	0	43	0	0	61	4674
2026-01-12 22:10:36.90	115.61	16.55	-45.0	-47.1	16.8	0.00e+00	0	43	0	0	61	4620
2026-01-12 22:10:38.18	115.87	16.49	-45.0	-47.1	16.9	0.00e+00	0	43	0	0	61	4621
2026-01-12 22:10:38.91	116.01	16.45	-45.0	-47.1	16.8	0.00e+00	0	43	0	0	61	4641
2026-01-12 22:10:40.19	116.27	16.38	-45.0	-47.1	16.9	0.00e+00	0	43	0	0	61	4602
2026-01-12 22:10:40.98	116.42	16.34	-44.8	-46.9	17.1	0.00e+00	0	43	0	0	61	4517
2026-01-12 22:10:42.18	116.66	16.28	-44.8	-46.9	17.1	0.00e+00	0	43	0	0	61	4520
2026-01-12 22:10:43.03	116.83	16.23	-44.8	-46.9	17.1	0.00e+00	0	43	0	0	61	4499
2026-01-12 22:10:44.17	117.05	16.17	-45.0	-47.1	16.8	0.00e+00	0	43	0	0	61	4639
2026-01-12 22:10:45.02	117.22	16.13	-45.2	-47.4	16.6	0.00e+00	0	43	0	0	61	4766
2026-01-12 22:10:46.15	117.44	16.07	-45.3	-47.5	16.5	0.00e+00	0	43	0	0	61	4851
2026-01-12 22:10:47.01	117.60	16.02	-45.4	-47.6	16.4	0.00e+00	0	43	0	0	61	4923
2026-01-12 22:10:48.14	117.82	15.96	-45.4	-47.6	16.4	0.00e+00	0	43	0	0	61	4910
2026-01-12 22:10:49.00	117.99	15.92	-45.3	-47.5	16.5	0.00e+00	0	43	0	0	61	4847
2026-01-12 22:10:50.13	118.20	15.86	-45.3	-47.4	16.6	0.00e+00	0	43	0	0	61	4811
2026-01-12 22:10:50.99	118.37	15.81	-45.3	-47.5	16.5	0.00e+00	0	43	0	0	61	4821
2026-01-12 22:10:52.12	118.58	15.75	-45.1	-47.3	16.7	0.00e+00	0	43	0	0	61	4717
2026-01-12 22:10:53.42	118.83	15.68	-45.2	-47.3	16.6	0.00e+00	0	43	0	0	61	4737
2026-01-12 22:10:54.13	118.97	15.64	-45.3	-47.4	16.5	0.00e+00	0	43	0	0	61	4805
2026-01-12 22:10:55.41	119.21	15.57	-45.1	-47.2	16.7	0.00e+00	0	43	0	0	61	4684
2026-01-12 22:10:56.12	119.34	15.53	-45.1	-47.3	16.7	0.00e+00	0	43	0	0	61	4707
2026-01-12 22:10:57.45	119.59	15.46	-45.1	-47.3	16.7	0.00e+00	0	43	0	0	61	4720
2026-01-12 22:10:58.16	119.72	15.42	-45.2	-47.4	16.6	0.00e+00	0	43	0	0	61	4778
2026-01-12 22:10:59.44	119.96	15.35	-45.3	-47.5	16.5	0.00e+00	0	43	0	0	61	4835
2026-01-12 22:11:00.17	120.10	15.31	-45.3	-47.5	16.5	0.00e+00	0	43	0	0	61	4849
2026-01-12 22:11:01.45	120.33	15.24	-45.5	-47.7	16.3	0.00e+00	0	43	0	0	61	4938
2026-01-12 22:11:02.16	120.46	15.20	-45.4	-47.7	16.4	0.00e+00	0	43	0	0	61	4929
2026-01-12 22:11:03.44	120.70	15.13	-45.5	-47.7	16.3	0.00e+00	0	43	0	0	61	4941
2026-01-12 22:11:04.17	120.83	15.09	-45.5	-47.8	16.2	0.00e+00	0	43	0	0	61	4992
2026-01-12 22:11:05.45	121.06	15.02	-45.4	-47.6	16.3	0.00e+00	0	43	0	0	61	4925
2026-01-12 22:11:06.17	121.19	14.98	-45.4	-47.6	16.3	0.00e+00	0	44	0	0	61	4922
2026-01-12 22:11:07.77	121.48	14.89	-45.5	-47.8	16.2	0.00e+00	0	43	0	0	61	5000
2026-01-12 22:11:08.35	121.59	14.85	-45.5	-47.8	16.2	0.00e+00	0	43	0	0	61	5000
2026-01-12 22:11:09.91	121.87	14.77	-45.4	-47.5	16.4	0.00e+00	0	43	0	0	61	4870
2026-01-12 22:11:10.62	121.99	14.73	-45.3	-47.5	16.4	0.00e+00	0	43	0	0	61	4865
2026-01-12 22:11:11.90	122.22	14.65	-45.4	-47.6	16.3	0.00e+00	0	43	0	0	61	4893
2026-01-12 22:11:12.61	122.35	14.61	-45.4	-47.6	16.3	0.00e+00	0	43	0	0	61	4900
2026-01-12 22:11:13.89	122.57	14.54	-45.4	-47.6	16.3	0.00e+00	0	43	0	0	61	4900
2026-01-12 22:11:14.60	122.70	14.50	-45.3	-47.5	16.4	0.00e+00	0	43	0	0	61	4827
2026-01-12 22:11:15.89	122.92	14.42	-45.2	-47.4	16.5	0.00e+00	0	43	0	0	61	4794
2026-01-12 22:11:16.60	123.05	14.38	-45.3	-47.4	16.5	0.00e+00	0	43	0	0	61	4804
2026-01-12 22:11:17.88	123.27	14.31	-45.2	-47.4	16.5	0.00e+00	0	43	0	0	61	4776
2026-01-12 22:11:18.60	123.39	14.27	-45.3	-47.5	16.5	0.00e+00	0	43	0	0	61	4833
2026-01-12 22:11:20.13	123.66	14.18	-45.3	-47.5	16.4	0.00e+00	0	43	0	0	61	4858
2026-01-12 22:11:20.84	123.78	14.14	-45.3	-47.5	16.4	0.00e+00	0	43	0	0	61	4828
2026-01-12 22:11:22.17	124.01	14.06	-45.4	-47.7	16.3	0.00e+00	0	43	0	0	61	4928
2026-01-12 22:11:22.88	124.13	14.02	-45.4	-47.6	16.3	0.00e+00	0	43	0	0	61	4926
2026-01-12 22:11:24.16	124.34	13.95	-45.4	-47.6	16.3	0.00e+00	0	43	0	0	61	4909
2026-01-12 22:11:25.18	124.52	13.89	-45.3	-47.6	16.3	0.00e+00	0	43	0	0	61	4886
2026-01-12 22:11:26.48	124.74	13.81	-45.4	-47.6	16.3	0.00e+00	0	43	0	0	61	4900
2026-01-12 22:11:27.22	124.86	13.77	-45.4	-47.6	16.3	0.00e+00	0	43	0	0	61	4918
2026-01-12 22:11:28.50	125.07	13.69	-45.2	-47.4	16.5	0.00e+00	0	43	0	0	61	4777
2026-01-12 22:11:29.21	125.19	13.65	-45.2	-47.3	16.6	0.00e+00	0	43	0	0	61	4753
2026-01-12 22:11:30.86	125.46	13.55	-45.3	-47.5	16.5	0.00e+00	0	43	0	0	61	4818
2026-01-12 22:11:31.43	125.56	13.52	-45.2	-47.3	16.5	0.00e+00	0	43	0	0	61	4759
2026-01-12 22:11:33.13	125.84	13.42	-45.1	-47.2	16.6	0.00e+00	0	43	0	0	61	4701
2026-01-12 22:11:33.70	125.93	13.39	-45.1	-47.2	16.6	0.00e+00	0	43	0	0	61	4704
2026-01-12 22:11:35.41	126.21	13.29	-45.1	-47.3	16.6	0.00e+00	0	43	0	0	61	4717
2026-01-12 22:11:35.98	126.30	13.25	-45.1	-47.2	16.7	0.00e+00	0	43	0	0	61	4667
2026-01-12 22:11:37.68	126.57	13.15	-45.2	-47.3	16.5	0.00e+00	0	43	0	0	61	4749
2026-01-12 22:11:38.25	126.67	13.12	-45.1	-47.3	16.6	0.00e+00	0	43	0	0	61	4709
2026-01-12 22:11:39.99	126.94	13.01	-45.3	-47.5	16.4	0.00e+00	0	43	0	0	61	4842
2026-01-12 22:11:40.56	127.04	12.98	-45.2	-47.4	16.4	0.00e+00	0	43	0	0	61	4801
2026-01-12 22:11:42.26	127.30	12.88	-45.4	-47.6	16.2	0.00e+00	0	43	0	0	61	4913
2026-01-12 22:11:42.83	127.39	12.85	-45.4	-47.6	16.2	0.00e+00	0	43	0	0	61	4898
2026-01-12 22:11:44.60	127.67	12.74	-45.3	-47.6	16.2	0.00e+00	0	43	0	0	61	4892
2026-01-12 22:11:45.51	127.81	12.69	-45.4	-47.7	16.2	0.00e+00	0	43	0	0	61	4939
2026-01-12 22:11:46.51	127.97	12.63	-45.5	-47.8	16.0	0.00e+00	0	43	0	0	61	5029
2026-01-12 22:11:47.50	128.12	12.57	-45.6	-47.9	15.9	0.00e+00	0	43	0	0	61	5077
2026-01-12 22:11:48.50	128.28	12.51	-45.6	-47.9	15.9	0.00e+00	0	43	0	0	61	5072
2026-01-12 22:11:49.49	128.43	12.45	-45.7	-48.1	15.8	0.00e+00	0	43	0	0	62	4886
2026-01-12 22:11:50.55	128.59	12.38	-45.6	-47.9	15.9	0.00e+00	0	43	0	0	62	4791
2026-01-12 22:11:51.40	128.72	12.33	-45.7	-48.0	15.8	0.00e+00	0	43	0	0	62	4846
2026-01-12 22:11:52.54	128.89	12.27	-45.6	-48.0	15.9	0.00e+00	0	43	0	0	62	4825
2026-01-12 22:11:53.40	129.02	12.21	-45.7	-48.0	15.8	0.00e+00	0	43	0	0	62	4835
2026-01-12 22:11:54.53	129.20	12.15	-45.8	-48.1	15.7	0.00e+00	0	43	0	0	62	4920
2026-01-12 22:11:55.39	129.32	12.09	-45.7	-48.0	15.8	0.00e+00	0	43	0	0	62	4863
2026-01-12 22:11:56.52	129.49	12.03	-45.8	-48.2	15.6	0.00e+00	0	43	0	0	62	4933
2026-01-12 22:11:57.38	129.62	11.97	-45.8	-48.2	15.6	0.00e+00	0	43	0	0	62	4972
2026-01-12 22:11:58.51	129.79	11.91	-45.9	-48.3	15.5	0.00e+00	0	43	0	0	62	4985
2026-01-12 22:11:59.37	129.92	11.86	-45.9	-48.4	15.4	0.00e+00	0	43	0	0	62	5048
2026-01-12 22:12:00.50	130.08	11.79	-46.0	-48.4	15.4	0.00e+00	0	43	0	0	62	5064
2026-01-12 22:12:01.36	130.21	11.74	-46.1	-48.5	15.3	0.00e+00	0	43	0	0	62	5150
2026-01-12 22:12:02.54	130.38	11.66	-45.9	-48.3	15.5	0.00e+00	0	43	0	0	62	5015
2026-01-12 22:12:03.40	130.51	11.61	-46.0	-48.4	15.4	0.00e+00	0	43	0	0	62	5049
2026-01-12 22:12:04.60	130.68	11.54	-45.9	-48.3	15.5	0.00e+00	0	43	0	0	62	5039
2026-01-12 22:12:05.45	130.80	11.49	-46.0	-48.5	15.3	0.00e+00	0	43	0	0	62	5104
2026-01-12 22:12:06.59	130.97	11.42	-45.9	-48.3	15.5	0.00e+00	0	43	0	0	62	5006
2026-01-12 22:12:07.44	131.09	11.37	-45.8	-48.2	15.6	0.00e+00	0	43	0	0	62	4958
2026-01-12 22:12:08.57	131.25	11.30	-45.9	-48.3	15.5	0.00e+00	0	43	0	0	62	5023
2026-01-12 22:12:09.43	131.37	11.25	-45.8	-48.2	15.7	0.00e+00	0	43	0	0	62	4932
2026-01-12 22:12:10.56	131.53	11.18	-45.8	-48.2	15.6	0.00e+00	0	43	0	0	62	4953
2026-01-12 22:12:11.42	131.65	11.13	-45.8	-48.2	15.6	0.00e+00	0	43	0	0	62	4964
2026-01-12 22:12:12.55	131.81	11.06	-45.9	-48.3	15.5	0.00e+00	0	43	0	0	62	4991
2026-01-12 22:12:13.40	131.93	11.01	-46.0	-48.4	15.4	0.00e+00	0	43	0	0	62	5062
2026-01-12 22:12:14.54	132.09	10.94	-46.0	-48.4	15.4	0.00e+00	0	43	0	0	62	5075
2026-01-12 22:12:15.39	132.21	10.89	-46.1	-48.5	15.3	0.00e+00	0	43	0	0	62	5132
2026-01-12 22:12:16.53	132.36	10.82	-46.1	-48.5	15.3	0.00e+00	0	43	0	0	63	4861
2026-01-12 22:12:17.38	132.48	10.77	-46.0	-48.5	15.3	0.00e+00	0	43	0	0	63	4825
2026-01-12 22:12:18.52	132.64	10.70	-46.1	-48.6	15.2	0.00e+00	0	43	0	0	63	4878
2026-01-12 22:12:19.37	132.75	10.65	-46.1	-48.5	15.3	0.00e+00	0	43	0	0	63	4841
2026-01-12 22:12:20.51	132.91	10.58	-46.2	-48.6	15.2	0.00e+00	0	43	0	0	63	4910
2026-01-12 22:12:21.36	133.02	10.53	-46.2	-48.7	15.0	0.00e+00	0	43	0	0	63	4975
2026-01-12 22:12:22.50	133.18	10.46	-46.3	-48.8	14.9	0.00e+00	0	43	0	0	63	5031
2026-01-12 22:12:23.35	133.29	10.41	-46.3	-48.9	14.9	0.00e+00	0	43	0	0	63	5044
2026-01-12 22:12:24.61	133.46	10.33	-46.3	-48.8	15.0	0.00e+00	0	43	0	0	63	5003
2026-01-12 22:12:25.42	133.57	10.29	-46.2	-48.7	15.0	0.00e+00	0	43	0	0	63	4952
2026-01-12 22:12:26.55	133.72	10.22	-46.1	-48.6	15.1	0.00e+00	0	43	0	0	63	4885
2026-01-12 22:12:27.41	133.83	10.17	-46.2	-48.7	15.0	0.00e+00	0	43	0	0	63	4955
2026-01-12 22:12:28.54	133.98	10.10	-46.1	-48.6	15.0	0.00e+00	0	43	0	0	63	4923
2026-01-12 22:12:29.40	134.09	10.05	-46.2	-48.7	14.9	0.00e+00	0	43	0	0	63	4974
2026-01-12 22:12:30.53	134.24	9.98	-46.2	-48.7	14.9	1.50e-06	0	43	0	0	63	4963
2026-01-12 22:12:31.38	134.35	9.93	-46.3	-48.8	14.8	0.00e+00	0	43	0	0	63	5025
2026-01-12 22:12:32.52	134.50	9.86	-46.3	-48.9	14.8	7.00e-07	0	43	0	0	63	5044
2026-01-12 22:12:33.37	134.61	9.81	-46.4	-49.0	14.6	0.00e+00	0	43	0	0	63	5133
2026-01-12 22:12:34.50	134.75	9.74	-46.4	-49.1	14.6	7.00e-07	0	43	0	0	63	5175
2026-01-12 22:12:35.36	134.87	9.69	-46.5	-49.2	14.5	0.00e+00	0	43	0	0	63	5231
2026-01-12 22:12:36.50	135.01	9.62	-46.4	-49.0	14.6	0.00e+00	0	43	0	0	63	5159
2026-01-12 22:12:37.35	135.12	9.57	-46.5	-49.1	14.6	7.00e-07	0	43	0	0	63	5190
2026-01-12 22:12:38.48	135.26	9.50	-46.4	-49.0	14.6	0.00e+00	0	43	0	0	63	5157
2026-01-12 22:12:39.34	135.37	9.45	-46.4	-49.0	14.7	0.00e+00	0	43	0	0	63	5154
2026-01-12 22:12:40.55	135.52	9.38	-46.5	-49.1	14.5	7.00e-07	0	43	0	0	63	5200
2026-01-12 22:12:41.41	135.63	9.32	-46.5	-49.1	14.5	0.00e+00	0	43	0	0	63	5193
2026-01-12 22:12:42.61	135.78	9.25	-46.5	-49.1	14.6	0.00e+00	0	43	0	0	63	5205
2026-01-12 22:12:43.46	135.88	9.20	-46.5	-49.2	14.5	0.00e+00	0	43	0	0	63	5231
2026-01-12 22:12:44.60	136.03	9.13	-46.6	-49.2	14.4	5.75e-04	0	43	0	0	63	5262
2026-01-12 22:12:45.45	136.13	9.08	-46.6	-49.3	14.2	0.00e+00	0	43	0	0	64	5029
2026-01-12 22:12:46.59	136.27	9.01	-47.5	-50.6	13.1	0.00e+00	0	43	0	0	65	5524
2026-01-12 22:12:47.44	136.37	8.96	-52.2	-65.0	3.8	1.49e+00	0	43	104	0	75	16128
2026-01-12 22:12:48.57	136.51	8.90	-52.3	-65.3	3.8	1.49e+00	0	43	104	0	75	16753
2026-01-12 22:12:49.43	136.62	8.84	-52.3	-65.4	3.8	1.49e+00	0	43	104	0	75	17028
2026-01-12 22:12:50.56	136.75	8.78	-52.6	-65.5	3.8	1.49e+00	0	43	104	0	75	17252
2026-01-12 22:12:51.41	136.85	8.73	-52.6	-65.6	3.8	1.49e+00	0	43	104	0	75	17289
2026-01-12 22:12:52.55	136.99	8.66	-52.7	-65.7	3.8	1.49e+00	0	43	104	0	76	16541
2026-01-12 22:12:53.40	137.09	8.61	-52.6	-65.7	3.8	1.49e+00	0	43	104	0	76	16569
2026-01-12 22:12:54.54	137.23	8.54	-52.7	-65.7	3.8	1.49e+00	0	43	104	0	76	16580
2026-01-12 22:12:55.39	137.33	8.49	-52.8	-65.7	3.8	1.49e+00	0	43	104	0	76	16652
2026-01-12 22:12:56.52	137.46	8.42	-52.8	-65.8	3.8	1.49e+00	0	43	104	0	76	16747
2026-01-12 22:12:57.38	137.56	8.37	-52.7	-65.8	3.8	1.49e+00	0	44	104	0	76	16703
2026-01-12 22:12:58.54	137.70	8.30	-52.8	-65.8	3.8	1.49e+00	0	43	104	0	76	16736
2026-01-12 22:12:59.39	137.80	8.25	-52.8	-65.8	3.8	1.49e+00	0	43	104	0	76	16767
2026-01-12 22:13:00.59	137.94	8.18	-52.8	-65.8	3.8	1.49e+00	0	43	104	0	76	16852
2026-01-12 22:13:01.44	138.03	8.13	-52.8	-65.8	3.8	1.49e+00	0	43	104	0	76	16812
2026-01-12 22:13:02.64	138.17	8.06	-52.7	-65.8	3.8	1.49e+00	0	43	104	0	76	16779
2026-01-12 22:13:03.49	138.27	8.01	-52.7	-65.8	3.8	1.49e+00	0	43	104	0	76	16859
2026-01-12 22:13:04.69	138.41	7.94	-52.5	-65.8	3.8	1.49e+00	0	43	104	0	76	16751
2026-01-12 22:13:05.54	138.50	7.89	-52.6	-65.8	3.8	1.49e+00	0	43	104	0	76	16845
2026-01-12 22:13:06.68	138.63	7.82	-52.7	-65.8	3.8	1.49e+00	0	43	104	0	76	16819
2026-01-12 22:13:07.53	138.73	7.77	-52.7	-65.8	3.8	1.49e+00	0	43	104	0	76	16767
2026-01-12 22:13:08.67	138.86	7.70	-52.7	-65.8	3.8	1.49e+00	0	43	104	0	76	16814
2026-01-12 22:13:09.52	138.95	7.65	-52.7	-65.8	3.8	1.49e+00	0	43	104	0	76	16785
2026-01-12 22:13:10.65	139.08	7.59	-52.7	-65.8	3.8	1.49e+00	0	43	104	0	76	16781
2026-01-12 22:13:11.50	139.17	7.54	-52.7	-65.8	3.8	1.49e+00	0	43	104	0	76	16697
2026-01-12 22:13:12.64	139.30	7.47	-52.7	-65.8	3.8	1.49e+00	0	43	104	0	76	16703
2026-01-12 22:13:13.49	139.39	7.42	-52.7	-65.8	3.8	1.49e+00	0	43	104	0	76	16721
2026-01-12 22:13:14.63	139.52	7.35	-52.7	-65.8	3.8	1.49e+00	0	43	104	0	76	16711
2026-01-12 22:13:15.48	139.61	7.30	-52.7	-65.8	3.8	1.49e+00	0	43	104	0	76	16711
2026-01-12 22:13:16.61	139.73	7.24	-52.6	-65.8	3.8	1.49e+00	0	44	104	0	76	16702
2026-01-12 22:13:17.47	139.83	7.19	-52.7	-65.7	3.8	1.49e+00	0	43	104	0	76	16683
2026-01-12 22:13:18.60	139.95	7.12	-52.6	-65.8	3.8	1.49e+00	0	43	104	0	76	16726
2026-01-12 22:13:19.45	140.04	7.07	-52.6	-65.8	3.8	1.49e+00	0	43	104	0	76	16736
2026-01-12 22:13:20.59	140.16	7.00	-52.6	-65.7	3.8	1.49e+00	0	43	104	0	76	16651
2026-01-12 22:13:21.44	140.25	6.95	-52.6	-65.8	3.8	1.49e+00	0	43	104	0	76	16695
2026-01-12 22:13:22.58	140.37	6.89	-52.7	-65.7	3.8	1.49e+00	0	43	104	0	76	16685
2026-01-12 22:13:23.43	140.46	6.84	-52.6	-65.8	3.8	1.49e+00	0	43	104	0	76	16713
2026-01-12 22:13:24.56	140.58	6.77	-52.6	-65.8	3.8	1.49e+00	0	43	104	0	76	16713
2026-01-12 22:13:25.41	140.67	6.72	-52.6	-65.8	3.8	1.49e+00	0	43	104	0	76	16705
2026-01-12 22:13:26.55	140.79	6.66	-52.6	-65.8	3.8	1.49e+00	0	43	104	0	76	16700
2026-01-12 22:13:27.40	140.88	6.61	-52.6	-65.7	3.8	1.49e+00	0	43	104	0	76	16680
2026-01-12 22:13:28.53	141.00	6.54	-52.6	-65.8	3.8	1.49e+00	0	44	104	0	76	16718
2026-01-12 22:13:29.39	141.09	6.49	-52.6	-65.8	3.8	1.49e+00	0	43	104	0	76	16740
2026-01-12 22:13:30.52	141.21	6.43	-52.6	-65.7	3.8	1.49e+00	0	43	104	0	76	16686
2026-01-12 22:13:31.37	141.29	6.38	-52.6	-65.8	3.8	1.49e+00	0	43	104	0	76	16700
2026-01-12 22:13:32.51	141.41	6.31	-52.6	-65.7	3.8	1.49e+00	0	43	104	0	76	16642
2026-01-12 22:13:33.36	141.50	6.26	-52.6	-65.7	3.8	1.49e+00	0	43	104	0	76	16666
2026-01-12 22:13:34.49	141.61	6.20	-52.6	-65.7	3.8	1.49e+00	0	43	104	0	76	16641
2026-01-12 22:13:35.34	141.70	6.15	-52.6	-65.7	3.8	1.49e+00	0	43	104	0	76	16686
2026-01-12 22:13:36.48	141.81	6.08	-52.6	-65.7	3.8	1.49e+00	0	43	104	0	76	16675
2026-01-12 22:13:37.33	141.90	6.03	-52.6	-65.8	3.8	1.49e+00	0	43	104	0	76	16711
2026-01-12 22:13:38.47	142.01	5.97	-52.6	-65.8	3.8	1.49e+00	0	43	104	0	76	16718
2026-01-12 22:13:39.32	142.10	5.92	-52.6	-65.7	3.8	1.49e+00	0	43	104	0	76	16680
2026-01-12 22:13:40.45	142.21	5.85	-52.6	-65.7	3.8	1.49e+00	0	43	104	0	76	16608
2026-01-12 22:13:41.30	142.29	5.80	-52.6	-65.7	3.8	1.49e+00	0	43	104	0	76	16664
2026-01-12 22:13:42.44	142.41	5.74	-52.6	-65.8	3.8	1.49e+00	0	43	104	0	76	16713
2026-01-12 22:13:43.29	142.49	5.69	-52.6	-65.7	3.8	1.49e+00	0	43	104	0	76	16665
2026-01-12 22:13:44.42	142.60	5.63	-52.6	-65.7	3.8	1.49e+00	0	43	104	0	76	16629
2026-01-12 22:13:45.28	142.68	5.58	-52.6	-65.7	3.8	1.49e+00	0	43	104	0	76	16663
2026-01-12 22:13:46.41	142.79	5.51	-52.6	-65.8	3.8	1.49e+00	0	43	104	0	76	16701
2026-01-12 22:13:47.26	142.88	5.46	-52.6	-65.7	3.8	1.49e+00	0	43	104	0	76	16641
2026-01-12 22:13:48.40	142.99	5.40	-52.6	-65.7	3.8	1.49e+00	0	43	104	0	76	16690
2026-01-12 22:13:49.25	143.07	5.35	-52.6	-65.7	3.8	1.49e+00	0	43	104	0	76	16688
2026-01-12 22:13:50.38	143.18	5.29	-52.6	-65.7	3.8	1.49e+00	0	43	104	0	76	16608
2026-01-12 22:13:51.23	143.26	5.24	-52.6	-65.7	3.8	1.49e+00	0	43	104	0	76	16693
2026-01-12 22:13:52.37	143.37	5.17	-52.6	-65.7	3.8	1.49e+00	0	43	104	0	76	16692
2026-01-12 22:13:53.22	143.45	5.13	-52.6	-65.7	3.8	1.49e+00	0	43	104	0	76	16611
2026-01-12 22:13:54.36	143.55	5.06	-52.6	-65.7	3.8	1.49e+00	0	44	104	0	76	16645
2026-01-12 22:13:55.21	143.63	5.01	-52.6	-65.7	3.8	1.49e+00	0	43	104	0	76	16685
2026-01-12 22:13:56.34	143.74	4.95	-52.6	-65.8	3.8	1.49e+00	0	43	104	0	76	16696

#Closed at: 2026-01-12 22:13:57
#Recorded file [0 MB]: D:/Data/31040_260113_010314.dat