passes_logs/2026/01/12/T1/T1__20260112_233121_AQUA_rec.log

#Pass ID: 20260112_233121_AQUA
#Satellite: AQUA
#Configuration: AQUA
#almurnet v.1.7.20251203
#Start time: 2026-01-12 23:31:22

#Version: 2.0.20230620
#Station: T1
#Location: 37.570604 lon 55.790049 lat
#TLE: 1 27424U 02022A   26012.29577270  .00001027  00000+0  21555-3 0  9995
#TLE: 2 27424  98.4078 338.6778 0002034  81.5885  29.6294 14.61817302260499

#Time	Az	El	Level	Level2	SNR	BER	BlckErr	Temp	State	Recorded	gain1	gain2
2026-01-12 23:31:22.73	39.83	5.04	-51.2	-71.8	3.8	7.48e-01	0	40	0	0	74	37704
2026-01-12 23:31:23.72	39.96	5.09	-51.2	-71.8	3.8	7.48e-01	0	41	104	0	73	39805
2026-01-12 23:31:24.71	40.09	5.14	-51.2	-71.8	3.8	7.46e-01	0	41	104	0	73	39887
2026-01-12 23:31:25.70	40.22	5.19	-51.2	-71.8	3.8	7.46e-01	0	41	104	0	73	39800
2026-01-12 23:31:26.70	40.35	5.23	-51.2	-71.8	3.8	7.46e-01	0	41	104	0	73	39822
2026-01-12 23:31:27.69	40.48	5.28	-51.2	-71.8	3.8	7.48e-01	0	41	104	0	73	39821
2026-01-12 23:31:28.68	40.61	5.33	-51.2	-71.8	3.8	7.47e-01	0	41	104	0	73	39824
2026-01-12 23:31:29.68	40.74	5.38	-51.2	-71.8	3.8	7.47e-01	0	41	104	0	73	39842
2026-01-12 23:31:30.67	40.87	5.43	-51.2	-71.8	3.8	7.45e-01	0	41	104	0	73	39764
2026-01-12 23:31:31.66	41.01	5.47	-51.2	-71.8	3.8	7.50e-01	0	41	104	0	73	39874
2026-01-12 23:31:32.66	41.14	5.52	-51.2	-71.8	3.8	7.44e-01	0	41	104	0	73	39778
2026-01-12 23:31:33.65	41.27	5.57	-51.2	-71.8	3.8	7.48e-01	0	41	104	0	73	39791
2026-01-12 23:31:34.64	41.41	5.62	-51.2	-71.8	3.8	7.47e-01	0	41	104	0	73	39676
2026-01-12 23:31:35.64	41.54	5.67	-51.2	-71.8	3.8	7.46e-01	0	41	104	0	73	39620
2026-01-12 23:31:36.63	41.68	5.71	-51.2	-71.8	3.8	7.45e-01	0	41	104	0	73	39610
2026-01-12 23:31:37.63	41.81	5.76	-51.2	-71.7	3.8	7.46e-01	0	41	104	0	73	39528
2026-01-12 23:31:38.62	41.95	5.81	-51.2	-71.7	3.8	7.46e-01	0	41	104	0	73	39545
2026-01-12 23:31:39.61	42.09	5.86	-51.2	-71.7	3.8	7.44e-01	0	41	104	0	73	39536
2026-01-12 23:31:40.61	42.22	5.91	-51.2	-71.7	3.8	7.45e-01	0	42	104	0	73	39508
2026-01-12 23:31:41.60	42.36	5.95	-51.2	-71.7	3.8	7.44e-01	0	41	104	0	73	39555
2026-01-12 23:31:42.59	42.50	6.00	-51.2	-71.7	3.8	7.45e-01	0	41	104	0	73	39543
2026-01-12 23:31:43.59	42.64	6.05	-51.2	-71.7	3.8	7.44e-01	0	42	104	0	73	39517
2026-01-12 23:31:44.58	42.78	6.10	-51.2	-71.8	3.8	7.47e-01	0	42	104	0	73	39626
2026-01-12 23:31:45.57	42.91	6.14	-51.2	-71.8	3.8	7.46e-01	0	42	104	0	73	39656
2026-01-12 23:31:46.57	43.05	6.19	-51.2	-71.8	3.8	7.44e-01	0	42	104	0	73	39661
2026-01-12 23:31:47.56	43.19	6.24	-51.2	-71.8	3.8	7.43e-01	0	42	104	0	73	39691
2026-01-12 23:31:48.56	43.34	6.29	-51.2	-71.8	3.8	7.47e-01	0	42	104	0	73	39651
2026-01-12 23:31:49.55	43.48	6.34	-51.2	-71.7	3.8	7.46e-01	0	42	104	0	73	39532
2026-01-12 23:31:50.54	43.62	6.38	-51.2	-71.8	3.8	7.45e-01	0	42	104	0	73	39738
2026-01-12 23:31:51.54	43.76	6.43	-51.2	-71.8	3.8	7.47e-01	0	42	104	0	73	39659
2026-01-12 23:31:52.53	43.90	6.48	-51.2	-71.8	3.8	7.44e-01	0	42	104	0	73	39726
2026-01-12 23:31:53.52	44.05	6.52	-51.2	-71.8	3.8	7.47e-01	0	42	104	0	73	39787
2026-01-12 23:31:54.52	44.19	6.57	-51.2	-71.8	3.8	7.48e-01	0	42	104	0	73	39713
2026-01-12 23:31:55.51	44.34	6.62	-51.2	-71.8	3.8	7.47e-01	0	42	104	0	73	39682
2026-01-12 23:31:56.50	44.48	6.67	-51.2	-71.8	3.8	7.48e-01	0	42	104	0	73	39762
2026-01-12 23:31:57.50	44.63	6.71	-51.2	-71.8	3.8	7.43e-01	0	42	104	0	73	39675
2026-01-12 23:31:58.49	44.77	6.76	-51.2	-71.7	3.8	7.47e-01	0	42	104	0	73	39583
2026-01-12 23:31:59.48	44.92	6.81	-51.2	-71.7	3.8	7.47e-01	0	42	104	0	73	39491
2026-01-12 23:32:00.48	45.06	6.86	-51.2	-71.7	3.8	7.47e-01	0	42	104	0	73	39553
2026-01-12 23:32:01.47	45.21	6.90	-51.2	-71.8	3.8	7.44e-01	0	42	104	0	73	39627
2026-01-12 23:32:02.46	45.36	6.95	-51.2	-71.8	3.8	7.45e-01	0	42	104	0	73	39675
2026-01-12 23:32:03.46	45.51	7.00	-51.2	-71.8	3.8	7.44e-01	0	42	104	0	73	39617
2026-01-12 23:32:04.45	45.66	7.04	-51.2	-71.8	3.8	7.46e-01	0	42	104	0	73	39636
2026-01-12 23:32:05.44	45.80	7.09	-51.2	-71.7	3.8	7.48e-01	0	42	104	0	73	39435
2026-01-12 23:32:06.44	45.96	7.14	-51.2	-71.7	3.8	7.44e-01	0	42	104	0	73	39211
2026-01-12 23:32:07.43	46.11	7.18	-51.2	-71.6	3.8	7.49e-01	0	42	104	0	73	38842
2026-01-12 23:32:08.42	46.26	7.23	-51.2	-71.5	3.8	7.43e-01	0	42	104	0	73	38483
2026-01-12 23:32:09.42	46.41	7.28	-51.1	-71.4	3.8	7.47e-01	0	42	104	0	73	38133
2026-01-12 23:32:10.41	46.56	7.32	-51.2	-71.4	3.8	7.41e-01	0	42	104	0	73	38048
2026-01-12 23:32:11.40	46.71	7.37	-51.2	-71.4	3.8	7.46e-01	0	43	104	0	73	38110
2026-01-12 23:32:12.40	46.86	7.42	-51.2	-71.4	3.8	7.45e-01	0	42	104	0	73	37970
2026-01-12 23:32:13.39	47.02	7.46	-51.2	-71.4	3.8	7.42e-01	0	42	104	0	73	37848
2026-01-12 23:32:14.38	47.17	7.51	-51.2	-71.5	3.8	7.49e-01	0	43	104	0	73	38328
2026-01-12 23:32:15.38	47.33	7.55	-51.2	-71.6	3.8	7.46e-01	0	42	104	0	73	38783
2026-01-12 23:32:16.37	47.48	7.60	-51.2	-71.7	3.8	7.47e-01	0	42	104	0	73	39268
2026-01-12 23:32:17.36	47.64	7.65	-51.2	-71.8	3.8	7.47e-01	0	42	104	0	73	39598
2026-01-12 23:32:18.36	47.79	7.69	-51.2	-71.8	3.8	7.42e-01	0	43	104	0	73	39640
2026-01-12 23:32:19.35	47.95	7.74	-51.2	-71.8	3.8	7.44e-01	0	42	104	0	73	39609
2026-01-12 23:32:20.34	48.11	7.78	-51.2	-71.8	3.8	7.45e-01	0	43	104	0	73	39618
2026-01-12 23:32:21.34	48.26	7.83	-51.2	-71.8	3.8	7.45e-01	0	43	104	0	73	39680
2026-01-12 23:32:22.33	48.42	7.87	-51.2	-71.8	3.8	7.43e-01	0	43	104	0	73	39621
2026-01-12 23:32:23.32	48.58	7.92	-51.2	-71.7	3.8	7.44e-01	0	43	104	0	73	39371
2026-01-12 23:32:24.32	48.74	7.96	-51.1	-71.6	3.8	7.45e-01	0	43	104	0	73	38849
2026-01-12 23:32:25.31	48.90	8.01	-51.2	-71.5	3.8	7.45e-01	0	43	104	0	73	38299
2026-01-12 23:32:26.31	49.06	8.06	-51.2	-71.4	3.8	7.45e-01	0	43	104	0	73	38056
2026-01-12 23:32:27.30	49.22	8.10	-51.2	-71.4	3.8	7.46e-01	0	42	104	0	73	38050
2026-01-12 23:32:28.29	49.38	8.15	-51.2	-71.5	3.8	7.43e-01	0	43	104	0	73	38515
2026-01-12 23:32:29.28	49.54	8.19	-51.2	-71.5	3.8	7.45e-01	0	43	104	0	73	38629
2026-01-12 23:32:30.28	49.70	8.24	-51.2	-71.5	3.8	7.44e-01	0	43	104	0	73	38650
2026-01-12 23:32:31.27	49.87	8.28	-51.2	-71.4	3.8	7.47e-01	0	43	104	0	73	38225
2026-01-12 23:32:32.26	50.03	8.32	-51.2	-71.3	3.8	7.48e-01	0	43	104	0	73	37802
2026-01-12 23:32:33.26	50.19	8.37	-51.2	-71.4	3.8	7.44e-01	0	43	104	0	73	37868
2026-01-12 23:32:34.25	50.36	8.41	-51.2	-71.5	3.8	7.47e-01	0	43	104	0	73	38569
2026-01-12 23:32:35.24	50.52	8.46	-51.2	-71.7	3.8	7.44e-01	0	43	104	0	73	39288
2026-01-12 23:32:36.24	50.69	8.50	-51.2	-71.7	3.8	7.49e-01	0	43	104	0	73	39374
2026-01-12 23:32:37.23	50.85	8.55	-51.2	-71.5	3.8	7.45e-01	0	43	104	0	73	38453
2026-01-12 23:32:38.22	51.02	8.59	-51.2	-71.3	3.8	7.46e-01	0	43	104	0	73	37384
2026-01-12 23:32:39.22	51.19	8.63	-51.1	-71.3	3.8	7.49e-01	0	43	104	0	73	37375
2026-01-12 23:32:40.21	51.36	8.68	-51.2	-71.5	3.8	7.48e-01	0	43	104	0	73	38362
2026-01-12 23:32:41.20	51.52	8.72	-51.2	-71.7	3.8	7.47e-01	0	43	104	0	73	39307
2026-01-12 23:32:42.20	51.69	8.77	-51.2	-71.6	3.8	7.45e-01	0	43	104	0	73	38993
2026-01-12 23:32:43.19	51.86	8.81	-51.2	-71.2	3.8	7.44e-01	0	43	104	0	73	37226
2026-01-12 23:32:44.18	52.03	8.85	-51.2	-70.3	3.8	7.44e-01	0	43	104	0	73	33646
2026-01-12 23:32:45.17	52.20	8.89	-51.1	-69.1	3.9	7.46e-01	0	43	104	0	73	29305
2026-01-12 23:32:46.17	52.37	8.94	-51.1	-68.6	3.8	7.42e-01	0	43	104	0	73	27431
2026-01-12 23:32:47.16	52.54	8.98	-51.1	-68.9	4.0	7.40e-01	0	43	104	0	73	28515
2026-01-12 23:32:48.15	52.71	9.02	-51.2	-71.1	3.8	7.47e-01	0	43	104	0	73	36853
2026-01-12 23:32:49.15	52.89	9.07	-51.2	-71.4	3.8	7.46e-01	0	43	104	0	73	37845
2026-01-12 23:32:50.36	53.10	9.12	-51.2	-66.6	4.8	7.17e-01	0	43	0	0	73	21947
2026-01-12 23:32:51.25	53.25	9.16	-51.2	-62.9	8.1	6.53e-01	0	43	0	524288	73	14337
2026-01-12 23:32:52.39	53.45	9.21	-51.5	-67.4	4.3	7.42e-01	0	43	104	524288	73	23889
2026-01-12 23:32:53.30	53.61	9.24	-51.3	-65.0	5.8	6.88e-01	0	43	0	1048576	73	18106
2026-01-12 23:32:54.49	53.82	9.29	-51.1	-67.7	4.3	7.26e-01	0	43	104	1048576	73	24762
2026-01-12 23:32:55.34	53.97	9.33	-51.0	-68.0	3.9	7.41e-01	0	43	104	1048576	73	25615
2026-01-12 23:32:56.68	54.21	9.39	-51.1	-67.5	4.5	7.28e-01	0	43	104	1048576	73	24164
2026-01-12 23:32:57.39	54.34	9.42	-51.2	-67.3	4.4	7.28e-01	0	43	104	1048576	73	23792
2026-01-12 23:32:58.67	54.57	9.47	-51.4	-67.8	3.9	7.39e-01	0	43	104	1048576	73	25154
2026-01-12 23:32:59.39	54.70	9.50	-51.5	-68.4	3.9	7.43e-01	0	43	104	1048576	73	26789
2026-01-12 23:33:00.67	54.93	9.55	-51.2	-66.7	4.8	7.17e-01	0	43	104	1048576	73	22191
2026-01-12 23:33:01.40	55.06	9.58	-51.4	-67.1	4.6	7.21e-01	0	43	104	1048576	73	23135
2026-01-12 23:33:02.68	55.29	9.63	-51.7	-69.4	3.9	7.41e-01	0	43	104	1048576	74	28435
2026-01-12 23:33:03.40	55.42	9.66	-51.6	-68.0	3.9	7.44e-01	0	43	104	1048576	74	24207
2026-01-12 23:33:04.68	55.65	9.72	-51.6	-67.5	4.5	7.24e-01	0	43	104	1048576	74	22803
2026-01-12 23:33:05.58	55.82	9.75	-51.6	-67.8	3.9	7.39e-01	0	43	104	1048576	74	23603
2026-01-12 23:33:06.67	56.02	9.80	-51.5	-68.3	3.8	7.40e-01	0	43	104	1048576	74	25182
2026-01-12 23:33:07.53	56.17	9.83	-51.6	-67.9	4.3	7.33e-01	0	43	104	1048576	74	23933
2026-01-12 23:33:08.66	56.38	9.88	-51.6	-71.2	3.7	7.46e-01	0	43	104	1048576	74	35115
2026-01-12 23:33:09.52	56.54	9.91	-51.5	-67.4	4.0	7.38e-01	0	43	104	1048576	74	22760
2026-01-12 23:33:10.65	56.75	9.96	-51.7	-69.7	4.0	7.50e-01	0	43	104	1048576	74	29454
2026-01-12 23:33:11.50	56.91	9.99	-51.8	-70.4	3.8	7.44e-01	0	43	104	1048576	74	32171
2026-01-12 23:33:12.64	57.12	10.03	-51.7	-67.1	4.6	7.19e-01	0	43	104	1048576	74	21801
2026-01-12 23:33:13.50	57.28	10.07	-51.7	-67.2	4.5	7.21e-01	0	43	104	1048576	74	22209
2026-01-12 23:33:14.63	57.49	10.11	-51.6	-67.2	4.5	7.24e-01	0	43	104	1048576	74	22162
2026-01-12 23:33:15.49	57.65	10.15	-51.6	-68.2	4.2	7.46e-01	0	43	104	1048576	74	24800
2026-01-12 23:33:16.62	57.86	10.19	-51.7	-68.1	4.2	7.38e-01	0	43	104	1048576	74	24666
2026-01-12 23:33:17.47	58.03	10.22	-51.7	-68.0	4.4	7.29e-01	0	43	104	1048576	74	24369
2026-01-12 23:33:18.61	58.24	10.26	-51.7	-66.6	4.6	7.14e-01	0	43	104	1048576	74	20546
2026-01-12 23:33:19.59	58.43	10.30	-51.9	-68.9	3.8	7.48e-01	0	43	104	1048576	74	26842
2026-01-12 23:33:20.74	58.65	10.35	-51.8	-68.3	4.0	7.40e-01	0	43	104	1048576	74	25147
2026-01-12 23:33:21.61	58.81	10.38	-51.7	-67.2	4.6	7.19e-01	0	43	104	1048576	74	22092
2026-01-12 23:33:22.98	59.07	10.43	-51.6	-67.1	4.7	7.21e-01	0	43	104	1048576	74	21958
2026-01-12 23:33:23.69	59.21	10.46	-51.6	-67.0	4.5	7.20e-01	0	43	104	1048576	74	21572
2026-01-12 23:33:24.97	59.46	10.50	-51.5	-67.3	4.5	7.27e-01	0	43	104	1048576	74	22347
2026-01-12 23:33:25.70	59.60	10.53	-51.4	-67.1	4.6	7.21e-01	0	43	104	1048576	74	21969
2026-01-12 23:33:26.98	59.85	10.58	-51.5	-68.0	4.0	7.40e-01	0	43	104	1048576	74	24171
2026-01-12 23:33:27.69	59.98	10.60	-51.1	-64.2	6.4	6.72e-01	0	43	0	1048576	74	15674
2026-01-12 23:33:29.25	60.29	10.66	-50.3	-57.8	13.4	6.05e-01	0	43	0	2621440	71	8904
2026-01-12 23:33:29.96	60.43	10.68	-51.1	-64.8	5.6	6.89e-01	0	43	104	3145728	73	17863
2026-01-12 23:33:31.26	60.68	10.73	-50.9	-64.5	6.1	6.83e-01	0	43	0	4718592	73	17151
2026-01-12 23:33:32.28	60.88	10.77	-50.8	-64.0	6.6	6.70e-01	0	43	0	6815744	73	16155
2026-01-12 23:33:33.28	61.08	10.80	-50.8	-64.0	6.4	6.76e-01	0	43	0	8388608	73	16247
2026-01-12 23:33:34.27	61.27	10.84	-50.8	-63.6	6.8	6.68e-01	0	43	0	10485760	73	15438
2026-01-12 23:33:35.27	61.47	10.87	-51.6	-67.9	4.4	7.45e-01	0	43	104	11010048	73	25487
2026-01-12 23:33:36.27	61.67	10.91	-51.6	-67.3	4.0	7.41e-01	0	43	104	11010048	74	22350
2026-01-12 23:33:37.26	61.87	10.94	-51.4	-63.5	6.9	6.64e-01	0	43	0	11534336	74	14528
2026-01-12 23:33:38.26	62.07	10.97	-49.4	-54.7	16.0	6.00e-01	0	43	0	13107200	70	6638
2026-01-12 23:33:39.27	62.27	11.01	-49.6	-55.4	15.4	6.03e-01	0	43	0	15204352	70	7149
2026-01-12 23:33:40.30	62.47	11.04	-48.6	-53.2	17.5	6.00e-01	0	43	0	16777216	69	5861
2026-01-12 23:33:41.29	62.67	11.07	-47.9	-51.8	18.9	6.04e-01	0	43	0	18874368	67	5615
2026-01-12 23:33:42.36	62.89	11.11	-47.5	-51.3	19.4	6.03e-01	0	43	0	20971520	67	5291
2026-01-12 23:33:43.22	63.06	11.14	-47.5	-51.2	19.5	6.02e-01	0	43	0	22544384	67	5278
2026-01-12 23:33:44.57	63.33	11.18	-47.4	-51.0	19.7	6.04e-01	0	43	0	25165824	66	5447
2026-01-12 23:33:45.28	63.48	11.20	-47.2	-50.7	20.0	6.03e-01	0	43	0	26214400	66	5263
2026-01-12 23:33:46.77	63.78	11.25	-46.9	-50.3	20.3	5.98e-01	0	43	0	28835840	65	5327
2026-01-12 23:33:47.48	63.93	11.27	-47.0	-50.4	20.2	6.03e-01	0	43	0	30408704	65	5358
2026-01-12 23:33:48.76	64.19	11.31	-47.0	-50.4	20.3	6.03e-01	0	43	0	33030144	65	5353
2026-01-12 23:33:49.47	64.33	11.34	-46.9	-50.3	20.3	6.01e-01	0	43	0	34078720	65	5307
2026-01-12 23:33:50.77	64.60	11.38	-46.8	-50.2	20.4	6.00e-01	0	43	0	36700160	65	5226
2026-01-12 23:33:51.48	64.75	11.40	-46.8	-50.1	20.4	6.03e-01	0	43	0	37748736	65	5218
2026-01-12 23:33:52.76	65.01	11.44	-46.9	-50.3	20.3	6.02e-01	0	43	0	40370176	65	5295
2026-01-12 23:33:53.50	65.16	11.46	-46.9	-50.4	20.3	6.05e-01	0	43	0	41943040	65	5342
2026-01-12 23:33:54.78	65.43	11.50	-46.9	-50.3	20.2	6.00e-01	0	43	0	44040192	65	5325
2026-01-12 23:33:55.49	65.57	11.52	-46.9	-50.3	20.2	6.01e-01	0	43	0	45613056	65	5318
2026-01-12 23:33:56.77	65.84	11.56	-46.9	-50.1	20.4	6.02e-01	0	43	0	47710208	65	5218
2026-01-12 23:33:57.51	65.99	11.58	-46.8	-50.1	20.5	6.04e-01	0	43	0	49283072	65	5188
2026-01-12 23:33:58.79	66.26	11.61	-46.9	-50.2	20.4	6.00e-01	0	43	0	51904512	65	5242
2026-01-12 23:33:59.50	66.41	11.63	-46.8	-50.2	20.3	6.03e-01	0	43	0	52953088	65	5234
2026-01-12 23:34:00.78	66.68	11.67	-46.7	-50.0	20.5	6.03e-01	0	43	0	55050240	65	5159
2026-01-12 23:34:01.68	66.87	11.69	-46.8	-50.2	20.4	6.02e-01	0	43	0	57147392	65	5241
2026-01-12 23:34:03.08	67.16	11.73	-46.7	-50.0	20.5	6.00e-01	0	43	0	59768832	65	5156
2026-01-12 23:34:03.80	67.31	11.75	-46.7	-50.1	20.5	6.03e-01	0	43	0	60817408	65	5175
2026-01-12 23:34:05.07	67.58	11.79	-46.7	-50.1	20.4	6.03e-01	0	43	0	63438848	65	5204
2026-01-12 23:34:05.80	67.74	11.81	-46.8	-50.2	20.3	6.02e-01	0	43	0	65011712	65	5250
2026-01-12 23:34:07.08	68.01	11.84	-46.6	-50.0	20.5	6.00e-01	0	43	0	67108864	65	5141
2026-01-12 23:34:07.79	68.16	11.86	-46.7	-50.0	20.6	6.00e-01	0	43	0	68681728	65	5147
2026-01-12 23:34:09.07	68.43	11.89	-46.8	-50.1	20.4	6.01e-01	0	43	0	70778880	65	5210
2026-01-12 23:34:09.80	68.59	11.91	-46.7	-50.1	20.5	6.02e-01	0	43	0	72351744	65	5182
2026-01-12 23:34:11.08	68.86	11.94	-46.6	-49.9	20.7	6.00e-01	0	44	0	74448896	65	5069
2026-01-12 23:34:11.80	69.02	11.96	-46.6	-49.9	20.8	6.01e-01	0	43	0	76021760	65	5056
2026-01-12 23:34:13.08	69.29	11.99	-46.6	-49.9	20.7	6.04e-01	0	43	0	78643200	65	5090
2026-01-12 23:34:13.79	69.44	12.01	-46.7	-50.1	19.7	6.03e-01	0	43	0	79691776	65	5180
2026-01-12 23:34:15.09	69.72	12.04	-46.7	-50.0	20.6	6.02e-01	0	43	0	82313216	65	5157
2026-01-12 23:34:15.80	69.88	12.05	-46.6	-49.9	20.7	6.00e-01	0	43	0	83361792	65	5085
2026-01-12 23:34:17.14	70.17	12.08	-46.6	-50.0	20.6	6.04e-01	0	43	0	85983232	65	5142
2026-01-12 23:34:17.85	70.32	12.10	-46.6	-50.0	20.6	6.04e-01	0	43	0	87556096	65	5158
2026-01-12 23:34:19.21	70.61	12.13	-46.5	-50.0	20.7	6.04e-01	0	43	0	89653248	64	5446
2026-01-12 23:34:19.92	70.77	12.15	-46.4	-50.0	20.7	6.01e-01	0	43	0	91226112	64	5443
2026-01-12 23:34:21.26	71.06	12.18	-46.4	-50.0	20.6	6.05e-01	0	43	0	93847552	64	5450
2026-01-12 23:34:21.97	71.21	12.19	-46.4	-50.0	20.7	6.02e-01	0	44	0	94896128	64	5444
2026-01-12 23:34:23.25	71.49	12.22	-46.4	-50.0	20.6	6.00e-01	0	44	0	97517568	64	5452
2026-01-12 23:34:23.96	71.65	12.23	-46.4	-50.0	20.6	6.03e-01	0	44	0	98566144	64	5459
2026-01-12 23:34:25.24	71.93	12.26	-46.4	-49.9	20.8	6.02e-01	0	43	0	101187584	64	5354
2026-01-12 23:34:25.97	72.09	12.27	-46.3	-49.8	20.8	6.00e-01	0	44	0	102760448	64	5335
2026-01-12 23:34:27.24	72.37	12.30	-46.5	-50.0	20.7	6.02e-01	0	43	0	104857600	64	5408
2026-01-12 23:34:27.96	72.53	12.31	-46.6	-50.0	20.7	6.04e-01	0	43	0	106430464	64	5418
2026-01-12 23:34:29.23	72.81	12.34	-46.7	-50.0	20.6	5.99e-01	0	43	0	108527616	64	5451
2026-01-12 23:34:29.95	72.96	12.35	-46.7	-50.0	20.7	6.01e-01	0	43	0	110100480	64	5403
2026-01-12 23:34:31.22	73.24	12.37	-46.7	-50.0	20.7	5.98e-01	0	43	0	112197632	64	5404
2026-01-12 23:34:32.07	73.43	12.39	-46.7	-50.0	20.7	6.02e-01	0	44	0	113770496	64	5415
2026-01-12 23:34:33.51	73.75	12.41	-46.7	-49.9	20.7	6.01e-01	0	43	0	116916224	64	5379
2026-01-12 23:34:34.22	73.91	12.42	-46.7	-49.9	20.7	6.01e-01	0	43	0	117964800	64	5365
2026-01-12 23:34:35.50	74.19	12.45	-46.7	-50.1	20.6	6.01e-01	0	43	0	120586240	64	5469
2026-01-12 23:34:36.21	74.35	12.46	-46.6	-49.9	20.7	6.03e-01	0	43	0	121634816	64	5383
2026-01-12 23:34:37.49	74.63	12.48	-46.6	-49.9	20.7	6.01e-01	0	43	0	124256256	64	5384
2026-01-12 23:34:38.21	74.80	12.49	-46.5	-49.8	20.8	6.01e-01	0	43	0	125304832	64	5316
2026-01-12 23:34:39.48	75.08	12.51	-46.5	-49.8	20.8	6.02e-01	0	43	0	127926272	64	5339
2026-01-12 23:34:40.26	75.25	12.52	-46.4	-49.7	20.9	6.02e-01	0	43	0	129499136	64	5275
2026-01-12 23:34:41.84	75.61	12.54	-46.5	-49.8	20.9	6.02e-01	0	43	0	132120576	64	5323
2026-01-12 23:34:42.47	75.75	12.55	-46.6	-49.9	20.8	6.02e-01	0	44	0	133693440	64	5389
2026-01-12 23:34:44.01	76.09	12.57	-46.6	-50.0	20.7	6.03e-01	0	43	0	136314880	64	5405
2026-01-12 23:34:44.72	76.25	12.58	-46.6	-50.0	20.7	6.02e-01	0	43	0	137887744	64	5410
2026-01-12 23:34:46.01	76.54	12.60	-46.6	-49.9	20.7	6.03e-01	0	43	0	139984896	64	5393
2026-01-12 23:34:46.72	76.70	12.61	-46.5	-49.8	20.9	6.01e-01	0	43	0	141557760	64	5310
2026-01-12 23:34:48.03	76.99	12.62	-46.6	-50.0	20.7	6.04e-01	0	43	0	144179200	64	5409
2026-01-12 23:34:48.74	77.15	12.63	-46.5	-49.8	20.8	6.04e-01	0	43	0	145227776	64	5333
2026-01-12 23:34:50.13	77.47	12.65	-46.4	-49.7	20.9	6.03e-01	0	43	0	147849216	64	5258
2026-01-12 23:34:50.84	77.63	12.66	-46.4	-49.7	20.9	6.03e-01	0	43	0	149422080	64	5270
2026-01-12 23:34:52.16	77.92	12.67	-46.6	-50.0	20.7	6.02e-01	0	43	0	151519232	64	5413
2026-01-12 23:34:52.87	78.08	12.68	-46.7	-50.1	20.5	6.01e-01	0	43	0	153092096	64	5507
2026-01-12 23:34:54.15	78.37	12.69	-46.6	-49.8	20.7	6.02e-01	0	43	0	155189248	64	5336
2026-01-12 23:34:54.87	78.54	12.70	-46.5	-49.8	20.8	6.03e-01	0	44	0	156762112	64	5289
2026-01-12 23:34:56.26	78.85	12.71	-46.3	-49.8	20.8	6.02e-01	0	43	0	159383552	64	5286
2026-01-12 23:34:56.97	79.01	12.71	-46.3	-49.7	20.8	6.01e-01	0	43	0	160432128	64	5274
2026-01-12 23:34:58.25	79.30	12.73	-46.4	-49.7	20.9	6.04e-01	0	44	0	163053568	64	5259
2026-01-12 23:34:58.99	79.47	12.73	-46.4	-49.8	20.8	6.04e-01	0	44	0	164626432	64	5296
2026-01-12 23:35:00.27	79.76	12.74	-46.5	-49.7	20.9	6.01e-01	0	43	0	166723584	64	5279
2026-01-12 23:35:00.98	79.92	12.75	-46.5	-49.7	20.9	6.02e-01	0	43	0	168296448	64	5271
2026-01-12 23:35:02.26	80.21	12.75	-46.5	-49.8	20.8	6.01e-01	0	43	0	170393600	64	5333
2026-01-12 23:35:02.98	80.38	12.76	-46.6	-49.9	20.7	6.00e-01	0	43	0	171966464	64	5401
2026-01-12 23:35:04.26	80.67	12.77	-46.5	-49.8	20.8	6.04e-01	0	43	0	174587904	64	5331
2026-01-12 23:35:04.97	80.83	12.77	-46.5	-49.8	20.9	6.03e-01	0	44	0	175636480	64	5293
2026-01-12 23:35:06.25	81.12	12.78	-46.4	-49.8	20.9	6.04e-01	0	43	0	178257920	64	5303
2026-01-12 23:35:06.96	81.28	12.78	-46.3	-49.8	20.9	6.01e-01	0	43	0	179306496	64	5308
2026-01-12 23:35:08.24	81.57	12.79	-46.3	-49.9	20.8	6.02e-01	0	43	0	181927936	64	5361
2026-01-12 23:35:08.97	81.74	12.79	-46.3	-49.9	20.8	5.99e-01	0	44	0	182976512	64	5357
2026-01-12 23:35:10.24	82.03	12.79	-46.3	-49.9	20.8	5.99e-01	0	43	0	185597952	64	5351
2026-01-12 23:35:10.95	82.19	12.80	-46.3	-49.9	20.8	6.03e-01	0	43	0	187170816	64	5365
2026-01-12 23:35:12.23	82.48	12.80	-46.4	-50.0	20.6	6.02e-01	0	43	0	189267968	64	5405
2026-01-12 23:35:12.96	82.65	12.80	-46.3	-49.8	20.8	6.01e-01	0	43	0	190840832	64	5316
2026-01-12 23:35:14.24	82.94	12.80	-46.4	-49.8	20.8	6.03e-01	0	43	0	192937984	64	5290
2026-01-12 23:35:15.24	83.17	12.80	-46.3	-49.8	20.8	6.04e-01	0	43	0	195035136	64	5288
2026-01-12 23:35:16.24	83.40	12.81	-46.3	-49.8	20.9	6.02e-01	0	44	0	196608000	64	5293
2026-01-12 23:35:17.23	83.62	12.81	-46.2	-49.8	20.9	6.01e-01	0	43	0	198705152	64	5280
2026-01-12 23:35:18.23	83.85	12.81	-46.2	-49.8	20.8	6.00e-01	0	43	0	200802304	64	5324
2026-01-12 23:35:19.22	84.08	12.81	-46.1	-49.8	20.8	6.02e-01	0	43	0	202375168	64	5322
2026-01-12 23:35:20.22	84.30	12.81	-46.1	-49.8	20.8	6.00e-01	0	43	0	204472320	64	5302
2026-01-12 23:35:21.22	84.53	12.81	-46.2	-49.8	20.8	6.04e-01	0	43	0	206045184	64	5293
2026-01-12 23:35:22.21	84.76	12.80	-46.2	-49.7	20.9	6.03e-01	0	43	0	208142336	64	5278
2026-01-12 23:35:23.21	84.99	12.80	-46.2	-49.7	20.9	6.02e-01	0	43	0	209715200	64	5257
2026-01-12 23:35:24.26	85.22	12.80	-46.2	-49.7	20.9	6.02e-01	0	43	0	211812352	64	5269
2026-01-12 23:35:25.15	85.43	12.80	-46.2	-49.7	20.9	6.01e-01	0	43	0	213385216	64	5252
2026-01-12 23:35:26.49	85.73	12.80	-46.4	-49.9	20.8	6.03e-01	0	43	0	216006656	64	5357
2026-01-12 23:35:27.20	85.90	12.79	-46.4	-49.9	20.7	6.02e-01	0	44	0	217579520	64	5381
2026-01-12 23:35:28.48	86.19	12.79	-46.3	-49.8	20.9	6.02e-01	0	43	0	219676672	64	5318
2026-01-12 23:35:29.19	86.35	12.79	-46.3	-49.8	20.9	6.03e-01	0	43	0	221249536	64	5306
2026-01-12 23:35:30.47	86.64	12.78	-46.3	-49.8	20.8	6.04e-01	0	43	0	223346688	64	5331
2026-01-12 23:35:31.18	86.80	12.78	-46.2	-49.8	20.9	6.02e-01	0	43	0	224919552	64	5296
2026-01-12 23:35:32.46	87.09	12.77	-46.2	-49.8	20.8	6.02e-01	0	43	0	227016704	64	5310
2026-01-12 23:35:33.20	87.26	12.77	-46.2	-49.7	20.9	6.03e-01	0	43	0	228589568	64	5260
2026-01-12 23:35:34.48	87.55	12.76	-46.3	-49.8	20.7	6.02e-01	0	43	0	231211008	64	5310
2026-01-12 23:35:35.21	87.72	12.75	-46.3	-49.8	20.8	6.04e-01	0	43	0	232259584	64	5282
2026-01-12 23:35:36.48	88.01	12.74	-46.4	-49.9	20.8	6.02e-01	0	43	0	234881024	64	5346
2026-01-12 23:35:37.19	88.17	12.74	-46.5	-49.9	20.7	6.01e-01	0	43	0	235929600	64	5386
2026-01-12 23:35:38.47	88.46	12.73	-46.4	-49.8	20.8	6.02e-01	0	43	0	238551040	64	5283
2026-01-12 23:35:39.20	88.62	12.72	-46.4	-49.8	20.7	6.03e-01	0	43	0	240123904	64	5303
2026-01-12 23:35:40.47	88.91	12.71	-46.4	-49.9	20.6	6.02e-01	0	43	0	242221056	64	5345
2026-01-12 23:35:41.18	89.07	12.71	-46.4	-49.9	20.7	6.03e-01	0	43	0	243793920	64	5345
2026-01-12 23:35:42.56	89.39	12.70	-46.3	-49.7	20.8	6.01e-01	0	43	0	246415360	64	5258
2026-01-12 23:35:43.27	89.55	12.69	-46.4	-49.8	20.8	6.02e-01	0	43	0	247463936	64	5290
2026-01-12 23:35:44.55	89.84	12.68	-46.4	-49.9	20.7	6.01e-01	0	43	0	250085376	64	5359
2026-01-12 23:35:45.26	90.00	12.67	-46.4	-49.9	20.7	6.03e-01	0	43	0	251133952	64	5396
2026-01-12 23:35:46.54	90.29	12.65	-46.4	-49.9	20.8	6.01e-01	0	43	0	253755392	64	5346
2026-01-12 23:35:47.25	90.45	12.65	-46.4	-49.8	20.8	6.03e-01	0	43	0	254803968	64	5319
2026-01-12 23:35:48.53	90.74	12.63	-46.6	-50.0	20.7	6.02e-01	0	43	0	257425408	64	5415
2026-01-12 23:35:49.24	90.90	12.62	-46.5	-49.9	20.7	6.02e-01	0	43	0	258998272	64	5384
2026-01-12 23:35:50.52	91.18	12.61	-46.5	-49.9	20.7	6.02e-01	0	43	0	261095424	64	5392
2026-01-12 23:35:51.24	91.35	12.60	-46.5	-49.9	20.7	6.01e-01	0	43	0	262668288	64	5380
2026-01-12 23:35:52.52	91.63	12.58	-46.5	-49.9	20.8	6.04e-01	0	43	0	264765440	64	5351
2026-01-12 23:35:53.23	91.79	12.57	-46.6	-50.0	20.7	6.01e-01	0	44	0	266338304	64	5420
2026-01-12 23:35:54.51	92.08	12.56	-46.6	-49.9	20.7	6.02e-01	0	43	0	268435456	64	5378
2026-01-12 23:35:55.22	92.24	12.55	-46.6	-49.9	20.6	6.01e-01	0	43	0	270008320	64	5397
2026-01-12 23:35:56.50	92.53	12.53	-46.7	-50.0	20.5	6.00e-01	0	44	0	272105472	64	5455
2026-01-12 23:35:57.23	92.69	12.52	-46.7	-49.9	20.6	6.04e-01	0	44	0	273678336	64	5372
2026-01-12 23:35:58.51	92.98	12.50	-46.6	-49.8	20.7	6.03e-01	0	44	0	276299776	64	5340
2026-01-12 23:35:59.23	93.14	12.49	-46.6	-49.9	20.7	6.04e-01	0	44	0	277348352	64	5341
2026-01-12 23:36:00.51	93.42	12.47	-46.6	-49.9	20.7	6.04e-01	0	43	0	279969792	64	5351
2026-01-12 23:36:01.24	93.58	12.45	-46.6	-49.9	20.7	6.01e-01	0	43	0	281018368	64	5348
2026-01-12 23:36:02.66	93.90	12.43	-46.6	-49.9	20.7	6.02e-01	0	44	0	283639808	64	5382
2026-01-12 23:36:03.37	94.06	12.42	-46.6	-49.9	20.7	6.03e-01	0	43	0	285212672	64	5376
2026-01-12 23:36:04.65	94.34	12.40	-46.6	-49.9	20.7	6.03e-01	0	44	0	287834112	64	5382
2026-01-12 23:36:05.38	94.50	12.38	-46.7	-50.0	20.5	6.02e-01	0	44	0	288882688	64	5424
2026-01-12 23:36:06.75	94.81	12.36	-46.6	-49.9	20.6	6.01e-01	0	43	0	291504128	64	5348
2026-01-12 23:36:07.46	94.96	12.35	-46.7	-49.9	20.6	6.02e-01	0	43	0	293076992	64	5381
2026-01-12 23:36:08.83	95.27	12.32	-46.7	-49.9	20.7	6.00e-01	0	44	0	295698432	64	5392
2026-01-12 23:36:09.55	95.43	12.31	-46.7	-49.9	20.7	6.03e-01	0	44	0	296747008	64	5399
2026-01-12 23:36:10.83	95.71	12.28	-46.8	-50.1	20.6	6.03e-01	0	44	0	299368448	64	5481
2026-01-12 23:36:11.55	95.87	12.27	-46.7	-50.0	20.6	6.00e-01	0	44	0	300417024	64	5455
2026-01-12 23:36:12.83	96.15	12.24	-46.6	-49.9	20.8	6.05e-01	0	44	0	303038464	64	5363
2026-01-12 23:36:13.55	96.31	12.23	-46.6	-49.9	20.7	6.03e-01	0	43	0	304087040	64	5348
2026-01-12 23:36:14.83	96.59	12.20	-46.6	-49.9	20.7	6.02e-01	0	44	0	306708480	64	5343
2026-01-12 23:36:15.56	96.75	12.18	-46.7	-49.9	20.7	6.01e-01	0	44	0	308281344	64	5380
2026-01-12 23:36:16.84	97.02	12.16	-46.7	-50.0	20.7	6.01e-01	0	44	0	310378496	64	5435
2026-01-12 23:36:17.55	97.18	12.14	-46.7	-50.0	20.6	6.02e-01	0	43	0	311951360	64	5437
2026-01-12 23:36:18.83	97.46	12.11	-46.7	-49.9	20.7	6.03e-01	0	43	0	314048512	64	5390
2026-01-12 23:36:19.68	97.64	12.09	-46.6	-49.8	20.8	6.02e-01	0	43	0	315621376	64	5290
2026-01-12 23:36:21.12	97.96	12.06	-46.7	-50.0	20.6	6.02e-01	0	44	0	318242816	64	5426
2026-01-12 23:36:21.83	98.11	12.04	-46.7	-50.1	20.5	6.04e-01	0	43	0	319815680	64	5465
2026-01-12 23:36:23.11	98.39	12.01	-46.6	-49.9	20.6	6.01e-01	0	43	0	322437120	64	5377
2026-01-12 23:36:23.82	98.54	12.00	-46.6	-49.8	20.7	6.02e-01	0	43	0	323485696	64	5308
2026-01-12 23:36:25.10	98.81	11.97	-46.7	-49.8	20.7	6.03e-01	0	44	0	326107136	64	5338
2026-01-12 23:36:25.81	98.97	11.95	-46.7	-49.9	20.7	6.00e-01	0	44	0	327155712	64	5352
2026-01-12 23:36:27.09	99.24	11.92	-46.8	-50.0	20.6	6.02e-01	0	44	0	329777152	64	5454
2026-01-12 23:36:27.91	99.42	11.90	-46.8	-50.1	20.5	6.02e-01	0	43	0	331350016	64	5479
2026-01-12 23:36:29.05	99.66	11.87	-46.8	-50.0	20.6	6.03e-01	0	43	0	333447168	64	5426
2026-01-12 23:36:29.90	99.84	11.85	-46.7	-49.9	20.7	5.99e-01	0	44	0	335020032	64	5391
2026-01-12 23:36:31.04	100.09	11.82	-46.8	-50.0	20.5	6.03e-01	0	44	0	337117184	64	5460
2026-01-12 23:36:31.89	100.27	11.79	-46.8	-50.1	20.5	6.03e-01	0	43	0	338690048	64	5480
2026-01-12 23:36:33.03	100.51	11.76	-46.8	-50.1	20.5	6.00e-01	0	44	0	340787200	64	5504
2026-01-12 23:36:33.88	100.69	11.74	-46.7	-50.0	20.6	6.04e-01	0	44	0	342360064	64	5434
2026-01-12 23:36:35.02	100.93	11.71	-46.8	-50.2	20.5	6.02e-01	0	44	0	344457216	64	5536
2026-01-12 23:36:35.87	101.11	11.68	-46.7	-50.0	20.6	6.00e-01	0	43	0	346030080	64	5412
2026-01-12 23:36:37.12	101.37	11.65	-46.7	-50.0	20.6	6.01e-01	0	44	0	348651520	64	5446
2026-01-12 23:36:37.97	101.55	11.63	-46.7	-50.0	20.6	6.02e-01	0	43	0	350224384	64	5436
2026-01-12 23:36:39.11	101.79	11.59	-46.8	-50.2	20.4	6.04e-01	0	44	0	352321536	64	5536
2026-01-12 23:36:39.97	101.97	11.57	-46.9	-50.2	20.4	6.03e-01	0	43	0	353894400	64	5551
2026-01-12 23:36:41.10	102.21	11.54	-46.9	-50.3	20.4	6.02e-01	0	44	0	355991552	64	5596
2026-01-12 23:36:41.96	102.39	11.51	-46.9	-50.2	20.4	6.02e-01	0	43	0	357564416	64	5538
2026-01-12 23:36:43.10	102.62	11.48	-46.8	-50.1	20.5	6.01e-01	0	44	0	359661568	64	5499
2026-01-12 23:36:43.95	102.80	11.45	-46.8	-50.1	20.5	6.03e-01	0	44	0	361234432	64	5475
2026-01-12 23:36:45.09	103.04	11.42	-46.9	-50.2	20.4	6.04e-01	0	44	0	363331584	64	5564
2026-01-12 23:36:45.94	103.21	11.39	-46.8	-50.1	20.5	6.01e-01	0	43	0	364904448	64	5491
2026-01-12 23:36:47.08	103.45	11.35	-46.9	-50.3	20.3	6.02e-01	0	44	0	367001600	64	5616
2026-01-12 23:36:47.93	103.62	11.33	-46.8	-50.2	20.4	6.05e-01	0	44	0	368574464	64	5554
2026-01-12 23:36:49.06	103.85	11.29	-46.8	-50.1	20.5	6.00e-01	0	43	0	370671616	64	5489
2026-01-12 23:36:49.92	104.03	11.27	-46.8	-50.2	20.5	6.04e-01	0	44	0	372244480	64	5541
2026-01-12 23:36:51.05	104.26	11.23	-46.8	-50.0	20.6	6.02e-01	0	44	0	374865920	64	5450
2026-01-12 23:36:51.91	104.44	11.20	-46.8	-50.0	20.5	6.02e-01	0	44	0	376438784	64	5455
2026-01-12 23:36:53.14	104.69	11.16	-46.8	-50.1	20.5	6.05e-01	0	43	0	378535936	64	5507
2026-01-12 23:36:53.99	104.86	11.13	-46.8	-50.1	20.4	6.03e-01	0	44	0	380108800	64	5507
2026-01-12 23:36:55.13	105.09	11.10	-46.8	-50.1	20.5	6.01e-01	0	43	0	382205952	64	5470
2026-01-12 23:36:55.98	105.26	11.07	-46.8	-50.1	20.5	6.02e-01	0	44	0	383778816	64	5497
2026-01-12 23:36:57.12	105.49	11.03	-46.8	-50.1	20.5	6.03e-01	0	44	0	385875968	64	5495
2026-01-12 23:36:57.98	105.67	11.00	-46.8	-50.1	20.4	6.02e-01	0	43	0	387448832	64	5519
2026-01-12 23:36:59.11	105.89	10.96	-46.8	-50.2	20.4	6.02e-01	0	43	0	389545984	64	5568
2026-01-12 23:36:59.97	106.07	10.93	-46.8	-50.2	20.4	6.02e-01	0	44	0	391118848	64	5561
2026-01-12 23:37:01.10	106.29	10.89	-46.9	-50.3	20.3	6.02e-01	0	43	0	393216000	64	5646
2026-01-12 23:37:02.13	106.50	10.86	-46.9	-50.3	20.3	6.01e-01	0	43	0	395313152	64	5598
2026-01-12 23:37:03.13	106.70	10.82	-46.8	-50.2	20.4	6.02e-01	0	43	0	397410304	64	5530
2026-01-12 23:37:04.12	106.89	10.79	-46.9	-50.3	20.3	6.01e-01	0	44	0	398983168	64	5615
2026-01-12 23:37:05.12	107.09	10.75	-46.8	-50.2	20.4	6.01e-01	0	44	0	401080320	64	5540
2026-01-12 23:37:06.11	107.28	10.72	-46.8	-50.2	20.4	6.01e-01	0	43	0	402653184	64	5576
2026-01-12 23:37:07.11	107.48	10.68	-46.9	-50.2	20.3	6.00e-01	0	43	0	404750336	64	5586
2026-01-12 23:37:08.10	107.68	10.65	-46.9	-50.3	20.2	6.01e-01	0	43	0	406323200	64	5643
2026-01-12 23:37:09.10	107.87	10.61	-47.0	-50.4	20.2	6.02e-01	0	44	0	408420352	64	5659
2026-01-12 23:37:10.10	108.07	10.57	-47.0	-50.3	20.2	6.01e-01	0	43	0	410517504	64	5643
2026-01-12 23:37:11.09	108.26	10.54	-46.8	-50.2	20.4	6.02e-01	0	43	0	412090368	64	5537
2026-01-12 23:37:12.08	108.45	10.50	-46.8	-50.2	20.4	6.00e-01	0	43	0	414187520	64	5544
2026-01-12 23:37:13.08	108.64	10.46	-46.9	-50.3	20.3	6.01e-01	0	44	0	415760384	64	5598
2026-01-12 23:37:14.07	108.84	10.43	-46.9	-50.3	20.3	6.04e-01	0	43	0	417857536	64	5594
2026-01-12 23:37:15.07	109.03	10.39	-47.0	-50.4	20.1	6.02e-01	0	44	0	419430400	64	5704
2026-01-12 23:37:16.14	109.23	10.35	-47.0	-50.6	20.0	6.02e-01	0	44	0	421527552	64	5793
2026-01-12 23:37:17.04	109.41	10.31	-47.1	-50.6	20.0	6.01e-01	0	44	0	423624704	64	5802
2026-01-12 23:37:18.05	109.60	10.28	-47.1	-50.7	19.9	6.05e-01	0	44	0	425197568	64	5879
2026-01-12 23:37:19.24	109.83	10.23	-47.1	-50.7	19.9	6.03e-01	0	43	0	427294720	64	5875
2026-01-12 23:37:20.12	109.99	10.20	-47.1	-50.6	20.0	6.03e-01	0	43	0	428867584	64	5816
2026-01-12 23:37:21.43	110.24	10.15	-46.8	-50.2	20.3	6.03e-01	0	44	0	431489024	64	5548
2026-01-12 23:37:22.14	110.38	10.12	-46.7	-50.1	20.4	6.04e-01	0	44	0	433061888	64	5479
2026-01-12 23:37:23.63	110.66	10.06	-47.0	-50.5	20.0	6.03e-01	0	44	0	435683328	64	5757
2026-01-12 23:37:24.34	110.79	10.03	-46.9	-50.5	20.0	6.03e-01	0	44	0	437256192	64	5740
2026-01-12 23:37:25.62	111.03	9.98	-47.0	-50.5	20.0	6.03e-01	0	43	0	439353344	64	5770
2026-01-12 23:37:26.66	111.22	9.94	-47.0	-50.5	20.1	6.00e-01	0	43	0	441450496	64	5755
2026-01-12 23:37:27.96	111.46	9.89	-46.9	-50.5	20.0	6.02e-01	0	44	0	443547648	64	5749
2026-01-12 23:37:28.67	111.60	9.86	-46.9	-50.5	20.0	6.03e-01	0	43	0	445120512	64	5748
2026-01-12 23:37:29.95	111.83	9.81	-47.0	-50.6	20.0	6.03e-01	0	44	0	447741952	64	5794
2026-01-12 23:37:30.69	111.97	9.78	-47.0	-50.5	20.0	6.02e-01	0	43	0	448790528	64	5770
2026-01-12 23:37:31.97	112.20	9.72	-47.1	-50.6	20.0	6.01e-01	0	44	0	451411968	64	5792
2026-01-12 23:37:32.68	112.33	9.70	-47.1	-50.6	19.9	6.03e-01	0	44	0	452460544	64	5800
2026-01-12 23:37:33.96	112.57	9.64	-47.0	-50.5	20.0	6.02e-01	0	44	0	455081984	64	5732
2026-01-12 23:37:34.67	112.70	9.61	-47.1	-50.6	19.9	6.00e-01	0	44	0	456130560	64	5805
2026-01-12 23:37:36.02	112.94	9.56	-47.1	-50.6	19.9	6.02e-01	0	44	0	458752000	64	5795
2026-01-12 23:37:36.73	113.07	9.53	-47.0	-50.4	20.1	6.03e-01	0	44	0	460324864	64	5694
2026-01-12 23:37:38.00	113.30	9.47	-47.1	-50.7	19.8	6.03e-01	0	43	0	462422016	64	5860
2026-01-12 23:37:38.71	113.43	9.44	-47.1	-50.7	19.9	6.01e-01	0	44	0	463994880	64	5859
2026-01-12 23:37:40.12	113.68	9.39	-47.3	-50.9	19.6	6.00e-01	0	43	0	466616320	65	5669
2026-01-12 23:37:40.83	113.81	9.36	-47.2	-50.7	19.7	6.02e-01	0	43	0	468189184	65	5575
2026-01-12 23:37:42.11	114.04	9.30	-47.2	-50.8	19.7	6.05e-01	0	43	0	470286336	65	5607
2026-01-12 23:37:42.82	114.16	9.27	-47.2	-50.8	19.7	6.00e-01	0	44	0	471859200	65	5595
2026-01-12 23:37:44.24	114.41	9.21	-47.2	-50.7	19.7	6.02e-01	0	44	0	474480640	65	5574
2026-01-12 23:37:44.95	114.54	9.18	-47.2	-50.7	19.8	6.01e-01	0	43	0	475529216	65	5533
2026-01-12 23:37:46.23	114.76	9.12	-47.1	-50.6	19.8	6.01e-01	0	43	0	478150656	65	5525
2026-01-12 23:37:46.94	114.89	9.09	-47.1	-50.7	19.8	6.05e-01	0	43	0	479199232	65	5540
2026-01-12 23:37:48.22	115.11	9.04	-47.1	-50.7	19.7	6.01e-01	0	44	0	481820672	65	5566
2026-01-12 23:37:48.94	115.24	9.01	-47.1	-50.7	19.7	6.04e-01	0	44	0	483393536	65	5547
2026-01-12 23:37:50.21	115.46	8.95	-52.0	-64.9	4.5	7.01e-01	0	44	104	484966400	74	17008
2026-01-12 23:37:50.94	115.59	8.92	-51.9	-71.9	3.8	7.46e-01	0	44	104	484966400	75	36063
2026-01-12 23:37:52.22	115.81	8.86	-52.3	-72.3	3.8	7.45e-01	0	43	104	484966400	75	37545
2026-01-12 23:37:52.99	115.94	8.83	-52.1	-72.3	3.8	7.49e-01	0	43	104	484966400	75	37495
2026-01-12 23:37:54.27	116.16	8.77	-52.2	-72.4	3.8	7.44e-01	0	43	104	484966400	75	38176
2026-01-12 23:37:55.05	116.29	8.74	-52.6	-72.5	3.8	7.48e-01	0	44	104	484966400	75	38280
2026-01-12 23:37:56.28	116.50	8.69	-52.2	-72.5	3.8	7.49e-01	0	43	104	484966400	75	38499
2026-01-12 23:37:57.23	116.66	8.64	-52.3	-72.5	3.8	7.50e-01	0	43	104	484966400	75	38647
2026-01-12 23:37:58.40	116.86	8.59	-52.3	-72.6	3.8	7.44e-01	0	44	104	484966400	75	38695
2026-01-12 23:37:59.28	117.01	8.55	-52.2	-72.6	3.8	7.46e-01	0	44	104	484966400	75	38738
2026-01-12 23:38:00.59	117.23	8.49	-51.8	-72.6	3.8	7.46e-01	0	44	104	484966400	75	38854
2026-01-12 23:38:01.30	117.35	8.46	-51.9	-72.6	3.8	7.44e-01	0	44	104	484966400	75	38775
2026-01-12 23:38:02.80	117.60	8.39	-51.9	-72.6	3.8	7.45e-01	0	44	104	484966400	75	38884
2026-01-12 23:38:03.51	117.72	8.36	-52.0	-72.6	3.8	7.47e-01	0	44	104	484966400	75	38926
2026-01-12 23:38:04.85	117.94	8.30	-52.0	-72.6	3.8	7.46e-01	0	44	104	484966400	75	39080
2026-01-12 23:38:05.56	118.06	8.27	-51.8	-72.6	3.8	7.46e-01	0	44	104	484966400	75	39075
2026-01-12 23:38:06.83	118.27	8.21	-51.8	-72.6	3.8	7.47e-01	0	44	104	484966400	75	38948
2026-01-12 23:38:07.54	118.39	8.18	-51.8	-72.6	3.8	7.47e-01	0	44	104	484966400	75	39027
2026-01-12 23:38:08.82	118.59	8.12	-51.8	-72.6	3.8	7.45e-01	0	44	104	484966400	75	39065
2026-01-12 23:38:09.53	118.71	8.09	-51.8	-72.6	3.8	7.46e-01	0	44	104	484966400	75	39065
2026-01-12 23:38:10.81	118.92	8.03	-52.1	-72.6	3.8	7.43e-01	0	44	104	484966400	75	38961
2026-01-12 23:38:11.52	119.03	8.00	-52.2	-72.6	3.8	7.45e-01	0	44	104	484966400	75	38900
2026-01-12 23:38:12.79	119.24	7.94	-52.2	-72.6	3.8	7.44e-01	0	43	104	484966400	75	38850
2026-01-12 23:38:13.50	119.35	7.90	-52.2	-72.6	3.8	7.48e-01	0	44	104	484966400	75	38795
2026-01-12 23:38:14.78	119.56	7.85	-52.2	-72.6	3.8	7.44e-01	0	44	104	484966400	75	38862
2026-01-12 23:38:15.50	119.67	7.81	-52.2	-72.6	3.8	7.47e-01	0	44	104	484966400	75	38790
2026-01-12 23:38:16.78	119.88	7.75	-52.2	-72.6	3.8	7.46e-01	0	44	104	484966400	75	38850
2026-01-12 23:38:17.49	119.99	7.72	-52.2	-72.6	3.8	7.46e-01	0	44	104	484966400	75	38806
2026-01-12 23:38:18.77	120.19	7.66	-52.2	-72.6	3.8	7.45e-01	0	44	104	484966400	75	38778
2026-01-12 23:38:19.48	120.31	7.63	-52.2	-72.6	3.8	7.42e-01	0	44	104	484966400	75	38697
2026-01-12 23:38:20.76	120.51	7.57	-52.2	-72.6	3.8	7.46e-01	0	44	104	484966400	75	38751
2026-01-12 23:38:21.48	120.62	7.53	-52.1	-72.6	3.8	7.45e-01	0	44	104	484966400	75	38729
2026-01-12 23:38:22.76	120.82	7.47	-52.2	-72.5	3.8	7.46e-01	0	44	104	484966400	75	38676
2026-01-12 23:38:23.47	120.93	7.44	-52.2	-72.5	3.8	7.47e-01	0	44	104	484966400	75	38657
2026-01-12 23:38:24.75	121.13	7.38	-52.2	-72.6	3.8	7.47e-01	0	44	104	484966400	75	38729
2026-01-12 23:38:25.46	121.24	7.35	-52.1	-72.5	3.8	7.47e-01	0	44	104	484966400	75	38644
2026-01-12 23:38:26.73	121.44	7.29	-52.1	-72.6	3.8	7.49e-01	0	44	104	484966400	75	38696
2026-01-12 23:38:27.44	121.54	7.25	-52.2	-72.6	3.8	7.47e-01	0	44	104	484966400	75	38714
2026-01-12 23:38:28.72	121.74	7.19	-52.2	-72.6	3.8	7.46e-01	0	44	104	484966400	75	38688
2026-01-12 23:38:29.44	121.85	7.16	-52.1	-72.6	3.8	7.44e-01	0	44	104	484966400	75	38693
2026-01-12 23:38:30.72	122.05	7.10	-52.1	-72.5	3.8	7.45e-01	0	44	104	484966400	75	38642
2026-01-12 23:38:31.43	122.15	7.06	-52.1	-72.6	3.8	7.45e-01	0	44	104	484966400	75	38765
2026-01-12 23:38:32.71	122.35	7.00	-52.1	-72.6	3.8	7.46e-01	0	44	104	484966400	75	38707
2026-01-12 23:38:33.44	122.46	6.97	-52.1	-72.5	3.8	7.48e-01	0	44	104	484966400	75	38656
2026-01-12 23:38:34.71	122.65	6.91	-52.1	-72.5	3.8	7.47e-01	0	44	104	484966400	75	38677
2026-01-12 23:38:35.42	122.75	6.87	-52.1	-72.5	3.8	7.48e-01	0	44	104	484966400	75	38671
2026-01-12 23:38:36.71	122.94	6.81	-52.1	-72.6	3.8	7.48e-01	0	44	104	484966400	75	38693
2026-01-12 23:38:37.42	123.05	6.78	-52.1	-72.5	3.8	7.46e-01	0	44	104	484966400	75	38672
2026-01-12 23:38:38.70	123.24	6.72	-52.1	-72.5	3.8	7.49e-01	0	44	104	484966400	75	38608
2026-01-12 23:38:39.42	123.35	6.68	-52.1	-72.5	3.8	7.44e-01	0	44	104	484966400	75	38656
2026-01-12 23:38:40.70	123.53	6.62	-52.1	-72.6	3.8	7.47e-01	0	44	104	484966400	75	38726
2026-01-12 23:38:41.41	123.64	6.59	-52.1	-72.5	3.8	7.47e-01	0	44	104	484966400	75	38623
2026-01-12 23:38:42.69	123.82	6.53	-52.1	-72.6	3.8	7.48e-01	0	44	104	484966400	75	38739
2026-01-12 23:38:43.41	123.93	6.49	-52.1	-72.5	3.8	7.44e-01	0	44	104	484966400	75	38676
2026-01-12 23:38:44.69	124.11	6.43	-52.1	-72.6	3.8	7.43e-01	0	44	104	484966400	75	38690
2026-01-12 23:38:45.40	124.22	6.39	-52.1	-72.5	3.8	7.47e-01	0	44	104	484966400	75	38641
2026-01-12 23:38:46.68	124.40	6.33	-52.1	-72.5	3.8	7.46e-01	0	44	104	484966400	75	38635
2026-01-12 23:38:47.39	124.50	6.30	-52.1	-72.6	3.8	7.45e-01	0	44	104	484966400	75	38740
2026-01-12 23:38:48.66	124.68	6.24	-52.1	-72.5	3.8	7.48e-01	0	44	104	484966400	75	38645
2026-01-12 23:38:49.37	124.79	6.20	-52.1	-72.5	3.8	7.46e-01	0	44	104	484966400	75	38661
2026-01-12 23:38:50.67	124.97	6.14	-52.1	-72.5	3.8	7.47e-01	0	44	104	484966400	75	38643
2026-01-12 23:38:51.38	125.07	6.11	-52.1	-72.5	3.8	7.48e-01	0	44	104	484966400	75	38674
2026-01-12 23:38:52.65	125.25	6.04	-52.1	-72.5	3.8	7.49e-01	0	44	104	484966400	75	38656
2026-01-12 23:38:53.36	125.35	6.01	-52.1	-72.5	3.8	7.46e-01	0	44	104	484966400	75	38524
2026-01-12 23:38:54.64	125.53	5.95	-52.1	-72.5	3.8	7.49e-01	0	44	104	484966400	75	38615
2026-01-12 23:38:55.36	125.63	5.91	-52.1	-72.5	3.8	7.44e-01	0	44	104	484966400	75	38609
2026-01-12 23:38:56.64	125.81	5.85	-52.1	-72.5	3.8	7.43e-01	0	44	104	484966400	75	38636
2026-01-12 23:38:57.35	125.91	5.81	-52.1	-72.6	3.8	7.46e-01	0	44	104	484966400	75	38710
2026-01-12 23:38:58.63	126.08	5.75	-52.1	-72.5	3.8	7.44e-01	0	44	104	484966400	75	38630
2026-01-12 23:38:59.36	126.18	5.72	-52.1	-72.5	3.8	7.42e-01	0	44	104	484966400	75	38587
2026-01-12 23:39:00.63	126.36	5.66	-52.1	-72.5	3.8	7.47e-01	0	44	104	484966400	75	38631
2026-01-12 23:39:01.34	126.45	5.62	-52.1	-72.5	3.8	7.48e-01	0	44	104	484966400	75	38619
2026-01-12 23:39:02.62	126.63	5.56	-52.1	-72.5	3.8	7.42e-01	0	44	104	484966400	75	38676
2026-01-12 23:39:03.33	126.72	5.52	-52.1	-72.5	3.8	7.45e-01	0	44	104	484966400	75	38667
2026-01-12 23:39:04.62	126.90	5.46	-52.1	-72.6	3.8	7.43e-01	0	44	104	484966400	75	38689
2026-01-12 23:39:05.33	126.99	5.43	-52.1	-72.5	3.8	7.49e-01	0	44	104	484966400	75	38628
2026-01-12 23:39:06.61	127.17	5.36	-52.1	-72.5	3.8	7.48e-01	0	44	104	484966400	75	38637
2026-01-12 23:39:07.32	127.26	5.33	-52.1	-72.5	3.8	7.49e-01	0	44	104	484966400	75	38654
2026-01-12 23:39:08.59	127.43	5.27	-52.1	-72.6	3.8	7.47e-01	0	44	104	484966400	75	38700
2026-01-12 23:39:09.30	127.52	5.23	-52.1	-72.5	3.8	7.46e-01	0	44	104	484966400	75	38682
2026-01-12 23:39:10.58	127.69	5.17	-52.1	-72.5	3.8	7.49e-01	0	44	104	484966400	75	38617
2026-01-12 23:39:11.29	127.79	5.13	-52.1	-72.5	3.8	7.46e-01	0	44	104	484966400	75	38684
2026-01-12 23:39:12.58	127.96	5.07	-52.1	-72.5	3.8	7.45e-01	0	44	104	484966400	75	38586
2026-01-12 23:39:13.29	128.05	5.04	-52.1	-72.5	3.8	7.46e-01	0	44	104	484966400	75	38588
2026-01-12 23:39:14.57	128.22	4.97	-52.1	-72.5	3.8	7.47e-01	0	44	104	484966400	75	38528

#Closed at: 2026-01-12 23:39:15
#Recorded file [484 MB]: D:/Data/31040_260113_023122.dat