passes_logs/2026/01/12/T1/T1__20260112_090257_NOAA_20_JPSS-1_rec.log

#Pass ID: 20260112_090257_NOAA 20 (JPSS-1)
#Satellite: NOAA 20 (JPSS-1)
#Configuration: NOAA 20
#almurnet v.1.7.20251203
#Start time: 2026-01-12 09:02:58

#Version: 2.0.20230620
#Station: T1
#Location: 37.570604 lon 55.790049 lat
#TLE: 1 43013U 17073A   26011.31235446  .00000090  00000+0  63634-4 0  9991
#TLE: 2 43013  98.7632 312.2907 0001646  44.6084 315.5224 14.19535308422217

#Time	Az	El	Level	Level2	SNR	BER	BlckErr	Temp	State	Recorded	gain1	gain2
2026-01-12 09:02:58.81	132.63	5.12	-49.9	-65.0	3.8	1.49e+00	0	39	0	0	71	20512
2026-01-12 09:02:59.80	132.59	5.19	-49.9	-65.1	3.8	1.49e+00	0	39	104	0	71	20613
2026-01-12 09:03:00.80	132.54	5.26	-49.9	-65.1	3.8	1.49e+00	0	39	104	0	71	20595
2026-01-12 09:03:01.79	132.50	5.33	-49.9	-65.1	3.8	1.49e+00	0	40	104	0	71	20678
2026-01-12 09:03:02.78	132.45	5.40	-49.9	-65.1	3.8	1.49e+00	0	40	104	0	71	20758
2026-01-12 09:03:03.78	132.40	5.47	-49.9	-65.1	3.8	1.49e+00	0	40	104	0	71	20707
2026-01-12 09:03:04.77	132.36	5.53	-49.9	-65.1	3.8	1.49e+00	0	40	104	0	71	20581
2026-01-12 09:03:05.77	132.31	5.60	-49.9	-65.0	3.8	1.49e+00	0	40	104	0	71	20497
2026-01-12 09:03:06.76	132.26	5.67	-49.9	-64.9	3.8	1.49e+00	0	40	104	0	71	20284
2026-01-12 09:03:07.75	132.22	5.74	-49.9	-64.8	3.8	1.49e+00	0	40	104	0	71	20062
2026-01-12 09:03:08.75	132.17	5.81	-49.9	-64.7	3.8	1.49e+00	0	40	104	0	71	19635
2026-01-12 09:03:09.74	132.12	5.88	-49.9	-64.6	3.8	1.49e+00	0	40	104	0	71	19394
2026-01-12 09:03:10.73	132.07	5.95	-49.9	-64.4	3.8	1.49e+00	0	40	104	0	71	18982
2026-01-12 09:03:11.73	132.03	6.02	-49.9	-64.2	3.8	1.49e+00	0	40	104	0	71	18584
2026-01-12 09:03:12.72	131.98	6.10	-49.9	-64.1	3.8	1.49e+00	0	40	104	0	71	18306
2026-01-12 09:03:13.72	131.93	6.17	-49.9	-63.9	3.8	1.49e+00	0	40	104	0	71	18072
2026-01-12 09:03:14.71	131.88	6.24	-49.9	-63.9	3.8	1.49e+00	0	40	104	0	71	18004
2026-01-12 09:03:15.71	131.83	6.31	-49.9	-63.8	3.8	1.49e+00	0	40	104	0	71	17866
2026-01-12 09:03:16.70	131.78	6.38	-49.9	-63.9	3.8	1.49e+00	0	40	104	0	71	18033
2026-01-12 09:03:17.69	131.73	6.45	-49.9	-64.0	3.8	1.49e+00	0	40	104	0	71	18201
2026-01-12 09:03:18.69	131.68	6.52	-49.9	-64.2	3.8	1.49e+00	0	40	104	0	71	18568
2026-01-12 09:03:19.68	131.63	6.60	-49.9	-64.3	3.8	1.49e+00	0	40	104	0	71	18874
2026-01-12 09:03:20.67	131.58	6.67	-49.9	-64.6	3.8	1.49e+00	0	40	104	0	71	19525
2026-01-12 09:03:21.67	131.53	6.74	-49.9	-64.8	3.8	1.49e+00	0	40	104	0	71	19984
2026-01-12 09:03:22.66	131.48	6.81	-49.9	-64.9	3.8	1.49e+00	0	40	104	0	71	20274
2026-01-12 09:03:23.65	131.43	6.88	-49.9	-65.1	3.8	1.49e+00	0	40	104	0	71	20554
2026-01-12 09:03:24.65	131.38	6.96	-49.9	-65.1	3.8	1.49e+00	0	40	104	0	71	20677
2026-01-12 09:03:25.64	131.33	7.03	-50.0	-65.1	3.8	1.49e+00	0	40	104	0	71	20731
2026-01-12 09:03:26.64	131.27	7.10	-49.9	-65.1	3.8	1.49e+00	0	41	104	0	71	20712
2026-01-12 09:03:27.63	131.22	7.18	-49.9	-65.0	3.8	1.49e+00	0	40	104	0	71	20515
2026-01-12 09:03:28.62	131.17	7.25	-49.9	-64.8	3.8	1.49e+00	0	40	104	0	71	19946
2026-01-12 09:03:29.62	131.12	7.32	-49.9	-64.1	3.8	1.49e+00	0	41	104	0	71	18394
2026-01-12 09:03:30.61	131.06	7.40	-49.8	-62.9	3.9	1.49e+00	0	41	104	0	71	16105
2026-01-12 09:03:31.60	131.01	7.47	-49.7	-61.2	4.3	1.46e+00	0	41	0	0	71	13198
2026-01-12 09:03:32.60	130.95	7.55	-49.5	-59.5	5.0	8.38e-01	0	41	0	1048576	71	10816
2026-01-12 09:03:33.59	130.90	7.62	-49.2	-57.9	6.1	4.33e-01	0	41	0	3145728	70	9567
2026-01-12 09:03:34.59	130.85	7.70	-48.9	-56.3	7.5	2.09e-01	0	41	0	5242880	69	8383
2026-01-12 09:03:35.58	130.79	7.77	-48.5	-54.9	8.8	4.24e-02	0	41	0	7340032	69	7183
2026-01-12 09:03:36.57	130.74	7.85	-48.1	-53.8	10.0	1.24e-02	0	41	0	8388608	68	6710
2026-01-12 09:03:37.57	130.68	7.92	-47.6	-52.7	11.0	3.75e-03	0	41	0	10485760	67	6218
2026-01-12 09:03:38.56	130.63	8.00	-47.2	-51.8	11.9	8.88e-04	0	41	0	12582912	66	5983
2026-01-12 09:03:39.55	130.57	8.07	-47.0	-51.4	12.4	1.97e-04	0	41	0	14680064	66	5687
2026-01-12 09:03:40.55	130.51	8.15	-46.7	-50.9	12.9	5.18e-05	0	41	0	15728640	65	5686
2026-01-12 09:03:41.54	130.46	8.22	-46.6	-50.8	13.0	3.89e-05	0	41	0	17825792	65	5605
2026-01-12 09:03:42.53	130.40	8.30	-46.7	-50.8	12.9	3.73e-05	0	41	0	19922944	65	5653
2026-01-12 09:03:43.53	130.34	8.38	-47.0	-51.5	12.3	1.16e-04	0	41	0	22020096	65	6073
2026-01-12 09:03:44.52	130.29	8.45	-47.3	-52.1	11.7	3.56e-04	0	41	0	24117248	65	6530
2026-01-12 09:03:45.51	130.23	8.53	-47.7	-53.0	10.7	1.02e-03	0	41	0	25165824	66	6872
2026-01-12 09:03:46.51	130.17	8.61	-48.2	-54.3	9.3	1.13e-02	0	41	0	27262976	67	7512
2026-01-12 09:03:47.50	130.11	8.68	-48.9	-56.2	7.7	5.70e-02	0	41	0	29360128	68	8835
2026-01-12 09:03:48.49	130.06	8.76	-49.3	-58.2	6.0	1.89e-01	0	41	0	31457280	69	10419
2026-01-12 09:03:49.49	130.00	8.84	-49.6	-60.5	4.6	5.60e-01	0	41	0	32505856	69	13682
2026-01-12 09:03:50.48	129.94	8.92	-49.8	-62.9	3.9	1.44e+00	0	41	104	33554432	70	17015
2026-01-12 09:03:51.48	129.88	9.00	-49.9	-64.6	3.8	1.49e+00	0	41	104	33554432	70	20590
2026-01-12 09:03:52.47	129.82	9.07	-49.8	-62.9	3.9	1.49e+00	0	41	104	33554432	70	16927
2026-01-12 09:03:53.46	129.76	9.15	-49.1	-56.6	7.3	2.04e-01	0	41	0	33554432	70	8238
2026-01-12 09:03:54.46	129.70	9.23	-49.8	-62.3	4.2	1.58e-01	0	41	0	35651584	70	15786
2026-01-12 09:03:55.45	129.64	9.31	-50.0	-65.0	3.8	1.49e+00	0	41	104	35651584	70	21714
2026-01-12 09:03:56.45	129.57	9.39	-48.8	-55.8	8.2	8.54e-01	0	41	0	35651584	69	7974
2026-01-12 09:03:57.44	129.51	9.47	-49.5	-59.5	4.9	1.23e+00	0	41	0	37748736	70	11463
2026-01-12 09:03:58.44	129.45	9.55	-48.8	-55.6	8.3	3.98e-02	0	41	0	38797312	69	7742
2026-01-12 09:03:59.44	129.39	9.63	-48.4	-54.4	9.5	2.37e-02	0	41	0	40894464	68	7188
2026-01-12 09:04:00.43	129.33	9.71	-48.0	-53.5	10.6	8.78e-03	0	41	0	42991616	68	6421
2026-01-12 09:04:01.43	129.26	9.79	-47.7	-52.9	11.1	2.56e-03	0	41	0	45088768	67	6355
2026-01-12 09:04:02.42	129.20	9.87	-47.8	-53.2	10.8	2.35e-03	0	41	0	47185920	67	6585
2026-01-12 09:04:03.47	129.13	9.96	-47.8	-53.1	10.8	2.69e-03	0	42	0	48234496	67	6566
2026-01-12 09:04:04.43	129.07	10.03	-47.7	-52.8	11.1	1.93e-03	0	41	0	50331648	67	6336
2026-01-12 09:04:05.42	129.01	10.12	-47.3	-51.9	12.1	5.45e-04	0	41	0	52428800	66	6029
2026-01-12 09:04:06.42	128.94	10.20	-46.8	-51.0	13.0	1.14e-04	0	41	0	54525952	65	5768
2026-01-12 09:04:07.41	128.88	10.28	-46.5	-50.5	13.5	1.98e-05	0	41	0	55574528	65	5417
2026-01-12 09:04:08.41	128.81	10.36	-46.3	-50.1	14.0	5.30e-06	0	41	0	57671680	64	5490
2026-01-12 09:04:09.40	128.74	10.44	-46.2	-49.9	14.2	7.00e-07	0	41	0	59768832	64	5371
2026-01-12 09:04:10.40	128.68	10.53	-46.2	-49.9	14.2	3.00e-06	0	41	0	61865984	64	5348
2026-01-12 09:04:11.39	128.61	10.61	-46.1	-49.7	14.3	0.00e+00	0	41	0	63963136	64	5255
2026-01-12 09:04:12.39	128.54	10.69	-46.1	-49.8	14.3	1.50e-06	0	41	0	65011712	64	5323
2026-01-12 09:04:13.38	128.48	10.78	-46.2	-50.0	14.1	1.50e-06	0	41	0	67108864	64	5409
2026-01-12 09:04:14.38	128.41	10.86	-46.4	-50.3	13.8	3.80e-06	0	41	0	69206016	64	5593
2026-01-12 09:04:15.37	128.34	10.94	-46.5	-50.4	13.6	6.10e-06	0	41	0	71303168	64	5715
2026-01-12 09:04:16.37	128.27	11.03	-46.5	-50.6	13.5	8.30e-06	0	41	0	72351744	64	5841
2026-01-12 09:04:17.45	128.19	11.12	-46.6	-50.6	13.5	7.60e-06	0	41	0	74448896	64	5841
2026-01-12 09:04:18.31	128.13	11.19	-46.6	-50.6	13.5	1.29e-05	0	41	0	76546048	64	5831
2026-01-12 09:04:19.68	128.04	11.31	-46.4	-50.3	13.8	2.20e-06	0	41	0	78643200	64	5653
2026-01-12 09:04:20.39	127.99	11.37	-46.3	-50.2	13.9	3.80e-06	0	41	0	80740352	64	5559
2026-01-12 09:04:21.68	127.90	11.48	-46.1	-49.8	14.3	3.00e-06	0	42	0	82837504	64	5318
2026-01-12 09:04:22.39	127.84	11.54	-46.1	-49.8	14.4	7.00e-07	0	41	0	83886080	64	5283
2026-01-12 09:04:23.66	127.75	11.65	-46.1	-49.7	14.4	7.00e-07	0	41	0	87031808	64	5265
2026-01-12 09:04:24.38	127.70	11.71	-46.1	-49.7	14.5	7.00e-07	0	41	0	88080384	64	5239
2026-01-12 09:04:25.65	127.61	11.82	-46.3	-49.9	14.3	1.50e-06	0	42	0	90177536	64	5386
2026-01-12 09:04:26.38	127.55	11.89	-46.4	-50.1	14.1	1.50e-06	0	42	0	91226112	64	5511
2026-01-12 09:04:27.66	127.46	12.00	-46.5	-50.3	13.9	1.50e-06	0	41	0	94371840	64	5622
2026-01-12 09:04:28.37	127.41	12.06	-46.5	-50.3	13.9	4.50e-06	0	41	0	95420416	64	5599
2026-01-12 09:04:29.65	127.31	12.17	-46.5	-50.2	14.0	3.80e-06	0	42	0	97517568	64	5566
2026-01-12 09:04:30.37	127.26	12.24	-46.4	-50.2	14.0	3.00e-06	0	41	0	99614720	64	5549
2026-01-12 09:04:31.65	127.16	12.35	-46.4	-50.1	14.1	0.00e+00	0	42	0	101711872	64	5473
2026-01-12 09:04:32.63	127.08	12.44	-46.2	-49.8	14.4	2.20e-06	0	41	0	103809024	64	5299
2026-01-12 09:04:33.93	126.98	12.55	-46.0	-49.4	14.8	0.00e+00	0	42	0	105906176	64	5098
2026-01-12 09:04:34.67	126.93	12.62	-46.0	-49.3	14.9	0.00e+00	0	41	0	106954752	63	5338
2026-01-12 09:04:35.95	126.83	12.73	-46.0	-49.4	14.9	0.00e+00	0	41	0	109051904	63	5345
2026-01-12 09:04:36.66	126.77	12.80	-46.1	-49.4	14.9	0.00e+00	0	42	0	111149056	63	5398
2026-01-12 09:04:37.94	126.67	12.91	-46.2	-49.7	14.6	0.00e+00	0	42	0	113246208	63	5548
2026-01-12 09:04:38.67	126.61	12.98	-46.4	-49.9	14.4	0.00e+00	0	42	0	114294784	63	5700
2026-01-12 09:04:39.95	126.51	13.09	-46.3	-49.9	14.5	0.00e+00	0	41	0	117440512	63	5664
2026-01-12 09:04:40.66	126.45	13.16	-46.4	-50.0	14.4	7.00e-07	0	42	0	118489088	63	5724
2026-01-12 09:04:41.94	126.35	13.28	-46.3	-49.8	14.5	0.00e+00	0	41	0	120586240	63	5636
2026-01-12 09:04:42.68	126.29	13.34	-46.2	-49.6	14.7	7.00e-07	0	41	0	122683392	63	5507
2026-01-12 09:04:44.04	126.18	13.47	-46.1	-49.4	14.9	0.00e+00	0	42	0	124780544	63	5391
2026-01-12 09:04:44.75	126.12	13.53	-46.0	-49.4	15.0	0.00e+00	0	42	0	125829120	63	5358
2026-01-12 09:04:46.02	126.01	13.65	-46.1	-49.4	14.9	0.00e+00	0	42	0	128974848	63	5400
2026-01-12 09:04:46.75	125.95	13.72	-46.1	-49.5	14.8	0.00e+00	0	42	0	130023424	63	5441
2026-01-12 09:04:48.12	125.84	13.85	-46.2	-49.6	14.8	0.00e+00	0	42	0	132120576	63	5518
2026-01-12 09:04:48.83	125.78	13.91	-46.3	-49.8	14.6	0.00e+00	0	42	0	134217728	63	5616
2026-01-12 09:04:50.17	125.66	14.04	-46.4	-50.0	14.4	0.00e+00	0	42	0	136314880	63	5774
2026-01-12 09:04:51.15	125.58	14.13	-46.4	-50.0	14.4	7.00e-07	0	42	0	138412032	63	5725
2026-01-12 09:04:52.47	125.46	14.25	-46.3	-49.8	14.5	0.00e+00	0	42	0	140509184	63	5652
2026-01-12 09:04:53.18	125.40	14.32	-46.3	-49.7	14.6	0.00e+00	0	42	0	141557760	63	5590
2026-01-12 09:04:54.45	125.29	14.44	-46.1	-49.4	14.9	0.00e+00	0	41	0	144703488	63	5387
2026-01-12 09:04:55.18	125.23	14.51	-46.0	-49.3	15.1	0.00e+00	0	42	0	145752064	63	5311
2026-01-12 09:04:56.46	125.11	14.63	-46.0	-49.3	15.1	0.00e+00	0	42	0	147849216	63	5318
2026-01-12 09:04:57.17	125.05	14.70	-46.1	-49.5	14.9	0.00e+00	0	42	0	148897792	63	5404
2026-01-12 09:04:58.45	124.93	14.82	-46.2	-49.7	14.7	0.00e+00	0	42	0	152043520	63	5549
2026-01-12 09:04:59.18	124.87	14.90	-46.2	-49.6	14.9	7.00e-07	0	42	0	153092096	63	5492
2026-01-12 09:05:00.47	124.75	15.02	-46.1	-49.5	14.9	0.00e+00	0	41	0	155189248	63	5452
2026-01-12 09:05:01.19	124.68	15.09	-46.1	-49.4	15.0	0.00e+00	0	41	0	157286400	63	5397
2026-01-12 09:05:02.46	124.57	15.21	-45.9	-49.2	15.2	0.00e+00	0	42	0	159383552	63	5242
2026-01-12 09:05:03.20	124.50	15.29	-45.8	-49.0	15.4	0.00e+00	0	42	0	160432128	63	5143
2026-01-12 09:05:04.48	124.38	15.41	-45.7	-48.9	15.5	0.00e+00	0	42	0	162529280	63	5088
2026-01-12 09:05:05.19	124.31	15.48	-45.8	-49.0	15.4	0.00e+00	0	42	0	164626432	63	5136
2026-01-12 09:05:06.47	124.19	15.61	-45.9	-49.3	15.2	7.00e-07	0	42	0	166723584	63	5290
2026-01-12 09:05:07.19	124.12	15.68	-46.0	-49.3	15.2	0.00e+00	0	42	0	167772160	63	5309
2026-01-12 09:05:08.47	124.00	15.81	-46.0	-49.4	15.1	0.00e+00	0	42	0	170917888	63	5341
2026-01-12 09:05:09.18	123.93	15.88	-45.9	-49.2	15.2	0.00e+00	0	42	0	171966464	63	5248
2026-01-12 09:05:10.73	123.78	16.03	-45.8	-49.0	15.4	0.00e+00	0	42	0	175112192	63	5144
2026-01-12 09:05:11.72	123.68	16.13	-45.9	-49.1	15.4	0.00e+00	0	42	0	176160768	63	5173
2026-01-12 09:05:12.71	123.58	16.23	-45.7	-48.9	15.5	0.00e+00	0	42	0	178257920	63	5076
2026-01-12 09:05:13.71	123.48	16.33	-45.7	-48.9	15.6	0.00e+00	0	42	0	180355072	63	5069
2026-01-12 09:05:14.70	123.38	16.43	-45.9	-49.2	15.3	0.00e+00	0	42	0	182452224	63	5236
2026-01-12 09:05:15.70	123.28	16.53	-45.9	-49.2	15.3	0.00e+00	0	42	0	184549376	63	5229
2026-01-12 09:05:16.69	123.18	16.63	-45.9	-49.2	15.3	0.00e+00	0	42	0	185597952	63	5256
2026-01-12 09:05:17.69	123.08	16.74	-45.9	-49.1	15.3	0.00e+00	0	42	0	187695104	63	5201
2026-01-12 09:05:18.68	122.97	16.84	-45.7	-48.9	15.6	0.00e+00	0	42	0	189792256	63	5045
2026-01-12 09:05:19.74	122.86	16.95	-45.7	-48.8	15.7	0.00e+00	0	42	0	191889408	63	5022
2026-01-12 09:05:20.61	122.77	17.04	-45.6	-48.7	15.8	0.00e+00	0	42	0	192937984	63	4944
2026-01-12 09:05:21.75	122.65	17.16	-45.6	-48.7	15.8	0.00e+00	0	42	0	195035136	63	4941
2026-01-12 09:05:22.60	122.56	17.24	-45.7	-48.8	15.7	0.00e+00	0	42	0	197132288	63	5013
2026-01-12 09:05:23.74	122.44	17.36	-45.9	-49.1	15.4	0.00e+00	0	42	0	199229440	63	5173
2026-01-12 09:05:24.59	122.35	17.45	-45.9	-49.2	15.3	0.00e+00	0	42	0	200278016	63	5221
2026-01-12 09:05:25.73	122.22	17.57	-45.9	-49.1	15.4	0.00e+00	0	42	0	202375168	63	5174
2026-01-12 09:05:26.59	122.13	17.66	-45.9	-49.1	15.4	0.00e+00	0	42	0	204472320	63	5168
2026-01-12 09:05:27.72	122.01	17.78	-45.9	-49.1	15.4	0.00e+00	0	42	0	206569472	63	5171
2026-01-12 09:05:28.58	121.91	17.87	-45.9	-49.1	15.4	0.00e+00	0	42	0	208666624	63	5203
2026-01-12 09:05:29.71	121.78	17.99	-45.9	-49.1	15.4	0.00e+00	0	42	0	210763776	63	5187
2026-01-12 09:05:30.57	121.69	18.09	-45.9	-49.1	15.5	0.00e+00	0	42	0	211812352	63	5187
2026-01-12 09:05:31.71	121.56	18.21	-45.8	-49.0	15.5	0.00e+00	0	42	0	213909504	63	5132
2026-01-12 09:05:32.56	121.46	18.30	-45.9	-49.0	15.5	0.00e+00	0	42	0	216006656	63	5153
2026-01-12 09:05:33.70	121.33	18.42	-45.8	-48.9	15.6	0.00e+00	0	42	0	218103808	63	5069
2026-01-12 09:05:34.55	121.23	18.51	-45.8	-49.0	15.6	0.00e+00	0	42	0	219152384	63	5103
2026-01-12 09:05:35.69	121.10	18.64	-45.9	-49.1	15.4	0.00e+00	0	42	0	221249536	63	5182
2026-01-12 09:05:36.54	121.00	18.73	-45.9	-49.2	15.4	0.00e+00	0	42	0	223346688	63	5223
2026-01-12 09:05:37.68	120.86	18.85	-46.0	-49.2	15.3	0.00e+00	0	42	0	225443840	63	5260
2026-01-12 09:05:38.60	120.75	18.96	-46.0	-49.2	15.3	0.00e+00	0	42	0	226492416	63	5260
2026-01-12 09:05:39.59	120.64	19.06	-45.9	-49.1	15.5	0.00e+00	0	42	0	228589568	63	5176
2026-01-12 09:05:40.59	120.51	19.17	-45.8	-49.0	15.6	0.00e+00	0	42	0	230686720	63	5123
2026-01-12 09:05:41.58	120.39	19.28	-45.8	-49.0	15.6	0.00e+00	0	42	0	232783872	63	5119
2026-01-12 09:05:42.58	120.27	19.40	-45.8	-49.0	15.5	0.00e+00	0	42	0	234881024	63	5124
2026-01-12 09:05:43.57	120.15	19.51	-45.9	-49.1	15.5	0.00e+00	0	42	0	235929600	63	5180
2026-01-12 09:05:44.56	120.03	19.62	-45.9	-49.1	15.5	0.00e+00	0	42	0	238026752	63	5185
2026-01-12 09:05:45.56	119.90	19.73	-46.0	-49.2	15.4	0.00e+00	0	42	0	240123904	63	5239
2026-01-12 09:05:46.56	119.77	19.84	-45.9	-49.1	15.5	0.00e+00	0	42	0	242221056	63	5183
2026-01-12 09:05:47.55	119.65	19.95	-45.9	-49.1	15.5	0.00e+00	0	42	0	243269632	63	5195
2026-01-12 09:05:48.55	119.52	20.07	-46.0	-49.2	15.4	0.00e+00	0	42	0	245366784	63	5242
2026-01-12 09:05:49.54	119.39	20.18	-46.0	-49.2	15.4	0.00e+00	0	42	0	247463936	63	5227
2026-01-12 09:05:50.53	119.26	20.29	-45.9	-49.1	15.5	0.00e+00	0	42	0	249561088	63	5201
2026-01-12 09:05:51.53	119.13	20.40	-46.1	-49.3	15.3	0.00e+00	0	42	0	251658240	63	5293
2026-01-12 09:05:52.52	119.00	20.52	-46.0	-49.2	15.4	0.00e+00	0	42	0	252706816	63	5235
2026-01-12 09:05:53.52	118.87	20.63	-46.1	-49.3	15.3	0.00e+00	0	42	0	254803968	63	5289
2026-01-12 09:05:54.51	118.73	20.75	-46.0	-49.2	15.4	0.00e+00	0	42	0	256901120	63	5272
2026-01-12 09:05:55.50	118.60	20.86	-46.1	-49.3	15.3	0.00e+00	0	42	0	258998272	63	5307
2026-01-12 09:05:56.50	118.46	20.98	-46.1	-49.4	15.2	0.00e+00	0	42	0	260046848	63	5341
2026-01-12 09:05:57.49	118.33	21.09	-46.2	-49.5	15.1	7.00e-07	0	42	0	262144000	63	5447
2026-01-12 09:05:58.49	118.19	21.21	-46.3	-49.6	15.0	0.00e+00	0	42	0	264241152	63	5505
2026-01-12 09:05:59.48	118.05	21.33	-46.2	-49.6	15.1	0.00e+00	0	42	0	266338304	63	5467
2026-01-12 09:06:00.48	117.91	21.44	-46.3	-49.7	15.0	0.00e+00	0	42	0	268435456	63	5530
2026-01-12 09:06:01.47	117.77	21.56	-46.3	-49.7	14.9	0.00e+00	0	42	0	269484032	63	5568
2026-01-12 09:06:02.53	117.62	21.68	-46.3	-49.6	15.0	0.00e+00	0	42	0	271581184	63	5526
2026-01-12 09:06:03.40	117.49	21.79	-46.2	-49.6	15.0	0.00e+00	0	42	0	273678336	63	5510
2026-01-12 09:06:04.71	117.30	21.94	-46.2	-49.6	15.0	0.00e+00	0	42	0	275775488	63	5495
2026-01-12 09:06:05.42	117.20	22.03	-46.2	-49.5	15.2	0.00e+00	0	42	0	276824064	63	5418
2026-01-12 09:06:06.69	117.01	22.18	-46.2	-49.5	15.1	0.00e+00	0	42	0	279969792	63	5447
2026-01-12 09:06:07.42	116.91	22.27	-46.2	-49.6	15.0	0.00e+00	0	42	0	281018368	63	5511
2026-01-12 09:06:08.70	116.71	22.42	-46.3	-49.8	14.9	0.00e+00	0	42	0	283115520	63	5600
2026-01-12 09:06:09.41	116.61	22.51	-46.3	-49.8	14.9	0.00e+00	0	42	0	285212672	63	5611
2026-01-12 09:06:10.69	116.41	22.66	-46.2	-49.6	15.1	0.00e+00	0	42	0	287309824	63	5473
2026-01-12 09:06:11.51	116.29	22.76	-46.2	-49.5	15.1	0.00e+00	0	42	0	288358400	63	5445
2026-01-12 09:06:12.65	116.11	22.90	-46.2	-49.5	15.2	0.00e+00	0	42	0	290455552	63	5414
2026-01-12 09:06:13.50	115.98	23.00	-46.2	-49.5	15.2	0.00e+00	0	42	0	292552704	63	5409
2026-01-12 09:06:14.64	115.80	23.14	-46.3	-49.6	15.0	0.00e+00	0	42	0	294649856	63	5514
2026-01-12 09:06:15.49	115.67	23.25	-46.2	-49.5	15.1	7.00e-07	0	42	0	295698432	63	5444
2026-01-12 09:06:16.63	115.48	23.39	-46.2	-49.5	15.2	0.00e+00	0	42	0	298844160	63	5407
2026-01-12 09:06:17.48	115.35	23.49	-46.1	-49.4	15.3	0.00e+00	0	42	0	299892736	63	5357
2026-01-12 09:06:18.62	115.16	23.63	-46.1	-49.4	15.3	0.00e+00	0	42	0	301989888	63	5352
2026-01-12 09:06:19.85	114.96	23.79	-46.2	-49.5	15.2	0.00e+00	0	42	0	304087040	63	5406
2026-01-12 09:06:20.89	114.79	23.92	-46.2	-49.6	15.1	0.00e+00	0	42	0	306184192	63	5466
2026-01-12 09:06:21.88	114.63	24.04	-46.2	-49.5	15.2	0.00e+00	0	42	0	308281344	63	5428
2026-01-12 09:06:22.88	114.46	24.17	-46.2	-49.5	15.2	0.00e+00	0	42	0	310378496	63	5412
2026-01-12 09:06:23.88	114.29	24.29	-46.2	-49.4	15.2	0.00e+00	0	42	0	311427072	63	5388
2026-01-12 09:06:24.87	114.12	24.42	-46.2	-49.5	15.2	0.00e+00	0	42	0	313524224	63	5417
2026-01-12 09:06:25.87	113.95	24.54	-46.0	-49.2	15.4	0.00e+00	0	42	0	315621376	63	5258
2026-01-12 09:06:26.86	113.78	24.67	-46.1	-49.3	15.2	0.00e+00	0	42	0	317718528	63	5335
2026-01-12 09:06:27.86	113.60	24.79	-46.1	-49.3	15.3	0.00e+00	0	42	0	319815680	63	5334
2026-01-12 09:06:28.85	113.43	24.92	-46.1	-49.3	15.3	0.00e+00	0	42	0	320864256	63	5336
2026-01-12 09:06:29.85	113.25	25.05	-46.0	-49.3	15.4	0.00e+00	0	42	0	322961408	63	5294
2026-01-12 09:06:30.86	113.07	25.18	-46.1	-49.3	15.3	0.00e+00	0	42	0	325058560	63	5337
2026-01-12 09:06:31.88	112.89	25.31	-46.1	-49.4	15.2	0.00e+00	0	42	0	327155712	63	5393
2026-01-12 09:06:32.88	112.70	25.44	-46.3	-49.7	15.0	0.00e+00	0	42	0	329252864	63	5557
2026-01-12 09:06:33.94	112.51	25.57	-46.3	-49.7	15.0	0.00e+00	0	42	0	330301440	63	5559
2026-01-12 09:06:34.87	112.34	25.69	-46.3	-49.7	14.9	0.00e+00	0	42	0	332398592	63	5581
2026-01-12 09:06:35.99	112.13	25.84	-46.4	-49.8	14.8	0.00e+00	0	42	0	334495744	63	5647
2026-01-12 09:06:36.84	111.97	25.95	-46.4	-49.9	14.8	0.00e+00	0	42	0	336592896	63	5681
2026-01-12 09:06:37.97	111.75	26.10	-46.5	-50.0	14.6	0.00e+00	0	42	0	338690048	63	5766
2026-01-12 09:06:38.83	111.59	26.21	-46.6	-50.2	14.5	0.00e+00	0	42	0	339738624	63	5878
2026-01-12 09:06:39.96	111.37	26.35	-46.6	-50.2	14.3	3.00e-06	0	42	0	341835776	64	5589
2026-01-12 09:06:40.82	111.21	26.47	-46.6	-50.3	14.3	7.00e-07	0	42	0	343932928	64	5595
2026-01-12 09:06:41.96	110.98	26.62	-46.6	-50.3	14.3	7.00e-07	0	42	0	346030080	64	5602
2026-01-12 09:06:42.81	110.81	26.73	-46.7	-50.4	14.2	7.00e-07	0	42	0	347078656	64	5703
2026-01-12 09:06:43.94	110.59	26.88	-46.8	-50.6	14.0	7.00e-07	0	42	0	349175808	64	5791
2026-01-12 09:06:44.80	110.42	26.99	-47.0	-50.8	13.8	3.80e-06	0	42	0	351272960	64	5979
2026-01-12 09:06:45.98	110.18	27.15	-47.0	-50.8	13.8	6.10e-06	0	42	0	353370112	64	5939
2026-01-12 09:06:46.83	110.00	27.26	-47.0	-50.9	13.7	9.90e-06	0	42	0	355467264	64	5999
2026-01-12 09:06:48.03	109.76	27.42	-47.1	-50.9	13.6	3.00e-06	0	42	0	357564416	64	6053
2026-01-12 09:06:48.89	109.58	27.53	-47.2	-51.2	13.4	1.44e-05	0	42	0	358612992	65	5882
2026-01-12 09:06:50.09	109.33	27.69	-47.5	-51.7	12.9	4.34e-05	0	42	0	360710144	65	6229
2026-01-12 09:06:50.94	109.15	27.80	-47.5	-51.8	12.8	5.03e-05	0	42	0	362807296	65	6290
2026-01-12 09:06:52.08	108.90	27.96	-47.5	-51.8	12.8	6.48e-05	0	42	0	364904448	65	6326
2026-01-12 09:06:52.93	108.72	28.07	-47.5	-51.8	12.9	8.23e-05	0	42	0	365953024	65	6276
2026-01-12 09:06:54.06	108.48	28.22	-47.5	-51.7	12.8	3.58e-05	0	42	0	368050176	65	6253
2026-01-12 09:06:54.92	108.29	28.34	-47.5	-51.7	12.8	5.72e-05	0	42	0	370147328	65	6259
2026-01-12 09:06:56.05	108.04	28.49	-47.6	-52.0	12.6	7.47e-05	0	42	0	372244480	65	6442
2026-01-12 09:06:56.91	107.85	28.60	-47.6	-52.0	12.6	9.23e-05	0	42	0	373293056	65	6492
2026-01-12 09:06:58.04	107.59	28.76	-47.5	-51.8	12.8	6.33e-05	0	42	0	376438784	65	6322
2026-01-12 09:06:58.90	107.40	28.87	-47.5	-51.8	12.8	6.63e-05	0	42	0	377487360	65	6296
2026-01-12 09:07:00.03	107.14	29.02	-47.6	-51.9	12.7	7.32e-05	0	42	0	379584512	65	6357
2026-01-12 09:07:00.88	106.95	29.14	-47.6	-51.8	12.7	7.17e-05	0	42	0	381681664	65	6343
2026-01-12 09:07:02.02	106.68	29.29	-47.6	-51.9	12.7	8.23e-05	0	42	0	383778816	65	6374
2026-01-12 09:07:02.88	106.48	29.41	-47.5	-51.8	12.8	6.17e-05	0	42	0	384827392	65	6286
2026-01-12 09:07:04.01	106.22	29.56	-47.5	-51.6	13.0	4.19e-05	0	42	0	386924544	65	6194
2026-01-12 09:07:04.87	106.01	29.68	-47.5	-51.6	12.9	4.19e-05	0	42	0	389021696	65	6200
2026-01-12 09:07:06.00	105.74	29.83	-47.6	-51.8	12.8	4.11e-05	0	42	0	391118848	65	6304
2026-01-12 09:07:06.85	105.53	29.95	-47.6	-51.9	12.7	6.56e-05	0	42	0	392167424	65	6351
2026-01-12 09:07:07.99	105.26	30.10	-47.5	-51.8	12.9	6.17e-05	0	42	0	394264576	65	6288
2026-01-12 09:07:08.84	105.05	30.22	-47.6	-51.8	12.8	6.86e-05	0	42	0	396361728	65	6330
2026-01-12 09:07:09.98	104.76	30.37	-47.6	-51.9	12.7	6.56e-05	0	42	0	398458880	65	6372
2026-01-12 09:07:10.83	104.55	30.49	-47.7	-52.2	12.4	8.92e-05	0	42	0	399507456	66	6258
2026-01-12 09:07:11.97	104.26	30.64	-47.9	-52.6	12.0	2.97e-04	0	42	0	401604608	66	6537
2026-01-12 09:07:12.82	104.05	30.76	-48.0	-52.6	12.0	3.52e-04	0	42	0	403701760	66	6543
2026-01-12 09:07:13.96	103.76	30.91	-48.1	-53.0	11.7	5.36e-04	0	42	0	405798912	66	6808
2026-01-12 09:07:14.81	103.54	31.03	-48.2	-53.1	11.4	8.38e-04	0	42	0	406847488	67	6530
2026-01-12 09:07:15.95	103.24	31.18	-48.3	-53.2	11.4	8.33e-04	0	42	0	409993216	67	6589
2026-01-12 09:07:16.80	103.02	31.30	-48.2	-52.9	11.7	6.89e-04	0	43	0	411041792	67	6396
2026-01-12 09:07:17.94	102.71	31.45	-48.0	-52.5	12.0	4.26e-04	0	42	0	413138944	67	6119
2026-01-12 09:07:18.79	102.49	31.56	-47.8	-52.3	12.3	2.20e-04	0	42	0	415236096	67	5934
2026-01-12 09:07:19.93	102.18	31.72	-47.8	-52.1	12.5	1.31e-04	0	42	0	417333248	67	5837
2026-01-12 09:07:20.78	101.95	31.83	-47.7	-52.2	12.4	1.35e-04	0	42	0	418381824	67	5862
2026-01-12 09:07:22.03	101.60	32.00	-47.5	-51.7	12.9	5.64e-05	0	42	0	420478976	67	5571
2026-01-12 09:07:22.88	101.37	32.12	-47.5	-51.7	13.0	4.50e-05	0	42	0	422576128	66	5862
2026-01-12 09:07:24.02	101.05	32.27	-47.3	-51.3	13.3	3.43e-05	0	42	0	424673280	66	5647
2026-01-12 09:07:24.87	100.81	32.39	-47.2	-51.2	13.4	1.60e-05	0	42	0	426770432	66	5555
2026-01-12 09:07:26.01	100.49	32.54	-47.3	-51.3	13.4	1.44e-05	0	42	0	428867584	66	5593
2026-01-12 09:07:26.86	100.25	32.65	-47.5	-51.6	13.1	2.82e-05	0	42	0	429916160	66	5791
2026-01-12 09:07:28.00	99.92	32.81	-47.5	-51.5	13.1	1.98e-05	0	42	0	432013312	66	5770
2026-01-12 09:07:28.85	99.67	32.92	-47.5	-51.6	13.0	3.81e-05	0	42	0	434110464	66	5844
2026-01-12 09:07:29.98	99.34	33.07	-47.4	-51.4	13.3	3.05e-05	0	42	0	436207616	66	5695
2026-01-12 09:07:30.84	99.08	33.18	-47.3	-51.2	13.4	1.90e-05	0	42	0	437256192	66	5557
2026-01-12 09:07:31.98	98.74	33.34	-47.4	-51.5	13.2	1.83e-05	0	42	0	439353344	66	5738
2026-01-12 09:07:32.83	98.49	33.45	-47.4	-51.6	13.1	2.51e-05	0	42	0	441450496	66	5804
2026-01-12 09:07:33.96	98.15	33.60	-47.6	-51.9	12.8	5.26e-05	0	42	0	443547648	66	6000
2026-01-12 09:07:34.82	97.88	33.71	-47.6	-51.9	12.8	6.02e-05	0	42	0	444596224	66	6009
2026-01-12 09:07:35.95	97.54	33.86	-47.6	-51.7	12.9	5.41e-05	0	42	0	446693376	66	5915
2026-01-12 09:07:36.81	97.27	33.97	-47.5	-51.6	13.0	2.82e-05	0	42	0	448790528	66	5814
2026-01-12 09:07:38.02	96.89	34.13	-47.5	-51.5	13.1	2.28e-05	0	43	0	450887680	66	5764
2026-01-12 09:07:38.87	96.62	34.24	-47.7	-51.9	12.9	3.12e-05	0	42	0	452984832	66	6037
2026-01-12 09:07:40.01	96.26	34.39	-47.8	-52.2	12.4	1.13e-04	0	42	0	455081984	66	6216
2026-01-12 09:07:40.86	95.99	34.50	-48.0	-52.5	12.1	2.03e-04	0	42	0	456130560	66	6492
2026-01-12 09:07:42.11	95.58	34.66	-47.9	-52.3	12.3	2.09e-04	0	42	0	458227712	66	6347
2026-01-12 09:07:42.96	95.31	34.77	-47.6	-51.9	12.7	9.53e-05	0	42	0	460324864	66	6023
2026-01-12 09:07:44.10	94.93	34.92	-47.6	-51.8	12.8	4.95e-05	0	42	0	462422016	66	5951
2026-01-12 09:07:44.95	94.65	35.03	-47.7	-52.0	12.6	1.07e-04	0	42	0	463470592	66	6124
2026-01-12 09:07:46.09	94.27	35.17	-47.9	-52.5	12.2	1.73e-04	0	42	0	465567744	66	6453
2026-01-12 09:07:46.95	93.98	35.28	-48.1	-52.8	11.8	4.20e-04	0	42	0	467664896	66	6722
2026-01-12 09:07:48.09	93.59	35.42	-48.3	-53.2	11.4	7.60e-04	0	42	0	469762048	67	6575
2026-01-12 09:07:48.94	93.30	35.53	-48.2	-53.1	11.5	8.09e-04	0	42	0	471859200	67	6529
2026-01-12 09:07:50.08	92.91	35.67	-48.3	-53.2	11.4	8.89e-04	0	43	0	473956352	67	6612
2026-01-12 09:07:51.05	92.57	35.79	-48.3	-53.3	11.3	1.18e-03	0	42	0	475004928	67	6655
2026-01-12 09:07:52.05	92.22	35.91	-48.2	-53.1	11.5	1.02e-03	0	42	0	477102080	67	6557
2026-01-12 09:07:53.04	91.88	36.03	-48.0	-52.8	11.8	6.37e-04	0	42	0	479199232	67	6345
2026-01-12 09:07:54.04	91.52	36.15	-47.8	-52.4	12.2	2.82e-04	0	42	0	481296384	67	6051
2026-01-12 09:07:55.03	91.17	36.27	-47.8	-52.3	12.4	2.03e-04	0	43	0	482344960	67	5977
2026-01-12 09:07:56.03	90.81	36.39	-47.8	-52.1	12.6	1.84e-04	0	42	0	484442112	67	5797
2026-01-12 09:07:57.02	90.45	36.51	-47.7	-51.9	12.7	6.40e-05	0	42	0	486539264	67	5711
2026-01-12 09:07:58.02	90.08	36.63	-47.6	-51.7	12.9	5.72e-05	0	42	0	488636416	67	5585
2026-01-12 09:07:59.01	89.72	36.74	-47.5	-51.6	13.1	3.20e-05	0	42	0	490733568	66	5834
2026-01-12 09:08:00.01	89.35	36.86	-47.4	-51.6	13.0	2.97e-05	0	42	0	491782144	66	5854
2026-01-12 09:08:01.00	88.98	36.97	-47.5	-51.9	12.9	3.12e-05	0	43	0	493879296	66	5996
2026-01-12 09:08:02.00	88.60	37.08	-47.6	-52.1	12.6	6.02e-05	0	42	0	495976448	66	6134
2026-01-12 09:08:02.99	88.23	37.20	-47.7	-52.4	12.3	7.47e-05	0	43	0	498073600	66	6353
2026-01-12 09:08:03.99	87.85	37.31	-47.6	-52.1	12.6	1.06e-04	0	42	0	499122176	66	6166
2026-01-12 09:08:04.98	87.47	37.42	-47.5	-51.8	12.9	5.72e-05	0	42	0	501219328	66	5979
2026-01-12 09:08:05.98	87.08	37.53	-47.5	-51.8	12.9	5.56e-05	0	42	0	503316480	66	5964
2026-01-12 09:08:06.97	86.70	37.63	-47.2	-51.2	13.4	1.83e-05	0	42	0	505413632	66	5590
2026-01-12 09:08:07.97	86.31	37.74	-46.8	-50.7	14.0	6.80e-06	0	43	0	507510784	65	5565
2026-01-12 09:08:08.96	85.92	37.85	-46.8	-50.6	14.1	1.50e-06	0	42	0	508559360	65	5472
2026-01-12 09:08:09.96	85.52	37.95	-46.8	-50.6	14.2	7.00e-07	0	42	0	510656512	65	5476
2026-01-12 09:08:10.95	85.12	38.05	-46.6	-50.2	14.4	0.00e+00	0	42	0	512753664	65	5273
2026-01-12 09:08:11.95	84.72	38.16	-46.6	-50.1	14.6	0.00e+00	0	42	0	514850816	65	5199
2026-01-12 09:08:12.94	84.32	38.26	-46.4	-49.9	14.8	7.00e-07	0	42	0	515899392	64	5392
2026-01-12 09:08:13.93	83.92	38.36	-46.4	-49.9	14.8	0.00e+00	0	42	0	517996544	64	5394
2026-01-12 09:08:14.93	83.51	38.45	-46.3	-49.9	14.8	0.00e+00	0	42	0	520093696	64	5397
2026-01-12 09:08:15.99	83.07	38.56	-46.3	-49.9	14.9	0.00e+00	0	43	0	522190848	64	5374
2026-01-12 09:08:16.85	82.72	38.64	-46.3	-49.8	14.9	0.00e+00	0	42	0	523239424	64	5318
2026-01-12 09:08:17.99	82.24	38.75	-46.3	-49.7	15.1	0.00e+00	0	42	0	526385152	64	5252
2026-01-12 09:08:18.84	81.89	38.83	-46.3	-49.7	15.1	0.00e+00	0	42	0	527433728	64	5252
2026-01-12 09:08:19.98	81.41	38.93	-46.4	-49.9	14.8	7.00e-07	0	42	0	529530880	64	5399
2026-01-12 09:08:20.83	81.05	39.01	-46.2	-49.6	15.1	7.00e-07	0	42	0	531628032	64	5200
2026-01-12 09:08:21.97	80.56	39.11	-46.0	-49.2	15.6	0.00e+00	0	42	0	533725184	63	5253
2026-01-12 09:08:22.82	80.20	39.18	-46.1	-49.3	15.5	0.00e+00	0	42	0	534773760	63	5289
2026-01-12 09:08:23.96	79.71	39.28	-45.8	-48.9	15.9	0.00e+00	0	43	0	536870912	63	5087
2026-01-12 09:08:24.81	79.34	39.35	-45.7	-48.8	16.0	0.00e+00	0	42	0	538968064	63	4994
2026-01-12 09:08:25.94	78.85	39.44	-45.8	-48.8	16.0	0.00e+00	0	42	0	541065216	63	5009
2026-01-12 09:08:26.80	78.47	39.51	-45.7	-48.7	16.0	0.00e+00	0	42	0	542113792	63	4933
2026-01-12 09:08:27.95	77.97	39.60	-45.6	-48.6	16.2	0.00e+00	0	42	0	544210944	63	4883
2026-01-12 09:08:28.80	77.60	39.66	-45.6	-48.5	16.2	0.00e+00	0	42	0	546308096	63	4865
2026-01-12 09:08:29.94	77.09	39.75	-45.7	-48.7	16.1	0.00e+00	0	42	0	548405248	63	4952
2026-01-12 09:08:30.79	76.71	39.81	-45.6	-48.5	16.2	0.00e+00	0	43	0	549453824	63	4862
2026-01-12 09:08:31.93	76.20	39.89	-45.7	-48.6	16.2	0.00e+00	0	42	0	551550976	63	4905
2026-01-12 09:08:32.78	75.82	39.95	-45.6	-48.6	16.2	0.00e+00	0	42	0	553648128	63	4892
2026-01-12 09:08:34.11	75.22	40.04	-45.6	-48.6	16.3	0.00e+00	0	42	0	555745280	63	4877
2026-01-12 09:08:34.82	74.90	40.09	-45.6	-48.6	16.2	0.00e+00	0	42	0	557842432	63	4893
2026-01-12 09:08:36.10	74.32	40.17	-45.5	-48.4	16.4	0.00e+00	0	43	0	559939584	63	4792
2026-01-12 09:08:36.82	73.99	40.21	-45.5	-48.5	16.3	0.00e+00	0	42	0	560988160	63	4828
2026-01-12 09:08:38.10	73.40	40.29	-45.3	-48.2	16.7	0.00e+00	0	42	0	563085312	62	4938
2026-01-12 09:08:38.83	73.07	40.33	-45.2	-48.0	16.8	0.00e+00	0	42	0	565182464	62	4831
2026-01-12 09:08:40.11	72.48	40.40	-45.2	-48.0	16.8	0.00e+00	0	42	0	567279616	62	4858
2026-01-12 09:08:40.83	72.14	40.44	-45.4	-48.2	16.6	0.00e+00	0	42	0	568328192	62	4951
2026-01-12 09:08:42.11	71.55	40.50	-45.4	-48.2	16.6	0.00e+00	0	43	0	571473920	62	4961
2026-01-12 09:08:42.84	71.21	40.54	-45.5	-48.4	16.4	0.00e+00	0	42	0	572522496	62	5059
2026-01-12 09:08:44.12	70.61	40.60	-45.5	-48.4	16.5	0.00e+00	0	42	0	574619648	62	5062
2026-01-12 09:08:44.84	70.27	40.63	-45.4	-48.3	16.5	0.00e+00	0	42	0	576716800	62	5032
2026-01-12 09:08:46.12	69.67	40.69	-45.4	-48.3	16.5	0.00e+00	0	42	0	578813952	62	5007
2026-01-12 09:08:46.85	69.33	40.72	-45.4	-48.2	16.6	0.00e+00	0	43	0	579862528	62	4976
2026-01-12 09:08:48.22	68.68	40.77	-45.5	-48.4	16.4	0.00e+00	0	43	0	583008256	62	5086
2026-01-12 09:08:48.93	68.35	40.80	-45.6	-48.6	16.3	0.00e+00	0	42	0	584056832	62	5161
2026-01-12 09:08:50.28	67.71	40.84	-45.7	-48.6	16.2	0.00e+00	0	42	0	586153984	62	5215
2026-01-12 09:08:50.99	67.37	40.86	-45.7	-48.6	16.2	0.00e+00	0	43	0	588251136	62	5213
2026-01-12 09:08:52.27	66.76	40.90	-45.6	-48.5	16.3	0.00e+00	0	42	0	590348288	62	5132
2026-01-12 09:08:52.98	66.42	40.92	-45.5	-48.4	16.4	0.00e+00	0	42	0	591396864	62	5081
2026-01-12 09:08:54.26	65.81	40.95	-45.4	-48.2	16.6	0.00e+00	0	42	0	593494016	62	4963
2026-01-12 09:08:54.98	65.46	40.97	-45.6	-48.5	16.3	0.00e+00	0	42	0	595591168	62	5156
2026-01-12 09:08:56.26	64.85	41.00	-46.0	-49.1	15.8	0.00e+00	0	42	0	597688320	62	5469
2026-01-12 09:08:56.97	64.51	41.01	-46.2	-49.4	15.4	0.00e+00	0	42	0	598736896	63	5375
2026-01-12 09:08:58.25	63.89	41.03	-46.3	-49.6	15.2	0.00e+00	0	42	0	600834048	63	5499
2026-01-12 09:08:58.98	63.54	41.04	-46.4	-49.7	15.1	7.00e-07	0	42	0	602931200	63	5555
2026-01-12 09:09:00.26	62.93	41.05	-46.6	-50.0	14.9	0.00e+00	0	42	0	605028352	63	5725
2026-01-12 09:09:00.98	62.58	41.06	-46.6	-50.0	14.7	7.00e-07	0	42	0	606076928	64	5446
2026-01-12 09:09:02.26	61.97	41.07	-46.7	-50.2	14.5	0.00e+00	0	42	0	609222656	64	5572
2026-01-12 09:09:03.00	61.61	41.07	-46.9	-50.4	14.4	0.00e+00	0	42	0	610271232	64	5694
2026-01-12 09:09:04.28	60.99	41.08	-47.0	-50.6	14.2	1.50e-06	0	42	0	612368384	64	5833
2026-01-12 09:09:04.99	60.65	41.08	-47.0	-50.7	14.1	7.00e-07	0	43	0	614465536	64	5880
2026-01-12 09:09:06.27	60.03	41.07	-46.9	-50.6	14.2	3.00e-06	0	42	0	616562688	64	5805
2026-01-12 09:09:07.21	59.58	41.07	-47.1	-50.8	13.9	3.00e-06	0	42	0	618659840	64	5984
2026-01-12 09:09:08.21	59.10	41.06	-47.5	-51.5	13.3	9.10e-06	0	43	0	619708416	65	6120
2026-01-12 09:09:09.55	58.45	41.05	-47.6	-51.8	13.0	4.42e-05	0	43	0	622854144	65	6309
2026-01-12 09:09:10.26	58.11	41.04	-47.6	-51.8	13.0	2.89e-05	0	42	0	623902720	65	6288
2026-01-12 09:09:11.54	57.50	41.02	-47.2	-51.0	13.6	1.14e-05	0	43	0	625999872	65	5788
2026-01-12 09:09:12.27	57.15	41.01	-47.2	-51.0	13.7	5.30e-06	0	43	0	628097024	65	5772
2026-01-12 09:09:13.55	56.53	40.99	-47.3	-51.2	13.5	4.50e-06	0	43	0	630194176	65	5900
2026-01-12 09:09:14.27	56.19	40.97	-47.7	-51.9	12.9	8.30e-06	0	42	0	631242752	65	6362
2026-01-12 09:09:15.55	55.58	40.94	-48.3	-53.0	11.7	1.56e-04	0	42	0	633339904	67	6487
2026-01-12 09:09:16.26	55.24	40.92	-48.4	-53.3	11.3	7.23e-04	0	42	0	635437056	67	6679
2026-01-12 09:09:17.54	54.63	40.89	-48.5	-53.5	11.4	1.07e-03	0	42	0	637534208	67	6825
2026-01-12 09:09:18.28	54.28	40.87	-48.4	-53.4	11.3	1.30e-03	0	43	0	638582784	67	6766
2026-01-12 09:09:19.56	53.67	40.82	-48.3	-53.2	11.6	9.18e-04	0	42	0	641728512	67	6578
2026-01-12 09:09:20.27	53.33	40.80	-48.3	-53.2	11.5	6.55e-04	0	42	0	642777088	67	6631
2026-01-12 09:09:21.55	52.73	40.75	-48.3	-53.2	11.5	6.72e-04	0	43	0	644874240	67	6600
2026-01-12 09:09:22.26	52.39	40.72	-48.4	-53.3	11.4	9.06e-04	0	42	0	645922816	67	6706
2026-01-12 09:09:23.54	51.79	40.67	-48.5	-53.7	11.1	1.35e-03	0	43	0	649068544	67	7010
2026-01-12 09:09:24.27	51.45	40.64	-48.5	-53.6	11.1	2.15e-03	0	42	0	650117120	67	6951
2026-01-12 09:09:25.77	50.75	40.57	-48.4	-53.3	11.5	1.08e-03	0	42	0	653262848	67	6660
2026-01-12 09:09:26.48	50.42	40.54	-48.2	-52.9	11.8	8.47e-04	0	42	0	654311424	67	6360
2026-01-12 09:09:27.76	49.82	40.48	-48.0	-52.6	12.2	2.84e-04	0	43	0	656408576	67	6148
2026-01-12 09:09:28.48	49.49	40.44	-48.1	-52.7	12.0	2.19e-04	0	43	0	658505728	67	6259
2026-01-12 09:09:29.76	48.90	40.37	-48.0	-52.4	12.3	2.03e-04	0	43	0	660602880	67	6051
2026-01-12 09:09:30.50	48.56	40.33	-47.9	-52.2	12.6	1.20e-04	0	43	0	661651456	67	5896
2026-01-12 09:09:31.78	47.97	40.25	-47.4	-51.4	13.4	2.21e-05	0	42	0	663748608	66	5689
2026-01-12 09:09:32.51	47.63	40.21	-47.1	-50.7	14.0	7.60e-06	0	43	0	665845760	66	5276
2026-01-12 09:09:33.78	47.06	40.13	-46.8	-50.3	14.4	0.00e+00	0	43	0	667942912	65	5336
2026-01-12 09:09:34.49	46.73	40.09	-46.6	-50.0	14.7	0.00e+00	0	42	0	668991488	65	5134
2026-01-12 09:09:35.77	46.16	40.00	-46.5	-49.9	14.9	7.00e-07	0	43	0	672137216	65	5060
2026-01-12 09:09:36.64	45.77	39.94	-46.3	-49.5	15.3	0.00e+00	0	43	0	673185792	64	5138
2026-01-12 09:09:38.06	45.13	39.84	-45.9	-48.9	16.0	0.00e+00	0	42	0	676331520	63	5074
2026-01-12 09:09:39.15	44.65	39.76	-45.5	-48.4	16.4	0.00e+00	0	43	0	678428672	63	4801
2026-01-12 09:09:40.34	44.12	39.68	-45.4	-48.2	16.6	0.00e+00	0	43	0	680525824	62	4949
2026-01-12 09:09:41.19	43.74	39.61	-45.3	-48.1	16.7	0.00e+00	0	42	0	681574400	62	4900
2026-01-12 09:09:42.32	43.25	39.52	-45.4	-48.2	16.6	0.00e+00	0	42	0	683671552	62	4960
2026-01-12 09:09:43.17	42.88	39.46	-45.3	-48.1	16.7	0.00e+00	0	42	0	685768704	62	4883
2026-01-12 09:09:44.72	42.21	39.33	-45.3	-48.1	16.7	0.00e+00	0	43	0	688914432	62	4902
2026-01-12 09:09:45.43	41.90	39.27	-45.2	-48.0	16.9	0.00e+00	0	42	0	689963008	62	4830
2026-01-12 09:09:46.72	41.35	39.16	-44.9	-47.6	17.2	0.00e+00	0	42	0	692060160	61	4900
2026-01-12 09:09:47.43	41.04	39.10	-44.9	-47.5	17.2	0.00e+00	0	42	0	693108736	61	4862
2026-01-12 09:09:48.73	40.49	38.99	-44.7	-47.3	17.5	0.00e+00	0	42	0	696254464	61	4722
2026-01-12 09:09:49.44	40.19	38.92	-44.6	-47.2	17.6	0.00e+00	0	42	0	697303040	61	4686
2026-01-12 09:09:50.72	39.66	38.80	-44.5	-47.1	17.6	0.00e+00	0	42	0	699400192	61	4649
2026-01-12 09:09:51.51	39.33	38.73	-44.6	-47.3	17.5	0.00e+00	0	42	0	701497344	61	4706
2026-01-12 09:09:52.71	38.83	38.62	-44.8	-47.5	17.3	0.00e+00	0	42	0	703594496	61	4840
2026-01-12 09:09:53.56	38.48	38.54	-44.7	-47.4	17.4	0.00e+00	0	42	0	704643072	61	4779
2026-01-12 09:09:54.70	38.01	38.43	-44.7	-47.3	17.4	0.00e+00	0	43	0	706740224	61	4732
2026-01-12 09:09:55.55	37.67	38.34	-44.6	-47.2	17.5	0.00e+00	0	42	0	708837376	61	4679
2026-01-12 09:09:56.69	37.20	38.23	-44.6	-47.3	17.5	0.00e+00	0	43	0	710934528	61	4710
2026-01-12 09:09:57.54	36.86	38.14	-44.7	-47.3	17.5	0.00e+00	0	42	0	713031680	61	4737
2026-01-12 09:09:58.68	36.41	38.03	-44.6	-47.3	17.5	0.00e+00	0	43	0	715128832	61	4712
2026-01-12 09:09:59.53	36.07	37.94	-44.7	-47.4	17.4	0.00e+00	0	42	0	716177408	61	4761
2026-01-12 09:10:00.67	35.62	37.82	-44.8	-47.4	17.3	0.00e+00	0	42	0	718274560	61	4801
2026-01-12 09:10:01.52	35.29	37.73	-44.8	-47.5	17.3	0.00e+00	0	43	0	720371712	61	4838
2026-01-12 09:10:02.66	34.84	37.61	-45.0	-47.7	17.0	0.00e+00	0	42	0	722468864	61	4983
2026-01-12 09:10:03.51	34.51	37.51	-45.2	-48.0	16.8	0.00e+00	0	43	0	723517440	61	5119
2026-01-12 09:10:04.65	34.07	37.39	-45.3	-48.2	16.6	0.00e+00	0	42	0	725614592	61	5219
2026-01-12 09:10:05.50	33.75	37.30	-45.2	-48.0	16.8	0.00e+00	0	43	0	727711744	61	5112
2026-01-12 09:10:06.64	33.32	37.17	-45.0	-47.8	17.0	0.00e+00	0	43	0	729808896	61	4997
2026-01-12 09:10:07.63	32.94	37.06	-45.1	-47.9	16.9	0.00e+00	0	42	0	731906048	61	5045
2026-01-12 09:10:08.79	32.51	36.92	-45.2	-48.0	16.7	0.00e+00	0	42	0	734003200	61	5151
2026-01-12 09:10:09.64	32.20	36.83	-45.2	-48.0	16.8	0.00e+00	0	43	0	735051776	61	5120
2026-01-12 09:10:11.00	31.70	36.67	-45.2	-48.0	16.8	0.00e+00	0	42	0	738197504	61	5106
2026-01-12 09:10:11.71	31.44	36.59	-45.2	-48.0	16.8	0.00e+00	0	43	0	739246080	61	5151
2026-01-12 09:10:13.19	30.90	36.41	-45.4	-48.3	16.5	0.00e+00	0	43	0	742391808	61	5285
2026-01-12 09:10:14.15	30.55	36.30	-45.3	-48.2	16.5	0.00e+00	0	42	0	743440384	61	5248
2026-01-12 09:10:15.46	30.09	36.14	-45.5	-48.5	16.3	0.00e+00	0	43	0	746586112	61	5416
2026-01-12 09:10:16.17	29.84	36.06	-45.6	-48.5	16.4	0.00e+00	0	42	0	747634688	61	5433
2026-01-12 09:10:17.46	29.38	35.90	-45.6	-48.5	16.3	0.00e+00	0	42	0	749731840	61	5440
2026-01-12 09:10:18.18	29.13	35.81	-45.5	-48.4	16.4	0.00e+00	0	43	0	750780416	61	5384
2026-01-12 09:10:19.46	28.69	35.65	-45.4	-48.3	16.5	0.00e+00	0	43	0	753926144	61	5285
2026-01-12 09:10:20.20	28.44	35.56	-45.6	-48.6	16.2	0.00e+00	0	43	0	754974720	61	5506
2026-01-12 09:10:21.48	28.00	35.40	-45.7	-48.8	16.0	0.00e+00	0	42	0	757071872	62	5317
2026-01-12 09:10:22.19	27.76	35.31	-45.8	-48.9	15.9	0.00e+00	0	43	0	759169024	62	5372
2026-01-12 09:10:23.52	27.32	35.15	-45.8	-48.9	15.9	0.00e+00	0	42	0	761266176	62	5386
2026-01-12 09:10:24.23	27.08	35.06	-45.9	-49.0	15.8	0.00e+00	0	43	0	762314752	62	5446
2026-01-12 09:10:25.51	26.66	34.89	-46.2	-49.4	15.4	0.00e+00	0	42	0	764411904	62	5717
2026-01-12 09:10:26.22	26.43	34.80	-46.3	-49.7	15.1	0.00e+00	0	42	0	766509056	63	5565
2026-01-12 09:10:27.50	26.01	34.64	-46.6	-50.1	14.8	0.00e+00	0	42	0	768606208	63	5806
2026-01-12 09:10:28.23	25.78	34.55	-46.7	-50.2	14.5	0.00e+00	0	42	0	769654784	64	5582
2026-01-12 09:10:29.51	25.37	34.38	-46.6	-50.2	14.6	0.00e+00	0	42	0	772800512	64	5545
2026-01-12 09:10:30.22	25.14	34.29	-46.6	-50.1	14.6	0.00e+00	0	42	0	773849088	64	5523
2026-01-12 09:10:31.50	24.74	34.12	-46.4	-49.9	14.9	0.00e+00	0	42	0	775946240	64	5373
2026-01-12 09:10:32.22	24.52	34.03	-46.4	-50.0	14.7	0.00e+00	0	42	0	778043392	64	5421
2026-01-12 09:10:33.50	24.12	33.86	-46.5	-50.3	14.5	0.00e+00	0	43	0	780140544	64	5609
2026-01-12 09:10:34.29	23.88	33.76	-46.6	-50.6	14.2	0.00e+00	0	43	0	781189120	64	5790
2026-01-12 09:10:35.52	23.50	33.60	-46.8	-50.9	13.9	3.00e-06	0	42	0	783286272	64	6032
2026-01-12 09:10:36.38	23.24	33.48	-46.9	-51.0	13.8	3.00e-06	0	42	0	785383424	64	6095
2026-01-12 09:10:37.51	22.91	33.34	-47.0	-51.1	13.7	2.20e-06	0	42	0	787480576	64	6141
2026-01-12 09:10:38.37	22.65	33.22	-47.1	-51.2	13.6	1.29e-05	0	42	0	789577728	64	6205
2026-01-12 09:10:39.50	22.32	33.07	-47.2	-51.2	13.5	8.30e-06	0	42	0	791674880	65	5914
2026-01-12 09:10:40.36	22.07	32.96	-47.3	-51.5	13.2	9.90e-06	0	42	0	792723456	65	6117
2026-01-12 09:10:41.49	21.74	32.81	-47.5	-51.8	12.9	3.28e-05	0	42	0	794820608	65	6343
2026-01-12 09:10:42.35	21.49	32.69	-47.5	-51.8	12.9	5.11e-05	0	42	0	796917760	65	6317
2026-01-12 09:10:43.48	21.17	32.54	-47.6	-51.9	12.9	3.89e-05	0	43	0	799014912	65	6352
2026-01-12 09:10:44.34	20.93	32.43	-47.4	-51.6	13.1	4.80e-05	0	42	0	800063488	65	6169
2026-01-12 09:10:45.48	20.61	32.27	-47.5	-51.6	13.2	2.89e-05	0	43	0	802160640	65	6180
2026-01-12 09:10:46.33	20.37	32.16	-47.5	-51.7	13.1	3.05e-05	0	42	0	804257792	65	6230
2026-01-12 09:10:47.47	20.06	32.01	-47.7	-51.9	12.7	5.34e-05	0	43	0	806354944	65	6407
2026-01-12 09:10:48.32	19.83	31.89	-47.7	-52.1	12.6	8.46e-05	0	42	0	807403520	66	6175
2026-01-12 09:10:49.51	19.50	31.73	-47.8	-52.2	12.5	1.07e-04	0	42	0	809500672	66	6270
2026-01-12 09:10:50.36	19.28	31.62	-47.7	-52.1	12.6	1.11e-04	0	42	0	811597824	66	6178
2026-01-12 09:10:51.50	18.97	31.46	-47.7	-52.1	12.7	6.86e-05	0	43	0	813694976	66	6158
2026-01-12 09:10:52.35	18.75	31.35	-47.6	-51.8	12.9	5.87e-05	0	43	0	815792128	66	5981
2026-01-12 09:10:53.49	18.45	31.20	-47.6	-51.9	12.9	6.25e-05	0	43	0	817889280	66	6026
2026-01-12 09:10:54.35	18.23	31.08	-47.7	-52.0	12.7	7.40e-05	0	42	0	818937856	66	6114
2026-01-12 09:10:55.48	17.93	30.93	-47.6	-51.8	12.9	6.63e-05	0	43	0	821035008	66	5987
2026-01-12 09:10:56.43	17.69	30.80	-47.6	-51.7	13.0	5.18e-05	0	42	0	823132160	66	5902
2026-01-12 09:10:57.42	17.44	30.66	-47.5	-51.6	13.2	2.21e-05	0	43	0	825229312	66	5801
2026-01-12 09:10:58.42	17.19	30.53	-47.4	-51.5	13.2	2.28e-05	0	42	0	826277888	66	5770
2026-01-12 09:10:59.41	16.94	30.40	-47.4	-51.6	13.2	2.44e-05	0	43	0	828375040	66	5791
2026-01-12 09:11:00.41	16.70	30.26	-47.2	-51.3	13.4	1.75e-05	0	42	0	830472192	66	5610
2026-01-12 09:11:01.40	16.46	30.13	-47.2	-51.2	13.5	1.22e-05	0	43	0	832569344	66	5576
2026-01-12 09:11:02.40	16.21	29.99	-47.1	-51.2	13.6	1.37e-05	0	42	0	833617920	66	5556
2026-01-12 09:11:03.39	15.97	29.86	-47.0	-50.9	13.8	8.30e-06	0	43	0	835715072	66	5393
2026-01-12 09:11:04.39	15.74	29.72	-47.0	-51.0	13.7	2.20e-06	0	43	0	837812224	65	5750
2026-01-12 09:11:05.38	15.50	29.59	-47.0	-50.9	13.8	4.50e-06	0	42	0	839909376	65	5662
2026-01-12 09:11:06.44	15.25	29.45	-46.9	-50.7	14.0	3.00e-06	0	42	0	842006528	65	5572
2026-01-12 09:11:07.36	15.04	29.32	-46.8	-50.6	14.1	2.20e-06	0	43	0	843055104	65	5501
2026-01-12 09:11:08.35	14.81	29.19	-46.8	-50.6	14.1	2.20e-06	0	43	0	845152256	65	5491
2026-01-12 09:11:09.35	14.58	29.06	-46.7	-50.3	14.4	2.20e-06	0	42	0	847249408	65	5332
2026-01-12 09:11:10.54	14.31	28.90	-46.7	-50.4	14.3	0.00e+00	0	43	0	849346560	65	5353
2026-01-12 09:11:11.40	14.12	28.78	-46.5	-50.2	14.5	0.00e+00	0	43	0	851443712	65	5222
2026-01-12 09:11:12.54	13.86	28.63	-46.5	-50.1	14.6	7.00e-07	0	43	0	853540864	64	5497
2026-01-12 09:11:13.39	13.68	28.52	-46.5	-50.0	14.7	7.00e-07	0	43	0	854589440	64	5460
2026-01-12 09:11:14.53	13.43	28.36	-46.5	-50.1	14.7	0.00e+00	0	43	0	856686592	64	5471
2026-01-12 09:11:15.38	13.24	28.25	-46.6	-50.1	14.6	7.00e-07	0	42	0	858783744	64	5508
2026-01-12 09:11:16.52	13.00	28.10	-46.7	-50.3	14.4	0.00e+00	0	43	0	860880896	64	5637
2026-01-12 09:11:17.37	12.81	27.99	-46.7	-50.3	14.4	7.00e-07	0	43	0	861929472	64	5612
2026-01-12 09:11:18.51	12.57	27.84	-46.7	-50.3	14.4	7.00e-07	0	43	0	864026624	64	5651
2026-01-12 09:11:19.36	12.39	27.72	-46.7	-50.3	14.4	0.00e+00	0	43	0	866123776	64	5641
2026-01-12 09:11:20.50	12.16	27.57	-46.5	-50.0	14.7	0.00e+00	0	43	0	868220928	64	5441
2026-01-12 09:11:21.35	11.98	27.46	-46.4	-49.8	15.0	7.00e-07	0	43	0	869269504	64	5286
2026-01-12 09:11:22.49	11.75	27.31	-46.2	-49.6	15.1	0.00e+00	0	43	0	871366656	64	5187
2026-01-12 09:11:23.34	11.57	27.20	-46.3	-49.7	15.0	0.00e+00	0	43	0	873463808	64	5255
2026-01-12 09:11:24.48	11.35	27.05	-46.4	-49.8	14.8	0.00e+00	0	43	0	875560960	64	5328
2026-01-12 09:11:25.33	11.18	26.94	-46.4	-49.9	14.8	0.00e+00	0	42	0	877658112	64	5394
2026-01-12 09:11:26.47	10.95	26.79	-46.4	-50.0	14.7	0.00e+00	0	43	0	879755264	64	5420
2026-01-12 09:11:27.40	10.77	26.67	-46.6	-50.2	14.5	0.00e+00	0	42	0	880803840	64	5562
2026-01-12 09:11:28.55	10.54	26.52	-46.6	-50.2	14.4	0.00e+00	0	42	0	882900992	64	5584
2026-01-12 09:11:29.40	10.38	26.40	-46.6	-50.2	14.5	2.20e-06	0	43	0	884998144	64	5562
2026-01-12 09:11:30.54	10.16	26.26	-46.6	-50.2	14.5	0.00e+00	0	42	0	887095296	64	5535
2026-01-12 09:11:31.39	10.00	26.15	-46.7	-50.2	14.4	7.00e-07	0	42	0	888143872	64	5586
2026-01-12 09:11:32.53	9.78	26.00	-46.5	-49.9	14.7	7.00e-07	0	42	0	890241024	64	5397
2026-01-12 09:11:33.39	9.62	25.89	-46.4	-49.9	14.8	7.00e-07	0	42	0	892338176	64	5346
2026-01-12 09:11:34.52	9.41	25.74	-46.4	-49.8	14.9	0.00e+00	0	42	0	894435328	64	5296
2026-01-12 09:11:35.38	9.26	25.63	-46.4	-49.8	14.9	0.00e+00	0	43	0	895483904	64	5291
2026-01-12 09:11:36.51	9.05	25.49	-46.3	-49.7	15.0	0.00e+00	0	43	0	897581056	64	5240
2026-01-12 09:11:37.36	8.90	25.38	-46.4	-49.8	14.9	7.00e-07	0	43	0	899678208	64	5335
2026-01-12 09:11:38.50	8.69	25.23	-46.5	-50.1	14.6	0.00e+00	0	42	0	901775360	64	5477
2026-01-12 09:11:39.36	8.54	25.12	-46.6	-50.1	14.6	0.00e+00	0	42	0	903872512	64	5489
2026-01-12 09:11:40.49	8.34	24.98	-46.8	-50.4	14.3	7.00e-07	0	43	0	905969664	64	5697
2026-01-12 09:11:41.34	8.19	24.87	-46.8	-50.4	14.3	7.00e-07	0	43	0	907018240	64	5697
2026-01-12 09:11:42.48	7.99	24.73	-46.9	-50.7	14.0	1.50e-06	0	43	0	909115392	64	5876
2026-01-12 09:11:43.33	7.85	24.62	-46.8	-50.5	14.1	7.00e-07	0	43	0	911212544	64	5775
2026-01-12 09:11:44.47	7.65	24.48	-46.9	-50.6	14.1	7.00e-07	0	43	0	913309696	64	5821
2026-01-12 09:11:45.32	7.51	24.37	-46.8	-50.5	14.2	2.20e-06	0	43	0	914358272	64	5753
2026-01-12 09:11:46.46	7.32	24.23	-46.8	-50.5	14.1	2.20e-06	0	43	0	916455424	64	5769
2026-01-12 09:11:47.31	7.17	24.12	-46.8	-50.4	14.3	7.00e-07	0	43	0	918552576	64	5696
2026-01-12 09:11:48.45	6.99	23.98	-46.8	-50.5	14.2	3.00e-06	0	43	0	920649728	64	5747
2026-01-12 09:11:49.30	6.85	23.88	-46.6	-50.2	14.4	7.00e-07	0	42	0	921698304	64	5570
2026-01-12 09:11:50.44	6.66	23.74	-46.6	-50.2	14.4	7.00e-07	0	42	0	923795456	64	5585
2026-01-12 09:11:51.30	6.52	23.63	-46.6	-50.2	14.4	0.00e+00	0	43	0	925892608	64	5579
2026-01-12 09:11:52.43	6.34	23.49	-46.5	-50.1	14.6	0.00e+00	0	42	0	927989760	64	5496
2026-01-12 09:11:53.29	6.20	23.38	-46.5	-50.1	14.6	7.00e-07	0	42	0	929038336	64	5498
2026-01-12 09:11:54.42	6.03	23.25	-46.5	-50.1	14.5	0.00e+00	0	42	0	932184064	64	5488
2026-01-12 09:11:55.28	5.89	23.14	-46.5	-50.1	14.6	0.00e+00	0	42	0	933232640	64	5472
2026-01-12 09:11:56.41	5.72	23.00	-46.4	-49.9	14.7	1.50e-06	0	42	0	935329792	64	5376
2026-01-12 09:11:57.27	5.58	22.90	-46.3	-49.8	14.9	0.00e+00	0	42	0	937426944	64	5284
2026-01-12 09:11:58.40	5.41	22.76	-46.3	-49.9	14.8	0.00e+00	0	43	0	939524096	64	5349
2026-01-12 09:11:59.26	5.28	22.66	-46.4	-50.0	14.7	7.00e-07	0	43	0	940572672	64	5422
2026-01-12 09:12:00.59	5.08	22.50	-46.5	-50.2	14.4	0.00e+00	0	43	0	943718400	64	5582
2026-01-12 09:12:01.29	4.98	22.42	-46.5	-50.4	14.2	2.20e-06	0	43	0	944766976	64	5722
2026-01-12 09:12:02.78	4.76	22.24	-46.6	-50.7	14.0	0.00e+00	0	42	0	946864128	64	5900
2026-01-12 09:12:03.49	4.65	22.15	-46.5	-50.6	14.0	7.00e-07	0	43	0	948961280	64	5855
2026-01-12 09:12:04.77	4.47	22.00	-46.6	-50.8	13.8	3.00e-06	0	42	0	951058432	64	5949
2026-01-12 09:12:05.50	4.36	21.91	-46.6	-50.8	13.9	4.50e-06	0	43	0	952107008	64	5940
2026-01-12 09:12:06.78	4.18	21.76	-46.6	-50.7	14.0	4.50e-06	0	43	0	955252736	64	5877
2026-01-12 09:12:07.49	4.08	21.68	-46.6	-50.6	14.1	3.00e-06	0	43	0	956301312	64	5808
2026-01-12 09:12:08.77	3.90	21.53	-46.6	-50.5	14.1	2.20e-06	0	43	0	958398464	64	5784
2026-01-12 09:12:09.50	3.79	21.44	-46.6	-50.5	14.1	1.50e-06	0	43	0	959447040	64	5745
2026-01-12 09:12:10.77	3.62	21.30	-46.5	-50.4	14.3	7.00e-07	0	43	0	962592768	64	5675
2026-01-12 09:12:11.50	3.52	21.21	-46.6	-50.4	14.2	7.00e-07	0	43	0	963641344	64	5673
2026-01-12 09:12:12.78	3.34	21.06	-46.5	-50.3	14.3	7.00e-07	0	43	0	965738496	64	5614
2026-01-12 09:12:13.52	3.24	20.98	-46.4	-50.1	14.5	0.00e+00	0	43	0	967835648	64	5491
2026-01-12 09:12:14.80	3.07	20.83	-46.3	-50.1	14.5	7.00e-07	0	42	0	969932800	64	5486
2026-01-12 09:12:15.52	2.97	20.75	-46.4	-50.1	14.5	0.00e+00	0	43	0	970981376	64	5520
2026-01-12 09:12:16.80	2.81	20.60	-46.4	-50.2	14.4	0.00e+00	0	43	0	974127104	64	5554
2026-01-12 09:12:17.67	2.69	20.50	-46.4	-50.1	14.5	7.00e-07	0	43	0	975175680	64	5519
2026-01-12 09:12:19.09	2.51	20.34	-46.4	-50.2	14.4	1.50e-06	0	43	0	978321408	64	5575
2026-01-12 09:12:19.80	2.41	20.26	-46.5	-50.3	14.3	7.00e-07	0	43	0	979369984	64	5613
2026-01-12 09:12:21.08	2.25	20.12	-46.6	-50.4	14.2	2.20e-06	0	43	0	981467136	64	5678
2026-01-12 09:12:21.81	2.16	20.03	-46.7	-50.5	14.1	2.20e-06	0	43	0	982515712	64	5787
2026-01-12 09:12:23.08	2.00	19.89	-46.6	-50.3	14.3	1.50e-06	0	43	0	985661440	64	5634
2026-01-12 09:12:23.83	1.90	19.81	-46.6	-50.3	14.3	2.20e-06	0	42	0	986710016	64	5643
2026-01-12 09:12:25.10	1.75	19.67	-46.7	-50.4	14.2	2.20e-06	0	42	0	988807168	64	5714
2026-01-12 09:12:25.89	1.65	19.58	-46.6	-50.4	14.2	1.50e-06	0	43	0	990904320	64	5657
2026-01-12 09:12:27.12	1.50	19.44	-46.6	-50.4	14.2	1.50e-06	0	43	0	993001472	64	5664
2026-01-12 09:12:28.06	1.38	19.34	-46.6	-50.4	14.2	7.00e-07	0	42	0	995098624	64	5701
2026-01-12 09:12:29.05	1.26	19.23	-46.5	-50.4	14.2	7.00e-07	0	43	0	996147200	64	5664
2026-01-12 09:12:30.04	1.14	19.12	-46.4	-50.1	14.5	1.50e-06	0	43	0	998244352	64	5495
2026-01-12 09:12:31.04	1.03	19.01	-46.4	-50.1	14.5	7.00e-07	0	43	0	1000341504	64	5478
2026-01-12 09:12:32.03	0.91	18.90	-46.4	-50.0	14.5	7.00e-07	0	43	0	1002438656	64	5456
2026-01-12 09:12:33.03	0.79	18.79	-46.5	-50.1	14.4	0.00e+00	0	43	0	1004535808	64	5513
2026-01-12 09:12:34.03	0.68	18.69	-46.4	-50.0	14.6	0.00e+00	0	43	0	1005584384	64	5447
2026-01-12 09:12:35.02	0.56	18.58	-46.3	-49.9	14.7	0.00e+00	0	43	0	1007681536	64	5355
2026-01-12 09:12:36.02	0.45	18.47	-46.3	-50.0	14.6	0.00e+00	0	43	0	1009778688	64	5411
2026-01-12 09:12:37.01	0.33	18.37	-46.2	-49.9	14.7	0.00e+00	0	42	0	1011875840	64	5388
2026-01-12 09:12:38.01	0.22	18.26	-46.2	-50.1	14.5	7.00e-07	0	43	0	1012924416	64	5469
2026-01-12 09:12:39.02	0.11	18.15	-46.2	-50.2	14.4	0.00e+00	0	42	0	1015021568	64	5532
2026-01-12 09:12:40.01	360.00	18.05	-46.3	-50.3	14.2	7.00e-07	0	43	0	1017118720	64	5645
2026-01-12 09:12:41.01	359.89	17.94	-46.3	-50.3	14.3	7.00e-07	0	43	0	1019215872	64	5597
2026-01-12 09:12:42.00	359.78	17.84	-46.5	-50.6	14.0	7.00e-07	0	43	0	1021313024	64	5790
2026-01-12 09:12:43.00	359.67	17.73	-46.5	-50.6	14.0	1.50e-06	0	43	0	1022361600	64	5800
2026-01-12 09:12:43.99	359.56	17.63	-46.6	-50.6	13.9	5.30e-06	0	43	0	1024458752	64	5852
2026-01-12 09:12:44.99	359.45	17.52	-46.8	-50.8	13.8	4.50e-06	0	43	0	1026555904	64	5953
2026-01-12 09:12:45.98	359.35	17.42	-46.8	-50.7	13.8	4.50e-06	0	43	0	1028653056	64	5920
2026-01-12 09:12:46.98	359.24	17.32	-46.8	-50.7	13.8	6.10e-06	0	43	0	1030750208	64	5919
2026-01-12 09:12:47.97	359.14	17.21	-46.8	-50.7	13.9	1.50e-06	0	42	0	1031798784	64	5866
2026-01-12 09:12:48.97	359.03	17.11	-46.7	-50.6	13.9	3.80e-06	0	43	0	1033895936	64	5822
2026-01-12 09:12:49.96	358.93	17.01	-46.8	-50.7	13.9	7.00e-07	0	43	0	1035993088	64	5859
2026-01-12 09:12:50.96	358.83	16.91	-46.7	-50.6	14.0	2.20e-06	0	42	0	1038090240	64	5828
2026-01-12 09:12:51.95	358.73	16.80	-46.6	-50.4	14.1	2.20e-06	0	43	0	1039138816	64	5704
2026-01-12 09:12:52.97	358.62	16.70	-46.6	-50.4	14.2	7.00e-07	0	43	0	1041235968	64	5673
2026-01-12 09:12:54.00	358.52	16.60	-46.6	-50.4	14.1	3.80e-06	0	43	0	1043333120	64	5714
2026-01-12 09:12:55.01	358.42	16.49	-46.7	-50.4	14.2	0.00e+00	0	43	0	1045430272	64	5667
2026-01-12 09:12:56.01	358.32	16.39	-46.7	-50.5	14.1	1.50e-06	0	43	0	1047527424	64	5747
2026-01-12 09:12:57.00	358.22	16.29	-46.7	-50.4	14.1	2.20e-06	0	43	0	1048576000	64	5699
2026-01-12 09:12:57.99	358.13	16.19	-46.6	-50.5	14.0	2.20e-06	0	43	0	1050673152	64	5756
2026-01-12 09:12:58.99	358.03	16.09	-46.6	-50.5	14.0	1.50e-06	0	43	0	1052770304	64	5763
2026-01-12 09:12:59.98	357.93	16.00	-46.6	-50.6	14.0	3.00e-06	0	42	0	1054867456	64	5790
2026-01-12 09:13:00.98	357.84	15.90	-46.6	-50.7	13.9	7.00e-07	0	42	0	1056964608	64	5863
2026-01-12 09:13:01.97	357.74	15.80	-46.5	-50.7	13.8	6.10e-06	0	43	0	1058013184	64	5873
2026-01-12 09:13:02.97	357.65	15.70	-46.5	-50.7	13.9	4.50e-06	0	43	0	1060110336	64	5885
2026-01-12 09:13:03.96	357.55	15.60	-46.5	-50.8	13.7	9.90e-06	0	43	0	1062207488	64	5958
2026-01-12 09:13:04.96	357.46	15.50	-46.5	-50.7	13.8	5.30e-06	0	43	0	1064304640	64	5889
2026-01-12 09:13:05.95	357.37	15.41	-46.6	-50.9	13.6	6.80e-06	0	43	0	1065353216	64	6020
2026-01-12 09:13:06.94	357.28	15.31	-46.6	-50.7	13.8	4.50e-06	0	43	0	1067450368	64	5890
2026-01-12 09:13:07.94	357.19	15.21	-46.7	-50.9	13.6	6.10e-06	0	43	0	1069547520	64	5998
2026-01-12 09:13:08.94	357.09	15.12	-46.7	-50.8	13.7	3.80e-06	0	43	0	1071644672	64	5957
2026-01-12 09:13:09.95	357.00	15.02	-46.8	-50.9	13.6	6.10e-06	0	43	0	1073741824	64	6004
2026-01-12 09:13:10.97	356.91	14.92	-46.7	-50.8	13.7	9.10e-06	0	43	0	1074790400	64	5924
2026-01-12 09:13:11.97	356.82	14.83	-46.8	-50.9	13.6	6.10e-06	0	43	0	1076887552	64	6018
2026-01-12 09:13:12.96	356.74	14.73	-46.8	-51.0	13.5	1.06e-05	0	43	0	1078984704	64	6092
2026-01-12 09:13:13.96	356.65	14.64	-46.8	-50.9	13.6	8.30e-06	0	43	0	1081081856	64	6005
2026-01-12 09:13:14.95	356.56	14.54	-46.9	-51.0	13.5	8.30e-06	0	43	0	1082130432	64	6124
2026-01-12 09:13:15.95	356.47	14.45	-46.9	-50.9	13.6	6.10e-06	0	43	0	1084227584	64	6033
2026-01-12 09:13:16.94	356.39	14.36	-46.9	-50.9	13.6	9.10e-06	0	43	0	1086324736	64	6015
2026-01-12 09:13:17.94	356.30	14.26	-46.9	-50.9	13.6	9.90e-06	0	43	0	1088421888	64	6030
2026-01-12 09:13:18.93	356.22	14.17	-46.9	-51.0	13.4	1.06e-05	0	43	0	1090519040	64	6105
2026-01-12 09:13:19.93	356.13	14.08	-47.0	-51.1	13.4	1.22e-05	0	43	0	1091567616	64	6151
2026-01-12 09:13:20.92	356.05	13.98	-46.8	-50.9	13.5	1.06e-05	0	43	0	1093664768	64	6044
2026-01-12 09:13:21.91	355.97	13.89	-46.9	-51.1	13.4	1.37e-05	0	43	0	1095761920	64	6151
2026-01-12 09:13:22.91	355.89	13.80	-46.7	-51.0	13.5	1.60e-05	0	43	0	1097859072	64	6067
2026-01-12 09:13:23.90	355.80	13.71	-46.7	-51.1	13.3	1.60e-05	0	43	0	1098907648	64	6185
2026-01-12 09:13:24.89	355.72	13.62	-46.5	-51.1	13.3	2.05e-05	0	43	0	1101004800	64	6197
2026-01-12 09:13:25.89	355.64	13.53	-46.5	-51.1	13.3	2.28e-05	0	43	0	1103101952	64	6197
2026-01-12 09:13:26.95	355.56	13.43	-46.4	-51.2	13.2	1.29e-05	0	43	0	1105199104	64	6258
2026-01-12 09:13:27.86	355.48	13.35	-46.4	-51.3	13.2	2.36e-05	0	43	0	1107296256	64	6280
2026-01-12 09:13:28.98	355.39	13.24	-46.4	-51.2	13.3	1.52e-05	0	43	0	1109393408	64	6203
2026-01-12 09:13:29.84	355.33	13.17	-46.4	-51.1	13.3	2.21e-05	0	43	0	1110441984	64	6195
2026-01-12 09:13:30.97	355.24	13.06	-46.3	-51.1	13.3	1.75e-05	0	43	0	1112539136	64	6167
2026-01-12 09:13:31.83	355.17	12.99	-46.2	-51.1	13.3	1.06e-05	0	43	0	1114636288	64	6157
2026-01-12 09:13:32.96	355.08	12.89	-46.1	-51.0	13.4	8.30e-06	0	43	0	1116733440	64	6073
2026-01-12 09:13:33.81	355.02	12.81	-46.1	-51.0	13.4	9.90e-06	0	43	0	1117782016	64	6101
2026-01-12 09:13:34.95	354.93	12.71	-46.0	-51.0	13.5	1.44e-05	0	43	0	1119879168	63	6468
2026-01-12 09:13:35.80	354.86	12.63	-45.8	-51.0	13.5	1.29e-05	0	43	0	1121976320	63	6438
2026-01-12 09:13:36.94	354.78	12.53	-45.6	-51.1	13.4	9.90e-06	0	43	0	1124073472	63	6504
2026-01-12 09:13:37.79	354.71	12.46	-45.5	-51.0	13.5	1.14e-05	0	43	0	1125122048	63	6429
2026-01-12 09:13:38.94	354.63	12.35	-45.2	-51.2	13.3	1.37e-05	0	43	0	1127219200	62	7009
2026-01-12 09:13:39.80	354.56	12.28	-45.0	-51.2	13.3	1.67e-05	0	43	0	1129316352	62	7025
2026-01-12 09:13:41.01	354.47	12.17	-44.8	-51.2	13.2	2.36e-05	0	43	0	1131413504	61	7410
2026-01-12 09:13:41.87	354.41	12.10	-44.6	-51.2	13.3	2.36e-05	0	43	0	1133510656	61	7399
2026-01-12 09:13:43.00	354.33	12.00	-44.6	-51.4	13.0	1.37e-05	0	43	0	1135607808	61	7596
2026-01-12 09:13:43.86	354.27	11.93	-44.7	-51.4	13.0	2.67e-05	0	43	0	1136656384	61	7603
2026-01-12 09:13:44.99	354.18	11.83	-44.9	-51.6	12.8	4.04e-05	0	43	0	1138753536	61	7792
2026-01-12 09:13:45.84	354.12	11.75	-45.3	-51.6	12.8	7.01e-05	0	43	0	1140850688	61	7795
2026-01-12 09:13:46.98	354.04	11.66	-45.7	-51.6	12.9	4.42e-05	0	43	0	1142947840	61	7725
2026-01-12 09:13:47.83	353.98	11.58	-45.9	-51.7	12.8	6.48e-05	0	42	0	1143996416	62	7378
2026-01-12 09:13:48.97	353.90	11.49	-46.2	-51.9	12.5	8.85e-05	0	43	0	1146093568	63	7145
2026-01-12 09:13:49.82	353.84	11.41	-46.5	-52.0	12.4	1.05e-04	0	43	0	1148190720	63	7250
2026-01-12 09:13:50.96	353.76	11.32	-46.4	-51.9	12.5	1.10e-04	0	43	0	1150287872	63	7189
2026-01-12 09:13:51.81	353.70	11.25	-46.3	-52.1	12.4	1.56e-04	0	43	0	1151336448	63	7290
2026-01-12 09:13:52.95	353.63	11.15	-46.3	-51.9	12.5	1.12e-04	0	43	0	1153433600	63	7192
2026-01-12 09:13:53.80	353.57	11.08	-46.4	-52.0	12.4	1.43e-04	0	43	0	1155530752	63	7233
2026-01-12 09:13:54.94	353.49	10.98	-46.3	-51.9	12.5	1.09e-04	0	43	0	1157627904	63	7156
2026-01-12 09:13:56.22	353.40	10.87	-46.3	-51.9	12.4	1.14e-04	0	43	0	1159725056	63	7167
2026-01-12 09:13:56.93	353.36	10.82	-46.3	-51.9	12.5	1.39e-04	0	43	0	1161822208	63	7178
2026-01-12 09:13:58.21	353.27	10.71	-46.4	-51.9	12.5	1.11e-04	0	43	0	1163919360	63	7157
2026-01-12 09:13:58.92	353.22	10.65	-46.3	-51.8	12.6	9.91e-05	0	43	0	1164967936	63	7066
2026-01-12 09:14:00.26	353.14	10.54	-46.4	-51.9	12.5	7.32e-05	0	43	0	1167065088	63	7133
2026-01-12 09:14:00.97	353.09	10.48	-46.4	-52.0	12.4	9.76e-05	0	43	0	1169162240	63	7224
2026-01-12 09:14:02.25	353.01	10.38	-46.6	-51.9	12.5	1.01e-04	0	43	0	1171259392	63	7139
2026-01-12 09:14:02.99	352.96	10.31	-46.7	-52.0	12.3	9.23e-05	0	42	0	1172307968	64	6846
2026-01-12 09:14:04.27	352.88	10.21	-46.6	-51.7	12.6	1.54e-04	0	43	0	1175453696	64	6625
2026-01-12 09:14:04.98	352.83	10.15	-46.8	-51.8	12.4	1.48e-04	0	43	0	1176502272	64	6707
2026-01-12 09:14:06.26	352.75	10.05	-46.7	-51.8	12.5	1.20e-04	0	43	0	1178599424	64	6665
2026-01-12 09:14:06.97	352.71	9.99	-46.6	-51.7	12.6	8.31e-05	0	43	0	1180696576	64	6624
2026-01-12 09:14:08.25	352.63	9.89	-46.4	-51.9	12.4	9.00e-05	0	43	0	1182793728	64	6758
2026-01-12 09:14:08.96	352.58	9.83	-46.4	-52.0	12.3	1.72e-04	0	43	0	1183842304	64	6822
2026-01-12 09:14:10.24	352.50	9.73	-46.2	-52.1	12.3	1.77e-04	0	43	0	1185939456	64	6880
2026-01-12 09:14:10.97	352.46	9.67	-46.2	-52.2	12.1	2.40e-04	0	43	0	1188036608	64	6987
2026-01-12 09:14:12.24	352.38	9.57	-46.0	-52.1	12.3	1.59e-04	0	43	0	1190133760	63	7299
2026-01-12 09:14:13.01	352.33	9.51	-46.0	-52.1	12.2	2.54e-04	0	43	0	1191182336	63	7340
2026-01-12 09:14:14.29	352.26	9.40	-46.1	-52.3	12.1	2.71e-04	0	43	0	1194328064	63	7494
2026-01-12 09:14:15.00	352.21	9.35	-46.2	-52.5	11.8	3.35e-04	0	43	0	1195376640	63	7681
2026-01-12 09:14:16.29	352.14	9.25	-46.3	-52.3	12.0	4.05e-04	0	43	0	1197473792	63	7515
2026-01-12 09:14:17.00	352.09	9.19	-46.4	-52.5	11.8	3.92e-04	0	43	0	1198522368	63	7660
2026-01-12 09:14:18.28	352.02	9.09	-46.8	-52.4	11.8	4.23e-04	0	43	0	1201668096	64	7162
2026-01-12 09:14:19.00	351.98	9.03	-46.8	-52.3	11.9	4.12e-04	0	43	0	1202716672	64	7074
2026-01-12 09:14:20.28	351.90	8.93	-47.8	-65.5	3.8	1.41e+00	0	43	104	1204813824	67	27315
2026-01-12 09:14:21.01	351.86	8.88	-48.4	-65.6	3.8	1.49e+00	0	43	104	1204813824	67	27487
2026-01-12 09:14:22.28	351.78	8.78	-50.4	-65.9	3.8	1.49e+00	0	43	104	1204813824	71	22724
2026-01-12 09:14:23.00	351.74	8.72	-50.1	-66.0	3.8	1.49e+00	0	43	104	1204813824	71	22883
2026-01-12 09:14:24.27	351.67	8.62	-50.3	-66.1	3.8	1.49e+00	0	43	104	1204813824	72	21761
2026-01-12 09:14:25.00	351.63	8.57	-50.0	-66.1	3.8	1.49e+00	0	43	104	1204813824	72	21908
2026-01-12 09:14:26.27	351.56	8.47	-50.9	-66.1	3.8	1.49e+00	0	43	104	1204813824	72	21990
2026-01-12 09:14:26.98	351.52	8.42	-50.9	-66.1	3.8	1.49e+00	0	43	104	1204813824	72	21980
2026-01-12 09:14:28.26	351.45	8.32	-50.8	-66.2	3.8	1.49e+00	0	43	104	1204813824	72	22105
2026-01-12 09:14:28.97	351.41	8.26	-50.7	-66.2	3.8	1.49e+00	0	43	104	1204813824	72	22147
2026-01-12 09:14:30.25	351.34	8.17	-51.0	-66.2	3.8	1.49e+00	0	43	104	1204813824	72	22231
2026-01-12 09:14:30.98	351.30	8.11	-51.0	-66.2	3.8	1.49e+00	0	43	104	1204813824	72	22198
2026-01-12 09:14:32.25	351.23	8.01	-50.8	-66.2	3.8	1.49e+00	0	43	104	1204813824	72	22201
2026-01-12 09:14:33.03	351.18	7.96	-51.1	-66.2	3.8	1.49e+00	0	43	104	1204813824	72	22259
