passes_logs/2026/01/12/T1/T1__20260112_114059_AQUA_rec.log

#Pass ID: 20260112_114059_AQUA
#Satellite: AQUA
#Configuration: AQUA
#almurnet v.1.7.20251203
#Start time: 2026-01-12 11:41:00

#Version: 2.0.20230620
#Station: T1
#Location: 37.570604 lon 55.790049 lat
#TLE: 1 27424U 02022A   26011.93923927  .00001110  00000+0  23211-3 0  9993
#TLE: 2 27424  98.4078 338.3153 0002029  81.9924 314.0623 14.61816932260445

#Time	Az	El	Level	Level2	SNR	BER	BlckErr	Temp	State	Recorded	gain1	gain2
2026-01-12 11:41:00.82	161.42	5.13	-52.9	-72.8	3.8	7.46e-01	0	39	0	0	77	35417
2026-01-12 11:41:01.81	161.43	5.20	-52.9	-72.4	3.8	7.45e-01	0	40	104	0	77	33898
2026-01-12 11:41:02.81	161.43	5.28	-52.9	-72.5	3.8	7.45e-01	0	39	104	0	77	34113
2026-01-12 11:41:03.80	161.43	5.35	-52.8	-72.6	3.8	7.45e-01	0	40	104	0	77	34794
2026-01-12 11:41:04.79	161.43	5.43	-52.9	-72.7	3.8	7.47e-01	0	40	104	0	77	35097
2026-01-12 11:41:05.79	161.43	5.51	-52.9	-72.9	3.8	7.47e-01	0	40	104	0	77	35742
2026-01-12 11:41:06.78	161.44	5.58	-52.9	-72.9	3.8	7.43e-01	0	40	104	0	77	35950
2026-01-12 11:41:07.77	161.44	5.66	-52.8	-72.8	3.8	7.45e-01	0	40	104	0	77	35349
2026-01-12 11:41:08.77	161.44	5.74	-52.9	-72.4	3.8	7.43e-01	0	40	104	0	77	34065
2026-01-12 11:41:09.76	161.44	5.81	-52.9	-71.9	3.8	7.46e-01	0	40	104	0	77	32083
2026-01-12 11:41:10.75	161.45	5.89	-52.8	-70.7	4.0	7.39e-01	0	40	104	0	77	27786
2026-01-12 11:41:11.75	161.45	5.97	-52.8	-70.0	3.9	7.44e-01	0	40	104	0	77	25794
2026-01-12 11:41:12.74	161.45	6.05	-52.8	-69.3	4.4	7.28e-01	0	40	104	0	77	23704
2026-01-12 11:41:13.73	161.45	6.12	-52.8	-68.8	4.5	7.24e-01	0	40	104	0	77	22486
2026-01-12 11:41:14.73	161.45	6.20	-52.7	-68.1	4.0	7.38e-01	0	40	104	0	77	20732
2026-01-12 11:41:15.72	161.46	6.28	-52.7	-67.2	5.4	7.00e-01	0	40	104	0	77	18668
2026-01-12 11:41:16.71	161.46	6.36	-52.7	-66.7	5.8	6.91e-01	0	40	0	524288	77	17580
2026-01-12 11:41:17.71	161.46	6.44	-52.6	-65.8	6.4	6.77e-01	0	40	0	2097152	77	15878
2026-01-12 11:41:18.70	161.46	6.52	-52.6	-65.3	6.8	6.68e-01	0	40	0	3670016	77	15013
2026-01-12 11:41:19.69	161.46	6.60	-52.5	-64.5	7.6	6.56e-01	0	40	0	5767168	77	13692
2026-01-12 11:41:20.69	161.47	6.68	-52.4	-63.3	8.7	6.38e-01	0	40	0	7340032	76	12633
2026-01-12 11:41:21.68	161.47	6.76	-52.3	-62.6	9.6	6.30e-01	0	40	0	9437184	76	11584
2026-01-12 11:41:22.68	161.47	6.84	-52.2	-61.9	10.2	6.25e-01	0	40	0	11010048	76	10713
2026-01-12 11:41:23.67	161.47	6.92	-52.0	-60.7	11.5	6.15e-01	0	40	0	13107200	76	9348
2026-01-12 11:41:24.66	161.47	7.01	-51.8	-59.9	12.3	6.11e-01	0	40	0	14680064	75	9028
2026-01-12 11:41:25.66	161.48	7.09	-51.6	-59.2	13.0	6.13e-01	0	40	0	16777216	75	8318
2026-01-12 11:41:26.65	161.48	7.17	-51.5	-58.6	13.6	6.09e-01	0	40	0	18874368	74	8232
2026-01-12 11:41:27.64	161.48	7.25	-51.1	-57.3	14.9	6.08e-01	0	41	0	20447232	74	7101
2026-01-12 11:41:28.64	161.48	7.33	-50.9	-56.9	15.3	6.06e-01	0	41	0	22544384	73	7162
2026-01-12 11:41:29.63	161.48	7.42	-50.6	-56.2	10.4	6.07e-01	0	41	0	24117248	73	6610
2026-01-12 11:41:30.62	161.49	7.50	-50.3	-55.5	16.7	6.07e-01	0	41	0	26214400	72	6475
2026-01-12 11:41:31.62	161.49	7.58	-50.1	-55.2	17.0	6.09e-01	0	41	0	27787264	72	6214
2026-01-12 11:41:32.61	161.49	7.67	-49.9	-54.5	17.7	6.08e-01	0	40	0	29884416	71	6123
2026-01-12 11:41:33.60	161.49	7.75	-49.7	-54.2	18.1	6.07e-01	0	41	0	31457280	71	5877
2026-01-12 11:41:34.60	161.49	7.84	-49.5	-53.9	18.4	6.06e-01	0	41	0	33554432	71	5669
2026-01-12 11:41:35.59	161.50	7.92	-49.4	-53.7	18.5	6.06e-01	0	41	0	35651584	70	5904
2026-01-12 11:41:36.58	161.50	8.01	-49.5	-53.9	18.4	6.06e-01	0	41	0	37224448	70	6017
2026-01-12 11:41:37.58	161.50	8.09	-49.6	-53.9	18.4	6.09e-01	0	41	0	39321600	70	6056
2026-01-12 11:41:38.57	161.50	8.18	-49.8	-54.3	18.0	6.08e-01	0	40	0	40894464	71	5964
2026-01-12 11:41:39.56	161.50	8.26	-50.0	-54.8	17.5	6.06e-01	0	41	0	42991616	71	6328
2026-01-12 11:41:40.56	161.51	8.35	-50.5	-55.9	16.5	6.06e-01	0	41	0	44564480	71	7135
2026-01-12 11:41:41.55	161.51	8.44	-50.8	-56.8	15.5	6.09e-01	0	41	0	46661632	73	7106
2026-01-12 11:41:42.55	161.51	8.52	-51.2	-58.0	14.3	6.08e-01	0	41	0	48234496	73	8159
2026-01-12 11:41:43.54	161.51	8.61	-51.7	-59.9	12.4	6.13e-01	0	41	0	50331648	74	9525
2026-01-12 11:41:44.53	161.51	8.70	-52.2	-62.4	9.8	6.28e-01	0	41	0	52428800	75	11970
2026-01-12 11:41:45.53	161.52	8.79	-52.5	-65.0	7.2	6.61e-01	0	41	0	54001664	75	16176
2026-01-12 11:41:46.52	161.52	8.88	-52.7	-68.0	5.0	7.10e-01	0	41	0	55574528	76	21616
2026-01-12 11:41:47.51	161.52	8.96	-52.8	-71.6	3.8	7.44e-01	0	41	104	55574528	76	32780
2026-01-12 11:41:48.50	161.52	9.05	-52.8	-69.0	4.0	7.39e-01	0	41	104	55574528	76	24159
2026-01-12 11:41:49.50	161.52	9.14	-52.9	-67.7	5.5	7.06e-01	0	41	0	56098816	76	20906
2026-01-12 11:41:50.54	161.53	9.24	-53.0	-72.5	3.8	7.43e-01	0	41	104	56098816	77	34439
2026-01-12 11:41:51.50	161.53	9.32	-52.1	-61.2	10.0	6.22e-01	0	41	104	56098816	76	9917
2026-01-12 11:41:52.49	161.53	9.42	-52.8	-66.9	7.2	6.73e-01	0	41	0	57671680	76	19069
2026-01-12 11:41:53.49	161.53	9.51	-52.9	-72.8	3.7	7.51e-01	0	41	104	57671680	77	35325
2026-01-12 11:41:54.49	161.53	9.60	-49.9	-54.5	17.8	6.07e-01	0	41	0	58720256	71	6099
2026-01-12 11:41:55.48	161.54	9.69	-48.8	-52.5	19.7	6.03e-01	0	41	0	60293120	69	5435
2026-01-12 11:41:56.47	161.54	9.78	-48.8	-52.5	19.8	6.08e-01	0	41	0	62390272	69	5417
2026-01-12 11:41:57.47	161.54	9.88	-48.8	-52.5	19.7	6.09e-01	0	41	0	63963136	69	5440
2026-01-12 11:41:58.46	161.54	9.97	-48.4	-51.9	20.4	6.08e-01	0	41	0	66060288	68	5383
2026-01-12 11:41:59.46	161.54	10.06	-48.2	-51.6	20.7	6.06e-01	0	41	0	67633152	68	5175
2026-01-12 11:42:00.45	161.55	10.15	-48.2	-51.6	20.7	6.08e-01	0	41	0	69730304	68	5199
2026-01-12 11:42:01.45	161.55	10.25	-48.1	-51.6	20.7	6.06e-01	0	41	0	71303168	68	5180
2026-01-12 11:42:02.44	161.55	10.34	-48.1	-51.6	20.8	6.06e-01	0	41	0	73400320	68	5161
2026-01-12 11:42:03.44	161.55	10.44	-47.9	-51.3	20.9	6.07e-01	0	41	0	75497472	67	5319
2026-01-12 11:42:04.48	161.55	10.54	-48.0	-51.6	20.7	6.07e-01	0	41	0	77070336	67	5467
2026-01-12 11:42:05.47	161.56	10.63	-47.9	-51.4	20.9	6.07e-01	0	41	0	79167488	67	5383
2026-01-12 11:42:06.47	161.56	10.73	-48.0	-51.5	20.8	6.07e-01	0	41	0	80740352	67	5415
2026-01-12 11:42:07.46	161.56	10.83	-48.0	-51.4	20.8	6.06e-01	0	41	0	82837504	67	5396
2026-01-12 11:42:08.45	161.56	10.92	-48.0	-51.4	20.8	6.08e-01	0	41	0	84410368	67	5400
2026-01-12 11:42:09.45	161.56	11.02	-48.0	-51.5	20.8	6.06e-01	0	41	0	86507520	67	5419
2026-01-12 11:42:10.44	161.56	11.12	-47.9	-51.3	20.9	6.08e-01	0	41	0	88604672	67	5310
2026-01-12 11:42:11.44	161.57	11.22	-47.9	-51.2	21.1	6.09e-01	0	41	0	90177536	67	5226
2026-01-12 11:42:12.43	161.57	11.32	-47.9	-51.1	21.1	6.08e-01	0	41	0	92274688	67	5213
2026-01-12 11:42:13.43	161.57	11.42	-47.8	-51.0	21.2	6.07e-01	0	41	0	93847552	67	5150
2026-01-12 11:42:14.42	161.57	11.52	-47.8	-51.0	21.2	6.07e-01	0	41	0	95944704	67	5147
2026-01-12 11:42:15.41	161.57	11.62	-47.9	-51.1	21.1	6.08e-01	0	41	0	97517568	67	5198
2026-01-12 11:42:16.41	161.58	11.72	-47.8	-51.0	21.3	6.06e-01	0	41	0	99614720	67	5130
2026-01-12 11:42:17.40	161.58	11.82	-47.8	-51.0	21.3	6.07e-01	0	41	0	101711872	67	5123
2026-01-12 11:42:18.40	161.58	11.92	-47.7	-51.0	21.3	6.05e-01	0	41	0	103284736	67	5107
2026-01-12 11:42:19.39	161.58	12.02	-47.7	-50.9	21.3	6.07e-01	0	41	0	105381888	67	5098
2026-01-12 11:42:20.39	161.58	12.12	-47.6	-50.7	21.6	6.06e-01	0	41	0	106954752	67	4961
2026-01-12 11:42:21.39	161.58	12.23	-47.6	-50.8	21.5	6.07e-01	0	41	0	109051904	67	5014
2026-01-12 11:42:22.38	161.59	12.33	-47.6	-50.8	21.5	6.06e-01	0	41	0	110624768	67	5003
2026-01-12 11:42:23.37	161.59	12.43	-47.6	-50.7	21.5	6.07e-01	0	41	0	112721920	67	4977
2026-01-12 11:42:24.37	161.59	12.54	-47.5	-50.7	21.5	6.06e-01	0	41	0	114294784	67	4939
2026-01-12 11:42:25.37	161.59	12.65	-47.5	-50.7	21.6	6.05e-01	0	41	0	116391936	67	4954
2026-01-12 11:42:26.36	161.59	12.75	-47.5	-50.7	21.6	6.05e-01	0	41	0	118489088	67	4934
2026-01-12 11:42:27.36	161.59	12.86	-47.6	-50.7	21.6	6.07e-01	0	41	0	120061952	67	4963
2026-01-12 11:42:28.35	161.60	12.96	-47.5	-50.6	21.7	6.06e-01	0	42	0	122159104	67	4914
2026-01-12 11:42:29.35	161.60	13.07	-47.6	-50.7	21.6	6.06e-01	0	41	0	123731968	67	4978
2026-01-12 11:42:30.34	161.60	13.18	-47.6	-50.7	21.6	6.05e-01	0	41	0	125829120	67	4941
2026-01-12 11:42:31.33	161.60	13.29	-47.5	-50.6	21.7	6.07e-01	0	42	0	127401984	67	4881
2026-01-12 11:42:32.33	161.60	13.39	-47.4	-50.4	21.9	6.08e-01	0	41	0	129499136	66	5045
2026-01-12 11:42:33.32	161.60	13.50	-47.5	-50.5	21.8	6.05e-01	0	41	0	131072000	66	5141
2026-01-12 11:42:34.32	161.61	13.61	-47.5	-50.6	21.7	6.05e-01	0	41	0	133169152	66	5176
2026-01-12 11:42:35.31	161.61	13.72	-47.6	-50.7	21.7	6.04e-01	0	41	0	135266304	66	5220
2026-01-12 11:42:36.30	161.61	13.83	-47.4	-50.4	21.9	6.07e-01	0	41	0	136839168	66	5099
2026-01-12 11:42:37.33	161.61	13.95	-47.6	-50.6	21.7	6.08e-01	0	41	0	138936320	66	5190
2026-01-12 11:42:38.35	161.61	14.06	-47.5	-50.6	21.8	6.07e-01	0	41	0	140509184	66	5167
2026-01-12 11:42:39.38	161.61	14.18	-47.4	-50.5	21.8	6.06e-01	0	41	0	142606336	66	5134
2026-01-12 11:42:40.37	161.62	14.29	-47.5	-50.6	21.8	6.08e-01	0	42	0	144703488	66	5169
2026-01-12 11:42:41.43	161.62	14.42	-47.5	-50.7	21.7	6.08e-01	0	41	0	146800640	66	5232
2026-01-12 11:42:42.33	161.62	14.52	-47.4	-50.5	21.8	6.06e-01	0	41	0	148373504	66	5151
2026-01-12 11:42:43.61	161.62	14.67	-47.5	-50.6	21.7	6.05e-01	0	42	0	150470656	66	5205
2026-01-12 11:42:44.32	161.62	14.75	-47.4	-50.6	21.8	6.08e-01	0	41	0	152043520	66	5170
2026-01-12 11:42:45.84	161.62	14.93	-47.4	-50.6	21.8	6.08e-01	0	41	0	154664960	66	5187
2026-01-12 11:42:46.55	161.63	15.01	-47.4	-50.6	21.7	6.05e-01	0	41	0	156237824	66	5182
2026-01-12 11:42:47.83	161.63	15.16	-47.4	-50.6	21.8	6.07e-01	0	42	0	158334976	66	5165
2026-01-12 11:42:48.54	161.63	15.25	-47.3	-50.4	21.9	6.07e-01	0	42	0	159907840	66	5093
2026-01-12 11:42:49.82	161.63	15.40	-47.3	-50.4	21.9	6.09e-01	0	42	0	162004992	66	5074
2026-01-12 11:42:50.54	161.63	15.49	-47.3	-50.4	22.0	6.07e-01	0	41	0	163577856	66	5064
2026-01-12 11:42:51.82	161.63	15.64	-47.2	-50.3	22.1	6.07e-01	0	41	0	166199296	66	5015
2026-01-12 11:42:52.55	161.63	15.73	-47.2	-50.3	22.0	6.09e-01	0	41	0	167247872	66	5019
2026-01-12 11:42:53.83	161.64	15.89	-47.2	-50.3	22.1	6.07e-01	0	42	0	169869312	66	4992
2026-01-12 11:42:54.55	161.64	15.97	-47.3	-50.3	22.1	6.06e-01	0	42	0	170917888	66	5021
2026-01-12 11:42:55.83	161.64	16.13	-47.3	-50.4	22.0	6.08e-01	0	41	0	173539328	66	5053
2026-01-12 11:42:56.62	161.64	16.23	-47.4	-50.5	21.9	6.06e-01	0	42	0	175112192	66	5113
2026-01-12 11:42:57.82	161.64	16.38	-47.4	-50.4	22.0	6.06e-01	0	41	0	177209344	66	5064
2026-01-12 11:42:58.67	161.64	16.49	-47.4	-50.4	21.9	6.10e-01	0	41	0	178782208	66	5097
2026-01-12 11:42:59.81	161.64	16.63	-47.3	-50.3	22.1	6.05e-01	0	42	0	180879360	66	4995
2026-01-12 11:43:00.66	161.65	16.74	-47.3	-50.3	22.1	6.08e-01	0	42	0	182452224	66	4993
2026-01-12 11:43:01.80	161.65	16.89	-47.3	-50.3	22.1	6.07e-01	0	42	0	184549376	66	4986
2026-01-12 11:43:02.65	161.65	17.00	-47.3	-50.3	22.1	6.06e-01	0	42	0	186122240	66	4989
2026-01-12 11:43:03.79	161.65	17.14	-47.4	-50.3	22.1	6.08e-01	0	42	0	188219392	66	5028
2026-01-12 11:43:04.64	161.65	17.25	-47.4	-50.4	22.0	6.07e-01	0	41	0	189792256	66	5043
2026-01-12 11:43:05.78	161.65	17.40	-47.5	-50.6	21.9	6.08e-01	0	42	0	192413696	66	5164
2026-01-12 11:43:06.63	161.65	17.52	-47.5	-50.5	21.9	6.07e-01	0	41	0	193986560	66	5127
2026-01-12 11:43:07.77	161.66	17.67	-47.5	-50.5	21.9	6.05e-01	0	42	0	196083712	66	5137
2026-01-12 11:43:08.62	161.66	17.78	-47.6	-50.5	21.9	6.10e-01	0	42	0	197656576	66	5149
2026-01-12 11:43:09.76	161.66	17.93	-47.6	-50.5	21.9	6.08e-01	0	42	0	199753728	66	5157
2026-01-12 11:43:10.69	161.66	18.06	-47.6	-50.6	21.8	6.06e-01	0	42	0	201326592	66	5193
2026-01-12 11:43:11.86	161.66	18.22	-47.6	-50.6	21.8	6.07e-01	0	41	0	203423744	66	5211
2026-01-12 11:43:12.74	161.66	18.34	-47.6	-50.8	21.7	6.04e-01	0	41	0	204996608	66	5309
2026-01-12 11:43:13.88	161.66	18.49	-47.5	-50.6	21.8	6.06e-01	0	41	0	207618048	66	5209
2026-01-12 11:43:14.73	161.66	18.61	-47.5	-50.6	21.8	6.07e-01	0	41	0	209190912	66	5214
2026-01-12 11:43:15.87	161.66	18.77	-47.6	-50.7	21.8	6.08e-01	0	41	0	211288064	66	5239
2026-01-12 11:43:16.72	161.67	18.89	-47.7	-50.8	21.7	6.05e-01	0	41	0	212860928	66	5288
2026-01-12 11:43:17.86	161.67	19.05	-47.5	-50.5	21.9	6.07e-01	0	42	0	214958080	66	5152
2026-01-12 11:43:18.71	161.67	19.17	-47.6	-50.6	21.2	6.03e-01	0	42	0	216530944	66	5189
2026-01-12 11:43:19.85	161.67	19.33	-47.5	-50.6	21.9	6.08e-01	0	41	0	218628096	66	5160
2026-01-12 11:43:20.70	161.67	19.46	-47.5	-50.5	21.9	6.05e-01	0	42	0	220200960	66	5157
2026-01-12 11:43:21.83	161.67	19.62	-47.6	-50.6	21.9	6.07e-01	0	42	0	222298112	66	5161
2026-01-12 11:43:22.69	161.67	19.74	-47.5	-50.5	21.9	6.07e-01	0	42	0	223870976	66	5158
2026-01-12 11:43:23.89	161.67	19.92	-47.6	-50.6	21.9	6.04e-01	0	42	0	225968128	66	5178
2026-01-12 11:43:24.74	161.67	20.05	-47.6	-50.6	21.9	6.07e-01	0	41	0	227540992	66	5195
2026-01-12 11:43:25.88	161.67	20.21	-47.7	-50.7	21.8	6.09e-01	0	42	0	229638144	66	5223
2026-01-12 11:43:26.73	161.68	20.34	-47.8	-50.8	21.7	6.06e-01	0	42	0	231735296	66	5321
2026-01-12 11:43:28.01	161.68	20.53	-47.7	-50.7	21.8	6.07e-01	0	42	0	233832448	66	5278
2026-01-12 11:43:28.74	161.68	20.64	-47.7	-50.8	21.7	6.05e-01	0	42	0	235405312	66	5313
2026-01-12 11:43:30.21	161.68	20.87	-47.8	-50.9	21.6	6.07e-01	0	42	0	238026752	66	5350
2026-01-12 11:43:30.92	161.68	20.98	-47.8	-50.9	21.6	6.08e-01	0	41	0	239075328	66	5383
2026-01-12 11:43:32.20	161.68	21.18	-47.9	-51.0	21.5	6.07e-01	0	41	0	241696768	66	5427
2026-01-12 11:43:32.91	161.68	21.29	-47.8	-51.0	21.6	6.08e-01	0	42	0	243269632	66	5422
2026-01-12 11:43:34.19	161.68	21.49	-47.9	-51.1	21.4	6.06e-01	0	42	0	245366784	66	5507
2026-01-12 11:43:34.92	161.68	21.60	-47.8	-51.0	21.5	6.07e-01	0	42	0	246939648	66	5452
2026-01-12 11:43:36.20	161.68	21.81	-47.8	-51.0	21.5	6.06e-01	0	41	0	249036800	66	5459
2026-01-12 11:43:36.91	161.68	21.92	-47.9	-51.1	21.4	6.05e-01	0	41	0	250609664	66	5498
2026-01-12 11:43:38.19	161.68	22.13	-47.9	-51.1	21.4	6.07e-01	0	41	0	252706816	66	5511
2026-01-12 11:43:38.90	161.68	22.24	-47.9	-51.1	21.5	6.07e-01	0	42	0	254279680	66	5493
2026-01-12 11:43:40.18	161.69	22.45	-48.0	-51.2	21.4	6.10e-01	0	42	0	256901120	66	5539
2026-01-12 11:43:40.92	161.69	22.57	-48.0	-51.1	21.4	6.09e-01	0	42	0	257949696	66	5500
2026-01-12 11:43:42.20	161.69	22.78	-47.7	-50.8	21.8	6.08e-01	0	41	0	260571136	66	5281
2026-01-12 11:43:43.01	161.69	22.92	-47.7	-50.7	21.8	6.06e-01	0	42	0	262144000	66	5258
2026-01-12 11:43:44.14	161.69	23.11	-47.7	-50.8	21.8	6.05e-01	0	41	0	264241152	66	5281
2026-01-12 11:43:45.00	161.69	23.25	-47.7	-50.7	21.8	6.06e-01	0	41	0	265814016	66	5274
2026-01-12 11:43:46.14	161.69	23.45	-47.6	-50.7	21.8	6.06e-01	0	42	0	267911168	66	5256
2026-01-12 11:43:46.99	161.69	23.59	-47.7	-50.7	21.8	6.06e-01	0	42	0	269484032	66	5270
2026-01-12 11:43:48.13	161.69	23.79	-47.7	-50.7	21.8	6.05e-01	0	41	0	271581184	66	5277
2026-01-12 11:43:49.36	161.69	24.01	-47.7	-50.8	21.8	6.06e-01	0	42	0	273678336	66	5295
2026-01-12 11:43:50.21	161.69	24.15	-47.8	-50.9	21.7	6.05e-01	0	42	0	275251200	66	5349
2026-01-12 11:43:51.35	161.69	24.36	-47.9	-50.9	21.6	6.08e-01	0	42	0	277348352	66	5388
2026-01-12 11:43:52.20	161.69	24.51	-47.9	-51.0	21.6	6.06e-01	0	42	0	279445504	66	5408
2026-01-12 11:43:53.34	161.69	24.71	-48.0	-50.9	21.7	6.06e-01	0	42	0	281542656	66	5387
2026-01-12 11:43:54.19	161.69	24.87	-47.9	-50.9	21.7	6.09e-01	0	42	0	283115520	66	5372
2026-01-12 11:43:55.33	161.69	25.07	-47.9	-50.8	21.7	6.05e-01	0	42	0	285212672	66	5299
2026-01-12 11:43:56.18	161.69	25.23	-47.8	-50.7	21.9	6.07e-01	0	42	0	286785536	66	5257
2026-01-12 11:43:57.32	161.69	25.44	-47.8	-50.6	21.9	6.07e-01	0	41	0	288882688	66	5210
2026-01-12 11:43:58.17	161.69	25.60	-47.7	-50.6	22.0	6.07e-01	0	42	0	290455552	66	5181
2026-01-12 11:43:59.39	161.69	25.83	-47.6	-50.5	22.0	6.08e-01	0	42	0	292552704	66	5143
2026-01-12 11:44:00.24	161.69	25.99	-47.7	-50.6	22.0	6.08e-01	0	42	0	294125568	66	5187
2026-01-12 11:44:01.38	161.69	26.21	-47.7	-50.6	21.9	6.05e-01	0	41	0	296222720	66	5216
2026-01-12 11:44:02.23	161.69	26.37	-47.6	-50.6	21.9	6.06e-01	0	42	0	297795584	66	5178
2026-01-12 11:44:03.37	161.69	26.59	-47.6	-50.6	22.0	6.09e-01	0	42	0	299892736	66	5194
2026-01-12 11:44:04.22	161.69	26.76	-47.7	-50.7	21.9	6.06e-01	0	42	0	301465600	66	5220
2026-01-12 11:44:05.36	161.69	26.98	-47.7	-50.6	22.0	6.05e-01	0	42	0	304087040	66	5188
2026-01-12 11:44:06.29	161.69	27.17	-47.6	-50.5	22.0	6.08e-01	0	42	0	305659904	66	5149
2026-01-12 11:44:07.48	161.69	27.40	-47.7	-50.6	22.0	6.07e-01	0	42	0	307757056	66	5163
2026-01-12 11:44:08.32	161.69	27.57	-47.7	-50.5	22.1	6.08e-01	0	42	0	309329920	66	5149
2026-01-12 11:44:09.46	161.69	27.81	-47.6	-50.4	22.1	6.03e-01	0	42	0	311427072	66	5092
2026-01-12 11:44:10.31	161.69	27.98	-47.4	-50.2	22.4	6.07e-01	0	42	0	312999936	66	4951
2026-01-12 11:44:11.45	161.69	28.22	-47.4	-50.1	22.4	6.05e-01	0	42	0	315097088	66	4919
2026-01-12 11:44:12.30	161.69	28.39	-47.4	-50.2	22.4	6.06e-01	0	42	0	316669952	66	4941
2026-01-12 11:44:13.44	161.69	28.63	-47.4	-50.2	22.4	6.07e-01	0	42	0	319291392	66	4947
2026-01-12 11:44:14.29	161.69	28.81	-47.5	-50.3	22.2	6.06e-01	0	42	0	320864256	66	5012
2026-01-12 11:44:15.43	161.68	29.05	-47.5	-50.4	22.2	6.07e-01	0	42	0	322961408	66	5062
2026-01-12 11:44:16.28	161.68	29.24	-47.5	-50.4	22.2	6.07e-01	0	42	0	324534272	66	5055
2026-01-12 11:44:17.42	161.68	29.48	-47.5	-50.4	22.2	6.08e-01	0	42	0	326631424	66	5045
2026-01-12 11:44:18.27	161.68	29.67	-47.5	-50.4	22.2	6.07e-01	0	42	0	328204288	66	5043
2026-01-12 11:44:19.41	161.68	29.92	-47.3	-50.1	22.4	6.06e-01	0	42	0	330301440	66	4915
2026-01-12 11:44:20.26	161.68	30.11	-47.3	-50.2	22.4	6.08e-01	0	42	0	331874304	66	4932
2026-01-12 11:44:21.52	161.68	30.39	-47.3	-50.1	22.5	6.07e-01	0	41	0	333971456	66	4871
2026-01-12 11:44:22.31	161.68	30.57	-47.2	-50.0	22.6	6.05e-01	0	42	0	335544320	66	4844
2026-01-12 11:44:23.48	161.68	30.84	-47.3	-50.1	22.5	6.07e-01	0	42	0	337641472	66	4884
2026-01-12 11:44:24.33	161.68	31.03	-47.4	-50.3	22.3	6.06e-01	0	41	0	339738624	66	4989
2026-01-12 11:44:25.47	161.67	31.30	-47.5	-50.3	22.3	6.07e-01	0	42	0	341311488	66	5028
2026-01-12 11:44:26.32	161.67	31.50	-47.5	-50.4	22.3	6.06e-01	0	42	0	342884352	66	5053
2026-01-12 11:44:27.46	161.67	31.77	-47.5	-50.3	22.3	6.08e-01	0	42	0	345505792	66	5004
2026-01-12 11:44:28.31	161.67	31.97	-47.3	-50.2	22.4	6.07e-01	0	42	0	347078656	66	4938
2026-01-12 11:44:29.45	161.67	32.24	-47.3	-50.2	22.4	6.09e-01	0	41	0	349175808	66	4962
2026-01-12 11:44:30.31	161.67	32.45	-47.4	-50.3	22.3	6.07e-01	0	41	0	350748672	66	5009
2026-01-12 11:44:31.44	161.66	32.73	-47.3	-50.2	22.4	6.07e-01	0	42	0	352845824	66	4955
2026-01-12 11:44:32.29	161.66	32.94	-47.3	-50.3	22.3	6.07e-01	0	42	0	354418688	66	5001
2026-01-12 11:44:33.43	161.66	33.22	-47.5	-50.5	22.1	6.07e-01	0	41	0	356515840	66	5156
2026-01-12 11:44:34.29	161.66	33.43	-47.6	-50.7	22.0	6.06e-01	0	41	0	358088704	66	5243
2026-01-12 11:44:35.42	161.66	33.72	-47.8	-50.8	21.8	6.08e-01	0	42	0	360185856	66	5323
2026-01-12 11:44:36.28	161.66	33.94	-47.9	-50.8	21.8	6.06e-01	0	42	0	361758720	66	5336
2026-01-12 11:44:37.41	161.65	34.23	-47.9	-50.9	21.8	6.05e-01	0	42	0	363855872	66	5351
2026-01-12 11:44:38.27	161.65	34.45	-47.9	-50.8	21.8	6.06e-01	0	41	0	365428736	66	5338
2026-01-12 11:44:39.40	161.65	34.75	-48.1	-51.1	21.6	6.07e-01	0	42	0	367525888	66	5510
2026-01-12 11:44:40.25	161.65	34.97	-48.3	-51.4	21.4	6.06e-01	0	42	0	369098752	67	5348
2026-01-12 11:44:41.50	161.64	35.31	-48.4	-51.6	21.1	6.07e-01	0	42	0	371720192	67	5485
2026-01-12 11:44:42.35	161.64	35.53	-48.4	-51.7	21.0	6.07e-01	0	42	0	373293056	67	5545
2026-01-12 11:44:43.49	161.64	35.84	-48.6	-51.9	20.9	6.05e-01	0	42	0	375390208	67	5659
2026-01-12 11:44:44.34	161.63	36.08	-48.7	-52.0	20.7	6.08e-01	0	41	0	376963072	67	5761
2026-01-12 11:44:45.48	161.63	36.39	-48.8	-52.2	20.6	6.07e-01	0	42	0	379060224	68	5583
2026-01-12 11:44:46.33	161.63	36.63	-48.9	-52.3	20.5	6.05e-01	0	42	0	380633088	68	5651
2026-01-12 11:44:47.46	161.63	36.95	-49.0	-52.4	20.5	6.05e-01	0	42	0	382730240	68	5717
2026-01-12 11:44:48.32	161.62	37.19	-49.1	-52.6	20.3	6.07e-01	0	42	0	384303104	68	5843
2026-01-12 11:44:49.45	161.62	37.52	-49.3	-52.8	20.1	6.07e-01	0	41	0	386400256	69	5633
2026-01-12 11:44:50.30	161.62	37.76	-49.3	-52.8	20.1	6.04e-01	0	42	0	387973120	69	5651
2026-01-12 11:44:51.44	161.61	38.09	-49.3	-52.7	20.2	6.07e-01	0	42	0	390070272	69	5574
2026-01-12 11:44:52.29	161.61	38.34	-49.2	-52.7	20.2	6.08e-01	0	42	0	391643136	69	5564
2026-01-12 11:44:53.43	161.60	38.68	-49.4	-52.9	20.0	6.07e-01	0	42	0	394264576	69	5722
2026-01-12 11:44:54.28	161.60	38.94	-49.4	-53.1	19.8	6.06e-01	0	42	0	395837440	69	5822
2026-01-12 11:44:55.42	161.59	39.28	-49.4	-53.0	19.9	6.06e-01	0	42	0	397934592	69	5726
2026-01-12 11:44:56.27	161.59	39.54	-49.2	-52.7	20.2	6.08e-01	0	42	0	399507456	69	5569
2026-01-12 11:44:57.50	161.59	39.92	-48.9	-52.3	20.6	6.05e-01	0	42	0	401604608	69	5292
2026-01-12 11:44:58.35	161.58	40.19	-48.9	-52.2	20.7	6.07e-01	0	42	0	403177472	69	5219
2026-01-12 11:44:59.49	161.58	40.55	-48.8	-52.0	20.9	6.07e-01	0	41	0	405274624	69	5113
2026-01-12 11:45:00.34	161.57	40.82	-48.9	-52.2	20.7	6.06e-01	0	41	0	406847488	69	5246
2026-01-12 11:45:01.61	161.57	41.22	-49.0	-52.3	20.6	6.08e-01	0	41	0	409468928	69	5314
2026-01-12 11:45:02.42	161.56	41.49	-48.9	-52.1	20.8	6.05e-01	0	42	0	411041792	69	5203
2026-01-12 11:45:03.56	161.55	41.86	-48.8	-51.9	21.0	6.06e-01	0	42	0	413138944	69	5084
2026-01-12 11:45:04.41	161.55	42.14	-48.7	-51.9	21.0	6.08e-01	0	41	0	414711808	69	5073
2026-01-12 11:45:05.55	161.54	42.52	-48.8	-52.0	20.9	6.06e-01	0	42	0	416808960	69	5120
2026-01-12 11:45:06.40	161.54	42.80	-48.6	-51.9	21.0	6.07e-01	0	42	0	418381824	69	5059
2026-01-12 11:45:07.54	161.53	43.19	-48.3	-51.4	21.5	6.06e-01	0	41	0	420478976	68	5049
2026-01-12 11:45:08.39	161.53	43.48	-48.3	-51.3	21.5	6.08e-01	0	41	0	422051840	68	5007
2026-01-12 11:45:09.53	161.52	43.88	-48.1	-51.0	21.8	6.06e-01	0	42	0	424148992	68	4844
2026-01-12 11:45:10.38	161.51	44.17	-48.0	-50.9	21.9	6.05e-01	0	41	0	425721856	68	4786
2026-01-12 11:45:11.52	161.50	44.57	-48.2	-51.2	21.7	6.06e-01	0	42	0	427819008	68	4963
2026-01-12 11:45:12.37	161.50	44.88	-48.2	-51.2	21.6	6.06e-01	0	42	0	429391872	68	4964
2026-01-12 11:45:13.51	161.49	45.28	-48.0	-51.0	21.8	6.06e-01	0	41	0	431489024	68	4828
2026-01-12 11:45:14.36	161.48	45.59	-47.8	-50.7	22.0	6.08e-01	0	42	0	433061888	67	4939
2026-01-12 11:45:15.50	161.47	46.01	-47.7	-50.6	22.1	6.06e-01	0	42	0	435159040	67	4875
2026-01-12 11:45:16.35	161.47	46.32	-47.6	-50.5	22.2	6.05e-01	0	42	0	436731904	67	4835
2026-01-12 11:45:17.49	161.46	46.75	-47.7	-50.6	22.1	6.05e-01	0	41	0	439353344	67	4902
2026-01-12 11:45:18.34	161.45	47.07	-47.9	-50.8	21.9	6.04e-01	0	42	0	440926208	67	4999
2026-01-12 11:45:19.48	161.44	47.50	-47.7	-50.5	22.1	6.07e-01	0	42	0	443023360	67	4852
2026-01-12 11:45:20.33	161.43	47.83	-47.7	-50.5	22.2	6.06e-01	0	42	0	444596224	67	4852
2026-01-12 11:45:21.67	161.42	48.34	-47.8	-50.6	22.1	6.06e-01	0	41	0	446693376	67	4911
2026-01-12 11:45:22.38	161.41	48.62	-47.9	-50.8	21.9	6.06e-01	0	41	0	448266240	67	5017
2026-01-12 11:45:23.66	161.40	49.13	-47.9	-50.9	21.8	6.07e-01	0	42	0	450887680	67	5054
2026-01-12 11:45:24.39	161.39	49.42	-47.7	-50.5	22.1	6.07e-01	0	42	0	451936256	67	4865
2026-01-12 11:45:25.67	161.37	49.93	-47.6	-50.5	22.3	6.05e-01	0	41	0	454557696	67	4820
2026-01-12 11:45:26.39	161.36	50.22	-47.9	-50.8	21.9	6.07e-01	0	42	0	455606272	67	5026
2026-01-12 11:45:27.67	161.35	50.75	-47.5	-50.3	22.3	6.11e-01	0	42	0	458227712	67	4737
2026-01-12 11:45:28.49	161.34	51.09	-47.0	-49.7	22.9	6.07e-01	0	42	0	459800576	66	4668
2026-01-12 11:45:29.63	161.32	51.56	-47.1	-49.8	22.8	6.06e-01	0	41	0	461897728	66	4736
2026-01-12 11:45:30.48	161.31	51.92	-46.9	-49.6	23.0	6.07e-01	0	41	0	463470592	65	4878
2026-01-12 11:45:31.61	161.30	52.40	-47.0	-49.7	22.9	6.05e-01	0	42	0	465567744	65	4956
2026-01-12 11:45:32.70	161.28	52.87	-46.9	-49.6	23.0	6.09e-01	0	42	0	467664896	65	4877
2026-01-12 11:45:33.71	161.26	53.30	-46.8	-49.4	23.2	6.07e-01	0	42	0	469762048	65	4792
2026-01-12 11:45:34.88	161.25	53.82	-46.9	-49.6	23.0	6.06e-01	0	42	0	471859200	65	4887
2026-01-12 11:45:35.75	161.23	54.20	-47.2	-49.9	22.7	6.09e-01	0	42	0	473432064	65	5090
2026-01-12 11:45:37.04	161.21	54.77	-47.1	-49.8	22.8	6.05e-01	0	42	0	476053504	65	5020
2026-01-12 11:45:37.75	161.20	55.09	-46.9	-49.6	22.9	6.08e-01	0	42	0	477102080	65	4905
2026-01-12 11:45:39.25	161.17	55.77	-47.6	-50.4	22.2	6.08e-01	0	42	0	479723520	65	5395
2026-01-12 11:45:39.96	161.16	56.10	-47.4	-50.2	22.4	6.06e-01	0	42	0	481296384	65	5237
2026-01-12 11:45:41.24	161.13	56.69	-47.9	-50.8	21.9	6.06e-01	0	42	0	483917824	66	5280
2026-01-12 11:45:41.96	161.12	57.03	-47.8	-50.6	22.1	6.09e-01	0	42	0	484966400	66	5190
2026-01-12 11:45:43.23	161.09	57.62	-47.9	-50.7	22.0	6.06e-01	0	42	0	487587840	66	5251
2026-01-12 11:45:43.94	161.07	57.96	-48.0	-50.9	21.8	6.06e-01	0	42	0	488636416	66	5361
2026-01-12 11:45:45.22	161.04	58.57	-48.4	-51.4	21.3	6.07e-01	0	42	0	491257856	67	5397
2026-01-12 11:45:45.93	161.02	58.91	-48.3	-51.3	21.4	6.08e-01	0	41	0	492306432	67	5338
2026-01-12 11:45:47.21	160.99	59.54	-48.5	-51.6	21.2	6.07e-01	0	41	0	494927872	67	5501
2026-01-12 11:45:47.94	160.97	59.89	-48.9	-52.2	20.7	6.07e-01	0	42	0	495976448	68	5555
2026-01-12 11:45:49.22	160.94	60.53	-49.0	-52.3	20.6	6.07e-01	0	42	0	498597888	68	5612
2026-01-12 11:45:49.94	160.92	60.89	-48.8	-51.9	21.0	6.08e-01	0	42	0	500170752	68	5377
2026-01-12 11:45:51.22	160.88	61.53	-49.2	-52.5	20.3	6.05e-01	0	42	0	502267904	69	5452
2026-01-12 11:45:52.10	160.85	61.97	-49.5	-52.9	19.9	6.08e-01	0	42	0	503840768	69	5702
2026-01-12 11:45:53.24	160.81	62.56	-49.2	-52.5	20.4	6.03e-01	0	41	0	505937920	69	5436
2026-01-12 11:45:54.27	160.77	63.09	-49.5	-53.0	19.9	6.08e-01	0	42	0	508035072	69	5767
2026-01-12 11:45:55.26	160.74	63.60	-50.0	-53.9	19.2	6.07e-01	0	42	0	510132224	70	6032
2026-01-12 11:45:56.26	160.70	64.12	-49.8	-53.8	19.2	6.07e-01	0	42	0	511705088	70	5964
2026-01-12 11:45:57.25	160.66	64.64	-49.7	-53.6	19.4	6.04e-01	0	42	0	513802240	70	5835
2026-01-12 11:45:58.25	160.62	65.17	-50.3	-54.5	18.5	6.06e-01	0	41	0	515375104	71	6125
2026-01-12 11:45:59.24	160.57	65.70	-50.6	-54.8	18.2	6.06e-01	0	42	0	517472256	71	6289
2026-01-12 11:46:00.23	160.53	66.23	-50.6	-54.8	18.2	6.06e-01	0	42	0	519045120	71	6330
2026-01-12 11:46:01.23	160.48	66.77	-50.7	-55.1	17.9	6.06e-01	0	41	0	521142272	72	6132
2026-01-12 11:46:02.22	160.42	67.31	-50.9	-55.4	17.6	6.06e-01	0	42	0	522715136	72	6372
2026-01-12 11:46:03.22	160.37	67.86	-50.9	-55.5	17.5	6.06e-01	0	42	0	524812288	72	6434
2026-01-12 11:46:04.21	160.31	68.41	-50.8	-55.3	17.7	6.05e-01	0	42	0	526909440	72	6304
2026-01-12 11:46:05.24	160.24	68.98	-51.2	-56.1	16.8	6.06e-01	0	41	0	528482304	73	6552
2026-01-12 11:46:06.26	160.18	69.55	-51.1	-55.7	17.3	6.06e-01	0	42	0	530579456	73	6223
2026-01-12 11:46:07.29	160.10	70.13	-51.2	-56.1	17.0	6.06e-01	0	41	0	532676608	73	6530
2026-01-12 11:46:08.28	160.03	70.69	-51.0	-55.8	17.2	6.07e-01	0	41	0	534249472	73	6276
2026-01-12 11:46:09.28	159.95	71.26	-50.9	-55.3	17.7	6.06e-01	0	42	0	536346624	73	5952
2026-01-12 11:46:10.27	159.86	71.82	-50.7	-54.9	18.0	6.07e-01	0	42	0	537919488	73	5717
2026-01-12 11:46:11.26	159.77	72.39	-50.8	-55.2	17.8	6.08e-01	0	41	0	540016640	73	5893
2026-01-12 11:46:12.26	159.67	72.97	-50.5	-54.7	18.3	6.07e-01	0	42	0	541589504	73	5544
2026-01-12 11:46:13.26	159.56	73.55	-50.2	-54.1	18.8	6.07e-01	0	41	0	543686656	72	5528
2026-01-12 11:46:14.25	159.45	74.13	-50.5	-54.6	18.3	6.08e-01	0	41	0	545783808	72	5816
2026-01-12 11:46:15.24	159.33	74.71	-50.4	-54.5	18.5	6.06e-01	0	42	0	547356672	72	5770
2026-01-12 11:46:16.24	159.19	75.30	-50.1	-54.1	18.8	6.07e-01	0	42	0	549453824	72	5526
2026-01-12 11:46:17.23	159.05	75.89	-50.0	-54.0	18.9	6.06e-01	0	42	0	551026688	72	5462
2026-01-12 11:46:18.23	158.88	76.48	-49.9	-53.7	19.2	6.07e-01	0	42	0	553123840	71	5544
2026-01-12 11:46:19.22	158.71	77.07	-49.8	-53.5	19.5	6.06e-01	0	42	0	554696704	71	5437
2026-01-12 11:46:20.22	158.51	77.67	-49.8	-53.6	19.4	6.09e-01	0	42	0	556793856	71	5477
2026-01-12 11:46:21.21	158.30	78.27	-49.3	-53.0	19.9	6.09e-01	0	41	0	558366720	70	5443
2026-01-12 11:46:22.21	158.06	78.87	-49.1	-52.6	20.4	6.04e-01	0	41	0	560463872	69	5498
2026-01-12 11:46:23.23	157.79	79.49	-49.0	-52.4	20.5	6.08e-01	0	42	0	562561024	69	5352
2026-01-12 11:46:24.26	157.48	80.11	-48.7	-51.8	21.1	6.08e-01	0	42	0	564133888	69	5009
2026-01-12 11:46:25.29	157.12	80.74	-48.8	-52.0	20.9	6.08e-01	0	41	0	566231040	69	5145
2026-01-12 11:46:26.28	156.73	81.34	-48.1	-51.0	21.8	6.06e-01	0	42	0	568328192	68	4837
2026-01-12 11:46:27.36	156.23	82.00	-48.3	-51.2	21.6	6.08e-01	0	41	0	569901056	68	4979
2026-01-12 11:46:28.21	155.78	82.52	-48.2	-51.3	21.5	6.07e-01	0	42	0	571473920	68	5013
2026-01-12 11:46:29.54	154.92	83.34	-48.2	-51.2	21.6	6.07e-01	0	42	0	574095360	68	4977
2026-01-12 11:46:30.25	154.37	83.78	-48.6	-51.7	21.1	6.05e-01	0	41	0	575668224	68	5270
2026-01-12 11:46:31.76	152.90	84.70	-48.2	-51.3	21.5	6.08e-01	0	42	0	578289664	68	5004
2026-01-12 11:46:32.47	152.02	85.14	-48.5	-51.8	21.1	6.06e-01	0	42	0	579862528	68	5285
2026-01-12 11:46:33.75	149.94	85.92	-48.1	-51.1	21.7	6.06e-01	0	41	0	581959680	68	4910
2026-01-12 11:46:34.49	148.33	86.36	-48.1	-51.1	21.7	6.07e-01	0	41	0	583532544	68	4901
2026-01-12 11:46:35.77	144.35	87.13	-48.4	-51.6	21.2	6.05e-01	0	41	0	585629696	68	5196
2026-01-12 11:46:36.49	141.03	87.56	-47.2	-50.1	22.4	6.07e-01	0	42	0	587202560	66	4908
2026-01-12 11:46:37.77	131.16	88.27	-47.5	-50.5	22.1	6.05e-01	0	42	0	589824000	66	5140
2026-01-12 11:46:38.48	121.37	88.63	-47.0	-49.8	22.7	6.06e-01	0	41	0	590872576	66	4737
2026-01-12 11:46:39.76	86.76	89.07	-47.6	-50.6	21.8	6.09e-01	0	42	0	593494016	66	5166
2026-01-12 11:46:40.47	59.15	89.07	-46.8	-49.6	22.4	6.06e-01	0	41	0	594542592	65	4883
2026-01-12 11:46:41.75	24.31	88.64	-47.6	-50.5	21.7	6.10e-01	0	42	0	597164032	67	4855
2026-01-12 11:46:42.46	14.44	88.28	-47.3	-50.1	22.3	6.07e-01	0	42	0	598212608	66	4874
2026-01-12 11:46:43.75	4.45	87.56	-47.8	-50.9	21.6	6.07e-01	0	41	0	600834048	66	5376
2026-01-12 11:46:44.46	1.16	87.14	-47.8	-50.9	21.6	6.06e-01	0	41	0	602406912	66	5390
2026-01-12 11:46:45.74	357.17	86.37	-48.3	-51.5	21.3	6.06e-01	0	41	0	604504064	67	5420
2026-01-12 11:46:46.64	355.25	85.83	-48.5	-51.7	21.0	6.04e-01	0	42	0	606076928	67	5559
2026-01-12 11:46:48.02	353.13	84.99	-48.8	-52.2	20.6	6.05e-01	0	42	0	608698368	68	5575
2026-01-12 11:46:48.73	352.29	84.55	-49.0	-52.4	20.4	6.06e-01	0	41	0	610271232	68	5697
2026-01-12 11:46:50.28	350.86	83.60	-48.8	-52.2	20.8	6.08e-01	0	41	0	612892672	68	5533
2026-01-12 11:46:50.98	350.35	83.17	-49.0	-52.4	20.5	6.07e-01	0	41	0	614465536	68	5707
2026-01-12 11:46:52.26	349.56	82.39	-48.3	-51.2	21.6	6.08e-01	0	42	0	616562688	68	4966
2026-01-12 11:46:52.97	349.19	81.95	-48.2	-51.1	21.7	6.07e-01	0	41	0	618135552	68	4918
2026-01-12 11:46:54.25	348.62	81.17	-48.4	-51.5	21.4	6.06e-01	0	42	0	620756992	68	5127
2026-01-12 11:46:54.97	348.34	80.73	-47.6	-50.4	22.2	6.05e-01	0	41	0	621805568	67	4813
2026-01-12 11:46:56.25	347.91	79.96	-48.9	-52.2	20.8	6.06e-01	0	42	0	624427008	68	5539
2026-01-12 11:46:56.97	347.69	79.52	-49.2	-52.7	20.1	6.06e-01	0	42	0	625475584	69	5551
2026-01-12 11:46:58.25	347.35	78.75	-49.0	-52.4	20.6	6.05e-01	0	41	0	628097024	69	5353
2026-01-12 11:46:58.98	347.18	78.31	-49.8	-53.7	19.3	6.07e-01	0	42	0	629669888	70	5856
2026-01-12 11:47:00.26	346.91	77.54	-50.1	-53.8	19.2	6.08e-01	0	41	0	631767040	70	5958
2026-01-12 11:47:00.97	346.77	77.11	-50.0	-53.6	19.4	6.08e-01	0	41	0	633339904	70	5822
2026-01-12 11:47:02.25	346.55	76.35	-50.5	-54.5	18.6	6.02e-01	0	42	0	635437056	71	6071
2026-01-12 11:47:02.97	346.43	75.92	-50.7	-54.9	18.2	6.07e-01	0	42	0	637009920	72	6036
2026-01-12 11:47:04.25	346.24	75.17	-50.1	-53.9	19.0	6.07e-01	0	42	0	639107072	72	5399
2026-01-12 11:47:04.97	346.15	74.74	-50.2	-54.0	19.0	6.07e-01	0	42	0	640679936	72	5447
2026-01-12 11:47:06.24	345.99	74.00	-50.7	-54.9	18.0	6.06e-01	0	42	0	643301376	72	6052
2026-01-12 11:47:07.22	345.88	73.43	-50.1	-53.7	19.2	6.05e-01	0	42	0	644874240	72	5277
2026-01-12 11:47:08.22	345.77	72.85	-50.3	-54.2	18.9	6.07e-01	0	41	0	646447104	72	5569
2026-01-12 11:47:09.21	345.68	72.28	-50.1	-54.0	18.9	6.06e-01	0	42	0	648544256	72	5461
2026-01-12 11:47:10.21	345.59	71.71	-50.2	-54.1	18.9	6.06e-01	0	42	0	650641408	71	5812
2026-01-12 11:47:11.20	345.50	71.14	-51.0	-55.4	17.6	6.05e-01	0	42	0	652214272	72	6396
2026-01-12 11:47:12.19	345.42	70.58	-50.8	-55.0	18.0	6.06e-01	0	42	0	654311424	73	5739
2026-01-12 11:47:13.19	345.35	70.02	-50.7	-55.0	18.0	6.05e-01	0	41	0	655884288	73	5779
2026-01-12 11:47:14.19	345.28	69.46	-51.1	-56.0	17.1	6.07e-01	0	41	0	657981440	73	6472
2026-01-12 11:47:15.18	345.21	68.90	-50.8	-55.4	17.6	6.09e-01	0	41	0	660078592	73	6006
2026-01-12 11:47:16.17	345.15	68.36	-50.8	-55.2	17.8	6.06e-01	0	42	0	661651456	73	5881
2026-01-12 11:47:17.25	345.09	67.76	-50.8	-54.9	18.0	6.08e-01	0	41	0	663748608	73	5698
2026-01-12 11:47:18.15	345.04	67.27	-50.7	-54.9	18.1	6.08e-01	0	41	0	665321472	73	5693
2026-01-12 11:47:19.19	344.99	66.71	-50.8	-55.6	17.5	6.06e-01	0	41	0	667418624	73	6139
2026-01-12 11:47:20.15	344.94	66.19	-49.8	-53.8	19.1	6.06e-01	0	42	0	668991488	71	5654
2026-01-12 11:47:21.15	344.89	65.65	-49.6	-53.7	19.3	6.06e-01	0	41	0	671088640	70	5870
2026-01-12 11:47:22.14	344.85	65.13	-50.2	-54.6	18.2	6.07e-01	0	42	0	672661504	71	6197
2026-01-12 11:47:23.14	344.81	64.60	-50.0	-53.8	19.2	6.07e-01	0	42	0	674758656	71	5611
2026-01-12 11:47:24.45	344.75	63.91	-49.5	-52.9	20.2	6.07e-01	0	42	0	677380096	70	5344
2026-01-12 11:47:25.19	344.73	63.53	-49.5	-53.2	19.8	6.07e-01	0	42	0	678428672	70	5534
2026-01-12 11:47:26.78	344.67	62.71	-48.6	-52.0	20.9	6.06e-01	0	42	0	681574400	69	5142
2026-01-12 11:47:27.35	344.65	62.42	-49.0	-52.6	20.4	6.07e-01	0	42	0	682622976	69	5466
2026-01-12 11:47:29.04	344.59	61.56	-49.0	-52.3	20.5	6.06e-01	0	42	0	685768704	69	5325
2026-01-12 11:47:29.61	344.58	61.28	-48.7	-51.9	21.0	6.07e-01	0	41	0	686817280	69	5058
2026-01-12 11:47:31.32	344.53	60.43	-48.1	-51.4	21.4	6.06e-01	0	41	0	689963008	68	5064
2026-01-12 11:47:31.89	344.51	60.14	-48.4	-51.8	21.1	6.06e-01	0	42	0	691011584	68	5298
2026-01-12 11:47:33.59	344.47	59.31	-48.5	-51.6	21.2	6.06e-01	0	42	0	694157312	68	5205
2026-01-12 11:47:34.17	344.45	59.03	-48.2	-51.3	21.5	6.08e-01	0	42	0	695205888	68	5028
2026-01-12 11:47:35.87	344.41	58.22	-48.2	-51.4	21.5	6.06e-01	0	41	0	698875904	68	5042
2026-01-12 11:47:36.44	344.40	57.95	-48.2	-51.3	21.5	6.08e-01	0	41	0	699924480	68	5004
2026-01-12 11:47:38.14	344.36	57.15	-48.0	-51.0	21.9	6.07e-01	0	42	0	703070208	68	4815
2026-01-12 11:47:38.71	344.35	56.88	-47.8	-50.7	22.0	6.08e-01	0	41	0	704118784	67	4954
2026-01-12 11:47:40.56	344.31	56.03	-47.2	-49.9	22.7	6.08e-01	0	41	0	707264512	66	4811
2026-01-12 11:47:41.13	344.30	55.77	-47.1	-49.8	22.9	6.05e-01	0	41	0	708313088	66	4745
2026-01-12 11:47:42.83	344.27	55.00	-46.8	-49.4	23.1	6.08e-01	0	41	0	711458816	65	4804
2026-01-12 11:47:43.54	344.26	54.69	-46.9	-49.5	23.0	6.06e-01	0	41	0	713031680	65	4869
2026-01-12 11:47:44.82	344.24	54.12	-47.1	-49.8	22.8	6.04e-01	0	41	0	715653120	65	5010
2026-01-12 11:47:45.53	344.23	53.81	-46.8	-49.4	23.1	6.07e-01	0	42	0	716701696	65	4805
2026-01-12 11:47:46.81	344.21	53.25	-46.6	-49.2	23.3	6.06e-01	0	41	0	719323136	65	4696
2026-01-12 11:47:47.52	344.20	52.95	-46.7	-49.3	23.2	6.04e-01	0	41	0	720371712	65	4757
2026-01-12 11:47:48.80	344.18	52.40	-47.2	-50.1	22.5	6.07e-01	0	42	0	722993152	65	5187
2026-01-12 11:47:49.54	344.17	52.09	-47.3	-50.2	22.4	6.07e-01	0	41	0	724041728	65	5254
2026-01-12 11:47:50.82	344.15	51.55	-47.2	-49.9	22.7	6.06e-01	0	41	0	726663168	65	5088
2026-01-12 11:47:51.55	344.14	51.25	-47.3	-50.1	22.5	6.09e-01	0	41	0	728236032	65	5180
2026-01-12 11:47:52.83	344.13	50.72	-47.8	-50.7	22.0	6.04e-01	0	41	0	730333184	66	5236
2026-01-12 11:47:53.55	344.12	50.42	-47.8	-50.7	22.0	6.07e-01	0	41	0	731906048	66	5235
2026-01-12 11:47:54.83	344.10	49.91	-47.9	-51.0	21.7	6.08e-01	0	41	0	734003200	66	5427
2026-01-12 11:47:55.54	344.09	49.62	-47.8	-50.8	21.9	6.07e-01	0	42	0	735576064	66	5319
2026-01-12 11:47:56.82	344.08	49.11	-47.6	-50.7	22.0	6.06e-01	0	41	0	737673216	66	5257
2026-01-12 11:47:57.53	344.07	48.84	-47.7	-50.7	22.0	6.07e-01	0	42	0	739246080	66	5246
2026-01-12 11:47:58.81	344.06	48.34	-47.7	-50.6	22.1	6.08e-01	0	42	0	741867520	66	5201
2026-01-12 11:47:59.54	344.05	48.05	-47.7	-50.6	22.1	6.05e-01	0	41	0	742916096	66	5204
2026-01-12 11:48:00.82	344.04	47.57	-47.9	-50.9	21.8	6.09e-01	0	41	0	745537536	66	5376
2026-01-12 11:48:01.53	344.03	47.30	-47.9	-50.8	21.9	6.07e-01	0	41	0	746586112	66	5320
2026-01-12 11:48:02.80	344.02	46.82	-47.8	-50.7	22.0	6.08e-01	0	41	0	749207552	66	5241
2026-01-12 11:48:03.73	344.02	46.47	-47.8	-50.7	21.9	6.07e-01	0	42	0	750780416	66	5251
2026-01-12 11:48:04.73	344.01	46.11	-48.0	-50.9	21.8	6.06e-01	0	42	0	752877568	66	5368
2026-01-12 11:48:05.73	344.00	45.74	-47.9	-50.8	21.9	6.06e-01	0	42	0	754450432	66	5304
2026-01-12 11:48:06.72	343.99	45.38	-47.6	-50.6	22.0	6.04e-01	0	41	0	756547584	66	5183
2026-01-12 11:48:07.72	343.98	45.03	-47.6	-50.7	22.0	6.08e-01	0	41	0	758120448	66	5246
2026-01-12 11:48:08.71	343.98	44.68	-47.7	-50.8	21.9	6.08e-01	0	42	0	760217600	66	5299
2026-01-12 11:48:09.71	343.97	44.32	-47.7	-50.8	21.9	6.07e-01	0	41	0	761790464	66	5333
2026-01-12 11:48:10.70	343.96	43.98	-47.6	-50.8	21.9	6.05e-01	0	42	0	763887616	66	5303
2026-01-12 11:48:11.76	343.96	43.61	-47.8	-51.0	21.7	6.08e-01	0	42	0	765984768	66	5408
2026-01-12 11:48:12.63	343.95	43.32	-48.0	-51.1	21.6	6.08e-01	0	42	0	767557632	66	5505
2026-01-12 11:48:13.76	343.95	42.94	-48.0	-51.0	21.6	6.09e-01	0	42	0	769654784	66	5448
2026-01-12 11:48:14.62	343.94	42.65	-48.1	-51.1	21.6	6.04e-01	0	41	0	771227648	66	5505
2026-01-12 11:48:15.75	343.93	42.27	-48.3	-51.3	21.5	6.07e-01	0	42	0	773324800	67	5299
2026-01-12 11:48:16.61	343.93	41.99	-48.4	-51.4	21.4	6.07e-01	0	42	0	774897664	67	5368
2026-01-12 11:48:17.74	343.92	41.62	-48.6	-51.8	21.0	6.09e-01	0	41	0	776994816	67	5608
2026-01-12 11:48:18.59	343.92	41.35	-48.9	-52.2	20.7	6.06e-01	0	42	0	778567680	68	5556
2026-01-12 11:48:19.73	343.91	40.98	-49.0	-52.3	20.5	6.06e-01	0	42	0	780664832	68	5654
2026-01-12 11:48:20.58	343.91	40.71	-49.0	-52.4	20.5	6.07e-01	0	42	0	782237696	68	5660
2026-01-12 11:48:21.77	343.90	40.34	-48.7	-51.9	20.9	6.07e-01	0	42	0	784859136	68	5385
2026-01-12 11:48:22.62	343.90	40.07	-48.8	-52.0	20.9	6.06e-01	0	41	0	786432000	68	5448
2026-01-12 11:48:23.75	343.90	39.73	-48.7	-51.9	20.9	6.07e-01	0	41	0	788529152	68	5387
2026-01-12 11:48:24.60	343.89	39.47	-48.8	-52.1	20.8	6.06e-01	0	41	0	790102016	68	5520
2026-01-12 11:48:25.74	343.89	39.12	-48.9	-52.1	20.8	6.06e-01	0	41	0	792199168	68	5508
2026-01-12 11:48:26.69	343.88	38.84	-48.9	-52.2	20.7	6.05e-01	0	42	0	793772032	68	5559
2026-01-12 11:48:27.86	343.88	38.49	-49.0	-52.3	20.6	6.06e-01	0	41	0	796393472	68	5614
2026-01-12 11:48:28.71	343.88	38.24	-49.0	-52.4	20.5	6.06e-01	0	41	0	797966336	68	5700
2026-01-12 11:48:30.04	343.87	37.85	-48.9	-52.5	20.4	6.08e-01	0	41	0	800063488	68	5745
2026-01-12 11:48:30.75	343.87	37.65	-48.8	-52.2	20.6	6.07e-01	0	41	0	801636352	68	5582
2026-01-12 11:48:32.26	343.87	37.22	-48.6	-51.9	20.9	6.08e-01	0	42	0	804257792	68	5383
2026-01-12 11:48:32.97	343.86	37.02	-48.5	-51.8	21.0	6.05e-01	0	41	0	805830656	68	5327
2026-01-12 11:48:34.25	343.86	36.66	-48.4	-51.5	21.3	6.05e-01	0	41	0	807927808	68	5151
2026-01-12 11:48:34.96	343.86	36.46	-48.3	-51.5	21.3	6.09e-01	0	42	0	809500672	68	5123
2026-01-12 11:48:36.24	343.85	36.11	-48.4	-51.6	21.2	6.09e-01	0	41	0	811597824	68	5191
2026-01-12 11:48:36.96	343.85	35.91	-48.2	-51.4	21.4	6.05e-01	0	41	0	813170688	68	5053
2026-01-12 11:48:38.23	343.85	35.57	-47.8	-51.0	21.7	6.07e-01	0	41	0	815792128	67	5144
2026-01-12 11:48:38.98	343.85	35.37	-47.8	-51.0	21.7	6.07e-01	0	41	0	816840704	67	5151
2026-01-12 11:48:40.26	343.85	35.03	-47.6	-50.8	21.8	6.08e-01	0	41	0	819462144	67	5022
2026-01-12 11:48:40.97	343.84	34.85	-47.5	-50.7	21.9	6.06e-01	0	41	0	820510720	67	4962
2026-01-12 11:48:42.24	343.84	34.51	-47.4	-50.5	22.2	6.07e-01	0	41	0	823132160	66	5130
2026-01-12 11:48:42.95	343.84	34.33	-47.4	-50.4	22.2	6.08e-01	0	41	0	824180736	66	5056
2026-01-12 11:48:44.24	343.84	34.00	-47.1	-50.0	22.6	6.08e-01	0	42	0	826802176	66	4817
2026-01-12 11:48:44.95	343.84	33.82	-47.1	-50.0	22.6	6.08e-01	0	41	0	827850752	66	4830
2026-01-12 11:48:46.24	343.83	33.50	-47.1	-50.0	22.5	6.06e-01	0	41	0	830472192	66	4863
2026-01-12 11:48:46.95	343.83	33.32	-47.0	-49.8	22.7	6.06e-01	0	41	0	832045056	66	4747
2026-01-12 11:48:48.23	343.83	33.00	-46.9	-49.8	22.8	6.08e-01	0	42	0	834142208	65	4992
2026-01-12 11:48:48.94	343.83	32.83	-46.9	-49.7	22.8	6.07e-01	0	42	0	835715072	65	4950
2026-01-12 11:48:50.22	343.83	32.52	-46.9	-49.7	22.8	6.07e-01	0	41	0	837812224	65	4969
2026-01-12 11:48:50.93	343.83	32.35	-46.9	-49.7	22.8	6.06e-01	0	42	0	839385088	65	4983
2026-01-12 11:48:52.21	343.83	32.04	-46.6	-49.6	23.0	6.08e-01	0	41	0	842006528	65	4874
2026-01-12 11:48:52.92	343.83	31.87	-46.6	-49.6	22.9	6.07e-01	0	41	0	843055104	65	4913
2026-01-12 11:48:54.20	343.82	31.57	-46.8	-49.9	22.7	6.06e-01	0	41	0	845676544	65	5052
2026-01-12 11:48:54.96	343.82	31.40	-46.7	-49.8	22.7	6.07e-01	0	41	0	846725120	65	5001
2026-01-12 11:48:56.23	343.82	31.10	-46.8	-49.7	22.8	6.07e-01	0	41	0	849346560	65	4977
2026-01-12 11:48:57.01	343.82	30.93	-46.8	-49.8	22.8	6.05e-01	0	41	0	850919424	65	4987
2026-01-12 11:48:58.29	343.82	30.63	-46.9	-49.7	22.8	6.06e-01	0	41	0	853016576	65	4983
2026-01-12 11:48:59.03	343.82	30.47	-46.9	-49.7	22.8	6.06e-01	0	41	0	854589440	65	4944
2026-01-12 11:49:00.30	343.82	30.19	-47.1	-49.9	22.7	6.08e-01	0	41	0	856686592	65	5051
2026-01-12 11:49:01.03	343.82	30.02	-47.1	-49.9	22.6	6.05e-01	0	41	0	858259456	65	5069
2026-01-12 11:49:02.31	343.82	29.74	-47.1	-49.9	22.6	6.05e-01	0	41	0	860880896	65	5087
2026-01-12 11:49:03.02	343.82	29.59	-47.1	-49.9	22.6	6.06e-01	0	41	0	861929472	65	5080
2026-01-12 11:49:04.30	343.82	29.31	-47.2	-50.0	22.5	6.08e-01	0	41	0	864550912	65	5133
2026-01-12 11:49:05.03	343.82	29.16	-47.2	-50.0	22.5	6.04e-01	0	41	0	865599488	65	5146
2026-01-12 11:49:06.31	343.82	28.89	-47.2	-50.0	22.4	6.04e-01	0	41	0	868220928	65	5159
2026-01-12 11:49:07.03	343.82	28.73	-47.2	-50.0	22.5	6.07e-01	0	41	0	869793792	65	5156
2026-01-12 11:49:08.31	343.82	28.47	-47.2	-50.1	22.5	6.07e-01	0	41	0	871890944	65	5177
2026-01-12 11:49:09.02	343.82	28.32	-47.2	-50.1	22.4	6.05e-01	0	41	0	873463808	65	5193
2026-01-12 11:49:10.30	343.82	28.06	-47.3	-50.1	22.4	6.05e-01	0	41	0	875560960	65	5215
2026-01-12 11:49:11.01	343.82	27.91	-47.3	-50.1	22.5	6.06e-01	0	41	0	877133824	65	5188
2026-01-12 11:49:12.29	343.82	27.65	-47.3	-50.1	22.5	6.08e-01	0	41	0	879230976	65	5163
2026-01-12 11:49:13.03	343.82	27.50	-47.2	-50.0	22.5	6.06e-01	0	41	0	880803840	65	5131
2026-01-12 11:49:14.31	343.82	27.25	-47.3	-50.1	22.5	6.07e-01	0	41	0	883425280	65	5175
2026-01-12 11:49:15.04	343.82	27.11	-47.3	-50.1	22.5	6.06e-01	0	41	0	884473856	65	5162
2026-01-12 11:49:16.32	343.82	26.85	-47.3	-50.1	22.4	6.07e-01	0	41	0	887095296	65	5177
2026-01-12 11:49:17.03	343.82	26.72	-47.3	-50.1	22.4	6.08e-01	0	41	0	888143872	65	5185
2026-01-12 11:49:18.31	343.82	26.47	-47.3	-50.1	22.4	6.07e-01	0	41	0	890765312	65	5201
2026-01-12 11:49:19.03	343.82	26.33	-47.4	-50.3	22.2	6.08e-01	0	41	0	891813888	65	5304
2026-01-12 11:49:20.31	343.82	26.09	-47.5	-50.4	22.1	6.07e-01	0	41	0	894435328	65	5398
2026-01-12 11:49:21.02	343.82	25.96	-47.5	-50.6	22.0	6.05e-01	0	41	0	896008192	65	5502
2026-01-12 11:49:22.30	343.82	25.72	-47.5	-50.8	21.8	6.08e-01	0	41	0	898105344	65	5600
2026-01-12 11:49:23.01	343.82	25.58	-47.5	-50.9	21.7	6.08e-01	0	42	0	899678208	65	5657
2026-01-12 11:49:24.29	343.82	25.35	-47.5	-50.9	21.6	6.06e-01	0	41	0	901775360	65	5715
2026-01-12 11:49:25.00	343.82	25.22	-47.5	-50.9	21.7	6.07e-01	0	41	0	903348224	65	5693
2026-01-12 11:49:26.30	343.82	24.98	-47.5	-50.9	21.6	6.06e-01	0	41	0	905445376	65	5705
2026-01-12 11:49:27.01	343.82	24.85	-47.6	-50.9	21.7	6.06e-01	0	41	0	907018240	65	5707
2026-01-12 11:49:28.28	343.82	24.63	-47.7	-51.1	21.5	6.06e-01	0	41	0	909639680	66	5482
2026-01-12 11:49:29.00	343.82	24.50	-47.8	-51.1	21.5	6.07e-01	0	41	0	910688256	66	5516
2026-01-12 11:49:30.28	343.83	24.27	-47.8	-51.0	21.6	6.06e-01	0	41	0	913309696	66	5454
2026-01-12 11:49:31.03	343.83	24.14	-47.8	-51.0	21.6	6.08e-01	0	41	0	914358272	66	5448
2026-01-12 11:49:32.31	343.83	23.92	-47.7	-51.0	21.6	6.07e-01	0	41	0	916979712	66	5450
2026-01-12 11:49:33.08	343.83	23.79	-47.7	-51.1	21.5	6.06e-01	0	42	0	918552576	66	5485
2026-01-12 11:49:34.36	343.83	23.57	-47.5	-51.1	21.5	6.04e-01	0	41	0	920649728	66	5476
2026-01-12 11:49:35.07	343.83	23.45	-47.5	-51.2	21.4	6.07e-01	0	41	0	922222592	66	5541
2026-01-12 11:49:36.72	343.83	23.17	-47.3	-51.1	21.5	6.06e-01	0	41	0	925368320	66	5489
2026-01-12 11:49:37.29	343.83	23.07	-47.2	-51.1	21.5	6.05e-01	0	41	0	926416896	66	5489
2026-01-12 11:49:39.20	343.83	22.76	-47.1	-51.1	21.5	6.07e-01	0	41	0	929562624	66	5474
2026-01-12 11:49:39.77	343.83	22.66	-47.0	-50.9	21.6	6.07e-01	0	41	0	931135488	66	5386
2026-01-12 11:49:41.47	343.84	22.39	-47.0	-50.9	21.7	6.07e-01	0	41	0	934281216	66	5351
2026-01-12 11:49:42.04	343.84	22.30	-47.1	-50.9	21.7	6.08e-01	0	41	0	935329792	66	5354
2026-01-12 11:49:43.75	343.84	22.02	-47.4	-50.8	21.7	6.05e-01	0	41	0	938475520	66	5340
2026-01-12 11:49:44.32	343.84	21.93	-47.3	-50.7	21.8	6.06e-01	0	41	0	939524096	66	5259
2026-01-12 11:49:46.02	343.84	21.66	-47.3	-50.5	22.0	6.08e-01	0	41	0	942669824	66	5151
2026-01-12 11:49:46.59	343.84	21.57	-47.4	-50.5	21.9	6.06e-01	0	41	0	943718400	66	5157
2026-01-12 11:49:48.53	343.85	21.27	-47.4	-50.5	22.0	6.05e-01	0	41	0	947388416	66	5138
2026-01-12 11:49:49.10	343.85	21.18	-47.4	-50.5	22.0	6.06e-01	0	41	0	948436992	66	5147
2026-01-12 11:49:51.12	343.85	20.87	-47.1	-50.5	22.0	6.02e-01	0	41	0	952107008	66	5115
2026-01-12 11:49:51.69	343.85	20.79	-47.1	-50.5	22.0	6.02e-01	0	41	0	953155584	66	5130
2026-01-12 11:49:53.39	343.85	20.53	-47.2	-50.4	22.1	6.03e-01	0	41	0	956301312	66	5089
2026-01-12 11:49:53.96	343.85	20.45	-47.3	-50.5	22.0	6.03e-01	0	42	0	957349888	66	5105
2026-01-12 11:49:55.67	343.86	20.19	-47.4	-50.5	22.0	6.01e-01	0	41	0	961019904	66	5112
2026-01-12 11:49:56.24	343.86	20.11	-47.4	-50.4	22.0	6.02e-01	0	41	0	961544192	66	5082
2026-01-12 11:49:57.94	343.86	19.86	-47.5	-50.5	22.0	6.02e-01	0	41	0	965214208	66	5133
2026-01-12 11:49:58.51	343.86	19.78	-47.5	-50.5	22.0	6.01e-01	0	41	0	966262784	66	5125
2026-01-12 11:50:00.21	343.86	19.54	-47.5	-50.6	21.9	6.03e-01	0	41	0	969408512	66	5163
2026-01-12 11:50:00.78	343.86	19.45	-47.4	-50.5	22.0	6.02e-01	0	41	0	970457088	66	5133
2026-01-12 11:50:02.53	343.87	19.21	-47.4	-50.6	21.9	6.04e-01	0	41	0	973602816	66	5175
2026-01-12 11:50:03.10	343.87	19.13	-47.3	-50.6	21.9	6.03e-01	0	41	0	974651392	66	5167
2026-01-12 11:50:04.81	343.87	18.89	-47.4	-50.6	21.8	6.00e-01	0	41	0	977797120	66	5216
2026-01-12 11:50:05.49	343.87	18.79	-47.4	-50.6	21.9	6.01e-01	0	41	0	979369984	66	5201
2026-01-12 11:50:06.91	343.88	18.60	-47.5	-50.6	21.9	6.01e-01	0	41	0	981991424	66	5183
2026-01-12 11:50:07.62	343.88	18.50	-47.5	-50.6	21.9	6.02e-01	0	41	0	983040000	66	5164
2026-01-12 11:50:08.90	343.88	18.33	-47.5	-50.6	21.9	6.01e-01	0	41	0	985661440	66	5167
2026-01-12 11:50:09.62	343.88	18.23	-47.5	-50.6	21.8	6.01e-01	0	41	0	986710016	66	5208
2026-01-12 11:50:10.90	343.88	18.06	-47.3	-50.5	21.9	6.03e-01	0	41	0	989331456	66	5134
2026-01-12 11:50:11.63	343.88	17.96	-47.2	-50.5	21.9	6.01e-01	0	41	0	990904320	66	5155
2026-01-12 11:50:12.91	343.89	17.79	-47.1	-50.5	21.9	6.02e-01	0	41	0	993001472	66	5148
2026-01-12 11:50:13.64	343.89	17.69	-47.0	-50.6	21.8	6.02e-01	0	41	0	994574336	66	5208
2026-01-12 11:50:14.91	343.89	17.53	-46.9	-50.6	21.8	6.00e-01	0	41	0	996671488	65	5510
2026-01-12 11:50:15.63	343.89	17.43	-46.9	-50.7	21.7	6.00e-01	0	41	0	998244352	65	5539
2026-01-12 11:50:17.08	343.89	17.24	-46.9	-50.6	21.8	6.03e-01	0	41	0	1000865792	65	5527
2026-01-12 11:50:18.06	343.90	17.12	-47.0	-50.8	21.6	6.02e-01	0	41	0	1002438656	65	5641
2026-01-12 11:50:19.37	343.90	16.95	-46.9	-50.8	21.6	6.02e-01	0	41	0	1005060096	65	5609
2026-01-12 11:50:20.11	343.90	16.86	-46.9	-50.8	21.6	6.01e-01	0	41	0	1006632960	65	5630
2026-01-12 11:50:21.39	343.90	16.69	-46.9	-50.8	21.6	6.01e-01	0	41	0	1008730112	65	5633
2026-01-12 11:50:22.18	343.91	16.59	-46.8	-50.8	21.5	6.03e-01	0	41	0	1010302976	65	5655
2026-01-12 11:50:23.40	343.91	16.44	-46.7	-50.8	21.6	6.03e-01	0	41	0	1012924416	65	5641
2026-01-12 11:50:24.25	343.91	16.34	-46.8	-50.9	21.5	6.02e-01	0	41	0	1014497280	65	5657
2026-01-12 11:50:25.39	343.91	16.20	-46.7	-50.8	21.5	6.00e-01	0	41	0	1016594432	65	5646
2026-01-12 11:50:26.24	343.91	16.09	-46.6	-50.7	21.6	6.00e-01	0	41	0	1018167296	65	5590
2026-01-12 11:50:27.38	343.92	15.95	-46.6	-50.7	21.6	6.01e-01	0	41	0	1020264448	65	5570
2026-01-12 11:50:28.24	343.92	15.85	-46.7	-50.7	21.6	6.00e-01	0	41	0	1021837312	65	5572
2026-01-12 11:50:29.37	343.92	15.71	-46.8	-50.7	21.6	6.02e-01	0	41	0	1023934464	65	5568
2026-01-12 11:50:30.22	343.92	15.61	-46.9	-50.8	21.6	6.01e-01	0	41	0	1025507328	65	5602
2026-01-12 11:50:31.36	343.92	15.47	-46.8	-50.6	21.8	6.03e-01	0	41	0	1027604480	65	5474
2026-01-12 11:50:32.21	343.93	15.37	-46.9	-50.7	21.6	6.02e-01	0	41	0	1029177344	65	5581
2026-01-12 11:50:33.41	343.93	15.23	-46.9	-50.6	21.7	6.01e-01	0	41	0	1031798784	65	5499
2026-01-12 11:50:34.27	343.93	15.13	-46.8	-50.5	21.8	6.03e-01	0	41	0	1033371648	65	5446
2026-01-12 11:50:35.46	343.93	14.99	-46.8	-50.5	21.8	6.01e-01	0	41	0	1035468800	65	5448
2026-01-12 11:50:36.32	343.94	14.89	-46.8	-50.5	21.9	6.03e-01	0	41	0	1037041664	65	5432
2026-01-12 11:50:37.52	343.94	14.75	-46.8	-50.4	21.9	5.97e-01	0	42	0	1039138816	65	5388
2026-01-12 11:50:38.37	343.94	14.65	-46.7	-50.4	21.9	6.03e-01	0	41	0	1040711680	65	5387
2026-01-12 11:50:39.57	343.94	14.52	-46.7	-50.4	21.9	6.03e-01	0	41	0	1042808832	65	5396
2026-01-12 11:50:40.42	343.95	14.42	-46.7	-50.5	21.9	6.02e-01	0	41	0	1044905984	65	5412
2026-01-12 11:50:41.62	343.95	14.28	-46.7	-50.5	21.9	6.01e-01	0	41	0	1047003136	65	5406
2026-01-12 11:50:42.47	343.95	14.19	-46.8	-50.5	21.8	6.02e-01	0	41	0	1048576000	65	5417
2026-01-12 11:50:43.67	343.95	14.05	-46.8	-50.5	21.8	6.01e-01	0	41	0	1050673152	65	5410
2026-01-12 11:50:44.53	343.96	13.96	-46.9	-50.5	21.8	6.02e-01	0	41	0	1052246016	65	5425
2026-01-12 11:50:45.66	343.96	13.83	-47.1	-50.5	21.8	6.03e-01	0	41	0	1054343168	65	5429
2026-01-12 11:50:46.51	343.96	13.74	-47.1	-50.5	21.8	5.99e-01	0	41	0	1055916032	65	5440
2026-01-12 11:50:47.65	343.96	13.61	-47.2	-50.5	21.8	6.03e-01	0	41	0	1058013184	65	5405
2026-01-12 11:50:48.50	343.97	13.52	-47.3	-50.5	21.8	6.03e-01	0	41	0	1059586048	65	5444
2026-01-12 11:50:49.64	343.97	13.40	-47.4	-50.5	21.7	6.01e-01	0	41	0	1061683200	65	5455
2026-01-12 11:50:50.49	343.97	13.30	-47.4	-50.5	21.8	6.00e-01	0	41	0	1063256064	65	5455
2026-01-12 11:50:51.63	343.97	13.18	-47.4	-50.5	21.8	6.02e-01	0	41	0	1065877504	65	5425
2026-01-12 11:50:52.48	343.98	13.09	-47.4	-50.5	21.8	6.02e-01	0	41	0	1067450368	65	5460
2026-01-12 11:50:53.62	343.98	12.97	-47.5	-50.6	21.7	6.05e-01	0	41	0	1069547520	65	5499
2026-01-12 11:50:54.71	343.98	12.85	-47.5	-50.6	21.7	6.00e-01	0	41	0	1071120384	65	5507
2026-01-12 11:50:55.56	343.98	12.76	-47.6	-50.8	21.5	6.01e-01	0	41	0	1073217536	65	5593
2026-01-12 11:50:56.70	343.99	12.64	-47.5	-50.7	21.6	6.00e-01	0	41	0	1075314688	65	5569
2026-01-12 11:50:57.81	343.99	12.53	-47.4	-50.6	21.7	6.02e-01	0	41	0	1077411840	65	5487
2026-01-12 11:50:58.66	343.99	12.44	-47.4	-50.6	21.7	6.01e-01	0	41	0	1078984704	65	5502
2026-01-12 11:50:59.80	343.99	12.32	-47.2	-50.6	21.6	6.01e-01	0	41	0	1081081856	65	5523
2026-01-12 11:51:00.65	344.00	12.23	-47.0	-50.7	21.6	6.02e-01	0	41	0	1082654720	65	5542
2026-01-12 11:51:01.78	344.00	12.12	-47.0	-50.8	21.5	6.03e-01	0	41	0	1084751872	65	5598
2026-01-12 11:51:02.64	344.00	12.03	-47.0	-50.8	21.5	6.02e-01	0	41	0	1086324736	65	5595
2026-01-12 11:51:03.77	344.00	11.92	-47.0	-50.8	21.5	6.02e-01	0	41	0	1088421888	65	5594
2026-01-12 11:51:04.63	344.01	11.83	-47.0	-50.8	21.5	6.01e-01	0	41	0	1089994752	65	5622
2026-01-12 11:51:05.77	344.01	11.72	-47.0	-50.7	21.5	6.01e-01	0	41	0	1092091904	65	5581
2026-01-12 11:51:06.61	344.01	11.63	-47.1	-50.9	21.4	6.04e-01	0	41	0	1093664768	65	5684
2026-01-12 11:51:07.75	344.02	11.52	-47.1	-50.8	21.4	6.02e-01	0	41	0	1095761920	65	5630
2026-01-12 11:51:08.60	344.02	11.43	-47.3	-50.9	21.3	6.03e-01	0	41	0	1097334784	65	5699
2026-01-12 11:51:09.74	344.02	11.32	-47.3	-50.9	21.3	6.02e-01	0	41	0	1099431936	65	5684
2026-01-12 11:51:10.59	344.02	11.24	-47.4	-51.0	21.2	6.02e-01	0	41	0	1101004800	65	5762
2026-01-12 11:51:11.73	344.03	11.13	-47.4	-51.0	21.3	6.03e-01	0	41	0	1103101952	65	5724
2026-01-12 11:51:12.79	344.03	11.02	-47.4	-51.0	21.2	6.05e-01	0	41	0	1105199104	65	5742
2026-01-12 11:51:13.84	344.03	10.92	-47.5	-51.0	21.2	6.00e-01	0	41	0	1107296256	65	5785
2026-01-12 11:51:14.85	344.03	10.82	-47.4	-51.1	21.2	6.00e-01	0	41	0	1109393408	65	5796
2026-01-12 11:51:15.85	344.04	10.73	-47.3	-51.0	21.2	6.01e-01	0	41	0	1110966272	65	5751
2026-01-12 11:51:16.84	344.04	10.63	-47.4	-51.2	21.1	6.00e-01	0	41	0	1113063424	65	5857
2026-01-12 11:51:17.83	344.04	10.54	-47.2	-51.2	21.1	6.04e-01	0	41	0	1114636288	65	5857
2026-01-12 11:51:18.83	344.05	10.44	-47.1	-51.2	21.0	6.04e-01	0	41	0	1116733440	65	5872
2026-01-12 11:51:19.82	344.05	10.35	-47.0	-51.2	21.0	6.01e-01	0	41	0	1118306304	65	5902
2026-01-12 11:51:20.82	344.05	10.25	-46.7	-51.3	20.9	6.00e-01	0	41	0	1120403456	65	5956
2026-01-12 11:51:21.81	344.05	10.16	-46.6	-51.3	20.9	6.01e-01	0	41	0	1122500608	65	5924
2026-01-12 11:51:22.81	344.06	10.07	-46.5	-51.4	20.8	6.00e-01	0	41	0	1124073472	64	6359
2026-01-12 11:51:23.80	344.06	9.98	-46.5	-51.3	20.8	6.02e-01	0	41	0	1126170624	64	6324
2026-01-12 11:51:24.79	344.06	9.88	-46.3	-51.4	20.7	6.02e-01	0	41	0	1127743488	64	6391
2026-01-12 11:51:25.79	344.07	9.79	-46.2	-51.4	20.7	6.01e-01	0	41	0	1129840640	64	6411
2026-01-12 11:51:26.86	344.07	9.69	-46.2	-51.4	20.7	6.01e-01	0	41	0	1131937792	64	6411
2026-01-12 11:51:27.71	344.07	9.62	-46.1	-51.4	20.7	6.02e-01	0	41	0	1133510656	64	6398
2026-01-12 11:51:28.85	344.07	9.51	-46.2	-51.7	20.5	6.00e-01	0	41	0	1135607808	64	6585
2026-01-12 11:51:29.71	344.08	9.44	-46.1	-51.6	20.5	6.02e-01	0	41	0	1137180672	64	6520
2026-01-12 11:51:30.84	344.08	9.33	-46.2	-51.6	20.5	6.03e-01	0	41	0	1139277824	64	6547
2026-01-12 11:51:31.69	344.08	9.26	-46.2	-51.7	20.4	6.03e-01	0	41	0	1140850688	64	6612
2026-01-12 11:51:32.83	344.09	9.15	-46.1	-51.8	20.3	6.02e-01	0	41	0	1142947840	64	6696
2026-01-12 11:51:33.69	344.09	9.08	-46.1	-51.8	20.3	5.99e-01	0	41	0	1144520704	64	6711
2026-01-12 11:51:34.82	344.09	8.98	-48.0	-58.2	15.5	6.02e-01	0	41	0	1146617856	66	12505
2026-01-12 11:51:35.67	344.09	8.90	-52.4	-73.4	3.8	7.47e-01	0	41	104	1147142144	75	42735
2026-01-12 11:51:36.81	344.10	8.80	-51.4	-73.6	3.8	7.46e-01	0	41	104	1147142144	73	48737
2026-01-12 11:51:37.66	344.10	8.73	-53.5	-73.9	3.8	7.47e-01	0	41	104	1147142144	77	40474
2026-01-12 11:51:38.79	344.10	8.63	-51.8	-73.9	3.8	7.50e-01	0	41	104	1147142144	74	47632
2026-01-12 11:51:39.64	344.11	8.55	-53.5	-74.0	3.8	7.41e-01	0	41	104	1147142144	77	40898
2026-01-12 11:51:40.78	344.11	8.46	-53.3	-74.1	3.8	7.45e-01	0	41	104	1147142144	77	41448
2026-01-12 11:51:41.63	344.11	8.38	-52.5	-74.1	3.8	7.43e-01	0	41	104	1147142144	76	43884
2026-01-12 11:51:42.76	344.12	8.28	-53.2	-74.2	3.8	7.46e-01	0	41	104	1147142144	77	41662
2026-01-12 11:51:43.62	344.12	8.21	-54.0	-74.2	3.8	7.48e-01	0	41	104	1147142144	78	39467
2026-01-12 11:51:44.75	344.12	8.11	-54.3	-74.2	3.8	7.44e-01	0	41	104	1147142144	79	37346
2026-01-12 11:51:45.60	344.12	8.04	-53.1	-74.2	3.8	7.45e-01	0	41	104	1147142144	78	39551
2026-01-12 11:51:46.74	344.13	7.95	-54.1	-74.3	3.8	7.47e-01	0	41	104	1147142144	79	37447
2026-01-12 11:51:47.59	344.13	7.87	-54.3	-74.3	3.8	7.46e-01	0	41	104	1147142144	79	37495
2026-01-12 11:51:48.73	344.13	7.78	-54.0	-74.3	3.8	7.48e-01	0	41	104	1147142144	79	37438
2026-01-12 11:51:49.58	344.14	7.71	-54.1	-74.3	3.8	7.44e-01	0	41	104	1147142144	79	37553
2026-01-12 11:51:50.71	344.14	7.61	-53.8	-74.3	3.8	7.49e-01	0	41	104	1147142144	79	37406
2026-01-12 11:51:51.57	344.14	7.54	-54.0	-74.3	3.8	7.47e-01	0	41	104	1147142144	79	37495
2026-01-12 11:51:52.70	344.15	7.45	-53.5	-74.3	3.8	7.47e-01	0	41	104	1147142144	79	37453
2026-01-12 11:51:53.55	344.15	7.38	-54.4	-74.3	3.8	7.50e-01	0	41	104	1147142144	79	37387
2026-01-12 11:51:54.69	344.15	7.28	-54.4	-74.3	3.8	7.46e-01	0	41	104	1147142144	79	37525
2026-01-12 11:51:55.54	344.15	7.21	-54.4	-74.3	3.8	7.49e-01	0	41	104	1147142144	79	37402
2026-01-12 11:51:56.67	344.16	7.12	-54.4	-74.2	3.8	7.46e-01	0	42	104	1147142144	79	37362
2026-01-12 11:51:57.53	344.16	7.05	-54.2	-74.2	3.8	7.47e-01	0	41	104	1147142144	79	37307
2026-01-12 11:51:58.66	344.16	6.96	-54.3	-74.2	3.8	7.46e-01	0	41	104	1147142144	79	37295
2026-01-12 11:51:59.51	344.17	6.89	-54.0	-74.2	3.8	7.45e-01	0	41	104	1147142144	79	37231
2026-01-12 11:52:00.65	344.17	6.80	-53.9	-74.2	3.8	7.43e-01	0	41	104	1147142144	79	37335
2026-01-12 11:52:01.50	344.17	6.73	-53.9	-74.3	3.8	7.46e-01	0	41	104	1147142144	79	37402
2026-01-12 11:52:02.64	344.18	6.64	-53.8	-74.2	3.8	7.48e-01	0	41	104	1147142144	79	37192
2026-01-12 11:52:03.49	344.18	6.57	-53.7	-74.2	3.8	7.46e-01	0	41	104	1147142144	79	37230
2026-01-12 11:52:04.62	344.18	6.48	-53.7	-74.2	3.8	7.47e-01	0	41	104	1147142144	79	37262
2026-01-12 11:52:05.47	344.19	6.41	-53.8	-74.2	3.8	7.42e-01	0	41	104	1147142144	79	37192
2026-01-12 11:52:06.61	344.19	6.32	-53.8	-74.2	3.8	7.45e-01	0	41	104	1147142144	79	37120
2026-01-12 11:52:07.46	344.19	6.25	-53.8	-74.2	3.8	7.46e-01	0	41	104	1147142144	79	37217
2026-01-12 11:52:08.60	344.20	6.17	-53.8	-74.2	3.8	7.47e-01	0	41	104	1147142144	79	37058
2026-01-12 11:52:09.45	344.20	6.10	-53.7	-74.2	3.8	7.46e-01	0	41	104	1147142144	79	37084
2026-01-12 11:52:10.58	344.20	6.01	-53.8	-74.2	3.8	7.48e-01	0	41	104	1147142144	79	37079
2026-01-12 11:52:11.43	344.20	5.94	-53.8	-74.2	3.8	7.47e-01	0	41	104	1147142144	79	37136
2026-01-12 11:52:12.57	344.21	5.86	-53.7	-74.2	3.8	7.46e-01	0	41	104	1147142144	79	37188
2026-01-12 11:52:13.42	344.21	5.79	-53.7	-74.2	3.8	7.46e-01	0	41	104	1147142144	79	37179
2026-01-12 11:52:14.56	344.21	5.70	-53.7	-74.2	3.8	7.48e-01	0	41	104	1147142144	79	37117
2026-01-12 11:52:15.41	344.22	5.64	-53.6	-74.2	3.8	7.49e-01	0	41	104	1147142144	78	39251
2026-01-12 11:52:16.54	344.22	5.55	-53.8	-74.2	3.8	7.47e-01	0	41	104	1147142144	78	39199
2026-01-12 11:52:17.39	344.22	5.49	-53.8	-74.2	3.8	7.45e-01	0	41	104	1147142144	78	39144
2026-01-12 11:52:18.53	344.23	5.40	-53.8	-74.2	3.8	7.46e-01	0	41	104	1147142144	78	39251
2026-01-12 11:52:19.38	344.23	5.34	-53.7	-74.2	3.8	7.50e-01	0	41	104	1147142144	78	39349
2026-01-12 11:52:20.52	344.23	5.25	-53.7	-74.2	3.8	7.46e-01	0	41	104	1147142144	78	39337
2026-01-12 11:52:21.37	344.24	5.19	-53.7	-74.2	3.8	7.48e-01	0	41	104	1147142144	78	39294
2026-01-12 11:52:22.50	344.24	5.10	-53.8	-74.2	3.8	7.46e-01	0	41	104	1147142144	78	39156
2026-01-12 11:52:23.36	344.24	5.04	-53.8	-74.2	3.8	7.45e-01	0	41	104	1147142144	78	39220
2026-01-12 11:52:24.49	344.25	4.95	-53.7	-74.2	3.8	7.45e-01	0	41	104	1147142144	78	39179

#Closed at: 2026-01-12 11:52:25
#Recorded file [1147 MB]: D:/Data/31040_260112_144100.dat