passes_logs/2026/01/12/T1/T1__20260112_013104_FENGYUN_3D_rec.log

#Pass ID: 20260112_013104_FENGYUN 3D
#Satellite: FENGYUN 3D
#Configuration: FENGYUN 3D
#almurnet v.1.7.20251203
#Start time: 2026-01-12 01:31:05

#Version: 2.0.20230620
#Station: T1
#Location: 37.570604 lon 55.790049 lat
#TLE: 1 43010U 17072A   26011.26828046  .00000354  00000+0  18908-3 0  9991
#TLE: 2 43010  98.9936 343.0270 0002205 114.1788 245.9618 14.19695184422722

#Time	Az	El	Level	Level2	SNR	BER	BlckErr	Temp	State	Recorded	gain1	gain2
2026-01-12 01:31:05.18	18.50	5.09	-48.5	-62.2	3.8	8.47e-01	0	41	0	0	67	18603
2026-01-12 01:31:06.16	18.51	5.16	-48.5	-61.9	3.8	8.47e-01	0	41	104	0	67	18075
2026-01-12 01:31:07.16	18.53	5.24	-48.4	-61.9	3.8	8.47e-01	0	42	104	0	67	17890
2026-01-12 01:31:08.15	18.55	5.31	-48.4	-61.7	3.8	8.47e-01	0	42	104	0	67	17580
2026-01-12 01:31:09.14	18.57	5.38	-48.4	-61.4	3.8	8.47e-01	0	42	104	0	67	17005
2026-01-12 01:31:10.14	18.58	5.45	-48.4	-61.3	3.8	8.48e-01	0	41	104	0	67	16735
2026-01-12 01:31:11.13	18.60	5.52	-48.4	-61.1	3.8	8.46e-01	0	42	104	0	67	16382
2026-01-12 01:31:12.12	18.62	5.59	-48.4	-60.8	3.8	8.47e-01	0	42	104	0	67	15856
2026-01-12 01:31:13.12	18.64	5.66	-48.3	-60.6	3.8	8.46e-01	0	42	104	0	67	15462
2026-01-12 01:31:14.11	18.66	5.74	-48.3	-60.4	3.9	8.45e-01	0	42	104	0	67	15064
2026-01-12 01:31:15.10	18.67	5.81	-48.3	-60.1	3.9	8.47e-01	0	42	104	0	67	14697
2026-01-12 01:31:16.10	18.69	5.88	-48.3	-60.2	3.8	8.46e-01	0	42	104	0	67	14858
2026-01-12 01:31:17.09	18.71	5.95	-48.3	-60.2	3.9	8.45e-01	0	42	104	0	67	14820
2026-01-12 01:31:18.08	18.73	6.03	-48.4	-60.4	3.8	8.45e-01	0	42	104	0	67	15074
2026-01-12 01:31:19.07	18.75	6.10	-48.4	-60.5	3.9	8.46e-01	0	42	104	0	67	15351
2026-01-12 01:31:20.07	18.76	6.17	-48.4	-60.8	3.8	8.48e-01	0	42	104	0	67	15824
2026-01-12 01:31:21.06	18.78	6.25	-48.4	-61.1	3.8	8.48e-01	0	42	104	0	67	16368
2026-01-12 01:31:22.05	18.80	6.32	-48.5	-61.3	3.8	8.47e-01	0	42	104	0	67	16776
2026-01-12 01:31:23.05	18.82	6.39	-48.4	-61.4	3.8	8.46e-01	0	42	104	0	67	17076
2026-01-12 01:31:24.04	18.84	6.47	-48.5	-61.5	3.8	8.47e-01	0	42	104	0	67	17214
2026-01-12 01:31:25.03	18.86	6.54	-48.5	-61.5	3.8	8.46e-01	0	42	104	0	67	17165
2026-01-12 01:31:26.03	18.88	6.62	-48.5	-61.5	3.8	8.47e-01	0	42	104	0	67	17157
2026-01-12 01:31:27.02	18.90	6.69	-48.5	-61.3	3.8	8.46e-01	0	42	104	0	67	16706
2026-01-12 01:31:28.01	18.91	6.77	-48.4	-61.1	3.8	8.47e-01	0	42	104	0	67	16443
2026-01-12 01:31:29.00	18.93	6.84	-48.4	-60.9	3.8	8.47e-01	0	42	104	0	67	16118
2026-01-12 01:31:30.00	18.95	6.92	-48.4	-60.8	3.8	8.46e-01	0	42	104	0	67	15930
2026-01-12 01:31:30.99	18.97	6.99	-48.4	-60.6	3.8	8.45e-01	0	42	104	0	67	15452
2026-01-12 01:31:31.98	18.99	7.07	-48.4	-60.3	3.8	8.47e-01	0	42	104	0	67	15051
2026-01-12 01:31:32.98	19.01	7.14	-48.3	-60.0	3.8	8.46e-01	0	42	104	0	67	14383
2026-01-12 01:31:33.97	19.03	7.22	-48.3	-59.4	4.0	8.45e-01	0	42	104	0	67	13436
2026-01-12 01:31:34.96	19.05	7.30	-48.2	-58.7	4.1	8.40e-01	0	42	0	0	67	12493
2026-01-12 01:31:35.95	19.07	7.37	-48.1	-57.9	4.4	8.31e-01	0	43	0	0	67	11326
2026-01-12 01:31:36.95	19.09	7.45	-47.9	-57.0	4.8	8.06e-01	0	42	0	0	67	10178
2026-01-12 01:31:37.94	19.11	7.53	-47.8	-56.1	5.2	7.62e-01	0	42	0	0	67	9274
2026-01-12 01:31:38.94	19.13	7.61	-47.7	-55.4	5.7	6.00e-01	0	42	0	1048576	67	8532
2026-01-12 01:31:39.93	19.15	7.68	-47.5	-54.8	6.2	3.55e-01	0	42	0	6291456	67	7930
2026-01-12 01:31:40.92	19.17	7.76	-47.4	-54.3	6.6	2.66e-01	0	42	0	11534336	66	7961
2026-01-12 01:31:41.92	19.19	7.84	-47.3	-53.9	7.0	1.95e-01	0	42	0	17825792	66	7612
2026-01-12 01:31:42.91	19.21	7.92	-47.2	-53.7	7.2	1.56e-01	0	43	0	23068672	66	7392
2026-01-12 01:31:43.90	19.23	8.00	-47.2	-53.6	7.2	1.47e-01	0	43	0	28311552	66	7353
2026-01-12 01:31:44.90	19.25	8.08	-47.1	-53.4	7.4	1.31e-01	0	43	0	34603008	66	7194
2026-01-12 01:31:45.89	19.27	8.15	-47.1	-53.5	7.4	1.34e-01	0	43	0	39845888	66	7222
2026-01-12 01:31:46.88	19.29	8.23	-47.1	-53.5	7.3	1.32e-01	0	43	0	46137344	66	7280
2026-01-12 01:31:47.88	19.31	8.31	-47.1	-53.4	7.4	1.47e-01	0	43	0	51380224	66	7190
2026-01-12 01:31:48.87	19.33	8.39	-47.1	-53.6	7.3	1.40e-01	0	43	0	56623104	66	7306
2026-01-12 01:31:49.86	19.35	8.47	-47.0	-53.3	7.5	1.47e-01	0	43	0	61865984	66	7064
2026-01-12 01:31:50.86	19.37	8.55	-47.0	-53.1	7.6	1.34e-01	0	43	0	68157440	65	7363
2026-01-12 01:31:51.85	19.39	8.63	-47.1	-53.4	7.4	1.17e-01	0	43	0	73400320	65	7550
2026-01-12 01:31:52.84	19.41	8.71	-47.0	-53.3	7.5	1.34e-01	0	43	0	78643200	65	7521
2026-01-12 01:31:53.83	19.44	8.80	-47.2	-53.7	7.1	1.70e-01	0	43	0	84934656	65	7872
2026-01-12 01:31:54.83	19.46	8.88	-47.2	-53.8	7.0	1.77e-01	0	43	0	90177536	65	7988
2026-01-12 01:31:55.82	19.48	8.96	-47.5	-54.7	6.2	2.97e-01	0	43	0	95420416	65	8816
2026-01-12 01:31:56.81	19.50	9.04	-47.6	-55.3	5.8	4.27e-01	0	43	0	101711872	65	9390
2026-01-12 01:31:57.81	19.52	9.12	-43.9	-46.7	14.4	3.58e-02	0	43	0	106954752	59	4959
2026-01-12 01:31:59.04	19.55	9.23	-48.3	-61.4	3.8	8.46e-01	0	43	104	111149056	67	16917
2026-01-12 01:31:59.89	19.57	9.30	-44.2	-47.2	13.3	5.96e-01	0	43	104	111149056	60	4951
2026-01-12 01:32:01.03	19.59	9.39	-44.1	-47.0	14.1	0.00e+00	0	43	0	116391936	59	5145
2026-01-12 01:32:01.88	19.61	9.46	-45.9	-49.9	11.1	2.62e-04	0	43	0	121634816	62	6048
2026-01-12 01:32:03.01	19.64	9.56	-43.7	-46.5	14.6	5.70e-06	0	43	0	127926272	59	4853
2026-01-12 01:32:03.87	19.65	9.63	-43.6	-46.3	14.7	0.00e+00	0	43	0	132120576	59	4746
2026-01-12 01:32:05.01	19.68	9.73	-43.0	-45.6	15.5	0.00e+00	0	43	0	138412032	58	4623
2026-01-12 01:32:05.86	19.70	9.80	-42.9	-45.5	15.6	0.00e+00	0	43	0	143654912	57	4849
2026-01-12 01:32:06.99	19.73	9.90	-42.3	-44.7	16.3	0.00e+00	0	43	0	149946368	56	4691
2026-01-12 01:32:07.85	19.74	9.97	-42.2	-44.5	16.5	0.00e+00	0	43	0	155189248	56	4598
2026-01-12 01:32:08.99	19.77	10.07	-41.7	-44.0	16.9	0.00e+00	0	43	0	161480704	55	4587
2026-01-12 01:32:09.84	19.79	10.14	-41.6	-43.8	17.1	0.00e+00	0	43	0	165675008	55	4470
2026-01-12 01:32:11.09	19.82	10.25	-41.5	-43.7	17.2	0.00e+00	0	43	0	173015040	55	4438
2026-01-12 01:32:11.94	19.84	10.32	-41.4	-43.6	17.3	0.00e+00	0	43	0	178257920	54	4609
2026-01-12 01:32:13.08	19.87	10.42	-41.2	-43.4	17.5	0.00e+00	0	43	0	183500800	54	4529
2026-01-12 01:32:13.93	19.89	10.50	-41.2	-43.4	17.5	0.00e+00	0	43	0	188743680	54	4509
2026-01-12 01:32:15.07	19.91	10.60	-41.3	-43.5	17.4	0.00e+00	0	43	0	195035136	54	4578
2026-01-12 01:32:15.92	19.93	10.67	-41.4	-43.6	17.3	0.00e+00	0	43	0	200278016	54	4611
2026-01-12 01:32:17.06	19.96	10.77	-41.3	-43.5	17.4	0.00e+00	0	43	0	206569472	54	4547
2026-01-12 01:32:17.91	19.98	10.85	-41.3	-43.5	17.4	0.00e+00	0	43	0	210763776	54	4553
2026-01-12 01:32:19.05	20.01	10.95	-41.3	-43.5	17.5	0.00e+00	0	43	0	218103808	54	4551
2026-01-12 01:32:19.90	20.03	11.03	-41.3	-43.5	17.5	0.00e+00	0	43	0	222298112	54	4561
2026-01-12 01:32:21.04	20.05	11.13	-41.2	-43.4	17.6	0.00e+00	0	43	0	228589568	54	4511
2026-01-12 01:32:21.89	20.08	11.21	-41.2	-43.4	17.5	0.00e+00	0	43	0	233832448	54	4535
2026-01-12 01:32:23.03	20.10	11.31	-41.3	-43.5	17.4	0.00e+00	0	43	0	240123904	54	4590
2026-01-12 01:32:23.88	20.12	11.39	-41.3	-43.5	17.4	0.00e+00	0	43	0	245366784	54	4572
2026-01-12 01:32:25.06	20.15	11.49	-41.3	-43.5	17.5	0.00e+00	0	43	0	251658240	54	4571
2026-01-12 01:32:25.91	20.17	11.57	-41.3	-43.4	17.5	0.00e+00	0	43	0	255852544	54	4535
2026-01-12 01:32:27.08	20.20	11.68	-41.3	-43.4	17.6	0.00e+00	0	43	0	263192576	54	4545
2026-01-12 01:32:27.93	20.23	11.76	-41.2	-43.4	17.6	0.00e+00	0	43	0	267386880	54	4532
2026-01-12 01:32:29.07	20.25	11.86	-41.2	-43.4	17.6	0.00e+00	0	43	0	273678336	54	4538
2026-01-12 01:32:29.92	20.28	11.94	-41.2	-43.4	17.6	0.00e+00	0	43	0	278921216	54	4518
2026-01-12 01:32:31.05	20.30	12.05	-41.3	-43.5	17.5	0.00e+00	0	43	0	285212672	54	4558
2026-01-12 01:32:31.91	20.33	12.13	-41.2	-43.4	17.6	0.00e+00	0	43	0	290455552	54	4523
2026-01-12 01:32:33.05	20.36	12.23	-41.2	-43.4	17.6	0.00e+00	0	43	0	296747008	54	4542
2026-01-12 01:32:33.90	20.38	12.31	-41.2	-43.4	17.6	0.00e+00	0	43	0	300941312	54	4529
2026-01-12 01:32:35.04	20.41	12.42	-41.2	-43.4	17.6	0.00e+00	0	43	0	307232768	54	4525
2026-01-12 01:32:35.89	20.43	12.50	-41.2	-43.4	17.6	0.00e+00	0	43	0	312475648	54	4541
2026-01-12 01:32:37.03	20.46	12.61	-41.2	-43.5	17.6	0.00e+00	0	43	0	318767104	54	4550
2026-01-12 01:32:37.88	20.48	12.69	-41.1	-43.3	17.7	0.00e+00	0	43	0	324009984	54	4477
2026-01-12 01:32:39.01	20.51	12.80	-41.0	-43.3	17.7	0.00e+00	0	43	0	330301440	54	4451
2026-01-12 01:32:39.87	20.54	12.88	-41.0	-43.3	17.7	0.00e+00	0	43	0	334495744	54	4458
2026-01-12 01:32:41.01	20.57	12.99	-41.0	-43.3	17.7	0.00e+00	0	43	0	340787200	54	4460
2026-01-12 01:32:41.86	20.59	13.08	-41.0	-43.2	17.8	0.00e+00	0	43	0	346030080	54	4430
2026-01-12 01:32:43.01	20.62	13.19	-40.9	-43.1	17.9	0.00e+00	0	43	0	352321536	53	4641
2026-01-12 01:32:43.87	20.64	13.27	-41.0	-43.2	17.8	0.00e+00	0	43	0	357564416	53	4654
2026-01-12 01:32:45.01	20.68	13.38	-40.9	-43.1	17.9	0.00e+00	0	43	0	363855872	53	4623
2026-01-12 01:32:45.86	20.70	13.47	-40.9	-43.1	17.9	0.00e+00	0	43	0	368050176	53	4603
2026-01-12 01:32:47.00	20.73	13.58	-40.9	-43.0	18.0	0.00e+00	0	44	0	375390208	53	4590
2026-01-12 01:32:47.85	20.75	13.67	-40.9	-43.0	18.0	0.00e+00	0	43	0	379584512	53	4579
2026-01-12 01:32:48.98	20.79	13.78	-40.8	-43.0	18.1	0.00e+00	0	44	0	385875968	53	4546
2026-01-12 01:32:49.84	20.81	13.86	-40.9	-43.1	17.9	0.00e+00	0	44	0	391118848	53	4608
2026-01-12 01:32:50.97	20.84	13.98	-40.8	-42.9	18.1	0.00e+00	0	43	0	397410304	53	4524
2026-01-12 01:32:51.83	20.87	14.07	-40.7	-42.8	18.2	0.00e+00	0	44	0	401604608	53	4466
2026-01-12 01:32:52.96	20.90	14.18	-40.8	-42.9	18.2	0.00e+00	0	43	0	407896064	53	4495
2026-01-12 01:32:53.82	20.92	14.27	-40.6	-42.7	18.3	0.00e+00	0	44	0	413138944	53	4428
2026-01-12 01:32:54.95	20.96	14.38	-40.7	-42.8	18.3	0.00e+00	0	44	0	419430400	53	4447
2026-01-12 01:32:55.81	20.98	14.47	-40.7	-42.7	18.3	0.00e+00	0	44	0	424673280	53	4423
2026-01-12 01:32:56.94	21.02	14.59	-40.7	-42.7	18.3	0.00e+00	0	43	0	430964736	53	4413
2026-01-12 01:32:57.80	21.04	14.68	-40.7	-42.7	18.3	0.00e+00	0	44	0	436207616	53	4419
2026-01-12 01:32:59.02	21.08	14.80	-40.7	-42.7	18.3	0.00e+00	0	44	0	442499072	53	4433
2026-01-12 01:32:59.87	21.10	14.89	-40.5	-42.6	18.4	0.00e+00	0	44	0	447741952	53	4353
2026-01-12 01:33:01.01	21.14	15.01	-40.4	-42.4	18.6	0.00e+00	0	44	0	454033408	52	4530
2026-01-12 01:33:01.86	21.16	15.10	-40.4	-42.4	18.6	0.00e+00	0	43	0	458227712	52	4507
2026-01-12 01:33:03.11	21.20	15.24	-40.3	-42.3	18.7	0.00e+00	0	44	0	465567744	52	4473
2026-01-12 01:33:03.96	21.23	15.33	-40.3	-42.3	18.7	0.00e+00	0	44	0	469762048	52	4473
2026-01-12 01:33:05.10	21.26	15.45	-40.3	-42.3	18.7	0.00e+00	0	44	0	477102080	52	4480
2026-01-12 01:33:05.95	21.29	15.54	-40.3	-42.3	18.7	0.00e+00	0	44	0	481296384	52	4463
2026-01-12 01:33:07.09	21.33	15.66	-40.3	-42.2	18.8	0.00e+00	0	44	0	487587840	52	4416
2026-01-12 01:33:07.98	21.35	15.76	-40.1	-42.1	18.9	0.00e+00	0	44	0	492830720	52	4357
2026-01-12 01:33:09.11	21.39	15.88	-40.1	-42.0	19.0	0.00e+00	0	43	0	499122176	52	4317
2026-01-12 01:33:09.96	21.42	15.97	-40.1	-42.0	18.9	0.00e+00	0	44	0	504365056	52	4335
2026-01-12 01:33:11.10	21.45	16.10	-40.0	-41.9	19.1	0.00e+00	0	44	0	510656512	52	4257
2026-01-12 01:33:11.95	21.48	16.19	-40.0	-41.9	19.1	0.00e+00	0	44	0	514850816	51	4530
2026-01-12 01:33:13.09	21.52	16.32	-40.0	-41.9	19.2	0.00e+00	0	44	0	522190848	51	4524
2026-01-12 01:33:14.24	21.56	16.45	-40.0	-42.0	19.1	0.00e+00	0	43	0	528482304	51	4546
2026-01-12 01:33:15.09	21.58	16.54	-39.9	-41.8	19.2	0.00e+00	0	44	0	532676608	51	4484
2026-01-12 01:33:16.23	21.62	16.67	-39.8	-41.7	19.3	0.00e+00	0	44	0	538968064	51	4419
2026-01-12 01:33:17.08	21.65	16.77	-39.8	-41.7	19.3	0.00e+00	0	44	0	544210944	51	4434
2026-01-12 01:33:18.22	21.69	16.90	-39.8	-41.7	19.3	0.00e+00	0	43	0	550502400	51	4419
2026-01-12 01:33:19.42	21.73	17.03	-39.7	-41.6	19.4	0.00e+00	0	43	0	556793856	51	4370
2026-01-12 01:33:20.28	21.76	17.13	-39.7	-41.6	19.5	0.00e+00	0	43	0	562036736	51	4345
2026-01-12 01:33:21.41	21.80	17.26	-39.6	-41.5	19.6	0.00e+00	0	44	0	568328192	51	4314
2026-01-12 01:33:22.27	21.83	17.36	-39.7	-41.5	19.5	0.00e+00	0	44	0	573571072	51	4337
2026-01-12 01:33:23.41	21.87	17.49	-39.6	-41.5	19.6	0.00e+00	0	43	0	579862528	51	4299
2026-01-12 01:33:24.26	21.90	17.59	-39.7	-41.6	19.5	0.00e+00	0	44	0	584056832	51	4347
2026-01-12 01:33:25.40	21.94	17.73	-39.7	-41.6	19.5	0.00e+00	0	44	0	591396864	51	4346
2026-01-12 01:33:26.25	21.97	17.83	-39.6	-41.5	19.5	0.00e+00	0	44	0	595591168	51	4316
2026-01-12 01:33:27.39	22.01	17.96	-39.6	-41.5	19.5	0.00e+00	0	44	0	601882624	51	4313
2026-01-12 01:33:28.25	22.04	18.06	-39.6	-41.5	19.6	0.00e+00	0	44	0	607125504	51	4305
2026-01-12 01:33:29.38	22.08	18.20	-39.7	-41.5	19.6	0.00e+00	0	44	0	613416960	51	4321
2026-01-12 01:33:30.23	22.11	18.30	-39.7	-41.5	19.5	0.00e+00	0	44	0	618659840	51	4332
2026-01-12 01:33:31.51	22.16	18.46	-39.6	-41.4	19.6	0.00e+00	0	44	0	624951296	51	4287
2026-01-12 01:33:32.23	22.19	18.54	-39.6	-41.4	19.6	0.00e+00	0	44	0	629145600	51	4271
2026-01-12 01:33:33.50	22.23	18.70	-39.6	-41.5	19.6	0.00e+00	0	44	0	636485632	51	4316
2026-01-12 01:33:34.21	22.26	18.78	-39.7	-41.5	19.5	0.00e+00	0	44	0	640679936	51	4333
2026-01-12 01:33:35.51	22.31	18.95	-39.6	-41.4	19.7	0.00e+00	0	44	0	648019968	51	4283
2026-01-12 01:33:36.22	22.34	19.03	-39.6	-41.4	19.7	0.00e+00	0	44	0	651165696	51	4279
2026-01-12 01:33:37.50	22.39	19.19	-39.5	-41.3	19.7	0.00e+00	0	44	0	658505728	51	4231
2026-01-12 01:33:38.22	22.41	19.28	-39.5	-41.3	19.7	0.00e+00	0	44	0	662700032	51	4241
2026-01-12 01:33:39.50	22.46	19.44	-39.4	-41.2	19.8	0.00e+00	0	44	0	670040064	50	4434
2026-01-12 01:33:40.21	22.49	19.53	-39.4	-41.2	19.8	0.00e+00	0	44	0	674234368	50	4441
2026-01-12 01:33:41.49	22.54	19.69	-39.4	-41.2	19.8	0.00e+00	0	44	0	681574400	50	4415
2026-01-12 01:33:42.22	22.57	19.79	-39.4	-41.2	19.8	0.00e+00	0	44	0	685768704	50	4429
2026-01-12 01:33:43.50	22.62	19.95	-39.3	-41.2	19.8	0.00e+00	0	44	0	693108736	50	4398
2026-01-12 01:33:44.21	22.65	20.04	-39.3	-41.1	20.0	0.00e+00	0	44	0	696254464	50	4374
2026-01-12 01:33:45.57	22.71	20.22	-39.3	-41.1	19.9	0.00e+00	0	44	0	704643072	50	4390
2026-01-12 01:33:46.28	22.74	20.31	-39.3	-41.1	20.0	0.00e+00	0	44	0	708837376	50	4371
2026-01-12 01:33:47.56	22.79	20.48	-39.3	-41.1	19.9	0.00e+00	0	44	0	715128832	50	4389
2026-01-12 01:33:48.27	22.82	20.57	-39.3	-41.2	19.9	0.00e+00	0	44	0	719323136	50	4393
2026-01-12 01:33:49.54	22.87	20.74	-39.3	-41.1	19.9	0.00e+00	0	44	0	726663168	50	4370
2026-01-12 01:33:50.27	22.90	20.84	-39.3	-41.1	19.9	0.00e+00	0	44	0	730857472	50	4376
2026-01-12 01:33:51.55	22.96	21.01	-39.3	-41.1	19.9	0.00e+00	0	44	0	738197504	50	4373
2026-01-12 01:33:52.26	22.99	21.10	-39.2	-41.0	20.0	0.00e+00	0	44	0	742391808	50	4336
2026-01-12 01:33:53.54	23.05	21.28	-39.2	-41.0	20.0	0.00e+00	0	44	0	749731840	50	4327
2026-01-12 01:33:54.27	23.08	21.38	-39.2	-41.0	20.0	0.00e+00	0	44	0	752877568	50	4323
2026-01-12 01:33:55.55	23.13	21.55	-39.1	-41.0	20.1	0.00e+00	0	44	0	760217600	50	4301
2026-01-12 01:33:56.26	23.17	21.65	-39.1	-41.0	20.1	0.00e+00	0	44	0	764411904	50	4293
2026-01-12 01:33:57.54	23.22	21.82	-39.0	-40.8	20.2	0.00e+00	0	44	0	771751936	50	4222
2026-01-12 01:33:58.25	23.26	21.92	-38.9	-40.7	20.3	0.00e+00	0	44	0	775946240	49	4415
2026-01-12 01:33:59.53	23.31	22.10	-38.8	-40.6	20.4	0.00e+00	0	44	0	783286272	49	4375
2026-01-12 01:34:00.24	23.35	22.20	-38.8	-40.6	20.4	0.00e+00	0	44	0	787480576	49	4358
2026-01-12 01:34:01.52	23.41	22.38	-38.7	-40.4	20.5	0.00e+00	0	44	0	793772032	49	4282
2026-01-12 01:34:02.26	23.44	22.48	-38.6	-40.4	20.5	0.00e+00	0	44	0	797966336	49	4283
2026-01-12 01:34:03.54	23.50	22.67	-38.6	-40.4	20.5	0.00e+00	0	44	0	805306368	49	4275
2026-01-12 01:34:04.25	23.53	22.77	-38.6	-40.4	20.6	0.00e+00	0	44	0	809500672	49	4261
2026-01-12 01:34:05.59	23.60	22.96	-38.7	-40.5	20.5	0.00e+00	0	44	0	816840704	49	4302
2026-01-12 01:34:06.31	23.63	23.07	-38.7	-40.5	20.5	0.00e+00	0	44	0	821035008	49	4310
2026-01-12 01:34:07.63	23.70	23.26	-38.5	-40.3	20.7	0.00e+00	0	44	0	828375040	49	4195
2026-01-12 01:34:08.34	23.73	23.36	-38.5	-40.2	20.7	0.00e+00	0	44	0	832569344	48	4417
2026-01-12 01:34:09.62	23.80	23.55	-38.4	-40.2	20.8	0.00e+00	0	44	0	839909376	48	4413
2026-01-12 01:34:10.69	23.85	23.71	-38.4	-40.1	20.9	0.00e+00	0	44	0	846200832	48	4380
2026-01-12 01:34:11.81	23.91	23.88	-38.3	-40.0	20.9	0.00e+00	0	44	0	851443712	48	4332
2026-01-12 01:34:12.84	23.96	24.03	-38.3	-40.1	20.9	0.00e+00	0	44	0	857735168	48	4351
2026-01-12 01:34:13.84	24.01	24.18	-38.3	-40.0	20.9	0.00e+00	0	44	0	862978048	48	4327
2026-01-12 01:34:14.83	24.06	24.33	-38.3	-40.0	20.9	0.00e+00	0	44	0	869269504	48	4334
2026-01-12 01:34:15.83	24.12	24.49	-38.4	-40.1	20.8	0.00e+00	0	44	0	874512384	48	4382
2026-01-12 01:34:16.82	24.17	24.64	-38.4	-40.1	20.8	0.00e+00	0	44	0	879755264	48	4369
2026-01-12 01:34:17.81	24.22	24.79	-38.3	-40.1	20.9	0.00e+00	0	44	0	886046720	48	4354
2026-01-12 01:34:18.81	24.27	24.95	-38.4	-40.1	20.8	0.00e+00	0	44	0	891289600	48	4368
2026-01-12 01:34:19.80	24.33	25.10	-38.4	-40.1	20.8	0.00e+00	0	44	0	896532480	48	4385
2026-01-12 01:34:20.80	24.38	25.26	-38.3	-40.0	20.9	0.00e+00	0	44	0	902823936	48	4329
2026-01-12 01:34:21.79	24.44	25.41	-38.3	-40.0	20.9	0.00e+00	0	44	0	908066816	48	4335
2026-01-12 01:34:22.78	24.49	25.57	-38.3	-40.1	20.9	0.00e+00	0	44	0	913309696	48	4353
2026-01-12 01:34:23.79	24.55	25.73	-38.4	-40.2	20.8	0.00e+00	0	44	0	919601152	48	4409
2026-01-12 01:34:24.84	24.61	25.90	-38.3	-40.1	20.9	0.00e+00	0	44	0	924844032	48	4361
2026-01-12 01:34:25.78	24.66	26.05	-38.3	-40.0	21.0	0.00e+00	0	44	0	931135488	48	4326
2026-01-12 01:34:26.87	24.73	26.23	-38.3	-40.0	20.9	0.00e+00	0	44	0	936378368	48	4333
2026-01-12 01:34:27.73	24.78	26.37	-38.2	-39.9	21.0	0.00e+00	0	44	0	941621248	48	4291
2026-01-12 01:34:28.86	24.85	26.56	-38.1	-39.8	21.1	0.00e+00	0	44	0	947912704	48	4226
2026-01-12 01:34:29.81	24.90	26.72	-38.1	-39.9	21.1	0.00e+00	0	44	0	953155584	48	4243
2026-01-12 01:34:31.00	24.97	26.91	-38.0	-39.7	21.2	0.00e+00	0	44	0	959447040	48	4187
2026-01-12 01:34:31.85	25.03	27.06	-37.9	-39.6	21.1	0.00e+00	0	44	0	964689920	47	4363
2026-01-12 01:34:32.99	25.10	27.25	-37.9	-39.7	21.0	0.00e+00	0	44	0	970981376	47	4398
2026-01-12 01:34:33.84	25.15	27.39	-37.8	-39.6	21.1	0.00e+00	0	44	0	976224256	47	4353
2026-01-12 01:34:34.98	25.22	27.59	-37.8	-39.5	21.2	0.00e+00	0	44	0	982515712	47	4312
2026-01-12 01:34:35.83	25.28	27.73	-37.8	-39.5	21.1	0.00e+00	0	44	0	986710016	47	4330
2026-01-12 01:34:36.97	25.35	27.93	-37.8	-39.5	21.2	0.00e+00	0	44	0	993001472	47	4322
2026-01-12 01:34:37.82	25.40	28.08	-37.9	-39.6	21.1	0.00e+00	0	44	0	998244352	47	4354
2026-01-12 01:34:38.96	25.48	28.28	-37.9	-39.7	21.1	0.00e+00	0	44	0	1004535808	47	4394
2026-01-12 01:34:39.81	25.53	28.43	-37.9	-39.6	21.1	0.00e+00	0	44	0	1009778688	47	4390
2026-01-12 01:34:40.95	25.61	28.63	-38.0	-39.7	21.0	0.00e+00	0	44	0	1016070144	47	4425
2026-01-12 01:34:41.80	25.67	28.78	-38.0	-39.7	21.0	0.00e+00	0	44	0	1020264448	47	4432
2026-01-12 01:34:42.93	25.75	28.98	-38.0	-39.7	21.0	0.00e+00	0	44	0	1027604480	47	4423
2026-01-12 01:34:43.79	25.81	29.14	-38.0	-39.8	21.0	0.00e+00	0	44	0	1031798784	47	4459
2026-01-12 01:34:44.92	25.88	29.35	-37.9	-39.7	21.0	0.00e+00	0	44	0	1038090240	47	4412
2026-01-12 01:34:45.79	25.95	29.50	-38.0	-39.7	21.1	0.00e+00	0	44	0	1043333120	47	4424
2026-01-12 01:34:47.11	26.04	29.75	-38.0	-39.8	21.0	0.00e+00	0	44	0	1050673152	47	4453
2026-01-12 01:34:47.82	26.09	29.88	-37.7	-39.5	21.2	0.00e+00	0	44	0	1054867456	47	4307
2026-01-12 01:34:49.09	26.18	30.12	-37.7	-39.4	21.3	0.00e+00	0	44	0	1062207488	47	4279
2026-01-12 01:34:49.80	26.24	30.25	-37.7	-39.4	21.3	0.00e+00	0	44	0	1065353216	47	4276
2026-01-12 01:34:51.08	26.33	30.49	-37.7	-39.5	21.2	0.00e+00	0	44	0	1072693248	47	4299
2026-01-12 01:34:51.79	26.38	30.63	-37.8	-39.6	21.2	0.00e+00	0	44	0	1076887552	47	4343
2026-01-12 01:34:53.07	26.48	30.87	-37.8	-39.6	21.1	0.00e+00	0	44	0	1084227584	47	4366
2026-01-12 01:34:53.90	26.55	31.03	-37.9	-39.7	21.0	0.00e+00	0	44	0	1088421888	47	4408
2026-01-12 01:34:55.04	26.63	31.25	-38.0	-39.7	21.0	0.00e+00	0	44	0	1094713344	47	4438
2026-01-12 01:34:55.89	26.70	31.42	-37.8	-39.5	21.2	0.00e+00	0	44	0	1099956224	47	4337
2026-01-12 01:34:57.03	26.79	31.64	-37.7	-39.4	21.3	0.00e+00	0	44	0	1106247680	47	4283
2026-01-12 01:34:57.88	26.86	31.81	-37.7	-39.4	21.3	0.00e+00	0	43	0	1111490560	47	4291
2026-01-12 01:34:59.02	26.95	32.03	-37.8	-39.5	21.2	0.00e+00	0	44	0	1117782016	47	4334
2026-01-12 01:34:59.87	27.02	32.20	-37.9	-39.6	21.1	0.00e+00	0	44	0	1121976320	47	4377
2026-01-12 01:35:01.01	27.12	32.43	-38.0	-39.8	21.0	0.00e+00	0	44	0	1128267776	47	4458
2026-01-12 01:35:01.86	27.19	32.61	-38.0	-39.8	21.0	0.00e+00	0	44	0	1133510656	47	4465
2026-01-12 01:35:03.03	27.29	32.84	-38.0	-39.8	21.0	0.00e+00	0	44	0	1139802112	47	4454
2026-01-12 01:35:03.89	27.37	33.02	-38.0	-39.8	21.0	0.00e+00	0	44	0	1145044992	47	4456
2026-01-12 01:35:05.12	27.47	33.27	-37.7	-39.4	21.3	0.00e+00	0	44	0	1151336448	47	4268
2026-01-12 01:35:05.97	27.55	33.45	-37.5	-39.2	21.4	0.00e+00	0	44	0	1156579328	47	4192
2026-01-12 01:35:07.11	27.65	33.69	-37.5	-39.2	21.5	0.00e+00	0	44	0	1162870784	47	4187
2026-01-12 01:35:07.96	27.73	33.87	-37.5	-39.2	21.5	0.00e+00	0	44	0	1168113664	46	4397
2026-01-12 01:35:09.10	27.83	34.11	-37.4	-39.1	21.6	0.00e+00	0	44	0	1174405120	46	4379
2026-01-12 01:35:09.95	27.91	34.29	-37.5	-39.2	21.5	0.00e+00	0	44	0	1178599424	46	4429
2026-01-12 01:35:11.09	28.02	34.54	-37.6	-39.4	21.3	0.00e+00	0	44	0	1185939456	46	4513
2026-01-12 01:35:11.94	28.10	34.72	-37.8	-39.5	21.2	0.00e+00	0	44	0	1190133760	46	4584
2026-01-12 01:35:13.08	28.21	34.97	-37.8	-39.5	21.2	0.00e+00	0	44	0	1196425216	46	4580
2026-01-12 01:35:14.09	28.31	35.19	-37.7	-39.5	21.3	0.00e+00	0	44	0	1202716672	46	4558
2026-01-12 01:35:15.28	28.43	35.45	-37.6	-39.4	21.4	0.00e+00	0	44	0	1209008128	46	4506
2026-01-12 01:35:16.13	28.52	35.64	-37.6	-39.3	21.4	0.00e+00	0	44	0	1214251008	46	4479
2026-01-12 01:35:17.27	28.63	35.90	-37.7	-39.4	21.4	0.00e+00	0	44	0	1220542464	46	4504
2026-01-12 01:35:18.12	28.72	36.09	-37.6	-39.3	21.4	0.00e+00	0	44	0	1224736768	46	4492
2026-01-12 01:35:19.25	28.84	36.35	-37.8	-39.5	21.2	0.00e+00	0	44	0	1231028224	46	4597
2026-01-12 01:35:20.11	28.93	36.54	-37.9	-39.6	21.1	0.00e+00	0	44	0	1236271104	46	4638
2026-01-12 01:35:21.57	29.09	36.88	-37.8	-39.5	21.2	0.00e+00	0	44	0	1244659712	46	4595
2026-01-12 01:35:22.28	29.17	37.04	-37.8	-39.5	21.2	0.00e+00	0	44	0	1248854016	46	4587
2026-01-12 01:35:23.77	29.33	37.39	-37.8	-39.5	21.3	0.00e+00	0	44	0	1256194048	46	4568
2026-01-12 01:35:24.48	29.41	37.56	-37.7	-39.4	21.3	0.00e+00	0	44	0	1260388352	46	4539
2026-01-12 01:35:25.76	29.56	37.86	-37.7	-39.4	21.3	0.00e+00	0	44	0	1267728384	46	4535
2026-01-12 01:35:26.49	29.65	38.03	-37.7	-39.4	21.3	0.00e+00	0	44	0	1271922688	46	4536
2026-01-12 01:35:27.77	29.80	38.34	-37.5	-39.2	21.5	0.00e+00	0	44	0	1279262720	46	4438
2026-01-12 01:35:28.49	29.88	38.52	-37.5	-39.2	21.5	0.00e+00	0	44	0	1283457024	46	4408
2026-01-12 01:35:29.77	30.04	38.83	-37.3	-38.9	21.7	0.00e+00	0	44	0	1290797056	46	4290
2026-01-12 01:35:30.51	30.13	39.01	-37.2	-38.9	21.8	0.00e+00	0	44	0	1294991360	46	4262
2026-01-12 01:35:31.79	30.29	39.32	-37.4	-39.1	21.6	0.00e+00	0	44	0	1302331392	46	4358
2026-01-12 01:35:32.50	30.38	39.50	-37.4	-39.1	21.6	0.00e+00	0	44	0	1305477120	46	4358
2026-01-12 01:35:33.78	30.54	39.82	-37.6	-39.3	21.4	0.00e+00	0	44	0	1312817152	46	4461
2026-01-12 01:35:34.51	30.64	40.00	-37.6	-39.3	21.4	0.00e+00	0	44	0	1317011456	46	4471
2026-01-12 01:35:35.78	30.81	40.32	-37.7	-39.4	21.3	0.00e+00	0	44	0	1324351488	46	4530
2026-01-12 01:35:36.49	30.90	40.50	-37.7	-39.4	21.3	0.00e+00	0	44	0	1328545792	46	4533
2026-01-12 01:35:37.77	31.08	40.83	-37.5	-39.3	21.1	0.00e+00	0	44	0	1335885824	46	4469
2026-01-12 01:35:38.59	31.19	41.04	-37.5	-39.3	21.1	0.00e+00	0	44	0	1340080128	46	4443
2026-01-12 01:35:39.73	31.35	41.34	-37.5	-39.3	21.2	0.00e+00	0	44	0	1346371584	46	4445
2026-01-12 01:35:40.78	31.51	41.61	-37.7	-39.5	21.0	0.00e+00	0	44	0	1352663040	46	4564
2026-01-12 01:35:41.94	31.68	41.92	-37.9	-39.7	20.8	0.00e+00	0	44	0	1358954496	46	4669
2026-01-12 01:35:42.79	31.80	42.14	-37.9	-39.7	20.7	0.00e+00	0	44	0	1364197376	46	4688
2026-01-12 01:35:43.93	31.97	42.45	-37.9	-39.8	20.7	0.00e+00	0	44	0	1370488832	46	4711
2026-01-12 01:35:44.78	32.10	42.68	-37.7	-39.5	20.9	0.00e+00	0	44	0	1374683136	46	4587
2026-01-12 01:35:45.92	32.28	42.98	-37.6	-39.4	21.0	0.00e+00	0	44	0	1380974592	46	4534
2026-01-12 01:35:46.78	32.42	43.22	-37.8	-39.6	20.8	0.00e+00	0	44	0	1386217472	46	4629
2026-01-12 01:35:47.91	32.60	43.53	-37.9	-39.8	20.6	0.00e+00	0	44	0	1392508928	46	4727
2026-01-12 01:35:48.76	32.74	43.76	-38.0	-39.9	20.6	0.00e+00	0	44	0	1397751808	46	4781
2026-01-12 01:35:49.90	32.93	44.08	-38.0	-39.8	20.6	0.00e+00	0	44	0	1404043264	46	4749
2026-01-12 01:35:50.75	33.07	44.31	-38.0	-39.9	20.6	0.00e+00	0	44	0	1408237568	46	4761
2026-01-12 01:35:51.89	33.27	44.63	-38.1	-39.9	20.6	0.00e+00	0	44	0	1414529024	46	4788
2026-01-12 01:35:52.74	33.42	44.87	-38.2	-40.1	20.5	0.00e+00	0	44	0	1419771904	47	4602
2026-01-12 01:35:53.92	33.63	45.21	-38.4	-40.2	20.3	0.00e+00	0	44	0	1426063360	47	4688
2026-01-12 01:35:54.78	33.79	45.46	-38.3	-40.2	20.3	0.00e+00	0	44	0	1431306240	47	4669
2026-01-12 01:35:55.91	34.00	45.78	-38.1	-39.9	20.5	0.00e+00	0	44	0	1437597696	47	4532
2026-01-12 01:35:56.77	34.16	46.03	-38.0	-39.8	20.7	0.00e+00	0	44	0	1441792000	47	4459
2026-01-12 01:35:58.01	34.40	46.39	-37.8	-39.6	20.9	0.00e+00	0	44	0	1449132032	47	4359
2026-01-12 01:35:58.87	34.56	46.64	-37.7	-39.5	21.0	0.00e+00	0	44	0	1454374912	47	4336
2026-01-12 01:36:00.08	34.80	47.00	-37.7	-39.5	21.0	0.00e+00	0	44	0	1460666368	47	4311
2026-01-12 01:36:00.93	34.98	47.25	-37.8	-39.6	20.9	0.00e+00	0	44	0	1465909248	47	4376
2026-01-12 01:36:02.13	35.23	47.61	-37.8	-39.6	20.9	0.00e+00	0	44	0	1472200704	47	4365
2026-01-12 01:36:02.99	35.41	47.87	-37.8	-39.6	20.9	0.00e+00	0	44	0	1477443584	47	4387
2026-01-12 01:36:04.12	35.65	48.21	-37.9	-39.7	20.9	0.00e+00	0	44	0	1483735040	47	4411
2026-01-12 01:36:04.98	35.84	48.47	-37.9	-39.7	20.9	0.00e+00	0	44	0	1487929344	47	4419
2026-01-12 01:36:06.11	36.09	48.81	-37.9	-39.7	20.9	0.00e+00	0	44	0	1495269376	47	4406
2026-01-12 01:36:06.97	36.29	49.08	-37.9	-39.7	20.8	0.00e+00	0	44	0	1499463680	47	4428
2026-01-12 01:36:08.10	36.55	49.43	-38.2	-39.9	20.6	0.00e+00	0	44	0	1505755136	47	4544
2026-01-12 01:36:09.02	36.77	49.71	-38.2	-40.0	20.5	0.00e+00	0	44	0	1510998016	47	4583
2026-01-12 01:36:10.01	37.01	50.02	-38.4	-40.3	20.4	0.00e+00	0	44	0	1517289472	47	4708
2026-01-12 01:36:11.01	37.26	50.33	-38.9	-40.8	20.2	0.00e+00	0	44	0	1522532352	48	4710
2026-01-12 01:36:12.00	37.51	50.64	-38.9	-40.7	20.2	0.00e+00	0	44	0	1527775232	48	4694
2026-01-12 01:36:13.00	37.76	50.96	-38.7	-40.6	20.3	0.00e+00	0	44	0	1534066688	48	4610
2026-01-12 01:36:13.99	38.02	51.28	-38.8	-40.6	20.3	0.00e+00	0	44	0	1539309568	48	4630
2026-01-12 01:36:14.99	38.29	51.60	-38.6	-40.4	20.5	0.00e+00	0	44	0	1544552448	48	4544
2026-01-12 01:36:15.98	38.56	51.91	-38.7	-40.5	20.5	0.00e+00	0	44	0	1550843904	48	4576
2026-01-12 01:36:16.98	38.84	52.24	-38.9	-40.7	20.3	0.00e+00	0	44	0	1556086784	48	4671
2026-01-12 01:36:17.97	39.13	52.56	-38.9	-40.7	20.3	0.00e+00	0	44	0	1561329664	48	4687
2026-01-12 01:36:18.96	39.42	52.88	-38.9	-40.7	20.3	0.00e+00	0	44	0	1567621120	48	4676
2026-01-12 01:36:19.96	39.71	53.21	-38.9	-40.7	20.2	0.00e+00	0	44	0	1572864000	48	4699
2026-01-12 01:36:20.95	40.02	53.53	-39.0	-40.9	20.1	0.00e+00	0	44	0	1578106880	48	4770
2026-01-12 01:36:22.01	40.35	53.88	-39.0	-40.8	20.1	0.00e+00	0	44	0	1584398336	48	4757
2026-01-12 01:36:22.92	40.64	54.18	-39.0	-40.8	20.1	0.00e+00	0	44	0	1589641216	48	4749
2026-01-12 01:36:23.94	40.97	54.52	-39.2	-41.1	19.9	0.00e+00	0	44	0	1594884096	49	4613
2026-01-12 01:36:24.93	41.30	54.85	-39.4	-41.3	19.7	0.00e+00	0	44	0	1601175552	49	4727
2026-01-12 01:36:25.92	41.64	55.18	-39.2	-41.0	19.9	0.00e+00	0	44	0	1606418432	49	4588
2026-01-12 01:36:26.92	41.99	55.52	-39.0	-40.8	20.1	0.00e+00	0	44	0	1611661312	49	4473
2026-01-12 01:36:27.91	42.34	55.85	-38.9	-40.7	20.2	0.00e+00	0	44	0	1617952768	49	4412
2026-01-12 01:36:28.90	42.71	56.18	-38.6	-40.4	20.4	0.00e+00	0	44	0	1623195648	49	4286
2026-01-12 01:36:29.90	43.08	56.52	-38.8	-40.6	20.3	0.00e+00	0	44	0	1628438528	49	4376
2026-01-12 01:36:30.89	43.46	56.86	-39.0	-40.8	20.1	0.00e+00	0	44	0	1634729984	49	4481
2026-01-12 01:36:31.89	43.86	57.20	-39.0	-40.8	20.1	0.00e+00	0	44	0	1639972864	49	4491
2026-01-12 01:36:32.88	44.26	57.54	-38.7	-40.6	20.3	0.00e+00	0	44	0	1645215744	49	4353
2026-01-12 01:36:33.88	44.67	57.88	-38.4	-40.2	20.6	0.00e+00	0	44	0	1651507200	48	4437
2026-01-12 01:36:34.87	45.09	58.22	-38.4	-40.2	20.7	0.00e+00	0	44	0	1656750080	48	4394
2026-01-12 01:36:35.93	45.56	58.58	-38.6	-40.4	20.5	0.00e+00	0	44	0	1663041536	48	4541
2026-01-12 01:36:36.84	45.96	58.89	-38.4	-40.3	20.6	0.00e+00	0	44	0	1668284416	48	4445
2026-01-12 01:36:37.95	46.47	59.27	-37.8	-39.6	21.0	0.00e+00	0	44	0	1673527296	47	4350
2026-01-12 01:36:38.82	46.88	59.57	-38.0	-39.7	20.9	0.00e+00	0	44	0	1678770176	47	4423
2026-01-12 01:36:40.12	47.51	60.02	-38.1	-39.9	20.7	0.00e+00	0	44	0	1686110208	47	4518
2026-01-12 01:36:40.83	47.87	60.26	-38.0	-39.7	20.9	0.00e+00	0	44	0	1690304512	47	4439
2026-01-12 01:36:42.10	48.52	60.70	-37.7	-39.5	21.1	0.00e+00	0	44	0	1697644544	47	4324
2026-01-12 01:36:42.83	48.90	60.95	-37.8	-39.5	21.1	0.00e+00	0	44	0	1701838848	47	4328
2026-01-12 01:36:44.11	49.59	61.39	-37.8	-39.6	21.0	0.00e+00	0	44	0	1708130304	47	4341
2026-01-12 01:36:44.90	50.03	61.66	-37.8	-39.6	20.9	0.00e+00	0	44	0	1713373184	47	4368
2026-01-12 01:36:46.08	50.70	62.07	-37.7	-39.5	21.0	0.00e+00	0	44	0	1719664640	47	4296
2026-01-12 01:36:46.93	51.20	62.36	-37.5	-39.2	21.2	0.00e+00	0	44	0	1724907520	47	4184
2026-01-12 01:36:48.07	51.89	62.74	-37.8	-39.5	21.0	0.00e+00	0	44	0	1731198976	46	4592
2026-01-12 01:36:48.93	52.42	63.04	-37.5	-39.3	21.2	0.00e+00	0	44	0	1735393280	46	4480
2026-01-12 01:36:50.06	53.15	63.42	-37.8	-39.6	20.9	0.00e+00	0	44	0	1741684736	46	4610
2026-01-12 01:36:50.91	53.70	63.71	-37.5	-39.2	21.2	0.00e+00	0	44	0	1746927616	46	4438
2026-01-12 01:36:52.05	54.47	64.09	-37.3	-39.1	21.3	0.00e+00	0	44	0	1753219072	46	4348
2026-01-12 01:36:52.90	55.07	64.37	-37.4	-39.1	21.3	0.00e+00	0	44	0	1758461952	46	4391
2026-01-12 01:36:54.04	55.88	64.75	-37.2	-39.0	21.4	0.00e+00	0	44	0	1764753408	46	4330
2026-01-12 01:36:54.89	56.51	65.03	-37.2	-39.0	21.4	0.00e+00	0	44	0	1768947712	46	4326
2026-01-12 01:36:56.11	57.43	65.43	-37.2	-39.0	21.4	0.00e+00	0	44	0	1776287744	46	4297
2026-01-12 01:36:57.37	58.43	65.84	-37.4	-39.2	21.2	0.00e+00	0	44	0	1783627776	46	4430
2026-01-12 01:36:58.16	59.07	66.09	-37.6	-39.4	21.1	0.00e+00	0	44	0	1787822080	46	4509
2026-01-12 01:36:59.38	60.09	66.48	-36.9	-38.6	21.7	0.00e+00	0	44	0	1794113536	45	4383
2026-01-12 01:37:00.23	60.82	66.75	-37.1	-38.9	21.5	0.00e+00	0	44	0	1799356416	45	4510
2026-01-12 01:37:01.36	61.82	67.10	-37.3	-39.0	21.4	0.00e+00	0	44	0	1805647872	45	4595
2026-01-12 01:37:02.21	62.60	67.36	-37.1	-38.9	21.5	0.00e+00	0	44	0	1810890752	45	4513
2026-01-12 01:37:03.35	63.67	67.71	-37.2	-38.9	21.5	0.00e+00	0	44	0	1817182208	45	4530
2026-01-12 01:37:04.20	64.49	67.96	-37.3	-39.1	21.3	0.00e+00	0	44	0	1821376512	45	4621
2026-01-12 01:37:05.40	65.69	68.31	-37.3	-39.1	21.2	0.00e+00	0	44	0	1828716544	45	4640
2026-01-12 01:37:06.26	66.57	68.56	-37.1	-38.9	21.5	0.00e+00	0	44	0	1832910848	45	4510
2026-01-12 01:37:07.39	67.77	68.88	-37.0	-38.8	21.5	0.00e+00	0	44	0	1839202304	45	4447
2026-01-12 01:37:08.25	68.71	69.12	-37.1	-38.9	21.4	0.00e+00	0	44	0	1844445184	45	4513
2026-01-12 01:37:09.51	70.12	69.46	-37.1	-38.9	21.4	0.00e+00	0	44	0	1851785216	45	4528
2026-01-12 01:37:10.31	71.04	69.67	-37.2	-39.0	21.4	0.00e+00	0	44	0	1855979520	45	4559
2026-01-12 01:37:11.58	72.55	69.99	-36.9	-38.7	21.6	0.00e+00	0	44	0	1863319552	45	4411
2026-01-12 01:37:12.39	73.53	70.19	-36.7	-38.5	21.8	0.00e+00	0	44	0	1867513856	45	4302
2026-01-12 01:37:13.63	75.09	70.49	-36.6	-38.4	21.9	0.00e+00	0	44	0	1874853888	45	4254
2026-01-12 01:37:14.48	76.18	70.68	-36.5	-38.3	22.0	0.00e+00	0	44	0	1880096768	45	4209
2026-01-12 01:37:15.62	77.68	70.94	-36.5	-38.2	22.0	0.00e+00	0	44	0	1885339648	45	4184
2026-01-12 01:37:16.47	78.83	71.12	-36.9	-38.6	21.7	0.00e+00	0	44	0	1890582528	45	4391
2026-01-12 01:37:17.61	80.41	71.35	-36.8	-38.6	21.7	0.00e+00	0	44	0	1896873984	45	4353
2026-01-12 01:37:18.46	81.61	71.51	-36.7	-38.4	21.9	0.00e+00	0	44	0	1902116864	45	4275
2026-01-12 01:37:19.60	83.26	71.72	-36.9	-38.7	21.6	0.00e+00	0	44	0	1908408320	45	4405
2026-01-12 01:37:20.61	84.75	71.89	-36.5	-38.3	21.9	0.00e+00	0	44	0	1913651200	45	4224
2026-01-12 01:37:21.78	86.52	72.08	-36.4	-38.1	22.0	0.00e+00	0	44	0	1920991232	44	4387
2026-01-12 01:37:22.63	87.82	72.20	-36.5	-38.2	21.9	0.00e+00	0	44	0	1925185536	44	4433
2026-01-12 01:37:23.77	89.60	72.36	-36.4	-38.1	22.0	0.00e+00	0	44	0	1931476992	44	4369
2026-01-12 01:37:24.62	90.95	72.46	-36.3	-38.0	22.1	0.00e+00	0	44	0	1936719872	44	4338
2026-01-12 01:37:25.76	92.78	72.59	-36.4	-38.1	22.0	0.00e+00	0	44	0	1943011328	44	4375
2026-01-12 01:37:26.82	94.51	72.69	-36.1	-37.8	22.3	0.00e+00	0	44	0	1949302784	44	4221
2026-01-12 01:37:27.67	95.91	72.76	-36.2	-38.0	22.1	0.00e+00	0	44	0	1953497088	44	4309
2026-01-12 01:37:28.81	97.81	72.84	-36.4	-38.2	21.9	0.00e+00	0	44	0	1959788544	44	4434
2026-01-12 01:37:29.66	99.23	72.88	-36.5	-38.3	21.9	0.00e+00	0	44	0	1965031424	44	4474
2026-01-12 01:37:30.80	101.15	72.93	-36.5	-38.3	21.9	0.00e+00	0	44	0	1971322880	44	4444
2026-01-12 01:37:31.66	102.61	72.96	-36.7	-38.4	21.8	0.00e+00	0	44	0	1976565760	44	4526
2026-01-12 01:37:32.79	104.52	72.97	-36.4	-38.1	22.0	0.00e+00	0	44	0	1982857216	44	4391
2026-01-12 01:37:33.65	105.99	72.97	-36.4	-38.2	22.0	0.00e+00	0	44	0	1987051520	44	4396
2026-01-12 01:37:34.88	108.07	72.95	-36.5	-38.2	21.9	0.00e+00	0	44	0	1994391552	44	4438
2026-01-12 01:37:35.73	109.51	72.93	-36.4	-38.1	22.1	0.00e+00	0	44	0	1999634432	44	4362
2026-01-12 01:37:36.87	111.43	72.88	-36.2	-37.9	22.2	0.00e+00	0	44	0	2004877312	44	4265
2026-01-12 01:37:37.72	112.85	72.83	-36.3	-38.1	22.1	0.00e+00	0	44	0	2010120192	44	4356
2026-01-12 01:37:38.99	114.96	72.74	-36.5	-38.2	21.9	0.00e+00	0	44	0	2017460224	44	4415
2026-01-12 01:37:39.79	116.28	72.67	-36.6	-38.3	21.9	0.00e+00	0	44	0	2021654528	44	4475
2026-01-12 01:37:40.93	118.13	72.55	-36.8	-38.6	21.6	0.00e+00	0	44	0	2027945984	44	4632
2026-01-12 01:37:41.78	119.49	72.46	-36.8	-38.6	21.6	0.00e+00	0	44	0	2033188864	44	4599
2026-01-12 01:37:42.92	121.30	72.32	-36.5	-38.3	21.9	0.00e+00	0	44	0	2039480320	44	4452
2026-01-12 01:37:43.77	122.62	72.20	-36.5	-38.3	22.0	0.00e+00	0	44	0	2043674624	44	4465
2026-01-12 01:37:44.90	124.35	72.03	-36.4	-38.2	22.1	0.00e+00	0	44	0	2051014656	44	4414
2026-01-12 01:37:45.76	125.65	71.89	-36.3	-38.0	22.2	0.00e+00	0	44	0	2055208960	44	4301
2026-01-12 01:37:46.90	127.33	71.70	-36.6	-38.3	22.0	0.00e+00	0	44	0	2061500416	44	4479
2026-01-12 01:37:47.75	128.56	71.54	-36.4	-38.2	22.0	0.00e+00	0	44	0	2066743296	44	4410
2026-01-12 01:37:48.88	130.16	71.33	-36.7	-38.4	21.8	0.00e+00	0	44	0	2073034752	44	4543
2026-01-12 01:37:49.74	131.35	71.15	-36.6	-38.3	21.9	0.00e+00	0	44	0	2078277632	44	4481
2026-01-12 01:37:50.87	132.88	70.91	-36.7	-38.5	21.8	0.00e+00	0	44	0	2084569088	44	4552
2026-01-12 01:37:51.73	134.02	70.72	-36.7	-38.5	21.8	0.00e+00	0	44	0	2088763392	44	4554
2026-01-12 01:37:52.87	135.49	70.46	-36.7	-38.5	21.8	0.00e+00	0	44	0	2095054848	44	4549
2026-01-12 01:37:53.72	136.56	70.25	-36.8	-38.6	21.8	0.00e+00	0	44	0	2100297728	44	4599
2026-01-12 01:37:55.00	138.12	69.94	-37.1	-38.8	21.5	0.00e+00	0	44	0	2107637760	44	4751
2026-01-12 01:37:55.71	138.97	69.76	-36.9	-38.7	21.7	0.00e+00	0	44	0	2111832064	44	4666
2026-01-12 01:37:56.99	140.45	69.42	-36.9	-38.7	21.7	0.00e+00	0	44	0	2119172096	44	4663
2026-01-12 01:37:57.72	141.27	69.22	-36.8	-38.6	21.8	0.00e+00	0	44	0	2122317824	44	4599
2026-01-12 01:37:59.25	142.94	68.80	-36.8	-38.6	21.7	0.00e+00	0	44	0	2131755008	44	4600
2026-01-12 01:38:00.23	143.97	68.52	-37.0	-38.8	21.6	0.00e+00	0	44	0	2136997888	44	4707
2026-01-12 01:38:01.22	144.99	68.24	-37.0	-38.7	21.6	0.00e+00	0	44	0	2142240768	44	4700
2026-01-12 01:38:02.21	145.97	67.94	-36.8	-38.6	21.7	0.00e+00	0	44	0	2147483648	44	4609
2026-01-12 01:38:03.21	146.94	67.64	-37.0	-38.8	21.6	0.00e+00	0	44	0	2153775104	44	4708
2026-01-12 01:38:04.21	147.88	67.34	-37.1	-38.9	21.5	0.00e+00	0	44	0	2159017984	44	4776
2026-01-12 01:38:05.21	148.79	67.03	-37.1	-38.9	21.5	0.00e+00	0	44	0	2165309440	44	4806
2026-01-12 01:38:06.20	149.66	66.72	-37.1	-38.9	21.5	0.00e+00	0	44	0	2170552320	44	4763
2026-01-12 01:38:07.24	150.56	66.40	-37.3	-39.0	21.4	0.00e+00	0	44	0	2176843776	45	4582
2026-01-12 01:38:08.27	151.41	66.07	-37.1	-38.9	21.5	0.00e+00	0	44	0	2182086656	45	4503
2026-01-12 01:38:09.26	152.22	65.75	-36.9	-38.7	21.7	0.00e+00	0	44	0	2187329536	45	4392
2026-01-12 01:38:10.26	153.00	65.42	-37.0	-38.7	21.6	0.00e+00	0	44	0	2193620992	45	4440
2026-01-12 01:38:11.25	153.76	65.10	-37.3	-39.1	21.3	0.00e+00	0	44	0	2198863872	45	4627
2026-01-12 01:38:12.25	154.50	64.77	-37.2	-39.0	21.4	0.00e+00	0	44	0	2204106752	45	4560
2026-01-12 01:38:13.24	155.21	64.44	-37.1	-38.8	21.6	0.00e+00	0	44	0	2210398208	45	4482
2026-01-12 01:38:14.44	156.05	64.04	-37.3	-39.0	21.4	0.00e+00	0	44	0	2216689664	45	4585
2026-01-12 01:38:15.32	156.64	63.74	-37.4	-39.2	21.3	0.00e+00	0	44	0	2221932544	45	4664
2026-01-12 01:38:16.63	157.50	63.30	-37.5	-39.3	21.2	0.00e+00	0	44	0	2229272576	45	4722
2026-01-12 01:38:17.34	157.95	63.05	-37.5	-39.3	21.2	0.00e+00	0	44	0	2233466880	45	4713
2026-01-12 01:38:18.83	158.87	62.55	-37.4	-39.1	21.3	0.00e+00	0	44	0	2241855488	45	4642
2026-01-12 01:38:19.54	159.30	62.30	-37.2	-39.0	21.5	0.00e+00	0	44	0	2246049792	45	4554
2026-01-12 01:38:20.82	160.05	61.86	-37.1	-38.9	21.6	0.00e+00	0	44	0	2252341248	45	4500
2026-01-12 01:38:21.53	160.45	61.62	-37.1	-38.8	21.5	0.00e+00	0	44	0	2256535552	45	4484
2026-01-12 01:38:22.81	161.15	61.18	-37.2	-39.0	21.4	0.00e+00	0	44	0	2263875584	45	4571
2026-01-12 01:38:23.52	161.53	60.94	-37.4	-39.1	21.3	0.00e+00	0	44	0	2268069888	45	4634
2026-01-12 01:38:24.80	162.20	60.49	-37.5	-39.3	21.2	0.00e+00	0	44	0	2275409920	45	4716
2026-01-12 01:38:25.51	162.56	60.25	-37.6	-39.4	21.1	0.00e+00	0	44	0	2278555648	45	4789
2026-01-12 01:38:26.79	163.20	59.81	-38.0	-39.8	20.8	0.00e+00	0	44	0	2285895680	46	4744
2026-01-12 01:38:27.51	163.54	59.56	-38.2	-40.0	20.6	0.00e+00	0	44	0	2290089984	47	4577
2026-01-12 01:38:28.78	164.14	59.12	-38.2	-40.1	20.6	0.00e+00	0	44	0	2297430016	47	4607
2026-01-12 01:38:29.50	164.47	58.87	-38.1	-39.9	20.7	0.00e+00	0	44	0	2301624320	47	4508
2026-01-12 01:38:30.77	165.04	58.44	-38.1	-39.8	20.8	0.00e+00	0	44	0	2308964352	47	4492
2026-01-12 01:38:31.48	165.35	58.19	-38.3	-40.1	20.6	0.00e+00	0	44	0	2313158656	47	4603
2026-01-12 01:38:32.77	165.89	57.75	-38.3	-40.1	20.6	0.00e+00	0	44	0	2319450112	47	4599
2026-01-12 01:38:33.48	166.19	57.50	-38.1	-39.9	20.7	0.00e+00	0	44	0	2323644416	47	4529
2026-01-12 01:38:34.76	166.70	57.07	-38.4	-40.2	20.4	0.00e+00	0	44	0	2330984448	47	4684
2026-01-12 01:38:35.47	166.98	56.82	-38.3	-40.1	20.4	0.00e+00	0	44	0	2335178752	47	4651
2026-01-12 01:38:36.75	167.47	56.39	-38.4	-40.3	20.3	0.00e+00	0	44	0	2342518784	47	4716
2026-01-12 01:38:37.46	167.74	56.15	-38.6	-40.4	20.2	0.00e+00	0	44	0	2346713088	47	4806
2026-01-12 01:38:38.74	168.21	55.71	-38.8	-40.7	20.1	0.00e+00	0	44	0	2354053120	48	4697
2026-01-12 01:38:39.47	168.47	55.47	-38.8	-40.7	20.2	0.00e+00	0	44	0	2357198848	48	4683
2026-01-12 01:38:40.75	168.92	55.04	-38.9	-40.7	20.2	0.00e+00	0	44	0	2364538880	48	4685
2026-01-12 01:38:41.46	169.16	54.80	-38.9	-40.8	20.2	0.00e+00	0	44	0	2368733184	48	4721
2026-01-12 01:38:42.74	169.58	54.37	-39.2	-41.1	19.9	0.00e+00	0	44	0	2376073216	48	4887
2026-01-12 01:38:43.45	169.81	54.13	-39.2	-41.1	19.9	0.00e+00	0	44	0	2380267520	49	4607
2026-01-12 01:38:44.73	170.22	53.71	-39.0	-40.8	20.1	0.00e+00	0	44	0	2387607552	49	4493
2026-01-12 01:38:45.44	170.44	53.48	-38.9	-40.7	20.3	0.00e+00	0	44	0	2390753280	49	4416
2026-01-12 01:38:46.72	170.83	53.05	-38.8	-40.6	20.3	0.00e+00	0	44	0	2398093312	49	4369
2026-01-12 01:38:47.70	171.12	52.73	-38.7	-40.5	20.4	0.00e+00	0	44	0	2404384768	49	4319
2026-01-12 01:38:48.70	171.41	52.41	-38.6	-40.4	20.5	0.00e+00	0	44	0	2409627648	49	4285
2026-01-12 01:38:49.69	171.69	52.08	-38.4	-40.2	20.6	0.00e+00	0	44	0	2414870528	48	4432
2026-01-12 01:38:50.69	171.97	51.76	-38.4	-40.1	20.7	0.00e+00	0	44	0	2421161984	48	4387
2026-01-12 01:38:51.68	172.24	51.44	-38.4	-40.2	20.7	0.00e+00	0	44	0	2426404864	48	4405
2026-01-12 01:38:52.68	172.51	51.12	-38.3	-40.1	20.8	0.00e+00	0	44	0	2431647744	48	4358
2026-01-12 01:38:53.68	172.77	50.80	-38.4	-40.3	20.6	0.00e+00	0	44	0	2436890624	48	4449
2026-01-12 01:38:54.67	173.02	50.49	-38.4	-40.3	20.6	0.00e+00	0	44	0	2443182080	48	4442
2026-01-12 01:38:55.66	173.27	50.18	-38.3	-40.1	20.7	0.00e+00	0	44	0	2448424960	48	4377
2026-01-12 01:38:56.66	173.52	49.86	-38.2	-39.9	20.9	0.00e+00	0	44	0	2454716416	48	4290
2026-01-12 01:38:57.70	173.77	49.54	-37.7	-39.5	21.0	0.00e+00	0	44	0	2459959296	47	4311
2026-01-12 01:38:58.64	173.99	49.25	-37.6	-39.4	21.1	0.00e+00	0	44	0	2465202176	47	4253
2026-01-12 01:38:59.76	174.25	48.90	-37.8	-39.6	21.0	0.00e+00	0	44	0	2471493632	47	4364
2026-01-12 01:39:00.61	174.44	48.64	-37.9	-39.7	20.8	0.00e+00	0	44	0	2476736512	47	4408
2026-01-12 01:39:01.75	174.69	48.29	-37.9	-39.7	20.8	0.00e+00	0	44	0	2483027968	47	4430
2026-01-12 01:39:02.71	174.90	48.00	-37.8	-39.6	20.9	0.00e+00	0	44	0	2488270848	47	4375
2026-01-12 01:39:03.88	175.15	47.64	-37.7	-39.5	20.9	0.00e+00	0	44	0	2494562304	47	4333
2026-01-12 01:39:04.74	175.33	47.39	-37.8	-39.6	20.9	0.00e+00	0	44	0	2499805184	47	4391
2026-01-12 01:39:06.08	175.61	46.99	-37.9	-39.7	20.8	0.00e+00	0	44	0	2507145216	47	4414
2026-01-12 01:39:06.79	175.75	46.78	-37.9	-39.7	20.8	0.00e+00	0	44	0	2511339520	47	4418
2026-01-12 01:39:08.07	176.00	46.40	-37.9	-39.7	20.8	0.00e+00	0	44	0	2518679552	47	4416
2026-01-12 01:39:08.78	176.14	46.19	-37.8	-39.6	20.9	0.00e+00	0	44	0	2522873856	47	4371
2026-01-12 01:39:10.06	176.38	45.82	-37.9	-39.6	20.8	0.00e+00	0	44	0	2529165312	47	4391
2026-01-12 01:39:10.78	176.52	45.61	-37.8	-39.6	20.8	0.00e+00	0	44	0	2533359616	47	4364
2026-01-12 01:39:12.06	176.75	45.24	-37.7	-39.5	20.9	0.00e+00	0	44	0	2540699648	47	4325
2026-01-12 01:39:12.77	176.88	45.04	-37.7	-39.5	21.0	0.00e+00	0	44	0	2544893952	47	4296
2026-01-12 01:39:14.05	177.11	44.67	-37.8	-39.6	20.9	0.00e+00	0	44	0	2552233984	47	4352
2026-01-12 01:39:14.81	177.24	44.46	-37.8	-39.6	20.8	0.00e+00	0	44	0	2556428288	47	4380
2026-01-12 01:39:16.08	177.46	44.10	-37.8	-39.6	20.8	0.00e+00	0	44	0	2563768320	47	4364
2026-01-12 01:39:16.81	177.58	43.90	-37.7	-39.5	20.9	0.00e+00	0	44	0	2567962624	47	4338
2026-01-12 01:39:18.12	177.80	43.53	-37.7	-39.5	21.0	0.00e+00	0	44	0	2575302656	47	4305
2026-01-12 01:39:18.83	177.91	43.34	-37.7	-39.4	21.0	0.00e+00	0	44	0	2579496960	47	4283
2026-01-12 01:39:20.11	178.12	42.99	-37.5	-39.3	21.2	0.00e+00	0	44	0	2585788416	47	4197
2026-01-12 01:39:20.82	178.23	42.79	-37.5	-39.2	21.2	0.00e+00	0	44	0	2589982720	47	4190
2026-01-12 01:39:22.23	178.44	42.41	-37.5	-39.3	21.1	0.00e+00	0	44	0	2598371328	46	4470
2026-01-12 01:39:22.94	178.55	42.22	-37.5	-39.3	21.1	0.00e+00	0	44	0	2602565632	46	4481
2026-01-12 01:39:24.22	178.74	41.88	-37.6	-39.4	21.0	0.00e+00	0	44	0	2608857088	46	4525
2026-01-12 01:39:25.30	178.90	41.59	-37.6	-39.5	21.0	0.00e+00	0	44	0	2615148544	46	4547
2026-01-12 01:39:26.16	179.03	41.37	-37.6	-39.4	21.0	0.00e+00	0	44	0	2620391424	46	4540
2026-01-12 01:39:27.30	179.19	41.07	-37.7	-39.5	21.0	0.00e+00	0	44	0	2626682880	46	4553
2026-01-12 01:39:28.15	179.31	40.85	-37.5	-39.3	21.1	0.00e+00	0	44	0	2631925760	46	4447
2026-01-12 01:39:29.32	179.47	40.55	-37.3	-39.1	21.3	0.00e+00	0	44	0	2638217216	46	4367
2026-01-12 01:39:30.17	179.58	40.33	-37.4	-39.1	21.2	0.00e+00	0	44	0	2642411520	46	4380
2026-01-12 01:39:31.31	179.74	40.04	-37.3	-39.1	21.3	0.00e+00	0	44	0	2648702976	46	4344
2026-01-12 01:39:32.16	179.85	39.82	-37.1	-38.8	21.5	0.00e+00	0	44	0	2653945856	46	4218
2026-01-12 01:39:33.42	180.01	39.51	-37.0	-38.7	21.6	0.00e+00	0	44	0	2661285888	45	4419
2026-01-12 01:39:34.21	180.11	39.31	-37.0	-38.7	21.5	0.00e+00	0	44	0	2665480192	45	4430
2026-01-12 01:39:35.41	180.26	39.01	-37.1	-38.9	21.4	0.00e+00	0	44	0	2671771648	45	4498
2026-01-12 01:39:36.26	180.37	38.80	-37.1	-38.9	21.3	0.00e+00	0	44	0	2677014528	45	4531
2026-01-12 01:39:37.55	180.52	38.49	-37.3	-39.1	21.2	0.00e+00	0	44	0	2684354560	45	4630
2026-01-12 01:39:38.26	180.61	38.31	-37.3	-39.2	21.1	0.00e+00	0	44	0	2688548864	45	4657
2026-01-12 01:39:39.54	180.76	38.00	-37.2	-39.0	21.2	0.00e+00	0	44	0	2695888896	45	4592
2026-01-12 01:39:40.26	180.84	37.83	-37.3	-39.1	21.2	0.00e+00	0	44	0	2699034624	45	4605
2026-01-12 01:39:41.54	180.99	37.53	-37.2	-39.0	21.3	0.00e+00	0	44	0	2706374656	45	4565
2026-01-12 01:39:42.28	181.08	37.35	-37.3	-39.1	21.2	0.00e+00	0	44	0	2710568960	45	4600
2026-01-12 01:39:43.56	181.22	37.05	-37.3	-39.1	21.2	0.00e+00	0	44	0	2717908992	45	4600
2026-01-12 01:39:44.27	181.30	36.89	-37.3	-39.0	21.2	0.00e+00	0	44	0	2722103296	45	4581
2026-01-12 01:39:45.55	181.44	36.59	-37.3	-39.0	21.2	0.00e+00	0	44	0	2729443328	45	4595
2026-01-12 01:39:46.28	181.51	36.42	-37.4	-39.2	21.1	0.00e+00	0	44	0	2733637632	45	4671
2026-01-12 01:39:47.56	181.65	36.13	-37.4	-39.2	21.1	0.00e+00	0	44	0	2740977664	45	4693
2026-01-12 01:39:48.27	181.72	35.97	-37.5	-39.3	21.0	0.00e+00	0	44	0	2744123392	45	4753
2026-01-12 01:39:49.55	181.86	35.68	-37.5	-39.3	21.0	0.00e+00	0	44	0	2751463424	45	4747
2026-01-12 01:39:50.26	181.93	35.52	-37.5	-39.3	21.0	0.00e+00	0	44	0	2755657728	45	4749
2026-01-12 01:39:51.54	182.06	35.23	-37.6	-39.4	20.9	0.00e+00	0	44	0	2762997760	45	4789
2026-01-12 01:39:52.25	182.13	35.07	-37.6	-39.4	20.9	0.00e+00	0	44	0	2767192064	45	4795
2026-01-12 01:39:53.64	182.26	34.77	-37.5	-39.3	21.0	0.00e+00	0	44	0	2774532096	45	4710
2026-01-12 01:39:54.35	182.33	34.61	-37.4	-39.2	21.1	0.00e+00	0	44	0	2778726400	45	4676
2026-01-12 01:39:55.67	182.46	34.33	-37.4	-39.2	21.1	0.00e+00	0	44	0	2786066432	45	4661
2026-01-12 01:39:56.38	182.52	34.17	-37.4	-39.1	21.1	0.00e+00	0	44	0	2790260736	45	4648
2026-01-12 01:39:57.66	182.64	33.90	-37.5	-39.3	21.0	0.00e+00	0	44	0	2797600768	45	4706
2026-01-12 01:39:58.39	182.71	33.75	-37.5	-39.3	21.0	0.00e+00	0	44	0	2801795072	45	4709
2026-01-12 01:39:59.76	182.83	33.46	-37.7	-39.5	20.8	0.00e+00	0	44	0	2809135104	45	4826
2026-01-12 01:40:00.45	182.89	33.31	-37.6	-39.4	20.9	0.00e+00	0	44	0	2813329408	45	4813
2026-01-12 01:40:01.98	183.03	32.99	-37.7	-39.6	20.8	0.00e+00	0	44	0	2821718016	46	4603
2026-01-12 01:40:02.69	183.09	32.85	-37.7	-39.5	20.8	0.00e+00	0	44	0	2825912320	46	4582
2026-01-12 01:40:03.99	183.20	32.58	-37.7	-39.5	20.8	0.00e+00	0	44	0	2833252352	46	4582
2026-01-12 01:40:04.70	183.26	32.43	-37.7	-39.5	20.8	0.00e+00	0	44	0	2837446656	46	4568
2026-01-12 01:40:05.98	183.37	32.17	-37.7	-39.5	20.8	0.00e+00	0	44	0	2843738112	46	4573
2026-01-12 01:40:06.73	183.43	32.02	-37.6	-39.5	20.8	0.00e+00	0	44	0	2848980992	46	4556
2026-01-12 01:40:08.04	183.54	31.76	-37.8	-39.6	20.7	0.00e+00	0	44	0	2856321024	46	4636
2026-01-12 01:40:08.75	183.59	31.62	-37.7	-39.6	20.8	0.00e+00	0	44	0	2859466752	46	4602
2026-01-12 01:40:10.08	183.70	31.36	-37.7	-39.6	20.8	0.00e+00	0	44	0	2867855360	46	4613
2026-01-12 01:40:11.08	183.78	31.16	-37.7	-39.5	20.9	0.00e+00	0	44	0	2873098240	46	4571
2026-01-12 01:40:12.38	183.88	30.91	-37.8	-39.6	20.8	0.00e+00	0	44	0	2880438272	46	4633
2026-01-12 01:40:13.09	183.93	30.77	-37.8	-39.6	20.8	0.00e+00	0	44	0	2884632576	46	4614
2026-01-12 01:40:14.37	184.03	30.52	-37.8	-39.6	20.8	0.00e+00	0	44	0	2890924032	46	4632
2026-01-12 01:40:15.08	184.08	30.39	-37.8	-39.6	20.7	0.00e+00	0	44	0	2895118336	46	4644
2026-01-12 01:40:16.36	184.18	30.15	-37.7	-39.6	20.8	0.00e+00	0	44	0	2902458368	46	4600
2026-01-12 01:40:17.23	184.24	29.98	-37.7	-39.5	20.8	0.00e+00	0	44	0	2907701248	46	4581
2026-01-12 01:40:18.37	184.33	29.77	-37.8	-39.6	20.8	0.00e+00	0	44	0	2913992704	46	4620
2026-01-12 01:40:19.41	184.40	29.58	-37.8	-39.6	20.7	0.00e+00	0	44	0	2919235584	46	4639
2026-01-12 01:40:20.40	184.47	29.39	-37.7	-39.6	20.8	0.00e+00	0	44	0	2925527040	46	4608
2026-01-12 01:40:21.40	184.54	29.21	-37.7	-39.5	20.8	0.00e+00	0	44	0	2930769920	46	4576
2026-01-12 01:40:22.39	184.61	29.03	-37.7	-39.5	20.8	0.00e+00	0	44	0	2937061376	46	4560
2026-01-12 01:40:23.39	184.68	28.85	-37.8	-39.6	20.7	0.00e+00	0	44	0	2942304256	46	4624
2026-01-12 01:40:24.38	184.75	28.67	-37.8	-39.7	20.7	0.00e+00	0	44	0	2947547136	46	4670
2026-01-12 01:40:25.38	184.81	28.49	-37.7	-39.5	20.8	0.00e+00	0	44	0	2953838592	46	4592
2026-01-12 01:40:26.38	184.88	28.31	-37.7	-39.5	20.8	0.00e+00	0	44	0	2959081472	46	4590
2026-01-12 01:40:27.37	184.94	28.14	-37.7	-39.5	20.8	0.00e+00	0	44	0	2964324352	46	4575
2026-01-12 01:40:28.38	185.01	27.96	-37.8	-39.6	20.7	0.00e+00	0	44	0	2970615808	46	4634
2026-01-12 01:40:29.38	185.07	27.78	-37.8	-39.7	20.6	0.00e+00	0	44	0	2975858688	46	4660
2026-01-12 01:40:30.45	185.14	27.60	-37.9	-39.8	20.6	0.00e+00	0	44	0	2982150144	46	4730
2026-01-12 01:40:31.34	185.20	27.44	-37.8	-39.7	20.6	0.00e+00	0	44	0	2987393024	46	4669
2026-01-12 01:40:32.48	185.27	27.25	-37.8	-39.6	20.7	0.00e+00	0	44	0	2992635904	46	4621
2026-01-12 01:40:33.33	185.32	27.10	-37.8	-39.6	20.7	0.00e+00	0	44	0	2997878784	46	4647
2026-01-12 01:40:34.47	185.39	26.91	-37.8	-39.7	20.6	0.00e+00	0	44	0	3004170240	46	4658
2026-01-12 01:40:35.32	185.44	26.77	-37.8	-39.6	20.7	0.00e+00	0	44	0	3009413120	46	4640
2026-01-12 01:40:36.46	185.51	26.58	-37.8	-39.6	20.7	0.00e+00	0	44	0	3015704576	46	4647
2026-01-12 01:40:37.31	185.56	26.43	-37.8	-39.6	20.7	0.00e+00	0	44	0	3019898880	46	4618
2026-01-12 01:40:38.45	185.63	26.25	-37.8	-39.6	20.7	0.00e+00	0	44	0	3027238912	46	4638
2026-01-12 01:40:39.30	185.68	26.11	-37.8	-39.6	20.7	0.00e+00	0	44	0	3031433216	46	4638
2026-01-12 01:40:40.44	185.74	25.92	-37.8	-39.7	20.6	0.00e+00	0	44	0	3037724672	46	4653
2026-01-12 01:40:41.29	185.79	25.78	-37.8	-39.6	20.7	0.00e+00	0	44	0	3042967552	46	4614
2026-01-12 01:40:42.43	185.86	25.60	-37.8	-39.6	20.7	0.00e+00	0	44	0	3049259008	46	4622
2026-01-12 01:40:43.28	185.91	25.46	-37.8	-39.6	20.7	0.00e+00	0	44	0	3054501888	46	4631
2026-01-12 01:40:44.50	185.97	25.27	-37.9	-39.7	20.6	0.00e+00	0	44	0	3060793344	46	4664
2026-01-12 01:40:45.35	186.02	25.13	-37.8	-39.6	20.7	0.00e+00	0	44	0	3066036224	46	4614
2026-01-12 01:40:46.49	186.08	24.95	-37.9	-39.7	20.7	0.00e+00	0	44	0	3072327680	46	4657
2026-01-12 01:40:47.34	186.13	24.82	-37.8	-39.7	20.6	0.00e+00	0	44	0	3076521984	46	4652
2026-01-12 01:40:48.48	186.19	24.64	-37.9	-39.7	20.6	0.00e+00	0	44	0	3083862016	46	4694
2026-01-12 01:40:49.33	186.23	24.51	-38.0	-39.8	20.5	0.00e+00	0	44	0	3088056320	46	4731
2026-01-12 01:40:50.47	186.29	24.33	-38.0	-39.9	20.5	0.00e+00	0	44	0	3094347776	46	4763
2026-01-12 01:40:51.32	186.34	24.20	-38.0	-39.8	20.5	0.00e+00	0	44	0	3099590656	46	4723
2026-01-12 01:40:52.68	186.41	23.99	-38.0	-39.9	20.5	0.00e+00	0	44	0	3106930688	46	4770
2026-01-12 01:40:53.39	186.44	23.89	-38.1	-39.9	20.4	0.00e+00	0	44	0	3111124992	46	4811
2026-01-12 01:40:54.68	186.51	23.69	-38.2	-40.0	20.3	0.00e+00	0	44	0	3118465024	46	4860
2026-01-12 01:40:55.39	186.54	23.59	-38.2	-40.1	20.3	0.00e+00	0	44	0	3122659328	47	4605
2026-01-12 01:40:56.68	186.61	23.39	-38.2	-40.1	20.3	0.00e+00	0	44	0	3129999360	47	4614
2026-01-12 01:40:57.39	186.64	23.29	-38.2	-40.1	20.3	0.00e+00	0	44	0	3133145088	47	4608
2026-01-12 01:40:58.67	186.71	23.10	-38.3	-40.1	20.2	0.00e+00	0	44	0	3140485120	47	4650
2026-01-12 01:40:59.39	186.74	23.00	-38.3	-40.2	20.2	0.00e+00	0	44	0	3144679424	47	4665
2026-01-12 01:41:00.67	186.80	22.81	-38.4	-40.3	20.1	0.00e+00	0	44	0	3152019456	47	4711
2026-01-12 01:41:01.41	186.84	22.70	-38.4	-40.3	20.1	0.00e+00	0	44	0	3156213760	47	4741
2026-01-12 01:41:02.69	186.90	22.52	-38.4	-40.3	20.1	0.00e+00	0	44	0	3163553792	47	4736
2026-01-12 01:41:03.58	186.94	22.39	-38.4	-40.3	20.1	0.00e+00	0	44	0	3168796672	47	4738
2026-01-12 01:41:04.71	186.99	22.23	-38.5	-40.4	20.0	0.00e+00	0	44	0	3174039552	47	4765
2026-01-12 01:41:05.57	187.03	22.11	-38.5	-40.4	20.0	0.00e+00	0	44	0	3179282432	47	4766
2026-01-12 01:41:06.70	187.08	21.95	-38.5	-40.4	20.0	0.00e+00	0	44	0	3185573888	47	4806
2026-01-12 01:41:07.81	187.13	21.79	-38.5	-40.4	20.0	0.00e+00	0	44	0	3191865344	47	4791
2026-01-12 01:41:08.83	187.18	21.65	-38.5	-40.4	20.0	0.00e+00	0	44	0	3198156800	47	4798
2026-01-12 01:41:10.00	187.23	21.49	-38.5	-40.4	20.0	0.00e+00	0	44	0	3204448256	47	4796
2026-01-12 01:41:10.85	187.27	21.37	-38.6	-40.5	19.9	0.00e+00	0	44	0	3208642560	47	4826
2026-01-12 01:41:11.99	187.32	21.22	-38.5	-40.4	19.9	0.00e+00	0	44	0	3215982592	47	4813
2026-01-12 01:41:12.84	187.35	21.10	-38.6	-40.5	19.9	0.00e+00	0	44	0	3220176896	47	4831
2026-01-12 01:41:13.98	187.40	20.95	-38.7	-40.6	20.1	0.00e+00	0	44	0	3226468352	48	4617
2026-01-12 01:41:14.83	187.44	20.83	-38.7	-40.5	20.1	0.00e+00	0	44	0	3231711232	48	4593
2026-01-12 01:41:15.97	187.49	20.68	-38.8	-40.7	20.0	0.00e+00	0	44	0	3238002688	48	4666
2026-01-12 01:41:16.82	187.52	20.57	-38.8	-40.7	20.0	0.00e+00	0	44	0	3242196992	48	4671
2026-01-12 01:41:17.96	187.57	20.41	-38.8	-40.6	20.0	0.00e+00	0	44	0	3249537024	48	4649
2026-01-12 01:41:18.81	187.60	20.30	-38.8	-40.7	20.0	0.00e+00	0	44	0	3253731328	48	4653
2026-01-12 01:41:19.94	187.65	20.15	-38.8	-40.7	20.0	0.00e+00	0	44	0	3260022784	48	4658
2026-01-12 01:41:20.80	187.68	20.04	-38.8	-40.7	20.0	0.00e+00	0	44	0	3265265664	48	4656
2026-01-12 01:41:22.03	187.73	19.88	-38.8	-40.7	20.0	0.00e+00	0	44	0	3272605696	48	4662
2026-01-12 01:41:22.88	187.77	19.77	-38.8	-40.7	20.0	0.00e+00	0	44	0	3276800000	48	4659
2026-01-12 01:41:24.09	187.82	19.62	-38.9	-40.7	19.9	0.00e+00	0	44	0	3284140032	48	4694
2026-01-12 01:41:24.94	187.85	19.51	-38.9	-40.7	19.9	0.00e+00	0	44	0	3288334336	48	4699
2026-01-12 01:41:26.08	187.89	19.36	-38.9	-40.8	19.9	0.00e+00	0	44	0	3294625792	48	4729
2026-01-12 01:41:26.93	187.93	19.25	-38.9	-40.8	19.9	0.00e+00	0	44	0	3299868672	48	4734
2026-01-12 01:41:28.07	187.97	19.11	-39.0	-40.8	19.8	0.00e+00	0	44	0	3306160128	48	4757
2026-01-12 01:41:28.92	188.00	19.00	-39.0	-40.9	19.8	0.00e+00	0	44	0	3310354432	48	4766
2026-01-12 01:41:30.06	188.05	18.86	-39.0	-40.9	19.8	0.00e+00	0	44	0	3316645888	48	4776
2026-01-12 01:41:30.91	188.08	18.76	-39.0	-40.9	19.8	0.00e+00	0	44	0	3321888768	48	4762
2026-01-12 01:41:32.05	188.12	18.62	-39.0	-40.9	19.8	0.00e+00	0	44	0	3328180224	48	4793
2026-01-12 01:41:32.90	188.15	18.51	-39.2	-41.1	19.6	0.00e+00	0	44	0	3333423104	49	4602
2026-01-12 01:41:34.04	188.19	18.37	-39.1	-41.0	19.7	0.00e+00	0	44	0	3339714560	49	4550
2026-01-12 01:41:34.89	188.22	18.27	-39.1	-41.0	19.7	0.00e+00	0	44	0	3343908864	49	4550
2026-01-12 01:41:36.03	188.27	18.13	-39.2	-41.1	19.6	0.00e+00	0	44	0	3350200320	49	4599
2026-01-12 01:41:36.88	188.30	18.03	-39.3	-41.2	19.5	0.00e+00	0	44	0	3355443200	49	4671
2026-01-12 01:41:38.01	188.34	17.89	-39.4	-41.3	19.4	0.00e+00	0	44	0	3361734656	49	4738
2026-01-12 01:41:38.87	188.37	17.79	-39.4	-41.3	19.4	0.00e+00	0	44	0	3366977536	49	4754
2026-01-12 01:41:40.12	188.41	17.64	-39.4	-41.3	19.4	0.00e+00	0	44	0	3373268992	49	4750
2026-01-12 01:41:40.97	188.44	17.54	-39.5	-41.5	19.3	0.00e+00	0	44	0	3378511872	49	4818
2026-01-12 01:41:42.11	188.48	17.41	-39.7	-41.7	19.1	0.00e+00	0	44	0	3384803328	50	4653
2026-01-12 01:41:42.96	188.51	17.31	-39.7	-41.7	19.1	0.00e+00	0	44	0	3390046208	50	4659
2026-01-12 01:41:44.10	188.55	17.17	-39.8	-41.8	19.0	0.00e+00	0	44	0	3396337664	50	4707
2026-01-12 01:41:44.95	188.58	17.08	-39.7	-41.7	19.1	0.00e+00	0	44	0	3400531968	50	4672
2026-01-12 01:41:46.09	188.61	16.94	-39.7	-41.7	19.0	0.00e+00	0	44	0	3407872000	50	4672
2026-01-12 01:41:47.05	188.65	16.83	-39.7	-41.6	19.1	0.00e+00	0	44	0	3413114880	50	4643
2026-01-12 01:41:48.04	188.68	16.72	-39.8	-41.8	19.0	0.00e+00	0	44	0	3418357760	50	4720
2026-01-12 01:41:49.04	188.71	16.61	-39.8	-41.8	18.9	0.00e+00	0	44	0	3423600640	50	4750
2026-01-12 01:41:50.03	188.75	16.49	-39.9	-41.9	18.9	0.00e+00	0	44	0	3429892096	50	4763
2026-01-12 01:41:51.03	188.78	16.38	-39.9	-41.9	18.9	0.00e+00	0	44	0	3435134976	50	4786
2026-01-12 01:41:52.02	188.81	16.27	-39.9	-41.9	18.8	0.00e+00	0	44	0	3440377856	50	4809
2026-01-12 01:41:53.02	188.84	16.16	-40.0	-42.1	18.7	0.00e+00	0	44	0	3446669312	50	4876
2026-01-12 01:41:54.01	188.87	16.05	-40.1	-42.1	18.7	0.00e+00	0	44	0	3451912192	50	4885
2026-01-12 01:41:55.01	188.90	15.94	-40.2	-42.2	18.6	0.00e+00	0	44	0	3457155072	51	4679
2026-01-12 01:41:56.00	188.94	15.83	-40.1	-42.1	18.6	0.00e+00	0	44	0	3463446528	51	4635
2026-01-12 01:41:57.03	188.97	15.72	-40.1	-42.2	18.6	0.00e+00	0	44	0	3468689408	51	4672
2026-01-12 01:41:58.02	189.00	15.61	-40.2	-42.2	18.5	0.00e+00	0	44	0	3473932288	51	4698
2026-01-12 01:41:59.02	189.03	15.50	-40.2	-42.3	18.5	0.00e+00	0	44	0	3480223744	51	4731
2026-01-12 01:42:00.01	189.06	15.39	-40.3	-42.3	18.4	0.00e+00	0	44	0	3485466624	51	4742
2026-01-12 01:42:01.00	189.09	15.28	-40.3	-42.4	18.4	0.00e+00	0	44	0	3490709504	51	4761
2026-01-12 01:42:02.00	189.12	15.18	-40.3	-42.3	18.4	0.00e+00	0	44	0	3497000960	51	4752
2026-01-12 01:42:02.99	189.15	15.07	-40.3	-42.4	18.4	0.00e+00	0	44	0	3502243840	51	4774
2026-01-12 01:42:03.99	189.18	14.96	-40.4	-42.4	18.3	0.00e+00	0	44	0	3508535296	51	4810
2026-01-12 01:42:04.98	189.21	14.86	-40.4	-42.4	18.3	0.00e+00	0	44	0	3513778176	51	4805
2026-01-12 01:42:05.98	189.24	14.75	-40.4	-42.5	18.3	0.00e+00	0	44	0	3519021056	51	4845
2026-01-12 01:42:06.97	189.27	14.65	-40.4	-42.5	18.3	0.00e+00	0	44	0	3524263936	51	4848
2026-01-12 01:42:07.96	189.30	14.55	-40.5	-42.5	18.2	0.00e+00	0	44	0	3530555392	51	4860
2026-01-12 01:42:08.96	189.33	14.44	-40.5	-42.6	18.2	0.00e+00	0	44	0	3535798272	51	4891
2026-01-12 01:42:09.96	189.35	14.34	-40.6	-42.7	18.1	0.00e+00	0	44	0	3541041152	51	4934
2026-01-12 01:42:10.95	189.38	14.24	-40.6	-42.7	18.1	0.00e+00	0	44	0	3547332608	51	4961
2026-01-12 01:42:11.95	189.41	14.13	-40.5	-42.6	18.2	0.00e+00	0	44	0	3552575488	51	4893
2026-01-12 01:42:12.99	189.44	14.03	-40.5	-42.6	18.2	0.00e+00	0	44	0	3558866944	51	4899
2026-01-12 01:42:13.98	189.47	13.92	-40.6	-42.6	18.1	0.00e+00	0	44	0	3564109824	51	4919
2026-01-12 01:42:14.98	189.50	13.82	-40.5	-42.6	18.1	0.00e+00	0	44	0	3570401280	51	4904
2026-01-12 01:42:15.97	189.52	13.72	-40.6	-42.8	17.9	0.00e+00	0	44	0	3575644160	52	4706
2026-01-12 01:42:16.97	189.55	13.62	-40.5	-42.6	18.1	0.00e+00	0	44	0	3580887040	52	4639
2026-01-12 01:42:17.97	189.58	13.52	-40.5	-42.6	18.1	0.00e+00	0	44	0	3586129920	52	4609
2026-01-12 01:42:18.96	189.60	13.42	-40.5	-42.6	18.0	0.00e+00	0	44	0	3592421376	52	4649
2026-01-12 01:42:19.95	189.63	13.32	-40.5	-42.6	18.0	0.00e+00	0	44	0	3597664256	52	4641
2026-01-12 01:42:20.95	189.66	13.22	-40.5	-42.6	18.0	0.00e+00	0	44	0	3602907136	52	4644
2026-01-12 01:42:21.94	189.68	13.13	-40.6	-42.7	18.0	0.00e+00	0	44	0	3609198592	52	4674
2026-01-12 01:42:22.94	189.71	13.03	-40.6	-42.7	17.9	0.00e+00	0	44	0	3614441472	52	4702
2026-01-12 01:42:23.93	189.74	12.93	-40.6	-42.8	17.9	0.00e+00	0	44	0	3620732928	52	4724
2026-01-12 01:42:24.93	189.76	12.83	-40.6	-42.8	17.9	0.00e+00	0	44	0	3625975808	52	4729
2026-01-12 01:42:25.92	189.79	12.74	-40.6	-42.8	17.9	0.00e+00	0	44	0	3631218688	52	4726
2026-01-12 01:42:26.96	189.82	12.64	-40.7	-42.9	17.8	0.00e+00	0	44	0	3637510144	52	4762
2026-01-12 01:42:27.97	189.84	12.54	-40.6	-42.8	17.9	0.00e+00	0	44	0	3642753024	52	4726
2026-01-12 01:42:29.00	189.87	12.44	-40.7	-42.9	17.8	0.00e+00	0	44	0	3649044480	52	4795
2026-01-12 01:42:29.99	189.89	12.35	-40.8	-43.0	17.7	0.00e+00	0	44	0	3654287360	52	4823
2026-01-12 01:42:30.99	189.92	12.25	-40.8	-43.0	17.7	0.00e+00	0	44	0	3659530240	52	4820
2026-01-12 01:42:32.06	189.95	12.15	-40.7	-42.9	17.8	0.00e+00	0	44	0	3665821696	52	4795
2026-01-12 01:42:32.91	189.97	12.07	-40.8	-43.0	17.7	0.00e+00	0	44	0	3671064576	52	4825
2026-01-12 01:42:34.05	190.00	11.96	-40.9	-43.1	17.6	0.00e+00	0	44	0	3677356032	52	4901
2026-01-12 01:42:34.90	190.02	11.88	-40.8	-43.0	17.7	0.00e+00	0	44	0	3681550336	52	4840
2026-01-12 01:42:36.04	190.04	11.77	-40.9	-43.1	17.6	0.00e+00	0	44	0	3687841792	52	4898
2026-01-12 01:42:36.89	190.07	11.70	-40.9	-43.1	17.5	0.00e+00	0	44	0	3693084672	52	4904
