passes_logs/2026/01/12/T1/T1__20260112_005221_NOAA_20_JPSS-1_rec.log

#Pass ID: 20260112_005221_NOAA 20 (JPSS-1)
#Satellite: NOAA 20 (JPSS-1)
#Configuration: NOAA 20
#almurnet v.1.7.20251203
#Start time: 2026-01-12 00:52:21

#Version: 2.0.20230620
#Station: T1
#Location: 37.570604 lon 55.790049 lat
#TLE: 1 43013U 17073A   26011.31235446  .00000090  00000+0  63634-4 0  9991
#TLE: 2 43013  98.7632 312.2907 0001646  44.6084 315.5224 14.19535308422217

#Time	Az	El	Level	Level2	SNR	BER	BlckErr	Temp	State	Recorded	gain1	gain2
2026-01-12 00:52:21.97	9.25	5.04	-50.0	-65.8	3.8	1.49e+00	0	41	0	0	71	22326
2026-01-12 00:52:22.96	9.20	5.10	-48.1	-65.4	3.8	1.49e+00	0	41	104	0	67	26939
2026-01-12 00:52:23.96	9.14	5.17	-48.1	-65.4	3.8	1.49e+00	0	41	104	0	67	26789
2026-01-12 00:52:24.95	9.08	5.24	-48.1	-65.4	3.8	1.49e+00	0	41	104	0	67	26924
2026-01-12 00:52:25.94	9.03	5.30	-48.1	-65.3	3.8	1.49e+00	0	41	104	0	67	26736
2026-01-12 00:52:26.93	8.97	5.37	-48.1	-65.4	3.8	1.49e+00	0	41	104	0	67	26858
2026-01-12 00:52:27.93	8.91	5.43	-48.1	-65.4	3.8	1.49e+00	0	41	104	0	67	26807
2026-01-12 00:52:28.92	8.85	5.50	-48.1	-65.4	3.8	1.49e+00	0	41	104	0	67	26868
2026-01-12 00:52:29.91	8.79	5.57	-48.2	-65.3	3.8	1.49e+00	0	41	104	0	67	26702
2026-01-12 00:52:30.91	8.73	5.63	-48.2	-65.3	3.8	1.49e+00	0	41	104	0	67	26714
2026-01-12 00:52:31.90	8.67	5.70	-48.2	-65.3	3.8	1.49e+00	0	41	104	0	67	26711
2026-01-12 00:52:32.89	8.61	5.77	-48.2	-65.3	3.8	1.49e+00	0	41	104	0	67	26577
2026-01-12 00:52:33.89	8.55	5.83	-48.2	-65.3	3.8	1.49e+00	0	41	104	0	67	26635
2026-01-12 00:52:34.88	8.49	5.90	-48.2	-65.2	3.8	1.49e+00	0	41	104	0	67	26454
2026-01-12 00:52:35.87	8.43	5.97	-48.2	-65.3	3.8	1.49e+00	0	41	104	0	67	26483
2026-01-12 00:52:36.87	8.37	6.04	-48.1	-65.2	3.8	1.49e+00	0	41	104	0	67	26254
2026-01-12 00:52:37.86	8.31	6.10	-48.2	-65.1	3.8	1.49e+00	0	41	104	0	67	26136
2026-01-12 00:52:38.85	8.25	6.17	-48.2	-65.0	3.8	1.49e+00	0	41	104	0	67	25624
2026-01-12 00:52:39.85	8.19	6.24	-48.2	-64.9	3.8	1.49e+00	0	41	104	0	67	25484
2026-01-12 00:52:40.84	8.13	6.31	-48.2	-64.9	3.8	1.49e+00	0	42	104	0	67	25299
2026-01-12 00:52:41.83	8.06	6.38	-48.2	-64.8	3.8	1.49e+00	0	41	104	0	67	25207
2026-01-12 00:52:42.83	8.00	6.44	-48.2	-64.8	3.8	1.49e+00	0	42	104	0	67	25237
2026-01-12 00:52:43.82	7.94	6.51	-48.2	-64.9	3.8	1.49e+00	0	42	104	0	67	25369
2026-01-12 00:52:44.81	7.88	6.58	-48.2	-64.9	3.8	1.49e+00	0	42	104	0	67	25544
2026-01-12 00:52:45.81	7.81	6.65	-48.2	-64.9	3.8	1.49e+00	0	42	104	0	67	25342
2026-01-12 00:52:46.80	7.75	6.72	-48.2	-64.8	3.8	1.49e+00	0	42	104	0	67	25163
2026-01-12 00:52:47.79	7.68	6.79	-48.2	-64.7	3.8	1.49e+00	0	42	104	0	67	24887
2026-01-12 00:52:48.79	7.62	6.86	-48.2	-64.6	3.8	1.49e+00	0	42	104	0	67	24411
2026-01-12 00:52:49.78	7.55	6.93	-48.1	-64.5	3.8	1.49e+00	0	42	104	0	67	24236
2026-01-12 00:52:50.77	7.49	7.00	-48.2	-64.4	3.8	1.49e+00	0	42	104	0	67	24077
2026-01-12 00:52:51.77	7.42	7.07	-48.2	-64.5	3.8	1.49e+00	0	42	104	0	67	24311
2026-01-12 00:52:52.76	7.36	7.14	-48.2	-64.7	3.8	1.49e+00	0	42	104	0	67	24879
2026-01-12 00:52:53.75	7.29	7.21	-48.2	-65.0	3.8	1.49e+00	0	42	104	0	67	25647
2026-01-12 00:52:54.75	7.22	7.28	-48.2	-65.2	3.8	1.49e+00	0	42	104	0	67	26395
2026-01-12 00:52:55.74	7.16	7.35	-48.2	-65.4	3.8	1.49e+00	0	42	104	0	67	26781
2026-01-12 00:52:56.73	7.09	7.42	-48.2	-65.1	3.8	1.49e+00	0	42	104	0	67	26106
2026-01-12 00:52:57.73	7.02	7.49	-48.2	-64.3	3.8	1.49e+00	0	42	104	0	67	23722
2026-01-12 00:52:58.72	6.96	7.56	-48.2	-63.2	3.9	1.49e+00	0	42	104	0	67	20908
2026-01-12 00:52:59.71	6.89	7.63	-48.1	-62.0	4.2	1.47e+00	0	42	104	0	67	18104
2026-01-12 00:53:00.71	6.82	7.70	-48.0	-60.5	4.6	1.32e+00	0	42	0	0	67	15378
2026-01-12 00:53:01.70	6.75	7.77	-47.9	-59.1	5.3	7.92e-01	0	42	0	2097152	67	13085
2026-01-12 00:53:02.69	6.68	7.84	-47.7	-58.2	6.0	3.82e-01	0	42	0	4194304	67	11793
2026-01-12 00:53:03.69	6.61	7.92	-47.6	-56.9	7.0	2.06e-01	0	42	0	6291456	67	10173
2026-01-12 00:53:04.68	6.54	7.99	-47.5	-56.2	7.7	1.15e-01	0	42	0	7340032	67	9342
2026-01-12 00:53:05.67	6.47	8.06	-47.3	-55.4	8.6	4.41e-02	0	42	0	9437184	66	8979
2026-01-12 00:53:06.67	6.40	8.13	-47.1	-54.7	9.3	2.26e-02	0	42	0	11534336	66	8304
2026-01-12 00:53:07.66	6.33	8.20	-47.0	-54.0	10.0	1.03e-02	0	42	0	13631488	66	7646
2026-01-12 00:53:08.65	6.26	8.28	-46.8	-53.4	10.6	5.03e-03	0	42	0	14680064	65	7606
2026-01-12 00:53:09.64	6.19	8.35	-46.6	-52.8	11.3	1.47e-03	0	42	0	16777216	65	7049
2026-01-12 00:53:10.64	6.11	8.42	-46.5	-52.4	11.7	8.12e-04	0	42	0	18874368	64	7156
2026-01-12 00:53:11.63	6.04	8.49	-46.4	-52.1	11.9	5.05e-04	0	43	0	20971520	64	6937
2026-01-12 00:53:12.63	5.97	8.57	-46.3	-52.1	11.9	3.51e-04	0	42	0	23068672	64	6935
2026-01-12 00:53:13.62	5.89	8.64	-46.4	-52.2	11.9	4.33e-04	0	42	0	24117248	64	7013
2026-01-12 00:53:14.62	5.82	8.71	-46.5	-52.6	11.5	6.23e-04	0	42	0	26214400	64	7296
2026-01-12 00:53:15.61	5.74	8.79	-46.7	-53.4	10.7	1.31e-03	0	42	0	28311552	64	7993
2026-01-12 00:53:16.60	5.67	8.86	-47.0	-54.0	9.9	3.81e-03	0	42	0	30408704	64	8656
2026-01-12 00:53:17.60	5.60	8.94	-47.3	-55.4	8.6	2.22e-02	0	43	0	31457280	65	9576
2026-01-12 00:53:18.59	5.52	9.01	-47.6	-57.0	7.1	8.77e-02	0	42	0	33554432	65	11435
2026-01-12 00:53:19.58	5.44	9.08	-47.7	-57.8	6.3	2.73e-01	0	42	0	35651584	66	11917
2026-01-12 00:53:20.58	5.37	9.16	-48.0	-60.9	4.5	5.18e-01	0	43	0	37748736	66	16911
2026-01-12 00:53:21.57	5.29	9.23	-47.7	-56.7	7.1	1.31e+00	0	42	0	37748736	67	9848
2026-01-12 00:53:22.57	5.21	9.31	-46.8	-52.6	11.3	4.27e-02	0	43	0	39845888	65	6941
2026-01-12 00:53:23.57	5.14	9.38	-47.8	-56.0	8.3	3.28e-05	0	42	0	40894464	66	9627
2026-01-12 00:53:24.56	5.06	9.46	-48.2	-60.7	4.5	1.06e+00	0	43	0	42991616	67	15683
2026-01-12 00:53:25.56	4.98	9.53	-48.2	-60.5	4.6	9.41e-01	0	43	0	45088768	67	15397
2026-01-12 00:53:26.55	4.90	9.61	-48.4	-60.2	4.8	9.09e-01	0	43	0	47185920	67	14847
2026-01-12 00:53:27.55	4.82	9.68	-48.3	-60.1	4.9	8.10e-01	0	43	0	49283072	67	14608
2026-01-12 00:53:28.54	4.74	9.76	-48.4	-59.9	4.9	8.14e-01	0	43	0	50331648	67	14362
2026-01-12 00:53:29.54	4.66	9.84	-48.3	-57.7	6.4	7.85e-01	0	43	0	52428800	67	11049
2026-01-12 00:53:30.53	4.58	9.91	-48.4	-57.3	7.2	2.38e-02	0	43	0	54525952	67	10579
2026-01-12 00:53:31.53	4.50	9.99	-48.1	-54.5	9.3	9.99e-01	0	43	0	54525952	68	7224
2026-01-12 00:53:32.52	4.42	10.07	-48.1	-55.2	9.1	3.89e-05	0	43	0	55574528	66	8774
2026-01-12 00:53:33.52	4.34	10.14	-48.4	-55.8	8.0	7.69e-01	0	43	0	57671680	68	8453
2026-01-12 00:53:34.52	4.25	10.22	-46.5	-50.9	13.3	1.03e-04	0	43	0	59768832	65	5660
2026-01-12 00:53:35.51	4.17	10.30	-46.4	-50.7	13.5	2.05e-05	0	43	0	61865984	64	5894
2026-01-12 00:53:36.51	4.09	10.37	-46.4	-50.6	13.6	1.52e-05	0	43	0	62914560	64	5810
2026-01-12 00:53:37.50	4.00	10.45	-46.5	-50.8	13.4	1.37e-05	0	43	0	65011712	64	5945
2026-01-12 00:53:38.50	3.92	10.53	-46.4	-50.6	13.5	7.60e-06	0	43	0	67108864	64	5825
2026-01-12 00:53:39.49	3.83	10.61	-46.4	-50.5	13.6	9.90e-06	0	43	0	69206016	64	5769
2026-01-12 00:53:40.49	3.75	10.69	-46.3	-50.4	13.7	8.30e-06	0	43	0	71303168	64	5686
2026-01-12 00:53:41.49	3.66	10.76	-46.3	-50.4	13.8	3.80e-06	0	43	0	72351744	64	5678
2026-01-12 00:53:42.48	3.58	10.84	-46.3	-50.5	13.7	9.90e-06	0	43	0	74448896	64	5734
2026-01-12 00:53:43.48	3.49	10.92	-46.3	-50.3	13.9	1.50e-06	0	43	0	76546048	64	5642
2026-01-12 00:53:44.47	3.40	11.00	-46.2	-50.2	14.0	0.00e+00	0	43	0	78643200	64	5553
2026-01-12 00:53:45.46	3.32	11.08	-46.3	-50.3	14.0	3.00e-06	0	43	0	79691776	64	5611
2026-01-12 00:53:46.46	3.23	11.16	-46.2	-50.1	14.2	1.50e-06	0	43	0	81788928	64	5491
2026-01-12 00:53:47.45	3.14	11.24	-46.2	-50.1	14.2	3.00e-06	0	43	0	83886080	64	5486
2026-01-12 00:53:48.45	3.05	11.32	-46.1	-49.9	14.2	3.00e-06	0	43	0	85983232	64	5401
2026-01-12 00:53:49.44	2.96	11.40	-46.1	-49.8	14.4	7.00e-07	0	43	0	88080384	64	5335
2026-01-12 00:53:50.43	2.87	11.48	-46.2	-50.0	14.2	7.00e-07	0	43	0	89128960	64	5448
2026-01-12 00:53:51.43	2.78	11.56	-46.0	-49.8	14.4	1.50e-06	0	43	0	91226112	64	5317
2026-01-12 00:53:52.42	2.69	11.64	-46.0	-49.8	14.4	3.00e-06	0	43	0	93323264	64	5311
2026-01-12 00:53:53.42	2.60	11.72	-46.1	-49.8	14.5	0.00e+00	0	43	0	95420416	63	5650
2026-01-12 00:53:54.41	2.51	11.80	-46.1	-49.8	14.6	7.00e-07	0	43	0	96468992	63	5609
2026-01-12 00:53:55.41	2.41	11.88	-46.1	-49.7	14.6	0.00e+00	0	43	0	98566144	63	5580
2026-01-12 00:53:56.40	2.32	11.96	-46.0	-49.7	14.6	0.00e+00	0	43	0	100663296	63	5561
2026-01-12 00:53:57.39	2.23	12.04	-46.0	-49.6	14.8	0.00e+00	0	43	0	102760448	63	5504
2026-01-12 00:53:58.39	2.13	12.12	-46.0	-49.6	14.8	0.00e+00	0	43	0	104857600	63	5499
2026-01-12 00:53:59.39	2.04	12.21	-45.9	-49.5	14.8	0.00e+00	0	43	0	105906176	63	5450
2026-01-12 00:54:00.44	1.94	12.29	-45.9	-49.5	14.9	0.00e+00	0	43	0	108003328	63	5423
2026-01-12 00:54:01.37	1.85	12.37	-45.9	-49.5	14.9	0.00e+00	0	43	0	110100480	63	5416
2026-01-12 00:54:02.50	1.74	12.46	-45.9	-49.4	15.0	7.00e-07	0	43	0	112197632	63	5362
2026-01-12 00:54:03.35	1.65	12.53	-45.8	-49.3	15.1	0.00e+00	0	43	0	113246208	63	5308
2026-01-12 00:54:04.49	1.54	12.63	-45.8	-49.3	15.1	0.00e+00	0	43	0	115343360	63	5296
2026-01-12 00:54:05.34	1.46	12.70	-45.8	-49.3	15.1	7.00e-07	0	43	0	117440512	63	5316
2026-01-12 00:54:06.48	1.34	12.79	-45.9	-49.3	15.1	0.00e+00	0	43	0	119537664	63	5330
2026-01-12 00:54:07.33	1.26	12.86	-45.9	-49.4	15.0	0.00e+00	0	43	0	121634816	63	5364
2026-01-12 00:54:08.47	1.15	12.96	-45.9	-49.3	15.0	0.00e+00	0	43	0	123731968	63	5329
2026-01-12 00:54:09.32	1.06	13.03	-45.9	-49.3	15.1	0.00e+00	0	43	0	124780544	63	5325
2026-01-12 00:54:10.46	0.94	13.13	-45.8	-49.3	15.1	0.00e+00	0	43	0	126877696	63	5318
2026-01-12 00:54:11.31	0.86	13.20	-45.8	-49.3	15.1	0.00e+00	0	43	0	128974848	63	5311
2026-01-12 00:54:12.45	0.74	13.30	-45.8	-49.3	15.1	0.00e+00	0	43	0	131072000	63	5295
2026-01-12 00:54:13.30	0.65	13.37	-45.9	-49.4	15.1	0.00e+00	0	43	0	132120576	63	5342
2026-01-12 00:54:14.44	0.53	13.46	-45.8	-49.3	15.1	0.00e+00	0	43	0	134217728	63	5320
2026-01-12 00:54:15.29	0.44	13.54	-45.9	-49.4	15.1	0.00e+00	0	43	0	136314880	63	5368
2026-01-12 00:54:16.57	0.31	13.65	-45.8	-49.4	15.0	0.00e+00	0	43	0	138412032	63	5379
2026-01-12 00:54:17.28	0.23	13.71	-45.8	-49.4	15.1	0.00e+00	0	43	0	139460608	63	5342
2026-01-12 00:54:18.56	0.10	13.82	-45.8	-49.4	15.1	0.00e+00	0	43	0	142606336	63	5352
2026-01-12 00:54:19.30	0.02	13.88	-45.8	-49.3	15.1	0.00e+00	0	43	0	143654912	63	5331
2026-01-12 00:54:20.58	359.88	13.99	-45.7	-49.3	15.2	0.00e+00	0	43	0	145752064	63	5293
2026-01-12 00:54:21.30	359.80	14.05	-45.7	-49.3	15.2	0.00e+00	0	43	0	147849216	63	5282
2026-01-12 00:54:22.59	359.66	14.17	-45.7	-49.4	15.1	0.00e+00	0	43	0	149946368	63	5348
2026-01-12 00:54:23.30	359.58	14.23	-45.7	-49.2	15.2	0.00e+00	0	43	0	150994944	63	5266
2026-01-12 00:54:24.58	359.44	14.34	-45.8	-49.3	15.1	0.00e+00	0	43	0	153092096	63	5327
2026-01-12 00:54:25.43	359.35	14.41	-45.7	-49.2	15.2	0.00e+00	0	43	0	155189248	63	5255
2026-01-12 00:54:26.56	359.22	14.51	-45.6	-49.2	15.3	0.00e+00	0	43	0	157286400	63	5234
2026-01-12 00:54:27.42	359.12	14.59	-45.5	-49.1	15.3	0.00e+00	0	43	0	158334976	63	5196
2026-01-12 00:54:28.55	359.00	14.69	-45.6	-49.1	15.3	0.00e+00	0	43	0	160432128	63	5211
2026-01-12 00:54:29.41	358.90	14.76	-45.5	-49.1	15.4	0.00e+00	0	43	0	162529280	63	5170
2026-01-12 00:54:30.54	358.77	14.86	-45.4	-49.0	15.5	0.00e+00	0	43	0	164626432	62	5433
2026-01-12 00:54:31.39	358.67	14.94	-45.4	-49.0	15.4	0.00e+00	0	43	0	166723584	62	5421
2026-01-12 00:54:32.53	358.54	15.04	-45.4	-49.0	15.4	0.00e+00	0	43	0	168820736	62	5460
2026-01-12 00:54:33.38	358.44	15.11	-45.5	-49.1	15.3	0.00e+00	0	43	0	169869312	62	5502
2026-01-12 00:54:34.57	358.30	15.22	-45.4	-49.0	15.5	0.00e+00	0	43	0	171966464	62	5423
2026-01-12 00:54:35.42	358.20	15.30	-45.5	-49.1	15.4	0.00e+00	0	43	0	174063616	62	5517
2026-01-12 00:54:36.62	358.05	15.40	-45.5	-49.1	15.4	0.00e+00	0	43	0	176160768	62	5502
2026-01-12 00:54:37.47	357.95	15.48	-45.5	-49.1	15.3	0.00e+00	0	43	0	177209344	62	5522
2026-01-12 00:54:38.61	357.82	15.58	-45.5	-49.2	15.3	0.00e+00	0	43	0	179306496	62	5552
2026-01-12 00:54:39.46	357.71	15.66	-45.6	-49.3	15.2	0.00e+00	0	43	0	181403648	62	5613
2026-01-12 00:54:40.60	357.57	15.76	-45.6	-49.3	15.2	0.00e+00	0	43	0	183500800	62	5604
2026-01-12 00:54:41.46	357.47	15.84	-45.6	-49.3	15.2	7.00e-07	0	43	0	185597952	62	5619
2026-01-12 00:54:42.59	357.33	15.94	-45.6	-49.3	15.2	0.00e+00	0	43	0	187695104	62	5627
2026-01-12 00:54:43.59	357.20	16.03	-45.7	-49.4	15.1	0.00e+00	0	43	0	188743680	62	5675
2026-01-12 00:54:44.76	357.06	16.14	-45.7	-49.3	15.2	0.00e+00	0	43	0	190840832	62	5633
2026-01-12 00:54:45.61	356.95	16.22	-45.8	-49.4	15.1	0.00e+00	0	43	0	192937984	62	5689
2026-01-12 00:54:46.97	356.78	16.34	-45.8	-49.4	15.1	0.00e+00	0	43	0	195035136	62	5708
2026-01-12 00:54:47.68	356.69	16.41	-45.9	-49.5	15.0	0.00e+00	0	43	0	197132288	62	5776
2026-01-12 00:54:48.96	356.52	16.53	-46.0	-49.6	14.9	7.00e-07	0	43	0	199229440	62	5842
2026-01-12 00:54:49.69	356.43	16.59	-46.0	-49.7	14.9	7.00e-07	0	43	0	200278016	62	5864
2026-01-12 00:54:50.97	356.26	16.71	-46.0	-49.5	15.0	0.00e+00	0	43	0	203423744	62	5747
2026-01-12 00:54:51.72	356.16	16.78	-46.0	-49.5	15.0	0.00e+00	0	43	0	204472320	62	5753
2026-01-12 00:54:53.00	355.99	16.90	-46.0	-49.5	15.0	0.00e+00	0	43	0	206569472	62	5760
2026-01-12 00:54:53.71	355.90	16.97	-46.1	-49.6	15.0	0.00e+00	0	43	0	207618048	62	5789
2026-01-12 00:54:54.99	355.73	17.09	-46.0	-49.4	15.1	7.00e-07	0	43	0	210763776	62	5706
2026-01-12 00:54:55.70	355.63	17.15	-46.0	-49.4	15.1	0.00e+00	0	43	0	211812352	62	5722
2026-01-12 00:54:56.98	355.46	17.27	-46.0	-49.4	15.1	0.00e+00	0	43	0	213909504	62	5710
2026-01-12 00:54:57.72	355.36	17.34	-46.0	-49.5	15.0	0.00e+00	0	44	0	216006656	62	5738
2026-01-12 00:54:59.00	355.18	17.46	-46.0	-49.5	15.0	7.00e-07	0	43	0	218103808	62	5774
2026-01-12 00:54:59.71	355.09	17.53	-46.0	-49.6	15.0	0.00e+00	0	43	0	219152384	62	5789
2026-01-12 00:55:01.01	354.91	17.65	-46.0	-49.6	14.9	0.00e+00	0	43	0	222298112	62	5838
2026-01-12 00:55:01.72	354.81	17.72	-46.1	-49.7	14.9	0.00e+00	0	43	0	223346688	62	5877
2026-01-12 00:55:03.03	354.62	17.84	-46.1	-49.7	14.8	7.00e-07	0	43	0	225443840	62	5890
2026-01-12 00:55:03.74	354.52	17.91	-46.1	-49.8	14.8	0.00e+00	0	43	0	226492416	62	5929
2026-01-12 00:55:05.02	354.34	18.03	-46.1	-49.7	14.8	0.00e+00	0	43	0	229638144	62	5896
2026-01-12 00:55:05.73	354.24	18.10	-46.2	-49.8	14.7	7.00e-07	0	43	0	230686720	63	5651
2026-01-12 00:55:07.16	354.03	18.24	-46.3	-50.0	14.5	0.00e+00	0	43	0	233832448	63	5767
2026-01-12 00:55:07.87	353.93	18.30	-46.3	-50.1	14.5	0.00e+00	0	43	0	234881024	63	5791
2026-01-12 00:55:09.14	353.74	18.43	-46.3	-50.0	14.5	0.00e+00	0	43	0	236978176	63	5788
2026-01-12 00:55:10.19	353.59	18.53	-46.3	-50.0	14.5	1.50e-06	0	43	0	239075328	63	5754
2026-01-12 00:55:11.45	353.40	18.65	-46.2	-49.8	14.7	0.00e+00	0	43	0	241172480	63	5654
2026-01-12 00:55:12.25	353.28	18.72	-46.2	-49.8	14.7	0.00e+00	0	43	0	243269632	63	5638
2026-01-12 00:55:13.39	353.11	18.83	-46.1	-49.7	14.9	0.00e+00	0	43	0	245366784	63	5543
2026-01-12 00:55:14.24	352.98	18.92	-46.1	-49.7	14.8	0.00e+00	0	43	0	246415360	63	5564
2026-01-12 00:55:15.38	352.81	19.03	-46.0	-49.6	15.0	0.00e+00	0	43	0	248512512	63	5486
2026-01-12 00:55:16.23	352.68	19.11	-45.9	-49.5	15.1	0.00e+00	0	43	0	250609664	63	5414
2026-01-12 00:55:17.37	352.50	19.22	-45.7	-49.3	15.3	0.00e+00	0	43	0	252706816	63	5307
2026-01-12 00:55:18.22	352.37	19.30	-45.8	-49.4	15.2	0.00e+00	0	43	0	253755392	63	5347
2026-01-12 00:55:19.37	352.19	19.42	-45.7	-49.3	15.3	0.00e+00	0	43	0	255852544	63	5319
2026-01-12 00:55:20.22	352.06	19.50	-45.7	-49.3	15.3	0.00e+00	0	44	0	257949696	63	5298
2026-01-12 00:55:21.39	351.87	19.61	-45.7	-49.2	15.3	0.00e+00	0	43	0	260046848	63	5274
2026-01-12 00:55:22.24	351.74	19.70	-45.7	-49.2	15.3	0.00e+00	0	43	0	262144000	63	5278
2026-01-12 00:55:23.38	351.55	19.81	-45.7	-49.3	15.3	0.00e+00	0	43	0	264241152	63	5316
2026-01-12 00:55:24.23	351.42	19.89	-45.8	-49.4	15.2	0.00e+00	0	43	0	265289728	63	5378
2026-01-12 00:55:25.37	351.23	20.00	-45.7	-49.1	15.5	0.00e+00	0	43	0	267386880	63	5180
2026-01-12 00:55:26.22	351.09	20.09	-45.8	-49.2	15.4	0.00e+00	0	43	0	269484032	63	5221
2026-01-12 00:55:27.36	350.90	20.20	-45.9	-49.2	15.4	0.00e+00	0	43	0	271581184	63	5235
2026-01-12 00:55:28.21	350.76	20.29	-46.0	-49.3	15.3	0.00e+00	0	43	0	272629760	63	5328
2026-01-12 00:55:29.34	350.57	20.40	-45.9	-49.2	15.4	0.00e+00	0	43	0	274726912	63	5250
2026-01-12 00:55:30.19	350.43	20.48	-45.9	-49.2	15.3	0.00e+00	0	43	0	276824064	63	5278
2026-01-12 00:55:31.33	350.24	20.59	-45.9	-49.2	15.4	0.00e+00	0	43	0	278921216	63	5224
2026-01-12 00:55:32.18	350.09	20.68	-45.8	-49.1	15.4	0.00e+00	0	43	0	279969792	63	5208
2026-01-12 00:55:33.32	349.90	20.79	-45.8	-49.1	15.5	0.00e+00	0	43	0	282066944	63	5204
2026-01-12 00:55:34.17	349.75	20.88	-45.8	-49.1	15.5	0.00e+00	0	43	0	284164096	63	5185
2026-01-12 00:55:35.31	349.55	20.99	-45.8	-49.2	15.4	0.00e+00	0	43	0	286261248	63	5227
2026-01-12 00:55:36.16	349.41	21.08	-45.8	-49.1	15.5	0.00e+00	0	44	0	287309824	63	5178
2026-01-12 00:55:37.30	349.21	21.19	-45.7	-48.9	15.7	0.00e+00	0	43	0	289406976	63	5083
2026-01-12 00:55:38.15	349.06	21.28	-45.8	-49.0	15.6	0.00e+00	0	43	0	291504128	63	5117
2026-01-12 00:55:39.30	348.85	21.39	-45.7	-48.9	15.7	7.00e-07	0	43	0	293601280	63	5051
2026-01-12 00:55:40.16	348.70	21.48	-45.7	-48.8	15.8	0.00e+00	0	43	0	295698432	63	5005
2026-01-12 00:55:41.30	348.49	21.59	-45.7	-48.9	15.7	0.00e+00	0	43	0	297795584	63	5065
2026-01-12 00:55:42.15	348.34	21.68	-45.7	-48.9	15.7	0.00e+00	0	43	0	298844160	63	5052
2026-01-12 00:55:43.28	348.13	21.79	-45.5	-48.8	15.8	0.00e+00	0	43	0	300941312	63	5007
2026-01-12 00:55:44.14	347.97	21.88	-45.5	-48.8	15.8	0.00e+00	0	43	0	303038464	63	5020
2026-01-12 00:55:45.27	347.76	21.99	-45.5	-48.9	15.7	0.00e+00	0	43	0	305135616	63	5048
2026-01-12 00:55:46.13	347.60	22.08	-45.5	-49.0	15.6	0.00e+00	0	43	0	306184192	63	5112
2026-01-12 00:55:47.26	347.39	22.19	-45.6	-49.0	15.5	0.00e+00	0	43	0	308281344	63	5155
2026-01-12 00:55:48.12	347.23	22.28	-45.7	-49.1	15.5	0.00e+00	0	43	0	310378496	63	5199
2026-01-12 00:55:49.25	347.01	22.39	-45.8	-49.2	15.4	0.00e+00	0	43	0	312475648	63	5247
2026-01-12 00:55:50.10	346.85	22.48	-45.9	-49.3	15.4	0.00e+00	0	43	0	313524224	63	5284
2026-01-12 00:55:51.24	346.63	22.59	-45.9	-49.3	15.3	0.00e+00	0	43	0	315621376	63	5316
2026-01-12 00:55:52.10	346.46	22.68	-45.8	-49.3	15.3	0.00e+00	0	43	0	317718528	63	5333
2026-01-12 00:55:53.24	346.24	22.80	-45.9	-49.6	15.0	0.00e+00	0	43	0	319815680	63	5503
2026-01-12 00:55:54.09	346.07	22.88	-45.8	-49.5	15.1	0.00e+00	0	43	0	320864256	63	5448
2026-01-12 00:55:55.23	345.85	23.00	-45.8	-49.6	15.0	7.00e-07	0	43	0	324009984	63	5516
2026-01-12 00:55:56.08	345.68	23.08	-45.7	-49.7	14.9	7.00e-07	0	43	0	325058560	63	5538
2026-01-12 00:55:57.33	345.43	23.21	-45.6	-49.7	15.0	0.00e+00	0	43	0	327155712	63	5544
2026-01-12 00:55:58.18	345.25	23.30	-45.6	-49.7	14.9	0.00e+00	0	43	0	329252864	63	5563
2026-01-12 00:55:59.31	345.02	23.41	-45.7	-49.8	14.9	0.00e+00	0	43	0	331350016	63	5608
2026-01-12 00:56:00.17	344.85	23.50	-45.8	-49.7	14.9	0.00e+00	0	43	0	332398592	63	5581
2026-01-12 00:56:01.30	344.62	23.61	-45.9	-49.9	14.7	0.00e+00	0	43	0	334495744	63	5684
2026-01-12 00:56:02.19	344.43	23.70	-46.0	-50.0	14.6	0.00e+00	0	43	0	336592896	63	5735
2026-01-12 00:56:03.50	344.16	23.84	-46.2	-50.0	14.6	0.00e+00	0	43	0	338690048	63	5764
2026-01-12 00:56:04.21	344.01	23.91	-46.3	-50.0	14.6	0.00e+00	0	43	0	340787200	63	5785
2026-01-12 00:56:05.49	343.74	24.04	-46.3	-49.9	14.7	7.00e-07	0	43	0	342884352	63	5706
2026-01-12 00:56:06.20	343.59	24.11	-46.4	-50.0	14.6	7.00e-07	0	44	0	343932928	63	5774
2026-01-12 00:56:07.74	343.26	24.27	-46.1	-49.7	14.9	0.00e+00	0	43	0	347078656	63	5576
2026-01-12 00:56:08.45	343.10	24.34	-46.1	-49.7	14.9	0.00e+00	0	44	0	348127232	63	5588
2026-01-12 00:56:09.73	342.82	24.47	-46.0	-49.6	15.0	0.00e+00	0	43	0	350224384	63	5510
2026-01-12 00:56:10.44	342.67	24.54	-46.0	-49.6	15.0	0.00e+00	0	43	0	352321536	63	5508
2026-01-12 00:56:11.72	342.39	24.67	-46.0	-49.6	15.0	7.00e-07	0	43	0	354418688	63	5520
2026-01-12 00:56:12.44	342.23	24.74	-46.1	-49.6	15.0	0.00e+00	0	43	0	355467264	63	5522
2026-01-12 00:56:13.72	341.94	24.87	-46.1	-49.7	14.9	0.00e+00	0	43	0	358612992	63	5558
2026-01-12 00:56:14.43	341.78	24.94	-46.2	-49.8	14.9	0.00e+00	0	44	0	359661568	63	5602
2026-01-12 00:56:15.74	341.48	25.07	-46.2	-49.6	15.0	0.00e+00	0	43	0	361758720	63	5496
2026-01-12 00:56:16.45	341.32	25.15	-46.2	-49.6	15.0	0.00e+00	0	43	0	362807296	63	5518
2026-01-12 00:56:17.73	341.03	25.27	-46.2	-49.6	15.0	0.00e+00	0	44	0	365953024	63	5490
2026-01-12 00:56:18.44	340.87	25.34	-46.1	-49.4	15.2	0.00e+00	0	44	0	367001600	63	5383
2026-01-12 00:56:19.72	340.57	25.47	-45.9	-49.2	15.4	0.00e+00	0	43	0	369098752	63	5228
2026-01-12 00:56:20.44	340.40	25.54	-45.9	-49.2	15.4	0.00e+00	0	43	0	371195904	63	5235
2026-01-12 00:56:21.72	340.10	25.67	-45.7	-48.9	15.7	0.00e+00	0	44	0	373293056	63	5092
2026-01-12 00:56:22.45	339.93	25.75	-45.7	-48.9	15.7	0.00e+00	0	43	0	374341632	63	5093
2026-01-12 00:56:23.73	339.62	25.87	-45.7	-49.0	15.6	0.00e+00	0	43	0	376438784	63	5116
2026-01-12 00:56:24.65	339.40	25.96	-45.8	-49.0	15.6	0.00e+00	0	44	0	378535936	63	5149
2026-01-12 00:56:25.97	339.08	26.10	-45.8	-49.1	15.5	0.00e+00	0	43	0	381681664	63	5160
2026-01-12 00:56:26.68	338.91	26.17	-45.8	-49.1	15.6	0.00e+00	0	43	0	382730240	63	5164
2026-01-12 00:56:27.96	338.60	26.29	-45.7	-49.0	15.6	0.00e+00	0	44	0	384827392	63	5102
2026-01-12 00:56:28.70	338.41	26.36	-45.7	-48.9	15.7	0.00e+00	0	43	0	385875968	63	5045
2026-01-12 00:56:29.98	338.10	26.49	-45.8	-49.0	15.7	0.00e+00	0	44	0	389021696	63	5106
2026-01-12 00:56:30.71	337.91	26.56	-45.6	-48.8	15.8	0.00e+00	0	44	0	390070272	63	5003
2026-01-12 00:56:31.99	337.59	26.69	-45.6	-48.7	15.9	0.00e+00	0	44	0	392167424	63	4959
2026-01-12 00:56:32.70	337.41	26.76	-45.6	-48.7	15.9	0.00e+00	0	44	0	393216000	63	4946
2026-01-12 00:56:33.98	337.09	26.88	-45.4	-48.5	16.1	0.00e+00	0	44	0	396361728	62	5110
2026-01-12 00:56:34.69	336.91	26.95	-45.5	-48.6	16.0	0.00e+00	0	44	0	397410304	62	5196
2026-01-12 00:56:36.05	336.56	27.08	-45.6	-48.8	15.9	0.00e+00	0	43	0	399507456	62	5298
2026-01-12 00:56:36.76	336.37	27.15	-45.8	-49.0	15.7	0.00e+00	0	44	0	401604608	62	5420
2026-01-12 00:56:38.04	336.04	27.27	-45.9	-49.2	15.4	0.00e+00	0	44	0	403701760	62	5537
2026-01-12 00:56:38.75	335.85	27.34	-45.8	-49.0	15.6	0.00e+00	0	44	0	404750336	62	5436
2026-01-12 00:56:40.03	335.52	27.46	-45.7	-49.0	15.6	0.00e+00	0	44	0	407896064	62	5441
2026-01-12 00:56:40.75	335.33	27.53	-45.5	-48.9	15.7	0.00e+00	0	44	0	408944640	62	5379
2026-01-12 00:56:42.03	334.98	27.65	-45.4	-48.7	15.9	0.00e+00	0	43	0	411041792	62	5274
2026-01-12 00:56:42.74	334.79	27.72	-45.5	-49.0	15.7	0.00e+00	0	44	0	412090368	62	5409
2026-01-12 00:56:44.02	334.45	27.84	-45.7	-49.2	15.4	0.00e+00	0	44	0	415236096	62	5574
2026-01-12 00:56:44.75	334.25	27.91	-45.9	-49.4	15.3	0.00e+00	0	44	0	416284672	62	5682
2026-01-12 00:56:46.02	333.90	28.03	-46.0	-49.5	15.2	0.00e+00	0	43	0	418381824	62	5726
2026-01-12 00:56:46.75	333.70	28.09	-46.1	-49.6	15.0	0.00e+00	0	44	0	420478976	62	5855
2026-01-12 00:56:48.03	333.35	28.21	-46.2	-49.9	14.7	7.00e-07	0	44	0	422576128	63	5699
2026-01-12 00:56:48.74	333.15	28.28	-46.3	-50.2	14.5	0.00e+00	0	44	0	423624704	63	5874
2026-01-12 00:56:50.02	332.79	28.39	-46.4	-50.5	14.1	5.30e-06	0	44	0	425721856	63	6121
2026-01-12 00:56:50.73	332.59	28.46	-46.4	-50.7	14.0	2.20e-06	0	44	0	427819008	63	6221
2026-01-12 00:56:52.01	332.23	28.57	-46.5	-50.9	13.8	6.10e-06	0	43	0	429916160	63	6353
2026-01-12 00:56:52.72	332.03	28.64	-46.5	-50.8	13.9	3.80e-06	0	43	0	430964736	63	6286
2026-01-12 00:56:54.06	331.65	28.76	-46.7	-51.0	13.6	5.30e-06	0	43	0	434110464	64	6070
2026-01-12 00:56:54.78	331.44	28.82	-46.9	-51.2	13.4	1.06e-05	0	43	0	435159040	64	6218
2026-01-12 00:56:56.05	331.07	28.93	-47.1	-51.4	13.1	1.90e-05	0	43	0	437256192	64	6411
2026-01-12 00:56:56.76	330.86	29.00	-47.1	-51.5	13.1	3.81e-05	0	44	0	439353344	64	6445
2026-01-12 00:56:58.04	330.49	29.11	-47.2	-51.6	12.9	6.02e-05	0	43	0	441450496	65	6189
2026-01-12 00:56:58.77	330.28	29.17	-47.2	-51.7	12.8	6.17e-05	0	43	0	442499072	65	6228
2026-01-12 00:57:00.05	329.90	29.28	-47.1	-51.6	13.0	3.66e-05	0	44	0	444596224	65	6147
2026-01-12 00:57:00.76	329.69	29.34	-47.1	-51.7	12.8	4.50e-05	0	43	0	446693376	65	6246
2026-01-12 00:57:02.29	329.23	29.47	-47.1	-51.6	13.0	3.81e-05	0	44	0	448790528	65	6178
2026-01-12 00:57:03.00	329.01	29.53	-47.1	-51.5	13.0	3.35e-05	0	44	0	450887680	65	6129
2026-01-12 00:57:04.31	328.62	29.64	-47.2	-51.7	12.8	4.50e-05	0	43	0	452984832	65	6247
2026-01-12 00:57:05.02	328.40	29.70	-47.3	-51.9	12.7	6.02e-05	0	43	0	454033408	65	6381
2026-01-12 00:57:06.30	328.01	29.81	-47.5	-52.3	12.2	1.43e-04	0	43	0	457179136	65	6681
2026-01-12 00:57:07.03	327.79	29.87	-47.7	-52.8	11.7	3.96e-04	0	43	0	458227712	66	6666
2026-01-12 00:57:08.30	327.39	29.97	-47.8	-52.8	11.7	5.61e-04	0	43	0	460324864	66	6691
2026-01-12 00:57:09.01	327.17	30.02	-47.7	-52.7	11.9	5.16e-04	0	44	0	461373440	66	6589
2026-01-12 00:57:10.29	326.77	30.13	-47.7	-52.4	12.2	3.39e-04	0	43	0	464519168	66	6353
2026-01-12 00:57:11.07	326.53	30.19	-47.8	-52.5	12.1	2.01e-04	0	44	0	465567744	66	6431
2026-01-12 00:57:12.65	326.03	30.31	-47.6	-52.1	12.5	1.37e-04	0	44	0	468713472	66	6162
2026-01-12 00:57:13.29	325.83	30.36	-47.6	-52.0	12.5	1.05e-04	0	44	0	469762048	66	6129
2026-01-12 00:57:14.71	325.38	30.47	-47.4	-51.8	12.8	6.79e-05	0	44	0	472907776	66	5940
2026-01-12 00:57:15.42	325.15	30.52	-47.2	-51.5	13.1	2.36e-05	0	44	0	473956352	66	5735
2026-01-12 00:57:16.75	324.72	30.62	-47.2	-51.5	13.0	2.13e-05	0	43	0	476053504	66	5776
2026-01-12 00:57:17.46	324.49	30.67	-47.2	-51.5	13.1	4.27e-05	0	44	0	478150656	66	5748
2026-01-12 00:57:18.74	324.07	30.76	-47.2	-51.5	13.0	4.57e-05	0	44	0	480247808	66	5765
2026-01-12 00:57:19.45	323.84	30.82	-47.1	-51.3	13.2	3.81e-05	0	44	0	481296384	66	5639
2026-01-12 00:57:20.73	323.42	30.91	-47.0	-51.2	13.4	1.67e-05	0	43	0	483393536	66	5551
2026-01-12 00:57:21.44	323.19	30.96	-47.0	-51.2	13.4	1.60e-05	0	44	0	485490688	65	5856
2026-01-12 00:57:22.72	322.77	31.04	-47.0	-51.1	13.4	1.90e-05	0	43	0	487587840	65	5847
2026-01-12 00:57:23.46	322.52	31.10	-46.9	-51.1	13.5	1.44e-05	0	44	0	488636416	65	5796
2026-01-12 00:57:24.74	322.09	31.18	-47.0	-51.1	13.5	9.90e-06	0	43	0	491782144	65	5836
2026-01-12 00:57:25.48	321.85	31.23	-46.9	-50.9	13.7	5.30e-06	0	43	0	492830720	65	5699
2026-01-12 00:57:26.76	321.42	31.31	-46.8	-50.8	13.8	5.30e-06	0	44	0	494927872	65	5630
2026-01-12 00:57:27.47	321.18	31.36	-46.8	-50.7	13.9	7.60e-06	0	44	0	495976448	65	5533
2026-01-12 00:57:28.75	320.74	31.44	-46.6	-50.5	14.0	7.00e-07	0	44	0	499122176	65	5454
2026-01-12 00:57:29.47	320.50	31.49	-46.6	-50.5	14.1	1.50e-06	0	44	0	500170752	65	5433
2026-01-12 00:57:30.75	320.06	31.56	-46.4	-50.4	14.1	1.50e-06	0	44	0	502267904	64	5693
2026-01-12 00:57:31.48	319.81	31.61	-46.5	-50.6	14.0	2.20e-06	0	44	0	504365056	64	5812
2026-01-12 00:57:32.75	319.37	31.68	-46.4	-50.4	14.1	7.00e-07	0	44	0	506462208	64	5707
2026-01-12 00:57:33.47	319.12	31.73	-46.4	-50.4	14.1	3.80e-06	0	44	0	507510784	64	5716
2026-01-12 00:57:34.74	318.68	31.80	-46.5	-50.4	14.2	2.20e-06	0	44	0	509607936	64	5700
2026-01-12 00:57:35.47	318.43	31.84	-46.5	-50.4	14.2	7.00e-07	0	44	0	511705088	64	5712
2026-01-12 00:57:36.75	317.98	31.91	-46.7	-50.6	14.0	0.00e+00	0	44	0	513802240	64	5810
2026-01-12 00:57:37.47	317.73	31.95	-46.8	-50.8	13.8	3.00e-06	0	44	0	514850816	64	5960
2026-01-12 00:57:38.75	317.28	32.02	-47.0	-51.0	13.7	2.20e-06	0	44	0	517996544	64	6112
2026-01-12 00:57:39.48	317.02	32.05	-46.8	-50.8	13.8	6.80e-06	0	43	0	519045120	64	5963
2026-01-12 00:57:40.76	316.57	32.12	-46.8	-50.7	13.8	3.80e-06	0	44	0	521142272	64	5920
2026-01-12 00:57:41.48	316.31	32.15	-46.8	-50.8	13.8	3.00e-06	0	44	0	523239424	64	5933
2026-01-12 00:57:42.76	315.86	32.22	-46.9	-50.8	13.8	2.20e-06	0	44	0	525336576	64	5949
2026-01-12 00:57:43.48	315.60	32.25	-46.8	-50.7	13.8	0.00e+00	0	43	0	526385152	64	5913
2026-01-12 00:57:44.75	315.15	32.31	-46.9	-50.7	13.9	2.20e-06	0	43	0	528482304	64	5889
2026-01-12 00:57:45.59	314.85	32.35	-46.8	-50.5	14.0	1.50e-06	0	44	0	530579456	64	5777
2026-01-12 00:57:46.73	314.43	32.39	-46.7	-50.3	14.3	1.50e-06	0	44	0	532676608	64	5645
2026-01-12 00:57:47.58	314.13	32.43	-46.6	-50.3	14.3	0.00e+00	0	44	0	533725184	64	5614
2026-01-12 00:57:48.72	313.72	32.48	-46.6	-50.2	14.4	7.00e-07	0	44	0	535822336	64	5564
2026-01-12 00:57:49.57	313.41	32.51	-46.6	-50.3	14.3	2.20e-06	0	44	0	537919488	64	5607
2026-01-12 00:57:50.71	312.99	32.55	-46.7	-50.5	14.1	7.00e-07	0	44	0	540016640	64	5726
2026-01-12 00:57:51.56	312.68	32.59	-46.7	-50.4	14.2	2.20e-06	0	44	0	541065216	64	5691
2026-01-12 00:57:52.70	312.27	32.63	-46.6	-50.2	14.4	0.00e+00	0	44	0	544210944	64	5543
2026-01-12 00:57:53.55	311.95	32.66	-46.4	-49.9	14.8	0.00e+00	0	44	0	545259520	64	5351
2026-01-12 00:57:54.69	311.54	32.69	-46.2	-49.6	15.0	7.00e-07	0	44	0	547356672	64	5174
2026-01-12 00:57:55.54	311.22	32.72	-46.1	-49.3	15.3	0.00e+00	0	44	0	549453824	64	5024
2026-01-12 00:57:56.68	310.80	32.76	-45.9	-49.1	15.6	0.00e+00	0	43	0	551550976	63	5160
2026-01-12 00:57:57.53	310.49	32.78	-45.8	-48.9	15.8	0.00e+00	0	44	0	552599552	63	5080
2026-01-12 00:57:58.67	310.07	32.81	-45.8	-48.9	15.7	0.00e+00	0	44	0	554696704	63	5091
2026-01-12 00:57:59.63	309.71	32.84	-45.9	-49.0	15.7	0.00e+00	0	44	0	556793856	63	5120
2026-01-12 00:58:00.79	309.28	32.87	-46.0	-49.2	15.4	0.00e+00	0	44	0	558891008	63	5247
2026-01-12 00:58:01.64	308.96	32.89	-46.1	-49.4	15.3	0.00e+00	0	44	0	560988160	63	5360
2026-01-12 00:58:02.98	308.47	32.92	-46.2	-49.6	15.0	0.00e+00	0	44	0	563085312	63	5491
2026-01-12 00:58:03.69	308.20	32.93	-46.4	-49.8	14.9	0.00e+00	0	44	0	564133888	63	5627
2026-01-12 00:58:05.16	307.65	32.96	-46.5	-50.1	14.6	0.00e+00	0	44	0	567279616	63	5809
2026-01-12 00:58:05.87	307.39	32.98	-46.3	-49.8	14.9	0.00e+00	0	44	0	568328192	63	5606
2026-01-12 00:58:07.21	306.89	33.00	-46.4	-49.9	14.7	7.00e-07	0	44	0	570425344	63	5711
2026-01-12 00:58:07.93	306.62	33.01	-46.5	-50.0	14.7	0.00e+00	0	44	0	572522496	63	5771
2026-01-12 00:58:09.21	306.14	33.03	-46.6	-50.1	14.6	0.00e+00	0	44	0	574619648	63	5807
2026-01-12 00:58:10.26	305.74	33.04	-46.6	-50.2	14.5	1.50e-06	0	44	0	576716800	63	5871
2026-01-12 00:58:11.12	305.42	33.05	-46.6	-50.2	14.3	0.00e+00	0	44	0	577765376	64	5576
2026-01-12 00:58:12.25	304.99	33.06	-46.6	-50.2	14.3	0.00e+00	0	44	0	580911104	64	5569
2026-01-12 00:58:13.11	304.67	33.07	-46.7	-50.4	14.1	1.50e-06	0	44	0	581959680	64	5702
2026-01-12 00:58:14.24	304.24	33.08	-46.8	-50.5	14.1	0.00e+00	0	44	0	584056832	64	5772
2026-01-12 00:58:15.10	303.92	33.08	-46.8	-50.6	14.0	3.80e-06	0	44	0	586153984	64	5793
2026-01-12 00:58:16.31	303.46	33.08	-46.8	-50.7	13.9	1.50e-06	0	44	0	588251136	64	5870
2026-01-12 00:58:17.17	303.14	33.09	-46.8	-50.7	13.9	3.80e-06	0	44	0	589299712	64	5871
2026-01-12 00:58:18.30	302.72	33.09	-46.7	-50.6	14.0	3.00e-06	0	44	0	591396864	64	5830
2026-01-12 00:58:19.16	302.39	33.09	-46.8	-50.7	13.9	3.80e-06	0	44	0	593494016	64	5886
2026-01-12 00:58:20.29	301.97	33.09	-46.8	-50.7	13.9	4.50e-06	0	44	0	595591168	64	5877
2026-01-12 00:58:21.14	301.65	33.08	-46.7	-50.5	14.1	1.50e-06	0	43	0	596639744	64	5755
2026-01-12 00:58:22.48	301.14	33.08	-46.6	-50.3	14.3	7.00e-07	0	44	0	599785472	64	5620
2026-01-12 00:58:23.19	300.87	33.07	-46.6	-50.3	14.3	3.80e-06	0	44	0	600834048	64	5602
2026-01-12 00:58:24.49	300.38	33.06	-46.5	-50.2	14.4	7.00e-07	0	44	0	602931200	64	5530
2026-01-12 00:58:25.20	300.12	33.06	-46.4	-50.0	14.5	0.00e+00	0	44	0	605028352	64	5452
2026-01-12 00:58:26.73	299.54	33.04	-46.4	-49.9	14.7	0.00e+00	0	44	0	607125504	64	5385
2026-01-12 00:58:27.44	299.28	33.03	-46.4	-49.9	14.7	7.00e-07	0	44	0	609222656	64	5361
2026-01-12 00:58:28.72	298.79	33.02	-46.4	-49.9	14.6	0.00e+00	0	44	0	611319808	64	5387
2026-01-12 00:58:29.43	298.53	33.00	-46.4	-49.9	14.7	0.00e+00	0	44	0	612368384	64	5396
2026-01-12 00:58:30.71	298.05	32.98	-46.6	-50.1	14.5	1.50e-06	0	44	0	614465536	64	5517
2026-01-12 00:58:31.42	297.78	32.97	-46.6	-50.3	14.3	7.00e-07	0	43	0	616562688	64	5629
2026-01-12 00:58:32.70	297.30	32.95	-46.8	-50.5	14.1	3.80e-06	0	44	0	618659840	64	5781
2026-01-12 00:58:33.41	297.04	32.93	-46.9	-50.7	13.8	7.00e-07	0	44	0	619708416	64	5886
2026-01-12 00:58:34.69	296.56	32.91	-46.9	-50.8	13.7	5.30e-06	0	44	0	622854144	64	5969
2026-01-12 00:58:35.42	296.29	32.89	-46.8	-50.6	14.0	3.00e-06	0	44	0	623902720	64	5801
2026-01-12 00:58:36.69	295.82	32.86	-46.8	-50.5	14.0	4.50e-06	0	44	0	625999872	64	5788
2026-01-12 00:58:37.48	295.52	32.84	-46.8	-50.5	14.1	4.50e-06	0	43	0	628097024	64	5764
2026-01-12 00:58:38.68	295.08	32.81	-46.8	-50.6	14.0	2.20e-06	0	44	0	630194176	64	5815
2026-01-12 00:58:39.54	294.76	32.78	-46.6	-50.2	14.3	1.50e-06	0	44	0	631242752	64	5579
2026-01-12 00:58:40.67	294.34	32.75	-46.7	-50.4	14.1	0.00e+00	0	44	0	633339904	64	5709
2026-01-12 00:58:41.71	293.96	32.72	-46.8	-50.7	13.9	4.50e-06	0	44	0	635437056	64	5868
2026-01-12 00:58:42.89	293.53	32.68	-46.8	-50.7	13.9	3.80e-06	0	44	0	637534208	64	5858
2026-01-12 00:58:43.74	293.21	32.65	-46.9	-50.8	13.8	3.80e-06	0	43	0	639631360	64	5964
2026-01-12 00:58:45.08	292.72	32.60	-47.1	-51.0	13.5	7.60e-06	0	44	0	641728512	64	6109
2026-01-12 00:58:45.79	292.46	32.57	-47.2	-51.2	13.3	1.14e-05	0	43	0	642777088	65	5876
2026-01-12 00:58:47.07	292.00	32.53	-47.0	-50.9	13.6	8.30e-06	0	44	0	645922816	65	5684
2026-01-12 00:58:47.80	291.73	32.50	-46.9	-50.6	13.9	6.10e-06	0	44	0	646971392	65	5511
2026-01-12 00:58:49.08	291.27	32.45	-46.8	-50.5	14.0	5.30e-06	0	44	0	649068544	65	5446
2026-01-12 00:58:49.88	290.98	32.41	-46.7	-50.4	14.2	3.00e-06	0	44	0	651165696	65	5346
2026-01-12 00:58:51.02	290.57	32.36	-46.6	-50.3	14.2	7.00e-07	0	44	0	653262848	65	5299
2026-01-12 00:58:51.87	290.26	32.33	-46.6	-50.3	14.3	7.00e-07	0	44	0	654311424	65	5311
2026-01-12 00:58:53.01	289.85	32.27	-46.7	-50.4	14.1	3.00e-06	0	44	0	656408576	65	5360
2026-01-12 00:58:53.86	289.55	32.24	-46.9	-50.7	13.9	1.50e-06	0	44	0	658505728	65	5533
2026-01-12 00:58:55.00	289.14	32.18	-46.9	-50.7	13.9	5.30e-06	0	44	0	660602880	65	5531
2026-01-12 00:58:55.85	288.84	32.14	-46.9	-50.8	13.7	2.20e-06	0	43	0	661651456	65	5605
2026-01-12 00:58:56.99	288.43	32.08	-47.1	-51.0	13.5	9.10e-06	0	44	0	664797184	65	5752
2026-01-12 00:58:57.84	288.13	32.04	-47.0	-50.9	13.6	9.10e-06	0	44	0	665845760	65	5701
2026-01-12 00:58:58.98	287.73	31.98	-47.2	-51.2	13.3	1.06e-05	0	44	0	667942912	65	5873
2026-01-12 00:58:59.83	287.43	31.93	-47.1	-51.0	13.4	9.10e-06	0	44	0	670040064	65	5785
2026-01-12 00:59:01.11	286.98	31.86	-47.0	-50.9	13.7	9.90e-06	0	44	0	672137216	65	5665
2026-01-12 00:59:01.84	286.73	31.82	-46.9	-50.7	13.8	6.80e-06	0	44	0	673185792	65	5576
2026-01-12 00:59:03.12	286.28	31.75	-47.0	-50.8	13.8	8.30e-06	0	43	0	675282944	65	5595
2026-01-12 00:59:04.27	285.88	31.68	-47.2	-51.3	13.3	1.29e-05	0	43	0	677380096	65	5924
2026-01-12 00:59:05.41	285.49	31.62	-47.2	-51.2	13.3	1.98e-05	0	44	0	680525824	65	5908
2026-01-12 00:59:06.42	285.14	31.55	-47.2	-51.2	13.3	1.60e-05	0	44	0	681574400	65	5884
2026-01-12 00:59:07.41	284.80	31.49	-47.2	-51.2	13.3	1.67e-05	0	44	0	683671552	65	5911
2026-01-12 00:59:08.41	284.46	31.43	-47.1	-51.1	13.4	1.75e-05	0	44	0	685768704	65	5809
2026-01-12 00:59:09.41	284.12	31.37	-47.0	-50.9	13.7	1.06e-05	0	44	0	687865856	65	5663
2026-01-12 00:59:10.40	283.79	31.30	-46.9	-50.8	13.7	6.80e-06	0	44	0	688914432	65	5612
2026-01-12 00:59:11.40	283.45	31.24	-46.9	-50.6	13.9	3.00e-06	0	44	0	691011584	65	5520
2026-01-12 00:59:12.39	283.12	31.17	-47.0	-50.8	13.7	4.50e-06	0	44	0	693108736	65	5607
2026-01-12 00:59:13.39	282.78	31.11	-47.2	-51.1	13.4	8.30e-06	0	44	0	695205888	65	5821
2026-01-12 00:59:14.38	282.45	31.04	-47.3	-51.4	13.1	1.98e-05	0	44	0	697303040	65	6057
2026-01-12 00:59:15.38	282.12	30.97	-47.4	-51.6	12.9	3.12e-05	0	44	0	698351616	65	6178
2026-01-12 00:59:16.37	281.80	30.90	-47.3	-51.4	13.1	3.35e-05	0	44	0	700448768	65	6035
2026-01-12 00:59:17.37	281.47	30.83	-47.3	-51.4	13.2	2.28e-05	0	44	0	702545920	65	6026
2026-01-12 00:59:18.38	281.14	30.76	-47.2	-51.1	13.4	2.82e-05	0	44	0	704643072	65	5852
2026-01-12 00:59:19.38	280.81	30.68	-47.0	-50.8	13.7	6.10e-06	0	44	0	706740224	65	5646
2026-01-12 00:59:20.43	280.47	30.61	-46.9	-50.7	13.8	3.80e-06	0	43	0	707788800	65	5567
2026-01-12 00:59:21.34	280.18	30.54	-47.0	-50.8	13.7	3.00e-06	0	44	0	709885952	65	5650
2026-01-12 00:59:22.36	279.85	30.46	-47.0	-51.0	13.5	7.60e-06	0	44	0	711983104	65	5764
2026-01-12 00:59:23.51	279.48	30.37	-47.2	-51.3	13.1	1.90e-05	0	43	0	714080256	65	5978
2026-01-12 00:59:24.37	279.21	30.31	-47.2	-51.3	13.2	2.74e-05	0	44	0	715128832	65	5958
2026-01-12 00:59:25.50	278.85	30.22	-47.1	-51.2	13.4	1.90e-05	0	43	0	717225984	65	5873
2026-01-12 00:59:26.36	278.58	30.15	-47.1	-51.1	13.5	1.44e-05	0	43	0	719323136	65	5807
2026-01-12 00:59:27.50	278.22	30.06	-47.0	-50.9	13.6	7.60e-06	0	44	0	721420288	65	5700
2026-01-12 00:59:28.35	277.96	29.99	-47.0	-50.9	13.6	6.80e-06	0	44	0	723517440	65	5681
2026-01-12 00:59:29.48	277.60	29.90	-47.1	-51.0	13.5	1.14e-05	0	44	0	725614592	65	5753
2026-01-12 00:59:30.34	277.34	29.83	-46.9	-50.7	13.8	6.80e-06	0	44	0	726663168	65	5582
2026-01-12 00:59:31.47	276.99	29.74	-46.9	-50.7	13.8	7.00e-07	0	44	0	728760320	65	5532
2026-01-12 00:59:32.33	276.73	29.67	-46.8	-50.6	13.9	3.80e-06	0	44	0	730857472	65	5477
2026-01-12 00:59:33.46	276.38	29.57	-46.8	-50.6	14.0	2.20e-06	0	43	0	732954624	65	5472
2026-01-12 00:59:34.32	276.12	29.50	-46.9	-50.6	13.9	4.50e-06	0	43	0	734003200	65	5505
2026-01-12 00:59:35.45	275.78	29.41	-46.9	-50.8	13.7	3.80e-06	0	44	0	736100352	65	5594
2026-01-12 00:59:36.30	275.53	29.33	-47.0	-50.8	13.7	3.80e-06	0	43	0	738197504	65	5643
2026-01-12 00:59:37.52	275.17	29.23	-46.9	-50.7	13.8	6.10e-06	0	44	0	740294656	65	5559
2026-01-12 00:59:38.38	274.91	29.15	-46.8	-50.5	14.0	2.20e-06	0	44	0	742391808	65	5452
2026-01-12 00:59:39.59	274.55	29.05	-46.6	-50.2	14.3	1.50e-06	0	43	0	744488960	65	5264
2026-01-12 00:59:40.45	274.30	28.97	-46.5	-50.0	14.5	0.00e+00	0	44	0	745537536	64	5442
2026-01-12 00:59:41.59	273.97	28.87	-46.4	-49.9	14.7	0.00e+00	0	44	0	747634688	64	5344
2026-01-12 00:59:42.44	273.72	28.80	-46.4	-49.9	14.6	0.00e+00	0	44	0	749731840	64	5343
2026-01-12 00:59:43.58	273.40	28.69	-46.4	-50.0	14.5	7.00e-07	0	44	0	751828992	64	5417
2026-01-12 00:59:44.43	273.15	28.62	-46.7	-50.3	14.2	1.50e-06	0	44	0	752877568	64	5643
2026-01-12 00:59:45.57	272.83	28.51	-46.7	-50.4	14.1	1.50e-06	0	43	0	754974720	64	5707
2026-01-12 00:59:46.42	272.59	28.44	-46.8	-50.5	14.0	2.20e-06	0	44	0	757071872	64	5769
2026-01-12 00:59:47.56	272.27	28.33	-46.9	-50.7	13.8	4.50e-06	0	43	0	759169024	64	5896
2026-01-12 00:59:48.41	272.03	28.26	-46.9	-50.7	13.8	6.80e-06	0	44	0	760217600	64	5914
2026-01-12 00:59:49.55	271.71	28.15	-46.6	-50.2	14.3	3.00e-06	0	44	0	762314752	64	5540
2026-01-12 00:59:50.40	271.47	28.07	-46.4	-50.0	14.5	7.00e-07	0	44	0	764411904	64	5419
2026-01-12 00:59:51.54	271.16	27.97	-46.2	-49.7	14.8	7.00e-07	0	44	0	766509056	64	5241
2026-01-12 00:59:52.39	270.93	27.89	-46.2	-49.7	14.8	0.00e+00	0	44	0	768606208	64	5256
2026-01-12 00:59:53.53	270.62	27.78	-46.1	-49.5	15.0	0.00e+00	0	44	0	770703360	64	5133
2026-01-12 00:59:54.38	270.39	27.70	-46.1	-49.5	15.0	0.00e+00	0	44	0	771751936	64	5115
2026-01-12 00:59:55.58	270.07	27.58	-46.0	-49.4	15.1	0.00e+00	0	44	0	773849088	64	5073
2026-01-12 00:59:56.43	269.84	27.50	-46.0	-49.4	15.1	0.00e+00	0	44	0	775946240	64	5068
2026-01-12 00:59:57.57	269.54	27.39	-46.1	-49.5	15.1	0.00e+00	0	43	0	778043392	64	5113
2026-01-12 00:59:58.42	269.31	27.31	-46.2	-49.7	14.8	0.00e+00	0	44	0	779091968	64	5249
2026-01-12 00:59:59.56	269.01	27.20	-46.3	-49.9	14.6	0.00e+00	0	44	0	781189120	64	5365
2026-01-12 01:00:00.41	268.79	27.12	-46.2	-49.6	14.9	0.00e+00	0	44	0	783286272	64	5206
2026-01-12 01:00:01.54	268.50	27.01	-46.0	-49.3	15.2	0.00e+00	0	44	0	785383424	64	5022
2026-01-12 01:00:02.39	268.28	26.93	-46.0	-49.2	15.3	0.00e+00	0	44	0	786432000	63	5265
2026-01-12 01:00:03.53	267.99	26.82	-46.0	-49.3	15.3	0.00e+00	0	44	0	789577728	63	5292
2026-01-12 01:00:04.38	267.77	26.74	-46.0	-49.3	15.3	7.00e-07	0	44	0	790626304	63	5302
2026-01-12 01:00:05.52	267.48	26.62	-46.0	-49.2	15.4	0.00e+00	0	44	0	792723456	63	5261
2026-01-12 01:00:06.38	267.26	26.54	-46.0	-49.2	15.4	0.00e+00	0	44	0	794820608	63	5271
2026-01-12 01:00:07.51	266.98	26.43	-45.9	-49.1	15.5	0.00e+00	0	44	0	796917760	63	5205
2026-01-12 01:00:08.37	266.77	26.34	-45.8	-49.0	15.6	0.00e+00	0	44	0	797966336	63	5113
2026-01-12 01:00:09.50	266.49	26.23	-45.6	-48.7	15.8	0.00e+00	0	44	0	800063488	63	4971
2026-01-12 01:00:10.35	266.28	26.15	-45.5	-48.6	16.0	0.00e+00	0	44	0	802160640	63	4876
2026-01-12 01:00:11.54	265.99	26.03	-45.3	-48.2	16.3	0.00e+00	0	44	0	804257792	62	4974
2026-01-12 01:00:12.39	265.79	25.94	-45.2	-48.2	16.4	0.00e+00	0	44	0	805306368	62	4936
2026-01-12 01:00:13.57	265.50	25.83	-45.2	-48.1	16.5	0.00e+00	0	44	0	807403520	62	4883
2026-01-12 01:00:14.43	265.30	25.74	-45.2	-48.0	16.2	0.00e+00	0	44	0	809500672	62	4870
2026-01-12 01:00:15.63	265.01	25.62	-45.1	-47.9	16.7	0.00e+00	0	44	0	811597824	62	4771
2026-01-12 01:00:16.48	264.81	25.54	-45.1	-48.0	16.6	0.00e+00	0	44	0	813694976	62	4830
2026-01-12 01:00:17.68	264.53	25.41	-44.8	-47.6	16.9	0.00e+00	0	44	0	815792128	61	4880
2026-01-12 01:00:18.53	264.33	25.33	-44.6	-47.3	17.2	0.00e+00	0	44	0	816840704	61	4748
2026-01-12 01:00:19.70	264.06	25.21	-44.5	-47.2	17.3	0.00e+00	0	44	0	818937856	60	4930
2026-01-12 01:00:20.55	263.86	25.13	-44.5	-47.1	17.4	0.00e+00	0	44	0	821035008	60	4916
2026-01-12 01:00:21.69	263.60	25.01	-44.3	-46.9	17.6	0.00e+00	0	44	0	823132160	60	4776
2026-01-12 01:00:22.55	263.41	24.92	-44.2	-46.8	17.7	0.00e+00	0	44	0	825229312	60	4731
2026-01-12 01:00:23.68	263.15	24.81	-44.3	-47.0	17.5	0.00e+00	0	44	0	827326464	60	4823
2026-01-12 01:00:24.54	262.96	24.72	-44.1	-46.7	17.8	0.00e+00	0	44	0	828375040	60	4699
2026-01-12 01:00:25.68	262.71	24.61	-44.2	-46.8	17.7	0.00e+00	0	44	0	830472192	60	4717
2026-01-12 01:00:26.53	262.52	24.52	-44.1	-46.7	17.8	0.00e+00	0	44	0	832569344	60	4694
2026-01-12 01:00:27.67	262.27	24.40	-44.1	-46.6	17.8	0.00e+00	0	44	0	834666496	60	4647
2026-01-12 01:00:28.52	262.08	24.32	-44.1	-46.7	17.8	0.00e+00	0	44	0	835715072	60	4656
2026-01-12 01:00:29.66	261.84	24.20	-44.1	-46.7	17.8	0.00e+00	0	44	0	837812224	60	4658
2026-01-12 01:00:30.51	261.65	24.12	-44.0	-46.5	17.9	0.00e+00	0	44	0	839909376	59	4836
2026-01-12 01:00:31.64	261.41	24.00	-43.9	-46.5	17.9	0.00e+00	0	44	0	842006528	59	4828
2026-01-12 01:00:32.50	261.23	23.91	-43.9	-46.5	17.9	0.00e+00	0	44	0	843055104	59	4823
2026-01-12 01:00:33.63	260.99	23.80	-43.8	-46.4	18.0	0.00e+00	0	44	0	845152256	59	4764
2026-01-12 01:00:34.48	260.81	23.71	-44.0	-46.5	17.8	0.00e+00	0	44	0	847249408	59	4870
2026-01-12 01:00:35.62	260.57	23.60	-43.7	-46.2	18.2	0.00e+00	0	43	0	849346560	59	4670
2026-01-12 01:00:36.48	260.39	23.51	-43.6	-46.1	18.3	0.00e+00	0	44	0	850395136	59	4606
2026-01-12 01:00:37.61	260.16	23.39	-43.7	-46.1	18.2	0.00e+00	0	44	0	852492288	59	4647
2026-01-12 01:00:38.47	259.98	23.31	-43.5	-45.9	18.4	0.00e+00	0	44	0	854589440	59	4522
2026-01-12 01:00:39.60	259.75	23.19	-43.6	-46.0	18.4	0.00e+00	0	44	0	856686592	59	4555
2026-01-12 01:00:40.46	259.58	23.10	-43.6	-46.0	18.3	0.00e+00	0	44	0	858783744	59	4573
2026-01-12 01:00:41.59	259.35	22.99	-43.6	-46.0	18.4	0.00e+00	0	44	0	860880896	59	4561
2026-01-12 01:00:42.45	259.18	22.90	-43.6	-46.0	18.3	0.00e+00	0	44	0	861929472	59	4594
2026-01-12 01:00:43.58	258.96	22.79	-43.6	-46.0	18.4	0.00e+00	0	44	0	864026624	59	4565
2026-01-12 01:00:44.44	258.79	22.70	-43.6	-46.0	18.4	0.00e+00	0	44	0	866123776	59	4565
2026-01-12 01:00:45.57	258.57	22.58	-43.5	-46.0	18.3	0.00e+00	0	44	0	868220928	59	4551
2026-01-12 01:00:46.43	258.40	22.50	-43.6	-46.0	18.3	0.00e+00	0	44	0	869269504	59	4592
2026-01-12 01:00:47.56	258.18	22.38	-43.6	-46.1	18.3	0.00e+00	0	44	0	871366656	59	4607
2026-01-12 01:00:48.41	258.02	22.30	-43.7	-46.2	18.1	0.00e+00	0	44	0	873463808	59	4695
2026-01-12 01:00:49.55	257.80	22.18	-43.8	-46.3	18.0	0.00e+00	0	44	0	875560960	59	4755
2026-01-12 01:00:50.41	257.64	22.09	-43.9	-46.4	18.0	0.00e+00	0	44	0	876609536	59	4802
2026-01-12 01:00:51.54	257.43	21.98	-44.1	-46.7	17.7	0.00e+00	0	44	0	878706688	59	4935
2026-01-12 01:00:52.40	257.27	21.89	-44.1	-46.7	17.7	0.00e+00	0	43	0	880803840	59	4952
2026-01-12 01:00:53.53	257.06	21.78	-44.2	-46.8	17.7	0.00e+00	0	44	0	882900992	59	4985
2026-01-12 01:00:54.38	256.90	21.69	-44.1	-46.7	17.7	0.00e+00	0	44	0	883949568	59	4949
2026-01-12 01:00:55.68	256.66	21.56	-44.0	-46.6	17.7	0.00e+00	0	44	0	887095296	59	4889
2026-01-12 01:00:56.39	256.53	21.49	-44.0	-46.5	17.8	0.00e+00	0	44	0	888143872	59	4868
2026-01-12 01:00:57.67	256.30	21.36	-44.1	-46.6	17.7	0.00e+00	0	44	0	890241024	59	4919
2026-01-12 01:00:58.38	256.18	21.29	-44.1	-46.6	17.7	0.00e+00	0	44	0	892338176	59	4907
2026-01-12 01:00:59.66	255.95	21.16	-44.0	-46.5	17.8	0.00e+00	0	44	0	894435328	59	4858
2026-01-12 01:01:00.39	255.82	21.09	-44.0	-46.5	17.8	0.00e+00	0	44	0	895483904	59	4846
2026-01-12 01:01:01.66	255.59	20.96	-44.2	-46.8	17.6	0.00e+00	0	44	0	897581056	59	4997
2026-01-12 01:01:02.48	255.45	20.88	-44.4	-47.0	17.4	0.00e+00	0	43	0	899678208	59	5101
2026-01-12 01:01:03.62	255.25	20.76	-44.4	-47.1	17.3	0.00e+00	0	44	0	901775360	59	5176
2026-01-12 01:01:04.47	255.11	20.68	-44.5	-47.2	17.2	0.00e+00	0	44	0	903872512	59	5227
2026-01-12 01:01:05.61	254.91	20.56	-44.6	-47.3	17.1	0.00e+00	0	44	0	904921088	59	5303
2026-01-12 01:01:06.70	254.73	20.45	-44.6	-47.3	17.1	0.00e+00	0	44	0	907018240	59	5319
2026-01-12 01:01:07.74	254.55	20.35	-44.5	-47.1	17.2	0.00e+00	0	44	0	909115392	59	5218
2026-01-12 01:01:08.73	254.38	20.25	-44.5	-47.2	17.1	0.00e+00	0	43	0	911212544	59	5271
2026-01-12 01:01:09.73	254.22	20.15	-44.5	-47.2	17.2	0.00e+00	0	44	0	913309696	59	5225
2026-01-12 01:01:10.72	254.05	20.05	-44.6	-47.3	17.1	0.00e+00	0	43	0	915406848	59	5293
2026-01-12 01:01:11.72	253.89	19.96	-44.6	-47.4	17.0	0.00e+00	0	44	0	916455424	59	5346
2026-01-12 01:01:12.71	253.73	19.86	-44.7	-47.4	17.0	0.00e+00	0	44	0	918552576	60	5096
2026-01-12 01:01:13.71	253.56	19.76	-44.8	-47.6	16.8	0.00e+00	0	44	0	920649728	60	5215
2026-01-12 01:01:14.70	253.40	19.66	-44.9	-47.8	16.7	0.00e+00	0	44	0	922746880	60	5299
2026-01-12 01:01:15.70	253.24	19.56	-45.0	-47.8	16.6	0.00e+00	0	44	0	924844032	60	5324
2026-01-12 01:01:16.69	253.09	19.47	-45.0	-47.9	16.6	0.00e+00	0	44	0	925892608	60	5355
2026-01-12 01:01:17.69	252.93	19.37	-44.9	-47.7	16.8	0.00e+00	0	44	0	927989760	60	5245
2026-01-12 01:01:18.68	252.77	19.27	-44.8	-47.6	16.9	0.00e+00	0	44	0	930086912	60	5168
2026-01-12 01:01:19.67	252.62	19.17	-44.8	-47.5	16.9	0.00e+00	0	43	0	932184064	60	5158
2026-01-12 01:01:20.75	252.45	19.07	-44.7	-47.5	16.9	0.00e+00	0	44	0	934281216	60	5144
2026-01-12 01:01:21.63	252.31	18.98	-44.8	-47.6	16.9	0.00e+00	0	44	0	935329792	60	5180
2026-01-12 01:01:22.94	252.11	18.85	-44.8	-47.6	16.8	0.00e+00	0	44	0	938475520	60	5211
2026-01-12 01:01:23.66	252.00	18.78	-44.8	-47.7	16.8	0.00e+00	0	44	0	939524096	60	5226
2026-01-12 01:01:25.14	251.78	18.64	-45.1	-47.9	16.5	0.00e+00	0	44	0	941621248	60	5396
2026-01-12 01:01:25.85	251.67	18.57	-45.0	-47.9	16.5	0.00e+00	0	44	0	943718400	60	5380
2026-01-12 01:01:27.13	251.48	18.45	-45.1	-48.1	16.4	0.00e+00	0	44	0	945815552	60	5475
2026-01-12 01:01:28.20	251.32	18.35	-45.2	-48.2	16.2	0.00e+00	0	44	0	947912704	61	5260
2026-01-12 01:01:29.34	251.16	18.24	-45.1	-48.1	16.3	0.00e+00	0	44	0	950009856	61	5174
2026-01-12 01:01:30.37	251.01	18.14	-45.1	-48.0	16.5	0.00e+00	0	43	0	952107008	61	5112
2026-01-12 01:01:31.36	250.86	18.04	-45.1	-48.0	16.4	0.00e+00	0	43	0	954204160	61	5149
2026-01-12 01:01:32.36	250.72	17.95	-45.1	-47.9	16.5	0.00e+00	0	43	0	955252736	61	5099
2026-01-12 01:01:33.35	250.58	17.85	-45.0	-47.9	16.6	0.00e+00	0	44	0	957349888	61	5044
2026-01-12 01:01:34.35	250.44	17.76	-45.0	-47.9	16.6	0.00e+00	0	44	0	959447040	61	5047
2026-01-12 01:01:35.34	250.30	17.66	-45.1	-47.9	16.5	0.00e+00	0	43	0	961544192	61	5100
2026-01-12 01:01:36.34	250.16	17.57	-45.2	-48.1	16.3	0.00e+00	0	44	0	962592768	61	5200
2026-01-12 01:01:37.33	250.02	17.47	-45.3	-48.4	16.1	0.00e+00	0	44	0	964689920	61	5341
2026-01-12 01:01:38.32	249.88	17.38	-45.4	-48.5	15.9	0.00e+00	0	44	0	966787072	61	5447
2026-01-12 01:01:39.32	249.74	17.29	-45.5	-48.7	15.8	0.00e+00	0	44	0	968884224	61	5530
2026-01-12 01:01:40.31	249.61	17.19	-45.5	-48.7	15.7	0.00e+00	0	44	0	970981376	61	5543
2026-01-12 01:01:41.34	249.47	17.10	-45.5	-48.7	15.7	0.00e+00	0	44	0	972029952	61	5558
2026-01-12 01:01:42.38	249.33	17.00	-45.6	-48.8	15.7	0.00e+00	0	43	0	974127104	61	5598
2026-01-12 01:01:43.34	249.20	16.91	-45.4	-48.5	15.9	0.00e+00	0	44	0	976224256	61	5442
2026-01-12 01:01:44.33	249.06	16.82	-45.3	-48.4	16.0	0.00e+00	0	44	0	978321408	61	5361
2026-01-12 01:01:45.44	248.92	16.71	-45.3	-48.3	16.0	0.00e+00	0	43	0	980418560	61	5340
2026-01-12 01:01:46.32	248.80	16.63	-45.4	-48.4	16.0	0.00e+00	0	44	0	981467136	61	5375
2026-01-12 01:01:47.63	248.63	16.51	-45.3	-48.4	16.0	0.00e+00	0	44	0	984612864	61	5362
2026-01-12 01:01:48.34	248.54	16.44	-45.4	-48.4	16.0	0.00e+00	0	44	0	985661440	61	5384
2026-01-12 01:01:49.62	248.37	16.33	-45.6	-48.7	15.7	0.00e+00	0	44	0	987758592	61	5543
2026-01-12 01:01:50.33	248.28	16.26	-45.6	-48.8	15.6	0.00e+00	0	44	0	988807168	61	5593
2026-01-12 01:01:51.62	248.12	16.14	-45.8	-49.0	15.4	0.00e+00	0	44	0	991952896	62	5428
2026-01-12 01:01:52.34	248.02	16.08	-45.8	-49.0	15.4	0.00e+00	0	44	0	993001472	62	5453
2026-01-12 01:01:53.62	247.86	15.96	-46.0	-49.2	15.2	0.00e+00	0	44	0	995098624	62	5584
2026-01-12 01:01:54.35	247.77	15.89	-46.0	-49.3	15.2	0.00e+00	0	44	0	997195776	62	5598
2026-01-12 01:01:55.62	247.61	15.78	-45.9	-49.1	15.3	0.00e+00	0	44	0	999292928	62	5504
2026-01-12 01:01:56.50	247.50	15.70	-45.9	-49.1	15.3	0.00e+00	0	44	0	1000341504	62	5512
2026-01-12 01:01:57.63	247.37	15.59	-45.8	-49.0	15.4	0.00e+00	0	43	0	1003487232	62	5453
2026-01-12 01:01:58.48	247.26	15.52	-45.7	-49.0	15.4	0.00e+00	0	44	0	1004535808	62	5403
2026-01-12 01:01:59.62	247.12	15.41	-45.7	-48.9	15.5	0.00e+00	0	44	0	1006632960	62	5370
2026-01-12 01:02:00.47	247.02	15.34	-45.7	-48.8	15.6	0.00e+00	0	44	0	1008730112	62	5338
2026-01-12 01:02:01.61	246.88	15.23	-45.7	-48.9	15.5	0.00e+00	0	44	0	1010827264	62	5342
2026-01-12 01:02:02.46	246.78	15.16	-45.7	-48.9	15.5	0.00e+00	0	44	0	1011875840	62	5383
2026-01-12 01:02:03.60	246.65	15.06	-45.8	-49.0	15.4	0.00e+00	0	43	0	1013972992	62	5451
2026-01-12 01:02:04.84	246.50	14.95	-45.9	-49.2	15.2	0.00e+00	0	43	0	1016070144	62	5586
2026-01-12 01:02:05.70	246.40	14.87	-46.0	-49.3	15.1	0.00e+00	0	44	0	1018167296	62	5646
2026-01-12 01:02:06.83	246.27	14.77	-46.1	-49.4	14.9	0.00e+00	0	44	0	1020264448	62	5710
2026-01-12 01:02:07.69	246.17	14.69	-46.2	-49.6	14.8	7.00e-07	0	44	0	1022361600	62	5811
2026-01-12 01:02:08.82	246.04	14.59	-46.2	-49.6	14.8	0.00e+00	0	44	0	1024458752	63	5476
2026-01-12 01:02:09.68	245.94	14.52	-46.1	-49.5	14.8	0.00e+00	0	44	0	1025507328	63	5440
2026-01-12 01:02:10.81	245.81	14.42	-46.1	-49.5	14.8	0.00e+00	0	44	0	1027604480	63	5455
2026-01-12 01:02:11.66	245.72	14.34	-46.1	-49.4	14.9	0.00e+00	0	44	0	1029701632	63	5395
2026-01-12 01:02:12.80	245.59	14.24	-46.0	-49.4	15.0	0.00e+00	0	44	0	1031798784	63	5363
2026-01-12 01:02:13.65	245.50	14.17	-46.0	-49.4	14.9	0.00e+00	0	44	0	1032847360	63	5355
2026-01-12 01:02:14.79	245.37	14.07	-45.9	-49.1	15.2	0.00e+00	0	44	0	1034944512	63	5200
2026-01-12 01:02:15.64	245.28	13.99	-45.8	-49.0	15.4	0.00e+00	0	44	0	1037041664	63	5101
2026-01-12 01:02:16.78	245.15	13.90	-45.7	-48.9	15.5	0.00e+00	0	44	0	1039138816	63	5043
2026-01-12 01:02:17.63	245.06	13.82	-45.7	-48.8	15.5	0.00e+00	0	44	0	1040187392	63	5025
2026-01-12 01:02:18.77	244.94	13.72	-45.7	-48.8	15.5	0.00e+00	0	44	0	1042284544	63	5040
2026-01-12 01:02:19.62	244.84	13.65	-45.8	-49.0	15.3	0.00e+00	0	44	0	1044381696	63	5138
2026-01-12 01:02:20.76	244.72	13.55	-45.9	-49.2	15.1	0.00e+00	0	44	0	1046478848	63	5265
2026-01-12 01:02:21.61	244.63	13.48	-46.0	-49.4	14.9	0.00e+00	0	44	0	1047527424	63	5368
2026-01-12 01:02:22.74	244.51	13.38	-46.1	-49.6	14.8	0.00e+00	0	44	0	1049624576	63	5474
2026-01-12 01:02:23.60	244.42	13.31	-46.2	-49.7	14.6	7.00e-07	0	44	0	1051721728	63	5565
2026-01-12 01:02:24.73	244.30	13.21	-46.3	-49.8	14.5	0.00e+00	0	44	0	1053818880	63	5617
2026-01-12 01:02:25.59	244.22	13.14	-46.3	-49.9	14.5	7.00e-07	0	44	0	1055916032	63	5667
2026-01-12 01:02:26.72	244.10	13.04	-46.4	-49.9	14.4	0.00e+00	0	44	0	1058013184	63	5709
2026-01-12 01:02:27.57	244.01	12.97	-46.3	-49.9	14.4	1.50e-06	0	44	0	1059061760	63	5691
2026-01-12 01:02:28.71	243.90	12.88	-46.3	-49.8	14.5	0.00e+00	0	44	0	1061158912	63	5631
2026-01-12 01:02:29.57	243.81	12.80	-46.3	-49.8	14.5	0.00e+00	0	44	0	1063256064	63	5600
2026-01-12 01:02:30.71	243.69	12.71	-46.2	-49.6	14.7	0.00e+00	0	44	0	1065353216	63	5526
2026-01-12 01:02:31.56	243.61	12.64	-46.1	-49.6	14.8	0.00e+00	0	43	0	1066401792	63	5478
2026-01-12 01:02:32.69	243.49	12.54	-46.1	-49.6	14.8	7.00e-07	0	44	0	1068498944	63	5467
2026-01-12 01:02:33.66	243.40	12.46	-46.0	-49.4	14.9	0.00e+00	0	44	0	1070596096	63	5385
2026-01-12 01:02:34.65	243.30	12.38	-46.1	-49.5	14.8	0.00e+00	0	44	0	1072693248	63	5462
2026-01-12 01:02:35.65	243.20	12.30	-46.1	-49.6	14.7	7.00e-07	0	44	0	1074790400	63	5497
2026-01-12 01:02:36.64	243.11	12.21	-46.2	-49.6	14.6	7.00e-07	0	44	0	1075838976	63	5528
2026-01-12 01:02:37.63	243.01	12.13	-46.2	-49.7	14.6	0.00e+00	0	44	0	1077936128	63	5567
2026-01-12 01:02:38.63	242.91	12.05	-46.2	-49.8	14.5	3.00e-06	0	44	0	1080033280	63	5625
2026-01-12 01:02:39.94	242.79	11.94	-46.3	-49.9	14.4	7.00e-07	0	43	0	1082130432	63	5695
2026-01-12 01:02:40.68	242.72	11.88	-46.4	-50.0	14.3	1.50e-06	0	44	0	1084227584	63	5735
2026-01-12 01:02:41.96	242.60	11.78	-46.4	-50.1	14.2	1.50e-06	0	44	0	1086324736	63	5829
2026-01-12 01:02:42.67	242.53	11.72	-46.5	-50.2	14.1	7.00e-07	0	44	0	1087373312	63	5895
2026-01-12 01:02:43.95	242.41	11.62	-46.5	-50.2	14.1	7.00e-07	0	44	0	1089470464	63	5909
2026-01-12 01:02:44.68	242.34	11.56	-46.6	-50.3	14.0	1.50e-06	0	44	0	1091567616	63	5965
2026-01-12 01:02:45.95	242.23	11.45	-46.6	-50.3	14.0	1.50e-06	0	44	0	1093664768	63	5973
2026-01-12 01:02:46.67	242.16	11.40	-46.6	-50.3	14.0	3.00e-06	0	44	0	1094713344	63	5943
2026-01-12 01:02:47.94	242.04	11.29	-46.5	-50.2	14.1	7.00e-07	0	44	0	1096810496	63	5883
2026-01-12 01:02:48.66	241.98	11.24	-46.6	-50.3	13.9	3.80e-06	0	44	0	1098907648	63	5972
2026-01-12 01:02:49.94	241.86	11.13	-46.4	-50.1	14.2	3.00e-06	0	44	0	1101004800	63	5812
2026-01-12 01:02:50.65	241.80	11.08	-46.4	-50.0	14.3	7.00e-07	0	44	0	1102053376	63	5757
2026-01-12 01:02:51.93	241.68	10.97	-46.4	-50.1	14.2	1.50e-06	0	44	0	1105199104	63	5789
2026-01-12 01:02:52.65	241.62	10.92	-46.4	-50.1	14.2	0.00e+00	0	44	0	1106247680	63	5790
2026-01-12 01:02:54.15	241.49	10.80	-46.4	-50.1	14.1	0.00e+00	0	44	0	1109393408	63	5850
2026-01-12 01:02:54.86	241.43	10.74	-46.4	-50.1	14.2	1.50e-06	0	44	0	1110441984	63	5806
2026-01-12 01:02:56.14	241.31	10.64	-46.4	-50.0	14.2	7.00e-07	0	44	0	1112539136	63	5763
2026-01-12 01:02:56.85	241.25	10.58	-46.4	-50.1	14.1	7.00e-07	0	44	0	1113587712	63	5822
2026-01-12 01:02:58.26	241.13	10.47	-46.4	-50.0	14.2	3.80e-06	0	44	0	1116733440	63	5787
2026-01-12 01:02:58.97	241.07	10.42	-46.4	-50.1	14.1	1.50e-06	0	44	0	1117782016	63	5838
2026-01-12 01:03:00.24	240.96	10.32	-46.5	-50.1	14.1	1.50e-06	0	44	0	1119879168	63	5846
2026-01-12 01:03:00.95	240.90	10.26	-46.5	-50.2	14.0	7.00e-07	0	44	0	1121976320	63	5892
2026-01-12 01:03:02.23	240.79	10.16	-46.5	-50.2	14.0	0.00e+00	0	44	0	1124073472	63	5867
2026-01-12 01:03:02.94	240.73	10.11	-46.5	-50.3	14.0	3.00e-06	0	44	0	1125122048	63	5926
2026-01-12 01:03:04.23	240.63	10.01	-46.5	-50.2	14.0	2.20e-06	0	44	0	1128267776	63	5886
2026-01-12 01:03:04.94	240.57	9.95	-46.5	-50.2	14.0	0.00e+00	0	44	0	1129316352	63	5887
2026-01-12 01:03:06.22	240.46	9.85	-46.5	-50.1	14.1	3.00e-06	0	44	0	1131413504	63	5835
2026-01-12 01:03:07.01	240.40	9.79	-46.5	-50.2	14.0	3.80e-06	0	44	0	1133510656	63	5867
2026-01-12 01:03:08.21	240.30	9.70	-46.5	-50.3	13.9	3.80e-06	0	44	0	1135607808	63	5955
2026-01-12 01:03:09.06	240.23	9.64	-46.6	-50.4	13.8	7.00e-07	0	44	0	1136656384	63	6026
2026-01-12 01:03:10.20	240.14	9.55	-46.6	-50.3	13.9	3.80e-06	0	44	0	1138753536	63	5956
2026-01-12 01:03:11.05	240.07	9.48	-46.6	-50.4	13.8	5.30e-06	0	44	0	1140850688	63	6012
2026-01-12 01:03:12.19	239.98	9.40	-46.6	-50.4	13.8	2.20e-06	0	44	0	1142947840	63	6040
2026-01-12 01:03:13.04	239.91	9.33	-46.7	-50.5	13.7	6.10e-06	0	44	0	1143996416	63	6106
2026-01-12 01:03:14.18	239.82	9.25	-46.6	-50.5	13.7	7.60e-06	0	44	0	1146093568	63	6079
2026-01-12 01:03:15.40	239.72	9.15	-46.7	-50.6	13.5	9.10e-06	0	44	0	1149239296	64	5813
2026-01-12 01:03:16.42	239.64	9.08	-46.7	-50.6	13.5	1.14e-05	0	44	0	1150287872	64	5824
2026-01-12 01:03:17.42	239.57	9.00	-46.8	-50.8	13.3	1.83e-05	0	44	0	1152385024	64	5971
2026-01-12 01:03:18.41	239.49	8.93	-50.3	-65.3	3.8	8.49e-01	0	44	104	1153433600	71	21144
2026-01-12 01:03:19.40	239.41	8.85	-50.6	-65.7	3.8	1.49e+00	0	44	104	1153433600	71	22024
2026-01-12 01:03:20.40	239.34	8.78	-50.6	-65.8	3.8	1.49e+00	0	44	104	1153433600	72	21078
2026-01-12 01:03:21.39	239.26	8.71	-50.6	-65.9	3.8	1.49e+00	0	44	104	1153433600	72	21351
2026-01-12 01:03:22.38	239.19	8.63	-50.7	-65.9	3.8	1.49e+00	0	44	104	1153433600	72	21397
2026-01-12 01:03:23.38	239.11	8.56	-50.8	-66.0	3.8	1.49e+00	0	44	104	1153433600	72	21580
2026-01-12 01:03:24.37	239.04	8.49	-50.8	-66.0	3.8	1.49e+00	0	44	104	1153433600	72	21582
2026-01-12 01:03:25.36	238.96	8.41	-50.6	-66.0	3.8	1.49e+00	0	44	104	1153433600	72	21534
2026-01-12 01:03:26.36	238.89	8.34	-50.7	-66.0	3.8	1.49e+00	0	44	104	1153433600	72	21628
2026-01-12 01:03:27.35	238.82	8.27	-50.8	-66.0	3.8	1.49e+00	0	44	104	1153433600	72	21654
2026-01-12 01:03:28.39	238.74	8.19	-50.8	-66.0	3.8	1.49e+00	0	44	104	1153433600	72	21684
2026-01-12 01:03:29.41	238.66	8.12	-50.8	-66.0	3.8	1.49e+00	0	44	104	1153433600	72	21705
2026-01-12 01:03:30.44	238.59	8.04	-50.8	-66.0	3.8	1.49e+00	0	44	104	1153433600	72	21715
2026-01-12 01:03:31.46	238.52	7.97	-50.7	-66.0	3.8	1.49e+00	0	44	104	1153433600	72	21664
2026-01-12 01:03:32.49	238.44	7.89	-50.7	-66.0	3.8	1.49e+00	0	44	104	1153433600	72	21712
2026-01-12 01:03:33.53	238.37	7.82	-50.7	-66.0	3.8	1.49e+00	0	44	104	1153433600	72	21726
2026-01-12 01:03:34.55	238.29	7.74	-50.7	-66.0	3.8	1.49e+00	0	44	104	1153433600	72	21674
2026-01-12 01:03:35.55	238.22	7.67	-50.7	-66.0	3.8	1.49e+00	0	44	104	1153433600	72	21639
2026-01-12 01:03:36.54	238.15	7.60	-50.7	-66.0	3.8	1.49e+00	0	44	104	1153433600	72	21631
2026-01-12 01:03:37.53	238.08	7.53	-50.7	-66.0	3.8	1.49e+00	0	44	104	1153433600	72	21632
2026-01-12 01:03:38.53	238.02	7.46	-50.7	-65.9	3.8	1.49e+00	0	44	104	1153433600	72	21487
2026-01-12 01:03:39.52	237.95	7.39	-50.6	-66.0	3.8	1.49e+00	0	44	104	1153433600	72	21535
2026-01-12 01:03:40.51	237.88	7.32	-50.6	-66.0	3.8	1.49e+00	0	44	104	1153433600	72	21523
2026-01-12 01:03:41.51	237.81	7.24	-50.6	-65.9	3.8	1.49e+00	0	44	104	1153433600	72	21486
2026-01-12 01:03:42.50	237.74	7.17	-50.6	-66.0	3.8	1.49e+00	0	44	104	1153433600	72	21602
2026-01-12 01:03:43.49	237.67	7.10	-50.6	-66.0	3.8	1.49e+00	0	44	104	1153433600	72	21513
2026-01-12 01:03:44.49	237.61	7.03	-50.6	-65.9	3.8	1.49e+00	0	44	104	1153433600	72	21444
2026-01-12 01:03:45.48	237.54	6.96	-50.6	-65.9	3.8	1.49e+00	0	44	104	1153433600	72	21463
2026-01-12 01:03:46.47	237.47	6.89	-50.6	-65.9	3.8	1.49e+00	0	44	104	1153433600	72	21422
2026-01-12 01:03:47.47	237.41	6.82	-50.6	-66.0	3.8	1.49e+00	0	44	104	1153433600	72	21559
2026-01-12 01:03:48.46	237.34	6.75	-50.6	-65.9	3.8	1.49e+00	0	44	104	1153433600	72	21423
2026-01-12 01:03:49.45	237.28	6.68	-50.6	-65.9	3.8	1.49e+00	0	44	104	1153433600	72	21403
2026-01-12 01:03:50.45	237.21	6.62	-50.6	-65.9	3.8	1.49e+00	0	44	104	1153433600	72	21436
2026-01-12 01:03:51.44	237.15	6.55	-50.6	-65.9	3.8	1.49e+00	0	44	104	1153433600	72	21464
2026-01-12 01:03:52.43	237.08	6.48	-50.6	-65.9	3.8	1.49e+00	0	44	104	1153433600	72	21464
2026-01-12 01:03:53.43	237.02	6.41	-50.6	-65.9	3.8	1.49e+00	0	44	104	1153433600	72	21414
2026-01-12 01:03:54.42	236.95	6.34	-50.6	-65.9	3.8	1.49e+00	0	44	104	1153433600	72	21402
2026-01-12 01:03:55.41	236.89	6.27	-50.6	-66.0	3.8	1.49e+00	0	44	104	1153433600	72	21538
