passes_logs/2026/01/12/T1/T1__20260112_000151_NOAA_21_JPSS-2_rec.log

#Pass ID: 20260112_000151_NOAA 21 (JPSS-2)
#Satellite: NOAA 21 (JPSS-2)
#Configuration: NOAA 21
#almurnet v.1.7.20251203
#Start time: 2026-01-12 00:01:52

#Version: 2.0.20230620
#Station: T1
#Location: 37.570604 lon 55.790049 lat
#TLE: 1 54234U 22150A   26011.27699114  .00000090  00000+0  63771-4 0  9993
#TLE: 2 54234  98.7494 312.2218 0000765 314.9553  45.1561 14.19534106164285

#Time	Az	El	Level	Level2	SNR	BER	BlckErr	Temp	State	Recorded	gain1	gain2
2026-01-12 00:01:52.81	14.11	5.10	-49.9	-63.3	3.8	1.49e+00	0	42	0	0	70	17756
2026-01-12 00:01:53.80	14.09	5.17	-49.9	-63.2	3.8	1.49e+00	0	42	104	0	71	16670
2026-01-12 00:01:54.79	14.08	5.25	-49.9	-63.2	3.8	1.49e+00	0	43	104	0	71	16569
2026-01-12 00:01:55.79	14.06	5.32	-49.9	-63.1	3.8	1.49e+00	0	43	104	0	71	16496
2026-01-12 00:01:56.78	14.05	5.39	-49.9	-63.1	3.8	1.49e+00	0	43	104	0	71	16412
2026-01-12 00:01:57.77	14.03	5.46	-49.9	-63.0	3.8	1.49e+00	0	42	104	0	71	16305
2026-01-12 00:01:58.77	14.02	5.53	-49.9	-63.0	3.8	1.49e+00	0	43	104	0	71	16189
2026-01-12 00:01:59.76	14.00	5.60	-49.9	-63.0	3.8	1.49e+00	0	43	104	0	71	16187
2026-01-12 00:02:00.75	13.99	5.67	-49.9	-63.0	3.8	1.49e+00	0	43	104	0	71	16207
2026-01-12 00:02:01.75	13.97	5.75	-49.9	-63.0	3.8	1.49e+00	0	43	104	0	71	16236
2026-01-12 00:02:02.74	13.96	5.82	-49.9	-63.0	3.8	1.49e+00	0	43	104	0	71	16242
2026-01-12 00:02:03.73	13.94	5.89	-49.9	-63.0	3.8	1.49e+00	0	43	104	0	71	16306
2026-01-12 00:02:04.73	13.93	5.96	-49.9	-63.0	3.8	1.49e+00	0	43	104	0	71	16259
2026-01-12 00:02:05.72	13.91	6.04	-49.9	-63.0	3.8	1.49e+00	0	42	104	0	71	16223
2026-01-12 00:02:06.71	13.89	6.11	-49.9	-63.0	3.8	1.49e+00	0	43	104	0	71	16171
2026-01-12 00:02:07.71	13.88	6.18	-49.9	-62.9	3.8	1.49e+00	0	42	104	0	71	16072
2026-01-12 00:02:08.70	13.86	6.26	-49.9	-62.9	3.8	1.49e+00	0	43	104	0	71	16051
2026-01-12 00:02:09.69	13.85	6.33	-49.9	-62.9	3.8	1.49e+00	0	43	104	0	71	15975
2026-01-12 00:02:10.69	13.83	6.41	-49.9	-62.8	3.8	1.49e+00	0	43	104	0	71	15931
2026-01-12 00:02:11.68	13.81	6.48	-49.9	-62.9	3.8	1.49e+00	0	43	104	0	71	15978
2026-01-12 00:02:12.67	13.80	6.55	-49.9	-62.9	3.8	1.49e+00	0	43	104	0	71	16043
2026-01-12 00:02:13.67	13.78	6.63	-49.9	-62.9	3.8	1.49e+00	0	43	104	0	71	16093
2026-01-12 00:02:14.66	13.76	6.70	-49.9	-62.9	3.8	1.49e+00	0	43	104	0	71	16049
2026-01-12 00:02:15.65	13.75	6.78	-49.9	-62.8	3.8	1.49e+00	0	42	104	0	71	15796
2026-01-12 00:02:16.65	13.73	6.85	-49.8	-62.3	3.8	1.49e+00	0	42	104	0	71	15046
2026-01-12 00:02:17.64	13.71	6.93	-49.7	-61.6	3.8	1.49e+00	0	42	104	0	71	13881
2026-01-12 00:02:18.64	13.70	7.01	-49.6	-60.6	3.9	1.49e+00	0	43	104	0	71	12335
2026-01-12 00:02:19.63	13.68	7.08	-49.5	-59.7	4.0	1.46e+00	0	43	104	0	71	11118
2026-01-12 00:02:20.62	13.66	7.16	-49.3	-58.0	4.9	1.07e+00	0	43	0	0	70	9642
2026-01-12 00:02:21.62	13.64	7.23	-49.1	-56.8	5.6	4.91e-01	0	43	0	0	70	8379
2026-01-12 00:02:22.61	13.63	7.31	-48.8	-55.8	6.3	3.29e-01	0	43	0	0	69	7985
2026-01-12 00:02:23.60	13.61	7.39	-48.5	-54.9	7.1	1.73e-01	0	43	0	0	69	7129
2026-01-12 00:02:24.60	13.59	7.46	-48.3	-54.1	7.9	8.78e-02	0	43	0	0	68	6898
2026-01-12 00:02:25.59	13.57	7.54	-48.0	-53.4	8.5	4.49e-02	0	43	0	0	68	6393
2026-01-12 00:02:26.58	13.56	7.62	-47.6	-52.6	9.2	2.11e-02	0	43	0	0	67	6149
2026-01-12 00:02:27.58	13.54	7.70	-47.4	-52.2	9.7	1.49e-02	0	43	0	0	66	6205
2026-01-12 00:02:28.57	13.52	7.77	-47.2	-51.6	10.3	6.93e-03	0	43	0	0	66	5808
2026-01-12 00:02:29.56	13.50	7.85	-47.1	-51.4	10.5	4.11e-03	0	43	0	0	66	5658
2026-01-12 00:02:30.56	13.48	7.93	-46.8	-50.9	10.9	2.15e-03	0	43	0	0	65	5704
2026-01-12 00:02:31.55	13.46	8.01	-46.7	-50.7	11.2	1.60e-03	0	43	0	0	65	5558
2026-01-12 00:02:32.54	13.45	8.09	-46.6	-50.5	11.4	1.17e-03	0	43	0	0	65	5425
2026-01-12 00:02:33.54	13.43	8.17	-46.5	-50.3	11.6	6.96e-04	0	43	0	0	64	5624
2026-01-12 00:02:34.53	13.41	8.25	-46.4	-50.3	11.7	5.95e-04	0	43	0	0	64	5597
2026-01-12 00:02:35.52	13.39	8.33	-46.5	-50.3	11.6	5.93e-04	0	43	0	0	64	5612
2026-01-12 00:02:36.52	13.37	8.41	-46.5	-50.4	11.5	8.01e-04	0	43	0	0	64	5671
2026-01-12 00:02:37.51	13.35	8.49	-46.6	-50.5	11.4	8.88e-04	0	43	0	0	64	5745
2026-01-12 00:02:38.50	13.33	8.57	-46.8	-50.9	11.0	1.43e-03	0	43	0	0	64	5998
2026-01-12 00:02:39.50	13.31	8.65	-47.0	-51.3	10.6	3.11e-03	0	43	0	0	64	6287
2026-01-12 00:02:40.49	13.29	8.73	-47.4	-52.1	9.7	9.05e-03	0	43	0	0	65	6535
2026-01-12 00:02:41.49	13.27	8.81	-47.7	-52.9	9.0	1.94e-02	0	43	0	0	66	6746
2026-01-12 00:02:42.48	13.25	8.89	-48.2	-54.0	7.8	6.00e-02	0	43	0	0	67	7271
2026-01-12 00:02:43.47	13.23	8.97	-48.6	-55.5	6.5	1.70e-01	0	43	0	0	67	8569
2026-01-12 00:02:44.47	13.21	9.06	-49.3	-58.1	4.9	5.54e-01	0	43	0	0	69	10368
2026-01-12 00:02:45.46	13.19	9.14	-48.8	-55.9	6.0	1.47e+00	0	43	0	0	69	8079
2026-01-12 00:02:46.46	13.17	9.22	-48.1	-54.0	8.1	2.25e-03	0	43	0	0	66	7670
2026-01-12 00:02:47.45	13.15	9.30	-49.9	-62.9	3.8	1.48e+00	0	43	104	0	70	16999
2026-01-12 00:02:48.44	13.13	9.39	-48.2	-54.3	7.4	1.27e+00	0	43	104	0	68	7115
2026-01-12 00:02:49.44	13.11	9.47	-44.8	-47.8	14.2	2.20e-06	0	43	0	0	61	5036
2026-01-12 00:02:50.43	13.09	9.55	-44.5	-47.5	14.6	0.00e+00	0	43	0	0	61	4834
2026-01-12 00:02:51.42	13.06	9.64	-44.4	-47.3	14.8	0.00e+00	0	43	0	0	60	4995
2026-01-12 00:02:52.42	13.04	9.72	-44.0	-46.8	15.3	0.00e+00	0	43	0	0	60	4731
2026-01-12 00:02:53.42	13.02	9.81	-43.9	-46.6	15.4	0.00e+00	0	43	0	0	59	4899
2026-01-12 00:02:54.41	13.00	9.89	-43.8	-46.4	15.6	0.00e+00	0	43	0	0	59	4800
2026-01-12 00:02:55.40	12.98	9.98	-43.9	-46.6	15.4	0.00e+00	0	43	0	0	59	4876
2026-01-12 00:02:56.46	12.95	10.07	-43.7	-46.4	15.6	0.00e+00	0	43	0	0	59	4779
2026-01-12 00:02:57.39	12.93	10.15	-43.7	-46.3	15.7	0.00e+00	0	43	0	0	59	4758
2026-01-12 00:02:58.39	12.91	10.23	-43.7	-46.4	15.7	0.00e+00	0	43	0	0	59	4760
2026-01-12 00:02:59.56	12.88	10.33	-43.8	-46.4	15.6	0.00e+00	0	43	0	0	59	4802
2026-01-12 00:03:00.41	12.87	10.41	-43.7	-46.3	15.7	0.00e+00	0	43	0	0	59	4743
2026-01-12 00:03:01.55	12.84	10.51	-43.8	-46.4	15.7	0.00e+00	0	43	0	0	59	4770
2026-01-12 00:03:02.40	12.82	10.58	-43.8	-46.3	15.7	0.00e+00	0	43	0	0	59	4754
2026-01-12 00:03:03.53	12.79	10.68	-43.6	-46.2	15.8	0.00e+00	0	43	0	0	59	4659
2026-01-12 00:03:04.39	12.77	10.76	-43.7	-46.2	15.8	0.00e+00	0	43	0	0	59	4704
2026-01-12 00:03:05.52	12.75	10.86	-43.8	-46.4	15.7	0.00e+00	0	43	0	0	59	4780
2026-01-12 00:03:06.37	12.73	10.93	-43.6	-46.1	16.0	0.00e+00	0	43	0	0	59	4625
2026-01-12 00:03:07.51	12.70	11.04	-43.4	-45.9	16.1	0.00e+00	0	43	0	0	58	4810
2026-01-12 00:03:08.36	12.68	11.11	-43.5	-45.9	16.1	0.00e+00	0	43	0	0	58	4810
2026-01-12 00:03:09.50	12.65	11.21	-43.4	-45.9	16.2	0.00e+00	0	43	0	0	58	4779
2026-01-12 00:03:10.35	12.63	11.29	-43.3	-45.8	16.2	0.00e+00	0	43	0	0	58	4728
2026-01-12 00:03:11.52	12.60	11.40	-43.3	-45.8	16.3	0.00e+00	0	43	0	0	58	4720
2026-01-12 00:03:12.37	12.58	11.47	-43.2	-45.6	16.4	0.00e+00	0	42	0	0	58	4646
2026-01-12 00:03:13.60	12.55	11.59	-43.3	-45.7	16.4	0.00e+00	0	43	0	0	58	4664
2026-01-12 00:03:14.45	12.53	11.66	-43.2	-45.6	16.4	0.00e+00	0	43	0	0	58	4629
2026-01-12 00:03:15.59	12.50	11.77	-43.2	-45.6	16.5	0.00e+00	0	43	0	0	58	4608
2026-01-12 00:03:16.44	12.48	11.85	-43.2	-45.6	16.4	0.00e+00	0	43	0	0	58	4647
2026-01-12 00:03:17.58	12.45	11.95	-43.2	-45.6	16.4	0.00e+00	0	43	0	0	58	4633
2026-01-12 00:03:18.44	12.43	12.03	-43.1	-45.5	16.5	0.00e+00	0	43	0	0	58	4576
2026-01-12 00:03:19.57	12.40	12.14	-43.2	-45.7	16.4	0.00e+00	0	43	0	0	58	4653
2026-01-12 00:03:20.42	12.37	12.22	-43.1	-45.4	16.7	0.00e+00	0	43	0	0	58	4503
2026-01-12 00:03:21.56	12.34	12.32	-43.0	-45.3	16.7	0.00e+00	0	43	0	0	58	4478
2026-01-12 00:03:22.41	12.32	12.40	-43.0	-45.4	16.7	0.00e+00	0	43	0	0	58	4498
2026-01-12 00:03:23.55	12.29	12.51	-43.0	-45.3	16.7	0.00e+00	0	43	0	0	58	4482
2026-01-12 00:03:24.40	12.27	12.59	-43.0	-45.3	16.8	0.00e+00	0	43	0	0	58	4459
2026-01-12 00:03:25.54	12.24	12.70	-43.1	-45.4	16.7	0.00e+00	0	43	0	0	58	4524
2026-01-12 00:03:26.39	12.21	12.78	-43.1	-45.4	16.7	0.00e+00	0	43	0	0	58	4504
2026-01-12 00:03:27.53	12.18	12.89	-43.1	-45.4	16.7	0.00e+00	0	43	0	0	58	4526
2026-01-12 00:03:28.38	12.16	12.98	-43.0	-45.3	16.8	0.00e+00	0	43	0	0	58	4483
2026-01-12 00:03:29.52	12.13	13.09	-42.9	-45.2	16.8	0.00e+00	0	43	0	0	57	4683
2026-01-12 00:03:30.37	12.10	13.17	-42.9	-45.2	16.9	0.00e+00	0	43	0	0	57	4687
2026-01-12 00:03:31.51	12.07	13.28	-43.0	-45.3	16.8	0.00e+00	0	43	0	0	57	4750
2026-01-12 00:03:32.36	12.04	13.36	-43.0	-45.3	16.8	0.00e+00	0	43	0	0	57	4743
2026-01-12 00:03:33.50	12.01	13.48	-43.0	-45.3	16.7	0.00e+00	0	43	0	0	57	4748
2026-01-12 00:03:34.36	11.99	13.56	-43.0	-45.3	16.8	0.00e+00	0	43	0	0	57	4735
2026-01-12 00:03:35.49	11.95	13.67	-43.0	-45.3	16.8	0.00e+00	0	43	0	0	57	4716
2026-01-12 00:03:36.35	11.93	13.76	-43.0	-45.2	16.9	0.00e+00	0	43	0	0	57	4701
2026-01-12 00:03:37.48	11.89	13.87	-42.9	-45.2	16.9	0.00e+00	0	43	0	0	57	4684
2026-01-12 00:03:38.33	11.87	13.96	-43.0	-45.3	16.7	0.00e+00	0	43	0	0	57	4742
2026-01-12 00:03:39.47	11.83	14.07	-43.1	-45.4	16.7	0.00e+00	0	43	0	0	57	4803
2026-01-12 00:03:40.32	11.81	14.16	-43.1	-45.4	16.7	0.00e+00	0	43	0	0	57	4792
2026-01-12 00:03:41.46	11.77	14.27	-43.1	-45.5	16.6	0.00e+00	0	43	0	0	57	4825
2026-01-12 00:03:42.31	11.75	14.36	-43.0	-45.3	16.8	0.00e+00	0	43	0	0	57	4736
2026-01-12 00:03:43.45	11.71	14.48	-43.0	-45.4	16.7	0.00e+00	0	43	0	0	57	4775
2026-01-12 00:03:44.30	11.68	14.56	-43.0	-45.3	16.7	0.00e+00	0	43	0	0	57	4756
2026-01-12 00:03:45.44	11.65	14.68	-42.9	-45.3	16.8	0.00e+00	0	43	0	0	57	4716
2026-01-12 00:03:46.29	11.62	14.77	-43.0	-45.3	16.8	0.00e+00	0	43	0	0	57	4752
2026-01-12 00:03:47.50	11.58	14.90	-42.9	-45.3	16.8	0.00e+00	0	43	0	0	57	4755
2026-01-12 00:03:48.36	11.55	14.99	-43.0	-45.3	16.8	0.00e+00	0	43	0	0	57	4754
2026-01-12 00:03:49.49	11.52	15.10	-43.0	-45.3	16.7	0.00e+00	0	43	0	0	57	4758
2026-01-12 00:03:50.35	11.49	15.20	-42.9	-45.3	16.8	0.00e+00	0	43	0	0	57	4748
2026-01-12 00:03:51.48	11.45	15.32	-42.9	-45.4	16.7	0.00e+00	0	43	0	0	57	4762
2026-01-12 00:03:52.34	11.42	15.41	-42.9	-45.3	16.8	0.00e+00	0	43	0	0	57	4731
2026-01-12 00:03:53.47	11.38	15.53	-43.0	-45.3	16.8	0.00e+00	0	43	0	0	57	4746
2026-01-12 00:03:54.32	11.35	15.62	-43.0	-45.4	16.7	0.00e+00	0	43	0	0	57	4762
2026-01-12 00:03:55.46	11.32	15.74	-42.9	-45.4	16.7	0.00e+00	0	43	0	0	57	4764
2026-01-12 00:03:56.31	11.29	15.83	-42.9	-45.4	16.7	0.00e+00	0	43	0	0	57	4779
2026-01-12 00:03:57.45	11.25	15.96	-43.0	-45.4	16.7	0.00e+00	0	43	0	0	57	4799
2026-01-12 00:03:58.31	11.22	16.05	-43.0	-45.4	16.8	0.00e+00	0	43	0	0	57	4763
2026-01-12 00:03:59.44	11.18	16.18	-43.0	-45.4	16.7	0.00e+00	0	43	0	0	57	4810
2026-01-12 00:04:00.30	11.14	16.27	-43.0	-45.4	16.8	0.00e+00	0	43	0	0	57	4782
2026-01-12 00:04:01.43	11.10	16.39	-43.0	-45.3	16.8	0.00e+00	0	43	0	0	57	4746
2026-01-12 00:04:02.29	11.07	16.49	-43.0	-45.4	16.7	0.00e+00	0	43	0	0	57	4790
2026-01-12 00:04:03.42	11.03	16.62	-43.1	-45.4	16.7	0.00e+00	0	43	0	0	57	4800
2026-01-12 00:04:04.28	11.00	16.71	-43.0	-45.3	16.8	0.00e+00	0	43	0	0	57	4731
2026-01-12 00:04:05.41	10.96	16.84	-43.0	-45.3	16.9	0.00e+00	0	43	0	0	57	4732
2026-01-12 00:04:06.26	10.93	16.94	-43.0	-45.3	16.8	0.00e+00	0	43	0	0	57	4754
2026-01-12 00:04:07.51	10.88	17.08	-43.0	-45.3	16.9	0.00e+00	0	43	0	0	57	4744
2026-01-12 00:04:08.36	10.85	17.18	-43.1	-45.4	16.8	0.00e+00	0	43	0	0	57	4787
2026-01-12 00:04:09.50	10.80	17.31	-43.1	-45.3	16.8	0.00e+00	0	43	0	0	57	4754
2026-01-12 00:04:10.36	10.77	17.41	-43.1	-45.3	16.9	0.00e+00	0	43	0	0	57	4756
2026-01-12 00:04:11.49	10.72	17.54	-43.1	-45.4	16.8	0.00e+00	0	43	0	0	57	4762
2026-01-12 00:04:12.34	10.69	17.64	-43.1	-45.3	16.9	0.00e+00	0	43	0	0	57	4724
2026-01-12 00:04:13.48	10.65	17.77	-43.1	-45.3	16.9	0.00e+00	0	43	0	0	57	4726
2026-01-12 00:04:14.33	10.61	17.87	-43.1	-45.3	16.8	0.00e+00	0	43	0	0	57	4749
2026-01-12 00:04:15.47	10.56	18.00	-43.2	-45.4	16.8	0.00e+00	0	43	0	0	57	4786
2026-01-12 00:04:16.32	10.53	18.10	-43.2	-45.4	16.9	0.00e+00	0	43	0	0	57	4762
2026-01-12 00:04:17.46	10.48	18.24	-43.2	-45.3	16.9	0.00e+00	0	43	0	0	57	4752
2026-01-12 00:04:18.31	10.45	18.34	-43.2	-45.4	16.8	0.00e+00	0	43	0	0	57	4774
2026-01-12 00:04:19.45	10.40	18.48	-43.1	-45.3	16.9	0.00e+00	0	43	0	0	57	4724
2026-01-12 00:04:20.30	10.36	18.58	-43.1	-45.3	16.9	0.00e+00	0	43	0	0	57	4727
2026-01-12 00:04:21.44	10.32	18.72	-43.2	-45.4	16.8	0.00e+00	0	43	0	0	57	4794
2026-01-12 00:04:22.29	10.28	18.82	-43.3	-45.5	16.7	0.00e+00	0	43	0	0	57	4817
2026-01-12 00:04:23.51	10.23	18.97	-43.1	-45.3	16.9	0.00e+00	0	43	0	0	57	4733
2026-01-12 00:04:24.36	10.19	19.08	-43.1	-45.3	16.9	0.00e+00	0	43	0	0	57	4712
2026-01-12 00:04:25.50	10.14	19.22	-43.0	-45.1	17.1	0.00e+00	0	43	0	0	57	4643
2026-01-12 00:04:26.35	10.10	19.32	-43.0	-45.1	17.1	0.00e+00	0	43	0	0	57	4632
2026-01-12 00:04:27.61	10.04	19.48	-43.0	-45.1	17.1	0.00e+00	0	43	0	0	57	4614
2026-01-12 00:04:28.43	10.01	19.58	-43.0	-45.1	17.1	0.00e+00	0	43	0	0	57	4626
2026-01-12 00:04:29.56	9.95	19.73	-43.0	-45.1	17.1	0.00e+00	0	43	0	0	57	4627
2026-01-12 00:04:30.42	9.91	19.83	-42.9	-45.0	17.1	0.00e+00	0	43	0	0	57	4591
2026-01-12 00:04:31.55	9.86	19.98	-42.9	-45.0	17.2	0.00e+00	0	43	0	0	57	4576
2026-01-12 00:04:32.41	9.82	20.09	-42.9	-44.9	17.2	0.00e+00	0	43	0	0	57	4545
2026-01-12 00:04:33.54	9.77	20.23	-42.7	-44.8	17.3	0.00e+00	0	43	0	0	57	4465
2026-01-12 00:04:34.39	9.73	20.34	-42.8	-44.9	17.3	0.00e+00	0	43	0	0	57	4495
2026-01-12 00:04:35.53	9.67	20.49	-42.7	-44.8	17.3	0.00e+00	0	43	0	0	57	4474
2026-01-12 00:04:36.38	9.63	20.60	-42.7	-44.8	17.4	0.00e+00	0	43	0	0	57	4442
2026-01-12 00:04:37.52	9.57	20.75	-42.6	-44.7	17.4	0.00e+00	0	43	0	0	57	4403
2026-01-12 00:04:38.38	9.53	20.87	-42.6	-44.6	17.4	0.00e+00	0	43	0	0	57	4389
2026-01-12 00:04:39.51	9.47	21.02	-42.5	-44.5	17.5	0.00e+00	0	43	0	0	57	4334
2026-01-12 00:04:40.37	9.43	21.13	-42.5	-44.5	17.6	0.00e+00	0	43	0	0	56	4567
2026-01-12 00:04:41.50	9.37	21.28	-42.5	-44.5	17.6	0.00e+00	0	43	0	0	56	4587
2026-01-12 00:04:42.36	9.33	21.40	-42.5	-44.5	17.6	0.00e+00	0	43	0	0	56	4593
2026-01-12 00:04:43.57	9.27	21.56	-42.5	-44.5	17.6	0.00e+00	0	43	0	0	56	4573
2026-01-12 00:04:44.43	9.22	21.68	-42.2	-44.2	17.8	0.00e+00	0	43	0	0	56	4433
2026-01-12 00:04:45.56	9.16	21.83	-42.3	-44.2	17.8	0.00e+00	0	43	0	0	56	4433
2026-01-12 00:04:46.42	9.11	21.95	-42.2	-44.2	17.9	0.00e+00	0	43	0	0	56	4420
2026-01-12 00:04:47.55	9.05	22.11	-42.0	-44.0	18.1	0.00e+00	0	43	0	0	56	4304
2026-01-12 00:04:48.40	9.01	22.23	-42.1	-44.0	18.0	0.00e+00	0	43	0	0	56	4330
2026-01-12 00:04:49.54	8.94	22.39	-42.1	-44.0	18.1	0.00e+00	0	43	0	0	56	4319
2026-01-12 00:04:50.39	8.90	22.50	-41.8	-43.7	18.2	0.00e+00	0	43	0	0	55	4417
2026-01-12 00:04:51.53	8.83	22.67	-41.7	-43.6	18.3	0.00e+00	0	43	0	0	55	4349
2026-01-12 00:04:52.38	8.78	22.79	-41.7	-43.6	18.3	0.00e+00	0	43	0	0	55	4357
2026-01-12 00:04:53.52	8.72	22.95	-41.5	-43.4	18.5	0.00e+00	0	43	0	0	55	4274
2026-01-12 00:04:54.37	8.67	23.07	-41.5	-43.4	18.5	0.00e+00	0	43	0	0	55	4258
2026-01-12 00:04:55.51	8.60	23.23	-41.6	-43.4	18.5	0.00e+00	0	43	0	0	55	4279
2026-01-12 00:04:56.36	8.55	23.36	-41.5	-43.3	18.6	0.00e+00	0	43	0	0	55	4237
2026-01-12 00:04:57.50	8.49	23.52	-41.5	-43.3	18.4	0.00e+00	0	43	0	0	54	4478
2026-01-12 00:04:58.35	8.43	23.65	-41.6	-43.4	18.5	0.00e+00	0	43	0	0	54	4540
2026-01-12 00:04:59.48	8.37	23.81	-41.5	-43.3	18.7	0.00e+00	0	43	0	0	54	4467
2026-01-12 00:05:00.33	8.31	23.94	-41.5	-43.3	18.6	0.00e+00	0	43	0	0	54	4482
2026-01-12 00:05:01.54	8.24	24.12	-41.5	-43.4	18.6	0.00e+00	0	43	0	0	54	4495
2026-01-12 00:05:02.39	8.18	24.25	-41.4	-43.3	18.7	0.00e+00	0	43	0	0	54	4444
2026-01-12 00:05:03.59	8.11	24.43	-41.5	-43.4	18.6	0.00e+00	0	43	0	0	54	4499
2026-01-12 00:05:04.44	8.05	24.56	-41.5	-43.4	18.6	0.00e+00	0	43	0	0	54	4510
2026-01-12 00:05:05.58	7.98	24.73	-41.6	-43.5	18.5	0.00e+00	0	43	0	0	54	4552
2026-01-12 00:05:06.43	7.93	24.86	-41.7	-43.6	18.4	0.00e+00	0	43	0	0	54	4613
2026-01-12 00:05:07.57	7.85	25.04	-41.7	-43.5	18.4	0.00e+00	0	43	0	0	54	4594
2026-01-12 00:05:08.42	7.79	25.17	-41.7	-43.6	18.4	0.00e+00	0	43	0	0	54	4629
2026-01-12 00:05:09.56	7.72	25.35	-41.9	-43.8	18.3	0.00e+00	0	43	0	0	54	4718
2026-01-12 00:05:10.41	7.66	25.48	-41.9	-43.8	18.2	0.00e+00	0	43	0	0	54	4731
2026-01-12 00:05:11.55	7.58	25.66	-41.9	-43.8	18.2	0.00e+00	0	43	0	0	54	4735
2026-01-12 00:05:12.40	7.52	25.79	-41.9	-43.8	18.2	0.00e+00	0	43	0	0	54	4759
2026-01-12 00:05:13.54	7.44	25.98	-42.0	-44.0	18.1	0.00e+00	0	43	0	0	54	4815
2026-01-12 00:05:14.39	7.38	26.11	-42.1	-44.1	18.0	0.00e+00	0	43	0	0	54	4887
2026-01-12 00:05:15.53	7.30	26.29	-42.2	-44.2	17.9	0.00e+00	0	43	0	0	55	4660
2026-01-12 00:05:16.38	7.24	26.43	-42.3	-44.3	17.8	0.00e+00	0	43	0	0	55	4716
2026-01-12 00:05:17.52	7.15	26.62	-42.4	-44.3	17.7	0.00e+00	0	43	0	0	55	4755
2026-01-12 00:05:18.37	7.09	26.76	-42.4	-44.4	17.7	0.00e+00	0	43	0	0	55	4791
2026-01-12 00:05:19.51	7.01	26.95	-42.5	-44.5	17.6	0.00e+00	0	43	0	0	55	4829
2026-01-12 00:05:20.36	6.94	27.09	-42.6	-44.6	17.5	0.00e+00	0	43	0	0	55	4872
2026-01-12 00:05:21.60	6.85	27.29	-42.4	-44.3	17.8	0.00e+00	0	43	0	0	55	4741
2026-01-12 00:05:22.46	6.78	27.44	-42.5	-44.4	17.6	0.00e+00	0	43	0	0	55	4804
2026-01-12 00:05:23.59	6.69	27.63	-42.5	-44.5	17.6	0.00e+00	0	43	0	0	55	4856
2026-01-12 00:05:24.45	6.62	27.77	-42.4	-44.4	17.7	0.00e+00	0	43	0	0	55	4793
2026-01-12 00:05:25.58	6.53	27.97	-42.5	-44.4	17.7	0.00e+00	0	43	0	0	55	4800
2026-01-12 00:05:26.44	6.46	28.11	-42.4	-44.3	17.7	0.00e+00	0	43	0	0	55	4756
2026-01-12 00:05:27.57	6.37	28.31	-42.5	-44.4	17.6	0.00e+00	0	43	0	0	55	4813
2026-01-12 00:05:28.42	6.30	28.46	-42.4	-44.4	17.7	0.00e+00	0	43	0	0	55	4775
2026-01-12 00:05:29.56	6.21	28.66	-42.4	-44.4	17.6	0.00e+00	0	43	0	0	55	4796
2026-01-12 00:05:30.42	6.13	28.81	-42.5	-44.5	17.6	0.00e+00	0	43	0	0	55	4839
2026-01-12 00:05:31.55	6.04	29.01	-42.6	-44.6	17.5	0.00e+00	0	43	0	0	55	4874
2026-01-12 00:05:32.41	5.96	29.16	-42.6	-44.6	17.4	0.00e+00	0	43	0	0	55	4901
2026-01-12 00:05:33.54	5.86	29.36	-42.8	-44.8	17.3	0.00e+00	0	43	0	0	56	4747
2026-01-12 00:05:34.40	5.79	29.52	-42.8	-44.8	17.4	0.00e+00	0	43	0	0	56	4726
2026-01-12 00:05:35.61	5.68	29.74	-42.7	-44.7	17.4	0.00e+00	0	43	0	0	56	4705
2026-01-12 00:05:36.46	5.60	29.89	-42.8	-44.8	17.4	0.00e+00	0	43	0	0	56	4744
2026-01-12 00:05:37.60	5.50	30.10	-42.8	-44.8	17.4	0.00e+00	0	43	0	0	56	4754
2026-01-12 00:05:38.45	5.42	30.26	-42.7	-44.7	17.5	0.00e+00	0	43	0	0	56	4679
2026-01-12 00:05:39.59	5.31	30.47	-42.6	-44.6	17.6	0.00e+00	0	43	0	0	56	4622
2026-01-12 00:05:40.49	5.22	30.63	-42.6	-44.6	17.6	0.00e+00	0	43	0	0	56	4629
2026-01-12 00:05:41.53	5.12	30.83	-42.6	-44.6	17.5	0.00e+00	0	43	0	0	56	4636
2026-01-12 00:05:42.52	5.03	31.02	-42.5	-44.5	17.7	0.00e+00	0	43	0	0	56	4551
2026-01-12 00:05:43.52	4.93	31.21	-42.5	-44.4	17.7	0.00e+00	0	43	0	0	56	4534
2026-01-12 00:05:44.52	4.83	31.40	-42.5	-44.5	17.7	0.00e+00	0	43	0	0	56	4556
2026-01-12 00:05:45.51	4.73	31.59	-42.5	-44.4	17.8	0.00e+00	0	43	0	0	56	4537
2026-01-12 00:05:46.51	4.63	31.78	-42.6	-44.6	17.6	0.00e+00	0	43	0	0	56	4636
2026-01-12 00:05:47.50	4.52	31.97	-42.6	-44.6	17.5	0.00e+00	0	43	0	0	56	4635
2026-01-12 00:05:48.50	4.42	32.17	-42.7	-44.7	17.5	0.00e+00	0	43	0	0	56	4673
2026-01-12 00:05:49.49	4.31	32.36	-42.7	-44.7	17.4	0.00e+00	0	43	0	0	56	4704
2026-01-12 00:05:50.49	4.21	32.56	-42.8	-44.8	17.4	0.00e+00	0	43	0	0	56	4726
2026-01-12 00:05:51.48	4.10	32.76	-42.9	-44.9	17.2	0.00e+00	0	43	0	0	56	4804
2026-01-12 00:05:52.48	3.99	32.96	-42.9	-44.9	17.3	0.00e+00	0	43	0	0	56	4802
2026-01-12 00:05:53.48	3.88	33.16	-43.0	-45.1	17.1	0.00e+00	0	43	0	0	56	4892
2026-01-12 00:05:54.47	3.77	33.36	-43.1	-45.2	17.1	0.00e+00	0	43	0	0	56	4941
2026-01-12 00:05:55.47	3.65	33.57	-43.2	-45.2	17.0	0.00e+00	0	43	0	0	57	4703
2026-01-12 00:05:56.46	3.54	33.77	-43.2	-45.3	16.9	0.00e+00	0	43	0	0	57	4757
2026-01-12 00:05:57.46	3.42	33.97	-43.2	-45.4	16.9	0.00e+00	0	43	0	0	57	4765
2026-01-12 00:05:58.45	3.30	34.18	-43.2	-45.3	16.9	0.00e+00	0	43	0	0	57	4729
2026-01-12 00:05:59.45	3.18	34.39	-43.2	-45.4	16.8	0.00e+00	0	43	0	0	57	4790
2026-01-12 00:06:00.44	3.06	34.60	-43.2	-45.4	16.9	0.00e+00	0	43	0	0	57	4767
2026-01-12 00:06:01.43	2.94	34.81	-43.3	-45.5	16.8	0.00e+00	0	43	0	0	57	4827
2026-01-12 00:06:02.43	2.81	35.02	-43.5	-45.7	16.6	0.00e+00	0	43	0	0	57	4940
2026-01-12 00:06:03.42	2.68	35.23	-43.6	-45.8	16.5	0.00e+00	0	43	0	0	57	5038
2026-01-12 00:06:04.42	2.56	35.45	-43.7	-46.0	16.3	0.00e+00	0	43	0	0	58	4841
2026-01-12 00:06:05.41	2.43	35.66	-43.9	-46.1	16.2	0.00e+00	0	43	0	0	58	4921
2026-01-12 00:06:06.40	2.30	35.88	-44.0	-46.3	16.1	0.00e+00	0	43	0	0	58	5018
2026-01-12 00:06:07.40	2.16	36.10	-44.2	-46.5	15.8	0.00e+00	0	43	0	0	58	5142
2026-01-12 00:06:08.39	2.03	36.31	-44.3	-46.7	15.7	0.00e+00	0	43	0	0	59	4935
2026-01-12 00:06:09.39	1.89	36.54	-44.4	-46.8	15.5	0.00e+00	0	43	0	0	59	5039
2026-01-12 00:06:10.39	1.75	36.76	-44.5	-47.0	15.4	0.00e+00	0	43	0	0	59	5109
2026-01-12 00:06:11.38	1.61	36.98	-44.7	-47.2	15.2	0.00e+00	0	43	0	0	60	4941
2026-01-12 00:06:12.44	1.45	37.22	-44.5	-47.1	15.4	0.00e+00	0	43	0	0	60	4880
2026-01-12 00:06:13.35	1.32	37.43	-44.7	-47.2	15.2	0.00e+00	0	43	0	0	60	4949
2026-01-12 00:06:14.46	1.16	37.68	-44.6	-47.2	15.2	0.00e+00	0	43	0	0	60	4958
2026-01-12 00:06:15.36	1.02	37.89	-44.6	-47.1	15.3	0.00e+00	0	43	0	0	60	4890
2026-01-12 00:06:16.46	0.85	38.14	-44.5	-47.0	15.4	0.00e+00	0	43	0	0	60	4846
2026-01-12 00:06:17.40	0.71	38.36	-44.4	-46.8	15.6	0.00e+00	0	43	0	0	60	4737
2026-01-12 00:06:18.39	0.55	38.59	-44.3	-46.7	15.7	0.00e+00	0	43	0	0	60	4693
2026-01-12 00:06:19.39	0.39	38.83	-44.4	-46.8	15.6	0.00e+00	0	43	0	0	60	4754
2026-01-12 00:06:20.38	0.23	39.06	-44.4	-46.7	15.7	0.00e+00	0	43	0	0	60	4698
2026-01-12 00:06:21.38	0.07	39.30	-44.4	-46.8	15.6	0.00e+00	0	43	0	0	60	4755
2026-01-12 00:06:22.37	359.90	39.54	-44.5	-46.9	15.5	0.00e+00	0	43	0	0	60	4806
2026-01-12 00:06:23.37	359.73	39.78	-44.6	-47.1	15.4	0.00e+00	0	43	0	0	60	4875
2026-01-12 00:06:24.36	359.56	40.02	-44.4	-46.8	15.6	0.00e+00	0	43	0	0	60	4748
2026-01-12 00:06:25.36	359.39	40.26	-44.3	-46.7	15.8	0.00e+00	0	43	0	0	60	4653
2026-01-12 00:06:26.35	359.22	40.51	-44.1	-46.4	16.1	0.00e+00	0	43	0	0	60	4541
2026-01-12 00:06:27.35	359.04	40.75	-44.0	-46.3	16.2	0.00e+00	0	43	0	0	60	4465
2026-01-12 00:06:28.34	358.85	41.00	-43.8	-46.0	16.4	0.00e+00	0	43	0	0	59	4596
2026-01-12 00:06:29.34	358.67	41.25	-43.7	-45.8	16.6	0.00e+00	0	43	0	0	59	4462
2026-01-12 00:06:30.33	358.48	41.49	-43.7	-45.9	16.5	0.00e+00	0	43	0	0	59	4522
2026-01-12 00:06:31.33	358.29	41.75	-43.9	-46.1	16.3	0.00e+00	0	43	0	0	59	4628
2026-01-12 00:06:32.32	358.10	42.00	-44.0	-46.3	16.1	0.00e+00	0	43	0	0	59	4726
2026-01-12 00:06:33.32	357.90	42.25	-44.2	-46.5	15.8	0.00e+00	0	43	0	0	59	4847
2026-01-12 00:06:34.32	357.70	42.51	-44.4	-46.9	15.4	0.00e+00	0	43	0	0	59	5046
2026-01-12 00:06:35.31	357.50	42.76	-44.7	-47.2	15.1	0.00e+00	0	43	0	0	60	4969
2026-01-12 00:06:36.30	357.29	43.02	-44.7	-47.2	15.1	7.00e-07	0	43	0	0	60	4964
2026-01-12 00:06:37.30	357.08	43.28	-44.7	-47.2	15.3	0.00e+00	0	43	0	0	60	4953
2026-01-12 00:06:38.29	356.87	43.54	-44.6	-47.1	15.4	0.00e+00	0	43	0	0	60	4889
2026-01-12 00:06:39.29	356.65	43.80	-44.6	-47.0	15.5	0.00e+00	0	43	0	0	60	4850
2026-01-12 00:06:40.28	356.43	44.06	-44.6	-47.1	15.5	0.00e+00	0	43	0	0	60	4885
2026-01-12 00:06:41.28	356.21	44.32	-44.8	-47.4	15.2	0.00e+00	0	43	0	0	60	5065
2026-01-12 00:06:42.27	355.98	44.59	-45.0	-47.7	14.9	7.00e-07	0	43	0	0	60	5223
2026-01-12 00:06:43.27	355.75	44.86	-45.1	-47.7	14.8	0.00e+00	0	43	0	0	60	5274
2026-01-12 00:06:44.26	355.51	45.12	-45.0	-47.6	14.9	0.00e+00	0	43	0	0	60	5211
2026-01-12 00:06:45.25	355.27	45.39	-45.2	-47.9	14.6	0.00e+00	0	43	0	0	61	5043
2026-01-12 00:06:46.30	355.02	45.67	-45.2	-47.9	14.6	7.00e-07	0	43	0	0	61	5059
2026-01-12 00:06:47.26	354.78	45.94	-45.1	-47.7	14.8	7.00e-07	0	43	0	0	61	4975
2026-01-12 00:06:48.35	354.50	46.24	-45.0	-47.5	15.0	0.00e+00	0	43	0	0	61	4835
2026-01-12 00:06:49.23	354.27	46.48	-44.9	-47.4	15.2	0.00e+00	0	43	0	0	61	4766
2026-01-12 00:06:50.37	353.97	46.79	-44.5	-46.9	15.5	0.00e+00	0	43	0	0	61	4538
2026-01-12 00:06:51.22	353.74	47.03	-44.6	-47.1	15.4	0.00e+00	0	43	0	0	61	4599
2026-01-12 00:06:52.60	353.37	47.41	-44.5	-46.9	15.6	0.00e+00	0	43	0	0	60	4791
2026-01-12 00:06:53.31	353.17	47.61	-44.5	-46.9	15.6	0.00e+00	0	43	0	0	60	4795
2026-01-12 00:06:54.59	352.80	47.97	-44.4	-46.7	15.8	0.00e+00	0	43	0	0	60	4685
2026-01-12 00:06:55.32	352.59	48.18	-44.0	-46.3	16.2	0.00e+00	0	43	0	0	60	4479
2026-01-12 00:06:56.60	352.22	48.54	-43.9	-46.1	16.4	0.00e+00	0	43	0	0	59	4613
2026-01-12 00:06:57.32	352.00	48.75	-43.8	-46.0	16.5	0.00e+00	0	43	0	0	59	4554
2026-01-12 00:06:58.61	351.61	49.11	-43.7	-45.9	16.5	0.00e+00	0	43	0	0	59	4500
2026-01-12 00:06:59.35	351.37	49.32	-44.0	-46.3	16.2	0.00e+00	0	43	0	0	59	4706
2026-01-12 00:07:00.62	350.97	49.69	-44.3	-46.7	15.7	0.00e+00	0	43	0	0	59	4959
2026-01-12 00:07:01.35	350.73	49.90	-44.3	-46.8	15.7	0.00e+00	0	43	0	0	59	4988
2026-01-12 00:07:02.63	350.31	50.27	-44.4	-46.8	15.7	0.00e+00	0	43	0	0	59	5004
2026-01-12 00:07:03.35	350.07	50.48	-44.2	-46.5	15.9	0.00e+00	0	43	0	0	59	4865
2026-01-12 00:07:04.63	349.63	50.85	-44.3	-46.6	15.8	0.00e+00	0	43	0	0	59	4912
2026-01-12 00:07:05.36	349.37	51.06	-44.2	-46.5	15.9	0.00e+00	0	43	0	0	59	4848
2026-01-12 00:07:06.64	348.92	51.44	-44.2	-46.5	15.9	0.00e+00	0	43	0	0	59	4870
2026-01-12 00:07:07.36	348.65	51.65	-44.2	-46.5	15.9	0.00e+00	0	43	0	0	59	4837
2026-01-12 00:07:08.72	348.15	52.04	-44.3	-46.6	15.8	0.00e+00	0	43	0	0	59	4925
2026-01-12 00:07:09.43	347.88	52.25	-44.1	-46.5	16.0	0.00e+00	0	43	0	0	59	4823
2026-01-12 00:07:10.77	347.36	52.65	-43.9	-46.2	16.3	0.00e+00	0	43	0	0	59	4678
2026-01-12 00:07:11.48	347.08	52.85	-44.0	-46.3	16.2	0.00e+00	0	43	0	0	59	4723
2026-01-12 00:07:12.82	346.54	53.25	-43.8	-46.0	16.4	0.00e+00	0	43	0	0	59	4584
2026-01-12 00:07:13.53	346.25	53.46	-43.9	-46.1	16.3	0.00e+00	0	43	0	0	59	4639
2026-01-12 00:07:14.81	345.71	53.84	-44.1	-46.4	16.1	0.00e+00	0	43	0	0	59	4780
2026-01-12 00:07:15.54	345.39	54.05	-44.0	-46.2	16.3	0.00e+00	0	43	0	0	59	4685
2026-01-12 00:07:16.82	344.83	54.43	-43.7	-45.9	16.6	0.00e+00	0	43	0	0	59	4501
2026-01-12 00:07:17.56	344.50	54.65	-43.3	-45.3	17.1	0.00e+00	0	43	0	0	58	4493
2026-01-12 00:07:18.84	343.92	55.02	-42.6	-44.6	17.7	0.00e+00	0	43	0	0	57	4362
2026-01-12 00:07:19.57	343.57	55.24	-42.5	-44.4	17.9	0.00e+00	0	43	0	0	56	4541
2026-01-12 00:07:20.85	342.96	55.62	-42.5	-44.4	17.8	0.00e+00	0	43	0	0	56	4543
2026-01-12 00:07:21.57	342.61	55.83	-42.7	-44.6	17.7	0.00e+00	0	43	0	0	56	4639
2026-01-12 00:07:22.85	341.98	56.20	-42.9	-44.9	17.5	0.00e+00	0	43	0	0	56	4782
2026-01-12 00:07:23.59	341.60	56.42	-42.8	-44.8	17.6	0.00e+00	0	43	0	0	56	4708
2026-01-12 00:07:25.19	340.77	56.89	-42.3	-44.2	18.0	0.00e+00	0	43	0	0	56	4433
2026-01-12 00:07:26.02	340.32	57.13	-42.2	-44.1	18.0	0.00e+00	0	43	0	0	56	4360
2026-01-12 00:07:27.16	339.70	57.46	-42.3	-44.3	17.7	0.00e+00	0	43	0	0	56	4454
2026-01-12 00:07:28.01	339.22	57.71	-42.4	-44.4	17.7	0.00e+00	0	43	0	0	56	4528
2026-01-12 00:07:29.15	338.57	58.03	-42.4	-44.3	17.8	0.00e+00	0	43	0	0	56	4477
2026-01-12 00:07:30.00	338.08	58.28	-42.4	-44.4	17.7	0.00e+00	0	43	0	0	56	4513
2026-01-12 00:07:31.13	337.41	58.60	-42.3	-44.3	17.9	0.00e+00	0	43	0	0	56	4443
2026-01-12 00:07:31.99	336.88	58.84	-42.3	-44.3	17.9	0.00e+00	0	43	0	0	56	4451
2026-01-12 00:07:33.12	336.18	59.16	-42.4	-44.4	17.7	0.00e+00	0	43	0	0	56	4512
2026-01-12 00:07:34.04	335.60	59.42	-42.4	-44.4	17.7	0.00e+00	0	43	0	0	56	4535
2026-01-12 00:07:35.04	334.95	59.70	-42.1	-44.0	18.2	0.00e+00	0	43	0	0	56	4318
2026-01-12 00:07:36.03	334.29	59.97	-41.7	-43.6	18.5	0.00e+00	0	43	0	0	55	4350
2026-01-12 00:07:37.03	333.61	60.24	-41.6	-43.4	18.6	0.00e+00	0	43	0	0	55	4284
2026-01-12 00:07:38.02	332.93	60.51	-41.7	-43.6	18.5	0.00e+00	0	43	0	0	55	4359
2026-01-12 00:07:39.02	332.22	60.78	-42.1	-44.0	18.1	0.00e+00	0	43	0	0	55	4589
2026-01-12 00:07:40.01	331.51	61.04	-42.0	-43.9	18.2	0.00e+00	0	43	0	0	55	4512
2026-01-12 00:07:41.00	330.78	61.30	-41.7	-43.6	18.4	0.00e+00	0	43	0	0	55	4389
2026-01-12 00:07:42.00	330.03	61.56	-41.5	-43.3	18.8	0.00e+00	0	43	0	0	54	4470
2026-01-12 00:07:42.99	329.27	61.81	-41.3	-43.0	19.0	0.00e+00	0	43	0	0	54	4337
2026-01-12 00:07:43.99	328.48	62.07	-41.3	-43.1	18.9	0.00e+00	0	43	0	0	54	4359
2026-01-12 00:07:44.98	327.69	62.31	-41.6	-43.4	18.6	0.00e+00	0	43	0	0	54	4536
2026-01-12 00:07:45.98	326.88	62.56	-41.5	-43.3	18.8	0.00e+00	0	43	0	0	54	4465
2026-01-12 00:07:46.97	326.05	62.80	-41.5	-43.3	18.7	0.00e+00	0	43	0	0	54	4480
2026-01-12 00:07:47.97	325.20	63.03	-41.5	-43.3	18.7	0.00e+00	0	43	0	0	54	4474
2026-01-12 00:07:48.96	324.34	63.26	-41.7	-43.5	18.5	0.00e+00	0	43	0	0	54	4597
2026-01-12 00:07:49.96	323.46	63.49	-41.9	-43.8	18.2	0.00e+00	0	43	0	0	54	4755
2026-01-12 00:07:50.95	322.57	63.71	-41.6	-43.5	18.6	0.00e+00	0	43	0	0	54	4561
2026-01-12 00:07:51.95	321.65	63.92	-41.9	-43.8	18.3	0.00e+00	0	43	0	0	54	4744
2026-01-12 00:07:52.94	320.72	64.13	-42.2	-44.2	18.0	0.00e+00	0	43	0	0	55	4672
2026-01-12 00:07:53.94	319.77	64.34	-42.3	-44.3	17.9	0.00e+00	0	43	0	0	55	4752
2026-01-12 00:07:54.93	318.81	64.54	-41.9	-43.9	18.3	0.00e+00	0	43	0	0	55	4497
2026-01-12 00:07:55.93	317.83	64.73	-41.7	-43.6	18.5	0.00e+00	0	43	0	0	55	4352
2026-01-12 00:07:56.92	316.84	64.92	-41.7	-43.6	18.5	0.00e+00	0	43	0	0	55	4359
2026-01-12 00:07:57.92	315.82	65.10	-42.0	-43.9	18.2	0.00e+00	0	43	0	0	55	4540
2026-01-12 00:07:58.96	314.74	65.28	-42.0	-43.9	18.2	0.00e+00	0	43	0	0	55	4541
2026-01-12 00:07:59.92	313.73	65.44	-41.8	-43.7	18.4	0.00e+00	0	43	0	0	55	4400
2026-01-12 00:08:00.92	312.66	65.60	-41.7	-43.6	18.5	0.00e+00	0	43	0	0	55	4345
2026-01-12 00:08:01.91	311.59	65.75	-41.4	-43.3	18.8	0.00e+00	0	43	0	0	54	4451
2026-01-12 00:08:02.91	310.50	65.89	-41.4	-43.2	18.9	0.00e+00	0	43	0	0	54	4419
2026-01-12 00:08:03.90	309.40	66.03	-41.3	-43.1	18.9	0.00e+00	0	43	0	0	54	4380
2026-01-12 00:08:04.90	308.27	66.15	-41.5	-43.3	18.8	0.00e+00	0	43	0	0	54	4467
2026-01-12 00:08:05.90	307.14	66.27	-41.5	-43.3	18.8	0.00e+00	0	43	0	0	54	4469
2026-01-12 00:08:06.89	306.00	66.38	-41.3	-43.1	19.0	0.00e+00	0	43	0	0	54	4356
2026-01-12 00:08:07.89	304.84	66.49	-41.1	-42.8	19.2	0.00e+00	0	43	0	0	54	4217
2026-01-12 00:08:08.88	303.68	66.58	-41.0	-42.7	19.3	0.00e+00	0	43	0	0	54	4189
2026-01-12 00:08:09.88	302.49	66.67	-40.9	-42.6	19.4	0.00e+00	0	43	0	0	53	4370
2026-01-12 00:08:10.87	301.31	66.74	-40.6	-42.3	19.6	0.00e+00	0	43	0	0	53	4208
2026-01-12 00:08:11.87	300.12	66.81	-40.6	-42.3	19.5	0.00e+00	0	43	0	0	53	4212
2026-01-12 00:08:12.86	298.92	66.87	-40.7	-42.4	19.4	0.00e+00	0	43	0	0	53	4278
2026-01-12 00:08:13.86	297.71	66.92	-41.0	-42.7	19.1	0.00e+00	0	43	0	0	53	4434
2026-01-12 00:08:14.96	296.37	66.96	-41.2	-43.0	19.0	0.00e+00	0	43	0	0	53	4574
2026-01-12 00:08:15.84	295.29	66.99	-40.8	-42.5	19.4	0.00e+00	0	43	0	0	53	4333
2026-01-12 00:08:16.98	293.90	67.01	-40.7	-42.5	19.5	0.00e+00	0	43	0	0	53	4305
2026-01-12 00:08:17.83	292.86	67.02	-41.1	-42.8	19.2	0.00e+00	0	43	0	0	53	4483
2026-01-12 00:08:18.97	291.46	67.02	-41.5	-43.3	18.8	0.00e+00	0	43	0	0	53	4712
2026-01-12 00:08:19.82	290.41	67.01	-41.3	-43.1	18.9	0.00e+00	0	43	0	0	53	4622
2026-01-12 00:08:20.95	289.03	66.99	-41.0	-42.8	19.2	0.00e+00	0	43	0	0	53	4447
2026-01-12 00:08:21.81	287.98	66.96	-41.0	-42.7	19.3	0.00e+00	0	43	0	0	53	4415
2026-01-12 00:08:22.94	286.60	66.92	-41.0	-42.7	19.3	0.00e+00	0	43	0	0	53	4418
2026-01-12 00:08:23.80	285.56	66.88	-41.1	-42.8	19.1	0.00e+00	0	43	0	0	53	4491
2026-01-12 00:08:24.93	284.19	66.81	-41.5	-43.3	18.5	0.00e+00	0	43	0	0	53	4742
2026-01-12 00:08:25.79	283.16	66.76	-41.8	-43.6	18.3	0.00e+00	0	43	0	0	54	4630
2026-01-12 00:08:26.92	281.81	66.67	-41.5	-43.3	18.5	0.00e+00	0	43	0	0	54	4493
2026-01-12 00:08:27.77	280.81	66.60	-41.5	-43.3	18.6	0.00e+00	0	43	0	0	54	4465
2026-01-12 00:08:29.02	279.34	66.48	-41.4	-43.2	18.8	0.00e+00	0	43	0	0	54	4417
2026-01-12 00:08:29.87	278.35	66.40	-41.6	-43.4	18.6	0.00e+00	0	43	0	0	54	4529
2026-01-12 00:08:31.06	276.98	66.26	-41.4	-43.2	18.8	0.00e+00	0	43	0	0	54	4431
2026-01-12 00:08:31.91	276.01	66.16	-41.1	-42.9	19.0	0.00e+00	0	43	0	0	54	4259
2026-01-12 00:08:33.10	274.68	66.01	-41.0	-42.7	19.1	0.00e+00	0	43	0	0	53	4438
2026-01-12 00:08:33.95	273.73	65.89	-41.2	-43.0	19.0	0.00e+00	0	43	0	0	53	4568
2026-01-12 00:08:35.09	272.48	65.73	-40.9	-42.7	19.2	0.00e+00	0	43	0	0	53	4408
2026-01-12 00:08:35.94	271.56	65.60	-40.8	-42.5	19.3	0.00e+00	0	43	0	0	53	4328
2026-01-12 00:08:37.08	270.35	65.41	-41.1	-42.9	19.0	0.00e+00	0	43	0	0	53	4504
2026-01-12 00:08:37.93	269.45	65.27	-41.2	-43.0	18.9	0.00e+00	0	43	0	0	53	4578
2026-01-12 00:08:39.06	268.28	65.07	-41.1	-42.9	19.0	0.00e+00	0	43	0	0	53	4519
2026-01-12 00:08:39.92	267.41	64.92	-41.1	-42.8	18.9	0.00e+00	0	43	0	0	53	4493
2026-01-12 00:08:41.05	266.27	64.71	-41.5	-43.4	18.5	0.00e+00	0	43	0	0	53	4762
2026-01-12 00:08:41.91	265.42	64.54	-41.9	-43.8	18.2	0.00e+00	0	43	0	0	54	4731
2026-01-12 00:08:43.04	264.33	64.31	-41.7	-43.6	18.4	0.00e+00	0	43	0	0	54	4614
2026-01-12 00:08:43.90	263.51	64.14	-41.4	-43.2	18.8	0.00e+00	0	43	0	0	54	4417
2026-01-12 00:08:45.04	262.44	63.89	-41.6	-43.5	18.7	0.00e+00	0	43	0	0	54	4551
2026-01-12 00:08:45.89	261.66	63.71	-41.6	-43.4	18.7	0.00e+00	0	43	0	0	54	4510
2026-01-12 00:08:47.02	260.65	63.46	-41.3	-43.1	18.9	0.00e+00	0	43	0	0	54	4389
2026-01-12 00:08:47.88	259.89	63.26	-41.1	-42.9	19.1	0.00e+00	0	43	0	0	54	4259
2026-01-12 00:08:49.12	258.81	62.97	-41.6	-43.5	18.5	0.00e+00	0	43	0	0	54	4552
2026-01-12 00:08:49.97	258.09	62.77	-41.8	-43.7	18.4	0.00e+00	0	43	0	0	54	4698
2026-01-12 00:08:51.11	257.14	62.50	-41.6	-43.4	18.6	0.00e+00	0	43	0	0	54	4534
2026-01-12 00:08:51.96	256.45	62.29	-41.5	-43.4	18.6	0.00e+00	0	43	0	0	54	4516
2026-01-12 00:08:53.10	255.54	62.00	-41.8	-43.7	18.3	0.00e+00	0	43	0	0	54	4697
2026-01-12 00:08:54.01	254.83	61.77	-41.9	-43.8	18.2	0.00e+00	0	43	0	0	54	4727
2026-01-12 00:08:55.00	254.07	61.52	-42.0	-43.9	18.2	0.00e+00	0	43	0	0	54	4805
2026-01-12 00:08:56.00	253.32	61.26	-41.8	-43.7	18.4	0.00e+00	0	43	0	0	54	4677
2026-01-12 00:08:56.99	252.59	61.00	-41.3	-43.1	18.9	0.00e+00	0	43	0	0	54	4353
2026-01-12 00:08:57.99	251.87	60.73	-41.2	-43.0	18.8	0.00e+00	0	43	0	0	54	4320
2026-01-12 00:08:58.98	251.17	60.46	-41.4	-43.2	18.6	0.00e+00	0	43	0	0	54	4426
2026-01-12 00:08:59.98	250.48	60.19	-41.7	-43.6	18.4	0.00e+00	0	43	0	0	54	4603
2026-01-12 00:09:00.97	249.81	59.92	-41.8	-43.6	18.5	0.00e+00	0	43	0	0	54	4630
2026-01-12 00:09:01.97	249.15	59.64	-41.8	-43.7	18.4	0.00e+00	0	43	0	0	54	4687
2026-01-12 00:09:02.96	248.51	59.37	-42.1	-44.0	18.0	0.00e+00	0	43	0	0	54	4841
2026-01-12 00:09:03.96	247.87	59.09	-42.3	-44.2	17.7	0.00e+00	0	43	0	0	55	4692
2026-01-12 00:09:05.00	247.23	58.79	-42.2	-44.2	17.7	0.00e+00	0	43	0	0	55	4659
2026-01-12 00:09:05.93	246.66	58.53	-41.7	-43.6	18.2	0.00e+00	0	43	0	0	55	4350
2026-01-12 00:09:06.93	246.07	58.24	-41.6	-43.4	18.4	0.00e+00	0	43	0	0	55	4279
2026-01-12 00:09:07.92	245.49	57.96	-41.4	-43.1	18.8	0.00e+00	0	43	0	0	54	4387
2026-01-12 00:09:08.92	244.92	57.67	-42.4	-44.3	17.8	0.00e+00	0	43	0	0	55	4754
2026-01-12 00:09:09.91	244.37	57.38	-43.5	-45.7	16.7	0.00e+00	0	43	0	0	57	4966
2026-01-12 00:09:10.91	243.82	57.09	-43.8	-46.0	16.4	0.00e+00	0	43	0	0	58	4841
2026-01-12 00:09:11.90	243.30	56.80	-43.3	-45.5	16.9	0.00e+00	0	43	0	0	58	4546
2026-01-12 00:09:12.89	242.78	56.51	-42.7	-44.7	17.6	0.00e+00	0	43	0	0	57	4393
2026-01-12 00:09:13.89	242.27	56.22	-42.5	-44.4	17.9	0.00e+00	0	43	0	0	57	4279
2026-01-12 00:09:14.88	241.77	55.93	-42.3	-44.2	18.1	0.00e+00	0	43	0	0	56	4410
2026-01-12 00:09:15.88	241.28	55.63	-42.9	-44.9	17.4	0.00e+00	0	43	0	0	56	4793
2026-01-12 00:09:16.87	240.80	55.34	-43.0	-45.0	17.3	0.00e+00	0	43	0	0	56	4845
2026-01-12 00:09:17.88	240.33	55.04	-43.2	-45.2	17.2	0.00e+00	0	43	0	0	56	4960
2026-01-12 00:09:18.88	239.87	54.74	-44.2	-46.5	15.8	0.00e+00	0	43	0	0	59	4854
2026-01-12 00:09:19.87	239.42	54.45	-44.4	-46.8	15.5	0.00e+00	0	43	0	0	59	4999
2026-01-12 00:09:20.94	238.95	54.13	-43.8	-46.0	16.1	0.00e+00	0	43	0	0	59	4571
2026-01-12 00:09:21.83	238.56	53.87	-42.8	-44.8	17.2	0.00e+00	0	43	0	0	57	4457
2026-01-12 00:09:22.96	238.08	53.54	-42.2	-44.1	17.9	0.00e+00	0	43	0	0	56	4343
2026-01-12 00:09:23.82	237.72	53.28	-42.2	-44.0	17.9	0.00e+00	0	43	0	0	56	4340
2026-01-12 00:09:24.95	237.26	52.95	-42.6	-44.6	17.6	0.00e+00	0	43	0	0	56	4616
2026-01-12 00:09:25.80	236.92	52.70	-43.3	-45.4	16.9	0.00e+00	0	43	0	0	57	4765
2026-01-12 00:09:26.94	236.48	52.36	-44.1	-46.3	16.0	0.00e+00	0	43	0	0	58	5039
2026-01-12 00:09:27.80	236.15	52.11	-44.3	-46.6	15.8	0.00e+00	0	43	0	0	59	4879
2026-01-12 00:09:28.93	235.72	51.78	-44.4	-46.7	15.6	0.00e+00	0	43	0	0	59	4967
2026-01-12 00:09:29.78	235.41	51.53	-44.4	-46.8	15.5	0.00e+00	0	43	0	0	59	4989
2026-01-12 00:09:30.92	235.00	51.19	-43.7	-45.8	16.3	0.00e+00	0	43	0	0	59	4471
2026-01-12 00:09:31.77	234.70	50.94	-43.5	-45.6	16.5	0.00e+00	0	43	0	0	58	4614
2026-01-12 00:09:32.90	234.30	50.61	-43.5	-45.6	16.6	0.00e+00	0	43	0	0	58	4641
2026-01-12 00:09:33.76	234.01	50.36	-43.6	-45.6	16.6	0.00e+00	0	43	0	0	58	4651
2026-01-12 00:09:34.89	233.63	50.04	-43.9	-46.1	16.2	0.00e+00	0	43	0	0	58	4898
2026-01-12 00:09:35.74	233.35	49.79	-44.6	-47.0	15.3	0.00e+00	0	43	0	0	59	5126
2026-01-12 00:09:36.88	232.99	49.46	-44.8	-47.3	15.1	0.00e+00	0	43	0	0	60	5015
2026-01-12 00:09:37.80	232.70	49.20	-44.7	-47.1	15.2	7.00e-07	0	43	0	0	60	4888
2026-01-12 00:09:38.96	232.34	48.86	-44.7	-47.1	15.0	0.00e+00	0	43	0	0	60	4895
2026-01-12 00:09:39.85	232.07	48.61	-45.0	-47.6	14.5	0.00e+00	0	43	0	0	60	5161
2026-01-12 00:09:40.98	231.73	48.29	-45.4	-48.2	13.9	3.80e-06	0	43	0	0	61	5221
2026-01-12 00:09:41.84	231.48	48.04	-45.1	-47.7	14.3	4.50e-06	0	43	0	0	61	4979
2026-01-12 00:09:42.98	231.15	47.72	-44.5	-46.9	15.2	0.00e+00	0	43	0	0	61	4519
2026-01-12 00:09:43.83	230.91	47.48	-44.1	-46.4	15.7	0.00e+00	0	43	0	0	60	4527
2026-01-12 00:09:44.97	230.60	47.16	-43.8	-45.9	16.3	0.00e+00	0	43	0	0	59	4525
2026-01-12 00:09:45.82	230.36	46.92	-43.9	-46.1	16.1	0.00e+00	0	43	0	0	59	4623
2026-01-12 00:09:46.96	230.06	46.61	-44.7	-47.3	15.1	0.00e+00	0	43	0	0	60	4989
2026-01-12 00:09:47.81	229.84	46.37	-45.2	-47.9	14.6	7.00e-07	0	43	0	0	61	5053
2026-01-12 00:09:48.95	229.54	46.06	-44.9	-47.6	14.8	0.00e+00	0	43	0	0	61	4877
2026-01-12 00:09:49.80	229.33	45.82	-44.6	-47.1	15.1	0.00e+00	0	43	0	0	61	4611
2026-01-12 00:09:50.98	229.03	45.50	-44.5	-46.9	15.4	0.00e+00	0	43	0	0	60	4777
2026-01-12 00:09:51.83	228.82	45.27	-44.5	-46.9	15.4	0.00e+00	0	43	0	0	60	4786
2026-01-12 00:09:52.97	228.55	44.96	-44.3	-46.6	15.8	0.00e+00	0	43	0	0	60	4611
2026-01-12 00:09:53.82	228.35	44.73	-44.3	-46.7	15.8	0.00e+00	0	43	0	0	60	4660
2026-01-12 00:09:55.10	228.05	44.39	-44.4	-46.8	15.6	0.00e+00	0	43	0	0	60	4714
2026-01-12 00:09:55.83	227.89	44.19	-44.3	-46.6	15.8	0.00e+00	0	43	0	0	60	4633
2026-01-12 00:09:57.10	227.60	43.85	-43.8	-46.0	16.3	0.00e+00	0	43	0	0	59	4569
2026-01-12 00:09:57.83	227.44	43.66	-43.8	-45.9	16.4	0.00e+00	0	43	0	0	59	4541
2026-01-12 00:09:59.11	227.16	43.33	-43.9	-46.1	16.2	0.00e+00	0	43	0	0	59	4622
2026-01-12 00:09:59.83	227.01	43.14	-44.0	-46.2	16.1	0.00e+00	0	43	0	0	59	4697
2026-01-12 00:10:01.11	226.74	42.80	-44.7	-47.1	15.3	0.00e+00	0	43	0	0	60	4907
2026-01-12 00:10:01.93	226.57	42.59	-45.2	-47.8	14.6	0.00e+00	0	43	0	0	61	5024
2026-01-12 00:10:03.07	226.34	42.30	-45.5	-48.2	14.2	4.50e-06	0	43	0	0	61	5253
2026-01-12 00:10:03.92	226.17	42.08	-45.3	-48.0	14.4	1.50e-06	0	43	0	0	61	5105
2026-01-12 00:10:05.06	225.95	41.79	-44.8	-47.3	14.9	0.00e+00	0	43	0	0	61	4742
2026-01-12 00:10:05.91	225.78	41.57	-44.6	-47.0	15.2	0.00e+00	0	43	0	0	61	4573
2026-01-12 00:10:07.04	225.57	41.29	-44.4	-46.8	15.5	0.00e+00	0	43	0	0	60	4714
2026-01-12 00:10:07.90	225.40	41.07	-44.3	-46.6	15.7	0.00e+00	0	43	0	0	60	4637
2026-01-12 00:10:09.03	225.20	40.79	-44.3	-46.6	15.7	0.00e+00	0	43	0	0	60	4621
2026-01-12 00:10:09.88	225.04	40.58	-44.3	-46.6	15.8	0.00e+00	0	43	0	0	60	4631
2026-01-12 00:10:11.04	224.83	40.29	-44.6	-47.1	15.4	0.00e+00	0	43	0	0	60	4873
2026-01-12 00:10:11.89	224.68	40.09	-44.7	-47.2	15.2	0.00e+00	0	43	0	0	60	4961
2026-01-12 00:10:13.03	224.48	39.81	-44.5	-46.9	15.5	0.00e+00	0	43	0	0	60	4768
2026-01-12 00:10:13.88	224.34	39.60	-44.4	-46.8	15.6	0.00e+00	0	43	0	0	60	4714
2026-01-12 00:10:15.14	224.13	39.30	-44.3	-46.6	15.7	0.00e+00	0	43	0	0	60	4648
2026-01-12 00:10:15.95	223.99	39.10	-44.4	-46.7	15.7	0.00e+00	0	43	0	0	60	4673
2026-01-12 00:10:17.08	223.81	38.83	-44.6	-47.1	15.3	0.00e+00	0	43	0	0	60	4873
2026-01-12 00:10:17.94	223.67	38.63	-44.7	-47.1	15.3	0.00e+00	0	43	0	0	60	4889
2026-01-12 00:10:19.07	223.49	38.36	-44.8	-47.3	15.2	0.00e+00	0	43	0	0	60	4997
2026-01-12 00:10:19.93	223.36	38.16	-44.7	-47.2	15.2	7.00e-07	0	43	0	0	60	4972
2026-01-12 00:10:21.06	223.18	37.90	-44.6	-47.1	15.3	0.00e+00	0	43	0	0	60	4886
2026-01-12 00:10:22.03	223.03	37.68	-44.3	-46.7	15.6	0.00e+00	0	43	0	0	60	4663
2026-01-12 00:10:23.02	222.89	37.45	-43.9	-46.1	16.1	0.00e+00	0	43	0	0	59	4618
2026-01-12 00:10:24.02	222.74	37.22	-43.7	-45.8	16.3	0.00e+00	0	43	0	0	59	4483
2026-01-12 00:10:25.01	222.59	36.99	-43.5	-45.7	16.5	0.00e+00	0	43	0	0	59	4401
2026-01-12 00:10:26.00	222.45	36.77	-43.3	-45.4	16.7	0.00e+00	0	43	0	0	58	4540
2026-01-12 00:10:27.00	222.31	36.55	-43.5	-45.6	16.6	0.00e+00	0	43	0	0	58	4630
2026-01-12 00:10:27.99	222.17	36.32	-43.8	-46.0	16.3	0.00e+00	0	43	0	0	58	4857
2026-01-12 00:10:28.99	222.04	36.10	-44.3	-46.7	15.6	0.00e+00	0	43	0	0	59	4932
2026-01-12 00:10:29.98	221.90	35.88	-44.6	-47.1	15.2	0.00e+00	0	43	0	0	59	5169
2026-01-12 00:10:30.97	221.77	35.67	-44.8	-47.3	15.0	0.00e+00	0	43	0	0	60	5021
2026-01-12 00:10:31.97	221.64	35.45	-44.7	-47.3	15.1	7.00e-07	0	43	0	0	60	4988
2026-01-12 00:10:32.97	221.51	35.23	-44.3	-46.6	15.7	0.00e+00	0	43	0	0	60	4634
2026-01-12 00:10:33.96	221.38	35.02	-44.1	-46.4	15.9	0.00e+00	0	43	0	0	60	4527
2026-01-12 00:10:34.95	221.25	34.81	-43.9	-46.1	16.0	0.00e+00	0	43	0	0	59	4631
2026-01-12 00:10:35.95	221.13	34.59	-43.8	-46.0	16.1	0.00e+00	0	43	0	0	59	4570
2026-01-12 00:10:36.94	221.01	34.38	-43.6	-45.8	16.3	0.00e+00	0	43	0	0	59	4475
2026-01-12 00:10:37.94	220.88	34.17	-43.5	-45.6	16.6	0.00e+00	0	43	0	0	59	4373
2026-01-12 00:10:38.93	220.76	33.97	-43.4	-45.6	16.6	0.00e+00	0	43	0	0	58	4605
2026-01-12 00:10:39.93	220.65	33.76	-43.4	-45.5	16.7	0.00e+00	0	43	0	0	58	4580
2026-01-12 00:10:40.92	220.53	33.55	-43.5	-45.6	16.6	0.00e+00	0	43	0	0	58	4614
2026-01-12 00:10:41.92	220.41	33.35	-43.5	-45.7	16.5	0.00e+00	0	43	0	0	58	4680
2026-01-12 00:10:42.91	220.30	33.15	-43.3	-45.5	16.8	0.00e+00	0	43	0	0	58	4553
2026-01-12 00:10:43.91	220.19	32.94	-43.2	-45.3	16.9	0.00e+00	0	43	0	0	58	4478
2026-01-12 00:10:44.90	220.08	32.74	-43.2	-45.3	17.0	0.00e+00	0	43	0	0	58	4448
2026-01-12 00:10:45.90	219.97	32.54	-43.1	-45.2	17.1	0.00e+00	0	43	0	0	58	4423
2026-01-12 00:10:46.89	219.86	32.35	-43.1	-45.2	17.1	0.00e+00	0	43	0	0	58	4393
2026-01-12 00:10:47.89	219.75	32.15	-43.1	-45.2	17.1	0.00e+00	0	43	0	0	58	4428
2026-01-12 00:10:48.90	219.64	31.95	-43.3	-45.4	16.9	0.00e+00	0	43	0	0	58	4521
2026-01-12 00:10:49.90	219.54	31.75	-43.1	-45.3	17.0	0.00e+00	0	43	0	0	58	4442
2026-01-12 00:10:50.96	219.43	31.55	-43.2	-45.3	16.9	0.00e+00	0	43	0	0	58	4476
2026-01-12 00:10:51.89	219.34	31.37	-43.3	-45.5	16.8	0.00e+00	0	43	0	0	58	4549
2026-01-12 00:10:52.88	219.24	31.18	-43.4	-45.6	16.7	0.00e+00	0	43	0	0	58	4622
2026-01-12 00:10:53.88	219.14	30.99	-43.5	-45.7	16.6	0.00e+00	0	43	0	0	58	4688
2026-01-12 00:10:54.87	219.04	30.80	-43.5	-45.7	16.6	0.00e+00	0	43	0	0	58	4662
2026-01-12 00:10:55.87	218.94	30.61	-43.5	-45.6	16.7	0.00e+00	0	43	0	0	58	4644
2026-01-12 00:10:56.86	218.85	30.42	-43.5	-45.6	16.7	0.00e+00	0	43	0	0	58	4633
2026-01-12 00:10:57.85	218.75	30.24	-43.2	-45.3	16.9	0.00e+00	0	43	0	0	58	4476
2026-01-12 00:10:58.85	218.66	30.05	-43.0	-45.0	17.2	0.00e+00	0	43	0	0	58	4298
2026-01-12 00:10:59.85	218.56	29.87	-42.6	-44.6	17.5	0.00e+00	0	43	0	0	57	4344
2026-01-12 00:11:00.84	218.47	29.69	-42.6	-44.5	17.5	0.00e+00	0	43	0	0	57	4326
2026-01-12 00:11:01.83	218.38	29.51	-42.5	-44.5	17.6	0.00e+00	0	43	0	0	57	4307
2026-01-12 00:11:02.83	218.29	29.33	-42.3	-44.3	17.7	0.00e+00	0	43	0	0	56	4455
2026-01-12 00:11:03.84	218.20	29.14	-42.3	-44.2	17.8	0.00e+00	0	43	0	0	56	4436
2026-01-12 00:11:04.88	218.11	28.96	-42.4	-44.3	17.8	0.00e+00	0	43	0	0	56	4459
2026-01-12 00:11:05.83	218.03	28.79	-42.4	-44.3	17.7	0.00e+00	0	43	0	0	56	4480
2026-01-12 00:11:06.95	217.93	28.59	-42.5	-44.4	17.6	0.00e+00	0	43	0	0	56	4523
2026-01-12 00:11:07.83	217.86	28.44	-42.6	-44.6	17.5	0.00e+00	0	43	0	0	56	4599
2026-01-12 00:11:08.97	217.76	28.24	-42.6	-44.6	17.5	0.00e+00	0	43	0	0	56	4631
2026-01-12 00:11:09.82	217.69	28.09	-42.6	-44.6	17.6	0.00e+00	0	43	0	0	56	4609
2026-01-12 00:11:10.96	217.60	27.89	-42.5	-44.5	17.6	0.00e+00	0	43	0	0	56	4573
2026-01-12 00:11:11.81	217.53	27.75	-42.6	-44.6	17.6	0.00e+00	0	43	0	0	56	4612
2026-01-12 00:11:12.95	217.44	27.55	-42.5	-44.5	17.7	0.00e+00	0	43	0	0	56	4575
2026-01-12 00:11:13.80	217.37	27.41	-42.6	-44.5	17.7	0.00e+00	0	43	0	0	56	4584
2026-01-12 00:11:14.94	217.28	27.22	-42.6	-44.5	17.6	0.00e+00	0	43	0	0	56	4591
2026-01-12 00:11:15.79	217.22	27.07	-42.5	-44.5	17.7	0.00e+00	0	43	0	0	56	4561
2026-01-12 00:11:16.92	217.13	26.88	-42.6	-44.6	17.6	0.00e+00	0	43	0	0	56	4629
2026-01-12 00:11:17.78	217.07	26.74	-42.6	-44.6	17.6	0.00e+00	0	43	0	0	56	4617
2026-01-12 00:11:18.91	216.98	26.56	-42.6	-44.6	17.6	0.00e+00	0	43	0	0	56	4638
2026-01-12 00:11:19.77	216.92	26.41	-42.6	-44.6	17.6	0.00e+00	0	43	0	0	56	4620
2026-01-12 00:11:20.93	216.83	26.23	-42.6	-44.6	17.6	0.00e+00	0	43	0	0	56	4602
2026-01-12 00:11:21.79	216.77	26.09	-42.4	-44.4	17.8	0.00e+00	0	43	0	0	56	4503
2026-01-12 00:11:22.92	216.69	25.90	-42.4	-44.3	17.8	0.00e+00	0	43	0	0	56	4482
2026-01-12 00:11:23.78	216.63	25.77	-42.3	-44.3	17.8	0.00e+00	0	43	0	0	56	4452
2026-01-12 00:11:24.91	216.55	25.59	-42.3	-44.2	17.8	0.00e+00	0	43	0	0	56	4436
2026-01-12 00:11:25.80	216.49	25.45	-42.2	-44.2	17.9	0.00e+00	0	43	0	0	56	4401
2026-01-12 00:11:27.11	216.40	25.24	-42.1	-44.0	18.1	0.00e+00	0	43	0	0	56	4307
2026-01-12 00:11:27.82	216.35	25.13	-42.0	-43.9	18.2	0.00e+00	0	43	0	0	56	4273
2026-01-12 00:11:29.10	216.26	24.93	-42.1	-44.0	18.1	0.00e+00	0	43	0	0	56	4305
2026-01-12 00:11:30.32	216.18	24.74	-42.0	-43.9	18.2	0.00e+00	0	43	0	0	56	4281
2026-01-12 00:11:31.17	216.12	24.61	-41.7	-43.6	18.3	0.00e+00	0	43	0	0	55	4371
2026-01-12 00:11:32.30	216.05	24.44	-41.8	-43.7	18.2	0.00e+00	0	43	0	0	55	4400
2026-01-12 00:11:33.16	215.99	24.31	-41.7	-43.6	18.3	0.00e+00	0	43	0	0	55	4369
2026-01-12 00:11:34.29	215.92	24.13	-41.8	-43.7	18.2	0.00e+00	0	43	0	0	55	4402
2026-01-12 00:11:35.14	215.87	24.01	-41.9	-43.8	18.1	0.00e+00	0	43	0	0	55	4446
2026-01-12 00:11:36.42	215.79	23.82	-42.0	-43.9	18.0	0.00e+00	0	43	0	0	55	4513
2026-01-12 00:11:37.15	215.74	23.71	-42.1	-44.0	17.9	0.00e+00	0	43	0	0	55	4585
2026-01-12 00:11:38.43	215.66	23.52	-42.1	-44.0	17.9	0.00e+00	0	43	0	0	55	4573
2026-01-12 00:11:39.14	215.62	23.41	-42.2	-44.1	17.8	0.00e+00	0	43	0	0	55	4622
2026-01-12 00:11:40.42	215.54	23.23	-42.1	-44.0	17.9	0.00e+00	0	43	0	0	55	4579
2026-01-12 00:11:41.15	215.50	23.12	-42.1	-44.0	17.9	0.00e+00	0	43	0	0	55	4578
2026-01-12 00:11:42.73	215.41	22.89	-42.2	-44.1	17.8	0.00e+00	0	43	0	0	55	4630
2026-01-12 00:11:43.37	215.37	22.80	-42.1	-44.0	17.8	0.00e+00	0	43	0	0	55	4585
2026-01-12 00:11:44.92	215.28	22.58	-42.1	-44.1	17.8	0.00e+00	0	43	0	0	55	4607
2026-01-12 00:11:45.63	215.24	22.48	-42.2	-44.1	17.8	0.00e+00	0	43	0	0	55	4625
2026-01-12 00:11:46.91	215.17	22.30	-42.2	-44.2	17.7	0.00e+00	0	43	0	0	55	4660
2026-01-12 00:11:47.63	215.12	22.19	-42.3	-44.2	17.6	0.00e+00	0	43	0	0	55	4688
2026-01-12 00:11:48.91	215.05	22.02	-42.3	-44.2	17.6	0.00e+00	0	43	0	0	55	4700
2026-01-12 00:11:49.62	215.01	21.92	-42.2	-44.2	17.7	0.00e+00	0	43	0	0	55	4680
2026-01-12 00:11:50.90	214.94	21.74	-42.3	-44.2	17.7	0.00e+00	0	43	0	0	55	4693
2026-01-12 00:11:51.63	214.91	21.64	-42.2	-44.2	17.7	0.00e+00	0	43	0	0	55	4662
2026-01-12 00:11:53.08	214.83	21.44	-42.2	-44.1	17.7	0.00e+00	0	43	0	0	55	4642
2026-01-12 00:11:53.79	214.79	21.34	-42.2	-44.1	17.8	0.00e+00	0	43	0	0	55	4636
2026-01-12 00:11:55.07	214.72	21.17	-42.1	-44.1	17.8	0.00e+00	0	43	0	0	55	4605
2026-01-12 00:11:55.79	214.69	21.07	-42.1	-44.0	17.9	0.00e+00	0	43	0	0	55	4570
2026-01-12 00:11:57.18	214.61	20.89	-42.1	-44.0	17.9	0.00e+00	0	43	0	0	55	4594
2026-01-12 00:11:57.89	214.58	20.79	-42.0	-44.0	17.9	0.00e+00	0	43	0	0	55	4556
2026-01-12 00:11:59.17	214.51	20.62	-42.1	-44.0	17.9	0.00e+00	0	43	0	0	55	4585
2026-01-12 00:11:59.90	214.48	20.53	-42.1	-44.1	17.8	0.00e+00	0	43	0	0	55	4611
2026-01-12 00:12:01.27	214.41	20.35	-42.1	-44.1	17.8	0.00e+00	0	43	0	0	55	4617
2026-01-12 00:12:01.98	214.37	20.25	-42.1	-44.1	17.8	0.00e+00	0	43	0	0	55	4623
2026-01-12 00:12:03.26	214.31	20.09	-42.1	-44.1	17.8	0.00e+00	0	43	0	0	55	4630
2026-01-12 00:12:03.99	214.28	19.99	-42.1	-44.1	17.8	0.00e+00	0	43	0	0	55	4625
2026-01-12 00:12:05.27	214.21	19.83	-42.2	-44.2	17.7	0.00e+00	0	43	0	0	55	4672
2026-01-12 00:12:05.98	214.18	19.74	-42.3	-44.3	17.6	0.00e+00	0	43	0	0	55	4715
2026-01-12 00:12:07.26	214.12	19.58	-42.4	-44.4	17.5	0.00e+00	0	43	0	0	55	4774
2026-01-12 00:12:07.97	214.09	19.49	-42.3	-44.4	17.5	0.00e+00	0	43	0	0	55	4763
2026-01-12 00:12:09.25	214.03	19.32	-42.5	-44.5	17.4	0.00e+00	0	43	0	0	55	4865
2026-01-12 00:12:09.99	213.99	19.23	-42.5	-44.5	17.4	0.00e+00	0	43	0	0	55	4851
2026-01-12 00:12:11.27	213.94	19.07	-42.5	-44.6	17.3	0.00e+00	0	43	0	0	55	4885
2026-01-12 00:12:12.06	213.90	18.97	-42.6	-44.6	17.3	0.00e+00	0	43	0	0	55	4922
2026-01-12 00:12:13.26	213.85	18.83	-42.6	-44.7	17.2	0.00e+00	0	43	0	0	55	4947
2026-01-12 00:12:14.11	213.81	18.72	-42.8	-44.9	17.2	0.00e+00	0	43	0	0	56	4780
2026-01-12 00:12:15.25	213.76	18.58	-42.8	-44.9	17.2	0.00e+00	0	43	0	0	56	4801
2026-01-12 00:12:16.10	213.72	18.48	-42.8	-44.9	17.2	0.00e+00	0	43	0	0	56	4795
2026-01-12 00:12:17.24	213.67	18.34	-42.9	-45.0	17.1	0.00e+00	0	43	0	0	56	4817
2026-01-12 00:12:18.09	213.64	18.24	-42.8	-44.9	17.2	0.00e+00	0	43	0	0	56	4775
2026-01-12 00:12:19.23	213.59	18.10	-42.9	-45.0	17.1	0.00e+00	0	43	0	0	56	4829
2026-01-12 00:12:20.08	213.55	18.00	-42.8	-44.9	17.2	0.00e+00	0	43	0	0	56	4774
2026-01-12 00:12:21.22	213.50	17.86	-42.9	-45.0	17.1	0.00e+00	0	43	0	0	56	4822
2026-01-12 00:12:22.07	213.47	17.76	-42.9	-45.0	17.1	0.00e+00	0	43	0	0	56	4826
2026-01-12 00:12:23.29	213.42	17.62	-42.9	-44.9	17.1	0.00e+00	0	43	0	0	56	4793
2026-01-12 00:12:24.14	213.38	17.52	-42.9	-44.9	17.1	0.00e+00	0	43	0	0	56	4800
2026-01-12 00:12:25.33	213.34	17.38	-42.9	-45.0	17.0	0.00e+00	0	43	0	0	56	4854
2026-01-12 00:12:26.18	213.30	17.28	-43.0	-45.0	17.0	0.00e+00	0	43	0	0	56	4858
2026-01-12 00:12:27.32	213.26	17.15	-43.0	-45.0	17.0	0.00e+00	0	43	0	0	56	4866
2026-01-12 00:12:28.17	213.22	17.05	-43.0	-45.1	16.9	0.00e+00	0	43	0	0	56	4901
2026-01-12 00:12:29.31	213.18	16.92	-43.1	-45.2	16.8	0.00e+00	0	43	0	0	56	4978
2026-01-12 00:12:30.16	213.15	16.82	-43.1	-45.2	16.8	0.00e+00	0	43	0	0	56	4948
2026-01-12 00:12:31.50	213.09	16.67	-43.2	-45.3	16.7	0.00e+00	0	43	0	0	56	5000
2026-01-12 00:12:32.21	213.07	16.59	-43.1	-45.2	16.8	0.00e+00	0	43	0	0	56	4979
2026-01-12 00:12:33.49	213.02	16.45	-43.2	-45.3	16.7	0.00e+00	0	43	0	0	56	5014
2026-01-12 00:12:34.20	212.99	16.37	-43.2	-45.3	16.7	0.00e+00	0	43	0	0	57	4757
2026-01-12 00:12:35.75	212.93	16.20	-43.2	-45.3	16.7	0.00e+00	0	43	0	0	57	4759
2026-01-12 00:12:36.73	212.90	16.09	-43.3	-45.4	16.6	0.00e+00	0	43	0	0	57	4795
2026-01-12 00:12:37.73	212.86	15.98	-43.3	-45.4	16.6	0.00e+00	0	43	0	0	57	4792
2026-01-12 00:12:38.72	212.83	15.87	-43.2	-45.4	16.6	0.00e+00	0	43	0	0	57	4783
2026-01-12 00:12:39.71	212.79	15.76	-43.3	-45.5	16.5	0.00e+00	0	43	0	0	57	4833
2026-01-12 00:12:40.71	212.76	15.65	-43.2	-45.4	16.6	0.00e+00	0	43	0	0	57	4781
2026-01-12 00:12:41.70	212.72	15.54	-43.3	-45.5	16.6	0.00e+00	0	43	0	0	57	4823
2026-01-12 00:12:42.70	212.68	15.43	-43.3	-45.5	16.5	0.00e+00	0	43	0	0	57	4845
2026-01-12 00:12:43.74	212.65	15.32	-43.3	-45.4	16.6	0.00e+00	0	43	0	0	57	4814
2026-01-12 00:12:44.73	212.61	15.22	-43.3	-45.5	16.5	0.00e+00	0	43	0	0	57	4834
2026-01-12 00:12:45.73	212.58	15.11	-43.2	-45.4	16.6	0.00e+00	0	43	0	0	57	4796
2026-01-12 00:12:46.72	212.55	15.01	-43.3	-45.4	16.6	0.00e+00	0	43	0	0	57	4790
2026-01-12 00:12:47.84	212.51	14.89	-43.3	-45.4	16.6	0.00e+00	0	43	0	0	57	4796
2026-01-12 00:12:48.72	212.48	14.79	-43.2	-45.4	16.6	0.00e+00	0	43	0	0	57	4785
2026-01-12 00:12:50.04	212.44	14.66	-43.2	-45.3	16.7	0.00e+00	0	43	0	0	57	4727
2026-01-12 00:12:50.75	212.41	14.58	-43.2	-45.3	16.7	0.00e+00	0	43	0	0	57	4753
2026-01-12 00:12:52.23	212.36	14.43	-43.3	-45.5	16.5	0.00e+00	0	43	0	0	57	4824
2026-01-12 00:12:52.94	212.34	14.36	-43.2	-45.4	16.6	0.00e+00	0	43	0	0	57	4772
2026-01-12 00:12:54.28	212.30	14.22	-43.2	-45.3	16.7	0.00e+00	0	43	0	0	57	4737
2026-01-12 00:12:54.99	212.27	14.14	-43.1	-45.2	16.7	0.00e+00	0	43	0	0	57	4693
2026-01-12 00:12:56.27	212.23	14.01	-43.1	-45.3	16.7	0.00e+00	0	43	0	0	57	4706
2026-01-12 00:12:57.00	212.21	13.94	-43.2	-45.3	16.6	0.00e+00	0	43	0	0	57	4737
2026-01-12 00:12:58.28	212.17	13.81	-43.2	-45.3	16.7	0.00e+00	0	43	0	0	57	4730
2026-01-12 00:12:58.99	212.15	13.74	-43.2	-45.3	16.6	0.00e+00	0	43	0	0	57	4758
2026-01-12 00:13:00.27	212.11	13.61	-43.1	-45.3	16.6	0.00e+00	0	43	0	0	57	4719
2026-01-12 00:13:00.99	212.09	13.54	-43.1	-45.3	16.7	0.00e+00	0	43	0	0	57	4709
2026-01-12 00:13:02.27	212.05	13.41	-43.2	-45.3	16.6	0.00e+00	0	43	0	0	57	4750
2026-01-12 00:13:02.98	212.03	13.34	-43.1	-45.2	16.7	0.00e+00	0	43	0	0	57	4704
2026-01-12 00:13:04.26	211.99	13.21	-43.2	-45.3	16.6	0.00e+00	0	43	0	0	57	4743
2026-01-12 00:13:04.99	211.97	13.14	-43.2	-45.3	16.6	0.00e+00	0	43	0	0	57	4750
2026-01-12 00:13:06.27	211.93	13.02	-43.2	-45.3	16.6	0.00e+00	0	43	0	0	57	4736
2026-01-12 00:13:07.00	211.91	12.95	-43.2	-45.4	16.6	0.00e+00	0	43	0	0	57	4770
2026-01-12 00:13:08.28	211.87	12.82	-43.2	-45.3	16.6	0.00e+00	0	43	0	0	57	4735
2026-01-12 00:13:09.02	211.85	12.75	-43.2	-45.3	16.6	0.00e+00	0	43	0	0	57	4745
2026-01-12 00:13:10.30	211.81	12.63	-43.2	-45.3	16.6	0.00e+00	0	43	0	0	57	4733
2026-01-12 00:13:11.01	211.79	12.56	-43.2	-45.3	16.6	0.00e+00	0	43	0	0	57	4754
2026-01-12 00:13:12.29	211.76	12.44	-43.2	-45.3	16.6	0.00e+00	0	43	0	0	57	4757
2026-01-12 00:13:13.00	211.74	12.37	-43.2	-45.3	16.6	0.00e+00	0	43	0	0	57	4750
2026-01-12 00:13:14.29	211.70	12.25	-43.2	-45.3	16.6	0.00e+00	0	43	0	0	57	4759
2026-01-12 00:13:15.00	211.68	12.18	-43.2	-45.3	16.6	0.00e+00	0	43	0	0	57	4755
2026-01-12 00:13:16.28	211.65	12.06	-43.2	-45.3	16.6	0.00e+00	0	43	0	0	57	4752
2026-01-12 00:13:16.99	211.63	11.99	-43.2	-45.3	16.6	0.00e+00	0	43	0	0	57	4758
2026-01-12 00:13:18.27	211.59	11.87	-43.2	-45.3	16.5	0.00e+00	0	43	0	0	57	4755
2026-01-12 00:13:19.00	211.57	11.80	-43.2	-45.3	16.5	0.00e+00	0	43	0	0	57	4759
2026-01-12 00:13:20.28	211.54	11.68	-43.3	-45.5	16.4	0.00e+00	0	43	0	0	57	4830
2026-01-12 00:13:21.01	211.52	11.62	-43.2	-45.3	16.6	0.00e+00	0	43	0	0	57	4750
2026-01-12 00:13:22.29	211.49	11.50	-43.2	-45.3	16.6	0.00e+00	0	43	0	0	57	4754
2026-01-12 00:13:23.08	211.46	11.43	-43.2	-45.3	16.6	0.00e+00	0	43	0	0	57	4753
2026-01-12 00:13:24.55	211.43	11.29	-43.3	-45.4	16.5	0.00e+00	0	43	0	0	57	4808
2026-01-12 00:13:25.26	211.41	11.23	-43.3	-45.4	16.4	0.00e+00	0	43	0	0	57	4812
2026-01-12 00:13:26.74	211.37	11.09	-43.3	-45.4	16.4	0.00e+00	0	43	0	0	57	4805
2026-01-12 00:13:27.45	211.35	11.03	-43.2	-45.4	16.5	0.00e+00	0	43	0	0	57	4760
2026-01-12 00:13:28.76	211.32	10.91	-43.3	-45.5	16.4	0.00e+00	0	43	0	0	57	4828
2026-01-12 00:13:29.47	211.30	10.85	-43.3	-45.5	16.4	0.00e+00	0	43	0	0	57	4816
2026-01-12 00:13:30.75	211.27	10.73	-43.4	-45.6	16.3	0.00e+00	0	43	0	0	57	4912
2026-01-12 00:13:31.47	211.25	10.67	-43.4	-45.6	16.3	0.00e+00	0	43	0	0	57	4905
2026-01-12 00:13:32.75	211.22	10.55	-43.4	-45.6	16.3	0.00e+00	0	43	0	0	57	4880
2026-01-12 00:13:33.49	211.20	10.49	-43.4	-45.6	16.2	0.00e+00	0	43	0	0	57	4925
2026-01-12 00:13:34.77	211.17	10.38	-43.4	-45.6	16.3	0.00e+00	0	43	0	0	57	4900
2026-01-12 00:13:35.49	211.15	10.31	-43.4	-45.6	16.3	0.00e+00	0	43	0	0	57	4871
2026-01-12 00:13:36.77	211.12	10.20	-43.4	-45.6	16.2	0.00e+00	0	43	0	0	57	4923
2026-01-12 00:13:37.51	211.11	10.14	-43.4	-45.6	16.2	0.00e+00	0	43	0	0	57	4898
2026-01-12 00:13:38.79	211.08	10.03	-43.4	-45.7	16.2	0.00e+00	0	43	0	0	57	4938
2026-01-12 00:13:39.55	211.06	9.96	-43.5	-45.8	16.1	0.00e+00	0	43	0	0	57	4989
2026-01-12 00:13:40.83	211.03	9.85	-43.4	-45.7	16.2	0.00e+00	0	43	0	0	57	4942
2026-01-12 00:13:41.60	211.01	9.78	-43.5	-45.7	16.1	0.00e+00	0	43	0	0	57	4981
2026-01-12 00:13:42.88	210.98	9.67	-43.5	-45.8	16.1	0.00e+00	0	43	0	0	57	5001
2026-01-12 00:13:43.66	210.96	9.61	-43.5	-45.8	16.1	0.00e+00	0	43	0	0	57	5001
2026-01-12 00:13:45.25	210.93	9.47	-43.6	-45.9	15.9	0.00e+00	0	43	0	0	57	5069
2026-01-12 00:13:46.09	210.91	9.40	-43.6	-45.9	16.0	0.00e+00	0	43	0	0	57	5052
2026-01-12 00:13:47.23	210.88	9.30	-43.7	-46.1	15.8	0.00e+00	0	43	0	0	58	4880
2026-01-12 00:13:48.08	210.86	9.23	-43.7	-46.1	15.8	0.00e+00	0	43	0	0	58	4886
2026-01-12 00:13:49.21	210.84	9.14	-43.8	-46.1	15.7	0.00e+00	0	43	0	0	58	4907
2026-01-12 00:13:50.07	210.82	9.07	-43.8	-46.1	15.7	0.00e+00	0	43	0	0	58	4900
2026-01-12 00:13:51.20	210.80	8.97	-49.9	-60.0	3.9	9.89e-01	0	43	104	0	70	12112
2026-01-12 00:13:52.05	210.78	8.90	-50.4	-63.3	3.8	1.49e+00	0	43	104	0	71	16748
2026-01-12 00:13:53.19	210.75	8.81	-50.5	-63.6	3.8	1.49e+00	0	43	104	0	71	17401
2026-01-12 00:13:54.04	210.73	8.74	-50.7	-63.7	3.8	1.49e+00	0	43	104	0	71	17486
2026-01-12 00:13:55.18	210.71	8.64	-50.7	-63.7	3.8	1.49e+00	0	43	104	0	72	16666
2026-01-12 00:13:56.07	210.69	8.57	-50.7	-63.7	3.8	1.49e+00	0	43	104	0	72	16688
2026-01-12 00:13:57.18	210.67	8.48	-50.8	-63.8	3.8	1.49e+00	0	43	104	0	72	16759
2026-01-12 00:13:58.16	210.65	8.40	-50.8	-63.8	3.8	1.49e+00	0	43	104	0	72	16763
2026-01-12 00:13:59.32	210.62	8.31	-50.9	-63.8	3.8	1.49e+00	0	43	104	0	72	16795
2026-01-12 00:14:00.21	210.61	8.23	-50.9	-63.8	3.8	1.49e+00	0	43	104	0	72	16814
2026-01-12 00:14:01.53	210.58	8.13	-50.6	-63.8	3.8	1.49e+00	0	43	104	0	72	16743
2026-01-12 00:14:02.24	210.56	8.07	-50.8	-63.8	3.8	1.49e+00	0	43	104	0	72	16805
2026-01-12 00:14:03.76	210.53	7.95	-50.8	-63.8	3.8	1.49e+00	0	43	104	0	72	16794
2026-01-12 00:14:04.47	210.52	7.89	-50.8	-63.8	3.8	1.49e+00	0	43	104	0	72	16813
2026-01-12 00:14:05.78	210.49	7.79	-50.9	-63.8	3.8	1.49e+00	0	43	104	0	72	16779
2026-01-12 00:14:06.49	210.48	7.73	-50.8	-63.8	3.8	1.49e+00	0	43	104	0	72	16697
2026-01-12 00:14:07.86	210.45	7.62	-50.8	-63.8	3.8	1.49e+00	0	43	104	0	72	16798
2026-01-12 00:14:08.56	210.44	7.57	-50.7	-63.8	3.8	1.49e+00	0	43	104	0	72	16732
2026-01-12 00:14:09.84	210.41	7.47	-50.7	-63.8	3.8	1.49e+00	0	43	104	0	72	16765
2026-01-12 00:14:10.57	210.40	7.41	-50.7	-63.8	3.8	1.49e+00	0	43	104	0	72	16722
2026-01-12 00:14:11.84	210.38	7.31	-50.6	-63.7	3.8	1.49e+00	0	43	104	0	72	16636
2026-01-12 00:14:12.55	210.36	7.26	-50.6	-63.8	3.8	1.49e+00	0	43	104	0	72	16713
2026-01-12 00:14:13.83	210.34	7.16	-50.6	-63.7	3.8	1.49e+00	0	43	104	0	72	16652
2026-01-12 00:14:14.54	210.33	7.10	-50.6	-63.7	3.8	1.49e+00	0	43	104	0	72	16671
2026-01-12 00:14:15.82	210.30	7.00	-50.6	-63.8	3.8	1.49e+00	0	43	104	0	72	16716
2026-01-12 00:14:16.52	210.29	6.95	-50.6	-63.7	3.8	1.49e+00	0	43	104	0	72	16687
2026-01-12 00:14:17.80	210.26	6.85	-50.6	-63.7	3.8	1.49e+00	0	43	104	0	72	16625
2026-01-12 00:14:18.53	210.25	6.79	-50.6	-63.7	3.8	1.49e+00	0	43	104	0	72	16614
2026-01-12 00:14:19.80	210.23	6.70	-50.6	-63.7	3.8	1.49e+00	0	43	104	0	72	16657
2026-01-12 00:14:20.51	210.22	6.64	-50.6	-63.7	3.8	1.49e+00	0	43	104	0	72	16651
2026-01-12 00:14:21.79	210.19	6.55	-50.6	-63.7	3.8	1.49e+00	0	43	104	0	72	16651
2026-01-12 00:14:22.50	210.18	6.49	-50.6	-63.7	3.8	1.49e+00	0	43	104	0	72	16662
2026-01-12 00:14:23.78	210.16	6.40	-50.6	-63.7	3.8	1.49e+00	0	43	104	0	72	16690
2026-01-12 00:14:24.49	210.14	6.34	-50.6	-63.8	3.8	1.49e+00	0	43	104	0	72	16768
2026-01-12 00:14:25.78	210.12	6.25	-50.6	-63.7	3.8	1.49e+00	0	43	104	0	72	16684
2026-01-12 00:14:26.49	210.11	6.19	-50.6	-63.7	3.8	1.49e+00	0	43	104	0	72	16633
2026-01-12 00:14:27.77	210.09	6.10	-50.6	-63.7	3.8	1.49e+00	0	43	104	0	72	16611
2026-01-12 00:14:28.49	210.07	6.04	-50.6	-63.7	3.8	1.49e+00	0	43	104	0	72	16626
2026-01-12 00:14:29.77	210.05	5.95	-50.6	-63.7	3.8	1.49e+00	0	43	104	0	72	16651
2026-01-12 00:14:30.48	210.04	5.90	-50.6	-63.7	3.8	1.49e+00	0	43	104	0	72	16656
2026-01-12 00:14:31.76	210.02	5.80	-50.6	-63.7	3.8	1.49e+00	0	43	104	0	72	16654
2026-01-12 00:14:32.47	210.01	5.75	-50.6	-63.7	3.8	1.49e+00	0	43	104	0	72	16635
2026-01-12 00:14:33.74	209.98	5.66	-50.6	-63.7	3.8	1.49e+00	0	43	104	0	72	16680
