passes_logs/2026/01/12/T1/T1__20260112_112149_FENGYUN_3D_rec.log

#Pass ID: 20260112_112149_FENGYUN 3D
#Satellite: FENGYUN 3D
#Configuration: FENGYUN 3D
#almurnet v.1.7.20251203
#Start time: 2026-01-12 11:21:51

#Version: 2.0.20230620
#Station: T1
#Location: 37.570604 lon 55.790049 lat
#TLE: 1 43010U 17072A   26011.97305084  .00000235  00000+0  13268-3 0  9993
#TLE: 2 43010  98.9935 343.7425 0002238 114.1623 245.9787 14.19695178422825

#Time	Az	El	Level	Level2	SNR	BER	BlckErr	Temp	State	Recorded	gain1	gain2
2026-01-12 11:21:51.81	141.21	5.15	-51.7	-63.7	3.8	8.46e-01	0	41	0	0	75	13995
2026-01-12 11:21:52.80	141.18	5.22	-51.6	-63.5	3.8	8.47e-01	0	41	104	0	75	13592
2026-01-12 11:21:53.79	141.15	5.29	-51.6	-63.3	3.8	8.46e-01	0	42	104	0	75	13336
2026-01-12 11:21:54.78	141.12	5.36	-51.6	-63.2	3.8	8.47e-01	0	41	104	0	75	13120
2026-01-12 11:21:55.78	141.09	5.43	-51.5	-62.9	3.8	8.47e-01	0	42	104	0	75	12683
2026-01-12 11:21:56.77	141.06	5.50	-51.5	-62.6	3.8	8.48e-01	0	41	104	0	75	12368
2026-01-12 11:21:57.76	141.03	5.57	-51.5	-62.4	3.8	8.46e-01	0	42	104	0	75	12010
2026-01-12 11:21:58.76	141.00	5.64	-51.4	-62.0	3.8	8.47e-01	0	41	104	0	74	12146
2026-01-12 11:21:59.75	140.96	5.71	-51.4	-61.8	3.8	8.46e-01	0	42	104	0	74	11938
2026-01-12 11:22:00.74	140.93	5.79	-51.4	-61.5	3.8	8.46e-01	0	42	104	0	74	11473
2026-01-12 11:22:01.74	140.90	5.86	-51.3	-61.2	3.9	8.44e-01	0	42	104	0	74	11117
2026-01-12 11:22:02.73	140.87	5.93	-51.2	-60.8	3.9	8.43e-01	0	42	104	0	74	10571
2026-01-12 11:22:03.72	140.84	6.00	-51.3	-60.8	4.1	8.44e-01	0	42	104	0	74	10541
2026-01-12 11:22:04.72	140.80	6.08	-51.2	-60.7	4.1	8.42e-01	0	42	0	0	74	10531
2026-01-12 11:22:05.71	140.77	6.15	-51.2	-60.7	4.1	8.42e-01	0	42	0	0	74	10469
2026-01-12 11:22:06.70	140.74	6.22	-51.3	-60.8	4.1	8.44e-01	0	42	104	0	74	10613
2026-01-12 11:22:07.70	140.70	6.29	-51.3	-61.4	3.9	8.44e-01	0	42	104	0	74	11300
2026-01-12 11:22:08.69	140.67	6.37	-51.4	-61.7	3.8	8.45e-01	0	42	104	0	74	11813
2026-01-12 11:22:09.68	140.64	6.44	-51.4	-62.1	3.8	8.45e-01	0	42	104	0	74	12246
2026-01-12 11:22:10.68	140.60	6.51	-51.5	-62.4	3.8	8.46e-01	0	42	104	0	74	12746
2026-01-12 11:22:11.67	140.57	6.59	-51.5	-62.7	3.8	8.48e-01	0	42	104	0	74	13194
2026-01-12 11:22:12.66	140.54	6.66	-51.5	-62.6	3.8	8.46e-01	0	42	104	0	74	13044
2026-01-12 11:22:13.66	140.50	6.74	-51.5	-62.5	3.8	8.47e-01	0	42	104	0	74	12873
2026-01-12 11:22:14.65	140.47	6.81	-51.4	-62.1	3.8	8.45e-01	0	42	104	0	74	12273
2026-01-12 11:22:15.64	140.43	6.89	-51.3	-61.3	3.8	8.45e-01	0	42	104	0	74	11236
2026-01-12 11:22:16.64	140.40	6.96	-51.2	-60.4	4.2	8.43e-01	0	42	104	0	74	10067
2026-01-12 11:22:17.63	140.36	7.04	-51.0	-59.5	4.4	8.35e-01	0	42	0	0	74	9075
2026-01-12 11:22:18.62	140.33	7.11	-50.7	-58.0	5.1	7.84e-01	0	43	0	0	73	8166
2026-01-12 11:22:19.62	140.29	7.19	-50.4	-57.0	5.8	6.78e-01	0	42	0	1048576	72	7655
2026-01-12 11:22:20.61	140.26	7.26	-50.0	-55.7	6.8	2.31e-01	0	43	0	6291456	72	6624
2026-01-12 11:22:21.60	140.22	7.34	-49.5	-54.6	7.9	1.20e-01	0	42	0	11534336	71	6145
2026-01-12 11:22:22.60	140.19	7.42	-49.0	-53.4	9.1	4.07e-02	0	42	0	17825792	70	5699
2026-01-12 11:22:23.59	140.15	7.49	-48.2	-52.1	10.4	9.86e-03	0	43	0	23068672	68	5507
2026-01-12 11:22:24.59	140.12	7.57	-47.4	-50.9	11.5	2.18e-03	0	43	0	28311552	66	5358
2026-01-12 11:22:25.58	140.08	7.65	-46.7	-49.9	12.5	2.55e-04	0	43	0	34603008	65	5062
2026-01-12 11:22:26.57	140.04	7.72	-46.2	-49.1	13.3	4.23e-05	0	43	0	39845888	64	4885
2026-01-12 11:22:27.57	140.01	7.80	-45.8	-48.5	14.0	1.02e-05	0	43	0	45088768	63	4848
2026-01-12 11:22:28.56	139.97	7.88	-45.3	-48.0	14.5	1.10e-06	0	43	0	51380224	62	4829
2026-01-12 11:22:29.55	139.93	7.96	-44.8	-47.3	15.1	0.00e+00	0	43	0	56623104	61	4746
2026-01-12 11:22:30.55	139.89	8.03	-44.7	-47.2	15.3	0.00e+00	0	43	0	61865984	61	4677
2026-01-12 11:22:31.54	139.86	8.11	-44.5	-46.9	15.5	0.00e+00	0	43	0	68157440	61	4528
2026-01-12 11:22:32.53	139.82	8.19	-44.6	-47.1	15.3	5.70e-06	0	43	0	73400320	61	4629
2026-01-12 11:22:33.53	139.78	8.27	-45.0	-47.6	14.9	1.10e-06	0	43	0	78643200	61	4888
2026-01-12 11:22:34.52	139.74	8.35	-45.5	-48.2	14.3	0.00e+00	0	43	0	84934656	61	5219
2026-01-12 11:22:35.51	139.70	8.43	-46.2	-49.1	13.4	1.14e-05	0	43	0	90177536	62	5473
2026-01-12 11:22:36.51	139.66	8.51	-46.7	-49.8	12.6	8.35e-05	0	43	0	95420416	64	5299
2026-01-12 11:22:37.50	139.63	8.59	-47.6	-51.1	11.3	1.30e-03	0	43	0	101711872	65	5811
2026-01-12 11:22:38.49	139.59	8.67	-48.4	-52.5	9.9	5.72e-03	0	43	0	106954752	67	6092
2026-01-12 11:22:39.49	139.55	8.75	-49.5	-54.4	8.0	4.02e-02	0	43	0	112197632	69	6794
2026-01-12 11:22:40.48	139.51	8.83	-50.3	-56.6	6.1	2.53e-01	0	43	0	118489088	71	7729
2026-01-12 11:22:41.47	139.47	8.91	-51.0	-59.5	4.4	7.77e-01	0	43	0	119537664	72	10177
2026-01-12 11:22:42.47	139.43	8.99	-51.4	-62.1	3.9	8.45e-01	0	43	104	119537664	73	13020
2026-01-12 11:22:43.46	139.39	9.07	-50.3	-56.5	5.7	8.47e-01	0	43	104	119537664	72	7214
2026-01-12 11:22:44.45	139.35	9.15	-47.9	-51.6	11.0	2.20e-06	0	43	0	122683392	66	5807
2026-01-12 11:22:45.45	139.30	9.23	-51.5	-62.5	3.8	8.45e-01	0	43	104	124780544	73	13633
2026-01-12 11:22:46.44	139.26	9.32	-51.3	-61.2	3.9	8.46e-01	0	43	104	124780544	73	11709
2026-01-12 11:22:47.44	139.22	9.40	-50.5	-57.1	6.0	3.18e-02	0	43	0	126877696	71	8238
2026-01-12 11:22:48.45	139.18	9.48	-51.6	-63.3	3.8	8.48e-01	0	43	104	126877696	73	14890
2026-01-12 11:22:49.44	139.14	9.56	-51.2	-60.2	4.2	8.38e-01	0	43	0	126877696	73	10446
2026-01-12 11:22:50.44	139.09	9.65	-51.3	-61.0	3.9	8.41e-01	0	43	104	126877696	73	11423
2026-01-12 11:22:51.43	139.05	9.73	-51.2	-60.4	4.2	8.44e-01	0	43	104	126877696	73	10687
2026-01-12 11:22:52.43	139.01	9.82	-51.3	-60.9	4.1	8.41e-01	0	43	0	126877696	73	11310
2026-01-12 11:22:53.43	138.97	9.90	-51.6	-62.8	3.8	8.44e-01	0	43	104	126877696	73	14091
2026-01-12 11:22:54.42	138.92	9.98	-51.3	-60.5	3.9	8.47e-01	0	43	104	126877696	74	10184
2026-01-12 11:22:55.41	138.88	10.07	-50.6	-57.3	5.9	1.80e-03	0	43	0	130023424	71	8462
2026-01-12 11:22:56.41	138.84	10.15	-51.7	-63.6	3.8	8.47e-01	0	43	104	130023424	74	14587
2026-01-12 11:22:57.40	138.79	10.24	-49.0	-53.3	9.3	2.79e-02	0	43	0	131072000	70	5652
2026-01-12 11:22:58.40	138.75	10.32	-48.3	-52.1	10.6	4.48e-03	0	43	0	136314880	68	5495
2026-01-12 11:22:59.39	138.70	10.41	-47.4	-50.7	11.9	8.41e-04	0	43	0	142606336	66	5243
2026-01-12 11:23:00.39	138.66	10.49	-46.5	-49.5	13.2	9.61e-05	0	43	0	147849216	65	4825
2026-01-12 11:23:01.39	138.61	10.58	-46.4	-49.3	13.4	2.40e-05	0	43	0	153092096	64	4985
2026-01-12 11:23:02.38	138.57	10.67	-46.1	-48.9	13.8	1.14e-05	0	43	0	159383552	64	4794
2026-01-12 11:23:03.37	138.52	10.75	-45.7	-48.3	14.5	1.10e-06	0	43	0	164626432	63	4737
2026-01-12 11:23:04.37	138.48	10.84	-45.6	-48.2	14.5	1.10e-06	0	44	0	169869312	63	4681
2026-01-12 11:23:05.41	138.43	10.93	-45.3	-47.9	14.9	0.00e+00	0	43	0	176160768	62	4778
2026-01-12 11:23:06.47	138.38	11.02	-44.7	-47.1	15.6	0.00e+00	0	43	0	182452224	61	4649
2026-01-12 11:23:07.34	138.34	11.10	-44.4	-46.8	16.0	0.00e+00	0	43	0	186646528	60	4713
2026-01-12 11:23:08.47	138.28	11.20	-44.2	-46.5	16.2	0.00e+00	0	43	0	192937984	60	4577
2026-01-12 11:23:09.39	138.24	11.28	-44.1	-46.4	16.3	0.00e+00	0	43	0	198180864	60	4515
2026-01-12 11:23:10.38	138.19	11.37	-44.3	-46.6	16.1	0.00e+00	0	43	0	204472320	60	4644
2026-01-12 11:23:11.38	138.14	11.46	-44.0	-46.3	16.4	0.00e+00	0	43	0	209715200	60	4479
2026-01-12 11:23:12.38	138.09	11.55	-43.8	-46.0	16.6	0.00e+00	0	43	0	214958080	59	4576
2026-01-12 11:23:13.37	138.05	11.64	-43.5	-45.7	16.9	0.00e+00	0	43	0	221249536	59	4434
2026-01-12 11:23:14.36	138.00	11.73	-43.5	-45.7	16.9	0.00e+00	0	43	0	226492416	59	4441
2026-01-12 11:23:15.36	137.95	11.82	-43.6	-45.8	16.8	0.00e+00	0	43	0	231735296	59	4489
2026-01-12 11:23:16.35	137.90	11.91	-43.6	-45.8	16.9	0.00e+00	0	43	0	236978176	59	4446
2026-01-12 11:23:17.35	137.85	12.00	-43.4	-45.5	17.1	0.00e+00	0	44	0	243269632	58	4597
2026-01-12 11:23:18.34	137.80	12.09	-43.5	-45.6	17.0	0.00e+00	0	43	0	248512512	58	4650
2026-01-12 11:23:19.34	137.75	12.19	-43.3	-45.5	17.1	0.00e+00	0	44	0	254803968	58	4577
2026-01-12 11:23:20.33	137.70	12.28	-43.3	-45.5	17.2	0.00e+00	0	43	0	260046848	58	4569
2026-01-12 11:23:21.33	137.64	12.37	-43.4	-45.6	17.1	0.00e+00	0	44	0	265289728	58	4610
2026-01-12 11:23:22.32	137.59	12.46	-43.4	-45.6	17.1	0.00e+00	0	43	0	271581184	58	4624
2026-01-12 11:23:23.32	137.54	12.55	-43.3	-45.5	17.2	0.00e+00	0	43	0	276824064	58	4549
2026-01-12 11:23:24.31	137.49	12.65	-43.3	-45.5	17.2	0.00e+00	0	43	0	282066944	58	4567
2026-01-12 11:23:25.31	137.44	12.74	-43.2	-45.3	17.3	0.00e+00	0	43	0	287309824	58	4490
2026-01-12 11:23:26.30	137.38	12.83	-43.2	-45.4	17.3	0.00e+00	0	44	0	293601280	58	4503
2026-01-12 11:23:27.50	137.32	12.95	-43.2	-45.3	17.3	0.00e+00	0	44	0	299892736	58	4489
2026-01-12 11:23:28.35	137.27	13.03	-43.2	-45.3	17.3	0.00e+00	0	44	0	305135616	58	4479
2026-01-12 11:23:29.69	137.20	13.16	-43.2	-45.3	17.3	0.00e+00	0	43	0	312475648	58	4465
2026-01-12 11:23:30.40	137.16	13.23	-43.1	-45.2	17.4	0.00e+00	0	43	0	316669952	58	4438
2026-01-12 11:23:31.68	137.09	13.35	-43.2	-45.3	17.3	0.00e+00	0	44	0	324009984	58	4488
2026-01-12 11:23:32.39	137.05	13.42	-43.2	-45.3	17.3	0.00e+00	0	43	0	328204288	58	4487
2026-01-12 11:23:33.67	136.98	13.54	-43.0	-45.1	17.5	0.00e+00	0	44	0	335544320	58	4372
2026-01-12 11:23:34.48	136.93	13.62	-43.0	-45.1	17.5	0.00e+00	0	43	0	339738624	58	4368
2026-01-12 11:23:35.61	136.87	13.73	-43.1	-45.2	17.5	0.00e+00	0	43	0	346030080	58	4400
2026-01-12 11:23:36.47	136.82	13.81	-43.0	-45.1	17.6	0.00e+00	0	43	0	351272960	57	4614
2026-01-12 11:23:37.60	136.76	13.93	-42.9	-45.0	17.6	0.00e+00	0	44	0	356515840	57	4584
2026-01-12 11:23:38.45	136.71	14.01	-42.9	-45.0	17.6	0.00e+00	0	43	0	361758720	57	4593
2026-01-12 11:23:39.59	136.64	14.12	-42.9	-45.0	17.6	0.00e+00	0	44	0	368050176	57	4589
2026-01-12 11:23:40.44	136.59	14.21	-42.9	-45.0	17.6	0.00e+00	0	44	0	373293056	57	4587
2026-01-12 11:23:41.58	136.52	14.32	-42.9	-45.0	17.6	0.00e+00	0	44	0	379584512	57	4581
2026-01-12 11:23:42.43	136.47	14.41	-42.8	-44.9	17.8	0.00e+00	0	44	0	383778816	57	4517
2026-01-12 11:23:43.60	136.40	14.52	-42.8	-44.8	17.8	0.00e+00	0	44	0	391118848	57	4492
2026-01-12 11:23:44.45	136.35	14.61	-42.7	-44.8	17.9	0.00e+00	0	44	0	395313152	57	4444
2026-01-12 11:23:45.59	136.28	14.72	-42.7	-44.8	17.9	0.00e+00	0	44	0	401604608	57	4448
2026-01-12 11:23:46.44	136.23	14.81	-42.7	-44.8	17.8	0.00e+00	0	44	0	406847488	57	4481
2026-01-12 11:23:47.58	136.16	14.93	-42.7	-44.8	17.9	0.00e+00	0	44	0	413138944	57	4446
2026-01-12 11:23:48.44	136.10	15.02	-42.6	-44.7	18.0	0.00e+00	0	43	0	418381824	57	4406
2026-01-12 11:23:49.57	136.03	15.13	-42.7	-44.8	17.9	0.00e+00	0	44	0	424673280	57	4445
2026-01-12 11:23:50.42	135.98	15.22	-42.5	-44.6	18.0	0.00e+00	0	44	0	428867584	57	4372
2026-01-12 11:23:51.56	135.91	15.34	-42.6	-44.6	18.0	0.00e+00	0	44	0	436207616	57	4384
2026-01-12 11:23:52.42	135.85	15.43	-42.5	-44.6	18.1	0.00e+00	0	44	0	440401920	57	4352
2026-01-12 11:23:53.55	135.78	15.55	-42.5	-44.6	18.1	0.00e+00	0	44	0	446693376	57	4360
2026-01-12 11:23:54.41	135.72	15.64	-42.5	-44.6	18.1	0.00e+00	0	44	0	451936256	57	4349
2026-01-12 11:23:55.55	135.65	15.76	-42.3	-44.3	18.3	0.00e+00	0	44	0	458227712	56	4482
2026-01-12 11:23:56.40	135.59	15.85	-42.3	-44.3	18.3	0.00e+00	0	44	0	462422016	56	4480
2026-01-12 11:23:57.54	135.52	15.97	-42.2	-44.2	18.4	0.00e+00	0	44	0	468713472	56	4414
2026-01-12 11:23:58.39	135.46	16.06	-42.3	-44.3	18.4	0.00e+00	0	44	0	473956352	56	4446
2026-01-12 11:23:59.53	135.38	16.18	-42.2	-44.1	18.5	0.00e+00	0	44	0	480247808	56	4385
2026-01-12 11:24:00.38	135.33	16.27	-42.0	-44.0	18.6	0.00e+00	0	44	0	485490688	56	4329
2026-01-12 11:24:01.60	135.24	16.40	-42.1	-44.0	18.6	0.00e+00	0	44	0	491782144	56	4330
2026-01-12 11:24:02.45	135.18	16.49	-42.1	-44.0	18.6	0.00e+00	0	44	0	497025024	56	4339
2026-01-12 11:24:03.59	135.11	16.62	-41.8	-43.7	18.7	0.00e+00	0	44	0	503316480	55	4422
2026-01-12 11:24:04.45	135.05	16.71	-41.8	-43.8	18.7	0.00e+00	0	44	0	507510784	55	4464
2026-01-12 11:24:05.58	134.97	16.84	-41.8	-43.7	18.7	0.00e+00	0	44	0	514850816	55	4431
2026-01-12 11:24:06.44	134.91	16.93	-41.7	-43.7	18.8	0.00e+00	0	44	0	519045120	55	4408
2026-01-12 11:24:07.57	134.82	17.06	-41.8	-43.8	18.7	0.00e+00	0	44	0	525336576	55	4448
2026-01-12 11:24:08.43	134.76	17.15	-41.7	-43.7	18.7	0.00e+00	0	44	0	530579456	55	4423
2026-01-12 11:24:09.56	134.68	17.28	-41.8	-43.8	18.7	0.00e+00	0	44	0	536870912	55	4442
2026-01-12 11:24:10.42	134.62	17.37	-41.7	-43.7	18.8	0.00e+00	0	44	0	542113792	55	4425
2026-01-12 11:24:11.55	134.53	17.50	-41.8	-43.8	18.7	0.00e+00	0	44	0	548405248	55	4444
2026-01-12 11:24:12.40	134.47	17.60	-41.8	-43.7	18.7	0.00e+00	0	44	0	552599552	55	4436
2026-01-12 11:24:13.54	134.39	17.73	-41.7	-43.6	18.8	0.00e+00	0	44	0	558891008	55	4379
2026-01-12 11:24:14.39	134.32	17.82	-41.6	-43.5	18.9	0.00e+00	0	44	0	564133888	55	4340
2026-01-12 11:24:15.53	134.24	17.95	-41.6	-43.5	18.9	0.00e+00	0	44	0	570425344	55	4337
2026-01-12 11:24:16.38	134.17	18.05	-41.6	-43.5	18.9	0.00e+00	0	44	0	575668224	55	4327
2026-01-12 11:24:17.52	134.08	18.18	-41.6	-43.6	18.9	0.00e+00	0	44	0	581959680	55	4358
2026-01-12 11:24:18.37	134.02	18.28	-41.6	-43.6	18.9	0.00e+00	0	44	0	586153984	55	4367
2026-01-12 11:24:19.60	133.92	18.42	-41.5	-43.5	19.0	0.00e+00	0	44	0	593494016	55	4317
2026-01-12 11:24:20.46	133.85	18.52	-41.6	-43.6	18.9	0.00e+00	0	44	0	597688320	55	4342
2026-01-12 11:24:21.60	133.76	18.66	-41.6	-43.5	19.0	0.00e+00	0	44	0	603979776	55	4324
2026-01-12 11:24:22.45	133.69	18.76	-41.5	-43.4	19.1	0.00e+00	0	44	0	609222656	54	4524
2026-01-12 11:24:23.59	133.60	18.89	-41.5	-43.5	19.0	0.00e+00	0	44	0	615514112	54	4571
2026-01-12 11:24:24.44	133.53	18.99	-41.5	-43.5	19.0	0.00e+00	0	44	0	620756992	54	4566
2026-01-12 11:24:25.58	133.44	19.13	-41.5	-43.4	19.0	0.00e+00	0	44	0	627048448	54	4539
2026-01-12 11:24:26.43	133.37	19.23	-41.4	-43.3	19.1	0.00e+00	0	44	0	631242752	54	4478
2026-01-12 11:24:27.57	133.27	19.37	-41.4	-43.3	19.1	0.00e+00	0	44	0	638582784	54	4478
2026-01-12 11:24:28.42	133.20	19.47	-41.2	-43.2	19.3	0.00e+00	0	44	0	642777088	54	4402
2026-01-12 11:24:29.56	133.10	19.61	-41.3	-43.2	19.3	0.00e+00	0	44	0	649068544	54	4415
2026-01-12 11:24:30.41	133.03	19.71	-41.2	-43.2	19.3	0.00e+00	0	44	0	654311424	54	4398
2026-01-12 11:24:31.55	132.93	19.85	-41.3	-43.2	19.2	0.00e+00	0	44	0	660602880	54	4428
2026-01-12 11:24:32.40	132.86	19.96	-41.2	-43.2	19.3	0.00e+00	0	44	0	664797184	54	4401
2026-01-12 11:24:33.54	132.76	20.10	-41.3	-43.3	19.2	0.00e+00	0	44	0	672137216	54	4449
2026-01-12 11:24:34.40	132.68	20.20	-41.2	-43.2	19.3	0.00e+00	0	44	0	676331520	54	4406
2026-01-12 11:24:35.53	132.58	20.35	-41.3	-43.2	19.3	0.00e+00	0	44	0	682622976	54	4423
2026-01-12 11:24:36.38	132.50	20.45	-41.3	-43.2	19.2	0.00e+00	0	44	0	687865856	54	4429
2026-01-12 11:24:37.60	132.39	20.60	-41.0	-43.0	19.5	0.00e+00	0	44	0	694157312	54	4296
2026-01-12 11:24:38.45	132.31	20.71	-41.2	-43.1	19.3	0.00e+00	0	44	0	699400192	54	4371
2026-01-12 11:24:39.59	132.21	20.86	-41.1	-43.0	19.4	0.00e+00	0	44	0	705691648	54	4331
2026-01-12 11:24:40.45	132.13	20.97	-41.0	-42.9	19.5	0.00e+00	0	44	0	710934528	54	4263
2026-01-12 11:24:41.58	132.02	21.11	-40.9	-42.8	19.6	0.00e+00	0	44	0	717225984	53	4464
2026-01-12 11:24:42.53	131.93	21.23	-40.9	-42.8	19.6	0.00e+00	0	44	0	722468864	53	4477
2026-01-12 11:24:43.52	131.84	21.36	-40.9	-42.8	19.6	0.00e+00	0	44	0	727711744	53	4480
2026-01-12 11:24:44.52	131.74	21.49	-40.8	-42.7	19.8	0.00e+00	0	44	0	734003200	53	4392
2026-01-12 11:24:45.51	131.65	21.62	-40.7	-42.6	19.8	0.00e+00	0	44	0	739246080	53	4359
2026-01-12 11:24:46.51	131.55	21.75	-40.7	-42.5	19.9	0.00e+00	0	44	0	744488960	53	4329
2026-01-12 11:24:47.50	131.45	21.88	-40.6	-42.5	19.9	0.00e+00	0	44	0	749731840	53	4295
2026-01-12 11:24:48.50	131.35	22.01	-40.5	-42.4	20.0	0.00e+00	0	44	0	756023296	53	4252
2026-01-12 11:24:49.49	131.25	22.14	-40.6	-42.4	19.9	0.00e+00	0	44	0	761266176	53	4291
2026-01-12 11:24:50.49	131.15	22.28	-40.6	-42.4	20.0	0.00e+00	0	44	0	767557632	53	4278
2026-01-12 11:24:51.48	131.05	22.41	-40.5	-42.3	20.1	0.00e+00	0	44	0	772800512	52	4471
2026-01-12 11:24:52.48	130.94	22.54	-40.6	-42.4	20.0	0.00e+00	0	44	0	778043392	52	4533
2026-01-12 11:24:53.48	130.84	22.68	-40.5	-42.4	20.0	0.00e+00	0	44	0	784334848	52	4506
2026-01-12 11:24:54.47	130.74	22.81	-40.6	-42.4	20.0	0.00e+00	0	44	0	789577728	52	4544
2026-01-12 11:24:55.47	130.63	22.95	-40.6	-42.5	19.9	0.00e+00	0	44	0	794820608	52	4576
2026-01-12 11:24:56.54	130.52	23.09	-40.6	-42.5	19.9	0.00e+00	0	44	0	801112064	52	4549
2026-01-12 11:24:57.41	130.42	23.21	-40.7	-42.6	19.8	0.00e+00	0	44	0	806354944	52	4620
2026-01-12 11:24:58.55	130.30	23.37	-40.7	-42.6	19.8	0.00e+00	0	44	0	812646400	52	4631
2026-01-12 11:24:59.40	130.20	23.49	-40.7	-42.6	19.8	0.00e+00	0	44	0	816840704	52	4627
2026-01-12 11:25:00.54	130.08	23.65	-40.7	-42.6	19.9	0.00e+00	0	44	0	823132160	52	4607
2026-01-12 11:25:01.39	129.98	23.77	-40.6	-42.4	20.0	0.00e+00	0	44	0	828375040	52	4528
2026-01-12 11:25:02.53	129.85	23.93	-40.6	-42.4	20.0	0.00e+00	0	44	0	834666496	52	4521
2026-01-12 11:25:03.38	129.76	24.05	-40.4	-42.2	20.1	0.00e+00	0	44	0	839909376	52	4440
2026-01-12 11:25:04.52	129.63	24.21	-40.2	-42.1	20.3	0.00e+00	0	44	0	846200832	52	4351
2026-01-12 11:25:05.37	129.53	24.33	-40.1	-41.9	20.4	0.00e+00	0	44	0	850395136	52	4279
2026-01-12 11:25:06.51	129.39	24.49	-40.1	-41.9	20.4	0.00e+00	0	44	0	856686592	52	4278
2026-01-12 11:25:07.36	129.29	24.61	-40.1	-41.9	20.4	0.00e+00	0	44	0	861929472	52	4275
2026-01-12 11:25:08.50	129.16	24.78	-40.1	-42.0	20.4	0.00e+00	0	44	0	868220928	52	4298
2026-01-12 11:25:09.35	129.05	24.90	-40.2	-42.0	20.4	0.00e+00	0	44	0	873463808	52	4318
2026-01-12 11:25:10.49	128.92	25.07	-40.2	-42.1	20.3	0.00e+00	0	44	0	879755264	52	4357
2026-01-12 11:25:11.34	128.81	25.19	-40.2	-42.1	20.3	0.00e+00	0	44	0	883949568	52	4342
2026-01-12 11:25:12.48	128.67	25.36	-40.2	-42.0	20.3	0.00e+00	0	44	0	891289600	52	4321
2026-01-12 11:25:13.33	128.56	25.49	-40.3	-42.1	20.3	0.00e+00	0	44	0	895483904	52	4388
2026-01-12 11:25:14.61	128.40	25.68	-40.2	-42.1	20.3	0.00e+00	0	44	0	902823936	52	4371
2026-01-12 11:25:15.34	128.31	25.78	-40.3	-42.2	20.2	0.00e+00	0	44	0	907018240	52	4433
2026-01-12 11:25:16.61	128.15	25.97	-40.2	-42.0	20.3	0.00e+00	0	44	0	914358272	52	4329
2026-01-12 11:25:17.36	128.05	26.09	-40.2	-42.1	20.3	0.00e+00	0	44	0	918552576	52	4343
2026-01-12 11:25:18.63	127.88	26.28	-40.2	-42.0	20.3	0.00e+00	0	44	0	925892608	52	4322
2026-01-12 11:25:19.35	127.79	26.39	-40.0	-41.9	20.5	0.00e+00	0	44	0	929038336	52	4251
2026-01-12 11:25:20.62	127.62	26.58	-40.0	-41.8	20.5	0.00e+00	0	44	0	936378368	52	4241
2026-01-12 11:25:21.35	127.52	26.69	-40.0	-41.8	20.6	0.00e+00	0	44	0	940572672	51	4463
2026-01-12 11:25:22.63	127.34	26.89	-40.0	-41.8	20.6	0.00e+00	0	44	0	947912704	51	4468
2026-01-12 11:25:23.36	127.24	27.00	-40.0	-41.8	20.6	0.00e+00	0	44	0	952107008	51	4491
2026-01-12 11:25:24.63	127.06	27.20	-40.0	-41.8	20.6	0.00e+00	0	44	0	959447040	51	4491
2026-01-12 11:25:25.36	126.96	27.31	-40.2	-42.0	20.4	0.00e+00	0	44	0	963641344	51	4587
2026-01-12 11:25:26.64	126.78	27.51	-40.3	-42.2	20.3	0.00e+00	0	44	0	969932800	51	4667
2026-01-12 11:25:27.37	126.67	27.63	-40.4	-42.3	20.2	0.00e+00	0	44	0	974127104	51	4722
2026-01-12 11:25:28.64	126.49	27.83	-40.4	-42.2	20.2	0.00e+00	0	44	0	981467136	51	4687
2026-01-12 11:25:29.35	126.39	27.94	-40.4	-42.2	20.2	0.00e+00	0	44	0	985661440	51	4695
2026-01-12 11:25:30.64	126.20	28.15	-40.3	-42.2	20.3	0.00e+00	0	44	0	993001472	51	4666
2026-01-12 11:25:31.36	126.09	28.26	-40.3	-42.1	20.3	0.00e+00	0	44	0	997195776	51	4635
2026-01-12 11:25:32.64	125.90	28.47	-40.3	-42.1	20.3	0.00e+00	0	44	0	1004535808	51	4642
2026-01-12 11:25:33.68	125.74	28.64	-40.1	-42.0	20.5	0.00e+00	0	44	0	1009778688	51	4558
2026-01-12 11:25:34.95	125.54	28.84	-40.0	-41.8	20.6	0.00e+00	0	44	0	1017118720	51	4450
2026-01-12 11:25:35.67	125.43	28.96	-40.0	-41.8	20.7	0.00e+00	0	44	0	1021313024	51	4448
2026-01-12 11:25:36.94	125.23	29.17	-40.0	-41.8	20.7	0.00e+00	0	44	0	1028653056	51	4448
2026-01-12 11:25:37.68	125.11	29.29	-39.9	-41.7	20.7	0.00e+00	0	44	0	1032847360	51	4410
2026-01-12 11:25:38.96	124.90	29.50	-39.9	-41.7	20.7	0.00e+00	0	44	0	1040187392	51	4414
2026-01-12 11:25:39.67	124.79	29.62	-40.0	-41.8	20.7	0.00e+00	0	44	0	1043333120	51	4457
2026-01-12 11:25:40.95	124.58	29.83	-40.1	-41.9	20.5	0.00e+00	0	44	0	1050673152	51	4513
2026-01-12 11:25:41.68	124.46	29.96	-40.1	-42.0	20.5	0.00e+00	0	44	0	1054867456	51	4552
2026-01-12 11:25:42.96	124.24	30.17	-40.2	-42.1	20.4	0.00e+00	0	44	0	1062207488	51	4611
2026-01-12 11:25:43.67	124.12	30.29	-40.2	-42.0	20.4	0.00e+00	0	44	0	1066401792	51	4593
2026-01-12 11:25:45.05	123.88	30.53	-40.1	-41.9	20.5	0.00e+00	0	44	0	1073741824	51	4535
2026-01-12 11:25:45.76	123.76	30.65	-40.1	-41.9	20.6	0.00e+00	0	44	0	1077936128	51	4508
2026-01-12 11:25:47.11	123.52	30.88	-40.0	-41.8	20.6	0.00e+00	0	44	0	1085276160	51	4477
2026-01-12 11:25:47.83	123.40	31.00	-40.0	-41.8	20.7	0.00e+00	0	44	0	1089470464	51	4452
2026-01-12 11:25:49.11	123.17	31.22	-40.0	-41.8	20.6	0.00e+00	0	44	0	1096810496	51	4477
2026-01-12 11:25:49.85	123.03	31.35	-39.9	-41.7	20.8	0.00e+00	0	44	0	1101004800	51	4406
2026-01-12 11:25:51.24	122.78	31.59	-39.8	-41.5	20.9	0.00e+00	0	44	0	1108344832	51	4337
2026-01-12 11:25:51.95	122.65	31.71	-39.7	-41.5	20.9	0.00e+00	0	44	0	1112539136	51	4326
2026-01-12 11:25:53.23	122.41	31.94	-39.8	-41.6	20.8	0.00e+00	0	44	0	1119879168	51	4365
2026-01-12 11:25:53.95	122.27	32.07	-39.8	-41.6	20.8	0.00e+00	0	44	0	1124073472	51	4369
2026-01-12 11:25:55.23	122.02	32.29	-39.8	-41.6	20.8	0.00e+00	0	44	0	1131413504	51	4389
2026-01-12 11:25:55.97	121.88	32.42	-40.0	-41.8	20.7	0.00e+00	0	44	0	1135607808	51	4451
2026-01-12 11:25:57.25	121.63	32.65	-40.0	-41.9	20.6	0.00e+00	0	44	0	1142947840	51	4495
2026-01-12 11:25:57.97	121.49	32.78	-39.9	-41.8	20.7	0.00e+00	0	44	0	1147142144	51	4457
2026-01-12 11:25:59.25	121.23	33.01	-39.9	-41.7	20.8	0.00e+00	0	44	0	1153433600	51	4416
2026-01-12 11:25:59.99	121.08	33.14	-39.9	-41.7	20.7	0.00e+00	0	44	0	1157627904	51	4437
2026-01-12 11:26:01.27	120.82	33.37	-39.8	-41.6	20.9	0.00e+00	0	44	0	1164967936	51	4346
2026-01-12 11:26:01.98	120.67	33.50	-39.8	-41.6	20.8	0.00e+00	0	44	0	1169162240	51	4360
2026-01-12 11:26:03.26	120.40	33.74	-39.9	-41.7	20.8	0.00e+00	0	44	0	1176502272	51	4397
2026-01-12 11:26:04.11	120.22	33.89	-39.8	-41.6	20.8	0.00e+00	0	44	0	1181745152	51	4368
2026-01-12 11:26:05.25	119.98	34.10	-39.9	-41.7	20.7	0.00e+00	0	44	0	1186988032	51	4406
2026-01-12 11:26:06.10	119.79	34.26	-39.7	-41.5	20.9	0.00e+00	0	44	0	1192230912	51	4312
2026-01-12 11:26:07.24	119.54	34.47	-39.6	-41.4	21.0	0.00e+00	0	44	0	1198522368	51	4282
2026-01-12 11:26:08.09	119.35	34.62	-39.7	-41.4	21.0	0.00e+00	0	44	0	1203765248	51	4286
2026-01-12 11:26:09.23	119.10	34.84	-39.6	-41.4	21.0	0.00e+00	0	44	0	1210056704	51	4257
2026-01-12 11:26:10.09	118.90	35.00	-39.5	-41.3	21.0	0.00e+00	0	44	0	1215299584	51	4234
2026-01-12 11:26:11.23	118.64	35.21	-39.5	-41.3	21.1	0.00e+00	0	44	0	1221591040	51	4214
2026-01-12 11:26:12.08	118.44	35.37	-39.6	-41.4	21.0	0.00e+00	0	44	0	1225785344	51	4262
2026-01-12 11:26:13.33	118.15	35.60	-39.7	-41.4	20.9	0.00e+00	0	44	0	1233125376	51	4282
2026-01-12 11:26:14.18	117.95	35.76	-39.7	-41.6	20.9	0.00e+00	0	44	0	1238368256	51	4344
2026-01-12 11:26:15.32	117.67	35.98	-39.7	-41.6	20.8	0.00e+00	0	44	0	1244659712	51	4342
2026-01-12 11:26:16.17	117.46	36.14	-39.7	-41.5	20.9	0.00e+00	0	44	0	1248854016	51	4338
2026-01-12 11:26:17.31	117.18	36.36	-39.8	-41.6	20.9	0.00e+00	0	44	0	1255145472	51	4351
2026-01-12 11:26:18.16	116.97	36.52	-39.8	-41.6	20.9	0.00e+00	0	44	0	1260388352	51	4363
2026-01-12 11:26:19.30	116.68	36.74	-39.9	-41.7	20.8	0.00e+00	0	44	0	1266679808	51	4401
2026-01-12 11:26:20.16	116.46	36.90	-39.7	-41.5	20.9	0.00e+00	0	44	0	1270874112	51	4331
2026-01-12 11:26:21.29	116.17	37.12	-39.6	-41.3	21.1	0.00e+00	0	44	0	1278214144	51	4227
2026-01-12 11:26:22.37	115.89	37.33	-39.6	-41.4	21.0	0.00e+00	0	44	0	1283457024	51	4267
2026-01-12 11:26:23.22	115.66	37.49	-39.7	-41.5	20.9	0.00e+00	0	44	0	1288699904	51	4307
2026-01-12 11:26:24.69	115.27	37.77	-39.8	-41.6	20.8	0.00e+00	0	44	0	1297088512	51	4375
2026-01-12 11:26:25.40	115.07	37.91	-39.8	-41.6	20.8	0.00e+00	0	44	0	1301282816	51	4380
2026-01-12 11:26:26.68	114.72	38.16	-39.7	-41.6	20.9	0.00e+00	0	44	0	1308622848	51	4345
2026-01-12 11:26:27.40	114.52	38.30	-39.6	-41.4	21.0	0.00e+00	0	44	0	1311768576	51	4274
2026-01-12 11:26:28.69	114.16	38.55	-39.7	-41.5	21.0	0.00e+00	0	44	0	1319108608	51	4310
2026-01-12 11:26:29.41	113.95	38.69	-39.8	-41.6	20.9	0.00e+00	0	44	0	1323302912	51	4379
2026-01-12 11:26:30.69	113.58	38.94	-39.8	-41.6	20.8	0.00e+00	0	44	0	1330642944	51	4374
2026-01-12 11:26:31.48	113.35	39.10	-39.8	-41.6	20.9	0.00e+00	0	44	0	1334837248	51	4359
2026-01-12 11:26:32.67	113.00	39.33	-39.7	-41.5	21.0	0.00e+00	0	44	0	1342177280	51	4302
2026-01-12 11:26:33.70	112.69	39.53	-39.8	-41.6	20.9	0.00e+00	0	44	0	1347420160	51	4342
2026-01-12 11:26:34.86	112.33	39.76	-39.7	-41.4	21.0	0.00e+00	0	44	0	1354760192	51	4286
2026-01-12 11:26:35.73	112.07	39.93	-39.7	-41.5	21.0	0.00e+00	0	44	0	1358954496	51	4293
2026-01-12 11:26:36.87	111.71	40.16	-39.9	-41.7	20.8	0.00e+00	0	44	0	1365245952	51	4411
2026-01-12 11:26:37.79	111.42	40.34	-40.0	-41.8	20.6	0.00e+00	0	44	0	1370488832	51	4492
2026-01-12 11:26:38.94	111.05	40.57	-40.1	-42.0	20.5	0.00e+00	0	44	0	1376780288	51	4554
2026-01-12 11:26:39.80	110.77	40.73	-40.1	-41.9	20.6	0.00e+00	0	44	0	1382023168	51	4524
2026-01-12 11:26:41.11	110.34	40.99	-40.0	-41.8	20.7	0.00e+00	0	44	0	1389363200	51	4459
2026-01-12 11:26:41.82	110.11	41.13	-39.9	-41.7	20.8	0.00e+00	0	44	0	1393557504	51	4438
2026-01-12 11:26:43.11	109.67	41.39	-39.7	-41.5	21.0	0.00e+00	0	44	0	1400897536	51	4310
2026-01-12 11:26:43.85	109.42	41.53	-39.8	-41.5	21.0	0.00e+00	0	44	0	1405091840	51	4331
2026-01-12 11:26:45.12	108.98	41.78	-39.9	-41.7	20.8	0.00e+00	0	44	0	1412431872	51	4418
2026-01-12 11:26:45.88	108.72	41.93	-39.9	-41.7	20.8	0.00e+00	0	44	0	1416626176	51	4435
2026-01-12 11:26:47.16	108.27	42.18	-39.8	-41.6	20.9	0.00e+00	0	44	0	1423966208	51	4376
2026-01-12 11:26:47.98	107.97	42.34	-39.9	-41.7	20.9	0.00e+00	0	44	0	1428160512	51	4395
2026-01-12 11:26:49.12	107.56	42.57	-40.0	-41.9	20.7	0.00e+00	0	44	0	1434451968	51	4496
2026-01-12 11:26:49.97	107.25	42.73	-39.9	-41.7	20.8	0.00e+00	0	44	0	1439694848	51	4417
2026-01-12 11:26:51.11	106.82	42.96	-39.8	-41.6	20.9	0.00e+00	0	44	0	1444937728	51	4364
2026-01-12 11:26:51.96	106.50	43.12	-39.7	-41.5	21.0	0.00e+00	0	44	0	1450180608	51	4318
2026-01-12 11:26:53.10	106.07	43.35	-39.7	-41.5	21.0	0.00e+00	0	44	0	1456472064	51	4327
2026-01-12 11:26:54.33	105.60	43.58	-39.7	-41.5	21.0	0.00e+00	0	44	0	1463812096	51	4305
2026-01-12 11:26:55.19	105.26	43.75	-39.8	-41.6	20.9	0.00e+00	0	44	0	1468006400	51	4355
2026-01-12 11:26:56.32	104.81	43.97	-39.8	-41.6	20.9	0.00e+00	0	44	0	1475346432	51	4373
2026-01-12 11:26:57.17	104.47	44.13	-39.8	-41.6	20.9	0.00e+00	0	44	0	1479540736	51	4377
2026-01-12 11:26:58.31	104.01	44.35	-39.8	-41.6	20.9	0.00e+00	0	44	0	1485832192	51	4379
2026-01-12 11:26:59.16	103.66	44.51	-39.7	-41.4	21.1	0.00e+00	0	44	0	1491075072	51	4290
2026-01-12 11:27:00.32	103.18	44.74	-39.8	-41.6	21.0	0.00e+00	0	44	0	1497366528	51	4363
2026-01-12 11:27:01.17	102.82	44.90	-40.0	-41.8	20.7	0.00e+00	0	44	0	1502609408	51	4490
2026-01-12 11:27:02.30	102.34	45.11	-40.1	-42.0	20.6	0.00e+00	0	44	0	1508900864	51	4556
2026-01-12 11:27:03.16	101.97	45.27	-40.0	-41.8	20.7	0.00e+00	0	44	0	1513095168	51	4474
2026-01-12 11:27:04.42	101.42	45.51	-39.7	-41.5	21.0	0.00e+00	0	44	0	1520435200	51	4302
2026-01-12 11:27:05.22	101.07	45.66	-39.5	-41.3	21.2	0.00e+00	0	44	0	1524629504	51	4207
2026-01-12 11:27:06.36	100.56	45.87	-39.7	-41.4	21.1	0.00e+00	0	44	0	1531969536	51	4274
2026-01-12 11:27:07.22	100.17	46.02	-39.8	-41.6	21.0	0.00e+00	0	44	0	1536163840	51	4348
2026-01-12 11:27:08.35	99.66	46.23	-39.8	-41.6	20.9	0.00e+00	0	44	0	1542455296	51	4348
2026-01-12 11:27:09.21	99.26	46.39	-39.8	-41.5	21.0	0.00e+00	0	44	0	1547698176	51	4333
2026-01-12 11:27:10.34	98.73	46.59	-39.8	-41.6	20.9	0.00e+00	0	44	0	1553989632	51	4347
2026-01-12 11:27:11.20	98.32	46.74	-40.0	-41.9	20.7	0.00e+00	0	44	0	1558183936	51	4500
2026-01-12 11:27:12.34	97.78	46.95	-40.4	-42.2	20.4	0.00e+00	0	44	0	1564475392	51	4691
2026-01-12 11:27:13.19	97.37	47.10	-40.5	-42.3	20.3	0.00e+00	0	44	0	1569718272	51	4740
2026-01-12 11:27:14.33	96.81	47.29	-40.5	-42.3	20.3	0.00e+00	0	44	0	1576009728	51	4750
2026-01-12 11:27:15.18	96.39	47.44	-40.4	-42.3	20.4	0.00e+00	0	44	0	1581252608	51	4719
2026-01-12 11:27:16.34	95.81	47.64	-40.5	-42.3	20.3	0.00e+00	0	44	0	1587544064	51	4740
2026-01-12 11:27:17.19	95.38	47.78	-40.4	-42.3	20.4	0.00e+00	0	44	0	1591738368	51	4707
2026-01-12 11:27:18.33	94.80	47.97	-40.6	-42.4	20.3	0.00e+00	0	44	0	1599078400	51	4784
2026-01-12 11:27:19.18	94.36	48.12	-40.6	-42.4	20.2	0.00e+00	0	44	0	1603272704	51	4806
2026-01-12 11:27:20.32	93.76	48.30	-40.6	-42.4	20.2	0.00e+00	0	44	0	1609564160	51	4792
2026-01-12 11:27:21.17	93.31	48.44	-40.6	-42.5	20.2	0.00e+00	0	44	0	1614807040	51	4829
2026-01-12 11:27:22.31	92.71	48.62	-40.7	-42.6	20.0	0.00e+00	0	44	0	1621098496	52	4607
2026-01-12 11:27:23.29	92.18	48.78	-41.0	-42.9	19.8	0.00e+00	0	44	0	1626341376	52	4776
2026-01-12 11:27:24.46	91.54	48.96	-40.7	-42.6	20.0	0.00e+00	0	44	0	1632632832	52	4625
2026-01-12 11:27:25.31	91.07	49.09	-40.5	-42.4	20.2	0.00e+00	0	44	0	1637875712	52	4507
2026-01-12 11:27:26.45	90.44	49.26	-40.3	-42.2	20.4	0.00e+00	0	44	0	1644167168	52	4412
2026-01-12 11:27:27.30	89.96	49.38	-40.3	-42.1	20.4	0.00e+00	0	44	0	1649410048	52	4386
2026-01-12 11:27:28.44	89.32	49.55	-40.4	-42.3	20.3	0.00e+00	0	44	0	1655701504	52	4458
2026-01-12 11:27:29.29	88.83	49.67	-40.6	-42.5	20.1	0.00e+00	0	44	0	1659895808	52	4567
2026-01-12 11:27:30.43	88.17	49.83	-40.6	-42.5	20.1	0.00e+00	0	44	0	1667235840	52	4561
2026-01-12 11:27:31.28	87.68	49.95	-40.6	-42.5	20.1	0.00e+00	0	44	0	1671430144	52	4550
2026-01-12 11:27:32.42	87.01	50.10	-40.5	-42.4	20.2	0.00e+00	0	44	0	1677721600	52	4516
2026-01-12 11:27:33.27	86.50	50.22	-40.6	-42.5	20.1	0.00e+00	0	44	0	1682964480	52	4575
2026-01-12 11:27:34.41	85.82	50.36	-40.8	-42.7	19.9	0.00e+00	0	44	0	1689255936	52	4692
2026-01-12 11:27:35.26	85.31	50.47	-40.8	-42.8	19.9	0.00e+00	0	44	0	1694498816	52	4708
2026-01-12 11:27:36.40	84.61	50.61	-40.7	-42.6	20.1	0.00e+00	0	44	0	1699741696	52	4600
2026-01-12 11:27:37.26	84.09	50.71	-40.4	-42.2	20.4	0.00e+00	0	44	0	1704984576	52	4428
2026-01-12 11:27:38.39	83.39	50.84	-40.5	-42.3	20.3	0.00e+00	0	44	0	1711276032	52	4469
2026-01-12 11:27:39.29	82.83	50.95	-40.7	-42.6	20.1	0.00e+00	0	44	0	1716518912	52	4602
2026-01-12 11:27:40.51	82.06	51.08	-40.5	-42.4	20.3	0.00e+00	0	44	0	1722810368	52	4494
2026-01-12 11:27:41.36	81.52	51.17	-40.4	-42.3	20.4	0.00e+00	0	44	0	1728053248	52	4450
2026-01-12 11:27:42.50	80.80	51.29	-40.6	-42.5	20.2	0.00e+00	0	44	0	1734344704	52	4548
2026-01-12 11:27:43.40	80.22	51.38	-40.5	-42.3	20.4	0.00e+00	0	44	0	1739587584	52	4463
2026-01-12 11:27:44.42	79.56	51.48	-40.4	-42.3	20.4	0.00e+00	0	44	0	1745879040	52	4448
2026-01-12 11:27:45.42	78.91	51.57	-40.3	-42.1	20.5	0.00e+00	0	44	0	1751121920	52	4363
2026-01-12 11:27:46.42	78.26	51.66	-40.2	-42.0	20.6	0.00e+00	0	44	0	1756364800	52	4316
2026-01-12 11:27:47.41	77.61	51.74	-40.2	-42.0	20.6	0.00e+00	0	44	0	1761607680	52	4324
2026-01-12 11:27:48.41	76.95	51.82	-40.3	-42.1	20.5	0.00e+00	0	44	0	1767899136	52	4388
2026-01-12 11:27:49.40	76.29	51.90	-40.3	-42.1	20.5	0.00e+00	0	44	0	1773142016	52	4378
2026-01-12 11:27:50.40	75.62	51.97	-40.4	-42.2	20.4	0.00e+00	0	44	0	1779433472	52	4400
2026-01-12 11:27:51.39	74.96	52.04	-40.7	-42.6	20.0	0.00e+00	0	44	0	1784676352	52	4624
2026-01-12 11:27:52.39	74.29	52.11	-40.8	-42.6	20.0	0.00e+00	0	44	0	1789919232	52	4640
2026-01-12 11:27:53.38	73.62	52.17	-40.5	-42.4	20.3	0.00e+00	0	44	0	1796210688	52	4494
2026-01-12 11:27:54.39	72.93	52.22	-40.4	-42.2	20.4	0.00e+00	0	44	0	1801453568	52	4428
2026-01-12 11:27:55.39	72.25	52.28	-40.3	-42.1	20.5	0.00e+00	0	44	0	1806696448	52	4373
2026-01-12 11:27:56.43	71.54	52.33	-40.6	-42.5	20.2	0.00e+00	0	44	0	1812987904	52	4563
2026-01-12 11:27:57.41	70.86	52.37	-40.5	-42.3	20.3	0.00e+00	0	44	0	1818230784	52	4480
2026-01-12 11:27:58.48	70.13	52.42	-40.5	-42.3	20.4	0.00e+00	0	44	0	1824522240	52	4459
2026-01-12 11:27:59.34	69.53	52.45	-40.5	-42.3	20.4	0.00e+00	0	44	0	1829765120	52	4455
2026-01-12 11:28:00.47	68.75	52.48	-40.6	-42.4	20.2	0.00e+00	0	44	0	1836056576	52	4537
2026-01-12 11:28:01.42	68.09	52.51	-40.8	-42.7	20.0	0.00e+00	0	44	0	1841299456	52	4658
2026-01-12 11:28:02.42	67.40	52.53	-40.2	-42.0	20.6	0.00e+00	0	44	0	1846542336	52	4308
2026-01-12 11:28:03.41	66.71	52.55	-40.2	-41.9	20.6	0.00e+00	0	44	0	1852833792	52	4286
2026-01-12 11:28:04.41	66.01	52.56	-40.5	-42.3	20.3	0.00e+00	0	44	0	1858076672	52	4474
2026-01-12 11:28:05.40	65.32	52.57	-40.5	-42.4	20.2	0.00e+00	0	44	0	1863319552	52	4521
2026-01-12 11:28:06.40	64.63	52.58	-40.5	-42.3	20.3	0.00e+00	0	44	0	1868562432	52	4488
2026-01-12 11:28:07.39	63.94	52.58	-40.4	-42.3	20.4	0.00e+00	0	44	0	1874853888	52	4447
2026-01-12 11:28:08.39	63.24	52.58	-40.4	-42.3	20.4	0.00e+00	0	44	0	1880096768	52	4446
2026-01-12 11:28:09.38	62.55	52.57	-40.3	-42.1	20.5	0.00e+00	0	44	0	1885339648	52	4377
2026-01-12 11:28:10.37	61.86	52.56	-40.3	-42.1	20.5	0.00e+00	0	44	0	1891631104	52	4368
2026-01-12 11:28:11.37	61.16	52.54	-40.4	-42.2	20.4	0.00e+00	0	44	0	1896873984	52	4419
2026-01-12 11:28:12.36	60.48	52.52	-40.4	-42.2	20.4	0.00e+00	0	44	0	1903165440	52	4431
2026-01-12 11:28:13.36	59.78	52.50	-40.3	-42.1	20.5	0.00e+00	0	44	0	1908408320	52	4367
2026-01-12 11:28:14.35	59.10	52.47	-40.3	-42.1	20.5	0.00e+00	0	44	0	1913651200	52	4368
2026-01-12 11:28:15.35	58.41	52.44	-40.3	-42.1	20.4	0.00e+00	0	44	0	1918894080	52	4378
2026-01-12 11:28:16.34	57.72	52.40	-40.3	-42.1	20.5	0.00e+00	0	44	0	1925185536	52	4382
2026-01-12 11:28:17.34	57.04	52.36	-40.3	-42.1	20.5	0.00e+00	0	44	0	1930428416	52	4356
2026-01-12 11:28:18.33	56.36	52.32	-40.5	-42.3	20.3	0.00e+00	0	44	0	1936719872	52	4462
2026-01-12 11:28:19.33	55.67	52.27	-40.5	-42.4	20.3	0.00e+00	0	44	0	1941962752	52	4498
2026-01-12 11:28:20.32	55.00	52.21	-40.5	-42.3	20.3	0.00e+00	0	44	0	1947205632	52	4469
2026-01-12 11:28:21.32	54.32	52.15	-40.6	-42.4	20.3	0.00e+00	0	44	0	1953497088	52	4501
2026-01-12 11:28:22.31	53.65	52.09	-40.7	-42.5	20.2	0.00e+00	0	44	0	1958739968	52	4568
2026-01-12 11:28:23.31	52.98	52.03	-40.9	-42.8	19.9	0.00e+00	0	44	0	1963982848	52	4711
2026-01-12 11:28:24.31	52.31	51.96	-40.7	-42.6	20.1	0.00e+00	0	44	0	1969225728	52	4602
2026-01-12 11:28:25.30	51.65	51.88	-40.2	-42.0	20.6	0.00e+00	0	44	0	1975517184	52	4303
2026-01-12 11:28:26.29	50.99	51.80	-40.2	-42.0	20.7	0.00e+00	0	44	0	1980760064	52	4294
2026-01-12 11:28:27.29	50.33	51.72	-40.3	-42.1	20.5	0.00e+00	0	44	0	1987051520	52	4364
2026-01-12 11:28:28.29	49.68	51.64	-40.3	-42.1	20.5	0.00e+00	0	44	0	1992294400	52	4366
2026-01-12 11:28:29.33	49.00	51.54	-40.2	-42.0	20.6	0.00e+00	0	44	0	1998585856	52	4307
2026-01-12 11:28:30.31	48.37	51.45	-40.3	-42.1	20.5	0.00e+00	0	44	0	2003828736	52	4379
2026-01-12 11:28:31.31	47.72	51.36	-40.4	-42.2	20.4	0.00e+00	0	44	0	2009071616	52	4399
2026-01-12 11:28:32.30	47.09	51.26	-40.3	-42.1	20.5	0.00e+00	0	44	0	2014314496	52	4381
2026-01-12 11:28:33.29	46.46	51.15	-40.3	-42.2	20.4	0.00e+00	0	44	0	2020605952	52	4395
2026-01-12 11:28:34.29	45.83	51.05	-40.5	-42.3	20.3	0.00e+00	0	44	0	2025848832	52	4468
2026-01-12 11:28:35.29	45.20	50.94	-40.4	-42.3	20.3	0.00e+00	0	44	0	2031091712	52	4453
2026-01-12 11:28:36.53	44.44	50.80	-40.5	-42.4	20.3	0.00e+00	0	44	0	2038431744	52	4509
2026-01-12 11:28:37.38	43.91	50.70	-40.6	-42.4	20.2	0.00e+00	0	44	0	2043674624	52	4533
2026-01-12 11:28:38.52	43.22	50.56	-40.5	-42.3	20.3	0.00e+00	0	44	0	2049966080	52	4486
2026-01-12 11:28:39.37	42.70	50.45	-40.3	-42.1	20.5	0.00e+00	0	44	0	2054160384	52	4365
2026-01-12 11:28:40.51	42.02	50.31	-40.3	-42.2	20.4	0.00e+00	0	44	0	2061500416	52	4399
2026-01-12 11:28:41.37	41.50	50.20	-40.4	-42.2	20.4	0.00e+00	0	44	0	2065694720	52	4415
2026-01-12 11:28:42.50	40.84	50.05	-40.5	-42.3	20.3	0.00e+00	0	44	0	2071986176	52	4471
2026-01-12 11:28:43.36	40.33	49.93	-40.5	-42.4	20.3	0.00e+00	0	44	0	2077229056	52	4495
2026-01-12 11:28:44.49	39.68	49.77	-40.4	-42.2	20.4	0.00e+00	0	44	0	2083520512	52	4420
2026-01-12 11:28:45.34	39.19	49.65	-40.3	-42.2	20.4	0.00e+00	0	44	0	2087714816	52	4406
2026-01-12 11:28:46.48	38.54	49.49	-40.2	-42.0	20.5	0.00e+00	0	44	0	2095054848	52	4323
2026-01-12 11:28:47.33	38.06	49.37	-40.2	-42.0	20.5	0.00e+00	0	44	0	2099249152	52	4338
2026-01-12 11:28:48.47	37.42	49.20	-40.3	-42.1	20.5	0.00e+00	0	44	0	2105540608	52	4359
2026-01-12 11:28:49.32	36.95	49.07	-40.3	-42.1	20.4	0.00e+00	0	44	0	2110783488	52	4382
2026-01-12 11:28:50.58	36.26	48.88	-40.2	-42.0	20.5	0.00e+00	0	44	0	2118123520	52	4340
2026-01-12 11:28:51.37	35.84	48.75	-40.1	-41.9	20.6	0.00e+00	0	44	0	2122317824	52	4288
2026-01-12 11:28:52.66	35.14	48.55	-40.3	-42.1	20.5	0.00e+00	0	44	0	2129657856	52	4354
2026-01-12 11:28:53.37	34.77	48.44	-40.3	-42.1	20.5	0.00e+00	0	44	0	2133852160	52	4363
2026-01-12 11:28:54.83	34.00	48.20	-40.1	-41.9	20.7	0.00e+00	0	44	0	2141192192	52	4245
2026-01-12 11:28:55.54	33.63	48.08	-40.0	-41.8	20.9	0.00e+00	0	44	0	2145386496	51	4445
2026-01-12 11:28:56.81	32.98	47.87	-40.0	-41.8	20.8	0.00e+00	0	44	0	2152726528	51	4452
2026-01-12 11:28:57.54	32.61	47.75	-40.1	-41.9	20.7	0.00e+00	0	44	0	2156920832	51	4540
2026-01-12 11:28:58.82	31.97	47.53	-39.9	-41.7	20.9	0.00e+00	0	44	0	2164260864	51	4409
2026-01-12 11:28:59.56	31.60	47.41	-39.8	-41.5	21.0	0.00e+00	0	44	0	2168455168	51	4338
2026-01-12 11:29:00.84	30.97	47.18	-39.8	-41.6	21.0	0.00e+00	0	44	0	2174746624	51	4345
2026-01-12 11:29:01.57	30.62	47.06	-39.6	-41.4	21.1	0.00e+00	0	44	0	2179989504	51	4266
2026-01-12 11:29:02.84	30.01	46.83	-39.5	-41.3	21.2	0.00e+00	0	44	0	2186280960	51	4219
2026-01-12 11:29:03.57	29.66	46.70	-39.6	-41.4	21.1	0.00e+00	0	44	0	2190475264	51	4257
2026-01-12 11:29:04.85	29.06	46.47	-39.7	-41.5	21.0	0.00e+00	0	44	0	2197815296	51	4314
2026-01-12 11:29:05.59	28.72	46.34	-39.8	-41.6	21.0	0.00e+00	0	44	0	2202009600	51	4357
2026-01-12 11:29:06.87	28.13	46.11	-39.8	-41.6	21.0	0.00e+00	0	44	0	2209349632	51	4343
2026-01-12 11:29:07.61	27.80	45.97	-39.7	-41.4	21.1	0.00e+00	0	44	0	2213543936	51	4291
2026-01-12 11:29:09.22	27.08	45.68	-39.8	-41.5	21.0	0.00e+00	0	44	0	2222981120	51	4339
2026-01-12 11:29:09.79	26.83	45.57	-39.7	-41.5	21.1	0.00e+00	0	44	0	2225078272	51	4296
2026-01-12 11:29:11.50	26.08	45.25	-39.7	-41.5	21.1	0.00e+00	0	44	0	2235564032	51	4319
2026-01-12 11:29:12.07	25.84	45.15	-39.8	-41.6	21.0	0.00e+00	0	44	0	2238709760	51	4346
2026-01-12 11:29:13.77	25.12	44.83	-39.6	-41.4	21.2	0.00e+00	0	44	0	2248146944	51	4267
2026-01-12 11:29:14.34	24.88	44.72	-39.7	-41.4	21.1	0.00e+00	0	44	0	2251292672	51	4285
2026-01-12 11:29:16.05	24.18	44.39	-39.5	-41.2	21.3	0.00e+00	0	44	0	2260729856	51	4176
2026-01-12 11:29:16.61	23.95	44.29	-39.5	-41.2	21.3	0.00e+00	0	44	0	2263875584	51	4177
2026-01-12 11:29:18.44	23.22	43.94	-39.5	-41.3	21.2	0.00e+00	0	44	0	2274361344	50	4451
2026-01-12 11:29:19.01	22.99	43.83	-39.6	-41.4	21.2	0.00e+00	0	44	0	2277507072	50	4497
2026-01-12 11:29:20.71	22.33	43.50	-39.7	-41.5	21.0	0.00e+00	0	44	0	2286944256	50	4580
2026-01-12 11:29:21.28	22.11	43.39	-39.8	-41.6	21.0	0.00e+00	0	44	0	2290089984	50	4607
2026-01-12 11:29:23.15	21.40	43.02	-39.8	-41.5	21.3	0.00e+00	0	44	0	2300575744	50	4557
2026-01-12 11:29:24.06	21.06	42.85	-39.8	-41.5	21.3	0.00e+00	0	44	0	2305818624	50	4569
2026-01-12 11:29:25.06	20.70	42.65	-39.8	-41.5	21.3	0.00e+00	0	44	0	2311061504	50	4559
2026-01-12 11:29:26.05	20.34	42.46	-39.6	-41.3	21.5	0.00e+00	0	44	0	2317352960	50	4483
2026-01-12 11:29:27.04	19.98	42.27	-39.5	-41.2	21.5	0.00e+00	0	44	0	2322595840	50	4436
2026-01-12 11:29:28.04	19.63	42.07	-39.5	-41.2	21.5	0.00e+00	0	44	0	2327838720	50	4424
2026-01-12 11:29:29.03	19.28	41.88	-39.6	-41.3	21.5	0.00e+00	0	44	0	2334130176	50	4455
2026-01-12 11:29:30.03	18.94	41.68	-39.6	-41.3	21.5	0.00e+00	0	44	0	2339373056	50	4469
2026-01-12 11:29:31.02	18.60	41.49	-39.7	-41.4	21.4	0.00e+00	0	44	0	2344615936	50	4512
2026-01-12 11:29:32.01	18.26	41.29	-39.7	-41.5	21.4	0.00e+00	0	44	0	2350907392	50	4546
2026-01-12 11:29:33.01	17.93	41.09	-39.5	-41.3	21.5	0.00e+00	0	44	0	2356150272	50	4444
2026-01-12 11:29:34.00	17.60	40.90	-39.5	-41.2	21.6	0.00e+00	0	44	0	2361393152	50	4407
2026-01-12 11:29:35.00	17.28	40.70	-39.6	-41.3	21.5	0.00e+00	0	44	0	2367684608	50	4457
2026-01-12 11:29:35.99	16.96	40.51	-39.6	-41.3	21.5	0.00e+00	0	44	0	2372927488	50	4481
2026-01-12 11:29:36.99	16.64	40.31	-39.8	-41.5	21.3	0.00e+00	0	44	0	2378170368	50	4574
2026-01-12 11:29:37.98	16.33	40.12	-39.8	-41.5	21.3	0.00e+00	0	44	0	2384461824	50	4581
2026-01-12 11:29:38.97	16.02	39.92	-39.7	-41.4	21.3	0.00e+00	0	44	0	2389704704	50	4537
2026-01-12 11:29:39.97	15.72	39.73	-39.7	-41.4	21.3	0.00e+00	0	44	0	2395996160	50	4531
2026-01-12 11:29:40.97	15.42	39.53	-39.7	-41.4	21.4	0.00e+00	0	44	0	2401239040	50	4522
2026-01-12 11:29:41.96	15.12	39.34	-39.5	-41.2	21.6	0.00e+00	0	44	0	2406481920	50	4422
2026-01-12 11:29:42.95	14.83	39.15	-39.5	-41.3	21.5	0.00e+00	0	44	0	2411724800	50	4449
2026-01-12 11:29:43.95	14.54	38.95	-39.6	-41.3	21.5	0.00e+00	0	44	0	2418016256	50	4450
2026-01-12 11:29:44.94	14.25	38.76	-39.6	-41.3	21.4	0.00e+00	0	44	0	2423259136	50	4486
2026-01-12 11:29:45.94	13.97	38.56	-39.5	-41.2	21.5	0.00e+00	0	44	0	2428502016	50	4432
2026-01-12 11:29:46.93	13.69	38.37	-39.6	-41.3	21.5	0.00e+00	0	44	0	2434793472	50	4468
2026-01-12 11:29:47.93	13.41	38.18	-39.7	-41.5	21.3	0.00e+00	0	44	0	2440036352	50	4549
2026-01-12 11:29:48.92	13.14	37.99	-39.9	-41.6	21.2	0.00e+00	0	44	0	2446327808	50	4613
2026-01-12 11:29:49.92	12.87	37.79	-40.0	-41.7	21.1	0.00e+00	0	44	0	2451570688	50	4671
2026-01-12 11:29:50.91	12.60	37.60	-40.0	-41.7	21.1	0.00e+00	0	44	0	2456813568	50	4698
2026-01-12 11:29:51.91	12.34	37.41	-40.1	-41.9	21.0	0.00e+00	0	44	0	2462056448	50	4771
2026-01-12 11:29:52.90	12.08	37.22	-40.1	-41.9	21.0	0.00e+00	0	44	0	2468347904	50	4779
2026-01-12 11:29:53.90	11.82	37.03	-40.1	-41.9	20.9	0.00e+00	0	44	0	2473590784	50	4794
2026-01-12 11:29:54.89	11.56	36.84	-40.0	-41.8	21.0	0.00e+00	0	44	0	2478833664	51	4444
2026-01-12 11:29:55.89	11.31	36.65	-39.8	-41.6	21.2	0.00e+00	0	44	0	2485125120	51	4342
2026-01-12 11:29:56.94	11.05	36.45	-39.6	-41.3	21.4	0.00e+00	0	44	0	2490368000	51	4217
2026-01-12 11:29:57.88	10.82	36.27	-39.6	-41.3	21.5	0.00e+00	0	44	0	2496659456	51	4194
2026-01-12 11:29:58.87	10.58	36.08	-39.6	-41.3	21.5	0.00e+00	0	44	0	2501902336	51	4194
2026-01-12 11:29:59.87	10.33	35.90	-39.7	-41.4	21.4	0.00e+00	0	44	0	2507145216	51	4248
2026-01-12 11:30:00.86	10.10	35.71	-39.7	-41.4	21.3	0.00e+00	0	44	0	2513436672	51	4281
2026-01-12 11:30:01.85	9.86	35.52	-39.6	-41.4	21.4	0.00e+00	0	44	0	2518679552	51	4246
2026-01-12 11:30:02.85	9.63	35.34	-39.6	-41.3	21.4	0.00e+00	0	44	0	2523922432	51	4224
2026-01-12 11:30:03.85	9.40	35.15	-39.6	-41.3	21.5	0.00e+00	0	44	0	2529165312	51	4218
2026-01-12 11:30:04.84	9.18	34.97	-39.6	-41.3	21.4	0.00e+00	0	44	0	2535456768	51	4234
2026-01-12 11:30:05.83	8.95	34.78	-39.5	-41.2	21.5	0.00e+00	0	44	0	2540699648	51	4180
2026-01-12 11:30:06.83	8.73	34.60	-39.4	-41.1	21.6	0.00e+00	0	44	0	2546991104	50	4368
2026-01-12 11:30:07.82	8.51	34.42	-39.4	-41.1	21.6	0.00e+00	0	44	0	2552233984	50	4365
2026-01-12 11:30:08.82	8.30	34.23	-39.3	-41.0	21.7	0.00e+00	0	44	0	2557476864	50	4303
2026-01-12 11:30:09.81	8.08	34.05	-39.3	-41.0	21.7	0.00e+00	0	44	0	2563768320	50	4325
2026-01-12 11:30:10.87	7.86	33.86	-39.3	-41.0	21.8	0.00e+00	0	44	0	2569011200	50	4297
2026-01-12 11:30:11.78	7.67	33.69	-39.3	-41.0	21.7	0.00e+00	0	44	0	2574254080	50	4302
2026-01-12 11:30:12.78	7.46	33.51	-39.3	-41.0	21.7	0.00e+00	0	44	0	2579496960	50	4328
2026-01-12 11:30:13.93	7.22	33.30	-39.4	-41.1	21.6	0.00e+00	0	44	0	2586836992	50	4373
2026-01-12 11:30:14.84	7.04	33.14	-39.3	-41.1	21.6	0.00e+00	0	44	0	2591031296	50	4345
2026-01-12 11:30:15.86	6.83	32.96	-39.3	-41.0	21.6	0.00e+00	0	44	0	2597322752	50	4331
2026-01-12 11:30:16.86	6.63	32.78	-39.4	-41.1	21.6	0.00e+00	0	44	0	2602565632	50	4346
2026-01-12 11:30:17.85	6.44	32.60	-39.5	-41.2	21.5	0.00e+00	0	44	0	2608857088	50	4400
2026-01-12 11:30:18.84	6.25	32.43	-39.5	-41.2	21.5	0.00e+00	0	44	0	2614099968	50	4422
2026-01-12 11:30:19.84	6.05	32.25	-39.7	-41.4	21.3	0.00e+00	0	44	0	2619342848	50	4542
2026-01-12 11:30:20.83	5.87	32.08	-39.8	-41.5	21.3	0.00e+00	0	44	0	2625634304	50	4581
2026-01-12 11:30:21.83	5.68	31.90	-39.9	-41.6	21.2	0.00e+00	0	44	0	2630877184	50	4629
2026-01-12 11:30:22.82	5.49	31.73	-39.9	-41.7	21.1	0.00e+00	0	44	0	2636120064	50	4661
2026-01-12 11:30:23.82	5.31	31.56	-40.0	-41.7	21.1	0.00e+00	0	44	0	2642411520	50	4682
2026-01-12 11:30:24.81	5.13	31.39	-40.0	-41.7	21.1	0.00e+00	0	44	0	2647654400	50	4700
2026-01-12 11:30:25.81	4.95	31.21	-40.0	-41.7	21.1	0.00e+00	0	44	0	2652897280	50	4693
2026-01-12 11:30:26.88	4.76	31.03	-40.0	-41.8	21.0	0.00e+00	0	44	0	2659188736	50	4713
2026-01-12 11:30:27.74	4.61	30.88	-39.9	-41.7	21.1	0.00e+00	0	44	0	2664431616	50	4673
2026-01-12 11:30:28.87	4.41	30.69	-39.8	-41.6	21.2	0.00e+00	0	44	0	2670723072	50	4612
2026-01-12 11:30:29.72	4.26	30.55	-39.9	-41.6	21.2	0.00e+00	0	44	0	2674917376	50	4639
2026-01-12 11:30:30.86	4.07	30.36	-39.8	-41.5	21.2	0.00e+00	0	44	0	2682257408	50	4596
2026-01-12 11:30:31.71	3.93	30.21	-39.7	-41.4	21.4	0.00e+00	0	44	0	2686451712	50	4514
2026-01-12 11:30:32.85	3.74	30.02	-39.8	-41.5	21.2	0.00e+00	0	44	0	2692743168	50	4567
2026-01-12 11:30:33.70	3.60	29.88	-39.8	-41.5	21.3	0.00e+00	0	44	0	2697986048	50	4567
2026-01-12 11:30:34.84	3.41	29.69	-39.9	-41.7	21.1	0.00e+00	0	44	0	2704277504	50	4662
2026-01-12 11:30:35.69	3.27	29.55	-40.1	-41.8	21.0	0.00e+00	0	44	0	2708471808	50	4722
2026-01-12 11:30:36.83	3.09	29.36	-40.2	-41.9	20.9	0.00e+00	0	44	0	2714763264	51	4537
2026-01-12 11:30:37.68	2.95	29.22	-40.3	-42.1	20.8	0.00e+00	0	44	0	2720006144	51	4605
2026-01-12 11:30:38.82	2.78	29.04	-40.3	-42.0	20.8	0.00e+00	0	44	0	2726297600	51	4588
2026-01-12 11:30:39.68	2.64	28.90	-40.3	-42.1	20.8	0.00e+00	0	44	0	2731540480	51	4612
2026-01-12 11:30:40.89	2.46	28.70	-40.3	-42.0	20.8	0.00e+00	0	44	0	2737831936	51	4580
2026-01-12 11:30:41.74	2.33	28.56	-40.2	-42.0	20.8	0.00e+00	0	44	0	2743074816	51	4563
2026-01-12 11:30:42.93	2.15	28.37	-40.3	-42.0	20.8	0.00e+00	0	44	0	2749366272	51	4595
2026-01-12 11:30:43.78	2.02	28.24	-40.2	-41.9	20.9	0.00e+00	0	44	0	2754609152	51	4536
2026-01-12 11:30:44.98	1.84	28.05	-40.2	-41.9	20.9	0.00e+00	0	44	0	2760900608	51	4529
2026-01-12 11:30:45.84	1.72	27.91	-40.1	-41.9	20.9	0.00e+00	0	44	0	2766143488	51	4515
2026-01-12 11:30:47.04	1.55	27.72	-40.2	-41.9	20.9	0.00e+00	0	44	0	2772434944	51	4527
2026-01-12 11:30:47.89	1.42	27.59	-40.2	-41.9	20.9	0.00e+00	0	44	0	2777677824	51	4509
2026-01-12 11:30:49.02	1.26	27.41	-40.2	-41.9	20.9	0.00e+00	0	44	0	2783969280	51	4522
2026-01-12 11:30:49.88	1.14	27.28	-40.1	-41.8	21.0	0.00e+00	0	44	0	2788163584	51	4480
2026-01-12 11:30:51.02	0.99	27.10	-40.1	-41.8	21.0	0.00e+00	0	44	0	2795503616	51	4469
2026-01-12 11:30:51.87	0.87	26.97	-40.1	-41.9	20.9	0.00e+00	0	44	0	2799697920	51	4509
2026-01-12 11:30:53.01	0.71	26.80	-40.2	-42.0	20.8	0.00e+00	0	44	0	2805989376	51	4557
2026-01-12 11:30:53.86	0.60	26.67	-40.3	-42.0	20.8	0.00e+00	0	44	0	2811232256	51	4582
2026-01-12 11:30:55.00	0.45	26.49	-40.2	-41.9	20.9	0.00e+00	0	44	0	2817523712	51	4530
2026-01-12 11:30:55.85	0.34	26.37	-40.1	-41.9	20.9	0.00e+00	0	44	0	2821718016	51	4524
2026-01-12 11:30:56.99	0.19	26.19	-40.2	-42.0	20.8	0.00e+00	0	44	0	2829058048	51	4579
2026-01-12 11:30:57.84	0.08	26.07	-40.2	-42.0	20.8	0.00e+00	0	44	0	2833252352	51	4553
2026-01-12 11:30:59.02	359.93	25.89	-40.0	-41.8	21.0	0.00e+00	0	44	0	2840592384	51	4446
2026-01-12 11:30:59.87	359.82	25.76	-40.0	-41.7	21.0	0.00e+00	0	44	0	2844786688	51	4428
2026-01-12 11:31:01.01	359.67	25.60	-40.0	-41.7	21.0	0.00e+00	0	44	0	2851078144	51	4440
2026-01-12 11:31:01.87	359.57	25.47	-40.0	-41.8	21.0	0.00e+00	0	44	0	2856321024	51	4443
2026-01-12 11:31:03.12	359.41	25.29	-40.0	-41.7	21.0	0.00e+00	0	44	0	2863661056	51	4440
2026-01-12 11:31:03.97	359.31	25.16	-40.0	-41.8	21.0	0.00e+00	0	44	0	2867855360	51	4463
2026-01-12 11:31:05.10	359.17	25.00	-40.2	-41.9	20.9	0.00e+00	0	44	0	2874146816	51	4523
2026-01-12 11:31:05.95	359.07	24.88	-40.2	-41.9	20.8	0.00e+00	0	44	0	2879389696	51	4533
2026-01-12 11:31:07.09	358.94	24.71	-40.1	-41.9	20.9	0.00e+00	0	44	0	2885681152	51	4516
2026-01-12 11:31:07.94	358.84	24.59	-40.2	-42.0	20.8	0.00e+00	0	44	0	2889875456	51	4560
2026-01-12 11:31:09.08	358.70	24.43	-40.2	-42.0	20.8	0.00e+00	0	44	0	2896166912	51	4570
2026-01-12 11:31:10.04	358.59	24.29	-40.3	-42.1	20.7	0.00e+00	0	44	0	2902458368	51	4610
2026-01-12 11:31:11.04	358.48	24.15	-40.3	-42.1	20.7	0.00e+00	0	44	0	2907701248	51	4644
2026-01-12 11:31:12.03	358.37	24.01	-40.4	-42.2	20.6	0.00e+00	0	44	0	2912944128	51	4671
2026-01-12 11:31:13.03	358.25	23.87	-40.4	-42.2	20.6	0.00e+00	0	44	0	2919235584	51	4671
2026-01-12 11:31:14.02	358.14	23.73	-40.4	-42.2	20.6	0.00e+00	0	44	0	2924478464	51	4695
2026-01-12 11:31:15.01	358.03	23.60	-40.5	-42.3	20.5	0.00e+00	0	44	0	2929721344	51	4715
2026-01-12 11:31:16.01	357.93	23.46	-40.5	-42.3	20.5	0.00e+00	0	44	0	2936012800	51	4723
2026-01-12 11:31:17.01	357.82	23.32	-40.5	-42.3	20.5	0.00e+00	0	44	0	2941255680	51	4752
2026-01-12 11:31:18.00	357.71	23.18	-40.6	-42.4	20.4	0.00e+00	0	44	0	2946498560	51	4770
2026-01-12 11:31:19.00	357.60	23.05	-40.7	-42.5	20.3	0.00e+00	0	44	0	2952790016	51	4834
2026-01-12 11:31:19.99	357.50	22.91	-40.6	-42.4	20.4	0.00e+00	0	44	0	2958032896	51	4810
2026-01-12 11:31:20.99	357.40	22.78	-40.6	-42.4	20.4	0.00e+00	0	44	0	2963275776	51	4793
2026-01-12 11:31:21.98	357.29	22.65	-40.7	-42.5	20.3	0.00e+00	0	44	0	2969567232	51	4847
2026-01-12 11:31:22.98	357.19	22.51	-40.6	-42.4	20.3	0.00e+00	0	44	0	2974810112	52	4531
2026-01-12 11:31:23.97	357.09	22.38	-40.6	-42.4	20.4	0.00e+00	0	44	0	2980052992	52	4502
2026-01-12 11:31:24.97	356.99	22.25	-40.5	-42.3	20.4	0.00e+00	0	44	0	2986344448	52	4444
2026-01-12 11:31:25.96	356.89	22.12	-40.5	-42.3	20.4	0.00e+00	0	44	0	2991587328	52	4460
2026-01-12 11:31:26.96	356.79	21.98	-40.5	-42.3	20.4	0.00e+00	0	44	0	2996830208	52	4485
2026-01-12 11:31:27.95	356.69	21.86	-40.5	-42.3	20.4	0.00e+00	0	44	0	3003121664	52	4472
2026-01-12 11:31:28.95	356.60	21.72	-40.5	-42.3	20.4	0.00e+00	0	44	0	3008364544	52	4469
2026-01-12 11:31:29.95	356.50	21.60	-40.6	-42.4	20.4	0.00e+00	0	44	0	3013607424	52	4496
2026-01-12 11:31:30.94	356.41	21.47	-40.6	-42.3	20.4	0.00e+00	0	44	0	3019898880	52	4490
2026-01-12 11:31:31.94	356.31	21.34	-40.6	-42.4	20.3	0.00e+00	0	44	0	3025141760	52	4539
2026-01-12 11:31:32.96	356.21	21.21	-40.6	-42.4	20.3	0.00e+00	0	44	0	3031433216	52	4532
2026-01-12 11:31:33.96	356.12	21.08	-40.7	-42.5	20.3	0.00e+00	0	44	0	3036676096	52	4548
2026-01-12 11:31:34.95	356.03	20.95	-40.7	-42.4	20.3	0.00e+00	0	44	0	3041918976	52	4540
2026-01-12 11:31:35.95	355.94	20.83	-40.6	-42.4	20.3	0.00e+00	0	44	0	3047161856	52	4529
2026-01-12 11:31:36.94	355.85	20.70	-40.7	-42.5	20.2	0.00e+00	0	44	0	3053453312	52	4559
2026-01-12 11:31:37.94	355.76	20.58	-40.8	-42.5	20.2	0.00e+00	0	44	0	3058696192	52	4598
2026-01-12 11:31:38.93	355.67	20.46	-40.7	-42.5	20.2	0.00e+00	0	44	0	3064987648	52	4575
2026-01-12 11:31:39.93	355.58	20.33	-40.8	-42.6	20.1	0.00e+00	0	44	0	3070230528	52	4642
2026-01-12 11:31:40.92	355.49	20.21	-40.9	-42.7	20.1	0.00e+00	0	44	0	3075473408	52	4677
2026-01-12 11:31:41.92	355.41	20.09	-40.9	-42.8	20.0	0.00e+00	0	44	0	3081764864	52	4722
2026-01-12 11:31:42.91	355.32	19.96	-41.0	-42.9	19.9	0.00e+00	0	44	0	3087007744	52	4765
2026-01-12 11:31:43.90	355.24	19.84	-41.0	-42.9	19.8	0.00e+00	0	44	0	3092250624	52	4794
2026-01-12 11:31:44.90	355.15	19.72	-41.2	-43.1	19.7	0.00e+00	0	44	0	3098542080	53	4617
2026-01-12 11:31:45.89	355.07	19.60	-41.1	-43.0	19.8	0.00e+00	0	44	0	3103784960	53	4588
2026-01-12 11:31:46.89	354.98	19.48	-41.2	-43.1	19.7	0.00e+00	0	44	0	3109027840	53	4606
2026-01-12 11:31:47.88	354.90	19.36	-41.3	-43.2	19.6	0.00e+00	0	44	0	3115319296	53	4697
2026-01-12 11:31:48.95	354.81	19.23	-41.3	-43.3	19.5	0.00e+00	0	44	0	3120562176	53	4717
2026-01-12 11:31:49.85	354.74	19.13	-41.3	-43.3	19.5	0.00e+00	0	44	0	3125805056	53	4716
2026-01-12 11:31:50.88	354.66	19.01	-41.4	-43.3	19.4	0.00e+00	0	44	0	3132096512	53	4754
2026-01-12 11:31:51.87	354.58	18.89	-41.5	-43.4	19.4	0.00e+00	0	44	0	3137339392	53	4808
2026-01-12 11:31:52.87	354.50	18.77	-41.5	-43.4	19.4	0.00e+00	0	44	0	3142582272	53	4803
2026-01-12 11:31:53.86	354.42	18.66	-41.5	-43.4	19.4	0.00e+00	0	44	0	3148873728	53	4773
2026-01-12 11:31:54.85	354.34	18.54	-41.5	-43.5	19.3	0.00e+00	0	44	0	3154116608	53	4815
2026-01-12 11:31:55.85	354.27	18.42	-41.6	-43.5	19.3	0.00e+00	0	44	0	3159359488	53	4833
2026-01-12 11:31:56.84	354.19	18.31	-41.5	-43.4	19.3	0.00e+00	0	44	0	3165650944	53	4796
2026-01-12 11:31:57.84	354.11	18.20	-41.5	-43.4	19.3	0.00e+00	0	44	0	3170893824	53	4794
2026-01-12 11:31:58.83	354.04	18.08	-41.6	-43.5	19.3	0.00e+00	0	44	0	3176136704	53	4821
2026-01-12 11:31:59.83	353.96	17.97	-41.5	-43.3	19.4	0.00e+00	0	44	0	3182428160	53	4755
2026-01-12 11:32:00.82	353.89	17.86	-41.4	-43.3	19.5	0.00e+00	0	44	0	3187671040	53	4717
2026-01-12 11:32:01.82	353.81	17.74	-41.5	-43.4	19.4	0.00e+00	0	44	0	3192913920	53	4764
2026-01-12 11:32:02.87	353.74	17.62	-41.5	-43.3	19.4	0.00e+00	0	44	0	3199205376	53	4757
2026-01-12 11:32:03.79	353.67	17.52	-41.5	-43.4	19.4	0.00e+00	0	44	0	3204448256	53	4778
2026-01-12 11:32:04.93	353.59	17.39	-41.6	-43.5	19.3	0.00e+00	0	44	0	3210739712	53	4838
2026-01-12 11:32:05.84	353.52	17.29	-41.7	-43.6	19.2	0.00e+00	0	44	0	3215982592	54	4616
2026-01-12 11:32:06.85	353.45	17.18	-41.8	-43.6	19.2	0.00e+00	0	44	0	3221225472	54	4642
2026-01-12 11:32:07.85	353.38	17.07	-41.9	-43.8	19.1	0.00e+00	0	44	0	3227516928	54	4709
2026-01-12 11:32:08.84	353.31	16.96	-41.9	-43.8	19.0	0.00e+00	0	44	0	3232759808	54	4720
2026-01-12 11:32:09.84	353.24	16.85	-41.9	-43.9	18.9	0.00e+00	0	44	0	3238002688	54	4781
2026-01-12 11:32:10.83	353.17	16.74	-41.9	-43.9	18.9	0.00e+00	0	43	0	3244294144	54	4782
2026-01-12 11:32:11.82	353.10	16.64	-42.0	-44.0	18.8	0.00e+00	0	44	0	3249537024	54	4833
2026-01-12 11:32:12.82	353.03	16.53	-42.0	-44.0	18.8	0.00e+00	0	44	0	3254779904	54	4837
2026-01-12 11:32:13.81	352.97	16.42	-42.1	-44.1	18.8	0.00e+00	0	44	0	3261071360	54	4888
2026-01-12 11:32:14.80	352.90	16.32	-42.0	-44.1	18.8	0.00e+00	0	44	0	3266314240	54	4878
2026-01-12 11:32:15.85	352.83	16.20	-42.1	-44.1	18.7	0.00e+00	0	43	0	3272605696	54	4914
2026-01-12 11:32:16.82	352.77	16.10	-42.1	-44.2	18.6	0.00e+00	0	44	0	3277848576	54	4944
2026-01-12 11:32:17.88	352.70	15.99	-42.2	-44.2	18.6	0.00e+00	0	43	0	3284140032	55	4694
2026-01-12 11:32:18.76	352.64	15.90	-42.3	-44.3	18.5	0.00e+00	0	44	0	3288334336	55	4742
2026-01-12 11:32:20.08	352.56	15.76	-42.3	-44.3	18.6	0.00e+00	0	44	0	3295674368	55	4728
2026-01-12 11:32:20.79	352.51	15.68	-42.3	-44.3	18.5	0.00e+00	0	44	0	3299868672	55	4729
2026-01-12 11:32:22.27	352.42	15.53	-42.3	-44.3	18.5	0.00e+00	0	44	0	3308257280	55	4727
2026-01-12 11:32:22.98	352.37	15.45	-42.3	-44.3	18.5	0.00e+00	0	44	0	3312451584	55	4718
2026-01-12 11:32:24.26	352.29	15.32	-42.2	-44.2	18.6	0.00e+00	0	44	0	3319791616	55	4659
2026-01-12 11:32:25.00	352.24	15.25	-42.2	-44.2	18.6	0.00e+00	0	44	0	3323985920	55	4652
2026-01-12 11:32:26.28	352.17	15.11	-42.3	-44.3	18.6	0.00e+00	0	44	0	3331325952	55	4709
2026-01-12 11:32:26.99	352.12	15.04	-42.2	-44.1	18.7	0.00e+00	0	44	0	3334471680	55	4636
2026-01-12 11:32:28.27	352.04	14.91	-42.2	-44.2	18.6	0.00e+00	0	43	0	3341811712	55	4665
2026-01-12 11:32:29.01	352.00	14.84	-42.2	-44.2	18.5	0.00e+00	0	44	0	3346006016	55	4705
2026-01-12 11:32:30.28	351.92	14.71	-42.2	-44.2	18.5	0.00e+00	0	44	0	3353346048	55	4705
2026-01-12 11:32:31.00	351.88	14.64	-42.2	-44.2	18.6	0.00e+00	0	43	0	3357540352	55	4687
2026-01-12 11:32:32.28	351.81	14.51	-42.3	-44.3	18.5	0.00e+00	0	44	0	3364880384	55	4747
2026-01-12 11:32:32.99	351.76	14.44	-42.4	-44.4	18.4	0.00e+00	0	44	0	3369074688	55	4778
2026-01-12 11:32:34.27	351.69	14.31	-42.4	-44.5	18.3	0.00e+00	0	44	0	3376414720	55	4830
2026-01-12 11:32:34.99	351.65	14.24	-42.4	-44.4	18.4	0.00e+00	0	44	0	3379560448	55	4804
2026-01-12 11:32:36.27	351.57	14.11	-42.3	-44.4	18.4	0.00e+00	0	44	0	3386900480	55	4790
2026-01-12 11:32:36.98	351.53	14.04	-42.4	-44.5	18.3	0.00e+00	0	44	0	3391094784	55	4835
2026-01-12 11:32:38.26	351.46	13.92	-42.4	-44.5	18.3	0.00e+00	0	44	0	3398434816	55	4868
2026-01-12 11:32:38.97	351.42	13.85	-42.5	-44.6	18.2	0.00e+00	0	44	0	3402629120	55	4882
2026-01-12 11:32:40.25	351.35	13.72	-42.6	-44.7	18.2	0.00e+00	0	44	0	3408920576	55	4931
2026-01-12 11:32:40.96	351.31	13.65	-42.9	-44.9	18.0	0.00e+00	0	43	0	3413114880	56	4801
2026-01-12 11:32:42.24	351.24	13.53	-42.7	-44.8	18.2	0.00e+00	0	44	0	3420454912	56	4715
2026-01-12 11:32:42.96	351.20	13.46	-42.8	-44.9	18.1	0.00e+00	0	44	0	3424649216	56	4766
2026-01-12 11:32:44.24	351.13	13.34	-42.9	-45.0	18.0	0.00e+00	0	44	0	3431989248	56	4836
2026-01-12 11:32:44.95	351.09	13.27	-42.8	-45.0	18.0	0.00e+00	0	44	0	3436183552	56	4818
2026-01-12 11:32:46.23	351.02	13.15	-42.8	-45.0	18.0	0.00e+00	0	43	0	3443523584	56	4818
2026-01-12 11:32:46.96	350.99	13.08	-42.8	-45.0	18.0	0.00e+00	0	44	0	3446669312	56	4818
2026-01-12 11:32:48.23	350.92	12.96	-42.8	-45.0	17.9	0.00e+00	0	44	0	3454009344	56	4856
2026-01-12 11:32:48.94	350.88	12.89	-42.8	-45.1	17.9	0.00e+00	0	44	0	3458203648	56	4887
2026-01-12 11:32:50.22	350.81	12.77	-42.7	-45.1	17.9	0.00e+00	0	44	0	3465543680	56	4902
2026-01-12 11:32:50.97	350.78	12.70	-42.6	-45.1	17.9	0.00e+00	0	44	0	3469737984	56	4897
2026-01-12 11:32:52.24	350.71	12.58	-42.7	-45.2	17.7	0.00e+00	0	43	0	3477078016	56	4969
2026-01-12 11:32:53.06	350.67	12.51	-42.6	-45.2	17.8	0.00e+00	0	44	0	3481272320	56	4939
2026-01-12 11:32:54.20	350.61	12.40	-42.6	-45.2	17.8	0.00e+00	0	44	0	3487563776	56	4956
2026-01-12 11:32:55.31	350.55	12.30	-42.6	-45.3	17.7	0.00e+00	0	44	0	3493855232	56	4991
2026-01-12 11:32:56.33	350.50	12.21	-42.6	-45.3	17.6	0.00e+00	0	44	0	3500146688	56	5010
2026-01-12 11:32:57.50	350.45	12.10	-42.6	-45.3	17.6	0.00e+00	0	44	0	3506438144	56	5017
2026-01-12 11:32:58.35	350.40	12.02	-42.7	-45.3	17.6	0.00e+00	0	44	0	3511681024	56	5033
2026-01-12 11:32:59.69	350.34	11.90	-42.8	-45.3	17.6	0.00e+00	0	44	0	3519021056	56	5036
2026-01-12 11:33:00.41	350.30	11.84	-42.8	-45.4	17.6	0.00e+00	0	44	0	3523215360	56	5058
2026-01-12 11:33:01.68	350.24	11.72	-42.9	-45.4	17.5	0.00e+00	0	44	0	3529506816	56	5100
2026-01-12 11:33:02.40	350.21	11.66	-42.9	-45.5	17.5	0.00e+00	0	43	0	3533701120	56	5107
2026-01-12 11:33:03.68	350.15	11.54	-43.0	-45.5	17.4	0.00e+00	0	44	0	3541041152	56	5119
2026-01-12 11:33:04.39	350.11	11.48	-43.0	-45.4	17.5	0.00e+00	0	44	0	3545235456	56	5072
2026-01-12 11:33:05.67	350.05	11.37	-43.1	-45.5	17.4	0.00e+00	0	44	0	3552575488	56	5159
2026-01-12 11:33:06.55	350.01	11.29	-43.1	-45.6	17.4	0.00e+00	0	44	0	3557818368	56	5160
2026-01-12 11:33:07.69	349.96	11.19	-43.2	-45.7	17.2	0.00e+00	0	44	0	3564109824	57	4940
2026-01-12 11:33:08.54	349.92	11.11	-43.2	-45.6	17.3	0.00e+00	0	44	0	3568304128	57	4924
2026-01-12 11:33:09.67	349.87	11.01	-43.1	-45.6	17.4	0.00e+00	0	44	0	3574595584	57	4880
2026-01-12 11:33:10.79	349.82	10.92	-43.1	-45.5	17.3	0.00e+00	0	44	0	3580887040	57	4859
2026-01-12 11:33:11.84	349.77	10.82	-43.1	-45.6	17.3	0.00e+00	0	43	0	3587178496	57	4910
2026-01-12 11:33:12.78	349.73	10.74	-43.0	-45.6	17.3	0.00e+00	0	44	0	3592421376	57	4900
2026-01-12 11:33:13.78	349.68	10.66	-43.1	-45.7	17.1	0.00e+00	0	43	0	3597664256	57	4980
2026-01-12 11:33:14.78	349.64	10.57	-43.0	-45.7	17.2	0.00e+00	0	43	0	3603955712	57	4943
2026-01-12 11:33:15.77	349.60	10.48	-43.1	-45.7	17.1	0.00e+00	0	43	0	3609198592	57	4972
2026-01-12 11:33:16.76	349.55	10.40	-43.2	-45.9	17.0	0.00e+00	0	44	0	3614441472	57	5059
2026-01-12 11:33:17.75	349.51	10.32	-43.3	-45.9	17.0	0.00e+00	0	44	0	3620732928	57	5056
2026-01-12 11:33:18.75	349.47	10.23	-43.5	-46.0	16.9	0.00e+00	0	43	0	3625975808	57	5140
2026-01-12 11:33:19.74	349.42	10.15	-43.5	-46.1	16.8	0.00e+00	0	44	0	3631218688	57	5172
2026-01-12 11:33:20.74	349.38	10.06	-43.4	-45.8	17.0	0.00e+00	0	43	0	3637510144	57	5013
