passes_logs/2026/01/12/T1/T1__20260112_072601_NOAA_20_JPSS-1_rec.log

#Pass ID: 20260112_072601_NOAA 20 (JPSS-1)
#Satellite: NOAA 20 (JPSS-1)
#Configuration: NOAA 20
#almurnet v.1.7.20251203
#Start time: 2026-01-12 07:26:02

#Version: 2.0.20230620
#Station: T1
#Location: 37.570604 lon 55.790049 lat
#TLE: 1 43013U 17073A   26011.31235446  .00000090  00000+0  63634-4 0  9991
#TLE: 2 43013  98.7632 312.2907 0001646  44.6084 315.5224 14.19535308422217

#Time	Az	El	Level	Level2	SNR	BER	BlckErr	Temp	State	Recorded	gain1	gain2
2026-01-12 07:26:02.24	78.72	5.03	-49.9	-65.1	3.8	1.49e+00	0	37	0	0	71	20703
2026-01-12 07:26:03.23	78.60	5.07	-49.9	-65.1	3.8	1.49e+00	0	37	104	0	71	20737
2026-01-12 07:26:04.23	78.48	5.12	-49.9	-65.1	3.8	1.49e+00	0	37	104	0	71	20638
2026-01-12 07:26:05.22	78.36	5.16	-49.9	-65.1	3.8	1.49e+00	0	37	104	0	71	20661
2026-01-12 07:26:06.22	78.25	5.21	-49.9	-65.1	3.8	1.49e+00	0	37	104	0	71	20658
2026-01-12 07:26:07.21	78.13	5.25	-49.9	-65.1	3.8	1.49e+00	0	37	104	0	71	20672
2026-01-12 07:26:08.21	78.01	5.30	-49.9	-65.1	3.8	1.49e+00	0	37	104	0	71	20734
2026-01-12 07:26:09.20	77.89	5.34	-49.9	-65.1	3.8	1.49e+00	0	37	104	0	71	20619
2026-01-12 07:26:10.19	77.77	5.39	-49.9	-65.1	3.8	1.49e+00	0	37	104	0	71	20693
2026-01-12 07:26:11.19	77.65	5.43	-49.9	-65.1	3.8	1.49e+00	0	37	104	0	71	20631
2026-01-12 07:26:12.18	77.53	5.48	-49.9	-65.1	3.8	1.49e+00	0	37	104	0	71	20645
2026-01-12 07:26:13.19	77.41	5.52	-49.9	-65.1	3.8	1.49e+00	0	37	104	0	71	20605
2026-01-12 07:26:14.20	77.29	5.57	-49.9	-65.1	3.8	1.49e+00	0	37	104	0	71	20646
2026-01-12 07:26:15.24	77.16	5.61	-49.9	-65.0	3.8	1.49e+00	0	37	104	0	71	20519
2026-01-12 07:26:16.27	77.03	5.66	-49.9	-65.1	3.8	1.49e+00	0	37	104	0	71	20656
2026-01-12 07:26:17.26	76.91	5.70	-49.9	-65.1	3.8	1.49e+00	0	37	104	0	71	20591
2026-01-12 07:26:18.25	76.79	5.75	-49.9	-65.1	3.8	1.49e+00	0	37	104	0	71	20549
2026-01-12 07:26:19.25	76.67	5.79	-49.9	-65.0	3.8	1.49e+00	0	37	104	0	71	20509
2026-01-12 07:26:20.24	76.54	5.84	-49.9	-65.1	3.8	1.49e+00	0	37	104	0	71	20611
2026-01-12 07:26:21.23	76.42	5.88	-49.9	-65.0	3.8	1.49e+00	0	37	104	0	71	20508
2026-01-12 07:26:22.22	76.30	5.93	-49.9	-65.1	3.8	1.49e+00	0	38	104	0	71	20574
2026-01-12 07:26:23.22	76.17	5.97	-49.9	-65.1	3.8	1.49e+00	0	38	104	0	71	20556
2026-01-12 07:26:24.49	76.01	6.03	-49.9	-65.1	3.8	1.49e+00	0	38	104	0	71	20558
2026-01-12 07:26:25.21	75.92	6.06	-49.9	-65.1	3.8	1.49e+00	0	38	104	0	71	20543
2026-01-12 07:26:26.48	75.76	6.11	-49.9	-65.0	3.8	1.49e+00	0	38	104	0	71	20481
2026-01-12 07:26:27.19	75.67	6.15	-49.9	-65.1	3.8	1.49e+00	0	38	104	0	71	20574
2026-01-12 07:26:28.47	75.51	6.20	-49.9	-65.1	3.8	1.49e+00	0	38	104	0	71	20699
2026-01-12 07:26:29.18	75.42	6.23	-49.9	-65.1	3.8	1.49e+00	0	38	104	0	71	20559
2026-01-12 07:26:30.46	75.25	6.29	-49.9	-65.1	3.8	1.49e+00	0	38	104	0	71	20658
2026-01-12 07:26:31.17	75.16	6.32	-49.9	-65.1	3.8	1.49e+00	0	38	104	0	71	20662
2026-01-12 07:26:32.49	74.99	6.38	-49.9	-65.1	3.8	1.49e+00	0	38	104	0	71	20609
2026-01-12 07:26:33.20	74.90	6.41	-49.9	-65.1	3.8	1.49e+00	0	38	104	0	71	20619
2026-01-12 07:26:34.48	74.73	6.47	-49.9	-65.0	3.8	1.49e+00	0	38	104	0	71	20484
2026-01-12 07:26:35.19	74.64	6.50	-49.9	-65.1	3.8	1.49e+00	0	38	104	0	71	20611
2026-01-12 07:26:36.47	74.48	6.55	-49.9	-65.1	3.8	1.49e+00	0	38	104	0	71	20611
2026-01-12 07:26:37.18	74.38	6.59	-49.9	-65.1	3.8	1.49e+00	0	38	104	0	71	20629
2026-01-12 07:26:38.45	74.22	6.64	-49.9	-65.1	3.8	1.49e+00	0	38	104	0	71	20675
2026-01-12 07:26:39.18	74.12	6.67	-49.9	-65.0	3.8	1.49e+00	0	38	104	0	71	20527
2026-01-12 07:26:40.69	73.92	6.74	-49.9	-65.1	3.8	1.49e+00	0	38	104	0	71	20568
2026-01-12 07:26:41.40	73.83	6.77	-49.9	-65.0	3.8	1.49e+00	0	38	104	0	71	20440
2026-01-12 07:26:42.68	73.66	6.83	-49.9	-65.0	3.8	1.49e+00	0	38	104	0	71	20452
2026-01-12 07:26:43.39	73.56	6.86	-49.9	-65.0	3.8	1.49e+00	0	38	104	0	71	20443
2026-01-12 07:26:44.67	73.39	6.91	-49.9	-65.0	3.8	1.49e+00	0	38	104	0	71	20475
2026-01-12 07:26:45.39	73.30	6.94	-49.9	-65.0	3.8	1.49e+00	0	38	104	0	71	20355
2026-01-12 07:26:46.67	73.12	7.00	-49.9	-65.0	3.8	1.49e+00	0	38	104	0	71	20351
2026-01-12 07:26:47.38	73.03	7.03	-49.9	-65.0	3.8	1.49e+00	0	38	104	0	71	20386
2026-01-12 07:26:48.66	72.85	7.08	-49.9	-65.0	3.8	1.49e+00	0	38	104	0	71	20331
2026-01-12 07:26:49.37	72.76	7.11	-49.9	-65.0	3.8	1.49e+00	0	38	104	0	71	20435
2026-01-12 07:26:50.65	72.58	7.17	-49.9	-65.0	3.8	1.49e+00	0	38	104	0	71	20464
2026-01-12 07:26:51.36	72.49	7.20	-49.9	-64.9	3.8	1.49e+00	0	38	104	0	71	20299
2026-01-12 07:26:52.64	72.31	7.25	-49.8	-65.0	3.8	1.49e+00	0	38	104	0	71	20319
2026-01-12 07:26:53.35	72.21	7.28	-49.8	-65.0	3.8	1.49e+00	0	38	104	0	71	20347
2026-01-12 07:26:54.62	72.04	7.34	-49.9	-65.0	3.8	1.49e+00	0	38	104	0	71	20315
2026-01-12 07:26:55.35	71.94	7.37	-49.9	-64.9	3.8	1.49e+00	0	38	104	0	71	20244
2026-01-12 07:26:56.62	71.76	7.42	-49.8	-64.9	3.8	1.49e+00	0	38	104	0	71	20287
2026-01-12 07:26:57.33	71.66	7.45	-49.9	-64.9	3.8	1.49e+00	0	38	104	0	71	20224
2026-01-12 07:26:58.68	71.48	7.51	-49.8	-64.9	3.8	1.49e+00	0	38	104	0	71	20157
2026-01-12 07:26:59.39	71.38	7.54	-49.8	-64.9	3.8	1.49e+00	0	39	104	0	71	20120
2026-01-12 07:27:00.66	71.20	7.59	-49.8	-64.8	3.8	1.49e+00	0	39	104	0	71	19854
2026-01-12 07:27:01.37	71.10	7.62	-49.8	-64.8	3.8	1.49e+00	0	39	104	0	71	19909
2026-01-12 07:27:02.65	70.92	7.67	-49.8	-64.8	3.8	1.49e+00	0	38	104	0	71	19990
2026-01-12 07:27:03.37	70.82	7.70	-49.8	-64.9	3.8	1.49e+00	0	39	104	0	71	20185
2026-01-12 07:27:04.65	70.64	7.76	-49.8	-64.9	3.8	1.49e+00	0	39	104	0	71	20232
2026-01-12 07:27:05.36	70.54	7.79	-49.8	-64.9	3.8	1.49e+00	0	38	104	0	71	20183
2026-01-12 07:27:06.64	70.35	7.84	-49.8	-64.8	3.8	1.49e+00	0	39	104	0	71	19994
2026-01-12 07:27:07.35	70.25	7.87	-49.8	-64.8	3.8	1.49e+00	0	39	104	0	71	20015
2026-01-12 07:27:08.63	70.07	7.92	-49.8	-64.8	3.8	1.49e+00	0	39	104	0	71	19887
2026-01-12 07:27:09.36	69.96	7.95	-49.8	-64.7	3.8	1.49e+00	0	39	104	0	71	19717
2026-01-12 07:27:10.63	69.78	8.00	-49.8	-64.3	3.8	1.49e+00	0	39	104	0	71	18789
2026-01-12 07:27:11.34	69.68	8.03	-49.8	-64.0	3.8	1.49e+00	0	39	104	0	71	18283
2026-01-12 07:27:12.62	69.49	8.09	-49.8	-63.9	3.8	1.49e+00	0	39	104	0	71	18083
2026-01-12 07:27:13.33	69.39	8.11	-49.8	-64.0	3.8	1.49e+00	0	39	104	0	71	18201
2026-01-12 07:27:14.61	69.20	8.17	-49.8	-64.3	3.8	1.49e+00	0	39	104	0	71	18860
2026-01-12 07:27:15.32	69.10	8.19	-49.8	-64.5	3.8	1.49e+00	0	38	104	0	71	19317
2026-01-12 07:27:16.60	68.91	8.25	-49.8	-64.7	3.8	1.49e+00	0	39	104	0	71	19682
2026-01-12 07:27:17.31	68.81	8.27	-49.8	-64.7	3.8	1.49e+00	0	39	104	0	71	19790
2026-01-12 07:27:18.58	68.62	8.33	-49.8	-64.7	3.8	1.49e+00	0	39	104	0	71	19786
2026-01-12 07:27:19.29	68.51	8.35	-49.8	-64.5	3.8	1.49e+00	0	39	104	0	71	19327
2026-01-12 07:27:20.57	68.32	8.41	-49.8	-63.8	3.8	1.49e+00	0	39	104	0	71	17721
2026-01-12 07:27:21.31	68.21	8.43	-49.7	-63.1	3.8	1.49e+00	0	39	104	0	71	16428
2026-01-12 07:27:22.59	68.02	8.49	-49.7	-62.9	3.8	1.48e+00	0	39	104	0	71	16094
2026-01-12 07:27:23.30	67.92	8.51	-49.7	-63.4	3.9	1.49e+00	0	39	104	0	71	17004
2026-01-12 07:27:24.57	67.73	8.56	-49.8	-64.8	3.8	1.49e+00	0	39	104	0	71	19996
2026-01-12 07:27:25.30	67.62	8.59	-49.8	-64.0	3.8	1.49e+00	0	39	104	0	71	18282
2026-01-12 07:27:26.58	67.42	8.64	-49.3	-59.2	5.1	1.42e+00	0	39	0	0	70	11049
2026-01-12 07:27:27.29	67.32	8.67	-48.9	-56.9	6.8	4.02e-01	0	39	0	1048576	69	9026
2026-01-12 07:27:28.57	67.12	8.72	-48.1	-54.0	9.7	2.91e-02	0	39	0	4194304	68	6844
2026-01-12 07:27:29.28	67.02	8.75	-47.6	-53.0	10.5	5.63e-03	0	39	0	5242880	67	6492
2026-01-12 07:27:30.55	66.82	8.80	-47.3	-52.2	11.4	9.15e-04	0	39	0	7340032	66	6268
2026-01-12 07:27:31.28	66.71	8.82	-47.5	-52.6	11.0	1.10e-03	0	39	0	9437184	66	6542
2026-01-12 07:27:32.56	66.51	8.87	-48.3	-54.7	8.8	9.71e-03	0	39	0	11534336	67	7887
2026-01-12 07:27:33.28	66.40	8.90	-48.6	-56.1	7.5	6.66e-02	0	39	0	12582912	67	9231
2026-01-12 07:27:34.56	66.21	8.95	-49.5	-60.2	4.7	6.65e-01	0	39	0	15728640	69	13212
2026-01-12 07:27:35.27	66.10	8.98	-49.7	-63.1	3.8	1.15e+00	0	39	104	15728640	70	17390
2026-01-12 07:27:36.56	65.90	9.02	-49.9	-64.8	3.8	1.49e+00	0	39	104	15728640	70	21095
2026-01-12 07:27:37.27	65.79	9.05	-49.8	-64.5	3.8	1.49e+00	0	39	104	15728640	70	20328
2026-01-12 07:27:38.55	65.59	9.10	-49.9	-65.0	3.8	7.25e-01	0	39	104	15728640	70	21656
2026-01-12 07:27:39.26	65.48	9.13	-49.8	-64.3	3.8	1.49e+00	0	39	104	15728640	70	20028
2026-01-12 07:27:40.73	65.25	9.18	-49.8	-64.0	3.8	1.09e+00	0	39	104	15728640	70	19386
2026-01-12 07:27:41.44	65.14	9.21	-49.7	-62.8	3.8	1.48e+00	0	39	104	15728640	70	16781
2026-01-12 07:27:42.79	64.92	9.26	-49.6	-62.4	4.0	1.48e+00	0	39	104	15728640	70	16120
2026-01-12 07:27:43.50	64.81	9.28	-49.6	-62.3	3.9	1.47e+00	0	39	104	15728640	70	15938
2026-01-12 07:27:44.84	64.60	9.33	-49.6	-62.2	3.9	1.46e+00	0	39	104	15728640	70	15651
2026-01-12 07:27:45.55	64.49	9.36	-49.7	-62.1	4.1	1.46e+00	0	39	0	15728640	70	15579
2026-01-12 07:27:46.83	64.28	9.40	-49.7	-62.7	3.9	1.48e+00	0	39	104	15728640	70	16598
2026-01-12 07:27:47.54	64.17	9.43	-49.9	-65.1	3.8	1.48e+00	0	39	104	15728640	70	21975
2026-01-12 07:27:48.82	63.97	9.48	-47.7	-53.0	10.7	4.09e-01	0	39	0	16777216	67	6466
2026-01-12 07:27:49.53	63.85	9.50	-49.3	-58.0	6.3	4.37e-03	0	39	0	17825792	69	10227
2026-01-12 07:27:50.81	63.65	9.55	-48.6	-55.2	5.6	1.48e+00	0	39	104	18874368	69	7455
2026-01-12 07:27:51.55	63.53	9.57	-48.4	-54.5	9.3	1.98e-02	0	39	0	18874368	68	7269
2026-01-12 07:27:52.83	63.32	9.62	-48.6	-55.2	8.7	2.62e-02	0	39	0	22020096	68	7846
2026-01-12 07:27:53.54	63.21	9.64	-48.2	-54.1	9.8	2.80e-02	0	39	0	23068672	68	6895
2026-01-12 07:27:54.82	63.00	9.69	-48.3	-54.4	9.4	1.45e-02	0	39	0	25165824	68	7141
2026-01-12 07:27:55.53	62.89	9.71	-48.2	-54.0	9.9	9.96e-03	0	39	0	26214400	68	6838
2026-01-12 07:27:56.81	62.68	9.76	-47.9	-53.6	10.2	4.18e-03	0	39	0	29360128	67	6919
2026-01-12 07:27:57.55	62.56	9.78	-47.7	-53.1	10.6	4.96e-03	0	39	0	30408704	67	6549
2026-01-12 07:27:58.83	62.35	9.83	-47.8	-53.4	10.4	4.17e-03	0	39	0	32505856	67	6770
2026-01-12 07:27:59.56	62.23	9.85	-47.5	-52.6	11.2	2.50e-03	0	39	0	34603008	67	6180
2026-01-12 07:28:00.84	62.02	9.89	-47.0	-51.5	12.4	2.07e-04	0	39	0	36700160	66	5736
2026-01-12 07:28:01.55	61.90	9.92	-47.1	-51.6	12.4	1.49e-04	0	39	0	37748736	66	5805
2026-01-12 07:28:02.83	61.69	9.96	-47.0	-51.5	12.3	1.43e-04	0	39	0	39845888	66	5763
2026-01-12 07:28:03.54	61.57	9.98	-46.8	-51.2	12.7	1.12e-04	0	39	0	41943040	65	5874
2026-01-12 07:28:04.82	61.36	10.03	-46.4	-50.4	13.4	3.35e-05	0	39	0	44040192	64	5714
2026-01-12 07:28:05.55	61.24	10.05	-46.2	-50.0	13.9	3.00e-06	0	39	0	45088768	64	5422
2026-01-12 07:28:06.82	61.03	10.09	-46.1	-49.8	14.1	3.00e-06	0	39	0	48234496	64	5324
2026-01-12 07:28:07.58	60.90	10.12	-46.1	-49.9	14.0	1.50e-06	0	39	0	49283072	64	5387
2026-01-12 07:28:09.14	60.64	10.17	-46.0	-49.7	14.1	2.20e-06	0	39	0	52428800	64	5279
2026-01-12 07:28:09.85	60.52	10.19	-46.1	-49.7	14.3	2.20e-06	0	39	0	53477376	63	5565
2026-01-12 07:28:11.21	60.29	10.23	-46.1	-49.8	14.2	1.50e-06	0	39	0	56623104	63	5611
2026-01-12 07:28:12.17	60.13	10.26	-46.1	-49.7	14.3	3.00e-06	0	39	0	57671680	63	5574
2026-01-12 07:28:13.49	59.90	10.31	-46.1	-49.7	14.3	0.00e+00	0	39	0	60817408	63	5561
2026-01-12 07:28:14.19	59.79	10.33	-46.1	-49.8	14.2	7.00e-07	0	39	0	61865984	63	5618
2026-01-12 07:28:15.50	59.56	10.37	-46.2	-49.9	14.1	1.50e-06	0	39	0	63963136	63	5691
2026-01-12 07:28:16.22	59.44	10.39	-46.2	-49.9	14.1	7.00e-07	0	39	0	65011712	63	5706
2026-01-12 07:28:17.50	59.22	10.43	-46.2	-49.8	14.2	3.80e-06	0	39	0	68157440	63	5641
2026-01-12 07:28:18.21	59.10	10.45	-46.1	-49.6	14.3	0.00e+00	0	39	0	69206016	63	5518
2026-01-12 07:28:19.49	58.88	10.49	-46.2	-49.9	14.2	0.00e+00	0	39	0	71303168	63	5666
2026-01-12 07:28:20.20	58.76	10.51	-46.2	-49.8	14.2	0.00e+00	0	39	0	73400320	63	5643
2026-01-12 07:28:21.48	58.54	10.55	-46.2	-49.9	14.1	0.00e+00	0	39	0	75497472	63	5681
2026-01-12 07:28:22.19	58.42	10.57	-46.2	-49.8	14.1	3.00e-06	0	39	0	76546048	63	5652
2026-01-12 07:28:23.58	58.18	10.61	-46.2	-49.8	14.2	7.00e-07	0	39	0	79691776	63	5646
2026-01-12 07:28:24.29	58.05	10.63	-46.1	-49.7	14.3	0.00e+00	0	39	0	80740352	63	5584
2026-01-12 07:28:25.65	57.82	10.67	-46.1	-49.8	14.2	0.00e+00	0	39	0	82837504	63	5599
2026-01-12 07:28:26.36	57.69	10.69	-46.2	-49.9	14.1	1.50e-06	0	39	0	84934656	63	5679
2026-01-12 07:28:27.64	57.47	10.73	-46.2	-49.8	14.2	3.80e-06	0	39	0	87031808	63	5627
2026-01-12 07:28:28.66	57.29	10.76	-46.2	-49.8	14.2	7.00e-07	0	39	0	89128960	63	5637
2026-01-12 07:28:29.98	57.06	10.79	-46.1	-49.8	14.3	2.20e-06	0	39	0	91226112	63	5598
2026-01-12 07:28:30.68	56.94	10.81	-46.1	-49.7	14.3	0.00e+00	0	39	0	92274688	63	5562
2026-01-12 07:28:31.96	56.72	10.85	-46.1	-49.8	14.3	7.00e-07	0	39	0	95420416	63	5605
2026-01-12 07:28:32.70	56.59	10.87	-46.1	-49.8	14.3	7.00e-07	0	39	0	96468992	63	5616
2026-01-12 07:28:33.98	56.36	10.90	-46.2	-49.9	14.2	1.50e-06	0	39	0	98566144	63	5665
2026-01-12 07:28:34.69	56.23	10.92	-46.1	-49.7	14.3	0.00e+00	0	39	0	99614720	63	5557
2026-01-12 07:28:35.97	56.01	10.96	-46.0	-49.6	14.4	2.20e-06	0	39	0	102760448	63	5497
2026-01-12 07:28:36.69	55.88	10.98	-46.0	-49.6	14.4	0.00e+00	0	39	0	103809024	63	5511
2026-01-12 07:28:38.02	55.64	11.01	-46.0	-49.6	14.4	7.00e-07	0	39	0	105906176	63	5470
2026-01-12 07:28:38.73	55.52	11.03	-46.1	-49.7	14.3	1.50e-06	0	39	0	108003328	63	5543
2026-01-12 07:28:40.01	55.29	11.06	-46.1	-49.8	14.3	7.00e-07	0	39	0	110100480	63	5599
2026-01-12 07:28:40.72	55.16	11.08	-46.1	-49.7	14.3	7.00e-07	0	39	0	111149056	63	5548
2026-01-12 07:28:42.13	54.91	11.12	-46.1	-49.7	14.3	2.20e-06	0	39	0	114294784	63	5543
2026-01-12 07:28:42.84	54.78	11.13	-46.1	-49.7	14.3	0.00e+00	0	39	0	115343360	63	5576
2026-01-12 07:28:44.16	54.55	11.17	-46.1	-49.8	14.2	1.50e-06	0	39	0	117440512	63	5617
2026-01-12 07:28:44.87	54.42	11.18	-46.2	-49.9	14.1	2.20e-06	0	39	0	119537664	63	5674
2026-01-12 07:28:46.22	54.18	11.22	-46.2	-50.0	14.0	3.80e-06	0	39	0	121634816	63	5739
2026-01-12 07:28:46.93	54.05	11.23	-46.2	-49.9	14.1	1.50e-06	0	39	0	122683392	63	5717
2026-01-12 07:28:48.28	53.80	11.26	-46.3	-50.0	14.0	0.00e+00	0	39	0	125829120	63	5752
2026-01-12 07:28:48.99	53.68	11.28	-46.2	-50.0	14.1	2.20e-06	0	39	0	126877696	63	5730
2026-01-12 07:28:50.28	53.44	11.31	-46.3	-50.0	14.0	1.50e-06	0	39	0	128974848	63	5771
2026-01-12 07:28:50.99	53.31	11.33	-46.3	-50.1	13.9	2.20e-06	0	39	0	131072000	63	5834
2026-01-12 07:28:52.27	53.08	11.36	-46.4	-50.2	13.9	5.30e-06	0	39	0	133169152	63	5866
2026-01-12 07:28:52.98	52.95	11.37	-46.4	-50.2	13.8	3.80e-06	0	39	0	134217728	63	5886
2026-01-12 07:28:54.26	52.72	11.40	-46.4	-50.3	13.8	6.80e-06	0	39	0	136314880	63	5927
2026-01-12 07:28:54.97	52.59	11.42	-46.4	-50.2	13.9	2.20e-06	0	39	0	138412032	63	5891
2026-01-12 07:28:56.25	52.35	11.44	-46.4	-50.3	13.7	6.80e-06	0	39	0	140509184	63	5933
2026-01-12 07:28:56.99	52.22	11.46	-46.3	-50.2	13.8	3.00e-06	0	39	0	141557760	63	5884
2026-01-12 07:28:58.27	51.98	11.49	-46.2	-50.0	14.0	2.20e-06	0	39	0	144703488	63	5746
2026-01-12 07:28:58.98	51.85	11.50	-46.2	-49.9	14.2	0.00e+00	0	39	0	145752064	63	5675
2026-01-12 07:29:00.26	51.62	11.53	-46.2	-49.9	14.1	2.20e-06	0	39	0	147849216	63	5681
2026-01-12 07:29:00.98	51.48	11.54	-46.2	-49.9	14.2	0.00e+00	0	39	0	148897792	63	5681
2026-01-12 07:29:02.26	51.25	11.57	-46.3	-50.0	14.0	7.00e-07	0	39	0	152043520	63	5782
2026-01-12 07:29:02.98	51.12	11.58	-46.3	-50.0	14.0	6.10e-06	0	39	0	153092096	63	5760
2026-01-12 07:29:04.25	50.88	11.61	-46.3	-50.1	14.0	2.20e-06	0	39	0	155189248	63	5792
2026-01-12 07:29:04.98	50.75	11.62	-46.3	-50.1	13.9	3.80e-06	0	39	0	157286400	63	5826
2026-01-12 07:29:06.26	50.51	11.64	-46.4	-50.2	13.9	2.20e-06	0	39	0	159383552	63	5864
2026-01-12 07:29:06.97	50.38	11.66	-46.3	-50.1	13.9	3.00e-06	0	39	0	160432128	63	5823
2026-01-12 07:29:08.25	50.14	11.68	-46.4	-50.3	13.8	5.30e-06	0	39	0	163577856	63	5932
2026-01-12 07:29:09.00	50.00	11.69	-46.4	-50.1	13.9	4.50e-06	0	39	0	164626432	63	5854
2026-01-12 07:29:10.28	49.76	11.72	-46.3	-50.1	14.0	3.00e-06	0	39	0	166723584	63	5808
2026-01-12 07:29:11.00	49.63	11.73	-46.3	-50.1	13.9	0.00e+00	0	39	0	167772160	63	5825
2026-01-12 07:29:12.29	49.38	11.75	-46.4	-50.2	13.8	2.20e-06	0	39	0	170917888	63	5892
2026-01-12 07:29:13.00	49.25	11.76	-46.2	-49.9	14.1	5.30e-06	0	39	0	171966464	63	5713
2026-01-12 07:29:14.28	49.01	11.78	-46.0	-49.5	14.5	7.00e-07	0	39	0	174063616	63	5458
2026-01-12 07:29:15.10	48.86	11.80	-46.0	-49.6	14.5	7.00e-07	0	39	0	176160768	63	5490
2026-01-12 07:29:16.24	48.64	11.82	-46.1	-49.7	14.3	0.00e+00	0	39	0	178257920	63	5569
2026-01-12 07:29:17.09	48.48	11.83	-46.2	-49.8	14.3	0.00e+00	0	39	0	179306496	63	5623
2026-01-12 07:29:18.23	48.27	11.85	-46.1	-49.6	14.4	7.00e-07	0	39	0	181403648	63	5521
2026-01-12 07:29:19.08	48.11	11.86	-46.1	-49.7	14.4	7.00e-07	0	39	0	183500800	63	5538
2026-01-12 07:29:20.22	47.90	11.88	-46.0	-49.6	14.6	0.00e+00	0	39	0	185597952	63	5471
2026-01-12 07:29:21.08	47.73	11.89	-45.9	-49.4	14.7	7.00e-07	0	39	0	186646528	63	5366
2026-01-12 07:29:22.22	47.52	11.91	-46.0	-49.5	14.6	0.00e+00	0	39	0	188743680	63	5417
2026-01-12 07:29:23.07	47.36	11.92	-46.0	-49.5	14.6	0.00e+00	0	39	0	190840832	63	5406
2026-01-12 07:29:24.21	47.14	11.93	-45.9	-49.4	14.7	0.00e+00	0	39	0	192937984	63	5359
2026-01-12 07:29:25.06	46.98	11.94	-45.9	-49.4	14.7	0.00e+00	0	39	0	195035136	63	5353
2026-01-12 07:29:26.20	46.76	11.96	-45.9	-49.3	14.8	0.00e+00	0	39	0	197132288	63	5312
2026-01-12 07:29:27.05	46.60	11.97	-45.8	-49.3	14.8	0.00e+00	0	39	0	198180864	63	5310
2026-01-12 07:29:28.18	46.39	11.98	-45.9	-49.4	14.8	0.00e+00	0	39	0	200278016	63	5342
2026-01-12 07:29:29.05	46.22	11.99	-45.8	-49.3	14.8	7.00e-07	0	39	0	202375168	63	5281
2026-01-12 07:29:30.19	46.01	12.01	-45.8	-49.3	14.8	0.00e+00	0	39	0	204472320	63	5282
2026-01-12 07:29:31.04	45.84	12.02	-45.8	-49.3	14.8	0.00e+00	0	39	0	205520896	63	5306
2026-01-12 07:29:32.18	45.63	12.03	-45.8	-49.2	14.9	0.00e+00	0	39	0	207618048	63	5260
2026-01-12 07:29:33.21	45.43	12.04	-45.8	-49.2	14.9	0.00e+00	0	39	0	209715200	63	5248
2026-01-12 07:29:34.20	45.24	12.05	-45.7	-49.1	15.0	0.00e+00	0	39	0	211812352	63	5197
2026-01-12 07:29:35.20	45.05	12.06	-45.7	-49.1	14.9	0.00e+00	0	39	0	213909504	63	5218
2026-01-12 07:29:36.43	44.82	12.07	-45.8	-49.2	14.9	0.00e+00	0	39	0	216006656	63	5266
2026-01-12 07:29:37.33	44.64	12.08	-45.8	-49.2	14.9	0.00e+00	0	39	0	217055232	63	5244
2026-01-12 07:29:38.36	44.45	12.09	-45.9	-49.3	14.8	7.00e-07	0	39	0	219152384	63	5284
2026-01-12 07:29:39.35	44.26	12.10	-45.8	-49.3	14.8	0.00e+00	0	39	0	221249536	63	5295
2026-01-12 07:29:40.35	44.07	12.11	-45.8	-49.2	14.9	0.00e+00	0	39	0	223346688	63	5273
2026-01-12 07:29:41.34	43.88	12.12	-45.8	-49.2	14.9	0.00e+00	0	39	0	225443840	63	5219
2026-01-12 07:29:42.34	43.68	12.13	-45.8	-49.2	14.9	0.00e+00	0	39	0	226492416	63	5226
2026-01-12 07:29:43.33	43.49	12.14	-45.6	-49.0	15.1	0.00e+00	0	39	0	228589568	63	5115
2026-01-12 07:29:44.33	43.30	12.14	-45.6	-49.0	15.1	0.00e+00	0	39	0	230686720	63	5151
2026-01-12 07:29:45.32	43.11	12.15	-45.7	-49.1	15.0	0.00e+00	0	39	0	232783872	63	5172
2026-01-12 07:29:46.32	42.92	12.16	-45.7	-49.1	15.0	0.00e+00	0	39	0	234881024	63	5207
2026-01-12 07:29:47.32	42.73	12.16	-45.6	-49.0	15.1	0.00e+00	0	40	0	235929600	63	5107
2026-01-12 07:29:48.31	42.54	12.17	-45.7	-49.1	15.0	0.00e+00	0	40	0	238026752	63	5172
2026-01-12 07:29:49.30	42.35	12.18	-45.7	-49.0	15.1	0.00e+00	0	39	0	240123904	63	5112
2026-01-12 07:29:50.30	42.15	12.18	-45.7	-49.0	15.1	0.00e+00	0	40	0	242221056	63	5143
2026-01-12 07:29:51.30	41.96	12.19	-45.7	-49.0	15.1	0.00e+00	0	39	0	244318208	63	5107
2026-01-12 07:29:52.29	41.77	12.19	-45.7	-49.0	15.1	0.00e+00	0	39	0	245366784	63	5139
2026-01-12 07:29:53.29	41.58	12.20	-45.7	-49.1	15.0	0.00e+00	0	39	0	247463936	63	5193
2026-01-12 07:29:54.28	41.39	12.20	-45.6	-48.9	15.1	0.00e+00	0	39	0	249561088	63	5088
2026-01-12 07:29:55.27	41.20	12.20	-45.5	-48.8	15.3	0.00e+00	0	40	0	251658240	63	5016
2026-01-12 07:29:56.27	41.00	12.21	-45.5	-48.8	15.3	0.00e+00	0	39	0	252706816	62	5321
2026-01-12 07:29:57.26	40.81	12.21	-45.5	-48.8	15.3	0.00e+00	0	39	0	254803968	62	5285
2026-01-12 07:29:58.26	40.62	12.21	-45.6	-48.9	15.2	0.00e+00	0	39	0	256901120	62	5359
2026-01-12 07:29:59.25	40.43	12.22	-45.6	-49.0	15.1	0.00e+00	0	40	0	258998272	62	5422
2026-01-12 07:30:00.25	40.24	12.22	-45.8	-49.2	14.9	0.00e+00	0	40	0	261095424	62	5550
2026-01-12 07:30:01.25	40.04	12.22	-45.6	-49.1	15.1	0.00e+00	0	39	0	262144000	62	5467
2026-01-12 07:30:02.24	39.85	12.22	-45.6	-49.0	15.1	0.00e+00	0	40	0	264241152	62	5458
2026-01-12 07:30:03.24	39.66	12.23	-45.5	-49.0	15.1	0.00e+00	0	39	0	266338304	62	5421
2026-01-12 07:30:04.23	39.47	12.23	-45.4	-48.9	15.2	0.00e+00	0	39	0	268435456	62	5380
2026-01-12 07:30:05.26	39.27	12.23	-45.4	-48.9	15.2	0.00e+00	0	39	0	269484032	62	5390
2026-01-12 07:30:06.26	39.08	12.23	-45.3	-48.9	15.2	0.00e+00	0	40	0	271581184	62	5357
2026-01-12 07:30:07.25	38.89	12.23	-45.2	-48.8	15.3	0.00e+00	0	39	0	273678336	62	5289
2026-01-12 07:30:08.25	38.69	12.23	-45.3	-48.9	15.2	0.00e+00	0	39	0	275775488	62	5380
2026-01-12 07:30:09.37	38.48	12.23	-45.3	-48.9	15.2	0.00e+00	0	39	0	277872640	62	5375
2026-01-12 07:30:10.22	38.31	12.23	-45.4	-49.0	15.1	0.00e+00	0	39	0	278921216	62	5439
2026-01-12 07:30:11.58	38.05	12.23	-45.4	-49.0	15.1	0.00e+00	0	39	0	282066944	61	5740
2026-01-12 07:30:12.29	37.91	12.23	-45.4	-49.0	15.1	0.00e+00	0	40	0	283115520	61	5763
2026-01-12 07:30:13.57	37.67	12.22	-45.5	-49.2	15.0	0.00e+00	0	39	0	285212672	61	5859
2026-01-12 07:30:14.28	37.53	12.22	-45.6	-49.2	14.9	0.00e+00	0	39	0	287309824	61	5896
2026-01-12 07:30:15.56	37.28	12.22	-45.8	-49.5	14.6	0.00e+00	0	40	0	289406976	62	5750
2026-01-12 07:30:16.27	37.14	12.22	-45.9	-49.7	14.4	0.00e+00	0	39	0	290455552	62	5866
2026-01-12 07:30:17.57	36.89	12.21	-46.0	-49.8	14.3	0.00e+00	0	40	0	292552704	62	5943
2026-01-12 07:30:18.28	36.76	12.21	-46.1	-49.8	14.3	7.00e-07	0	39	0	294649856	62	5952
2026-01-12 07:30:19.56	36.51	12.21	-46.1	-49.9	14.2	7.00e-07	0	40	0	296747008	62	6024
2026-01-12 07:30:20.27	36.37	12.20	-46.1	-49.9	14.3	7.00e-07	0	39	0	297795584	62	6005
2026-01-12 07:30:21.54	36.13	12.20	-46.0	-49.8	14.3	0.00e+00	0	39	0	300941312	62	5947
2026-01-12 07:30:22.28	35.99	12.19	-46.0	-49.9	14.3	7.00e-07	0	39	0	301989888	62	5999
2026-01-12 07:30:23.57	35.74	12.19	-45.8	-49.6	14.6	7.00e-07	0	39	0	304087040	62	5802
2026-01-12 07:30:24.28	35.60	12.18	-45.9	-49.7	14.4	0.00e+00	0	39	0	305135616	62	5891
2026-01-12 07:30:25.56	35.36	12.18	-46.0	-49.8	14.4	1.50e-06	0	40	0	308281344	62	5934
2026-01-12 07:30:26.29	35.21	12.17	-46.0	-49.8	14.3	7.00e-07	0	39	0	309329920	62	5956
2026-01-12 07:30:27.65	34.95	12.17	-46.2	-50.0	14.1	7.00e-07	0	40	0	312475648	63	5748
2026-01-12 07:30:28.36	34.82	12.16	-46.2	-49.9	14.2	2.20e-06	0	39	0	313524224	63	5721
2026-01-12 07:30:29.64	34.57	12.15	-46.3	-50.0	14.2	2.20e-06	0	39	0	315621376	63	5747
2026-01-12 07:30:30.70	34.37	12.14	-46.2	-49.9	14.2	2.20e-06	0	39	0	317718528	63	5687
2026-01-12 07:30:31.87	34.14	12.14	-46.1	-49.8	14.3	3.00e-06	0	40	0	319815680	63	5638
2026-01-12 07:30:32.72	33.98	12.13	-46.2	-49.9	14.2	7.00e-07	0	39	0	321912832	63	5709
2026-01-12 07:30:33.86	33.76	12.12	-46.1	-49.9	14.3	2.20e-06	0	40	0	324009984	63	5657
2026-01-12 07:30:34.71	33.60	12.11	-46.1	-49.8	14.4	3.00e-06	0	40	0	325058560	63	5611
2026-01-12 07:30:35.85	33.38	12.10	-46.0	-49.8	14.3	2.20e-06	0	39	0	327155712	63	5628
2026-01-12 07:30:36.70	33.22	12.10	-46.0	-49.8	14.3	2.20e-06	0	39	0	329252864	63	5623
2026-01-12 07:30:37.84	33.00	12.08	-46.1	-49.8	14.3	2.20e-06	0	39	0	331350016	63	5643
2026-01-12 07:30:38.69	32.84	12.08	-46.0	-49.8	14.4	7.00e-07	0	39	0	332398592	63	5604
2026-01-12 07:30:39.83	32.62	12.07	-46.1	-49.8	14.3	7.00e-07	0	39	0	334495744	63	5641
2026-01-12 07:30:40.69	32.46	12.06	-46.1	-49.8	14.3	1.50e-06	0	39	0	336592896	63	5641
2026-01-12 07:30:41.82	32.24	12.04	-46.0	-49.7	14.4	0.00e+00	0	40	0	338690048	63	5581
2026-01-12 07:30:42.67	32.08	12.04	-46.1	-49.8	14.3	7.00e-07	0	39	0	339738624	63	5610
2026-01-12 07:30:43.81	31.86	12.02	-46.2	-49.9	14.2	2.20e-06	0	39	0	341835776	63	5703
2026-01-12 07:30:44.67	31.70	12.01	-46.3	-50.0	14.2	7.00e-07	0	39	0	343932928	63	5753
2026-01-12 07:30:46.01	31.44	12.00	-46.3	-50.0	14.1	2.20e-06	0	39	0	346030080	63	5755
2026-01-12 07:30:46.72	31.31	11.99	-46.3	-50.0	14.1	1.50e-06	0	39	0	348127232	63	5762
2026-01-12 07:30:48.00	31.07	11.97	-46.3	-50.0	14.1	1.50e-06	0	39	0	350224384	63	5766
2026-01-12 07:30:48.72	30.93	11.96	-46.3	-50.0	14.1	7.00e-07	0	39	0	351272960	63	5769
2026-01-12 07:30:50.00	30.69	11.95	-46.2	-49.8	14.3	0.00e+00	0	39	0	353370112	63	5634
2026-01-12 07:30:50.71	30.55	11.94	-46.1	-49.6	14.5	0.00e+00	0	39	0	355467264	63	5523
2026-01-12 07:30:51.99	30.31	11.92	-46.0	-49.5	14.6	0.00e+00	0	40	0	357564416	63	5452
2026-01-12 07:30:52.70	30.18	11.91	-46.0	-49.5	14.6	1.50e-06	0	40	0	358612992	63	5449
2026-01-12 07:30:53.98	29.94	11.89	-45.9	-49.6	14.6	7.00e-07	0	40	0	361758720	63	5472
2026-01-12 07:30:54.69	29.80	11.88	-45.9	-49.5	14.6	0.00e+00	0	40	0	362807296	63	5449
2026-01-12 07:30:55.97	29.56	11.86	-45.8	-49.5	14.6	0.00e+00	0	40	0	364904448	63	5464
2026-01-12 07:30:56.68	29.43	11.85	-45.8	-49.6	14.6	0.00e+00	0	40	0	365953024	63	5501
2026-01-12 07:30:57.96	29.19	11.83	-45.8	-49.6	14.5	0.00e+00	0	40	0	369098752	63	5521
2026-01-12 07:30:58.68	29.05	11.82	-45.8	-49.7	14.4	7.00e-07	0	39	0	370147328	63	5583
2026-01-12 07:31:00.06	28.79	11.80	-45.9	-49.8	14.3	1.50e-06	0	39	0	372244480	63	5623
2026-01-12 07:31:00.77	28.66	11.79	-45.9	-49.9	14.2	3.00e-06	0	40	0	374341632	63	5669
2026-01-12 07:31:02.10	28.41	11.77	-45.9	-49.8	14.3	0.00e+00	0	39	0	376438784	63	5637
2026-01-12 07:31:02.81	28.28	11.75	-46.0	-50.0	14.2	1.50e-06	0	39	0	377487360	63	5729
2026-01-12 07:31:04.15	28.03	11.73	-45.9	-49.9	14.3	0.00e+00	0	39	0	380633088	63	5661
2026-01-12 07:31:04.86	27.90	11.72	-45.9	-49.8	14.3	7.00e-07	0	40	0	381681664	63	5633
2026-01-12 07:31:06.17	27.65	11.70	-46.0	-49.9	14.3	7.00e-07	0	39	0	383778816	63	5673
2026-01-12 07:31:06.88	27.52	11.68	-46.0	-49.9	14.2	7.00e-07	0	39	0	385875968	63	5681
2026-01-12 07:31:08.16	27.28	11.66	-46.0	-49.9	14.2	1.50e-06	0	39	0	387973120	63	5685
2026-01-12 07:31:08.87	27.15	11.65	-46.1	-49.9	14.2	0.00e+00	0	39	0	389021696	63	5709
2026-01-12 07:31:10.25	26.90	11.62	-46.0	-49.9	14.2	1.50e-06	0	39	0	392167424	63	5690
2026-01-12 07:31:10.96	26.77	11.61	-46.0	-49.9	14.2	1.50e-06	0	39	0	393216000	63	5701
2026-01-12 07:31:12.32	26.51	11.58	-46.0	-49.8	14.3	7.00e-07	0	40	0	395313152	63	5623
2026-01-12 07:31:13.02	26.39	11.57	-46.0	-49.7	14.4	0.00e+00	0	39	0	397410304	63	5577
2026-01-12 07:31:14.31	26.15	11.54	-46.0	-49.8	14.4	0.00e+00	0	39	0	399507456	63	5598
2026-01-12 07:31:15.02	26.02	11.53	-45.9	-49.7	14.4	0.00e+00	0	39	0	400556032	63	5587
2026-01-12 07:31:16.30	25.78	11.50	-45.9	-49.7	14.5	7.00e-07	0	40	0	402653184	63	5532
2026-01-12 07:31:17.01	25.65	11.49	-46.0	-49.7	14.4	7.00e-07	0	40	0	404750336	63	5586
2026-01-12 07:31:18.29	25.42	11.46	-46.0	-49.8	14.3	0.00e+00	0	40	0	406847488	63	5617
2026-01-12 07:31:19.00	25.29	11.44	-46.0	-49.8	14.4	3.00e-06	0	39	0	407896064	63	5612
2026-01-12 07:31:20.28	25.05	11.42	-46.0	-49.8	14.3	7.00e-07	0	39	0	411041792	63	5646
2026-01-12 07:31:20.99	24.93	11.40	-46.1	-49.8	14.3	0.00e+00	0	39	0	412090368	63	5619
2026-01-12 07:31:22.27	24.69	11.37	-46.0	-49.7	14.4	7.00e-07	0	39	0	414187520	63	5573
2026-01-12 07:31:22.98	24.56	11.36	-46.0	-49.7	14.5	7.00e-07	0	39	0	415236096	63	5538
2026-01-12 07:31:24.26	24.33	11.33	-46.0	-49.6	14.5	7.00e-07	0	39	0	418381824	63	5515
2026-01-12 07:31:24.98	24.20	11.31	-46.0	-49.7	14.5	1.50e-06	0	40	0	419430400	63	5529
2026-01-12 07:31:26.26	23.97	11.28	-46.0	-49.6	14.5	7.00e-07	0	39	0	421527552	63	5495
2026-01-12 07:31:27.19	23.80	11.26	-46.1	-49.7	14.4	7.00e-07	0	39	0	423624704	63	5576
2026-01-12 07:31:28.19	23.62	11.24	-46.1	-49.8	14.4	1.50e-06	0	39	0	425721856	63	5593
2026-01-12 07:31:29.18	23.44	11.21	-46.1	-49.7	14.4	0.00e+00	0	39	0	426770432	63	5557
2026-01-12 07:31:30.18	23.26	11.19	-46.1	-49.8	14.4	0.00e+00	0	39	0	428867584	63	5596
2026-01-12 07:31:31.17	23.09	11.17	-46.2	-50.0	14.2	7.00e-07	0	40	0	430964736	63	5724
2026-01-12 07:31:32.17	22.91	11.14	-46.1	-49.9	14.2	7.00e-07	0	39	0	433061888	63	5674
2026-01-12 07:31:33.16	22.73	11.12	-46.1	-50.0	14.1	1.50e-06	0	40	0	435159040	63	5737
2026-01-12 07:31:34.17	22.55	11.09	-45.9	-49.8	14.3	2.20e-06	0	39	0	436207616	63	5613
2026-01-12 07:31:35.20	22.37	11.06	-45.8	-49.7	14.4	1.50e-06	0	39	0	438304768	63	5563
2026-01-12 07:31:36.19	22.19	11.04	-45.6	-49.7	14.4	7.00e-07	0	39	0	440401920	63	5544
2026-01-12 07:31:37.23	22.01	11.01	-45.4	-49.6	14.5	0.00e+00	0	40	0	442499072	62	5846
2026-01-12 07:31:38.23	21.83	10.99	-45.2	-49.5	14.6	0.00e+00	0	40	0	444596224	62	5751
2026-01-12 07:31:39.30	21.64	10.96	-45.2	-49.4	14.7	0.00e+00	0	40	0	446693376	62	5708
2026-01-12 07:31:40.16	21.49	10.94	-45.1	-49.3	14.8	0.00e+00	0	40	0	447741952	62	5625
2026-01-12 07:31:41.53	21.25	10.90	-45.1	-49.2	14.9	0.00e+00	0	40	0	450887680	62	5580
2026-01-12 07:31:42.25	21.12	10.88	-45.2	-49.3	14.8	0.00e+00	0	39	0	451936256	62	5619
2026-01-12 07:31:43.53	20.90	10.84	-45.2	-49.3	14.9	0.00e+00	0	40	0	454033408	62	5594
2026-01-12 07:31:44.24	20.77	10.83	-45.2	-49.3	14.9	0.00e+00	0	40	0	455081984	62	5603
2026-01-12 07:31:45.52	20.55	10.79	-45.3	-49.3	14.9	0.00e+00	0	40	0	458227712	62	5606
2026-01-12 07:31:46.23	20.42	10.77	-45.3	-49.2	14.9	0.00e+00	0	40	0	459276288	62	5562
2026-01-12 07:31:47.51	20.20	10.73	-45.2	-49.1	15.0	0.00e+00	0	40	0	461373440	62	5512
2026-01-12 07:31:48.22	20.08	10.71	-45.3	-49.1	14.9	0.00e+00	0	39	0	463470592	62	5527
2026-01-12 07:31:49.50	19.86	10.68	-45.4	-49.1	14.9	0.00e+00	0	40	0	465567744	62	5526
2026-01-12 07:31:50.21	19.73	10.66	-45.4	-49.1	15.0	0.00e+00	0	39	0	466616320	62	5527
2026-01-12 07:31:51.49	19.51	10.62	-45.6	-49.2	14.8	0.00e+00	0	39	0	468713472	62	5579
2026-01-12 07:31:52.22	19.39	10.60	-45.6	-49.2	14.9	0.00e+00	0	39	0	470810624	62	5574
2026-01-12 07:31:53.50	19.17	10.56	-45.7	-49.2	14.8	0.00e+00	0	39	0	472907776	62	5584
2026-01-12 07:31:54.21	19.04	10.54	-45.7	-49.2	14.9	0.00e+00	0	39	0	473956352	62	5569
2026-01-12 07:31:55.68	18.79	10.50	-45.8	-49.2	14.9	0.00e+00	0	40	0	477102080	62	5583
2026-01-12 07:31:56.39	18.67	10.47	-45.8	-49.3	14.8	7.00e-07	0	39	0	478150656	62	5595
2026-01-12 07:31:57.75	18.44	10.43	-45.7	-49.2	14.9	0.00e+00	0	39	0	481296384	62	5563
2026-01-12 07:31:58.46	18.32	10.41	-45.8	-49.3	14.8	0.00e+00	0	40	0	482344960	62	5627
2026-01-12 07:31:59.74	18.10	10.37	-45.7	-49.4	14.7	0.00e+00	0	39	0	484442112	62	5664
2026-01-12 07:32:00.46	17.98	10.35	-45.6	-49.3	14.8	0.00e+00	0	39	0	485490688	62	5605
2026-01-12 07:32:01.74	17.76	10.31	-45.3	-49.1	14.9	0.00e+00	0	39	0	488636416	62	5510
2026-01-12 07:32:02.45	17.64	10.29	-45.3	-49.1	14.9	0.00e+00	0	39	0	489684992	62	5527
2026-01-12 07:32:03.73	17.43	10.25	-45.3	-49.2	14.8	0.00e+00	0	39	0	491782144	62	5565
2026-01-12 07:32:04.47	17.30	10.22	-45.2	-49.2	14.9	0.00e+00	0	40	0	493879296	62	5540
2026-01-12 07:32:05.75	17.09	10.18	-45.2	-49.2	14.8	7.00e-07	0	40	0	495976448	62	5591
2026-01-12 07:32:06.46	16.97	10.16	-45.1	-49.2	14.8	0.00e+00	0	40	0	497025024	62	5577
2026-01-12 07:32:07.74	16.76	10.12	-45.1	-49.2	14.9	0.00e+00	0	40	0	499122176	62	5549
2026-01-12 07:32:08.49	16.63	10.09	-45.1	-49.2	14.9	7.00e-07	0	39	0	501219328	62	5555
2026-01-12 07:32:09.76	16.42	10.05	-45.1	-49.3	14.8	0.00e+00	0	40	0	503316480	62	5630
2026-01-12 07:32:10.48	16.30	10.03	-45.1	-49.5	14.6	0.00e+00	0	39	0	504365056	62	5724
2026-01-12 07:32:11.75	16.09	9.99	-45.0	-49.4	14.7	7.00e-07	0	39	0	507510784	61	6007
2026-01-12 07:32:12.61	15.95	9.96	-45.0	-49.3	14.7	7.00e-07	0	39	0	508559360	61	5949
2026-01-12 07:32:13.74	15.76	9.92	-45.1	-49.3	14.7	0.00e+00	0	39	0	510656512	61	5992
2026-01-12 07:32:14.60	15.62	9.89	-45.2	-49.5	14.6	7.00e-07	0	39	0	512753664	61	6074
2026-01-12 07:32:15.73	15.44	9.85	-45.4	-49.5	14.6	0.00e+00	0	40	0	514850816	61	6084
2026-01-12 07:32:16.59	15.30	9.82	-45.6	-49.6	14.5	0.00e+00	0	39	0	515899392	61	6134
2026-01-12 07:32:17.73	15.11	9.79	-45.8	-49.7	14.4	3.80e-06	0	39	0	517996544	62	5870
2026-01-12 07:32:18.89	14.92	9.75	-46.0	-49.7	14.3	2.20e-06	0	40	0	520093696	62	5918
2026-01-12 07:32:19.74	14.79	9.72	-46.0	-49.8	14.3	7.00e-07	0	39	0	522190848	62	5943
2026-01-12 07:32:21.22	14.55	9.66	-46.0	-49.9	14.2	1.50e-06	0	40	0	525336576	62	5998
2026-01-12 07:32:21.93	14.43	9.64	-45.9	-49.8	14.2	7.00e-07	0	40	0	526385152	62	5992
2026-01-12 07:32:23.20	14.23	9.60	-46.0	-50.0	14.0	1.50e-06	0	40	0	528482304	62	6086
2026-01-12 07:32:23.92	14.11	9.57	-46.0	-50.1	14.0	4.50e-06	0	39	0	529530880	62	6162
2026-01-12 07:32:25.20	13.91	9.52	-46.1	-50.2	13.8	5.30e-06	0	39	0	532676608	62	6229
2026-01-12 07:32:25.97	13.79	9.50	-46.2	-50.3	13.7	6.10e-06	0	40	0	533725184	62	6300
2026-01-12 07:32:27.25	13.58	9.45	-46.1	-50.3	13.7	5.30e-06	0	39	0	535822336	63	5991
2026-01-12 07:32:27.96	13.47	9.43	-46.1	-50.4	13.6	7.60e-06	0	39	0	537919488	63	6018
2026-01-12 07:32:29.24	13.27	9.38	-45.9	-50.4	13.6	3.80e-06	0	39	0	540016640	63	6002
2026-01-12 07:32:29.95	13.15	9.35	-45.8	-50.5	13.6	9.10e-06	0	39	0	541065216	63	6073
2026-01-12 07:32:31.27	12.95	9.31	-45.6	-50.6	13.4	1.52e-05	0	39	0	544210944	63	6184
2026-01-12 07:32:31.98	12.83	9.28	-45.5	-50.7	13.3	1.22e-05	0	40	0	545259520	63	6213
2026-01-12 07:32:33.26	12.63	9.23	-45.4	-50.9	13.1	1.44e-05	0	39	0	547356672	62	6771
2026-01-12 07:32:33.98	12.52	9.21	-45.3	-50.8	13.2	2.89e-05	0	39	0	548405248	62	6671
2026-01-12 07:32:35.26	12.32	9.16	-45.4	-50.9	13.1	3.20e-05	0	40	0	551550976	62	6771
2026-01-12 07:32:35.98	12.21	9.13	-45.5	-51.1	12.9	3.20e-05	0	39	0	552599552	62	6896
2026-01-12 07:32:37.26	12.01	9.08	-45.6	-51.1	12.8	5.11e-05	0	39	0	554696704	62	6947
2026-01-12 07:32:37.99	11.90	9.06	-45.7	-51.2	12.8	5.26e-05	0	39	0	555745280	62	6987
2026-01-12 07:32:39.27	11.70	9.01	-45.8	-51.2	12.8	6.94e-05	0	39	0	558891008	62	7008
2026-01-12 07:32:39.99	11.59	8.98	-47.4	-58.8	5.7	9.11e-02	0	39	0	559939584	65	14162
2026-01-12 07:32:41.27	11.39	8.93	-49.1	-65.5	3.8	1.49e+00	0	40	104	559939584	70	22974
2026-01-12 07:32:41.98	11.28	8.91	-49.4	-65.6	3.8	1.49e+00	0	39	104	559939584	69	24456
2026-01-12 07:32:43.26	11.09	8.86	-50.2	-65.7	3.8	1.49e+00	0	40	104	559939584	71	22171
2026-01-12 07:32:44.08	10.96	8.83	-50.3	-65.8	3.8	1.49e+00	0	40	104	559939584	71	22330
2026-01-12 07:32:45.21	10.79	8.78	-50.5	-65.8	3.8	1.49e+00	0	40	104	559939584	71	22480
2026-01-12 07:32:46.26	10.63	8.74	-50.6	-65.9	3.8	1.49e+00	0	39	104	559939584	71	22651
2026-01-12 07:32:47.42	10.46	8.70	-50.7	-66.0	3.8	1.49e+00	0	40	104	559939584	71	22795
2026-01-12 07:32:48.31	10.32	8.66	-50.3	-65.9	3.8	1.49e+00	0	39	104	559939584	72	21413
2026-01-12 07:32:49.62	10.13	8.61	-50.6	-65.9	3.8	1.49e+00	0	39	104	559939584	72	21444
2026-01-12 07:32:50.33	10.02	8.58	-50.6	-66.0	3.8	1.49e+00	0	39	104	559939584	72	21524
2026-01-12 07:32:51.81	9.80	8.53	-50.7	-66.0	3.8	1.49e+00	0	39	104	559939584	72	21558
2026-01-12 07:32:52.52	9.69	8.50	-50.6	-66.0	3.8	1.49e+00	0	39	104	559939584	72	21566
2026-01-12 07:32:53.80	9.51	8.45	-50.7	-66.0	3.8	1.49e+00	0	39	104	559939584	72	21567
2026-01-12 07:32:54.51	9.40	8.42	-50.6	-66.0	3.8	1.49e+00	0	40	104	559939584	72	21576
2026-01-12 07:32:55.78	9.21	8.37	-50.5	-66.0	3.8	1.49e+00	0	39	104	559939584	72	21568
2026-01-12 07:32:56.49	9.11	8.34	-50.4	-66.0	3.8	1.49e+00	0	40	104	559939584	72	21569
2026-01-12 07:32:57.77	8.92	8.29	-50.6	-65.9	3.8	1.49e+00	0	40	104	559939584	72	21496
2026-01-12 07:32:58.49	8.81	8.26	-50.8	-66.0	3.8	1.49e+00	0	39	104	559939584	72	21544
2026-01-12 07:32:59.77	8.63	8.21	-50.7	-66.0	3.8	1.49e+00	0	40	104	559939584	72	21583
2026-01-12 07:33:00.48	8.52	8.18	-50.8	-66.0	3.8	1.49e+00	0	40	104	559939584	72	21534
2026-01-12 07:33:01.76	8.34	8.13	-50.7	-65.9	3.8	1.49e+00	0	40	104	559939584	72	21428
2026-01-12 07:33:02.47	8.24	8.10	-50.8	-65.9	3.8	1.49e+00	0	40	104	559939584	72	21443
2026-01-12 07:33:03.75	8.05	8.05	-50.7	-65.9	3.8	1.49e+00	0	40	104	559939584	72	21476
2026-01-12 07:33:04.46	7.95	8.02	-50.6	-65.9	3.8	1.49e+00	0	40	104	559939584	72	21442
2026-01-12 07:33:05.74	7.77	7.97	-50.6	-65.9	3.8	1.49e+00	0	40	104	559939584	72	21447
2026-01-12 07:33:06.45	7.66	7.94	-50.5	-65.9	3.8	1.49e+00	0	40	104	559939584	72	21342
2026-01-12 07:33:07.74	7.48	7.89	-50.6	-65.9	3.8	1.49e+00	0	40	104	559939584	72	21383
2026-01-12 07:33:08.45	7.38	7.86	-50.5	-65.9	3.8	1.49e+00	0	40	104	559939584	72	21409
2026-01-12 07:33:09.78	7.19	7.80	-50.5	-65.9	3.8	1.49e+00	0	40	104	559939584	72	21294
2026-01-12 07:33:10.48	7.09	7.77	-50.5	-65.9	3.8	1.49e+00	0	39	104	559939584	72	21312
2026-01-12 07:33:11.76	6.91	7.72	-50.5	-65.9	3.8	1.49e+00	0	39	104	559939584	72	21287
2026-01-12 07:33:12.49	6.81	7.69	-50.5	-65.9	3.8	1.49e+00	0	39	104	559939584	72	21305
2026-01-12 07:33:13.76	6.63	7.64	-50.5	-65.9	3.8	1.49e+00	0	40	104	559939584	72	21313
2026-01-12 07:33:14.47	6.53	7.61	-50.5	-65.8	3.8	1.49e+00	0	39	104	559939584	72	21244
2026-01-12 07:33:15.75	6.35	7.55	-50.5	-65.9	3.8	1.49e+00	0	40	104	559939584	72	21299
2026-01-12 07:33:16.47	6.25	7.52	-50.5	-65.9	3.8	1.49e+00	0	40	104	559939584	72	21297
2026-01-12 07:33:17.75	6.08	7.47	-50.5	-65.9	3.8	1.49e+00	0	40	104	559939584	72	21285
2026-01-12 07:33:18.46	5.98	7.44	-50.5	-65.8	3.8	1.49e+00	0	40	104	559939584	72	21244
2026-01-12 07:33:19.74	5.80	7.39	-50.5	-65.8	3.8	1.49e+00	0	40	104	559939584	72	21182
2026-01-12 07:33:20.45	5.70	7.36	-50.5	-65.9	3.8	1.49e+00	0	40	104	559939584	72	21280
2026-01-12 07:33:21.72	5.53	7.30	-50.5	-65.9	3.8	1.49e+00	0	40	104	559939584	72	21297
2026-01-12 07:33:22.45	5.43	7.27	-50.5	-65.9	3.8	1.49e+00	0	39	104	559939584	72	21266
2026-01-12 07:33:23.73	5.26	7.22	-50.5	-65.8	3.8	1.49e+00	0	40	104	559939584	72	21184
2026-01-12 07:33:24.44	5.16	7.19	-50.5	-65.9	3.8	1.49e+00	0	40	104	559939584	72	21281
2026-01-12 07:33:25.72	4.99	7.13	-50.5	-65.8	3.8	1.49e+00	0	39	104	559939584	72	21250
2026-01-12 07:33:26.43	4.89	7.10	-50.5	-65.9	3.8	1.49e+00	0	40	104	559939584	72	21302
2026-01-12 07:33:27.70	4.72	7.05	-50.5	-65.9	3.8	1.49e+00	0	39	104	559939584	72	21320
2026-01-12 07:33:28.43	4.62	7.02	-50.5	-65.8	3.8	1.49e+00	0	40	104	559939584	72	21154
2026-01-12 07:33:29.70	4.45	6.96	-50.5	-65.8	3.8	1.49e+00	0	40	104	559939584	72	21243
2026-01-12 07:33:30.41	4.36	6.93	-50.5	-65.8	3.8	1.49e+00	0	40	104	559939584	72	21229
2026-01-12 07:33:31.69	4.19	6.87	-50.5	-65.9	3.8	1.49e+00	0	40	104	559939584	72	21281
2026-01-12 07:33:32.40	4.09	6.84	-50.5	-65.9	3.8	1.49e+00	0	40	104	559939584	72	21290
2026-01-12 07:33:33.68	3.93	6.79	-50.5	-65.9	3.8	1.49e+00	0	40	104	559939584	72	21301
2026-01-12 07:33:34.39	3.83	6.76	-50.5	-65.8	3.8	1.49e+00	0	40	104	559939584	72	21254
2026-01-12 07:33:35.67	3.66	6.70	-50.5	-65.8	3.8	1.49e+00	0	40	104	559939584	72	21193
2026-01-12 07:33:36.38	3.57	6.67	-50.5	-65.8	3.8	1.49e+00	0	40	104	559939584	72	21174
2026-01-12 07:33:37.65	3.41	6.62	-50.5	-65.8	3.8	1.49e+00	0	40	104	559939584	72	21143
2026-01-12 07:33:38.36	3.31	6.59	-50.5	-65.8	3.8	1.49e+00	0	39	104	559939584	72	21217
2026-01-12 07:33:39.64	3.15	6.53	-50.5	-65.8	3.8	1.49e+00	0	40	104	559939584	72	21241
2026-01-12 07:33:40.36	3.05	6.50	-50.5	-65.8	3.8	1.49e+00	0	40	104	559939584	72	21201
2026-01-12 07:33:41.64	2.89	6.44	-50.5	-65.8	3.8	1.49e+00	0	40	104	559939584	72	21166
2026-01-12 07:33:42.35	2.80	6.41	-50.5	-65.8	3.8	1.49e+00	0	39	104	559939584	72	21226
2026-01-12 07:33:43.63	2.63	6.35	-50.5	-65.8	3.8	1.49e+00	0	40	104	559939584	72	21228
2026-01-12 07:33:44.34	2.54	6.32	-50.5	-65.8	3.8	1.49e+00	0	40	104	559939584	72	21117
2026-01-12 07:33:45.62	2.38	6.27	-50.5	-65.8	3.8	1.49e+00	0	39	104	559939584	72	21183
2026-01-12 07:33:46.33	2.29	6.24	-50.5	-65.8	3.8	1.49e+00	0	40	104	559939584	72	21229
2026-01-12 07:33:47.60	2.13	6.18	-50.5	-65.8	3.8	1.49e+00	0	40	104	559939584	72	21204
2026-01-12 07:33:48.31	2.04	6.15	-50.5	-65.8	3.8	1.49e+00	0	40	104	559939584	72	21243
2026-01-12 07:33:49.59	1.88	6.09	-50.5	-65.8	3.8	1.49e+00	0	40	104	559939584	72	21163
2026-01-12 07:33:50.30	1.79	6.06	-50.5	-65.8	3.8	1.49e+00	0	40	104	559939584	72	21216
2026-01-12 07:33:51.58	1.63	6.00	-50.5	-65.8	3.8	1.49e+00	0	40	104	559939584	72	21204
2026-01-12 07:33:52.29	1.54	5.97	-50.5	-65.8	3.8	1.49e+00	0	39	104	559939584	72	21209
2026-01-12 07:33:53.58	1.38	5.91	-50.5	-65.8	3.8	1.49e+00	0	39	104	559939584	72	21224
2026-01-12 07:33:54.29	1.29	5.88	-50.5	-65.8	3.8	1.49e+00	0	40	104	559939584	72	21224
2026-01-12 07:33:55.57	1.14	5.83	-50.5	-65.8	3.8	1.49e+00	0	40	104	559939584	72	21245
2026-01-12 07:33:56.28	1.05	5.79	-50.5	-65.8	3.8	1.49e+00	0	40	104	559939584	72	21181
2026-01-12 07:33:57.56	0.89	5.74	-50.5	-65.8	3.8	1.49e+00	0	39	104	559939584	72	21240
2026-01-12 07:33:58.28	0.80	5.70	-50.5	-65.8	3.8	1.49e+00	0	40	104	559939584	72	21208
2026-01-12 07:33:59.56	0.65	5.65	-50.5	-65.8	3.8	1.49e+00	0	39	104	559939584	72	21216
2026-01-12 07:34:00.28	0.56	5.62	-50.5	-65.8	3.8	1.49e+00	0	40	104	559939584	72	21224
2026-01-12 07:34:01.56	0.41	5.56	-50.5	-65.8	3.8	1.49e+00	0	39	104	559939584	72	21164
2026-01-12 07:34:02.27	0.32	5.53	-50.5	-65.8	3.8	1.49e+00	0	39	104	559939584	72	21185
2026-01-12 07:34:03.55	0.17	5.47	-50.5	-65.8	3.8	1.49e+00	0	39	104	559939584	72	21223
2026-01-12 07:34:04.26	0.08	5.44	-50.5	-65.9	3.8	1.49e+00	0	39	104	559939584	72	21278
2026-01-12 07:34:05.53	359.93	5.38	-50.5	-65.8	3.8	1.49e+00	0	39	104	559939584	72	21202
2026-01-12 07:34:06.25	359.84	5.35	-50.5	-65.8	3.8	1.49e+00	0	39	104	559939584	72	21163
2026-01-12 07:34:07.52	359.69	5.29	-50.5	-65.8	3.8	1.49e+00	0	40	104	559939584	72	21231
2026-01-12 07:34:08.23	359.61	5.26	-50.5	-65.8	3.8	1.49e+00	0	40	104	559939584	72	21132
2026-01-12 07:34:09.51	359.46	5.20	-50.5	-65.8	3.8	1.49e+00	0	40	104	559939584	72	21212
2026-01-12 07:34:10.22	359.37	5.17	-50.5	-65.8	3.8	1.49e+00	0	39	104	559939584	72	21237
2026-01-12 07:34:11.50	359.22	5.11	-50.5	-65.8	3.8	1.49e+00	0	40	104	559939584	72	21228
2026-01-12 07:34:12.20	359.14	5.08	-50.5	-65.8	3.8	1.49e+00	0	40	104	559939584	72	21201
2026-01-12 07:34:13.48	358.99	5.02	-50.5	-65.8	3.8	1.49e+00	0	39	104	559939584	72	21080
2026-01-12 07:34:14.21	358.91	4.99	-50.5	-65.9	3.8	1.49e+00	0	39	104	559939584	72	21261

#Closed at: 2026-01-12 07:34:15
#Recorded file [559 MB]: D:/Data/31040_260112_102602.dat