passes_logs/2026/01/12/T1/T1__20260112_223235_SUOMI_NPP_rec.log

#Pass ID: 20260112_223235_SUOMI NPP
#Satellite: SUOMI NPP
#Configuration: NPP
#almurnet v.1.7.20251203
#Start time: 2026-01-12 22:32:36

#Version: 2.0.20230620
#Station: T1
#Location: 37.570604 lon 55.790049 lat
#TLE: 1 37849U 11061A   26012.28456845  .00000093  00000+0  65163-4 0  9999
#TLE: 2 37849  98.7807 314.3566 0002508  68.3553 291.7890 14.19524725736322

#Time	Az	El	Level	Level2	SNR	BER	BlckErr	Temp	State	Recorded	gain1	gain2
2026-01-12 22:32:36.00	26.44	5.06	-51.6	-67.2	3.8	1.49e+00	0	41	0	0	75	20816
2026-01-12 22:32:36.99	26.51	5.13	-51.6	-67.2	3.8	1.49e+00	0	40	104	0	73	23340
2026-01-12 22:32:37.98	26.58	5.19	-51.6	-67.2	3.8	1.49e+00	0	41	104	0	73	23315
2026-01-12 22:32:38.98	26.65	5.25	-51.6	-67.1	3.8	1.49e+00	0	41	104	0	73	23280
2026-01-12 22:32:39.97	26.73	5.31	-51.6	-67.1	3.8	1.49e+00	0	41	104	0	73	23175
2026-01-12 22:32:40.96	26.80	5.38	-51.6	-67.1	3.8	1.49e+00	0	41	104	0	73	23185
2026-01-12 22:32:41.96	26.87	5.44	-51.6	-67.1	3.8	1.49e+00	0	41	104	0	73	23189
2026-01-12 22:32:42.95	26.94	5.50	-51.6	-67.1	3.8	1.49e+00	0	41	104	0	73	23225
2026-01-12 22:32:43.94	27.02	5.57	-51.6	-67.1	3.8	1.49e+00	0	41	104	0	73	23225
2026-01-12 22:32:44.94	27.09	5.63	-51.6	-67.1	3.8	1.49e+00	0	41	104	0	73	23193
2026-01-12 22:32:45.93	27.16	5.69	-51.6	-67.1	3.8	1.49e+00	0	41	104	0	73	23122
2026-01-12 22:32:46.92	27.24	5.76	-51.6	-67.1	3.8	1.49e+00	0	41	104	0	73	23208
2026-01-12 22:32:47.92	27.31	5.82	-51.6	-67.1	3.8	1.49e+00	0	41	104	0	73	23191
2026-01-12 22:32:48.91	27.39	5.88	-51.6	-67.1	3.8	1.49e+00	0	41	104	0	73	23233
2026-01-12 22:32:49.90	27.46	5.95	-51.6	-67.1	3.8	1.49e+00	0	41	104	0	73	23292
2026-01-12 22:32:50.89	27.54	6.01	-51.6	-67.1	3.8	1.49e+00	0	41	104	0	73	23237
2026-01-12 22:32:51.89	27.61	6.08	-51.6	-67.1	3.8	1.49e+00	0	41	104	0	73	23169
2026-01-12 22:32:52.88	27.69	6.14	-51.6	-67.1	3.8	1.49e+00	0	41	104	0	73	23214
2026-01-12 22:32:53.88	27.76	6.21	-51.6	-67.1	3.8	1.49e+00	0	41	104	0	73	23093
2026-01-12 22:32:54.87	27.84	6.27	-51.6	-67.1	3.8	1.49e+00	0	41	104	0	73	23082
2026-01-12 22:32:55.86	27.92	6.33	-51.6	-67.0	3.8	1.49e+00	0	41	104	0	73	23001
2026-01-12 22:32:56.86	27.99	6.40	-51.6	-67.0	3.8	1.49e+00	0	41	104	0	73	23004
2026-01-12 22:32:57.85	28.07	6.46	-51.6	-67.0	3.8	1.49e+00	0	41	104	0	73	23034
2026-01-12 22:32:58.84	28.15	6.53	-51.6	-67.0	3.8	1.49e+00	0	41	104	0	73	23012
2026-01-12 22:32:59.84	28.23	6.59	-51.6	-67.1	3.8	1.49e+00	0	42	104	0	73	23100
2026-01-12 22:33:00.83	28.31	6.66	-51.6	-67.1	3.8	1.49e+00	0	41	104	0	73	23104
2026-01-12 22:33:01.82	28.38	6.72	-51.6	-67.0	3.8	1.49e+00	0	41	104	0	73	23033
2026-01-12 22:33:02.82	28.46	6.79	-51.6	-67.0	3.8	1.49e+00	0	42	104	0	73	22996
2026-01-12 22:33:03.81	28.54	6.86	-51.6	-67.0	3.8	1.49e+00	0	42	104	0	73	23025
2026-01-12 22:33:04.80	28.62	6.92	-51.6	-67.0	3.8	1.49e+00	0	42	104	0	73	22919
2026-01-12 22:33:05.79	28.70	6.99	-51.6	-67.0	3.8	1.49e+00	0	42	104	0	73	23038
2026-01-12 22:33:06.79	28.78	7.05	-51.6	-67.0	3.8	1.49e+00	0	42	104	0	73	22832
2026-01-12 22:33:07.78	28.86	7.12	-51.6	-67.0	3.8	1.49e+00	0	42	104	0	73	22954
2026-01-12 22:33:08.78	28.95	7.19	-51.6	-67.0	3.8	1.49e+00	0	42	104	0	73	23002
2026-01-12 22:33:09.77	29.03	7.25	-51.6	-67.1	3.8	1.49e+00	0	42	104	0	73	23135
2026-01-12 22:33:10.76	29.11	7.32	-51.6	-67.1	3.8	1.49e+00	0	42	104	0	73	23079
2026-01-12 22:33:11.76	29.19	7.39	-51.6	-67.0	3.8	1.49e+00	0	42	104	0	73	23041
2026-01-12 22:33:12.75	29.27	7.45	-51.6	-67.1	3.8	1.49e+00	0	42	104	0	73	23178
2026-01-12 22:33:13.74	29.36	7.52	-51.6	-67.1	3.8	1.49e+00	0	42	104	0	73	23228
2026-01-12 22:33:14.74	29.44	7.59	-51.6	-67.1	3.8	1.49e+00	0	42	104	0	73	23177
2026-01-12 22:33:15.73	29.52	7.65	-51.6	-67.1	3.8	1.49e+00	0	42	104	0	73	23303
2026-01-12 22:33:16.72	29.61	7.72	-51.6	-67.1	3.8	1.49e+00	0	42	104	0	73	23192
2026-01-12 22:33:17.72	29.69	7.79	-51.6	-67.1	3.8	1.49e+00	0	42	104	0	73	23176
2026-01-12 22:33:18.71	29.78	7.86	-51.6	-67.0	3.8	1.49e+00	0	42	104	0	73	23007
2026-01-12 22:33:19.70	29.86	7.92	-51.6	-67.0	3.8	1.49e+00	0	42	104	0	73	22965
2026-01-12 22:33:20.70	29.95	7.99	-51.6	-67.0	3.8	1.49e+00	0	42	104	0	73	22792
2026-01-12 22:33:21.69	30.03	8.06	-51.6	-67.0	3.8	1.49e+00	0	42	104	0	73	22871
2026-01-12 22:33:22.68	30.12	8.13	-51.6	-67.0	3.8	1.49e+00	0	42	104	0	73	22791
2026-01-12 22:33:23.68	30.21	8.20	-51.6	-66.9	3.8	1.49e+00	0	42	104	0	73	22647
2026-01-12 22:33:24.67	30.29	8.26	-51.6	-66.8	3.8	1.49e+00	0	42	104	0	73	22409
2026-01-12 22:33:25.66	30.38	8.33	-51.6	-66.7	3.8	1.49e+00	0	42	104	0	73	22229
2026-01-12 22:33:26.66	30.47	8.40	-51.6	-66.8	3.8	1.49e+00	0	42	104	0	73	22342
2026-01-12 22:33:27.65	30.56	8.47	-51.6	-66.9	3.8	1.49e+00	0	42	104	0	73	22574
2026-01-12 22:33:28.64	30.65	8.54	-51.6	-67.0	3.8	1.49e+00	0	42	104	0	73	22944
2026-01-12 22:33:29.64	30.74	8.61	-51.6	-67.1	3.8	1.49e+00	0	42	104	0	73	23105
2026-01-12 22:33:30.63	30.82	8.68	-51.6	-67.1	3.8	1.49e+00	0	42	104	0	73	23210
2026-01-12 22:33:31.62	30.91	8.75	-51.6	-67.0	3.8	1.49e+00	0	42	104	0	73	22932
2026-01-12 22:33:32.62	31.00	8.82	-51.6	-66.8	3.8	1.49e+00	0	42	104	0	73	22421
2026-01-12 22:33:33.61	31.09	8.89	-51.6	-66.6	3.8	1.49e+00	0	42	104	0	73	21789
2026-01-12 22:33:34.60	31.19	8.96	-51.5	-66.4	3.8	1.49e+00	0	42	104	0	73	21455
2026-01-12 22:33:35.60	31.28	9.03	-51.5	-66.1	3.8	1.49e+00	0	42	104	0	73	20770
2026-01-12 22:33:36.59	31.37	9.10	-51.6	-66.3	3.8	1.49e+00	0	42	104	0	73	21047
2026-01-12 22:33:37.59	31.46	9.17	-51.8	-66.5	3.8	1.49e+00	0	42	104	0	74	20480
2026-01-12 22:33:38.58	31.55	9.24	-51.7	-65.2	3.9	1.49e+00	0	42	104	0	74	17484
2026-01-12 22:33:39.58	31.65	9.31	-51.1	-59.6	6.5	4.29e-02	0	42	0	1048576	73	9749
2026-01-12 22:33:40.57	31.74	9.38	-50.4	-56.8	8.8	4.57e-01	0	42	0	3145728	72	7536
2026-01-12 22:33:41.57	31.84	9.45	-49.6	-54.6	11.3	1.41e-03	0	42	0	4194304	71	6176
2026-01-12 22:33:42.56	31.93	9.52	-49.7	-54.9	11.0	1.24e-03	0	43	0	6291456	71	6400
2026-01-12 22:33:43.56	32.03	9.59	-49.6	-54.6	11.3	1.36e-03	0	42	0	8388608	71	6170
2026-01-12 22:33:44.55	32.12	9.66	-49.1	-53.7	12.2	7.45e-04	0	42	0	10485760	70	5884
2026-01-12 22:33:45.55	32.22	9.73	-48.7	-52.9	13.0	8.16e-05	0	42	0	11534336	69	5716
2026-01-12 22:33:46.54	32.31	9.80	-48.5	-52.6	13.4	2.67e-05	0	42	0	13631488	68	5829
2026-01-12 22:33:47.53	32.41	9.88	-48.4	-52.6	13.4	6.80e-06	0	42	0	15728640	68	5805
2026-01-12 22:33:48.53	32.51	9.95	-48.4	-52.4	13.6	1.06e-05	0	42	0	17825792	68	5704
2026-01-12 22:33:49.52	32.60	10.02	-48.3	-52.3	13.7	3.80e-06	0	42	0	19922944	68	5608
2026-01-12 22:33:50.52	32.70	10.09	-48.4	-52.5	13.5	6.10e-06	0	42	0	20971520	68	5741
2026-01-12 22:33:51.52	32.80	10.16	-48.3	-52.1	13.8	2.20e-06	0	43	0	23068672	68	5518
2026-01-12 22:33:52.51	32.90	10.24	-48.2	-52.1	13.9	7.00e-07	0	42	0	25165824	68	5483
2026-01-12 22:33:53.51	33.00	10.31	-48.2	-52.3	13.7	5.30e-06	0	42	0	27262976	68	5617
2026-01-12 22:33:54.50	33.10	10.38	-48.1	-52.1	13.9	2.20e-06	0	43	0	28311552	68	5503
2026-01-12 22:33:55.50	33.20	10.45	-48.0	-52.0	14.0	6.80e-06	0	43	0	30408704	68	5428
2026-01-12 22:33:56.49	33.30	10.53	-48.1	-52.1	13.9	3.80e-06	0	42	0	32505856	68	5467
2026-01-12 22:33:57.49	33.40	10.60	-48.2	-52.1	13.9	6.80e-06	0	42	0	34603008	68	5505
2026-01-12 22:33:58.48	33.51	10.67	-48.4	-52.4	13.7	6.80e-06	0	42	0	36700160	68	5672
2026-01-12 22:33:59.48	33.61	10.75	-48.3	-52.1	14.0	1.50e-06	0	43	0	37748736	68	5482
2026-01-12 22:34:00.47	33.71	10.82	-48.2	-52.0	14.0	3.00e-06	0	43	0	39845888	68	5443
2026-01-12 22:34:01.47	33.82	10.89	-48.3	-52.1	13.9	1.50e-06	0	43	0	41943040	68	5510
2026-01-12 22:34:02.46	33.92	10.97	-48.2	-52.1	13.9	6.10e-06	0	42	0	44040192	68	5486
2026-01-12 22:34:03.45	34.02	11.04	-48.2	-52.1	14.0	7.00e-07	0	43	0	45088768	68	5479
2026-01-12 22:34:04.45	34.13	11.12	-48.2	-52.1	14.0	7.00e-07	0	43	0	47185920	68	5474
2026-01-12 22:34:05.44	34.23	11.19	-48.1	-52.0	14.1	7.00e-07	0	43	0	49283072	68	5410
2026-01-12 22:34:06.44	34.34	11.26	-48.1	-51.9	14.1	2.20e-06	0	43	0	51380224	68	5399
2026-01-12 22:34:07.43	34.45	11.34	-48.2	-51.9	14.1	2.20e-06	0	43	0	53477376	68	5388
2026-01-12 22:34:08.43	34.55	11.41	-48.1	-51.7	14.3	0.00e+00	0	43	0	54525952	68	5272
2026-01-12 22:34:09.42	34.66	11.49	-48.2	-51.9	14.2	3.80e-06	0	43	0	56623104	68	5346
2026-01-12 22:34:10.42	34.77	11.56	-48.2	-51.8	14.2	3.00e-06	0	43	0	58720256	68	5333
2026-01-12 22:34:11.41	34.88	11.64	-48.1	-51.6	14.5	7.00e-07	0	43	0	60817408	68	5179
2026-01-12 22:34:12.40	34.99	11.71	-48.1	-51.6	14.5	0.00e+00	0	43	0	61865984	68	5175
2026-01-12 22:34:13.40	35.10	11.79	-48.1	-51.7	14.4	2.20e-06	0	42	0	63963136	68	5224
2026-01-12 22:34:14.39	35.21	11.86	-48.0	-51.5	14.6	7.00e-07	0	43	0	66060288	68	5134
2026-01-12 22:34:15.39	35.32	11.94	-47.8	-51.3	14.5	0.00e+00	0	43	0	68157440	67	5340
2026-01-12 22:34:16.38	35.43	12.01	-48.0	-51.6	14.3	7.00e-07	0	43	0	70254592	67	5521
2026-01-12 22:34:17.38	35.54	12.09	-47.6	-51.2	14.7	1.50e-06	0	43	0	71303168	67	5245
2026-01-12 22:34:18.37	35.65	12.17	-47.6	-51.1	14.8	0.00e+00	0	43	0	73400320	67	5206
2026-01-12 22:34:19.37	35.77	12.24	-47.7	-51.3	14.6	7.00e-07	0	43	0	75497472	67	5303
2026-01-12 22:34:20.36	35.88	12.32	-47.6	-51.2	14.7	0.00e+00	0	43	0	77594624	67	5242
2026-01-12 22:34:21.35	35.99	12.40	-47.7	-51.3	14.6	0.00e+00	0	43	0	78643200	67	5324
2026-01-12 22:34:22.35	36.11	12.47	-47.7	-51.2	14.8	0.00e+00	0	43	0	80740352	67	5239
2026-01-12 22:34:23.34	36.22	12.55	-47.7	-51.3	14.6	0.00e+00	0	43	0	82837504	67	5313
2026-01-12 22:34:24.34	36.34	12.63	-47.8	-51.4	14.5	1.50e-06	0	43	0	84934656	67	5374
2026-01-12 22:34:25.33	36.45	12.70	-47.8	-51.3	14.6	0.00e+00	0	43	0	87031808	67	5329
2026-01-12 22:34:26.33	36.57	12.78	-47.7	-51.2	14.7	0.00e+00	0	43	0	88080384	67	5248
2026-01-12 22:34:27.52	36.71	12.87	-47.9	-51.5	14.5	7.00e-07	0	43	0	90177536	67	5405
2026-01-12 22:34:28.41	36.82	12.94	-47.7	-51.3	14.6	7.00e-07	0	43	0	92274688	67	5306
2026-01-12 22:34:29.55	36.95	13.03	-47.5	-51.0	14.9	7.00e-07	0	43	0	94371840	67	5137
2026-01-12 22:34:30.40	37.06	13.10	-47.5	-51.0	14.9	0.00e+00	0	43	0	96468992	66	5428
2026-01-12 22:34:31.54	37.19	13.19	-47.5	-51.1	14.8	0.00e+00	0	43	0	98566144	66	5478
2026-01-12 22:34:32.39	37.30	13.25	-47.3	-50.7	15.2	0.00e+00	0	43	0	99614720	66	5243
2026-01-12 22:34:33.53	37.44	13.34	-47.2	-50.6	15.3	0.00e+00	0	43	0	101711872	66	5194
2026-01-12 22:34:34.38	37.54	13.41	-47.4	-50.9	15.0	0.00e+00	0	43	0	103809024	66	5394
2026-01-12 22:34:35.52	37.68	13.50	-47.6	-51.2	14.7	7.00e-07	0	43	0	105906176	66	5551
2026-01-12 22:34:36.37	37.79	13.57	-47.3	-50.7	15.2	0.00e+00	0	43	0	106954752	66	5260
2026-01-12 22:34:37.50	37.93	13.66	-47.3	-50.8	15.1	0.00e+00	0	43	0	109051904	66	5303
2026-01-12 22:34:38.36	38.03	13.72	-47.4	-50.9	15.0	0.00e+00	0	43	0	111149056	66	5387
2026-01-12 22:34:39.49	38.18	13.81	-47.4	-50.8	15.1	0.00e+00	0	43	0	113246208	66	5330
2026-01-12 22:34:40.34	38.28	13.88	-47.6	-51.1	14.8	7.00e-07	0	43	0	114294784	66	5527
2026-01-12 22:34:41.48	38.43	13.97	-47.7	-51.2	14.7	0.00e+00	0	43	0	116391936	66	5587
2026-01-12 22:34:42.33	38.54	14.04	-47.8	-51.3	14.7	7.00e-07	0	43	0	118489088	66	5642
2026-01-12 22:34:43.60	38.70	14.14	-47.8	-51.3	14.7	7.00e-07	0	43	0	120586240	66	5599
2026-01-12 22:34:44.39	38.80	14.20	-47.8	-51.3	14.7	0.00e+00	0	43	0	122683392	66	5654
2026-01-12 22:34:45.60	38.96	14.30	-47.8	-51.4	14.6	1.50e-06	0	43	0	124780544	66	5682
2026-01-12 22:34:46.45	39.07	14.37	-48.0	-51.6	14.4	0.00e+00	0	43	0	125829120	66	5827
2026-01-12 22:34:47.59	39.22	14.46	-47.9	-51.6	14.5	0.00e+00	0	43	0	127926272	66	5799
2026-01-12 22:34:48.44	39.33	14.53	-47.8	-51.4	14.7	0.00e+00	0	43	0	130023424	66	5660
2026-01-12 22:34:49.58	39.48	14.62	-47.9	-51.4	14.7	0.00e+00	0	43	0	132120576	66	5696
2026-01-12 22:34:50.43	39.60	14.69	-47.9	-51.3	14.7	7.00e-07	0	43	0	133169152	66	5639
2026-01-12 22:34:51.57	39.75	14.78	-48.1	-51.6	14.3	7.00e-07	0	43	0	135266304	67	5526
2026-01-12 22:34:52.42	39.86	14.85	-47.9	-51.3	14.7	7.00e-07	0	43	0	137363456	67	5331
2026-01-12 22:34:53.56	40.02	14.94	-47.9	-51.2	14.8	0.00e+00	0	43	0	139460608	67	5269
2026-01-12 22:34:54.41	40.13	15.01	-47.8	-51.1	14.9	0.00e+00	0	43	0	141557760	67	5192
2026-01-12 22:34:55.55	40.29	15.11	-47.8	-51.1	14.9	0.00e+00	0	43	0	143654912	67	5175
2026-01-12 22:34:56.40	40.41	15.18	-47.8	-51.1	14.9	0.00e+00	0	43	0	144703488	67	5195
2026-01-12 22:34:57.54	40.56	15.27	-47.8	-51.1	14.9	0.00e+00	0	43	0	146800640	67	5204
2026-01-12 22:34:58.39	40.68	15.34	-47.7	-50.9	15.1	0.00e+00	0	43	0	148897792	67	5078
2026-01-12 22:34:59.53	40.84	15.43	-47.7	-50.9	15.1	0.00e+00	0	43	0	150994944	67	5080
2026-01-12 22:35:00.38	40.96	15.50	-47.6	-50.9	15.2	0.00e+00	0	43	0	152043520	67	5043
2026-01-12 22:35:01.52	41.12	15.60	-47.4	-50.5	15.5	0.00e+00	0	43	0	154140672	66	5148
2026-01-12 22:35:02.37	41.24	15.67	-47.4	-50.5	15.5	0.00e+00	0	43	0	156237824	66	5158
2026-01-12 22:35:03.62	41.42	15.77	-47.4	-50.4	15.6	7.00e-07	0	43	0	158334976	66	5090
2026-01-12 22:35:04.47	41.54	15.84	-47.3	-50.4	15.6	0.00e+00	0	43	0	160432128	66	5089
2026-01-12 22:35:05.67	41.72	15.94	-47.4	-50.5	15.6	0.00e+00	0	43	0	162529280	66	5113
2026-01-12 22:35:06.52	41.84	16.01	-47.3	-50.4	15.6	0.00e+00	0	43	0	163577856	66	5056
2026-01-12 22:35:07.66	42.01	16.10	-47.3	-50.3	15.7	0.00e+00	0	43	0	165675008	66	5038
2026-01-12 22:35:08.52	42.13	16.17	-47.2	-50.2	15.9	0.00e+00	0	43	0	167772160	66	4927
2026-01-12 22:35:09.65	42.30	16.27	-47.0	-49.9	16.1	7.00e-07	0	43	0	169869312	65	5066
2026-01-12 22:35:10.51	42.43	16.34	-46.9	-49.8	16.2	0.00e+00	0	43	0	170917888	65	5009
2026-01-12 22:35:11.64	42.59	16.43	-47.1	-50.1	15.9	0.00e+00	0	43	0	173015040	65	5177
2026-01-12 22:35:12.59	42.74	16.51	-46.8	-49.7	16.3	0.00e+00	0	43	0	175112192	65	4966
2026-01-12 22:35:13.76	42.91	16.61	-46.9	-49.8	16.2	0.00e+00	0	43	0	177209344	65	4989
2026-01-12 22:35:14.61	43.04	16.68	-47.0	-50.0	16.1	0.00e+00	0	43	0	179306496	65	5108
2026-01-12 22:35:15.97	43.25	16.80	-46.9	-49.8	16.2	0.00e+00	0	43	0	181403648	65	5016
2026-01-12 22:35:16.68	43.36	16.86	-47.0	-49.9	16.2	0.00e+00	0	43	0	182452224	65	5061
2026-01-12 22:35:18.17	43.59	16.98	-47.2	-50.2	15.9	0.00e+00	0	43	0	185597952	65	5221
2026-01-12 22:35:19.14	43.74	17.06	-47.2	-50.3	15.8	0.00e+00	0	43	0	187695104	65	5291
2026-01-12 22:35:20.45	43.94	17.17	-47.2	-50.2	15.8	0.00e+00	0	43	0	189792256	65	5277
2026-01-12 22:35:21.20	44.06	17.24	-47.3	-50.3	15.8	0.00e+00	0	43	0	190840832	65	5322
2026-01-12 22:35:22.47	44.26	17.34	-47.3	-50.4	15.6	0.00e+00	0	43	0	193986560	65	5372
2026-01-12 22:35:23.19	44.38	17.41	-47.2	-50.3	15.7	0.00e+00	0	43	0	195035136	65	5299
2026-01-12 22:35:24.83	44.64	17.54	-47.3	-50.4	15.7	0.00e+00	0	43	0	198180864	65	5373
2026-01-12 22:35:25.40	44.73	17.59	-47.3	-50.3	15.7	0.00e+00	0	43	0	199229440	65	5328
2026-01-12 22:35:27.10	45.00	17.74	-47.2	-50.2	15.8	0.00e+00	0	43	0	202375168	65	5270
2026-01-12 22:35:27.73	45.11	17.79	-47.2	-50.2	15.9	0.00e+00	0	43	0	203423744	65	5227
2026-01-12 22:35:29.26	45.36	17.92	-47.0	-50.0	16.0	0.00e+00	0	43	0	206569472	65	5140
2026-01-12 22:35:29.98	45.48	17.98	-47.1	-50.1	15.9	0.00e+00	0	43	0	207618048	65	5173
2026-01-12 22:35:31.25	45.69	18.09	-47.0	-49.9	16.1	0.00e+00	0	43	0	209715200	65	5078
2026-01-12 22:35:31.96	45.81	18.15	-46.8	-49.7	16.4	0.00e+00	0	43	0	211812352	65	4942
2026-01-12 22:35:33.24	46.02	18.26	-46.8	-49.7	16.3	0.00e+00	0	43	0	213909504	65	4954
2026-01-12 22:35:33.98	46.14	18.32	-46.9	-49.8	16.3	0.00e+00	0	43	0	214958080	65	5002
2026-01-12 22:35:35.26	46.36	18.43	-46.7	-49.6	16.5	0.00e+00	0	43	0	218103808	65	4872
2026-01-12 22:35:36.18	46.52	18.51	-46.7	-49.6	16.5	0.00e+00	0	43	0	219152384	65	4878
2026-01-12 22:35:37.47	46.74	18.62	-46.6	-49.4	16.6	0.00e+00	0	43	0	222298112	65	4775
2026-01-12 22:35:38.19	46.86	18.68	-46.7	-49.5	16.6	0.00e+00	0	43	0	223346688	65	4824
2026-01-12 22:35:39.81	47.14	18.82	-46.5	-49.3	16.8	0.00e+00	0	43	0	226492416	64	4991
2026-01-12 22:35:40.38	47.24	18.87	-46.6	-49.3	16.6	0.00e+00	0	43	0	227540992	64	5039
2026-01-12 22:35:42.07	47.54	19.01	-46.6	-49.4	16.6	0.00e+00	0	43	0	230686720	64	5045
2026-01-12 22:35:42.64	47.64	19.06	-46.7	-49.6	16.5	0.00e+00	0	43	0	231735296	64	5170
2026-01-12 22:35:44.35	47.95	19.21	-46.9	-49.8	16.3	0.00e+00	0	43	0	234881024	64	5282
2026-01-12 22:35:44.92	48.05	19.26	-47.0	-49.9	16.2	0.00e+00	0	43	0	235929600	64	5373
2026-01-12 22:35:46.63	48.36	19.41	-46.9	-49.8	16.3	0.00e+00	0	43	0	239075328	64	5287
2026-01-12 22:35:47.34	48.48	19.47	-46.9	-49.8	16.2	0.00e+00	0	43	0	240123904	64	5335
2026-01-12 22:35:48.62	48.72	19.58	-46.7	-49.6	16.5	0.00e+00	0	43	0	242221056	64	5166
2026-01-12 22:35:49.58	48.89	19.66	-46.7	-49.5	16.5	0.00e+00	0	43	0	244318208	64	5128
2026-01-12 22:35:50.57	49.08	19.74	-46.7	-49.5	16.5	0.00e+00	0	43	0	246415360	64	5134
2026-01-12 22:35:51.57	49.26	19.83	-46.8	-49.7	16.4	0.00e+00	0	43	0	248512512	64	5229
2026-01-12 22:35:52.56	49.45	19.92	-46.8	-49.6	16.5	0.00e+00	0	43	0	250609664	64	5183
2026-01-12 22:35:53.56	49.63	20.00	-46.8	-49.6	16.5	0.00e+00	0	43	0	251658240	64	5205
2026-01-12 22:35:54.55	49.82	20.09	-46.7	-49.6	16.5	0.00e+00	0	43	0	253755392	64	5161
2026-01-12 22:35:55.55	50.01	20.17	-46.9	-49.8	16.3	0.00e+00	0	43	0	255852544	64	5297
2026-01-12 22:35:56.54	50.20	20.26	-46.9	-49.8	16.3	0.00e+00	0	43	0	257949696	64	5299
2026-01-12 22:35:57.54	50.39	20.34	-46.8	-49.7	16.4	0.00e+00	0	43	0	258998272	64	5222
2026-01-12 22:35:58.54	50.58	20.43	-46.8	-49.7	16.4	0.00e+00	0	43	0	261095424	64	5247
2026-01-12 22:35:59.54	50.78	20.51	-46.7	-49.5	16.6	0.00e+00	0	43	0	263192576	64	5125
2026-01-12 22:36:00.54	50.97	20.60	-46.8	-49.6	16.5	0.00e+00	0	43	0	265289728	64	5162
2026-01-12 22:36:01.53	51.16	20.69	-46.7	-49.4	16.7	0.00e+00	0	43	0	267386880	64	5100
2026-01-12 22:36:02.52	51.36	20.77	-46.9	-49.7	16.4	0.00e+00	0	43	0	268435456	64	5266
2026-01-12 22:36:03.52	51.56	20.86	-46.9	-49.8	16.3	0.00e+00	0	43	0	270532608	64	5292
2026-01-12 22:36:04.51	51.75	20.94	-46.9	-49.7	16.4	0.00e+00	0	43	0	272629760	64	5270
2026-01-12 22:36:05.51	51.95	21.03	-46.9	-49.8	16.4	0.00e+00	0	43	0	274726912	64	5285
2026-01-12 22:36:06.50	52.15	21.11	-46.7	-49.5	16.6	0.00e+00	0	43	0	275775488	64	5136
2026-01-12 22:36:07.50	52.36	21.20	-46.8	-49.6	16.4	0.00e+00	0	43	0	277872640	64	5207
2026-01-12 22:36:08.49	52.56	21.28	-46.7	-49.6	16.6	0.00e+00	0	43	0	279969792	64	5162
2026-01-12 22:36:09.49	52.76	21.37	-46.7	-49.5	16.6	0.00e+00	0	43	0	282066944	64	5114
2026-01-12 22:36:10.48	52.97	21.45	-46.8	-49.6	16.5	0.00e+00	0	43	0	284164096	64	5174
2026-01-12 22:36:11.48	53.17	21.54	-46.7	-49.5	16.6	0.00e+00	0	43	0	285212672	64	5117
2026-01-12 22:36:12.48	53.38	21.62	-46.8	-49.7	16.4	0.00e+00	0	43	0	287309824	64	5232
2026-01-12 22:36:13.47	53.59	21.71	-46.7	-49.5	16.6	0.00e+00	0	43	0	289406976	64	5117
2026-01-12 22:36:14.46	53.79	21.79	-46.8	-49.6	16.5	0.00e+00	0	43	0	291504128	64	5180
2026-01-12 22:36:15.46	54.01	21.88	-46.8	-49.7	16.4	0.00e+00	0	43	0	293601280	64	5245
2026-01-12 22:36:16.46	54.22	21.96	-46.7	-49.5	16.6	0.00e+00	0	43	0	294649856	64	5141
2026-01-12 22:36:17.45	54.43	22.04	-46.7	-49.5	16.6	0.00e+00	0	43	0	296747008	64	5120
2026-01-12 22:36:18.45	54.64	22.13	-46.7	-49.5	16.6	0.00e+00	0	43	0	298844160	64	5116
2026-01-12 22:36:19.44	54.86	22.21	-46.8	-49.6	16.5	0.00e+00	0	43	0	300941312	64	5196
2026-01-12 22:36:20.44	55.07	22.30	-46.8	-49.6	16.5	0.00e+00	0	43	0	301989888	64	5197
2026-01-12 22:36:21.43	55.29	22.38	-46.9	-49.8	16.3	0.00e+00	0	43	0	304087040	64	5303
2026-01-12 22:36:22.43	55.51	22.46	-46.8	-49.6	16.6	0.00e+00	0	43	0	306184192	64	5169
2026-01-12 22:36:23.42	55.73	22.55	-46.9	-49.7	16.4	0.00e+00	0	43	0	308281344	64	5264
2026-01-12 22:36:24.42	55.95	22.63	-46.9	-49.7	16.4	0.00e+00	0	43	0	310378496	64	5233
2026-01-12 22:36:25.41	56.17	22.71	-46.7	-49.5	16.6	0.00e+00	0	43	0	311427072	64	5127
2026-01-12 22:36:26.41	56.39	22.80	-46.7	-49.5	16.6	0.00e+00	0	43	0	313524224	64	5134
2026-01-12 22:36:27.40	56.61	22.88	-46.9	-49.7	16.4	0.00e+00	0	43	0	315621376	64	5259
2026-01-12 22:36:28.40	56.84	22.96	-46.7	-49.5	16.6	0.00e+00	0	43	0	317718528	64	5128
2026-01-12 22:36:29.39	57.07	23.04	-46.7	-49.4	16.7	0.00e+00	0	43	0	318767104	64	5090
2026-01-12 22:36:30.39	57.29	23.13	-46.7	-49.5	16.6	0.00e+00	0	43	0	320864256	64	5104
2026-01-12 22:36:31.38	57.52	23.21	-46.6	-49.3	16.8	0.00e+00	0	43	0	322961408	64	5028
2026-01-12 22:36:32.46	57.77	23.30	-46.5	-49.2	16.9	0.00e+00	0	43	0	325058560	64	4964
2026-01-12 22:36:33.34	57.98	23.37	-46.5	-49.2	16.9	0.00e+00	0	43	0	326107136	64	4951
2026-01-12 22:36:34.48	58.24	23.46	-46.6	-49.3	16.7	0.00e+00	0	43	0	328204288	64	5040
2026-01-12 22:36:35.33	58.44	23.53	-46.8	-49.5	16.6	0.00e+00	0	43	0	330301440	64	5134
2026-01-12 22:36:36.68	58.76	23.64	-46.9	-49.7	16.4	0.00e+00	0	43	0	332398592	64	5263
2026-01-12 22:36:37.38	58.93	23.70	-47.1	-50.1	16.1	0.00e+00	0	43	0	334495744	64	5473
2026-01-12 22:36:38.85	59.28	23.82	-47.3	-50.4	15.8	0.00e+00	0	43	0	336592896	65	5346
2026-01-12 22:36:39.56	59.45	23.88	-47.3	-50.3	15.9	0.00e+00	0	43	0	338690048	65	5292
2026-01-12 22:36:40.84	59.75	23.98	-47.5	-50.6	15.5	0.00e+00	0	43	0	340787200	65	5520
2026-01-12 22:36:41.55	59.93	24.04	-47.2	-50.1	16.0	0.00e+00	0	43	0	341835776	65	5192
2026-01-12 22:36:42.83	60.24	24.14	-47.0	-49.9	16.3	0.00e+00	0	43	0	343932928	65	5055
2026-01-12 22:36:43.56	60.42	24.20	-47.0	-49.9	16.2	0.00e+00	0	43	0	346030080	65	5078
2026-01-12 22:36:44.84	60.73	24.30	-46.8	-49.5	16.6	0.00e+00	0	43	0	348127232	65	4867
2026-01-12 22:36:45.55	60.91	24.35	-46.7	-49.4	16.7	0.00e+00	0	43	0	349175808	65	4807
2026-01-12 22:36:46.83	61.22	24.45	-46.7	-49.5	16.6	0.00e+00	0	43	0	352321536	65	4841
2026-01-12 22:36:47.54	61.40	24.51	-46.7	-49.4	16.7	0.00e+00	0	43	0	353370112	65	4781
2026-01-12 22:36:48.82	61.72	24.61	-46.6	-49.3	16.8	0.00e+00	0	43	0	355467264	65	4727
2026-01-12 22:36:49.56	61.91	24.67	-46.6	-49.3	16.8	0.00e+00	0	43	0	356515840	65	4739
2026-01-12 22:36:50.84	62.23	24.77	-46.6	-49.4	16.8	0.00e+00	0	43	0	359661568	64	5053
2026-01-12 22:36:51.60	62.42	24.82	-47.0	-49.9	16.3	0.00e+00	0	43	0	360710144	64	5341
2026-01-12 22:36:52.88	62.75	24.92	-47.2	-50.2	15.9	0.00e+00	0	43	0	362807296	65	5265
2026-01-12 22:36:53.60	62.94	24.98	-47.3	-50.4	15.8	0.00e+00	0	43	0	364904448	65	5374
2026-01-12 22:36:54.88	63.27	25.07	-47.2	-50.2	16.0	0.00e+00	0	43	0	367001600	65	5247
2026-01-12 22:36:55.61	63.46	25.13	-47.0	-50.0	16.2	0.00e+00	0	43	0	368050176	65	5105
2026-01-12 22:36:56.89	63.79	25.23	-46.7	-49.5	16.6	0.00e+00	0	43	0	371195904	65	4839
2026-01-12 22:36:57.61	63.98	25.28	-46.6	-49.4	16.8	0.00e+00	0	43	0	372244480	65	4760
2026-01-12 22:36:58.89	64.31	25.37	-46.6	-49.3	16.8	0.00e+00	0	43	0	374341632	65	4722
2026-01-12 22:36:59.62	64.51	25.43	-46.8	-49.6	16.5	0.00e+00	0	43	0	375390208	65	4914
2026-01-12 22:37:00.89	64.84	25.52	-47.4	-50.5	15.7	0.00e+00	0	43	0	378535936	65	5417
2026-01-12 22:37:01.63	65.04	25.58	-47.8	-51.1	15.2	0.00e+00	0	43	0	379584512	66	5474
2026-01-12 22:37:02.91	65.38	25.67	-47.9	-51.1	15.1	0.00e+00	0	43	0	381681664	66	5517
2026-01-12 22:37:03.62	65.58	25.72	-47.8	-50.9	15.3	0.00e+00	0	43	0	383778816	66	5398
2026-01-12 22:37:05.12	65.98	25.83	-47.6	-50.7	15.5	0.00e+00	0	43	0	385875968	66	5224
2026-01-12 22:37:05.83	66.17	25.88	-47.5	-50.5	15.7	0.00e+00	0	43	0	387973120	66	5151
2026-01-12 22:37:07.16	66.54	25.97	-47.1	-50.1	16.1	0.00e+00	0	43	0	390070272	66	4881
2026-01-12 22:37:07.87	66.73	26.02	-47.5	-50.5	15.7	0.00e+00	0	43	0	391118848	66	5134
2026-01-12 22:37:09.18	67.09	26.11	-47.5	-50.6	15.6	0.00e+00	0	43	0	394264576	66	5204
2026-01-12 22:37:10.16	67.36	26.18	-47.7	-50.9	15.4	0.00e+00	0	43	0	395313152	66	5345
2026-01-12 22:37:11.47	67.73	26.27	-47.8	-51.0	15.3	0.00e+00	0	43	0	398458880	66	5448
2026-01-12 22:37:12.21	67.93	26.32	-47.9	-51.1	15.1	0.00e+00	0	43	0	399507456	66	5511
2026-01-12 22:37:13.49	68.29	26.40	-48.1	-51.4	14.8	0.00e+00	0	43	0	401604608	66	5711
2026-01-12 22:37:14.21	68.50	26.45	-48.2	-51.5	14.8	1.50e-06	0	43	0	403701760	66	5785
2026-01-12 22:37:15.49	68.86	26.54	-48.1	-51.5	14.8	0.00e+00	0	43	0	405798912	66	5744
2026-01-12 22:37:16.20	69.06	26.58	-48.0	-51.4	14.9	0.00e+00	0	43	0	406847488	66	5689
2026-01-12 22:37:17.48	69.42	26.67	-47.9	-51.2	15.1	7.00e-07	0	43	0	408944640	66	5531
2026-01-12 22:37:18.21	69.63	26.71	-47.8	-51.1	15.2	0.00e+00	0	43	0	411041792	66	5491
2026-01-12 22:37:19.49	70.00	26.80	-47.6	-50.7	15.5	0.00e+00	0	43	0	413138944	66	5238
2026-01-12 22:37:20.20	70.21	26.84	-47.7	-50.8	15.4	0.00e+00	0	43	0	414187520	66	5297
2026-01-12 22:37:21.55	70.60	26.92	-47.8	-51.0	15.3	7.00e-07	0	43	0	417333248	66	5444
2026-01-12 22:37:22.26	70.80	26.97	-47.8	-51.0	15.2	0.00e+00	0	43	0	418381824	66	5455
2026-01-12 22:37:23.54	71.18	27.05	-48.0	-51.3	14.9	7.00e-07	0	43	0	420478976	66	5628
2026-01-12 22:37:24.27	71.39	27.09	-48.2	-51.7	14.6	0.00e+00	0	43	0	422576128	67	5566
2026-01-12 22:37:25.55	71.77	27.17	-48.1	-51.5	14.7	0.00e+00	0	43	0	424673280	67	5433
2026-01-12 22:37:26.27	71.98	27.21	-48.3	-51.8	14.5	1.50e-06	0	43	0	425721856	67	5595
2026-01-12 22:37:27.55	72.36	27.29	-47.9	-51.2	15.0	1.50e-06	0	43	0	427819008	67	5260
2026-01-12 22:37:28.28	72.58	27.33	-47.6	-50.7	15.5	0.00e+00	0	43	0	429916160	67	4959
2026-01-12 22:37:29.56	72.96	27.40	-47.4	-50.4	15.9	0.00e+00	0	43	0	432013312	66	5044
2026-01-12 22:37:30.28	73.17	27.44	-47.3	-50.3	16.0	0.00e+00	0	43	0	433061888	66	4996
2026-01-12 22:37:31.56	73.56	27.51	-47.7	-50.8	15.5	0.00e+00	0	43	0	436207616	66	5288
2026-01-12 22:37:32.29	73.78	27.55	-48.1	-51.5	14.7	0.00e+00	0	43	0	437256192	66	5772
2026-01-12 22:37:33.57	74.16	27.62	-48.9	-52.6	13.9	3.00e-06	0	43	0	439353344	68	5825
2026-01-12 22:37:34.31	74.39	27.66	-49.1	-52.9	13.5	5.30e-06	0	43	0	440401920	68	6047
2026-01-12 22:37:35.58	74.78	27.73	-49.1	-53.0	13.5	1.06e-05	0	43	0	443547648	68	6086
2026-01-12 22:37:36.31	75.00	27.77	-48.9	-52.7	13.8	1.29e-05	0	43	0	444596224	68	5881
2026-01-12 22:37:37.59	75.39	27.83	-49.1	-53.0	13.5	3.80e-06	0	43	0	446693376	69	5726
2026-01-12 22:37:38.31	75.61	27.87	-49.1	-53.1	13.3	1.83e-05	0	43	0	448790528	69	5848
2026-01-12 22:37:39.59	76.01	27.93	-49.5	-54.0	12.5	6.63e-05	0	43	0	450887680	69	6422
2026-01-12 22:37:40.30	76.23	27.97	-49.8	-54.4	12.0	2.96e-04	0	43	0	451936256	70	6387
2026-01-12 22:37:41.58	76.63	28.03	-49.8	-54.5	12.0	2.10e-04	0	43	0	454033408	70	6445
2026-01-12 22:37:42.31	76.85	28.06	-49.7	-54.3	12.2	3.65e-04	0	43	0	456130560	70	6281
2026-01-12 22:37:43.58	77.25	28.12	-49.7	-54.0	12.5	1.23e-04	0	43	0	458227712	70	6128
2026-01-12 22:37:44.29	77.47	28.16	-49.8	-54.3	12.1	1.31e-04	0	43	0	459276288	70	6337
2026-01-12 22:37:45.65	77.90	28.22	-50.0	-54.7	11.7	4.90e-04	0	43	0	462422016	70	6597
2026-01-12 22:37:46.36	78.12	28.25	-50.1	-54.9	11.7	5.77e-04	0	43	0	463470592	70	6749
2026-01-12 22:37:47.64	78.53	28.30	-49.9	-54.6	11.9	7.49e-04	0	43	0	465567744	70	6499
2026-01-12 22:37:48.37	78.76	28.33	-49.7	-54.1	12.2	4.36e-04	0	43	0	467664896	70	6196
2026-01-12 22:37:49.77	79.20	28.39	-49.2	-53.2	13.3	5.41e-05	0	43	0	469762048	70	5564
2026-01-12 22:37:50.76	79.52	28.43	-49.0	-52.9	13.5	1.37e-05	0	43	0	471859200	70	5373
2026-01-12 22:37:51.76	79.84	28.47	-49.2	-53.1	13.3	9.10e-06	0	43	0	473956352	70	5495
2026-01-12 22:37:52.75	80.15	28.51	-49.6	-53.8	12.7	3.12e-05	0	43	0	475004928	70	5972
2026-01-12 22:37:53.75	80.47	28.55	-49.7	-54.3	12.3	1.61e-04	0	43	0	477102080	70	6285
2026-01-12 22:37:54.74	80.79	28.58	-49.5	-53.8	12.6	1.40e-04	0	43	0	479199232	70	5985
2026-01-12 22:37:55.74	81.11	28.62	-49.3	-53.4	13.0	8.54e-05	0	43	0	481296384	70	5717
2026-01-12 22:37:56.73	81.43	28.65	-49.0	-52.9	13.5	2.21e-05	0	43	0	483393536	70	5390
2026-01-12 22:37:57.76	81.77	28.69	-48.8	-52.6	13.8	7.60e-06	0	43	0	484442112	69	5506
2026-01-12 22:37:58.76	82.09	28.72	-48.9	-52.8	13.7	3.00e-06	0	43	0	486539264	69	5627
2026-01-12 22:37:59.85	82.45	28.76	-49.0	-53.1	13.4	1.44e-05	0	43	0	488636416	69	5809
2026-01-12 22:38:00.73	82.73	28.78	-49.0	-53.1	13.4	2.28e-05	0	43	0	490733568	69	5816
2026-01-12 22:38:02.04	83.16	28.82	-48.5	-52.3	14.2	7.60e-06	0	43	0	492830720	69	5298
2026-01-12 22:38:02.75	83.39	28.84	-48.2	-51.7	14.7	7.00e-07	0	43	0	493879296	68	5276
2026-01-12 22:38:04.27	83.89	28.89	-48.1	-51.6	14.8	0.00e+00	0	43	0	497025024	68	5169
2026-01-12 22:38:04.98	84.12	28.91	-48.3	-51.8	14.6	7.00e-07	0	43	0	498073600	68	5298
2026-01-12 22:38:06.26	84.54	28.94	-48.4	-52.0	14.5	1.50e-06	0	43	0	501219328	68	5405
2026-01-12 22:38:06.98	84.78	28.96	-48.4	-52.1	14.4	0.00e+00	0	43	0	502267904	68	5474
2026-01-12 22:38:08.26	85.20	28.99	-48.2	-51.7	14.8	0.00e+00	0	43	0	504365056	68	5269
2026-01-12 22:38:08.97	85.44	29.00	-48.1	-51.6	14.9	7.00e-07	0	43	0	505413632	68	5175
2026-01-12 22:38:10.25	85.86	29.03	-47.4	-50.9	15.1	7.00e-07	0	43	0	508559360	67	5050
2026-01-12 22:38:10.99	86.11	29.05	-47.6	-50.9	15.4	0.00e+00	0	43	0	509607936	67	5067
2026-01-12 22:38:12.27	86.53	29.07	-47.7	-51.1	15.2	0.00e+00	0	43	0	511705088	67	5169
2026-01-12 22:38:12.98	86.77	29.09	-47.9	-51.4	14.8	0.00e+00	0	43	0	513802240	67	5377
2026-01-12 22:38:14.26	87.19	29.11	-47.9	-51.3	15.0	0.00e+00	0	43	0	515899392	67	5314
2026-01-12 22:38:14.97	87.43	29.12	-47.9	-51.3	14.9	0.00e+00	0	43	0	516947968	67	5332
2026-01-12 22:38:16.25	87.85	29.14	-47.8	-51.1	15.1	0.00e+00	0	43	0	519045120	67	5216
2026-01-12 22:38:16.96	88.09	29.15	-47.9	-51.3	15.0	0.00e+00	0	43	0	521142272	67	5317
2026-01-12 22:38:18.24	88.52	29.17	-47.8	-51.1	15.1	0.00e+00	0	43	0	523239424	67	5209
2026-01-12 22:38:18.95	88.75	29.18	-47.9	-51.3	14.9	0.00e+00	0	43	0	524288000	67	5323
2026-01-12 22:38:20.23	89.18	29.19	-48.1	-51.6	14.8	0.00e+00	0	43	0	527433728	67	5476
2026-01-12 22:38:21.22	89.51	29.20	-48.2	-51.6	14.7	7.00e-07	0	43	0	528482304	67	5480
2026-01-12 22:38:22.50	89.94	29.22	-47.9	-51.2	15.1	0.00e+00	0	43	0	531628032	67	5254
2026-01-12 22:38:23.23	90.19	29.22	-47.7	-50.9	15.3	0.00e+00	0	43	0	532676608	67	5069
2026-01-12 22:38:24.84	90.72	29.23	-47.6	-50.8	15.5	0.00e+00	0	43	0	535822336	67	4999
2026-01-12 22:38:25.40	90.91	29.24	-47.7	-50.9	15.3	0.00e+00	0	43	0	536870912	67	5083
2026-01-12 22:38:27.11	91.49	29.25	-48.6	-52.2	14.1	0.00e+00	0	43	0	540016640	67	5892
2026-01-12 22:38:27.68	91.68	29.25	-49.0	-52.7	13.7	3.80e-06	0	43	0	541065216	68	5923
2026-01-12 22:38:29.38	92.25	29.25	-49.1	-52.9	13.6	7.60e-06	0	43	0	544210944	69	5694
2026-01-12 22:38:29.95	92.44	29.25	-49.1	-52.9	13.6	6.80e-06	0	43	0	545259520	69	5698
2026-01-12 22:38:31.66	93.01	29.25	-49.0	-52.9	13.7	9.10e-06	0	43	0	548405248	69	5670
2026-01-12 22:38:32.23	93.20	29.25	-49.0	-53.0	13.5	9.90e-06	0	43	0	549453824	69	5746
2026-01-12 22:38:33.93	93.77	29.25	-48.8	-52.6	13.9	6.10e-06	0	43	0	552599552	69	5520
2026-01-12 22:38:34.50	93.97	29.25	-48.5	-52.1	14.3	2.20e-06	0	43	0	553648128	69	5203
2026-01-12 22:38:36.21	94.54	29.24	-48.0	-51.3	15.1	0.00e+00	0	43	0	556793856	68	5005
2026-01-12 22:38:36.78	94.73	29.23	-47.8	-51.0	15.3	0.00e+00	0	43	0	557842432	67	5109
2026-01-12 22:38:38.48	95.30	29.22	-48.0	-51.3	15.0	0.00e+00	0	43	0	560988160	67	5288
2026-01-12 22:38:39.05	95.49	29.22	-48.3	-51.7	14.6	0.00e+00	0	43	0	562036736	67	5568
2026-01-12 22:38:40.76	96.06	29.20	-49.2	-53.2	13.3	6.80e-06	0	43	0	565182464	69	5858
2026-01-12 22:38:41.32	96.25	29.20	-49.3	-53.3	13.2	1.90e-05	0	43	0	566231040	69	5988
2026-01-12 22:38:43.03	96.82	29.18	-49.3	-53.3	13.1	2.59e-05	0	43	0	569376768	69	5969
2026-01-12 22:38:43.60	97.01	29.17	-49.3	-53.4	13.2	3.50e-05	0	43	0	570425344	69	6023
2026-01-12 22:38:45.29	97.58	29.14	-49.3	-53.3	13.2	1.98e-05	0	43	0	573571072	69	5956
2026-01-12 22:38:45.86	97.77	29.14	-49.3	-53.3	13.2	2.59e-05	0	43	0	574619648	69	5991
2026-01-12 22:38:47.56	98.33	29.11	-49.1	-53.0	13.5	1.44e-05	0	43	0	577765376	69	5731
2026-01-12 22:38:48.13	98.52	29.10	-49.1	-53.0	13.5	1.06e-05	0	43	0	578813952	69	5728
2026-01-12 22:38:49.98	99.14	29.06	-49.2	-53.2	13.3	4.50e-06	0	43	0	583008256	69	5868
2026-01-12 22:38:50.55	99.33	29.05	-49.3	-53.4	13.1	1.37e-05	0	43	0	584056832	69	6044
2026-01-12 22:38:52.25	99.89	29.01	-50.1	-54.9	11.5	2.75e-04	0	43	0	587202560	70	6788
2026-01-12 22:38:52.82	100.08	29.00	-50.2	-55.2	11.2	1.04e-03	0	43	0	588251136	71	6610
2026-01-12 22:38:54.57	100.66	28.96	-50.1	-54.9	11.5	1.14e-03	0	43	0	591396864	71	6415
2026-01-12 22:38:55.14	100.85	28.95	-49.9	-54.4	11.9	8.29e-04	0	43	0	592445440	71	6058
2026-01-12 22:38:56.85	101.41	28.90	-50.1	-54.8	11.7	1.87e-04	0	43	0	595591168	71	6275
2026-01-12 22:38:57.51	101.62	28.88	-50.0	-54.6	11.7	4.26e-04	0	43	0	596639744	71	6201
2026-01-12 22:38:58.93	102.09	28.84	-50.3	-55.3	11.2	1.31e-03	0	43	0	599785472	71	6690
2026-01-12 22:38:59.65	102.33	28.82	-50.2	-55.1	11.4	1.88e-03	0	43	0	600834048	71	6505
2026-01-12 22:39:00.93	102.74	28.78	-49.7	-54.0	12.5	2.23e-04	0	43	0	602931200	71	5748
2026-01-12 22:39:01.64	102.98	28.76	-49.2	-53.2	13.4	4.34e-05	0	43	0	605028352	70	5537
2026-01-12 22:39:02.92	103.39	28.72	-49.0	-52.8	13.7	7.60e-06	0	43	0	607125504	70	5319
2026-01-12 22:39:03.63	103.62	28.70	-49.3	-53.3	13.2	2.20e-06	0	43	0	608174080	70	5613
2026-01-12 22:39:04.91	104.04	28.65	-49.9	-54.6	11.8	1.74e-04	0	43	0	611319808	70	6525
2026-01-12 22:39:05.62	104.27	28.63	-50.1	-55.1	11.4	6.02e-04	0	43	0	612368384	70	6955
2026-01-12 22:39:06.90	104.68	28.58	-50.0	-54.9	11.6	9.10e-04	0	43	0	614465536	71	6353
2026-01-12 22:39:07.64	104.92	28.56	-49.7	-54.1	12.4	4.90e-04	0	43	0	615514112	71	5832
2026-01-12 22:39:08.92	105.33	28.51	-49.5	-53.5	13.1	7.70e-05	0	43	0	618659840	70	5788
2026-01-12 22:39:09.66	105.57	28.48	-49.2	-53.2	13.3	4.34e-05	0	43	0	619708416	70	5557
2026-01-12 22:39:11.15	106.05	28.42	-48.9	-52.7	13.8	6.10e-06	0	43	0	622854144	69	5558
2026-01-12 22:39:11.86	106.27	28.39	-48.9	-52.7	13.8	3.00e-06	0	43	0	623902720	69	5535
2026-01-12 22:39:13.21	106.70	28.34	-48.7	-52.3	14.2	2.20e-06	0	43	0	625999872	69	5312
2026-01-12 22:39:13.93	106.93	28.31	-48.5	-52.0	14.5	2.20e-06	0	43	0	628097024	68	5429
2026-01-12 22:39:15.27	107.35	28.25	-48.5	-52.1	14.4	0.00e+00	0	43	0	630194176	68	5469
2026-01-12 22:39:15.98	107.58	28.22	-48.5	-52.1	14.4	0.00e+00	0	44	0	631242752	68	5496
2026-01-12 22:39:17.27	107.98	28.16	-48.4	-51.9	14.5	0.00e+00	0	43	0	634388480	68	5383
2026-01-12 22:39:17.99	108.21	28.13	-48.8	-52.5	14.0	7.00e-07	0	43	0	635437056	68	5724
2026-01-12 22:39:19.26	108.61	28.07	-48.9	-52.6	13.8	7.00e-07	0	43	0	637534208	68	5851
2026-01-12 22:39:19.99	108.84	28.03	-49.1	-53.0	13.4	3.00e-06	0	43	0	638582784	68	6109
2026-01-12 22:39:21.27	109.23	27.97	-48.8	-52.5	14.0	0.00e+00	0	43	0	641728512	68	5728
2026-01-12 22:39:21.98	109.45	27.94	-48.7	-52.2	14.3	2.20e-06	0	43	0	642777088	68	5555
2026-01-12 22:39:23.26	109.85	27.87	-48.5	-51.9	14.6	7.00e-07	0	43	0	644874240	68	5361
2026-01-12 22:39:23.97	110.07	27.84	-48.6	-52.1	14.4	0.00e+00	0	43	0	646971392	68	5491
2026-01-12 22:39:25.25	110.46	27.77	-48.7	-52.4	14.1	2.20e-06	0	43	0	649068544	68	5677
2026-01-12 22:39:25.98	110.69	27.73	-48.7	-52.5	14.0	2.20e-06	0	43	0	650117120	68	5746
2026-01-12 22:39:27.26	111.08	27.66	-48.7	-52.5	14.0	0.00e+00	0	43	0	652214272	68	5764
2026-01-12 22:39:27.97	111.29	27.63	-48.5	-52.1	14.4	2.20e-06	0	43	0	654311424	68	5473
2026-01-12 22:39:29.25	111.68	27.56	-48.4	-52.0	14.5	7.00e-07	0	43	0	656408576	68	5410
2026-01-12 22:39:29.97	111.90	27.52	-48.4	-51.9	14.5	0.00e+00	0	43	0	657457152	68	5386
2026-01-12 22:39:31.25	112.29	27.44	-48.8	-52.6	13.9	6.10e-06	0	43	0	660602880	68	5809
2026-01-12 22:39:31.98	112.50	27.40	-48.8	-52.6	13.9	3.00e-06	0	43	0	661651456	68	5804
2026-01-12 22:39:33.26	112.89	27.33	-48.9	-52.8	13.7	4.50e-06	0	43	0	663748608	68	5950
2026-01-12 22:39:33.98	113.10	27.29	-48.8	-52.6	13.9	4.50e-06	0	43	0	664797184	68	5826
2026-01-12 22:39:35.26	113.48	27.21	-48.7	-52.4	14.0	3.00e-06	0	43	0	667942912	68	5681
2026-01-12 22:39:35.97	113.69	27.17	-48.6	-52.2	14.2	7.00e-07	0	43	0	668991488	68	5584
2026-01-12 22:39:37.25	114.07	27.09	-48.8	-52.5	14.0	1.50e-06	0	43	0	671088640	68	5768
2026-01-12 22:39:37.97	114.28	27.05	-49.0	-52.8	13.7	1.50e-06	0	43	0	673185792	68	5992
2026-01-12 22:39:39.24	114.65	26.97	-49.6	-53.9	12.6	3.58e-05	0	43	0	675282944	69	6381
2026-01-12 22:39:39.97	114.87	26.93	-49.9	-54.4	12.1	1.72e-04	0	44	0	676331520	70	6393
2026-01-12 22:39:41.25	115.24	26.85	-49.8	-54.2	12.3	4.36e-04	0	43	0	678428672	70	6257
2026-01-12 22:39:41.96	115.45	26.80	-49.7	-54.1	12.4	1.46e-04	0	43	0	680525824	70	6154
2026-01-12 22:39:43.24	115.81	26.72	-49.2	-53.1	13.4	1.22e-05	0	43	0	682622976	70	5486
2026-01-12 22:39:43.97	116.02	26.67	-48.9	-52.5	14.0	1.50e-06	0	43	0	683671552	69	5461
2026-01-12 22:39:45.25	116.39	26.59	-48.9	-52.7	13.8	1.50e-06	0	43	0	686817280	69	5539
2026-01-12 22:39:45.96	116.59	26.54	-49.1	-52.9	13.6	2.20e-06	0	43	0	687865856	69	5670
2026-01-12 22:39:47.23	116.95	26.46	-49.2	-53.2	13.3	1.22e-05	0	43	0	689963008	69	5870
2026-01-12 22:39:47.96	117.16	26.41	-49.3	-53.3	13.2	2.13e-05	0	43	0	691011584	69	5940
2026-01-12 22:39:49.24	117.52	26.32	-49.0	-52.7	13.7	1.14e-05	0	43	0	694157312	69	5577
2026-01-12 22:39:49.97	117.73	26.27	-48.5	-52.0	14.4	3.00e-06	0	43	0	695205888	69	5130
2026-01-12 22:39:51.25	118.08	26.19	-48.6	-52.2	14.4	7.00e-07	0	43	0	697303040	68	5555
2026-01-12 22:39:51.96	118.28	26.14	-48.7	-52.4	14.1	3.00e-06	0	43	0	699400192	68	5692
2026-01-12 22:39:53.24	118.63	26.05	-48.9	-52.6	13.8	5.30e-06	0	43	0	701497344	68	5855
2026-01-12 22:39:53.97	118.84	26.00	-49.0	-52.8	13.7	8.30e-06	0	43	0	702545920	68	5983
2026-01-12 22:39:55.25	119.19	25.91	-48.9	-52.7	13.7	8.30e-06	0	43	0	704643072	68	5920
2026-01-12 22:39:55.97	119.38	25.85	-48.8	-52.4	14.0	2.20e-06	0	43	0	706740224	68	5715
2026-01-12 22:39:57.25	119.73	25.76	-48.7	-52.2	14.3	1.50e-06	0	43	0	708837376	68	5576
2026-01-12 22:39:57.97	119.93	25.71	-48.6	-52.2	14.3	7.00e-07	0	43	0	709885952	68	5533
2026-01-12 22:39:59.25	120.27	25.62	-48.7	-52.2	14.3	7.00e-07	0	43	0	713031680	68	5562
2026-01-12 22:39:59.97	120.46	25.56	-48.8	-52.3	14.1	7.00e-07	0	43	0	714080256	68	5646
2026-01-12 22:40:01.24	120.80	25.47	-48.8	-52.4	14.0	7.00e-07	0	43	0	716177408	68	5709
2026-01-12 22:40:01.95	120.99	25.42	-48.9	-52.5	13.9	4.50e-06	0	43	0	718274560	68	5763
2026-01-12 22:40:03.23	121.33	25.32	-48.7	-52.2	14.3	7.00e-07	0	43	0	720371712	68	5557
2026-01-12 22:40:03.95	121.52	25.27	-48.4	-51.9	14.6	7.00e-07	0	43	0	721420288	68	5342
2026-01-12 22:40:05.22	121.85	25.17	-48.6	-52.1	14.4	7.00e-07	0	43	0	723517440	68	5477
2026-01-12 22:40:05.93	122.04	25.12	-48.6	-52.1	14.3	7.00e-07	0	43	0	725614592	68	5522
2026-01-12 22:40:07.25	122.38	25.02	-48.5	-51.9	14.5	0.00e+00	0	43	0	727711744	68	5396
2026-01-12 22:40:07.95	122.56	24.97	-48.7	-52.3	14.2	7.00e-07	0	43	0	728760320	68	5605
2026-01-12 22:40:09.23	122.89	24.87	-48.7	-52.3	14.1	0.00e+00	0	43	0	730857472	68	5652
2026-01-12 22:40:09.96	123.08	24.81	-48.4	-51.8	14.7	7.00e-07	0	43	0	732954624	68	5302
2026-01-12 22:40:11.24	123.41	24.71	-47.5	-50.6	15.6	0.00e+00	0	43	0	735051776	67	4891
2026-01-12 22:40:11.96	123.59	24.66	-47.3	-50.3	15.9	0.00e+00	0	43	0	736100352	66	4992
2026-01-12 22:40:13.45	123.97	24.54	-47.2	-50.1	16.0	0.00e+00	0	43	0	739246080	66	4926
2026-01-12 22:40:14.16	124.14	24.48	-47.3	-50.3	16.0	0.00e+00	0	43	0	740294656	66	4988
2026-01-12 22:40:15.44	124.46	24.38	-47.9	-51.1	15.1	0.00e+00	0	43	0	743440384	66	5519
2026-01-12 22:40:16.17	124.65	24.33	-47.9	-51.2	15.1	0.00e+00	0	43	0	744488960	66	5559
2026-01-12 22:40:17.45	124.96	24.22	-47.8	-50.9	15.3	0.00e+00	0	43	0	746586112	66	5396
2026-01-12 22:40:18.16	125.14	24.17	-47.6	-50.6	15.5	0.00e+00	0	43	0	747634688	66	5194
2026-01-12 22:40:19.44	125.45	24.06	-47.4	-50.3	15.9	0.00e+00	0	43	0	750780416	66	5028
2026-01-12 22:40:20.15	125.62	24.01	-47.2	-50.1	16.1	0.00e+00	0	43	0	751828992	66	4916
2026-01-12 22:40:21.43	125.93	23.90	-47.5	-50.6	15.7	0.00e+00	0	43	0	753926144	66	5189
2026-01-12 22:40:22.15	126.11	23.85	-47.8	-51.0	15.3	0.00e+00	0	43	0	756023296	66	5435
2026-01-12 22:40:23.77	126.50	23.71	-48.0	-51.3	14.9	0.00e+00	0	43	0	758120448	66	5654
2026-01-12 22:40:24.34	126.63	23.67	-48.1	-51.5	14.8	7.00e-07	0	43	0	759169024	66	5757
2026-01-12 22:40:26.04	127.04	23.53	-47.1	-50.2	16.0	0.00e+00	0	43	0	763363328	66	4937
2026-01-12 22:40:26.61	127.17	23.48	-47.2	-50.2	16.0	0.00e+00	0	43	0	764411904	66	4931
2026-01-12 22:40:28.32	127.57	23.34	-47.0	-49.9	16.3	0.00e+00	0	43	0	767557632	65	5066
2026-01-12 22:40:28.88	127.70	23.29	-47.2	-50.2	15.9	0.00e+00	0	43	0	768606208	65	5257
2026-01-12 22:40:30.59	128.10	23.15	-48.2	-51.7	14.6	0.00e+00	0	43	0	771751936	67	5554
2026-01-12 22:40:31.16	128.23	23.11	-48.4	-52.0	14.2	0.00e+00	0	43	0	772800512	67	5755
2026-01-12 22:40:32.87	128.62	22.96	-48.3	-51.7	14.5	1.50e-06	0	43	0	775946240	67	5578
2026-01-12 22:40:33.43	128.75	22.92	-47.8	-51.0	15.2	7.00e-07	0	43	0	776994816	67	5128
2026-01-12 22:40:35.14	129.13	22.77	-47.1	-50.0	16.1	0.00e+00	0	43	0	780140544	66	4854
2026-01-12 22:40:35.71	129.26	22.72	-46.9	-49.7	16.4	0.00e+00	0	43	0	781189120	65	4954
2026-01-12 22:40:37.41	129.64	22.58	-46.9	-49.6	16.5	0.00e+00	0	43	0	784334848	65	4917
2026-01-12 22:40:37.98	129.77	22.53	-47.0	-49.8	16.3	0.00e+00	0	43	0	785383424	65	5035
2026-01-12 22:40:39.69	130.15	22.39	-46.7	-49.4	16.7	0.00e+00	0	43	0	788529152	65	4786
2026-01-12 22:40:40.25	130.27	22.34	-46.6	-49.3	16.8	0.00e+00	0	43	0	789577728	65	4727
2026-01-12 22:40:42.17	130.69	22.18	-46.5	-49.1	17.0	0.00e+00	0	43	0	792723456	64	4916
2026-01-12 22:40:42.73	130.81	22.13	-46.4	-49.1	17.0	0.00e+00	0	43	0	793772032	64	4876
2026-01-12 22:40:44.44	131.18	21.99	-47.4	-50.5	15.7	0.00e+00	0	43	0	796917760	65	5446
2026-01-12 22:40:45.13	131.33	21.93	-48.0	-51.4	14.9	0.00e+00	0	43	0	799014912	66	5674
2026-01-12 22:40:46.56	131.63	21.80	-49.1	-53.2	13.2	5.30e-06	0	43	0	801112064	68	6266
2026-01-12 22:40:47.27	131.78	21.74	-49.5	-53.8	12.6	3.20e-05	0	43	0	803209216	69	6328
2026-01-12 22:40:48.55	132.05	21.63	-49.3	-53.5	12.8	5.49e-05	0	43	0	805306368	69	6093
2026-01-12 22:40:49.26	132.20	21.57	-48.9	-52.8	13.6	2.28e-05	0	43	0	806354944	69	5612
2026-01-12 22:40:50.54	132.46	21.46	-48.4	-51.9	14.5	7.00e-07	0	43	0	808452096	68	5355
2026-01-12 22:40:51.25	132.61	21.40	-48.1	-51.4	15.0	0.00e+00	0	43	0	810549248	68	5044
2026-01-12 22:40:52.55	132.88	21.29	-47.6	-50.7	15.4	7.00e-07	0	43	0	812646400	67	4979
2026-01-12 22:40:53.26	133.03	21.23	-47.6	-50.8	15.4	0.00e+00	0	43	0	813694976	67	5021
2026-01-12 22:40:54.60	133.30	21.11	-47.8	-51.2	15.1	0.00e+00	0	43	0	816840704	67	5223
2026-01-12 22:40:55.55	133.49	21.03	-47.6	-50.8	15.3	0.00e+00	0	43	0	817889280	67	5035
2026-01-12 22:40:56.54	133.69	20.95	-47.6	-50.9	15.3	0.00e+00	0	43	0	819986432	66	5350
2026-01-12 22:40:57.54	133.89	20.86	-47.2	-50.3	15.8	0.00e+00	0	43	0	822083584	66	5028
2026-01-12 22:40:58.53	134.09	20.77	-46.9	-49.8	16.3	0.00e+00	0	43	0	824180736	65	5018
2026-01-12 22:40:59.52	134.28	20.69	-46.5	-49.3	16.7	0.00e+00	0	43	0	825229312	65	4755
2026-01-12 22:41:00.50	134.48	20.60	-46.4	-49.1	17.0	0.00e+00	0	43	0	827326464	64	4891
2026-01-12 22:41:01.50	134.67	20.52	-46.7	-49.5	16.6	0.00e+00	0	43	0	829423616	64	5127
2026-01-12 22:41:02.49	134.86	20.43	-46.8	-49.7	16.4	0.00e+00	0	43	0	831520768	64	5239
2026-01-12 22:41:03.49	135.06	20.34	-47.1	-50.1	16.1	0.00e+00	0	43	0	832569344	64	5490
2026-01-12 22:41:04.48	135.25	20.26	-47.3	-50.3	15.9	0.00e+00	0	43	0	834666496	65	5292
2026-01-12 22:41:05.48	135.44	20.17	-47.4	-50.4	15.7	0.00e+00	0	43	0	836763648	65	5394
2026-01-12 22:41:06.47	135.63	20.09	-47.4	-50.4	15.7	0.00e+00	0	43	0	838860800	65	5387
2026-01-12 22:41:07.47	135.82	20.00	-47.3	-50.3	15.8	0.00e+00	0	43	0	840957952	65	5307
2026-01-12 22:41:08.46	136.01	19.91	-47.4	-50.5	15.7	0.00e+00	0	43	0	842006528	65	5434
2026-01-12 22:41:09.45	136.19	19.83	-47.3	-50.4	15.7	0.00e+00	0	43	0	844103680	65	5377
2026-01-12 22:41:10.45	136.38	19.74	-47.4	-50.6	15.5	0.00e+00	0	43	0	846200832	65	5476
2026-01-12 22:41:11.44	136.56	19.66	-47.5	-50.7	15.4	0.00e+00	0	43	0	848297984	65	5561
2026-01-12 22:41:12.44	136.75	19.57	-47.8	-51.1	15.1	0.00e+00	0	43	0	849346560	66	5472
2026-01-12 22:41:13.43	136.93	19.48	-47.8	-51.1	15.1	0.00e+00	0	43	0	851443712	66	5474
2026-01-12 22:41:14.42	137.11	19.40	-47.6	-50.8	15.4	0.00e+00	0	43	0	853540864	66	5303
2026-01-12 22:41:15.42	137.29	19.31	-47.3	-50.4	15.7	0.00e+00	0	43	0	855638016	66	5069
2026-01-12 22:41:16.42	137.47	19.22	-46.9	-49.8	16.2	0.00e+00	0	43	0	857735168	65	5022
2026-01-12 22:41:17.41	137.65	19.14	-46.8	-49.7	16.4	0.00e+00	0	43	0	858783744	65	4955
2026-01-12 22:41:18.40	137.83	19.05	-46.6	-49.4	16.6	0.00e+00	0	43	0	860880896	65	4790
2026-01-12 22:41:19.40	138.00	18.97	-46.6	-49.3	16.7	0.00e+00	0	43	0	862978048	65	4745
2026-01-12 22:41:20.44	138.19	18.88	-46.6	-49.3	16.7	0.00e+00	0	43	0	865075200	65	4754
2026-01-12 22:41:21.42	138.36	18.79	-46.7	-49.5	16.6	0.00e+00	0	43	0	867172352	65	4834
2026-01-12 22:41:22.41	138.53	18.71	-46.8	-49.6	16.5	0.00e+00	0	43	0	868220928	65	4903
2026-01-12 22:41:23.41	138.70	18.62	-46.8	-49.7	16.3	0.00e+00	0	43	0	870318080	65	4938
2026-01-12 22:41:24.40	138.88	18.54	-46.9	-49.8	16.3	0.00e+00	0	43	0	872415232	65	5008
2026-01-12 22:41:25.39	139.05	18.45	-46.7	-49.5	16.5	0.00e+00	0	43	0	874512384	65	4849
2026-01-12 22:41:26.39	139.22	18.36	-46.6	-49.3	16.7	0.00e+00	0	43	0	875560960	65	4745
2026-01-12 22:41:27.38	139.38	18.28	-46.5	-49.2	16.8	0.00e+00	0	43	0	877658112	64	4971
2026-01-12 22:41:28.38	139.55	18.19	-46.6	-49.3	16.7	0.00e+00	0	43	0	879755264	64	5011
2026-01-12 22:41:29.37	139.72	18.11	-46.5	-49.3	16.7	0.00e+00	0	43	0	881852416	64	5005
2026-01-12 22:41:30.37	139.89	18.02	-46.8	-49.6	16.5	0.00e+00	0	43	0	883949568	64	5171
2026-01-12 22:41:31.36	140.05	17.94	-46.8	-49.6	16.4	0.00e+00	0	43	0	884998144	64	5214
2026-01-12 22:41:32.36	140.22	17.85	-46.8	-49.7	16.3	0.00e+00	0	43	0	887095296	64	5235
2026-01-12 22:41:33.35	140.38	17.77	-46.8	-49.7	16.4	0.00e+00	0	43	0	889192448	64	5228
2026-01-12 22:41:34.36	140.54	17.68	-46.9	-49.8	16.2	0.00e+00	0	43	0	891289600	64	5313
2026-01-12 22:41:35.39	140.71	17.59	-46.9	-49.8	16.3	0.00e+00	0	43	0	893386752	64	5282
2026-01-12 22:41:36.38	140.87	17.51	-46.9	-49.9	16.2	0.00e+00	0	43	0	894435328	64	5341
2026-01-12 22:41:37.44	141.04	17.42	-46.8	-49.7	16.3	0.00e+00	0	43	0	896532480	64	5274
2026-01-12 22:41:38.35	141.19	17.34	-46.8	-49.8	16.3	0.00e+00	0	43	0	898629632	64	5289
2026-01-12 22:41:39.49	141.37	17.24	-46.6	-49.5	16.5	0.00e+00	0	43	0	900726784	64	5150
2026-01-12 22:41:40.34	141.50	17.17	-46.6	-49.5	16.5	0.00e+00	0	43	0	901775360	64	5107
2026-01-12 22:41:41.68	141.71	17.06	-46.6	-49.5	16.5	0.00e+00	0	43	0	904921088	64	5101
2026-01-12 22:41:42.39	141.83	16.99	-46.5	-49.4	16.6	0.00e+00	0	43	0	905969664	64	5066
2026-01-12 22:41:43.67	142.02	16.89	-46.4	-49.2	16.7	0.00e+00	0	43	0	908066816	64	4976
2026-01-12 22:41:44.40	142.14	16.82	-46.5	-49.4	16.6	0.00e+00	0	43	0	910163968	64	5065
2026-01-12 22:41:45.68	142.33	16.72	-46.5	-49.4	16.6	0.00e+00	0	43	0	912261120	64	5054
2026-01-12 22:41:46.40	142.44	16.66	-46.5	-49.4	16.6	0.00e+00	0	43	0	913309696	64	5058
2026-01-12 22:41:47.68	142.64	16.55	-46.6	-49.6	16.3	0.00e+00	0	43	0	916455424	64	5196
2026-01-12 22:41:48.49	142.76	16.48	-46.6	-49.6	16.4	0.00e+00	0	43	0	917504000	64	5170
2026-01-12 22:41:49.62	142.93	16.38	-46.7	-49.7	16.3	0.00e+00	0	43	0	919601152	64	5241
2026-01-12 22:41:50.65	143.09	16.30	-46.7	-49.7	16.3	0.00e+00	0	43	0	921698304	64	5265
2026-01-12 22:41:51.80	143.26	16.20	-46.7	-49.6	16.4	0.00e+00	0	43	0	923795456	64	5209
2026-01-12 22:41:52.70	143.39	16.12	-46.6	-49.6	16.4	0.00e+00	0	43	0	924844032	64	5168
2026-01-12 22:41:53.98	143.58	16.02	-46.6	-49.5	16.4	0.00e+00	0	43	0	927989760	64	5133
2026-01-12 22:41:54.69	143.68	15.96	-46.6	-49.5	16.4	0.00e+00	0	43	0	929038336	64	5147
2026-01-12 22:41:55.97	143.87	15.85	-46.8	-49.7	16.3	0.00e+00	0	43	0	931135488	64	5232
2026-01-12 22:41:56.68	143.97	15.79	-46.8	-49.7	16.2	0.00e+00	0	43	0	933232640	64	5278
2026-01-12 22:41:58.23	144.19	15.66	-47.3	-50.4	15.6	0.00e+00	0	43	0	935329792	65	5352
2026-01-12 22:41:58.94	144.29	15.60	-47.3	-50.4	15.6	0.00e+00	0	43	0	937426944	65	5375
2026-01-12 22:42:00.22	144.48	15.50	-47.6	-50.9	15.1	0.00e+00	0	43	0	939524096	65	5677
2026-01-12 22:42:00.93	144.58	15.44	-47.8	-51.1	14.9	0.00e+00	0	43	0	940572672	66	5492
2026-01-12 22:42:02.20	144.75	15.33	-47.9	-51.3	14.8	0.00e+00	0	43	0	943718400	66	5609
2026-01-12 22:42:02.92	144.86	15.27	-48.1	-51.5	14.5	0.00e+00	0	43	0	944766976	66	5787
2026-01-12 22:42:04.20	145.03	15.17	-48.0	-51.5	14.5	7.00e-07	0	43	0	946864128	66	5747
2026-01-12 22:42:04.92	145.13	15.11	-48.1	-51.6	14.5	1.50e-06	0	43	0	947912704	66	5801
2026-01-12 22:42:06.20	145.31	15.00	-47.8	-51.2	14.8	0.00e+00	0	43	0	951058432	66	5570
2026-01-12 22:42:06.93	145.41	14.94	-47.5	-50.7	15.3	0.00e+00	0	43	0	952107008	66	5254
2026-01-12 22:42:08.21	145.58	14.84	-47.7	-51.0	15.0	0.00e+00	0	43	0	954204160	66	5416
2026-01-12 22:42:09.07	145.70	14.77	-47.4	-50.6	15.4	0.00e+00	0	43	0	956301312	66	5194
2026-01-12 22:42:10.51	145.89	14.65	-47.4	-50.6	15.4	0.00e+00	0	43	0	958398464	66	5212
2026-01-12 22:42:11.22	145.99	14.59	-47.6	-50.9	15.1	0.00e+00	0	43	0	960495616	66	5380
2026-01-12 22:42:12.50	146.16	14.49	-47.5	-50.8	15.2	0.00e+00	0	43	0	962592768	66	5281
2026-01-12 22:42:13.21	146.25	14.43	-47.7	-51.1	14.9	0.00e+00	0	43	0	963641344	66	5480
2026-01-12 22:42:14.49	146.42	14.33	-48.0	-51.5	14.5	0.00e+00	0	43	0	965738496	66	5741
2026-01-12 22:42:15.20	146.51	14.27	-48.0	-51.6	14.4	1.50e-06	0	43	0	967835648	66	5791
2026-01-12 22:42:16.48	146.68	14.17	-48.3	-52.1	13.9	0.00e+00	0	43	0	969932800	67	5855
2026-01-12 22:42:17.21	146.78	14.11	-48.3	-52.2	13.8	5.30e-06	0	43	0	970981376	67	5880
2026-01-12 22:42:18.49	146.94	14.00	-48.5	-52.5	13.5	8.30e-06	0	43	0	974127104	67	6083
2026-01-12 22:42:19.20	147.03	13.95	-48.6	-52.7	13.3	1.37e-05	0	43	0	975175680	67	6224
2026-01-12 22:42:20.48	147.19	13.84	-48.4	-52.3	13.7	9.90e-06	0	43	0	977272832	67	5985
2026-01-12 22:42:21.19	147.28	13.79	-48.6	-52.7	13.3	1.52e-05	0	43	0	978321408	67	6229
2026-01-12 22:42:22.47	147.45	13.68	-48.7	-52.8	13.4	2.44e-05	0	43	0	981467136	68	5928
2026-01-12 22:42:23.21	147.54	13.62	-48.5	-52.4	13.7	6.10e-06	0	43	0	982515712	68	5705
2026-01-12 22:42:24.48	147.70	13.52	-48.6	-52.5	13.6	6.80e-06	0	43	0	984612864	68	5763
2026-01-12 22:42:25.21	147.79	13.46	-48.5	-52.3	13.8	9.90e-06	0	43	0	986710016	68	5596
2026-01-12 22:42:26.49	147.95	13.36	-48.4	-52.2	13.9	7.00e-07	0	43	0	988807168	68	5565
2026-01-12 22:42:27.20	148.03	13.31	-48.5	-52.3	13.8	3.80e-06	0	43	0	989855744	68	5651
2026-01-12 22:42:28.48	148.19	13.20	-48.4	-52.2	13.9	3.00e-06	0	43	0	991952896	68	5565
2026-01-12 22:42:29.22	148.28	13.15	-48.4	-52.3	13.8	3.00e-06	0	43	0	994050048	68	5620
2026-01-12 22:42:30.49	148.43	13.05	-48.3	-52.2	13.9	9.90e-06	0	43	0	996147200	68	5586
2026-01-12 22:42:31.21	148.52	12.99	-48.3	-52.2	13.9	4.50e-06	0	43	0	997195776	68	5533
2026-01-12 22:42:32.49	148.67	12.89	-48.3	-52.2	13.9	5.30e-06	0	43	0	1000341504	68	5580
2026-01-12 22:42:33.20	148.76	12.83	-48.3	-52.1	14.0	2.20e-06	0	43	0	1001390080	68	5525
2026-01-12 22:42:34.84	148.95	12.70	-48.3	-52.1	14.1	0.00e+00	0	43	0	1004535808	68	5470
2026-01-12 22:42:35.41	149.02	12.66	-48.2	-51.9	14.2	3.00e-06	0	43	0	1005584384	68	5352
2026-01-12 22:42:37.12	149.22	12.53	-47.8	-51.4	14.5	1.50e-06	0	43	0	1008730112	67	5346
2026-01-12 22:42:37.69	149.29	12.48	-48.0	-51.6	14.3	0.00e+00	0	43	0	1009778688	67	5468
2026-01-12 22:42:39.39	149.48	12.35	-47.5	-50.8	15.1	0.00e+00	0	43	0	1012924416	67	5017
2026-01-12 22:42:39.96	149.55	12.30	-47.6	-50.9	15.0	0.00e+00	0	43	0	1013972992	67	5070
2026-01-12 22:42:41.67	149.75	12.17	-47.6	-50.9	15.0	0.00e+00	0	43	0	1017118720	67	5064
2026-01-12 22:42:42.23	149.81	12.13	-47.5	-50.8	15.1	0.00e+00	0	43	0	1018167296	66	5312
2026-01-12 22:42:44.05	150.01	11.99	-47.5	-50.8	15.0	0.00e+00	0	43	0	1021313024	66	5327
2026-01-12 22:42:44.62	150.08	11.94	-47.5	-50.8	15.1	0.00e+00	0	44	0	1022361600	66	5325
2026-01-12 22:42:46.32	150.27	11.81	-47.5	-51.0	14.8	0.00e+00	0	44	0	1025507328	66	5425
2026-01-12 22:42:47.06	150.35	11.76	-47.6	-51.1	14.8	0.00e+00	0	43	0	1027604480	66	5502
2026-01-12 22:42:48.34	150.49	11.66	-48.0	-51.8	14.1	1.50e-06	0	43	0	1029701632	66	5936
2026-01-12 22:42:49.07	150.57	11.60	-48.0	-51.8	14.0	7.00e-07	0	43	0	1030750208	66	5990
2026-01-12 22:42:50.35	150.71	11.51	-48.1	-51.9	14.0	1.50e-06	0	43	0	1033895936	66	6032
2026-01-12 22:42:51.07	150.79	11.45	-48.4	-52.3	13.5	9.90e-06	0	43	0	1034944512	67	5974
2026-01-12 22:42:52.35	150.93	11.35	-48.4	-52.3	13.6	6.80e-06	0	43	0	1037041664	67	5968
2026-01-12 22:42:53.06	151.01	11.30	-48.4	-52.3	13.6	8.30e-06	0	43	0	1038090240	67	5934
2026-01-12 22:42:54.34	151.14	11.20	-48.3	-52.2	13.6	1.83e-05	0	43	0	1041235968	67	5878
2026-01-12 22:42:55.05	151.22	11.15	-48.3	-52.1	13.7	7.60e-06	0	43	0	1042284544	67	5845
2026-01-12 22:42:56.33	151.36	11.05	-48.4	-52.5	13.3	5.30e-06	0	43	0	1044381696	67	6076
2026-01-12 22:42:57.04	151.43	11.00	-48.3	-52.2	13.7	1.29e-05	0	44	0	1046478848	67	5869
2026-01-12 22:42:58.32	151.56	10.90	-48.3	-52.2	13.6	9.10e-06	0	43	0	1048576000	67	5923
2026-01-12 22:42:59.03	151.64	10.85	-48.5	-52.6	13.2	1.06e-05	0	44	0	1049624576	67	6168
2026-01-12 22:43:00.31	151.77	10.76	-48.0	-51.9	13.9	9.10e-06	0	43	0	1051721728	67	5662
2026-01-12 22:43:01.06	151.85	10.70	-48.1	-52.0	13.8	7.00e-07	0	43	0	1053818880	67	5758
2026-01-12 22:43:02.34	151.98	10.60	-48.1	-52.0	13.8	3.00e-06	0	43	0	1055916032	67	5728
2026-01-12 22:43:03.06	152.06	10.55	-48.0	-51.8	14.0	2.20e-06	0	43	0	1056964608	67	5626
2026-01-12 22:43:04.34	152.19	10.46	-48.2	-52.1	13.6	1.52e-02	0	43	0	1060110336	67	5849
2026-01-12 22:43:05.06	152.26	10.40	-48.1	-52.0	13.8	5.30e-06	0	43	0	1061158912	67	5745
2026-01-12 22:43:06.35	152.39	10.31	-48.1	-52.0	13.8	1.50e-06	0	43	0	1063256064	67	5752
2026-01-12 22:43:07.05	152.46	10.26	-48.3	-52.3	13.5	8.00e-03	0	43	0	1064304640	67	5968
2026-01-12 22:43:08.33	152.59	10.16	-48.1	-52.0	13.8	3.80e-06	0	43	0	1067450368	67	5747
2026-01-12 22:43:09.06	152.66	10.11	-48.3	-52.3	13.5	6.10e-06	0	43	0	1068498944	67	5928
2026-01-12 22:43:10.33	152.79	10.02	-48.3	-52.4	13.4	1.37e-05	0	44	0	1070596096	67	6029
2026-01-12 22:43:11.05	152.86	9.96	-48.3	-52.4	13.4	2.05e-05	0	43	0	1072693248	67	6001
2026-01-12 22:43:12.33	152.98	9.87	-48.4	-52.7	13.1	2.21e-05	0	43	0	1074790400	67	6210
2026-01-12 22:43:13.05	153.05	9.82	-48.2	-52.3	13.5	1.44e-05	0	44	0	1075838976	67	5938
2026-01-12 22:43:14.33	153.18	9.72	-48.2	-52.3	13.4	9.90e-06	0	44	0	1077936128	67	5962
2026-01-12 22:43:15.06	153.25	9.67	-48.3	-52.4	13.3	1.75e-05	0	44	0	1080033280	67	6046
2026-01-12 22:43:16.33	153.37	9.58	-48.2	-52.1	13.6	1.06e-05	0	43	0	1082130432	67	5846
2026-01-12 22:43:17.06	153.44	9.53	-48.2	-52.2	13.6	6.10e-06	0	43	0	1083179008	67	5881
2026-01-12 22:43:18.34	153.56	9.43	-48.2	-52.1	13.6	1.67e-05	0	43	0	1086324736	67	5835
2026-01-12 22:43:19.05	153.63	9.38	-48.1	-51.9	13.8	3.80e-06	0	43	0	1087373312	67	5707
2026-01-12 22:43:20.33	153.75	9.29	-48.1	-52.0	13.7	5.30e-06	0	43	0	1089470464	67	5769
2026-01-12 22:43:21.19	153.83	9.23	-47.9	-51.6	14.1	6.10e-06	0	43	0	1091567616	67	5519
2026-01-12 22:43:22.61	153.97	9.13	-47.9	-51.5	14.1	7.00e-07	0	43	0	1093664768	67	5461
2026-01-12 22:43:23.32	154.03	9.08	-47.9	-51.6	14.1	1.50e-06	0	43	0	1095761920	67	5488
2026-01-12 22:43:24.60	154.15	8.99	-48.6	-52.7	13.2	7.00e-07	0	43	0	1097859072	67	6259
2026-01-12 22:43:25.33	154.22	8.93	-51.8	-66.7	3.8	9.92e-01	0	43	104	1097859072	74	20925
2026-01-12 22:43:26.61	154.34	8.84	-52.1	-67.4	3.8	1.49e+00	0	44	104	1097859072	74	22765
2026-01-12 22:43:27.33	154.40	8.79	-52.4	-67.5	3.8	1.49e+00	0	43	104	1097859072	75	21750
2026-01-12 22:43:28.61	154.52	8.70	-52.5	-67.7	3.8	1.49e+00	0	43	104	1097859072	75	22051
2026-01-12 22:43:29.32	154.58	8.65	-52.1	-67.7	3.8	1.49e+00	0	43	104	1097859072	75	22214
2026-01-12 22:43:30.59	154.70	8.56	-52.5	-67.8	3.8	1.49e+00	0	43	104	1097859072	75	22386
2026-01-12 22:43:31.32	154.76	8.51	-52.6	-67.8	3.8	1.49e+00	0	43	104	1097859072	75	22389
2026-01-12 22:43:32.60	154.88	8.42	-52.7	-67.9	3.8	1.49e+00	0	43	104	1097859072	76	21276
2026-01-12 22:43:33.32	154.94	8.37	-52.7	-67.9	3.8	1.49e+00	0	43	104	1097859072	76	21329
2026-01-12 22:43:34.60	155.05	8.28	-52.8	-67.9	3.8	1.49e+00	0	43	104	1097859072	76	21439
2026-01-12 22:43:35.31	155.12	8.23	-52.8	-68.0	3.8	1.49e+00	0	43	104	1097859072	76	21580
2026-01-12 22:43:36.66	155.23	8.14	-52.9	-68.0	3.8	1.49e+00	0	43	104	1097859072	76	21623
2026-01-12 22:43:37.37	155.30	8.09	-52.9	-68.0	3.8	1.49e+00	0	43	104	1097859072	76	21642
2026-01-12 22:43:38.71	155.41	8.00	-52.9	-68.0	3.8	1.49e+00	0	43	104	1097859072	76	21663
2026-01-12 22:43:39.42	155.47	7.95	-52.8	-68.0	3.8	1.49e+00	0	43	104	1097859072	76	21623
2026-01-12 22:43:40.76	155.59	7.85	-52.8	-68.0	3.8	1.49e+00	0	43	104	1097859072	76	21752
2026-01-12 22:43:41.47	155.65	7.80	-52.9	-68.0	3.8	1.49e+00	0	43	104	1097859072	76	21637
2026-01-12 22:43:42.81	155.76	7.71	-53.0	-68.0	3.8	1.49e+00	0	43	104	1097859072	76	21600
2026-01-12 22:43:43.52	155.82	7.66	-52.9	-68.0	3.8	1.49e+00	0	43	104	1097859072	76	21677
2026-01-12 22:43:44.86	155.94	7.57	-52.9	-68.0	3.8	1.49e+00	0	43	104	1097859072	76	21712
2026-01-12 22:43:45.57	156.00	7.52	-52.9	-68.0	3.8	1.49e+00	0	43	104	1097859072	76	21704
2026-01-12 22:43:46.85	156.10	7.44	-52.8	-68.0	3.8	1.49e+00	0	43	104	1097859072	76	21678
2026-01-12 22:43:47.56	156.16	7.39	-52.7	-68.0	3.8	1.49e+00	0	43	104	1097859072	76	21598
2026-01-12 22:43:48.84	156.27	7.30	-52.7	-67.9	3.8	1.49e+00	0	43	104	1097859072	76	21469
2026-01-12 22:43:49.54	156.33	7.25	-52.7	-67.9	3.8	1.49e+00	0	43	104	1097859072	76	21499
2026-01-12 22:43:50.82	156.43	7.17	-52.7	-68.0	3.8	1.49e+00	0	43	104	1097859072	76	21557
2026-01-12 22:43:51.55	156.49	7.12	-52.7	-67.9	3.8	1.49e+00	0	43	104	1097859072	76	21495
2026-01-12 22:43:52.82	156.60	7.03	-52.7	-67.9	3.8	1.49e+00	0	43	104	1097859072	76	21499
2026-01-12 22:43:53.54	156.65	6.98	-52.7	-68.0	3.8	1.49e+00	0	43	104	1097859072	76	21536
2026-01-12 22:43:54.81	156.76	6.90	-52.7	-68.0	3.8	1.49e+00	0	43	104	1097859072	76	21544
2026-01-12 22:43:55.52	156.81	6.85	-52.7	-67.9	3.8	1.49e+00	0	43	104	1097859072	76	21481
2026-01-12 22:43:56.80	156.92	6.76	-52.7	-67.9	3.8	1.49e+00	0	43	104	1097859072	76	21486
2026-01-12 22:43:57.51	156.97	6.72	-52.7	-67.9	3.8	1.49e+00	0	43	104	1097859072	76	21430
2026-01-12 22:43:58.78	157.07	6.63	-52.7	-67.9	3.8	1.49e+00	0	43	104	1097859072	76	21477
2026-01-12 22:43:59.49	157.13	6.59	-52.7	-67.9	3.8	1.49e+00	0	43	104	1097859072	76	21477
2026-01-12 22:44:00.79	157.23	6.50	-52.7	-67.9	3.8	1.49e+00	0	43	104	1097859072	76	21494
2026-01-12 22:44:01.50	157.29	6.45	-52.7	-67.9	3.8	1.49e+00	0	43	104	1097859072	76	21473
2026-01-12 22:44:02.77	157.39	6.37	-52.7	-67.9	3.8	1.49e+00	0	43	104	1097859072	76	21491
2026-01-12 22:44:03.50	157.44	6.32	-52.7	-68.0	3.8	1.49e+00	0	43	104	1097859072	76	21563
2026-01-12 22:44:04.78	157.54	6.24	-52.7	-67.9	3.8	1.49e+00	0	44	104	1097859072	76	21495
2026-01-12 22:44:05.49	157.60	6.19	-52.7	-67.9	3.8	1.49e+00	0	43	104	1097859072	76	21397
2026-01-12 22:44:06.76	157.69	6.11	-52.7	-68.0	3.8	1.49e+00	0	43	104	1097859072	76	21525
2026-01-12 22:44:07.47	157.75	6.06	-52.7	-67.9	3.8	1.49e+00	0	43	104	1097859072	76	21484
2026-01-12 22:44:08.75	157.84	5.98	-52.7	-67.9	3.8	1.49e+00	0	43	104	1097859072	76	21447
2026-01-12 22:44:09.47	157.90	5.93	-52.7	-67.9	3.8	1.49e+00	0	43	104	1097859072	76	21499
2026-01-12 22:44:10.75	158.00	5.84	-52.7	-67.9	3.8	1.49e+00	0	43	104	1097859072	76	21437
2026-01-12 22:44:11.48	158.05	5.80	-52.7	-68.0	3.8	1.49e+00	0	43	104	1097859072	76	21518
2026-01-12 22:44:12.75	158.14	5.72	-52.7	-67.9	3.8	1.49e+00	0	43	104	1097859072	76	21496
2026-01-12 22:44:13.48	158.20	5.67	-52.7	-67.9	3.8	1.49e+00	0	43	104	1097859072	76	21426
2026-01-12 22:44:14.76	158.29	5.58	-52.7	-68.0	3.8	1.49e+00	0	43	104	1097859072	76	21524
2026-01-12 22:44:15.46	158.35	5.54	-52.7	-67.9	3.8	1.49e+00	0	43	104	1097859072	76	21465
2026-01-12 22:44:16.74	158.44	5.46	-52.7	-67.9	3.8	1.49e+00	0	43	104	1097859072	76	21478
2026-01-12 22:44:17.45	158.49	5.41	-52.7	-68.0	3.8	1.49e+00	0	43	104	1097859072	76	21557
2026-01-12 22:44:18.73	158.58	5.33	-52.7	-67.9	3.8	1.49e+00	0	43	104	1097859072	76	21424
2026-01-12 22:44:19.45	158.64	5.28	-52.7	-68.0	3.8	1.49e+00	0	43	104	1097859072	76	21542
2026-01-12 22:44:20.73	158.73	5.20	-52.7	-67.9	3.8	1.49e+00	0	43	104	1097859072	76	21443
2026-01-12 22:44:21.44	158.78	5.16	-52.7	-67.9	3.8	1.49e+00	0	43	104	1097859072	76	21445
2026-01-12 22:44:22.72	158.87	5.07	-52.7	-67.9	3.8	1.49e+00	0	43	104	1097859072	76	21504
2026-01-12 22:44:23.43	158.92	5.03	-52.7	-67.9	3.8	1.49e+00	0	43	104	1097859072	76	21360
