passes_logs/2026/01/12/T1/T1__20260112_234302_NOAA_21_JPSS-2_rec.log

#Pass ID: 20260112_234302_NOAA 21 (JPSS-2)
#Satellite: NOAA 21 (JPSS-2)
#Configuration: NOAA 21
#almurnet v.1.7.20251203
#Start time: 2026-01-12 23:43:03

#Version: 2.0.20230620
#Station: T1
#Location: 37.570604 lon 55.790049 lat
#TLE: 1 54234U 22150A   26012.26378519  .00000063  00000+0  50547-4 0  9993
#TLE: 2 54234  98.7495 313.1967 0000726 309.1075  51.0036 14.19534275164425

#Time	Az	El	Level	Level2	SNR	BER	BlckErr	Temp	State	Recorded	gain1	gain2
2026-01-12 23:43:03.91	16.12	5.13	-48.5	-63.0	3.8	1.49e+00	0	41	0	0	68	19292
2026-01-12 23:43:04.90	16.13	5.20	-48.3	-62.9	3.8	1.49e+00	0	41	104	0	67	20251
2026-01-12 23:43:05.89	16.13	5.27	-48.3	-62.9	3.8	1.49e+00	0	41	104	0	67	20088
2026-01-12 23:43:06.89	16.13	5.34	-48.3	-62.7	3.8	1.49e+00	0	42	104	0	67	19821
2026-01-12 23:43:07.88	16.13	5.41	-48.3	-62.6	3.8	1.49e+00	0	42	104	0	67	19480
2026-01-12 23:43:08.87	16.13	5.49	-48.3	-62.4	3.8	1.49e+00	0	42	104	0	67	19141
2026-01-12 23:43:09.87	16.14	5.56	-48.3	-62.3	3.8	1.49e+00	0	41	104	0	67	18905
2026-01-12 23:43:10.86	16.14	5.63	-48.3	-62.2	3.8	1.49e+00	0	41	104	0	67	18583
2026-01-12 23:43:11.85	16.14	5.70	-48.3	-62.0	3.8	1.49e+00	0	42	104	0	67	18256
2026-01-12 23:43:12.85	16.14	5.78	-48.3	-62.1	3.8	1.49e+00	0	42	104	0	67	18319
2026-01-12 23:43:13.84	16.15	5.85	-48.3	-62.1	3.8	1.49e+00	0	42	104	0	67	18417
2026-01-12 23:43:14.83	16.15	5.92	-48.3	-62.2	3.8	1.49e+00	0	42	104	0	67	18643
2026-01-12 23:43:15.82	16.15	5.99	-48.3	-62.3	3.8	1.49e+00	0	42	104	0	67	18854
2026-01-12 23:43:16.82	16.15	6.07	-48.3	-62.5	3.8	1.49e+00	0	42	104	0	67	19289
2026-01-12 23:43:17.81	16.15	6.14	-48.3	-62.6	3.8	1.49e+00	0	42	104	0	67	19399
2026-01-12 23:43:18.80	16.16	6.22	-48.3	-62.7	3.8	1.49e+00	0	42	104	0	67	19658
2026-01-12 23:43:19.80	16.16	6.29	-48.3	-62.8	3.8	1.49e+00	0	42	104	0	67	19997
2026-01-12 23:43:20.79	16.16	6.36	-48.3	-62.9	3.8	1.49e+00	0	42	104	0	67	20131
2026-01-12 23:43:21.78	16.16	6.44	-48.3	-62.9	3.8	1.49e+00	0	42	104	0	67	20147
2026-01-12 23:43:22.78	16.16	6.51	-48.3	-63.0	3.8	1.49e+00	0	42	104	0	67	20374
2026-01-12 23:43:23.77	16.17	6.59	-48.3	-63.0	3.8	1.49e+00	0	42	104	0	67	20490
2026-01-12 23:43:24.76	16.17	6.66	-48.3	-63.1	3.8	1.49e+00	0	42	104	0	67	20659
2026-01-12 23:43:25.76	16.17	6.74	-48.4	-63.2	3.8	1.49e+00	0	42	104	0	67	20806
2026-01-12 23:43:26.75	16.17	6.81	-48.3	-63.2	3.8	1.49e+00	0	42	104	0	67	20857
2026-01-12 23:43:27.74	16.17	6.89	-48.3	-63.1	3.8	1.49e+00	0	42	104	0	67	20678
2026-01-12 23:43:28.74	16.18	6.97	-48.3	-62.9	3.8	1.49e+00	0	42	104	0	67	20090
2026-01-12 23:43:29.73	16.18	7.04	-48.3	-62.4	3.8	1.49e+00	0	42	104	0	67	19164
2026-01-12 23:43:30.72	16.18	7.12	-48.2	-61.7	3.8	1.49e+00	0	42	104	0	67	17676
2026-01-12 23:43:31.71	16.18	7.19	-48.2	-60.2	4.0	1.48e+00	0	42	104	0	67	14851
2026-01-12 23:43:32.70	16.18	7.27	-48.1	-59.4	4.0	1.47e+00	0	42	104	0	67	13513
2026-01-12 23:43:33.70	16.18	7.35	-48.0	-59.0	4.0	1.29e+00	0	42	104	0	67	12896
2026-01-12 23:43:34.69	16.19	7.43	-47.8	-57.3	5.2	6.81e-01	0	42	0	0	67	10566
2026-01-12 23:43:35.68	16.19	7.50	-47.7	-56.3	5.8	4.25e-01	0	42	0	0	67	9492
2026-01-12 23:43:36.68	16.19	7.58	-47.5	-55.8	6.3	2.93e-01	0	43	0	0	67	8878
2026-01-12 23:43:37.67	16.19	7.66	-47.4	-55.2	6.7	1.95e-01	0	42	0	0	66	8856
2026-01-12 23:43:38.66	16.19	7.74	-47.3	-54.9	7.1	1.62e-01	0	43	0	0	66	8481
2026-01-12 23:43:39.66	16.20	7.82	-47.2	-54.4	7.5	1.23e-01	0	42	0	0	66	8055
2026-01-12 23:43:40.65	16.20	7.90	-47.2	-54.3	7.6	9.07e-02	0	42	0	0	66	7903
2026-01-12 23:43:41.65	16.20	7.97	-47.2	-54.1	7.7	8.67e-02	0	43	0	0	66	7790
2026-01-12 23:43:42.64	16.20	8.05	-47.1	-54.0	7.9	6.61e-02	0	43	0	0	66	7641
2026-01-12 23:43:43.63	16.20	8.13	-47.1	-54.0	7.9	7.54e-02	0	43	0	0	66	7648
2026-01-12 23:43:44.63	16.20	8.21	-47.1	-54.0	7.8	8.28e-02	0	43	0	0	66	7718
2026-01-12 23:43:45.62	16.21	8.29	-47.3	-54.5	7.4	1.09e-01	0	43	0	0	66	8134
2026-01-12 23:43:46.61	16.21	8.37	-47.2	-54.4	7.5	1.03e-01	0	43	0	0	66	8009
2026-01-12 23:43:47.61	16.21	8.45	-47.3	-54.6	7.3	1.23e-01	0	43	0	0	66	8249
2026-01-12 23:43:48.60	16.21	8.53	-47.3	-54.7	7.2	1.28e-01	0	43	0	0	66	8310
2026-01-12 23:43:49.59	16.21	8.62	-47.4	-55.0	6.9	1.55e-01	0	43	0	0	66	8606
2026-01-12 23:43:50.59	16.21	8.70	-47.5	-55.4	6.6	2.03e-01	0	43	0	0	66	8983
2026-01-12 23:43:51.58	16.22	8.78	-47.6	-56.1	6.0	3.10e-01	0	43	0	0	66	9720
2026-01-12 23:43:52.57	16.22	8.86	-47.7	-56.6	5.6	4.03e-01	0	43	0	0	66	10401
2026-01-12 23:43:53.57	16.22	8.94	-47.9	-57.7	5.0	6.07e-01	0	43	0	0	66	11719
2026-01-12 23:43:54.56	16.22	9.03	-48.0	-58.7	4.3	1.07e+00	0	43	104	0	66	13257
2026-01-12 23:43:55.56	16.22	9.11	-48.3	-61.6	3.8	1.47e+00	0	43	104	0	67	17425
2026-01-12 23:43:56.55	16.22	9.19	-48.4	-62.9	3.8	1.49e+00	0	43	104	0	67	20243
2026-01-12 23:43:57.55	16.23	9.28	-48.1	-59.6	3.9	1.49e+00	0	43	104	0	67	13828
2026-01-12 23:43:58.54	16.23	9.36	-45.5	-49.5	12.5	1.07e-03	0	43	0	0	63	5464
2026-01-12 23:43:59.53	16.23	9.44	-46.2	-51.1	11.0	6.40e-05	0	43	0	0	62	6922
2026-01-12 23:44:00.53	16.23	9.53	-46.3	-51.5	10.3	1.06e-01	0	43	0	0	64	6426
2026-01-12 23:44:01.52	16.23	9.61	-45.3	-49.2	13.0	4.50e-05	0	43	0	0	62	5551
2026-01-12 23:44:02.52	16.23	9.70	-45.2	-49.1	13.0	2.59e-05	0	43	0	0	62	5489
2026-01-12 23:44:03.51	16.23	9.78	-45.0	-48.8	13.4	2.97e-05	0	43	0	0	62	5280
2026-01-12 23:44:04.51	16.24	9.87	-45.0	-48.7	13.4	1.22e-05	0	43	0	0	61	5588
2026-01-12 23:44:05.51	16.24	9.95	-44.7	-48.1	14.0	2.20e-06	0	43	0	0	61	5184
2026-01-12 23:44:06.50	16.24	10.04	-44.4	-47.7	14.5	7.00e-07	0	43	0	0	60	5223
2026-01-12 23:44:07.50	16.24	10.13	-44.4	-47.7	14.5	1.50e-06	0	43	0	0	60	5231
2026-01-12 23:44:08.49	16.24	10.21	-44.2	-47.3	14.8	7.00e-07	0	43	0	0	60	5030
2026-01-12 23:44:09.49	16.24	10.30	-44.3	-47.5	14.7	0.00e+00	0	43	0	0	60	5113
2026-01-12 23:44:10.48	16.24	10.39	-44.2	-47.4	14.8	0.00e+00	0	43	0	0	60	5052
2026-01-12 23:44:11.48	16.25	10.47	-44.3	-47.5	14.7	0.00e+00	0	43	0	0	60	5120
2026-01-12 23:44:12.47	16.25	10.56	-44.2	-47.4	14.8	0.00e+00	0	43	0	0	60	5065
2026-01-12 23:44:13.47	16.25	10.65	-43.9	-46.9	15.2	0.00e+00	0	43	0	0	59	5080
2026-01-12 23:44:14.46	16.25	10.74	-43.8	-46.7	15.4	0.00e+00	0	43	0	0	59	4968
2026-01-12 23:44:15.46	16.25	10.83	-43.6	-46.4	15.7	0.00e+00	0	43	0	0	59	4813
2026-01-12 23:44:16.45	16.25	10.92	-43.5	-46.3	15.8	0.00e+00	0	43	0	0	59	4753
2026-01-12 23:44:17.44	16.25	11.00	-43.8	-46.7	15.4	0.00e+00	0	43	0	0	59	4951
2026-01-12 23:44:18.44	16.25	11.09	-43.5	-46.3	15.8	0.00e+00	0	43	0	0	58	4995
2026-01-12 23:44:19.43	16.25	11.18	-43.5	-46.3	15.9	0.00e+00	0	43	0	0	58	4998
2026-01-12 23:44:20.43	16.26	11.28	-43.4	-46.2	15.9	0.00e+00	0	43	0	0	58	4979
2026-01-12 23:44:21.42	16.26	11.37	-43.4	-46.2	15.9	0.00e+00	0	43	0	0	58	4970
2026-01-12 23:44:22.42	16.26	11.46	-43.4	-46.3	15.9	0.00e+00	0	43	0	0	58	4984
2026-01-12 23:44:23.41	16.26	11.55	-43.3	-46.0	16.1	0.00e+00	0	43	0	0	58	4842
2026-01-12 23:44:24.41	16.26	11.64	-43.4	-46.2	16.0	7.00e-07	0	43	0	0	58	4927
2026-01-12 23:44:25.40	16.26	11.73	-43.3	-46.0	16.1	0.00e+00	0	43	0	0	58	4866
2026-01-12 23:44:26.40	16.26	11.83	-43.5	-46.3	15.9	0.00e+00	0	43	0	0	58	5017
2026-01-12 23:44:27.44	16.26	11.92	-43.3	-46.0	16.2	0.00e+00	0	43	0	0	58	4817
2026-01-12 23:44:28.43	16.26	12.01	-43.4	-46.1	16.1	0.00e+00	0	43	0	0	58	4891
2026-01-12 23:44:29.47	16.27	12.11	-43.4	-46.2	16.0	0.00e+00	0	43	0	0	58	4937
2026-01-12 23:44:30.42	16.27	12.20	-43.3	-46.0	16.2	0.00e+00	0	43	0	0	58	4844
2026-01-12 23:44:31.54	16.27	12.31	-43.4	-46.1	16.1	0.00e+00	0	43	0	0	58	4917
2026-01-12 23:44:32.41	16.27	12.39	-43.4	-46.1	16.1	0.00e+00	0	43	0	0	58	4882
2026-01-12 23:44:33.55	16.27	12.50	-43.4	-46.0	16.2	0.00e+00	0	43	0	0	58	4854
2026-01-12 23:44:34.40	16.27	12.58	-43.4	-46.1	16.2	0.00e+00	0	43	0	0	58	4876
2026-01-12 23:44:35.54	16.27	12.69	-43.4	-46.1	16.1	0.00e+00	0	43	0	0	58	4894
2026-01-12 23:44:36.39	16.27	12.77	-43.5	-46.2	16.0	0.00e+00	0	43	0	0	58	4941
2026-01-12 23:44:37.53	16.27	12.88	-43.4	-46.1	16.1	0.00e+00	0	43	0	0	58	4876
2026-01-12 23:44:38.38	16.27	12.97	-43.5	-46.2	16.0	0.00e+00	0	43	0	0	58	4929
2026-01-12 23:44:39.51	16.27	13.08	-43.6	-46.3	15.9	0.00e+00	0	43	0	0	58	5021
2026-01-12 23:44:40.37	16.27	13.16	-43.5	-46.2	16.0	0.00e+00	0	43	0	0	58	4927
2026-01-12 23:44:41.51	16.28	13.27	-43.4	-45.9	16.3	0.00e+00	0	43	0	0	58	4814
2026-01-12 23:44:42.36	16.28	13.36	-43.4	-45.9	16.3	0.00e+00	0	43	0	0	58	4777
2026-01-12 23:44:43.50	16.28	13.47	-43.4	-45.9	16.3	0.00e+00	0	43	0	0	58	4786
2026-01-12 23:44:44.35	16.28	13.56	-43.5	-45.9	16.3	0.00e+00	0	43	0	0	58	4790
2026-01-12 23:44:45.49	16.28	13.67	-43.4	-45.9	16.3	0.00e+00	0	43	0	0	58	4765
2026-01-12 23:44:46.34	16.28	13.76	-43.5	-46.0	16.2	0.00e+00	0	43	0	0	58	4828
2026-01-12 23:44:47.48	16.28	13.87	-43.5	-45.9	16.3	0.00e+00	0	43	0	0	58	4790
2026-01-12 23:44:48.33	16.28	13.96	-43.5	-45.9	16.3	0.00e+00	0	43	0	0	58	4807
2026-01-12 23:44:49.61	16.28	14.09	-43.6	-46.1	16.1	0.00e+00	0	43	0	0	58	4898
2026-01-12 23:44:50.32	16.28	14.16	-43.5	-45.9	16.3	0.00e+00	0	43	0	0	58	4782
2026-01-12 23:44:51.62	16.28	14.30	-43.4	-45.8	16.4	0.00e+00	0	43	0	0	58	4748
2026-01-12 23:44:52.33	16.28	14.37	-43.4	-45.8	16.4	0.00e+00	0	43	0	0	58	4744
2026-01-12 23:44:53.61	16.28	14.50	-43.4	-45.8	16.4	0.00e+00	0	43	0	0	58	4716
2026-01-12 23:44:54.32	16.28	14.58	-43.4	-45.8	16.4	0.00e+00	0	43	0	0	58	4711
2026-01-12 23:44:55.60	16.28	14.71	-43.4	-45.8	16.5	0.00e+00	0	44	0	0	58	4714
2026-01-12 23:44:56.31	16.28	14.78	-43.4	-45.8	16.4	0.00e+00	0	43	0	0	58	4736
2026-01-12 23:44:57.59	16.28	14.92	-43.4	-45.7	16.5	0.00e+00	0	43	0	0	58	4696
2026-01-12 23:44:58.31	16.28	15.00	-43.3	-45.7	16.5	0.00e+00	0	44	0	0	58	4670
2026-01-12 23:44:59.59	16.28	15.13	-43.4	-45.7	16.5	0.00e+00	0	43	0	0	58	4705
2026-01-12 23:45:00.30	16.28	15.21	-43.4	-45.8	16.4	0.00e+00	0	43	0	0	58	4724
2026-01-12 23:45:01.63	16.28	15.35	-43.4	-45.7	16.5	0.00e+00	0	43	0	0	58	4683
2026-01-12 23:45:02.34	16.28	15.43	-43.5	-45.8	16.5	0.00e+00	0	43	0	0	58	4718
2026-01-12 23:45:03.62	16.28	15.57	-43.4	-45.6	16.6	0.00e+00	0	43	0	0	58	4646
2026-01-12 23:45:04.36	16.28	15.65	-43.4	-45.7	16.5	0.00e+00	0	43	0	0	58	4683
2026-01-12 23:45:05.72	16.28	15.79	-43.5	-45.8	16.5	0.00e+00	0	43	0	0	58	4707
2026-01-12 23:45:06.43	16.28	15.87	-43.4	-45.6	16.6	0.00e+00	0	43	0	0	58	4628
2026-01-12 23:45:07.77	16.28	16.02	-43.4	-45.7	16.5	0.00e+00	0	43	0	0	58	4670
2026-01-12 23:45:08.49	16.28	16.10	-43.5	-45.8	16.5	0.00e+00	0	43	0	0	58	4726
2026-01-12 23:45:09.77	16.28	16.24	-43.4	-45.7	16.6	0.00e+00	0	43	0	0	58	4659
2026-01-12 23:45:10.48	16.28	16.32	-43.5	-45.7	16.5	0.00e+00	0	43	0	0	58	4698
2026-01-12 23:45:11.76	16.28	16.47	-43.5	-45.7	16.5	0.00e+00	0	43	0	0	58	4681
2026-01-12 23:45:12.48	16.28	16.55	-43.5	-45.8	16.5	0.00e+00	0	43	0	0	58	4712
2026-01-12 23:45:13.76	16.28	16.69	-43.6	-45.8	16.4	0.00e+00	0	43	0	0	58	4737
2026-01-12 23:45:14.47	16.28	16.77	-43.5	-45.7	16.5	0.00e+00	0	43	0	0	58	4699
2026-01-12 23:45:15.75	16.28	16.92	-43.6	-45.8	16.5	0.00e+00	0	43	0	0	58	4722
2026-01-12 23:45:16.46	16.28	17.00	-43.7	-45.9	16.4	0.00e+00	0	43	0	0	58	4778
2026-01-12 23:45:17.74	16.28	17.15	-43.5	-45.7	16.5	0.00e+00	0	43	0	0	58	4679
2026-01-12 23:45:18.46	16.28	17.23	-43.6	-45.8	16.4	0.00e+00	0	43	0	0	58	4748
2026-01-12 23:45:19.73	16.28	17.38	-43.7	-45.9	16.4	0.00e+00	0	43	0	0	58	4764
2026-01-12 23:45:20.66	16.28	17.49	-43.6	-45.7	16.6	0.00e+00	0	43	0	0	58	4686
2026-01-12 23:45:21.96	16.28	17.64	-43.7	-45.9	16.4	0.00e+00	0	44	0	0	58	4792
2026-01-12 23:45:22.67	16.28	17.73	-43.8	-46.0	16.3	0.00e+00	0	43	0	0	58	4819
2026-01-12 23:45:23.95	16.28	17.88	-43.7	-45.8	16.5	0.00e+00	0	43	0	0	58	4749
2026-01-12 23:45:24.67	16.28	17.97	-43.6	-45.8	16.5	0.00e+00	0	43	0	0	58	4727
2026-01-12 23:45:25.95	16.28	18.12	-43.5	-45.7	16.6	0.00e+00	0	43	0	0	58	4668
2026-01-12 23:45:26.67	16.28	18.21	-43.6	-45.8	16.5	0.00e+00	0	43	0	0	58	4713
2026-01-12 23:45:27.95	16.28	18.36	-43.4	-45.6	16.7	0.00e+00	0	43	0	0	58	4612
2026-01-12 23:45:28.68	16.28	18.45	-43.5	-45.6	16.6	0.00e+00	0	43	0	0	58	4639
2026-01-12 23:45:30.04	16.28	18.62	-43.6	-45.8	16.5	0.00e+00	0	44	0	0	58	4709
2026-01-12 23:45:30.75	16.28	18.71	-43.5	-45.6	16.7	0.00e+00	0	43	0	0	58	4613
2026-01-12 23:45:32.03	16.28	18.87	-43.5	-45.7	16.6	0.00e+00	0	44	0	0	58	4661
2026-01-12 23:45:32.74	16.27	18.95	-43.5	-45.6	16.7	0.00e+00	0	43	0	0	58	4639
2026-01-12 23:45:34.14	16.27	19.13	-43.4	-45.5	16.7	0.00e+00	0	43	0	0	58	4596
2026-01-12 23:45:34.85	16.27	19.22	-43.4	-45.5	16.8	0.00e+00	0	43	0	0	58	4567
2026-01-12 23:45:36.13	16.27	19.38	-43.5	-45.6	16.7	0.00e+00	0	43	0	0	58	4622
2026-01-12 23:45:36.86	16.27	19.47	-43.4	-45.5	16.8	0.00e+00	0	44	0	0	58	4578
2026-01-12 23:45:38.24	16.27	19.65	-43.2	-45.3	17.0	0.00e+00	0	44	0	0	58	4466
2026-01-12 23:45:38.95	16.27	19.74	-43.2	-45.4	16.9	0.00e+00	0	43	0	0	58	4501
2026-01-12 23:45:40.23	16.27	19.91	-43.3	-45.5	16.9	0.00e+00	0	43	0	0	58	4547
2026-01-12 23:45:40.94	16.27	20.00	-43.2	-45.4	16.9	0.00e+00	0	43	0	0	58	4498
2026-01-12 23:45:42.22	16.26	20.17	-43.1	-45.2	17.1	0.00e+00	0	43	0	0	58	4411
2026-01-12 23:45:42.93	16.26	20.26	-43.1	-45.2	17.1	0.00e+00	0	44	0	0	58	4400
2026-01-12 23:45:44.21	16.26	20.43	-43.0	-45.1	17.2	0.00e+00	0	44	0	0	58	4359
2026-01-12 23:45:44.93	16.26	20.52	-43.1	-45.1	17.2	0.00e+00	0	43	0	0	58	4385
2026-01-12 23:45:46.21	16.26	20.70	-43.0	-45.1	17.1	0.00e+00	0	44	0	0	58	4375
2026-01-12 23:45:46.94	16.26	20.79	-43.0	-45.0	17.2	0.00e+00	0	44	0	0	57	4580
2026-01-12 23:45:48.22	16.26	20.97	-43.0	-45.1	17.2	0.00e+00	0	44	0	0	57	4604
2026-01-12 23:45:49.01	16.26	21.07	-42.9	-45.0	17.3	0.00e+00	0	43	0	0	57	4572
2026-01-12 23:45:50.21	16.25	21.24	-42.7	-44.7	17.5	0.00e+00	0	43	0	0	57	4425
2026-01-12 23:45:51.19	16.25	21.37	-42.7	-44.7	17.6	0.00e+00	0	44	0	0	57	4406
2026-01-12 23:45:52.36	16.25	21.53	-42.6	-44.6	17.7	0.00e+00	0	44	0	0	57	4370
2026-01-12 23:45:53.21	16.25	21.65	-42.5	-44.6	17.7	0.00e+00	0	44	0	0	57	4345
2026-01-12 23:45:54.35	16.25	21.81	-42.5	-44.5	17.7	0.00e+00	0	43	0	0	57	4329
2026-01-12 23:45:55.20	16.24	21.93	-42.5	-44.5	17.7	0.00e+00	0	44	0	0	57	4336
2026-01-12 23:45:56.33	16.24	22.09	-42.3	-44.3	17.9	0.00e+00	0	44	0	0	56	4474
2026-01-12 23:45:57.19	16.24	22.21	-42.2	-44.2	18.0	0.00e+00	0	44	0	0	56	4429
2026-01-12 23:45:58.33	16.24	22.37	-42.3	-44.3	18.0	0.00e+00	0	44	0	0	56	4446
2026-01-12 23:45:59.18	16.24	22.50	-42.2	-44.1	18.1	0.00e+00	0	43	0	0	56	4381
2026-01-12 23:46:00.31	16.23	22.66	-42.1	-44.1	18.1	0.00e+00	0	44	0	0	56	4354
2026-01-12 23:46:01.16	16.23	22.78	-42.1	-44.1	18.2	0.00e+00	0	44	0	0	56	4350
2026-01-12 23:46:02.33	16.23	22.95	-42.0	-44.0	18.3	0.00e+00	0	44	0	0	56	4296
2026-01-12 23:46:03.18	16.23	23.08	-42.1	-44.0	18.2	0.00e+00	0	44	0	0	56	4327
2026-01-12 23:46:04.40	16.22	23.26	-42.0	-44.0	18.3	0.00e+00	0	43	0	0	56	4300
2026-01-12 23:46:05.25	16.22	23.38	-42.1	-44.0	18.2	0.00e+00	0	43	0	0	56	4319
2026-01-12 23:46:06.39	16.22	23.55	-42.0	-43.9	18.3	0.00e+00	0	44	0	0	56	4271
2026-01-12 23:46:07.24	16.22	23.68	-41.8	-43.7	18.3	0.00e+00	0	44	0	0	55	4433
2026-01-12 23:46:08.50	16.21	23.87	-41.9	-43.7	18.3	0.00e+00	0	44	0	0	55	4437
2026-01-12 23:46:09.29	16.21	23.99	-41.9	-43.8	18.3	0.00e+00	0	43	0	0	55	4473
2026-01-12 23:46:10.49	16.21	24.17	-41.8	-43.7	18.4	0.00e+00	0	43	0	0	55	4416
2026-01-12 23:46:11.34	16.21	24.31	-42.0	-43.9	18.2	0.00e+00	0	43	0	0	55	4522
2026-01-12 23:46:12.60	16.20	24.50	-42.0	-43.9	18.2	0.00e+00	0	43	0	0	55	4500
2026-01-12 23:46:13.39	16.20	24.62	-42.0	-43.9	18.2	0.00e+00	0	43	0	0	55	4509
2026-01-12 23:46:14.59	16.20	24.81	-42.1	-44.0	18.1	0.00e+00	0	43	0	0	55	4597
2026-01-12 23:46:15.44	16.19	24.95	-42.1	-44.0	18.1	0.00e+00	0	43	0	0	55	4566
2026-01-12 23:46:16.58	16.19	25.13	-42.1	-44.0	18.1	0.00e+00	0	44	0	0	55	4550
2026-01-12 23:46:17.43	16.19	25.26	-42.2	-44.1	18.1	0.00e+00	0	44	0	0	55	4616
2026-01-12 23:46:18.57	16.18	25.45	-42.1	-44.0	18.1	0.00e+00	0	43	0	0	55	4583
2026-01-12 23:46:19.42	16.18	25.58	-42.2	-44.1	18.0	0.00e+00	0	43	0	0	55	4634
2026-01-12 23:46:20.56	16.18	25.77	-42.2	-44.1	18.0	0.00e+00	0	43	0	0	55	4640
2026-01-12 23:46:21.42	16.17	25.91	-42.3	-44.2	17.9	0.00e+00	0	43	0	0	55	4692
2026-01-12 23:46:22.55	16.17	26.09	-42.4	-44.4	17.8	0.00e+00	0	43	0	0	55	4764
2026-01-12 23:46:23.41	16.17	26.24	-42.4	-44.3	17.8	0.00e+00	0	44	0	0	55	4755
2026-01-12 23:46:24.54	16.16	26.42	-42.5	-44.5	17.7	0.00e+00	0	44	0	0	55	4819
2026-01-12 23:46:25.39	16.16	26.57	-42.5	-44.5	17.6	0.00e+00	0	44	0	0	55	4855
2026-01-12 23:46:26.53	16.16	26.76	-42.6	-44.6	17.5	0.00e+00	0	44	0	0	55	4906
2026-01-12 23:46:27.38	16.15	26.90	-43.0	-45.0	17.3	0.00e+00	0	43	0	0	56	4851
2026-01-12 23:46:28.60	16.15	27.11	-42.9	-45.0	17.3	0.00e+00	0	44	0	0	56	4828
2026-01-12 23:46:29.86	16.14	27.33	-43.0	-45.1	17.2	0.00e+00	0	43	0	0	56	4905
2026-01-12 23:46:30.67	16.14	27.47	-43.1	-45.2	17.1	0.00e+00	0	43	0	0	56	4951
2026-01-12 23:46:31.80	16.13	27.67	-43.2	-45.3	17.0	0.00e+00	0	43	0	0	57	4725
2026-01-12 23:46:32.66	16.13	27.82	-43.3	-45.4	17.0	0.00e+00	0	43	0	0	57	4773
2026-01-12 23:46:33.79	16.12	28.02	-43.5	-45.6	16.7	0.00e+00	0	43	0	0	57	4911
2026-01-12 23:46:34.64	16.12	28.17	-43.5	-45.6	16.8	0.00e+00	0	44	0	0	57	4910
2026-01-12 23:46:35.78	16.11	28.37	-43.6	-45.8	16.6	0.00e+00	0	44	0	0	57	5039
2026-01-12 23:46:36.63	16.11	28.52	-43.6	-45.8	16.6	0.00e+00	0	43	0	0	57	5029
2026-01-12 23:46:37.77	16.10	28.73	-43.7	-45.9	16.5	0.00e+00	0	43	0	0	58	4792
2026-01-12 23:46:38.62	16.10	28.89	-43.6	-45.8	16.6	0.00e+00	0	43	0	0	58	4750
2026-01-12 23:46:39.76	16.09	29.09	-43.7	-45.9	16.5	0.00e+00	0	43	0	0	58	4801
2026-01-12 23:46:40.74	16.09	29.28	-43.6	-45.8	16.6	0.00e+00	0	44	0	0	58	4732
2026-01-12 23:46:41.74	16.08	29.46	-43.7	-45.9	16.6	0.00e+00	0	43	0	0	58	4760
2026-01-12 23:46:42.73	16.08	29.65	-43.6	-45.8	16.7	0.00e+00	0	44	0	0	58	4728
2026-01-12 23:46:43.93	16.07	29.87	-43.6	-45.8	16.7	0.00e+00	0	43	0	0	58	4733
2026-01-12 23:46:44.80	16.07	30.04	-43.3	-45.4	17.0	0.00e+00	0	44	0	0	58	4540
2026-01-12 23:46:46.09	16.06	30.29	-43.3	-45.4	17.1	0.00e+00	0	43	0	0	58	4517
2026-01-12 23:46:46.80	16.06	30.42	-43.3	-45.4	17.1	0.00e+00	0	44	0	0	58	4515
2026-01-12 23:46:48.29	16.05	30.71	-43.2	-45.3	17.2	0.00e+00	0	44	0	0	58	4449
2026-01-12 23:46:48.99	16.04	30.85	-43.0	-45.0	17.4	0.00e+00	0	43	0	0	58	4331
2026-01-12 23:46:50.29	16.03	31.10	-42.8	-44.9	17.6	0.00e+00	0	44	0	0	57	4497
2026-01-12 23:46:51.00	16.03	31.24	-42.9	-44.9	17.5	0.00e+00	0	44	0	0	57	4514
2026-01-12 23:46:52.28	16.02	31.50	-42.7	-44.7	17.7	0.00e+00	0	43	0	0	57	4410
2026-01-12 23:46:53.00	16.02	31.64	-42.7	-44.7	17.8	0.00e+00	0	43	0	0	57	4392
2026-01-12 23:46:54.28	16.01	31.90	-42.6	-44.6	17.9	0.00e+00	0	43	0	0	57	4344
2026-01-12 23:46:54.99	16.00	32.05	-42.7	-44.7	17.7	0.00e+00	0	43	0	0	57	4414
2026-01-12 23:46:56.27	15.99	32.31	-42.7	-44.6	17.8	0.00e+00	0	43	0	0	57	4389
2026-01-12 23:46:56.98	15.99	32.46	-42.8	-44.7	17.7	0.00e+00	0	43	0	0	57	4433
2026-01-12 23:46:58.26	15.98	32.72	-42.9	-44.9	17.5	0.00e+00	0	44	0	0	57	4517
2026-01-12 23:46:58.99	15.97	32.88	-43.1	-45.1	17.4	0.00e+00	0	44	0	0	57	4629
2026-01-12 23:47:00.26	15.96	33.14	-43.2	-45.2	17.2	0.00e+00	0	44	0	0	57	4692
2026-01-12 23:47:00.99	15.96	33.30	-43.3	-45.3	17.1	0.00e+00	0	44	0	0	57	4757
2026-01-12 23:47:02.27	15.95	33.57	-43.4	-45.5	17.0	0.00e+00	0	44	0	0	57	4838
2026-01-12 23:47:02.99	15.94	33.73	-43.5	-45.6	16.9	0.00e+00	0	44	0	0	57	4887
2026-01-12 23:47:04.27	15.93	34.00	-43.6	-45.7	16.7	0.00e+00	0	44	0	0	57	4970
2026-01-12 23:47:04.99	15.93	34.16	-43.7	-45.9	16.6	0.00e+00	0	43	0	0	58	4774
2026-01-12 23:47:06.27	15.91	34.44	-43.9	-46.2	16.3	0.00e+00	0	43	0	0	58	4929
2026-01-12 23:47:06.98	15.91	34.60	-44.1	-46.4	16.1	0.00e+00	0	44	0	0	58	5055
2026-01-12 23:47:08.25	15.90	34.88	-44.2	-46.5	16.0	0.00e+00	0	44	0	0	59	4835
2026-01-12 23:47:08.98	15.89	35.05	-44.2	-46.5	16.0	0.00e+00	0	44	0	0	59	4821
2026-01-12 23:47:10.26	15.88	35.34	-44.4	-46.7	15.8	0.00e+00	0	44	0	0	59	4952
2026-01-12 23:47:10.97	15.87	35.50	-44.5	-46.9	15.6	0.00e+00	0	44	0	0	59	5054
2026-01-12 23:47:12.25	15.86	35.79	-44.6	-47.0	15.5	0.00e+00	0	44	0	0	59	5129
2026-01-12 23:47:12.99	15.85	35.96	-44.7	-47.2	15.5	0.00e+00	0	44	0	0	60	4939
2026-01-12 23:47:14.27	15.84	36.26	-45.0	-47.5	15.2	0.00e+00	0	44	0	0	60	5137
2026-01-12 23:47:14.98	15.83	36.43	-45.2	-47.8	14.9	0.00e+00	0	44	0	0	60	5285
2026-01-12 23:47:16.26	15.82	36.73	-45.2	-47.8	14.9	0.00e+00	0	44	0	0	61	4998
2026-01-12 23:47:16.98	15.81	36.90	-45.1	-47.6	15.0	0.00e+00	0	44	0	0	61	4922
2026-01-12 23:47:18.26	15.80	37.21	-45.1	-47.6	15.0	0.00e+00	0	44	0	0	61	4895
2026-01-12 23:47:18.97	15.79	37.38	-45.0	-47.5	15.1	0.00e+00	0	44	0	0	61	4848
2026-01-12 23:47:20.27	15.77	37.70	-44.8	-47.2	15.4	0.00e+00	0	44	0	0	61	4700
2026-01-12 23:47:20.98	15.77	37.87	-44.7	-47.1	15.5	0.00e+00	0	44	0	0	61	4644
2026-01-12 23:47:22.26	15.75	38.19	-44.6	-46.9	15.7	0.00e+00	0	43	0	0	61	4540
2026-01-12 23:47:22.97	15.74	38.36	-44.6	-46.9	15.7	0.00e+00	0	44	0	0	61	4539
2026-01-12 23:47:24.25	15.73	38.68	-44.4	-46.8	15.8	0.00e+00	0	44	0	0	60	4711
2026-01-12 23:47:24.96	15.72	38.86	-44.2	-46.5	16.1	0.00e+00	0	44	0	0	60	4562
2026-01-12 23:47:26.24	15.70	39.19	-44.0	-46.4	16.2	0.00e+00	0	43	0	0	60	4510
2026-01-12 23:47:26.95	15.69	39.37	-44.1	-46.4	16.1	0.00e+00	0	44	0	0	60	4529
2026-01-12 23:47:28.23	15.68	39.70	-44.2	-46.5	16.0	0.00e+00	0	43	0	0	60	4588
2026-01-12 23:47:28.93	15.67	39.88	-44.1	-46.4	16.1	0.00e+00	0	44	0	0	60	4506
2026-01-12 23:47:30.31	15.65	40.24	-44.3	-46.6	15.9	0.00e+00	0	44	0	0	60	4632
2026-01-12 23:47:31.03	15.64	40.43	-44.4	-46.8	15.8	0.00e+00	0	44	0	0	60	4709
2026-01-12 23:47:32.31	15.62	40.77	-44.4	-46.8	15.8	0.00e+00	0	44	0	0	60	4720
2026-01-12 23:47:33.02	15.61	40.96	-44.5	-46.9	15.7	0.00e+00	0	44	0	0	60	4777
2026-01-12 23:47:34.30	15.59	41.31	-44.7	-47.1	15.5	0.00e+00	0	44	0	0	60	4926
2026-01-12 23:47:35.18	15.57	41.55	-44.9	-47.4	15.2	0.00e+00	0	44	0	0	60	5059
2026-01-12 23:47:36.32	15.56	41.86	-45.0	-47.6	15.1	0.00e+00	0	44	0	0	60	5174
2026-01-12 23:47:37.17	15.54	42.10	-45.1	-47.7	15.0	0.00e+00	0	44	0	0	60	5256
2026-01-12 23:47:38.31	15.52	42.41	-45.2	-47.8	14.9	0.00e+00	0	44	0	0	61	5004
2026-01-12 23:47:39.16	15.51	42.65	-45.3	-47.9	14.8	0.00e+00	0	44	0	0	61	5062
2026-01-12 23:47:40.30	15.49	42.97	-45.3	-47.9	14.7	0.00e+00	0	44	0	0	61	5095
2026-01-12 23:47:41.16	15.48	43.22	-45.3	-47.8	14.8	0.00e+00	0	44	0	0	61	5041
2026-01-12 23:47:42.29	15.46	43.54	-45.3	-47.9	14.7	0.00e+00	0	44	0	0	61	5083
2026-01-12 23:47:43.14	15.44	43.79	-45.4	-48.1	14.6	7.00e-07	0	44	0	0	61	5173
2026-01-12 23:47:44.41	15.42	44.16	-45.4	-48.1	14.5	0.00e+00	0	43	0	0	61	5199
2026-01-12 23:47:45.23	15.40	44.40	-45.4	-48.1	14.6	0.00e+00	0	44	0	0	61	5161
2026-01-12 23:47:46.36	15.38	44.73	-45.3	-48.0	14.6	0.00e+00	0	44	0	0	61	5147
2026-01-12 23:47:47.22	15.36	44.99	-45.5	-48.2	14.4	7.00e-07	0	44	0	0	61	5246
2026-01-12 23:47:48.35	15.34	45.33	-45.6	-48.3	14.3	0.00e+00	0	44	0	0	61	5336
2026-01-12 23:47:49.21	15.32	45.59	-45.6	-48.4	14.2	2.20e-06	0	44	0	0	61	5384
2026-01-12 23:47:50.34	15.30	45.93	-45.8	-48.5	14.1	1.50e-06	0	43	0	0	62	5157
2026-01-12 23:47:51.19	15.28	46.19	-45.8	-48.6	14.0	2.20e-06	0	43	0	0	62	5178
2026-01-12 23:47:52.33	15.25	46.55	-45.6	-48.3	14.3	7.00e-07	0	44	0	0	62	5033
2026-01-12 23:47:53.18	15.23	46.81	-45.4	-48.0	14.6	0.00e+00	0	44	0	0	62	4869
2026-01-12 23:47:54.32	15.21	47.17	-45.1	-47.7	14.9	0.00e+00	0	44	0	0	62	4663
2026-01-12 23:47:55.17	15.19	47.44	-44.9	-47.4	15.2	0.00e+00	0	44	0	0	61	4760
2026-01-12 23:47:56.31	15.16	47.80	-44.7	-47.1	15.6	0.00e+00	0	44	0	0	61	4599
2026-01-12 23:47:57.16	15.14	48.07	-44.5	-46.9	15.8	7.00e-07	0	44	0	0	61	4508
2026-01-12 23:47:58.30	15.11	48.44	-44.6	-46.9	15.7	0.00e+00	0	44	0	0	60	4800
2026-01-12 23:47:59.15	15.09	48.72	-44.6	-47.0	15.7	0.00e+00	0	44	0	0	60	4828
2026-01-12 23:48:00.32	15.05	49.10	-44.6	-47.0	15.7	0.00e+00	0	44	0	0	60	4829
2026-01-12 23:48:01.17	15.03	49.39	-44.4	-46.8	15.9	0.00e+00	0	44	0	0	60	4713
2026-01-12 23:48:02.31	15.00	49.77	-44.4	-46.7	16.0	0.00e+00	0	44	0	0	60	4668
2026-01-12 23:48:03.16	14.97	50.05	-44.5	-46.8	15.9	0.00e+00	0	44	0	0	60	4719
2026-01-12 23:48:04.29	14.94	50.43	-44.3	-46.6	16.1	0.00e+00	0	44	0	0	60	4628
2026-01-12 23:48:05.15	14.91	50.73	-44.3	-46.6	16.1	0.00e+00	0	44	0	0	60	4615
2026-01-12 23:48:06.28	14.88	51.11	-44.5	-46.8	15.9	0.00e+00	0	44	0	0	60	4743
2026-01-12 23:48:07.13	14.85	51.41	-44.6	-47.0	15.7	0.00e+00	0	44	0	0	60	4858
2026-01-12 23:48:08.49	14.81	51.88	-44.8	-47.2	15.5	0.00e+00	0	43	0	0	60	4978
2026-01-12 23:48:09.21	14.78	52.13	-44.7	-47.1	15.5	0.00e+00	0	43	0	0	60	4920
2026-01-12 23:48:10.48	14.74	52.58	-44.3	-46.7	16.0	0.00e+00	0	44	0	0	60	4667
2026-01-12 23:48:11.20	14.71	52.84	-44.2	-46.5	16.2	0.00e+00	0	44	0	0	60	4556
2026-01-12 23:48:12.47	14.67	53.30	-43.7	-45.8	16.7	0.00e+00	0	44	0	0	59	4478
2026-01-12 23:48:13.20	14.64	53.56	-43.7	-45.8	16.8	0.00e+00	0	44	0	0	59	4444
2026-01-12 23:48:14.48	14.59	54.02	-43.7	-45.8	16.7	0.00e+00	0	44	0	0	59	4474
2026-01-12 23:48:15.19	14.56	54.28	-43.9	-46.0	16.5	0.00e+00	0	44	0	0	59	4591
2026-01-12 23:48:16.47	14.51	54.76	-43.8	-45.9	16.7	0.00e+00	0	44	0	0	59	4536
2026-01-12 23:48:17.19	14.48	55.03	-43.7	-45.8	16.7	0.00e+00	0	44	0	0	59	4454
2026-01-12 23:48:18.47	14.42	55.50	-43.6	-45.7	16.9	0.00e+00	0	44	0	0	59	4394
2026-01-12 23:48:19.20	14.39	55.78	-43.3	-45.3	17.2	0.00e+00	0	44	0	0	58	4478
2026-01-12 23:48:20.48	14.33	56.27	-43.2	-45.2	17.3	0.00e+00	0	44	0	0	58	4412
2026-01-12 23:48:21.20	14.30	56.54	-43.4	-45.5	17.0	0.00e+00	0	44	0	0	58	4561
2026-01-12 23:48:22.48	14.24	57.03	-43.5	-45.6	16.9	0.00e+00	0	43	0	0	58	4643
2026-01-12 23:48:23.19	14.20	57.31	-43.4	-45.5	17.0	0.00e+00	0	44	0	0	58	4589
2026-01-12 23:48:24.47	14.13	57.81	-43.0	-45.0	17.5	0.00e+00	0	44	0	0	58	4334
2026-01-12 23:48:25.20	14.09	58.09	-42.9	-44.9	17.6	0.00e+00	0	44	0	0	57	4503
2026-01-12 23:48:26.48	14.02	58.60	-42.7	-44.6	17.8	0.00e+00	0	44	0	0	57	4385
2026-01-12 23:48:27.19	13.98	58.88	-42.6	-44.5	17.9	0.00e+00	0	44	0	0	57	4325
2026-01-12 23:48:28.47	13.91	59.40	-42.6	-44.5	17.9	0.00e+00	0	44	0	0	57	4324
2026-01-12 23:48:29.18	13.87	59.68	-42.5	-44.5	18.0	0.00e+00	0	44	0	0	57	4292
2026-01-12 23:48:30.46	13.78	60.20	-42.2	-44.1	18.3	0.00e+00	0	44	0	0	56	4355
2026-01-12 23:48:31.27	13.73	60.53	-42.1	-43.9	18.4	0.00e+00	0	44	0	0	56	4289
2026-01-12 23:48:32.41	13.66	61.00	-42.1	-43.9	18.4	0.00e+00	0	44	0	0	56	4283
2026-01-12 23:48:33.26	13.60	61.35	-42.2	-44.1	18.2	0.00e+00	0	44	0	0	56	4356
2026-01-12 23:48:34.39	13.52	61.82	-42.2	-44.1	18.3	0.00e+00	0	44	0	0	56	4341
2026-01-12 23:48:35.25	13.45	62.18	-42.0	-43.8	18.5	0.00e+00	0	44	0	0	56	4230
2026-01-12 23:48:36.39	13.36	62.66	-41.5	-43.3	18.8	0.00e+00	0	44	0	0	55	4212
2026-01-12 23:48:37.24	13.30	63.02	-41.4	-43.2	18.9	0.00e+00	0	44	0	0	54	4420
2026-01-12 23:48:38.38	13.20	63.51	-41.3	-43.1	18.9	0.00e+00	0	44	0	0	54	4365
2026-01-12 23:48:39.23	13.13	63.87	-41.5	-43.3	18.7	0.00e+00	0	44	0	0	54	4477
2026-01-12 23:48:40.37	13.02	64.36	-41.6	-43.4	18.7	0.00e+00	0	44	0	0	54	4531
2026-01-12 23:48:41.22	12.95	64.73	-41.5	-43.3	18.7	0.00e+00	0	44	0	0	54	4479
2026-01-12 23:48:42.36	12.83	65.23	-41.4	-43.2	18.8	0.00e+00	0	44	0	0	54	4437
2026-01-12 23:48:43.21	12.75	65.60	-41.3	-43.1	19.0	0.00e+00	0	43	0	0	54	4381
2026-01-12 23:48:44.35	12.63	66.11	-41.3	-43.0	19.2	0.00e+00	0	44	0	0	54	4331
2026-01-12 23:48:45.20	12.54	66.48	-41.3	-43.1	19.1	0.00e+00	0	43	0	0	54	4357
2026-01-12 23:48:46.34	12.40	66.99	-41.6	-43.5	18.8	0.00e+00	0	44	0	0	54	4549
2026-01-12 23:48:47.19	12.30	67.37	-41.9	-43.7	18.5	0.00e+00	0	44	0	0	54	4701
2026-01-12 23:48:48.32	12.16	67.88	-41.8	-43.7	18.6	0.00e+00	0	44	0	0	54	4666
2026-01-12 23:48:49.18	12.05	68.27	-41.5	-43.3	18.9	0.00e+00	0	44	0	0	54	4468
2026-01-12 23:48:50.31	11.89	68.78	-41.2	-42.9	19.2	0.00e+00	0	43	0	0	54	4288
2026-01-12 23:48:51.17	11.77	69.18	-41.0	-42.8	19.3	0.00e+00	0	44	0	0	54	4203
2026-01-12 23:48:52.30	11.60	69.70	-41.3	-43.0	19.0	0.00e+00	0	44	0	0	54	4335
2026-01-12 23:48:53.16	11.46	70.09	-41.3	-43.1	19.0	0.00e+00	0	44	0	0	54	4375
2026-01-12 23:48:54.29	11.28	70.61	-41.1	-42.9	19.3	0.00e+00	0	44	0	0	54	4243
2026-01-12 23:48:55.15	11.12	71.01	-41.0	-42.7	19.4	0.00e+00	0	44	0	0	54	4165
2026-01-12 23:48:56.41	10.89	71.60	-41.4	-43.2	18.9	0.00e+00	0	44	0	0	54	4422
2026-01-12 23:48:57.23	10.73	71.99	-41.6	-43.5	18.7	0.00e+00	0	44	0	0	54	4565
2026-01-12 23:48:58.36	10.49	72.52	-41.5	-43.3	18.9	0.00e+00	0	44	0	0	54	4470
2026-01-12 23:48:59.22	10.31	72.93	-41.2	-43.0	19.2	0.00e+00	0	44	0	0	54	4315
2026-01-12 23:49:00.50	10.01	73.53	-41.1	-42.8	19.3	0.00e+00	0	44	0	0	54	4239
2026-01-12 23:49:01.22	9.83	73.88	-41.3	-43.0	19.1	0.00e+00	0	43	0	0	54	4319
2026-01-12 23:49:02.50	9.49	74.49	-41.2	-43.0	19.1	0.00e+00	0	44	0	0	54	4312
2026-01-12 23:49:03.26	9.27	74.85	-41.1	-42.9	19.2	0.00e+00	0	44	0	0	54	4262
2026-01-12 23:49:04.74	8.82	75.56	-40.9	-42.6	19.4	0.00e+00	0	43	0	0	53	4388
2026-01-12 23:49:05.45	8.58	75.91	-41.1	-42.8	19.2	0.00e+00	0	44	0	0	53	4491
2026-01-12 23:49:06.73	8.13	76.53	-41.4	-43.1	19.0	0.00e+00	0	44	0	0	53	4644
2026-01-12 23:49:07.46	7.85	76.88	-41.3	-43.0	19.0	0.00e+00	0	44	0	0	53	4597
2026-01-12 23:49:08.74	7.32	77.50	-41.3	-43.0	19.1	0.00e+00	0	44	0	0	53	4574
2026-01-12 23:49:09.45	7.01	77.85	-41.0	-42.8	19.2	0.00e+00	0	44	0	0	53	4458
2026-01-12 23:49:10.73	6.38	78.47	-41.3	-43.1	19.0	0.00e+00	0	44	0	0	53	4618
2026-01-12 23:49:11.44	6.01	78.82	-41.5	-43.3	18.9	0.00e+00	0	44	0	0	53	4711
2026-01-12 23:49:12.71	5.27	79.44	-41.6	-43.4	18.9	0.00e+00	0	44	0	0	53	4761
2026-01-12 23:49:13.43	4.82	79.79	-41.5	-43.3	18.9	0.00e+00	0	44	0	0	53	4721
2026-01-12 23:49:14.71	3.92	80.41	-41.8	-43.7	18.6	0.00e+00	0	44	0	0	54	4655
2026-01-12 23:49:15.50	3.30	80.80	-41.8	-43.7	18.6	0.00e+00	0	44	0	0	54	4670
2026-01-12 23:49:16.68	2.27	81.37	-41.7	-43.5	18.7	0.00e+00	0	44	0	0	54	4579
2026-01-12 23:49:17.71	1.26	81.87	-41.9	-43.8	18.5	0.00e+00	0	44	0	0	54	4736
2026-01-12 23:49:18.70	0.16	82.35	-42.0	-43.8	18.4	0.00e+00	0	44	0	0	54	4754
2026-01-12 23:49:19.92	358.59	82.94	-41.9	-43.7	18.6	0.00e+00	0	44	0	0	54	4691
2026-01-12 23:49:20.77	357.33	83.34	-41.5	-43.3	18.8	0.00e+00	0	44	0	0	54	4485
2026-01-12 23:49:21.91	355.38	83.88	-41.8	-43.7	18.5	0.00e+00	0	44	0	0	54	4683
2026-01-12 23:49:22.86	353.47	84.33	-41.8	-43.6	18.4	0.00e+00	0	44	0	0	54	4650
2026-01-12 23:49:23.85	351.14	84.78	-42.0	-43.9	18.1	0.00e+00	0	44	0	0	54	4793
2026-01-12 23:49:24.85	348.33	85.23	-42.3	-44.3	17.9	0.00e+00	0	44	0	0	55	4719
2026-01-12 23:49:25.84	344.98	85.67	-42.3	-44.2	18.0	0.00e+00	0	44	0	0	55	4671
2026-01-12 23:49:26.84	340.85	86.09	-42.0	-43.9	18.3	0.00e+00	0	44	0	0	55	4523
2026-01-12 23:49:27.83	335.82	86.48	-41.9	-43.7	18.4	0.00e+00	0	44	0	0	55	4422
2026-01-12 23:49:28.83	329.52	86.84	-41.8	-43.7	18.5	0.00e+00	0	44	0	0	55	4403
2026-01-12 23:49:29.82	321.81	87.15	-41.8	-43.6	18.6	0.00e+00	0	44	0	0	55	4374
2026-01-12 23:49:30.81	312.44	87.39	-41.7	-43.6	18.7	0.00e+00	0	44	0	0	55	4353
2026-01-12 23:49:31.81	301.34	87.56	-41.3	-43.0	19.1	0.00e+00	0	44	0	0	54	4339
2026-01-12 23:49:32.80	289.29	87.62	-41.2	-42.9	19.1	0.00e+00	0	44	0	0	54	4283
2026-01-12 23:49:33.83	276.67	87.57	-41.2	-42.9	19.2	0.00e+00	0	44	0	0	54	4274
2026-01-12 23:49:34.86	265.07	87.41	-41.5	-43.3	18.8	0.00e+00	0	44	0	0	54	4472
2026-01-12 23:49:35.88	255.26	87.17	-41.9	-43.8	18.4	0.00e+00	0	44	0	0	54	4727
2026-01-12 23:49:36.88	247.37	86.86	-41.9	-43.8	18.4	0.00e+00	0	44	0	0	55	4448
2026-01-12 23:49:37.94	240.64	86.48	-41.6	-43.5	18.7	0.00e+00	0	44	0	0	55	4301
2026-01-12 23:49:38.85	235.98	86.12	-41.5	-43.3	18.9	0.00e+00	0	44	0	0	54	4442
2026-01-12 23:49:39.99	231.26	85.64	-41.3	-43.1	19.1	0.00e+00	0	44	0	0	54	4367
2026-01-12 23:49:40.84	228.38	85.27	-41.6	-43.4	18.7	0.00e+00	0	44	0	0	54	4537
2026-01-12 23:49:41.98	225.16	84.76	-41.8	-43.6	18.6	0.00e+00	0	44	0	0	54	4633
2026-01-12 23:49:42.83	223.16	84.36	-41.5	-43.3	18.9	0.00e+00	0	44	0	0	54	4486
2026-01-12 23:49:43.97	220.87	83.83	-41.2	-43.0	19.2	0.00e+00	0	44	0	0	54	4292
2026-01-12 23:49:44.82	219.41	83.43	-41.4	-43.2	18.9	0.00e+00	0	44	0	0	54	4394
2026-01-12 23:49:45.96	217.71	82.88	-41.9	-43.7	18.5	0.00e+00	0	44	0	0	54	4695
2026-01-12 23:49:46.81	216.61	82.47	-42.0	-43.9	18.4	0.00e+00	0	44	0	0	54	4808
2026-01-12 23:49:47.94	215.32	81.93	-41.8	-43.7	18.6	0.00e+00	0	44	0	0	55	4393
2026-01-12 23:49:48.80	214.45	81.51	-41.7	-43.5	18.5	0.00e+00	0	44	0	0	55	4338
2026-01-12 23:49:49.94	213.43	80.95	-41.3	-43.1	19.0	0.00e+00	0	44	0	0	54	4388
2026-01-12 23:49:50.79	212.74	80.54	-41.4	-43.2	19.0	0.00e+00	0	44	0	0	54	4418
2026-01-12 23:49:51.93	211.91	79.98	-41.6	-43.4	19.0	0.00e+00	0	44	0	0	54	4494
2026-01-12 23:49:52.78	211.35	79.57	-41.6	-43.5	18.8	0.00e+00	0	44	0	0	54	4546
2026-01-12 23:49:53.92	210.67	79.01	-41.3	-43.0	19.1	0.00e+00	0	44	0	0	54	4328
2026-01-12 23:49:54.77	210.21	78.60	-41.5	-43.3	18.9	0.00e+00	0	44	0	0	54	4468
2026-01-12 23:49:56.07	209.56	77.96	-41.7	-43.6	18.5	0.00e+00	0	44	0	0	54	4611
2026-01-12 23:49:56.78	209.24	77.62	-41.5	-43.3	18.8	0.00e+00	0	44	0	0	54	4485
2026-01-12 23:49:58.05	208.70	77.00	-41.5	-43.2	19.0	0.00e+00	0	44	0	0	54	4428
2026-01-12 23:49:58.77	208.42	76.65	-41.7	-43.5	18.7	0.00e+00	0	44	0	0	54	4581
2026-01-12 23:50:00.04	207.96	76.03	-41.9	-43.7	18.4	0.00e+00	0	44	0	0	54	4701
2026-01-12 23:50:00.77	207.72	75.68	-41.6	-43.5	18.4	0.00e+00	0	44	0	0	54	4552
2026-01-12 23:50:02.05	207.31	75.06	-41.4	-43.2	18.4	0.00e+00	0	44	0	0	54	4404
2026-01-12 23:50:02.91	207.06	74.65	-41.5	-43.3	18.5	0.00e+00	0	44	0	0	54	4476
2026-01-12 23:50:04.05	206.75	74.10	-41.5	-43.3	18.8	0.00e+00	0	44	0	0	54	4468
2026-01-12 23:50:04.90	206.54	73.70	-41.7	-43.5	18.7	0.00e+00	0	43	0	0	54	4564
2026-01-12 23:50:06.04	206.26	73.15	-42.3	-44.2	18.1	0.00e+00	0	44	0	0	55	4672
2026-01-12 23:50:06.89	206.07	72.75	-42.4	-44.3	18.0	0.00e+00	0	43	0	0	55	4746
2026-01-12 23:50:08.03	205.82	72.21	-42.0	-43.8	18.2	0.00e+00	0	44	0	0	55	4485
2026-01-12 23:50:08.88	205.65	71.81	-41.6	-43.4	18.7	0.00e+00	0	43	0	0	55	4274
2026-01-12 23:50:10.02	205.43	71.28	-41.1	-42.9	19.3	0.00e+00	0	43	0	0	54	4243
2026-01-12 23:50:10.87	205.28	70.88	-41.3	-43.1	19.2	0.00e+00	0	44	0	0	54	4359
2026-01-12 23:50:12.08	205.07	70.32	-41.4	-43.2	19.0	0.00e+00	0	44	0	0	54	4396
2026-01-12 23:50:12.94	204.93	69.92	-41.5	-43.3	18.9	0.00e+00	0	44	0	0	54	4474
2026-01-12 23:50:14.14	204.75	69.36	-41.8	-43.6	18.6	0.00e+00	0	44	0	0	54	4630
2026-01-12 23:50:14.99	204.62	68.97	-41.8	-43.6	18.5	0.00e+00	0	43	0	0	54	4641
2026-01-12 23:50:16.13	204.46	68.45	-41.1	-42.8	19.0	0.00e+00	0	44	0	0	54	4241
2026-01-12 23:50:16.98	204.35	68.07	-40.8	-42.5	19.3	0.00e+00	0	44	0	0	53	4314
2026-01-12 23:50:18.12	204.20	67.55	-40.8	-42.5	19.5	0.00e+00	0	44	0	0	53	4329
2026-01-12 23:50:18.97	204.10	67.17	-41.1	-42.8	19.3	0.00e+00	0	44	0	0	53	4479
2026-01-12 23:50:20.11	203.96	66.66	-41.6	-43.3	18.8	0.00e+00	0	43	0	0	53	4756
2026-01-12 23:50:21.01	203.86	66.26	-42.0	-43.9	18.4	0.00e+00	0	43	0	0	54	4791
2026-01-12 23:50:22.13	203.74	65.76	-42.3	-44.2	18.0	0.00e+00	0	44	0	0	55	4698
2026-01-12 23:50:22.98	203.66	65.39	-41.7	-43.5	18.6	0.00e+00	0	43	0	0	55	4312
2026-01-12 23:50:24.11	203.54	64.89	-41.2	-42.9	19.0	0.00e+00	0	44	0	0	54	4270
2026-01-12 23:50:25.11	203.45	64.45	-40.9	-42.6	19.2	0.00e+00	0	44	0	0	53	4363
2026-01-12 23:50:26.10	203.36	64.03	-41.3	-43.1	19.0	0.00e+00	0	43	0	0	53	4603
2026-01-12 23:50:27.10	203.27	63.59	-41.8	-43.6	18.7	0.00e+00	0	44	0	0	54	4621
2026-01-12 23:50:28.09	203.19	63.17	-43.0	-45.0	17.5	0.00e+00	0	44	0	0	56	4864
2026-01-12 23:50:29.09	203.11	62.74	-43.8	-46.0	16.7	0.00e+00	0	44	0	0	58	4819
2026-01-12 23:50:30.08	203.03	62.33	-43.7	-45.8	16.8	0.00e+00	0	44	0	0	58	4739
2026-01-12 23:50:31.08	202.95	61.90	-43.4	-45.5	16.9	0.00e+00	0	44	0	0	58	4576
2026-01-12 23:50:32.08	202.88	61.49	-42.8	-44.8	17.5	0.00e+00	0	44	0	0	57	4449
2026-01-12 23:50:33.07	202.81	61.08	-42.7	-44.6	17.7	0.00e+00	0	44	0	0	57	4357
2026-01-12 23:50:34.06	202.74	60.67	-42.3	-44.1	18.3	0.00e+00	0	44	0	0	56	4367
2026-01-12 23:50:35.06	202.68	60.26	-41.7	-43.5	18.7	0.00e+00	0	44	0	0	55	4338
2026-01-12 23:50:36.05	202.61	59.85	-42.1	-44.0	18.3	0.00e+00	0	44	0	0	55	4550
2026-01-12 23:50:37.05	202.55	59.45	-42.9	-44.9	17.7	0.00e+00	0	43	0	0	56	4799
2026-01-12 23:50:38.05	202.49	59.04	-43.9	-46.1	16.6	0.00e+00	0	43	0	0	58	4884
2026-01-12 23:50:39.04	202.43	58.65	-44.2	-46.4	16.1	0.00e+00	0	43	0	0	59	4814
2026-01-12 23:50:40.03	202.38	58.25	-43.3	-45.3	17.0	0.00e+00	0	44	0	0	58	4483
2026-01-12 23:50:41.03	202.32	57.86	-42.4	-44.3	17.8	0.00e+00	0	43	0	0	56	4493
2026-01-12 23:50:42.02	202.27	57.47	-42.1	-44.0	18.0	0.00e+00	0	44	0	0	56	4294
2026-01-12 23:50:43.01	202.22	57.08	-42.3	-44.2	18.1	0.00e+00	0	44	0	0	56	4400
2026-01-12 23:50:44.01	202.17	56.70	-42.8	-44.8	17.6	0.00e+00	0	44	0	0	56	4719
2026-01-12 23:50:45.01	202.12	56.31	-43.4	-45.5	17.1	0.00e+00	0	44	0	0	57	4818
2026-01-12 23:50:46.00	202.08	55.93	-44.0	-46.2	16.3	0.00e+00	0	44	0	0	58	4974
2026-01-12 23:50:47.00	202.03	55.55	-44.3	-46.5	16.0	0.00e+00	0	44	0	0	59	4864
2026-01-12 23:50:48.00	201.99	55.18	-44.6	-46.9	15.5	0.00e+00	0	44	0	0	59	5099
2026-01-12 23:50:48.99	201.95	54.81	-44.8	-47.2	15.3	0.00e+00	0	44	0	0	60	4982
2026-01-12 23:50:49.99	201.90	54.44	-45.0	-47.6	14.9	0.00e+00	0	44	0	0	60	5164
2026-01-12 23:50:50.98	201.86	54.07	-45.1	-47.7	14.8	0.00e+00	0	44	0	0	61	4968
2026-01-12 23:50:51.98	201.83	53.70	-44.3	-46.6	16.0	0.00e+00	0	44	0	0	60	4614
2026-01-12 23:50:52.97	201.79	53.34	-43.1	-45.1	17.4	0.00e+00	0	44	0	0	58	4355
2026-01-12 23:50:53.96	201.75	52.99	-42.6	-44.5	17.9	0.00e+00	0	44	0	0	57	4330
2026-01-12 23:50:54.96	201.71	52.63	-42.9	-44.9	17.6	0.00e+00	0	44	0	0	57	4515
2026-01-12 23:50:55.96	201.68	52.27	-43.5	-45.6	16.9	0.00e+00	0	44	0	0	57	4901
2026-01-12 23:50:56.95	201.64	51.92	-44.3	-46.5	16.1	0.00e+00	0	43	0	0	59	4847
2026-01-12 23:50:57.95	201.61	51.57	-44.5	-46.8	15.7	0.00e+00	0	44	0	0	59	5016
2026-01-12 23:50:58.94	201.58	51.23	-44.8	-47.2	15.3	0.00e+00	0	44	0	0	60	4964
2026-01-12 23:50:59.94	201.55	50.88	-45.1	-47.7	14.7	7.00e-07	0	44	0	0	61	4951
2026-01-12 23:51:00.93	201.52	50.54	-45.4	-48.1	14.4	0.00e+00	0	44	0	0	61	5187
2026-01-12 23:51:01.93	201.48	50.20	-45.7	-48.4	14.0	0.00e+00	0	44	0	0	61	5401
2026-01-12 23:51:02.92	201.46	49.86	-45.6	-48.4	14.1	5.30e-06	0	44	0	0	62	5093
2026-01-12 23:51:03.92	201.43	49.53	-45.4	-48.2	14.4	0.00e+00	0	44	0	0	62	4957
2026-01-12 23:51:04.91	201.40	49.20	-45.2	-47.9	14.7	7.00e-07	0	44	0	0	62	4786
2026-01-12 23:51:05.91	201.37	48.87	-44.8	-47.4	15.2	0.00e+00	0	44	0	0	61	4767
2026-01-12 23:51:06.97	201.34	48.52	-44.4	-46.8	15.7	0.00e+00	0	44	0	0	60	4733
2026-01-12 23:51:07.82	201.32	48.24	-44.3	-46.7	15.8	0.00e+00	0	44	0	0	60	4703
2026-01-12 23:51:08.96	201.29	47.87	-44.8	-47.2	15.4	0.00e+00	0	44	0	0	60	4969
2026-01-12 23:51:09.82	201.27	47.60	-45.0	-47.5	15.2	0.00e+00	0	44	0	0	60	5137
2026-01-12 23:51:10.95	201.24	47.24	-45.7	-48.5	14.2	7.00e-07	0	44	0	0	62	5140
2026-01-12 23:51:11.81	201.22	46.96	-46.3	-49.4	13.3	1.44e-05	0	44	0	0	63	5354
2026-01-12 23:51:12.94	201.19	46.61	-46.5	-49.6	13.1	3.89e-05	0	44	0	0	63	5483
2026-01-12 23:51:13.79	201.17	46.34	-46.4	-49.5	13.1	2.74e-05	0	44	0	0	63	5463
2026-01-12 23:51:14.93	201.15	45.99	-46.3	-49.4	13.3	1.90e-05	0	44	0	0	63	5344
2026-01-12 23:51:15.78	201.13	45.73	-46.0	-49.0	13.6	1.90e-05	0	44	0	0	63	5113
2026-01-12 23:51:17.00	201.10	45.36	-45.7	-48.4	14.3	4.50e-06	0	44	0	0	63	4791
2026-01-12 23:51:17.85	201.09	45.10	-45.8	-48.6	14.1	2.20e-06	0	44	0	0	63	4871
2026-01-12 23:51:19.07	201.06	44.73	-46.1	-49.0	13.6	3.80e-06	0	44	0	0	63	5150
2026-01-12 23:51:19.92	201.04	44.48	-46.2	-49.2	13.5	1.37e-05	0	44	0	0	63	5241
2026-01-12 23:51:21.09	201.02	44.14	-46.0	-48.8	13.7	5.30e-06	0	44	0	0	63	5017
2026-01-12 23:51:21.94	201.01	43.89	-45.6	-48.3	14.2	1.50e-06	0	44	0	0	63	4733
2026-01-12 23:51:23.12	200.98	43.54	-45.2	-47.7	14.8	0.00e+00	0	44	0	0	62	4704
2026-01-12 23:51:23.97	200.97	43.30	-45.1	-47.6	14.9	0.00e+00	0	44	0	0	62	4638
2026-01-12 23:51:25.11	200.95	42.97	-45.0	-47.5	15.1	0.00e+00	0	44	0	0	62	4577
2026-01-12 23:51:25.96	200.93	42.73	-44.6	-47.0	15.6	0.00e+00	0	44	0	0	61	4562
2026-01-12 23:51:27.10	200.91	42.41	-44.2	-46.5	16.1	0.00e+00	0	44	0	0	60	4565
2026-01-12 23:51:27.95	200.90	42.17	-44.1	-46.4	16.2	0.00e+00	0	44	0	0	60	4514
2026-01-12 23:51:29.09	200.88	41.85	-44.4	-46.7	16.0	0.00e+00	0	44	0	0	60	4661
2026-01-12 23:51:30.02	200.86	41.59	-44.9	-47.4	15.2	0.00e+00	0	44	0	0	60	5097
2026-01-12 23:51:31.02	200.85	41.32	-45.5	-48.2	14.5	0.00e+00	0	44	0	0	61	5258
2026-01-12 23:51:32.01	200.83	41.05	-46.0	-48.8	13.9	3.00e-06	0	44	0	0	62	5340
2026-01-12 23:51:33.00	200.82	40.78	-46.1	-49.1	13.6	8.30e-06	0	44	0	0	62	5485
2026-01-12 23:51:34.00	200.80	40.52	-46.1	-49.1	13.6	9.10e-06	0	44	0	0	63	5189
2026-01-12 23:51:34.99	200.79	40.25	-46.0	-48.9	13.8	7.60e-06	0	44	0	0	63	5072
2026-01-12 23:51:35.99	200.77	39.99	-45.8	-48.7	14.0	5.30e-06	0	44	0	0	63	4930
2026-01-12 23:51:36.99	200.76	39.73	-45.7	-48.5	14.2	2.20e-06	0	44	0	0	63	4855
2026-01-12 23:51:37.98	200.75	39.47	-45.5	-48.2	14.4	1.50e-06	0	44	0	0	63	4698
2026-01-12 23:51:38.97	200.73	39.21	-45.3	-47.9	14.8	0.00e+00	0	44	0	0	62	4781
2026-01-12 23:51:39.97	200.72	38.96	-45.1	-47.6	15.1	0.00e+00	0	44	0	0	62	4620
2026-01-12 23:51:40.96	200.71	38.70	-45.1	-47.6	15.0	0.00e+00	0	44	0	0	62	4639
2026-01-12 23:51:41.96	200.69	38.45	-45.0	-47.6	15.1	0.00e+00	0	44	0	0	62	4629
2026-01-12 23:51:42.95	200.68	38.20	-45.0	-47.6	15.1	0.00e+00	0	44	0	0	62	4613
2026-01-12 23:51:43.95	200.67	37.95	-45.0	-47.5	15.2	0.00e+00	0	44	0	0	62	4581
2026-01-12 23:51:44.94	200.66	37.71	-44.8	-47.3	15.3	0.00e+00	0	44	0	0	61	4757
2026-01-12 23:51:45.94	200.64	37.46	-44.6	-47.0	15.7	0.00e+00	0	44	0	0	61	4548
2026-01-12 23:51:46.93	200.63	37.22	-44.4	-46.7	15.9	0.00e+00	0	44	0	0	60	4693
2026-01-12 23:51:47.93	200.62	36.98	-44.3	-46.6	15.9	0.00e+00	0	44	0	0	60	4650
2026-01-12 23:51:48.92	200.61	36.74	-44.3	-46.6	16.0	0.00e+00	0	44	0	0	60	4614
2026-01-12 23:51:49.92	200.60	36.50	-44.2	-46.5	16.0	0.00e+00	0	44	0	0	60	4574
2026-01-12 23:51:50.91	200.59	36.27	-44.1	-46.4	16.2	0.00e+00	0	44	0	0	60	4519
2026-01-12 23:51:51.90	200.58	36.04	-44.0	-46.2	16.3	0.00e+00	0	44	0	0	59	4688
2026-01-12 23:51:52.90	200.57	35.80	-43.9	-46.1	16.4	0.00e+00	0	44	0	0	59	4602
2026-01-12 23:51:53.93	200.56	35.57	-43.8	-46.0	16.5	0.00e+00	0	44	0	0	59	4547
2026-01-12 23:51:54.94	200.55	35.33	-43.9	-46.1	16.3	0.00e+00	0	44	0	0	59	4650
2026-01-12 23:51:55.95	200.54	35.10	-43.9	-46.1	16.3	0.00e+00	0	44	0	0	59	4618
2026-01-12 23:51:56.97	200.53	34.87	-43.9	-46.1	16.3	0.00e+00	0	44	0	0	59	4599
2026-01-12 23:51:57.98	200.52	34.65	-43.8	-46.0	16.4	0.00e+00	0	44	0	0	59	4570
2026-01-12 23:51:58.98	200.51	34.42	-43.7	-45.9	16.6	0.00e+00	0	44	0	0	59	4507
2026-01-12 23:51:59.97	200.50	34.20	-43.5	-45.6	16.8	0.00e+00	0	44	0	0	59	4379
2026-01-12 23:52:00.97	200.49	33.98	-43.4	-45.4	16.9	0.00e+00	0	44	0	0	58	4535
2026-01-12 23:52:01.96	200.48	33.77	-43.3	-45.4	17.0	0.00e+00	0	44	0	0	58	4499
2026-01-12 23:52:02.96	200.47	33.55	-43.4	-45.5	17.0	0.00e+00	0	43	0	0	58	4548
2026-01-12 23:52:03.95	200.46	33.34	-43.4	-45.4	17.0	0.00e+00	0	44	0	0	58	4545
2026-01-12 23:52:04.94	200.46	33.12	-43.2	-45.3	17.2	0.00e+00	0	44	0	0	58	4460
2026-01-12 23:52:05.94	200.45	32.91	-43.2	-45.2	17.2	0.00e+00	0	44	0	0	58	4433
2026-01-12 23:52:06.93	200.44	32.70	-43.2	-45.3	17.2	0.00e+00	0	44	0	0	58	4451
2026-01-12 23:52:07.93	200.43	32.49	-43.4	-45.5	17.0	0.00e+00	0	44	0	0	58	4551
2026-01-12 23:52:08.92	200.42	32.29	-43.5	-45.6	16.9	0.00e+00	0	44	0	0	58	4604
2026-01-12 23:52:09.92	200.42	32.08	-43.4	-45.5	17.0	0.00e+00	0	44	0	0	58	4587
2026-01-12 23:52:10.91	200.41	31.88	-43.4	-45.5	17.0	0.00e+00	0	44	0	0	58	4580
2026-01-12 23:52:11.91	200.40	31.67	-43.4	-45.4	17.0	0.00e+00	0	44	0	0	58	4530
2026-01-12 23:52:12.90	200.39	31.47	-43.3	-45.4	17.1	0.00e+00	0	44	0	0	58	4518
2026-01-12 23:52:13.89	200.39	31.27	-43.4	-45.6	16.9	0.00e+00	0	44	0	0	58	4601
2026-01-12 23:52:14.89	200.38	31.07	-43.6	-45.8	16.7	0.00e+00	0	44	0	0	58	4717
2026-01-12 23:52:16.04	200.37	30.85	-43.6	-45.8	16.7	0.00e+00	0	44	0	0	58	4706
2026-01-12 23:52:16.90	200.37	30.68	-43.6	-45.7	16.7	0.00e+00	0	44	0	0	58	4700
2026-01-12 23:52:18.04	200.36	30.45	-43.7	-45.9	16.6	0.00e+00	0	44	0	0	58	4764
2026-01-12 23:52:18.89	200.35	30.29	-43.8	-46.0	16.5	0.00e+00	0	44	0	0	58	4828
2026-01-12 23:52:20.02	200.35	30.07	-43.7	-46.0	16.5	0.00e+00	0	44	0	0	58	4817
2026-01-12 23:52:20.88	200.34	29.91	-43.8	-46.0	16.5	0.00e+00	0	44	0	0	58	4836
2026-01-12 23:52:22.01	200.33	29.69	-43.8	-46.0	16.4	0.00e+00	0	44	0	0	58	4840
2026-01-12 23:52:22.87	200.33	29.53	-43.8	-46.0	16.4	0.00e+00	0	44	0	0	58	4836
2026-01-12 23:52:24.00	200.32	29.32	-43.5	-45.7	16.7	0.00e+00	0	44	0	0	58	4659
2026-01-12 23:52:24.86	200.32	29.15	-43.4	-45.5	16.8	0.00e+00	0	44	0	0	58	4590
2026-01-12 23:52:25.99	200.31	28.95	-43.3	-45.4	16.9	0.00e+00	0	44	0	0	58	4513
2026-01-12 23:52:26.85	200.30	28.79	-43.3	-45.4	16.8	0.00e+00	0	44	0	0	58	4538
2026-01-12 23:52:27.98	200.30	28.58	-43.3	-45.4	16.8	0.00e+00	0	44	0	0	58	4537
2026-01-12 23:52:28.83	200.29	28.43	-43.3	-45.4	16.8	0.00e+00	0	44	0	0	58	4522
2026-01-12 23:52:29.97	200.29	28.22	-43.2	-45.3	16.9	0.00e+00	0	44	0	0	58	4489
2026-01-12 23:52:30.82	200.28	28.07	-43.2	-45.3	16.9	0.00e+00	0	44	0	0	58	4481
2026-01-12 23:52:31.96	200.28	27.86	-43.2	-45.2	17.0	0.00e+00	0	44	0	0	58	4438
2026-01-12 23:52:32.81	200.27	27.71	-43.1	-45.2	17.0	0.00e+00	0	44	0	0	58	4414
2026-01-12 23:52:33.95	200.27	27.51	-43.1	-45.2	17.0	0.00e+00	0	44	0	0	58	4422
2026-01-12 23:52:34.80	200.26	27.36	-43.1	-45.2	17.1	0.00e+00	0	44	0	0	58	4393
2026-01-12 23:52:35.94	200.26	27.16	-43.1	-45.1	17.2	0.00e+00	0	44	0	0	58	4381
2026-01-12 23:52:36.79	200.25	27.02	-43.0	-45.1	17.2	0.00e+00	0	43	0	0	58	4356
2026-01-12 23:52:37.93	200.25	26.82	-42.9	-45.0	17.3	0.00e+00	0	44	0	0	57	4553
2026-01-12 23:52:38.78	200.24	26.68	-42.9	-45.0	17.3	0.00e+00	0	44	0	0	57	4568
2026-01-12 23:52:39.92	200.24	26.48	-42.9	-44.9	17.4	0.00e+00	0	44	0	0	57	4514
2026-01-12 23:52:40.77	200.24	26.34	-42.8	-44.8	17.5	0.00e+00	0	44	0	0	57	4482
2026-01-12 23:52:41.91	200.23	26.15	-42.8	-44.8	17.6	0.00e+00	0	44	0	0	57	4450
2026-01-12 23:52:42.76	200.23	26.01	-42.8	-44.8	17.5	0.00e+00	0	44	0	0	57	4466
2026-01-12 23:52:44.04	200.22	25.80	-42.8	-44.8	17.5	0.00e+00	0	44	0	0	57	4482
2026-01-12 23:52:44.75	200.22	25.68	-42.9	-44.9	17.4	0.00e+00	0	44	0	0	57	4544
2026-01-12 23:52:46.24	200.21	25.44	-42.6	-44.6	17.7	0.00e+00	0	44	0	0	57	4385
2026-01-12 23:52:46.95	200.21	25.32	-42.6	-44.6	17.7	0.00e+00	0	44	0	0	57	4367
2026-01-12 23:52:48.29	200.20	25.11	-42.6	-44.6	17.8	0.00e+00	0	44	0	0	57	4352
2026-01-12 23:52:49.00	200.20	24.99	-42.6	-44.5	17.8	0.00e+00	0	44	0	0	57	4335
2026-01-12 23:52:50.28	200.20	24.79	-42.5	-44.5	17.8	0.00e+00	0	44	0	0	57	4293
2026-01-12 23:52:51.00	200.19	24.67	-42.5	-44.5	17.8	0.00e+00	0	44	0	0	57	4308
2026-01-12 23:52:52.28	200.19	24.47	-42.5	-44.4	17.9	0.00e+00	0	44	0	0	57	4280
2026-01-12 23:52:53.01	200.19	24.36	-42.5	-44.4	17.9	0.00e+00	0	44	0	0	56	4523
2026-01-12 23:52:54.29	200.18	24.16	-42.4	-44.3	18.0	0.00e+00	0	44	0	0	56	4467
2026-01-12 23:52:55.00	200.18	24.05	-42.4	-44.3	18.0	0.00e+00	0	44	0	0	56	4478
2026-01-12 23:52:56.28	200.18	23.85	-42.4	-44.3	18.0	0.00e+00	0	44	0	0	56	4479
2026-01-12 23:52:56.99	200.17	23.74	-42.4	-44.3	18.0	0.00e+00	0	44	0	0	56	4466
2026-01-12 23:52:58.27	200.17	23.55	-42.4	-44.3	17.9	0.00e+00	0	44	0	0	56	4479
2026-01-12 23:52:59.07	200.17	23.43	-42.4	-44.3	17.9	0.00e+00	0	44	0	0	56	4484
2026-01-12 23:53:00.52	200.16	23.21	-42.5	-44.4	17.9	0.00e+00	0	44	0	0	56	4534
2026-01-12 23:53:01.23	200.16	23.11	-42.4	-44.3	17.8	0.00e+00	0	44	0	0	56	4484
2026-01-12 23:53:02.72	200.15	22.89	-42.5	-44.5	17.8	0.00e+00	0	44	0	0	56	4550
2026-01-12 23:53:03.43	200.15	22.78	-42.4	-44.4	17.9	0.00e+00	0	44	0	0	56	4500
2026-01-12 23:53:04.77	200.15	22.59	-42.5	-44.4	17.9	0.00e+00	0	44	0	0	56	4543
2026-01-12 23:53:05.48	200.15	22.48	-42.5	-44.4	17.9	0.00e+00	0	44	0	0	56	4526
2026-01-12 23:53:06.84	200.14	22.29	-42.4	-44.3	17.9	0.00e+00	0	44	0	0	56	4489
2026-01-12 23:53:07.55	200.14	22.18	-42.5	-44.4	17.9	0.00e+00	0	44	0	0	56	4507
2026-01-12 23:53:08.83	200.14	22.00	-42.5	-44.4	17.9	0.00e+00	0	44	0	0	56	4507
2026-01-12 23:53:09.57	200.14	21.90	-42.4	-44.4	17.9	0.00e+00	0	44	0	0	56	4499
2026-01-12 23:53:10.85	200.13	21.71	-42.5	-44.4	17.8	0.00e+00	0	44	0	0	56	4537
2026-01-12 23:53:11.56	200.13	21.61	-42.5	-44.4	17.9	0.00e+00	0	44	0	0	56	4535
2026-01-12 23:53:12.84	200.13	21.44	-42.5	-44.4	17.9	0.00e+00	0	44	0	0	56	4541
2026-01-12 23:53:13.55	200.13	21.34	-42.5	-44.5	17.8	0.00e+00	0	44	0	0	56	4553
2026-01-12 23:53:14.83	200.12	21.16	-42.4	-44.4	17.9	0.00e+00	0	44	0	0	56	4498
2026-01-12 23:53:15.56	200.12	21.06	-42.5	-44.4	17.8	0.00e+00	0	44	0	0	56	4540
2026-01-12 23:53:16.84	200.12	20.89	-42.5	-44.4	17.8	0.00e+00	0	44	0	0	56	4528
2026-01-12 23:53:17.64	200.12	20.78	-42.4	-44.4	17.9	0.00e+00	0	44	0	0	56	4504
2026-01-12 23:53:19.11	200.11	20.58	-42.5	-44.4	17.8	0.00e+00	0	44	0	0	56	4532
2026-01-12 23:53:19.82	200.11	20.48	-42.5	-44.4	17.8	0.00e+00	0	44	0	0	56	4543
2026-01-12 23:53:21.27	200.11	20.29	-42.6	-44.5	17.7	0.00e+00	0	44	0	0	56	4587
2026-01-12 23:53:21.98	200.11	20.19	-42.6	-44.6	17.7	0.00e+00	0	44	0	0	56	4610
2026-01-12 23:53:23.27	200.10	20.02	-42.6	-44.6	17.7	0.00e+00	0	44	0	0	56	4645
2026-01-12 23:53:23.98	200.10	19.93	-42.7	-44.7	17.6	0.00e+00	0	44	0	0	56	4678
2026-01-12 23:53:25.25	200.10	19.76	-42.7	-44.8	17.5	0.00e+00	0	44	0	0	56	4721
2026-01-12 23:53:26.00	200.10	19.67	-42.7	-44.8	17.5	0.00e+00	0	44	0	0	56	4739
2026-01-12 23:53:27.28	200.10	19.50	-42.9	-45.0	17.3	0.00e+00	0	44	0	0	56	4819
2026-01-12 23:53:28.02	200.10	19.41	-42.8	-44.9	17.4	0.00e+00	0	44	0	0	56	4800
2026-01-12 23:53:29.29	200.09	19.24	-42.9	-45.0	17.2	0.00e+00	0	44	0	0	56	4869
2026-01-12 23:53:30.01	200.09	19.15	-42.9	-45.1	17.2	0.00e+00	0	44	0	0	56	4873
2026-01-12 23:53:31.29	200.09	18.99	-42.9	-45.0	17.3	0.00e+00	0	44	0	0	56	4847
2026-01-12 23:53:32.00	200.09	18.90	-43.0	-45.1	17.2	0.00e+00	0	44	0	0	56	4917
2026-01-12 23:53:33.28	200.09	18.74	-43.0	-45.1	17.2	0.00e+00	0	44	0	0	56	4921
2026-01-12 23:53:34.13	200.09	18.63	-43.0	-45.1	17.1	0.00e+00	0	44	0	0	56	4923
2026-01-12 23:53:35.58	200.08	18.45	-43.1	-45.3	17.0	0.00e+00	0	44	0	0	56	4997
2026-01-12 23:53:36.29	200.08	18.37	-43.1	-45.3	17.0	0.00e+00	0	44	0	0	56	4989
2026-01-12 23:53:37.57	200.08	18.21	-43.1	-45.4	16.9	0.00e+00	0	44	0	0	56	5043
2026-01-12 23:53:38.28	200.08	18.12	-43.2	-45.5	16.8	0.00e+00	0	44	0	0	57	4833
2026-01-12 23:53:39.56	200.08	17.97	-43.2	-45.5	16.8	0.00e+00	0	44	0	0	57	4837
2026-01-12 23:53:40.27	200.08	17.88	-43.3	-45.6	16.7	0.00e+00	0	44	0	0	57	4889
2026-01-12 23:53:41.55	200.07	17.73	-43.4	-45.7	16.6	0.00e+00	0	44	0	0	57	4949
2026-01-12 23:53:42.26	200.07	17.64	-43.4	-45.7	16.6	0.00e+00	0	44	0	0	57	4927
2026-01-12 23:53:43.54	200.07	17.49	-43.5	-45.9	16.4	0.00e+00	0	44	0	0	57	5042
2026-01-12 23:53:44.27	200.07	17.40	-43.5	-45.8	16.5	0.00e+00	0	44	0	0	57	5009
2026-01-12 23:53:45.54	200.07	17.25	-43.5	-45.8	16.5	0.00e+00	0	44	0	0	57	4996
2026-01-12 23:53:46.26	200.07	17.17	-43.4	-45.8	16.5	0.00e+00	0	44	0	0	57	4986
2026-01-12 23:53:47.53	200.07	17.02	-43.5	-45.8	16.4	0.00e+00	0	44	0	0	57	5002
2026-01-12 23:53:48.25	200.07	16.94	-43.5	-45.8	16.5	0.00e+00	0	44	0	0	57	4989
2026-01-12 23:53:49.52	200.06	16.79	-43.4	-45.7	16.5	0.00e+00	0	44	0	0	57	4973
2026-01-12 23:53:50.27	200.06	16.70	-43.5	-45.8	16.4	0.00e+00	0	44	0	0	57	5008
2026-01-12 23:53:51.55	200.06	16.56	-43.5	-45.8	16.5	0.00e+00	0	44	0	0	57	4990
2026-01-12 23:53:52.26	200.06	16.48	-43.5	-45.8	16.4	0.00e+00	0	44	0	0	57	5037
2026-01-12 23:53:53.54	200.06	16.33	-43.5	-45.8	16.5	0.00e+00	0	44	0	0	57	5004
2026-01-12 23:53:54.26	200.06	16.25	-43.6	-45.9	16.4	0.00e+00	0	44	0	0	57	5060
2026-01-12 23:53:55.83	200.06	16.07	-43.5	-45.8	16.4	0.00e+00	0	44	0	0	57	5015
2026-01-12 23:53:56.54	200.06	15.99	-43.5	-45.7	16.5	0.00e+00	0	44	0	0	57	4982
2026-01-12 23:53:57.81	200.06	15.85	-43.5	-45.7	16.5	0.00e+00	0	44	0	0	57	4982
2026-01-12 23:53:58.54	200.06	15.77	-43.5	-45.7	16.5	0.00e+00	0	44	0	0	57	4983
2026-01-12 23:53:59.82	200.06	15.63	-43.4	-45.7	16.5	0.00e+00	0	44	0	0	57	4930
2026-01-12 23:54:00.54	200.05	15.55	-43.4	-45.7	16.5	0.00e+00	0	44	0	0	57	4935
2026-01-12 23:54:01.82	200.05	15.41	-43.5	-45.7	16.4	0.00e+00	0	44	0	0	57	4983
2026-01-12 23:54:02.53	200.05	15.33	-43.4	-45.7	16.5	0.00e+00	0	44	0	0	57	4955
2026-01-12 23:54:03.81	200.05	15.19	-43.5	-45.8	16.4	0.00e+00	0	44	0	0	57	4984
2026-01-12 23:54:04.52	200.05	15.12	-43.6	-45.8	16.3	0.00e+00	0	44	0	0	57	5031
2026-01-12 23:54:05.80	200.05	14.98	-43.5	-45.8	16.4	0.00e+00	0	44	0	0	57	5020
2026-01-12 23:54:06.60	200.05	14.89	-43.6	-45.9	16.3	0.00e+00	0	44	0	0	57	5046
2026-01-12 23:54:08.03	200.05	14.74	-43.6	-45.9	16.3	0.00e+00	0	44	0	0	57	5072
2026-01-12 23:54:08.74	200.05	14.67	-43.6	-45.9	16.2	0.00e+00	0	44	0	0	57	5077
2026-01-12 23:54:10.22	200.05	14.51	-43.7	-46.0	16.2	0.00e+00	0	44	0	0	57	5101
2026-01-12 23:54:10.93	200.05	14.44	-43.7	-46.0	16.1	0.00e+00	0	44	0	0	58	4851
2026-01-12 23:54:12.21	200.05	14.30	-43.7	-46.0	16.1	0.00e+00	0	44	0	0	58	4863
2026-01-12 23:54:12.94	200.05	14.23	-43.7	-46.0	16.2	0.00e+00	0	44	0	0	58	4838
2026-01-12 23:54:14.21	200.05	14.09	-43.8	-46.1	16.0	0.00e+00	0	44	0	0	58	4883
2026-01-12 23:54:14.94	200.05	14.02	-43.8	-46.1	16.1	0.00e+00	0	44	0	0	58	4874
2026-01-12 23:54:16.22	200.05	13.89	-43.8	-46.0	16.1	0.00e+00	0	44	0	0	58	4867
2026-01-12 23:54:16.93	200.05	13.81	-43.8	-46.1	16.0	0.00e+00	0	44	0	0	58	4891
2026-01-12 23:54:18.21	200.05	13.68	-43.8	-46.1	16.0	0.00e+00	0	44	0	0	58	4891
2026-01-12 23:54:18.93	200.05	13.61	-43.8	-46.1	15.9	0.00e+00	0	44	0	0	58	4924
2026-01-12 23:54:20.21	200.04	13.48	-43.7	-46.0	16.1	0.00e+00	0	44	0	0	58	4852
2026-01-12 23:54:21.11	200.04	13.39	-43.8	-46.1	16.0	0.00e+00	0	44	0	0	58	4895
2026-01-12 23:54:22.48	200.04	13.25	-43.8	-46.1	16.0	0.00e+00	0	44	0	0	58	4899
2026-01-12 23:54:23.19	200.04	13.18	-43.8	-46.1	16.0	0.00e+00	0	44	0	0	58	4885
2026-01-12 23:54:24.47	200.04	13.06	-43.8	-46.1	15.9	0.00e+00	0	44	0	0	58	4898
2026-01-12 23:54:25.20	200.04	12.98	-43.8	-46.1	15.9	0.00e+00	0	44	0	0	58	4914
2026-01-12 23:54:26.48	200.04	12.86	-43.8	-46.1	15.9	0.00e+00	0	44	0	0	58	4921
2026-01-12 23:54:27.19	200.04	12.79	-43.9	-46.2	15.9	0.00e+00	0	44	0	0	58	4946
2026-01-12 23:54:28.47	200.04	12.66	-44.0	-46.3	15.8	0.00e+00	0	44	0	0	58	5013
2026-01-12 23:54:29.19	200.04	12.59	-43.9	-46.2	15.9	0.00e+00	0	44	0	0	58	4950
2026-01-12 23:54:30.48	200.04	12.47	-43.9	-46.3	15.7	0.00e+00	0	44	0	0	58	4999
2026-01-12 23:54:31.19	200.04	12.40	-43.9	-46.3	15.8	0.00e+00	0	44	0	0	58	4991
2026-01-12 23:54:32.47	200.04	12.28	-43.8	-46.1	16.0	0.00e+00	0	44	0	0	58	4883
2026-01-12 23:54:33.18	200.04	12.21	-43.8	-46.1	15.9	0.00e+00	0	44	0	0	58	4892
2026-01-12 23:54:34.45	200.04	12.09	-43.8	-46.1	15.9	0.00e+00	0	44	0	0	58	4899
2026-01-12 23:54:35.18	200.04	12.02	-43.8	-46.1	15.9	0.00e+00	0	44	0	0	58	4918
2026-01-12 23:54:36.46	200.04	11.90	-43.8	-46.2	15.8	0.00e+00	0	44	0	0	58	4932
2026-01-12 23:54:37.17	200.04	11.83	-43.9	-46.2	15.8	0.00e+00	0	44	0	0	58	4949
2026-01-12 23:54:38.45	200.04	11.71	-43.9	-46.3	15.7	0.00e+00	0	44	0	0	58	5007
2026-01-12 23:54:39.17	200.04	11.64	-43.9	-46.3	15.7	0.00e+00	0	44	0	0	58	4990
2026-01-12 23:54:40.45	200.04	11.52	-43.9	-46.3	15.7	0.00e+00	0	44	0	0	58	5009
2026-01-12 23:54:41.18	200.04	11.46	-44.0	-46.4	15.5	0.00e+00	0	44	0	0	58	5096
2026-01-12 23:54:42.46	200.04	11.34	-43.9	-46.3	15.6	0.00e+00	0	44	0	0	58	5034
2026-01-12 23:54:43.17	200.04	11.27	-44.0	-46.3	15.6	0.00e+00	0	44	0	0	58	5040
2026-01-12 23:54:44.45	200.04	11.15	-43.9	-46.3	15.6	0.00e+00	0	44	0	0	58	5038
2026-01-12 23:54:45.27	200.04	11.08	-44.0	-46.4	15.6	0.00e+00	0	44	0	0	58	5061
2026-01-12 23:54:46.41	200.04	10.98	-44.1	-46.5	15.5	0.00e+00	0	44	0	0	58	5137
2026-01-12 23:54:47.27	200.04	10.90	-44.0	-46.5	15.5	0.00e+00	0	44	0	0	58	5110
2026-01-12 23:54:48.40	200.04	10.80	-44.0	-46.5	15.5	0.00e+00	0	44	0	0	58	5113
2026-01-12 23:54:49.26	200.04	10.72	-44.2	-46.6	15.3	0.00e+00	0	44	0	0	58	5209
2026-01-12 23:54:50.39	200.04	10.62	-44.0	-46.5	15.5	0.00e+00	0	44	0	0	58	5118
2026-01-12 23:54:51.25	200.04	10.54	-44.1	-46.5	15.4	0.00e+00	0	44	0	0	58	5155
2026-01-12 23:54:52.38	200.04	10.44	-44.2	-46.7	15.2	0.00e+00	0	44	0	0	59	4934
2026-01-12 23:54:53.24	200.05	10.36	-44.2	-46.7	15.3	0.00e+00	0	44	0	0	59	4939
2026-01-12 23:54:54.37	200.05	10.26	-44.2	-46.8	15.2	0.00e+00	0	44	0	0	59	4998
2026-01-12 23:54:55.23	200.05	10.19	-44.2	-46.8	15.2	0.00e+00	0	44	0	0	59	4986
2026-01-12 23:54:56.37	200.05	10.09	-44.2	-46.7	15.2	0.00e+00	0	44	0	0	59	4973
2026-01-12 23:54:57.22	200.05	10.01	-44.3	-46.9	15.0	0.00e+00	0	44	0	0	59	5075
2026-01-12 23:54:58.50	200.05	9.90	-44.2	-46.7	15.2	7.00e-07	0	44	0	0	59	4979
2026-01-12 23:54:59.21	200.05	9.84	-44.2	-46.8	15.2	0.00e+00	0	44	0	0	59	4995
2026-01-12 23:55:00.49	200.05	9.73	-44.3	-46.8	15.1	0.00e+00	0	44	0	0	59	5032
2026-01-12 23:55:01.23	200.05	9.66	-44.3	-46.9	15.0	0.00e+00	0	44	0	0	59	5069
2026-01-12 23:55:02.51	200.05	9.55	-44.3	-46.9	15.0	0.00e+00	0	44	0	0	59	5086
2026-01-12 23:55:03.22	200.05	9.49	-44.3	-47.0	15.0	0.00e+00	0	44	0	0	59	5110
2026-01-12 23:55:04.83	200.05	9.36	-44.4	-47.0	14.9	0.00e+00	0	44	0	0	59	5124
2026-01-12 23:55:05.40	200.05	9.31	-44.4	-47.0	14.9	7.00e-07	0	44	0	0	59	5152
2026-01-12 23:55:07.10	200.05	9.16	-44.4	-47.1	14.8	0.00e+00	0	44	0	0	59	5163
2026-01-12 23:55:07.75	200.05	9.11	-44.4	-47.1	14.8	0.00e+00	0	44	0	0	59	5179
2026-01-12 23:55:09.17	200.05	8.99	-44.4	-47.0	14.8	0.00e+00	0	44	0	0	59	5148
2026-01-12 23:55:09.88	200.05	8.93	-48.6	-55.4	7.1	1.01e-03	0	44	0	0	67	8505
2026-01-12 23:55:11.16	200.05	8.82	-50.0	-63.0	3.8	1.49e+00	0	44	104	0	70	17129
2026-01-12 23:55:11.99	200.05	8.75	-50.6	-63.7	3.8	1.49e+00	0	44	104	0	71	17563
2026-01-12 23:55:13.13	200.05	8.66	-50.6	-63.8	3.8	1.49e+00	0	44	104	0	71	17863
2026-01-12 23:55:13.98	200.05	8.59	-50.8	-63.9	3.8	1.49e+00	0	44	104	0	72	16905
2026-01-12 23:55:15.11	200.05	8.50	-50.8	-63.9	3.8	1.49e+00	0	44	104	0	72	17031
2026-01-12 23:55:15.96	200.05	8.43	-50.8	-63.9	3.8	1.49e+00	0	44	104	0	72	17054
2026-01-12 23:55:17.10	200.06	8.33	-50.8	-64.0	3.8	1.49e+00	0	44	104	0	72	17144
2026-01-12 23:55:17.95	200.06	8.26	-51.0	-64.0	3.8	1.49e+00	0	44	104	0	72	17164
2026-01-12 23:55:19.08	200.06	8.17	-50.8	-64.0	3.8	1.49e+00	0	44	104	0	72	17257
2026-01-12 23:55:19.94	200.06	8.10	-51.0	-64.0	3.8	1.49e+00	0	44	104	0	72	17222
2026-01-12 23:55:21.07	200.06	8.01	-51.0	-64.0	3.8	1.49e+00	0	44	104	0	72	17141
2026-01-12 23:55:21.92	200.06	7.94	-51.0	-64.0	3.8	1.49e+00	0	44	104	0	72	17242
2026-01-12 23:55:23.06	200.06	7.85	-50.9	-64.0	3.8	1.49e+00	0	44	104	0	72	17256
2026-01-12 23:55:23.91	200.06	7.78	-51.1	-64.0	3.8	1.49e+00	0	44	104	0	72	17231
2026-01-12 23:55:25.05	200.06	7.69	-51.0	-64.0	3.8	1.49e+00	0	44	104	0	72	17232
2026-01-12 23:55:25.90	200.06	7.62	-51.1	-64.0	3.8	1.49e+00	0	44	104	0	72	17228
2026-01-12 23:55:27.03	200.06	7.53	-51.1	-64.0	3.8	1.49e+00	0	44	104	0	72	17278
2026-01-12 23:55:27.88	200.06	7.47	-51.1	-64.0	3.8	1.49e+00	0	44	104	0	72	17246
2026-01-12 23:55:29.02	200.06	7.38	-51.0	-64.0	3.8	1.49e+00	0	44	104	0	72	17215
2026-01-12 23:55:29.87	200.06	7.31	-51.0	-64.0	3.8	1.49e+00	0	44	104	0	72	17164
2026-01-12 23:55:31.00	200.06	7.22	-50.7	-64.0	3.8	1.49e+00	0	44	104	0	72	17232
2026-01-12 23:55:31.86	200.07	7.15	-50.8	-64.0	3.8	1.49e+00	0	44	104	0	72	17165
2026-01-12 23:55:32.99	200.07	7.07	-50.8	-63.9	3.8	1.49e+00	0	44	104	0	72	17054
2026-01-12 23:55:33.85	200.07	7.00	-50.8	-64.0	3.8	1.49e+00	0	44	104	0	72	17113
2026-01-12 23:55:34.98	200.07	6.91	-50.8	-64.0	3.8	1.49e+00	0	44	104	0	72	17139
2026-01-12 23:55:35.83	200.07	6.85	-50.8	-64.0	3.8	1.49e+00	0	44	104	0	72	17094
2026-01-12 23:55:36.97	200.07	6.76	-50.8	-64.0	3.8	1.49e+00	0	44	104	0	72	17191
2026-01-12 23:55:37.82	200.07	6.69	-50.8	-63.9	3.8	1.49e+00	0	44	104	0	72	17066
2026-01-12 23:55:38.95	200.07	6.61	-50.8	-64.0	3.8	1.49e+00	0	44	104	0	72	17113
2026-01-12 23:55:39.81	200.07	6.54	-50.8	-64.0	3.8	1.49e+00	0	44	104	0	72	17116
2026-01-12 23:55:40.94	200.07	6.46	-50.8	-64.0	3.8	1.49e+00	0	44	104	0	72	17118
2026-01-12 23:55:41.79	200.07	6.39	-50.8	-64.0	3.8	1.49e+00	0	44	104	0	72	17084
2026-01-12 23:55:42.93	200.07	6.30	-50.8	-64.0	3.8	1.49e+00	0	44	104	0	72	17099
2026-01-12 23:55:43.78	200.07	6.24	-50.8	-64.0	3.8	1.49e+00	0	44	104	0	72	17117
2026-01-12 23:55:44.91	200.08	6.16	-50.8	-64.0	3.8	1.49e+00	0	44	104	0	72	17143
2026-01-12 23:55:45.77	200.08	6.09	-50.8	-64.0	3.8	1.49e+00	0	44	104	0	72	17103
