passes_logs/2026/01/12/T1/T1__20260112_130742_FENGYUN_3E_rec.log

#Pass ID: 20260112_130742_FENGYUN 3E
#Satellite: FENGYUN 3E
#Configuration: FENGYUN 3E
#almurnet v.1.7.20251203
#Start time: 2026-01-12 13:07:42

#Version: 2.0.20230620
#Station: T1
#Location: 37.570604 lon 55.790049 lat
#TLE: 1 49008U 21062A   26011.97558190  .00000066  00000+0  51928-4 0  9996
#TLE: 2 49008  98.7491  17.1395 0001916 144.4283 215.7021 14.19885193234411

#Time	Az	El	Level	Level2	SNR	BER	BlckErr	Temp	State	Recorded	gain1	gain2
2026-01-12 13:07:42.31	126.34	5.00	-52.1	-62.6	3.8	8.46e-01	0	37	0	0	74	12136
2026-01-12 13:07:43.30	126.29	5.06	-52.1	-62.5	3.8	8.47e-01	0	37	104	0	74	12018
2026-01-12 13:07:44.29	126.23	5.13	-52.0	-62.4	3.8	8.47e-01	0	37	104	0	74	11927
2026-01-12 13:07:45.29	126.18	5.20	-52.0	-62.4	3.8	8.46e-01	0	37	104	0	74	11912
2026-01-12 13:07:46.28	126.12	5.26	-52.1	-62.5	3.8	8.47e-01	0	37	104	0	74	12036
2026-01-12 13:07:47.27	126.06	5.33	-52.0	-62.5	3.8	8.47e-01	0	37	104	0	74	12031
2026-01-12 13:07:48.27	126.01	5.40	-52.1	-62.6	3.8	8.47e-01	0	37	104	0	74	12131
2026-01-12 13:07:49.26	125.95	5.46	-52.1	-62.6	3.8	8.46e-01	0	37	104	0	74	12143
2026-01-12 13:07:50.25	125.89	5.53	-52.1	-62.7	3.8	8.47e-01	0	37	104	0	74	12235
2026-01-12 13:07:51.25	125.84	5.60	-52.1	-62.7	3.8	8.47e-01	0	37	104	0	74	12359
2026-01-12 13:07:52.24	125.78	5.67	-52.1	-62.8	3.8	8.46e-01	0	37	104	0	74	12386
2026-01-12 13:07:53.23	125.72	5.74	-52.1	-62.8	3.8	8.46e-01	0	37	104	0	74	12423
2026-01-12 13:07:54.23	125.66	5.80	-52.1	-62.8	3.8	8.47e-01	0	37	104	0	74	12403
2026-01-12 13:07:55.22	125.61	5.87	-52.1	-62.8	3.8	8.46e-01	0	37	104	0	74	12416
2026-01-12 13:07:56.21	125.55	5.94	-52.1	-62.7	3.8	8.46e-01	0	37	104	0	74	12300
2026-01-12 13:07:57.21	125.49	6.01	-52.1	-62.7	3.8	8.47e-01	0	37	104	0	74	12303
2026-01-12 13:07:58.20	125.43	6.08	-52.0	-62.5	3.8	8.48e-01	0	38	104	0	74	12044
2026-01-12 13:07:59.19	125.37	6.15	-52.0	-62.3	3.8	8.45e-01	0	38	104	0	74	11700
2026-01-12 13:08:00.19	125.31	6.22	-52.0	-62.1	3.8	8.46e-01	0	38	104	0	74	11465
2026-01-12 13:08:01.18	125.25	6.28	-52.0	-61.8	3.8	8.47e-01	0	37	104	0	74	11150
2026-01-12 13:08:02.17	125.19	6.35	-51.9	-61.7	3.8	8.46e-01	0	38	104	0	74	10954
2026-01-12 13:08:03.17	125.13	6.42	-51.9	-61.5	3.8	8.47e-01	0	38	104	0	74	10732
2026-01-12 13:08:04.16	125.07	6.49	-51.9	-61.5	3.8	8.46e-01	0	38	104	0	74	10726
2026-01-12 13:08:05.15	125.01	6.56	-51.9	-61.5	3.8	8.46e-01	0	38	104	0	74	10759
2026-01-12 13:08:06.14	124.95	6.63	-51.9	-61.6	3.8	8.46e-01	0	38	104	0	74	10793
2026-01-12 13:08:07.14	124.88	6.70	-51.9	-61.8	3.8	8.46e-01	0	38	104	0	74	11047
2026-01-12 13:08:08.13	124.82	6.77	-52.0	-62.0	3.8	8.47e-01	0	38	104	0	74	11314
2026-01-12 13:08:09.12	124.76	6.84	-52.0	-62.2	3.8	8.46e-01	0	38	104	0	74	11633
2026-01-12 13:08:10.12	124.70	6.91	-52.0	-62.3	3.8	8.46e-01	0	38	104	0	74	11711
2026-01-12 13:08:11.11	124.63	6.98	-52.0	-62.3	3.8	8.48e-01	0	38	104	0	74	11734
2026-01-12 13:08:12.10	124.57	7.05	-52.0	-62.2	3.8	8.46e-01	0	38	104	0	74	11574
2026-01-12 13:08:13.10	124.51	7.13	-52.0	-62.2	3.8	8.46e-01	0	38	104	0	74	11569
2026-01-12 13:08:14.09	124.44	7.20	-52.0	-61.9	3.8	8.47e-01	0	38	104	0	74	11205
2026-01-12 13:08:15.08	124.38	7.27	-52.0	-62.1	3.8	8.47e-01	0	38	104	0	74	11452
2026-01-12 13:08:16.07	124.31	7.34	-52.0	-62.3	3.8	8.47e-01	0	38	104	0	74	11764
2026-01-12 13:08:17.07	124.25	7.41	-52.0	-62.5	3.8	8.47e-01	0	38	104	0	74	12057
2026-01-12 13:08:18.06	124.18	7.48	-52.0	-62.2	3.8	8.48e-01	0	38	104	0	74	11660
2026-01-12 13:08:19.05	124.12	7.55	-51.8	-60.7	3.8	8.47e-01	0	38	104	0	74	9816
2026-01-12 13:08:20.05	124.05	7.63	-51.2	-58.0	4.6	8.33e-01	0	38	0	0	73	7605
2026-01-12 13:08:21.04	123.98	7.70	-50.3	-55.1	6.5	3.30e-01	0	38	0	2097152	71	6102
2026-01-12 13:08:22.03	123.92	7.77	-49.3	-53.1	8.4	8.74e-02	0	38	0	9437184	69	5414
2026-01-12 13:08:23.03	123.85	7.84	-48.0	-51.0	10.4	4.91e-03	0	38	0	16777216	66	5093
2026-01-12 13:08:24.02	123.78	7.92	-46.7	-49.2	12.3	3.42e-04	0	38	0	24117248	64	4600
2026-01-12 13:08:25.01	123.72	7.99	-46.0	-48.2	13.4	1.83e-05	0	38	0	30408704	62	4622
2026-01-12 13:08:26.01	123.65	8.06	-45.0	-47.0	14.6	1.10e-06	0	38	0	37748736	60	4501
2026-01-12 13:08:27.00	123.58	8.14	-44.5	-46.4	15.0	0.00e+00	0	38	0	45088768	59	4445
2026-01-12 13:08:27.99	123.51	8.21	-44.2	-46.0	15.4	0.00e+00	0	38	0	52428800	59	4271
2026-01-12 13:08:28.98	123.44	8.28	-44.2	-46.0	15.4	0.00e+00	0	39	0	59768832	58	4535
2026-01-12 13:08:29.98	123.37	8.36	-44.2	-46.1	15.3	0.00e+00	0	39	0	66060288	58	4547
2026-01-12 13:08:30.97	123.30	8.43	-44.7	-46.6	14.8	0.00e+00	0	38	0	73400320	58	4834
2026-01-12 13:08:31.96	123.23	8.51	-45.4	-47.5	14.1	1.10e-06	0	38	0	80740352	60	4769
2026-01-12 13:08:32.96	123.16	8.58	-46.5	-48.9	12.7	2.05e-05	0	39	0	88080384	62	5001
2026-01-12 13:08:33.95	123.09	8.65	-47.4	-50.2	11.3	6.84e-04	0	38	0	95420416	64	5178
2026-01-12 13:08:34.94	123.02	8.73	-48.8	-52.2	9.2	1.11e-02	0	38	0	102760448	66	5820
2026-01-12 13:08:35.94	122.95	8.80	-50.3	-55.1	6.5	1.27e-01	0	39	0	109051904	70	6492
2026-01-12 13:08:36.93	122.87	8.88	-51.3	-58.2	4.6	7.91e-01	0	39	0	113246208	72	8208
2026-01-12 13:08:37.92	122.80	8.95	-51.9	-61.3	3.8	8.46e-01	0	39	104	113246208	73	11147
2026-01-12 13:08:38.92	122.73	9.03	-52.0	-62.6	3.8	8.47e-01	0	38	104	113246208	73	12954
2026-01-12 13:08:39.91	122.66	9.11	-49.4	-53.4	8.1	3.15e-01	0	39	0	113246208	69	5621
2026-01-12 13:08:40.90	122.58	9.18	-49.2	-52.9	8.6	4.07e-02	0	39	0	120586240	69	5321
2026-01-12 13:08:41.90	122.51	9.26	-51.7	-60.2	4.0	8.45e-01	0	39	104	123731968	73	9766
2026-01-12 13:08:42.89	122.43	9.33	-48.1	-51.1	10.3	6.21e-01	0	39	104	123731968	67	4847
2026-01-12 13:08:43.89	122.36	9.41	-51.1	-57.9	4.7	1.30e-01	0	39	0	128974848	71	8455
2026-01-12 13:08:44.88	122.28	9.49	-47.4	-50.0	11.5	4.29e-03	0	39	0	132120576	65	4800
2026-01-12 13:08:45.88	122.21	9.57	-46.9	-49.3	12.3	3.31e-04	0	39	0	139460608	64	4685
2026-01-12 13:08:46.87	122.13	9.64	-46.0	-48.2	13.6	2.17e-05	0	39	0	146800640	62	4616
2026-01-12 13:08:47.87	122.05	9.72	-45.5	-47.5	14.2	1.10e-06	0	39	0	154140672	61	4536
2026-01-12 13:08:48.86	121.98	9.80	-44.6	-46.4	15.2	0.00e+00	0	39	0	161480704	60	4230
2026-01-12 13:08:49.86	121.90	9.87	-44.6	-46.4	15.2	0.00e+00	0	39	0	168820736	59	4492
2026-01-12 13:08:50.85	121.82	9.95	-44.5	-46.3	15.3	0.00e+00	0	39	0	175112192	59	4426
2026-01-12 13:08:51.84	121.74	10.03	-44.1	-45.9	15.8	0.00e+00	0	39	0	182452224	58	4442
2026-01-12 13:08:52.84	121.66	10.11	-44.0	-45.7	15.9	0.00e+00	0	39	0	189792256	58	4368
2026-01-12 13:08:53.83	121.58	10.19	-44.1	-45.8	15.8	0.00e+00	0	39	0	197132288	58	4423
2026-01-12 13:08:54.83	121.50	10.27	-43.7	-45.4	16.2	0.00e+00	0	39	0	204472320	58	4218
2026-01-12 13:08:55.84	121.42	10.35	-43.8	-45.5	16.1	0.00e+00	0	39	0	211812352	58	4260
2026-01-12 13:08:56.86	121.34	10.43	-43.8	-45.5	16.1	0.00e+00	0	39	0	219152384	58	4278
2026-01-12 13:08:57.86	121.26	10.51	-43.8	-45.5	16.1	0.00e+00	0	39	0	226492416	58	4266
2026-01-12 13:08:58.85	121.18	10.59	-43.6	-45.3	16.3	0.00e+00	0	39	0	232783872	58	4174
2026-01-12 13:08:59.95	121.09	10.67	-43.5	-45.2	16.4	0.00e+00	0	39	0	241172480	57	4360
2026-01-12 13:09:00.80	121.02	10.74	-43.3	-44.9	16.6	0.00e+00	0	39	0	247463936	57	4227
2026-01-12 13:09:01.94	120.92	10.83	-43.4	-45.0	16.6	0.00e+00	0	39	0	255852544	57	4274
2026-01-12 13:09:02.79	120.85	10.90	-43.4	-45.1	16.5	0.00e+00	0	39	0	262144000	57	4313
2026-01-12 13:09:03.93	120.76	10.99	-43.4	-45.1	16.5	0.00e+00	0	39	0	270532608	57	4302
2026-01-12 13:09:04.78	120.68	11.06	-43.2	-44.9	16.7	0.00e+00	0	39	0	275775488	57	4199
2026-01-12 13:09:05.91	120.59	11.16	-43.1	-44.7	16.9	0.00e+00	0	39	0	284164096	56	4364
2026-01-12 13:09:06.77	120.51	11.23	-43.1	-44.7	16.9	0.00e+00	0	39	0	290455552	56	4347
2026-01-12 13:09:07.90	120.42	11.32	-43.0	-44.6	17.0	0.00e+00	0	39	0	298844160	56	4294
2026-01-12 13:09:08.76	120.34	11.39	-43.0	-44.6	17.0	0.00e+00	0	39	0	305135616	56	4320
2026-01-12 13:09:09.99	120.23	11.49	-43.0	-44.6	17.0	0.00e+00	0	39	0	313524224	56	4321
2026-01-12 13:09:10.84	120.16	11.56	-43.1	-44.7	16.9	0.00e+00	0	39	0	319815680	56	4391
2026-01-12 13:09:11.98	120.06	11.65	-43.1	-44.7	16.9	0.00e+00	0	39	0	328204288	56	4354
2026-01-12 13:09:12.83	119.98	11.72	-43.1	-44.7	17.0	0.00e+00	0	39	0	334495744	56	4357
2026-01-12 13:09:14.07	119.87	11.83	-43.3	-44.9	16.7	0.00e+00	0	39	0	342884352	56	4489
2026-01-12 13:09:14.93	119.80	11.90	-43.0	-44.6	17.0	0.00e+00	0	39	0	349175808	56	4327
2026-01-12 13:09:16.06	119.69	11.99	-43.0	-44.5	17.1	0.00e+00	0	39	0	357564416	56	4283
2026-01-12 13:09:16.92	119.61	12.06	-43.1	-44.7	16.9	0.00e+00	0	39	0	363855872	56	4376
2026-01-12 13:09:18.05	119.51	12.16	-42.9	-44.5	17.2	0.00e+00	0	39	0	372244480	56	4254
2026-01-12 13:09:18.98	119.43	12.24	-42.9	-44.5	17.1	0.00e+00	0	39	0	378535936	56	4283
2026-01-12 13:09:19.98	119.33	12.32	-42.8	-44.3	17.3	0.00e+00	0	39	0	385875968	56	4186
2026-01-12 13:09:20.97	119.24	12.41	-42.8	-44.3	17.3	0.00e+00	0	39	0	393216000	56	4185
2026-01-12 13:09:21.97	119.15	12.49	-42.7	-44.3	17.2	0.00e+00	0	39	0	400556032	55	4406
2026-01-12 13:09:22.96	119.05	12.57	-42.8	-44.4	17.1	0.00e+00	0	39	0	407896064	55	4450
2026-01-12 13:09:23.96	118.96	12.66	-42.8	-44.4	17.1	0.00e+00	0	39	0	414187520	55	4462
2026-01-12 13:09:24.95	118.87	12.74	-42.9	-44.5	17.0	0.00e+00	0	39	0	421527552	55	4508
2026-01-12 13:09:25.95	118.77	12.83	-42.8	-44.4	17.0	0.00e+00	0	39	0	428867584	55	4490
2026-01-12 13:09:26.94	118.67	12.91	-42.7	-44.3	17.2	0.00e+00	0	39	0	436207616	55	4401
2026-01-12 13:09:27.94	118.58	13.00	-42.8	-44.4	17.1	0.00e+00	0	39	0	443547648	55	4456
2026-01-12 13:09:28.93	118.48	13.09	-42.7	-44.3	17.2	0.00e+00	0	39	0	450887680	55	4406
2026-01-12 13:09:29.93	118.38	13.17	-42.7	-44.3	17.2	0.00e+00	0	39	0	458227712	55	4394
2026-01-12 13:09:30.99	118.28	13.26	-42.6	-44.2	17.2	0.00e+00	0	39	0	465567744	55	4389
2026-01-12 13:09:31.84	118.19	13.34	-42.6	-44.1	17.4	0.00e+00	0	39	0	471859200	55	4338
2026-01-12 13:09:32.98	118.08	13.44	-42.5	-44.1	17.4	0.00e+00	0	39	0	480247808	55	4306
2026-01-12 13:09:33.83	118.00	13.51	-42.6	-44.2	17.2	0.00e+00	0	39	0	485490688	55	4385
2026-01-12 13:09:34.97	117.88	13.61	-42.7	-44.2	17.2	0.00e+00	0	39	0	493879296	55	4388
2026-01-12 13:09:35.83	117.79	13.69	-42.5	-44.1	17.3	0.00e+00	0	39	0	500170752	55	4320
2026-01-12 13:09:36.96	117.68	13.79	-42.4	-44.0	17.5	0.00e+00	0	39	0	508559360	55	4269
2026-01-12 13:09:37.81	117.59	13.86	-42.4	-44.0	17.5	0.00e+00	0	39	0	514850816	55	4251
2026-01-12 13:09:38.95	117.47	13.96	-42.4	-44.0	17.5	0.00e+00	0	39	0	523239424	55	4259
2026-01-12 13:09:39.80	117.38	14.04	-42.5	-44.1	17.4	0.00e+00	0	39	0	528482304	55	4300
2026-01-12 13:09:40.94	117.26	14.14	-42.4	-43.9	17.5	0.00e+00	0	39	0	536870912	55	4233
2026-01-12 13:09:41.79	117.17	14.22	-42.5	-44.2	17.3	0.00e+00	0	39	0	543162368	55	4345
2026-01-12 13:09:42.94	117.05	14.32	-42.3	-43.9	17.6	0.00e+00	0	39	0	551550976	55	4194
2026-01-12 13:09:43.80	116.96	14.40	-42.3	-43.8	17.6	0.00e+00	0	39	0	557842432	55	4178
2026-01-12 13:09:45.00	116.83	14.50	-42.2	-43.7	17.7	0.00e+00	0	39	0	566231040	55	4122
2026-01-12 13:09:45.85	116.74	14.58	-42.1	-43.6	17.8	0.00e+00	0	39	0	572522496	55	4088
2026-01-12 13:09:47.07	116.61	14.69	-42.1	-43.7	17.8	0.00e+00	0	39	0	581959680	54	4345
2026-01-12 13:09:47.92	116.51	14.77	-42.1	-43.6	17.8	0.00e+00	0	39	0	588251136	54	4313
2026-01-12 13:09:49.06	116.39	14.87	-41.9	-43.4	18.0	0.00e+00	0	39	0	595591168	54	4237
2026-01-12 13:09:49.91	116.29	14.95	-42.0	-43.5	17.9	0.00e+00	0	39	0	601882624	54	4268
2026-01-12 13:09:51.05	116.17	15.05	-41.9	-43.4	18.0	0.00e+00	0	39	0	610271232	54	4218
2026-01-12 13:09:51.90	116.07	15.13	-42.0	-43.6	17.9	0.00e+00	0	39	0	616562688	54	4300
2026-01-12 13:09:53.03	115.94	15.23	-41.8	-43.2	18.2	0.00e+00	0	39	0	624951296	54	4143
2026-01-12 13:09:53.89	115.85	15.31	-41.7	-43.2	18.2	0.00e+00	0	39	0	630194176	54	4138
2026-01-12 13:09:55.02	115.72	15.42	-41.8	-43.3	18.2	0.00e+00	0	39	0	638582784	54	4146
2026-01-12 13:09:55.88	115.62	15.50	-41.7	-43.3	18.2	0.00e+00	0	39	0	644874240	54	4147
2026-01-12 13:09:57.01	115.49	15.60	-41.8	-43.3	18.1	0.00e+00	0	39	0	653262848	54	4177
2026-01-12 13:09:57.87	115.39	15.68	-41.7	-43.2	18.2	0.00e+00	0	39	0	659554304	53	4380
2026-01-12 13:09:59.00	115.25	15.79	-41.6	-43.1	18.3	0.00e+00	0	39	0	667942912	53	4310
2026-01-12 13:09:59.86	115.15	15.87	-41.6	-43.1	18.3	0.00e+00	0	39	0	673185792	53	4331
2026-01-12 13:10:00.99	115.02	15.97	-41.6	-43.1	18.3	0.00e+00	0	39	0	681574400	53	4318
2026-01-12 13:10:01.84	114.92	16.05	-41.7	-43.2	18.2	0.00e+00	0	39	0	687865856	53	4382
2026-01-12 13:10:02.98	114.78	16.16	-41.7	-43.2	18.2	0.00e+00	0	39	0	696254464	53	4372
2026-01-12 13:10:03.83	114.68	16.24	-41.6	-43.1	18.3	0.00e+00	0	39	0	702545920	53	4318
2026-01-12 13:10:05.08	114.52	16.36	-41.6	-43.1	18.3	0.00e+00	0	39	0	711983104	53	4320
2026-01-12 13:10:05.93	114.42	16.44	-41.6	-43.1	18.3	0.00e+00	0	39	0	717225984	53	4329
2026-01-12 13:10:07.12	114.27	16.55	-41.6	-43.0	18.4	0.00e+00	0	39	0	726663168	53	4286
2026-01-12 13:10:07.97	114.17	16.63	-41.5	-42.9	18.5	0.00e+00	0	39	0	732954624	53	4221
2026-01-12 13:10:09.11	114.02	16.74	-41.4	-42.8	18.6	0.00e+00	0	39	0	740294656	53	4190
2026-01-12 13:10:09.96	113.92	16.82	-41.4	-42.9	18.6	0.00e+00	0	39	0	746586112	53	4199
2026-01-12 13:10:11.10	113.77	16.93	-41.3	-42.8	18.7	0.00e+00	0	39	0	754974720	53	4151
2026-01-12 13:10:11.95	113.66	17.01	-41.3	-42.7	18.7	0.00e+00	0	39	0	761266176	53	4135
2026-01-12 13:10:13.09	113.52	17.12	-41.2	-42.6	18.8	0.00e+00	0	39	0	769654784	53	4086
2026-01-12 13:10:13.94	113.41	17.21	-41.2	-42.6	18.8	0.00e+00	0	39	0	774897664	53	4074
2026-01-12 13:10:15.08	113.26	17.32	-41.2	-42.6	18.8	0.00e+00	0	39	0	783286272	53	4074
2026-01-12 13:10:16.12	113.12	17.42	-41.3	-42.7	18.8	0.00e+00	0	39	0	791674880	53	4104
2026-01-12 13:10:17.06	113.00	17.51	-41.2	-42.6	18.8	0.00e+00	0	39	0	797966336	53	4074
2026-01-12 13:10:18.31	112.83	17.63	-41.1	-42.5	18.9	0.00e+00	0	39	0	806354944	53	4029
2026-01-12 13:10:19.16	112.72	17.72	-41.2	-42.6	18.9	0.00e+00	0	39	0	812646400	52	4302
2026-01-12 13:10:20.50	112.54	17.85	-41.2	-42.6	18.9	0.00e+00	0	39	0	823132160	52	4307
2026-01-12 13:10:21.21	112.44	17.92	-41.3	-42.7	18.8	0.00e+00	0	39	0	828375040	52	4353
2026-01-12 13:10:22.72	112.24	18.07	-41.2	-42.6	18.9	0.00e+00	0	39	0	838860800	52	4293
2026-01-12 13:10:23.44	112.14	18.14	-41.0	-42.3	19.1	0.00e+00	0	39	0	844103680	52	4188
2026-01-12 13:10:24.72	111.96	18.26	-41.2	-42.6	18.9	0.00e+00	0	39	0	853540864	52	4301
2026-01-12 13:10:25.44	111.86	18.34	-41.3	-42.7	18.7	0.00e+00	0	40	0	858783744	52	4387
2026-01-12 13:10:26.72	111.68	18.46	-41.6	-42.6	19.2	0.00e+00	0	39	0	868220928	52	4315
2026-01-12 13:10:27.43	111.58	18.53	-41.7	-42.7	19.1	0.00e+00	0	39	0	872415232	52	4378
2026-01-12 13:10:28.71	111.40	18.66	-41.7	-42.7	19.1	0.00e+00	0	39	0	881852416	52	4361
2026-01-12 13:10:29.45	111.29	18.74	-41.7	-42.8	19.0	0.00e+00	0	40	0	887095296	53	4167
2026-01-12 13:10:30.73	111.11	18.86	-41.6	-42.6	19.1	0.00e+00	0	39	0	896532480	53	4098
2026-01-12 13:10:31.50	111.00	18.94	-41.6	-42.7	19.1	0.00e+00	0	39	0	901775360	53	4102
2026-01-12 13:10:32.78	110.81	19.07	-41.4	-42.4	19.4	0.00e+00	0	39	0	911212544	53	3977
2026-01-12 13:10:33.58	110.69	19.15	-41.3	-42.3	19.4	0.00e+00	0	39	0	917504000	53	3951
2026-01-12 13:10:35.01	110.48	19.30	-41.3	-42.3	19.4	0.00e+00	0	39	0	926941184	53	3935
2026-01-12 13:10:35.72	110.37	19.37	-41.4	-42.4	19.4	0.00e+00	0	40	0	933232640	53	3970
2026-01-12 13:10:37.17	110.15	19.52	-41.3	-42.3	19.4	0.00e+00	0	39	0	943718400	53	3947
2026-01-12 13:10:37.88	110.05	19.59	-41.3	-42.3	19.4	0.00e+00	0	39	0	947912704	53	3946
2026-01-12 13:10:39.16	109.85	19.72	-41.2	-42.2	19.5	0.00e+00	0	39	0	957349888	53	3898
2026-01-12 13:10:39.87	109.74	19.79	-41.2	-42.2	19.6	0.00e+00	0	39	0	962592768	52	4130
2026-01-12 13:10:41.27	109.53	19.94	-41.1	-42.1	19.6	0.00e+00	0	39	0	973078528	52	4079
2026-01-12 13:10:41.98	109.42	20.01	-41.3	-42.3	19.5	0.00e+00	0	39	0	978321408	52	4148
2026-01-12 13:10:43.26	109.21	20.14	-41.4	-42.4	19.4	0.00e+00	0	39	0	986710016	52	4195
2026-01-12 13:10:43.97	109.10	20.21	-41.2	-42.2	19.5	0.00e+00	0	39	0	991952896	52	4136
2026-01-12 13:10:45.25	108.90	20.35	-41.3	-42.4	19.4	0.00e+00	0	39	0	1001390080	52	4195
2026-01-12 13:10:45.96	108.79	20.42	-41.4	-42.4	19.4	0.00e+00	0	40	0	1006632960	52	4223
2026-01-12 13:10:47.24	108.58	20.55	-41.5	-42.5	19.3	0.00e+00	0	40	0	1016070144	52	4276
2026-01-12 13:10:47.95	108.46	20.63	-41.4	-42.5	19.4	0.00e+00	0	39	0	1021313024	52	4245
2026-01-12 13:10:49.23	108.25	20.76	-41.5	-42.5	19.3	0.00e+00	0	40	0	1030750208	52	4264
2026-01-12 13:10:49.95	108.14	20.84	-41.4	-42.4	19.3	0.00e+00	0	40	0	1034944512	52	4235
2026-01-12 13:10:51.23	107.92	20.97	-41.3	-42.3	19.5	0.00e+00	0	39	0	1044381696	52	4153
2026-01-12 13:10:52.10	107.78	21.06	-41.3	-42.3	19.5	0.00e+00	0	39	0	1050673152	52	4158
2026-01-12 13:10:53.24	107.59	21.18	-41.4	-42.4	19.4	0.00e+00	0	39	0	1059061760	52	4204
2026-01-12 13:10:54.09	107.44	21.27	-41.3	-42.3	19.5	0.00e+00	0	39	0	1065353216	52	4150
2026-01-12 13:10:55.23	107.25	21.39	-41.1	-42.1	19.7	0.00e+00	0	40	0	1073741824	52	4081
2026-01-12 13:10:56.08	107.10	21.48	-41.2	-42.2	19.6	0.00e+00	0	39	0	1080033280	52	4114
2026-01-12 13:10:57.22	106.91	21.60	-41.2	-42.2	19.5	0.00e+00	0	39	0	1088421888	52	4139
2026-01-12 13:10:58.07	106.76	21.69	-41.2	-42.2	19.6	0.00e+00	0	39	0	1093664768	52	4110
2026-01-12 13:10:59.21	106.56	21.81	-41.1	-42.1	19.7	0.00e+00	0	39	0	1102053376	52	4062
2026-01-12 13:11:00.06	106.41	21.90	-41.1	-42.1	19.7	0.00e+00	0	40	0	1108344832	52	4060
2026-01-12 13:11:01.20	106.21	22.02	-41.2	-42.2	19.6	0.00e+00	0	39	0	1116733440	52	4102
2026-01-12 13:11:02.05	106.06	22.11	-41.1	-42.0	19.8	0.00e+00	0	39	0	1123024896	52	4044
2026-01-12 13:11:03.19	105.85	22.23	-41.0	-41.9	19.8	0.00e+00	0	40	0	1131413504	52	4000
2026-01-12 13:11:04.04	105.70	22.32	-41.0	-41.9	19.9	0.00e+00	0	40	0	1136656384	52	3997
2026-01-12 13:11:05.18	105.49	22.45	-40.9	-41.9	19.9	0.00e+00	0	40	0	1145044992	52	3978
2026-01-12 13:11:06.03	105.33	22.54	-40.8	-41.8	20.0	0.00e+00	0	40	0	1151336448	52	3931
2026-01-12 13:11:07.16	105.12	22.66	-40.8	-41.8	20.0	0.00e+00	0	39	0	1159725056	52	3932
2026-01-12 13:11:08.10	104.95	22.76	-40.9	-41.8	19.9	0.00e+00	0	39	0	1166016512	52	3941
2026-01-12 13:11:09.30	104.72	22.89	-40.9	-41.9	19.9	0.00e+00	0	40	0	1175453696	52	3979
2026-01-12 13:11:10.15	104.56	22.98	-40.9	-41.9	19.9	0.00e+00	0	40	0	1180696576	52	3980
2026-01-12 13:11:11.49	104.31	23.12	-41.1	-42.0	19.8	0.00e+00	0	40	0	1191182336	52	4048
2026-01-12 13:11:12.20	104.17	23.20	-41.1	-42.1	19.7	0.00e+00	0	39	0	1196425216	52	4062
2026-01-12 13:11:13.48	103.92	23.34	-40.9	-41.9	19.9	0.00e+00	0	40	0	1204813824	52	3978
2026-01-12 13:11:14.19	103.79	23.41	-41.0	-42.0	19.8	0.00e+00	0	39	0	1210056704	52	4018
2026-01-12 13:11:15.77	103.48	23.58	-40.8	-41.7	20.1	0.00e+00	0	40	0	1221591040	52	3904
2026-01-12 13:11:16.42	103.35	23.65	-40.7	-41.7	20.1	0.00e+00	0	39	0	1226833920	52	3897
2026-01-12 13:11:17.84	103.06	23.81	-40.7	-41.7	20.1	0.00e+00	0	39	0	1236271104	52	3894
2026-01-12 13:11:18.55	102.92	23.88	-40.7	-41.7	20.1	0.00e+00	0	39	0	1241513984	52	3879
2026-01-12 13:11:19.83	102.66	24.02	-40.6	-41.6	20.2	0.00e+00	0	40	0	1250951168	52	3835
2026-01-12 13:11:20.55	102.52	24.10	-40.7	-41.7	20.1	0.00e+00	0	39	0	1256194048	52	3870
2026-01-12 13:11:21.84	102.25	24.24	-40.8	-41.8	20.0	0.00e+00	0	39	0	1265631232	52	3924
2026-01-12 13:11:22.55	102.11	24.32	-40.6	-41.5	20.3	0.00e+00	0	39	0	1270874112	51	4051
2026-01-12 13:11:23.82	101.84	24.45	-40.7	-41.7	20.2	0.00e+00	0	39	0	1280311296	51	4120
2026-01-12 13:11:24.60	101.68	24.54	-40.7	-41.7	20.1	0.00e+00	0	40	0	1285554176	51	4115
2026-01-12 13:11:26.18	101.35	24.71	-40.5	-41.5	20.4	0.00e+00	0	39	0	1297088512	51	4011
2026-01-12 13:11:26.82	101.21	24.78	-40.6	-41.5	20.3	0.00e+00	0	39	0	1301282816	51	4043
2026-01-12 13:11:28.39	100.87	24.95	-40.6	-41.5	20.3	0.00e+00	0	40	0	1312817152	51	4043
2026-01-12 13:11:29.02	100.74	25.02	-40.6	-41.6	20.3	0.00e+00	0	39	0	1318060032	51	4065
2026-01-12 13:11:30.53	100.41	25.18	-40.7	-41.7	20.2	0.00e+00	0	40	0	1328545792	51	4120
2026-01-12 13:11:31.24	100.26	25.26	-40.7	-41.6	20.2	0.00e+00	0	39	0	1333788672	51	4087
2026-01-12 13:11:32.52	99.97	25.40	-40.7	-41.6	20.2	0.00e+00	0	40	0	1343225856	51	4088
2026-01-12 13:11:33.24	99.81	25.48	-40.7	-41.6	20.2	0.00e+00	0	40	0	1347420160	51	4091
2026-01-12 13:11:34.52	99.53	25.62	-40.5	-41.5	20.4	0.00e+00	0	40	0	1356857344	51	4005
2026-01-12 13:11:35.25	99.36	25.70	-40.6	-41.5	20.3	0.00e+00	0	40	0	1362100224	51	4051
2026-01-12 13:11:36.53	99.07	25.83	-40.4	-41.4	20.4	0.00e+00	0	40	0	1371537408	51	3972
2026-01-12 13:11:37.27	98.90	25.91	-40.4	-41.4	20.5	0.00e+00	0	40	0	1376780288	51	3967
2026-01-12 13:11:38.55	98.61	26.05	-40.3	-41.2	20.6	0.00e+00	0	40	0	1386217472	51	3887
2026-01-12 13:11:39.26	98.44	26.13	-40.3	-41.2	20.6	0.00e+00	0	40	0	1391460352	51	3897
2026-01-12 13:11:40.61	98.13	26.28	-40.3	-41.2	20.6	0.00e+00	0	40	0	1400897536	51	3911
2026-01-12 13:11:41.33	97.96	26.35	-40.4	-41.3	20.5	0.00e+00	0	40	0	1406140416	51	3938
2026-01-12 13:11:42.65	97.65	26.50	-40.4	-41.3	20.5	0.00e+00	0	40	0	1415577600	51	3942
2026-01-12 13:11:43.36	97.48	26.57	-40.4	-41.3	20.5	0.00e+00	0	39	0	1420820480	51	3937
2026-01-12 13:11:44.64	97.17	26.71	-40.5	-41.5	20.4	0.00e+00	0	39	0	1430257664	51	4007
2026-01-12 13:11:45.71	96.92	26.82	-40.5	-41.4	20.4	0.00e+00	0	39	0	1437597696	51	4003
2026-01-12 13:11:46.57	96.71	26.92	-40.7	-41.6	20.3	0.00e+00	0	40	0	1443889152	51	4070
2026-01-12 13:11:47.70	96.43	27.04	-40.7	-41.7	20.2	0.00e+00	0	40	0	1452277760	51	4102
2026-01-12 13:11:48.56	96.22	27.13	-40.6	-41.6	20.3	0.00e+00	0	40	0	1458569216	51	4060
2026-01-12 13:11:49.69	95.94	27.25	-40.6	-41.5	20.3	0.00e+00	0	40	0	1466957824	51	4042
2026-01-12 13:11:50.55	95.72	27.34	-40.6	-41.5	20.3	0.00e+00	0	40	0	1473249280	51	4046
2026-01-12 13:11:51.68	95.44	27.46	-40.3	-41.3	20.6	0.00e+00	0	40	0	1480589312	51	3918
2026-01-12 13:11:52.53	95.22	27.55	-40.3	-41.2	20.6	0.00e+00	0	39	0	1486880768	51	3894
2026-01-12 13:11:53.67	94.93	27.67	-40.3	-41.2	20.6	0.00e+00	0	40	0	1495269376	51	3899
2026-01-12 13:11:54.52	94.71	27.76	-40.3	-41.2	20.6	0.00e+00	0	40	0	1501560832	51	3908
2026-01-12 13:11:55.66	94.42	27.88	-40.3	-41.2	20.6	0.00e+00	0	40	0	1509949440	51	3887
2026-01-12 13:11:56.61	94.17	27.98	-40.4	-41.3	20.5	0.00e+00	0	40	0	1516240896	51	3927
2026-01-12 13:11:57.78	93.87	28.11	-40.5	-41.4	20.5	0.00e+00	0	40	0	1524629504	51	3988
2026-01-12 13:11:58.66	93.63	28.20	-40.4	-41.3	20.5	0.00e+00	0	40	0	1531969536	51	3958
2026-01-12 13:11:59.97	93.29	28.34	-40.5	-41.5	20.4	0.00e+00	0	39	0	1541406720	51	4020
2026-01-12 13:12:00.68	93.10	28.41	-40.6	-41.6	20.3	0.00e+00	0	40	0	1545601024	51	4053
2026-01-12 13:12:01.96	92.75	28.54	-40.6	-41.5	20.4	0.00e+00	0	39	0	1555038208	51	4042
2026-01-12 13:12:02.69	92.56	28.62	-40.6	-41.5	20.4	0.00e+00	0	39	0	1560281088	51	4043
2026-01-12 13:12:03.97	92.21	28.75	-40.5	-41.4	20.5	0.00e+00	0	40	0	1569718272	51	3973
2026-01-12 13:12:04.68	92.01	28.82	-40.5	-41.5	20.4	0.00e+00	0	39	0	1574961152	51	4019
2026-01-12 13:12:05.96	91.66	28.96	-40.7	-41.6	20.3	0.00e+00	0	40	0	1584398336	51	4080
2026-01-12 13:12:06.69	91.46	29.03	-40.6	-41.6	20.3	0.00e+00	0	40	0	1589641216	51	4056
2026-01-12 13:12:07.96	91.10	29.16	-40.7	-41.6	20.3	0.00e+00	0	40	0	1599078400	51	4079
2026-01-12 13:12:08.69	90.90	29.23	-40.8	-41.7	20.2	0.00e+00	0	40	0	1603272704	51	4134
2026-01-12 13:12:09.97	90.53	29.36	-40.5	-41.5	20.4	0.00e+00	0	40	0	1612709888	51	4017
2026-01-12 13:12:10.69	90.33	29.44	-40.5	-41.5	20.4	0.00e+00	0	40	0	1617952768	51	4018
2026-01-12 13:12:11.97	89.96	29.56	-40.4	-41.3	20.5	0.00e+00	0	40	0	1627389952	51	3957
2026-01-12 13:12:12.68	89.76	29.63	-40.4	-41.3	20.6	0.00e+00	0	40	0	1632632832	51	3954
2026-01-12 13:12:13.96	89.38	29.76	-40.2	-41.1	20.7	0.00e+00	0	39	0	1642070016	51	3856
2026-01-12 13:12:14.67	89.18	29.83	-40.1	-41.0	20.8	0.00e+00	0	39	0	1647312896	51	3807
2026-01-12 13:12:15.95	88.80	29.96	-40.2	-41.1	20.8	0.00e+00	0	39	0	1655701504	50	4060
2026-01-12 13:12:16.68	88.59	30.03	-40.1	-41.0	20.9	0.00e+00	0	40	0	1661992960	50	4010
2026-01-12 13:12:18.13	88.15	30.17	-40.1	-41.0	20.9	0.00e+00	0	39	0	1672478720	50	4011
2026-01-12 13:12:18.84	87.94	30.24	-40.2	-41.1	20.7	0.00e+00	0	40	0	1676673024	50	4081
2026-01-12 13:12:20.17	87.54	30.36	-40.1	-41.0	20.8	0.00e+00	0	40	0	1687158784	50	4044
2026-01-12 13:12:20.88	87.32	30.43	-40.1	-41.0	20.8	0.00e+00	0	40	0	1691353088	50	4050
2026-01-12 13:12:22.16	86.93	30.55	-40.5	-41.5	20.5	0.00e+00	0	40	0	1700790272	50	4273
2026-01-12 13:12:22.90	86.71	30.62	-40.5	-41.4	20.6	0.00e+00	0	40	0	1706033152	51	3998
2026-01-12 13:12:24.22	86.30	30.75	-40.0	-40.9	20.8	0.00e+00	0	39	0	1716518912	50	3999
2026-01-12 13:12:24.93	86.08	30.81	-40.2	-41.1	20.8	0.00e+00	0	40	0	1720713216	50	4064
2026-01-12 13:12:26.26	85.66	30.93	-40.2	-41.2	20.7	0.00e+00	0	40	0	1731198976	50	4115
2026-01-12 13:12:26.97	85.44	31.00	-40.3	-41.2	20.6	0.00e+00	0	39	0	1735393280	50	4132
2026-01-12 13:12:28.29	85.02	31.12	-40.2	-41.1	20.8	0.00e+00	0	39	0	1744830464	50	4073
2026-01-12 13:12:29.00	84.80	31.18	-40.2	-41.1	20.7	0.00e+00	0	40	0	1750073344	50	4074
2026-01-12 13:12:30.28	84.39	31.30	-40.0	-41.0	20.9	0.00e+00	0	40	0	1759510528	50	4017
2026-01-12 13:12:30.99	84.16	31.36	-40.1	-41.0	20.8	0.00e+00	0	40	0	1764753408	50	4048
2026-01-12 13:12:32.27	83.75	31.47	-39.8	-40.7	21.1	0.00e+00	0	40	0	1774190592	50	3913
2026-01-12 13:12:32.98	83.52	31.53	-39.8	-40.7	21.1	0.00e+00	0	40	0	1779433472	50	3886
2026-01-12 13:12:34.26	83.10	31.64	-39.7	-40.6	21.2	0.00e+00	0	40	0	1787822080	50	3865
2026-01-12 13:12:34.99	82.86	31.71	-39.7	-40.5	21.2	0.00e+00	0	40	0	1794113536	50	3823
2026-01-12 13:12:36.27	82.44	31.82	-39.7	-40.6	21.2	0.00e+00	0	39	0	1802502144	50	3839
2026-01-12 13:12:36.99	82.20	31.88	-39.9	-40.8	21.0	0.00e+00	0	40	0	1807745024	50	3941
2026-01-12 13:12:38.27	81.77	31.98	-39.9	-40.8	21.1	0.00e+00	0	40	0	1817182208	50	3919
2026-01-12 13:12:39.06	81.51	32.05	-40.0	-41.0	20.9	0.00e+00	0	40	0	1823473664	50	4008
2026-01-12 13:12:40.53	81.01	32.17	-40.0	-40.9	21.0	0.00e+00	0	40	0	1833959424	50	3965
2026-01-12 13:12:41.24	80.77	32.22	-40.0	-40.9	21.0	0.00e+00	0	40	0	1839202304	50	3972
2026-01-12 13:12:42.52	80.34	32.32	-39.9	-40.8	21.0	0.00e+00	0	40	0	1848639488	50	3939
2026-01-12 13:12:43.23	80.09	32.38	-40.0	-40.9	21.0	0.00e+00	0	40	0	1852833792	50	3963
2026-01-12 13:12:44.51	79.65	32.48	-39.9	-40.8	21.0	0.00e+00	0	40	0	1862270976	50	3944
2026-01-12 13:12:45.22	79.41	32.53	-39.9	-40.8	21.0	0.00e+00	0	40	0	1867513856	50	3955
2026-01-12 13:12:46.50	78.96	32.63	-39.8	-40.7	21.1	0.00e+00	0	40	0	1876951040	50	3884
2026-01-12 13:12:47.23	78.71	32.68	-39.9	-40.8	21.1	0.00e+00	0	40	0	1882193920	50	3916
2026-01-12 13:12:48.51	78.26	32.78	-39.7	-40.6	21.2	0.00e+00	0	40	0	1890582528	50	3854
2026-01-12 13:12:49.22	78.01	32.83	-39.7	-40.5	21.2	0.00e+00	0	40	0	1896873984	50	3812
2026-01-12 13:12:50.50	77.56	32.92	-39.6	-40.5	21.2	0.00e+00	0	40	0	1905262592	49	4034
2026-01-12 13:12:51.22	77.30	32.97	-39.7	-40.6	21.2	0.00e+00	0	40	0	1910505472	49	4093
2026-01-12 13:12:52.50	76.85	33.06	-39.7	-40.6	21.2	0.00e+00	0	40	0	1919942656	49	4089
2026-01-12 13:12:53.21	76.59	33.10	-39.8	-40.6	21.1	0.00e+00	0	40	0	1925185536	49	4096
2026-01-12 13:12:54.58	76.10	33.20	-39.8	-40.7	21.1	0.00e+00	0	40	0	1934622720	49	4112
2026-01-12 13:12:55.29	75.84	33.24	-39.8	-40.7	21.1	0.00e+00	0	40	0	1939865600	49	4125
2026-01-12 13:12:56.57	75.38	33.32	-39.8	-40.7	21.1	0.00e+00	0	40	0	1949302784	49	4124
2026-01-12 13:12:57.28	75.12	33.37	-39.8	-40.6	21.2	0.00e+00	0	40	0	1954545664	49	4088
2026-01-12 13:12:58.65	74.62	33.45	-39.9	-40.8	21.0	0.00e+00	0	40	0	1963982848	49	4178
2026-01-12 13:12:59.36	74.36	33.50	-39.8	-40.7	21.1	0.00e+00	0	40	0	1969225728	49	4119
2026-01-12 13:13:00.64	73.89	33.57	-39.7	-40.6	21.2	0.00e+00	0	40	0	1978662912	49	4069
2026-01-12 13:13:01.35	73.63	33.61	-39.8	-40.6	21.2	0.00e+00	0	40	0	1983905792	49	4097
2026-01-12 13:13:02.76	73.11	33.69	-39.8	-40.6	21.2	0.00e+00	0	40	0	1994391552	49	4093
2026-01-12 13:13:03.47	72.84	33.73	-39.7	-40.6	21.2	0.00e+00	0	40	0	1999634432	49	4063
2026-01-12 13:13:04.76	72.36	33.80	-39.7	-40.5	21.2	0.00e+00	0	40	0	2009071616	49	4045
2026-01-12 13:13:05.48	72.09	33.84	-39.7	-40.6	21.2	0.00e+00	0	40	0	2013265920	49	4082
2026-01-12 13:13:06.76	71.61	33.91	-39.8	-40.7	21.2	0.00e+00	0	40	0	2022703104	49	4100
2026-01-12 13:13:07.48	71.34	33.94	-39.7	-40.6	21.2	0.00e+00	0	40	0	2027945984	49	4085
2026-01-12 13:13:08.76	70.85	34.01	-39.9	-40.8	21.0	0.00e+00	0	40	0	2037383168	49	4166
2026-01-12 13:13:09.49	70.58	34.04	-39.9	-40.8	21.0	0.00e+00	0	40	0	2042626048	49	4165
2026-01-12 13:13:10.77	70.09	34.10	-40.0	-40.9	21.0	0.00e+00	0	40	0	2052063232	49	4202
2026-01-12 13:13:11.48	69.82	34.13	-39.9	-40.8	21.0	0.00e+00	0	40	0	2057306112	49	4173
2026-01-12 13:13:12.76	69.33	34.19	-39.7	-40.6	21.2	0.00e+00	0	40	0	2065694720	49	4085
2026-01-12 13:13:13.48	69.05	34.22	-39.8	-40.7	21.1	0.00e+00	0	40	0	2071986176	49	4111
2026-01-12 13:13:14.76	68.56	34.27	-39.9	-40.8	21.0	0.00e+00	0	40	0	2081423360	49	4182
2026-01-12 13:13:15.47	68.29	34.30	-40.0	-40.9	21.0	0.00e+00	0	40	0	2085617664	49	4195
2026-01-12 13:13:16.75	67.79	34.35	-40.0	-40.9	21.0	0.00e+00	0	40	0	2095054848	49	4197
2026-01-12 13:13:17.46	67.52	34.37	-40.1	-41.0	20.9	0.00e+00	0	40	0	2100297728	49	4246
2026-01-12 13:13:18.74	67.02	34.42	-40.1	-41.0	20.9	0.00e+00	0	40	0	2109734912	49	4253
2026-01-12 13:13:19.47	66.74	34.44	-40.1	-41.0	20.9	0.00e+00	0	40	0	2114977792	49	4282
2026-01-12 13:13:20.75	66.24	34.48	-40.1	-41.0	20.9	0.00e+00	0	40	0	2123366400	49	4272
2026-01-12 13:13:21.46	65.96	34.51	-40.0	-40.9	20.9	0.00e+00	0	40	0	2128609280	49	4231
2026-01-12 13:13:22.74	65.46	34.54	-39.9	-40.8	21.1	0.00e+00	0	40	0	2138046464	49	4154
2026-01-12 13:13:23.45	65.18	34.56	-39.9	-40.8	21.1	0.00e+00	0	40	0	2143289344	49	4146
2026-01-12 13:13:24.73	64.68	34.60	-39.9	-40.7	21.1	0.00e+00	0	40	0	2152726528	49	4144
2026-01-12 13:13:25.44	64.40	34.61	-39.9	-40.8	21.1	0.00e+00	0	40	0	2157969408	49	4147
2026-01-12 13:13:26.72	63.90	34.64	-39.9	-40.7	21.1	0.00e+00	0	40	0	2167406592	49	4144
2026-01-12 13:13:27.43	63.62	34.66	-39.8	-40.7	21.2	0.00e+00	0	40	0	2172649472	49	4116
2026-01-12 13:13:28.71	63.12	34.68	-39.9	-40.8	21.1	0.00e+00	0	40	0	2181038080	49	4150
2026-01-12 13:13:29.42	62.83	34.70	-39.8	-40.6	21.2	0.00e+00	0	40	0	2186280960	49	4095
2026-01-12 13:13:30.70	62.33	34.72	-39.7	-40.6	21.2	0.00e+00	0	40	0	2195718144	49	4060
2026-01-12 13:13:31.41	62.05	34.73	-39.7	-40.6	21.2	0.00e+00	0	40	0	2200961024	49	4062
2026-01-12 13:13:32.69	61.54	34.75	-39.9	-40.8	21.0	0.00e+00	0	40	0	2210398208	49	4181
2026-01-12 13:13:33.41	61.26	34.76	-39.9	-40.8	21.0	0.00e+00	0	40	0	2215641088	49	4184
2026-01-12 13:13:34.69	60.75	34.77	-40.0	-40.9	20.9	0.00e+00	0	40	0	2225078272	49	4224
2026-01-12 13:13:35.40	60.47	34.78	-40.0	-40.9	20.9	0.00e+00	0	40	0	2229272576	49	4241
2026-01-12 13:13:36.71	59.95	34.79	-39.8	-40.7	21.1	0.00e+00	0	40	0	2239758336	49	4138
2026-01-12 13:13:37.43	59.66	34.79	-39.9	-40.8	21.1	0.00e+00	0	40	0	2243952640	49	4157
2026-01-12 13:13:38.71	59.15	34.80	-39.8	-40.7	21.2	0.00e+00	0	40	0	2253389824	49	4108
2026-01-12 13:13:39.42	58.87	34.80	-39.9	-40.8	21.1	0.00e+00	0	40	0	2258632704	49	4150
2026-01-12 13:13:40.69	58.36	34.80	-39.8	-40.7	21.1	0.00e+00	0	40	0	2268069888	49	4126
2026-01-12 13:13:41.42	58.07	34.80	-39.9	-40.7	21.1	0.00e+00	0	40	0	2273312768	49	4144
2026-01-12 13:13:42.70	57.56	34.80	-39.9	-40.7	21.1	0.00e+00	0	40	0	2282749952	49	4137
2026-01-12 13:13:43.41	57.28	34.80	-39.8	-40.7	21.1	0.00e+00	0	40	0	2287992832	49	4134
2026-01-12 13:13:44.69	56.77	34.79	-39.8	-40.7	21.2	0.00e+00	0	40	0	2296381440	49	4121
2026-01-12 13:13:45.40	56.49	34.79	-39.9	-40.7	21.1	0.00e+00	0	40	0	2301624320	49	4142
2026-01-12 13:13:46.68	55.98	34.78	-39.7	-40.6	21.2	0.00e+00	0	40	0	2311061504	49	4060
2026-01-12 13:13:47.49	55.66	34.77	-39.7	-40.6	21.2	0.00e+00	0	40	0	2317352960	49	4060
2026-01-12 13:13:48.62	55.21	34.76	-39.7	-40.6	21.2	0.00e+00	0	40	0	2325741568	49	4080
2026-01-12 13:13:49.47	54.88	34.75	-39.8	-40.7	21.1	0.00e+00	0	40	0	2330984448	49	4129
2026-01-12 13:13:50.61	54.43	34.73	-39.9	-40.8	21.1	0.00e+00	0	40	0	2339373056	49	4172
2026-01-12 13:13:51.72	53.99	34.71	-39.9	-40.8	21.1	0.00e+00	0	40	0	2347761664	49	4164
2026-01-12 13:13:52.74	53.58	34.69	-39.8	-40.7	21.1	0.00e+00	0	40	0	2355101696	49	4129
2026-01-12 13:13:53.74	53.19	34.68	-39.7	-40.6	21.2	0.00e+00	0	40	0	2362441728	49	4074
2026-01-12 13:13:54.94	52.72	34.65	-39.7	-40.5	21.3	0.00e+00	0	40	0	2370830336	49	4040
2026-01-12 13:13:55.82	52.37	34.63	-39.6	-40.5	21.3	0.00e+00	0	40	0	2377121792	49	4020
2026-01-12 13:13:56.96	51.92	34.60	-39.7	-40.5	21.3	0.00e+00	0	40	0	2385510400	49	4051
2026-01-12 13:13:57.82	51.58	34.58	-39.7	-40.6	21.2	0.00e+00	0	40	0	2391801856	49	4085
2026-01-12 13:13:58.95	51.14	34.55	-39.9	-40.8	21.0	0.00e+00	0	40	0	2399141888	49	4168
2026-01-12 13:13:59.80	50.81	34.53	-39.8	-40.7	21.1	0.00e+00	0	40	0	2405433344	49	4125
2026-01-12 13:14:00.94	50.36	34.49	-39.8	-40.7	21.1	0.00e+00	0	40	0	2413821952	49	4118
2026-01-12 13:14:01.79	50.03	34.47	-39.6	-40.5	21.3	0.00e+00	0	40	0	2420113408	49	4017
2026-01-12 13:14:02.93	49.59	34.43	-39.5	-40.4	21.4	0.00e+00	0	40	0	2428502016	49	3963
2026-01-12 13:14:03.78	49.26	34.40	-39.6	-40.5	21.3	0.00e+00	0	40	0	2434793472	49	4009
2026-01-12 13:14:04.92	48.82	34.36	-39.7	-40.6	21.2	0.00e+00	0	40	0	2443182080	49	4069
2026-01-12 13:14:05.77	48.49	34.33	-39.8	-40.7	21.2	0.00e+00	0	40	0	2449473536	49	4121
2026-01-12 13:14:06.97	48.03	34.28	-39.9	-40.8	21.1	0.00e+00	0	40	0	2457862144	49	4163
2026-01-12 13:14:07.82	47.70	34.25	-40.0	-40.9	21.0	0.00e+00	0	40	0	2464153600	49	4196
2026-01-12 13:14:09.01	47.25	34.20	-39.9	-40.8	21.1	0.00e+00	0	40	0	2472542208	49	4164
2026-01-12 13:14:09.86	46.92	34.16	-39.9	-40.8	21.0	0.00e+00	0	40	0	2478833664	49	4172
2026-01-12 13:14:11.08	46.46	34.11	-39.9	-40.8	21.0	0.00e+00	0	40	0	2487222272	49	4186
2026-01-12 13:14:11.93	46.13	34.07	-39.9	-40.8	21.1	0.00e+00	0	40	0	2493513728	49	4152
2026-01-12 13:14:13.10	45.69	34.01	-39.9	-40.8	21.1	0.00e+00	0	40	0	2501902336	49	4151
2026-01-12 13:14:14.36	45.21	33.95	-39.9	-40.7	21.1	0.00e+00	0	40	0	2511339520	49	4141
2026-01-12 13:14:15.15	44.92	33.91	-40.0	-40.9	21.0	0.00e+00	0	40	0	2516582400	49	4218
2026-01-12 13:14:16.34	44.47	33.85	-40.1	-41.0	20.9	0.00e+00	0	40	0	2524971008	49	4248
2026-01-12 13:14:17.19	44.15	33.81	-39.9	-40.8	21.0	0.00e+00	0	40	0	2531262464	49	4172
2026-01-12 13:14:18.33	43.73	33.75	-39.9	-40.8	21.1	0.00e+00	0	40	0	2539651072	49	4167
2026-01-12 13:14:19.18	43.41	33.70	-39.8	-40.7	21.1	0.00e+00	0	40	0	2545942528	49	4128
2026-01-12 13:14:20.32	42.99	33.63	-39.9	-40.8	21.0	0.00e+00	0	40	0	2554331136	49	4168
2026-01-12 13:14:21.17	42.67	33.58	-39.9	-40.8	21.1	0.00e+00	0	40	0	2560622592	49	4147
2026-01-12 13:14:22.30	42.26	33.52	-39.9	-40.8	21.0	0.00e+00	0	40	0	2567962624	49	4172
2026-01-12 13:14:23.15	41.95	33.47	-40.0	-40.9	21.0	0.00e+00	0	40	0	2574254080	49	4196
2026-01-12 13:14:24.42	41.48	33.39	-40.0	-40.9	21.0	0.00e+00	0	40	0	2583691264	49	4197
2026-01-12 13:14:25.19	41.20	33.34	-39.9	-40.8	21.1	0.00e+00	0	40	0	2588934144	49	4162
2026-01-12 13:14:26.47	40.74	33.26	-39.7	-40.6	21.3	0.00e+00	0	40	0	2598371328	49	4055
2026-01-12 13:14:27.20	40.48	33.21	-39.7	-40.6	21.3	0.00e+00	0	40	0	2603614208	49	4064
2026-01-12 13:14:28.66	39.95	33.11	-39.7	-40.6	21.2	0.00e+00	0	40	0	2614099968	49	4068
2026-01-12 13:14:29.37	39.70	33.07	-39.9	-40.8	21.1	0.00e+00	0	40	0	2619342848	49	4146
2026-01-12 13:14:30.65	39.24	32.98	-39.9	-40.8	21.0	0.00e+00	0	40	0	2628780032	49	4193
2026-01-12 13:14:31.38	38.99	32.93	-40.0	-40.9	21.0	0.00e+00	0	40	0	2634022912	49	4208
2026-01-12 13:14:32.66	38.53	32.84	-40.0	-40.9	20.9	0.00e+00	0	40	0	2643460096	49	4222
2026-01-12 13:14:33.39	38.28	32.79	-39.9	-40.8	21.0	0.00e+00	0	40	0	2648702976	49	4173
2026-01-12 13:14:34.67	37.83	32.69	-39.8	-40.6	21.1	0.00e+00	0	40	0	2658140160	49	4096
2026-01-12 13:14:35.41	37.57	32.64	-39.7	-40.6	21.2	0.00e+00	0	40	0	2662334464	49	4071
2026-01-12 13:14:36.69	37.13	32.54	-39.7	-40.6	21.2	0.00e+00	0	40	0	2671771648	49	4075
2026-01-12 13:14:37.41	36.88	32.49	-39.6	-40.4	21.3	0.00e+00	0	40	0	2677014528	49	3998
2026-01-12 13:14:38.69	36.44	32.39	-39.6	-40.5	21.3	0.00e+00	0	40	0	2686451712	49	4032
2026-01-12 13:14:39.42	36.19	32.33	-39.6	-40.5	21.3	0.00e+00	0	40	0	2691694592	49	4037
2026-01-12 13:14:40.70	35.76	32.23	-39.4	-40.3	21.4	0.00e+00	0	40	0	2701131776	49	3933
2026-01-12 13:14:41.49	35.49	32.17	-39.5	-40.4	21.4	0.00e+00	0	40	0	2706374656	49	3965
2026-01-12 13:14:42.70	35.08	32.07	-39.6	-40.5	21.3	0.00e+00	0	40	0	2715811840	49	4008
2026-01-12 13:14:43.55	34.80	32.00	-39.7	-40.5	21.2	0.00e+00	0	40	0	2721054720	49	4044
2026-01-12 13:14:44.69	34.42	31.91	-39.7	-40.6	21.2	0.00e+00	0	40	0	2729443328	49	4075
2026-01-12 13:14:45.72	34.08	31.82	-39.9	-40.8	21.0	0.00e+00	0	40	0	2737831936	49	4158
2026-01-12 13:14:46.71	33.75	31.74	-40.0	-40.9	20.9	0.00e+00	0	40	0	2745171968	49	4236
2026-01-12 13:14:47.71	33.43	31.65	-40.1	-41.0	20.8	0.00e+00	0	40	0	2751463424	49	4286
2026-01-12 13:14:48.94	33.03	31.55	-40.2	-41.1	20.7	0.00e+00	0	40	0	2760900608	49	4323
2026-01-12 13:14:49.82	32.74	31.47	-40.1	-41.0	20.9	0.00e+00	0	40	0	2767192064	49	4273
2026-01-12 13:14:50.96	32.37	31.37	-40.1	-41.0	20.8	0.00e+00	0	40	0	2774532096	49	4289
2026-01-12 13:14:51.81	32.10	31.30	-40.1	-41.0	20.8	0.00e+00	0	40	0	2781872128	49	4275
2026-01-12 13:14:52.95	31.74	31.19	-40.1	-41.0	20.9	0.00e+00	0	40	0	2789212160	49	4263
2026-01-12 13:14:53.80	31.47	31.12	-40.0	-40.9	20.9	0.00e+00	0	40	0	2795503616	49	4228
2026-01-12 13:14:54.94	31.11	31.01	-40.0	-40.9	20.9	0.00e+00	0	40	0	2803892224	49	4231
2026-01-12 13:14:55.79	30.84	30.94	-40.0	-40.9	20.9	0.00e+00	0	40	0	2810183680	49	4205
2026-01-12 13:14:56.93	30.49	30.83	-40.2	-41.2	20.7	0.00e+00	0	40	0	2818572288	49	4349
2026-01-12 13:14:57.78	30.23	30.75	-40.2	-41.2	20.7	0.00e+00	0	40	0	2824863744	49	4343
2026-01-12 13:14:58.92	29.87	30.65	-40.4	-41.3	20.6	0.00e+00	0	40	0	2833252352	50	4174
2026-01-12 13:14:59.77	29.61	30.57	-40.5	-41.4	20.6	0.00e+00	0	40	0	2838495232	50	4208
2026-01-12 13:15:00.91	29.27	30.46	-40.5	-41.4	20.5	0.00e+00	0	40	0	2846883840	50	4218
2026-01-12 13:15:01.76	29.01	30.38	-40.4	-41.3	20.6	0.00e+00	0	40	0	2853175296	50	4172
2026-01-12 13:15:03.00	28.64	30.26	-40.3	-41.2	20.7	0.00e+00	0	40	0	2861563904	50	4108
2026-01-12 13:15:03.86	28.38	30.18	-40.2	-41.2	20.7	0.00e+00	0	40	0	2867855360	50	4106
2026-01-12 13:15:05.07	28.02	30.06	-40.2	-41.1	20.8	0.00e+00	0	40	0	2877292544	50	4066
2026-01-12 13:15:05.93	27.77	29.98	-40.2	-41.1	20.7	0.00e+00	0	40	0	2883584000	50	4075
2026-01-12 13:15:07.11	27.42	29.86	-40.1	-41.0	20.9	0.00e+00	0	40	0	2891972608	50	4030
2026-01-12 13:15:07.97	27.17	29.78	-40.1	-41.0	20.8	0.00e+00	0	40	0	2898264064	50	4049
2026-01-12 13:15:09.10	26.84	29.67	-40.1	-41.0	20.9	0.00e+00	0	40	0	2905604096	50	4031
2026-01-12 13:15:09.95	26.60	29.58	-40.1	-41.0	20.9	0.00e+00	0	40	0	2911895552	50	4042
2026-01-12 13:15:11.09	26.27	29.47	-40.2	-41.1	20.8	0.00e+00	0	40	0	2920284160	50	4077
2026-01-12 13:15:12.01	26.01	29.38	-40.2	-41.1	20.8	0.00e+00	0	40	0	2926575616	50	4063
2026-01-12 13:15:13.00	25.73	29.28	-40.3	-41.2	20.7	0.00e+00	0	40	0	2933915648	50	4107
2026-01-12 13:15:14.00	25.45	29.18	-40.3	-41.2	20.7	0.00e+00	0	40	0	2941255680	50	4116
2026-01-12 13:15:14.99	25.18	29.08	-40.3	-41.2	20.7	0.00e+00	0	40	0	2948595712	50	4122
2026-01-12 13:15:15.98	24.90	28.98	-40.3	-41.2	20.6	0.00e+00	0	40	0	2955935744	50	4137
2026-01-12 13:15:16.98	24.63	28.87	-40.1	-41.0	20.8	0.00e+00	0	40	0	2963275776	50	4024
2026-01-12 13:15:17.97	24.35	28.77	-40.0	-40.8	21.0	0.00e+00	0	40	0	2970615808	50	3956
2026-01-12 13:15:18.97	24.08	28.67	-39.8	-40.7	21.1	0.00e+00	0	40	0	2977955840	50	3885
2026-01-12 13:15:19.96	23.82	28.57	-39.9	-40.8	21.0	0.00e+00	0	40	0	2984247296	50	3943
2026-01-12 13:15:20.98	23.54	28.46	-40.0	-40.8	21.0	0.00e+00	0	40	0	2991587328	50	3957
2026-01-12 13:15:21.97	23.28	28.36	-40.1	-41.0	20.9	0.00e+00	0	40	0	2998927360	50	4017
2026-01-12 13:15:22.97	23.01	28.26	-40.3	-41.2	20.7	0.00e+00	0	40	0	3006267392	50	4120
2026-01-12 13:15:23.96	22.75	28.15	-40.3	-41.2	20.7	0.00e+00	0	40	0	3013607424	50	4109
2026-01-12 13:15:24.95	22.49	28.05	-40.3	-41.2	20.7	0.00e+00	0	40	0	3019898880	50	4111
2026-01-12 13:15:25.95	22.23	27.94	-40.3	-41.2	20.6	0.00e+00	0	40	0	3027238912	50	4128
2026-01-12 13:15:26.94	21.98	27.84	-40.2	-41.2	20.7	0.00e+00	0	40	0	3034578944	50	4100
2026-01-12 13:15:27.94	21.72	27.73	-40.2	-41.1	20.7	0.00e+00	0	40	0	3041918976	50	4082
2026-01-12 13:15:28.93	21.47	27.63	-40.2	-41.2	20.7	0.00e+00	0	40	0	3049259008	50	4102
2026-01-12 13:15:29.93	21.22	27.52	-40.3	-41.2	20.6	0.00e+00	0	40	0	3056599040	50	4137
2026-01-12 13:15:30.92	20.97	27.42	-40.4	-41.3	20.5	0.00e+00	0	40	0	3063939072	50	4184
2026-01-12 13:15:31.91	20.72	27.31	-40.4	-41.4	20.5	0.00e+00	0	40	0	3071279104	50	4203
2026-01-12 13:15:32.91	20.47	27.21	-40.4	-41.4	20.5	0.00e+00	0	40	0	3077570560	50	4206
2026-01-12 13:15:33.91	20.23	27.10	-40.4	-41.3	20.5	0.00e+00	0	40	0	3084910592	50	4166
2026-01-12 13:15:34.90	19.99	26.99	-40.4	-41.3	20.6	0.00e+00	0	40	0	3092250624	50	4176
2026-01-12 13:15:35.89	19.75	26.89	-40.4	-41.3	20.6	0.00e+00	0	40	0	3099590656	50	4172
2026-01-12 13:15:36.89	19.50	26.78	-40.2	-41.1	20.7	0.00e+00	0	40	0	3106930688	50	4090
2026-01-12 13:15:37.95	19.25	26.67	-40.3	-41.2	20.6	0.00e+00	0	40	0	3114270720	50	4144
2026-01-12 13:15:38.84	19.04	26.57	-40.4	-41.3	20.6	0.00e+00	0	40	0	3120562176	50	4164
2026-01-12 13:15:39.97	18.77	26.45	-40.4	-41.3	20.6	0.00e+00	0	40	0	3128950784	50	4175
2026-01-12 13:15:40.83	18.57	26.36	-40.4	-41.3	20.6	0.00e+00	0	40	0	3135242240	50	4173
2026-01-12 13:15:41.97	18.30	26.24	-40.4	-41.3	20.6	0.00e+00	0	40	0	3143630848	50	4181
2026-01-12 13:15:42.82	18.11	26.15	-40.5	-41.4	20.5	0.00e+00	0	40	0	3149922304	50	4224
2026-01-12 13:15:43.96	17.84	26.02	-40.5	-41.4	20.5	0.00e+00	0	40	0	3157262336	50	4221
2026-01-12 13:15:44.81	17.65	25.93	-40.5	-41.4	20.5	0.00e+00	0	40	0	3163553792	50	4217
2026-01-12 13:15:45.95	17.39	25.81	-40.6	-41.5	20.4	0.00e+00	0	40	0	3171942400	50	4268
2026-01-12 13:15:46.80	17.20	25.72	-40.6	-41.5	20.3	0.00e+00	0	40	0	3178233856	50	4288
2026-01-12 13:15:47.93	16.95	25.59	-40.6	-41.5	20.4	0.00e+00	0	40	0	3186622464	50	4279
2026-01-12 13:15:48.79	16.76	25.50	-40.6	-41.6	20.3	0.00e+00	0	40	0	3192913920	50	4300
2026-01-12 13:15:49.93	16.50	25.38	-40.6	-41.5	20.3	0.00e+00	0	40	0	3201302528	50	4277
2026-01-12 13:15:50.78	16.32	25.29	-40.5	-41.4	20.4	0.00e+00	0	40	0	3206545408	50	4233
2026-01-12 13:15:51.92	16.07	25.16	-40.4	-41.3	20.5	0.00e+00	0	40	0	3214934016	50	4164
2026-01-12 13:15:52.77	15.89	25.07	-40.4	-41.3	20.5	0.00e+00	0	40	0	3221225472	50	4158
2026-01-12 13:15:53.91	15.64	24.95	-40.3	-41.2	20.7	0.00e+00	0	40	0	3229614080	50	4123
2026-01-12 13:15:54.78	15.46	24.85	-40.3	-41.2	20.7	0.00e+00	0	40	0	3235905536	50	4127
2026-01-12 13:15:56.12	15.17	24.71	-40.5	-41.4	20.5	0.00e+00	0	40	0	3245342720	50	4224
2026-01-12 13:15:56.83	15.02	24.63	-40.5	-41.5	20.4	0.00e+00	0	40	0	3250585600	50	4257
2026-01-12 13:15:58.11	14.76	24.49	-40.6	-41.6	20.3	0.00e+00	0	40	0	3260022784	50	4296
2026-01-12 13:15:59.30	14.51	24.36	-40.7	-41.6	20.3	0.00e+00	0	40	0	3268411392	50	4324
2026-01-12 13:16:00.15	14.34	24.27	-40.7	-41.7	20.2	0.00e+00	0	40	0	3274702848	50	4342
2026-01-12 13:16:01.30	14.10	24.15	-40.7	-41.6	20.2	0.00e+00	0	40	0	3283091456	50	4339
2026-01-12 13:16:02.15	13.93	24.06	-40.7	-41.6	20.2	0.00e+00	0	40	0	3289382912	50	4324
2026-01-12 13:16:03.29	13.70	23.93	-40.6	-41.6	20.3	0.00e+00	0	40	0	3297771520	50	4314
2026-01-12 13:16:04.14	13.53	23.84	-40.7	-41.6	20.2	0.00e+00	0	40	0	3303014400	50	4339
2026-01-12 13:16:05.27	13.31	23.72	-40.8	-41.8	20.1	0.00e+00	0	40	0	3311403008	51	4153
2026-01-12 13:16:06.12	13.14	23.63	-40.8	-41.7	20.2	0.00e+00	0	40	0	3317694464	51	4131
2026-01-12 13:16:07.26	12.92	23.51	-40.8	-41.7	20.1	0.00e+00	0	40	0	3326083072	51	4144
2026-01-12 13:16:08.19	12.74	23.41	-40.8	-41.8	20.1	0.00e+00	0	40	0	3332374528	51	4146
2026-01-12 13:16:09.36	12.51	23.28	-40.8	-41.7	20.1	0.00e+00	0	40	0	3340763136	51	4125
2026-01-12 13:16:10.25	12.34	23.19	-40.8	-41.7	20.2	0.00e+00	0	40	0	3347054592	51	4124
2026-01-12 13:16:11.38	12.13	23.07	-40.7	-41.6	20.2	0.00e+00	0	40	0	3355443200	51	4090
2026-01-12 13:16:12.30	11.95	22.97	-40.7	-41.6	20.2	0.00e+00	0	40	0	3361734656	51	4097
2026-01-12 13:16:13.46	11.73	22.84	-40.7	-41.6	20.2	0.00e+00	0	40	0	3371171840	51	4095
2026-01-12 13:16:14.35	11.57	22.75	-40.7	-41.6	20.3	0.00e+00	0	40	0	3377463296	51	4079
2026-01-12 13:16:15.49	11.36	22.63	-40.7	-41.6	20.2	0.00e+00	0	40	0	3384803328	51	4096
2026-01-12 13:16:16.34	11.20	22.54	-40.8	-41.8	20.1	0.00e+00	0	40	0	3391094784	51	4150
2026-01-12 13:16:17.71	10.95	22.39	-40.9	-41.8	20.1	0.00e+00	0	40	0	3401580544	51	4170
2026-01-12 13:16:18.42	10.83	22.31	-40.9	-41.9	20.0	0.00e+00	0	40	0	3406823424	51	4199
2026-01-12 13:16:19.71	10.59	22.18	-41.0	-41.9	19.9	0.00e+00	0	40	0	3415212032	51	4238
2026-01-12 13:16:20.43	10.47	22.10	-41.0	-41.9	20.0	0.00e+00	0	40	0	3421503488	51	4232
2026-01-12 13:16:21.71	10.24	21.97	-40.9	-41.8	20.0	0.00e+00	0	40	0	3429892096	51	4192
2026-01-12 13:16:22.42	10.11	21.89	-40.8	-41.8	20.0	0.00e+00	0	40	0	3435134976	51	4154
2026-01-12 13:16:23.70	9.89	21.76	-41.0	-41.9	19.9	0.00e+00	0	40	0	3444572160	51	4228
2026-01-12 13:16:24.41	9.77	21.68	-41.0	-41.9	19.9	0.00e+00	0	40	0	3449815040	51	4236
2026-01-12 13:16:25.69	9.55	21.55	-41.0	-41.9	19.9	0.00e+00	0	40	0	3459252224	51	4238
2026-01-12 13:16:26.53	9.40	21.46	-40.9	-41.9	20.0	0.00e+00	0	40	0	3465543680	51	4222
2026-01-12 13:16:27.66	9.21	21.34	-41.2	-42.2	19.7	0.00e+00	0	40	0	3472883712	51	4345
2026-01-12 13:16:28.52	9.07	21.25	-41.2	-42.2	19.6	0.00e+00	0	40	0	3479175168	51	4379
2026-01-12 13:16:29.65	8.88	21.13	-41.3	-42.2	19.5	0.00e+00	0	40	0	3487563776	52	4143
2026-01-12 13:16:30.51	8.74	21.04	-41.4	-42.4	19.5	0.00e+00	0	40	0	3493855232	52	4199
2026-01-12 13:16:31.65	8.55	20.92	-41.4	-42.4	19.4	0.00e+00	0	40	0	3502243840	52	4215
2026-01-12 13:16:32.50	8.41	20.83	-41.3	-42.3	19.5	0.00e+00	0	40	0	3508535296	52	4188
2026-01-12 13:16:33.64	8.22	20.72	-41.3	-42.3	19.5	0.00e+00	0	40	0	3515875328	52	4183
2026-01-12 13:16:34.49	8.08	20.63	-41.3	-42.3	19.5	0.00e+00	0	40	0	3522166784	52	4149
2026-01-12 13:16:35.69	7.89	20.50	-41.2	-42.2	19.6	0.00e+00	0	40	0	3531603968	52	4120
2026-01-12 13:16:36.54	7.76	20.42	-41.2	-42.2	19.6	0.00e+00	0	40	0	3536846848	52	4121
2026-01-12 13:16:37.68	7.58	20.30	-41.1	-42.1	19.7	0.00e+00	0	40	0	3545235456	52	4073
2026-01-12 13:16:38.53	7.44	20.21	-41.0	-42.1	19.7	0.00e+00	0	40	0	3551526912	52	4079
2026-01-12 13:16:39.67	7.26	20.09	-41.0	-42.1	19.7	0.00e+00	0	40	0	3559915520	52	4076
2026-01-12 13:16:40.52	7.13	20.01	-41.1	-42.2	19.7	0.00e+00	0	40	0	3566206976	52	4104
2026-01-12 13:16:41.66	6.96	19.89	-41.2	-42.3	19.5	0.00e+00	0	40	0	3574595584	52	4171
2026-01-12 13:16:42.51	6.83	19.80	-41.2	-42.3	19.6	0.00e+00	0	40	0	3580887040	52	4155
2026-01-12 13:16:43.65	6.65	19.69	-41.4	-42.5	19.4	0.00e+00	0	40	0	3588227072	52	4250
2026-01-12 13:16:44.50	6.52	19.60	-41.4	-42.5	19.4	0.00e+00	0	40	0	3594518528	52	4260
2026-01-12 13:16:45.64	6.35	19.49	-41.6	-42.7	19.2	0.00e+00	0	40	0	3602907136	52	4344
2026-01-12 13:16:46.49	6.23	19.40	-41.7	-42.8	19.1	0.00e+00	0	40	0	3609198592	52	4395
2026-01-12 13:16:47.63	6.06	19.28	-41.7	-42.8	19.1	0.00e+00	0	40	0	3617587200	52	4417
2026-01-12 13:16:48.83	5.88	19.16	-41.8	-42.9	19.0	0.00e+00	0	40	0	3625975808	53	4209
2026-01-12 13:16:49.84	5.74	19.06	-41.8	-43.0	18.9	0.00e+00	0	40	0	3633315840	53	4251
2026-01-12 13:16:50.99	5.57	18.95	-41.7	-42.8	19.0	0.00e+00	0	40	0	3641704448	53	4159
2026-01-12 13:16:51.84	5.45	18.86	-41.6	-42.7	19.1	0.00e+00	0	40	0	3647995904	53	4127
2026-01-12 13:16:52.98	5.28	18.75	-41.7	-42.8	19.0	0.00e+00	0	40	0	3656384512	53	4170
2026-01-12 13:16:53.83	5.16	18.66	-41.6	-42.6	19.2	0.00e+00	0	40	0	3661627392	53	4085
2026-01-12 13:16:54.97	5.00	18.55	-41.5	-42.6	19.2	0.00e+00	0	40	0	3670016000	53	4066
2026-01-12 13:16:55.82	4.88	18.46	-41.5	-42.5	19.3	0.00e+00	0	40	0	3676307456	53	4031
2026-01-12 13:16:56.96	4.73	18.35	-41.5	-42.6	19.3	0.00e+00	0	40	0	3684696064	53	4062
2026-01-12 13:16:57.81	4.61	18.27	-41.6	-42.7	19.2	0.00e+00	0	40	0	3690987520	53	4107
2026-01-12 13:16:58.95	4.45	18.15	-41.7	-42.8	19.1	0.00e+00	0	40	0	3699376128	53	4154
2026-01-12 13:16:59.80	4.34	18.07	-41.8	-42.8	19.0	0.00e+00	0	40	0	3704619008	53	4192
2026-01-12 13:17:01.05	4.17	17.95	-41.9	-43.0	18.8	0.00e+00	0	40	0	3714056192	53	4265
2026-01-12 13:17:01.90	4.05	17.87	-42.0	-43.1	18.7	0.00e+00	0	40	0	3720347648	53	4292
2026-01-12 13:17:03.10	3.89	17.75	-42.1	-43.2	18.7	0.00e+00	0	40	0	3728736256	53	4346
2026-01-12 13:17:03.95	3.78	17.67	-42.1	-43.2	18.6	0.00e+00	0	40	0	3735027712	53	4365
2026-01-12 13:17:05.09	3.63	17.55	-42.0	-43.1	18.7	0.00e+00	0	41	0	3743416320	53	4319
2026-01-12 13:17:05.94	3.52	17.47	-42.1	-43.2	18.7	0.00e+00	0	40	0	3749707776	53	4341
2026-01-12 13:17:07.08	3.37	17.36	-42.0	-43.0	18.8	0.00e+00	0	40	0	3758096384	53	4277
2026-01-12 13:17:07.94	3.26	17.28	-41.9	-43.0	18.8	0.00e+00	0	40	0	3764387840	53	4277
2026-01-12 13:17:09.07	3.11	17.17	-42.0	-43.1	18.7	0.00e+00	0	40	0	3771727872	53	4307
2026-01-12 13:17:09.93	3.00	17.09	-42.1	-43.2	18.6	0.00e+00	0	40	0	3778019328	53	4356
2026-01-12 13:17:11.06	2.86	16.98	-41.9	-43.0	18.8	0.00e+00	0	40	0	3786407936	53	4267
2026-01-12 13:17:11.91	2.75	16.90	-41.9	-43.1	18.8	0.00e+00	0	40	0	3792699392	53	4299
2026-01-12 13:17:13.05	2.61	16.79	-42.0	-43.2	18.6	0.00e+00	0	40	0	3801088000	53	4367
2026-01-12 13:17:13.90	2.51	16.71	-41.9	-43.1	18.8	0.00e+00	0	40	0	3807379456	53	4297
2026-01-12 13:17:15.04	2.37	16.60	-42.1	-43.2	18.6	0.00e+00	0	41	0	3814719488	53	4364
2026-01-12 13:17:15.89	2.26	16.52	-41.9	-43.0	18.8	0.00e+00	0	40	0	3821010944	53	4270
2026-01-12 13:17:17.11	2.11	16.40	-41.9	-43.1	18.8	0.00e+00	0	40	0	3830448128	53	4292
2026-01-12 13:17:17.96	2.01	16.32	-41.8	-42.9	18.9	0.00e+00	0	40	0	3835691008	53	4211
2026-01-12 13:17:19.09	1.87	16.22	-41.8	-42.9	18.9	0.00e+00	0	40	0	3844079616	53	4213
2026-01-12 13:17:19.95	1.77	16.14	-41.8	-42.9	18.9	0.00e+00	0	40	0	3850371072	53	4230
2026-01-12 13:17:21.09	1.64	16.03	-41.8	-42.9	18.8	0.00e+00	0	40	0	3858759680	53	4240
2026-01-12 13:17:21.94	1.54	15.95	-41.9	-43.0	18.7	0.00e+00	0	40	0	3865051136	53	4291
2026-01-12 13:17:23.08	1.40	15.84	-42.0	-43.1	18.7	0.00e+00	0	40	0	3873439744	53	4325
2026-01-12 13:17:24.01	1.29	15.76	-42.0	-43.2	18.6	0.00e+00	0	40	0	3879731200	53	4364
2026-01-12 13:17:25.00	1.18	15.67	-42.2	-43.4	18.4	0.00e+00	0	40	0	3887071232	53	4446
2026-01-12 13:17:26.00	1.07	15.57	-42.2	-43.4	18.4	0.00e+00	0	41	0	3894411264	53	4448
2026-01-12 13:17:26.99	0.95	15.48	-42.3	-43.4	18.4	0.00e+00	0	40	0	3901751296	54	4235
2026-01-12 13:17:27.97	0.84	15.39	-42.5	-43.7	18.1	0.00e+00	0	40	0	3909091328	54	4363
2026-01-12 13:17:28.97	0.73	15.30	-42.5	-43.7	18.1	0.00e+00	0	41	0	3915382784	54	4352
2026-01-12 13:17:29.96	0.62	15.21	-42.5	-43.7	18.1	0.00e+00	0	40	0	3922722816	54	4356
2026-01-12 13:17:30.96	0.51	15.12	-42.6	-43.7	18.1	0.00e+00	0	40	0	3930062848	54	4360
2026-01-12 13:17:31.95	0.40	15.03	-42.7	-43.9	18.0	0.00e+00	0	40	0	3937402880	54	4448
2026-01-12 13:17:32.96	0.29	14.94	-42.6	-43.8	18.0	0.00e+00	0	40	0	3944742912	54	4421
2026-01-12 13:17:33.96	0.18	14.85	-42.7	-43.9	18.0	0.00e+00	0	40	0	3952082944	54	4457
2026-01-12 13:17:34.95	0.07	14.76	-42.7	-43.9	17.9	0.00e+00	0	40	0	3959422976	54	4467
2026-01-12 13:17:35.95	359.96	14.67	-42.7	-43.9	17.9	0.00e+00	0	40	0	3966763008	54	4482
2026-01-12 13:17:36.94	359.85	14.58	-42.6	-43.8	18.0	0.00e+00	0	40	0	3973054464	54	4436
2026-01-12 13:17:37.94	359.75	14.49	-42.6	-43.9	18.0	0.00e+00	0	40	0	3980394496	54	4446
2026-01-12 13:17:38.93	359.64	14.40	-42.7	-43.9	17.9	0.00e+00	0	40	0	3987734528	54	4487
2026-01-12 13:17:39.93	359.54	14.31	-42.8	-44.0	17.8	0.00e+00	0	40	0	3995074560	55	4277
2026-01-12 13:17:40.92	359.43	14.22	-42.9	-44.0	17.8	0.00e+00	0	41	0	4002414592	55	4289
2026-01-12 13:17:41.92	359.33	14.13	-42.9	-44.1	17.8	0.00e+00	0	40	0	4009754624	55	4296
2026-01-12 13:17:42.91	359.23	14.05	-42.9	-44.1	17.7	0.00e+00	0	40	0	4016046080	55	4327
2026-01-12 13:17:43.90	359.13	13.96	-42.9	-44.1	17.8	0.00e+00	0	40	0	4023386112	55	4300
2026-01-12 13:17:44.90	359.02	13.87	-43.0	-44.2	17.7	0.00e+00	0	40	0	4030726144	55	4346
2026-01-12 13:17:45.90	358.92	13.78	-42.9	-44.0	17.8	0.00e+00	0	40	0	4038066176	55	4288
2026-01-12 13:17:46.89	358.82	13.70	-42.9	-44.0	17.7	0.00e+00	0	40	0	4045406208	55	4291
2026-01-12 13:17:47.96	358.71	13.60	-42.8	-44.0	17.8	0.00e+00	0	41	0	4052746240	55	4260
2026-01-12 13:17:48.82	358.63	13.53	-42.9	-44.1	17.7	0.00e+00	0	40	0	4059037696	55	4299
2026-01-12 13:17:49.95	358.52	13.43	-42.9	-44.0	17.8	0.00e+00	0	40	0	4067426304	55	4276
2026-01-12 13:17:50.80	358.43	13.36	-42.7	-43.8	18.0	0.00e+00	0	40	0	4073717760	55	4183
2026-01-12 13:17:51.94	358.32	13.26	-42.7	-43.9	17.9	0.00e+00	0	40	0	4082106368	55	4211
2026-01-12 13:17:52.80	358.24	13.18	-42.8	-43.9	17.8	0.00e+00	0	40	0	4088397824	55	4221
2026-01-12 13:17:53.93	358.13	13.09	-42.7	-43.9	17.9	0.00e+00	0	40	0	4095737856	55	4213
2026-01-12 13:17:54.78	358.05	13.01	-42.7	-43.8	17.9	0.00e+00	0	40	0	4102029312	55	4192
2026-01-12 13:17:55.92	357.94	12.92	-42.8	-44.0	17.8	0.00e+00	0	40	0	4110417920	55	4252
2026-01-12 13:17:56.77	357.86	12.84	-42.7	-43.9	17.9	0.00e+00	0	40	0	4116709376	55	4224
2026-01-12 13:17:57.91	357.75	12.75	-42.8	-44.1	17.7	0.00e+00	0	40	0	4125097984	55	4327
2026-01-12 13:17:58.77	357.67	12.67	-42.8	-44.2	17.6	0.00e+00	0	40	0	4131389440	55	4345
2026-01-12 13:17:59.90	357.56	12.58	-42.8	-44.2	17.6	0.00e+00	0	40	0	4139778048	55	4374
2026-01-12 13:18:00.76	357.48	12.51	-42.9	-44.3	17.5	0.00e+00	0	40	0	4145020928	55	4422
2026-01-12 13:18:01.99	357.37	12.40	-43.0	-44.5	17.3	0.00e+00	0	40	0	4154458112	55	4494
2026-01-12 13:18:02.84	357.29	12.33	-43.0	-44.6	17.2	0.00e+00	0	41	0	4159700992	55	4562
2026-01-12 13:18:03.98	357.19	12.23	-43.1	-44.7	17.1	0.00e+00	0	41	0	4168089600	55	4622
2026-01-12 13:18:04.83	357.11	12.16	-43.2	-44.8	17.0	0.00e+00	0	40	0	4174381056	55	4683
2026-01-12 13:18:05.97	357.01	12.07	-43.2	-45.0	16.8	0.00e+00	0	40	0	4182769664	55	4762
2026-01-12 13:18:06.82	356.93	12.00	-43.4	-45.3	16.7	0.00e+00	0	41	0	4189061120	56	4682
2026-01-12 13:18:07.96	356.83	11.90	-43.4	-45.4	16.6	0.00e+00	0	40	0	4197449728	56	4724
2026-01-12 13:18:08.81	356.76	11.83	-43.4	-45.5	16.5	0.00e+00	0	41	0	4203741184	56	4769
2026-01-12 13:18:09.94	356.66	11.74	-43.3	-45.4	16.6	0.00e+00	0	40	0	4212129792	56	4727
2026-01-12 13:18:10.80	356.58	11.67	-43.4	-45.5	16.5	0.00e+00	0	40	0	4218421248	56	4773
2026-01-12 13:18:11.93	356.48	11.58	-43.5	-45.5	16.4	0.00e+00	0	40	0	4225761280	56	4802
2026-01-12 13:18:12.79	356.41	11.51	-43.4	-45.5	16.4	0.00e+00	0	41	0	4232052736	56	4785
2026-01-12 13:18:13.93	356.31	11.41	-43.4	-45.4	16.5	0.00e+00	0	41	0	4240441344	56	4724
2026-01-12 13:18:14.78	356.24	11.34	-43.5	-45.3	16.7	0.00e+00	0	41	0	4246732800	56	4667
2026-01-12 13:18:15.91	356.14	11.25	-43.7	-45.4	16.6	0.00e+00	0	41	0	4255121408	56	4715
2026-01-12 13:18:16.77	356.07	11.18	-43.7	-45.4	16.6	0.00e+00	0	40	0	4261412864	56	4719
2026-01-12 13:18:17.91	355.98	11.09	-43.7	-45.2	16.7	0.00e+00	0	41	0	4268752896	57	4370
2026-01-12 13:18:18.76	355.91	11.02	-43.7	-45.3	16.7	0.00e+00	0	41	0	4275044352	57	4400
2026-01-12 13:18:19.90	355.81	10.93	-43.6	-45.1	16.8	0.00e+00	0	40	0	4283432960	57	4340
2026-01-12 13:18:20.75	355.74	10.86	-43.6	-45.1	16.8	0.00e+00	0	40	0	4289724416	57	4327
2026-01-12 13:18:21.89	355.65	10.77	-43.6	-45.2	16.7	0.00e+00	0	40	0	4298113024	57	4346
2026-01-12 13:18:22.74	355.58	10.70	-43.5	-45.1	16.8	0.00e+00	0	41	0	4303355904	57	4333
2026-01-12 13:18:23.88	355.49	10.61	-43.4	-45.1	16.8	0.00e+00	0	41	0	4311744512	57	4304
2026-01-12 13:18:24.73	355.42	10.54	-43.5	-45.2	16.7	0.00e+00	0	40	0	4318035968	57	4367
2026-01-12 13:18:25.86	355.33	10.45	-43.5	-45.2	16.7	0.00e+00	0	40	0	4326424576	57	4376
2026-01-12 13:18:26.71	355.26	10.39	-43.4	-45.1	16.8	0.00e+00	0	40	0	4332716032	57	4330
2026-01-12 13:18:27.87	355.17	10.29	-43.5	-45.2	16.7	0.00e+00	0	40	0	4341104640	57	4376
2026-01-12 13:18:28.72	355.10	10.23	-43.4	-45.1	16.8	0.00e+00	0	41	0	4347396096	57	4293
2026-01-12 13:18:29.92	355.01	10.13	-43.5	-45.2	16.6	0.00e+00	0	40	0	4355784704	57	4385
2026-01-12 13:18:30.77	354.94	10.07	-43.4	-45.3	16.6	0.00e+00	0	41	0	4362076160	57	4393
2026-01-12 13:18:31.97	354.85	9.97	-43.4	-45.3	16.6	0.00e+00	0	40	0	4370464768	57	4393
2026-01-12 13:18:32.82	354.78	9.91	-43.3	-45.1	16.8	0.00e+00	0	40	0	4376756224	57	4320
2026-01-12 13:18:34.01	354.69	9.81	-43.4	-45.3	16.6	0.00e+00	0	41	0	4385144832	57	4392
2026-01-12 13:18:34.86	354.62	9.75	-43.3	-45.2	16.7	0.00e+00	0	41	0	4391436288	57	4376
2026-01-12 13:18:36.09	354.53	9.65	-43.3	-45.3	16.6	0.00e+00	0	40	0	4399824896	57	4409
2026-01-12 13:18:36.94	354.47	9.59	-43.3	-45.3	16.5	0.00e+00	0	40	0	4406116352	57	4424
2026-01-12 13:18:38.14	354.38	9.49	-43.5	-45.4	16.4	0.00e+00	0	41	0	4415553536	57	4476
2026-01-12 13:18:39.00	354.31	9.43	-43.4	-45.4	16.5	0.00e+00	0	41	0	4421844992	57	4454
2026-01-12 13:18:40.13	354.23	9.34	-43.7	-45.8	16.1	0.00e+00	0	40	0	4429185024	57	4658
2026-01-12 13:18:40.99	354.17	9.28	-43.7	-45.6	16.2	0.00e+00	0	40	0	4435476480	57	4589
2026-01-12 13:18:42.12	354.08	9.19	-43.8	-45.7	16.1	0.00e+00	0	40	0	4443865088	57	4649
2026-01-12 13:18:43.04	354.02	9.12	-44.0	-45.9	16.0	0.00e+00	0	41	0	4450156544	57	4720
2026-01-12 13:18:44.03	353.95	9.05	-44.1	-45.9	15.9	0.00e+00	0	41	0	4457496576	57	4734
2026-01-12 13:18:45.02	353.87	8.97	-50.2	-62.3	3.8	4.13e-01	0	41	104	4463788032	69	15695
2026-01-12 13:18:46.02	353.80	8.90	-51.0	-63.0	3.8	8.46e-01	0	40	104	4463788032	71	15138
2026-01-12 13:18:47.01	353.73	8.82	-51.7	-63.3	3.8	8.47e-01	0	41	104	4463788032	73	13978
2026-01-12 13:18:48.00	353.66	8.75	-52.2	-63.4	3.8	8.46e-01	0	41	104	4463788032	74	13336
2026-01-12 13:18:49.00	353.59	8.67	-52.7	-63.6	3.8	8.47e-01	0	41	104	4463788032	74	13697
2026-01-12 13:18:49.99	353.52	8.60	-52.0	-63.6	3.8	8.47e-01	0	41	104	4463788032	74	13660
2026-01-12 13:18:50.98	353.45	8.52	-52.7	-63.6	3.8	8.47e-01	0	41	104	4463788032	74	13714
2026-01-12 13:18:51.98	353.38	8.45	-52.8	-63.7	3.8	8.47e-01	0	41	104	4463788032	75	12986
2026-01-12 13:18:52.97	353.31	8.38	-52.9	-63.7	3.8	8.47e-01	0	41	104	4463788032	75	13065
2026-01-12 13:18:53.96	353.25	8.30	-52.7	-63.8	3.8	8.47e-01	0	41	104	4463788032	75	13114
2026-01-12 13:18:54.96	353.18	8.23	-52.9	-63.8	3.8	8.47e-01	0	41	104	4463788032	75	13207
2026-01-12 13:18:55.95	353.11	8.16	-53.0	-63.7	3.8	8.48e-01	0	41	104	4463788032	75	13081
2026-01-12 13:18:56.94	353.04	8.08	-52.7	-63.8	3.8	8.46e-01	0	41	104	4463788032	75	13201
2026-01-12 13:18:57.94	352.98	8.01	-53.1	-63.8	3.8	8.47e-01	0	41	104	4463788032	75	13201
2026-01-12 13:18:58.93	352.91	7.94	-52.9	-63.8	3.8	8.46e-01	0	41	104	4463788032	75	13190
2026-01-12 13:18:59.92	352.85	7.87	-52.9	-63.8	3.8	8.47e-01	0	41	104	4463788032	75	13139
2026-01-12 13:19:00.91	352.78	7.79	-53.1	-63.8	3.8	8.46e-01	0	41	104	4463788032	75	13195
2026-01-12 13:19:01.91	352.71	7.72	-53.0	-63.9	3.8	8.47e-01	0	41	104	4463788032	75	13317
2026-01-12 13:19:02.90	352.65	7.65	-52.9	-63.9	3.8	8.47e-01	0	41	104	4463788032	75	13289
2026-01-12 13:19:03.90	352.58	7.58	-53.0	-63.8	3.8	8.47e-01	0	41	104	4463788032	75	13182
2026-01-12 13:19:04.89	352.52	7.50	-52.8	-63.9	3.8	8.48e-01	0	41	104	4463788032	75	13263
2026-01-12 13:19:05.88	352.46	7.43	-52.9	-63.8	3.8	8.47e-01	0	41	104	4463788032	75	13214
2026-01-12 13:19:06.88	352.39	7.36	-53.0	-63.9	3.8	8.47e-01	0	41	104	4463788032	75	13298
2026-01-12 13:19:07.87	352.33	7.29	-53.1	-63.8	3.8	8.46e-01	0	41	104	4463788032	75	13258
2026-01-12 13:19:08.86	352.27	7.22	-53.1	-63.8	3.8	8.46e-01	0	41	104	4463788032	75	13171
2026-01-12 13:19:09.86	352.20	7.15	-53.1	-63.9	3.8	8.46e-01	0	41	104	4463788032	75	13279
2026-01-12 13:19:10.85	352.14	7.08	-53.0	-63.8	3.8	8.47e-01	0	41	104	4463788032	75	13256
2026-01-12 13:19:11.84	352.08	7.01	-53.1	-63.8	3.8	8.46e-01	0	41	104	4463788032	75	13155
2026-01-12 13:19:12.83	352.02	6.94	-53.0	-63.8	3.8	8.46e-01	0	41	104	4463788032	75	13157
2026-01-12 13:19:13.83	351.96	6.87	-52.9	-63.8	3.8	8.47e-01	0	41	104	4463788032	75	13193
