passes_logs/2026/01/12/T1/T1__20260112_102204_SUOMI_NPP_rec.log

#Pass ID: 20260112_102204_SUOMI NPP
#Satellite: SUOMI NPP
#Configuration: NPP
#almurnet v.1.7.20251203
#Start time: 2026-01-12 10:22:04

#Version: 2.0.20230620
#Station: T1
#Location: 37.570604 lon 55.790049 lat
#TLE: 1 37849U 11061A   26011.93213985  .00000107  00000+0  71660-4 0  9991
#TLE: 2 37849  98.7807 314.0072 0002512  68.9429 291.2016 14.19524668736279

#Time	Az	El	Level	Level2	SNR	BER	BlckErr	Temp	State	Recorded	gain1	gain2
2026-01-12 10:22:04.28	171.81	4.97	-51.1	-66.7	3.8	1.49e+00	0	41	0	0	74	20828
2026-01-12 10:22:05.27	171.83	5.04	-49.0	-66.2	3.8	1.49e+00	0	41	104	0	68	27970
2026-01-12 10:22:06.27	171.85	5.11	-49.4	-66.1	3.8	1.49e+00	0	41	104	0	69	25935
2026-01-12 10:22:07.27	171.87	5.18	-49.4	-65.9	3.8	1.49e+00	0	41	104	0	69	25551
2026-01-12 10:22:08.26	171.89	5.25	-49.4	-65.9	3.8	1.49e+00	0	41	104	0	69	25349
2026-01-12 10:22:09.26	171.92	5.33	-49.3	-65.8	3.8	1.49e+00	0	41	104	0	69	25047
2026-01-12 10:22:10.26	171.94	5.40	-49.4	-65.6	3.8	1.49e+00	0	41	104	0	69	24429
2026-01-12 10:22:11.25	171.96	5.47	-49.3	-65.5	3.8	1.49e+00	0	41	104	0	69	24291
2026-01-12 10:22:12.25	171.98	5.54	-49.4	-65.2	3.8	1.49e+00	0	41	104	0	69	23435
2026-01-12 10:22:13.25	172.01	5.61	-49.3	-65.0	3.8	1.49e+00	0	41	104	0	69	22973
2026-01-12 10:22:14.24	172.03	5.69	-49.3	-64.9	3.8	1.49e+00	0	41	104	0	69	22694
2026-01-12 10:22:15.24	172.05	5.76	-49.4	-64.6	3.8	1.49e+00	0	41	104	0	69	21896
2026-01-12 10:22:16.23	172.08	5.83	-49.4	-64.6	3.8	1.49e+00	0	42	104	0	69	21826
2026-01-12 10:22:17.23	172.10	5.91	-49.4	-64.6	3.8	1.49e+00	0	42	104	0	69	21797
2026-01-12 10:22:18.23	172.12	5.98	-49.4	-64.6	3.8	1.49e+00	0	42	104	0	69	21920
2026-01-12 10:22:19.22	172.14	6.05	-49.4	-64.7	3.8	1.49e+00	0	41	104	0	69	22208
2026-01-12 10:22:20.22	172.17	6.13	-49.4	-64.8	3.8	1.49e+00	0	41	104	0	69	22347
2026-01-12 10:22:21.22	172.19	6.20	-49.4	-65.0	3.8	1.49e+00	0	42	104	0	69	22932
2026-01-12 10:22:22.22	172.22	6.28	-49.5	-65.2	3.8	1.49e+00	0	42	104	0	69	23501
2026-01-12 10:22:23.21	172.24	6.35	-49.4	-65.6	3.8	1.49e+00	0	42	104	0	69	24490
2026-01-12 10:22:24.21	172.26	6.42	-49.5	-65.8	3.8	1.49e+00	0	42	104	0	69	25029
2026-01-12 10:22:25.21	172.29	6.50	-49.6	-66.0	3.8	1.49e+00	0	42	104	0	69	25630
2026-01-12 10:22:26.20	172.31	6.57	-49.5	-66.1	3.8	1.49e+00	0	42	104	0	69	25895
2026-01-12 10:22:27.20	172.33	6.65	-49.5	-66.0	3.8	1.49e+00	0	42	104	0	69	25761
2026-01-12 10:22:28.19	172.36	6.72	-49.6	-65.9	3.8	1.49e+00	0	42	104	0	69	25395
2026-01-12 10:22:29.19	172.38	6.80	-49.6	-65.4	3.8	1.49e+00	0	42	104	0	69	24050
2026-01-12 10:22:30.19	172.41	6.88	-49.5	-64.9	3.8	1.49e+00	0	42	104	0	69	22628
2026-01-12 10:22:31.18	172.43	6.95	-49.4	-64.1	3.8	1.49e+00	0	42	104	0	69	20706
2026-01-12 10:22:32.18	172.46	7.03	-49.3	-62.9	4.2	1.47e+00	0	42	0	0	69	18011
2026-01-12 10:22:33.18	172.48	7.11	-49.3	-61.8	4.5	1.12e+00	0	42	0	0	69	15908
2026-01-12 10:22:34.17	172.51	7.18	-49.2	-60.5	5.2	7.74e-01	0	42	0	2097152	69	13722
2026-01-12 10:22:35.17	172.53	7.26	-49.1	-59.3	6.0	4.58e-01	0	42	0	4194304	69	11883
2026-01-12 10:22:36.16	172.56	7.34	-48.9	-58.1	7.0	2.69e-01	0	42	0	6291456	69	10313
2026-01-12 10:22:37.16	172.58	7.41	-48.7	-57.0	8.0	9.98e-02	0	42	0	8388608	69	9173
2026-01-12 10:22:38.15	172.61	7.49	-48.4	-56.1	9.0	3.91e-02	0	42	0	9437184	68	8740
2026-01-12 10:22:39.15	172.63	7.57	-48.2	-55.2	9.9	1.89e-02	0	42	0	11534336	68	7894
2026-01-12 10:22:40.15	172.66	7.65	-48.1	-54.4	10.7	3.22e-03	0	42	0	13631488	68	7202
2026-01-12 10:22:41.14	172.68	7.73	-47.7	-53.7	11.4	1.96e-03	0	42	0	15728640	67	6976
2026-01-12 10:22:42.14	172.71	7.81	-47.4	-53.0	12.0	5.91e-04	0	42	0	16777216	66	6846
2026-01-12 10:22:43.13	172.74	7.88	-47.2	-52.7	12.4	2.50e-04	0	42	0	18874368	66	6622
2026-01-12 10:22:44.13	172.76	7.96	-47.2	-52.5	12.6	1.36e-04	0	42	0	20971520	66	6457
2026-01-12 10:22:45.13	172.79	8.04	-47.2	-52.5	12.6	1.05e-04	0	42	0	23068672	66	6428
2026-01-12 10:22:46.12	172.81	8.12	-47.2	-52.4	12.7	1.11e-04	0	42	0	25165824	66	6394
2026-01-12 10:22:47.12	172.84	8.20	-47.5	-53.1	12.0	9.30e-05	0	42	0	26214400	66	6941
2026-01-12 10:22:48.12	172.87	8.28	-47.7	-53.3	11.8	3.68e-04	0	42	0	28311552	66	7111
2026-01-12 10:22:49.11	172.89	8.36	-47.8	-53.8	11.3	7.48e-04	0	42	0	30408704	66	7489
2026-01-12 10:22:50.11	172.92	8.44	-48.2	-54.8	10.3	2.03e-03	0	42	0	32505856	66	8420
2026-01-12 10:22:51.10	172.95	8.52	-48.4	-55.9	9.2	1.55e-02	0	43	0	33554432	67	9035
2026-01-12 10:22:52.10	172.98	8.61	-48.7	-57.0	8.1	3.87e-02	0	42	0	35651584	67	10229
2026-01-12 10:22:53.09	173.00	8.69	-49.1	-58.8	6.6	1.33e-01	0	43	0	37748736	68	11921
2026-01-12 10:22:54.09	173.03	8.77	-49.4	-60.8	5.1	5.06e-01	0	43	0	39845888	69	14120
2026-01-12 10:22:55.08	173.06	8.85	-49.6	-62.6	4.3	9.90e-01	0	43	0	41943040	69	17475
2026-01-12 10:22:56.08	173.09	8.93	-49.7	-64.6	3.9	1.46e+00	0	43	104	41943040	70	20684
2026-01-12 10:22:57.07	173.11	9.02	-49.7	-66.0	3.8	1.49e+00	0	42	104	41943040	70	24387
2026-01-12 10:22:58.08	173.14	9.10	-49.7	-66.3	3.8	1.49e+00	0	42	104	41943040	70	25200
2026-01-12 10:22:59.08	173.17	9.18	-49.8	-65.5	3.8	1.49e+00	0	43	104	41943040	70	22820
2026-01-12 10:23:00.08	173.20	9.27	-48.9	-65.6	3.8	1.49e+00	0	43	104	41943040	69	24566
2026-01-12 10:23:01.08	173.23	9.35	-47.4	-54.5	10.7	1.38e+00	0	43	0	41943040	66	8169
2026-01-12 10:23:02.08	173.26	9.43	-49.4	-65.6	3.8	1.49e+00	0	43	104	42991616	69	24656
2026-01-12 10:23:03.08	173.28	9.52	-47.7	-55.0	10.1	1.47e+00	0	43	104	42991616	67	8128
2026-01-12 10:23:04.09	173.31	9.60	-47.6	-53.8	11.6	1.02e-03	0	43	0	44040192	66	7495
2026-01-12 10:23:05.09	173.34	9.69	-47.6	-53.4	12.0	9.83e-04	0	43	0	46137344	66	7180
2026-01-12 10:23:06.09	173.37	9.78	-47.7	-53.4	11.9	6.24e-04	0	43	0	48234496	66	7186
2026-01-12 10:23:07.09	173.40	9.86	-47.8	-53.6	11.8	4.51e-04	0	43	0	50331648	66	7302
2026-01-12 10:23:08.09	173.43	9.95	-48.1	-53.7	11.7	2.91e-04	0	43	0	51380224	66	7388
2026-01-12 10:23:09.09	173.46	10.03	-48.0	-53.2	12.1	2.55e-04	0	43	0	53477376	67	6646
2026-01-12 10:23:10.09	173.49	10.12	-48.0	-53.2	12.3	3.36e-04	0	43	0	55574528	67	6576
2026-01-12 10:23:11.09	173.52	10.21	-48.1	-53.2	12.2	1.69e-04	0	43	0	57671680	67	6575
2026-01-12 10:23:12.09	173.55	10.29	-48.1	-53.1	12.4	6.63e-05	0	43	0	58720256	67	6534
2026-01-12 10:23:13.09	173.58	10.38	-47.7	-52.3	13.2	1.90e-05	0	43	0	60817408	67	5967
2026-01-12 10:23:14.09	173.61	10.47	-47.8	-52.4	13.1	2.98e-03	0	43	0	62914560	67	5996
2026-01-12 10:23:15.09	173.64	10.56	-47.4	-51.7	13.8	6.80e-06	0	43	0	65011712	66	5872
2026-01-12 10:23:16.10	173.67	10.65	-47.0	-51.2	14.3	7.00e-07	0	43	0	67108864	66	5559
2026-01-12 10:23:17.10	173.71	10.73	-46.8	-50.9	14.6	5.44e-03	0	43	0	68157440	65	5660
2026-01-12 10:23:18.10	173.74	10.82	-46.7	-50.7	14.8	0.00e+00	0	43	0	70254592	65	5572
2026-01-12 10:23:19.10	173.77	10.91	-46.7	-50.8	14.6	0.00e+00	0	43	0	72351744	65	5647
2026-01-12 10:23:20.10	173.80	11.00	-46.6	-50.7	14.8	0.00e+00	0	43	0	74448896	65	5570
2026-01-12 10:23:21.10	173.83	11.09	-46.5	-50.6	14.9	0.00e+00	0	43	0	76546048	64	5843
2026-01-12 10:23:22.11	173.86	11.18	-46.4	-50.6	14.9	0.00e+00	0	43	0	77594624	64	5794
2026-01-12 10:23:23.10	173.90	11.27	-46.4	-50.4	15.1	0.00e+00	0	43	0	79691776	64	5683
2026-01-12 10:23:24.10	173.93	11.36	-46.4	-50.5	15.0	0.00e+00	0	43	0	81788928	64	5785
2026-01-12 10:23:25.11	173.96	11.46	-46.3	-50.3	15.2	0.00e+00	0	43	0	83886080	64	5616
2026-01-12 10:23:26.11	173.99	11.55	-46.3	-50.3	15.2	0.00e+00	0	43	0	85983232	64	5626
2026-01-12 10:23:27.11	174.03	11.64	-46.4	-50.4	15.0	0.00e+00	0	43	0	87031808	64	5692
2026-01-12 10:23:28.11	174.06	11.73	-46.4	-50.4	15.1	0.00e+00	0	43	0	89128960	64	5681
2026-01-12 10:23:29.10	174.09	11.82	-46.5	-50.3	15.2	0.00e+00	0	43	0	91226112	64	5636
2026-01-12 10:23:30.11	174.13	11.92	-46.6	-50.4	15.2	0.00e+00	0	43	0	93323264	64	5664
2026-01-12 10:23:31.11	174.16	12.01	-46.6	-50.2	15.3	0.00e+00	0	43	0	94371840	64	5565
2026-01-12 10:23:32.11	174.19	12.11	-46.6	-50.3	15.3	0.00e+00	0	43	0	96468992	64	5595
2026-01-12 10:23:33.11	174.23	12.20	-46.7	-50.3	15.3	0.00e+00	0	43	0	98566144	64	5614
2026-01-12 10:23:34.11	174.26	12.29	-46.6	-50.0	15.6	0.00e+00	0	43	0	100663296	64	5425
2026-01-12 10:23:35.11	174.30	12.39	-46.7	-50.1	15.4	0.00e+00	0	43	0	102760448	64	5484
2026-01-12 10:23:36.12	174.33	12.48	-46.7	-50.0	15.5	0.00e+00	0	43	0	103809024	64	5461
2026-01-12 10:23:37.12	174.37	12.58	-46.7	-50.0	15.6	0.00e+00	0	43	0	105906176	64	5425
2026-01-12 10:23:38.12	174.40	12.68	-46.7	-50.0	15.6	0.00e+00	0	43	0	108003328	64	5433
2026-01-12 10:23:39.12	174.44	12.77	-46.7	-50.0	15.5	0.00e+00	0	43	0	110100480	64	5442
2026-01-12 10:23:40.12	174.47	12.87	-46.6	-49.9	15.7	0.00e+00	0	43	0	112197632	64	5371
2026-01-12 10:23:41.12	174.51	12.97	-46.7	-50.0	15.6	0.00e+00	0	43	0	113246208	64	5415
2026-01-12 10:23:42.12	174.54	13.06	-46.7	-50.0	15.5	0.00e+00	0	43	0	115343360	64	5448
2026-01-12 10:23:43.12	174.58	13.16	-46.6	-49.9	15.7	0.00e+00	0	43	0	117440512	64	5343
2026-01-12 10:23:44.12	174.62	13.26	-46.5	-49.8	15.7	0.00e+00	0	43	0	119537664	64	5314
2026-01-12 10:23:45.12	174.65	13.36	-46.6	-49.9	15.7	0.00e+00	0	43	0	120586240	64	5356
2026-01-12 10:23:46.12	174.69	13.46	-46.6	-49.9	15.7	2.08e-04	0	43	0	122683392	64	5368
2026-01-12 10:23:47.12	174.73	13.56	-46.4	-49.6	16.0	0.00e+00	0	43	0	124780544	64	5217
2026-01-12 10:23:48.12	174.76	13.66	-46.4	-49.7	15.9	0.00e+00	0	43	0	126877696	64	5228
2026-01-12 10:23:49.12	174.80	13.76	-46.4	-49.7	15.8	0.00e+00	0	43	0	128974848	64	5272
2026-01-12 10:23:50.12	174.84	13.86	-46.4	-49.7	15.9	0.00e+00	0	43	0	130023424	64	5221
2026-01-12 10:23:51.11	174.88	13.96	-46.3	-49.5	16.1	0.00e+00	0	43	0	132120576	64	5137
2026-01-12 10:23:52.12	174.92	14.06	-46.3	-49.5	16.0	7.00e-07	0	43	0	134217728	64	5146
2026-01-12 10:23:53.11	174.95	14.16	-46.3	-49.4	16.1	0.00e+00	0	43	0	136314880	64	5091
2026-01-12 10:23:54.12	174.99	14.26	-46.4	-49.5	16.1	0.00e+00	0	43	0	138412032	64	5156
2026-01-12 10:23:55.12	175.03	14.37	-46.4	-49.6	16.0	0.00e+00	0	43	0	139460608	64	5189
2026-01-12 10:23:56.12	175.07	14.47	-46.5	-49.6	16.0	0.00e+00	0	43	0	141557760	64	5201
2026-01-12 10:23:57.13	175.11	14.57	-46.5	-49.7	16.0	0.00e+00	0	43	0	143654912	64	5226
2026-01-12 10:23:58.12	175.15	14.68	-46.5	-49.7	15.9	0.00e+00	0	43	0	145752064	64	5251
2026-01-12 10:23:59.12	175.19	14.78	-46.5	-49.6	16.0	0.00e+00	0	43	0	147849216	64	5206
2026-01-12 10:24:00.13	175.23	14.89	-46.4	-49.5	16.1	0.00e+00	0	43	0	148897792	64	5135
2026-01-12 10:24:01.12	175.27	14.99	-46.6	-49.8	15.8	0.00e+00	0	43	0	150994944	64	5308
2026-01-12 10:24:02.12	175.31	15.10	-46.6	-49.8	15.8	0.00e+00	0	43	0	153092096	64	5314
2026-01-12 10:24:03.13	175.35	15.20	-46.5	-49.7	16.0	0.00e+00	0	43	0	155189248	64	5224
2026-01-12 10:24:04.13	175.39	15.31	-46.7	-49.9	15.7	0.00e+00	0	43	0	156237824	64	5352
2026-01-12 10:24:05.13	175.44	15.42	-46.7	-49.9	15.7	0.00e+00	0	43	0	158334976	64	5377
2026-01-12 10:24:06.13	175.48	15.52	-46.9	-50.1	15.5	0.00e+00	0	43	0	160432128	64	5498
2026-01-12 10:24:07.13	175.52	15.63	-46.9	-50.1	15.5	0.00e+00	0	43	0	162529280	64	5481
2026-01-12 10:24:08.13	175.56	15.74	-47.0	-50.2	15.4	0.00e+00	0	43	0	164626432	64	5578
2026-01-12 10:24:09.14	175.60	15.85	-46.8	-49.9	15.7	0.00e+00	0	43	0	165675008	64	5395
2026-01-12 10:24:10.13	175.65	15.96	-46.8	-49.9	15.7	0.00e+00	0	44	0	167772160	64	5386
2026-01-12 10:24:11.13	175.69	16.07	-46.9	-50.2	15.5	0.00e+00	0	43	0	169869312	64	5534
2026-01-12 10:24:12.14	175.73	16.18	-46.9	-50.2	15.4	0.00e+00	0	43	0	171966464	64	5589
2026-01-12 10:24:13.13	175.78	16.29	-46.9	-50.2	15.5	0.00e+00	0	43	0	174063616	64	5534
2026-01-12 10:24:14.13	175.82	16.40	-46.9	-50.2	15.4	0.00e+00	0	43	0	175112192	64	5588
2026-01-12 10:24:15.14	175.87	16.51	-47.1	-50.4	15.2	0.00e+00	0	43	0	177209344	64	5715
2026-01-12 10:24:16.14	175.91	16.63	-47.1	-50.5	15.1	0.00e+00	0	43	0	179306496	65	5456
2026-01-12 10:24:17.14	175.96	16.74	-47.1	-50.5	15.1	7.00e-07	0	43	0	181403648	65	5428
2026-01-12 10:24:18.14	176.00	16.85	-47.1	-50.5	15.2	0.00e+00	0	43	0	183500800	65	5420
2026-01-12 10:24:19.14	176.05	16.97	-47.2	-50.6	15.0	0.00e+00	0	43	0	184549376	65	5521
2026-01-12 10:24:20.14	176.09	17.08	-47.4	-50.9	14.8	0.00e+00	0	43	0	186646528	65	5702
2026-01-12 10:24:21.15	176.14	17.20	-47.5	-51.0	14.7	0.00e+00	0	43	0	188743680	65	5738
2026-01-12 10:24:22.15	176.19	17.31	-47.4	-50.9	14.9	0.00e+00	0	43	0	190840832	65	5668
2026-01-12 10:24:23.15	176.23	17.43	-47.6	-51.1	14.7	1.50e-06	0	43	0	192937984	65	5795
2026-01-12 10:24:24.16	176.28	17.54	-47.7	-51.3	14.5	0.00e+00	0	43	0	193986560	66	5593
2026-01-12 10:24:25.16	176.33	17.66	-47.7	-51.3	14.4	1.50e-06	0	43	0	196083712	66	5642
2026-01-12 10:24:26.16	176.38	17.78	-47.8	-51.4	14.4	7.00e-07	0	43	0	198180864	66	5694
2026-01-12 10:24:27.17	176.43	17.90	-47.7	-51.3	14.5	0.00e+00	0	43	0	200278016	66	5594
2026-01-12 10:24:28.17	176.48	18.02	-47.7	-51.3	14.4	1.50e-06	0	43	0	201326592	66	5653
2026-01-12 10:24:29.17	176.53	18.14	-47.8	-51.5	14.3	0.00e+00	0	43	0	203423744	66	5748
2026-01-12 10:24:30.17	176.57	18.26	-47.7	-51.2	14.5	7.00e-07	0	43	0	205520896	66	5589
2026-01-12 10:24:31.17	176.62	18.38	-47.8	-51.4	14.3	1.50e-06	0	43	0	207618048	66	5693
2026-01-12 10:24:32.18	176.68	18.50	-47.8	-51.3	14.4	7.00e-07	0	43	0	209715200	66	5647
2026-01-12 10:24:33.18	176.73	18.62	-47.9	-51.5	14.2	0.00e+00	0	43	0	210763776	66	5780
2026-01-12 10:24:34.18	176.78	18.74	-47.9	-51.5	14.3	0.00e+00	0	43	0	212860928	66	5778
2026-01-12 10:24:35.17	176.83	18.86	-47.8	-51.3	14.5	0.00e+00	0	43	0	214958080	66	5635
2026-01-12 10:24:36.18	176.88	18.99	-47.8	-51.4	14.3	7.00e-07	0	43	0	217055232	66	5700
2026-01-12 10:24:37.18	176.93	19.11	-47.9	-51.5	14.3	0.00e+00	0	43	0	219152384	66	5759
2026-01-12 10:24:38.18	176.98	19.24	-47.8	-51.4	14.4	7.00e-07	0	43	0	220200960	66	5680
2026-01-12 10:24:39.18	177.04	19.36	-47.8	-51.4	14.4	0.00e+00	0	43	0	222298112	66	5681
2026-01-12 10:24:40.18	177.09	19.49	-47.7	-51.2	14.6	0.00e+00	0	43	0	224395264	66	5573
2026-01-12 10:24:41.18	177.15	19.61	-47.6	-51.1	14.7	7.00e-07	0	44	0	226492416	66	5478
2026-01-12 10:24:42.18	177.20	19.74	-47.7	-51.3	14.5	0.00e+00	0	43	0	228589568	66	5615
2026-01-12 10:24:43.18	177.25	19.87	-47.7	-51.2	14.6	7.00e-07	0	43	0	229638144	66	5578
2026-01-12 10:24:44.18	177.31	20.00	-47.6	-51.1	14.7	7.00e-07	0	43	0	231735296	66	5468
2026-01-12 10:24:45.18	177.36	20.13	-47.6	-51.0	14.8	7.00e-07	0	43	0	233832448	66	5458
2026-01-12 10:24:46.19	177.42	20.26	-47.5	-51.0	14.8	0.00e+00	0	43	0	235929600	66	5428
2026-01-12 10:24:47.19	177.48	20.39	-47.5	-51.0	14.8	0.00e+00	0	43	0	238026752	66	5435
2026-01-12 10:24:48.19	177.53	20.52	-47.5	-50.9	14.9	0.00e+00	0	43	0	239075328	66	5391
2026-01-12 10:24:49.19	177.59	20.65	-47.7	-51.4	14.5	7.00e-07	0	43	0	241172480	66	5696
2026-01-12 10:24:50.19	177.65	20.78	-47.7	-51.4	14.5	0.00e+00	0	43	0	243269632	66	5659
2026-01-12 10:24:51.19	177.71	20.91	-47.7	-51.4	14.4	7.00e-07	0	44	0	245366784	66	5700
2026-01-12 10:24:52.19	177.77	21.05	-47.7	-51.4	14.4	7.00e-07	0	43	0	246415360	66	5676
2026-01-12 10:24:53.19	177.83	21.18	-47.7	-51.4	14.5	1.50e-06	0	43	0	248512512	66	5662
2026-01-12 10:24:54.19	177.89	21.32	-47.9	-51.7	14.2	3.00e-06	0	43	0	250609664	66	5898
2026-01-12 10:24:55.20	177.95	21.45	-48.0	-52.0	14.0	2.20e-06	0	43	0	252706816	66	6071
2026-01-12 10:24:56.20	178.01	21.59	-47.9	-51.6	14.2	1.50e-06	0	44	0	254803968	66	5842
2026-01-12 10:24:57.20	178.07	21.73	-47.8	-51.6	14.3	3.80e-06	0	44	0	255852544	66	5802
2026-01-12 10:24:58.20	178.13	21.86	-47.7	-51.4	14.5	1.50e-06	0	43	0	257949696	66	5688
2026-01-12 10:24:59.20	178.19	22.00	-47.6	-51.2	14.6	7.00e-07	0	43	0	260046848	66	5573
2026-01-12 10:25:00.21	178.26	22.14	-47.7	-51.4	14.4	0.00e+00	0	44	0	262144000	66	5719
2026-01-12 10:25:01.21	178.32	22.28	-47.6	-51.2	14.6	0.00e+00	0	43	0	264241152	66	5591
2026-01-12 10:25:02.21	178.38	22.42	-47.4	-50.9	15.0	0.00e+00	0	43	0	265289728	66	5343
2026-01-12 10:25:03.21	178.45	22.56	-47.4	-51.0	14.9	0.00e+00	0	44	0	267386880	66	5408
2026-01-12 10:25:04.22	178.51	22.71	-47.4	-50.9	14.9	0.00e+00	0	43	0	269484032	66	5363
2026-01-12 10:25:05.22	178.58	22.85	-47.3	-50.7	15.1	0.00e+00	0	43	0	271581184	66	5261
2026-01-12 10:25:06.22	178.64	22.99	-47.0	-50.3	15.5	0.00e+00	0	44	0	273678336	66	5001
2026-01-12 10:25:07.22	178.71	23.14	-47.2	-50.5	15.3	0.00e+00	0	43	0	274726912	66	5146
2026-01-12 10:25:08.22	178.78	23.28	-47.2	-50.4	15.4	0.00e+00	0	43	0	276824064	66	5098
2026-01-12 10:25:09.23	178.85	23.43	-47.1	-50.3	15.5	0.00e+00	0	44	0	278921216	65	5325
2026-01-12 10:25:10.23	178.92	23.58	-46.9	-49.9	15.9	0.00e+00	0	43	0	281018368	65	5076
2026-01-12 10:25:11.23	178.99	23.73	-46.8	-49.8	16.0	0.00e+00	0	43	0	282066944	65	5009
2026-01-12 10:25:12.23	179.05	23.87	-46.6	-49.6	16.2	0.00e+00	0	44	0	284164096	65	4889
2026-01-12 10:25:13.23	179.13	24.02	-46.6	-49.5	16.2	0.00e+00	0	44	0	286261248	65	4866
2026-01-12 10:25:14.23	179.20	24.17	-46.8	-49.7	16.1	0.00e+00	0	43	0	288358400	65	4970
2026-01-12 10:25:15.23	179.27	24.32	-46.5	-49.3	16.4	0.00e+00	0	43	0	290455552	65	4758
2026-01-12 10:25:16.23	179.34	24.48	-46.4	-49.2	16.6	0.00e+00	0	44	0	291504128	64	4974
2026-01-12 10:25:17.23	179.41	24.63	-46.5	-49.3	16.4	0.00e+00	0	43	0	293601280	64	5026
2026-01-12 10:25:18.23	179.49	24.78	-46.4	-49.2	16.6	0.00e+00	0	43	0	295698432	64	4952
2026-01-12 10:25:19.23	179.56	24.94	-46.6	-49.4	16.3	0.00e+00	0	44	0	297795584	64	5100
2026-01-12 10:25:20.23	179.64	25.09	-46.5	-49.4	16.4	0.00e+00	0	43	0	299892736	64	5070
2026-01-12 10:25:21.23	179.71	25.25	-46.5	-49.4	16.4	0.00e+00	0	43	0	300941312	64	5084
2026-01-12 10:25:22.23	179.79	25.40	-46.5	-49.4	16.2	0.00e+00	0	44	0	303038464	64	5074
2026-01-12 10:25:23.23	179.87	25.56	-46.5	-49.3	16.5	0.00e+00	0	44	0	305135616	64	5035
2026-01-12 10:25:24.23	179.94	25.72	-46.4	-49.3	16.4	0.00e+00	0	44	0	307232768	64	5017
2026-01-12 10:25:25.23	180.02	25.88	-46.3	-49.1	16.6	0.00e+00	0	44	0	309329920	64	4917
2026-01-12 10:25:26.23	180.10	26.04	-46.6	-49.5	16.3	0.00e+00	0	44	0	310378496	64	5128
2026-01-12 10:25:27.24	180.18	26.20	-46.5	-49.4	16.5	0.00e+00	0	43	0	312475648	64	5063
2026-01-12 10:25:28.24	180.26	26.36	-46.4	-49.2	16.5	0.00e+00	0	44	0	314572800	64	4981
2026-01-12 10:25:29.24	180.35	26.53	-46.8	-49.8	16.0	0.00e+00	0	43	0	316669952	64	5310
2026-01-12 10:25:30.24	180.43	26.69	-46.7	-49.6	16.1	0.00e+00	0	43	0	318767104	64	5215
2026-01-12 10:25:31.24	180.51	26.86	-46.9	-49.9	15.9	0.00e+00	0	44	0	319815680	64	5361
2026-01-12 10:25:32.24	180.60	27.02	-47.0	-50.1	15.7	0.00e+00	0	43	0	321912832	64	5477
2026-01-12 10:25:33.24	180.68	27.19	-46.8	-49.8	16.0	0.00e+00	0	43	0	324009984	64	5336
2026-01-12 10:25:34.25	180.77	27.36	-46.7	-49.7	16.2	0.00e+00	0	44	0	326107136	64	5260
2026-01-12 10:25:35.25	180.86	27.53	-46.8	-49.8	16.1	0.00e+00	0	44	0	327155712	64	5283
2026-01-12 10:25:36.25	180.94	27.70	-46.8	-49.8	16.0	0.00e+00	0	44	0	329252864	64	5301
2026-01-12 10:25:37.25	181.03	27.87	-46.7	-49.6	16.2	0.00e+00	0	44	0	331350016	64	5205
2026-01-12 10:25:38.25	181.12	28.04	-46.7	-49.7	16.1	0.00e+00	0	44	0	333447168	64	5242
2026-01-12 10:25:39.26	181.21	28.21	-46.7	-49.7	16.1	0.00e+00	0	44	0	335544320	64	5257
2026-01-12 10:25:40.26	181.30	28.39	-46.5	-49.4	16.4	0.00e+00	0	44	0	336592896	64	5090
2026-01-12 10:25:41.26	181.40	28.56	-46.7	-49.6	16.2	0.00e+00	0	44	0	338690048	64	5189
2026-01-12 10:25:42.27	181.49	28.74	-46.5	-49.4	16.4	0.00e+00	0	44	0	340787200	64	5093
2026-01-12 10:25:43.27	181.59	28.92	-46.6	-49.5	16.3	0.00e+00	0	44	0	342884352	64	5135
2026-01-12 10:25:44.27	181.68	29.10	-46.4	-49.2	16.6	0.00e+00	0	43	0	344981504	64	4953
2026-01-12 10:25:45.27	181.78	29.27	-46.4	-49.3	16.6	0.00e+00	0	44	0	346030080	64	5004
2026-01-12 10:25:46.28	181.88	29.46	-46.6	-49.6	16.3	0.00e+00	0	44	0	348127232	64	5173
2026-01-12 10:25:47.28	181.97	29.64	-46.5	-49.3	16.5	0.00e+00	0	43	0	350224384	64	5040
2026-01-12 10:25:48.28	182.07	29.82	-46.6	-49.5	16.4	0.00e+00	0	44	0	352321536	64	5117
2026-01-12 10:25:49.28	182.18	30.00	-46.4	-49.2	16.7	0.00e+00	0	44	0	353370112	64	4941
2026-01-12 10:25:50.28	182.28	30.19	-46.8	-49.7	16.2	0.00e+00	0	44	0	355467264	64	5247
2026-01-12 10:25:51.29	182.38	30.38	-47.1	-50.2	15.7	0.00e+00	0	44	0	357564416	64	5548
2026-01-12 10:25:52.29	182.49	30.56	-47.2	-50.2	15.6	0.00e+00	0	43	0	359661568	65	5267
2026-01-12 10:25:53.29	182.59	30.75	-47.7	-51.0	14.9	0.00e+00	0	43	0	361758720	66	5457
2026-01-12 10:25:54.29	182.70	30.94	-47.8	-51.3	14.7	0.00e+00	0	43	0	363855872	66	5613
2026-01-12 10:25:55.29	182.80	31.13	-48.1	-51.7	14.4	7.00e-07	0	44	0	364904448	66	5891
2026-01-12 10:25:56.29	182.91	31.32	-48.3	-51.9	14.0	7.00e-07	0	44	0	367001600	67	5721
2026-01-12 10:25:57.30	183.03	31.51	-48.4	-52.2	13.8	7.00e-07	0	43	0	369098752	67	5880
2026-01-12 10:25:58.30	183.14	31.71	-48.4	-52.3	13.6	6.10e-06	0	44	0	371195904	67	5945
2026-01-12 10:25:59.30	183.25	31.90	-48.3	-52.0	13.9	5.30e-06	0	43	0	372244480	67	5788
2026-01-12 10:26:00.30	183.36	32.10	-48.7	-52.6	13.5	4.50e-06	0	44	0	374341632	68	5839
2026-01-12 10:26:01.31	183.48	32.30	-48.4	-52.0	14.1	5.30e-06	0	43	0	376438784	68	5445
2026-01-12 10:26:02.31	183.60	32.49	-48.5	-52.2	13.9	2.20e-06	0	43	0	378535936	68	5584
2026-01-12 10:26:03.31	183.72	32.69	-48.6	-52.4	13.7	2.05e-05	0	44	0	380633088	68	5687
2026-01-12 10:26:04.32	183.84	32.90	-48.7	-52.5	13.6	9.90e-06	0	43	0	381681664	68	5765
2026-01-12 10:26:05.31	183.96	33.10	-48.8	-52.7	13.4	6.10e-06	0	43	0	383778816	68	5882
2026-01-12 10:26:06.32	184.08	33.30	-48.5	-52.1	14.0	7.60e-06	0	43	0	385875968	68	5514
2026-01-12 10:26:07.32	184.20	33.50	-48.6	-52.3	13.8	1.50e-06	0	43	0	387973120	68	5650
2026-01-12 10:26:08.32	184.33	33.71	-48.8	-52.8	13.4	3.00e-06	0	43	0	390070272	68	5945
2026-01-12 10:26:09.32	184.46	33.92	-48.8	-52.7	13.5	8.30e-06	0	43	0	391118848	68	5906
2026-01-12 10:26:10.32	184.59	34.12	-48.9	-52.9	13.3	2.05e-05	0	44	0	393216000	68	6022
2026-01-12 10:26:11.32	184.72	34.33	-48.8	-52.8	13.4	1.06e-05	0	44	0	395313152	68	5930
2026-01-12 10:26:12.32	184.85	34.54	-48.9	-52.8	13.3	1.29e-05	0	44	0	397410304	68	5964
2026-01-12 10:26:13.32	184.98	34.76	-48.4	-52.1	14.1	3.80e-06	0	44	0	398458880	68	5471
2026-01-12 10:26:14.32	185.12	34.97	-48.4	-52.0	14.1	2.20e-06	0	44	0	400556032	68	5445
2026-01-12 10:26:15.32	185.25	35.18	-48.3	-52.0	14.2	2.20e-06	0	44	0	402653184	68	5421
2026-01-12 10:26:16.33	185.39	35.40	-48.5	-52.2	14.0	1.50e-06	0	44	0	404750336	68	5532
2026-01-12 10:26:17.33	185.53	35.62	-48.4	-52.1	14.0	3.80e-06	0	43	0	406847488	68	5514
2026-01-12 10:26:18.33	185.68	35.83	-48.5	-52.2	13.9	1.50e-06	0	43	0	407896064	68	5579
2026-01-12 10:26:19.33	185.82	36.05	-48.7	-52.6	13.6	5.30e-06	0	43	0	409993216	68	5801
2026-01-12 10:26:20.33	185.97	36.27	-48.6	-52.4	13.8	3.00e-06	0	44	0	412090368	68	5693
2026-01-12 10:26:21.33	186.12	36.50	-48.8	-52.7	13.5	1.06e-05	0	44	0	414187520	68	5894
2026-01-12 10:26:22.33	186.27	36.72	-48.8	-52.7	13.4	3.00e-06	0	43	0	416284672	68	5922
2026-01-12 10:26:23.34	186.42	36.95	-48.7	-52.6	13.5	3.80e-06	0	44	0	417333248	68	5831
2026-01-12 10:26:24.34	186.57	37.17	-49.1	-53.3	12.9	2.74e-05	0	44	0	419430400	68	6279
2026-01-12 10:26:25.34	186.73	37.40	-48.9	-52.8	13.3	2.82e-05	0	44	0	421527552	68	5982
2026-01-12 10:26:26.34	186.89	37.63	-49.3	-53.7	12.5	9.38e-05	0	44	0	423624704	69	6237
2026-01-12 10:26:27.34	187.05	37.86	-49.5	-54.1	12.1	1.60e-04	0	44	0	425721856	69	6516
2026-01-12 10:26:28.35	187.21	38.09	-49.7	-54.5	11.8	7.54e-04	0	44	0	426770432	70	6448
2026-01-12 10:26:29.34	187.38	38.32	-49.4	-53.8	12.3	4.98e-04	0	44	0	428867584	70	5979
2026-01-12 10:26:30.35	187.55	38.56	-49.3	-53.7	12.5	1.75e-04	0	44	0	430964736	70	5891
2026-01-12 10:26:31.35	187.72	38.79	-49.2	-53.4	12.8	8.54e-05	0	44	0	433061888	70	5672
2026-01-12 10:26:32.35	187.89	39.03	-49.0	-52.9	13.2	4.80e-05	0	44	0	435159040	70	5373
2026-01-12 10:26:33.35	188.07	39.27	-49.0	-53.0	13.2	3.20e-05	0	43	0	436207616	69	5736
2026-01-12 10:26:34.35	188.24	39.51	-49.3	-53.5	12.7	2.59e-05	0	44	0	438304768	69	6116
2026-01-12 10:26:35.35	188.42	39.75	-50.0	-54.8	11.3	5.49e-04	0	44	0	440401920	70	6704
2026-01-12 10:26:36.35	188.61	39.99	-49.7	-54.3	11.9	3.63e-04	0	44	0	442499072	70	6294
2026-01-12 10:26:37.36	188.79	40.24	-50.0	-55.0	11.3	4.51e-04	0	44	0	444596224	70	6839
2026-01-12 10:26:38.36	188.98	40.48	-49.7	-54.2	12.0	6.89e-04	0	44	0	445644800	70	6249
2026-01-12 10:26:39.36	189.17	40.73	-49.8	-54.5	11.7	7.45e-04	0	44	0	447741952	70	6481
2026-01-12 10:26:40.36	189.37	40.98	-49.7	-54.3	11.9	5.80e-04	0	44	0	449839104	70	6282
2026-01-12 10:26:41.36	189.56	41.22	-49.5	-53.9	12.3	4.42e-04	0	43	0	451936256	70	6049
2026-01-12 10:26:42.36	189.76	41.47	-49.5	-54.0	12.2	3.44e-04	0	44	0	452984832	70	6077
2026-01-12 10:26:43.36	189.96	41.73	-49.9	-54.8	11.5	3.36e-04	0	44	0	455081984	70	6660
2026-01-12 10:26:44.36	190.17	41.98	-50.0	-54.9	11.2	1.28e-03	0	44	0	457179136	70	6773
2026-01-12 10:26:45.36	190.38	42.23	-49.9	-54.9	11.1	2.13e-03	0	44	0	459276288	71	6409
2026-01-12 10:26:46.37	190.59	42.49	-49.9	-54.8	11.3	1.15e-03	0	44	0	461373440	71	6315
2026-01-12 10:26:47.37	190.81	42.75	-49.5	-54.0	12.2	3.75e-04	0	44	0	462422016	70	6112
2026-01-12 10:26:48.37	191.03	43.01	-49.4	-54.0	12.2	2.30e-04	0	44	0	464519168	70	6066
2026-01-12 10:26:49.37	191.25	43.27	-48.7	-52.5	13.6	2.44e-05	0	44	0	466616320	69	5430
2026-01-12 10:26:50.37	191.48	43.53	-48.1	-51.6	14.6	7.00e-07	0	44	0	468713472	68	5179
2026-01-12 10:26:51.38	191.71	43.79	-48.3	-51.9	14.3	0.00e+00	0	44	0	470810624	68	5369
2026-01-12 10:26:52.38	191.94	44.05	-47.8	-51.1	15.0	0.00e+00	0	44	0	471859200	67	5176
2026-01-12 10:26:53.38	192.18	44.32	-47.6	-50.9	15.2	0.00e+00	0	44	0	473956352	66	5343
2026-01-12 10:26:54.38	192.42	44.59	-47.8	-51.1	14.9	0.00e+00	0	44	0	476053504	66	5510
2026-01-12 10:26:55.38	192.67	44.85	-47.9	-51.2	14.8	0.00e+00	0	44	0	478150656	66	5578
2026-01-12 10:26:56.38	192.92	45.12	-48.3	-51.9	14.1	1.50e-06	0	44	0	480247808	67	5687
2026-01-12 10:26:57.38	193.17	45.39	-48.4	-52.1	13.9	7.60e-06	0	44	0	481296384	67	5833
2026-01-12 10:26:58.38	193.43	45.66	-48.8	-52.7	13.4	6.10e-06	0	44	0	483393536	68	5867
2026-01-12 10:26:59.38	193.69	45.93	-49.0	-53.1	13.2	3.81e-05	0	44	0	485490688	69	5804
2026-01-12 10:27:00.39	193.96	46.21	-49.0	-53.0	13.1	2.13e-05	0	43	0	487587840	69	5764
2026-01-12 10:27:01.39	194.23	46.48	-49.2	-53.3	13.0	1.22e-05	0	44	0	489684992	69	5987
2026-01-12 10:27:02.39	194.51	46.76	-49.2	-53.3	12.9	6.79e-05	0	44	0	490733568	69	5987
2026-01-12 10:27:03.39	194.79	47.04	-49.4	-53.7	12.6	1.25e-04	0	44	0	492830720	69	6211
2026-01-12 10:27:04.39	195.08	47.31	-49.2	-53.3	12.9	1.07e-04	0	44	0	494927872	69	5955
2026-01-12 10:27:05.40	195.37	47.59	-48.9	-52.8	13.4	4.27e-05	0	44	0	497025024	69	5624
2026-01-12 10:27:06.40	195.67	47.87	-48.8	-52.7	13.5	2.20e-06	0	44	0	498073600	69	5544
2026-01-12 10:27:07.40	195.97	48.16	-48.3	-51.8	14.4	7.00e-07	0	44	0	500170752	68	5300
2026-01-12 10:27:08.40	196.28	48.44	-48.2	-51.6	14.5	3.80e-06	0	44	0	502267904	68	5193
2026-01-12 10:27:09.40	196.59	48.72	-47.6	-50.8	15.2	0.00e+00	0	44	0	504365056	67	5034
2026-01-12 10:27:10.40	196.91	49.00	-47.9	-51.2	14.8	0.00e+00	0	44	0	506462208	67	5248
2026-01-12 10:27:11.40	197.23	49.29	-47.6	-50.8	15.1	0.00e+00	0	44	0	507510784	67	5032
2026-01-12 10:27:12.40	197.56	49.57	-47.8	-51.2	14.8	0.00e+00	0	44	0	509607936	66	5546
2026-01-12 10:27:13.41	197.90	49.86	-47.5	-50.7	15.3	7.00e-07	0	44	0	511705088	66	5278
2026-01-12 10:27:14.41	198.25	50.15	-47.2	-50.4	15.6	0.00e+00	0	44	0	513802240	66	5096
2026-01-12 10:27:15.41	198.60	50.44	-47.1	-50.3	15.8	0.00e+00	0	44	0	515899392	65	5288
2026-01-12 10:27:16.41	198.95	50.73	-46.6	-49.5	16.5	0.00e+00	0	44	0	516947968	65	4853
2026-01-12 10:27:17.41	199.32	51.01	-45.9	-48.5	17.5	0.00e+00	0	44	0	519045120	63	4852
2026-01-12 10:27:18.41	199.69	51.30	-46.0	-48.5	17.5	0.00e+00	0	44	0	521142272	63	4839
2026-01-12 10:27:19.41	200.06	51.59	-46.0	-48.5	17.5	0.00e+00	0	44	0	523239424	63	4851
2026-01-12 10:27:20.42	200.45	51.89	-46.6	-49.3	16.7	0.00e+00	0	43	0	524288000	63	5321
2026-01-12 10:27:21.42	200.84	52.18	-46.6	-49.4	16.6	0.00e+00	0	44	0	526385152	64	5062
2026-01-12 10:27:22.42	201.24	52.47	-46.3	-49.0	16.9	0.00e+00	0	44	0	528482304	64	4846
2026-01-12 10:27:23.41	201.65	52.76	-45.5	-47.9	18.0	0.00e+00	0	44	0	530579456	63	4536
2026-01-12 10:27:24.42	202.07	53.05	-44.8	-47.0	18.8	0.00e+00	0	44	0	532676608	61	4590
2026-01-12 10:27:25.42	202.49	53.34	-44.3	-46.5	19.3	0.00e+00	0	44	0	533725184	60	4546
2026-01-12 10:27:26.42	202.92	53.64	-44.1	-46.2	19.4	0.00e+00	0	44	0	535822336	60	4429
2026-01-12 10:27:27.42	203.36	53.93	-44.0	-46.2	19.4	0.00e+00	0	44	0	537919488	59	4654
2026-01-12 10:27:28.42	203.81	54.22	-44.2	-46.4	19.2	0.00e+00	0	44	0	540016640	59	4793
2026-01-12 10:27:29.42	204.27	54.51	-44.3	-46.5	19.2	0.00e+00	0	44	0	542113792	59	4869
2026-01-12 10:27:30.42	204.74	54.80	-44.5	-46.7	19.0	0.00e+00	0	44	0	543162368	59	4942
2026-01-12 10:27:31.42	205.22	55.10	-44.7	-46.9	18.9	0.00e+00	0	44	0	545259520	60	4796
2026-01-12 10:27:32.42	205.71	55.39	-44.7	-47.0	18.8	0.00e+00	0	44	0	547356672	60	4862
2026-01-12 10:27:33.42	206.21	55.68	-45.0	-47.4	18.5	0.00e+00	0	44	0	549453824	60	5081
2026-01-12 10:27:34.43	206.72	55.97	-45.4	-47.8	18.1	0.00e+00	0	44	0	551550976	61	5040
2026-01-12 10:27:35.43	207.24	56.26	-45.8	-48.4	17.5	0.00e+00	0	44	0	552599552	62	5091
2026-01-12 10:27:36.43	207.77	56.55	-46.0	-48.6	17.4	0.00e+00	0	44	0	554696704	62	5179
2026-01-12 10:27:37.44	208.31	56.84	-45.5	-47.9	18.1	0.00e+00	0	44	0	556793856	62	4769
2026-01-12 10:27:38.43	208.86	57.12	-45.1	-47.4	18.4	0.00e+00	0	44	0	558891008	62	4516
2026-01-12 10:27:39.44	209.43	57.41	-45.1	-47.5	18.4	0.00e+00	0	44	0	560988160	61	4837
2026-01-12 10:27:40.44	210.01	57.70	-45.3	-47.7	18.2	0.00e+00	0	44	0	562036736	61	4950
2026-01-12 10:27:41.44	210.60	57.98	-45.1	-47.4	18.5	0.00e+00	0	44	0	564133888	61	4781
2026-01-12 10:27:42.44	211.20	58.26	-45.3	-47.6	18.3	0.00e+00	0	44	0	566231040	61	4904
2026-01-12 10:27:43.44	211.81	58.54	-45.5	-47.9	18.1	0.00e+00	0	44	0	568328192	61	5089
2026-01-12 10:27:44.44	212.43	58.82	-45.8	-48.3	17.7	0.00e+00	0	44	0	569376768	62	5021
2026-01-12 10:27:45.44	213.07	59.09	-46.3	-48.9	17.1	0.00e+00	0	44	0	571473920	63	5087
2026-01-12 10:27:46.45	213.73	59.37	-46.3	-49.0	17.0	0.00e+00	0	44	0	573571072	63	5133
2026-01-12 10:27:47.44	214.39	59.64	-46.7	-49.5	16.5	0.00e+00	0	44	0	575668224	64	5139
2026-01-12 10:27:48.44	215.07	59.91	-46.9	-49.8	16.2	0.00e+00	0	44	0	577765376	64	5302
2026-01-12 10:27:49.44	215.77	60.18	-46.7	-49.5	16.5	0.00e+00	0	44	0	578813952	64	5133
2026-01-12 10:27:50.44	216.48	60.44	-46.8	-49.7	16.3	0.00e+00	0	43	0	580911104	64	5232
2026-01-12 10:27:51.45	217.21	60.70	-46.6	-49.4	16.5	0.00e+00	0	43	0	583008256	64	5049
2026-01-12 10:27:52.45	217.95	60.96	-46.7	-49.5	16.4	0.00e+00	0	44	0	585105408	64	5130
2026-01-12 10:27:53.44	218.69	61.22	-46.6	-49.4	16.6	0.00e+00	0	44	0	587202560	64	5071
2026-01-12 10:27:54.44	219.46	61.47	-46.4	-49.1	16.8	0.00e+00	0	44	0	588251136	64	4900
2026-01-12 10:27:55.45	220.25	61.72	-46.5	-49.3	16.7	0.00e+00	0	44	0	590348288	64	5016
2026-01-12 10:27:56.44	221.05	61.96	-46.0	-48.6	17.3	0.00e+00	0	44	0	592445440	64	4650
2026-01-12 10:27:57.44	221.86	62.20	-45.8	-48.3	17.7	0.00e+00	0	44	0	594542592	63	4742
2026-01-12 10:27:58.44	222.69	62.44	-46.2	-48.8	17.2	0.00e+00	0	43	0	596639744	63	5021
2026-01-12 10:27:59.44	223.54	62.67	-46.7	-49.5	16.4	0.00e+00	0	44	0	597688320	64	5143
2026-01-12 10:28:00.44	224.41	62.90	-47.2	-50.2	15.9	0.00e+00	0	43	0	599785472	65	5230
2026-01-12 10:28:01.44	225.29	63.12	-47.1	-50.0	16.0	0.00e+00	0	44	0	601882624	65	5135
2026-01-12 10:28:02.44	226.18	63.34	-46.3	-49.0	17.0	0.00e+00	0	44	0	603979776	64	4838
2026-01-12 10:28:03.44	227.10	63.55	-46.0	-48.6	17.5	0.00e+00	0	44	0	605028352	63	4871
2026-01-12 10:28:04.44	228.03	63.76	-45.9	-48.4	17.7	0.00e+00	0	44	0	607125504	63	4806
2026-01-12 10:28:05.44	228.97	63.96	-46.2	-48.8	17.3	0.00e+00	0	44	0	609222656	63	4997
2026-01-12 10:28:06.45	229.95	64.16	-45.7	-48.2	17.8	0.00e+00	0	44	0	611319808	63	4693
2026-01-12 10:28:07.45	230.92	64.35	-45.2	-47.6	18.3	0.00e+00	0	44	0	613416960	62	4624
2026-01-12 10:28:08.44	231.91	64.53	-44.6	-46.8	19.0	0.00e+00	0	44	0	614465536	61	4491
2026-01-12 10:28:09.45	232.93	64.71	-45.5	-48.0	18.0	0.00e+00	0	44	0	616562688	61	5121
2026-01-12 10:28:10.45	233.96	64.88	-47.1	-50.1	16.0	0.00e+00	0	44	0	618659840	64	5490
2026-01-12 10:28:11.45	235.00	65.04	-48.0	-51.5	14.7	0.00e+00	0	44	0	620756992	66	5752
2026-01-12 10:28:12.45	236.05	65.19	-47.8	-51.1	15.0	0.00e+00	0	44	0	622854144	66	5505
2026-01-12 10:28:13.45	237.12	65.34	-47.1	-50.2	15.8	0.00e+00	0	44	0	623902720	65	5249
2026-01-12 10:28:14.45	238.21	65.48	-47.1	-50.0	16.0	0.00e+00	0	44	0	625999872	65	5148
2026-01-12 10:28:15.45	239.31	65.62	-46.7	-49.4	16.6	0.00e+00	0	44	0	628097024	65	4808
2026-01-12 10:28:16.45	240.42	65.74	-46.5	-49.3	16.7	0.00e+00	0	44	0	630194176	65	4717
2026-01-12 10:28:17.45	241.54	65.86	-46.9	-49.9	16.2	0.00e+00	0	44	0	631242752	65	5060
2026-01-12 10:28:18.45	242.67	65.97	-47.0	-50.0	16.0	0.00e+00	0	44	0	633339904	65	5101
2026-01-12 10:28:19.45	243.82	66.07	-46.5	-49.2	16.9	0.00e+00	0	44	0	635437056	64	4935
2026-01-12 10:28:20.45	244.97	66.16	-46.9	-49.8	16.3	0.00e+00	0	44	0	637534208	64	5313
2026-01-12 10:28:21.45	246.14	66.25	-48.1	-51.7	14.5	0.00e+00	0	44	0	639631360	66	5873
2026-01-12 10:28:22.45	247.31	66.32	-47.7	-50.9	15.2	0.00e+00	0	44	0	640679936	66	5349
2026-01-12 10:28:23.46	248.51	66.39	-47.2	-50.1	15.9	0.00e+00	0	44	0	642777088	66	4892
2026-01-12 10:28:24.46	249.69	66.44	-47.2	-50.1	15.8	0.00e+00	0	43	0	644874240	65	5210
2026-01-12 10:28:25.46	250.89	66.49	-47.1	-50.1	16.0	0.00e+00	0	44	0	646971392	65	5213
2026-01-12 10:28:26.46	252.09	66.53	-47.0	-49.9	16.1	0.00e+00	0	44	0	649068544	65	5084
2026-01-12 10:28:27.47	253.30	66.56	-46.7	-49.5	16.5	0.00e+00	0	44	0	650117120	65	4845
2026-01-12 10:28:28.47	254.50	66.58	-46.4	-49.0	16.9	0.00e+00	0	44	0	652214272	64	4869
2026-01-12 10:28:29.47	255.71	66.59	-46.8	-49.6	16.4	0.00e+00	0	44	0	654311424	64	5217
2026-01-12 10:28:30.47	256.92	66.59	-47.1	-50.1	15.9	0.00e+00	0	44	0	656408576	65	5212
2026-01-12 10:28:31.46	258.11	66.58	-46.7	-49.7	16.4	0.00e+00	0	44	0	658505728	65	4931
2026-01-12 10:28:32.46	259.32	66.56	-47.3	-50.5	15.5	0.00e+00	0	44	0	659554304	65	5433
2026-01-12 10:28:33.46	260.52	66.53	-47.7	-51.0	15.1	0.00e+00	0	44	0	661651456	66	5452
2026-01-12 10:28:34.46	261.72	66.50	-46.0	-49.0	16.8	0.00e+00	0	44	0	663748608	64	4854
2026-01-12 10:28:35.46	262.91	66.45	-45.6	-48.1	17.9	0.00e+00	0	44	0	665845760	63	4603
2026-01-12 10:28:36.46	264.10	66.40	-45.7	-48.2	17.8	0.00e+00	0	44	0	666894336	63	4685
2026-01-12 10:28:37.46	265.28	66.33	-46.2	-48.8	17.2	0.00e+00	0	44	0	668991488	63	5001
2026-01-12 10:28:38.45	266.44	66.26	-46.2	-48.9	17.2	0.00e+00	0	44	0	671088640	63	5045
2026-01-12 10:28:39.46	267.62	66.18	-46.6	-49.4	16.7	0.00e+00	0	44	0	673185792	64	5048
2026-01-12 10:28:40.46	268.78	66.09	-46.3	-49.0	16.9	0.00e+00	0	44	0	675282944	64	4832
2026-01-12 10:28:41.46	269.92	65.99	-45.9	-48.4	17.5	0.00e+00	0	44	0	676331520	63	4801
2026-01-12 10:28:42.46	271.06	65.88	-45.7	-48.2	17.8	0.00e+00	0	44	0	678428672	63	4678
2026-01-12 10:28:43.46	272.18	65.76	-46.0	-48.5	17.5	0.00e+00	0	44	0	680525824	63	4867
2026-01-12 10:28:44.45	273.28	65.64	-46.5	-49.2	16.9	0.00e+00	0	44	0	682622976	63	5222
2026-01-12 10:28:45.46	274.39	65.51	-46.4	-49.1	16.9	0.00e+00	0	44	0	684720128	64	4915
2026-01-12 10:28:46.46	275.48	65.37	-45.4	-47.9	18.1	0.00e+00	0	44	0	685768704	62	4764
2026-01-12 10:28:47.46	276.55	65.22	-46.3	-48.9	17.3	0.00e+00	0	44	0	687865856	63	5063
2026-01-12 10:28:48.46	277.61	65.07	-47.3	-50.4	15.7	0.00e+00	0	44	0	689963008	65	5378
2026-01-12 10:28:49.46	278.65	64.90	-46.8	-49.7	16.3	0.00e+00	0	44	0	692060160	65	4972
2026-01-12 10:28:50.46	279.68	64.74	-46.4	-49.1	16.9	0.00e+00	0	44	0	694157312	64	4904
2026-01-12 10:28:51.46	280.69	64.56	-46.5	-49.2	16.8	0.00e+00	0	44	0	695205888	64	4964
2026-01-12 10:28:52.47	281.70	64.38	-46.0	-48.6	17.4	0.00e+00	0	44	0	697303040	64	4636
2026-01-12 10:28:53.47	282.68	64.19	-45.7	-48.2	17.8	0.00e+00	0	44	0	699400192	63	4688
2026-01-12 10:28:54.47	283.64	63.99	-45.9	-48.5	17.5	0.00e+00	0	44	0	701497344	62	5107
2026-01-12 10:28:55.47	284.59	63.79	-46.0	-48.7	17.5	0.00e+00	0	44	0	702545920	62	5219
2026-01-12 10:28:56.47	285.52	63.59	-46.6	-49.4	16.8	0.00e+00	0	44	0	704643072	63	5349
2026-01-12 10:28:57.47	286.44	63.38	-46.8	-49.7	16.3	0.00e+00	0	44	0	706740224	64	5277
2026-01-12 10:28:58.47	287.33	63.16	-46.2	-48.9	17.1	0.00e+00	0	44	0	708837376	64	4779
2026-01-12 10:28:59.47	288.22	62.94	-45.4	-47.9	18.1	0.00e+00	0	44	0	710934528	62	4781
2026-01-12 10:29:00.47	289.08	62.71	-45.2	-47.6	18.3	0.00e+00	0	44	0	711983104	62	4639
2026-01-12 10:29:01.47	289.93	62.48	-45.0	-47.3	18.7	0.00e+00	0	44	0	714080256	61	4710
2026-01-12 10:29:02.47	290.77	62.25	-44.9	-47.1	18.7	0.00e+00	0	44	0	716177408	61	4644
2026-01-12 10:29:03.48	291.59	62.01	-45.0	-47.4	18.5	0.00e+00	0	44	0	718274560	61	4776
2026-01-12 10:29:04.48	292.39	61.76	-43.7	-45.8	19.8	0.00e+00	0	44	0	720371712	59	4488
2026-01-12 10:29:05.48	293.18	61.52	-43.6	-45.6	20.1	0.00e+00	0	44	0	721420288	58	4637
2026-01-12 10:29:06.48	293.95	61.26	-44.2	-46.3	19.3	0.00e+00	0	44	0	723517440	59	4756
2026-01-12 10:29:07.49	294.71	61.01	-45.6	-48.0	18.0	0.00e+00	0	44	0	725614592	61	5124
2026-01-12 10:29:08.48	295.44	60.75	-45.2	-47.5	18.4	0.00e+00	0	44	0	727711744	61	4859
2026-01-12 10:29:09.48	296.17	60.49	-44.4	-46.7	19.1	0.00e+00	0	44	0	729808896	60	4653
2026-01-12 10:29:10.48	296.88	60.23	-43.8	-45.9	19.7	0.00e+00	0	44	0	730857472	59	4532
2026-01-12 10:29:11.48	297.57	59.96	-43.9	-46.0	19.6	0.00e+00	0	44	0	732954624	59	4575
2026-01-12 10:29:12.49	298.26	59.69	-44.1	-46.3	19.4	0.00e+00	0	44	0	735051776	59	4706
2026-01-12 10:29:13.49	298.93	59.42	-44.2	-46.3	19.3	0.00e+00	0	44	0	737148928	59	4733
2026-01-12 10:29:14.48	299.58	59.15	-44.6	-46.8	18.9	0.00e+00	0	44	0	739246080	59	5038
2026-01-12 10:29:15.49	300.22	58.88	-44.5	-46.8	19.1	0.00e+00	0	44	0	740294656	60	4721
2026-01-12 10:29:16.49	300.85	58.60	-44.2	-46.4	19.4	0.00e+00	0	44	0	742391808	60	4496
2026-01-12 10:29:17.49	301.47	58.32	-44.2	-46.4	19.4	0.00e+00	0	44	0	744488960	60	4522
2026-01-12 10:29:18.49	302.07	58.04	-44.8	-47.2	18.8	0.00e+00	0	44	0	746586112	60	4928
2026-01-12 10:29:19.50	302.66	57.75	-45.2	-47.6	18.3	0.00e+00	0	44	0	747634688	61	4921
2026-01-12 10:29:20.50	303.24	57.47	-44.3	-46.6	19.3	0.00e+00	0	44	0	749731840	60	4607
2026-01-12 10:29:21.50	303.80	57.19	-44.0	-46.2	19.5	0.00e+00	0	44	0	751828992	59	4653
2026-01-12 10:29:22.50	304.36	56.90	-44.7	-47.0	18.9	0.00e+00	0	44	0	753926144	60	4840
2026-01-12 10:29:23.50	304.90	56.62	-45.1	-47.5	18.3	0.00e+00	0	44	0	756023296	61	4862
2026-01-12 10:29:24.50	305.43	56.33	-44.3	-47.0	18.5	0.00e+00	0	44	0	757071872	60	4826
2026-01-12 10:29:25.50	305.95	56.04	-42.9	-46.4	17.9	0.00e+00	0	44	0	759169024	57	5345
2026-01-12 10:29:26.50	306.46	55.75	-41.0	-46.5	15.5	0.00e+00	0	44	0	761266176	54	6485
2026-01-12 10:29:27.50	306.96	55.46	-40.1	-46.3	14.7	0.00e+00	0	44	0	763363328	52	7084
2026-01-12 10:29:28.50	307.45	55.17	-40.7	-45.9	15.9	0.00e+00	0	44	0	765460480	52	6761
2026-01-12 10:29:29.50	307.93	54.88	-43.6	-46.4	18.5	0.00e+00	0	44	0	766509056	57	5389
2026-01-12 10:29:30.51	308.40	54.59	-45.2	-47.6	18.3	0.00e+00	0	44	0	768606208	61	4901
2026-01-12 10:29:31.51	308.86	54.30	-45.4	-48.0	17.8	0.00e+00	0	44	0	770703360	62	4857
2026-01-12 10:29:32.50	309.31	54.01	-45.9	-48.4	17.6	0.00e+00	0	44	0	772800512	62	5099
2026-01-12 10:29:33.51	309.75	53.72	-45.5	-48.0	18.0	0.00e+00	0	44	0	773849088	62	4830
2026-01-12 10:29:34.51	310.19	53.42	-45.8	-48.5	17.5	0.00e+00	0	44	0	775946240	62	5117
2026-01-12 10:29:35.51	310.61	53.13	-46.3	-49.3	16.7	0.00e+00	0	44	0	778043392	63	5306
2026-01-12 10:29:36.51	311.03	52.84	-46.9	-50.1	15.9	0.00e+00	0	44	0	780140544	64	5474
2026-01-12 10:29:37.51	311.44	52.55	-46.6	-49.5	16.5	0.00e+00	0	44	0	782237696	64	5134
2026-01-12 10:29:38.51	311.84	52.26	-47.0	-50.0	16.0	0.00e+00	0	44	0	783286272	64	5433
2026-01-12 10:29:39.51	312.23	51.97	-46.6	-49.4	16.5	0.00e+00	0	44	0	785383424	64	5096
2026-01-12 10:29:40.51	312.61	51.68	-46.1	-48.8	17.1	0.00e+00	0	44	0	787480576	64	4749
2026-01-12 10:29:41.52	313.00	51.39	-45.9	-48.5	17.5	0.00e+00	0	44	0	789577728	63	4828
2026-01-12 10:29:42.52	313.37	51.10	-46.1	-48.8	17.3	0.00e+00	0	44	0	791674880	63	4989
2026-01-12 10:29:43.52	313.73	50.81	-46.4	-49.1	17.0	0.00e+00	0	44	0	792723456	63	5215
2026-01-12 10:29:44.52	314.09	50.53	-46.4	-49.2	16.9	0.00e+00	0	44	0	794820608	63	5273
2026-01-12 10:29:45.52	314.44	50.24	-46.3	-49.1	16.8	0.00e+00	0	44	0	796917760	64	4925
2026-01-12 10:29:46.52	314.78	49.96	-46.4	-49.2	16.8	0.00e+00	0	44	0	799014912	64	4971
2026-01-12 10:29:47.52	315.12	49.67	-46.2	-49.0	17.0	0.00e+00	0	44	0	801112064	64	4819
2026-01-12 10:29:48.52	315.45	49.39	-46.2	-48.9	17.0	0.00e+00	0	44	0	802160640	64	4809
2026-01-12 10:29:49.52	315.77	49.10	-46.7	-49.6	16.5	0.00e+00	0	44	0	804257792	64	5175
2026-01-12 10:29:50.52	316.09	48.82	-47.0	-50.1	16.0	0.00e+00	0	44	0	806354944	64	5482
2026-01-12 10:29:51.52	316.41	48.54	-47.0	-50.2	15.9	0.00e+00	0	44	0	808452096	65	5243
2026-01-12 10:29:52.52	316.72	48.26	-46.3	-49.2	16.8	0.00e+00	0	44	0	809500672	64	4949
2026-01-12 10:29:53.52	317.02	47.98	-46.1	-48.8	17.0	0.00e+00	0	44	0	811597824	64	4735
2026-01-12 10:29:54.52	317.32	47.70	-46.2	-48.8	17.1	0.00e+00	0	44	0	813694976	64	4755
2026-01-12 10:29:55.53	317.61	47.42	-47.2	-50.2	15.9	0.00e+00	0	44	0	815792128	64	5570
2026-01-12 10:29:56.52	317.89	47.14	-48.3	-51.9	14.2	0.00e+00	0	44	0	817889280	67	5695
2026-01-12 10:29:57.52	318.18	46.87	-48.9	-53.0	13.4	6.80e-06	0	44	0	818937856	68	6065
2026-01-12 10:29:58.52	318.45	46.59	-48.9	-53.0	13.2	8.54e-05	0	44	0	821035008	69	5778
2026-01-12 10:29:59.52	318.73	46.32	-48.6	-52.3	13.8	1.14e-05	0	44	0	823132160	69	5305
2026-01-12 10:30:00.52	318.99	46.05	-48.1	-51.5	14.7	0.00e+00	0	44	0	825229312	68	5155
2026-01-12 10:30:01.52	319.26	45.78	-47.7	-51.0	15.1	0.00e+00	0	44	0	827326464	67	5138
2026-01-12 10:30:02.52	319.52	45.51	-47.7	-50.9	15.1	0.00e+00	0	44	0	828375040	67	5096
2026-01-12 10:30:03.53	319.77	45.24	-47.4	-50.7	15.3	0.00e+00	0	44	0	830472192	66	5245
2026-01-12 10:30:04.53	320.02	44.97	-47.3	-50.6	15.5	0.00e+00	0	44	0	832569344	66	5170
2026-01-12 10:30:05.53	320.27	44.70	-47.5	-50.9	15.2	7.00e-07	0	44	0	834666496	66	5350
2026-01-12 10:30:06.53	320.51	44.44	-47.1	-50.3	15.7	0.00e+00	0	44	0	835715072	66	5033
2026-01-12 10:30:07.54	320.75	44.17	-47.3	-50.5	15.5	0.00e+00	0	44	0	837812224	66	5138
2026-01-12 10:30:08.54	320.99	43.91	-47.1	-50.2	15.9	0.00e+00	0	44	0	839909376	66	4966
2026-01-12 10:30:09.54	321.22	43.65	-46.9	-49.8	16.1	0.00e+00	0	44	0	842006528	65	5018
2026-01-12 10:30:10.54	321.44	43.39	-47.1	-50.2	15.9	0.00e+00	0	44	0	844103680	65	5234
2026-01-12 10:30:11.55	321.67	43.13	-48.0	-51.5	14.5	0.00e+00	0	44	0	846200832	66	5761
2026-01-12 10:30:12.55	321.89	42.87	-49.0	-53.1	13.1	1.52e-05	0	44	0	847249408	68	6181
2026-01-12 10:30:13.54	322.10	42.62	-48.8	-53.0	13.3	8.39e-05	0	44	0	849346560	69	5728
2026-01-12 10:30:14.54	322.32	42.36	-47.4	-50.7	15.3	2.20e-06	0	44	0	851443712	66	5238
2026-01-12 10:30:15.55	322.53	42.11	-46.1	-48.8	17.1	0.00e+00	0	44	0	853540864	64	4728
2026-01-12 10:30:16.55	322.73	41.85	-45.6	-48.1	17.8	0.00e+00	0	44	0	854589440	63	4625
2026-01-12 10:30:17.55	322.94	41.60	-45.0	-47.4	18.5	0.00e+00	0	44	0	856686592	62	4494
2026-01-12 10:30:18.55	323.14	41.35	-45.3	-47.7	18.2	0.00e+00	0	44	0	858783744	61	4956
2026-01-12 10:30:19.55	323.34	41.11	-46.3	-48.9	17.0	0.00e+00	0	44	0	860880896	63	5099
2026-01-12 10:30:20.54	323.53	40.86	-47.4	-50.6	15.5	0.00e+00	0	44	0	862978048	65	5493
2026-01-12 10:30:21.55	323.72	40.61	-48.4	-52.2	13.9	1.50e-06	0	44	0	864026624	67	5906
2026-01-12 10:30:22.55	323.91	40.37	-48.5	-52.4	13.7	4.50e-06	0	44	0	866123776	67	6022
2026-01-12 10:30:23.55	324.10	40.13	-48.4	-52.3	13.8	4.50e-06	0	44	0	868220928	67	5943
2026-01-12 10:30:24.54	324.28	39.89	-48.2	-51.9	14.1	0.00e+00	0	44	0	870318080	67	5687
2026-01-12 10:30:25.54	324.46	39.65	-48.0	-51.5	14.6	0.00e+00	0	44	0	872415232	67	5444
2026-01-12 10:30:26.54	324.64	39.41	-46.8	-49.7	16.3	0.00e+00	0	44	0	873463808	65	4963
2026-01-12 10:30:27.54	324.81	39.17	-46.0	-48.6	17.3	0.00e+00	0	44	0	875560960	64	4633
2026-01-12 10:30:28.54	324.98	38.94	-45.8	-48.3	17.7	0.00e+00	0	44	0	877658112	63	4730
2026-01-12 10:30:29.54	325.16	38.70	-45.9	-48.5	17.4	0.00e+00	0	44	0	879755264	63	4869
2026-01-12 10:30:30.54	325.32	38.47	-46.6	-49.5	16.5	0.00e+00	0	44	0	880803840	63	5443
2026-01-12 10:30:31.54	325.49	38.24	-47.5	-50.9	15.1	0.00e+00	0	44	0	882900992	65	5701
2026-01-12 10:30:32.55	325.65	38.01	-48.2	-52.3	13.7	3.00e-06	0	44	0	884998144	67	5980
2026-01-12 10:30:33.54	325.81	37.78	-48.1	-52.3	13.7	7.60e-06	0	44	0	887095296	67	5971
2026-01-12 10:30:34.55	325.98	37.55	-47.6	-51.4	14.6	2.20e-06	0	44	0	889192448	67	5368
2026-01-12 10:30:35.55	326.13	37.32	-46.9	-50.3	15.6	0.00e+00	0	44	0	890241024	65	5285
2026-01-12 10:30:36.56	326.29	37.09	-45.9	-48.8	17.2	0.00e+00	0	44	0	892338176	63	4992
2026-01-12 10:30:37.56	326.44	36.87	-46.1	-48.9	17.1	0.00e+00	0	44	0	894435328	63	5097
2026-01-12 10:30:38.56	326.59	36.65	-45.7	-48.3	17.6	0.00e+00	0	44	0	896532480	63	4748
2026-01-12 10:30:39.56	326.74	36.43	-46.3	-49.2	16.8	0.00e+00	0	44	0	898629632	63	5237
2026-01-12 10:30:40.56	326.89	36.21	-47.2	-50.4	15.6	0.00e+00	0	44	0	899678208	64	5678
2026-01-12 10:30:41.56	327.03	35.99	-47.8	-51.3	14.8	0.00e+00	0	44	0	901775360	66	5608
2026-01-12 10:30:42.56	327.18	35.77	-47.9	-51.4	14.6	0.00e+00	0	44	0	903872512	66	5707
2026-01-12 10:30:43.56	327.32	35.55	-48.2	-52.0	14.1	7.00e-07	0	44	0	905969664	67	5732
2026-01-12 10:30:44.56	327.46	35.34	-48.2	-52.0	14.2	3.80e-06	0	44	0	908066816	67	5735
2026-01-12 10:30:45.57	327.60	35.12	-47.4	-50.6	15.4	0.00e+00	0	44	0	909115392	66	5214
2026-01-12 10:30:46.57	327.73	34.91	-47.3	-50.5	15.5	0.00e+00	0	44	0	911212544	66	5110
2026-01-12 10:30:47.57	327.87	34.70	-46.8	-49.7	16.3	0.00e+00	0	44	0	913309696	65	4982
2026-01-12 10:30:48.57	328.00	34.49	-46.2	-48.9	17.0	0.00e+00	0	44	0	915406848	64	4781
2026-01-12 10:30:49.57	328.13	34.28	-46.4	-49.1	16.8	0.00e+00	0	44	0	916455424	64	4925
2026-01-12 10:30:50.57	328.26	34.08	-46.3	-49.1	16.9	0.00e+00	0	44	0	918552576	64	4873
2026-01-12 10:30:51.57	328.39	33.87	-46.8	-49.7	16.3	0.00e+00	0	44	0	920649728	64	5257
2026-01-12 10:30:52.58	328.51	33.66	-47.1	-50.1	15.8	0.00e+00	0	44	0	922746880	64	5516
2026-01-12 10:30:53.58	328.64	33.46	-47.3	-50.5	15.6	0.00e+00	0	44	0	924844032	65	5418
2026-01-12 10:30:54.58	328.76	33.26	-47.3	-50.5	15.5	0.00e+00	0	44	0	925892608	65	5445
2026-01-12 10:30:55.58	328.88	33.06	-47.5	-50.8	15.3	0.00e+00	0	44	0	927989760	65	5594
2026-01-12 10:30:56.59	329.01	32.85	-47.7	-51.0	15.0	0.00e+00	0	44	0	930086912	66	5448
2026-01-12 10:30:57.59	329.12	32.66	-47.2	-50.2	15.7	0.00e+00	0	44	0	932184064	66	4950
2026-01-12 10:30:58.59	329.24	32.46	-47.1	-50.2	15.8	0.00e+00	0	44	0	934281216	66	4936
2026-01-12 10:30:59.59	329.36	32.26	-46.9	-49.9	16.1	0.00e+00	0	44	0	935329792	65	5066
2026-01-12 10:31:00.59	329.47	32.07	-47.0	-50.1	15.9	0.00e+00	0	44	0	937426944	65	5160
2026-01-12 10:31:01.59	329.59	31.87	-47.3	-50.6	15.4	0.00e+00	0	44	0	939524096	65	5478
2026-01-12 10:31:02.59	329.70	31.68	-47.6	-51.0	14.9	0.00e+00	0	44	0	941621248	65	5785
2026-01-12 10:31:03.59	329.81	31.49	-47.7	-51.2	14.8	0.00e+00	0	44	0	943718400	66	5577
2026-01-12 10:31:04.59	329.92	31.30	-48.0	-51.7	14.3	7.00e-07	0	44	0	944766976	67	5579
2026-01-12 10:31:05.59	330.03	31.11	-48.3	-52.2	13.8	7.00e-07	0	44	0	946864128	67	5874
2026-01-12 10:31:06.60	330.14	30.92	-48.1	-51.9	14.2	4.50e-06	0	44	0	948961280	67	5703
2026-01-12 10:31:07.60	330.24	30.73	-48.1	-52.0	14.0	1.50e-06	0	44	0	951058432	67	5766
2026-01-12 10:31:08.60	330.35	30.55	-48.0	-51.9	14.1	2.20e-06	0	44	0	953155584	67	5698
2026-01-12 10:31:09.60	330.45	30.36	-47.8	-51.5	14.5	0.00e+00	0	44	0	954204160	67	5438
2026-01-12 10:31:10.60	330.55	30.18	-47.7	-51.5	14.5	0.00e+00	0	44	0	956301312	66	5727
2026-01-12 10:31:11.60	330.65	29.99	-47.8	-51.6	14.4	7.00e-07	0	44	0	958398464	66	5794
2026-01-12 10:31:12.60	330.75	29.81	-47.6	-51.1	14.9	7.00e-07	0	44	0	960495616	66	5492
2026-01-12 10:31:13.60	330.85	29.63	-47.9	-51.5	14.5	7.00e-07	0	44	0	961544192	66	5773
2026-01-12 10:31:14.61	330.95	29.45	-47.7	-51.2	14.8	7.00e-07	0	44	0	963641344	66	5588
2026-01-12 10:31:15.61	331.05	29.27	-47.9	-51.5	14.6	0.00e+00	0	44	0	965738496	66	5736
2026-01-12 10:31:16.61	331.15	29.09	-47.9	-51.5	14.4	1.50e-06	0	44	0	967835648	66	5780
2026-01-12 10:31:17.61	331.24	28.92	-48.0	-51.7	14.3	7.00e-07	0	44	0	969932800	66	5905
2026-01-12 10:31:18.61	331.33	28.74	-48.1	-51.9	14.1	1.50e-06	0	44	0	970981376	67	5665
2026-01-12 10:31:19.62	331.43	28.57	-48.1	-52.1	14.0	1.50e-06	0	44	0	973078528	67	5799
2026-01-12 10:31:20.62	331.52	28.39	-47.9	-51.8	14.2	0.00e+00	0	44	0	975175680	67	5603
2026-01-12 10:31:21.61	331.61	28.22	-47.6	-51.4	14.6	7.00e-07	0	44	0	977272832	67	5346
2026-01-12 10:31:22.61	331.70	28.05	-47.6	-51.4	14.6	0.00e+00	0	44	0	979369984	66	5705
2026-01-12 10:31:23.61	331.79	27.88	-47.1	-50.6	15.3	0.00e+00	0	44	0	980418560	66	5209
2026-01-12 10:31:24.61	331.88	27.71	-46.9	-50.3	15.6	0.00e+00	0	44	0	982515712	65	5329
2026-01-12 10:31:25.62	331.97	27.54	-47.0	-50.2	15.7	0.00e+00	0	44	0	984612864	65	5274
2026-01-12 10:31:26.62	332.05	27.37	-46.5	-49.5	16.4	0.00e+00	0	44	0	986710016	65	4835
2026-01-12 10:31:27.61	332.14	27.21	-46.4	-49.3	16.5	0.00e+00	0	44	0	988807168	64	5041
2026-01-12 10:31:28.62	332.23	27.04	-46.4	-49.3	16.5	0.00e+00	0	44	0	989855744	64	5034
2026-01-12 10:31:29.61	332.31	26.88	-46.1	-49.0	16.9	0.00e+00	0	44	0	991952896	64	4828
2026-01-12 10:31:30.61	332.39	26.72	-46.3	-49.3	16.6	0.00e+00	0	44	0	994050048	64	5001
2026-01-12 10:31:31.61	332.47	26.55	-46.2	-49.2	16.7	0.00e+00	0	44	0	996147200	64	4938
2026-01-12 10:31:32.61	332.56	26.39	-46.3	-49.3	16.6	0.00e+00	0	44	0	997195776	64	5016
2026-01-12 10:31:33.61	332.64	26.23	-46.6	-49.8	16.2	0.00e+00	0	44	0	999292928	64	5286
2026-01-12 10:31:34.61	332.72	26.07	-46.7	-49.8	16.1	0.00e+00	0	44	0	1001390080	64	5314
2026-01-12 10:31:35.61	332.80	25.91	-46.6	-49.8	16.1	0.00e+00	0	44	0	1003487232	64	5284
2026-01-12 10:31:36.61	332.88	25.75	-47.0	-50.2	15.8	0.00e+00	0	44	0	1005584384	64	5541
2026-01-12 10:31:37.61	332.95	25.60	-47.1	-50.3	15.7	0.00e+00	0	44	0	1006632960	64	5593
2026-01-12 10:31:38.61	333.03	25.44	-47.0	-50.2	15.8	0.00e+00	0	44	0	1008730112	64	5545
2026-01-12 10:31:39.61	333.11	25.28	-47.2	-50.4	15.6	0.00e+00	0	44	0	1010827264	65	5359
2026-01-12 10:31:40.61	333.18	25.13	-47.1	-50.2	15.7	0.00e+00	0	44	0	1012924416	65	5267
2026-01-12 10:31:41.62	333.26	24.98	-46.9	-49.9	15.9	0.00e+00	0	44	0	1015021568	65	5094
2026-01-12 10:31:42.62	333.33	24.82	-47.0	-50.2	15.8	0.00e+00	0	44	0	1016070144	65	5244
2026-01-12 10:31:43.62	333.41	24.67	-46.6	-49.7	16.2	0.00e+00	0	44	0	1018167296	65	4948
2026-01-12 10:31:44.63	333.48	24.52	-46.9	-50.2	15.7	0.00e+00	0	44	0	1020264448	65	5248
2026-01-12 10:31:45.62	333.55	24.37	-46.9	-50.1	15.8	0.00e+00	0	44	0	1022361600	65	5180
2026-01-12 10:31:46.63	333.62	24.22	-46.7	-49.8	16.1	0.00e+00	0	44	0	1023410176	65	5012
2026-01-12 10:31:47.63	333.70	24.07	-46.9	-50.0	16.0	0.00e+00	0	44	0	1025507328	65	5113
2026-01-12 10:31:48.62	333.77	23.92	-46.8	-49.9	15.9	0.00e+00	0	44	0	1027604480	65	5083
2026-01-12 10:31:49.63	333.84	23.77	-46.6	-49.5	16.3	0.00e+00	0	44	0	1029701632	65	4861
2026-01-12 10:31:50.63	333.91	23.63	-46.5	-49.4	16.5	0.00e+00	0	44	0	1031798784	64	5051
2026-01-12 10:31:51.63	333.97	23.48	-46.2	-49.1	16.7	0.00e+00	0	44	0	1032847360	64	4884
2026-01-12 10:31:52.63	334.04	23.34	-46.0	-48.8	17.1	0.00e+00	0	44	0	1034944512	64	4708
2026-01-12 10:31:53.63	334.11	23.19	-45.6	-48.2	17.6	0.00e+00	0	44	0	1037041664	63	4697
2026-01-12 10:31:54.63	334.18	23.05	-45.3	-47.8	18.0	0.00e+00	0	44	0	1039138816	62	4714
2026-01-12 10:31:55.64	334.24	22.91	-45.0	-47.5	18.3	0.00e+00	0	44	0	1041235968	62	4552
2026-01-12 10:31:56.64	334.31	22.76	-44.8	-47.2	18.6	0.00e+00	0	44	0	1042284544	61	4674
2026-01-12 10:31:57.64	334.37	22.62	-44.6	-47.0	18.7	0.00e+00	0	44	0	1044381696	61	4556
2026-01-12 10:31:58.63	334.44	22.48	-44.5	-46.9	18.8	0.00e+00	0	44	0	1046478848	61	4506
2026-01-12 10:31:59.64	334.50	22.34	-44.6	-46.9	18.8	0.00e+00	0	44	0	1048576000	60	4772
2026-01-12 10:32:00.63	334.57	22.21	-44.6	-47.0	18.7	0.00e+00	0	44	0	1050673152	60	4841
2026-01-12 10:32:01.64	334.63	22.07	-44.7	-47.1	18.6	0.00e+00	0	44	0	1051721728	60	4897
2026-01-12 10:32:02.64	334.69	21.93	-44.9	-47.4	18.3	0.00e+00	0	44	0	1053818880	60	5047
2026-01-12 10:32:03.64	334.75	21.79	-45.0	-47.5	18.2	0.00e+00	0	44	0	1055916032	60	5155
2026-01-12 10:32:04.64	334.82	21.66	-45.2	-47.8	18.0	0.00e+00	0	44	0	1058013184	61	4994
2026-01-12 10:32:05.64	334.88	21.52	-45.4	-48.0	17.8	0.00e+00	0	44	0	1060110336	61	5105
2026-01-12 10:32:06.64	334.94	21.39	-45.5	-48.1	17.7	0.00e+00	0	44	0	1061158912	61	5182
2026-01-12 10:32:07.65	335.00	21.25	-45.5	-48.1	17.7	0.00e+00	0	44	0	1063256064	61	5204
2026-01-12 10:32:08.64	335.06	21.12	-45.6	-48.2	17.6	0.00e+00	0	44	0	1065353216	61	5237
2026-01-12 10:32:09.64	335.12	20.99	-45.6	-48.2	17.6	0.00e+00	0	44	0	1067450368	61	5271
2026-01-12 10:32:10.64	335.17	20.86	-45.6	-48.2	17.6	0.00e+00	0	44	0	1068498944	61	5266
2026-01-12 10:32:11.64	335.23	20.72	-45.4	-48.0	17.8	0.00e+00	0	44	0	1070596096	61	5113
2026-01-12 10:32:12.64	335.29	20.59	-45.4	-48.0	17.7	0.00e+00	0	44	0	1072693248	61	5156
2026-01-12 10:32:13.64	335.35	20.46	-45.2	-47.9	17.9	0.00e+00	0	44	0	1074790400	61	5046
2026-01-12 10:32:14.64	335.40	20.33	-45.2	-47.8	17.9	0.00e+00	0	44	0	1076887552	61	5036
2026-01-12 10:32:15.64	335.46	20.21	-45.2	-47.8	17.9	0.00e+00	0	44	0	1077936128	61	5017
2026-01-12 10:32:16.64	335.52	20.08	-45.1	-47.8	17.9	0.00e+00	0	44	0	1080033280	61	5002
2026-01-12 10:32:17.64	335.57	19.95	-45.1	-47.7	18.1	0.00e+00	0	44	0	1082130432	61	4938
2026-01-12 10:32:18.64	335.63	19.82	-45.1	-47.7	18.0	0.00e+00	0	44	0	1084227584	61	4953
2026-01-12 10:32:19.64	335.68	19.70	-45.2	-47.8	18.0	0.00e+00	0	44	0	1086324736	61	4994
2026-01-12 10:32:20.64	335.74	19.57	-45.2	-47.8	17.9	0.00e+00	0	44	0	1087373312	61	5010
2026-01-12 10:32:21.64	335.79	19.45	-45.3	-47.9	17.8	0.00e+00	0	44	0	1089470464	61	5068
2026-01-12 10:32:22.64	335.84	19.32	-45.4	-48.1	17.7	0.00e+00	0	44	0	1091567616	61	5176
2026-01-12 10:32:23.64	335.90	19.20	-45.5	-48.1	17.6	0.00e+00	0	44	0	1093664768	61	5211
2026-01-12 10:32:24.64	335.95	19.08	-45.5	-48.1	17.7	0.00e+00	0	44	0	1095761920	61	5189
2026-01-12 10:32:25.64	336.00	18.95	-45.7	-48.3	17.5	0.00e+00	0	44	0	1096810496	62	5037
2026-01-12 10:32:26.64	336.05	18.83	-45.8	-48.5	17.3	0.00e+00	0	44	0	1098907648	62	5114
2026-01-12 10:32:27.64	336.10	18.71	-45.8	-48.5	17.3	0.00e+00	0	44	0	1101004800	62	5127
2026-01-12 10:32:28.64	336.16	18.59	-45.9	-48.6	17.2	0.00e+00	0	44	0	1103101952	62	5201
2026-01-12 10:32:29.64	336.21	18.47	-45.9	-48.6	17.1	0.00e+00	0	44	0	1104150528	62	5203
2026-01-12 10:32:30.64	336.26	18.35	-46.1	-49.0	16.9	0.00e+00	0	44	0	1106247680	62	5407
2026-01-12 10:32:31.65	336.31	18.23	-46.1	-49.0	16.9	0.00e+00	0	44	0	1108344832	62	5424
2026-01-12 10:32:32.65	336.36	18.11	-46.1	-49.2	16.7	0.00e+00	0	44	0	1110441984	62	5533
2026-01-12 10:32:33.65	336.41	18.00	-46.2	-49.3	16.5	0.00e+00	0	44	0	1112539136	63	5336
2026-01-12 10:32:34.65	336.45	17.88	-46.2	-49.3	16.5	0.00e+00	0	44	0	1113587712	63	5338
2026-01-12 10:32:35.65	336.50	17.76	-46.2	-49.4	16.4	0.00e+00	0	44	0	1115684864	63	5384
2026-01-12 10:32:36.65	336.55	17.64	-46.3	-49.5	16.3	0.00e+00	0	44	0	1117782016	63	5427
2026-01-12 10:32:37.65	336.60	17.53	-46.4	-49.7	16.2	0.00e+00	0	44	0	1119879168	63	5556
2026-01-12 10:32:38.66	336.65	17.41	-46.5	-49.7	16.2	0.00e+00	0	44	0	1121976320	63	5555
2026-01-12 10:32:39.66	336.69	17.30	-46.5	-49.7	16.2	0.00e+00	0	44	0	1123024896	63	5538
2026-01-12 10:32:40.66	336.74	17.18	-46.6	-49.7	16.1	0.00e+00	0	44	0	1125122048	63	5589
2026-01-12 10:32:41.66	336.79	17.07	-46.6	-49.8	16.0	0.00e+00	0	44	0	1127219200	64	5300
2026-01-12 10:32:42.65	336.83	16.96	-46.4	-49.4	16.4	0.00e+00	0	44	0	1129316352	64	5046
2026-01-12 10:32:43.65	336.88	16.85	-46.4	-49.4	16.4	0.00e+00	0	44	0	1130364928	64	5044
2026-01-12 10:32:44.66	336.93	16.73	-46.4	-49.4	16.4	0.00e+00	0	44	0	1132462080	64	5050
2026-01-12 10:32:45.65	336.97	16.62	-46.3	-49.1	16.6	0.00e+00	0	44	0	1134559232	64	4910
2026-01-12 10:32:46.65	337.02	16.51	-46.1	-49.0	16.7	0.00e+00	0	44	0	1136656384	64	4825
2026-01-12 10:32:47.66	337.06	16.40	-46.0	-48.8	16.8	0.00e+00	0	44	0	1138753536	64	4745
2026-01-12 10:32:48.65	337.10	16.29	-46.1	-48.9	16.9	0.00e+00	0	44	0	1139802112	63	5078
2026-01-12 10:32:49.66	337.15	16.18	-45.9	-48.7	17.1	0.00e+00	0	44	0	1141899264	63	4942
2026-01-12 10:32:50.66	337.19	16.07	-45.8	-48.5	17.2	0.00e+00	0	44	0	1143996416	63	4866
2026-01-12 10:32:51.66	337.24	15.96	-45.8	-48.7	17.1	0.00e+00	0	44	0	1146093568	63	4939
2026-01-12 10:32:52.66	337.28	15.85	-45.7	-48.5	17.2	0.00e+00	0	44	0	1148190720	63	4840
2026-01-12 10:32:53.67	337.32	15.75	-45.6	-48.4	17.4	0.00e+00	0	44	0	1149239296	63	4765
2026-01-12 10:32:54.67	337.37	15.64	-45.6	-48.4	17.3	0.00e+00	0	44	0	1151336448	63	4788
2026-01-12 10:32:55.67	337.41	15.53	-45.6	-48.3	17.4	0.00e+00	0	44	0	1153433600	63	4743
2026-01-12 10:32:56.68	337.45	15.42	-45.7	-48.4	17.3	0.00e+00	0	44	0	1155530752	63	4775
2026-01-12 10:32:57.68	337.49	15.32	-45.8	-48.5	17.2	0.00e+00	0	44	0	1157627904	63	4830
2026-01-12 10:32:58.68	337.54	15.21	-45.8	-48.5	17.2	0.00e+00	0	44	0	1158676480	63	4843
2026-01-12 10:32:59.68	337.58	15.11	-45.8	-48.6	17.1	0.00e+00	0	44	0	1160773632	63	4880
2026-01-12 10:33:00.68	337.62	15.00	-45.9	-48.6	17.1	0.00e+00	0	44	0	1162870784	63	4912
2026-01-12 10:33:01.69	337.66	14.90	-45.9	-48.7	16.9	0.00e+00	0	44	0	1164967936	63	4983
2026-01-12 10:33:02.69	337.70	14.79	-45.8	-48.7	17.0	0.00e+00	0	44	0	1167065088	63	4944
2026-01-12 10:33:03.69	337.74	14.69	-45.9	-48.8	16.9	0.00e+00	0	44	0	1168113664	63	5009
2026-01-12 10:33:04.69	337.78	14.59	-45.9	-48.9	16.8	0.00e+00	0	44	0	1170210816	63	5050
2026-01-12 10:33:05.69	337.82	14.49	-45.9	-48.9	16.8	0.00e+00	0	44	0	1172307968	63	5084
2026-01-12 10:33:06.69	337.86	14.38	-45.9	-48.9	16.8	0.00e+00	0	44	0	1174405120	63	5093
2026-01-12 10:33:07.69	337.90	14.28	-46.0	-49.2	16.6	0.00e+00	0	44	0	1175453696	63	5228
2026-01-12 10:33:08.69	337.94	14.18	-46.2	-49.4	16.3	0.00e+00	0	44	0	1177550848	63	5381
2026-01-12 10:33:09.69	337.98	14.08	-46.0	-49.2	16.5	0.00e+00	0	44	0	1179648000	63	5263
2026-01-12 10:33:10.70	338.02	13.98	-46.1	-49.3	16.4	0.00e+00	0	44	0	1181745152	63	5333
2026-01-12 10:33:11.70	338.05	13.88	-46.2	-49.4	16.2	0.00e+00	0	44	0	1183842304	63	5402
2026-01-12 10:33:12.70	338.09	13.78	-46.2	-49.4	16.3	0.00e+00	0	44	0	1184890880	63	5354
2026-01-12 10:33:13.70	338.13	13.68	-46.3	-49.5	16.3	0.00e+00	0	44	0	1186988032	63	5405
2026-01-12 10:33:14.70	338.17	13.58	-46.3	-49.5	16.1	0.00e+00	0	44	0	1189085184	63	5459
2026-01-12 10:33:15.70	338.21	13.48	-46.4	-49.6	16.2	0.00e+00	0	44	0	1191182336	63	5490
2026-01-12 10:33:16.71	338.24	13.38	-46.7	-50.0	15.6	0.00e+00	0	44	0	1193279488	64	5452
2026-01-12 10:33:17.70	338.28	13.29	-46.5	-49.8	15.9	0.00e+00	0	44	0	1194328064	64	5287
2026-01-12 10:33:18.70	338.32	13.19	-46.6	-49.9	15.7	0.00e+00	0	44	0	1196425216	64	5387
2026-01-12 10:33:19.71	338.35	13.09	-46.7	-50.0	15.6	0.00e+00	0	44	0	1198522368	64	5452
2026-01-12 10:33:20.70	338.39	13.00	-46.7	-50.1	15.5	0.00e+00	0	44	0	1200619520	64	5512
2026-01-12 10:33:21.70	338.43	12.90	-46.7	-50.1	15.6	0.00e+00	0	44	0	1202716672	64	5471
2026-01-12 10:33:22.70	338.46	12.81	-46.9	-50.4	15.3	0.00e+00	0	44	0	1203765248	64	5677
2026-01-12 10:33:23.71	338.50	12.71	-46.8	-50.3	15.3	0.00e+00	0	44	0	1205862400	64	5639
2026-01-12 10:33:24.71	338.53	12.62	-46.9	-50.5	15.2	0.00e+00	0	44	0	1207959552	64	5742
2026-01-12 10:33:25.71	338.57	12.52	-47.1	-50.9	14.8	0.00e+00	0	44	0	1210056704	64	6030
2026-01-12 10:33:26.71	338.60	12.43	-47.0	-50.7	15.0	0.00e+00	0	44	0	1211105280	64	5863
2026-01-12 10:33:27.71	338.64	12.33	-47.3	-51.1	14.5	0.00e+00	0	44	0	1213202432	65	5836
2026-01-12 10:33:28.71	338.67	12.24	-47.4	-51.3	14.3	7.00e-07	0	44	0	1215299584	65	5982
2026-01-12 10:33:29.71	338.71	12.15	-47.4	-51.3	14.4	2.20e-06	0	44	0	1217396736	65	5946
