passes_logs/2026/01/12/T1/T1__20260112_084249_SUOMI_NPP_rec.log

#Pass ID: 20260112_084249_SUOMI NPP
#Satellite: SUOMI NPP
#Configuration: NPP
#almurnet v.1.7.20251203
#Start time: 2026-01-12 08:42:49

#Version: 2.0.20230620
#Station: T1
#Location: 37.570604 lon 55.790049 lat
#TLE: 1 37849U 11061A   26011.29776829  .00000112  00000+0  74065-4 0  9999
#TLE: 2 37849  98.7807 313.3784 0002522  70.0451 290.0996 14.19524507736187

#Time	Az	El	Level	Level2	SNR	BER	BlckErr	Temp	State	Recorded	gain1	gain2
2026-01-12 08:42:49.00	119.69	5.00	-49.7	-65.1	3.8	1.49e+00	0	38	0	0	71	20656
2026-01-12 08:42:49.99	119.62	5.06	-49.7	-65.1	3.8	1.49e+00	0	38	104	0	71	20551
2026-01-12 08:42:50.99	119.56	5.13	-49.7	-65.0	3.8	1.49e+00	0	38	104	0	71	20529
2026-01-12 08:42:51.98	119.49	5.19	-49.7	-65.0	3.8	1.49e+00	0	38	104	0	71	20516
2026-01-12 08:42:52.98	119.42	5.26	-49.7	-65.0	3.8	1.49e+00	0	38	104	0	71	20517
2026-01-12 08:42:53.97	119.36	5.32	-49.7	-65.0	3.8	1.49e+00	0	38	104	0	71	20485
2026-01-12 08:42:54.96	119.29	5.39	-49.7	-65.0	3.8	1.49e+00	0	38	104	0	71	20458
2026-01-12 08:42:55.96	119.22	5.45	-49.7	-65.0	3.8	1.49e+00	0	38	104	0	71	20440
2026-01-12 08:42:56.95	119.16	5.52	-49.7	-65.0	3.8	1.49e+00	0	38	104	0	71	20344
2026-01-12 08:42:57.94	119.09	5.58	-49.7	-65.0	3.8	1.49e+00	0	38	104	0	71	20387
2026-01-12 08:42:58.94	119.02	5.65	-49.7	-64.9	3.8	1.49e+00	0	38	104	0	71	20277
2026-01-12 08:42:59.93	118.95	5.72	-49.7	-64.9	3.8	1.49e+00	0	38	104	0	71	20239
2026-01-12 08:43:00.92	118.89	5.78	-49.7	-65.0	3.8	1.49e+00	0	38	104	0	71	20332
2026-01-12 08:43:01.91	118.82	5.85	-49.7	-65.0	3.8	1.49e+00	0	38	104	0	71	20451
2026-01-12 08:43:02.91	118.75	5.91	-49.7	-65.0	3.8	1.49e+00	0	39	104	0	71	20400
2026-01-12 08:43:03.90	118.68	5.98	-49.7	-65.0	3.8	1.49e+00	0	38	104	0	71	20484
2026-01-12 08:43:04.89	118.61	6.05	-49.7	-65.1	3.8	1.49e+00	0	38	104	0	71	20561
2026-01-12 08:43:05.89	118.54	6.11	-49.7	-65.0	3.8	1.49e+00	0	39	104	0	71	20416
2026-01-12 08:43:06.88	118.47	6.18	-49.7	-65.0	3.8	1.49e+00	0	38	104	0	71	20525
2026-01-12 08:43:07.88	118.40	6.25	-49.7	-65.0	3.8	1.49e+00	0	39	104	0	71	20499
2026-01-12 08:43:08.87	118.33	6.31	-49.7	-65.0	3.8	1.49e+00	0	39	104	0	71	20470
2026-01-12 08:43:09.87	118.25	6.38	-49.7	-65.0	3.8	1.49e+00	0	39	104	0	71	20387
2026-01-12 08:43:10.86	118.18	6.45	-49.7	-64.9	3.8	1.49e+00	0	39	104	0	71	20247
2026-01-12 08:43:11.85	118.11	6.51	-49.7	-64.9	3.8	1.49e+00	0	39	104	0	71	20144
2026-01-12 08:43:12.85	118.04	6.58	-49.7	-64.9	3.8	1.49e+00	0	39	104	0	71	20126
2026-01-12 08:43:13.84	117.96	6.65	-49.7	-64.9	3.8	1.49e+00	0	39	104	0	71	20229
2026-01-12 08:43:14.83	117.89	6.72	-49.7	-65.0	3.8	1.49e+00	0	39	104	0	71	20365
2026-01-12 08:43:15.82	117.82	6.78	-49.7	-65.0	3.8	1.49e+00	0	39	104	0	71	20430
2026-01-12 08:43:16.82	117.74	6.85	-49.7	-65.0	3.8	1.49e+00	0	39	104	0	71	20469
2026-01-12 08:43:17.81	117.67	6.92	-49.7	-65.0	3.8	1.49e+00	0	39	104	0	71	20536
2026-01-12 08:43:18.80	117.60	6.99	-49.7	-65.0	3.9	1.49e+00	0	39	104	0	71	20527
2026-01-12 08:43:19.80	117.52	7.06	-49.7	-65.0	3.8	1.49e+00	0	39	104	0	71	20374
2026-01-12 08:43:20.79	117.45	7.12	-49.7	-64.9	3.8	1.49e+00	0	39	104	0	71	20170
2026-01-12 08:43:21.78	117.37	7.19	-49.7	-64.7	3.8	1.49e+00	0	39	104	0	71	19669
2026-01-12 08:43:22.78	117.29	7.26	-49.6	-64.3	3.8	1.49e+00	0	39	104	0	71	18826
2026-01-12 08:43:23.77	117.22	7.33	-49.6	-63.9	3.8	1.49e+00	0	39	104	0	71	18091
2026-01-12 08:43:24.76	117.14	7.40	-49.6	-63.7	3.8	1.49e+00	0	39	104	0	71	17600
2026-01-12 08:43:25.76	117.06	7.47	-49.6	-63.8	3.8	1.49e+00	0	39	104	0	71	17684
2026-01-12 08:43:26.75	116.99	7.54	-49.7	-64.0	3.8	1.49e+00	0	39	104	0	71	18176
2026-01-12 08:43:27.75	116.91	7.61	-49.7	-64.5	3.8	1.49e+00	0	39	104	0	71	19236
2026-01-12 08:43:28.74	116.83	7.68	-49.7	-64.9	3.8	1.49e+00	0	39	104	0	71	20189
2026-01-12 08:43:29.73	116.75	7.75	-49.7	-65.0	3.8	1.49e+00	0	39	104	0	71	20346
2026-01-12 08:43:30.73	116.67	7.82	-49.6	-63.8	3.8	1.49e+00	0	39	104	0	71	17879
2026-01-12 08:43:31.72	116.59	7.89	-49.4	-60.9	4.3	1.47e+00	0	39	0	0	70	13523
2026-01-12 08:43:32.71	116.51	7.96	-49.1	-58.1	5.9	5.08e-01	0	39	0	1048576	70	9798
2026-01-12 08:43:33.71	116.43	8.03	-48.6	-55.9	7.7	1.58e-01	0	39	0	3145728	69	8056
2026-01-12 08:43:34.70	116.35	8.10	-48.1	-54.3	9.3	3.78e-02	0	39	0	5242880	68	7101
2026-01-12 08:43:35.69	116.27	8.17	-47.7	-53.3	10.2	1.02e-02	0	39	0	7340032	67	6688
2026-01-12 08:43:36.69	116.19	8.24	-47.4	-52.6	11.0	1.87e-03	0	40	0	8388608	66	6515
2026-01-12 08:43:37.68	116.11	8.31	-47.2	-52.1	11.5	1.16e-03	0	39	0	10485760	66	6190
2026-01-12 08:43:38.68	116.02	8.38	-47.2	-52.2	11.4	7.84e-04	0	39	0	12582912	66	6232
2026-01-12 08:43:39.67	115.94	8.45	-47.2	-52.2	11.4	8.13e-04	0	39	0	14680064	66	6244
2026-01-12 08:43:40.66	115.86	8.52	-47.3	-52.5	11.1	1.14e-03	0	40	0	16777216	66	6483
2026-01-12 08:43:41.66	115.77	8.59	-47.7	-53.4	10.1	3.46e-03	0	40	0	17825792	66	7173
2026-01-12 08:43:42.65	115.69	8.67	-48.1	-54.5	9.0	1.14e-02	0	39	0	19922944	66	8149
2026-01-12 08:43:43.65	115.60	8.74	-48.5	-56.2	7.4	4.25e-02	0	40	0	22020096	67	9317
2026-01-12 08:43:44.64	115.52	8.81	-49.1	-58.6	5.5	3.13e-01	0	40	0	24117248	68	11637
2026-01-12 08:43:45.63	115.44	8.88	-49.4	-61.2	4.3	8.96e-01	0	40	0	25165824	69	14876
2026-01-12 08:43:46.63	115.35	8.95	-49.6	-63.8	3.8	1.47e+00	0	40	104	25165824	69	19849
2026-01-12 08:43:47.62	115.26	9.02	-49.7	-64.9	3.8	1.49e+00	0	40	104	25165824	69	22570
2026-01-12 08:43:48.62	115.18	9.10	-48.1	-53.9	5.5	1.49e+00	0	40	104	25165824	68	6788
2026-01-12 08:43:49.61	115.09	9.17	-48.1	-54.2	9.5	5.05e-04	0	40	0	26214400	66	7877
2026-01-12 08:43:50.61	115.00	9.24	-49.8	-64.9	3.8	2.29e-01	0	40	104	27262976	70	21457
2026-01-12 08:43:51.60	114.91	9.32	-49.7	-62.7	3.9	1.49e+00	0	40	104	27262976	70	16584
2026-01-12 08:43:52.60	114.82	9.39	-49.4	-58.9	5.7	3.82e-02	0	40	0	27262976	69	11377
2026-01-12 08:43:53.59	114.74	9.46	-49.0	-57.2	6.3	1.48e+00	0	40	104	28311552	70	8788
2026-01-12 08:43:54.73	114.63	9.55	-48.6	-55.3	8.6	2.15e-02	0	40	0	29360128	68	7920
2026-01-12 08:43:55.61	114.55	9.61	-48.6	-55.1	8.6	2.72e-02	0	40	0	31457280	68	7798
2026-01-12 08:43:56.93	114.43	9.71	-48.2	-53.9	9.9	1.61e-02	0	40	0	33554432	68	6736
2026-01-12 08:43:57.64	114.37	9.76	-48.1	-53.6	10.2	5.57e-03	0	40	0	34603008	68	6566
2026-01-12 08:43:58.91	114.25	9.86	-47.6	-52.7	11.0	4.42e-03	0	40	0	37748736	67	6247
2026-01-12 08:43:59.63	114.19	9.91	-47.3	-51.9	11.8	1.19e-03	0	40	0	38797312	66	6053
2026-01-12 08:44:01.22	114.04	10.03	-46.9	-51.1	12.8	7.70e-05	0	40	0	41943040	65	5810
2026-01-12 08:44:01.80	113.98	10.07	-46.9	-51.2	12.6	7.17e-05	0	40	0	42991616	65	5909
2026-01-12 08:44:03.54	113.82	10.20	-47.1	-51.5	12.3	1.37e-04	0	40	0	46137344	65	6110
2026-01-12 08:44:04.11	113.77	10.25	-47.2	-51.9	12.0	1.95e-04	0	40	0	47185920	65	6355
2026-01-12 08:44:05.80	113.61	10.37	-47.2	-51.8	12.0	2.55e-04	0	40	0	50331648	65	6291
2026-01-12 08:44:06.37	113.55	10.42	-47.0	-51.3	12.5	1.71e-04	0	40	0	51380224	65	5986
2026-01-12 08:44:08.07	113.39	10.54	-46.8	-51.0	12.8	6.63e-05	0	40	0	54525952	65	5776
2026-01-12 08:44:08.75	113.32	10.60	-46.8	-51.0	12.9	4.65e-05	0	40	0	55574528	65	5757
2026-01-12 08:44:10.17	113.18	10.70	-46.7	-50.7	13.1	1.75e-05	0	40	0	58720256	65	5579
2026-01-12 08:44:10.88	113.11	10.76	-46.9	-51.2	12.7	2.36e-05	0	40	0	59768832	65	5868
2026-01-12 08:44:12.16	112.99	10.86	-46.7	-50.9	13.0	3.73e-05	0	40	0	61865984	65	5666
2026-01-12 08:44:13.03	112.90	10.92	-46.7	-50.7	13.2	2.59e-05	0	40	0	63963136	65	5574
2026-01-12 08:44:14.17	112.79	11.01	-46.7	-50.7	13.2	5.72e-05	0	40	0	66060288	65	5592
2026-01-12 08:44:15.21	112.68	11.09	-46.7	-50.8	13.1	3.20e-05	0	40	0	68157440	65	5615
2026-01-12 08:44:16.16	112.59	11.16	-46.7	-50.9	13.0	1.29e-05	0	40	0	70254592	65	5683
2026-01-12 08:44:17.40	112.46	11.26	-46.5	-50.5	13.4	1.67e-05	0	40	0	72351744	65	5459
2026-01-12 08:44:18.26	112.37	11.33	-46.4	-50.2	13.6	1.37e-05	0	40	0	73400320	64	5592
2026-01-12 08:44:19.60	112.24	11.43	-46.6	-50.7	13.2	6.80e-06	0	40	0	76546048	64	5870
2026-01-12 08:44:20.72	112.12	11.52	-46.5	-50.5	13.4	1.98e-05	0	40	0	78643200	64	5771
2026-01-12 08:44:21.57	112.03	11.58	-46.6	-50.7	13.2	8.30e-06	0	40	0	79691776	64	5900
2026-01-12 08:44:22.71	111.91	11.67	-46.6	-50.6	13.3	1.98e-05	0	40	0	81788928	64	5855
2026-01-12 08:44:23.56	111.83	11.74	-46.5	-50.5	13.4	1.22e-05	0	40	0	83886080	64	5751
2026-01-12 08:44:24.70	111.71	11.83	-46.4	-50.3	13.7	1.44e-05	0	40	0	85983232	64	5609
2026-01-12 08:44:25.55	111.61	11.89	-46.4	-50.3	13.7	4.50e-06	0	40	0	87031808	64	5613
2026-01-12 08:44:26.69	111.49	11.98	-46.6	-50.8	13.2	6.10e-06	0	40	0	89128960	64	5936
2026-01-12 08:44:27.59	111.40	12.06	-46.8	-51.0	12.9	2.13e-05	0	40	0	91226112	64	6123
2026-01-12 08:44:28.82	111.26	12.15	-46.8	-51.1	12.8	5.95e-05	0	40	0	93323264	64	6191
2026-01-12 08:44:29.67	111.17	12.22	-46.9	-51.3	12.7	1.01e-04	0	40	0	95420416	64	6329
2026-01-12 08:44:30.81	111.05	12.31	-46.7	-50.8	13.2	5.49e-05	0	40	0	97517568	64	5983
2026-01-12 08:44:31.69	110.95	12.38	-46.3	-50.2	13.8	1.44e-05	0	40	0	98566144	64	5537
2026-01-12 08:44:33.00	110.81	12.48	-46.2	-49.9	14.1	3.80e-06	0	40	0	101711872	64	5353
2026-01-12 08:44:33.71	110.73	12.54	-46.1	-49.8	14.2	2.20e-06	0	40	0	102760448	64	5290
2026-01-12 08:44:34.99	110.59	12.64	-46.1	-49.8	14.2	0.00e+00	0	40	0	104857600	64	5290
2026-01-12 08:44:35.71	110.50	12.70	-46.1	-49.8	14.2	1.50e-06	0	40	0	105906176	64	5300
2026-01-12 08:44:37.22	110.33	12.82	-46.3	-50.1	13.9	3.80e-06	0	40	0	109051904	64	5504
2026-01-12 08:44:37.93	110.25	12.88	-46.5	-50.5	13.5	8.30e-06	0	40	0	110100480	64	5742
2026-01-12 08:44:39.27	110.10	12.99	-46.5	-50.5	13.5	6.10e-06	0	40	0	113246208	64	5725
2026-01-12 08:44:39.99	110.02	13.05	-46.3	-50.1	13.9	4.50e-06	0	40	0	114294784	64	5499
2026-01-12 08:44:41.27	109.87	13.15	-46.1	-49.7	14.3	3.00e-06	0	40	0	116391936	64	5275
2026-01-12 08:44:42.28	109.75	13.23	-45.9	-49.4	14.6	0.00e+00	0	40	0	118489088	63	5352
2026-01-12 08:44:43.28	109.64	13.31	-46.0	-49.4	14.7	0.00e+00	0	40	0	120586240	63	5386
2026-01-12 08:44:44.27	109.52	13.39	-46.2	-49.8	14.3	1.50e-06	0	40	0	122683392	63	5608
2026-01-12 08:44:45.27	109.40	13.48	-46.5	-50.3	13.8	2.20e-06	0	40	0	124780544	63	5953
2026-01-12 08:44:46.26	109.28	13.56	-46.5	-50.4	13.7	3.80e-06	0	40	0	125829120	63	6015
2026-01-12 08:44:47.26	109.16	13.64	-46.6	-50.5	13.6	1.37e-05	0	40	0	127926272	63	6119
2026-01-12 08:44:48.26	109.04	13.72	-46.7	-50.6	13.6	1.50e-06	0	40	0	130023424	63	6151
2026-01-12 08:44:49.25	108.92	13.80	-46.6	-50.4	13.7	3.80e-06	0	40	0	132120576	63	6030
2026-01-12 08:44:50.25	108.80	13.88	-46.5	-50.3	13.8	4.50e-06	0	40	0	133169152	63	5978
2026-01-12 08:44:51.24	108.68	13.97	-46.6	-50.5	13.7	6.10e-06	0	40	0	135266304	63	6066
2026-01-12 08:44:52.24	108.56	14.05	-46.7	-50.6	13.5	3.80e-06	0	40	0	137363456	63	6141
2026-01-12 08:44:53.40	108.42	14.14	-46.7	-50.6	13.4	9.10e-06	0	40	0	139460608	64	5831
2026-01-12 08:44:54.29	108.30	14.22	-46.6	-50.6	13.4	9.90e-06	0	40	0	141557760	64	5822
2026-01-12 08:44:55.61	108.14	14.33	-46.6	-50.6	13.5	1.83e-05	0	40	0	143654912	64	5795
2026-01-12 08:44:56.32	108.05	14.39	-46.8	-50.9	13.2	1.06e-05	0	40	0	144703488	64	6002
2026-01-12 08:44:57.60	107.89	14.49	-46.8	-50.9	13.2	2.21e-05	0	40	0	147849216	64	6007
2026-01-12 08:44:58.33	107.79	14.55	-46.5	-50.4	13.6	3.50e-05	0	40	0	148897792	64	5699
2026-01-12 08:44:59.61	107.63	14.66	-46.8	-50.8	13.3	1.67e-05	0	40	0	150994944	64	5955
2026-01-12 08:45:00.32	107.54	14.72	-46.5	-50.4	13.7	1.06e-05	0	40	0	152043520	64	5686
2026-01-12 08:45:01.60	107.37	14.83	-46.3	-50.0	14.1	7.00e-07	0	40	0	155189248	64	5422
2026-01-12 08:45:02.32	107.28	14.89	-46.3	-50.1	14.0	3.00e-06	0	40	0	156237824	64	5472
2026-01-12 08:45:03.60	107.11	15.00	-46.0	-49.5	14.5	2.20e-06	0	40	0	158334976	64	5138
2026-01-12 08:45:04.49	106.99	15.07	-46.0	-49.5	14.6	7.00e-07	0	40	0	160432128	64	5143
2026-01-12 08:45:05.62	106.84	15.17	-46.1	-49.7	14.4	7.00e-07	0	40	0	162529280	64	5220
2026-01-12 08:45:06.48	106.73	15.24	-46.0	-49.4	14.8	7.00e-07	0	40	0	163577856	63	5358
2026-01-12 08:45:07.61	106.58	15.34	-46.3	-49.9	14.3	0.00e+00	0	40	0	166723584	63	5688
2026-01-12 08:45:08.72	106.43	15.43	-46.0	-49.5	14.7	7.00e-07	0	40	0	168820736	63	5409
2026-01-12 08:45:09.75	106.29	15.52	-45.9	-49.3	14.9	0.00e+00	0	40	0	169869312	63	5294
2026-01-12 08:45:10.93	106.13	15.62	-45.7	-48.9	15.2	0.00e+00	0	40	0	171966464	63	5079
2026-01-12 08:45:11.80	106.01	15.69	-45.5	-48.6	15.6	0.00e+00	0	41	0	174063616	63	4885
2026-01-12 08:45:13.11	105.83	15.80	-45.9	-49.2	15.0	0.00e+00	0	40	0	176160768	63	5241
2026-01-12 08:45:13.83	105.73	15.87	-46.0	-49.4	14.8	0.00e+00	0	40	0	178257920	63	5374
2026-01-12 08:45:15.10	105.55	15.98	-45.9	-49.3	14.9	0.00e+00	0	40	0	180355072	63	5290
2026-01-12 08:45:15.82	105.45	16.04	-45.9	-49.3	14.9	0.00e+00	0	40	0	181403648	63	5282
2026-01-12 08:45:17.09	105.27	16.15	-45.5	-48.6	15.6	0.00e+00	0	40	0	183500800	63	4910
2026-01-12 08:45:17.81	105.16	16.21	-45.5	-48.7	15.5	0.00e+00	0	40	0	185597952	63	4951
2026-01-12 08:45:19.09	104.98	16.32	-45.6	-48.8	15.4	0.00e+00	0	40	0	187695104	63	5014
2026-01-12 08:45:19.81	104.88	16.38	-45.5	-48.6	15.6	0.00e+00	0	40	0	188743680	62	5171
2026-01-12 08:45:21.09	104.69	16.49	-45.7	-48.9	15.2	0.00e+00	0	40	0	191889408	62	5398
2026-01-12 08:45:21.96	104.56	16.57	-45.7	-48.9	15.3	0.00e+00	0	40	0	192937984	62	5361
2026-01-12 08:45:23.09	104.40	16.67	-45.5	-48.6	15.6	0.00e+00	0	40	0	195035136	62	5208
2026-01-12 08:45:24.15	104.24	16.76	-45.6	-48.8	15.4	0.00e+00	0	40	0	197132288	62	5309
2026-01-12 08:45:25.04	104.11	16.84	-45.4	-48.4	15.7	0.00e+00	0	40	0	199229440	62	5100
2026-01-12 08:45:26.17	103.94	16.93	-45.4	-48.5	15.7	0.00e+00	0	40	0	201326592	62	5150
2026-01-12 08:45:27.03	103.81	17.01	-45.5	-48.6	15.6	0.00e+00	0	40	0	202375168	62	5204
2026-01-12 08:45:28.16	103.64	17.11	-45.6	-48.8	15.4	0.00e+00	0	40	0	204472320	62	5301
2026-01-12 08:45:29.02	103.51	17.18	-45.6	-48.7	15.5	0.00e+00	0	40	0	206569472	62	5271
2026-01-12 08:45:30.16	103.33	17.28	-45.5	-48.7	15.5	0.00e+00	0	40	0	208666624	62	5219
2026-01-12 08:45:31.01	103.20	17.36	-45.6	-48.7	15.5	0.00e+00	0	40	0	209715200	62	5279
2026-01-12 08:45:32.15	103.03	17.46	-45.6	-48.8	15.4	0.00e+00	0	40	0	211812352	62	5288
2026-01-12 08:45:33.00	102.90	17.53	-45.5	-48.5	15.6	0.00e+00	0	41	0	213909504	62	5148
2026-01-12 08:45:34.14	102.72	17.63	-45.7	-49.0	15.2	0.00e+00	0	40	0	216006656	62	5417
2026-01-12 08:45:34.99	102.58	17.71	-45.8	-49.1	15.2	0.00e+00	0	40	0	217055232	62	5467
2026-01-12 08:45:36.13	102.40	17.81	-45.8	-49.1	15.1	0.00e+00	0	41	0	219152384	62	5510
2026-01-12 08:45:36.98	102.27	17.88	-45.8	-49.0	15.2	0.00e+00	0	40	0	221249536	62	5443
2026-01-12 08:45:38.12	102.08	17.98	-45.6	-48.8	15.5	0.00e+00	0	41	0	223346688	62	5280
2026-01-12 08:45:39.03	101.94	18.06	-45.7	-48.9	15.3	0.00e+00	0	41	0	225443840	62	5372
2026-01-12 08:45:40.03	101.77	18.15	-45.6	-48.7	15.5	0.00e+00	0	41	0	226492416	62	5234
2026-01-12 08:45:41.03	101.61	18.24	-45.5	-48.6	15.6	0.00e+00	0	41	0	228589568	62	5160
2026-01-12 08:45:42.02	101.45	18.33	-45.7	-48.8	15.4	7.00e-07	0	41	0	230686720	62	5324
2026-01-12 08:45:43.02	101.28	18.42	-45.9	-49.2	15.1	0.00e+00	0	41	0	232783872	62	5529
2026-01-12 08:45:44.01	101.12	18.50	-45.8	-48.9	15.2	0.00e+00	0	40	0	234881024	62	5398
2026-01-12 08:45:45.01	100.95	18.59	-45.7	-48.9	15.4	0.00e+00	0	41	0	235929600	62	5347
2026-01-12 08:45:46.00	100.79	18.68	-45.6	-48.7	15.5	0.00e+00	0	41	0	238026752	62	5256
2026-01-12 08:45:47.00	100.62	18.77	-45.7	-48.9	15.4	0.00e+00	0	40	0	240123904	62	5346
2026-01-12 08:45:47.99	100.45	18.86	-45.8	-49.1	15.2	0.00e+00	0	41	0	242221056	62	5474
2026-01-12 08:45:48.99	100.28	18.95	-46.0	-49.3	14.9	0.00e+00	0	40	0	243269632	63	5333
2026-01-12 08:45:49.98	100.11	19.04	-46.2	-49.6	14.7	0.00e+00	0	41	0	245366784	63	5503
2026-01-12 08:45:51.00	99.93	19.13	-46.4	-50.0	14.3	0.00e+00	0	41	0	247463936	63	5740
2026-01-12 08:45:51.99	99.76	19.22	-46.4	-50.0	14.3	7.00e-07	0	41	0	249561088	63	5733
2026-01-12 08:45:52.99	99.58	19.30	-45.9	-49.3	15.0	7.00e-07	0	41	0	251658240	63	5287
2026-01-12 08:45:53.98	99.41	19.39	-46.0	-49.4	14.8	0.00e+00	0	41	0	252706816	63	5390
2026-01-12 08:45:54.98	99.23	19.48	-46.1	-49.6	14.7	0.00e+00	0	41	0	254803968	63	5503
2026-01-12 08:45:55.97	99.06	19.57	-46.4	-50.0	14.3	0.00e+00	0	41	0	256901120	63	5781
2026-01-12 08:45:56.97	98.88	19.66	-46.5	-50.3	14.0	2.20e-06	0	40	0	258998272	63	5978
2026-01-12 08:45:57.96	98.70	19.75	-46.5	-50.4	13.8	6.80e-06	0	41	0	261095424	64	5692
2026-01-12 08:45:58.96	98.52	19.84	-46.2	-49.8	14.4	7.00e-07	0	41	0	262144000	64	5297
2026-01-12 08:45:59.95	98.34	19.93	-46.0	-49.4	14.9	7.00e-07	0	41	0	264241152	63	5366
2026-01-12 08:46:00.95	98.15	20.02	-46.0	-49.3	15.0	0.00e+00	0	41	0	266338304	63	5313
2026-01-12 08:46:01.94	97.97	20.10	-46.0	-49.3	15.0	0.00e+00	0	41	0	268435456	63	5312
2026-01-12 08:46:02.94	97.78	20.19	-46.1	-49.6	14.8	0.00e+00	0	41	0	269484032	63	5469
2026-01-12 08:46:03.93	97.60	20.28	-46.2	-49.7	14.6	7.00e-07	0	41	0	271581184	63	5533
2026-01-12 08:46:04.93	97.41	20.37	-46.1	-49.4	14.9	0.00e+00	0	41	0	273678336	63	5385
2026-01-12 08:46:05.92	97.22	20.46	-46.4	-49.9	14.4	1.50e-06	0	41	0	275775488	63	5720
2026-01-12 08:46:06.93	97.03	20.55	-46.3	-49.8	14.5	7.00e-07	0	41	0	277872640	63	5632
2026-01-12 08:46:07.98	96.83	20.65	-46.3	-49.9	14.5	0.00e+00	0	41	0	278921216	63	5659
2026-01-12 08:46:08.94	96.65	20.73	-46.3	-49.9	14.4	7.00e-07	0	41	0	281018368	63	5687
2026-01-12 08:46:09.93	96.45	20.82	-46.5	-50.1	14.2	7.00e-07	0	41	0	283115520	63	5850
2026-01-12 08:46:10.92	96.26	20.91	-46.3	-49.9	14.4	0.00e+00	0	40	0	285212672	63	5718
2026-01-12 08:46:11.92	96.07	21.00	-46.2	-49.7	14.6	0.00e+00	0	41	0	287309824	63	5584
2026-01-12 08:46:12.92	95.87	21.09	-46.0	-49.4	14.9	0.00e+00	0	41	0	288358400	63	5369
2026-01-12 08:46:13.91	95.67	21.18	-46.1	-49.5	14.8	0.00e+00	0	41	0	290455552	63	5446
2026-01-12 08:46:14.91	95.47	21.26	-45.7	-48.8	15.5	0.00e+00	0	41	0	292552704	63	5031
2026-01-12 08:46:15.90	95.28	21.35	-45.7	-48.8	15.4	0.00e+00	0	41	0	294649856	63	5038
2026-01-12 08:46:16.90	95.07	21.44	-45.6	-48.8	15.5	0.00e+00	0	41	0	295698432	63	5021
2026-01-12 08:46:17.89	94.87	21.53	-45.8	-49.0	15.3	7.00e-07	0	41	0	297795584	63	5145
2026-01-12 08:46:18.88	94.67	21.62	-45.9	-49.2	15.1	0.00e+00	0	41	0	299892736	63	5265
2026-01-12 08:46:19.88	94.47	21.71	-45.7	-49.0	15.3	0.00e+00	0	41	0	301989888	63	5106
2026-01-12 08:46:20.87	94.26	21.79	-45.8	-49.0	15.3	0.00e+00	0	41	0	304087040	63	5136
2026-01-12 08:46:21.88	94.05	21.88	-45.7	-48.9	15.5	0.00e+00	0	41	0	305135616	63	5065
2026-01-12 08:46:22.89	93.84	21.97	-45.9	-49.2	15.1	0.00e+00	0	41	0	307232768	63	5271
2026-01-12 08:46:23.89	93.63	22.06	-45.8	-49.1	15.2	0.00e+00	0	41	0	309329920	63	5185
2026-01-12 08:46:24.95	93.41	22.16	-45.9	-49.2	15.2	0.00e+00	0	41	0	311427072	63	5221
2026-01-12 08:46:25.85	93.22	22.24	-45.9	-49.2	15.1	0.00e+00	0	41	0	312475648	63	5231
2026-01-12 08:46:26.88	93.00	22.33	-45.6	-48.8	15.5	0.00e+00	0	41	0	314572800	63	5017
2026-01-12 08:46:27.87	92.79	22.41	-45.4	-48.5	15.8	0.00e+00	0	41	0	316669952	62	5142
2026-01-12 08:46:28.87	92.57	22.50	-45.1	-48.0	16.2	0.00e+00	0	41	0	318767104	62	4852
2026-01-12 08:46:29.87	92.35	22.59	-45.1	-48.1	16.2	0.00e+00	0	41	0	320864256	62	4889
2026-01-12 08:46:30.86	92.14	22.68	-44.9	-47.8	16.4	0.00e+00	0	41	0	321912832	61	5026
2026-01-12 08:46:31.86	91.92	22.76	-44.6	-47.4	16.8	0.00e+00	0	41	0	324009984	61	4772
2026-01-12 08:46:32.85	91.70	22.85	-44.4	-47.1	17.1	0.00e+00	0	41	0	326107136	60	4902
2026-01-12 08:46:33.85	91.48	22.94	-44.4	-47.0	17.2	0.00e+00	0	41	0	328204288	60	4826
2026-01-12 08:46:34.84	91.26	23.02	-44.5	-47.2	17.0	0.00e+00	0	41	0	329252864	60	4980
2026-01-12 08:46:35.83	91.03	23.11	-44.8	-47.6	16.6	0.00e+00	0	41	0	331350016	60	5202
2026-01-12 08:46:36.83	90.81	23.20	-44.9	-47.8	16.5	0.00e+00	0	41	0	333447168	60	5316
2026-01-12 08:46:37.82	90.58	23.28	-45.0	-48.0	16.3	0.00e+00	0	41	0	335544320	60	5445
2026-01-12 08:46:38.82	90.35	23.37	-45.1	-48.1	16.1	0.00e+00	0	41	0	337641472	60	5510
2026-01-12 08:46:39.81	90.13	23.45	-45.0	-48.0	16.3	0.00e+00	0	41	0	338690048	61	5138
2026-01-12 08:46:40.81	89.90	23.54	-45.0	-48.0	16.3	0.00e+00	0	41	0	340787200	61	5157
2026-01-12 08:46:41.80	89.67	23.62	-45.1	-48.2	16.2	0.00e+00	0	41	0	342884352	61	5236
2026-01-12 08:46:42.80	89.43	23.71	-45.0	-48.0	16.3	0.00e+00	0	41	0	344981504	61	5128
2026-01-12 08:46:43.79	89.20	23.79	-44.9	-47.8	16.5	0.00e+00	0	41	0	346030080	61	5023
2026-01-12 08:46:44.79	88.97	23.88	-44.7	-47.5	16.8	0.00e+00	0	41	0	348127232	61	4829
2026-01-12 08:46:45.78	88.73	23.96	-44.7	-47.4	16.8	0.00e+00	0	41	0	350224384	61	4812
2026-01-12 08:46:46.77	88.49	24.05	-44.5	-47.2	17.1	0.00e+00	0	41	0	352321536	61	4680
2026-01-12 08:46:47.77	88.25	24.13	-44.3	-47.0	17.2	0.00e+00	0	41	0	354418688	60	4857
2026-01-12 08:46:48.76	88.02	24.21	-44.5	-47.2	17.1	0.00e+00	0	41	0	355467264	60	4957
2026-01-12 08:46:49.76	87.77	24.30	-44.8	-47.7	16.6	0.00e+00	0	41	0	357564416	60	5226
2026-01-12 08:46:50.75	87.53	24.38	-44.8	-47.7	16.5	0.00e+00	0	41	0	359661568	60	5276
2026-01-12 08:46:51.84	87.27	24.47	-44.9	-47.8	16.5	0.00e+00	0	41	0	361758720	60	5314
2026-01-12 08:46:52.72	87.05	24.54	-44.8	-47.7	16.6	0.00e+00	0	41	0	362807296	60	5264
2026-01-12 08:46:53.86	86.77	24.64	-44.8	-47.8	16.5	0.00e+00	0	41	0	365953024	60	5289
2026-01-12 08:46:54.71	86.56	24.71	-44.8	-47.7	16.5	0.00e+00	0	41	0	367001600	60	5279
2026-01-12 08:46:55.85	86.27	24.80	-45.0	-47.9	16.4	0.00e+00	0	41	0	369098752	60	5394
2026-01-12 08:46:56.70	86.06	24.87	-44.8	-47.7	16.6	0.00e+00	0	41	0	371195904	60	5253
2026-01-12 08:46:57.84	85.77	24.96	-44.7	-47.5	16.7	0.00e+00	0	41	0	373293056	60	5142
2026-01-12 08:46:58.69	85.55	25.03	-44.6	-47.5	16.8	0.00e+00	0	41	0	374341632	60	5124
2026-01-12 08:46:59.82	85.26	25.12	-44.8	-47.8	16.5	0.00e+00	0	41	0	376438784	60	5309
2026-01-12 08:47:00.68	85.04	25.19	-44.8	-47.8	16.5	0.00e+00	0	41	0	378535936	60	5288
2026-01-12 08:47:01.81	84.75	25.28	-44.4	-47.3	16.9	0.00e+00	0	41	0	380633088	60	4999
2026-01-12 08:47:02.67	84.53	25.35	-44.3	-47.2	17.0	0.00e+00	0	41	0	381681664	60	4958
2026-01-12 08:47:03.81	84.23	25.44	-44.3	-47.2	17.0	0.00e+00	0	41	0	383778816	60	4943
2026-01-12 08:47:04.66	84.01	25.50	-44.4	-47.3	16.9	0.00e+00	0	41	0	385875968	60	5014
2026-01-12 08:47:05.87	83.69	25.60	-44.6	-47.5	16.7	0.00e+00	0	41	0	387973120	60	5142
2026-01-12 08:47:06.73	83.46	25.66	-44.6	-47.6	16.6	0.00e+00	0	41	0	390070272	60	5193
2026-01-12 08:47:07.87	83.16	25.75	-45.0	-48.2	16.1	0.00e+00	0	41	0	392167424	60	5554
2026-01-12 08:47:08.72	82.93	25.82	-45.1	-48.2	16.1	0.00e+00	0	41	0	393216000	61	5249
2026-01-12 08:47:09.85	82.63	25.90	-45.0	-48.1	16.2	0.00e+00	0	41	0	395313152	61	5172
2026-01-12 08:47:10.71	82.40	25.97	-44.9	-48.0	16.3	0.00e+00	0	41	0	397410304	61	5130
2026-01-12 08:47:11.85	82.09	26.05	-45.0	-48.2	16.1	0.00e+00	0	41	0	399507456	61	5228
2026-01-12 08:47:12.79	81.83	26.12	-45.0	-48.0	16.2	0.00e+00	0	41	0	400556032	61	5130
2026-01-12 08:47:13.98	81.51	26.21	-45.0	-48.1	16.2	0.00e+00	0	41	0	402653184	61	5193
2026-01-12 08:47:14.83	81.28	26.27	-45.0	-48.0	16.3	0.00e+00	0	41	0	404750336	61	5144
2026-01-12 08:47:15.97	80.96	26.36	-45.1	-48.2	16.1	0.00e+00	0	41	0	406847488	61	5237
2026-01-12 08:47:16.82	80.72	26.42	-45.4	-48.6	15.7	0.00e+00	0	41	0	408944640	61	5473
2026-01-12 08:47:17.96	80.41	26.50	-45.6	-48.9	15.4	0.00e+00	0	41	0	411041792	61	5691
2026-01-12 08:47:18.81	80.17	26.56	-45.6	-49.0	15.3	0.00e+00	0	41	0	412090368	62	5439
2026-01-12 08:47:19.95	79.85	26.64	-45.4	-48.7	15.6	0.00e+00	0	41	0	414187520	62	5267
2026-01-12 08:47:20.80	79.61	26.70	-45.3	-48.5	15.8	0.00e+00	0	41	0	416284672	62	5140
2026-01-12 08:47:21.94	79.28	26.78	-45.2	-48.4	15.9	0.00e+00	0	41	0	418381824	62	5084
2026-01-12 08:47:22.77	79.05	26.84	-45.3	-48.5	15.8	0.00e+00	0	41	0	419430400	62	5134
2026-01-12 08:47:23.91	78.72	26.91	-45.0	-48.1	16.2	0.00e+00	0	41	0	421527552	62	4907
2026-01-12 08:47:24.76	78.48	26.97	-45.0	-48.1	16.3	0.00e+00	0	41	0	423624704	62	4871
2026-01-12 08:47:25.96	78.13	27.05	-45.0	-48.0	16.3	0.00e+00	0	41	0	425721856	62	4823
2026-01-12 08:47:26.82	77.88	27.11	-45.0	-48.1	16.2	0.00e+00	0	41	0	426770432	61	5170
2026-01-12 08:47:28.00	77.54	27.19	-45.1	-48.1	16.1	0.00e+00	0	41	0	429916160	61	5194
2026-01-12 08:47:28.86	77.29	27.24	-45.1	-48.1	16.2	0.00e+00	0	41	0	430964736	61	5199
2026-01-12 08:47:29.99	76.96	27.32	-45.3	-48.5	15.8	0.00e+00	0	41	0	433061888	61	5419
2026-01-12 08:47:30.84	76.71	27.37	-45.2	-48.3	16.0	0.00e+00	0	41	0	435159040	61	5284
2026-01-12 08:47:32.08	76.34	27.45	-45.1	-48.2	16.2	0.00e+00	0	41	0	437256192	61	5223
2026-01-12 08:47:32.93	76.09	27.50	-45.1	-48.1	16.2	0.00e+00	0	41	0	438304768	61	5171
2026-01-12 08:47:34.07	75.75	27.57	-45.2	-48.3	16.0	0.00e+00	0	41	0	440401920	61	5321
2026-01-12 08:47:34.92	75.49	27.62	-45.2	-48.4	15.9	0.00e+00	0	41	0	442499072	61	5342
2026-01-12 08:47:36.06	75.15	27.69	-45.3	-48.4	15.9	0.00e+00	0	41	0	444596224	61	5380
2026-01-12 08:47:36.91	74.89	27.74	-45.3	-48.4	15.9	0.00e+00	0	41	0	446693376	61	5370
2026-01-12 08:47:38.04	74.55	27.81	-45.1	-48.1	16.2	0.00e+00	0	41	0	448790528	61	5187
2026-01-12 08:47:39.01	74.26	27.86	-45.3	-48.3	16.0	0.00e+00	0	41	0	449839104	61	5332
2026-01-12 08:47:40.00	73.95	27.92	-45.4	-48.5	15.8	0.00e+00	0	41	0	451936256	61	5464
2026-01-12 08:47:41.00	73.65	27.98	-45.6	-48.9	15.4	0.00e+00	0	41	0	454033408	61	5677
2026-01-12 08:47:41.99	73.34	28.03	-45.7	-49.1	15.3	0.00e+00	0	41	0	456130560	62	5485
2026-01-12 08:47:42.99	73.04	28.09	-45.8	-49.2	15.1	0.00e+00	0	41	0	457179136	62	5563
2026-01-12 08:47:43.98	72.73	28.14	-45.6	-48.9	15.4	0.00e+00	0	41	0	459276288	62	5389
2026-01-12 08:47:44.98	72.42	28.19	-45.5	-48.7	15.6	0.00e+00	0	41	0	461373440	62	5248
2026-01-12 08:47:45.97	72.11	28.24	-45.5	-48.7	15.6	0.00e+00	0	41	0	463470592	62	5233
2026-01-12 08:47:46.97	71.80	28.29	-45.4	-48.6	15.7	0.00e+00	0	41	0	464519168	62	5184
2026-01-12 08:47:47.96	71.49	28.34	-45.3	-48.4	15.9	0.00e+00	0	41	0	466616320	62	5080
2026-01-12 08:47:48.96	71.18	28.39	-45.1	-48.1	16.3	0.00e+00	0	41	0	468713472	62	4890
2026-01-12 08:47:49.95	70.86	28.44	-45.3	-48.4	15.9	0.00e+00	0	41	0	470810624	62	5088
2026-01-12 08:47:50.95	70.55	28.49	-45.3	-48.4	16.0	0.00e+00	0	41	0	472907776	62	5045
2026-01-12 08:47:51.94	70.23	28.54	-45.3	-48.4	16.0	0.00e+00	0	41	0	473956352	62	5052
2026-01-12 08:47:53.06	69.88	28.59	-45.5	-48.6	15.7	0.00e+00	0	41	0	476053504	62	5183
2026-01-12 08:47:53.92	69.60	28.63	-45.6	-48.7	15.6	0.00e+00	0	41	0	478150656	62	5278
2026-01-12 08:47:55.05	69.24	28.68	-46.1	-49.5	14.9	0.00e+00	0	41	0	480247808	62	5770
2026-01-12 08:47:55.91	68.97	28.71	-46.4	-50.1	14.3	1.50e-06	0	41	0	481296384	63	5795
2026-01-12 08:47:57.04	68.60	28.76	-46.5	-50.3	14.1	7.00e-07	0	41	0	484442112	63	5953
2026-01-12 08:47:57.90	68.33	28.80	-46.4	-50.1	14.2	3.00e-06	0	41	0	485490688	64	5516
2026-01-12 08:47:59.03	67.96	28.84	-46.6	-50.5	13.8	1.50e-06	0	41	0	487587840	64	5775
2026-01-12 08:47:59.88	67.69	28.88	-46.7	-50.6	13.7	7.00e-07	0	41	0	489684992	64	5821
2026-01-12 08:48:01.02	67.32	28.92	-46.8	-50.9	13.4	1.06e-05	0	41	0	491782144	64	6007
2026-01-12 08:48:02.25	66.92	28.97	-46.6	-50.5	13.8	6.80e-06	0	41	0	493879296	64	5777
2026-01-12 08:48:03.11	66.64	29.00	-46.7	-50.8	13.5	3.00e-06	0	41	0	494927872	64	5940
2026-01-12 08:48:04.61	66.14	29.05	-46.8	-51.0	13.3	1.90e-05	0	41	0	498073600	64	6103
2026-01-12 08:48:05.32	65.91	29.08	-46.8	-50.9	13.4	3.81e-05	0	41	0	499122176	64	6032
2026-01-12 08:48:06.60	65.49	29.12	-46.4	-50.3	14.0	3.00e-06	0	41	0	502267904	64	5606
2026-01-12 08:48:07.32	65.25	29.14	-46.2	-49.8	14.4	1.50e-06	0	41	0	503316480	64	5321
2026-01-12 08:48:08.60	64.83	29.18	-46.0	-49.5	14.9	0.00e+00	0	41	0	505413632	63	5425
2026-01-12 08:48:09.31	64.60	29.20	-46.1	-49.7	14.7	0.00e+00	0	41	0	506462208	63	5544
2026-01-12 08:48:10.60	64.17	29.24	-46.3	-50.0	14.3	0.00e+00	0	41	0	509607936	63	5783
2026-01-12 08:48:11.32	63.93	29.26	-46.5	-50.3	14.1	0.00e+00	0	41	0	510656512	63	5944
2026-01-12 08:48:12.60	63.51	29.29	-46.7	-50.7	13.6	6.10e-06	0	41	0	512753664	64	5906
2026-01-12 08:48:13.32	63.27	29.31	-46.5	-50.5	13.8	5.30e-06	0	41	0	514850816	64	5779
2026-01-12 08:48:14.60	62.84	29.34	-46.5	-50.5	13.8	4.50e-06	0	41	0	516947968	64	5725
2026-01-12 08:48:15.33	62.59	29.36	-46.5	-50.5	13.8	4.50e-06	0	41	0	517996544	64	5726
2026-01-12 08:48:16.61	62.17	29.39	-46.4	-50.3	14.0	1.50e-06	0	41	0	520093696	64	5615
2026-01-12 08:48:17.54	61.86	29.41	-46.2	-50.0	14.2	2.20e-06	0	41	0	522190848	64	5440
2026-01-12 08:48:18.54	61.52	29.43	-46.3	-50.2	14.1	7.00e-07	0	41	0	524288000	64	5549
2026-01-12 08:48:19.53	61.19	29.45	-46.6	-50.7	13.6	6.10e-06	0	41	0	526385152	64	5899
2026-01-12 08:48:20.53	60.85	29.47	-46.8	-51.1	13.1	9.10e-06	0	41	0	527433728	64	6200
2026-01-12 08:48:21.52	60.52	29.48	-47.0	-51.5	12.8	4.11e-05	0	41	0	529530880	64	6449
2026-01-12 08:48:22.52	60.18	29.50	-46.8	-51.0	13.3	2.89e-05	0	41	0	531628032	64	6076
2026-01-12 08:48:23.51	59.85	29.52	-46.4	-50.2	13.9	4.50e-06	0	41	0	533725184	64	5584
2026-01-12 08:48:24.51	59.51	29.53	-46.0	-49.5	14.8	0.00e+00	0	41	0	535822336	63	5409
2026-01-12 08:48:25.50	59.18	29.54	-45.5	-48.7	15.6	0.00e+00	0	41	0	536870912	63	4945
2026-01-12 08:48:26.50	58.84	29.55	-45.3	-48.5	15.9	0.00e+00	0	41	0	538968064	62	5120
2026-01-12 08:48:27.49	58.50	29.56	-45.4	-48.5	15.8	0.00e+00	0	41	0	541065216	62	5157
2026-01-12 08:48:28.49	58.17	29.57	-45.5	-48.8	15.6	0.00e+00	0	41	0	543162368	62	5327
2026-01-12 08:48:29.49	57.83	29.58	-45.8	-49.2	15.1	0.00e+00	0	41	0	544210944	62	5581
2026-01-12 08:48:30.48	57.49	29.59	-46.0	-49.6	14.8	7.00e-07	0	41	0	546308096	62	5806
2026-01-12 08:48:31.47	57.16	29.60	-46.3	-50.0	14.2	2.20e-06	0	41	0	548405248	63	5754
2026-01-12 08:48:32.47	56.82	29.60	-46.5	-50.2	14.1	3.80e-06	0	41	0	550502400	63	5916
2026-01-12 08:48:33.46	56.48	29.60	-46.5	-50.3	14.2	7.00e-07	0	41	0	552599552	63	5963
2026-01-12 08:48:34.46	56.14	29.61	-46.4	-50.0	14.4	1.50e-06	0	41	0	553648128	63	5768
2026-01-12 08:48:35.45	55.81	29.61	-46.4	-50.0	14.4	7.00e-07	0	41	0	555745280	63	5771
2026-01-12 08:48:36.45	55.47	29.61	-46.3	-49.8	14.6	7.00e-07	0	41	0	557842432	63	5646
2026-01-12 08:48:37.44	55.13	29.61	-46.0	-49.4	15.0	0.00e+00	0	41	0	559939584	63	5400
2026-01-12 08:48:38.44	54.79	29.61	-45.8	-49.1	15.3	0.00e+00	0	41	0	560988160	63	5170
2026-01-12 08:48:39.45	54.45	29.60	-45.7	-49.0	15.5	0.00e+00	0	41	0	563085312	63	5104
2026-01-12 08:48:40.48	54.10	29.60	-45.9	-49.3	15.1	0.00e+00	0	41	0	565182464	63	5294
2026-01-12 08:48:41.47	53.77	29.59	-46.3	-49.9	14.5	0.00e+00	0	41	0	567279616	63	5704
2026-01-12 08:48:42.54	53.40	29.59	-46.4	-50.0	14.4	0.00e+00	0	41	0	569376768	63	5788
2026-01-12 08:48:43.40	53.11	29.58	-46.5	-50.3	14.1	7.00e-07	0	41	0	570425344	63	5979
2026-01-12 08:48:44.53	52.73	29.57	-46.4	-50.0	14.4	0.00e+00	0	41	0	572522496	63	5761
2026-01-12 08:48:45.39	52.44	29.56	-46.3	-49.9	14.5	0.00e+00	0	41	0	574619648	63	5685
2026-01-12 08:48:46.52	52.06	29.55	-45.9	-49.3	15.2	2.20e-06	0	41	0	576716800	63	5285
2026-01-12 08:48:47.38	51.77	29.54	-45.7	-49.0	15.5	0.00e+00	0	41	0	577765376	63	5109
2026-01-12 08:48:48.51	51.39	29.53	-45.6	-48.9	15.5	0.00e+00	0	41	0	580911104	63	5049
2026-01-12 08:48:49.36	51.10	29.52	-45.9	-49.3	15.1	0.00e+00	0	41	0	581959680	63	5324
2026-01-12 08:48:50.50	50.72	29.50	-46.1	-49.7	14.8	0.00e+00	0	41	0	584056832	63	5547
2026-01-12 08:48:51.35	50.43	29.48	-46.3	-49.9	14.5	7.00e-07	0	41	0	586153984	63	5706
2026-01-12 08:48:52.51	50.04	29.46	-46.1	-49.7	14.7	7.00e-07	0	41	0	588251136	63	5537
2026-01-12 08:48:53.76	49.62	29.44	-45.8	-49.2	15.2	0.00e+00	0	41	0	590348288	63	5259
2026-01-12 08:48:54.78	49.28	29.42	-45.6	-48.9	15.4	0.00e+00	0	41	0	592445440	63	5085
2026-01-12 08:48:55.78	48.94	29.40	-45.6	-48.9	15.6	0.00e+00	0	41	0	593494016	62	5345
2026-01-12 08:48:56.77	48.61	29.38	-45.3	-48.4	16.0	0.00e+00	0	41	0	595591168	62	5067
2026-01-12 08:48:58.02	48.20	29.35	-45.3	-48.4	15.9	0.00e+00	0	41	0	598736896	62	5089
2026-01-12 08:48:58.87	47.91	29.33	-45.3	-48.4	15.9	0.00e+00	0	41	0	599785472	62	5056
2026-01-12 08:49:00.01	47.53	29.30	-45.3	-48.4	15.9	0.00e+00	0	41	0	601882624	62	5063
2026-01-12 08:49:00.86	47.25	29.28	-45.0	-48.0	16.1	0.00e+00	0	41	0	603979776	62	4860
2026-01-12 08:49:02.00	46.87	29.25	-45.1	-48.1	16.2	0.00e+00	0	41	0	606076928	61	5208
2026-01-12 08:49:02.85	46.59	29.22	-45.1	-48.1	16.3	0.00e+00	0	41	0	607125504	61	5186
2026-01-12 08:49:03.98	46.22	29.19	-45.3	-48.4	15.9	0.00e+00	0	41	0	609222656	61	5372
2026-01-12 08:49:04.83	45.94	29.16	-45.4	-48.7	15.7	0.00e+00	0	41	0	611319808	61	5542
2026-01-12 08:49:05.97	45.56	29.13	-45.4	-48.7	15.7	0.00e+00	0	41	0	613416960	61	5530
2026-01-12 08:49:06.83	45.28	29.10	-45.6	-48.9	15.4	0.00e+00	0	41	0	614465536	61	5692
2026-01-12 08:49:07.96	44.91	29.06	-45.6	-48.8	15.6	0.00e+00	0	41	0	616562688	62	5323
2026-01-12 08:49:08.81	44.63	29.03	-45.8	-49.2	15.3	0.00e+00	0	41	0	618659840	62	5584
2026-01-12 08:49:10.00	44.24	28.99	-46.2	-49.8	14.6	7.00e-07	0	41	0	620756992	63	5643
2026-01-12 08:49:10.85	43.97	28.96	-46.4	-50.0	14.4	0.00e+00	0	41	0	621805568	63	5767
2026-01-12 08:49:11.99	43.60	28.92	-46.4	-50.0	14.4	0.00e+00	0	41	0	623902720	63	5783
2026-01-12 08:49:12.84	43.32	28.88	-46.3	-50.0	14.5	7.00e-07	0	41	0	625999872	63	5742
2026-01-12 08:49:14.11	42.91	28.83	-45.8	-49.1	15.2	0.00e+00	0	41	0	628097024	63	5213
2026-01-12 08:49:14.90	42.65	28.80	-45.5	-48.6	15.8	0.00e+00	0	41	0	630194176	63	4909
2026-01-12 08:49:16.16	42.25	28.75	-45.2	-48.2	16.1	0.00e+00	0	41	0	632291328	62	4975
2026-01-12 08:49:16.98	41.99	28.71	-45.6	-48.7	15.7	0.00e+00	0	41	0	633339904	62	5263
2026-01-12 08:49:18.11	41.63	28.66	-46.1	-49.5	14.9	0.00e+00	0	41	0	635437056	62	5775
2026-01-12 08:49:19.38	41.22	28.61	-46.2	-49.7	14.7	0.00e+00	0	41	0	638582784	63	5586
2026-01-12 08:49:20.35	40.91	28.56	-46.2	-49.7	14.7	0.00e+00	0	41	0	639631360	63	5582
2026-01-12 08:49:21.35	40.60	28.52	-45.9	-49.3	15.1	0.00e+00	0	41	0	641728512	63	5295
2026-01-12 08:49:22.35	40.28	28.47	-45.8	-49.1	15.4	0.00e+00	0	41	0	643825664	63	5201
2026-01-12 08:49:23.34	39.97	28.42	-45.8	-49.2	15.2	0.00e+00	0	41	0	645922816	63	5230
2026-01-12 08:49:24.34	39.65	28.37	-45.8	-49.2	15.3	0.00e+00	0	41	0	648019968	63	5223
2026-01-12 08:49:25.33	39.34	28.32	-46.1	-49.6	14.8	0.00e+00	0	41	0	649068544	63	5514
2026-01-12 08:49:26.33	39.03	28.27	-46.1	-49.6	14.8	0.00e+00	0	41	0	651165696	63	5518
2026-01-12 08:49:27.32	38.72	28.22	-46.3	-49.9	14.5	0.00e+00	0	41	0	653262848	63	5679
2026-01-12 08:49:28.32	38.41	28.17	-46.3	-49.9	14.5	0.00e+00	0	41	0	655360000	63	5693
2026-01-12 08:49:29.31	38.11	28.12	-46.2	-49.8	14.6	1.50e-06	0	41	0	656408576	63	5603
2026-01-12 08:49:30.32	37.80	28.06	-46.0	-49.4	15.0	0.00e+00	0	41	0	658505728	63	5401
2026-01-12 08:49:31.36	37.48	28.01	-46.3	-49.8	14.6	7.00e-07	0	41	0	660602880	63	5645
2026-01-12 08:49:32.34	37.18	27.95	-46.6	-50.4	14.0	0.00e+00	0	41	0	662700032	63	6052
2026-01-12 08:49:33.33	36.88	27.89	-46.9	-51.1	13.3	5.30e-06	0	41	0	664797184	64	6141
2026-01-12 08:49:34.42	36.55	27.83	-47.1	-51.4	12.9	2.36e-05	0	41	0	666894336	64	6393
2026-01-12 08:49:35.32	36.27	27.78	-47.3	-51.7	12.7	5.18e-05	0	41	0	667942912	65	6228
2026-01-12 08:49:36.36	35.96	27.72	-47.4	-52.0	12.3	1.04e-04	0	41	0	670040064	65	6473
2026-01-12 08:49:37.36	35.66	27.66	-47.5	-52.2	12.1	1.96e-04	0	41	0	672137216	65	6636
2026-01-12 08:49:38.35	35.36	27.60	-47.7	-52.6	11.7	2.30e-04	0	41	0	674234368	65	6949
2026-01-12 08:49:39.34	35.07	27.54	-47.5	-52.3	12.1	2.68e-04	0	41	0	675282944	66	6305
2026-01-12 08:49:40.33	34.78	27.48	-47.2	-51.8	12.5	1.20e-04	0	41	0	677380096	66	5971
2026-01-12 08:49:41.33	34.48	27.42	-47.3	-52.1	12.2	1.69e-04	0	41	0	679477248	66	6157
2026-01-12 08:49:42.32	34.19	27.35	-47.4	-52.4	11.9	3.09e-04	0	41	0	681574400	66	6402
2026-01-12 08:49:43.31	33.90	27.29	-47.2	-52.1	12.2	3.38e-04	0	41	0	683671552	66	6134
2026-01-12 08:49:44.31	33.61	27.23	-46.8	-51.1	13.2	4.65e-05	0	41	0	684720128	65	5840
2026-01-12 08:49:45.30	33.32	27.16	-46.2	-50.1	14.2	1.50e-06	0	41	0	686817280	64	5493
2026-01-12 08:49:46.30	33.03	27.10	-46.2	-49.9	14.5	0.00e+00	0	41	0	688914432	63	5687
2026-01-12 08:49:47.29	32.74	27.03	-46.0	-49.6	14.8	7.00e-07	0	41	0	691011584	63	5479
2026-01-12 08:49:48.33	32.44	26.96	-45.8	-49.4	15.0	0.00e+00	0	41	0	692060160	63	5361
2026-01-12 08:49:49.34	32.15	26.89	-45.5	-48.8	15.5	0.00e+00	0	41	0	694157312	63	5036
2026-01-12 08:49:50.37	31.86	26.82	-45.3	-48.6	15.7	0.00e+00	0	41	0	696254464	62	5180
2026-01-12 08:49:51.36	31.58	26.75	-45.3	-48.5	15.9	0.00e+00	0	41	0	698351616	62	5131
2026-01-12 08:49:52.36	31.30	26.68	-45.5	-48.8	15.6	0.00e+00	0	41	0	700448768	62	5298
2026-01-12 08:49:53.35	31.02	26.61	-45.6	-48.9	15.5	0.00e+00	0	41	0	701497344	62	5378
2026-01-12 08:49:54.34	30.74	26.54	-45.5	-48.8	15.6	0.00e+00	0	41	0	703594496	62	5320
2026-01-12 08:49:55.34	30.46	26.47	-45.2	-48.5	15.8	0.00e+00	0	41	0	705691648	62	5124
2026-01-12 08:49:56.33	30.19	26.40	-45.0	-48.2	16.1	0.00e+00	0	41	0	707788800	62	4948
2026-01-12 08:49:57.55	29.85	26.31	-45.5	-49.0	15.4	0.00e+00	0	41	0	709885952	62	5412
2026-01-12 08:49:58.40	29.62	26.25	-45.6	-49.2	15.2	0.00e+00	0	41	0	711983104	62	5581
2026-01-12 08:49:59.54	29.31	26.17	-46.1	-49.9	14.7	0.00e+00	0	41	0	714080256	62	6013
2026-01-12 08:50:00.39	29.08	26.10	-46.0	-49.7	14.7	0.00e+00	0	41	0	715128832	62	5856
2026-01-12 08:50:01.53	28.77	26.02	-46.0	-49.6	14.8	0.00e+00	0	41	0	717225984	62	5844
2026-01-12 08:50:02.39	28.54	25.96	-45.8	-49.3	15.1	0.00e+00	0	41	0	719323136	62	5604
2026-01-12 08:50:03.52	28.23	25.87	-46.2	-50.0	14.4	0.00e+00	0	41	0	721420288	63	5733
2026-01-12 08:50:04.38	28.01	25.81	-46.4	-50.3	14.1	1.50e-06	0	41	0	722468864	63	5945
2026-01-12 08:50:05.51	27.71	25.72	-46.6	-50.8	13.6	3.80e-06	0	41	0	724566016	64	5925
2026-01-12 08:50:06.37	27.48	25.65	-46.4	-50.4	13.9	9.90e-06	0	41	0	726663168	64	5702
2026-01-12 08:50:07.50	27.18	25.57	-46.6	-50.7	13.8	4.50e-06	0	41	0	728760320	64	5917
2026-01-12 08:50:08.36	26.96	25.50	-46.4	-50.4	13.9	8.30e-06	0	41	0	729808896	64	5702
2026-01-12 08:50:09.50	26.66	25.41	-46.3	-50.1	14.3	1.50e-06	0	41	0	731906048	64	5479
2026-01-12 08:50:10.35	26.44	25.34	-45.8	-49.3	15.1	7.00e-07	0	41	0	734003200	63	5317
2026-01-12 08:50:11.49	26.14	25.25	-45.6	-48.9	15.5	0.00e+00	0	41	0	736100352	63	5066
2026-01-12 08:50:12.34	25.93	25.19	-45.3	-48.5	15.9	0.00e+00	0	41	0	737148928	62	5101
2026-01-12 08:50:13.47	25.64	25.10	-45.0	-48.0	16.3	0.00e+00	0	41	0	739246080	62	4841
2026-01-12 08:50:14.33	25.42	25.03	-44.9	-47.9	16.4	0.00e+00	0	41	0	741343232	61	5084
2026-01-12 08:50:15.47	25.13	24.94	-44.9	-47.8	16.4	0.00e+00	0	41	0	743440384	61	5024
2026-01-12 08:50:16.32	24.92	24.87	-44.9	-47.9	16.4	0.00e+00	0	41	0	745537536	61	5083
2026-01-12 08:50:17.45	24.64	24.77	-44.6	-47.5	16.7	0.00e+00	0	41	0	747634688	61	4850
2026-01-12 08:50:18.31	24.42	24.70	-44.6	-47.4	16.8	0.00e+00	0	41	0	748683264	60	5083
2026-01-12 08:50:19.44	24.14	24.61	-44.4	-47.2	17.0	0.00e+00	0	41	0	750780416	60	4982
2026-01-12 08:50:20.30	23.93	24.54	-44.5	-47.4	16.9	0.00e+00	0	41	0	752877568	60	5057
2026-01-12 08:50:21.43	23.65	24.45	-44.5	-47.4	16.9	0.00e+00	0	41	0	754974720	60	5061
2026-01-12 08:50:22.28	23.45	24.38	-44.6	-47.6	16.7	0.00e+00	0	41	0	756023296	60	5189
2026-01-12 08:50:23.48	23.16	24.28	-44.4	-47.3	16.9	0.00e+00	0	41	0	758120448	60	4984
2026-01-12 08:50:24.34	22.95	24.21	-44.3	-47.1	17.2	0.00e+00	0	41	0	760217600	60	4888
2026-01-12 08:50:25.48	22.68	24.11	-43.9	-46.6	17.6	0.00e+00	0	41	0	762314752	59	4883
2026-01-12 08:50:26.33	22.47	24.04	-43.9	-46.5	17.7	0.00e+00	0	41	0	763363328	59	4841
2026-01-12 08:50:27.68	22.15	23.93	-43.7	-46.3	17.8	0.00e+00	0	41	0	766509056	59	4720
2026-01-12 08:50:28.39	21.99	23.87	-43.9	-46.5	17.6	0.00e+00	0	41	0	767557632	59	4844
2026-01-12 08:50:29.68	21.69	23.76	-44.1	-46.8	17.3	0.00e+00	0	41	0	769654784	59	5017
2026-01-12 08:50:30.39	21.52	23.70	-44.4	-47.2	16.9	0.00e+00	0	41	0	771751936	59	5252
2026-01-12 08:50:31.67	21.22	23.59	-44.6	-47.6	16.7	0.00e+00	0	41	0	773849088	60	5182
2026-01-12 08:50:32.41	21.05	23.53	-44.8	-47.8	16.5	0.00e+00	0	41	0	774897664	60	5324
2026-01-12 08:50:33.68	20.76	23.42	-45.0	-48.1	16.2	0.00e+00	0	41	0	778043392	60	5473
2026-01-12 08:50:34.46	20.58	23.35	-45.0	-48.1	16.3	0.00e+00	0	41	0	779091968	60	5503
2026-01-12 08:50:35.74	20.29	23.24	-45.2	-48.3	16.0	0.00e+00	0	41	0	781189120	61	5300
2026-01-12 08:50:36.48	20.13	23.18	-45.1	-48.1	16.2	0.00e+00	0	41	0	783286272	61	5210
2026-01-12 08:50:37.76	19.84	23.06	-45.0	-48.0	16.3	0.00e+00	0	41	0	785383424	61	5127
2026-01-12 08:50:38.60	19.65	22.99	-44.9	-47.9	16.4	0.00e+00	0	41	0	786432000	61	5060
2026-01-12 08:50:39.74	19.40	22.89	-44.7	-47.7	16.7	0.00e+00	0	41	0	788529152	61	4941
2026-01-12 08:50:40.78	19.17	22.80	-44.7	-47.7	16.6	0.00e+00	0	41	0	790626304	61	4934
2026-01-12 08:50:41.93	18.92	22.70	-44.7	-47.6	16.8	0.00e+00	0	41	0	792723456	61	4876
2026-01-12 08:50:42.81	18.73	22.63	-44.4	-47.2	17.1	0.00e+00	0	41	0	794820608	60	4968
2026-01-12 08:50:43.95	18.48	22.53	-44.1	-46.8	17.5	0.00e+00	0	41	0	796917760	60	4712
2026-01-12 08:50:44.80	18.30	22.45	-43.8	-46.3	17.8	0.00e+00	0	41	0	797966336	59	4751
2026-01-12 08:50:45.94	18.06	22.35	-43.6	-46.1	18.0	0.00e+00	0	41	0	800063488	59	4628
2026-01-12 08:50:46.79	17.88	22.28	-43.6	-46.1	18.0	0.00e+00	0	41	0	802160640	59	4622
2026-01-12 08:50:47.92	17.64	22.18	-43.5	-46.0	18.1	0.00e+00	0	41	0	804257792	59	4567
2026-01-12 08:50:48.78	17.46	22.10	-43.7	-46.3	17.9	0.00e+00	0	41	0	806354944	59	4719
2026-01-12 08:50:49.91	17.22	22.00	-44.0	-46.7	17.5	0.00e+00	0	41	0	808452096	59	4951
2026-01-12 08:50:50.77	17.04	21.93	-44.4	-47.3	16.9	0.00e+00	0	41	0	809500672	59	5299
2026-01-12 08:50:51.90	16.81	21.83	-44.5	-47.3	16.9	0.00e+00	0	41	0	811597824	59	5330
2026-01-12 08:50:52.75	16.64	21.75	-44.5	-47.3	16.9	0.00e+00	0	41	0	813694976	59	5327
2026-01-12 08:50:53.89	16.40	21.65	-44.4	-47.2	17.0	0.00e+00	0	41	0	815792128	59	5270
2026-01-12 08:50:54.74	16.23	21.58	-44.5	-47.3	16.9	0.00e+00	0	41	0	816840704	59	5337
2026-01-12 08:50:55.91	15.99	21.47	-44.2	-46.9	17.2	0.00e+00	0	41	0	818937856	59	5074
2026-01-12 08:50:56.77	15.82	21.40	-44.3	-47.1	17.1	0.00e+00	0	41	0	821035008	59	5198
2026-01-12 08:50:57.98	15.58	21.29	-44.4	-47.2	17.1	0.00e+00	0	42	0	823132160	59	5228
2026-01-12 08:50:58.84	15.41	21.21	-44.3	-47.0	17.2	0.00e+00	0	41	0	825229312	59	5130
2026-01-12 08:50:59.97	15.19	21.11	-44.4	-47.1	17.1	0.00e+00	0	41	0	827326464	59	5200
2026-01-12 08:51:00.83	15.02	21.04	-44.6	-47.3	16.9	0.00e+00	0	41	0	828375040	59	5323
2026-01-12 08:51:02.09	14.77	20.92	-44.4	-47.2	17.1	0.00e+00	0	41	0	830472192	60	4947
2026-01-12 08:51:03.29	14.54	20.82	-44.5	-47.3	17.0	0.00e+00	0	41	0	832569344	60	5034
2026-01-12 08:51:04.14	14.38	20.74	-44.7	-47.5	16.7	0.00e+00	0	41	0	834666496	60	5144
2026-01-12 08:51:05.28	14.16	20.64	-44.7	-47.6	16.7	0.00e+00	0	41	0	836763648	60	5179
2026-01-12 08:51:06.40	13.95	20.54	-44.8	-47.7	16.6	0.00e+00	0	41	0	838860800	60	5257
2026-01-12 08:51:07.25	13.79	20.46	-44.6	-47.4	16.9	0.00e+00	0	41	0	840957952	60	5064
2026-01-12 08:51:08.39	13.57	20.36	-44.5	-47.2	17.0	0.00e+00	0	41	0	843055104	60	4967
2026-01-12 08:51:09.24	13.42	20.29	-44.2	-46.9	17.3	0.00e+00	0	41	0	844103680	60	4796
2026-01-12 08:51:10.38	13.20	20.19	-44.2	-46.8	17.4	0.00e+00	0	41	0	846200832	60	4756
2026-01-12 08:51:11.23	13.05	20.11	-44.1	-46.7	17.5	0.00e+00	0	41	0	848297984	60	4685
2026-01-12 08:51:12.37	12.84	20.01	-44.2	-46.9	17.3	0.00e+00	0	41	0	850395136	59	5043
2026-01-12 08:51:13.22	12.68	19.93	-44.1	-46.8	17.4	0.00e+00	0	41	0	851443712	59	5030
2026-01-12 08:51:14.36	12.48	19.83	-44.5	-47.4	16.8	0.00e+00	0	41	0	853540864	59	5354
2026-01-12 08:51:15.21	12.33	19.75	-44.8	-47.8	16.4	0.00e+00	0	41	0	855638016	60	5331
2026-01-12 08:51:16.35	12.12	19.65	-44.9	-48.0	16.3	0.00e+00	0	41	0	857735168	60	5424
2026-01-12 08:51:17.20	11.97	19.58	-45.2	-48.4	16.0	0.00e+00	0	41	0	858783744	60	5677
2026-01-12 08:51:18.34	11.77	19.48	-45.1	-48.3	16.0	0.00e+00	0	41	0	860880896	61	5308
2026-01-12 08:51:19.19	11.62	19.40	-45.0	-48.2	16.1	0.00e+00	0	41	0	862978048	61	5269
2026-01-12 08:51:20.33	11.42	19.30	-44.8	-48.0	16.3	0.00e+00	0	41	0	865075200	61	5129
2026-01-12 08:51:21.38	11.24	19.21	-44.6	-47.7	16.6	0.00e+00	0	41	0	867172352	61	4963
2026-01-12 08:51:22.25	11.09	19.13	-44.4	-47.3	16.9	0.00e+00	0	41	0	868220928	60	5037
2026-01-12 08:51:23.39	10.89	19.03	-44.2	-47.1	17.2	0.00e+00	0	41	0	870318080	60	4900
2026-01-12 08:51:24.24	10.75	18.95	-44.1	-46.9	17.3	0.00e+00	0	41	0	872415232	60	4796
2026-01-12 08:51:25.38	10.55	18.85	-44.2	-47.0	17.2	0.00e+00	0	41	0	874512384	60	4844
2026-01-12 08:51:26.23	10.41	18.78	-44.3	-47.0	17.2	0.00e+00	0	41	0	876609536	60	4863
2026-01-12 08:51:27.37	10.22	18.67	-44.3	-47.2	17.1	0.00e+00	0	41	0	878706688	60	4937
2026-01-12 08:51:28.22	10.08	18.60	-44.6	-47.5	16.7	0.00e+00	0	41	0	879755264	60	5133
2026-01-12 08:51:29.38	9.89	18.50	-44.8	-47.8	16.4	0.00e+00	0	41	0	881852416	60	5331
2026-01-12 08:51:30.23	9.75	18.42	-45.1	-48.4	15.9	0.00e+00	0	41	0	883949568	60	5694
2026-01-12 08:51:31.37	9.56	18.32	-45.2	-48.7	15.6	0.00e+00	0	41	0	886046720	61	5568
2026-01-12 08:51:32.22	9.42	18.25	-45.4	-49.1	15.2	0.00e+00	0	41	0	887095296	61	5834
2026-01-12 08:51:33.36	9.24	18.15	-45.6	-49.5	14.8	0.00e+00	0	41	0	889192448	61	6125
2026-01-12 08:51:34.21	9.10	18.07	-45.7	-49.8	14.6	0.00e+00	0	41	0	891289600	62	5924
2026-01-12 08:51:35.58	8.88	17.95	-45.6	-49.5	14.9	0.00e+00	0	41	0	893386752	62	5738
2026-01-12 08:51:36.30	8.77	17.89	-45.5	-49.3	15.1	0.00e+00	0	41	0	895483904	62	5629
2026-01-12 08:51:37.57	8.57	17.78	-45.4	-49.0	15.3	0.00e+00	0	41	0	897581056	62	5443
2026-01-12 08:51:38.31	8.45	17.71	-45.1	-48.6	15.7	0.00e+00	0	41	0	898629632	62	5203
2026-01-12 08:51:39.60	8.25	17.60	-44.9	-48.4	15.9	0.00e+00	0	41	0	900726784	61	5352
2026-01-12 08:51:40.32	8.14	17.54	-44.9	-48.4	15.9	0.00e+00	0	41	0	902823936	61	5362
2026-01-12 08:51:41.60	7.94	17.42	-45.0	-48.6	15.6	0.00e+00	0	41	0	904921088	61	5501
2026-01-12 08:51:42.33	7.83	17.36	-45.0	-48.5	15.7	0.00e+00	0	41	0	905969664	61	5464
2026-01-12 08:51:43.61	7.63	17.25	-45.4	-49.1	15.2	0.00e+00	0	41	0	909115392	61	5799
2026-01-12 08:51:44.33	7.53	17.19	-45.6	-49.3	15.0	7.00e-07	0	41	0	910163968	62	5648
2026-01-12 08:51:45.61	7.33	17.07	-45.7	-49.5	14.8	0.00e+00	0	41	0	912261120	62	5725
2026-01-12 08:51:46.33	7.23	17.01	-45.9	-49.6	14.7	7.00e-07	0	41	0	913309696	62	5816
2026-01-12 08:51:47.61	7.03	16.90	-45.9	-49.6	14.7	0.00e+00	0	41	0	916455424	62	5848
2026-01-12 08:51:48.36	6.92	16.84	-45.8	-49.4	14.9	1.50e-06	0	42	0	917504000	62	5719
2026-01-12 08:51:49.63	6.74	16.73	-45.4	-49.0	15.3	0.00e+00	0	41	0	919601152	62	5446
2026-01-12 08:51:50.36	6.63	16.66	-45.3	-48.9	15.4	0.00e+00	0	41	0	921698304	62	5355
2026-01-12 08:51:51.67	6.44	16.55	-44.9	-48.3	15.9	0.00e+00	0	41	0	923795456	61	5303
2026-01-12 08:51:52.38	6.34	16.49	-44.8	-48.2	16.1	0.00e+00	0	41	0	924844032	61	5233
2026-01-12 08:51:53.72	6.15	16.37	-44.8	-48.1	16.2	0.00e+00	0	41	0	927989760	61	5177
2026-01-12 08:51:54.43	6.04	16.31	-44.9	-48.1	16.1	0.00e+00	0	41	0	929038336	61	5194
2026-01-12 08:51:55.71	5.86	16.20	-45.1	-48.3	16.0	0.00e+00	0	41	0	931135488	61	5285
2026-01-12 08:51:56.44	5.76	16.14	-44.9	-48.0	16.2	0.00e+00	0	41	0	933232640	61	5129
2026-01-12 08:51:57.72	5.58	16.03	-45.0	-48.2	16.1	0.00e+00	0	41	0	935329792	61	5230
2026-01-12 08:51:58.44	5.48	15.97	-45.0	-48.1	16.2	0.00e+00	0	41	0	936378368	61	5166
2026-01-12 08:51:59.72	5.30	15.86	-45.1	-48.3	15.9	0.00e+00	0	41	0	938475520	61	5315
2026-01-12 08:52:00.46	5.20	15.80	-45.0	-48.3	16.0	0.00e+00	0	41	0	940572672	61	5312
2026-01-12 08:52:01.74	5.03	15.69	-45.1	-48.5	15.7	0.00e+00	0	42	0	942669824	61	5454
2026-01-12 08:52:02.54	4.92	15.62	-45.2	-48.8	15.5	0.00e+00	0	41	0	944766976	61	5595
2026-01-12 08:52:03.68	4.76	15.52	-45.1	-48.8	15.4	0.00e+00	0	41	0	945815552	61	5649
2026-01-12 08:52:04.72	4.62	15.43	-45.1	-48.8	15.4	0.00e+00	0	41	0	947912704	61	5596
2026-01-12 08:52:05.65	4.50	15.36	-45.0	-48.6	15.6	0.00e+00	0	41	0	950009856	61	5515
2026-01-12 08:52:06.65	4.37	15.27	-45.1	-48.6	15.6	0.00e+00	0	41	0	952107008	61	5512
2026-01-12 08:52:07.64	4.24	15.19	-45.0	-48.4	15.8	0.00e+00	0	41	0	954204160	61	5378
2026-01-12 08:52:08.64	4.10	15.10	-45.1	-48.4	15.8	0.00e+00	0	41	0	955252736	61	5376
2026-01-12 08:52:09.63	3.97	15.02	-45.1	-48.3	15.8	0.00e+00	0	41	0	957349888	61	5336
2026-01-12 08:52:10.63	3.84	14.94	-45.0	-48.3	15.9	0.00e+00	0	41	0	959447040	61	5294
2026-01-12 08:52:11.62	3.72	14.85	-45.2	-48.5	15.7	0.00e+00	0	41	0	961544192	61	5445
2026-01-12 08:52:12.62	3.59	14.77	-45.3	-48.7	15.5	0.00e+00	0	42	0	962592768	61	5587
2026-01-12 08:52:13.62	3.46	14.69	-45.6	-49.4	14.8	0.00e+00	0	41	0	964689920	61	6024
2026-01-12 08:52:14.62	3.33	14.60	-45.7	-49.7	14.6	7.00e-07	0	41	0	966787072	62	5859
2026-01-12 08:52:15.61	3.21	14.52	-46.0	-50.3	13.9	1.50e-06	0	42	0	968884224	62	6318
2026-01-12 08:52:16.61	3.08	14.44	-46.1	-50.6	13.7	9.10e-06	0	41	0	970981376	62	6536
2026-01-12 08:52:17.61	2.96	14.36	-46.3	-50.9	13.3	1.06e-05	0	41	0	972029952	63	6420
2026-01-12 08:52:18.60	2.84	14.27	-46.6	-51.3	13.0	1.98e-05	0	42	0	974127104	63	6650
2026-01-12 08:52:19.60	2.71	14.19	-46.4	-50.7	13.5	1.14e-05	0	42	0	976224256	63	6258
2026-01-12 08:52:20.59	2.59	14.11	-46.4	-50.5	13.7	1.37e-05	0	41	0	978321408	63	6077
2026-01-12 08:52:21.59	2.47	14.03	-46.1	-49.9	14.3	3.00e-06	0	41	0	979369984	63	5712
2026-01-12 08:52:22.58	2.35	13.95	-45.9	-49.7	14.5	7.00e-07	0	41	0	981467136	63	5538
2026-01-12 08:52:23.58	2.23	13.86	-45.2	-48.7	15.3	0.00e+00	0	41	0	983564288	62	5262
2026-01-12 08:52:24.58	2.11	13.78	-45.1	-48.6	15.6	0.00e+00	0	42	0	985661440	62	5189
2026-01-12 08:52:25.57	1.99	13.70	-44.9	-48.3	15.9	0.00e+00	0	41	0	987758592	61	5297
2026-01-12 08:52:26.56	1.87	13.62	-44.6	-47.9	16.2	0.00e+00	0	41	0	988807168	61	5093
2026-01-12 08:52:27.56	1.76	13.54	-44.6	-48.1	16.1	0.00e+00	0	42	0	990904320	61	5163
2026-01-12 08:52:28.55	1.64	13.46	-44.8	-48.2	15.9	0.00e+00	0	42	0	993001472	61	5276
2026-01-12 08:52:29.55	1.52	13.38	-45.0	-48.6	15.5	0.00e+00	0	42	0	995098624	61	5493
2026-01-12 08:52:30.54	1.41	13.30	-45.3	-48.9	15.3	0.00e+00	0	41	0	997195776	61	5671
2026-01-12 08:52:31.54	1.29	13.22	-45.5	-49.1	15.0	0.00e+00	0	41	0	998244352	61	5845
2026-01-12 08:52:32.54	1.18	13.14	-45.9	-49.7	14.5	1.50e-06	0	41	0	1000341504	62	5913
2026-01-12 08:52:33.53	1.07	13.06	-46.2	-50.1	14.1	3.00e-06	0	41	0	1002438656	63	5837
2026-01-12 08:52:34.52	0.95	12.98	-46.6	-50.7	13.5	4.50e-06	0	42	0	1004535808	63	6255
2026-01-12 08:52:35.52	0.84	12.90	-46.5	-50.8	13.3	1.83e-05	0	41	0	1005584384	64	5971
2026-01-12 08:52:36.52	0.73	12.82	-46.8	-51.2	12.9	3.20e-05	0	41	0	1007681536	64	6231
2026-01-12 08:52:37.51	0.62	12.74	-46.8	-51.3	12.8	5.64e-05	0	41	0	1009778688	64	6337
2026-01-12 08:52:38.51	0.51	12.66	-46.8	-51.4	12.7	5.87e-05	0	42	0	1011875840	64	6364
2026-01-12 08:52:39.50	0.40	12.58	-46.8	-51.5	12.6	8.08e-05	0	41	0	1013972992	64	6463
2026-01-12 08:52:40.50	0.29	12.50	-46.6	-51.3	12.8	5.26e-05	0	42	0	1015021568	64	6302
2026-01-12 08:52:41.49	0.18	12.42	-46.6	-51.3	12.8	5.79e-05	0	41	0	1017118720	64	6303
2026-01-12 08:52:42.53	0.07	12.34	-46.7	-51.4	12.7	7.32e-05	0	42	0	1019215872	64	6373
2026-01-12 08:52:43.53	359.96	12.26	-46.5	-51.0	13.0	3.81e-05	0	42	0	1021313024	64	6120
2026-01-12 08:52:44.52	359.85	12.18	-46.7	-51.2	13.0	2.74e-05	0	42	0	1023410176	64	6209
2026-01-12 08:52:45.52	359.75	12.10	-46.7	-51.1	13.0	3.05e-05	0	41	0	1024458752	64	6191
2026-01-12 08:52:46.51	359.64	12.03	-46.6	-50.9	13.2	1.83e-05	0	41	0	1026555904	64	5993
2026-01-12 08:52:47.50	359.54	11.95	-46.5	-50.7	13.4	1.67e-05	0	41	0	1028653056	64	5888
2026-01-12 08:52:48.50	359.43	11.87	-46.4	-50.8	13.3	1.67e-05	0	42	0	1030750208	64	5925
2026-01-12 08:52:49.49	359.33	11.79	-46.3	-50.7	13.3	1.60e-05	0	41	0	1031798784	64	5919
2026-01-12 08:52:50.49	359.23	11.71	-46.3	-50.7	13.3	1.44e-05	0	41	0	1033895936	64	5915
2026-01-12 08:52:51.49	359.12	11.64	-46.2	-50.7	13.3	1.75e-05	0	41	0	1035993088	64	5915
2026-01-12 08:52:52.48	359.02	11.56	-46.1	-50.7	13.4	1.67e-05	0	42	0	1038090240	64	5885
2026-01-12 08:52:53.47	358.92	11.48	-46.1	-50.9	13.2	2.05e-05	0	42	0	1040187392	63	6386
2026-01-12 08:52:54.47	358.82	11.41	-46.0	-51.0	13.1	2.59e-05	0	41	0	1041235968	63	6464
2026-01-12 08:52:55.47	358.72	11.33	-45.9	-51.2	13.0	3.73e-05	0	42	0	1043333120	63	6573
2026-01-12 08:52:56.46	358.62	11.25	-45.6	-51.0	13.1	3.89e-05	0	41	0	1045430272	63	6463
2026-01-12 08:52:57.46	358.52	11.18	-45.4	-51.1	13.1	4.04e-05	0	41	0	1047527424	62	6909
2026-01-12 08:52:58.45	358.42	11.10	-45.1	-51.1	13.1	3.96e-05	0	41	0	1048576000	62	6883
2026-01-12 08:52:59.44	358.32	11.02	-45.0	-51.0	13.1	2.21e-05	0	41	0	1050673152	61	7237
2026-01-12 08:53:00.44	358.23	10.95	-45.0	-50.9	13.1	2.74e-05	0	42	0	1052770304	61	7186
2026-01-12 08:53:01.43	358.13	10.87	-45.0	-50.7	13.4	2.21e-05	0	41	0	1054867456	61	6991
2026-01-12 08:53:02.43	358.03	10.80	-45.4	-50.6	13.5	7.60e-06	0	41	0	1056964608	61	6907
2026-01-12 08:53:03.42	357.94	10.72	-45.4	-50.3	13.8	5.30e-06	0	41	0	1058013184	61	6673
2026-01-12 08:53:04.42	357.84	10.65	-45.6	-50.3	13.8	3.80e-06	0	41	0	1060110336	62	6290
2026-01-12 08:53:05.41	357.75	10.57	-45.3	-49.6	14.5	1.50e-06	0	42	0	1062207488	62	5809
2026-01-12 08:53:06.41	357.65	10.50	-45.5	-49.6	14.4	7.00e-07	0	41	0	1064304640	62	5832
2026-01-12 08:53:07.40	357.56	10.42	-45.3	-49.4	14.7	7.00e-07	0	41	0	1065353216	62	5667
2026-01-12 08:53:08.40	357.46	10.35	-45.4	-49.4	14.7	0.00e+00	0	41	0	1067450368	62	5701
2026-01-12 08:53:09.39	357.37	10.27	-45.3	-49.4	14.7	0.00e+00	0	41	0	1069547520	62	5690
2026-01-12 08:53:10.38	357.28	10.20	-45.2	-49.4	14.6	7.00e-07	0	42	0	1071644672	62	5694
2026-01-12 08:53:11.38	357.18	10.12	-45.0	-49.4	14.7	0.00e+00	0	41	0	1073741824	62	5712
2026-01-12 08:53:12.38	357.09	10.05	-45.1	-49.6	14.4	1.50e-06	0	41	0	1074790400	62	5836
2026-01-12 08:53:13.37	357.00	9.97	-45.0	-49.7	14.4	0.00e+00	0	42	0	1076887552	61	6214
2026-01-12 08:53:14.36	356.91	9.90	-45.2	-50.2	13.9	2.20e-06	0	42	0	1078984704	61	6583
2026-01-12 08:53:15.36	356.82	9.83	-45.2	-50.4	13.6	4.50e-06	0	41	0	1081081856	61	6792
2026-01-12 08:53:16.35	356.73	9.75	-45.2	-50.6	13.5	1.22e-05	0	41	0	1082130432	61	6894
2026-01-12 08:53:17.35	356.64	9.68	-45.2	-50.9	13.1	2.28e-05	0	41	0	1084227584	61	7180
2026-01-12 08:53:18.34	356.55	9.61	-45.1	-51.1	12.9	2.36e-05	0	41	0	1086324736	61	7344
2026-01-12 08:53:19.34	356.46	9.53	-45.1	-51.5	12.6	8.54e-05	0	41	0	1088421888	61	7633
2026-01-12 08:53:20.34	356.38	9.46	-45.0	-51.5	12.6	1.11e-04	0	41	0	1090519040	61	7642
2026-01-12 08:53:21.33	356.29	9.39	-45.0	-52.0	12.1	1.23e-04	0	41	0	1091567616	61	8107
2026-01-12 08:53:22.33	356.20	9.31	-44.9	-51.9	12.1	2.97e-04	0	41	0	1093664768	61	7994
2026-01-12 08:53:23.33	356.11	9.24	-45.1	-52.2	11.8	4.27e-04	0	41	0	1095761920	61	8286
2026-01-12 08:53:24.32	356.03	9.17	-45.1	-52.1	11.9	4.49e-04	0	42	0	1097859072	61	8259
2026-01-12 08:53:25.32	355.94	9.10	-45.4	-52.3	11.6	4.72e-04	0	42	0	1098907648	61	8431
2026-01-12 08:53:26.31	355.86	9.03	-45.6	-52.1	11.9	3.84e-04	0	42	0	1101004800	62	7795
2026-01-12 08:53:27.30	355.77	8.95	-48.6	-65.4	3.8	8.67e-01	0	42	104	1102053376	67	26840
2026-01-12 08:53:28.30	355.69	8.88	-49.9	-65.6	3.9	1.49e+00	0	41	104	1102053376	70	23224
2026-01-12 08:53:29.29	355.61	8.81	-50.0	-65.7	3.8	1.49e+00	0	42	104	1102053376	70	23572
2026-01-12 08:53:30.29	355.52	8.74	-49.8	-65.8	3.8	1.49e+00	0	42	104	1102053376	71	22362
2026-01-12 08:53:31.28	355.44	8.67	-50.5	-65.9	3.8	1.49e+00	0	41	104	1102053376	71	22621
2026-01-12 08:53:32.31	355.35	8.59	-49.7	-65.9	3.8	1.49e+00	0	42	104	1102053376	71	22734
2026-01-12 08:53:33.33	355.27	8.52	-50.6	-66.0	3.8	1.49e+00	0	42	104	1102053376	71	22848
2026-01-12 08:53:34.36	355.18	8.45	-50.7	-65.9	3.8	1.49e+00	0	41	104	1102053376	72	21483
2026-01-12 08:53:35.38	355.10	8.37	-50.7	-66.0	3.8	1.49e+00	0	41	104	1102053376	72	21627
2026-01-12 08:53:36.41	355.02	8.30	-50.6	-66.0	3.8	1.49e+00	0	42	104	1102053376	72	21654
2026-01-12 08:53:37.43	354.93	8.23	-50.9	-66.0	3.8	1.49e+00	0	41	104	1102053376	72	21653
2026-01-12 08:53:38.44	354.85	8.16	-50.7	-66.0	3.8	1.49e+00	0	41	104	1102053376	72	21737
2026-01-12 08:53:39.48	354.77	8.08	-50.5	-66.1	3.8	1.49e+00	0	42	104	1102053376	72	21766
2026-01-12 08:53:40.50	354.69	8.01	-50.8	-66.1	3.8	1.49e+00	0	42	104	1102053376	72	21824
2026-01-12 08:53:41.53	354.61	7.94	-50.9	-66.1	3.8	1.49e+00	0	42	104	1102053376	72	21858
2026-01-12 08:53:42.53	354.53	7.87	-50.9	-66.1	3.8	1.49e+00	0	41	104	1102053376	72	21861
2026-01-12 08:53:43.52	354.45	7.80	-50.8	-66.1	3.8	1.49e+00	0	41	104	1102053376	72	21853
2026-01-12 08:53:44.51	354.37	7.73	-50.7	-66.1	3.8	1.49e+00	0	42	104	1102053376	72	21769
2026-01-12 08:53:45.51	354.30	7.66	-50.8	-66.1	3.8	1.49e+00	0	42	104	1102053376	72	21760
2026-01-12 08:53:46.50	354.22	7.59	-50.7	-66.1	3.8	1.49e+00	0	42	104	1102053376	72	21904
2026-01-12 08:53:47.50	354.14	7.52	-50.9	-66.0	3.8	1.49e+00	0	41	104	1102053376	72	21739
2026-01-12 08:53:48.49	354.07	7.46	-50.9	-66.1	3.8	1.49e+00	0	42	104	1102053376	72	21788
2026-01-12 08:53:49.48	353.99	7.39	-50.9	-66.1	3.8	1.49e+00	0	42	104	1102053376	72	21810
2026-01-12 08:53:50.48	353.92	7.32	-50.9	-66.1	3.8	1.49e+00	0	41	104	1102053376	72	21786
2026-01-12 08:53:51.47	353.84	7.25	-50.8	-66.1	3.8	1.49e+00	0	42	104	1102053376	72	21816
2026-01-12 08:53:52.46	353.77	7.18	-50.9	-66.1	3.8	1.49e+00	0	42	104	1102053376	72	21856
2026-01-12 08:53:53.46	353.69	7.11	-50.8	-66.1	3.8	1.49e+00	0	42	104	1102053376	72	21773
2026-01-12 08:53:54.45	353.62	7.05	-50.7	-66.1	3.8	1.49e+00	0	42	104	1102053376	72	21840
2026-01-12 08:53:55.44	353.55	6.98	-50.8	-66.1	3.8	1.49e+00	0	41	104	1102053376	72	21796
2026-01-12 08:53:56.45	353.47	6.91	-50.7	-66.0	3.8	1.49e+00	0	42	104	1102053376	72	21752
2026-01-12 08:53:57.48	353.40	6.84	-50.7	-66.0	3.8	1.49e+00	0	41	104	1102053376	72	21746
2026-01-12 08:53:58.47	353.32	6.77	-50.7	-66.0	3.8	1.49e+00	0	42	104	1102053376	72	21754
2026-01-12 08:53:59.46	353.25	6.70	-50.7	-66.1	3.8	1.49e+00	0	42	104	1102053376	72	21765
2026-01-12 08:54:00.45	353.18	6.64	-50.7	-66.0	3.8	1.49e+00	0	42	104	1102053376	72	21701
2026-01-12 08:54:01.45	353.11	6.57	-50.7	-66.0	3.8	1.49e+00	0	41	104	1102053376	72	21683
2026-01-12 08:54:02.44	353.04	6.50	-50.7	-66.0	3.8	1.49e+00	0	42	104	1102053376	72	21737
2026-01-12 08:54:03.43	352.97	6.44	-50.7	-66.0	3.8	1.49e+00	0	42	104	1102053376	72	21708
2026-01-12 08:54:04.43	352.90	6.37	-50.7	-66.0	3.8	1.49e+00	0	41	104	1102053376	72	21678
2026-01-12 08:54:05.42	352.83	6.30	-50.7	-66.0	3.8	1.49e+00	0	42	104	1102053376	72	21730
2026-01-12 08:54:06.42	352.76	6.24	-50.7	-66.0	3.8	1.49e+00	0	41	104	1102053376	72	21752
2026-01-12 08:54:07.41	352.69	6.17	-50.7	-66.0	3.8	1.49e+00	0	42	104	1102053376	72	21700
2026-01-12 08:54:08.40	352.62	6.10	-50.7	-66.0	3.8	1.49e+00	0	42	104	1102053376	72	21671
2026-01-12 08:54:09.40	352.55	6.04	-50.7	-66.0	3.8	1.49e+00	0	42	104	1102053376	72	21738
2026-01-12 08:54:10.39	352.48	5.97	-50.7	-66.0	3.8	1.49e+00	0	42	104	1102053376	72	21695
2026-01-12 08:54:11.39	352.41	5.91	-50.7	-66.0	3.8	1.49e+00	0	42	104	1102053376	72	21737
2026-01-12 08:54:12.38	352.35	5.84	-50.7	-66.0	3.8	1.49e+00	0	42	104	1102053376	72	21634
2026-01-12 08:54:13.37	352.28	5.78	-50.7	-66.0	3.8	1.49e+00	0	42	104	1102053376	72	21681
2026-01-12 08:54:14.36	352.21	5.71	-50.7	-66.0	3.8	1.49e+00	0	42	104	1102053376	72	21735
2026-01-12 08:54:15.36	352.15	5.64	-50.7	-66.0	3.8	1.49e+00	0	42	104	1102053376	72	21738
2026-01-12 08:54:16.35	352.08	5.58	-50.7	-66.0	3.8	1.49e+00	0	42	104	1102053376	72	21753
2026-01-12 08:54:17.35	352.01	5.51	-50.7	-66.0	3.8	1.49e+00	0	42	104	1102053376	72	21642
2026-01-12 08:54:18.34	351.95	5.45	-50.7	-66.0	3.8	1.49e+00	0	42	104	1102053376	72	21707
2026-01-12 08:54:19.34	351.88	5.38	-50.7	-66.0	3.8	1.49e+00	0	42	104	1102053376	72	21708
2026-01-12 08:54:20.33	351.82	5.32	-50.7	-66.1	3.8	1.49e+00	0	42	104	1102053376	72	21771
2026-01-12 08:54:21.32	351.75	5.26	-50.7	-66.0	3.8	1.49e+00	0	42	104	1102053376	72	21675
2026-01-12 08:54:22.32	351.69	5.19	-50.7	-66.0	3.8	1.49e+00	0	42	104	1102053376	72	21702
2026-01-12 08:54:23.31	351.62	5.13	-50.7	-66.0	3.8	1.49e+00	0	42	104	1102053376	72	21754
2026-01-12 08:54:24.30	351.56	5.06	-50.7	-66.0	3.8	1.49e+00	0	42	104	1102053376	72	21679
2026-01-12 08:54:25.30	351.50	5.00	-50.7	-66.0	3.8	1.49e+00	0	41	104	1102053376	72	21659

#Closed at: 2026-01-12 08:54:26
