passes_logs/2026/01/12/T1/T1__20260112_095223_NOAA_21_JPSS-2_rec.log

#Pass ID: 20260112_095223_NOAA 21 (JPSS-2)
#Satellite: NOAA 21 (JPSS-2)
#Configuration: NOAA 21
#almurnet v.1.7.20251203
#Start time: 2026-01-12 09:52:24

#Version: 2.0.20230620
#Station: T1
#Location: 37.570604 lon 55.790049 lat
#TLE: 1 54234U 22150A   26011.27699114  .00000090  00000+0  63771-4 0  9993
#TLE: 2 54234  98.7494 312.2218 0000765 314.9553  45.1561 14.19534106164285

#Time	Az	El	Level	Level2	SNR	BER	BlckErr	Temp	State	Recorded	gain1	gain2
2026-01-12 09:52:24.21	158.60	5.02	-50.3	-63.3	3.8	1.49e+00	0	40	0	0	71	16774
2026-01-12 09:52:25.20	158.60	5.09	-50.0	-62.9	3.8	1.49e+00	0	40	104	0	72	15193
2026-01-12 09:52:26.19	158.60	5.16	-50.0	-63.0	3.8	1.49e+00	0	41	104	0	72	15241
2026-01-12 09:52:27.18	158.60	5.24	-50.0	-63.0	3.8	1.49e+00	0	41	104	0	72	15354
2026-01-12 09:52:28.17	158.60	5.31	-50.0	-63.1	3.8	1.49e+00	0	40	104	0	72	15419
2026-01-12 09:52:29.36	158.60	5.39	-50.0	-63.1	3.8	1.49e+00	0	41	104	0	72	15468
2026-01-12 09:52:30.26	158.60	5.46	-50.0	-63.1	3.8	1.49e+00	0	41	104	0	72	15543
2026-01-12 09:52:31.53	158.59	5.55	-50.0	-63.1	3.8	1.49e+00	0	41	104	0	72	15504
2026-01-12 09:52:32.24	158.59	5.60	-50.1	-63.1	3.8	1.49e+00	0	41	104	0	72	15523
2026-01-12 09:52:33.52	158.59	5.70	-50.0	-63.1	3.8	1.49e+00	0	41	104	0	72	15422
2026-01-12 09:52:34.23	158.59	5.75	-50.0	-63.0	3.8	1.49e+00	0	41	104	0	72	15265
2026-01-12 09:52:35.51	158.59	5.85	-50.0	-62.8	3.8	1.49e+00	0	41	104	0	72	14974
2026-01-12 09:52:36.22	158.59	5.90	-50.0	-62.7	3.8	1.49e+00	0	41	104	0	72	14878
2026-01-12 09:52:37.50	158.58	5.99	-50.0	-62.5	3.8	1.49e+00	0	41	104	0	72	14526
2026-01-12 09:52:38.21	158.58	6.05	-50.0	-62.4	3.8	1.49e+00	0	41	104	0	72	14342
2026-01-12 09:52:39.48	158.58	6.14	-50.1	-62.4	3.8	1.49e+00	0	41	104	0	71	15131
2026-01-12 09:52:40.19	158.58	6.20	-50.0	-62.0	3.8	1.49e+00	0	41	104	0	71	14469
2026-01-12 09:52:41.47	158.58	6.29	-49.9	-61.7	3.8	1.49e+00	0	41	104	0	71	13963
2026-01-12 09:52:42.18	158.58	6.35	-49.9	-61.0	3.9	1.49e+00	0	41	104	0	71	12903
2026-01-12 09:52:43.46	158.57	6.44	-49.8	-60.7	3.9	1.48e+00	0	41	104	0	71	12405
2026-01-12 09:52:44.17	158.57	6.50	-49.8	-60.4	3.9	1.47e+00	0	41	104	0	71	12078
2026-01-12 09:52:45.45	158.57	6.59	-49.6	-58.9	4.5	1.42e+00	0	41	104	0	71	10112
2026-01-12 09:52:46.17	158.57	6.65	-49.5	-58.3	4.7	1.12e+00	0	41	104	0	71	9465
2026-01-12 09:52:47.45	158.57	6.75	-49.4	-57.4	5.1	6.88e-01	0	41	0	0	70	9023
2026-01-12 09:52:48.16	158.57	6.80	-49.3	-57.0	5.1	5.55e-01	0	42	0	0	70	8575
2026-01-12 09:52:49.44	158.56	6.90	-49.0	-56.0	6.1	2.98e-01	0	41	0	0	70	7671
2026-01-12 09:52:50.15	158.56	6.95	-48.8	-55.2	6.8	2.27e-01	0	42	0	0	69	7439
2026-01-12 09:52:51.43	158.56	7.05	-48.6	-54.5	7.4	1.15e-01	0	41	0	0	69	6826
2026-01-12 09:52:52.15	158.56	7.11	-48.4	-54.0	7.9	8.70e-02	0	42	0	0	68	6845
2026-01-12 09:52:53.43	158.56	7.21	-48.0	-53.0	8.9	2.92e-02	0	42	0	0	68	6114
2026-01-12 09:52:54.14	158.56	7.27	-47.7	-52.4	9.3	3.91e-02	0	42	0	0	67	6047
2026-01-12 09:52:55.42	158.55	7.37	-47.3	-51.7	10.1	7.83e-03	0	41	0	0	66	5869
2026-01-12 09:52:56.13	158.55	7.42	-47.1	-51.2	10.6	3.86e-03	0	42	0	0	66	5546
2026-01-12 09:52:57.41	158.55	7.52	-46.7	-50.6	11.3	1.49e-03	0	42	0	0	65	5469
2026-01-12 09:52:58.13	158.55	7.58	-46.5	-50.1	11.7	6.87e-04	0	42	0	0	65	5177
2026-01-12 09:52:59.41	158.54	7.68	-46.1	-49.5	12.4	1.79e-04	0	42	0	0	64	5107
2026-01-12 09:53:00.12	158.54	7.74	-46.0	-49.3	12.6	1.08e-04	0	42	0	0	64	5023
2026-01-12 09:53:01.40	158.54	7.84	-45.8	-48.9	13.1	2.89e-05	0	42	0	0	63	5090
2026-01-12 09:53:02.12	158.54	7.90	-45.7	-48.8	13.2	3.58e-05	0	42	0	0	63	5017
2026-01-12 09:53:03.67	158.54	8.02	-45.6	-48.7	13.3	1.98e-05	0	42	0	0	63	4967
2026-01-12 09:53:04.38	158.53	8.08	-45.7	-48.8	13.1	2.21e-05	0	42	0	0	63	5039
2026-01-12 09:53:05.72	158.53	8.19	-45.9	-49.1	12.9	1.63e-02	0	42	0	0	63	5176
2026-01-12 09:53:06.43	158.53	8.25	-46.0	-49.3	12.7	6.94e-05	0	42	0	0	63	5281
2026-01-12 09:53:07.73	158.53	8.35	-46.5	-50.1	11.9	3.39e-04	0	42	0	0	63	5820
2026-01-12 09:53:08.44	158.52	8.41	-46.7	-50.4	11.4	1.76e-02	0	42	0	0	64	5722
2026-01-12 09:53:09.72	158.52	8.52	-47.3	-51.7	10.1	3.48e-03	0	42	0	0	65	6245
2026-01-12 09:53:10.43	158.52	8.58	-47.7	-52.5	9.3	1.23e-02	0	42	0	0	65	6806
2026-01-12 09:53:11.71	158.52	8.68	-48.4	-54.3	7.4	7.44e-02	0	42	0	0	67	7515
2026-01-12 09:53:12.42	158.52	8.74	-48.9	-55.6	6.5	1.94e-01	0	42	0	0	68	8213
2026-01-12 09:53:13.70	158.51	8.85	-49.5	-58.1	4.8	7.15e-01	0	42	0	0	69	10345
2026-01-12 09:53:14.41	158.51	8.91	-49.7	-60.1	3.9	1.43e+00	0	42	104	0	70	12278
2026-01-12 09:53:15.68	158.51	9.01	-50.0	-62.2	3.8	1.49e+00	0	42	104	0	70	15759
2026-01-12 09:53:16.40	158.51	9.07	-50.0	-62.2	3.8	1.49e+00	0	42	104	0	70	15701
2026-01-12 09:53:17.67	158.50	9.18	-48.3	-53.6	8.3	2.64e-01	0	42	0	0	68	6507
2026-01-12 09:53:18.58	158.50	9.26	-50.1	-63.1	3.8	2.09e-01	0	42	104	0	70	17324
2026-01-12 09:53:19.62	158.50	9.35	-50.0	-61.7	3.9	1.49e+00	0	42	104	0	70	14835
2026-01-12 09:53:20.88	158.49	9.45	-46.4	-49.9	12.1	3.61e-03	0	42	0	0	64	5368
2026-01-12 09:53:21.68	158.49	9.52	-46.3	-49.8	12.1	3.62e-04	0	42	0	0	64	5317
2026-01-12 09:53:22.82	158.49	9.62	-46.3	-49.7	12.2	2.13e-04	0	42	0	0	64	5258
2026-01-12 09:53:23.80	158.49	9.70	-45.9	-49.1	13.0	8.69e-05	0	42	0	0	63	5182
2026-01-12 09:53:24.97	158.48	9.81	-45.4	-48.4	13.7	1.29e-05	0	42	0	0	62	5059
2026-01-12 09:53:25.82	158.48	9.88	-45.1	-47.8	14.3	5.10e-02	0	42	0	0	62	4746
2026-01-12 09:53:26.96	158.48	9.98	-44.8	-47.4	14.6	7.00e-07	0	42	0	0	61	4801
2026-01-12 09:53:27.81	158.47	10.05	-44.4	-47.0	15.1	0.00e+00	0	43	0	0	60	4826
2026-01-12 09:53:28.95	158.47	10.15	-44.2	-46.6	15.4	0.00e+00	0	42	0	0	60	4648
2026-01-12 09:53:29.80	158.47	10.23	-44.3	-46.7	15.4	0.00e+00	0	42	0	0	60	4693
2026-01-12 09:53:30.94	158.47	10.33	-44.2	-46.6	15.5	0.00e+00	0	42	0	0	60	4647
2026-01-12 09:53:31.80	158.46	10.40	-44.3	-46.7	15.4	0.00e+00	0	42	0	0	60	4698
2026-01-12 09:53:32.93	158.46	10.51	-44.1	-46.5	15.6	0.00e+00	0	42	0	0	60	4571
2026-01-12 09:53:33.78	158.46	10.58	-44.1	-46.5	15.7	0.00e+00	0	42	0	0	60	4550
2026-01-12 09:53:34.92	158.45	10.68	-44.1	-46.4	15.7	0.00e+00	0	42	0	0	59	4798
2026-01-12 09:53:35.77	158.45	10.76	-44.0	-46.4	15.7	0.00e+00	0	42	0	0	59	4766
2026-01-12 09:53:36.93	158.45	10.86	-44.1	-46.4	15.7	0.00e+00	0	42	0	0	59	4801
2026-01-12 09:53:37.78	158.44	10.94	-44.0	-46.4	15.7	0.00e+00	0	43	0	0	60	4521
2026-01-12 09:53:39.01	158.44	11.05	-43.9	-46.3	15.8	0.00e+00	0	42	0	0	59	4717
2026-01-12 09:53:39.87	158.44	11.13	-43.9	-46.2	15.9	0.00e+00	0	42	0	0	59	4683
2026-01-12 09:53:41.07	158.43	11.24	-43.8	-46.1	16.0	0.00e+00	0	42	0	0	59	4642
2026-01-12 09:53:41.92	158.43	11.32	-44.0	-46.3	15.8	0.00e+00	0	42	0	0	59	4732
2026-01-12 09:53:43.06	158.43	11.43	-43.8	-46.1	16.0	0.00e+00	0	42	0	0	59	4631
2026-01-12 09:53:43.91	158.42	11.51	-43.7	-46.0	16.1	0.00e+00	0	42	0	0	59	4591
2026-01-12 09:53:45.05	158.42	11.61	-43.8	-46.1	16.0	0.00e+00	0	42	0	0	59	4636
2026-01-12 09:53:45.90	158.42	11.69	-43.8	-46.1	16.0	0.00e+00	0	43	0	0	59	4606
2026-01-12 09:53:47.03	158.41	11.80	-43.6	-45.9	16.2	0.00e+00	0	43	0	0	59	4510
2026-01-12 09:53:47.89	158.41	11.88	-43.6	-45.9	16.2	0.00e+00	0	43	0	0	59	4508
2026-01-12 09:53:49.02	158.41	11.98	-43.6	-45.8	16.4	4.88e-02	0	43	0	0	59	4453
2026-01-12 09:53:49.87	158.40	12.07	-43.5	-45.8	16.3	0.00e+00	0	43	0	0	59	4448
2026-01-12 09:53:51.01	158.40	12.17	-43.5	-45.7	16.4	0.00e+00	0	42	0	0	59	4411
2026-01-12 09:53:51.86	158.39	12.26	-43.5	-45.7	16.4	4.23e-02	0	42	0	0	59	4419
2026-01-12 09:53:53.00	158.39	12.36	-43.5	-45.7	16.4	0.00e+00	0	43	0	0	59	4430
2026-01-12 09:53:53.85	158.39	12.45	-43.6	-45.8	16.3	0.00e+00	0	43	0	0	59	4486
2026-01-12 09:53:54.99	158.38	12.56	-43.6	-45.8	16.3	0.00e+00	0	43	0	0	59	4464
2026-01-12 09:53:55.85	158.38	12.64	-43.6	-45.8	16.3	0.00e+00	0	43	0	0	59	4476
2026-01-12 09:53:56.98	158.37	12.75	-43.4	-45.6	16.5	0.00e+00	0	43	0	0	58	4639
2026-01-12 09:53:57.84	158.37	12.84	-43.4	-45.6	16.6	0.00e+00	0	42	0	0	58	4601
2026-01-12 09:53:59.07	158.37	12.96	-43.5	-45.6	16.5	0.00e+00	0	42	0	0	58	4648
2026-01-12 09:53:59.92	158.36	13.04	-43.4	-45.6	16.6	0.00e+00	0	43	0	0	58	4601
2026-01-12 09:54:01.14	158.36	13.16	-43.2	-45.4	16.8	0.00e+00	0	43	0	0	58	4504
2026-01-12 09:54:02.40	158.35	13.29	-43.2	-45.3	16.9	0.00e+00	0	43	0	0	58	4473
2026-01-12 09:54:03.19	158.35	13.37	-43.2	-45.3	16.8	9.01e-03	0	43	0	0	58	4485
2026-01-12 09:54:04.45	158.34	13.49	-43.2	-45.3	16.8	0.00e+00	0	43	0	0	58	4482
2026-01-12 09:54:05.24	158.34	13.57	-43.3	-45.4	16.8	0.00e+00	0	43	0	0	58	4522
2026-01-12 09:54:06.42	158.33	13.69	-43.2	-45.3	16.9	0.00e+00	0	43	0	0	58	4472
2026-01-12 09:54:07.28	158.33	13.78	-43.2	-45.4	16.8	0.00e+00	0	43	0	0	58	4500
2026-01-12 09:54:08.41	158.33	13.90	-43.2	-45.3	16.8	0.00e+00	0	43	0	0	58	4484
2026-01-12 09:54:09.27	158.32	13.98	-43.1	-45.3	16.9	2.13e-02	0	43	0	0	58	4451
2026-01-12 09:54:10.41	158.32	14.10	-43.1	-45.2	16.9	0.00e+00	0	42	0	0	58	4434
2026-01-12 09:54:11.26	158.31	14.19	-43.2	-45.3	16.9	0.00e+00	0	43	0	0	58	4478
2026-01-12 09:54:12.40	158.31	14.31	-43.1	-45.2	16.9	0.00e+00	0	43	0	0	58	4440
2026-01-12 09:54:13.25	158.30	14.40	-43.1	-45.2	16.9	0.00e+00	0	43	0	0	58	4441
2026-01-12 09:54:14.39	158.30	14.52	-43.1	-45.2	17.0	0.00e+00	0	43	0	0	58	4423
2026-01-12 09:54:15.24	158.29	14.61	-43.1	-45.2	17.0	0.00e+00	0	43	0	0	58	4438
2026-01-12 09:54:16.58	158.29	14.75	-43.1	-45.2	17.0	0.00e+00	0	43	0	0	58	4425
2026-01-12 09:54:17.29	158.28	14.82	-43.2	-45.3	16.9	0.00e+00	0	43	0	0	58	4460
2026-01-12 09:54:18.57	158.28	14.96	-43.1	-45.2	17.1	0.00e+00	0	43	0	0	58	4397
2026-01-12 09:54:19.30	158.27	15.04	-43.2	-45.3	16.9	0.00e+00	0	43	0	0	58	4475
2026-01-12 09:54:20.58	158.27	15.18	-43.1	-45.2	17.0	0.00e+00	0	43	0	0	58	4422
2026-01-12 09:54:21.29	158.26	15.25	-43.1	-45.2	17.0	0.00e+00	0	43	0	0	58	4406
2026-01-12 09:54:22.57	158.26	15.39	-43.1	-45.2	17.0	0.00e+00	0	43	0	0	58	4438
2026-01-12 09:54:23.28	158.25	15.47	-43.1	-45.2	17.0	7.39e-04	0	43	0	0	58	4402
2026-01-12 09:54:24.56	158.24	15.61	-43.1	-45.2	17.0	0.00e+00	0	43	0	0	58	4439
2026-01-12 09:54:25.28	158.24	15.69	-43.1	-45.2	17.0	0.00e+00	0	43	0	0	58	4412
2026-01-12 09:54:26.56	158.23	15.83	-43.1	-45.2	17.0	0.00e+00	0	43	0	0	58	4416
2026-01-12 09:54:27.27	158.23	15.91	-43.1	-45.2	17.0	0.00e+00	0	43	0	0	58	4416
2026-01-12 09:54:28.63	158.22	16.06	-43.1	-45.2	17.0	0.00e+00	0	43	0	0	58	4420
2026-01-12 09:54:29.34	158.22	16.14	-43.0	-45.1	17.1	0.00e+00	0	43	0	0	58	4362
2026-01-12 09:54:30.62	158.21	16.29	-43.1	-45.2	17.1	0.00e+00	0	43	0	0	58	4416
2026-01-12 09:54:31.33	158.21	16.37	-43.0	-45.2	17.1	0.00e+00	0	43	0	0	58	4397
2026-01-12 09:54:32.75	158.20	16.53	-43.0	-45.1	17.1	0.00e+00	0	43	0	0	58	4378
2026-01-12 09:54:33.46	158.19	16.61	-43.1	-45.2	17.0	0.00e+00	0	43	0	0	58	4416
2026-01-12 09:54:34.74	158.19	16.76	-43.1	-45.2	17.0	1.15e-03	0	43	0	0	58	4419
2026-01-12 09:54:35.45	158.18	16.84	-43.2	-45.3	16.9	0.00e+00	0	43	0	0	58	4488
2026-01-12 09:54:36.73	158.17	16.99	-43.1	-45.3	17.0	0.00e+00	0	43	0	0	58	4455
2026-01-12 09:54:37.47	158.17	17.07	-43.2	-45.3	17.0	0.00e+00	0	43	0	0	58	4461
2026-01-12 09:54:38.75	158.16	17.22	-43.2	-45.3	17.0	0.00e+00	0	43	0	0	58	4476
2026-01-12 09:54:39.46	158.16	17.31	-43.2	-45.3	16.9	0.00e+00	0	43	0	0	58	4481
2026-01-12 09:54:40.74	158.15	17.46	-43.2	-45.3	16.9	3.62e-04	0	43	0	0	58	4479
2026-01-12 09:54:41.45	158.14	17.54	-43.2	-45.3	16.9	0.00e+00	0	43	0	0	58	4489
2026-01-12 09:54:42.73	158.14	17.70	-43.2	-45.4	16.9	0.00e+00	0	43	0	0	58	4501
2026-01-12 09:54:43.45	158.13	17.78	-43.3	-45.4	16.8	0.00e+00	0	43	0	0	58	4541
2026-01-12 09:54:44.73	158.12	17.94	-43.2	-45.4	16.9	0.00e+00	0	43	0	0	58	4509
2026-01-12 09:54:45.44	158.12	18.02	-43.3	-45.4	16.8	0.00e+00	0	43	0	0	58	4529
2026-01-12 09:54:46.72	158.11	18.18	-43.3	-45.5	16.8	0.00e+00	0	43	0	0	58	4564
2026-01-12 09:54:47.45	158.10	18.27	-43.3	-45.5	16.8	0.00e+00	0	43	0	0	58	4555
2026-01-12 09:54:48.73	158.09	18.42	-43.3	-45.5	16.8	0.00e+00	0	43	0	0	58	4558
2026-01-12 09:54:49.44	158.09	18.51	-43.4	-45.6	16.7	0.00e+00	0	43	0	0	58	4610
2026-01-12 09:54:50.72	158.08	18.67	-43.3	-45.5	16.8	0.00e+00	0	43	0	0	58	4565
2026-01-12 09:54:51.43	158.07	18.76	-43.3	-45.5	16.8	0.00e+00	0	43	0	0	58	4562
2026-01-12 09:54:52.71	158.06	18.92	-43.4	-45.5	16.8	0.00e+00	0	43	0	0	58	4575
2026-01-12 09:54:53.42	158.06	19.01	-43.3	-45.5	16.8	0.00e+00	0	43	0	0	58	4560
2026-01-12 09:54:54.71	158.05	19.17	-43.4	-45.5	16.8	0.00e+00	0	43	0	0	58	4596
2026-01-12 09:54:55.43	158.04	19.27	-43.4	-45.5	16.8	0.00e+00	0	43	0	0	58	4582
2026-01-12 09:54:56.71	158.03	19.43	-43.3	-45.4	16.9	0.00e+00	0	43	0	0	58	4511
2026-01-12 09:54:57.45	158.03	19.53	-43.3	-45.4	16.9	0.00e+00	0	43	0	0	58	4541
2026-01-12 09:54:58.73	158.02	19.69	-43.3	-45.4	16.9	0.00e+00	0	43	0	0	58	4519
2026-01-12 09:54:59.48	158.01	19.79	-43.3	-45.4	16.9	0.00e+00	0	43	0	0	58	4513
2026-01-12 09:55:00.75	158.00	19.95	-43.2	-45.4	16.9	0.00e+00	0	43	0	0	58	4504
2026-01-12 09:55:01.51	158.00	20.05	-43.3	-45.4	16.9	0.00e+00	0	43	0	0	58	4545
2026-01-12 09:55:02.79	157.98	20.22	-43.1	-45.2	17.1	0.00e+00	0	43	0	0	58	4432
2026-01-12 09:55:03.55	157.98	20.32	-43.1	-45.2	17.1	0.00e+00	0	43	0	0	58	4403
2026-01-12 09:55:04.83	157.97	20.50	-43.0	-45.1	17.2	0.00e+00	0	43	0	0	57	4610
2026-01-12 09:55:05.58	157.96	20.60	-43.0	-45.1	17.2	0.00e+00	0	43	0	0	57	4633
2026-01-12 09:55:07.16	157.95	20.81	-42.9	-45.0	17.2	0.00e+00	0	43	0	0	57	4589
2026-01-12 09:55:07.81	157.94	20.90	-42.9	-44.9	17.4	0.00e+00	0	43	0	0	57	4532
2026-01-12 09:55:09.23	157.93	21.09	-42.8	-44.9	17.4	0.00e+00	0	43	0	0	57	4494
2026-01-12 09:55:09.94	157.92	21.19	-42.8	-44.8	17.5	0.00e+00	0	43	0	0	57	4482
2026-01-12 09:55:11.24	157.91	21.37	-42.7	-44.7	17.6	0.00e+00	0	43	0	0	57	4410
2026-01-12 09:55:11.95	157.90	21.47	-42.5	-44.5	17.8	0.00e+00	0	43	0	0	57	4336
2026-01-12 09:55:13.23	157.89	21.65	-42.6	-44.7	17.6	0.00e+00	0	43	0	0	57	4392
2026-01-12 09:55:13.94	157.89	21.75	-42.5	-44.5	17.8	0.00e+00	0	43	0	0	57	4318
2026-01-12 09:55:15.22	157.87	21.93	-42.4	-44.4	17.9	0.00e+00	0	43	0	0	56	4516
2026-01-12 09:55:15.94	157.87	22.03	-42.4	-44.4	17.9	0.00e+00	0	43	0	0	56	4510
2026-01-12 09:55:17.22	157.85	22.22	-42.3	-44.2	18.0	0.00e+00	0	43	0	0	56	4436
2026-01-12 09:55:17.94	157.85	22.32	-42.3	-44.2	18.1	0.00e+00	0	43	0	0	56	4399
2026-01-12 09:55:19.21	157.83	22.50	-42.3	-44.2	18.1	0.00e+00	0	43	0	0	56	4407
2026-01-12 09:55:19.99	157.83	22.62	-42.3	-44.2	18.0	0.00e+00	0	43	0	0	56	4415
2026-01-12 09:55:21.27	157.81	22.80	-42.2	-44.1	18.2	0.00e+00	0	43	0	0	56	4371
2026-01-12 09:55:22.06	157.80	22.92	-42.2	-44.1	18.2	0.00e+00	0	43	0	0	56	4344
2026-01-12 09:55:23.57	157.79	23.14	-42.0	-43.9	18.3	0.00e+00	0	43	0	0	56	4270
2026-01-12 09:55:24.28	157.78	23.25	-41.8	-43.6	18.4	0.00e+00	0	43	0	0	55	4382
2026-01-12 09:55:25.56	157.77	23.44	-41.8	-43.6	18.4	0.00e+00	0	43	0	0	55	4382
2026-01-12 09:55:26.27	157.76	23.55	-41.8	-43.6	18.4	0.00e+00	0	43	0	0	55	4387
2026-01-12 09:55:27.55	157.74	23.74	-41.7	-43.6	18.4	0.00e+00	0	43	0	0	55	4360
2026-01-12 09:55:28.26	157.74	23.85	-41.7	-43.5	18.5	0.00e+00	0	43	0	0	55	4338
2026-01-12 09:55:29.54	157.72	24.05	-41.6	-43.4	18.6	0.00e+00	0	43	0	0	55	4277
2026-01-12 09:55:30.27	157.71	24.16	-41.7	-43.5	18.5	0.00e+00	0	43	0	0	55	4323
2026-01-12 09:55:31.55	157.70	24.36	-41.6	-43.4	18.6	0.00e+00	0	43	0	0	55	4264
2026-01-12 09:55:32.26	157.69	24.47	-41.6	-43.4	18.6	0.00e+00	0	43	0	0	55	4257
2026-01-12 09:55:33.54	157.67	24.67	-41.6	-43.4	18.6	0.00e+00	0	43	0	0	55	4281
2026-01-12 09:55:34.26	157.67	24.79	-41.6	-43.4	18.6	0.00e+00	0	43	0	0	55	4285
2026-01-12 09:55:35.54	157.65	24.99	-41.6	-43.4	18.6	0.00e+00	0	43	0	0	55	4270
2026-01-12 09:55:36.25	157.64	25.10	-41.6	-43.4	18.6	0.00e+00	0	43	0	0	55	4271
2026-01-12 09:55:37.54	157.62	25.31	-41.7	-43.6	18.4	0.00e+00	0	43	0	0	55	4363
2026-01-12 09:55:38.25	157.62	25.43	-41.7	-43.6	18.4	0.00e+00	0	43	0	0	55	4355
2026-01-12 09:55:39.52	157.60	25.63	-41.8	-43.7	18.3	0.00e+00	0	43	0	0	55	4398
2026-01-12 09:55:40.24	157.59	25.75	-41.9	-43.8	18.3	0.00e+00	0	43	0	0	55	4449
2026-01-12 09:55:41.52	157.57	25.96	-42.0	-43.8	18.2	0.00e+00	0	43	0	0	55	4491
2026-01-12 09:55:42.23	157.56	26.08	-42.0	-43.8	18.2	0.00e+00	0	43	0	0	55	4480
2026-01-12 09:55:43.51	157.55	26.29	-42.0	-43.8	18.2	0.00e+00	0	43	0	0	55	4486
2026-01-12 09:55:44.22	157.54	26.41	-42.1	-44.0	18.1	0.00e+00	0	43	0	0	55	4549
2026-01-12 09:55:45.50	157.52	26.63	-42.2	-44.1	17.9	0.00e+00	0	43	0	0	55	4638
2026-01-12 09:55:46.23	157.51	26.75	-42.3	-44.2	17.9	0.00e+00	0	43	0	0	55	4689
2026-01-12 09:55:47.50	157.49	26.97	-42.4	-44.3	17.7	0.00e+00	0	43	0	0	55	4758
2026-01-12 09:55:48.22	157.48	27.10	-42.5	-44.5	17.6	0.00e+00	0	43	0	0	55	4841
2026-01-12 09:55:49.86	157.45	27.38	-42.9	-44.9	17.4	0.00e+00	0	43	0	0	56	4770
2026-01-12 09:55:50.43	157.45	27.48	-42.9	-44.8	17.5	0.00e+00	0	43	0	0	56	4755
2026-01-12 09:55:52.14	157.42	27.78	-43.0	-45.0	17.3	0.00e+00	0	43	0	0	56	4856
2026-01-12 09:55:52.74	157.41	27.89	-43.0	-45.0	17.3	0.00e+00	0	43	0	0	56	4855
2026-01-12 09:55:54.30	157.39	28.17	-43.2	-45.2	17.1	0.00e+00	0	43	0	0	57	4705
2026-01-12 09:55:54.96	157.38	28.29	-43.2	-45.3	17.0	0.00e+00	0	43	0	0	57	4716
2026-01-12 09:55:56.39	157.35	28.54	-43.2	-45.2	17.1	0.00e+00	0	43	0	0	57	4700
2026-01-12 09:55:57.10	157.34	28.67	-43.3	-45.4	16.9	0.00e+00	0	43	0	0	57	4771
2026-01-12 09:55:58.38	157.32	28.91	-43.3	-45.4	16.9	0.00e+00	0	43	0	0	57	4797
2026-01-12 09:55:59.10	157.31	29.04	-43.3	-45.4	17.0	0.00e+00	0	43	0	0	57	4793
2026-01-12 09:56:00.65	157.28	29.33	-43.2	-45.3	17.1	0.00e+00	0	43	0	0	57	4726
2026-01-12 09:56:01.36	157.27	29.46	-43.2	-45.2	17.2	0.00e+00	0	43	0	0	57	4684
2026-01-12 09:56:02.72	157.25	29.72	-43.2	-45.3	17.1	0.00e+00	0	43	0	0	57	4720
2026-01-12 09:56:03.43	157.23	29.86	-43.0	-45.1	17.3	0.00e+00	0	43	0	0	57	4615
2026-01-12 09:56:04.71	157.21	30.10	-42.9	-44.9	17.5	0.00e+00	0	43	0	0	57	4531
2026-01-12 09:56:05.42	157.20	30.24	-42.8	-44.9	17.5	0.00e+00	0	43	0	0	57	4510
2026-01-12 09:56:06.70	157.17	30.49	-42.8	-44.8	17.6	0.00e+00	0	43	0	0	57	4492
2026-01-12 09:56:07.43	157.16	30.63	-42.7	-44.7	17.7	0.00e+00	0	43	0	0	57	4432
2026-01-12 09:56:08.71	157.14	30.88	-42.6	-44.6	17.8	0.00e+00	0	43	0	0	57	4386
2026-01-12 09:56:09.42	157.12	31.02	-42.7	-44.7	17.7	0.00e+00	0	43	0	0	57	4439
2026-01-12 09:56:10.70	157.10	31.28	-42.7	-44.7	17.7	0.00e+00	0	43	0	0	57	4439
2026-01-12 09:56:11.41	157.08	31.42	-42.7	-44.8	17.7	0.00e+00	0	43	0	0	57	4442
2026-01-12 09:56:12.69	157.06	31.68	-42.6	-44.6	17.8	0.00e+00	0	43	0	0	57	4375
2026-01-12 09:56:13.43	157.04	31.83	-42.7	-44.7	17.7	0.00e+00	0	43	0	0	57	4430
2026-01-12 09:56:14.71	157.02	32.09	-42.9	-44.8	17.6	0.00e+00	0	43	0	0	57	4488
2026-01-12 09:56:15.42	157.00	32.24	-42.9	-44.9	17.6	0.00e+00	0	43	0	0	57	4499
2026-01-12 09:56:16.70	156.97	32.50	-42.9	-44.9	17.5	0.00e+00	0	43	0	0	57	4539
2026-01-12 09:56:17.62	156.95	32.70	-43.2	-45.2	17.2	0.00e+00	0	43	0	0	57	4704
2026-01-12 09:56:18.61	156.93	32.91	-43.2	-45.2	17.2	0.00e+00	0	43	0	0	57	4695
2026-01-12 09:56:19.61	156.91	33.12	-43.3	-45.4	17.1	0.00e+00	0	43	0	0	57	4782
2026-01-12 09:56:20.60	156.89	33.33	-43.2	-45.3	17.2	0.00e+00	0	43	0	0	57	4729
2026-01-12 09:56:21.60	156.86	33.54	-43.4	-45.5	17.0	0.00e+00	0	43	0	0	57	4841
2026-01-12 09:56:22.59	156.84	33.76	-43.4	-45.5	16.9	0.00e+00	0	43	0	0	57	4852
2026-01-12 09:56:23.59	156.82	33.98	-43.4	-45.5	16.9	0.00e+00	0	43	0	0	57	4863
2026-01-12 09:56:24.58	156.79	34.19	-43.6	-45.7	16.8	0.00e+00	0	43	0	0	57	4947
2026-01-12 09:56:25.66	156.77	34.43	-43.8	-46.0	16.5	0.00e+00	0	43	0	0	58	4823
2026-01-12 09:56:26.51	156.75	34.62	-43.9	-46.1	16.5	0.00e+00	0	43	0	0	58	4880
2026-01-12 09:56:27.65	156.72	34.88	-44.0	-46.3	16.2	0.00e+00	0	43	0	0	58	4997
2026-01-12 09:56:28.50	156.69	35.07	-44.1	-46.3	16.2	0.00e+00	0	43	0	0	58	5028
2026-01-12 09:56:29.64	156.67	35.33	-44.2	-46.5	16.0	0.00e+00	0	43	0	0	59	4864
2026-01-12 09:56:30.49	156.64	35.53	-44.3	-46.7	15.9	0.00e+00	0	43	0	0	59	4929
2026-01-12 09:56:31.63	156.61	35.79	-44.3	-46.6	15.9	0.00e+00	0	43	0	0	59	4907
2026-01-12 09:56:32.48	156.59	35.99	-44.4	-46.7	15.9	0.00e+00	0	43	0	0	59	4946
2026-01-12 09:56:33.62	156.56	36.25	-44.5	-46.8	15.7	0.00e+00	0	43	0	0	59	5026
2026-01-12 09:56:34.79	156.52	36.53	-44.5	-46.8	15.8	0.00e+00	0	43	0	0	59	5016
2026-01-12 09:56:35.83	156.49	36.78	-44.5	-46.9	15.7	0.00e+00	0	43	0	0	59	5075
2026-01-12 09:56:36.95	156.46	37.05	-44.5	-46.9	15.7	0.00e+00	0	43	0	0	59	5065
2026-01-12 09:56:37.80	156.44	37.25	-44.3	-46.6	16.0	0.00e+00	0	43	0	0	59	4918
2026-01-12 09:56:38.94	156.40	37.53	-44.3	-46.6	16.0	0.00e+00	0	43	0	0	59	4897
2026-01-12 09:56:39.79	156.38	37.74	-44.3	-46.6	16.0	0.00e+00	0	43	0	0	59	4879
2026-01-12 09:56:40.93	156.34	38.02	-44.4	-46.7	15.9	0.00e+00	0	43	0	0	59	4927
2026-01-12 09:56:41.78	156.31	38.23	-44.4	-46.7	15.9	0.00e+00	0	43	0	0	59	4929
2026-01-12 09:56:42.92	156.28	38.52	-44.4	-46.7	15.9	0.00e+00	0	43	0	0	59	4937
2026-01-12 09:56:43.77	156.25	38.73	-44.3	-46.6	16.0	0.00e+00	0	43	0	0	59	4875
2026-01-12 09:56:44.91	156.21	39.02	-44.3	-46.5	16.0	0.00e+00	0	43	0	0	59	4846
2026-01-12 09:56:45.76	156.18	39.24	-44.2	-46.5	16.1	0.00e+00	0	43	0	0	59	4816
2026-01-12 09:56:46.90	156.14	39.54	-44.2	-46.5	16.0	0.00e+00	0	43	0	0	59	4832
2026-01-12 09:56:47.75	156.11	39.76	-44.3	-46.5	15.9	0.00e+00	0	43	0	0	59	4852
2026-01-12 09:56:48.89	156.07	40.06	-44.4	-46.7	15.8	0.00e+00	0	43	0	0	59	4950
2026-01-12 09:56:49.79	156.04	40.29	-44.6	-46.9	15.5	0.00e+00	0	43	0	0	59	5091
2026-01-12 09:56:51.07	155.99	40.63	-44.7	-47.1	15.4	0.00e+00	0	43	0	0	60	4886
2026-01-12 09:56:52.22	155.95	40.94	-44.8	-47.2	15.4	7.00e-07	0	43	0	0	60	4944
2026-01-12 09:56:53.07	155.92	41.17	-44.7	-47.2	15.4	0.00e+00	0	43	0	0	60	4936
2026-01-12 09:56:54.21	155.87	41.48	-44.7	-47.2	15.4	0.00e+00	0	43	0	0	60	4932
2026-01-12 09:56:55.06	155.84	41.72	-44.7	-47.1	15.5	0.00e+00	0	43	0	0	60	4916
2026-01-12 09:56:56.20	155.79	42.03	-44.7	-47.1	15.5	0.00e+00	0	43	0	0	60	4901
2026-01-12 09:56:57.05	155.76	42.27	-44.8	-47.2	15.4	0.00e+00	0	43	0	0	60	4965
2026-01-12 09:56:58.18	155.71	42.59	-44.8	-47.2	15.4	0.00e+00	0	43	0	0	60	4975
2026-01-12 09:56:59.06	155.67	42.83	-44.8	-47.2	15.3	0.00e+00	0	43	0	0	60	4983
2026-01-12 09:57:00.19	155.62	43.16	-44.7	-47.1	15.5	0.00e+00	0	43	0	0	60	4887
2026-01-12 09:57:01.05	155.58	43.40	-44.7	-47.1	15.5	0.00e+00	0	43	0	0	60	4871
2026-01-12 09:57:02.19	155.53	43.73	-44.6	-46.9	15.6	0.00e+00	0	43	0	0	60	4797
2026-01-12 09:57:03.04	155.49	43.98	-44.6	-47.0	15.5	0.00e+00	0	43	0	0	60	4829
2026-01-12 09:57:04.18	155.44	44.32	-44.9	-47.3	15.2	0.00e+00	0	43	0	0	60	4991
2026-01-12 09:57:05.03	155.40	44.57	-45.0	-47.4	15.1	0.00e+00	0	43	0	0	60	5093
2026-01-12 09:57:06.17	155.34	44.91	-45.3	-47.9	14.7	0.00e+00	0	43	0	0	61	5080
2026-01-12 09:57:07.29	155.28	45.24	-45.6	-48.4	14.3	2.20e-06	0	43	0	0	61	5368
2026-01-12 09:57:08.14	155.24	45.50	-45.6	-48.4	14.4	7.00e-07	0	43	0	0	62	5042
2026-01-12 09:57:09.28	155.18	45.85	-45.7	-48.4	14.3	7.00e-07	0	43	0	0	62	5080
2026-01-12 09:57:10.14	155.14	46.11	-45.7	-48.4	14.3	2.20e-06	0	43	0	0	62	5060
2026-01-12 09:57:11.27	155.07	46.46	-45.4	-48.0	14.7	0.00e+00	0	43	0	0	62	4819
2026-01-12 09:57:12.13	155.03	46.73	-45.2	-47.8	14.9	7.00e-07	0	43	0	0	62	4718
2026-01-12 09:57:13.26	154.96	47.09	-45.2	-47.7	15.0	0.00e+00	0	43	0	0	62	4658
2026-01-12 09:57:14.12	154.91	47.36	-44.9	-47.3	15.4	0.00e+00	0	43	0	0	61	4729
2026-01-12 09:57:15.25	154.84	47.72	-44.8	-47.2	15.4	0.00e+00	0	43	0	0	61	4701
2026-01-12 09:57:16.10	154.79	47.99	-44.7	-47.1	15.6	0.00e+00	0	43	0	0	61	4621
2026-01-12 09:57:17.24	154.72	48.36	-44.6	-47.0	15.6	0.00e+00	0	43	0	0	61	4582
2026-01-12 09:57:18.10	154.67	48.64	-44.7	-47.2	15.5	0.00e+00	0	43	0	0	61	4663
2026-01-12 09:57:19.23	154.59	49.01	-44.7	-47.1	15.5	0.00e+00	0	43	0	0	61	4633
2026-01-12 09:57:20.08	154.54	49.29	-44.8	-47.2	15.5	0.00e+00	0	43	0	0	61	4663
2026-01-12 09:57:21.22	154.46	49.67	-44.9	-47.3	15.4	0.00e+00	0	43	0	0	61	4757
2026-01-12 09:57:22.07	154.40	49.96	-44.7	-47.2	15.6	0.00e+00	0	43	0	0	61	4653
2026-01-12 09:57:23.21	154.32	50.34	-44.9	-47.3	15.4	0.00e+00	0	43	0	0	61	4743
2026-01-12 09:57:24.19	154.25	50.67	-44.8	-47.2	15.5	0.00e+00	0	43	0	0	61	4657
2026-01-12 09:57:25.39	154.16	51.09	-44.6	-46.9	15.8	0.00e+00	0	43	0	0	61	4526
2026-01-12 09:57:26.24	154.10	51.38	-44.5	-46.8	15.7	0.00e+00	0	43	0	0	60	4748
2026-01-12 09:57:27.60	153.99	51.85	-44.3	-46.5	16.0	0.00e+00	0	43	0	0	60	4587
2026-01-12 09:57:28.31	153.93	52.10	-44.1	-46.4	16.1	0.00e+00	0	43	0	0	60	4499
2026-01-12 09:57:29.59	153.83	52.55	-43.8	-46.0	16.4	0.00e+00	0	43	0	0	59	4555
2026-01-12 09:57:30.32	153.76	52.81	-43.7	-45.8	16.6	0.00e+00	0	43	0	0	59	4493
2026-01-12 09:57:31.60	153.65	53.27	-43.7	-45.8	16.8	0.00e+00	0	43	0	0	59	4472
2026-01-12 09:57:32.31	153.59	53.53	-43.7	-45.8	16.7	0.00e+00	0	43	0	0	59	4484
2026-01-12 09:57:33.59	153.47	53.99	-43.6	-45.6	16.9	0.00e+00	0	43	0	0	59	4385
2026-01-12 09:57:34.44	153.39	54.30	-43.4	-45.4	17.0	0.00e+00	0	43	0	0	58	4545
2026-01-12 09:57:35.58	153.28	54.72	-43.2	-45.2	17.2	0.00e+00	0	43	0	0	58	4438
2026-01-12 09:57:36.43	153.20	55.04	-43.1	-45.1	17.3	0.00e+00	0	43	0	0	58	4369
2026-01-12 09:57:37.57	153.08	55.46	-42.9	-44.8	17.6	0.00e+00	0	43	0	0	57	4480
2026-01-12 09:57:38.42	152.99	55.78	-43.0	-44.9	17.5	0.00e+00	0	43	0	0	57	4538
2026-01-12 09:57:39.56	152.87	56.22	-42.8	-44.8	17.7	0.00e+00	0	43	0	0	57	4456
2026-01-12 09:57:40.41	152.78	56.54	-42.7	-44.6	17.9	0.00e+00	0	43	0	0	57	4377
2026-01-12 09:57:41.55	152.65	56.98	-42.3	-44.2	18.2	0.00e+00	0	43	0	0	56	4417
2026-01-12 09:57:42.40	152.55	57.30	-42.3	-44.1	18.4	0.00e+00	0	43	0	0	56	4372
2026-01-12 09:57:43.53	152.41	57.74	-42.2	-44.0	18.5	0.00e+00	0	43	0	0	56	4322
2026-01-12 09:57:44.39	152.31	58.08	-42.1	-43.9	18.6	0.00e+00	0	43	0	0	56	4266
2026-01-12 09:57:45.53	152.16	58.53	-41.7	-43.5	18.7	0.00e+00	0	43	0	0	55	4338
2026-01-12 09:57:46.38	152.05	58.86	-41.7	-43.5	18.7	0.00e+00	0	43	0	0	55	4329
2026-01-12 09:57:47.51	151.90	59.31	-41.9	-43.7	18.5	0.00e+00	0	43	0	0	55	4429
2026-01-12 09:57:48.37	151.78	59.66	-41.9	-43.8	18.5	0.00e+00	0	43	0	0	55	4454
2026-01-12 09:57:49.50	151.61	60.11	-42.1	-43.9	18.4	0.00e+00	0	43	0	0	55	4525
2026-01-12 09:57:50.36	151.48	60.46	-42.0	-43.9	18.4	0.00e+00	0	43	0	0	55	4500
2026-01-12 09:57:51.49	151.31	60.92	-42.0	-43.9	18.4	0.00e+00	0	44	0	0	55	4509
2026-01-12 09:57:52.35	151.17	61.28	-41.8	-43.6	18.6	0.00e+00	0	43	0	0	55	4387
2026-01-12 09:57:53.48	150.99	61.74	-41.8	-43.6	18.6	0.00e+00	0	43	0	0	55	4356
2026-01-12 09:57:54.34	150.84	62.10	-41.6	-43.4	18.7	0.00e+00	0	43	0	0	55	4284
2026-01-12 09:57:55.47	150.64	62.57	-41.5	-43.3	18.8	0.00e+00	0	43	0	0	54	4467
2026-01-12 09:57:56.32	150.49	62.93	-41.3	-43.1	19.1	0.00e+00	0	43	0	0	54	4381
2026-01-12 09:57:57.46	150.27	63.41	-41.3	-43.1	19.2	0.00e+00	0	44	0	0	54	4349
2026-01-12 09:57:58.32	150.10	63.77	-41.2	-42.9	19.2	0.00e+00	0	43	0	0	54	4288
2026-01-12 09:57:59.45	149.87	64.25	-41.4	-43.1	19.1	0.00e+00	0	43	0	0	54	4379
2026-01-12 09:58:00.30	149.69	64.62	-41.2	-43.0	19.2	0.00e+00	0	43	0	0	54	4315
2026-01-12 09:58:01.51	149.43	65.14	-41.2	-42.9	19.3	0.00e+00	0	44	0	0	54	4275
2026-01-12 09:58:02.36	149.23	65.50	-41.0	-42.8	19.4	0.00e+00	0	43	0	0	54	4195
2026-01-12 09:58:03.49	148.96	65.99	-40.7	-42.4	19.7	0.00e+00	0	43	0	0	53	4276
2026-01-12 09:58:04.35	148.75	66.37	-40.7	-42.3	19.8	0.00e+00	0	43	0	0	53	4232
2026-01-12 09:58:05.67	148.41	66.95	-40.8	-42.5	19.6	0.00e+00	0	44	0	0	53	4332
2026-01-12 09:58:06.39	148.21	67.26	-40.9	-42.6	19.5	0.00e+00	0	44	0	0	53	4383
2026-01-12 09:58:07.67	147.85	67.83	-41.0	-42.7	19.4	0.00e+00	0	44	0	0	53	4434
2026-01-12 09:58:08.39	147.64	68.15	-40.8	-42.5	19.6	0.00e+00	0	43	0	0	53	4319
2026-01-12 09:58:09.67	147.24	68.72	-40.8	-42.5	19.6	0.00e+00	0	44	0	0	53	4314
2026-01-12 09:58:10.41	147.00	69.05	-40.9	-42.6	19.5	0.00e+00	0	43	0	0	53	4385
2026-01-12 09:58:11.69	146.57	69.62	-41.3	-43.1	19.1	0.00e+00	0	43	0	0	53	4619
2026-01-12 09:58:12.46	146.30	69.97	-41.6	-43.4	18.8	0.00e+00	0	43	0	0	53	4764
2026-01-12 09:58:13.75	145.82	70.55	-41.8	-43.6	18.6	0.00e+00	0	43	0	0	54	4647
2026-01-12 09:58:14.46	145.54	70.87	-41.8	-43.6	18.7	0.00e+00	0	43	0	0	54	4638
2026-01-12 09:58:15.74	145.01	71.46	-42.0	-43.9	18.5	0.00e+00	0	43	0	0	54	4793
2026-01-12 09:58:16.45	144.70	71.78	-42.0	-43.9	18.4	0.00e+00	0	43	0	0	54	4774
2026-01-12 09:58:17.72	144.12	72.36	-41.8	-43.7	18.5	0.00e+00	0	43	0	0	54	4659
2026-01-12 09:58:18.44	143.77	72.69	-41.7	-43.5	18.7	0.00e+00	0	43	0	0	54	4595
2026-01-12 09:58:19.75	143.09	73.28	-41.6	-43.4	18.9	0.00e+00	0	43	0	0	54	4507
2026-01-12 09:58:20.46	142.71	73.61	-41.4	-43.2	19.0	0.00e+00	0	43	0	0	54	4421
2026-01-12 09:58:21.74	141.97	74.19	-41.3	-43.0	19.1	0.00e+00	0	43	0	0	54	4335
2026-01-12 09:58:22.45	141.54	74.52	-41.1	-42.9	19.2	0.00e+00	0	43	0	0	54	4267
2026-01-12 09:58:23.73	140.70	75.10	-41.3	-43.0	19.2	0.00e+00	0	43	0	0	54	4327
2026-01-12 09:58:24.46	140.20	75.44	-41.2	-43.0	19.2	0.00e+00	0	43	0	0	54	4307
2026-01-12 09:58:25.74	139.25	76.02	-41.4	-43.2	19.0	0.00e+00	0	43	0	0	54	4422
2026-01-12 09:58:26.45	138.68	76.34	-41.5	-43.3	18.9	0.00e+00	0	43	0	0	54	4459
2026-01-12 09:58:27.72	137.61	76.92	-41.6	-43.4	18.9	0.00e+00	0	43	0	0	54	4509
2026-01-12 09:58:28.44	136.95	77.25	-41.5	-43.3	18.9	0.00e+00	0	43	0	0	54	4465
2026-01-12 09:58:29.71	135.70	77.82	-41.4	-43.2	19.1	0.00e+00	0	44	0	0	54	4399
2026-01-12 09:58:30.50	134.87	78.17	-41.4	-43.2	19.1	0.00e+00	0	43	0	0	54	4413
2026-01-12 09:58:31.68	133.52	78.70	-41.6	-43.4	18.7	0.00e+00	0	43	0	0	54	4538
2026-01-12 09:58:32.53	132.46	79.07	-41.7	-43.5	18.6	0.00e+00	0	43	0	0	54	4588
2026-01-12 09:58:33.67	130.92	79.57	-41.2	-43.0	19.1	0.00e+00	0	43	0	0	54	4309
2026-01-12 09:58:34.52	129.68	79.94	-41.2	-42.9	19.1	0.00e+00	0	44	0	0	54	4282
2026-01-12 09:58:35.66	127.86	80.42	-41.2	-42.9	19.1	0.00e+00	0	43	0	0	54	4265
2026-01-12 09:58:36.81	125.82	80.90	-41.5	-43.2	18.8	0.00e+00	0	43	0	0	54	4431
2026-01-12 09:58:37.82	123.85	81.31	-41.5	-43.3	18.9	0.00e+00	0	43	0	0	54	4446
2026-01-12 09:58:38.99	121.31	81.77	-41.6	-43.4	18.7	0.00e+00	0	43	0	0	54	4528
2026-01-12 09:58:39.84	119.28	82.10	-41.7	-43.5	18.6	0.00e+00	0	44	0	0	54	4585
2026-01-12 09:58:40.98	116.29	82.52	-42.0	-44.0	18.3	0.00e+00	0	44	0	0	54	4824
2026-01-12 09:58:41.83	113.83	82.82	-42.1	-44.0	18.3	0.00e+00	0	43	0	0	55	4557
2026-01-12 09:58:42.97	110.20	83.20	-42.2	-44.2	18.1	0.00e+00	0	43	0	0	55	4652
2026-01-12 09:58:43.82	107.22	83.46	-42.2	-44.2	18.1	0.00e+00	0	43	0	0	55	4677
2026-01-12 09:58:44.96	102.85	83.79	-42.2	-44.1	18.2	0.00e+00	0	43	0	0	55	4641
2026-01-12 09:58:45.81	99.29	84.00	-41.9	-43.8	18.4	0.00e+00	0	43	0	0	55	4484
2026-01-12 09:58:46.95	94.12	84.26	-41.7	-43.6	18.6	0.00e+00	0	43	0	0	55	4351
2026-01-12 09:58:47.80	89.99	84.41	-41.6	-43.4	18.8	0.00e+00	0	43	0	0	55	4262
2026-01-12 09:58:48.94	84.12	84.57	-41.8	-43.7	18.6	0.00e+00	0	43	0	0	55	4402
2026-01-12 09:58:49.79	79.55	84.65	-41.8	-43.7	18.6	0.00e+00	0	43	0	0	55	4403
2026-01-12 09:58:51.02	72.77	84.70	-41.6	-43.4	18.7	0.00e+00	0	43	0	0	55	4282
2026-01-12 09:58:51.88	67.98	84.70	-41.5	-43.2	18.9	0.00e+00	0	44	0	0	54	4440
2026-01-12 09:58:53.02	61.73	84.63	-41.7	-43.6	18.6	0.00e+00	0	43	0	0	54	4606
2026-01-12 09:58:53.87	57.20	84.54	-41.8	-43.6	18.6	0.00e+00	0	43	0	0	54	4645
2026-01-12 09:58:55.12	50.86	84.35	-41.7	-43.5	18.6	0.00e+00	0	43	0	0	54	4586
2026-01-12 09:58:55.97	46.82	84.19	-41.9	-43.8	18.4	0.00e+00	0	43	0	0	54	4717
2026-01-12 09:58:57.10	41.83	83.92	-41.7	-43.6	18.7	0.00e+00	0	43	0	0	54	4602
2026-01-12 09:58:57.96	38.33	83.70	-41.5	-43.3	19.0	0.00e+00	0	43	0	0	54	4446
2026-01-12 09:58:59.10	34.09	83.36	-41.4	-43.2	19.0	0.00e+00	0	43	0	0	54	4419
2026-01-12 09:58:59.95	31.20	83.09	-41.7	-43.5	18.8	0.00e+00	0	43	0	0	54	4584
2026-01-12 09:59:01.09	27.69	82.70	-41.4	-43.2	19.0	0.00e+00	0	43	0	0	54	4417
2026-01-12 09:59:01.94	25.31	82.40	-41.4	-43.2	19.1	0.00e+00	0	43	0	0	54	4409
2026-01-12 09:59:03.08	22.41	81.97	-41.4	-43.2	19.1	0.00e+00	0	43	0	0	54	4407
2026-01-12 09:59:04.01	20.27	81.61	-41.6	-43.4	18.9	0.00e+00	0	43	0	0	54	4507
2026-01-12 09:59:05.00	18.19	81.22	-41.9	-43.8	18.6	0.00e+00	0	44	0	0	54	4726
2026-01-12 09:59:06.00	16.28	80.81	-41.7	-43.5	18.8	0.00e+00	0	43	0	0	54	4596
2026-01-12 09:59:06.99	14.55	80.40	-41.4	-43.1	19.1	0.00e+00	0	43	0	0	54	4388
2026-01-12 09:59:07.99	12.95	79.97	-41.2	-42.9	19.2	0.00e+00	0	43	0	0	54	4271
2026-01-12 09:59:08.98	11.50	79.54	-41.2	-42.9	19.2	0.00e+00	0	43	0	0	54	4260
2026-01-12 09:59:09.98	10.16	79.11	-41.3	-43.0	19.1	0.00e+00	0	44	0	0	54	4327
2026-01-12 09:59:10.97	8.93	78.67	-41.7	-43.5	18.7	0.00e+00	0	44	0	0	54	4576
2026-01-12 09:59:11.97	7.78	78.23	-42.2	-44.1	18.2	0.00e+00	0	43	0	0	55	4643
2026-01-12 09:59:12.96	6.73	77.79	-42.4	-44.3	18.1	0.00e+00	0	43	0	0	55	4742
2026-01-12 09:59:13.96	5.75	77.34	-42.0	-43.9	18.4	0.00e+00	0	43	0	0	55	4503
2026-01-12 09:59:14.95	4.84	76.89	-41.9	-43.7	18.3	0.00e+00	0	43	0	0	55	4413
2026-01-12 09:59:15.95	3.99	76.44	-41.6	-43.4	18.8	0.00e+00	0	43	0	0	55	4248
2026-01-12 09:59:17.03	3.13	75.95	-41.8	-43.6	18.7	0.00e+00	0	43	0	0	54	4615
2026-01-12 09:59:17.89	2.50	75.55	-41.9	-43.7	18.5	0.00e+00	0	43	0	0	54	4695
2026-01-12 09:59:19.03	1.70	75.03	-41.9	-43.8	18.3	0.00e+00	0	43	0	0	54	4715
2026-01-12 09:59:19.88	1.15	74.65	-41.4	-43.2	18.7	0.00e+00	0	43	0	0	54	4410
2026-01-12 09:59:21.01	0.46	74.13	-41.3	-43.0	18.8	0.00e+00	0	43	0	0	54	4333
2026-01-12 09:59:21.87	359.96	73.74	-41.2	-42.9	19.0	0.00e+00	0	43	0	0	54	4266
2026-01-12 09:59:23.00	359.34	73.22	-41.5	-43.3	18.8	0.00e+00	0	43	0	0	54	4487
2026-01-12 09:59:23.86	358.90	72.83	-41.6	-43.4	18.9	0.00e+00	0	43	0	0	54	4495
2026-01-12 09:59:24.99	358.35	72.32	-41.5	-43.3	18.9	0.00e+00	0	43	0	0	54	4469
2026-01-12 09:59:25.85	357.95	71.92	-41.4	-43.2	18.8	0.00e+00	0	43	0	0	54	4422
2026-01-12 09:59:26.98	357.46	71.41	-40.9	-42.6	19.3	0.00e+00	0	43	0	0	53	4355
2026-01-12 09:59:27.84	357.10	71.02	-40.4	-42.1	19.9	0.00e+00	0	43	0	0	52	4348
2026-01-12 09:59:29.02	356.64	70.49	-40.4	-42.0	20.1	0.00e+00	0	43	0	0	52	4337
2026-01-12 09:59:29.88	356.32	70.10	-40.7	-42.4	19.8	0.00e+00	0	43	0	0	52	4524
2026-01-12 09:59:31.01	355.91	69.60	-41.6	-43.4	18.8	0.00e+00	0	43	0	0	53	4773
2026-01-12 09:59:31.87	355.62	69.21	-42.1	-44.0	18.1	0.00e+00	0	43	0	0	54	4824
2026-01-12 09:59:33.13	355.21	68.65	-42.2	-44.1	17.9	0.00e+00	0	43	0	0	55	4604
2026-01-12 09:59:33.93	354.97	68.29	-41.9	-43.8	18.3	0.00e+00	0	43	0	0	55	4442
2026-01-12 09:59:35.07	354.63	67.79	-41.6	-43.4	18.8	0.00e+00	0	43	0	0	55	4268
2026-01-12 09:59:35.94	354.39	67.40	-41.2	-42.9	19.3	0.00e+00	0	43	0	0	54	4279
2026-01-12 09:59:37.08	354.08	66.90	-41.1	-42.8	19.4	0.00e+00	0	43	0	0	54	4240
2026-01-12 09:59:38.01	353.84	66.50	-41.9	-43.7	18.6	0.00e+00	0	43	0	0	54	4695
2026-01-12 09:59:39.00	353.59	66.07	-42.5	-44.4	18.0	0.00e+00	0	43	0	0	55	4814
2026-01-12 09:59:40.00	353.35	65.63	-42.2	-44.1	18.0	0.00e+00	0	43	0	0	55	4650
2026-01-12 09:59:40.99	353.12	65.21	-41.4	-43.2	18.7	0.00e+00	0	43	0	0	54	4400
2026-01-12 09:59:41.99	352.90	64.78	-41.3	-43.1	18.7	0.00e+00	0	43	0	0	54	4357
2026-01-12 09:59:42.98	352.69	64.35	-41.0	-42.7	19.2	0.00e+00	0	43	0	0	53	4427
2026-01-12 09:59:43.97	352.49	63.93	-40.9	-42.6	19.5	0.00e+00	0	43	0	0	53	4374
2026-01-12 09:59:44.97	352.29	63.51	-41.1	-42.9	19.4	0.00e+00	0	43	0	0	53	4495
2026-01-12 09:59:45.96	352.10	63.09	-42.1	-44.1	18.4	0.00e+00	0	43	0	0	54	4882
2026-01-12 09:59:46.96	351.92	62.67	-43.2	-45.3	17.3	0.00e+00	0	43	0	0	57	4734
2026-01-12 09:59:47.96	351.74	62.26	-43.3	-45.4	17.1	0.00e+00	0	43	0	0	57	4773
2026-01-12 09:59:48.95	351.57	61.85	-42.9	-44.9	17.2	0.00e+00	0	43	0	0	57	4521
2026-01-12 09:59:49.95	351.40	61.44	-42.5	-44.4	17.8	0.00e+00	0	43	0	0	57	4250
2026-01-12 09:59:50.94	351.24	61.03	-42.2	-44.1	18.2	0.00e+00	0	43	0	0	56	4382
2026-01-12 09:59:51.94	351.09	60.62	-41.4	-43.2	19.0	0.00e+00	0	43	0	0	54	4437
2026-01-12 09:59:52.93	350.94	60.22	-41.1	-42.8	19.5	0.00e+00	0	43	0	0	54	4221
2026-01-12 09:59:53.93	350.80	59.82	-41.3	-43.1	19.2	0.00e+00	0	43	0	0	53	4611
2026-01-12 09:59:54.92	350.66	59.43	-42.1	-44.0	18.4	0.00e+00	0	43	0	0	54	4842
2026-01-12 09:59:55.92	350.52	59.03	-43.0	-45.0	17.6	0.00e+00	0	43	0	0	56	4862
2026-01-12 09:59:56.91	350.39	58.64	-43.6	-45.8	16.8	0.00e+00	0	43	0	0	57	5029
2026-01-12 09:59:57.90	350.26	58.25	-43.4	-45.6	17.0	0.00e+00	0	43	0	0	57	4880
2026-01-12 09:59:58.90	350.14	57.86	-42.8	-44.8	17.5	0.00e+00	0	43	0	0	57	4448
2026-01-12 09:59:59.94	350.01	57.46	-42.4	-44.4	17.7	0.00e+00	0	44	0	0	56	4496
2026-01-12 10:00:00.95	349.89	57.07	-42.2	-44.1	18.1	0.00e+00	0	43	0	0	56	4373
2026-01-12 10:00:01.95	349.78	56.68	-42.7	-44.7	17.7	0.00e+00	0	43	0	0	56	4673
2026-01-12 10:00:02.94	349.67	56.31	-43.3	-45.4	17.1	0.00e+00	0	44	0	0	57	4781
2026-01-12 10:00:03.94	349.56	55.93	-43.7	-45.8	16.8	0.00e+00	0	43	0	0	58	4722
2026-01-12 10:00:04.93	349.46	55.56	-43.9	-46.1	16.4	0.00e+00	0	43	0	0	58	4907
2026-01-12 10:00:05.93	349.36	55.19	-44.3	-46.6	15.8	0.00e+00	0	43	0	0	59	4925
2026-01-12 10:00:06.92	349.26	54.82	-44.7	-47.1	15.5	0.00e+00	0	43	0	0	60	4916
2026-01-12 10:00:07.92	349.16	54.45	-45.1	-47.6	15.0	0.00e+00	0	44	0	0	60	5217
2026-01-12 10:00:08.91	349.07	54.09	-45.1	-47.8	14.9	0.00e+00	0	43	0	0	61	4990
2026-01-12 10:00:09.91	348.98	53.73	-44.6	-47.0	15.8	0.00e+00	0	43	0	0	61	4566
2026-01-12 10:00:10.90	348.89	53.37	-43.4	-45.5	17.1	0.00e+00	0	43	0	0	58	4576
2026-01-12 10:00:11.89	348.80	53.02	-42.9	-44.9	17.6	0.00e+00	0	43	0	0	57	4538
2026-01-12 10:00:12.89	348.72	52.66	-43.0	-45.0	17.6	0.00e+00	0	43	0	0	57	4587
2026-01-12 10:00:13.88	348.64	52.32	-43.6	-45.7	16.9	0.00e+00	0	43	0	0	57	4972
2026-01-12 10:00:14.88	348.56	51.97	-44.2	-46.4	16.3	0.00e+00	0	44	0	0	58	5077
2026-01-12 10:00:15.91	348.47	51.61	-44.5	-46.8	15.8	0.00e+00	0	43	0	0	59	5021
2026-01-12 10:00:16.90	348.40	51.27	-44.4	-46.7	15.7	0.00e+00	0	43	0	0	59	4973
2026-01-12 10:00:17.89	348.32	50.93	-44.6	-47.0	15.4	0.00e+00	0	43	0	0	59	5116
2026-01-12 10:00:18.98	348.24	50.56	-44.6	-47.0	15.4	0.00e+00	0	43	0	0	59	5117
2026-01-12 10:00:19.87	348.18	50.25	-44.8	-47.2	15.3	0.00e+00	0	43	0	0	60	4969
2026-01-12 10:00:21.18	348.09	49.82	-44.9	-47.5	14.9	7.00e-07	0	43	0	0	60	5138
2026-01-12 10:00:21.89	348.04	49.58	-45.0	-47.5	14.8	0.00e+00	0	43	0	0	60	5155
2026-01-12 10:00:23.17	347.96	49.16	-44.9	-47.5	15.1	0.00e+00	0	43	0	0	60	5107
2026-01-12 10:00:23.91	347.91	48.91	-44.9	-47.4	15.1	0.00e+00	0	43	0	0	60	5062
2026-01-12 10:00:25.19	347.83	48.50	-44.7	-47.1	15.5	0.00e+00	0	43	0	0	60	4918
2026-01-12 10:00:25.90	347.78	48.27	-44.5	-46.9	15.8	0.00e+00	0	43	0	0	60	4772
2026-01-12 10:00:27.18	347.70	47.86	-44.9	-47.3	15.4	0.00e+00	0	43	0	0	60	5031
2026-01-12 10:00:28.00	347.66	47.60	-45.2	-47.8	15.0	0.00e+00	0	43	0	0	61	4990
2026-01-12 10:00:29.14	347.59	47.24	-45.8	-48.6	14.2	7.00e-07	0	43	0	0	62	5188
2026-01-12 10:00:29.99	347.54	46.97	-46.1	-48.9	13.8	1.50e-06	0	43	0	0	62	5396
2026-01-12 10:00:31.13	347.48	46.62	-46.3	-49.3	13.3	1.98e-05	0	43	0	0	63	5305
2026-01-12 10:00:31.98	347.43	46.35	-46.2	-49.2	13.3	1.60e-05	0	43	0	0	63	5261
2026-01-12 10:00:33.12	347.37	46.00	-45.8	-48.6	13.9	3.80e-06	0	43	0	0	63	4901
2026-01-12 10:00:34.34	347.31	45.63	-45.6	-48.3	14.2	3.00e-06	0	43	0	0	63	4754
2026-01-12 10:00:35.19	347.26	45.38	-45.6	-48.4	14.1	0.00e+00	0	44	0	0	63	4807
2026-01-12 10:00:36.33	347.21	45.03	-45.6	-48.4	14.2	7.00e-07	0	44	0	0	63	4806
2026-01-12 10:00:37.18	347.16	44.78	-45.3	-48.1	14.5	0.00e+00	0	43	0	0	62	4883
2026-01-12 10:00:38.31	347.11	44.45	-45.3	-48.1	14.5	0.00e+00	0	43	0	0	62	4873
2026-01-12 10:00:39.17	347.07	44.20	-45.2	-47.9	14.6	7.00e-07	0	43	0	0	62	4781
2026-01-12 10:00:40.30	347.02	43.87	-44.9	-47.4	15.0	0.00e+00	0	43	0	0	61	4806
2026-01-12 10:00:41.16	346.98	43.62	-44.9	-47.4	15.1	1.50e-06	0	43	0	0	61	4792
2026-01-12 10:00:42.30	346.93	43.29	-44.8	-47.2	15.4	0.00e+00	0	43	0	0	61	4699
2026-01-12 10:00:43.15	346.89	43.05	-44.7	-47.1	15.6	0.00e+00	0	43	0	0	61	4639
2026-01-12 10:00:44.33	346.84	42.72	-44.7	-47.1	15.6	0.00e+00	0	43	0	0	61	4627
2026-01-12 10:00:45.18	346.80	42.48	-44.8	-47.2	15.6	0.00e+00	0	43	0	0	61	4663
2026-01-12 10:00:46.32	346.76	42.16	-44.9	-47.4	15.3	0.00e+00	0	43	0	0	61	4784
2026-01-12 10:00:47.17	346.72	41.93	-44.9	-47.4	15.3	0.00e+00	0	43	0	0	61	4784
2026-01-12 10:00:48.31	346.68	41.61	-45.1	-47.6	15.1	0.00e+00	0	43	0	0	61	4907
2026-01-12 10:00:49.16	346.64	41.38	-45.2	-47.8	15.0	0.00e+00	0	43	0	0	61	4989
2026-01-12 10:00:50.30	346.60	41.08	-45.3	-47.9	14.8	0.00e+00	0	43	0	0	61	5097
2026-01-12 10:00:51.15	346.57	40.85	-45.4	-48.1	14.7	0.00e+00	0	44	0	0	61	5180
2026-01-12 10:00:52.28	346.53	40.55	-45.3	-47.9	14.9	7.00e-07	0	44	0	0	61	5054
2026-01-12 10:00:53.13	346.50	40.32	-45.1	-47.7	15.1	0.00e+00	0	43	0	0	61	4936
2026-01-12 10:00:54.27	346.45	40.02	-45.2	-47.7	15.0	0.00e+00	0	43	0	0	61	4942
2026-01-12 10:00:55.13	346.42	39.80	-45.3	-47.9	14.8	0.00e+00	0	44	0	0	61	5088
2026-01-12 10:00:56.26	346.39	39.51	-45.4	-48.0	14.8	0.00e+00	0	44	0	0	61	5123
2026-01-12 10:00:57.12	346.36	39.29	-45.5	-48.2	14.6	7.00e-07	0	43	0	0	61	5236
2026-01-12 10:00:58.26	346.32	39.00	-45.4	-48.1	14.7	7.00e-07	0	44	0	0	61	5173
2026-01-12 10:00:59.11	346.29	38.78	-45.2	-47.7	15.0	0.00e+00	0	43	0	0	61	4964
2026-01-12 10:01:00.25	346.25	38.50	-44.9	-47.4	15.3	7.00e-07	0	44	0	0	61	4805
2026-01-12 10:01:01.10	346.23	38.28	-44.8	-47.3	15.4	0.00e+00	0	43	0	0	61	4722
2026-01-12 10:01:02.24	346.19	38.00	-44.8	-47.3	15.4	7.00e-07	0	43	0	0	61	4721
2026-01-12 10:01:03.09	346.17	37.79	-44.7	-47.1	15.6	0.00e+00	0	44	0	0	61	4625
2026-01-12 10:01:04.23	346.13	37.52	-44.2	-46.5	16.1	0.00e+00	0	43	0	0	60	4596
2026-01-12 10:01:05.08	346.11	37.31	-43.7	-45.8	16.7	0.00e+00	0	44	0	0	59	4477
2026-01-12 10:01:06.22	346.07	37.04	-43.5	-45.6	16.8	0.00e+00	0	43	0	0	59	4390
2026-01-12 10:01:07.07	346.05	36.83	-43.6	-45.7	16.7	0.00e+00	0	43	0	0	59	4433
2026-01-12 10:01:08.48	346.01	36.50	-43.9	-46.1	16.4	0.00e+00	0	43	0	0	59	4643
2026-01-12 10:01:09.19	345.99	36.33	-44.0	-46.3	16.3	0.00e+00	0	43	0	0	59	4718
2026-01-12 10:01:10.47	345.96	36.04	-44.2	-46.6	16.1	0.00e+00	0	43	0	0	59	4880
2026-01-12 10:01:11.19	345.94	35.87	-44.1	-46.5	16.2	0.00e+00	0	43	0	0	59	4818
2026-01-12 10:01:12.47	345.90	35.58	-44.0	-46.3	16.3	0.00e+00	0	44	0	0	59	4737
2026-01-12 10:01:13.20	345.88	35.41	-44.0	-46.3	16.4	0.00e+00	0	43	0	0	59	4711
2026-01-12 10:01:14.48	345.85	35.12	-44.1	-46.4	16.2	0.00e+00	0	43	0	0	59	4777
2026-01-12 10:01:15.22	345.83	34.95	-44.2	-46.5	16.1	0.00e+00	0	43	0	0	59	4815
2026-01-12 10:01:16.50	345.80	34.67	-44.1	-46.3	16.3	0.00e+00	0	43	0	0	59	4756
2026-01-12 10:01:17.22	345.78	34.51	-43.9	-46.1	16.5	0.00e+00	0	43	0	0	59	4599
2026-01-12 10:01:18.50	345.75	34.23	-43.7	-45.8	16.7	0.00e+00	0	43	0	0	59	4473
2026-01-12 10:01:19.24	345.74	34.06	-43.6	-45.7	16.7	0.00e+00	0	43	0	0	59	4432
2026-01-12 10:01:20.52	345.71	33.79	-43.5	-45.7	16.7	0.00e+00	0	44	0	0	59	4400
2026-01-12 10:01:21.23	345.69	33.63	-43.7	-45.8	16.6	0.00e+00	0	44	0	0	59	4486
2026-01-12 10:01:22.53	345.66	33.36	-43.7	-45.9	16.5	0.00e+00	0	43	0	0	59	4517
2026-01-12 10:01:23.24	345.65	33.21	-43.7	-45.9	16.6	0.00e+00	0	43	0	0	59	4498
2026-01-12 10:01:24.57	345.62	32.93	-43.8	-45.9	16.6	0.00e+00	0	44	0	0	59	4540
2026-01-12 10:01:25.28	345.60	32.78	-43.7	-45.9	16.6	0.00e+00	0	43	0	0	59	4519
2026-01-12 10:01:26.56	345.58	32.51	-43.6	-45.8	16.8	0.00e+00	0	43	0	0	59	4450
2026-01-12 10:01:27.27	345.56	32.36	-43.4	-45.6	17.0	0.00e+00	0	43	0	0	58	4616
2026-01-12 10:01:28.55	345.53	32.10	-43.3	-45.4	17.1	0.00e+00	0	43	0	0	58	4524
2026-01-12 10:01:29.26	345.52	31.96	-43.2	-45.4	17.2	0.00e+00	0	43	0	0	58	4499
2026-01-12 10:01:30.54	345.49	31.70	-43.2	-45.3	17.2	0.00e+00	0	43	0	0	58	4476
2026-01-12 10:01:31.25	345.48	31.55	-43.3	-45.4	17.1	0.00e+00	0	43	0	0	58	4543
2026-01-12 10:01:32.53	345.46	31.30	-43.2	-45.3	17.2	0.00e+00	0	43	0	0	58	4479
2026-01-12 10:01:33.24	345.44	31.16	-43.2	-45.3	17.2	0.00e+00	0	43	0	0	58	4489
2026-01-12 10:01:34.52	345.42	30.91	-43.3	-45.3	17.2	0.00e+00	0	43	0	0	58	4478
2026-01-12 10:01:35.25	345.40	30.76	-43.3	-45.4	17.2	0.00e+00	0	43	0	0	58	4524
2026-01-12 10:01:36.53	345.38	30.52	-43.3	-45.4	17.1	0.00e+00	0	43	0	0	58	4530
2026-01-12 10:01:37.24	345.37	30.38	-43.4	-45.5	17.1	0.00e+00	0	43	0	0	58	4559
2026-01-12 10:01:38.51	345.35	30.13	-43.4	-45.5	17.0	0.00e+00	0	43	0	0	58	4563
2026-01-12 10:01:39.24	345.33	30.00	-43.4	-45.5	16.9	0.00e+00	0	43	0	0	58	4586
2026-01-12 10:01:40.52	345.31	29.75	-43.5	-45.6	16.8	0.00e+00	0	44	0	0	58	4647
2026-01-12 10:01:41.25	345.30	29.62	-43.5	-45.7	16.7	0.00e+00	0	43	0	0	58	4671
2026-01-12 10:01:42.65	345.28	29.36	-43.7	-45.9	16.5	0.00e+00	0	43	0	0	58	4774
2026-01-12 10:01:43.36	345.26	29.22	-43.6	-45.9	16.6	0.00e+00	0	43	0	0	58	4770
2026-01-12 10:01:44.64	345.24	28.99	-43.7	-45.9	16.5	0.00e+00	0	43	0	0	58	4777
2026-01-12 10:01:45.73	345.23	28.79	-43.6	-45.9	16.6	0.00e+00	0	43	0	0	58	4764
2026-01-12 10:01:46.58	345.21	28.63	-43.6	-45.8	16.6	0.00e+00	0	43	0	0	58	4709
2026-01-12 10:01:47.72	345.20	28.43	-43.5	-45.6	16.7	0.00e+00	0	43	0	0	58	4650
2026-01-12 10:01:48.57	345.18	28.28	-43.5	-45.7	16.7	0.00e+00	0	43	0	0	58	4658
2026-01-12 10:01:49.71	345.17	28.07	-43.5	-45.6	16.7	0.00e+00	0	43	0	0	58	4630
2026-01-12 10:01:50.56	345.15	27.92	-43.5	-45.6	16.7	0.00e+00	0	44	0	0	58	4628
2026-01-12 10:01:51.70	345.14	27.72	-43.4	-45.5	16.8	0.00e+00	0	43	0	0	58	4597
2026-01-12 10:01:52.55	345.12	27.57	-43.4	-45.5	16.9	0.00e+00	0	44	0	0	58	4563
2026-01-12 10:01:53.69	345.11	27.38	-43.2	-45.3	17.1	0.00e+00	0	44	0	0	58	4459
2026-01-12 10:01:54.54	345.10	27.23	-43.2	-45.3	17.1	0.00e+00	0	43	0	0	58	4447
2026-01-12 10:01:55.68	345.08	27.03	-43.2	-45.3	17.1	0.00e+00	0	43	0	0	58	4461
2026-01-12 10:01:56.66	345.07	26.87	-43.0	-45.1	17.3	0.00e+00	0	43	0	0	58	4363
2026-01-12 10:01:57.65	345.05	26.70	-42.6	-44.6	17.6	0.00e+00	0	44	0	0	57	4390
2026-01-12 10:01:58.65	345.04	26.53	-42.5	-44.5	17.8	0.00e+00	0	43	0	0	57	4311
2026-01-12 10:01:59.64	345.03	26.37	-42.4	-44.3	17.9	0.00e+00	0	43	0	0	56	4489
2026-01-12 10:02:00.63	345.01	26.20	-42.3	-44.3	18.0	0.00e+00	0	43	0	0	56	4448
2026-01-12 10:02:01.96	345.00	25.98	-42.3	-44.3	18.0	0.00e+00	0	43	0	0	56	4463
2026-01-12 10:02:02.70	344.99	25.86	-42.2	-44.2	18.1	0.00e+00	0	43	0	0	56	4421
2026-01-12 10:02:03.98	344.97	25.65	-42.1	-44.0	18.2	0.00e+00	0	43	0	0	56	4337
2026-01-12 10:02:04.73	344.96	25.53	-42.1	-44.0	18.2	0.00e+00	0	43	0	0	56	4332
2026-01-12 10:02:06.37	344.94	25.27	-42.0	-43.9	18.3	0.00e+00	0	43	0	0	56	4288
2026-01-12 10:02:06.94	344.94	25.18	-42.1	-44.0	18.3	0.00e+00	0	43	0	0	56	4328
2026-01-12 10:02:08.85	344.91	24.87	-42.0	-43.9	18.4	0.00e+00	0	43	0	0	56	4277
2026-01-12 10:02:09.42	344.91	24.78	-42.0	-43.9	18.4	0.00e+00	0	43	0	0	56	4290
2026-01-12 10:02:11.12	344.89	24.52	-42.1	-44.1	18.3	0.00e+00	0	43	0	0	56	4342
2026-01-12 10:02:11.81	344.88	24.41	-42.2	-44.1	18.2	0.00e+00	0	44	0	0	56	4390
2026-01-12 10:02:13.20	344.86	24.20	-42.2	-44.1	18.3	0.00e+00	0	43	0	0	56	4371
2026-01-12 10:02:13.91	344.86	24.09	-42.2	-44.2	18.2	0.00e+00	0	43	0	0	56	4394
2026-01-12 10:02:15.19	344.84	23.89	-42.3	-44.4	18.0	0.00e+00	0	43	0	0	56	4494
2026-01-12 10:02:15.90	344.84	23.79	-42.3	-44.3	18.1	0.00e+00	0	43	0	0	56	4480
2026-01-12 10:02:17.18	344.82	23.59	-42.3	-44.4	18.0	0.00e+00	0	43	0	0	56	4516
2026-01-12 10:02:17.89	344.82	23.49	-42.3	-44.4	18.0	0.00e+00	0	43	0	0	56	4519
2026-01-12 10:02:19.26	344.80	23.28	-42.3	-44.5	18.0	0.00e+00	0	43	0	0	56	4558
2026-01-12 10:02:19.97	344.79	23.18	-42.4	-44.6	17.9	0.00e+00	0	43	0	0	56	4602
2026-01-12 10:02:21.25	344.78	22.99	-42.4	-44.6	17.9	0.00e+00	0	43	0	0	56	4612
2026-01-12 10:02:21.96	344.77	22.89	-42.4	-44.5	17.9	0.00e+00	0	43	0	0	56	4589
2026-01-12 10:02:23.24	344.76	22.70	-42.4	-44.6	17.9	0.00e+00	0	43	0	0	56	4607
2026-01-12 10:02:23.95	344.76	22.60	-42.5	-44.6	17.8	0.00e+00	0	43	0	0	56	4646
2026-01-12 10:02:25.23	344.74	22.41	-42.6	-44.7	17.8	0.00e+00	0	43	0	0	56	4654
2026-01-12 10:02:25.95	344.74	22.31	-42.5	-44.6	17.8	0.00e+00	0	43	0	0	56	4618
2026-01-12 10:02:27.22	344.73	22.13	-42.5	-44.5	17.9	0.00e+00	0	43	0	0	56	4576
2026-01-12 10:02:27.94	344.72	22.03	-42.6	-44.6	17.8	0.00e+00	0	43	0	0	56	4613
2026-01-12 10:02:29.22	344.71	21.85	-42.6	-44.6	17.8	0.00e+00	0	43	0	0	56	4626
2026-01-12 10:02:30.04	344.70	21.73	-42.6	-44.5	17.8	0.00e+00	0	43	0	0	56	4594
2026-01-12 10:02:31.17	344.69	21.58	-42.5	-44.5	17.9	0.00e+00	0	43	0	0	56	4588
2026-01-12 10:02:32.22	344.68	21.43	-42.5	-44.5	17.9	0.00e+00	0	43	0	0	56	4559
2026-01-12 10:02:33.38	344.67	21.27	-42.5	-44.5	17.8	0.00e+00	0	43	0	0	56	4595
2026-01-12 10:02:34.24	344.67	21.15	-42.5	-44.5	17.9	0.00e+00	0	43	0	0	56	4567
2026-01-12 10:02:35.58	344.65	20.97	-42.5	-44.5	17.8	0.00e+00	0	43	0	0	56	4597
2026-01-12 10:02:36.29	344.65	20.88	-42.6	-44.6	17.7	0.00e+00	0	43	0	0	56	4641
2026-01-12 10:02:37.57	344.64	20.71	-42.6	-44.6	17.7	0.00e+00	0	43	0	0	56	4646
2026-01-12 10:02:38.28	344.63	20.61	-42.7	-44.7	17.7	0.00e+00	0	43	0	0	56	4688
2026-01-12 10:02:39.56	344.62	20.44	-42.6	-44.6	17.7	0.00e+00	0	43	0	0	56	4626
2026-01-12 10:02:40.27	344.62	20.35	-42.7	-44.7	17.7	0.00e+00	0	44	0	0	56	4657
2026-01-12 10:02:41.55	344.61	20.18	-42.7	-44.7	17.6	0.00e+00	0	43	0	0	56	4671
2026-01-12 10:02:42.28	344.60	20.08	-42.7	-44.7	17.6	0.00e+00	0	44	0	0	56	4684
2026-01-12 10:02:43.56	344.59	19.92	-42.8	-44.8	17.5	0.00e+00	0	43	0	0	56	4731
2026-01-12 10:02:44.27	344.59	19.82	-42.7	-44.8	17.5	0.00e+00	0	43	0	0	56	4726
2026-01-12 10:02:45.55	344.58	19.66	-42.8	-44.9	17.4	0.00e+00	0	43	0	0	56	4810
2026-01-12 10:02:46.26	344.57	19.57	-42.8	-44.9	17.4	0.00e+00	0	44	0	0	56	4809
2026-01-12 10:02:47.54	344.56	19.40	-42.8	-44.9	17.4	0.00e+00	0	44	0	0	56	4776
2026-01-12 10:02:48.27	344.56	19.31	-42.8	-45.0	17.3	0.00e+00	0	43	0	0	56	4820
2026-01-12 10:02:49.55	344.55	19.15	-42.9	-45.0	17.3	0.00e+00	0	43	0	0	56	4825
2026-01-12 10:02:50.26	344.55	19.06	-42.8	-44.9	17.3	0.00e+00	0	44	0	0	56	4797
2026-01-12 10:02:51.54	344.54	18.90	-42.9	-45.0	17.2	0.00e+00	0	43	0	0	56	4862
2026-01-12 10:02:52.25	344.53	18.81	-43.0	-45.1	17.2	0.00e+00	0	43	0	0	56	4883
2026-01-12 10:02:53.53	344.52	18.66	-43.0	-45.1	17.2	0.00e+00	0	43	0	0	56	4900
2026-01-12 10:02:54.25	344.52	18.57	-43.0	-45.1	17.2	0.00e+00	0	43	0	0	56	4891
2026-01-12 10:02:55.75	344.51	18.38	-43.1	-45.2	17.0	0.00e+00	0	43	0	0	56	4982
2026-01-12 10:02:56.47	344.51	18.30	-43.0	-45.2	17.1	0.00e+00	0	43	0	0	56	4943
2026-01-12 10:02:57.74	344.50	18.14	-43.1	-45.3	17.0	0.00e+00	0	43	0	0	56	4990
2026-01-12 10:02:58.46	344.49	18.05	-43.0	-45.2	17.0	0.00e+00	0	43	0	0	56	4982
2026-01-12 10:02:59.74	344.49	17.90	-43.0	-45.3	17.0	0.00e+00	0	43	0	0	56	5017
2026-01-12 10:03:00.45	344.48	17.82	-43.0	-45.3	17.0	0.00e+00	0	43	0	0	56	5010
2026-01-12 10:03:01.73	344.47	17.66	-43.1	-45.4	16.9	0.00e+00	0	43	0	0	56	5085
2026-01-12 10:03:02.48	344.47	17.58	-43.1	-45.5	16.8	0.00e+00	0	44	0	0	57	4827
2026-01-12 10:03:03.76	344.46	17.43	-43.1	-45.5	16.8	0.00e+00	0	43	0	0	57	4827
2026-01-12 10:03:04.48	344.46	17.34	-43.1	-45.5	16.9	0.00e+00	0	43	0	0	57	4818
2026-01-12 10:03:05.76	344.45	17.19	-43.1	-45.5	16.8	0.00e+00	0	44	0	0	57	4833
2026-01-12 10:03:06.47	344.45	17.11	-43.1	-45.5	16.8	0.00e+00	0	44	0	0	57	4866
2026-01-12 10:03:07.75	344.44	16.96	-43.1	-45.6	16.8	0.00e+00	0	44	0	0	57	4878
2026-01-12 10:03:08.65	344.44	16.86	-43.1	-45.5	16.8	0.00e+00	0	43	0	0	57	4860
2026-01-12 10:03:09.72	344.43	16.74	-43.1	-45.6	16.7	0.00e+00	0	44	0	0	57	4897
2026-01-12 10:03:10.80	344.43	16.61	-43.2	-45.7	16.7	0.00e+00	0	44	0	0	57	4938
2026-01-12 10:03:11.84	344.42	16.50	-43.0	-45.4	16.9	0.00e+00	0	43	0	0	57	4808
2026-01-12 10:03:12.83	344.42	16.38	-43.0	-45.4	16.9	0.00e+00	0	44	0	0	57	4803
2026-01-12 10:03:13.83	344.41	16.27	-43.0	-45.5	16.9	0.00e+00	0	44	0	0	57	4824
2026-01-12 10:03:14.82	344.41	16.16	-43.0	-45.5	16.8	0.00e+00	0	44	0	0	57	4822
2026-01-12 10:03:15.81	344.40	16.05	-43.1	-45.6	16.8	0.00e+00	0	44	0	0	57	4871
2026-01-12 10:03:16.81	344.40	15.94	-43.0	-45.4	16.9	0.00e+00	0	44	0	0	57	4780
2026-01-12 10:03:17.81	344.39	15.83	-43.0	-45.4	16.9	0.00e+00	0	44	0	0	57	4788
2026-01-12 10:03:18.80	344.39	15.72	-42.9	-45.2	17.1	0.00e+00	0	43	0	0	57	4702
2026-01-12 10:03:19.81	344.38	15.61	-42.9	-45.3	17.0	0.00e+00	0	43	0	0	57	4726
2026-01-12 10:03:20.80	344.38	15.51	-43.0	-45.4	16.9	0.00e+00	0	44	0	0	57	4788
2026-01-12 10:03:21.81	344.37	15.40	-43.1	-45.5	16.8	0.00e+00	0	44	0	0	57	4839
2026-01-12 10:03:22.81	344.37	15.29	-42.9	-45.3	16.9	0.00e+00	0	44	0	0	57	4757
2026-01-12 10:03:23.81	344.36	15.18	-43.0	-45.4	16.9	0.00e+00	0	44	0	0	57	4778
2026-01-12 10:03:24.81	344.36	15.07	-43.0	-45.4	16.9	0.00e+00	0	44	0	0	57	4768
2026-01-12 10:03:25.81	344.36	14.97	-43.1	-45.5	16.7	0.00e+00	0	44	0	0	57	4858
2026-01-12 10:03:26.81	344.35	14.86	-43.0	-45.5	16.8	0.00e+00	0	44	0	0	57	4826
2026-01-12 10:03:27.81	344.35	14.76	-43.1	-45.6	16.7	0.00e+00	0	44	0	0	57	4873
2026-01-12 10:03:28.81	344.34	14.65	-43.0	-45.5	16.8	0.00e+00	0	44	0	0	57	4843
2026-01-12 10:03:29.81	344.34	14.55	-43.2	-45.7	16.6	0.00e+00	0	44	0	0	57	4927
2026-01-12 10:03:30.81	344.34	14.44	-43.1	-45.6	16.7	0.00e+00	0	44	0	0	57	4905
2026-01-12 10:03:31.80	344.33	14.34	-43.1	-45.5	16.7	0.00e+00	0	44	0	0	57	4857
2026-01-12 10:03:32.80	344.33	14.24	-43.2	-45.5	16.7	0.00e+00	0	43	0	0	57	4868
2026-01-12 10:03:33.80	344.32	14.14	-43.3	-45.6	16.6	0.00e+00	0	43	0	0	57	4921
2026-01-12 10:03:34.80	344.32	14.03	-43.3	-45.7	16.6	0.00e+00	0	43	0	0	57	4942
2026-01-12 10:03:35.80	344.32	13.93	-43.4	-45.8	16.5	0.00e+00	0	44	0	0	57	5004
2026-01-12 10:03:36.80	344.31	13.83	-43.4	-45.7	16.5	0.00e+00	0	43	0	0	57	4967
2026-01-12 10:03:37.80	344.31	13.73	-43.3	-45.7	16.6	0.00e+00	0	44	0	0	57	4934
2026-01-12 10:03:38.80	344.31	13.63	-43.4	-45.6	16.6	0.00e+00	0	44	0	0	57	4919
2026-01-12 10:03:39.80	344.30	13.53	-43.3	-45.6	16.6	0.00e+00	0	43	0	0	57	4905
2026-01-12 10:03:40.80	344.30	13.43	-43.4	-45.7	16.6	0.00e+00	0	43	0	0	57	4933
2026-01-12 10:03:41.80	344.30	13.33	-43.4	-45.7	16.6	0.00e+00	0	43	0	0	57	4935
2026-01-12 10:03:42.80	344.29	13.23	-43.4	-45.6	16.6	0.00e+00	0	44	0	0	57	4922
2026-01-12 10:03:43.80	344.29	13.13	-43.5	-45.7	16.5	0.00e+00	0	43	0	0	57	4976
2026-01-12 10:03:44.80	344.29	13.03	-43.4	-45.7	16.6	0.00e+00	0	43	0	0	57	4934
2026-01-12 10:03:45.80	344.28	12.94	-43.4	-45.7	16.6	0.00e+00	0	43	0	0	57	4945
2026-01-12 10:03:46.81	344.28	12.84	-43.4	-45.7	16.5	0.00e+00	0	43	0	0	57	4943
2026-01-12 10:03:47.80	344.28	12.74	-43.4	-45.7	16.5	0.00e+00	0	44	0	0	57	4974
2026-01-12 10:03:48.80	344.27	12.65	-43.3	-45.7	16.5	0.00e+00	0	43	0	0	57	4955
2026-01-12 10:03:49.80	344.27	12.55	-43.2	-45.6	16.6	0.00e+00	0	44	0	0	57	4890
2026-01-12 10:03:50.80	344.27	12.45	-43.3	-45.6	16.6	0.00e+00	0	43	0	0	57	4924
2026-01-12 10:03:51.81	344.27	12.36	-43.3	-45.7	16.5	0.00e+00	0	43	0	0	57	4961
2026-01-12 10:03:52.80	344.26	12.26	-43.3	-45.7	16.5	0.00e+00	0	43	0	0	57	4961
2026-01-12 10:03:53.80	344.26	12.17	-43.2	-45.6	16.6	0.00e+00	0	43	0	0	57	4901
2026-01-12 10:03:54.80	344.26	12.07	-43.3	-45.7	16.5	0.00e+00	0	43	0	0	57	4973
2026-01-12 10:03:55.80	344.26	11.98	-43.3	-45.8	16.4	0.00e+00	0	43	0	0	57	5010
2026-01-12 10:03:56.80	344.25	11.89	-43.3	-45.8	16.4	0.00e+00	0	43	0	0	57	4992
2026-01-12 10:03:57.80	344.25	11.79	-43.4	-45.8	16.4	0.00e+00	0	43	0	0	57	5014
2026-01-12 10:03:58.80	344.25	11.70	-43.5	-45.9	16.3	0.00e+00	0	43	0	0	57	5082
2026-01-12 10:03:59.80	344.25	11.61	-43.5	-46.0	16.2	0.00e+00	0	44	0	0	57	5102
2026-01-12 10:04:00.80	344.24	11.52	-43.4	-45.9	16.3	0.00e+00	0	44	0	0	57	5062
2026-01-12 10:04:01.80	344.24	11.43	-43.5	-45.9	16.3	0.00e+00	0	43	0	0	57	5045
2026-01-12 10:04:02.80	344.24	11.33	-43.5	-46.0	16.2	0.00e+00	0	43	0	0	57	5105
2026-01-12 10:04:03.80	344.24	11.24	-43.5	-45.9	16.2	0.00e+00	0	43	0	0	57	5081
2026-01-12 10:04:04.80	344.23	11.15	-43.5	-45.9	16.3	0.00e+00	0	43	0	0	57	5081
2026-01-12 10:04:05.80	344.23	11.06	-43.6	-46.1	16.1	0.00e+00	0	43	0	0	57	5188
2026-01-12 10:04:06.81	344.23	10.97	-43.6	-46.0	16.1	0.00e+00	0	43	0	0	57	5153
2026-01-12 10:04:07.81	344.23	10.88	-43.5	-46.0	16.2	0.00e+00	0	44	0	0	57	5115
2026-01-12 10:04:08.81	344.22	10.79	-43.6	-46.2	16.0	0.00e+00	0	44	0	0	57	5233
2026-01-12 10:04:09.81	344.22	10.70	-43.6	-46.1	16.0	0.00e+00	0	43	0	0	57	5209
2026-01-12 10:04:10.81	344.22	10.61	-43.6	-46.2	15.9	0.00e+00	0	43	0	0	57	5276
2026-01-12 10:04:11.81	344.22	10.52	-43.5	-46.1	16.0	0.00e+00	0	43	0	0	57	5211
2026-01-12 10:04:12.81	344.22	10.44	-43.6	-46.3	15.9	0.00e+00	0	43	0	0	57	5295
2026-01-12 10:04:13.81	344.21	10.35	-43.5	-46.3	15.8	0.00e+00	0	44	0	0	57	5294
2026-01-12 10:04:14.81	344.21	10.26	-43.5	-46.3	15.8	0.00e+00	0	43	0	0	57	5315
2026-01-12 10:04:15.81	344.21	10.17	-43.4	-46.3	15.8	0.00e+00	0	43	0	0	57	5306
2026-01-12 10:04:16.82	344.21	10.09	-43.4	-46.4	15.7	0.00e+00	0	43	0	0	57	5365
2026-01-12 10:04:17.82	344.21	10.00	-43.4	-46.5	15.6	7.00e-07	0	43	0	0	57	5461
2026-01-12 10:04:18.81	344.21	9.91	-43.3	-46.4	15.6	0.00e+00	0	43	0	0	57	5392
2026-01-12 10:04:19.81	344.20	9.83	-43.4	-46.5	15.6	0.00e+00	0	43	0	0	57	5431
2026-01-12 10:04:20.81	344.20	9.74	-43.3	-46.4	15.7	0.00e+00	0	44	0	0	57	5380
2026-01-12 10:04:21.81	344.20	9.66	-43.3	-46.5	15.5	0.00e+00	0	43	0	0	57	5460
2026-01-12 10:04:22.81	344.20	9.57	-43.3	-46.5	15.5	0.00e+00	0	44	0	0	57	5443
2026-01-12 10:04:23.81	344.20	9.49	-43.3	-46.6	15.4	0.00e+00	0	43	0	0	57	5502
2026-01-12 10:04:24.81	344.20	9.40	-43.4	-46.6	15.4	0.00e+00	0	43	0	0	57	5511
2026-01-12 10:04:25.82	344.19	9.32	-43.4	-46.7	15.3	0.00e+00	0	44	0	0	57	5569
2026-01-12 10:04:26.81	344.19	9.23	-43.4	-46.8	15.3	0.00e+00	0	44	0	0	57	5601
2026-01-12 10:04:27.81	344.19	9.15	-43.4	-46.7	15.3	0.00e+00	0	43	0	0	57	5569
2026-01-12 10:04:28.81	344.19	9.07	-43.6	-47.0	15.0	0.00e+00	0	44	0	0	57	5765
2026-01-12 10:04:29.81	344.19	8.98	-46.0	-52.5	9.9	0.00e+00	0	43	0	0	62	8134
2026-01-12 10:04:30.81	344.19	8.90	-49.6	-63.4	3.8	1.49e+00	0	43	104	0	70	18095
2026-01-12 10:04:31.80	344.19	8.82	-49.6	-63.7	3.8	1.49e+00	0	43	104	0	69	19651
2026-01-12 10:04:32.80	344.18	8.74	-50.6	-63.8	3.8	1.49e+00	0	43	104	0	72	16703
2026-01-12 10:04:33.80	344.18	8.66	-50.0	-63.9	3.8	1.49e+00	0	43	104	0	71	17943
2026-01-12 10:04:34.80	344.18	8.57	-50.8	-64.0	3.8	1.49e+00	0	44	104	0	72	17101
2026-01-12 10:04:35.80	344.18	8.49	-50.8	-64.0	3.8	1.49e+00	0	43	104	0	72	17123
2026-01-12 10:04:36.79	344.18	8.41	-50.7	-64.0	3.8	1.49e+00	0	43	104	0	72	17218
2026-01-12 10:04:37.79	344.18	8.33	-50.7	-64.0	3.8	1.49e+00	0	44	104	0	72	17269
2026-01-12 10:04:38.79	344.18	8.25	-51.0	-64.1	3.8	1.49e+00	0	43	104	0	72	17324
2026-01-12 10:04:39.79	344.18	8.17	-51.1	-64.1	3.8	1.49e+00	0	43	104	0	72	17296
2026-01-12 10:04:40.79	344.17	8.09	-50.8	-64.1	3.8	1.49e+00	0	44	104	0	72	17364
2026-01-12 10:04:41.78	344.17	8.01	-51.0	-64.1	3.8	1.49e+00	0	44	104	0	72	17374
2026-01-12 10:04:42.78	344.17	7.93	-51.0	-64.1	3.8	1.49e+00	0	43	104	0	72	17422
2026-01-12 10:04:43.78	344.17	7.85	-51.0	-64.1	3.8	1.49e+00	0	44	104	0	72	17389
2026-01-12 10:04:44.77	344.17	7.77	-51.1	-64.1	3.8	1.49e+00	0	44	104	0	72	17398
2026-01-12 10:04:45.77	344.17	7.69	-50.8	-64.1	3.8	1.49e+00	0	44	104	0	72	17427
2026-01-12 10:04:46.77	344.17	7.61	-50.8	-64.1	3.8	1.49e+00	0	43	104	0	72	17451
2026-01-12 10:04:47.76	344.17	7.54	-50.8	-64.1	3.8	1.49e+00	0	44	104	0	73	16421
2026-01-12 10:04:48.76	344.17	7.46	-51.0	-64.1	3.8	1.49e+00	0	44	104	0	73	16401
2026-01-12 10:04:49.76	344.17	7.38	-51.1	-64.1	3.8	1.49e+00	0	43	104	0	73	16363
2026-01-12 10:04:50.76	344.17	7.30	-51.1	-64.1	3.8	1.49e+00	0	44	104	0	73	16324
2026-01-12 10:04:51.75	344.17	7.23	-51.2	-64.1	3.8	1.49e+00	0	43	104	0	73	16426
2026-01-12 10:04:52.75	344.16	7.15	-51.1	-64.1	3.8	1.49e+00	0	44	104	0	73	16366
2026-01-12 10:04:53.75	344.16	7.07	-51.1	-64.1	3.8	1.49e+00	0	43	104	0	73	16453
2026-01-12 10:04:54.75	344.16	7.00	-51.0	-64.1	3.8	1.49e+00	0	44	104	0	73	16388
2026-01-12 10:04:55.75	344.16	6.92	-51.0	-64.1	3.8	1.49e+00	0	44	104	0	73	16394
2026-01-12 10:04:56.74	344.16	6.84	-51.0	-64.1	3.8	1.49e+00	0	44	104	0	73	16405
2026-01-12 10:04:57.74	344.16	6.77	-50.9	-64.1	3.8	1.49e+00	0	44	104	0	73	16393
2026-01-12 10:04:58.73	344.16	6.69	-50.9	-64.1	3.8	1.49e+00	0	44	104	0	73	16342
2026-01-12 10:04:59.73	344.16	6.62	-50.9	-64.0	3.8	1.49e+00	0	44	104	0	73	16296
2026-01-12 10:05:00.73	344.16	6.54	-50.9	-64.1	3.8	1.49e+00	0	44	104	0	73	16343
2026-01-12 10:05:01.73	344.16	6.47	-50.9	-64.1	3.8	1.49e+00	0	44	104	0	73	16386
2026-01-12 10:05:02.73	344.16	6.39	-50.9	-64.1	3.8	1.49e+00	0	43	104	0	73	16344
2026-01-12 10:05:03.72	344.16	6.32	-50.9	-64.0	3.8	1.49e+00	0	43	104	0	73	16259
2026-01-12 10:05:04.72	344.16	6.24	-50.9	-64.1	3.8	1.49e+00	0	44	104	0	73	16367
