passes_logs/2026/01/12/T1/T1__20260112_080727_KHAYYAM_rec.log

#Pass ID: 20260112_080727_KHAYYAM
#Satellite: KHAYYAM
#Configuration: KHAYYAM_480M
#almurnet v.1.7.20251203
#Start time: 2026-01-12 08:07:29

#Version: 2.0.20230620
#Station: T1
#Location: 37.570604 lon 55.790049 lat
#TLE: 1 53370U 22096A   26011.28149639  .00006978  00000+0  28408-3 0  9993
#TLE: 2 53370  97.3557 278.3586 0001329  97.8437 262.2952 15.24804089190670

#Time	Az	El	Level	Level2	SNR	BER	BlckErr	Temp	State	Recorded	gain1	gain2
2026-01-12 08:07:29.77	174.08	5.20	-50.0	-55.0	3.4	0.00e+00	0	41	0	0	70	27230
2026-01-12 08:07:30.76	174.11	5.28	-46.6	-52.0	3.7	0.00e+00	0	42	104	0	64	27264
2026-01-12 08:07:31.75	174.14	5.36	-46.5	-51.9	3.7	0.00e+00	0	42	104	0	64	27046
2026-01-12 08:07:32.75	174.17	5.44	-46.4	-51.8	3.7	0.00e+00	0	42	104	0	64	26686
2026-01-12 08:07:33.74	174.20	5.52	-46.5	-51.9	3.7	0.00e+00	0	42	104	0	64	27034
2026-01-12 08:07:34.73	174.23	5.61	-46.5	-51.8	3.7	0.00e+00	0	42	104	0	64	26821
2026-01-12 08:07:35.73	174.26	5.69	-46.5	-51.8	3.7	0.00e+00	0	42	104	0	64	26786
2026-01-12 08:07:36.72	174.29	5.77	-46.4	-51.7	3.7	0.00e+00	0	42	104	0	64	26501
2026-01-12 08:07:37.72	174.32	5.86	-46.4	-51.7	3.7	0.00e+00	0	42	104	0	64	26486
2026-01-12 08:07:38.71	174.36	5.94	-46.4	-51.8	3.7	0.00e+00	0	42	104	0	64	26742
2026-01-12 08:07:39.70	174.39	6.02	-46.5	-51.9	3.7	0.00e+00	0	42	104	0	64	26989
2026-01-12 08:07:40.70	174.42	6.11	-46.5	-51.8	3.7	0.00e+00	0	42	104	0	64	26852
2026-01-12 08:07:41.69	174.45	6.19	-46.6	-51.9	3.7	0.00e+00	0	43	104	0	64	26988
2026-01-12 08:07:42.68	174.48	6.28	-46.6	-51.9	3.7	0.00e+00	0	43	104	0	64	27125
2026-01-12 08:07:43.68	174.52	6.37	-46.6	-51.9	3.7	0.00e+00	0	43	104	0	64	27021
2026-01-12 08:07:44.67	174.55	6.45	-46.7	-51.8	3.7	0.00e+00	0	43	104	0	64	26881
2026-01-12 08:07:45.66	174.58	6.54	-46.6	-52.0	3.7	0.00e+00	0	43	104	0	64	27206
2026-01-12 08:07:46.66	174.62	6.63	-46.7	-51.9	3.7	0.00e+00	0	43	104	0	64	27063
2026-01-12 08:07:47.65	174.65	6.71	-46.5	-51.8	3.7	0.00e+00	0	43	104	0	64	26603
2026-01-12 08:07:48.65	174.68	6.80	-46.6	-51.9	3.7	0.00e+00	0	43	104	0	64	26923
2026-01-12 08:07:49.64	174.72	6.89	-46.6	-51.8	3.7	0.00e+00	0	43	104	0	64	26814
2026-01-12 08:07:50.63	174.75	6.98	-46.6	-51.9	3.7	0.00e+00	0	43	104	0	64	27021
2026-01-12 08:07:51.63	174.79	7.07	-46.5	-51.8	3.7	0.00e+00	0	43	104	0	64	26740
2026-01-12 08:07:52.62	174.82	7.16	-46.5	-51.9	3.7	0.00e+00	0	43	104	0	64	26908
2026-01-12 08:07:53.62	174.86	7.25	-46.5	-51.8	3.7	0.00e+00	0	43	104	0	64	26804
2026-01-12 08:07:54.61	174.89	7.34	-46.6	-51.9	3.7	0.00e+00	0	44	104	0	64	26937
2026-01-12 08:07:55.61	174.93	7.43	-46.6	-51.9	3.7	0.00e+00	0	44	104	0	64	27197
2026-01-12 08:07:56.60	174.96	7.52	-46.7	-52.0	3.7	0.00e+00	0	44	104	0	64	27242
2026-01-12 08:07:57.59	175.00	7.61	-46.6	-51.8	3.7	0.00e+00	0	43	104	0	64	26827
2026-01-12 08:07:58.59	175.04	7.71	-46.6	-52.0	3.7	0.00e+00	0	44	104	0	64	27213
2026-01-12 08:07:59.58	175.07	7.80	-46.5	-51.8	3.7	0.00e+00	0	44	104	0	64	26593
2026-01-12 08:08:00.58	175.11	7.89	-46.6	-51.9	3.7	0.00e+00	0	44	104	0	64	26900
2026-01-12 08:08:01.57	175.15	7.99	-46.4	-51.7	3.7	0.00e+00	0	44	104	0	64	26555
2026-01-12 08:08:02.56	175.19	8.08	-46.5	-51.8	3.7	0.00e+00	0	44	104	0	64	26613
2026-01-12 08:08:03.56	175.22	8.18	-46.4	-51.8	3.7	0.00e+00	0	44	104	0	64	26617
2026-01-12 08:08:04.55	175.26	8.27	-46.4	-51.8	3.7	0.00e+00	0	44	104	0	64	26614
2026-01-12 08:08:05.55	175.30	8.37	-46.5	-51.7	3.7	0.00e+00	0	44	104	0	64	26572
2026-01-12 08:08:06.54	175.34	8.46	-46.4	-51.7	3.7	0.00e+00	0	44	104	0	64	26503
2026-01-12 08:08:07.53	175.38	8.56	-46.5	-51.8	3.7	0.00e+00	0	44	104	0	64	26652
2026-01-12 08:08:08.53	175.42	8.66	-46.3	-51.5	3.7	0.00e+00	0	44	104	0	64	25898
2026-01-12 08:08:09.52	175.46	8.75	-46.4	-51.6	3.7	0.00e+00	0	44	104	0	64	26264
2026-01-12 08:08:10.52	175.50	8.85	-46.4	-51.6	3.7	0.00e+00	0	44	104	0	64	26218
2026-01-12 08:08:11.51	175.54	8.95	-46.4	-51.7	3.7	0.00e+00	0	44	104	0	64	26475
2026-01-12 08:08:12.51	175.58	9.05	-46.4	-51.7	3.7	0.00e+00	0	45	104	0	64	26513
2026-01-12 08:08:13.50	175.62	9.15	-46.4	-51.8	3.7	0.00e+00	0	44	104	0	64	26638
2026-01-12 08:08:14.50	175.66	9.25	-47.7	-52.9	3.7	0.00e+00	0	45	104	0	66	26911
2026-01-12 08:08:15.49	175.70	9.35	-46.7	-52.0	3.7	0.00e+00	0	45	104	0	65	25948
2026-01-12 08:08:16.49	175.74	9.45	-46.3	-51.6	3.7	0.00e+00	0	45	104	0	64	26181
2026-01-12 08:08:17.48	175.78	9.55	-46.7	-52.0	3.7	0.00e+00	0	45	104	0	64	27494
2026-01-12 08:08:18.48	175.83	9.66	-47.5	-52.7	3.7	0.00e+00	0	45	104	0	66	26370
2026-01-12 08:08:19.47	175.87	9.76	-47.6	-52.9	3.7	0.00e+00	0	45	104	0	66	26978
2026-01-12 08:08:20.46	175.91	9.86	-48.3	-53.5	3.7	0.00e+00	0	45	104	0	67	27501
2026-01-12 08:08:21.46	175.96	9.97	-49.1	-54.3	3.7	0.00e+00	0	45	104	0	68	28243
2026-01-12 08:08:22.47	176.00	10.07	-49.8	-54.9	3.7	0.00e+00	0	45	104	0	70	27193
2026-01-12 08:08:23.47	176.05	10.18	-50.3	-55.4	3.7	0.00e+00	0	45	104	0	71	27000
2026-01-12 08:08:24.46	176.09	10.28	-50.7	-55.7	3.7	0.00e+00	0	45	104	0	72	26487
2026-01-12 08:08:25.45	176.14	10.39	-50.7	-55.5	3.7	0.00e+00	0	45	104	0	72	25918
2026-01-12 08:08:26.45	176.18	10.50	-50.4	-55.4	3.7	0.00e+00	0	45	104	0	72	25644
2026-01-12 08:08:27.44	176.23	10.61	-50.7	-55.7	3.7	0.00e+00	0	45	104	0	72	26454
2026-01-12 08:08:28.44	176.27	10.71	-50.3	-55.3	3.7	0.00e+00	0	45	104	0	72	25108
2026-01-12 08:08:29.43	176.32	10.82	-49.9	-54.9	3.7	0.00e+00	0	45	104	0	71	25629
2026-01-12 08:08:30.43	176.37	10.93	-49.9	-55.0	3.7	0.00e+00	0	45	104	0	70	27307
2026-01-12 08:08:31.42	176.41	11.04	-50.3	-55.3	3.7	0.00e+00	0	45	104	0	71	26734
2026-01-12 08:08:32.42	176.46	11.15	-48.8	-53.9	3.7	0.00e+00	0	45	104	0	69	25580
2026-01-12 08:08:33.41	176.51	11.27	-48.7	-53.8	3.7	0.00e+00	0	45	104	0	69	25256
2026-01-12 08:08:34.41	176.56	11.38	-48.8	-53.9	3.7	0.00e+00	0	45	104	0	69	25569
2026-01-12 08:08:35.40	176.61	11.49	-49.2	-54.2	3.7	0.00e+00	0	45	104	0	69	26394
2026-01-12 08:08:36.39	176.66	11.60	-48.9	-54.0	3.7	0.00e+00	0	45	104	0	69	25743
2026-01-12 08:08:37.39	176.71	11.72	-48.8	-53.9	3.6	0.00e+00	0	45	104	0	69	25390
2026-01-12 08:08:38.39	176.76	11.83	-48.8	-54.0	3.7	0.00e+00	0	45	104	0	69	25765
2026-01-12 08:08:39.38	176.81	11.95	-48.8	-53.9	3.7	0.00e+00	0	45	104	0	69	25585
2026-01-12 08:08:40.37	176.86	12.07	-49.1	-54.3	3.7	0.00e+00	0	45	104	0	69	26633
2026-01-12 08:08:41.37	176.91	12.18	-49.1	-54.1	3.7	0.00e+00	0	45	104	0	69	26082
2026-01-12 08:08:42.42	176.97	12.31	-49.2	-54.3	3.7	0.00e+00	0	45	104	0	69	26675
2026-01-12 08:08:43.33	177.01	12.42	-49.6	-54.6	3.7	0.00e+00	0	45	104	0	69	27804
2026-01-12 08:08:44.36	177.07	12.54	-50.0	-54.9	3.7	0.00e+00	0	46	104	0	70	27133
2026-01-12 08:08:45.36	177.12	12.66	-50.4	-55.2	3.7	0.00e+00	0	46	104	0	71	26580
2026-01-12 08:08:46.35	177.18	12.78	-50.5	-55.4	3.7	0.00e+00	0	46	104	0	71	26991
2026-01-12 08:08:47.35	177.23	12.90	-50.9	-55.7	3.7	0.00e+00	0	45	104	0	72	26388
2026-01-12 08:08:48.34	177.29	13.03	-51.7	-56.4	3.7	0.00e+00	0	46	104	0	74	25588
2026-01-12 08:08:49.33	177.34	13.15	-50.8	-55.7	3.7	0.00e+00	0	45	104	0	73	24914
2026-01-12 08:08:50.33	177.40	13.27	-51.4	-56.2	3.7	0.00e+00	0	46	104	0	73	26388
2026-01-12 08:08:51.32	177.46	13.40	-51.3	-56.2	3.7	0.00e+00	0	46	104	0	73	26281
2026-01-12 08:08:52.32	177.51	13.53	-51.5	-56.3	3.7	0.00e+00	0	46	104	0	73	26765
2026-01-12 08:08:53.31	177.57	13.65	-51.7	-56.5	3.7	0.00e+00	0	46	104	0	73	27331
2026-01-12 08:08:54.31	177.63	13.78	-51.8	-56.6	3.7	0.00e+00	0	46	104	0	74	26088
2026-01-12 08:08:55.30	177.69	13.91	-51.7	-56.5	3.7	0.00e+00	0	46	104	0	74	25803
2026-01-12 08:08:56.33	177.75	14.04	-51.4	-56.3	3.7	0.00e+00	0	46	104	0	74	25262
2026-01-12 08:08:57.37	177.82	14.18	-51.9	-56.7	3.7	0.00e+00	0	46	104	0	74	26553
2026-01-12 08:08:58.33	177.87	14.30	-51.5	-56.5	3.7	0.00e+00	0	46	104	0	74	25762
2026-01-12 08:08:59.33	177.94	14.44	-51.9	-56.6	3.7	0.00e+00	0	46	104	0	74	26216
2026-01-12 08:09:00.47	178.01	14.59	-52.0	-56.7	3.7	0.00e+00	0	46	104	0	74	26498
2026-01-12 08:09:01.32	178.06	14.70	-51.8	-56.6	3.7	0.00e+00	0	46	104	0	74	26253
2026-01-12 08:09:02.68	178.15	14.89	-51.9	-56.6	3.7	0.00e+00	0	46	104	0	74	26156
2026-01-12 08:09:03.39	178.19	14.99	-51.8	-56.6	3.7	0.00e+00	0	46	104	0	74	26145
2026-01-12 08:09:04.67	178.28	15.16	-51.8	-56.6	3.7	0.00e+00	0	46	104	0	74	26228
2026-01-12 08:09:05.39	178.32	15.26	-51.8	-56.6	3.7	0.00e+00	0	46	104	0	74	26150
2026-01-12 08:09:06.67	178.41	15.44	-51.9	-56.6	3.7	0.00e+00	0	46	104	0	74	26259
2026-01-12 08:09:07.38	178.46	15.54	-52.2	-56.9	3.7	0.00e+00	0	46	104	0	75	25471
2026-01-12 08:09:08.66	178.55	15.72	-52.0	-56.8	3.7	0.00e+00	0	46	104	0	75	25361
2026-01-12 08:09:09.48	178.60	15.84	-52.1	-56.9	3.7	0.00e+00	0	46	104	0	75	25609
2026-01-12 08:09:10.62	178.68	16.00	-52.2	-57.0	3.7	0.00e+00	0	46	104	0	75	25706
2026-01-12 08:09:11.63	178.75	16.15	-51.8	-56.7	3.7	0.00e+00	0	46	104	0	75	24918
2026-01-12 08:09:12.63	178.82	16.30	-52.0	-56.9	3.7	0.00e+00	0	46	104	0	75	25488
2026-01-12 08:09:13.62	178.89	16.44	-52.1	-57.0	3.7	0.00e+00	0	46	104	0	75	25799
2026-01-12 08:09:14.62	178.97	16.59	-51.8	-56.6	3.7	0.00e+00	0	46	104	0	75	24775
2026-01-12 08:09:15.61	179.04	16.74	-51.9	-56.6	3.7	0.00e+00	0	46	104	0	75	24602
2026-01-12 08:09:16.61	179.11	16.89	-51.8	-56.6	3.7	0.00e+00	0	46	104	0	75	24713
2026-01-12 08:09:17.60	179.19	17.04	-52.0	-56.8	3.7	0.00e+00	0	46	104	0	75	25323
2026-01-12 08:09:18.60	179.27	17.20	-52.1	-56.7	3.7	0.00e+00	0	46	104	0	75	25089
2026-01-12 08:09:19.59	179.34	17.35	-52.6	-57.1	3.7	0.00e+00	0	46	104	0	75	26241
2026-01-12 08:09:20.59	179.42	17.50	-52.5	-57.1	3.6	0.00e+00	0	46	104	0	76	24610
2026-01-12 08:09:21.58	179.50	17.66	-52.2	-56.9	3.7	0.00e+00	0	46	104	0	76	24056
2026-01-12 08:09:22.58	179.58	17.82	-52.5	-57.0	3.7	0.00e+00	0	46	104	0	76	24460
2026-01-12 08:09:23.57	179.66	17.98	-52.6	-57.2	3.7	0.00e+00	0	46	104	0	76	24815
2026-01-12 08:09:24.57	179.74	18.14	-52.7	-57.2	3.7	0.00e+00	0	46	104	0	76	25054
2026-01-12 08:09:25.56	179.82	18.30	-52.8	-57.3	3.7	0.00e+00	0	46	104	0	76	25265
2026-01-12 08:09:26.56	179.90	18.46	-52.8	-57.3	3.7	0.00e+00	0	46	104	0	76	25355
2026-01-12 08:09:27.55	179.99	18.62	-52.8	-57.4	3.7	0.00e+00	0	46	104	0	76	25609
2026-01-12 08:09:28.55	180.07	18.79	-52.7	-57.4	3.7	0.00e+00	0	46	104	0	76	25414
2026-01-12 08:09:29.54	180.16	18.96	-53.1	-57.6	3.7	0.00e+00	0	46	104	0	76	26150
2026-01-12 08:09:30.54	180.25	19.12	-52.8	-57.4	3.7	0.00e+00	0	46	104	0	76	25535
2026-01-12 08:09:31.53	180.33	19.29	-52.9	-57.5	3.7	0.00e+00	0	46	104	0	76	25796
2026-01-12 08:09:32.53	180.42	19.47	-52.7	-57.4	3.7	0.00e+00	0	46	104	0	76	25489
2026-01-12 08:09:33.52	180.51	19.64	-52.5	-57.2	3.7	0.00e+00	0	46	104	0	76	25029
2026-01-12 08:09:34.52	180.61	19.81	-52.6	-57.2	3.7	0.00e+00	0	46	104	0	76	25000
2026-01-12 08:09:35.51	180.70	19.99	-52.4	-57.1	3.7	0.00e+00	0	46	104	0	76	24675
2026-01-12 08:09:36.51	180.79	20.16	-52.4	-57.1	3.7	0.00e+00	0	46	104	0	76	24723
2026-01-12 08:09:37.50	180.89	20.34	-52.3	-57.0	3.7	0.00e+00	0	46	104	0	76	24522
2026-01-12 08:09:38.50	180.99	20.52	-52.3	-57.0	3.7	0.00e+00	0	46	104	0	76	24330
2026-01-12 08:09:39.49	181.08	20.70	-52.2	-57.0	3.7	0.00e+00	0	46	104	0	76	24351
2026-01-12 08:09:40.49	181.18	20.89	-52.2	-57.0	3.7	0.00e+00	0	46	104	0	76	24272
2026-01-12 08:09:41.49	181.28	21.07	-52.1	-57.0	3.7	0.00e+00	0	46	104	0	76	24371
2026-01-12 08:09:42.48	181.38	21.26	-52.1	-57.0	3.7	0.00e+00	0	46	104	0	76	24315
2026-01-12 08:09:43.47	181.49	21.44	-52.2	-57.0	3.7	0.00e+00	0	46	104	0	76	24522
2026-01-12 08:09:44.47	181.59	21.64	-52.2	-56.9	3.7	0.00e+00	0	46	104	0	76	23970
2026-01-12 08:09:45.46	181.70	21.83	-52.0	-56.9	3.7	0.00e+00	0	46	104	0	75	25406
2026-01-12 08:09:46.46	181.80	22.02	-52.1	-56.9	3.7	0.00e+00	0	46	104	0	75	25582
2026-01-12 08:09:47.45	181.91	22.21	-51.9	-56.7	3.7	0.00e+00	0	46	104	0	75	24999
2026-01-12 08:09:48.45	182.02	22.41	-52.0	-56.6	3.7	0.00e+00	0	46	104	0	75	24719
2026-01-12 08:09:49.44	182.14	22.61	-52.0	-56.8	3.6	0.00e+00	0	46	104	0	75	25180
2026-01-12 08:09:50.44	182.25	22.81	-52.0	-56.8	3.7	0.00e+00	0	46	104	0	75	25254
2026-01-12 08:09:51.43	182.36	23.01	-52.1	-57.0	3.7	0.00e+00	0	46	104	0	75	25737
2026-01-12 08:09:52.43	182.48	23.22	-52.7	-57.2	3.7	0.00e+00	0	46	104	0	75	26472
2026-01-12 08:09:53.43	182.60	23.42	-52.8	-57.3	3.7	0.00e+00	0	46	104	0	76	25136
2026-01-12 08:09:54.42	182.72	23.63	-52.6	-57.1	3.7	0.00e+00	0	46	104	0	76	24795
2026-01-12 08:09:55.42	182.84	23.84	-53.0	-57.4	3.7	0.00e+00	0	46	104	0	76	25601
2026-01-12 08:09:56.41	182.96	24.05	-53.0	-57.3	3.7	0.00e+00	0	46	104	0	76	25283
2026-01-12 08:09:57.41	183.09	24.27	-53.0	-57.4	3.7	0.00e+00	0	47	104	0	76	25500
2026-01-12 08:09:58.41	183.22	24.49	-53.0	-57.3	3.7	0.00e+00	0	46	104	0	76	25351
2026-01-12 08:09:59.40	183.35	24.70	-53.0	-57.4	3.7	0.00e+00	0	46	104	0	76	25414
2026-01-12 08:10:00.40	183.48	24.92	-52.9	-57.2	3.7	0.00e+00	0	46	104	0	76	24981
2026-01-12 08:10:01.39	183.61	25.15	-52.8	-57.3	3.7	0.00e+00	0	46	104	0	76	25096
2026-01-12 08:10:02.39	183.75	25.37	-52.9	-57.3	3.7	0.00e+00	0	46	104	0	76	25305
2026-01-12 08:10:03.38	183.88	25.60	-52.7	-57.1	3.7	0.00e+00	0	46	104	0	76	24646
2026-01-12 08:10:04.38	184.02	25.83	-52.7	-57.1	3.7	0.00e+00	0	46	104	0	76	24549
2026-01-12 08:10:05.37	184.17	26.06	-52.9	-57.3	3.7	0.00e+00	0	46	104	0	76	25150
2026-01-12 08:10:06.37	184.31	26.29	-52.7	-57.2	3.7	0.00e+00	0	46	104	0	76	24874
2026-01-12 08:10:07.36	184.46	26.53	-53.1	-57.5	3.7	0.00e+00	0	46	104	0	76	25752
2026-01-12 08:10:08.45	184.62	26.79	-52.8	-57.3	3.7	0.00e+00	0	46	104	0	76	25378
2026-01-12 08:10:09.33	184.75	27.00	-52.8	-57.3	3.7	0.00e+00	0	46	104	0	76	25210
2026-01-12 08:10:10.47	184.93	27.28	-52.7	-57.2	3.7	0.00e+00	0	46	104	0	76	24913
2026-01-12 08:10:11.33	185.06	27.49	-53.0	-57.3	3.7	0.00e+00	0	46	104	0	76	25289
2026-01-12 08:10:12.46	185.24	27.77	-53.3	-57.8	3.7	0.00e+00	0	46	104	0	77	25150
2026-01-12 08:10:13.31	185.38	27.99	-53.3	-57.8	3.7	0.00e+00	0	46	104	0	77	25176
2026-01-12 08:10:14.45	185.57	28.28	-53.3	-57.6	3.7	0.00e+00	0	46	104	0	77	24528
2026-01-12 08:10:15.30	185.71	28.50	-53.0	-57.6	3.7	0.00e+00	0	46	104	0	77	24594
2026-01-12 08:10:16.44	185.91	28.79	-53.1	-57.6	3.7	0.00e+00	0	46	104	0	77	24807
2026-01-12 08:10:17.29	186.06	29.02	-53.0	-57.6	3.7	0.00e+00	0	46	104	0	77	24673
2026-01-12 08:10:18.43	186.26	29.32	-53.2	-57.8	3.7	0.00e+00	0	47	104	0	77	25218
2026-01-12 08:10:19.28	186.41	29.54	-53.1	-57.7	3.7	0.00e+00	0	46	104	0	77	24978
2026-01-12 08:10:20.44	186.62	29.86	-53.3	-57.6	3.7	0.00e+00	0	46	104	0	77	24711
2026-01-12 08:10:21.29	186.78	30.09	-53.3	-57.7	3.7	0.00e+00	0	46	104	0	77	24980
2026-01-12 08:10:22.49	187.01	30.42	-53.3	-57.7	3.7	0.00e+00	0	47	104	0	77	25021
2026-01-12 08:10:23.34	187.17	30.66	-53.3	-57.7	3.7	0.00e+00	0	46	104	0	77	25021
2026-01-12 08:10:24.48	187.40	30.98	-53.5	-58.0	3.7	0.00e+00	0	47	104	0	77	25758
2026-01-12 08:10:25.33	187.57	31.22	-53.4	-57.8	3.7	0.00e+00	0	46	104	0	77	25298
2026-01-12 08:10:26.59	187.83	31.59	-53.4	-57.7	3.7	0.00e+00	0	46	104	0	77	25077
2026-01-12 08:10:27.38	187.99	31.82	-53.5	-57.8	3.7	0.00e+00	0	47	104	0	77	25318
2026-01-12 08:10:28.58	188.25	32.17	-53.7	-58.2	3.7	0.00e+00	0	47	104	0	78	24918
2026-01-12 08:10:29.44	188.44	32.42	-53.8	-58.2	3.7	0.00e+00	0	47	104	0	78	25014
2026-01-12 08:10:30.58	188.69	32.77	-53.8	-58.1	3.7	0.00e+00	0	46	104	0	78	24782
2026-01-12 08:10:31.43	188.88	33.03	-53.7	-58.1	3.7	0.00e+00	0	46	104	0	78	24797
2026-01-12 08:10:32.57	189.14	33.37	-53.6	-57.8	3.7	0.00e+00	0	46	104	0	78	23896
2026-01-12 08:10:33.42	189.34	33.64	-53.7	-58.0	3.7	0.00e+00	0	46	104	0	78	24285
2026-01-12 08:10:34.55	189.61	33.99	-53.7	-58.1	3.7	0.00e+00	0	46	104	0	78	24641
2026-01-12 08:10:35.41	189.82	34.26	-53.4	-57.8	3.7	0.00e+00	0	47	104	0	78	23812
2026-01-12 08:10:36.54	190.11	34.62	-53.2	-57.6	3.7	0.00e+00	0	47	104	0	78	23176
2026-01-12 08:10:37.39	190.32	34.90	-53.2	-57.6	3.7	0.00e+00	0	47	104	0	78	23345
2026-01-12 08:10:38.53	190.62	35.27	-53.2	-57.6	3.7	0.00e+00	0	47	104	0	78	23351
2026-01-12 08:10:39.38	190.84	35.55	-53.3	-57.8	3.7	0.00e+00	0	47	104	0	78	23749
2026-01-12 08:10:40.52	191.15	35.93	-53.3	-57.7	3.7	0.00e+00	0	47	104	0	78	23487
2026-01-12 08:10:41.37	191.39	36.21	-53.2	-57.6	3.7	0.00e+00	0	47	104	0	78	23313
2026-01-12 08:10:42.57	191.73	36.62	-53.4	-57.8	3.7	0.00e+00	0	46	104	0	78	23822
2026-01-12 08:10:43.42	191.97	36.91	-53.5	-57.9	3.7	0.00e+00	0	47	104	0	78	23996
2026-01-12 08:10:44.63	192.33	37.33	-53.4	-57.7	3.7	0.00e+00	0	47	104	0	78	23633
2026-01-12 08:10:45.48	192.59	37.63	-53.5	-57.8	3.7	0.00e+00	0	46	104	0	78	23874
2026-01-12 08:10:46.62	192.94	38.03	-53.5	-57.8	3.7	0.00e+00	0	47	104	0	78	23856
2026-01-12 08:10:47.47	193.21	38.33	-53.6	-57.8	3.7	0.00e+00	0	47	104	0	78	23704
2026-01-12 08:10:48.60	193.58	38.74	-53.3	-57.2	3.7	0.00e+00	0	47	104	0	78	22215
2026-01-12 08:10:49.46	193.87	39.05	-53.3	-57.2	3.7	0.00e+00	0	46	104	0	78	22341
2026-01-12 08:10:50.60	194.25	39.47	-53.4	-57.5	3.7	0.00e+00	0	47	104	0	78	23050
2026-01-12 08:10:51.45	194.55	39.79	-53.3	-57.6	3.7	0.00e+00	0	47	104	0	78	23199
2026-01-12 08:10:52.58	194.95	40.21	-53.5	-57.8	3.7	0.00e+00	0	47	104	0	78	23693
2026-01-12 08:10:53.62	195.33	40.60	-53.6	-57.8	3.7	0.00e+00	0	47	104	0	78	23751
2026-01-12 08:10:54.79	195.77	41.05	-53.5	-57.7	3.7	0.00e+00	0	47	104	0	78	23624
2026-01-12 08:10:55.70	196.12	41.40	-53.4	-57.7	3.7	0.00e+00	0	47	104	0	78	23662
2026-01-12 08:10:56.72	196.52	41.79	-53.5	-57.7	3.7	0.00e+00	0	46	104	0	78	23687
2026-01-12 08:10:57.89	197.00	42.25	-53.7	-58.0	3.7	0.00e+00	0	47	104	0	78	24479
2026-01-12 08:10:58.75	197.35	42.59	-53.7	-58.1	3.7	0.00e+00	0	47	104	0	78	24565
2026-01-12 08:11:00.06	197.91	43.11	-53.8	-58.1	3.7	0.00e+00	0	47	104	0	78	24643
2026-01-12 08:11:00.77	198.22	43.39	-53.8	-58.1	3.7	0.00e+00	0	47	104	0	78	24719
2026-01-12 08:11:02.05	198.80	43.91	-53.7	-58.0	3.7	0.00e+00	0	47	104	0	78	24461
2026-01-12 08:11:02.76	199.13	44.19	-53.6	-58.1	3.7	0.00e+00	0	47	104	0	78	24672
2026-01-12 08:11:04.04	199.73	44.72	-53.4	-57.7	3.7	0.00e+00	0	47	104	0	78	23661
2026-01-12 08:11:04.76	200.08	45.01	-53.6	-57.9	3.7	0.00e+00	0	47	104	0	78	23990
2026-01-12 08:11:06.04	200.72	45.54	-53.5	-57.8	3.7	0.00e+00	0	47	104	0	78	23718
2026-01-12 08:11:06.77	201.10	45.85	-53.6	-57.8	3.7	0.00e+00	0	47	104	0	78	23926
2026-01-12 08:11:08.05	201.77	46.38	-53.5	-57.7	3.7	0.00e+00	0	47	104	0	78	23655
2026-01-12 08:11:08.76	202.16	46.68	-53.7	-58.0	3.7	0.00e+00	0	47	104	0	78	24366
2026-01-12 08:11:10.04	202.87	47.22	-53.6	-57.9	3.7	0.00e+00	0	47	104	0	78	24222
2026-01-12 08:11:10.76	203.28	47.53	-53.8	-58.1	3.7	0.00e+00	0	47	104	0	78	24579
2026-01-12 08:11:12.10	204.07	48.10	-52.8	-57.3	3.7	0.00e+00	0	47	104	0	77	23883
2026-01-12 08:11:12.81	204.50	48.41	-52.8	-57.4	3.7	0.00e+00	0	46	104	0	77	24202
2026-01-12 08:11:14.09	205.30	48.96	-52.8	-57.4	3.7	0.00e+00	0	47	104	0	77	24077
2026-01-12 08:11:14.80	205.76	49.26	-53.5	-58.0	3.7	0.00e+00	0	47	104	0	77	25852
2026-01-12 08:11:16.26	206.73	49.89	-54.0	-58.3	3.7	0.00e+00	0	47	104	0	78	25206
2026-01-12 08:11:16.97	207.21	50.20	-53.9	-58.2	3.7	0.00e+00	0	47	104	0	78	24986
2026-01-12 08:11:18.24	208.10	50.75	-53.6	-58.0	3.7	0.00e+00	0	46	104	0	78	24380
2026-01-12 08:11:18.97	208.63	51.06	-54.0	-58.4	3.7	0.00e+00	0	47	104	0	78	25440
2026-01-12 08:11:20.25	209.59	51.61	-54.0	-58.3	3.7	0.00e+00	0	47	104	0	78	25202
2026-01-12 08:11:20.96	210.13	51.92	-53.8	-58.1	3.7	0.00e+00	0	47	104	0	78	24604
2026-01-12 08:11:22.24	211.15	52.47	-53.7	-58.2	3.7	0.00e+00	0	47	104	0	78	24977
2026-01-12 08:11:22.95	211.72	52.77	-53.8	-58.2	3.7	0.00e+00	0	47	104	0	78	25059
2026-01-12 08:11:24.23	212.80	53.32	-53.9	-58.2	3.7	0.00e+00	0	47	104	0	78	25075
2026-01-12 08:11:24.94	213.41	53.62	-53.9	-58.3	3.7	0.00e+00	0	47	104	0	78	25175
2026-01-12 08:11:26.22	214.55	54.16	-53.9	-58.3	3.7	0.00e+00	0	47	104	0	78	25128
2026-01-12 08:11:26.93	215.20	54.46	-53.9	-58.2	3.7	0.00e+00	0	47	104	0	78	25019
2026-01-12 08:11:28.21	216.41	54.99	-53.8	-58.2	3.7	0.00e+00	0	46	104	0	78	24988
2026-01-12 08:11:29.09	217.27	55.35	-53.6	-58.0	3.7	0.00e+00	0	47	104	0	78	24293
2026-01-12 08:11:30.53	218.72	55.93	-53.6	-57.8	3.6	0.00e+00	0	47	104	0	78	23901
2026-01-12 08:11:31.24	219.46	56.21	-53.6	-57.8	3.7	0.00e+00	0	47	104	0	78	23962
2026-01-12 08:11:32.52	220.83	56.72	-53.5	-58.0	3.7	0.00e+00	0	47	104	0	78	24358
2026-01-12 08:11:33.23	221.61	56.99	-53.5	-58.1	3.7	0.00e+00	0	47	104	0	78	24764
2026-01-12 08:11:34.51	223.06	57.48	-53.8	-58.3	3.7	0.00e+00	0	47	104	0	78	25206
2026-01-12 08:11:35.29	223.97	57.77	-53.7	-58.3	3.7	0.00e+00	0	47	104	0	78	25168
2026-01-12 08:11:36.56	225.49	58.22	-53.7	-58.2	3.7	0.00e+00	0	46	104	0	78	25060
2026-01-12 08:11:37.29	226.39	58.48	-53.9	-58.3	3.7	0.00e+00	0	46	104	0	78	25368
2026-01-12 08:11:38.57	228.00	58.92	-54.0	-58.3	3.7	0.00e+00	0	47	104	0	78	25286
2026-01-12 08:11:39.28	228.93	59.15	-53.9	-58.3	3.7	0.00e+00	0	47	104	0	78	25181
2026-01-12 08:11:40.57	230.64	59.57	-54.0	-58.4	3.7	0.00e+00	0	47	104	0	78	25556
2026-01-12 08:11:41.28	231.61	59.78	-54.0	-58.4	3.7	0.00e+00	0	47	104	0	78	25677
2026-01-12 08:11:42.56	233.39	60.16	-53.8	-58.4	3.7	0.00e+00	0	47	104	0	78	25411
2026-01-12 08:11:43.27	234.41	60.36	-53.8	-58.4	3.7	0.00e+00	0	47	104	0	78	25402
2026-01-12 08:11:44.58	236.32	60.71	-53.9	-58.2	3.7	0.00e+00	0	47	104	0	78	25049
2026-01-12 08:11:45.29	237.37	60.89	-53.8	-58.1	3.7	0.00e+00	0	47	104	0	78	24749
2026-01-12 08:11:46.67	239.47	61.21	-53.9	-58.2	3.7	0.00e+00	0	47	104	0	78	24865
2026-01-12 08:11:47.63	240.96	61.41	-53.8	-58.2	3.7	0.00e+00	0	47	104	0	78	24867
2026-01-12 08:11:48.97	243.08	61.67	-54.0	-58.5	3.7	0.00e+00	0	47	104	0	78	25749
2026-01-12 08:11:49.69	244.23	61.80	-54.0	-58.4	3.7	0.00e+00	0	47	104	0	78	25558
2026-01-12 08:11:50.97	246.32	62.00	-54.0	-58.4	3.7	0.00e+00	0	47	104	0	78	25488
2026-01-12 08:11:51.67	247.47	62.09	-53.7	-58.1	3.7	0.00e+00	0	47	104	0	78	24800
2026-01-12 08:11:52.95	249.60	62.24	-53.8	-58.3	3.7	0.00e+00	0	47	104	0	78	25287
2026-01-12 08:11:53.68	250.83	62.31	-54.0	-58.4	3.7	0.00e+00	0	47	104	0	78	25497
2026-01-12 08:11:54.96	252.99	62.41	-53.9	-58.3	3.7	0.00e+00	0	47	104	0	78	25176
2026-01-12 08:11:55.67	254.20	62.45	-53.8	-58.3	3.7	0.00e+00	0	47	104	0	78	25259
2026-01-12 08:11:57.00	256.46	62.49	-53.9	-58.4	3.7	0.00e+00	0	47	104	0	78	25526
2026-01-12 08:11:57.71	257.68	62.50	-53.6	-58.2	3.7	0.00e+00	0	46	104	0	78	24989
2026-01-12 08:11:59.03	259.94	62.49	-53.5	-58.2	3.7	0.00e+00	0	47	104	0	78	24831
2026-01-12 08:11:59.75	261.16	62.47	-53.2	-58.0	3.7	0.00e+00	0	47	104	0	78	24499
2026-01-12 08:12:01.02	263.32	62.40	-53.9	-58.4	3.7	0.00e+00	0	46	104	0	78	25673
2026-01-12 08:12:01.75	264.56	62.35	-53.4	-58.1	3.7	0.00e+00	0	47	104	0	78	24693
2026-01-12 08:12:03.16	266.93	62.22	-53.4	-58.1	3.7	0.00e+00	0	47	104	0	78	24712
2026-01-12 08:12:03.87	268.11	62.13	-53.8	-58.3	3.7	0.00e+00	0	47	104	0	78	25198
2026-01-12 08:12:05.15	270.21	61.96	-53.8	-58.3	3.7	0.00e+00	0	47	104	0	78	25171
2026-01-12 08:12:05.86	271.37	61.85	-53.8	-58.2	3.7	0.00e+00	0	47	104	0	78	25049
2026-01-12 08:12:07.14	273.42	61.63	-53.8	-58.2	3.7	0.00e+00	0	47	104	0	78	25086
2026-01-12 08:12:08.21	275.11	61.42	-53.6	-58.2	3.7	0.00e+00	0	46	104	0	78	24874
2026-01-12 08:12:09.07	276.45	61.24	-53.7	-58.3	3.7	0.00e+00	0	47	104	0	78	25170
2026-01-12 08:12:10.20	278.17	60.98	-53.9	-58.3	3.7	0.00e+00	0	47	104	0	78	25286
2026-01-12 08:12:11.06	279.45	60.77	-53.8	-58.3	3.7	0.00e+00	0	47	104	0	78	25150
2026-01-12 08:12:12.26	281.21	60.46	-53.7	-58.2	3.7	0.00e+00	0	47	104	0	78	24988
2026-01-12 08:12:13.11	282.43	60.22	-53.5	-58.0	3.7	0.00e+00	0	47	104	0	78	24519
2026-01-12 08:12:14.32	284.13	59.87	-53.7	-58.2	3.7	0.00e+00	0	47	104	0	78	24923
2026-01-12 08:12:15.18	285.30	59.61	-53.7	-58.2	3.7	0.00e+00	0	47	104	0	78	24898
2026-01-12 08:12:16.31	286.81	59.25	-53.4	-57.8	3.7	0.00e+00	0	47	104	0	78	23833
2026-01-12 08:12:17.17	287.93	58.97	-53.6	-58.0	3.7	0.00e+00	0	47	104	0	78	24392
2026-01-12 08:12:18.30	289.36	58.59	-53.7	-58.1	3.7	0.00e+00	0	46	104	0	78	24574
2026-01-12 08:12:19.16	290.43	58.29	-53.8	-58.1	3.7	0.00e+00	0	47	104	0	78	24706
2026-01-12 08:12:20.29	291.79	57.88	-53.8	-58.2	3.7	0.00e+00	0	47	104	0	78	24855
2026-01-12 08:12:21.29	292.96	57.51	-53.7	-57.8	3.7	0.00e+00	0	47	104	0	78	23912
2026-01-12 08:12:22.47	294.29	57.07	-53.7	-57.9	3.7	0.00e+00	0	47	104	0	78	23978
2026-01-12 08:12:23.33	295.24	56.74	-53.7	-57.9	3.7	0.00e+00	0	47	104	0	78	23967
2026-01-12 08:12:24.46	296.45	56.30	-53.6	-58.1	3.7	0.00e+00	0	47	104	0	78	24740
2026-01-12 08:12:25.32	297.35	55.96	-53.5	-57.9	3.7	0.00e+00	0	47	104	0	78	24007
2026-01-12 08:12:26.45	298.49	55.50	-53.6	-57.7	3.7	0.00e+00	0	47	104	0	78	23688
2026-01-12 08:12:27.30	299.33	55.16	-53.6	-57.8	3.7	0.00e+00	0	47	104	0	78	23693
2026-01-12 08:12:28.44	300.41	54.69	-53.4	-57.8	3.7	0.00e+00	0	47	104	0	78	23893
2026-01-12 08:12:29.29	301.20	54.33	-53.3	-58.0	3.7	0.00e+00	0	47	104	0	78	24393
2026-01-12 08:12:30.43	302.23	53.86	-53.7	-58.1	3.7	0.00e+00	0	47	104	0	78	24802
2026-01-12 08:12:31.28	302.97	53.50	-53.7	-58.1	3.7	0.00e+00	0	46	104	0	78	24730
2026-01-12 08:12:32.42	303.94	53.01	-53.5	-58.0	3.6	0.00e+00	0	47	104	0	78	24268
2026-01-12 08:12:33.27	304.64	52.65	-53.1	-57.8	3.7	0.00e+00	0	47	104	0	78	23928
2026-01-12 08:12:34.42	305.56	52.16	-53.4	-58.0	3.7	0.00e+00	0	47	104	0	78	24464
2026-01-12 08:12:35.28	306.22	51.79	-53.4	-58.0	3.7	0.00e+00	0	47	104	0	78	24430
2026-01-12 08:12:36.49	307.13	51.27	-53.7	-58.1	3.7	0.00e+00	0	47	104	0	78	24770
2026-01-12 08:12:37.35	307.76	50.90	-53.1	-57.7	3.7	0.00e+00	0	47	104	0	78	23522
2026-01-12 08:12:38.48	308.56	50.42	-52.9	-57.7	3.7	0.00e+00	0	47	104	0	77	24881
2026-01-12 08:12:39.34	309.16	50.05	-52.9	-57.7	3.7	0.00e+00	0	47	104	0	77	24890
2026-01-12 08:12:40.48	309.92	49.56	-53.7	-58.2	3.7	0.00e+00	0	47	104	0	78	24914
2026-01-12 08:12:41.33	310.47	49.19	-53.1	-57.9	3.7	0.00e+00	0	47	104	0	78	23992
2026-01-12 08:12:42.46	311.19	48.71	-52.9	-57.6	3.7	0.00e+00	0	47	104	0	77	24755
2026-01-12 08:12:43.31	311.71	48.35	-52.8	-57.6	3.7	0.00e+00	0	47	104	0	77	24733
2026-01-12 08:12:44.45	312.39	47.86	-53.0	-57.7	3.7	0.00e+00	0	47	104	0	77	24845
2026-01-12 08:12:45.31	312.89	47.50	-52.9	-57.6	3.7	0.00e+00	0	47	104	0	77	24748
2026-01-12 08:12:46.44	313.53	47.02	-53.2	-57.9	3.7	0.00e+00	0	47	104	0	77	25567
2026-01-12 08:12:47.30	314.01	46.66	-53.2	-57.9	3.7	0.00e+00	0	47	104	0	77	25650
2026-01-12 08:12:48.43	314.61	46.18	-52.9	-57.5	3.7	0.00e+00	0	47	104	0	77	24418
2026-01-12 08:12:49.29	315.06	45.83	-52.9	-57.5	3.7	0.00e+00	0	47	104	0	77	24381
2026-01-12 08:12:50.42	315.63	45.36	-53.3	-57.6	3.7	0.00e+00	0	47	104	0	77	24758
2026-01-12 08:12:51.28	316.06	45.01	-53.3	-57.8	3.7	0.00e+00	0	47	104	0	77	25273
2026-01-12 08:12:52.48	316.63	44.52	-53.3	-57.8	3.7	0.00e+00	0	47	104	0	77	25243
2026-01-12 08:12:53.33	317.03	44.17	-53.6	-58.0	3.7	0.00e+00	0	47	104	0	77	25905
2026-01-12 08:12:54.47	317.55	43.71	-53.5	-57.8	3.7	0.00e+00	0	47	104	0	77	25150
2026-01-12 08:12:55.32	317.93	43.37	-53.1	-57.6	3.7	0.00e+00	0	47	104	0	77	24777
2026-01-12 08:12:56.46	318.42	42.92	-53.1	-57.6	3.7	0.00e+00	0	47	104	0	77	24800
2026-01-12 08:12:57.34	318.79	42.57	-53.0	-57.7	3.7	0.00e+00	0	47	104	0	77	24854
2026-01-12 08:12:58.48	319.26	42.13	-53.3	-57.9	3.7	0.00e+00	0	47	104	0	77	25495
2026-01-12 08:12:59.33	319.60	41.80	-53.1	-57.7	3.7	0.00e+00	0	47	104	0	77	25094
2026-01-12 08:13:00.47	320.05	41.36	-53.1	-57.7	3.7	0.00e+00	0	47	104	0	77	25042
2026-01-12 08:13:01.32	320.37	41.03	-53.2	-57.9	3.7	0.00e+00	0	47	104	0	77	25514
2026-01-12 08:13:02.46	320.80	40.60	-53.3	-58.0	3.7	0.00e+00	0	47	104	0	77	25697
2026-01-12 08:13:03.31	321.11	40.28	-53.3	-58.0	3.7	0.00e+00	0	47	104	0	77	25798
2026-01-12 08:13:04.45	321.51	39.86	-53.3	-58.0	3.7	0.00e+00	0	47	104	0	77	25908
2026-01-12 08:13:05.30	321.81	39.55	-53.4	-58.0	3.7	0.00e+00	0	47	104	0	77	25866
2026-01-12 08:13:06.44	322.19	39.13	-53.4	-57.9	3.7	0.00e+00	0	47	104	0	77	25540
2026-01-12 08:13:07.29	322.48	38.82	-53.4	-58.0	3.7	0.00e+00	0	47	104	0	77	25814
2026-01-12 08:13:08.43	322.85	38.42	-53.5	-58.0	3.7	0.00e+00	0	47	104	0	77	25738
2026-01-12 08:13:09.28	323.12	38.11	-53.3	-57.9	3.7	0.00e+00	0	47	104	0	77	25662
2026-01-12 08:13:10.42	323.47	37.71	-53.1	-57.9	3.7	0.00e+00	0	47	104	0	77	25476
2026-01-12 08:13:11.27	323.73	37.42	-52.8	-57.6	3.7	0.00e+00	0	47	104	0	77	24773
2026-01-12 08:13:12.58	324.11	36.97	-52.8	-57.6	3.7	0.00e+00	0	47	104	0	77	24542
2026-01-12 08:13:13.67	324.43	36.60	-52.0	-57.1	3.7	0.00e+00	0	47	104	0	76	24736
2026-01-12 08:13:14.86	324.76	36.20	-51.5	-56.8	3.7	0.00e+00	0	47	104	0	75	25326
2026-01-12 08:13:15.71	324.99	35.91	-51.5	-56.8	3.7	0.00e+00	0	47	104	0	75	25240
2026-01-12 08:13:16.85	325.30	35.54	-51.7	-57.0	3.7	0.00e+00	0	47	104	0	75	25803
2026-01-12 08:13:17.70	325.53	35.26	-52.2	-57.3	3.7	0.00e+00	0	47	104	0	75	26705
2026-01-12 08:13:18.84	325.82	34.89	-52.8	-57.7	3.7	0.00e+00	0	47	104	0	76	26320
2026-01-12 08:13:19.70	326.04	34.62	-53.1	-57.9	3.7	0.00e+00	0	47	104	0	76	26903
2026-01-12 08:13:20.83	326.32	34.26	-53.1	-57.8	3.7	0.00e+00	0	47	104	0	76	26876
2026-01-12 08:13:21.69	326.53	33.99	-53.1	-57.8	3.7	0.00e+00	0	47	104	0	76	26582
2026-01-12 08:13:22.82	326.79	33.64	-53.1	-57.9	3.7	0.00e+00	0	47	104	0	76	26948
2026-01-12 08:13:23.67	326.99	33.38	-53.2	-57.8	3.7	0.00e+00	0	47	104	0	76	26668
2026-01-12 08:13:24.91	327.28	33.00	-53.1	-57.8	3.7	0.00e+00	0	47	104	0	76	26662
2026-01-12 08:13:25.76	327.47	32.74	-53.0	-57.8	3.7	0.00e+00	0	47	104	0	76	26600
2026-01-12 08:13:26.90	327.72	32.40	-53.1	-57.7	3.7	0.00e+00	0	47	104	0	76	26301
2026-01-12 08:13:27.75	327.90	32.15	-53.4	-58.0	3.7	0.00e+00	0	47	104	0	77	25801
2026-01-12 08:13:28.88	328.14	31.82	-53.3	-57.9	3.7	0.00e+00	0	47	104	0	77	25395
2026-01-12 08:13:29.74	328.32	31.58	-53.5	-58.0	3.7	0.00e+00	0	47	104	0	77	25973
2026-01-12 08:13:30.88	328.55	31.25	-53.3	-57.9	3.7	0.00e+00	0	47	104	0	77	25677
2026-01-12 08:13:31.73	328.72	31.01	-53.0	-57.8	3.7	0.00e+00	0	47	104	0	77	25217
2026-01-12 08:13:32.86	328.94	30.69	-53.2	-57.9	3.7	0.00e+00	0	47	104	0	77	25586
2026-01-12 08:13:33.72	329.11	30.46	-52.8	-57.6	3.7	0.00e+00	0	47	104	0	77	24788
2026-01-12 08:13:34.85	329.32	30.15	-52.7	-57.6	3.7	0.00e+00	0	47	104	0	77	24604
2026-01-12 08:13:35.71	329.48	29.91	-52.3	-57.4	3.7	0.00e+00	0	47	104	0	76	25512
2026-01-12 08:13:36.84	329.68	29.61	-52.5	-57.5	3.7	0.00e+00	0	47	104	0	76	25685
2026-01-12 08:13:37.70	329.84	29.38	-52.3	-57.3	3.7	0.00e+00	0	47	104	0	76	25322
2026-01-12 08:13:38.83	330.04	29.08	-52.1	-57.3	3.7	0.00e+00	0	47	104	0	76	25147
2026-01-12 08:13:39.69	330.19	28.86	-52.6	-57.3	3.7	0.00e+00	0	47	104	0	76	25276
2026-01-12 08:13:40.92	330.40	28.54	-52.3	-57.2	3.7	0.00e+00	0	47	104	0	76	24821
2026-01-12 08:13:41.77	330.54	28.32	-52.5	-57.2	3.7	0.00e+00	0	47	104	0	76	24856
2026-01-12 08:13:42.91	330.73	28.04	-52.7	-57.5	3.7	0.00e+00	0	47	104	0	76	25950
2026-01-12 08:13:43.76	330.86	27.82	-52.1	-57.2	3.7	0.00e+00	0	47	104	0	76	25040
2026-01-12 08:13:44.90	331.04	27.54	-52.7	-57.4	3.7	0.00e+00	0	47	104	0	75	27084
2026-01-12 08:13:45.75	331.18	27.33	-51.7	-56.9	3.7	0.00e+00	0	47	104	0	75	25617
2026-01-12 08:13:46.89	331.35	27.06	-51.4	-56.8	3.7	0.00e+00	0	47	104	0	74	26888
2026-01-12 08:13:47.74	331.48	26.85	-52.1	-57.3	3.7	0.00e+00	0	47	104	0	74	28184
2026-01-12 08:13:48.88	331.65	26.58	-51.4	-56.8	3.7	0.00e+00	0	47	104	0	74	26781
2026-01-12 08:13:49.73	331.78	26.38	-51.5	-56.9	3.7	0.00e+00	0	47	104	0	74	27031
2026-01-12 08:13:50.87	331.94	26.12	-51.8	-57.1	3.7	0.00e+00	0	47	104	0	74	27639
2026-01-12 08:13:51.72	332.06	25.92	-52.3	-57.4	3.7	0.00e+00	0	47	104	0	75	26941
2026-01-12 08:13:52.86	332.22	25.66	-52.5	-57.5	3.7	0.00e+00	0	47	104	0	75	27254
2026-01-12 08:13:53.71	332.34	25.47	-52.4	-57.5	3.7	0.00e+00	0	47	104	0	75	27240
2026-01-12 08:13:54.85	332.49	25.21	-51.9	-57.1	3.7	0.00e+00	0	47	104	0	75	26251
2026-01-12 08:13:55.70	332.61	25.02	-52.9	-57.7	3.7	0.00e+00	0	47	104	0	76	26502
2026-01-12 08:13:56.90	332.76	24.76	-52.7	-57.6	3.7	0.00e+00	0	47	104	0	76	26153
2026-01-12 08:13:57.76	332.87	24.57	-52.8	-57.7	3.7	0.00e+00	0	47	104	0	76	26277
2026-01-12 08:13:58.90	333.02	24.33	-53.1	-57.8	3.7	0.00e+00	0	47	104	0	76	26821
2026-01-12 08:13:59.75	333.13	24.14	-53.2	-57.9	3.7	0.00e+00	0	47	104	0	76	26904
2026-01-12 08:14:00.89	333.27	23.90	-53.0	-57.8	3.7	0.00e+00	0	47	104	0	76	26671
2026-01-12 08:14:01.74	333.37	23.73	-52.8	-57.7	3.7	0.00e+00	0	47	104	0	76	26317
2026-01-12 08:14:03.08	333.53	23.45	-52.8	-57.6	3.7	0.00e+00	0	47	104	0	76	26173
2026-01-12 08:14:03.79	333.62	23.30	-52.7	-57.5	3.7	0.00e+00	0	47	104	0	76	25843
2026-01-12 08:14:05.07	333.77	23.04	-53.1	-57.8	3.7	0.00e+00	0	47	104	0	77	25309
2026-01-12 08:14:05.78	333.85	22.90	-53.2	-57.9	3.7	0.00e+00	0	47	104	0	77	25603
2026-01-12 08:14:07.06	333.99	22.64	-53.0	-57.7	3.7	0.00e+00	0	47	104	0	77	25079
2026-01-12 08:14:07.79	334.08	22.50	-52.9	-57.7	3.7	0.00e+00	0	47	104	0	77	24972
2026-01-12 08:14:09.06	334.22	22.25	-53.1	-57.8	3.7	0.00e+00	0	47	104	0	77	25244
2026-01-12 08:14:09.87	334.30	22.09	-52.8	-57.7	3.7	0.00e+00	0	47	104	0	77	25027
2026-01-12 08:14:11.01	334.43	21.87	-52.7	-57.6	3.7	0.00e+00	0	47	104	0	77	24639
2026-01-12 08:14:11.86	334.52	21.71	-52.2	-57.3	3.7	0.00e+00	0	47	104	0	76	25210
2026-01-12 08:14:13.00	334.64	21.49	-52.8	-57.6	3.6	0.00e+00	0	47	104	0	76	26231
2026-01-12 08:14:13.85	334.72	21.33	-52.2	-57.3	3.7	0.00e+00	0	47	104	0	76	25104
2026-01-12 08:14:14.99	334.84	21.12	-52.0	-57.1	3.7	0.00e+00	0	47	104	0	76	24644
2026-01-12 08:14:15.84	334.92	20.97	-52.5	-57.5	3.7	0.00e+00	0	47	104	0	76	25683
2026-01-12 08:14:16.99	335.04	20.76	-52.1	-57.2	3.7	0.00e+00	0	47	104	0	76	25002
2026-01-12 08:14:17.85	335.12	20.60	-52.4	-57.3	3.7	0.00e+00	0	47	104	0	76	25262
2026-01-12 08:14:19.03	335.24	20.39	-52.6	-57.5	3.7	0.00e+00	0	47	104	0	76	25737
2026-01-12 08:14:19.89	335.32	20.24	-52.0	-57.0	3.7	0.00e+00	0	47	104	0	76	24392
2026-01-12 08:14:21.02	335.43	20.04	-52.6	-57.5	3.7	0.00e+00	0	47	104	0	76	25747
2026-01-12 08:14:21.88	335.51	19.89	-52.4	-57.3	3.7	0.00e+00	0	47	104	0	76	25321
2026-01-12 08:14:23.13	335.62	19.67	-51.9	-57.1	3.7	0.00e+00	0	47	104	0	75	25987
2026-01-12 08:14:23.98	335.70	19.52	-52.2	-57.3	3.7	0.00e+00	0	47	104	0	75	26659
2026-01-12 08:14:25.12	335.80	19.33	-51.9	-57.0	3.7	0.00e+00	0	47	104	0	75	25826
2026-01-12 08:14:25.97	335.87	19.19	-52.0	-57.0	3.7	0.00e+00	0	47	104	0	75	25816
2026-01-12 08:14:27.10	335.97	19.00	-52.3	-57.4	3.7	0.00e+00	0	47	104	0	75	27093
2026-01-12 08:14:28.02	336.05	18.85	-53.1	-57.9	3.7	0.00e+00	0	47	104	0	76	26904
2026-01-12 08:14:29.02	336.14	18.68	-52.2	-57.3	3.7	0.00e+00	0	47	104	0	76	25230
2026-01-12 08:14:30.01	336.22	18.52	-52.9	-57.7	3.7	0.00e+00	0	47	104	0	76	26336
2026-01-12 08:14:31.01	336.30	18.36	-53.1	-57.9	3.7	0.00e+00	0	47	104	0	76	26983
2026-01-12 08:14:32.01	336.39	18.20	-51.9	-56.9	3.7	0.00e+00	0	47	104	0	75	25675
2026-01-12 08:14:33.00	336.47	18.04	-53.1	-57.8	3.7	0.00e+00	0	47	104	0	76	26768
2026-01-12 08:14:34.00	336.55	17.88	-51.4	-56.7	3.7	0.00e+00	0	47	104	0	74	26311
2026-01-12 08:14:34.99	336.63	17.73	-51.0	-56.5	3.7	0.00e+00	0	47	104	0	73	27208
2026-01-12 08:14:35.98	336.70	17.57	-51.0	-56.4	3.7	0.00e+00	0	47	104	0	73	26900
2026-01-12 08:14:36.98	336.78	17.42	-51.5	-56.7	3.6	0.00e+00	0	47	104	0	73	27951
2026-01-12 08:14:37.97	336.86	17.27	-51.9	-56.9	3.7	0.00e+00	0	47	104	0	74	27148
2026-01-12 08:14:38.98	336.94	17.11	-52.5	-57.2	3.7	0.00e+00	0	47	104	0	75	26543
2026-01-12 08:14:39.98	337.01	16.96	-52.8	-57.4	3.7	0.00e+00	0	47	104	0	76	25667
2026-01-12 08:14:40.97	337.08	16.81	-53.0	-57.6	3.7	0.00e+00	0	47	104	0	76	25993
2026-01-12 08:14:41.97	337.16	16.66	-51.3	-56.6	3.7	0.00e+00	0	47	104	0	74	25985
2026-01-12 08:14:42.96	337.23	16.52	-51.6	-56.9	3.7	0.00e+00	0	47	104	0	74	26998
2026-01-12 08:14:43.95	337.30	16.37	-52.3	-57.3	3.7	0.00e+00	0	47	104	0	75	26598
2026-01-12 08:14:44.95	337.37	16.23	-52.6	-57.5	3.7	0.00e+00	0	47	104	0	75	27367
2026-01-12 08:14:45.94	337.44	16.09	-53.0	-57.7	3.7	0.00e+00	0	47	104	0	76	26556
2026-01-12 08:14:46.94	337.51	15.94	-53.1	-57.8	3.7	0.00e+00	0	47	104	0	76	26644
2026-01-12 08:14:47.93	337.58	15.80	-53.0	-57.7	3.7	0.00e+00	0	47	104	0	76	26524
2026-01-12 08:14:48.93	337.65	15.66	-52.9	-57.7	3.7	0.00e+00	0	47	104	0	76	26305
2026-01-12 08:14:49.92	337.71	15.52	-51.8	-56.9	3.7	0.00e+00	0	47	104	0	75	25438
2026-01-12 08:14:50.92	337.78	15.38	-52.1	-57.2	3.7	0.00e+00	0	47	104	0	75	26411
2026-01-12 08:14:51.95	337.85	15.24	-52.4	-57.1	3.7	0.00e+00	0	47	104	0	75	26178
2026-01-12 08:14:52.98	337.92	15.10	-51.7	-56.8	3.7	0.00e+00	0	47	104	0	75	25367
2026-01-12 08:14:53.97	337.98	14.97	-52.3	-57.1	3.7	0.00e+00	0	47	104	0	75	26268
2026-01-12 08:14:54.97	338.05	14.83	-52.6	-57.5	3.7	0.00e+00	0	47	104	0	75	27217
2026-01-12 08:14:55.96	338.11	14.70	-51.1	-56.4	3.7	0.00e+00	0	47	104	0	74	25614
2026-01-12 08:14:57.05	338.18	14.55	-52.3	-57.2	3.7	0.00e+00	0	47	104	0	75	26353
2026-01-12 08:14:57.95	338.23	14.44	-50.6	-56.1	3.7	0.00e+00	0	47	104	0	73	26201
2026-01-12 08:14:58.96	338.30	14.30	-50.4	-56.0	3.7	0.00e+00	0	47	104	0	72	27417
2026-01-12 08:14:59.96	338.36	14.17	-50.7	-56.3	3.7	0.00e+00	0	47	104	0	72	28331
2026-01-12 08:15:00.95	338.42	14.05	-51.0	-56.5	3.7	0.00e+00	0	47	104	0	72	29066
2026-01-12 08:15:01.95	338.48	13.92	-51.7	-57.0	3.7	0.00e+00	0	47	104	0	74	27473
2026-01-12 08:15:02.94	338.53	13.79	-51.6	-57.0	3.7	0.00e+00	0	47	104	0	74	27478
2026-01-12 08:15:03.94	338.59	13.66	-50.6	-56.1	3.7	0.00e+00	0	47	104	0	72	27724
2026-01-12 08:15:04.93	338.65	13.54	-50.6	-56.1	3.7	0.00e+00	0	47	104	0	72	27828
2026-01-12 08:15:05.92	338.71	13.42	-50.9	-56.5	3.7	0.00e+00	0	47	104	0	72	29010
2026-01-12 08:15:06.92	338.76	13.29	-50.8	-56.4	3.7	0.00e+00	0	47	104	0	72	28672
2026-01-12 08:15:07.91	338.82	13.17	-51.0	-56.5	3.7	0.00e+00	0	47	104	0	72	29056
2026-01-12 08:15:08.94	338.88	13.04	-51.3	-56.8	3.7	0.00e+00	0	47	104	0	73	28264
2026-01-12 08:15:09.97	338.94	12.92	-51.4	-56.9	3.7	0.00e+00	0	47	104	0	73	28595
2026-01-12 08:15:10.96	338.99	12.80	-51.7	-57.0	3.7	0.00e+00	0	47	104	0	74	27478
2026-01-12 08:15:11.95	339.04	12.68	-51.9	-57.2	3.7	0.00e+00	0	47	104	0	74	27851
2026-01-12 08:15:12.95	339.10	12.56	-51.7	-56.9	3.7	0.00e+00	0	47	104	0	74	27183
2026-01-12 08:15:13.94	339.15	12.44	-51.3	-56.7	3.7	0.00e+00	0	47	104	0	74	26550
2026-01-12 08:15:14.94	339.20	12.32	-51.5	-56.9	3.7	0.00e+00	0	47	104	0	74	27113
2026-01-12 08:15:15.93	339.26	12.21	-51.9	-57.2	3.7	0.00e+00	0	47	104	0	74	27889
2026-01-12 08:15:16.92	339.31	12.09	-51.3	-56.7	3.7	0.00e+00	0	47	104	0	74	26441
2026-01-12 08:15:17.92	339.36	11.98	-51.7	-57.0	3.7	0.00e+00	0	47	104	0	74	27288
2026-01-12 08:15:18.91	339.41	11.86	-51.8	-57.1	3.7	0.00e+00	0	47	104	0	74	27697
2026-01-12 08:15:19.91	339.46	11.75	-51.3	-56.8	3.7	0.00e+00	0	47	104	0	74	26682
2026-01-12 08:15:20.91	339.51	11.63	-51.8	-57.1	3.7	0.00e+00	0	47	104	0	74	27519
2026-01-12 08:15:21.95	339.56	11.52	-51.9	-57.1	3.7	0.00e+00	0	47	104	0	74	27817
2026-01-12 08:15:22.96	339.61	11.40	-51.2	-56.8	3.7	0.00e+00	0	47	104	0	74	26685
2026-01-12 08:15:23.95	339.66	11.29	-50.3	-56.2	3.7	0.00e+00	0	47	104	0	72	28154
2026-01-12 08:15:24.95	339.71	11.18	-51.8	-57.0	3.7	0.00e+00	0	47	104	0	74	27460
2026-01-12 08:15:25.94	339.76	11.07	-50.8	-56.6	3.7	0.00e+00	0	47	104	0	73	27521
2026-01-12 08:15:26.94	339.80	10.96	-49.9	-56.0	3.7	0.00e+00	0	47	104	0	71	28910
2026-01-12 08:15:27.93	339.85	10.86	-50.0	-56.0	3.7	0.00e+00	0	47	104	0	71	28866
2026-01-12 08:15:28.92	339.90	10.75	-49.9	-55.9	3.7	0.00e+00	0	47	104	0	71	28585
2026-01-12 08:15:29.92	339.94	10.64	-49.9	-55.8	3.7	0.00e+00	0	47	104	0	71	28409
2026-01-12 08:15:30.92	339.99	10.53	-49.9	-55.9	3.7	0.00e+00	0	47	104	0	71	28487
2026-01-12 08:15:31.91	340.04	10.43	-49.9	-55.8	3.7	0.00e+00	0	47	104	0	71	28285
2026-01-12 08:15:32.91	340.08	10.32	-50.0	-55.9	3.7	0.00e+00	0	47	104	0	71	28694
2026-01-12 08:15:33.90	340.13	10.22	-50.6	-56.3	3.7	0.00e+00	0	47	104	0	71	30064
2026-01-12 08:15:34.90	340.17	10.11	-50.2	-56.0	3.7	0.00e+00	0	47	104	0	72	27486
2026-01-12 08:15:35.89	340.21	10.01	-50.0	-56.0	3.7	0.00e+00	0	47	104	0	71	28815
2026-01-12 08:15:36.89	340.26	9.91	-50.1	-55.9	3.7	0.00e+00	0	47	104	0	71	28690
2026-01-12 08:15:37.95	340.30	9.80	-50.2	-56.1	3.7	0.00e+00	0	47	104	0	71	29148
2026-01-12 08:15:38.83	340.34	9.71	-50.2	-56.1	3.7	0.00e+00	0	47	104	0	71	29426
2026-01-12 08:15:39.97	340.39	9.59	-50.5	-56.4	3.7	0.00e+00	0	47	104	0	71	30243
2026-01-12 08:15:40.82	340.43	9.50	-50.5	-56.4	3.7	0.00e+00	0	47	104	0	71	30299
2026-01-12 08:15:41.96	340.48	9.39	-50.7	-56.5	3.7	0.00e+00	0	47	104	0	72	28965
2026-01-12 08:15:42.81	340.51	9.30	-50.7	-56.6	3.7	0.00e+00	0	47	104	0	72	29243
2026-01-12 08:15:43.95	340.56	9.19	-51.0	-56.8	3.7	0.00e+00	0	47	104	0	73	28285
2026-01-12 08:15:44.81	340.59	9.11	-50.5	-56.4	3.7	0.00e+00	0	47	104	0	73	26912
2026-01-12 08:15:45.94	340.64	8.99	-50.6	-56.3	3.7	0.00e+00	0	47	104	0	72	28457
2026-01-12 08:15:46.80	340.68	8.91	-51.5	-57.0	3.7	0.00e+00	0	47	104	0	74	27389
2026-01-12 08:15:47.93	340.72	8.80	-53.0	-57.8	3.7	0.00e+00	0	47	104	0	76	26625
2026-01-12 08:15:48.78	340.76	8.72	-52.9	-57.7	3.7	0.00e+00	0	47	104	0	77	24978
2026-01-12 08:15:49.92	340.80	8.61	-52.6	-57.4	3.7	0.00e+00	0	47	104	0	75	27030
2026-01-12 08:15:50.77	340.84	8.53	-53.1	-58.0	3.7	0.00e+00	0	47	104	0	77	25733
2026-01-12 08:15:51.91	340.88	8.42	-51.4	-56.7	3.7	0.00e+00	0	47	104	0	74	26530
2026-01-12 08:15:52.76	340.91	8.34	-52.0	-56.5	3.7	0.00e+00	0	47	104	0	75	24395
2026-01-12 08:15:53.90	340.96	8.23	-53.7	-58.1	3.7	0.00e+00	0	47	104	0	78	24756
2026-01-12 08:15:54.75	340.99	8.15	-53.7	-58.3	3.7	0.00e+00	0	47	104	0	78	25103
2026-01-12 08:15:55.88	341.03	8.04	-53.6	-58.2	3.7	0.00e+00	0	47	104	0	77	26469
2026-01-12 08:15:56.74	341.07	7.96	-53.4	-58.2	3.7	0.00e+00	0	47	104	0	78	24842
2026-01-12 08:15:57.87	341.11	7.86	-53.0	-57.9	3.7	0.00e+00	0	47	104	0	78	24055
2026-01-12 08:15:58.72	341.14	7.78	-53.8	-58.3	3.7	0.00e+00	0	47	104	0	78	25323
2026-01-12 08:15:59.86	341.18	7.67	-53.6	-58.3	3.7	0.00e+00	0	47	104	0	78	25197
2026-01-12 08:16:00.71	341.21	7.59	-53.2	-58.1	3.7	0.00e+00	0	47	104	0	78	24772
2026-01-12 08:16:01.85	341.25	7.49	-54.1	-58.5	3.7	0.00e+00	0	47	104	0	78	25795
2026-01-12 08:16:02.70	341.29	7.41	-53.6	-58.3	3.7	0.00e+00	0	47	104	0	78	25123
2026-01-12 08:16:03.84	341.33	7.31	-53.6	-58.3	3.7	0.00e+00	0	47	104	0	78	25155
2026-01-12 08:16:04.69	341.36	7.23	-53.7	-58.4	3.7	0.00e+00	0	47	104	0	78	25437
2026-01-12 08:16:05.82	341.40	7.13	-54.1	-58.5	3.7	0.00e+00	0	47	104	0	78	25895
2026-01-12 08:16:06.68	341.43	7.06	-53.8	-58.3	3.7	0.00e+00	0	47	104	0	78	25339
2026-01-12 08:16:07.81	341.47	6.96	-53.8	-58.3	3.7	0.00e+00	0	47	104	0	78	25339
2026-01-12 08:16:08.66	341.50	6.88	-53.6	-58.1	3.7	0.00e+00	0	47	104	0	78	24590
2026-01-12 08:16:09.80	341.54	6.78	-53.5	-57.7	3.7	0.00e+00	0	47	104	0	78	23545
2026-01-12 08:16:10.65	341.57	6.71	-53.3	-57.7	3.7	0.00e+00	0	47	104	0	78	23584
2026-01-12 08:16:11.79	341.60	6.61	-53.4	-57.8	3.7	0.00e+00	0	47	104	0	78	23919
2026-01-12 08:16:12.64	341.63	6.53	-53.4	-57.9	3.7	0.00e+00	0	47	104	0	78	23969
2026-01-12 08:16:13.78	341.67	6.44	-53.4	-57.8	3.7	0.00e+00	0	47	104	0	78	23897
2026-01-12 08:16:14.63	341.70	6.36	-53.4	-57.8	3.7	0.00e+00	0	47	104	0	78	23736
2026-01-12 08:16:15.77	341.74	6.27	-53.4	-57.8	3.7	0.00e+00	0	47	104	0	78	23872
2026-01-12 08:16:16.62	341.77	6.19	-53.4	-57.8	3.7	0.00e+00	0	47	104	0	78	23785
2026-01-12 08:16:17.75	341.80	6.10	-53.4	-57.8	3.7	0.00e+00	0	47	104	0	78	23906
2026-01-12 08:16:18.61	341.83	6.03	-53.4	-57.8	3.7	0.00e+00	0	47	104	0	78	23816
2026-01-12 08:16:19.74	341.87	5.93	-53.4	-57.8	3.7	0.00e+00	0	47	104	0	78	23777
2026-01-12 08:16:20.59	341.90	5.86	-53.4	-57.8	3.7	0.00e+00	0	47	104	0	78	23770
2026-01-12 08:16:21.73	341.93	5.76	-53.4	-57.8	3.7	0.00e+00	0	47	104	0	78	23831
2026-01-12 08:16:22.58	341.96	5.69	-53.4	-57.8	3.7	0.00e+00	0	47	104	0	78	23783
2026-01-12 08:16:23.71	341.99	5.60	-53.4	-57.8	3.7	0.00e+00	0	47	104	0	78	23796
2026-01-12 08:16:24.57	342.02	5.53	-53.4	-57.8	3.7	0.00e+00	0	47	104	0	78	23802
2026-01-12 08:16:25.70	342.06	5.44	-53.4	-57.8	3.7	0.00e+00	0	47	104	0	78	23885
2026-01-12 08:16:26.55	342.08	5.37	-53.4	-57.8	3.7	0.00e+00	0	47	104	0	78	23914
2026-01-12 08:16:27.69	342.12	5.28	-53.4	-57.7	3.7	0.00e+00	0	47	104	0	78	23679
2026-01-12 08:16:28.54	342.14	5.21	-53.4	-57.8	3.7	0.00e+00	0	47	104	0	78	23818
2026-01-12 08:16:29.68	342.18	5.11	-53.4	-57.8	3.7	0.00e+00	0	47	104	0	78	23828
2026-01-12 08:16:30.53	342.21	5.05	-53.4	-57.8	3.7	0.00e+00	0	47	104	0	78	23904
2026-01-12 08:16:31.66	342.24	4.96	-53.4	-57.8	3.7	0.00e+00	0	47	104	0	78	23796

#Closed at: 2026-01-12 08:16:32
#Recorded file [0 MB]: D:/Data/31040_260112_110729.dat