passes_logs/2026/01/12/T1/T1__20260112_144721_FENGYUN_3E_rec.log

#Pass ID: 20260112_144721_FENGYUN 3E
#Satellite: FENGYUN 3E
#Configuration: FENGYUN 3E
#almurnet v.1.7.20251203
#Start time: 2026-01-12 14:47:21

#Version: 2.0.20230620
#Station: T1
#Location: 37.570604 lon 55.790049 lat
#TLE: 1 49008U 21062A   26011.97558190  .00000066  00000+0  51928-4 0  9996
#TLE: 2 49008  98.7491  17.1395 0001916 144.4283 215.7021 14.19885193234411

#Time	Az	El	Level	Level2	SNR	BER	BlckErr	Temp	State	Recorded	gain1	gain2
2026-01-12 14:47:21.13	178.62	4.97	-52.2	-63.6	3.8	8.46e-01	0	41	0	0	75	12880
2026-01-12 14:47:22.12	178.65	5.04	-50.4	-62.9	3.8	8.46e-01	0	41	104	0	71	14923
2026-01-12 14:47:23.12	178.69	5.11	-50.2	-62.7	3.8	8.47e-01	0	41	104	0	71	14626
2026-01-12 14:47:24.11	178.72	5.18	-50.2	-62.7	3.8	8.47e-01	0	41	104	0	71	14573
2026-01-12 14:47:25.11	178.76	5.25	-50.3	-62.7	3.8	8.46e-01	0	41	104	0	71	14691
2026-01-12 14:47:26.10	178.79	5.32	-50.2	-62.7	3.8	8.47e-01	0	41	104	0	71	14702
2026-01-12 14:47:27.10	178.82	5.39	-50.3	-62.7	3.8	8.46e-01	0	41	104	0	71	14634
2026-01-12 14:47:28.08	178.86	5.46	-50.2	-62.8	3.8	8.47e-01	0	41	104	0	71	14776
2026-01-12 14:47:29.07	178.89	5.53	-50.3	-62.7	3.8	8.46e-01	0	41	104	0	71	14675
2026-01-12 14:47:30.07	178.93	5.60	-50.2	-62.7	3.8	8.48e-01	0	41	104	0	71	14642
2026-01-12 14:47:31.06	178.96	5.68	-50.2	-62.6	3.8	8.47e-01	0	42	104	0	71	14519
2026-01-12 14:47:32.06	179.00	5.75	-50.2	-62.5	3.8	8.46e-01	0	42	104	0	71	14372
2026-01-12 14:47:33.05	179.03	5.82	-50.2	-62.5	3.8	8.46e-01	0	41	104	0	71	14305
2026-01-12 14:47:34.05	179.07	5.89	-50.3	-62.4	3.8	8.47e-01	0	42	104	0	71	14178
2026-01-12 14:47:35.04	179.10	5.96	-50.2	-62.4	3.8	8.47e-01	0	42	104	0	71	14154
2026-01-12 14:47:36.04	179.14	6.04	-50.2	-62.5	3.8	8.47e-01	0	41	104	0	71	14368
2026-01-12 14:47:37.03	179.17	6.11	-50.2	-62.7	3.8	8.47e-01	0	42	104	0	71	14620
2026-01-12 14:47:38.03	179.21	6.18	-50.3	-62.8	3.8	8.48e-01	0	42	104	0	71	14781
2026-01-12 14:47:39.03	179.25	6.25	-50.3	-62.8	3.8	8.46e-01	0	42	104	0	71	14798
2026-01-12 14:47:40.02	179.28	6.33	-50.3	-62.7	3.8	8.47e-01	0	42	104	0	71	14657
2026-01-12 14:47:41.02	179.32	6.40	-50.2	-62.4	3.8	8.46e-01	0	42	104	0	71	14064
2026-01-12 14:47:42.01	179.36	6.47	-50.2	-62.0	3.8	8.46e-01	0	42	104	0	71	13443
2026-01-12 14:47:43.01	179.39	6.55	-50.1	-61.2	3.8	8.46e-01	0	42	104	0	71	12307
2026-01-12 14:47:44.00	179.43	6.62	-50.1	-60.6	4.0	8.46e-01	0	42	104	0	70	12157
2026-01-12 14:47:45.00	179.47	6.70	-50.0	-60.5	3.9	8.43e-01	0	42	104	0	70	12054
2026-01-12 14:47:45.99	179.50	6.77	-49.9	-60.2	3.9	8.43e-01	0	42	104	0	70	11634
2026-01-12 14:47:46.99	179.54	6.84	-50.0	-60.7	4.0	8.47e-01	0	42	104	0	70	12269
2026-01-12 14:47:47.98	179.58	6.92	-50.1	-61.3	3.9	8.46e-01	0	42	104	0	70	13229
2026-01-12 14:47:48.97	179.62	6.99	-50.2	-62.3	3.8	8.46e-01	0	42	104	0	70	14771
2026-01-12 14:47:49.97	179.66	7.07	-50.2	-62.8	3.8	8.47e-01	0	42	104	0	70	15723
2026-01-12 14:47:50.97	179.69	7.14	-50.2	-62.0	3.8	8.47e-01	0	42	104	0	70	14253
2026-01-12 14:47:51.96	179.73	7.22	-49.9	-59.3	4.3	8.41e-01	0	42	0	0	70	10491
2026-01-12 14:47:52.96	179.77	7.30	-49.3	-56.6	5.7	7.48e-01	0	42	0	0	69	8132
2026-01-12 14:47:53.95	179.81	7.37	-48.7	-54.2	7.6	1.32e-01	0	42	0	6291456	68	6564
2026-01-12 14:47:54.95	179.85	7.45	-47.5	-51.8	10.0	1.48e-02	0	42	0	13631488	65	5856
2026-01-12 14:47:55.94	179.89	7.52	-46.6	-50.1	11.7	8.12e-04	0	42	0	20971520	64	5103
2026-01-12 14:47:56.94	179.93	7.60	-45.8	-48.7	13.1	7.55e-05	0	42	0	28311552	62	4923
2026-01-12 14:47:57.94	179.97	7.68	-45.0	-47.5	14.3	5.70e-06	0	42	0	35651584	60	4812
2026-01-12 14:47:58.93	180.01	7.75	-44.4	-46.7	15.0	1.10e-06	0	42	0	42991616	59	4612
2026-01-12 14:47:59.93	180.05	7.83	-43.9	-46.0	15.7	0.00e+00	0	42	0	50331648	58	4518
2026-01-12 14:48:00.92	180.09	7.91	-43.6	-45.6	16.1	0.00e+00	0	43	0	56623104	57	4580
2026-01-12 14:48:01.92	180.13	7.99	-43.4	-45.4	16.3	0.00e+00	0	43	0	63963136	57	4465
2026-01-12 14:48:02.92	180.17	8.07	-43.5	-45.5	16.2	0.00e+00	0	43	0	71303168	57	4522
2026-01-12 14:48:03.91	180.21	8.14	-43.5	-45.4	16.2	0.00e+00	0	43	0	78643200	57	4480
2026-01-12 14:48:04.91	180.25	8.22	-43.8	-45.8	15.9	0.00e+00	0	43	0	85983232	57	4683
2026-01-12 14:48:05.91	180.29	8.30	-44.0	-46.1	15.6	0.00e+00	0	43	0	93323264	57	4864
2026-01-12 14:48:06.90	180.33	8.38	-44.7	-47.1	14.7	0.00e+00	0	43	0	99614720	58	5110
2026-01-12 14:48:07.90	180.38	8.46	-45.2	-47.7	14.1	0.00e+00	0	43	0	106954752	59	5171
2026-01-12 14:48:08.90	180.42	8.54	-45.9	-48.9	13.0	2.05e-05	0	43	0	114294784	61	5319
2026-01-12 14:48:09.89	180.46	8.62	-46.6	-50.0	11.9	2.91e-04	0	43	0	121634816	62	5663
2026-01-12 14:48:10.89	180.50	8.70	-47.2	-51.1	10.7	1.69e-03	0	43	0	128974848	63	6125
2026-01-12 14:48:11.89	180.54	8.78	-47.9	-52.5	9.3	1.48e-02	0	43	0	136314880	65	6356
2026-01-12 14:48:12.89	180.59	8.86	-48.3	-53.6	8.1	5.07e-02	0	43	0	143654912	66	6861
2026-01-12 14:48:13.88	180.63	8.94	-48.7	-55.0	6.9	1.62e-01	0	43	0	150994944	66	7991
2026-01-12 14:48:14.88	180.67	9.02	-49.0	-56.1	5.9	3.42e-01	0	43	0	158334976	67	8648
2026-01-12 14:48:15.88	180.72	9.10	-48.8	-54.6	7.1	2.44e-01	0	43	0	164626432	67	7285
2026-01-12 14:48:16.87	180.76	9.18	-48.4	-53.8	8.0	6.56e-02	0	43	0	171966464	67	6581
2026-01-12 14:48:17.88	180.80	9.27	-50.4	-60.7	4.0	6.87e-01	0	43	0	177209344	70	12347
2026-01-12 14:48:18.87	180.85	9.35	-46.8	-49.6	12.3	4.46e-04	0	43	0	180355072	64	4839
2026-01-12 14:48:19.88	180.89	9.43	-49.6	-58.1	4.8	4.20e-01	0	43	0	185597952	68	10185
2026-01-12 14:48:20.88	180.94	9.51	-47.0	-49.8	12.1	3.62e-02	0	43	0	189792256	64	4951
2026-01-12 14:48:21.88	180.98	9.60	-46.9	-49.5	12.4	1.86e-04	0	43	0	197132288	64	4793
2026-01-12 14:48:22.88	181.03	9.68	-46.4	-48.7	13.2	4.57e-05	0	43	0	204472320	63	4650
2026-01-12 14:48:23.88	181.07	9.76	-46.5	-48.9	13.1	2.28e-05	0	43	0	211812352	63	4707
2026-01-12 14:48:24.88	181.12	9.85	-46.3	-48.7	13.3	1.60e-05	0	43	0	219152384	63	4623
2026-01-12 14:48:25.88	181.17	9.93	-45.8	-48.0	14.0	3.40e-06	0	43	0	226492416	62	4507
2026-01-12 14:48:26.88	181.21	10.02	-45.6	-47.8	14.1	6.80e-06	0	43	0	233832448	61	4666
2026-01-12 14:48:27.89	181.26	10.10	-45.8	-48.0	14.0	1.10e-06	0	43	0	240123904	61	4777
2026-01-12 14:48:28.89	181.31	10.19	-45.3	-47.4	14.6	0.00e+00	0	43	0	247463936	61	4479
2026-01-12 14:48:29.89	181.35	10.27	-45.7	-47.9	14.1	0.00e+00	0	43	0	254803968	61	4725
2026-01-12 14:48:30.89	181.40	10.36	-45.6	-47.8	14.2	2.20e-06	0	43	0	262144000	61	4681
2026-01-12 14:48:31.89	181.45	10.44	-45.5	-47.7	14.4	2.20e-06	0	43	0	269484032	61	4602
2026-01-12 14:48:32.89	181.50	10.53	-45.7	-47.8	14.2	1.80e-04	0	43	0	276824064	61	4689
2026-01-12 14:48:33.89	181.54	10.62	-45.5	-47.5	14.4	0.00e+00	0	43	0	284164096	61	4543
2026-01-12 14:48:34.89	181.59	10.70	-45.6	-47.7	14.4	0.00e+00	0	43	0	291504128	61	4618
2026-01-12 14:48:35.89	181.64	10.79	-45.4	-47.5	14.5	4.74e-04	0	43	0	297795584	61	4511
2026-01-12 14:48:36.89	181.69	10.88	-45.6	-47.7	14.3	0.00e+00	0	43	0	305135616	61	4629
2026-01-12 14:48:37.89	181.74	10.97	-45.6	-47.8	14.2	0.00e+00	0	43	0	312475648	61	4672
2026-01-12 14:48:38.89	181.79	11.05	-45.4	-47.5	14.5	0.00e+00	0	43	0	319815680	61	4503
2026-01-12 14:48:39.90	181.84	11.14	-45.2	-47.3	14.7	2.20e-06	0	43	0	327155712	61	4416
2026-01-12 14:48:40.90	181.89	11.23	-45.2	-47.3	14.7	0.00e+00	0	43	0	334495744	60	4679
2026-01-12 14:48:41.90	181.94	11.32	-45.1	-47.2	14.8	0.00e+00	0	43	0	341835776	60	4629
2026-01-12 14:48:42.90	181.99	11.41	-44.9	-46.9	15.1	0.00e+00	0	43	0	349175808	60	4445
2026-01-12 14:48:43.90	182.04	11.50	-44.8	-46.7	15.1	0.00e+00	0	43	0	356515840	59	4649
2026-01-12 14:48:44.90	182.09	11.59	-44.8	-46.7	15.1	0.00e+00	0	43	0	362807296	59	4632
2026-01-12 14:48:45.90	182.14	11.68	-44.8	-46.8	15.1	0.00e+00	0	43	0	370147328	59	4687
2026-01-12 14:48:46.90	182.19	11.77	-45.1	-47.1	14.8	0.00e+00	0	43	0	377487360	59	4857
2026-01-12 14:48:47.90	182.25	11.86	-44.8	-46.7	15.1	0.00e+00	0	43	0	384827392	59	4650
2026-01-12 14:48:48.90	182.30	11.95	-44.4	-46.3	15.6	0.00e+00	0	43	0	392167424	59	4403
2026-01-12 14:48:49.90	182.35	12.04	-44.4	-46.2	15.7	0.00e+00	0	43	0	399507456	59	4372
2026-01-12 14:48:50.90	182.40	12.13	-44.2	-46.0	15.9	0.00e+00	0	43	0	406847488	59	4265
2026-01-12 14:48:51.90	182.46	12.22	-44.1	-45.9	15.9	0.00e+00	0	43	0	414187520	58	4492
2026-01-12 14:48:52.90	182.51	12.32	-43.9	-45.7	16.1	0.00e+00	0	43	0	421527552	58	4359
2026-01-12 14:48:53.90	182.56	12.41	-43.9	-45.7	16.2	0.00e+00	0	43	0	427819008	58	4361
2026-01-12 14:48:54.90	182.62	12.50	-43.3	-45.1	16.7	0.00e+00	0	43	0	435159040	57	4293
2026-01-12 14:48:55.90	182.67	12.60	-43.1	-44.8	17.0	5.30e-04	0	43	0	442499072	57	4154
2026-01-12 14:48:56.90	182.73	12.69	-43.1	-44.7	17.1	0.00e+00	0	43	0	449839104	56	4373
2026-01-12 14:48:57.91	182.78	12.78	-43.2	-44.8	17.0	0.00e+00	0	43	0	457179136	56	4434
2026-01-12 14:48:58.91	182.84	12.88	-43.1	-44.8	17.0	0.00e+00	0	44	0	464519168	56	4404
2026-01-12 14:48:59.91	182.89	12.97	-43.0	-44.7	17.1	0.00e+00	0	44	0	471859200	56	4359
2026-01-12 14:49:00.91	182.95	13.07	-42.9	-44.6	17.2	0.00e+00	0	43	0	479199232	56	4302
2026-01-12 14:49:01.91	183.01	13.16	-42.8	-44.4	17.4	0.00e+00	0	43	0	485490688	56	4210
2026-01-12 14:49:02.91	183.06	13.26	-42.8	-44.3	17.4	0.00e+00	0	43	0	492830720	56	4193
2026-01-12 14:49:03.91	183.12	13.35	-42.3	-43.9	17.7	0.00e+00	0	43	0	500170752	55	4210
2026-01-12 14:49:04.92	183.18	13.45	-42.4	-44.0	17.6	0.00e+00	0	43	0	507510784	55	4277
2026-01-12 14:49:05.92	183.24	13.55	-42.3	-43.9	17.8	0.00e+00	0	43	0	514850816	55	4194
2026-01-12 14:49:06.92	183.30	13.65	-42.3	-43.9	17.8	0.00e+00	0	43	0	522190848	55	4206
2026-01-12 14:49:07.92	183.35	13.74	-42.3	-43.8	17.8	0.00e+00	0	43	0	529530880	55	4187
2026-01-12 14:49:08.92	183.41	13.84	-42.3	-43.9	17.7	0.00e+00	0	43	0	536870912	55	4210
2026-01-12 14:49:09.92	183.47	13.94	-42.2	-43.8	17.9	0.00e+00	0	43	0	544210944	55	4158
2026-01-12 14:49:10.92	183.53	14.04	-42.3	-43.9	17.7	0.00e+00	0	43	0	550502400	55	4203
2026-01-12 14:49:11.92	183.59	14.14	-42.2	-43.7	17.9	0.00e+00	0	43	0	558891008	55	4123
2026-01-12 14:49:12.93	183.65	14.24	-42.1	-43.6	18.0	0.00e+00	0	43	0	566231040	54	4321
2026-01-12 14:49:13.93	183.71	14.34	-42.0	-43.4	18.1	0.00e+00	0	43	0	572522496	54	4241
2026-01-12 14:49:14.93	183.78	14.44	-42.0	-43.4	18.2	0.00e+00	0	43	0	579862528	54	4238
2026-01-12 14:49:15.93	183.84	14.54	-42.0	-43.5	18.1	0.00e+00	0	43	0	587202560	54	4279
2026-01-12 14:49:16.93	183.90	14.64	-42.0	-43.5	18.1	0.00e+00	0	43	0	594542592	54	4282
2026-01-12 14:49:17.94	183.96	14.74	-41.9	-43.4	18.2	0.00e+00	0	43	0	601882624	54	4202
2026-01-12 14:49:18.93	184.02	14.84	-41.9	-43.3	18.3	0.00e+00	0	43	0	609222656	54	4179
2026-01-12 14:49:19.93	184.09	14.94	-41.9	-43.4	18.2	0.00e+00	0	43	0	616562688	54	4199
2026-01-12 14:49:20.94	184.15	15.05	-41.8	-43.3	18.3	0.00e+00	0	43	0	623902720	54	4169
2026-01-12 14:49:21.94	184.22	15.15	-41.7	-43.2	18.4	0.00e+00	0	43	0	631242752	54	4124
2026-01-12 14:49:22.94	184.28	15.25	-41.7	-43.2	18.4	0.00e+00	0	43	0	637534208	54	4111
2026-01-12 14:49:23.94	184.35	15.36	-41.7	-43.2	18.4	0.00e+00	0	44	0	644874240	54	4122
2026-01-12 14:49:24.94	184.41	15.46	-41.6	-43.1	18.5	0.00e+00	0	43	0	652214272	53	4305
2026-01-12 14:49:25.94	184.48	15.56	-41.6	-43.1	18.5	0.00e+00	0	43	0	659554304	53	4319
2026-01-12 14:49:26.94	184.54	15.67	-41.7	-43.2	18.4	0.00e+00	0	43	0	666894336	53	4377
2026-01-12 14:49:27.94	184.61	15.78	-41.7	-43.2	18.3	0.00e+00	0	43	0	674234368	53	4388
2026-01-12 14:49:28.94	184.68	15.88	-41.7	-43.2	18.4	0.00e+00	0	44	0	679477248	53	4379
2026-01-12 14:49:29.97	184.75	15.99	-41.4	-42.8	18.7	0.00e+00	0	44	0	688914432	53	4189
2026-01-12 14:49:30.96	184.81	16.10	-41.6	-43.1	18.5	0.00e+00	0	44	0	695205888	53	4336
2026-01-12 14:49:31.96	184.88	16.20	-41.6	-43.1	18.5	0.00e+00	0	44	0	702545920	53	4294
2026-01-12 14:49:32.96	184.95	16.31	-41.6	-43.1	18.5	0.00e+00	0	44	0	709885952	53	4312
2026-01-12 14:49:33.95	185.02	16.42	-41.4	-42.9	18.6	0.00e+00	0	43	0	717225984	53	4236
2026-01-12 14:49:34.95	185.09	16.53	-41.3	-42.8	18.7	0.00e+00	0	43	0	724566016	53	4186
2026-01-12 14:49:35.94	185.16	16.63	-41.4	-42.9	18.6	0.00e+00	0	43	0	731906048	53	4239
2026-01-12 14:49:36.94	185.23	16.74	-41.4	-42.9	18.7	0.00e+00	0	44	0	739246080	53	4215
2026-01-12 14:49:37.93	185.30	16.85	-41.4	-42.9	18.6	0.00e+00	0	43	0	746586112	53	4226
2026-01-12 14:49:38.93	185.37	16.96	-41.4	-42.9	18.7	0.00e+00	0	43	0	753926144	53	4239
2026-01-12 14:49:39.92	185.45	17.07	-41.4	-42.9	18.7	0.00e+00	0	44	0	760217600	53	4227
2026-01-12 14:49:40.91	185.52	17.18	-41.4	-42.9	18.7	0.00e+00	0	43	0	767557632	53	4210
2026-01-12 14:49:41.91	185.59	17.29	-41.3	-42.9	18.7	0.00e+00	0	44	0	774897664	53	4197
2026-01-12 14:49:42.94	185.67	17.41	-41.4	-42.9	18.7	0.00e+00	0	44	0	782237696	53	4223
2026-01-12 14:49:43.96	185.74	17.52	-41.4	-42.9	18.7	0.00e+00	0	44	0	789577728	53	4222
2026-01-12 14:49:44.99	185.82	17.64	-41.3	-42.8	18.8	0.00e+00	0	44	0	796917760	53	4184
2026-01-12 14:49:46.02	185.90	17.76	-41.3	-42.8	18.7	0.00e+00	0	44	0	804257792	53	4186
2026-01-12 14:49:47.01	185.97	17.87	-41.3	-42.7	18.8	0.00e+00	0	44	0	811597824	53	4145
2026-01-12 14:49:48.01	186.05	17.98	-41.2	-42.7	18.9	0.00e+00	0	44	0	818937856	53	4114
2026-01-12 14:49:49.00	186.13	18.10	-41.2	-42.7	18.9	0.00e+00	0	44	0	826277888	53	4118
2026-01-12 14:49:49.99	186.20	18.21	-41.1	-42.6	19.0	0.00e+00	0	44	0	833617920	53	4069
2026-01-12 14:49:50.99	186.28	18.33	-41.4	-42.9	18.7	0.00e+00	0	44	0	840957952	53	4238
2026-01-12 14:49:51.98	186.36	18.44	-41.1	-42.6	19.0	0.00e+00	0	43	0	847249408	53	4060
2026-01-12 14:49:52.98	186.44	18.56	-41.1	-42.6	19.1	0.00e+00	0	44	0	854589440	52	4293
2026-01-12 14:49:53.97	186.52	18.67	-41.1	-42.5	19.1	0.00e+00	0	44	0	861929472	52	4283
2026-01-12 14:49:54.97	186.60	18.79	-41.0	-42.4	19.2	0.00e+00	0	44	0	869269504	52	4235
2026-01-12 14:49:55.96	186.68	18.91	-41.0	-42.3	19.2	0.00e+00	0	44	0	876609536	52	4189
2026-01-12 14:49:56.95	186.76	19.03	-41.0	-42.3	19.3	0.00e+00	0	44	0	882900992	52	4186
2026-01-12 14:49:57.95	186.84	19.15	-41.0	-42.3	19.3	0.00e+00	0	44	0	890241024	52	4192
2026-01-12 14:49:58.96	186.93	19.27	-40.9	-42.3	19.3	0.00e+00	0	44	0	897581056	52	4160
2026-01-12 14:49:59.95	187.01	19.39	-40.9	-42.3	19.3	0.00e+00	0	43	0	904921088	52	4164
2026-01-12 14:50:00.94	187.09	19.51	-40.9	-42.2	19.3	0.00e+00	0	44	0	912261120	52	4145
2026-01-12 14:50:01.94	187.18	19.63	-40.8	-42.2	19.4	0.00e+00	0	44	0	919601152	52	4117
2026-01-12 14:50:02.93	187.26	19.75	-40.9	-42.2	19.4	0.00e+00	0	44	0	926941184	52	4139
2026-01-12 14:50:03.93	187.35	19.87	-40.7	-42.0	19.6	0.00e+00	0	44	0	934281216	52	4025
2026-01-12 14:50:04.92	187.44	19.99	-40.7	-42.0	19.5	0.00e+00	0	44	0	941621248	52	4044
2026-01-12 14:50:05.92	187.52	20.12	-40.8	-42.1	19.5	0.00e+00	0	44	0	947912704	52	4068
2026-01-12 14:50:06.91	187.61	20.24	-40.8	-42.1	19.5	0.00e+00	0	44	0	955252736	51	4315
2026-01-12 14:50:07.91	187.70	20.37	-40.8	-42.1	19.5	0.00e+00	0	43	0	962592768	51	4322
2026-01-12 14:50:08.90	187.79	20.49	-40.8	-42.1	19.5	0.00e+00	0	44	0	969932800	51	4331
2026-01-12 14:50:09.89	187.88	20.61	-40.8	-42.2	19.5	0.00e+00	0	44	0	977272832	51	4345
2026-01-12 14:50:10.89	187.97	20.74	-40.8	-42.2	19.5	0.00e+00	0	44	0	984612864	51	4344
2026-01-12 14:50:11.89	188.06	20.87	-41.8	-42.7	19.0	0.00e+00	0	44	0	990904320	52	4389
2026-01-12 14:50:12.88	188.15	20.99	-40.8	-42.2	19.4	0.00e+00	0	44	0	998244352	52	4137
2026-01-12 14:50:13.88	188.25	21.12	-40.8	-42.2	19.4	0.00e+00	0	44	0	1005584384	52	4115
2026-01-12 14:50:14.87	188.34	21.25	-40.7	-42.1	19.5	0.00e+00	0	44	0	1012924416	52	4077
2026-01-12 14:50:15.92	188.44	21.39	-40.8	-42.2	19.4	0.00e+00	0	44	0	1020264448	52	4113
2026-01-12 14:50:16.91	188.54	21.51	-40.8	-42.1	19.4	0.00e+00	0	44	0	1027604480	52	4092
2026-01-12 14:50:17.91	188.63	21.65	-40.7	-42.1	19.5	0.00e+00	0	43	0	1034944512	51	4317
2026-01-12 14:50:18.90	188.73	21.78	-40.8	-42.1	19.5	0.00e+00	0	43	0	1042284544	51	4338
2026-01-12 14:50:19.90	188.83	21.91	-40.8	-42.2	19.4	0.00e+00	0	44	0	1048576000	51	4372
2026-01-12 14:50:20.89	188.92	22.04	-40.9	-42.3	19.4	0.00e+00	0	44	0	1055916032	51	4419
2026-01-12 14:50:21.89	189.02	22.17	-40.8	-42.2	19.5	0.00e+00	0	44	0	1063256064	51	4370
2026-01-12 14:50:22.88	189.12	22.30	-41.1	-42.5	19.2	0.00e+00	0	44	0	1070596096	51	4510
2026-01-12 14:50:23.88	189.22	22.44	-40.7	-42.1	19.5	0.00e+00	0	44	0	1077936128	51	4316
2026-01-12 14:50:24.87	189.33	22.57	-40.7	-42.0	19.6	0.00e+00	0	44	0	1085276160	51	4291
2026-01-12 14:50:25.87	189.43	22.71	-40.7	-42.0	19.6	0.00e+00	0	44	0	1092616192	51	4275
2026-01-12 14:50:26.86	189.53	22.84	-40.6	-42.0	19.6	0.00e+00	0	44	0	1098907648	51	4246
2026-01-12 14:50:27.86	189.64	22.98	-40.7	-42.0	19.6	0.00e+00	0	44	0	1106247680	51	4282
2026-01-12 14:50:28.85	189.74	23.11	-40.5	-41.9	19.7	0.00e+00	0	44	0	1113587712	51	4199
2026-01-12 14:50:29.87	189.85	23.25	-40.6	-42.0	19.6	0.00e+00	0	44	0	1120927744	51	4250
2026-01-12 14:50:30.86	189.96	23.39	-40.5	-41.9	19.7	0.00e+00	0	44	0	1128267776	51	4216
2026-01-12 14:50:31.92	190.07	23.54	-40.6	-41.9	19.7	0.00e+00	0	44	0	1135607808	51	4234
2026-01-12 14:50:32.84	190.17	23.67	-40.2	-41.6	20.0	0.00e+00	0	44	0	1142947840	51	4067
2026-01-12 14:50:33.97	190.30	23.83	-40.6	-42.0	19.6	0.00e+00	0	44	0	1151336448	51	4276
2026-01-12 14:50:34.83	190.39	23.95	-40.7	-42.1	19.6	0.00e+00	0	44	0	1156579328	51	4305
2026-01-12 14:50:35.96	190.52	24.11	-40.6	-42.0	19.6	0.00e+00	0	44	0	1164967936	51	4270
2026-01-12 14:50:36.82	190.62	24.23	-40.6	-42.0	19.6	0.00e+00	0	44	0	1171259392	51	4271
2026-01-12 14:50:37.95	190.74	24.39	-40.6	-42.1	19.6	0.00e+00	0	44	0	1179648000	51	4299
2026-01-12 14:50:38.81	190.84	24.52	-40.7	-42.1	19.5	0.00e+00	0	44	0	1185939456	51	4334
2026-01-12 14:50:39.94	190.97	24.68	-40.8	-42.2	19.4	0.00e+00	0	44	0	1193279488	51	4372
2026-01-12 14:50:40.79	191.07	24.80	-40.7	-42.1	19.5	0.00e+00	0	44	0	1199570944	51	4318
2026-01-12 14:50:41.93	191.21	24.97	-40.6	-42.0	19.6	0.00e+00	0	44	0	1207959552	51	4246
2026-01-12 14:50:42.78	191.31	25.09	-40.5	-41.9	19.7	0.00e+00	0	44	0	1214251008	51	4224
2026-01-12 14:50:43.92	191.45	25.26	-40.5	-41.9	19.7	0.00e+00	0	44	0	1222639616	51	4242
2026-01-12 14:50:44.77	191.55	25.39	-40.6	-42.0	19.6	0.00e+00	0	44	0	1228931072	51	4287
2026-01-12 14:50:45.91	191.69	25.56	-40.6	-42.0	19.6	0.00e+00	0	44	0	1236271104	51	4266
2026-01-12 14:50:46.76	191.80	25.69	-40.4	-41.8	19.9	0.00e+00	0	44	0	1242562560	51	4155
2026-01-12 14:50:47.90	191.94	25.86	-40.3	-41.7	19.9	0.00e+00	0	44	0	1250951168	51	4109
2026-01-12 14:50:48.76	192.05	25.99	-40.0	-41.4	20.2	0.00e+00	0	44	0	1257242624	50	4202
2026-01-12 14:50:50.08	192.21	26.19	-40.1	-41.5	20.1	0.00e+00	0	44	0	1266679808	50	4246
2026-01-12 14:50:50.80	192.31	26.30	-40.1	-41.4	20.2	0.00e+00	0	44	0	1271922688	50	4212
2026-01-12 14:50:52.08	192.47	26.49	-40.1	-41.5	20.2	0.00e+00	0	44	0	1281359872	50	4245
2026-01-12 14:50:52.80	192.57	26.60	-40.1	-41.4	20.2	0.00e+00	0	44	0	1286602752	50	4220
2026-01-12 14:50:54.08	192.74	26.80	-40.3	-41.7	20.0	0.00e+00	0	44	0	1296039936	50	4341
2026-01-12 14:50:54.89	192.84	26.93	-40.0	-41.3	20.3	0.00e+00	0	44	0	1301282816	50	4176
2026-01-12 14:50:56.02	193.00	27.10	-40.1	-41.4	20.3	0.00e+00	0	44	0	1309671424	50	4202
2026-01-12 14:50:56.88	193.11	27.24	-39.9	-41.2	20.4	0.00e+00	0	44	0	1315962880	50	4136
2026-01-12 14:50:58.02	193.27	27.42	-39.9	-41.2	20.4	0.00e+00	0	44	0	1324351488	50	4118
2026-01-12 14:50:58.87	193.39	27.55	-39.9	-41.2	20.4	0.00e+00	0	44	0	1330642944	50	4113
2026-01-12 14:51:00.01	193.55	27.73	-39.9	-41.2	20.4	0.00e+00	0	44	0	1339031552	50	4131
2026-01-12 14:51:00.86	193.67	27.87	-39.9	-41.2	20.5	0.00e+00	0	44	0	1344274432	50	4106
2026-01-12 14:51:02.00	193.83	28.05	-39.9	-41.2	20.4	0.00e+00	0	44	0	1352663040	50	4129
2026-01-12 14:51:02.85	193.95	28.19	-40.0	-41.3	20.3	0.00e+00	0	44	0	1358954496	50	4172
2026-01-12 14:51:03.99	194.12	28.37	-40.0	-41.3	20.3	0.00e+00	0	44	0	1367343104	50	4181
2026-01-12 14:51:04.84	194.24	28.51	-40.0	-41.3	20.3	0.00e+00	0	44	0	1373634560	50	4167
2026-01-12 14:51:06.08	194.43	28.71	-39.9	-41.2	20.4	0.00e+00	0	44	0	1383071744	50	4140
2026-01-12 14:51:06.94	194.56	28.85	-39.8	-41.0	20.5	0.00e+00	0	44	0	1388314624	50	4051
2026-01-12 14:51:08.07	194.73	29.04	-39.7	-41.0	20.6	0.00e+00	0	44	0	1396703232	50	4015
2026-01-12 14:51:08.92	194.86	29.18	-39.6	-40.9	20.6	0.00e+00	0	44	0	1402994688	49	4224
2026-01-12 14:51:10.06	195.03	29.37	-39.6	-40.9	20.7	0.00e+00	0	44	0	1411383296	49	4200
2026-01-12 14:51:10.91	195.17	29.51	-39.5	-40.8	20.7	0.00e+00	0	44	0	1417674752	49	4176
2026-01-12 14:51:12.05	195.35	29.70	-39.5	-40.8	20.7	0.00e+00	0	44	0	1425014784	49	4167
2026-01-12 14:51:12.90	195.48	29.85	-39.5	-40.9	20.6	0.00e+00	0	44	0	1431306240	49	4199
2026-01-12 14:51:14.04	195.67	30.04	-39.5	-40.8	20.7	0.00e+00	0	44	0	1439694848	49	4164
2026-01-12 14:51:14.89	195.80	30.19	-39.5	-40.9	20.6	0.00e+00	0	44	0	1445986304	49	4200
2026-01-12 14:51:16.03	195.99	30.38	-39.6	-41.0	20.5	0.00e+00	0	44	0	1454374912	49	4245
2026-01-12 14:51:16.88	196.13	30.53	-39.8	-41.1	20.3	0.00e+00	0	44	0	1460666368	49	4333
2026-01-12 14:51:18.02	196.32	30.72	-39.7	-41.1	20.4	0.00e+00	0	44	0	1469054976	49	4315
2026-01-12 14:51:18.87	196.47	30.87	-39.8	-41.2	20.3	0.00e+00	0	44	0	1475346432	49	4343
2026-01-12 14:51:20.01	196.66	31.07	-39.8	-41.2	20.3	0.00e+00	0	44	0	1482686464	49	4377
2026-01-12 14:51:20.86	196.81	31.22	-39.7	-41.0	20.4	0.00e+00	0	44	0	1488977920	50	4043
2026-01-12 14:51:22.00	197.01	31.42	-39.8	-41.2	20.3	0.00e+00	0	44	0	1497366528	50	4118
2026-01-12 14:51:22.85	197.16	31.57	-39.8	-41.2	20.3	0.00e+00	0	44	0	1503657984	50	4127
2026-01-12 14:51:23.99	197.36	31.77	-39.8	-41.2	20.3	0.00e+00	0	44	0	1512046592	50	4105
2026-01-12 14:51:24.84	197.52	31.92	-39.9	-41.3	20.2	0.00e+00	0	44	0	1518338048	50	4152
2026-01-12 14:51:26.07	197.74	32.14	-39.8	-41.1	20.4	0.00e+00	0	44	0	1526726656	50	4059
2026-01-12 14:51:26.93	197.90	32.29	-39.9	-41.2	20.3	0.00e+00	0	44	0	1533018112	50	4131
2026-01-12 14:51:28.07	198.11	32.50	-39.9	-41.2	20.4	0.00e+00	0	44	0	1541406720	50	4109
2026-01-12 14:51:28.92	198.27	32.65	-39.8	-41.1	20.4	0.00e+00	0	44	0	1546649600	50	4092
2026-01-12 14:51:30.06	198.49	32.86	-39.8	-41.1	20.5	0.00e+00	0	44	0	1555038208	50	4058
2026-01-12 14:51:30.91	198.65	33.02	-40.3	-41.7	19.9	0.00e+00	0	44	0	1561329664	50	4366
2026-01-12 14:51:32.05	198.87	33.22	-39.8	-41.1	20.4	0.00e+00	0	44	0	1569718272	49	4316
2026-01-12 14:51:33.01	199.06	33.40	-39.9	-41.1	20.4	0.00e+00	0	44	0	1577058304	49	4336
2026-01-12 14:51:34.01	199.26	33.59	-39.8	-41.0	20.5	0.00e+00	0	44	0	1584398336	49	4291
2026-01-12 14:51:35.00	199.46	33.77	-39.8	-41.1	20.5	0.00e+00	0	44	0	1590689792	49	4295
2026-01-12 14:51:36.00	199.67	33.96	-39.8	-41.1	20.4	0.00e+00	0	44	0	1598029824	49	4298
2026-01-12 14:51:36.99	199.87	34.14	-39.8	-41.2	20.4	0.00e+00	0	44	0	1605369856	49	4346
2026-01-12 14:51:37.98	200.08	34.33	-40.0	-41.3	20.2	0.00e+00	0	44	0	1612709888	49	4422
2026-01-12 14:51:38.98	200.29	34.52	-40.0	-41.4	20.2	0.00e+00	0	44	0	1620049920	49	4455
2026-01-12 14:51:39.97	200.50	34.70	-39.9	-41.3	20.3	0.00e+00	0	44	0	1627389952	49	4412
2026-01-12 14:51:40.97	200.71	34.89	-40.0	-41.4	20.2	0.00e+00	0	44	0	1633681408	49	4467
2026-01-12 14:51:41.97	200.93	35.08	-39.9	-41.3	20.3	0.00e+00	0	44	0	1641021440	49	4399
2026-01-12 14:51:42.96	201.15	35.27	-39.9	-41.2	20.4	0.00e+00	0	44	0	1648361472	49	4384
2026-01-12 14:51:43.96	201.37	35.46	-39.9	-41.3	20.3	0.00e+00	0	44	0	1655701504	49	4399
2026-01-12 14:51:44.95	201.60	35.65	-40.0	-41.3	20.3	0.00e+00	0	44	0	1663041536	49	4433
2026-01-12 14:51:45.95	201.82	35.85	-39.9	-41.2	20.4	0.00e+00	0	44	0	1670381568	49	4378
2026-01-12 14:51:46.94	202.05	36.04	-40.0	-41.3	20.4	0.00e+00	0	44	0	1677721600	49	4436
2026-01-12 14:51:47.94	202.29	36.23	-40.0	-41.3	20.4	0.00e+00	0	44	0	1685061632	49	4421
2026-01-12 14:51:48.93	202.52	36.43	-39.9	-41.2	20.5	0.00e+00	0	44	0	1692401664	49	4348
2026-01-12 14:51:49.92	202.76	36.62	-40.0	-41.3	20.4	0.00e+00	0	44	0	1698693120	49	4395
2026-01-12 14:51:50.92	203.00	36.82	-40.0	-41.3	20.3	0.00e+00	0	44	0	1706033152	49	4415
2026-01-12 14:51:51.91	203.24	37.01	-39.6	-40.8	20.8	0.00e+00	0	44	0	1713373184	49	4151
2026-01-12 14:51:52.91	203.49	37.21	-40.0	-41.3	20.3	0.00e+00	0	44	0	1720713216	50	4163
2026-01-12 14:51:53.90	203.74	37.41	-40.1	-41.4	20.3	0.00e+00	0	44	0	1728053248	50	4194
2026-01-12 14:51:54.90	203.99	37.61	-40.1	-41.4	20.2	0.00e+00	0	44	0	1734344704	50	4224
2026-01-12 14:51:55.89	204.25	37.80	-40.1	-41.4	20.2	0.00e+00	0	44	0	1741684736	50	4242
2026-01-12 14:51:56.89	204.51	38.00	-40.1	-41.5	20.2	0.00e+00	0	44	0	1749024768	50	4248
2026-01-12 14:51:57.91	204.77	38.21	-40.3	-41.7	19.9	0.00e+00	0	44	0	1756364800	50	4365
2026-01-12 14:51:58.94	205.05	38.42	-40.3	-41.7	19.9	0.00e+00	0	44	0	1763704832	50	4349
2026-01-12 14:51:59.94	205.32	38.62	-40.3	-41.7	19.9	0.00e+00	0	44	0	1771044864	50	4351
2026-01-12 14:52:00.93	205.59	38.82	-40.3	-41.7	19.9	0.00e+00	0	44	0	1778384896	50	4373
2026-01-12 14:52:01.92	205.86	39.02	-40.3	-41.7	19.9	0.00e+00	0	44	0	1785724928	50	4369
2026-01-12 14:52:02.92	206.14	39.22	-40.5	-42.0	19.7	0.00e+00	0	44	0	1793064960	51	4247
2026-01-12 14:52:03.91	206.42	39.42	-40.5	-41.9	19.8	0.00e+00	0	44	0	1799356416	51	4200
2026-01-12 14:52:04.91	206.71	39.63	-40.4	-41.7	19.9	0.00e+00	0	44	0	1806696448	51	4136
2026-01-12 14:52:05.90	206.99	39.83	-40.4	-41.7	20.0	0.00e+00	0	44	0	1814036480	51	4111
2026-01-12 14:52:06.89	207.29	40.03	-40.3	-41.6	20.1	0.00e+00	0	44	0	1821376512	51	4071
2026-01-12 14:52:07.89	207.58	40.24	-40.2	-41.4	20.2	0.00e+00	0	44	0	1828716544	51	3986
2026-01-12 14:52:08.88	207.88	40.44	-40.2	-41.4	20.2	0.00e+00	0	44	0	1836056576	50	4233
2026-01-12 14:52:09.87	208.18	40.64	-40.3	-41.5	20.1	0.00e+00	0	44	0	1843396608	50	4287
2026-01-12 14:52:10.87	208.49	40.85	-40.4	-41.6	20.1	0.00e+00	0	44	0	1849688064	50	4331
2026-01-12 14:52:11.86	208.80	41.05	-40.3	-41.6	20.0	0.00e+00	0	44	0	1857028096	50	4329
2026-01-12 14:52:12.93	209.14	41.27	-40.5	-41.8	19.8	0.00e+00	0	44	0	1865416704	51	4159
2026-01-12 14:52:13.82	209.42	41.46	-40.5	-41.8	19.9	0.00e+00	0	44	0	1871708160	51	4175
2026-01-12 14:52:14.95	209.79	41.69	-40.5	-41.9	19.9	0.00e+00	0	44	0	1880096768	51	4196
2026-01-12 14:52:15.81	210.07	41.87	-40.3	-41.7	20.0	0.00e+00	0	44	0	1885339648	51	4118
2026-01-12 14:52:16.95	210.45	42.10	-40.2	-41.6	20.2	0.00e+00	0	44	0	1893728256	51	4057
2026-01-12 14:52:17.80	210.74	42.28	-40.2	-41.5	20.3	0.00e+00	0	44	0	1900019712	51	4026
2026-01-12 14:52:18.93	211.13	42.51	-40.2	-41.5	20.3	0.00e+00	0	44	0	1908408320	50	4278
2026-01-12 14:52:19.78	211.42	42.69	-40.3	-41.7	20.1	0.00e+00	0	44	0	1914699776	50	4365
2026-01-12 14:52:20.92	211.82	42.93	-40.3	-41.6	20.2	0.00e+00	0	44	0	1922039808	50	4323
2026-01-12 14:52:21.77	212.12	43.10	-40.3	-41.6	20.1	0.00e+00	0	44	0	1929379840	50	4325
2026-01-12 14:52:22.91	212.53	43.34	-40.2	-41.5	20.3	0.00e+00	0	44	0	1936719872	50	4246
2026-01-12 14:52:23.76	212.84	43.52	-40.2	-41.5	20.2	0.00e+00	0	44	0	1943011328	50	4277
2026-01-12 14:52:24.90	213.26	43.75	-40.2	-41.5	20.1	0.00e+00	0	44	0	1951399936	50	4291
2026-01-12 14:52:25.75	213.57	43.93	-40.2	-41.4	20.3	0.00e+00	0	44	0	1957691392	50	4231
2026-01-12 14:52:26.89	214.01	44.16	-40.2	-41.5	20.2	0.00e+00	0	44	0	1966080000	50	4256
2026-01-12 14:52:27.74	214.33	44.34	-40.3	-41.6	20.1	0.00e+00	0	44	0	1972371456	50	4303
2026-01-12 14:52:28.88	214.77	44.57	-40.3	-41.6	20.2	0.00e+00	0	44	0	1980760064	50	4310
2026-01-12 14:52:29.73	215.11	44.75	-40.4	-41.7	20.1	0.00e+00	0	44	0	1986002944	50	4375
2026-01-12 14:52:30.87	215.56	44.98	-40.6	-41.9	19.9	0.00e+00	0	44	0	1994391552	50	4474
2026-01-12 14:52:31.72	215.90	45.15	-40.5	-41.8	20.1	0.00e+00	0	44	0	2000683008	50	4396
2026-01-12 14:52:33.08	216.46	45.43	-40.6	-41.9	20.0	0.00e+00	0	44	0	2010120192	50	4466
2026-01-12 14:52:33.79	216.75	45.58	-41.2	-42.2	19.9	0.00e+00	0	44	0	2015363072	52	4117
2026-01-12 14:52:35.07	217.29	45.84	-41.3	-42.3	19.9	0.00e+00	0	44	0	2024800256	52	4147
2026-01-12 14:52:35.78	217.59	45.98	-41.5	-42.5	19.7	0.00e+00	0	44	0	2030043136	52	4273
2026-01-12 14:52:37.06	218.14	46.24	-41.2	-42.2	20.0	0.00e+00	0	44	0	2039480320	52	4108
2026-01-12 14:52:37.77	218.45	46.38	-40.9	-41.9	20.2	0.00e+00	0	44	0	2043674624	52	3965
2026-01-12 14:52:39.05	219.01	46.64	-41.4	-42.4	19.8	0.00e+00	0	44	0	2053111808	52	4200
2026-01-12 14:52:39.90	219.39	46.80	-41.3	-42.3	19.9	0.00e+00	0	44	0	2059403264	52	4167
2026-01-12 14:52:41.04	219.90	47.03	-41.1	-42.1	20.0	0.00e+00	0	44	0	2067791872	52	4082
2026-01-12 14:52:41.89	220.29	47.20	-40.9	-41.9	20.2	0.00e+00	0	44	0	2074083328	52	3978
2026-01-12 14:52:43.02	220.82	47.42	-40.9	-41.8	20.3	0.00e+00	0	44	0	2082471936	52	3940
2026-01-12 14:52:43.88	221.22	47.59	-41.0	-41.9	20.2	0.00e+00	0	44	0	2088763392	52	3974
2026-01-12 14:52:45.01	221.76	47.81	-40.9	-41.8	20.3	0.00e+00	0	44	0	2096103424	52	3940
2026-01-12 14:52:45.87	222.17	47.97	-41.1	-42.0	20.1	0.00e+00	0	44	0	2102394880	52	4036
2026-01-12 14:52:47.06	222.75	48.20	-41.4	-42.4	19.8	0.00e+00	0	44	0	2110783488	52	4210
2026-01-12 14:52:47.92	223.17	48.36	-41.5	-42.5	19.7	0.00e+00	0	44	0	2117074944	52	4243
2026-01-12 14:52:49.05	223.74	48.57	-41.6	-42.5	19.6	0.00e+00	0	44	0	2125463552	52	4285
2026-01-12 14:52:49.90	224.17	48.73	-41.5	-42.4	19.7	0.00e+00	0	44	0	2131755008	52	4225
2026-01-12 14:52:51.04	224.75	48.94	-41.4	-42.3	19.8	0.00e+00	0	44	0	2140143616	52	4183
2026-01-12 14:52:51.89	225.19	49.10	-41.6	-42.6	19.6	0.00e+00	0	44	0	2146435072	52	4306
2026-01-12 14:52:53.03	225.78	49.31	-41.9	-42.9	19.3	0.00e+00	0	44	0	2154823680	53	4220
2026-01-12 14:52:53.88	226.23	49.46	-42.0	-43.1	19.2	0.00e+00	0	44	0	2161115136	53	4309
2026-01-12 14:52:55.02	226.84	49.66	-41.7	-42.7	19.4	0.00e+00	0	44	0	2168455168	53	4140
2026-01-12 14:52:55.87	227.30	49.81	-41.6	-42.6	19.6	0.00e+00	0	44	0	2174746624	53	4089
2026-01-12 14:52:57.01	227.93	50.01	-41.4	-42.4	19.8	0.00e+00	0	44	0	2183135232	53	3976
2026-01-12 14:52:57.86	228.40	50.16	-41.4	-42.4	19.8	0.00e+00	0	44	0	2189426688	53	3963
2026-01-12 14:52:58.99	229.03	50.35	-41.5	-42.4	19.7	0.00e+00	0	44	0	2197815296	53	3994
2026-01-12 14:52:59.85	229.52	50.49	-41.4	-42.4	19.7	0.00e+00	0	44	0	2204106752	53	3981
2026-01-12 14:53:01.03	230.19	50.69	-41.7	-42.7	19.4	0.00e+00	0	44	0	2212495360	53	4139
2026-01-12 14:53:01.88	230.69	50.83	-41.9	-42.9	19.3	0.00e+00	0	44	0	2218786816	53	4213
2026-01-12 14:53:03.02	231.35	51.01	-41.8	-42.8	19.4	0.00e+00	0	44	0	2226126848	53	4163
2026-01-12 14:53:03.87	231.86	51.14	-41.7	-42.6	19.6	0.00e+00	0	44	0	2232418304	53	4087
2026-01-12 14:53:05.01	232.54	51.32	-41.5	-42.5	19.6	0.00e+00	0	44	0	2240806912	53	4033
2026-01-12 14:53:05.86	233.05	51.45	-41.5	-42.5	19.6	0.00e+00	0	44	0	2247098368	53	4038
2026-01-12 14:53:07.00	233.74	51.62	-41.6	-42.6	19.6	0.00e+00	0	44	0	2255486976	53	4053
2026-01-12 14:53:07.85	234.27	51.75	-41.8	-42.7	19.5	0.00e+00	0	44	0	2261778432	53	4135
2026-01-12 14:53:08.99	234.97	51.91	-41.8	-42.8	19.5	0.00e+00	0	44	0	2270167040	53	4146
2026-01-12 14:53:09.84	235.51	52.03	-41.7	-42.7	19.5	0.00e+00	0	44	0	2275409920	53	4131
2026-01-12 14:53:10.98	236.23	52.19	-41.7	-42.7	19.4	0.00e+00	0	44	0	2283798528	53	4145
2026-01-12 14:53:11.83	236.77	52.30	-41.5	-42.5	19.6	0.00e+00	0	44	0	2290089984	53	4045
2026-01-12 14:53:12.97	237.51	52.45	-41.4	-42.3	19.8	0.00e+00	0	44	0	2298478592	53	3950
2026-01-12 14:53:13.82	238.06	52.56	-41.3	-42.3	19.9	0.00e+00	0	44	0	2304770048	53	3936
2026-01-12 14:53:14.96	238.81	52.70	-41.4	-42.4	19.8	0.00e+00	0	44	0	2313158656	53	3969
2026-01-12 14:53:15.81	239.37	52.80	-41.7	-42.7	19.5	0.00e+00	0	44	0	2318401536	53	4145
2026-01-12 14:53:17.09	240.22	52.95	-42.1	-43.2	19.0	0.00e+00	0	44	0	2327838720	53	4367
2026-01-12 14:53:17.81	240.71	53.04	-42.3	-43.4	18.9	0.00e+00	0	44	0	2333081600	54	4214
2026-01-12 14:53:19.09	241.57	53.18	-42.4	-43.5	18.7	0.00e+00	0	44	0	2342518784	54	4258
2026-01-12 14:53:19.80	242.06	53.25	-42.4	-43.4	18.8	0.00e+00	0	44	0	2347761664	54	4232
2026-01-12 14:53:21.08	242.94	53.38	-42.1	-43.1	19.2	0.00e+00	0	44	0	2357198848	54	4076
2026-01-12 14:53:21.81	243.44	53.45	-42.0	-43.0	19.2	0.00e+00	0	44	0	2362441728	54	4047
2026-01-12 14:53:23.09	244.33	53.58	-41.9	-42.9	19.3	0.00e+00	0	44	0	2371878912	54	3980
2026-01-12 14:53:23.81	244.84	53.64	-41.8	-42.8	19.5	0.00e+00	0	44	0	2376073216	54	3926
2026-01-12 14:53:25.09	245.74	53.75	-41.8	-42.9	19.4	0.00e+00	0	44	0	2385510400	54	3966
2026-01-12 14:53:25.96	246.35	53.82	-41.9	-42.9	19.3	0.00e+00	0	44	0	2391801856	54	3999
2026-01-12 14:53:27.09	247.16	53.91	-41.7	-42.6	19.6	0.00e+00	0	44	0	2400190464	54	3855
2026-01-12 14:53:27.95	247.78	53.97	-41.4	-42.4	19.8	0.00e+00	0	44	0	2406481920	53	3978
2026-01-12 14:53:29.08	248.59	54.05	-41.3	-42.3	19.9	0.00e+00	0	44	0	2414870528	53	3920
2026-01-12 14:53:29.94	249.21	54.10	-41.3	-42.3	19.9	0.00e+00	0	44	0	2421161984	53	3940
2026-01-12 14:53:31.08	250.04	54.17	-41.5	-42.4	19.8	0.00e+00	0	44	0	2429550592	53	3990
2026-01-12 14:53:31.93	250.66	54.22	-41.4	-42.4	19.8	0.00e+00	0	44	0	2435842048	53	3965
2026-01-12 14:53:33.07	251.49	54.28	-41.3	-42.2	19.9	0.00e+00	0	44	0	2443182080	53	3905
2026-01-12 14:53:33.92	252.12	54.31	-41.6	-42.6	19.7	0.00e+00	0	44	0	2449473536	53	4056
2026-01-12 14:53:35.09	252.98	54.36	-41.9	-42.9	19.3	0.00e+00	0	44	0	2457862144	53	4235
2026-01-12 14:53:35.94	253.61	54.39	-42.0	-43.0	19.2	0.00e+00	0	44	0	2464153600	53	4273
2026-01-12 14:53:37.08	254.45	54.43	-42.2	-43.2	19.1	0.00e+00	0	44	0	2472542208	53	4363
2026-01-12 14:53:37.93	255.08	54.45	-42.1	-43.2	19.1	0.00e+00	0	44	0	2478833664	53	4345
2026-01-12 14:53:39.07	255.93	54.48	-42.1	-43.2	19.1	0.00e+00	0	44	0	2486173696	53	4354
2026-01-12 14:53:40.00	256.62	54.50	-42.0	-43.1	19.2	0.00e+00	0	44	0	2493513728	53	4302
2026-01-12 14:53:41.00	257.36	54.51	-41.8	-42.8	19.4	0.00e+00	0	44	0	2500853760	53	4164
2026-01-12 14:53:41.99	258.10	54.52	-41.4	-42.3	19.8	0.00e+00	0	44	0	2508193792	53	3956
2026-01-12 14:53:42.99	258.85	54.52	-41.7	-42.7	19.5	0.00e+00	0	44	0	2515533824	53	4107
2026-01-12 14:53:43.98	259.59	54.52	-42.0	-43.0	19.3	0.00e+00	0	44	0	2522873856	53	4272
2026-01-12 14:53:44.98	260.33	54.51	-42.1	-43.2	19.1	0.00e+00	0	44	0	2529165312	54	4104
2026-01-12 14:53:45.97	261.07	54.50	-42.3	-43.3	19.0	0.00e+00	0	44	0	2536505344	54	4184
2026-01-12 14:53:46.97	261.81	54.49	-42.4	-43.4	18.9	0.00e+00	0	44	0	2543845376	54	4219
2026-01-12 14:53:47.97	262.56	54.47	-42.3	-43.3	19.0	0.00e+00	0	44	0	2551185408	54	4164
2026-01-12 14:53:48.96	263.29	54.44	-42.2	-43.2	19.1	0.00e+00	0	44	0	2558525440	54	4128
2026-01-12 14:53:49.96	264.03	54.41	-42.0	-43.0	19.2	0.00e+00	0	44	0	2565865472	54	4041
2026-01-12 14:53:50.95	264.76	54.38	-42.0	-43.1	19.2	0.00e+00	0	44	0	2572156928	54	4055
2026-01-12 14:53:51.98	265.52	54.34	-41.8	-42.9	19.4	0.00e+00	0	44	0	2580545536	54	3961
2026-01-12 14:53:52.97	266.25	54.30	-41.9	-42.9	19.3	0.00e+00	0	44	0	2587885568	54	3996
2026-01-12 14:53:53.97	266.98	54.25	-42.0	-43.0	19.2	0.00e+00	0	44	0	2594177024	54	4043
2026-01-12 14:53:54.96	267.71	54.20	-41.9	-42.9	19.4	0.00e+00	0	44	0	2601517056	54	3976
2026-01-12 14:53:55.96	268.43	54.14	-41.8	-42.7	19.5	0.00e+00	0	44	0	2608857088	54	3907
2026-01-12 14:53:56.95	269.15	54.08	-41.7	-42.7	19.6	0.00e+00	0	44	0	2616197120	54	3871
2026-01-12 14:53:57.95	269.87	54.01	-41.6	-42.5	19.6	0.00e+00	0	44	0	2623537152	53	4039
2026-01-12 14:53:58.94	270.58	53.94	-41.5	-42.5	19.7	0.00e+00	0	44	0	2629828608	53	4010
2026-01-12 14:53:59.94	271.30	53.87	-41.7	-42.7	19.6	0.00e+00	0	44	0	2637168640	53	4117
2026-01-12 14:54:00.93	272.00	53.79	-41.9	-42.9	19.4	0.00e+00	0	44	0	2644508672	53	4208
2026-01-12 14:54:01.92	272.70	53.71	-41.7	-42.7	19.5	0.00e+00	0	44	0	2651848704	53	4118
2026-01-12 14:54:02.92	273.40	53.62	-41.6	-42.6	19.6	0.00e+00	0	44	0	2659188736	53	4060
2026-01-12 14:54:03.91	274.09	53.53	-41.7	-42.7	19.5	0.00e+00	0	44	0	2666528768	53	4118
2026-01-12 14:54:04.91	274.79	53.43	-42.0	-43.0	19.2	0.00e+00	0	44	0	2672820224	53	4282
2026-01-12 14:54:05.95	275.50	53.33	-42.3	-43.3	19.0	0.00e+00	0	44	0	2681208832	53	4428
2026-01-12 14:54:06.94	276.18	53.23	-42.1	-43.1	19.2	0.00e+00	0	44	0	2688548864	53	4317
2026-01-12 14:54:07.94	276.86	53.12	-41.8	-42.8	19.4	0.00e+00	0	44	0	2694840320	53	4184
2026-01-12 14:54:08.93	277.53	53.01	-41.7	-42.7	19.6	0.00e+00	0	44	0	2702180352	53	4102
2026-01-12 14:54:09.92	278.19	52.90	-41.7	-42.7	19.4	0.00e+00	0	44	0	2709520384	53	4136
2026-01-12 14:54:10.92	278.85	52.78	-41.8	-42.8	19.5	0.00e+00	0	44	0	2716860416	53	4158
2026-01-12 14:54:11.91	279.51	52.66	-41.7	-42.7	19.5	0.00e+00	0	44	0	2724200448	53	4145
2026-01-12 14:54:12.91	280.16	52.53	-41.7	-42.7	19.6	0.00e+00	0	44	0	2731540480	53	4102
2026-01-12 14:54:13.90	280.80	52.41	-41.6	-42.6	19.6	0.00e+00	0	44	0	2737831936	53	4084
2026-01-12 14:54:14.90	281.44	52.27	-41.7	-42.7	19.6	0.00e+00	0	44	0	2745171968	53	4108
2026-01-12 14:54:15.89	282.07	52.14	-41.8	-42.8	19.3	0.00e+00	0	44	0	2752512000	53	4193
2026-01-12 14:54:16.89	282.70	52.00	-42.0	-43.0	19.2	0.00e+00	0	44	0	2759852032	53	4260
2026-01-12 14:54:17.88	283.32	51.86	-42.0	-43.0	19.2	0.00e+00	0	44	0	2767192064	53	4277
2026-01-12 14:54:18.88	283.94	51.72	-42.2	-43.2	19.1	0.00e+00	0	44	0	2774532096	53	4384
2026-01-12 14:54:19.87	284.54	51.57	-42.1	-43.2	19.1	0.00e+00	0	44	0	2781872128	53	4341
2026-01-12 14:54:20.95	285.20	51.41	-42.0	-43.0	19.2	0.00e+00	0	44	0	2789212160	53	4268
2026-01-12 14:54:21.80	285.71	51.28	-41.7	-42.7	19.5	0.00e+00	0	44	0	2795503616	53	4119
2026-01-12 14:54:23.14	286.50	51.07	-41.7	-42.7	19.5	0.00e+00	0	44	0	2804940800	53	4108
2026-01-12 14:54:23.85	286.92	50.96	-41.7	-42.7	19.5	0.00e+00	0	44	0	2810183680	53	4108
2026-01-12 14:54:25.13	287.67	50.75	-41.5	-42.5	19.7	0.00e+00	0	44	0	2819620864	53	4026
2026-01-12 14:54:25.84	288.07	50.64	-41.6	-42.5	19.7	0.00e+00	0	44	0	2824863744	53	4043
2026-01-12 14:54:27.12	288.80	50.42	-41.6	-42.6	19.6	0.00e+00	0	44	0	2834300928	53	4053
2026-01-12 14:54:27.86	289.22	50.30	-41.6	-42.6	19.6	0.00e+00	0	44	0	2838495232	53	4053
2026-01-12 14:54:29.14	289.93	50.08	-41.6	-42.6	19.6	0.00e+00	0	44	0	2847932416	53	4064
2026-01-12 14:54:29.85	290.32	49.96	-41.6	-42.6	19.5	0.00e+00	0	44	0	2853175296	53	4075
2026-01-12 14:54:31.13	291.02	49.74	-41.6	-42.6	19.6	0.00e+00	0	44	0	2862612480	53	4055
2026-01-12 14:54:31.87	291.42	49.61	-41.4	-42.4	19.8	0.00e+00	0	44	0	2867855360	53	3961
2026-01-12 14:54:33.15	292.10	49.38	-41.3	-42.3	19.9	0.00e+00	0	44	0	2877292544	53	3925
2026-01-12 14:54:33.86	292.47	49.25	-41.4	-42.4	19.7	0.00e+00	0	44	0	2882535424	53	3989
2026-01-12 14:54:35.14	293.13	49.02	-41.5	-42.5	19.7	0.00e+00	0	44	0	2891972608	53	4037
2026-01-12 14:54:35.85	293.50	48.89	-41.6	-42.6	19.5	0.00e+00	0	44	0	2896166912	53	4085
2026-01-12 14:54:37.21	294.19	48.63	-41.6	-42.6	19.6	0.00e+00	0	44	0	2906652672	53	4072
2026-01-12 14:54:37.91	294.54	48.50	-41.6	-42.6	19.6	0.00e+00	0	44	0	2911895552	53	4069
2026-01-12 14:54:39.24	295.19	48.25	-41.5	-42.5	19.6	0.00e+00	0	44	0	2921332736	53	4042
2026-01-12 14:54:39.95	295.54	48.12	-41.5	-42.5	19.7	0.00e+00	0	44	0	2926575616	53	4038
2026-01-12 14:54:41.26	296.17	47.87	-41.7	-42.7	19.5	0.00e+00	0	44	0	2936012800	53	4107
2026-01-12 14:54:41.97	296.51	47.73	-41.6	-42.7	19.6	0.00e+00	0	44	0	2941255680	53	4103
2026-01-12 14:54:43.25	297.11	47.48	-41.5	-42.5	19.6	0.00e+00	0	44	0	2949644288	53	4033
2026-01-12 14:54:43.98	297.45	47.34	-41.6	-42.6	19.6	0.00e+00	0	44	0	2955935744	53	4079
2026-01-12 14:54:45.26	298.04	47.09	-41.5	-42.5	19.7	0.00e+00	0	44	0	2964324352	53	4021
2026-01-12 14:54:45.97	298.36	46.95	-41.6	-42.6	19.6	0.00e+00	0	44	0	2969567232	53	4077
2026-01-12 14:54:47.24	298.93	46.70	-41.2	-42.2	20.0	0.00e+00	0	44	0	2979004416	53	3878
2026-01-12 14:54:47.95	299.25	46.56	-41.0	-41.9	20.2	0.00e+00	0	44	0	2984247296	52	4004
2026-01-12 14:54:49.23	299.81	46.30	-40.9	-41.8	20.3	0.00e+00	0	44	0	2993684480	52	3943
2026-01-12 14:54:49.94	300.11	46.16	-40.9	-41.9	20.3	0.00e+00	0	44	0	2998927360	52	3969
2026-01-12 14:54:51.22	300.66	45.90	-40.9	-41.8	20.3	0.00e+00	0	44	0	3008364544	52	3954
2026-01-12 14:54:51.96	300.97	45.76	-41.0	-41.9	20.2	0.00e+00	0	44	0	3012558848	52	3993
2026-01-12 14:54:53.24	301.50	45.50	-41.1	-42.1	20.1	0.00e+00	0	44	0	3021996032	52	4065
2026-01-12 14:54:54.13	301.86	45.32	-41.1	-42.1	20.0	0.00e+00	0	44	0	3028287488	52	4062
2026-01-12 14:54:55.26	302.32	45.09	-41.0	-41.9	20.2	0.00e+00	0	44	0	3036676096	52	3984
2026-01-12 14:54:56.12	302.67	44.91	-40.8	-41.8	20.3	0.00e+00	0	44	0	3042967552	52	3914
2026-01-12 14:54:57.26	303.11	44.68	-40.8	-41.7	20.4	0.00e+00	0	44	0	3051356160	52	3884
2026-01-12 14:54:58.11	303.45	44.50	-40.7	-41.6	20.6	0.00e+00	0	44	0	3057647616	51	4068
2026-01-12 14:54:59.25	303.88	44.27	-40.4	-41.3	20.8	0.00e+00	0	44	0	3066036224	51	3934
2026-01-12 14:55:00.10	304.21	44.10	-40.4	-41.3	20.8	0.00e+00	0	44	0	3071279104	51	3923
2026-01-12 14:55:01.23	304.63	43.86	-40.4	-41.3	20.8	0.00e+00	0	44	0	3079667712	51	3944
2026-01-12 14:55:02.09	304.95	43.69	-40.4	-41.3	20.8	0.00e+00	0	44	0	3085959168	51	3950
2026-01-12 14:55:03.22	305.36	43.45	-40.5	-41.4	20.7	0.00e+00	0	44	0	3094347776	51	3987
2026-01-12 14:55:04.08	305.67	43.28	-40.6	-41.6	20.6	0.00e+00	0	44	0	3100639232	51	4063
2026-01-12 14:55:05.21	306.07	43.04	-40.7	-41.6	20.6	0.00e+00	0	44	0	3109027840	51	4072
2026-01-12 14:55:06.07	306.38	42.87	-40.7	-41.6	20.2	0.00e+00	0	44	0	3114270720	51	4067
2026-01-12 14:55:07.20	306.77	42.63	-41.0	-42.0	20.2	0.00e+00	0	44	0	3122659328	51	4244
2026-01-12 14:55:08.06	307.06	42.46	-41.1	-42.0	20.2	0.00e+00	0	44	0	3128950784	51	4283
2026-01-12 14:55:09.19	307.45	42.22	-41.0	-42.0	20.2	0.00e+00	0	44	0	3137339392	51	4270
2026-01-12 14:55:10.19	307.78	42.02	-40.8	-41.8	20.4	0.00e+00	0	44	0	3144679424	51	4165
2026-01-12 14:55:11.35	308.16	41.78	-40.6	-41.5	20.6	0.00e+00	0	44	0	3153068032	51	4032
2026-01-12 14:55:12.24	308.45	41.59	-40.3	-41.3	20.9	0.00e+00	0	44	0	3159359488	51	3919
2026-01-12 14:55:13.38	308.82	41.36	-40.3	-41.3	20.9	0.00e+00	0	44	0	3167748096	51	3916
2026-01-12 14:55:14.29	309.11	41.17	-40.5	-41.4	20.7	0.00e+00	0	44	0	3174039552	51	3982
2026-01-12 14:55:15.46	309.47	40.93	-40.7	-41.6	20.5	0.00e+00	0	44	0	3182428160	51	4074
2026-01-12 14:55:16.31	309.74	40.76	-40.7	-41.6	20.5	0.00e+00	0	44	0	3188719616	51	4070
2026-01-12 14:55:17.45	310.08	40.53	-40.8	-41.8	20.4	0.00e+00	0	44	0	3197108224	51	4161
2026-01-12 14:55:18.31	310.34	40.35	-40.9	-41.9	20.4	0.00e+00	0	44	0	3203399680	51	4195
2026-01-12 14:55:19.44	310.68	40.12	-41.0	-42.0	20.2	0.00e+00	0	44	0	3211788288	51	4247
2026-01-12 14:55:20.30	310.93	39.94	-40.9	-41.9	20.2	0.00e+00	0	44	0	3217031168	51	4224
2026-01-12 14:55:21.43	311.26	39.71	-40.9	-41.9	20.3	0.00e+00	0	44	0	3225419776	51	4209
2026-01-12 14:55:22.29	311.51	39.54	-40.7	-41.6	20.5	0.00e+00	0	44	0	3231711232	51	4096
2026-01-12 14:55:23.42	311.83	39.31	-40.5	-41.4	20.7	0.00e+00	0	44	0	3240099840	51	4000
2026-01-12 14:55:24.28	312.07	39.14	-40.5	-41.5	20.7	0.00e+00	0	44	0	3246391296	51	4009
2026-01-12 14:55:25.41	312.38	38.91	-40.4	-41.3	20.8	0.00e+00	0	44	0	3254779904	51	3939
2026-01-12 14:55:26.27	312.62	38.74	-40.3	-41.3	20.8	0.00e+00	0	44	0	3260022784	51	3914
2026-01-12 14:55:27.47	312.94	38.50	-40.4	-41.4	20.7	0.00e+00	0	44	0	3269459968	51	3971
2026-01-12 14:55:28.32	313.17	38.33	-40.5	-41.5	20.7	0.00e+00	0	44	0	3275751424	51	4011
2026-01-12 14:55:29.46	313.47	38.10	-40.6	-41.5	20.6	0.00e+00	0	44	0	3283091456	51	4029
2026-01-12 14:55:30.31	313.69	37.93	-40.6	-41.5	20.6	0.00e+00	0	44	0	3289382912	51	4033
2026-01-12 14:55:31.61	314.02	37.67	-40.6	-41.5	20.6	0.00e+00	0	44	0	3298820096	51	4047
2026-01-12 14:55:32.32	314.20	37.53	-40.6	-41.5	20.6	0.00e+00	0	44	0	3304062976	51	4023
2026-01-12 14:55:33.79	314.57	37.24	-40.5	-41.4	20.7	0.00e+00	0	44	0	3314548736	51	3997
2026-01-12 14:55:34.50	314.75	37.10	-40.6	-41.5	20.6	0.00e+00	0	44	0	3319791616	51	4036
2026-01-12 14:55:35.79	315.06	36.85	-40.7	-41.6	20.5	0.00e+00	0	44	0	3329228800	51	4092
2026-01-12 14:55:36.50	315.23	36.71	-40.8	-41.7	20.4	0.00e+00	0	44	0	3334471680	51	4132
2026-01-12 14:55:37.78	315.54	36.46	-40.8	-41.7	20.4	0.00e+00	0	44	0	3343908864	51	4124
2026-01-12 14:55:38.51	315.71	36.32	-40.7	-41.6	20.4	0.00e+00	0	44	0	3349151744	51	4096
2026-01-12 14:55:39.79	316.01	36.07	-40.5	-41.4	20.6	0.00e+00	0	44	0	3358588928	51	4003
2026-01-12 14:55:40.51	316.18	35.93	-40.5	-41.4	20.7	0.00e+00	0	44	0	3363831808	51	3980
2026-01-12 14:55:41.79	316.47	35.68	-40.4	-41.3	20.8	0.00e+00	0	44	0	3373268992	51	3930
2026-01-12 14:55:42.52	316.63	35.55	-40.3	-41.2	20.9	0.00e+00	0	44	0	3377463296	51	3902
2026-01-12 14:55:43.80	316.92	35.30	-40.1	-41.0	21.1	0.00e+00	0	44	0	3386900480	50	4010
2026-01-12 14:55:44.55	317.08	35.16	-40.0	-40.8	21.1	0.00e+00	0	44	0	3392143360	50	3954
2026-01-12 14:55:45.83	317.36	34.92	-40.0	-40.9	21.1	0.00e+00	0	44	0	3401580544	50	3986
2026-01-12 14:55:46.59	317.52	34.77	-39.9	-40.8	21.3	0.00e+00	0	44	0	3407872000	50	3922
2026-01-12 14:55:48.14	317.85	34.48	-40.0	-40.9	21.1	0.00e+00	0	44	0	3418357760	50	3993
2026-01-12 14:55:48.85	318.00	34.35	-40.1	-41.0	20.8	0.00e+00	0	44	0	3423600640	50	4025
2026-01-12 14:55:50.13	318.27	34.11	-40.2	-41.1	20.9	0.00e+00	0	44	0	3433037824	50	4092
2026-01-12 14:55:51.15	318.48	33.92	-40.3	-41.2	20.8	0.00e+00	0	44	0	3440377856	50	4136
2026-01-12 14:55:52.45	318.74	33.68	-40.5	-41.5	20.7	0.00e+00	0	44	0	3449815040	50	4246
2026-01-12 14:55:53.21	318.89	33.54	-40.7	-41.6	20.5	0.00e+00	0	44	0	3455057920	50	4315
2026-01-12 14:55:54.48	319.14	33.31	-40.8	-41.8	20.4	0.00e+00	0	44	0	3464495104	51	4155
2026-01-12 14:55:55.29	319.30	33.16	-40.7	-41.7	20.4	0.00e+00	0	44	0	3469737984	51	4118
2026-01-12 14:55:56.43	319.52	32.95	-40.7	-41.7	20.4	0.00e+00	0	44	0	3478126592	51	4131
2026-01-12 14:55:57.28	319.68	32.80	-40.6	-41.6	20.5	0.00e+00	0	44	0	3484418048	51	4082
2026-01-12 14:55:58.42	319.90	32.59	-40.6	-41.6	20.5	0.00e+00	0	44	0	3492806656	51	4090
2026-01-12 14:55:59.27	320.06	32.44	-40.6	-41.6	20.5	0.00e+00	0	44	0	3499098112	51	4094
2026-01-12 14:56:00.41	320.27	32.24	-40.3	-41.3	20.8	0.00e+00	0	44	0	3507486720	51	3922
2026-01-12 14:56:01.27	320.42	32.08	-40.1	-41.1	20.9	0.00e+00	0	44	0	3512729600	51	3845
2026-01-12 14:56:02.40	320.63	31.88	-40.3	-41.2	20.8	0.00e+00	0	44	0	3521118208	51	3887
2026-01-12 14:56:03.26	320.78	31.73	-40.3	-41.2	20.8	0.00e+00	0	44	0	3527409664	51	3901
2026-01-12 14:56:04.39	320.98	31.53	-40.1	-41.0	21.0	0.00e+00	0	44	0	3535798272	51	3818
2026-01-12 14:56:05.25	321.13	31.38	-40.1	-41.0	21.1	0.00e+00	0	44	0	3542089728	50	4027
2026-01-12 14:56:06.49	321.35	31.17	-40.1	-41.0	21.0	0.00e+00	0	44	0	3551526912	50	4039
2026-01-12 14:56:07.34	321.49	31.02	-40.2	-41.1	20.9	0.00e+00	0	44	0	3556769792	50	4094
2026-01-12 14:56:08.48	321.69	30.82	-40.3	-41.2	20.8	0.00e+00	0	44	0	3565158400	50	4137
2026-01-12 14:56:09.33	321.83	30.68	-40.3	-41.2	20.8	0.00e+00	0	44	0	3571449856	50	4109
2026-01-12 14:56:10.47	322.02	30.48	-40.4	-41.3	20.7	0.00e+00	0	44	0	3579838464	50	4163
2026-01-12 14:56:11.32	322.16	30.34	-40.5	-41.4	20.6	0.00e+00	0	44	0	3586129920	50	4224
2026-01-12 14:56:12.46	322.35	30.14	-40.5	-41.5	20.6	0.00e+00	0	44	0	3594518528	50	4249
2026-01-12 14:56:13.31	322.48	30.00	-40.5	-41.4	20.6	0.00e+00	0	44	0	3599761408	50	4239
2026-01-12 14:56:14.45	322.67	29.81	-40.6	-41.6	20.5	0.00e+00	0	44	0	3608150016	50	4292
2026-01-12 14:56:15.30	322.80	29.67	-40.7	-41.6	20.5	0.00e+00	0	44	0	3614441472	50	4322
2026-01-12 14:56:16.43	322.98	29.48	-40.8	-41.7	20.4	0.00e+00	0	44	0	3622830080	51	4136
2026-01-12 14:56:17.29	323.11	29.34	-40.8	-41.8	20.3	0.00e+00	0	44	0	3629121536	51	4149
2026-01-12 14:56:18.42	323.28	29.15	-40.9	-41.9	20.2	0.00e+00	0	44	0	3637510144	51	4206
2026-01-12 14:56:19.28	323.41	29.01	-41.0	-42.0	20.2	0.00e+00	0	44	0	3643801600	51	4246
2026-01-12 14:56:20.41	323.58	28.82	-41.1	-42.0	20.1	0.00e+00	0	44	0	3651141632	51	4289
2026-01-12 14:56:21.27	323.71	28.68	-41.0	-42.0	20.1	0.00e+00	0	44	0	3657433088	51	4265
2026-01-12 14:56:22.40	323.88	28.50	-41.0	-42.0	20.1	0.00e+00	0	44	0	3665821696	51	4260
2026-01-12 14:56:23.26	324.00	28.36	-41.0	-42.0	20.1	0.00e+00	0	44	0	3672113152	51	4281
2026-01-12 14:56:24.39	324.17	28.18	-41.0	-41.9	20.2	0.00e+00	0	44	0	3680501760	51	4236
2026-01-12 14:56:25.24	324.29	28.05	-40.9	-41.8	20.2	0.00e+00	0	44	0	3686793216	51	4193
2026-01-12 14:56:26.38	324.45	27.86	-40.9	-41.9	20.2	0.00e+00	0	44	0	3695181824	51	4212
2026-01-12 14:56:27.23	324.57	27.73	-40.9	-41.9	20.2	0.00e+00	0	44	0	3700424704	51	4224
2026-01-12 14:56:28.37	324.73	27.55	-40.8	-41.8	20.3	0.00e+00	0	44	0	3708813312	51	4182
2026-01-12 14:56:29.23	324.85	27.42	-40.7	-41.7	20.4	0.00e+00	0	44	0	3715104768	51	4126
2026-01-12 14:56:30.36	325.00	27.24	-40.7	-41.7	20.4	0.00e+00	0	44	0	3723493376	51	4120
2026-01-12 14:56:31.22	325.12	27.11	-40.7	-41.7	20.3	0.00e+00	0	44	0	3729784832	51	4121
2026-01-12 14:56:32.36	325.27	26.93	-40.5	-41.4	20.7	0.00e+00	0	44	0	3737124864	51	3973
2026-01-12 14:56:33.38	325.41	26.77	-40.5	-41.5	20.6	0.00e+00	0	44	0	3745513472	51	4022
2026-01-12 14:56:34.38	325.54	26.62	-40.6	-41.5	20.5	0.00e+00	0	44	0	3752853504	51	4044
2026-01-12 14:56:35.38	325.67	26.47	-40.5	-41.4	20.6	0.00e+00	0	44	0	3759144960	51	4001
2026-01-12 14:56:36.38	325.80	26.32	-40.6	-41.6	20.5	0.00e+00	0	44	0	3766484992	51	4059
2026-01-12 14:56:37.37	325.92	26.17	-40.6	-41.6	20.5	0.00e+00	0	44	0	3773825024	51	4062
2026-01-12 14:56:38.37	326.05	26.02	-40.7	-41.7	20.4	0.00e+00	0	44	0	3781165056	51	4107
2026-01-12 14:56:39.36	326.18	25.87	-40.7	-41.6	20.4	0.00e+00	0	44	0	3788505088	51	4098
2026-01-12 14:56:40.36	326.30	25.72	-40.7	-41.7	20.4	0.00e+00	0	44	0	3795845120	51	4118
2026-01-12 14:56:41.35	326.42	25.57	-40.7	-41.7	20.4	0.00e+00	0	44	0	3802136576	51	4102
2026-01-12 14:56:42.35	326.54	25.42	-40.7	-41.7	20.4	0.00e+00	0	44	0	3809476608	51	4108
2026-01-12 14:56:43.34	326.66	25.28	-40.7	-41.7	20.4	0.00e+00	0	44	0	3816816640	51	4116
2026-01-12 14:56:44.37	326.79	25.13	-40.7	-41.7	20.4	0.00e+00	0	44	0	3824156672	51	4105
2026-01-12 14:56:45.37	326.91	24.98	-40.8	-41.8	20.3	0.00e+00	0	44	0	3831496704	51	4150
2026-01-12 14:56:46.36	327.02	24.84	-40.8	-41.7	20.3	0.00e+00	0	44	0	3838836736	51	4131
2026-01-12 14:56:47.42	327.15	24.69	-40.7	-41.7	20.3	0.00e+00	0	44	0	3846176768	51	4129
2026-01-12 14:56:48.35	327.26	24.55	-40.8	-41.8	20.3	0.00e+00	0	44	0	3853516800	51	4151
2026-01-12 14:56:49.34	327.37	24.41	-40.7	-41.7	20.3	0.00e+00	0	44	0	3860856832	51	4140
2026-01-12 14:56:50.34	327.48	24.27	-40.8	-41.8	20.3	0.00e+00	0	44	0	3867148288	51	4163
2026-01-12 14:56:51.33	327.59	24.13	-40.9	-42.0	20.1	0.00e+00	0	44	0	3874488320	51	4244
2026-01-12 14:56:52.33	327.71	23.99	-40.8	-41.9	20.1	0.00e+00	0	44	0	3881828352	51	4201
2026-01-12 14:56:53.32	327.82	23.85	-40.9	-41.9	20.2	0.00e+00	0	44	0	3889168384	51	4224
2026-01-12 14:56:54.32	327.93	23.71	-40.8	-41.8	20.2	0.00e+00	0	44	0	3896508416	51	4171
2026-01-12 14:56:55.31	328.03	23.57	-40.9	-41.8	20.2	0.00e+00	0	44	0	3902799872	51	4191
2026-01-12 14:56:56.31	328.14	23.44	-40.8	-41.8	20.3	0.00e+00	0	44	0	3910139904	51	4147
2026-01-12 14:56:57.30	328.25	23.30	-40.9	-41.9	20.2	0.00e+00	0	44	0	3917479936	51	4216
2026-01-12 14:56:58.30	328.36	23.16	-40.8	-41.8	20.2	0.00e+00	0	44	0	3924819968	51	4165
2026-01-12 14:56:59.29	328.46	23.03	-40.8	-41.8	20.3	0.00e+00	0	44	0	3932160000	51	4161
2026-01-12 14:57:00.28	328.56	22.89	-40.8	-41.8	20.3	0.00e+00	0	44	0	3939500032	51	4154
2026-01-12 14:57:01.28	328.67	22.76	-40.9	-41.8	20.2	0.00e+00	0	44	0	3946840064	51	4188
2026-01-12 14:57:02.27	328.77	22.63	-40.9	-41.9	20.2	0.00e+00	0	44	0	3954180096	51	4214
2026-01-12 14:57:03.27	328.87	22.49	-40.9	-41.9	20.1	0.00e+00	0	44	0	3960471552	51	4218
2026-01-12 14:57:04.26	328.97	22.36	-41.0	-42.0	20.1	0.00e+00	0	44	0	3967811584	51	4265
2026-01-12 14:57:05.26	329.07	22.23	-41.1	-42.1	20.0	0.00e+00	0	44	0	3975151616	51	4301
2026-01-12 14:57:06.25	329.17	22.10	-41.2	-42.2	19.9	0.00e+00	0	44	0	3982491648	51	4348
2026-01-12 14:57:07.25	329.27	21.96	-41.1	-42.1	19.9	0.00e+00	0	44	0	3989831680	51	4337
2026-01-12 14:57:08.24	329.37	21.84	-41.1	-42.2	19.9	0.00e+00	0	44	0	3997171712	51	4350
2026-01-12 14:57:09.24	329.46	21.70	-41.2	-42.2	19.8	0.00e+00	0	44	0	4004511744	51	4383
2026-01-12 14:57:10.50	329.58	21.54	-41.2	-42.3	19.7	0.00e+00	0	44	0	4012900352	52	4151
2026-01-12 14:57:11.30	329.66	21.44	-41.1	-42.2	19.8	0.00e+00	0	44	0	4019191808	52	4110
2026-01-12 14:57:12.44	329.77	21.29	-41.3	-42.3	19.7	0.00e+00	0	44	0	4027580416	52	4166
2026-01-12 14:57:13.29	329.85	21.18	-41.3	-42.4	19.6	0.00e+00	0	44	0	4032823296	52	4202
2026-01-12 14:57:14.43	329.96	21.04	-41.2	-42.3	19.7	0.00e+00	0	44	0	4041211904	52	4153
2026-01-12 14:57:15.29	330.04	20.93	-41.3	-42.3	19.7	0.00e+00	0	44	0	4047503360	52	4176
2026-01-12 14:57:16.42	330.14	20.79	-41.3	-42.4	19.6	0.00e+00	0	44	0	4055891968	52	4195
2026-01-12 14:57:17.28	330.22	20.68	-41.4	-42.4	19.6	0.00e+00	0	44	0	4062183424	52	4236
2026-01-12 14:57:18.41	330.32	20.54	-41.4	-42.4	19.6	0.00e+00	0	44	0	4070572032	52	4228
2026-01-12 14:57:19.27	330.40	20.43	-41.4	-42.4	19.6	0.00e+00	0	44	0	4075814912	52	4227
2026-01-12 14:57:20.40	330.50	20.29	-41.4	-42.5	19.5	0.00e+00	0	44	0	4084203520	52	4247
2026-01-12 14:57:21.25	330.57	20.19	-41.5	-42.5	19.5	0.00e+00	0	44	0	4090494976	52	4253
2026-01-12 14:57:22.50	330.68	20.03	-41.5	-42.6	19.5	0.00e+00	0	44	0	4099932160	52	4304
2026-01-12 14:57:23.35	330.76	19.93	-41.5	-42.5	19.5	0.00e+00	0	44	0	4106223616	52	4256
2026-01-12 14:57:24.49	330.85	19.79	-41.4	-42.5	19.5	0.00e+00	0	44	0	4113563648	52	4246
2026-01-12 14:57:25.34	330.93	19.69	-41.4	-42.4	19.5	0.00e+00	0	44	0	4119855104	52	4242
2026-01-12 14:57:26.48	331.02	19.55	-41.5	-42.5	19.5	0.00e+00	0	44	0	4128243712	52	4257
2026-01-12 14:57:27.33	331.10	19.45	-41.4	-42.4	19.6	0.00e+00	0	44	0	4134535168	52	4212
2026-01-12 14:57:28.68	331.21	19.29	-41.5	-42.5	19.5	0.00e+00	0	44	0	4143972352	52	4268
2026-01-12 14:57:29.39	331.27	19.20	-41.4	-42.4	19.5	0.00e+00	0	44	0	4149215232	52	4241
2026-01-12 14:57:30.67	331.37	19.05	-41.4	-42.4	19.5	0.00e+00	0	44	0	4158652416	52	4233
2026-01-12 14:57:31.38	331.43	18.97	-41.4	-42.4	19.6	0.00e+00	0	44	0	4163895296	52	4223
2026-01-12 14:57:32.66	331.54	18.82	-41.4	-42.5	19.5	0.00e+00	0	44	0	4173332480	52	4250
2026-01-12 14:57:33.38	331.59	18.73	-41.4	-42.4	19.6	0.00e+00	0	44	0	4178575360	52	4228
2026-01-12 14:57:34.66	331.70	18.58	-41.5	-42.5	19.5	0.00e+00	0	44	0	4186963968	52	4289
2026-01-12 14:57:35.38	331.75	18.50	-41.5	-42.5	19.5	0.00e+00	0	44	0	4193255424	52	4266
2026-01-12 14:57:36.66	331.86	18.35	-41.5	-42.6	19.4	0.00e+00	0	44	0	4201644032	52	4323
2026-01-12 14:57:37.50	331.92	18.26	-41.5	-42.5	19.4	0.00e+00	0	44	0	4207935488	52	4286
2026-01-12 14:57:38.64	332.01	18.13	-41.6	-42.6	19.3	0.00e+00	0	44	0	4216324096	52	4329
2026-01-12 14:57:39.65	332.09	18.01	-41.6	-42.7	19.3	0.00e+00	0	44	0	4223664128	52	4358
2026-01-12 14:57:40.65	332.17	17.90	-41.6	-42.7	19.3	0.00e+00	0	44	0	4231004160	52	4358
2026-01-12 14:57:41.64	332.24	17.79	-41.6	-42.7	19.3	0.00e+00	0	44	0	4238344192	52	4356
2026-01-12 14:57:42.64	332.32	17.67	-41.6	-42.7	19.2	0.00e+00	0	44	0	4244635648	52	4360
2026-01-12 14:57:43.90	332.41	17.53	-41.8	-42.8	19.2	0.00e+00	0	44	0	4254072832	52	4418
2026-01-12 14:57:44.72	332.47	17.44	-41.7	-42.8	19.2	0.00e+00	0	44	0	4260364288	53	4164
2026-01-12 14:57:46.10	332.57	17.29	-41.8	-42.8	19.1	0.00e+00	0	44	0	4269801472	53	4183
2026-01-12 14:57:46.81	332.63	17.21	-41.8	-42.8	19.1	0.00e+00	0	44	0	4275044352	53	4192
2026-01-12 14:57:48.08	332.72	17.07	-41.8	-42.9	19.1	0.00e+00	0	44	0	4284481536	53	4226
2026-01-12 14:57:48.81	332.77	16.99	-41.8	-42.9	19.1	0.00e+00	0	44	0	4289724416	53	4217
2026-01-12 14:57:50.09	332.86	16.85	-41.9	-43.0	19.0	0.00e+00	0	44	0	4299161600	53	4275
2026-01-12 14:57:50.83	332.92	16.77	-41.9	-43.0	19.0	0.00e+00	0	44	0	4304404480	53	4266
2026-01-12 14:57:52.11	333.01	16.63	-41.9	-43.0	18.9	0.00e+00	0	44	0	4313841664	53	4289
2026-01-12 14:57:52.85	333.06	16.55	-41.9	-43.0	18.9	0.00e+00	0	44	0	4319084544	53	4285
2026-01-12 14:57:54.13	333.15	16.41	-42.0	-43.1	18.9	0.00e+00	0	44	0	4328521728	53	4315
2026-01-12 14:57:54.85	333.20	16.34	-42.0	-43.2	18.8	0.00e+00	0	44	0	4332716032	53	4346
2026-01-12 14:57:56.13	333.29	16.20	-42.1	-43.2	18.8	0.00e+00	0	44	0	4342153216	53	4387
2026-01-12 14:57:56.84	333.34	16.13	-42.1	-43.2	18.8	0.00e+00	0	44	0	4347396096	53	4364
2026-01-12 14:57:58.12	333.42	15.99	-42.2	-43.3	18.7	0.00e+00	0	44	0	4356833280	53	4395
2026-01-12 14:57:59.11	333.49	15.89	-42.1	-43.2	18.8	0.00e+00	0	44	0	4364173312	53	4367
2026-01-12 14:58:00.36	333.57	15.76	-42.1	-43.2	18.8	0.00e+00	0	44	0	4372561920	53	4355
2026-01-12 14:58:01.24	333.63	15.66	-42.2	-43.3	18.7	0.00e+00	0	44	0	4378853376	53	4405
2026-01-12 14:58:02.38	333.71	15.55	-42.2	-43.3	18.7	0.00e+00	0	44	0	4387241984	54	4165
2026-01-12 14:58:03.29	333.77	15.45	-42.2	-43.3	18.6	0.00e+00	0	44	0	4394582016	54	4179
2026-01-12 14:58:04.46	333.85	15.33	-42.3	-43.4	18.6	0.00e+00	0	44	0	4402970624	54	4233
2026-01-12 14:58:05.35	333.90	15.24	-42.3	-43.4	18.6	0.00e+00	0	44	0	4409262080	54	4209
2026-01-12 14:58:06.48	333.98	15.12	-42.3	-43.4	18.5	0.00e+00	0	44	0	4417650688	54	4240
2026-01-12 14:58:07.33	334.03	15.04	-42.2	-43.4	18.6	0.00e+00	0	44	0	4422893568	54	4198
2026-01-12 14:58:08.47	334.10	14.92	-42.2	-43.4	18.6	0.00e+00	0	44	0	4431282176	54	4194
2026-01-12 14:58:09.33	334.16	14.84	-42.3	-43.5	18.5	0.00e+00	0	44	0	4437573632	54	4243
2026-01-12 14:58:10.46	334.23	14.72	-42.3	-43.4	18.6	0.00e+00	0	44	0	4445962240	54	4222
2026-01-12 14:58:11.32	334.28	14.64	-42.3	-43.4	18.5	0.00e+00	0	44	0	4452253696	54	4225
2026-01-12 14:58:12.45	334.35	14.52	-42.3	-43.4	18.5	0.00e+00	0	44	0	4460642304	54	4236
2026-01-12 14:58:13.31	334.41	14.44	-42.4	-43.5	18.5	0.00e+00	0	44	0	4465885184	54	4254
2026-01-12 14:58:14.44	334.48	14.33	-42.3	-43.4	18.5	0.00e+00	0	44	0	4474273792	54	4237
2026-01-12 14:58:15.30	334.53	14.24	-42.3	-43.4	18.5	0.00e+00	0	44	0	4480565248	54	4227
2026-01-12 14:58:16.43	334.60	14.13	-42.4	-43.5	18.5	0.00e+00	0	44	0	4488953856	54	4270
2026-01-12 14:58:17.29	334.65	14.05	-42.5	-43.6	18.3	0.00e+00	0	44	0	4495245312	54	4329
2026-01-12 14:58:18.52	334.72	13.93	-42.5	-43.6	18.3	0.00e+00	0	44	0	4504682496	54	4332
2026-01-12 14:58:19.37	334.77	13.84	-42.5	-43.6	18.3	0.00e+00	0	44	0	4509925376	54	4329
2026-01-12 14:58:20.51	334.84	13.73	-42.6	-43.8	18.2	0.00e+00	0	44	0	4518313984	54	4399
2026-01-12 14:58:21.36	334.89	13.65	-42.6	-43.8	18.2	0.00e+00	0	44	0	4524605440	54	4401
2026-01-12 14:58:22.50	334.96	13.54	-42.6	-43.8	18.2	0.00e+00	0	44	0	4532994048	54	4414
2026-01-12 14:58:23.40	335.01	13.46	-42.7	-43.9	18.1	0.00e+00	0	44	0	4539285504	54	4445
2026-01-12 14:58:24.50	335.07	13.35	-42.7	-43.9	18.0	0.00e+00	0	44	0	4547674112	55	4241
2026-01-12 14:58:25.36	335.12	13.27	-42.7	-43.9	18.0	0.00e+00	0	44	0	4552916992	55	4231
2026-01-12 14:58:26.49	335.19	13.16	-42.8	-44.1	17.9	0.00e+00	0	44	0	4561305600	55	4293
2026-01-12 14:58:27.35	335.23	13.08	-42.9	-44.1	17.9	0.00e+00	0	44	0	4567597056	55	4306
2026-01-12 14:58:28.48	335.30	12.97	-42.9	-44.2	17.8	0.00e+00	0	44	0	4575985664	55	4344
2026-01-12 14:58:29.34	335.35	12.89	-42.9	-44.1	17.8	0.00e+00	0	44	0	4582277120	55	4339
2026-01-12 14:58:30.48	335.41	12.79	-42.9	-44.2	17.8	0.00e+00	0	44	0	4590665728	55	4351
2026-01-12 14:58:31.33	335.46	12.71	-43.0	-44.3	17.7	0.00e+00	0	44	0	4596957184	55	4396
2026-01-12 14:58:32.47	335.52	12.60	-43.0	-44.3	17.7	0.00e+00	0	44	0	4604297216	55	4398
2026-01-12 14:58:33.32	335.57	12.53	-43.1	-44.3	17.6	0.00e+00	0	44	0	4610588672	55	4418
2026-01-12 14:58:34.50	335.63	12.42	-43.1	-44.4	17.6	0.00e+00	0	44	0	4618977280	55	4460
2026-01-12 14:58:35.36	335.68	12.34	-43.1	-44.3	17.6	0.00e+00	0	44	0	4625268736	55	4432
2026-01-12 14:58:36.49	335.74	12.23	-43.1	-44.4	17.5	0.00e+00	0	44	0	4633657344	55	4460
2026-01-12 14:58:37.35	335.78	12.16	-43.2	-44.5	17.4	0.00e+00	0	44	0	4639948800	55	4534
2026-01-12 14:58:38.49	335.85	12.05	-43.2	-44.5	17.4	0.00e+00	0	44	0	4648337408	55	4513
2026-01-12 14:58:39.34	335.89	11.98	-43.2	-44.5	17.4	0.00e+00	0	44	0	4654628864	55	4535
2026-01-12 14:58:40.68	335.96	11.86	-43.1	-44.4	17.5	0.00e+00	0	44	0	4664066048	55	4477
2026-01-12 14:58:41.39	336.00	11.79	-43.2	-44.6	17.3	0.00e+00	0	44	0	4669308928	55	4563
2026-01-12 14:58:42.67	336.06	11.68	-43.2	-44.6	17.3	0.00e+00	0	44	0	4678746112	55	4583
2026-01-12 14:58:43.38	336.10	11.61	-43.4	-44.8	17.3	0.00e+00	0	44	0	4683988992	56	4420
2026-01-12 14:58:44.66	336.17	11.50	-43.4	-44.8	17.3	0.00e+00	0	44	0	4692377600	56	4428
