passes_logs/2026/01/12/T1/T1__20260112_031632_FENGYUN_3E_rec.log

#Pass ID: 20260112_031632_FENGYUN 3E
#Satellite: FENGYUN 3E
#Configuration: FENGYUN 3E
#almurnet v.1.7.20251203
#Start time: 2026-01-12 03:16:33

#Version: 2.0.20230620
#Station: T1
#Location: 37.570604 lon 55.790049 lat
#TLE: 1 49008U 21062A   26011.27090272  .00000463  00000+0  23869-3 0  9994
#TLE: 2 49008  98.7490  16.4432 0001856 145.0812 215.0487 14.19886022234312

#Time	Az	El	Level	Level2	SNR	BER	BlckErr	Temp	State	Recorded	gain1	gain2
2026-01-12 03:16:33.71	21.47	5.07	-50.5	-61.3	3.8	8.47e-01	0	36	0	0	70	13165
2026-01-12 03:16:34.70	21.51	5.13	-50.4	-61.3	3.8	8.47e-01	0	37	104	0	71	12391
2026-01-12 03:16:35.70	21.55	5.20	-50.4	-61.3	3.8	8.47e-01	0	37	104	0	71	12394
2026-01-12 03:16:36.69	21.59	5.27	-50.4	-61.2	3.8	8.47e-01	0	37	104	0	71	12270
2026-01-12 03:16:37.68	21.63	5.34	-50.4	-61.2	3.8	8.46e-01	0	37	104	0	71	12320
2026-01-12 03:16:38.67	21.68	5.41	-50.4	-61.2	3.8	8.46e-01	0	37	104	0	71	12240
2026-01-12 03:16:39.67	21.72	5.48	-50.4	-61.2	3.8	8.48e-01	0	37	104	0	71	12256
2026-01-12 03:16:40.66	21.76	5.55	-50.4	-61.2	3.8	8.47e-01	0	37	104	0	71	12258
2026-01-12 03:16:41.65	21.80	5.62	-50.4	-61.1	3.8	8.48e-01	0	37	104	0	71	12204
2026-01-12 03:16:42.65	21.85	5.69	-50.4	-61.1	3.8	8.47e-01	0	37	104	0	71	12192
2026-01-12 03:16:43.64	21.89	5.75	-50.4	-61.1	3.8	8.48e-01	0	37	104	0	71	12191
2026-01-12 03:16:44.63	21.94	5.82	-50.4	-61.1	3.8	8.46e-01	0	37	104	0	71	12177
2026-01-12 03:16:45.63	21.98	5.89	-50.4	-61.1	3.8	8.47e-01	0	37	104	0	71	12212
2026-01-12 03:16:46.62	22.02	5.96	-50.4	-61.1	3.8	8.46e-01	0	38	104	0	71	12174
2026-01-12 03:16:47.62	22.07	6.04	-50.4	-61.1	3.8	8.46e-01	0	38	104	0	71	12190
2026-01-12 03:16:48.61	22.11	6.11	-50.4	-61.1	3.8	8.47e-01	0	38	104	0	71	12102
2026-01-12 03:16:49.60	22.16	6.18	-50.4	-61.0	3.8	8.46e-01	0	38	104	0	71	12046
2026-01-12 03:16:50.60	22.20	6.25	-50.4	-61.0	3.8	8.47e-01	0	38	104	0	71	12046
2026-01-12 03:16:51.59	22.25	6.32	-50.4	-60.9	3.8	8.45e-01	0	38	104	0	71	11952
2026-01-12 03:16:52.58	22.29	6.39	-50.4	-61.0	3.8	8.48e-01	0	38	104	0	71	11986
2026-01-12 03:16:53.58	22.34	6.46	-50.4	-61.0	3.8	8.48e-01	0	38	104	0	71	12020
2026-01-12 03:16:54.57	22.38	6.53	-50.3	-61.0	3.8	8.47e-01	0	38	104	0	71	12059
2026-01-12 03:16:55.56	22.43	6.60	-50.4	-61.1	3.8	8.47e-01	0	38	104	0	71	12213
2026-01-12 03:16:56.56	22.47	6.68	-50.4	-61.2	3.8	8.47e-01	0	38	104	0	71	12268
2026-01-12 03:16:57.55	22.52	6.75	-50.4	-61.2	3.8	8.46e-01	0	38	104	0	71	12365
2026-01-12 03:16:58.55	22.57	6.82	-50.4	-61.2	3.8	8.47e-01	0	38	104	0	71	12263
2026-01-12 03:16:59.54	22.61	6.89	-50.3	-61.0	3.8	8.47e-01	0	38	104	0	71	12063
2026-01-12 03:17:00.53	22.66	6.97	-50.3	-60.8	3.8	8.47e-01	0	38	104	0	71	11687
2026-01-12 03:17:01.53	22.71	7.04	-50.3	-60.3	3.8	8.46e-01	0	38	104	0	71	11138
2026-01-12 03:17:02.52	22.76	7.11	-50.2	-60.0	3.8	8.46e-01	0	38	104	0	71	10665
2026-01-12 03:17:03.51	22.80	7.19	-50.2	-59.5	3.8	8.47e-01	0	38	104	0	71	10119
2026-01-12 03:17:04.50	22.85	7.26	-50.1	-59.1	3.9	8.45e-01	0	38	104	0	71	9660
2026-01-12 03:17:05.50	22.90	7.33	-50.0	-58.6	4.0	8.44e-01	0	38	104	0	70	9637
2026-01-12 03:17:06.49	22.95	7.41	-50.0	-58.7	4.0	8.44e-01	0	38	104	0	70	9765
2026-01-12 03:17:07.48	22.99	7.48	-50.0	-58.6	4.0	8.44e-01	0	38	104	0	70	9658
2026-01-12 03:17:08.48	23.04	7.56	-50.0	-58.6	3.8	8.42e-01	0	38	104	0	70	9630
2026-01-12 03:17:09.47	23.09	7.63	-50.0	-58.5	3.8	8.44e-01	0	38	104	0	70	9549
2026-01-12 03:17:10.46	23.14	7.70	-50.0	-58.5	4.0	8.46e-01	0	38	104	0	70	9508
2026-01-12 03:17:11.46	23.19	7.78	-50.0	-58.2	4.1	8.43e-01	0	38	0	0	70	9262
2026-01-12 03:17:12.45	23.24	7.85	-49.9	-57.9	4.2	8.40e-01	0	39	0	0	70	8963
2026-01-12 03:17:13.44	23.29	7.93	-49.9	-57.7	4.2	8.38e-01	0	38	0	0	70	8675
2026-01-12 03:17:14.44	23.34	8.01	-49.8	-57.3	4.3	8.35e-01	0	38	0	0	70	8345
2026-01-12 03:17:15.43	23.39	8.08	-49.8	-57.3	4.3	8.32e-01	0	39	0	0	70	8363
2026-01-12 03:17:16.42	23.44	8.16	-49.9	-57.5	4.3	8.33e-01	0	39	0	0	70	8486
2026-01-12 03:17:17.42	23.49	8.23	-49.8	-57.3	4.3	8.35e-01	0	39	0	0	70	8320
2026-01-12 03:17:18.41	23.54	8.31	-49.9	-57.6	4.2	8.35e-01	0	39	0	0	70	8581
2026-01-12 03:17:19.40	23.59	8.39	-49.9	-57.6	4.2	8.38e-01	0	38	0	0	70	8642
2026-01-12 03:17:20.40	23.65	8.46	-49.9	-57.9	4.1	8.39e-01	0	39	0	0	70	8875
2026-01-12 03:17:21.39	23.70	8.54	-49.9	-57.7	4.2	8.41e-01	0	39	0	0	70	8712
2026-01-12 03:17:22.36	23.75	8.62	-49.8	-57.5	4.2	8.36e-01	0	39	0	0	70	8544
2026-01-12 03:17:23.36	23.80	8.69	-49.7	-57.0	4.4	8.29e-01	0	39	0	0	70	8003
2026-01-12 03:17:24.35	23.85	8.77	-49.6	-56.6	4.6	8.18e-01	0	39	0	0	70	7653
2026-01-12 03:17:25.35	23.91	8.85	-49.6	-56.4	4.7	8.11e-01	0	39	0	0	70	7476
2026-01-12 03:17:26.34	23.96	8.93	-49.4	-55.6	5.0	7.96e-01	0	39	0	0	69	7285
2026-01-12 03:17:27.33	24.01	9.01	-49.5	-56.1	4.8	7.94e-01	0	39	0	0	69	7637
2026-01-12 03:17:28.33	24.07	9.08	-49.6	-56.5	4.6	7.92e-01	0	39	0	0	69	8028
2026-01-12 03:17:29.32	24.12	9.16	-49.9	-58.3	4.1	8.46e-01	0	39	104	0	69	9919
2026-01-12 03:17:30.31	24.17	9.24	-49.6	-56.9	4.4	8.30e-01	0	39	0	0	69	8458
2026-01-12 03:17:31.31	24.23	9.32	-49.5	-56.1	4.8	7.17e-01	0	39	0	0	69	7645
2026-01-12 03:17:32.30	24.28	9.40	-49.6	-56.6	4.6	8.08e-01	0	39	0	0	69	8124
2026-01-12 03:17:33.31	24.34	9.48	-44.4	-46.2	13.9	3.40e-06	0	39	0	5242880	59	4355
2026-01-12 03:17:34.34	24.39	9.57	-44.5	-46.3	13.7	4.50e-06	0	39	0	12582912	59	4440
2026-01-12 03:17:35.36	24.45	9.65	-43.0	-44.5	15.6	0.00e+00	0	39	0	19922944	56	4261
2026-01-12 03:17:36.36	24.51	9.73	-42.2	-43.5	16.4	0.00e+00	0	39	0	27262976	54	4281
2026-01-12 03:17:37.35	24.56	9.81	-42.0	-43.3	16.6	0.00e+00	0	39	0	34603008	54	4170
2026-01-12 03:17:38.41	24.62	9.90	-41.9	-43.2	16.8	0.00e+00	0	39	0	41943040	54	4101
2026-01-12 03:17:39.29	24.67	9.97	-41.9	-43.2	16.7	0.00e+00	0	39	0	48234496	54	4106
2026-01-12 03:17:40.59	24.75	10.07	-41.8	-43.1	16.8	0.00e+00	0	39	0	57671680	54	4057
2026-01-12 03:17:41.30	24.79	10.13	-41.7	-43.0	16.9	0.00e+00	0	39	0	62914560	54	4024
2026-01-12 03:17:42.58	24.86	10.24	-41.5	-42.8	17.0	0.00e+00	0	39	0	72351744	53	4171
2026-01-12 03:17:43.29	24.90	10.30	-41.6	-42.9	16.9	0.00e+00	0	39	0	77594624	53	4231
2026-01-12 03:17:44.58	24.98	10.40	-41.5	-42.8	17.0	0.00e+00	0	39	0	85983232	53	4186
2026-01-12 03:17:45.30	25.02	10.46	-41.5	-42.8	17.1	0.00e+00	0	39	0	92274688	53	4155
2026-01-12 03:17:46.58	25.10	10.57	-41.3	-42.6	17.3	0.00e+00	0	39	0	100663296	53	4069
2026-01-12 03:17:47.29	25.14	10.63	-41.1	-42.4	17.5	0.00e+00	0	39	0	105906176	53	3980
2026-01-12 03:17:48.57	25.22	10.74	-41.3	-42.6	17.3	0.00e+00	0	39	0	115343360	53	4086
2026-01-12 03:17:49.47	25.27	10.81	-41.3	-42.6	17.3	0.00e+00	0	39	0	121634816	53	4062
2026-01-12 03:17:50.59	25.34	10.91	-41.3	-42.6	17.3	0.00e+00	0	39	0	130023424	53	4063
2026-01-12 03:17:51.44	25.39	10.98	-41.3	-42.6	17.3	0.00e+00	0	39	0	136314880	53	4077
2026-01-12 03:17:52.58	25.46	11.08	-41.0	-42.2	17.7	0.00e+00	0	39	0	144703488	52	4115
2026-01-12 03:17:53.70	25.53	11.18	-41.2	-42.4	17.5	0.00e+00	0	39	0	152043520	52	4242
2026-01-12 03:17:54.55	25.58	11.25	-41.2	-42.4	17.5	0.00e+00	0	39	0	158334976	52	4232
2026-01-12 03:17:55.69	25.65	11.35	-41.0	-42.3	17.7	0.00e+00	0	39	0	166723584	52	4152
2026-01-12 03:17:56.78	25.72	11.44	-41.1	-42.4	17.6	0.00e+00	0	39	0	174063616	52	4209
2026-01-12 03:17:57.80	25.78	11.53	-41.1	-42.3	17.6	0.00e+00	0	39	0	182452224	52	4157
2026-01-12 03:17:58.80	25.85	11.62	-41.0	-42.2	17.7	0.00e+00	0	39	0	188743680	52	4126
2026-01-12 03:17:59.79	25.91	11.70	-41.0	-42.2	17.7	0.00e+00	0	39	0	196083712	52	4117
2026-01-12 03:18:00.79	25.97	11.79	-41.0	-42.2	17.7	0.00e+00	0	39	0	203423744	52	4134
2026-01-12 03:18:01.78	26.04	11.88	-40.8	-42.0	17.9	0.00e+00	0	39	0	210763776	52	4041
2026-01-12 03:18:02.77	26.10	11.96	-41.0	-42.2	17.7	0.00e+00	0	39	0	218103808	52	4136
2026-01-12 03:18:03.77	26.17	12.05	-40.8	-42.0	18.0	0.00e+00	0	39	0	225443840	52	4016
2026-01-12 03:18:04.76	26.23	12.14	-40.7	-41.9	18.1	0.00e+00	0	39	0	232783872	52	3967
2026-01-12 03:18:05.76	26.30	12.23	-40.8	-41.9	18.1	0.00e+00	0	39	0	239075328	52	3982
2026-01-12 03:18:06.82	26.37	12.32	-40.8	-41.9	18.0	0.00e+00	0	39	0	247463936	52	4003
2026-01-12 03:18:07.73	26.43	12.41	-40.7	-41.8	18.1	0.00e+00	0	39	0	253755392	52	3957
2026-01-12 03:18:08.86	26.50	12.51	-40.8	-41.9	18.1	0.00e+00	0	40	0	262144000	51	4239
2026-01-12 03:18:09.72	26.56	12.58	-40.7	-41.8	18.2	0.00e+00	0	40	0	268435456	51	4170
2026-01-12 03:18:11.05	26.65	12.70	-40.7	-41.9	18.1	0.00e+00	0	40	0	277872640	51	4198
2026-01-12 03:18:11.76	26.70	12.77	-40.5	-41.6	18.3	0.00e+00	0	39	0	283115520	51	4096
2026-01-12 03:18:13.24	26.80	12.90	-40.5	-41.6	18.4	0.00e+00	0	39	0	293601280	51	4075
2026-01-12 03:18:13.95	26.85	12.97	-40.5	-41.6	18.3	0.00e+00	0	39	0	298844160	51	4085
2026-01-12 03:18:15.23	26.94	13.09	-40.6	-41.7	18.3	0.00e+00	0	40	0	307232768	51	4138
2026-01-12 03:18:15.94	26.99	13.15	-40.6	-41.7	18.3	0.00e+00	0	40	0	312475648	51	4124
2026-01-12 03:18:17.22	27.08	13.27	-40.5	-41.6	18.4	0.00e+00	0	40	0	321912832	51	4074
2026-01-12 03:18:17.93	27.13	13.34	-40.5	-41.6	18.5	0.00e+00	0	39	0	327155712	51	4065
2026-01-12 03:18:19.21	27.22	13.46	-40.6	-41.8	18.3	0.00e+00	0	40	0	336592896	51	4147
2026-01-12 03:18:19.94	27.27	13.52	-40.5	-41.6	18.5	0.00e+00	0	40	0	341835776	51	4084
2026-01-12 03:18:21.21	27.36	13.64	-40.4	-41.5	18.6	0.00e+00	0	40	0	351272960	51	4034
2026-01-12 03:18:22.00	27.42	13.72	-40.3	-41.5	18.7	0.00e+00	0	40	0	356515840	51	4006
2026-01-12 03:18:23.20	27.50	13.83	-40.3	-41.5	18.6	0.00e+00	0	39	0	365953024	51	4019
2026-01-12 03:18:24.17	27.58	13.92	-40.2	-41.4	18.7	0.00e+00	0	39	0	372244480	51	3968
2026-01-12 03:18:25.34	27.66	14.03	-40.3	-41.5	18.6	0.00e+00	0	40	0	380633088	51	4025
2026-01-12 03:18:26.19	27.72	14.11	-40.3	-41.4	18.6	0.00e+00	0	40	0	386924544	51	3996
2026-01-12 03:18:27.56	27.83	14.25	-40.3	-41.5	18.6	0.00e+00	0	40	0	396361728	51	4006
2026-01-12 03:18:28.28	27.88	14.32	-40.3	-41.5	18.6	0.00e+00	0	40	0	401604608	51	4032
2026-01-12 03:18:29.56	27.98	14.44	-40.4	-41.6	18.5	0.00e+00	0	40	0	411041792	50	4325
2026-01-12 03:18:30.27	28.03	14.51	-40.3	-41.5	18.7	0.00e+00	0	40	0	416284672	50	4244
2026-01-12 03:18:31.55	28.13	14.63	-40.4	-41.6	18.5	0.00e+00	0	39	0	425721856	50	4315
2026-01-12 03:18:32.26	28.18	14.70	-40.3	-41.5	18.6	0.00e+00	0	40	0	430964736	50	4272
2026-01-12 03:18:33.54	28.28	14.83	-40.3	-41.5	18.6	0.00e+00	0	40	0	439353344	50	4280
2026-01-12 03:18:34.26	28.34	14.90	-40.3	-41.5	18.7	0.00e+00	0	39	0	445644800	50	4260
2026-01-12 03:18:35.54	28.44	15.02	-40.4	-41.6	18.5	0.00e+00	0	40	0	454033408	50	4331
2026-01-12 03:18:36.27	28.50	15.10	-40.4	-41.6	18.6	0.00e+00	0	40	0	459276288	50	4300
2026-01-12 03:18:37.55	28.60	15.22	-40.6	-41.7	18.4	0.00e+00	0	40	0	468713472	50	4381
2026-01-12 03:18:38.26	28.65	15.29	-40.5	-41.7	18.5	0.00e+00	0	40	0	473956352	50	4354
2026-01-12 03:18:39.54	28.76	15.42	-40.5	-41.6	18.5	0.00e+00	0	40	0	483393536	50	4313
2026-01-12 03:18:40.26	28.82	15.49	-40.4	-41.5	18.6	0.00e+00	0	40	0	488636416	50	4283
2026-01-12 03:18:41.54	28.92	15.62	-40.3	-41.4	18.7	0.00e+00	0	40	0	498073600	50	4229
2026-01-12 03:18:42.25	28.98	15.69	-40.3	-41.4	18.8	0.00e+00	0	40	0	503316480	50	4210
2026-01-12 03:18:43.70	29.10	15.84	-40.2	-41.3	18.9	0.00e+00	0	40	0	513802240	50	4155
2026-01-12 03:18:44.42	29.16	15.92	-40.2	-41.2	18.9	0.00e+00	0	40	0	517996544	50	4144
2026-01-12 03:18:45.70	29.26	16.05	-40.2	-41.3	18.9	0.00e+00	0	40	0	527433728	50	4172
2026-01-12 03:18:46.41	29.32	16.12	-40.1	-41.1	19.0	0.00e+00	0	40	0	532676608	50	4094
2026-01-12 03:18:47.69	29.43	16.25	-40.1	-41.1	19.1	0.00e+00	0	40	0	542113792	50	4077
2026-01-12 03:18:48.40	29.49	16.32	-39.9	-40.9	19.2	0.00e+00	0	40	0	547356672	50	3999
2026-01-12 03:18:49.67	29.60	16.46	-39.9	-40.9	19.2	0.00e+00	0	40	0	556793856	50	3987
2026-01-12 03:18:50.39	29.66	16.53	-40.1	-41.2	18.9	0.00e+00	0	40	0	560988160	50	4104
2026-01-12 03:18:51.67	29.77	16.67	-39.8	-40.8	19.3	0.00e+00	0	40	0	570425344	50	3944
2026-01-12 03:18:52.50	29.85	16.75	-39.8	-40.8	19.4	0.00e+00	0	40	0	576716800	50	3933
2026-01-12 03:18:53.64	29.95	16.87	-39.7	-40.7	19.4	0.00e+00	0	40	0	585105408	50	3894
2026-01-12 03:18:54.66	30.04	16.98	-39.6	-40.6	19.5	0.00e+00	0	40	0	592445440	49	4082
2026-01-12 03:18:55.83	30.14	17.11	-39.4	-40.4	19.6	0.00e+00	0	40	0	600834048	49	3996
2026-01-12 03:18:56.70	30.22	17.20	-39.5	-40.5	19.6	0.00e+00	0	40	0	607125504	49	4016
2026-01-12 03:18:58.00	30.34	17.34	-39.5	-40.5	19.6	0.00e+00	0	40	0	616562688	49	4032
2026-01-12 03:18:58.72	30.40	17.41	-39.5	-40.5	19.6	0.00e+00	0	40	0	621805568	49	4033
2026-01-12 03:19:00.00	30.52	17.55	-39.3	-40.3	19.7	0.00e+00	0	40	0	631242752	49	3944
2026-01-12 03:19:00.71	30.59	17.63	-39.6	-40.6	19.5	0.00e+00	0	40	0	636485632	49	4086
2026-01-12 03:19:01.99	30.71	17.77	-39.3	-40.3	19.8	0.00e+00	0	40	0	644874240	49	3930
2026-01-12 03:19:02.72	30.78	17.85	-39.3	-40.3	19.8	0.00e+00	0	40	0	650117120	49	3919
2026-01-12 03:19:03.99	30.90	17.99	-39.3	-40.3	19.9	0.00e+00	0	40	0	659554304	49	3914
2026-01-12 03:19:04.72	30.97	18.07	-39.2	-40.1	19.9	0.00e+00	0	40	0	664797184	49	3868
2026-01-12 03:19:06.00	31.09	18.21	-38.9	-39.9	20.2	0.00e+00	0	40	0	674234368	48	3980
2026-01-12 03:19:06.71	31.16	18.29	-39.1	-40.1	20.0	0.00e+00	0	40	0	679477248	48	4072
2026-01-12 03:19:07.99	31.28	18.43	-39.1	-40.0	20.0	0.00e+00	0	40	0	688914432	48	4035
2026-01-12 03:19:08.71	31.35	18.51	-39.1	-40.0	20.0	0.00e+00	0	40	0	694157312	48	4046
2026-01-12 03:19:09.99	31.48	18.66	-39.0	-40.0	20.1	0.00e+00	0	40	0	702545920	48	4014
2026-01-12 03:19:10.72	31.55	18.74	-39.1	-40.0	20.0	0.00e+00	0	40	0	708837376	48	4048
2026-01-12 03:19:12.13	31.69	18.90	-39.1	-40.0	20.1	0.00e+00	0	40	0	718274560	48	4036
2026-01-12 03:19:12.84	31.76	18.98	-39.0	-40.0	20.1	0.00e+00	0	40	0	723517440	48	4015
2026-01-12 03:19:14.12	31.89	19.12	-39.0	-39.9	20.1	0.00e+00	0	40	0	732954624	48	4000
2026-01-12 03:19:15.17	32.00	19.24	-39.0	-40.0	20.0	0.00e+00	0	40	0	740294656	48	4009
2026-01-12 03:19:16.34	32.12	19.38	-38.9	-39.9	20.1	0.00e+00	0	40	0	748683264	48	3985
2026-01-12 03:19:17.20	32.21	19.48	-39.2	-40.1	19.8	0.00e+00	0	40	0	754974720	48	4091
2026-01-12 03:19:18.68	32.36	19.65	-38.9	-39.9	20.0	0.00e+00	0	40	0	765460480	48	3996
2026-01-12 03:19:19.39	32.44	19.73	-39.1	-40.1	19.8	0.00e+00	0	40	0	770703360	48	4092
2026-01-12 03:19:20.67	32.58	19.88	-39.1	-40.1	19.9	0.00e+00	0	40	0	780140544	48	4070
2026-01-12 03:19:21.38	32.65	19.97	-39.0	-40.0	20.0	0.00e+00	0	40	0	785383424	48	4018
2026-01-12 03:19:22.66	32.79	20.12	-39.0	-40.1	20.0	0.00e+00	0	40	0	794820608	48	4055
2026-01-12 03:19:23.37	32.87	20.20	-39.0	-40.0	20.0	0.00e+00	0	40	0	800063488	48	4031
2026-01-12 03:19:24.65	33.01	20.35	-39.1	-40.0	20.0	0.00e+00	0	40	0	809500672	48	4051
2026-01-12 03:19:25.38	33.09	20.44	-39.0	-40.0	20.1	0.00e+00	0	40	0	813694976	48	4007
2026-01-12 03:19:26.66	33.23	20.59	-38.8	-39.8	20.3	0.00e+00	0	40	0	823132160	48	3932
2026-01-12 03:19:27.46	33.32	20.69	-38.8	-39.8	20.3	0.00e+00	0	40	0	829423616	48	3920
2026-01-12 03:19:28.60	33.45	20.83	-38.8	-39.8	20.3	0.00e+00	0	40	0	837812224	48	3918
2026-01-12 03:19:29.45	33.54	20.93	-38.9	-39.8	20.2	0.00e+00	0	40	0	844103680	48	3955
2026-01-12 03:19:30.59	33.68	21.07	-38.8	-39.8	20.3	0.00e+00	0	40	0	851443712	48	3936
2026-01-12 03:19:31.70	33.80	21.20	-38.8	-39.7	20.4	0.00e+00	0	40	0	859832320	48	3897
2026-01-12 03:19:32.55	33.90	21.31	-38.7	-39.7	20.1	0.00e+00	0	40	0	866123776	47	4111
2026-01-12 03:19:33.69	34.04	21.45	-38.6	-39.6	20.2	0.00e+00	0	40	0	874512384	47	4081
2026-01-12 03:19:34.81	34.17	21.59	-38.7	-39.6	20.2	0.00e+00	0	40	0	881852416	47	4087
2026-01-12 03:19:35.84	34.29	21.72	-38.6	-39.6	20.2	0.00e+00	0	40	0	889192448	47	4080
2026-01-12 03:19:36.83	34.41	21.84	-38.7	-39.7	20.1	0.00e+00	0	40	0	896532480	47	4110
2026-01-12 03:19:37.82	34.53	21.96	-38.5	-39.5	20.3	0.00e+00	0	40	0	903872512	47	4023
2026-01-12 03:19:38.82	34.65	22.09	-38.7	-39.7	20.2	0.00e+00	0	40	0	911212544	47	4105
2026-01-12 03:19:39.82	34.78	22.22	-38.8	-39.8	20.0	0.00e+00	0	40	0	918552576	47	4174
2026-01-12 03:19:40.81	34.90	22.34	-38.8	-39.7	20.1	0.00e+00	0	40	0	925892608	47	4145
2026-01-12 03:19:41.81	35.02	22.47	-38.7	-39.7	20.1	0.00e+00	0	40	0	933232640	47	4121
2026-01-12 03:19:42.80	35.15	22.60	-38.4	-39.4	20.4	0.00e+00	0	40	0	940572672	47	3972
2026-01-12 03:19:43.79	35.27	22.72	-38.8	-39.8	20.0	0.00e+00	0	40	0	946864128	47	4177
2026-01-12 03:19:44.79	35.40	22.85	-38.7	-39.7	20.2	0.00e+00	0	40	0	954204160	47	4101
2026-01-12 03:19:45.81	35.53	22.98	-38.6	-39.6	20.2	0.00e+00	0	40	0	961544192	47	4069
2026-01-12 03:19:46.84	35.67	23.12	-38.6	-39.6	20.2	0.00e+00	0	40	0	968884224	47	4066
2026-01-12 03:19:47.87	35.80	23.25	-38.8	-39.7	20.1	0.00e+00	0	40	0	976224256	47	4135
2026-01-12 03:19:48.86	35.93	23.38	-38.6	-39.5	20.2	0.00e+00	0	40	0	983564288	47	4048
2026-01-12 03:19:49.92	36.08	23.52	-38.7	-39.6	20.1	0.00e+00	0	40	0	990904320	47	4098
2026-01-12 03:19:50.82	36.20	23.64	-38.6	-39.6	20.2	0.00e+00	0	40	0	998244352	47	4062
2026-01-12 03:19:52.00	36.36	23.79	-38.7	-39.7	20.1	0.00e+00	0	40	0	1006632960	47	4110
2026-01-12 03:19:52.85	36.47	23.91	-38.6	-39.6	20.2	0.00e+00	0	40	0	1012924416	47	4071
2026-01-12 03:19:53.99	36.63	24.06	-38.7	-39.6	20.1	0.00e+00	0	40	0	1020264448	47	4086
2026-01-12 03:19:54.84	36.75	24.17	-38.5	-39.5	20.2	0.00e+00	0	40	0	1026555904	47	4025
2026-01-12 03:19:55.98	36.91	24.33	-38.6	-39.5	20.2	0.00e+00	0	40	0	1034944512	47	4041
2026-01-12 03:19:56.83	37.03	24.44	-38.5	-39.5	20.3	0.00e+00	0	40	0	1041235968	47	4018
2026-01-12 03:19:57.97	37.19	24.60	-38.5	-39.5	20.3	0.00e+00	0	40	0	1049624576	47	4016
2026-01-12 03:19:58.82	37.31	24.71	-38.5	-39.5	20.3	0.00e+00	0	40	0	1055916032	47	4025
2026-01-12 03:19:59.95	37.48	24.87	-38.6	-39.6	20.2	0.00e+00	0	40	0	1064304640	47	4073
2026-01-12 03:20:00.81	37.60	24.99	-38.6	-39.6	20.2	0.00e+00	0	40	0	1069547520	47	4069
2026-01-12 03:20:01.94	37.77	25.14	-38.6	-39.6	20.1	0.00e+00	0	40	0	1077936128	47	4085
2026-01-12 03:20:02.80	37.90	25.26	-38.6	-39.6	20.2	0.00e+00	0	40	0	1084227584	47	4067
2026-01-12 03:20:03.94	38.07	25.42	-38.6	-39.6	20.2	0.00e+00	0	40	0	1092616192	47	4055
2026-01-12 03:20:04.79	38.20	25.54	-38.5	-39.5	20.3	0.00e+00	0	40	0	1098907648	47	4022
2026-01-12 03:20:05.93	38.37	25.70	-38.4	-39.4	20.4	0.00e+00	0	40	0	1107296256	47	3968
2026-01-12 03:20:06.78	38.50	25.82	-38.4	-39.3	20.5	0.00e+00	0	40	0	1112539136	47	3951
2026-01-12 03:20:08.08	38.70	26.00	-38.3	-39.3	20.5	0.00e+00	0	40	0	1121976320	47	3917
2026-01-12 03:20:08.79	38.82	26.10	-38.3	-39.2	20.6	0.00e+00	0	40	0	1127219200	47	3889
2026-01-12 03:20:10.07	39.02	26.28	-38.4	-39.4	20.4	0.00e+00	0	40	0	1136656384	47	3970
2026-01-12 03:20:10.81	39.14	26.39	-38.3	-39.3	20.5	0.00e+00	0	40	0	1141899264	47	3929
2026-01-12 03:20:12.09	39.34	26.57	-38.3	-39.3	20.5	0.00e+00	0	40	0	1151336448	47	3915
2026-01-12 03:20:12.80	39.46	26.67	-38.3	-39.3	20.5	0.00e+00	0	40	0	1156579328	47	3937
2026-01-12 03:20:14.08	39.67	26.86	-38.2	-39.2	20.6	0.00e+00	0	40	0	1166016512	47	3884
2026-01-12 03:20:14.80	39.78	26.96	-38.4	-39.3	20.6	0.00e+00	0	40	0	1171259392	46	4171
2026-01-12 03:20:16.08	40.00	27.15	-38.4	-39.3	20.6	0.00e+00	0	40	0	1179648000	46	4172
2026-01-12 03:20:16.81	40.12	27.25	-38.3	-39.3	20.6	0.00e+00	0	40	0	1185939456	46	4148
2026-01-12 03:20:18.09	40.34	27.44	-38.4	-39.4	20.5	0.00e+00	0	40	0	1194328064	46	4196
2026-01-12 03:20:18.83	40.46	27.55	-38.3	-39.3	20.5	0.00e+00	0	40	0	1199570944	46	4167
2026-01-12 03:20:20.11	40.69	27.74	-38.1	-39.0	20.8	0.00e+00	0	40	0	1209008128	46	4016
2026-01-12 03:20:20.82	40.81	27.84	-38.0	-38.9	20.9	0.00e+00	0	40	0	1214251008	46	3990
2026-01-12 03:20:22.14	41.04	28.04	-38.1	-39.0	20.9	0.00e+00	0	40	0	1223688192	46	4028
2026-01-12 03:20:22.85	41.17	28.14	-38.0	-38.9	20.9	0.00e+00	0	40	0	1228931072	46	3970
2026-01-12 03:20:24.14	41.40	28.34	-38.0	-38.9	20.9	0.00e+00	0	40	0	1238368256	46	3989
2026-01-12 03:20:24.86	41.53	28.44	-37.9	-38.8	21.0	0.00e+00	0	40	0	1243611136	46	3945
2026-01-12 03:20:26.25	41.78	28.65	-37.9	-38.8	21.0	0.00e+00	0	40	0	1254096896	46	3951
2026-01-12 03:20:26.96	41.91	28.76	-38.0	-38.9	20.9	0.00e+00	0	40	0	1258291200	46	3995
2026-01-12 03:20:28.24	42.15	28.95	-37.9	-38.9	20.9	0.00e+00	0	40	0	1267728384	46	3963
2026-01-12 03:20:28.98	42.29	29.07	-37.9	-38.8	21.0	0.00e+00	0	40	0	1272971264	46	3940
2026-01-12 03:20:30.26	42.53	29.26	-37.8	-38.7	21.1	0.00e+00	0	40	0	1282408448	46	3880
2026-01-12 03:20:30.97	42.67	29.37	-37.9	-38.8	21.0	0.00e+00	0	40	0	1287651328	46	3934
2026-01-12 03:20:32.25	42.91	29.57	-37.9	-38.8	21.0	0.00e+00	0	40	0	1297088512	46	3955
2026-01-12 03:20:32.98	43.06	29.68	-37.9	-38.8	21.0	0.00e+00	0	40	0	1302331392	46	3949
2026-01-12 03:20:34.25	43.31	29.88	-38.0	-38.9	20.9	0.00e+00	0	40	0	1311768576	46	3977
2026-01-12 03:20:34.97	43.45	29.99	-37.9	-38.8	21.0	0.00e+00	0	40	0	1317011456	46	3941
2026-01-12 03:20:36.24	43.70	30.19	-38.1	-39.0	20.8	0.00e+00	0	40	0	1325400064	46	4049
2026-01-12 03:20:36.98	43.85	30.30	-38.2	-39.1	20.7	0.00e+00	0	40	0	1330642944	46	4072
2026-01-12 03:20:38.26	44.12	30.50	-38.3	-39.2	20.6	0.00e+00	0	40	0	1340080128	46	4132
2026-01-12 03:20:39.09	44.29	30.63	-38.3	-39.3	20.6	0.00e+00	0	40	0	1346371584	46	4159
2026-01-12 03:20:40.22	44.52	30.81	-38.3	-39.3	20.6	0.00e+00	0	40	0	1354760192	46	4146
2026-01-12 03:20:41.07	44.70	30.94	-38.4	-39.3	20.6	0.00e+00	0	40	0	1361051648	46	4174
2026-01-12 03:20:42.21	44.94	31.12	-38.4	-39.3	20.6	0.00e+00	0	40	0	1368391680	46	4179
2026-01-12 03:20:43.07	45.13	31.26	-38.3	-39.3	20.6	0.00e+00	0	40	0	1374683136	46	4154
2026-01-12 03:20:44.20	45.37	31.44	-38.4	-39.3	20.6	0.00e+00	0	40	0	1383071744	46	4179
2026-01-12 03:20:45.39	45.63	31.63	-38.2	-39.1	20.8	0.00e+00	0	40	0	1391460352	46	4078
2026-01-12 03:20:46.24	45.82	31.77	-38.3	-39.2	20.7	0.00e+00	0	40	0	1397751808	46	4136
2026-01-12 03:20:47.38	46.07	31.95	-38.2	-39.2	20.7	0.00e+00	0	40	0	1406140416	46	4105
2026-01-12 03:20:48.23	46.27	32.09	-38.3	-39.2	20.7	0.00e+00	0	40	0	1412431872	46	4118
2026-01-12 03:20:49.37	46.53	32.27	-38.0	-38.9	20.9	0.00e+00	0	40	0	1420820480	46	3981
2026-01-12 03:20:50.22	46.72	32.41	-38.1	-39.0	20.9	0.00e+00	0	40	0	1427111936	46	4023
2026-01-12 03:20:51.36	46.98	32.59	-38.0	-38.9	20.9	0.00e+00	0	40	0	1434451968	46	3991
2026-01-12 03:20:52.21	47.18	32.73	-38.0	-38.9	21.0	0.00e+00	0	40	0	1440743424	46	3970
2026-01-12 03:20:53.35	47.45	32.92	-37.7	-38.6	21.2	0.00e+00	0	40	0	1449132032	46	3863
2026-01-12 03:20:54.20	47.66	33.06	-37.7	-38.5	21.2	0.00e+00	0	40	0	1455423488	46	3824
2026-01-12 03:20:55.34	47.93	33.24	-37.6	-38.4	21.3	0.00e+00	0	40	0	1463812096	45	4002
2026-01-12 03:20:56.19	48.14	33.38	-37.5	-38.4	21.4	0.00e+00	0	40	0	1469054976	45	3987
2026-01-12 03:20:57.33	48.42	33.57	-37.5	-38.4	21.4	0.00e+00	0	40	0	1477443584	45	3982
2026-01-12 03:20:58.18	48.63	33.71	-37.5	-38.4	21.4	0.00e+00	0	40	0	1483735040	45	3983
2026-01-12 03:20:59.31	48.91	33.90	-37.6	-38.5	21.3	0.00e+00	0	40	0	1492123648	45	4042
2026-01-12 03:21:00.17	49.13	34.04	-37.7	-38.6	21.2	0.00e+00	0	40	0	1498415104	45	4071
2026-01-12 03:21:01.30	49.42	34.22	-37.7	-38.6	21.2	0.00e+00	0	40	0	1506803712	45	4083
2026-01-12 03:21:02.16	49.64	34.37	-37.9	-38.8	21.0	0.00e+00	0	40	0	1513095168	45	4165
2026-01-12 03:21:03.29	49.94	34.55	-38.0	-38.9	20.9	0.00e+00	0	40	0	1520435200	45	4202
2026-01-12 03:21:04.15	50.17	34.70	-37.9	-38.8	21.0	0.00e+00	0	40	0	1527775232	45	4181
2026-01-12 03:21:05.29	50.47	34.89	-38.0	-38.9	20.9	0.00e+00	0	40	0	1535115264	45	4242
2026-01-12 03:21:06.14	50.70	35.03	-38.1	-39.0	20.8	0.00e+00	0	40	0	1541406720	45	4286
2026-01-12 03:21:07.28	51.01	35.22	-37.9	-38.8	21.0	0.00e+00	0	40	0	1549795328	45	4187
2026-01-12 03:21:08.13	51.24	35.36	-37.9	-38.8	21.0	0.00e+00	0	40	0	1556086784	45	4192
2026-01-12 03:21:09.28	51.56	35.55	-38.0	-38.9	20.9	0.00e+00	0	40	0	1564475392	45	4234
2026-01-12 03:21:10.14	51.80	35.70	-38.0	-39.0	20.9	0.00e+00	0	40	0	1570766848	45	4247
2026-01-12 03:21:11.27	52.12	35.89	-38.2	-39.1	20.8	0.00e+00	0	40	0	1578106880	46	4071
2026-01-12 03:21:12.13	52.37	36.03	-38.2	-39.1	20.7	0.00e+00	0	40	0	1584398336	46	4097
2026-01-12 03:21:13.26	52.69	36.22	-38.1	-39.0	20.9	0.00e+00	0	40	0	1592786944	46	4015
2026-01-12 03:21:14.11	52.94	36.36	-38.0	-38.9	20.9	0.00e+00	0	40	0	1599078400	46	3995
2026-01-12 03:21:15.46	53.34	36.59	-37.9	-38.8	21.1	0.00e+00	0	40	0	1608515584	46	3917
2026-01-12 03:21:16.17	53.55	36.71	-37.8	-38.7	21.1	0.00e+00	0	40	0	1613758464	46	3892
2026-01-12 03:21:17.45	53.94	36.92	-37.8	-38.7	21.2	0.00e+00	0	40	0	1623195648	46	3887
2026-01-12 03:21:18.16	54.15	37.04	-37.9	-38.7	21.1	0.00e+00	0	40	0	1628438528	46	3911
2026-01-12 03:21:19.44	54.55	37.26	-37.9	-38.8	21.1	0.00e+00	0	40	0	1637875712	46	3926
2026-01-12 03:21:20.15	54.77	37.38	-37.9	-38.8	21.1	0.00e+00	0	40	0	1643118592	46	3936
2026-01-12 03:21:21.43	55.17	37.59	-38.0	-39.0	20.9	0.00e+00	0	40	0	1651507200	46	4006
2026-01-12 03:21:22.14	55.39	37.71	-38.1	-39.0	20.9	0.00e+00	0	40	0	1656750080	46	4015
2026-01-12 03:21:23.42	55.80	37.92	-38.1	-39.1	20.8	0.00e+00	0	40	0	1666187264	46	4054
2026-01-12 03:21:24.15	56.04	38.05	-38.1	-39.0	20.8	0.00e+00	0	40	0	1671430144	46	4050
2026-01-12 03:21:25.42	56.45	38.26	-38.1	-39.1	20.8	0.00e+00	0	40	0	1680867328	46	4053
2026-01-12 03:21:26.16	56.70	38.38	-38.1	-39.0	20.9	0.00e+00	0	40	0	1686110208	46	4018
2026-01-12 03:21:27.44	57.12	38.59	-38.1	-39.0	20.9	0.00e+00	0	40	0	1695547392	46	4025
2026-01-12 03:21:28.15	57.36	38.71	-38.1	-39.1	20.8	0.00e+00	0	41	0	1700790272	46	4058
2026-01-12 03:21:29.53	57.83	38.94	-38.1	-39.0	20.8	0.00e+00	0	40	0	1710227456	46	4050
2026-01-12 03:21:30.24	58.08	39.06	-38.2	-39.1	20.8	0.00e+00	0	40	0	1715470336	46	4078
2026-01-12 03:21:31.52	58.52	39.27	-38.2	-39.1	20.8	0.00e+00	0	40	0	1724907520	46	4083
2026-01-12 03:21:32.25	58.78	39.39	-38.2	-39.1	20.8	0.00e+00	0	40	0	1730150400	46	4097
2026-01-12 03:21:33.63	59.27	39.62	-38.3	-39.2	20.7	0.00e+00	0	40	0	1739587584	46	4128
2026-01-12 03:21:34.34	59.52	39.74	-38.2	-39.2	20.8	0.00e+00	0	40	0	1744830464	46	4101
2026-01-12 03:21:35.62	59.98	39.94	-38.3	-39.2	20.7	0.00e+00	0	40	0	1754267648	46	4134
2026-01-12 03:21:36.67	60.37	40.12	-38.3	-39.2	20.7	0.00e+00	0	40	0	1761607680	46	4133
2026-01-12 03:21:37.84	60.80	40.31	-38.1	-39.0	20.9	0.00e+00	0	40	0	1769996288	46	4034
2026-01-12 03:21:38.82	61.17	40.47	-38.0	-38.9	21.0	0.00e+00	0	40	0	1777336320	46	3972
2026-01-12 03:21:39.97	61.60	40.65	-37.9	-38.8	21.1	0.00e+00	0	40	0	1785724928	46	3920
2026-01-12 03:21:40.84	61.93	40.79	-37.9	-38.8	21.0	0.00e+00	0	40	0	1792016384	46	3948
2026-01-12 03:21:41.98	62.37	40.97	-38.1	-39.0	20.9	0.00e+00	0	40	0	1800404992	46	4011
2026-01-12 03:21:42.83	62.71	41.11	-38.0	-38.9	21.0	0.00e+00	0	40	0	1806696448	46	3990
2026-01-12 03:21:43.97	63.15	41.29	-38.2	-39.1	20.8	0.00e+00	0	40	0	1815085056	46	4061
2026-01-12 03:21:44.82	63.49	41.42	-38.2	-39.1	20.8	0.00e+00	0	40	0	1820327936	46	4094
2026-01-12 03:21:45.96	63.95	41.60	-38.2	-39.2	20.8	0.00e+00	0	40	0	1828716544	46	4101
2026-01-12 03:21:46.81	64.29	41.73	-38.2	-39.1	20.8	0.00e+00	0	40	0	1835008000	46	4086
2026-01-12 03:21:47.95	64.76	41.91	-38.0	-38.9	21.0	0.00e+00	0	40	0	1843396608	46	3975
2026-01-12 03:21:48.80	65.11	42.04	-37.9	-38.8	21.0	0.00e+00	0	40	0	1849688064	46	3952
2026-01-12 03:21:49.94	65.58	42.22	-37.8	-38.7	21.1	0.00e+00	0	40	0	1858076672	46	3908
2026-01-12 03:21:50.79	65.94	42.35	-37.8	-38.7	21.2	0.00e+00	0	40	0	1863319552	46	3892
2026-01-12 03:21:51.96	66.44	42.52	-37.9	-38.8	21.1	0.00e+00	0	41	0	1872756736	46	3946
2026-01-12 03:21:52.81	66.80	42.65	-38.1	-39.0	20.9	0.00e+00	0	40	0	1877999616	46	4024
2026-01-12 03:21:53.95	67.29	42.82	-38.3	-39.2	20.7	0.00e+00	0	40	0	1886388224	46	4137
2026-01-12 03:21:54.80	67.66	42.95	-38.5	-39.4	20.5	0.00e+00	0	40	0	1892679680	46	4223
2026-01-12 03:21:56.08	68.23	43.13	-38.3	-39.2	20.7	0.00e+00	0	40	0	1902116864	46	4135
2026-01-12 03:21:56.79	68.54	43.24	-38.3	-39.3	20.6	0.00e+00	0	40	0	1907359744	46	4151
2026-01-12 03:21:58.07	69.12	43.42	-38.4	-39.3	20.6	0.00e+00	0	40	0	1916796928	46	4178
2026-01-12 03:21:58.78	69.44	43.52	-38.5	-39.5	20.5	0.00e+00	0	40	0	1920991232	46	4249
2026-01-12 03:22:00.06	70.02	43.70	-38.6	-39.5	20.4	0.00e+00	0	41	0	1930428416	46	4267
2026-01-12 03:22:00.77	70.35	43.80	-38.4	-39.3	20.6	0.00e+00	0	40	0	1935671296	46	4177
2026-01-12 03:22:02.05	70.94	43.98	-38.5	-39.4	20.6	0.00e+00	0	40	0	1945108480	46	4208
2026-01-12 03:22:02.87	71.33	44.09	-38.4	-39.4	20.6	0.00e+00	0	40	0	1951399936	46	4197
2026-01-12 03:22:04.01	71.87	44.24	-38.3	-39.2	20.7	0.00e+00	0	40	0	1959788544	46	4118
2026-01-12 03:22:04.86	72.27	44.35	-38.4	-39.3	20.7	0.00e+00	0	40	0	1965031424	46	4149
2026-01-12 03:22:06.00	72.82	44.50	-38.4	-39.3	20.6	0.00e+00	0	41	0	1973420032	46	4168
2026-01-12 03:22:06.86	73.23	44.61	-38.5	-39.5	20.5	0.00e+00	0	41	0	1979711488	46	4244
2026-01-12 03:22:07.99	73.78	44.76	-38.4	-39.3	20.6	0.00e+00	0	41	0	1988100096	46	4183
2026-01-12 03:22:08.84	74.20	44.87	-38.4	-39.3	20.6	0.00e+00	0	41	0	1994391552	46	4184
2026-01-12 03:22:09.98	74.77	45.01	-38.5	-39.5	20.5	0.00e+00	0	41	0	2002780160	46	4257
2026-01-12 03:22:10.83	75.19	45.11	-38.4	-39.3	20.6	0.00e+00	0	41	0	2008023040	46	4187
2026-01-12 03:22:11.97	75.77	45.25	-38.5	-39.5	20.5	0.00e+00	0	41	0	2016411648	46	4244
2026-01-12 03:22:12.82	76.20	45.35	-38.4	-39.3	20.6	0.00e+00	0	40	0	2022703104	46	4192
2026-01-12 03:22:13.95	76.77	45.48	-38.4	-39.4	20.6	0.00e+00	0	40	0	2031091712	46	4199
2026-01-12 03:22:14.81	77.22	45.58	-38.5	-39.4	20.5	0.00e+00	0	41	0	2037383168	46	4226
2026-01-12 03:22:15.94	77.80	45.70	-38.9	-39.9	20.1	0.00e+00	0	40	0	2045771776	47	4209
2026-01-12 03:22:16.80	78.25	45.80	-39.1	-40.1	19.9	0.00e+00	0	40	0	2051014656	47	4313
2026-01-12 03:22:17.93	78.84	45.92	-39.5	-40.5	19.9	0.00e+00	0	40	0	2059403264	48	4251
2026-01-12 03:22:18.79	79.30	46.01	-39.5	-40.5	19.9	0.00e+00	0	41	0	2065694720	48	4250
2026-01-12 03:22:19.93	79.90	46.12	-39.2	-40.2	20.1	0.00e+00	0	41	0	2074083328	48	4112
2026-01-12 03:22:20.78	80.36	46.21	-39.2	-40.2	20.2	0.00e+00	0	40	0	2080374784	48	4116
2026-01-12 03:22:21.92	80.97	46.32	-39.2	-40.2	20.1	0.00e+00	0	40	0	2088763392	48	4109
2026-01-12 03:22:22.77	81.44	46.40	-39.3	-40.3	20.1	0.00e+00	0	40	0	2095054848	48	4149
2026-01-12 03:22:23.91	82.06	46.51	-39.2	-40.2	20.1	0.00e+00	0	40	0	2103443456	48	4110
2026-01-12 03:22:24.76	82.52	46.58	-39.1	-40.1	20.2	0.00e+00	0	41	0	2108686336	48	4072
2026-01-12 03:22:25.90	83.15	46.68	-38.9	-39.9	20.4	0.00e+00	0	40	0	2117074944	48	3968
2026-01-12 03:22:26.75	83.62	46.75	-38.7	-39.7	20.6	0.00e+00	0	41	0	2123366400	48	3881
2026-01-12 03:22:27.99	84.31	46.86	-38.8	-39.7	20.3	0.00e+00	0	40	0	2131755008	47	4140
2026-01-12 03:22:28.84	84.79	46.92	-38.8	-39.8	20.2	0.00e+00	0	40	0	2138046464	47	4167
2026-01-12 03:22:29.98	85.43	47.01	-38.9	-39.9	20.1	0.00e+00	0	40	0	2146435072	47	4221
2026-01-12 03:22:30.83	85.91	47.07	-38.9	-39.9	20.1	0.00e+00	0	40	0	2152726528	47	4195
2026-01-12 03:22:31.97	86.56	47.15	-39.0	-40.0	20.0	0.00e+00	0	40	0	2161115136	47	4285
2026-01-12 03:22:32.82	87.05	47.21	-39.0	-40.0	20.0	0.00e+00	0	40	0	2167406592	47	4267
2026-01-12 03:22:33.96	87.70	47.28	-39.0	-39.9	20.0	0.00e+00	0	40	0	2175795200	47	4242
2026-01-12 03:22:34.81	88.19	47.34	-39.1	-40.1	19.9	0.00e+00	0	40	0	2182086656	47	4296
2026-01-12 03:22:35.95	88.85	47.40	-39.0	-40.0	20.0	0.00e+00	0	41	0	2190475264	47	4261
2026-01-12 03:22:36.80	89.34	47.45	-38.8	-39.7	20.2	0.00e+00	0	40	0	2195718144	47	4143
2026-01-12 03:22:37.94	90.01	47.51	-38.8	-39.8	20.2	0.00e+00	0	40	0	2204106752	47	4151
2026-01-12 03:22:38.79	90.50	47.55	-38.6	-39.6	20.4	0.00e+00	0	40	0	2210398208	47	4067
2026-01-12 03:22:39.93	91.17	47.60	-38.7	-39.7	20.3	0.00e+00	0	41	0	2218786816	47	4109
2026-01-12 03:22:40.78	91.67	47.64	-38.9	-39.8	20.2	0.00e+00	0	41	0	2225078272	47	4190
2026-01-12 03:22:41.91	92.34	47.69	-39.2	-40.2	19.8	0.00e+00	0	41	0	2233466880	47	4383
2026-01-12 03:22:42.77	92.85	47.72	-39.5	-40.5	19.8	0.00e+00	0	40	0	2238709760	48	4260
2026-01-12 03:22:44.00	93.57	47.76	-39.7	-40.7	19.6	0.00e+00	0	40	0	2248146944	49	4137
2026-01-12 03:22:44.85	94.08	47.78	-39.5	-40.4	19.9	0.00e+00	0	41	0	2254438400	49	4004
2026-01-12 03:22:45.99	94.76	47.82	-39.2	-40.2	20.1	0.00e+00	0	41	0	2261778432	49	3889
2026-01-12 03:22:46.84	95.26	47.84	-39.0	-40.0	20.3	0.00e+00	0	41	0	2268069888	48	4021
2026-01-12 03:22:47.98	95.94	47.86	-38.8	-39.7	20.5	0.00e+00	0	40	0	2276458496	48	3908
2026-01-12 03:22:48.83	96.45	47.87	-38.8	-39.8	20.5	0.00e+00	0	40	0	2282749952	48	3922
2026-01-12 03:22:49.97	97.13	47.89	-38.7	-39.7	20.6	0.00e+00	0	40	0	2291138560	48	3872
2026-01-12 03:22:50.82	97.64	47.90	-38.7	-39.6	20.6	0.00e+00	0	40	0	2297430016	48	3840
2026-01-12 03:22:51.96	98.32	47.91	-38.8	-39.7	20.5	0.00e+00	0	41	0	2305818624	48	3907
2026-01-12 03:22:52.81	98.83	47.91	-38.8	-39.7	20.6	0.00e+00	0	41	0	2312110080	48	3887
2026-01-12 03:22:53.95	99.51	47.91	-38.9	-39.8	20.5	0.00e+00	0	41	0	2319450112	48	3926
2026-01-12 03:22:54.80	100.02	47.91	-39.0	-39.9	20.4	0.00e+00	0	41	0	2325741568	48	3990
2026-01-12 03:22:55.93	100.70	47.90	-39.0	-39.9	20.3	0.00e+00	0	40	0	2334130176	48	4000
2026-01-12 03:22:56.79	101.21	47.89	-39.1	-40.1	20.2	0.00e+00	0	40	0	2340421632	48	4054
2026-01-12 03:22:57.92	101.89	47.88	-39.3	-40.3	20.1	0.00e+00	0	40	0	2348810240	48	4149
2026-01-12 03:22:58.78	102.40	47.87	-39.3	-40.3	20.0	0.00e+00	0	40	0	2355101696	48	4175
2026-01-12 03:23:00.09	103.18	47.84	-39.6	-40.6	19.8	0.00e+00	0	40	0	2363490304	48	4295
2026-01-12 03:23:01.21	103.85	47.81	-39.4	-40.4	19.9	0.00e+00	0	40	0	2371878912	48	4215
2026-01-12 03:23:02.06	104.36	47.79	-39.4	-40.3	20.0	0.00e+00	0	41	0	2378170368	48	4183
2026-01-12 03:23:03.20	105.03	47.76	-39.2	-40.1	20.2	0.00e+00	0	40	0	2386558976	48	4082
2026-01-12 03:23:04.05	105.54	47.73	-39.1	-40.1	20.2	0.00e+00	0	41	0	2392850432	48	4063
2026-01-12 03:23:05.19	106.21	47.69	-39.2	-40.1	20.2	0.00e+00	0	41	0	2401239040	48	4087
2026-01-12 03:23:06.04	106.71	47.65	-38.9	-39.8	20.4	0.00e+00	0	41	0	2406481920	48	3945
2026-01-12 03:23:07.29	107.45	47.60	-38.9	-39.8	20.4	0.00e+00	0	41	0	2415919104	48	3949
2026-01-12 03:23:08.14	107.95	47.56	-38.9	-39.8	20.5	0.00e+00	0	41	0	2422210560	48	3946
2026-01-12 03:23:09.36	108.66	47.50	-38.8	-39.7	20.6	0.00e+00	0	41	0	2430599168	48	3883
2026-01-12 03:23:10.21	109.16	47.46	-38.9	-39.8	20.5	0.00e+00	0	41	0	2436890624	48	3936
2026-01-12 03:23:11.41	109.85	47.39	-39.2	-40.2	20.2	0.00e+00	0	41	0	2446327808	48	4102
2026-01-12 03:23:12.26	110.35	47.34	-39.1	-40.1	20.2	0.00e+00	0	40	0	2451570688	48	4057
2026-01-12 03:23:13.46	111.04	47.26	-39.2	-40.1	20.2	0.00e+00	0	40	0	2461007872	48	4086
2026-01-12 03:23:14.31	111.53	47.21	-39.1	-40.1	20.2	0.00e+00	0	41	0	2467299328	48	4056
2026-01-12 03:23:15.51	112.21	47.13	-39.3	-40.3	20.0	0.00e+00	0	41	0	2475687936	48	4158
2026-01-12 03:23:16.37	112.70	47.07	-39.4	-40.3	20.0	0.00e+00	0	41	0	2481979392	48	4183
2026-01-12 03:23:17.57	113.38	46.98	-39.2	-40.1	20.2	0.00e+00	0	41	0	2490368000	48	4090
2026-01-12 03:23:18.42	113.86	46.91	-39.1	-40.1	20.2	0.00e+00	0	40	0	2496659456	48	4054
2026-01-12 03:23:19.62	114.53	46.82	-38.7	-39.6	20.7	0.00e+00	0	41	0	2505048064	48	3838
2026-01-12 03:23:20.47	115.01	46.75	-38.7	-39.6	20.6	0.00e+00	0	41	0	2511339520	48	3858
2026-01-12 03:23:21.67	115.67	46.64	-38.8	-39.7	20.5	0.00e+00	0	41	0	2519728128	48	3883
2026-01-12 03:23:22.52	116.14	46.57	-38.7	-39.6	20.6	0.00e+00	0	41	0	2526019584	48	3848
2026-01-12 03:23:23.66	116.77	46.46	-38.7	-39.6	20.5	0.00e+00	0	41	0	2534408192	48	3854
2026-01-12 03:23:24.51	117.23	46.39	-38.6	-39.5	20.7	0.00e+00	0	41	0	2540699648	48	3809
2026-01-12 03:23:25.65	117.85	46.28	-38.4	-39.3	20.6	0.00e+00	0	41	0	2549088256	47	3935
2026-01-12 03:23:26.50	118.31	46.19	-38.5	-39.4	20.5	0.00e+00	0	41	0	2555379712	47	3977
2026-01-12 03:23:27.64	118.92	46.08	-38.5	-39.4	20.5	0.00e+00	0	41	0	2562719744	47	3991
2026-01-12 03:23:28.49	119.37	45.99	-38.6	-39.5	20.4	0.00e+00	0	41	0	2569011200	47	4038
2026-01-12 03:23:29.63	119.97	45.87	-38.8	-39.8	20.2	0.00e+00	0	41	0	2577399808	47	4152
2026-01-12 03:23:30.48	120.42	45.78	-38.8	-39.8	20.2	0.00e+00	0	40	0	2583691264	47	4174
2026-01-12 03:23:31.62	121.01	45.65	-38.7	-39.7	20.2	0.00e+00	0	41	0	2592079872	47	4115
2026-01-12 03:23:32.47	121.45	45.56	-38.8	-39.7	20.3	0.00e+00	0	41	0	2597322752	47	4123
2026-01-12 03:23:33.61	122.04	45.42	-38.8	-39.8	20.2	0.00e+00	0	40	0	2605711360	47	4165
2026-01-12 03:23:34.46	122.47	45.32	-38.9	-39.9	20.1	0.00e+00	0	41	0	2612002816	47	4198
2026-01-12 03:23:35.60	123.05	45.19	-39.0	-40.0	20.0	0.00e+00	0	41	0	2620391424	47	4259
2026-01-12 03:23:36.45	123.48	45.09	-39.0	-40.0	20.0	0.00e+00	0	40	0	2626682880	47	4243
2026-01-12 03:23:37.59	124.05	44.95	-38.9	-39.9	20.1	0.00e+00	0	41	0	2635071488	47	4200
2026-01-12 03:23:38.44	124.47	44.84	-38.8	-39.8	20.2	0.00e+00	0	40	0	2640314368	47	4155
2026-01-12 03:23:39.58	125.03	44.70	-38.7	-39.7	20.3	0.00e+00	0	40	0	2648702976	47	4120
2026-01-12 03:23:40.43	125.44	44.59	-38.5	-39.4	20.5	0.00e+00	0	41	0	2654994432	47	3994
2026-01-12 03:23:41.57	126.00	44.44	-38.4	-39.4	20.6	0.00e+00	0	41	0	2663383040	47	3965
2026-01-12 03:23:42.42	126.40	44.32	-38.5	-39.4	20.5	0.00e+00	0	41	0	2669674496	47	4000
2026-01-12 03:23:43.56	126.95	44.17	-38.7	-39.7	20.3	0.00e+00	0	41	0	2678063104	47	4101
2026-01-12 03:23:44.41	127.35	44.06	-38.8	-39.8	20.2	0.00e+00	0	41	0	2684354560	47	4159
2026-01-12 03:23:45.54	127.88	43.90	-38.8	-39.8	20.2	0.00e+00	0	41	0	2691694592	47	4150
2026-01-12 03:23:46.40	128.28	43.78	-38.7	-39.6	20.3	0.00e+00	0	41	0	2697986048	47	4095
2026-01-12 03:23:47.53	128.80	43.62	-38.6	-39.5	20.4	0.00e+00	0	41	0	2706374656	47	4036
2026-01-12 03:23:48.39	129.19	43.50	-38.3	-39.2	20.7	0.00e+00	0	41	0	2712666112	47	3913
2026-01-12 03:23:49.52	129.70	43.34	-38.3	-39.2	20.7	0.00e+00	0	40	0	2721054720	47	3911
2026-01-12 03:23:50.37	130.08	43.22	-38.1	-39.0	20.9	0.00e+00	0	40	0	2727346176	46	4011
2026-01-12 03:23:51.51	130.59	43.05	-38.1	-39.0	20.9	0.00e+00	0	41	0	2735734784	46	4039
2026-01-12 03:23:52.36	130.96	42.93	-38.3	-39.2	20.6	0.00e+00	0	41	0	2740977664	46	4132
2026-01-12 03:23:53.50	131.46	42.76	-38.4	-39.3	20.6	0.00e+00	0	41	0	2749366272	46	4171
2026-01-12 03:23:54.35	131.83	42.63	-38.5	-39.4	20.5	0.00e+00	0	41	0	2755657728	46	4233
2026-01-12 03:23:55.58	132.36	42.44	-38.7	-39.7	20.3	0.00e+00	0	41	0	2765094912	46	4345
2026-01-12 03:23:56.44	132.72	42.31	-38.8	-39.8	20.1	0.00e+00	0	40	0	2770337792	47	4174
2026-01-12 03:23:57.57	133.20	42.14	-38.8	-39.8	20.2	0.00e+00	0	41	0	2778726400	47	4160
2026-01-12 03:23:58.43	133.56	42.01	-38.7	-39.6	20.3	0.00e+00	0	40	0	2785017856	47	4089
2026-01-12 03:23:59.56	134.02	41.83	-38.6	-39.5	20.4	0.00e+00	0	41	0	2793406464	47	4049
2026-01-12 03:24:00.42	134.37	41.70	-38.4	-39.3	20.4	0.00e+00	0	41	0	2799697920	47	3953
2026-01-12 03:24:01.55	134.83	41.52	-38.5	-39.4	20.5	0.00e+00	0	41	0	2808086528	47	3992
2026-01-12 03:24:02.41	135.18	41.38	-38.5	-39.4	20.5	0.00e+00	0	41	0	2814377984	47	3982
2026-01-12 03:24:03.54	135.62	41.20	-38.5	-39.4	20.5	0.00e+00	0	41	0	2821718016	47	3986
2026-01-12 03:24:04.40	135.96	41.07	-38.5	-39.4	20.5	0.00e+00	0	41	0	2828009472	47	3979
2026-01-12 03:24:05.54	136.41	40.88	-38.3	-39.2	20.7	0.00e+00	0	41	0	2836398080	47	3883
2026-01-12 03:24:06.39	136.73	40.75	-38.1	-39.0	21.0	0.00e+00	0	41	0	2842689536	46	4019
2026-01-12 03:24:07.52	137.17	40.57	-38.2	-39.1	20.8	0.00e+00	0	41	0	2851078144	46	4060
2026-01-12 03:24:08.38	137.49	40.43	-38.2	-39.1	20.8	0.00e+00	0	41	0	2857369600	46	4059
2026-01-12 03:24:09.51	137.91	40.24	-38.3	-39.3	20.6	0.00e+00	0	41	0	2865758208	46	4147
2026-01-12 03:24:10.37	138.23	40.10	-38.5	-39.5	20.5	0.00e+00	0	41	0	2871001088	46	4250
2026-01-12 03:24:11.50	138.65	39.92	-38.5	-39.5	20.5	0.00e+00	0	41	0	2879389696	47	4007
2026-01-12 03:24:12.36	138.96	39.77	-38.6	-39.5	20.4	0.00e+00	0	41	0	2885681152	47	4051
2026-01-12 03:24:13.49	139.37	39.59	-38.6	-39.6	20.3	0.00e+00	0	41	0	2894069760	47	4073
2026-01-12 03:24:14.34	139.67	39.45	-38.6	-39.5	20.4	0.00e+00	0	41	0	2900361216	47	4045
2026-01-12 03:24:15.48	140.07	39.26	-38.6	-39.5	20.4	0.00e+00	0	40	0	2908749824	47	4043
2026-01-12 03:24:16.34	140.37	39.11	-38.4	-39.3	20.6	0.00e+00	0	41	0	2913992704	47	3946
2026-01-12 03:24:17.47	140.76	38.93	-38.1	-39.0	20.9	0.00e+00	0	41	0	2922381312	47	3790
2026-01-12 03:24:18.32	141.06	38.78	-38.2	-39.1	20.8	0.00e+00	0	41	0	2928672768	46	4072
2026-01-12 03:24:19.45	141.44	38.60	-38.3	-39.2	20.7	0.00e+00	0	41	0	2937061376	46	4105
2026-01-12 03:24:20.30	141.72	38.45	-38.4	-39.3	20.6	0.00e+00	0	41	0	2943352832	46	4177
2026-01-12 03:24:21.44	142.10	38.26	-38.5	-39.4	20.5	0.00e+00	0	41	0	2950692864	46	4242
2026-01-12 03:24:22.29	142.38	38.12	-38.5	-39.5	20.5	0.00e+00	0	41	0	2956984320	46	4248
2026-01-12 03:24:23.43	142.75	37.93	-38.4	-39.4	20.6	0.00e+00	0	41	0	2965372928	46	4202
2026-01-12 03:24:24.28	143.03	37.78	-38.5	-39.4	20.5	0.00e+00	0	41	0	2971664384	46	4214
2026-01-12 03:24:25.42	143.39	37.59	-38.2	-39.1	20.8	0.00e+00	0	41	0	2980052992	46	4066
2026-01-12 03:24:26.28	143.66	37.45	-38.0	-38.9	21.0	0.00e+00	0	41	0	2986344448	46	3995
2026-01-12 03:24:27.41	144.02	37.26	-38.0	-38.9	21.0	0.00e+00	0	41	0	2994733056	46	3993
2026-01-12 03:24:28.26	144.28	37.11	-37.9	-38.9	21.0	0.00e+00	0	41	0	3001024512	46	3961
2026-01-12 03:24:29.40	144.63	36.92	-37.9	-38.8	21.0	0.00e+00	0	40	0	3009413120	46	3954
2026-01-12 03:24:30.25	144.89	36.78	-37.9	-38.8	21.0	0.00e+00	0	41	0	3014656000	46	3947
2026-01-12 03:24:31.39	145.23	36.58	-38.0	-38.9	20.9	0.00e+00	0	41	0	3023044608	46	3988
2026-01-12 03:24:32.24	145.48	36.44	-38.0	-39.0	20.9	0.00e+00	0	41	0	3029336064	46	4010
2026-01-12 03:24:33.38	145.82	36.25	-38.1	-39.0	20.9	0.00e+00	0	41	0	3037724672	46	4033
2026-01-12 03:24:34.23	146.07	36.10	-38.1	-39.1	20.8	0.00e+00	0	41	0	3044016128	46	4056
2026-01-12 03:24:35.37	146.39	35.91	-38.2	-39.1	20.8	0.00e+00	0	41	0	3052404736	46	4067
2026-01-12 03:24:36.38	146.68	35.74	-38.3	-39.2	20.7	0.00e+00	0	41	0	3058696192	46	4139
2026-01-12 03:24:37.53	147.01	35.55	-38.5	-39.4	20.5	0.00e+00	0	41	0	3067084800	46	4228
2026-01-12 03:24:38.40	147.25	35.40	-38.5	-39.5	20.5	0.00e+00	0	41	0	3074424832	46	4245
2026-01-12 03:24:39.69	147.61	35.19	-38.5	-39.5	20.5	0.00e+00	0	41	0	3082813440	46	4245
2026-01-12 03:24:40.40	147.80	35.07	-38.5	-39.4	20.5	0.00e+00	0	41	0	3088056320	46	4224
2026-01-12 03:24:41.69	148.15	34.85	-38.4	-39.4	20.5	0.00e+00	0	41	0	3097493504	46	4207
2026-01-12 03:24:42.41	148.34	34.73	-38.1	-39.1	20.8	0.00e+00	0	41	0	3102736384	46	4054
2026-01-12 03:24:43.69	148.68	34.51	-37.9	-38.8	21.0	0.00e+00	0	41	0	3112173568	46	3955
2026-01-12 03:24:44.43	148.88	34.39	-37.8	-38.7	21.1	0.00e+00	0	41	0	3117416448	46	3901
2026-01-12 03:24:45.71	149.21	34.18	-37.6	-38.5	21.3	0.00e+00	0	41	0	3126853632	46	3809
2026-01-12 03:24:46.44	149.40	34.06	-37.5	-38.4	21.3	0.00e+00	0	41	0	3132096512	45	3989
2026-01-12 03:24:47.72	149.72	33.84	-37.5	-38.4	21.4	0.00e+00	0	41	0	3141533696	45	3960
2026-01-12 03:24:48.43	149.90	33.73	-37.6	-38.5	21.3	0.00e+00	0	41	0	3145728000	45	4034
2026-01-12 03:24:49.71	150.22	33.51	-37.8	-38.7	21.1	0.00e+00	0	41	0	3155165184	45	4100
2026-01-12 03:24:50.43	150.40	33.39	-37.9	-38.8	21.0	0.00e+00	0	41	0	3160408064	45	4162
2026-01-12 03:24:51.71	150.71	33.18	-38.1	-39.0	20.8	0.00e+00	0	41	0	3169845248	45	4282
2026-01-12 03:24:52.43	150.89	33.06	-38.2	-39.2	20.7	0.00e+00	0	41	0	3175088128	45	4345
2026-01-12 03:24:53.71	151.20	32.85	-38.3	-39.2	20.7	0.00e+00	0	41	0	3184525312	46	4138
2026-01-12 03:24:54.42	151.36	32.74	-38.3	-39.2	20.7	0.00e+00	0	41	0	3189768192	46	4129
2026-01-12 03:24:55.70	151.67	32.53	-38.3	-39.2	20.7	0.00e+00	0	41	0	3199205376	46	4142
2026-01-12 03:24:56.69	151.90	32.37	-38.4	-39.3	20.6	0.00e+00	0	41	0	3205496832	46	4166
2026-01-12 03:24:57.98	152.19	32.16	-38.4	-39.4	20.5	0.00e+00	0	41	0	3214934016	46	4206
2026-01-12 03:24:58.70	152.36	32.04	-38.5	-39.4	20.5	0.00e+00	0	41	0	3220176896	46	4223
2026-01-12 03:24:59.98	152.65	31.83	-38.3	-39.2	20.6	0.00e+00	0	41	0	3229614080	46	4142
2026-01-12 03:25:00.69	152.80	31.72	-38.3	-39.2	20.7	0.00e+00	0	41	0	3234856960	46	4120
2026-01-12 03:25:01.97	153.09	31.51	-38.3	-39.2	20.7	0.00e+00	0	41	0	3244294144	46	4116
2026-01-12 03:25:02.71	153.25	31.39	-38.0	-39.0	20.8	0.00e+00	0	41	0	3249537024	46	4005
2026-01-12 03:25:03.99	153.53	31.19	-38.0	-38.9	20.8	0.00e+00	0	41	0	3257925632	46	3965
2026-01-12 03:25:04.70	153.68	31.07	-38.1	-39.0	20.9	0.00e+00	0	41	0	3264217088	46	4025
2026-01-12 03:25:05.98	153.95	30.87	-38.0	-38.9	20.9	0.00e+00	0	41	0	3272605696	46	3993
2026-01-12 03:25:06.69	154.10	30.76	-38.2	-39.1	20.7	0.00e+00	0	41	0	3277848576	46	4097
2026-01-12 03:25:07.97	154.37	30.55	-38.2	-39.1	20.8	0.00e+00	0	41	0	3287285760	46	4084
2026-01-12 03:25:08.68	154.52	30.44	-38.3	-39.3	20.6	0.00e+00	0	41	0	3292528640	46	4172
2026-01-12 03:25:10.15	154.82	30.21	-38.5	-39.4	20.4	0.00e+00	0	41	0	3303014400	46	4233
2026-01-12 03:25:10.86	154.96	30.10	-38.6	-39.6	20.3	0.00e+00	0	41	0	3308257280	46	4311
2026-01-12 03:25:12.29	155.25	29.87	-38.7	-39.7	20.3	0.00e+00	0	41	0	3318743040	46	4346
2026-01-12 03:25:13.00	155.39	29.76	-38.7	-39.7	20.2	0.00e+00	0	41	0	3323985920	46	4368
2026-01-12 03:25:14.28	155.64	29.56	-38.8	-39.8	19.7	0.00e+00	0	41	0	3332374528	47	4166
2026-01-12 03:25:14.99	155.78	29.45	-38.7	-39.7	20.2	0.00e+00	0	41	0	3337617408	47	4125
2026-01-12 03:25:16.27	156.02	29.26	-38.7	-39.7	20.2	0.00e+00	0	41	0	3347054592	47	4133
2026-01-12 03:25:16.98	156.16	29.15	-38.7	-39.6	20.2	0.00e+00	0	41	0	3352297472	47	4095
2026-01-12 03:25:18.26	156.40	28.95	-38.5	-39.4	20.4	0.00e+00	0	41	0	3361734656	47	3995
2026-01-12 03:25:18.99	156.54	28.84	-38.5	-39.5	20.4	0.00e+00	0	41	0	3366977536	47	4005
2026-01-12 03:25:20.27	156.78	28.64	-38.4	-39.4	20.5	0.00e+00	0	41	0	3376414720	47	3981
2026-01-12 03:25:20.98	156.91	28.54	-38.4	-39.3	20.5	0.00e+00	0	41	0	3380609024	47	3949
2026-01-12 03:25:22.25	157.14	28.34	-38.3	-39.3	20.6	0.00e+00	0	41	0	3390046208	47	3920
2026-01-12 03:25:22.98	157.27	28.23	-38.2	-39.1	20.7	0.00e+00	0	41	0	3395289088	47	3857
2026-01-12 03:25:24.26	157.50	28.04	-38.1	-39.1	20.7	0.00e+00	0	41	0	3404726272	47	3829
2026-01-12 03:25:24.97	157.63	27.93	-38.2	-39.1	20.7	0.00e+00	0	41	0	3409969152	47	3853
2026-01-12 03:25:26.28	157.86	27.74	-38.2	-39.1	20.7	0.00e+00	0	41	0	3419406336	46	4097
2026-01-12 03:25:26.99	157.98	27.63	-38.3	-39.2	20.6	0.00e+00	0	41	0	3424649216	46	4131
2026-01-12 03:25:28.27	158.20	27.44	-38.3	-39.2	20.6	0.00e+00	0	41	0	3434086400	46	4123
2026-01-12 03:25:28.99	158.33	27.34	-38.4	-39.3	20.5	0.00e+00	0	41	0	3439329280	46	4174
2026-01-12 03:25:30.27	158.54	27.15	-38.4	-39.4	20.5	0.00e+00	0	41	0	3447717888	46	4208
2026-01-12 03:25:31.00	158.67	27.04	-38.6	-39.6	20.3	0.00e+00	0	41	0	3454009344	46	4314
2026-01-12 03:25:32.28	158.88	26.85	-38.6	-39.6	20.3	0.00e+00	0	41	0	3462397952	46	4297
2026-01-12 03:25:33.00	159.00	26.75	-38.6	-39.6	20.3	0.00e+00	0	41	0	3467640832	46	4297
2026-01-12 03:25:34.28	159.21	26.56	-38.7	-39.6	20.2	0.00e+00	0	40	0	3477078016	46	4334
2026-01-12 03:25:35.02	159.33	26.46	-38.7	-39.7	20.2	0.00e+00	0	41	0	3482320896	46	4363
2026-01-12 03:25:36.30	159.53	26.27	-38.7	-39.7	20.2	0.00e+00	0	41	0	3491758080	47	4121
2026-01-12 03:25:37.01	159.65	26.17	-38.8	-39.7	20.1	0.00e+00	0	41	0	3497000960	47	4139
2026-01-12 03:25:38.29	159.85	25.99	-38.7	-39.7	20.2	0.00e+00	0	41	0	3506438144	47	4110
2026-01-12 03:25:39.13	159.98	25.87	-38.8	-39.7	20.1	0.00e+00	0	41	0	3511681024	47	4138
2026-01-12 03:25:40.26	160.16	25.71	-38.6	-39.6	20.3	0.00e+00	0	41	0	3520069632	47	4073
2026-01-12 03:25:41.12	160.29	25.59	-38.6	-39.6	20.3	0.00e+00	0	41	0	3526361088	47	4059
2026-01-12 03:25:42.25	160.46	25.43	-38.8	-39.7	20.1	0.00e+00	0	41	0	3534749696	47	4130
2026-01-12 03:25:43.10	160.59	25.31	-38.7	-39.6	20.2	0.00e+00	0	41	0	3541041152	47	4082
2026-01-12 03:25:44.24	160.76	25.15	-38.4	-39.3	20.4	0.00e+00	0	41	0	3548381184	47	3937
2026-01-12 03:25:45.09	160.89	25.03	-38.4	-39.3	20.5	0.00e+00	0	41	0	3554672640	47	3944
2026-01-12 03:25:46.23	161.06	24.87	-38.5	-39.4	20.4	0.00e+00	0	41	0	3563061248	47	4001
2026-01-12 03:25:47.08	161.18	24.75	-38.4	-39.4	20.5	0.00e+00	0	41	0	3569352704	47	3964
2026-01-12 03:25:48.22	161.34	24.60	-38.5	-39.4	20.4	0.00e+00	0	41	0	3577741312	47	3998
2026-01-12 03:25:49.07	161.47	24.48	-38.5	-39.4	20.4	0.00e+00	0	41	0	3584032768	47	3981
2026-01-12 03:25:50.21	161.63	24.33	-38.5	-39.4	20.4	0.00e+00	0	41	0	3592421376	47	3990
2026-01-12 03:25:51.06	161.75	24.21	-38.4	-39.4	20.5	0.00e+00	0	41	0	3598712832	47	3966
2026-01-12 03:25:52.20	161.91	24.06	-38.5	-39.5	20.4	0.00e+00	0	41	0	3607101440	47	4006
2026-01-12 03:25:53.05	162.03	23.94	-38.5	-39.4	20.4	0.00e+00	0	41	0	3612344320	47	3985
2026-01-12 03:25:54.36	162.21	23.76	-38.6	-39.5	20.3	0.00e+00	0	41	0	3621781504	47	4034
2026-01-12 03:25:55.08	162.31	23.67	-38.5	-39.5	20.4	0.00e+00	0	41	0	3627024384	47	4011
2026-01-12 03:25:56.36	162.48	23.50	-38.5	-39.5	20.4	0.00e+00	0	41	0	3636461568	47	4011
2026-01-12 03:25:57.08	162.58	23.40	-38.6	-39.5	20.3	0.00e+00	0	41	0	3641704448	47	4049
2026-01-12 03:25:58.65	162.79	23.19	-38.6	-39.6	20.2	0.00e+00	0	41	0	3653238784	47	4082
2026-01-12 03:25:59.31	162.87	23.11	-38.6	-39.6	20.2	0.00e+00	0	41	0	3657433088	47	4074
2026-01-12 03:26:00.73	163.06	22.92	-38.7	-39.6	20.2	0.00e+00	0	41	0	3667918848	47	4090
2026-01-12 03:26:01.44	163.15	22.83	-38.7	-39.7	20.1	0.00e+00	0	41	0	3673161728	47	4121
2026-01-12 03:26:02.73	163.32	22.66	-38.8	-39.8	20.0	0.00e+00	0	41	0	3682598912	47	4189
2026-01-12 03:26:03.44	163.41	22.57	-38.8	-39.8	20.0	1.48e-05	0	41	0	3687841792	47	4169
2026-01-12 03:26:04.72	163.57	22.40	-38.8	-39.8	20.1	0.00e+00	0	41	0	3697278976	47	4166
2026-01-12 03:26:05.45	163.66	22.31	-38.9	-39.9	20.0	0.00e+00	0	41	0	3702521856	47	4212
2026-01-12 03:26:06.73	163.82	22.15	-38.8	-39.8	20.1	0.00e+00	0	41	0	3710910464	47	4163
2026-01-12 03:26:07.44	163.91	22.06	-38.8	-39.8	20.0	0.00e+00	0	41	0	3716153344	47	4180
2026-01-12 03:26:08.71	164.06	21.89	-38.8	-39.8	20.0	0.00e+00	0	41	0	3725590528	47	4175
2026-01-12 03:26:09.46	164.15	21.80	-38.9	-39.9	19.9	0.00e+00	0	41	0	3730833408	47	4219
2026-01-12 03:26:10.74	164.31	21.64	-38.9	-39.8	20.0	0.00e+00	0	41	0	3740270592	47	4183
2026-01-12 03:26:11.46	164.39	21.55	-38.9	-39.9	19.9	0.00e+00	0	41	0	3745513472	47	4214
2026-01-12 03:26:12.74	164.55	21.39	-38.9	-39.9	20.0	0.00e+00	0	41	0	3754950656	47	4200
2026-01-12 03:26:13.48	164.63	21.30	-39.0	-40.0	19.9	0.00e+00	0	41	0	3760193536	47	4253
2026-01-12 03:26:14.76	164.78	21.14	-39.0	-40.0	19.9	0.00e+00	0	41	0	3769630720	47	4252
2026-01-12 03:26:15.52	164.87	21.04	-39.1	-40.0	19.7	0.00e+00	0	41	0	3774873600	47	4290
2026-01-12 03:26:16.80	165.02	20.89	-39.1	-40.1	19.8	0.00e+00	0	41	0	3784310784	47	4302
2026-01-12 03:26:17.57	165.11	20.79	-39.1	-40.1	19.7	0.00e+00	0	41	0	3789553664	47	4316
2026-01-12 03:26:19.15	165.29	20.60	-39.2	-40.2	20.0	0.00e+00	0	41	0	3801088000	48	4105
2026-01-12 03:26:19.77	165.35	20.53	-39.3	-40.3	19.9	0.00e+00	0	41	0	3805282304	48	4148
2026-01-12 03:26:21.49	165.55	20.32	-39.3	-40.3	19.8	0.00e+00	0	41	0	3817865216	48	4187
2026-01-12 03:26:22.06	165.61	20.25	-39.3	-40.3	19.8	0.00e+00	0	41	0	3822059520	48	4172
2026-01-12 03:26:23.77	165.80	20.04	-39.3	-40.3	19.8	0.00e+00	0	41	0	3834642432	48	4178
2026-01-12 03:26:24.34	165.86	19.98	-39.3	-40.3	19.8	0.00e+00	0	41	0	3838836736	48	4182
2026-01-12 03:26:26.04	166.04	19.77	-39.4	-40.4	19.7	0.00e+00	0	41	0	3850371072	48	4199
2026-01-12 03:26:26.61	166.10	19.71	-39.4	-40.4	19.7	2.27e-04	0	41	0	3854565376	48	4202
2026-01-12 03:26:28.32	166.28	19.51	-39.4	-40.4	19.7	0.00e+00	0	41	0	3867148288	48	4213
2026-01-12 03:26:28.89	166.34	19.44	-39.4	-40.4	19.7	0.00e+00	0	41	0	3871342592	48	4223
2026-01-12 03:26:30.58	166.52	19.24	-39.5	-40.5	19.6	0.00e+00	0	41	0	3883925504	48	4264
2026-01-12 03:26:31.14	166.57	19.18	-39.4	-40.4	19.7	0.00e+00	0	41	0	3887071232	48	4237
2026-01-12 03:26:32.85	166.75	18.98	-39.4	-40.4	19.7	0.00e+00	0	41	0	3899654144	48	4231
2026-01-12 03:26:33.42	166.81	18.92	-39.4	-40.4	19.7	0.00e+00	0	41	0	3903848448	48	4218
2026-01-12 03:26:35.12	166.98	18.72	-39.4	-40.5	19.6	0.00e+00	0	41	0	3916431360	48	4243
2026-01-12 03:26:35.69	167.03	18.66	-39.4	-40.4	19.6	0.00e+00	0	41	0	3920625664	48	4241
2026-01-12 03:26:37.63	167.23	18.44	-39.5	-40.6	19.5	0.00e+00	0	41	0	3934257152	48	4294
2026-01-12 03:26:38.20	167.28	18.37	-39.5	-40.6	19.5	0.00e+00	0	41	0	3938451456	48	4299
2026-01-12 03:26:39.91	167.45	18.18	-39.5	-40.5	19.6	0.00e+00	0	41	0	3951034368	48	4261
2026-01-12 03:26:40.47	167.50	18.12	-39.4	-40.4	19.6	0.00e+00	0	41	0	3955228672	48	4239
2026-01-12 03:26:42.18	167.67	17.93	-39.4	-40.5	19.6	0.00e+00	0	41	0	3966763008	48	4249
2026-01-12 03:26:42.75	167.72	17.86	-39.4	-40.4	19.7	0.00e+00	0	41	0	3972005888	48	4229
2026-01-12 03:26:44.42	167.88	17.68	-39.5	-40.6	19.5	0.00e+00	0	41	0	3983540224	48	4298
2026-01-12 03:26:44.99	167.93	17.62	-39.6	-40.6	19.4	0.00e+00	0	41	0	3987734528	48	4327
2026-01-12 03:26:46.70	168.09	17.43	-39.6	-40.6	19.5	0.00e+00	0	41	0	3999268864	48	4311
2026-01-12 03:26:47.36	168.15	17.36	-39.6	-40.6	19.5	0.00e+00	0	41	0	4004511744	48	4330
2026-01-12 03:26:48.78	168.28	17.20	-39.6	-40.7	19.4	0.00e+00	0	41	0	4014997504	48	4344
2026-01-12 03:26:49.55	168.35	17.12	-39.6	-40.6	19.5	0.00e+00	0	41	0	4020240384	48	4337
2026-01-12 03:26:50.83	168.46	16.98	-39.7	-40.7	19.4	0.00e+00	0	41	0	4029677568	48	4361
2026-01-12 03:26:51.62	168.53	16.90	-39.7	-40.8	19.3	0.00e+00	0	41	0	4034920448	48	4395
2026-01-12 03:26:52.81	168.64	16.77	-39.9	-40.9	19.2	0.00e+00	0	41	0	4044357632	49	4226
2026-01-12 03:26:53.78	168.72	16.67	-39.8	-40.9	19.2	0.00e+00	0	41	0	4050649088	49	4203
2026-01-12 03:26:54.99	168.83	16.54	-39.8	-40.8	19.3	0.00e+00	0	41	0	4060086272	49	4164
2026-01-12 03:26:55.84	168.90	16.45	-39.8	-40.9	19.2	0.00e+00	0	41	0	4065329152	49	4198
2026-01-12 03:26:56.98	169.00	16.33	-39.9	-40.9	19.2	0.00e+00	0	41	0	4073717760	49	4208
2026-01-12 03:26:57.83	169.07	16.24	-39.9	-41.0	19.1	0.00e+00	0	41	0	4080009216	49	4251
2026-01-12 03:26:58.97	169.17	16.12	-40.0	-41.1	19.0	0.00e+00	0	41	0	4088397824	49	4302
2026-01-12 03:26:59.82	169.24	16.03	-40.0	-41.1	19.0	0.00e+00	0	41	0	4094689280	49	4314
2026-01-12 03:27:00.96	169.34	15.92	-40.0	-41.1	19.0	0.00e+00	0	41	0	4103077888	49	4313
2026-01-12 03:27:01.81	169.41	15.83	-40.0	-41.1	19.0	0.00e+00	0	41	0	4109369344	49	4312
2026-01-12 03:27:02.95	169.50	15.71	-40.1	-41.2	18.9	0.00e+00	0	41	0	4116709376	49	4372
2026-01-12 03:27:03.80	169.57	15.62	-40.1	-41.2	18.9	0.00e+00	0	41	0	4123000832	49	4344
2026-01-12 03:27:04.94	169.67	15.51	-40.2	-41.2	18.8	0.00e+00	0	41	0	4131389440	49	4384
2026-01-12 03:27:05.79	169.74	15.42	-40.2	-41.2	18.8	0.00e+00	0	41	0	4137680896	49	4385
2026-01-12 03:27:06.99	169.83	15.30	-40.1	-41.2	18.8	0.00e+00	0	41	0	4146069504	49	4381
2026-01-12 03:27:07.84	169.90	15.21	-40.1	-41.2	18.9	0.00e+00	0	41	0	4152360960	49	4358
2026-01-12 03:27:08.98	169.99	15.10	-40.1	-41.2	18.9	0.00e+00	0	41	0	4160749568	49	4354
2026-01-12 03:27:09.83	170.06	15.01	-40.1	-41.2	18.9	0.00e+00	0	41	0	4167041024	49	4366
2026-01-12 03:27:10.97	170.15	14.90	-40.1	-41.2	18.9	0.00e+00	0	41	0	4175429632	49	4377
2026-01-12 03:27:11.82	170.21	14.82	-40.1	-41.2	18.9	0.00e+00	0	41	0	4181721088	49	4379
2026-01-12 03:27:12.96	170.30	14.70	-40.3	-41.4	18.7	0.00e+00	0	41	0	4189061120	50	4201
2026-01-12 03:27:13.81	170.37	14.62	-40.2	-41.3	18.8	0.00e+00	0	41	0	4195352576	50	4159
2026-01-12 03:27:14.95	170.46	14.51	-40.2	-41.3	18.7	0.00e+00	0	41	0	4203741184	50	4190
2026-01-12 03:27:15.80	170.52	14.42	-40.2	-41.3	18.8	0.00e+00	0	41	0	4210032640	50	4167
2026-01-12 03:27:16.94	170.61	14.31	-40.2	-41.4	18.7	0.00e+00	0	41	0	4218421248	50	4204
2026-01-12 03:27:17.79	170.67	14.23	-40.3	-41.5	18.6	0.00e+00	0	41	0	4223664128	50	4252
2026-01-12 03:27:18.93	170.76	14.12	-40.3	-41.5	18.6	0.00e+00	0	41	0	4232052736	50	4259
2026-01-12 03:27:19.78	170.82	14.04	-40.4	-41.5	18.5	0.00e+00	0	41	0	4238344192	50	4286
2026-01-12 03:27:20.91	170.90	13.93	-40.4	-41.6	18.5	0.00e+00	0	41	0	4246732800	50	4303
2026-01-12 03:27:21.76	170.96	13.85	-40.5	-41.7	18.4	0.00e+00	0	41	0	4253024256	50	4388
2026-01-12 03:27:22.90	171.05	13.74	-40.5	-41.7	18.4	0.00e+00	0	41	0	4261412864	50	4353
2026-01-12 03:27:23.75	171.11	13.66	-40.6	-41.8	18.3	0.00e+00	0	41	0	4267704320	50	4419
2026-01-12 03:27:24.89	171.19	13.55	-40.6	-41.8	18.3	0.00e+00	0	41	0	4275044352	50	4419
2026-01-12 03:27:25.74	171.25	13.47	-40.6	-41.8	18.3	0.00e+00	0	41	0	4281335808	50	4428
2026-01-12 03:27:27.09	171.35	13.34	-40.7	-41.9	18.2	0.00e+00	0	41	0	4291821568	50	4479
2026-01-12 03:27:28.20	171.43	13.24	-40.8	-42.0	18.1	0.00e+00	0	41	0	4299161600	50	4517
2026-01-12 03:27:29.05	171.49	13.16	-40.9	-42.1	18.0	0.00e+00	0	41	0	4305453056	51	4328
2026-01-12 03:27:30.19	171.57	13.05	-40.8	-42.1	18.0	0.00e+00	0	41	0	4313841664	51	4302
2026-01-12 03:27:31.04	171.62	12.97	-40.9	-42.1	18.0	0.00e+00	0	41	0	4320133120	51	4301
2026-01-12 03:27:32.18	171.70	12.87	-40.9	-42.1	18.0	0.00e+00	0	41	0	4328521728	51	4323
2026-01-12 03:27:33.03	171.76	12.79	-41.0	-42.2	17.9	0.00e+00	0	41	0	4333764608	51	4369
2026-01-12 03:27:34.17	171.84	12.68	-40.9	-42.1	18.0	0.00e+00	0	41	0	4342153216	51	4329
2026-01-12 03:27:35.02	171.90	12.60	-40.8	-42.1	18.1	0.00e+00	0	41	0	4348444672	51	4293
2026-01-12 03:27:36.16	171.97	12.50	-40.9	-42.1	17.9	0.00e+00	0	41	0	4356833280	51	4335
2026-01-12 03:27:37.01	172.03	12.42	-41.0	-42.2	17.9	0.00e+00	0	41	0	4363124736	51	4370
2026-01-12 03:27:38.14	172.11	12.32	-41.0	-42.3	17.8	0.00e+00	0	41	0	4371513344	51	4426
2026-01-12 03:27:39.12	172.17	12.23	-41.0	-42.2	17.8	0.00e+00	0	41	0	4377804800	51	4391
2026-01-12 03:27:40.12	172.24	12.14	-41.0	-42.3	17.8	0.00e+00	0	41	0	4385144832	51	4402
2026-01-12 03:27:41.11	172.30	12.05	-41.0	-42.3	16.6	0.00e+00	0	41	0	4392484864	51	4413
2026-01-12 03:27:42.11	172.37	11.96	-41.0	-42.3	17.7	0.00e+00	0	41	0	4399824896	51	4440
2026-01-12 03:27:43.10	172.43	11.88	-41.0	-42.4	17.7	0.00e+00	0	41	0	4407164928	51	4456
2026-01-12 03:27:44.10	172.49	11.79	-41.1	-42.5	17.6	5.45e-04	0	41	0	4414504960	51	4515
2026-01-12 03:27:45.09	172.56	11.70	-41.0	-42.4	17.6	0.00e+00	0	41	0	4420796416	51	4488
2026-01-12 03:27:46.08	172.62	11.61	-41.0	-42.4	17.6	0.00e+00	0	41	0	4428136448	51	4490
2026-01-12 03:27:47.08	172.68	11.52	-41.0	-42.4	17.7	3.12e-03	0	41	0	4435476480	51	4473
2026-01-12 03:27:48.07	172.75	11.44	-41.0	-42.5	17.6	0.00e+00	0	41	0	4442816512	51	4518
2026-01-12 03:27:49.07	172.81	11.35	-41.0	-42.5	17.6	0.00e+00	0	41	0	4450156544	51	4524
2026-01-12 03:27:50.06	172.87	11.26	-41.0	-42.5	17.5	0.00e+00	0	41	0	4457496576	52	4280
2026-01-12 03:27:51.07	172.93	11.17	-41.0	-42.5	17.4	0.00e+00	0	41	0	4464836608	52	4279
2026-01-12 03:27:52.07	172.99	11.09	-41.1	-42.5	17.4	0.00e+00	0	41	0	4472176640	52	4287
2026-01-12 03:27:53.06	173.05	11.00	-41.1	-42.5	17.5	0.00e+00	0	41	0	4478468096	52	4279
2026-01-12 03:27:54.15	173.12	10.91	-41.1	-42.5	17.5	0.00e+00	0	41	0	4486856704	52	4272
2026-01-12 03:27:55.04	173.17	10.83	-41.1	-42.5	17.5	0.00e+00	0	41	0	4493148160	52	4273
2026-01-12 03:27:56.18	173.24	10.73	-41.0	-42.5	17.4	0.00e+00	0	41	0	4501536768	52	4255
2026-01-12 03:27:57.03	173.29	10.66	-41.2	-42.6	17.3	0.00e+00	0	41	0	4507828224	52	4321
2026-01-12 03:27:58.16	173.36	10.57	-41.1	-42.6	17.4	0.00e+00	0	41	0	4516216832	52	4298
2026-01-12 03:27:59.02	173.41	10.49	-41.1	-42.5	17.4	0.00e+00	0	41	0	4521459712	52	4275
2026-01-12 03:28:00.15	173.48	10.40	-41.3	-42.7	17.3	0.00e+00	0	41	0	4529848320	52	4359
2026-01-12 03:28:01.23	173.54	10.31	-41.2	-42.6	17.3	0.00e+00	0	41	0	4538236928	52	4339
2026-01-12 03:28:02.08	173.59	10.24	-41.2	-42.7	17.3	0.00e+00	0	41	0	4543479808	52	4343
2026-01-12 03:28:03.57	173.67	10.11	-41.3	-42.7	17.3	0.00e+00	0	41	0	4555014144	52	4355
2026-01-12 03:28:04.28	173.72	10.05	-41.3	-42.7	17.3	0.00e+00	0	41	0	4560257024	52	4352
2026-01-12 03:28:05.56	173.79	9.95	-41.4	-42.8	17.2	0.00e+00	0	41	0	4569694208	52	4399
2026-01-12 03:28:06.27	173.83	9.89	-41.4	-42.8	17.2	0.00e+00	0	41	0	4573888512	52	4421
2026-01-12 03:28:07.55	173.90	9.78	-41.4	-42.9	17.1	0.00e+00	0	41	0	4583325696	52	4448
2026-01-12 03:28:08.27	173.94	9.72	-41.4	-42.8	17.1	0.00e+00	0	41	0	4588568576	52	4433
2026-01-12 03:28:09.55	174.01	9.62	-41.5	-42.9	17.0	0.00e+00	0	41	0	4598005760	52	4465
2026-01-12 03:28:10.28	174.05	9.56	-41.5	-43.0	17.0	0.00e+00	0	41	0	4603248640	52	4503
2026-01-12 03:28:11.56	174.12	9.45	-41.5	-43.0	16.9	0.00e+00	0	41	0	4612685824	52	4519
