passes_logs/2026/01/12/T1/T1__20260112_034550_AQUA_rec.log

#Pass ID: 20260112_034550_AQUA
#Satellite: AQUA
#Configuration: AQUA
#almurnet v.1.7.20251203
#Start time: 2026-01-12 03:45:50

#Version: 2.0.20230620
#Station: T1
#Location: 37.570604 lon 55.790049 lat
#TLE: 1 27424U 02022A   26011.34052177  .00001139  00000+0  23789-3 0  9999
#TLE: 2 27424  98.4078 337.7066 0002035  82.6124  44.5301 14.61815662260355

#Time	Az	El	Level	Level2	SNR	BER	BlckErr	Temp	State	Recorded	gain1	gain2
2026-01-12 03:45:50.86	354.25	5.02	-49.8	-71.8	3.8	7.44e-01	0	39	0	0	70	47140
2026-01-12 03:45:51.85	354.12	5.06	-49.7	-71.7	3.8	7.47e-01	0	39	104	0	70	46934
2026-01-12 03:45:52.85	353.98	5.11	-49.7	-71.7	3.8	7.44e-01	0	39	104	0	70	47012
2026-01-12 03:45:53.84	353.84	5.15	-49.7	-71.7	3.8	7.47e-01	0	39	104	0	70	47008
2026-01-12 03:45:54.83	353.70	5.19	-49.6	-71.7	3.8	7.43e-01	0	39	104	0	70	46845
2026-01-12 03:45:55.83	353.56	5.24	-49.6	-71.7	3.8	7.46e-01	0	39	104	0	70	46807
2026-01-12 03:45:56.82	353.42	5.28	-49.7	-71.7	3.8	7.45e-01	0	39	104	0	70	46845
2026-01-12 03:45:57.81	353.28	5.32	-49.6	-71.7	3.8	7.45e-01	0	39	104	0	70	46981
2026-01-12 03:45:58.81	353.14	5.37	-49.7	-71.7	3.8	7.45e-01	0	39	104	0	70	46868
2026-01-12 03:45:59.80	353.00	5.41	-49.6	-71.7	3.8	7.45e-01	0	39	104	0	70	46895
2026-01-12 03:46:00.79	352.86	5.45	-49.6	-71.7	3.8	7.45e-01	0	39	104	0	70	46911
2026-01-12 03:46:01.79	352.72	5.50	-49.7	-71.7	3.8	7.47e-01	0	39	104	0	70	46921
2026-01-12 03:46:02.78	352.58	5.54	-49.6	-71.7	3.8	7.46e-01	0	39	104	0	70	46884
2026-01-12 03:46:03.77	352.44	5.58	-49.7	-71.7	3.8	7.48e-01	0	40	104	0	70	47040
2026-01-12 03:46:04.77	352.29	5.62	-49.7	-71.7	3.8	7.48e-01	0	40	104	0	70	46965
2026-01-12 03:46:05.76	352.15	5.67	-49.7	-71.7	3.8	7.48e-01	0	40	104	0	70	47002
2026-01-12 03:46:06.75	352.01	5.71	-49.6	-71.7	3.8	7.44e-01	0	40	104	0	70	46814
2026-01-12 03:46:07.75	351.86	5.75	-49.7	-71.7	3.8	7.42e-01	0	40	104	0	70	46973
2026-01-12 03:46:08.74	351.72	5.80	-49.6	-71.7	3.8	7.44e-01	0	40	104	0	70	46949
2026-01-12 03:46:09.73	351.57	5.84	-49.6	-71.7	3.8	7.46e-01	0	40	104	0	70	46901
2026-01-12 03:46:10.73	351.43	5.88	-49.7	-71.7	3.8	7.46e-01	0	40	104	0	70	46950
2026-01-12 03:46:11.72	351.28	5.92	-49.7	-71.7	3.8	7.48e-01	0	40	104	0	70	46803
2026-01-12 03:46:12.71	351.13	5.96	-49.6	-71.7	3.8	7.49e-01	0	40	104	0	70	46884
2026-01-12 03:46:13.71	350.99	6.01	-49.6	-71.7	3.8	7.45e-01	0	40	104	0	70	46860
2026-01-12 03:46:14.70	350.84	6.05	-49.6	-71.7	3.8	7.48e-01	0	40	104	0	70	46873
2026-01-12 03:46:15.69	350.69	6.09	-49.6	-71.7	3.8	7.48e-01	0	40	104	0	70	46910
2026-01-12 03:46:16.68	350.54	6.13	-49.6	-71.7	3.8	7.45e-01	0	40	104	0	70	46887
2026-01-12 03:46:17.68	350.39	6.17	-49.6	-71.7	3.8	7.46e-01	0	40	104	0	70	46913
2026-01-12 03:46:18.67	350.24	6.22	-49.6	-71.7	3.8	7.46e-01	0	40	104	0	70	47016
2026-01-12 03:46:19.66	350.10	6.26	-49.6	-71.7	3.8	7.47e-01	0	40	104	0	70	46929
2026-01-12 03:46:20.66	349.94	6.30	-49.6	-71.7	3.8	7.43e-01	0	40	104	0	70	46838
2026-01-12 03:46:21.65	349.79	6.34	-49.6	-71.7	3.8	7.46e-01	0	40	104	0	70	46973
2026-01-12 03:46:22.64	349.64	6.38	-49.6	-71.7	3.8	7.47e-01	0	40	104	0	70	46947
2026-01-12 03:46:23.64	349.49	6.42	-49.6	-71.7	3.8	7.42e-01	0	40	104	0	70	46930
2026-01-12 03:46:24.63	349.34	6.46	-49.5	-71.7	3.8	7.45e-01	0	40	104	0	70	46858
2026-01-12 03:46:25.62	349.19	6.50	-49.6	-71.7	3.8	7.44e-01	0	40	104	0	70	46827
2026-01-12 03:46:26.62	349.03	6.55	-49.6	-71.7	3.8	7.44e-01	0	40	104	0	70	46845
2026-01-12 03:46:27.61	348.88	6.59	-49.5	-71.7	3.8	7.45e-01	0	41	104	0	70	46856
2026-01-12 03:46:28.60	348.72	6.63	-49.6	-71.7	3.8	7.46e-01	0	41	104	0	70	46849
2026-01-12 03:46:29.60	348.57	6.67	-49.6	-71.7	3.8	7.45e-01	0	40	104	0	70	46830
2026-01-12 03:46:30.59	348.41	6.71	-49.5	-71.7	3.8	7.44e-01	0	41	104	0	70	46810
2026-01-12 03:46:31.58	348.26	6.75	-49.6	-71.7	3.8	7.46e-01	0	40	104	0	70	46780
2026-01-12 03:46:32.58	348.10	6.79	-49.5	-71.7	3.8	7.45e-01	0	41	104	0	70	46784
2026-01-12 03:46:33.57	347.94	6.83	-49.6	-71.7	3.8	7.45e-01	0	41	104	0	70	46810
2026-01-12 03:46:34.56	347.79	6.87	-49.6	-71.7	3.8	7.45e-01	0	41	104	0	70	46741
2026-01-12 03:46:35.56	347.63	6.91	-49.5	-71.7	3.8	7.45e-01	0	41	104	0	70	46842
2026-01-12 03:46:36.55	347.47	6.95	-49.5	-71.7	3.8	7.46e-01	0	40	104	0	70	46785
2026-01-12 03:46:37.55	347.31	6.99	-49.5	-71.7	3.8	7.47e-01	0	41	104	0	70	46803
2026-01-12 03:46:38.54	347.15	7.03	-49.5	-71.7	3.8	7.48e-01	0	41	104	0	70	46812
2026-01-12 03:46:39.53	346.99	7.07	-49.5	-71.7	3.8	7.44e-01	0	41	104	0	70	46754
2026-01-12 03:46:40.52	346.83	7.10	-49.5	-71.7	3.8	7.48e-01	0	41	104	0	70	46885
2026-01-12 03:46:41.52	346.67	7.14	-49.5	-71.7	3.8	7.44e-01	0	41	104	0	70	46825
2026-01-12 03:46:42.51	346.51	7.18	-49.5	-71.7	3.8	7.47e-01	0	40	104	0	70	46766
2026-01-12 03:46:43.50	346.35	7.22	-49.5	-71.7	3.8	7.44e-01	0	41	104	0	70	46842
2026-01-12 03:46:44.50	346.19	7.26	-49.5	-71.7	3.8	7.46e-01	0	41	104	0	70	46809
2026-01-12 03:46:45.49	346.03	7.30	-49.5	-71.7	3.8	7.43e-01	0	41	104	0	70	46867
2026-01-12 03:46:46.48	345.86	7.34	-49.6	-71.7	3.8	7.46e-01	0	41	104	0	70	46834
2026-01-12 03:46:47.48	345.70	7.38	-49.5	-71.7	3.8	7.48e-01	0	41	104	0	70	46850
2026-01-12 03:46:48.47	345.54	7.41	-49.5	-71.7	3.8	7.46e-01	0	41	104	0	70	46769
2026-01-12 03:46:49.47	345.37	7.45	-49.5	-71.7	3.8	7.45e-01	0	41	104	0	70	46823
2026-01-12 03:46:50.46	345.21	7.49	-49.5	-71.7	3.8	7.46e-01	0	41	104	0	70	46751
2026-01-12 03:46:51.45	345.04	7.53	-49.5	-71.6	3.8	7.41e-01	0	41	104	0	70	46486
2026-01-12 03:46:52.45	344.88	7.56	-49.5	-71.6	3.8	7.50e-01	0	41	104	0	70	46376
2026-01-12 03:46:53.44	344.71	7.60	-49.5	-71.6	3.8	7.47e-01	0	41	104	0	70	46501
2026-01-12 03:46:54.43	344.54	7.64	-49.5	-71.7	3.8	7.46e-01	0	41	104	0	70	46637
2026-01-12 03:46:55.43	344.37	7.68	-49.5	-71.7	3.8	7.46e-01	0	41	104	0	70	46754
2026-01-12 03:46:56.42	344.21	7.71	-49.5	-71.7	3.8	7.46e-01	0	41	104	0	70	46718
2026-01-12 03:46:57.41	344.04	7.75	-49.5	-71.7	3.8	7.46e-01	0	41	104	0	70	46632
2026-01-12 03:46:58.41	343.87	7.79	-49.5	-71.6	3.8	7.45e-01	0	41	104	0	70	46378
2026-01-12 03:46:59.40	343.70	7.82	-49.6	-71.6	3.8	7.47e-01	0	41	104	0	70	46192
2026-01-12 03:47:00.39	343.53	7.86	-49.5	-71.6	3.8	7.43e-01	0	41	104	0	70	46354
2026-01-12 03:47:01.39	343.36	7.90	-49.5	-71.6	3.8	7.48e-01	0	41	104	0	70	46444
2026-01-12 03:47:02.38	343.19	7.93	-49.6	-71.7	3.8	7.43e-01	0	41	104	0	70	46781
2026-01-12 03:47:03.37	343.02	7.97	-49.5	-71.7	3.8	7.44e-01	0	41	104	0	70	46631
2026-01-12 03:47:04.37	342.85	8.00	-49.6	-71.6	3.8	7.45e-01	0	41	104	0	70	46324
2026-01-12 03:47:05.36	342.68	8.04	-49.6	-71.4	3.8	7.47e-01	0	41	104	0	70	45428
2026-01-12 03:47:06.35	342.51	8.07	-49.5	-71.2	3.8	7.47e-01	0	41	104	0	70	44285
2026-01-12 03:47:07.34	342.33	8.11	-49.6	-71.1	3.8	7.46e-01	0	41	104	0	70	43472
2026-01-12 03:47:08.34	342.16	8.14	-49.6	-71.0	3.8	7.45e-01	0	41	104	0	70	43201
2026-01-12 03:47:09.33	341.99	8.18	-49.5	-71.0	3.8	7.48e-01	0	41	104	0	70	42953
2026-01-12 03:47:10.32	341.81	8.21	-49.5	-70.9	3.8	7.45e-01	0	41	104	0	70	42520
2026-01-12 03:47:11.32	341.64	8.25	-49.5	-70.7	3.8	7.48e-01	0	41	104	0	70	41918
2026-01-12 03:47:12.31	341.46	8.28	-49.5	-70.7	3.8	7.45e-01	0	41	104	0	70	41468
2026-01-12 03:47:13.30	341.29	8.31	-49.6	-70.6	3.8	7.46e-01	0	41	104	0	70	41410
2026-01-12 03:47:14.29	341.11	8.35	-49.5	-70.8	3.8	7.48e-01	0	41	104	0	70	42211
2026-01-12 03:47:15.29	340.93	8.38	-49.6	-71.0	3.8	7.44e-01	0	41	104	0	70	43327
2026-01-12 03:47:16.28	340.76	8.41	-49.6	-71.1	3.8	7.47e-01	0	41	104	0	70	43857
2026-01-12 03:47:17.27	340.58	8.45	-49.6	-71.1	3.8	7.45e-01	0	41	104	0	70	43485
2026-01-12 03:47:18.26	340.40	8.48	-49.6	-71.0	3.8	7.44e-01	0	42	104	0	70	43011
2026-01-12 03:47:19.26	340.22	8.51	-49.6	-71.0	3.8	7.45e-01	0	41	104	0	70	43246
2026-01-12 03:47:20.25	340.05	8.55	-49.6	-71.0	3.8	7.48e-01	0	42	104	0	70	43112
2026-01-12 03:47:21.24	339.87	8.58	-49.6	-71.0	3.8	7.46e-01	0	41	104	0	70	43196
2026-01-12 03:47:22.22	339.69	8.61	-49.6	-71.2	3.8	7.45e-01	0	41	104	0	70	44071
2026-01-12 03:47:23.21	339.51	8.64	-49.6	-71.6	3.8	7.45e-01	0	41	104	0	70	46154
2026-01-12 03:47:24.21	339.33	8.67	-49.6	-71.3	3.8	7.46e-01	0	42	104	0	70	44796
2026-01-12 03:47:25.20	339.15	8.71	-49.5	-69.8	3.8	7.44e-01	0	41	104	0	70	37599
2026-01-12 03:47:26.19	338.97	8.74	-49.5	-68.2	3.9	7.43e-01	0	41	104	0	70	31266
2026-01-12 03:47:27.18	338.79	8.77	-49.5	-67.1	4.6	7.36e-01	0	41	104	0	70	27506
2026-01-12 03:47:28.18	338.60	8.80	-49.5	-65.9	5.1	7.06e-01	0	41	0	0	70	23938
2026-01-12 03:47:29.17	338.42	8.83	-49.4	-65.0	5.7	6.94e-01	0	41	0	0	70	21670
2026-01-12 03:47:30.16	338.24	8.86	-49.4	-63.8	6.7	6.71e-01	0	42	0	2097152	70	18738
2026-01-12 03:47:31.16	338.06	8.89	-49.3	-62.6	7.8	6.50e-01	0	42	0	3670016	70	16414
2026-01-12 03:47:32.15	337.87	8.92	-49.2	-61.3	9.1	6.29e-01	0	42	0	5767168	70	14075
2026-01-12 03:47:33.14	337.69	8.95	-49.0	-59.2	11.2	6.14e-01	0	41	0	7340032	70	11060
2026-01-12 03:47:34.13	337.50	8.98	-48.5	-56.6	13.9	6.03e-01	0	41	0	9437184	69	8683
2026-01-12 03:47:35.13	337.32	9.01	-47.6	-53.9	16.5	6.05e-01	0	42	0	11010048	67	7160
2026-01-12 03:47:36.12	337.13	9.04	-47.2	-52.7	17.8	6.04e-01	0	42	0	13107200	66	6641
2026-01-12 03:47:37.11	336.95	9.07	-48.8	-58.6	11.7	6.11e-01	0	42	0	15204352	68	11682
2026-01-12 03:47:38.11	336.76	9.10	-46.4	-51.0	19.4	6.05e-01	0	42	0	16777216	64	6091
2026-01-12 03:47:39.14	336.57	9.13	-49.0	-60.3	9.0	6.25e-01	0	42	0	18874368	68	14145
2026-01-12 03:47:40.13	336.38	9.15	-46.2	-50.6	19.8	6.03e-01	0	42	0	20447232	63	6166
2026-01-12 03:47:41.20	336.18	9.18	-45.7	-50.0	20.4	6.04e-01	0	41	0	22544384	63	5751
2026-01-12 03:47:42.11	336.01	9.21	-45.5	-49.9	20.5	6.03e-01	0	42	0	24117248	63	5669
2026-01-12 03:47:43.15	335.81	9.24	-45.4	-49.9	20.5	6.04e-01	0	42	0	26214400	62	5999
2026-01-12 03:47:44.29	335.59	9.27	-45.4	-49.9	20.5	6.01e-01	0	42	0	28311552	62	5997
2026-01-12 03:47:45.14	335.43	9.29	-45.2	-49.9	20.4	6.04e-01	0	41	0	29884416	62	6045
2026-01-12 03:47:46.47	335.18	9.33	-45.4	-49.9	20.4	6.03e-01	0	42	0	32505856	62	6053
2026-01-12 03:47:47.18	335.04	9.35	-45.4	-49.8	20.6	6.03e-01	0	41	0	33554432	62	5964
2026-01-12 03:47:48.46	334.79	9.38	-45.8	-49.8	20.6	6.03e-01	0	42	0	36175872	62	5952
2026-01-12 03:47:49.17	334.66	9.40	-46.0	-49.8	20.5	6.03e-01	0	42	0	37748736	62	5984
2026-01-12 03:47:50.72	334.36	9.44	-46.2	-49.8	20.6	6.01e-01	0	42	0	40370176	63	5636
2026-01-12 03:47:51.43	334.22	9.46	-46.2	-49.8	20.6	6.05e-01	0	42	0	41943040	63	5604
2026-01-12 03:47:52.70	333.98	9.49	-46.1	-49.8	20.6	6.04e-01	0	42	0	44040192	63	5593
2026-01-12 03:47:53.41	333.84	9.51	-46.0	-49.8	20.6	6.03e-01	0	42	0	45613056	63	5604
2026-01-12 03:47:54.69	333.59	9.54	-45.9	-49.8	20.6	6.03e-01	0	42	0	47710208	63	5622
2026-01-12 03:47:55.41	333.45	9.56	-45.9	-49.8	20.5	6.05e-01	0	42	0	49283072	63	5653
2026-01-12 03:47:56.68	333.21	9.59	-46.1	-49.8	20.5	6.02e-01	0	42	0	51380224	63	5643
2026-01-12 03:47:57.39	333.07	9.60	-46.1	-49.8	20.6	6.05e-01	0	42	0	52953088	63	5607
2026-01-12 03:47:58.67	332.82	9.63	-46.1	-49.7	20.7	6.02e-01	0	41	0	55574528	63	5537
2026-01-12 03:47:59.38	332.68	9.65	-46.1	-49.6	20.8	6.02e-01	0	42	0	56623104	63	5500
2026-01-12 03:48:00.66	332.43	9.68	-46.0	-49.6	20.8	6.04e-01	0	42	0	59244544	63	5478
2026-01-12 03:48:01.47	332.27	9.70	-46.0	-49.6	20.8	6.05e-01	0	42	0	60817408	63	5500
2026-01-12 03:48:02.60	332.05	9.72	-45.9	-49.7	20.7	6.06e-01	0	42	0	62914560	63	5570
2026-01-12 03:48:03.63	331.84	9.75	-45.9	-49.8	20.6	6.05e-01	0	42	0	64487424	63	5601
2026-01-12 03:48:04.62	331.65	9.77	-45.9	-49.8	20.6	6.04e-01	0	42	0	66584576	63	5612
2026-01-12 03:48:05.62	331.45	9.79	-46.0	-49.7	20.6	6.03e-01	0	42	0	68157440	63	5576
2026-01-12 03:48:06.61	331.25	9.81	-46.0	-49.6	20.8	6.02e-01	0	42	0	70254592	63	5518
2026-01-12 03:48:07.61	331.05	9.83	-46.1	-49.6	20.8	6.04e-01	0	42	0	72351744	63	5478
2026-01-12 03:48:08.60	330.86	9.85	-46.3	-49.7	20.7	6.02e-01	0	42	0	73924608	63	5535
2026-01-12 03:48:09.60	330.66	9.87	-46.2	-49.6	20.8	6.03e-01	0	42	0	76021760	63	5471
2026-01-12 03:48:10.59	330.46	9.89	-46.1	-49.6	20.8	6.04e-01	0	42	0	77594624	63	5474
2026-01-12 03:48:11.58	330.26	9.91	-46.0	-49.6	20.8	6.02e-01	0	42	0	79691776	63	5493
2026-01-12 03:48:12.58	330.06	9.93	-45.9	-49.6	20.8	6.02e-01	0	42	0	81264640	63	5507
2026-01-12 03:48:13.57	329.87	9.95	-45.9	-49.6	20.8	6.04e-01	0	42	0	83361792	63	5503
2026-01-12 03:48:14.57	329.66	9.97	-46.0	-49.8	20.7	6.03e-01	0	42	0	84934656	63	5602
2026-01-12 03:48:15.57	329.46	9.99	-46.1	-49.7	20.7	6.05e-01	0	42	0	87031808	63	5552
2026-01-12 03:48:16.56	329.26	10.01	-46.1	-49.7	20.7	6.02e-01	0	42	0	89128960	63	5570
2026-01-12 03:48:17.56	329.06	10.03	-46.3	-49.8	20.6	6.02e-01	0	42	0	90701824	63	5646
2026-01-12 03:48:18.55	328.86	10.04	-46.4	-49.8	20.6	6.05e-01	0	42	0	92798976	63	5629
2026-01-12 03:48:19.55	328.66	10.06	-46.2	-49.6	20.8	6.04e-01	0	42	0	94371840	63	5514
2026-01-12 03:48:20.54	328.46	10.08	-46.1	-49.6	20.8	6.02e-01	0	42	0	96468992	63	5507
2026-01-12 03:48:21.54	328.26	10.09	-46.1	-49.7	20.8	6.03e-01	0	42	0	98041856	63	5550
2026-01-12 03:48:22.53	328.06	10.11	-46.1	-49.8	20.6	6.00e-01	0	42	0	100139008	63	5632
2026-01-12 03:48:23.53	327.86	10.13	-46.1	-49.8	20.6	6.04e-01	0	42	0	101711872	63	5656
2026-01-12 03:48:24.52	327.65	10.14	-46.0	-49.7	20.8	6.05e-01	0	42	0	103809024	63	5546
2026-01-12 03:48:25.52	327.45	10.16	-46.2	-49.8	20.7	6.04e-01	0	42	0	105906176	63	5613
2026-01-12 03:48:26.51	327.25	10.17	-46.3	-49.7	20.7	6.03e-01	0	42	0	107479040	63	5588
2026-01-12 03:48:27.51	327.05	10.19	-46.4	-49.7	20.7	6.02e-01	0	42	0	109576192	63	5567
2026-01-12 03:48:28.50	326.84	10.20	-46.3	-49.8	20.7	6.04e-01	0	42	0	111149056	63	5610
2026-01-12 03:48:29.49	326.64	10.22	-46.0	-49.6	20.8	6.03e-01	0	42	0	113246208	63	5478
2026-01-12 03:48:30.49	326.44	10.23	-45.7	-49.6	20.8	6.03e-01	0	42	0	114819072	63	5465
2026-01-12 03:48:31.53	326.22	10.25	-45.6	-49.8	20.7	6.06e-01	0	42	0	116916224	63	5597
2026-01-12 03:48:32.52	326.02	10.26	-45.5	-49.7	20.8	6.04e-01	0	42	0	119013376	62	5867
2026-01-12 03:48:33.52	325.82	10.27	-45.6	-49.7	20.7	6.04e-01	0	42	0	120586240	62	5911
2026-01-12 03:48:34.51	325.61	10.29	-45.6	-49.6	20.8	6.04e-01	0	42	0	122683392	62	5837
2026-01-12 03:48:35.51	325.41	10.30	-45.7	-49.8	20.6	6.03e-01	0	42	0	124256256	62	5938
2026-01-12 03:48:36.50	325.20	10.31	-45.7	-49.7	20.7	6.04e-01	0	42	0	126353408	62	5895
2026-01-12 03:48:37.49	325.00	10.32	-45.6	-49.6	20.8	6.05e-01	0	42	0	127926272	62	5813
2026-01-12 03:48:38.49	324.79	10.33	-45.5	-49.7	20.7	6.02e-01	0	42	0	130023424	62	5878
2026-01-12 03:48:39.49	324.59	10.34	-45.5	-49.7	20.7	6.03e-01	0	42	0	132120576	62	5857
2026-01-12 03:48:40.48	324.38	10.36	-45.3	-49.6	20.8	6.06e-01	0	42	0	133693440	62	5808
2026-01-12 03:48:41.47	324.18	10.37	-45.3	-49.7	20.7	6.04e-01	0	42	0	135790592	62	5862
2026-01-12 03:48:42.47	323.97	10.38	-45.3	-49.6	20.7	6.05e-01	0	42	0	137363456	62	5845
2026-01-12 03:48:43.47	323.76	10.39	-45.1	-49.5	20.9	6.03e-01	0	42	0	139460608	62	5755
2026-01-12 03:48:44.46	323.56	10.40	-45.2	-49.6	20.8	6.03e-01	0	42	0	141033472	62	5805
2026-01-12 03:48:45.45	323.35	10.40	-45.2	-49.6	20.9	6.03e-01	0	42	0	143130624	62	5797
2026-01-12 03:48:46.45	323.15	10.41	-45.4	-49.6	20.8	6.01e-01	0	42	0	144703488	62	5805
2026-01-12 03:48:47.44	322.94	10.42	-45.6	-49.7	20.7	6.03e-01	0	42	0	146800640	62	5910
2026-01-12 03:48:48.44	322.73	10.43	-45.9	-49.7	20.7	6.03e-01	0	42	0	148897792	62	5869
2026-01-12 03:48:49.43	322.53	10.44	-46.1	-49.6	20.9	6.04e-01	0	42	0	150470656	62	5817
2026-01-12 03:48:50.43	322.32	10.44	-46.2	-49.6	20.8	6.04e-01	0	42	0	152567808	63	5499
2026-01-12 03:48:51.43	322.11	10.45	-46.1	-49.5	20.9	6.03e-01	0	42	0	154140672	63	5445
2026-01-12 03:48:52.42	321.90	10.46	-46.1	-49.6	20.9	6.04e-01	0	42	0	156237824	63	5471
2026-01-12 03:48:53.41	321.70	10.47	-46.1	-49.6	20.8	6.04e-01	0	42	0	157810688	63	5483
2026-01-12 03:48:54.41	321.49	10.47	-46.2	-49.6	20.8	6.02e-01	0	42	0	159907840	63	5495
2026-01-12 03:48:55.41	321.28	10.48	-46.4	-49.8	20.6	6.05e-01	0	42	0	162004992	63	5636
2026-01-12 03:48:56.40	321.07	10.48	-46.4	-49.8	20.6	6.04e-01	0	42	0	163577856	63	5622
2026-01-12 03:48:57.40	320.87	10.49	-46.3	-49.8	20.7	6.03e-01	0	42	0	165675008	63	5597
2026-01-12 03:48:58.39	320.66	10.49	-46.1	-49.8	20.6	6.04e-01	0	42	0	167247872	63	5631
2026-01-12 03:48:59.38	320.45	10.50	-45.6	-49.6	20.8	6.03e-01	0	42	0	169345024	63	5502
2026-01-12 03:49:00.38	320.24	10.50	-45.5	-49.6	20.8	6.05e-01	0	42	0	170917888	63	5494
2026-01-12 03:49:01.42	320.03	10.50	-45.8	-49.9	20.6	6.05e-01	0	42	0	173015040	63	5659
2026-01-12 03:49:02.45	319.81	10.51	-45.7	-49.5	20.9	6.05e-01	0	42	0	175112192	63	5424
2026-01-12 03:49:03.44	319.60	10.51	-45.9	-49.7	20.7	6.04e-01	0	42	0	176685056	63	5543
2026-01-12 03:49:04.43	319.40	10.51	-46.0	-49.5	20.8	6.06e-01	0	42	0	178782208	63	5443
2026-01-12 03:49:05.43	319.19	10.52	-46.2	-49.7	20.7	6.04e-01	0	42	0	180355072	63	5557
2026-01-12 03:49:06.42	318.98	10.52	-46.0	-49.5	20.9	6.05e-01	0	42	0	182452224	63	5456
2026-01-12 03:49:07.42	318.77	10.52	-46.0	-49.6	20.9	6.04e-01	0	42	0	184025088	63	5479
2026-01-12 03:49:08.41	318.56	10.52	-46.0	-49.8	20.6	6.04e-01	0	42	0	186122240	63	5602
2026-01-12 03:49:09.41	318.35	10.52	-45.7	-49.3	21.1	6.03e-01	0	42	0	188219392	63	5337
2026-01-12 03:49:10.40	318.15	10.52	-46.1	-50.0	20.4	6.04e-01	0	42	0	189792256	63	5788
2026-01-12 03:49:11.40	317.94	10.52	-45.6	-49.2	21.2	6.03e-01	0	42	0	191889408	63	5258
2026-01-12 03:49:12.39	317.73	10.52	-45.9	-49.8	20.7	6.03e-01	0	42	0	193462272	63	5600
2026-01-12 03:49:13.39	317.52	10.52	-45.9	-49.6	20.7	6.04e-01	0	42	0	195559424	63	5515
2026-01-12 03:49:14.38	317.31	10.52	-45.8	-49.4	21.0	6.02e-01	0	42	0	197132288	63	5365
2026-01-12 03:49:15.38	317.10	10.52	-46.2	-49.8	20.6	6.06e-01	0	42	0	199229440	63	5625
2026-01-12 03:49:16.37	316.90	10.52	-45.8	-49.3	21.1	6.04e-01	0	42	0	200802304	63	5292
2026-01-12 03:49:17.37	316.69	10.52	-46.3	-50.1	20.4	6.03e-01	0	42	0	202899456	63	5807
2026-01-12 03:49:18.36	316.48	10.52	-45.8	-49.4	21.0	6.03e-01	0	42	0	204996608	63	5362
2026-01-12 03:49:19.36	316.27	10.51	-46.2	-49.8	20.6	6.05e-01	0	42	0	206569472	63	5628
2026-01-12 03:49:20.35	316.06	10.51	-46.2	-49.6	20.8	6.03e-01	0	42	0	208666624	63	5514
2026-01-12 03:49:21.35	315.86	10.51	-46.3	-49.7	20.7	6.02e-01	0	42	0	210239488	63	5556
2026-01-12 03:49:22.35	315.65	10.50	-46.4	-49.7	20.7	6.03e-01	0	42	0	212336640	63	5575
2026-01-12 03:49:23.51	315.40	10.50	-46.2	-49.4	21.1	6.04e-01	0	42	0	214433792	63	5343
2026-01-12 03:49:24.40	315.22	10.50	-46.3	-49.6	20.8	6.06e-01	0	42	0	216006656	63	5514
2026-01-12 03:49:25.54	314.98	10.49	-46.4	-49.8	20.6	6.04e-01	0	42	0	218103808	63	5614
2026-01-12 03:49:26.39	314.80	10.49	-46.2	-49.7	20.7	6.06e-01	0	42	0	219676672	63	5540
2026-01-12 03:49:27.53	314.56	10.48	-46.6	-50.2	20.2	6.06e-01	0	42	0	221773824	64	5544
2026-01-12 03:49:28.38	314.39	10.48	-46.1	-49.3	21.0	6.02e-01	0	42	0	223346688	64	5002
2026-01-12 03:49:29.52	314.15	10.47	-46.4	-49.9	20.4	6.05e-01	0	42	0	225968128	64	5374
2026-01-12 03:49:30.37	313.97	10.46	-46.0	-49.4	20.9	6.01e-01	0	42	0	227540992	64	5050
2026-01-12 03:49:31.51	313.73	10.46	-46.2	-49.5	20.9	6.02e-01	0	42	0	229638144	63	5448
2026-01-12 03:49:32.36	313.56	10.45	-46.2	-49.7	20.7	6.04e-01	0	42	0	231211008	63	5546
2026-01-12 03:49:33.50	313.32	10.44	-46.1	-49.6	20.8	6.07e-01	0	42	0	233308160	63	5498
2026-01-12 03:49:34.35	313.14	10.44	-46.1	-49.8	20.6	6.04e-01	0	42	0	234881024	63	5618
2026-01-12 03:49:35.48	312.91	10.43	-46.3	-50.2	20.2	6.01e-01	0	42	0	236978176	63	5885
2026-01-12 03:49:36.34	312.73	10.42	-46.1	-49.6	20.8	6.03e-01	0	42	0	238551040	63	5505
2026-01-12 03:49:37.59	312.47	10.41	-46.5	-50.2	20.2	6.02e-01	0	42	0	240648192	63	5897
2026-01-12 03:49:38.44	312.29	10.40	-46.0	-49.4	20.9	6.06e-01	0	42	0	242221056	63	5385
2026-01-12 03:49:39.58	312.06	10.39	-46.4	-50.1	20.4	6.04e-01	0	42	0	244318208	63	5821
2026-01-12 03:49:40.43	311.88	10.38	-46.1	-49.8	20.6	6.04e-01	0	42	0	246415360	63	5614
2026-01-12 03:49:41.57	311.64	10.37	-46.1	-49.7	20.6	6.03e-01	0	42	0	248512512	63	5591
2026-01-12 03:49:42.42	311.47	10.36	-46.4	-50.4	20.1	6.05e-01	0	42	0	250085376	63	5995
2026-01-12 03:49:43.55	311.23	10.35	-46.0	-49.5	20.8	6.03e-01	0	42	0	252182528	63	5460
2026-01-12 03:49:44.40	311.06	10.34	-46.6	-50.3	20.1	6.02e-01	0	42	0	253755392	63	5972
2026-01-12 03:49:45.54	310.82	10.33	-46.1	-49.6	20.7	6.03e-01	0	42	0	255852544	64	5163
2026-01-12 03:49:46.39	310.65	10.32	-46.2	-49.9	20.5	6.04e-01	0	42	0	257425408	63	5683
2026-01-12 03:49:47.53	310.41	10.30	-46.3	-50.0	20.3	6.03e-01	0	42	0	259522560	63	5773
2026-01-12 03:49:48.38	310.24	10.29	-46.5	-50.3	20.1	6.04e-01	0	42	0	261095424	63	5973
2026-01-12 03:49:49.52	310.00	10.28	-46.5	-50.2	20.2	6.04e-01	0	42	0	263192576	63	5872
2026-01-12 03:49:50.37	309.83	10.27	-46.8	-50.8	19.7	6.03e-01	0	42	0	264765440	64	5933
2026-01-12 03:49:51.51	309.59	10.25	-46.3	-49.8	20.5	6.06e-01	0	42	0	266862592	64	5311
2026-01-12 03:49:52.36	309.42	10.24	-46.7	-50.3	20.1	6.04e-01	0	42	0	268435456	64	5635
2026-01-12 03:49:53.50	309.19	10.23	-46.6	-50.1	20.2	6.03e-01	0	42	0	270532608	64	5480
2026-01-12 03:49:54.35	309.01	10.21	-46.4	-49.9	20.4	6.03e-01	0	42	0	272105472	64	5384
2026-01-12 03:49:55.49	308.78	10.20	-46.4	-50.1	20.3	6.04e-01	0	42	0	274202624	64	5465
2026-01-12 03:49:56.34	308.61	10.18	-46.4	-50.1	20.3	6.05e-01	0	42	0	275775488	64	5471
2026-01-12 03:49:57.69	308.33	10.16	-46.3	-50.0	20.3	6.05e-01	0	42	0	278396928	64	5416
2026-01-12 03:49:58.40	308.18	10.15	-46.2	-49.9	20.4	6.03e-01	0	42	0	279969792	64	5382
2026-01-12 03:49:59.68	307.92	10.13	-46.2	-50.0	20.3	6.03e-01	0	42	0	282066944	64	5423
2026-01-12 03:50:00.39	307.78	10.12	-46.0	-49.9	20.4	6.05e-01	0	42	0	283639808	64	5367
2026-01-12 03:50:01.67	307.52	10.10	-46.5	-50.6	19.9	6.05e-01	0	42	0	286261248	64	5800
2026-01-12 03:50:02.45	307.36	10.09	-46.4	-50.2	20.2	6.05e-01	0	42	0	287309824	64	5547
2026-01-12 03:50:03.73	307.10	10.06	-46.5	-50.3	20.1	6.02e-01	0	42	0	289931264	64	5654
2026-01-12 03:50:04.45	306.96	10.05	-46.4	-50.3	20.0	6.03e-01	0	42	0	291504128	64	5649
2026-01-12 03:50:05.73	306.70	10.03	-46.2	-50.2	20.2	6.05e-01	0	42	0	293601280	64	5535
2026-01-12 03:50:06.44	306.55	10.02	-46.3	-50.3	20.0	6.05e-01	0	42	0	294649856	64	5617
2026-01-12 03:50:07.72	306.30	9.99	-46.6	-50.4	20.0	6.03e-01	0	42	0	297271296	64	5687
2026-01-12 03:50:08.43	306.15	9.98	-46.8	-50.7	19.6	6.04e-01	0	42	0	298844160	64	5902
2026-01-12 03:50:09.71	305.90	9.96	-46.4	-50.2	20.2	6.04e-01	0	42	0	300941312	64	5534
2026-01-12 03:50:10.68	305.70	9.94	-46.5	-50.4	20.0	6.04e-01	0	42	0	303038464	64	5660
2026-01-12 03:50:11.67	305.50	9.92	-46.3	-50.0	20.3	6.05e-01	0	42	0	304611328	64	5424
2026-01-12 03:50:12.67	305.30	9.90	-46.7	-50.5	19.9	6.01e-01	0	42	0	306708480	64	5748
2026-01-12 03:50:13.66	305.11	9.88	-46.6	-50.2	20.2	6.04e-01	0	42	0	308281344	64	5536
2026-01-12 03:50:14.66	304.91	9.86	-47.0	-50.8	19.6	6.02e-01	0	42	0	310378496	64	5924
2026-01-12 03:50:15.65	304.71	9.84	-47.1	-51.0	19.3	6.05e-01	0	42	0	312475648	65	5737
2026-01-12 03:50:16.64	304.51	9.82	-46.5	-50.1	20.2	6.05e-01	0	42	0	314048512	65	5191
2026-01-12 03:50:17.64	304.31	9.79	-46.9	-50.7	19.6	6.05e-01	0	42	0	316145664	65	5568
2026-01-12 03:50:18.66	304.11	9.77	-47.1	-50.9	19.4	6.03e-01	0	42	0	317718528	65	5681
2026-01-12 03:50:19.71	303.90	9.75	-46.4	-49.9	20.4	6.05e-01	0	42	0	319815680	64	5344
2026-01-12 03:50:20.70	303.71	9.73	-46.7	-50.3	20.1	6.02e-01	0	42	0	321912832	64	5602
2026-01-12 03:50:21.73	303.50	9.70	-47.5	-51.5	18.9	6.04e-01	0	42	0	323485696	65	6071
2026-01-12 03:50:22.75	303.30	9.68	-46.7	-50.3	20.0	6.04e-01	0	42	0	325582848	65	5292
2026-01-12 03:50:23.78	303.10	9.66	-46.8	-50.4	20.0	6.05e-01	0	42	0	327680000	65	5343
2026-01-12 03:50:24.82	302.90	9.63	-47.3	-51.3	19.0	6.02e-01	0	42	0	329252864	65	5983
2026-01-12 03:50:25.79	302.71	9.61	-46.9	-50.6	19.6	6.03e-01	0	42	0	331350016	65	5525
2026-01-12 03:50:26.85	302.50	9.58	-46.7	-50.2	20.1	6.04e-01	0	42	0	333447168	65	5251
2026-01-12 03:50:27.74	302.32	9.56	-46.6	-50.1	20.2	6.04e-01	0	42	0	335020032	65	5175
2026-01-12 03:50:28.87	302.10	9.54	-47.3	-51.2	19.1	6.05e-01	0	42	0	337117184	65	5900
2026-01-12 03:50:29.73	301.94	9.51	-47.3	-51.1	19.1	6.01e-01	0	42	0	338690048	65	5842
2026-01-12 03:50:31.08	301.68	9.48	-46.6	-50.0	20.3	6.03e-01	0	42	0	341311488	65	5122
2026-01-12 03:50:31.80	301.54	9.46	-47.2	-51.0	19.4	6.03e-01	0	42	0	342360064	65	5729
2026-01-12 03:50:33.07	301.29	9.43	-47.3	-51.1	19.2	6.02e-01	0	42	0	344981504	65	5829
2026-01-12 03:50:33.80	301.15	9.41	-46.8	-50.4	19.9	6.03e-01	0	42	0	346030080	65	5351
2026-01-12 03:50:35.08	300.90	9.38	-47.1	-50.8	19.6	6.04e-01	0	42	0	348651520	65	5610
2026-01-12 03:50:35.79	300.77	9.36	-47.3	-51.2	19.2	6.04e-01	0	42	0	349700096	65	5864
2026-01-12 03:50:37.08	300.52	9.32	-47.3	-51.1	19.2	6.05e-01	0	42	0	352321536	65	5817
2026-01-12 03:50:37.80	300.38	9.31	-47.2	-51.0	19.4	6.04e-01	0	42	0	353894400	65	5725
2026-01-12 03:50:39.08	300.14	9.27	-47.0	-50.6	19.6	6.06e-01	0	42	0	355991552	65	5528
2026-01-12 03:50:39.99	299.96	9.25	-47.2	-51.0	19.4	6.04e-01	0	42	0	357564416	65	5726
2026-01-12 03:50:40.99	299.77	9.22	-47.5	-51.5	18.8	6.03e-01	0	42	0	359661568	65	6131
2026-01-12 03:50:41.98	299.58	9.19	-47.0	-50.7	19.5	6.04e-01	0	42	0	361758720	65	5583
2026-01-12 03:50:42.97	299.40	9.16	-46.9	-50.5	19.8	6.05e-01	0	42	0	363331584	65	5456
2026-01-12 03:50:43.97	299.21	9.13	-47.6	-51.8	18.5	6.02e-01	0	42	0	365428736	65	6308
2026-01-12 03:50:44.96	299.02	9.11	-47.5	-51.4	18.8	6.03e-01	0	42	0	367001600	66	5710
2026-01-12 03:50:45.96	298.83	9.08	-46.8	-50.3	19.8	6.05e-01	0	42	0	369098752	65	5335
2026-01-12 03:50:46.96	298.64	9.05	-47.1	-50.8	19.5	6.06e-01	0	42	0	371195904	65	5643
2026-01-12 03:50:47.95	298.46	9.02	-47.4	-51.3	19.0	6.01e-01	0	42	0	372768768	65	5962
2026-01-12 03:50:48.94	298.27	8.99	-51.5	-68.1	5.6	7.38e-01	0	42	0	374341632	73	26036
2026-01-12 03:50:49.94	298.09	8.96	-51.9	-71.7	3.8	7.46e-01	0	42	104	374341632	74	37005
2026-01-12 03:50:50.93	297.90	8.93	-52.2	-72.0	3.8	7.47e-01	0	42	104	374341632	74	38284
2026-01-12 03:50:51.92	297.72	8.90	-51.8	-72.1	3.8	7.47e-01	0	42	104	374341632	74	38786
2026-01-12 03:50:52.92	297.53	8.87	-52.0	-72.2	3.8	7.45e-01	0	42	104	374341632	74	39280
2026-01-12 03:50:53.91	297.35	8.84	-52.4	-72.2	3.8	7.44e-01	0	42	104	374341632	75	37186
2026-01-12 03:50:54.90	297.17	8.81	-52.4	-72.2	3.8	7.49e-01	0	42	104	374341632	75	37369
2026-01-12 03:50:55.90	296.98	8.78	-52.1	-72.2	3.8	7.45e-01	0	42	104	374341632	75	37331
2026-01-12 03:50:56.89	296.80	8.75	-52.0	-72.3	3.8	7.44e-01	0	42	104	374341632	75	37579
2026-01-12 03:50:57.88	296.62	8.72	-52.1	-72.3	3.8	7.51e-01	0	42	104	374341632	75	37574
2026-01-12 03:50:58.88	296.44	8.68	-51.9	-72.3	3.8	7.45e-01	0	42	104	374341632	75	37591
2026-01-12 03:50:59.87	296.26	8.65	-52.1	-72.3	3.8	7.49e-01	0	42	104	374341632	75	37692
2026-01-12 03:51:00.86	296.08	8.62	-52.2	-72.3	3.8	7.47e-01	0	42	104	374341632	75	37575
2026-01-12 03:51:01.85	295.90	8.59	-52.1	-72.3	3.8	7.45e-01	0	42	104	374341632	75	37633
2026-01-12 03:51:02.85	295.71	8.56	-51.9	-72.3	3.8	7.46e-01	0	42	104	374341632	75	37629
2026-01-12 03:51:03.84	295.54	8.52	-51.9	-72.3	3.8	7.47e-01	0	42	104	374341632	75	37550
2026-01-12 03:51:04.83	295.36	8.49	-51.8	-72.3	3.8	7.41e-01	0	42	104	374341632	75	37623
2026-01-12 03:51:05.83	295.18	8.46	-51.8	-72.3	3.8	7.45e-01	0	42	104	374341632	75	37628
2026-01-12 03:51:06.82	295.00	8.42	-51.8	-72.3	3.8	7.42e-01	0	42	104	374341632	75	37530
2026-01-12 03:51:07.82	294.82	8.39	-51.8	-72.3	3.8	7.49e-01	0	42	104	374341632	75	37521
2026-01-12 03:51:08.81	294.64	8.36	-52.0	-72.3	3.8	7.45e-01	0	42	104	374341632	75	37446
2026-01-12 03:51:09.80	294.47	8.32	-52.0	-72.3	3.8	7.43e-01	0	42	104	374341632	75	37440
2026-01-12 03:51:10.79	294.29	8.29	-51.8	-72.2	3.8	7.44e-01	0	42	104	374341632	75	37357
2026-01-12 03:51:11.79	294.11	8.26	-51.8	-72.3	3.8	7.44e-01	0	42	104	374341632	75	37403
2026-01-12 03:51:12.78	293.94	8.22	-51.8	-72.2	3.8	7.48e-01	0	42	104	374341632	75	37305
2026-01-12 03:51:13.77	293.76	8.19	-51.8	-72.3	3.8	7.43e-01	0	42	104	374341632	75	37406
2026-01-12 03:51:14.77	293.59	8.15	-51.8	-72.2	3.8	7.48e-01	0	42	104	374341632	75	37354
2026-01-12 03:51:15.76	293.42	8.12	-51.8	-72.2	3.8	7.44e-01	0	42	104	374341632	75	37340
2026-01-12 03:51:16.75	293.24	8.08	-51.8	-72.2	3.8	7.44e-01	0	42	104	374341632	75	37260
2026-01-12 03:51:17.75	293.07	8.05	-51.8	-72.2	3.8	7.47e-01	0	42	104	374341632	75	37288
2026-01-12 03:51:18.74	292.90	8.01	-51.8	-72.3	3.8	7.43e-01	0	42	104	374341632	75	37401
2026-01-12 03:51:19.73	292.72	7.98	-51.8	-72.3	3.8	7.49e-01	0	42	104	374341632	75	37405
2026-01-12 03:51:20.73	292.55	7.94	-51.8	-72.2	3.8	7.50e-01	0	42	104	374341632	75	37347
2026-01-12 03:51:21.72	292.38	7.90	-51.8	-72.3	3.8	7.46e-01	0	42	104	374341632	75	37376
2026-01-12 03:51:22.72	292.21	7.87	-51.8	-72.2	3.8	7.46e-01	0	42	104	374341632	75	37334
2026-01-12 03:51:23.71	292.04	7.83	-51.8	-72.2	3.8	7.46e-01	0	42	104	374341632	75	37267
2026-01-12 03:51:24.70	291.87	7.80	-51.8	-72.2	3.8	7.48e-01	0	42	104	374341632	75	37253
2026-01-12 03:51:25.70	291.70	7.76	-51.8	-72.2	3.8	7.46e-01	0	42	104	374341632	75	37272
2026-01-12 03:51:26.69	291.53	7.72	-51.8	-72.2	3.8	7.48e-01	0	42	104	374341632	75	37312
2026-01-12 03:51:27.68	291.36	7.69	-51.8	-72.2	3.8	7.45e-01	0	42	104	374341632	75	37277
2026-01-12 03:51:28.67	291.19	7.65	-51.8	-72.2	3.8	7.47e-01	0	42	104	374341632	75	37293
2026-01-12 03:51:29.67	291.02	7.61	-51.8	-72.2	3.8	7.47e-01	0	42	104	374341632	75	37191
2026-01-12 03:51:30.66	290.86	7.57	-51.8	-72.2	3.8	7.49e-01	0	42	104	374341632	75	37245
2026-01-12 03:51:31.65	290.69	7.54	-51.8	-72.2	3.8	7.44e-01	0	42	104	374341632	75	37282
2026-01-12 03:51:32.65	290.52	7.50	-51.8	-72.2	3.8	7.50e-01	0	42	104	374341632	75	37159
2026-01-12 03:51:33.64	290.36	7.46	-51.8	-72.2	3.8	7.45e-01	0	42	104	374341632	75	37261
2026-01-12 03:51:34.63	290.19	7.42	-51.8	-72.2	3.8	7.46e-01	0	42	104	374341632	75	37185
2026-01-12 03:51:35.63	290.03	7.38	-51.8	-72.2	3.8	7.45e-01	0	42	104	374341632	75	37179
2026-01-12 03:51:36.62	289.86	7.35	-51.8	-72.2	3.8	7.47e-01	0	42	104	374341632	75	37165
2026-01-12 03:51:37.62	289.70	7.31	-51.8	-72.2	3.8	7.46e-01	0	42	104	374341632	75	37238
2026-01-12 03:51:38.61	289.54	7.27	-51.8	-72.2	3.8	7.48e-01	0	42	104	374341632	75	37161
2026-01-12 03:51:39.60	289.37	7.23	-51.8	-72.2	3.8	7.43e-01	0	42	104	374341632	75	37162
2026-01-12 03:51:40.60	289.21	7.19	-51.8	-72.2	3.8	7.44e-01	0	42	104	374341632	75	37270
2026-01-12 03:51:41.59	289.05	7.15	-51.8	-72.2	3.8	7.47e-01	0	42	104	374341632	75	37190
2026-01-12 03:51:42.58	288.89	7.11	-51.8	-72.2	3.8	7.46e-01	0	42	104	374341632	75	37199
2026-01-12 03:51:43.58	288.73	7.07	-51.8	-72.2	3.8	7.47e-01	0	42	104	374341632	75	37209
2026-01-12 03:51:44.57	288.57	7.04	-51.8	-72.2	3.8	7.46e-01	0	42	104	374341632	75	37180
2026-01-12 03:51:45.56	288.41	7.00	-51.8	-72.2	3.8	7.46e-01	0	42	104	374341632	75	37221
2026-01-12 03:51:46.56	288.25	6.96	-51.8	-72.2	3.8	7.44e-01	0	42	104	374341632	75	37152
2026-01-12 03:51:47.55	288.09	6.92	-51.8	-72.2	3.8	7.46e-01	0	42	104	374341632	75	37098
2026-01-12 03:51:48.55	287.93	6.88	-51.8	-72.2	3.8	7.45e-01	0	42	104	374341632	75	37165
2026-01-12 03:51:49.54	287.77	6.84	-51.8	-72.2	3.8	7.45e-01	0	42	104	374341632	75	37204
2026-01-12 03:51:50.54	287.61	6.80	-51.8	-72.2	3.8	7.46e-01	0	42	104	374341632	75	37182
2026-01-12 03:51:51.53	287.45	6.76	-51.8	-72.2	3.8	7.46e-01	0	42	104	374341632	75	37178
2026-01-12 03:51:52.52	287.30	6.72	-51.8	-72.2	3.8	7.44e-01	0	42	104	374341632	75	37203
2026-01-12 03:51:53.52	287.14	6.68	-51.8	-72.2	3.8	7.43e-01	0	42	104	374341632	75	37226
2026-01-12 03:51:54.51	286.99	6.64	-51.8	-72.2	3.8	7.46e-01	0	42	104	374341632	75	37214
2026-01-12 03:51:55.50	286.83	6.59	-51.8	-72.2	3.8	7.47e-01	0	42	104	374341632	75	37165
2026-01-12 03:51:56.50	286.68	6.55	-51.8	-72.2	3.8	7.45e-01	0	42	104	374341632	75	37100
2026-01-12 03:51:57.49	286.52	6.51	-51.8	-72.2	3.8	7.46e-01	0	42	104	374341632	75	37267
2026-01-12 03:51:58.48	286.37	6.47	-51.8	-72.2	3.8	7.45e-01	0	42	104	374341632	75	37174
2026-01-12 03:51:59.48	286.21	6.43	-51.8	-72.2	3.8	7.47e-01	0	42	104	374341632	75	37163
2026-01-12 03:52:00.47	286.06	6.39	-51.8	-72.2	3.8	7.44e-01	0	42	104	374341632	75	37092
2026-01-12 03:52:01.46	285.91	6.35	-51.8	-72.2	3.8	7.45e-01	0	42	104	374341632	75	37176
2026-01-12 03:52:02.46	285.76	6.31	-51.8	-72.2	3.8	7.51e-01	0	42	104	374341632	75	37200
2026-01-12 03:52:03.45	285.61	6.27	-51.8	-72.2	3.8	7.46e-01	0	42	104	374341632	75	37191
2026-01-12 03:52:04.44	285.45	6.22	-51.8	-72.2	3.8	7.44e-01	0	42	104	374341632	75	37146
2026-01-12 03:52:05.44	285.30	6.18	-51.8	-72.2	3.8	7.48e-01	0	42	104	374341632	75	37161
2026-01-12 03:52:06.43	285.15	6.14	-51.8	-72.2	3.8	7.44e-01	0	42	104	374341632	75	37228
2026-01-12 03:52:07.43	285.00	6.10	-51.8	-72.2	3.8	7.48e-01	0	42	104	374341632	75	37147
2026-01-12 03:52:08.42	284.85	6.06	-51.8	-72.2	3.8	7.43e-01	0	42	104	374341632	75	37253
2026-01-12 03:52:09.41	284.71	6.01	-51.8	-72.2	3.8	7.47e-01	0	42	104	374341632	75	37206
2026-01-12 03:52:10.41	284.56	5.97	-51.8	-72.2	3.8	7.48e-01	0	42	104	374341632	75	37121
2026-01-12 03:52:11.40	284.41	5.93	-51.8	-72.2	3.8	7.45e-01	0	42	104	374341632	75	37090
2026-01-12 03:52:12.40	284.26	5.89	-51.8	-72.2	3.8	7.42e-01	0	42	104	374341632	75	37181
2026-01-12 03:52:13.39	284.12	5.84	-51.8	-72.2	3.8	7.43e-01	0	42	104	374341632	75	37154
2026-01-12 03:52:14.38	283.97	5.80	-51.8	-72.2	3.8	7.48e-01	0	42	104	374341632	75	37125
2026-01-12 03:52:15.37	283.82	5.76	-51.8	-72.2	3.8	7.47e-01	0	42	104	374341632	75	37112
2026-01-12 03:52:16.37	283.68	5.72	-51.8	-72.2	3.8	7.47e-01	0	42	104	374341632	75	37146
2026-01-12 03:52:17.36	283.53	5.67	-51.8	-72.2	3.8	7.46e-01	0	42	104	374341632	75	37105
2026-01-12 03:52:18.35	283.39	5.63	-51.8	-72.2	3.8	7.47e-01	0	42	104	374341632	75	37113
2026-01-12 03:52:19.35	283.24	5.59	-51.8	-72.2	3.8	7.46e-01	0	42	104	374341632	75	37150
2026-01-12 03:52:20.34	283.10	5.54	-51.8	-72.2	3.8	7.43e-01	0	42	104	374341632	75	37159
2026-01-12 03:52:21.33	282.96	5.50	-51.8	-72.2	3.8	7.45e-01	0	42	104	374341632	75	37178
2026-01-12 03:52:22.33	282.82	5.46	-51.8	-72.2	3.8	7.43e-01	0	42	104	374341632	75	37147
2026-01-12 03:52:23.32	282.67	5.42	-51.8	-72.2	3.8	7.49e-01	0	42	104	374341632	75	37178
2026-01-12 03:52:24.32	282.53	5.37	-51.8	-72.2	3.8	7.45e-01	0	42	104	374341632	75	37169
2026-01-12 03:52:25.31	282.39	5.33	-51.8	-72.2	3.8	7.46e-01	0	42	104	374341632	75	37158
2026-01-12 03:52:26.30	282.25	5.29	-51.8	-72.2	3.8	7.47e-01	0	42	104	374341632	75	37163
2026-01-12 03:52:27.30	282.11	5.24	-51.8	-72.2	3.8	7.46e-01	0	42	104	374341632	75	37160
2026-01-12 03:52:28.29	281.97	5.20	-51.8	-72.2	3.8	7.46e-01	0	42	104	374341632	75	37158
2026-01-12 03:52:29.28	281.83	5.15	-51.8	-72.2	3.8	7.48e-01	0	42	104	374341632	75	37083
2026-01-12 03:52:30.28	281.69	5.11	-51.8	-72.2	3.8	7.48e-01	0	42	104	374341632	75	37061
2026-01-12 03:52:31.27	281.55	5.07	-51.8	-72.2	3.8	7.45e-01	0	42	104	374341632	75	37090
2026-01-12 03:52:32.26	281.42	5.02	-51.8	-72.2	3.8	7.47e-01	0	42	104	374341632	75	37115
2026-01-12 03:52:33.26	281.28	4.98	-51.8	-72.2	3.8	7.44e-01	0	42	104	374341632	75	37059

#Closed at: 2026-01-12 03:52:34
#Recorded file [374 MB]: D:/Data/31040_260112_064550.dat