passes_logs/2026/01/12/T1/T1__20260112_104302_NOAA_20_JPSS-1_rec.log

#Pass ID: 20260112_104302_NOAA 20 (JPSS-1)
#Satellite: NOAA 20 (JPSS-1)
#Configuration: NOAA 20
#almurnet v.1.7.20251203
#Start time: 2026-01-12 10:43:02

#Version: 2.0.20230620
#Station: T1
#Location: 37.570604 lon 55.790049 lat
#TLE: 1 43013U 17073A   26011.94672141  .00000095  00000+0  65817-4 0  9997
#TLE: 2 43013  98.7632 312.9184 0001627  43.8068 316.3237 14.19535462422307

#Time	Az	El	Level	Level2	SNR	BER	BlckErr	Temp	State	Recorded	gain1	gain2
2026-01-12 10:43:02.82	185.37	5.01	-51.3	-67.0	3.8	1.49e+00	0	41	0	0	73	22898
2026-01-12 10:43:03.81	185.42	5.08	-51.1	-66.7	3.8	1.49e+00	0	41	104	0	73	22250
2026-01-12 10:43:04.81	185.46	5.15	-51.1	-66.7	3.8	1.49e+00	0	41	104	0	73	22099
2026-01-12 10:43:05.80	185.51	5.22	-51.1	-66.6	3.8	1.49e+00	0	41	104	0	73	21858
2026-01-12 10:43:06.80	185.55	5.29	-51.1	-66.5	3.8	1.49e+00	0	41	104	0	73	21735
2026-01-12 10:43:07.79	185.60	5.36	-51.1	-66.5	3.8	1.49e+00	0	41	104	0	73	21524
2026-01-12 10:43:08.79	185.64	5.42	-51.1	-66.5	3.8	1.49e+00	0	41	104	0	73	21532
2026-01-12 10:43:09.78	185.69	5.49	-51.1	-66.5	3.8	1.49e+00	0	41	104	0	73	21602
2026-01-12 10:43:10.78	185.74	5.56	-51.1	-66.5	3.8	1.49e+00	0	41	104	0	73	21687
2026-01-12 10:43:11.78	185.78	5.63	-51.1	-66.5	3.8	1.49e+00	0	41	104	0	73	21744
2026-01-12 10:43:12.77	185.83	5.70	-51.1	-66.6	3.8	1.49e+00	0	41	104	0	73	21876
2026-01-12 10:43:13.77	185.88	5.77	-51.1	-66.6	3.8	1.49e+00	0	41	104	0	73	21886
2026-01-12 10:43:14.76	185.93	5.84	-51.1	-66.6	3.8	1.49e+00	0	41	104	0	73	21958
2026-01-12 10:43:15.76	185.97	5.91	-51.1	-66.6	3.8	1.49e+00	0	41	104	0	73	21776
2026-01-12 10:43:16.76	186.02	5.99	-51.1	-66.5	3.8	1.49e+00	0	42	104	0	73	21622
2026-01-12 10:43:17.75	186.07	6.06	-51.1	-66.3	3.8	1.49e+00	0	41	104	0	73	21153
2026-01-12 10:43:18.75	186.12	6.13	-51.1	-66.3	3.8	1.49e+00	0	42	104	0	73	21021
2026-01-12 10:43:19.74	186.17	6.20	-51.0	-66.0	3.8	1.49e+00	0	41	104	0	73	20494
2026-01-12 10:43:20.74	186.22	6.27	-51.1	-65.9	3.8	1.49e+00	0	42	104	0	73	20171
2026-01-12 10:43:21.74	186.26	6.34	-51.0	-65.7	3.8	1.49e+00	0	42	104	0	73	19699
2026-01-12 10:43:22.73	186.31	6.41	-51.1	-65.6	3.8	1.49e+00	0	42	104	0	73	19457
2026-01-12 10:43:23.73	186.36	6.48	-51.1	-65.5	3.8	1.49e+00	0	42	104	0	73	19194
2026-01-12 10:43:24.73	186.41	6.56	-51.0	-65.3	3.8	1.49e+00	0	42	104	0	73	18899
2026-01-12 10:43:25.72	186.46	6.63	-51.0	-65.1	3.8	1.49e+00	0	42	104	0	73	18414
2026-01-12 10:43:26.72	186.51	6.70	-51.0	-65.1	3.8	1.49e+00	0	42	104	0	73	18416
2026-01-12 10:43:27.72	186.56	6.77	-51.0	-65.0	3.8	1.49e+00	0	42	104	0	73	18225
2026-01-12 10:43:28.71	186.61	6.85	-51.0	-64.7	3.9	1.49e+00	0	42	104	0	73	17666
2026-01-12 10:43:29.71	186.67	6.92	-51.0	-64.9	3.8	1.49e+00	0	42	104	0	73	18081
2026-01-12 10:43:30.70	186.72	6.99	-51.0	-65.1	3.8	1.49e+00	0	42	104	0	73	18330
2026-01-12 10:43:31.70	186.77	7.07	-51.0	-65.3	3.8	1.49e+00	0	42	104	0	73	18935
2026-01-12 10:43:32.70	186.82	7.14	-51.0	-66.0	3.8	1.49e+00	0	42	104	0	73	20315
2026-01-12 10:43:33.69	186.87	7.21	-51.1	-66.5	3.8	1.49e+00	0	42	104	0	73	21658
2026-01-12 10:43:34.69	186.92	7.29	-51.1	-66.7	3.8	1.49e+00	0	42	104	0	73	22204
2026-01-12 10:43:35.68	186.98	7.36	-51.0	-66.2	3.8	1.49e+00	0	42	104	0	73	20874
2026-01-12 10:43:36.68	187.03	7.44	-51.0	-64.3	4.0	1.49e+00	0	42	104	0	73	16855
2026-01-12 10:43:37.67	187.08	7.51	-50.8	-62.1	4.6	1.40e+00	0	42	0	0	73	13071
2026-01-12 10:43:38.67	187.13	7.59	-50.5	-59.7	6.0	4.62e-01	0	42	0	2097152	72	10488
2026-01-12 10:43:39.67	187.19	7.66	-50.1	-58.1	7.4	1.74e-01	0	42	0	4194304	72	8679
2026-01-12 10:43:40.66	187.24	7.74	-49.8	-56.6	8.9	4.55e-02	0	42	0	5242880	71	7748
2026-01-12 10:43:41.66	187.30	7.81	-49.4	-55.2	10.3	1.57e-02	0	42	0	7340032	70	7017
2026-01-12 10:43:42.66	187.35	7.89	-49.0	-54.2	11.3	1.69e-03	0	42	0	9437184	70	6268
2026-01-12 10:43:43.65	187.40	7.96	-48.6	-53.5	12.2	4.02e-04	0	43	0	11534336	69	6064
2026-01-12 10:43:44.65	187.46	8.04	-48.3	-52.9	12.8	1.59e-04	0	43	0	12582912	68	6011
2026-01-12 10:43:45.65	187.51	8.12	-48.2	-52.6	13.0	5.87e-05	0	42	0	14680064	68	5840
2026-01-12 10:43:46.64	187.57	8.19	-48.1	-52.3	13.3	3.12e-05	0	42	0	16777216	68	5644
2026-01-12 10:43:47.64	187.63	8.27	-48.2	-52.6	13.1	2.05e-05	0	42	0	18874368	68	5801
2026-01-12 10:43:48.63	187.68	8.35	-48.2	-52.6	13.0	4.50e-05	0	42	0	20971520	68	5837
2026-01-12 10:43:49.63	187.74	8.42	-48.5	-53.0	12.6	8.46e-05	0	42	0	22020096	68	6105
2026-01-12 10:43:50.63	187.79	8.50	-48.7	-53.7	11.9	1.58e-04	0	42	0	24117248	68	6581
2026-01-12 10:43:51.62	187.85	8.58	-49.0	-54.3	11.3	7.77e-04	0	42	0	26214400	68	7069
2026-01-12 10:43:52.62	187.91	8.66	-49.3	-54.9	10.7	1.88e-03	0	43	0	28311552	69	7153
2026-01-12 10:43:53.62	187.96	8.73	-49.6	-55.8	9.7	6.25e-03	0	43	0	29360128	69	7941
2026-01-12 10:43:54.61	188.02	8.81	-49.8	-56.5	9.0	1.93e-02	0	43	0	31457280	70	8105
2026-01-12 10:43:55.61	188.08	8.89	-50.1	-57.6	7.9	4.41e-02	0	42	0	33554432	70	9206
2026-01-12 10:43:56.61	188.14	8.97	-50.2	-58.2	7.3	1.18e-01	0	43	0	35651584	71	9330
2026-01-12 10:43:57.60	188.20	9.05	-50.2	-57.5	8.0	1.53e-01	0	43	0	37748736	71	8634
2026-01-12 10:43:58.60	188.26	9.13	-50.0	-57.0	8.6	5.66e-02	0	43	0	38797312	71	8100
2026-01-12 10:43:59.60	188.31	9.21	-50.5	-59.3	6.5	1.10e-01	0	43	0	40894464	71	10551
2026-01-12 10:44:00.60	188.37	9.29	-49.9	-56.4	8.9	6.17e-01	0	43	0	42991616	71	7602
2026-01-12 10:44:01.60	188.43	9.37	-50.4	-58.6	7.0	9.50e-03	0	43	0	45088768	71	9820
2026-01-12 10:44:02.61	188.50	9.45	-50.1	-57.4	7.9	7.14e-01	0	43	0	46137344	72	7993
2026-01-12 10:44:03.60	188.55	9.53	-49.0	-54.3	11.2	2.13e-03	0	43	0	48234496	70	6336
2026-01-12 10:44:04.60	188.62	9.61	-48.4	-53.2	12.4	2.92e-04	0	43	0	50331648	68	6263
2026-01-12 10:44:05.61	188.68	9.69	-48.3	-52.9	12.7	6.10e-05	0	43	0	52428800	68	6048
2026-01-12 10:44:06.61	188.74	9.77	-48.0	-52.4	13.3	6.02e-05	0	43	0	54525952	68	5685
2026-01-12 10:44:07.61	188.80	9.85	-47.8	-52.1	13.4	1.67e-05	0	43	0	55574528	67	5828
2026-01-12 10:44:08.61	188.86	9.94	-47.7	-51.9	13.6	1.06e-05	0	43	0	57671680	67	5695
2026-01-12 10:44:09.61	188.93	10.02	-47.6	-51.7	13.9	6.80e-06	0	43	0	59768832	67	5552
2026-01-12 10:44:10.61	188.99	10.10	-47.6	-51.7	13.9	1.50e-06	0	43	0	61865984	67	5550
2026-01-12 10:44:11.61	189.05	10.18	-47.6	-51.7	13.9	9.10e-06	0	43	0	62914560	67	5538
2026-01-12 10:44:12.61	189.11	10.26	-47.4	-51.4	14.2	2.20e-06	0	43	0	65011712	66	5661
2026-01-12 10:44:13.61	189.18	10.35	-47.5	-51.5	14.1	2.20e-06	0	43	0	67108864	66	5767
2026-01-12 10:44:14.61	189.24	10.43	-47.5	-51.6	14.0	7.00e-07	0	43	0	69206016	66	5794
2026-01-12 10:44:15.61	189.31	10.51	-47.4	-51.5	14.1	2.20e-06	0	43	0	71303168	66	5742
2026-01-12 10:44:16.61	189.37	10.60	-47.5	-51.5	14.1	7.00e-07	0	43	0	72351744	66	5746
2026-01-12 10:44:17.62	189.44	10.68	-47.4	-51.5	14.1	7.00e-07	0	43	0	74448896	66	5746
2026-01-12 10:44:18.62	189.50	10.77	-47.4	-51.3	14.3	7.00e-07	0	43	0	76546048	66	5648
2026-01-12 10:44:19.62	189.57	10.85	-47.3	-51.2	14.5	7.00e-07	0	43	0	78643200	66	5537
2026-01-12 10:44:20.62	189.64	10.94	-47.3	-51.2	14.4	7.00e-07	0	43	0	80740352	66	5561
2026-01-12 10:44:21.62	189.70	11.02	-47.3	-51.1	14.5	7.00e-07	0	43	0	81788928	66	5490
2026-01-12 10:44:22.62	189.77	11.11	-47.3	-51.0	14.6	7.00e-07	0	43	0	83886080	66	5444
2026-01-12 10:44:23.62	189.84	11.19	-47.2	-50.9	14.8	0.00e+00	0	43	0	85983232	66	5348
2026-01-12 10:44:24.62	189.91	11.28	-47.2	-50.9	14.7	0.00e+00	0	43	0	88080384	66	5391
2026-01-12 10:44:25.62	189.97	11.36	-47.2	-50.8	14.8	0.00e+00	0	43	0	90177536	66	5327
2026-01-12 10:44:26.62	190.04	11.45	-47.1	-50.7	14.9	7.00e-07	0	43	0	91226112	66	5258
2026-01-12 10:44:27.63	190.11	11.54	-47.1	-50.7	14.9	0.00e+00	0	43	0	93323264	66	5257
2026-01-12 10:44:28.63	190.18	11.63	-47.1	-50.7	14.9	0.00e+00	0	43	0	95420416	66	5259
2026-01-12 10:44:29.63	190.25	11.71	-47.0	-50.6	15.1	0.00e+00	0	43	0	97517568	66	5180
2026-01-12 10:44:30.64	190.32	11.80	-47.0	-50.5	15.1	0.00e+00	0	43	0	99614720	66	5138
2026-01-12 10:44:31.64	190.39	11.89	-47.0	-50.6	15.1	0.00e+00	0	43	0	100663296	65	5470
2026-01-12 10:44:32.64	190.46	11.98	-46.9	-50.4	15.2	0.00e+00	0	43	0	102760448	65	5382
2026-01-12 10:44:33.64	190.53	12.06	-46.9	-50.4	15.3	0.00e+00	0	43	0	104857600	65	5367
2026-01-12 10:44:34.64	190.61	12.15	-47.0	-50.4	15.3	0.00e+00	0	43	0	106954752	65	5370
2026-01-12 10:44:35.64	190.68	12.24	-46.9	-50.3	15.3	0.00e+00	0	43	0	108003328	65	5328
2026-01-12 10:44:36.64	190.75	12.33	-46.9	-50.3	15.4	0.00e+00	0	43	0	110100480	65	5300
2026-01-12 10:44:37.64	190.82	12.42	-46.8	-50.1	15.6	0.00e+00	0	43	0	112197632	65	5198
2026-01-12 10:44:38.64	190.90	12.51	-46.9	-50.1	15.6	0.00e+00	0	43	0	114294784	65	5196
2026-01-12 10:44:39.64	190.97	12.60	-46.9	-50.1	15.5	0.00e+00	0	43	0	116391936	65	5208
2026-01-12 10:44:40.64	191.05	12.69	-46.9	-50.1	15.6	0.00e+00	0	43	0	117440512	65	5171
2026-01-12 10:44:41.64	191.12	12.78	-46.9	-50.1	15.6	0.00e+00	0	43	0	119537664	65	5205
2026-01-12 10:44:42.64	191.20	12.87	-46.9	-50.1	15.6	0.00e+00	0	43	0	121634816	65	5206
2026-01-12 10:44:43.64	191.27	12.96	-46.9	-50.1	15.5	0.00e+00	0	43	0	123731968	65	5215
2026-01-12 10:44:44.64	191.35	13.06	-46.8	-50.1	15.6	0.00e+00	0	43	0	125829120	65	5167
2026-01-12 10:44:45.64	191.42	13.15	-46.8	-50.0	15.7	0.00e+00	0	43	0	126877696	65	5107
2026-01-12 10:44:46.65	191.50	13.24	-46.8	-50.0	15.6	0.00e+00	0	43	0	128974848	65	5156
2026-01-12 10:44:47.65	191.58	13.33	-46.8	-50.1	15.5	0.00e+00	0	43	0	131072000	65	5182
2026-01-12 10:44:48.65	191.66	13.43	-46.8	-50.0	15.6	0.00e+00	0	43	0	133169152	65	5132
2026-01-12 10:44:49.66	191.74	13.52	-46.8	-50.1	15.4	0.00e+00	0	43	0	135266304	65	5188
2026-01-12 10:44:50.66	191.81	13.61	-46.9	-50.2	15.4	0.00e+00	0	43	0	136314880	65	5222
2026-01-12 10:44:51.66	191.89	13.71	-46.8	-50.1	15.4	0.00e+00	0	44	0	138412032	65	5189
2026-01-12 10:44:52.67	191.97	13.80	-46.7	-49.9	15.7	0.00e+00	0	43	0	140509184	65	5058
2026-01-12 10:44:53.67	192.05	13.90	-46.8	-50.0	15.6	0.00e+00	0	43	0	142606336	65	5128
2026-01-12 10:44:54.67	192.14	13.99	-46.8	-50.0	15.6	0.00e+00	0	43	0	144703488	65	5132
2026-01-12 10:44:55.67	192.22	14.08	-46.7	-49.9	15.8	0.00e+00	0	43	0	145752064	65	5052
2026-01-12 10:44:56.67	192.30	14.18	-46.8	-50.0	15.7	0.00e+00	0	43	0	147849216	65	5135
2026-01-12 10:44:57.67	192.38	14.28	-46.8	-50.0	15.7	0.00e+00	0	43	0	149946368	65	5129
2026-01-12 10:44:58.68	192.46	14.37	-46.9	-50.1	15.6	0.00e+00	0	43	0	152043520	65	5185
2026-01-12 10:44:59.68	192.55	14.47	-46.8	-50.1	15.7	0.00e+00	0	43	0	153092096	65	5177
2026-01-12 10:45:00.67	192.63	14.56	-46.7	-49.9	15.8	0.00e+00	0	43	0	155189248	65	5058
2026-01-12 10:45:01.67	192.72	14.66	-46.7	-49.8	15.8	0.00e+00	0	43	0	157286400	65	5038
2026-01-12 10:45:02.68	192.80	14.76	-46.7	-49.9	15.8	0.00e+00	0	43	0	159383552	65	5050
2026-01-12 10:45:03.68	192.89	14.86	-46.7	-49.8	15.9	0.00e+00	0	43	0	161480704	65	5000
2026-01-12 10:45:04.68	192.97	14.95	-46.7	-49.8	15.9	0.00e+00	0	43	0	162529280	65	5007
2026-01-12 10:45:05.68	193.06	15.05	-46.7	-49.8	15.9	0.00e+00	0	43	0	164626432	65	5011
2026-01-12 10:45:06.68	193.15	15.15	-46.7	-49.8	15.9	0.00e+00	0	43	0	166723584	65	5000
2026-01-12 10:45:07.68	193.23	15.25	-46.7	-49.7	16.0	0.00e+00	0	43	0	168820736	65	4974
2026-01-12 10:45:08.68	193.32	15.35	-46.6	-49.7	16.0	0.00e+00	0	44	0	170917888	65	4948
2026-01-12 10:45:09.68	193.41	15.45	-46.6	-49.6	16.1	0.00e+00	0	43	0	171966464	65	4903
2026-01-12 10:45:10.68	193.50	15.55	-46.6	-49.7	16.1	0.00e+00	0	44	0	174063616	65	4929
2026-01-12 10:45:11.68	193.59	15.65	-46.5	-49.5	16.3	0.00e+00	0	43	0	176160768	65	4830
2026-01-12 10:45:12.68	193.68	15.75	-46.5	-49.6	16.2	0.00e+00	0	43	0	178257920	64	5162
2026-01-12 10:45:13.68	193.77	15.85	-46.5	-49.5	16.3	0.00e+00	0	43	0	180355072	64	5141
2026-01-12 10:45:14.68	193.86	15.95	-46.4	-49.4	16.3	0.00e+00	0	43	0	181403648	64	5089
2026-01-12 10:45:15.68	193.96	16.05	-46.3	-49.3	16.5	0.00e+00	0	43	0	183500800	64	5010
2026-01-12 10:45:16.68	194.05	16.16	-46.4	-49.4	16.4	0.00e+00	0	43	0	185597952	64	5061
2026-01-12 10:45:17.68	194.14	16.26	-46.3	-49.3	16.5	0.00e+00	0	43	0	187695104	64	5000
2026-01-12 10:45:18.67	194.24	16.36	-46.4	-49.3	16.4	0.00e+00	0	43	0	188743680	64	5017
2026-01-12 10:45:19.67	194.33	16.46	-46.4	-49.4	16.4	0.00e+00	0	43	0	190840832	64	5052
2026-01-12 10:45:20.67	194.43	16.57	-46.4	-49.4	16.4	0.00e+00	0	43	0	192937984	64	5046
2026-01-12 10:45:21.67	194.52	16.67	-46.4	-49.3	16.4	0.00e+00	0	43	0	195035136	64	5032
2026-01-12 10:45:22.67	194.62	16.78	-46.4	-49.4	16.4	0.00e+00	0	43	0	197132288	64	5048
2026-01-12 10:45:23.68	194.72	16.88	-46.3	-49.3	16.5	0.00e+00	0	43	0	198180864	64	4990
2026-01-12 10:45:24.68	194.81	16.99	-46.3	-49.3	16.4	0.00e+00	0	44	0	200278016	64	5039
2026-01-12 10:45:25.68	194.91	17.09	-46.4	-49.5	16.3	0.00e+00	0	43	0	202375168	64	5116
2026-01-12 10:45:26.68	195.01	17.20	-46.4	-49.4	16.4	0.00e+00	0	43	0	204472320	64	5094
2026-01-12 10:45:27.68	195.11	17.30	-46.4	-49.5	16.4	0.00e+00	0	44	0	206569472	64	5101
2026-01-12 10:45:28.68	195.21	17.41	-46.4	-49.5	16.3	0.00e+00	0	43	0	207618048	64	5117
2026-01-12 10:45:29.69	195.31	17.52	-46.5	-49.6	16.2	0.00e+00	0	43	0	209715200	64	5178
2026-01-12 10:45:30.69	195.42	17.63	-46.5	-49.5	16.3	0.00e+00	0	44	0	211812352	64	5146
2026-01-12 10:45:31.69	195.52	17.73	-46.5	-49.6	16.2	0.00e+00	0	44	0	213909504	64	5187
2026-01-12 10:45:32.69	195.62	17.84	-46.6	-49.7	16.2	0.00e+00	0	43	0	216006656	64	5225
2026-01-12 10:45:33.69	195.73	17.95	-46.6	-49.7	16.1	0.00e+00	0	43	0	217055232	64	5254
2026-01-12 10:45:34.69	195.83	18.06	-46.6	-49.7	16.2	0.00e+00	0	43	0	219152384	64	5237
2026-01-12 10:45:35.69	195.94	18.17	-46.7	-49.8	16.1	0.00e+00	0	44	0	221249536	64	5285
2026-01-12 10:45:36.69	196.04	18.28	-46.7	-49.7	16.1	0.00e+00	0	44	0	223346688	64	5267
2026-01-12 10:45:37.69	196.15	18.39	-46.8	-49.9	16.0	0.00e+00	0	43	0	224395264	64	5352
2026-01-12 10:45:38.70	196.26	18.50	-46.8	-49.9	15.9	0.00e+00	0	44	0	226492416	64	5372
2026-01-12 10:45:39.70	196.37	18.61	-46.9	-50.0	15.8	0.00e+00	0	43	0	228589568	64	5437
2026-01-12 10:45:40.70	196.48	18.72	-46.9	-50.0	15.8	0.00e+00	0	44	0	230686720	64	5434
2026-01-12 10:45:41.70	196.59	18.83	-46.9	-49.9	15.9	0.00e+00	0	44	0	232783872	64	5394
2026-01-12 10:45:42.70	196.70	18.94	-46.9	-49.9	15.9	0.00e+00	0	43	0	233832448	64	5397
2026-01-12 10:45:43.70	196.81	19.06	-47.0	-50.0	15.8	0.00e+00	0	43	0	235929600	64	5452
2026-01-12 10:45:44.70	196.92	19.17	-47.1	-50.2	15.7	0.00e+00	0	43	0	238026752	64	5530
2026-01-12 10:45:45.70	197.04	19.28	-47.0	-50.0	15.8	0.00e+00	0	43	0	240123904	64	5457
2026-01-12 10:45:46.70	197.15	19.40	-47.0	-50.1	15.8	0.00e+00	0	44	0	242221056	64	5500
2026-01-12 10:45:47.70	197.27	19.51	-47.0	-50.1	15.8	0.00e+00	0	44	0	243269632	64	5521
2026-01-12 10:45:48.70	197.38	19.63	-47.0	-50.1	15.8	0.00e+00	0	44	0	245366784	64	5521
2026-01-12 10:45:49.71	197.50	19.74	-47.0	-50.1	15.7	0.00e+00	0	43	0	247463936	64	5528
2026-01-12 10:45:50.71	197.62	19.86	-47.0	-50.1	15.8	0.00e+00	0	43	0	249561088	64	5491
2026-01-12 10:45:51.70	197.73	19.97	-47.0	-50.1	15.8	7.00e-07	0	43	0	250609664	64	5507
2026-01-12 10:45:52.71	197.85	20.09	-46.9	-50.0	15.8	0.00e+00	0	43	0	252706816	64	5460
2026-01-12 10:45:53.70	197.97	20.20	-46.9	-50.0	15.9	0.00e+00	0	43	0	254803968	64	5437
2026-01-12 10:45:54.70	198.09	20.32	-46.9	-50.1	15.8	0.00e+00	0	44	0	256901120	64	5500
2026-01-12 10:45:55.70	198.22	20.44	-46.9	-50.1	15.8	0.00e+00	0	43	0	258998272	64	5497
2026-01-12 10:45:56.70	198.34	20.56	-47.0	-50.2	15.8	0.00e+00	0	43	0	260046848	64	5529
2026-01-12 10:45:57.70	198.46	20.67	-47.0	-50.2	15.7	0.00e+00	0	43	0	262144000	64	5549
2026-01-12 10:45:58.70	198.59	20.79	-47.0	-50.2	15.7	0.00e+00	0	44	0	264241152	64	5575
2026-01-12 10:45:59.70	198.71	20.91	-47.1	-50.3	15.6	0.00e+00	0	44	0	266338304	64	5633
2026-01-12 10:46:00.71	198.84	21.03	-47.1	-50.4	15.6	0.00e+00	0	44	0	268435456	64	5678
2026-01-12 10:46:01.71	198.97	21.15	-47.0	-50.2	15.8	0.00e+00	0	44	0	269484032	64	5549
2026-01-12 10:46:02.71	199.10	21.27	-47.0	-50.1	15.9	0.00e+00	0	44	0	271581184	64	5494
2026-01-12 10:46:03.71	199.23	21.39	-47.0	-50.0	15.9	0.00e+00	0	44	0	273678336	64	5455
2026-01-12 10:46:04.71	199.36	21.52	-47.0	-50.0	15.9	0.00e+00	0	44	0	275775488	64	5436
2026-01-12 10:46:05.71	199.49	21.64	-47.0	-50.0	15.9	0.00e+00	0	44	0	277872640	64	5435
2026-01-12 10:46:06.71	199.62	21.76	-46.9	-49.9	16.0	0.00e+00	0	44	0	278921216	64	5395
2026-01-12 10:46:07.72	199.75	21.88	-46.9	-49.9	16.0	0.00e+00	0	44	0	281018368	64	5368
2026-01-12 10:46:08.72	199.89	22.01	-46.9	-49.9	16.1	0.00e+00	0	44	0	283115520	64	5346
2026-01-12 10:46:09.72	200.02	22.13	-46.9	-49.8	16.1	0.00e+00	0	44	0	285212672	64	5339
2026-01-12 10:46:10.72	200.16	22.25	-46.9	-49.8	16.1	0.00e+00	0	44	0	287309824	64	5339
2026-01-12 10:46:11.72	200.30	22.38	-46.9	-49.8	16.2	0.00e+00	0	43	0	288358400	64	5324
2026-01-12 10:46:12.72	200.44	22.50	-46.9	-49.9	16.1	0.00e+00	0	44	0	290455552	64	5379
2026-01-12 10:46:13.73	200.58	22.63	-47.1	-50.1	15.8	0.00e+00	0	44	0	292552704	64	5505
2026-01-12 10:46:14.73	200.72	22.76	-47.0	-50.0	16.0	0.00e+00	0	44	0	294649856	64	5450
2026-01-12 10:46:15.72	200.86	22.88	-46.9	-49.9	16.1	0.00e+00	0	44	0	295698432	64	5361
2026-01-12 10:46:16.72	201.00	23.01	-46.9	-49.9	16.1	0.00e+00	0	44	0	297795584	64	5363
2026-01-12 10:46:17.73	201.15	23.14	-47.0	-50.0	16.0	0.00e+00	0	44	0	299892736	64	5406
2026-01-12 10:46:18.73	201.29	23.26	-46.9	-49.9	16.0	0.00e+00	0	44	0	301989888	64	5396
2026-01-12 10:46:19.73	201.44	23.39	-47.0	-50.0	16.0	0.00e+00	0	44	0	304087040	64	5463
2026-01-12 10:46:20.73	201.59	23.52	-47.1	-50.1	15.9	0.00e+00	0	44	0	305135616	64	5504
2026-01-12 10:46:21.73	201.74	23.65	-47.1	-50.1	15.9	0.00e+00	0	44	0	307232768	64	5513
2026-01-12 10:46:22.74	201.89	23.78	-47.2	-50.3	15.8	0.00e+00	0	43	0	309329920	64	5595
2026-01-12 10:46:23.74	202.04	23.91	-47.1	-50.2	15.8	0.00e+00	0	43	0	311427072	65	5255
2026-01-12 10:46:24.74	202.19	24.04	-47.1	-50.2	15.8	0.00e+00	0	43	0	313524224	65	5234
2026-01-12 10:46:25.74	202.35	24.17	-47.0	-50.1	15.9	0.00e+00	0	44	0	314572800	65	5166
2026-01-12 10:46:26.74	202.50	24.30	-47.0	-50.0	16.0	0.00e+00	0	44	0	316669952	65	5154
2026-01-12 10:46:27.74	202.66	24.43	-46.9	-49.9	16.1	0.00e+00	0	44	0	318767104	65	5048
2026-01-12 10:46:28.74	202.82	24.56	-46.9	-49.8	16.2	0.00e+00	0	44	0	320864256	65	4998
2026-01-12 10:46:29.75	202.98	24.70	-46.9	-49.9	16.1	0.00e+00	0	44	0	322961408	65	5056
2026-01-12 10:46:30.74	203.13	24.83	-46.8	-49.7	16.2	0.00e+00	0	44	0	324009984	65	4978
2026-01-12 10:46:31.74	203.30	24.96	-46.9	-49.9	16.1	0.00e+00	0	44	0	326107136	65	5082
2026-01-12 10:46:32.74	203.46	25.10	-47.0	-50.0	16.1	0.00e+00	0	43	0	328204288	65	5118
2026-01-12 10:46:33.75	203.62	25.23	-47.0	-50.1	15.9	0.00e+00	0	43	0	330301440	65	5162
2026-01-12 10:46:34.75	203.79	25.37	-47.0	-50.0	16.0	0.00e+00	0	43	0	331350016	65	5137
2026-01-12 10:46:35.75	203.96	25.50	-47.1	-50.1	15.9	0.00e+00	0	44	0	333447168	65	5212
2026-01-12 10:46:36.75	204.13	25.64	-47.2	-50.3	15.7	0.00e+00	0	44	0	335544320	65	5305
2026-01-12 10:46:37.75	204.30	25.77	-47.2	-50.3	15.7	0.00e+00	0	44	0	337641472	65	5325
2026-01-12 10:46:38.75	204.47	25.91	-47.2	-50.3	15.7	0.00e+00	0	44	0	339738624	65	5319
2026-01-12 10:46:39.75	204.64	26.05	-47.2	-50.2	15.8	0.00e+00	0	44	0	340787200	65	5256
2026-01-12 10:46:40.75	204.81	26.18	-47.2	-50.2	15.8	0.00e+00	0	44	0	342884352	65	5266
2026-01-12 10:46:41.75	204.99	26.32	-47.1	-50.1	15.9	0.00e+00	0	44	0	344981504	65	5203
2026-01-12 10:46:42.75	205.17	26.46	-47.2	-50.2	15.9	0.00e+00	0	44	0	347078656	65	5232
2026-01-12 10:46:43.75	205.34	26.60	-47.2	-50.2	15.8	0.00e+00	0	44	0	349175808	65	5240
2026-01-12 10:46:44.76	205.53	26.74	-47.3	-50.4	15.7	0.00e+00	0	44	0	350224384	65	5347
2026-01-12 10:46:45.75	205.71	26.88	-47.4	-50.5	15.5	0.00e+00	0	44	0	352321536	65	5436
2026-01-12 10:46:46.76	205.89	27.02	-47.5	-50.7	15.4	0.00e+00	0	44	0	354418688	65	5550
2026-01-12 10:46:47.76	206.08	27.16	-47.5	-50.7	15.3	0.00e+00	0	44	0	356515840	65	5572
2026-01-12 10:46:48.76	206.26	27.30	-47.6	-50.9	15.2	0.00e+00	0	44	0	357564416	65	5682
2026-01-12 10:46:49.76	206.45	27.44	-47.7	-51.1	15.0	0.00e+00	0	44	0	359661568	66	5481
2026-01-12 10:46:50.76	206.64	27.58	-47.8	-51.2	14.9	0.00e+00	0	44	0	361758720	66	5538
2026-01-12 10:46:51.76	206.83	27.72	-48.0	-51.4	14.7	0.00e+00	0	44	0	363855872	66	5718
2026-01-12 10:46:52.76	207.02	27.87	-48.0	-51.5	14.6	0.00e+00	0	44	0	365953024	66	5763
2026-01-12 10:46:53.77	207.22	28.01	-48.1	-51.6	14.5	1.50e-06	0	44	0	367001600	66	5804
2026-01-12 10:46:54.76	207.42	28.15	-48.1	-51.6	14.5	0.00e+00	0	43	0	369098752	66	5806
2026-01-12 10:46:55.77	207.62	28.30	-48.0	-51.4	14.7	0.00e+00	0	44	0	371195904	66	5684
2026-01-12 10:46:56.77	207.81	28.44	-47.9	-51.3	14.8	0.00e+00	0	44	0	373293056	66	5620
2026-01-12 10:46:57.77	208.02	28.58	-48.1	-51.6	14.5	7.00e-07	0	44	0	375390208	66	5803
2026-01-12 10:46:58.77	208.22	28.73	-48.1	-51.6	14.4	0.00e+00	0	43	0	376438784	66	5846
2026-01-12 10:46:59.77	208.43	28.87	-48.2	-51.7	14.4	7.00e-07	0	43	0	378535936	67	5555
2026-01-12 10:47:00.77	208.63	29.02	-48.3	-51.9	14.2	0.00e+00	0	44	0	380633088	67	5667
2026-01-12 10:47:01.77	208.84	29.16	-48.3	-51.9	14.2	2.20e-06	0	43	0	382730240	67	5722
2026-01-12 10:47:02.77	209.05	29.31	-48.3	-52.0	14.0	2.20e-06	0	44	0	384827392	67	5763
2026-01-12 10:47:03.77	209.26	29.46	-48.4	-52.2	13.9	3.00e-06	0	44	0	385875968	67	5873
2026-01-12 10:47:04.77	209.48	29.60	-48.7	-52.5	13.6	3.80e-06	0	44	0	387973120	67	6122
2026-01-12 10:47:05.78	209.70	29.75	-48.9	-52.8	13.4	1.60e-05	0	44	0	390070272	68	5985
2026-01-12 10:47:06.77	209.91	29.90	-49.0	-53.1	13.2	1.90e-05	0	44	0	392167424	68	6155
2026-01-12 10:47:07.78	210.14	30.05	-49.0	-52.9	13.3	2.28e-05	0	44	0	394264576	68	6054
2026-01-12 10:47:08.78	210.36	30.19	-48.9	-52.8	13.5	9.10e-06	0	44	0	395313152	68	5924
2026-01-12 10:47:09.78	210.58	30.34	-48.8	-52.6	13.7	9.10e-06	0	44	0	397410304	68	5824
2026-01-12 10:47:10.78	210.81	30.49	-48.6	-52.3	14.0	2.20e-06	0	44	0	399507456	68	5611
2026-01-12 10:47:11.78	211.04	30.64	-48.5	-52.1	14.2	2.20e-06	0	44	0	401604608	68	5485
2026-01-12 10:47:12.78	211.27	30.79	-48.5	-52.1	14.2	2.20e-06	0	44	0	403701760	68	5468
2026-01-12 10:47:13.78	211.50	30.94	-48.3	-51.8	14.5	1.50e-06	0	44	0	404750336	68	5291
2026-01-12 10:47:14.79	211.74	31.09	-48.1	-51.6	14.7	0.00e+00	0	44	0	406847488	68	5161
2026-01-12 10:47:15.78	211.97	31.24	-48.2	-51.8	14.5	1.50e-06	0	44	0	408944640	68	5309
2026-01-12 10:47:16.79	212.21	31.39	-48.2	-51.7	14.6	1.50e-06	0	44	0	411041792	68	5268
2026-01-12 10:47:17.79	212.45	31.54	-48.3	-51.8	14.5	7.00e-07	0	44	0	412090368	68	5294
2026-01-12 10:47:18.79	212.70	31.69	-48.3	-51.9	14.4	0.00e+00	0	44	0	414187520	68	5342
2026-01-12 10:47:19.79	212.94	31.84	-48.3	-51.8	14.5	0.00e+00	0	44	0	416284672	68	5305
2026-01-12 10:47:20.79	213.19	31.99	-48.1	-51.4	14.9	0.00e+00	0	44	0	418381824	68	5078
2026-01-12 10:47:21.79	213.44	32.14	-47.8	-51.1	15.0	0.00e+00	0	44	0	420478976	67	5174
2026-01-12 10:47:22.79	213.69	32.29	-47.8	-51.1	15.0	0.00e+00	0	44	0	421527552	67	5207
2026-01-12 10:47:23.79	213.95	32.44	-47.9	-51.2	14.9	0.00e+00	0	44	0	423624704	67	5269
2026-01-12 10:47:24.79	214.20	32.60	-47.9	-51.2	14.9	0.00e+00	0	44	0	425721856	67	5274
2026-01-12 10:47:25.79	214.46	32.75	-47.9	-51.3	14.9	0.00e+00	0	43	0	427819008	67	5296
2026-01-12 10:47:26.78	214.72	32.90	-47.9	-51.2	14.9	7.00e-07	0	44	0	429916160	67	5235
2026-01-12 10:47:27.78	214.99	33.05	-47.9	-51.3	14.8	0.00e+00	0	44	0	430964736	67	5306
2026-01-12 10:47:28.77	215.25	33.20	-47.9	-51.2	14.9	0.00e+00	0	44	0	433061888	67	5241
2026-01-12 10:47:29.77	215.52	33.35	-47.8	-51.1	15.0	0.00e+00	0	44	0	435159040	67	5216
2026-01-12 10:47:30.77	215.79	33.50	-48.0	-51.3	14.8	0.00e+00	0	44	0	437256192	67	5336
2026-01-12 10:47:31.76	216.06	33.65	-47.9	-51.3	14.9	0.00e+00	0	44	0	438304768	67	5283
2026-01-12 10:47:32.76	216.34	33.81	-47.9	-51.2	14.9	0.00e+00	0	44	0	440401920	67	5250
2026-01-12 10:47:33.75	216.62	33.96	-47.8	-51.2	15.0	0.00e+00	0	44	0	442499072	67	5220
2026-01-12 10:47:34.75	216.90	34.11	-47.8	-51.2	14.9	0.00e+00	0	44	0	444596224	67	5246
2026-01-12 10:47:35.74	217.18	34.26	-47.9	-51.3	14.8	0.00e+00	0	44	0	446693376	67	5320
2026-01-12 10:47:36.74	217.47	34.41	-47.9	-51.3	14.8	0.00e+00	0	43	0	447741952	67	5316
2026-01-12 10:47:37.73	217.75	34.56	-47.9	-51.3	14.8	0.00e+00	0	44	0	449839104	67	5295
2026-01-12 10:47:38.73	218.04	34.72	-48.0	-51.4	14.7	7.00e-07	0	44	0	451936256	67	5395
2026-01-12 10:47:39.72	218.34	34.87	-48.1	-51.6	14.5	7.00e-07	0	44	0	454033408	67	5493
2026-01-12 10:47:40.72	218.63	35.02	-48.0	-51.5	14.6	7.00e-07	0	44	0	455081984	67	5428
2026-01-12 10:47:41.78	218.95	35.18	-47.9	-51.3	14.8	7.00e-07	0	44	0	457179136	67	5312
2026-01-12 10:47:42.66	219.22	35.31	-48.0	-51.4	14.8	0.00e+00	0	44	0	459276288	67	5343
2026-01-12 10:47:43.97	219.62	35.51	-47.8	-51.1	15.1	0.00e+00	0	44	0	461373440	67	5177
2026-01-12 10:47:44.68	219.84	35.62	-47.7	-50.9	15.3	7.00e-07	0	44	0	463470592	67	5067
2026-01-12 10:47:45.96	220.24	35.81	-47.3	-50.4	15.8	0.00e+00	0	44	0	465567744	66	5061
2026-01-12 10:47:46.69	220.47	35.92	-47.2	-50.2	15.8	0.00e+00	0	44	0	466616320	66	4970
2026-01-12 10:47:47.97	220.87	36.11	-47.1	-50.0	16.1	0.00e+00	0	44	0	468713472	66	4845
2026-01-12 10:47:48.69	221.10	36.22	-47.0	-49.9	16.2	0.00e+00	0	44	0	470810624	66	4804
2026-01-12 10:47:49.97	221.52	36.41	-47.1	-50.1	16.0	0.00e+00	0	44	0	472907776	65	5188
2026-01-12 10:47:50.70	221.76	36.52	-47.2	-50.3	15.9	0.00e+00	0	44	0	473956352	65	5297
2026-01-12 10:47:51.98	222.18	36.71	-47.3	-50.4	15.7	0.00e+00	0	44	0	477102080	65	5347
2026-01-12 10:47:52.69	222.41	36.82	-47.3	-50.4	15.7	0.00e+00	0	44	0	478150656	65	5382
2026-01-12 10:47:53.97	222.84	37.01	-47.5	-50.6	15.5	0.00e+00	0	44	0	480247808	65	5486
2026-01-12 10:47:54.71	223.09	37.12	-47.4	-50.5	15.6	0.00e+00	0	44	0	481296384	65	5424
2026-01-12 10:47:55.98	223.52	37.31	-47.2	-50.2	15.9	0.00e+00	0	44	0	484442112	65	5263
2026-01-12 10:47:56.70	223.77	37.41	-47.2	-50.2	16.0	0.00e+00	0	44	0	485490688	65	5223
2026-01-12 10:47:57.97	224.21	37.60	-47.0	-50.0	16.2	0.00e+00	0	44	0	487587840	65	5109
2026-01-12 10:47:58.68	224.46	37.70	-47.0	-50.0	16.2	0.00e+00	0	44	0	489684992	65	5120
2026-01-12 10:48:00.17	224.99	37.92	-47.3	-50.3	15.8	0.00e+00	0	44	0	491782144	65	5309
2026-01-12 10:48:00.88	225.24	38.02	-47.5	-50.6	15.6	0.00e+00	0	44	0	493879296	65	5507
2026-01-12 10:48:02.16	225.70	38.21	-48.0	-51.3	14.8	0.00e+00	0	44	0	495976448	66	5639
2026-01-12 10:48:02.87	225.96	38.31	-48.1	-51.6	14.6	0.00e+00	0	44	0	497025024	66	5795
2026-01-12 10:48:04.15	226.43	38.49	-48.3	-51.8	14.3	7.00e-07	0	44	0	499122176	67	5655
2026-01-12 10:48:04.86	226.69	38.59	-48.2	-51.6	14.6	7.00e-07	0	44	0	501219328	67	5509
2026-01-12 10:48:06.14	227.17	38.78	-48.1	-51.5	14.6	0.00e+00	0	44	0	503316480	67	5436
2026-01-12 10:48:06.87	227.44	38.88	-48.0	-51.4	14.7	7.00e-07	0	44	0	504365056	67	5369
2026-01-12 10:48:08.15	227.93	39.06	-48.1	-51.6	14.5	1.50e-06	0	44	0	506462208	67	5465
2026-01-12 10:48:08.91	228.22	39.16	-48.3	-51.8	14.3	2.20e-06	0	44	0	508559360	67	5615
2026-01-12 10:48:10.18	228.71	39.34	-48.5	-52.2	14.0	3.80e-06	0	44	0	510656512	67	5858
2026-01-12 10:48:10.89	228.99	39.44	-48.6	-52.3	13.8	3.00e-06	0	44	0	511705088	67	5979
2026-01-12 10:48:12.17	229.49	39.61	-48.8	-52.6	13.7	7.00e-07	0	44	0	514850816	68	5819
2026-01-12 10:48:13.02	229.83	39.73	-48.7	-52.4	13.8	1.50e-06	0	44	0	515899392	68	5719
2026-01-12 10:48:14.16	230.28	39.88	-48.4	-52.0	14.3	0.00e+00	0	44	0	517996544	68	5416
2026-01-12 10:48:15.19	230.69	40.02	-48.4	-51.9	14.4	7.00e-07	0	44	0	520093696	68	5395
2026-01-12 10:48:16.38	231.18	40.17	-48.2	-51.6	14.7	7.00e-07	0	44	0	522190848	68	5191
2026-01-12 10:48:17.23	231.53	40.29	-48.0	-51.3	15.1	0.00e+00	0	44	0	524288000	68	4989
2026-01-12 10:48:18.36	231.99	40.43	-47.9	-51.3	14.9	0.00e+00	0	44	0	526385152	67	5282
2026-01-12 10:48:19.22	232.35	40.54	-48.0	-51.5	14.6	0.00e+00	0	44	0	527433728	67	5452
2026-01-12 10:48:20.36	232.83	40.69	-48.1	-51.7	14.4	0.00e+00	0	44	0	529530880	67	5589
2026-01-12 10:48:21.21	233.19	40.80	-48.3	-52.0	14.2	0.00e+00	0	44	0	531628032	67	5724
2026-01-12 10:48:22.34	233.67	40.94	-48.2	-51.7	14.4	7.00e-07	0	44	0	533725184	67	5584
2026-01-12 10:48:23.20	234.04	41.04	-48.2	-51.7	14.6	7.00e-07	0	44	0	534773760	67	5536
2026-01-12 10:48:24.34	234.53	41.18	-47.9	-51.2	15.0	0.00e+00	0	44	0	536870912	67	5259
2026-01-12 10:48:25.19	234.90	41.29	-47.8	-51.1	15.1	0.00e+00	0	44	0	538968064	67	5189
2026-01-12 10:48:26.33	235.40	41.42	-48.2	-51.6	14.6	0.00e+00	0	44	0	541065216	67	5498
2026-01-12 10:48:27.18	235.77	41.52	-48.5	-52.2	13.9	1.50e-06	0	44	0	543162368	67	5888
2026-01-12 10:48:28.36	236.30	41.66	-49.1	-53.1	13.2	1.14e-05	0	44	0	545259520	68	6181
2026-01-12 10:48:29.22	236.68	41.76	-49.3	-53.3	12.9	3.35e-05	0	44	0	546308096	69	5989
2026-01-12 10:48:30.42	237.23	41.90	-49.0	-52.8	13.5	1.44e-05	0	44	0	548405248	69	5630
2026-01-12 10:48:31.27	237.61	41.99	-48.8	-52.5	13.9	6.10e-06	0	44	0	550502400	69	5424
2026-01-12 10:48:32.49	238.17	42.12	-48.8	-52.6	13.8	3.80e-06	0	44	0	552599552	69	5465
2026-01-12 10:48:33.34	238.56	42.22	-48.8	-52.6	13.7	2.20e-06	0	44	0	554696704	69	5475
2026-01-12 10:48:34.54	239.12	42.34	-49.2	-53.2	13.2	1.14e-05	0	44	0	556793856	69	5888
2026-01-12 10:48:35.39	239.52	42.43	-49.5	-53.9	12.4	5.03e-05	0	44	0	557842432	69	6394
2026-01-12 10:48:36.53	240.05	42.55	-49.8	-54.4	11.9	3.17e-04	0	44	0	559939584	70	6358
2026-01-12 10:48:37.39	240.46	42.64	-49.7	-54.2	12.1	4.12e-04	0	44	0	562036736	70	6229
2026-01-12 10:48:38.52	241.00	42.75	-49.2	-53.4	13.0	4.88e-05	0	44	0	564133888	70	5665
2026-01-12 10:48:39.37	241.40	42.83	-49.0	-52.9	13.4	1.14e-05	0	44	0	565182464	70	5402
2026-01-12 10:48:40.51	241.95	42.94	-49.0	-53.0	13.3	1.22e-05	0	44	0	567279616	69	5761
2026-01-12 10:48:41.37	242.37	43.02	-48.9	-52.8	13.5	5.30e-06	0	44	0	569376768	69	5635
2026-01-12 10:48:42.50	242.92	43.12	-49.0	-53.1	13.2	2.44e-05	0	44	0	571473920	69	5802
2026-01-12 10:48:43.36	243.34	43.20	-49.1	-53.2	13.1	2.13e-05	0	44	0	572522496	69	5897
2026-01-12 10:48:44.49	243.90	43.30	-49.3	-53.6	12.7	6.10e-05	0	44	0	574619648	69	6150
2026-01-12 10:48:45.35	244.32	43.37	-49.2	-53.3	13.0	5.79e-05	0	44	0	576716800	69	5934
2026-01-12 10:48:46.49	244.89	43.47	-48.8	-52.6	13.7	1.22e-05	0	44	0	578813952	69	5506
2026-01-12 10:48:47.34	245.31	43.53	-48.7	-52.3	14.0	2.20e-06	0	44	0	580911104	69	5313
2026-01-12 10:48:48.48	245.89	43.62	-48.7	-52.5	13.9	7.00e-07	0	44	0	583008256	69	5403
2026-01-12 10:48:49.33	246.32	43.69	-49.0	-52.9	13.5	3.80e-06	0	44	0	584056832	69	5693
2026-01-12 10:48:50.47	246.89	43.77	-49.4	-53.7	12.6	6.40e-05	0	44	0	586153984	69	6243
2026-01-12 10:48:51.32	247.33	43.83	-48.9	-52.8	13.5	2.74e-05	0	44	0	588251136	69	5615
2026-01-12 10:48:52.60	247.98	43.92	-48.3	-51.9	14.5	1.50e-06	0	44	0	590348288	68	5366
2026-01-12 10:48:53.31	248.35	43.97	-48.0	-51.4	15.0	2.20e-06	0	44	0	591396864	68	5058
2026-01-12 10:48:54.59	249.01	44.05	-47.8	-51.1	15.1	0.00e+00	0	44	0	594542592	67	5195
2026-01-12 10:48:55.30	249.38	44.10	-47.8	-51.1	15.1	0.00e+00	0	44	0	595591168	67	5209
2026-01-12 10:48:56.58	250.04	44.17	-48.1	-51.5	14.8	0.00e+00	0	44	0	597688320	67	5428
2026-01-12 10:48:57.29	250.41	44.21	-48.3	-51.9	14.3	0.00e+00	0	44	0	598736896	67	5702
2026-01-12 10:48:58.57	251.08	44.28	-48.8	-52.7	13.6	3.80e-06	0	44	0	601882624	68	5911
2026-01-12 10:48:59.29	251.46	44.32	-48.7	-52.4	13.9	3.80e-06	0	44	0	602931200	68	5707
2026-01-12 10:49:00.57	252.13	44.38	-48.7	-52.4	14.0	1.50e-06	0	44	0	605028352	68	5696
2026-01-12 10:49:01.31	252.53	44.42	-48.7	-52.4	14.0	2.20e-06	0	44	0	607125504	68	5681
2026-01-12 10:49:02.59	253.20	44.47	-48.8	-52.5	13.9	3.00e-06	0	44	0	609222656	68	5759
2026-01-12 10:49:03.47	253.67	44.51	-48.6	-52.2	14.1	3.00e-06	0	44	0	610271232	68	5570
2026-01-12 10:49:04.61	254.28	44.55	-48.6	-52.2	14.1	1.50e-06	0	44	0	612368384	68	5567
2026-01-12 10:49:05.65	254.83	44.59	-48.9	-52.7	13.7	3.80e-06	0	44	0	614465536	68	5890
2026-01-12 10:49:06.59	255.34	44.62	-49.3	-53.4	12.8	3.05e-05	0	44	0	616562688	69	6053
2026-01-12 10:49:07.58	255.87	44.65	-49.1	-53.0	13.3	4.11e-05	0	44	0	618659840	69	5776
2026-01-12 10:49:08.58	256.41	44.68	-48.7	-52.4	13.9	8.30e-06	0	44	0	620756992	69	5368
2026-01-12 10:49:09.57	256.94	44.70	-48.5	-52.0	14.3	7.00e-07	0	44	0	621805568	68	5438
2026-01-12 10:49:10.56	257.47	44.73	-48.3	-51.7	14.6	0.00e+00	0	44	0	623902720	68	5272
2026-01-12 10:49:11.56	258.01	44.75	-48.1	-51.4	15.0	0.00e+00	0	44	0	625999872	68	5069
2026-01-12 10:49:12.55	258.55	44.76	-47.8	-51.1	15.0	0.00e+00	0	44	0	628097024	67	5202
2026-01-12 10:49:13.55	259.09	44.78	-47.9	-51.3	15.0	0.00e+00	0	44	0	629145600	67	5292
2026-01-12 10:49:14.54	259.62	44.79	-48.2	-51.7	14.5	7.00e-07	0	44	0	631242752	67	5568
2026-01-12 10:49:15.54	260.16	44.80	-48.2	-51.8	14.5	0.00e+00	0	44	0	633339904	67	5609
2026-01-12 10:49:16.54	260.70	44.80	-47.9	-51.3	14.9	0.00e+00	0	44	0	635437056	67	5323
2026-01-12 10:49:17.53	261.24	44.81	-47.8	-51.1	15.1	0.00e+00	0	44	0	637534208	67	5188
2026-01-12 10:49:18.53	261.78	44.81	-47.8	-51.0	15.3	0.00e+00	0	44	0	638582784	67	5123
2026-01-12 10:49:19.52	262.32	44.80	-47.7	-51.0	15.2	7.00e-07	0	44	0	640679936	67	5124
2026-01-12 10:49:20.52	262.86	44.80	-47.8	-51.0	15.2	0.00e+00	0	44	0	642777088	67	5134
2026-01-12 10:49:21.52	263.40	44.79	-47.5	-50.7	15.5	0.00e+00	0	44	0	644874240	67	4942
2026-01-12 10:49:22.51	263.94	44.78	-47.4	-50.5	15.7	0.00e+00	0	44	0	645922816	66	5131
2026-01-12 10:49:23.51	264.48	44.77	-47.2	-50.2	15.9	0.00e+00	0	44	0	648019968	66	4980
2026-01-12 10:49:24.50	265.01	44.75	-47.3	-50.3	15.9	0.00e+00	0	44	0	650117120	66	5011
2026-01-12 10:49:25.49	265.55	44.73	-47.6	-50.9	15.3	0.00e+00	0	44	0	652214272	66	5345
2026-01-12 10:49:26.49	266.09	44.71	-47.8	-51.1	15.1	0.00e+00	0	44	0	654311424	66	5496
2026-01-12 10:49:27.48	266.62	44.69	-47.7	-50.9	15.3	0.00e+00	0	44	0	655360000	66	5394
2026-01-12 10:49:28.48	267.16	44.66	-47.2	-50.2	15.9	0.00e+00	0	44	0	657457152	66	4978
2026-01-12 10:49:29.47	267.69	44.63	-46.9	-49.7	16.5	0.00e+00	0	44	0	659554304	65	4949
2026-01-12 10:49:30.49	268.23	44.60	-47.1	-50.0	16.2	0.00e+00	0	44	0	661651456	65	5110
2026-01-12 10:49:31.48	268.76	44.56	-47.4	-50.5	15.7	0.00e+00	0	44	0	663748608	65	5425
2026-01-12 10:49:32.47	269.29	44.52	-48.0	-51.5	14.7	0.00e+00	0	44	0	664797184	66	5729
2026-01-12 10:49:33.47	269.82	44.48	-48.1	-51.5	14.7	0.00e+00	0	44	0	666894336	66	5746
2026-01-12 10:49:34.46	270.34	44.44	-47.9	-51.2	14.9	0.00e+00	0	44	0	668991488	66	5580
2026-01-12 10:49:35.46	270.87	44.39	-47.7	-50.9	15.3	0.00e+00	0	44	0	671088640	66	5395
2026-01-12 10:49:36.45	271.39	44.35	-47.8	-51.0	15.2	0.00e+00	0	44	0	672137216	66	5457
2026-01-12 10:49:37.45	271.92	44.30	-47.7	-50.9	15.3	0.00e+00	0	44	0	674234368	66	5387
2026-01-12 10:49:38.44	272.44	44.24	-47.5	-50.6	15.7	0.00e+00	0	44	0	676331520	66	5172
2026-01-12 10:49:39.44	272.96	44.19	-47.5	-50.5	15.6	0.00e+00	0	44	0	678428672	66	5158
2026-01-12 10:49:40.43	273.47	44.13	-47.5	-50.6	15.7	0.00e+00	0	44	0	680525824	66	5160
2026-01-12 10:49:41.43	273.99	44.07	-47.7	-50.9	15.3	0.00e+00	0	44	0	681574400	66	5384
2026-01-12 10:49:42.42	274.50	44.01	-48.1	-51.6	14.6	7.00e-07	0	44	0	683671552	66	5830
2026-01-12 10:49:43.42	275.02	43.94	-48.6	-52.3	13.9	1.50e-06	0	44	0	685768704	67	5964
2026-01-12 10:49:44.41	275.52	43.87	-48.6	-52.3	13.9	5.30e-06	0	44	0	687865856	67	5962
2026-01-12 10:49:45.41	276.03	43.80	-48.6	-52.3	14.0	4.50e-06	0	44	0	688914432	67	5946
2026-01-12 10:49:46.41	276.54	43.73	-48.4	-51.9	14.3	7.00e-07	0	44	0	691011584	67	5695
2026-01-12 10:49:47.40	277.04	43.66	-48.4	-51.9	14.3	2.20e-06	0	44	0	693108736	67	5714
2026-01-12 10:49:48.46	277.57	43.58	-48.5	-52.1	14.1	0.00e+00	0	44	0	695205888	67	5827
2026-01-12 10:49:49.36	278.02	43.50	-48.6	-52.4	13.9	4.50e-06	0	44	0	696254464	67	6027
2026-01-12 10:49:50.40	278.54	43.42	-48.2	-51.7	14.5	2.20e-06	0	44	0	698351616	67	5545
2026-01-12 10:49:51.40	279.04	43.34	-47.8	-51.0	15.2	0.00e+00	0	44	0	700448768	67	5157
2026-01-12 10:49:52.39	279.52	43.25	-47.7	-50.9	15.4	0.00e+00	0	44	0	702545920	67	5043
2026-01-12 10:49:53.39	280.01	43.16	-47.8	-51.1	15.2	0.00e+00	0	44	0	704643072	67	5174
2026-01-12 10:49:54.39	280.50	43.07	-48.3	-51.9	14.3	0.00e+00	0	44	0	705691648	67	5675
2026-01-12 10:49:55.38	280.98	42.98	-48.3	-51.8	14.4	0.00e+00	0	44	0	707788800	67	5631
2026-01-12 10:49:56.38	281.46	42.89	-48.1	-51.6	14.6	7.00e-07	0	44	0	709885952	67	5481
2026-01-12 10:49:57.37	281.94	42.79	-47.6	-50.9	15.3	7.00e-07	0	44	0	711983104	67	5053
2026-01-12 10:49:58.37	282.41	42.69	-47.7	-50.9	15.3	0.00e+00	0	44	0	714080256	67	5077
2026-01-12 10:49:59.36	282.88	42.60	-47.9	-51.2	15.1	0.00e+00	0	44	0	715128832	67	5223
2026-01-12 10:50:00.36	283.35	42.49	-48.3	-51.8	14.4	7.00e-07	0	44	0	717225984	67	5604
2026-01-12 10:50:01.35	283.82	42.39	-48.3	-51.7	14.5	1.50e-06	0	44	0	719323136	67	5592
2026-01-12 10:50:02.35	284.28	42.29	-47.9	-51.2	15.0	0.00e+00	0	44	0	721420288	67	5242
2026-01-12 10:50:03.34	284.74	42.18	-47.4	-50.5	15.7	0.00e+00	0	44	0	722468864	66	5140
2026-01-12 10:50:04.38	285.21	42.07	-47.3	-50.3	15.9	0.00e+00	0	44	0	724566016	66	5017
2026-01-12 10:50:05.38	285.67	41.96	-47.7	-50.9	15.3	0.00e+00	0	44	0	726663168	66	5364
2026-01-12 10:50:06.37	286.12	41.85	-47.8	-51.0	15.2	0.00e+00	0	44	0	728760320	66	5448
2026-01-12 10:50:07.44	286.60	41.73	-47.1	-50.0	16.2	0.00e+00	0	44	0	730857472	66	4851
2026-01-12 10:50:08.33	286.99	41.62	-46.3	-49.0	17.1	0.00e+00	0	44	0	731906048	64	4860
2026-01-12 10:50:09.47	287.50	41.49	-46.2	-48.8	17.3	0.00e+00	0	44	0	734003200	64	4732
2026-01-12 10:50:10.32	287.87	41.39	-46.3	-49.0	17.2	0.00e+00	0	44	0	736100352	64	4844
2026-01-12 10:50:11.46	288.37	41.25	-47.2	-50.1	16.1	0.00e+00	0	44	0	738197504	64	5525
2026-01-12 10:50:12.31	288.74	41.15	-47.7	-50.9	15.3	0.00e+00	0	44	0	739246080	66	5379
2026-01-12 10:50:13.45	289.23	41.01	-47.0	-49.9	16.2	0.00e+00	0	44	0	742391808	66	4806
2026-01-12 10:50:14.30	289.59	40.91	-46.3	-48.9	17.2	0.00e+00	0	44	0	743440384	64	4790
2026-01-12 10:50:15.44	290.07	40.76	-45.9	-48.4	17.8	0.00e+00	0	44	0	745537536	63	4801
2026-01-12 10:50:16.29	290.43	40.66	-46.1	-48.7	17.5	0.00e+00	0	44	0	747634688	63	4931
2026-01-12 10:50:17.43	290.90	40.51	-46.6	-49.4	16.8	0.00e+00	0	44	0	749731840	63	5384
2026-01-12 10:50:18.28	291.25	40.40	-46.7	-49.6	16.6	0.00e+00	0	44	0	750780416	64	5173
2026-01-12 10:50:19.41	291.72	40.26	-46.3	-48.9	17.2	0.00e+00	0	44	0	752877568	64	4803
2026-01-12 10:50:20.27	292.07	40.14	-46.0	-48.5	17.7	0.00e+00	0	44	0	754974720	63	4846
2026-01-12 10:50:21.40	292.52	39.99	-45.9	-48.4	17.8	0.00e+00	0	44	0	757071872	63	4797
2026-01-12 10:50:22.26	292.87	39.88	-46.1	-48.7	17.5	0.00e+00	0	44	0	758120448	63	4956
2026-01-12 10:50:23.52	293.37	39.71	-46.7	-49.5	16.6	0.00e+00	0	44	0	761266176	64	5157
2026-01-12 10:50:24.24	293.65	39.61	-46.9	-49.8	16.4	0.00e+00	0	44	0	762314752	64	5280
2026-01-12 10:50:25.72	294.23	39.41	-46.7	-49.5	16.7	0.00e+00	0	44	0	765460480	64	5125
2026-01-12 10:50:26.43	294.51	39.32	-46.5	-49.3	16.8	0.00e+00	0	44	0	766509056	64	4995
2026-01-12 10:50:27.71	295.00	39.14	-46.6	-49.4	16.7	0.00e+00	0	44	0	768606208	64	5079
2026-01-12 10:50:28.44	295.28	39.04	-46.9	-49.8	16.4	0.00e+00	0	44	0	769654784	64	5306
2026-01-12 10:50:29.71	295.75	38.86	-47.2	-50.3	15.9	0.00e+00	0	44	0	772800512	65	5312
2026-01-12 10:50:30.44	296.03	38.76	-47.0	-50.1	16.1	0.00e+00	0	44	0	773849088	65	5162
2026-01-12 10:50:31.72	296.50	38.58	-46.5	-49.3	16.8	0.00e+00	0	44	0	775946240	65	4759
2026-01-12 10:50:32.46	296.77	38.47	-46.5	-49.3	16.8	0.00e+00	0	44	0	778043392	65	4725
2026-01-12 10:50:33.74	297.24	38.29	-46.6	-49.4	16.7	0.00e+00	0	44	0	780140544	64	5095
2026-01-12 10:50:34.49	297.51	38.18	-46.7	-49.6	16.5	0.00e+00	0	44	0	781189120	64	5190
2026-01-12 10:50:35.77	297.97	38.00	-46.9	-49.8	16.4	0.00e+00	0	44	0	783286272	64	5309
2026-01-12 10:50:36.50	298.23	37.89	-46.7	-49.6	16.5	0.00e+00	0	44	0	785383424	64	5193
2026-01-12 10:50:37.77	298.68	37.71	-46.6	-49.4	16.8	0.00e+00	0	44	0	787480576	64	5045
2026-01-12 10:50:38.50	298.93	37.60	-46.6	-49.4	16.7	0.00e+00	0	44	0	788529152	64	5077
2026-01-12 10:50:39.77	299.37	37.42	-46.9	-49.9	16.3	0.00e+00	0	44	0	791674880	64	5354
2026-01-12 10:50:40.64	299.67	37.29	-47.1	-50.1	16.1	0.00e+00	0	44	0	792723456	64	5474
2026-01-12 10:50:41.78	300.05	37.12	-47.3	-50.3	15.8	0.00e+00	0	44	0	794820608	65	5328
2026-01-12 10:50:42.63	300.34	37.00	-47.4	-50.5	15.6	0.00e+00	0	44	0	796917760	65	5435
2026-01-12 10:50:43.76	300.72	36.83	-47.2	-50.3	15.9	0.00e+00	0	44	0	799014912	65	5296
2026-01-12 10:50:44.61	301.00	36.70	-47.0	-49.9	16.2	0.00e+00	0	44	0	800063488	65	5083
2026-01-12 10:50:45.75	301.37	36.54	-46.8	-49.7	16.5	0.00e+00	0	44	0	802160640	65	4947
2026-01-12 10:50:46.61	301.65	36.41	-46.6	-49.5	16.6	0.00e+00	0	44	0	804257792	65	4854
2026-01-12 10:50:47.75	302.02	36.24	-46.3	-49.1	17.0	0.00e+00	0	44	0	806354944	64	4904
2026-01-12 10:50:48.60	302.29	36.11	-46.1	-48.8	17.3	0.00e+00	0	44	0	807403520	64	4713
2026-01-12 10:50:49.74	302.65	35.94	-46.1	-48.8	17.3	0.00e+00	0	44	0	809500672	64	4717
2026-01-12 10:50:50.59	302.91	35.81	-46.2	-48.9	17.2	0.00e+00	0	44	0	811597824	64	4796
2026-01-12 10:50:51.73	303.27	35.64	-46.6	-49.5	16.7	0.00e+00	0	44	0	813694976	64	5110
2026-01-12 10:50:52.58	303.53	35.51	-47.2	-50.4	15.8	0.00e+00	0	44	0	815792128	64	5674
2026-01-12 10:50:53.72	303.88	35.34	-47.4	-50.8	15.4	0.00e+00	0	44	0	817889280	65	5609
2026-01-12 10:50:54.64	304.15	35.20	-47.3	-50.6	15.6	0.00e+00	0	44	0	818937856	65	5468
2026-01-12 10:50:55.79	304.50	35.03	-47.1	-50.1	16.0	0.00e+00	0	44	0	821035008	65	5192
2026-01-12 10:50:56.66	304.76	34.90	-47.1	-50.1	16.0	0.00e+00	0	44	0	823132160	65	5195
2026-01-12 10:50:57.80	305.09	34.73	-47.4	-50.6	15.6	0.00e+00	0	44	0	825229312	65	5471
2026-01-12 10:50:58.65	305.34	34.60	-47.9	-51.4	14.8	0.00e+00	0	44	0	826277888	66	5680
2026-01-12 10:51:00.10	305.75	34.38	-48.9	-52.9	13.4	4.50e-06	0	44	0	829423616	68	5994
2026-01-12 10:51:01.22	306.07	34.21	-48.5	-52.2	14.2	5.30e-06	0	44	0	831520768	68	5546
2026-01-12 10:51:02.08	306.32	34.08	-48.1	-51.4	14.9	0.00e+00	0	44	0	833617920	68	5095
2026-01-12 10:51:03.21	306.63	33.91	-47.5	-50.6	15.6	0.00e+00	0	44	0	834666496	67	4904
2026-01-12 10:51:04.07	306.87	33.78	-47.3	-50.4	15.8	0.00e+00	0	44	0	836763648	66	5054
2026-01-12 10:51:05.20	307.18	33.61	-47.5	-50.5	15.6	0.00e+00	0	44	0	838860800	66	5155
2026-01-12 10:51:06.06	307.41	33.48	-47.9	-51.3	15.0	0.00e+00	0	44	0	840957952	66	5601
2026-01-12 10:51:07.19	307.72	33.31	-48.6	-52.4	13.8	2.20e-06	0	44	0	843055104	67	5995
2026-01-12 10:51:08.08	307.95	33.17	-49.0	-53.1	13.2	1.75e-05	0	44	0	844103680	68	6192
2026-01-12 10:51:09.38	308.30	32.98	-48.4	-52.0	14.3	1.50e-06	0	44	0	847249408	68	5450
2026-01-12 10:51:10.10	308.49	32.87	-47.6	-50.8	15.3	0.00e+00	0	44	0	848297984	67	5021
2026-01-12 10:51:11.37	308.82	32.68	-47.2	-50.2	16.0	0.00e+00	0	44	0	850395136	66	4961
2026-01-12 10:51:12.09	309.00	32.57	-47.0	-49.8	16.3	0.00e+00	0	44	0	851443712	66	4757
2026-01-12 10:51:13.65	309.40	32.33	-47.6	-50.8	15.4	0.00e+00	0	44	0	854589440	65	5640
2026-01-12 10:51:14.35	309.57	32.23	-48.3	-51.9	14.3	0.00e+00	0	44	0	855638016	67	5705
2026-01-12 10:51:15.63	309.89	32.04	-49.5	-53.9	12.5	7.24e-05	0	44	0	858783744	69	6394
2026-01-12 10:51:16.66	310.15	31.88	-49.2	-53.3	13.0	1.05e-04	0	44	0	860880896	69	5948
2026-01-12 10:51:17.98	310.47	31.68	-48.0	-51.3	15.0	2.20e-06	0	44	0	862978048	68	5036
2026-01-12 10:51:18.70	310.64	31.58	-47.3	-50.4	15.8	0.00e+00	0	44	0	864026624	66	5069
2026-01-12 10:51:19.97	310.95	31.39	-46.9	-49.8	16.3	0.00e+00	0	44	0	867172352	65	5026
2026-01-12 10:51:20.68	311.12	31.28	-46.9	-49.8	16.3	0.00e+00	0	44	0	868220928	65	5035
2026-01-12 10:51:21.96	311.42	31.09	-47.5	-50.6	15.6	0.00e+00	0	44	0	870318080	65	5483
2026-01-12 10:51:22.71	311.59	30.98	-48.0	-51.4	14.8	0.00e+00	0	44	0	871366656	66	5663
2026-01-12 10:51:23.99	311.89	30.79	-48.9	-52.8	13.5	4.50e-06	0	44	0	874512384	68	5976
2026-01-12 10:51:24.70	312.05	30.69	-49.1	-53.1	13.2	2.21e-05	0	44	0	875560960	68	6199
2026-01-12 10:51:25.98	312.34	30.50	-48.6	-52.3	14.0	7.60e-06	0	44	0	877658112	68	5644
2026-01-12 10:51:26.69	312.50	30.39	-48.0	-51.4	14.9	7.00e-07	0	44	0	879755264	68	5059
2026-01-12 10:51:27.97	312.79	30.20	-46.8	-49.7	16.4	0.00e+00	0	44	0	881852416	65	4963
2026-01-12 10:51:28.69	312.95	30.10	-46.5	-49.3	16.8	0.00e+00	0	44	0	882900992	65	4722
2026-01-12 10:51:29.97	313.23	29.91	-46.7	-49.5	16.6	0.00e+00	0	44	0	884998144	65	4819
2026-01-12 10:51:30.68	313.38	29.81	-46.9	-49.8	16.3	0.00e+00	0	44	0	887095296	65	5029
2026-01-12 10:51:31.96	313.66	29.62	-47.7	-51.0	15.1	0.00e+00	0	44	0	889192448	65	5753
2026-01-12 10:51:32.67	313.81	29.52	-48.3	-52.0	14.2	0.00e+00	0	44	0	890241024	67	5741
2026-01-12 10:51:34.22	314.14	29.29	-48.4	-52.3	13.9	3.00e-06	0	44	0	893386752	67	5951
2026-01-12 10:51:34.93	314.29	29.19	-48.2	-52.0	14.2	3.80e-06	0	44	0	894435328	67	5724
2026-01-12 10:51:36.21	314.55	29.00	-47.4	-50.6	15.5	0.00e+00	0	44	0	896532480	66	5195
2026-01-12 10:51:36.92	314.70	28.90	-46.9	-50.0	16.1	0.00e+00	0	44	0	898629632	66	4833
2026-01-12 10:51:38.20	314.96	28.72	-46.0	-48.6	17.4	0.00e+00	0	44	0	900726784	64	4647
2026-01-12 10:51:38.91	315.10	28.62	-45.9	-48.4	17.7	0.00e+00	0	44	0	901775360	63	4809
2026-01-12 10:51:40.19	315.36	28.43	-46.2	-48.8	17.3	0.00e+00	0	44	0	904921088	63	5039
2026-01-12 10:51:40.92	315.51	28.33	-46.5	-49.3	16.8	0.00e+00	0	44	0	905969664	63	5322
2026-01-12 10:51:42.20	315.76	28.15	-47.2	-50.3	15.8	0.00e+00	0	44	0	908066816	64	5647
2026-01-12 10:51:42.91	315.90	28.05	-47.5	-50.9	15.2	0.00e+00	0	44	0	909115392	65	5713
2026-01-12 10:51:44.19	316.14	27.87	-47.8	-51.4	14.8	0.00e+00	0	44	0	912261120	66	5699
2026-01-12 10:51:45.07	316.31	27.74	-47.5	-51.0	15.2	0.00e+00	0	44	0	913309696	66	5407
2026-01-12 10:51:46.49	316.58	27.54	-46.9	-50.0	16.1	0.00e+00	0	44	0	916455424	65	5130
2026-01-12 10:51:47.20	316.72	27.44	-46.7	-49.7	16.3	0.00e+00	0	44	0	917504000	65	4982
2026-01-12 10:51:48.75	317.01	27.23	-46.5	-49.4	16.7	0.00e+00	0	44	0	920649728	64	5048
2026-01-12 10:51:49.46	317.14	27.13	-46.4	-49.2	16.9	0.00e+00	0	44	0	921698304	64	4952
2026-01-12 10:51:50.74	317.37	26.95	-46.5	-49.3	16.8	0.00e+00	0	44	0	924844032	64	5037
2026-01-12 10:51:51.45	317.50	26.85	-46.7	-49.7	16.4	0.00e+00	0	44	0	925892608	64	5236
2026-01-12 10:51:52.73	317.73	26.67	-47.2	-50.4	15.7	0.00e+00	0	44	0	927989760	65	5388
2026-01-12 10:51:53.44	317.86	26.58	-47.3	-50.7	15.5	0.00e+00	0	44	0	929038336	65	5533
2026-01-12 10:51:54.73	318.08	26.40	-47.5	-50.9	15.3	0.00e+00	0	44	0	932184064	65	5660
2026-01-12 10:51:55.46	318.21	26.30	-47.2	-50.5	15.6	0.00e+00	0	44	0	933232640	65	5428
2026-01-12 10:51:56.74	318.43	26.13	-47.1	-50.2	15.8	0.00e+00	0	44	0	935329792	65	5279
2026-01-12 10:51:57.57	318.58	26.01	-47.1	-50.2	15.9	0.00e+00	0	44	0	937426944	65	5243
2026-01-12 10:51:58.71	318.77	25.86	-46.8	-49.8	16.4	0.00e+00	0	44	0	939524096	65	4990
2026-01-12 10:51:59.74	318.95	25.72	-46.5	-49.3	16.7	0.00e+00	0	44	0	941621248	65	4742
2026-01-12 10:52:00.73	319.11	25.59	-46.3	-49.1	16.9	0.00e+00	0	44	0	942669824	64	4900
2026-01-12 10:52:01.93	319.31	25.43	-46.5	-49.3	16.8	0.00e+00	0	44	0	945815552	64	5004
2026-01-12 10:52:02.82	319.46	25.31	-46.5	-49.4	16.7	0.00e+00	0	44	0	946864128	64	5061
2026-01-12 10:52:04.12	319.67	25.13	-46.9	-49.9	16.2	0.00e+00	0	44	0	948961280	64	5373
2026-01-12 10:52:04.83	319.79	25.04	-46.9	-49.9	16.2	0.00e+00	0	44	0	951058432	64	5364
2026-01-12 10:52:06.11	319.99	24.87	-47.1	-50.2	15.9	0.00e+00	0	44	0	953155584	64	5565
2026-01-12 10:52:06.84	320.11	24.77	-47.2	-50.5	15.7	0.00e+00	0	44	0	954204160	65	5403
2026-01-12 10:52:08.12	320.31	24.61	-47.1	-50.3	15.9	0.00e+00	0	44	0	957349888	65	5281
2026-01-12 10:52:08.89	320.43	24.50	-47.2	-50.5	15.6	0.00e+00	0	44	0	958398464	65	5403
2026-01-12 10:52:10.17	320.63	24.34	-47.0	-50.1	16.0	0.00e+00	0	44	0	960495616	65	5184
2026-01-12 10:52:10.89	320.75	24.24	-47.0	-50.2	15.9	0.00e+00	0	44	0	962592768	65	5233
2026-01-12 10:52:12.17	320.94	24.08	-46.8	-49.9	16.1	0.00e+00	0	44	0	964689920	65	5086
2026-01-12 10:52:12.88	321.05	23.99	-46.6	-49.7	16.4	0.00e+00	0	44	0	965738496	65	4954
2026-01-12 10:52:14.16	321.24	23.82	-46.7	-49.8	16.2	0.00e+00	0	44	0	967835648	65	5029
2026-01-12 10:52:14.87	321.35	23.73	-46.6	-49.6	16.4	0.00e+00	0	44	0	969932800	65	4903
2026-01-12 10:52:16.17	321.54	23.56	-46.3	-49.2	16.9	0.00e+00	0	44	0	972029952	64	4972
2026-01-12 10:52:16.88	321.65	23.47	-46.3	-49.2	16.8	0.00e+00	0	44	0	973078528	64	4970
2026-01-12 10:52:18.23	321.84	23.30	-46.4	-49.3	16.7	0.00e+00	0	44	0	976224256	64	5039
2026-01-12 10:52:18.94	321.95	23.21	-46.4	-49.3	16.8	0.00e+00	0	44	0	977272832	64	5007
2026-01-12 10:52:20.27	322.14	23.05	-46.5	-49.5	16.6	0.00e+00	0	44	0	979369984	64	5117
2026-01-12 10:52:20.98	322.24	22.96	-46.6	-49.6	16.4	0.00e+00	0	44	0	981467136	64	5194
2026-01-12 10:52:22.26	322.42	22.80	-46.8	-49.9	16.2	0.00e+00	0	44	0	983564288	64	5348
2026-01-12 10:52:22.98	322.52	22.71	-46.9	-49.9	16.1	0.00e+00	0	44	0	984612864	64	5393
2026-01-12 10:52:24.26	322.70	22.55	-46.9	-49.9	16.1	0.00e+00	0	44	0	986710016	64	5387
2026-01-12 10:52:24.97	322.80	22.46	-47.0	-50.0	16.0	0.00e+00	0	44	0	988807168	64	5461
2026-01-12 10:52:26.25	322.97	22.30	-47.1	-50.1	16.0	0.00e+00	0	44	0	990904320	64	5498
2026-01-12 10:52:26.96	323.07	22.21	-47.1	-50.2	15.8	0.00e+00	0	44	0	991952896	64	5565
2026-01-12 10:52:28.24	323.24	22.06	-47.0	-50.1	16.0	0.00e+00	0	44	0	995098624	64	5483
2026-01-12 10:52:28.96	323.34	21.97	-47.0	-50.1	15.9	0.00e+00	0	44	0	996147200	64	5519
2026-01-12 10:52:30.24	323.51	21.81	-47.0	-50.1	16.0	0.00e+00	0	44	0	998244352	64	5494
2026-01-12 10:52:30.96	323.60	21.73	-47.0	-50.1	16.0	0.00e+00	0	44	0	999292928	64	5487
2026-01-12 10:52:32.23	323.77	21.57	-47.1	-50.2	15.9	0.00e+00	0	44	0	1002438656	64	5548
2026-01-12 10:52:33.09	323.88	21.47	-47.1	-50.2	15.8	0.00e+00	0	44	0	1003487232	64	5563
2026-01-12 10:52:34.52	324.07	21.30	-47.2	-50.4	15.6	0.00e+00	0	44	0	1006632960	65	5367
2026-01-12 10:52:35.23	324.16	21.21	-47.1	-50.3	15.7	0.00e+00	0	44	0	1007681536	65	5338
2026-01-12 10:52:36.72	324.35	21.04	-47.2	-50.6	15.5	0.00e+00	0	44	0	1010827264	65	5496
2026-01-12 10:52:37.43	324.44	20.95	-47.2	-50.7	15.4	0.00e+00	0	44	0	1011875840	65	5543
2026-01-12 10:52:38.79	324.61	20.79	-47.2	-50.7	15.4	0.00e+00	0	44	0	1013972992	65	5562
2026-01-12 10:52:39.49	324.69	20.71	-47.2	-50.9	15.2	0.00e+00	0	44	0	1016070144	65	5677
2026-01-12 10:52:40.83	324.86	20.55	-47.2	-50.8	15.2	0.00e+00	0	44	0	1018167296	65	5646
2026-01-12 10:52:41.55	324.95	20.47	-47.3	-50.9	15.1	0.00e+00	0	44	0	1019215872	65	5711
2026-01-12 10:52:42.83	325.10	20.32	-47.5	-51.0	15.1	0.00e+00	0	44	0	1022361600	65	5748
2026-01-12 10:52:43.54	325.19	20.24	-47.3	-50.7	15.3	0.00e+00	0	44	0	1023410176	65	5573
2026-01-12 10:52:44.81	325.34	20.09	-47.4	-50.8	15.2	0.00e+00	0	44	0	1025507328	65	5618
2026-01-12 10:52:45.55	325.43	20.01	-47.4	-50.7	15.3	0.00e+00	0	44	0	1027604480	65	5587
2026-01-12 10:52:46.83	325.58	19.86	-47.4	-50.6	15.4	0.00e+00	0	44	0	1029701632	65	5499
2026-01-12 10:52:47.56	325.66	19.78	-47.3	-50.5	15.5	0.00e+00	0	44	0	1030750208	65	5403
2026-01-12 10:52:48.84	325.81	19.63	-47.0	-50.1	15.9	0.00e+00	0	44	0	1032847360	65	5182
2026-01-12 10:52:49.56	325.89	19.55	-47.1	-50.2	15.8	0.00e+00	0	44	0	1034944512	65	5240
2026-01-12 10:52:50.84	326.04	19.40	-47.0	-50.1	15.9	0.00e+00	0	44	0	1037041664	65	5185
2026-01-12 10:52:51.63	326.13	19.32	-47.0	-50.1	15.9	0.00e+00	0	44	0	1038090240	65	5168
2026-01-12 10:52:52.91	326.27	19.17	-46.8	-49.9	16.1	0.00e+00	0	44	0	1041235968	65	5051
2026-01-12 10:52:53.62	326.35	19.09	-46.9	-50.0	16.0	0.00e+00	0	44	0	1042284544	65	5118
2026-01-12 10:52:55.24	326.53	18.91	-46.9	-50.1	15.9	0.00e+00	0	44	0	1045430272	65	5164
2026-01-12 10:52:55.81	326.60	18.85	-46.9	-50.1	15.9	0.00e+00	0	44	0	1046478848	65	5202
2026-01-12 10:52:57.52	326.78	18.66	-47.0	-50.4	15.6	0.00e+00	0	44	0	1049624576	65	5351
2026-01-12 10:52:58.09	326.84	18.60	-46.9	-50.4	15.6	0.00e+00	0	44	0	1050673152	65	5351
2026-01-12 10:52:59.79	327.03	18.41	-46.9	-50.5	15.4	0.00e+00	0	44	0	1053818880	65	5455
2026-01-12 10:53:00.36	327.09	18.35	-46.9	-50.6	15.4	7.00e-07	0	44	0	1054867456	65	5466
2026-01-12 10:53:02.07	327.27	18.16	-46.9	-50.6	15.3	0.00e+00	0	44	0	1058013184	65	5526
2026-01-12 10:53:02.71	327.34	18.10	-46.9	-50.7	15.3	0.00e+00	0	44	0	1059061760	65	5533
2026-01-12 10:53:04.13	327.48	17.94	-46.9	-50.6	15.4	0.00e+00	0	44	0	1062207488	65	5480
2026-01-12 10:53:04.91	327.57	17.86	-46.9	-50.4	15.6	0.00e+00	0	44	0	1063256064	65	5367
2026-01-12 10:53:06.18	327.70	17.72	-47.0	-50.4	15.5	0.00e+00	0	44	0	1065353216	65	5377
2026-01-12 10:53:06.89	327.77	17.65	-47.0	-50.3	15.6	0.00e+00	0	44	0	1067450368	65	5340
2026-01-12 10:53:08.17	327.90	17.51	-46.9	-50.3	15.7	0.00e+00	0	44	0	1069547520	65	5282
2026-01-12 10:53:08.89	327.97	17.44	-47.0	-50.3	15.7	0.00e+00	0	44	0	1070596096	65	5298
2026-01-12 10:53:10.16	328.10	17.30	-47.0	-50.3	15.6	0.00e+00	0	44	0	1072693248	65	5306
2026-01-12 10:53:11.12	328.19	17.20	-47.1	-50.5	15.5	0.00e+00	0	44	0	1074790400	65	5428
2026-01-12 10:53:12.12	328.29	17.10	-47.2	-50.5	15.4	0.00e+00	0	44	0	1076887552	65	5463
2026-01-12 10:53:13.11	328.39	16.99	-47.2	-50.7	15.3	0.00e+00	0	44	0	1078984704	65	5531
2026-01-12 10:53:14.11	328.49	16.89	-47.3	-50.8	15.1	0.00e+00	0	44	0	1081081856	65	5631
2026-01-12 10:53:15.56	328.63	16.74	-47.5	-51.1	14.9	0.00e+00	0	44	0	1083179008	65	5816
2026-01-12 10:53:16.27	328.70	16.67	-47.6	-51.2	14.7	0.00e+00	0	44	0	1084227584	65	5908
2026-01-12 10:53:17.55	328.82	16.53	-47.6	-51.3	14.7	0.00e+00	0	44	0	1087373312	65	5953
2026-01-12 10:53:18.26	328.88	16.46	-47.8	-51.5	14.5	0.00e+00	0	44	0	1088421888	66	5740
2026-01-12 10:53:19.54	329.01	16.33	-47.8	-51.5	14.4	0.00e+00	0	44	0	1090519040	66	5783
2026-01-12 10:53:20.26	329.07	16.26	-47.9	-51.6	14.3	1.50e-06	0	44	0	1092616192	66	5845
2026-01-12 10:53:21.54	329.19	16.13	-47.9	-51.7	14.3	7.00e-07	0	44	0	1094713344	66	5869
2026-01-12 10:53:22.26	329.26	16.06	-48.0	-51.7	14.2	1.50e-06	0	44	0	1095761920	66	5908
2026-01-12 10:53:23.54	329.38	15.93	-47.9	-51.7	14.3	2.20e-06	0	44	0	1097859072	66	5862
2026-01-12 10:53:24.27	329.44	15.85	-48.0	-51.6	14.3	0.00e+00	0	44	0	1099956224	66	5855
2026-01-12 10:53:25.55	329.56	15.73	-47.8	-51.4	14.6	7.00e-07	0	44	0	1102053376	66	5685
2026-01-12 10:53:26.26	329.62	15.66	-47.7	-51.3	14.6	0.00e+00	0	44	0	1103101952	66	5621
2026-01-12 10:53:27.54	329.74	15.53	-47.7	-51.2	14.7	0.00e+00	0	44	0	1106247680	66	5563
2026-01-12 10:53:28.25	329.80	15.46	-47.6	-51.2	14.7	0.00e+00	0	44	0	1107296256	66	5569
2026-01-12 10:53:29.53	329.91	15.33	-47.5	-51.0	14.9	0.00e+00	0	44	0	1109393408	66	5421
2026-01-12 10:53:30.27	329.98	15.26	-47.5	-51.0	14.9	0.00e+00	0	44	0	1111490560	66	5426
2026-01-12 10:53:31.54	330.09	15.14	-47.4	-50.9	15.0	0.00e+00	0	44	0	1113587712	66	5360
2026-01-12 10:53:32.27	330.15	15.07	-47.3	-50.7	15.2	0.00e+00	0	44	0	1114636288	66	5268
2026-01-12 10:53:33.55	330.26	14.94	-47.3	-50.8	15.1	0.00e+00	0	44	0	1116733440	66	5289
2026-01-12 10:53:34.26	330.32	14.87	-47.4	-50.8	15.1	0.00e+00	0	44	0	1118830592	66	5314
2026-01-12 10:53:35.54	330.43	14.75	-47.3	-50.7	15.2	0.00e+00	0	44	0	1120927744	66	5226
2026-01-12 10:53:36.25	330.49	14.68	-47.3	-50.7	15.2	1.50e-06	0	44	0	1121976320	66	5251
2026-01-12 10:53:37.53	330.60	14.56	-47.2	-50.6	15.3	0.00e+00	0	44	0	1124073472	66	5185
2026-01-12 10:53:38.25	330.66	14.49	-47.3	-50.7	15.2	0.00e+00	0	44	0	1126170624	66	5261
2026-01-12 10:53:39.53	330.77	14.37	-47.4	-50.8	15.0	0.00e+00	0	44	0	1128267776	66	5340
2026-01-12 10:53:40.26	330.83	14.30	-47.3	-50.7	15.2	0.00e+00	0	44	0	1129316352	66	5260
2026-01-12 10:53:41.54	330.93	14.18	-47.3	-50.8	15.1	0.00e+00	0	44	0	1132462080	66	5300
2026-01-12 10:53:42.25	330.99	14.11	-47.2	-50.8	15.1	7.00e-07	0	44	0	1133510656	66	5311
2026-01-12 10:53:43.53	331.09	13.99	-47.2	-50.9	15.0	0.00e+00	0	44	0	1135607808	66	5363
2026-01-12 10:53:44.24	331.15	13.92	-47.2	-50.9	14.9	0.00e+00	0	44	0	1136656384	66	5384
2026-01-12 10:53:45.52	331.25	13.81	-47.3	-51.0	14.9	0.00e+00	0	44	0	1139802112	66	5434
2026-01-12 10:53:46.24	331.31	13.74	-47.3	-51.1	14.8	0.00e+00	0	44	0	1140850688	66	5483
2026-01-12 10:53:47.52	331.41	13.62	-47.4	-51.1	14.8	0.00e+00	0	44	0	1142947840	66	5490
2026-01-12 10:53:48.26	331.47	13.55	-47.4	-51.2	14.7	0.00e+00	0	44	0	1145044992	66	5536
2026-01-12 10:53:49.54	331.57	13.43	-47.5	-51.2	14.6	0.00e+00	0	44	0	1147142144	66	5592
2026-01-12 10:53:50.27	331.63	13.37	-47.6	-51.3	14.6	7.00e-07	0	44	0	1148190720	66	5632
2026-01-12 10:53:51.55	331.73	13.25	-47.7	-51.4	14.5	0.00e+00	0	44	0	1151336448	66	5667
2026-01-12 10:53:52.28	331.78	13.18	-47.8	-51.4	14.5	0.00e+00	0	44	0	1152385024	66	5673
2026-01-12 10:53:53.55	331.88	13.07	-47.8	-51.5	14.3	7.00e-07	0	44	0	1154482176	66	5746
2026-01-12 10:53:54.30	331.94	13.00	-47.9	-51.6	14.3	3.00e-06	0	44	0	1155530752	66	5819
2026-01-12 10:53:55.58	332.03	12.89	-47.9	-51.6	14.2	7.00e-07	0	44	0	1158676480	66	5801
2026-01-12 10:53:56.30	332.09	12.82	-47.8	-51.5	14.4	7.00e-07	0	44	0	1159725056	66	5727
2026-01-12 10:53:57.58	332.18	12.71	-47.8	-51.5	14.3	1.50e-06	0	44	0	1161822208	66	5781
2026-01-12 10:53:58.29	332.23	12.64	-47.8	-51.6	14.2	0.00e+00	0	44	0	1163919360	66	5811
2026-01-12 10:53:59.59	332.33	12.53	-47.7	-51.5	14.3	3.00e-06	0	44	0	1166016512	66	5769
2026-01-12 10:54:00.30	332.38	12.46	-47.7	-51.6	14.2	7.00e-07	0	44	0	1167065088	66	5833
2026-01-12 10:54:01.63	332.48	12.35	-47.7	-51.7	14.1	3.00e-06	0	44	0	1170210816	66	5880
2026-01-12 10:54:02.34	332.53	12.28	-47.8	-51.7	14.1	7.00e-07	0	44	0	1171259392	66	5903
2026-01-12 10:54:03.61	332.62	12.17	-47.8	-51.8	14.0	3.00e-06	0	44	0	1173356544	66	5977
2026-01-12 10:54:04.32	332.67	12.11	-47.8	-51.8	14.0	2.20e-06	0	44	0	1174405120	66	5971
2026-01-12 10:54:05.73	332.77	11.99	-47.9	-52.0	13.8	2.20e-06	0	44	0	1177550848	66	6080
2026-01-12 10:54:06.44	332.83	11.92	-47.8	-51.9	13.9	4.50e-06	0	44	0	1178599424	66	6015
2026-01-12 10:54:07.72	332.92	11.81	-47.9	-51.9	13.9	3.00e-06	0	44	0	1180696576	66	6021
2026-01-12 10:54:08.45	332.97	11.75	-48.0	-52.1	13.7	1.50e-06	0	44	0	1182793728	66	6140
2026-01-12 10:54:09.73	333.06	11.64	-48.1	-52.1	13.7	5.30e-06	0	44	0	1184890880	66	6178
2026-01-12 10:54:10.46	333.11	11.58	-48.1	-52.2	13.6	4.50e-06	0	44	0	1185939456	66	6204
2026-01-12 10:54:11.74	333.20	11.47	-48.1	-52.2	13.6	8.30e-06	0	44	0	1189085184	67	5886
2026-01-12 10:54:12.47	333.25	11.41	-48.1	-52.2	13.6	9.10e-06	0	44	0	1190133760	67	5867
2026-01-12 10:54:13.75	333.33	11.30	-48.3	-52.4	13.3	1.60e-05	0	44	0	1192230912	67	6050
2026-01-12 10:54:14.46	333.38	11.24	-48.4	-52.5	13.2	2.21e-05	0	44	0	1193279488	67	6102
2026-01-12 10:54:15.73	333.47	11.13	-48.4	-52.6	13.1	3.81e-05	0	44	0	1196425216	67	6136
2026-01-12 10:54:16.46	333.52	11.07	-48.4	-52.5	13.2	3.05e-05	0	44	0	1197473792	67	6128
2026-01-12 10:54:17.74	333.60	10.96	-48.3	-52.5	13.2	2.44e-05	0	44	0	1199570944	67	6092
2026-01-12 10:54:18.51	333.65	10.90	-48.3	-52.5	13.2	3.12e-05	0	44	0	1201668096	67	6101
2026-01-12 10:54:19.79	333.74	10.79	-48.4	-52.6	13.1	3.35e-05	0	44	0	1203765248	67	6194
2026-01-12 10:54:20.50	333.78	10.73	-48.4	-52.8	13.0	3.43e-05	0	44	0	1204813824	67	6282
2026-01-12 10:54:21.78	333.87	10.62	-48.3	-52.5	13.2	5.87e-05	0	44	0	1207959552	67	6120
2026-01-12 10:54:22.62	333.92	10.55	-48.2	-52.3	13.3	1.60e-05	0	44	0	1209008128	67	5987
2026-01-12 10:54:24.05	334.01	10.44	-48.2	-52.5	13.2	2.28e-05	0	44	0	1212153856	67	6109
2026-01-12 10:54:24.76	334.06	10.38	-48.1	-52.3	13.3	1.52e-05	0	44	0	1213202432	67	5982
2026-01-12 10:54:26.28	334.16	10.25	-48.1	-52.2	13.5	1.06e-05	0	44	0	1216348160	67	5897
2026-01-12 10:54:26.99	334.20	10.19	-48.1	-52.3	13.4	1.29e-05	0	44	0	1217396736	67	5954
2026-01-12 10:54:28.27	334.28	10.09	-48.1	-52.3	13.3	1.52e-05	0	44	0	1219493888	67	5976
2026-01-12 10:54:28.98	334.33	10.03	-48.0	-52.2	13.5	1.60e-05	0	44	0	1220542464	67	5877
2026-01-12 10:54:30.26	334.41	9.93	-47.8	-51.9	13.8	9.10e-06	0	44	0	1223688192	67	5667
2026-01-12 10:54:30.98	334.45	9.87	-47.9	-52.0	13.6	4.50e-06	0	44	0	1224736768	67	5770
2026-01-12 10:54:32.26	334.53	9.77	-47.9	-52.1	13.6	1.29e-05	0	44	0	1226833920	67	5797
2026-01-12 10:54:32.99	334.58	9.71	-47.8	-51.9	13.8	4.50e-06	0	44	0	1228931072	67	5663
2026-01-12 10:54:34.27	334.66	9.61	-47.8	-51.9	13.8	5.30e-06	0	44	0	1231028224	67	5675
2026-01-12 10:54:34.98	334.70	9.55	-47.7	-51.9	13.8	6.80e-06	0	44	0	1232076800	67	5659
