passes_logs/2026/01/12/T1/T1__20260112_225307_NOAA_20_JPSS-1_rec.log

#Pass ID: 20260112_225307_NOAA 20 (JPSS-1)
#Satellite: NOAA 20 (JPSS-1)
#Configuration: NOAA 20
#almurnet v.1.7.20251203
#Start time: 2026-01-12 22:53:09

#Version: 2.0.20230620
#Station: T1
#Location: 37.570604 lon 55.790049 lat
#TLE: 1 43013U 17073A   26012.29914746  .00000087  00000+0  62270-4 0  9997
#TLE: 2 43013  98.7632 313.2670 0001616  43.2193 316.9110 14.19535514422351

#Time	Az	El	Level	Level2	SNR	BER	BlckErr	Temp	State	Recorded	gain1	gain2
2026-01-12 22:53:09.48	22.49	5.16	-51.6	-67.1	3.8	1.49e+00	0	41	104	0	74	21866
2026-01-12 22:53:10.47	22.54	5.22	-51.6	-67.1	3.8	1.49e+00	0	41	104	0	74	21842
2026-01-12 22:53:11.46	22.58	5.29	-51.6	-67.1	3.8	1.49e+00	0	41	104	0	74	21864
2026-01-12 22:53:12.45	22.63	5.36	-51.6	-67.1	3.8	1.49e+00	0	41	104	0	74	21770
2026-01-12 22:53:13.45	22.68	5.43	-51.6	-67.1	3.8	1.49e+00	0	41	104	0	74	21765
2026-01-12 22:53:14.44	22.73	5.50	-51.6	-67.0	3.8	1.49e+00	0	41	104	0	74	21730
2026-01-12 22:53:15.43	22.78	5.56	-51.6	-67.1	3.8	1.49e+00	0	41	104	0	74	21794
2026-01-12 22:53:16.42	22.83	5.63	-51.6	-67.0	3.8	1.49e+00	0	41	104	0	74	21671
2026-01-12 22:53:17.42	22.88	5.70	-51.6	-67.0	3.8	1.49e+00	0	41	104	0	74	21725
2026-01-12 22:53:18.41	22.93	5.77	-51.6	-67.1	3.8	1.49e+00	0	41	104	0	74	21781
2026-01-12 22:53:19.40	22.98	5.84	-51.6	-67.1	3.8	1.49e+00	0	41	104	0	74	21812
2026-01-12 22:53:20.40	23.03	5.91	-51.6	-67.1	3.8	1.49e+00	0	41	104	0	74	21761
2026-01-12 22:53:21.39	23.08	5.98	-51.6	-67.1	3.8	1.49e+00	0	41	104	0	74	21816
2026-01-12 22:53:22.39	23.13	6.05	-51.6	-67.0	3.8	1.49e+00	0	41	104	0	74	21748
2026-01-12 22:53:23.38	23.18	6.12	-51.6	-67.1	3.8	1.49e+00	0	41	104	0	74	21823
2026-01-12 22:53:24.37	23.23	6.18	-51.6	-67.1	3.8	1.49e+00	0	41	104	0	74	21845
2026-01-12 22:53:25.36	23.28	6.25	-51.6	-67.1	3.8	1.49e+00	0	41	104	0	74	21794
2026-01-12 22:53:26.36	23.34	6.32	-51.6	-67.1	3.8	1.49e+00	0	42	104	0	74	21814
2026-01-12 22:53:27.35	23.39	6.39	-51.6	-67.1	3.8	1.49e+00	0	41	104	0	74	21815
2026-01-12 22:53:28.35	23.44	6.47	-51.6	-67.1	3.8	1.49e+00	0	41	104	0	74	21808
2026-01-12 22:53:29.34	23.49	6.54	-51.6	-67.1	3.8	1.49e+00	0	41	104	0	74	21787
2026-01-12 22:53:30.33	23.55	6.61	-51.6	-67.1	3.8	1.49e+00	0	42	104	0	74	21797
2026-01-12 22:53:31.33	23.60	6.68	-51.6	-67.1	3.8	1.49e+00	0	41	104	0	74	21867
2026-01-12 22:53:32.32	23.65	6.75	-51.6	-67.1	3.8	1.49e+00	0	42	104	0	74	21871
2026-01-12 22:53:33.31	23.70	6.82	-51.6	-67.1	3.8	1.49e+00	0	42	104	0	74	21881
2026-01-12 22:53:34.30	23.76	6.89	-51.6	-67.1	3.8	1.49e+00	0	42	104	0	74	21880
2026-01-12 22:53:35.30	23.81	6.96	-51.6	-67.1	3.8	1.49e+00	0	42	104	0	74	21814
2026-01-12 22:53:36.29	23.87	7.03	-51.6	-67.1	3.8	1.49e+00	0	42	104	0	74	21774
2026-01-12 22:53:37.28	23.92	7.11	-51.6	-67.0	3.8	1.49e+00	0	42	104	0	74	21592
2026-01-12 22:53:38.28	23.98	7.18	-51.6	-66.9	3.8	1.49e+00	0	42	104	0	74	21286
2026-01-12 22:53:39.27	24.03	7.25	-51.5	-66.7	3.8	1.49e+00	0	42	104	0	74	20975
2026-01-12 22:53:40.26	24.08	7.32	-51.5	-66.6	3.8	1.49e+00	0	42	104	0	74	20764
2026-01-12 22:53:41.26	24.14	7.40	-51.5	-66.5	3.8	1.49e+00	0	42	104	0	74	20488
2026-01-12 22:53:42.25	24.20	7.47	-51.5	-66.5	3.8	1.49e+00	0	42	104	0	74	20313
2026-01-12 22:53:43.24	24.25	7.54	-51.5	-66.4	3.8	1.49e+00	0	42	104	0	74	20210
2026-01-12 22:53:44.23	24.31	7.61	-51.5	-66.5	3.8	1.49e+00	0	42	104	0	74	20327
2026-01-12 22:53:45.23	24.36	7.69	-51.5	-66.5	3.8	1.49e+00	0	42	104	0	74	20441
2026-01-12 22:53:46.22	24.42	7.76	-51.5	-66.6	3.8	1.49e+00	0	42	104	0	74	20589
2026-01-12 22:53:47.22	24.48	7.84	-51.5	-66.5	3.8	1.49e+00	0	42	104	0	74	20399
2026-01-12 22:53:48.21	24.53	7.91	-51.5	-66.5	3.8	1.49e+00	0	42	104	0	74	20456
2026-01-12 22:53:49.20	24.59	7.98	-51.5	-66.4	3.8	1.49e+00	0	42	104	0	74	20203
2026-01-12 22:53:50.19	24.65	8.06	-51.5	-66.3	3.8	1.49e+00	0	42	104	0	74	20070
2026-01-12 22:53:51.19	24.71	8.13	-51.5	-66.3	3.8	1.49e+00	0	42	104	0	74	19882
2026-01-12 22:53:52.18	24.76	8.21	-51.5	-66.3	3.8	1.49e+00	0	42	104	0	74	19964
2026-01-12 22:53:53.17	24.82	8.28	-51.5	-66.4	3.8	1.49e+00	0	42	104	0	74	20193
2026-01-12 22:53:54.17	24.88	8.36	-51.5	-66.5	3.8	1.49e+00	0	42	104	0	74	20414
2026-01-12 22:53:55.16	24.94	8.43	-51.5	-66.6	3.8	1.49e+00	0	42	104	0	74	20656
2026-01-12 22:53:56.15	25.00	8.51	-51.5	-66.6	3.8	1.49e+00	0	42	104	0	74	20772
2026-01-12 22:53:57.15	25.06	8.59	-51.5	-66.6	3.8	1.49e+00	0	42	104	0	74	20649
2026-01-12 22:53:58.14	25.12	8.66	-51.5	-66.4	3.8	1.49e+00	0	43	104	0	74	20163
2026-01-12 22:53:59.13	25.18	8.74	-51.5	-66.1	3.8	1.49e+00	0	42	104	0	74	19585
2026-01-12 22:54:00.13	25.24	8.81	-51.5	-66.1	3.8	1.49e+00	0	42	104	0	74	19549
2026-01-12 22:54:01.12	25.30	8.89	-51.5	-66.0	3.8	1.49e+00	0	42	104	0	74	19188
2026-01-12 22:54:02.11	25.36	8.97	-51.5	-65.9	3.8	1.49e+00	0	42	104	0	74	19013
2026-01-12 22:54:03.11	25.42	9.05	-51.5	-66.0	3.8	1.49e+00	0	42	104	0	74	19201
2026-01-12 22:54:04.10	25.49	9.12	-51.5	-66.3	3.8	1.49e+00	0	42	104	0	74	19918
2026-01-12 22:54:05.17	25.55	9.21	-51.6	-66.2	3.8	1.49e+00	0	42	104	0	74	19687
2026-01-12 22:54:06.03	25.61	9.27	-51.4	-65.2	3.8	1.49e+00	0	42	104	0	74	17506
2026-01-12 22:54:07.17	25.68	9.36	-51.4	-64.7	3.8	1.49e+00	0	42	104	0	74	16635
2026-01-12 22:54:08.02	25.73	9.43	-50.3	-56.9	8.7	1.44e+00	0	42	104	0	72	7588
2026-01-12 22:54:09.16	25.80	9.52	-50.2	-56.6	9.1	2.50e-02	0	43	0	1048576	72	7337
2026-01-12 22:54:10.01	25.86	9.59	-49.5	-54.7	11.2	7.42e-03	0	43	0	3145728	71	6210
2026-01-12 22:54:11.15	25.93	9.68	-49.5	-54.7	11.2	1.46e-03	0	43	0	5242880	70	6613
2026-01-12 22:54:12.00	25.99	9.75	-49.5	-54.5	11.5	9.65e-04	0	42	0	6291456	70	6468
2026-01-12 22:54:13.13	26.06	9.84	-49.4	-54.4	11.6	6.35e-04	0	43	0	8388608	70	6381
2026-01-12 22:54:13.99	26.12	9.90	-49.4	-54.3	11.6	9.26e-04	0	43	0	10485760	70	6323
2026-01-12 22:54:15.12	26.19	9.99	-49.3	-54.3	11.7	7.94e-04	0	43	0	12582912	70	6302
2026-01-12 22:54:15.98	26.25	10.06	-49.1	-53.7	12.2	3.26e-04	0	42	0	13631488	70	5913
2026-01-12 22:54:17.12	26.32	10.16	-48.7	-53.0	13.0	4.80e-05	0	42	0	15728640	69	5753
2026-01-12 22:54:17.97	26.38	10.23	-48.6	-52.8	13.2	2.21e-05	0	43	0	17825792	69	5651
2026-01-12 22:54:19.10	26.45	10.32	-48.6	-52.9	13.1	1.83e-05	0	43	0	19922944	69	5686
2026-01-12 22:54:19.96	26.51	10.39	-48.6	-52.9	13.1	2.97e-05	0	43	0	20971520	69	5689
2026-01-12 22:54:21.09	26.59	10.48	-48.4	-52.6	13.5	9.90e-06	0	43	0	23068672	68	5801
2026-01-12 22:54:22.03	26.65	10.56	-48.5	-52.7	13.3	9.90e-06	0	42	0	25165824	68	5889
2026-01-12 22:54:23.02	26.72	10.64	-48.3	-52.5	13.6	8.30e-06	0	43	0	27262976	68	5723
2026-01-12 22:54:24.01	26.79	10.72	-48.3	-52.4	13.7	8.30e-06	0	43	0	29360128	68	5663
2026-01-12 22:54:25.01	26.86	10.80	-48.1	-52.1	14.0	3.80e-06	0	43	0	31457280	68	5479
2026-01-12 22:54:26.00	26.93	10.88	-48.2	-52.2	13.9	3.80e-06	0	43	0	32505856	68	5572
2026-01-12 22:54:27.00	27.00	10.97	-48.2	-52.3	13.8	3.00e-06	0	43	0	34603008	68	5619
2026-01-12 22:54:27.99	27.06	11.05	-48.1	-52.1	14.0	2.20e-06	0	43	0	36700160	68	5503
2026-01-12 22:54:28.99	27.14	11.13	-48.2	-52.1	13.9	7.00e-07	0	43	0	38797312	68	5515
2026-01-12 22:54:29.98	27.21	11.22	-48.1	-52.0	14.1	3.00e-06	0	43	0	39845888	68	5415
2026-01-12 22:54:30.98	27.28	11.30	-48.0	-51.9	14.2	7.00e-07	0	43	0	41943040	68	5390
2026-01-12 22:54:31.97	27.35	11.38	-47.7	-51.5	14.4	0.00e+00	0	43	0	44040192	67	5454
2026-01-12 22:54:32.97	27.42	11.47	-47.7	-51.4	14.5	1.50e-06	0	43	0	46137344	67	5372
2026-01-12 22:54:33.96	27.49	11.55	-47.9	-51.8	14.2	0.00e+00	0	43	0	48234496	67	5605
2026-01-12 22:54:34.98	27.57	11.64	-47.7	-51.5	14.4	7.00e-07	0	43	0	49283072	67	5433
2026-01-12 22:54:35.98	27.64	11.73	-47.7	-51.4	14.5	0.00e+00	0	43	0	51380224	67	5398
2026-01-12 22:54:36.97	27.71	11.81	-47.8	-51.5	14.4	0.00e+00	0	43	0	53477376	67	5454
2026-01-12 22:54:37.97	27.79	11.90	-47.7	-51.4	14.5	7.00e-07	0	43	0	55574528	67	5378
2026-01-12 22:54:38.96	27.86	11.98	-47.7	-51.4	14.5	0.00e+00	0	43	0	56623104	67	5379
2026-01-12 22:54:39.96	27.93	12.07	-47.7	-51.4	14.5	0.00e+00	0	43	0	58720256	67	5390
2026-01-12 22:54:40.95	28.01	12.15	-47.7	-51.4	14.5	0.00e+00	0	43	0	60817408	67	5369
2026-01-12 22:54:41.94	28.08	12.24	-47.6	-51.3	14.6	0.00e+00	0	43	0	62914560	67	5318
2026-01-12 22:54:42.94	28.16	12.33	-47.6	-51.3	14.7	0.00e+00	0	43	0	65011712	67	5290
2026-01-12 22:54:43.93	28.24	12.41	-47.7	-51.4	14.5	0.00e+00	0	43	0	66060288	67	5385
2026-01-12 22:54:44.93	28.31	12.50	-47.6	-51.4	14.6	0.00e+00	0	43	0	68157440	67	5346
2026-01-12 22:54:45.92	28.39	12.59	-47.6	-51.3	14.7	0.00e+00	0	43	0	70254592	67	5328
2026-01-12 22:54:46.92	28.47	12.68	-47.6	-51.4	14.6	0.00e+00	0	43	0	72351744	67	5388
2026-01-12 22:54:47.91	28.54	12.77	-47.6	-51.5	14.5	7.00e-07	0	43	0	73400320	67	5411
2026-01-12 22:54:48.91	28.62	12.85	-47.5	-51.4	14.6	0.00e+00	0	43	0	75497472	67	5363
2026-01-12 22:54:49.90	28.70	12.94	-47.5	-51.4	14.6	1.50e-06	0	43	0	77594624	67	5352
2026-01-12 22:54:50.93	28.78	13.03	-47.5	-51.4	14.6	1.50e-06	0	43	0	79691776	67	5373
2026-01-12 22:54:51.95	28.87	13.13	-47.5	-51.4	14.6	7.00e-07	0	43	0	81788928	67	5380
2026-01-12 22:54:52.95	28.95	13.22	-47.5	-51.3	14.7	1.50e-06	0	43	0	82837504	67	5306
2026-01-12 22:54:53.94	29.03	13.31	-47.6	-51.3	14.7	7.00e-07	0	43	0	84934656	67	5331
2026-01-12 22:54:54.94	29.11	13.40	-47.7	-51.3	14.6	0.00e+00	0	43	0	87031808	67	5333
2026-01-12 22:54:55.93	29.19	13.49	-47.6	-51.2	14.8	0.00e+00	0	43	0	89128960	67	5254
2026-01-12 22:54:56.93	29.27	13.58	-47.7	-51.3	14.7	7.00e-07	0	43	0	91226112	67	5294
2026-01-12 22:54:57.92	29.35	13.67	-47.6	-51.1	14.9	7.00e-07	0	43	0	92274688	67	5175
2026-01-12 22:54:58.92	29.44	13.76	-47.7	-51.1	14.9	0.00e+00	0	43	0	94371840	67	5195
2026-01-12 22:54:59.91	29.52	13.85	-47.7	-51.1	15.0	0.00e+00	0	43	0	96468992	67	5161
2026-01-12 22:55:00.90	29.60	13.94	-47.7	-51.1	14.9	0.00e+00	0	43	0	98566144	67	5195
2026-01-12 22:55:01.90	29.69	14.04	-47.8	-51.1	14.9	0.00e+00	0	43	0	99614720	67	5210
2026-01-12 22:55:02.89	29.77	14.13	-47.7	-51.1	15.0	0.00e+00	0	43	0	101711872	67	5168
2026-01-12 22:55:03.89	29.86	14.22	-47.8	-51.2	14.9	7.00e-07	0	43	0	103809024	67	5222
2026-01-12 22:55:04.88	29.94	14.31	-47.7	-51.1	14.9	0.00e+00	0	43	0	105906176	67	5200
2026-01-12 22:55:05.87	30.03	14.41	-47.7	-51.1	14.9	0.00e+00	0	43	0	108003328	67	5198
2026-01-12 22:55:06.87	30.12	14.50	-47.7	-51.1	14.9	0.00e+00	0	43	0	109051904	67	5198
2026-01-12 22:55:07.94	30.21	14.60	-47.7	-51.0	15.0	0.00e+00	0	43	0	111149056	67	5137
2026-01-12 22:55:08.81	30.29	14.68	-47.7	-51.1	15.0	0.00e+00	0	43	0	113246208	67	5177
2026-01-12 22:55:10.10	30.40	14.81	-47.8	-51.2	14.9	0.00e+00	0	43	0	115343360	67	5230
2026-01-12 22:55:10.81	30.47	14.88	-47.6	-50.9	15.2	0.00e+00	0	43	0	116391936	67	5061
2026-01-12 22:55:12.09	30.58	15.00	-47.6	-50.9	15.2	0.00e+00	0	43	0	119537664	67	5051
2026-01-12 22:55:12.81	30.65	15.07	-47.6	-50.8	15.2	0.00e+00	0	43	0	120586240	67	5039
2026-01-12 22:55:14.08	30.76	15.19	-47.5	-50.7	15.4	0.00e+00	0	43	0	122683392	67	4956
2026-01-12 22:55:14.79	30.83	15.26	-47.5	-50.7	15.4	0.00e+00	0	43	0	123731968	67	4947
2026-01-12 22:55:16.07	30.95	15.38	-47.5	-50.6	15.4	7.00e-07	0	43	0	126877696	66	5212
2026-01-12 22:55:16.78	31.01	15.45	-47.4	-50.6	15.5	0.00e+00	0	43	0	127926272	66	5189
2026-01-12 22:55:18.06	31.13	15.58	-47.4	-50.6	15.5	0.00e+00	0	43	0	130023424	66	5175
2026-01-12 22:55:18.79	31.20	15.65	-47.4	-50.6	15.5	0.00e+00	0	43	0	132120576	66	5164
2026-01-12 22:55:20.07	31.32	15.77	-47.3	-50.4	15.7	0.00e+00	0	43	0	134217728	66	5079
2026-01-12 22:55:20.79	31.39	15.85	-47.3	-50.5	15.6	0.00e+00	0	43	0	135266304	66	5123
2026-01-12 22:55:22.07	31.51	15.97	-47.3	-50.5	15.6	0.00e+00	0	43	0	138412032	66	5120
2026-01-12 22:55:23.02	31.61	16.07	-47.4	-50.6	15.5	0.00e+00	0	43	0	139460608	66	5203
2026-01-12 22:55:24.01	31.70	16.17	-47.4	-50.6	15.5	0.00e+00	0	43	0	141557760	66	5183
2026-01-12 22:55:25.01	31.80	16.27	-47.4	-50.6	15.4	0.00e+00	0	43	0	143654912	66	5215
2026-01-12 22:55:26.00	31.90	16.37	-47.4	-50.6	15.5	0.00e+00	0	43	0	145752064	66	5164
2026-01-12 22:55:27.00	32.00	16.47	-47.5	-50.7	15.4	0.00e+00	0	43	0	146800640	66	5234
2026-01-12 22:55:27.99	32.10	16.57	-47.6	-50.8	15.3	0.00e+00	0	43	0	148897792	66	5320
2026-01-12 22:55:28.99	32.20	16.67	-47.5	-50.7	15.3	0.00e+00	0	43	0	150994944	66	5278
2026-01-12 22:55:29.98	32.30	16.77	-47.5	-50.7	15.4	0.00e+00	0	43	0	153092096	66	5277
2026-01-12 22:55:30.98	32.40	16.87	-47.6	-50.8	15.3	0.00e+00	0	43	0	154140672	66	5340
2026-01-12 22:55:31.97	32.50	16.97	-47.6	-50.9	15.2	0.00e+00	0	43	0	156237824	66	5390
2026-01-12 22:55:32.96	32.60	17.07	-47.7	-51.0	15.2	0.00e+00	0	43	0	158334976	66	5415
2026-01-12 22:55:33.96	32.70	17.18	-47.7	-51.0	15.1	0.00e+00	0	43	0	160432128	66	5411
2026-01-12 22:55:34.95	32.81	17.28	-47.6	-50.9	15.2	0.00e+00	0	43	0	162529280	66	5373
2026-01-12 22:55:35.94	32.91	17.38	-47.6	-50.9	15.2	7.00e-07	0	43	0	163577856	66	5402
2026-01-12 22:55:36.94	33.02	17.49	-47.6	-51.0	15.1	0.00e+00	0	43	0	165675008	66	5435
2026-01-12 22:55:37.93	33.12	17.59	-47.6	-51.1	15.1	0.00e+00	0	43	0	167772160	66	5475
2026-01-12 22:55:38.93	33.23	17.69	-47.6	-51.1	15.0	0.00e+00	0	43	0	169869312	66	5490
2026-01-12 22:55:39.92	33.34	17.80	-47.6	-51.1	15.1	0.00e+00	0	43	0	170917888	66	5488
2026-01-12 22:55:40.92	33.44	17.90	-47.7	-51.2	15.0	0.00e+00	0	43	0	173015040	66	5553
2026-01-12 22:55:41.91	33.55	18.01	-47.6	-51.1	15.0	0.00e+00	0	43	0	175112192	66	5526
2026-01-12 22:55:42.94	33.67	18.12	-47.7	-51.2	14.9	0.00e+00	0	43	0	177209344	66	5586
2026-01-12 22:55:43.96	33.78	18.23	-47.7	-51.2	14.9	0.00e+00	0	43	0	179306496	66	5580
2026-01-12 22:55:44.99	33.89	18.34	-47.7	-51.2	14.9	0.00e+00	0	43	0	180355072	66	5583
2026-01-12 22:55:45.99	34.01	18.45	-47.7	-51.3	14.9	0.00e+00	0	43	0	182452224	66	5603
2026-01-12 22:55:46.98	34.12	18.55	-47.8	-51.3	14.8	0.00e+00	0	43	0	184549376	66	5649
2026-01-12 22:55:47.98	34.23	18.66	-47.8	-51.2	14.9	0.00e+00	0	43	0	186646528	66	5592
2026-01-12 22:55:48.97	34.35	18.77	-47.8	-51.2	14.9	0.00e+00	0	43	0	188743680	66	5587
2026-01-12 22:55:49.96	34.46	18.88	-47.9	-51.3	14.9	0.00e+00	0	43	0	189792256	66	5607
2026-01-12 22:55:50.96	34.58	18.99	-47.8	-51.2	15.0	0.00e+00	0	43	0	191889408	66	5559
2026-01-12 22:55:51.96	34.69	19.10	-47.8	-51.1	15.1	0.00e+00	0	43	0	193986560	66	5503
2026-01-12 22:55:52.95	34.81	19.20	-47.8	-51.1	15.0	0.00e+00	0	43	0	196083712	66	5522
2026-01-12 22:55:53.94	34.93	19.31	-47.8	-51.1	15.1	0.00e+00	0	43	0	197132288	66	5472
2026-01-12 22:55:54.94	35.05	19.42	-47.8	-51.1	15.1	7.00e-07	0	43	0	199229440	66	5519
2026-01-12 22:55:55.93	35.17	19.53	-47.8	-51.1	15.0	7.00e-07	0	43	0	201326592	66	5525
2026-01-12 22:55:56.93	35.29	19.65	-47.7	-51.1	15.1	0.00e+00	0	43	0	203423744	66	5484
2026-01-12 22:55:57.93	35.41	19.76	-47.8	-51.2	14.9	0.00e+00	0	43	0	205520896	66	5591
2026-01-12 22:55:58.95	35.53	19.87	-47.8	-51.3	14.9	7.00e-07	0	43	0	206569472	66	5628
2026-01-12 22:55:59.98	35.66	19.99	-47.8	-51.4	14.8	0.00e+00	0	43	0	208666624	66	5670
2026-01-12 22:56:01.00	35.79	20.10	-47.9	-51.4	14.8	0.00e+00	0	43	0	210763776	66	5681
2026-01-12 22:56:02.00	35.91	20.22	-48.0	-51.5	14.7	0.00e+00	0	43	0	212860928	66	5757
2026-01-12 22:56:02.99	36.04	20.33	-47.9	-51.4	14.8	0.00e+00	0	43	0	214958080	66	5696
2026-01-12 22:56:03.99	36.17	20.45	-48.0	-51.4	14.8	0.00e+00	0	43	0	216006656	66	5700
2026-01-12 22:56:04.98	36.29	20.56	-48.0	-51.4	14.8	0.00e+00	0	43	0	218103808	66	5695
2026-01-12 22:56:05.98	36.42	20.67	-47.9	-51.4	14.8	0.00e+00	0	43	0	220200960	66	5689
2026-01-12 22:56:06.97	36.55	20.79	-47.9	-51.4	14.7	0.00e+00	0	43	0	222298112	66	5719
2026-01-12 22:56:07.97	36.68	20.90	-48.0	-51.5	14.7	7.00e-07	0	43	0	224395264	66	5733
2026-01-12 22:56:08.96	36.81	21.02	-47.9	-51.4	14.8	7.00e-07	0	43	0	225443840	66	5678
2026-01-12 22:56:09.96	36.95	21.14	-47.9	-51.3	14.9	0.00e+00	0	43	0	227540992	66	5628
2026-01-12 22:56:10.95	37.08	21.25	-47.9	-51.4	14.8	0.00e+00	0	43	0	229638144	66	5684
2026-01-12 22:56:11.94	37.21	21.37	-48.0	-51.4	14.8	0.00e+00	0	43	0	231735296	66	5705
2026-01-12 22:56:12.94	37.35	21.49	-48.1	-51.6	14.6	0.00e+00	0	43	0	232783872	66	5854
2026-01-12 22:56:13.93	37.48	21.60	-48.1	-51.6	14.5	7.00e-07	0	43	0	234881024	67	5524
2026-01-12 22:56:14.96	37.63	21.73	-48.2	-51.6	14.6	0.00e+00	0	43	0	236978176	67	5514
2026-01-12 22:56:15.99	37.77	21.85	-48.2	-51.7	14.5	0.00e+00	0	43	0	239075328	67	5556
2026-01-12 22:56:16.98	37.91	21.97	-48.2	-51.7	14.5	0.00e+00	0	43	0	241172480	67	5540
2026-01-12 22:56:17.98	38.05	22.09	-48.2	-51.7	14.5	0.00e+00	0	43	0	242221056	67	5574
2026-01-12 22:56:18.97	38.19	22.20	-48.2	-51.7	14.6	7.00e-07	0	43	0	244318208	67	5530
2026-01-12 22:56:19.97	38.33	22.33	-48.2	-51.6	14.6	7.00e-07	0	43	0	246415360	67	5507
2026-01-12 22:56:20.96	38.48	22.45	-48.1	-51.5	14.6	0.00e+00	0	43	0	248512512	67	5461
2026-01-12 22:56:21.96	38.62	22.57	-48.2	-51.6	14.5	7.00e-07	0	43	0	250609664	67	5524
2026-01-12 22:56:22.95	38.77	22.69	-48.1	-51.5	14.7	7.00e-07	0	43	0	251658240	67	5424
2026-01-12 22:56:23.94	38.91	22.81	-48.1	-51.4	14.7	0.00e+00	0	43	0	253755392	67	5393
2026-01-12 22:56:24.94	39.06	22.93	-48.0	-51.4	14.8	7.00e-07	0	43	0	255852544	67	5386
2026-01-12 22:56:25.93	39.21	23.05	-48.0	-51.3	14.9	0.00e+00	0	43	0	257949696	67	5309
2026-01-12 22:56:26.93	39.36	23.18	-48.0	-51.4	14.8	0.00e+00	0	43	0	258998272	67	5382
2026-01-12 22:56:27.92	39.51	23.30	-48.0	-51.4	14.9	0.00e+00	0	43	0	261095424	67	5341
2026-01-12 22:56:28.92	39.66	23.42	-47.9	-51.3	14.9	0.00e+00	0	43	0	263192576	67	5291
2026-01-12 22:56:29.91	39.82	23.55	-47.9	-51.2	15.0	0.00e+00	0	43	0	265289728	67	5262
2026-01-12 22:56:30.96	39.98	23.68	-47.9	-51.2	15.1	0.00e+00	0	43	0	267386880	67	5227
2026-01-12 22:56:31.90	40.13	23.80	-47.8	-51.1	15.2	0.00e+00	0	43	0	268435456	67	5181
2026-01-12 22:56:32.90	40.29	23.92	-47.8	-51.1	15.2	0.00e+00	0	43	0	270532608	67	5168
2026-01-12 22:56:33.89	40.44	24.05	-47.9	-51.2	15.0	0.00e+00	0	43	0	272629760	67	5269
2026-01-12 22:56:34.89	40.61	24.17	-47.9	-51.1	15.1	0.00e+00	0	43	0	274726912	67	5210
2026-01-12 22:56:35.88	40.77	24.30	-47.9	-51.1	15.1	7.00e-07	0	43	0	276824064	67	5205
2026-01-12 22:56:36.87	40.93	24.42	-47.9	-51.2	15.1	0.00e+00	0	43	0	277872640	67	5231
2026-01-12 22:56:37.87	41.09	24.55	-47.9	-51.2	15.0	0.00e+00	0	43	0	279969792	67	5252
2026-01-12 22:56:38.86	41.26	24.68	-47.9	-51.2	15.1	0.00e+00	0	43	0	282066944	67	5222
2026-01-12 22:56:39.85	41.42	24.81	-47.9	-51.2	15.1	0.00e+00	0	43	0	284164096	67	5235
2026-01-12 22:56:40.85	41.59	24.93	-47.9	-51.2	15.0	0.00e+00	0	43	0	285212672	67	5274
2026-01-12 22:56:41.87	41.76	25.07	-47.9	-51.2	15.0	0.00e+00	0	44	0	287309824	67	5264
2026-01-12 22:56:42.87	41.93	25.20	-47.9	-51.2	15.1	0.00e+00	0	43	0	289406976	67	5235
2026-01-12 22:56:43.86	42.10	25.32	-47.8	-51.0	15.2	0.00e+00	0	43	0	291504128	67	5147
2026-01-12 22:56:44.93	42.29	25.46	-47.9	-51.2	15.1	0.00e+00	0	43	0	293601280	67	5231
2026-01-12 22:56:45.82	42.45	25.58	-48.0	-51.2	15.0	0.00e+00	0	43	0	294649856	67	5275
2026-01-12 22:56:46.96	42.65	25.73	-48.0	-51.3	15.0	0.00e+00	0	43	0	296747008	67	5301
2026-01-12 22:56:47.81	42.80	25.84	-48.1	-51.5	14.8	0.00e+00	0	43	0	298844160	67	5405
2026-01-12 22:56:48.95	43.00	25.99	-48.1	-51.6	14.7	1.50e-06	0	43	0	300941312	67	5479
2026-01-12 22:56:49.80	43.16	26.10	-48.2	-51.6	14.6	7.00e-07	0	43	0	301989888	67	5509
2026-01-12 22:56:50.94	43.37	26.26	-48.1	-51.5	14.7	0.00e+00	0	43	0	304087040	67	5450
2026-01-12 22:56:51.79	43.52	26.37	-48.2	-51.6	14.6	0.00e+00	0	43	0	306184192	67	5519
2026-01-12 22:56:52.92	43.73	26.52	-48.2	-51.7	14.6	7.00e-07	0	43	0	308281344	67	5539
2026-01-12 22:56:53.78	43.89	26.63	-48.2	-51.7	14.6	7.00e-07	0	43	0	310378496	67	5537
2026-01-12 22:56:54.91	44.11	26.79	-48.1	-51.6	14.6	0.00e+00	0	44	0	312475648	67	5511
2026-01-12 22:56:55.76	44.27	26.90	-48.2	-51.6	14.7	0.00e+00	0	43	0	313524224	67	5518
2026-01-12 22:56:57.01	44.51	27.07	-48.1	-51.5	14.8	0.00e+00	0	44	0	315621376	67	5430
2026-01-12 22:56:57.86	44.67	27.18	-48.1	-51.5	14.8	0.00e+00	0	43	0	317718528	67	5435
2026-01-12 22:56:59.00	44.89	27.34	-48.1	-51.5	14.7	0.00e+00	0	43	0	319815680	67	5448
2026-01-12 22:56:59.85	45.06	27.45	-48.1	-51.5	14.7	7.00e-07	0	43	0	320864256	67	5455
2026-01-12 22:57:01.12	45.31	27.63	-48.3	-51.8	14.5	0.00e+00	0	43	0	324009984	67	5620
2026-01-12 22:57:01.92	45.47	27.73	-48.3	-51.9	14.4	7.00e-07	0	43	0	325058560	67	5670
2026-01-12 22:57:03.05	45.70	27.89	-48.4	-52.0	14.3	1.50e-06	0	44	0	327155712	67	5769
2026-01-12 22:57:03.91	45.88	28.01	-48.4	-51.9	14.4	0.00e+00	0	43	0	329252864	67	5715
2026-01-12 22:57:05.05	46.11	28.16	-48.5	-52.1	14.2	0.00e+00	0	43	0	331350016	67	5805
2026-01-12 22:57:05.90	46.29	28.28	-48.4	-52.0	14.3	0.00e+00	0	43	0	332398592	67	5765
2026-01-12 22:57:07.04	46.52	28.44	-48.5	-52.2	14.0	7.00e-07	0	43	0	334495744	67	5912
2026-01-12 22:57:07.89	46.70	28.55	-48.6	-52.3	14.1	2.20e-06	0	43	0	336592896	67	5928
2026-01-12 22:57:09.03	46.94	28.71	-48.6	-52.3	14.0	3.00e-06	0	43	0	338690048	67	5930
2026-01-12 22:57:09.88	47.13	28.83	-48.6	-52.2	14.1	1.50e-06	0	43	0	339738624	67	5894
2026-01-12 22:57:11.02	47.37	28.99	-48.6	-52.2	14.0	3.00e-06	0	43	0	341835776	67	5906
2026-01-12 22:57:11.87	47.56	29.11	-48.5	-52.2	14.1	7.00e-07	0	43	0	343932928	67	5862
2026-01-12 22:57:13.01	47.81	29.27	-48.6	-52.2	14.1	7.00e-07	0	43	0	346030080	67	5860
2026-01-12 22:57:13.86	48.00	29.38	-48.6	-52.2	14.1	3.80e-06	0	43	0	347078656	67	5906
2026-01-12 22:57:15.00	48.25	29.54	-48.8	-52.5	14.0	2.20e-06	0	43	0	349175808	68	5734
2026-01-12 22:57:15.85	48.44	29.66	-48.8	-52.4	14.0	7.00e-07	0	44	0	351272960	68	5704
2026-01-12 22:57:16.98	48.70	29.82	-48.7	-52.3	14.2	0.00e+00	0	44	0	353370112	68	5610
2026-01-12 22:57:17.84	48.89	29.94	-48.7	-52.3	14.2	0.00e+00	0	43	0	355467264	68	5605
2026-01-12 22:57:18.97	49.16	30.10	-48.7	-52.3	14.2	0.00e+00	0	43	0	357564416	68	5647
2026-01-12 22:57:19.83	49.36	30.22	-48.8	-52.5	13.9	3.00e-06	0	43	0	358612992	68	5760
2026-01-12 22:57:20.96	49.62	30.38	-49.0	-52.8	13.7	3.00e-06	0	43	0	360710144	68	5967
2026-01-12 22:57:21.82	49.83	30.50	-49.1	-53.0	13.4	3.80e-06	0	43	0	362807296	68	6113
2026-01-12 22:57:22.95	50.10	30.66	-49.1	-53.0	13.5	1.14e-05	0	43	0	364904448	68	6078
2026-01-12 22:57:23.80	50.30	30.78	-49.0	-52.8	13.7	8.30e-06	0	43	0	365953024	68	5949
2026-01-12 22:57:24.94	50.58	30.95	-49.0	-52.8	13.7	3.00e-06	0	44	0	368050176	68	5950
2026-01-12 22:57:25.79	50.79	31.07	-48.9	-52.6	13.9	7.00e-07	0	44	0	370147328	68	5827
2026-01-12 22:57:27.01	51.09	31.24	-48.9	-52.7	13.8	4.50e-06	0	44	0	372244480	68	5869
2026-01-12 22:57:27.86	51.30	31.36	-49.0	-52.9	13.6	5.30e-06	0	43	0	373293056	68	5995
2026-01-12 22:57:29.03	51.59	31.53	-49.1	-52.9	13.6	7.60e-06	0	44	0	376438784	68	6021
2026-01-12 22:57:29.89	51.81	31.65	-49.1	-53.0	13.4	1.22e-05	0	43	0	377487360	69	5765
2026-01-12 22:57:31.09	52.12	31.82	-49.2	-53.2	13.3	1.60e-05	0	44	0	379584512	69	5905
2026-01-12 22:57:31.94	52.34	31.94	-49.4	-53.5	12.9	2.44e-05	0	44	0	381681664	69	6128
2026-01-12 22:57:33.14	52.65	32.11	-49.4	-53.6	12.9	5.56e-05	0	44	0	383778816	69	6134
2026-01-12 22:57:34.41	52.99	32.30	-49.3	-53.4	13.1	2.67e-05	0	44	0	385875968	69	6030
2026-01-12 22:57:35.19	53.19	32.41	-49.3	-53.3	13.1	3.50e-05	0	44	0	387973120	69	5960
2026-01-12 22:57:36.46	53.54	32.59	-49.3	-53.2	13.3	1.44e-05	0	44	0	390070272	69	5907
2026-01-12 22:57:37.26	53.75	32.70	-49.2	-53.2	13.3	1.75e-05	0	44	0	391118848	69	5892
2026-01-12 22:57:38.40	54.06	32.86	-49.4	-53.5	13.0	3.73e-05	0	43	0	393216000	69	6088
2026-01-12 22:57:39.25	54.30	32.99	-49.4	-53.5	13.0	4.34e-05	0	43	0	395313152	69	6084
2026-01-12 22:57:40.39	54.61	33.15	-49.6	-53.9	12.6	8.62e-05	0	44	0	397410304	69	6388
2026-01-12 22:57:41.24	54.85	33.27	-49.6	-53.9	12.6	1.11e-04	0	44	0	398458880	69	6411
2026-01-12 22:57:42.38	55.17	33.43	-49.7	-54.1	12.4	9.76e-05	0	43	0	400556032	70	6185
2026-01-12 22:57:43.23	55.42	33.55	-49.6	-53.9	12.6	1.19e-04	0	44	0	402653184	70	6035
2026-01-12 22:57:44.51	55.79	33.74	-49.6	-53.9	12.6	7.55e-05	0	44	0	404750336	70	6037
2026-01-12 22:57:45.23	55.99	33.84	-49.5	-53.7	12.8	6.48e-05	0	44	0	406847488	70	5891
2026-01-12 22:57:46.50	56.37	34.02	-49.4	-53.5	13.0	3.05e-05	0	44	0	408944640	70	5725
2026-01-12 22:57:47.23	56.58	34.12	-49.2	-53.2	13.2	2.74e-05	0	44	0	409993216	70	5565
2026-01-12 22:57:48.51	56.96	34.30	-49.2	-53.2	13.3	1.90e-05	0	43	0	412090368	70	5579
2026-01-12 22:57:49.23	57.18	34.41	-49.2	-53.1	13.4	1.14e-05	0	43	0	414187520	70	5481
2026-01-12 22:57:50.51	57.57	34.59	-49.1	-53.0	13.5	1.22e-05	0	43	0	416284672	70	5442
2026-01-12 22:57:51.24	57.79	34.69	-49.1	-53.0	13.5	6.10e-06	0	43	0	417333248	70	5441
2026-01-12 22:57:52.51	58.18	34.87	-49.4	-53.5	13.0	1.83e-05	0	43	0	420478976	70	5779
2026-01-12 22:57:53.24	58.41	34.97	-49.7	-54.0	12.5	6.17e-05	0	43	0	421527552	70	6089
2026-01-12 22:57:54.52	58.81	35.15	-49.9	-54.5	12.0	2.46e-04	0	44	0	423624704	70	6465
2026-01-12 22:57:55.23	59.03	35.25	-50.0	-54.7	11.8	4.03e-04	0	44	0	424673280	70	6587
2026-01-12 22:57:56.51	59.44	35.43	-49.8	-54.4	12.2	3.28e-04	0	44	0	427819008	70	6348
2026-01-12 22:57:57.23	59.67	35.53	-49.7	-54.1	12.4	1.94e-04	0	43	0	428867584	70	6175
2026-01-12 22:57:58.51	60.09	35.71	-49.5	-53.7	12.8	1.01e-04	0	43	0	430964736	70	5905
2026-01-12 22:57:59.26	60.33	35.81	-49.5	-53.7	12.8	5.49e-05	0	44	0	433061888	70	5862
2026-01-12 22:58:00.53	60.75	35.99	-49.3	-53.3	13.2	2.44e-05	0	43	0	435159040	70	5630
2026-01-12 22:58:01.25	60.99	36.08	-49.4	-53.4	13.1	2.21e-05	0	44	0	436207616	70	5721
2026-01-12 22:58:02.52	61.42	36.26	-49.7	-54.1	12.5	6.86e-05	0	44	0	438304768	70	6146
2026-01-12 22:58:03.26	61.67	36.36	-49.9	-54.4	12.2	1.67e-04	0	43	0	440401920	70	6357
2026-01-12 22:58:04.65	62.14	36.55	-50.1	-54.8	11.7	6.19e-04	0	44	0	442499072	70	6702
2026-01-12 22:58:05.36	62.39	36.64	-50.2	-55.0	11.5	8.23e-04	0	44	0	444596224	71	6424
2026-01-12 22:58:06.64	62.83	36.82	-49.9	-54.3	12.2	3.60e-04	0	43	0	446693376	71	5972
2026-01-12 22:58:07.68	63.19	36.96	-49.7	-54.0	12.5	1.20e-04	0	44	0	448790528	71	5745
2026-01-12 22:58:08.94	63.64	37.12	-49.4	-53.5	13.0	5.49e-05	0	44	0	450887680	70	5749
2026-01-12 22:58:09.72	63.92	37.23	-49.3	-53.2	13.3	1.83e-05	0	43	0	451936256	70	5556
2026-01-12 22:58:11.00	64.38	37.40	-49.2	-53.2	13.3	1.60e-05	0	43	0	455081984	70	5546
2026-01-12 22:58:11.71	64.63	37.49	-49.3	-53.4	13.2	1.44e-05	0	44	0	456130560	70	5667
2026-01-12 22:58:12.99	65.10	37.66	-49.4	-53.5	13.0	2.28e-05	0	44	0	458227712	70	5747
2026-01-12 22:58:13.70	65.36	37.75	-49.5	-53.7	12.8	5.11e-05	0	43	0	459276288	70	5876
2026-01-12 22:58:14.98	65.84	37.91	-49.7	-54.0	12.6	9.15e-05	0	43	0	462422016	70	6075
2026-01-12 22:58:15.69	66.10	38.01	-49.7	-54.1	12.5	1.19e-04	0	44	0	463470592	70	6153
2026-01-12 22:58:17.02	66.60	38.18	-49.7	-53.9	12.7	1.30e-04	0	44	0	465567744	70	6024
2026-01-12 22:58:17.73	66.87	38.26	-49.6	-53.8	12.8	8.77e-05	0	44	0	467664896	70	5939
2026-01-12 22:58:19.01	67.36	38.43	-49.2	-53.1	13.4	3.43e-05	0	44	0	469762048	70	5474
2026-01-12 22:58:19.73	67.64	38.52	-49.1	-52.9	13.7	9.10e-06	0	44	0	470810624	70	5351
2026-01-12 22:58:21.01	68.14	38.67	-49.0	-52.7	13.9	3.80e-06	0	43	0	473956352	69	5569
2026-01-12 22:58:21.74	68.42	38.76	-48.9	-52.6	13.9	2.20e-06	0	43	0	475004928	69	5512
2026-01-12 22:58:23.01	68.92	38.92	-49.2	-53.2	13.3	6.80e-06	0	44	0	477102080	69	5869
2026-01-12 22:58:23.74	69.21	39.00	-49.5	-53.6	12.9	2.44e-05	0	44	0	478150656	69	6184
2026-01-12 22:58:25.02	69.73	39.16	-50.0	-54.6	12.0	2.55e-04	0	43	0	481296384	70	6497
2026-01-12 22:58:25.74	70.02	39.24	-50.2	-55.0	11.5	4.84e-04	0	44	0	482344960	70	6838
2026-01-12 22:58:27.02	70.53	39.39	-50.2	-55.2	11.3	1.47e-03	0	43	0	484442112	71	6646
2026-01-12 22:58:27.76	70.84	39.48	-50.3	-55.3	11.2	1.38e-03	0	44	0	486539264	71	6662
2026-01-12 22:58:29.04	71.36	39.62	-50.1	-54.9	11.6	7.26e-04	0	44	0	488636416	71	6395
2026-01-12 22:58:29.75	71.66	39.70	-50.0	-54.6	11.9	6.32e-04	0	44	0	489684992	71	6185
2026-01-12 22:58:31.03	72.19	39.85	-49.9	-54.4	12.1	2.72e-04	0	44	0	491782144	71	6010
2026-01-12 22:58:31.75	72.50	39.93	-49.9	-54.4	12.1	2.67e-04	0	44	0	493879296	71	6039
2026-01-12 22:58:33.07	73.05	40.07	-49.5	-53.7	12.8	1.47e-04	0	43	0	495976448	71	5578
2026-01-12 22:58:33.78	73.36	40.15	-49.4	-53.6	12.9	6.48e-05	0	44	0	497025024	70	5843
2026-01-12 22:58:35.12	73.93	40.29	-49.2	-53.3	13.3	3.20e-05	0	44	0	500170752	70	5628
2026-01-12 22:58:35.83	74.24	40.37	-49.4	-53.6	13.0	2.67e-05	0	44	0	501219328	70	5806
2026-01-12 22:58:37.14	74.81	40.50	-49.5	-53.8	12.8	6.10e-05	0	43	0	503316480	70	5942
2026-01-12 22:58:37.85	75.12	40.57	-49.3	-53.4	13.1	4.73e-05	0	44	0	505413632	70	5701
2026-01-12 22:58:39.16	75.69	40.71	-49.1	-53.0	13.5	1.37e-05	0	44	0	507510784	70	5458
2026-01-12 22:58:39.87	76.01	40.78	-49.1	-53.0	13.6	9.10e-06	0	44	0	508559360	70	5411
2026-01-12 22:58:41.15	76.58	40.90	-48.9	-52.6	14.0	3.00e-06	0	43	0	510656512	69	5491
2026-01-12 22:58:42.19	77.05	41.00	-48.7	-52.3	14.2	2.20e-06	0	43	0	512753664	69	5339
2026-01-12 22:58:43.45	77.61	41.12	-48.5	-52.0	14.6	0.00e+00	0	43	0	515899392	68	5447
2026-01-12 22:58:44.24	77.97	41.19	-48.6	-52.2	14.4	7.00e-07	0	44	0	516947968	68	5583
2026-01-12 22:58:45.43	78.52	41.29	-48.6	-52.2	14.3	2.20e-06	0	44	0	519045120	68	5536
2026-01-12 22:58:46.28	78.91	41.37	-48.9	-52.5	14.0	0.00e+00	0	43	0	521142272	68	5785
2026-01-12 22:58:47.42	79.43	41.47	-49.1	-53.0	13.6	5.30e-06	0	44	0	523239424	68	6112
2026-01-12 22:58:48.27	79.83	41.54	-49.3	-53.4	13.1	1.67e-05	0	44	0	524288000	69	6044
2026-01-12 22:58:49.41	80.36	41.63	-49.5	-53.9	12.7	6.86e-05	0	43	0	526385152	69	6373
2026-01-12 22:58:50.26	80.76	41.70	-49.6	-54.1	12.5	1.12e-04	0	44	0	528482304	69	6524
2026-01-12 22:58:51.40	81.29	41.79	-49.5	-53.9	12.6	1.17e-04	0	44	0	530579456	69	6396
2026-01-12 22:58:52.25	81.70	41.86	-49.4	-53.6	12.9	6.40e-05	0	43	0	531628032	69	6178
2026-01-12 22:58:53.45	82.27	41.95	-49.2	-53.3	13.3	2.36e-05	0	43	0	534773760	69	5950
2026-01-12 22:58:54.31	82.68	42.01	-49.0	-53.1	13.4	1.14e-05	0	44	0	535822336	69	5833
2026-01-12 22:58:55.49	83.24	42.09	-49.1	-53.4	13.1	1.83e-05	0	44	0	537919488	69	6059
2026-01-12 22:58:56.34	83.65	42.15	-49.3	-53.9	12.6	5.34e-05	0	44	0	540016640	69	6377
2026-01-12 22:58:57.48	84.21	42.22	-49.3	-53.7	12.8	9.07e-05	0	44	0	542113792	69	6247
2026-01-12 22:58:58.33	84.62	42.28	-49.2	-53.4	13.1	5.26e-05	0	43	0	543162368	69	6035
2026-01-12 22:58:59.47	85.18	42.35	-49.1	-53.1	13.5	9.90e-06	0	43	0	545259520	69	5812
2026-01-12 22:59:00.32	85.59	42.40	-48.5	-52.2	14.3	8.30e-06	0	44	0	547356672	69	5254
2026-01-12 22:59:01.46	86.15	42.47	-48.4	-52.0	14.5	2.20e-06	0	44	0	549453824	68	5458
2026-01-12 22:59:02.31	86.57	42.51	-48.3	-51.9	14.6	0.00e+00	0	44	0	550502400	68	5398
2026-01-12 22:59:03.45	87.14	42.57	-48.8	-52.6	14.0	0.00e+00	0	44	0	552599552	68	5819
2026-01-12 22:59:04.30	87.56	42.62	-48.8	-52.7	13.9	2.20e-06	0	44	0	554696704	68	5863
2026-01-12 22:59:05.44	88.13	42.67	-48.7	-52.3	14.2	2.20e-06	0	43	0	556793856	68	5654
2026-01-12 22:59:06.29	88.55	42.71	-48.4	-51.9	14.6	7.00e-07	0	44	0	557842432	68	5371
2026-01-12 22:59:07.43	89.12	42.76	-48.3	-51.8	14.7	7.00e-07	0	44	0	559939584	68	5321
2026-01-12 22:59:08.28	89.55	42.80	-48.4	-51.9	14.6	7.00e-07	0	43	0	562036736	68	5390
2026-01-12 22:59:09.41	90.12	42.84	-48.8	-52.5	14.1	7.00e-07	0	43	0	564133888	68	5756
2026-01-12 22:59:10.27	90.55	42.87	-49.0	-52.8	13.8	6.10e-06	0	44	0	566231040	68	5977
2026-01-12 22:59:11.40	91.12	42.91	-49.0	-52.9	13.7	3.00e-06	0	43	0	568328192	68	6006
2026-01-12 22:59:12.26	91.56	42.94	-48.8	-52.5	14.1	3.80e-06	0	43	0	569376768	68	5725
2026-01-12 22:59:13.49	92.18	42.97	-48.4	-51.8	14.6	7.00e-07	0	43	0	571473920	68	5335
2026-01-12 22:59:14.34	92.61	43.00	-48.3	-51.7	14.8	7.00e-07	0	43	0	573571072	68	5278
2026-01-12 22:59:15.54	93.23	43.03	-48.7	-52.3	14.3	1.50e-06	0	44	0	575668224	68	5612
2026-01-12 22:59:16.39	93.66	43.04	-49.1	-52.9	13.7	1.50e-06	0	44	0	577765376	68	6039
2026-01-12 22:59:17.58	94.27	43.07	-48.9	-52.6	13.9	6.80e-06	0	43	0	579862528	68	5808
2026-01-12 22:59:18.43	94.70	43.08	-48.6	-52.1	14.4	4.50e-06	0	43	0	580911104	68	5527
2026-01-12 22:59:19.63	95.32	43.10	-48.0	-51.2	15.3	0.00e+00	0	43	0	583008256	68	4951
2026-01-12 22:59:20.48	95.75	43.11	-47.8	-50.9	15.5	0.00e+00	0	44	0	585105408	67	5082
2026-01-12 22:59:21.62	96.34	43.12	-48.0	-51.3	15.2	0.00e+00	0	43	0	587202560	67	5301
2026-01-12 22:59:22.47	96.77	43.13	-48.2	-51.7	14.7	0.00e+00	0	43	0	588251136	67	5543
2026-01-12 22:59:23.61	97.36	43.13	-48.1	-51.5	14.9	0.00e+00	0	43	0	590348288	67	5453
2026-01-12 22:59:24.46	97.80	43.13	-47.9	-51.2	15.2	7.00e-07	0	44	0	592445440	67	5225
2026-01-12 22:59:25.60	98.38	43.13	-47.7	-50.9	15.5	0.00e+00	0	44	0	594542592	67	5049
2026-01-12 22:59:26.59	98.89	43.13	-47.8	-51.0	15.4	0.00e+00	0	43	0	596639744	67	5117
2026-01-12 22:59:27.76	99.49	43.12	-47.9	-51.1	15.3	0.00e+00	0	43	0	598736896	67	5203
2026-01-12 22:59:28.64	99.94	43.11	-47.7	-50.8	15.6	0.00e+00	0	44	0	599785472	67	4995
2026-01-12 22:59:29.96	100.62	43.10	-47.6	-50.7	15.7	0.00e+00	0	43	0	602931200	67	4938
2026-01-12 22:59:30.67	100.98	43.09	-47.7	-50.8	15.6	0.00e+00	0	44	0	603979776	67	5023
2026-01-12 22:59:32.15	101.74	43.06	-48.2	-51.6	14.8	0.00e+00	0	43	0	607125504	67	5469
2026-01-12 22:59:32.86	102.10	43.05	-48.5	-52.1	14.4	0.00e+00	0	44	0	608174080	67	5830
2026-01-12 22:59:34.22	102.80	43.02	-48.7	-52.2	14.3	1.50e-06	0	44	0	610271232	68	5571
2026-01-12 22:59:34.93	103.16	43.00	-48.4	-51.9	14.7	7.00e-07	0	44	0	612368384	68	5351
2026-01-12 22:59:36.27	103.84	42.96	-48.1	-51.4	15.2	0.00e+00	0	44	0	614465536	68	5055
2026-01-12 22:59:36.98	104.20	42.94	-48.1	-51.4	15.2	0.00e+00	0	44	0	615514112	68	5072
2026-01-12 22:59:38.26	104.85	42.90	-48.8	-52.4	14.1	0.00e+00	0	44	0	618659840	68	5721
2026-01-12 22:59:38.99	105.22	42.88	-49.0	-52.8	13.8	2.20e-06	0	44	0	619708416	68	5935
2026-01-12 22:59:40.27	105.87	42.83	-48.9	-52.7	13.9	6.80e-06	0	44	0	621805568	68	5870
2026-01-12 22:59:40.98	106.22	42.80	-48.6	-52.1	14.5	6.80e-06	0	44	0	622854144	68	5486
2026-01-12 22:59:42.25	106.86	42.75	-48.3	-51.7	14.9	0.00e+00	0	44	0	625999872	68	5237
2026-01-12 22:59:42.97	107.22	42.72	-48.6	-52.1	14.5	0.00e+00	0	43	0	627048448	68	5465
2026-01-12 22:59:44.24	107.86	42.66	-48.8	-52.4	14.2	1.50e-06	0	44	0	629145600	68	5707
2026-01-12 22:59:45.00	108.24	42.62	-48.7	-52.2	14.4	1.50e-06	0	44	0	631242752	68	5545
2026-01-12 22:59:46.28	108.87	42.56	-48.3	-51.6	15.0	0.00e+00	0	43	0	633339904	68	5177
2026-01-12 22:59:46.99	109.22	42.52	-48.3	-51.6	15.0	0.00e+00	0	43	0	634388480	68	5201
2026-01-12 22:59:48.27	109.86	42.45	-48.8	-52.5	14.1	0.00e+00	0	43	0	637534208	68	5730
2026-01-12 22:59:49.11	110.27	42.40	-49.2	-53.1	13.4	1.50e-06	0	43	0	638582784	69	5809
2026-01-12 22:59:50.24	110.82	42.33	-49.2	-53.1	13.5	1.60e-05	0	44	0	640679936	69	5801
2026-01-12 22:59:51.10	111.24	42.28	-49.0	-52.8	13.7	4.50e-06	0	44	0	642777088	69	5652
2026-01-12 22:59:52.24	111.80	42.20	-48.7	-52.3	14.3	3.00e-06	0	44	0	644874240	69	5302
2026-01-12 22:59:53.09	112.21	42.15	-48.9	-52.6	14.0	2.20e-06	0	44	0	645922816	69	5471
2026-01-12 22:59:54.22	112.75	42.07	-48.9	-52.7	13.8	2.20e-06	0	43	0	648019968	69	5555
2026-01-12 22:59:55.08	113.17	42.01	-48.8	-52.5	14.1	2.20e-06	0	44	0	650117120	69	5429
2026-01-12 22:59:56.21	113.71	41.93	-48.6	-52.2	14.4	0.00e+00	0	43	0	652214272	69	5219
2026-01-12 22:59:57.07	114.12	41.86	-48.5	-51.9	14.7	7.00e-07	0	44	0	653262848	68	5363
2026-01-12 22:59:58.21	114.66	41.77	-48.2	-51.5	15.1	0.00e+00	0	43	0	655360000	68	5135
2026-01-12 22:59:59.06	115.06	41.71	-48.4	-51.7	14.9	0.00e+00	0	44	0	657457152	68	5252
2026-01-12 23:00:00.20	115.59	41.62	-48.9	-52.6	14.0	7.00e-07	0	43	0	659554304	68	5833
2026-01-12 23:00:01.05	115.99	41.55	-48.9	-52.6	13.9	3.80e-06	0	44	0	660602880	68	5841
2026-01-12 23:00:02.19	116.52	41.45	-48.2	-51.6	14.9	1.50e-06	0	43	0	662700032	68	5216
2026-01-12 23:00:03.04	116.91	41.38	-47.6	-50.8	15.6	7.00e-07	0	43	0	664797184	67	5013
2026-01-12 23:00:04.18	117.44	41.28	-47.7	-51.0	15.4	0.00e+00	0	43	0	666894336	67	5116
2026-01-12 23:00:05.03	117.83	41.20	-48.0	-51.4	15.0	0.00e+00	0	43	0	667942912	67	5382
2026-01-12 23:00:06.17	118.35	41.09	-48.2	-51.7	14.8	0.00e+00	0	43	0	671088640	67	5529
2026-01-12 23:00:07.29	118.85	40.99	-47.6	-50.7	15.7	0.00e+00	0	44	0	673185792	67	4947
2026-01-12 23:00:08.34	119.32	40.89	-47.2	-50.2	16.2	0.00e+00	0	43	0	674234368	66	4937
2026-01-12 23:00:09.28	119.74	40.80	-47.1	-49.9	16.5	0.00e+00	0	43	0	676331520	66	4796
2026-01-12 23:00:10.28	120.19	40.70	-47.6	-50.7	15.8	0.00e+00	0	43	0	678428672	66	5233
2026-01-12 23:00:11.27	120.63	40.60	-48.0	-51.3	15.0	0.00e+00	0	43	0	680525824	66	5653
2026-01-12 23:00:12.27	121.06	40.50	-47.6	-50.7	15.6	0.00e+00	0	43	0	681574400	66	5270
2026-01-12 23:00:13.26	121.50	40.39	-46.9	-49.6	16.7	0.00e+00	0	44	0	683671552	65	4917
2026-01-12 23:00:14.26	121.93	40.29	-46.4	-49.1	17.3	0.00e+00	0	43	0	685768704	64	4876
2026-01-12 23:00:15.25	122.36	40.18	-46.6	-49.3	17.0	0.00e+00	0	44	0	687865856	64	5022
2026-01-12 23:00:16.25	122.78	40.08	-47.1	-49.9	16.4	0.00e+00	0	44	0	689963008	64	5402
2026-01-12 23:00:17.24	123.20	39.97	-47.3	-50.3	16.0	0.00e+00	0	43	0	691011584	65	5309
2026-01-12 23:00:18.24	123.63	39.86	-47.1	-50.0	16.4	0.00e+00	0	44	0	693108736	65	5124
2026-01-12 23:00:19.23	124.04	39.75	-46.9	-49.7	16.6	0.00e+00	0	43	0	695205888	65	4955
2026-01-12 23:00:20.22	124.45	39.63	-46.7	-49.5	16.8	0.00e+00	0	44	0	697303040	65	4829
2026-01-12 23:00:21.31	124.90	39.51	-46.9	-49.8	16.6	0.00e+00	0	44	0	699400192	65	4992
2026-01-12 23:00:22.17	125.26	39.41	-47.3	-50.3	16.1	0.00e+00	0	43	0	700448768	65	5305
2026-01-12 23:00:23.49	125.80	39.25	-47.6	-50.7	15.7	0.00e+00	0	44	0	702545920	65	5538
2026-01-12 23:00:24.21	126.09	39.17	-47.6	-50.6	15.7	0.00e+00	0	43	0	704643072	65	5509
2026-01-12 23:00:25.48	126.60	39.02	-47.6	-50.7	15.7	0.00e+00	0	43	0	706740224	65	5551
2026-01-12 23:00:26.21	126.89	38.93	-47.4	-50.5	15.9	0.00e+00	0	44	0	707788800	65	5407
2026-01-12 23:00:27.49	127.39	38.77	-47.8	-50.9	15.5	0.00e+00	0	43	0	710934528	66	5370
2026-01-12 23:00:28.22	127.68	38.68	-47.9	-51.2	15.2	0.00e+00	0	44	0	711983104	66	5551
2026-01-12 23:00:29.49	128.18	38.53	-47.5	-50.6	15.8	0.00e+00	0	44	0	714080256	66	5176
2026-01-12 23:00:30.23	128.46	38.43	-47.3	-50.3	16.1	0.00e+00	0	44	0	716177408	66	4995
2026-01-12 23:00:31.51	128.95	38.27	-47.0	-49.9	16.5	0.00e+00	0	44	0	718274560	66	4761
2026-01-12 23:00:32.24	129.23	38.18	-47.1	-50.1	16.3	0.00e+00	0	43	0	719323136	66	4881
2026-01-12 23:00:33.52	129.72	38.02	-47.4	-50.4	15.9	0.00e+00	0	44	0	721420288	66	5095
2026-01-12 23:00:34.23	129.98	37.93	-47.4	-50.4	15.9	0.00e+00	0	44	0	723517440	66	5096
2026-01-12 23:00:35.51	130.46	37.76	-47.3	-50.2	16.1	0.00e+00	0	44	0	725614592	66	4954
2026-01-12 23:00:36.22	130.72	37.67	-47.0	-49.9	16.4	0.00e+00	0	43	0	726663168	66	4808
2026-01-12 23:00:37.50	131.19	37.50	-47.2	-50.2	16.2	0.00e+00	0	44	0	729808896	66	4960
2026-01-12 23:00:38.23	131.46	37.40	-47.5	-50.6	15.7	0.00e+00	0	43	0	730857472	66	5214
2026-01-12 23:00:39.51	131.92	37.23	-47.7	-50.9	15.4	0.00e+00	0	44	0	732954624	66	5400
2026-01-12 23:00:40.23	132.18	37.14	-47.7	-50.8	15.6	0.00e+00	0	44	0	734003200	66	5335
2026-01-12 23:00:41.51	132.63	36.97	-47.5	-50.6	15.8	0.00e+00	0	43	0	737148928	66	5182
2026-01-12 23:00:42.22	132.88	36.87	-47.3	-50.3	16.1	0.00e+00	0	43	0	738197504	66	4994
2026-01-12 23:00:43.50	133.33	36.70	-47.3	-50.2	16.1	0.00e+00	0	44	0	740294656	66	4969
2026-01-12 23:00:44.21	133.57	36.60	-47.1	-50.0	16.3	0.00e+00	0	43	0	742391808	66	4837
2026-01-12 23:00:45.52	134.02	36.42	-46.5	-49.2	17.1	0.00e+00	0	43	0	744488960	65	4660
2026-01-12 23:00:46.23	134.27	36.33	-46.3	-48.9	17.4	0.00e+00	0	44	0	745537536	64	4773
2026-01-12 23:00:47.51	134.70	36.15	-46.2	-48.8	17.5	0.00e+00	0	44	0	747634688	64	4708
2026-01-12 23:00:48.25	134.95	36.05	-46.4	-49.1	17.2	0.00e+00	0	43	0	749731840	64	4890
2026-01-12 23:00:49.53	135.37	35.87	-47.2	-50.2	16.2	0.00e+00	0	44	0	751828992	65	5242
2026-01-12 23:00:50.25	135.61	35.77	-47.7	-50.9	15.5	0.00e+00	0	43	0	752877568	66	5346
2026-01-12 23:00:51.53	136.03	35.59	-47.5	-50.6	15.8	0.00e+00	0	44	0	756023296	66	5178
2026-01-12 23:00:52.26	136.27	35.49	-47.2	-50.2	16.2	0.00e+00	0	44	0	757071872	66	4937
2026-01-12 23:00:53.54	136.68	35.31	-47.2	-50.1	16.2	0.00e+00	0	44	0	759169024	66	4915
2026-01-12 23:00:54.25	136.90	35.21	-47.1	-50.0	16.3	0.00e+00	0	43	0	760217600	66	4849
2026-01-12 23:00:55.53	137.31	35.03	-48.0	-51.2	15.2	0.00e+00	0	43	0	763363328	66	5566
2026-01-12 23:00:56.25	137.53	34.93	-48.3	-51.8	14.6	2.20e-06	0	43	0	764411904	67	5598
2026-01-12 23:00:57.53	137.93	34.75	-48.1	-51.4	14.9	7.00e-07	0	44	0	766509056	67	5375
2026-01-12 23:00:58.24	138.15	34.65	-47.6	-50.7	15.7	0.00e+00	0	43	0	768606208	67	4953
2026-01-12 23:00:59.52	138.54	34.47	-47.2	-50.1	16.2	0.00e+00	0	44	0	770703360	66	4889
2026-01-12 23:01:00.23	138.76	34.36	-47.3	-50.2	16.1	0.00e+00	0	44	0	771751936	66	4965
2026-01-12 23:01:01.51	139.14	34.18	-47.6	-50.7	15.7	0.00e+00	0	44	0	774897664	66	5228
2026-01-12 23:01:02.23	139.35	34.08	-48.0	-51.3	15.1	0.00e+00	0	43	0	775946240	66	5597
2026-01-12 23:01:03.51	139.73	33.90	-48.9	-52.7	13.8	0.00e+00	0	43	0	778043392	68	5884
2026-01-12 23:01:04.22	139.94	33.80	-48.9	-52.7	13.9	4.50e-06	0	44	0	779091968	68	5857
2026-01-12 23:01:05.50	140.31	33.61	-47.8	-50.9	15.4	0.00e+00	0	44	0	782237696	67	5080
2026-01-12 23:01:06.23	140.52	33.51	-47.3	-50.3	16.1	0.00e+00	0	44	0	783286272	66	5002
2026-01-12 23:01:07.51	140.89	33.32	-47.0	-49.9	16.3	0.00e+00	0	43	0	785383424	66	4785
2026-01-12 23:01:08.25	141.09	33.22	-47.1	-49.9	16.4	0.00e+00	0	43	0	787480576	65	5095
2026-01-12 23:01:09.80	141.53	33.00	-48.9	-52.6	13.9	1.50e-06	0	43	0	789577728	68	5854
2026-01-12 23:01:10.50	141.72	32.89	-49.5	-53.9	12.6	9.10e-06	0	44	0	791674880	69	6363
2026-01-12 23:01:11.80	142.08	32.71	-49.3	-53.4	13.1	9.38e-05	0	43	0	793772032	69	6013
2026-01-12 23:01:12.51	142.27	32.61	-48.4	-51.9	14.6	6.10e-06	0	44	0	794820608	68	5373
2026-01-12 23:01:13.79	142.62	32.42	-47.2	-50.1	16.2	0.00e+00	0	43	0	796917760	66	4876
2026-01-12 23:01:14.53	142.82	32.32	-46.9	-49.7	16.6	0.00e+00	0	44	0	799014912	65	4978
2026-01-12 23:01:15.81	143.16	32.13	-47.3	-50.3	16.0	0.00e+00	0	43	0	801112064	65	5316
2026-01-12 23:01:16.54	143.35	32.03	-47.9	-51.1	15.3	0.00e+00	0	43	0	802160640	66	5493
2026-01-12 23:01:17.82	143.68	31.84	-49.2	-53.2	13.3	3.00e-06	0	44	0	805306368	69	5895
2026-01-12 23:01:18.54	143.87	31.74	-49.6	-54.0	12.5	7.17e-05	0	43	0	806354944	69	6449
2026-01-12 23:01:19.82	144.20	31.56	-49.2	-53.2	13.2	4.95e-05	0	43	0	808452096	70	5590
2026-01-12 23:01:20.61	144.40	31.44	-48.6	-52.2	14.2	1.29e-05	0	44	0	810549248	69	5243
2026-01-12 23:01:22.08	144.77	31.23	-47.4	-50.4	15.9	0.00e+00	0	43	0	812646400	66	5081
2026-01-12 23:01:22.79	144.94	31.13	-47.4	-50.5	15.8	0.00e+00	0	43	0	814743552	66	5101
2026-01-12 23:01:24.22	145.30	30.93	-47.4	-50.3	16.0	0.00e+00	0	43	0	816840704	66	5034
2026-01-12 23:01:24.93	145.47	30.83	-47.8	-51.0	15.4	0.00e+00	0	44	0	817889280	66	5432
2026-01-12 23:01:26.28	145.80	30.63	-49.1	-53.0	13.5	2.20e-06	0	43	0	821035008	68	6081
2026-01-12 23:01:26.98	145.97	30.53	-49.4	-53.6	12.9	2.74e-05	0	43	0	822083584	69	6159
2026-01-12 23:01:28.29	146.28	30.35	-49.0	-52.8	13.6	2.89e-05	0	44	0	824180736	69	5633
2026-01-12 23:01:29.00	146.45	30.25	-48.5	-51.9	14.5	1.50e-06	0	43	0	826277888	69	5098
2026-01-12 23:01:30.30	146.75	30.06	-47.5	-50.5	15.8	0.00e+00	0	43	0	828375040	67	4868
2026-01-12 23:01:31.01	146.91	29.96	-47.5	-50.6	15.8	0.00e+00	0	44	0	829423616	66	5164
2026-01-12 23:01:32.29	147.21	29.78	-47.4	-50.4	15.9	0.00e+00	0	43	0	832569344	66	5048
2026-01-12 23:01:33.01	147.37	29.68	-47.6	-50.8	15.6	0.00e+00	0	43	0	833617920	66	5286
2026-01-12 23:01:34.29	147.66	29.50	-48.5	-52.1	14.2	7.00e-07	0	44	0	835715072	67	5844
2026-01-12 23:01:35.00	147.82	29.40	-49.2	-53.2	13.3	5.30e-06	0	43	0	836763648	68	6268
2026-01-12 23:01:36.28	148.11	29.22	-49.7	-54.3	12.2	8.69e-05	0	44	0	839909376	70	6300
2026-01-12 23:01:36.99	148.26	29.12	-49.6	-54.1	12.4	2.08e-04	0	44	0	840957952	70	6145
2026-01-12 23:01:38.27	148.54	28.94	-48.8	-52.6	13.9	1.75e-05	0	43	0	843055104	69	5494
2026-01-12 23:01:39.01	148.70	28.83	-48.3	-51.8	14.7	1.50e-06	0	43	0	845152256	68	5289
2026-01-12 23:01:40.29	148.98	28.66	-48.0	-51.2	15.2	0.00e+00	0	43	0	847249408	68	4981
2026-01-12 23:01:41.00	149.13	28.56	-47.8	-51.0	15.3	0.00e+00	0	43	0	848297984	67	5138
2026-01-12 23:01:42.28	149.40	28.38	-47.8	-51.1	15.2	0.00e+00	0	44	0	850395136	67	5201
2026-01-12 23:01:43.21	149.59	28.25	-48.0	-51.4	14.9	0.00e+00	0	44	0	852492288	67	5368
2026-01-12 23:01:44.21	149.80	28.11	-48.4	-52.2	14.2	0.00e+00	0	44	0	854589440	67	5877
2026-01-12 23:01:45.20	150.01	27.97	-49.0	-53.1	13.4	9.90e-06	0	44	0	856686592	68	6189
2026-01-12 23:01:46.20	150.21	27.84	-49.1	-53.5	13.0	3.66e-05	0	44	0	857735168	69	6094
2026-01-12 23:01:47.19	150.41	27.70	-49.0	-53.2	13.2	2.89e-05	0	44	0	859832320	69	5907
2026-01-12 23:01:48.19	150.61	27.56	-48.9	-53.2	13.2	2.44e-05	0	43	0	861929472	69	5916
2026-01-12 23:01:49.18	150.81	27.43	-48.7	-52.8	13.6	9.90e-06	0	43	0	864026624	69	5648
2026-01-12 23:01:50.17	151.00	27.29	-48.3	-52.2	14.3	7.00e-07	0	44	0	866123776	68	5549
2026-01-12 23:01:51.17	151.20	27.16	-48.2	-51.9	14.5	7.00e-07	0	43	0	867172352	68	5392
2026-01-12 23:01:52.16	151.39	27.02	-48.2	-51.8	14.7	7.00e-07	0	43	0	869269504	68	5288
2026-01-12 23:01:53.16	151.58	26.89	-48.1	-51.6	14.9	0.00e+00	0	43	0	871366656	68	5162
2026-01-12 23:01:54.15	151.77	26.75	-48.4	-51.9	14.5	7.00e-07	0	44	0	873463808	68	5388
2026-01-12 23:01:55.15	151.96	26.62	-48.5	-52.1	14.4	0.00e+00	0	43	0	874512384	68	5504
2026-01-12 23:01:56.14	152.15	26.48	-48.5	-52.2	14.3	7.00e-07	0	43	0	876609536	68	5545
2026-01-12 23:01:57.13	152.33	26.35	-48.8	-52.7	13.9	7.00e-07	0	44	0	878706688	68	5856
2026-01-12 23:01:58.13	152.52	26.22	-48.6	-52.3	14.1	8.30e-06	0	44	0	880803840	68	5641
2026-01-12 23:01:59.12	152.70	26.08	-48.5	-52.1	14.4	1.50e-06	0	44	0	882900992	68	5478
2026-01-12 23:02:00.12	152.88	25.95	-48.3	-51.8	14.6	0.00e+00	0	43	0	883949568	68	5325
2026-01-12 23:02:01.11	153.06	25.82	-48.2	-51.6	14.9	0.00e+00	0	44	0	886046720	68	5178
2026-01-12 23:02:02.11	153.24	25.69	-47.7	-51.0	15.3	0.00e+00	0	44	0	888143872	67	5109
2026-01-12 23:02:03.10	153.41	25.56	-47.4	-50.4	15.8	0.00e+00	0	44	0	890241024	66	5083
2026-01-12 23:02:04.10	153.59	25.42	-47.3	-50.4	15.9	0.00e+00	0	44	0	891289600	66	5043
2026-01-12 23:02:05.09	153.76	25.29	-47.4	-50.4	15.9	0.00e+00	0	44	0	893386752	66	5069
2026-01-12 23:02:06.09	153.94	25.16	-47.4	-50.5	15.7	0.00e+00	0	43	0	895483904	66	5133
2026-01-12 23:02:07.08	154.11	25.03	-47.5	-50.6	15.7	0.00e+00	0	43	0	897581056	66	5194
2026-01-12 23:02:08.08	154.28	24.90	-47.5	-50.6	15.6	0.00e+00	0	43	0	899678208	66	5192
2026-01-12 23:02:09.09	154.45	24.77	-47.5	-50.7	15.6	0.00e+00	0	44	0	900726784	66	5237
2026-01-12 23:02:10.08	154.61	24.64	-47.5	-50.6	15.6	0.00e+00	0	43	0	902823936	66	5200
2026-01-12 23:02:11.16	154.79	24.50	-47.5	-50.7	15.6	0.00e+00	0	44	0	904921088	66	5232
2026-01-12 23:02:12.04	154.94	24.39	-47.4	-50.5	15.7	0.00e+00	0	44	0	907018240	66	5143
2026-01-12 23:02:13.18	155.12	24.25	-47.4	-50.5	15.8	0.00e+00	0	43	0	909115392	66	5118
2026-01-12 23:02:14.03	155.26	24.14	-47.4	-50.5	15.8	0.00e+00	0	44	0	910163968	66	5106
2026-01-12 23:02:15.16	155.45	23.99	-47.3	-50.4	15.9	0.00e+00	0	44	0	912261120	66	5057
2026-01-12 23:02:16.18	155.61	23.86	-47.4	-50.4	15.8	0.00e+00	0	43	0	914358272	66	5083
2026-01-12 23:02:17.17	155.77	23.74	-47.5	-50.6	15.7	0.00e+00	0	44	0	916455424	66	5172
2026-01-12 23:02:18.17	155.92	23.61	-47.3	-50.3	15.9	0.00e+00	0	43	0	918552576	66	5041
2026-01-12 23:02:19.16	156.08	23.49	-47.3	-50.4	15.9	0.00e+00	0	44	0	919601152	66	5060
2026-01-12 23:02:20.44	156.27	23.33	-47.3	-50.4	15.8	0.00e+00	0	44	0	922746880	66	5070
2026-01-12 23:02:21.21	156.39	23.23	-47.3	-50.4	15.7	0.00e+00	0	44	0	923795456	66	5081
2026-01-12 23:02:22.49	156.59	23.07	-47.4	-50.5	15.7	0.00e+00	0	44	0	925892608	66	5155
2026-01-12 23:02:23.25	156.70	22.98	-47.4	-50.6	15.7	0.00e+00	0	44	0	927989760	66	5168
2026-01-12 23:02:24.53	156.89	22.82	-47.6	-50.8	15.4	0.00e+00	0	44	0	930086912	66	5311
2026-01-12 23:02:25.25	157.00	22.73	-47.8	-51.1	15.1	0.00e+00	0	44	0	931135488	66	5500
2026-01-12 23:02:26.53	157.19	22.57	-48.0	-51.4	14.9	0.00e+00	0	44	0	934281216	66	5664
2026-01-12 23:02:27.26	157.30	22.48	-48.0	-51.5	14.8	7.00e-07	0	44	0	935329792	66	5726
2026-01-12 23:02:28.54	157.48	22.33	-47.9	-51.3	14.9	0.00e+00	0	44	0	937426944	66	5636
2026-01-12 23:02:29.26	157.59	22.24	-48.0	-51.4	14.9	0.00e+00	0	44	0	938475520	66	5690
2026-01-12 23:02:30.54	157.77	22.08	-47.9	-51.3	14.9	0.00e+00	0	44	0	941621248	66	5640
2026-01-12 23:02:31.25	157.87	22.00	-47.8	-51.1	15.1	0.00e+00	0	44	0	942669824	66	5516
2026-01-12 23:02:32.58	158.06	21.84	-47.6	-50.8	15.4	0.00e+00	0	43	0	944766976	66	5329
2026-01-12 23:02:33.29	158.16	21.75	-47.5	-50.8	15.4	0.00e+00	0	44	0	946864128	66	5284
2026-01-12 23:02:34.57	158.34	21.60	-47.4	-50.6	15.6	0.00e+00	0	44	0	948961280	66	5175
2026-01-12 23:02:35.29	158.44	21.51	-47.3	-50.5	15.6	0.00e+00	0	44	0	950009856	66	5154
2026-01-12 23:02:36.67	158.62	21.35	-47.5	-50.8	15.4	0.00e+00	0	44	0	953155584	66	5283
2026-01-12 23:02:37.38	158.72	21.26	-47.5	-50.7	15.4	0.00e+00	0	44	0	954204160	66	5268
2026-01-12 23:02:38.73	158.90	21.10	-47.5	-50.8	15.2	0.00e+00	0	44	0	956301312	66	5324
2026-01-12 23:02:39.44	159.00	21.02	-47.6	-51.0	15.1	0.00e+00	0	44	0	958398464	66	5422
2026-01-12 23:02:40.79	159.18	20.86	-47.7	-51.1	15.0	0.00e+00	0	43	0	960495616	66	5506
2026-01-12 23:02:41.50	159.27	20.78	-47.6	-51.0	15.0	7.00e-07	0	43	0	961544192	66	5441
2026-01-12 23:02:42.78	159.44	20.63	-47.6	-51.0	15.0	0.00e+00	0	44	0	964689920	66	5423
2026-01-12 23:02:43.49	159.53	20.55	-47.6	-51.0	15.0	0.00e+00	0	44	0	965738496	66	5428
2026-01-12 23:02:44.77	159.69	20.40	-47.5	-50.8	15.1	1.21e-03	0	44	0	967835648	66	5336
2026-01-12 23:02:45.48	159.78	20.32	-47.4	-50.7	15.2	7.00e-07	0	43	0	968884224	66	5246
2026-01-12 23:02:46.76	159.95	20.17	-47.4	-50.7	15.2	7.00e-07	0	44	0	972029952	66	5229
2026-01-12 23:02:47.47	160.04	20.09	-47.5	-50.8	15.1	2.07e-03	0	44	0	973078528	66	5305
2026-01-12 23:02:48.75	160.20	19.94	-47.3	-50.6	15.3	0.00e+00	0	44	0	975175680	66	5162
2026-01-12 23:02:49.46	160.28	19.86	-47.3	-50.5	15.3	0.00e+00	0	44	0	977272832	66	5144
2026-01-12 23:02:50.74	160.44	19.72	-47.3	-50.6	15.2	0.00e+00	0	44	0	979369984	66	5177
2026-01-12 23:02:51.49	160.53	19.63	-47.4	-50.7	15.1	0.00e+00	0	44	0	980418560	66	5239
2026-01-12 23:02:52.77	160.69	19.49	-47.4	-50.8	14.9	0.00e+00	0	44	0	982515712	66	5327
2026-01-12 23:02:53.56	160.79	19.40	-47.3	-50.7	15.0	0.00e+00	0	44	0	984612864	66	5265
2026-01-12 23:02:54.76	160.93	19.26	-47.3	-50.7	15.0	0.00e+00	0	44	0	986710016	66	5264
2026-01-12 23:02:55.61	161.03	19.17	-47.4	-50.8	14.9	0.00e+00	0	44	0	988807168	66	5330
2026-01-12 23:02:57.08	161.20	19.01	-47.3	-50.8	14.9	0.00e+00	0	43	0	990904320	66	5316
2026-01-12 23:02:57.79	161.29	18.93	-47.4	-50.9	14.8	0.00e+00	0	44	0	991952896	66	5343
2026-01-12 23:02:59.07	161.44	18.79	-47.3	-50.8	14.8	6.92e-03	0	44	0	995098624	66	5316
2026-01-12 23:02:59.79	161.52	18.71	-47.3	-50.9	14.8	0.00e+00	0	43	0	996147200	66	5347
2026-01-12 23:03:01.07	161.67	18.57	-47.4	-51.0	14.6	7.00e-07	0	44	0	998244352	66	5462
2026-01-12 23:03:01.78	161.75	18.49	-47.4	-51.0	14.6	3.13e-03	0	44	0	1000341504	66	5426
2026-01-12 23:03:03.06	161.89	18.35	-47.5	-51.1	14.5	1.50e-06	0	44	0	1002438656	66	5491
2026-01-12 23:03:03.79	161.97	18.27	-47.5	-51.1	14.4	0.00e+00	0	44	0	1003487232	66	5515
2026-01-12 23:03:05.06	162.11	18.13	-47.6	-51.2	14.3	2.20e-06	0	44	0	1005584384	66	5585
2026-01-12 23:03:05.82	162.20	18.05	-47.5	-51.2	14.3	0.00e+00	0	43	0	1007681536	66	5568
2026-01-12 23:03:07.10	162.34	17.92	-47.5	-51.1	14.4	1.50e-06	0	44	0	1009778688	66	5480
2026-01-12 23:03:07.98	162.44	17.82	-47.5	-51.1	14.4	7.00e-07	0	44	0	1011875840	66	5493
2026-01-12 23:03:09.12	162.56	17.70	-47.4	-51.1	14.4	0.00e+00	0	43	0	1013972992	66	5488
2026-01-12 23:03:09.97	162.65	17.61	-47.4	-51.1	14.4	0.00e+00	0	44	0	1015021568	66	5482
2026-01-12 23:03:11.11	162.77	17.49	-47.4	-51.1	14.4	1.50e-06	0	44	0	1017118720	66	5466
2026-01-12 23:03:12.21	162.89	17.37	-47.3	-51.0	14.5	0.00e+00	0	43	0	1019215872	66	5435
2026-01-12 23:03:13.24	163.00	17.27	-47.3	-50.9	14.5	0.00e+00	0	44	0	1021313024	66	5377
2026-01-12 23:03:14.23	163.10	17.16	-47.3	-50.9	14.5	0.00e+00	0	44	0	1023410176	66	5384
2026-01-12 23:03:15.23	163.21	17.06	-47.2	-50.9	14.5	0.00e+00	0	44	0	1025507328	66	5378
2026-01-12 23:03:16.46	163.33	16.93	-47.3	-50.9	14.5	7.00e-07	0	44	0	1027604480	66	5398
2026-01-12 23:03:17.34	163.42	16.84	-47.2	-50.8	14.6	7.00e-07	0	43	0	1028653056	66	5340
2026-01-12 23:03:18.48	163.54	16.72	-47.2	-50.8	14.7	0.00e+00	0	44	0	1030750208	66	5288
2026-01-12 23:03:19.33	163.63	16.63	-47.3	-50.8	14.6	7.00e-07	0	44	0	1032847360	66	5328
2026-01-12 23:03:20.71	163.76	16.49	-47.3	-50.8	14.6	7.00e-07	0	44	0	1034944512	66	5307
2026-01-12 23:03:21.42	163.83	16.42	-47.3	-50.8	14.6	7.00e-07	0	44	0	1037041664	66	5318
2026-01-12 23:03:22.70	163.96	16.29	-47.3	-50.9	14.5	7.00e-07	0	44	0	1039138816	66	5365
2026-01-12 23:03:23.42	164.03	16.22	-47.2	-50.8	14.6	0.00e+00	0	44	0	1040187392	66	5303
2026-01-12 23:03:24.70	164.16	16.09	-47.2	-50.9	14.5	0.00e+00	0	44	0	1042284544	66	5346
2026-01-12 23:03:25.43	164.23	16.02	-47.2	-50.7	14.7	0.00e+00	0	43	0	1044381696	66	5271
2026-01-12 23:03:26.71	164.35	15.89	-47.1	-50.7	14.7	0.00e+00	0	44	0	1046478848	66	5243
2026-01-12 23:03:27.44	164.42	15.81	-47.0	-50.6	14.8	0.00e+00	0	43	0	1047527424	66	5181
2026-01-12 23:03:28.72	164.54	15.69	-47.0	-50.6	14.8	7.00e-07	0	44	0	1050673152	66	5169
2026-01-12 23:03:29.43	164.61	15.62	-47.1	-50.6	14.8	0.00e+00	0	44	0	1051721728	66	5188
2026-01-12 23:03:30.73	164.73	15.49	-47.1	-50.5	14.9	0.00e+00	0	44	0	1053818880	66	5148
2026-01-12 23:03:31.44	164.80	15.42	-47.1	-50.5	14.9	0.00e+00	0	44	0	1055916032	66	5119
2026-01-12 23:03:32.72	164.92	15.29	-47.2	-50.7	14.7	1.50e-06	0	44	0	1058013184	66	5220
2026-01-12 23:03:33.43	164.98	15.22	-47.2	-50.6	14.8	0.00e+00	0	44	0	1059061760	66	5208
2026-01-12 23:03:34.71	165.10	15.10	-47.3	-50.8	14.6	0.00e+00	0	44	0	1061158912	66	5311
2026-01-12 23:03:35.43	165.17	15.03	-47.2	-50.8	14.6	0.00e+00	0	44	0	1063256064	66	5293
2026-01-12 23:03:36.73	165.29	14.90	-47.3	-50.9	14.5	0.00e+00	0	43	0	1065353216	66	5362
2026-01-12 23:03:37.44	165.35	14.83	-47.4	-51.0	14.4	0.00e+00	0	44	0	1066401792	66	5419
2026-01-12 23:03:38.72	165.46	14.71	-47.4	-51.0	14.3	7.00e-07	0	43	0	1069547520	66	5443
2026-01-12 23:03:39.46	165.53	14.64	-47.5	-51.1	14.2	0.00e+00	0	44	0	1070596096	66	5513
2026-01-12 23:03:40.74	165.64	14.52	-47.5	-51.2	14.1	3.80e-06	0	44	0	1072693248	66	5591
2026-01-12 23:03:41.47	165.71	14.45	-47.6	-51.4	14.0	1.50e-06	0	44	0	1074790400	66	5670
2026-01-12 23:03:42.75	165.82	14.32	-47.6	-51.4	13.9	3.00e-06	0	44	0	1076887552	66	5712
2026-01-12 23:03:43.49	165.88	14.25	-47.7	-51.5	13.8	6.10e-06	0	43	0	1077936128	66	5776
2026-01-12 23:03:44.76	165.99	14.13	-47.7	-51.6	13.7	3.80e-06	0	44	0	1080033280	66	5842
2026-01-12 23:03:45.48	166.05	14.07	-47.7	-51.6	13.7	5.30e-06	0	44	0	1082130432	66	5828
2026-01-12 23:03:46.75	166.16	13.95	-47.6	-51.6	13.7	7.60e-06	0	43	0	1084227584	66	5808
2026-01-12 23:03:47.54	166.23	13.87	-47.6	-51.6	13.7	3.80e-06	0	43	0	1085276160	66	5840
2026-01-12 23:03:48.74	166.33	13.76	-47.5	-51.6	13.7	9.10e-06	0	43	0	1088421888	66	5795
2026-01-12 23:03:49.60	166.40	13.68	-47.6	-51.6	13.7	7.60e-06	0	43	0	1089470464	66	5839
2026-01-12 23:03:50.73	166.50	13.58	-47.4	-51.3	13.9	5.24e-03	0	44	0	1091567616	66	5656
2026-01-12 23:03:51.58	166.57	13.50	-47.2	-51.0	14.2	3.80e-06	0	44	0	1093664768	66	5428
2026-01-12 23:03:52.72	166.66	13.39	-47.1	-50.8	14.4	1.50e-06	0	44	0	1095761920	66	5333
2026-01-12 23:03:53.57	166.73	13.32	-47.0	-50.8	14.5	0.00e+00	0	44	0	1096810496	66	5297
2026-01-12 23:03:54.71	166.82	13.21	-46.8	-50.6	14.6	7.00e-07	0	43	0	1098907648	65	5476
2026-01-12 23:03:55.56	166.89	13.13	-46.9	-50.6	14.6	0.00e+00	0	43	0	1101004800	65	5498
2026-01-12 23:03:56.70	166.98	13.03	-46.9	-50.7	14.5	0.00e+00	0	44	0	1103101952	65	5547
2026-01-12 23:03:57.55	167.05	12.95	-46.7	-50.4	14.8	0.00e+00	0	43	0	1104150528	65	5351
2026-01-12 23:03:58.69	167.14	12.85	-46.6	-50.3	14.9	0.00e+00	0	43	0	1106247680	65	5302
2026-01-12 23:03:59.55	167.21	12.77	-46.6	-50.2	14.9	0.00e+00	0	44	0	1108344832	65	5275
2026-01-12 23:04:00.68	167.30	12.67	-46.5	-50.2	14.9	7.00e-07	0	44	0	1110441984	65	5253
2026-01-12 23:04:01.54	167.36	12.60	-46.5	-50.2	14.9	0.00e+00	0	43	0	1111490560	65	5249
2026-01-12 23:04:02.68	167.45	12.49	-46.6	-50.3	14.8	0.00e+00	0	44	0	1113587712	65	5299
2026-01-12 23:04:03.53	167.52	12.42	-46.6	-50.3	14.8	0.00e+00	0	44	0	1115684864	65	5325
2026-01-12 23:04:04.66	167.60	12.32	-46.6	-50.4	14.7	0.00e+00	0	44	0	1117782016	65	5369
2026-01-12 23:04:05.64	167.68	12.23	-46.7	-50.6	14.4	7.00e-07	0	43	0	1119879168	65	5503
2026-01-12 23:04:06.64	167.75	12.14	-46.8	-50.8	14.2	2.20e-06	0	44	0	1121976320	65	5628
2026-01-12 23:04:07.63	167.83	12.06	-46.8	-50.8	14.2	3.00e-06	0	43	0	1123024896	65	5652
2026-01-12 23:04:08.62	167.90	11.97	-46.9	-51.0	14.0	5.30e-06	0	43	0	1125122048	65	5787
2026-01-12 23:04:09.62	167.98	11.88	-47.0	-51.2	13.8	3.80e-06	0	44	0	1127219200	65	5916
2026-01-12 23:04:10.62	168.05	11.80	-47.0	-51.4	9.6	3.00e-06	0	44	0	1129316352	65	6016
2026-01-12 23:04:11.94	168.15	11.68	-47.1	-51.6	13.4	9.10e-06	0	44	0	1131413504	65	6169
2026-01-12 23:04:12.68	168.20	11.62	-47.0	-51.7	13.3	2.67e-05	0	44	0	1132462080	65	6238
2026-01-12 23:04:14.28	168.32	11.48	-47.0	-51.9	13.0	3.12e-05	0	44	0	1135607808	65	6403
2026-01-12 23:04:14.86	168.36	11.43	-46.9	-52.0	13.0	3.73e-05	0	43	0	1136656384	65	6441
2026-01-12 23:04:16.42	168.47	11.30	-46.9	-52.1	12.8	1.04e-02	0	44	0	1139802112	65	6532
2026-01-12 23:04:17.13	168.52	11.24	-46.9	-52.0	12.9	5.79e-05	0	44	0	1140850688	65	6429
2026-01-12 23:04:18.41	168.61	11.13	-46.9	-52.2	12.7	4.57e-05	0	44	0	1143996416	65	6614
2026-01-12 23:04:19.12	168.66	11.07	-46.9	-52.3	12.5	9.30e-05	0	44	0	1145044992	65	6710
2026-01-12 23:04:20.45	168.76	10.96	-46.7	-52.0	12.8	8.01e-05	0	44	0	1147142144	65	6480
2026-01-12 23:04:21.16	168.81	10.90	-46.7	-52.1	12.7	5.64e-05	0	44	0	1149239296	65	6534
2026-01-12 23:04:22.44	168.90	10.79	-46.6	-51.9	13.0	6.10e-05	0	43	0	1151336448	65	6378
2026-01-12 23:04:23.15	168.95	10.73	-46.6	-51.9	13.0	3.96e-05	0	44	0	1152385024	65	6352
2026-01-12 23:04:24.43	169.03	10.62	-46.6	-51.9	12.9	4.50e-05	0	43	0	1154482176	65	6416
2026-01-12 23:04:25.16	169.08	10.56	-46.6	-51.9	12.9	4.57e-05	0	44	0	1156579328	65	6382
2026-01-12 23:04:26.64	169.18	10.44	-46.4	-51.7	13.1	3.81e-05	0	44	0	1158676480	64	6582
2026-01-12 23:04:27.35	169.23	10.38	-46.5	-51.7	13.0	3.20e-05	0	44	0	1160773632	64	6626
2026-01-12 23:04:28.64	169.32	10.27	-46.5	-51.6	13.1	3.35e-05	0	44	0	1162870784	64	6559
2026-01-12 23:04:29.35	169.37	10.22	-46.4	-51.5	13.3	2.44e-05	0	44	0	1163919360	64	6442
2026-01-12 23:04:30.75	169.46	10.10	-46.5	-51.6	13.2	2.67e-05	0	44	0	1167065088	64	6505
2026-01-12 23:04:31.46	169.51	10.04	-46.3	-51.3	13.4	2.05e-05	0	44	0	1168113664	64	6306
2026-01-12 23:04:32.74	169.59	9.94	-46.5	-51.4	13.3	1.98e-05	0	44	0	1170210816	64	6419
2026-01-12 23:04:33.47	169.64	9.88	-46.5	-51.3	13.4	8.30e-06	0	44	0	1172307968	64	6300
2026-01-12 23:04:34.75	169.72	9.78	-46.5	-51.2	13.5	8.30e-06	0	44	0	1174405120	64	6269
2026-01-12 23:04:35.49	169.77	9.72	-46.4	-51.1	13.6	1.22e-05	0	44	0	1175453696	64	6141
2026-01-12 23:04:36.77	169.85	9.61	-46.5	-51.0	13.7	5.30e-06	0	44	0	1177550848	64	6101
2026-01-12 23:04:37.49	169.90	9.56	-46.6	-51.0	13.6	7.60e-06	0	44	0	1179648000	64	6130
2026-01-12 23:04:38.77	169.98	9.45	-46.6	-51.1	13.6	6.10e-06	0	44	0	1181745152	64	6173
2026-01-12 23:04:39.51	170.02	9.39	-46.5	-51.1	13.5	8.30e-06	0	44	0	1182793728	64	6153
2026-01-12 23:04:40.79	170.10	9.29	-46.5	-51.0	13.6	6.10e-06	0	44	0	1185939456	64	6122
2026-01-12 23:04:41.50	170.15	9.24	-46.5	-51.2	13.5	5.30e-06	0	44	0	1186988032	64	6206
2026-01-12 23:04:42.78	170.23	9.14	-46.5	-51.2	13.4	1.14e-05	0	44	0	1189085184	64	6226
2026-01-12 23:04:43.60	170.28	9.07	-46.4	-51.1	13.4	1.22e-05	0	43	0	1191182336	64	6202
2026-01-12 23:04:45.09	170.37	8.95	-49.0	-64.4	3.9	1.13e-02	0	44	104	1193279488	69	21306
2026-01-12 23:04:45.80	170.41	8.90	-50.1	-65.3	3.8	1.49e+00	0	44	104	1193279488	70	22450
2026-01-12 23:04:47.07	170.49	8.80	-51.0	-66.3	3.8	1.49e+00	0	43	104	1193279488	72	22480
