passes_logs/2026/01/12/T1/T1__20260112_045656_FENGYUN_3E_rec.log

#Pass ID: 20260112_045656_FENGYUN 3E
#Satellite: FENGYUN 3E
#Configuration: FENGYUN 3E
#almurnet v.1.7.20251203
#Start time: 2026-01-12 04:56:56

#Version: 2.0.20230620
#Station: T1
#Location: 37.570604 lon 55.790049 lat
#TLE: 1 49008U 21062A   26011.27090272  .00000463  00000+0  23869-3 0  9994
#TLE: 2 49008  98.7490  16.4432 0001856 145.0812 215.0487 14.19886022234312

#Time	Az	El	Level	Level2	SNR	BER	BlckErr	Temp	State	Recorded	gain1	gain2
2026-01-12 04:56:56.55	10.35	5.03	-50.0	-61.7	3.8	8.47e-01	0	41	0	0	70	13754
2026-01-12 04:56:57.54	10.30	5.10	-49.4	-61.4	3.8	8.47e-01	0	41	104	0	68	15013
2026-01-12 04:56:58.53	10.25	5.17	-49.4	-61.4	3.8	8.47e-01	0	41	104	0	68	15005
2026-01-12 04:56:59.52	10.21	5.24	-49.4	-61.4	3.8	8.47e-01	0	41	104	0	68	15016
2026-01-12 04:57:00.52	10.16	5.30	-49.4	-61.5	3.8	8.46e-01	0	41	104	0	68	15067
2026-01-12 04:57:01.51	10.11	5.37	-49.4	-61.5	3.8	8.47e-01	0	41	104	0	68	15149
2026-01-12 04:57:02.51	10.06	5.44	-49.4	-61.5	3.8	8.48e-01	0	42	104	0	68	15115
2026-01-12 04:57:03.50	10.01	5.51	-49.4	-61.5	3.8	8.45e-01	0	42	104	0	68	15119
2026-01-12 04:57:04.49	9.97	5.58	-49.4	-61.5	3.8	8.46e-01	0	41	104	0	68	15095
2026-01-12 04:57:05.49	9.92	5.64	-49.4	-61.5	3.8	8.47e-01	0	42	104	0	68	15111
2026-01-12 04:57:06.48	9.87	5.71	-49.4	-61.4	3.8	8.46e-01	0	42	104	0	68	14916
2026-01-12 04:57:07.48	9.82	5.78	-49.4	-61.3	3.8	8.46e-01	0	42	104	0	68	14721
2026-01-12 04:57:08.47	9.77	5.85	-49.4	-61.2	3.8	8.47e-01	0	42	104	0	68	14588
2026-01-12 04:57:09.46	9.72	5.92	-49.4	-61.0	3.8	8.47e-01	0	41	104	0	68	14344
2026-01-12 04:57:10.46	9.67	5.99	-49.4	-60.9	3.8	8.46e-01	0	42	104	0	68	14116
2026-01-12 04:57:11.45	9.62	6.06	-49.4	-60.8	3.8	8.46e-01	0	42	104	0	68	13971
2026-01-12 04:57:12.44	9.57	6.13	-49.4	-60.8	3.8	8.47e-01	0	42	104	0	68	13925
2026-01-12 04:57:13.44	9.51	6.20	-49.4	-60.8	3.8	8.47e-01	0	42	104	0	68	13960
2026-01-12 04:57:14.43	9.46	6.27	-49.4	-60.8	3.8	8.47e-01	0	42	104	0	68	14006
2026-01-12 04:57:15.42	9.41	6.34	-49.4	-60.8	3.8	8.46e-01	0	42	104	0	68	14021
2026-01-12 04:57:16.42	9.36	6.41	-49.4	-60.7	3.8	8.46e-01	0	42	104	0	68	13844
2026-01-12 04:57:17.41	9.31	6.48	-49.4	-60.6	3.8	8.47e-01	0	42	104	0	68	13720
2026-01-12 04:57:18.40	9.26	6.55	-49.4	-60.5	3.8	8.46e-01	0	42	104	0	68	13528
2026-01-12 04:57:19.40	9.20	6.62	-49.4	-60.4	3.8	8.47e-01	0	42	104	0	68	13300
2026-01-12 04:57:20.39	9.15	6.69	-49.4	-60.2	3.8	8.47e-01	0	42	104	0	68	13061
2026-01-12 04:57:21.38	9.10	6.76	-49.4	-60.2	3.8	8.47e-01	0	42	104	0	68	12979
2026-01-12 04:57:22.38	9.04	6.83	-49.4	-60.3	3.8	8.47e-01	0	42	104	0	68	13165
2026-01-12 04:57:23.37	8.99	6.91	-49.4	-60.6	3.8	8.47e-01	0	42	104	0	68	13612
2026-01-12 04:57:24.36	8.94	6.98	-49.4	-60.9	3.8	8.46e-01	0	42	104	0	68	14159
2026-01-12 04:57:25.36	8.88	7.05	-49.4	-61.3	3.8	8.47e-01	0	42	104	0	68	14746
2026-01-12 04:57:26.35	8.83	7.12	-49.5	-61.5	3.8	8.47e-01	0	42	104	0	68	15058
2026-01-12 04:57:27.34	8.77	7.19	-49.4	-61.1	3.8	8.47e-01	0	42	104	0	68	14506
2026-01-12 04:57:28.33	8.72	7.26	-49.3	-60.1	3.8	8.46e-01	0	42	104	0	68	12875
2026-01-12 04:57:29.33	8.66	7.34	-49.2	-58.5	4.1	8.44e-01	0	43	104	0	68	10725
2026-01-12 04:57:30.32	8.60	7.41	-48.9	-56.6	4.6	8.24e-01	0	43	0	0	68	8654
2026-01-12 04:57:31.31	8.55	7.48	-48.4	-55.0	5.5	7.26e-01	0	43	0	0	67	7628
2026-01-12 04:57:32.31	8.49	7.56	-48.0	-53.5	6.6	2.36e-01	0	43	0	5242880	66	6792
2026-01-12 04:57:33.30	8.44	7.63	-47.5	-52.3	7.8	1.05e-01	0	43	0	11534336	65	6232
2026-01-12 04:57:34.29	8.38	7.70	-47.0	-51.0	9.0	3.92e-02	0	43	0	18874368	64	5692
2026-01-12 04:57:35.29	8.32	7.78	-46.6	-50.2	9.9	1.23e-02	0	42	0	26214400	64	5206
2026-01-12 04:57:36.28	8.26	7.85	-46.3	-49.6	10.6	4.02e-03	0	43	0	33554432	63	5110
2026-01-12 04:57:37.27	8.21	7.92	-45.9	-48.8	11.4	1.09e-03	0	42	0	40894464	62	4957
2026-01-12 04:57:38.27	8.15	8.00	-45.3	-48.0	12.3	3.44e-04	0	43	0	48234496	61	4775
2026-01-12 04:57:39.26	8.09	8.07	-45.0	-47.5	12.8	9.95e-05	0	43	0	55574528	60	4762
2026-01-12 04:57:40.25	8.03	8.15	-44.7	-47.0	13.3	2.40e-05	0	43	0	61865984	60	4496
2026-01-12 04:57:41.24	7.97	8.22	-44.4	-46.5	13.7	1.02e-05	0	43	0	69206016	59	4517
2026-01-12 04:57:42.24	7.91	8.30	-44.1	-46.0	14.2	2.20e-06	0	43	0	76546048	58	4532
2026-01-12 04:57:43.23	7.85	8.37	-43.9	-45.8	14.4	0.00e+00	0	43	0	83886080	58	4433
2026-01-12 04:57:44.22	7.79	8.45	-43.8	-45.6	14.6	0.00e+00	0	43	0	91226112	58	4336
2026-01-12 04:57:45.22	7.73	8.52	-43.8	-45.7	14.5	1.10e-06	0	43	0	98566144	58	4364
2026-01-12 04:57:46.21	7.67	8.60	-43.8	-45.8	14.5	0.00e+00	0	43	0	105906176	58	4393
2026-01-12 04:57:47.20	7.61	8.67	-44.1	-46.2	14.1	1.10e-06	0	43	0	112197632	58	4600
2026-01-12 04:57:48.19	7.55	8.75	-44.6	-46.9	13.3	1.60e-05	0	43	0	119537664	58	4986
2026-01-12 04:57:49.19	7.48	8.83	-45.2	-47.7	12.4	8.92e-05	0	43	0	126877696	59	5198
2026-01-12 04:57:50.18	7.42	8.90	-46.0	-49.1	11.2	7.90e-04	0	43	0	134217728	61	5407
2026-01-12 04:57:51.17	7.36	8.98	-46.8	-50.6	9.6	1.02e-02	0	43	0	141557760	63	5728
2026-01-12 04:57:52.17	7.30	9.06	-47.5	-52.3	7.7	5.76e-02	0	43	0	148897792	64	6631
2026-01-12 04:57:53.16	7.23	9.13	-46.2	-49.6	10.6	1.98e-03	0	43	0	155189248	62	5458
2026-01-12 04:57:54.16	7.17	9.21	-48.7	-56.5	4.6	8.20e-01	0	43	0	159383552	67	9038
2026-01-12 04:57:55.15	7.11	9.29	-45.4	-48.6	11.6	9.70e-04	0	43	0	165675008	61	5151
2026-01-12 04:57:56.18	7.04	9.37	-42.5	-44.2	15.9	0.00e+00	0	43	0	173015040	55	4378
2026-01-12 04:57:57.18	6.97	9.45	-47.5	-54.0	6.1	2.90e-01	0	43	0	180355072	64	8045
2026-01-12 04:57:58.17	6.91	9.53	-42.1	-43.8	16.3	0.00e+00	0	43	0	187695104	55	4174
2026-01-12 04:57:59.16	6.84	9.60	-42.0	-43.6	16.5	0.00e+00	0	43	0	195035136	54	4316
2026-01-12 04:58:00.16	6.78	9.68	-41.9	-43.5	16.5	0.00e+00	0	43	0	202375168	54	4291
2026-01-12 04:58:01.15	6.71	9.76	-41.8	-43.4	16.7	0.00e+00	0	43	0	208666624	54	4195
2026-01-12 04:58:02.15	6.64	9.84	-41.5	-43.1	16.9	0.00e+00	0	43	0	216006656	53	4323
2026-01-12 04:58:03.14	6.58	9.92	-41.6	-43.2	16.9	0.00e+00	0	43	0	223346688	53	4347
2026-01-12 04:58:04.14	6.51	10.00	-41.7	-43.2	16.8	0.00e+00	0	43	0	230686720	53	4384
2026-01-12 04:58:05.13	6.44	10.08	-41.6	-43.2	16.9	0.00e+00	0	43	0	238026752	53	4357
2026-01-12 04:58:06.44	6.35	10.18	-41.6	-43.2	16.9	0.00e+00	0	43	0	247463936	53	4356
2026-01-12 04:58:07.17	6.30	10.24	-41.6	-43.2	16.9	0.00e+00	0	43	0	252706816	53	4357
2026-01-12 04:58:08.45	6.21	10.35	-41.4	-42.9	17.1	0.00e+00	0	43	0	261095424	53	4220
2026-01-12 04:58:09.16	6.16	10.40	-41.5	-43.0	17.1	0.00e+00	0	43	0	267386880	53	4281
2026-01-12 04:58:10.85	6.04	10.54	-41.4	-42.9	17.2	0.00e+00	0	43	0	278921216	53	4233
2026-01-12 04:58:11.42	6.00	10.59	-41.5	-43.0	17.1	0.00e+00	0	43	0	283115520	53	4281
2026-01-12 04:58:13.13	5.88	10.73	-41.5	-42.9	17.2	0.00e+00	0	43	0	295698432	53	4234
2026-01-12 04:58:13.75	5.84	10.78	-41.4	-42.9	17.3	0.00e+00	0	43	0	299892736	53	4194
2026-01-12 04:58:15.31	5.72	10.91	-41.3	-42.7	17.4	0.00e+00	0	43	0	311427072	53	4106
2026-01-12 04:58:15.95	5.68	10.96	-41.3	-42.7	17.4	0.00e+00	0	44	0	315621376	53	4102
2026-01-12 04:58:17.38	5.57	11.08	-41.3	-42.6	17.5	0.00e+00	0	43	0	326107136	53	4089
2026-01-12 04:58:18.09	5.52	11.14	-41.2	-42.5	17.6	0.00e+00	0	43	0	331350016	53	4051
2026-01-12 04:58:19.37	5.42	11.24	-41.2	-42.5	17.6	0.00e+00	0	43	0	340787200	53	4037
2026-01-12 04:58:20.08	5.37	11.30	-41.2	-42.5	17.6	0.00e+00	0	43	0	346030080	53	4032
2026-01-12 04:58:21.64	5.25	11.43	-41.2	-42.5	17.6	0.00e+00	0	43	0	356515840	53	4006
2026-01-12 04:58:22.28	5.20	11.49	-41.0	-42.3	17.8	0.00e+00	0	43	0	361758720	52	4170
2026-01-12 04:58:23.93	5.08	11.63	-41.2	-42.5	17.6	0.00e+00	0	43	0	373293056	52	4266
2026-01-12 04:58:24.50	5.04	11.68	-41.2	-42.4	17.6	0.00e+00	0	43	0	377487360	52	4240
2026-01-12 04:58:26.21	4.90	11.82	-41.1	-42.3	17.8	0.00e+00	0	43	0	390070272	52	4183
2026-01-12 04:58:26.78	4.86	11.87	-41.1	-42.3	17.8	0.00e+00	0	43	0	394264576	52	4184
2026-01-12 04:58:28.48	4.73	12.02	-41.1	-42.3	17.9	0.00e+00	0	43	0	406847488	52	4151
2026-01-12 04:58:29.05	4.68	12.06	-41.1	-42.3	17.9	0.00e+00	0	43	0	409993216	52	4149
2026-01-12 04:58:30.76	4.54	12.21	-41.1	-42.3	17.9	0.00e+00	0	43	0	422576128	52	4153
2026-01-12 04:58:31.32	4.50	12.26	-41.0	-42.2	17.9	0.00e+00	0	43	0	426770432	52	4114
2026-01-12 04:58:33.03	4.36	12.41	-41.0	-42.1	18.0	0.00e+00	0	43	0	439353344	52	4090
2026-01-12 04:58:33.60	4.32	12.46	-41.1	-42.3	17.9	0.00e+00	0	43	0	443547648	52	4154
2026-01-12 04:58:35.46	4.16	12.62	-41.1	-42.3	17.9	0.00e+00	0	43	0	457179136	52	4164
2026-01-12 04:58:36.03	4.12	12.67	-41.1	-42.3	17.9	0.00e+00	0	43	0	461373440	52	4155
2026-01-12 04:58:37.73	3.98	12.82	-41.1	-42.3	17.9	0.00e+00	0	44	0	472907776	52	4147
2026-01-12 04:58:38.46	3.92	12.88	-41.1	-42.3	17.9	0.00e+00	0	43	0	478150656	52	4151
2026-01-12 04:58:39.74	3.81	13.00	-40.8	-42.0	18.2	0.00e+00	0	44	0	487587840	52	4017
2026-01-12 04:58:40.69	3.73	13.08	-41.0	-42.1	18.0	0.00e+00	0	44	0	494927872	52	4090
2026-01-12 04:58:41.69	3.64	13.17	-41.0	-42.1	18.0	0.00e+00	0	43	0	501219328	52	4090
2026-01-12 04:58:42.68	3.56	13.26	-40.9	-42.1	18.1	0.00e+00	0	44	0	508559360	52	4080
2026-01-12 04:58:43.68	3.47	13.35	-40.9	-42.1	18.1	0.00e+00	0	43	0	515899392	52	4069
2026-01-12 04:58:44.67	3.39	13.44	-40.9	-42.1	18.1	0.00e+00	0	43	0	523239424	52	4059
2026-01-12 04:58:45.66	3.30	13.52	-40.8	-42.0	18.2	0.00e+00	0	43	0	530579456	52	4022
2026-01-12 04:58:46.66	3.21	13.62	-40.6	-41.8	18.4	0.00e+00	0	43	0	537919488	52	3927
2026-01-12 04:58:47.66	3.12	13.71	-40.7	-41.8	18.4	0.00e+00	0	44	0	545259520	52	3943
2026-01-12 04:58:48.65	3.03	13.80	-40.7	-41.9	18.3	0.00e+00	0	44	0	551550976	52	3971
2026-01-12 04:58:49.76	2.93	13.90	-40.5	-41.6	18.6	0.00e+00	0	44	0	559939584	51	4086
2026-01-12 04:58:50.61	2.86	13.97	-40.7	-41.8	18.5	0.00e+00	0	44	0	566231040	51	4170
2026-01-12 04:58:51.97	2.73	14.10	-40.6	-41.8	18.5	0.00e+00	0	44	0	575668224	51	4161
2026-01-12 04:58:52.68	2.67	14.16	-40.6	-41.8	18.5	0.00e+00	0	43	0	580911104	51	4155
2026-01-12 04:58:53.96	2.55	14.28	-40.6	-41.8	18.5	0.00e+00	0	43	0	590348288	51	4150
2026-01-12 04:58:54.67	2.49	14.35	-40.5	-41.7	18.6	0.00e+00	0	44	0	595591168	51	4105
2026-01-12 04:58:55.95	2.37	14.47	-40.5	-41.6	18.6	0.00e+00	0	44	0	605028352	51	4090
2026-01-12 04:58:56.67	2.30	14.53	-40.6	-41.7	18.5	0.00e+00	0	44	0	610271232	51	4143
2026-01-12 04:58:57.95	2.18	14.65	-40.6	-41.7	18.6	0.00e+00	0	44	0	618659840	51	4109
2026-01-12 04:58:58.68	2.11	14.72	-40.6	-41.7	18.5	0.00e+00	0	44	0	623902720	51	4132
2026-01-12 04:58:59.95	1.99	14.84	-40.9	-42.0	18.3	0.00e+00	0	44	0	633339904	51	4283
2026-01-12 04:59:00.66	1.92	14.91	-40.6	-41.7	18.5	0.00e+00	0	43	0	638582784	51	4143
2026-01-12 04:59:01.94	1.80	15.03	-40.6	-41.7	18.6	0.00e+00	0	44	0	648019968	51	4133
2026-01-12 04:59:02.65	1.73	15.09	-40.6	-41.8	18.5	0.00e+00	0	44	0	653262848	51	4169
2026-01-12 04:59:03.93	1.60	15.22	-40.7	-41.9	18.4	0.00e+00	0	44	0	662700032	51	4195
2026-01-12 04:59:04.66	1.53	15.29	-40.7	-41.8	18.5	0.00e+00	0	44	0	667942912	51	4181
2026-01-12 04:59:05.94	1.40	15.41	-40.7	-41.9	18.4	0.00e+00	0	44	0	676331520	51	4224
2026-01-12 04:59:06.65	1.33	15.48	-40.8	-41.9	18.3	0.00e+00	0	44	0	681574400	51	4240
2026-01-12 04:59:08.15	1.18	15.62	-40.7	-41.9	18.4	0.00e+00	0	44	0	692060160	51	4204
2026-01-12 04:59:08.86	1.11	15.69	-40.7	-41.9	18.4	0.00e+00	0	44	0	698351616	51	4232
2026-01-12 04:59:10.22	0.97	15.82	-40.6	-41.7	18.6	0.00e+00	0	44	0	707788800	51	4142
2026-01-12 04:59:10.93	0.89	15.89	-40.7	-41.9	18.4	0.00e+00	0	44	0	713031680	51	4205
2026-01-12 04:59:12.24	0.76	16.02	-40.6	-41.8	18.5	0.00e+00	0	43	0	722468864	51	4165
2026-01-12 04:59:12.95	0.68	16.09	-40.7	-41.8	18.5	0.00e+00	0	44	0	727711744	51	4180
2026-01-12 04:59:14.23	0.55	16.21	-40.6	-41.7	18.6	0.00e+00	0	44	0	736100352	51	4131
2026-01-12 04:59:14.94	0.47	16.28	-40.5	-41.6	18.7	0.00e+00	0	44	0	741343232	51	4093
2026-01-12 04:59:16.22	0.34	16.41	-40.6	-41.7	18.6	0.00e+00	0	44	0	750780416	51	4121
2026-01-12 04:59:16.93	0.26	16.48	-40.5	-41.7	18.7	0.00e+00	0	44	0	756023296	51	4102
2026-01-12 04:59:18.21	0.12	16.60	-40.4	-41.5	18.8	0.00e+00	0	44	0	765460480	51	4030
2026-01-12 04:59:18.92	0.05	16.67	-40.3	-41.4	18.9	0.00e+00	0	44	0	770703360	51	3967
2026-01-12 04:59:20.20	359.90	16.80	-40.4	-41.5	18.8	0.00e+00	0	44	0	779091968	51	4026
2026-01-12 04:59:20.96	359.82	16.88	-39.9	-40.9	19.4	0.00e+00	0	44	0	785383424	50	3985
2026-01-12 04:59:22.24	359.68	17.01	-40.4	-41.5	18.8	0.00e+00	0	44	0	794820608	50	4250
2026-01-12 04:59:23.01	359.59	17.08	-40.3	-41.4	18.9	0.00e+00	0	44	0	800063488	50	4223
2026-01-12 04:59:24.29	359.45	17.21	-40.3	-41.3	19.0	0.00e+00	0	44	0	809500672	50	4193
2026-01-12 04:59:25.02	359.37	17.29	-40.3	-41.4	18.9	0.00e+00	0	44	0	814743552	50	4195
2026-01-12 04:59:26.30	359.22	17.42	-40.3	-41.4	18.8	0.00e+00	0	44	0	823132160	50	4235
2026-01-12 04:59:27.02	359.14	17.49	-40.2	-41.3	19.0	0.00e+00	0	44	0	829423616	50	4186
2026-01-12 04:59:28.30	358.99	17.62	-40.2	-41.3	19.0	0.00e+00	0	44	0	837812224	50	4167
2026-01-12 04:59:29.01	358.91	17.69	-40.3	-41.4	18.9	0.00e+00	0	44	0	843055104	50	4218
2026-01-12 04:59:30.29	358.75	17.83	-40.3	-41.4	18.9	0.00e+00	0	44	0	852492288	50	4219
2026-01-12 04:59:31.00	358.67	17.90	-40.2	-41.3	19.0	0.00e+00	0	44	0	857735168	50	4158
2026-01-12 04:59:32.28	358.52	18.03	-40.2	-41.3	19.0	0.00e+00	0	44	0	867172352	50	4188
2026-01-12 04:59:32.99	358.43	18.10	-40.1	-41.2	19.1	0.00e+00	0	44	0	872415232	50	4141
2026-01-12 04:59:34.27	358.28	18.24	-40.1	-41.2	19.1	0.00e+00	0	44	0	881852416	50	4110
2026-01-12 04:59:34.98	358.19	18.31	-40.1	-41.1	19.2	0.00e+00	0	44	0	886046720	50	4096
2026-01-12 04:59:36.26	358.04	18.44	-40.1	-41.2	19.1	0.00e+00	0	44	0	895483904	50	4115
2026-01-12 04:59:36.99	357.95	18.52	-40.0	-41.1	19.2	0.00e+00	0	44	0	900726784	50	4089
2026-01-12 04:59:38.27	357.79	18.66	-40.0	-41.1	19.2	0.00e+00	0	44	0	910163968	50	4079
2026-01-12 04:59:39.01	357.69	18.73	-39.9	-41.0	19.3	0.00e+00	0	44	0	915406848	50	4032
2026-01-12 04:59:40.29	357.53	18.87	-39.8	-40.9	19.4	0.00e+00	0	44	0	924844032	49	4211
2026-01-12 04:59:41.00	357.44	18.94	-39.8	-40.9	19.4	0.00e+00	0	44	0	930086912	49	4210
2026-01-12 04:59:42.27	357.28	19.08	-39.3	-40.8	19.5	0.00e+00	0	44	0	939524096	49	4176
2026-01-12 04:59:42.98	357.19	19.16	-39.6	-40.7	19.6	0.00e+00	0	44	0	943718400	49	4123
2026-01-12 04:59:44.26	357.02	19.29	-39.5	-40.5	19.8	0.00e+00	0	44	0	953155584	48	4261
2026-01-12 04:59:45.29	356.89	19.40	-39.4	-40.4	19.9	0.00e+00	0	44	0	960495616	48	4228
2026-01-12 04:59:46.28	356.76	19.51	-39.4	-40.4	19.9	0.00e+00	0	44	0	967835648	48	4236
2026-01-12 04:59:47.28	356.62	19.62	-38.7	-40.2	20.0	0.00e+00	0	44	0	975175680	48	4130
2026-01-12 04:59:48.27	356.49	19.73	-39.1	-40.2	19.8	0.00e+00	0	44	0	982515712	47	4370
2026-01-12 04:59:49.27	356.36	19.83	-39.2	-40.2	19.7	0.00e+00	0	44	0	989855744	47	4388
2026-01-12 04:59:50.26	356.22	19.94	-39.1	-40.1	19.9	0.00e+00	0	44	0	997195776	47	4322
2026-01-12 04:59:51.26	356.09	20.05	-39.2	-40.2	19.8	0.00e+00	0	44	0	1004535808	47	4347
2026-01-12 04:59:52.25	355.95	20.16	-39.1	-40.1	19.9	0.00e+00	0	44	0	1010827264	47	4297
2026-01-12 04:59:53.25	355.81	20.27	-39.3	-40.3	20.0	0.00e+00	0	44	0	1018167296	48	4154
2026-01-12 04:59:54.24	355.67	20.38	-39.2	-40.3	19.8	0.00e+00	0	44	0	1025507328	47	4396
2026-01-12 04:59:55.24	355.53	20.49	-39.4	-40.4	19.9	0.00e+00	0	44	0	1032847360	48	4219
2026-01-12 04:59:56.36	355.37	20.61	-39.4	-40.3	19.9	0.00e+00	0	44	0	1041235968	48	4186
2026-01-12 04:59:57.21	355.25	20.71	-39.4	-40.4	19.8	0.00e+00	0	44	0	1047527424	48	4202
2026-01-12 04:59:58.35	355.09	20.83	-39.5	-40.5	19.8	0.00e+00	0	44	0	1054867456	48	4272
2026-01-12 04:59:59.20	354.96	20.93	-39.4	-40.4	19.9	0.00e+00	0	44	0	1061158912	48	4199
2026-01-12 05:00:00.34	354.80	21.06	-39.3	-40.3	20.0	0.00e+00	0	44	0	1069547520	48	4160
2026-01-12 05:00:01.19	354.67	21.15	-39.3	-40.3	20.0	0.00e+00	0	44	0	1075838976	48	4160
2026-01-12 05:00:02.33	354.50	21.28	-39.2	-40.2	20.1	0.00e+00	0	44	0	1084227584	48	4116
2026-01-12 05:00:03.18	354.38	21.38	-39.2	-40.1	20.2	0.00e+00	0	44	0	1089470464	48	4086
2026-01-12 05:00:04.31	354.21	21.50	-39.0	-40.1	20.2	0.00e+00	0	44	0	1097859072	48	4052
2026-01-12 05:00:05.17	354.08	21.60	-39.0	-40.0	20.3	0.00e+00	0	44	0	1104150528	48	4006
2026-01-12 05:00:06.30	353.90	21.73	-38.9	-39.9	20.4	0.00e+00	0	44	0	1112539136	48	3959
2026-01-12 05:00:07.15	353.77	21.83	-39.0	-39.9	20.4	0.00e+00	0	44	0	1118830592	48	3978
2026-01-12 05:00:08.30	353.60	21.96	-38.7	-39.7	20.3	0.00e+00	0	44	0	1127219200	47	4117
2026-01-12 05:00:09.16	353.46	22.06	-38.8	-39.8	20.2	0.00e+00	0	44	0	1133510656	47	4167
2026-01-12 05:00:10.30	353.28	22.19	-38.8	-39.8	20.2	0.00e+00	0	44	0	1140850688	47	4176
2026-01-12 05:00:11.15	353.15	22.28	-38.7	-39.7	20.3	0.00e+00	0	44	0	1147142144	47	4119
2026-01-12 05:00:12.28	352.97	22.41	-38.8	-39.9	20.1	0.00e+00	0	44	0	1155530752	47	4195
2026-01-12 05:00:13.14	352.83	22.51	-38.4	-39.4	20.5	0.00e+00	0	44	0	1161822208	47	3994
2026-01-12 05:00:14.48	352.61	22.67	-38.8	-39.9	20.1	0.00e+00	0	44	0	1171259392	47	4212
2026-01-12 05:00:15.19	352.49	22.75	-38.9	-39.9	20.1	0.00e+00	0	44	0	1176502272	47	4213
2026-01-12 05:00:16.47	352.28	22.90	-39.0	-40.0	20.0	0.00e+00	0	44	0	1185939456	47	4279
2026-01-12 05:00:17.18	352.17	22.98	-39.0	-40.0	20.0	0.00e+00	0	44	0	1191182336	47	4282
2026-01-12 05:00:18.76	351.90	23.17	-39.1	-40.1	20.2	0.00e+00	0	44	0	1202716672	48	4094
2026-01-12 05:00:19.39	351.79	23.24	-39.1	-40.2	20.1	0.00e+00	0	44	0	1206910976	48	4103
2026-01-12 05:00:20.91	351.54	23.42	-39.2	-40.2	20.1	0.00e+00	0	44	0	1218445312	48	4139
2026-01-12 05:00:21.62	351.41	23.51	-39.2	-40.2	20.1	0.00e+00	0	44	0	1222639616	48	4127
2026-01-12 05:00:22.89	351.19	23.66	-39.0	-40.0	20.0	0.00e+00	0	44	0	1232076800	47	4267
2026-01-12 05:00:23.62	351.07	23.74	-39.7	-40.7	19.7	0.00e+00	0	44	0	1237319680	48	4374
2026-01-12 05:00:24.90	350.84	23.89	-39.3	-40.3	20.1	0.00e+00	0	44	0	1246756864	48	4153
2026-01-12 05:00:25.62	350.71	23.98	-39.1	-40.1	20.2	0.00e+00	0	44	0	1251999744	48	4069
2026-01-12 05:00:26.90	350.49	24.13	-39.0	-40.0	20.3	0.00e+00	0	44	0	1261436928	48	4043
2026-01-12 05:00:27.62	350.36	24.22	-39.0	-40.0	20.3	0.00e+00	0	44	0	1266679808	48	4046
2026-01-12 05:00:29.08	350.09	24.39	-38.8	-39.9	20.2	0.00e+00	0	44	0	1277165568	47	4224
2026-01-12 05:00:29.79	349.96	24.48	-38.7	-39.7	20.3	0.00e+00	0	44	0	1282408448	47	4115
2026-01-12 05:00:31.06	349.73	24.63	-37.0	-39.7	20.4	0.00e+00	0	44	0	1291845632	46	4348
2026-01-12 05:00:32.09	349.53	24.76	-38.7	-39.7	20.3	0.00e+00	0	44	0	1298137088	46	4372
2026-01-12 05:00:33.09	349.35	24.88	-38.6	-39.6	20.4	0.00e+00	0	44	0	1305477120	46	4338
2026-01-12 05:00:34.08	349.16	25.00	-38.6	-39.6	20.4	0.00e+00	0	44	0	1312817152	47	4075
2026-01-12 05:00:35.08	348.97	25.12	-38.7	-39.7	20.3	0.00e+00	0	44	0	1320157184	46	4372
2026-01-12 05:00:36.07	348.78	25.24	-38.6	-39.7	20.4	0.00e+00	0	44	0	1327497216	47	4103
2026-01-12 05:00:37.07	348.59	25.36	-38.7	-39.6	20.4	0.00e+00	0	44	0	1334837248	47	4091
2026-01-12 05:00:38.06	348.39	25.48	-38.6	-39.6	20.4	0.00e+00	0	44	0	1342177280	47	4089
2026-01-12 05:00:39.06	348.20	25.60	-38.7	-39.7	20.4	0.00e+00	0	44	0	1349517312	47	4107
2026-01-12 05:00:40.05	348.00	25.72	-38.8	-39.8	20.2	0.00e+00	0	44	0	1355808768	47	4173
2026-01-12 05:00:41.05	347.80	25.84	-38.9	-39.9	20.1	0.00e+00	0	44	0	1363148800	47	4219
2026-01-12 05:00:42.04	347.60	25.97	-38.9	-39.9	20.2	0.00e+00	0	44	0	1370488832	47	4211
2026-01-12 05:00:43.03	347.40	26.09	-38.9	-39.9	20.1	0.00e+00	0	44	0	1377828864	47	4233
2026-01-12 05:00:44.03	347.20	26.21	-38.8	-39.9	20.2	0.00e+00	0	44	0	1385168896	47	4207
2026-01-12 05:00:45.02	346.99	26.33	-38.8	-39.8	20.2	0.00e+00	0	44	0	1392508928	47	4189
2026-01-12 05:00:46.02	346.78	26.45	-38.8	-39.8	20.2	0.00e+00	0	44	0	1398800384	47	4168
2026-01-12 05:00:47.01	346.58	26.58	-38.8	-39.8	20.2	0.00e+00	0	44	0	1406140416	47	4169
2026-01-12 05:00:48.00	346.37	26.70	-38.8	-39.8	20.2	0.00e+00	0	44	0	1413480448	47	4171
2026-01-12 05:00:49.00	346.16	26.82	-38.9	-39.9	20.2	0.00e+00	0	44	0	1420820480	47	4195
2026-01-12 05:00:49.99	345.94	26.94	-38.9	-39.9	20.2	0.00e+00	0	44	0	1428160512	47	4218
2026-01-12 05:00:50.99	345.73	27.07	-38.9	-39.9	20.1	0.00e+00	0	44	0	1435500544	47	4209
2026-01-12 05:00:51.98	345.51	27.19	-38.9	-39.9	20.2	0.00e+00	0	44	0	1441792000	47	4207
2026-01-12 05:00:52.98	345.29	27.31	-38.9	-39.9	20.2	0.00e+00	0	44	0	1449132032	47	4206
2026-01-12 05:00:53.97	345.08	27.44	-38.9	-39.9	20.2	0.00e+00	0	44	0	1456472064	47	4222
2026-01-12 05:00:54.97	344.85	27.56	-38.9	-39.9	20.2	0.00e+00	0	44	0	1463812096	47	4217
2026-01-12 05:00:55.96	344.63	27.68	-38.5	-39.7	20.3	0.00e+00	0	44	0	1471152128	47	4141
2026-01-12 05:00:56.95	344.41	27.81	-38.9	-39.9	20.2	0.00e+00	0	44	0	1478492160	47	4202
2026-01-12 05:00:57.95	344.18	27.93	-38.8	-39.8	20.3	0.00e+00	0	44	0	1484783616	47	4147
2026-01-12 05:00:58.94	343.95	28.05	-38.8	-39.8	20.3	0.00e+00	0	44	0	1492123648	47	4162
2026-01-12 05:00:59.94	343.72	28.18	-39.0	-40.0	20.1	0.00e+00	0	44	0	1499463680	47	4265
2026-01-12 05:01:00.93	343.49	28.30	-38.7	-39.7	20.3	0.00e+00	0	44	0	1506803712	47	4133
2026-01-12 05:01:01.93	343.25	28.43	-38.7	-39.6	20.4	0.00e+00	0	44	0	1514143744	46	4340
2026-01-12 05:01:02.92	343.02	28.55	-38.6	-39.6	20.5	0.00e+00	0	44	0	1521483776	46	4316
2026-01-12 05:01:04.00	342.76	28.68	-38.7	-39.7	20.4	0.00e+00	0	44	0	1528823808	46	4345
2026-01-12 05:01:04.85	342.55	28.79	-38.6	-39.6	20.4	0.00e+00	0	44	0	1535115264	46	4305
2026-01-12 05:01:05.99	342.28	28.93	-38.6	-39.5	20.5	0.00e+00	0	44	0	1543503872	46	4281
2026-01-12 05:01:06.84	342.07	29.04	-38.5	-39.5	20.6	0.00e+00	0	44	0	1549795328	46	4256
2026-01-12 05:01:07.98	341.79	29.18	-38.6	-39.6	20.5	0.00e+00	0	44	0	1558183936	46	4308
2026-01-12 05:01:08.83	341.58	29.29	-38.6	-39.6	20.5	0.00e+00	0	44	0	1563426816	46	4300
2026-01-12 05:01:09.97	341.29	29.43	-38.5	-39.5	20.6	0.00e+00	0	44	0	1571815424	46	4262
2026-01-12 05:01:10.82	341.08	29.53	-38.3	-39.3	20.8	0.00e+00	0	44	0	1578106880	46	4152
2026-01-12 05:01:11.96	340.79	29.67	-38.3	-39.2	20.8	0.00e+00	0	44	0	1586495488	46	4130
2026-01-12 05:01:12.81	340.57	29.78	-38.3	-39.2	20.8	0.00e+00	0	44	0	1592786944	46	4134
2026-01-12 05:01:13.95	340.27	29.92	-38.3	-39.3	20.8	0.00e+00	0	44	0	1601175552	46	4148
2026-01-12 05:01:14.80	340.05	30.03	-38.2	-39.2	20.8	0.00e+00	0	44	0	1606418432	46	4116
2026-01-12 05:01:16.08	339.72	30.18	-38.2	-39.1	20.8	0.00e+00	0	44	0	1615855616	46	4097
2026-01-12 05:01:16.80	339.53	30.27	-38.2	-39.2	20.8	0.00e+00	0	44	0	1622147072	46	4111
2026-01-12 05:01:18.08	339.18	30.43	-38.2	-39.1	20.9	0.00e+00	0	44	0	1630535680	46	4087
2026-01-12 05:01:18.81	338.99	30.52	-38.1	-39.1	20.9	0.00e+00	0	44	0	1635778560	46	4066
2026-01-12 05:01:20.09	338.64	30.68	-38.1	-39.0	21.0	0.00e+00	0	44	0	1645215744	46	4033
2026-01-12 05:01:20.80	338.45	30.77	-38.1	-39.1	21.0	0.00e+00	0	44	0	1650458624	46	4056
2026-01-12 05:01:22.08	338.10	30.92	-37.7	-39.2	20.8	0.00e+00	0	44	0	1659895808	45	4377
2026-01-12 05:01:22.91	337.87	31.02	-38.3	-39.3	20.8	0.00e+00	0	44	0	1666187264	46	4158
2026-01-12 05:01:24.05	337.55	31.16	-38.3	-39.3	20.7	0.00e+00	0	44	0	1673527296	46	4177
2026-01-12 05:01:24.91	337.31	31.27	-38.3	-39.3	20.7	0.00e+00	0	44	0	1679818752	46	4168
2026-01-12 05:01:26.05	336.98	31.41	-38.3	-39.3	20.7	0.00e+00	0	44	0	1688207360	46	4166
2026-01-12 05:01:26.90	336.74	31.51	-38.3	-39.2	20.7	0.00e+00	0	44	0	1694498816	46	4145
2026-01-12 05:01:28.04	336.41	31.65	-38.4	-39.3	20.7	0.00e+00	0	44	0	1702887424	46	4186
2026-01-12 05:01:28.89	336.16	31.75	-38.3	-39.3	20.8	0.00e+00	0	44	0	1708130304	46	4147
2026-01-12 05:01:30.03	335.83	31.89	-38.4	-39.3	20.7	0.00e+00	0	44	0	1716518912	46	4186
2026-01-12 05:01:30.88	335.58	31.99	-38.2	-39.2	20.8	0.00e+00	0	44	0	1722810368	46	4113
2026-01-12 05:01:32.02	335.24	32.12	-38.2	-39.1	20.9	0.00e+00	0	44	0	1731198976	46	4072
2026-01-12 05:01:32.87	334.99	32.23	-38.2	-39.1	20.8	0.00e+00	0	44	0	1737490432	46	4081
2026-01-12 05:01:34.01	334.64	32.36	-38.4	-39.3	20.7	0.00e+00	0	44	0	1745879040	46	4179
2026-01-12 05:01:34.86	334.39	32.46	-38.4	-39.3	20.7	0.00e+00	0	44	0	1752170496	46	4173
2026-01-12 05:01:36.00	334.04	32.60	-38.3	-39.2	20.8	0.00e+00	0	44	0	1759510528	46	4139
2026-01-12 05:01:36.85	333.78	32.70	-38.2	-39.2	20.8	0.00e+00	0	44	0	1765801984	46	4119
2026-01-12 05:01:37.99	333.42	32.83	-38.0	-38.9	21.0	0.00e+00	0	44	0	1774190592	45	4220
2026-01-12 05:01:38.84	333.16	32.93	-38.0	-38.9	21.0	0.00e+00	0	44	0	1780482048	45	4221
2026-01-12 05:01:39.98	332.80	33.06	-38.0	-38.9	21.0	0.00e+00	0	44	0	1788870656	45	4234
2026-01-12 05:01:40.83	332.53	33.16	-38.1	-39.0	21.0	0.00e+00	0	44	0	1795162112	45	4279
2026-01-12 05:01:41.97	332.17	33.29	-38.2	-39.2	20.8	0.00e+00	0	44	0	1803550720	45	4347
2026-01-12 05:01:42.82	331.89	33.39	-38.2	-39.1	20.9	0.00e+00	0	44	0	1808793600	46	4089
2026-01-12 05:01:43.95	331.53	33.51	-38.4	-39.3	20.7	0.00e+00	0	44	0	1817182208	46	4169
2026-01-12 05:01:44.81	331.25	33.61	-38.4	-39.4	20.7	0.00e+00	0	44	0	1823473664	46	4203
2026-01-12 05:01:46.01	330.85	33.75	-38.3	-39.3	20.7	0.00e+00	0	44	0	1832910848	46	4161
2026-01-12 05:01:46.86	330.57	33.84	-38.3	-39.2	20.8	0.00e+00	0	44	0	1838153728	46	4140
2026-01-12 05:01:48.08	330.17	33.98	-38.1	-39.1	20.9	0.00e+00	0	44	0	1847590912	45	4298
2026-01-12 05:01:48.93	329.88	34.07	-38.1	-39.0	20.9	0.00e+00	0	44	0	1852833792	45	4279
2026-01-12 05:01:50.06	329.50	34.19	-38.2	-39.1	20.9	0.00e+00	0	44	0	1861222400	45	4317
2026-01-12 05:01:50.92	329.21	34.29	-38.2	-39.1	20.8	0.00e+00	0	44	0	1867513856	45	4329
2026-01-12 05:01:52.05	328.82	34.41	-38.2	-39.1	20.8	0.00e+00	0	44	0	1875902464	46	4096
2026-01-12 05:01:52.90	328.53	34.50	-38.3	-39.2	20.8	0.00e+00	0	44	0	1882193920	46	4119
2026-01-12 05:01:54.04	328.13	34.62	-38.2	-39.2	20.8	0.00e+00	0	44	0	1890582528	46	4099
2026-01-12 05:01:54.89	327.84	34.71	-38.1	-39.1	21.0	0.00e+00	0	44	0	1895825408	46	4056
2026-01-12 05:01:56.03	327.44	34.83	-38.0	-38.9	21.0	0.00e+00	0	44	0	1904214016	46	4001
2026-01-12 05:01:56.88	327.14	34.92	-37.2	-38.9	21.1	0.00e+00	0	44	0	1910505472	46	3977
2026-01-12 05:01:58.01	326.73	35.03	-38.0	-39.0	21.0	0.00e+00	0	44	0	1918894080	45	4265
2026-01-12 05:01:58.87	326.43	35.12	-38.0	-38.9	21.0	0.00e+00	0	44	0	1925185536	45	4236
2026-01-12 05:02:00.01	326.02	35.24	-38.2	-39.1	20.9	0.00e+00	0	44	0	1933574144	45	4310
2026-01-12 05:02:00.86	325.71	35.32	-38.4	-39.3	20.7	0.00e+00	0	44	0	1939865600	46	4176
2026-01-12 05:02:01.99	325.29	35.43	-38.5	-39.5	20.6	0.00e+00	0	44	0	1947205632	46	4261
2026-01-12 05:02:02.85	324.98	35.52	-38.4	-39.4	20.6	0.00e+00	0	44	0	1953497088	46	4237
2026-01-12 05:02:03.98	324.56	35.63	-38.4	-39.4	20.6	0.00e+00	0	44	0	1961885696	46	4213
2026-01-12 05:02:04.84	324.24	35.71	-38.4	-39.4	20.6	0.00e+00	0	44	0	1968177152	46	4226
2026-01-12 05:02:06.11	323.77	35.83	-38.3	-39.3	20.7	0.00e+00	0	44	0	1977614336	46	4183
2026-01-12 05:02:06.83	323.50	35.90	-38.2	-39.2	20.8	0.00e+00	0	44	0	1982857216	45	4370
2026-01-12 05:02:08.11	323.01	36.01	-37.8	-38.8	21.2	0.00e+00	0	44	0	1992294400	45	4154
2026-01-12 05:02:08.82	322.74	36.08	-38.0	-38.9	21.1	0.00e+00	0	44	0	1996488704	45	4215
2026-01-12 05:02:10.10	322.25	36.19	-38.1	-39.0	21.0	0.00e+00	0	44	0	2005925888	45	4272
2026-01-12 05:02:10.89	321.95	36.26	-38.3	-39.2	20.8	0.00e+00	0	44	0	2012217344	45	4365
2026-01-12 05:02:12.05	321.50	36.37	-38.5	-39.4	20.6	0.00e+00	0	44	0	2020605952	46	4233
2026-01-12 05:02:12.90	321.17	36.44	-38.6	-39.5	20.5	0.00e+00	0	44	0	2025848832	46	4289
2026-01-12 05:02:14.03	320.73	36.54	-38.6	-39.6	20.5	0.00e+00	0	44	0	2034237440	46	4307
2026-01-12 05:02:14.89	320.39	36.61	-38.4	-39.3	20.7	0.00e+00	0	44	0	2040528896	46	4175
2026-01-12 05:02:16.03	319.94	36.70	-38.3	-39.3	20.7	0.00e+00	0	44	0	2048917504	46	4163
2026-01-12 05:02:16.88	319.61	36.77	-38.3	-39.2	20.8	0.00e+00	0	44	0	2055208960	46	4139
2026-01-12 05:02:18.02	319.15	36.86	-38.3	-39.3	20.8	0.00e+00	0	44	0	2063597568	46	4157
2026-01-12 05:02:18.87	318.81	36.93	-38.3	-39.2	20.8	0.00e+00	0	44	0	2069889024	46	4114
2026-01-12 05:02:20.06	318.33	37.02	-38.2	-39.1	20.9	0.00e+00	0	44	0	2078277632	46	4087
2026-01-12 05:02:20.91	317.99	37.08	-38.2	-39.2	20.9	0.00e+00	0	44	0	2084569088	46	4100
2026-01-12 05:02:22.11	317.50	37.17	-38.3	-39.2	20.8	0.00e+00	0	44	0	2092957696	46	4122
2026-01-12 05:02:22.96	317.15	37.23	-38.2	-39.2	20.9	0.00e+00	0	44	0	2099249152	46	4104
2026-01-12 05:02:24.10	316.68	37.31	-38.2	-39.1	20.9	0.00e+00	0	44	0	2106589184	46	4071
2026-01-12 05:02:24.95	316.33	37.37	-38.4	-39.4	20.7	0.00e+00	0	44	0	2112880640	46	4194
2026-01-12 05:02:26.09	315.86	37.45	-38.3	-39.5	20.6	0.00e+00	0	44	0	2121269248	46	4261
2026-01-12 05:02:26.94	315.51	37.51	-38.7	-39.6	20.4	0.00e+00	0	44	0	2127560704	46	4336
2026-01-12 05:02:28.08	315.03	37.58	-38.7	-39.6	20.5	0.00e+00	0	44	0	2135949312	46	4327
2026-01-12 05:02:29.04	314.63	37.64	-38.6	-39.6	20.5	0.00e+00	0	44	0	2143289344	46	4319
2026-01-12 05:02:30.03	314.22	37.70	-38.6	-39.6	20.5	0.00e+00	0	44	0	2149580800	46	4297
2026-01-12 05:02:31.03	313.79	37.76	-38.5	-39.4	20.6	0.00e+00	0	44	0	2156920832	46	4238
2026-01-12 05:02:32.02	313.37	37.82	-38.3	-39.2	20.8	0.00e+00	0	44	0	2164260864	46	4136
2026-01-12 05:02:33.02	312.95	37.88	-38.3	-39.2	20.8	0.00e+00	0	44	0	2171600896	46	4128
2026-01-12 05:02:34.01	312.53	37.93	-38.1	-39.0	21.0	0.00e+00	0	44	0	2178940928	46	4017
2026-01-12 05:02:35.01	312.10	37.98	-38.0	-39.0	21.0	0.00e+00	0	44	0	2186280960	46	4007
2026-01-12 05:02:36.00	311.67	38.03	-38.0	-38.9	21.1	0.00e+00	0	44	0	2192572416	46	3975
2026-01-12 05:02:37.00	311.24	38.08	-38.1	-39.0	21.0	0.00e+00	0	44	0	2199912448	46	4027
2026-01-12 05:02:37.99	310.82	38.13	-38.1	-39.0	21.0	0.00e+00	0	44	0	2207252480	46	4045
2026-01-12 05:02:38.99	310.38	38.18	-38.2	-39.1	20.9	0.00e+00	0	44	0	2214592512	46	4080
2026-01-12 05:02:39.98	309.95	38.22	-38.2	-39.2	20.9	0.00e+00	0	44	0	2221932544	46	4113
2026-01-12 05:02:40.98	309.52	38.26	-38.4	-39.3	20.7	0.00e+00	0	44	0	2229272576	46	4182
2026-01-12 05:02:41.98	309.08	38.30	-38.3	-39.3	20.8	0.00e+00	0	44	0	2236612608	46	4149
2026-01-12 05:02:42.97	308.65	38.34	-38.3	-39.3	20.7	0.00e+00	0	44	0	2243952640	46	4171
2026-01-12 05:02:43.97	308.21	38.38	-38.5	-39.4	20.6	0.00e+00	0	44	0	2250244096	46	4230
2026-01-12 05:02:44.96	307.77	38.41	-38.6	-39.5	20.6	0.00e+00	0	44	0	2257584128	46	4285
2026-01-12 05:02:45.96	307.33	38.44	-38.6	-39.5	20.5	0.00e+00	0	44	0	2264924160	46	4286
2026-01-12 05:02:46.96	306.89	38.48	-38.5	-39.4	20.6	0.00e+00	0	44	0	2272264192	46	4229
2026-01-12 05:02:47.95	306.45	38.50	-38.5	-39.5	20.6	0.00e+00	0	44	0	2279604224	46	4247
2026-01-12 05:02:48.95	306.01	38.53	-38.5	-39.5	20.6	0.00e+00	0	44	0	2286944256	46	4249
2026-01-12 05:02:49.94	305.57	38.56	-38.4	-39.4	20.7	0.00e+00	0	44	0	2293235712	46	4208
2026-01-12 05:02:50.94	305.12	38.58	-38.5	-39.5	20.6	0.00e+00	0	44	0	2300575744	46	4259
2026-01-12 05:02:51.93	304.68	38.60	-38.3	-39.3	20.7	0.00e+00	0	44	0	2307915776	46	4162
2026-01-12 05:02:52.93	304.24	38.62	-38.3	-39.3	20.8	0.00e+00	0	44	0	2315255808	46	4152
2026-01-12 05:02:53.94	303.79	38.64	-38.2	-39.2	20.8	0.00e+00	0	44	0	2322595840	46	4116
2026-01-12 05:02:54.97	303.33	38.65	-38.3	-39.2	20.8	0.00e+00	0	44	0	2329935872	46	4133
2026-01-12 05:02:55.96	302.88	38.67	-38.3	-39.3	20.8	0.00e+00	0	44	0	2337275904	46	4153
2026-01-12 05:02:56.96	302.44	38.68	-38.2	-39.2	20.8	0.00e+00	0	44	0	2344615936	46	4117
2026-01-12 05:02:57.95	301.99	38.69	-38.3	-39.3	20.8	0.00e+00	0	44	0	2351955968	46	4152
2026-01-12 05:02:58.94	301.55	38.70	-38.2	-39.1	20.9	0.00e+00	0	44	0	2358247424	46	4063
2026-01-12 05:02:59.94	301.10	38.70	-38.2	-39.1	21.0	0.00e+00	0	44	0	2365587456	46	4063
2026-01-12 05:03:00.94	300.65	38.71	-38.2	-39.1	20.9	0.00e+00	0	44	0	2372927488	46	4097
2026-01-12 05:03:01.93	300.21	38.71	-38.3	-39.2	20.8	0.00e+00	0	44	0	2380267520	46	4138
2026-01-12 05:03:02.93	299.76	38.71	-38.5	-39.4	20.6	0.00e+00	0	44	0	2387607552	46	4227
2026-01-12 05:03:03.92	299.31	38.70	-38.5	-39.5	20.6	0.00e+00	0	44	0	2394947584	46	4256
2026-01-12 05:03:04.92	298.87	38.70	-38.4	-39.3	20.7	0.00e+00	0	44	0	2402287616	46	4193
2026-01-12 05:03:05.91	298.42	38.69	-38.5	-39.4	20.6	0.00e+00	0	44	0	2409627648	46	4217
2026-01-12 05:03:06.90	297.98	38.69	-38.3	-39.3	20.8	0.00e+00	0	44	0	2415919104	46	4155
2026-01-12 05:03:07.95	297.51	38.68	-38.2	-39.2	20.8	0.00e+00	0	44	0	2423259136	46	4113
2026-01-12 05:03:08.94	297.06	38.66	-38.2	-39.2	20.9	0.00e+00	0	44	0	2430599168	46	4100
2026-01-12 05:03:09.94	296.62	38.65	-38.3	-39.2	20.8	0.00e+00	0	44	0	2437939200	46	4129
2026-01-12 05:03:10.93	296.17	38.63	-38.3	-39.3	20.8	0.00e+00	0	44	0	2445279232	46	4159
2026-01-12 05:03:11.93	295.73	38.61	-38.4	-39.4	20.7	0.00e+00	0	44	0	2452619264	46	4201
2026-01-12 05:03:12.92	295.29	38.59	-38.4	-39.4	20.7	0.00e+00	0	44	0	2459959296	46	4202
2026-01-12 05:03:13.92	294.84	38.57	-38.1	-39.1	20.9	0.00e+00	0	44	0	2467299328	46	4056
2026-01-12 05:03:14.91	294.40	38.55	-38.0	-38.9	21.1	0.00e+00	0	44	0	2474639360	46	3987
2026-01-12 05:03:15.91	293.96	38.52	-38.1	-39.0	21.0	0.00e+00	0	44	0	2480930816	46	4035
2026-01-12 05:03:16.90	293.52	38.49	-38.3	-39.3	20.8	0.00e+00	0	44	0	2488270848	46	4152
2026-01-12 05:03:17.90	293.08	38.46	-38.2	-39.2	20.8	0.00e+00	0	44	0	2495610880	46	4110
2026-01-12 05:03:18.89	292.64	38.43	-38.2	-39.2	20.9	0.00e+00	0	44	0	2502950912	46	4109
2026-01-12 05:03:19.88	292.20	38.40	-38.0	-38.9	21.0	0.00e+00	0	44	0	2510290944	46	4004
2026-01-12 05:03:20.88	291.76	38.36	-37.9	-38.8	21.1	0.00e+00	0	44	0	2517630976	46	3951
2026-01-12 05:03:21.87	291.33	38.33	-37.9	-38.8	21.1	0.00e+00	0	44	0	2523922432	46	3954
2026-01-12 05:03:22.87	290.89	38.29	-37.9	-38.8	21.2	0.00e+00	0	44	0	2531262464	46	3925
2026-01-12 05:03:23.86	290.46	38.25	-38.0	-38.9	21.1	0.00e+00	0	44	0	2538602496	46	3977
2026-01-12 05:03:25.01	289.96	38.20	-38.1	-39.0	21.0	0.00e+00	0	44	0	2546991104	46	4042
2026-01-12 05:03:25.87	289.58	38.16	-38.2	-39.2	20.8	0.00e+00	0	44	0	2553282560	46	4102
2026-01-12 05:03:27.00	289.09	38.11	-38.1	-39.0	20.9	0.00e+00	0	44	0	2560622592	46	4046
2026-01-12 05:03:27.86	288.72	38.06	-38.2	-39.1	20.9	0.00e+00	0	44	0	2567962624	46	4077
2026-01-12 05:03:28.99	288.23	38.01	-38.1	-39.1	20.9	0.00e+00	0	44	0	2575302656	46	4055
2026-01-12 05:03:29.85	287.86	37.96	-38.2	-39.1	20.9	0.00e+00	0	44	0	2581594112	46	4079
2026-01-12 05:03:30.98	287.38	37.90	-38.3	-39.2	20.8	0.00e+00	0	44	0	2589982720	46	4116
2026-01-12 05:03:31.83	287.02	37.86	-38.3	-39.2	20.7	0.00e+00	0	44	0	2596274176	46	4143
2026-01-12 05:03:32.97	286.53	37.79	-38.4	-39.4	20.7	0.00e+00	0	44	0	2604662784	46	4197
2026-01-12 05:03:33.82	286.17	37.74	-38.3	-39.3	20.7	0.00e+00	0	44	0	2610954240	46	4148
2026-01-12 05:03:35.01	285.67	37.67	-38.3	-39.3	20.7	0.00e+00	0	44	0	2619342848	46	4149
2026-01-12 05:03:35.86	285.31	37.62	-38.4	-39.3	20.7	0.00e+00	0	44	0	2625634304	46	4182
2026-01-12 05:03:36.99	284.84	37.54	-38.1	-39.1	20.9	0.00e+00	0	44	0	2632974336	46	4072
2026-01-12 05:03:37.85	284.48	37.49	-38.2	-39.1	20.9	0.00e+00	0	44	0	2639265792	46	4065
2026-01-12 05:03:39.11	283.96	37.40	-38.0	-38.9	21.0	0.00e+00	0	44	0	2648702976	46	3990
2026-01-12 05:03:39.91	283.63	37.35	-38.0	-39.0	21.0	0.00e+00	0	44	0	2654994432	46	4009
2026-01-12 05:03:41.05	283.16	37.27	-38.1	-39.0	21.0	0.00e+00	0	44	0	2662334464	46	4042
2026-01-12 05:03:41.90	282.81	37.21	-38.2	-39.1	20.8	0.00e+00	0	44	0	2668625920	46	4076
2026-01-12 05:03:43.04	282.34	37.12	-38.4	-39.3	20.7	0.00e+00	0	44	0	2677014528	46	4174
2026-01-12 05:03:43.89	282.00	37.06	-38.4	-39.3	20.7	0.00e+00	0	44	0	2683305984	46	4177
2026-01-12 05:03:45.03	281.54	36.97	-38.3	-39.2	20.8	0.00e+00	0	44	0	2691694592	46	4139
2026-01-12 05:03:45.88	281.19	36.91	-38.1	-39.0	20.9	0.00e+00	0	44	0	2697986048	46	4043
2026-01-12 05:03:47.02	280.74	36.82	-38.0	-38.9	21.1	0.00e+00	0	44	0	2706374656	46	3965
2026-01-12 05:03:47.87	280.40	36.75	-37.9	-38.8	21.2	0.00e+00	0	44	0	2711617536	46	3924
2026-01-12 05:03:49.01	279.95	36.65	-37.9	-38.8	21.2	0.00e+00	0	44	0	2720006144	46	3937
2026-01-12 05:03:49.86	279.61	36.58	-38.0	-38.9	21.1	0.00e+00	0	44	0	2726297600	46	3966
2026-01-12 05:03:51.00	279.16	36.49	-38.1	-39.0	21.0	0.00e+00	0	44	0	2734686208	46	4017
2026-01-12 05:03:51.85	278.83	36.41	-38.2	-39.1	20.9	0.00e+00	0	44	0	2740977664	46	4094
2026-01-12 05:03:52.98	278.39	36.32	-38.2	-39.1	20.9	0.00e+00	0	44	0	2748317696	46	4063
2026-01-12 05:03:53.84	278.06	36.24	-38.1	-39.0	20.9	0.00e+00	0	44	0	2754609152	46	4040
2026-01-12 05:03:54.97	277.62	36.14	-37.9	-38.8	21.1	0.00e+00	0	44	0	2762997760	46	3945
2026-01-12 05:03:55.83	277.29	36.06	-37.9	-38.8	21.1	0.00e+00	0	44	0	2769289216	46	3956
2026-01-12 05:03:56.97	276.86	35.96	-38.0	-38.9	21.0	0.00e+00	0	44	0	2777677824	46	3999
2026-01-12 05:03:57.82	276.54	35.88	-38.1	-39.0	21.0	0.00e+00	0	44	0	2783969280	46	4028
2026-01-12 05:03:58.96	276.11	35.77	-38.2	-39.2	20.8	0.00e+00	0	44	0	2792357888	46	4101
2026-01-12 05:03:59.81	275.79	35.69	-38.2	-39.1	20.9	0.00e+00	0	44	0	2798649344	46	4067
2026-01-12 05:04:00.95	275.37	35.58	-38.2	-39.1	20.8	0.00e+00	0	44	0	2805989376	46	4097
2026-01-12 05:04:01.80	275.05	35.50	-38.0	-39.0	21.0	0.00e+00	0	44	0	2812280832	46	4009
2026-01-12 05:04:02.98	274.62	35.38	-37.8	-38.7	21.2	0.00e+00	0	44	0	2820669440	46	3903
2026-01-12 05:04:03.84	274.31	35.29	-37.8	-38.7	21.2	0.00e+00	0	44	0	2826960896	46	3880
2026-01-12 05:04:04.97	273.90	35.18	-37.5	-38.4	21.5	0.00e+00	0	44	0	2835349504	45	4000
2026-01-12 05:04:05.83	273.59	35.09	-37.6	-38.5	21.4	0.00e+00	0	44	0	2841640960	45	4042
2026-01-12 05:04:07.11	273.13	34.96	-37.7	-38.6	21.3	0.00e+00	0	44	0	2851078144	45	4090
2026-01-12 05:04:07.82	272.88	34.89	-37.8	-38.7	21.2	0.00e+00	0	44	0	2856321024	45	4103
2026-01-12 05:04:09.10	272.42	34.75	-37.8	-38.7	21.2	0.00e+00	0	44	0	2864709632	45	4140
2026-01-12 05:04:09.81	272.17	34.68	-37.8	-38.7	21.2	0.00e+00	0	44	0	2869952512	45	4136
2026-01-12 05:04:11.09	271.73	34.54	-37.9	-38.8	21.1	0.00e+00	0	44	0	2879389696	45	4165
2026-01-12 05:04:11.80	271.48	34.47	-37.7	-38.6	21.3	0.00e+00	0	44	0	2884632576	45	4077
2026-01-12 05:04:13.08	271.04	34.33	-37.6	-38.5	21.4	0.00e+00	0	44	0	2894069760	45	4047
2026-01-12 05:04:13.90	270.76	34.24	-37.6	-38.5	21.3	0.00e+00	0	44	0	2899312640	45	4037
2026-01-12 05:04:15.04	270.37	34.12	-37.6	-38.5	21.3	0.00e+00	0	44	0	2907701248	45	4048
2026-01-12 05:04:15.89	270.08	34.02	-37.7	-38.6	21.3	0.00e+00	0	44	0	2913992704	45	4058
2026-01-12 05:04:17.02	269.70	33.90	-37.7	-38.6	21.3	0.00e+00	0	44	0	2922381312	45	4080
2026-01-12 05:04:17.88	269.42	33.80	-37.7	-38.6	21.3	0.00e+00	0	44	0	2928672768	45	4096
2026-01-12 05:04:19.01	269.04	33.67	-37.7	-38.5	21.4	0.00e+00	0	44	0	2937061376	45	4050
2026-01-12 05:04:19.87	268.76	33.58	-37.5	-38.4	21.5	0.00e+00	0	44	0	2943352832	45	3993
2026-01-12 05:04:21.00	268.39	33.45	-37.5	-38.4	21.5	0.00e+00	0	44	0	2950692864	45	3977
2026-01-12 05:04:21.86	268.11	33.35	-37.6	-38.4	21.4	0.00e+00	0	44	0	2956984320	45	4001
2026-01-12 05:04:23.01	267.74	33.22	-37.5	-38.4	21.4	0.00e+00	0	44	0	2965372928	45	3979
2026-01-12 05:04:23.86	267.47	33.12	-37.6	-38.5	21.4	0.00e+00	0	44	0	2971664384	45	4008
2026-01-12 05:04:25.06	267.09	32.98	-37.6	-38.5	21.4	0.00e+00	0	44	0	2980052992	45	4024
2026-01-12 05:04:25.91	266.82	32.88	-37.7	-38.5	21.3	0.00e+00	0	44	0	2986344448	45	4051
2026-01-12 05:04:27.10	266.45	32.74	-37.8	-38.7	21.2	0.00e+00	0	44	0	2994733056	45	4135
2026-01-12 05:04:27.95	266.19	32.64	-37.8	-38.8	21.1	0.00e+00	0	44	0	3001024512	45	4150
2026-01-12 05:04:29.15	265.82	32.50	-38.0	-39.0	21.0	0.00e+00	0	44	0	3009413120	45	4250
2026-01-12 05:04:30.00	265.56	32.40	-38.1	-39.1	20.9	0.00e+00	0	44	0	3015704576	45	4303
2026-01-12 05:04:31.14	265.21	32.26	-38.4	-39.3	20.7	0.00e+00	0	44	0	3024093184	46	4185
2026-01-12 05:04:32.00	264.95	32.16	-38.3	-39.2	20.8	0.00e+00	0	44	0	3030384640	46	4138
2026-01-12 05:04:33.14	264.61	32.03	-38.2	-39.2	20.8	0.00e+00	0	44	0	3038773248	46	4104
2026-01-12 05:04:33.99	264.36	31.92	-38.1	-39.0	20.9	0.00e+00	0	44	0	3045064704	46	4031
2026-01-12 05:04:35.13	264.03	31.79	-38.0	-38.9	21.0	0.00e+00	0	44	0	3053453312	46	3986
2026-01-12 05:04:36.14	263.73	31.66	-38.0	-38.9	21.0	0.00e+00	0	44	0	3060793344	45	4218
2026-01-12 05:04:37.13	263.44	31.54	-37.9	-38.8	21.1	0.00e+00	0	44	0	3067084800	45	4175
2026-01-12 05:04:38.13	263.16	31.42	-37.8	-38.8	21.1	0.00e+00	0	44	0	3074424832	45	4152
2026-01-12 05:04:39.12	262.87	31.30	-37.9	-38.8	21.1	0.00e+00	0	44	0	3081764864	45	4172
2026-01-12 05:04:40.12	262.59	31.18	-37.9	-38.8	21.1	0.00e+00	0	44	0	3089104896	45	4161
2026-01-12 05:04:41.11	262.31	31.06	-37.9	-38.8	21.1	0.00e+00	0	44	0	3096444928	45	4185
2026-01-12 05:04:42.10	262.03	30.94	-37.9	-38.8	21.1	0.00e+00	0	44	0	3103784960	45	4171
2026-01-12 05:04:43.10	261.76	30.81	-38.0	-38.9	21.0	0.00e+00	0	44	0	3110076416	45	4239
2026-01-12 05:04:44.09	261.48	30.69	-38.1	-39.1	20.9	0.00e+00	0	44	0	3117416448	45	4299
2026-01-12 05:04:45.09	261.21	30.57	-38.4	-39.3	20.5	0.00e+00	0	44	0	3124756480	46	4183
2026-01-12 05:04:46.08	260.94	30.45	-38.4	-39.4	20.6	0.00e+00	0	44	0	3132096512	46	4198
2026-01-12 05:04:47.07	260.68	30.32	-38.5	-39.5	20.5	0.00e+00	0	44	0	3139436544	46	4262
2026-01-12 05:04:48.07	260.41	30.20	-38.4	-39.3	20.7	0.00e+00	0	44	0	3146776576	46	4172
2026-01-12 05:04:49.07	260.15	30.07	-38.3	-39.3	20.7	0.00e+00	0	44	0	3154116608	46	4157
2026-01-12 05:04:50.06	259.89	29.95	-38.3	-39.2	20.7	0.00e+00	0	44	0	3161456640	46	4115
2026-01-12 05:04:51.05	259.63	29.83	-38.1	-39.0	20.9	0.00e+00	0	44	0	3167748096	46	4037
2026-01-12 05:04:52.05	259.37	29.70	-38.2	-39.1	20.9	0.00e+00	0	44	0	3175088128	46	4072
2026-01-12 05:04:53.04	259.11	29.58	-38.1	-39.0	20.9	0.00e+00	0	44	0	3182428160	46	4038
2026-01-12 05:04:54.04	258.86	29.46	-38.1	-39.0	20.9	0.00e+00	0	44	0	3189768192	46	4039
2026-01-12 05:04:55.03	258.61	29.33	-38.2	-39.1	20.8	0.00e+00	0	44	0	3197108224	46	4072
2026-01-12 05:04:56.03	258.36	29.21	-38.2	-39.2	20.8	0.00e+00	0	44	0	3204448256	46	4109
2026-01-12 05:04:57.02	258.11	29.08	-38.3	-39.2	20.7	0.00e+00	0	44	0	3210739712	46	4144
2026-01-12 05:04:58.02	257.87	28.96	-38.3	-39.3	20.7	0.00e+00	0	44	0	3218079744	46	4163
2026-01-12 05:04:59.01	257.62	28.83	-38.4	-39.3	20.6	0.00e+00	0	44	0	3225419776	46	4186
2026-01-12 05:05:00.01	257.38	28.71	-38.5	-39.5	20.5	0.00e+00	0	44	0	3232759808	46	4249
2026-01-12 05:05:01.01	257.14	28.58	-38.5	-39.4	20.5	0.00e+00	0	44	0	3240099840	46	4233
2026-01-12 05:05:02.00	256.90	28.46	-38.6	-39.6	20.4	0.00e+00	0	44	0	3246391296	46	4305
2026-01-12 05:05:02.99	256.67	28.34	-38.7	-39.6	20.3	0.00e+00	0	44	0	3253731328	46	4336
2026-01-12 05:05:03.99	256.43	28.21	-38.7	-39.7	20.3	0.00e+00	0	44	0	3261071360	46	4360
2026-01-12 05:05:04.99	256.20	28.09	-38.6	-39.6	20.4	0.00e+00	0	44	0	3268411392	46	4303
2026-01-12 05:05:05.98	255.97	27.96	-38.5	-39.5	20.5	0.00e+00	0	44	0	3275751424	46	4276
2026-01-12 05:05:06.97	255.74	27.84	-38.5	-39.5	20.5	0.00e+00	0	44	0	3283091456	46	4247
2026-01-12 05:05:07.97	255.51	27.71	-38.4	-39.4	20.6	0.00e+00	0	44	0	3290431488	46	4208
2026-01-12 05:05:08.96	255.29	27.59	-38.5	-39.5	20.5	0.00e+00	0	44	0	3297771520	46	4249
2026-01-12 05:05:09.96	255.06	27.47	-38.5	-39.4	20.5	0.00e+00	0	44	0	3305111552	46	4228
2026-01-12 05:05:10.95	254.84	27.34	-38.4	-39.4	20.6	0.00e+00	0	44	0	3311403008	46	4208
2026-01-12 05:05:11.95	254.62	27.22	-38.5	-39.4	20.6	0.00e+00	0	44	0	3318743040	46	4234
2026-01-12 05:05:12.94	254.40	27.09	-38.5	-39.4	20.5	0.00e+00	0	44	0	3326083072	46	4241
2026-01-12 05:05:13.94	254.18	26.97	-38.4	-39.3	20.7	0.00e+00	0	44	0	3333423104	46	4173
2026-01-12 05:05:14.96	253.96	26.84	-38.0	-39.2	20.7	0.00e+00	0	44	0	3340763136	46	4126
2026-01-12 05:05:15.99	253.74	26.72	-38.3	-39.2	20.7	0.00e+00	0	44	0	3348103168	46	4136
2026-01-12 05:05:16.98	253.53	26.59	-38.2	-39.1	20.8	0.00e+00	0	44	0	3355443200	46	4095
2026-01-12 05:05:17.98	253.32	26.47	-38.2	-39.1	20.8	0.00e+00	0	44	0	3362783232	46	4082
2026-01-12 05:05:18.97	253.11	26.35	-38.0	-39.0	20.9	0.00e+00	0	44	0	3370123264	46	4041
2026-01-12 05:05:19.97	252.91	26.22	-38.3	-39.2	20.8	0.00e+00	0	44	0	3376414720	46	4115
2026-01-12 05:05:20.96	252.70	26.10	-38.3	-39.2	20.7	0.00e+00	0	44	0	3383754752	46	4145
2026-01-12 05:05:21.95	252.50	25.98	-38.4	-39.3	20.7	0.00e+00	0	44	0	3391094784	46	4169
2026-01-12 05:05:22.95	252.30	25.86	-38.4	-39.4	20.6	0.00e+00	0	44	0	3398434816	46	4199
2026-01-12 05:05:23.94	252.10	25.73	-38.5	-39.4	20.5	0.00e+00	0	44	0	3405774848	46	4234
2026-01-12 05:05:24.94	251.90	25.61	-38.5	-39.4	20.5	0.00e+00	0	44	0	3412066304	46	4241
2026-01-12 05:05:25.93	251.70	25.49	-38.6	-39.5	20.4	0.00e+00	0	44	0	3419406336	46	4276
2026-01-12 05:05:26.93	251.50	25.37	-38.6	-39.5	20.5	0.00e+00	0	44	0	3426746368	46	4283
2026-01-12 05:05:27.94	251.31	25.24	-38.6	-39.6	20.4	0.00e+00	0	44	0	3434086400	46	4304
2026-01-12 05:05:28.96	251.11	25.12	-38.6	-39.5	20.5	0.00e+00	0	44	0	3441426432	46	4289
2026-01-12 05:05:29.99	250.91	24.99	-38.7	-39.7	20.3	0.00e+00	0	44	0	3448766464	46	4362
2026-01-12 05:05:30.98	250.72	24.87	-38.6	-39.5	20.4	0.00e+00	0	44	0	3456106496	46	4286
2026-01-12 05:05:31.98	250.53	24.75	-38.6	-39.5	20.4	0.00e+00	0	44	0	3463446528	46	4281
2026-01-12 05:05:32.97	250.35	24.63	-38.4	-39.5	20.4	0.00e+00	0	44	0	3470786560	46	4279
2026-01-12 05:05:33.97	250.16	24.51	-38.5	-39.5	20.5	0.00e+00	0	44	0	3478126592	46	4256
2026-01-12 05:05:34.96	249.98	24.39	-38.6	-39.5	20.5	0.00e+00	0	44	0	3485466624	46	4276
2026-01-12 05:05:35.96	249.79	24.27	-38.4	-39.3	20.6	0.00e+00	0	44	0	3492806656	46	4189
2026-01-12 05:05:36.95	249.61	24.15	-38.3	-39.3	20.6	0.00e+00	0	44	0	3499098112	46	4157
2026-01-12 05:05:37.95	249.43	24.03	-38.4	-39.4	20.6	0.00e+00	0	44	0	3506438144	46	4200
2026-01-12 05:05:38.94	249.26	23.91	-38.4	-39.3	20.6	0.00e+00	0	44	0	3513778176	46	4191
2026-01-12 05:05:39.94	249.08	23.79	-38.4	-39.4	20.6	0.00e+00	0	44	0	3521118208	46	4195
2026-01-12 05:05:40.93	248.90	23.68	-38.5	-39.5	20.5	0.00e+00	0	44	0	3528458240	46	4250
2026-01-12 05:05:41.92	248.73	23.56	-38.6	-39.5	20.4	0.00e+00	0	44	0	3535798272	46	4287
2026-01-12 05:05:42.92	248.56	23.44	-38.7	-39.7	20.3	0.00e+00	0	44	0	3542089728	46	4354
2026-01-12 05:05:43.98	248.37	23.31	-38.9	-39.9	20.1	0.00e+00	0	44	0	3550478336	47	4198
2026-01-12 05:05:44.85	248.22	23.21	-39.0	-39.9	20.1	0.00e+00	0	44	0	3555721216	47	4236
2026-01-12 05:05:45.98	248.03	23.08	-39.0	-40.0	20.0	0.00e+00	0	44	0	3564109824	47	4275
2026-01-12 05:05:46.83	247.89	22.98	-38.9	-39.9	20.0	0.00e+00	0	44	0	3570401280	47	4228
2026-01-12 05:05:47.97	247.70	22.84	-38.8	-39.8	20.1	0.00e+00	0	44	0	3578789888	47	4167
2026-01-12 05:05:48.83	247.55	22.74	-38.8	-39.7	20.2	0.00e+00	0	44	0	3585081344	47	4142
2026-01-12 05:05:49.96	247.37	22.61	-38.8	-39.8	20.1	0.00e+00	0	44	0	3593469952	47	4171
2026-01-12 05:05:50.82	247.23	22.51	-38.8	-39.8	20.2	0.00e+00	0	44	0	3599761408	47	4154
2026-01-12 05:05:51.95	247.04	22.38	-38.8	-39.8	20.2	0.00e+00	0	44	0	3607101440	47	4156
2026-01-12 05:05:52.81	246.91	22.28	-38.8	-39.8	20.2	0.00e+00	0	44	0	3614441472	47	4170
2026-01-12 05:05:53.94	246.72	22.15	-38.9	-39.9	20.1	0.00e+00	0	44	0	3621781504	47	4215
2026-01-12 05:05:54.79	246.59	22.05	-39.0	-40.0	20.0	0.00e+00	0	44	0	3628072960	47	4270
2026-01-12 05:05:55.93	246.41	21.92	-39.1	-40.1	19.9	0.00e+00	0	44	0	3636461568	47	4310
2026-01-12 05:05:56.78	246.28	21.82	-39.1	-40.1	19.9	0.00e+00	0	44	0	3642753024	47	4308
2026-01-12 05:05:58.09	246.07	21.67	-39.2	-40.2	19.8	0.00e+00	0	44	0	3652190208	47	4344
2026-01-12 05:05:58.80	245.96	21.59	-39.1	-40.1	19.9	0.00e+00	0	44	0	3657433088	47	4327
2026-01-12 05:06:00.10	245.77	21.44	-39.2	-40.1	19.8	0.00e+00	0	44	0	3665821696	47	4340
2026-01-12 05:06:00.81	245.66	21.36	-39.0	-40.0	20.0	0.00e+00	0	44	0	3672113152	47	4259
2026-01-12 05:06:02.08	245.47	21.22	-39.1	-40.1	19.9	0.00e+00	0	44	0	3680501760	47	4296
2026-01-12 05:06:02.80	245.36	21.13	-39.0	-40.0	20.0	0.00e+00	0	44	0	3685744640	47	4251
2026-01-12 05:06:04.08	245.17	20.99	-38.8	-39.8	20.2	0.00e+00	0	44	0	3695181824	47	4146
2026-01-12 05:06:04.80	245.06	20.91	-38.8	-39.8	20.2	0.00e+00	0	44	0	3700424704	47	4160
2026-01-12 05:06:06.08	244.88	20.77	-38.9	-39.9	20.1	0.00e+00	0	44	0	3709861888	47	4210
2026-01-12 05:06:06.79	244.77	20.69	-38.9	-39.8	20.1	0.00e+00	0	44	0	3715104768	47	4180
2026-01-12 05:06:08.07	244.59	20.54	-39.0	-40.0	20.0	0.00e+00	0	44	0	3724541952	47	4262
2026-01-12 05:06:08.78	244.49	20.46	-39.1	-40.0	19.9	0.00e+00	0	44	0	3728736256	47	4287
2026-01-12 05:06:10.06	244.30	20.32	-39.0	-40.0	19.9	0.00e+00	0	44	0	3738173440	47	4273
2026-01-12 05:06:10.77	244.20	20.24	-39.2	-40.2	19.8	0.00e+00	0	44	0	3743416320	47	4348
2026-01-12 05:06:12.05	244.03	20.10	-39.5	-40.4	19.8	0.00e+00	0	44	0	3752853504	48	4238
2026-01-12 05:06:12.76	243.93	20.02	-39.5	-40.5	19.8	0.00e+00	0	44	0	3758096384	48	4245
2026-01-12 05:06:14.20	243.73	19.87	-39.6	-40.6	19.7	0.00e+00	0	44	0	3768582144	48	4324
2026-01-12 05:06:14.91	243.63	19.79	-39.7	-40.7	19.6	0.00e+00	0	44	0	3773825024	48	4354
2026-01-12 05:06:16.25	243.45	19.64	-39.8	-40.8	19.6	0.00e+00	0	44	0	3783262208	48	4392
2026-01-12 05:06:16.96	243.35	19.56	-39.7	-40.8	19.5	0.00e+00	0	44	0	3788505088	49	4146
2026-01-12 05:06:18.24	243.18	19.43	-39.8	-40.8	19.5	0.00e+00	0	44	0	3796893696	49	4163
2026-01-12 05:06:18.95	243.09	19.35	-39.7	-40.7	19.6	0.00e+00	0	44	0	3803185152	49	4125
2026-01-12 05:06:20.24	242.92	19.21	-39.7	-40.7	19.6	0.00e+00	0	44	0	3811573760	49	4111
2026-01-12 05:06:20.96	242.82	19.13	-39.6	-40.6	19.7	0.00e+00	0	44	0	3816816640	49	4070
2026-01-12 05:06:22.24	242.66	19.00	-39.6	-40.6	19.7	0.00e+00	0	44	0	3826253824	49	4060
2026-01-12 05:06:22.96	242.56	18.92	-39.5	-40.5	19.8	0.00e+00	0	44	0	3831496704	49	4032
2026-01-12 05:06:24.24	242.40	18.78	-39.5	-40.5	19.7	0.00e+00	0	44	0	3840933888	49	4024
2026-01-12 05:06:24.97	242.31	18.70	-39.5	-40.5	19.8	0.00e+00	0	44	0	3846176768	49	4030
2026-01-12 05:06:26.25	242.15	18.57	-39.6	-40.6	19.7	0.00e+00	0	44	0	3854565376	49	4068
2026-01-12 05:06:27.10	242.04	18.48	-39.7	-40.7	19.6	0.00e+00	0	44	0	3860856832	49	4110
2026-01-12 05:06:28.24	241.90	18.36	-39.8	-40.8	19.4	0.00e+00	0	44	0	3869245440	49	4192
2026-01-12 05:06:29.09	241.79	18.27	-39.9	-40.9	19.4	0.00e+00	0	44	0	3875536896	49	4220
2026-01-12 05:06:30.23	241.65	18.15	-40.0	-41.0	19.3	0.00e+00	0	44	0	3883925504	49	4277
2026-01-12 05:06:31.08	241.55	18.06	-40.1	-41.1	19.2	0.00e+00	0	44	0	3890216960	49	4321
2026-01-12 05:06:32.22	241.41	17.94	-40.0	-41.1	19.2	0.00e+00	0	44	0	3898605568	49	4299
2026-01-12 05:06:33.07	241.31	17.85	-40.1	-41.1	19.2	0.00e+00	0	44	0	3904897024	49	4319
2026-01-12 05:06:34.21	241.17	17.74	-40.1	-41.1	19.2	0.00e+00	0	44	0	3913285632	49	4330
2026-01-12 05:06:35.06	241.07	17.65	-39.9	-40.9	19.3	0.00e+00	0	44	0	3918528512	49	4238
2026-01-12 05:06:36.20	240.94	17.53	-40.0	-41.0	19.3	0.00e+00	0	44	0	3926917120	49	4247
2026-01-12 05:06:37.05	240.84	17.44	-39.9	-40.9	19.4	0.00e+00	0	44	0	3933208576	49	4224
2026-01-12 05:06:38.18	240.71	17.33	-39.9	-40.9	19.4	0.00e+00	0	44	0	3941597184	49	4213
2026-01-12 05:06:39.05	240.61	17.24	-39.9	-40.9	19.4	0.00e+00	0	44	0	3947888640	49	4207
2026-01-12 05:06:40.19	240.47	17.12	-40.0	-41.0	19.2	0.00e+00	0	44	0	3956277248	49	4287
2026-01-12 05:06:41.04	240.38	17.04	-39.9	-40.9	19.3	0.00e+00	0	44	0	3961520128	49	4234
2026-01-12 05:06:42.18	240.25	16.92	-39.9	-41.0	19.3	0.00e+00	0	44	0	3969908736	49	4243
2026-01-12 05:06:43.04	240.15	16.83	-40.0	-41.0	19.2	0.00e+00	0	44	0	3976200192	49	4270
2026-01-12 05:06:44.17	240.03	16.72	-40.0	-41.1	19.2	0.00e+00	0	44	0	3984588800	49	4302
2026-01-12 05:06:45.26	239.91	16.61	-40.2	-41.2	19.0	0.00e+00	0	44	0	3992977408	49	4375
2026-01-12 05:06:46.11	239.81	16.53	-40.0	-41.1	19.2	0.00e+00	0	44	0	3998220288	49	4301
2026-01-12 05:06:47.25	239.69	16.41	-40.0	-41.1	19.1	0.00e+00	0	44	0	4006608896	49	4320
2026-01-12 05:06:48.11	239.59	16.33	-40.0	-41.0	19.2	0.00e+00	0	44	0	4012900352	49	4282
2026-01-12 05:06:49.25	239.47	16.22	-40.0	-41.1	19.2	0.00e+00	0	44	0	4021288960	49	4301
2026-01-12 05:06:50.10	239.38	16.13	-40.0	-41.0	19.2	0.00e+00	0	44	0	4027580416	49	4275
2026-01-12 05:06:51.24	239.26	16.02	-40.0	-41.0	19.2	0.00e+00	0	44	0	4035969024	49	4282
2026-01-12 05:06:52.09	239.17	15.94	-40.1	-41.1	19.1	0.00e+00	0	44	0	4041211904	49	4318
2026-01-12 05:06:53.32	239.04	15.82	-40.0	-41.1	19.2	0.00e+00	0	44	0	4050649088	49	4304
2026-01-12 05:06:54.17	238.95	15.73	-40.2	-41.2	19.0	0.00e+00	0	44	0	4056940544	49	4382
2026-01-12 05:06:55.31	238.83	15.62	-40.3	-41.3	18.9	0.00e+00	0	44	0	4065329152	49	4428
2026-01-12 05:06:56.16	238.75	15.54	-40.4	-41.5	18.8	0.00e+00	0	44	0	4071620608	50	4271
2026-01-12 05:06:57.30	238.63	15.43	-40.4	-41.5	18.8	0.00e+00	0	44	0	4078960640	50	4243
2026-01-12 05:06:58.20	238.54	15.34	-40.4	-41.5	18.8	0.00e+00	0	44	0	4085252096	50	4264
2026-01-12 05:06:59.43	238.42	15.22	-40.6	-41.7	18.6	0.00e+00	0	44	0	4094689280	50	4352
2026-01-12 05:07:00.28	238.33	15.14	-40.6	-41.7	18.5	0.00e+00	0	44	0	4100980736	50	4385
2026-01-12 05:07:01.42	238.22	15.03	-40.5	-41.7	18.6	0.00e+00	0	44	0	4109369344	50	4346
2026-01-12 05:07:02.30	238.13	14.95	-40.6	-41.7	18.6	0.00e+00	0	44	0	4115660800	50	4374
2026-01-12 05:07:03.61	238.00	14.83	-40.7	-41.8	18.5	0.00e+00	0	44	0	4125097984	50	4418
2026-01-12 05:07:04.32	237.93	14.76	-40.7	-41.8	18.5	0.00e+00	0	44	0	4130340864	50	4421
2026-01-12 05:07:05.60	237.81	14.64	-40.7	-41.8	18.4	0.00e+00	0	44	0	4138729472	50	4429
2026-01-12 05:07:06.31	237.74	14.57	-40.7	-41.8	18.5	0.00e+00	0	44	0	4145020928	50	4400
2026-01-12 05:07:07.59	237.62	14.45	-40.7	-41.8	18.4	0.00e+00	0	44	0	4153409536	50	4434
2026-01-12 05:07:08.31	237.55	14.38	-40.7	-41.8	18.5	0.00e+00	0	44	0	4158652416	51	4165
2026-01-12 05:07:09.58	237.43	14.27	-40.8	-41.9	18.3	0.00e+00	0	44	0	4168089600	51	4232
2026-01-12 05:07:10.30	237.36	14.20	-40.9	-42.0	18.2	0.00e+00	0	44	0	4172283904	51	4272
2026-01-12 05:07:12.02	237.20	14.04	-40.9	-42.0	18.3	0.00e+00	0	44	0	4185915392	51	4254
2026-01-12 05:07:12.59	237.15	13.99	-40.8	-42.0	18.3	0.00e+00	0	44	0	4190109696	51	4252
2026-01-12 05:07:14.28	237.00	13.83	-40.9	-42.1	18.2	0.00e+00	0	44	0	4201644032	51	4294
2026-01-12 05:07:14.85	236.94	13.78	-40.9	-42.1	18.2	0.00e+00	0	44	0	4205838336	51	4298
2026-01-12 05:07:16.55	236.79	13.63	-41.0	-42.1	18.1	0.00e+00	0	44	0	4218421248	51	4300
2026-01-12 05:07:17.12	236.74	13.57	-41.0	-42.2	18.1	0.00e+00	0	44	0	4222615552	51	4341
2026-01-12 05:07:18.78	236.59	13.42	-41.0	-42.1	18.1	0.00e+00	0	44	0	4234149888	51	4334
2026-01-12 05:07:19.35	236.54	13.37	-41.0	-42.1	18.2	0.00e+00	0	44	0	4238344192	51	4312
2026-01-12 05:07:21.04	236.39	13.22	-40.9	-42.1	18.1	0.00e+00	0	44	0	4250927104	51	4309
2026-01-12 05:07:21.61	236.34	13.17	-40.9	-42.0	18.2	0.00e+00	0	44	0	4255121408	51	4288
2026-01-12 05:07:23.29	236.20	13.02	-40.9	-42.0	18.2	0.00e+00	0	44	0	4266655744	51	4262
2026-01-12 05:07:23.86	236.15	12.97	-40.9	-42.0	18.2	0.00e+00	0	44	0	4270850048	51	4274
2026-01-12 05:07:25.54	236.00	12.82	-40.8	-42.0	18.2	0.00e+00	0	44	0	4283432960	51	4255
2026-01-12 05:07:26.11	235.96	12.77	-40.8	-41.9	18.3	0.00e+00	0	44	0	4287627264	51	4231
2026-01-12 05:07:27.82	235.81	12.62	-40.8	-42.0	18.2	0.00e+00	0	44	0	4300210176	51	4249
2026-01-12 05:07:28.39	235.76	12.57	-40.8	-41.9	18.3	0.00e+00	0	44	0	4303355904	51	4219
2026-01-12 05:07:30.09	235.62	12.42	-40.8	-42.0	18.2	0.00e+00	0	44	0	4315938816	51	4250
2026-01-12 05:07:30.67	235.58	12.37	-40.9	-42.0	18.1	0.00e+00	0	44	0	4320133120	51	4283
2026-01-12 05:07:32.28	235.44	12.23	-41.0	-42.1	18.1	0.00e+00	0	44	0	4331667456	51	4318
2026-01-12 05:07:32.85	235.40	12.18	-40.9	-42.1	18.1	0.00e+00	0	44	0	4335861760	51	4307
2026-01-12 05:07:34.55	235.26	12.03	-41.1	-42.3	17.9	0.00e+00	0	44	0	4348444672	51	4396
2026-01-12 05:07:35.12	235.21	11.98	-41.1	-42.3	17.9	0.00e+00	0	44	0	4352638976	51	4395
2026-01-12 05:07:36.80	235.08	11.84	-41.2	-42.4	17.8	0.00e+00	0	44	0	4364173312	51	4480
2026-01-12 05:07:37.37	235.03	11.79	-41.3	-42.5	17.6	0.00e+00	0	44	0	4368367616	52	4256
2026-01-12 05:07:39.06	234.90	11.64	-41.4	-42.6	17.5	0.00e+00	0	44	0	4380950528	52	4330
2026-01-12 05:07:39.62	234.86	11.59	-41.4	-42.6	17.5	0.00e+00	0	44	0	4385144832	52	4328
2026-01-12 05:07:41.34	234.72	11.45	-41.6	-42.9	17.2	0.00e+00	0	44	0	4396679168	52	4457
2026-01-12 05:07:41.91	234.68	11.40	-41.8	-43.1	17.1	0.00e+00	0	44	0	4401922048	52	4546
2026-01-12 05:07:43.56	234.55	11.26	-41.8	-43.1	17.0	0.00e+00	0	44	0	4413456384	53	4323
2026-01-12 05:07:44.12	234.51	11.21	-41.8	-43.1	17.0	0.00e+00	0	44	0	4417650688	53	4303
2026-01-12 05:07:45.83	234.38	11.07	-41.9	-43.2	16.9	0.00e+00	0	44	0	4429185024	53	4376
2026-01-12 05:07:46.41	234.34	11.02	-42.0	-43.3	16.8	0.00e+00	0	44	0	4434427904	53	4411
2026-01-12 05:07:48.02	234.22	10.89	-42.0	-43.3	16.8	0.00e+00	0	44	0	4445962240	53	4416
2026-01-12 05:07:48.59	234.18	10.84	-42.1	-43.4	16.7	0.00e+00	0	44	0	4449107968	53	4461
2026-01-12 05:07:50.27	234.05	10.70	-42.2	-43.5	16.6	0.00e+00	0	44	0	4461690880	53	4530
2026-01-12 05:07:50.84	234.01	10.65	-42.1	-43.5	16.6	0.00e+00	0	44	0	4465885184	53	4502
2026-01-12 05:07:52.51	233.89	10.52	-42.0	-43.3	16.8	0.00e+00	0	44	0	4478468096	53	4423
2026-01-12 05:07:53.08	233.85	10.47	-41.9	-43.2	16.9	0.00e+00	0	44	0	4481613824	53	4375
2026-01-12 05:07:54.77	233.73	10.33	-41.9	-43.1	16.9	0.00e+00	0	44	0	4494196736	53	4339
2026-01-12 05:07:55.34	233.69	10.29	-41.8	-43.1	17.0	0.00e+00	0	44	0	4498391040	53	4300
2026-01-12 05:07:57.02	233.57	10.15	-42.0	-43.2	16.8	0.00e+00	0	44	0	4510973952	53	4388
2026-01-12 05:07:57.59	233.53	10.10	-41.8	-43.1	16.9	0.00e+00	0	44	0	4514119680	53	4322
2026-01-12 05:07:59.21	233.41	9.97	-41.8	-43.0	17.0	0.00e+00	0	44	0	4526702592	53	4284
2026-01-12 05:07:59.78	233.38	9.93	-41.8	-43.0	17.0	0.00e+00	0	44	0	4529848320	53	4291
2026-01-12 05:08:01.37	233.27	9.80	-41.8	-43.1	16.9	0.00e+00	0	44	0	4541382656	53	4297
2026-01-12 05:08:01.96	233.22	9.75	-41.8	-43.1	17.0	0.00e+00	0	44	0	4546625536	53	4310
2026-01-12 05:08:03.53	233.12	9.63	-41.7	-43.0	17.0	0.00e+00	0	44	0	4557111296	53	4264
2026-01-12 05:08:04.15	233.08	9.58	-41.8	-43.0	17.0	0.00e+00	0	44	0	4561305600	53	4272
2026-01-12 05:08:05.72	232.97	9.45	-41.8	-43.1	16.9	0.00e+00	0	44	0	4572839936	53	4308
2026-01-12 05:08:06.32	232.93	9.40	-41.9	-43.2	16.8	0.00e+00	0	44	0	4578082816	53	4350
2026-01-12 05:08:07.89	232.83	9.28	-41.7	-43.0	17.0	0.00e+00	0	44	0	4588568576	53	4267
2026-01-12 05:08:08.49	232.79	9.23	-41.8	-43.0	16.9	0.00e+00	0	44	0	4592762880	53	4284
2026-01-12 05:08:10.07	232.68	9.11	-41.7	-43.0	17.0	0.00e+00	0	44	0	4604297216	53	4259
2026-01-12 05:08:10.68	232.64	9.06	-41.8	-43.1	16.9	0.00e+00	0	44	0	4609540096	53	4299
2026-01-12 05:08:12.25	232.54	8.94	-50.6	-60.8	3.8	8.07e-01	0	44	104	4617928704	70	12473
2026-01-12 05:08:12.87	232.50	8.89	-50.8	-61.6	3.8	8.47e-01	0	44	104	4617928704	70	13602
2026-01-12 05:08:14.43	232.40	8.77	-51.0	-61.8	3.8	8.46e-01	0	44	104	4617928704	71	13240
2026-01-12 05:08:15.05	232.36	8.72	-51.2	-61.9	3.8	8.47e-01	0	44	104	4617928704	71	13369
2026-01-12 05:08:16.61	232.26	8.60	-51.3	-62.0	3.8	8.47e-01	0	44	104	4617928704	72	12723
2026-01-12 05:08:17.23	232.22	8.55	-51.2	-62.0	3.8	8.46e-01	0	44	104	4617928704	72	12747
2026-01-12 05:08:18.79	232.12	8.44	-51.2	-62.0	3.8	8.47e-01	0	44	104	4617928704	72	12803
2026-01-12 05:08:19.49	232.08	8.38	-51.2	-62.1	3.8	8.48e-01	0	44	104	4617928704	72	12819
2026-01-12 05:08:20.79	232.00	8.28	-51.3	-62.1	3.8	8.47e-01	0	44	104	4617928704	72	12828
2026-01-12 05:08:21.50	231.96	8.23	-51.2	-62.1	3.8	8.48e-01	0	44	104	4617928704	72	12837
2026-01-12 05:08:22.79	231.88	8.13	-51.2	-62.0	3.8	8.46e-01	0	44	104	4617928704	72	12795
2026-01-12 05:08:23.50	231.83	8.08	-51.2	-62.1	3.8	8.47e-01	0	44	104	4617928704	72	12825
2026-01-12 05:08:24.80	231.76	7.98	-51.2	-62.0	3.8	8.46e-01	0	44	104	4617928704	72	12786
2026-01-12 05:08:25.51	231.71	7.93	-51.2	-62.1	3.8	8.46e-01	0	44	104	4617928704	72	12887
2026-01-12 05:08:26.79	231.64	7.83	-51.1	-62.1	3.8	8.46e-01	0	44	104	4617928704	72	12835
2026-01-12 05:08:27.52	231.59	7.78	-51.1	-62.1	3.8	8.47e-01	0	44	104	4617928704	72	12843
2026-01-12 05:08:28.80	231.52	7.68	-51.1	-62.0	3.8	8.48e-01	0	44	104	4617928704	72	12772
2026-01-12 05:08:29.53	231.47	7.63	-51.1	-62.0	3.8	8.46e-01	0	44	104	4617928704	72	12791
2026-01-12 05:08:30.80	231.40	7.53	-51.1	-62.0	3.8	8.47e-01	0	44	104	4617928704	72	12785
2026-01-12 05:08:31.52	231.36	7.48	-51.1	-62.0	3.8	8.46e-01	0	44	104	4617928704	72	12725
2026-01-12 05:08:32.80	231.28	7.38	-51.1	-62.0	3.8	8.47e-01	0	44	104	4617928704	72	12724
