passes_logs/2026/01/12/T1/T1__20260112_132019_AQUA_rec.log

#Pass ID: 20260112_132019_AQUA
#Satellite: AQUA
#Configuration: AQUA
#almurnet v.1.7.20251203
#Start time: 2026-01-12 13:20:19

#Version: 2.0.20230620
#Station: T1
#Location: 37.570604 lon 55.790049 lat
#TLE: 1 27424U 02022A   26011.93923927  .00001110  00000+0  23211-3 0  9993
#TLE: 2 27424  98.4078 338.3153 0002029  81.9924 314.0623 14.61816932260445

#Time	Az	El	Level	Level2	SNR	BER	BlckErr	Temp	State	Recorded	gain1	gain2
2026-01-12 13:20:19.35	221.00	4.99	-53.2	-73.5	3.8	7.43e-01	0	40	0	0	78	36454
2026-01-12 13:20:20.34	221.12	5.04	-53.1	-73.5	3.8	7.45e-01	0	40	104	0	76	40849
2026-01-12 13:20:21.34	221.23	5.10	-53.1	-73.5	3.8	7.43e-01	0	40	104	0	76	40833
2026-01-12 13:20:22.33	221.35	5.16	-53.1	-73.5	3.8	7.46e-01	0	40	104	0	76	40864
2026-01-12 13:20:23.32	221.46	5.21	-53.1	-73.5	3.8	7.45e-01	0	40	104	0	76	40826
2026-01-12 13:20:24.32	221.58	5.27	-53.1	-73.5	3.8	7.45e-01	0	40	104	0	76	40923
2026-01-12 13:20:25.31	221.69	5.32	-53.1	-73.5	3.8	7.48e-01	0	40	104	0	76	40944
2026-01-12 13:20:26.30	221.81	5.38	-53.1	-73.5	3.8	7.43e-01	0	40	104	0	76	40894
2026-01-12 13:20:27.30	221.93	5.44	-53.1	-73.5	3.8	7.46e-01	0	40	104	0	76	40841
2026-01-12 13:20:28.29	222.05	5.49	-53.1	-73.5	3.8	7.46e-01	0	40	104	0	76	40723
2026-01-12 13:20:29.28	222.16	5.55	-53.1	-73.5	3.8	7.49e-01	0	40	104	0	76	40790
2026-01-12 13:20:30.28	222.28	5.61	-53.1	-73.5	3.8	7.45e-01	0	40	104	0	76	40614
2026-01-12 13:20:31.27	222.40	5.66	-53.1	-73.5	3.8	7.43e-01	0	40	104	0	76	40706
2026-01-12 13:20:32.26	222.52	5.72	-53.1	-73.5	3.8	7.47e-01	0	40	104	0	76	40801
2026-01-12 13:20:33.25	222.64	5.77	-53.1	-73.5	3.8	7.47e-01	0	40	104	0	76	40639
2026-01-12 13:20:34.25	222.76	5.83	-53.1	-73.5	3.8	7.44e-01	0	40	104	0	76	40582
2026-01-12 13:20:35.24	222.88	5.89	-53.1	-73.4	3.8	7.46e-01	0	40	104	0	76	40343
2026-01-12 13:20:36.23	223.00	5.94	-53.1	-73.4	3.8	7.44e-01	0	40	104	0	76	40414
2026-01-12 13:20:37.23	223.13	6.00	-53.1	-73.5	3.8	7.45e-01	0	40	104	0	76	40554
2026-01-12 13:20:38.22	223.25	6.06	-53.1	-73.4	3.8	7.46e-01	0	40	104	0	76	40483
2026-01-12 13:20:39.21	223.37	6.11	-53.1	-73.5	3.8	7.46e-01	0	40	104	0	76	40513
2026-01-12 13:20:40.21	223.50	6.17	-53.1	-73.4	3.8	7.43e-01	0	40	104	0	76	40352
2026-01-12 13:20:41.20	223.62	6.23	-53.1	-73.4	3.8	7.45e-01	0	40	104	0	76	40391
2026-01-12 13:20:42.19	223.74	6.28	-53.1	-73.5	3.8	7.47e-01	0	40	104	0	76	40543
2026-01-12 13:20:43.19	223.87	6.34	-53.1	-73.5	3.8	7.45e-01	0	40	104	0	76	40538
2026-01-12 13:20:44.18	223.99	6.40	-53.1	-73.5	3.8	7.48e-01	0	40	104	0	76	40641
2026-01-12 13:20:45.17	224.12	6.45	-53.1	-73.5	3.8	7.46e-01	0	40	104	0	76	40630
2026-01-12 13:20:46.17	224.25	6.51	-53.1	-73.5	3.8	7.47e-01	0	40	104	0	76	40642
2026-01-12 13:20:47.16	224.37	6.57	-53.1	-73.4	3.8	7.45e-01	0	40	104	0	76	40479
2026-01-12 13:20:48.15	224.50	6.63	-53.1	-73.4	3.8	7.49e-01	0	40	104	0	76	40327
2026-01-12 13:20:49.15	224.63	6.68	-53.1	-73.2	3.8	7.45e-01	0	40	104	0	76	39392
2026-01-12 13:20:50.14	224.76	6.74	-53.1	-73.0	3.8	7.41e-01	0	40	104	0	76	38668
2026-01-12 13:20:51.13	224.89	6.80	-53.1	-73.0	3.8	7.46e-01	0	40	104	0	76	38247
2026-01-12 13:20:52.13	225.02	6.85	-53.1	-72.8	3.8	7.43e-01	0	40	104	0	76	37759
2026-01-12 13:20:53.12	225.15	6.91	-53.1	-72.7	3.8	7.46e-01	0	40	104	0	76	37155
2026-01-12 13:20:54.11	225.28	6.97	-53.1	-72.6	3.8	7.44e-01	0	40	104	0	76	36602
2026-01-12 13:20:55.10	225.41	7.02	-53.1	-72.5	3.8	7.47e-01	0	40	104	0	76	36430
2026-01-12 13:20:56.10	225.54	7.08	-53.1	-72.5	3.8	7.46e-01	0	40	104	0	76	36214
2026-01-12 13:20:57.09	225.67	7.14	-53.1	-72.6	3.8	7.45e-01	0	40	104	0	76	36862
2026-01-12 13:20:58.08	225.81	7.20	-53.1	-72.9	3.8	7.46e-01	0	40	104	0	76	38047
2026-01-12 13:20:59.08	225.94	7.25	-53.1	-73.2	3.8	7.49e-01	0	40	104	0	76	39410
2026-01-12 13:21:00.07	226.07	7.31	-53.1	-73.1	3.8	7.44e-01	0	40	104	0	76	38758
2026-01-12 13:21:01.07	226.21	7.37	-53.1	-72.4	3.8	7.45e-01	0	40	104	0	76	35954
2026-01-12 13:21:02.06	226.35	7.42	-53.1	-71.7	3.8	7.41e-01	0	40	104	0	76	33089
2026-01-12 13:21:03.05	226.48	7.48	-53.0	-71.1	3.8	7.45e-01	0	40	104	0	76	30902
2026-01-12 13:21:04.04	226.62	7.54	-53.0	-71.0	4.0	7.39e-01	0	40	104	0	76	30654
2026-01-12 13:21:05.04	226.75	7.60	-53.1	-72.0	3.8	7.43e-01	0	40	104	0	76	34268
2026-01-12 13:21:06.03	226.89	7.65	-53.1	-72.8	3.8	7.45e-01	0	40	104	0	76	37566
2026-01-12 13:21:07.02	227.03	7.71	-53.1	-72.9	3.8	7.47e-01	0	40	104	0	76	38192
2026-01-12 13:21:08.01	227.17	7.77	-53.1	-72.3	3.8	7.46e-01	0	40	104	0	76	35479
2026-01-12 13:21:09.01	227.31	7.83	-53.0	-71.6	3.8	7.49e-01	0	40	104	0	76	32892
2026-01-12 13:21:10.00	227.45	7.88	-53.0	-71.0	3.8	7.44e-01	0	40	104	0	76	30592
2026-01-12 13:21:11.00	227.59	7.94	-53.0	-70.2	4.1	7.35e-01	0	40	104	0	76	27790
2026-01-12 13:21:11.99	227.73	8.00	-53.0	-70.0	4.0	7.32e-01	0	40	104	0	76	27380
2026-01-12 13:21:12.98	227.87	8.05	-53.0	-70.0	3.9	7.38e-01	0	40	104	0	76	27380
2026-01-12 13:21:13.98	228.01	8.11	-53.0	-69.5	4.3	7.39e-01	0	41	104	0	76	25709
2026-01-12 13:21:14.97	228.16	8.17	-52.9	-68.6	4.0	7.37e-01	0	40	104	0	76	23248
2026-01-12 13:21:15.96	228.30	8.23	-52.9	-67.8	5.1	7.09e-01	0	40	0	0	76	21106
2026-01-12 13:21:16.96	228.44	8.28	-53.0	-68.6	4.7	7.19e-01	0	40	104	0	76	23264
2026-01-12 13:21:17.95	228.59	8.34	-53.0	-71.6	3.8	7.47e-01	0	40	104	0	76	32889
2026-01-12 13:21:18.94	228.73	8.40	-53.1	-72.1	3.9	7.44e-01	0	40	104	0	76	34691
2026-01-12 13:21:19.94	228.88	8.46	-52.7	-64.8	7.2	6.57e-01	0	40	0	0	76	14930
2026-01-12 13:21:20.93	229.02	8.51	-51.9	-59.7	12.4	6.11e-01	0	40	0	2097152	75	8781
2026-01-12 13:21:21.92	229.17	8.57	-50.9	-56.6	15.6	6.09e-01	0	40	0	4194304	73	6932
2026-01-12 13:21:22.92	229.32	8.63	-50.0	-54.7	17.5	6.08e-01	0	40	0	5767168	72	5874
2026-01-12 13:21:23.91	229.47	8.68	-49.4	-53.5	18.8	6.08e-01	0	40	0	7864320	70	5771
2026-01-12 13:21:24.90	229.62	8.74	-49.2	-53.1	19.2	6.07e-01	0	40	0	9437184	70	5488
2026-01-12 13:21:25.90	229.77	8.80	-49.2	-53.2	19.1	6.09e-01	0	40	0	11534336	70	5539
2026-01-12 13:21:26.89	229.92	8.86	-49.5	-53.7	18.6	6.07e-01	0	41	0	13107200	70	5901
2026-01-12 13:21:27.88	230.07	8.91	-50.0	-54.7	17.7	6.08e-01	0	40	0	15204352	70	6584
2026-01-12 13:21:28.88	230.22	8.97	-50.6	-55.9	16.5	6.05e-01	0	40	0	16777216	71	7174
2026-01-12 13:21:29.87	230.37	9.03	-51.1	-57.2	15.2	6.06e-01	0	40	0	18874368	72	7817
2026-01-12 13:21:30.87	230.52	9.09	-52.6	-62.8	9.7	6.30e-01	0	40	0	20971520	75	12638
2026-01-12 13:21:31.99	230.70	9.15	-50.0	-54.4	17.9	6.05e-01	0	40	0	22544384	71	6059
2026-01-12 13:21:32.84	230.83	9.20	-52.0	-59.8	12.6	6.11e-01	0	41	0	24641536	74	9469
2026-01-12 13:21:33.98	231.00	9.26	-50.9	-56.5	15.8	6.08e-01	0	41	0	26738688	73	6812
2026-01-12 13:21:34.83	231.14	9.31	-50.8	-56.0	16.6	6.06e-01	0	40	0	28311552	72	6866
2026-01-12 13:21:35.97	231.32	9.38	-50.1	-54.7	17.6	6.07e-01	0	41	0	30408704	72	5873
2026-01-12 13:21:36.82	231.45	9.43	-50.0	-54.5	17.8	6.05e-01	0	40	0	31981568	72	5724
2026-01-12 13:21:37.96	231.63	9.49	-49.9	-54.2	18.1	6.08e-01	0	40	0	34078720	71	5884
2026-01-12 13:21:38.81	231.76	9.54	-49.8	-53.9	18.5	6.07e-01	0	40	0	35651584	71	5691
2026-01-12 13:21:39.95	231.95	9.61	-49.7	-53.8	18.5	6.07e-01	0	40	0	37748736	71	5632
2026-01-12 13:21:40.80	232.08	9.66	-49.7	-53.7	18.6	6.08e-01	0	41	0	39321600	71	5559
2026-01-12 13:21:41.94	232.27	9.72	-49.6	-53.6	18.8	6.09e-01	0	41	0	41418752	71	5472
2026-01-12 13:21:42.79	232.40	9.77	-49.5	-53.4	18.9	6.05e-01	0	41	0	42991616	71	5399
2026-01-12 13:21:43.93	232.59	9.83	-49.2	-53.0	19.3	6.09e-01	0	41	0	45088768	70	5434
2026-01-12 13:21:44.78	232.73	9.88	-49.3	-53.2	19.1	6.05e-01	0	40	0	46661632	70	5590
2026-01-12 13:21:45.91	232.91	9.95	-49.2	-53.0	19.3	6.09e-01	0	40	0	48758784	70	5437
2026-01-12 13:21:46.77	233.05	10.00	-49.0	-52.7	19.6	6.07e-01	0	40	0	50331648	70	5249
2026-01-12 13:21:47.90	233.24	10.06	-48.9	-52.5	19.8	6.05e-01	0	41	0	52428800	69	5440
2026-01-12 13:21:48.75	233.38	10.11	-48.9	-52.5	19.8	6.08e-01	0	41	0	54001664	69	5418
2026-01-12 13:21:49.89	233.57	10.17	-48.9	-52.4	19.9	6.06e-01	0	40	0	56098816	69	5387
2026-01-12 13:21:50.74	233.71	10.22	-48.8	-52.3	20.0	6.06e-01	0	40	0	58195968	69	5326
2026-01-12 13:21:51.88	233.90	10.29	-48.9	-52.4	19.9	6.08e-01	0	40	0	60293120	69	5371
2026-01-12 13:21:52.73	234.04	10.34	-48.9	-52.4	19.9	6.07e-01	0	40	0	61865984	69	5382
2026-01-12 13:21:53.87	234.23	10.40	-48.7	-52.1	20.2	6.08e-01	0	41	0	63963136	69	5214
2026-01-12 13:21:54.72	234.38	10.45	-48.7	-52.0	20.3	6.08e-01	0	41	0	65536000	69	5144
2026-01-12 13:21:55.90	234.58	10.51	-48.6	-52.0	20.3	6.06e-01	0	40	0	67633152	69	5146
2026-01-12 13:21:56.76	234.73	10.56	-48.5	-51.9	20.5	6.07e-01	0	40	0	69206016	69	5062
2026-01-12 13:21:57.97	234.93	10.63	-48.6	-52.1	20.3	6.04e-01	0	41	0	71303168	69	5183
2026-01-12 13:21:58.83	235.08	10.68	-48.8	-52.3	20.1	6.08e-01	0	40	0	73400320	69	5317
2026-01-12 13:21:59.99	235.28	10.74	-48.6	-52.2	20.2	6.08e-01	0	40	0	75497472	69	5232
2026-01-12 13:22:00.85	235.43	10.79	-48.7	-52.2	20.2	6.07e-01	0	40	0	77070336	69	5260
2026-01-12 13:22:01.98	235.63	10.86	-48.5	-52.0	20.4	6.08e-01	0	40	0	79167488	69	5131
2026-01-12 13:22:02.84	235.78	10.90	-48.6	-52.0	20.3	6.08e-01	0	40	0	80740352	69	5148
2026-01-12 13:22:04.09	236.00	10.97	-48.6	-52.0	20.3	6.10e-01	0	41	0	82837504	69	5152
2026-01-12 13:22:04.94	236.15	11.02	-48.6	-52.0	20.4	6.06e-01	0	41	0	84410368	69	5144
2026-01-12 13:22:06.08	236.35	11.09	-48.6	-52.0	20.3	6.10e-01	0	41	0	86507520	69	5157
2026-01-12 13:22:06.93	236.50	11.13	-48.5	-52.0	20.4	6.09e-01	0	41	0	88080384	69	5103
2026-01-12 13:22:08.07	236.71	11.20	-48.5	-51.9	20.5	6.07e-01	0	40	0	90701824	69	5076
2026-01-12 13:22:08.92	236.86	11.24	-48.5	-52.0	20.4	6.05e-01	0	41	0	92274688	69	5109
2026-01-12 13:22:10.06	237.06	11.31	-48.6	-52.0	20.4	6.07e-01	0	40	0	94371840	69	5117
2026-01-12 13:22:11.00	237.23	11.36	-48.5	-51.9	20.5	6.07e-01	0	40	0	95944704	69	5043
2026-01-12 13:22:12.00	237.41	11.41	-48.4	-51.7	20.6	6.06e-01	0	40	0	98041856	68	5265
2026-01-12 13:22:12.99	237.60	11.47	-48.6	-51.9	20.5	6.06e-01	0	40	0	99614720	68	5344
2026-01-12 13:22:13.99	237.78	11.52	-48.5	-51.8	20.6	6.08e-01	0	40	0	101711872	68	5323
2026-01-12 13:22:14.98	237.96	11.58	-48.4	-51.7	20.7	6.08e-01	0	40	0	103284736	68	5268
2026-01-12 13:22:15.98	238.14	11.63	-48.6	-51.9	20.5	6.07e-01	0	40	0	105381888	68	5389
2026-01-12 13:22:16.98	238.33	11.69	-48.6	-51.9	20.5	6.06e-01	0	40	0	106954752	68	5391
2026-01-12 13:22:17.97	238.51	11.74	-48.6	-52.0	20.4	6.07e-01	0	40	0	109051904	68	5434
2026-01-12 13:22:18.96	238.70	11.79	-48.4	-51.7	20.7	6.06e-01	0	40	0	111149056	68	5245
2026-01-12 13:22:19.96	238.88	11.85	-48.5	-51.8	20.6	6.05e-01	0	40	0	112721920	68	5318
2026-01-12 13:22:20.95	239.07	11.90	-48.5	-51.8	20.6	6.06e-01	0	40	0	114819072	68	5312
2026-01-12 13:22:21.95	239.26	11.95	-48.4	-51.7	20.7	6.06e-01	0	40	0	116391936	68	5227
2026-01-12 13:22:22.94	239.45	12.01	-48.4	-51.6	20.8	6.10e-01	0	40	0	118489088	68	5217
2026-01-12 13:22:23.94	239.64	12.06	-48.3	-51.6	20.8	6.07e-01	0	40	0	120061952	68	5162
2026-01-12 13:22:24.93	239.83	12.11	-48.4	-51.7	20.7	6.08e-01	0	40	0	122159104	68	5241
2026-01-12 13:22:25.92	240.02	12.17	-48.4	-51.7	20.7	6.06e-01	0	40	0	123731968	68	5243
2026-01-12 13:22:26.92	240.21	12.22	-48.4	-51.7	20.7	6.07e-01	0	40	0	125829120	68	5232
2026-01-12 13:22:27.91	240.40	12.27	-48.5	-51.8	20.6	6.07e-01	0	40	0	127926272	68	5297
2026-01-12 13:22:28.91	240.59	12.33	-48.4	-51.7	20.7	6.05e-01	0	40	0	129499136	68	5239
2026-01-12 13:22:29.90	240.78	12.38	-48.4	-51.6	20.8	6.06e-01	0	40	0	131596288	68	5165
2026-01-12 13:22:30.90	240.98	12.43	-48.4	-51.6	20.8	6.09e-01	0	40	0	133169152	68	5170
2026-01-12 13:22:31.89	241.17	12.48	-48.5	-51.8	20.7	6.06e-01	0	40	0	135266304	68	5280
2026-01-12 13:22:32.89	241.37	12.53	-48.4	-51.5	20.9	6.05e-01	0	40	0	136839168	68	5149
2026-01-12 13:22:33.88	241.57	12.59	-48.4	-51.6	20.8	6.07e-01	0	40	0	138936320	68	5205
2026-01-12 13:22:34.88	241.76	12.64	-48.5	-51.7	20.7	6.06e-01	0	40	0	140509184	68	5222
2026-01-12 13:22:35.88	241.96	12.69	-48.4	-51.5	20.9	6.08e-01	0	40	0	142606336	68	5137
2026-01-12 13:22:36.87	242.16	12.74	-48.3	-51.5	20.9	6.07e-01	0	40	0	144703488	68	5125
2026-01-12 13:22:37.86	242.36	12.79	-48.3	-51.5	20.9	6.05e-01	0	41	0	146276352	68	5120
2026-01-12 13:22:38.86	242.56	12.84	-48.4	-51.5	20.9	6.05e-01	0	41	0	148373504	68	5152
2026-01-12 13:22:40.04	242.80	12.90	-48.3	-51.5	21.0	6.07e-01	0	40	0	150470656	68	5111
2026-01-12 13:22:40.95	242.98	12.95	-48.3	-51.5	21.0	6.06e-01	0	41	0	152043520	68	5108
2026-01-12 13:22:41.97	243.19	13.00	-48.3	-51.5	20.9	6.06e-01	0	40	0	154140672	68	5102
2026-01-12 13:22:42.96	243.39	13.05	-48.3	-51.4	20.9	6.07e-01	0	40	0	155713536	68	5100
2026-01-12 13:22:43.96	243.59	13.10	-48.4	-51.5	20.9	6.06e-01	0	40	0	157810688	68	5128
2026-01-12 13:22:44.96	243.80	13.15	-48.3	-51.4	21.0	6.06e-01	0	40	0	159907840	68	5049
2026-01-12 13:22:45.95	244.00	13.20	-48.2	-51.3	21.2	6.07e-01	0	40	0	161480704	68	4986
2026-01-12 13:22:46.94	244.21	13.25	-48.2	-51.3	21.1	6.07e-01	0	40	0	163577856	68	5022
2026-01-12 13:22:47.94	244.42	13.30	-48.2	-51.3	21.1	6.07e-01	0	40	0	165150720	68	4992
2026-01-12 13:22:48.93	244.62	13.35	-48.3	-51.4	21.0	6.04e-01	0	41	0	167247872	68	5069
2026-01-12 13:22:49.93	244.83	13.40	-48.3	-51.4	21.0	6.06e-01	0	41	0	168820736	68	5062
2026-01-12 13:22:50.92	245.04	13.44	-48.3	-51.3	21.1	6.07e-01	0	40	0	170917888	68	5033
2026-01-12 13:22:51.92	245.25	13.49	-48.2	-51.2	21.2	6.08e-01	0	40	0	172490752	68	4953
2026-01-12 13:22:52.91	245.46	13.54	-48.2	-51.3	21.1	6.07e-01	0	41	0	174587904	68	5010
2026-01-12 13:22:53.90	245.67	13.59	-48.2	-51.3	21.1	6.08e-01	0	40	0	176160768	68	5018
2026-01-12 13:22:54.96	245.89	13.64	-48.3	-51.4	21.0	6.07e-01	0	41	0	178257920	68	5085
2026-01-12 13:22:55.86	246.08	13.68	-48.3	-51.4	21.0	6.06e-01	0	40	0	180355072	68	5080
2026-01-12 13:22:56.97	246.32	13.73	-48.3	-51.4	21.0	6.07e-01	0	40	0	181927936	68	5080
2026-01-12 13:22:57.82	246.50	13.77	-48.3	-51.4	21.0	6.06e-01	0	40	0	184025088	68	5081
2026-01-12 13:22:58.95	246.75	13.83	-48.2	-51.3	21.1	6.09e-01	0	40	0	185597952	68	5026
2026-01-12 13:22:59.80	246.93	13.87	-48.2	-51.4	21.1	6.07e-01	0	40	0	187170816	68	5045
2026-01-12 13:23:00.94	247.18	13.92	-48.2	-51.3	21.1	6.06e-01	0	40	0	189792256	68	5012
2026-01-12 13:23:01.79	247.36	13.96	-48.2	-51.4	21.1	6.08e-01	0	40	0	191365120	68	5044
2026-01-12 13:23:02.93	247.61	14.01	-48.2	-51.3	21.1	6.09e-01	0	40	0	193462272	68	5021
2026-01-12 13:23:03.78	247.80	14.05	-48.3	-51.4	21.1	6.08e-01	0	40	0	195035136	68	5065
2026-01-12 13:23:04.97	248.06	14.10	-48.2	-51.3	21.1	6.08e-01	0	40	0	197132288	68	5008
2026-01-12 13:23:05.82	248.25	14.14	-48.2	-51.3	21.1	6.06e-01	0	40	0	198705152	68	5012
2026-01-12 13:23:06.96	248.50	14.19	-48.2	-51.4	21.1	6.08e-01	0	40	0	200802304	68	5045
2026-01-12 13:23:07.81	248.69	14.23	-48.1	-51.2	21.2	6.06e-01	0	40	0	202375168	68	4970
2026-01-12 13:23:09.10	248.97	14.29	-48.1	-51.3	21.1	6.06e-01	0	40	0	204996608	68	5009
2026-01-12 13:23:09.82	249.13	14.32	-48.0	-51.2	21.3	6.09e-01	0	40	0	206045184	68	4932
2026-01-12 13:23:11.11	249.42	14.37	-48.0	-51.2	21.2	6.07e-01	0	40	0	208666624	68	4940
2026-01-12 13:23:11.82	249.58	14.40	-48.1	-51.2	21.2	6.06e-01	0	40	0	210239488	68	4942
2026-01-12 13:23:13.10	249.87	14.46	-48.0	-51.1	21.3	6.06e-01	0	40	0	212336640	68	4920
2026-01-12 13:23:13.82	250.03	14.49	-48.0	-51.1	21.3	6.06e-01	0	40	0	213909504	68	4895
2026-01-12 13:23:15.10	250.32	14.54	-48.2	-51.3	21.1	6.06e-01	0	41	0	216006656	68	5014
2026-01-12 13:23:15.92	250.51	14.58	-48.2	-51.3	21.2	6.04e-01	0	40	0	217579520	68	5000
2026-01-12 13:23:17.06	250.77	14.63	-48.3	-51.4	21.1	6.07e-01	0	40	0	219676672	68	5049
2026-01-12 13:23:17.91	250.96	14.66	-48.2	-51.2	21.2	6.07e-01	0	40	0	221249536	68	4982
2026-01-12 13:23:19.05	251.22	14.71	-48.0	-51.0	21.4	6.06e-01	0	40	0	223346688	68	4861
2026-01-12 13:23:19.90	251.42	14.74	-48.0	-51.1	21.4	6.08e-01	0	40	0	224919552	68	4890
2026-01-12 13:23:21.04	251.68	14.79	-48.1	-51.2	21.3	6.07e-01	0	41	0	227016704	68	4938
2026-01-12 13:23:21.90	251.88	14.82	-48.1	-51.2	21.3	6.06e-01	0	40	0	229113856	68	4963
2026-01-12 13:23:23.03	252.14	14.87	-48.0	-51.1	21.3	6.09e-01	0	40	0	231211008	68	4911
2026-01-12 13:23:23.88	252.34	14.90	-48.0	-51.0	21.4	6.07e-01	0	40	0	232783872	68	4853
2026-01-12 13:23:25.12	252.63	14.95	-48.1	-51.2	21.3	6.05e-01	0	40	0	234881024	68	4939
2026-01-12 13:23:25.97	252.83	14.98	-48.1	-51.2	21.2	6.08e-01	0	40	0	236453888	68	4943
2026-01-12 13:23:27.11	253.09	15.02	-48.0	-51.1	21.3	6.07e-01	0	40	0	238551040	68	4922
2026-01-12 13:23:27.96	253.29	15.06	-48.0	-51.1	21.3	6.06e-01	0	40	0	240123904	68	4887
2026-01-12 13:23:29.10	253.56	15.10	-47.9	-51.0	21.3	6.07e-01	0	41	0	242221056	67	5133
2026-01-12 13:23:29.98	253.77	15.13	-47.9	-51.0	21.4	6.06e-01	0	40	0	243793920	67	5112
2026-01-12 13:23:31.12	254.04	15.17	-47.9	-51.0	21.3	6.05e-01	0	41	0	246415360	67	5146
2026-01-12 13:23:31.98	254.24	15.20	-47.9	-51.1	21.3	6.08e-01	0	41	0	247988224	67	5184
2026-01-12 13:23:33.11	254.51	15.24	-47.9	-51.1	21.3	6.06e-01	0	41	0	250085376	67	5175
2026-01-12 13:23:33.96	254.71	15.27	-47.9	-51.0	21.3	6.06e-01	0	40	0	251658240	67	5142
2026-01-12 13:23:35.10	254.99	15.31	-47.9	-51.0	21.4	6.09e-01	0	41	0	253755392	67	5143
2026-01-12 13:23:36.19	255.25	15.35	-48.0	-51.1	21.3	6.07e-01	0	41	0	255852544	67	5187
2026-01-12 13:23:37.21	255.49	15.39	-48.0	-51.1	21.3	6.06e-01	0	40	0	257425408	67	5172
2026-01-12 13:23:38.38	255.77	15.43	-47.8	-50.9	21.4	6.08e-01	0	40	0	260046848	67	5051
2026-01-12 13:23:39.23	255.98	15.46	-47.9	-50.9	21.5	6.06e-01	0	40	0	261619712	67	5077
2026-01-12 13:23:40.37	256.25	15.49	-48.0	-51.1	21.3	6.08e-01	0	41	0	263716864	67	5186
2026-01-12 13:23:41.22	256.46	15.52	-48.0	-51.1	21.3	6.09e-01	0	40	0	265289728	67	5180
2026-01-12 13:23:42.36	256.74	15.56	-47.8	-50.9	21.4	6.07e-01	0	41	0	267386880	67	5074
2026-01-12 13:23:43.21	256.94	15.58	-47.7	-50.8	21.6	6.09e-01	0	40	0	268959744	67	5012
2026-01-12 13:23:44.35	257.22	15.62	-47.9	-51.0	21.4	6.06e-01	0	41	0	271056896	67	5132
2026-01-12 13:23:45.20	257.43	15.65	-47.9	-51.0	21.3	6.04e-01	0	40	0	272629760	67	5147
2026-01-12 13:23:46.34	257.71	15.68	-47.8	-50.9	21.4	6.07e-01	0	41	0	274726912	67	5081
2026-01-12 13:23:47.19	257.92	15.71	-47.8	-50.9	21.4	6.05e-01	0	40	0	276299776	67	5097
2026-01-12 13:23:48.33	258.20	15.74	-47.8	-51.0	21.4	6.04e-01	0	41	0	278396928	67	5101
2026-01-12 13:23:49.18	258.41	15.76	-47.9	-51.0	21.3	6.05e-01	0	40	0	279969792	67	5135
2026-01-12 13:23:50.32	258.69	15.80	-47.9	-51.1	21.3	6.05e-01	0	40	0	282066944	67	5177
2026-01-12 13:23:51.17	258.90	15.82	-47.7	-50.9	21.5	6.09e-01	0	41	0	283639808	67	5063
2026-01-12 13:23:52.31	259.18	15.85	-47.7	-50.9	21.5	6.08e-01	0	41	0	285736960	67	5051
2026-01-12 13:23:53.17	259.40	15.88	-47.7	-50.8	21.5	6.03e-01	0	41	0	287309824	67	5040
2026-01-12 13:23:54.30	259.68	15.91	-47.8	-51.0	21.4	6.07e-01	0	40	0	289406976	67	5135
2026-01-12 13:23:55.15	259.89	15.93	-47.8	-51.0	21.4	6.08e-01	0	41	0	290979840	67	5118
2026-01-12 13:23:56.29	260.18	15.96	-47.7	-50.9	21.5	6.05e-01	0	41	0	293601280	67	5071
2026-01-12 13:23:57.14	260.39	15.98	-47.7	-50.9	21.5	6.07e-01	0	40	0	295174144	67	5047
2026-01-12 13:23:58.52	260.74	16.02	-47.7	-50.9	21.5	6.04e-01	0	41	0	297795584	67	5046
2026-01-12 13:23:59.23	260.91	16.03	-47.7	-50.9	21.5	6.07e-01	0	41	0	298844160	67	5066
2026-01-12 13:24:00.51	261.24	16.06	-47.8	-50.9	21.4	6.05e-01	0	40	0	301465600	67	5095
2026-01-12 13:24:01.22	261.41	16.08	-47.7	-50.9	21.5	6.05e-01	0	41	0	302514176	67	5087
2026-01-12 13:24:02.50	261.74	16.11	-47.8	-50.9	21.5	6.08e-01	0	41	0	305135616	67	5065
2026-01-12 13:24:03.22	261.92	16.13	-47.8	-51.0	21.4	6.08e-01	0	41	0	306184192	67	5105
2026-01-12 13:24:04.50	262.24	16.15	-47.7	-50.8	21.6	6.08e-01	0	40	0	308805632	67	4985
2026-01-12 13:24:05.23	262.43	16.17	-47.7	-50.8	21.6	6.07e-01	0	40	0	310378496	67	5011
2026-01-12 13:24:06.51	262.75	16.20	-47.7	-50.8	21.6	6.03e-01	0	40	0	312475648	67	5009
2026-01-12 13:24:07.23	262.94	16.21	-47.7	-50.9	21.5	6.08e-01	0	40	0	314048512	67	5065
2026-01-12 13:24:08.51	263.26	16.24	-47.7	-51.0	21.4	6.07e-01	0	41	0	316145664	67	5115
2026-01-12 13:24:09.27	263.46	16.25	-47.7	-51.0	21.4	6.06e-01	0	41	0	317718528	67	5133
2026-01-12 13:24:10.55	263.78	16.28	-47.8	-51.0	21.4	6.05e-01	0	41	0	320339968	67	5143
2026-01-12 13:24:11.29	263.97	16.29	-47.8	-51.0	21.4	6.09e-01	0	41	0	321388544	67	5108
2026-01-12 13:24:12.56	264.30	16.31	-47.8	-50.8	21.5	6.07e-01	0	41	0	324009984	67	5033
2026-01-12 13:24:13.27	264.48	16.33	-47.8	-50.8	21.6	6.06e-01	0	41	0	325058560	67	5006
2026-01-12 13:24:14.55	264.81	16.35	-47.9	-50.8	21.5	6.05e-01	0	40	0	327680000	67	5026
2026-01-12 13:24:15.28	265.00	16.36	-48.0	-51.0	21.4	6.07e-01	0	41	0	328728576	67	5134
2026-01-12 13:24:16.56	265.33	16.38	-48.3	-51.4	21.2	6.09e-01	0	41	0	331350016	68	5060
2026-01-12 13:24:17.27	265.51	16.39	-48.1	-51.3	21.3	6.05e-01	0	40	0	332922880	68	4985
2026-01-12 13:24:18.55	265.84	16.41	-47.8	-50.9	21.5	6.09e-01	0	40	0	335020032	67	5082
2026-01-12 13:24:19.29	266.03	16.42	-47.8	-50.8	21.5	6.09e-01	0	41	0	336592896	67	5032
2026-01-12 13:24:20.82	266.43	16.44	-47.8	-50.9	21.5	6.07e-01	0	41	0	339214336	67	5064
2026-01-12 13:24:21.53	266.61	16.45	-47.8	-50.9	21.5	6.08e-01	0	41	0	340787200	67	5080
2026-01-12 13:24:22.81	266.94	16.47	-48.0	-51.1	21.3	6.06e-01	0	41	0	342884352	67	5171
2026-01-12 13:24:23.55	267.13	16.48	-47.9	-50.9	21.5	6.07e-01	0	40	0	344457216	67	5075
2026-01-12 13:24:24.83	267.46	16.49	-47.9	-50.9	21.5	6.06e-01	0	40	0	347078656	67	5074
2026-01-12 13:24:25.54	267.65	16.50	-47.9	-50.9	21.4	6.08e-01	0	40	0	348127232	67	5081
2026-01-12 13:24:26.82	267.98	16.52	-47.9	-51.0	21.4	6.08e-01	0	41	0	350748672	67	5131
2026-01-12 13:24:27.53	268.17	16.52	-48.0	-51.1	21.3	6.07e-01	0	41	0	351797248	67	5205
2026-01-12 13:24:28.81	268.50	16.54	-47.8	-50.9	21.5	6.06e-01	0	40	0	354418688	67	5063
2026-01-12 13:24:29.55	268.69	16.54	-47.8	-50.8	21.5	6.06e-01	0	41	0	355467264	67	5037
2026-01-12 13:24:30.83	269.02	16.55	-47.8	-50.9	21.5	6.07e-01	0	40	0	358088704	67	5069
2026-01-12 13:24:31.57	269.22	16.56	-47.8	-50.9	21.4	6.07e-01	0	40	0	359661568	67	5088
2026-01-12 13:24:32.85	269.55	16.57	-48.0	-51.1	21.3	6.07e-01	0	41	0	361758720	67	5182
2026-01-12 13:24:33.65	269.76	16.57	-48.0	-51.1	21.3	6.07e-01	0	41	0	363331584	67	5162
2026-01-12 13:24:35.08	270.13	16.58	-47.9	-51.0	21.4	6.06e-01	0	40	0	365953024	67	5137
2026-01-12 13:24:35.79	270.32	16.59	-48.0	-51.2	21.2	6.07e-01	0	40	0	367525888	67	5227
2026-01-12 13:24:37.07	270.65	16.59	-47.8	-50.9	21.5	6.07e-01	0	40	0	369623040	67	5094
2026-01-12 13:24:37.78	270.84	16.60	-47.8	-50.9	21.5	6.07e-01	0	40	0	371195904	67	5048
2026-01-12 13:24:39.06	271.17	16.60	-47.8	-50.9	21.5	6.07e-01	0	40	0	373817344	67	5060
2026-01-12 13:24:39.86	271.38	16.60	-47.9	-51.0	21.4	6.07e-01	0	41	0	374865920	67	5101
2026-01-12 13:24:41.00	271.68	16.61	-47.9	-50.9	21.5	6.05e-01	0	40	0	376963072	67	5050
2026-01-12 13:24:41.85	271.90	16.61	-47.8	-50.8	21.5	6.07e-01	0	40	0	378535936	67	5031
2026-01-12 13:24:42.99	272.20	16.61	-47.7	-50.7	21.6	6.06e-01	0	41	0	381157376	67	4963
2026-01-12 13:24:43.84	272.42	16.61	-47.8	-50.9	21.5	6.08e-01	0	41	0	382730240	67	5054
2026-01-12 13:24:44.98	272.72	16.61	-47.8	-50.9	21.4	6.09e-01	0	41	0	384827392	67	5074
2026-01-12 13:24:45.83	272.94	16.62	-47.8	-50.8	21.5	6.07e-01	0	41	0	386400256	67	5035
2026-01-12 13:24:46.98	273.24	16.61	-47.7	-50.8	21.5	6.06e-01	0	41	0	388497408	67	5018
2026-01-12 13:24:47.84	273.47	16.61	-47.7	-50.9	21.5	6.09e-01	0	41	0	390070272	67	5072
2026-01-12 13:24:48.98	273.77	16.61	-47.8	-51.0	21.4	6.04e-01	0	40	0	392167424	67	5129
2026-01-12 13:24:49.83	273.99	16.61	-47.8	-50.9	21.5	6.08e-01	0	41	0	393740288	67	5078
2026-01-12 13:24:51.11	274.32	16.61	-47.8	-50.8	21.5	6.07e-01	0	41	0	396361728	67	5020
2026-01-12 13:24:51.86	274.52	16.61	-47.8	-50.8	21.5	6.06e-01	0	41	0	397410304	67	5039
2026-01-12 13:24:53.15	274.85	16.60	-47.9	-51.0	21.4	6.07e-01	0	40	0	400031744	67	5134
2026-01-12 13:24:53.89	275.05	16.60	-48.0	-51.0	21.3	6.05e-01	0	41	0	401604608	67	5147
2026-01-12 13:24:55.17	275.38	16.59	-47.9	-51.0	21.4	6.08e-01	0	40	0	403701760	67	5111
2026-01-12 13:24:55.88	275.57	16.59	-47.9	-50.9	21.5	6.08e-01	0	41	0	405274624	67	5087
2026-01-12 13:24:57.16	275.90	16.58	-48.0	-51.1	21.3	6.06e-01	0	41	0	407371776	67	5168
2026-01-12 13:24:57.87	276.09	16.58	-48.0	-51.0	21.4	6.06e-01	0	40	0	408944640	67	5156
2026-01-12 13:24:59.15	276.42	16.57	-48.0	-51.1	21.3	6.07e-01	0	41	0	411041792	67	5191
2026-01-12 13:24:59.91	276.62	16.56	-48.1	-51.1	21.3	6.05e-01	0	41	0	412614656	67	5217
2026-01-12 13:25:01.19	276.95	16.55	-47.9	-50.9	21.5	6.06e-01	0	41	0	415236096	67	5062
2026-01-12 13:25:01.90	277.14	16.55	-47.8	-50.8	21.6	6.09e-01	0	41	0	416284672	67	5004
2026-01-12 13:25:03.18	277.47	16.54	-47.8	-50.8	21.6	6.09e-01	0	40	0	418906112	67	5005
2026-01-12 13:25:03.89	277.65	16.53	-47.7	-50.7	21.6	6.08e-01	0	41	0	419954688	67	4979
2026-01-12 13:25:05.17	277.99	16.52	-47.8	-51.0	21.4	6.05e-01	0	41	0	422576128	67	5108
2026-01-12 13:25:05.90	278.17	16.51	-47.7	-50.8	21.5	6.05e-01	0	41	0	423624704	67	5038
2026-01-12 13:25:07.18	278.51	16.49	-47.8	-50.9	21.5	6.07e-01	0	41	0	426246144	67	5042
2026-01-12 13:25:07.89	278.69	16.49	-47.8	-50.8	21.5	6.05e-01	0	40	0	427819008	67	5029
2026-01-12 13:25:09.25	279.04	16.47	-47.9	-51.0	21.4	6.05e-01	0	41	0	429916160	67	5112
2026-01-12 13:25:09.96	279.23	16.46	-47.9	-51.0	21.4	6.07e-01	0	41	0	431489024	67	5127
2026-01-12 13:25:11.24	279.56	16.44	-47.7	-50.7	21.6	6.07e-01	0	41	0	434110464	67	4977
2026-01-12 13:25:11.96	279.74	16.43	-47.7	-50.7	21.7	6.08e-01	0	41	0	435159040	67	4927
2026-01-12 13:25:13.24	280.07	16.41	-47.7	-50.7	21.7	6.05e-01	0	41	0	437780480	67	4933
2026-01-12 13:25:13.96	280.26	16.40	-47.9	-50.9	21.5	6.05e-01	0	41	0	438829056	67	5074
2026-01-12 13:25:15.24	280.59	16.38	-47.9	-50.9	21.4	6.06e-01	0	41	0	441450496	67	5097
2026-01-12 13:25:15.97	280.77	16.37	-47.8	-50.8	21.6	6.06e-01	0	41	0	443023360	67	5010
2026-01-12 13:25:17.25	281.10	16.35	-47.8	-50.9	21.5	6.07e-01	0	41	0	445120512	67	5044
2026-01-12 13:25:18.10	281.32	16.34	-47.7	-50.7	21.6	6.04e-01	0	41	0	446693376	67	4980
2026-01-12 13:25:19.50	281.68	16.31	-47.9	-50.9	21.5	6.05e-01	0	41	0	449314816	67	5063
2026-01-12 13:25:20.21	281.86	16.30	-47.8	-50.9	21.5	6.07e-01	0	40	0	450887680	67	5055
2026-01-12 13:25:21.49	282.19	16.28	-47.8	-50.9	21.5	6.06e-01	0	40	0	452984832	67	5057
2026-01-12 13:25:22.22	282.37	16.26	-47.8	-50.8	21.5	6.07e-01	0	41	0	454557696	67	5026
2026-01-12 13:25:23.75	282.76	16.23	-47.8	-50.8	21.6	6.04e-01	0	40	0	457179136	67	5014
2026-01-12 13:25:24.46	282.94	16.22	-47.8	-50.7	21.6	6.07e-01	0	41	0	458752000	67	4979
2026-01-12 13:25:25.74	283.27	16.19	-47.9	-50.9	21.5	6.05e-01	0	41	0	460849152	67	5063
2026-01-12 13:25:26.46	283.45	16.18	-47.9	-50.9	21.4	6.05e-01	0	41	0	462422016	67	5096
2026-01-12 13:25:27.74	283.78	16.15	-47.8	-50.8	21.6	6.06e-01	0	41	0	465043456	67	5011
2026-01-12 13:25:28.47	283.96	16.13	-47.8	-50.8	21.6	6.07e-01	0	41	0	466092032	67	5022
2026-01-12 13:25:29.75	284.28	16.11	-47.9	-51.0	21.4	6.09e-01	0	40	0	468713472	67	5118
2026-01-12 13:25:30.47	284.46	16.09	-48.0	-51.2	21.2	6.06e-01	0	41	0	469762048	67	5229
2026-01-12 13:25:31.75	284.79	16.06	-48.0	-51.1	21.3	6.04e-01	0	41	0	472383488	67	5189
2026-01-12 13:25:32.50	284.97	16.04	-48.0	-51.1	21.3	6.07e-01	0	40	0	473956352	67	5169
2026-01-12 13:25:33.78	285.29	16.01	-47.9	-51.0	21.4	6.08e-01	0	41	0	476053504	67	5102
2026-01-12 13:25:34.50	285.47	15.99	-47.9	-51.0	21.4	6.06e-01	0	41	0	477626368	67	5130
2026-01-12 13:25:35.78	285.79	15.96	-47.9	-50.9	21.4	6.05e-01	0	41	0	479723520	67	5098
2026-01-12 13:25:36.50	285.97	15.94	-47.8	-50.8	21.5	6.09e-01	0	41	0	481296384	67	5000
2026-01-12 13:25:37.78	286.29	15.91	-47.8	-50.8	21.6	6.06e-01	0	40	0	483917824	67	4998
2026-01-12 13:25:38.60	286.50	15.88	-47.9	-50.9	21.5	6.05e-01	0	41	0	484966400	67	5071
2026-01-12 13:25:39.74	286.78	15.85	-47.8	-50.9	21.5	6.05e-01	0	41	0	487587840	67	5048
2026-01-12 13:25:40.59	286.99	15.83	-47.9	-50.9	21.4	6.06e-01	0	41	0	489160704	67	5063
2026-01-12 13:25:42.08	287.36	15.79	-47.8	-50.8	21.5	6.07e-01	0	41	0	491782144	67	5033
2026-01-12 13:25:42.79	287.53	15.77	-47.9	-50.9	21.5	6.07e-01	0	40	0	492830720	67	5061
2026-01-12 13:25:44.06	287.84	15.73	-47.8	-50.8	21.5	6.08e-01	0	41	0	495452160	67	5020
2026-01-12 13:25:44.77	288.02	15.71	-47.8	-50.8	21.6	6.06e-01	0	41	0	497025024	67	4991
2026-01-12 13:25:46.05	288.33	15.67	-47.9	-51.0	21.4	6.08e-01	0	40	0	499122176	67	5113
2026-01-12 13:25:46.76	288.50	15.65	-47.8	-50.9	21.5	6.08e-01	0	40	0	500695040	67	5072
2026-01-12 13:25:48.04	288.82	15.61	-47.7	-50.9	21.4	6.04e-01	0	41	0	502792192	67	5091
2026-01-12 13:25:48.78	289.00	15.59	-47.7	-50.9	21.5	6.07e-01	0	41	0	504365056	67	5062
2026-01-12 13:25:50.06	289.31	15.55	-47.8	-51.0	21.4	6.07e-01	0	41	0	506986496	67	5130
2026-01-12 13:25:51.00	289.53	15.52	-47.8	-50.9	21.4	6.10e-01	0	41	0	508559360	67	5074
2026-01-12 13:25:52.00	289.78	15.48	-47.9	-51.0	21.4	6.05e-01	0	41	0	510132224	67	5136
2026-01-12 13:25:52.99	290.01	15.45	-48.1	-51.1	21.2	6.09e-01	0	40	0	512229376	67	5205
2026-01-12 13:25:53.99	290.25	15.42	-48.0	-51.1	21.3	6.06e-01	0	41	0	513802240	67	5170
2026-01-12 13:25:54.98	290.49	15.39	-48.0	-51.1	21.3	6.06e-01	0	41	0	515899392	67	5172
2026-01-12 13:25:55.98	290.73	15.35	-48.0	-51.1	21.3	6.07e-01	0	41	0	517996544	67	5161
2026-01-12 13:25:56.97	290.97	15.32	-48.0	-51.0	21.4	6.06e-01	0	41	0	519569408	67	5115
2026-01-12 13:25:57.97	291.21	15.28	-48.0	-51.1	21.3	6.07e-01	0	41	0	521666560	67	5177
2026-01-12 13:25:58.99	291.45	15.25	-48.0	-51.1	21.3	6.06e-01	0	41	0	523239424	67	5176
2026-01-12 13:25:59.99	291.68	15.21	-48.0	-51.0	21.3	6.07e-01	0	41	0	525336576	67	5128
2026-01-12 13:26:00.99	291.92	15.17	-48.0	-51.0	21.3	6.09e-01	0	41	0	526909440	67	5146
2026-01-12 13:26:01.98	292.15	15.14	-47.9	-51.0	21.4	6.08e-01	0	41	0	529006592	67	5113
2026-01-12 13:26:02.97	292.39	15.10	-48.0	-51.1	21.2	6.07e-01	0	41	0	531103744	67	5191
2026-01-12 13:26:03.97	292.62	15.07	-48.0	-51.1	21.3	6.06e-01	0	41	0	532676608	67	5165
2026-01-12 13:26:04.96	292.85	15.03	-48.1	-51.2	21.2	6.06e-01	0	41	0	534773760	67	5229
2026-01-12 13:26:05.96	293.09	14.99	-48.0	-51.0	21.3	6.09e-01	0	41	0	536346624	67	5155
2026-01-12 13:26:06.96	293.32	14.95	-48.0	-51.0	21.3	6.08e-01	0	41	0	538443776	67	5151
2026-01-12 13:26:07.95	293.55	14.91	-48.0	-51.1	21.2	6.07e-01	0	41	0	540016640	67	5181
2026-01-12 13:26:08.94	293.78	14.88	-48.0	-51.1	21.2	6.05e-01	0	41	0	542113792	67	5201
2026-01-12 13:26:09.94	294.01	14.84	-48.0	-51.2	21.2	6.09e-01	0	41	0	544210944	67	5249
2026-01-12 13:26:10.94	294.24	14.80	-48.0	-51.2	21.2	6.08e-01	0	41	0	545783808	67	5222
2026-01-12 13:26:11.93	294.47	14.76	-48.1	-51.2	21.1	6.06e-01	0	41	0	547880960	67	5250
2026-01-12 13:26:12.93	294.69	14.72	-48.1	-51.1	21.2	6.06e-01	0	41	0	549453824	67	5218
2026-01-12 13:26:13.92	294.92	14.68	-48.1	-51.2	21.1	6.05e-01	0	41	0	551550976	67	5227
2026-01-12 13:26:14.97	295.16	14.63	-48.1	-51.2	21.1	6.07e-01	0	41	0	553648128	67	5272
2026-01-12 13:26:15.96	295.38	14.59	-47.9	-51.1	21.2	6.06e-01	0	41	0	555220992	67	5194
2026-01-12 13:26:16.96	295.61	14.55	-47.9	-51.1	21.2	6.08e-01	0	41	0	557318144	67	5211
2026-01-12 13:26:17.95	295.83	14.51	-48.0	-51.2	21.1	6.09e-01	0	41	0	558891008	67	5250
2026-01-12 13:26:18.95	296.06	14.47	-48.0	-51.2	21.1	6.08e-01	0	41	0	560988160	67	5252
2026-01-12 13:26:19.94	296.28	14.43	-48.1	-51.2	21.1	6.06e-01	0	41	0	562561024	67	5258
2026-01-12 13:26:20.94	296.50	14.38	-48.0	-51.1	21.2	6.05e-01	0	41	0	564658176	67	5197
2026-01-12 13:26:21.93	296.72	14.34	-48.1	-51.3	21.1	6.07e-01	0	41	0	566231040	67	5280
2026-01-12 13:26:22.93	296.94	14.30	-48.2	-51.3	21.0	6.05e-01	0	41	0	568328192	67	5325
2026-01-12 13:26:23.92	297.16	14.25	-48.2	-51.3	21.0	6.06e-01	0	41	0	570425344	67	5338
2026-01-12 13:26:24.91	297.38	14.21	-48.1	-51.3	21.0	6.08e-01	0	41	0	571998208	67	5307
2026-01-12 13:26:25.91	297.60	14.17	-48.2	-51.4	21.0	6.07e-01	0	41	0	574095360	67	5355
2026-01-12 13:26:26.91	297.82	14.12	-48.1	-51.3	21.0	6.06e-01	0	41	0	575668224	67	5296
2026-01-12 13:26:27.90	298.04	14.08	-48.3	-51.5	20.8	6.05e-01	0	41	0	577765376	67	5456
2026-01-12 13:26:28.90	298.26	14.03	-48.2	-51.4	20.9	6.06e-01	0	41	0	579338240	67	5380
2026-01-12 13:26:29.89	298.47	13.99	-48.1	-51.3	21.0	6.07e-01	0	41	0	581435392	67	5297
2026-01-12 13:26:30.89	298.69	13.94	-48.2	-51.3	21.0	6.07e-01	0	41	0	583008256	67	5335
2026-01-12 13:26:31.96	298.92	13.89	-48.2	-51.4	20.9	6.05e-01	0	41	0	585105408	67	5342
2026-01-12 13:26:32.84	299.11	13.85	-48.2	-51.4	20.9	6.07e-01	0	41	0	586678272	67	5400
2026-01-12 13:26:33.98	299.35	13.80	-48.0	-51.2	21.0	6.06e-01	0	41	0	589299712	67	5276
2026-01-12 13:26:34.84	299.54	13.76	-48.1	-51.3	21.0	6.08e-01	0	41	0	590872576	67	5335
2026-01-12 13:26:35.97	299.78	13.71	-48.1	-51.3	21.0	6.06e-01	0	41	0	592969728	67	5322
2026-01-12 13:26:36.82	299.96	13.67	-48.1	-51.3	21.0	6.07e-01	0	41	0	594542592	67	5321
2026-01-12 13:26:37.96	300.20	13.61	-48.1	-51.2	21.0	6.05e-01	0	41	0	596639744	67	5270
2026-01-12 13:26:38.81	300.38	13.57	-48.0	-51.1	21.2	6.08e-01	0	41	0	598212608	67	5184
2026-01-12 13:26:39.95	300.62	13.52	-48.0	-51.1	21.1	6.08e-01	0	41	0	600309760	67	5215
2026-01-12 13:26:40.80	300.80	13.48	-48.1	-51.2	21.1	6.05e-01	0	41	0	601882624	67	5225
2026-01-12 13:26:41.93	301.03	13.42	-48.2	-51.3	20.9	6.07e-01	0	41	0	603979776	67	5332
2026-01-12 13:26:42.79	301.21	13.38	-48.2	-51.4	21.0	6.07e-01	0	41	0	605552640	67	5345
2026-01-12 13:26:44.03	301.47	13.32	-48.1	-51.3	21.0	6.05e-01	0	41	0	607649792	67	5330
2026-01-12 13:26:44.89	301.65	13.28	-48.1	-51.3	21.0	6.09e-01	0	41	0	609222656	67	5293
2026-01-12 13:26:46.10	301.89	13.22	-48.1	-51.3	20.9	6.04e-01	0	41	0	611844096	67	5328
2026-01-12 13:26:46.96	302.07	13.18	-48.1	-51.3	21.0	6.08e-01	0	41	0	613416960	67	5325
2026-01-12 13:26:48.09	302.30	13.12	-48.1	-51.3	20.9	6.06e-01	0	41	0	615514112	67	5340
2026-01-12 13:26:48.95	302.48	13.08	-48.1	-51.3	21.0	6.08e-01	0	41	0	617086976	67	5338
2026-01-12 13:26:50.09	302.71	13.02	-48.0	-51.3	21.0	6.07e-01	0	41	0	619184128	67	5280
2026-01-12 13:26:50.94	302.88	12.98	-48.1	-51.3	20.9	6.09e-01	0	41	0	620756992	67	5313
2026-01-12 13:26:52.08	303.11	12.92	-48.0	-51.2	21.1	6.04e-01	0	40	0	622854144	67	5232
2026-01-12 13:26:53.02	303.30	12.87	-47.9	-51.1	21.1	6.06e-01	0	41	0	624951296	67	5181
2026-01-12 13:26:54.02	303.50	12.82	-48.0	-51.2	21.0	6.05e-01	0	41	0	626524160	67	5266
2026-01-12 13:26:55.01	303.70	12.77	-48.0	-51.3	20.9	6.05e-01	0	41	0	628621312	67	5300
2026-01-12 13:26:56.01	303.89	12.72	-48.1	-51.4	20.9	6.08e-01	0	41	0	630194176	67	5365
2026-01-12 13:26:57.00	304.09	12.67	-48.0	-51.3	21.0	6.06e-01	0	41	0	632291328	67	5310
2026-01-12 13:26:58.00	304.29	12.62	-48.1	-51.4	20.8	6.08e-01	0	41	0	633864192	67	5377
2026-01-12 13:26:58.99	304.48	12.57	-48.0	-51.2	21.1	6.09e-01	0	41	0	635961344	67	5254
2026-01-12 13:26:59.98	304.67	12.52	-48.1	-51.2	21.0	6.07e-01	0	41	0	637534208	67	5273
2026-01-12 13:27:00.98	304.87	12.46	-48.0	-51.2	21.1	6.06e-01	0	41	0	639631360	67	5243
2026-01-12 13:27:01.97	305.06	12.41	-48.0	-51.3	21.0	6.04e-01	0	41	0	641728512	67	5283
2026-01-12 13:27:02.97	305.26	12.36	-48.1	-51.3	21.0	6.08e-01	0	41	0	643301376	67	5289
2026-01-12 13:27:03.97	305.45	12.31	-48.1	-51.3	21.0	6.08e-01	0	41	0	645398528	67	5323
2026-01-12 13:27:04.96	305.64	12.26	-48.1	-51.3	21.0	6.07e-01	0	41	0	646971392	67	5299
2026-01-12 13:27:05.95	305.83	12.20	-48.1	-51.4	20.9	6.07e-01	0	41	0	649068544	67	5365
2026-01-12 13:27:06.95	306.02	12.15	-48.1	-51.3	20.9	6.06e-01	0	41	0	650641408	67	5325
2026-01-12 13:27:07.94	306.21	12.10	-48.0	-51.3	20.9	6.05e-01	0	41	0	652738560	67	5334
2026-01-12 13:27:08.94	306.40	12.05	-47.8	-51.3	21.0	6.07e-01	0	41	0	654835712	67	5290
2026-01-12 13:27:09.93	306.58	11.99	-47.7	-51.3	21.0	6.07e-01	0	41	0	656408576	67	5290
2026-01-12 13:27:10.93	306.77	11.94	-47.9	-51.4	20.8	6.07e-01	0	41	0	658505728	67	5399
2026-01-12 13:27:11.92	306.96	11.89	-48.1	-51.4	20.8	6.08e-01	0	41	0	660078592	67	5387
2026-01-12 13:27:12.91	307.14	11.83	-48.2	-51.5	20.8	6.09e-01	0	41	0	662175744	67	5428
2026-01-12 13:27:13.96	307.33	11.78	-48.1	-51.6	20.7	6.05e-01	0	41	0	664272896	67	5489
2026-01-12 13:27:14.89	307.51	11.73	-48.1	-51.5	20.8	6.07e-01	0	41	0	665845760	67	5413
2026-01-12 13:27:15.88	307.69	11.67	-48.0	-51.3	20.9	6.07e-01	0	41	0	667418624	67	5332
2026-01-12 13:27:16.88	307.87	11.62	-48.1	-51.5	20.8	6.07e-01	0	41	0	669515776	67	5418
2026-01-12 13:27:17.87	308.05	11.57	-48.2	-51.5	20.7	6.08e-01	0	41	0	671612928	67	5460
2026-01-12 13:27:18.87	308.24	11.51	-47.9	-51.4	20.8	6.07e-01	0	41	0	673185792	67	5392
2026-01-12 13:27:19.87	308.42	11.46	-47.8	-51.3	20.9	6.06e-01	0	41	0	675282944	67	5324
2026-01-12 13:27:20.86	308.60	11.40	-48.1	-51.5	20.7	6.05e-01	0	41	0	676855808	67	5457
2026-01-12 13:27:21.85	308.77	11.35	-48.1	-51.5	20.7	6.08e-01	0	41	0	678952960	67	5458
2026-01-12 13:27:22.85	308.95	11.30	-48.2	-51.7	20.6	6.07e-01	0	41	0	680525824	67	5534
2026-01-12 13:27:23.84	309.13	11.24	-48.2	-51.7	20.5	6.09e-01	0	41	0	682622976	67	5554
2026-01-12 13:27:24.84	309.31	11.19	-48.2	-51.6	20.6	6.08e-01	0	41	0	684195840	67	5495
2026-01-12 13:27:25.83	309.48	11.13	-48.3	-51.6	20.6	6.06e-01	0	41	0	686292992	67	5522
2026-01-12 13:27:26.83	309.66	11.08	-48.3	-51.6	20.6	6.07e-01	0	41	0	688390144	67	5493
2026-01-12 13:27:27.87	309.84	11.02	-48.2	-51.6	20.6	6.06e-01	0	41	0	689963008	67	5490
2026-01-12 13:27:28.86	310.02	10.96	-48.2	-51.7	20.5	6.06e-01	0	41	0	692060160	67	5592
2026-01-12 13:27:29.95	310.21	10.90	-48.2	-51.8	20.4	6.09e-01	0	41	0	694157312	67	5632
2026-01-12 13:27:30.84	310.36	10.85	-48.1	-51.6	20.6	6.07e-01	0	41	0	695730176	67	5468
2026-01-12 13:27:31.97	310.56	10.79	-48.2	-51.6	20.6	6.05e-01	0	41	0	697827328	67	5482
2026-01-12 13:27:32.83	310.70	10.74	-48.1	-51.6	20.6	6.07e-01	0	41	0	699400192	67	5506
2026-01-12 13:27:33.96	310.90	10.68	-48.1	-51.8	20.4	6.07e-01	0	41	0	701497344	67	5601
2026-01-12 13:27:34.82	311.05	10.63	-48.2	-51.8	20.4	6.09e-01	0	41	0	703070208	67	5640
2026-01-12 13:27:35.95	311.24	10.57	-48.3	-51.9	20.2	6.08e-01	0	41	0	705167360	67	5718
2026-01-12 13:27:36.81	311.38	10.52	-48.2	-51.9	20.3	6.08e-01	0	41	0	706740224	67	5681
2026-01-12 13:27:37.94	311.57	10.46	-48.2	-52.0	20.2	6.08e-01	0	41	0	708837376	67	5749
2026-01-12 13:27:38.80	311.72	10.41	-48.1	-51.9	20.3	6.06e-01	0	41	0	710410240	67	5683
2026-01-12 13:27:39.93	311.91	10.35	-47.9	-51.6	20.6	6.07e-01	0	41	0	712507392	67	5481
2026-01-12 13:27:40.78	312.05	10.30	-48.0	-51.6	20.5	6.06e-01	0	41	0	714080256	67	5514
2026-01-12 13:27:41.92	312.24	10.24	-48.1	-51.7	20.5	6.08e-01	0	41	0	716701696	67	5536
2026-01-12 13:27:42.77	312.38	10.19	-48.1	-51.7	20.4	6.07e-01	0	41	0	718274560	67	5572
2026-01-12 13:27:43.91	312.57	10.12	-48.1	-51.8	20.4	6.09e-01	0	41	0	720371712	67	5613
2026-01-12 13:27:44.76	312.71	10.08	-48.1	-51.8	20.3	6.07e-01	0	41	0	721944576	67	5653
2026-01-12 13:27:45.90	312.89	10.01	-48.2	-51.9	20.2	6.06e-01	0	41	0	724041728	67	5712
2026-01-12 13:27:46.75	313.03	9.96	-48.1	-51.8	20.4	6.08e-01	0	41	0	725614592	67	5595
2026-01-12 13:27:47.89	313.22	9.90	-48.2	-51.7	20.4	6.07e-01	0	41	0	727711744	67	5575
2026-01-12 13:27:48.74	313.35	9.85	-48.2	-51.8	20.4	6.05e-01	0	41	0	729284608	67	5636
2026-01-12 13:27:50.12	313.58	9.77	-48.1	-51.8	20.3	6.06e-01	0	41	0	731906048	67	5626
2026-01-12 13:27:50.83	313.69	9.73	-48.1	-51.8	20.4	6.07e-01	0	41	0	732954624	67	5615
2026-01-12 13:27:52.11	313.89	9.66	-48.3	-51.9	20.3	6.09e-01	0	41	0	735576064	67	5677
2026-01-12 13:27:53.32	314.09	9.59	-48.3	-51.9	20.3	6.09e-01	0	41	0	737673216	67	5664
2026-01-12 13:27:54.18	314.22	9.54	-48.2	-51.9	20.2	6.04e-01	0	41	0	739246080	67	5718
2026-01-12 13:27:55.31	314.40	9.48	-48.1	-51.9	20.3	6.07e-01	0	41	0	741343232	67	5689
2026-01-12 13:27:56.17	314.53	9.43	-48.2	-52.0	20.1	6.07e-01	0	41	0	742916096	67	5751
2026-01-12 13:27:57.30	314.71	9.37	-48.2	-52.0	20.1	6.06e-01	0	41	0	745013248	67	5776
2026-01-12 13:27:58.15	314.84	9.32	-48.3	-52.0	20.1	6.09e-01	0	41	0	746586112	67	5748
2026-01-12 13:27:59.35	315.03	9.25	-48.3	-51.9	20.2	6.05e-01	0	41	0	749207552	67	5718
2026-01-12 13:28:00.21	315.16	9.20	-48.3	-52.0	20.1	6.07e-01	0	41	0	750780416	67	5771
2026-01-12 13:28:01.39	315.34	9.13	-48.3	-52.0	20.1	6.06e-01	0	41	0	752877568	67	5773
2026-01-12 13:28:02.24	315.47	9.09	-48.3	-51.9	20.1	6.08e-01	0	41	0	754450432	67	5686
2026-01-12 13:28:03.46	315.66	9.02	-48.7	-52.6	19.7	6.06e-01	0	41	0	757071872	67	6172
2026-01-12 13:28:04.31	315.79	8.97	-53.4	-69.6	4.2	7.39e-01	0	41	104	757596160	77	24501
2026-01-12 13:28:05.44	315.96	8.90	-52.7	-73.8	3.8	7.47e-01	0	41	104	757596160	76	41959
2026-01-12 13:28:06.29	316.09	8.85	-53.0	-73.8	3.8	7.45e-01	0	41	104	757596160	78	37729
2026-01-12 13:28:07.54	316.27	8.78	-53.5	-74.0	3.8	7.47e-01	0	41	104	757596160	78	38665
2026-01-12 13:28:08.39	316.40	8.73	-54.1	-74.1	3.8	7.46e-01	0	41	104	757596160	78	38838
2026-01-12 13:28:09.59	316.58	8.67	-53.9	-74.2	3.8	7.47e-01	0	41	104	757596160	78	39231
2026-01-12 13:28:10.44	316.70	8.62	-53.3	-74.2	3.8	7.47e-01	0	41	104	757596160	78	39321
2026-01-12 13:28:11.64	316.88	8.55	-54.0	-74.2	3.8	7.47e-01	0	41	104	757596160	78	39433
2026-01-12 13:28:12.49	317.00	8.50	-53.6	-74.2	3.8	7.49e-01	0	41	104	757596160	78	39548
2026-01-12 13:28:13.69	317.18	8.43	-54.0	-74.2	3.8	7.49e-01	0	41	104	757596160	78	39582
2026-01-12 13:28:14.55	317.30	8.38	-53.8	-74.3	3.8	7.43e-01	0	41	104	757596160	79	37467
2026-01-12 13:28:15.68	317.47	8.32	-53.9	-74.3	3.8	7.44e-01	0	41	104	757596160	79	37500
2026-01-12 13:28:16.53	317.59	8.27	-54.0	-74.3	3.8	7.48e-01	0	41	104	757596160	79	37557
2026-01-12 13:28:17.67	317.75	8.20	-54.1	-74.3	3.8	7.44e-01	0	41	104	757596160	79	37567
2026-01-12 13:28:18.52	317.88	8.16	-54.1	-74.3	3.8	7.48e-01	0	41	104	757596160	79	37466
2026-01-12 13:28:19.65	318.04	8.09	-53.9	-74.3	3.8	7.43e-01	0	41	104	757596160	79	37578
2026-01-12 13:28:20.51	318.16	8.04	-54.1	-74.3	3.8	7.44e-01	0	41	104	757596160	79	37442
2026-01-12 13:28:21.64	318.32	7.98	-54.0	-74.3	3.8	7.44e-01	0	41	104	757596160	79	37526
2026-01-12 13:28:22.49	318.44	7.93	-54.2	-74.3	3.8	7.44e-01	0	41	104	757596160	79	37395
2026-01-12 13:28:23.63	318.60	7.86	-54.1	-74.3	3.8	7.47e-01	0	41	104	757596160	79	37433
2026-01-12 13:28:24.48	318.72	7.82	-53.8	-74.3	3.8	7.43e-01	0	41	104	757596160	79	37508
2026-01-12 13:28:25.61	318.87	7.75	-53.8	-74.2	3.8	7.49e-01	0	41	104	757596160	79	37279
2026-01-12 13:28:26.47	318.99	7.70	-53.8	-74.2	3.8	7.49e-01	0	41	104	757596160	79	37362
2026-01-12 13:28:27.60	319.15	7.64	-53.8	-74.2	3.8	7.45e-01	0	41	104	757596160	79	37230
2026-01-12 13:28:28.45	319.26	7.59	-53.8	-74.2	3.8	7.46e-01	0	41	104	757596160	79	37216
2026-01-12 13:28:29.59	319.42	7.53	-53.8	-74.2	3.8	7.42e-01	0	41	104	757596160	79	37265
2026-01-12 13:28:30.44	319.53	7.48	-53.8	-74.2	3.8	7.45e-01	0	41	104	757596160	79	37271
2026-01-12 13:28:31.58	319.69	7.41	-53.8	-74.2	3.8	7.46e-01	0	41	104	757596160	79	37179
2026-01-12 13:28:32.43	319.80	7.36	-53.8	-74.2	3.8	7.41e-01	0	41	104	757596160	79	37176
2026-01-12 13:28:33.56	319.96	7.30	-53.8	-74.2	3.8	7.46e-01	0	41	104	757596160	79	37183
2026-01-12 13:28:34.41	320.07	7.25	-53.8	-74.2	3.8	7.47e-01	0	41	104	757596160	79	37177
2026-01-12 13:28:35.55	320.22	7.19	-53.8	-74.2	3.8	7.47e-01	0	41	104	757596160	79	37174
2026-01-12 13:28:36.40	320.33	7.14	-53.8	-74.2	3.8	7.46e-01	0	41	104	757596160	79	37255
2026-01-12 13:28:37.53	320.48	7.07	-53.8	-74.2	3.8	7.48e-01	0	41	104	757596160	79	37161
2026-01-12 13:28:38.38	320.60	7.02	-53.8	-74.2	3.8	7.47e-01	0	41	104	757596160	79	37203
2026-01-12 13:28:39.52	320.75	6.96	-53.8	-74.2	3.8	7.47e-01	0	41	104	757596160	79	37167
2026-01-12 13:28:40.37	320.86	6.91	-53.8	-74.2	3.8	7.47e-01	0	41	104	757596160	79	37128
2026-01-12 13:28:41.51	321.00	6.85	-53.8	-7
