passes_logs/2026/01/12/T1/T1__20260112_020725_AQUA_rec.log

#Pass ID: 20260112_020725_AQUA
#Satellite: AQUA
#Configuration: AQUA
#almurnet v.1.7.20251203
#Start time: 2026-01-12 02:07:26

#Version: 2.0.20230620
#Station: T1
#Location: 37.570604 lon 55.790049 lat
#TLE: 1 27424U 02022A   26011.34052177  .00001139  00000+0  23789-3 0  9999
#TLE: 2 27424  98.4078 337.7066 0002035  82.6124  44.5301 14.61815662260355

#Time	Az	El	Level	Level2	SNR	BER	BlckErr	Temp	State	Recorded	gain1	gain2
2026-01-12 02:07:26.90	9.34	5.11	-48.9	-71.2	3.8	7.47e-01	0	38	0	0	69	46672
2026-01-12 02:07:27.89	9.29	5.18	-47.8	-71.4	3.8	7.46e-01	0	39	104	0	66	57060
2026-01-12 02:07:28.89	9.25	5.25	-47.8	-71.5	3.8	7.46e-01	0	39	104	0	66	57303
2026-01-12 02:07:29.88	9.20	5.33	-47.8	-71.5	3.8	7.47e-01	0	39	104	0	66	57566
2026-01-12 02:07:30.87	9.15	5.40	-47.9	-71.5	3.8	7.45e-01	0	39	104	0	66	57826
2026-01-12 02:07:31.87	9.11	5.47	-47.9	-71.6	3.8	7.50e-01	0	39	104	0	66	58003
2026-01-12 02:07:32.86	9.06	5.54	-47.8	-71.5	3.8	7.46e-01	0	39	104	0	66	57862
2026-01-12 02:07:33.85	9.01	5.62	-47.8	-71.4	3.8	7.43e-01	0	39	104	0	66	57191
2026-01-12 02:07:34.85	8.96	5.69	-47.8	-71.2	3.8	7.48e-01	0	39	104	0	66	55765
2026-01-12 02:07:35.84	8.91	5.76	-47.8	-70.9	3.8	7.46e-01	0	39	104	0	66	53685
2026-01-12 02:07:36.83	8.86	5.84	-47.8	-70.5	3.8	7.48e-01	0	39	104	0	66	51529
2026-01-12 02:07:37.83	8.81	5.91	-47.8	-70.1	3.8	7.45e-01	0	39	104	0	66	49229
2026-01-12 02:07:38.82	8.77	5.98	-47.8	-69.9	3.8	7.45e-01	0	39	104	0	66	47848
2026-01-12 02:07:39.81	8.72	6.06	-47.8	-69.7	3.8	7.43e-01	0	39	104	0	66	46677
2026-01-12 02:07:40.81	8.67	6.13	-47.8	-69.6	3.8	7.45e-01	0	39	104	0	66	46497
2026-01-12 02:07:41.80	8.61	6.21	-47.8	-69.5	4.0	7.40e-01	0	40	104	0	66	45516
2026-01-12 02:07:42.80	8.56	6.28	-47.7	-69.7	3.8	7.45e-01	0	39	104	0	66	46984
2026-01-12 02:07:43.79	8.51	6.36	-47.8	-69.8	3.9	7.47e-01	0	40	104	0	66	47331
2026-01-12 02:07:44.78	8.46	6.43	-47.8	-69.5	3.9	7.42e-01	0	39	104	0	66	45630
2026-01-12 02:07:45.78	8.41	6.51	-47.8	-69.3	3.9	7.42e-01	0	40	104	0	66	44771
2026-01-12 02:07:46.77	8.36	6.58	-47.8	-69.0	3.8	7.43e-01	0	40	104	0	66	43373
2026-01-12 02:07:47.76	8.31	6.66	-47.8	-68.2	4.2	7.34e-01	0	40	104	0	66	39540
2026-01-12 02:07:48.75	8.25	6.74	-47.8	-68.3	3.9	7.40e-01	0	40	104	0	66	39966
2026-01-12 02:07:49.75	8.20	6.81	-47.8	-68.4	3.9	7.41e-01	0	40	104	0	66	40063
2026-01-12 02:07:50.74	8.15	6.89	-47.8	-68.4	4.1	7.37e-01	0	40	104	0	66	40144
2026-01-12 02:07:51.73	8.09	6.97	-47.9	-69.4	3.9	7.43e-01	0	40	104	0	66	44971
2026-01-12 02:07:52.73	8.04	7.04	-47.8	-70.6	3.8	7.47e-01	0	40	104	0	66	51767
2026-01-12 02:07:53.72	7.99	7.12	-47.8	-71.3	3.8	7.49e-01	0	40	104	0	66	56105
2026-01-12 02:07:54.71	7.93	7.20	-47.8	-70.8	3.8	7.44e-01	0	40	104	0	66	53224
2026-01-12 02:07:55.71	7.88	7.28	-47.7	-68.4	4.1	7.34e-01	0	40	104	0	66	40405
2026-01-12 02:07:56.70	7.82	7.35	-47.7	-65.5	5.3	7.01e-01	0	40	0	0	66	28919
2026-01-12 02:07:57.70	7.77	7.43	-47.7	-62.9	7.4	6.55e-01	0	40	0	1572864	66	21303
2026-01-12 02:07:58.69	7.71	7.51	-47.6	-60.8	9.5	6.25e-01	0	40	0	3145728	66	16714
2026-01-12 02:07:59.68	7.65	7.59	-47.4	-59.1	11.3	6.09e-01	0	40	0	5242880	66	13763
2026-01-12 02:08:00.68	7.60	7.67	-47.2	-57.7	12.7	6.06e-01	0	40	0	6815744	66	11793
2026-01-12 02:08:01.67	7.54	7.75	-47.1	-56.6	13.9	6.02e-01	0	40	0	8912896	66	10358
2026-01-12 02:08:02.66	7.48	7.83	-46.9	-55.7	14.8	6.02e-01	0	40	0	11010048	65	9871
2026-01-12 02:08:03.66	7.42	7.91	-46.7	-55.0	15.5	6.01e-01	0	40	0	12582912	65	9085
2026-01-12 02:08:04.65	7.37	7.99	-46.6	-54.2	16.3	6.02e-01	0	40	0	14155776	65	8351
2026-01-12 02:08:05.64	7.31	8.07	-46.5	-53.8	16.7	6.03e-01	0	40	0	16252928	65	7932
2026-01-12 02:08:06.64	7.25	8.15	-46.3	-53.3	17.2	6.00e-01	0	40	0	18350080	64	7964
2026-01-12 02:08:07.63	7.19	8.23	-46.2	-52.8	17.7	6.05e-01	0	40	0	19922944	64	7526
2026-01-12 02:08:08.62	7.13	8.31	-46.0	-52.5	18.0	6.03e-01	0	40	0	22020096	64	7230
2026-01-12 02:08:09.62	7.07	8.39	-46.0	-52.3	18.1	6.03e-01	0	40	0	23592960	64	7094
2026-01-12 02:08:10.61	7.01	8.47	-46.1	-52.4	18.2	6.02e-01	0	40	0	25690112	63	7574
2026-01-12 02:08:11.60	6.95	8.56	-46.2	-52.5	18.0	6.00e-01	0	40	0	27262976	63	7714
2026-01-12 02:08:12.60	6.89	8.64	-46.3	-52.9	17.7	6.04e-01	0	40	0	29360128	63	8053
2026-01-12 02:08:13.59	6.83	8.72	-46.5	-53.5	17.1	6.03e-01	0	40	0	31457280	63	8645
2026-01-12 02:08:14.58	6.76	8.80	-46.7	-54.6	16.0	6.01e-01	0	40	0	33030144	64	9194
2026-01-12 02:08:15.58	6.70	8.89	-46.9	-55.9	14.7	6.02e-01	0	40	0	35127296	64	10680
2026-01-12 02:08:16.57	6.64	8.97	-47.2	-57.6	12.9	6.04e-01	0	40	0	36700160	65	12358
2026-01-12 02:08:17.56	6.58	9.05	-48.1	-61.2	9.4	6.30e-01	0	40	0	38797312	66	17622
2026-01-12 02:08:18.56	6.51	9.14	-49.2	-66.6	5.0	7.13e-01	0	41	0	39845888	69	27655
2026-01-12 02:08:19.55	6.45	9.22	-47.4	-58.5	10.9	6.10e-01	0	40	104	39845888	67	12129
2026-01-12 02:08:20.55	6.38	9.31	-45.4	-51.8	18.4	6.03e-01	0	40	0	41418752	62	7463
2026-01-12 02:08:21.54	6.32	9.39	-46.3	-54.5	16.8	6.03e-01	0	40	0	42991616	63	9628
2026-01-12 02:08:22.54	6.25	9.47	-46.1	-54.4	15.3	6.00e-01	0	41	0	45088768	64	9006
2026-01-12 02:08:23.53	6.19	9.56	-45.0	-49.8	20.6	6.04e-01	0	40	0	47185920	61	6298
2026-01-12 02:08:24.53	6.12	9.65	-44.7	-49.6	20.8	6.03e-01	0	40	0	48758784	61	6162
2026-01-12 02:08:25.52	6.05	9.73	-44.7	-49.5	21.0	6.02e-01	0	40	0	50855936	61	6074
2026-01-12 02:08:26.52	5.99	9.82	-44.8	-49.5	20.9	6.02e-01	0	41	0	52428800	61	6101
2026-01-12 02:08:27.51	5.92	9.90	-45.0	-49.7	20.8	6.01e-01	0	40	0	54525952	61	6229
2026-01-12 02:08:28.51	5.85	9.99	-45.0	-49.4	21.1	6.06e-01	0	40	0	56098816	61	6030
2026-01-12 02:08:29.50	5.78	10.08	-45.1	-49.4	21.1	6.02e-01	0	41	0	58195968	61	6007
2026-01-12 02:08:30.50	5.71	10.17	-45.3	-49.4	21.0	6.02e-01	0	40	0	59768832	61	6027
2026-01-12 02:08:31.49	5.64	10.25	-45.2	-49.4	21.1	6.05e-01	0	41	0	61865984	61	6014
2026-01-12 02:08:32.49	5.57	10.34	-45.3	-49.4	21.1	6.04e-01	0	41	0	63963136	61	6013
2026-01-12 02:08:33.48	5.50	10.43	-45.4	-49.4	21.1	6.03e-01	0	41	0	65536000	61	6005
2026-01-12 02:08:34.48	5.43	10.52	-45.5	-49.4	21.1	6.03e-01	0	41	0	67633152	61	6023
2026-01-12 02:08:35.47	5.36	10.61	-45.8	-49.5	21.0	6.03e-01	0	41	0	69206016	62	5729
2026-01-12 02:08:36.47	5.29	10.70	-45.9	-49.4	21.0	6.06e-01	0	41	0	71303168	62	5713
2026-01-12 02:08:37.47	5.22	10.79	-45.9	-49.3	21.2	6.02e-01	0	40	0	72876032	62	5639
2026-01-12 02:08:38.46	5.14	10.88	-45.8	-49.2	21.3	6.02e-01	0	41	0	74973184	62	5587
2026-01-12 02:08:39.47	5.07	10.97	-45.8	-49.2	21.3	6.05e-01	0	41	0	77070336	62	5567
2026-01-12 02:08:40.47	4.99	11.06	-45.8	-49.3	21.3	6.08e-01	0	41	0	78643200	62	5604
2026-01-12 02:08:41.46	4.92	11.15	-45.9	-49.3	21.3	6.03e-01	0	41	0	80740352	62	5594
2026-01-12 02:08:42.55	4.84	11.25	-45.8	-49.1	21.4	6.05e-01	0	41	0	82837504	62	5511
2026-01-12 02:08:43.41	4.77	11.33	-45.9	-49.1	21.4	6.02e-01	0	41	0	84410368	62	5478
2026-01-12 02:08:44.54	4.69	11.43	-45.8	-48.9	21.5	6.03e-01	0	41	0	86507520	62	5382
2026-01-12 02:08:45.40	4.62	11.51	-45.9	-49.0	21.5	6.02e-01	0	41	0	88080384	62	5435
2026-01-12 02:08:46.53	4.53	11.62	-45.9	-49.0	21.5	6.03e-01	0	41	0	90177536	62	5458
2026-01-12 02:08:47.39	4.47	11.70	-45.9	-49.0	21.5	6.01e-01	0	41	0	91750400	62	5423
2026-01-12 02:08:48.52	4.38	11.80	-45.8	-48.9	21.7	6.04e-01	0	41	0	93847552	62	5359
2026-01-12 02:08:49.38	4.31	11.89	-45.8	-48.9	21.7	6.00e-01	0	41	0	95420416	62	5351
2026-01-12 02:08:50.51	4.22	11.99	-45.8	-48.9	21.7	6.03e-01	0	40	0	97517568	62	5353
2026-01-12 02:08:51.37	4.15	12.07	-45.8	-48.9	21.6	6.03e-01	0	41	0	99090432	62	5373
2026-01-12 02:08:52.51	4.06	12.18	-45.8	-48.8	21.7	6.03e-01	0	41	0	101187584	62	5335
2026-01-12 02:08:53.36	3.99	12.26	-45.8	-48.9	21.6	6.04e-01	0	41	0	102760448	62	5349
2026-01-12 02:08:54.49	3.89	12.37	-45.8	-48.8	21.7	6.03e-01	0	40	0	104857600	62	5320
2026-01-12 02:08:55.35	3.82	12.45	-45.9	-48.9	21.5	6.03e-01	0	41	0	106430464	62	5390
2026-01-12 02:08:56.59	3.72	12.57	-45.8	-48.9	21.7	6.04e-01	0	41	0	109051904	62	5365
2026-01-12 02:08:57.45	3.65	12.66	-45.7	-48.8	21.7	6.02e-01	0	41	0	110624768	62	5312
2026-01-12 02:08:58.58	3.55	12.77	-45.6	-48.7	21.7	6.02e-01	0	41	0	112721920	62	5276
2026-01-12 02:08:59.44	3.48	12.85	-45.6	-48.7	21.8	6.01e-01	0	41	0	114294784	62	5253
2026-01-12 02:09:00.57	3.38	12.96	-45.6	-48.7	21.7	6.01e-01	0	41	0	116391936	62	5270
2026-01-12 02:09:01.42	3.31	13.05	-45.6	-48.7	21.8	6.03e-01	0	41	0	117964800	62	5229
2026-01-12 02:09:02.56	3.21	13.16	-45.6	-48.7	21.7	6.01e-01	0	41	0	120061952	62	5219
2026-01-12 02:09:03.41	3.13	13.24	-45.6	-48.7	21.8	6.04e-01	0	41	0	121634816	62	5226
2026-01-12 02:09:04.55	3.03	13.36	-45.7	-48.7	21.9	6.03e-01	0	41	0	123731968	62	5271
2026-01-12 02:09:05.40	2.96	13.44	-45.7	-48.7	21.8	6.03e-01	0	41	0	125304832	62	5224
2026-01-12 02:09:06.54	2.85	13.56	-45.5	-48.5	22.0	6.02e-01	0	41	0	127401984	62	5133
2026-01-12 02:09:07.39	2.78	13.64	-45.5	-48.5	22.1	6.06e-01	0	41	0	128974848	62	5119
2026-01-12 02:09:08.53	2.67	13.76	-45.5	-48.6	21.9	6.04e-01	0	41	0	131596288	62	5198
2026-01-12 02:09:09.38	2.59	13.84	-45.4	-48.4	22.2	6.01e-01	0	41	0	133169152	62	5073
2026-01-12 02:09:10.52	2.49	13.96	-45.4	-48.4	22.2	6.02e-01	0	41	0	135266304	62	5060
2026-01-12 02:09:11.37	2.41	14.05	-45.4	-48.5	22.1	6.03e-01	0	41	0	136839168	62	5110
2026-01-12 02:09:12.54	2.30	14.17	-45.3	-48.4	22.2	6.01e-01	0	41	0	138936320	62	5046
2026-01-12 02:09:13.39	2.22	14.26	-45.3	-48.3	22.3	6.05e-01	0	41	0	140509184	62	4997
2026-01-12 02:09:14.52	2.11	14.37	-45.4	-48.4	22.2	6.01e-01	0	41	0	142606336	62	5063
2026-01-12 02:09:15.38	2.03	14.46	-45.4	-48.3	22.3	6.05e-01	0	41	0	144179200	62	5016
2026-01-12 02:09:16.63	1.91	14.59	-45.3	-48.3	22.3	6.04e-01	0	41	0	146276352	62	5008
2026-01-12 02:09:17.45	1.83	14.68	-45.5	-48.4	22.1	6.02e-01	0	41	0	147849216	62	5092
2026-01-12 02:09:18.58	1.71	14.80	-45.4	-48.3	22.2	6.03e-01	0	41	0	149946368	62	5024
2026-01-12 02:09:19.44	1.63	14.89	-45.3	-48.3	22.3	6.03e-01	0	41	0	152043520	62	5014
2026-01-12 02:09:20.57	1.51	15.01	-45.2	-48.4	22.2	6.00e-01	0	41	0	154140672	62	5080
2026-01-12 02:09:21.43	1.43	15.10	-45.1	-48.3	22.3	6.04e-01	0	41	0	155713536	62	5034
2026-01-12 02:09:22.56	1.31	15.22	-45.1	-48.3	22.2	6.04e-01	0	41	0	157810688	62	5012
2026-01-12 02:09:23.42	1.22	15.31	-44.9	-48.3	22.3	6.05e-01	0	41	0	159383552	61	5286
2026-01-12 02:09:24.55	1.11	15.44	-45.1	-48.4	22.2	6.03e-01	0	41	0	161480704	61	5352
2026-01-12 02:09:25.41	1.02	15.53	-45.0	-48.2	22.3	6.01e-01	0	41	0	163053568	61	5278
2026-01-12 02:09:26.54	0.90	15.65	-45.1	-48.3	22.2	6.02e-01	0	41	0	165150720	61	5318
2026-01-12 02:09:27.40	0.81	15.75	-45.1	-48.2	22.3	6.04e-01	0	41	0	166723584	61	5265
2026-01-12 02:09:28.54	0.69	15.87	-45.1	-48.2	22.4	6.03e-01	0	41	0	168820736	61	5259
2026-01-12 02:09:29.39	0.59	15.96	-45.1	-48.2	22.4	6.04e-01	0	41	0	170393600	61	5251
2026-01-12 02:09:30.57	0.47	16.10	-45.1	-48.2	22.3	6.02e-01	0	41	0	172490752	61	5250
2026-01-12 02:09:31.43	0.37	16.19	-45.1	-48.2	22.4	6.03e-01	0	41	0	174063616	61	5219
2026-01-12 02:09:32.57	0.25	16.32	-45.1	-48.1	22.5	6.04e-01	0	41	0	176685056	61	5190
2026-01-12 02:09:33.42	0.15	16.41	-45.1	-48.1	22.5	6.04e-01	0	41	0	178257920	61	5174
2026-01-12 02:09:34.56	0.02	16.54	-45.2	-48.2	22.3	6.04e-01	0	41	0	180355072	61	5252
2026-01-12 02:09:35.41	359.93	16.64	-45.1	-48.1	22.5	6.02e-01	0	41	0	181927936	61	5164
2026-01-12 02:09:36.55	359.80	16.77	-45.2	-48.1	22.5	5.99e-01	0	41	0	184025088	61	5182
2026-01-12 02:09:37.40	359.70	16.86	-45.3	-48.2	22.4	6.03e-01	0	41	0	185597952	61	5222
2026-01-12 02:09:38.54	359.57	16.99	-45.4	-48.3	22.3	6.01e-01	0	41	0	187695104	61	5302
2026-01-12 02:09:39.39	359.47	17.09	-45.3	-48.2	22.3	6.03e-01	0	41	0	189267968	61	5234
2026-01-12 02:09:40.53	359.33	17.22	-45.3	-48.2	22.3	6.06e-01	0	41	0	191365120	61	5241
2026-01-12 02:09:41.38	359.23	17.32	-45.3	-48.1	22.4	6.02e-01	0	41	0	192937984	61	5212
2026-01-12 02:09:42.51	359.10	17.45	-45.3	-48.2	22.4	6.03e-01	0	41	0	195035136	61	5237
2026-01-12 02:09:43.37	358.99	17.55	-45.4	-48.3	22.2	6.02e-01	0	41	0	196608000	61	5312
2026-01-12 02:09:44.51	358.86	17.69	-45.3	-48.2	22.4	6.03e-01	0	41	0	198705152	61	5239
2026-01-12 02:09:45.36	358.75	17.79	-45.2	-48.2	22.4	6.01e-01	0	41	0	200278016	61	5223
2026-01-12 02:09:46.51	358.61	17.92	-45.1	-48.2	22.4	6.00e-01	0	41	0	202375168	61	5220
2026-01-12 02:09:47.36	358.50	18.02	-45.1	-48.1	22.5	6.02e-01	0	41	0	203948032	61	5190
2026-01-12 02:09:48.50	358.36	18.16	-45.1	-48.2	22.4	6.03e-01	0	41	0	206045184	61	5242
2026-01-12 02:09:49.35	358.25	18.26	-45.1	-48.1	22.5	6.03e-01	0	41	0	207618048	61	5202
2026-01-12 02:09:50.62	358.09	18.41	-45.2	-48.2	22.4	6.03e-01	0	41	0	210239488	61	5271
2026-01-12 02:09:51.33	358.00	18.50	-45.2	-48.3	22.3	5.99e-01	0	41	0	211812352	61	5305
2026-01-12 02:09:52.83	357.80	18.68	-45.3	-48.5	22.2	6.00e-01	0	41	0	214433792	61	5419
2026-01-12 02:09:53.54	357.71	18.77	-45.3	-48.6	22.1	6.02e-01	0	41	0	215482368	61	5478
2026-01-12 02:09:54.82	357.54	18.92	-45.1	-48.3	22.4	6.03e-01	0	41	0	218103808	61	5298
2026-01-12 02:09:55.55	357.44	19.01	-45.2	-48.4	22.3	6.03e-01	0	41	0	219676672	61	5357
2026-01-12 02:09:56.83	357.26	19.17	-45.1	-48.2	22.4	6.01e-01	0	41	0	221773824	61	5249
2026-01-12 02:09:57.55	357.17	19.26	-45.1	-48.3	22.4	6.04e-01	0	41	0	223346688	61	5295
2026-01-12 02:09:58.83	356.99	19.42	-45.2	-48.2	22.4	6.02e-01	0	41	0	225443840	61	5276
2026-01-12 02:09:59.56	356.89	19.51	-45.2	-48.3	22.4	6.05e-01	0	41	0	227016704	61	5285
2026-01-12 02:10:00.84	356.71	19.67	-45.2	-48.3	22.3	6.03e-01	0	41	0	229638144	61	5315
2026-01-12 02:10:01.56	356.61	19.76	-45.3	-48.4	22.3	6.02e-01	0	41	0	230686720	61	5368
2026-01-12 02:10:02.84	356.42	19.92	-45.2	-48.1	22.5	6.03e-01	0	41	0	233308160	61	5186
2026-01-12 02:10:03.55	356.32	20.01	-45.3	-48.1	22.5	6.02e-01	0	41	0	234356736	61	5207
2026-01-12 02:10:04.83	356.14	20.17	-45.2	-48.1	22.6	6.01e-01	0	41	0	236978176	61	5173
2026-01-12 02:10:05.54	356.03	20.27	-45.3	-48.2	22.5	6.02e-01	0	41	0	238026752	61	5228
2026-01-12 02:10:06.82	355.84	20.43	-45.4	-48.2	22.4	6.01e-01	0	41	0	240648192	61	5268
2026-01-12 02:10:07.69	355.71	20.54	-45.3	-48.2	22.5	6.03e-01	0	41	0	242221056	61	5225
2026-01-12 02:10:09.13	355.49	20.73	-45.4	-48.2	22.5	6.04e-01	0	41	0	244842496	61	5263
2026-01-12 02:10:09.84	355.39	20.82	-45.4	-48.2	22.5	6.05e-01	0	41	0	246415360	61	5259
2026-01-12 02:10:11.12	355.19	20.99	-45.3	-48.1	22.5	6.03e-01	0	41	0	248512512	61	5217
2026-01-12 02:10:11.84	355.08	21.08	-45.3	-48.1	22.5	6.02e-01	0	41	0	250085376	61	5204
2026-01-12 02:10:13.12	354.88	21.25	-45.4	-48.2	22.5	6.00e-01	0	41	0	252706816	61	5224
2026-01-12 02:10:13.83	354.76	21.35	-45.3	-48.1	21.9	6.04e-01	0	41	0	253755392	61	5196
2026-01-12 02:10:15.11	354.56	21.52	-45.3	-48.1	22.6	6.03e-01	0	41	0	256376832	61	5195
2026-01-12 02:10:15.85	354.44	21.61	-45.3	-48.1	22.5	6.03e-01	0	41	0	257425408	61	5213
2026-01-12 02:10:17.13	354.23	21.79	-45.4	-48.2	22.5	6.04e-01	0	41	0	260046848	61	5235
2026-01-12 02:10:17.89	354.11	21.89	-45.4	-48.2	22.5	6.02e-01	0	41	0	261619712	61	5265
2026-01-12 02:10:19.17	353.90	22.06	-45.4	-48.3	22.4	6.04e-01	0	41	0	263716864	61	5329
2026-01-12 02:10:19.89	353.78	22.16	-45.4	-48.4	22.3	6.03e-01	0	41	0	265289728	61	5384
2026-01-12 02:10:21.17	353.56	22.33	-45.5	-48.6	22.2	6.06e-01	0	41	0	267386880	61	5483
2026-01-12 02:10:21.89	353.44	22.43	-45.4	-48.5	22.2	6.03e-01	0	41	0	268959744	61	5436
2026-01-12 02:10:23.17	353.22	22.61	-45.4	-48.5	22.2	6.02e-01	0	41	0	271056896	61	5463
2026-01-12 02:10:23.89	353.09	22.71	-45.4	-48.5	22.2	6.05e-01	0	41	0	272629760	61	5440
2026-01-12 02:10:25.17	352.87	22.88	-45.5	-48.6	22.2	6.06e-01	0	41	0	275251200	61	5475
2026-01-12 02:10:25.88	352.74	22.98	-45.6	-48.6	22.1	6.04e-01	0	41	0	276299776	61	5522
2026-01-12 02:10:27.16	352.51	23.16	-45.6	-48.6	22.1	6.01e-01	0	41	0	278921216	61	5493
2026-01-12 02:10:27.87	352.38	23.26	-45.6	-48.7	22.1	6.03e-01	0	41	0	279969792	61	5533
2026-01-12 02:10:29.15	352.15	23.44	-45.5	-48.5	22.3	6.03e-01	0	41	0	282591232	61	5404
2026-01-12 02:10:30.21	351.96	23.59	-45.5	-48.4	22.3	6.02e-01	0	41	0	284688384	61	5364
2026-01-12 02:10:31.08	351.79	23.71	-45.5	-48.5	22.3	6.04e-01	0	41	0	286261248	61	5403
2026-01-12 02:10:32.22	351.58	23.87	-45.2	-48.2	22.6	6.03e-01	0	41	0	288358400	61	5226
2026-01-12 02:10:33.07	351.42	23.99	-45.1	-48.3	22.4	6.03e-01	0	41	0	289931264	61	5295
2026-01-12 02:10:34.21	351.20	24.16	-45.1	-48.4	22.4	6.05e-01	0	41	0	292028416	61	5356
2026-01-12 02:10:35.06	351.04	24.28	-45.0	-48.4	22.3	6.03e-01	0	41	0	293601280	61	5366
2026-01-12 02:10:36.20	350.81	24.44	-45.0	-48.4	22.4	6.04e-01	0	41	0	295698432	61	5379
2026-01-12 02:10:37.05	350.65	24.57	-45.0	-48.3	22.4	6.02e-01	0	41	0	297271296	61	5338
2026-01-12 02:10:38.19	350.42	24.73	-45.0	-48.4	22.4	5.99e-01	0	41	0	299368448	61	5354
2026-01-12 02:10:39.14	350.23	24.87	-45.1	-48.4	22.3	6.05e-01	0	41	0	301465600	61	5393
2026-01-12 02:10:40.13	350.03	25.01	-45.1	-48.4	22.4	6.02e-01	0	41	0	303038464	61	5377
2026-01-12 02:10:41.33	349.78	25.19	-45.0	-48.3	22.4	6.03e-01	0	41	0	305135616	61	5281
2026-01-12 02:10:42.22	349.60	25.32	-45.2	-48.3	22.4	6.01e-01	0	41	0	307232768	61	5334
2026-01-12 02:10:43.53	349.32	25.51	-45.3	-48.4	22.3	6.03e-01	0	41	0	309329920	61	5387
2026-01-12 02:10:44.24	349.17	25.62	-45.4	-48.5	22.3	6.02e-01	0	41	0	310902784	61	5404
2026-01-12 02:10:45.72	348.86	25.84	-45.5	-48.5	22.3	6.02e-01	0	41	0	313524224	61	5408
2026-01-12 02:10:46.43	348.70	25.94	-45.4	-48.4	22.4	6.06e-01	0	41	0	315097088	61	5345
2026-01-12 02:10:47.77	348.41	26.15	-45.4	-48.5	22.3	6.03e-01	0	41	0	317194240	61	5410
2026-01-12 02:10:48.48	348.25	26.25	-45.3	-48.4	22.4	6.02e-01	0	41	0	318767104	61	5377
2026-01-12 02:10:49.86	347.95	26.46	-45.2	-48.3	22.5	6.05e-01	0	41	0	321388544	61	5315
2026-01-12 02:10:50.57	347.79	26.57	-45.0	-48.1	22.6	6.03e-01	0	41	0	322437120	61	5170
2026-01-12 02:10:51.84	347.50	26.76	-45.0	-48.0	22.7	6.01e-01	0	41	0	325058560	61	5108
2026-01-12 02:10:52.57	347.33	26.87	-45.0	-48.0	22.7	6.05e-01	0	41	0	326631424	61	5133
2026-01-12 02:10:53.85	347.03	27.06	-45.1	-48.0	22.8	6.02e-01	0	41	0	328728576	61	5102
2026-01-12 02:10:54.57	346.86	27.17	-45.2	-48.0	22.7	6.03e-01	0	41	0	330301440	61	5129
2026-01-12 02:10:55.85	346.56	27.37	-45.4	-48.2	22.5	6.03e-01	0	41	0	332398592	61	5244
2026-01-12 02:10:56.57	346.39	27.48	-45.4	-48.2	22.6	6.01e-01	0	41	0	333971456	61	5223
2026-01-12 02:10:57.85	346.08	27.68	-45.5	-48.2	22.6	6.03e-01	0	41	0	336068608	61	5257
2026-01-12 02:10:58.56	345.91	27.79	-45.4	-48.1	22.6	6.04e-01	0	41	0	337641472	61	5179
2026-01-12 02:10:59.83	345.59	27.98	-45.2	-47.9	22.8	6.03e-01	0	41	0	340262912	61	5067
2026-01-12 02:11:00.59	345.40	28.10	-45.3	-48.0	22.7	6.03e-01	0	41	0	341311488	61	5130
2026-01-12 02:11:02.19	345.00	28.35	-45.0	-47.7	23.0	6.02e-01	0	41	0	344457216	61	4934
2026-01-12 02:11:02.75	344.86	28.44	-44.9	-47.6	23.1	6.00e-01	0	41	0	345505792	61	4924
2026-01-12 02:11:04.67	344.36	28.74	-44.9	-47.6	23.1	6.02e-01	0	41	0	349175808	61	4891
2026-01-12 02:11:05.58	344.12	28.88	-45.0	-47.7	23.0	6.04e-01	0	41	0	350748672	61	4969
2026-01-12 02:11:06.58	343.86	29.04	-45.0	-47.8	22.9	6.01e-01	0	41	0	352845824	61	4998
2026-01-12 02:11:07.57	343.59	29.19	-45.0	-47.8	22.9	6.03e-01	0	41	0	354418688	61	5002
2026-01-12 02:11:08.56	343.33	29.35	-45.0	-47.7	23.0	5.99e-01	0	41	0	356515840	61	4940
2026-01-12 02:11:09.56	343.05	29.50	-45.0	-47.8	22.9	6.02e-01	0	41	0	358088704	61	4985
2026-01-12 02:11:10.55	342.78	29.66	-45.1	-47.7	23.0	6.01e-01	0	41	0	360185856	61	4982
2026-01-12 02:11:11.55	342.50	29.82	-45.0	-47.7	23.0	6.04e-01	0	41	0	361758720	61	4955
2026-01-12 02:11:12.54	342.22	29.98	-45.0	-47.7	23.0	6.04e-01	0	41	0	363855872	61	4955
2026-01-12 02:11:13.53	341.94	30.13	-44.9	-47.7	23.1	6.05e-01	0	41	0	365953024	61	4931
2026-01-12 02:11:14.53	341.66	30.29	-44.8	-47.6	23.1	6.04e-01	0	41	0	367525888	61	4905
2026-01-12 02:11:15.52	341.37	30.45	-44.7	-47.6	23.1	6.02e-01	0	41	0	369623040	61	4890
2026-01-12 02:11:16.52	341.08	30.61	-44.6	-47.6	23.1	6.06e-01	0	41	0	371195904	61	4876
2026-01-12 02:11:17.51	340.78	30.76	-44.5	-47.5	23.2	6.01e-01	0	41	0	373293056	61	4855
2026-01-12 02:11:18.51	340.48	30.92	-44.6	-47.5	23.1	6.00e-01	0	41	0	374865920	61	4851
2026-01-12 02:11:19.50	340.19	31.08	-44.6	-47.4	23.2	6.01e-01	0	41	0	376963072	61	4814
2026-01-12 02:11:20.50	339.88	31.24	-44.7	-47.6	23.1	6.04e-01	0	41	0	378535936	61	4880
2026-01-12 02:11:21.49	339.57	31.40	-44.8	-47.6	23.1	6.04e-01	0	41	0	380633088	61	4899
2026-01-12 02:11:22.49	339.26	31.56	-44.7	-47.6	23.1	6.04e-01	0	41	0	382730240	61	4905
2026-01-12 02:11:23.48	338.95	31.71	-44.8	-47.7	22.9	6.03e-01	0	41	0	384303104	61	4932
2026-01-12 02:11:24.48	338.63	31.87	-44.7	-47.6	23.1	6.05e-01	0	41	0	386400256	61	4909
2026-01-12 02:11:25.54	338.29	32.04	-44.8	-47.7	22.9	6.04e-01	0	41	0	387973120	61	4981
2026-01-12 02:11:26.39	338.02	32.18	-44.9	-47.8	22.9	6.02e-01	0	41	0	390070272	61	5014
2026-01-12 02:11:27.53	337.64	32.36	-44.9	-47.7	23.0	6.02e-01	0	41	0	392167424	61	4944
2026-01-12 02:11:28.38	337.36	32.49	-44.9	-47.7	23.0	6.03e-01	0	41	0	393740288	61	4970
2026-01-12 02:11:29.52	336.98	32.67	-45.0	-47.9	22.8	6.03e-01	0	41	0	395837440	61	5100
2026-01-12 02:11:30.37	336.70	32.81	-45.0	-47.9	22.8	6.03e-01	0	41	0	397410304	61	5079
2026-01-12 02:11:31.51	336.31	32.99	-44.8	-47.7	22.9	6.01e-01	0	41	0	399507456	61	4960
2026-01-12 02:11:32.36	336.01	33.12	-44.9	-47.8	22.9	6.03e-01	0	41	0	401080320	61	5041
2026-01-12 02:11:33.50	335.62	33.30	-44.8	-47.8	22.9	6.01e-01	0	41	0	403177472	61	5018
2026-01-12 02:11:34.35	335.32	33.43	-45.0	-48.0	22.7	6.02e-01	0	41	0	404750336	61	5124
2026-01-12 02:11:35.49	334.91	33.61	-45.2	-48.3	22.5	6.03e-01	0	41	0	406847488	61	5286
2026-01-12 02:11:36.34	334.61	33.75	-45.2	-48.2	22.6	6.03e-01	0	41	0	408420352	61	5242
2026-01-12 02:11:37.48	334.20	33.92	-45.1	-48.0	22.7	6.03e-01	0	41	0	410517504	61	5127
2026-01-12 02:11:38.33	333.89	34.06	-45.0	-47.9	22.8	6.03e-01	0	41	0	412090368	61	5089
2026-01-12 02:11:39.47	333.46	34.23	-45.1	-48.0	22.7	6.00e-01	0	41	0	414187520	61	5157
2026-01-12 02:11:40.33	333.14	34.37	-45.4	-48.3	22.5	6.03e-01	0	41	0	415760384	61	5310
2026-01-12 02:11:41.46	332.72	34.54	-45.7	-48.6	22.2	6.03e-01	0	41	0	418381824	61	5497
2026-01-12 02:11:42.32	332.39	34.67	-45.9	-48.8	22.0	6.01e-01	0	41	0	419954688	62	5329
2026-01-12 02:11:43.45	331.96	34.85	-45.8	-48.6	22.2	6.03e-01	0	41	0	421527552	62	5203
2026-01-12 02:11:44.31	331.62	34.98	-45.7	-48.6	22.2	6.03e-01	0	41	0	423624704	62	5172
2026-01-12 02:11:45.45	331.18	35.15	-45.5	-48.4	22.4	6.02e-01	0	41	0	425721856	62	5086
2026-01-12 02:11:46.30	330.84	35.28	-45.7	-48.7	22.1	6.02e-01	0	41	0	427294720	62	5219
2026-01-12 02:11:47.44	330.39	35.45	-45.8	-48.9	22.0	6.04e-01	0	41	0	429391872	62	5342
2026-01-12 02:11:48.29	330.04	35.58	-46.0	-49.0	21.9	6.01e-01	0	41	0	430964736	62	5421
2026-01-12 02:11:49.42	329.58	35.74	-45.8	-48.8	22.0	6.04e-01	0	41	0	433061888	62	5307
2026-01-12 02:11:50.27	329.24	35.87	-46.0	-49.0	21.9	6.05e-01	0	41	0	434634752	62	5439
2026-01-12 02:11:51.43	328.75	36.04	-45.9	-49.0	21.8	6.01e-01	0	41	0	436731904	62	5447
2026-01-12 02:11:52.28	328.40	36.16	-45.9	-49.1	21.7	6.05e-01	0	41	0	438304768	62	5497
2026-01-12 02:11:53.48	327.89	36.34	-45.9	-49.1	21.7	6.02e-01	0	41	0	440401920	62	5478
2026-01-12 02:11:54.33	327.53	36.46	-45.9	-49.0	21.8	6.01e-01	0	41	0	441974784	62	5462
2026-01-12 02:11:55.53	327.01	36.63	-46.1	-49.4	21.5	6.01e-01	0	41	0	444596224	62	5674
2026-01-12 02:11:56.39	326.64	36.75	-46.0	-49.4	21.5	6.02e-01	0	41	0	446169088	62	5676
2026-01-12 02:11:57.58	326.12	36.92	-45.9	-49.6	21.3	6.04e-01	0	41	0	448266240	62	5818
2026-01-12 02:11:58.44	325.74	37.04	-45.7	-49.4	21.4	6.02e-01	0	41	0	449839104	62	5703
2026-01-12 02:11:59.65	325.20	37.20	-45.7	-49.3	21.5	6.03e-01	0	41	0	451936256	62	5633
2026-01-12 02:12:00.51	324.81	37.32	-45.8	-49.3	21.5	6.03e-01	0	41	0	453509120	62	5654
2026-01-12 02:12:01.64	324.30	37.47	-46.0	-49.5	21.3	6.03e-01	0	41	0	456130560	62	5781
2026-01-12 02:12:02.50	323.91	37.58	-46.2	-49.7	21.1	6.04e-01	0	41	0	457703424	63	5579
2026-01-12 02:12:03.63	323.39	37.73	-46.3	-49.7	21.2	6.04e-01	0	41	0	459800576	63	5591
2026-01-12 02:12:04.49	322.99	37.84	-46.3	-49.7	21.2	6.03e-01	0	41	0	461373440	63	5558
2026-01-12 02:12:05.62	322.46	37.99	-46.3	-49.5	21.3	6.03e-01	0	41	0	463470592	63	5460
2026-01-12 02:12:06.48	322.05	38.10	-46.2	-49.5	21.4	6.03e-01	0	41	0	465043456	63	5403
2026-01-12 02:12:07.61	321.51	38.24	-46.3	-49.5	21.3	6.03e-01	0	41	0	467140608	63	5440
2026-01-12 02:12:08.47	321.10	38.35	-46.6	-49.8	21.1	6.04e-01	0	41	0	468713472	63	5626
2026-01-12 02:12:09.60	320.55	38.48	-46.7	-49.9	21.1	6.04e-01	0	41	0	470810624	63	5665
2026-01-12 02:12:10.46	320.13	38.59	-46.6	-49.8	21.0	6.04e-01	0	41	0	472383488	64	5332
2026-01-12 02:12:11.59	319.58	38.72	-46.5	-49.6	21.2	6.04e-01	0	41	0	474480640	64	5212
2026-01-12 02:12:12.44	319.16	38.82	-46.6	-49.8	21.0	6.01e-01	0	41	0	476053504	64	5281
2026-01-12 02:12:13.61	318.57	38.95	-46.5	-49.7	21.1	6.02e-01	0	41	0	478150656	64	5264
2026-01-12 02:12:14.47	318.14	39.05	-46.7	-49.9	20.9	6.04e-01	0	41	0	480247808	64	5376
2026-01-12 02:12:15.61	317.56	39.17	-46.6	-49.8	21.0	6.03e-01	0	41	0	482344960	64	5331
2026-01-12 02:12:16.46	317.13	39.26	-46.5	-49.8	21.1	6.05e-01	0	41	0	483917824	64	5289
2026-01-12 02:12:17.60	316.55	39.38	-46.4	-49.7	21.1	6.03e-01	0	41	0	486014976	64	5268
2026-01-12 02:12:18.45	316.11	39.47	-46.1	-49.3	21.5	6.03e-01	0	41	0	487587840	64	5024
2026-01-12 02:12:19.59	315.52	39.58	-46.3	-49.6	21.2	6.04e-01	0	41	0	489684992	64	5174
2026-01-12 02:12:20.44	315.07	39.67	-46.3	-49.7	21.1	6.02e-01	0	41	0	491257856	64	5223
2026-01-12 02:12:21.58	314.47	39.78	-46.3	-49.6	21.1	6.03e-01	0	41	0	493355008	64	5217
2026-01-12 02:12:22.43	314.02	39.86	-46.0	-49.4	21.4	6.03e-01	0	41	0	494927872	64	5060
2026-01-12 02:12:23.57	313.42	39.96	-46.1	-49.4	21.4	6.03e-01	0	41	0	497025024	63	5379
2026-01-12 02:12:24.42	312.96	40.04	-46.4	-49.6	21.3	6.04e-01	0	41	0	498597888	63	5500
2026-01-12 02:12:25.56	312.35	40.13	-46.5	-49.6	21.3	6.03e-01	0	41	0	500695040	63	5523
2026-01-12 02:12:26.41	311.89	40.21	-46.2	-49.2	21.6	6.04e-01	0	41	0	502267904	63	5265
2026-01-12 02:12:27.55	311.27	40.30	-46.2	-49.2	21.6	6.00e-01	0	41	0	504365056	63	5271
2026-01-12 02:12:28.40	310.80	40.36	-46.4	-49.6	21.3	6.03e-01	0	41	0	505937920	63	5519
2026-01-12 02:12:29.58	310.16	40.45	-46.5	-49.7	21.1	6.05e-01	0	41	0	508559360	63	5581
2026-01-12 02:12:30.43	309.69	40.51	-46.5	-49.8	21.1	6.05e-01	0	41	0	510132224	63	5617
2026-01-12 02:12:31.63	309.02	40.60	-46.4	-49.7	21.1	6.03e-01	0	41	0	512229376	63	5566
2026-01-12 02:12:32.49	308.54	40.66	-46.3	-49.6	21.3	6.02e-01	0	41	0	513802240	63	5498
2026-01-12 02:12:33.69	307.87	40.73	-46.3	-49.8	21.1	6.02e-01	0	41	0	515899392	63	5598
2026-01-12 02:12:34.55	307.39	40.78	-46.2	-49.6	21.2	6.02e-01	0	41	0	517472256	63	5502
2026-01-12 02:12:35.68	306.75	40.85	-46.4	-49.8	21.1	6.03e-01	0	41	0	519569408	63	5622
2026-01-12 02:12:36.54	306.27	40.90	-45.9	-49.0	21.7	6.04e-01	0	41	0	521142272	63	5144
2026-01-12 02:12:37.68	305.62	40.96	-45.8	-48.9	21.9	6.04e-01	0	41	0	523763712	63	5060
2026-01-12 02:12:38.53	305.13	41.00	-45.9	-49.0	21.7	6.01e-01	0	41	0	525336576	63	5152
2026-01-12 02:12:39.67	304.48	41.05	-46.0	-49.1	21.6	6.02e-01	0	41	0	527433728	63	5199
2026-01-12 02:12:40.52	304.00	41.08	-46.3	-49.5	21.3	5.98e-01	0	41	0	529006592	63	5420
2026-01-12 02:12:41.66	303.34	41.13	-46.0	-49.0	21.6	6.02e-01	0	41	0	531103744	64	4857
2026-01-12 02:12:42.72	302.73	41.17	-46.0	-49.0	21.4	6.02e-01	0	41	0	533200896	64	4844
2026-01-12 02:12:43.60	302.22	41.20	-46.8	-50.4	20.4	6.01e-01	0	41	0	534773760	64	5678
2026-01-12 02:12:44.74	301.57	41.23	-47.0	-50.6	20.1	6.03e-01	0	41	0	536870912	64	5853
2026-01-12 02:12:45.59	301.07	41.25	-46.7	-50.0	21.1	6.05e-01	0	41	0	538443776	63	5730
2026-01-12 02:12:46.73	300.41	41.28	-46.5	-49.6	21.3	6.02e-01	0	41	0	540540928	63	5492
2026-01-12 02:12:47.87	299.75	41.30	-46.2	-49.4	21.2	6.02e-01	0	41	0	542638080	64	5051
2026-01-12 02:12:48.72	299.26	41.31	-47.0	-50.7	20.0	6.03e-01	0	41	0	544210944	64	5903
2026-01-12 02:12:49.86	298.59	41.33	-47.0	-50.8	19.8	6.04e-01	0	41	0	546308096	64	5952
2026-01-12 02:12:50.71	298.10	41.34	-46.6	-50.0	20.9	6.03e-01	0	41	0	547880960	63	5731
2026-01-12 02:12:51.85	297.43	41.34	-46.0	-49.0	21.8	6.05e-01	0	41	0	549978112	63	5143
2026-01-12 02:12:52.70	296.94	41.35	-46.1	-49.2	21.6	6.05e-01	0	41	0	551550976	63	5222
2026-01-12 02:12:53.84	296.27	41.35	-46.3	-49.4	21.2	6.03e-01	0	41	0	553648128	64	5042
2026-01-12 02:12:54.69	295.78	41.34	-46.5	-49.7	21.1	6.03e-01	0	41	0	555220992	64	5227
2026-01-12 02:12:55.90	295.07	41.33	-46.4	-49.5	21.3	6.05e-01	0	41	0	557842432	64	5151
2026-01-12 02:12:56.76	294.57	41.33	-46.0	-48.9	21.8	6.02e-01	0	41	0	559415296	63	5078
2026-01-12 02:12:57.89	293.91	41.31	-46.3	-49.4	21.3	6.03e-01	0	41	0	561512448	64	5093
2026-01-12 02:12:58.74	293.42	41.30	-46.9	-50.3	20.7	6.04e-01	0	41	0	563085312	64	5624
2026-01-12 02:12:59.88	292.76	41.27	-46.4	-49.4	21.5	6.04e-01	0	41	0	565182464	63	5393
2026-01-12 02:13:00.73	292.26	41.25	-46.0	-48.8	22.0	6.04e-01	0	41	0	566755328	63	5005
2026-01-12 02:13:02.09	291.47	41.22	-46.4	-49.4	21.5	6.04e-01	0	41	0	569376768	63	5383
2026-01-12 02:13:02.80	291.06	41.19	-46.6	-49.7	21.2	6.01e-01	0	41	0	570425344	63	5582
2026-01-12 02:13:04.08	290.33	41.15	-45.9	-48.9	21.9	6.03e-01	0	41	0	573046784	63	5062
2026-01-12 02:13:04.80	289.91	41.13	-45.9	-48.8	22.1	6.05e-01	0	41	0	574095360	63	5004
2026-01-12 02:13:06.08	289.18	41.07	-45.9	-48.8	22.0	6.02e-01	0	41	0	576716800	63	5006
2026-01-12 02:13:06.79	288.77	41.04	-46.7	-50.0	20.9	6.01e-01	0	41	0	578289664	64	5410
2026-01-12 02:13:08.07	288.04	40.98	-46.0	-48.9	21.9	6.01e-01	0	41	0	580386816	63	5100
2026-01-12 02:13:08.88	287.58	40.94	-46.0	-49.0	21.7	6.02e-01	0	41	0	581959680	63	5126
2026-01-12 02:13:10.01	286.94	40.89	-46.9	-50.3	20.4	6.02e-01	0	41	0	584056832	64	5647
2026-01-12 02:13:10.86	286.45	40.84	-45.8	-48.6	22.2	6.03e-01	0	41	0	585629696	63	4878
2026-01-12 02:13:12.00	285.81	40.77	-46.1	-49.1	21.5	6.02e-01	0	41	0	587726848	64	4880
2026-01-12 02:13:12.85	285.33	40.72	-46.6	-49.7	21.2	6.01e-01	0	41	0	589299712	63	5592
2026-01-12 02:13:13.99	284.70	40.65	-46.2	-49.2	21.6	6.02e-01	0	41	0	591396864	64	4953
2026-01-12 02:13:14.84	284.22	40.59	-46.7	-49.9	20.7	6.01e-01	0	41	0	592969728	64	5387
2026-01-12 02:13:15.98	283.59	40.51	-46.9	-50.3	20.6	6.05e-01	0	41	0	595066880	64	5599
2026-01-12 02:13:16.83	283.12	40.45	-45.9	-48.7	21.9	6.03e-01	0	41	0	597164032	63	4975
2026-01-12 02:13:18.10	282.42	40.35	-46.9	-50.3	20.4	6.04e-01	0	41	0	599261184	64	5609
2026-01-12 02:13:18.88	282.00	40.29	-45.5	-48.2	22.5	6.04e-01	0	41	0	600834048	63	4683
2026-01-12 02:13:20.08	281.34	40.19	-46.1	-49.2	21.4	6.02e-01	0	41	0	602931200	64	4935
2026-01-12 02:13:20.94	280.88	40.12	-46.1	-49.1	21.6	6.03e-01	0	41	0	604504064	63	5216
2026-01-12 02:13:22.07	280.27	40.02	-45.6	-48.4	22.1	6.01e-01	0	41	0	606601216	63	4808
2026-01-12 02:13:22.93	279.81	39.95	-46.8	-50.2	20.6	6.05e-01	0	41	0	608174080	64	5544
2026-01-12 02:13:24.06	279.21	39.84	-45.4	-48.1	22.5	6.03e-01	0	41	0	610271232	62	4878
2026-01-12 02:13:24.92	278.75	39.76	-47.2	-50.7	20.1	6.06e-01	0	41	0	611844096	64	5900
2026-01-12 02:13:26.05	278.16	39.65	-45.4	-48.1	22.5	6.00e-01	0	41	0	613941248	62	4908
2026-01-12 02:13:26.91	277.71	39.57	-47.4	-51.2	19.8	6.06e-01	0	41	0	616038400	65	5882
2026-01-12 02:13:28.04	277.12	39.45	-45.3	-48.0	22.6	6.03e-01	0	41	0	618135552	62	4869
2026-01-12 02:13:28.90	276.67	39.36	-47.1	-50.7	20.1	6.03e-01	0	41	0	619708416	64	5900
2026-01-12 02:13:30.03	276.09	39.24	-45.4	-48.1	22.5	6.03e-01	0	41	0	621805568	62	4888
2026-01-12 02:13:30.89	275.66	39.15	-46.7	-50.0	20.6	6.03e-01	0	41	0	623378432	64	5412
2026-01-12 02:13:32.03	275.08	39.03	-45.9	-48.8	21.6	6.00e-01	0	41	0	625475584	63	5002
2026-01-12 02:13:32.88	274.65	38.93	-46.2	-49.3	21.3	6.04e-01	0	41	0	627048448	63	5298
2026-01-12 02:13:34.02	274.08	38.80	-46.6	-49.9	20.6	6.01e-01	0	41	0	629145600	64	5352
2026-01-12 02:13:34.87	273.66	38.70	-46.0	-49.0	21.8	6.04e-01	0	41	0	630718464	63	5111
2026-01-12 02:13:36.01	273.10	38.57	-47.2	-50.8	19.9	6.04e-01	0	41	0	632815616	65	5611
2026-01-12 02:13:36.86	272.68	38.46	-46.1	-49.0	21.6	6.04e-01	0	41	0	634388480	64	4848
2026-01-12 02:13:38.00	272.13	38.32	-47.1	-50.5	20.3	6.05e-01	0	41	0	636485632	64	5784
2026-01-12 02:13:38.85	271.72	38.22	-47.1	-50.5	20.1	6.05e-01	0	41	0	638058496	65	5421
2026-01-12 02:13:39.98	271.18	38.08	-46.7	-49.8	20.9	6.02e-01	0	41	0	640155648	65	5040
2026-01-12 02:13:40.83	270.78	37.97	-47.7	-51.4	19.4	6.02e-01	0	41	0	641728512	65	6056
2026-01-12 02:13:41.97	270.25	37.82	-47.2	-50.6	20.1	6.03e-01	0	41	0	643825664	66	5208
2026-01-12 02:13:42.82	269.85	37.71	-46.8	-50.1	20.7	6.05e-01	0	41	0	645398528	65	5181
2026-01-12 02:13:43.96	269.32	37.56	-47.4	-51.1	19.7	6.04e-01	0	41	0	648019968	65	5804
2026-01-12 02:13:44.81	268.93	37.45	-46.9	-50.3	20.4	6.03e-01	0	41	0	649592832	65	5327
2026-01-12 02:13:46.00	268.39	37.29	-46.6	-49.9	20.9	6.04e-01	0	41	0	651689984	65	5042
2026-01-12 02:13:46.85	268.01	37.17	-47.1	-50.6	20.2	6.03e-01	0	41	0	653262848	65	5520
2026-01-12 02:13:47.99	267.50	37.01	-46.5	-49.6	21.1	6.02e-01	0	41	0	655360000	65	4903
2026-01-12 02:13:48.84	267.12	36.89	-46.0	-48.8	21.8	6.06e-01	0	41	0	656932864	64	4759
2026-01-12 02:13:50.10	266.57	36.72	-46.8	-50.0	20.7	6.02e-01	0	41	0	659030016	64	5456
2026-01-12 02:13:50.88	266.23	36.61	-46.9	-50.2	20.5	6.05e-01	0	41	0	660602880	64	5582
2026-01-12 02:13:52.16	265.68	36.42	-46.3	-49.3	21.4	6.04e-01	0	41	0	663224320	64	5005
2026-01-12 02:13:53.30	265.19	36.26	-46.1	-49.1	21.6	6.03e-01	0	41	0	665321472	64	4905
2026-01-12 02:13:54.15	264.83	36.14	-46.7	-49.8	21.0	6.01e-01	0	41	0	666894336	64	5333
2026-01-12 02:13:55.29	264.36	35.97	-46.9	-50.2	20.5	6.05e-01	0	41	0	668991488	64	5554
2026-01-12 02:13:56.14	264.01	35.84	-46.3	-49.4	21.3	6.04e-01	0	41	0	670564352	64	5069
2026-01-12 02:13:57.31	263.52	35.67	-46.1	-49.0	21.6	6.02e-01	0	41	0	672661504	64	4862
2026-01-12 02:13:58.17	263.17	35.54	-46.3	-49.4	21.3	6.02e-01	0	41	0	674234368	64	5083
2026-01-12 02:13:59.30	262.72	35.37	-46.4	-49.6	21.2	6.02e-01	0	41	0	676331520	64	5173
2026-01-12 02:14:00.16	262.38	35.24	-46.5	-49.6	21.1	6.03e-01	0	41	0	678428672	64	5213
2026-01-12 02:14:01.29	261.93	35.07	-46.4	-49.6	21.2	6.02e-01	0	41	0	680001536	64	5174
2026-01-12 02:14:02.19	261.58	34.93	-46.2	-49.3	21.4	6.02e-01	0	41	0	682098688	64	5012
2026-01-12 02:14:03.43	261.10	34.74	-46.1	-49.2	21.6	6.04e-01	0	41	0	684195840	63	5240
2026-01-12 02:14:04.28	260.77	34.61	-46.2	-49.4	21.5	6.05e-01	0	41	0	685768704	63	5343
2026-01-12 02:14:05.42	260.34	34.44	-46.4	-49.7	21.2	6.04e-01	0	41	0	687865856	63	5534
2026-01-12 02:14:06.27	260.02	34.31	-46.4	-49.6	21.3	6.05e-01	0	41	0	689438720	63	5486
2026-01-12 02:14:07.63	259.51	34.09	-46.2	-49.2	21.6	6.04e-01	0	41	0	692060160	63	5237
2026-01-12 02:14:08.34	259.25	33.98	-46.2	-49.2	21.6	6.05e-01	0	41	0	693633024	63	5279
2026-01-12 02:14:09.62	258.78	33.78	-46.1	-49.1	21.7	6.04e-01	0	41	0	695730176	63	5198
2026-01-12 02:14:10.34	258.52	33.67	-46.1	-49.0	21.8	6.03e-01	0	41	0	697303040	63	5146
2026-01-12 02:14:11.62	258.06	33.47	-46.3	-49.4	21.4	6.02e-01	0	41	0	699400192	63	5367
2026-01-12 02:14:12.35	257.80	33.35	-46.3	-49.3	21.5	6.06e-01	0	41	0	700973056	63	5313
2026-01-12 02:14:13.63	257.35	33.15	-46.2	-49.2	21.6	6.03e-01	0	41	0	703594496	63	5256
2026-01-12 02:14:14.34	257.11	33.04	-46.2	-49.2	21.6	6.04e-01	0	41	0	704643072	63	5231
2026-01-12 02:14:15.62	256.67	32.84	-46.1	-49.2	21.6	6.02e-01	0	41	0	707264512	63	5232
2026-01-12 02:14:16.35	256.42	32.72	-46.2	-49.3	21.5	6.04e-01	0	41	0	708313088	63	5326
2026-01-12 02:14:17.62	255.99	32.52	-46.1	-49.1	21.7	6.01e-01	0	41	0	710934528	63	5209
2026-01-12 02:14:18.33	255.75	32.41	-46.1	-49.2	21.6	6.01e-01	0	41	0	711983104	63	5242
2026-01-12 02:14:19.63	255.33	32.20	-46.3	-49.4	21.5	6.04e-01	0	41	0	714604544	63	5383
2026-01-12 02:14:20.34	255.09	32.08	-46.4	-49.4	21.4	6.02e-01	0	41	0	716177408	63	5394
2026-01-12 02:14:21.63	254.68	31.88	-46.1	-49.0	21.7	6.04e-01	0	41	0	718274560	63	5135
2026-01-12 02:14:22.60	254.37	31.72	-46.0	-48.9	21.9	6.04e-01	0	41	0	720371712	63	5046
2026-01-12 02:14:23.59	254.05	31.57	-45.9	-48.7	22.0	6.02e-01	0	41	0	721944576	63	4965
2026-01-12 02:14:24.59	253.74	31.41	-45.9	-48.8	22.0	6.03e-01	0	41	0	724041728	63	4989
2026-01-12 02:14:25.58	253.43	31.25	-46.1	-49.0	21.8	6.04e-01	0	41	0	725614592	63	5150
2026-01-12 02:14:26.58	253.12	31.09	-46.4	-49.5	21.4	6.04e-01	0	41	0	727711744	63	5416
2026-01-12 02:14:27.57	252.82	30.93	-46.3	-49.4	21.4	6.03e-01	0	41	0	729808896	63	5346
2026-01-12 02:14:28.57	252.52	30.77	-45.9	-48.8	21.9	6.05e-01	0	41	0	731381760	63	5001
2026-01-12 02:14:29.56	252.23	30.61	-45.6	-48.4	22.3	6.06e-01	0	41	0	733478912	63	4774
2026-01-12 02:14:30.56	251.93	30.45	-45.7	-48.5	22.2	6.02e-01	0	41	0	735051776	63	4850
2026-01-12 02:14:31.55	251.64	30.29	-45.9	-48.9	21.9	6.01e-01	0	41	0	737148928	63	5059
2026-01-12 02:14:32.54	251.36	30.14	-45.9	-48.9	21.9	6.01e-01	0	41	0	738721792	63	5055
2026-01-12 02:14:33.54	251.07	29.98	-46.0	-49.0	21.7	6.05e-01	0	41	0	740818944	63	5117
2026-01-12 02:14:34.53	250.79	29.82	-46.0	-49.0	21.8	6.01e-01	0	41	0	742391808	63	5128
2026-01-12 02:14:35.53	250.51	29.66	-45.9	-48.9	21.8	6.02e-01	0	41	0	744488960	63	5094
2026-01-12 02:14:36.53	250.23	29.50	-45.9	-48.9	21.9	6.04e-01	0	41	0	746586112	63	5054
2026-01-12 02:14:37.52	249.96	29.35	-45.7	-48.7	22.1	6.01e-01	0	41	0	748158976	63	4927
2026-01-12 02:14:38.52	249.69	29.19	-45.8	-48.8	21.9	6.03e-01	0	41	0	750256128	63	5021
2026-01-12 02:14:39.51	249.42	29.03	-46.2	-49.3	21.4	6.04e-01	0	41	0	751828992	63	5309
2026-01-12 02:14:40.51	249.16	28.87	-45.9	-48.9	21.8	6.02e-01	0	41	0	753926144	63	5072
2026-01-12 02:14:41.50	248.90	28.72	-45.6	-48.5	22.2	6.03e-01	0	41	0	755499008	63	4833
2026-01-12 02:14:42.50	248.64	28.56	-45.6	-48.5	22.2	6.03e-01	0	41	0	757596160	63	4819
2026-01-12 02:14:43.49	248.38	28.41	-45.8	-48.8	21.9	6.02e-01	0	41	0	759169024	63	5025
2026-01-12 02:14:44.49	248.12	28.25	-46.1	-49.1	21.6	6.02e-01	0	41	0	761266176	63	5194
2026-01-12 02:14:45.49	247.87	28.09	-45.9	-48.8	21.9	6.04e-01	0	41	0	763363328	63	5029
2026-01-12 02:14:46.48	247.62	27.94	-46.0	-49.0	21.7	6.05e-01	0	41	0	764936192	63	5106
2026-01-12 02:14:47.48	247.38	27.78	-46.1	-49.1	21.6	6.01e-01	0	41	0	767033344	63	5177
2026-01-12 02:14:48.47	247.13	27.63	-46.4	-49.5	21.3	6.04e-01	0	41	0	768606208	63	5432
2026-01-12 02:14:49.46	246.89	27.48	-46.5	-49.7	21.1	6.02e-01	0	41	0	770703360	63	5558
2026-01-12 02:14:50.46	246.65	27.32	-46.2	-49.3	21.4	6.05e-01	0	41	0	772276224	63	5297
2026-01-12 02:14:51.45	246.41	27.17	-46.1	-49.2	21.5	6.05e-01	0	41	0	774373376	63	5248
2026-01-12 02:14:52.45	246.18	27.02	-46.0	-49.0	21.7	6.01e-01	0	41	0	775946240	63	5114
2026-01-12 02:14:53.44	245.95	26.87	-46.1	-49.1	21.7	6.03e-01	0	41	0	778043392	63	5172
2026-01-12 02:14:54.43	245.72	26.71	-46.0	-49.0	21.7	6.03e-01	0	41	0	780140544	63	5119
2026-01-12 02:14:55.43	245.49	26.56	-46.0	-49.0	21.7	6.02e-01	0	41	0	781713408	63	5123
2026-01-12 02:14:56.43	245.26	26.41	-46.0	-48.9	21.8	6.00e-01	0	41	0	783810560	63	5085
2026-01-12 02:14:57.42	245.04	26.26	-46.1	-49.1	21.6	6.02e-01	0	41	0	785383424	63	5183
2026-01-12 02:14:58.42	244.82	26.11	-46.3	-49.4	21.3	6.04e-01	0	41	0	787480576	63	5387
2026-01-12 02:14:59.46	244.59	25.95	-46.3	-49.4	21.4	6.05e-01	0	41	0	789577728	63	5344
2026-01-12 02:15:00.43	244.38	25.81	-46.2	-49.1	21.6	6.00e-01	0	41	0	791150592	63	5211
2026-01-12 02:15:01.49	244.15	25.65	-46.3	-49.3	21.4	6.03e-01	0	41	0	793247744	63	5307
2026-01-12 02:15:02.35	243.97	25.52	-46.2	-49.1	21.6	6.03e-01	0	41	0	794820608	63	5216
2026-01-12 02:15:03.71	243.68	25.32	-46.3	-49.3	21.4	6.07e-01	0	41	0	797442048	63	5301
2026-01-12 02:15:04.42	243.53	25.21	-46.2	-49.2	21.5	6.02e-01	0	41	0	798490624	63	5273
2026-01-12 02:15:05.70	243.26	25.03	-46.4	-49.4	21.3	6.06e-01	0	41	0	801112064	63	5374
2026-01-12 02:15:06.41	243.12	24.92	-46.2	-49.2	21.5	6.02e-01	0	41	0	802160640	63	5250
2026-01-12 02:15:07.69	242.86	24.73	-46.1	-49.1	21.6	6.02e-01	0	41	0	804782080	63	5187
2026-01-12 02:15:08.41	242.71	24.63	-46.1	-49.1	21.7	6.03e-01	0	41	0	806354944	63	5163
2026-01-12 02:15:09.69	242.46	24.44	-46.2	-49.2	21.5	6.05e-01	0	41	0	808452096	63	5262
2026-01-12 02:15:10.51	242.30	24.32	-46.3	-49.4	21.4	6.02e-01	0	41	0	810024960	63	5358
2026-01-12 02:15:11.65	242.07	24.16	-46.4	-49.4	21.3	6.02e-01	0	41	0	812122112	63	5390
2026-01-12 02:15:12.50	241.91	24.04	-46.3	-49.4	21.3	6.01e-01	0	41	0	813694976	63	5372
2026-01-12 02:15:13.64	241.69	23.87	-46.3	-49.4	21.3	6.03e-01	0	41	0	815792128	63	5360
2026-01-12 02:15:14.49	241.53	23.75	-46.1	-49.1	21.6	6.02e-01	0	41	0	817364992	63	5170
2026-01-12 02:15:15.63	241.32	23.59	-46.2	-49.2	21.5	6.03e-01	0	41	0	819462144	63	5253
2026-01-12 02:15:16.80	241.10	23.42	-46.2	-49.2	21.5	6.02e-01	0	41	0	821559296	63	5268
2026-01-12 02:15:17.82	240.91	23.28	-46.2	-49.2	21.3	6.03e-01	0	41	0	823656448	63	5261
2026-01-12 02:15:18.99	240.70	23.11	-46.1	-49.1	21.6	6.07e-01	0	41	0	825753600	63	5206
2026-01-12 02:15:19.85	240.54	22.99	-46.2	-49.2	21.5	6.04e-01	0	41	0	827326464	63	5219
2026-01-12 02:15:20.98	240.34	22.84	-46.2	-49.2	21.5	6.04e-01	0	41	0	829947904	63	5270
2026-01-12 02:15:21.83	240.19	22.72	-46.2	-49.2	21.5	6.01e-01	0	41	0	831520768	63	5246
2026-01-12 02:15:22.97	239.99	22.56	-46.3	-49.3	21.4	6.07e-01	0	41	0	833617920	63	5304
2026-01-12 02:15:23.82	239.84	22.44	-46.2	-49.2	21.5	6.05e-01	0	41	0	835190784	63	5269
2026-01-12 02:15:24.96	239.65	22.29	-46.2	-49.2	21.5	6.04e-01	0	41	0	837287936	63	5256
2026-01-12 02:15:25.81	239.50	22.17	-46.2	-49.2	21.5	6.04e-01	0	41	0	838860800	63	5243
2026-01-12 02:15:26.95	239.31	22.01	-46.3	-49.4	21.3	6.02e-01	0	41	0	840957952	63	5363
2026-01-12 02:15:27.80	239.17	21.90	-46.2	-49.3	21.4	6.03e-01	0	41	0	842530816	63	5297
2026-01-12 02:15:28.94	238.98	21.74	-46.2	-49.3	21.4	6.03e-01	0	41	0	844627968	63	5290
2026-01-12 02:15:29.79	238.84	21.63	-46.2	-49.3	21.4	6.03e-01	0	41	0	846200832	63	5336
2026-01-12 02:15:30.93	238.65	21.48	-46.2	-49.3	21.4	6.02e-01	0	41	0	848297984	63	5313
2026-01-12 02:15:31.78	238.52	21.36	-46.2	-49.4	21.3	6.07e-01	0	41	0	849870848	63	5346
2026-01-12 02:15:33.00	238.32	21.20	-46.1	-49.1	21.5	6.03e-01	0	41	0	851968000	63	5214
2026-01-12 02:15:33.85	238.19	21.09	-46.0	-49.0	21.2	6.03e-01	0	41	0	853540864	63	5141
2026-01-12 02:15:34.99	238.01	20.94	-46.1	-49.1	21.5	6.01e-01	0	41	0	856162304	63	5218
2026-01-12 02:15:35.84	237.88	20.83	-46.2	-49.4	21.4	6.00e-01	0	41	0	857735168	63	5356
2026-01-12 02:15:36.98	237.70	20.68	-46.3	-49.5	21.2	6.06e-01	0	41	0	859832320	63	5420
2026-01-12 02:15:37.83	237.57	20.57	-46.2	-49.3	21.4	6.06e-01	0	41	0	861405184	63	5296
2026-01-12 02:15:39.16	237.37	20.39	-46.1	-49.1	21.5	6.01e-01	0	41	0	864026624	63	5198
2026-01-12 02:15:39.87	237.26	20.30	-46.1	-49.2	21.5	6.03e-01	0	41	0	865075200	63	5237
2026-01-12 02:15:41.14	237.08	20.14	-46.3	-49.4	21.3	6.02e-01	0	41	0	867696640	63	5363
2026-01-12 02:15:41.86	236.97	20.04	-46.2	-49.4	21.3	6.03e-01	0	41	0	868745216	63	5346
2026-01-12 02:15:43.14	236.78	19.88	-46.1	-49.1	21.5	6.03e-01	0	41	0	871366656	63	5212
2026-01-12 02:15:43.86	236.68	19.79	-46.1	-49.1	21.5	6.03e-01	0	41	0	872415232	63	5193
2026-01-12 02:15:45.14	236.50	19.63	-45.9	-48.9	21.7	6.03e-01	0	41	0	875036672	63	5059
2026-01-12 02:15:45.86	236.39	19.54	-45.9	-48.9	21.7	6.05e-01	0	41	0	876085248	63	5081
2026-01-12 02:15:47.13	236.21	19.38	-45.8	-48.9	21.7	6.03e-01	0	41	0	878706688	63	5053
2026-01-12 02:15:47.85	236.11	19.29	-46.0	-49.1	21.6	6.02e-01	0	41	0	880279552	63	5160
2026-01-12 02:15:49.12	235.94	19.13	-46.0	-49.1	21.5	6.02e-01	0	41	0	882376704	63	5201
2026-01-12 02:15:50.07	235.81	19.01	-46.0	-49.2	21.5	6.01e-01	0	41	0	884473856	63	5231
2026-01-12 02:15:51.38	235.63	18.85	-46.1	-49.4	21.3	6.03e-01	0	41	0	886571008	63	5348
2026-01-12 02:15:52.09	235.54	18.76	-46.0	-49.1	21.5	6.04e-01	0	41	0	888143872	63	5189
2026-01-12 02:15:53.37	235.36	18.60	-45.9	-49.0	21.6	6.03e-01	0	41	0	890241024	63	5113
2026-01-12 02:15:54.18	235.26	18.51	-46.0	-49.0	21.6	6.05e-01	0	41	0	891813888	63	5156
2026-01-12 02:15:55.63	235.07	18.33	-46.1	-49.2	21.4	6.03e-01	0	41	0	894435328	63	5247
2026-01-12 02:15:56.34	234.98	18.24	-46.2	-49.3	21.2	6.05e-01	0	41	0	896008192	63	5338
2026-01-12 02:15:57.62	234.81	18.09	-46.2	-49.3	21.3	6.06e-01	0	41	0	898629632	63	5337
2026-01-12 02:15:58.34	234.72	18.00	-46.1	-49.2	21.4	6.01e-01	0	41	0	899678208	63	5250
2026-01-12 02:15:59.62	234.56	17.85	-46.0	-49.1	21.5	6.02e-01	0	41	0	902299648	63	5200
2026-01-12 02:16:00.34	234.47	17.77	-46.0	-49.0	21.6	6.03e-01	0	41	0	903348224	63	5148
2026-01-12 02:16:01.62	234.31	17.61	-45.9	-48.9	21.7	6.05e-01	0	41	0	905969664	63	5079
2026-01-12 02:16:02.41	234.21	17.52	-45.9	-48.9	21.7	6.05e-01	0	41	0	907542528	63	5097
2026-01-12 02:16:03.58	234.07	17.38	-45.9	-49.0	21.6	6.00e-01	0	41	0	909639680	63	5112
2026-01-12 02:16:04.43	233.97	17.28	-46.0	-49.1	21.5	6.03e-01	0	41	0	911212544	63	5203
2026-01-12 02:16:05.57	233.83	17.15	-46.1	-49.3	21.3	6.04e-01	0	41	0	913309696	63	5282
2026-01-12 02:16:06.42	233.73	17.05	-46.2	-49.3	21.3	6.05e-01	0	41	0	914882560	63	5302
2026-01-12 02:16:07.56	233.59	16.92	-46.2	-49.3	21.2	6.03e-01	0	41	0	916979712	63	5333
2026-01-12 02:16:08.41	233.49	16.82	-46.2	-49.3	21.3	6.02e-01	0	41	0	918552576	63	5295
2026-01-12 02:16:09.55	233.36	16.69	-46.1	-49.2	21.4	6.04e-01	0	41	0	920649728	63	5231
2026-01-12 02:16:10.40	233.26	16.60	-46.0	-49.0	21.5	6.03e-01	0	41	0	922222592	63	5130
2026-01-12 02:16:11.56	233.13	16.47	-46.0	-48.9	21.6	6.05e-01	0	41	0	924319744	63	5086
2026-01-12 02:16:12.41	233.03	16.37	-46.0	-49.0	21.6	6.02e-01	0	41	0	925892608	63	5107
2026-01-12 02:16:13.61	232.90	16.23	-46.0	-49.0	21.6	6.03e-01	0	41	0	928514048	63	5103
2026-01-12 02:16:14.46	232.80	16.14	-46.0	-49.0	21.5	6.01e-01	0	41	0	930086912	63	5158
2026-01-12 02:16:15.68	232.67	16.00	-46.2	-49.3	21.3	6.02e-01	0	41	0	932184064	63	5293
2026-01-12 02:16:16.53	232.58	15.91	-46.2	-49.3	21.3	6.04e-01	0	41	0	933756928	63	5309
2026-01-12 02:16:17.67	232.45	15.78	-46.3	-49.4	21.2	6.01e-01	0	41	0	935854080	63	5360
2026-01-12 02:16:18.52	232.36	15.69	-46.3	-49.3	21.2	6.03e-01	0	41	0	937426944	63	5333
2026-01-12 02:16:19.66	232.24	15.56	-46.2	-49.2	21.4	6.06e-01	0	41	0	939524096	63	5241
2026-01-12 02:16:20.51	232.15	15.47	-46.0	-49.0	21.5	6.02e-01	0	41	0	941096960	63	5119
2026-01-12 02:16:21.64	232.03	15.35	-46.0	-49.0	21.6	6.02e-01	0	41	0	943194112	63	5126
2026-01-12 02:16:22.50	231.94	15.25	-46.1	-49.0	21.5	6.02e-01	0	41	0	944766976	63	5158
2026-01-12 02:16:23.63	231.82	15.13	-46.0	-49.0	21.6	6.02e-01	0	41	0	947388416	63	5107
2026-01-12 02:16:24.48	231.73	15.04	-46.1	-49.1	21.5	6.05e-01	0	41	0	948961280	63	5184
2026-01-12 02:16:25.62	231.62	14.92	-46.2	-49.2	21.4	6.02e-01	0	41	0	951058432	63	5244
2026-01-12 02:16:26.47	231.53	14.83	-46.3	-49.4	21.2	6.04e-01	0	41	0	952631296	63	5358
2026-01-12 02:16:27.61	231.42	14.71	-46.4	-49.4	21.1	6.05e-01	0	41	0	954728448	63	5401
2026-01-12 02:16:28.73	231.31	14.59	-46.3	-49.5	21.1	6.04e-01	0	41	0	956825600	63	5408
2026-01-12 02:16:29.76	231.20	14.48	-46.4	-49.5	21.1	6.02e-01	0	41	0	958398464	63	5448
2026-01-12 02:16:30.94	231.09	14.36	-46.3	-49.5	21.1	6.03e-01	0	41	0	961019904	63	5431
2026-01-12 02:16:31.81	231.00	14.27	-46.3	-49.5	21.1	6.02e-01	0	41	0	962592768	63	5450
2026-01-12 02:16:33.10	230.88	14.13	-46.2	-49.4	21.1	6.04e-01	0	41	0	964689920	63	5377
2026-01-12 02:16:33.81	230.81	14.06	-46.3	-49.4	21.1	6.05e-01	0	41	0	966262784	63	5380
2026-01-12 02:16:35.09	230.69	13.93	-46.3	-49.5	21.1	6.02e-01	0	41	0	968359936	63	5425
2026-01-12 02:16:35.82	230.62	13.85	-46.2	-49.4	21.2	6.02e-01	0	41	0	969932800	63	5353
2026-01-12 02:16:37.10	230.50	13.72	-46.3	-49.5	21.1	6.02e-01	0	41	0	972554240	63	5422
2026-01-12 02:16:37.88	230.43	13.64	-46.3	-49.5	21.0	6.03e-01	0	41	0	974127104	63	5418
2026-01-12 02:16:39.10	230.32	13.52	-46.2	-49.3	21.3	6.03e-01	0	41	0	976224256	63	5286
2026-01-12 02:16:39.95	230.24	13.43	-46.2	-49.2	21.3	6.02e-01	0	41	0	977797120	63	5264
2026-01-12 02:16:41.09	230.13	13.32	-46.2	-49.2	21.3	6.05e-01	0	41	0	979894272	63	5270
2026-01-12 02:16:41.94	230.06	13.23	-46.2	-49.2	21.3	6.04e-01	0	41	0	981467136	63	5268
2026-01-12 02:16:43.08	229.96	13.12	-46.3	-49.4	21.2	6.01e-01	0	41	0	983564288	63	5346
2026-01-12 02:16:43.93	229.88	13.03	-46.3	-49.4	21.1	6.00e-01	0	41	0	985137152	63	5396
2026-01-12 02:16:45.07	229.78	12.92	-46.4	-49.6	20.9	6.04e-01	0	41	0	987234304	63	5493
2026-01-12 02:16:45.92	229.71	12.83	-46.4	-49.5	21.0	6.04e-01	0	41	0	988807168	63	5451
2026-01-12 02:16:47.06	229.61	12.72	-46.4	-49.6	20.9	6.02e-01	0	41	0	990904320	63	5485
2026-01-12 02:16:47.91	229.53	12.64	-46.4	-49.6	20.9	6.05e-01	0	41	0	992477184	63	5526
2026-01-12 02:16:49.05	229.44	12.53	-46.4	-49.6	20.9	6.03e-01	0	41	0	994574336	63	5494
2026-01-12 02:16:49.90	229.36	12.45	-46.2	-49.4	21.1	6.05e-01	0	41	0	996147200	63	5379
2026-01-12 02:16:51.03	229.27	12.34	-46.3	-49.5	21.0	6.03e-01	0	41	0	998768640	63	5407
2026-01-12 02:16:51.89	229.20	12.25	-46.2	-49.4	21.1	6.02e-01	0	41	0	1000341504	63	5374
2026-01-12 02:16:53.02	229.10	12.14	-46.3	-49.4	21.1	6.04e-01	0	40	0	1002438656	63	5402
2026-01-12 02:16:53.87	229.03	12.06	-46.3	-49.5	20.9	6.08e-01	0	41	0	1004011520	63	5443
2026-01-12 02:16:55.01	228.94	11.95	-46.3	-49.5	21.0	6.01e-01	0	41	0	1006108672	63	5434
2026-01-12 02:16:55.86	228.87	11.87	-46.3	-49.6	20.9	6.03e-01	0	41	0	1007681536	63	5468
2026-01-12 02:16:57.00	228.78	11.76	-46.5	-49.7	20.8	5.98e-01	0	41	0	1009778688	63	5577
2026-01-12 02:16:57.85	228.71	11.68	-46.5	-49.8	20.7	6.05e-01	0	41	0	1011351552	63	5639
2026-01-12 02:16:58.99	228.62	11.58	-46.6	-49.9	20.6	6.02e-01	0	41	0	1013448704	63	5683
2026-01-12 02:16:59.84	228.55	11.50	-46.6	-49.9	20.6	6.04e-01	0	41	0	1015021568	63	5708
2026-01-12 02:17:00.98	228.46	11.39	-46.6	-50.0	20.4	6.04e-01	0	40	0	1017118720	64	5451
2026-01-12 02:17:01.84	228.40	11.31	-46.7	-50.2	20.2	6.04e-01	0	41	0	1018691584	64	5552
2026-01-12 02:17:03.11	228.30	11.19	-46.7	-50.1	20.4	6.02e-01	0	41	0	1021313024	64	5480
2026-01-12 02:17:03.83	228.24	11.13	-46.6	-50.0	20.4	6.04e-01	0	41	0	1022361600	64	5438
2026-01-12 02:17:05.10	228.15	11.01	-46.6	-50.1	20.4	6.04e-01	0	41	0	1024983040	64	5465
2026-01-12 02:17:05.82	228.09	10.94	-46.5	-49.9	20.5	6.03e-01	0	41	0	1026031616	64	5342
2026-01-12 02:17:07.09	228.00	10.83	-46.5	-49.8	20.6	6.03e-01	0	41	0	1028653056	64	5330
2026-01-12 02:17:07.82	227.94	10.76	-46.4	-49.8	20.6	6.02e-01	0	41	0	1030225920	64	5293
2026-01-12 02:17:09.10	227.85	10.65	-46.4	-49.8	20.6	6.04e-01	0	41	0	1032323072	64	5285
2026-01-12 02:17:09.81	227.79	10.58	-46.4	-49.7	20.6	6.03e-01	0	41	0	1033895936	64	5252
2026-01-12 02:17:11.09	227.70	10.47	-46.4	-49.7	20.7	5.99e-01	0	41	0	1035993088	64	5239
2026-01-12 02:17:11.82	227.65	10.40	-46.3	-49.7	20.6	6.03e-01	0	41	0	1037565952	64	5235
2026-01-12 02:17:13.09	227.55	10.29	-46.3	-49.7	20.6	6.04e-01	0	41	0	1039663104	64	5240
2026-01-12 02:17:13.80	227.50	10.22	-46.3	-49.7	20.6	6.00e-01	0	41	0	1041235968	64	5258
2026-01-12 02:17:15.08	227.41	10.11	-46.4	-49.8	20.5	6.02e-01	0	41	0	1043857408	64	5339
2026-01-12 02:17:15.79	227.36	10.05	-46.4	-49.9	20.5	6.02e-01	0	40	0	1044905984	64	5341
2026-01-12 02:17:17.07	227.27	9.94	-46.4	-49.8	20.5	6.04e-01	0	41	0	1047527424	64	5288
2026-01-12 02:17:17.78	227.22	9.87	-46.4	-49.7	20.6	6.03e-01	0	41	0	1048576000	64	5252
2026-01-12 02:17:19.06	227.13	9.76	-46.5	-49.9	20.4	6.02e-01	0	41	0	1051197440	64	5353
2026-01-12 02:17:19.79	227.08	9.70	-46.5	-49.8	20.5	6.01e-01	0	41	0	1052246016	64	5325
2026-01-12 02:17:21.07	227.00	9.59	-46.5	-49.9	20.4	6.03e-01	0	41	0	1054867456	64	5378
2026-01-12 02:17:21.79	226.95	9.52	-46.6	-50.0	20.3	6.03e-01	0	41	0	1056440320	64	5445
2026-01-12 02:17:23.07	226.86	9.41	-46.6	-50.0	20.3	6.05e-01	0	41	0	1058537472	64	5461
2026-01-12 02:17:23.78	226.81	9.35	-46.5	-50.0	20.3	6.05e-01	0	41	0	1060110336	64	5423
2026-01-12 02:17:25.06	226.73	9.24	-46.6	-50.1	20.2	6.03e-01	0	41	0	1062207488	64	5478
2026-01-12 02:17:25.79	226.68	9.18	-46.5	-50.0	20.3	6.06e-01	0	41	0	1063780352	64	5453
2026-01-12 02:17:27.07	226.60	9.07	-46.6	-50.1	20.2	6.06e-01	0	41	0	1065877504	64	5478
2026-01-12 02:17:27.78	226.55	9.01	-49.7	-55.5	16.0	6.04e-01	0	41	0	1067450368	69	7710
2026-01-12 02:17:29.05	226.47	8.90	-51.9	-71.3	3.8	7.47e-01	0	40	104	1067974656	74	35630
2026-01-12 02:17:29.76	226.42	8.84	-52.1	-71.9	3.8	7.44e-01	0	41	104	1067974656	74	37827
2026-01-12 02:17:31.04	226.34	8.74	-51.7	-72.0	3.8	7.47e-01	0	41	104	1067974656	74	38417
2026-01-12 02:17:31.75	226.29	8.68	-51.9	-72.1	3.8	7.44e-01	0	41	104	1067974656	74	38885
2026-01-12 02:17:33.03	226.21	8.57	-52.2	-72.2	3.8	7.48e-01	0	41	104	1067974656	75	37142
2026-01-12 02:17:33.74	226.17	8.51	-52.3	-72.2	3.8	7.47e-01	0	40	104	1067974656	75	37276
2026-01-12 02:17:35.01	226.09	8.41	-52.2	-72.3	3.8	7.46e-01	0	41	104	1067974656	75	37433
2026-01-12 02:17:35.72	226.04	8.35	-52.2	-72.2	3.8	7.46e-01	0	40	104	1067974656	75	37360
2026-01-12 02:17:37.00	225.97	8.24	-52.1	-72.3	3.8	7.47e-01	0	41	104	1067974656	75	37510
2026-01-12 02:17:37.73	225.92	8.18	-52.2	-72.3	3.8	7.46e-01	0	41	104	1067974656	75	37529
2026-01-12 02:17:39.00	225.84	8.08	-52.2	-72.3	3.8	7.43e-01	0	41	104	1067974656	75	37481
2026-01-12 02:17:39.71	225.80	8.02	-52.0	-72.3	3.8	7.49e-01	0	41	104	1067974656	75	37417
2026-01-12 02:17:41.00	225.72	7.91	-52.2	-72.3	3.8	7.45e-01	0	41	104	1067974656	75	37445
2026-01-12 02:17:41.71	225.68	7.86	-51.9	-72.3	3.8	7.48e-01	0	41	104	1067974656	75	37452
2026-01-12 02:17:42.99	225.60	7.75	-51.9	-72.3	3.8	7.43e-01	0	41	104	1067974656	75	37424
2026-01-12 02:17:43.70	225.56	7.70	-51.9	-72.2	3.8	7.45e-01	0	41	104	1067974656	75	37372
2026-01-12 02:17:44.98	225.49	7.59	-51.8	-72.2	3.8	7.46e-01	0	41	104	1067974656	75	37321
2026-01-12 02:17:45.69	225.45	7.54	-51.9	-72.3	3.8	7.46e-01	0	41	104	1067974656	75	37424
2026-01-12 02:17:46.96	225.37	7.44	-52.1	-72.3	3.8	7.45e-01	0	41	104	1067974656	75	37378
2026-01-12 02:17:47.69	225.33	7.38	-52.0	-72.2	3.8	7.47e-01	0	41	104	1067974656	75	37275
2026-01-12 02:17:48.97	225.26	7.28	-51.8	-72.2	3.8	7.46e-01	0	40	104	1067974656	75	37233
2026-01-12 02:17:49.68	225.22	7.22	-51.8	-72.2	3.8	7.49e-01	0	40	104	1067974656	75	37198
2026-01-12 02:17:50.95	225.14	7.12	-51.8	-72.2	3.8	7.46e-01	0	41	104	1067974656	75	37110
2026-01-12 02:17:51.66	225.10	7.06	-51.8	-72.2	3.8	7.47e-01	0	41	104	1067974656	75	37128
2026-01-12 02:17:52.94	225.03	6.96	-51.8	-72.2	3.8	7.48e-01	0	41	104	1067974656	75	37069
2026-01-12 02:17:53.67	224.99	6.91	-51.8	-72.2	3.8	7.44e-01	0	41	104	1067974656	75	37181
2026-01-12 02:17:54.94	224.92	6.81	-51.8	-72.2	3.8	7.46e-01	0	41	104	1067974656	75	37171
2026-01-12 02:17:55.65	224.88	6.75	-51.8	-72.2	3.8	7.44e-01	0	41	104	1067974656	75	37069
2026-01-12 02:17:56.93	224.81	6.65	-51.8	-72.2	3.8	7.48e-01	0	41	104	1067974656	75	37095
2026-01-12 02:17:57.64	224.78	6.60	-51.8	-72.2	3.8	7.47e-01	0	41	104	1067974656	75	37140
2026-01-12 02:17:58.92	224.71	6.50	-51.7	-72.2	3.8	7.44e-01	0	41	104	1067974656	75	37011
2026-01-12 02:17:59.64	224.67	6.45	-51.8	-72.2	3.8	7.46e-01	0	41	104	1067974656	75	37026
2026-01-12 02:18:00.92	224.60	6.35	-51.8	-72.2	3.8	7.46e-01	0	41	104	1067974656	75	37035
2026-01-12 02:18:01.63	224.56	6.29	-51.8	-72.2	3.8	7.44e-01	0	41	104	1067974656	75	37039
2026-01-12 02:18:02.91	224.50	6.20	-51.8	-72.2	3.8	7.46e-01	0	41	104	1067974656	75	37071
2026-01-12 02:18:03.62	224.46	6.14	-51.8	-72.2	3.8	7.43e-01	0	41	104	1067974656	75	37067
2026-01-12 02:18:04.90	224.39	6.05	-51.8	-72.2	3.8	7.48e-01	0	41	104	1067974656	75	37036
2026-01-12 02:18:05.61	224.35	5.99	-51.8	-72.2	3.8	7.43e-01	0	41	104	1067974656	75	36980
2026-01-12 02:18:06.88	224.29	5.90	-51.8	-72.2	3.8	7.45e-01	0	41	104	1067974656	75	36993
2026-01-12 02:18:07.61	224.25	5.84	-51.8	-72.2	3.8	7.48e-01	0	41	104	1067974656	75	37082
2026-01-12 02:18:08.89	224.19	5.75	-51.8	-72.2	3.8	7.46e-01	0	41	104	1067974656	75	37052
2026-01-12 02:18:09.63	224.15	5.69	-51.7	-72.1	3.8	7.45e-01	0	41	104	1067974656	75	36914
2026-01-12 02:18:10.90	224.09	5.60	-51.7	-72.2	3.8	7.48e-01	0	41	104	1067974656	75	37050
2026-01-12 02:18:11.61	224.05	5.55	-51.8	-72.2	3.8	7.47e-01	0	41	104	1067974656	75	37020
2026-01-12 02:18:12.90	223.99	5.45	-51.7	-72.2	3.8	7.47e-01	0	41	104	1067974656	75	37014
2026-01-12 02:18:13.61	223.95	5.40	-51.7	-72.2	3.8	7.46e-01	0	41	104	1067974656	75	37036
2026-01-12 02:18:14.89	223.89	5.31	-51.7	-72.2	3.8	7.48e-01	0	41	104	1067974656	75	36966
2026-01-12 02:18:15.60	223.85	5.25	-51.7	-72.2	3.8	7.48e-01	0	41	104	1067974656	75	37011
2026-01-12 02:18:16.88	223.79	5.16	-51.7	-72.2	3.8	7.48e-01	0	41	104	1067974656	75	37095
2026-01-12 02:18:17.60	223.76	5.11	-51.8	-72.2	3.8	7.48e-01	0	41	104	1067974656	75	36977
2026-01-12 02:18:18.88	223.70	5.01	-51.7	-72.1	3.8	7.44e-01	0	41	104	1067974656	75	36943
2026-01-12 02:18:19.59	223.66	4.96	-51.8	-72.2	3.8	7.47e-01	0	41	104	1067974656	75	37014

#Closed at: 2026-01-12 02:18:20
#Recorded file [1067 MB]: D:/Data/31040_260112_050726.dat