passes_logs/2026/01/12/T1/T1__20260112_023321_FENGYUN_3G_rec.log

#Pass ID: 20260112_023321_FENGYUN 3G
#Satellite: FENGYUN 3G
#Configuration: FENGYUN 3G
#almurnet v.1.7.20251203
#Start time: 2026-01-12 02:33:21

#Version: 2.0.20230620
#Station: T1
#Location: 37.570604 lon 55.790049 lat
#TLE: 1 56232U 23055A   26011.25391515  .00034535  00000+0  54118-3 0  9995
#TLE: 2 56232  49.9937  75.2574 0004230   9.7874 350.3175 15.53326427155615

#Time	Az	El	Level	Level2	SNR	BER	BlckErr	Temp	State	Recorded	gain1	gain2
2026-01-12 02:33:21.73	258.94	5.06	-50.2	-69.1	3.8	8.46e-01	0	37	0	0	72	31042
2026-01-12 02:33:22.72	258.81	5.12	-50.2	-69.1	3.8	8.38e-01	0	37	104	0	72	30952
2026-01-12 02:33:23.71	258.69	5.19	-50.2	-69.1	3.8	8.47e-01	0	37	104	0	72	30889
2026-01-12 02:33:24.70	258.56	5.26	-50.2	-69.1	3.8	8.48e-01	0	37	104	0	72	30889
2026-01-12 02:33:25.70	258.44	5.33	-50.2	-69.1	3.8	8.48e-01	0	37	104	0	72	30892
2026-01-12 02:33:26.69	258.31	5.40	-50.1	-69.1	3.8	8.47e-01	0	37	104	0	72	30827
2026-01-12 02:33:27.68	258.18	5.47	-50.1	-69.1	3.8	8.46e-01	0	37	104	0	72	30913
2026-01-12 02:33:28.68	258.05	5.54	-50.2	-69.1	3.8	8.46e-01	0	37	104	0	72	31014
2026-01-12 02:33:29.67	257.93	5.60	-50.1	-69.1	3.8	8.46e-01	0	37	104	0	72	30951
2026-01-12 02:33:30.66	257.80	5.67	-50.1	-69.1	3.8	8.47e-01	0	37	104	0	72	30820
2026-01-12 02:33:31.66	257.66	5.74	-50.1	-69.0	3.8	8.47e-01	0	37	104	0	72	30634
2026-01-12 02:33:32.65	257.53	5.81	-50.1	-69.0	3.8	8.46e-01	0	37	104	0	72	30633
2026-01-12 02:33:33.64	257.40	5.88	-50.1	-69.0	3.8	8.47e-01	0	37	104	0	72	30578
2026-01-12 02:33:34.64	257.27	5.95	-50.2	-69.1	3.8	8.47e-01	0	37	104	0	72	30755
2026-01-12 02:33:35.63	257.13	6.02	-50.1	-69.1	3.8	8.47e-01	0	38	104	0	72	30850
2026-01-12 02:33:36.63	256.99	6.09	-50.1	-69.1	3.8	8.47e-01	0	37	104	0	72	30776
2026-01-12 02:33:37.62	256.86	6.16	-50.1	-69.1	3.8	8.47e-01	0	37	104	0	72	30891
2026-01-12 02:33:38.61	256.72	6.23	-50.1	-69.1	3.8	8.47e-01	0	37	104	0	72	30844
2026-01-12 02:33:39.61	256.58	6.31	-50.1	-69.1	3.8	8.46e-01	0	38	104	0	72	30797
2026-01-12 02:33:40.60	256.44	6.38	-50.1	-69.0	3.8	8.48e-01	0	38	104	0	72	30615
2026-01-12 02:33:41.59	256.30	6.45	-50.1	-69.0	3.8	8.48e-01	0	38	104	0	72	30633
2026-01-12 02:33:42.59	256.16	6.52	-50.1	-69.0	3.8	8.47e-01	0	37	104	0	72	30634
2026-01-12 02:33:43.58	256.02	6.59	-50.1	-69.1	3.8	8.46e-01	0	38	104	0	72	30758
2026-01-12 02:33:44.57	255.88	6.66	-50.1	-69.0	3.8	8.46e-01	0	38	104	0	72	30709
2026-01-12 02:33:45.57	255.73	6.74	-50.1	-69.1	3.8	8.46e-01	0	38	104	0	72	30804
2026-01-12 02:33:46.56	255.59	6.81	-50.1	-69.1	3.8	8.47e-01	0	38	104	0	72	31007
2026-01-12 02:33:47.55	255.44	6.88	-50.1	-69.1	3.8	8.47e-01	0	38	104	0	72	30936
2026-01-12 02:33:48.55	255.29	6.95	-50.1	-69.1	3.8	8.47e-01	0	38	104	0	72	30855
2026-01-12 02:33:49.54	255.14	7.02	-50.1	-69.1	3.8	8.47e-01	0	38	104	0	72	30791
2026-01-12 02:33:50.54	254.99	7.10	-50.1	-69.0	3.8	8.47e-01	0	38	104	0	72	30555
2026-01-12 02:33:51.53	254.84	7.17	-50.1	-69.0	3.8	8.46e-01	0	38	104	0	72	30424
2026-01-12 02:33:52.52	254.69	7.24	-50.1	-68.9	3.8	8.46e-01	0	38	104	0	72	30283
2026-01-12 02:33:53.52	254.54	7.32	-50.1	-68.9	3.8	8.46e-01	0	38	104	0	72	30310
2026-01-12 02:33:54.51	254.39	7.39	-50.1	-69.0	3.8	8.48e-01	0	38	104	0	72	30432
2026-01-12 02:33:55.50	254.23	7.46	-50.1	-69.0	3.8	8.46e-01	0	38	104	0	72	30536
2026-01-12 02:33:56.50	254.07	7.54	-50.1	-69.0	3.8	8.46e-01	0	38	104	0	72	30447
2026-01-12 02:33:57.49	253.92	7.61	-50.1	-68.8	3.8	8.47e-01	0	38	104	0	72	29733
2026-01-12 02:33:58.48	253.76	7.69	-50.1	-68.4	3.8	8.46e-01	0	38	104	0	72	28577
2026-01-12 02:33:59.48	253.60	7.76	-50.1	-68.1	3.8	8.46e-01	0	38	104	0	72	27657
2026-01-12 02:34:00.47	253.44	7.83	-50.1	-67.9	3.8	8.47e-01	0	38	104	0	72	27064
2026-01-12 02:34:01.46	253.28	7.91	-50.1	-68.0	3.8	8.47e-01	0	38	104	0	72	27106
2026-01-12 02:34:02.46	253.11	7.98	-50.1	-68.2	3.8	8.47e-01	0	38	104	0	72	27988
2026-01-12 02:34:03.45	252.95	8.06	-50.1	-68.7	3.8	8.47e-01	0	38	104	0	72	29510
2026-01-12 02:34:04.44	252.79	8.13	-50.1	-69.0	3.8	8.47e-01	0	38	104	0	72	30432
2026-01-12 02:34:05.44	252.62	8.21	-50.1	-69.0	3.8	8.46e-01	0	38	104	0	72	30439
2026-01-12 02:34:06.43	252.45	8.29	-50.1	-68.9	3.8	8.46e-01	0	38	104	0	72	30183
2026-01-12 02:34:07.42	252.28	8.36	-50.1	-68.9	3.8	8.47e-01	0	38	104	0	72	30172
2026-01-12 02:34:08.42	252.11	8.44	-50.1	-69.0	3.8	8.47e-01	0	38	104	0	72	30567
2026-01-12 02:34:09.41	251.94	8.51	-50.1	-69.0	3.8	8.47e-01	0	38	104	0	72	30668
2026-01-12 02:34:10.40	251.77	8.59	-50.1	-68.6	3.8	8.46e-01	0	38	104	0	72	29171
2026-01-12 02:34:11.40	251.60	8.67	-50.1	-66.9	3.8	8.47e-01	0	38	104	0	72	23949
2026-01-12 02:34:12.39	251.42	8.74	-49.9	-63.3	5.1	8.47e-01	0	39	0	0	71	16801
2026-01-12 02:34:13.38	251.25	8.82	-49.5	-58.9	8.7	8.00e-01	0	38	0	0	71	10135
2026-01-12 02:34:14.38	251.07	8.90	-48.7	-55.7	12.0	8.12e-02	0	38	0	0	69	7879
2026-01-12 02:34:15.37	250.89	8.97	-47.6	-52.7	15.0	8.12e-02	0	38	0	0	67	6267
2026-01-12 02:34:16.36	250.71	9.05	-47.7	-52.9	15.7	9.26e-05	0	38	0	0	65	7176
2026-01-12 02:34:17.36	250.53	9.13	-50.3	-66.7	4.0	3.05e-01	0	39	0	0	71	24975
2026-01-12 02:34:18.35	250.35	9.20	-46.2	-50.1	17.7	3.05e-01	0	39	0	0	64	5521
2026-01-12 02:34:19.36	250.16	9.28	-47.5	-52.7	15.2	3.89e-01	0	38	0	0	66	6629
2026-01-12 02:34:20.36	249.97	9.36	-47.7	-53.1	13.9	1.83e-05	0	38	0	0	67	6568
2026-01-12 02:34:21.43	249.77	9.44	-45.2	-48.6	19.2	4.92e-05	0	38	0	0	62	5178
2026-01-12 02:34:22.31	249.61	9.51	-45.3	-48.7	19.2	4.92e-05	0	39	0	0	62	5236
2026-01-12 02:34:23.63	249.35	9.62	-45.0	-48.3	19.5	0.00e+00	0	39	0	0	62	4990
2026-01-12 02:34:24.34	249.22	9.67	-45.0	-48.3	19.5	0.00e+00	0	39	0	0	62	4989
2026-01-12 02:34:25.82	248.93	9.79	-44.8	-47.9	19.8	0.00e+00	0	39	0	0	61	5087
2026-01-12 02:34:26.53	248.79	9.85	-44.7	-47.8	19.9	0.00e+00	0	39	0	0	61	5029
2026-01-12 02:34:27.81	248.54	9.95	-44.6	-47.6	20.2	0.00e+00	0	39	0	0	61	4884
2026-01-12 02:34:28.53	248.40	10.00	-44.2	-47.1	20.6	0.00e+00	0	39	0	0	60	4900
2026-01-12 02:34:29.82	248.14	10.11	-43.9	-46.7	21.0	0.00e+00	0	39	0	0	59	4972
2026-01-12 02:34:30.54	247.99	10.16	-43.8	-46.5	21.2	0.00e+00	0	38	0	0	59	4859
2026-01-12 02:34:31.82	247.74	10.27	-43.8	-46.5	21.3	0.00e+00	0	39	0	0	59	4857
2026-01-12 02:34:32.56	247.58	10.32	-43.9	-46.6	21.2	0.00e+00	0	39	0	0	59	4916
2026-01-12 02:34:33.84	247.32	10.43	-43.8	-46.5	21.3	0.00e+00	0	39	0	0	59	4870
2026-01-12 02:34:34.56	247.17	10.48	-43.6	-46.3	21.5	0.00e+00	0	39	0	0	59	4710
2026-01-12 02:34:35.85	246.90	10.59	-43.5	-46.1	21.7	0.00e+00	0	39	0	0	58	4915
2026-01-12 02:34:36.57	246.75	10.65	-43.4	-46.1	21.7	0.00e+00	0	39	0	0	58	4882
2026-01-12 02:34:37.85	246.48	10.75	-43.4	-46.0	21.8	0.00e+00	0	39	0	0	58	4836
2026-01-12 02:34:38.59	246.32	10.81	-43.3	-45.9	21.8	0.00e+00	0	39	0	0	58	4794
2026-01-12 02:34:39.87	246.05	10.91	-42.9	-45.4	22.3	0.00e+00	0	38	0	0	57	4780
2026-01-12 02:34:40.66	245.88	10.97	-42.9	-45.4	22.3	0.00e+00	0	39	0	0	57	4808
2026-01-12 02:34:42.13	245.55	11.09	-43.0	-45.5	22.2	0.00e+00	0	39	0	0	57	4843
2026-01-12 02:34:42.84	245.40	11.15	-43.1	-45.6	22.1	0.00e+00	0	39	0	0	57	4902
2026-01-12 02:34:44.12	245.11	11.25	-43.3	-45.9	21.8	0.00e+00	0	39	0	0	57	5055
2026-01-12 02:34:44.83	244.96	11.31	-43.3	-45.8	21.9	0.00e+00	0	39	0	0	57	5037
2026-01-12 02:34:46.11	244.67	11.41	-43.1	-45.7	22.1	0.00e+00	0	39	0	0	57	4947
2026-01-12 02:34:46.83	244.50	11.47	-43.1	-45.6	22.1	0.00e+00	0	39	0	0	57	4909
2026-01-12 02:34:48.11	244.21	11.58	-42.9	-45.4	22.3	0.00e+00	0	39	0	0	57	4771
2026-01-12 02:34:48.84	244.04	11.64	-42.8	-45.3	22.4	0.00e+00	0	39	0	0	57	4706
2026-01-12 02:34:50.12	243.75	11.74	-42.8	-45.3	22.4	0.00e+00	0	39	0	0	57	4714
2026-01-12 02:34:50.86	243.57	11.80	-42.8	-45.2	22.5	0.00e+00	0	39	0	0	57	4700
2026-01-12 02:34:52.14	243.27	11.90	-42.4	-44.9	22.8	0.00e+00	0	39	0	0	56	4762
2026-01-12 02:34:52.99	243.07	11.97	-42.5	-44.9	22.7	0.00e+00	0	39	0	0	56	4813
2026-01-12 02:34:54.12	242.80	12.06	-42.8	-45.3	22.4	0.00e+00	0	39	0	0	56	5002
2026-01-12 02:34:55.20	242.54	12.15	-43.1	-45.6	22.2	0.00e+00	0	39	0	0	56	5189
2026-01-12 02:34:56.22	242.29	12.23	-43.1	-45.6	22.1	0.00e+00	0	39	0	0	56	5209
2026-01-12 02:34:57.22	242.05	12.31	-43.0	-45.5	22.2	0.00e+00	0	39	0	0	56	5141
2026-01-12 02:34:58.21	241.81	12.40	-42.9	-45.4	22.3	0.00e+00	0	39	0	0	56	5094
2026-01-12 02:34:59.21	241.56	12.48	-42.7	-45.2	22.5	0.00e+00	0	39	0	0	56	4939
2026-01-12 02:35:00.20	241.31	12.56	-42.6	-45.0	22.7	0.00e+00	0	39	0	0	56	4831
2026-01-12 02:35:01.20	241.06	12.64	-42.4	-44.8	22.9	0.00e+00	0	39	0	0	56	4735
2026-01-12 02:35:02.19	240.81	12.72	-42.2	-44.6	23.0	0.00e+00	0	39	0	0	56	4619
2026-01-12 02:35:03.19	240.55	12.80	-42.1	-44.4	23.1	0.00e+00	0	39	0	0	56	4543
2026-01-12 02:35:04.56	240.20	12.91	-41.7	-43.9	23.5	0.00e+00	0	39	0	0	55	4544
2026-01-12 02:35:05.27	240.02	12.97	-41.7	-44.0	23.4	0.00e+00	0	39	0	0	55	4597
2026-01-12 02:35:06.55	239.68	13.07	-42.1	-44.5	23.0	0.00e+00	0	39	0	0	55	4857
2026-01-12 02:35:07.29	239.49	13.13	-42.2	-44.6	22.9	0.00e+00	0	39	0	0	55	4915
2026-01-12 02:35:08.57	239.15	13.23	-42.3	-44.7	22.8	0.00e+00	0	39	0	0	55	4974
2026-01-12 02:35:09.28	238.96	13.29	-42.3	-44.8	22.8	0.00e+00	0	39	0	0	55	4991
2026-01-12 02:35:10.56	238.61	13.39	-42.4	-44.9	22.7	0.00e+00	0	39	0	0	55	5042
2026-01-12 02:35:11.29	238.42	13.45	-42.4	-44.8	22.7	0.00e+00	0	39	0	0	55	5028
2026-01-12 02:35:12.61	238.06	13.56	-42.3	-44.7	22.8	0.00e+00	0	39	0	0	55	4978
2026-01-12 02:35:13.32	237.86	13.61	-42.2	-44.6	22.9	0.00e+00	0	39	0	0	55	4926
2026-01-12 02:35:14.60	237.51	13.72	-42.3	-44.7	22.9	0.00e+00	0	39	0	0	55	4938
2026-01-12 02:35:15.66	237.21	13.80	-42.1	-44.5	23.0	0.00e+00	0	39	0	0	55	4841
2026-01-12 02:35:16.84	236.88	13.90	-42.1	-44.5	23.0	0.00e+00	0	39	0	0	55	4830
2026-01-12 02:35:17.69	236.64	13.96	-42.1	-44.5	23.0	0.00e+00	0	39	0	0	55	4855
2026-01-12 02:35:19.15	236.22	14.08	-41.9	-44.3	23.2	0.00e+00	0	39	0	0	55	4722
2026-01-12 02:35:19.86	236.02	14.13	-41.8	-44.1	23.3	0.00e+00	0	39	0	0	55	4632
2026-01-12 02:35:21.14	235.65	14.24	-41.8	-44.1	23.3	0.00e+00	0	39	0	0	55	4634
2026-01-12 02:35:21.85	235.44	14.29	-41.8	-44.2	23.3	0.00e+00	0	39	0	0	55	4667
2026-01-12 02:35:23.13	235.07	14.39	-41.9	-44.3	23.2	0.00e+00	0	39	0	0	55	4738
2026-01-12 02:35:23.89	234.84	14.45	-42.0	-44.4	23.1	0.00e+00	0	39	0	0	55	4795
2026-01-12 02:35:25.16	234.47	14.55	-42.1	-44.4	23.1	0.00e+00	0	39	0	0	55	4809
2026-01-12 02:35:25.89	234.25	14.61	-42.1	-44.5	23.1	0.00e+00	0	39	0	0	55	4826
2026-01-12 02:35:27.17	233.86	14.70	-42.0	-44.4	23.1	0.00e+00	0	39	0	0	55	4763
2026-01-12 02:35:28.02	233.60	14.77	-41.8	-44.2	23.3	0.00e+00	0	39	0	0	55	4662
2026-01-12 02:35:29.15	233.26	14.86	-41.9	-44.2	23.3	0.00e+00	0	39	0	0	55	4685
2026-01-12 02:35:30.19	232.94	14.94	-41.7	-44.1	23.4	0.00e+00	0	39	0	0	55	4599
2026-01-12 02:35:31.34	232.58	15.02	-41.6	-43.9	23.5	0.00e+00	0	39	0	0	55	4508
2026-01-12 02:35:32.25	232.30	15.09	-41.4	-43.7	23.8	0.00e+00	0	39	0	0	54	4655
2026-01-12 02:35:33.27	231.98	15.17	-41.2	-43.5	23.9	0.00e+00	0	39	0	0	54	4557
2026-01-12 02:35:34.44	231.61	15.26	-41.3	-43.6	23.8	0.00e+00	0	39	0	0	54	4617
2026-01-12 02:35:35.32	231.33	15.32	-41.5	-43.8	23.7	0.00e+00	0	39	0	0	54	4720
2026-01-12 02:35:36.63	230.91	15.42	-41.6	-43.9	23.6	0.00e+00	0	39	0	0	54	4760
2026-01-12 02:35:37.35	230.68	15.47	-41.8	-44.1	23.4	0.00e+00	0	39	0	0	54	4899
2026-01-12 02:35:38.63	230.26	15.56	-42.1	-44.4	23.1	0.00e+00	0	39	0	0	54	5096
2026-01-12 02:35:39.35	230.03	15.62	-41.9	-44.2	23.3	0.00e+00	0	39	0	0	54	4940
2026-01-12 02:35:40.63	229.61	15.71	-41.8	-44.1	23.4	0.00e+00	0	39	0	0	54	4881
2026-01-12 02:35:41.36	229.37	15.76	-41.7	-44.0	23.5	0.00e+00	0	39	0	0	54	4856
2026-01-12 02:35:42.64	228.94	15.85	-41.3	-43.5	23.8	0.00e+00	0	39	0	0	54	4595
2026-01-12 02:35:43.35	228.70	15.90	-41.0	-43.2	24.1	0.00e+00	0	39	0	0	54	4435
2026-01-12 02:35:44.63	228.27	15.99	-40.9	-43.0	24.2	0.00e+00	0	39	0	0	53	4584
2026-01-12 02:35:45.35	228.03	16.04	-40.6	-42.8	24.4	0.00e+00	0	39	0	0	53	4462
2026-01-12 02:35:46.63	227.59	16.13	-40.6	-42.7	24.4	0.00e+00	0	39	0	0	53	4427
2026-01-12 02:35:47.58	227.27	16.19	-40.7	-42.9	24.3	0.00e+00	0	39	0	0	53	4522
2026-01-12 02:35:48.88	226.82	16.28	-40.6	-42.7	24.5	0.00e+00	0	39	0	0	53	4433
2026-01-12 02:35:49.62	226.56	16.33	-40.8	-42.9	24.3	0.00e+00	0	39	0	0	53	4535
2026-01-12 02:35:51.21	226.01	16.44	-40.8	-42.9	24.3	0.00e+00	0	39	0	0	53	4532
2026-01-12 02:35:51.80	225.80	16.48	-40.8	-42.9	24.3	0.00e+00	0	39	0	0	53	4533
2026-01-12 02:35:53.36	225.25	16.58	-40.9	-43.0	24.2	0.00e+00	0	39	0	0	53	4587
2026-01-12 02:35:54.07	225.00	16.62	-40.8	-43.0	24.3	0.00e+00	0	39	0	0	53	4565
2026-01-12 02:35:55.35	224.54	16.71	-40.7	-42.9	24.4	0.00e+00	0	39	0	0	53	4516
2026-01-12 02:35:56.07	224.28	16.75	-40.8	-43.0	24.3	0.00e+00	0	39	0	0	53	4569
2026-01-12 02:35:57.41	223.80	16.83	-40.9	-43.1	24.2	0.00e+00	0	39	0	0	53	4637
2026-01-12 02:35:58.12	223.54	16.88	-41.0	-43.2	24.1	0.00e+00	0	39	0	0	53	4687
2026-01-12 02:35:59.40	223.07	16.95	-41.2	-43.4	23.9	0.00e+00	0	39	0	0	53	4792
2026-01-12 02:36:00.11	222.81	17.00	-41.3	-43.5	23.9	0.00e+00	0	39	0	0	53	4849
2026-01-12 02:36:01.39	222.34	17.07	-41.3	-43.5	23.8	0.00e+00	0	39	0	0	53	4862
2026-01-12 02:36:02.12	222.07	17.11	-41.3	-43.5	23.8	0.00e+00	0	39	0	0	53	4866
2026-01-12 02:36:03.62	221.51	17.20	-41.0	-43.2	24.1	0.00e+00	0	39	0	0	53	4688
2026-01-12 02:36:04.33	221.25	17.24	-40.8	-43.0	24.3	0.00e+00	0	39	0	0	53	4567
2026-01-12 02:36:05.67	220.74	17.32	-40.9	-43.1	24.2	0.00e+00	0	39	0	0	53	4619
2026-01-12 02:36:06.65	220.37	17.37	-40.6	-42.8	24.4	0.00e+00	0	39	0	0	53	4454
2026-01-12 02:36:07.94	219.88	17.44	-40.7	-42.9	24.4	0.00e+00	0	39	0	0	53	4495
2026-01-12 02:36:08.67	219.61	17.48	-40.7	-42.8	24.4	0.00e+00	0	39	0	0	53	4484
2026-01-12 02:36:10.25	219.00	17.56	-40.5	-42.7	24.5	0.00e+00	0	39	0	0	53	4404
2026-01-12 02:36:10.91	218.75	17.59	-40.6	-42.7	24.5	0.00e+00	0	39	0	0	53	4422
2026-01-12 02:36:12.33	218.20	17.66	-40.5	-42.6	24.6	0.00e+00	0	39	0	0	52	4622
2026-01-12 02:36:13.04	217.92	17.69	-40.5	-42.6	24.6	0.00e+00	0	39	0	0	52	4631
2026-01-12 02:36:14.32	217.42	17.75	-40.2	-42.4	24.8	0.00e+00	0	39	0	0	52	4500
2026-01-12 02:36:15.04	217.14	17.79	-40.1	-42.2	24.9	0.00e+00	0	39	0	0	52	4400
2026-01-12 02:36:16.32	216.64	17.85	-40.2	-42.3	24.9	0.00e+00	0	39	0	0	52	4449
2026-01-12 02:36:17.06	216.34	17.88	-40.1	-42.1	25.0	0.00e+00	0	39	0	0	52	4384
2026-01-12 02:36:18.44	215.80	17.94	-40.0	-42.1	25.0	0.00e+00	0	39	0	0	51	4618
2026-01-12 02:36:19.15	215.52	17.97	-40.1	-42.2	24.9	0.00e+00	0	39	0	0	51	4691
2026-01-12 02:36:20.43	215.01	18.02	-40.2	-42.3	24.8	0.00e+00	0	39	0	0	51	4721
2026-01-12 02:36:21.15	214.72	18.05	-40.4	-42.5	24.7	0.00e+00	0	39	0	0	51	4830
2026-01-12 02:36:22.43	214.20	18.10	-40.4	-42.5	24.7	0.00e+00	0	39	0	0	51	4844
2026-01-12 02:36:23.17	213.91	18.13	-40.4	-42.5	24.8	0.00e+00	0	39	0	0	51	4830
2026-01-12 02:36:24.45	213.39	18.17	-40.3	-42.4	24.8	0.00e+00	0	39	0	0	51	4801
2026-01-12 02:36:25.18	213.09	18.20	-40.4	-42.5	24.8	0.00e+00	0	39	0	0	51	4822
2026-01-12 02:36:26.46	212.58	18.24	-39.9	-41.9	25.2	0.00e+00	0	39	0	0	51	4543
2026-01-12 02:36:27.17	212.29	18.27	-39.8	-41.9	25.2	0.00e+00	0	39	0	0	51	4516
2026-01-12 02:36:28.71	211.66	18.31	-39.7	-41.8	25.3	0.00e+00	0	39	0	0	51	4464
2026-01-12 02:36:29.42	211.37	18.34	-39.7	-41.8	25.3	0.00e+00	0	39	0	0	51	4464
2026-01-12 02:36:30.70	210.84	18.37	-39.5	-41.5	25.5	0.00e+00	0	39	0	0	51	4330
2026-01-12 02:36:31.41	210.55	18.39	-39.7	-41.7	25.3	0.00e+00	0	39	0	0	51	4424
2026-01-12 02:36:32.69	210.02	18.43	-40.3	-42.4	24.8	0.00e+00	0	39	0	0	51	4760
2026-01-12 02:36:33.40	209.73	18.44	-40.2	-42.3	24.9	0.00e+00	0	39	0	0	51	4734
2026-01-12 02:36:34.68	209.20	18.48	-40.0	-42.1	25.1	0.00e+00	0	39	0	0	51	4608
2026-01-12 02:36:35.41	208.90	18.49	-40.1	-42.1	25.1	0.00e+00	0	39	0	0	51	4644
2026-01-12 02:36:36.69	208.36	18.52	-40.2	-42.3	24.9	0.00e+00	0	39	0	0	51	4750
2026-01-12 02:36:37.45	208.05	18.53	-40.3	-42.5	24.8	0.00e+00	0	39	0	0	51	4824
2026-01-12 02:36:38.72	207.52	18.56	-40.4	-42.5	24.8	0.00e+00	0	39	0	0	51	4823
2026-01-12 02:36:39.43	207.22	18.57	-40.1	-42.2	25.0	0.00e+00	0	39	0	0	51	4683
2026-01-12 02:36:40.71	206.69	18.59	-40.2	-42.3	24.9	0.00e+00	0	39	0	0	51	4757
2026-01-12 02:36:41.42	206.39	18.60	-40.5	-42.7	24.6	0.00e+00	0	39	0	0	51	4937
2026-01-12 02:36:42.70	205.85	18.62	-40.4	-42.5	24.7	0.00e+00	0	39	0	0	51	4852
2026-01-12 02:36:43.57	205.49	18.63	-40.4	-42.5	24.8	0.00e+00	0	39	0	0	51	4823
2026-01-12 02:36:44.71	205.01	18.64	-40.4	-42.6	24.7	0.00e+00	0	39	0	0	51	4875
2026-01-12 02:36:45.73	204.58	18.65	-40.4	-42.5	24.7	0.00e+00	0	39	0	0	51	4863
2026-01-12 02:36:46.73	204.16	18.66	-40.6	-42.7	24.6	0.00e+00	0	39	0	0	51	4980
2026-01-12 02:36:47.93	203.65	18.67	-40.4	-42.5	24.7	0.00e+00	0	39	0	0	51	4866
2026-01-12 02:36:48.81	203.28	18.67	-40.2	-42.3	24.8	0.00e+00	0	39	0	0	51	4756
2026-01-12 02:36:49.95	202.80	18.68	-40.4	-42.5	24.8	0.00e+00	0	39	0	0	51	4819
2026-01-12 02:36:50.80	202.45	18.68	-40.2	-42.3	24.9	0.00e+00	0	39	0	0	51	4750
2026-01-12 02:36:52.19	201.86	18.68	-40.3	-42.4	24.8	0.00e+00	0	39	0	0	51	4793
2026-01-12 02:36:52.90	201.56	18.68	-40.1	-42.1	25.0	0.00e+00	0	39	0	0	51	4635
2026-01-12 02:36:54.42	200.92	18.68	-40.2	-42.2	25.0	0.00e+00	0	39	0	0	51	4698
2026-01-12 02:36:55.13	200.62	18.68	-40.1	-42.2	24.6	0.00e+00	0	39	0	0	51	4697
2026-01-12 02:36:56.47	200.06	18.67	-40.0	-42.1	25.0	0.00e+00	0	39	0	0	51	4650
2026-01-12 02:36:57.18	199.76	18.67	-40.1	-42.2	25.0	0.00e+00	0	39	0	0	51	4655
2026-01-12 02:36:58.46	199.22	18.66	-40.3	-42.4	24.8	0.00e+00	0	39	0	0	51	4806
2026-01-12 02:36:59.17	198.92	18.65	-40.4	-42.5	24.7	0.00e+00	0	39	0	0	51	4841
2026-01-12 02:37:00.45	198.38	18.64	-40.5	-42.6	24.6	0.00e+00	0	39	0	0	51	4921
2026-01-12 02:37:01.17	198.08	18.63	-40.8	-43.0	24.4	0.00e+00	0	39	0	0	52	4831
2026-01-12 02:37:02.64	197.46	18.61	-41.0	-43.2	24.1	0.00e+00	0	39	0	0	52	4969
2026-01-12 02:37:03.35	197.17	18.60	-40.8	-43.0	24.2	0.00e+00	0	39	0	0	52	4846
2026-01-12 02:37:04.63	196.63	18.58	-40.4	-42.5	24.7	0.00e+00	0	39	0	0	52	4589
2026-01-12 02:37:05.72	196.17	18.56	-40.5	-42.6	24.6	0.00e+00	0	39	0	0	52	4647
2026-01-12 02:37:06.84	195.71	18.54	-40.2	-42.3	24.8	0.00e+00	0	39	0	0	52	4461
2026-01-12 02:37:07.69	195.35	18.52	-39.9	-42.0	25.0	0.00e+00	0	39	0	0	51	4593
2026-01-12 02:37:08.82	194.88	18.50	-39.9	-42.0	25.1	0.00e+00	0	39	0	0	51	4559
2026-01-12 02:37:09.68	194.53	18.48	-40.0	-42.1	25.1	0.00e+00	0	39	0	0	51	4621
2026-01-12 02:37:10.81	194.06	18.45	-40.1	-42.2	24.9	0.00e+00	0	39	0	0	51	4693
2026-01-12 02:37:11.66	193.71	18.43	-40.3	-42.5	24.8	0.00e+00	0	39	0	0	51	4830
2026-01-12 02:37:12.80	193.24	18.40	-40.5	-42.7	24.6	0.00e+00	0	39	0	0	51	4967
2026-01-12 02:37:13.65	192.89	18.38	-40.6	-42.8	24.4	0.00e+00	0	39	0	0	52	4744
2026-01-12 02:37:14.79	192.42	18.35	-40.5	-42.6	24.5	0.00e+00	0	39	0	0	52	4651
2026-01-12 02:37:15.64	192.07	18.32	-40.5	-42.7	24.5	0.00e+00	0	39	0	0	52	4664
2026-01-12 02:37:16.78	191.60	18.29	-40.1	-42.2	24.9	0.00e+00	0	39	0	0	52	4419
2026-01-12 02:37:17.63	191.26	18.26	-40.0	-42.1	24.9	0.00e+00	0	39	0	0	52	4366
2026-01-12 02:37:18.88	190.75	18.22	-39.7	-41.8	25.3	0.00e+00	0	39	0	0	51	4462
2026-01-12 02:37:19.73	190.40	18.19	-39.8	-41.9	25.2	0.00e+00	0	39	0	0	51	4495
2026-01-12 02:37:20.91	189.93	18.14	-39.7	-41.8	25.2	0.00e+00	0	39	0	0	51	4472
2026-01-12 02:37:21.77	189.58	18.11	-39.8	-41.9	25.2	0.00e+00	0	39	0	0	51	4517
2026-01-12 02:37:22.90	189.13	18.07	-40.3	-42.5	24.7	0.00e+00	0	39	0	0	51	4844
2026-01-12 02:37:23.76	188.78	18.04	-40.6	-42.8	24.5	0.00e+00	0	39	0	0	51	5018
2026-01-12 02:37:24.89	188.33	17.99	-40.7	-42.8	24.4	0.00e+00	0	39	0	0	52	4757
2026-01-12 02:37:25.79	187.97	17.95	-40.8	-43.0	24.3	0.00e+00	0	39	0	0	52	4840
2026-01-12 02:37:26.99	187.50	17.90	-40.5	-42.7	24.4	0.00e+00	0	39	0	0	52	4687
2026-01-12 02:37:27.84	187.16	17.86	-40.3	-42.5	24.7	0.00e+00	0	39	0	0	52	4547
2026-01-12 02:37:28.98	186.71	17.81	-40.2	-42.4	24.8	0.00e+00	0	39	0	0	52	4509
2026-01-12 02:37:29.87	186.36	17.77	-40.1	-42.3	24.9	0.00e+00	0	39	0	0	52	4450
2026-01-12 02:37:31.00	185.92	17.72	-40.2	-42.4	24.8	0.00e+00	0	39	0	0	52	4517
2026-01-12 02:37:31.85	185.59	17.68	-40.4	-42.6	24.6	0.00e+00	0	39	0	0	52	4600
2026-01-12 02:37:32.99	185.15	17.62	-40.1	-42.2	24.9	0.00e+00	0	39	0	0	52	4437
2026-01-12 02:37:33.84	184.82	17.58	-40.1	-42.3	24.8	0.00e+00	0	39	0	0	52	4443
2026-01-12 02:37:34.98	184.38	17.52	-40.4	-42.6	24.6	0.00e+00	0	39	0	0	52	4616
2026-01-12 02:37:35.83	184.05	17.48	-40.5	-42.7	24.5	0.00e+00	0	39	0	0	52	4671
2026-01-12 02:37:36.97	183.62	17.42	-40.7	-43.0	24.3	0.00e+00	0	39	0	0	52	4832
2026-01-12 02:37:37.82	183.30	17.37	-40.7	-42.9	24.3	0.00e+00	0	39	0	0	52	4806
2026-01-12 02:37:38.97	182.86	17.31	-40.7	-42.9	24.4	0.00e+00	0	39	0	0	52	4786
2026-01-12 02:37:39.83	182.54	17.26	-40.6	-42.8	24.4	0.00e+00	0	39	0	0	52	4720
2026-01-12 02:37:40.96	182.11	17.20	-40.6	-42.7	24.5	0.00e+00	0	39	0	0	52	4701
2026-01-12 02:37:41.81	181.80	17.15	-40.6	-42.8	24.4	0.00e+00	0	39	0	0	52	4719
2026-01-12 02:37:43.08	181.33	17.08	-41.1	-43.3	24.0	0.00e+00	0	39	0	0	52	5030
2026-01-12 02:37:43.88	181.03	17.03	-41.2	-43.5	23.9	0.00e+00	0	39	0	0	53	4830
2026-01-12 02:37:45.13	180.57	16.96	-41.1	-43.3	23.9	0.00e+00	0	39	0	0	53	4750
2026-01-12 02:37:45.98	180.26	16.90	-41.0	-43.3	24.0	1.84e-04	0	39	0	0	53	4706
2026-01-12 02:37:47.11	179.85	16.84	-40.6	-42.8	24.4	0.00e+00	0	39	0	0	53	4460
2026-01-12 02:37:47.97	179.54	16.78	-40.5	-42.6	24.6	0.00e+00	0	39	0	0	52	4624
2026-01-12 02:37:49.10	179.13	16.71	-40.5	-42.7	24.5	0.00e+00	0	39	0	0	52	4675
2026-01-12 02:37:50.02	178.80	16.65	-40.7	-42.9	24.4	0.00e+00	0	39	0	0	52	4770
2026-01-12 02:37:51.01	178.45	16.59	-40.9	-43.1	24.2	0.00e+00	0	39	0	0	52	4898
2026-01-12 02:37:52.01	178.10	16.53	-41.1	-43.3	24.0	0.00e+00	0	39	0	0	52	5017
2026-01-12 02:37:53.00	177.75	16.46	-41.2	-43.4	23.9	0.00e+00	0	39	0	0	53	4806
2026-01-12 02:37:53.99	177.40	16.40	-41.2	-43.4	23.9	0.00e+00	0	39	0	0	53	4810
2026-01-12 02:37:54.99	177.05	16.33	-41.3	-43.6	23.8	0.00e+00	0	39	0	0	53	4899
2026-01-12 02:37:55.98	176.71	16.26	-41.4	-43.7	23.7	0.00e+00	0	39	0	0	53	4952
2026-01-12 02:37:56.98	176.36	16.19	-41.5	-43.9	23.6	0.00e+00	0	39	0	0	53	5044
2026-01-12 02:37:57.97	176.02	16.13	-41.5	-43.9	23.5	0.00e+00	0	39	0	0	53	5051
2026-01-12 02:37:58.97	175.68	16.06	-41.6	-44.0	23.4	0.00e+00	0	39	0	0	53	5110
2026-01-12 02:37:59.96	175.35	15.99	-41.8	-44.1	23.3	0.00e+00	0	39	0	0	54	4909
2026-01-12 02:38:00.95	175.01	15.92	-41.8	-44.1	23.3	0.00e+00	0	39	0	0	54	4913
2026-01-12 02:38:01.95	174.68	15.85	-41.8	-44.1	23.4	0.00e+00	0	39	0	0	54	4901
2026-01-12 02:38:02.95	174.34	15.78	-41.8	-44.2	23.3	0.00e+00	0	39	0	0	54	4931
2026-01-12 02:38:03.94	174.02	15.71	-41.4	-43.6	23.7	0.00e+00	0	39	0	0	54	4636
2026-01-12 02:38:04.94	173.69	15.63	-41.2	-43.5	23.8	0.00e+00	0	39	0	0	54	4564
2026-01-12 02:38:05.93	173.36	15.56	-41.2	-43.4	23.9	0.00e+00	0	39	0	0	54	4530
2026-01-12 02:38:06.93	173.04	15.49	-41.3	-43.5	23.7	0.00e+00	0	39	0	0	54	4596
2026-01-12 02:38:07.92	172.72	15.42	-41.3	-43.6	23.7	0.00e+00	0	39	0	0	54	4641
2026-01-12 02:38:08.92	172.40	15.34	-41.3	-43.6	23.7	0.00e+00	0	39	0	0	54	4606
2026-01-12 02:38:09.91	172.08	15.27	-41.2	-43.5	23.8	0.00e+00	0	39	0	0	54	4595
2026-01-12 02:38:10.91	171.77	15.19	-41.2	-43.5	23.8	0.00e+00	0	39	0	0	54	4587
2026-01-12 02:38:11.90	171.45	15.12	-41.3	-43.7	23.7	0.00e+00	0	39	0	0	54	4654
2026-01-12 02:38:12.90	171.14	15.05	-41.4	-43.7	23.6	0.00e+00	0	39	0	0	54	4671
2026-01-12 02:38:13.89	170.83	14.97	-41.4	-43.7	23.6	0.00e+00	0	39	0	0	54	4688
2026-01-12 02:38:14.93	170.51	14.89	-41.4	-43.7	23.6	0.00e+00	0	39	0	0	54	4702
2026-01-12 02:38:15.94	170.20	14.81	-41.4	-43.7	23.6	0.00e+00	0	39	0	0	54	4695
2026-01-12 02:38:16.94	169.90	14.74	-41.6	-43.9	23.4	1.62e-03	0	39	0	0	54	4813
2026-01-12 02:38:17.93	169.60	14.66	-41.7	-44.0	23.4	0.00e+00	0	39	0	0	54	4849
2026-01-12 02:38:18.93	169.30	14.58	-41.8	-44.2	23.2	1.69e-03	0	39	0	0	54	4977
2026-01-12 02:38:19.92	169.00	14.51	-41.9	-44.3	23.2	1.69e-03	0	39	0	0	54	5009
2026-01-12 02:38:20.92	168.70	14.43	-41.9	-44.3	23.1	0.00e+00	0	39	0	0	54	5015
2026-01-12 02:38:21.91	168.41	14.35	-41.8	-44.2	23.2	1.44e-03	0	39	0	0	54	4945
2026-01-12 02:38:22.91	168.12	14.27	-41.9	-44.3	23.1	1.44e-03	0	39	0	0	54	4986
2026-01-12 02:38:23.90	167.83	14.20	-41.9	-44.3	23.1	0.00e+00	0	39	0	0	54	5011
2026-01-12 02:38:24.90	167.54	14.12	-41.8	-44.1	23.2	2.54e-03	0	39	0	0	54	4921
2026-01-12 02:38:25.89	167.26	14.04	-41.7	-44.1	23.3	2.54e-03	0	39	0	0	54	4907
2026-01-12 02:38:26.89	166.97	13.96	-41.7	-44.0	23.4	0.00e+00	0	39	0	0	54	4855
2026-01-12 02:38:27.88	166.69	13.88	-41.7	-44.0	23.3	1.50e-03	0	39	0	0	54	4862
2026-01-12 02:38:28.88	166.41	13.80	-41.8	-44.2	23.1	1.50e-03	0	39	0	0	54	4978
2026-01-12 02:38:29.87	166.13	13.72	-41.9	-44.3	23.0	0.00e+00	0	39	0	0	54	5024
2026-01-12 02:38:30.88	165.85	13.64	-42.1	-44.5	22.9	1.03e-03	0	39	0	0	54	5127
2026-01-12 02:38:31.89	165.58	13.56	-42.3	-44.8	22.7	1.03e-03	0	39	0	0	55	4993
2026-01-12 02:38:32.93	165.29	13.48	-42.4	-44.9	22.4	0.00e+00	0	39	0	0	55	5074
2026-01-12 02:38:33.93	165.02	13.40	-42.4	-44.9	22.6	5.70e-06	0	39	0	0	55	5075
2026-01-12 02:38:34.99	164.73	13.31	-42.4	-44.9	22.7	0.00e+00	0	39	0	0	55	5044
2026-01-12 02:38:35.86	164.50	13.24	-42.2	-44.7	22.6	0.00e+00	0	39	0	0	55	4968
2026-01-12 02:38:36.99	164.20	13.15	-42.2	-44.7	22.8	0.00e+00	0	39	0	0	55	4939
2026-01-12 02:38:37.85	163.97	13.08	-42.3	-44.8	22.7	0.00e+00	0	39	0	0	55	4998
2026-01-12 02:38:38.98	163.68	12.99	-42.3	-44.8	22.7	0.00e+00	0	39	0	0	55	4995
2026-01-12 02:38:39.83	163.46	12.92	-42.4	-44.9	22.6	0.00e+00	0	39	0	0	55	5079
2026-01-12 02:38:40.97	163.16	12.83	-42.6	-45.1	22.4	0.00e+00	0	39	0	0	55	5214
2026-01-12 02:38:41.82	162.94	12.76	-42.9	-45.5	22.2	0.00e+00	0	39	0	0	56	5129
2026-01-12 02:38:42.96	162.65	12.67	-42.8	-45.3	22.4	0.00e+00	0	39	0	0	56	5028
2026-01-12 02:38:43.81	162.44	12.60	-42.6	-45.1	22.5	0.00e+00	0	39	0	0	56	4914
2026-01-12 02:38:45.00	162.14	12.50	-42.6	-45.1	22.6	0.00e+00	0	39	0	0	56	4882
2026-01-12 02:38:45.85	161.93	12.43	-42.5	-45.0	22.7	0.00e+00	0	39	0	0	56	4817
2026-01-12 02:38:46.99	161.65	12.34	-42.4	-44.8	22.8	0.00e+00	0	39	0	0	56	4747
2026-01-12 02:38:47.84	161.44	12.27	-42.4	-44.9	22.8	0.00e+00	0	39	0	0	56	4770
2026-01-12 02:38:49.10	161.13	12.17	-42.4	-44.9	22.8	0.00e+00	0	39	0	0	56	4778
2026-01-12 02:38:49.91	160.94	12.10	-42.5	-45.0	22.7	0.00e+00	0	39	0	0	56	4845
2026-01-12 02:38:51.04	160.66	12.01	-42.8	-45.3	22.4	1.83e-05	0	39	0	0	56	5009
2026-01-12 02:38:51.90	160.46	11.94	-42.8	-45.4	22.3	1.83e-05	0	39	0	0	56	5046
2026-01-12 02:38:53.03	160.19	11.85	-43.0	-45.5	22.2	0.00e+00	0	39	0	0	56	5147
2026-01-12 02:38:53.89	159.99	11.78	-42.8	-45.4	22.3	3.67e-03	0	39	0	0	57	4777
2026-01-12 02:38:55.02	159.73	11.69	-42.8	-45.4	22.3	3.67e-03	0	39	0	0	57	4789
2026-01-12 02:38:55.88	159.53	11.62	-43.0	-45.6	22.1	0.00e+00	0	39	0	0	57	4873
2026-01-12 02:38:57.01	159.27	11.53	-42.9	-45.4	22.1	6.15e-03	0	39	0	0	57	4801
2026-01-12 02:38:57.86	159.07	11.46	-42.9	-45.5	22.1	6.15e-03	0	39	0	0	57	4841
2026-01-12 02:38:59.00	158.81	11.36	-43.0	-45.6	22.0	0.00e+00	0	39	0	0	57	4874
2026-01-12 02:38:59.85	158.62	11.30	-42.9	-45.5	22.2	7.05e-03	0	39	0	0	57	4825
2026-01-12 02:39:00.99	158.37	11.20	-43.0	-45.6	22.1	7.05e-03	0	39	0	0	57	4878
2026-01-12 02:39:01.84	158.18	11.13	-43.0	-45.6	20.6	0.00e+00	0	39	0	0	57	4879
2026-01-12 02:39:02.98	157.93	11.04	-42.9	-45.4	22.2	7.10e-03	0	39	0	0	57	4809
2026-01-12 02:39:03.83	157.74	10.97	-42.8	-45.4	22.2	7.10e-03	0	39	0	0	57	4784
2026-01-12 02:39:04.97	157.50	10.88	-43.0	-45.6	22.0	0.00e+00	0	39	0	0	57	4925
2026-01-12 02:39:05.82	157.31	10.81	-43.0	-45.6	22.1	6.28e-03	0	39	0	0	57	4890
2026-01-12 02:39:07.02	157.06	10.72	-43.2	-45.8	21.9	0.00e+00	0	39	0	0	57	4990
2026-01-12 02:39:07.88	156.87	10.65	-43.2	-45.8	21.9	0.00e+00	0	39	0	0	57	4996
2026-01-12 02:39:09.06	156.63	10.55	-43.2	-45.8	21.8	4.70e-03	0	39	0	0	57	5041
2026-01-12 02:39:09.91	156.45	10.49	-43.2	-45.9	21.8	0.00e+00	0	39	0	0	57	5051
2026-01-12 02:39:11.05	156.21	10.39	-43.3	-46.0	21.7	0.00e+00	0	39	0	0	57	5122
2026-01-12 02:39:11.90	156.04	10.33	-43.4	-46.1	21.6	1.66e-03	0	39	0	0	57	5188
2026-01-12 02:39:13.04	155.80	10.24	-43.5	-46.3	21.5	0.00e+00	0	39	0	0	57	5284
2026-01-12 02:39:13.90	155.63	10.17	-43.5	-46.3	21.4	0.00e+00	0	39	0	0	57	5294
2026-01-12 02:39:15.03	155.40	10.08	-43.7	-46.4	21.3	1.22e-04	0	39	0	0	57	5379
2026-01-12 02:39:15.89	155.23	10.01	-43.7	-46.5	21.2	0.00e+00	0	39	0	0	58	5119
2026-01-12 02:39:17.02	155.00	9.92	-43.7	-46.5	21.2	0.00e+00	0	39	0	0	58	5128
2026-01-12 02:39:17.88	154.84	9.85	-43.7	-46.5	21.2	9.20e-04	0	39	0	0	58	5124
2026-01-12 02:39:19.02	154.61	9.76	-43.8	-46.6	21.1	0.00e+00	0	40	0	0	58	5162
2026-01-12 02:39:19.87	154.45	9.69	-43.9	-46.7	21.0	0.00e+00	0	39	0	0	58	5264
2026-01-12 02:39:21.01	154.23	9.60	-43.9	-46.7	21.0	6.59e-04	0	39	0	0	58	5255
2026-01-12 02:39:21.86	154.06	9.54	-43.9	-46.7	21.0	0.00e+00	0	39	0	0	58	5271
2026-01-12 02:39:23.00	153.85	9.45	-43.9	-46.8	20.9	0.00e+00	0	39	0	0	58	5299
2026-01-12 02:39:23.85	153.69	9.38	-43.8	-46.7	21.0	0.00e+00	0	39	0	0	58	5230
2026-01-12 02:39:25.08	153.46	9.28	-43.6	-46.5	21.2	0.00e+00	0	39	0	0	58	5101
2026-01-12 02:39:25.94	153.30	9.22	-43.6	-46.4	21.2	4.57e-05	0	39	0	0	58	5098
2026-01-12 02:39:27.07	153.09	9.13	-43.5	-46.3	21.3	4.57e-05	0	39	0	0	58	5016
2026-01-12 02:39:27.93	152.93	9.06	-43.3	-46.1	21.5	0.00e+00	0	39	0	0	58	4906
2026-01-12 02:39:29.06	152.73	8.97	-50.0	-68.5	3.8	6.50e-04	0	39	104	0	70	32374
2026-01-12 02:39:29.91	152.57	8.91	-50.0	-68.3	3.9	6.50e-04	0	39	104	0	70	31641
2026-01-12 02:39:31.05	152.37	8.82	-50.4	-69.2	3.8	7.62e-01	0	39	104	0	71	33219
2026-01-12 02:39:31.90	152.22	8.75	-50.5	-69.3	3.8	8.46e-01	0	39	104	0	71	33456
2026-01-12 02:39:33.04	152.02	8.67	-50.4	-69.5	3.8	8.46e-01	0	39	104	0	71	34367
2026-01-12 02:39:33.89	151.87	8.60	-50.5	-69.5	3.8	8.48e-01	0	39	104	0	72	32422
2026-01-12 02:39:35.02	151.67	8.51	-50.6	-69.6	3.8	8.47e-01	0	39	104	0	72	32649
2026-01-12 02:39:35.87	151.52	8.45	-50.8	-69.5	3.8	8.47e-01	0	39	104	0	72	32543
2026-01-12 02:39:37.01	151.33	8.36	-50.8	-69.6	3.8	8.46e-01	0	39	104	0	72	32671
2026-01-12 02:39:37.86	151.18	8.30	-50.8	-69.6	3.8	8.47e-01	0	39	104	0	72	32598
2026-01-12 02:39:39.00	150.99	8.21	-50.8	-69.6	3.8	8.47e-01	0	39	104	0	72	32870
2026-01-12 02:39:39.85	150.85	8.15	-50.8	-69.6	3.8	8.46e-01	0	39	104	0	72	32799
2026-01-12 02:39:40.99	150.66	8.06	-50.9	-69.7	3.8	8.47e-01	0	39	104	0	72	33058
2026-01-12 02:39:41.84	150.52	8.00	-50.7	-69.7	3.8	8.47e-01	0	39	104	0	72	33023
2026-01-12 02:39:42.97	150.33	7.91	-50.8	-69.7	3.8	8.46e-01	0	39	104	0	72	33163
2026-01-12 02:39:43.83	150.19	7.85	-50.9	-69.7	3.8	8.47e-01	0	39	104	0	72	33025
2026-01-12 02:39:44.96	150.01	7.76	-50.9	-69.7	3.8	8.47e-01	0	39	104	0	72	33030
2026-01-12 02:39:45.81	149.87	7.70	-50.9	-69.7	3.8	8.47e-01	0	39	104	0	72	33002
2026-01-12 02:39:46.95	149.69	7.61	-50.8	-69.6	3.8	8.46e-01	0	39	104	0	72	32906
2026-01-12 02:39:47.80	149.55	7.55	-50.8	-69.6	3.8	8.48e-01	0	39	104	0	72	32924
2026-01-12 02:39:48.93	149.37	7.46	-50.8	-69.7	3.8	8.48e-01	0	39	104	0	72	32944
2026-01-12 02:39:49.79	149.24	7.40	-50.8	-69.6	3.8	8.48e-01	0	39	104	0	72	32896
2026-01-12 02:39:50.92	149.06	7.32	-50.6	-69.6	3.8	8.46e-01	0	39	104	0	72	32864
2026-01-12 02:39:51.77	148.93	7.25	-50.6	-69.6	3.8	8.46e-01	0	39	104	0	72	32835
2026-01-12 02:39:52.91	148.76	7.17	-50.6	-69.6	3.8	8.46e-01	0	39	104	0	72	32768
2026-01-12 02:39:53.76	148.63	7.11	-50.6	-69.6	3.8	8.47e-01	0	39	104	0	72	32724
2026-01-12 02:39:54.90	148.46	7.02	-50.6	-69.6	3.8	8.47e-01	0	39	104	0	72	32687
2026-01-12 02:39:55.75	148.33	6.96	-50.6	-69.6	3.8	8.47e-01	0	39	104	0	72	32644
2026-01-12 02:39:56.88	148.16	6.88	-50.6	-69.6	3.8	8.47e-01	0	39	104	0	72	32564
2026-01-12 02:39:57.73	148.04	6.82	-50.6	-69.6	3.8	8.47e-01	0	39	104	0	72	32759
2026-01-12 02:39:58.87	147.87	6.73	-50.6	-69.6	3.8	8.47e-01	0	39	104	0	72	32694
2026-01-12 02:39:59.72	147.74	6.67	-50.6	-69.6	3.8	8.47e-01	0	39	104	0	72	32686
2026-01-12 02:40:00.83	147.58	6.59	-50.6	-69.6	3.8	8.47e-01	0	39	104	0	72	32678
2026-01-12 02:40:01.69	147.46	6.53	-50.6	-69.6	3.8	8.48e-01	0	39	104	0	72	32653
2026-01-12 02:40:02.82	147.30	6.45	-50.6	-69.6	3.8	8.47e-01	0	39	104	0	72	32667
2026-01-12 02:40:03.67	147.18	6.39	-50.6	-69.6	3.8	8.47e-01	0	39	104	0	72	32737
2026-01-12 02:40:04.81	147.02	6.31	-50.6	-69.6	3.8	8.47e-01	0	39	104	0	72	32667
2026-01-12 02:40:05.66	146.90	6.25	-50.6	-69.6	3.8	8.47e-01	0	40	104	0	72	32670
2026-01-12 02:40:06.79	146.74	6.16	-50.6	-69.6	3.8	8.48e-01	0	39	104	0	72	32705
2026-01-12 02:40:07.65	146.62	6.10	-50.6	-69.6	3.8	8.48e-01	0	39	104	0	72	32695
2026-01-12 02:40:08.78	146.47	6.02	-50.6	-69.6	3.8	8.46e-01	0	39	104	0	72	32704
2026-01-12 02:40:09.63	146.35	5.96	-50.6	-69.6	3.8	8.47e-01	0	39	104	0	72	32677
2026-01-12 02:40:10.77	146.20	5.88	-50.6	-69.6	3.8	8.47e-01	0	39	104	0	72	32696
2026-01-12 02:40:11.62	146.08	5.82	-50.6	-69.6	3.8	8.46e-01	0	39	104	0	72	32660
2026-01-12 02:40:12.75	145.93	5.74	-50.6	-69.6	3.8	8.45e-01	0	40	104	0	72	32646
2026-01-12 02:40:13.61	145.82	5.68	-50.6	-69.6	3.8	8.45e-01	0	39	104	0	72	32650
2026-01-12 02:40:14.74	145.67	5.60	-50.6	-69.6	3.8	8.47e-01	0	39	104	0	72	32658
2026-01-12 02:40:15.60	145.56	5.54	-50.6	-69.6	3.8	8.46e-01	0	39	104	0	72	32673
2026-01-12 02:40:16.73	145.41	5.47	-50.6	-69.6	3.8	8.46e-01	0	40	104	0	72	32695
2026-01-12 02:40:17.58	145.30	5.41	-50.6	-69.6	3.8	8.46e-01	0	39	104	0	72	32679
2026-01-12 02:40:18.72	145.15	5.33	-50.6	-69.6	3.8	8.47e-01	0	39	104	0	72	32703
2026-01-12 02:40:19.57	145.05	5.27	-50.6	-69.6	3.8	8.47e-01	0	39	104	0	72	32695
2026-01-12 02:40:20.71	144.90	5.19	-50.6	-69.6	3.8	8.48e-01	0	39	104	0	72	32555
2026-01-12 02:40:21.56	144.80	5.13	-50.6	-69.6	3.8	8.48e-01	0	39	104	0	72	32624
2026-01-12 02:40:22.69	144.65	5.05	-50.6	-69.6	3.8	8.48e-01	0	39	104	0	72	32599
2026-01-12 02:40:23.55	144.55	5.00	-50.6	-69.6	3.8	8.47e-01	0	39	104	0	72	32608
2026-01-12 02:40:24.68	144.41	4.92	-50.6	-69.6	3.8	8.47e-01	0	39	104	0	72	32582

#Closed at: 2026-01-12 02:40:25
#Recorded file [0 MB]: D:/Data/31040_260112_053321.dat