passes_logs/2026/01/12/T1/T1__20260112_003133_SUOMI_NPP_rec.log

#Pass ID: 20260112_003133_SUOMI NPP
#Satellite: SUOMI NPP
#Configuration: NPP
#almurnet v.1.7.20251203
#Start time: 2026-01-12 00:31:33

#Version: 2.0.20230620
#Station: T1
#Location: 37.570604 lon 55.790049 lat
#TLE: 1 37849U 11061A   26011.29776829  .00000112  00000+0  74065-4 0  9999
#TLE: 2 37849  98.7807 313.3784 0002522  70.0451 290.0996 14.19524507736187

#Time	Az	El	Level	Level2	SNR	BER	BlckErr	Temp	State	Recorded	gain1	gain2
2026-01-12 00:31:33.86	11.67	5.06	-47.5	-65.4	3.8	1.49e+00	0	40	0	0	66	28403
2026-01-12 00:31:34.85	11.64	5.13	-47.4	-65.2	3.8	1.49e+00	0	41	104	0	65	29600
2026-01-12 00:31:35.85	11.60	5.20	-47.5	-65.1	3.8	1.49e+00	0	41	104	0	65	29331
2026-01-12 00:31:36.84	11.56	5.27	-47.4	-65.1	3.8	1.49e+00	0	41	104	0	65	29111
2026-01-12 00:31:37.83	11.53	5.34	-47.4	-65.0	3.8	1.49e+00	0	41	104	0	65	28866
2026-01-12 00:31:38.83	11.49	5.41	-47.4	-64.9	3.8	1.49e+00	0	41	104	0	65	28590
2026-01-12 00:31:39.82	11.45	5.48	-47.4	-64.8	3.8	1.49e+00	0	41	104	0	65	28189
2026-01-12 00:31:40.82	11.41	5.55	-47.4	-64.7	3.8	1.49e+00	0	41	104	0	65	27911
2026-01-12 00:31:41.81	11.38	5.62	-47.5	-64.6	3.8	1.49e+00	0	41	104	0	65	27494
2026-01-12 00:31:42.80	11.34	5.69	-47.5	-64.5	3.8	1.49e+00	0	41	104	0	65	27229
2026-01-12 00:31:43.80	11.30	5.76	-47.4	-64.5	3.8	1.49e+00	0	41	104	0	65	27378
2026-01-12 00:31:44.79	11.26	5.83	-47.4	-64.6	3.8	1.49e+00	0	41	104	0	65	27516
2026-01-12 00:31:45.78	11.23	5.90	-47.4	-64.6	3.8	1.49e+00	0	41	104	0	65	27640
2026-01-12 00:31:46.78	11.19	5.97	-47.4	-64.7	3.8	1.49e+00	0	41	104	0	65	27708
2026-01-12 00:31:47.77	11.15	6.04	-47.5	-64.8	3.8	1.49e+00	0	41	104	0	65	28145
2026-01-12 00:31:48.76	11.11	6.11	-47.5	-64.8	3.8	1.49e+00	0	41	104	0	65	28096
2026-01-12 00:31:49.76	11.07	6.18	-47.5	-64.8	3.8	1.49e+00	0	41	104	0	65	28034
2026-01-12 00:31:50.75	11.03	6.25	-47.4	-64.7	3.8	1.49e+00	0	41	104	0	65	27889
2026-01-12 00:31:51.74	10.99	6.33	-47.4	-64.6	3.8	1.49e+00	0	41	104	0	65	27523
2026-01-12 00:31:52.74	10.95	6.40	-47.5	-64.5	3.8	1.49e+00	0	41	104	0	65	27239
2026-01-12 00:31:53.73	10.91	6.47	-47.5	-64.4	3.8	1.49e+00	0	41	104	0	65	26983
2026-01-12 00:31:54.72	10.87	6.54	-47.5	-64.4	3.8	1.49e+00	0	41	104	0	65	26967
2026-01-12 00:31:55.72	10.83	6.62	-47.5	-64.5	3.8	1.49e+00	0	41	104	0	65	27180
2026-01-12 00:31:56.71	10.79	6.69	-47.4	-64.6	3.8	1.49e+00	0	42	104	0	65	27633
2026-01-12 00:31:57.71	10.75	6.76	-47.5	-64.9	3.8	1.49e+00	0	42	104	0	65	28535
2026-01-12 00:31:58.70	10.71	6.83	-47.5	-65.1	3.8	1.49e+00	0	42	104	0	65	29293
2026-01-12 00:31:59.69	10.67	6.91	-47.5	-65.3	3.8	1.49e+00	0	42	104	0	65	29782
2026-01-12 00:32:00.69	10.63	6.98	-47.4	-65.2	3.8	1.49e+00	0	42	104	0	65	29628
2026-01-12 00:32:01.68	10.58	7.06	-47.4	-64.8	3.8	1.49e+00	0	42	104	0	65	28100
2026-01-12 00:32:02.67	10.54	7.13	-47.4	-63.8	3.8	1.49e+00	0	42	104	0	65	25143
2026-01-12 00:32:03.67	10.50	7.20	-47.3	-62.5	3.9	1.48e+00	0	42	104	0	65	21671
2026-01-12 00:32:04.66	10.46	7.28	-47.3	-61.2	4.4	1.38e+00	0	42	0	0	65	18576
2026-01-12 00:32:05.65	10.41	7.35	-47.2	-59.8	5.0	9.10e-01	0	42	0	1048576	65	15820
2026-01-12 00:32:06.65	10.37	7.43	-47.1	-58.6	5.7	5.68e-01	0	42	0	3145728	65	13742
2026-01-12 00:32:07.64	10.33	7.50	-47.0	-57.5	6.5	2.88e-01	0	42	0	5242880	65	12171
2026-01-12 00:32:08.63	10.29	7.58	-46.8	-56.5	7.4	1.38e-01	0	42	0	7340032	65	10895
2026-01-12 00:32:09.62	10.24	7.65	-46.6	-55.7	8.2	7.95e-02	0	42	0	9437184	65	9931
2026-01-12 00:32:10.62	10.20	7.73	-46.5	-54.9	9.1	2.82e-02	0	42	0	10485760	65	8992
2026-01-12 00:32:11.61	10.15	7.80	-46.4	-54.2	9.7	1.72e-02	0	42	0	12582912	64	8854
2026-01-12 00:32:12.60	10.11	7.88	-46.3	-53.7	10.3	7.95e-03	0	42	0	14680064	64	8325
2026-01-12 00:32:13.60	10.06	7.96	-46.2	-53.3	10.7	3.08e-03	0	42	0	16777216	64	7947
2026-01-12 00:32:14.59	10.02	8.03	-46.0	-52.7	11.3	1.42e-03	0	42	0	17825792	64	7457
2026-01-12 00:32:15.58	9.97	8.11	-45.9	-52.3	11.7	6.38e-04	0	42	0	19922944	63	7507
2026-01-12 00:32:16.58	9.93	8.19	-45.9	-52.3	11.8	3.52e-04	0	42	0	22020096	63	7515
2026-01-12 00:32:17.57	9.88	8.26	-45.8	-52.0	12.1	2.88e-04	0	42	0	24117248	63	7242
2026-01-12 00:32:18.56	9.84	8.34	-45.7	-51.6	12.5	1.22e-04	0	42	0	26214400	63	6922
2026-01-12 00:32:19.56	9.79	8.42	-45.7	-51.7	12.4	1.45e-04	0	42	0	27262976	63	6982
2026-01-12 00:32:20.55	9.74	8.49	-45.9	-52.1	12.0	1.94e-04	0	42	0	29360128	63	7347
2026-01-12 00:32:21.54	9.70	8.57	-45.9	-52.1	12.0	2.72e-04	0	42	0	31457280	63	7298
2026-01-12 00:32:22.54	9.65	8.65	-46.1	-52.9	11.2	7.57e-04	0	42	0	33554432	63	8034
2026-01-12 00:32:23.53	9.60	8.73	-46.4	-53.6	10.5	2.17e-03	0	42	0	35651584	63	8710
2026-01-12 00:32:24.52	9.56	8.81	-46.6	-54.5	9.4	5.05e-03	0	42	0	36700160	63	9717
2026-01-12 00:32:25.51	9.51	8.89	-46.7	-55.8	8.2	3.77e-02	0	42	0	38797312	64	10579
2026-01-12 00:32:26.51	9.46	8.97	-47.0	-57.4	6.6	1.13e-01	0	42	0	40894464	64	12710
2026-01-12 00:32:27.50	9.41	9.04	-47.2	-59.3	5.3	3.42e-01	0	42	0	42991616	65	15042
2026-01-12 00:32:28.50	9.36	9.12	-47.0	-55.5	8.1	6.79e-01	0	42	0	44040192	65	9709
2026-01-12 00:32:29.49	9.31	9.20	-47.3	-56.8	7.7	1.62e-03	0	42	0	46137344	65	11277
2026-01-12 00:32:30.49	9.26	9.28	-47.6	-63.6	3.8	1.49e+00	0	42	104	46137344	65	24541
2026-01-12 00:32:31.48	9.21	9.36	-46.8	-54.3	9.4	7.23e-01	0	42	0	46137344	65	8407
2026-01-12 00:32:32.47	9.16	9.44	-45.8	-50.7	13.5	1.37e-05	0	42	0	48234496	63	6254
2026-01-12 00:32:33.47	9.11	9.53	-45.8	-50.6	13.5	6.10e-06	0	42	0	50331648	63	6202
2026-01-12 00:32:34.46	9.06	9.61	-45.6	-50.1	14.1	4.50e-06	0	42	0	52428800	63	5797
2026-01-12 00:32:35.45	9.01	9.69	-45.3	-49.5	14.7	0.00e+00	0	42	0	53477376	62	5759
2026-01-12 00:32:36.45	8.96	9.77	-45.2	-49.2	15.0	0.00e+00	0	42	0	55574528	62	5545
2026-01-12 00:32:37.44	8.91	9.85	-45.3	-49.2	15.0	0.00e+00	0	42	0	57671680	62	5576
2026-01-12 00:32:38.45	8.86	9.93	-45.1	-49.0	15.1	0.00e+00	0	43	0	59768832	61	5761
2026-01-12 00:32:39.45	8.81	10.02	-44.8	-48.6	15.5	0.00e+00	0	43	0	60817408	61	5503
2026-01-12 00:32:40.56	8.75	10.11	-45.0	-48.7	15.5	0.00e+00	0	42	0	62914560	61	5578
2026-01-12 00:32:41.41	8.70	10.18	-44.9	-48.6	15.6	0.00e+00	0	43	0	65011712	61	5497
2026-01-12 00:32:42.55	8.64	10.27	-44.6	-48.1	16.0	0.00e+00	0	43	0	67108864	61	5204
2026-01-12 00:32:43.40	8.60	10.35	-44.8	-48.4	15.8	0.00e+00	0	43	0	69206016	61	5387
2026-01-12 00:32:44.54	8.53	10.44	-44.6	-48.1	16.1	0.00e+00	0	43	0	71303168	61	5181
2026-01-12 00:32:45.39	8.49	10.51	-44.5	-47.9	16.2	0.00e+00	0	43	0	72351744	61	5096
2026-01-12 00:32:46.53	8.43	10.61	-44.6	-48.1	16.0	0.00e+00	0	43	0	74448896	61	5200
2026-01-12 00:32:47.38	8.38	10.68	-44.6	-48.1	16.1	0.00e+00	0	43	0	76546048	61	5190
2026-01-12 00:32:48.52	8.32	10.78	-44.5	-48.0	16.2	0.00e+00	0	42	0	78643200	61	5103
2026-01-12 00:32:49.37	8.27	10.85	-44.5	-48.0	16.2	0.00e+00	0	43	0	79691776	61	5123
2026-01-12 00:32:50.51	8.20	10.95	-44.6	-48.1	16.1	0.00e+00	0	43	0	81788928	61	5168
2026-01-12 00:32:51.36	8.16	11.02	-44.5	-48.1	16.1	0.00e+00	0	43	0	83886080	61	5184
2026-01-12 00:32:52.50	8.09	11.12	-44.6	-48.0	16.1	0.00e+00	0	42	0	85983232	61	5157
2026-01-12 00:32:53.35	8.04	11.19	-44.6	-48.2	16.0	0.00e+00	0	43	0	87031808	61	5238
2026-01-12 00:32:54.62	7.97	11.30	-44.5	-48.1	16.1	0.00e+00	0	43	0	90177536	61	5165
2026-01-12 00:32:55.42	7.92	11.37	-44.6	-48.1	16.1	0.00e+00	0	43	0	91226112	61	5210
2026-01-12 00:32:56.56	7.86	11.47	-44.6	-48.2	16.0	0.00e+00	0	43	0	93323264	61	5249
2026-01-12 00:32:57.41	7.81	11.55	-44.6	-48.2	16.0	0.00e+00	0	43	0	95420416	61	5266
2026-01-12 00:32:58.70	7.73	11.66	-44.7	-48.3	16.0	0.00e+00	0	43	0	97517568	61	5281
2026-01-12 00:32:59.42	7.69	11.72	-44.6	-48.2	16.1	0.00e+00	0	43	0	98566144	61	5240
2026-01-12 00:33:00.70	7.61	11.84	-44.5	-48.2	16.0	0.00e+00	0	43	0	100663296	61	5262
2026-01-12 00:33:01.42	7.57	11.90	-44.6	-48.3	15.9	0.00e+00	0	43	0	102760448	61	5308
2026-01-12 00:33:02.70	7.49	12.01	-44.6	-48.2	16.0	0.00e+00	0	43	0	104857600	60	5578
2026-01-12 00:33:03.43	7.45	12.08	-44.6	-48.3	15.9	0.00e+00	0	43	0	105906176	60	5614
2026-01-12 00:33:04.71	7.37	12.19	-44.5	-48.2	16.0	0.00e+00	0	43	0	109051904	60	5559
2026-01-12 00:33:05.48	7.32	12.26	-44.6	-48.2	16.0	0.00e+00	0	43	0	110100480	60	5580
2026-01-12 00:33:06.76	7.24	12.38	-44.6	-48.2	16.0	0.00e+00	0	43	0	112197632	60	5553
2026-01-12 00:33:07.51	7.19	12.45	-44.6	-48.2	16.1	0.00e+00	0	43	0	114294784	60	5542
2026-01-12 00:33:08.78	7.11	12.56	-44.5	-48.1	16.2	0.00e+00	0	43	0	116391936	60	5471
2026-01-12 00:33:09.51	7.07	12.63	-44.5	-48.0	16.2	0.00e+00	0	43	0	117440512	60	5453
2026-01-12 00:33:10.79	6.99	12.74	-44.5	-47.9	16.3	0.00e+00	0	43	0	120586240	60	5397
2026-01-12 00:33:11.51	6.94	12.81	-44.5	-47.9	16.3	0.00e+00	0	43	0	121634816	60	5402
2026-01-12 00:33:12.79	6.86	12.93	-44.4	-47.9	16.4	0.00e+00	0	43	0	123731968	60	5353
2026-01-12 00:33:13.52	6.81	13.00	-44.3	-47.8	16.5	0.00e+00	0	43	0	124780544	60	5294
2026-01-12 00:33:14.80	6.73	13.11	-44.5	-47.9	16.3	0.00e+00	0	43	0	127926272	60	5377
2026-01-12 00:33:15.52	6.68	13.18	-44.5	-47.8	16.4	0.00e+00	0	43	0	128974848	60	5338
2026-01-12 00:33:16.81	6.59	13.30	-44.4	-47.8	16.4	0.00e+00	0	43	0	131072000	60	5323
2026-01-12 00:33:17.52	6.55	13.37	-44.3	-47.7	16.5	0.00e+00	0	43	0	133169152	60	5258
2026-01-12 00:33:18.80	6.46	13.49	-44.4	-47.7	16.6	0.00e+00	0	43	0	135266304	60	5238
2026-01-12 00:33:19.51	6.41	13.55	-44.4	-47.6	16.6	0.00e+00	0	43	0	136314880	60	5208
2026-01-12 00:33:20.79	6.32	13.68	-44.5	-47.9	16.4	0.00e+00	0	43	0	138412032	60	5382
2026-01-12 00:33:21.51	6.27	13.74	-44.5	-47.8	16.5	0.00e+00	0	43	0	140509184	60	5291
2026-01-12 00:33:22.79	6.19	13.87	-44.5	-47.9	16.4	0.00e+00	0	43	0	142606336	60	5346
2026-01-12 00:33:23.52	6.14	13.94	-44.5	-47.8	16.4	0.00e+00	0	43	0	143654912	60	5340
2026-01-12 00:33:24.80	6.05	14.06	-44.7	-48.1	16.2	0.00e+00	0	43	0	146800640	60	5477
2026-01-12 00:33:25.61	5.99	14.14	-44.7	-48.1	16.2	0.00e+00	0	43	0	147849216	60	5512
2026-01-12 00:33:26.74	5.91	14.25	-44.7	-48.1	16.2	0.00e+00	0	43	0	149946368	60	5495
2026-01-12 00:33:27.60	5.85	14.33	-44.8	-48.3	16.0	0.00e+00	0	43	0	152043520	60	5614
2026-01-12 00:33:28.74	5.76	14.44	-44.9	-48.4	15.9	0.00e+00	0	43	0	154140672	60	5696
2026-01-12 00:33:29.59	5.70	14.52	-44.7	-48.1	16.2	0.00e+00	0	43	0	155189248	60	5515
2026-01-12 00:33:30.73	5.62	14.63	-44.8	-48.3	16.0	0.00e+00	0	43	0	157286400	60	5631
2026-01-12 00:33:31.58	5.56	14.72	-44.9	-48.4	16.0	0.00e+00	0	43	0	159383552	60	5665
2026-01-12 00:33:32.72	5.47	14.83	-44.8	-48.3	16.0	0.00e+00	0	43	0	161480704	60	5622
2026-01-12 00:33:33.57	5.41	14.91	-44.8	-48.3	16.0	0.00e+00	0	43	0	162529280	60	5609
2026-01-12 00:33:34.71	5.32	15.03	-44.9	-48.4	15.9	0.00e+00	0	43	0	164626432	60	5716
2026-01-12 00:33:35.56	5.26	15.11	-45.0	-48.4	15.9	0.00e+00	0	43	0	166723584	60	5682
2026-01-12 00:33:36.69	5.17	15.22	-44.9	-48.2	16.1	0.00e+00	0	43	0	168820736	60	5583
2026-01-12 00:33:37.59	5.10	15.31	-45.0	-48.4	16.0	0.00e+00	0	43	0	169869312	60	5686
2026-01-12 00:33:38.86	5.01	15.44	-45.1	-48.4	15.9	0.00e+00	0	43	0	173015040	61	5372
2026-01-12 00:33:39.65	4.95	15.52	-44.9	-48.2	16.1	0.00e+00	0	43	0	174063616	61	5250
2026-01-12 00:33:40.97	4.84	15.66	-45.0	-48.3	16.1	0.00e+00	0	43	0	177209344	61	5283
2026-01-12 00:33:41.68	4.79	15.73	-44.9	-48.2	16.2	0.00e+00	0	43	0	178257920	61	5249
2026-01-12 00:33:43.12	4.67	15.88	-45.0	-48.2	16.2	0.00e+00	0	43	0	180355072	61	5221
2026-01-12 00:33:43.83	4.61	15.95	-45.0	-48.2	16.1	0.00e+00	0	43	0	182452224	61	5260
2026-01-12 00:33:45.14	4.51	16.08	-45.1	-48.2	16.1	0.00e+00	0	43	0	184549376	61	5275
2026-01-12 00:33:45.85	4.45	16.16	-45.1	-48.2	16.1	0.00e+00	0	43	0	185597952	61	5256
2026-01-12 00:33:47.13	4.35	16.29	-45.1	-48.2	16.2	0.00e+00	0	43	0	188743680	61	5239
2026-01-12 00:33:47.84	4.29	16.36	-45.2	-48.4	16.0	0.00e+00	0	43	0	189792256	61	5353
2026-01-12 00:33:49.12	4.18	16.50	-44.9	-48.0	16.4	0.00e+00	0	43	0	191889408	61	5112
2026-01-12 00:33:49.85	4.12	16.57	-45.1	-48.2	16.1	0.00e+00	0	43	0	192937984	61	5276
2026-01-12 00:33:51.13	4.01	16.71	-45.2	-48.2	16.1	0.00e+00	0	43	0	196083712	61	5267
2026-01-12 00:33:51.84	3.95	16.78	-45.1	-48.2	16.1	0.00e+00	0	43	0	197132288	61	5263
2026-01-12 00:33:53.12	3.84	16.92	-45.3	-48.4	16.0	0.00e+00	0	43	0	199229440	61	5365
2026-01-12 00:33:53.83	3.78	17.00	-45.3	-48.4	16.0	0.00e+00	0	43	0	201326592	61	5385
2026-01-12 00:33:55.11	3.67	17.13	-45.3	-48.3	16.0	0.00e+00	0	43	0	203423744	61	5338
2026-01-12 00:33:55.94	3.60	17.22	-45.2	-48.3	16.1	0.00e+00	0	43	0	204472320	61	5316
2026-01-12 00:33:57.08	3.50	17.34	-45.2	-48.2	16.2	0.00e+00	0	43	0	206569472	61	5221
2026-01-12 00:33:57.93	3.42	17.44	-45.3	-48.4	16.0	0.00e+00	0	43	0	208666624	61	5374
2026-01-12 00:33:59.07	3.32	17.56	-45.4	-48.5	15.9	0.00e+00	0	43	0	210763776	61	5416
2026-01-12 00:33:59.92	3.24	17.65	-45.3	-48.3	16.1	0.00e+00	0	43	0	211812352	61	5332
2026-01-12 00:34:01.06	3.14	17.78	-45.4	-48.6	15.9	0.00e+00	0	43	0	213909504	61	5468
2026-01-12 00:34:01.91	3.06	17.87	-45.4	-48.5	15.9	0.00e+00	0	43	0	216006656	61	5426
2026-01-12 00:34:03.05	2.96	18.00	-45.5	-48.6	15.7	0.00e+00	0	43	0	218103808	61	5517
2026-01-12 00:34:03.90	2.88	18.09	-45.3	-48.4	16.0	0.00e+00	0	43	0	220200960	61	5359
2026-01-12 00:34:05.04	2.77	18.22	-45.2	-48.3	16.0	0.00e+00	0	43	0	222298112	61	5322
2026-01-12 00:34:05.89	2.69	18.31	-45.5	-48.7	15.8	0.00e+00	0	43	0	223346688	61	5563
2026-01-12 00:34:07.03	2.58	18.44	-45.2	-48.3	16.1	0.00e+00	0	43	0	225443840	61	5288
2026-01-12 00:34:07.88	2.50	18.53	-45.2	-48.2	16.3	0.00e+00	0	43	0	227540992	61	5263
2026-01-12 00:34:09.01	2.39	18.66	-45.4	-48.5	15.9	0.00e+00	0	43	0	229638144	61	5458
2026-01-12 00:34:09.87	2.31	18.76	-45.4	-48.5	15.9	0.00e+00	0	43	0	230686720	61	5433
2026-01-12 00:34:11.01	2.19	18.89	-45.3	-48.5	15.9	0.00e+00	0	43	0	232783872	61	5408
2026-01-12 00:34:11.86	2.11	18.99	-45.3	-48.4	16.0	0.00e+00	0	43	0	234881024	61	5343
2026-01-12 00:34:13.00	2.00	19.12	-45.3	-48.4	16.0	0.00e+00	0	43	0	236978176	61	5358
2026-01-12 00:34:13.85	1.91	19.21	-45.4	-48.5	15.9	0.00e+00	0	43	0	238026752	61	5453
2026-01-12 00:34:14.98	1.80	19.34	-45.3	-48.4	16.0	0.00e+00	0	43	0	240123904	61	5374
2026-01-12 00:34:15.84	1.71	19.44	-45.3	-48.3	16.1	0.00e+00	0	43	0	242221056	61	5337
2026-01-12 00:34:16.97	1.59	19.57	-45.4	-48.5	15.9	0.00e+00	0	43	0	244318208	61	5418
2026-01-12 00:34:17.83	1.51	19.68	-45.3	-48.4	16.0	0.00e+00	0	43	0	245366784	61	5371
2026-01-12 00:34:18.96	1.39	19.81	-45.5	-48.6	15.8	0.00e+00	0	43	0	248512512	61	5503
2026-01-12 00:34:19.82	1.30	19.91	-45.5	-48.6	15.8	0.00e+00	0	43	0	249561088	61	5477
2026-01-12 00:34:20.95	1.18	20.04	-45.4	-48.5	15.9	0.00e+00	0	43	0	251658240	61	5437
2026-01-12 00:34:21.80	1.09	20.14	-45.5	-48.6	15.8	0.00e+00	0	43	0	253755392	61	5516
2026-01-12 00:34:22.94	0.96	20.28	-45.7	-48.9	15.6	0.00e+00	0	43	0	255852544	61	5679
2026-01-12 00:34:23.81	0.87	20.38	-45.5	-48.5	15.9	0.00e+00	0	43	0	256901120	62	5159
2026-01-12 00:34:24.95	0.74	20.52	-45.7	-48.9	15.6	0.00e+00	0	43	0	258998272	62	5361
2026-01-12 00:34:25.80	0.65	20.62	-45.8	-49.1	15.4	0.00e+00	0	43	0	261095424	62	5493
2026-01-12 00:34:26.94	0.52	20.76	-45.9	-49.2	15.2	0.00e+00	0	43	0	263192576	62	5575
2026-01-12 00:34:27.79	0.43	20.86	-45.9	-49.3	15.2	0.00e+00	0	43	0	264241152	62	5597
2026-01-12 00:34:28.93	0.30	21.00	-45.8	-49.1	15.3	0.00e+00	0	43	0	266338304	62	5521
2026-01-12 00:34:29.78	0.20	21.10	-45.8	-49.3	15.2	0.00e+00	0	43	0	268435456	62	5612
2026-01-12 00:34:30.92	0.07	21.24	-45.8	-49.2	15.3	0.00e+00	0	43	0	270532608	62	5569
2026-01-12 00:34:31.78	359.97	21.35	-45.5	-48.8	15.7	0.00e+00	0	43	0	271581184	62	5305
2026-01-12 00:34:32.91	359.84	21.49	-45.7	-49.0	15.4	0.00e+00	0	43	0	273678336	62	5461
2026-01-12 00:34:33.77	359.74	21.60	-45.7	-49.2	15.3	0.00e+00	0	43	0	275775488	62	5564
2026-01-12 00:34:34.90	359.61	21.74	-45.7	-49.2	15.3	0.00e+00	0	43	0	277872640	62	5545
2026-01-12 00:34:35.76	359.50	21.84	-45.5	-48.8	15.7	0.00e+00	0	43	0	278921216	62	5317
2026-01-12 00:34:37.00	359.35	22.00	-45.5	-48.7	15.7	0.00e+00	0	43	0	282066944	62	5254
2026-01-12 00:34:37.86	359.25	22.11	-45.8	-49.2	15.2	0.00e+00	0	43	0	283115520	62	5582
2026-01-12 00:34:39.00	359.11	22.25	-45.6	-48.9	15.6	0.00e+00	0	43	0	285212672	62	5346
2026-01-12 00:34:39.85	359.00	22.36	-45.6	-48.8	15.6	0.00e+00	0	43	0	287309824	62	5331
2026-01-12 00:34:40.98	358.86	22.50	-45.8	-49.2	15.3	0.00e+00	0	43	0	289406976	62	5532
2026-01-12 00:34:41.84	358.75	22.61	-45.8	-49.2	15.3	0.00e+00	0	43	0	290455552	62	5560
2026-01-12 00:34:42.97	358.61	22.76	-45.9	-49.2	15.3	0.00e+00	0	43	0	292552704	62	5581
2026-01-12 00:34:43.82	358.50	22.87	-46.0	-49.4	15.1	0.00e+00	0	43	0	294649856	62	5680
2026-01-12 00:34:44.96	358.35	23.01	-45.9	-49.3	15.1	0.00e+00	0	43	0	296747008	62	5631
2026-01-12 00:34:45.81	358.24	23.13	-46.1	-49.6	14.9	0.00e+00	0	43	0	297795584	63	5526
2026-01-12 00:34:46.95	358.09	23.27	-46.2	-49.8	14.7	0.00e+00	0	43	0	299892736	63	5650
2026-01-12 00:34:47.80	357.98	23.39	-46.1	-49.6	14.9	0.00e+00	0	43	0	301989888	63	5506
2026-01-12 00:34:48.94	357.83	23.53	-46.3	-50.1	14.5	1.50e-06	0	43	0	304087040	63	5830
2026-01-12 00:34:49.79	357.71	23.65	-46.4	-50.2	14.3	7.00e-07	0	43	0	306184192	63	5915
2026-01-12 00:34:50.93	357.56	23.80	-46.2	-50.0	14.5	1.50e-06	0	43	0	308281344	63	5771
2026-01-12 00:34:51.78	357.44	23.91	-46.1	-49.9	14.7	7.00e-07	0	44	0	309329920	63	5685
2026-01-12 00:34:53.09	357.26	24.09	-45.8	-49.5	15.0	0.00e+00	0	43	0	311427072	63	5425
2026-01-12 00:34:53.80	357.16	24.18	-46.0	-49.8	14.8	7.00e-07	0	43	0	313524224	63	5596
2026-01-12 00:34:55.08	356.98	24.35	-46.1	-50.0	14.6	7.00e-07	0	43	0	315621376	63	5770
2026-01-12 00:34:55.80	356.88	24.45	-45.9	-49.8	14.7	7.00e-07	0	43	0	316669952	63	5648
2026-01-12 00:34:57.07	356.70	24.62	-46.0	-50.0	14.5	0.00e+00	0	43	0	319815680	63	5759
2026-01-12 00:34:57.80	356.59	24.72	-46.0	-50.0	14.5	1.50e-06	0	43	0	320864256	63	5766
2026-01-12 00:34:59.08	356.41	24.89	-46.1	-50.2	14.3	3.00e-06	0	43	0	322961408	63	5877
2026-01-12 00:34:59.81	356.30	24.99	-46.1	-50.2	14.4	0.00e+00	0	43	0	324009984	63	5888
2026-01-12 00:35:01.08	356.11	25.17	-46.1	-50.0	14.5	7.00e-07	0	43	0	327155712	63	5765
2026-01-12 00:35:01.81	356.00	25.27	-46.2	-50.3	14.3	3.00e-06	0	43	0	328204288	63	5943
2026-01-12 00:35:03.09	355.81	25.45	-46.1	-50.0	14.5	7.00e-07	0	43	0	330301440	63	5788
2026-01-12 00:35:03.80	355.70	25.55	-46.0	-49.7	14.8	1.50e-06	0	43	0	332398592	63	5568
2026-01-12 00:35:05.16	355.49	25.73	-46.0	-49.6	14.9	0.00e+00	0	43	0	334495744	63	5511
2026-01-12 00:35:05.87	355.38	25.83	-46.0	-49.5	15.1	0.00e+00	0	43	0	335544320	63	5408
2026-01-12 00:35:07.15	355.18	26.01	-45.8	-49.1	15.4	0.00e+00	0	43	0	338690048	63	5191
2026-01-12 00:35:07.87	355.06	26.12	-45.8	-49.1	15.4	0.00e+00	0	43	0	339738624	63	5169
2026-01-12 00:35:09.24	354.85	26.31	-45.5	-48.6	15.9	0.00e+00	0	43	0	341835776	63	4924
2026-01-12 00:35:09.95	354.73	26.41	-45.4	-48.5	16.0	0.00e+00	0	43	0	343932928	62	5158
2026-01-12 00:35:11.23	354.52	26.59	-45.5	-48.7	15.9	0.00e+00	0	43	0	346030080	62	5235
2026-01-12 00:35:11.94	354.41	26.69	-45.4	-48.6	15.9	0.00e+00	0	43	0	347078656	62	5189
2026-01-12 00:35:13.22	354.19	26.88	-45.6	-48.9	15.6	0.00e+00	0	43	0	350224384	62	5379
2026-01-12 00:35:13.95	354.07	26.98	-45.7	-49.0	15.6	0.00e+00	0	43	0	351272960	62	5430
2026-01-12 00:35:15.23	353.86	27.17	-45.7	-49.0	15.6	0.00e+00	0	43	0	353370112	62	5418
2026-01-12 00:35:15.94	353.74	27.27	-45.8	-49.2	15.4	0.00e+00	0	43	0	354418688	62	5531
2026-01-12 00:35:17.21	353.52	27.45	-45.9	-49.3	15.3	0.00e+00	0	44	0	357564416	62	5595
2026-01-12 00:35:17.97	353.39	27.57	-45.9	-49.2	15.3	0.00e+00	0	43	0	358612992	62	5584
2026-01-12 00:35:19.25	353.16	27.75	-46.0	-49.3	15.2	0.00e+00	0	43	0	360710144	62	5652
2026-01-12 00:35:20.05	353.02	27.87	-45.9	-49.1	15.4	0.00e+00	0	43	0	362807296	62	5528
2026-01-12 00:35:21.19	352.82	28.04	-45.9	-49.1	15.5	0.00e+00	0	43	0	364904448	62	5496
2026-01-12 00:35:22.25	352.62	28.19	-45.9	-49.2	15.4	0.00e+00	0	43	0	367001600	62	5533
2026-01-12 00:35:23.10	352.47	28.32	-45.8	-48.9	15.7	0.00e+00	0	43	0	368050176	62	5379
2026-01-12 00:35:24.24	352.26	28.49	-45.9	-49.1	15.4	0.00e+00	0	43	0	370147328	62	5514
2026-01-12 00:35:25.09	352.10	28.62	-45.9	-49.1	15.5	0.00e+00	0	43	0	372244480	63	5205
2026-01-12 00:35:26.23	351.89	28.79	-46.1	-49.3	15.3	0.00e+00	0	43	0	374341632	63	5311
2026-01-12 00:35:27.08	351.73	28.91	-46.2	-49.6	15.0	0.00e+00	0	43	0	375390208	63	5487
2026-01-12 00:35:28.22	351.51	29.09	-46.3	-49.7	14.9	0.00e+00	0	43	0	377487360	63	5578
2026-01-12 00:35:29.07	351.35	29.21	-46.3	-49.7	14.9	0.00e+00	0	43	0	379584512	63	5579
2026-01-12 00:35:30.21	351.13	29.39	-46.3	-49.7	15.0	7.00e-07	0	43	0	381681664	63	5549
2026-01-12 00:35:31.06	350.96	29.52	-46.1	-49.5	15.2	0.00e+00	0	43	0	382730240	63	5412
2026-01-12 00:35:32.32	350.71	29.71	-46.1	-49.5	15.1	0.00e+00	0	43	0	385875968	63	5451
2026-01-12 00:35:33.13	350.55	29.83	-45.9	-49.2	15.3	0.00e+00	0	43	0	386924544	63	5267
2026-01-12 00:35:34.26	350.32	30.01	-46.1	-49.5	15.1	0.00e+00	0	43	0	389021696	63	5451
2026-01-12 00:35:35.11	350.14	30.14	-46.2	-49.6	14.9	0.00e+00	0	43	0	391118848	63	5528
2026-01-12 00:35:36.25	349.91	30.31	-46.2	-49.6	15.0	0.00e+00	0	43	0	393216000	63	5515
2026-01-12 00:35:37.17	349.72	30.45	-46.2	-49.6	15.0	0.00e+00	0	43	0	394264576	63	5481
2026-01-12 00:35:38.16	349.51	30.61	-46.2	-49.6	15.0	7.00e-07	0	43	0	396361728	63	5496
2026-01-12 00:35:39.16	349.30	30.76	-46.5	-50.0	14.7	0.00e+00	0	43	0	398458880	63	5730
2026-01-12 00:35:40.15	349.09	30.92	-46.5	-49.9	14.7	0.00e+00	0	43	0	400556032	63	5684
2026-01-12 00:35:41.43	348.81	31.12	-46.6	-50.1	14.5	0.00e+00	0	43	0	402653184	63	5828
2026-01-12 00:35:42.17	348.65	31.23	-46.6	-50.0	14.6	7.00e-07	0	43	0	403701760	63	5781
2026-01-12 00:35:43.76	348.29	31.48	-46.6	-50.2	14.3	1.50e-06	0	43	0	406847488	64	5560
2026-01-12 00:35:44.35	348.16	31.57	-46.7	-50.5	14.1	1.50e-06	0	43	0	407896064	64	5726
2026-01-12 00:35:45.91	347.81	31.82	-46.7	-50.6	14.0	2.20e-06	0	43	0	411041792	64	5813
2026-01-12 00:35:46.62	347.65	31.93	-46.7	-50.6	14.0	0.00e+00	0	43	0	412090368	64	5854
2026-01-12 00:35:47.91	347.35	32.13	-46.5	-50.3	14.2	1.50e-06	0	43	0	415236096	64	5655
2026-01-12 00:35:48.63	347.18	32.25	-46.5	-50.2	14.3	0.00e+00	0	43	0	416284672	64	5591
2026-01-12 00:35:49.92	346.88	32.45	-46.5	-50.2	14.3	7.00e-07	0	43	0	418381824	64	5559
2026-01-12 00:35:50.63	346.71	32.57	-46.5	-50.2	14.3	0.00e+00	0	43	0	419430400	64	5547
2026-01-12 00:35:51.91	346.40	32.77	-46.3	-49.8	14.8	7.00e-07	0	43	0	422576128	64	5340
2026-01-12 00:35:52.62	346.23	32.88	-46.4	-50.0	14.5	7.00e-07	0	43	0	423624704	64	5457
2026-01-12 00:35:53.90	345.92	33.09	-46.6	-50.3	14.2	7.00e-07	0	43	0	425721856	64	5637
2026-01-12 00:35:54.61	345.74	33.20	-46.5	-50.1	14.5	1.50e-06	0	43	0	426770432	64	5485
2026-01-12 00:35:56.13	345.36	33.45	-46.9	-50.9	13.8	3.00e-06	0	43	0	429916160	64	6001
2026-01-12 00:35:56.84	345.18	33.56	-46.9	-50.8	13.7	6.10e-06	0	43	0	430964736	64	5990
2026-01-12 00:35:58.18	344.84	33.78	-46.9	-50.9	13.8	4.50e-06	0	43	0	434110464	64	6019
2026-01-12 00:35:58.89	344.65	33.89	-46.8	-50.7	13.9	5.30e-06	0	43	0	435159040	64	5859
2026-01-12 00:36:00.23	344.30	34.11	-46.7	-50.4	14.1	0.00e+00	0	43	0	438304768	64	5713
2026-01-12 00:36:00.95	344.11	34.22	-46.4	-50.0	14.5	0.00e+00	0	43	0	439353344	64	5429
2026-01-12 00:36:02.23	343.77	34.43	-46.4	-50.0	14.4	7.00e-07	0	43	0	441450496	64	5453
2026-01-12 00:36:02.94	343.58	34.54	-46.3	-49.9	14.7	0.00e+00	0	43	0	442499072	64	5342
2026-01-12 00:36:04.22	343.24	34.75	-46.4	-50.0	14.5	0.00e+00	0	43	0	445644800	64	5443
2026-01-12 00:36:04.94	343.04	34.87	-46.2	-49.7	14.8	7.00e-07	0	43	0	446693376	64	5248
2026-01-12 00:36:06.22	342.68	35.08	-46.7	-50.7	13.8	3.00e-06	0	43	0	448790528	64	5911
2026-01-12 00:36:06.94	342.48	35.19	-46.8	-50.8	13.7	7.00e-07	0	43	0	450887680	64	5992
2026-01-12 00:36:08.22	342.12	35.40	-47.3	-51.9	12.6	2.13e-05	0	43	0	452984832	65	6402
2026-01-12 00:36:08.93	341.92	35.51	-47.6	-52.4	12.2	1.12e-04	0	44	0	454033408	65	6781
2026-01-12 00:36:10.21	341.55	35.72	-47.9	-52.9	11.6	4.90e-04	0	43	0	456130560	66	6771
2026-01-12 00:36:11.10	341.29	35.87	-47.9	-52.9	11.7	7.04e-04	0	44	0	458227712	66	6781
2026-01-12 00:36:12.23	340.95	36.05	-47.8	-52.5	12.0	5.45e-04	0	43	0	460324864	66	6492
2026-01-12 00:36:13.08	340.70	36.19	-47.7	-52.4	12.2	2.72e-04	0	43	0	462422016	66	6354
2026-01-12 00:36:14.22	340.36	36.37	-47.4	-51.8	12.8	6.33e-05	0	44	0	464519168	66	5952
2026-01-12 00:36:15.07	340.10	36.51	-47.1	-51.2	13.4	1.83e-05	0	43	0	465567744	66	5561
2026-01-12 00:36:16.21	339.75	36.69	-46.5	-50.0	14.5	2.20e-06	0	43	0	467664896	64	5462
2026-01-12 00:36:17.06	339.49	36.83	-46.3	-49.7	14.8	7.00e-07	0	43	0	469762048	64	5256
2026-01-12 00:36:18.20	339.13	37.01	-46.1	-49.4	15.3	0.00e+00	0	44	0	471859200	63	5341
2026-01-12 00:36:19.05	338.86	37.15	-45.9	-49.1	15.5	0.00e+00	0	43	0	472907776	63	5162
2026-01-12 00:36:20.19	338.50	37.33	-46.1	-49.3	15.4	0.00e+00	0	43	0	475004928	63	5281
2026-01-12 00:36:21.04	338.22	37.47	-46.3	-49.7	14.9	0.00e+00	0	43	0	477102080	63	5548
2026-01-12 00:36:22.18	337.85	37.65	-46.5	-50.0	14.6	0.00e+00	0	43	0	479199232	63	5777
2026-01-12 00:36:23.03	337.57	37.79	-46.6	-50.2	14.4	7.00e-07	0	43	0	480247808	64	5575
2026-01-12 00:36:24.17	337.19	37.97	-46.8	-50.6	14.0	2.20e-06	0	43	0	482344960	64	5836
2026-01-12 00:36:25.02	336.91	38.11	-46.9	-50.7	13.8	3.00e-06	0	44	0	484442112	64	5901
2026-01-12 00:36:26.16	336.52	38.29	-47.1	-51.2	13.4	6.10e-06	0	44	0	486539264	64	6216
2026-01-12 00:36:27.01	336.23	38.42	-47.5	-51.8	12.8	3.96e-05	0	44	0	487587840	65	6279
2026-01-12 00:36:28.14	335.84	38.60	-47.3	-51.4	13.2	1.98e-05	0	43	0	489684992	65	5996
2026-01-12 00:36:29.34	335.42	38.79	-47.4	-51.6	13.0	3.43e-05	0	43	0	492830720	65	6147
2026-01-12 00:36:30.20	335.12	38.93	-47.3	-51.5	13.1	1.67e-05	0	43	0	493879296	65	6094
2026-01-12 00:36:31.33	334.72	39.10	-47.5	-51.9	12.6	4.80e-05	0	43	0	495976448	65	6407
2026-01-12 00:36:32.19	334.41	39.24	-47.5	-51.9	12.6	4.88e-05	0	43	0	498073600	65	6388
2026-01-12 00:36:33.33	333.99	39.42	-46.9	-50.8	13.8	8.30e-06	0	43	0	500170752	65	5597
2026-01-12 00:36:34.18	333.68	39.55	-46.6	-50.1	14.5	0.00e+00	0	43	0	501219328	64	5521
2026-01-12 00:36:35.31	333.26	39.72	-45.9	-49.1	15.4	0.00e+00	0	43	0	503316480	63	5197
2026-01-12 00:36:36.17	332.94	39.85	-46.1	-49.3	15.2	0.00e+00	0	43	0	505413632	63	5335
2026-01-12 00:36:37.30	332.52	40.03	-46.6	-50.5	14.1	7.00e-07	0	43	0	507510784	63	6067
2026-01-12 00:36:38.15	332.19	40.15	-47.1	-51.6	12.9	1.83e-05	0	43	0	508559360	64	6528
2026-01-12 00:36:39.40	331.71	40.34	-47.4	-52.6	11.8	2.17e-04	0	43	0	511705088	65	6896
2026-01-12 00:36:40.25	331.38	40.47	-47.3	-52.5	12.0	5.45e-04	0	43	0	512753664	65	6841
2026-01-12 00:36:41.39	330.94	40.64	-46.5	-50.6	14.0	1.52e-05	0	43	0	514850816	65	5494
2026-01-12 00:36:42.24	330.60	40.77	-46.3	-50.1	14.5	7.00e-07	0	43	0	516947968	64	5480
2026-01-12 00:36:43.60	330.06	40.97	-46.0	-49.3	15.3	0.00e+00	0	43	0	519045120	63	5315
2026-01-12 00:36:44.31	329.77	41.07	-45.9	-49.1	15.5	0.00e+00	0	43	0	520093696	63	5188
2026-01-12 00:36:45.59	329.25	41.26	-46.2	-49.6	15.1	0.00e+00	0	43	0	523239424	63	5466
2026-01-12 00:36:46.32	328.95	41.36	-46.0	-49.1	15.4	0.00e+00	0	43	0	524288000	63	5216
2026-01-12 00:36:47.60	328.42	41.55	-46.4	-49.8	14.7	0.00e+00	0	44	0	526385152	63	5636
2026-01-12 00:36:48.31	328.12	41.65	-46.5	-50.0	14.6	1.50e-06	0	44	0	527433728	63	5751
2026-01-12 00:36:49.59	327.58	41.83	-46.6	-50.3	14.3	0.00e+00	0	43	0	530579456	63	5953
2026-01-12 00:36:50.31	327.27	41.93	-46.7	-50.4	14.2	0.00e+00	0	43	0	531628032	64	5685
2026-01-12 00:36:51.59	326.72	42.11	-46.4	-49.9	14.6	7.00e-07	0	44	0	533725184	64	5399
2026-01-12 00:36:52.30	326.42	42.20	-46.0	-49.3	15.2	0.00e+00	0	43	0	535822336	64	5024
2026-01-12 00:36:53.58	325.86	42.38	-45.7	-48.8	15.8	0.00e+00	0	44	0	537919488	63	5039
2026-01-12 00:36:54.31	325.53	42.48	-45.4	-48.3	16.2	0.00e+00	0	44	0	538968064	62	5029
2026-01-12 00:36:55.67	324.93	42.66	-44.9	-47.7	16.9	0.00e+00	0	43	0	542113792	61	4944
2026-01-12 00:36:56.38	324.61	42.75	-45.1	-48.0	16.5	0.00e+00	0	44	0	543162368	61	5110
2026-01-12 00:36:57.66	324.03	42.91	-45.9	-49.1	15.5	0.00e+00	0	43	0	545259520	62	5478
2026-01-12 00:36:58.70	323.56	43.05	-46.7	-50.4	14.3	0.00e+00	0	43	0	547356672	63	6005
2026-01-12 00:36:59.64	323.13	43.17	-46.7	-50.5	14.0	2.20e-06	0	43	0	549453824	64	5780
2026-01-12 00:37:00.64	322.66	43.29	-46.6	-50.3	14.3	2.20e-06	0	43	0	551550976	64	5620
2026-01-12 00:37:01.63	322.20	43.41	-46.3	-49.9	14.6	0.00e+00	0	43	0	552599552	64	5361
2026-01-12 00:37:02.63	321.73	43.53	-46.1	-49.5	15.1	0.00e+00	0	43	0	554696704	63	5425
2026-01-12 00:37:03.62	321.26	43.65	-45.1	-48.0	16.5	0.00e+00	0	44	0	556793856	62	4850
2026-01-12 00:37:04.62	320.78	43.77	-44.9	-47.7	16.8	0.00e+00	0	43	0	558891008	61	4957
2026-01-12 00:37:05.61	320.31	43.88	-44.6	-47.4	17.1	0.00e+00	0	43	0	559939584	61	4801
2026-01-12 00:37:06.60	319.83	44.00	-44.8	-47.7	16.8	0.00e+00	0	44	0	562036736	61	4962
2026-01-12 00:37:07.60	319.34	44.11	-44.8	-47.7	16.8	0.00e+00	0	44	0	564133888	61	4957
2026-01-12 00:37:08.59	318.85	44.22	-44.6	-47.3	17.2	0.00e+00	0	43	0	566231040	60	5026
2026-01-12 00:37:09.58	318.36	44.32	-44.2	-46.8	17.7	0.00e+00	0	43	0	568328192	60	4729
2026-01-12 00:37:10.58	317.86	44.43	-44.6	-47.2	17.3	0.00e+00	0	43	0	569376768	60	4971
2026-01-12 00:37:11.57	317.37	44.53	-45.5	-48.5	16.2	0.00e+00	0	43	0	571473920	61	5438
2026-01-12 00:37:12.57	316.86	44.63	-46.0	-49.1	15.5	0.00e+00	0	44	0	573571072	62	5516
2026-01-12 00:37:13.56	316.36	44.73	-46.2	-49.6	15.0	0.00e+00	0	44	0	575668224	63	5478
2026-01-12 00:37:14.56	315.85	44.83	-46.6	-50.3	14.4	1.50e-06	0	44	0	576716800	63	5948
2026-01-12 00:37:15.55	315.34	44.92	-46.9	-50.9	13.7	3.00e-06	0	43	0	578813952	64	6014
2026-01-12 00:37:16.55	314.82	45.01	-47.4	-51.7	12.8	1.60e-05	0	43	0	580911104	65	6234
2026-01-12 00:37:17.55	314.30	45.10	-47.5	-51.9	12.6	5.18e-05	0	43	0	583008256	66	6058
2026-01-12 00:37:18.54	313.79	45.19	-47.8	-52.6	12.0	4.90e-04	0	43	0	585105408	66	6503
2026-01-12 00:37:19.55	313.25	45.27	-47.7	-52.6	12.2	5.63e-04	0	43	0	586153984	66	6509
2026-01-12 00:37:20.55	312.73	45.36	-46.9	-51.0	13.5	3.89e-05	0	43	0	588251136	65	5746
2026-01-12 00:37:21.54	312.20	45.44	-46.3	-49.9	14.6	0.00e+00	0	43	0	590348288	64	5341
2026-01-12 00:37:22.54	311.67	45.51	-45.5	-48.6	16.0	0.00e+00	0	43	0	592445440	63	4892
2026-01-12 00:37:23.53	311.13	45.59	-45.1	-48.0	16.6	0.00e+00	0	43	0	594542592	62	4836
2026-01-12 00:37:24.52	310.60	45.66	-45.2	-48.2	16.4	0.00e+00	0	43	0	595591168	62	4933
2026-01-12 00:37:25.52	310.06	45.73	-45.9	-49.2	15.4	0.00e+00	0	43	0	597688320	62	5563
2026-01-12 00:37:26.51	309.52	45.79	-46.2	-49.7	14.9	0.00e+00	0	43	0	599785472	63	5568
2026-01-12 00:37:27.51	308.97	45.86	-46.1	-49.3	15.4	0.00e+00	0	44	0	601882624	63	5338
2026-01-12 00:37:28.50	308.43	45.92	-46.0	-49.2	15.4	0.00e+00	0	43	0	602931200	63	5270
2026-01-12 00:37:29.50	307.88	45.97	-46.7	-50.4	14.2	7.00e-07	0	44	0	605028352	64	5721
2026-01-12 00:37:30.49	307.33	46.03	-47.5	-51.9	12.5	1.06e-05	0	43	0	607125504	65	6384
2026-01-12 00:37:31.48	306.78	46.08	-47.7	-52.4	12.2	3.09e-04	0	43	0	609222656	66	6382
2026-01-12 00:37:32.48	306.23	46.13	-47.5	-51.9	12.7	1.20e-04	0	44	0	611319808	66	6014
2026-01-12 00:37:33.49	305.66	46.18	-47.0	-50.8	13.8	2.36e-05	0	43	0	612368384	65	5622
2026-01-12 00:37:34.49	305.11	46.22	-46.7	-50.3	14.3	0.00e+00	0	43	0	614465536	65	5283
2026-01-12 00:37:35.55	304.51	46.26	-46.5	-50.0	14.7	0.00e+00	0	44	0	616562688	64	5408
2026-01-12 00:37:36.40	304.03	46.30	-46.7	-50.3	14.3	1.50e-06	0	44	0	617611264	64	5655
2026-01-12 00:37:37.54	303.39	46.34	-46.6	-50.3	14.1	2.20e-06	0	43	0	620756992	64	5624
2026-01-12 00:37:38.39	302.91	46.36	-46.7	-50.6	14.0	5.30e-06	0	43	0	621805568	64	5815
2026-01-12 00:37:39.53	302.26	46.40	-46.9	-50.9	13.7	3.00e-06	0	44	0	623902720	64	6047
2026-01-12 00:37:40.38	301.78	46.42	-47.1	-51.1	13.4	8.30e-06	0	43	0	625999872	64	6168
2026-01-12 00:37:41.52	301.13	46.44	-47.4	-51.7	12.9	3.89e-05	0	43	0	628097024	65	6209
2026-01-12 00:37:42.37	300.65	46.46	-47.4	-51.7	12.9	4.88e-05	0	43	0	629145600	65	6244
2026-01-12 00:37:43.51	300.00	46.48	-47.1	-51.1	13.5	6.17e-05	0	43	0	631242752	65	5819
2026-01-12 00:37:44.36	299.52	46.49	-47.1	-51.2	13.4	2.82e-05	0	44	0	633339904	65	5858
2026-01-12 00:37:45.50	298.87	46.50	-46.5	-50.0	14.5	0.00e+00	0	44	0	635437056	65	5141
2026-01-12 00:37:46.35	298.38	46.51	-46.2	-49.7	14.8	0.00e+00	0	43	0	636485632	64	5221
2026-01-12 00:37:47.49	297.73	46.51	-46.7	-50.4	14.1	0.00e+00	0	43	0	638582784	64	5690
2026-01-12 00:37:48.34	297.25	46.51	-47.1	-51.1	13.6	2.20e-06	0	43	0	640679936	64	6137
2026-01-12 00:37:49.61	296.52	46.51	-47.1	-51.1	13.5	6.10e-06	0	43	0	642777088	65	5794
2026-01-12 00:37:50.80	295.84	46.50	-46.5	-49.9	14.3	1.50e-06	0	43	0	644874240	65	5098
2026-01-12 00:37:51.89	295.22	46.49	-46.8	-50.5	14.2	7.00e-07	0	43	0	646971392	64	5727
2026-01-12 00:37:52.75	294.73	46.48	-46.8	-50.5	14.1	0.00e+00	0	43	0	649068544	64	5774
2026-01-12 00:37:53.88	294.09	46.46	-46.0	-49.3	15.2	0.00e+00	0	43	0	651165696	64	5012
2026-01-12 00:37:54.73	293.60	46.45	-45.7	-48.7	15.8	0.00e+00	0	44	0	652214272	63	4975
2026-01-12 00:37:55.87	292.95	46.42	-45.5	-48.5	16.1	0.00e+00	0	44	0	654311424	62	5125
2026-01-12 00:37:56.72	292.47	46.40	-45.8	-48.9	15.8	0.00e+00	0	44	0	656408576	62	5343
2026-01-12 00:37:57.88	291.81	46.37	-46.0	-49.3	15.4	0.00e+00	0	44	0	658505728	62	5594
2026-01-12 00:37:58.73	291.33	46.34	-46.4	-49.8	14.8	0.00e+00	0	44	0	659554304	63	5601
2026-01-12 00:37:59.86	290.70	46.30	-46.6	-50.2	14.3	7.00e-07	0	43	0	662700032	64	5586
2026-01-12 00:38:00.72	290.21	46.27	-46.5	-50.0	14.5	0.00e+00	0	44	0	663748608	64	5430
2026-01-12 00:38:02.04	289.47	46.21	-45.9	-48.9	15.6	0.00e+00	0	43	0	665845760	63	5098
2026-01-12 00:38:02.75	289.07	46.18	-45.9	-48.9	15.7	0.00e+00	0	44	0	667942912	63	5098
2026-01-12 00:38:04.27	288.23	46.11	-46.2	-49.5	15.0	0.00e+00	0	43	0	670040064	63	5461
2026-01-12 00:38:04.98	287.83	46.08	-46.2	-49.6	15.1	0.00e+00	0	43	0	672137216	63	5482
2026-01-12 00:38:06.26	287.12	46.01	-46.3	-49.6	14.9	0.00e+00	0	44	0	674234368	63	5525
2026-01-12 00:38:06.97	286.73	45.97	-46.7	-50.5	14.2	7.00e-07	0	44	0	675282944	63	6076
2026-01-12 00:38:08.25	286.02	45.89	-46.8	-50.7	13.9	2.20e-06	0	44	0	677380096	64	5892
2026-01-12 00:38:08.98	285.62	45.85	-46.5	-51.0	13.4	6.10e-06	0	43	0	679477248	64	6131
2026-01-12 00:38:10.25	284.93	45.77	-46.3	-50.9	13.9	0.00e+00	0	43	0	681574400	63	6359
2026-01-12 00:38:10.98	284.53	45.72	-46.3	-50.0	14.6	1.14e-05	0	43	0	682622976	63	5768
2026-01-12 00:38:12.26	283.84	45.63	-45.8	-48.8	15.8	0.00e+00	0	43	0	685768704	63	5026
2026-01-12 00:38:12.97	283.46	45.58	-45.7	-48.7	15.9	0.00e+00	0	43	0	686817280	63	4971
2026-01-12 00:38:14.25	282.77	45.48	-46.3	-49.6	15.0	0.00e+00	0	44	0	688914432	63	5509
2026-01-12 00:38:14.96	282.39	45.42	-46.6	-50.1	14.4	0.00e+00	0	43	0	689963008	64	5490
2026-01-12 00:38:16.24	281.71	45.32	-46.5	-49.9	14.6	1.50e-06	0	43	0	693108736	64	5371
2026-01-12 00:38:16.95	281.33	45.26	-46.3	-49.6	14.9	0.00e+00	0	43	0	694157312	64	5187
2026-01-12 00:38:18.23	280.66	45.15	-46.0	-49.1	15.6	0.00e+00	0	43	0	696254464	63	5164
2026-01-12 00:38:19.11	280.20	45.07	-45.9	-49.1	15.6	0.00e+00	0	43	0	698351616	63	5164
2026-01-12 00:38:20.25	279.61	44.97	-45.9	-49.1	15.5	0.00e+00	0	43	0	700448768	63	5167
2026-01-12 00:38:21.29	279.07	44.87	-45.7	-48.8	15.8	0.00e+00	0	44	0	702545920	63	5017
2026-01-12 00:38:22.40	278.50	44.77	-46.0	-49.3	15.3	0.00e+00	0	43	0	704643072	63	5314
2026-01-12 00:38:23.25	278.07	44.68	-46.5	-50.0	14.6	0.00e+00	0	43	0	705691648	63	5751
2026-01-12 00:38:24.39	277.49	44.57	-46.5	-50.0	14.7	7.00e-07	0	43	0	707788800	63	5756
2026-01-12 00:38:25.24	277.06	44.48	-46.9	-50.7	13.9	6.10e-06	0	43	0	709885952	64	5917
2026-01-12 00:38:26.38	276.49	44.36	-46.8	-50.6	14.0	3.00e-06	0	43	0	711983104	64	5800
2026-01-12 00:38:27.23	276.07	44.27	-46.1	-49.5	15.0	7.00e-07	0	43	0	713031680	64	5101
2026-01-12 00:38:28.37	275.51	44.15	-46.7	-50.3	14.3	7.00e-07	0	44	0	715128832	64	5629
2026-01-12 00:38:29.22	275.09	44.05	-46.8	-50.5	14.1	2.20e-06	0	44	0	717225984	64	5731
2026-01-12 00:38:30.36	274.53	43.92	-46.6	-50.1	14.4	3.00e-06	0	44	0	719323136	64	5512
2026-01-12 00:38:31.21	274.12	43.83	-45.6	-48.6	16.0	0.00e+00	0	44	0	720371712	63	4884
2026-01-12 00:38:32.35	273.58	43.69	-45.1	-47.9	16.6	0.00e+00	0	44	0	723517440	62	4782
2026-01-12 00:38:33.20	273.17	43.59	-45.0	-47.8	16.7	0.00e+00	0	43	0	724566016	62	4741
2026-01-12 00:38:34.34	272.63	43.45	-45.4	-48.3	16.2	0.00e+00	0	43	0	726663168	62	5033
2026-01-12 00:38:35.19	272.23	43.35	-45.9	-49.1	15.5	0.00e+00	0	44	0	728760320	62	5475
2026-01-12 00:38:36.33	271.70	43.21	-46.1	-49.5	15.1	0.00e+00	0	43	0	730857472	62	5745
2026-01-12 00:38:37.18	271.31	43.10	-46.3	-49.7	14.9	0.00e+00	0	44	0	731906048	63	5542
2026-01-12 00:38:38.31	270.79	42.96	-45.4	-48.3	16.2	0.00e+00	0	43	0	734003200	62	5029
2026-01-12 00:38:39.17	270.40	42.85	-45.0	-47.7	16.8	0.00e+00	0	43	0	736100352	61	4969
2026-01-12 00:38:40.30	269.89	42.70	-45.2	-48.1	16.4	0.00e+00	0	44	0	738197504	61	5204
2026-01-12 00:38:41.15	269.51	42.59	-45.5	-48.6	15.9	0.00e+00	0	44	0	739246080	61	5494
2026-01-12 00:38:42.29	269.00	42.44	-45.1	-48.0	16.6	0.00e+00	0	44	0	741343232	61	5114
2026-01-12 00:38:43.14	268.63	42.32	-44.7	-47.3	17.0	0.00e+00	0	43	0	743440384	61	4755
2026-01-12 00:38:44.69	267.95	42.11	-44.3	-46.9	17.5	0.00e+00	0	43	0	746586112	60	4801
2026-01-12 00:38:45.40	267.64	42.01	-44.2	-46.7	17.7	0.00e+00	0	43	0	747634688	60	4682
2026-01-12 00:38:46.68	267.10	41.83	-43.6	-46.0	18.2	0.00e+00	0	44	0	749731840	59	4576
2026-01-12 00:38:47.40	266.79	41.73	-43.4	-45.8	18.5	0.00e+00	0	44	0	750780416	58	4707
2026-01-12 00:38:48.68	266.25	41.55	-43.0	-45.3	18.9	0.00e+00	0	43	0	753926144	58	4453
2026-01-12 00:38:49.40	265.95	41.45	-43.0	-45.3	19.0	0.00e+00	0	44	0	754974720	58	4445
2026-01-12 00:38:50.68	265.42	41.26	-43.0	-45.3	18.9	0.00e+00	0	44	0	757071872	57	4729
2026-01-12 00:38:51.49	265.09	41.14	-42.8	-45.0	19.1	0.00e+00	0	44	0	759169024	57	4582
2026-01-12 00:38:52.63	264.63	40.98	-43.6	-46.0	18.3	0.00e+00	0	44	0	761266176	57	5118
2026-01-12 00:38:53.48	264.29	40.85	-44.1	-46.6	17.7	0.00e+00	0	43	0	762314752	58	5202
2026-01-12 00:38:54.62	263.83	40.68	-43.7	-46.2	18.1	0.00e+00	0	44	0	764411904	59	4661
2026-01-12 00:38:55.72	263.40	40.52	-43.5	-45.9	18.4	0.00e+00	0	43	0	766509056	58	4771
2026-01-12 00:38:56.57	263.07	40.39	-43.6	-46.0	18.3	0.00e+00	0	43	0	768606208	58	4861
2026-01-12 00:38:57.71	262.62	40.22	-44.1	-46.6	17.8	0.00e+00	0	43	0	770703360	58	5174
2026-01-12 00:38:58.82	262.20	40.05	-44.3	-46.9	17.5	0.00e+00	0	43	0	772800512	59	5059
2026-01-12 00:38:59.84	261.81	39.89	-44.3	-46.9	17.4	0.00e+00	0	43	0	774897664	59	5087
2026-01-12 00:39:00.84	261.44	39.74	-44.7	-47.4	16.9	0.00e+00	0	43	0	775946240	60	5097
2026-01-12 00:39:01.83	261.07	39.58	-45.3	-48.4	16.1	0.00e+00	0	44	0	778043392	61	5384
2026-01-12 00:39:02.83	260.70	39.43	-45.7	-49.0	15.5	0.00e+00	0	44	0	780140544	62	5433
2026-01-12 00:39:03.82	260.34	39.27	-44.8	-47.6	16.8	0.00e+00	0	43	0	782237696	61	4912
2026-01-12 00:39:04.82	259.98	39.12	-44.7	-47.5	17.0	0.00e+00	0	44	0	784334848	61	4817
2026-01-12 00:39:05.81	259.62	38.96	-44.7	-47.5	17.0	0.00e+00	0	44	0	785383424	61	4815
2026-01-12 00:39:06.81	259.27	38.80	-45.2	-48.0	16.4	0.00e+00	0	44	0	787480576	61	5159
2026-01-12 00:39:07.80	258.92	38.65	-44.9	-47.7	16.8	0.00e+00	0	44	0	789577728	61	4957
2026-01-12 00:39:08.80	258.57	38.49	-44.8	-47.6	17.0	0.00e+00	0	43	0	791674880	61	4875
2026-01-12 00:39:09.84	258.21	38.32	-45.0	-47.9	16.6	0.00e+00	0	44	0	793772032	61	5080
2026-01-12 00:39:10.82	257.88	38.17	-45.5	-48.6	15.9	0.00e+00	0	44	0	794820608	61	5522
2026-01-12 00:39:11.81	257.54	38.01	-45.3	-48.4	16.2	0.00e+00	0	43	0	796917760	62	5057
2026-01-12 00:39:12.81	257.21	37.85	-45.2	-48.1	16.4	0.00e+00	0	44	0	799014912	62	4909
2026-01-12 00:39:13.94	256.84	37.67	-44.9	-47.7	16.8	0.00e+00	0	44	0	801112064	61	4968
2026-01-12 00:39:14.83	256.54	37.53	-45.1	-47.9	16.7	0.00e+00	0	43	0	803209216	61	5071
2026-01-12 00:39:15.97	256.17	37.34	-45.2	-48.1	16.4	0.00e+00	0	44	0	805306368	61	5206
2026-01-12 00:39:16.82	255.90	37.20	-45.2	-48.1	16.5	0.00e+00	0	44	0	806354944	61	5201
2026-01-12 00:39:17.96	255.54	37.02	-44.6	-47.2	17.2	0.00e+00	0	44	0	808452096	61	4687
2026-01-12 00:39:18.81	255.27	36.88	-44.5	-47.1	17.3	0.00e+00	0	44	0	810549248	60	4881
2026-01-12 00:39:19.95	254.91	36.70	-44.7	-47.3	17.1	0.00e+00	0	44	0	812646400	60	5034
2026-01-12 00:39:20.80	254.65	36.56	-45.2	-48.0	16.5	0.00e+00	0	44	0	813694976	60	5434
2026-01-12 00:39:21.94	254.30	36.37	-45.2	-48.0	16.5	0.00e+00	0	44	0	815792128	61	5123
2026-01-12 00:39:22.79	254.05	36.24	-45.5	-48.4	16.1	0.00e+00	0	43	0	817889280	61	5349
2026-01-12 00:39:23.93	253.71	36.05	-45.9	-49.0	15.5	0.00e+00	0	44	0	819986432	62	5427
2026-01-12 00:39:24.78	253.45	35.91	-46.6	-50.0	14.6	7.00e-07	0	44	0	821035008	63	5751
2026-01-12 00:39:25.93	253.12	35.73	-46.8	-50.5	14.0	7.00e-07	0	44	0	823132160	64	5741
2026-01-12 00:39:26.79	252.87	35.59	-46.4	-49.9	14.7	3.80e-06	0	44	0	825229312	64	5343
2026-01-12 00:39:27.92	252.54	35.40	-45.7	-48.7	15.8	0.00e+00	0	44	0	827326464	63	4968
2026-01-12 00:39:28.78	252.29	35.26	-45.8	-48.9	15.7	0.00e+00	0	44	0	828375040	63	5046
2026-01-12 00:39:29.91	251.98	35.08	-46.4	-49.8	14.8	0.00e+00	0	44	0	831520768	63	5602
2026-01-12 00:39:30.77	251.74	34.94	-46.6	-50.1	14.3	1.50e-06	0	44	0	832569344	64	5514
2026-01-12 00:39:32.11	251.37	34.72	-46.9	-50.7	13.8	6.10e-06	0	44	0	834666496	64	5891
2026-01-12 00:39:32.82	251.17	34.61	-46.7	-50.3	14.0	3.80e-06	0	44	0	836763648	64	5632
2026-01-12 00:39:34.10	250.82	34.40	-47.2	-51.3	13.3	4.50e-06	0	44	0	838860800	65	5934
2026-01-12 00:39:34.84	250.63	34.28	-47.9	-52.5	12.1	1.23e-04	0	44	0	839909376	66	6469
2026-01-12 00:39:36.12	250.29	34.07	-48.2	-53.3	11.2	1.09e-03	0	44	0	843055104	67	6653
2026-01-12 00:39:36.83	250.10	33.96	-47.9	-52.7	11.8	1.25e-03	0	44	0	844103680	67	6220
2026-01-12 00:39:38.11	249.77	33.75	-47.4	-51.6	12.9	1.17e-04	0	44	0	846200832	66	5829
2026-01-12 00:39:38.98	249.54	33.61	-47.3	-51.3	13.2	4.04e-05	0	44	0	848297984	66	5603
2026-01-12 00:39:40.12	249.25	33.42	-47.7	-52.1	12.5	4.57e-05	0	43	0	850395136	66	6137
2026-01-12 00:39:40.97	249.04	33.29	-48.1	-52.8	11.7	3.85e-04	0	44	0	851443712	66	6712
2026-01-12 00:39:42.11	248.75	33.10	-48.8	-54.5	10.1	2.15e-03	0	43	0	853540864	68	7258
2026-01-12 00:39:42.96	248.54	32.97	-48.8	-54.3	10.5	7.06e-03	0	43	0	855638016	68	7061
2026-01-12 00:39:44.10	248.26	32.78	-48.3	-53.2	11.5	1.82e-03	0	44	0	857735168	68	6255
2026-01-12 00:39:45.30	247.97	32.59	-48.1	-52.8	11.9	3.60e-04	0	44	0	859832320	68	5958
2026-01-12 00:39:46.33	247.73	32.43	-48.0	-52.8	11.6	2.72e-04	0	43	0	861929472	67	6300
2026-01-12 00:39:47.32	247.49	32.27	-47.8	-52.3	12.1	3.96e-04	0	44	0	864026624	67	5974
2026-01-12 00:39:48.32	247.26	32.11	-47.3	-51.4	13.2	9.23e-05	0	43	0	865075200	66	5674
2026-01-12 00:39:49.31	247.03	31.95	-47.1	-51.0	13.5	2.51e-05	0	44	0	867172352	66	5404
2026-01-12 00:39:50.31	246.80	31.79	-47.0	-50.7	13.7	3.00e-06	0	43	0	869269504	65	5572
2026-01-12 00:39:51.30	246.57	31.64	-47.0	-50.8	13.7	5.30e-06	0	43	0	871366656	65	5605
2026-01-12 00:39:52.30	246.35	31.48	-47.2	-51.1	13.4	4.50e-06	0	43	0	872415232	65	5789
2026-01-12 00:39:53.29	246.13	31.32	-47.0	-50.9	13.6	1.06e-05	0	44	0	874512384	65	5659
2026-01-12 00:39:54.28	245.91	31.17	-46.9	-50.6	13.8	3.00e-06	0	43	0	876609536	65	5472
2026-01-12 00:39:55.28	245.69	31.01	-46.4	-49.9	14.6	1.50e-06	0	43	0	878706688	64	5363
2026-01-12 00:39:56.27	245.47	30.86	-46.1	-49.5	15.0	0.00e+00	0	43	0	880803840	64	5111
2026-01-12 00:39:57.26	245.26	30.70	-46.4	-49.8	14.6	0.00e+00	0	43	0	881852416	64	5337
2026-01-12 00:39:58.29	245.04	30.54	-46.6	-50.3	14.2	0.00e+00	0	44	0	883949568	64	5599
2026-01-12 00:39:59.29	244.83	30.39	-46.7	-50.4	14.1	2.20e-06	0	44	0	886046720	64	5700
2026-01-12 00:40:00.34	244.61	30.22	-46.9	-50.8	13.7	3.00e-06	0	43	0	888143872	64	5965
2026-01-12 00:40:01.24	244.42	30.08	-46.9	-50.8	13.7	1.22e-05	0	44	0	889192448	65	5608
2026-01-12 00:40:02.52	244.16	29.89	-46.5	-49.9	14.5	3.00e-06	0	44	0	892338176	64	5396
2026-01-12 00:40:03.24	244.02	29.78	-46.4	-49.8	14.6	7.00e-07	0	43	0	893386752	64	5325
2026-01-12 00:40:04.52	243.76	29.58	-46.2	-49.6	14.9	7.00e-07	0	43	0	895483904	64	5187
2026-01-12 00:40:05.24	243.62	29.47	-46.6	-50.2	14.3	0.00e+00	0	43	0	897581056	64	5589
2026-01-12 00:40:06.80	243.31	29.23	-46.4	-49.9	14.5	1.50e-06	0	44	0	899678208	64	5396
2026-01-12 00:40:07.44	243.19	29.13	-46.7	-50.4	14.1	7.00e-07	0	43	0	901775360	64	5676
2026-01-12 00:40:08.99	242.89	28.90	-46.7	-50.4	14.1	0.00e+00	0	43	0	903872512	64	5673
2026-01-12 00:40:09.70	242.75	28.79	-46.7	-50.4	14.1	7.00e-07	0	44	0	905969664	64	5692
2026-01-12 00:40:10.98	242.51	28.60	-46.4	-49.9	14.5	0.00e+00	0	44	0	908066816	64	5389
2026-01-12 00:40:11.69	242.38	28.49	-46.7	-50.3	14.1	0.00e+00	0	44	0	909115392	64	5625
2026-01-12 00:40:13.02	242.13	28.30	-46.3	-49.8	14.7	0.00e+00	0	44	0	912261120	64	5285
2026-01-12 00:40:13.73	242.00	28.19	-46.5	-50.1	14.4	7.00e-07	0	44	0	913309696	64	5472
2026-01-12 00:40:15.01	241.77	28.00	-46.4	-49.9	14.6	0.00e+00	0	44	0	915406848	64	5359
2026-01-12 00:40:15.74	241.64	27.89	-46.4	-49.9	14.5	0.00e+00	0	44	0	916455424	64	5380
2026-01-12 00:40:17.01	241.41	27.70	-46.3	-49.7	14.7	7.00e-07	0	44	0	919601152	64	5240
2026-01-12 00:40:17.74	241.28	27.60	-46.3	-49.8	14.6	7.00e-07	0	44	0	920649728	64	5290
2026-01-12 00:40:19.01	241.06	27.41	-46.1	-49.5	14.9	7.00e-07	0	43	0	922746880	64	5106
2026-01-12 00:40:19.73	240.93	27.31	-46.1	-49.4	15.0	0.00e+00	0	44	0	924844032	64	5088
2026-01-12 00:40:21.00	240.72	27.12	-45.9	-49.1	15.4	0.00e+00	0	43	0	926941184	63	5196
2026-01-12 00:40:21.73	240.59	27.01	-45.8	-49.0	15.5	0.00e+00	0	43	0	927989760	63	5124
2026-01-12 00:40:23.01	240.38	26.83	-45.9	-49.1	15.4	0.00e+00	0	44	0	930086912	63	5182
2026-01-12 00:40:23.72	240.26	26.73	-45.8	-48.9	15.6	0.00e+00	0	44	0	932184064	63	5092
2026-01-12 00:40:25.00	240.05	26.54	-46.3	-49.6	14.9	0.00e+00	0	44	0	934281216	63	5527
2026-01-12 00:40:25.71	239.93	26.44	-46.5	-50.0	14.5	7.00e-07	0	44	0	935329792	63	5780
2026-01-12 00:40:26.99	239.72	26.26	-46.6	-50.2	14.3	0.00e+00	0	43	0	938475520	63	5895
2026-01-12 00:40:27.72	239.60	26.16	-46.5	-50.0	14.5	0.00e+00	0	44	0	939524096	63	5729
2026-01-12 00:40:29.00	239.40	25.97	-46.8	-50.5	13.9	1.50e-06	0	43	0	941621248	64	5772
2026-01-12 00:40:29.73	239.28	25.87	-46.6	-50.2	14.2	3.00e-06	0	43	0	942669824	64	5570
2026-01-12 00:40:31.00	239.08	25.69	-46.2	-49.6	14.8	7.00e-07	0	44	0	945815552	64	5193
2026-01-12 00:40:31.73	238.97	25.59	-46.2	-49.5	14.9	0.00e+00	0	44	0	946864128	64	5138
2026-01-12 00:40:33.07	238.76	25.40	-46.0	-49.2	15.2	0.00e+00	0	44	0	948961280	63	5270
2026-01-12 00:40:33.78	238.66	25.30	-45.7	-48.7	15.7	0.00e+00	0	44	0	951058432	63	4955
2026-01-12 00:40:35.14	238.45	25.12	-45.4	-48.4	16.0	0.00e+00	0	44	0	953155584	62	5083
2026-01-12 00:40:35.85	238.34	25.02	-45.4	-48.3	16.2	0.00e+00	0	43	0	954204160	62	5018
2026-01-12 00:40:37.21	238.14	24.83	-45.4	-48.4	16.1	0.00e+00	0	44	0	957349888	62	5049
2026-01-12 00:40:38.16	238.00	24.70	-45.7	-48.8	15.7	0.00e+00	0	44	0	958398464	62	5313
2026-01-12 00:40:39.47	237.81	24.52	-46.1	-49.4	15.1	0.00e+00	0	44	0	961544192	62	5685
2026-01-12 00:40:40.18	237.71	24.43	-46.5	-50.0	14.5	0.00e+00	0	44	0	962592768	63	5742
2026-01-12 00:40:41.46	237.53	24.25	-46.4	-49.8	14.7	0.00e+00	0	43	0	964689920	63	5624
2026-01-12 00:40:42.20	237.42	24.15	-46.2	-49.5	14.8	7.00e-07	0	43	0	966787072	63	5449
2026-01-12 00:40:43.48	237.24	23.98	-46.2	-49.5	15.0	1.50e-06	0	43	0	968884224	63	5449
2026-01-12 00:40:44.19	237.14	23.88	-46.3	-49.7	14.8	0.00e+00	0	44	0	969932800	63	5540
2026-01-12 00:40:45.47	236.97	23.71	-46.5	-50.0	14.5	0.00e+00	0	43	0	973078528	63	5745
2026-01-12 00:40:46.19	236.87	23.62	-46.6	-50.2	14.3	0.00e+00	0	43	0	974127104	63	5883
2026-01-12 00:40:47.47	236.69	23.45	-46.9	-50.8	13.6	4.50e-06	0	43	0	976224256	64	5977
2026-01-12 00:40:48.20	236.60	23.35	-46.7	-50.5	13.9	3.00e-06	0	44	0	977272832	64	5779
2026-01-12 00:40:49.48	236.43	23.18	-47.1	-51.2	13.3	2.51e-05	0	44	0	980418560	64	6220
2026-01-12 00:40:50.19	236.33	23.09	-47.3	-51.5	13.1	1.98e-05	0	44	0	981467136	65	6112
2026-01-12 00:40:51.56	236.15	22.91	-47.3	-51.6	12.8	2.44e-05	0	43	0	983564288	65	6180
2026-01-12 00:40:52.27	236.06	22.82	-47.0	-51.0	13.3	3.43e-05	0	43	0	985661440	65	5783
2026-01-12 00:40:53.63	235.88	22.65	-46.5	-50.2	14.3	7.00e-07	0	43	0	987758592	64	5529
2026-01-12 00:40:54.34	235.79	22.55	-46.3	-49.8	14.6	0.00e+00	0	43	0	988807168	64	5334
2026-01-12 00:40:55.62	235.63	22.39	-46.1	-49.5	14.9	7.00e-07	0	43	0	991952896	64	5103
2026-01-12 00:40:56.66	235.50	22.26	-46.0	-49.4	15.1	7.00e-07	0	44	0	994050048	63	5362
2026-01-12 00:40:57.92	235.34	22.10	-45.8	-49.0	15.5	0.00e+00	0	43	0	996147200	63	5112
2026-01-12 00:40:58.80	235.24	21.98	-45.9	-49.2	15.2	0.00e+00	0	43	0	997195776	63	5239
2026-01-12 00:40:59.94	235.10	21.84	-45.5	-48.6	15.8	0.00e+00	0	43	0	999292928	63	4912
2026-01-12 00:41:00.79	234.99	21.73	-45.6	-48.7	15.8	0.00e+00	0	43	0	1001390080	62	5221
2026-01-12 00:41:01.93	234.86	21.59	-45.6	-48.7	15.7	0.00e+00	0	44	0	1003487232	62	5253
2026-01-12 00:41:02.78	234.76	21.49	-45.4	-48.4	16.0	0.00e+00	0	44	0	1005584384	62	5054
2026-01-12 00:41:03.92	234.62	21.34	-45.5	-48.6	15.9	0.00e+00	0	44	0	1007681536	62	5168
2026-01-12 00:41:04.77	234.52	21.24	-45.4	-48.5	15.9	0.00e+00	0	44	0	1008730112	62	5133
2026-01-12 00:41:05.91	234.39	21.10	-45.6	-48.8	15.7	0.00e+00	0	43	0	1010827264	62	5284
2026-01-12 00:41:06.76	234.29	20.99	-45.7	-48.8	15.6	0.00e+00	0	43	0	1012924416	62	5328
2026-01-12 00:41:07.90	234.16	20.85	-45.9	-49.2	15.3	0.00e+00	0	43	0	1015021568	62	5549
2026-01-12 00:41:08.75	234.06	20.75	-46.0	-49.3	15.2	0.00e+00	0	43	0	1016070144	62	5626
2026-01-12 00:41:09.89	233.94	20.61	-46.0	-49.4	15.0	0.00e+00	0	43	0	1018167296	62	5685
2026-01-12 00:41:10.74	233.84	20.51	-46.1	-49.4	15.0	0.00e+00	0	43	0	1020264448	63	5401
2026-01-12 00:41:11.88	233.71	20.37	-45.9	-49.2	15.3	0.00e+00	0	43	0	1022361600	63	5222
2026-01-12 00:41:12.73	233.62	20.27	-45.7	-48.9	15.5	0.00e+00	0	43	0	1023410176	63	5046
2026-01-12 00:41:14.01	233.48	20.12	-45.5	-48.5	15.9	0.00e+00	0	44	0	1026555904	62	5138
2026-01-12 00:41:14.72	233.41	20.03	-45.5	-48.5	15.9	0.00e+00	0	44	0	1027604480	62	5145
2026-01-12 00:41:16.00	233.27	19.88	-45.4	-48.4	16.0	0.00e+00	0	43	0	1029701632	62	5095
2026-01-12 00:41:16.72	233.19	19.80	-45.5	-48.5	15.9	0.00e+00	0	43	0	1030750208	62	5118
2026-01-12 00:41:18.01	233.06	19.64	-45.5	-48.5	15.9	0.00e+00	0	44	0	1033895936	62	5110
2026-01-12 00:41:18.72	232.98	19.56	-45.6	-48.7	15.7	0.00e+00	0	44	0	1034944512	62	5238
2026-01-12 00:41:20.00	232.85	19.41	-45.9	-49.2	15.3	0.00e+00	0	44	0	1037041664	62	5530
2026-01-12 00:41:20.71	232.77	19.33	-46.0	-49.2	15.2	0.00e+00	0	43	0	1039138816	62	5584
2026-01-12 00:41:21.99	232.64	19.18	-46.2	-49.6	14.8	0.00e+00	0	44	0	1041235968	63	5468
2026-01-12 00:41:22.71	232.57	19.10	-46.4	-49.9	14.5	0.00e+00	0	44	0	1042284544	63	5681
2026-01-12 00:41:23.99	232.44	18.95	-46.5	-50.0	14.4	0.00e+00	0	44	0	1044381696	63	5751
2026-01-12 00:41:24.72	232.37	18.87	-46.6	-50.2	14.2	0.00e+00	0	44	0	1046478848	63	5888
2026-01-12 00:41:26.00	232.24	18.72	-46.6	-50.3	14.1	2.20e-06	0	43	0	1048576000	64	5605
2026-01-12 00:41:26.71	232.17	18.64	-46.6	-50.3	14.0	3.80e-06	0	44	0	1049624576	64	5620
2026-01-12 00:41:27.99	232.05	18.49	-46.5	-50.2	14.2	0.00e+00	0	43	0	1052770304	64	5544
2026-01-12 00:41:28.70	231.98	18.41	-46.6	-50.3	14.0	2.20e-06	0	44	0	1053818880	64	5614
2026-01-12 00:41:30.23	231.83	18.24	-46.6	-50.3	13.8	3.00e-06	0	44	0	1056964608	64	5637
2026-01-12 00:41:30.94	231.76	18.16	-46.7	-50.4	13.9	1.50e-06	0	43	0	1058013184	64	5708
2026-01-12 00:41:32.22	231.64	18.02	-46.7	-50.5	13.8	4.50e-06	0	43	0	1060110336	64	5743
2026-01-12 00:41:33.31	231.54	17.90	-46.5	-50.2	14.1	4.50e-06	0	44	0	1062207488	64	5565
2026-01-12 00:41:34.43	231.43	17.77	-46.6	-50.3	14.0	0.00e+00	0	44	0	1064304640	64	5650
2026-01-12 00:41:35.29	231.36	17.68	-46.5	-50.2	14.1	2.20e-06	0	43	0	1066401792	64	5588
2026-01-12 00:41:36.42	231.25	17.56	-46.4	-50.0	14.3	0.00e+00	0	44	0	1068498944	64	5423
2026-01-12 00:41:37.27	231.17	17.46	-46.3	-49.9	14.4	2.20e-06	0	44	0	1069547520	64	5359
2026-01-12 00:41:38.41	231.07	17.34	-46.2	-49.6	14.7	0.00e+00	0	43	0	1071644672	64	5189
2026-01-12 00:41:39.26	231.00	17.25	-46.1	-49.5	14.9	0.00e+00	0	44	0	1073741824	63	5440
2026-01-12 00:41:40.40	230.89	17.12	-46.0	-49.3	15.0	0.00e+00	0	44	0	1075838976	63	5336
2026-01-12 00:41:41.25	230.82	17.03	-46.0	-49.3	15.0	0.00e+00	0	43	0	1076887552	63	5328
2026-01-12 00:41:42.39	230.72	16.91	-45.8	-49.0	15.3	0.00e+00	0	43	0	1078984704	63	5155
2026-01-12 00:41:43.24	230.64	16.82	-45.8	-49.1	15.3	0.00e+00	0	43	0	1081081856	63	5172
2026-01-12 00:41:44.38	230.55	16.70	-46.0	-49.3	15.1	0.00e+00	0	43	0	1083179008	63	5300
2026-01-12 00:41:45.23	230.47	16.61	-46.0	-49.3	15.0	0.00e+00	0	43	0	1084227584	63	5314
2026-01-12 00:41:46.55	230.36	16.47	-46.0	-49.3	15.0	0.00e+00	0	43	0	1087373312	63	5323
2026-01-12 00:41:47.26	230.30	16.39	-46.2	-49.6	14.8	0.00e+00	0	43	0	1088421888	63	5486
2026-01-12 00:41:48.53	230.19	16.26	-46.3	-49.8	14.5	0.00e+00	0	43	0	1090519040	63	5649
2026-01-12 00:41:49.26	230.13	16.18	-46.2	-49.7	14.6	0.00e+00	0	43	0	1092616192	63	5589
2026-01-12 00:41:50.54	230.03	16.05	-46.3	-49.9	14.5	2.20e-06	0	44	0	1094713344	63	5685
2026-01-12 00:41:51.28	229.97	15.97	-46.3	-49.9	14.5	7.00e-07	0	44	0	1095761920	63	5666
2026-01-12 00:41:52.56	229.86	15.84	-46.2	-49.6	14.7	7.00e-07	0	44	0	1098907648	63	5526
2026-01-12 00:41:53.29	229.80	15.77	-46.2	-49.7	14.6	0.00e+00	0	44	0	1099956224	63	5571
2026-01-12 00:41:54.56	229.70	15.64	-45.9	-49.2	15.2	0.00e+00	0	43	0	1102053376	63	5226
2026-01-12 00:41:55.27	229.64	15.56	-46.0	-49.3	15.0	0.00e+00	0	43	0	1103101952	63	5287
2026-01-12 00:41:56.55	229.54	15.43	-46.0	-49.4	15.0	0.00e+00	0	44	0	1106247680	63	5352
2026-01-12 00:41:57.29	229.48	15.36	-45.8	-49.1	15.2	0.00e+00	0	43	0	1107296256	63	5187
2026-01-12 00:41:58.57	229.38	15.23	-45.9	-49.2	15.1	0.00e+00	0	43	0	1109393408	63	5277
2026-01-12 00:41:59.30	229.33	15.16	-45.9	-49.2	15.1	0.00e+00	0	43	0	1111490560	63	5256
2026-01-12 00:42:00.66	229.22	15.02	-46.0	-49.4	14.9	7.00e-07	0	43	0	1113587712	63	5348
2026-01-12 00:42:01.37	229.17	14.95	-46.0	-49.3	15.0	0.00e+00	0	44	0	1114636288	63	5340
2026-01-12 00:42:02.65	229.07	14.82	-46.4	-50.0	14.3	7.00e-07	0	44	0	1117782016	63	5787
2026-01-12 00:42:03.72	228.99	14.71	-46.4	-50.0	14.3	7.00e-07	0	44	0	1119879168	63	5773
2026-01-12 00:42:04.85	228.91	14.60	-46.6	-50.5	13.9	2.20e-06	0	43	0	1121976320	63	6062
2026-01-12 00:42:05.71	228.84	14.52	-46.7	-50.7	13.6	4.50e-06	0	43	0	1123024896	64	5861
2026-01-12 00:42:06.84	228.76	14.41	-46.8	-50.8	13.4	1.29e-05	0	43	0	1125122048	64	5957
2026-01-12 00:42:07.69	228.70	14.32	-47.0	-51.1	13.2	1.44e-05	0	43	0	1127219200	64	6181
2026-01-12 00:42:08.83	228.61	14.21	-47.0	-51.3	13.0	3.50e-05	0	44	0	1129316352	64	6284
2026-01-12 00:42:09.68	228.55	14.13	-47.1	-51.4	12.9	4.11e-05	0	43	0	1130364928	64	6368
2026-01-12 00:42:10.82	228.47	14.02	-47.2	-51.6	12.6	7.55e-05	0	43	0	1132462080	65	6163
2026-01-12 00:42:11.67	228.41	13.94	-47.3	-51.7	12.5	9.30e-05	0	44	0	1134559232	65	6237
2026-01-12 00:42:12.81	228.33	13.83	-47.2	-51.5	12.6	7.93e-05	0	44	0	1136656384	65	6087
2026-01-12 00:42:13.66	228.27	13.75	-47.1	-51.4	12.8	6.02e-05	0	44	0	1137704960	65	5997
2026-01-12 00:42:14.80	228.19	13.64	-47.2	-51.4	12.9	8.31e-05	0	44	0	1139802112	65	6023
2026-01-12 00:42:15.65	228.13	13.56	-47.1	-51.4	12.8	5.87e-05	0	43	0	1141899264	65	6012
2026-01-12 00:42:17.01	228.03	13.43	-47.1	-51.2	13.0	3.43e-05	0	44	0	1143996416	65	5888
2026-01-12 00:42:17.72	227.99	13.36	-47.0	-51.2	13.0	4.11e-05	0	43	0	1146093568	65	5878
2026-01-12 00:42:19.00	227.90	13.24	-46.8	-50.8	13.4	2.51e-05	0	43	0	1148190720	65	5646
2026-01-12 00:42:19.72	227.85	13.17	-46.8	-50.8	13.4	1.90e-05	0	43	0	1149239296	65	5637
2026-01-12 00:42:21.00	227.76	13.05	-46.8	-50.7	13.5	1.75e-05	0	43	0	1151336448	65	5587
2026-01-12 00:42:21.73	227.72	12.99	-46.6	-50.3	13.8	3.80e-06	0	43	0	1153433600	65	5327
2026-01-12 00:42:23.01	227.63	12.87	-46.6	-50.5	13.8	2.20e-06	0	43	0	1155530752	65	5405
2026-01-12 00:42:23.73	227.58	12.80	-46.5	-50.2	13.9	6.10e-06	0	43	0	1156579328	64	5572
2026-01-12 00:42:25.01	227.50	12.68	-46.5	-50.2	13.9	3.80e-06	0	43	0	1159725056	64	5573
2026-01-12 00:42:25.74	227.45	12.62	-46.5	-50.3	13.9	2.20e-06	0	43	0	1160773632	64	5599
2026-01-12 00:42:27.02	227.37	12.50	-46.5	-50.2	14.0	1.50e-06	0	43	0	1162870784	64	5540
2026-01-12 00:42:27.74	227.32	12.43	-46.6	-50.4	13.8	7.00e-07	0	43	0	1163919360	64	5703
2026-01-12 00:42:29.02	227.24	12.32	-46.5	-50.3	13.8	6.10e-06	0	43	0	1167065088	64	5614
2026-01-12 00:42:29.73	227.20	12.25	-46.6	-50.4	13.7	7.00e-07	0	43	0	1168113664	64	5711
2026-01-12 00:42:31.01	227.12	12.14	-46.5	-50.3	13.9	3.80e-06	0	43	0	1170210816	64	5615
2026-01-12 00:42:31.72	227.07	12.07	-46.6	-50.4	13.7	2.20e-06	0	43	0	1172307968	64	5681
2026-01-12 00:42:33.13	226.98	11.95	-46.5	-50.3	13.9	3.80e-06	0	43	0	1174405120	64	5613
2026-01-12 00:42:33.84	226.94	11.88	-46.5	-50.2	13.9	0.00e+00	0	44	0	1175453696	64	5566
2026-01-12 00:42:35.12	226.86	11.77	-46.5	-50.3	13.9	3.80e-06	0	43	0	1178599424	64	5597
2026-01-12 00:42:36.21	226.79	11.67	-46.4	-50.1	14.0	7.00e-07	0	44	0	1180696576	64	5496
2026-01-12 00:42:37.06	226.74	11.60	-46.5	-50.2	13.9	1.50e-06	0	43	0	1181745152	64	5573
2026-01-12 00:42:38.19	226.67	11.50	-46.5	-50.2	13.9	3.00e-06	0	44	0	1183842304	64	5555
2026-01-12 00:42:39.05	226.62	11.42	-46.5	-50.2	13.9	3.80e-06	0	43	0	1185939456	64	5574
2026-01-12 00:42:40.18	226.56	11.32	-46.7	-50.6	13.5	7.60e-06	0	43	0	1188036608	64	5844
2026-01-12 00:42:41.04	226.51	11.25	-46.7	-50.6	13.5	9.90e-06	0	43	0	1189085184	64	5801
2026-01-12 00:42:42.17	226.44	11.15	-46.5	-50.2	13.7	3.80e-06	0	43	0	1191182336	64	5566
2026-01-12 00:42:43.02	226.39	11.07	-46.6	-50.4	13.7	5.30e-06	0	43	0	1193279488	64	5689
2026-01-12 00:42:44.16	226.32	10.98	-46.6	-50.5	13.6	1.29e-05	0	44	0	1195376640	64	5757
2026-01-12 00:42:45.01	226.27	10.90	-46.6	-50.4	13.7	8.30e-06	0	43	0	1196425216	64	5664
2026-01-12 00:42:46.15	226.21	10.80	-46.7	-50.6	13.5	1.14e-05	0	43	0	1198522368	64	5842
2026-01-12 00:42:47.00	226.16	10.73	-46.7	-50.6	13.4	1.29e-05	0	43	0	1200619520	64	5847
2026-01-12 00:42:48.14	226.10	10.63	-46.8	-50.7	13.3	8.30e-06	0	44	0	1202716672	64	5903
2026-01-12 00:42:48.99	226.05	10.56	-46.7	-50.6	13.5	9.90e-06	0	43	0	1203765248	64	5814
2026-01-12 00:42:50.13	225.98	10.46	-46.7	-50.7	13.4	7.60e-06	0	44	0	1206910976	64	5867
2026-01-12 00:42:50.98	225.94	10.39	-46.6	-50.5	13.6	7.60e-06	0	44	0	1207959552	64	5742
2026-01-12 00:42:52.12	225.87	10.30	-46.7	-50.7	13.4	1.67e-05	0	44	0	1210056704	64	5858
2026-01-12 00:42:53.30	225.81	10.20	-46.7	-50.7	13.4	9.10e-06	0	44	0	1212153856	64	5866
2026-01-12 00:42:54.33	225.75	10.11	-46.7	-50.7	13.4	9.90e-06	0	43	0	1214251008	64	5887
2026-01-12 00:42:55.50	225.69	10.01	-46.7	-50.8	13.2	2.28e-05	0	44	0	1216348160	64	5950
2026-01-12 00:42:56.35	225.64	9.94	-46.6	-50.5	13.5	1.75e-05	0	43	0	1218445312	64	5781
2026-01-12 00:42:57.71	225.57	9.83	-46.7	-50.7	13.2	9.90e-06	0	44	0	1220542464	64	5911
2026-01-12 00:42:58.42	225.53	9.77	-46.6	-50.7	13.3	2.21e-05	0	43	0	1221591040	64	5893
2026-01-12 00:42:59.70	225.47	9.67	-46.7	-50.9	13.1	2.28e-05	0	44	0	1224736768	64	5994
2026-01-12 00:43:00.44	225.43	9.60	-46.6	-50.8	13.2	2.44e-05	0	44	0	1225785344	64	5946
2026-01-12 00:43:01.72	225.36	9.50	-46.7	-50.9	13.1	2.67e-05	0	44	0	1227882496	64	6017
2026-01-12 00:43:02.45	225.32	9.44	-46.6	-50.8	13.1	2.21e-05	0	43	0	1228931072	64	5964
2026-01-12 00:43:03.73	225.26	9.34	-46.7	-50.9	13.0	3.12e-05	0	43	0	1232076800	64	6003
2026-01-12 00:43:04.51	225.22	9.27	-46.7	-50.9	13.0	2.97e-05	0	43	0	1233125376	64	6038
2026-01-12 00:43:05.79	225.15	9.17	-46.7	-50.8	13.1	4.19e-05	0	44	0	1235222528	64	5991
2026-01-12 00:43:06.59	225.11	9.10	-46.7	-51.0	12.9	3.89e-05	0	44	0	1237319680	64	6100
2026-01-12 00:43:07.72	225.05	9.01	-49.2	-56.5	8.4	1.06e-04	0	44	0	1239416832	68	9087
2026-01-12 00:43:08.58	225.01	8.94	-50.5	-65.4	3.8	1.49e+00	0	43	104	1239416832	71	21352
2026-01-12 00:43:09.71	224.95	8.85	-50.6	-65.8	3.8	1.49e+00	0	44	104	1239416832	71	22427
