passes_logs/2026/01/12/T1/T1__20260112_210120_KHAYYAM_rec.log

#Pass ID: 20260112_210120_KHAYYAM
#Satellite: KHAYYAM
#Configuration: KHAYYAM_480M
#almurnet v.1.7.20251203
#Start time: 2026-01-12 21:01:21

#Version: 2.0.20230620
#Station: T1
#Location: 37.570604 lon 55.790049 lat
#TLE: 1 53370U 22096A   26012.26586461  .00006533  00000+0  26633-3 0  9995
#TLE: 2 53370  97.3559 279.3255 0001355  93.9277 266.2116 15.24785034190825

#Time	Az	El	Level	Level2	SNR	BER	BlckErr	Temp	State	Recorded	gain1	gain2
2026-01-12 21:01:21.76	18.27	5.02	-51.6	-56.9	3.4	0.00e+00	0	44	0	0	73	28726
2026-01-12 21:01:22.75	18.31	5.09	-51.6	-56.9	3.7	0.00e+00	0	44	104	0	73	28671
2026-01-12 21:01:23.74	18.34	5.17	-51.6	-56.9	3.7	0.00e+00	0	44	104	0	73	28775
2026-01-12 21:01:24.74	18.37	5.25	-51.6	-56.9	3.7	0.00e+00	0	45	104	0	73	28671
2026-01-12 21:01:25.73	18.41	5.33	-51.6	-57.0	3.7	0.00e+00	0	45	104	0	73	28913
2026-01-12 21:01:26.72	18.44	5.42	-51.6	-56.9	3.7	0.00e+00	0	45	104	0	73	28621
2026-01-12 21:01:27.71	18.48	5.50	-51.6	-56.9	3.7	0.00e+00	0	45	104	0	73	28746
2026-01-12 21:01:28.71	18.51	5.58	-51.6	-56.9	3.7	0.00e+00	0	45	104	0	73	28791
2026-01-12 21:01:29.70	18.55	5.66	-51.6	-56.9	3.7	0.00e+00	0	45	104	0	73	28652
2026-01-12 21:01:30.70	18.58	5.74	-51.6	-56.9	3.7	0.00e+00	0	45	104	0	73	28781
2026-01-12 21:01:31.69	18.62	5.82	-51.6	-56.9	3.7	0.00e+00	0	45	104	0	73	28803
2026-01-12 21:01:32.68	18.65	5.91	-51.6	-56.9	3.7	0.00e+00	0	45	104	0	73	28646
2026-01-12 21:01:33.68	18.69	5.99	-51.6	-56.9	3.7	0.00e+00	0	45	104	0	73	28652
2026-01-12 21:01:34.67	18.72	6.07	-51.6	-56.9	3.7	0.00e+00	0	45	104	0	73	28744
2026-01-12 21:01:35.67	18.76	6.16	-51.6	-57.0	3.7	0.00e+00	0	45	104	0	73	28869
2026-01-12 21:01:36.66	18.80	6.24	-51.6	-56.9	3.7	0.00e+00	0	45	104	0	73	28750
2026-01-12 21:01:37.65	18.83	6.33	-51.6	-57.0	3.7	0.00e+00	0	45	104	0	73	28907
2026-01-12 21:01:38.64	18.87	6.41	-51.6	-57.0	3.7	0.00e+00	0	46	104	0	73	28863
2026-01-12 21:01:39.64	18.91	6.50	-51.6	-57.0	3.7	0.00e+00	0	46	104	0	73	28813
2026-01-12 21:01:40.63	18.95	6.58	-51.6	-56.9	3.7	0.00e+00	0	46	104	0	73	28764
2026-01-12 21:01:41.63	18.98	6.67	-51.6	-56.9	3.7	0.00e+00	0	46	104	0	73	28717
2026-01-12 21:01:42.62	19.02	6.75	-51.6	-56.9	3.7	0.00e+00	0	46	104	0	73	28656
2026-01-12 21:01:43.61	19.06	6.84	-51.6	-56.9	3.7	0.00e+00	0	46	104	0	73	28722
2026-01-12 21:01:44.61	19.10	6.93	-51.6	-56.9	3.7	0.00e+00	0	46	104	0	73	28788
2026-01-12 21:01:45.60	19.14	7.02	-51.6	-56.9	3.7	0.00e+00	0	46	104	0	73	28727
2026-01-12 21:01:46.59	19.18	7.10	-51.6	-56.9	3.7	0.00e+00	0	46	104	0	73	28770
2026-01-12 21:01:47.59	19.22	7.19	-51.6	-56.9	3.7	0.00e+00	0	46	104	0	73	28652
2026-01-12 21:01:48.58	19.26	7.28	-51.6	-56.9	3.7	0.00e+00	0	46	104	0	73	28732
2026-01-12 21:01:49.57	19.30	7.37	-51.6	-56.9	3.7	0.00e+00	0	46	104	0	73	28701
2026-01-12 21:01:50.57	19.34	7.46	-51.6	-56.9	3.7	0.00e+00	0	47	104	0	73	28596
2026-01-12 21:01:51.56	19.38	7.55	-51.6	-56.9	3.7	0.00e+00	0	46	104	0	73	28687
2026-01-12 21:01:52.55	19.42	7.64	-51.6	-56.9	3.7	0.00e+00	0	47	104	0	73	28793
2026-01-12 21:01:53.55	19.46	7.73	-51.6	-57.0	3.7	0.00e+00	0	47	104	0	73	28823
2026-01-12 21:01:54.54	19.50	7.82	-51.6	-56.9	3.7	0.00e+00	0	47	104	0	73	28640
2026-01-12 21:01:55.53	19.54	7.91	-51.6	-56.9	3.7	0.00e+00	0	47	104	0	73	28597
2026-01-12 21:01:56.53	19.58	8.01	-51.6	-56.9	3.7	0.00e+00	0	46	104	0	73	28737
2026-01-12 21:01:57.52	19.63	8.10	-51.6	-56.9	3.7	0.00e+00	0	47	104	0	73	28673
2026-01-12 21:01:58.51	19.67	8.19	-51.6	-56.9	3.7	0.00e+00	0	47	104	0	73	28767
2026-01-12 21:01:59.51	19.71	8.29	-51.6	-57.0	3.7	0.00e+00	0	47	104	0	73	28889
2026-01-12 21:02:00.50	19.75	8.38	-51.6	-56.9	3.7	0.00e+00	0	47	104	0	73	28597
2026-01-12 21:02:01.49	19.80	8.47	-51.6	-56.9	3.7	0.00e+00	0	47	104	0	73	28724
2026-01-12 21:02:02.49	19.84	8.57	-51.6	-56.9	3.7	0.00e+00	0	47	104	0	73	28738
2026-01-12 21:02:03.48	19.89	8.66	-51.6	-56.9	3.7	0.00e+00	0	47	104	0	73	28684
2026-01-12 21:02:04.48	19.93	8.76	-51.6	-56.9	3.7	0.00e+00	0	47	104	0	73	28725
2026-01-12 21:02:05.47	19.97	8.86	-51.6	-56.9	3.7	0.00e+00	0	47	104	0	73	28740
2026-01-12 21:02:06.46	20.02	8.95	-51.6	-56.9	3.7	0.00e+00	0	47	104	0	73	28715
2026-01-12 21:02:07.45	20.06	9.05	-51.5	-56.8	3.7	0.00e+00	0	47	104	0	73	28394
2026-01-12 21:02:08.45	20.11	9.15	-51.4	-56.6	3.7	0.00e+00	0	47	104	0	73	27696
2026-01-12 21:02:09.44	20.16	9.25	-51.4	-56.7	3.7	0.00e+00	0	47	104	0	73	27857
2026-01-12 21:02:10.47	20.21	9.35	-50.9	-55.5	3.7	0.00e+00	0	47	104	0	73	24319
2026-01-12 21:02:11.47	20.25	9.45	-51.0	-56.0	3.7	0.00e+00	0	47	104	0	73	25960
2026-01-12 21:02:12.54	20.30	9.56	-51.2	-56.4	3.7	0.00e+00	0	47	104	0	73	26893
2026-01-12 21:02:13.42	20.35	9.65	-50.8	-55.8	3.7	0.00e+00	0	47	104	0	73	25269
2026-01-12 21:02:14.56	20.40	9.76	-51.0	-55.8	3.7	0.00e+00	0	47	104	0	73	25298
2026-01-12 21:02:15.42	20.44	9.85	-51.0	-55.9	3.7	0.00e+00	0	48	104	0	73	25397
2026-01-12 21:02:16.56	20.50	9.97	-51.2	-56.1	3.6	0.00e+00	0	48	104	0	73	25982
2026-01-12 21:02:17.41	20.54	10.06	-51.1	-56.3	3.7	0.00e+00	0	48	104	0	73	26635
2026-01-12 21:02:18.55	20.60	10.18	-50.8	-55.4	3.7	0.00e+00	0	48	104	0	73	24168
2026-01-12 21:02:19.40	20.64	10.26	-50.7	-54.8	3.7	0.00e+00	0	48	104	0	73	22598
2026-01-12 21:02:20.54	20.70	10.38	-50.6	-54.8	3.7	0.00e+00	0	48	104	0	72	23794
2026-01-12 21:02:21.39	20.74	10.47	-50.7	-55.1	3.7	0.00e+00	0	48	104	0	72	24601
2026-01-12 21:02:22.53	20.80	10.60	-50.7	-54.8	3.7	0.00e+00	0	48	104	0	72	23815
2026-01-12 21:02:23.38	20.84	10.69	-50.7	-55.0	3.7	0.00e+00	0	48	104	0	72	24246
2026-01-12 21:02:24.52	20.90	10.81	-50.8	-55.1	3.7	0.00e+00	0	48	104	0	72	24707
2026-01-12 21:02:25.37	20.95	10.90	-50.9	-55.4	3.7	0.00e+00	0	48	104	0	72	25521
2026-01-12 21:02:26.51	21.01	11.03	-51.1	-55.7	3.7	0.00e+00	0	48	104	0	72	26528
2026-01-12 21:02:27.36	21.06	11.12	-50.9	-55.3	3.7	0.00e+00	0	48	104	0	73	23885
2026-01-12 21:02:28.50	21.12	11.24	-52.1	-56.7	3.7	0.00e+00	0	48	104	0	74	26524
2026-01-12 21:02:29.35	21.16	11.34	-52.1	-56.5	3.7	0.00e+00	0	48	104	0	75	24264
2026-01-12 21:02:30.49	21.23	11.46	-50.9	-55.1	3.7	0.00e+00	0	48	104	0	73	23203
2026-01-12 21:02:31.34	21.27	11.56	-51.0	-55.3	3.7	0.00e+00	0	48	104	0	73	23953
2026-01-12 21:02:32.48	21.34	11.69	-51.1	-55.6	3.7	0.00e+00	0	48	104	0	73	24744
2026-01-12 21:02:33.33	21.39	11.79	-51.4	-55.8	3.7	0.00e+00	0	48	104	0	73	25327
2026-01-12 21:02:34.46	21.45	11.91	-51.8	-56.2	3.7	0.00e+00	0	48	104	0	74	24918
2026-01-12 21:02:35.32	21.50	12.01	-51.9	-56.4	3.7	0.00e+00	0	48	104	0	74	25430
2026-01-12 21:02:36.45	21.57	12.14	-53.0	-58.0	3.7	0.00e+00	0	48	104	0	76	27207
2026-01-12 21:02:37.31	21.62	12.24	-54.1	-58.1	3.7	0.00e+00	0	48	104	0	78	24768
2026-01-12 21:02:38.44	21.68	12.38	-54.1	-58.2	3.7	0.00e+00	0	48	104	0	79	23541
2026-01-12 21:02:39.29	21.73	12.48	-54.2	-58.7	3.7	0.00e+00	0	48	104	0	79	24978
2026-01-12 21:02:40.43	21.80	12.61	-54.6	-59.1	3.7	0.00e+00	0	48	104	0	79	25983
2026-01-12 21:02:41.28	21.85	12.71	-54.8	-59.3	3.7	0.00e+00	0	48	104	0	80	25178
2026-01-12 21:02:42.42	21.92	12.85	-54.8	-59.3	3.7	0.00e+00	0	48	104	0	80	25325
2026-01-12 21:02:43.27	21.98	12.95	-54.8	-59.3	3.7	0.00e+00	0	48	104	0	80	25363
2026-01-12 21:02:44.52	22.05	13.10	-54.7	-59.1	3.7	0.00e+00	0	48	104	0	80	24778
2026-01-12 21:02:45.37	22.11	13.21	-54.7	-59.1	3.7	0.00e+00	0	48	104	0	80	24770
2026-01-12 21:02:46.51	22.18	13.35	-54.6	-59.2	3.7	0.00e+00	0	48	104	0	80	24958
2026-01-12 21:02:47.36	22.24	13.45	-54.7	-59.4	3.7	0.00e+00	0	49	104	0	80	25634
2026-01-12 21:02:48.50	22.31	13.60	-54.9	-59.4	3.7	0.00e+00	0	48	104	0	80	25575
2026-01-12 21:02:49.35	22.36	13.70	-54.6	-59.4	3.7	0.00e+00	0	48	104	0	80	25454
2026-01-12 21:02:50.49	22.44	13.85	-54.4	-59.1	3.7	0.00e+00	0	49	104	0	80	24806
2026-01-12 21:02:51.35	22.50	13.96	-54.3	-58.9	3.7	0.00e+00	0	48	104	0	80	24086
2026-01-12 21:02:52.48	22.57	14.10	-54.3	-59.2	3.7	0.00e+00	0	48	104	0	80	25039
2026-01-12 21:02:53.34	22.63	14.21	-54.4	-59.4	3.7	0.00e+00	0	48	104	0	80	25490
2026-01-12 21:02:54.47	22.71	14.36	-54.3	-59.3	3.7	0.00e+00	0	49	104	0	80	25199
2026-01-12 21:02:55.32	22.77	14.47	-54.4	-59.2	3.7	0.00e+00	0	48	104	0	80	24869
2026-01-12 21:02:56.46	22.85	14.62	-54.4	-59.1	3.7	0.00e+00	0	49	104	0	80	24762
2026-01-12 21:02:57.31	22.91	14.73	-54.4	-59.4	3.7	0.00e+00	0	48	104	0	80	25647
2026-01-12 21:02:58.45	22.99	14.88	-54.2	-58.5	3.7	0.00e+00	0	49	104	0	80	23067
2026-01-12 21:02:59.30	23.05	15.00	-54.0	-58.3	3.7	0.00e+00	0	49	104	0	80	22440
2026-01-12 21:03:00.47	23.14	15.16	-54.1	-58.3	3.7	0.00e+00	0	49	104	0	79	23917
2026-01-12 21:03:01.32	23.20	15.27	-54.2	-58.5	3.7	0.00e+00	0	49	104	0	79	24347
2026-01-12 21:03:02.46	23.29	15.43	-54.3	-58.9	3.7	0.00e+00	0	49	104	0	79	25417
2026-01-12 21:03:03.31	23.35	15.55	-54.5	-58.8	3.7	0.00e+00	0	49	104	0	79	25366
2026-01-12 21:03:04.57	23.45	15.72	-54.4	-58.9	3.7	0.00e+00	0	49	104	0	79	25635
2026-01-12 21:03:05.36	23.51	15.83	-54.4	-59.0	3.7	0.00e+00	0	49	104	0	79	25745
2026-01-12 21:03:06.52	23.60	16.00	-53.9	-58.2	3.7	0.00e+00	0	49	104	0	79	23469
2026-01-12 21:03:07.37	23.66	16.12	-54.0	-58.3	3.7	0.00e+00	0	49	104	0	79	23793
2026-01-12 21:03:08.51	23.75	16.28	-54.3	-58.7	3.7	0.00e+00	0	49	104	0	79	24883
2026-01-12 21:03:09.36	23.82	16.40	-54.4	-58.9	3.7	0.00e+00	0	49	104	0	79	25648
2026-01-12 21:03:10.50	23.91	16.57	-54.5	-59.1	3.7	0.00e+00	0	49	104	0	79	26070
2026-01-12 21:03:11.35	23.98	16.70	-54.7	-59.2	3.7	0.00e+00	0	49	104	0	79	26539
2026-01-12 21:03:12.49	24.08	16.86	-54.3	-58.8	3.7	0.00e+00	0	49	104	0	80	23823
2026-01-12 21:03:13.34	24.15	16.99	-54.1	-58.9	3.7	0.00e+00	0	49	104	0	80	24066
2026-01-12 21:03:14.48	24.25	17.16	-54.3	-58.9	3.7	0.00e+00	0	49	104	0	80	24048
2026-01-12 21:03:15.34	24.32	17.29	-54.5	-58.9	3.7	0.00e+00	0	49	104	0	80	24108
2026-01-12 21:03:16.47	24.42	17.46	-54.3	-58.9	3.7	0.00e+00	0	49	104	0	80	24159
2026-01-12 21:03:17.32	24.49	17.59	-54.4	-59.3	3.7	0.00e+00	0	49	104	0	80	25336
2026-01-12 21:03:18.46	24.59	17.77	-54.5	-59.4	3.7	0.00e+00	0	49	104	0	80	25479
2026-01-12 21:03:19.31	24.67	17.90	-54.4	-59.2	3.7	0.00e+00	0	49	104	0	80	25055
2026-01-12 21:03:20.51	24.78	18.09	-54.1	-59.0	3.7	0.00e+00	0	49	104	0	80	24451
2026-01-12 21:03:21.37	24.86	18.23	-53.6	-58.8	3.7	0.00e+00	0	49	104	0	79	25371
2026-01-12 21:03:22.50	24.96	18.41	-53.5	-58.9	3.7	0.00e+00	0	49	104	0	78	26898
2026-01-12 21:03:23.35	25.04	18.55	-53.5	-58.9	3.7	0.00e+00	0	49	104	0	78	27026
2026-01-12 21:03:24.62	25.17	18.75	-53.8	-58.9	3.7	0.00e+00	0	49	104	0	78	27194
2026-01-12 21:03:25.42	25.24	18.88	-53.8	-58.9	3.7	0.00e+00	0	49	104	0	78	27046
2026-01-12 21:03:26.56	25.35	19.07	-53.4	-58.9	3.7	0.00e+00	0	49	104	0	78	27002
2026-01-12 21:03:27.41	25.44	19.21	-53.8	-58.9	3.7	0.00e+00	0	49	104	0	78	26942
2026-01-12 21:03:28.55	25.55	19.40	-54.2	-58.9	3.7	0.00e+00	0	49	104	0	79	25417
2026-01-12 21:03:29.40	25.64	19.55	-54.1	-58.3	3.7	0.00e+00	0	49	104	0	79	23794
2026-01-12 21:03:30.54	25.75	19.74	-53.8	-58.0	3.7	0.00e+00	0	49	104	0	79	23073
2026-01-12 21:03:31.39	25.84	19.89	-53.1	-56.2	3.7	0.00e+00	0	49	104	0	78	19708
2026-01-12 21:03:32.53	25.96	20.09	-53.7	-57.0	3.7	0.00e+00	0	49	104	0	78	21639
2026-01-12 21:03:33.38	26.05	20.24	-53.1	-55.9	3.7	0.00e+00	0	49	104	0	78	19174
2026-01-12 21:03:34.52	26.18	20.44	-53.3	-56.2	3.7	0.00e+00	0	49	104	0	78	19816
2026-01-12 21:03:35.37	26.27	20.59	-53.6	-56.6	3.7	0.00e+00	0	49	104	0	78	20834
2026-01-12 21:03:36.51	26.39	20.79	-54.1	-57.3	3.7	0.00e+00	0	49	104	0	78	22502
2026-01-12 21:03:37.37	26.49	20.95	-54.4	-57.8	3.7	0.00e+00	0	49	104	0	79	22607
2026-01-12 21:03:38.50	26.62	21.15	-54.3	-57.8	3.7	0.00e+00	0	49	104	0	79	22386
2026-01-12 21:03:39.35	26.72	21.31	-54.1	-57.3	3.7	0.00e+00	0	49	104	0	79	21336
2026-01-12 21:03:40.60	26.86	21.54	-54.4	-57.8	3.7	0.00e+00	0	49	104	0	79	22594
2026-01-12 21:03:41.46	26.96	21.71	-53.9	-57.0	3.7	0.00e+00	0	49	104	0	79	20626
2026-01-12 21:03:42.60	27.10	21.92	-53.7	-56.7	3.7	0.00e+00	0	49	104	0	79	19869
2026-01-12 21:03:43.45	27.20	22.08	-53.6	-56.6	3.7	0.00e+00	0	49	104	0	79	19624
2026-01-12 21:03:44.58	27.34	22.30	-53.6	-56.6	3.7	0.00e+00	0	49	104	0	79	19589
2026-01-12 21:03:45.44	27.45	22.47	-53.8	-57.0	3.7	0.00e+00	0	49	104	0	79	20632
2026-01-12 21:03:46.58	27.59	22.69	-54.5	-58.1	3.7	0.00e+00	0	49	104	0	79	23418
2026-01-12 21:03:47.43	27.70	22.86	-54.3	-57.8	3.7	0.00e+00	0	49	104	0	79	22591
2026-01-12 21:03:48.57	27.85	23.09	-54.8	-58.5	3.7	0.00e+00	0	49	104	0	80	22963
2026-01-12 21:03:49.42	27.96	23.26	-54.8	-58.6	3.7	0.00e+00	0	49	104	0	80	23171
2026-01-12 21:03:50.55	28.11	23.49	-54.3	-57.7	3.7	0.00e+00	0	49	104	0	79	22171
2026-01-12 21:03:51.41	28.23	23.66	-54.6	-58.3	3.7	0.00e+00	0	49	104	0	79	23743
2026-01-12 21:03:52.54	28.38	23.90	-54.8	-58.6	3.7	0.00e+00	0	49	104	0	80	23327
2026-01-12 21:03:53.40	28.50	24.08	-54.9	-58.6	3.7	0.00e+00	0	49	104	0	80	23346
2026-01-12 21:03:54.53	28.66	24.32	-55.0	-58.9	3.7	0.00e+00	0	49	104	0	80	24149
2026-01-12 21:03:55.39	28.79	24.50	-55.1	-58.9	3.7	0.00e+00	0	49	104	0	80	24111
2026-01-12 21:03:56.52	28.95	24.74	-55.4	-60.0	3.7	0.00e+00	0	49	104	0	81	25833
2026-01-12 21:03:57.38	29.08	24.93	-54.9	-59.5	3.7	0.00e+00	0	49	104	0	81	24256
2026-01-12 21:03:58.51	29.25	25.17	-55.4	-59.9	3.7	0.00e+00	0	49	104	0	81	25544
2026-01-12 21:03:59.37	29.38	25.36	-55.0	-59.6	3.7	0.00e+00	0	49	104	0	81	24668
2026-01-12 21:04:00.60	29.57	25.64	-54.9	-59.6	3.7	0.00e+00	0	49	104	0	81	24636
2026-01-12 21:04:01.45	29.70	25.83	-54.9	-59.7	3.7	0.00e+00	0	49	104	0	81	24953
2026-01-12 21:04:02.67	29.90	26.11	-54.7	-59.5	3.7	0.00e+00	0	49	104	0	81	24372
2026-01-12 21:04:03.53	30.04	26.31	-54.7	-59.4	3.7	0.00e+00	0	49	104	0	81	24136
2026-01-12 21:04:04.66	30.22	26.57	-54.5	-59.0	3.7	0.00e+00	0	50	104	0	81	22951
2026-01-12 21:04:05.52	30.37	26.77	-54.1	-57.6	3.7	0.00e+00	0	49	104	0	79	22080
2026-01-12 21:04:06.65	30.56	27.04	-54.6	-58.7	3.7	0.00e+00	0	49	104	0	80	23545
2026-01-12 21:04:07.50	30.71	27.24	-54.8	-59.1	3.7	0.00e+00	0	49	104	0	80	24706
2026-01-12 21:04:08.64	30.91	27.51	-55.0	-59.7	3.7	0.00e+00	0	49	104	0	80	26343
2026-01-12 21:04:09.59	31.08	27.74	-54.8	-59.3	3.7	0.00e+00	0	49	104	0	80	25309
2026-01-12 21:04:10.76	31.29	28.03	-54.5	-58.5	3.7	0.00e+00	0	49	104	0	80	23023
2026-01-12 21:04:11.61	31.45	28.24	-54.2	-58.0	3.7	0.00e+00	0	49	104	0	80	21688
2026-01-12 21:04:12.75	31.66	28.53	-54.3	-58.1	3.7	0.00e+00	0	49	104	0	80	21891
2026-01-12 21:04:13.60	31.82	28.74	-54.5	-58.4	3.7	0.00e+00	0	49	104	0	80	22812
2026-01-12 21:04:14.73	32.04	29.03	-55.1	-59.6	3.7	0.00e+00	0	49	104	0	80	26248
2026-01-12 21:04:15.59	32.21	29.26	-54.9	-59.1	3.7	0.00e+00	0	49	104	0	80	24722
2026-01-12 21:04:16.72	32.44	29.55	-54.9	-59.3	3.7	0.00e+00	0	49	104	0	80	25175
2026-01-12 21:04:17.58	32.62	29.78	-54.8	-58.8	3.7	0.00e+00	0	49	104	0	80	23831
2026-01-12 21:04:18.71	32.85	30.08	-55.0	-58.7	3.7	0.00e+00	0	49	104	0	80	23502
2026-01-12 21:04:19.57	33.03	30.31	-55.2	-59.0	3.7	0.00e+00	0	49	104	0	81	23003
2026-01-12 21:04:20.70	33.28	30.61	-55.2	-58.9	3.7	0.00e+00	0	49	104	0	81	22741
2026-01-12 21:04:21.56	33.47	30.85	-55.1	-58.8	3.7	0.00e+00	0	49	104	0	81	22483
2026-01-12 21:04:22.69	33.72	31.16	-55.2	-59.0	3.7	0.00e+00	0	49	104	0	81	22913
2026-01-12 21:04:23.54	33.91	31.40	-55.0	-58.6	3.7	0.00e+00	0	49	104	0	81	21924
2026-01-12 21:04:24.68	34.18	31.72	-53.9	-56.9	3.7	0.00e+00	0	49	104	0	79	20335
2026-01-12 21:04:25.53	34.38	31.96	-54.5	-57.8	3.7	0.00e+00	0	49	104	0	79	22480
2026-01-12 21:04:26.67	34.65	32.29	-54.9	-58.5	3.7	0.00e+00	0	49	104	0	80	23144
2026-01-12 21:04:27.60	34.88	32.56	-55.1	-58.9	3.7	0.00e+00	0	49	104	0	80	23980
2026-01-12 21:04:28.77	35.17	32.90	-54.6	-57.9	3.7	0.00e+00	0	50	104	0	80	21389
2026-01-12 21:04:29.63	35.39	33.15	-54.6	-57.9	3.7	0.00e+00	0	49	104	0	80	21378
2026-01-12 21:04:30.97	35.74	33.55	-55.3	-59.1	3.7	0.00e+00	0	50	104	0	81	23188
2026-01-12 21:04:31.68	35.93	33.77	-55.3	-59.2	3.7	0.00e+00	0	49	104	0	81	23533
2026-01-12 21:04:33.16	36.34	34.22	-55.2	-58.9	3.7	0.00e+00	0	49	104	0	81	22725
2026-01-12 21:04:33.87	36.53	34.44	-55.4	-59.3	3.7	0.00e+00	0	50	104	0	81	23863
2026-01-12 21:04:35.20	36.91	34.85	-54.5	-57.8	3.7	0.00e+00	0	49	104	0	81	20090
2026-01-12 21:04:35.91	37.12	35.08	-54.6	-58.1	3.7	0.00e+00	0	49	104	0	81	20822
2026-01-12 21:04:37.19	37.49	35.48	-55.2	-59.2	3.7	0.00e+00	0	49	104	0	81	23636
2026-01-12 21:04:38.28	37.82	35.83	-55.7	-60.1	3.7	0.00e+00	0	49	104	0	81	26042
2026-01-12 21:04:39.13	38.09	36.11	-55.7	-60.3	3.7	0.00e+00	0	49	104	0	82	25116
2026-01-12 21:04:40.27	38.45	36.48	-55.7	-60.3	3.7	0.00e+00	0	49	104	0	82	25205
2026-01-12 21:04:41.12	38.72	36.76	-55.5	-59.9	3.7	0.00e+00	0	49	104	0	82	23997
2026-01-12 21:04:42.29	39.10	37.15	-55.4	-59.8	3.7	0.00e+00	0	49	104	0	82	23916
2026-01-12 21:04:43.14	39.39	37.43	-55.2	-59.6	3.7	0.00e+00	0	50	104	0	82	23244
2026-01-12 21:04:44.28	39.78	37.81	-55.2	-59.5	3.7	0.00e+00	0	49	104	0	82	23122
2026-01-12 21:04:45.13	40.08	38.10	-55.4	-59.8	3.7	0.00e+00	0	50	104	0	82	23739
2026-01-12 21:04:46.27	40.49	38.50	-55.2	-59.2	3.7	0.00e+00	0	49	104	0	81	23491
2026-01-12 21:04:47.12	40.80	38.79	-55.7	-60.0	3.6	0.00e+00	0	49	104	0	82	24309
2026-01-12 21:04:48.26	41.23	39.19	-55.6	-59.8	3.7	0.00e+00	0	49	104	0	82	23959
2026-01-12 21:04:49.11	41.55	39.49	-55.7	-59.8	3.7	0.00e+00	0	50	104	0	82	23799
2026-01-12 21:04:50.24	42.00	39.89	-55.7	-60.0	3.7	0.00e+00	0	49	104	0	82	24248
2026-01-12 21:04:51.10	42.34	40.20	-55.9	-60.2	3.7	0.00e+00	0	49	104	0	82	25009
2026-01-12 21:04:52.23	42.81	40.60	-56.0	-60.3	3.7	0.00e+00	0	49	104	0	82	25255
2026-01-12 21:04:53.09	43.17	40.91	-55.9	-60.1	3.7	0.00e+00	0	49	104	0	82	24749
2026-01-12 21:04:54.22	43.65	41.33	-55.9	-60.3	3.7	0.00e+00	0	49	104	0	82	25271
2026-01-12 21:04:55.07	44.03	41.64	-55.9	-60.5	3.7	0.00e+00	0	49	104	0	82	25689
2026-01-12 21:04:56.21	44.54	42.06	-56.1	-60.4	3.7	0.00e+00	0	49	104	0	82	25576
2026-01-12 21:04:57.06	44.93	42.38	-56.0	-60.4	3.7	0.00e+00	0	49	104	0	82	25546
2026-01-12 21:04:58.20	45.47	42.80	-55.9	-60.1	3.7	0.00e+00	0	49	104	0	82	24803
2026-01-12 21:04:59.05	45.88	43.12	-55.9	-60.3	3.7	0.00e+00	0	50	104	0	82	25103
2026-01-12 21:05:00.19	46.45	43.56	-55.9	-60.3	3.7	0.00e+00	0	50	104	0	82	25194
2026-01-12 21:05:01.04	46.88	43.88	-55.9	-60.4	3.7	0.00e+00	0	49	104	0	82	25433
2026-01-12 21:05:02.18	47.47	44.32	-55.8	-60.1	3.7	0.00e+00	0	50	104	0	82	24569
2026-01-12 21:05:03.06	47.94	44.65	-55.8	-60.1	3.7	0.00e+00	0	49	104	0	82	24546
2026-01-12 21:05:04.20	48.57	45.09	-55.8	-60.1	3.7	0.00e+00	0	50	104	0	82	24760
2026-01-12 21:05:05.05	49.04	45.42	-55.8	-60.4	3.7	0.00e+00	0	50	104	0	82	25664
2026-01-12 21:05:06.18	49.69	45.86	-55.8	-60.4	3.7	0.00e+00	0	49	104	0	82	25514
2026-01-12 21:05:07.04	50.20	46.20	-55.9	-60.4	3.7	0.00e+00	0	50	104	0	82	25449
2026-01-12 21:05:08.17	50.88	46.64	-55.9	-60.2	3.7	0.00e+00	0	50	104	0	82	25028
2026-01-12 21:05:09.26	51.56	47.07	-55.9	-60.3	3.7	0.00e+00	0	49	104	0	82	25183
2026-01-12 21:05:10.11	52.11	47.40	-55.9	-60.3	3.7	0.00e+00	0	50	104	0	82	25293
2026-01-12 21:05:11.25	52.85	47.85	-55.8	-60.1	3.7	0.00e+00	0	50	104	0	82	24716
2026-01-12 21:05:12.11	53.43	48.18	-56.1	-60.6	3.7	0.00e+00	0	50	104	0	82	26035
2026-01-12 21:05:13.24	54.21	48.63	-55.9	-60.4	3.7	0.00e+00	0	49	104	0	82	25462
2026-01-12 21:05:14.09	54.81	48.96	-56.0	-60.5	3.7	0.00e+00	0	50	104	0	82	25915
2026-01-12 21:05:15.23	55.64	49.40	-55.8	-60.1	3.7	0.00e+00	0	50	104	0	82	24658
2026-01-12 21:05:16.08	56.28	49.73	-56.0	-60.4	3.7	0.00e+00	0	50	104	0	82	25641
2026-01-12 21:05:17.31	57.22	50.21	-56.1	-60.5	3.7	0.00e+00	0	50	104	0	82	25680
2026-01-12 21:05:18.17	57.90	50.54	-56.1	-60.5	3.7	0.00e+00	0	50	104	0	82	25882
2026-01-12 21:05:19.30	58.81	50.98	-56.0	-60.6	3.7	0.00e+00	0	49	104	0	82	26059
2026-01-12 21:05:20.15	59.51	51.30	-55.9	-60.3	3.7	0.00e+00	0	50	104	0	82	25381
2026-01-12 21:05:21.40	60.58	51.78	-56.0	-60.3	3.7	0.00e+00	0	50	104	0	82	25216
2026-01-12 21:05:22.25	61.32	52.10	-56.0	-60.2	3.7	0.00e+00	0	50	104	0	82	25071
2026-01-12 21:05:23.39	62.35	52.52	-55.8	-60.3	3.7	0.00e+00	0	49	104	0	82	25237
2026-01-12 21:05:24.24	63.13	52.83	-55.6	-60.3	3.7	0.00e+00	0	50	104	0	82	25127
2026-01-12 21:05:25.52	64.34	53.30	-55.9	-60.2	3.7	0.00e+00	0	50	104	0	82	24963
2026-01-12 21:05:26.27	65.07	53.57	-55.9	-60.2	3.7	0.00e+00	0	49	104	0	82	24972
2026-01-12 21:05:27.73	66.53	54.08	-55.7	-60.2	3.7	0.00e+00	0	50	104	0	82	25001
2026-01-12 21:05:28.44	67.26	54.33	-55.9	-60.2	3.7	0.00e+00	0	50	104	0	82	25047
2026-01-12 21:05:29.78	68.67	54.78	-56.0	-60.3	3.7	0.00e+00	0	50	104	0	82	25102
2026-01-12 21:05:30.49	69.43	55.01	-55.8	-60.2	3.7	0.00e+00	0	50	104	0	82	24927
2026-01-12 21:05:31.77	70.84	55.43	-55.6	-60.1	3.7	0.00e+00	0	50	104	0	82	24805
2026-01-12 21:05:32.49	71.66	55.65	-55.7	-60.2	3.7	0.00e+00	0	50	104	0	82	24925
2026-01-12 21:05:33.77	73.14	56.05	-55.9	-60.3	3.6	0.00e+00	0	50	104	0	82	25317
2026-01-12 21:05:34.48	73.97	56.26	-55.9	-60.3	3.7	0.00e+00	0	49	104	0	82	25342
2026-01-12 21:05:35.76	75.52	56.62	-55.9	-60.4	3.7	0.00e+00	0	50	104	0	82	25654
2026-01-12 21:05:36.49	76.42	56.83	-55.7	-60.4	3.7	0.00e+00	0	50	104	0	82	25537
2026-01-12 21:05:37.77	78.02	57.16	-55.8	-60.4	3.7	0.00e+00	0	50	104	0	82	25599
2026-01-12 21:05:38.49	78.94	57.35	-55.9	-60.4	3.7	0.00e+00	0	50	104	0	82	25591
2026-01-12 21:05:39.77	80.61	57.65	-55.6	-60.3	3.7	0.00e+00	0	50	104	0	82	25127
2026-01-12 21:05:40.50	81.58	57.82	-55.4	-60.1	3.7	0.00e+00	0	50	104	0	82	24747
2026-01-12 21:05:41.77	83.30	58.09	-55.1	-59.9	3.7	0.00e+00	0	50	104	0	82	23974
2026-01-12 21:05:42.48	84.27	58.24	-54.8	-59.7	3.7	0.00e+00	0	50	104	0	81	25082
2026-01-12 21:05:43.77	86.06	58.48	-55.4	-60.3	3.7	0.00e+00	0	50	104	0	81	26648
2026-01-12 21:05:44.48	87.07	58.60	-55.5	-60.2	3.7	0.00e+00	0	50	104	0	81	26413
2026-01-12 21:05:45.75	88.88	58.79	-55.5	-60.2	3.7	0.00e+00	0	50	104	0	81	26294
2026-01-12 21:05:46.67	90.21	58.92	-55.4	-60.1	3.7	0.00e+00	0	49	104	0	81	26260
2026-01-12 21:05:47.96	92.09	59.08	-55.9	-60.4	3.7	0.00e+00	0	50	104	0	82	25507
2026-01-12 21:05:48.67	93.14	59.15	-55.7	-60.3	3.7	0.00e+00	0	50	104	0	82	25135
2026-01-12 21:05:49.95	95.04	59.26	-55.6	-60.2	3.7	0.00e+00	0	50	104	0	82	24838
2026-01-12 21:05:50.68	96.13	59.31	-55.8	-60.4	3.7	0.00e+00	0	50	104	0	82	25542
2026-01-12 21:05:51.96	98.05	59.38	-55.8	-60.1	3.7	0.00e+00	0	50	104	0	82	24651
2026-01-12 21:05:52.67	99.12	59.40	-55.8	-60.1	3.7	0.00e+00	0	50	104	0	82	24651
2026-01-12 21:05:53.94	101.04	59.42	-55.8	-60.2	3.7	0.00e+00	0	50	104	0	82	24871
2026-01-12 21:05:54.67	102.14	59.42	-55.8	-60.3	3.7	0.00e+00	0	50	104	0	82	25150
2026-01-12 21:05:56.04	104.21	59.40	-55.9	-60.3	3.7	0.00e+00	0	50	104	0	82	25322
2026-01-12 21:05:56.75	105.28	59.37	-56.2	-60.5	3.7	0.00e+00	0	50	104	0	83	24378
2026-01-12 21:05:58.03	107.20	59.30	-56.1	-60.5	3.7	0.00e+00	0	50	104	0	83	24334
2026-01-12 21:05:58.74	108.26	59.25	-55.5	-60.1	3.7	0.00e+00	0	50	104	0	83	23372
2026-01-12 21:06:00.15	110.35	59.12	-55.6	-60.3	3.7	0.00e+00	0	50	104	0	82	25262
2026-01-12 21:06:00.86	111.40	59.04	-55.9	-60.3	3.7	0.00e+00	0	49	104	0	82	25134
2026-01-12 21:06:02.22	113.38	58.87	-55.8	-60.2	3.7	0.00e+00	0	50	104	0	82	24874
2026-01-12 21:06:02.93	114.40	58.77	-55.8	-59.9	3.7	0.00e+00	0	50	104	0	82	24159
2026-01-12 21:06:04.26	116.30	58.56	-55.8	-60.0	3.7	0.00e+00	0	50	104	0	82	24346
2026-01-12 21:06:04.97	117.30	58.43	-55.6	-59.7	3.7	0.00e+00	0	50	104	0	82	23519
2026-01-12 21:06:06.28	119.12	58.18	-55.6	-59.7	3.7	0.00e+00	0	50	104	0	82	23488
2026-01-12 21:06:06.99	120.09	58.04	-55.8	-60.1	3.7	0.00e+00	0	50	104	0	82	24717
2026-01-12 21:06:08.27	121.81	57.76	-55.8	-60.1	3.7	0.00e+00	0	50	104	0	82	24609
2026-01-12 21:06:09.01	122.79	57.59	-55.6	-59.9	3.7	0.00e+00	0	50	104	0	82	24195
2026-01-12 21:06:10.29	124.45	57.27	-56.1	-60.5	3.7	0.00e+00	0	50	104	0	82	25731
2026-01-12 21:06:11.01	125.37	57.09	-55.8	-60.1	3.6	0.00e+00	0	50	104	0	82	24740
2026-01-12 21:06:12.29	126.97	56.75	-55.7	-60.1	3.7	0.00e+00	0	50	104	0	82	24660
2026-01-12 21:06:13.00	127.84	56.55	-55.6	-60.3	3.7	0.00e+00	0	50	104	0	82	25120
2026-01-12 21:06:14.28	129.38	56.18	-55.1	-59.9	3.7	0.00e+00	0	50	104	0	82	24170
2026-01-12 21:06:15.02	130.25	55.95	-55.1	-59.9	3.7	0.00e+00	0	50	104	0	82	24106
2026-01-12 21:06:16.30	131.72	55.56	-55.8	-60.0	3.7	0.00e+00	0	50	104	0	82	24299
2026-01-12 21:06:17.01	132.52	55.33	-55.8	-60.0	3.7	0.00e+00	0	50	104	0	82	24490
2026-01-12 21:06:18.29	133.92	54.91	-55.9	-60.2	3.7	0.00e+00	0	50	104	0	82	24862
2026-01-12 21:06:19.00	134.69	54.68	-55.8	-60.0	3.7	0.00e+00	0	50	104	0	82	24501
2026-01-12 21:06:20.28	136.03	54.24	-55.7	-59.9	3.7	0.00e+00	0	50	104	0	82	24142
2026-01-12 21:06:20.99	136.75	53.99	-55.8	-60.1	3.7	0.00e+00	0	50	104	0	82	24582
2026-01-12 21:06:22.27	138.03	53.54	-55.6	-59.8	3.7	0.00e+00	0	50	104	0	82	23881
2026-01-12 21:06:23.22	138.95	53.20	-55.6	-59.8	3.7	0.00e+00	0	50	104	0	82	23787
2026-01-12 21:06:24.50	140.16	52.73	-55.7	-59.8	3.7	0.00e+00	0	50	104	0	82	23820
2026-01-12 21:06:25.24	140.84	52.46	-55.8	-60.0	3.7	0.00e+00	0	50	104	0	82	24330
2026-01-12 21:06:26.52	141.98	51.98	-55.8	-59.9	3.7	0.00e+00	0	50	104	0	82	24212
2026-01-12 21:06:27.24	142.61	51.71	-55.9	-60.2	3.7	0.00e+00	0	50	104	0	82	24871
2026-01-12 21:06:28.52	143.70	51.22	-55.9	-60.3	3.7	0.00e+00	0	50	104	0	82	25115
2026-01-12 21:06:29.24	144.30	50.94	-55.8	-60.2	3.7	0.00e+00	0	50	104	0	82	24834
2026-01-12 21:06:30.52	145.33	50.45	-55.9	-60.4	3.7	0.00e+00	0	50	104	0	82	25562
2026-01-12 21:06:31.27	145.92	50.16	-55.9	-60.3	3.7	0.00e+00	0	50	104	0	82	25323
2026-01-12 21:06:32.54	146.90	49.66	-56.0	-60.3	3.7	0.00e+00	0	50	104	0	82	25196
2026-01-12 21:06:33.27	147.44	49.37	-56.0	-60.1	3.7	0.00e+00	0	50	104	0	82	24775
2026-01-12 21:06:34.55	148.37	48.87	-56.0	-60.5	3.7	0.00e+00	0	50	104	0	83	24481
2026-01-12 21:06:35.27	148.88	48.59	-55.8	-60.4	3.7	0.00e+00	0	50	104	0	83	23971
2026-01-12 21:06:36.55	149.76	48.09	-55.9	-60.3	3.7	0.00e+00	0	50	104	0	83	23958
2026-01-12 21:06:37.28	150.25	47.80	-56.0	-60.5	3.7	0.00e+00	0	50	104	0	83	24263
2026-01-12 21:06:38.56	151.09	47.29	-56.2	-60.6	3.7	0.00e+00	0	50	104	0	83	24620
2026-01-12 21:06:39.27	151.54	47.01	-56.2	-60.5	3.7	0.00e+00	0	50	104	0	83	24494
2026-01-12 21:06:40.54	152.34	46.52	-56.2	-60.5	3.7	0.00e+00	0	50	104	0	83	24490
2026-01-12 21:06:41.28	152.78	46.22	-56.1	-60.6	3.7	0.00e+00	0	50	104	0	83	24602
2026-01-12 21:06:42.56	153.54	45.72	-56.0	-60.5	3.7	0.00e+00	0	50	104	0	83	24502
2026-01-12 21:06:43.27	153.95	45.45	-55.9	-60.5	3.7	0.00e+00	0	50	104	0	83	24248
2026-01-12 21:06:44.76	154.78	44.87	-55.8	-60.3	3.7	0.00e+00	0	50	104	0	83	23721
2026-01-12 21:06:45.47	155.17	44.59	-55.8	-60.3	3.7	0.00e+00	0	50	104	0	83	23954
2026-01-12 21:06:46.75	155.85	44.10	-56.0	-60.5	3.7	0.00e+00	0	50	104	0	83	24307
2026-01-12 21:06:47.49	156.24	43.81	-56.0	-60.5	3.7	0.00e+00	0	50	104	0	83	24381
2026-01-12 21:06:48.77	156.88	43.33	-56.0	-60.5	3.7	0.00e+00	0	50	104	0	83	24364
2026-01-12 21:06:49.50	157.24	43.05	-55.8	-60.4	3.7	0.00e+00	0	50	104	0	83	23994
2026-01-12 21:06:50.77	157.85	42.57	-56.0	-60.4	3.7	0.00e+00	0	50	104	0	83	24031
2026-01-12 21:06:51.48	158.19	42.30	-56.0	-60.4	3.7	0.00e+00	0	50	104	0	83	23998
2026-01-12 21:06:52.76	158.78	41.82	-56.0	-60.4	3.7	0.00e+00	0	50	104	0	83	23988
2026-01-12 21:06:53.50	159.11	41.55	-55.9	-60.3	3.7	0.00e+00	0	50	104	0	83	23916
2026-01-12 21:06:54.78	159.67	41.08	-55.8	-60.4	3.7	0.00e+00	0	50	104	0	83	24000
2026-01-12 21:06:55.49	159.97	40.82	-55.6	-60.3	3.7	0.00e+00	0	50	104	0	83	23926
2026-01-12 21:06:56.77	160.51	40.35	-55.7	-60.3	3.7	0.00e+00	0	50	104	0	83	23905
2026-01-12 21:06:57.58	160.84	40.06	-55.6	-60.0	3.7	0.00e+00	0	50	104	0	83	23141
2026-01-12 21:06:58.71	161.29	39.65	-55.6	-60.1	3.7	0.00e+00	0	50	104	0	82	24646
2026-01-12 21:06:59.57	161.62	39.35	-55.6	-60.1	3.7	0.00e+00	0	50	104	0	82	24601
2026-01-12 21:07:00.70	162.05	38.95	-55.8	-60.2	3.7	0.00e+00	0	50	104	0	82	24825
2026-01-12 21:07:01.56	162.37	38.65	-55.7	-60.1	3.7	0.00e+00	0	50	104	0	82	24553
2026-01-12 21:07:02.69	162.79	38.26	-55.2	-59.8	3.7	0.00e+00	0	50	104	0	82	23952
2026-01-12 21:07:03.54	163.09	37.96	-55.2	-59.8	3.7	0.00e+00	0	50	104	0	82	23826
2026-01-12 21:07:04.68	163.49	37.57	-55.4	-60.0	3.7	0.00e+00	0	50	104	0	82	24442
2026-01-12 21:07:05.53	163.78	37.29	-55.4	-60.0	3.7	0.00e+00	0	50	104	0	82	24514
2026-01-12 21:07:06.67	164.16	36.90	-55.8	-60.3	3.7	0.00e+00	0	50	104	0	82	25326
2026-01-12 21:07:07.52	164.44	36.62	-55.8	-60.3	3.7	0.00e+00	0	50	104	0	82	25369
2026-01-12 21:07:08.66	164.80	36.24	-55.9	-60.3	3.7	0.00e+00	0	50	104	0	82	25264
2026-01-12 21:07:09.51	165.07	35.97	-55.5	-60.0	3.7	0.00e+00	0	50	104	0	82	24500
2026-01-12 21:07:10.65	165.42	35.60	-55.6	-60.1	3.7	0.00e+00	0	50	104	0	82	24671
2026-01-12 21:07:11.50	165.67	35.32	-55.7	-60.1	3.7	0.00e+00	0	50	104	0	82	24768
2026-01-12 21:07:12.63	166.01	34.96	-55.8	-60.2	3.7	0.00e+00	0	50	104	0	82	24966
2026-01-12 21:07:13.49	166.26	34.69	-55.9	-60.4	3.7	0.00e+00	0	50	104	0	82	25390
2026-01-12 21:07:14.62	166.58	34.34	-55.8	-60.3	3.7	0.00e+00	0	50	104	0	82	25230
2026-01-12 21:07:15.73	166.88	34.00	-55.9	-60.4	3.7	0.00e+00	0	50	104	0	82	25514
2026-01-12 21:07:16.74	167.16	33.69	-55.7	-60.2	3.7	0.00e+00	0	50	104	0	82	24834
2026-01-12 21:07:17.73	167.42	33.39	-55.6	-60.0	3.7	0.00e+00	0	50	104	0	82	24450
2026-01-12 21:07:18.95	167.74	33.02	-55.6	-60.1	3.7	0.00e+00	0	50	104	0	82	24560
2026-01-12 21:07:19.82	167.96	32.76	-55.4	-59.9	3.7	0.00e+00	0	50	104	0	82	23965
2026-01-12 21:07:20.96	168.25	32.43	-55.6	-60.1	3.7	0.00e+00	0	50	104	0	82	24711
2026-01-12 21:07:21.81	168.45	32.18	-55.4	-60.2	3.7	0.00e+00	0	50	104	0	82	24822
2026-01-12 21:07:22.95	168.73	31.85	-55.2	-60.0	3.7	0.00e+00	0	50	104	0	82	24320
2026-01-12 21:07:23.80	168.93	31.61	-55.5	-60.1	3.7	0.00e+00	0	50	104	0	82	24793
2026-01-12 21:07:24.94	169.20	31.29	-55.5	-60.2	3.7	0.00e+00	0	50	104	0	82	25065
2026-01-12 21:07:25.79	169.39	31.05	-55.8	-60.2	3.7	0.00e+00	0	50	104	0	82	25079
2026-01-12 21:07:26.92	169.64	30.74	-55.6	-60.2	3.7	0.00e+00	0	50	104	0	82	24853
2026-01-12 21:07:27.78	169.83	30.50	-55.9	-60.3	3.7	0.00e+00	0	50	104	0	82	25320
2026-01-12 21:07:28.92	170.08	30.19	-55.8	-60.3	3.7	0.00e+00	0	50	104	0	82	25193
2026-01-12 21:07:29.77	170.26	29.96	-55.6	-60.2	3.7	0.00e+00	0	50	104	0	82	24962
2026-01-12 21:07:30.91	170.49	29.66	-55.8	-60.3	3.7	0.00e+00	0	50	104	0	82	25177
2026-01-12 21:07:31.76	170.67	29.43	-55.8	-60.3	3.7	0.00e+00	0	50	104	0	82	25190
2026-01-12 21:07:33.01	170.92	29.10	-55.7	-60.3	3.7	0.00e+00	0	50	104	0	82	25237
2026-01-12 21:07:33.86	171.09	28.88	-55.7	-60.1	3.7	0.00e+00	0	50	104	0	82	24806
2026-01-12 21:07:35.07	171.32	28.57	-55.7	-60.3	3.7	0.00e+00	0	50	104	0	82	25156
2026-01-12 21:07:35.93	171.49	28.35	-55.6	-60.0	3.7	0.00e+00	0	50	104	0	82	24441
2026-01-12 21:07:37.12	171.71	28.06	-55.6	-60.0	3.7	0.00e+00	0	50	104	0	82	24362
2026-01-12 21:07:37.98	171.87	27.84	-55.2	-59.7	3.7	0.00e+00	0	50	104	0	82	23675
2026-01-12 21:07:39.11	172.07	27.56	-55.3	-59.6	3.7	0.00e+00	0	50	104	0	82	23206
2026-01-12 21:07:39.97	172.23	27.35	-55.3	-59.7	3.6	0.00e+00	0	50	104	0	82	23651
2026-01-12 21:07:41.10	172.42	27.08	-55.2	-59.7	3.7	0.00e+00	0	50	104	0	82	23680
2026-01-12 21:07:42.00	172.58	26.86	-55.4	-59.9	3.7	0.00e+00	0	50	104	0	82	24241
2026-01-12 21:07:43.09	172.76	26.61	-55.3	-59.8	3.7	0.00e+00	0	50	104	0	82	23853
2026-01-12 21:07:43.94	172.91	26.41	-55.3	-59.8	3.7	0.00e+00	0	50	104	0	82	23918
2026-01-12 21:07:45.08	173.09	26.14	-55.4	-59.7	3.7	0.00e+00	0	50	104	0	82	23689
2026-01-12 21:07:45.93	173.23	25.95	-55.0	-59.4	3.7	0.00e+00	0	50	104	0	82	22682
2026-01-12 21:07:47.07	173.41	25.69	-55.1	-59.6	3.7	0.00e+00	0	50	104	0	82	23205
2026-01-12 21:07:47.92	173.55	25.49	-54.7	-59.1	3.7	0.00e+00	0	50	104	0	81	23407
2026-01-12 21:07:49.06	173.72	25.24	-55.1	-59.8	3.7	0.00e+00	0	50	104	0	81	25247
2026-01-12 21:07:49.91	173.85	25.05	-54.6	-59.4	3.7	0.00e+00	0	50	104	0	81	24133
2026-01-12 21:07:51.05	174.02	24.80	-54.5	-59.3	3.7	0.00e+00	0	50	104	0	81	23879
2026-01-12 21:07:51.90	174.15	24.61	-54.5	-59.3	3.7	0.00e+00	0	50	104	0	81	23795
2026-01-12 21:07:53.04	174.31	24.37	-54.4	-59.3	3.7	0.00e+00	0	50	104	0	80	25204
2026-01-12 21:07:53.89	174.44	24.19	-54.4	-59.2	3.7	0.00e+00	0	50	104	0	80	25078
2026-01-12 21:07:55.14	174.61	23.92	-54.6	-59.3	3.7	0.00e+00	0	50	104	0	80	25193
2026-01-12 21:07:55.99	174.73	23.74	-54.6	-59.2	3.7	0.00e+00	0	50	104	0	80	25015
2026-01-12 21:07:57.13	174.89	23.51	-54.4	-58.9	3.7	0.00e+00	0	50	104	0	80	24049
2026-01-12 21:07:57.98	175.00	23.33	-54.2	-58.8	3.7	0.00e+00	0	50	104	0	80	23731
2026-01-12 21:07:59.12	175.15	23.10	-54.7	-59.2	3.7	0.00e+00	0	50	104	0	80	24957
2026-01-12 21:08:00.02	175.27	22.92	-54.1	-58.7	3.7	0.00e+00	0	50	104	0	80	23478
2026-01-12 21:08:01.12	175.41	22.70	-54.2	-58.7	3.7	0.00e+00	0	50	104	0	80	23507
2026-01-12 21:08:01.98	175.52	22.53	-54.3	-58.9	3.7	0.00e+00	0	50	104	0	80	24208
2026-01-12 21:08:03.11	175.67	22.30	-54.1	-58.6	3.7	0.00e+00	0	50	104	0	80	23212
2026-01-12 21:08:03.97	175.77	22.14	-54.6	-59.1	3.7	0.00e+00	0	50	104	0	80	24779
2026-01-12 21:08:05.10	175.91	21.92	-54.1	-58.9	3.7	0.00e+00	0	50	104	0	80	24192
2026-01-12 21:08:06.19	176.04	21.71	-54.7	-59.3	3.7	0.00e+00	0	50	104	0	80	25116
2026-01-12 21:08:07.22	176.17	21.51	-54.7	-59.3	3.7	0.00e+00	0	50	104	0	80	25383
2026-01-12 21:08:08.38	176.30	21.30	-54.8	-59.4	3.7	0.00e+00	0	50	104	0	80	25435
2026-01-12 21:08:09.24	176.40	21.14	-54.6	-59.2	3.7	0.00e+00	0	50	104	0	80	24810
2026-01-12 21:08:10.58	176.55	20.89	-54.8	-59.3	3.7	0.00e+00	0	50	104	0	80	25196
2026-01-12 21:08:11.29	176.63	20.76	-54.8	-59.2	3.7	0.00e+00	0	50	104	0	80	25017
2026-01-12 21:08:12.78	176.80	20.49	-55.0	-59.7	3.7	0.00e+00	0	50	104	0	80	26390
2026-01-12 21:08:13.50	176.88	20.36	-55.2	-59.7	3.6	0.00e+00	0	50	104	0	80	26497
2026-01-12 21:08:14.77	177.01	20.13	-55.2	-59.8	3.7	0.00e+00	0	50	104	0	81	25179
2026-01-12 21:08:15.48	177.09	20.01	-55.3	-59.9	3.7	0.00e+00	0	50	104	0	81	25389
2026-01-12 21:08:16.86	177.24	19.77	-55.1	-59.4	3.6	0.00e+00	0	50	104	0	81	23970
2026-01-12 21:08:17.57	177.31	19.64	-54.8	-59.0	3.7	0.00e+00	0	50	104	0	81	23005
2026-01-12 21:08:18.85	177.44	19.43	-55.0	-59.3	3.7	0.00e+00	0	50	104	0	81	23869
2026-01-12 21:08:19.56	177.51	19.30	-54.7	-59.0	3.7	0.00e+00	0	50	104	0	81	23068
2026-01-12 21:08:20.84	177.64	19.09	-54.8	-59.1	3.7	0.00e+00	0	50	104	0	81	23302
2026-01-12 21:08:21.56	177.71	18.97	-54.6	-58.9	3.7	0.00e+00	0	50	104	0	81	22802
2026-01-12 21:08:22.84	177.84	18.75	-54.6	-58.9	3.7	0.00e+00	0	50	104	0	81	22752
2026-01-12 21:08:23.55	177.90	18.64	-54.6	-59.0	3.7	0.00e+00	0	50	104	0	81	22889
2026-01-12 21:08:24.83	178.03	18.43	-54.7	-59.0	3.7	0.00e+00	0	50	104	0	80	24472
2026-01-12 21:08:25.56	178.09	18.31	-54.8	-59.4	3.7	0.00e+00	0	50	104	0	80	25444
2026-01-12 21:08:26.83	178.21	18.11	-54.6	-59.0	3.7	0.00e+00	0	50	104	0	80	24276
2026-01-12 21:08:27.56	178.28	17.99	-54.5	-59.0	3.7	0.00e+00	0	50	104	0	80	24404
2026-01-12 21:08:28.84	178.40	17.79	-54.9	-59.4	3.7	0.00e+00	0	50	104	0	80	25520
2026-01-12 21:08:29.60	178.46	17.67	-54.2	-59.0	3.7	0.00e+00	0	50	104	0	80	24515
2026-01-12 21:08:30.88	178.58	17.47	-54.1	-58.8	3.7	0.00e+00	0	50	104	0	80	23703
2026-01-12 21:08:31.66	178.65	17.35	-54.1	-58.9	3.7	0.00e+00	0	50	104	0	80	24191
2026-01-12 21:08:33.16	178.78	17.12	-54.1	-59.1	3.7	0.00e+00	0	50	104	0	80	24713
2026-01-12 21:08:33.87	178.84	17.01	-54.1	-59.0	3.7	0.00e+00	0	50	104	0	80	24380
2026-01-12 21:08:35.15	178.94	16.82	-54.2	-58.9	3.7	0.00e+00	0	50	104	0	80	24084
2026-01-12 21:08:35.88	179.01	16.71	-54.2	-59.1	3.7	0.00e+00	0	50	104	0	80	24585
2026-01-12 21:08:37.15	179.11	16.52	-54.1	-58.9	3.7	0.00e+00	0	50	104	0	80	24233
2026-01-12 21:08:37.87	179.17	16.41	-54.2	-59.0	3.7	0.00e+00	0	50	104	0	79	25934
2026-01-12 21:08:39.14	179.27	16.23	-54.2	-59.2	3.7	0.00e+00	0	50	104	0	79	26289
2026-01-12 21:08:39.90	179.33	16.12	-54.0	-58.9	3.7	0.00e+00	0	50	104	0	79	25492
2026-01-12 21:08:41.18	179.43	15.93	-54.2	-59.2	3.7	0.00e+00	0	50	104	0	79	26423
2026-01-12 21:08:41.92	179.49	15.83	-54.3	-59.3	3.7	0.00e+00	0	50	104	0	79	26639
2026-01-12 21:08:43.20	179.59	15.65	-54.1	-59.0	3.7	0.00e+00	0	50	104	0	79	25938
2026-01-12 21:08:43.93	179.65	15.54	-54.1	-59.1	3.7	0.00e+00	0	50	104	0	79	26228
2026-01-12 21:08:45.20	179.74	15.36	-53.9	-58.9	3.7	0.00e+00	0	50	104	0	79	25467
2026-01-12 21:08:45.94	179.80	15.26	-54.1	-59.0	3.7	0.00e+00	0	50	104	0	79	25965
2026-01-12 21:08:47.22	179.89	15.09	-53.7	-58.9	3.7	0.00e+00	0	50	104	0	79	25542
2026-01-12 21:08:47.95	179.95	14.99	-54.1	-59.0	3.7	0.00e+00	0	50	104	0	79	25762
2026-01-12 21:08:49.23	180.04	14.81	-53.9	-59.0	3.7	0.00e+00	0	50	104	0	79	25971
2026-01-12 21:08:50.17	180.11	14.69	-53.8	-58.8	3.7	0.00e+00	0	50	104	0	79	25317
2026-01-12 21:08:51.47	180.20	14.51	-53.8	-58.9	3.7	0.00e+00	0	50	104	0	79	25455
2026-01-12 21:08:52.21	180.25	14.41	-53.8	-58.9	3.7	0.00e+00	0	50	104	0	79	25575
2026-01-12 21:08:53.49	180.34	14.24	-53.8	-58.8	3.7	0.00e+00	0	50	104	0	79	25380
2026-01-12 21:08:54.30	180.39	14.14	-53.7	-58.8	3.7	0.00e+00	0	50	104	0	79	25382
2026-01-12 21:08:55.43	180.47	13.99	-53.7	-58.7	3.7	0.00e+00	0	50	104	0	79	25008
2026-01-12 21:08:56.29	180.53	13.88	-53.8	-58.9	3.7	0.00e+00	0	50	104	0	79	25412
2026-01-12 21:08:57.42	180.60	13.74	-53.5	-58.5	3.7	0.00e+00	0	50	104	0	78	25787
2026-01-12 21:08:58.28	180.66	13.63	-53.6	-58.6	3.7	0.00e+00	0	50	104	0	78	26167
2026-01-12 21:08:59.41	180.74	13.48	-53.4	-58.5	3.7	0.00e+00	0	50	104	0	78	25841
2026-01-12 21:09:00.27	180.79	13.37	-53.6	-58.6	3.7	0.00e+00	0	50	104	0	78	26023
2026-01-12 21:09:01.41	180.86	13.23	-53.3	-58.4	3.7	0.00e+00	0	50	104	0	78	25597
2026-01-12 21:09:02.26	180.92	13.13	-53.4	-58.5	3.7	0.00e+00	0	50	104	0	78	25799
2026-01-12 21:09:03.39	180.99	12.99	-53.4	-58.5	3.7	0.00e+00	0	50	104	0	78	25753
2026-01-12 21:09:04.25	181.04	12.88	-53.4	-58.5	3.7	0.00e+00	0	50	104	0	78	25732
2026-01-12 21:09:05.46	181.12	12.73	-53.6	-58.5	3.7	0.00e+00	0	50	104	0	78	25951
2026-01-12 21:09:06.31	181.17	12.63	-53.3	-58.4	3.7	0.00e+00	0	50	104	0	78	25579
2026-01-12 21:09:07.54	181.24	12.48	-53.6	-58.6	3.7	0.00e+00	0	50	104	0	78	26191
2026-01-12 21:09:08.40	181.30	12.38	-53.6	-58.7	3.7	0.00e+00	0	50	104	0	78	26292
2026-01-12 21:09:09.53	181.36	12.25	-53.7	-58.6	3.7	0.00e+00	0	50	104	0	78	26183
2026-01-12 21:09:10.38	181.41	12.15	-53.5	-58.5	3.7	0.00e+00	0	50	104	0	78	25898
2026-01-12 21:09:11.52	181.48	12.01	-53.7	-58.8	3.7	0.00e+00	0	50	104	0	78	26632
2026-01-12 21:09:12.37	181.53	11.92	-53.9	-58.8	3.7	0.00e+00	0	50	104	0	78	26743
2026-01-12 21:09:13.51	181.59	11.78	-54.0	-58.8	3.7	0.00e+00	0	50	104	0	78	26884
2026-01-12 21:09:14.36	181.64	11.69	-53.6	-58.7	3.7	0.00e+00	0	50	104	0	78	26409
2026-01-12 21:09:15.50	181.71	11.56	-54.0	-58.8	3.7	0.00e+00	0	50	104	0	78	26719
2026-01-12 21:09:16.35	181.75	11.46	-53.9	-58.8	3.7	0.00e+00	0	50	104	0	78	26837
2026-01-12 21:09:17.49	181.82	11.33	-54.0	-58.8	3.7	0.00e+00	0	50	104	0	78	26785
2026-01-12 21:09:18.34	181.86	11.23	-53.6	-58.4	3.7	0.00e+00	0	50	104	0	78	25602
2026-01-12 21:09:19.48	181.92	11.11	-53.8	-58.5	3.7	0.00e+00	0	50	104	0	78	25739
2026-01-12 21:09:20.33	181.97	11.01	-53.9	-58.7	3.7	0.00e+00	0	50	104	0	78	26408
2026-01-12 21:09:21.54	182.04	10.88	-53.4	-58.2	3.7	0.00e+00	0	50	104	0	78	25007
2026-01-12 21:09:22.39	182.08	10.79	-53.2	-58.0	3.7	0.00e+00	0	50	104	0	78	24416
2026-01-12 21:09:23.61	182.14	10.65	-52.8	-57.8	3.7	0.00e+00	0	50	104	
