passes_logs/2025/01/24/XPeterburg/XPeterburg__20250124_090709_FENGYUN_3F_rec.log

#Pass ID: 20250124_090709_FENGYUN 3F
#Satellite: FENGYUN 3F
#Configuration: FENGYUN 3F
#Start time: 2025-01-24 09:07:02

#Version: 1.5.20200625
#Station: XPeterburg
#Location: 30.318091 lon 59.932769 lat
#TLE: 1 57490U 23111A   25023.15922735  .00000230  00000+0  12906-3 0  9994
#TLE: 2 57490  98.7451  96.0025 0001451 131.5350 228.5950 14.19980740 76481

#Time	Az	El	Level	Level2	SNR	BER	Gain	Gain2
2025-01-24 09:07:02.73	31.70	67.45	-39.5	-41.7	3.3	8391895	97	6328
2025-01-24 09:07:02.93	31.76	67.53	-38.7	-61.1	2.3	6217163	46	65534
2025-01-24 09:07:03.13	31.82	67.62	-39.0	-54.2	3.5	8198787	72	28267
2025-01-24 09:07:03.34	31.89	67.71	-39.5	-42.4	3.3	8425495	96	6814
2025-01-24 09:07:03.54	31.95	67.80	-39.5	-42.3	3.3	8425495	96	6745
2025-01-24 09:07:03.74	32.01	67.89	-39.4	-43.5	3.6	8384731	96	7839
2025-01-24 09:07:03.94	32.07	67.98	-39.4	-43.4	3.6	8359931	96	7804
2025-01-24 09:07:04.14	32.13	68.07	-39.4	-42.3	3.4	8435371	96	6862
2025-01-24 09:07:04.34	32.20	68.16	-39.4	-42.0	3.3	8400993	96	6612
2025-01-24 09:07:04.54	32.26	68.25	-39.4	-43.5	3.6	8375953	96	7829
2025-01-24 09:07:04.74	32.33	68.33	-39.4	-43.5	3.6	8443199	96	7816
2025-01-24 09:07:04.94	32.39	68.42	-39.4	-42.4	3.4	8434112	96	6946
2025-01-24 09:07:05.14	32.46	68.51	-39.5	-42.2	3.3	8434112	96	6701
2025-01-24 09:07:05.35	32.53	68.60	-39.5	-42.1	3.3	8390178	96	6672
2025-01-24 09:07:05.55	32.59	68.69	-39.4	-43.5	3.6	8396289	96	7837
2025-01-24 09:07:05.75	32.66	68.78	-39.5	-42.7	3.4	8446689	96	7124
2025-01-24 09:07:05.95	32.73	68.87	-39.5	-42.1	3.3	8414108	96	6643
2025-01-24 09:07:06.15	32.80	68.96	-39.4	-42.0	3.3	8401062	96	6596
2025-01-24 09:07:06.35	32.87	69.05	-39.4	-43.4	3.6	8405834	96	7765
2025-01-24 09:07:06.55	32.94	69.14	-39.4	-42.9	3.5	8454059	96	7330
2025-01-24 09:07:06.75	33.01	69.23	-39.4	-42.0	3.3	8454059	96	6645
2025-01-24 09:07:06.95	33.08	69.32	-39.4	-42.0	3.3	8410182	96	6609
2025-01-24 09:07:07.15	33.15	69.41	-39.4	-43.4	3.6	8391700	96	7728
2025-01-24 09:07:07.36	33.23	69.50	-39.4	-43.1	3.6	8418617	96	7517
2025-01-24 09:07:07.56	33.30	69.59	-39.4	-42.1	3.4	8439662	96	6709
2025-01-24 09:07:07.76	33.37	69.68	-39.4	-42.0	3.3	8408546	96	6645
2025-01-24 09:07:07.96	33.45	69.77	-39.4	-43.5	3.6	8393039	96	7868
2025-01-24 09:07:08.16	33.52	69.86	-39.4	-43.5	3.6	8453544	96	7894
2025-01-24 09:07:08.36	33.60	69.95	-39.4	-42.5	3.4	8437431	96	7032
2025-01-24 09:07:08.56	33.67	70.04	-39.2	-41.4	3.3	8437431	96	6316
2025-01-24 09:07:08.76	33.75	70.13	-39.0	-40.6	3.3	8388771	96	5885
2025-01-24 09:07:08.96	33.83	70.22	-38.8	-41.2	3.6	8403533	96	6533
2025-01-24 09:07:09.16	33.91	70.31	-38.7	-40.5	3.6	8436859	95	6096
2025-01-24 09:07:09.36	33.99	70.40	-38.4	-39.2	3.6	8413764	95	5358
2025-01-24 09:07:09.57	34.07	70.49	-38.3	-38.8	3.7	8374076	95	5177
2025-01-24 09:07:09.77	34.15	70.58	-38.4	-40.4	3.7	8381469	95	6216
2025-01-24 09:07:09.97	34.24	70.67	-38.5	-40.1	3.7	8426490	95	5939
2025-01-24 09:07:10.17	34.32	70.76	-38.5	-39.6	3.5	8426490	95	5537
2025-01-24 09:07:10.37	34.40	70.85	-38.5	-39.4	3.5	8374477	95	5460
2025-01-24 09:07:10.57	34.49	70.94	-38.4	-40.5	3.6	8386665	95	6246
2025-01-24 09:07:10.77	34.57	71.03	-38.0	-39.7	3.9	8413146	94	5986
2025-01-24 09:07:10.97	34.66	71.12	-37.9	-38.4	3.8	8402492	94	5217
2025-01-24 09:07:11.17	34.75	71.21	-37.7	-38.2	3.9	8341495	93	5196
2025-01-24 09:07:11.38	34.84	71.31	-37.6	-37.9	4.0	8302986	93	5081
2025-01-24 09:07:11.58	34.93	71.40	-37.6	-37.8	4.0	8260631	93	5046
2025-01-24 09:07:11.78	35.02	71.49	-37.7	-38.0	3.9	8247058	93	5122
2025-01-24 09:07:11.98	35.11	71.58	-37.7	-38.2	3.9	8274627	93	5212
2025-01-24 09:07:12.18	35.20	71.67	-37.8	-39.8	3.8	8274627	93	6186
2025-01-24 09:07:12.38	35.29	71.76	-37.8	-38.9	4.0	8384250	93	5625
2025-01-24 09:07:12.58	35.39	71.85	-37.9	-38.5	3.8	8356842	93	5327
2025-01-24 09:07:12.78	35.48	71.94	-37.6	-37.8	4.0	8330085	93	5028
2025-01-24 09:07:12.98	35.58	72.03	-37.4	-37.2	4.1	8287857	93	4825
2025-01-24 09:07:13.18	35.67	72.12	-37.3	-37.0	4.3	8164913	93	4747
2025-01-24 09:07:13.38	35.77	72.21	-37.4	-37.1	4.2	8117912	93	4787
2025-01-24 09:07:13.59	35.87	72.31	-37.3	-36.9	4.3	8140399	93	4706
2025-01-24 09:07:13.79	35.97	72.40	-37.3	-37.5	4.3	8084598	92	5004
2025-01-24 09:07:13.99	36.08	72.49	-37.5	-37.8	4.1	8084598	92	5129
2025-01-24 09:07:14.19	36.18	72.58	-37.5	-38.1	4.0	8168357	92	5229
2025-01-24 09:07:14.39	36.28	72.67	-37.5	-38.1	4.0	8242229	92	5229
2025-01-24 09:07:14.59	36.38	72.76	-37.5	-38.0	4.0	8253982	92	5189
2025-01-24 09:07:14.79	36.49	72.85	-37.3	-37.4	4.2	8242778	92	4966
2025-01-24 09:07:14.99	36.60	72.95	-37.1	-36.7	4.4	8148136	92	4733
2025-01-24 09:07:15.20	36.71	73.04	-37.1	-36.7	4.4	8021507	92	4717
2025-01-24 09:07:15.40	36.82	73.13	-37.1	-36.6	4.4	8020980	92	4692
2025-01-24 09:07:15.60	36.93	73.22	-37.2	-37.0	4.3	8020980	92	4806
2025-01-24 09:07:15.80	37.04	73.31	-37.3	-37.3	4.1	8004981	92	4922
2025-01-24 09:07:16.00	37.15	73.40	-37.5	-37.7	4.0	8139781	92	5073
2025-01-24 09:07:16.20	37.27	73.50	-37.7	-38.2	3.9	8220062	92	5253
2025-01-24 09:07:16.40	37.38	73.59	-37.7	-38.2	3.9	8281219	92	5247
2025-01-24 09:07:16.60	37.50	73.68	-37.5	-37.9	4.0	8263755	92	5153
2025-01-24 09:07:16.80	37.62	73.77	-37.4	-37.7	4.1	8241622	92	5056
2025-01-24 09:07:17.01	37.74	73.86	-37.3	-37.3	4.2	8179836	92	4930
2025-01-24 09:07:17.21	37.87	73.96	-37.2	-37.1	4.3	8115863	92	4857
2025-01-24 09:07:17.41	37.99	74.05	-37.1	-36.7	4.4	8115863	92	4734
2025-01-24 09:07:17.61	38.11	74.14	-37.1	-36.9	4.4	8013187	92	4787
2025-01-24 09:07:17.81	38.24	74.23	-37.1	-36.7	4.4	7993503	92	4732
2025-01-24 09:07:18.01	38.36	74.32	-37.1	-36.8	4.4	7974620	92	4777
2025-01-24 09:07:18.21	38.49	74.41	-37.0	-36.6	4.5	7971107	92	4712
2025-01-24 09:07:18.41	38.62	74.50	-37.0	-36.6	4.5	7931568	92	4710
2025-01-24 09:07:18.62	38.76	74.60	-37.0	-36.6	4.5	7938034	92	4697
2025-01-24 09:07:18.82	38.89	74.69	-37.0	-36.6	4.5	7902076	92	4696
2025-01-24 09:07:19.02	39.03	74.78	-37.0	-36.7	4.5	7902076	92	4725
2025-01-24 09:07:19.22	39.17	74.87	-36.8	-36.1	4.7	7927791	92	4550
2025-01-24 09:07:19.42	39.30	74.96	-36.8	-36.6	4.8	7802787	91	4820
2025-01-24 09:07:19.62	39.44	75.05	-36.6	-36.2	5.0	7553615	91	4667
2025-01-24 09:07:19.82	39.59	75.14	-36.5	-36.0	5.2	7387069	91	4620
2025-01-24 09:07:20.02	39.73	75.23	-36.5	-36.1	5.2	7139991	91	4669
2025-01-24 09:07:20.22	39.88	75.32	-36.8	-36.8	4.8	7191822	91	4912
2025-01-24 09:07:20.43	40.03	75.42	-37.3	-37.9	4.5	7573665	91	5296
2025-01-24 09:07:20.63	40.18	75.51	-37.6	-38.1	4.1	7986831	92	5259
2025-01-24 09:07:20.83	40.33	75.60	-37.7	-38.6	4.0	8191818	92	5467
2025-01-24 09:07:21.03	40.48	75.69	-37.6	-38.4	4.1	8191818	92	5383
2025-01-24 09:07:21.23	40.64	75.78	-37.4	-37.8	4.3	8220073	92	5151
2025-01-24 09:07:21.43	40.80	75.87	-37.2	-37.2	4.6	8126632	92	4935
2025-01-24 09:07:21.63	40.96	75.96	-37.0	-36.7	4.8	7874828	92	4764
2025-01-24 09:07:21.83	41.12	76.05	-37.0	-36.7	4.8	7677394	92	4756
2025-01-24 09:07:22.03	41.28	76.14	-37.1	-37.0	4.7	7613960	92	4854
2025-01-24 09:07:22.23	41.45	76.23	-37.3	-37.4	4.5	7737945	92	4997
2025-01-24 09:07:22.44	41.62	76.33	-37.5	-38.0	4.3	7961769	92	5212
2025-01-24 09:07:22.64	41.80	76.42	-37.6	-38.4	4.2	8135776	92	5357
2025-01-24 09:07:22.84	41.97	76.51	-37.7	-38.5	4.1	8135776	92	5406
2025-01-24 09:07:23.04	42.14	76.60	-37.5	-37.9	4.3	8169216	92	5190
2025-01-24 09:07:23.24	42.32	76.69	-37.4	-37.9	4.4	8089313	92	5166
2025-01-24 09:07:23.44	42.50	76.78	-37.3	-37.6	4.5	8020008	92	5063
2025-01-24 09:07:23.64	42.68	76.87	-37.4	-37.8	4.4	7928707	92	5143
2025-01-24 09:07:23.84	42.87	76.96	-37.6	-38.4	4.2	8033775	92	5400
2025-01-24 09:07:24.04	43.06	77.05	-37.9	-39.3	3.9	8191761	92	5755
2025-01-24 09:07:24.25	43.26	77.14	-38.2	-41.1	3.7	8322246	93	6850
2025-01-24 09:07:24.45	43.45	77.23	-38.3	-41.4	3.7	8322246	93	6970
2025-01-24 09:07:24.65	43.65	77.32	-38.3	-40.1	3.7	8420677	93	6087
2025-01-24 09:07:24.85	43.85	77.41	-38.2	-39.6	3.7	8389263	93	5750
2025-01-24 09:07:25.05	44.05	77.50	-38.1	-39.2	3.8	8348625	93	5555
2025-01-24 09:07:25.25	44.26	77.59	-38.0	-38.9	3.8	8312576	93	5435
2025-01-24 09:07:25.45	44.46	77.68	-38.0	-38.8	3.9	8313205	93	5393
2025-01-24 09:07:25.65	44.68	77.77	-37.9	-38.5	3.9	8313262	93	5289
2025-01-24 09:07:25.86	44.90	77.86	-37.9	-38.4	4.0	8276172	93	5213
2025-01-24 09:07:26.06	45.12	77.95	-37.9	-38.5	3.9	8285579	93	5274
2025-01-24 09:07:26.26	45.34	78.04	-37.8	-38.3	4.0	8285579	93	5171
2025-01-24 09:07:26.46	45.56	78.13	-37.9	-38.2	4.0	8260242	93	5140
2025-01-24 09:07:26.66	45.79	78.22	-38.0	-38.5	3.9	8247608	93	5267
2025-01-24 09:07:26.86	46.02	78.31	-37.9	-38.5	3.9	8285556	93	5238
2025-01-24 09:07:27.06	46.26	78.39	-38.0	-38.7	3.9	8275760	93	5323
2025-01-24 09:07:27.26	46.50	78.48	-38.1	-40.3	3.7	8310058	93	6306
2025-01-24 09:07:27.47	46.75	78.57	-38.2	-40.6	3.7	8387615	93	6471
2025-01-24 09:07:27.67	47.00	78.66	-38.2	-39.4	3.8	8377841	93	5684
2025-01-24 09:07:27.87	47.25	78.75	-38.1	-38.9	3.8	8377841	93	5364
2025-01-24 09:07:28.07	47.50	78.84	-38.1	-38.9	3.8	8327568	93	5396
2025-01-24 09:07:28.27	47.76	78.92	-38.2	-40.5	3.7	8330200	93	6420
2025-01-24 09:07:28.47	48.03	79.01	-38.4	-40.7	3.9	8391300	93	6435
2025-01-24 09:07:28.67	48.29	79.10	-38.5	-40.0	3.7	8400947	93	5901
2025-01-24 09:07:28.87	48.56	79.18	-38.5	-39.4	3.6	8381790	94	5501
2025-01-24 09:07:29.08	48.85	79.28	-38.6	-41.1	3.6	8355434	94	6598
2025-01-24 09:07:29.28	49.14	79.36	-38.6	-40.9	3.7	8418720	94	6401
2025-01-24 09:07:29.48	49.42	79.45	-38.5	-39.6	3.6	8404094	94	5611
2025-01-24 09:07:29.68	49.71	79.53	-38.5	-39.6	3.5	8373722	94	5575
2025-01-24 09:07:29.88	50.01	79.62	-38.6	-41.1	3.6	8373722	94	6604
2025-01-24 09:07:30.08	50.31	79.70	-38.5	-41.0	3.6	8380542	94	6562
2025-01-24 09:07:30.28	50.61	79.79	-38.6	-40.3	3.6	8436904	94	5958
2025-01-24 09:07:30.48	50.92	79.87	-38.8	-40.4	3.4	8386230	94	5923
2025-01-24 09:07:30.68	51.24	79.96	-38.8	-40.4	3.4	8381561	94	5938
2025-01-24 09:07:30.88	51.56	80.04	-38.8	-41.9	3.6	8401599	94	7037
2025-01-24 09:07:31.08	51.88	80.13	-38.7	-40.6	3.6	8426490	94	6176
2025-01-24 09:07:31.29	52.23	80.22	-38.6	-39.9	3.5	8393932	94	5708
2025-01-24 09:07:31.49	52.57	80.30	-38.5	-39.4	3.6	8381126	94	5506
2025-01-24 09:07:31.69	52.92	80.38	-38.4	-40.8	3.7	8381126	94	6463
2025-01-24 09:07:31.89	53.27	80.46	-38.4	-40.2	3.8	8397377	94	6056
2025-01-24 09:07:32.09	53.62	80.55	-38.7	-40.3	3.5	8398178	94	5911
2025-01-24 09:07:32.29	53.99	80.63	-38.9	-41.0	3.4	8391323	94	6259
2025-01-24 09:07:32.49	54.36	80.71	-39.4	-43.1	3.6	8378871	95	7554
2025-01-24 09:07:32.69	54.73	80.79	-39.5	-42.8	3.6	8433929	96	7264
2025-01-24 09:07:32.90	55.13	80.88	-39.5	-41.9	3.4	8418674	96	6517
2025-01-24 09:07:33.10	55.52	80.96	-39.4	-41.2	3.3	8396175	96	6081
2025-01-24 09:07:33.30	55.92	81.04	-39.2	-42.1	3.6	8396175	96	6841
2025-01-24 09:07:33.50	56.33	81.12	-39.0	-41.4	3.6	8402046	96	6467
2025-01-24 09:07:33.70	56.74	81.20	-38.9	-40.1	3.4	8379169	96	5630
2025-01-24 09:07:33.90	57.16	81.28	-39.0	-39.8	3.4	8415504	96	5422
2025-01-24 09:07:34.10	57.58	81.36	-39.1	-40.2	3.3	8381778	96	5587
2025-01-24 09:07:34.30	58.02	81.43	-39.1	-41.7	3.6	8369132	96	6618
2025-01-24 09:07:34.50	58.46	81.51	-39.1	-40.9	3.5	8434707	96	6051
2025-01-24 09:07:34.70	58.91	81.59	-38.9	-39.8	3.3	8415813	96	5460
2025-01-24 09:07:34.91	59.40	81.67	-38.7	-39.6	3.4	8415813	95	5430
2025-01-24 09:07:35.11	59.87	81.75	-38.4	-40.1	3.7	8384880	95	5950
2025-01-24 09:07:35.31	60.34	81.82	-37.9	-38.7	4.0	8412071	94	5386
2025-01-24 09:07:35.51	60.83	81.90	-37.9	-38.0	3.9	8361190	94	4982
2025-01-24 09:07:35.71	61.33	81.97	-37.9	-38.0	3.8	8293018	94	4929
2025-01-24 09:07:35.91	61.83	82.05	-38.2	-38.7	3.7	8310562	94	5196
2025-01-24 09:07:36.11	62.35	82.12	-38.2	-40.1	3.7	8368194	94	6096
2025-01-24 09:07:36.31	62.87	82.19	-38.1	-39.3	3.9	8397228	94	5642
2025-01-24 09:07:36.51	63.40	82.26	-37.8	-37.9	4.0	8334308	94	4934
2025-01-24 09:07:36.72	63.98	82.34	-37.7	-37.7	4.1	8334308	93	4947
2025-01-24 09:07:36.92	64.53	82.41	-37.7	-37.8	4.2	8215644	93	4991
2025-01-24 09:07:37.12	65.10	82.48	-37.8	-38.2	4.0	8180557	93	5128
2025-01-24 09:07:37.32	65.67	82.55	-37.9	-38.5	4.0	8233051	93	5246
2025-01-24 09:07:37.52	66.26	82.62	-38.0	-38.5	3.9	8273563	93	5265
2025-01-24 09:07:37.72	66.86	82.69	-38.2	-39.2	3.8	8267360	93	5521
2025-01-24 09:07:37.92	67.47	82.75	-38.2	-39.4	3.8	8316204	93	5630
2025-01-24 09:07:38.12	68.09	82.82	-38.3	-39.4	3.8	8332431	93	5631
2025-01-24 09:07:38.32	68.72	82.88	-38.5	-41.4	3.7	8344882	93	6921
2025-01-24 09:07:38.53	69.40	82.95	-38.6	-41.1	3.7	8434226	94	6552
2025-01-24 09:07:38.73	70.06	83.02	-38.7	-40.4	3.6	8434226	94	6016
2025-01-24 09:07:38.93	70.73	83.08	-38.6	-40.1	3.5	8409713	94	5847
2025-01-24 09:07:39.13	71.41	83.14	-38.5	-41.0	3.7	8379890	94	6578
2025-01-24 09:07:39.33	72.10	83.20	-38.6	-41.2	3.6	8401027	94	6672
2025-01-24 09:07:39.53	72.81	83.26	-38.3	-39.6	3.8	8421260	94	5655
2025-01-24 09:07:39.73	73.53	83.32	-38.4	-39.4	3.7	8370426	94	5539
2025-01-24 09:07:39.93	74.26	83.38	-38.6	-39.9	3.6	8367393	94	5719
2025-01-24 09:07:40.14	75.04	83.44	-38.7	-41.8	3.6	8408409	94	7005
2025-01-24 09:07:40.34	75.80	83.49	-38.9	-41.3	3.5	8433185	94	6542
2025-01-24 09:07:40.54	76.57	83.55	-38.9	-40.9	3.4	8433185	94	6179
2025-01-24 09:07:40.74	77.35	83.60	-38.7	-40.3	3.5	8388130	94	5908
2025-01-24 09:07:40.94	78.15	83.65	-38.4	-40.8	3.7	8373641	94	6505
2025-01-24 09:07:41.14	78.96	83.70	-38.2	-39.6	4.0	8420116	94	5775
2025-01-24 09:07:41.34	79.78	83.75	-38.2	-38.8	3.9	8352264	94	5312
2025-01-24 09:07:41.54	80.62	83.80	-38.3	-39.3	3.7	8327270	94	5497
2025-01-24 09:07:41.74	81.47	83.85	-38.5	-41.1	3.6	8364852	94	6660
2025-01-24 09:07:41.94	82.33	83.89	-38.6	-41.3	3.7	8422061	94	6735
2025-01-24 09:07:42.14	83.20	83.94	-38.7	-40.6	3.5	8422061	94	6144
2025-01-24 09:07:42.35	84.14	83.98	-38.4	-39.4	3.7	8394573	94	5556
2025-01-24 09:07:42.55	85.04	84.02	-38.0	-38.2	4.0	8368789	94	5052
2025-01-24 09:07:42.75	85.95	84.06	-37.8	-37.8	4.1	8291175	94	4901
2025-01-24 09:07:42.95	86.87	84.10	-37.7	-37.9	4.3	8203227	93	5063
2025-01-24 09:07:43.15	87.81	84.14	-37.7	-38.0	4.3	8091934	93	5100
2025-01-24 09:07:43.35	88.76	84.17	-37.7	-37.9	4.3	8134780	93	5050
2025-01-24 09:07:43.55	89.72	84.21	-37.9	-38.7	4.0	8105072	93	5345
2025-01-24 09:07:43.75	90.69	84.24	-38.2	-39.2	3.9	8105072	93	5545
2025-01-24 09:07:43.95	91.67	84.27	-38.2	-39.4	3.8	8263618	93	5652
2025-01-24 09:07:44.16	92.72	84.30	-38.1	-39.2	3.9	8313606	93	5542
2025-01-24 09:07:44.36	93.72	84.32	-38.0	-38.8	4.0	8300479	93	5392
2025-01-24 09:07:44.56	94.73	84.35	-37.8	-38.1	4.3	8231117	93	5099
2025-01-24 09:07:44.76	95.75	84.37	-37.8	-38.2	4.2	8101123	93	5164
2025-01-24 09:07:44.96	96.78	84.39	-38.0	-38.6	4.1	8163883	93	5293
2025-01-24 09:07:45.16	97.81	84.41	-38.2	-39.3	3.9	8230899	93	5561
2025-01-24 09:07:45.36	98.86	84.43	-38.3	-39.5	3.8	8301784	93	5655
2025-01-24 09:07:45.56	99.90	84.45	-38.4	-41.1	3.7	8301784	93	6778
2025-01-24 09:07:45.76	100.96	84.46	-38.4	-40.7	3.9	8381114	93	6413
2025-01-24 09:07:45.96	102.02	84.47	-38.4	-39.9	3.8	8390247	93	5859
2025-01-24 09:07:46.17	103.14	84.49	-38.2	-39.1	3.9	8339206	93	5491
2025-01-24 09:07:46.37	104.21	84.49	-38.1	-39.1	4.0	8288932	93	5501
2025-01-24 09:07:46.57	105.28	84.50	-38.3	-39.6	3.8	8277534	93	5677
2025-01-24 09:07:46.77	106.35	84.50	-38.4	-39.8	3.8	8320941	93	5776
2025-01-24 09:07:46.97	107.42	84.51	-38.4	-41.0	3.7	8363948	94	6569
2025-01-24 09:07:47.17	108.50	84.51	-38.4	-40.6	3.9	8363948	94	6341
2025-01-24 09:07:47.37	109.58	84.51	-38.7	-40.5	3.6	8401977	94	6067
2025-01-24 09:07:47.57	110.65	84.50	-38.7	-40.4	3.5	8379158	94	5953
2025-01-24 09:07:47.78	111.78	84.50	-38.4	-40.8	3.7	8376091	94	6451
2025-01-24 09:07:47.98	112.85	84.49	-38.2	-39.7	4.1	8406909	94	5890
2025-01-24 09:07:48.18	113.91	84.48	-37.9	-38.3	4.1	8389068	94	5103
2025-01-24 09:07:48.38	114.98	84.47	-37.9	-38.0	4.0	8276332	94	4980
2025-01-24 09:07:48.58	116.04	84.46	-38.1	-38.3	4.0	8251155	94	5064
2025-01-24 09:07:48.78	117.09	84.44	-38.1	-38.3	3.9	8267623	94	5089
2025-01-24 09:07:48.98	118.14	84.43	-38.0	-38.3	4.0	8274593	94	5057
2025-01-24 09:07:49.18	119.18	84.41	-38.0	-38.3	4.0	8274593	94	5072
2025-01-24 09:07:49.38	120.21	84.39	-38.0	-38.2	4.0	8251773	94	5029
2025-01-24 09:07:49.58	121.24	84.37	-37.9	-37.9	4.1	8261432	94	4922
2025-01-24 09:07:49.79	122.31	84.34	-37.8	-37.8	4.1	8221744	94	4899
2025-01-24 09:07:49.99	123.32	84.32	-37.8	-37.6	4.1	8214214	94	4841
2025-01-24 09:07:50.19	124.32	84.29	-37.9	-38.0	4.1	8182548	94	4990
2025-01-24 09:07:50.39	125.31	84.26	-37.8	-37.8	4.1	8221813	94	4914
2025-01-24 09:07:50.59	126.28	84.23	-37.7	-37.9	4.3	8172901	93	5039
2025-01-24 09:07:50.79	127.25	84.20	-37.7	-37.9	4.3	8081520	93	5043
2025-01-24 09:07:50.99	128.21	84.16	-37.5	-37.3	4.5	8081520	93	4831
2025-01-24 09:07:51.19	129.16	84.13	-37.7	-37.7	4.4	8009845	93	4964
2025-01-24 09:07:51.39	130.09	84.09	-37.5	-37.3	4.5	7999374	93	4806
2025-01-24 09:07:51.59	131.01	84.05	-37.6	-37.5	4.4	7959720	93	4902
2025-01-24 09:07:51.80	131.97	84.01	-37.8	-38.0	4.2	8060943	93	5080
2025-01-24 09:07:52.00	132.87	83.97	-37.7	-37.8	4.3	8092929	93	4993
2025-01-24 09:07:52.20	133.75	83.93	-37.6	-37.6	4.4	8055633	93	4904
2025-01-24 09:07:52.40	134.62	83.88	-37.5	-37.3	4.5	8004089	93	4809
2025-01-24 09:07:52.60	135.48	83.84	-37.7	-37.7	4.4	8004089	93	4938
2025-01-24 09:07:52.80	136.33	83.79	-37.9	-38.3	4.2	7935310	93	5162
2025-01-24 09:07:53.00	137.16	83.74	-38.3	-39.5	3.8	8105804	93	5671
2025-01-24 09:07:53.20	137.98	83.69	-38.5	-41.0	3.7	8272121	94	6567
2025-01-24 09:07:53.40	138.79	83.64	-38.4	-40.5	3.9	8403579	94	6303
2025-01-24 09:07:53.60	139.58	83.59	-38.1	-38.9	3.9	8382270	94	5372
2025-01-24 09:07:53.80	140.36	83.53	-37.9	-38.0	4.0	8314178	94	4991
2025-01-24 09:07:54.01	141.17	83.48	-37.9	-37.9	4.1	8237903	94	4939
2025-01-24 09:07:54.21	141.92	83.42	-37.9	-38.0	4.1	8233783	94	4977
2025-01-24 09:07:54.41	142.66	83.36	-38.0	-38.1	4.0	8233783	94	5010
2025-01-24 09:07:54.61	143.39	83.30	-38.3	-40.7	3.7	8237972	94	6458
2025-01-24 09:07:54.81	144.11	83.25	-38.6	-41.3	3.6	8354393	94	6781
2025-01-24 09:07:55.01	144.81	83.18	-38.6	-40.6	3.6	8421810	94	6176
2025-01-24 09:07:55.21	145.50	83.12	-38.5	-39.6	3.6	8389709	94	5630
2025-01-24 09:07:55.41	146.18	83.06	-38.5	-39.6	3.6	8365756	94	5617
2025-01-24 09:07:55.61	146.85	83.00	-38.4	-40.9	3.7	8396083	94	6532
2025-01-24 09:07:55.82	147.53	82.93	-38.1	-39.3	3.9	8387855	94	5608
2025-01-24 09:07:56.02	148.18	82.87	-38.2	-38.9	3.7	8387855	94	5334
2025-01-24 09:07:56.22	148.81	82.80	-38.2	-38.9	3.7	8333301	94	5348
2025-01-24 09:07:56.42	149.42	82.73	-38.2	-40.4	3.7	8343933	94	6296
2025-01-24 09:07:56.62	150.03	82.67	-38.1	-39.6	4.0	8404392	94	5891
2025-01-24 09:07:56.82	150.63	82.60	-37.8	-37.9	4.1	8354827	94	5003
2025-01-24 09:07:57.02	151.21	82.53	-37.7	-37.8	4.2	8226276	93	5004
2025-01-24 09:07:57.22	151.79	82.46	-37.5	-37.2	4.4	8085102	93	4805
2025-01-24 09:07:57.42	152.35	82.39	-37.5	-37.3	4.4	7971988	93	4810
2025-01-24 09:07:57.63	152.93	82.32	-37.6	-37.7	4.3	8003826	93	4968
2025-01-24 09:07:57.83	153.47	82.24	-37.7	-37.9	4.2	8136978	93	5040
2025-01-24 09:07:58.03	154.00	82.17	-37.6	-37.6	4.3	8136978	93	4934
2025-01-24 09:07:58.23	154.53	82.10	-37.5	-37.4	4.4	8114868	93	4849
2025-01-24 09:07:58.43	155.04	82.03	-37.6	-37.6	4.3	8014904	93	4907
2025-01-24 09:07:58.63	155.54	81.95	-37.4	-37.1	4.5	8054489	93	4741
2025-01-24 09:07:58.83	156.03	81.88	-37.5	-37.5	4.4	7957866	93	4877
2025-01-24 09:07:59.03	156.52	81.80	-37.5	-37.2	4.4	8023818	93	4783
2025-01-24 09:07:59.24	157.02	81.72	-37.7	-38.0	4.2	8009147	93	5057
2025-01-24 09:07:59.44	157.48	81.65	-37.4	-37.2	4.4	8129161	93	4798
2025-01-24 09:07:59.64	157.94	81.57	-37.3	-37.3	4.7	7865764	92	4926
2025-01-24 09:07:59.84	158.39	81.49	-37.1	-36.8	4.8	7865764	92	4756
2025-01-24 09:08:00.04	158.83	81.41	-36.8	-36.2	5.1	7676971	92	4548
2025-01-24 09:08:00.24	159.27	81.33	-36.8	-36.5	5.1	7382057	91	4764
2025-01-24 09:08:00.44	159.69	81.26	-37.0	-37.0	4.8	7302600	91	4938
2025-01-24 09:08:00.64	160.11	81.18	-37.2	-37.6	4.6	7524776	91	5147
2025-01-24 09:08:00.84	160.52	81.10	-37.5	-37.8	4.3	7834693	92	5092
2025-01-24 09:08:01.05	160.94	81.01	-37.6	-38.2	4.2	8102588	92	5248
2025-01-24 09:08:01.25	161.34	80.93	-37.7	-38.3	4.2	8175338	92	5284
2025-01-24 09:08:01.45	161.73	80.85	-37.6	-37.9	4.3	8175338	92	5123
2025-01-24 09:08:01.65	162.11	80.77	-37.4	-37.4	4.5	8118656	92	4920
2025-01-24 09:08:01.85	162.48	80.69	-37.2	-37.0	4.7	7975490	92	4786
2025-01-24 09:08:02.05	162.85	80.61	-37.4	-37.6	4.5	7740142	92	4999
2025-01-24 09:08:02.25	163.21	80.52	-37.6	-38.0	4.3	7900440	92	5140
2025-01-24 09:08:02.45	163.57	80.44	-37.6	-38.1	4.2	8063701	92	5199
2025-01-24 09:08:02.65	163.92	80.36	-37.8	-38.7	4.1	8129276	92	5426
2025-01-24 09:08:02.85	164.26	80.27	-38.0	-38.6	4.0	8251773	93	5248
2025-01-24 09:08:03.06	164.61	80.19	-38.1	-39.0	3.9	8284412	93	5443
2025-01-24 09:08:03.26	164.94	80.10	-38.1	-38.8	3.9	8284412	93	5369
2025-01-24 09:08:03.46	165.27	80.02	-38.0	-38.7	3.9	8318138	93	5302
2025-01-24 09:08:03.66	165.59	79.93	-38.0	-38.6	3.9	8274272	93	5266
2025-01-24 09:08:03.86	165.90	79.85	-38.0	-38.4	4.0	8280303	93	5182
2025-01-24 09:08:04.06	166.21	79.76	-38.0	-38.7	3.9	8261615	93	5317
2025-01-24 09:08:04.26	166.51	79.68	-38.2	-39.2	3.8	8291587	93	5492
2025-01-24 09:08:04.47	166.83	79.59	-38.4	-41.1	3.7	8344184	93	6717
2025-01-24 09:08:04.67	167.12	79.50	-38.5	-40.9	3.8	8418296	94	6461
2025-01-24 09:08:04.87	167.41	79.42	-38.6	-40.1	3.6	8418296	94	5877
2025-01-24 09:08:05.07	167.69	79.33	-38.5	-39.7	3.5	8386367	94	5654
2025-01-24 09:08:05.27	167.97	79.25	-38.2	-38.8	3.7	8361568	94	5287
2025-01-24 09:08:05.47	168.25	79.16	-37.9	-37.9	3.9	8355205	94	4921
2025-01-24 09:08:05.67	168.52	79.07	-37.7	-37.8	4.1	8300457	93	4971
2025-01-24 09:08:05.87	168.79	78.99	-37.8	-38.0	4.1	8159717	93	5053
2025-01-24 09:08:06.07	169.05	78.90	-37.9	-38.4	4.0	8221126	93	5187
2025-01-24 09:08:06.27	169.31	78.81	-38.1	-38.9	3.8	8279216	93	5397
2025-01-24 09:08:06.48	169.57	78.72	-38.3	-41.0	3.7	8370506	93	6673
2025-01-24 09:08:06.68	169.82	78.63	-38.5	-40.8	3.7	8401817	93	6452
2025-01-24 09:08:06.88	170.07	78.54	-38.4	-39.8	3.7	8401817	93	5793
2025-01-24 09:08:07.08	170.31	78.46	-38.2	-39.3	3.7	8368114	93	5541
2025-01-24 09:08:07.28	170.55	78.37	-38.0	-38.5	3.9	8351772	93	5230
2025-01-24 09:08:07.48	170.78	78.28	-37.9	-38.4	3.9	8297241	93	5180
2025-01-24 09:08:07.68	171.01	78.19	-37.9	-38.1	4.0	8273609	93	5068
2025-01-24 09:08:07.88	171.24	78.10	-38.0	-38.5	3.9	8245113	93	5232
2025-01-24 09:08:08.08	171.46	78.01	-38.2	-39.1	3.8	8285728	93	5470
2025-01-24 09:08:08.28	171.68	77.92	-38.3	-40.7	3.7	8365173	93	6528
2025-01-24 09:08:08.48	171.90	77.84	-38.3	-40.3	3.8	8396186	93	6185
2025-01-24 09:08:08.69	172.12	77.74	-38.2	-39.3	3.7	8396186	93	5586
2025-01-24 09:08:08.89	172.34	77.65	-38.2	-39.1	3.7	8356349	93	5490
2025-01-24 09:08:09.09	172.54	77.56	-38.0	-38.5	3.9	8336254	93	5237
2025-01-24 09:08:09.29	172.75	77.47	-38.0	-38.7	3.9	8291736	93	5317
2025-01-24 09:08:09.49	172.95	77.38	-38.1	-40.2	3.7	8314933	93	6267
2025-01-24 09:08:09.69	173.15	77.29	-38.2	-40.0	3.9	8405296	93	6076
2025-01-24 09:08:09.89	173.34	77.21	-38.1	-38.9	3.9	8344882	93	5441
2025-01-24 09:08:10.09	173.54	77.12	-38.0	-38.7	3.9	8304817	93	5304
2025-01-24 09:08:10.29	173.73	77.03	-38.0	-38.7	3.9	8304817	93	5334
2025-01-24 09:08:10.49	173.91	76.94	-37.9	-38.6	3.9	8292354	93	5286
2025-01-24 09:08:10.70	174.11	76.84	-37.9	-38.4	3.9	8284538	93	5253
2025-01-24 09:08:10.90	174.29	76.75	-37.9	-38.3	4.0	8280887	93	5177
2025-01-24 09:08:11.10	174.47	76.66	-37.7	-37.9	4.1	8266582	93	5043
2025-01-24 09:08:11.30	174.65	76.57	-37.6	-37.8	4.1	8204681	93	5018
2025-01-24 09:08:11.50	174.82	76.48	-37.3	-37.0	4.4	8120109	93	4757
2025-01-24 09:08:11.70	175.00	76.39	-37.3	-37.0	4.4	7993263	93	4741
2025-01-24 09:08:11.90	175.17	76.30	-37.1	-36.9	4.6	7993263	92	4824
2025-01-24 09:08:12.10	175.33	76.21	-37.1	-36.9	4.7	7873970	92	4820
2025-01-24 09:08:12.31	175.51	76.11	-37.2	-37.1	4.5	7754505	92	4905
2025-01-24 09:08:12.51	175.67	76.02	-37.2	-37.3	4.6	7816532	92	4958
2025-01-24 09:08:12.71	175.83	75.93	-37.3	-37.4	4.5	7821968	92	5010
2025-01-24 09:08:12.91	175.99	75.84	-37.2	-37.2	4.6	7911231	92	4925
2025-01-24 09:08:13.11	176.15	75.75	-37.1	-36.9	4.6	7855407	92	4831
2025-01-24 09:08:13.31	176.30	75.66	-36.8	-36.3	4.9	7714187	92	4651
2025-01-24 09:08:13.51	176.45	75.57	-36.6	-36.3	5.2	7358711	91	4717
2025-01-24 09:08:13.71	176.61	75.48	-36.6	-36.4	5.2	7358711	91	4776
2025-01-24 09:08:13.91	176.75	75.39	-36.7	-36.4	5.2	7017059	91	4793
2025-01-24 09:08:14.11	176.90	75.30	-37.0	-37.2	4.9	7019508	91	5045
2025-01-24 09:08:14.32	177.05	75.20	-37.0	-37.3	4.8	7452610	91	5073
2025-01-24 09:08:14.52	177.20	75.11	-37.0	-37.2	4.8	7610240	91	5048
2025-01-24 09:08:14.72	177.34	75.02	-36.9	-36.8	4.9	7580738	91	4913
2025-01-24 09:08:14.92	177.48	74.93	-36.8	-36.6	5.1	7434368	91	4843
2025-01-24 09:08:15.12	177.62	74.84	-36.6	-36.3	5.2	7198871	91	4736
2025-01-24 09:08:15.32	177.75	74.75	-36.3	-35.7	5.6	7198871	91	4550
2025-01-24 09:08:15.52	177.89	74.65	-36.5	-36.0	5.4	6224658	91	4646
2025-01-24 09:08:15.72	178.02	74.56	-36.4	-35.8	5.5	5277626	91	4617
2025-01-24 09:08:15.92	178.15	74.47	-36.5	-36.1	5.3	6087409	91	4680
2025-01-24 09:08:16.12	178.28	74.38	-36.6	-36.2	5.2	6716514	91	4731
2025-01-24 09:08:16.33	178.42	74.29	-36.6	-36.2	5.2	7015777	91	4702
2025-01-24 09:08:16.53	178.54	74.19	-36.5	-36.1	5.2	7156585	91	4658
2025-01-24 09:08:16.73	178.67	74.10	-36.6	-36.2	5.1	7198356	91	4700
2025-01-24 09:08:16.93	178.79	74.01	-36.6	-36.1	5.1	7181041	91	4666
2025-01-24 09:08:17.13	178.91	73.92	-36.6	-36.3	5.1	7254661	91	4721
2025-01-24 09:08:17.33	179.03	73.83	-36.7	-36.4	5.0	7254661	91	4775
2025-01-24 09:08:17.53	179.15	73.74	-36.7	-36.5	4.9	7297851	91	4798
2025-01-24 09:08:17.73	179.27	73.65	-36.8	-36.5	4.8	7481105	91	4789
2025-01-24 09:08:17.93	179.39	73.56	-36.7	-36.4	4.9	7557609	91	4741
2025-01-24 09:08:18.14	179.51	73.46	-36.6	-36.2	5.0	7561340	91	4667
2025-01-24 09:08:18.34	179.62	73.37	-36.6	-36.2	5.0	7434482	91	4675
2025-01-24 09:08:18.54	179.73	73.28	-36.6	-36.2	4.9	7404270	91	4673
2025-01-24 09:08:18.74	179.85	73.19	-36.6	-36.0	4.9	7441246	91	4621
2025-01-24 09:08:18.94	179.96	73.10	-36.7	-36.3	4.9	7466342	91	4698
2025-01-24 09:08:19.14	180.06	73.00	-36.7	-36.3	4.8	7466342	91	4707
2025-01-24 09:08:19.34	180.17	72.91	-36.7	-36.3	4.8	7589927	91	4720
2025-01-24 09:08:19.54	180.28	72.82	-36.6	-36.1	4.8	7592044	91	4639
2025-01-24 09:08:19.75	180.39	72.73	-36.6	-36.1	5.0	7624683	91	4613
2025-01-24 09:08:19.95	180.49	72.64	-36.6	-36.0	4.9	7429298	91	4617
2025-01-24 09:08:20.15	180.60	72.54	-36.6	-35.9	5.0	7438339	91	4563
2025-01-24 09:08:20.35	180.70	72.45	-36.5	-35.7	5.1	7297187	91	4515
2025-01-24 09:08:20.55	180.80	72.36	-36.4	-35.6	5.2	7229198	91	4489
2025-01-24 09:08:20.75	180.90	72.27	-36.4	-35.6	5.2	7229198	91	4485
2025-01-24 09:08:20.95	181.00	72.18	-36.4	-35.7	5.1	7140357	91	4530
2025-01-24 09:08:21.15	181.09	72.09	-36.5	-35.8	5.1	7187164	91	4537
2025-01-24 09:08:21.35	181.19	72.00	-36.6	-36.0	5.0	7269367	91	4615
2025-01-24 09:08:21.55	181.29	71.91	-36.7	-36.3	4.9	7392562	91	4716
2025-01-24 09:08:21.76	181.39	71.81	-36.5	-35.9	5.0	7484916	91	4610
2025-01-24 09:08:21.96	181.48	71.72	-36.5	-35.9	5.0	7357131	91	4600
2025-01-24 09:08:22.16	181.57	71.63	-36.4	-35.7	5.1	7305313	91	4553
2025-01-24 09:08:22.36	181.66	71.54	-36.4	-35.7	5.2	7222332	91	4539
2025-01-24 09:08:22.56	181.75	71.45	-36.4	-35.7	5.2	7222332	91	4558
2025-01-24 09:08:22.76	181.84	71.36	-36.4	-35.8	5.1	7171073	91	4581
2025-01-24 09:08:22.96	181.93	71.27	-36.6	-36.3	5.0	7190425	91	4734
2025-01-24 09:08:23.16	182.02	71.18	-36.8	-36.9	4.7	7395446	91	4929
2025-01-24 09:08:23.36	182.11	71.09	-37.0	-37.2	4.5	7719646	91	5026
2025-01-24 09:08:23.57	182.20	70.99	-37.2	-37.8	4.4	7913166	91	5244
2025-01-24 09:08:23.77	182.28	70.90	-37.3	-37.9	4.3	8090812	91	5292
2025-01-24 09:08:23.97	182.37	70.81	-37.3	-38.1	4.2	8129631	91	5366
2025-01-24 09:08:24.17	182.45	70.72	-37.2	-37.8	4.3	8129631	91	5264
2025-01-24 09:08:24.37	182.53	70.63	-38.2	-39.5	3.7	8095287	93	5716
2025-01-24 09:08:24.57	182.61	70.54	-39.4	-42.9	3.6	8150161	96	7349
2025-01-24 09:08:24.77	182.70	70.45	-39.7	-42.9	3.4	8451473	96	7110
2025-01-24 09:08:24.97	182.78	70.36	-39.7	-42.3	3.3	8427646	96	6624

#Closed at: 2025-01-24 09:08:25