passes_logs/2025/01/17/planumMaritime01/planumMaritime01__20250117_065818_NOAA_19_rec.log

#Pass ID: 20250117_065818_NOAA 19
#Satellite: NOAA 19
#Configuration: NOAA 19
#Start time: 2025-01-17 06:58:23.485772

#LorettStation: 1.0.0 05.05.2024
#Station: planumMaritime01
#Location: 37.49445 lon 55.92918 lat
#TLE: 1 33591U 09005A   25016.13687281  .00000278  00000+0  17226-3 0  9992
#TLE: 2 33591  99.0193  79.9081 0014432  54.5182 305.7334 14.13260212821702

#Time	Az	El	Level	SNR
2025-01-17 06:58:25.638903	28.4	10.2	-80.0	0.0
2025-01-17 06:58:26.758545	28.5	10.3	-80.0	0.0
2025-01-17 06:58:27.879410	28.6	10.3	-80.1	0.0
2025-01-17 06:58:29.000899	28.7	10.4	-80.1	0.0
2025-01-17 06:58:30.120994	28.8	10.5	-80.1	0.0
2025-01-17 06:58:31.243840	28.9	10.6	-79.9	0.0
2025-01-17 06:58:32.363681	28.9	10.7	-80.1	0.0
2025-01-17 06:58:33.486683	29.0	10.8	-80.5	0.0
2025-01-17 06:58:34.607261	29.1	10.9	-80.6	0.0
2025-01-17 06:58:35.728613	29.2	11.0	-81.0	0.0
2025-01-17 06:58:36.849539	29.3	11.1	-81.0	0.0
2025-01-17 06:58:37.970756	29.4	11.2	-80.8	0.0
2025-01-17 06:58:39.091384	29.5	11.2	-80.9	0.0
2025-01-17 06:58:40.212436	29.6	11.3	-80.7	0.0
2025-01-17 06:58:41.337267	29.7	11.4	-80.8	0.0
2025-01-17 06:58:42.459408	29.8	11.5	-80.8	0.0
2025-01-17 06:58:43.582049	29.8	11.6	-80.5	0.0
2025-01-17 06:58:44.703065	29.9	11.7	-80.7	0.0
2025-01-17 06:58:45.823828	30.0	11.8	-81.0	0.0
2025-01-17 06:58:46.945470	30.1	11.9	-80.8	0.0
2025-01-17 06:58:48.068127	30.2	12.0	-80.7	0.0
2025-01-17 06:58:49.186490	30.3	12.1	-80.8	0.0
2025-01-17 06:58:50.307943	30.4	12.2	-81.0	0.0
2025-01-17 06:58:51.428647	30.5	12.3	-80.2	0.0
2025-01-17 06:58:52.549262	30.6	12.4	-81.0	0.0
2025-01-17 06:58:53.670796	30.7	12.5	-80.9	0.0
2025-01-17 06:58:54.791579	30.8	12.5	-81.1	0.0
2025-01-17 06:58:55.916954	30.9	12.6	-80.9	0.0
2025-01-17 06:58:57.038683	31.0	12.7	-80.7	0.0
2025-01-17 06:58:58.159324	31.1	12.8	-80.9	0.0
2025-01-17 06:58:59.279161	31.2	12.9	-80.4	0.0
2025-01-17 06:59:00.399951	31.3	13.0	-81.1	0.0
2025-01-17 06:59:01.520761	31.4	13.1	-80.7	0.0
2025-01-17 06:59:02.642477	31.5	13.2	-80.9	0.0
2025-01-17 06:59:03.765946	31.6	13.3	-81.0	0.0
2025-01-17 06:59:04.886161	31.7	13.4	-80.8	0.0
2025-01-17 06:59:06.006026	31.8	13.5	-81.3	0.0
2025-01-17 06:59:07.128656	31.9	13.6	-81.4	0.0
2025-01-17 06:59:08.250624	32.0	13.7	-80.9	0.0
2025-01-17 06:59:09.373601	32.1	13.8	-81.1	0.0
2025-01-17 06:59:10.494340	32.2	13.9	-81.1	0.0
2025-01-17 06:59:11.615331	32.4	14.0	-81.6	0.0
2025-01-17 06:59:12.737316	32.5	14.1	-80.7	0.0
2025-01-17 06:59:13.858935	32.6	14.2	-81.4	0.0
2025-01-17 06:59:14.980574	32.7	14.3	-81.4	0.0
2025-01-17 06:59:16.104081	32.8	14.4	-81.2	0.0
2025-01-17 06:59:17.225936	32.9	14.5	-81.6	0.0
2025-01-17 06:59:18.345399	33.0	14.6	-81.6	0.0
2025-01-17 06:59:19.467709	33.1	14.7	-80.9	0.0
2025-01-17 06:59:20.587689	33.2	14.8	-81.2	0.0
2025-01-17 06:59:21.709914	33.4	14.9	-81.1	0.0
2025-01-17 06:59:22.831186	33.5	15.0	-81.5	0.0
2025-01-17 06:59:23.952085	33.6	15.1	-81.2	0.0
2025-01-17 06:59:25.072678	33.7	15.2	-81.4	0.0
2025-01-17 06:59:26.192466	33.8	15.3	-81.3	0.0
2025-01-17 06:59:27.313747	33.9	15.4	-80.6	0.0
2025-01-17 06:59:28.433671	34.1	15.5	-81.2	0.0
2025-01-17 06:59:29.554792	34.2	15.6	-81.1	0.0
2025-01-17 06:59:30.676467	34.3	15.8	-81.2	0.0
2025-01-17 06:59:31.797105	34.4	15.9	-81.0	0.0
2025-01-17 06:59:32.916997	34.5	16.0	-80.7	0.0
2025-01-17 06:59:34.039508	34.7	16.1	-81.2	0.0
2025-01-17 06:59:35.159889	34.8	16.2	-81.2	0.0
2025-01-17 06:59:36.280015	34.9	16.3	-81.5	0.0
2025-01-17 06:59:37.401560	35.0	16.4	-81.1	0.0
2025-01-17 06:59:38.521397	35.2	16.5	-81.4	0.0
2025-01-17 06:59:39.643155	35.3	16.6	-81.0	0.0
2025-01-17 06:59:40.764357	35.4	16.7	-80.3	0.0
2025-01-17 06:59:41.885920	35.5	16.8	-80.3	0.0
2025-01-17 06:59:43.006130	35.7	16.9	-80.8	0.0
2025-01-17 06:59:44.127065	35.8	17.0	-81.1	0.0
2025-01-17 06:59:45.247640	35.9	17.1	-81.0	0.0
2025-01-17 06:59:46.368004	36.1	17.3	-81.3	0.0
2025-01-17 06:59:47.490551	36.2	17.4	-81.1	0.0
2025-01-17 06:59:48.613075	36.3	17.5	-81.1	0.0
2025-01-17 06:59:49.735658	36.5	17.6	-81.2	0.0
2025-01-17 06:59:50.858346	36.6	17.7	-81.1	0.0
2025-01-17 06:59:51.978381	36.7	17.8	-81.0	0.0
2025-01-17 06:59:53.098845	36.9	17.9	-81.1	0.0
2025-01-17 06:59:54.222571	37.0	18.0	-81.0	0.0
2025-01-17 06:59:55.344271	37.2	18.2	-81.3	0.0
2025-01-17 06:59:56.465715	37.3	18.3	-81.3	0.0
2025-01-17 06:59:57.584566	37.5	18.4	-81.5	0.0
2025-01-17 06:59:58.706456	37.6	18.5	-81.2	0.0
2025-01-17 06:59:59.827358	37.7	18.6	-81.6	0.0
2025-01-17 07:00:00.946465	37.9	18.7	-81.1	0.0
2025-01-17 07:00:02.067595	38.0	18.8	-80.6	0.0
2025-01-17 07:00:03.188377	38.2	18.9	-81.3	0.0
2025-01-17 07:00:04.311345	38.3	19.1	-81.5	0.0
2025-01-17 07:00:05.433904	38.5	19.2	-81.1	0.0
2025-01-17 07:00:06.554345	38.6	19.3	-81.4	0.0
2025-01-17 07:00:07.678659	38.8	19.4	-80.9	0.0
2025-01-17 07:00:08.799739	38.9	19.5	-81.1	0.0
2025-01-17 07:00:09.917100	39.1	19.6	-81.1	0.0
2025-01-17 07:00:11.038055	39.2	19.8	-81.1	0.0
2025-01-17 07:00:12.158336	39.4	19.9	-81.3	0.0
2025-01-17 07:00:13.277727	39.6	20.0	-81.1	0.0
2025-01-17 07:00:14.397166	39.7	20.1	-81.1	0.0
2025-01-17 07:00:15.518591	39.9	20.2	-81.4	0.0
2025-01-17 07:00:16.638428	40.0	20.4	-81.4	0.0
2025-01-17 07:00:17.759833	40.2	20.5	-81.4	0.0
2025-01-17 07:00:18.879877	40.4	20.6	-81.3	0.0
2025-01-17 07:00:20.001380	40.5	20.7	-81.0	0.0
2025-01-17 07:00:21.122710	40.7	20.8	-81.4	0.0
2025-01-17 07:00:22.245104	40.9	21.0	-81.2	0.0
2025-01-17 07:00:23.367165	41.0	21.1	-81.2	0.0
2025-01-17 07:00:24.487300	41.2	21.2	-81.1	0.0
2025-01-17 07:00:25.606281	41.4	21.3	-81.1	0.0
2025-01-17 07:00:26.727054	41.5	21.4	-81.0	0.0
2025-01-17 07:00:27.848085	41.7	21.6	-81.6	0.0
2025-01-17 07:00:28.970261	41.9	21.7	-81.2	0.0
2025-01-17 07:00:30.090052	42.1	21.8	-81.2	0.0
2025-01-17 07:00:31.213043	42.2	21.9	-80.8	0.0
2025-01-17 07:00:32.333729	42.4	22.1	-81.4	0.0
2025-01-17 07:00:33.452493	42.6	22.2	-81.5	0.0
2025-01-17 07:00:34.573614	42.8	22.3	-81.4	0.0
2025-01-17 07:00:35.696636	43.0	22.4	-81.4	0.0
2025-01-17 07:00:36.818779	43.1	22.6	-81.6	0.0
2025-01-17 07:00:37.938528	43.3	22.7	-81.6	0.0
2025-01-17 07:00:39.057883	43.5	22.8	-81.3	0.0
2025-01-17 07:00:40.179511	43.7	22.9	-81.2	0.0
2025-01-17 07:00:41.300543	43.9	23.1	-81.5	0.0
2025-01-17 07:00:42.422855	44.1	23.2	-81.5	0.0
2025-01-17 07:00:43.545326	44.3	23.3	-81.0	0.0
2025-01-17 07:00:44.665835	44.5	23.5	-81.6	0.0
2025-01-17 07:00:45.785820	44.7	23.6	-81.6	0.0
2025-01-17 07:00:46.906664	44.9	23.7	-81.6	0.0
2025-01-17 07:00:48.029486	45.1	23.8	-81.4	0.0
2025-01-17 07:00:49.150551	45.3	24.0	-81.7	0.0
2025-01-17 07:00:50.270366	45.5	24.1	-81.7	0.0
2025-01-17 07:00:51.390625	45.7	24.2	-81.3	0.0
2025-01-17 07:00:52.510787	45.9	24.4	-81.6	0.0
2025-01-17 07:00:53.632474	46.1	24.5	-81.5	0.0
2025-01-17 07:00:54.753921	46.3	24.6	-81.5	0.0
2025-01-17 07:00:55.874747	46.5	24.7	-81.7	0.0
2025-01-17 07:00:56.995497	46.7	24.9	-81.4	0.0
2025-01-17 07:00:58.116264	46.9	25.0	-81.6	0.0
2025-01-17 07:00:59.238330	47.2	25.1	-81.6	0.0
2025-01-17 07:01:00.358349	47.4	25.3	-81.4	0.0
2025-01-17 07:01:01.479480	47.6	25.4	-81.7	0.0
2025-01-17 07:01:02.602897	47.8	25.5	-81.6	0.0
2025-01-17 07:01:03.723172	48.0	25.7	-81.5	0.0
2025-01-17 07:01:04.844996	48.3	25.8	-81.5	0.0
2025-01-17 07:01:05.966328	48.5	25.9	-80.6	0.0
2025-01-17 07:01:07.086596	48.7	26.1	-81.3	0.0
2025-01-17 07:01:08.207629	49.0	26.2	-80.6	0.0
2025-01-17 07:01:09.326341	49.2	26.3	-81.2	0.0
2025-01-17 07:01:10.449672	49.4	26.5	-81.5	0.0
2025-01-17 07:01:11.570543	49.7	26.6	-81.9	0.0
2025-01-17 07:01:12.691777	49.9	26.7	-81.6	0.0
2025-01-17 07:01:13.813164	50.1	26.9	-81.3	0.0
2025-01-17 07:01:14.936526	50.4	27.0	-81.4	0.0
2025-01-17 07:01:16.059219	50.6	27.1	-81.5	0.0
2025-01-17 07:01:17.183622	50.9	27.3	-81.8	0.0
2025-01-17 07:01:18.308571	51.1	27.4	-81.4	0.0
2025-01-17 07:01:19.433256	51.4	27.5	-81.5	0.0
2025-01-17 07:01:20.553451	51.6	27.7	-80.6	0.0
2025-01-17 07:01:21.675674	51.9	27.8	-81.4	0.0
2025-01-17 07:01:22.797069	52.1	27.9	-81.1	0.0
2025-01-17 07:01:23.917552	52.4	28.1	-81.2	0.0
2025-01-17 07:01:25.038261	52.7	28.2	-80.9	0.0
2025-01-17 07:01:26.160099	52.9	28.3	-80.3	0.0
2025-01-17 07:01:27.281724	53.2	28.5	-80.8	0.0
2025-01-17 07:01:28.403265	53.5	28.6	-80.6	0.0
2025-01-17 07:01:29.526680	53.7	28.7	-80.3	0.0
2025-01-17 07:01:30.649370	54.0	28.9	-80.5	0.0
2025-01-17 07:01:31.773052	54.3	29.0	-80.8	0.0
2025-01-17 07:01:32.897397	54.6	29.1	-80.5	0.0
2025-01-17 07:01:34.017893	54.8	29.3	-80.5	0.0
2025-01-17 07:01:35.137715	55.1	29.4	-80.8	0.0
2025-01-17 07:01:36.257499	55.4	29.5	-81.0	0.0
2025-01-17 07:01:37.377852	55.7	29.7	-80.8	0.0
2025-01-17 07:01:38.500265	56.0	29.8	-80.6	0.0
2025-01-17 07:01:39.624558	56.3	29.9	-80.9	0.0
2025-01-17 07:01:40.746887	56.5	30.1	-81.1	0.0
2025-01-17 07:01:41.867110	56.8	30.2	-81.3	0.0
2025-01-17 07:01:42.989754	57.1	30.3	-81.2	0.0
2025-01-17 07:01:44.110653	57.4	30.5	-81.3	0.0
2025-01-17 07:01:45.231621	57.7	30.6	-81.0	0.0
2025-01-17 07:01:46.353273	58.0	30.7	-81.0	0.0
2025-01-17 07:01:47.476828	58.4	30.9	-81.0	0.0
2025-01-17 07:01:48.599763	58.7	31.0	-81.2	0.0
2025-01-17 07:01:49.719547	59.0	31.1	-81.1	0.0
2025-01-17 07:01:50.842441	59.3	31.2	-80.8	0.0
2025-01-17 07:01:51.964681	59.6	31.4	-81.1	0.0
2025-01-17 07:01:53.085999	59.9	31.5	-81.4	0.0
2025-01-17 07:01:54.208605	60.2	31.6	-81.1	0.0
2025-01-17 07:01:55.329372	60.6	31.8	-81.2	0.0
2025-01-17 07:01:56.448677	60.9	31.9	-81.2	0.0
2025-01-17 07:01:57.571641	61.2	32.0	-81.4	0.0
2025-01-17 07:01:58.691735	61.6	32.2	-81.4	0.0
2025-01-17 07:01:59.812535	61.9	32.3	-81.2	0.0
2025-01-17 07:02:00.932410	62.2	32.4	-81.2	0.0
2025-01-17 07:02:02.053427	62.6	32.5	-80.8	0.0
2025-01-17 07:02:03.172914	62.9	32.7	-81.2	0.0
2025-01-17 07:02:04.292689	63.3	32.8	-81.2	0.0
2025-01-17 07:02:05.414479	63.6	32.9	-81.5	0.0
2025-01-17 07:02:06.535240	64.0	33.0	-81.4	0.0
2025-01-17 07:02:07.658577	64.3	33.2	-81.5	0.0
2025-01-17 07:02:08.780503	64.7	33.3	-81.4	0.0
2025-01-17 07:02:09.901039	65.0	33.4	-81.5	0.0
2025-01-17 07:02:11.021376	65.4	33.5	-81.8	0.0
2025-01-17 07:02:12.141564	65.7	33.6	-81.2	0.0
2025-01-17 07:02:13.261697	66.1	33.8	-81.2	0.0
2025-01-17 07:02:14.382271	66.5	33.9	-80.8	0.0
2025-01-17 07:02:15.504456	66.8	34.0	-80.8	0.0
2025-01-17 07:02:16.627759	67.2	34.1	-81.6	0.0
2025-01-17 07:02:17.748223	67.6	34.2	-81.8	0.0
2025-01-17 07:02:18.870399	68.0	34.3	-81.8	0.0
2025-01-17 07:02:19.990226	68.4	34.4	-81.1	0.0
2025-01-17 07:02:21.113653	68.7	34.6	-81.7	0.0
2025-01-17 07:02:22.234180	69.1	34.7	-81.6	0.0
2025-01-17 07:02:23.355206	69.5	34.8	-81.7	0.0
2025-01-17 07:02:24.476682	69.9	34.9	-81.9	0.0
2025-01-17 07:02:25.597162	70.3	35.0	-81.8	0.0
2025-01-17 07:02:26.721272	70.7	35.1	-81.3	0.0
2025-01-17 07:02:27.842592	71.1	35.2	-81.7	0.0
2025-01-17 07:02:28.964569	71.5	35.3	-81.4	0.0
2025-01-17 07:02:30.087943	71.9	35.4	-81.5	0.0
2025-01-17 07:02:31.211508	72.3	35.5	-81.7	0.0
2025-01-17 07:02:32.331548	72.7	35.6	-81.6	0.0
2025-01-17 07:02:33.451895	73.1	35.7	-81.4	0.0
2025-01-17 07:02:34.573718	73.6	35.8	-81.7	0.0
2025-01-17 07:02:35.694617	74.0	35.9	-81.5	0.0
2025-01-17 07:02:36.817132	74.4	36.0	-81.5	0.0
2025-01-17 07:02:37.939912	74.8	36.1	-81.0	0.0
2025-01-17 07:02:39.060674	75.2	36.2	-80.9	0.0
2025-01-17 07:02:40.183310	75.7	36.3	-81.4	0.0
2025-01-17 07:02:41.307853	76.1	36.4	-81.6	0.0
2025-01-17 07:02:42.427043	76.5	36.5	-81.7	0.0
2025-01-17 07:02:43.548647	77.0	36.6	-81.5	0.0
2025-01-17 07:02:44.670542	77.4	36.7	-81.7	0.0
2025-01-17 07:02:45.791598	77.8	36.7	-81.8	0.0
2025-01-17 07:02:46.911863	78.3	36.8	-81.5	0.0
2025-01-17 07:02:48.032661	78.7	36.9	-81.9	0.0
2025-01-17 07:02:49.155629	79.2	37.0	-81.7	0.0
2025-01-17 07:02:50.274902	79.6	37.1	-81.8	0.0
2025-01-17 07:02:51.396228	80.1	37.1	-81.8	0.0
2025-01-17 07:02:52.517511	80.5	37.2	-81.6	0.0
2025-01-17 07:02:53.638771	81.0	37.3	-81.4	0.0
2025-01-17 07:02:54.759445	81.4	37.3	-81.3	0.0
2025-01-17 07:02:55.883734	81.9	37.4	-81.8	0.0
2025-01-17 07:02:57.003599	82.3	37.5	-81.7	0.0
2025-01-17 07:02:58.122214	82.8	37.5	-81.8	0.0
2025-01-17 07:02:59.243751	83.3	37.6	-82.0	0.0
2025-01-17 07:03:00.363580	83.7	37.7	-81.7	0.0
2025-01-17 07:03:01.483876	84.2	37.7	-81.8	0.0
2025-01-17 07:03:02.605147	84.6	37.8	-81.9	0.0
2025-01-17 07:03:03.728027	85.1	37.8	-81.9	0.0
2025-01-17 07:03:04.848891	85.6	37.9	-81.6	0.0
2025-01-17 07:03:05.969890	86.1	37.9	-81.8	0.0
2025-01-17 07:03:07.093387	86.5	38.0	-81.9	0.0
2025-01-17 07:03:08.213763	87.0	38.0	-82.0	0.0
2025-01-17 07:03:09.335244	87.5	38.1	-81.8	0.0
2025-01-17 07:03:10.454194	88.0	38.1	-81.3	0.0
2025-01-17 07:03:11.574673	88.4	38.2	-81.7	0.0
2025-01-17 07:03:12.694736	88.9	38.2	-81.7	0.0
2025-01-17 07:03:13.813988	89.4	38.2	-81.6	0.0
2025-01-17 07:03:14.934681	89.9	38.3	-81.7	0.0
2025-01-17 07:03:16.057243	90.4	38.3	-81.5	0.0
2025-01-17 07:03:17.178423	90.8	38.3	-81.8	0.0
2025-01-17 07:03:18.298552	91.3	38.3	-81.7	0.0
2025-01-17 07:03:19.417490	91.8	38.4	-81.6	0.0
2025-01-17 07:03:20.537792	92.3	38.4	-81.6	0.0
2025-01-17 07:03:21.656413	92.8	38.4	-81.7	0.0
2025-01-17 07:03:22.777032	93.3	38.4	-81.7	0.0
2025-01-17 07:03:23.900032	93.8	38.4	-81.6	0.0
2025-01-17 07:03:25.020607	94.2	38.5	-81.9	0.0
2025-01-17 07:03:26.142234	94.7	38.5	-81.6	0.0
2025-01-17 07:03:27.265580	95.2	38.5	-81.9	0.0
2025-01-17 07:03:28.384521	95.7	38.5	-81.7	0.0
2025-01-17 07:03:29.507003	96.2	38.5	-81.7	0.0
2025-01-17 07:03:30.627623	96.7	38.5	-81.3	0.0
2025-01-17 07:03:31.749565	97.2	38.5	-81.6	0.0
2025-01-17 07:03:32.868539	97.7	38.5	-81.6	0.0
2025-01-17 07:03:33.988699	98.1	38.5	-81.8	0.0
2025-01-17 07:03:35.110772	98.6	38.5	-81.5	0.0
2025-01-17 07:03:36.234140	99.1	38.5	-81.7	0.0
2025-01-17 07:03:37.357163	99.6	38.4	-81.8	0.0
2025-01-17 07:03:38.477735	100.1	38.4	-81.8	0.0
2025-01-17 07:03:39.597833	100.6	38.4	-81.9	0.0
2025-01-17 07:03:40.717666	101.1	38.4	-81.7	0.0
2025-01-17 07:03:41.836718	101.6	38.4	-81.8	0.0
2025-01-17 07:03:42.956790	102.0	38.4	-81.4	0.0
2025-01-17 07:03:44.078660	102.5	38.3	-81.5	0.0
2025-01-17 07:03:45.198553	103.0	38.3	-81.7	0.0
2025-01-17 07:03:46.317607	103.5	38.3	-81.5	0.0
2025-01-17 07:03:47.440129	104.0	38.2	-81.5	0.0
2025-01-17 07:03:48.563600	104.5	38.2	-81.3	0.0
2025-01-17 07:03:49.684261	104.9	38.2	-81.2	0.0
2025-01-17 07:03:50.804821	105.4	38.1	-81.6	0.0
2025-01-17 07:03:51.925124	105.9	38.1	-81.4	0.0
2025-01-17 07:03:53.047689	106.4	38.0	-81.3	0.0
2025-01-17 07:03:54.170164	106.8	38.0	-81.1	0.0
2025-01-17 07:03:55.290008	107.3	37.9	-81.3	0.0
2025-01-17 07:03:56.410033	107.8	37.9	-80.5	0.0
2025-01-17 07:03:57.530524	108.3	37.8	-81.1	0.0
2025-01-17 07:03:58.650887	108.7	37.8	-81.5	0.0
2025-01-17 07:03:59.774601	109.2	37.7	-81.5	0.0
2025-01-17 07:04:00.897295	109.7	37.7	-81.7	0.0
2025-01-17 07:04:02.019348	110.1	37.6	-81.7	0.0
2025-01-17 07:04:03.141373	110.6	37.6	-81.6	0.0
2025-01-17 07:04:04.265353	111.1	37.5	-81.3	0.0
2025-01-17 07:04:05.388553	111.5	37.4	-81.6	0.0
2025-01-17 07:04:06.511467	112.0	37.4	-81.5	0.0
2025-01-17 07:04:07.632523	112.4	37.3	-82.0	0.0
2025-01-17 07:04:08.753336	112.9	37.2	-81.8	0.0
2025-01-17 07:04:09.874643	113.3	37.1	-81.7	0.0
2025-01-17 07:04:10.995103	113.8	37.1	-81.7	0.0
2025-01-17 07:04:12.115651	114.2	37.0	-81.8	0.0
2025-01-17 07:04:13.236679	114.7	36.9	-81.8	0.0
2025-01-17 07:04:14.356852	115.1	36.8	-81.9	0.0
2025-01-17 07:04:15.478689	115.6	36.8	-81.5	0.0
2025-01-17 07:04:16.599099	116.0	36.7	-81.8	0.0
2025-01-17 07:04:17.720690	116.4	36.6	-82.2	0.0
2025-01-17 07:04:18.843744	116.9	36.5	-81.7	0.0
2025-01-17 07:04:19.964535	117.3	36.4	-81.5	0.0
2025-01-17 07:04:21.085502	117.7	36.3	-81.4	0.0
2025-01-17 07:04:22.205895	118.2	36.2	-81.7	0.0
2025-01-17 07:04:23.326425	118.6	36.1	-81.2	0.0
2025-01-17 07:04:24.447328	119.0	36.0	-81.6	0.0
2025-01-17 07:04:25.568690	119.4	35.9	-81.4	0.0
2025-01-17 07:04:26.690904	119.8	35.8	-81.6	0.0
2025-01-17 07:04:27.810860	120.3	35.7	-81.6	0.0
2025-01-17 07:04:28.932695	120.7	35.6	-81.9	0.0
2025-01-17 07:04:30.056939	121.1	35.5	-81.5	0.0
2025-01-17 07:04:31.180225	121.5	35.4	-81.4	0.0
2025-01-17 07:04:32.302829	121.9	35.3	-81.2	0.0
2025-01-17 07:04:33.423442	122.3	35.2	-81.3	0.0
2025-01-17 07:04:34.546022	122.7	35.1	-80.8	0.0
2025-01-17 07:04:35.668057	123.1	35.0	-81.6	0.0
2025-01-17 07:04:36.787616	123.5	34.9	-81.5	0.0
2025-01-17 07:04:37.910722	123.9	34.8	-81.8	0.0
2025-01-17 07:04:39.032311	124.3	34.7	-81.4	0.0
2025-01-17 07:04:40.150335	124.7	34.6	-81.5	0.0
2025-01-17 07:04:41.271686	125.0	34.5	-81.6	0.0
2025-01-17 07:04:42.391660	125.4	34.4	-81.7	0.0
2025-01-17 07:04:43.511766	125.8	34.2	-81.7	0.0
2025-01-17 07:04:44.631990	126.2	34.1	-81.4	0.0
2025-01-17 07:04:45.754712	126.6	34.0	-82.1	0.0
2025-01-17 07:04:46.876495	126.9	33.9	-81.8	0.0
2025-01-17 07:04:47.999049	127.3	33.8	-82.1	0.0
2025-01-17 07:04:49.121935	127.7	33.7	-82.0	0.0
2025-01-17 07:04:50.244597	128.0	33.5	-82.0	0.0
2025-01-17 07:04:51.365830	128.4	33.4	-81.9	0.0
2025-01-17 07:04:52.487732	128.7	33.3	-81.5	0.0
2025-01-17 07:04:53.610437	129.1	33.2	-82.1	0.0
2025-01-17 07:04:54.730298	129.5	33.0	-82.0	0.0
2025-01-17 07:04:55.850721	129.8	32.9	-81.6	0.0
2025-01-17 07:04:56.970462	130.2	32.8	-81.8	0.0
2025-01-17 07:04:58.090482	130.5	32.7	-82.2	0.0
2025-01-17 07:04:59.211862	130.8	32.5	-81.9	0.0
2025-01-17 07:05:00.333316	131.2	32.4	-81.9	0.0
2025-01-17 07:05:01.455736	131.5	32.3	-81.6	0.0
2025-01-17 07:05:02.577915	131.9	32.2	-81.6	0.0
2025-01-17 07:05:03.697444	132.2	32.0	-81.6	0.0
2025-01-17 07:05:04.817615	132.5	31.9	-81.9	0.0
2025-01-17 07:05:05.939704	132.8	31.8	-81.9	0.0
2025-01-17 07:05:07.062977	133.2	31.7	-81.7	0.0
2025-01-17 07:05:08.184303	133.5	31.5	-82.0	0.0
2025-01-17 07:05:09.306635	133.8	31.4	-82.1	0.0
2025-01-17 07:05:10.427716	134.1	31.3	-81.6	0.0
2025-01-17 07:05:11.550146	134.4	31.1	-81.8	0.0
2025-01-17 07:05:12.674498	134.8	31.0	-81.9	0.0
2025-01-17 07:05:13.795275	135.1	30.9	-81.9	0.0
2025-01-17 07:05:14.916793	135.4	30.7	-82.0	0.0
2025-01-17 07:05:16.038470	135.7	30.6	-82.4	0.0
2025-01-17 07:05:17.160194	136.0	30.5	-82.2	0.0
2025-01-17 07:05:18.280406	136.3	30.3	-82.2	0.0
2025-01-17 07:05:19.402003	136.6	30.2	-82.1	0.0
2025-01-17 07:05:20.524093	136.9	30.1	-82.3	0.0
2025-01-17 07:05:21.645019	137.2	29.9	-82.2	0.0
2025-01-17 07:05:22.769257	137.5	29.8	-81.8	0.0
2025-01-17 07:05:23.890981	137.7	29.7	-82.3	0.0
2025-01-17 07:05:25.010754	138.0	29.5	-82.0	0.0
2025-01-17 07:05:26.130049	138.3	29.4	-81.8	0.0
2025-01-17 07:05:27.251744	138.6	29.3	-82.2	0.0
2025-01-17 07:05:28.371340	138.9	29.1	-82.1	0.0
2025-01-17 07:05:29.491179	139.2	29.0	-82.3	0.0
2025-01-17 07:05:30.612219	139.4	28.9	-81.9	0.0
2025-01-17 07:05:31.733632	139.7	28.7	-81.8	0.0
2025-01-17 07:05:32.857303	140.0	28.6	-81.7	0.0
2025-01-17 07:05:33.978899	140.2	28.5	-81.9	0.0
2025-01-17 07:05:35.101449	140.5	28.3	-82.0	0.0
2025-01-17 07:05:36.222634	140.8	28.2	-81.9	0.0
2025-01-17 07:05:37.343602	141.0	28.1	-81.6	0.0
2025-01-17 07:05:38.465688	141.3	27.9	-81.9	0.0
2025-01-17 07:05:39.586599	141.5	27.8	-81.5	0.0
2025-01-17 07:05:40.708085	141.8	27.7	-81.7	0.0
2025-01-17 07:05:41.830576	142.1	27.5	-81.9	0.0
2025-01-17 07:05:42.952335	142.3	27.4	-81.8	0.0
2025-01-17 07:05:44.071623	142.6	27.3	-82.0	0.0
2025-01-17 07:05:45.193189	142.8	27.1	-82.0	0.0
2025-01-17 07:05:46.315491	143.0	27.0	-81.8	0.0
2025-01-17 07:05:47.436748	143.3	26.9	-81.6	0.0
2025-01-17 07:05:48.557403	143.5	26.7	-81.6	0.0
2025-01-17 07:05:49.677433	143.8	26.6	-81.9	0.0
2025-01-17 07:05:50.798495	144.0	26.5	-81.9	0.0
2025-01-17 07:05:51.919274	144.2	26.3	-82.0	0.0
2025-01-17 07:05:53.041624	144.5	26.2	-81.6	0.0
2025-01-17 07:05:54.163832	144.7	26.1	-81.7	0.0
2025-01-17 07:05:55.287433	144.9	25.9	-81.7	0.0
2025-01-17 07:05:56.407985	145.2	25.8	-81.5	0.0
2025-01-17 07:05:57.530541	145.4	25.7	-81.9	0.0
2025-01-17 07:05:58.650529	145.6	25.5	-81.8	0.0
2025-01-17 07:05:59.771216	145.8	25.4	-81.5	0.0
2025-01-17 07:06:00.890515	146.1	25.3	-81.9	0.0
2025-01-17 07:06:02.011703	146.3	25.1	-81.6	0.0
2025-01-17 07:06:03.132937	146.5	25.0	-81.1	0.0
2025-01-17 07:06:04.255247	146.7	24.9	-81.0	0.0
2025-01-17 07:06:05.377725	146.9	24.7	-81.2	0.0
2025-01-17 07:06:06.498570	147.1	24.6	-81.7	0.0
2025-01-17 07:06:07.619188	147.3	24.5	-81.3	0.0
2025-01-17 07:06:08.740665	147.5	24.3	-81.9	0.0
2025-01-17 07:06:09.859679	147.7	24.2	-82.0	0.0
2025-01-17 07:06:10.981767	148.0	24.1	-81.8	0.0
2025-01-17 07:06:12.103257	148.2	24.0	-81.0	0.0
2025-01-17 07:06:13.225471	148.4	23.8	-81.7	0.0
2025-01-17 07:06:14.346731	148.6	23.7	-81.8	0.0
2025-01-17 07:06:15.466874	148.8	23.6	-81.9	0.0
2025-01-17 07:06:16.585768	149.0	23.4	-81.7	0.0
2025-01-17 07:06:17.707600	149.1	23.3	-81.7	0.0
2025-01-17 07:06:18.827826	149.3	23.2	-81.9	0.0
2025-01-17 07:06:19.946813	149.5	23.1	-81.7	0.0
2025-01-17 07:06:21.069372	149.7	22.9	-81.2	0.0
2025-01-17 07:06:22.189824	149.9	22.8	-81.0	0.0
2025-01-17 07:06:23.312090	150.1	22.7	-81.9	0.0
2025-01-17 07:06:24.431565	150.3	22.6	-81.9	0.0
2025-01-17 07:06:25.552489	150.5	22.4	-81.9	0.0
2025-01-17 07:06:26.673997	150.7	22.3	-82.2	0.0
2025-01-17 07:06:27.793678	150.8	22.2	-81.9	0.0
2025-01-17 07:06:28.916369	151.0	22.1	-81.8	0.0
2025-01-17 07:06:30.040005	151.2	21.9	-82.2	0.0
2025-01-17 07:06:31.161894	151.4	21.8	-81.8	0.0
2025-01-17 07:06:32.284701	151.5	21.7	-82.2	0.0
2025-01-17 07:06:33.406944	151.7	21.6	-82.1	0.0
2025-01-17 07:06:34.528532	151.9	21.4	-81.8	0.0
2025-01-17 07:06:35.650969	152.1	21.3	-82.3	0.0
2025-01-17 07:06:36.771531	152.2	21.2	-82.2	0.0
2025-01-17 07:06:37.894712	152.4	21.1	-82.4	0.0
2025-01-17 07:06:39.016014	152.6	20.9	-82.3	0.0
2025-01-17 07:06:40.138330	152.7	20.8	-82.0	0.0
2025-01-17 07:06:41.260131	152.9	20.7	-82.1	0.0
2025-01-17 07:06:42.382720	153.1	20.6	-82.3	0.0
2025-01-17 07:06:43.503526	153.2	20.5	-82.2	0.0
2025-01-17 07:06:44.623829	153.4	20.3	-82.3	0.0
2025-01-17 07:06:45.743613	153.6	20.2	-82.2	0.0
2025-01-17 07:06:46.864997	153.7	20.1	-82.2	0.0
2025-01-17 07:06:47.987402	153.9	20.0	-82.3	0.0
2025-01-17 07:06:49.110443	154.0	19.9	-82.2	0.0
2025-01-17 07:06:50.233213	154.2	19.7	-82.2	0.0
2025-01-17 07:06:51.353027	154.3	19.6	-82.1	0.0
2025-01-17 07:06:52.477943	154.5	19.5	-81.9	0.0
2025-01-17 07:06:53.599778	154.7	19.4	-82.0	0.0
2025-01-17 07:06:54.721973	154.8	19.3	-81.9	0.0
2025-01-17 07:06:55.844348	155.0	19.2	-82.1	0.0
2025-01-17 07:06:56.967183	155.1	19.0	-82.1	0.0
2025-01-17 07:06:58.088162	155.3	18.9	-82.2	0.0
2025-01-17 07:06:59.211370	155.4	18.8	-82.0	0.0
2025-01-17 07:07:00.332901	155.5	18.7	-82.0	0.0
2025-01-17 07:07:01.453726	155.7	18.6	-82.0	0.0
2025-01-17 07:07:02.575709	155.8	18.5	-82.1	0.0
2025-01-17 07:07:03.694263	156.0	18.4	-81.7	0.0
2025-01-17 07:07:04.815147	156.1	18.2	-81.8	0.0
2025-01-17 07:07:05.936590	156.3	18.1	-82.1	0.0
2025-01-17 07:07:07.059177	156.4	18.0	-82.3	0.0
2025-01-17 07:07:08.180290	156.5	17.9	-82.3	0.0
2025-01-17 07:07:09.300644	156.7	17.8	-82.3	0.0
2025-01-17 07:07:10.420575	156.8	17.7	-82.4	0.0
2025-01-17 07:07:11.543624	157.0	17.6	-82.1	0.0
2025-01-17 07:07:12.666527	157.1	17.5	-82.2	0.0
2025-01-17 07:07:13.785930	157.2	17.3	-82.3	0.0
2025-01-17 07:07:14.908106	157.4	17.2	-82.3	0.0
2025-01-17 07:07:16.029330	157.5	17.1	-82.1	0.0
2025-01-17 07:07:17.148719	157.6	17.0	-81.7	0.0
2025-01-17 07:07:18.270314	157.7	16.9	-81.6	0.0
2025-01-17 07:07:19.391110	157.9	16.8	-81.8	0.0
2025-01-17 07:07:20.512242	158.0	16.7	-81.7	0.0
2025-01-17 07:07:21.634322	158.1	16.6	-81.5	0.0
2025-01-17 07:07:22.755765	158.3	16.5	-81.5	0.0
2025-01-17 07:07:23.877362	158.4	16.4	-81.7	0.0
2025-01-17 07:07:24.997705	158.5	16.3	-81.0	0.0
2025-01-17 07:07:26.118853	158.6	16.1	-81.2	0.0
2025-01-17 07:07:27.241834	158.8	16.0	-81.9	0.0
2025-01-17 07:07:28.361978	158.9	15.9	-81.5	0.0
2025-01-17 07:07:29.481905	159.0	15.8	-81.7	0.0
2025-01-17 07:07:30.603812	159.1	15.7	-81.5	0.0
2025-01-17 07:07:31.724221	159.2	15.6	-81.4	0.0
2025-01-17 07:07:32.844362	159.4	15.5	-81.8	0.0
2025-01-17 07:07:33.966927	159.5	15.4	-82.0	0.0
2025-01-17 07:07:35.086683	159.6	15.3	-81.6	0.0
2025-01-17 07:07:36.207132	159.7	15.2	-82.0	0.0
2025-01-17 07:07:37.328686	159.8	15.1	-81.8	0.0
2025-01-17 07:07:38.449660	159.9	15.0	-81.7	0.0
2025-01-17 07:07:39.570410	160.1	14.9	-81.5	0.0
2025-01-17 07:07:40.691600	160.2	14.8	-81.1	0.0
2025-01-17 07:07:41.812205	160.3	14.7	-81.9	0.0
2025-01-17 07:07:42.932274	160.4	14.6	-81.7	0.0
2025-01-17 07:07:44.053237	160.5	14.5	-81.5	0.0
2025-01-17 07:07:45.173981	160.6	14.4	-82.1	0.0
2025-01-17 07:07:46.295575	160.7	14.3	-81.8	0.0
2025-01-17 07:07:47.416544	160.8	14.2	-82.1	0.0
2025-01-17 07:07:48.537366	160.9	14.1	-82.2	0.0
2025-01-17 07:07:49.658480	161.1	14.0	-82.1	0.0
2025-01-17 07:07:50.779714	161.2	13.9	-81.9	0.0
2025-01-17 07:07:51.899405	161.3	13.8	-82.3	0.0
2025-01-17 07:07:53.021198	161.4	13.7	-81.7	0.0
2025-01-17 07:07:54.141513	161.5	13.6	-81.8	0.0
2025-01-17 07:07:55.263037	161.6	13.5	-81.9	0.0
2025-01-17 07:07:56.382407	161.7	13.4	-81.7	0.0
2025-01-17 07:07:57.501465	161.8	13.3	-82.1	0.0
2025-01-17 07:07:58.622135	161.9	13.2	-82.2	0.0
2025-01-17 07:07:59.744219	162.0	13.1	-82.4	0.0
2025-01-17 07:08:00.864836	162.1	13.0	-82.0	0.0
2025-01-17 07:08:01.985296	162.2	12.9	-82.4	0.0
2025-01-17 07:08:03.106624	162.3	12.8	-82.6	0.0
2025-01-17 07:08:04.227583	162.4	12.7	-82.1	0.0
2025-01-17 07:08:05.348851	162.5	12.6	-82.2	0.0
2025-01-17 07:08:06.472704	162.6	12.5	-82.1	0.0
2025-01-17 07:08:07.592708	162.7	12.4	-82.3	0.0
2025-01-17 07:08:08.714167	162.8	12.3	-82.3	0.0
2025-01-17 07:08:09.837686	162.9	12.2	-81.9	0.0
2025-01-17 07:08:10.958703	163.0	12.1	-81.9	0.0
2025-01-17 07:08:12.080784	163.1	12.0	-82.5	0.0
2025-01-17 07:08:13.201855	163.2	11.9	-82.0	0.0
2025-01-17 07:08:14.323657	163.3	11.8	-82.1	0.0
2025-01-17 07:08:15.446332	163.4	11.7	-82.4	0.0
2025-01-17 07:08:16.566115	163.4	11.7	-82.0	0.0
2025-01-17 07:08:17.687589	163.5	11.6	-82.1	0.0
2025-01-17 07:08:18.809950	163.6	11.5	-82.1	0.0
2025-01-17 07:08:19.933518	163.7	11.4	-82.0	0.0
2025-01-17 07:08:21.054725	163.8	11.3	-81.7	0.0
2025-01-17 07:08:22.175844	163.9	11.2	-82.0	0.0
2025-01-17 07:08:23.297829	164.0	11.1	-82.2	0.0
2025-01-17 07:08:24.418723	164.1	11.0	-81.9	0.0
2025-01-17 07:08:25.543580	164.2	10.9	-82.1	0.0
2025-01-17 07:08:26.665689	164.3	10.8	-81.9	0.0
2025-01-17 07:08:27.786053	164.3	10.7	-81.9	0.0
2025-01-17 07:08:28.906289	164.4	10.7	-81.8	0.0
2025-01-17 07:08:30.028137	164.5	10.6	-82.0	0.0
2025-01-17 07:08:31.146884	164.6	10.5	-81.9	0.0
2025-01-17 07:08:32.266942	164.7	10.4	-82.0	0.0
2025-01-17 07:08:33.388423	164.8	10.3	-81.4	0.0
2025-01-17 07:08:34.511142	164.9	10.2	-81.7	0.0
2025-01-17 07:08:35.633798	164.9	10.1	-82.2	0.0
2025-01-17 07:08:36.754563	165.0	10.0	-82.0	0.0
#Closed at: 2025-01-17 06:58:18.489092