passes_logs/2025/01/17/planumMaritime01/planumMaritime01__20250117_012032_METEOR-M2_2_rec.log

#Pass ID: 20250117_012032_METEOR-M2 2
#Satellite: METEOR-M2 2
#Configuration: METEOR-M2 2
#Start time: 2025-01-17 01:20:37.766937

#LorettStation: 1.0.0 05.05.2024
#Station: planumMaritime01
#Location: 37.49445 lon 55.92918 lat
#TLE: 1 44387U 19038A   25016.12190774  .00000195  00000+0  10443-3 0  9991
#TLE: 2 44387  98.8568 352.5287 0002283  77.3640 282.7793 14.24117457287692

#Time	Az	El	Level	SNR
2025-01-17 01:20:39.913115	25.8	10.2	-81.4	0.0
2025-01-17 01:20:41.035391	25.9	10.3	-81.5	0.0
2025-01-17 01:20:42.156415	25.9	10.4	-81.2	0.0
2025-01-17 01:20:43.279382	26.0	10.5	-81.3	0.0
2025-01-17 01:20:44.399617	26.1	10.5	-81.4	0.0
2025-01-17 01:20:45.519300	26.1	10.6	-81.4	0.0
2025-01-17 01:20:46.639750	26.2	10.7	-81.3	0.0
2025-01-17 01:20:47.759176	26.3	10.8	-81.2	0.0
2025-01-17 01:20:48.878129	26.4	10.9	-81.3	0.0
2025-01-17 01:20:49.998543	26.4	11.0	-81.6	0.0
2025-01-17 01:20:51.120211	26.5	11.1	-81.2	0.0
2025-01-17 01:20:52.240544	26.6	11.2	-81.4	0.0
2025-01-17 01:20:53.359003	26.7	11.3	-81.7	0.0
2025-01-17 01:20:54.479901	26.7	11.4	-81.5	0.0
2025-01-17 01:20:55.599653	26.8	11.5	-81.5	0.0
2025-01-17 01:20:56.723203	26.9	11.6	-81.5	0.0
2025-01-17 01:20:57.843968	27.0	11.7	-81.7	0.0
2025-01-17 01:20:58.965130	27.0	11.8	-81.5	0.0
2025-01-17 01:21:00.087688	27.1	11.9	-81.5	0.0
2025-01-17 01:21:01.207687	27.2	12.0	-81.4	0.0
2025-01-17 01:21:02.326638	27.3	12.1	-81.4	0.0
2025-01-17 01:21:03.447550	27.4	12.2	-81.7	0.0
2025-01-17 01:21:04.567503	27.4	12.3	-81.4	0.0
2025-01-17 01:21:05.686741	27.5	12.4	-81.8	0.0
2025-01-17 01:21:06.807353	27.6	12.5	-81.8	0.0
2025-01-17 01:21:07.927860	27.7	12.6	-81.7	0.0
2025-01-17 01:21:09.048732	27.8	12.7	-81.6	0.0
2025-01-17 01:21:10.168977	27.9	12.8	-81.6	0.0
2025-01-17 01:21:11.290682	27.9	12.9	-81.6	0.0
2025-01-17 01:21:12.410964	28.0	13.0	-81.6	0.0
2025-01-17 01:21:13.532529	28.1	13.1	-81.6	0.0
2025-01-17 01:21:14.660127	28.2	13.2	-81.8	0.0
2025-01-17 01:21:15.780215	28.3	13.3	-82.0	0.0
2025-01-17 01:21:16.901184	28.4	13.4	-81.8	0.0
2025-01-17 01:21:18.021428	28.4	13.5	-81.8	0.0
2025-01-17 01:21:19.145053	28.5	13.6	-82.0	0.0
2025-01-17 01:21:20.265685	28.6	13.7	-81.8	0.0
2025-01-17 01:21:21.385925	28.7	13.8	-82.0	0.0
2025-01-17 01:21:22.506073	28.8	13.9	-81.8	0.0
2025-01-17 01:21:23.627230	28.9	14.0	-81.6	0.0
2025-01-17 01:21:24.750566	29.0	14.2	-81.8	0.0
2025-01-17 01:21:25.868890	29.1	14.3	-81.8	0.0
2025-01-17 01:21:26.990287	29.2	14.4	-81.9	0.0
2025-01-17 01:21:28.110719	29.3	14.5	-81.4	0.0
2025-01-17 01:21:29.230676	29.3	14.6	-81.4	0.0
2025-01-17 01:21:30.351107	29.4	14.7	-81.7	0.0
2025-01-17 01:21:31.473104	29.5	14.8	-81.9	0.0
2025-01-17 01:21:32.594001	29.6	14.9	-82.1	0.0
2025-01-17 01:21:33.718876	29.7	15.0	-81.9	0.0
2025-01-17 01:21:34.839982	29.8	15.1	-82.1	0.0
2025-01-17 01:21:35.966750	29.9	15.2	-82.0	0.0
2025-01-17 01:21:37.087220	30.0	15.4	-81.7	0.0
2025-01-17 01:21:38.208382	30.1	15.5	-81.5	0.0
2025-01-17 01:21:39.333369	30.2	15.6	-81.9	0.0
2025-01-17 01:21:40.454719	30.3	15.7	-81.9	0.0
2025-01-17 01:21:41.575524	30.4	15.8	-81.8	0.0
2025-01-17 01:21:42.697993	30.5	15.9	-81.7	0.0
2025-01-17 01:21:43.818485	30.6	16.0	-81.7	0.0
2025-01-17 01:21:44.940698	30.7	16.2	-82.0	0.0
2025-01-17 01:21:46.060800	30.8	16.3	-81.8	0.0
2025-01-17 01:21:47.182200	30.9	16.4	-81.8	0.0
2025-01-17 01:21:48.301600	31.0	16.5	-81.8	0.0
2025-01-17 01:21:49.422798	31.1	16.6	-81.9	0.0
2025-01-17 01:21:50.544361	31.2	16.7	-81.7	0.0
2025-01-17 01:21:51.665295	31.3	16.9	-82.1	0.0
2025-01-17 01:21:52.786657	31.5	17.0	-81.9	0.0
2025-01-17 01:21:53.907046	31.6	17.1	-81.9	0.0
2025-01-17 01:21:55.027894	31.7	17.2	-82.1	0.0
2025-01-17 01:21:56.148119	31.8	17.3	-82.0	0.0
2025-01-17 01:21:57.268921	31.9	17.5	-81.8	0.0
2025-01-17 01:21:58.389974	32.0	17.6	-82.1	0.0
2025-01-17 01:21:59.512782	32.1	17.7	-82.1	0.0
2025-01-17 01:22:00.638590	32.2	17.8	-82.1	0.0
2025-01-17 01:22:01.759251	32.3	17.9	-82.2	0.0
2025-01-17 01:22:02.878593	32.5	18.1	-81.9	0.0
2025-01-17 01:22:03.997271	32.6	18.2	-82.0	0.0
2025-01-17 01:22:05.121003	32.7	18.3	-82.0	0.0
2025-01-17 01:22:06.243754	32.8	18.4	-81.6	0.0
2025-01-17 01:22:07.364390	32.9	18.6	-81.2	0.0
2025-01-17 01:22:08.485786	33.1	18.7	-81.7	0.0
2025-01-17 01:22:09.603794	33.2	18.8	-81.6	0.0
2025-01-17 01:22:10.724088	33.3	18.9	-82.0	0.0
2025-01-17 01:22:11.849107	33.4	19.1	-81.7	0.0
2025-01-17 01:22:12.969068	33.5	19.2	-82.0	0.0
2025-01-17 01:22:14.091286	33.7	19.3	-81.7	0.0
2025-01-17 01:22:15.211108	33.8	19.4	-81.6	0.0
2025-01-17 01:22:16.333136	33.9	19.6	-81.5	0.0
2025-01-17 01:22:17.453773	34.1	19.7	-81.8	0.0
2025-01-17 01:22:18.574106	34.2	19.8	-81.4	0.0
2025-01-17 01:22:19.694403	34.3	20.0	-81.7	0.0
2025-01-17 01:22:20.817327	34.4	20.1	-81.6	0.0
2025-01-17 01:22:21.937912	34.6	20.2	-81.9	0.0
2025-01-17 01:22:23.059251	34.7	20.4	-81.7	0.0
2025-01-17 01:22:24.180208	34.8	20.5	-81.7	0.0
2025-01-17 01:22:25.298485	35.0	20.6	-81.8	0.0
2025-01-17 01:22:26.417477	35.1	20.8	-81.9	0.0
2025-01-17 01:22:27.538051	35.3	20.9	-81.8	0.0
2025-01-17 01:22:28.657325	35.4	21.0	-82.0	0.0
2025-01-17 01:22:29.779273	35.5	21.2	-82.0	0.0
2025-01-17 01:22:30.902181	35.7	21.3	-81.8	0.0
2025-01-17 01:22:32.023066	35.8	21.4	-82.0	0.0
2025-01-17 01:22:33.150110	36.0	21.6	-82.1	0.0
2025-01-17 01:22:34.273879	36.1	21.7	-82.1	0.0
2025-01-17 01:22:35.396009	36.3	21.9	-81.9	0.0
2025-01-17 01:22:36.517839	36.4	22.0	-82.0	0.0
2025-01-17 01:22:37.638782	36.6	22.1	-82.1	0.0
2025-01-17 01:22:38.761028	36.7	22.3	-82.1	0.0
2025-01-17 01:22:39.884267	36.9	22.4	-82.0	0.0
2025-01-17 01:22:41.005749	37.0	22.6	-81.4	0.0
2025-01-17 01:22:42.128383	37.2	22.7	-82.1	0.0
2025-01-17 01:22:43.249020	37.3	22.8	-81.9	0.0
2025-01-17 01:22:44.369580	37.5	23.0	-81.9	0.0
2025-01-17 01:22:45.490766	37.6	23.1	-82.1	0.0
2025-01-17 01:22:46.611426	37.8	23.3	-81.8	0.0
2025-01-17 01:22:47.732337	38.0	23.4	-81.8	0.0
2025-01-17 01:22:48.853675	38.1	23.6	-82.0	0.0
2025-01-17 01:22:49.973907	38.3	23.7	-81.8	0.0
2025-01-17 01:22:51.094215	38.5	23.9	-81.7	0.0
2025-01-17 01:22:52.213812	38.6	24.0	-81.6	0.0
2025-01-17 01:22:53.333671	38.8	24.2	-81.9	0.0
2025-01-17 01:22:54.454596	39.0	24.3	-82.3	0.0
2025-01-17 01:22:55.576390	39.1	24.5	-82.3	0.0
2025-01-17 01:22:56.697240	39.3	24.6	-82.2	0.0
2025-01-17 01:22:57.815752	39.5	24.8	-82.4	0.0
2025-01-17 01:22:58.936319	39.7	24.9	-82.2	0.0
2025-01-17 01:23:00.057090	39.9	25.1	-82.3	0.0
2025-01-17 01:23:01.178355	40.0	25.2	-82.3	0.0
2025-01-17 01:23:02.298938	40.2	25.4	-82.3	0.0
2025-01-17 01:23:03.422870	40.4	25.5	-82.2	0.0
2025-01-17 01:23:04.544403	40.6	25.7	-82.3	0.0
2025-01-17 01:23:05.664640	40.8	25.8	-82.0	0.0
2025-01-17 01:23:06.786511	41.0	26.0	-82.3	0.0
2025-01-17 01:23:07.907243	41.2	26.1	-82.3	0.0
2025-01-17 01:23:09.026467	41.3	26.3	-82.3	0.0
2025-01-17 01:23:10.147781	41.5	26.5	-82.1	0.0
2025-01-17 01:23:11.267389	41.7	26.6	-82.3	0.0
2025-01-17 01:23:12.388835	41.9	26.8	-82.0	0.0
2025-01-17 01:23:13.509007	42.1	26.9	-82.3	0.0
2025-01-17 01:23:14.630311	42.3	27.1	-82.2	0.0
2025-01-17 01:23:15.752585	42.6	27.3	-82.2	0.0
2025-01-17 01:23:16.876206	42.8	27.4	-82.2	0.0
2025-01-17 01:23:17.998544	43.0	27.6	-82.0	0.0
2025-01-17 01:23:19.118567	43.2	27.7	-82.0	0.0
2025-01-17 01:23:20.241782	43.4	27.9	-82.0	0.0
2025-01-17 01:23:21.362879	43.6	28.1	-82.3	0.0
2025-01-17 01:23:22.484959	43.8	28.2	-82.3	0.0
2025-01-17 01:23:23.606517	44.0	28.4	-82.0	0.0
2025-01-17 01:23:24.729317	44.3	28.6	-82.2	0.0
2025-01-17 01:23:25.848921	44.5	28.7	-81.9	0.0
2025-01-17 01:23:26.969730	44.7	28.9	-82.3	0.0
2025-01-17 01:23:28.089886	45.0	29.1	-82.1	0.0
2025-01-17 01:23:29.210363	45.2	29.2	-82.3	0.0
2025-01-17 01:23:30.332809	45.4	29.4	-81.7	0.0
2025-01-17 01:23:31.453871	45.7	29.6	-82.1	0.0
2025-01-17 01:23:32.575677	45.9	29.7	-81.9	0.0
2025-01-17 01:23:33.696867	46.1	29.9	-82.0	0.0
2025-01-17 01:23:34.817881	46.4	30.1	-82.3	0.0
2025-01-17 01:23:35.938119	46.6	30.2	-82.2	0.0
2025-01-17 01:23:37.059455	46.9	30.4	-82.4	0.0
2025-01-17 01:23:38.180766	47.1	30.6	-82.3	0.0
2025-01-17 01:23:39.300770	47.4	30.8	-82.3	0.0
2025-01-17 01:23:40.421239	47.6	30.9	-82.2	0.0
2025-01-17 01:23:41.542224	47.9	31.1	-82.1	0.0
2025-01-17 01:23:42.660874	48.2	31.3	-82.2	0.0
2025-01-17 01:23:43.781816	48.4	31.4	-82.1	0.0
2025-01-17 01:23:44.900188	48.7	31.6	-81.6	0.0
2025-01-17 01:23:46.020236	49.0	31.8	-82.4	0.0
2025-01-17 01:23:47.141390	49.2	32.0	-82.1	0.0
2025-01-17 01:23:48.265039	49.5	32.1	-82.2	0.0
2025-01-17 01:23:49.388803	49.8	32.3	-82.3	0.0
2025-01-17 01:23:50.508414	50.1	32.5	-81.8	0.0
2025-01-17 01:23:51.627968	50.4	32.7	-82.2	0.0
2025-01-17 01:23:52.750821	50.6	32.8	-82.3	0.0
2025-01-17 01:23:53.868323	50.9	33.0	-81.9	0.0
2025-01-17 01:23:54.989288	51.2	33.2	-82.2	0.0
2025-01-17 01:23:56.109928	51.5	33.4	-82.2	0.0
2025-01-17 01:23:57.230490	51.8	33.5	-82.2	0.0
2025-01-17 01:23:58.355475	52.1	33.7	-82.2	0.0
2025-01-17 01:23:59.480749	52.4	33.9	-82.1	0.0
2025-01-17 01:24:00.600863	52.8	34.1	-82.1	0.0
2025-01-17 01:24:01.722775	53.1	34.2	-82.2	0.0
2025-01-17 01:24:02.845729	53.4	34.4	-82.3	0.0
2025-01-17 01:24:03.968382	53.7	34.6	-82.0	0.0
2025-01-17 01:24:05.089244	54.0	34.8	-82.3	0.0
2025-01-17 01:24:06.211657	54.4	35.0	-82.1	0.0
2025-01-17 01:24:07.331574	54.7	35.1	-82.3	0.0
2025-01-17 01:24:08.451136	55.0	35.3	-82.3	0.0
2025-01-17 01:24:09.572759	55.4	35.5	-82.5	0.0
2025-01-17 01:24:10.693714	55.7	35.7	-82.1	0.0
2025-01-17 01:24:11.813751	56.1	35.8	-82.3	0.0
2025-01-17 01:24:12.935573	56.4	36.0	-82.2	0.0
2025-01-17 01:24:14.058213	56.8	36.2	-82.2	0.0
2025-01-17 01:24:15.180501	57.1	36.4	-82.4	0.0
2025-01-17 01:24:16.304069	57.5	36.5	-82.3	0.0
2025-01-17 01:24:17.426697	57.9	36.7	-82.2	0.0
2025-01-17 01:24:18.547545	58.2	36.9	-82.5	0.0
2025-01-17 01:24:19.668856	58.6	37.1	-82.5	0.0
2025-01-17 01:24:20.790997	59.0	37.2	-82.5	0.0
2025-01-17 01:24:21.912762	59.4	37.4	-82.4	0.0
2025-01-17 01:24:23.033754	59.7	37.6	-82.3	0.0
2025-01-17 01:24:24.153335	60.1	37.8	-82.4	0.0
2025-01-17 01:24:25.274275	60.5	37.9	-82.6	0.0
2025-01-17 01:24:26.394878	60.9	38.1	-82.5	0.0
2025-01-17 01:24:27.515947	61.3	38.3	-82.4	0.0
2025-01-17 01:24:28.637201	61.7	38.5	-82.3	0.0
2025-01-17 01:24:29.757747	62.1	38.6	-82.4	0.0
2025-01-17 01:24:30.881040	62.5	38.8	-82.4	0.0
2025-01-17 01:24:32.002087	63.0	39.0	-82.5	0.0
2025-01-17 01:24:33.122803	63.4	39.1	-82.4	0.0
2025-01-17 01:24:34.243080	63.8	39.3	-82.3	0.0
2025-01-17 01:24:35.363911	64.2	39.5	-82.2	0.0
2025-01-17 01:24:36.484033	64.7	39.6	-82.3	0.0
2025-01-17 01:24:37.605791	65.1	39.8	-82.3	0.0
2025-01-17 01:24:38.728630	65.6	39.9	-82.4	0.0
2025-01-17 01:24:39.849776	66.0	40.1	-82.2	0.0
2025-01-17 01:24:40.971339	66.5	40.3	-82.6	0.0
2025-01-17 01:24:42.093571	66.9	40.4	-82.5	0.0
2025-01-17 01:24:43.214451	67.4	40.6	-82.6	0.0
2025-01-17 01:24:44.335951	67.9	40.7	-82.4	0.0
2025-01-17 01:24:45.456697	68.3	40.9	-82.2	0.0
2025-01-17 01:24:46.578591	68.8	41.0	-82.4	0.0
2025-01-17 01:24:47.698954	69.3	41.2	-82.2	0.0
2025-01-17 01:24:48.820274	69.8	41.3	-82.3	0.0
2025-01-17 01:24:49.940952	70.3	41.5	-81.8	0.0
2025-01-17 01:24:51.060424	70.8	41.6	-82.3	0.0
2025-01-17 01:24:52.180786	71.3	41.8	-82.6	0.0
2025-01-17 01:24:53.303740	71.8	41.9	-82.4	0.0
2025-01-17 01:24:54.423196	72.3	42.1	-82.4	0.0
2025-01-17 01:24:55.544662	72.8	42.2	-82.6	0.0
2025-01-17 01:24:56.668167	73.3	42.3	-82.1	0.0
2025-01-17 01:24:57.789408	73.8	42.5	-82.4	0.0
2025-01-17 01:24:58.908815	74.3	42.6	-82.4	0.0
2025-01-17 01:25:00.031240	74.9	42.7	-82.3	0.0
2025-01-17 01:25:01.154045	75.4	42.9	-82.5	0.0
2025-01-17 01:25:02.273415	75.9	43.0	-82.5	0.0
2025-01-17 01:25:03.394839	76.5	43.1	-82.4	0.0
2025-01-17 01:25:04.514408	77.0	43.2	-82.4	0.0
2025-01-17 01:25:05.635436	77.6	43.4	-82.1	0.0
2025-01-17 01:25:06.761085	78.1	43.5	-82.0	0.0
2025-01-17 01:25:07.882011	78.7	43.6	-82.3	0.0
2025-01-17 01:25:09.002004	79.2	43.7	-82.2	0.0
2025-01-17 01:25:10.123624	79.8	43.8	-82.2	0.0
2025-01-17 01:25:11.244307	80.4	43.9	-82.3	0.0
2025-01-17 01:25:12.365928	81.0	44.0	-82.0	0.0
2025-01-17 01:25:13.487096	81.5	44.1	-82.2	0.0
2025-01-17 01:25:14.608558	82.1	44.2	-82.2	0.0
2025-01-17 01:25:15.728615	82.7	44.3	-82.2	0.0
2025-01-17 01:25:16.849787	83.3	44.4	-82.4	0.0
2025-01-17 01:25:17.972331	83.9	44.5	-82.2	0.0
2025-01-17 01:25:19.091352	84.5	44.6	-82.3	0.0
2025-01-17 01:25:20.213325	85.1	44.7	-82.5	0.0
2025-01-17 01:25:21.335769	85.7	44.7	-82.0	0.0
2025-01-17 01:25:22.459961	86.3	44.8	-82.0	0.0
2025-01-17 01:25:23.580651	86.9	44.9	-81.8	0.0
2025-01-17 01:25:24.700889	87.5	45.0	-82.3	0.0
2025-01-17 01:25:25.822064	88.1	45.0	-82.2	0.0
2025-01-17 01:25:26.943603	88.7	45.1	-82.5	0.0
2025-01-17 01:25:28.063393	89.3	45.1	-82.3	0.0
2025-01-17 01:25:29.187088	89.9	45.2	-82.4	0.0
2025-01-17 01:25:30.305653	90.6	45.2	-82.7	0.0
2025-01-17 01:25:31.427868	91.2	45.3	-82.3	0.0
2025-01-17 01:25:32.547526	91.8	45.3	-82.2	0.0
2025-01-17 01:25:33.667382	92.4	45.4	-82.4	0.0
2025-01-17 01:25:34.789402	93.1	45.4	-82.3	0.0
2025-01-17 01:25:35.910586	93.7	45.4	-82.3	0.0
2025-01-17 01:25:37.030770	94.3	45.5	-82.4	0.0
2025-01-17 01:25:38.150739	94.9	45.5	-82.2	0.0
2025-01-17 01:25:39.272167	95.6	45.5	-82.2	0.0
2025-01-17 01:25:40.393998	96.2	45.5	-82.1	0.0
2025-01-17 01:25:41.515131	96.8	45.6	-82.3	0.0
2025-01-17 01:25:42.638421	97.5	45.6	-82.4	0.0
2025-01-17 01:25:43.760787	98.1	45.6	-82.5	0.0
2025-01-17 01:25:44.881008	98.7	45.6	-82.1	0.0
2025-01-17 01:25:46.000870	99.4	45.6	-82.4	0.0
2025-01-17 01:25:47.122098	100.0	45.6	-82.3	0.0
2025-01-17 01:25:48.241711	100.7	45.6	-82.5	0.0
2025-01-17 01:25:49.360690	101.3	45.6	-82.5	0.0
2025-01-17 01:25:50.482968	101.9	45.5	-82.3	0.0
2025-01-17 01:25:51.603617	102.5	45.5	-82.3	0.0
2025-01-17 01:25:52.725013	103.2	45.5	-82.5	0.0
2025-01-17 01:25:53.845918	103.8	45.5	-82.3	0.0
2025-01-17 01:25:54.965765	104.4	45.4	-82.6	0.0
2025-01-17 01:25:56.084658	105.1	45.4	-82.5	0.0
2025-01-17 01:25:57.203195	105.7	45.4	-82.6	0.0
2025-01-17 01:25:58.323981	106.3	45.3	-82.7	0.0
2025-01-17 01:25:59.445074	106.9	45.3	-82.6	0.0
2025-01-17 01:26:00.566162	107.6	45.2	-82.7	0.0
2025-01-17 01:26:01.686590	108.2	45.2	-82.6	0.0
2025-01-17 01:26:02.805066	108.8	45.1	-82.6	0.0
2025-01-17 01:26:03.926083	109.4	45.1	-82.6	0.0
2025-01-17 01:26:05.046368	110.0	45.0	-82.7	0.0
2025-01-17 01:26:06.167122	110.6	44.9	-82.4	0.0
2025-01-17 01:26:07.289743	111.2	44.9	-82.6	0.0
2025-01-17 01:26:08.412180	111.9	44.8	-82.6	0.0
2025-01-17 01:26:09.531440	112.5	44.7	-82.5	0.0
2025-01-17 01:26:10.650991	113.1	44.6	-82.5	0.0
2025-01-17 01:26:11.770238	113.6	44.6	-82.6	0.0
2025-01-17 01:26:12.891700	114.2	44.5	-82.4	0.0
2025-01-17 01:26:14.012317	114.8	44.4	-82.3	0.0
2025-01-17 01:26:15.132432	115.4	44.3	-82.5	0.0
2025-01-17 01:26:16.253288	116.0	44.2	-82.5	0.0
2025-01-17 01:26:17.372578	116.6	44.1	-82.5	0.0
2025-01-17 01:26:18.492106	117.2	44.0	-82.0	0.0
2025-01-17 01:26:19.612965	117.7	43.9	-82.6	0.0
2025-01-17 01:26:20.733702	118.3	43.8	-82.5	0.0
2025-01-17 01:26:21.856462	118.9	43.7	-82.3	0.0
2025-01-17 01:26:22.977343	119.4	43.6	-82.3	0.0
2025-01-17 01:26:24.099025	120.0	43.4	-82.3	0.0
2025-01-17 01:26:25.223819	120.5	43.3	-82.5	0.0
2025-01-17 01:26:26.346026	121.1	43.2	-82.7	0.0
2025-01-17 01:26:27.466016	121.6	43.1	-82.1	0.0
2025-01-17 01:26:28.587340	122.2	43.0	-82.5	0.0
2025-01-17 01:26:29.709209	122.7	42.8	-82.6	0.0
2025-01-17 01:26:30.831264	123.2	42.7	-82.6	0.0
2025-01-17 01:26:31.951145	123.8	42.6	-82.6	0.0
2025-01-17 01:26:33.073251	124.3	42.4	-82.3	0.0
2025-01-17 01:26:34.194289	124.8	42.3	-82.7	0.0
2025-01-17 01:26:35.316567	125.3	42.2	-82.6	0.0
2025-01-17 01:26:36.440782	125.9	42.0	-82.4	0.0
2025-01-17 01:26:37.562717	126.4	41.9	-82.5	0.0
2025-01-17 01:26:38.684965	126.9	41.7	-82.5	0.0
2025-01-17 01:26:39.805841	127.4	41.6	-82.5	0.0
2025-01-17 01:26:40.927232	127.9	41.4	-82.4	0.0
2025-01-17 01:26:42.046462	128.3	41.3	-82.5	0.0
2025-01-17 01:26:43.166903	128.8	41.1	-82.4	0.0
2025-01-17 01:26:44.286861	129.3	41.0	-82.1	0.0
2025-01-17 01:26:45.408783	129.8	40.8	-82.4	0.0
2025-01-17 01:26:46.530157	130.3	40.7	-82.5	0.0
2025-01-17 01:26:47.651476	130.7	40.5	-82.7	0.0
2025-01-17 01:26:48.776882	131.2	40.4	-82.4	0.0
2025-01-17 01:26:49.896551	131.6	40.2	-82.4	0.0
2025-01-17 01:26:51.019694	132.1	40.0	-82.4	0.0
2025-01-17 01:26:52.140011	132.5	39.9	-82.5	0.0
2025-01-17 01:26:53.262002	133.0	39.7	-82.1	0.0
2025-01-17 01:26:54.383530	133.4	39.5	-82.5	0.0
2025-01-17 01:26:55.506169	133.9	39.4	-82.1	0.0
2025-01-17 01:26:56.629059	134.3	39.2	-82.4	0.0
2025-01-17 01:26:57.751612	134.7	39.0	-82.4	0.0
2025-01-17 01:26:58.874993	135.1	38.9	-82.6	0.0
2025-01-17 01:26:59.995955	135.6	38.7	-82.4	0.0
2025-01-17 01:27:01.118750	136.0	38.5	-82.6	0.0
2025-01-17 01:27:02.241916	136.4	38.4	-82.6	0.0
2025-01-17 01:27:03.363981	136.8	38.2	-82.6	0.0
2025-01-17 01:27:04.485863	137.2	38.0	-82.3	0.0
2025-01-17 01:27:05.608868	137.6	37.9	-82.5	0.0
2025-01-17 01:27:06.728070	138.0	37.7	-82.4	0.0
2025-01-17 01:27:07.848766	138.4	37.5	-82.4	0.0
2025-01-17 01:27:08.970562	138.8	37.3	-82.5	0.0
2025-01-17 01:27:10.091430	139.1	37.2	-82.3	0.0
2025-01-17 01:27:11.214242	139.5	37.0	-82.5	0.0
2025-01-17 01:27:12.334691	139.9	36.8	-82.2	0.0
2025-01-17 01:27:13.456914	140.3	36.6	-82.5	0.0
2025-01-17 01:27:14.578503	140.6	36.5	-82.6	0.0
2025-01-17 01:27:15.698208	141.0	36.3	-82.7	0.0
2025-01-17 01:27:16.818000	141.3	36.1	-82.5	0.0
2025-01-17 01:27:17.937929	141.7	35.9	-82.5	0.0
2025-01-17 01:27:19.058842	142.0	35.7	-82.6	0.0
2025-01-17 01:27:20.183741	142.4	35.6	-82.8	0.0
2025-01-17 01:27:21.306517	142.7	35.4	-82.5	0.0
2025-01-17 01:27:22.426902	143.1	35.2	-82.7	0.0
2025-01-17 01:27:23.549078	143.4	35.0	-82.7	0.0
2025-01-17 01:27:24.670562	143.7	34.9	-82.5	0.0
2025-01-17 01:27:25.793865	144.1	34.7	-82.6	0.0
2025-01-17 01:27:26.915454	144.4	34.5	-82.5	0.0
2025-01-17 01:27:28.036157	144.7	34.3	-82.7	0.0
2025-01-17 01:27:29.154685	145.0	34.1	-82.6	0.0
2025-01-17 01:27:30.274790	145.3	34.0	-82.6	0.0
2025-01-17 01:27:31.392787	145.7	33.8	-82.6	0.0
2025-01-17 01:27:32.513819	146.0	33.6	-82.5	0.0
2025-01-17 01:27:33.634825	146.3	33.4	-82.4	0.0
2025-01-17 01:27:34.756033	146.6	33.3	-82.7	0.0
2025-01-17 01:27:35.878138	146.9	33.1	-82.5	0.0
2025-01-17 01:27:37.001178	147.2	32.9	-82.5	0.0
2025-01-17 01:27:38.121790	147.4	32.7	-82.4	0.0
2025-01-17 01:27:39.242940	147.7	32.5	-82.6	0.0
2025-01-17 01:27:40.364818	148.0	32.4	-82.3	0.0
2025-01-17 01:27:41.486941	148.3	32.2	-82.3	0.0
2025-01-17 01:27:42.607743	148.6	32.0	-82.5	0.0
2025-01-17 01:27:43.729400	148.9	31.8	-82.6	0.0
2025-01-17 01:27:44.850604	149.1	31.7	-82.4	0.0
2025-01-17 01:27:45.970549	149.4	31.5	-82.7	0.0
2025-01-17 01:27:47.092547	149.7	31.3	-82.5	0.0
2025-01-17 01:27:48.215212	149.9	31.1	-82.4	0.0
2025-01-17 01:27:49.334901	150.2	31.0	-82.4	0.0
2025-01-17 01:27:50.455886	150.5	30.8	-82.5	0.0
2025-01-17 01:27:51.578097	150.7	30.6	-82.4	0.0
2025-01-17 01:27:52.698672	151.0	30.5	-82.5	0.0
2025-01-17 01:27:53.820269	151.2	30.3	-82.4	0.0
2025-01-17 01:27:54.941938	151.5	30.1	-82.4	0.0
2025-01-17 01:27:56.061937	151.7	29.9	-82.4	0.0
2025-01-17 01:27:57.183001	152.0	29.8	-82.6	0.0
2025-01-17 01:27:58.304902	152.2	29.6	-82.4	0.0
2025-01-17 01:27:59.425146	152.4	29.4	-82.3	0.0
2025-01-17 01:28:00.548252	152.7	29.3	-82.3	0.0
2025-01-17 01:28:01.668512	152.9	29.1	-82.5	0.0
2025-01-17 01:28:02.789719	153.1	28.9	-82.4	0.0
2025-01-17 01:28:03.912157	153.4	28.8	-82.2	0.0
2025-01-17 01:28:05.034455	153.6	28.6	-82.1	0.0
2025-01-17 01:28:06.155098	153.8	28.4	-82.2	0.0
2025-01-17 01:28:07.278513	154.0	28.3	-82.0	0.0
2025-01-17 01:28:08.400106	154.3	28.1	-82.0	0.0
2025-01-17 01:28:09.521513	154.5	27.9	-82.3	0.0
2025-01-17 01:28:10.640978	154.7	27.8	-82.3	0.0
2025-01-17 01:28:11.761359	154.9	27.6	-81.9	0.0
2025-01-17 01:28:12.884066	155.1	27.4	-82.3	0.0
2025-01-17 01:28:14.003899	155.3	27.3	-82.3	0.0
2025-01-17 01:28:15.125855	155.5	27.1	-82.3	0.0
2025-01-17 01:28:16.249479	155.7	27.0	-82.3	0.0
2025-01-17 01:28:17.370414	155.9	26.8	-81.8	0.0
2025-01-17 01:28:18.491826	156.1	26.6	-82.0	0.0
2025-01-17 01:28:19.613774	156.3	26.5	-82.0	0.0
2025-01-17 01:28:20.736522	156.5	26.3	-82.0	0.0
2025-01-17 01:28:21.858395	156.7	26.2	-82.2	0.0
2025-01-17 01:28:22.978810	156.9	26.0	-82.3	0.0
2025-01-17 01:28:24.101397	157.1	25.8	-82.2	0.0
2025-01-17 01:28:25.222390	157.3	25.7	-82.2	0.0
2025-01-17 01:28:26.343861	157.5	25.5	-82.5	0.0
2025-01-17 01:28:27.463811	157.7	25.4	-82.1	0.0
2025-01-17 01:28:28.584428	157.9	25.2	-82.2	0.0
2025-01-17 01:28:29.703441	158.0	25.1	-82.0	0.0
2025-01-17 01:28:30.822407	158.2	24.9	-82.0	0.0
2025-01-17 01:28:31.944131	158.4	24.8	-82.4	0.0
2025-01-17 01:28:33.064421	158.6	24.6	-82.3	0.0
2025-01-17 01:28:34.186502	158.8	24.5	-82.6	0.0
2025-01-17 01:28:35.309087	158.9	24.3	-82.5	0.0
2025-01-17 01:28:36.431645	159.1	24.2	-82.6	0.0
2025-01-17 01:28:37.552670	159.3	24.0	-82.5	0.0
2025-01-17 01:28:38.672011	159.4	23.9	-82.5	0.0
2025-01-17 01:28:39.795696	159.6	23.7	-82.4	0.0
2025-01-17 01:28:40.918198	159.8	23.6	-82.5	0.0
2025-01-17 01:28:42.040370	159.9	23.4	-82.5	0.0
2025-01-17 01:28:43.160888	160.1	23.3	-82.5	0.0
2025-01-17 01:28:44.284447	160.3	23.1	-81.9	0.0
2025-01-17 01:28:45.405561	160.4	23.0	-82.4	0.0
2025-01-17 01:28:46.525623	160.6	22.8	-82.7	0.0
2025-01-17 01:28:47.648751	160.7	22.7	-82.6	0.0
2025-01-17 01:28:48.768879	160.9	22.5	-82.5	0.0
2025-01-17 01:28:49.891398	161.0	22.4	-82.7	0.0
2025-01-17 01:28:51.014728	161.2	22.3	-82.5	0.0
2025-01-17 01:28:52.135361	161.4	22.1	-82.8	0.0
2025-01-17 01:28:53.255635	161.5	22.0	-82.6	0.0
2025-01-17 01:28:54.377858	161.7	21.8	-82.6	0.0
2025-01-17 01:28:55.500302	161.8	21.7	-82.5	0.0
2025-01-17 01:28:56.624703	161.9	21.5	-82.7	0.0
2025-01-17 01:28:57.746703	162.1	21.4	-82.6	0.0
2025-01-17 01:28:58.866522	162.2	21.3	-82.7	0.0
2025-01-17 01:28:59.986987	162.4	21.1	-82.6	0.0
2025-01-17 01:29:01.107403	162.5	21.0	-82.8	0.0
2025-01-17 01:29:02.226899	162.7	20.9	-82.7	0.0
2025-01-17 01:29:03.347212	162.8	20.7	-82.6	0.0
2025-01-17 01:29:04.468174	162.9	20.6	-82.5	0.0
2025-01-17 01:29:05.589788	163.1	20.5	-82.5	0.0
2025-01-17 01:29:06.714089	163.2	20.3	-82.8	0.0
2025-01-17 01:29:07.835406	163.3	20.2	-82.5	0.0
2025-01-17 01:29:08.955364	163.5	20.1	-82.4	0.0
2025-01-17 01:29:10.074833	163.6	19.9	-82.6	0.0
2025-01-17 01:29:11.196448	163.7	19.8	-82.7	0.0
2025-01-17 01:29:12.317459	163.9	19.7	-82.3	0.0
2025-01-17 01:29:13.441213	164.0	19.5	-82.2	0.0
2025-01-17 01:29:14.560576	164.1	19.4	-82.5	0.0
2025-01-17 01:29:15.683326	164.2	19.3	-82.5	0.0
2025-01-17 01:29:16.802392	164.4	19.1	-82.4	0.0
2025-01-17 01:29:17.923729	164.5	19.0	-82.6	0.0
2025-01-17 01:29:19.044855	164.6	18.9	-82.5	0.0
2025-01-17 01:29:20.165327	164.7	18.8	-82.6	0.0
2025-01-17 01:29:21.287699	164.9	18.6	-82.5	0.0
2025-01-17 01:29:22.409742	165.0	18.5	-82.5	0.0
2025-01-17 01:29:23.530752	165.1	18.4	-82.4	0.0
2025-01-17 01:29:24.652550	165.2	18.2	-82.4	0.0
2025-01-17 01:29:25.774328	165.3	18.1	-82.4	0.0
2025-01-17 01:29:26.893804	165.5	18.0	-82.5	0.0
2025-01-17 01:29:28.016969	165.6	17.9	-82.2	0.0
2025-01-17 01:29:29.136554	165.7	17.8	-82.5	0.0
2025-01-17 01:29:30.256808	165.8	17.6	-82.4	0.0
2025-01-17 01:29:31.378079	165.9	17.5	-82.3	0.0
2025-01-17 01:29:32.499922	166.0	17.4	-82.3	0.0
2025-01-17 01:29:33.622037	166.1	17.3	-82.4	0.0
2025-01-17 01:29:34.743823	166.3	17.1	-82.6	0.0
2025-01-17 01:29:35.862460	166.4	17.0	-82.2	0.0
2025-01-17 01:29:36.983718	166.5	16.9	-82.5	0.0
2025-01-17 01:29:38.106821	166.6	16.8	-82.5	0.0
2025-01-17 01:29:39.228955	166.7	16.7	-82.5	0.0
2025-01-17 01:29:40.349413	166.8	16.5	-82.3	0.0
2025-01-17 01:29:41.470740	166.9	16.4	-82.6	0.0
2025-01-17 01:29:42.592702	167.0	16.3	-82.5	0.0
2025-01-17 01:29:43.713836	167.1	16.2	-82.5	0.0
2025-01-17 01:29:44.836030	167.2	16.1	-82.4	0.0
2025-01-17 01:29:45.957854	167.3	16.0	-82.5	0.0
2025-01-17 01:29:47.077331	167.4	15.8	-82.4	0.0
2025-01-17 01:29:48.200214	167.5	15.7	-82.2	0.0
2025-01-17 01:29:49.322749	167.6	15.6	-82.2	0.0
2025-01-17 01:29:50.443743	167.7	15.5	-82.4	0.0
2025-01-17 01:29:51.565190	167.8	15.4	-82.4	0.0
2025-01-17 01:29:52.686562	167.9	15.3	-82.7	0.0
2025-01-17 01:29:53.807891	168.0	15.2	-82.7	0.0
2025-01-17 01:29:54.928015	168.1	15.1	-82.7	0.0
2025-01-17 01:29:56.049879	168.2	14.9	-82.4	0.0
2025-01-17 01:29:57.173557	168.3	14.8	-82.3	0.0
2025-01-17 01:29:58.293882	168.4	14.7	-82.3	0.0
2025-01-17 01:29:59.415672	168.5	14.6	-82.6	0.0
2025-01-17 01:30:00.535453	168.6	14.5	-82.3	0.0
2025-01-17 01:30:01.657624	168.7	14.4	-82.3	0.0
2025-01-17 01:30:02.777931	168.8	14.3	-82.4	0.0
2025-01-17 01:30:03.897597	168.8	14.2	-82.8	0.0
2025-01-17 01:30:05.019453	168.9	14.1	-82.6	0.0
2025-01-17 01:30:06.140990	169.0	14.0	-82.9	0.0
2025-01-17 01:30:07.262029	169.1	13.8	-82.7	0.0
2025-01-17 01:30:08.381542	169.2	13.7	-82.5	0.0
2025-01-17 01:30:09.501476	169.3	13.6	-82.7	0.0
2025-01-17 01:30:10.622632	169.4	13.5	-82.7	0.0
2025-01-17 01:30:11.743361	169.5	13.4	-82.8	0.0
2025-01-17 01:30:12.865493	169.6	13.3	-82.8	0.0
2025-01-17 01:30:13.984678	169.6	13.2	-82.7	0.0
2025-01-17 01:30:15.104787	169.7	13.1	-82.5	0.0
2025-01-17 01:30:16.226542	169.8	13.0	-82.8	0.0
2025-01-17 01:30:17.349222	169.9	12.9	-82.6	0.0
2025-01-17 01:30:18.470041	170.0	12.8	-82.5	0.0
2025-01-17 01:30:19.588786	170.1	12.7	-82.7	0.0
2025-01-17 01:30:20.710098	170.1	12.6	-82.7	0.0
2025-01-17 01:30:21.831381	170.2	12.5	-82.7	0.0
2025-01-17 01:30:22.951706	170.3	12.4	-82.6	0.0
2025-01-17 01:30:24.071226	170.4	12.3	-82.6	0.0
2025-01-17 01:30:25.192245	170.5	12.2	-82.6	0.0
2025-01-17 01:30:26.312771	170.5	12.1	-82.6	0.0
2025-01-17 01:30:27.432711	170.6	12.0	-82.7	0.0
2025-01-17 01:30:28.554192	170.7	11.9	-82.7	0.0
2025-01-17 01:30:29.675860	170.8	11.8	-82.8	0.0
2025-01-17 01:30:30.796566	170.9	11.7	-82.8	0.0
2025-01-17 01:30:31.918849	170.9	11.6	-82.6	0.0
2025-01-17 01:30:33.038981	171.0	11.5	-82.6	0.0
2025-01-17 01:30:34.161762	171.1	11.4	-82.5	0.0
2025-01-17 01:30:35.282524	171.2	11.3	-82.5	0.0
2025-01-17 01:30:36.404708	171.2	11.2	-82.7	0.0
2025-01-17 01:30:37.527646	171.3	11.1	-82.7	0.0
2025-01-17 01:30:38.648867	171.4	11.0	-82.9	0.0
2025-01-17 01:30:39.766295	171.5	10.9	-82.6	0.0
2025-01-17 01:30:40.887080	171.5	10.8	-82.7	0.0
2025-01-17 01:30:42.007117	171.6	10.7	-82.7	0.0
2025-01-17 01:30:43.128128	171.7	10.6	-82.8	0.0
2025-01-17 01:30:44.248543	171.7	10.5	-82.8	0.0
2025-01-17 01:30:45.368356	171.8	10.4	-82.6	0.0
2025-01-17 01:30:46.488014	171.9	10.3	-82.8	0.0
2025-01-17 01:30:47.608753	172.0	10.2	-82.7	0.0
2025-01-17 01:30:48.730041	172.0	10.1	-82.6	0.0
2025-01-17 01:30:49.850166	172.1	10.1	-82.6	0.0
#Closed at: 2025-01-17 01:20:32.770815