passes_logs/2025/01/17/planumMaritime01/planumMaritime01__20250117_124919_METEOR-M2_2_rec.log

#Pass ID: 20250117_124919_METEOR-M2 2
#Satellite: METEOR-M2 2
#Configuration: METEOR-M2 2
#Start time: 2025-01-17 12:49:24.379169

#LorettStation: 1.0.0 05.05.2024
#Station: planumMaritime01
#Location: 37.49445 lon 55.92918 lat
#TLE: 1 44387U 19038A   25016.12190774  .00000195  00000+0  10443-3 0  9991
#TLE: 2 44387  98.8568 352.5287 0002283  77.3640 282.7793 14.24117457287692

#Time	Az	El	Level	SNR
2025-01-17 12:49:26.535498	179.5	10.2	-94.1	0.0
2025-01-17 12:49:27.656563	179.5	10.3	-94.5	0.0
2025-01-17 12:49:28.776754	179.6	10.4	-94.4	0.0
2025-01-17 12:49:29.897617	179.6	10.5	-94.8	0.0
2025-01-17 12:49:31.017800	179.7	10.6	-94.7	0.0
2025-01-17 12:49:32.140745	179.7	10.7	-94.7	0.0
2025-01-17 12:49:33.262767	179.8	10.8	-94.6	0.0
2025-01-17 12:49:34.385480	179.8	10.9	-94.6	0.0
2025-01-17 12:49:35.510695	179.9	11.0	-94.8	0.0
2025-01-17 12:49:36.631708	179.9	11.1	-94.6	0.0
2025-01-17 12:49:37.751609	180.0	11.2	-94.6	0.0
2025-01-17 12:49:38.872638	180.0	11.3	-94.8	0.0
2025-01-17 12:49:39.991505	180.1	11.4	-94.7	0.0
2025-01-17 12:49:41.110712	180.1	11.5	-94.6	0.0
2025-01-17 12:49:42.233336	180.2	11.6	-94.7	0.0
2025-01-17 12:49:43.354971	180.2	11.7	-94.5	0.0
2025-01-17 12:49:44.477710	180.3	11.8	-94.6	0.0
2025-01-17 12:49:45.597970	180.3	11.9	-94.8	0.0
2025-01-17 12:49:46.719095	180.4	12.0	-94.7	0.0
2025-01-17 12:49:47.839032	180.4	12.1	-94.9	0.0
2025-01-17 12:49:48.961301	180.5	12.2	-94.4	0.0
2025-01-17 12:49:50.080845	180.6	12.3	-94.5	0.0
2025-01-17 12:49:51.201042	180.6	12.4	-94.8	0.0
2025-01-17 12:49:52.321308	180.7	12.5	-94.8	0.0
2025-01-17 12:49:53.443755	180.7	12.6	-94.7	0.0
2025-01-17 12:49:54.564836	180.8	12.7	-94.6	0.0
2025-01-17 12:49:55.682506	180.8	12.8	-94.8	0.0
2025-01-17 12:49:56.807691	180.9	12.9	-94.6	0.0
2025-01-17 12:49:57.929153	181.0	13.0	-94.6	0.0
2025-01-17 12:49:59.051550	181.0	13.2	-94.6	0.0
2025-01-17 12:50:00.171144	181.1	13.3	-94.4	0.0
2025-01-17 12:50:01.292858	181.1	13.4	-94.5	0.0
2025-01-17 12:50:02.413556	181.2	13.5	-94.5	0.0
2025-01-17 12:50:03.536346	181.3	13.6	-94.5	0.0
2025-01-17 12:50:04.656642	181.3	13.7	-94.6	0.0
2025-01-17 12:50:05.778643	181.4	13.8	-94.6	0.0
2025-01-17 12:50:06.899430	181.5	13.9	-94.8	0.0
2025-01-17 12:50:08.018156	181.5	14.0	-94.3	0.0
2025-01-17 12:50:09.140732	181.6	14.2	-94.7	0.0
2025-01-17 12:50:10.260343	181.6	14.3	-94.6	0.0
2025-01-17 12:50:11.379608	181.7	14.4	-94.4	0.0
2025-01-17 12:50:12.500556	181.8	14.5	-94.5	0.0
2025-01-17 12:50:13.622423	181.8	14.6	-94.5	0.0
2025-01-17 12:50:14.740926	181.9	14.7	-94.6	0.0
2025-01-17 12:50:15.862657	182.0	14.8	-94.9	0.0
2025-01-17 12:50:16.982769	182.0	15.0	-94.3	0.0
2025-01-17 12:50:18.105872	182.1	15.1	-94.8	0.0
2025-01-17 12:50:19.225932	182.2	15.2	-94.7	0.0
2025-01-17 12:50:20.347109	182.2	15.3	-94.8	0.0
2025-01-17 12:50:21.468963	182.3	15.4	-94.8	0.0
2025-01-17 12:50:22.588616	182.4	15.5	-94.8	0.0
2025-01-17 12:50:23.710618	182.4	15.7	-94.6	0.0
2025-01-17 12:50:24.830737	182.5	15.8	-94.5	0.0
2025-01-17 12:50:25.950550	182.6	15.9	-94.8	0.0
2025-01-17 12:50:27.072423	182.7	16.0	-94.7	0.0
2025-01-17 12:50:28.192555	182.7	16.2	-94.7	0.0
2025-01-17 12:50:29.314702	182.8	16.3	-94.8	0.0
2025-01-17 12:50:30.434001	182.9	16.4	-94.5	0.0
2025-01-17 12:50:31.556136	183.0	16.5	-94.8	0.0
2025-01-17 12:50:32.676980	183.0	16.6	-95.0	0.0
2025-01-17 12:50:33.798883	183.1	16.8	-94.8	0.0
2025-01-17 12:50:34.919223	183.2	16.9	-94.8	0.0
2025-01-17 12:50:36.038655	183.3	17.0	-94.9	0.0
2025-01-17 12:50:37.160600	183.3	17.1	-95.0	0.0
2025-01-17 12:50:38.280347	183.4	17.3	-94.9	0.0
2025-01-17 12:50:39.402286	183.5	17.4	-95.1	0.0
2025-01-17 12:50:40.522518	183.6	17.5	-94.9	0.0
2025-01-17 12:50:41.642760	183.6	17.7	-94.5	0.0
2025-01-17 12:50:42.763751	183.7	17.8	-94.6	0.0
2025-01-17 12:50:43.883978	183.8	17.9	-94.9	0.0
2025-01-17 12:50:45.005414	183.9	18.1	-94.8	0.0
2025-01-17 12:50:46.124622	184.0	18.2	-94.7	0.0
2025-01-17 12:50:47.244019	184.0	18.3	-94.6	0.0
2025-01-17 12:50:48.366751	184.1	18.4	-94.8	0.0
2025-01-17 12:50:49.489538	184.2	18.6	-94.5	0.0
2025-01-17 12:50:50.610227	184.3	18.7	-94.7	0.0
2025-01-17 12:50:51.732780	184.4	18.9	-94.6	0.0
2025-01-17 12:50:52.852067	184.5	19.0	-94.6	0.0
2025-01-17 12:50:53.971616	184.6	19.1	-94.6	0.0
2025-01-17 12:50:55.094157	184.6	19.3	-94.4	0.0
2025-01-17 12:50:56.216293	184.7	19.4	-94.5	0.0
2025-01-17 12:50:57.340136	184.8	19.5	-94.6	0.0
2025-01-17 12:50:58.462574	184.9	19.7	-94.7	0.0
2025-01-17 12:50:59.584713	185.0	19.8	-94.6	0.0
2025-01-17 12:51:00.705856	185.1	20.0	-94.5	0.0
2025-01-17 12:51:01.826041	185.2	20.1	-94.7	0.0
2025-01-17 12:51:02.948174	185.3	20.2	-94.4	0.0
2025-01-17 12:51:04.067575	185.4	20.4	-94.5	0.0
2025-01-17 12:51:05.191581	185.5	20.5	-94.5	0.0
2025-01-17 12:51:06.310440	185.6	20.7	-94.7	0.0
2025-01-17 12:51:07.431054	185.7	20.8	-94.9	0.0
2025-01-17 12:51:08.553222	185.8	21.0	-94.6	0.0
2025-01-17 12:51:09.671898	185.9	21.1	-94.5	0.0
2025-01-17 12:51:10.792270	186.0	21.3	-94.8	0.0
2025-01-17 12:51:11.914727	186.1	21.4	-94.6	0.0
2025-01-17 12:51:13.035490	186.2	21.6	-94.8	0.0
2025-01-17 12:51:14.157435	186.3	21.7	-94.7	0.0
2025-01-17 12:51:15.279296	186.4	21.9	-94.8	0.0
2025-01-17 12:51:16.400951	186.5	22.0	-94.7	0.0
2025-01-17 12:51:17.522963	186.6	22.2	-94.7	0.0
2025-01-17 12:51:18.643997	186.7	22.3	-94.6	0.0
2025-01-17 12:51:19.764688	186.8	22.5	-94.8	0.0
2025-01-17 12:51:20.884616	186.9	22.6	-94.6	0.0
2025-01-17 12:51:22.006311	187.0	22.8	-94.6	0.0
2025-01-17 12:51:23.125563	187.1	22.9	-94.7	0.0
2025-01-17 12:51:24.246611	187.2	23.1	-94.8	0.0
2025-01-17 12:51:25.370054	187.3	23.3	-94.5	0.0
2025-01-17 12:51:26.491769	187.5	23.4	-94.8	0.0
2025-01-17 12:51:27.612832	187.6	23.6	-94.6	0.0
2025-01-17 12:51:28.736958	187.7	23.7	-94.9	0.0
2025-01-17 12:51:29.858702	187.8	23.9	-94.6	0.0
2025-01-17 12:51:30.981097	187.9	24.1	-94.5	0.0
2025-01-17 12:51:32.102947	188.0	24.2	-94.8	0.0
2025-01-17 12:51:33.223744	188.2	24.4	-94.8	0.0
2025-01-17 12:51:34.342447	188.3	24.6	-94.5	0.0
2025-01-17 12:51:35.461739	188.4	24.7	-94.5	0.0
2025-01-17 12:51:36.582539	188.5	24.9	-94.7	0.0
2025-01-17 12:51:37.703588	188.7	25.1	-94.9	0.0
2025-01-17 12:51:38.825290	188.8	25.2	-94.6	0.0
2025-01-17 12:51:39.945187	188.9	25.4	-94.8	0.0
2025-01-17 12:51:41.066479	189.0	25.6	-94.8	0.0
2025-01-17 12:51:42.187570	189.2	25.8	-94.6	0.0
2025-01-17 12:51:43.307731	189.3	25.9	-94.7	0.0
2025-01-17 12:51:44.428607	189.4	26.1	-94.8	0.0
2025-01-17 12:51:45.549046	189.6	26.3	-94.5	0.0
2025-01-17 12:51:46.669411	189.7	26.4	-94.8	0.0
2025-01-17 12:51:47.790667	189.8	26.6	-94.5	0.0
2025-01-17 12:51:48.911201	190.0	26.8	-94.8	0.0
2025-01-17 12:51:50.033027	190.1	27.0	-94.6	0.0
2025-01-17 12:51:51.153781	190.3	27.2	-94.6	0.0
2025-01-17 12:51:52.274294	190.4	27.3	-94.9	0.0
2025-01-17 12:51:53.395138	190.6	27.5	-94.8	0.0
2025-01-17 12:51:54.515666	190.7	27.7	-94.5	0.0
2025-01-17 12:51:55.639597	190.9	27.9	-94.7	0.0
2025-01-17 12:51:56.758697	191.0	28.1	-94.9	0.0
2025-01-17 12:51:57.879423	191.2	28.3	-94.8	0.0
2025-01-17 12:51:59.002510	191.3	28.5	-94.7	0.0
2025-01-17 12:52:00.123855	191.5	28.6	-94.8	0.0
2025-01-17 12:52:01.243224	191.6	28.8	-94.7	0.0
2025-01-17 12:52:02.364560	191.8	29.0	-94.7	0.0
2025-01-17 12:52:03.485720	192.0	29.2	-94.6	0.0
2025-01-17 12:52:04.607853	192.1	29.4	-94.8	0.0
2025-01-17 12:52:05.728351	192.3	29.6	-94.6	0.0
2025-01-17 12:52:06.846542	192.5	29.8	-94.7	0.0
2025-01-17 12:52:07.967668	192.6	30.0	-94.6	0.0
2025-01-17 12:52:09.090946	192.8	30.2	-94.8	0.0
2025-01-17 12:52:10.210867	193.0	30.4	-94.7	0.0
2025-01-17 12:52:11.330110	193.1	30.6	-94.5	0.0
2025-01-17 12:52:12.451511	193.3	30.8	-94.9	0.0
2025-01-17 12:52:13.572961	193.5	31.0	-94.7	0.0
2025-01-17 12:52:14.692787	193.7	31.2	-94.8	0.0
2025-01-17 12:52:15.813756	193.9	31.4	-94.9	0.0
2025-01-17 12:52:16.935549	194.1	31.6	-94.8	0.0
2025-01-17 12:52:18.056899	194.2	31.8	-94.8	0.0
2025-01-17 12:52:19.179301	194.4	32.0	-94.7	0.0
2025-01-17 12:52:20.299485	194.6	32.2	-94.6	0.0
2025-01-17 12:52:21.417763	194.8	32.4	-95.0	0.0
2025-01-17 12:52:22.537093	195.0	32.7	-95.0	0.0
2025-01-17 12:52:23.660598	195.2	32.9	-94.8	0.0
2025-01-17 12:52:24.781116	195.4	33.1	-94.7	0.0
2025-01-17 12:52:25.901869	195.6	33.3	-94.8	0.0
2025-01-17 12:52:27.024238	195.9	33.5	-94.6	0.0
2025-01-17 12:52:28.144208	196.1	33.7	-94.9	0.0
2025-01-17 12:52:29.265075	196.3	33.9	-95.0	0.0
2025-01-17 12:52:30.386045	196.5	34.2	-94.9	0.0
2025-01-17 12:52:31.505863	196.7	34.4	-94.8	0.0
2025-01-17 12:52:32.625506	196.9	34.6	-94.8	0.0
2025-01-17 12:52:33.745468	197.2	34.8	-94.8	0.0
2025-01-17 12:52:34.866234	197.4	35.1	-95.0	0.0
2025-01-17 12:52:35.987942	197.6	35.3	-94.8	0.0
2025-01-17 12:52:37.107738	197.9	35.5	-94.5	0.0
2025-01-17 12:52:38.228022	198.1	35.7	-94.8	0.0
2025-01-17 12:52:39.347041	198.3	36.0	-95.0	0.0
2025-01-17 12:52:40.468676	198.6	36.2	-94.7	0.0
2025-01-17 12:52:41.590617	198.8	36.4	-94.7	0.0
2025-01-17 12:52:42.711597	199.1	36.6	-94.6	0.0
2025-01-17 12:52:43.833645	199.4	36.9	-94.6	0.0
2025-01-17 12:52:44.957111	199.6	37.1	-94.8	0.0
2025-01-17 12:52:46.076573	199.9	37.3	-94.6	0.0
2025-01-17 12:52:47.198525	200.1	37.6	-94.7	0.0
2025-01-17 12:52:48.319462	200.4	37.8	-94.8	0.0
2025-01-17 12:52:49.441225	200.7	38.1	-94.5	0.0
2025-01-17 12:52:50.564978	201.0	38.3	-94.5	0.0
2025-01-17 12:52:51.688888	201.3	38.5	-94.7	0.0
2025-01-17 12:52:52.809440	201.5	38.8	-94.7	0.0
2025-01-17 12:52:53.929756	201.8	39.0	-94.9	0.0
2025-01-17 12:52:55.049591	202.1	39.3	-94.8	0.0
2025-01-17 12:52:56.168540	202.4	39.5	-94.7	0.0
2025-01-17 12:52:57.291295	202.7	39.7	-94.8	0.0
2025-01-17 12:52:58.412762	203.1	40.0	-94.6	0.0
2025-01-17 12:52:59.534072	203.4	40.2	-94.7	0.0
2025-01-17 12:53:00.656485	203.7	40.5	-94.6	0.0
2025-01-17 12:53:01.777702	204.0	40.7	-94.9	0.0
2025-01-17 12:53:02.901617	204.3	41.0	-94.5	0.0
2025-01-17 12:53:04.024814	204.7	41.2	-94.9	0.0
2025-01-17 12:53:05.146510	205.0	41.5	-94.7	0.0
2025-01-17 12:53:06.267619	205.4	41.7	-94.6	0.0
2025-01-17 12:53:07.388191	205.7	42.0	-94.6	0.0
2025-01-17 12:53:08.507099	206.1	42.2	-94.9	0.0
2025-01-17 12:53:09.627970	206.4	42.5	-94.9	0.0
2025-01-17 12:53:10.749485	206.8	42.7	-94.7	0.0
2025-01-17 12:53:11.868767	207.2	43.0	-94.9	0.0
2025-01-17 12:53:12.991091	207.5	43.2	-94.8	0.0
2025-01-17 12:53:14.112258	207.9	43.5	-94.7	0.0
2025-01-17 12:53:15.232488	208.3	43.7	-94.7	0.0
2025-01-17 12:53:16.354421	208.7	44.0	-94.8	0.0
2025-01-17 12:53:17.476618	209.1	44.2	-94.8	0.0
2025-01-17 12:53:18.598859	209.5	44.5	-94.7	0.0
2025-01-17 12:53:19.720333	209.9	44.7	-94.6	0.0
2025-01-17 12:53:20.839741	210.3	45.0	-94.8	0.0
2025-01-17 12:53:21.961745	210.8	45.2	-95.0	0.0
2025-01-17 12:53:23.082313	211.2	45.5	-95.1	0.0
2025-01-17 12:53:24.202789	211.6	45.7	-94.9	0.0
2025-01-17 12:53:25.323954	212.1	46.0	-94.8	0.0
2025-01-17 12:53:26.444711	212.5	46.2	-94.8	0.0
2025-01-17 12:53:27.566877	213.0	46.5	-94.8	0.0
2025-01-17 12:53:28.688098	213.5	46.7	-94.8	0.0
2025-01-17 12:53:29.807841	214.0	47.0	-94.9	0.0
2025-01-17 12:53:30.929144	214.4	47.2	-94.9	0.0
2025-01-17 12:53:32.051068	214.9	47.5	-94.8	0.0
2025-01-17 12:53:33.173277	215.4	47.7	-94.5	0.0
2025-01-17 12:53:34.293263	215.9	48.0	-94.9	0.0
2025-01-17 12:53:35.411739	216.5	48.2	-94.8	0.0
2025-01-17 12:53:36.534766	217.0	48.5	-94.9	0.0
2025-01-17 12:53:37.652871	217.5	48.7	-94.8	0.0
2025-01-17 12:53:38.773255	218.1	49.0	-94.8	0.0
2025-01-17 12:53:39.892156	218.6	49.2	-94.8	0.0
2025-01-17 12:53:41.011544	219.2	49.4	-94.7	0.0
2025-01-17 12:53:42.131743	219.7	49.7	-94.8	0.0
2025-01-17 12:53:43.249551	220.3	49.9	-94.5	0.0
2025-01-17 12:53:44.370566	220.9	50.1	-94.7	0.0
2025-01-17 12:53:45.491530	221.5	50.4	-94.8	0.0
2025-01-17 12:53:46.610690	222.1	50.6	-94.7	0.0
2025-01-17 12:53:47.731742	222.7	50.8	-94.5	0.0
2025-01-17 12:53:48.856267	223.3	51.1	-94.8	0.0
2025-01-17 12:53:49.974405	223.9	51.3	-94.6	0.0
2025-01-17 12:53:51.095623	224.6	51.5	-94.7	0.0
2025-01-17 12:53:52.218940	225.2	51.7	-94.7	0.0
2025-01-17 12:53:53.341736	225.9	51.9	-94.7	0.0
2025-01-17 12:53:54.463616	226.6	52.1	-94.7	0.0
2025-01-17 12:53:55.583819	227.2	52.4	-94.8	0.0
2025-01-17 12:53:56.704631	227.9	52.6	-94.8	0.0
2025-01-17 12:53:57.826425	228.6	52.8	-94.9	0.0
2025-01-17 12:53:58.946806	229.3	53.0	-94.7	0.0
2025-01-17 12:54:00.068658	230.0	53.2	-94.6	0.0
2025-01-17 12:54:01.189941	230.8	53.4	-94.6	0.0
2025-01-17 12:54:02.309770	231.5	53.5	-95.0	0.0
2025-01-17 12:54:03.431502	232.2	53.7	-94.7	0.0
2025-01-17 12:54:04.556053	233.0	53.9	-94.7	0.0
2025-01-17 12:54:05.676265	233.8	54.1	-94.7	0.0
2025-01-17 12:54:06.798534	234.5	54.2	-94.6	0.0
2025-01-17 12:54:07.921197	235.3	54.4	-94.4	0.0
2025-01-17 12:54:09.041629	236.1	54.6	-94.7	0.0
2025-01-17 12:54:10.164527	236.9	54.7	-94.6	0.0
2025-01-17 12:54:11.285777	237.7	54.9	-94.9	0.0
2025-01-17 12:54:12.406149	238.5	55.0	-95.0	0.0
2025-01-17 12:54:13.526308	239.4	55.2	-94.7	0.0
2025-01-17 12:54:14.646519	240.2	55.3	-94.9	0.0
2025-01-17 12:54:15.768452	241.0	55.4	-94.7	0.0
2025-01-17 12:54:16.889160	241.9	55.6	-94.8	0.0
2025-01-17 12:54:18.010226	242.7	55.7	-95.1	0.0
2025-01-17 12:54:19.130550	243.6	55.8	-95.0	0.0
2025-01-17 12:54:20.250098	244.4	55.9	-94.7	0.0
2025-01-17 12:54:21.370714	245.3	56.0	-94.8	0.0
2025-01-17 12:54:22.492362	246.2	56.1	-95.0	0.0
2025-01-17 12:54:23.611633	247.1	56.2	-95.0	0.0
2025-01-17 12:54:24.732177	248.0	56.3	-94.7	0.0
2025-01-17 12:54:25.853832	248.9	56.3	-94.8	0.0
2025-01-17 12:54:26.975824	249.8	56.4	-94.8	0.0
2025-01-17 12:54:28.098728	250.7	56.5	-95.2	0.0
2025-01-17 12:54:29.219115	251.6	56.5	-95.1	0.0
2025-01-17 12:54:30.340492	252.5	56.6	-95.0	0.0
2025-01-17 12:54:31.463537	253.4	56.6	-94.9	0.0
2025-01-17 12:54:32.583706	254.3	56.6	-94.8	0.0
2025-01-17 12:54:33.705304	255.2	56.7	-94.7	0.0
2025-01-17 12:54:34.827603	256.2	56.7	-94.6	0.0
2025-01-17 12:54:35.950469	257.1	56.7	-94.7	0.0
2025-01-17 12:54:37.071621	258.0	56.7	-94.9	0.0
2025-01-17 12:54:38.193273	258.9	56.7	-94.6	0.0
2025-01-17 12:54:39.314057	259.8	56.7	-94.7	0.0
2025-01-17 12:54:40.438596	260.8	56.7	-94.8	0.0
2025-01-17 12:54:41.561220	261.7	56.6	-94.8	0.0
2025-01-17 12:54:42.682771	262.6	56.6	-94.9	0.0
2025-01-17 12:54:43.803939	263.5	56.6	-94.7	0.0
2025-01-17 12:54:44.925095	264.4	56.5	-94.7	0.0
2025-01-17 12:54:46.044438	265.3	56.5	-94.8	0.0
2025-01-17 12:54:47.168283	266.3	56.4	-94.9	0.0
2025-01-17 12:54:48.290782	267.2	56.4	-94.6	0.0
2025-01-17 12:54:49.413307	268.1	56.3	-94.8	0.0
2025-01-17 12:54:50.535104	268.9	56.2	-94.8	0.0
2025-01-17 12:54:51.656345	269.8	56.1	-95.0	0.0
2025-01-17 12:54:52.774596	270.7	56.0	-94.8	0.0
2025-01-17 12:54:53.893651	271.6	55.9	-94.7	0.0
2025-01-17 12:54:55.012646	272.5	55.8	-94.8	0.0
2025-01-17 12:54:56.132901	273.3	55.7	-94.8	0.0
2025-01-17 12:54:57.252889	274.2	55.6	-94.9	0.0
2025-01-17 12:54:58.374066	275.0	55.5	-94.8	0.0
2025-01-17 12:54:59.496770	275.9	55.4	-94.9	0.0
2025-01-17 12:55:00.621080	276.7	55.2	-94.9	0.0
2025-01-17 12:55:01.744864	277.5	55.1	-95.1	0.0
2025-01-17 12:55:02.866576	278.3	55.0	-94.8	0.0
2025-01-17 12:55:03.986258	279.2	54.8	-94.7	0.0
2025-01-17 12:55:05.108894	280.0	54.7	-94.7	0.0
2025-01-17 12:55:06.229546	280.7	54.5	-94.9	0.0
2025-01-17 12:55:07.349891	281.5	54.3	-94.7	0.0
2025-01-17 12:55:08.471594	282.3	54.2	-95.0	0.0
2025-01-17 12:55:09.594247	283.1	54.0	-94.9	0.0
2025-01-17 12:55:10.716425	283.8	53.8	-95.1	0.0
2025-01-17 12:55:11.838825	284.6	53.6	-94.9	0.0
2025-01-17 12:55:12.958062	285.3	53.5	-94.6	0.0
2025-01-17 12:55:14.080345	286.0	53.3	-94.7	0.0
2025-01-17 12:55:15.202587	286.8	53.1	-94.9	0.0
2025-01-17 12:55:16.325077	287.5	52.9	-94.9	0.0
2025-01-17 12:55:17.448365	288.2	52.7	-95.0	0.0
2025-01-17 12:55:18.570954	288.9	52.5	-94.7	0.0
2025-01-17 12:55:19.692882	289.5	52.3	-94.8	0.0
2025-01-17 12:55:20.814198	290.2	52.1	-94.7	0.0
2025-01-17 12:55:21.935512	290.9	51.8	-94.8	0.0
2025-01-17 12:55:23.058508	291.5	51.6	-94.6	0.0
2025-01-17 12:55:24.180846	292.2	51.4	-94.6	0.0
2025-01-17 12:55:25.303394	292.8	51.2	-94.8	0.0
2025-01-17 12:55:26.422781	293.4	51.0	-94.9	0.0
2025-01-17 12:55:27.541711	294.1	50.7	-95.0	0.0
2025-01-17 12:55:28.664616	294.7	50.5	-95.0	0.0
2025-01-17 12:55:29.787002	295.3	50.3	-95.0	0.0
2025-01-17 12:55:30.906708	295.8	50.0	-94.7	0.0
2025-01-17 12:55:32.029057	296.4	49.8	-94.8	0.0
2025-01-17 12:55:33.150799	297.0	49.6	-95.1	0.0
2025-01-17 12:55:34.270709	297.6	49.3	-95.0	0.0
2025-01-17 12:55:35.391957	298.1	49.1	-95.2	0.0
2025-01-17 12:55:36.511638	298.7	48.9	-95.1	0.0
2025-01-17 12:55:37.632932	299.2	48.6	-94.9	0.0
2025-01-17 12:55:38.752667	299.7	48.4	-95.0	0.0
2025-01-17 12:55:39.871716	300.2	48.1	-95.2	0.0
2025-01-17 12:55:40.992907	300.7	47.9	-95.2	0.0
2025-01-17 12:55:42.113351	301.2	47.6	-94.7	0.0
2025-01-17 12:55:43.235432	301.7	47.4	-94.9	0.0
2025-01-17 12:55:44.357193	302.2	47.1	-95.2	0.0
2025-01-17 12:55:45.478811	302.7	46.9	-95.1	0.0
2025-01-17 12:55:46.601452	303.2	46.6	-95.1	0.0
2025-01-17 12:55:47.722754	303.6	46.4	-95.0	0.0
2025-01-17 12:55:48.842593	304.1	46.1	-94.9	0.0
2025-01-17 12:55:49.964460	304.6	45.9	-95.0	0.0
2025-01-17 12:55:51.085595	305.0	45.6	-95.0	0.0
2025-01-17 12:55:52.206030	305.4	45.4	-95.0	0.0
2025-01-17 12:55:53.328378	305.9	45.1	-94.8	0.0
2025-01-17 12:55:54.450735	306.3	44.9	-95.0	0.0
2025-01-17 12:55:55.571451	306.7	44.6	-95.0	0.0
2025-01-17 12:55:56.691080	307.1	44.4	-94.7	0.0
2025-01-17 12:55:57.811617	307.5	44.1	-94.8	0.0
2025-01-17 12:55:58.931842	307.9	43.9	-94.9	0.0
2025-01-17 12:56:00.053755	308.3	43.6	-95.1	0.0
2025-01-17 12:56:01.175182	308.7	43.4	-94.9	0.0
2025-01-17 12:56:02.295764	309.1	43.1	-94.5	0.0
2025-01-17 12:56:03.416947	309.4	42.9	-94.9	0.0
2025-01-17 12:56:04.539521	309.8	42.6	-94.8	0.0
2025-01-17 12:56:05.660309	310.2	42.4	-94.7	0.0
2025-01-17 12:56:06.780066	310.5	42.1	-95.0	0.0
2025-01-17 12:56:07.901086	310.9	41.9	-94.7	0.0
2025-01-17 12:56:09.022616	311.2	41.6	-94.9	0.0
2025-01-17 12:56:10.142429	311.6	41.4	-94.7	0.0
2025-01-17 12:56:11.264528	311.9	41.1	-94.8	0.0
2025-01-17 12:56:12.383836	312.2	40.9	-94.9	0.0
2025-01-17 12:56:13.506669	312.6	40.7	-94.9	0.0
2025-01-17 12:56:14.626718	312.9	40.4	-94.7	0.0
2025-01-17 12:56:15.747760	313.2	40.2	-94.6	0.0
2025-01-17 12:56:16.870488	313.5	39.9	-94.7	0.0
2025-01-17 12:56:17.993410	313.8	39.7	-94.8	0.0
2025-01-17 12:56:19.114497	314.1	39.4	-94.9	0.0
2025-01-17 12:56:20.236870	314.4	39.2	-95.1	0.0
2025-01-17 12:56:21.359778	314.7	39.0	-94.9	0.0
2025-01-17 12:56:22.478504	315.0	38.7	-95.1	0.0
2025-01-17 12:56:23.599921	315.3	38.5	-94.8	0.0
2025-01-17 12:56:24.719863	315.6	38.2	-94.9	0.0
2025-01-17 12:56:25.841929	315.9	38.0	-95.0	0.0
2025-01-17 12:56:26.964446	316.1	37.8	-95.1	0.0
2025-01-17 12:56:28.085616	316.4	37.5	-94.9	0.0
2025-01-17 12:56:29.205360	316.7	37.3	-95.0	0.0
2025-01-17 12:56:30.327378	316.9	37.1	-94.9	0.0
2025-01-17 12:56:31.449827	317.2	36.8	-94.9	0.0
2025-01-17 12:56:32.569195	317.4	36.6	-94.9	0.0
2025-01-17 12:56:33.691696	317.7	36.4	-95.0	0.0
2025-01-17 12:56:34.810595	317.9	36.2	-95.0	0.0
2025-01-17 12:56:35.932951	318.2	35.9	-94.9	0.0
2025-01-17 12:56:37.053549	318.4	35.7	-94.9	0.0
2025-01-17 12:56:38.176095	318.7	35.5	-94.9	0.0
2025-01-17 12:56:39.298585	318.9	35.3	-94.9	0.0
2025-01-17 12:56:40.419187	319.1	35.0	-94.8	0.0
2025-01-17 12:56:41.540750	319.4	34.8	-94.7	0.0
2025-01-17 12:56:42.661739	319.6	34.6	-95.1	0.0
2025-01-17 12:56:43.781312	319.8	34.4	-94.9	0.0
2025-01-17 12:56:44.904505	320.0	34.2	-94.8	0.0
2025-01-17 12:56:46.026856	320.2	33.9	-95.0	0.0
2025-01-17 12:56:47.144710	320.5	33.7	-95.0	0.0
2025-01-17 12:56:48.265520	320.7	33.5	-95.0	0.0
2025-01-17 12:56:49.389319	320.9	33.3	-95.1	0.0
2025-01-17 12:56:50.510458	321.1	33.1	-95.0	0.0
2025-01-17 12:56:51.632543	321.3	32.9	-94.8	0.0
2025-01-17 12:56:52.753201	321.5	32.7	-94.9	0.0
2025-01-17 12:56:53.874409	321.7	32.4	-95.0	0.0
2025-01-17 12:56:54.994497	321.9	32.2	-94.9	0.0
2025-01-17 12:56:56.115300	322.1	32.0	-94.7	0.0
2025-01-17 12:56:57.235626	322.3	31.8	-94.9	0.0
2025-01-17 12:56:58.358577	322.4	31.6	-94.8	0.0
2025-01-17 12:56:59.480185	322.6	31.4	-94.6	0.0
2025-01-17 12:57:00.599740	322.8	31.2	-94.9	0.0
2025-01-17 12:57:01.719185	323.0	31.0	-94.8	0.0
2025-01-17 12:57:02.839617	323.2	30.8	-94.8	0.0
2025-01-17 12:57:03.960105	323.4	30.6	-94.9	0.0
2025-01-17 12:57:05.080769	323.5	30.4	-94.8	0.0
2025-01-17 12:57:06.202609	323.7	30.2	-94.9	0.0
2025-01-17 12:57:07.325853	323.9	30.0	-95.1	0.0
2025-01-17 12:57:08.445876	324.0	29.8	-94.8	0.0
2025-01-17 12:57:09.568160	324.2	29.6	-94.6	0.0
2025-01-17 12:57:10.688741	324.4	29.4	-94.8	0.0
2025-01-17 12:57:11.810830	324.5	29.2	-94.8	0.0
2025-01-17 12:57:12.931717	324.7	29.1	-94.8	0.0
2025-01-17 12:57:14.052761	324.9	28.9	-94.8	0.0
2025-01-17 12:57:15.172820	325.0	28.7	-94.6	0.0
2025-01-17 12:57:16.294743	325.2	28.5	-94.8	0.0
2025-01-17 12:57:17.415497	325.3	28.3	-94.7	0.0
2025-01-17 12:57:18.535689	325.5	28.1	-94.7	0.0
2025-01-17 12:57:19.655516	325.6	27.9	-94.9	0.0
2025-01-17 12:57:20.776316	325.8	27.7	-94.7	0.0
2025-01-17 12:57:21.897788	325.9	27.6	-94.8	0.0
2025-01-17 12:57:23.021604	326.1	27.4	-95.0	0.0
2025-01-17 12:57:24.140002	326.2	27.2	-94.9	0.0
2025-01-17 12:57:25.262618	326.4	27.0	-94.8	0.0
2025-01-17 12:57:26.382752	326.5	26.8	-94.6	0.0
2025-01-17 12:57:27.504913	326.6	26.7	-94.9	0.0
2025-01-17 12:57:28.624430	326.8	26.5	-94.9	0.0
2025-01-17 12:57:29.744766	326.9	26.3	-94.7	0.0
2025-01-17 12:57:30.868176	327.0	26.1	-95.0	0.0
2025-01-17 12:57:31.991838	327.2	26.0	-95.0	0.0
2025-01-17 12:57:33.113108	327.3	25.8	-95.0	0.0
2025-01-17 12:57:34.235595	327.4	25.6	-94.9	0.0
2025-01-17 12:57:35.357091	327.6	25.5	-95.0	0.0
2025-01-17 12:57:36.479599	327.7	25.3	-94.9	0.0
2025-01-17 12:57:37.599987	327.8	25.1	-95.0	0.0
2025-01-17 12:57:38.722059	328.0	25.0	-94.6	0.0
2025-01-17 12:57:39.842910	328.1	24.8	-94.7	0.0
2025-01-17 12:57:40.964784	328.2	24.6	-94.6	0.0
2025-01-17 12:57:42.087092	328.3	24.5	-94.6	0.0
2025-01-17 12:57:43.209085	328.4	24.3	-94.6	0.0
2025-01-17 12:57:44.329432	328.6	24.1	-94.7	0.0
2025-01-17 12:57:45.451739	328.7	24.0	-94.7	0.0
2025-01-17 12:57:46.573734	328.8	23.8	-94.5	0.0
2025-01-17 12:57:47.696813	328.9	23.6	-94.6	0.0
2025-01-17 12:57:48.817559	329.0	23.5	-94.5	0.0
2025-01-17 12:57:49.938852	329.1	23.3	-94.8	0.0
2025-01-17 12:57:51.060332	329.3	23.2	-94.8	0.0
2025-01-17 12:57:52.180698	329.4	23.0	-95.1	0.0
2025-01-17 12:57:53.302644	329.5	22.9	-95.0	0.0
2025-01-17 12:57:54.422532	329.6	22.7	-94.5	0.0
2025-01-17 12:57:55.544425	329.7	22.5	-94.8	0.0
2025-01-17 12:57:56.666484	329.8	22.4	-95.0	0.0
2025-01-17 12:57:57.790465	329.9	22.2	-94.8	0.0
2025-01-17 12:57:58.912634	330.0	22.1	-94.7	0.0
2025-01-17 12:58:00.033815	330.1	21.9	-94.7	0.0
2025-01-17 12:58:01.154887	330.2	21.8	-94.9	0.0
2025-01-17 12:58:02.277605	330.3	21.6	-95.1	0.0
2025-01-17 12:58:03.397648	330.4	21.5	-94.8	0.0
2025-01-17 12:58:04.519710	330.5	21.3	-94.8	0.0
2025-01-17 12:58:05.642119	330.6	21.2	-94.9	0.0
2025-01-17 12:58:06.762765	330.7	21.1	-94.8	0.0
2025-01-17 12:58:07.881783	330.8	20.9	-94.8	0.0
2025-01-17 12:58:09.001644	330.9	20.8	-95.0	0.0
2025-01-17 12:58:10.122740	331.0	20.6	-95.0	0.0
2025-01-17 12:58:11.242844	331.1	20.5	-95.0	0.0
2025-01-17 12:58:12.363567	331.2	20.3	-95.0	0.0
2025-01-17 12:58:13.484702	331.3	20.2	-94.8	0.0
2025-01-17 12:58:14.607946	331.4	20.1	-94.9	0.0
2025-01-17 12:58:15.730333	331.5	19.9	-94.7	0.0
2025-01-17 12:58:16.851634	331.6	19.8	-94.9	0.0
2025-01-17 12:58:17.973548	331.7	19.6	-94.9	0.0
2025-01-17 12:58:19.094303	331.7	19.5	-95.0	0.0
2025-01-17 12:58:20.216375	331.8	19.4	-94.8	0.0
2025-01-17 12:58:21.338877	331.9	19.2	-94.9	0.0
2025-01-17 12:58:22.458819	332.0	19.1	-95.1	0.0
2025-01-17 12:58:23.579331	332.1	19.0	-94.9	0.0
2025-01-17 12:58:24.700952	332.2	18.8	-94.7	0.0
2025-01-17 12:58:25.822095	332.3	18.7	-95.1	0.0
2025-01-17 12:58:26.942696	332.4	18.6	-94.9	0.0
2025-01-17 12:58:28.064684	332.4	18.4	-94.9	0.0
2025-01-17 12:58:29.185877	332.5	18.3	-94.8	0.0
2025-01-17 12:58:30.306679	332.6	18.2	-94.6	0.0
2025-01-17 12:58:31.429734	332.7	18.0	-94.5	0.0
2025-01-17 12:58:32.553363	332.8	17.9	-95.0	0.0
2025-01-17 12:58:33.674601	332.8	17.8	-94.7	0.0
2025-01-17 12:58:34.795307	332.9	17.6	-94.8	0.0
2025-01-17 12:58:35.917267	333.0	17.5	-94.7	0.0
2025-01-17 12:58:37.038469	333.1	17.4	-95.0	0.0
2025-01-17 12:58:38.161539	333.2	17.3	-95.1	0.0
2025-01-17 12:58:39.284918	333.2	17.1	-95.0	0.0
2025-01-17 12:58:40.405516	333.3	17.0	-95.0	0.0
2025-01-17 12:58:41.525520	333.4	16.9	-94.8	0.0
2025-01-17 12:58:42.646826	333.5	16.8	-95.1	0.0
2025-01-17 12:58:43.769622	333.5	16.6	-95.0	0.0
2025-01-17 12:58:44.890720	333.6	16.5	-95.2	0.0
2025-01-17 12:58:46.012091	333.7	16.4	-95.2	0.0
2025-01-17 12:58:47.133617	333.8	16.3	-95.1	0.0
2025-01-17 12:58:48.254573	333.8	16.1	-95.0	0.0
2025-01-17 12:58:49.375007	333.9	16.0	-94.9	0.0
2025-01-17 12:58:50.497549	334.0	15.9	-94.8	0.0
2025-01-17 12:58:51.617020	334.1	15.8	-95.1	0.0
2025-01-17 12:58:52.739293	334.1	15.7	-95.0	0.0
2025-01-17 12:58:53.859867	334.2	15.5	-95.2	0.0
2025-01-17 12:58:54.979775	334.3	15.4	-94.9	0.0
2025-01-17 12:58:56.099478	334.3	15.3	-95.0	0.0
2025-01-17 12:58:57.216847	334.4	15.2	-95.0	0.0
2025-01-17 12:58:58.339690	334.5	15.1	-94.9	0.0
2025-01-17 12:58:59.460555	334.5	15.0	-94.9	0.0
2025-01-17 12:59:00.582621	334.6	14.8	-94.9	0.0
2025-01-17 12:59:01.700956	334.7	14.7	-95.3	0.0
2025-01-17 12:59:02.820445	334.7	14.6	-95.1	0.0
2025-01-17 12:59:03.940627	334.8	14.5	-95.0	0.0
2025-01-17 12:59:05.064568	334.9	14.4	-94.8	0.0
2025-01-17 12:59:06.182789	334.9	14.3	-95.3	0.0
2025-01-17 12:59:07.304942	335.0	14.2	-95.2	0.0
2025-01-17 12:59:08.425213	335.1	14.1	-95.1	0.0
2025-01-17 12:59:09.544771	335.1	13.9	-94.9	0.0
2025-01-17 12:59:10.666727	335.2	13.8	-94.9	0.0
2025-01-17 12:59:11.790295	335.2	13.7	-95.2	0.0
2025-01-17 12:59:12.910759	335.3	13.6	-94.7	0.0
2025-01-17 12:59:14.032730	335.4	13.5	-94.5	0.0
2025-01-17 12:59:15.154605	335.4	13.4	-94.8	0.0
2025-01-17 12:59:16.274788	335.5	13.3	-94.8	0.0
2025-01-17 12:59:17.396764	335.5	13.2	-94.8	0.0
2025-01-17 12:59:18.515992	335.6	13.1	-94.6	0.0
2025-01-17 12:59:19.634994	335.7	13.0	-95.0	0.0
2025-01-17 12:59:20.756770	335.7	12.9	-94.9	0.0
2025-01-17 12:59:21.876780	335.8	12.8	-94.7	0.0
2025-01-17 12:59:22.996775	335.8	12.7	-94.6	0.0
2025-01-17 12:59:24.117224	335.9	12.5	-94.8	0.0
2025-01-17 12:59:25.237564	336.0	12.4	-95.0	0.0
2025-01-17 12:59:26.358591	336.0	12.3	-94.8	0.0
2025-01-17 12:59:27.481148	336.1	12.2	-94.8	0.0
2025-01-17 12:59:28.601401	336.1	12.1	-94.4	0.0
2025-01-17 12:59:29.723720	336.2	12.0	-94.5	0.0
2025-01-17 12:59:30.844849	336.2	11.9	-94.7	0.0
2025-01-17 12:59:31.964338	336.3	11.8	-94.8	0.0
2025-01-17 12:59:33.084032	336.4	11.7	-94.7	0.0
2025-01-17 12:59:34.207302	336.4	11.6	-94.7	0.0
2025-01-17 12:59:35.329947	336.5	11.5	-94.6	0.0
2025-01-17 12:59:36.451623	336.5	11.4	-94.8	0.0
2025-01-17 12:59:37.573153	336.6	11.3	-94.8	0.0
2025-01-17 12:59:38.693434	336.6	11.2	-95.0	0.0
2025-01-17 12:59:39.814726	336.7	11.1	-94.8	0.0
2025-01-17 12:59:40.936691	336.7	11.0	-95.1	0.0
2025-01-17 12:59:42.057832	336.8	10.9	-94.9	0.0
2025-01-17 12:59:43.177741	336.8	10.8	-94.7	0.0
2025-01-17 12:59:44.299798	336.9	10.7	-95.0	0.0
2025-01-17 12:59:45.421362	336.9	10.6	-94.9	0.0
2025-01-17 12:59:46.539470	337.0	10.5	-95.2	0.0
2025-01-17 12:59:47.659628	337.0	10.4	-94.7	0.0
2025-01-17 12:59:48.778603	337.1	10.3	-94.7	0.0
2025-01-17 12:59:49.900581	337.1	10.2	-95.1	0.0
2025-01-17 12:59:51.022028	337.2	10.1	-95.1	0.0
#Closed at: 2025-01-17 12:49:19.380417