passes_logs/2025/01/17/planumMaritime01/planumMaritime01__20250117_165229_NOAA_19_rec.log

#Pass ID: 20250117_165229_NOAA 19
#Satellite: NOAA 19
#Configuration: NOAA 19
#Start time: 2025-01-17 16:52:34.311143

#LorettStation: 1.0.0 05.05.2024
#Station: planumMaritime01
#Location: 37.49445 lon 55.92918 lat
#TLE: 1 33591U 09005A   25017.12803845  .00000314  00000+0  19161-3 0  9999
#TLE: 2 33591  99.0192  80.9069 0014403  51.8715 308.3753 14.13261185821848

#Time	Az	El	Level	SNR
2025-01-17 16:52:36.474122	116.3	10.2	-94.6	0.0
2025-01-17 16:52:37.594738	116.2	10.3	-94.8	0.0
2025-01-17 16:52:38.715169	116.1	10.3	-94.7	0.0
2025-01-17 16:52:39.836724	116.0	10.4	-94.7	0.0
2025-01-17 16:52:40.958459	115.9	10.5	-94.5	0.0
2025-01-17 16:52:42.081371	115.8	10.6	-94.5	0.0
2025-01-17 16:52:43.201993	115.7	10.7	-94.8	0.0
2025-01-17 16:52:44.321876	115.6	10.8	-94.7	0.0
2025-01-17 16:52:45.444072	115.5	10.9	-94.8	0.0
2025-01-17 16:52:46.564681	115.4	10.9	-94.5	0.0
2025-01-17 16:52:47.686223	115.3	11.0	-94.4	0.0
2025-01-17 16:52:48.806503	115.2	11.1	-94.6	0.0
2025-01-17 16:52:49.928125	115.1	11.2	-94.5	0.0
2025-01-17 16:52:51.049578	115.0	11.3	-94.5	0.0
2025-01-17 16:52:52.169983	114.9	11.4	-94.7	0.0
2025-01-17 16:52:53.288985	114.8	11.5	-94.6	0.0
2025-01-17 16:52:54.410670	114.7	11.6	-94.7	0.0
2025-01-17 16:52:55.531602	114.6	11.7	-94.7	0.0
2025-01-17 16:52:56.653236	114.5	11.7	-94.6	0.0
2025-01-17 16:52:57.772599	114.4	11.8	-94.7	0.0
2025-01-17 16:52:58.893487	114.3	11.9	-94.6	0.0
2025-01-17 16:53:00.014445	114.1	12.0	-94.4	0.0
2025-01-17 16:53:01.135312	114.0	12.1	-94.7	0.0
2025-01-17 16:53:02.259239	113.9	12.2	-94.5	0.0
2025-01-17 16:53:03.381504	113.8	12.3	-94.6	0.0
2025-01-17 16:53:04.503393	113.7	12.4	-94.7	0.0
2025-01-17 16:53:05.624360	113.6	12.5	-94.9	0.0
2025-01-17 16:53:06.744134	113.5	12.6	-95.1	0.0
2025-01-17 16:53:07.867904	113.3	12.7	-94.8	0.0
2025-01-17 16:53:08.987453	113.2	12.7	-94.7	0.0
2025-01-17 16:53:10.108812	113.1	12.8	-94.9	0.0
2025-01-17 16:53:11.230442	113.0	12.9	-94.9	0.0
2025-01-17 16:53:12.350543	112.9	13.0	-94.9	0.0
2025-01-17 16:53:13.469837	112.8	13.1	-94.9	0.0
2025-01-17 16:53:14.590203	112.6	13.2	-94.8	0.0
2025-01-17 16:53:15.711509	112.5	13.3	-94.7	0.0
2025-01-17 16:53:16.832770	112.4	13.4	-95.0	0.0
2025-01-17 16:53:17.954706	112.3	13.5	-95.1	0.0
2025-01-17 16:53:19.074009	112.1	13.6	-95.0	0.0
2025-01-17 16:53:20.194277	112.0	13.7	-94.6	0.0
2025-01-17 16:53:21.316771	111.9	13.8	-94.6	0.0
2025-01-17 16:53:22.437276	111.8	13.9	-94.9	0.0
2025-01-17 16:53:23.557836	111.6	14.0	-95.1	0.0
2025-01-17 16:53:24.677389	111.5	14.1	-94.8	0.0
2025-01-17 16:53:25.799651	111.4	14.1	-94.8	0.0
2025-01-17 16:53:26.920897	111.3	14.2	-94.7	0.0
2025-01-17 16:53:28.042003	111.1	14.3	-94.8	0.0
2025-01-17 16:53:29.161276	111.0	14.4	-94.9	0.0
2025-01-17 16:53:30.283294	110.9	14.5	-94.7	0.0
2025-01-17 16:53:31.402441	110.7	14.6	-94.8	0.0
2025-01-17 16:53:32.523719	110.6	14.7	-94.8	0.0
2025-01-17 16:53:33.644568	110.5	14.8	-94.9	0.0
2025-01-17 16:53:34.766276	110.3	14.9	-94.9	0.0
2025-01-17 16:53:35.890758	110.2	15.0	-94.7	0.0
2025-01-17 16:53:37.010115	110.1	15.1	-94.7	0.0
2025-01-17 16:53:38.131515	109.9	15.2	-94.7	0.0
2025-01-17 16:53:39.252529	109.8	15.3	-94.6	0.0
2025-01-17 16:53:40.374486	109.6	15.4	-94.5	0.0
2025-01-17 16:53:41.497326	109.5	15.5	-94.4	0.0
2025-01-17 16:53:42.618322	109.4	15.6	-94.6	0.0
2025-01-17 16:53:43.739241	109.2	15.7	-94.4	0.0
2025-01-17 16:53:44.859264	109.1	15.8	-94.6	0.0
2025-01-17 16:53:45.981281	108.9	15.9	-94.4	0.0
2025-01-17 16:53:47.101512	108.8	16.0	-94.4	0.0
2025-01-17 16:53:48.222899	108.6	16.1	-94.7	0.0
2025-01-17 16:53:49.343777	108.5	16.2	-94.7	0.0
2025-01-17 16:53:50.465323	108.3	16.3	-94.6	0.0
2025-01-17 16:53:51.587151	108.2	16.4	-94.7	0.0
2025-01-17 16:53:52.708666	108.0	16.5	-94.3	0.0
2025-01-17 16:53:53.831217	107.9	16.6	-94.6	0.0
2025-01-17 16:53:54.950709	107.7	16.7	-94.8	0.0
2025-01-17 16:53:56.071486	107.6	16.8	-94.8	0.0
2025-01-17 16:53:57.192138	107.4	16.9	-94.8	0.0
2025-01-17 16:53:58.312162	107.3	17.0	-94.6	0.0
2025-01-17 16:53:59.432454	107.1	17.1	-94.5	0.0
2025-01-17 16:54:00.554307	107.0	17.2	-94.5	0.0
2025-01-17 16:54:01.675123	106.8	17.3	-94.9	0.0
2025-01-17 16:54:02.796278	106.6	17.4	-94.8	0.0
2025-01-17 16:54:03.916488	106.5	17.5	-94.7	0.0
2025-01-17 16:54:05.038822	106.3	17.6	-94.7	0.0
2025-01-17 16:54:06.160681	106.2	17.7	-95.0	0.0
2025-01-17 16:54:07.284049	106.0	17.8	-94.8	0.0
2025-01-17 16:54:08.403618	105.8	17.9	-94.8	0.0
2025-01-17 16:54:09.525339	105.7	18.0	-94.9	0.0
2025-01-17 16:54:10.644426	105.5	18.1	-94.8	0.0
2025-01-17 16:54:11.765600	105.3	18.2	-94.9	0.0
2025-01-17 16:54:12.891692	105.1	18.4	-94.7	0.0
2025-01-17 16:54:14.014679	105.0	18.5	-94.6	0.0
2025-01-17 16:54:15.136543	104.8	18.6	-94.4	0.0
2025-01-17 16:54:16.255562	104.6	18.7	-94.6	0.0
2025-01-17 16:54:17.376413	104.5	18.8	-94.7	0.0
2025-01-17 16:54:18.497587	104.3	18.9	-94.5	0.0
2025-01-17 16:54:19.618676	104.1	19.0	-94.5	0.0
2025-01-17 16:54:20.739082	103.9	19.1	-94.8	0.0
2025-01-17 16:54:21.861577	103.7	19.2	-94.6	0.0
2025-01-17 16:54:22.985459	103.6	19.3	-94.6	0.0
2025-01-17 16:54:24.105723	103.4	19.4	-94.6	0.0
2025-01-17 16:54:25.226282	103.2	19.5	-94.7	0.0
2025-01-17 16:54:26.346069	103.0	19.6	-94.8	0.0
2025-01-17 16:54:27.467487	102.8	19.7	-94.7	0.0
2025-01-17 16:54:28.588457	102.6	19.8	-94.6	0.0
2025-01-17 16:54:29.708776	102.4	19.9	-94.8	0.0
2025-01-17 16:54:30.829512	102.3	20.0	-94.7	0.0
2025-01-17 16:54:31.949749	102.1	20.1	-94.7	0.0
2025-01-17 16:54:33.073090	101.9	20.3	-94.7	0.0
2025-01-17 16:54:34.194278	101.7	20.4	-94.8	0.0
2025-01-17 16:54:35.312995	101.5	20.5	-94.7	0.0
2025-01-17 16:54:36.435434	101.3	20.6	-94.7	0.0
2025-01-17 16:54:37.557719	101.1	20.7	-94.8	0.0
2025-01-17 16:54:38.677877	100.9	20.8	-94.8	0.0
2025-01-17 16:54:39.797578	100.7	20.9	-94.7	0.0
2025-01-17 16:54:40.917299	100.5	21.0	-94.8	0.0
2025-01-17 16:54:42.040045	100.3	21.1	-94.8	0.0
2025-01-17 16:54:43.163682	100.1	21.2	-94.8	0.0
2025-01-17 16:54:44.283691	99.9	21.3	-94.8	0.0
2025-01-17 16:54:45.404022	99.7	21.4	-94.8	0.0
2025-01-17 16:54:46.523780	99.4	21.5	-94.8	0.0
2025-01-17 16:54:47.645763	99.2	21.6	-94.9	0.0
2025-01-17 16:54:48.768840	99.0	21.8	-94.9	0.0
2025-01-17 16:54:49.891324	98.8	21.9	-94.8	0.0
2025-01-17 16:54:51.015490	98.6	22.0	-94.8	0.0
2025-01-17 16:54:52.135882	98.4	22.1	-94.9	0.0
2025-01-17 16:54:53.256188	98.2	22.2	-94.8	0.0
2025-01-17 16:54:54.377957	97.9	22.3	-94.9	0.0
2025-01-17 16:54:55.501699	97.7	22.4	-94.9	0.0
2025-01-17 16:54:56.623777	97.5	22.5	-95.0	0.0
2025-01-17 16:54:57.744681	97.3	22.6	-94.8	0.0
2025-01-17 16:54:58.866049	97.0	22.7	-94.8	0.0
2025-01-17 16:54:59.987366	96.8	22.8	-95.0	0.0
2025-01-17 16:55:01.109570	96.6	22.9	-95.0	0.0
2025-01-17 16:55:02.229092	96.3	23.0	-95.0	0.0
2025-01-17 16:55:03.349378	96.1	23.2	-94.8	0.0
2025-01-17 16:55:04.470617	95.9	23.3	-94.8	0.0
2025-01-17 16:55:05.592099	95.6	23.4	-94.8	0.0
2025-01-17 16:55:06.710461	95.4	23.5	-94.9	0.0
2025-01-17 16:55:07.833577	95.2	23.6	-94.8	0.0
2025-01-17 16:55:08.953704	94.9	23.7	-94.8	0.0
2025-01-17 16:55:10.073693	94.7	23.8	-94.7	0.0
2025-01-17 16:55:11.197122	94.4	23.9	-94.9	0.0
2025-01-17 16:55:12.318577	94.2	24.0	-94.9	0.0
2025-01-17 16:55:13.438964	93.9	24.1	-94.9	0.0
2025-01-17 16:55:14.560977	93.7	24.2	-94.6	0.0
2025-01-17 16:55:15.682094	93.4	24.3	-94.6	0.0
2025-01-17 16:55:16.802411	93.2	24.4	-94.9	0.0
2025-01-17 16:55:17.925046	92.9	24.5	-94.7	0.0
2025-01-17 16:55:19.044756	92.7	24.6	-94.5	0.0
2025-01-17 16:55:20.167341	92.4	24.8	-94.5	0.0
2025-01-17 16:55:21.286954	92.2	24.9	-94.9	0.0
2025-01-17 16:55:22.407280	91.9	25.0	-94.6	0.0
2025-01-17 16:55:23.529832	91.6	25.1	-94.8	0.0
2025-01-17 16:55:24.650512	91.4	25.2	-94.6	0.0
2025-01-17 16:55:25.770991	91.1	25.3	-94.7	0.0
2025-01-17 16:55:26.893659	90.8	25.4	-94.6	0.0
2025-01-17 16:55:28.015640	90.6	25.5	-95.0	0.0
2025-01-17 16:55:29.136663	90.3	25.6	-94.7	0.0
2025-01-17 16:55:30.257846	90.0	25.7	-94.7	0.0
2025-01-17 16:55:31.379053	89.7	25.8	-94.7	0.0
2025-01-17 16:55:32.498654	89.5	25.9	-94.6	0.0
2025-01-17 16:55:33.620924	89.2	26.0	-95.0	0.0
2025-01-17 16:55:34.741492	88.9	26.1	-94.9	0.0
2025-01-17 16:55:35.862834	88.6	26.2	-95.0	0.0
2025-01-17 16:55:36.983661	88.3	26.3	-94.7	0.0
2025-01-17 16:55:38.105755	88.0	26.4	-94.8	0.0
2025-01-17 16:55:39.224938	87.8	26.5	-94.8	0.0
2025-01-17 16:55:40.346616	87.5	26.6	-95.0	0.0
2025-01-17 16:55:41.467695	87.2	26.7	-94.9	0.0
2025-01-17 16:55:42.587441	86.9	26.8	-94.8	0.0
2025-01-17 16:55:43.708306	86.6	26.9	-94.8	0.0
2025-01-17 16:55:44.830332	86.3	27.0	-94.9	0.0
2025-01-17 16:55:45.951663	86.0	27.1	-95.1	0.0
2025-01-17 16:55:47.071806	85.7	27.2	-95.0	0.0
2025-01-17 16:55:48.194458	85.4	27.3	-94.7	0.0
2025-01-17 16:55:49.315677	85.1	27.4	-95.1	0.0
2025-01-17 16:55:50.436163	84.8	27.5	-94.8	0.0
2025-01-17 16:55:51.558507	84.5	27.6	-94.6	0.0
2025-01-17 16:55:52.679447	84.2	27.7	-95.0	0.0
2025-01-17 16:55:53.801193	83.8	27.8	-94.9	0.0
2025-01-17 16:55:54.923439	83.5	27.8	-94.7	0.0
2025-01-17 16:55:56.044431	83.2	27.9	-94.6	0.0
2025-01-17 16:55:57.167402	82.9	28.0	-94.7	0.0
2025-01-17 16:55:58.289591	82.6	28.1	-94.7	0.0
2025-01-17 16:55:59.414622	82.3	28.2	-94.7	0.0
2025-01-17 16:56:00.534527	81.9	28.3	-94.5	0.0
2025-01-17 16:56:01.653877	81.6	28.4	-94.6	0.0
2025-01-17 16:56:02.777397	81.3	28.5	-94.8	0.0
2025-01-17 16:56:03.897565	81.0	28.6	-94.7	0.0
2025-01-17 16:56:05.016737	80.6	28.6	-94.7	0.0
2025-01-17 16:56:06.138488	80.3	28.7	-94.7	0.0
2025-01-17 16:56:07.259653	80.0	28.8	-94.8	0.0
2025-01-17 16:56:08.379593	79.6	28.9	-94.8	0.0
2025-01-17 16:56:09.499907	79.3	29.0	-94.9	0.0
2025-01-17 16:56:10.619567	79.0	29.1	-94.4	0.0
2025-01-17 16:56:11.741836	78.6	29.1	-94.8	0.0
2025-01-17 16:56:12.863588	78.3	29.2	-94.5	0.0
2025-01-17 16:56:13.982334	77.9	29.3	-94.7	0.0
2025-01-17 16:56:15.104451	77.6	29.4	-94.8	0.0
2025-01-17 16:56:16.227381	77.2	29.5	-94.9	0.0
2025-01-17 16:56:17.349172	76.9	29.5	-94.8	0.0
2025-01-17 16:56:18.469563	76.5	29.6	-94.8	0.0
2025-01-17 16:56:19.590754	76.2	29.7	-94.6	0.0
2025-01-17 16:56:20.712060	75.8	29.8	-94.6	0.0
2025-01-17 16:56:21.834541	75.5	29.8	-94.6	0.0
2025-01-17 16:56:22.957959	75.1	29.9	-94.7	0.0
2025-01-17 16:56:24.078700	74.8	30.0	-95.0	0.0
2025-01-17 16:56:25.199856	74.4	30.0	-94.7	0.0
2025-01-17 16:56:26.323096	74.0	30.1	-94.8	0.0
2025-01-17 16:56:27.442390	73.7	30.2	-94.5	0.0
2025-01-17 16:56:28.564523	73.3	30.2	-94.7	0.0
2025-01-17 16:56:29.685288	72.9	30.3	-94.8	0.0
2025-01-17 16:56:30.806866	72.6	30.4	-94.7	0.0
2025-01-17 16:56:31.927659	72.2	30.4	-94.7	0.0
2025-01-17 16:56:33.050664	71.8	30.5	-94.7	0.0
2025-01-17 16:56:34.171500	71.5	30.5	-94.9	0.0
2025-01-17 16:56:35.292666	71.1	30.6	-94.7	0.0
2025-01-17 16:56:36.413095	70.7	30.7	-94.8	0.0
2025-01-17 16:56:37.535149	70.3	30.7	-95.0	0.0
2025-01-17 16:56:38.657152	70.0	30.8	-94.9	0.0
2025-01-17 16:56:39.779623	69.6	30.8	-95.1	0.0
2025-01-17 16:56:40.901485	69.2	30.9	-94.8	0.0
2025-01-17 16:56:42.023045	68.8	30.9	-94.4	0.0
2025-01-17 16:56:43.142237	68.4	31.0	-94.9	0.0
2025-01-17 16:56:44.263569	68.1	31.0	-95.1	0.0
2025-01-17 16:56:45.385065	67.7	31.1	-94.8	0.0
2025-01-17 16:56:46.505578	67.3	31.1	-94.9	0.0
2025-01-17 16:56:47.626371	66.9	31.2	-94.7	0.0
2025-01-17 16:56:48.745183	66.5	31.2	-94.9	0.0
2025-01-17 16:56:49.866915	66.1	31.2	-94.7	0.0
2025-01-17 16:56:50.990053	65.7	31.3	-94.7	0.0
2025-01-17 16:56:52.112445	65.4	31.3	-94.9	0.0
2025-01-17 16:56:53.233490	65.0	31.4	-94.8	0.0
2025-01-17 16:56:54.355469	64.6	31.4	-94.8	0.0
2025-01-17 16:56:55.475559	64.2	31.4	-94.4	0.0
2025-01-17 16:56:56.596789	63.8	31.5	-94.4	0.0
2025-01-17 16:56:57.717750	63.4	31.5	-94.7	0.0
2025-01-17 16:56:58.836505	63.0	31.5	-94.6	0.0
2025-01-17 16:56:59.957327	62.6	31.5	-94.5	0.0
2025-01-17 16:57:01.077568	62.2	31.6	-94.6	0.0
2025-01-17 16:57:02.199479	61.8	31.6	-94.6	0.0
2025-01-17 16:57:03.319667	61.4	31.6	-94.7	0.0
2025-01-17 16:57:04.440895	61.0	31.6	-94.7	0.0
2025-01-17 16:57:05.561966	60.6	31.7	-94.6	0.0
2025-01-17 16:57:06.683619	60.2	31.7	-94.7	0.0
2025-01-17 16:57:07.806557	59.8	31.7	-94.5	0.0
2025-01-17 16:57:08.929029	59.4	31.7	-94.7	0.0
2025-01-17 16:57:10.050520	59.0	31.7	-94.6	0.0
2025-01-17 16:57:11.172673	58.6	31.7	-94.8	0.0
2025-01-17 16:57:12.296129	58.2	31.7	-94.9	0.0
2025-01-17 16:57:13.417995	57.8	31.7	-95.0	0.0
2025-01-17 16:57:14.540645	57.4	31.8	-94.8	0.0
2025-01-17 16:57:15.663326	57.0	31.8	-94.9	0.0
2025-01-17 16:57:16.783347	56.6	31.8	-94.8	0.0
2025-01-17 16:57:17.905744	56.2	31.8	-94.7	0.0
2025-01-17 16:57:19.027812	55.8	31.8	-94.4	0.0
2025-01-17 16:57:20.148172	55.4	31.8	-94.7	0.0
2025-01-17 16:57:21.267085	55.0	31.8	-95.0	0.0
2025-01-17 16:57:22.387346	54.6	31.8	-94.8	0.0
2025-01-17 16:57:23.506382	54.2	31.8	-94.8	0.0
2025-01-17 16:57:24.629517	53.8	31.7	-94.5	0.0
2025-01-17 16:57:25.751527	53.4	31.7	-94.7	0.0
2025-01-17 16:57:26.871478	53.0	31.7	-94.8	0.0
2025-01-17 16:57:27.994351	52.6	31.7	-94.7	0.0
2025-01-17 16:57:29.116222	52.2	31.7	-94.9	0.0
2025-01-17 16:57:30.237586	51.8	31.7	-94.6	0.0
2025-01-17 16:57:31.359675	51.4	31.7	-94.6	0.0
2025-01-17 16:57:32.479457	51.0	31.7	-94.5	0.0
2025-01-17 16:57:33.599749	50.6	31.6	-94.7	0.0
2025-01-17 16:57:34.719240	50.2	31.6	-94.6	0.0
2025-01-17 16:57:35.839742	49.8	31.6	-94.5	0.0
2025-01-17 16:57:36.960308	49.4	31.6	-94.4	0.0
2025-01-17 16:57:38.081844	49.0	31.5	-94.5	0.0
2025-01-17 16:57:39.203284	48.6	31.5	-94.7	0.0
2025-01-17 16:57:40.325586	48.3	31.5	-94.6	0.0
2025-01-17 16:57:41.446061	47.9	31.5	-94.8	0.0
2025-01-17 16:57:42.569339	47.5	31.4	-94.9	0.0
2025-01-17 16:57:43.690920	47.1	31.4	-94.8	0.0
2025-01-17 16:57:44.810549	46.7	31.4	-94.6	0.0
2025-01-17 16:57:45.930287	46.3	31.3	-94.8	0.0
2025-01-17 16:57:47.050022	45.9	31.3	-94.7	0.0
2025-01-17 16:57:48.174010	45.5	31.2	-94.8	0.0
2025-01-17 16:57:49.294528	45.1	31.2	-94.6	0.0
2025-01-17 16:57:50.415096	44.7	31.2	-94.8	0.0
2025-01-17 16:57:51.536320	44.4	31.1	-94.8	0.0
2025-01-17 16:57:52.658979	44.0	31.1	-94.8	0.0
2025-01-17 16:57:53.780221	43.6	31.0	-94.7	0.0
2025-01-17 16:57:54.899765	43.2	31.0	-94.8	0.0
2025-01-17 16:57:56.023563	42.8	30.9	-94.7	0.0
2025-01-17 16:57:57.144539	42.4	30.9	-94.9	0.0
2025-01-17 16:57:58.265659	42.1	30.8	-94.8	0.0
2025-01-17 16:57:59.387524	41.7	30.8	-94.9	0.0
2025-01-17 16:58:00.508911	41.3	30.7	-94.9	0.0
2025-01-17 16:58:01.629179	40.9	30.7	-94.7	0.0
2025-01-17 16:58:02.748429	40.6	30.6	-94.6	0.0
2025-01-17 16:58:03.868969	40.2	30.6	-94.9	0.0
2025-01-17 16:58:04.991874	39.8	30.5	-94.7	0.0
2025-01-17 16:58:06.113350	39.5	30.4	-94.7	0.0
2025-01-17 16:58:07.234972	39.1	30.4	-94.8	0.0
2025-01-17 16:58:08.357489	38.7	30.3	-94.9	0.0
2025-01-17 16:58:09.479371	38.4	30.2	-94.8	0.0
2025-01-17 16:58:10.599657	38.0	30.2	-94.6	0.0
2025-01-17 16:58:11.721633	37.6	30.1	-94.6	0.0
2025-01-17 16:58:12.843800	37.3	30.0	-94.9	0.0
2025-01-17 16:58:13.963317	36.9	30.0	-94.7	0.0
2025-01-17 16:58:15.083351	36.6	29.9	-94.6	0.0
2025-01-17 16:58:16.205487	36.2	29.8	-94.9	0.0
2025-01-17 16:58:17.325838	35.8	29.8	-94.9	0.0
2025-01-17 16:58:18.447536	35.5	29.7	-94.5	0.0
2025-01-17 16:58:19.571418	35.1	29.6	-94.7	0.0
2025-01-17 16:58:20.692363	34.8	29.5	-94.7	0.0
2025-01-17 16:58:21.811404	34.4	29.5	-94.9	0.0
2025-01-17 16:58:22.931758	34.1	29.4	-94.8	0.0
2025-01-17 16:58:24.053930	33.8	29.3	-94.7	0.0
2025-01-17 16:58:25.176321	33.4	29.2	-94.7	0.0
2025-01-17 16:58:26.297630	33.1	29.2	-94.7	0.0
2025-01-17 16:58:27.421822	32.7	29.1	-94.6	0.0
2025-01-17 16:58:28.543496	32.4	29.0	-94.5	0.0
2025-01-17 16:58:29.664677	32.1	28.9	-94.4	0.0
2025-01-17 16:58:30.786822	31.7	28.8	-94.5	0.0
2025-01-17 16:58:31.905681	31.4	28.7	-94.6	0.0
2025-01-17 16:58:33.028030	31.1	28.7	-94.7	0.0
2025-01-17 16:58:34.149377	30.7	28.6	-94.4	0.0
2025-01-17 16:58:35.267691	30.4	28.5	-94.4	0.0
2025-01-17 16:58:36.388416	30.1	28.4	-94.6	0.0
2025-01-17 16:58:37.508595	29.8	28.3	-94.5	0.0
2025-01-17 16:58:38.631354	29.4	28.2	-94.5	0.0
2025-01-17 16:58:39.752133	29.1	28.1	-94.7	0.0
2025-01-17 16:58:40.872275	28.8	28.0	-94.7	0.0
2025-01-17 16:58:41.993798	28.5	28.0	-94.7	0.0
2025-01-17 16:58:43.113049	28.2	27.9	-94.7	0.0
2025-01-17 16:58:44.232556	27.9	27.8	-94.8	0.0
2025-01-17 16:58:45.353161	27.5	27.7	-94.7	0.0
2025-01-17 16:58:46.473028	27.2	27.6	-94.8	0.0
2025-01-17 16:58:47.594458	26.9	27.5	-94.6	0.0
2025-01-17 16:58:48.714489	26.6	27.4	-94.6	0.0
2025-01-17 16:58:49.835390	26.3	27.3	-94.7	0.0
2025-01-17 16:58:50.957644	26.0	27.2	-94.6	0.0
2025-01-17 16:58:52.080628	25.7	27.1	-94.6	0.0
2025-01-17 16:58:53.200668	25.4	27.0	-94.7	0.0
2025-01-17 16:58:54.321791	25.1	26.9	-94.9	0.0
2025-01-17 16:58:55.442825	24.8	26.8	-94.8	0.0
2025-01-17 16:58:56.563764	24.5	26.7	-94.6	0.0
2025-01-17 16:58:57.686437	24.2	26.6	-94.7	0.0
2025-01-17 16:58:58.805790	24.0	26.5	-94.8	0.0
2025-01-17 16:58:59.926679	23.7	26.4	-95.0	0.0
2025-01-17 16:59:01.047335	23.4	26.3	-95.2	0.0
2025-01-17 16:59:02.166152	23.1	26.2	-94.8	0.0
2025-01-17 16:59:03.287599	22.8	26.1	-94.7	0.0
2025-01-17 16:59:04.407930	22.5	26.0	-94.7	0.0
2025-01-17 16:59:05.529894	22.3	25.9	-94.9	0.0
2025-01-17 16:59:06.650397	22.0	25.8	-94.8	0.0
2025-01-17 16:59:07.770878	21.7	25.7	-94.6	0.0
2025-01-17 16:59:08.890316	21.4	25.6	-94.9	0.0
2025-01-17 16:59:10.010594	21.2	25.5	-94.7	0.0
2025-01-17 16:59:11.131531	20.9	25.4	-94.9	0.0
2025-01-17 16:59:12.250178	20.6	25.3	-94.9	0.0
2025-01-17 16:59:13.372742	20.4	25.2	-94.5	0.0
2025-01-17 16:59:14.494063	20.1	25.1	-94.8	0.0
2025-01-17 16:59:15.613840	19.8	25.0	-94.9	0.0
2025-01-17 16:59:16.735000	19.6	24.9	-95.1	0.0
2025-01-17 16:59:17.856037	19.3	24.8	-94.6	0.0
2025-01-17 16:59:18.977338	19.1	24.7	-95.0	0.0
2025-01-17 16:59:20.099135	18.8	24.6	-94.8	0.0
2025-01-17 16:59:21.219922	18.6	24.5	-94.8	0.0
2025-01-17 16:59:22.338510	18.3	24.4	-94.6	0.0
2025-01-17 16:59:23.461489	18.1	24.3	-94.9	0.0
2025-01-17 16:59:24.583282	17.8	24.2	-94.9	0.0
2025-01-17 16:59:25.704681	17.6	24.1	-94.7	0.0
2025-01-17 16:59:26.827331	17.3	23.9	-94.7	0.0
2025-01-17 16:59:27.948441	17.1	23.8	-94.9	0.0
2025-01-17 16:59:29.069765	16.8	23.7	-95.0	0.0
2025-01-17 16:59:30.190225	16.6	23.6	-94.8	0.0
2025-01-17 16:59:31.310958	16.4	23.5	-94.7	0.0
2025-01-17 16:59:32.433488	16.1	23.4	-94.8	0.0
2025-01-17 16:59:33.555794	15.9	23.3	-94.8	0.0
2025-01-17 16:59:34.678487	15.6	23.2	-94.8	0.0
2025-01-17 16:59:35.799757	15.4	23.1	-94.5	0.0
2025-01-17 16:59:36.921733	15.2	23.0	-94.8	0.0
2025-01-17 16:59:38.043539	15.0	22.9	-94.6	0.0
2025-01-17 16:59:39.164489	14.7	22.8	-94.7	0.0
2025-01-17 16:59:40.284382	14.5	22.7	-94.5	0.0
2025-01-17 16:59:41.405651	14.3	22.6	-94.7	0.0
2025-01-17 16:59:42.527223	14.1	22.4	-94.6	0.0
2025-01-17 16:59:43.646485	13.8	22.3	-94.6	0.0
2025-01-17 16:59:44.766612	13.6	22.2	-94.4	0.0
2025-01-17 16:59:45.889789	13.4	22.1	-94.7	0.0
2025-01-17 16:59:47.013605	13.2	22.0	-94.9	0.0
2025-01-17 16:59:48.134533	13.0	21.9	-95.0	0.0
2025-01-17 16:59:49.257021	12.8	21.8	-94.7	0.0
2025-01-17 16:59:50.377388	12.5	21.7	-95.0	0.0
2025-01-17 16:59:51.499489	12.3	21.6	-94.9	0.0
2025-01-17 16:59:52.622276	12.1	21.5	-95.0	0.0
2025-01-17 16:59:53.742650	11.9	21.4	-94.9	0.0
2025-01-17 16:59:54.865833	11.7	21.3	-94.9	0.0
2025-01-17 16:59:55.988019	11.5	21.2	-94.7	0.0
2025-01-17 16:59:57.111066	11.3	21.1	-94.7	0.0
2025-01-17 16:59:58.232241	11.1	20.9	-94.4	0.0
2025-01-17 16:59:59.355972	10.9	20.8	-94.7	0.0
2025-01-17 17:00:00.476276	10.7	20.7	-94.6	0.0
2025-01-17 17:00:01.598158	10.5	20.6	-94.7	0.0
2025-01-17 17:00:02.720545	10.3	20.5	-94.7	0.0
2025-01-17 17:00:03.841091	10.1	20.4	-94.8	0.0
2025-01-17 17:00:04.962602	9.9	20.3	-94.7	0.0
2025-01-17 17:00:06.084624	9.7	20.2	-94.9	0.0
2025-01-17 17:00:07.204413	9.5	20.1	-94.7	0.0
2025-01-17 17:00:08.325361	9.3	20.0	-94.6	0.0
2025-01-17 17:00:09.444001	9.2	19.9	-94.5	0.0
2025-01-17 17:00:10.565198	9.0	19.8	-95.0	0.0
2025-01-17 17:00:11.688038	8.8	19.7	-94.9	0.0
2025-01-17 17:00:12.807852	8.6	19.6	-94.7	0.0
2025-01-17 17:00:13.927317	8.4	19.5	-94.8	0.0
2025-01-17 17:00:15.051235	8.2	19.4	-94.7	0.0
2025-01-17 17:00:16.172682	8.1	19.3	-94.7	0.0
2025-01-17 17:00:17.292224	7.9	19.2	-94.9	0.0
2025-01-17 17:00:18.410409	7.7	19.0	-94.6	0.0
2025-01-17 17:00:19.531272	7.5	18.9	-94.8	0.0
2025-01-17 17:00:20.651954	7.4	18.8	-94.7	0.0
2025-01-17 17:00:21.773352	7.2	18.7	-94.9	0.0
2025-01-17 17:00:22.894030	7.0	18.6	-94.8	0.0
2025-01-17 17:00:24.014410	6.8	18.5	-94.8	0.0
2025-01-17 17:00:25.136483	6.7	18.4	-94.7	0.0
2025-01-17 17:00:26.258334	6.5	18.3	-95.0	0.0
2025-01-17 17:00:27.379863	6.3	18.2	-94.8	0.0
2025-01-17 17:00:28.501284	6.2	18.1	-94.7	0.0
2025-01-17 17:00:29.622509	6.0	18.0	-94.9	0.0
2025-01-17 17:00:30.744364	5.8	17.9	-94.8	0.0
2025-01-17 17:00:31.865342	5.7	17.8	-94.8	0.0
2025-01-17 17:00:32.988191	5.5	17.7	-94.7	0.0
2025-01-17 17:00:34.107938	5.3	17.6	-95.0	0.0
2025-01-17 17:00:35.228783	5.2	17.5	-95.1	0.0
2025-01-17 17:00:36.349944	5.0	17.4	-94.8	0.0
2025-01-17 17:00:37.470657	4.9	17.3	-94.8	0.0
2025-01-17 17:00:38.593472	4.7	17.2	-94.7	0.0
2025-01-17 17:00:39.714521	4.6	17.1	-94.9	0.0
2025-01-17 17:00:40.833435	4.4	17.0	-94.9	0.0
2025-01-17 17:00:41.957448	4.2	16.9	-94.8	0.0
2025-01-17 17:00:43.079328	4.1	16.8	-95.0	0.0
2025-01-17 17:00:44.201332	3.9	16.7	-94.9	0.0
2025-01-17 17:00:45.321738	3.8	16.6	-94.9	0.0
2025-01-17 17:00:46.442290	3.6	16.5	-94.8	0.0
2025-01-17 17:00:47.563957	3.5	16.4	-94.9	0.0
2025-01-17 17:00:48.685212	3.3	16.3	-95.0	0.0
2025-01-17 17:00:49.806784	3.2	16.2	-95.0	0.0
2025-01-17 17:00:50.930662	3.1	16.1	-94.9	0.0
2025-01-17 17:00:52.052554	2.9	16.0	-95.0	0.0
2025-01-17 17:00:53.175991	2.8	15.9	-94.8	0.0
2025-01-17 17:00:54.297443	2.6	15.8	-94.8	0.0
2025-01-17 17:00:55.418892	2.5	15.7	-94.6	0.0
2025-01-17 17:00:56.541846	2.3	15.6	-94.5	0.0
2025-01-17 17:00:57.663012	2.2	15.5	-94.8	0.0
2025-01-17 17:00:58.782161	2.1	15.4	-94.8	0.0
2025-01-17 17:00:59.900517	1.9	15.3	-94.6	0.0
2025-01-17 17:01:01.021192	1.8	15.2	-94.7	0.0
2025-01-17 17:01:02.139445	1.7	15.1	-94.8	0.0
2025-01-17 17:01:03.260692	1.5	15.0	-94.8	0.0
2025-01-17 17:01:04.381488	1.4	14.9	-94.6	0.0
2025-01-17 17:01:05.502813	1.3	14.8	-94.9	0.0
2025-01-17 17:01:06.625766	1.1	14.7	-94.8	0.0
2025-01-17 17:01:07.746226	1.0	14.6	-94.7	0.0
2025-01-17 17:01:08.868526	0.9	14.5	-94.7	0.0
2025-01-17 17:01:09.989149	0.7	14.4	-94.6	0.0
2025-01-17 17:01:11.106658	0.6	14.3	-94.7	0.0
2025-01-17 17:01:12.227628	0.5	14.2	-94.6	0.0
2025-01-17 17:01:13.348109	0.3	14.1	-94.6	0.0
2025-01-17 17:01:14.469021	0.2	14.1	-94.7	0.0
2025-01-17 17:01:15.591393	0.1	14.0	-94.7	0.0
2025-01-17 17:01:16.710504	360.0	13.9	-94.7	0.0
2025-01-17 17:01:17.832917	359.8	13.8	-95.0	0.0
2025-01-17 17:01:18.952657	359.7	13.7	-94.7	0.0
2025-01-17 17:01:20.073139	359.6	13.6	-95.0	0.0
2025-01-17 17:01:21.194281	359.5	13.5	-94.6	0.0
2025-01-17 17:01:22.317920	359.4	13.4	-94.9	0.0
2025-01-17 17:01:23.438979	359.2	13.3	-94.8	0.0
2025-01-17 17:01:24.560346	359.1	13.2	-94.7	0.0
2025-01-17 17:01:25.680947	359.0	13.1	-94.9	0.0
2025-01-17 17:01:26.800945	358.9	13.0	-95.0	0.0
2025-01-17 17:01:27.920391	358.8	12.9	-94.9	0.0
2025-01-17 17:01:29.041926	358.6	12.8	-94.9	0.0
2025-01-17 17:01:30.163380	358.5	12.7	-94.9	0.0
2025-01-17 17:01:31.284857	358.4	12.7	-94.8	0.0
2025-01-17 17:01:32.403675	358.3	12.6	-94.9	0.0
2025-01-17 17:01:33.527639	358.2	12.5	-95.1	0.0
2025-01-17 17:01:34.647444	358.1	12.4	-95.0	0.0
2025-01-17 17:01:35.767351	358.0	12.3	-94.9	0.0
2025-01-17 17:01:36.888600	357.9	12.2	-94.6	0.0
2025-01-17 17:01:38.009445	357.7	12.1	-94.7	0.0
2025-01-17 17:01:39.128897	357.6	12.0	-95.1	0.0
2025-01-17 17:01:40.249833	357.5	11.9	-94.9	0.0
2025-01-17 17:01:41.370899	357.4	11.8	-94.7	0.0
2025-01-17 17:01:42.493600	357.3	11.8	-94.8	0.0
2025-01-17 17:01:43.614490	357.2	11.7	-94.9	0.0
2025-01-17 17:01:44.737453	357.1	11.6	-95.1	0.0
2025-01-17 17:01:45.857106	357.0	11.5	-94.9	0.0
2025-01-17 17:01:46.977354	356.9	11.4	-95.0	0.0
2025-01-17 17:01:48.099189	356.8	11.3	-94.9	0.0
2025-01-17 17:01:49.220572	356.7	11.2	-95.0	0.0
2025-01-17 17:01:50.341093	356.6	11.1	-95.1	0.0
2025-01-17 17:01:51.462779	356.5	11.1	-94.9	0.0
2025-01-17 17:01:52.583241	356.4	11.0	-95.0	0.0
2025-01-17 17:01:53.706961	356.3	10.9	-95.0	0.0
2025-01-17 17:01:54.828340	356.2	10.8	-94.8	0.0
2025-01-17 17:01:55.949067	356.1	10.7	-94.7	0.0
2025-01-17 17:01:57.069968	356.0	10.6	-94.7	0.0
2025-01-17 17:01:58.192646	355.9	10.5	-94.7	0.0
2025-01-17 17:01:59.313526	355.8	10.4	-94.8	0.0
2025-01-17 17:02:00.434596	355.7	10.4	-94.5	0.0
2025-01-17 17:02:01.557508	355.6	10.3	-94.6	0.0
2025-01-17 17:02:02.678662	355.5	10.2	-94.8	0.0
2025-01-17 17:02:03.800894	355.4	10.1	-94.6	0.0
2025-01-17 17:02:04.923796	355.3	10.0	-94.9	0.0
#Closed at: 2025-01-17 16:52:29.314633