passes_logs/2025/01/17/planumMaritime01/planumMaritime01__20250117_082931_METOP-C_rec.log

#Pass ID: 20250117_082931_METOP-C
#Satellite: METOP-C
#Configuration: METOP-C
#Start time: 2025-01-17 08:29:36.423354

#LorettStation: 1.0.0 05.05.2024
#Station: planumMaritime01
#Location: 37.49445 lon 55.92918 lat
#TLE: 1 43689U 18087A   25016.13723724  .00000217  00000+0  11924-3 0  9996
#TLE: 2 43689  98.6963  78.6125 0001472 162.3188 197.8041 14.21481582321377

#Time	Az	El	Level	SNR
2025-01-17 08:29:38.578104	9.3	10.2	-80.7	0.0
2025-01-17 08:29:39.700228	9.2	10.3	-81.0	0.0
2025-01-17 08:29:40.823262	9.2	10.4	-80.8	0.0
2025-01-17 08:29:41.944715	9.1	10.5	-80.9	0.0
2025-01-17 08:29:43.064055	9.1	10.6	-81.1	0.0
2025-01-17 08:29:44.184331	9.0	10.7	-80.8	0.0
2025-01-17 08:29:45.309173	8.9	10.8	-81.2	0.0
2025-01-17 08:29:46.430529	8.9	10.9	-80.9	0.0
2025-01-17 08:29:47.550842	8.8	10.9	-81.0	0.0
2025-01-17 08:29:48.674516	8.8	11.0	-81.4	0.0
2025-01-17 08:29:49.794963	8.7	11.1	-80.9	0.0
2025-01-17 08:29:50.919474	8.6	11.2	-81.4	0.0
2025-01-17 08:29:52.040147	8.6	11.3	-81.1	0.0
2025-01-17 08:29:53.161295	8.5	11.4	-80.9	0.0
2025-01-17 08:29:54.281766	8.5	11.5	-81.4	0.0
2025-01-17 08:29:55.402271	8.4	11.6	-81.2	0.0
2025-01-17 08:29:56.525393	8.3	11.7	-81.2	0.0
2025-01-17 08:29:57.648763	8.3	11.8	-81.5	0.0
2025-01-17 08:29:58.769767	8.2	11.9	-81.0	0.0
2025-01-17 08:29:59.890200	8.2	12.0	-81.2	0.0
2025-01-17 08:30:01.014704	8.1	12.1	-81.4	0.0
2025-01-17 08:30:02.135152	8.0	12.2	-81.4	0.0
2025-01-17 08:30:03.256693	8.0	12.3	-81.5	0.0
2025-01-17 08:30:04.379567	7.9	12.4	-81.5	0.0
2025-01-17 08:30:05.499713	7.8	12.5	-81.5	0.0
2025-01-17 08:30:06.622955	7.8	12.7	-81.8	0.0
2025-01-17 08:30:07.743449	7.7	12.8	-81.4	0.0
2025-01-17 08:30:08.865237	7.6	12.9	-81.4	0.0
2025-01-17 08:30:09.988599	7.6	13.0	-81.1	0.0
2025-01-17 08:30:11.109291	7.5	13.1	-81.4	0.0
2025-01-17 08:30:12.228274	7.4	13.2	-81.3	0.0
2025-01-17 08:30:13.350941	7.4	13.3	-81.2	0.0
2025-01-17 08:30:14.474024	7.3	13.4	-81.7	0.0
2025-01-17 08:30:15.596185	7.2	13.5	-81.4	0.0
2025-01-17 08:30:16.719267	7.2	13.6	-81.5	0.0
2025-01-17 08:30:17.842043	7.1	13.7	-81.5	0.0
2025-01-17 08:30:18.961916	7.0	13.8	-81.3	0.0
2025-01-17 08:30:20.083166	7.0	13.9	-81.6	0.0
2025-01-17 08:30:21.204756	6.9	14.0	-81.3	0.0
2025-01-17 08:30:22.326059	6.8	14.1	-81.7	0.0
2025-01-17 08:30:23.449161	6.7	14.3	-81.5	0.0
2025-01-17 08:30:24.572167	6.7	14.4	-81.4	0.0
2025-01-17 08:30:25.693881	6.6	14.5	-81.7	0.0
2025-01-17 08:30:26.815061	6.5	14.6	-81.8	0.0
2025-01-17 08:30:27.938584	6.4	14.7	-81.3	0.0
2025-01-17 08:30:29.059865	6.4	14.8	-81.2	0.0
2025-01-17 08:30:30.183182	6.3	14.9	-81.0	0.0
2025-01-17 08:30:31.308684	6.2	15.0	-82.0	0.0
2025-01-17 08:30:32.431026	6.1	15.2	-81.6	0.0
2025-01-17 08:30:33.553019	6.1	15.3	-81.6	0.0
2025-01-17 08:30:34.674019	6.0	15.4	-81.8	0.0
2025-01-17 08:30:35.796252	5.9	15.5	-81.9	0.0
2025-01-17 08:30:36.919591	5.8	15.6	-81.6	0.0
2025-01-17 08:30:38.040796	5.7	15.7	-81.7	0.0
2025-01-17 08:30:39.162869	5.6	15.8	-81.5	0.0
2025-01-17 08:30:40.285024	5.6	16.0	-81.7	0.0
2025-01-17 08:30:41.406108	5.5	16.1	-81.6	0.0
2025-01-17 08:30:42.526224	5.4	16.2	-81.4	0.0
2025-01-17 08:30:43.649878	5.3	16.3	-81.5	0.0
2025-01-17 08:30:44.769757	5.2	16.4	-81.1	0.0
2025-01-17 08:30:45.887924	5.1	16.6	-81.8	0.0
2025-01-17 08:30:47.008866	5.1	16.7	-81.3	0.0
2025-01-17 08:30:48.130858	5.0	16.8	-81.4	0.0
2025-01-17 08:30:49.252987	4.9	16.9	-81.5	0.0
2025-01-17 08:30:50.373583	4.8	17.0	-81.7	0.0
2025-01-17 08:30:51.495449	4.7	17.2	-81.5	0.0
2025-01-17 08:30:52.616051	4.6	17.3	-81.3	0.0
2025-01-17 08:30:53.736147	4.5	17.4	-81.6	0.0
2025-01-17 08:30:54.858347	4.4	17.5	-81.3	0.0
2025-01-17 08:30:55.978699	4.3	17.7	-81.5	0.0
2025-01-17 08:30:57.100057	4.2	17.8	-81.6	0.0
2025-01-17 08:30:58.221286	4.1	17.9	-81.3	0.0
2025-01-17 08:30:59.343295	4.1	18.0	-81.5	0.0
2025-01-17 08:31:00.463327	4.0	18.2	-81.7	0.0
2025-01-17 08:31:01.585593	3.9	18.3	-81.6	0.0
2025-01-17 08:31:02.707218	3.8	18.4	-81.6	0.0
2025-01-17 08:31:03.827104	3.7	18.5	-81.3	0.0
2025-01-17 08:31:04.946681	3.6	18.7	-81.7	0.0
2025-01-17 08:31:06.068106	3.5	18.8	-81.5	0.0
2025-01-17 08:31:07.189188	3.4	18.9	-81.6	0.0
2025-01-17 08:31:08.311051	3.3	19.1	-81.6	0.0
2025-01-17 08:31:09.431449	3.2	19.2	-81.7	0.0
2025-01-17 08:31:10.554505	3.1	19.3	-81.7	0.0
2025-01-17 08:31:11.677403	2.9	19.5	-82.0	0.0
2025-01-17 08:31:12.798995	2.8	19.6	-81.5	0.0
2025-01-17 08:31:13.919946	2.7	19.7	-81.5	0.0
2025-01-17 08:31:15.042185	2.6	19.9	-81.3	0.0
2025-01-17 08:31:16.164969	2.5	20.0	-81.3	0.0
2025-01-17 08:31:17.285841	2.4	20.1	-81.6	0.0
2025-01-17 08:31:18.408816	2.3	20.3	-81.5	0.0
2025-01-17 08:31:19.530408	2.2	20.4	-81.5	0.0
2025-01-17 08:31:20.653146	2.1	20.5	-81.7	0.0
2025-01-17 08:31:21.774822	2.0	20.7	-81.8	0.0
2025-01-17 08:31:22.895690	1.8	20.8	-81.6	0.0
2025-01-17 08:31:24.017436	1.7	20.9	-81.3	0.0
2025-01-17 08:31:25.140028	1.6	21.1	-81.5	0.0
2025-01-17 08:31:26.260000	1.5	21.2	-81.9	0.0
2025-01-17 08:31:27.381326	1.4	21.4	-81.7	0.0
2025-01-17 08:31:28.500296	1.3	21.5	-81.2	0.0
2025-01-17 08:31:29.619159	1.1	21.7	-81.5	0.0
2025-01-17 08:31:30.739222	1.0	21.8	-81.2	0.0
2025-01-17 08:31:31.857687	0.9	21.9	-81.4	0.0
2025-01-17 08:31:32.978968	0.8	22.1	-81.1	0.0
2025-01-17 08:31:34.102291	0.6	22.2	-81.6	0.0
2025-01-17 08:31:35.225231	0.5	22.4	-81.9	0.0
2025-01-17 08:31:36.347872	0.4	22.5	-81.6	0.0
2025-01-17 08:31:37.467774	0.2	22.7	-81.3	0.0
2025-01-17 08:31:38.589394	0.1	22.8	-81.1	0.0
2025-01-17 08:31:39.712309	360.0	23.0	-81.6	0.0
2025-01-17 08:31:40.833896	359.8	23.1	-81.5	0.0
2025-01-17 08:31:41.956160	359.7	23.3	-81.3	0.0
2025-01-17 08:31:43.078175	359.6	23.4	-81.3	0.0
2025-01-17 08:31:44.198763	359.4	23.6	-82.0	0.0
2025-01-17 08:31:45.320956	359.3	23.7	-81.9	0.0
2025-01-17 08:31:46.444259	359.2	23.9	-81.7	0.0
2025-01-17 08:31:47.564547	359.0	24.0	-81.7	0.0
2025-01-17 08:31:48.687453	358.9	24.2	-81.7	0.0
2025-01-17 08:31:49.811276	358.7	24.3	-81.6	0.0
2025-01-17 08:31:50.932243	358.6	24.5	-82.0	0.0
2025-01-17 08:31:52.051918	358.4	24.7	-81.8	0.0
2025-01-17 08:31:53.175729	358.3	24.8	-81.9	0.0
2025-01-17 08:31:54.296098	358.1	25.0	-81.7	0.0
2025-01-17 08:31:55.419503	358.0	25.1	-81.9	0.0
2025-01-17 08:31:56.541928	357.8	25.3	-81.2	0.0
2025-01-17 08:31:57.664825	357.7	25.4	-82.0	0.0
2025-01-17 08:31:58.786372	357.5	25.6	-81.7	0.0
2025-01-17 08:31:59.908874	357.3	25.8	-81.4	0.0
2025-01-17 08:32:01.029108	357.2	25.9	-81.8	0.0
2025-01-17 08:32:02.151935	357.0	26.1	-81.8	0.0
2025-01-17 08:32:03.273757	356.9	26.3	-81.8	0.0
2025-01-17 08:32:04.394237	356.7	26.4	-81.5	0.0
2025-01-17 08:32:05.515779	356.5	26.6	-82.0	0.0
2025-01-17 08:32:06.636264	356.3	26.8	-82.1	0.0
2025-01-17 08:32:07.756203	356.2	26.9	-81.9	0.0
2025-01-17 08:32:08.881165	356.0	27.1	-82.0	0.0
2025-01-17 08:32:10.002249	355.8	27.3	-81.8	0.0
2025-01-17 08:32:11.123864	355.6	27.4	-81.1	0.0
2025-01-17 08:32:12.244653	355.5	27.6	-81.8	0.0
2025-01-17 08:32:13.364285	355.3	27.8	-81.9	0.0
2025-01-17 08:32:14.486257	355.1	27.9	-82.0	0.0
2025-01-17 08:32:15.610627	354.9	28.1	-81.8	0.0
2025-01-17 08:32:16.730490	354.7	28.3	-81.8	0.0
2025-01-17 08:32:17.854726	354.5	28.5	-82.0	0.0
2025-01-17 08:32:18.978767	354.3	28.6	-81.7	0.0
2025-01-17 08:32:20.098043	354.2	28.8	-81.6	0.0
2025-01-17 08:32:21.219387	354.0	29.0	-81.9	0.0
2025-01-17 08:32:22.340823	353.8	29.2	-82.1	0.0
2025-01-17 08:32:23.462622	353.6	29.3	-82.2	0.0
2025-01-17 08:32:24.583937	353.4	29.5	-82.2	0.0
2025-01-17 08:32:25.706344	353.2	29.7	-82.2	0.0
2025-01-17 08:32:26.824529	352.9	29.9	-82.1	0.0
2025-01-17 08:32:27.946211	352.7	30.1	-81.9	0.0
2025-01-17 08:32:29.066138	352.5	30.2	-82.2	0.0
2025-01-17 08:32:30.188396	352.3	30.4	-81.9	0.0
2025-01-17 08:32:31.308841	352.1	30.6	-81.3	0.0
2025-01-17 08:32:32.429823	351.9	30.8	-81.6	0.0
2025-01-17 08:32:33.549891	351.6	31.0	-81.7	0.0
2025-01-17 08:32:34.672940	351.4	31.2	-82.0	0.0
2025-01-17 08:32:35.795368	351.2	31.3	-81.7	0.0
2025-01-17 08:32:36.917259	351.0	31.5	-81.6	0.0
2025-01-17 08:32:38.039545	350.7	31.7	-81.2	0.0
2025-01-17 08:32:39.158624	350.5	31.9	-81.4	0.0
2025-01-17 08:32:40.282251	350.3	32.1	-81.5	0.0
2025-01-17 08:32:41.402220	350.0	32.3	-81.5	0.0
2025-01-17 08:32:42.522750	349.8	32.5	-81.8	0.0
2025-01-17 08:32:43.645059	349.5	32.6	-81.4	0.0
2025-01-17 08:32:44.766337	349.3	32.8	-81.5	0.0
2025-01-17 08:32:45.887357	349.0	33.0	-81.3	0.0
2025-01-17 08:32:47.010201	348.8	33.2	-81.3	0.0
2025-01-17 08:32:48.129909	348.5	33.4	-81.2	0.0
2025-01-17 08:32:49.252672	348.2	33.6	-81.3	0.0
2025-01-17 08:32:50.374209	348.0	33.8	-81.2	0.0
2025-01-17 08:32:51.496506	347.7	34.0	-81.6	0.0
2025-01-17 08:32:52.617465	347.4	34.2	-81.2	0.0
2025-01-17 08:32:53.739162	347.2	34.4	-81.4	0.0
2025-01-17 08:32:54.862572	346.9	34.6	-81.8	0.0
2025-01-17 08:32:55.984563	346.6	34.8	-81.4	0.0
2025-01-17 08:32:57.107061	346.3	35.0	-81.7	0.0
2025-01-17 08:32:58.228745	346.0	35.2	-81.7	0.0
2025-01-17 08:32:59.349780	345.7	35.4	-81.8	0.0
2025-01-17 08:33:00.469749	345.4	35.6	-81.4	0.0
2025-01-17 08:33:01.590369	345.1	35.8	-81.5	0.0
2025-01-17 08:33:02.709920	344.8	35.9	-81.7	0.0
2025-01-17 08:33:03.829568	344.5	36.1	-81.8	0.0
2025-01-17 08:33:04.949405	344.2	36.3	-82.0	0.0
2025-01-17 08:33:06.068519	343.9	36.5	-81.7	0.0
2025-01-17 08:33:07.190810	343.6	36.7	-81.5	0.0
2025-01-17 08:33:08.312343	343.3	36.9	-81.5	0.0
2025-01-17 08:33:09.434059	342.9	37.1	-81.3	0.0
2025-01-17 08:33:10.555657	342.6	37.3	-81.5	0.0
2025-01-17 08:33:11.678784	342.3	37.5	-81.7	0.0
2025-01-17 08:33:12.801382	341.9	37.7	-81.7	0.0
2025-01-17 08:33:13.921633	341.6	37.9	-81.4	0.0
2025-01-17 08:33:15.042999	341.2	38.1	-81.5	0.0
2025-01-17 08:33:16.162708	340.9	38.3	-81.7	0.0
2025-01-17 08:33:17.285002	340.5	38.5	-81.9	0.0
2025-01-17 08:33:18.408291	340.2	38.7	-82.0	0.0
2025-01-17 08:33:19.529902	339.8	38.9	-81.7	0.0
2025-01-17 08:33:20.650430	339.4	39.1	-82.0	0.0
2025-01-17 08:33:21.770472	339.1	39.3	-81.8	0.0
2025-01-17 08:33:22.893287	338.7	39.5	-82.1	0.0
2025-01-17 08:33:24.014644	338.3	39.7	-81.8	0.0
2025-01-17 08:33:25.134716	337.9	39.9	-82.2	0.0
2025-01-17 08:33:26.255475	337.5	40.1	-82.2	0.0
2025-01-17 08:33:27.377183	337.1	40.3	-82.0	0.0
2025-01-17 08:33:28.498256	336.7	40.5	-82.0	0.0
2025-01-17 08:33:29.620266	336.3	40.7	-81.5	0.0
2025-01-17 08:33:30.741325	335.9	40.9	-81.9	0.0
2025-01-17 08:33:31.863151	335.5	41.1	-81.8	0.0
2025-01-17 08:33:32.986022	335.1	41.3	-81.5	0.0
2025-01-17 08:33:34.107824	334.6	41.5	-81.5	0.0
2025-01-17 08:33:35.227007	334.2	41.7	-82.1	0.0
2025-01-17 08:33:36.348957	333.8	41.9	-81.8	0.0
2025-01-17 08:33:37.469444	333.3	42.0	-81.8	0.0
2025-01-17 08:33:38.591204	332.9	42.2	-81.8	0.0
2025-01-17 08:33:39.712515	332.4	42.4	-81.7	0.0
2025-01-17 08:33:40.832309	332.0	42.6	-81.5	0.0
2025-01-17 08:33:41.953029	331.5	42.8	-81.4	0.0
2025-01-17 08:33:43.073268	331.0	43.0	-81.7	0.0
2025-01-17 08:33:44.195101	330.6	43.2	-81.6	0.0
2025-01-17 08:33:45.318203	330.1	43.3	-81.6	0.0
2025-01-17 08:33:46.437548	329.6	43.5	-81.4	0.0
2025-01-17 08:33:47.559642	329.1	43.7	-81.8	0.0
2025-01-17 08:33:48.680448	328.6	43.9	-81.5	0.0
2025-01-17 08:33:49.801697	328.1	44.1	-81.7	0.0
2025-01-17 08:33:50.924903	327.6	44.2	-81.1	0.0
2025-01-17 08:33:52.045051	327.1	44.4	-80.2	0.0
2025-01-17 08:33:53.164775	326.5	44.6	-81.1	0.0
2025-01-17 08:33:54.286738	326.0	44.7	-81.5	0.0
2025-01-17 08:33:55.410245	325.5	44.9	-81.4	0.0
2025-01-17 08:33:56.530376	325.0	45.1	-81.9	0.0
2025-01-17 08:33:57.651549	324.4	45.2	-81.3	0.0
2025-01-17 08:33:58.770555	323.9	45.4	-81.1	0.0
2025-01-17 08:33:59.892274	323.3	45.6	-81.6	0.0
2025-01-17 08:34:01.013430	322.7	45.7	-81.8	0.0
2025-01-17 08:34:02.131283	322.2	45.9	-81.8	0.0
2025-01-17 08:34:03.251645	321.6	46.0	-81.5	0.0
2025-01-17 08:34:04.374041	321.0	46.2	-81.5	0.0
2025-01-17 08:34:05.494398	320.5	46.3	-81.7	0.0
2025-01-17 08:34:06.614442	319.9	46.4	-81.9	0.0
2025-01-17 08:34:07.735282	319.3	46.6	-81.9	0.0
2025-01-17 08:34:08.856985	318.7	46.7	-81.8	0.0
2025-01-17 08:34:09.979395	318.1	46.9	-81.5	0.0
2025-01-17 08:34:11.101675	317.5	47.0	-81.0	0.0
2025-01-17 08:34:12.223588	316.9	47.1	-81.5	0.0
2025-01-17 08:34:13.346285	316.2	47.2	-81.6	0.0
2025-01-17 08:34:14.466644	315.6	47.4	-81.6	0.0
2025-01-17 08:34:15.588880	315.0	47.5	-81.7	0.0
2025-01-17 08:34:16.711245	314.4	47.6	-81.5	0.0
2025-01-17 08:34:17.829302	313.7	47.7	-81.4	0.0
2025-01-17 08:34:18.951730	313.1	47.8	-81.5	0.0
2025-01-17 08:34:20.074485	312.4	47.9	-81.2	0.0
2025-01-17 08:34:21.194745	311.8	48.0	-81.6	0.0
2025-01-17 08:34:22.316487	311.1	48.1	-81.7	0.0
2025-01-17 08:34:23.436041	310.5	48.2	-81.8	0.0
2025-01-17 08:34:24.555695	309.8	48.3	-81.8	0.0
2025-01-17 08:34:25.678408	309.1	48.4	-81.7	0.0
2025-01-17 08:34:26.798439	308.5	48.4	-81.4	0.0
2025-01-17 08:34:27.918782	307.8	48.5	-81.7	0.0
2025-01-17 08:34:29.041067	307.1	48.6	-81.8	0.0
2025-01-17 08:34:30.160674	306.5	48.7	-81.9	0.0
2025-01-17 08:34:31.282961	305.8	48.7	-81.8	0.0
2025-01-17 08:34:32.404398	305.1	48.8	-81.4	0.0
2025-01-17 08:34:33.523148	304.4	48.8	-81.9	0.0
2025-01-17 08:34:34.644996	303.7	48.9	-82.0	0.0
2025-01-17 08:34:35.765962	303.0	48.9	-81.7	0.0
2025-01-17 08:34:36.888080	302.3	49.0	-81.9	0.0
2025-01-17 08:34:38.008056	301.6	49.0	-82.0	0.0
2025-01-17 08:34:39.128872	300.9	49.0	-81.9	0.0
2025-01-17 08:34:40.249474	300.2	49.1	-82.0	0.0
2025-01-17 08:34:41.368819	299.5	49.1	-81.9	0.0
2025-01-17 08:34:42.489766	298.8	49.1	-82.1	0.0
2025-01-17 08:34:43.612043	298.1	49.1	-82.3	0.0
2025-01-17 08:34:44.732148	297.4	49.1	-82.2	0.0
2025-01-17 08:34:45.851628	296.7	49.1	-82.1	0.0
2025-01-17 08:34:46.974467	296.0	49.1	-82.1	0.0
2025-01-17 08:34:48.095371	295.3	49.1	-82.0	0.0
2025-01-17 08:34:49.217419	294.6	49.1	-82.3	0.0
2025-01-17 08:34:50.338099	293.9	49.1	-82.1	0.0
2025-01-17 08:34:51.461246	293.2	49.1	-82.0	0.0
2025-01-17 08:34:52.583721	292.5	49.1	-82.0	0.0
2025-01-17 08:34:53.703940	291.8	49.0	-82.4	0.0
2025-01-17 08:34:54.825467	291.1	49.0	-82.3	0.0
2025-01-17 08:34:55.946618	290.4	49.0	-81.3	0.0
2025-01-17 08:34:57.068356	289.7	48.9	-82.3	0.0
2025-01-17 08:34:58.190192	289.0	48.9	-82.1	0.0
2025-01-17 08:34:59.313804	288.4	48.8	-81.8	0.0
2025-01-17 08:35:00.435185	287.7	48.8	-81.4	0.0
2025-01-17 08:35:01.557169	287.0	48.7	-81.8	0.0
2025-01-17 08:35:02.678012	286.3	48.7	-82.1	0.0
2025-01-17 08:35:03.802382	285.6	48.6	-81.6	0.0
2025-01-17 08:35:04.921934	284.9	48.5	-81.9	0.0
2025-01-17 08:35:06.043526	284.3	48.4	-81.7	0.0
2025-01-17 08:35:07.162526	283.6	48.4	-81.3	0.0
2025-01-17 08:35:08.285001	282.9	48.3	-81.6	0.0
2025-01-17 08:35:09.410244	282.3	48.2	-81.5	0.0
2025-01-17 08:35:10.529931	281.6	48.1	-81.9	0.0
2025-01-17 08:35:11.649115	281.0	48.0	-81.8	0.0
2025-01-17 08:35:12.771759	280.3	47.9	-81.6	0.0
2025-01-17 08:35:13.891251	279.7	47.8	-81.8	0.0
2025-01-17 08:35:15.013231	279.0	47.7	-81.9	0.0
2025-01-17 08:35:16.134671	278.4	47.6	-81.8	0.0
2025-01-17 08:35:17.256296	277.8	47.5	-81.9	0.0
2025-01-17 08:35:18.377987	277.1	47.3	-81.6	0.0
2025-01-17 08:35:19.500031	276.5	47.2	-82.0	0.0
2025-01-17 08:35:20.619611	275.9	47.1	-81.7	0.0
2025-01-17 08:35:21.740756	275.3	47.0	-81.9	0.0
2025-01-17 08:35:22.861529	274.7	46.8	-81.9	0.0
2025-01-17 08:35:23.983716	274.1	46.7	-81.9	0.0
2025-01-17 08:35:25.105736	273.5	46.6	-81.7	0.0
2025-01-17 08:35:26.225479	272.9	46.4	-82.1	0.0
2025-01-17 08:35:27.348304	272.3	46.3	-81.9	0.0
2025-01-17 08:35:28.468699	271.7	46.1	-82.0	0.0
2025-01-17 08:35:29.589829	271.1	46.0	-82.0	0.0
2025-01-17 08:35:30.712222	270.5	45.8	-81.8	0.0
2025-01-17 08:35:31.833502	270.0	45.7	-81.9	0.0
2025-01-17 08:35:32.958409	269.4	45.5	-81.8	0.0
2025-01-17 08:35:34.080427	268.9	45.4	-81.8	0.0
2025-01-17 08:35:35.200602	268.3	45.2	-82.1	0.0
2025-01-17 08:35:36.323063	267.8	45.0	-81.8	0.0
2025-01-17 08:35:37.444217	267.2	44.9	-81.8	0.0
2025-01-17 08:35:38.564510	266.7	44.7	-81.3	0.0
2025-01-17 08:35:39.686867	266.2	44.5	-81.9	0.0
2025-01-17 08:35:40.807394	265.7	44.4	-82.1	0.0
2025-01-17 08:35:41.930081	265.1	44.2	-81.7	0.0
2025-01-17 08:35:43.051153	264.6	44.0	-81.8	0.0
2025-01-17 08:35:44.174479	264.1	43.8	-81.9	0.0
2025-01-17 08:35:45.294597	263.6	43.7	-81.9	0.0
2025-01-17 08:35:46.418330	263.1	43.5	-81.8	0.0
2025-01-17 08:35:47.540610	262.6	43.3	-81.9	0.0
2025-01-17 08:35:48.663083	262.2	43.1	-81.8	0.0
2025-01-17 08:35:49.783871	261.7	42.9	-82.2	0.0
2025-01-17 08:35:50.907325	261.2	42.8	-82.3	0.0
2025-01-17 08:35:52.029184	260.8	42.6	-82.2	0.0
2025-01-17 08:35:53.149911	260.3	42.4	-82.4	0.0
2025-01-17 08:35:54.270245	259.8	42.2	-82.4	0.0
2025-01-17 08:35:55.390032	259.4	42.0	-82.6	0.0
2025-01-17 08:35:56.510024	258.9	41.8	-82.1	0.0
2025-01-17 08:35:57.632320	258.5	41.6	-82.6	0.0
2025-01-17 08:35:58.754518	258.1	41.4	-82.8	0.0
2025-01-17 08:35:59.878072	257.6	41.2	-82.4	0.0
2025-01-17 08:36:01.001900	257.2	41.0	-82.4	0.0
2025-01-17 08:36:02.125647	256.8	40.8	-82.3	0.0
2025-01-17 08:36:03.248183	256.4	40.6	-82.5	0.0
2025-01-17 08:36:04.369679	256.0	40.4	-82.2	0.0
2025-01-17 08:36:05.492848	255.6	40.3	-82.4	0.0
2025-01-17 08:36:06.611653	255.2	40.1	-82.0	0.0
2025-01-17 08:36:07.731973	254.8	39.9	-82.0	0.0
2025-01-17 08:36:08.853109	254.4	39.7	-81.1	0.0
2025-01-17 08:36:09.976815	254.0	39.5	-80.2	0.0
2025-01-17 08:36:11.099724	253.6	39.3	-77.2	0.0
2025-01-17 08:36:12.222379	253.3	39.1	-77.9	0.0
2025-01-17 08:36:13.345649	252.9	38.9	-77.7	0.0
2025-01-17 08:36:14.468304	252.5	38.7	-78.3	0.0
2025-01-17 08:36:15.590998	252.2	38.5	-75.6	0.0
2025-01-17 08:36:16.713786	251.8	38.3	-75.8	0.0
2025-01-17 08:36:17.837162	251.5	38.1	-75.4	0.0
2025-01-17 08:36:18.960670	251.1	37.9	-75.9	0.0
2025-01-17 08:36:20.084205	250.8	37.7	-77.5	0.0
2025-01-17 08:36:21.208614	250.4	37.5	-77.1	0.0
2025-01-17 08:36:22.332381	250.1	37.3	-75.1	0.0
2025-01-17 08:36:23.454060	249.8	37.1	-78.3	0.0
2025-01-17 08:36:24.576160	249.4	36.9	-78.2	0.0
2025-01-17 08:36:25.698801	249.1	36.7	-78.8	0.0
2025-01-17 08:36:26.822489	248.8	36.5	-79.5	0.0
2025-01-17 08:36:27.947126	248.5	36.3	-78.2	0.0
2025-01-17 08:36:29.069291	248.2	36.1	-94.8	0.0
2025-01-17 08:36:30.191491	247.8	35.9	-94.8	0.0
2025-01-17 08:36:31.315410	247.5	35.7	-94.5	0.0
2025-01-17 08:36:32.440268	247.2	35.5	-94.9	0.0
2025-01-17 08:36:33.565515	246.9	35.3	-94.8	0.0
2025-01-17 08:36:34.689791	246.7	35.1	-78.0	0.0
2025-01-17 08:36:35.812134	246.4	34.9	-77.2	0.0
2025-01-17 08:36:36.935112	246.1	34.7	-76.5	0.0
2025-01-17 08:36:38.057719	245.8	34.5	-76.7	0.0
2025-01-17 08:36:39.179736	245.5	34.3	-75.9	0.0
2025-01-17 08:36:40.301972	245.2	34.1	-77.4	0.0
2025-01-17 08:36:41.425332	245.0	33.9	-73.6	0.0
2025-01-17 08:36:42.547915	244.7	33.7	-76.0	0.0
2025-01-17 08:36:43.671560	244.4	33.5	-74.9	0.0
2025-01-17 08:36:44.795257	244.2	33.3	-75.5	0.0
2025-01-17 08:36:45.916824	243.9	33.1	-74.7	0.0
2025-01-17 08:36:47.040441	243.7	32.9	-76.6	0.0
2025-01-17 08:36:48.164454	243.4	32.7	-76.6	0.0
2025-01-17 08:36:49.286198	243.1	32.5	-75.9	0.0
2025-01-17 08:36:50.409290	242.9	32.4	-75.6	0.0
2025-01-17 08:36:51.534513	242.7	32.2	-73.3	0.0
2025-01-17 08:36:52.655693	242.4	32.0	-75.0	0.0
2025-01-17 08:36:53.777087	242.2	31.8	-73.9	0.0
2025-01-17 08:36:54.897642	241.9	31.6	-73.1	0.0
2025-01-17 08:36:56.020161	241.7	31.4	-77.0	0.0
2025-01-17 08:36:57.144115	241.5	31.2	-78.0	0.0
2025-01-17 08:36:58.268252	241.2	31.0	-76.0	0.0
2025-01-17 08:36:59.390553	241.0	30.9	-77.3	0.0
2025-01-17 08:37:00.514954	240.8	30.7	-75.8	0.0
2025-01-17 08:37:01.640692	240.6	30.5	-75.0	0.0
2025-01-17 08:37:02.764108	240.4	30.3	-75.3	0.0
2025-01-17 08:37:03.886799	240.1	30.1	-76.2	0.0
2025-01-17 08:37:05.010369	239.9	29.9	-76.5	0.0
2025-01-17 08:37:06.134749	239.7	29.8	-75.7	0.0
2025-01-17 08:37:07.257390	239.5	29.6	-75.6	0.0
2025-01-17 08:37:08.381267	239.3	29.4	-75.9	0.0
2025-01-17 08:37:09.507306	239.1	29.2	-77.2	0.0
2025-01-17 08:37:10.631961	238.9	29.0	-75.4	0.0
2025-01-17 08:37:11.753481	238.7	28.9	-76.2	0.0
2025-01-17 08:37:12.878930	238.5	28.7	-75.7	0.0
2025-01-17 08:37:14.005080	238.3	28.5	-76.2	0.0
2025-01-17 08:37:15.128423	238.1	28.3	-78.0	0.0
2025-01-17 08:37:16.254293	237.9	28.2	-74.1	0.0
2025-01-17 08:37:17.381448	237.7	28.0	-76.9	0.0
2025-01-17 08:37:18.504817	237.5	27.8	-74.0	0.0
2025-01-17 08:37:19.626592	237.4	27.6	-74.9	0.0
2025-01-17 08:37:20.749513	237.2	27.5	-72.0	0.0
2025-01-17 08:37:21.875106	237.0	27.3	-73.8	0.0
2025-01-17 08:37:22.998368	236.8	27.1	-74.5	0.0
2025-01-17 08:37:24.121276	236.6	27.0	-73.0	0.0
2025-01-17 08:37:25.246709	236.5	26.8	-74.2	0.0
2025-01-17 08:37:26.369770	236.3	26.6	-73.3	0.0
2025-01-17 08:37:27.493436	236.1	26.5	-72.9	0.0
2025-01-17 08:37:28.617184	236.0	26.3	-72.6	0.0
2025-01-17 08:37:29.742161	235.8	26.1	-76.1	0.0
2025-01-17 08:37:30.864167	235.6	26.0	-74.5	0.0
2025-01-17 08:37:31.988653	235.5	25.8	-74.2	0.0
2025-01-17 08:37:33.112775	235.3	25.6	-75.8	0.0
2025-01-17 08:37:34.237856	235.1	25.5	-72.3	0.0
2025-01-17 08:37:35.362318	235.0	25.3	-75.7	0.0
2025-01-17 08:37:36.485123	234.8	25.1	-76.8	0.0
2025-01-17 08:37:37.608181	234.7	25.0	-77.1	0.0
2025-01-17 08:37:38.729758	234.5	24.8	-76.5	0.0
2025-01-17 08:37:39.854329	234.4	24.7	-72.3	0.0
2025-01-17 08:37:40.979708	234.2	24.5	-75.0	0.0
2025-01-17 08:37:42.102971	234.1	24.3	-75.1	0.0
2025-01-17 08:37:43.227261	233.9	24.2	-75.9	0.0
2025-01-17 08:37:44.351853	233.8	24.0	-75.7	0.0
2025-01-17 08:37:45.479149	233.6	23.9	-73.4	0.0
2025-01-17 08:37:46.603725	233.5	23.7	-74.2	0.0
2025-01-17 08:37:47.728009	233.3	23.6	-73.1	0.0
2025-01-17 08:37:48.855084	233.2	23.4	-74.9	0.0
2025-01-17 08:37:49.978193	233.1	23.3	-74.7	0.0
2025-01-17 08:37:51.099225	232.9	23.1	-74.9	0.0
2025-01-17 08:37:52.222544	232.8	23.0	-73.8	0.0
2025-01-17 08:37:53.349037	232.7	22.8	-74.7	0.0
2025-01-17 08:37:54.470451	232.5	22.7	-75.0	0.0
2025-01-17 08:37:55.595711	232.4	22.5	-75.5	0.0
2025-01-17 08:37:56.723433	232.3	22.4	-76.9	0.0
2025-01-17 08:37:57.848180	232.1	22.2	-73.4	0.0
2025-01-17 08:37:58.971877	232.0	22.1	-76.2	0.0
2025-01-17 08:38:00.095940	231.9	21.9	-76.3	0.0
2025-01-17 08:38:01.220350	231.7	21.8	-74.4	0.0
2025-01-17 08:38:02.344804	231.6	21.6	-74.6	0.0
2025-01-17 08:38:03.468341	231.5	21.5	-76.1	0.0
2025-01-17 08:38:04.591337	231.4	21.3	-74.1	0.0
2025-01-17 08:38:05.715077	231.2	21.2	-72.6	0.0
2025-01-17 08:38:06.838079	231.1	21.1	-74.1	0.0
2025-01-17 08:38:07.962165	231.0	20.9	-71.8	0.0
2025-01-17 08:38:09.083479	230.9	20.8	-73.6	0.0
2025-01-17 08:38:10.206519	230.8	20.6	-73.8	0.0
2025-01-17 08:38:11.329096	230.7	20.5	-76.2	0.0
2025-01-17 08:38:12.453167	230.5	20.4	-76.6	0.0
2025-01-17 08:38:13.575961	230.4	20.2	-73.4	0.0
2025-01-17 08:38:14.699902	230.3	20.1	-75.6	0.0
2025-01-17 08:38:15.824286	230.2	20.0	-74.2	0.0
2025-01-17 08:38:16.946854	230.1	19.8	-72.2	0.0
2025-01-17 08:38:18.068676	230.0	19.7	-76.9	0.0
2025-01-17 08:38:19.190699	229.9	19.5	-76.9	0.0
2025-01-17 08:38:20.313036	229.8	19.4	-76.6	0.0
2025-01-17 08:38:21.436218	229.7	19.3	-76.7	0.0
2025-01-17 08:38:22.557856	229.6	19.1	-75.2	0.0
2025-01-17 08:38:23.682399	229.5	19.0	-75.3	0.0
2025-01-17 08:38:24.807076	229.3	18.9	-74.9	0.0
2025-01-17 08:38:25.928318	229.2	18.7	-76.2	0.0
2025-01-17 08:38:27.051713	229.1	18.6	-73.7	0.0
2025-01-17 08:38:28.177074	229.0	18.5	-72.6	0.0
2025-01-17 08:38:29.297407	228.9	18.4	-71.7	0.0
2025-01-17 08:38:30.420690	228.8	18.2	-71.2	0.0
2025-01-17 08:38:31.543940	228.7	18.1	-73.5	0.0
2025-01-17 08:38:32.666380	228.6	18.0	-71.7	0.0
2025-01-17 08:38:33.789005	228.5	17.8	-75.0	0.0
2025-01-17 08:38:34.914333	228.5	17.7	-76.0	0.0
2025-01-17 08:38:36.039358	228.4	17.6	-71.1	0.0
2025-01-17 08:38:37.162523	228.3	17.5	-73.3	0.0
2025-01-17 08:38:38.285190	228.2	17.3	-74.1	0.0
2025-01-17 08:38:39.408433	228.1	17.2	-72.5	0.0
2025-01-17 08:38:40.532337	228.0	17.1	-75.4	0.0
2025-01-17 08:38:41.655421	227.9	17.0	-73.8	0.0
2025-01-17 08:38:42.779990	227.8	16.9	-72.4	0.0
2025-01-17 08:38:43.903485	227.7	16.7	-71.2	0.0
2025-01-17 08:38:45.025339	227.6	16.6	-72.4	0.0
2025-01-17 08:38:46.151587	227.5	16.5	-70.5	0.0
2025-01-17 08:38:47.276190	227.4	16.4	-72.3	0.0
2025-01-17 08:38:48.399183	227.4	16.2	-73.3	0.0
2025-01-17 08:38:49.524090	227.3	16.1	-75.7	0.0
2025-01-17 08:38:50.650151	227.2	16.0	-74.3	0.0
2025-01-17 08:38:51.776296	227.1	15.9	-75.8	0.0
2025-01-17 08:38:52.901626	227.0	15.8	-73.3	0.0
2025-01-17 08:38:54.026133	226.9	15.7	-70.4	0.0
2025-01-17 08:38:55.149814	226.9	15.5	-71.9	0.0
2025-01-17 08:38:56.271001	226.8	15.4	-75.6	0.0
2025-01-17 08:38:57.398578	226.7	15.3	-74.2	0.0
2025-01-17 08:38:58.521219	226.6	15.2	-75.2	0.0
2025-01-17 08:38:59.646422	226.5	15.1	-73.9	0.0
2025-01-17 08:39:00.769542	226.5	15.0	-74.1	0.0
2025-01-17 08:39:01.891441	226.4	14.8	-73.3	0.0
2025-01-17 08:39:03.017142	226.3	14.7	-75.9	0.0
2025-01-17 08:39:04.140936	226.2	14.6	-72.5	0.0
2025-01-17 08:39:05.264190	226.1	14.5	-71.2	0.0
2025-01-17 08:39:06.388259	226.1	14.4	-70.9	0.0
2025-01-17 08:39:07.510983	226.0	14.3	-74.9	0.0
2025-01-17 08:39:08.633550	225.9	14.2	-72.2	0.0
2025-01-17 08:39:09.757075	225.8	14.1	-73.4	0.0
2025-01-17 08:39:10.879358	225.8	14.0	-73.9	0.0
2025-01-17 08:39:12.004439	225.7	13.8	-74.6	0.0
2025-01-17 08:39:13.130921	225.6	13.7	-72.3	0.0
2025-01-17 08:39:14.256233	225.5	13.6	-72.9	0.0
2025-01-17 08:39:15.378658	225.5	13.5	-75.2	0.0
2025-01-17 08:39:16.501189	225.4	13.4	-72.2	0.0
2025-01-17 08:39:17.625060	225.3	13.3	-71.8	0.0
2025-01-17 08:39:18.747468	225.3	13.2	-71.1	0.0
2025-01-17 08:39:19.871565	225.2	13.1	-73.2	0.0
2025-01-17 08:39:20.995861	225.1	13.0	-72.2	0.0
2025-01-17 08:39:22.119528	225.1	12.9	-74.8	0.0
2025-01-17 08:39:23.242468	225.0	12.8	-72.8	0.0
2025-01-17 08:39:24.366992	224.9	12.7	-75.1	0.0
2025-01-17 08:39:25.490041	224.9	12.6	-73.9	0.0
2025-01-17 08:39:26.613367	224.8	12.5	-74.6	0.0
2025-01-17 08:39:27.737711	224.7	12.4	-72.3	0.0
2025-01-17 08:39:28.862401	224.7	12.2	-73.5	0.0
2025-01-17 08:39:29.985111	224.6	12.1	-74.6	0.0
2025-01-17 08:39:31.109876	224.5	12.0	-71.7	0.0
2025-01-17 08:39:32.231886	224.5	11.9	-71.6	0.0
2025-01-17 08:39:33.355035	224.4	11.8	-73.9	0.0
2025-01-17 08:39:34.482432	224.3	11.7	-74.9	0.0
2025-01-17 08:39:35.605876	224.3	11.6	-74.2	0.0
2025-01-17 08:39:36.729460	224.2	11.5	-72.6	0.0
2025-01-17 08:39:37.851663	224.1	11.4	-73.5	0.0
2025-01-17 08:39:38.976113	224.1	11.3	-74.5	0.0
2025-01-17 08:39:40.099800	224.0	11.2	-74.9	0.0
2025-01-17 08:39:41.224099	224.0	11.1	-74.2	0.0
2025-01-17 08:39:42.347411	223.9	11.0	-76.4	0.0
2025-01-17 08:39:43.469878	223.8	10.9	-73.6	0.0
2025-01-17 08:39:44.593315	223.8	10.8	-72.0	0.0
2025-01-17 08:39:45.717902	223.7	10.7	-71.4	0.0
2025-01-17 08:39:46.840454	223.7	10.6	-71.7	0.0
2025-01-17 08:39:47.962259	223.6	10.5	-75.6	0.0
2025-01-17 08:39:49.088064	223.5	10.5	-73.6	0.0
2025-01-17 08:39:50.211972	223.5	10.4	-75.1	0.0
2025-01-17 08:39:51.335643	223.4	10.3	-72.5	0.0
2025-01-17 08:39:52.459294	223.4	10.2	-75.8	0.0
#Closed at: 2025-01-17 08:29:31.427803