passes_logs/2025/01/17/planumMaritime01/planumMaritime01__20250117_002625_METEOR-M2_4_rec.log

#Pass ID: 20250117_002625_METEOR-M2 4
#Satellite: METEOR-M2 4
#Configuration: METEOR-M2 4
#Start time: 2025-01-17 00:26:30.428943

#LorettStation: 1.0.0 05.05.2024
#Station: planumMaritime01
#Location: 37.49445 lon 55.92918 lat
#TLE: 1 59051U 24039A   25016.08315250  .00000067  00000+0  49762-4 0  9990
#TLE: 2 59051  98.6295 339.0709 0006229 221.2535 138.8173 14.22325361 45752

#Time	Az	El	Level	SNR
2025-01-17 00:26:32.587301	25.0	10.2	-81.4	0.0
2025-01-17 00:26:33.710795	25.1	10.3	-81.5	0.0
2025-01-17 00:26:34.833270	25.1	10.4	-81.6	0.0
2025-01-17 00:26:35.954764	25.2	10.5	-81.6	0.0
2025-01-17 00:26:37.073553	25.3	10.5	-81.6	0.0
2025-01-17 00:26:38.193408	25.4	10.6	-81.6	0.0
2025-01-17 00:26:39.315237	25.4	10.7	-81.5	0.0
2025-01-17 00:26:40.434124	25.5	10.8	-81.4	0.0
2025-01-17 00:26:41.558956	25.6	10.9	-81.1	0.0
2025-01-17 00:26:42.678619	25.6	11.0	-81.6	0.0
2025-01-17 00:26:43.801364	25.7	11.1	-81.1	0.0
2025-01-17 00:26:44.923156	25.8	11.2	-81.4	0.0
2025-01-17 00:26:46.043874	25.9	11.3	-81.2	0.0
2025-01-17 00:26:47.164995	25.9	11.4	-81.0	0.0
2025-01-17 00:26:48.285136	26.0	11.5	-81.2	0.0
2025-01-17 00:26:49.405856	26.1	11.6	-81.6	0.0
2025-01-17 00:26:50.524488	26.1	11.7	-81.3	0.0
2025-01-17 00:26:51.645303	26.2	11.8	-81.3	0.0
2025-01-17 00:26:52.768858	26.3	11.9	-81.7	0.0
2025-01-17 00:26:53.890433	26.4	12.0	-81.6	0.0
2025-01-17 00:26:55.012856	26.4	12.1	-81.6	0.0
2025-01-17 00:26:56.133717	26.5	12.2	-81.6	0.0
2025-01-17 00:26:57.254244	26.6	12.3	-81.5	0.0
2025-01-17 00:26:58.373907	26.7	12.4	-81.5	0.0
2025-01-17 00:26:59.498704	26.8	12.5	-81.6	0.0
2025-01-17 00:27:00.620544	26.8	12.6	-81.5	0.0
2025-01-17 00:27:01.744119	26.9	12.7	-81.4	0.0
2025-01-17 00:27:02.867392	27.0	12.8	-81.4	0.0
2025-01-17 00:27:03.985745	27.1	12.9	-81.7	0.0
2025-01-17 00:27:05.107490	27.2	13.0	-81.5	0.0
2025-01-17 00:27:06.227965	27.2	13.1	-81.4	0.0
2025-01-17 00:27:07.349354	27.3	13.2	-81.8	0.0
2025-01-17 00:27:08.468529	27.4	13.3	-81.7	0.0
2025-01-17 00:27:09.587290	27.5	13.4	-81.5	0.0
2025-01-17 00:27:10.709162	27.6	13.5	-81.9	0.0
2025-01-17 00:27:11.830418	27.7	13.6	-81.9	0.0
2025-01-17 00:27:12.951160	27.7	13.7	-81.5	0.0
2025-01-17 00:27:14.072040	27.8	13.8	-81.7	0.0
2025-01-17 00:27:15.192457	27.9	13.9	-81.5	0.0
2025-01-17 00:27:16.313477	28.0	14.0	-81.9	0.0
2025-01-17 00:27:17.434101	28.1	14.1	-82.0	0.0
2025-01-17 00:27:18.552717	28.2	14.3	-81.9	0.0
2025-01-17 00:27:19.673117	28.3	14.4	-81.7	0.0
2025-01-17 00:27:20.794668	28.3	14.5	-81.3	0.0
2025-01-17 00:27:21.915792	28.4	14.6	-81.5	0.0
2025-01-17 00:27:23.038198	28.5	14.7	-81.5	0.0
2025-01-17 00:27:24.158321	28.6	14.8	-81.8	0.0
2025-01-17 00:27:25.280969	28.7	14.9	-81.8	0.0
2025-01-17 00:27:26.403507	28.8	15.0	-81.8	0.0
2025-01-17 00:27:27.526408	28.9	15.1	-81.4	0.0
2025-01-17 00:27:28.646549	29.0	15.2	-82.0	0.0
2025-01-17 00:27:29.767151	29.1	15.3	-81.9	0.0
2025-01-17 00:27:30.888978	29.2	15.5	-81.9	0.0
2025-01-17 00:27:32.009300	29.3	15.6	-82.0	0.0
2025-01-17 00:27:33.131474	29.4	15.7	-81.8	0.0
2025-01-17 00:27:34.253987	29.5	15.8	-82.1	0.0
2025-01-17 00:27:35.376199	29.6	15.9	-82.0	0.0
2025-01-17 00:27:36.496522	29.6	16.0	-81.4	0.0
2025-01-17 00:27:37.619566	29.7	16.1	-81.7	0.0
2025-01-17 00:27:38.740799	29.8	16.3	-81.9	0.0
2025-01-17 00:27:39.861386	29.9	16.4	-81.8	0.0
2025-01-17 00:27:40.985119	30.0	16.5	-82.0	0.0
2025-01-17 00:27:42.106766	30.1	16.6	-82.1	0.0
2025-01-17 00:27:43.227274	30.3	16.7	-81.9	0.0
2025-01-17 00:27:44.347627	30.4	16.8	-82.1	0.0
2025-01-17 00:27:45.469430	30.5	17.0	-82.3	0.0
2025-01-17 00:27:46.592652	30.6	17.1	-82.1	0.0
2025-01-17 00:27:47.714548	30.7	17.2	-82.3	0.0
2025-01-17 00:27:48.835966	30.8	17.3	-82.0	0.0
2025-01-17 00:27:49.957192	30.9	17.4	-82.2	0.0
2025-01-17 00:27:51.077845	31.0	17.6	-81.8	0.0
2025-01-17 00:27:52.195838	31.1	17.7	-82.2	0.0
2025-01-17 00:27:53.315474	31.2	17.8	-82.2	0.0
2025-01-17 00:27:54.438800	31.3	17.9	-82.2	0.0
2025-01-17 00:27:55.559755	31.4	18.0	-82.0	0.0
2025-01-17 00:27:56.682383	31.5	18.2	-82.2	0.0
2025-01-17 00:27:57.804662	31.7	18.3	-82.1	0.0
2025-01-17 00:27:58.927043	31.8	18.4	-82.1	0.0
2025-01-17 00:28:00.048616	31.9	18.5	-82.3	0.0
2025-01-17 00:28:01.171580	32.0	18.7	-81.8	0.0
2025-01-17 00:28:02.292049	32.1	18.8	-82.1	0.0
2025-01-17 00:28:03.414348	32.2	18.9	-81.9	0.0
2025-01-17 00:28:04.535167	32.3	19.0	-82.1	0.0
2025-01-17 00:28:05.655203	32.5	19.2	-82.0	0.0
2025-01-17 00:28:06.775911	32.6	19.3	-82.2	0.0
2025-01-17 00:28:07.897878	32.7	19.4	-82.0	0.0
2025-01-17 00:28:09.021776	32.8	19.6	-82.0	0.0
2025-01-17 00:28:10.145918	33.0	19.7	-82.0	0.0
2025-01-17 00:28:11.264270	33.1	19.8	-82.2	0.0
2025-01-17 00:28:12.386047	33.2	19.9	-82.2	0.0
2025-01-17 00:28:13.506609	33.3	20.1	-82.0	0.0
2025-01-17 00:28:14.624527	33.5	20.2	-82.1	0.0
2025-01-17 00:28:15.745292	33.6	20.3	-82.0	0.0
2025-01-17 00:28:16.870468	33.7	20.5	-82.2	0.0
2025-01-17 00:28:17.991800	33.8	20.6	-82.1	0.0
2025-01-17 00:28:19.112374	34.0	20.7	-82.4	0.0
2025-01-17 00:28:20.232452	34.1	20.9	-82.2	0.0
2025-01-17 00:28:21.357858	34.2	21.0	-82.0	0.0
2025-01-17 00:28:22.476878	34.4	21.2	-82.0	0.0
2025-01-17 00:28:23.596088	34.5	21.3	-82.4	0.0
2025-01-17 00:28:24.716600	34.7	21.4	-82.0	0.0
2025-01-17 00:28:25.839876	34.8	21.6	-82.1	0.0
2025-01-17 00:28:26.958490	34.9	21.7	-82.4	0.0
2025-01-17 00:28:28.078970	35.1	21.8	-82.4	0.0
2025-01-17 00:28:29.200512	35.2	22.0	-82.2	0.0
2025-01-17 00:28:30.325974	35.4	22.1	-82.2	0.0
2025-01-17 00:28:31.445960	35.5	22.3	-82.4	0.0
2025-01-17 00:28:32.565356	35.6	22.4	-82.3	0.0
2025-01-17 00:28:33.685778	35.8	22.5	-82.2	0.0
2025-01-17 00:28:34.806490	35.9	22.7	-82.4	0.0
2025-01-17 00:28:35.925988	36.1	22.8	-81.9	0.0
2025-01-17 00:28:37.046989	36.2	23.0	-82.2	0.0
2025-01-17 00:28:38.166768	36.4	23.1	-82.1	0.0
2025-01-17 00:28:39.286994	36.6	23.3	-82.2	0.0
2025-01-17 00:28:40.405997	36.7	23.4	-82.3	0.0
2025-01-17 00:28:41.526270	36.9	23.6	-82.2	0.0
2025-01-17 00:28:42.646119	37.0	23.7	-81.9	0.0
2025-01-17 00:28:43.765452	37.2	23.8	-82.2	0.0
2025-01-17 00:28:44.886191	37.3	24.0	-82.2	0.0
2025-01-17 00:28:46.007944	37.5	24.1	-82.4	0.0
2025-01-17 00:28:47.127805	37.7	24.3	-82.1	0.0
2025-01-17 00:28:48.248813	37.8	24.4	-81.9	0.0
2025-01-17 00:28:49.368674	38.0	24.6	-82.3	0.0
2025-01-17 00:28:50.490620	38.2	24.7	-82.0	0.0
2025-01-17 00:28:51.614235	38.3	24.9	-81.9	0.0
2025-01-17 00:28:52.734117	38.5	25.1	-82.4	0.0
2025-01-17 00:28:53.852320	38.7	25.2	-82.5	0.0
2025-01-17 00:28:54.973387	38.9	25.4	-82.3	0.0
2025-01-17 00:28:56.093767	39.0	25.5	-82.4	0.0
2025-01-17 00:28:57.215123	39.2	25.7	-82.4	0.0
2025-01-17 00:28:58.336130	39.4	25.8	-82.4	0.0
2025-01-17 00:28:59.457656	39.6	26.0	-82.4	0.0
2025-01-17 00:29:00.579986	39.8	26.1	-82.3	0.0
2025-01-17 00:29:01.702145	39.9	26.3	-82.6	0.0
2025-01-17 00:29:02.823648	40.1	26.5	-82.4	0.0
2025-01-17 00:29:03.944997	40.3	26.6	-82.3	0.0
2025-01-17 00:29:05.065335	40.5	26.8	-82.4	0.0
2025-01-17 00:29:06.182938	40.7	26.9	-82.2	0.0
2025-01-17 00:29:07.306404	40.9	27.1	-82.5	0.0
2025-01-17 00:29:08.428205	41.1	27.3	-82.4	0.0
2025-01-17 00:29:09.548683	41.3	27.4	-82.5	0.0
2025-01-17 00:29:10.669078	41.5	27.6	-82.1	0.0
2025-01-17 00:29:11.790077	41.7	27.7	-82.6	0.0
2025-01-17 00:29:12.911051	41.9	27.9	-82.3	0.0
2025-01-17 00:29:14.030714	42.1	28.1	-82.5	0.0
2025-01-17 00:29:15.150718	42.3	28.2	-82.5	0.0
2025-01-17 00:29:16.275653	42.5	28.4	-82.6	0.0
2025-01-17 00:29:17.399067	42.8	28.6	-82.5	0.0
2025-01-17 00:29:18.521502	43.0	28.7	-82.5	0.0
2025-01-17 00:29:19.642729	43.2	28.9	-82.1	0.0
2025-01-17 00:29:20.762010	43.4	29.1	-82.2	0.0
2025-01-17 00:29:21.884398	43.6	29.2	-82.5	0.0
2025-01-17 00:29:23.007682	43.9	29.4	-82.3	0.0
2025-01-17 00:29:24.128044	44.1	29.6	-82.3	0.0
2025-01-17 00:29:25.248023	44.3	29.7	-82.3	0.0
2025-01-17 00:29:26.369604	44.5	29.9	-82.3	0.0
2025-01-17 00:29:27.490814	44.8	30.1	-82.5	0.0
2025-01-17 00:29:28.611977	45.0	30.3	-82.4	0.0
2025-01-17 00:29:29.734351	45.3	30.4	-82.2	0.0
2025-01-17 00:29:30.854753	45.5	30.6	-82.3	0.0
2025-01-17 00:29:31.975924	45.7	30.8	-82.3	0.0
2025-01-17 00:29:33.095206	46.0	30.9	-82.2	0.0
2025-01-17 00:29:34.218314	46.2	31.1	-82.1	0.0
2025-01-17 00:29:35.341027	46.5	31.3	-82.4	0.0
2025-01-17 00:29:36.461967	46.7	31.5	-82.2	0.0
2025-01-17 00:29:37.582906	47.0	31.6	-82.2	0.0
2025-01-17 00:29:38.704832	47.3	31.8	-82.3	0.0
2025-01-17 00:29:39.825060	47.5	32.0	-82.4	0.0
2025-01-17 00:29:40.947805	47.8	32.2	-82.3	0.0
2025-01-17 00:29:42.068533	48.1	32.4	-82.3	0.0
2025-01-17 00:29:43.189486	48.3	32.5	-82.3	0.0
2025-01-17 00:29:44.310029	48.6	32.7	-82.3	0.0
2025-01-17 00:29:45.428420	48.9	32.9	-82.1	0.0
2025-01-17 00:29:46.551242	49.2	33.1	-82.4	0.0
2025-01-17 00:29:47.672614	49.4	33.2	-82.2	0.0
2025-01-17 00:29:48.793793	49.7	33.4	-82.4	0.0
2025-01-17 00:29:49.915141	50.0	33.6	-82.5	0.0
2025-01-17 00:29:51.035259	50.3	33.8	-82.3	0.0
2025-01-17 00:29:52.154782	50.6	34.0	-82.1	0.0
2025-01-17 00:29:53.278084	50.9	34.1	-81.9	0.0
2025-01-17 00:29:54.398902	51.2	34.3	-82.1	0.0
2025-01-17 00:29:55.521399	51.5	34.5	-82.2	0.0
2025-01-17 00:29:56.641153	51.8	34.7	-82.1	0.0
2025-01-17 00:29:57.759794	52.1	34.9	-82.0	0.0
2025-01-17 00:29:58.880348	52.5	35.1	-81.9	0.0
2025-01-17 00:30:00.004221	52.8	35.2	-82.2	0.0
2025-01-17 00:30:01.124909	53.1	35.4	-81.8	0.0
2025-01-17 00:30:02.246321	53.4	35.6	-82.2	0.0
2025-01-17 00:30:03.367190	53.8	35.8	-82.1	0.0
2025-01-17 00:30:04.488381	54.1	36.0	-82.1	0.0
2025-01-17 00:30:05.608924	54.4	36.1	-82.1	0.0
2025-01-17 00:30:06.730329	54.8	36.3	-82.0	0.0
2025-01-17 00:30:07.850591	55.1	36.5	-82.0	0.0
2025-01-17 00:30:08.972851	55.5	36.7	-82.2	0.0
2025-01-17 00:30:10.094545	55.8	36.9	-82.2	0.0
2025-01-17 00:30:11.216403	56.2	37.0	-82.1	0.0
2025-01-17 00:30:12.337678	56.5	37.2	-81.8	0.0
2025-01-17 00:30:13.456616	56.9	37.4	-82.0	0.0
2025-01-17 00:30:14.576968	57.3	37.6	-81.9	0.0
2025-01-17 00:30:15.696466	57.6	37.8	-82.0	0.0
2025-01-17 00:30:16.817659	58.0	37.9	-82.0	0.0
2025-01-17 00:30:17.939783	58.4	38.1	-81.9	0.0
2025-01-17 00:30:19.060303	58.8	38.3	-82.1	0.0
2025-01-17 00:30:20.179701	59.2	38.5	-82.1	0.0
2025-01-17 00:30:21.303242	59.6	38.7	-82.0	0.0
2025-01-17 00:30:22.424169	60.0	38.8	-82.0	0.0
2025-01-17 00:30:23.544258	60.4	39.0	-82.1	0.0
2025-01-17 00:30:24.665397	60.8	39.2	-81.9	0.0
2025-01-17 00:30:25.786104	61.2	39.4	-82.1	0.0
2025-01-17 00:30:26.908212	61.6	39.5	-82.1	0.0
2025-01-17 00:30:28.027488	62.0	39.7	-81.8	0.0
2025-01-17 00:30:29.149024	62.5	39.9	-82.1	0.0
2025-01-17 00:30:30.272432	62.9	40.0	-82.1	0.0
2025-01-17 00:30:31.393060	63.3	40.2	-81.9	0.0
2025-01-17 00:30:32.513409	63.8	40.4	-82.3	0.0
2025-01-17 00:30:33.634679	64.2	40.6	-82.0	0.0
2025-01-17 00:30:34.755037	64.6	40.7	-82.0	0.0
2025-01-17 00:30:35.877426	65.1	40.9	-81.6	0.0
2025-01-17 00:30:36.999514	65.6	41.1	-81.4	0.0
2025-01-17 00:30:38.121658	66.0	41.2	-82.0	0.0
2025-01-17 00:30:39.244140	66.5	41.4	-81.9	0.8
2025-01-17 00:30:40.365629	67.0	41.5	-81.4	1.3
2025-01-17 00:30:41.487919	67.4	41.7	-81.7	1.1
2025-01-17 00:30:42.610309	67.9	41.9	-81.7	0.5
2025-01-17 00:30:43.732533	68.4	42.0	-81.8	0.5
2025-01-17 00:30:44.855132	68.9	42.2	-81.8	0.0
2025-01-17 00:30:45.977464	69.4	42.3	-81.5	1.4
2025-01-17 00:30:47.098549	69.9	42.5	-81.9	0.0
2025-01-17 00:30:48.218741	70.4	42.6	-82.0	0.0
2025-01-17 00:30:49.338673	70.9	42.8	-81.9	1.0
2025-01-17 00:30:50.458784	71.4	42.9	-81.6	0.2
2025-01-17 00:30:51.578803	71.9	43.1	-82.0	0.0
2025-01-17 00:30:52.699564	72.4	43.2	-82.1	0.4
2025-01-17 00:30:53.820999	73.0	43.3	-82.3	0.0
2025-01-17 00:30:54.942639	73.5	43.5	-82.1	0.0
2025-01-17 00:30:56.065461	74.0	43.6	-82.0	0.0
2025-01-17 00:30:57.185937	74.6	43.8	-82.0	0.0
2025-01-17 00:30:58.307892	75.1	43.9	-82.1	0.0
2025-01-17 00:30:59.428466	75.7	44.0	-82.1	0.0
2025-01-17 00:31:00.551641	76.2	44.1	-81.9	0.0
2025-01-17 00:31:01.671807	76.8	44.3	-82.2	0.0
2025-01-17 00:31:02.792092	77.3	44.4	-82.2	0.0
2025-01-17 00:31:03.911960	77.9	44.5	-82.1	0.0
2025-01-17 00:31:05.034681	78.5	44.6	-82.1	0.0
2025-01-17 00:31:06.152973	79.0	44.7	-81.6	0.0
2025-01-17 00:31:07.271989	79.6	44.8	-82.2	0.0
2025-01-17 00:31:08.393302	80.2	45.0	-82.3	0.0
2025-01-17 00:31:09.514349	80.8	45.1	-82.1	0.0
2025-01-17 00:31:10.635365	81.4	45.2	-82.2	0.0
2025-01-17 00:31:11.757843	82.0	45.3	-82.2	0.0
2025-01-17 00:31:12.878738	82.6	45.4	-82.2	0.0
2025-01-17 00:31:13.999188	83.2	45.4	-82.5	0.0
2025-01-17 00:31:15.121586	83.8	45.5	-82.1	0.0
2025-01-17 00:31:16.241426	84.4	45.6	-82.5	0.0
2025-01-17 00:31:17.363297	85.0	45.7	-82.5	0.0
2025-01-17 00:31:18.484386	85.6	45.8	-82.4	0.0
2025-01-17 00:31:19.606806	86.2	45.9	-82.6	0.0
2025-01-17 00:31:20.727240	86.8	45.9	-82.5	0.0
2025-01-17 00:31:21.847135	87.5	46.0	-82.6	0.0
2025-01-17 00:31:22.968950	88.1	46.1	-82.5	0.0
2025-01-17 00:31:24.088209	88.7	46.1	-82.7	0.0
2025-01-17 00:31:25.210071	89.4	46.2	-82.7	0.0
2025-01-17 00:31:26.331134	90.0	46.2	-82.5	0.0
2025-01-17 00:31:27.451157	90.6	46.3	-82.4	0.0
2025-01-17 00:31:28.570784	91.3	46.3	-82.6	0.0
2025-01-17 00:31:29.693355	91.9	46.4	-82.5	0.0
2025-01-17 00:31:30.815859	92.5	46.4	-82.6	0.0
2025-01-17 00:31:31.938630	93.2	46.5	-82.4	0.0
2025-01-17 00:31:33.061103	93.8	46.5	-82.2	0.0
2025-01-17 00:31:34.182900	94.5	46.5	-82.1	0.0
2025-01-17 00:31:35.304440	95.1	46.5	-82.0	0.0
2025-01-17 00:31:36.426395	95.8	46.6	-82.2	0.0
2025-01-17 00:31:37.547192	96.4	46.6	-81.9	1.9
2025-01-17 00:31:38.667334	97.1	46.6	-82.0	1.2
2025-01-17 00:31:39.787912	97.7	46.6	-81.9	2.8
2025-01-17 00:31:40.911222	98.4	46.6	-81.6	2.0
2025-01-17 00:31:42.032054	99.0	46.6	-81.8	2.8
2025-01-17 00:31:43.152995	99.7	46.6	-81.5	3.0
2025-01-17 00:31:44.276498	100.3	46.6	-81.8	1.9
2025-01-17 00:31:45.397876	101.0	46.6	-81.7	1.9
2025-01-17 00:31:46.517731	101.6	46.6	-81.6	2.3
2025-01-17 00:31:47.639439	102.3	46.5	-81.6	2.1
2025-01-17 00:31:48.761514	102.9	46.5	-81.4	3.3
2025-01-17 00:31:49.881799	103.5	46.5	-81.7	4.0
2025-01-17 00:31:51.002545	104.2	46.5	-81.8	3.5
2025-01-17 00:31:52.122780	104.8	46.4	-81.4	5.1
2025-01-17 00:31:53.244497	105.5	46.4	-81.5	5.0
2025-01-17 00:31:54.364393	106.1	46.3	-81.3	5.1
2025-01-17 00:31:55.487590	106.7	46.3	-81.2	5.3
2025-01-17 00:31:56.608123	107.4	46.2	-81.5	5.1
2025-01-17 00:31:57.729192	108.0	46.2	-81.4	4.7
2025-01-17 00:31:58.850677	108.7	46.1	-81.5	4.0
2025-01-17 00:31:59.973781	109.3	46.1	-81.6	4.3
2025-01-17 00:32:01.094693	109.9	46.0	-81.5	3.2
2025-01-17 00:32:02.216945	110.5	45.9	-81.3	4.8
2025-01-17 00:32:03.338674	111.2	45.9	-81.0	4.0
2025-01-17 00:32:04.458440	111.8	45.8	-81.5	3.6
2025-01-17 00:32:05.583079	112.4	45.7	-81.4	3.8
2025-01-17 00:32:06.704122	113.0	45.6	-81.7	4.1
2025-01-17 00:32:07.825586	113.6	45.6	-81.6	3.4
2025-01-17 00:32:08.948004	114.2	45.5	-81.7	2.5
2025-01-17 00:32:10.069299	114.8	45.4	-81.8	3.4
2025-01-17 00:32:11.190744	115.4	45.3	-81.9	0.0
2025-01-17 00:32:12.314514	116.0	45.2	-82.1	1.9
2025-01-17 00:32:13.436334	116.6	45.1	-81.9	1.4
2025-01-17 00:32:14.555062	117.2	45.0	-82.0	0.0
2025-01-17 00:32:15.675555	117.8	44.9	-82.1	1.4
2025-01-17 00:32:16.796011	118.4	44.8	-82.0	0.0
2025-01-17 00:32:17.914785	118.9	44.6	-82.2	0.0
2025-01-17 00:32:19.034892	119.5	44.5	-82.1	0.6
2025-01-17 00:32:20.155375	120.1	44.4	-82.1	0.6
2025-01-17 00:32:21.280119	120.6	44.3	-82.1	0.3
2025-01-17 00:32:22.399796	121.2	44.2	-81.9	0.0
2025-01-17 00:32:23.520777	121.8	44.0	-82.2	0.0
2025-01-17 00:32:24.641969	122.3	43.9	-82.1	0.0
2025-01-17 00:32:25.762138	122.9	43.8	-82.2	0.0
2025-01-17 00:32:26.882992	123.4	43.6	-82.1	0.0
2025-01-17 00:32:28.004859	123.9	43.5	-81.9	0.0
2025-01-17 00:32:29.127685	124.5	43.4	-82.1	0.0
2025-01-17 00:32:30.248536	125.0	43.2	-81.9	0.0
2025-01-17 00:32:31.370088	125.5	43.1	-82.2	0.0
2025-01-17 00:32:32.491163	126.0	42.9	-82.3	0.0
2025-01-17 00:32:33.614055	126.6	42.8	-82.1	0.0
2025-01-17 00:32:34.734497	127.1	42.6	-82.2	0.0
2025-01-17 00:32:35.854225	127.6	42.5	-82.3	0.0
2025-01-17 00:32:36.975997	128.1	42.3	-82.2	0.0
2025-01-17 00:32:38.097942	128.6	42.2	-82.4	0.0
2025-01-17 00:32:39.221789	129.1	42.0	-82.2	0.0
2025-01-17 00:32:40.342422	129.6	41.9	-82.2	0.0
2025-01-17 00:32:41.463115	130.0	41.7	-82.4	0.0
2025-01-17 00:32:42.586185	130.5	41.6	-82.3	0.0
2025-01-17 00:32:43.705535	131.0	41.4	-82.4	0.0
2025-01-17 00:32:44.826089	131.5	41.2	-82.2	0.0
2025-01-17 00:32:45.946675	131.9	41.1	-82.1	0.0
2025-01-17 00:32:47.066859	132.4	40.9	-82.3	0.0
2025-01-17 00:32:48.186653	132.8	40.7	-82.5	0.0
2025-01-17 00:32:49.308172	133.3	40.6	-82.4	0.0
2025-01-17 00:32:50.428759	133.7	40.4	-81.9	0.0
2025-01-17 00:32:51.549253	134.2	40.2	-82.5	0.0
2025-01-17 00:32:52.670230	134.6	40.0	-82.3	0.0
2025-01-17 00:32:53.792053	135.0	39.9	-82.2	0.0
2025-01-17 00:32:54.914127	135.5	39.7	-82.6	0.0
2025-01-17 00:32:56.036969	135.9	39.5	-82.2	0.0
2025-01-17 00:32:57.158240	136.3	39.4	-82.5	0.0
2025-01-17 00:32:58.281296	136.7	39.2	-82.6	0.0
2025-01-17 00:32:59.400932	137.1	39.0	-82.5	0.0
2025-01-17 00:33:00.521153	137.5	38.8	-82.4	0.0
2025-01-17 00:33:01.640649	137.9	38.6	-82.2	0.0
2025-01-17 00:33:02.761516	138.3	38.5	-82.3	0.0
2025-01-17 00:33:03.883453	138.7	38.3	-82.4	0.0
2025-01-17 00:33:05.004174	139.1	38.1	-82.6	0.0
2025-01-17 00:33:06.125685	139.5	37.9	-82.7	0.0
2025-01-17 00:33:07.245531	139.9	37.7	-82.8	0.0
2025-01-17 00:33:08.368152	140.2	37.6	-82.6	0.0
2025-01-17 00:33:09.489944	140.6	37.4	-82.3	0.0
2025-01-17 00:33:10.613822	141.0	37.2	-82.5	0.0
2025-01-17 00:33:11.734967	141.4	37.0	-82.5	0.0
2025-01-17 00:33:12.857119	141.7	36.8	-82.5	0.0
2025-01-17 00:33:13.978622	142.1	36.7	-82.5	0.0
2025-01-17 00:33:15.098777	142.4	36.5	-82.5	0.0
2025-01-17 00:33:16.219779	142.8	36.3	-82.1	0.0
2025-01-17 00:33:17.341959	143.1	36.1	-82.5	0.0
2025-01-17 00:33:18.460334	143.4	35.9	-82.5	0.0
2025-01-17 00:33:19.581539	143.8	35.7	-82.6	0.0
2025-01-17 00:33:20.704784	144.1	35.6	-82.3	0.0
2025-01-17 00:33:21.824592	144.4	35.4	-82.4	0.0
2025-01-17 00:33:22.947399	144.8	35.2	-82.7	0.0
2025-01-17 00:33:24.068543	145.1	35.0	-82.5	0.0
2025-01-17 00:33:25.188485	145.4	34.8	-82.6	0.0
2025-01-17 00:33:26.309674	145.7	34.6	-82.5	0.0
2025-01-17 00:33:27.426934	146.0	34.5	-82.6	0.0
2025-01-17 00:33:28.547384	146.3	34.3	-82.6	0.0
2025-01-17 00:33:29.669211	146.6	34.1	-82.6	0.0
2025-01-17 00:33:30.788415	146.9	33.9	-82.4	0.0
2025-01-17 00:33:31.909976	147.2	33.7	-82.3	0.0
2025-01-17 00:33:33.028604	147.5	33.6	-82.5	0.0
2025-01-17 00:33:34.151598	147.8	33.4	-82.1	0.0
2025-01-17 00:33:35.273556	148.1	33.2	-82.6	0.0
2025-01-17 00:33:36.396385	148.4	33.0	-82.6	0.0
2025-01-17 00:33:37.519743	148.7	32.8	-82.5	0.0
2025-01-17 00:33:38.638166	149.0	32.7	-82.6	0.0
2025-01-17 00:33:39.761197	149.2	32.5	-82.6	0.0
2025-01-17 00:33:40.885360	149.5	32.3	-82.2	0.0
2025-01-17 00:33:42.007554	149.8	32.1	-82.6	0.0
2025-01-17 00:33:43.132252	150.1	31.9	-82.5	0.0
2025-01-17 00:33:44.252468	150.3	31.8	-82.5	0.0
2025-01-17 00:33:45.373740	150.6	31.6	-82.6	0.0
2025-01-17 00:33:46.494079	150.8	31.4	-82.5	0.0
2025-01-17 00:33:47.615607	151.1	31.2	-82.6	0.0
2025-01-17 00:33:48.735116	151.4	31.1	-82.6	0.0
2025-01-17 00:33:49.858542	151.6	30.9	-82.6	0.0
2025-01-17 00:33:50.980543	151.8	30.7	-82.6	0.0
2025-01-17 00:33:52.100702	152.1	30.5	-82.5	0.0
2025-01-17 00:33:53.220750	152.3	30.4	-82.7	0.0
2025-01-17 00:33:54.340320	152.6	30.2	-82.6	0.0
2025-01-17 00:33:55.462749	152.8	30.0	-82.7	0.0
2025-01-17 00:33:56.585223	153.0	29.8	-82.6	0.0
2025-01-17 00:33:57.706038	153.3	29.7	-82.6	0.0
2025-01-17 00:33:58.825265	153.5	29.5	-82.6	0.0
2025-01-17 00:33:59.947330	153.7	29.3	-82.6	0.0
2025-01-17 00:34:01.065239	154.0	29.1	-82.6	0.0
2025-01-17 00:34:02.186913	154.2	29.0	-82.5	0.0
2025-01-17 00:34:03.308060	154.4	28.8	-82.4	0.0
2025-01-17 00:34:04.426744	154.6	28.6	-82.5	0.0
2025-01-17 00:34:05.549263	154.8	28.5	-82.2	0.0
2025-01-17 00:34:06.671142	155.1	28.3	-82.6	0.0
2025-01-17 00:34:07.790712	155.3	28.1	-82.4	0.0
2025-01-17 00:34:08.911113	155.5	28.0	-82.2	0.0
2025-01-17 00:34:10.030275	155.7	27.8	-82.4	0.0
2025-01-17 00:34:11.151307	155.9	27.6	-82.2	0.0
2025-01-17 00:34:12.273967	156.1	27.5	-82.3	0.0
2025-01-17 00:34:13.396193	156.3	27.3	-82.3	0.0
2025-01-17 00:34:14.521152	156.5	27.1	-82.5	0.0
2025-01-17 00:34:15.641688	156.7	27.0	-82.7	0.0
2025-01-17 00:34:16.764070	156.9	26.8	-82.6	0.0
2025-01-17 00:34:17.885259	157.1	26.7	-82.7	0.0
2025-01-17 00:34:19.004914	157.3	26.5	-82.7	0.0
2025-01-17 00:34:20.125901	157.5	26.3	-82.1	0.0
2025-01-17 00:34:21.246107	157.7	26.2	-82.2	0.0
2025-01-17 00:34:22.367898	157.8	26.0	-82.4	0.0
2025-01-17 00:34:23.488894	158.0	25.9	-82.6	0.0
2025-01-17 00:34:24.609272	158.2	25.7	-82.6	0.0
2025-01-17 00:34:25.728564	158.4	25.5	-82.6	0.0
2025-01-17 00:34:26.849568	158.6	25.4	-82.7	0.0
2025-01-17 00:34:27.971532	158.7	25.2	-82.4	0.0
2025-01-17 00:34:29.093453	158.9	25.1	-82.7	0.0
2025-01-17 00:34:30.216270	159.1	24.9	-82.6	0.0
2025-01-17 00:34:31.339041	159.3	24.8	-82.6	0.0
2025-01-17 00:34:32.459924	159.4	24.6	-82.4	0.0
2025-01-17 00:34:33.581875	159.6	24.5	-82.6	0.0
2025-01-17 00:34:34.701956	159.8	24.3	-82.9	0.0
2025-01-17 00:34:35.821217	159.9	24.2	-82.6	0.0
2025-01-17 00:34:36.940571	160.1	24.0	-82.5	0.0
2025-01-17 00:34:38.061118	160.3	23.9	-82.8	0.0
2025-01-17 00:34:39.183565	160.4	23.7	-82.6	0.0
2025-01-17 00:34:40.306854	160.6	23.6	-82.6	0.0
2025-01-17 00:34:41.426977	160.8	23.4	-82.7	0.0
2025-01-17 00:34:42.547365	160.9	23.3	-82.6	0.0
2025-01-17 00:34:43.669397	161.1	23.1	-82.6	0.0
2025-01-17 00:34:44.790075	161.2	23.0	-82.8	0.0
2025-01-17 00:34:45.912237	161.4	22.8	-82.8	0.0
2025-01-17 00:34:47.032114	161.5	22.7	-82.7	0.0
2025-01-17 00:34:48.151008	161.7	22.5	-82.8	0.0
2025-01-17 00:34:49.272462	161.8	22.4	-82.7	0.0
2025-01-17 00:34:50.391157	162.0	22.3	-82.8	0.0
2025-01-17 00:34:51.513509	162.1	22.1	-82.6	0.0
2025-01-17 00:34:52.635561	162.3	22.0	-82.6	0.0
2025-01-17 00:34:53.755872	162.4	21.8	-82.7	0.0
2025-01-17 00:34:54.877034	162.5	21.7	-82.6	0.0
2025-01-17 00:34:55.997357	162.7	21.5	-82.7	0.0
2025-01-17 00:34:57.118457	162.8	21.4	-82.8	0.0
2025-01-17 00:34:58.239006	163.0	21.3	-82.8	0.0
2025-01-17 00:34:59.360329	163.1	21.1	-82.7	0.0
2025-01-17 00:35:00.482006	163.2	21.0	-82.7	0.0
2025-01-17 00:35:01.602275	163.4	20.9	-82.7	0.0
2025-01-17 00:35:02.724209	163.5	20.7	-82.5	0.0
2025-01-17 00:35:03.848207	163.6	20.6	-82.6	0.0
2025-01-17 00:35:04.969702	163.8	20.4	-82.7	0.0
2025-01-17 00:35:06.089724	163.9	20.3	-83.0	0.0
2025-01-17 00:35:07.210385	164.0	20.2	-82.8	0.0
2025-01-17 00:35:08.332527	164.2	20.0	-82.5	0.0
2025-01-17 00:35:09.453537	164.3	19.9	-82.7	0.0
2025-01-17 00:35:10.578542	164.4	19.8	-82.6	0.0
2025-01-17 00:35:11.699914	164.5	19.6	-82.8	0.0
2025-01-17 00:35:12.819848	164.7	19.5	-82.6	0.0
2025-01-17 00:35:13.942195	164.8	19.4	-82.5	0.0
2025-01-17 00:35:15.061114	164.9	19.3	-82.7	0.0
2025-01-17 00:35:16.183379	165.0	19.1	-82.7	0.0
2025-01-17 00:35:17.303387	165.1	19.0	-82.7	0.0
2025-01-17 00:35:18.423062	165.3	18.9	-82.7	0.0
2025-01-17 00:35:19.543590	165.4	18.7	-82.8	0.0
2025-01-17 00:35:20.664560	165.5	18.6	-82.3	0.0
2025-01-17 00:35:21.785880	165.6	18.5	-82.8	0.0
2025-01-17 00:35:22.906055	165.7	18.4	-82.7	0.0
2025-01-17 00:35:24.027451	165.8	18.2	-82.7	0.0
2025-01-17 00:35:25.148767	166.0	18.1	-82.8	0.0
2025-01-17 00:35:26.269836	166.1	18.0	-82.8	0.0
2025-01-17 00:35:27.389138	166.2	17.9	-82.5	0.0
2025-01-17 00:35:28.510890	166.3	17.7	-82.9	0.0
2025-01-17 00:35:29.630113	166.4	17.6	-82.8	0.0
2025-01-17 00:35:30.751192	166.5	17.5	-82.8	0.0
2025-01-17 00:35:31.872411	166.6	17.4	-82.4	0.0
2025-01-17 00:35:32.993170	166.7	17.2	-82.8	0.0
2025-01-17 00:35:34.114967	166.8	17.1	-82.5	0.0
2025-01-17 00:35:35.235985	166.9	17.0	-82.7	0.0
2025-01-17 00:35:36.356410	167.0	16.9	-82.5	0.0
2025-01-17 00:35:37.476377	167.1	16.8	-82.8	0.0
2025-01-17 00:35:38.595767	167.3	16.6	-82.5	0.0
2025-01-17 00:35:39.716504	167.4	16.5	-82.8	0.0
2025-01-17 00:35:40.836313	167.5	16.4	-82.9	0.0
2025-01-17 00:35:41.956578	167.6	16.3	-82.8	0.0
2025-01-17 00:35:43.077009	167.7	16.2	-82.7	0.0
2025-01-17 00:35:44.196125	167.8	16.1	-82.8	0.0
2025-01-17 00:35:45.314391	167.9	15.9	-82.8	0.0
2025-01-17 00:35:46.432418	168.0	15.8	-82.9	0.0
2025-01-17 00:35:47.552644	168.1	15.7	-82.8	0.0
2025-01-17 00:35:48.673499	168.1	15.6	-82.9	0.0
2025-01-17 00:35:49.795149	168.2	15.5	-82.6	0.0
2025-01-17 00:35:50.916074	168.3	15.4	-82.3	0.0
2025-01-17 00:35:52.039809	168.4	15.3	-82.8	0.0
2025-01-17 00:35:53.160574	168.5	15.1	-82.5	0.0
2025-01-17 00:35:54.281276	168.6	15.0	-82.3	0.0
2025-01-17 00:35:55.399555	168.7	14.9	-82.6	0.0
2025-01-17 00:35:56.519783	168.8	14.8	-82.4	0.0
2025-01-17 00:35:57.640173	168.9	14.7	-82.2	0.0
2025-01-17 00:35:58.761193	169.0	14.6	-82.4	0.0
2025-01-17 00:35:59.883486	169.1	14.5	-82.5	0.0
2025-01-17 00:36:01.005079	169.2	14.4	-82.5	0.0
2025-01-17 00:36:02.127088	169.3	14.3	-82.1	0.0
2025-01-17 00:36:03.250065	169.3	14.2	-82.4	0.0
2025-01-17 00:36:04.371986	169.4	14.0	-82.5	0.0
2025-01-17 00:36:05.492917	169.5	13.9	-82.5	0.0
2025-01-17 00:36:06.615991	169.6	13.8	-82.5	0.0
2025-01-17 00:36:07.736495	169.7	13.7	-82.7	0.0
2025-01-17 00:36:08.856729	169.8	13.6	-82.5	0.0
2025-01-17 00:36:09.977221	169.9	13.5	-82.7	0.0
2025-01-17 00:36:11.096191	169.9	13.4	-82.8	0.0
2025-01-17 00:36:12.216631	170.0	13.3	-82.7	0.0
2025-01-17 00:36:13.338620	170.1	13.2	-82.6	0.0
2025-01-17 00:36:14.461009	170.2	13.1	-82.5	0.0
2025-01-17 00:36:15.582624	170.3	13.0	-82.7	0.0
2025-01-17 00:36:16.703726	170.4	12.9	-82.7	0.0
2025-01-17 00:36:17.822878	170.4	12.8	-83.0	0.0
2025-01-17 00:36:18.945055	170.5	12.7	-82.7	0.0
2025-01-17 00:36:20.063640	170.6	12.6	-82.6	0.0
2025-01-17 00:36:21.183870	170.7	12.5	-82.9	0.0
2025-01-17 00:36:22.306036	170.7	12.4	-82.8	0.0
2025-01-17 00:36:23.426057	170.8	12.3	-82.8	0.0
2025-01-17 00:36:24.547554	170.9	12.2	-82.8	0.0
2025-01-17 00:36:25.669969	171.0	12.1	-83.0	0.0
2025-01-17 00:36:26.789704	171.1	12.0	-82.6	0.0
2025-01-17 00:36:27.910090	171.1	11.9	-82.7	0.0
2025-01-17 00:36:29.028919	171.2	11.8	-82.6	0.0
2025-01-17 00:36:30.150701	171.3	11.7	-82.4	0.0
2025-01-17 00:36:31.271105	171.4	11.6	-82.3	0.0
2025-01-17 00:36:32.392414	171.4	11.5	-81.7	0.0
2025-01-17 00:36:33.512787	171.5	11.4	-82.6	0.0
2025-01-17 00:36:34.633185	171.6	11.3	-82.8	0.0
2025-01-17 00:36:35.754297	171.6	11.2	-82.3	0.0
2025-01-17 00:36:36.876399	171.7	11.1	-82.7	0.0
2025-01-17 00:36:37.998878	171.8	11.0	-83.0	0.0
2025-01-17 00:36:39.117244	171.9	10.9	-82.6	0.0
2025-01-17 00:36:40.238194	171.9	10.8	-82.8	0.0
2025-01-17 00:36:41.357969	172.0	10.7	-82.7	0.0
2025-01-17 00:36:42.479912	172.1	10.6	-82.7	0.0
2025-01-17 00:36:43.601309	172.1	10.5	-82.8	0.0
2025-01-17 00:36:44.722051	172.2	10.4	-82.9	0.0
2025-01-17 00:36:45.843512	172.3	10.3	-82.8	0.0
2025-01-17 00:36:46.965074	172.3	10.2	-82.9	0.0
2025-01-17 00:36:48.087160	172.4	10.1	-82.9	0.0
2025-01-17 00:36:49.207100	172.5	10.0	-82.6	0.0
#Closed at: 2025-01-17 00:26:25.431062