passes_logs/2025/01/17/planumMaritime01/planumMaritime01__20250117_183212_NOAA_19_rec.log

#Pass ID: 20250117_183212_NOAA 19
#Satellite: NOAA 19
#Configuration: NOAA 19
#Start time: 2025-01-17 18:32:17.260847

#LorettStation: 1.0.0 05.05.2024
#Station: planumMaritime01
#Location: 37.49445 lon 55.92918 lat
#TLE: 1 33591U 09005A   25017.12803845  .00000314  00000+0  19161-3 0  9999
#TLE: 2 33591  99.0192  80.9069 0014403  51.8715 308.3753 14.13261185821848

#Time	Az	El	Level	SNR
2025-01-17 18:32:19.415484	175.6	10.2	-94.6	0.0
2025-01-17 18:32:20.538577	175.6	10.3	-94.5	0.0
2025-01-17 18:32:21.659487	175.6	10.4	-94.6	0.0
2025-01-17 18:32:22.779980	175.7	10.5	-94.7	0.0
2025-01-17 18:32:23.899786	175.7	10.6	-94.9	0.0
2025-01-17 18:32:25.021850	175.8	10.7	-94.7	0.0
2025-01-17 18:32:26.143173	175.8	10.8	-94.4	0.0
2025-01-17 18:32:27.263777	175.8	10.9	-94.5	0.0
2025-01-17 18:32:28.382997	175.9	11.0	-94.8	0.0
2025-01-17 18:32:29.505933	175.9	11.1	-94.6	0.0
2025-01-17 18:32:30.625216	176.0	11.2	-94.8	0.0
2025-01-17 18:32:31.747531	176.0	11.3	-95.0	0.0
2025-01-17 18:32:32.869229	176.0	11.4	-94.9	0.0
2025-01-17 18:32:33.988495	176.1	11.5	-95.0	0.0
2025-01-17 18:32:35.111422	176.1	11.6	-94.7	0.0
2025-01-17 18:32:36.233841	176.2	11.7	-94.7	0.0
2025-01-17 18:32:37.353662	176.2	11.8	-94.7	0.0
2025-01-17 18:32:38.475725	176.3	11.9	-94.7	0.0
2025-01-17 18:32:39.595557	176.3	12.0	-94.9	0.0
2025-01-17 18:32:40.716582	176.4	12.1	-95.0	0.0
2025-01-17 18:32:41.836227	176.4	12.2	-94.7	0.0
2025-01-17 18:32:42.957810	176.4	12.3	-95.0	0.0
2025-01-17 18:32:44.077523	176.5	12.4	-95.0	0.0
2025-01-17 18:32:45.198358	176.5	12.5	-94.9	0.0
2025-01-17 18:32:46.320358	176.6	12.6	-94.8	0.0
2025-01-17 18:32:47.441419	176.6	12.7	-94.8	0.0
2025-01-17 18:32:48.562134	176.7	12.8	-94.5	0.0
2025-01-17 18:32:49.685534	176.7	12.9	-94.9	0.0
2025-01-17 18:32:50.804638	176.8	13.0	-95.0	0.0
2025-01-17 18:32:51.925806	176.8	13.1	-94.6	0.0
2025-01-17 18:32:53.047762	176.9	13.3	-94.8	0.0
2025-01-17 18:32:54.168778	176.9	13.4	-94.7	0.0
2025-01-17 18:32:55.288681	177.0	13.5	-94.6	0.0
2025-01-17 18:32:56.411300	177.0	13.6	-94.7	0.0
2025-01-17 18:32:57.533677	177.1	13.7	-94.4	0.0
2025-01-17 18:32:58.652881	177.1	13.8	-95.0	0.0
2025-01-17 18:32:59.773870	177.1	13.9	-94.8	0.0
2025-01-17 18:33:00.893923	177.2	14.0	-94.7	0.0
2025-01-17 18:33:02.013873	177.2	14.1	-94.9	0.0
2025-01-17 18:33:03.136936	177.3	14.3	-94.8	0.0
2025-01-17 18:33:04.258834	177.4	14.4	-94.8	0.0
2025-01-17 18:33:05.380844	177.4	14.5	-94.7	0.0
2025-01-17 18:33:06.501979	177.5	14.6	-94.7	0.0
2025-01-17 18:33:07.622062	177.5	14.7	-94.8	0.0
2025-01-17 18:33:08.744280	177.6	14.8	-94.8	0.0
2025-01-17 18:33:09.865829	177.6	14.9	-94.8	0.0
2025-01-17 18:33:10.984946	177.7	15.1	-94.5	0.0
2025-01-17 18:33:12.106052	177.7	15.2	-94.8	0.0
2025-01-17 18:33:13.227610	177.8	15.3	-94.8	0.0
2025-01-17 18:33:14.348372	177.8	15.4	-94.7	0.0
2025-01-17 18:33:15.470121	177.9	15.5	-94.8	0.0
2025-01-17 18:33:16.591443	177.9	15.6	-95.1	0.0
2025-01-17 18:33:17.715227	178.0	15.8	-94.8	0.0
2025-01-17 18:33:18.836820	178.0	15.9	-94.9	0.0
2025-01-17 18:33:19.957975	178.1	16.0	-94.9	0.0
2025-01-17 18:33:21.078028	178.2	16.1	-94.8	0.0
2025-01-17 18:33:22.200406	178.2	16.3	-94.8	0.0
2025-01-17 18:33:23.321251	178.3	16.4	-94.9	0.0
2025-01-17 18:33:24.443905	178.3	16.5	-94.9	0.0
2025-01-17 18:33:25.568675	178.4	16.6	-94.4	0.0
2025-01-17 18:33:26.688662	178.5	16.7	-94.7	0.0
2025-01-17 18:33:27.810284	178.5	16.9	-94.6	0.0
2025-01-17 18:33:28.933294	178.6	17.0	-94.4	0.0
2025-01-17 18:33:30.056477	178.6	17.1	-94.3	0.0
2025-01-17 18:33:31.176900	178.7	17.3	-94.5	0.0
2025-01-17 18:33:32.300071	178.8	17.4	-94.7	0.0
2025-01-17 18:33:33.422803	178.8	17.5	-94.8	0.0
2025-01-17 18:33:34.544102	178.9	17.6	-94.8	0.0
2025-01-17 18:33:35.666286	178.9	17.8	-95.0	0.0
2025-01-17 18:33:36.789274	179.0	17.9	-94.7	0.0
2025-01-17 18:33:37.910862	179.1	18.0	-94.9	0.0
2025-01-17 18:33:39.032891	179.1	18.2	-94.9	0.0
2025-01-17 18:33:40.152621	179.2	18.3	-94.5	0.0
2025-01-17 18:33:41.275024	179.3	18.4	-94.7	0.0
2025-01-17 18:33:42.399605	179.3	18.6	-94.9	0.0
2025-01-17 18:33:43.520948	179.4	18.7	-94.7	0.0
2025-01-17 18:33:44.642818	179.5	18.8	-94.8	0.0
2025-01-17 18:33:45.764207	179.5	19.0	-94.8	0.0
2025-01-17 18:33:46.885819	179.6	19.1	-95.0	0.0
2025-01-17 18:33:48.006449	179.7	19.2	-95.0	0.0
2025-01-17 18:33:49.126288	179.7	19.4	-94.7	0.0
2025-01-17 18:33:50.247387	179.8	19.5	-94.8	0.0
2025-01-17 18:33:51.367064	179.9	19.7	-94.7	0.0
2025-01-17 18:33:52.487978	180.0	19.8	-95.1	0.0
2025-01-17 18:33:53.611030	180.0	19.9	-94.9	0.0
2025-01-17 18:33:54.732897	180.1	20.1	-95.0	0.0
2025-01-17 18:33:55.853731	180.2	20.2	-94.8	0.0
2025-01-17 18:33:56.975077	180.2	20.4	-94.9	0.0
2025-01-17 18:33:58.096134	180.3	20.5	-94.9	0.0
2025-01-17 18:33:59.217922	180.4	20.6	-94.7	0.0
2025-01-17 18:34:00.338642	180.5	20.8	-94.9	0.0
2025-01-17 18:34:01.458985	180.6	20.9	-95.0	0.0
2025-01-17 18:34:02.578634	180.6	21.1	-94.8	0.0
2025-01-17 18:34:03.696228	180.7	21.2	-94.9	0.0
2025-01-17 18:34:04.819828	180.8	21.4	-94.9	0.0
2025-01-17 18:34:05.941036	180.9	21.5	-94.9	0.0
2025-01-17 18:34:07.062246	180.9	21.7	-95.1	0.0
2025-01-17 18:34:08.185155	181.0	21.8	-94.7	0.0
2025-01-17 18:34:09.306168	181.1	22.0	-94.6	0.0
2025-01-17 18:34:10.425789	181.2	22.1	-94.9	0.0
2025-01-17 18:34:11.545371	181.3	22.3	-94.9	0.0
2025-01-17 18:34:12.668291	181.4	22.4	-94.9	0.0
2025-01-17 18:34:13.788936	181.4	22.6	-94.9	0.0
2025-01-17 18:34:14.911236	181.5	22.8	-94.7	0.0
2025-01-17 18:34:16.032048	181.6	22.9	-94.6	0.0
2025-01-17 18:34:17.155398	181.7	23.1	-94.7	0.0
2025-01-17 18:34:18.279008	181.8	23.2	-94.7	0.0
2025-01-17 18:34:19.399344	181.9	23.4	-94.8	0.0
2025-01-17 18:34:20.521770	182.0	23.6	-95.0	0.0
2025-01-17 18:34:21.644071	182.1	23.7	-95.0	0.0
2025-01-17 18:34:22.765878	182.2	23.9	-95.1	0.0
2025-01-17 18:34:23.888975	182.2	24.0	-94.9	0.0
2025-01-17 18:34:25.010265	182.3	24.2	-94.9	0.0
2025-01-17 18:34:26.132586	182.4	24.4	-94.8	0.0
2025-01-17 18:34:27.253099	182.5	24.5	-95.1	0.0
2025-01-17 18:34:28.374149	182.6	24.7	-95.1	0.0
2025-01-17 18:34:29.494355	182.7	24.9	-95.0	0.0
2025-01-17 18:34:30.616266	182.8	25.0	-95.0	0.0
2025-01-17 18:34:31.738529	182.9	25.2	-94.9	0.0
2025-01-17 18:34:32.858027	183.0	25.4	-94.8	0.0
2025-01-17 18:34:33.979302	183.1	25.6	-94.7	0.0
2025-01-17 18:34:35.102039	183.2	25.7	-94.8	0.0
2025-01-17 18:34:36.221801	183.3	25.9	-94.8	0.0
2025-01-17 18:34:37.344187	183.4	26.1	-95.0	0.0
2025-01-17 18:34:38.464828	183.5	26.3	-94.9	0.0
2025-01-17 18:34:39.584292	183.6	26.4	-94.7	0.0
2025-01-17 18:34:40.704603	183.8	26.6	-94.8	0.0
2025-01-17 18:34:41.825584	183.9	26.8	-94.9	0.0
2025-01-17 18:34:42.949020	184.0	27.0	-94.7	0.0
2025-01-17 18:34:44.070264	184.1	27.2	-94.8	0.0
2025-01-17 18:34:45.191958	184.2	27.3	-94.7	0.0
2025-01-17 18:34:46.313002	184.3	27.5	-94.7	0.0
2025-01-17 18:34:47.432204	184.4	27.7	-94.7	0.0
2025-01-17 18:34:48.550628	184.5	27.9	-94.8	0.0
2025-01-17 18:34:49.674142	184.7	28.1	-94.8	0.0
2025-01-17 18:34:50.794662	184.8	28.3	-94.6	0.0
2025-01-17 18:34:51.916190	184.9	28.5	-94.6	0.0
2025-01-17 18:34:53.036962	185.0	28.7	-94.8	0.0
2025-01-17 18:34:54.158847	185.1	28.8	-94.9	0.0
2025-01-17 18:34:55.279924	185.3	29.0	-94.7	0.0
2025-01-17 18:34:56.400463	185.4	29.2	-94.7	0.0
2025-01-17 18:34:57.523274	185.5	29.4	-94.9	0.0
2025-01-17 18:34:58.644917	185.7	29.6	-95.1	0.0
2025-01-17 18:34:59.766687	185.8	29.8	-94.6	0.0
2025-01-17 18:35:00.886763	185.9	30.0	-95.0	0.0
2025-01-17 18:35:02.006905	186.1	30.2	-94.9	0.0
2025-01-17 18:35:03.126988	186.2	30.4	-94.7	0.0
2025-01-17 18:35:04.251092	186.3	30.6	-94.9	0.0
2025-01-17 18:35:05.373064	186.5	30.8	-95.1	0.0
2025-01-17 18:35:06.492586	186.6	31.0	-95.2	0.0
2025-01-17 18:35:07.614496	186.7	31.2	-94.9	0.0
2025-01-17 18:35:08.734736	186.9	31.5	-95.0	0.0
2025-01-17 18:35:09.855028	187.0	31.7	-95.0	0.0
2025-01-17 18:35:10.976150	187.2	31.9	-95.1	0.0
2025-01-17 18:35:12.094886	187.3	32.1	-94.9	0.0
2025-01-17 18:35:13.215547	187.5	32.3	-95.0	0.0
2025-01-17 18:35:14.336726	187.6	32.5	-94.9	0.0
2025-01-17 18:35:15.457984	187.8	32.7	-94.9	0.0
2025-01-17 18:35:16.579104	188.0	32.9	-95.0	0.0
2025-01-17 18:35:17.697037	188.1	33.2	-95.1	0.0
2025-01-17 18:35:18.819925	188.3	33.4	-95.1	0.0
2025-01-17 18:35:19.943188	188.4	33.6	-95.1	0.0
2025-01-17 18:35:21.065962	188.6	33.8	-95.0	0.0
2025-01-17 18:35:22.186594	188.8	34.1	-95.2	0.0
2025-01-17 18:35:23.309084	188.9	34.3	-94.9	0.0
2025-01-17 18:35:24.428506	189.1	34.5	-94.7	0.0
2025-01-17 18:35:25.550651	189.3	34.7	-94.8	0.0
2025-01-17 18:35:26.670790	189.5	35.0	-95.0	0.0
2025-01-17 18:35:27.793021	189.7	35.2	-94.9	0.0
2025-01-17 18:35:28.915808	189.8	35.4	-94.9	0.0
2025-01-17 18:35:30.036706	190.0	35.7	-94.6	0.0
2025-01-17 18:35:31.154542	190.2	35.9	-94.8	0.0
2025-01-17 18:35:32.275425	190.4	36.1	-95.0	0.0
2025-01-17 18:35:33.396778	190.6	36.4	-94.8	0.0
2025-01-17 18:35:34.516628	190.8	36.6	-94.9	0.0
2025-01-17 18:35:35.638363	191.0	36.8	-94.9	0.0
2025-01-17 18:35:36.757840	191.2	37.1	-94.8	0.0
2025-01-17 18:35:37.878815	191.4	37.3	-94.7	0.0
2025-01-17 18:35:39.002072	191.6	37.6	-94.8	0.0
2025-01-17 18:35:40.122071	191.8	37.8	-95.1	0.0
2025-01-17 18:35:41.242669	192.0	38.1	-94.7	0.0
2025-01-17 18:35:42.362132	192.2	38.3	-94.6	0.0
2025-01-17 18:35:43.482439	192.5	38.6	-94.8	0.0
2025-01-17 18:35:44.603168	192.7	38.8	-95.0	0.0
2025-01-17 18:35:45.724381	192.9	39.1	-94.7	0.0
2025-01-17 18:35:46.848215	193.1	39.3	-94.7	0.0
2025-01-17 18:35:47.968234	193.4	39.6	-94.7	0.0
2025-01-17 18:35:49.088755	193.6	39.8	-94.9	0.0
2025-01-17 18:35:50.211972	193.9	40.1	-94.6	0.0
2025-01-17 18:35:51.333802	194.1	40.4	-94.7	0.0
2025-01-17 18:35:52.456707	194.4	40.6	-94.7	0.0
2025-01-17 18:35:53.578988	194.6	40.9	-94.9	0.0
2025-01-17 18:35:54.701256	194.9	41.1	-95.0	0.0
2025-01-17 18:35:55.820773	195.1	41.4	-94.9	0.0
2025-01-17 18:35:56.941588	195.4	41.7	-94.6	0.0
2025-01-17 18:35:58.061185	195.7	41.9	-94.9	0.0
2025-01-17 18:35:59.183080	195.9	42.2	-94.8	0.0
2025-01-17 18:36:00.305001	196.2	42.5	-94.8	0.0
2025-01-17 18:36:01.425970	196.5	42.8	-94.9	0.0
2025-01-17 18:36:02.549182	196.8	43.0	-94.7	0.0
2025-01-17 18:36:03.670055	197.1	43.3	-94.9	0.0
2025-01-17 18:36:04.790009	197.4	43.6	-94.9	0.0
2025-01-17 18:36:05.912394	197.7	43.8	-94.9	0.0
2025-01-17 18:36:07.033590	198.0	44.1	-95.1	0.0
2025-01-17 18:36:08.151790	198.3	44.4	-94.9	0.0
2025-01-17 18:36:09.274585	198.6	44.7	-94.7	0.0
2025-01-17 18:36:10.394327	199.0	45.0	-94.8	0.0
2025-01-17 18:36:11.513364	199.3	45.2	-94.9	0.0
2025-01-17 18:36:12.634671	199.6	45.5	-94.9	0.0
2025-01-17 18:36:13.754893	200.0	45.8	-94.7	0.0
2025-01-17 18:36:14.875799	200.3	46.1	-94.6	0.0
2025-01-17 18:36:15.997967	200.7	46.4	-94.8	0.0
2025-01-17 18:36:17.119770	201.0	46.7	-94.9	0.0
2025-01-17 18:36:18.241105	201.4	46.9	-94.8	0.0
2025-01-17 18:36:19.361917	201.8	47.2	-94.8	0.0
2025-01-17 18:36:20.483924	202.2	47.5	-95.0	0.0
2025-01-17 18:36:21.602888	202.5	47.8	-94.9	0.0
2025-01-17 18:36:22.724093	202.9	48.1	-94.8	0.0
2025-01-17 18:36:23.845841	203.3	48.4	-94.9	0.0
2025-01-17 18:36:24.967217	203.8	48.7	-94.9	0.0
2025-01-17 18:36:26.089916	204.2	49.0	-95.1	0.0
2025-01-17 18:36:27.211613	204.6	49.2	-95.0	0.0
2025-01-17 18:36:28.334048	205.0	49.5	-94.8	0.0
2025-01-17 18:36:29.455418	205.5	49.8	-94.8	0.0
2025-01-17 18:36:30.577946	205.9	50.1	-94.9	0.0
2025-01-17 18:36:31.699995	206.4	50.4	-94.7	0.0
2025-01-17 18:36:32.821960	206.9	50.7	-94.7	0.0
2025-01-17 18:36:33.945553	207.3	51.0	-94.5	0.0
2025-01-17 18:36:35.069053	207.8	51.3	-94.7	0.0
2025-01-17 18:36:36.191013	208.3	51.6	-94.6	0.0
2025-01-17 18:36:37.311525	208.8	51.8	-95.0	0.0
2025-01-17 18:36:38.432164	209.3	52.1	-94.8	0.0
2025-01-17 18:36:39.553955	209.9	52.4	-94.9	0.0
2025-01-17 18:36:40.675822	210.4	52.7	-94.6	0.0
2025-01-17 18:36:41.797165	210.9	53.0	-94.8	0.0
2025-01-17 18:36:42.919620	211.5	53.3	-94.8	0.0
2025-01-17 18:36:44.041951	212.1	53.6	-94.9	0.0
2025-01-17 18:36:45.164888	212.6	53.8	-94.8	0.0
2025-01-17 18:36:46.287992	213.2	54.1	-94.8	0.0
2025-01-17 18:36:47.408774	213.8	54.4	-94.7	0.0
2025-01-17 18:36:48.530364	214.4	54.7	-94.9	0.0
2025-01-17 18:36:49.651093	215.1	55.0	-94.9	0.0
2025-01-17 18:36:50.773675	215.7	55.2	-94.7	0.0
2025-01-17 18:36:51.894319	216.3	55.5	-94.9	0.0
2025-01-17 18:36:53.017603	217.0	55.8	-94.8	0.0
2025-01-17 18:36:54.138836	217.7	56.0	-94.9	0.0
2025-01-17 18:36:55.256797	218.4	56.3	-95.0	0.0
2025-01-17 18:36:56.377918	219.1	56.6	-94.7	0.0
2025-01-17 18:36:57.497432	219.8	56.8	-94.8	0.0
2025-01-17 18:36:58.619002	220.5	57.1	-94.8	0.0
2025-01-17 18:36:59.738999	221.2	57.3	-94.8	0.0
2025-01-17 18:37:00.859801	222.0	57.6	-94.8	0.0
2025-01-17 18:37:01.980534	222.8	57.8	-94.7	0.0
2025-01-17 18:37:03.100284	223.5	58.1	-94.6	0.0
2025-01-17 18:37:04.220940	224.3	58.3	-94.8	0.0
2025-01-17 18:37:05.343612	225.1	58.5	-94.8	0.0
2025-01-17 18:37:06.466015	226.0	58.8	-94.8	0.0
2025-01-17 18:37:07.585963	226.8	59.0	-94.7	0.0
2025-01-17 18:37:08.707305	227.6	59.2	-94.6	0.0
2025-01-17 18:37:09.828006	228.5	59.4	-94.4	0.0
2025-01-17 18:37:10.948904	229.4	59.6	-94.9	0.0
2025-01-17 18:37:12.068843	230.3	59.8	-94.6	0.0
2025-01-17 18:37:13.190955	231.2	60.0	-95.0	0.0
2025-01-17 18:37:14.313635	232.1	60.2	-94.6	0.0
2025-01-17 18:37:15.433807	233.0	60.4	-94.7	0.0
2025-01-17 18:37:16.554126	234.0	60.6	-94.7	0.0
2025-01-17 18:37:17.674364	234.9	60.7	-94.9	0.0
2025-01-17 18:37:18.792329	235.9	60.9	-94.6	0.0
2025-01-17 18:37:19.912644	236.9	61.1	-94.5	0.0
2025-01-17 18:37:21.034814	237.9	61.2	-94.5	0.0
2025-01-17 18:37:22.156095	238.9	61.4	-94.9	0.0
2025-01-17 18:37:23.278396	239.9	61.5	-94.7	0.0
2025-01-17 18:37:24.399808	240.9	61.6	-94.8	0.0
2025-01-17 18:37:25.518863	242.0	61.8	-94.5	0.0
2025-01-17 18:37:26.641926	243.0	61.9	-94.6	0.0
2025-01-17 18:37:27.761836	244.1	62.0	-94.8	0.0
2025-01-17 18:37:28.881642	245.2	62.1	-94.6	0.0
2025-01-17 18:37:30.001687	246.2	62.2	-94.9	0.0
2025-01-17 18:37:31.125130	247.3	62.2	-94.9	0.0
2025-01-17 18:37:32.247920	248.4	62.3	-94.8	0.0
2025-01-17 18:37:33.367703	249.5	62.4	-94.8	0.0
2025-01-17 18:37:34.490317	250.6	62.4	-94.7	0.0
2025-01-17 18:37:35.611861	251.7	62.5	-94.9	0.0
2025-01-17 18:37:36.733919	252.8	62.5	-94.8	0.0
2025-01-17 18:37:37.855352	253.9	62.5	-95.0	0.0
2025-01-17 18:37:38.977259	255.1	62.6	-95.0	0.0
2025-01-17 18:37:40.099254	256.2	62.6	-94.9	0.0
2025-01-17 18:37:41.219695	257.3	62.6	-94.8	0.0
2025-01-17 18:37:42.340547	258.4	62.6	-94.7	0.0
2025-01-17 18:37:43.465005	259.5	62.5	-94.8	0.0
2025-01-17 18:37:44.587607	260.6	62.5	-95.0	0.0
2025-01-17 18:37:45.710041	261.8	62.5	-94.9	0.0
2025-01-17 18:37:46.831059	262.9	62.4	-94.8	0.0
2025-01-17 18:37:47.953601	264.0	62.4	-95.1	0.0
2025-01-17 18:37:49.075302	265.1	62.3	-95.0	0.0
2025-01-17 18:37:50.195524	266.2	62.3	-95.0	0.0
2025-01-17 18:37:51.314729	267.2	62.2	-94.7	0.0
2025-01-17 18:37:52.437991	268.3	62.1	-94.7	0.0
2025-01-17 18:37:53.558522	269.4	62.0	-95.0	0.0
2025-01-17 18:37:54.679511	270.5	61.9	-95.1	0.0
2025-01-17 18:37:55.801557	271.5	61.8	-94.9	0.0
2025-01-17 18:37:56.919779	272.5	61.7	-94.7	0.0
2025-01-17 18:37:58.040939	273.6	61.5	-94.9	0.0
2025-01-17 18:37:59.161989	274.6	61.4	-95.0	0.0
2025-01-17 18:38:00.282891	275.6	61.2	-94.9	0.0
2025-01-17 18:38:01.404408	276.6	61.1	-94.9	0.0
2025-01-17 18:38:02.524845	277.6	60.9	-94.7	0.0
2025-01-17 18:38:03.646780	278.6	60.8	-94.7	0.0
2025-01-17 18:38:04.767894	279.5	60.6	-94.6	0.0
2025-01-17 18:38:05.889190	280.5	60.4	-94.9	0.0
2025-01-17 18:38:07.009103	281.4	60.2	-94.9	0.0
2025-01-17 18:38:08.130787	282.3	60.0	-94.7	0.0
2025-01-17 18:38:09.253676	283.2	59.9	-94.8	0.0
2025-01-17 18:38:10.374757	284.1	59.7	-94.8	0.0
2025-01-17 18:38:11.497789	285.0	59.4	-94.5	0.0
2025-01-17 18:38:12.618790	285.9	59.2	-94.5	0.0
2025-01-17 18:38:13.740889	286.7	59.0	-94.7	0.0
2025-01-17 18:38:14.859990	287.5	58.8	-94.9	0.0
2025-01-17 18:38:15.979715	288.4	58.6	-94.6	0.0
2025-01-17 18:38:17.099118	289.2	58.3	-94.7	0.0
2025-01-17 18:38:18.218748	290.0	58.1	-94.6	0.0
2025-01-17 18:38:19.337496	290.7	57.9	-94.6	0.0
2025-01-17 18:38:20.458305	291.5	57.6	-94.9	0.0
2025-01-17 18:38:21.579037	292.3	57.4	-94.7	0.0
2025-01-17 18:38:22.700988	293.0	57.1	-94.7	0.0
2025-01-17 18:38:23.822931	293.7	56.9	-94.6	0.0
2025-01-17 18:38:24.944119	294.4	56.6	-94.6	0.0
2025-01-17 18:38:26.067065	295.1	56.4	-95.0	0.0
2025-01-17 18:38:27.186640	295.8	56.1	-94.7	0.0
2025-01-17 18:38:28.306652	296.5	55.8	-94.9	0.0
2025-01-17 18:38:29.427731	297.2	55.6	-94.6	0.0
2025-01-17 18:38:30.548887	297.8	55.3	-94.8	0.0
2025-01-17 18:38:31.668960	298.4	55.0	-94.8	0.0
2025-01-17 18:38:32.788682	299.1	54.7	-94.9	0.0
2025-01-17 18:38:33.909805	299.7	54.5	-94.6	0.0
2025-01-17 18:38:35.029843	300.3	54.2	-94.9	0.0
2025-01-17 18:38:36.149735	300.9	53.9	-94.7	0.0
2025-01-17 18:38:37.271991	301.4	53.6	-94.9	0.0
2025-01-17 18:38:38.394033	302.0	53.4	-94.7	0.0
2025-01-17 18:38:39.515968	302.6	53.1	-94.6	0.0
2025-01-17 18:38:40.636877	303.1	52.8	-94.7	0.0
2025-01-17 18:38:41.755107	303.7	52.5	-94.9	0.0
2025-01-17 18:38:42.878016	304.2	52.2	-95.0	0.0
2025-01-17 18:38:44.001041	304.7	51.9	-95.1	0.0
2025-01-17 18:38:45.121128	305.2	51.6	-95.0	0.0
2025-01-17 18:38:46.241348	305.7	51.4	-94.9	0.0
2025-01-17 18:38:47.363263	306.2	51.1	-94.9	0.0
2025-01-17 18:38:48.483544	306.7	50.8	-95.2	0.0
2025-01-17 18:38:49.605796	307.1	50.5	-95.1	0.0
2025-01-17 18:38:50.728108	307.6	50.2	-95.1	0.0
2025-01-17 18:38:51.849269	308.0	49.9	-94.8	0.0
2025-01-17 18:38:52.969334	308.5	49.6	-94.8	0.0
2025-01-17 18:38:54.088906	308.9	49.3	-95.0	0.0
2025-01-17 18:38:55.210255	309.3	49.1	-94.9	0.0
2025-01-17 18:38:56.334789	309.8	48.8	-95.0	0.0
2025-01-17 18:38:57.454834	310.2	48.5	-95.0	0.0
2025-01-17 18:38:58.576019	310.6	48.2	-94.9	0.0
2025-01-17 18:38:59.697304	311.0	47.9	-94.7	0.0
2025-01-17 18:39:00.818166	311.4	47.6	-94.7	0.0
2025-01-17 18:39:01.939922	311.7	47.3	-94.6	0.0
2025-01-17 18:39:03.059093	312.1	47.0	-95.0	0.0
2025-01-17 18:39:04.180713	312.5	46.8	-94.7	0.0
2025-01-17 18:39:05.302008	312.9	46.5	-94.7	0.0
2025-01-17 18:39:06.421828	313.2	46.2	-94.6	0.0
2025-01-17 18:39:07.544045	313.6	45.9	-94.6	0.0
2025-01-17 18:39:08.665012	313.9	45.6	-94.5	0.0
2025-01-17 18:39:09.787328	314.2	45.4	-94.6	0.0
2025-01-17 18:39:10.908280	314.6	45.1	-94.7	0.0
2025-01-17 18:39:12.030720	314.9	44.8	-94.8	0.0
2025-01-17 18:39:13.156983	315.2	44.5	-94.8	0.0
2025-01-17 18:39:14.277290	315.5	44.2	-94.6	0.0
2025-01-17 18:39:15.398269	315.8	44.0	-94.5	0.0
2025-01-17 18:39:16.520478	316.1	43.7	-94.8	0.0
2025-01-17 18:39:17.644106	316.4	43.4	-95.0	0.0
2025-01-17 18:39:18.763439	316.7	43.1	-95.0	0.0
2025-01-17 18:39:19.885439	317.0	42.9	-94.8	0.0
2025-01-17 18:39:21.005976	317.3	42.6	-94.6	0.0
2025-01-17 18:39:22.124950	317.6	42.3	-95.0	0.0
2025-01-17 18:39:23.245522	317.9	42.1	-94.9	0.0
2025-01-17 18:39:24.365371	318.1	41.8	-94.6	0.0
2025-01-17 18:39:25.485092	318.4	41.5	-94.7	0.0
2025-01-17 18:39:26.606958	318.7	41.3	-94.8	0.0
2025-01-17 18:39:27.725620	318.9	41.0	-94.9	0.0
2025-01-17 18:39:28.846637	319.2	40.8	-94.7	0.0
2025-01-17 18:39:29.967753	319.4	40.5	-94.7	0.0
2025-01-17 18:39:31.088509	319.7	40.2	-94.7	0.0
2025-01-17 18:39:32.208919	319.9	40.0	-94.9	0.0
2025-01-17 18:39:33.330889	320.2	39.7	-94.9	0.0
2025-01-17 18:39:34.451408	320.4	39.5	-95.0	0.0
2025-01-17 18:39:35.574142	320.6	39.2	-95.0	0.0
2025-01-17 18:39:36.694509	320.8	39.0	-94.7	0.0
2025-01-17 18:39:37.814881	321.1	38.7	-94.7	0.0
2025-01-17 18:39:38.937271	321.3	38.5	-95.2	0.0
2025-01-17 18:39:40.059512	321.5	38.2	-95.0	0.0
2025-01-17 18:39:41.180335	321.7	38.0	-95.2	0.0
2025-01-17 18:39:42.301150	321.9	37.7	-94.7	0.0
2025-01-17 18:39:43.422972	322.1	37.5	-94.7	0.0
2025-01-17 18:39:44.543729	322.4	37.2	-94.9	0.0
2025-01-17 18:39:45.667977	322.6	37.0	-95.0	0.0
2025-01-17 18:39:46.789257	322.8	36.8	-94.5	0.0
2025-01-17 18:39:47.912174	323.0	36.5	-94.5	0.0
2025-01-17 18:39:49.033235	323.1	36.3	-94.6	0.0
2025-01-17 18:39:50.155120	323.3	36.0	-94.9	0.0
2025-01-17 18:39:51.275903	323.5	35.8	-94.8	0.0
2025-01-17 18:39:52.397293	323.7	35.6	-94.4	0.0
2025-01-17 18:39:53.517204	323.9	35.4	-94.5	0.0
2025-01-17 18:39:54.638138	324.1	35.1	-94.5	0.0
2025-01-17 18:39:55.759503	324.3	34.9	-94.7	0.0
2025-01-17 18:39:56.880600	324.4	34.7	-94.5	0.0
2025-01-17 18:39:58.000904	324.6	34.4	-94.7	0.0
2025-01-17 18:39:59.120029	324.8	34.2	-94.6	0.0
2025-01-17 18:40:00.239332	324.9	34.0	-94.5	0.0
2025-01-17 18:40:01.358251	325.1	33.8	-94.7	0.0
2025-01-17 18:40:02.479026	325.3	33.6	-94.8	0.0
2025-01-17 18:40:03.600824	325.4	33.3	-94.7	0.0
2025-01-17 18:40:04.721519	325.6	33.1	-94.5	0.0
2025-01-17 18:40:05.843410	325.8	32.9	-94.5	0.0
2025-01-17 18:40:06.963434	325.9	32.7	-94.8	0.0
2025-01-17 18:40:08.084241	326.1	32.5	-94.8	0.0
2025-01-17 18:40:09.206476	326.2	32.3	-94.5	0.0
2025-01-17 18:40:10.326405	326.4	32.0	-94.5	0.0
2025-01-17 18:40:11.448488	326.5	31.8	-94.5	0.0
2025-01-17 18:40:12.568958	326.7	31.6	-95.0	0.0
2025-01-17 18:40:13.689340	326.8	31.4	-94.7	0.0
2025-01-17 18:40:14.811004	327.0	31.2	-94.5	0.0
2025-01-17 18:40:15.930880	327.1	31.0	-94.4	0.0
2025-01-17 18:40:17.050234	327.2	30.8	-94.8	0.0
2025-01-17 18:40:18.172574	327.4	30.6	-94.8	0.0
2025-01-17 18:40:19.293543	327.5	30.4	-94.9	0.0
2025-01-17 18:40:20.414335	327.6	30.2	-94.6	0.0
2025-01-17 18:40:21.537234	327.8	30.0	-94.5	0.0
2025-01-17 18:40:22.657534	327.9	29.8	-94.6	0.0
2025-01-17 18:40:23.779223	328.0	29.6	-94.8	0.0
2025-01-17 18:40:24.899400	328.2	29.4	-95.0	0.0
2025-01-17 18:40:26.020696	328.3	29.2	-95.0	0.0
2025-01-17 18:40:27.142385	328.4	29.0	-94.8	0.0
2025-01-17 18:40:28.263449	328.5	28.8	-94.9	0.0
2025-01-17 18:40:29.386411	328.7	28.6	-94.7	0.0
2025-01-17 18:40:30.506790	328.8	28.5	-95.1	0.0
2025-01-17 18:40:31.628311	328.9	28.3	-95.1	0.0
2025-01-17 18:40:32.749737	329.0	28.1	-94.9	0.0
2025-01-17 18:40:33.870106	329.1	27.9	-94.8	0.0
2025-01-17 18:40:34.990995	329.3	27.7	-94.7	0.0
2025-01-17 18:40:36.114279	329.4	27.5	-94.6	0.0
2025-01-17 18:40:37.234500	329.5	27.3	-94.7	0.0
2025-01-17 18:40:38.356829	329.6	27.2	-94.7	0.0
2025-01-17 18:40:39.478719	329.7	27.0	-94.8	0.0
2025-01-17 18:40:40.598568	329.8	26.8	-94.9	0.0
2025-01-17 18:40:41.721384	329.9	26.6	-94.8	0.0
2025-01-17 18:40:42.843348	330.0	26.5	-94.6	0.0
2025-01-17 18:40:43.963193	330.2	26.3	-94.4	0.0
2025-01-17 18:40:45.084342	330.3	26.1	-94.6	0.0
2025-01-17 18:40:46.203353	330.4	25.9	-94.8	0.0
2025-01-17 18:40:47.324301	330.5	25.8	-94.4	0.0
2025-01-17 18:40:48.446695	330.6	25.6	-94.6	0.0
2025-01-17 18:40:49.567843	330.7	25.4	-94.4	0.0
2025-01-17 18:40:50.689211	330.8	25.2	-94.7	0.0
2025-01-17 18:40:51.808984	330.9	25.1	-94.5	0.0
2025-01-17 18:40:52.928649	331.0	24.9	-94.3	0.0
2025-01-17 18:40:54.050471	331.1	24.7	-94.5	0.0
2025-01-17 18:40:55.171688	331.2	24.6	-94.5	0.0
2025-01-17 18:40:56.291419	331.3	24.4	-94.6	0.0
2025-01-17 18:40:57.412269	331.3	24.2	-94.6	0.0
2025-01-17 18:40:58.532113	331.4	24.1	-94.5	0.0
2025-01-17 18:40:59.652914	331.5	23.9	-94.7	0.0
2025-01-17 18:41:00.774613	331.6	23.8	-94.6	0.0
2025-01-17 18:41:01.897429	331.7	23.6	-94.5	0.0
2025-01-17 18:41:03.018809	331.8	23.4	-94.4	0.0
2025-01-17 18:41:04.139811	331.9	23.3	-94.7	0.0
2025-01-17 18:41:05.259062	332.0	23.1	-94.8	0.0
2025-01-17 18:41:06.379905	332.1	23.0	-94.5	0.0
2025-01-17 18:41:07.501839	332.2	22.8	-94.7	0.0
2025-01-17 18:41:08.623247	332.2	22.7	-94.8	0.0
2025-01-17 18:41:09.744307	332.3	22.5	-94.7	0.0
2025-01-17 18:41:10.865416	332.4	22.3	-94.8	0.0
2025-01-17 18:41:11.986408	332.5	22.2	-94.9	0.0
2025-01-17 18:41:13.107487	332.6	22.0	-95.0	0.0
2025-01-17 18:41:14.231559	332.7	21.9	-94.8	0.0
2025-01-17 18:41:15.352704	332.7	21.7	-94.9	0.0
2025-01-17 18:41:16.473368	332.8	21.6	-94.9	0.0
2025-01-17 18:41:17.592283	332.9	21.4	-95.2	0.0
2025-01-17 18:41:18.711628	333.0	21.3	-94.9	0.0
2025-01-17 18:41:19.831682	333.1	21.2	-94.8	0.0
2025-01-17 18:41:20.954421	333.1	21.0	-94.6	0.0
2025-01-17 18:41:22.075176	333.2	20.9	-95.0	0.0
2025-01-17 18:41:23.196522	333.3	20.7	-94.8	0.0
2025-01-17 18:41:24.316619	333.4	20.6	-94.8	0.0
2025-01-17 18:41:25.435561	333.4	20.4	-95.0	0.0
2025-01-17 18:41:26.557143	333.5	20.3	-94.8	0.0
2025-01-17 18:41:27.677024	333.6	20.2	-94.9	0.0
2025-01-17 18:41:28.797127	333.7	20.0	-94.8	0.0
2025-01-17 18:41:29.916804	333.7	19.9	-95.0	0.0
2025-01-17 18:41:31.038256	333.8	19.7	-95.1	0.0
2025-01-17 18:41:32.159371	333.9	19.6	-95.0	0.0
2025-01-17 18:41:33.280649	333.9	19.5	-95.1	0.0
2025-01-17 18:41:34.401212	334.0	19.3	-94.8	0.0
2025-01-17 18:41:35.520908	334.1	19.2	-94.9	0.0
2025-01-17 18:41:36.640469	334.1	19.1	-94.9	0.0
2025-01-17 18:41:37.759966	334.2	18.9	-95.0	0.0
2025-01-17 18:41:38.881180	334.3	18.8	-94.9	0.0
2025-01-17 18:41:40.004630	334.4	18.7	-95.1	0.0
2025-01-17 18:41:41.126333	334.4	18.5	-94.9	0.0
2025-01-17 18:41:42.248247	334.5	18.4	-94.9	0.0
2025-01-17 18:41:43.367616	334.5	18.3	-94.7	0.0
2025-01-17 18:41:44.487289	334.6	18.1	-95.3	0.0
2025-01-17 18:41:45.606693	334.7	18.0	-95.0	0.0
2025-01-17 18:41:46.727179	334.7	17.9	-94.8	0.0
2025-01-17 18:41:47.847380	334.8	17.7	-95.0	0.0
2025-01-17 18:41:48.966617	334.9	17.6	-95.1	0.0
2025-01-17 18:41:50.086886	334.9	17.5	-95.0	0.0
2025-01-17 18:41:51.206546	335.0	17.4	-94.9	0.0
2025-01-17 18:41:52.327629	335.1	17.2	-94.9	0.0
2025-01-17 18:41:53.448123	335.1	17.1	-95.1	0.0
2025-01-17 18:41:54.569638	335.2	17.0	-94.9	0.0
2025-01-17 18:41:55.690730	335.2	16.9	-94.9	0.0
2025-01-17 18:41:56.811870	335.3	16.7	-94.8	0.0
2025-01-17 18:41:57.931801	335.4	16.6	-95.2	0.0
2025-01-17 18:41:59.055030	335.4	16.5	-95.0	0.0
2025-01-17 18:42:00.175717	335.5	16.4	-94.9	0.0
2025-01-17 18:42:01.294417	335.5	16.2	-95.1	0.0
2025-01-17 18:42:02.414565	335.6	16.1	-95.0	0.0
2025-01-17 18:42:03.534374	335.6	16.0	-95.1	0.0
2025-01-17 18:42:04.657265	335.7	15.9	-95.0	0.0
2025-01-17 18:42:05.776119	335.8	15.8	-94.8	0.0
2025-01-17 18:42:06.898331	335.8	15.6	-95.0	0.0
2025-01-17 18:42:08.020239	335.9	15.5	-94.9	0.0
2025-01-17 18:42:09.143474	335.9	15.4	-94.8	0.0
2025-01-17 18:42:10.262575	336.0	15.3	-94.7	0.0
2025-01-17 18:42:11.386268	336.0	15.2	-94.5	0.0
2025-01-17 18:42:12.507381	336.1	15.1	-94.4	0.0
2025-01-17 18:42:13.627387	336.1	14.9	-94.9	0.0
2025-01-17 18:42:14.749133	336.2	14.8	-94.6	0.0
2025-01-17 18:42:15.869520	336.2	14.7	-94.8	0.0
2025-01-17 18:42:16.988213	336.3	14.6	-94.6	0.0
2025-01-17 18:42:18.108628	336.4	14.5	-94.9	0.0
2025-01-17 18:42:19.231171	336.4	14.4	-94.7	0.0
2025-01-17 18:42:20.354157	336.5	14.3	-94.8	0.0
2025-01-17 18:42:21.474410	336.5	14.2	-94.9	0.0
2025-01-17 18:42:22.598059	336.6	14.0	-94.7	0.0
2025-01-17 18:42:23.718351	336.6	13.9	-94.6	0.0
2025-01-17 18:42:24.839940	336.7	13.8	-94.6	0.0
2025-01-17 18:42:25.960143	336.7	13.7	-94.9	0.0
2025-01-17 18:42:27.079953	336.8	13.6	-94.8	0.0
2025-01-17 18:42:28.199506	336.8	13.5	-94.6	0.0
2025-01-17 18:42:29.319324	336.9	13.4	-94.5	0.0
2025-01-17 18:42:30.439252	336.9	13.3	-94.7	0.0
2025-01-17 18:42:31.561354	336.9	13.2	-95.1	0.0
2025-01-17 18:42:32.683135	337.0	13.1	-95.1	0.0
2025-01-17 18:42:33.802920	337.0	13.0	-94.4	0.0
2025-01-17 18:42:34.923429	337.1	12.9	-94.6	0.0
2025-01-17 18:42:36.045631	337.1	12.7	-94.9	0.0
2025-01-17 18:42:37.166707	337.2	12.6	-95.1	0.0
2025-01-17 18:42:38.289012	337.2	12.5	-95.0	0.0
2025-01-17 18:42:39.408144	337.3	12.4	-94.7	0.0
2025-01-17 18:42:40.529257	337.3	12.3	-94.9	0.0
2025-01-17 18:42:41.652165	337.4	12.2	-94.9	0.0
2025-01-17 18:42:42.771755	337.4	12.1	-95.1	0.0
2025-01-17 18:42:43.890818	337.5	12.0	-94.9	0.0
2025-01-17 18:42:45.013416	337.5	11.9	-95.2	0.0
2025-01-17 18:42:46.134179	337.5	11.8	-94.7	0.0
2025-01-17 18:42:47.256598	337.6	11.7	-94.9	0.0
2025-01-17 18:42:48.377291	337.6	11.6	-95.0	0.0
2025-01-17 18:42:49.497063	337.7	11.5	-95.3	0.0
2025-01-17 18:42:50.620006	337.7	11.4	-95.1	0.0
2025-01-17 18:42:51.739968	337.8	11.3	-94.9	0.0
2025-01-17 18:42:52.859137	337.8	11.2	-94.7	0.0
2025-01-17 18:42:53.979898	337.8	11.1	-95.1	0.0
2025-01-17 18:42:55.099037	337.9	11.0	-95.0	0.0
2025-01-17 18:42:56.221402	337.9	10.9	-95.1	0.0
2025-01-17 18:42:57.339995	338.0	10.8	-94.8	0.0
2025-01-17 18:42:58.461099	338.0	10.7	-94.9	0.0
2025-01-17 18:42:59.582188	338.1	10.6	-95.2	0.0
2025-01-17 18:43:00.702676	338.1	10.5	-95.1	0.0
2025-01-17 18:43:01.822312	338.1	10.4	-94.9	0.0
2025-01-17 18:43:02.943439	338.2	10.3	-94.8	0.0
2025-01-17 18:43:04.064262	338.2	10.2	-94.9	0.0
2025-01-17 18:43:05.186677	338.3	10.2	-95.0	0.0
#Closed at: 2025-01-17 18:32:12.265276