passes_logs/2025/01/17/planumMaritime01/planumMaritime01__20250117_185643_NOAA_18_rec.log

#Pass ID: 20250117_185643_NOAA 18
#Satellite: NOAA 18
#Configuration: NOAA 18
#Start time: 2025-01-17 18:56:48.944524

#LorettStation: 1.0.0 05.05.2024
#Station: planumMaritime01
#Location: 37.49445 lon 55.92918 lat
#TLE: 1 28654U 05018A   25017.14480960  .00000361  00000+0  21486-3 0  9999
#TLE: 2 28654  98.8562  98.1779 0014463 173.1209 187.0164 14.13488310 13483

#Time	Az	El	Level	SNR
2025-01-17 18:56:51.100367	149.1	10.2	-94.3	0.0
2025-01-17 18:56:52.222006	149.1	10.3	-94.3	0.0
2025-01-17 18:56:53.345257	149.1	10.4	-94.4	0.0
2025-01-17 18:56:54.465611	149.1	10.5	-94.8	0.0
2025-01-17 18:56:55.585414	149.0	10.6	-94.7	0.0
2025-01-17 18:56:56.708394	149.0	10.7	-94.7	0.0
2025-01-17 18:56:57.828309	149.0	10.8	-94.7	0.0
2025-01-17 18:56:58.948712	149.0	10.9	-94.4	0.0
2025-01-17 18:57:00.070486	148.9	11.0	-94.9	0.0
2025-01-17 18:57:01.191061	148.9	11.1	-94.9	0.0
2025-01-17 18:57:02.313255	148.9	11.2	-94.9	0.0
2025-01-17 18:57:03.434884	148.9	11.3	-94.8	0.0
2025-01-17 18:57:04.556998	148.8	11.4	-94.7	0.0
2025-01-17 18:57:05.677402	148.8	11.5	-94.9	0.0
2025-01-17 18:57:06.797004	148.8	11.6	-94.7	0.0
2025-01-17 18:57:07.919058	148.8	11.7	-94.9	0.0
2025-01-17 18:57:09.040881	148.7	11.8	-94.6	0.0
2025-01-17 18:57:10.161493	148.7	11.9	-94.7	0.0
2025-01-17 18:57:11.283358	148.7	12.0	-94.7	0.0
2025-01-17 18:57:12.405891	148.6	12.1	-94.7	0.0
2025-01-17 18:57:13.528690	148.6	12.2	-94.4	0.0
2025-01-17 18:57:14.649389	148.6	12.3	-94.5	0.0
2025-01-17 18:57:15.771863	148.6	12.4	-94.4	0.0
2025-01-17 18:57:16.891312	148.5	12.5	-94.3	0.0
2025-01-17 18:57:18.011924	148.5	12.6	-94.6	0.0
2025-01-17 18:57:19.131780	148.5	12.7	-94.4	0.0
2025-01-17 18:57:20.254171	148.4	12.8	-94.4	0.0
2025-01-17 18:57:21.375202	148.4	12.9	-94.4	0.0
2025-01-17 18:57:22.496226	148.4	13.0	-94.6	0.0
2025-01-17 18:57:23.616928	148.4	13.2	-94.7	0.0
2025-01-17 18:57:24.737522	148.3	13.3	-94.3	0.0
2025-01-17 18:57:25.859500	148.3	13.4	-94.4	0.0
2025-01-17 18:57:26.979308	148.3	13.5	-94.2	0.0
2025-01-17 18:57:28.099447	148.2	13.6	-94.6	0.0
2025-01-17 18:57:29.221322	148.2	13.7	-94.5	0.0
2025-01-17 18:57:30.342300	148.2	13.8	-94.7	0.0
2025-01-17 18:57:31.464669	148.1	13.9	-94.6	0.0
2025-01-17 18:57:32.587400	148.1	14.0	-94.5	0.0
2025-01-17 18:57:33.710460	148.1	14.1	-94.7	0.0
2025-01-17 18:57:34.830268	148.0	14.3	-94.9	0.0
2025-01-17 18:57:35.954225	148.0	14.4	-94.8	0.0
2025-01-17 18:57:37.073498	148.0	14.5	-94.6	0.0
2025-01-17 18:57:38.195059	147.9	14.6	-94.6	0.0
2025-01-17 18:57:39.316564	147.9	14.7	-94.8	0.0
2025-01-17 18:57:40.436464	147.9	14.8	-94.6	0.0
2025-01-17 18:57:41.558289	147.8	14.9	-94.7	0.0
2025-01-17 18:57:42.678366	147.8	15.1	-94.7	0.0
2025-01-17 18:57:43.798381	147.8	15.2	-95.0	0.0
2025-01-17 18:57:44.918189	147.7	15.3	-94.8	0.0
2025-01-17 18:57:46.038789	147.7	15.4	-94.8	0.0
2025-01-17 18:57:47.159625	147.7	15.5	-94.7	0.0
2025-01-17 18:57:48.281264	147.6	15.7	-94.8	0.0
2025-01-17 18:57:49.401710	147.6	15.8	-94.8	0.0
2025-01-17 18:57:50.522254	147.5	15.9	-94.8	0.0
2025-01-17 18:57:51.643794	147.5	16.0	-94.6	0.0
2025-01-17 18:57:52.766928	147.5	16.1	-94.7	0.0
2025-01-17 18:57:53.891659	147.4	16.3	-94.8	0.0
2025-01-17 18:57:55.011124	147.4	16.4	-94.6	0.0
2025-01-17 18:57:56.131468	147.4	16.5	-94.8	0.0
2025-01-17 18:57:57.254538	147.3	16.6	-94.5	0.0
2025-01-17 18:57:58.375541	147.3	16.8	-94.7	0.0
2025-01-17 18:57:59.498170	147.2	16.9	-94.9	0.0
2025-01-17 18:58:00.619045	147.2	17.0	-94.5	0.0
2025-01-17 18:58:01.740444	147.2	17.1	-94.4	0.0
2025-01-17 18:58:02.861248	147.1	17.3	-94.7	0.0
2025-01-17 18:58:03.982501	147.1	17.4	-94.5	0.0
2025-01-17 18:58:05.106942	147.0	17.5	-94.7	0.0
2025-01-17 18:58:06.226582	147.0	17.7	-94.8	0.0
2025-01-17 18:58:07.346780	147.0	17.8	-94.7	0.0
2025-01-17 18:58:08.467356	146.9	17.9	-94.3	0.0
2025-01-17 18:58:09.590028	146.9	18.0	-94.6	0.0
2025-01-17 18:58:10.713374	146.8	18.2	-94.5	0.0
2025-01-17 18:58:11.834369	146.8	18.3	-94.4	0.0
2025-01-17 18:58:12.955177	146.7	18.4	-94.7	0.0
2025-01-17 18:58:14.076354	146.7	18.6	-94.6	0.0
2025-01-17 18:58:15.198437	146.6	18.7	-94.6	0.0
2025-01-17 18:58:16.322575	146.6	18.8	-94.5	0.0
2025-01-17 18:58:17.443913	146.6	19.0	-94.3	0.0
2025-01-17 18:58:18.566263	146.5	19.1	-94.6	0.0
2025-01-17 18:58:19.688616	146.5	19.3	-94.7	0.0
2025-01-17 18:58:20.810270	146.4	19.4	-94.8	0.0
2025-01-17 18:58:21.931191	146.4	19.5	-94.7	0.0
2025-01-17 18:58:23.052391	146.3	19.7	-94.7	0.0
2025-01-17 18:58:24.171954	146.3	19.8	-95.0	0.0
2025-01-17 18:58:25.293507	146.2	20.0	-94.6	0.0
2025-01-17 18:58:26.414496	146.2	20.1	-94.9	0.0
2025-01-17 18:58:27.535537	146.1	20.2	-94.8	0.0
2025-01-17 18:58:28.657024	146.1	20.4	-95.0	0.0
2025-01-17 18:58:29.778620	146.0	20.5	-95.0	0.0
2025-01-17 18:58:30.898820	146.0	20.7	-95.0	0.0
2025-01-17 18:58:32.019040	145.9	20.8	-95.1	0.0
2025-01-17 18:58:33.140010	145.9	21.0	-95.0	0.0
2025-01-17 18:58:34.261892	145.8	21.1	-94.9	0.0
2025-01-17 18:58:35.385333	145.8	21.3	-95.0	0.0
2025-01-17 18:58:36.506908	145.7	21.4	-94.9	0.0
2025-01-17 18:58:37.628207	145.6	21.6	-94.7	0.0
2025-01-17 18:58:38.750163	145.6	21.7	-94.8	0.0
2025-01-17 18:58:39.871584	145.5	21.9	-94.7	0.0
2025-01-17 18:58:40.991349	145.5	22.0	-94.5	0.0
2025-01-17 18:58:42.113352	145.4	22.2	-94.6	0.0
2025-01-17 18:58:43.235269	145.4	22.3	-94.8	0.0
2025-01-17 18:58:44.359682	145.3	22.5	-94.7	0.0
2025-01-17 18:58:45.479488	145.2	22.6	-94.7	0.0
2025-01-17 18:58:46.599616	145.2	22.8	-94.5	0.0
2025-01-17 18:58:47.719270	145.1	23.0	-94.5	0.0
2025-01-17 18:58:48.841578	145.1	23.1	-94.8	0.0
2025-01-17 18:58:49.963885	145.0	23.3	-94.8	0.0
2025-01-17 18:58:51.087274	144.9	23.4	-94.7	0.0
2025-01-17 18:58:52.209589	144.9	23.6	-95.0	0.0
2025-01-17 18:58:53.329970	144.8	23.8	-94.9	0.0
2025-01-17 18:58:54.450757	144.8	23.9	-94.9	0.0
2025-01-17 18:58:55.571967	144.7	24.1	-94.9	0.0
2025-01-17 18:58:56.691694	144.6	24.3	-94.7	0.0
2025-01-17 18:58:57.813408	144.6	24.4	-94.9	0.0
2025-01-17 18:58:58.934272	144.5	24.6	-94.7	0.0
2025-01-17 18:59:00.055648	144.4	24.8	-94.8	0.0
2025-01-17 18:59:01.176005	144.4	24.9	-95.0	0.0
2025-01-17 18:59:02.297257	144.3	25.1	-94.8	0.0
2025-01-17 18:59:03.419185	144.2	25.3	-94.8	0.0
2025-01-17 18:59:04.540436	144.1	25.4	-94.9	0.0
2025-01-17 18:59:05.660624	144.1	25.6	-94.7	0.0
2025-01-17 18:59:06.781264	144.0	25.8	-95.0	0.0
2025-01-17 18:59:07.903150	143.9	26.0	-94.6	0.0
2025-01-17 18:59:09.022644	143.9	26.1	-94.6	0.0
2025-01-17 18:59:10.145866	143.8	26.3	-94.7	0.0
2025-01-17 18:59:11.268647	143.7	26.5	-94.9	0.0
2025-01-17 18:59:12.391173	143.6	26.7	-94.7	0.0
2025-01-17 18:59:13.513540	143.5	26.9	-94.8	0.0
2025-01-17 18:59:14.633373	143.5	27.1	-94.6	0.0
2025-01-17 18:59:15.754456	143.4	27.2	-94.6	0.0
2025-01-17 18:59:16.876422	143.3	27.4	-94.7	0.0
2025-01-17 18:59:17.995585	143.2	27.6	-94.7	0.0
2025-01-17 18:59:19.117108	143.1	27.8	-94.8	0.0
2025-01-17 18:59:20.237786	143.1	28.0	-95.0	0.0
2025-01-17 18:59:21.358442	143.0	28.2	-94.5	0.0
2025-01-17 18:59:22.479493	142.9	28.4	-94.7	0.0
2025-01-17 18:59:23.601801	142.8	28.6	-94.8	0.0
2025-01-17 18:59:24.721669	142.7	28.8	-94.7	0.0
2025-01-17 18:59:25.841102	142.6	28.9	-94.8	0.0
2025-01-17 18:59:26.961040	142.5	29.1	-94.9	0.0
2025-01-17 18:59:28.082396	142.4	29.3	-94.7	0.0
2025-01-17 18:59:29.202712	142.4	29.5	-94.7	0.0
2025-01-17 18:59:30.325530	142.3	29.7	-94.7	0.0
2025-01-17 18:59:31.446770	142.2	29.9	-95.0	0.0
2025-01-17 18:59:32.568766	142.1	30.1	-94.7	0.0
2025-01-17 18:59:33.687824	142.0	30.4	-94.5	0.0
2025-01-17 18:59:34.810882	141.9	30.6	-94.6	0.0
2025-01-17 18:59:35.931157	141.8	30.8	-94.7	0.0
2025-01-17 18:59:37.051902	141.7	31.0	-94.8	0.0
2025-01-17 18:59:38.172277	141.6	31.2	-94.8	0.0
2025-01-17 18:59:39.292422	141.5	31.4	-94.6	0.0
2025-01-17 18:59:40.414043	141.4	31.6	-94.7	0.0
2025-01-17 18:59:41.537247	141.3	31.8	-94.9	0.0
2025-01-17 18:59:42.658168	141.2	32.0	-94.8	0.0
2025-01-17 18:59:43.778034	141.0	32.3	-94.8	0.0
2025-01-17 18:59:44.897858	140.9	32.5	-94.6	0.0
2025-01-17 18:59:46.021282	140.8	32.7	-94.7	0.0
2025-01-17 18:59:47.141869	140.7	32.9	-94.6	0.0
2025-01-17 18:59:48.264356	140.6	33.1	-94.6	0.0
2025-01-17 18:59:49.387792	140.5	33.4	-94.6	0.0
2025-01-17 18:59:50.511321	140.4	33.6	-94.6	0.0
2025-01-17 18:59:51.632858	140.2	33.8	-94.7	0.0
2025-01-17 18:59:52.758211	140.1	34.0	-94.8	0.0
2025-01-17 18:59:53.876949	140.0	34.3	-94.8	0.0
2025-01-17 18:59:54.997733	139.9	34.5	-95.0	0.0
2025-01-17 18:59:56.119270	139.7	34.7	-94.9	0.0
2025-01-17 18:59:57.240438	139.6	35.0	-95.0	0.0
2025-01-17 18:59:58.359871	139.5	35.2	-94.8	0.0
2025-01-17 18:59:59.483512	139.3	35.4	-95.0	0.0
2025-01-17 19:00:00.602974	139.2	35.7	-95.0	0.0
2025-01-17 19:00:01.724314	139.1	35.9	-94.8	0.0
2025-01-17 19:00:02.847221	138.9	36.2	-94.8	0.0
2025-01-17 19:00:03.968268	138.8	36.4	-94.9	0.0
2025-01-17 19:00:05.089159	138.6	36.7	-94.8	0.0
2025-01-17 19:00:06.209961	138.5	36.9	-95.1	0.0
2025-01-17 19:00:07.331115	138.3	37.2	-95.1	0.0
2025-01-17 19:00:08.452745	138.2	37.4	-95.0	0.0
2025-01-17 19:00:09.574868	138.0	37.7	-94.9	0.0
2025-01-17 19:00:10.696415	137.9	37.9	-94.8	0.0
2025-01-17 19:00:11.815889	137.7	38.2	-94.6	0.0
2025-01-17 19:00:12.937287	137.6	38.4	-94.7	0.0
2025-01-17 19:00:14.058560	137.4	38.7	-94.7	0.0
2025-01-17 19:00:15.178664	137.2	38.9	-94.9	0.0
2025-01-17 19:00:16.300509	137.1	39.2	-94.7	0.0
2025-01-17 19:00:17.423321	136.9	39.5	-94.7	0.0
2025-01-17 19:00:18.543409	136.7	39.7	-94.6	0.0
2025-01-17 19:00:19.664419	136.5	40.0	-94.5	0.0
2025-01-17 19:00:20.784778	136.4	40.3	-94.7	0.0
2025-01-17 19:00:21.907372	136.2	40.6	-94.9	0.0
2025-01-17 19:00:23.026471	136.0	40.8	-94.6	0.0
2025-01-17 19:00:24.147944	135.8	41.1	-94.7	0.0
2025-01-17 19:00:25.270267	135.6	41.4	-94.7	0.0
2025-01-17 19:00:26.390928	135.4	41.7	-95.0	0.0
2025-01-17 19:00:27.512295	135.2	41.9	-94.7	0.0
2025-01-17 19:00:28.633246	135.0	42.2	-94.7	0.0
2025-01-17 19:00:29.756646	134.8	42.5	-94.9	0.0
2025-01-17 19:00:30.877422	134.6	42.8	-94.9	0.0
2025-01-17 19:00:31.998471	134.4	43.1	-94.7	0.0
2025-01-17 19:00:33.120004	134.2	43.4	-94.7	0.0
2025-01-17 19:00:34.241157	133.9	43.6	-95.0	0.0
2025-01-17 19:00:35.363587	133.7	43.9	-94.9	0.0
2025-01-17 19:00:36.483836	133.5	44.2	-94.7	0.0
2025-01-17 19:00:37.603886	133.2	44.5	-95.0	0.0
2025-01-17 19:00:38.723942	133.0	44.8	-95.0	0.0
2025-01-17 19:00:39.845082	132.8	45.1	-94.8	0.0
2025-01-17 19:00:40.964650	132.5	45.4	-95.0	0.0
2025-01-17 19:00:42.085764	132.3	45.7	-94.9	0.0
2025-01-17 19:00:43.205519	132.0	46.0	-94.9	0.0
2025-01-17 19:00:44.325307	131.7	46.3	-94.9	0.0
2025-01-17 19:00:45.445516	131.5	46.6	-95.2	0.0
2025-01-17 19:00:46.567214	131.2	46.9	-95.1	0.0
2025-01-17 19:00:47.687539	130.9	47.3	-94.9	0.0
2025-01-17 19:00:48.808675	130.6	47.6	-94.9	0.0
2025-01-17 19:00:49.928951	130.3	47.9	-95.0	0.0
2025-01-17 19:00:51.051821	130.0	48.2	-95.0	0.0
2025-01-17 19:00:52.174396	129.7	48.5	-94.9	0.0
2025-01-17 19:00:53.294436	129.4	48.8	-95.0	0.0
2025-01-17 19:00:54.416742	129.1	49.1	-95.1	0.0
2025-01-17 19:00:55.536151	128.8	49.5	-95.1	0.0
2025-01-17 19:00:56.657667	128.5	49.8	-94.9	0.0
2025-01-17 19:00:57.779395	128.1	50.1	-94.8	0.0
2025-01-17 19:00:58.900827	127.8	50.4	-95.0	0.0
2025-01-17 19:01:00.022925	127.4	50.8	-95.0	0.0
2025-01-17 19:01:01.143971	127.1	51.1	-94.8	0.0
2025-01-17 19:01:02.261967	126.7	51.4	-94.8	0.0
2025-01-17 19:01:03.384220	126.3	51.7	-94.7	0.0
2025-01-17 19:01:04.503483	125.9	52.1	-94.9	0.0
2025-01-17 19:01:05.626194	125.5	52.4	-95.1	0.0
2025-01-17 19:01:06.746433	125.1	52.7	-94.8	0.0
2025-01-17 19:01:07.865377	124.7	53.0	-94.7	0.0
2025-01-17 19:01:08.987630	124.3	53.4	-94.8	0.0
2025-01-17 19:01:10.106903	123.9	53.7	-94.8	0.0
2025-01-17 19:01:11.227181	123.4	54.0	-95.1	0.0
2025-01-17 19:01:12.348097	123.0	54.4	-94.9	0.0
2025-01-17 19:01:13.469269	122.5	54.7	-94.6	0.0
2025-01-17 19:01:14.589668	122.1	55.0	-94.8	0.0
2025-01-17 19:01:15.712294	121.6	55.4	-94.6	0.0
2025-01-17 19:01:16.831473	121.1	55.7	-95.0	0.0
2025-01-17 19:01:17.952977	120.6	56.0	-94.8	0.0
2025-01-17 19:01:19.074284	120.1	56.4	-94.6	0.0
2025-01-17 19:01:20.194012	119.5	56.7	-94.6	0.0
2025-01-17 19:01:21.316891	119.0	57.0	-94.6	0.0
2025-01-17 19:01:22.436840	118.4	57.4	-94.8	0.0
2025-01-17 19:01:23.558612	117.9	57.7	-94.7	0.0
2025-01-17 19:01:24.679135	117.3	58.0	-94.4	0.0
2025-01-17 19:01:25.799231	116.7	58.3	-94.6	0.0
2025-01-17 19:01:26.919452	116.1	58.7	-94.9	0.0
2025-01-17 19:01:28.041262	115.4	59.0	-94.8	0.0
2025-01-17 19:01:29.160744	114.8	59.3	-94.7	0.0
2025-01-17 19:01:30.280292	114.1	59.6	-94.6	0.0
2025-01-17 19:01:31.399651	113.4	60.0	-94.7	0.0
2025-01-17 19:01:32.520345	112.7	60.3	-94.9	0.0
2025-01-17 19:01:33.642619	112.0	60.6	-94.9	0.0
2025-01-17 19:01:34.764257	111.3	60.9	-94.6	0.0
2025-01-17 19:01:35.885249	110.5	61.2	-94.7	0.0
2025-01-17 19:01:37.005858	109.8	61.5	-94.4	0.0
2025-01-17 19:01:38.127391	109.0	61.8	-94.5	0.0
2025-01-17 19:01:39.249447	108.2	62.1	-94.8	0.0
2025-01-17 19:01:40.369581	107.4	62.4	-94.9	0.0
2025-01-17 19:01:41.491827	106.5	62.7	-94.7	0.0
2025-01-17 19:01:42.613561	105.6	63.0	-94.5	0.0
2025-01-17 19:01:43.735507	104.7	63.3	-94.6	0.0
2025-01-17 19:01:44.857098	103.8	63.6	-95.0	0.0
2025-01-17 19:01:45.977418	102.9	63.8	-94.8	0.0
2025-01-17 19:01:47.097916	101.9	64.1	-95.0	0.0
2025-01-17 19:01:48.218271	101.0	64.4	-94.7	0.0
2025-01-17 19:01:49.341210	100.0	64.6	-94.8	0.0
2025-01-17 19:01:50.463418	98.9	64.9	-94.7	0.0
2025-01-17 19:01:51.586445	97.9	65.1	-94.8	0.0
2025-01-17 19:01:52.708905	96.8	65.4	-94.8	0.0
2025-01-17 19:01:53.830604	95.7	65.6	-94.7	0.0
2025-01-17 19:01:54.953566	94.6	65.8	-94.7	0.0
2025-01-17 19:01:56.075087	93.5	66.0	-94.7	0.0
2025-01-17 19:01:57.195903	92.3	66.2	-95.0	0.0
2025-01-17 19:01:58.317861	91.1	66.4	-94.8	0.0
2025-01-17 19:01:59.439362	89.9	66.6	-94.8	0.0
2025-01-17 19:02:00.560107	88.7	66.8	-94.5	0.0
2025-01-17 19:02:01.683213	87.5	67.0	-94.7	0.0
2025-01-17 19:02:02.804917	86.2	67.1	-94.8	0.0
2025-01-17 19:02:03.925284	84.9	67.3	-94.8	0.0
2025-01-17 19:02:05.045093	83.6	67.4	-95.0	0.0
2025-01-17 19:02:06.165976	82.3	67.6	-94.9	0.0
2025-01-17 19:02:07.286790	81.0	67.7	-94.9	0.0
2025-01-17 19:02:08.407854	79.6	67.8	-94.8	0.0
2025-01-17 19:02:09.527881	78.2	67.9	-94.8	0.0
2025-01-17 19:02:10.648822	76.9	68.0	-94.8	0.0
2025-01-17 19:02:11.769940	75.5	68.0	-94.9	0.0
2025-01-17 19:02:12.891436	74.1	68.1	-95.0	0.0
2025-01-17 19:02:14.013807	72.7	68.1	-94.6	0.0
2025-01-17 19:02:15.134043	71.3	68.2	-94.6	0.0
2025-01-17 19:02:16.257651	69.9	68.2	-94.8	0.0
2025-01-17 19:02:17.378884	68.4	68.2	-94.7	0.0
2025-01-17 19:02:18.500826	67.0	68.2	-94.8	0.0
2025-01-17 19:02:19.620333	65.6	68.2	-94.7	0.0
2025-01-17 19:02:20.742222	64.2	68.2	-94.6	0.0
2025-01-17 19:02:21.865208	62.8	68.1	-94.8	0.0
2025-01-17 19:02:22.986507	61.4	68.1	-94.8	0.0
2025-01-17 19:02:24.108891	60.0	68.0	-94.5	0.0
2025-01-17 19:02:25.230561	58.6	68.0	-94.6	0.0
2025-01-17 19:02:26.353827	57.2	67.9	-94.8	0.0
2025-01-17 19:02:27.476866	55.9	67.8	-95.0	0.0
2025-01-17 19:02:28.597267	54.5	67.7	-94.9	0.0
2025-01-17 19:02:29.718766	53.2	67.6	-94.9	0.0
2025-01-17 19:02:30.841418	51.9	67.4	-94.8	0.0
2025-01-17 19:02:31.963078	50.6	67.3	-95.2	0.0
2025-01-17 19:02:33.084518	49.3	67.1	-94.9	0.0
2025-01-17 19:02:34.204719	48.0	67.0	-95.1	0.0
2025-01-17 19:02:35.324183	46.8	66.8	-95.1	0.0
2025-01-17 19:02:36.445034	45.6	66.6	-95.0	0.0
2025-01-17 19:02:37.567423	44.4	66.4	-94.8	0.0
2025-01-17 19:02:38.689280	43.2	66.2	-94.8	0.0
2025-01-17 19:02:39.810392	42.0	66.0	-94.7	0.0
2025-01-17 19:02:40.931437	40.9	65.8	-95.0	0.0
2025-01-17 19:02:42.054063	39.8	65.6	-94.8	0.0
2025-01-17 19:02:43.174667	38.7	65.4	-94.9	0.0
2025-01-17 19:02:44.295943	37.6	65.1	-94.9	0.0
2025-01-17 19:02:45.418346	36.6	64.9	-94.7	0.0
2025-01-17 19:02:46.541219	35.5	64.6	-94.6	0.0
2025-01-17 19:02:47.661700	34.5	64.4	-94.4	0.0
2025-01-17 19:02:48.780879	33.6	64.1	-94.6	0.0
2025-01-17 19:02:49.901525	32.6	63.8	-94.8	0.0
2025-01-17 19:02:51.021107	31.7	63.6	-94.4	0.0
2025-01-17 19:02:52.143449	30.8	63.3	-94.7	0.0
2025-01-17 19:02:53.265430	29.9	63.0	-94.6	0.0
2025-01-17 19:02:54.386334	29.0	62.7	-94.6	0.0
2025-01-17 19:02:55.508268	28.2	62.4	-94.6	0.0
2025-01-17 19:02:56.627458	27.3	62.1	-94.5	0.0
2025-01-17 19:02:57.749289	26.5	61.8	-94.5	0.0
2025-01-17 19:02:58.874834	25.7	61.5	-94.7	0.0
2025-01-17 19:02:59.997180	25.0	61.2	-94.9	0.0
2025-01-17 19:03:01.119650	24.2	60.9	-94.8	0.0
2025-01-17 19:03:02.239500	23.5	60.6	-94.8	0.0
2025-01-17 19:03:03.359370	22.8	60.3	-94.6	0.0
2025-01-17 19:03:04.480423	22.1	59.9	-95.0	0.0
2025-01-17 19:03:05.600598	21.4	59.6	-94.8	0.0
2025-01-17 19:03:06.722351	20.8	59.3	-94.8	0.0
2025-01-17 19:03:07.843433	20.1	59.0	-94.7	0.0
2025-01-17 19:03:08.962870	19.5	58.7	-94.8	0.0
2025-01-17 19:03:10.085334	18.9	58.3	-95.0	0.0
2025-01-17 19:03:11.205729	18.3	58.0	-94.9	0.0
2025-01-17 19:03:12.328770	17.7	57.7	-94.9	0.0
2025-01-17 19:03:13.448505	17.1	57.3	-94.7	0.0
2025-01-17 19:03:14.571683	16.6	57.0	-94.8	0.0
2025-01-17 19:03:15.691805	16.0	56.7	-94.9	0.0
2025-01-17 19:03:16.813148	15.5	56.3	-95.0	0.0
2025-01-17 19:03:17.933247	15.0	56.0	-95.0	0.0
2025-01-17 19:03:19.054369	14.5	55.7	-94.7	0.0
2025-01-17 19:03:20.176438	14.0	55.3	-94.7	0.0
2025-01-17 19:03:21.298567	13.5	55.0	-94.9	0.0
2025-01-17 19:03:22.420178	13.0	54.7	-94.9	0.0
2025-01-17 19:03:23.543378	12.5	54.4	-94.8	0.0
2025-01-17 19:03:24.664731	12.1	54.0	-94.9	0.0
2025-01-17 19:03:25.785532	11.7	53.7	-95.0	0.0
2025-01-17 19:03:26.904929	11.2	53.4	-95.0	0.0
2025-01-17 19:03:28.024046	10.8	53.0	-94.7	0.0
2025-01-17 19:03:29.148029	10.4	52.7	-94.9	0.0
2025-01-17 19:03:30.267411	10.0	52.4	-94.9	0.0
2025-01-17 19:03:31.387866	9.6	52.0	-95.1	0.0
2025-01-17 19:03:32.509458	9.2	51.7	-94.8	0.0
2025-01-17 19:03:33.629327	8.9	51.4	-94.9	0.0
2025-01-17 19:03:34.751196	8.5	51.1	-95.0	0.0
2025-01-17 19:03:35.871368	8.1	50.7	-94.8	0.0
2025-01-17 19:03:36.992755	7.8	50.4	-94.8	0.0
2025-01-17 19:03:38.114618	7.4	50.1	-94.9	0.0
2025-01-17 19:03:39.234279	7.1	49.8	-95.1	0.0
2025-01-17 19:03:40.356899	6.8	49.4	-94.9	0.0
2025-01-17 19:03:41.478793	6.4	49.1	-94.8	0.0
2025-01-17 19:03:42.598978	6.1	48.8	-94.8	0.0
2025-01-17 19:03:43.719268	5.8	48.5	-95.0	0.0
2025-01-17 19:03:44.840569	5.5	48.2	-94.9	0.0
2025-01-17 19:03:45.961301	5.2	47.9	-94.9	0.0
2025-01-17 19:03:47.082573	4.9	47.6	-94.8	0.0
2025-01-17 19:03:48.202906	4.6	47.2	-95.1	0.0
2025-01-17 19:03:49.322242	4.4	46.9	-94.8	0.0
2025-01-17 19:03:50.444082	4.1	46.6	-94.8	0.0
2025-01-17 19:03:51.564414	3.8	46.3	-95.0	0.0
2025-01-17 19:03:52.684978	3.6	46.0	-94.9	0.0
2025-01-17 19:03:53.808038	3.3	45.7	-94.9	0.0
2025-01-17 19:03:54.930006	3.1	45.4	-94.9	0.0
2025-01-17 19:03:56.049836	2.8	45.1	-94.8	0.0
2025-01-17 19:03:57.172317	2.6	44.8	-95.1	0.0
2025-01-17 19:03:58.295579	2.3	44.5	-94.7	0.0
2025-01-17 19:03:59.417357	2.1	44.2	-94.9	0.0
2025-01-17 19:04:00.540988	1.9	43.9	-94.7	0.0
2025-01-17 19:04:01.662355	1.6	43.6	-94.8	0.0
2025-01-17 19:04:02.781160	1.4	43.4	-94.8	0.0
2025-01-17 19:04:03.900213	1.2	43.1	-95.1	0.0
2025-01-17 19:04:05.021523	1.0	42.8	-94.8	0.0
2025-01-17 19:04:06.142413	0.8	42.5	-95.0	0.0
2025-01-17 19:04:07.260605	0.6	42.2	-94.7	0.0
2025-01-17 19:04:08.381771	0.4	41.9	-94.9	0.0
2025-01-17 19:04:09.500784	0.2	41.7	-94.8	0.0
2025-01-17 19:04:10.623059	360.0	41.4	-94.9	0.0
2025-01-17 19:04:11.744533	359.8	41.1	-94.9	0.0
2025-01-17 19:04:12.863671	359.6	40.8	-94.9	0.0
2025-01-17 19:04:13.985231	359.4	40.5	-94.9	0.0
2025-01-17 19:04:15.107416	359.2	40.3	-94.8	0.0
2025-01-17 19:04:16.230585	359.0	40.0	-95.0	0.0
2025-01-17 19:04:17.351985	358.9	39.7	-94.9	0.0
2025-01-17 19:04:18.473941	358.7	39.5	-94.8	0.0
2025-01-17 19:04:19.595189	358.5	39.2	-95.0	0.0
2025-01-17 19:04:20.717448	358.3	38.9	-94.9	0.0
2025-01-17 19:04:21.838057	358.2	38.7	-94.9	0.0
2025-01-17 19:04:22.959391	358.0	38.4	-95.2	0.0
2025-01-17 19:04:24.081785	357.9	38.2	-94.9	0.0
2025-01-17 19:04:25.202115	357.7	37.9	-94.7	0.0
2025-01-17 19:04:26.321359	357.5	37.7	-94.8	0.0
2025-01-17 19:04:27.440462	357.4	37.4	-95.1	0.0
2025-01-17 19:04:28.561876	357.2	37.2	-94.9	0.0
2025-01-17 19:04:29.683106	357.1	36.9	-95.1	0.0
2025-01-17 19:04:30.804789	356.9	36.7	-94.8	0.0
2025-01-17 19:04:31.924599	356.8	36.4	-94.9	0.0
2025-01-17 19:04:33.043898	356.7	36.2	-95.1	0.0
2025-01-17 19:04:34.164415	356.5	35.9	-95.0	0.0
2025-01-17 19:04:35.285290	356.4	35.7	-95.2	0.0
2025-01-17 19:04:36.407686	356.3	35.4	-95.0	0.0
2025-01-17 19:04:37.528175	356.1	35.2	-94.6	0.0
2025-01-17 19:04:38.649284	356.0	35.0	-95.1	0.0
2025-01-17 19:04:39.769505	355.9	34.7	-95.0	0.0
2025-01-17 19:04:40.890803	355.7	34.5	-94.9	0.0
2025-01-17 19:04:42.011753	355.6	34.3	-94.7	0.0
2025-01-17 19:04:43.132390	355.5	34.0	-94.8	0.0
2025-01-17 19:04:44.256046	355.4	33.8	-94.7	0.0
2025-01-17 19:04:45.377631	355.2	33.6	-94.8	0.0
2025-01-17 19:04:46.499464	355.1	33.4	-94.8	0.0
2025-01-17 19:04:47.618625	355.0	33.1	-94.8	0.0
2025-01-17 19:04:48.740351	354.9	32.9	-94.7	0.0
2025-01-17 19:04:49.858915	354.8	32.7	-94.7	0.0
2025-01-17 19:04:50.979307	354.7	32.5	-95.0	0.0
2025-01-17 19:04:52.100739	354.6	32.3	-95.0	0.0
2025-01-17 19:04:53.220328	354.5	32.0	-94.8	0.0
2025-01-17 19:04:54.343384	354.3	31.8	-94.8	0.0
2025-01-17 19:04:55.465286	354.2	31.6	-94.9	0.0
2025-01-17 19:04:56.587330	354.1	31.4	-94.9	0.0
2025-01-17 19:04:57.709889	354.0	31.2	-94.7	0.0
2025-01-17 19:04:58.830193	353.9	31.0	-94.9	0.0
2025-01-17 19:04:59.949592	353.8	30.8	-94.8	0.0
2025-01-17 19:05:01.068611	353.7	30.6	-94.9	0.0
2025-01-17 19:05:02.188146	353.6	30.4	-94.9	0.0
2025-01-17 19:05:03.311450	353.5	30.2	-94.9	0.0
2025-01-17 19:05:04.432389	353.4	30.0	-94.7	0.0
2025-01-17 19:05:05.553560	353.3	29.8	-94.8	0.0
2025-01-17 19:05:06.672269	353.3	29.6	-95.0	0.0
2025-01-17 19:05:07.794029	353.2	29.4	-94.7	0.0
2025-01-17 19:05:08.914529	353.1	29.2	-94.7	0.0
2025-01-17 19:05:10.033537	353.0	29.0	-94.7	0.0
2025-01-17 19:05:11.155035	352.9	28.8	-94.9	0.0
2025-01-17 19:05:12.275133	352.8	28.6	-94.9	0.0
2025-01-17 19:05:13.394663	352.7	28.4	-94.8	0.0
2025-01-17 19:05:14.518033	352.6	28.2	-94.8	0.0
2025-01-17 19:05:15.639664	352.6	28.0	-94.9	0.0
2025-01-17 19:05:16.759234	352.5	27.8	-94.9	0.0
2025-01-17 19:05:17.881390	352.4	27.6	-94.9	0.0
2025-01-17 19:05:19.001424	352.3	27.4	-94.8	0.0
2025-01-17 19:05:20.122123	352.2	27.3	-94.9	0.0
2025-01-17 19:05:21.242845	352.2	27.1	-94.9	0.0
2025-01-17 19:05:22.362322	352.1	26.9	-95.0	0.0
2025-01-17 19:05:23.483599	352.0	26.7	-94.9	0.0
2025-01-17 19:05:24.604291	351.9	26.5	-94.9	0.0
2025-01-17 19:05:25.727030	351.8	26.3	-94.8	0.0
2025-01-17 19:05:26.847174	351.8	26.2	-94.9	0.0
2025-01-17 19:05:27.968395	351.7	26.0	-95.1	0.0
2025-01-17 19:05:29.089627	351.6	25.8	-95.1	0.0
2025-01-17 19:05:30.210744	351.6	25.6	-94.9	0.0
2025-01-17 19:05:31.329823	351.5	25.5	-94.8	0.0
2025-01-17 19:05:32.450148	351.4	25.3	-95.1	0.0
2025-01-17 19:05:33.570410	351.3	25.1	-94.8	0.0
2025-01-17 19:05:34.692036	351.3	24.9	-95.0	0.0
2025-01-17 19:05:35.814149	351.2	24.8	-94.9	0.0
2025-01-17 19:05:36.934862	351.1	24.6	-94.9	0.0
2025-01-17 19:05:38.057156	351.1	24.4	-94.9	0.0
2025-01-17 19:05:39.179482	351.0	24.3	-94.9	0.0
2025-01-17 19:05:40.301197	350.9	24.1	-95.0	0.0
2025-01-17 19:05:41.423204	350.9	23.9	-95.0	0.0
2025-01-17 19:05:42.544618	350.8	23.8	-95.0	0.0
2025-01-17 19:05:43.665548	350.8	23.6	-94.9	0.0
2025-01-17 19:05:44.785606	350.7	23.5	-94.8	0.0
2025-01-17 19:05:45.906511	350.6	23.3	-95.1	0.0
2025-01-17 19:05:47.027455	350.6	23.1	-94.8	0.0
2025-01-17 19:05:48.146909	350.5	23.0	-94.9	0.0
2025-01-17 19:05:49.267373	350.4	22.8	-94.8	0.0
2025-01-17 19:05:50.388969	350.4	22.7	-94.8	0.0
2025-01-17 19:05:51.510030	350.3	22.5	-94.9	0.0
2025-01-17 19:05:52.629797	350.3	22.3	-95.0	0.0
2025-01-17 19:05:53.751238	350.2	22.2	-95.1	0.0
2025-01-17 19:05:54.874182	350.2	22.0	-94.7	0.0
2025-01-17 19:05:55.995219	350.1	21.9	-95.0	0.0
2025-01-17 19:05:57.116264	350.1	21.7	-94.9	0.0
2025-01-17 19:05:58.233670	350.0	21.6	-94.9	0.0
2025-01-17 19:05:59.354135	349.9	21.4	-94.9	0.0
2025-01-17 19:06:00.476807	349.9	21.3	-94.9	0.0
2025-01-17 19:06:01.596546	349.8	21.1	-94.8	0.0
2025-01-17 19:06:02.718297	349.8	21.0	-94.8	0.0
2025-01-17 19:06:03.839145	349.7	20.8	-95.0	0.0
2025-01-17 19:06:04.960300	349.7	20.7	-95.1	0.0
2025-01-17 19:06:06.081266	349.6	20.6	-94.8	0.0
2025-01-17 19:06:07.200024	349.6	20.4	-94.6	0.0
2025-01-17 19:06:08.321329	349.5	20.3	-94.7	0.0
2025-01-17 19:06:09.441219	349.5	20.1	-95.1	0.0
2025-01-17 19:06:10.562189	349.4	20.0	-95.1	0.0
2025-01-17 19:06:11.682364	349.4	19.8	-94.7	0.0
2025-01-17 19:06:12.803358	349.3	19.7	-95.0	0.0
2025-01-17 19:06:13.924291	349.3	19.6	-95.0	0.0
2025-01-17 19:06:15.044921	349.2	19.4	-95.2	0.0
2025-01-17 19:06:16.166296	349.2	19.3	-94.9	0.0
2025-01-17 19:06:17.285372	349.1	19.1	-94.9	0.0
2025-01-17 19:06:18.407387	349.1	19.0	-94.9	0.0
2025-01-17 19:06:19.529254	349.1	18.9	-95.0	0.0
2025-01-17 19:06:20.649641	349.0	18.7	-94.8	0.0
2025-01-17 19:06:21.769388	349.0	18.6	-95.0	0.0
2025-01-17 19:06:22.889870	348.9	18.5	-94.9	0.0
2025-01-17 19:06:24.011043	348.9	18.3	-94.9	0.0
2025-01-17 19:06:25.132380	348.8	18.2	-95.1	0.0
2025-01-17 19:06:26.253475	348.8	18.1	-94.7	0.0
2025-01-17 19:06:27.374529	348.8	17.9	-95.0	0.0
2025-01-17 19:06:28.495081	348.7	17.8	-94.8	0.0
2025-01-17 19:06:29.615416	348.7	17.7	-94.9	0.0
2025-01-17 19:06:30.736529	348.6	17.6	-94.7	0.0
2025-01-17 19:06:31.856506	348.6	17.4	-95.0	0.0
2025-01-17 19:06:32.977547	348.6	17.3	-95.0	0.0
2025-01-17 19:06:34.098001	348.5	17.2	-95.0	0.0
2025-01-17 19:06:35.219800	348.5	17.0	-94.8	0.0
2025-01-17 19:06:36.342762	348.4	16.9	-95.0	0.0
2025-01-17 19:06:37.464143	348.4	16.8	-94.9	0.0
2025-01-17 19:06:38.586511	348.4	16.7	-95.0	0.0
2025-01-17 19:06:39.704658	348.3	16.5	-94.6	0.0
2025-01-17 19:06:40.821449	348.3	16.4	-94.7	0.0
2025-01-17 19:06:41.940881	348.2	16.3	-94.9	0.0
2025-01-17 19:06:43.061809	348.2	16.2	-95.1	0.0
2025-01-17 19:06:44.183918	348.2	16.0	-94.8	0.0
2025-01-17 19:06:45.304669	348.1	15.9	-95.1	0.0
2025-01-17 19:06:46.424460	348.1	15.8	-94.9	0.0
2025-01-17 19:06:47.547700	348.1	15.7	-94.8	0.0
2025-01-17 19:06:48.669834	348.0	15.6	-94.6	0.0
2025-01-17 19:06:49.789396	348.0	15.4	-95.0	0.0
2025-01-17 19:06:50.909684	348.0	15.3	-94.7	0.0
2025-01-17 19:06:52.031059	347.9	15.2	-94.9	0.0
2025-01-17 19:06:53.153053	347.9	15.1	-94.8	0.0
2025-01-17 19:06:54.275674	347.9	15.0	-94.9	0.0
2025-01-17 19:06:55.398027	347.8	14.9	-94.8	0.0
2025-01-17 19:06:56.521239	347.8	14.7	-94.9	0.0
2025-01-17 19:06:57.642370	347.8	14.6	-94.9	0.0
2025-01-17 19:06:58.763069	347.7	14.5	-95.0	0.0
2025-01-17 19:06:59.883006	347.7	14.4	-94.9	0.0
2025-01-17 19:07:01.005147	347.7	14.3	-94.9	0.0
2025-01-17 19:07:02.126460	347.6	14.2	-94.8	0.0
2025-01-17 19:07:03.248802	347.6	14.1	-94.8	0.0
2025-01-17 19:07:04.370640	347.6	14.0	-94.8	0.0
2025-01-17 19:07:05.493440	347.5	13.8	-94.9	0.0
2025-01-17 19:07:06.613707	347.5	13.7	-95.0	0.0
2025-01-17 19:07:07.734724	347.5	13.6	-94.7	0.0
2025-01-17 19:07:08.857358	347.4	13.5	-94.8	0.0
2025-01-17 19:07:09.977438	347.4	13.4	-94.7	0.0
2025-01-17 19:07:11.099245	347.4	13.3	-94.9	0.0
2025-01-17 19:07:12.220248	347.3	13.2	-94.8	0.0
2025-01-17 19:07:13.340850	347.3	13.1	-94.8	0.0
2025-01-17 19:07:14.461239	347.3	13.0	-95.1	0.0
2025-01-17 19:07:15.582644	347.3	12.9	-94.8	0.0
2025-01-17 19:07:16.705234	347.2	12.8	-95.0	0.0
2025-01-17 19:07:17.825309	347.2	12.6	-94.7	0.0
2025-01-17 19:07:18.946428	347.2	12.5	-94.9	0.0
2025-01-17 19:07:20.066624	347.1	12.4	-95.0	0.0
2025-01-17 19:07:21.187304	347.1	12.3	-95.0	0.0
2025-01-17 19:07:22.308413	347.1	12.2	-94.7	0.0
2025-01-17 19:07:23.428492	347.1	12.1	-94.9	0.0
2025-01-17 19:07:24.550272	347.0	12.0	-95.0	0.0
2025-01-17 19:07:25.671311	347.0	11.9	-95.2	0.0
2025-01-17 19:07:26.791670	347.0	11.8	-95.2	0.0
2025-01-17 19:07:27.912927	347.0	11.7	-94.9	0.0
2025-01-17 19:07:29.032984	346.9	11.6	-95.1	0.0
2025-01-17 19:07:30.155575	346.9	11.5	-94.9	0.0
2025-01-17 19:07:31.275182	346.9	11.4	-95.2	0.0
2025-01-17 19:07:32.394689	346.9	11.3	-95.0	0.0
2025-01-17 19:07:33.515238	346.8	11.2	-94.9	0.0
2025-01-17 19:07:34.637247	346.8	11.1	-94.8	0.0
2025-01-17 19:07:35.757432	346.8	11.0	-95.0	0.0
2025-01-17 19:07:36.880508	346.8	10.9	-95.1	0.0
2025-01-17 19:07:38.001738	346.7	10.8	-95.2	0.0
2025-01-17 19:07:39.125827	346.7	10.7	-95.0	0.0
2025-01-17 19:07:40.246160	346.7	10.6	-94.9	0.0
2025-01-17 19:07:41.367460	346.7	10.5	-94.9	0.0
2025-01-17 19:07:42.489246	346.6	10.4	-94.8	0.0
2025-01-17 19:07:43.611932	346.6	10.3	-94.9	0.0
2025-01-17 19:07:44.731279	346.6	10.2	-95.2	0.0
2025-01-17 19:07:45.851765	346.6	10.1	-94.8	0.0
2025-01-17 19:07:46.974092	346.5	10.0	-94.7	0.0
#Closed at: 2025-01-17 18:56:43.948083