passes_logs/2026/01/04/R2M6_AANII_01/R2M6_AANII_01__20260104_005135_NOAA_21_JPSS-2_rec.log

#Pass ID: 20260104_005135_NOAA 21 (JPSS-2)
#Satellite: NOAA 21 (JPSS-2)
#Configuration: NOAA 21
#almurnet v.1.7.20240730
#Start time: 2026-01-04 00:52:19

#Version: 2.2.20231116
#Station: R2M6_AANII_01
#Location: 30.233357 lon 59.946436 lat
#TLE: 1 54234U 22150A   26003.45311712  .00000198  00000+0  11468-3 0  9993
#TLE: 2 54234  98.7487 304.4932 0001159 347.5017  12.6130 14.19531745163172

#Time	Az	El	Level	Level2	SNR	BER	BlckErr	Temp	State	Recorded	gain1	gain2
2026-01-04 00:52:19.14	14.40	10.52	-33.9	-44.9	3.8	8.47e-01	0	43	0	0	28	12720
2026-01-04 00:52:20.14	14.37	10.61	-34.2	-46.2	3.8	1.49e+00	0	43	104	0	28	14395
2026-01-04 00:52:21.13	14.34	10.69	-34.2	-46.3	3.8	1.49e+00	0	43	104	0	28	14475
2026-01-04 00:52:22.14	14.31	10.78	-34.3	-46.4	3.8	1.49e+00	0	43	104	0	28	14544
2026-01-04 00:52:23.14	14.27	10.87	-34.3	-46.4	3.8	1.49e+00	0	43	104	0	28	14557
2026-01-04 00:52:24.14	14.24	10.96	-34.3	-46.4	3.8	1.49e+00	0	43	104	0	28	14561
2026-01-04 00:52:25.15	14.21	11.05	-34.3	-46.4	3.8	1.49e+00	0	43	104	0	28	14540
2026-01-04 00:52:26.15	14.18	11.14	-34.3	-46.4	3.8	1.49e+00	0	43	104	0	28	14528
2026-01-04 00:52:27.16	14.14	11.23	-34.3	-46.4	3.8	1.49e+00	0	43	104	0	28	14520
2026-01-04 00:52:28.15	14.11	11.32	-34.3	-46.4	3.8	1.49e+00	0	43	104	0	28	14504
2026-01-04 00:52:29.15	14.08	11.41	-34.3	-46.4	3.8	1.49e+00	0	43	104	0	28	14512
2026-01-04 00:52:30.16	14.04	11.50	-34.3	-46.4	3.8	1.49e+00	0	43	104	0	28	14527
2026-01-04 00:52:31.15	14.01	11.59	-34.3	-46.3	3.8	1.49e+00	0	43	104	0	28	14493
2026-01-04 00:52:32.15	13.97	11.68	-34.2	-46.3	3.8	1.49e+00	0	43	104	0	28	14478
2026-01-04 00:52:33.13	13.94	11.77	-34.3	-46.4	3.8	1.49e+00	0	43	104	0	28	14518
2026-01-04 00:52:34.13	13.90	11.86	-34.2	-46.3	3.8	1.49e+00	0	43	104	0	28	14499
2026-01-04 00:52:35.13	13.87	11.95	-34.2	-46.3	3.8	1.49e+00	0	43	104	0	28	14471
2026-01-04 00:52:36.13	13.83	12.04	-34.3	-46.4	3.8	1.49e+00	0	43	104	0	28	14528
2026-01-04 00:52:37.13	13.80	12.14	-34.4	-46.6	3.8	1.49e+00	0	43	104	0	28	14683
2026-01-04 00:52:38.13	13.76	12.23	-34.4	-46.6	3.8	1.49e+00	0	43	104	0	28	14665
2026-01-04 00:52:39.14	13.73	12.32	-34.4	-46.6	3.8	1.49e+00	0	43	104	0	28	14674
2026-01-04 00:52:40.14	13.69	12.42	-34.3	-46.5	3.8	1.49e+00	0	43	104	0	28	14660
2026-01-04 00:52:41.14	13.65	12.51	-34.3	-46.5	3.8	1.49e+00	0	43	104	0	28	14572
2026-01-04 00:52:42.14	13.62	12.60	-34.3	-46.4	3.8	1.49e+00	0	43	104	0	28	14564
2026-01-04 00:52:43.15	13.58	12.70	-34.3	-46.4	3.8	1.49e+00	0	43	104	0	28	14595
2026-01-04 00:52:44.15	13.54	12.80	-34.3	-46.4	3.8	1.49e+00	0	43	104	0	28	14563
2026-01-04 00:52:45.15	13.50	12.89	-34.3	-46.4	3.8	1.49e+00	0	43	104	0	28	14542
2026-01-04 00:52:46.14	13.46	12.99	-34.2	-46.3	3.8	1.49e+00	0	43	104	0	28	14457
2026-01-04 00:52:47.15	13.43	13.08	-34.2	-46.3	3.8	1.49e+00	0	43	104	0	28	14425
2026-01-04 00:52:48.14	13.39	13.18	-34.2	-46.2	3.8	1.49e+00	0	43	104	0	28	14322
2026-01-04 00:52:49.15	13.35	13.28	-34.1	-46.0	3.8	1.49e+00	0	43	104	0	28	14167
2026-01-04 00:52:50.15	13.31	13.37	-34.0	-45.9	3.8	1.49e+00	0	43	104	0	28	14084
2026-01-04 00:52:51.15	13.27	13.47	-34.0	-46.2	3.8	1.49e+00	0	43	104	0	27	14780
2026-01-04 00:52:52.14	13.23	13.57	-33.8	-45.9	3.8	1.49e+00	0	43	104	0	27	14521
2026-01-04 00:52:53.14	13.19	13.67	-33.2	-41.9	4.0	1.47e+00	0	43	104	0	26	9801
2026-01-04 00:52:54.13	13.15	13.76	-33.2	-41.3	4.5	1.12e+00	0	43	104	0	26	9163
2026-01-04 00:52:55.13	13.11	13.86	-33.2	-42.1	3.9	1.48e+00	0	43	104	0	26	10043
2026-01-04 00:52:56.13	13.07	13.96	-33.3	-42.5	3.9	1.42e+00	0	43	104	0	26	10403
2026-01-04 00:52:57.12	13.03	14.06	-33.3	-42.4	4.2	1.48e+00	0	43	104	0	26	10246
2026-01-04 00:52:58.13	12.99	14.16	-33.4	-43.2	3.9	1.48e+00	0	43	104	0	26	11136
2026-01-04 00:52:59.12	12.95	14.26	-33.3	-42.3	4.2	1.46e+00	0	43	104	0	26	10103
2026-01-04 00:53:00.13	12.90	14.36	-33.2	-41.7	4.0	1.48e+00	0	43	104	0	26	9684
2026-01-04 00:53:01.12	12.86	14.46	-32.9	-39.4	5.3	7.42e-01	0	43	104	0	26	7647
2026-01-04 00:53:02.11	12.82	14.56	-32.4	-38.3	6.4	3.37e-01	0	43	102	1048576	24	7102
2026-01-04 00:53:03.12	12.78	14.67	-31.8	-36.1	7.9	9.96e-02	0	43	102	1048576	24	5891
2026-01-04 00:53:04.13	12.73	14.77	-31.3	-34.9	9.1	2.94e-02	0	43	102	1048576	23	5429
2026-01-04 00:53:05.13	12.69	14.87	-30.7	-34.2	10.3	7.96e-03	0	43	102	1048576	21	5369
2026-01-04 00:53:06.13	12.64	14.98	-30.3	-33.4	11.1	2.52e-03	0	43	102	1048576	20	5161
2026-01-04 00:53:07.14	12.60	15.08	-29.9	-32.3	11.9	6.03e-04	0	43	102	1048576	20	4774
2026-01-04 00:53:08.13	12.56	15.19	-29.7	-32.3	12.2	9.04e-04	0	43	102	1048576	19	4875
2026-01-04 00:53:09.14	12.51	15.29	-29.5	-31.8	12.5	8.15e-04	0	43	102	1048576	19	4717
2026-01-04 00:53:10.15	12.46	15.40	-29.5	-31.9	12.5	1.15e-04	0	43	102	1048576	19	4730
2026-01-04 00:53:11.14	12.42	15.50	-29.6	-32.2	12.4	8.62e-04	0	43	102	1048576	19	4820
2026-01-04 00:53:12.14	12.37	15.61	-29.8	-32.7	12.0	2.31e-04	0	43	102	1048576	19	5014
2026-01-04 00:53:13.14	12.33	15.72	-30.1	-33.0	11.4	6.03e-04	0	43	102	1048576	20	5024
2026-01-04 00:53:14.15	12.28	15.82	-30.0	-32.7	11.6	1.62e-03	0	43	102	1048576	20	4902
2026-01-04 00:53:15.15	12.23	15.93	-29.8	-32.5	12.1	8.79e-04	0	43	102	1048576	19	4934
2026-01-04 00:53:16.15	12.18	16.04	-29.9	-32.9	11.9	4.12e-04	0	43	102	1048576	19	5086
2026-01-04 00:53:17.16	12.14	16.15	-29.6	-32.1	12.4	6.83e-04	0	43	102	1048576	19	4795
2026-01-04 00:53:18.15	12.09	16.26	-29.4	-31.5	12.8	7.47e-05	0	43	102	1048576	19	4607
2026-01-04 00:53:19.16	12.04	16.37	-29.3	-31.7	13.0	2.89e-05	0	43	102	1048576	18	4782
2026-01-04 00:53:20.16	11.99	16.48	-29.5	-31.9	12.6	6.32e-04	0	43	102	1048576	19	4723
2026-01-04 00:53:21.15	11.94	16.58	-29.8	-32.6	12.2	8.21e-04	0	43	102	1048576	19	4947
2026-01-04 00:53:22.14	11.89	16.69	-29.4	-31.5	12.8	5.72e-05	0	43	102	1048576	19	4613
2026-01-04 00:53:23.14	11.84	16.81	-29.0	-31.2	13.4	5.00e-04	0	43	102	1048576	18	4603
2026-01-04 00:53:24.14	11.79	16.92	-28.7	-30.8	13.9	4.86e-04	0	43	102	1048576	17	4604
2026-01-04 00:53:25.15	11.74	17.03	-28.4	-30.1	14.3	1.50e-06	0	43	102	1048576	17	4394
2026-01-04 00:53:26.14	11.69	17.14	-28.2	-30.2	14.6	4.50e-04	0	43	102	1048576	16	4524
2026-01-04 00:53:27.14	11.64	17.26	-28.4	-30.7	14.3	5.05e-04	0	43	102	1048576	16	4660
2026-01-04 00:53:28.13	11.59	17.37	-28.7	-30.7	13.9	1.50e-06	0	43	102	1048576	17	4568
2026-01-04 00:53:29.13	11.53	17.48	-28.4	-30.7	14.2	5.19e-04	0	43	102	1048576	16	4679
2026-01-04 00:53:30.14	11.48	17.60	-28.7	-30.9	13.8	5.20e-04	0	43	102	1048576	17	4629
2026-01-04 00:53:31.14	11.43	17.71	-29.0	-31.2	13.4	9.90e-06	0	43	102	1048576	18	4592
2026-01-04 00:53:32.13	11.37	17.83	-28.7	-30.9	13.9	4.80e-04	0	43	102	1048576	17	4623
2026-01-04 00:53:33.13	11.32	17.94	-28.5	-30.3	14.1	7.00e-07	0	43	102	1048576	17	4464
2026-01-04 00:53:34.13	11.26	18.06	-27.0	-29.1	14.1	7.00e-07	0	43	102	1048576	16	4551
2026-01-04 00:53:35.12	11.21	18.18	-28.4	-30.6	14.1	4.16e-04	0	43	102	1048576	16	4642
2026-01-04 00:53:36.12	11.15	18.29	-28.4	-30.7	12.7	4.45e-04	0	43	102	1048576	16	4677
2026-01-04 00:53:37.12	11.10	18.41	-28.2	-30.2	14.5	0.00e+00	0	43	102	1048576	16	4523
2026-01-04 00:53:38.11	11.04	18.53	-28.1	-29.9	14.8	2.20e-06	0	43	102	1048576	16	4425
2026-01-04 00:53:39.12	10.98	18.65	-27.9	-30.0	14.9	4.59e-04	0	43	102	1048576	15	4577
2026-01-04 00:53:40.12	10.92	18.77	-27.9	-30.1	14.8	0.00e+00	0	43	102	1048576	15	4610
2026-01-04 00:53:41.11	10.87	18.89	-27.9	-30.0	14.9	4.02e-04	0	43	102	1048576	15	4579
2026-01-04 00:53:42.11	10.81	19.01	-27.9	-30.1	14.8	7.00e-07	0	43	102	1048576	15	4610
2026-01-04 00:53:43.11	10.75	19.13	-28.2	-30.1	14.7	4.02e-03	0	43	102	1048576	16	4479
2026-01-04 00:53:44.12	10.69	19.26	-28.0	-29.7	14.9	1.56e-04	0	43	102	1048576	16	4385
2026-01-04 00:53:45.13	10.63	19.38	-27.8	-29.8	15.0	5.81e-04	0	43	102	1048576	15	4526
2026-01-04 00:53:46.13	10.57	19.50	-27.8	-29.8	15.0	0.00e+00	0	43	102	1048576	15	4522
2026-01-04 00:53:47.14	10.51	19.63	-27.9	-29.9	14.9	0.00e+00	0	43	102	1048576	15	4565
2026-01-04 00:53:48.14	10.44	19.75	-27.8	-29.7	15.1	3.84e-03	0	43	102	1048576	15	4480
2026-01-04 00:53:49.14	10.38	19.88	-27.7	-29.5	15.2	3.59e-03	0	43	102	1048576	15	4438
2026-01-04 00:53:50.14	10.32	20.00	-27.7	-29.5	15.2	5.48e-04	0	43	102	1048576	15	4445
2026-01-04 00:53:51.13	10.26	20.13	-27.6	-29.3	15.3	5.83e-04	0	43	102	1048576	15	4383
2026-01-04 00:53:52.13	10.19	20.25	-27.7	-29.5	15.2	0.00e+00	0	43	102	1048576	15	4435
2026-01-04 00:53:53.12	10.13	20.38	-27.8	-29.8	15.0	7.93e-05	0	43	102	1048576	15	4514
2026-01-04 00:53:54.12	10.06	20.51	-27.5	-29.1	15.4	3.90e-03	0	43	102	1048576	15	4329
2026-01-04 00:53:55.12	10.00	20.64	-27.4	-29.3	15.6	0.00e+00	0	43	102	1048576	14	4487
2026-01-04 00:53:56.11	9.93	20.77	-27.3	-29.1	15.7	3.30e-04	0	43	102	1048576	14	4428
2026-01-04 00:53:57.11	9.87	20.90	-27.3	-29.0	15.8	3.68e-03	0	43	102	1048576	14	4400
2026-01-04 00:53:58.12	9.80	21.03	-27.2	-28.9	15.8	3.46e-03	0	43	102	1048576	14	4380
2026-01-04 00:53:59.10	9.73	21.16	-27.3	-29.1	15.7	3.12e-05	0	43	102	1048576	14	4412
2026-01-04 00:54:00.11	9.66	21.29	-27.4	-29.3	15.6	3.45e-03	0	43	102	1048576	14	4488
2026-01-04 00:54:01.10	9.59	21.42	-27.1	-28.7	15.9	0.00e+00	0	43	102	1048576	14	4328
2026-01-04 00:54:02.10	9.52	21.55	-27.0	-28.4	16.1	3.80e-06	0	43	102	1048576	14	4235
2026-01-04 00:54:03.10	9.45	21.69	-26.9	-28.8	16.1	3.85e-03	0	43	102	1048576	13	4453
2026-01-04 00:54:04.10	9.38	21.82	-26.9	-28.7	16.2	3.64e-03	0	43	102	1048576	13	4432
2026-01-04 00:54:05.10	9.31	21.96	-27.0	-28.9	16.1	7.00e-07	0	43	102	1048576	13	4494
2026-01-04 00:54:06.11	9.24	22.09	-26.8	-28.6	16.2	0.00e+00	0	43	102	1048576	13	4401
2026-01-04 00:54:07.10	9.16	22.23	-26.8	-28.5	16.3	3.31e-03	0	43	102	1048576	13	4367
2026-01-04 00:54:08.11	9.09	22.37	-26.8	-28.6	16.2	0.00e+00	0	43	102	1048576	13	4391
2026-01-04 00:54:09.11	9.01	22.50	-26.8	-28.4	16.3	3.28e-03	0	43	102	1048576	13	4355
2026-01-04 00:54:10.11	8.94	22.64	-26.8	-28.5	16.3	3.74e-03	0	43	102	1048576	13	4362
2026-01-04 00:54:11.11	8.86	22.78	-26.9	-28.7	16.2	0.00e+00	0	43	102	1048576	13	4437
2026-01-04 00:54:12.11	8.79	22.92	-26.8	-28.5	16.3	3.72e-03	0	43	102	1048576	13	4365
2026-01-04 00:54:13.11	8.71	23.06	-26.9	-28.6	16.2	3.60e-03	0	43	102	1048576	13	4408
2026-01-04 00:54:14.10	8.63	23.20	-26.8	-28.4	16.3	0.00e+00	0	43	102	1048576	13	4342
2026-01-04 00:54:15.11	8.55	23.35	-26.7	-28.3	16.4	3.66e-03	0	43	102	1048576	13	4315
2026-01-04 00:54:16.11	8.47	23.49	-26.8	-28.4	16.4	0.00e+00	0	43	102	1048576	13	4347
2026-01-04 00:54:17.11	8.39	23.63	-26.7	-28.3	16.4	0.00e+00	0	43	102	1048576	13	4331
2026-01-04 00:54:18.10	8.31	23.78	-26.7	-28.3	16.4	3.31e-03	0	43	102	1048576	13	4325
2026-01-04 00:54:19.10	8.23	23.92	-26.9	-28.7	16.2	3.79e-03	0	43	102	1048576	13	4430
2026-01-04 00:54:20.11	8.15	24.07	-27.1	-28.6	16.0	0.00e+00	0	43	102	1048576	14	4301
2026-01-04 00:54:21.10	8.06	24.21	-27.3	-29.0	15.8	0.00e+00	0	43	102	1048576	14	4403
2026-01-04 00:54:22.09	7.98	24.36	-27.1	-28.6	16.0	3.68e-03	0	43	102	1048576	14	4304
2026-01-04 00:54:23.09	7.90	24.51	-27.0	-28.4	16.1	0.00e+00	0	43	102	1048576	14	4240
2026-01-04 00:54:24.10	7.81	24.66	-27.0	-28.5	16.1	3.70e-03	0	43	102	1048576	14	4257
2026-01-04 00:54:25.09	7.72	24.80	-27.1	-28.6	16.0	4.09e-04	0	43	102	1048576	14	4303
2026-01-04 00:54:26.09	7.64	24.95	-27.0	-28.5	16.1	0.00e+00	0	43	102	1048576	14	4251
2026-01-04 00:54:27.09	7.55	25.11	-27.1	-28.7	16.0	3.32e-03	0	43	102	1048576	14	4314
2026-01-04 00:54:28.09	7.46	25.26	-27.2	-28.8	15.9	3.91e-03	0	43	102	1048576	14	4350
2026-01-04 00:54:29.09	7.37	25.41	-27.3	-29.2	15.7	0.00e+00	0	43	102	1048576	14	4448
2026-01-04 00:54:30.09	7.28	25.56	-27.3	-29.1	15.8	0.00e+00	0	43	102	1048576	14	4415
2026-01-04 00:54:31.09	7.18	25.72	-27.4	-29.4	15.6	0.00e+00	0	43	102	1048576	14	4512
2026-01-04 00:54:32.09	7.09	25.87	-27.5	-29.1	15.5	0.00e+00	0	43	102	1048576	15	4308
2026-01-04 00:54:33.09	7.00	26.03	-27.6	-29.3	15.4	3.38e-03	0	43	102	1048576	15	4362
2026-01-04 00:54:34.10	6.90	26.19	-27.7	-29.6	15.3	3.28e-03	0	43	102	1048576	15	4450
2026-01-04 00:54:35.09	6.81	26.34	-27.7	-29.6	15.3	0.00e+00	0	43	102	1048576	15	4452
2026-01-04 00:54:36.09	6.71	26.50	-27.8	-29.8	15.1	0.00e+00	0	43	102	1048576	15	4520
2026-01-04 00:54:37.08	6.61	26.66	-27.8	-29.6	15.3	0.00e+00	0	43	102	1048576	15	4460
2026-01-04 00:54:38.08	6.51	26.82	-28.0	-30.1	15.0	0.00e+00	0	43	102	1048576	15	4599
2026-01-04 00:54:39.09	6.41	26.98	-27.7	-29.5	15.3	3.81e-03	0	43	102	1048576	15	4434
2026-01-04 00:54:40.09	6.31	27.14	-27.6	-29.4	15.4	0.00e+00	0	43	102	1048576	15	4383
2026-01-04 00:54:41.08	6.21	27.30	-27.7	-29.6	15.3	0.00e+00	0	43	102	1048576	15	4439
2026-01-04 00:54:42.06	6.11	27.46	-27.8	-29.7	15.3	0.00e+00	0	43	102	1048576	15	4477
2026-01-04 00:54:43.06	6.00	27.63	-27.8	-29.8	15.2	3.52e-03	0	43	102	1048576	15	4519
2026-01-04 00:54:44.06	5.90	27.79	-28.0	-30.0	15.0	0.00e+00	0	43	102	1048576	15	4583
2026-01-04 00:54:45.06	5.79	27.96	-28.2	-30.2	14.9	0.00e+00	0	43	102	1048576	16	4503
2026-01-04 00:54:46.05	5.68	28.13	-28.2	-30.1	14.9	0.00e+00	0	43	102	1048576	16	4488
2026-01-04 00:54:47.06	5.57	28.30	-28.3	-30.3	14.8	0.00e+00	0	43	102	1048576	16	4538
2026-01-04 00:54:48.06	5.46	28.46	-28.5	-30.7	14.6	3.92e-03	0	43	102	1048576	16	4653
2026-01-04 00:54:49.06	5.35	28.63	-28.3	-30.3	14.8	7.00e-07	0	43	102	1048576	16	4541
2026-01-04 00:54:50.06	5.24	28.80	-28.2	-30.0	14.9	0.00e+00	0	43	102	1048576	16	4463
2026-01-04 00:54:51.06	5.13	28.98	-28.2	-30.0	15.0	7.00e-07	0	43	102	1048576	16	4446
2026-01-04 00:54:52.06	5.01	29.15	-28.2	-30.1	14.9	0.00e+00	0	43	102	1048576	16	4467
2026-01-04 00:54:53.05	4.90	29.32	-28.1	-29.8	15.1	0.00e+00	0	43	102	1048576	16	4376
2026-01-04 00:54:54.05	4.78	29.49	-27.9	-29.9	15.1	0.00e+00	0	43	102	1048576	15	4551
2026-01-04 00:54:55.05	4.66	29.67	-27.7	-29.5	15.4	0.00e+00	0	43	102	1048576	15	4422
2026-01-04 00:54:56.04	4.54	29.84	-27.6	-29.3	15.5	0.00e+00	0	43	102	1048576	15	4370
2026-01-04 00:54:57.04	4.42	30.02	-27.7	-29.5	15.4	0.00e+00	0	43	102	1048576	15	4407
2026-01-04 00:54:58.05	4.29	30.20	-27.5	-29.0	15.7	0.00e+00	0	43	102	1048576	15	4277
2026-01-04 00:54:59.05	4.17	30.38	-27.5	-28.9	15.7	0.00e+00	0	43	102	1048576	15	4258
2026-01-04 00:55:00.06	4.04	30.56	-27.5	-29.4	15.7	0.00e+00	0	43	102	1048576	14	4510
2026-01-04 00:55:01.06	3.92	30.74	-27.3	-29.1	15.9	0.00e+00	0	43	102	1048576	14	4411
2026-01-04 00:55:02.07	3.79	30.93	-27.3	-29.0	15.9	0.00e+00	0	43	102	1048576	14	4406
2026-01-04 00:55:03.07	3.65	31.11	-27.4	-29.2	15.8	0.00e+00	0	43	102	1048576	14	4449
2026-01-04 00:55:04.08	3.52	31.30	-27.3	-29.1	15.9	0.00e+00	0	43	102	1048576	14	4423
2026-01-04 00:55:05.09	3.39	31.48	-27.5	-29.4	15.7	0.00e+00	0	43	102	1048576	14	4516
2026-01-04 00:55:06.10	3.25	31.67	-27.5	-29.1	15.7	0.00e+00	0	43	102	1048576	15	4305
2026-01-04 00:55:07.10	3.11	31.86	-27.6	-29.3	15.5	0.00e+00	0	43	102	1048576	15	4363
2026-01-04 00:55:08.10	2.98	32.05	-27.6	-29.3	15.6	0.00e+00	0	43	102	1048576	15	4353
2026-01-04 00:55:09.11	2.83	32.24	-27.7	-29.6	15.4	0.00e+00	0	43	102	1048576	15	4443
2026-01-04 00:55:10.12	2.69	32.43	-27.7	-29.4	15.5	0.00e+00	0	43	102	1048576	15	4404
2026-01-04 00:55:11.13	2.55	32.62	-27.8	-29.7	15.3	0.00e+00	0	43	102	1048576	15	4469
2026-01-04 00:55:12.14	2.40	32.81	-27.9	-29.9	15.2	7.00e-07	0	43	102	1048576	15	4540
2026-01-04 00:55:13.16	2.25	33.01	-27.7	-29.6	15.4	0.00e+00	0	43	102	1048576	15	4439
2026-01-04 00:55:14.16	2.10	33.21	-27.7	-29.4	15.4	0.00e+00	0	43	102	1048576	15	4400
2026-01-04 00:55:15.17	1.95	33.40	-27.7	-29.5	15.4	0.00e+00	0	43	102	1048576	15	4432
2026-01-04 00:55:16.17	1.80	33.60	-27.8	-29.7	15.3	0.00e+00	0	43	102	1048576	15	4473
2026-01-04 00:55:17.18	1.64	33.80	-27.9	-30.0	15.2	0.00e+00	0	43	102	1048576	15	4551
2026-01-04 00:55:18.19	1.48	34.00	-28.2	-30.0	15.0	0.00e+00	0	43	102	1048576	16	4443
2026-01-04 00:55:19.19	1.32	34.20	-28.3	-30.3	14.9	0.00e+00	0	43	102	1048576	16	4530
2026-01-04 00:55:20.20	1.16	34.40	-28.3	-30.4	14.8	0.00e+00	0	43	102	1048576	16	4566
2026-01-04 00:55:21.21	1.00	34.60	-28.5	-30.6	14.7	7.00e-07	0	43	102	1048576	16	4634
2026-01-04 00:55:22.21	0.83	34.81	-28.6	-30.4	14.6	0.00e+00	0	43	102	1048576	17	4441
2026-01-04 00:55:23.22	0.66	35.01	-28.7	-30.6	14.4	8.16e-05	0	43	102	1048576	17	4507
2026-01-04 00:55:24.22	0.50	35.21	-28.8	-30.8	14.3	1.50e-06	0	43	102	1048576	17	4573
2026-01-04 00:55:25.23	0.32	35.42	-29.0	-31.4	14.0	1.50e-06	0	43	102	1048576	17	4743
2026-01-04 00:55:26.24	0.15	35.63	-29.2	-31.3	13.8	3.80e-06	0	43	102	1048576	18	4611
2026-01-04 00:55:27.24	359.97	35.84	-29.4	-31.9	13.4	7.60e-06	0	43	102	1048576	18	4802
2026-01-04 00:55:28.25	359.79	36.05	-29.3	-31.8	13.5	2.76e-04	0	43	102	1048576	18	4756
2026-01-04 00:55:29.26	359.61	36.26	-29.5	-31.6	13.3	2.96e-04	0	43	102	1048576	19	4601
2026-01-04 00:55:30.27	359.43	36.47	-28.4	-31.1	13.2	1.37e-05	0	43	102	1048576	18	4897
2026-01-04 00:55:31.27	359.24	36.69	-29.4	-31.5	13.3	1.37e-05	0	43	102	1048576	19	4550
2026-01-04 00:55:32.28	359.05	36.90	-29.4	-32.0	12.1	3.10e-04	0	43	102	1048576	18	4813
2026-01-04 00:55:33.29	358.86	37.12	-29.5	-32.1	13.2	2.21e-05	0	43	102	1048576	18	4870
2026-01-04 00:55:34.30	358.67	37.33	-29.5	-31.7	13.2	2.93e-04	0	43	102	1048576	19	4629
2026-01-04 00:55:35.30	358.47	37.55	-29.6	-31.8	13.2	4.14e-03	0	43	102	1048576	19	4658
2026-01-04 00:55:36.31	358.27	37.77	-29.6	-31.8	13.2	3.46e-03	0	43	102	1048576	19	4643
2026-01-04 00:55:37.32	358.07	37.99	-29.7	-32.1	13.0	2.68e-04	0	43	102	1048576	19	4756
2026-01-04 00:55:38.32	357.87	38.21	-29.8	-32.3	12.9	2.81e-04	0	43	102	1048576	19	4813
2026-01-04 00:55:39.33	357.66	38.43	-29.6	-31.8	13.2	3.35e-05	0	43	102	1048576	19	4657
2026-01-04 00:55:40.34	357.45	38.65	-29.6	-31.9	13.1	5.31e-04	0	43	102	1048576	19	4675
2026-01-04 00:55:41.35	357.23	38.88	-29.8	-32.2	12.9	4.22e-03	0	43	102	1048576	19	4800
2026-01-04 00:55:42.35	357.02	39.10	-29.9	-32.7	12.6	3.91e-03	0	43	102	1048576	19	4951
2026-01-04 00:55:43.36	356.80	39.33	-30.0	-32.7	12.6	2.55e-04	0	43	102	1048576	19	4967
2026-01-04 00:55:44.37	356.57	39.55	-29.8	-32.5	12.8	3.92e-03	0	43	102	1048576	19	4875
2026-01-04 00:55:45.37	356.35	39.78	-29.8	-32.5	12.8	3.50e-03	0	43	102	1048576	19	4876
2026-01-04 00:55:46.38	356.12	40.01	-29.8	-32.3	12.9	1.53e-04	0	43	102	1048576	19	4810
2026-01-04 00:55:47.38	355.89	40.24	-29.7	-32.2	13.0	3.17e-03	0	43	102	1048576	19	4776
2026-01-04 00:55:48.39	355.65	40.47	-29.3	-31.7	13.6	3.23e-03	0	43	102	1048576	18	4726
2026-01-04 00:55:49.40	355.41	40.70	-29.2	-31.4	13.7	9.10e-06	0	43	102	1048576	18	4631
2026-01-04 00:55:50.41	355.17	40.93	-29.2	-31.4	13.8	3.02e-03	0	43	102	1048576	18	4613
2026-01-04 00:55:51.41	354.93	41.16	-29.3	-31.5	13.7	2.80e-03	0	43	102	1048576	18	4666
2026-01-04 00:55:52.42	354.67	41.40	-29.4	-31.9	13.4	1.42e-04	0	43	102	1048576	18	4797
2026-01-04 00:55:53.43	354.42	41.63	-29.6	-31.9	13.1	2.86e-03	0	43	102	1048576	19	4691
2026-01-04 00:55:54.43	354.17	41.87	-29.6	-31.8	13.2	2.28e-05	0	43	102	1048576	19	4647
2026-01-04 00:55:55.44	353.90	42.11	-29.6	-31.9	13.1	2.06e-04	0	43	102	1048576	19	4696
2026-01-04 00:55:56.45	353.64	42.34	-29.3	-31.6	13.6	2.65e-03	0	43	102	1048576	18	4704
2026-01-04 00:55:57.46	353.37	42.58	-29.4	-32.0	13.4	2.62e-03	0	43	102	1048576	18	4815
2026-01-04 00:55:58.47	353.09	42.82	-29.7	-32.0	13.1	2.48e-04	0	43	102	1048576	19	4726
2026-01-04 00:55:59.46	352.82	43.06	-29.7	-32.2	13.0	3.28e-05	0	43	102	1048576	19	4774
2026-01-04 00:56:00.46	352.54	43.30	-29.9	-32.6	12.7	6.63e-05	0	43	102	1048576	19	4923
2026-01-04 00:56:01.46	352.26	43.54	-30.0	-32.3	12.5	1.53e-04	0	43	102	1048576	20	4691
2026-01-04 00:56:02.47	351.97	43.78	-30.0	-32.4	12.5	2.80e-03	0	43	102	1048576	20	4738
2026-01-04 00:56:03.48	351.67	44.02	-30.1	-32.6	12.3	1.80e-04	0	43	102	1048576	20	4797
2026-01-04 00:56:04.49	351.37	44.27	-30.0	-32.4	12.4	1.45e-04	0	43	102	1048576	20	4747
2026-01-04 00:56:05.50	351.07	44.51	-30.0	-32.5	12.4	1.43e-04	0	43	102	1048576	20	4757
2026-01-04 00:56:06.50	350.76	44.75	-30.2	-32.8	12.2	1.69e-04	0	43	102	1048576	20	4859
2026-01-04 00:56:07.51	350.44	45.00	-30.0	-32.4	12.4	1.74e-04	0	43	102	1048576	20	4751
2026-01-04 00:56:08.51	350.13	45.24	-29.9	-32.6	12.7	8.92e-05	0	43	102	1048576	19	4904
2026-01-04 00:56:09.51	349.81	45.49	-29.8	-32.4	12.8	4.73e-05	0	43	102	1048576	19	4838
2026-01-04 00:56:10.51	349.48	45.73	-29.9	-32.2	12.6	7.78e-05	0	43	102	1048576	20	4671
2026-01-04 00:56:11.52	349.15	45.98	-30.2	-32.9	12.1	2.02e-04	0	43	102	1048576	20	4918
2026-01-04 00:56:12.53	348.81	46.23	-30.2	-33.0	12.1	3.13e-04	0	43	102	1048576	20	4937
2026-01-04 00:56:13.54	348.46	46.48	-30.2	-32.9	12.1	2.26e-04	0	43	102	1048576	20	4912
2026-01-04 00:56:14.55	348.11	46.73	-30.1	-32.7	12.3	2.91e-04	0	43	102	1048576	20	4852
2026-01-04 00:56:15.54	347.76	46.97	-29.8	-31.9	12.7	9.68e-05	0	43	102	1048576	20	4594
2026-01-04 00:56:16.55	347.40	47.22	-29.7	-31.6	13.0	4.27e-05	0	43	102	1048576	20	4473
2026-01-04 00:56:17.56	347.03	47.47	-29.7	-32.2	13.0	4.27e-05	0	43	102	1048576	19	4772
2026-01-04 00:56:18.57	346.65	47.72	-29.7	-32.0	13.1	3.05e-05	0	43	102	1048576	19	4728
2026-01-04 00:56:19.58	346.27	47.97	-29.8	-32.5	12.8	5.34e-05	0	43	102	1048576	19	4890
2026-01-04 00:56:20.58	345.89	48.22	-29.7	-32.1	13.0	4.88e-05	0	43	102	1048576	19	4750
2026-01-04 00:56:21.59	345.50	48.47	-29.5	-31.7	13.3	1.60e-05	0	43	102	1048576	19	4609
2026-01-04 00:56:22.60	345.10	48.72	-29.5	-31.6	13.4	9.90e-06	0	43	102	1048576	19	4574
2026-01-04 00:56:23.60	344.70	48.97	-29.9	-32.5	12.8	4.04e-05	0	43	102	1048576	19	4881
2026-01-04 00:56:24.62	344.28	49.22	-30.1	-32.7	12.3	1.54e-04	0	43	102	1048576	20	4848
2026-01-04 00:56:25.62	343.86	49.46	-30.0	-32.4	12.4	1.60e-04	0	43	102	1048576	20	4742
2026-01-04 00:56:26.63	343.44	49.71	-29.7	-32.0	13.1	4.11e-05	0	43	102	1048576	19	4718
2026-01-04 00:56:27.63	343.01	49.96	-29.3	-31.1	13.5	1.67e-05	0	43	102	1048576	19	4446
2026-01-04 00:56:28.64	342.57	50.21	-29.3	-31.1	13.6	6.80e-06	0	43	102	1048576	19	4444
2026-01-04 00:56:29.64	342.12	50.45	-29.4	-31.8	13.5	1.37e-05	0	43	102	1048576	18	4774
2026-01-04 00:56:30.64	341.67	50.70	-29.5	-31.7	13.2	2.21e-05	0	43	102	1048576	19	4622
2026-01-04 00:56:31.65	341.21	50.94	-29.7	-32.1	12.9	4.65e-05	0	43	102	1048576	19	4754
2026-01-04 00:56:32.66	340.74	51.19	-29.6	-31.8	13.1	3.66e-05	0	43	102	1048576	19	4636
2026-01-04 00:56:33.67	340.26	51.44	-29.3	-31.7	13.5	1.52e-05	0	43	102	1048576	18	4732
2026-01-04 00:56:34.68	339.77	51.68	-29.3	-31.6	13.6	8.30e-06	0	43	102	1048576	18	4679
2026-01-04 00:56:35.69	339.28	51.92	-29.4	-31.9	13.4	1.06e-05	0	43	102	1048576	18	4804
2026-01-04 00:56:36.69	338.78	52.16	-29.3	-31.7	13.5	9.10e-06	0	43	102	1048576	18	4736
2026-01-04 00:56:37.70	338.27	52.40	-29.0	-30.8	14.1	1.50e-06	0	43	102	1048576	18	4453
2026-01-04 00:56:38.70	337.75	52.64	-28.6	-30.6	14.5	1.50e-06	0	43	102	1048576	17	4504
2026-01-04 00:56:39.71	337.23	52.88	-28.5	-30.3	14.6	0.00e+00	0	43	102	1048576	17	4423
2026-01-04 00:56:40.71	336.69	53.12	-28.8	-30.9	14.3	0.00e+00	0	43	102	1048576	17	4583
2026-01-04 00:56:41.72	336.15	53.35	-28.8	-30.5	14.2	2.20e-06	0	43	102	1048576	18	4367
2026-01-04 00:56:42.72	335.60	53.58	-28.9	-31.2	14.1	0.00e+00	0	43	102	1048576	17	4688
2026-01-04 00:56:43.74	335.03	53.82	-28.7	-30.8	14.4	3.00e-06	0	43	102	1048576	17	4575
2026-01-04 00:56:44.74	334.46	54.05	-28.4	-29.9	14.9	0.00e+00	0	43	102	1048576	17	4313
2026-01-04 00:56:45.74	333.89	54.27	-28.3	-29.9	14.9	7.00e-07	0	43	102	1048576	17	4299
2026-01-04 00:56:46.75	333.30	54.50	-28.4	-30.5	14.8	0.00e+00	0	43	102	1048576	16	4601
2026-01-04 00:56:47.75	332.70	54.72	-28.6	-30.5	14.5	7.00e-07	0	43	102	1048576	17	4476
2026-01-04 00:56:48.76	332.09	54.94	-29.1	-31.0	13.9	0.00e+00	0	43	102	1048576	18	4521
2026-01-04 00:56:49.77	331.47	55.16	-28.8	-30.4	14.3	1.98e-03	0	43	102	1048576	18	4349
2026-01-04 00:56:50.78	330.84	55.38	-28.3	-29.8	15.0	1.71e-03	0	43	102	1048576	17	4271
2026-01-04 00:56:51.78	330.21	55.59	-28.2	-29.5	15.0	0.00e+00	0	43	102	1048576	17	4184
2026-01-04 00:56:52.79	329.56	55.81	-28.4	-30.5	14.7	0.00e+00	0	43	102	1048576	16	4600
2026-01-04 00:56:53.79	328.91	56.01	-28.4	-30.6	14.6	0.00e+00	0	43	102	1048576	16	4641
2026-01-04 00:56:54.80	328.24	56.22	-28.2	-29.5	15.0	0.00e+00	0	43	102	1048576	17	4206
2026-01-04 00:56:55.80	327.57	56.42	-27.9	-29.3	15.4	3.15e-03	0	43	102	1048576	16	4259
2026-01-04 00:56:56.81	326.88	56.62	-27.6	-29.3	15.6	3.32e-03	0	43	102	1048576	15	4355
2026-01-04 00:56:57.82	326.18	56.82	-27.8	-29.6	15.4	0.00e+00	0	43	102	1048576	15	4442
2026-01-04 00:56:58.82	325.48	57.01	-27.7	-29.5	15.4	0.00e+00	0	43	102	1048576	15	4432
2026-01-04 00:56:59.83	324.76	57.20	-27.6	-29.2	15.6	3.23e-03	0	43	102	1048576	15	4346
2026-01-04 00:57:00.83	324.04	57.38	-27.2	-28.4	16.1	0.00e+00	0	43	102	1048576	15	4111
2026-01-04 00:57:01.84	323.30	57.56	-27.2	-28.8	16.1	1.96e-03	0	43	102	1048576	14	4345
2026-01-04 00:57:02.84	322.56	57.74	-27.2	-28.9	16.0	1.21e-03	0	43	102	1048576	14	4368
2026-01-04 00:57:03.85	321.80	57.92	-27.2	-28.8	16.1	0.00e+00	0	43	102	1048576	14	4337
2026-01-04 00:57:04.86	321.03	58.08	-27.3	-29.1	16.0	7.27e-04	0	43	102	1048576	14	4420
2026-01-04 00:57:05.87	320.25	58.25	-27.2	-28.8	16.1	7.16e-04	0	43	102	1048576	14	4345
2026-01-04 00:57:06.87	319.47	58.41	-27.1	-28.5	16.2	0.00e+00	0	43	102	1048576	14	4253
2026-01-04 00:57:07.88	318.68	58.56	-27.2	-28.7	16.2	1.64e-03	0	43	102	1048576	14	4317
2026-01-04 00:57:08.89	317.87	58.72	-26.7	-28.3	16.6	0.00e+00	0	43	102	1048576	13	4302
2026-01-04 00:57:09.89	317.06	58.86	-26.3	-27.4	17.1	0.00e+00	0	43	102	1048576	13	4062
2026-01-04 00:57:10.90	316.24	59.00	-26.2	-27.0	17.3	6.74e-04	0	43	102	1048576	13	3972
2026-01-04 00:57:11.90	315.42	59.14	-26.4	-28.0	17.1	1.22e-03	0	43	102	1048576	12	4328
2026-01-04 00:57:12.91	314.57	59.27	-26.3	-27.7	17.2	0.00e+00	0	44	102	1048576	12	4265
2026-01-04 00:57:13.91	313.73	59.39	-26.6	-28.0	16.8	0.00e+00	0	43	102	1048576	13	4237
2026-01-04 00:57:14.92	312.88	59.51	-26.7	-28.2	16.6	0.00e+00	0	43	102	1048576	13	4293
2026-01-04 00:57:15.92	312.02	59.62	-26.8	-28.4	16.5	3.12e-05	0	43	102	1048576	13	4352
2026-01-04 00:57:16.93	311.15	59.73	-26.4	-27.6	17.0	1.96e-03	0	43	102	1048576	13	4112
2026-01-04 00:57:17.93	310.27	59.83	-26.4	-27.5	17.0	6.35e-04	0	43	102	1048576	13	4086
2026-01-04 00:57:18.94	309.39	59.93	-26.7	-28.2	16.6	0.00e+00	0	43	102	1048576	13	4273
2026-01-04 00:57:19.94	308.50	60.02	-27.0	-28.9	16.3	0.00e+00	0	43	102	1048576	13	4469
2026-01-04 00:57:20.94	307.61	60.10	-27.0	-28.4	16.3	0.00e+00	0	43	102	1048576	14	4220
2026-01-04 00:57:21.94	306.72	60.18	-26.8	-27.9	16.5	0.00e+00	0	43	102	1048576	14	4090
2026-01-04 00:57:22.95	305.81	60.25	-26.7	-27.7	16.6	1.44e-04	0	43	102	1048576	14	4049
2026-01-04 00:57:23.96	304.89	60.32	-27.0	-28.5	16.3	0.00e+00	0	43	102	1048576	14	4250
2026-01-04 00:57:24.96	303.98	60.37	-26.7	-27.8	16.6	0.00e+00	0	43	102	1048576	14	4064
2026-01-04 00:57:25.97	303.06	60.43	-26.5	-27.7	17.0	0.00e+00	0	43	102	1048576	13	4151
2026-01-04 00:57:26.98	302.13	60.47	-26.5	-27.9	16.9	0.00e+00	0	43	102	1048576	13	4193
2026-01-04 00:57:27.99	301.20	60.51	-26.7	-28.2	16.6	0.00e+00	0	43	102	1048576	13	4280
2026-01-04 00:57:28.99	300.27	60.54	-26.5	-27.9	16.8	0.00e+00	0	43	102	1048576	13	4202
2026-01-04 00:57:30.00	299.34	60.57	-26.5	-27.8	16.8	0.00e+00	0	43	102	1048576	13	4180
2026-01-04 00:57:31.00	298.41	60.59	-26.6	-28.0	16.8	0.00e+00	0	43	102	1048576	13	4222
2026-01-04 00:57:32.00	297.48	60.60	-26.6	-28.0	16.7	0.00e+00	0	43	102	1048576	13	4222
2026-01-04 00:57:33.00	296.55	60.60	-26.9	-28.7	16.4	0.00e+00	0	43	102	1048576	13	4429
2026-01-04 00:57:34.01	295.61	60.60	-26.8	-28.3	16.6	0.00e+00	0	43	102	1048576	13	4322
2026-01-04 00:57:35.02	294.68	60.59	-27.0	-28.4	16.3	0.00e+00	0	43	102	1048576	14	4239
2026-01-04 00:57:36.03	293.74	60.58	-26.9	-28.1	16.5	0.00e+00	0	43	102	1048576	14	4141
2026-01-04 00:57:37.03	292.81	60.56	-26.7	-27.8	16.6	0.00e+00	0	43	102	1048576	14	4062
2026-01-04 00:57:38.04	291.88	60.53	-26.8	-28.5	16.5	0.00e+00	0	43	102	1048576	13	4358
2026-01-04 00:57:39.05	290.95	60.49	-26.7	-28.3	16.6	0.00e+00	0	43	102	1048576	13	4301
2026-01-04 00:57:40.06	290.02	60.45	-26.8	-28.6	16.4	0.00e+00	0	43	102	1048576	13	4385
2026-01-04 00:57:41.06	289.10	60.40	-26.8	-28.3	16.5	0.00e+00	0	43	102	1048576	13	4323
2026-01-04 00:57:42.07	288.18	60.34	-26.9	-28.6	16.4	0.00e+00	0	43	102	1048576	13	4404
2026-01-04 00:57:43.08	287.26	60.28	-26.5	-27.8	16.8	0.00e+00	0	43	102	1048576	13	4183
2026-01-04 00:57:44.09	286.35	60.21	-26.5	-28.2	16.9	0.00e+00	0	43	102	1048576	12	4389
2026-01-04 00:57:45.09	285.45	60.14	-27.0	-28.4	16.3	0.00e+00	0	43	102	1048576	14	4236
2026-01-04 00:57:46.10	284.54	60.06	-27.5	-29.2	15.7	3.80e-06	0	43	102	1048576	15	4331
2026-01-04 00:57:47.10	283.66	59.97	-27.9	-30.0	15.1	0.00e+00	0	43	102	1048576	15	4590
2026-01-04 00:57:48.11	282.77	59.88	-28.2	-30.0	15.0	7.00e-07	0	43	102	1048576	16	4459
2026-01-04 00:57:49.12	281.88	59.78	-27.5	-28.6	15.8	0.00e+00	0	43	102	1048576	16	4067
2026-01-04 00:57:50.13	281.01	59.67	-27.4	-28.9	15.8	0.00e+00	0	43	102	1048576	15	4258
2026-01-04 00:57:51.13	280.15	59.56	-28.1	-29.9	15.1	0.00e+00	0	43	102	1048576	16	4409
2026-01-04 00:57:52.14	279.28	59.44	-28.2	-30.1	14.9	2.20e-06	0	43	102	1048576	16	4492
2026-01-04 00:57:53.15	278.43	59.32	-28.1	-29.9	15.0	7.00e-07	0	43	102	1048576	16	4426
2026-01-04 00:57:54.16	277.58	59.19	-27.5	-28.9	15.7	0.00e+00	0	43	102	1048576	15	4261
2026-01-04 00:57:55.16	276.75	59.06	-27.8	-29.6	15.4	1.50e-06	0	43	102	1048576	15	4443
2026-01-04 00:57:56.17	275.93	58.92	-27.5	-29.0	15.7	0.00e+00	0	43	102	1048576	15	4295
2026-01-04 00:57:57.18	275.11	58.77	-27.6	-29.2	15.5	0.00e+00	0	43	102	1048576	15	4334
2026-01-04 00:57:58.19	274.29	58.63	-27.9	-29.9	15.1	7.00e-07	0	43	102	1048576	15	4551
2026-01-04 00:57:59.20	273.49	58.47	-27.4	-29.5	14.7	7.00e-07	0	43	102	1048576	16	4559
2026-01-04 00:58:00.21	272.70	58.31	-28.4	-30.5	14.6	7.00e-07	0	43	102	1048576	16	4605
2026-01-04 00:58:01.21	271.93	58.15	-28.5	-30.3	13.2	7.60e-06	0	43	102	1048576	17	4432
2026-01-04 00:58:02.22	271.15	57.98	-28.9	-31.3	13.6	6.10e-06	0	43	102	1048576	17	4724
2026-01-04 00:58:03.23	270.39	57.81	-28.4	-30.2	14.6	0.00e+00	0	43	102	1048576	17	4380
2026-01-04 00:58:04.23	269.64	57.63	-28.2	-30.2	14.9	0.00e+00	0	43	102	1048576	16	4498
2026-01-04 00:58:05.23	268.91	57.46	-27.8	-29.7	15.3	3.60e-03	0	43	102	1048576	15	4472
2026-01-04 00:58:06.24	268.17	57.27	-27.9	-29.9	15.2	2.93e-04	0	43	102	1048576	15	4540
2026-01-04 00:58:07.24	267.46	57.08	-28.3	-30.5	14.7	1.50e-06	0	43	102	1048576	16	4585
2026-01-04 00:58:08.25	266.74	56.89	-28.2	-30.1	14.9	0.00e+00	0	43	102	1048576	16	4473
2026-01-04 00:58:09.26	266.04	56.70	-27.6	-28.7	15.7	0.00e+00	0	43	102	1048576	16	4080
2026-01-04 00:58:10.27	265.35	56.50	-27.1	-28.2	16.1	3.24e-03	0	43	102	1048576	15	4060
2026-01-04 00:58:11.27	264.67	56.30	-27.3	-29.0	15.9	3.71e-03	0	43	102	1048576	14	4378
2026-01-04 00:58:12.28	263.99	56.09	-28.0	-30.0	15.1	4.81e-04	0	43	102	1048576	15	4581
2026-01-04 00:58:13.28	263.34	55.88	-28.8	-31.0	14.1	0.00e+00	0	43	102	1048576	17	4623
2026-01-04 00:58:14.29	262.68	55.67	-29.2	-31.4	13.6	9.84e-04	0	43	102	1048576	18	4658
2026-01-04 00:58:15.30	262.04	55.46	-29.2	-31.4	13.6	2.88e-03	0	43	102	1048576	18	4653
2026-01-04 00:58:16.30	261.41	55.24	-28.7	-30.7	14.1	3.46e-03	0	43	102	1048576	17	4537
2026-01-04 00:58:17.30	260.79	55.03	-28.0	-29.1	15.1	9.28e-04	0	43	102	1048576	17	4074
2026-01-04 00:58:18.31	260.18	54.80	-27.4	-28.8	15.7	5.16e-04	0	43	102	1048576	15	4212
2026-01-04 00:58:19.32	259.57	54.58	-27.7	-29.5	15.4	5.39e-04	0	43	102	1048576	15	4408
2026-01-04 00:58:20.33	258.97	54.35	-28.5	-30.4	14.4	9.02e-04	0	43	102	1048576	17	4456
2026-01-04 00:58:21.33	258.39	54.13	-29.3	-31.6	13.4	3.36e-04	0	43	102	1048576	18	4729
2026-01-04 00:58:22.34	257.82	53.90	-29.6	-32.1	12.9	2.18e-03	0	43	102	1048576	19	4765
2026-01-04 00:58:23.34	257.25	53.67	-29.8	-32.4	12.5	5.90e-04	0	43	102	1048576	19	4891
2026-01-04 00:58:24.35	256.69	53.43	-29.6	-31.9	12.9	5.79e-05	0	43	102	1048576	19	4718
2026-01-04 00:58:25.36	256.14	53.20	-28.4	-29.6	14.6	1.47e-04	0	43	102	1048576	18	4134
2026-01-04 00:58:26.37	255.60	52.96	-27.7	-28.9	15.5	6.93e-04	0	43	102	1048576	16	4134
2026-01-04 00:58:27.38	255.07	52.72	-27.8	-29.1	15.3	8.54e-05	0	43	102	1048576	16	4201
2026-01-04 00:58:28.39	254.55	52.48	-28.5	-30.3	14.3	8.67e-04	0	43	102	1048576	17	4433
2026-01-04 00:58:29.40	254.03	52.24	-29.7	-32.1	12.8	2.82e-05	0	43	102	1048576	19	4771
2026-01-04 00:58:30.41	253.52	52.00	-29.8	-32.0	12.4	1.75e-04	0	43	102	1048576	20	4645
2026-01-04 00:58:31.42	253.03	51.75	-29.0	-30.5	13.7	2.52e-03	0	43	102	1048576	19	4262
2026-01-04 00:58:32.43	252.53	51.51	-28.5	-30.2	14.4	7.00e-07	0	43	102	1048576	17	4404
2026-01-04 00:58:33.44	252.05	51.26	-28.5	-30.4	14.4	3.62e-04	0	43	102	1048576	17	4443
2026-01-04 00:58:34.45	251.58	51.02	-28.6	-30.6	14.2	2.82e-04	0	43	102	1048576	17	4531
2026-01-04 00:58:35.46	251.11	50.77	-28.8	-31.0	14.0	2.20e-06	0	43	102	1048576	17	4630
2026-01-04 00:58:36.47	250.65	50.52	-29.1	-31.3	13.6	1.83e-05	0	43	102	1048576	18	4609
2026-01-04 00:58:37.47	250.20	50.28	-29.6	-31.9	12.9	3.43e-05	0	43	102	1048576	19	4716
2026-01-04 00:58:38.48	249.76	50.03	-30.1	-32.9	11.9	3.81e-04	0	43	102	1048576	20	4932
2026-01-04 00:58:39.48	249.33	49.78	-30.3	-33.2	11.5	6.55e-04	0	43	102	1048576	20	5058
2026-01-04 00:58:40.49	248.90	49.53	-29.8	-32.2	12.2	4.82e-04	0	43	102	1048576	20	4697
2026-01-04 00:58:41.48	248.48	49.29	-29.3	-31.7	13.2	1.98e-05	0	43	102	1048576	18	4749
2026-01-04 00:58:42.49	248.07	49.04	-29.0	-31.0	13.7	1.83e-05	0	43	102	1048576	18	4514
2026-01-04 00:58:43.50	247.66	48.78	-29.0	-31.4	13.7	3.00e-06	0	43	102	1048576	17	4768
2026-01-04 00:58:44.50	247.26	48.54	-29.5	-31.8	12.9	1.67e-05	0	43	102	1048576	19	4672
2026-01-04 00:58:45.51	246.86	48.29	-29.9	-32.7	12.3	1.67e-04	0	43	102	1048576	19	4982
2026-01-04 00:58:46.51	246.47	48.04	-29.8	-32.5	12.5	1.38e-04	0	43	102	1048576	19	4910
2026-01-04 00:58:47.51	246.09	47.79	-29.9	-32.7	12.4	1.91e-04	0	43	102	1048576	19	4972
2026-01-04 00:58:48.52	245.72	47.54	-29.7	-32.1	12.7	9.30e-05	0	43	102	1048576	19	4777
2026-01-04 00:58:49.53	245.35	47.29	-29.2	-31.0	13.4	3.35e-05	0	43	102	1048576	19	4405
2026-01-04 00:58:50.53	244.98	47.04	-28.4	-29.5	14.5	7.00e-07	0	43	102	1048576	18	4105
2026-01-04 00:58:51.54	244.62	46.79	-28.0	-29.1	15.0	3.80e-06	0	43	102	1048576	17	4079
2026-01-04 00:58:52.55	244.27	46.54	-28.3	-30.4	14.6	0.00e+00	0	43	102	1048576	16	4581
2026-01-04 00:58:53.55	243.92	46.29	-28.8	-30.9	13.9	3.00e-06	0	43	102	1048576	17	4624
2026-01-04 00:58:54.55	243.58	46.05	-29.6	-31.9	12.7	3.66e-05	0	43	102	1048576	19	4689
2026-01-04 00:58:55.56	243.25	45.80	-30.5	-33.4	11.1	1.10e-03	0	43	102	1048576	21	5003
2026-01-04 00:58:56.56	242.92	45.55	-31.1	-34.4	10.1	4.22e-03	0	43	102	1048576	22	5309
2026-01-04 00:58:57.57	242.59	45.30	-30.9	-34.0	10.4	5.19e-03	0	43	102	1048576	22	5156
2026-01-04 00:58:58.58	242.27	45.06	-30.2	-32.6	11.7	1.04e-03	0	43	102	1048576	21	4722
2026-01-04 00:58:59.58	241.95	44.81	-29.5	-31.3	12.7	1.03e-04	0	43	102	1048576	20	4432
2026-01-04 00:59:00.59	241.64	44.56	-29.0	-30.4	13.7	1.14e-05	0	43	102	1048576	19	4247
2026-01-04 00:59:01.60	241.34	44.32	-28.7	-30.2	14.1	3.00e-06	0	43	102	1048576	18	4293
2026-01-04 00:59:02.60	241.04	44.08	-28.4	-30.2	14.4	0.00e+00	0	43	102	1048576	17	4389
2026-01-04 00:59:03.61	240.74	43.83	-28.1	-29.4	14.8	0.00e+00	0	43	102	1048576	17	4180
2026-01-04 00:59:04.62	240.44	43.59	-28.4	-30.6	14.5	0.00e+00	0	43	102	1048576	16	4620
2026-01-04 00:59:05.62	240.16	43.35	-29.5	-31.8	12.8	1.44e-05	0	43	102	1048576	19	4688
2026-01-04 00:59:06.63	239.87	43.10	-30.9	-34.4	10.4	1.91e-03	0	43	102	1048576	21	5420
2026-01-04 00:59:07.63	239.60	42.86	-31.3	-35.4	9.5	1.60e-02	0	43	102	1048576	22	5724
2026-01-04 00:59:08.64	239.32	42.62	-31.0	-34.3	10.2	8.10e-03	0	43	102	1048576	22	5261
2026-01-04 00:59:09.65	239.05	42.38	-30.0	-32.0	12.0	1.09e-03	0	43	102	1048576	21	4546
2026-01-04 00:59:10.65	238.78	42.15	-29.3	-31.2	13.1	5.11e-05	0	43	102	1048576	19	4496
2026-01-04 00:59:11.66	238.52	41.91	-29.3	-31.8	13.1	3.20e-05	0	43	102	1048576	18	4778
2026-01-04 00:59:12.67	238.26	41.67	-29.5	-31.7	12.9	5.03e-05	0	43	102	1048576	19	4631
2026-01-04 00:59:13.67	238.00	41.44	-28.9	-31.1	11.9	3.96e-05	0	43	102	1048576	18	4641
2026-01-04 00:59:14.68	237.75	41.20	-29.5	-32.2	13.0	3.35e-05	0	43	102	1048576	18	4907
2026-01-04 00:59:15.69	237.50	40.97	-29.6	-32.1	12.7	5.18e-05	0	43	102	1048576	19	4763
2026-01-04 00:59:16.69	237.26	40.73	-29.8	-32.5	12.5	8.77e-05	0	43	102	1048576	19	4896
2026-01-04 00:59:17.69	237.02	40.50	-29.6	-32.0	12.8	9.91e-05	0	43	102	1048576	19	4749
2026-01-04 00:59:18.70	236.78	40.27	-29.6	-32.1	12.7	5.03e-05	0	43	102	1048576	19	4760
2026-01-04 00:59:19.70	236.55	40.04	-29.9	-32.4	12.1	3.67e-03	0	43	102	1048576	20	4775
2026-01-04 00:59:20.71	236.32	39.81	-30.3	-33.4	11.4	6.96e-04	0	43	102	1048576	20	5150
2026-01-04 00:59:21.72	236.09	39.58	-30.3	-33.4	11.4	1.26e-03	0	43	102	1048576	20	5142
2026-01-04 00:59:22.73	235.86	39.35	-30.2	-33.1	11.6	7.71e-04	0	43	102	1048576	20	5026
2026-01-04 00:59:23.74	235.64	39.13	-30.0	-32.6	11.9	4.15e-04	0	43	102	1048576	20	4834
2026-01-04 00:59:24.74	235.42	38.90	-30.1	-32.7	11.9	3.95e-03	0	43	102	1048576	20	4890
2026-01-04 00:59:25.75	235.21	38.68	-29.6	-31.9	12.7	3.25e-03	0	43	102	1048576	19	4723
2026-01-04 00:59:26.75	235.00	38.45	-29.0	-30.6	13.5	1.60e-05	0	43	102	1048576	19	4296
2026-01-04 00:59:27.76	234.79	38.23	-28.9	-30.7	13.8	4.50e-06	0	43	102	1048576	18	4441
2026-01-04 00:59:28.76	234.58	38.01	-29.3	-31.8	13.1	2.08e-03	0	43	102	1048576	18	4796
2026-01-04 00:59:29.77	234.38	37.79	-29.5	-31.9	12.8	6.79e-05	0	43	102	1048576	19	4707
2026-01-04 00:59:30.77	234.18	37.57	-29.6	-32.0	12.7	2.52e-03	0	43	102	1048576	19	4749
2026-01-04 00:59:31.78	233.98	37.35	-29.3	-31.9	13.0	3.07e-03	0	43	102	1048576	18	4827
2026-01-04 00:59:32.79	233.78	37.13	-29.2	-31.5	13.3	1.83e-05	0	43	102	1048576	18	4687
2026-01-04 00:59:33.80	233.59	36.92	-29.2	-31.6	13.2	1.83e-05	0	43	102	1048576	18	4743
2026-01-04 00:59:34.80	233.40	36.70	-29.2	-31.5	13.2	3.53e-03	0	43	102	1048576	18	4716
2026-01-04 00:59:35.81	233.21	36.49	-29.7	-32.2	12.6	6.33e-05	0	43	102	1048576	19	4821
2026-01-04 00:59:36.81	233.03	36.28	-29.7	-32.2	12.5	3.53e-03	0	43	102	1048576	19	4828
2026-01-04 00:59:37.82	232.85	36.06	-29.6	-32.1	12.6	2.90e-03	0	43	102	1048576	19	4790
2026-01-04 00:59:38.83	232.67	35.85	-29.5	-31.8	12.8	6.56e-05	0	43	102	1048576	19	4714
2026-01-04 00:59:39.83	232.49	35.64	-29.3	-31.9	13.0	3.96e-05	0	43	102	1048576	18	4859
2026-01-04 00:59:40.84	232.31	35.43	-29.3	-31.7	13.2	2.85e-03	0	43	102	1048576	18	4790
2026-01-04 00:59:41.84	232.14	35.23	-29.1	-31.4	13.3	2.51e-05	0	43	102	1048576	18	4684
2026-01-04 00:59:42.85	231.97	35.02	-29.0	-31.1	13.6	1.06e-05	0	43	102	1048576	18	4571
2026-01-04 00:59:43.86	231.80	34.81	-29.0	-31.1	13.5	8.30e-06	0	43	102	1048576	18	4588
2026-01-04 00:59:44.87	231.63	34.61	-28.5	-30.0	14.2	1.50e-06	0	43	102	1048576	18	4238
2026-01-04 00:59:45.87	231.47	34.40	-28.3	-30.0	14.5	3.72e-03	0	43	102	1048576	17	4350
2026-01-04 00:59:46.87	231.31	34.20	-28.5	-30.8	14.3	3.32e-03	0	43	102	1048576	16	4705
2026-01-04 00:59:47.88	231.14	34.00	-28.5	-30.5	14.2	7.00e-07	0	43	102	1048576	17	4489
2026-01-04 00:59:48.89	230.98	33.80	-28.6	-30.7	14.0	2.20e-06	0	43	102	1048576	17	4566
2026-01-04 00:59:49.89	230.83	33.60	-28.6	-30.7	14.1	0.00e+00	0	43	102	1048576	17	4548
2026-01-04 00:59:50.90	230.67	33.40	-28.6	-30.6	14.1	7.00e-07	0	43	102	1048576	17	4536
2026-01-04 00:59:51.91	230.52	33.20	-28.2	-30.2	14.5	0.00e+00	0	43	102	1048576	16	4537
2026-01-04 00:59:52.91	230.37	33.01	-27.8	-29.3	15.1	0.00e+00	0	43	102	1048576	16	4268
2026-01-04 00:59:53.92	230.22	32.81	-27.5	-28.6	15.5	0.00e+00	0	43	102	1048576	16	4078
2026-01-04 00:59:54.92	230.07	32.62	-27.3	-28.6	15.6	0.00e+00	0	43	102	1048576	15	4182
2026-01-04 00:59:55.93	229.93	32.42	-27.5	-29.6	15.3	0.00e+00	0	43	102	1048576	14	4575
2026-01-04 00:59:56.94	229.78	32.23	-27.6	-29.4	15.2	0.00e+00	0	43	102	1048576	15	4416
2026-01-04 00:59:57.95	229.64	32.04	-27.9	-30.1	14.7	0.00e+00	0	43	102	1048576	15	4637
2026-01-04 00:59:58.95	229.50	31.85	-28.2	-30.2	14.6	0.00e+00	0	43	102	1048576	16	4526
2026-01-04 00:59:59.96	229.36	31.66	-28.3	-30.5	14.4	7.00e-07	0	43	102	1048576	16	4622
2026-01-04 01:00:00.97	229.22	31.47	-28.3	-30.4	14.4	0.00e+00	0	43	102	1048576	16	4600
2026-01-04 01:00:01.97	229.09	31.29	-28.3	-30.5	14.4	7.00e-07	0	43	102	1048576	16	4633
2026-01-04 01:00:02.98	228.95	31.10	-28.1	-30.1	14.6	0.00e+00	0	43	102	1048576	16	4489
2026-01-04 01:00:03.99	228.82	30.91	-27.9	-29.4	15.0	0.00e+00	0	43	102	1048576	16	4310
2026-01-04 01:00:04.99	228.69	30.73	-27.7	-29.5	15.0	0.00e+00	0	43	102	1048576	15	4439
2026-01-04 01:00:06.00	228.56	30.55	-27.8	-29.7	14.9	0.00e+00	0	43	102	1048576	15	4501
2026-01-04 01:00:07.00	228.43	30.36	-27.5	-29.2	15.2	0.00e+00	0	43	102	1048576	15	4349
2026-01-04 01:00:08.01	228.31	30.18	-27.4	-28.8	15.4	0.00e+00	0	43	102	1048576	15	4248
2026-01-04 01:00:09.02	228.18	30.00	-27.2	-28.9	15.6	0.00e+00	0	43	102	1048576	14	4381
2026-01-04 01:00:10.02	228.06	29.82	-27.1	-28.8	15.7	0.00e+00	0	43	102	1048576	14	4345
2026-01-04 01:00:11.03	227.94	29.65	-27.2	-29.0	15.6	0.00e+00	0	43	102	1048576	14	4408
2026-01-04 01:00:12.03	227.82	29.47	-27.3	-29.1	15.5	0.00e+00	0	43	102	1048576	14	4448
2026-01-04 01:00:13.04	227.70	29.29	-27.5	-29.5	15.3	0.00e+00	0	43	102	1048576	14	4570
2026-01-04 01:00:14.05	227.58	29.12	-27.6	-29.4	15.0	0.00e+00	0	43	102	1048576	15	4421
2026-01-04 01:00:15.06	227.46	28.94	-27.8	-29.9	14.8	0.00e+00	0	43	102	1048576	15	4556
2026-01-04 01:00:16.06	227.35	28.77	-27.7	-29.7	14.9	0.00e+00	0	43	102	1048576	15	4514
2026-01-04 01:00:17.06	227.23	28.60	-27.9	-30.1	14.7	0.00e+00	0	43	102	1048576	15	4628
2026-01-04 01:00:18.07	227.12	28.42	-27.7	-29.7	14.9	0.00e+00	0	43	102	1048576	15	4508
2026-01-04 01:00:19.08	227.01	28.25	-27.6	-29.4	15.1	0.00e+00	0	43	102	1048576	15	4417
2026-01-04 01:00:20.09	226.90	28.08	-27.5	-29.2	15.2	0.00e+00	0	43	102	1048576	15	4357
2026-01-04 01:00:21.09	226.79	27.91	-27.6	-29.3	15.1	0.00e+00	0	43	102	1048576	15	4409
2026-01-04 01:00:22.10	226.68	27.75	-27.4	-28.9	15.4	0.00e+00	0	43	102	1048576	15	4275
2026-01-04 01:00:23.11	226.57	27.58	-27.3	-29.2	15.4	0.00e+00	0	43	102	1048576	14	4477
2026-01-04 01:00:24.11	226.47	27.41	-27.1	-28.9	15.6	0.00e+00	0	43	102	1048576	14	4388
2026-01-04 01:00:25.12	226.36	27.25	-27.1	-28.8	15.6	0.00e+00	0	43	102	1048576	14	4369
2026-01-04 01:00:26.12	226.26	27.08	-27.1	-28.8	15.7	0.00e+00	0	43	102	1048576	14	4346
2026-01-04 01:00:27.13	226.15	26.92	-26.9	-28.3	15.9	0.00e+00	0	43	102	1048576	14	4226
2026-01-04 01:00:28.14	226.05	26.76	-27.0	-28.9	15.9	0.00e+00	0	43	102	1048576	13	4504
2026-01-04 01:00:29.15	225.95	26.59	-27.1	-28.8	15.7	1.14e-05	0	43	102	1048576	14	4354
2026-01-04 01:00:30.15	225.85	26.43	-27.2	-28.9	15.6	0.00e+00	0	43	102	1048576	14	4405
2026-01-04 01:00:31.16	225.75	26.27	-27.2	-29.1	15.5	0.00e+00	0	43	102	1048576	14	4437
2026-01-04 01:00:32.16	225.66	26.12	-27.2	-29.1	15.5	1.50e-06	0	43	102	1048576	14	4445
2026-01-04 01:00:33.17	225.56	25.96	-27.2	-29.0	15.5	0.00e+00	0	43	102	1048576	14	4430
2026-01-04 01:00:34.17	225.47	25.80	-27.2	-28.9	15.6	2.76e-03	0	43	102	1048576	14	4398
2026-01-04 01:00:35.18	225.37	25.64	-27.2	-29.1	15.5	5.57e-04	0	43	102	1048576	14	4444
2026-01-04 01:00:36.18	225.28	25.49	-27.1	-28.7	15.6	2.63e-03	0	43	102	1048576	14	4349
2026-01-04 01:00:37.19	225.19	25.33	-27.2	-28.9	15.6	0.00e+00	0	43	102	1048576	14	4382
2026-01-04 01:00:38.19	225.09	25.18	-27.0	-28.5	15.8	4.83e-04	0	43	102	1048576	14	4293
2026-01-04 01:00:39.21	225.00	25.02	-26.9	-28.8	15.8	8.43e-04	0	43	102	1048576	13	4474
2026-01-04 01:00:40.21	224.91	24.87	-26.9	-28.7	15.9	3.71e-04	0	43	102	1048576	13	4455
2026-01-04 01:00:41.21	224.82	24.72	-26.7	-28.4	16.0	3.11e-04	0	43	102	1048576	13	4375
2026-01-04 01:00:42.22	224.74	24.57	-26.7	-28.4	16.0	0.00e+00	0	43	102	1048576	13	4372
2026-01-04 01:00:43.23	224.65	24.42	-26.7	-28.4	16.0	2.37e-03	0	43	102	1048576	13	4371
2026-01-04 01:00:44.23	224.56	24.27	-26.6	-28.1	16.2	8.85e-05	0	43	102	1048576	13	4268
2026-01-04 01:00:45.24	224.48	24.12	-26.6	-28.2	16.1	3.08e-03	0	43	102	1048576	13	4307
2026-01-04 01:00:46.25	224.39	23.97	-26.7	-28.2	16.1	3.34e-03	0	43	102	1048576	13	4307
2026-01-04 01:00:47.24	224.31	23.83	-26.5	-28.0	16.3	0.00e+00	0	43	102	1048576	13	4254
2026-01-04 01:00:48.25	224.23	23.68	-26.6	-28.1	16.2	0.00e+00	0	43	102	1048576	13	4278
2026-01-04 01:00:49.26	224.14	23.53	-26.7	-28.4	16.0	3.41e-03	0	43	102	1048576	13	4355
2026-01-04 01:00:50.27	224.06	23.39	-26.7	-28.3	16.1	0.00e+00	0	43	102	1048576	13	4335
2026-01-04 01:00:51.27	223.98	23.24	-26.8	-28.5	16.0	3.48e-03	0	43	102	1048576	13	4381
2026-01-04 01:00:52.27	223.90	23.10	-26.7	-28.4	16.0	4.01e-03	0	43	102	1048576	13	4362
2026-01-04 01:00:53.28	223.82	22.96	-26.8	-28.6	15.9	6.80e-06	0	43	102	1048576	13	4427
2026-01-04 01:00:54.29	223.74	22.82	-26.9	-28.7	15.8	4.11e-05	0	43	102	1048576	13	4454
2026-01-04 01:00:55.29	223.67	22.68	-27.0	-28.6	15.6	4.09e-03	0	43	102	1048576	14	4314
2026-01-04 01:00:56.30	223.59	22.54	-27.0	-28.6	15.6	2.20e-06	0	43	102	1048576	14	4317
2026-01-04 01:00:57.31	223.51	22.39	-27.1	-28.8	15.5	0.00e+00	0	43	102	1048576	14	4367
2026-01-04 01:00:58.32	223.44	22.26	-27.2	-28.9	15.4	0.00e+00	0	43	102	1048576	14	4409
2026-01-04 01:00:59.33	223.36	22.12	-27.2	-29.0	15.4	3.43e-04	0	43	102	1048576	14	4418
2026-01-04 01:01:00.33	223.29	21.98	-27.2	-29.1	15.4	4.42e-04	0	43	102	1048576	14	4454
2026-01-04 01:01:01.34	223.21	21.84	-27.3	-29.1	15.3	6.10e-06	0	43	102	1048576	14	4468
2026-01-04 01:01:02.34	223.14	21.71	-27.3	-29.2	15.3	0.00e+00	0	43	102	1048576	14	4474
2026-01-04 01:01:03.35	223.07	21.57	-27.3	-29.3	15.2	6.74e-04	0	43	102	1048576	14	4510
2026-01-04 01:01:04.35	223.00	21.44	-27.4	-29.4	15.2	0.00e+00	0	43	102	1048576	14	4533
2026-01-04 01:01:05.36	222.93	21.30	-27.4	-29.5	15.1	7.64e-04	0	43	102	1048576	14	4556
2026-01-04 01:01:06.36	222.86	21.17	-27.3	-29.2	15.3	7.22e-04	0	43	102	1048576	14	4481
2026-01-04 01:01:07.37	222.79	21.03	-27.4	-29.4	15.2	0.00e+00	0	43	102	1048576	14	4538
2026-01-04 01:01:08.38	222.72	20.90	-27.5	-29.6	15.0	6.95e-04	0	43	102	1048576	14	4611
2026-01-04 01:01:09.38	222.65	20.77	-27.5	-29.6	15.0	7.47e-04	0	43	102	1048576	14	4602
2026-01-04 01:01:10.39	222.58	20.64	-27.5	-29.3	14.9	7.60e-06	0	43	102	1048576	15	4410
2026-01-04 01:01:11.40	222.51	20.51	-27.5	-29.6	15.0	7.52e-04	0	43	102	1048576	14	4604
2026-01-04 01:01:12.40	222.45	20.38	-27.7	-29.7	14.7	7.00e-07	0	43	102	1048576	15	4522
2026-01-04 01:01:13.41	222.38	20.25	-27.8	-29.8	14.6	7.00e-07	0	43	102	1048576	15	4550
2026-01-04 01:01:14.41	222.32	20.12	-27.4	-29.1	15.0	7.00e-04	0	43	102	1048576	15	4345
2026-01-04 01:01:15.42	222.25	19.99	-27.2	-29.0	15.4	6.25e-04	0	43	102	1048576	14	4418
2026-01-04 01:01:16.43	222.19	19.87	-27.1	-28.7	15.5	1.37e-05	0	43	102	1048576	14	4344
2026-01-04 01:01:17.43	222.12	19.74	-27.0	-28.5	15.6	0.00e+00	0	43	102	1048576	14	4289
2026-01-04 01:01:18.44	222.06	19.61	-27.0	-28.6	15.6	0.00e+00	0	43	102	1048576	14	4319
2026-01-04 01:01:19.44	222.00	19.49	-27.0	-28.6	15.5	0.00e+00	0	43	102	1048576	14	4320
2026-01-04 01:01:20.45	221.93	19.36	-27.0	-28.6	15.5	4.49e-04	0	43	102	1048576	14	4323
2026-01-04 01:01:21.45	221.87	19.24	-27.0	-28.7	15.5	5.70e-04	0	43	102	1048576	14	4332
2026-01-04 01:01:22.46	221.81	19.12	-27.1	-28.8	15.4	0.00e+00	0	43	102	1048576	14	4359
2026-01-04 01:01:23.47	221.75	18.99	-27.0	-28.6	15.5	0.00e+00	0	43	102	1048576	14	4332
2026-01-04 01:01:24.48	221.69	18.87	-27.0	-28.6	15.4	0.00e+00	0	43	102	1048576	14	4324
2026-01-04 01:01:25.48	221.63	18.75	-27.1	-28.7	15.4	0.00e+00	0	43	102	1048576	14	4356
2026-01-04 01:01:26.48	221.57	18.63	-27.1	-28.7	15.4	5.48e-04	0	43	102	1048576	14	4353
2026-01-04 01:01:27.49	221.51	18.51	-27.2	-29.0	15.3	0.00e+00	0	43	102	1048576	14	4428
2026-01-04 01:01:28.49	221.46	18.39	-27.2	-29.0	15.2	0.00e+00	0	43	102	1048576	14	4428
2026-01-04 01:01:29.50	221.40	18.27	-27.1	-28.8	15.4	7.00e-07	0	43	102	1048576	14	4368
2026-01-04 01:01:30.51	221.34	18.15	-27.1	-28.7	15.4	0.00e+00	0	43	102	1048576	14	4358
2026-01-04 01:01:31.52	221.28	18.03	-27.1	-28.9	15.3	0.00e+00	0	43	102	1048576	14	4393
2026-01-04 01:01:32.52	221.23	17.91	-27.2	-28.9	15.3	0.00e+00	0	43	102	1048576	14	4417
2026-01-04 01:01:33.52	221.17	17.79	-27.2	-29.0	15.2	0.00e+00	0	43	102	1048576	14	4434
2026-01-04 01:01:34.54	221.12	17.67	-27.2	-28.9	15.3	0.00e+00	0	43	102	1048576	14	4415
2026-01-04 01:01:35.54	221.06	17.56	-27.2	-29.0	15.2	0.00e+00	0	43	102	1048576	14	4429
2026-01-04 01:01:36.55	221.01	17.44	-27.2	-29.0	15.2	0.00e+00	0	43	102	1048576	14	4440
2026-01-04 01:01:37.56	220.95	17.33	-27.3	-29.2	15.1	0.00e+00	0	43	102	1048576	14	4504
2026-01-04 01:01:38.57	220.90	17.21	-27.4	-29.5	15.0	0.00e+00	0	43	102	1048576	14	4577
2026-01-04 01:01:39.58	220.85	17.09	-27.4	-29.6	14.8	0.00e+00	0	43	102	1048576	14	4597
2026-01-04 01:01:40.59	220.79	16.98	-27.5	-29.2	14.8	0.00e+00	0	43	102	1048576	15	4396
2026-01-04 01:01:41.59	220.74	16.87	-27.6	-29.5	14.6	7.00e-07	0	43	102	1048576	15	4477
2026-01-04 01:01:42.60	220.69	16.75	-27.6	-29.5	14.6	7.00e-07	0	43	102	1048576	15	4465
2026-01-04 01:01:43.61	220.64	16.64	-27.6	-29.5	14.6	2.70e-04	0	43	102	1048576	15	4476
2026-01-04 01:01:44.61	220.59	16.53	-27.7	-29.6	14.6	0.00e+00	0	43	102	1048576	15	4498
2026-01-04 01:01:45.62	220.54	16.42	-27.7	-29.6	14.5	0.00e+00	0	43	102	1048576	15	4500
2026-01-04 01:01:46.63	220.48	16.31	-27.7	-29.7	14.5	3.00e-06	0	43	102	1048576	15	4540
2026-01-04 01:01:47.63	220.44	16.20	-27.7	-29.8	14.4	0.00e+00	0	43	102	1048576	15	4564
2026-01-04 01:01:48.64	220.39	16.09	-27.8	-29.9	14.4	2.33e-03	0	43	102	1048576	15	4580
2026-01-04 01:01:49.65	220.34	15.98	-27.8	-29.8	14.4	1.84e-04	0	43	102	1048576	15	4569
2026-01-04 01:01:50.65	220.29	15.87	-27.8	-29.8	14.4	2.43e-03	0	43	102	1048576	15	4571
2026-01-04 01:01:51.66	220.24	15.76	-27.8	-29.9	14.4	7.00e-07	0	43	102	1048576	15	4593
2026-01-04 01:01:52.66	220.19	15.65	-27.8	-30.0	14.3	7.00e-07	0	43	102	1048576	15	4633
2026-01-04 01:01:53.66	220.14	15.54	-27.9	-30.2	14.2	2.06e-03	0	43	102	1048576	15	4683
2026-01-04 01:01:54.67	220.10	15.44	-27.7	-29.8	14.4	2.11e-03	0	43	102	1048576	15	4568
2026-01-04 01:01:55.68	220.05	15.33	-27.8	-30.0	14.3	1.74e-04	0	43	102	1048576	15	4614
2026-01-04 01:01:56.69	220.00	15.22	-27.8	-29.9	14.4	1.86e-03	0	43	102	1048576	15	4581
2026-01-04 01:01:57.69	219.96	15.12	-27.8	-29.9	14.3	1.64e-03	0	43	102	1048576	15	4584
2026-01-04 01:01:58.70	219.91	15.01	-27.8	-29.8	14.3	1.51e-04	0	43	102	1048576	15	4574
2026-01-04 01:01:59.71	219.86	14.91	-27.7	-29.8	14.4	1.50e-03	0	43	102	1048576	15	4561
2026-01-04 01:02:00.72	219.82	14.80	-27.8	-29.9	14.3	1.52e-03	0	43	102	1048576	15	4589
2026-01-04 01:02:01.72	219.77	14.70	-27.8	-29.9	14.3	4.95e-05	0	43	102	1048576	15	4589
2026-01-04 01:02:02.72	219.73	14.59	-27.7	-29.7	14.4	0.00e+00	0	43	102	1048576	15	4534
2026-01-04 01:02:03.73	219.69	14.49	-27.7	-29.7	14.4	1.50e-06	0	43	102	1048576	15	4535
2026-01-04 01:02:04.74	219.64	14.39	-27.7	-29.7	14.4	1.67e-05	0	43	102	1048576	15	4542
2026-01-04 01:02:05.74	219.60	14.28	-27.7	-29.6	14.4	7.70e-04	0	43	102	1048576	15	4503
2026-01-04 01:02:06.74	219.56	14.18	-27.7	-29.8	14.4	7.80e-04	0	43	102	1048576	15	4552
2026-01-04 01:02:07.75	219.51	14.08	-27.7	-29.7	14.4	7.00e-07	0	43	102	1048576	15	4534
2026-01-04 01:02:08.75	219.47	13.98	-27.6	-29.4	14.5	0.00e+00	0	43	102	1048576	15	4451
2026-01-04 01:02:09.76	219.43	13.88	-27.7	-29.6	14.4	4.01e-04	0	43	102	1048576	15	4502
2026-01-04 01:02:10.76	219.39	13.78	-27.6	-29.5	14.5	1.50e-06	0	43	102	1048576	15	4469
2026-01-04 01:02:11.77	219.34	13.68	-27.6	-29.4	14.5	2.26e-04	0	43	102	1048576	15	4442
2026-01-04 01:02:12.77	219.30	13.58	-27.6	-29.6	14.4	7.00e-07	0	43	102	1048576	15	4509
2026-01-04 01:02:13.77	219.26	13.48	-27.6	-29.5	14.4	3.80e-06	0	43	102	1048576	15	4476
2026-01-04 01:02:14.78	219.22	13.38	-27.6	-29.4	14.4	2.20e-06	0	43	102	1048576	15	4441
2026-01-04 01:02:15.78	219.18	13.28	-27.6	-29.5	14.4	0.00e+00	0	43	102	1048576	15	4490
2026-01-04 01:02:16.79	219.14	13.19	-27.5	-29.4	14.5	0.00e+00	0	43	102	1048576	15	4435
2026-01-04 01:02:17.79	219.10	13.09	-27.5	-29.3	14.5	7.00e-07	0	43	102	1048576	15	4433
2026-01-04 01:02:18.80	219.06	12.99	-27.7	-29.7	14.3	0.00e+00	0	43	102	1048576	15	4541
2026-01-04 01:02:19.81	219.02	12.89	-27.5	-29.3	14.5	0.00e+00	0	43	102	1048576	15	4427
2026-01-04 01:02:20.82	218.98	12.80	-27.5	-29.4	14.5	3.87e-04	0	43	102	1048576	15	4436
2026-01-04 01:02:21.83	218.94	12.70	-27.6	-29.5	14.4	7.00e-07	0	43	102	1048576	15	4481
2026-01-04 01:02:22.84	218.90	12.60	-27.6	-29.5	14.4	7.00e-07	0	43	102	1048576	15	4472
2026-01-04 01:02:23.85	218.87	12.51	-27.7	-29.6	14.3	1.50e-06	0	43	102	1048576	15	4521
2026-01-04 01:02:24.86	218.83	12.41	-27.7	-29.8	14.2	2.20e-06	0	43	102	1048576	15	4568
2026-01-04 01:02:25.86	218.79	12.32	-27.7	-29.8	14.2	4.79e-04	0	43	102	1048576	15	4566
2026-01-04 01:02:26.87	218.75	12.22	-27.7	-29.7	14.2	4.39e-04	0	43	102	1048576	15	4553
2026-01-04 01:02:27.87	218.72	12.13	-27.8	-29.9	14.1	7.00e-07	0	43	102	1048576	15	4611
2026-01-04 01:02:28.88	218.68	12.03	-27.7	-29.7	14.2	1.50e-06	0	43	102	1048576	15	4543
2026-01-04 01:02:29.89	218.64	11.94	-27.7	-29.8	14.2	0.00e+00	0	43	102	1048576	15	4576
2026-01-04 01:02:30.89	218.60	11.85	-27.8	-29.9	14.1	0.00e+00	0	43	102	1048576	15	4611
2026-01-04 01:02:31.90	218.57	11.75	-27.7	-29.7	14.2	4.17e-04	0	43	102	1048576	15	4559
2026-01-04 01:02:32.90	218.53	11.66	-27.7	-29.7	14.2	4.09e-04	0	43	102	1048576	15	4544
2026-01-04 01:02:33.91	218.50	11.57	-27.7	-29.7	14.2	3.00e-06	0	43	102	1048576	15	4552
2026-01-04 01:02:34.92	218.46	11.48	-27.8	-30.0	14.0	1.50e-06	0	43	102	1048576	15	4642
2026-01-04 01:02:35.92	218.43	11.39	-27.8	-30.0	14.1	2.89e-04	0	43	102	1048576	15	4628
2026-01-04 01:02:36.93	218.39	11.30	-27.8	-30.0	14.0	4.50e-06	0	43	102	1048576	15	4645
2026-01-04 01:02:37.93	218.36	11.21	-27.9	-30.3	13.8	1.96e-04	0	43	102	1048576	15	4747
2026-01-04 01:02:38.94	218.32	11.11	-27.9	-30.3	13.8	1.67e-04	0	43	102	1048576	15	4720
2026-01-04 01:02:39.95	218.29	11.02	-27.9	-30.1	13.9	1.50e-06	0	43	102	1048576	15	4678
2026-01-04 01:02:40.96	218.25	10.93	-28.0	-30.4	13.7	9.10e-06	0	43	102	1048576	15	4775
2026-01-04 01:02:41.97	218.22	10.84	-28.1	-30.2	13.8	1.67e-05	0	43	102	1048576	16	4568
2026-01-04 01:02:42.97	218.18	10.76	-28.2	-30.4	13.6	7.60e-06	0	43	102	1048576	16	4649
2026-01-04 01:02:43.98	218.15	10.67	-28.1	-30.1	13.8	7.62e-05	0	43	102	1048576	16	4559
2026-01-04 01:02:44.99	218.12	10.58	-28.3	-30.7	13.4	1.29e-05	0	43	102	1048576	16	4729
2026-01-04 01:02:45.99	218.08	10.49	-28.1	-30.2	13.7	6.10e-06	0	43	102	1048576	16	4574
2026-01-04 01:02:47.00	218.05	10.40	-28.1	-30.2	13.7	4.50e-06	0	43	102	1048576	16	4582
2026-01-04 01:02:48.00	218.02	10.31	-28.1	-30.1	13.8	2.21e-05	0	43	102	1048576	16	4547
2026-01-04 01:02:49.00	217.99	10.23	-28.1	-30.1	13.8	3.80e-06	0	43	102	1048576	16	4556
2026-01-04 01:02:50.01	217.96	10.14	-28.2	-30.5	13.5	5.30e-06	0	43	102	1048576	16	4670
2026-01-04 01:02:51.01	217.92	10.05	-28.1	-30.3	13.6	6.10e-06	0	43	102	1048576	16	4611
2026-01-04 01:02:52.02	217.89	9.97	-28.2	-30.4	13.6	5.30e-06	0	43	102	1048576	16	4634
2026-01-04 01:02:53.03	217.86	9.88	-28.2	-30.4	13.6	3.05e-05	0	43	102	1048576	16	4628
2026-01-04 01:02:54.03	217.83	9.80	-28.2	-30.4	13.4	5.11e-05	0	43	102	1048576	16	4657
2026-01-04 01:02:55.03	217.80	9.71	-28.3	-30.7	13.3	1.44e-05	0	43	102	1048576	16	4743
2026-01-04 01:02:56.04	217.77	9.62	-28.2	-30.5	13.4	1.60e-05	0	43	102	1048576	16	4683
2026-01-04 01:02:57.05	217.74	9.54	-28.3	-30.6	13.4	9.90e-06	0	43	102	1048576	16	4714
2026-01-04 01:02:58.05	217.70	9.46	-28.3	-30.7	13.3	1.29e-05	0	43	102	1048576	16	4741
2026-01-04 01:02:59.06	217.67	9.37	-28.4	-31.0	13.1	7.93e-05	0	43	102	1048576	16	4846
2026-01-04 01:03:00.07	217.64	9.29	-28.3	-30.7	13.3	2.59e-05	0	43	102	1048576	16	4745
2026-01-04 01:03:01.08	217.61	9.20	-28.3	-30.7	13.3	1.06e-05	0	43	102	1048576	16	4746
2026-01-04 01:03:02.08	217.58	9.12	-28.4	-30.9	13.2	3.05e-05	0	43	102	1048576	16	4815
2026-01-04 01:03:03.09	217.55	9.03	-28.4	-30.9	13.1	1.69e-04	0	43	102	1048576	16	4821
2026-01-04 01:03:04.09	217.53	8.95	-28.4	-30.9	13.2	2.62e-04	0	43	102	1048576	16	4818
2026-01-04 01:03:05.10	217.50	8.87	-28.5	-31.1	13.0	1.31e-04	0	43	102	1048576	16	4902
2026-01-04 01:03:06.11	217.47	8.79	-28.4	-31.1	13.0	4.57e-05	0	43	102	1048576	16	4877
2026-01-04 01:03:07.10	217.44	8.71	-28.5	-30.8	12.9	5.79e-05	0	43	102	1048576	17	4677
2026-01-04 01:03:08.11	217.41	8.62	-28.6	-31.1	12.7	1.84e-04	0	43	102	1048576	17	4767
2026-01-04 01:03:09.12	217.38	8.54	-28.6	-30.9	12.8	1.71e-04	0	43	102	1048576	17	4713
2026-01-04 01:03:10.11	217.35	8.46	-28.6	-30.9	12.8	3.75e-04	0	43	102	1048576	17	4718
2026-01-04 01:03:11.12	217.32	8.38	-28.6	-30.9	12.7	6.94e-05	0	43	102	1048576	17	4717
2026-01-04 01:03:12.12	217.30	8.30	-28.6	-31.0	12.7	6.02e-05	0	43	102	1048576	17	4747
2026-01-04 01:03:13.13	217.27	8.22	-28.7	-31.2	12.6	3.50e-04	0	43	102	1048576	17	4807
2026-01-04 01:03:14.14	217.24	8.14	-28.6	-31.0	12.7	2.75e-04	0	43	102	1048576	17	4753
2026-01-04 01:03:15.15	217.21	8.06	-28.7	-31.2	12.5	2.55e-04	0	43	102	1048576	17	4806
2026-01-04 01:03:16.15	217.19	7.98	-28.7	-31.2	12.5	3.93e-04	0	43	102	1048576	17	4824
2026-01-04 01:03:17.16	217.16	7.90	-28.8	-31.5	12.4	1.41e-04	0	43	102	1048576	17	4904
2026-01-04 01:03:18.16	217.13	7.82	-28.9	-31.7	12.2	3.42e-04	0	43	102	1048576	17	5000
2026-01-04 01:03:19.17	217.10	7.74	-28.9	-31.8	12.1	4.97e-04	0	43	102	1048576	17	5038
2026-01-04 01:03:20.18	217.08	7.66	-28.9	-31.8	12.1	3.25e-04	0	43	102	1048576	17	5042
2026-01-04 01:03:21.18	217.05	7.58	-29.1	-31.7	11.9	5.48e-04	0	43	102	1048576	18	4883
2026-01-04 01:03:22.19	217.02	7.50	-29.0	-31.5	11.9	3.46e-04	0	43	102	1048576	18	4826
2026-01-04 01:03:23.20	217.00	7.42	-29.0	-31.6	11.9	3.91e-04	0	43	102	1048576	18	4856
2026-01-04 01:03:24.20	216.97	7.35	-29.1	-31.7	11.8	4.73e-04	0	43	102	1048576	18	4886
2026-01-04 01:03:25.21	216.95	7.27	-29.0	-31.5	12.0	4.47e-04	0	43	102	1048576	18	4807
2026-01-04 01:03:26.22	216.92	7.19	-29.0	-31.7	11.8	4.54e-04	0	43	102	1048576	18	4882
2026-01-04 01:03:27.23	216.89	7.11	-29.6	-32.8	10.9	4.66e-04	0	43	102	1048576	19	5194
2026-01-04 01:03:28.23	216.87	7.03	-33.1	-45.0	3.8	1.49e+00	0	43	104	1048576	26	14233
2026-01-04 01:03:29.24	216.84	6.96	-33.4	-45.6	3.8	1.49e+00	0	43	104	1048576	26	14650

#Closed at: 2026-01-04 01:03:30
#Recorded file [1 MB]: D:/data/31010_260104_035301.dat