passes_logs/2026/01/04/R2M6_AANII_01/R2M6_AANII_01__20260104_093354_SUOMI_NPP_rec.log

#Pass ID: 20260104_093354_SUOMI NPP
#Satellite: SUOMI NPP
#Configuration: NPP
#almurnet v.1.7.20240730
#Start time: 2026-01-04 09:33:55

#Version: 2.2.20231116
#Station: R2M6_AANII_01
#Location: 30.233357 lon 59.946436 lat
#TLE: 1 37849U 11061A   26001.07732418  .00000182  00000+0  10735-3 0  9990
#TLE: 2 37849  98.7795 303.2470 0002580  87.2016 272.9455 14.19520779734739

#Time	Az	El	Level	Level2	SNR	BER	BlckErr	Temp	State	Recorded	gain1	gain2
2026-01-04 09:33:55.69	134.68	7.06	-31.6	-35.7	5.0	1.29e+00	0	41	0	0	24	5777
2026-01-04 09:33:56.69	134.64	7.13	-31.8	-36.8	4.8	1.34e+00	0	41	104	0	24	6345
2026-01-04 09:33:57.70	134.60	7.21	-31.9	-37.0	6.8	1.74e-01	0	41	0	0	24	6498
2026-01-04 09:33:58.71	134.56	7.29	-32.0	-37.5	6.5	2.32e-01	0	41	102	1048576	24	6769
2026-01-04 09:33:59.72	134.52	7.36	-32.1	-38.1	6.1	2.56e-01	0	41	102	1048576	24	7155
2026-01-04 09:34:00.73	134.48	7.44	-32.0	-37.6	6.4	2.79e-01	0	41	102	1048576	24	6848
2026-01-04 09:34:01.73	134.44	7.52	-31.9	-36.8	7.0	2.39e-01	0	41	102	1048576	24	6360
2026-01-04 09:34:02.74	134.40	7.59	-31.7	-36.0	7.6	1.20e-01	0	41	102	1048576	24	5882
2026-01-04 09:34:03.75	134.35	7.67	-31.4	-34.5	8.8	4.83e-02	0	41	102	1048576	24	5140
2026-01-04 09:34:04.76	134.31	7.75	-31.1	-33.8	9.7	1.91e-02	0	41	102	1048576	23	4953
2026-01-04 09:34:05.77	134.27	7.83	-30.8	-33.4	10.5	5.31e-03	0	41	102	1048576	22	4843
2026-01-04 09:34:06.77	134.23	7.91	-30.4	-32.2	11.3	1.95e-03	0	41	102	1048576	22	4426
2026-01-04 09:34:07.78	134.19	7.98	-30.4	-31.9	11.6	7.98e-04	0	41	102	1048576	22	4307
2026-01-04 09:34:08.79	134.14	8.06	-30.3	-32.1	11.8	4.07e-04	0	41	102	1048576	21	4454
2026-01-04 09:34:09.79	134.10	8.14	-30.3	-32.4	11.6	6.21e-04	0	41	102	1048576	21	4555
2026-01-04 09:34:10.80	134.06	8.22	-30.4	-32.6	11.4	6.87e-04	0	41	102	1048576	21	4647
2026-01-04 09:34:11.81	134.01	8.30	-30.6	-33.0	11.2	1.06e-03	0	41	102	1048576	21	4781
2026-01-04 09:34:12.82	133.97	8.38	-30.8	-33.8	10.6	2.50e-03	0	42	102	1048576	21	5073
2026-01-04 09:34:13.82	133.92	8.46	-30.8	-33.9	10.5	4.07e-03	0	41	102	1048576	21	5139
2026-01-04 09:34:14.83	133.88	8.54	-31.0	-34.4	10.2	4.97e-03	0	41	102	1048576	21	5331
2026-01-04 09:34:15.84	133.83	8.62	-31.2	-34.6	9.7	1.04e-02	0	42	102	1048576	22	5335
2026-01-04 09:34:16.84	133.79	8.70	-31.1	-34.3	10.0	9.32e-03	0	41	102	1048576	22	5189
2026-01-04 09:34:17.84	133.75	8.78	-31.0	-34.0	10.2	7.42e-03	0	42	102	1048576	22	5068
2026-01-04 09:34:18.85	133.70	8.86	-31.0	-33.8	10.4	5.89e-03	0	42	102	1048576	22	4978
2026-01-04 09:34:19.85	133.65	8.94	-30.9	-33.3	10.7	3.44e-03	0	42	102	1048576	22	4785
2026-01-04 09:34:20.86	133.61	9.02	-30.7	-32.8	11.1	1.69e-03	0	42	102	1048576	22	4566
2026-01-04 09:34:21.87	133.56	9.11	-30.6	-32.6	11.3	9.56e-04	0	42	102	1048576	22	4498
2026-01-04 09:34:22.88	133.52	9.19	-30.6	-32.4	11.5	8.48e-04	0	42	102	1048576	22	4441
2026-01-04 09:34:23.88	133.47	9.27	-30.7	-32.8	11.2	9.02e-04	0	42	102	1048576	22	4571
2026-01-04 09:34:24.89	133.42	9.35	-30.5	-32.3	11.6	9.63e-04	0	42	102	1048576	22	4401
2026-01-04 09:34:25.90	133.37	9.43	-30.5	-32.2	11.6	6.06e-04	0	42	102	1048576	22	4360
2026-01-04 09:34:26.91	133.33	9.52	-30.6	-32.6	11.4	9.41e-04	0	42	102	1048576	22	4498
2026-01-04 09:34:27.91	133.28	9.60	-30.8	-32.9	11.2	1.08e-03	0	42	102	1048576	22	4620
2026-01-04 09:34:28.93	133.23	9.68	-30.8	-33.1	11.1	1.83e-03	0	42	102	1048576	22	4697
2026-01-04 09:34:29.92	133.18	9.77	-30.8	-33.0	11.1	1.72e-03	0	42	102	1048576	22	4656
2026-01-04 09:34:30.93	133.13	9.85	-30.9	-33.5	10.7	2.42e-03	0	42	102	1048576	22	4838
2026-01-04 09:34:31.93	133.08	9.94	-31.0	-33.6	10.7	3.73e-03	0	42	102	1048576	22	4886
2026-01-04 09:34:32.94	133.03	10.02	-30.7	-32.9	11.2	1.99e-03	0	42	102	1048576	22	4598
2026-01-04 09:34:33.94	132.99	10.10	-30.5	-32.2	11.7	8.82e-04	0	42	102	1048576	22	4364
2026-01-04 09:34:34.94	132.94	10.19	-30.4	-31.6	12.1	5.05e-04	0	42	102	1048576	22	4172
2026-01-04 09:34:35.95	132.89	10.27	-30.3	-31.4	12.3	2.05e-04	0	42	102	1048576	22	4096
2026-01-04 09:34:36.96	132.83	10.36	-30.3	-32.1	12.2	1.59e-04	0	42	102	1048576	21	4416
2026-01-04 09:34:37.96	132.78	10.45	-30.3	-31.9	12.3	1.88e-04	0	42	102	1048576	21	4348
2026-01-04 09:34:38.97	132.73	10.53	-30.5	-32.5	11.9	2.53e-04	0	42	102	1048576	21	4548
2026-01-04 09:34:39.97	132.68	10.62	-30.4	-32.4	12.0	3.98e-04	0	42	102	1048576	21	4507
2026-01-04 09:34:40.98	132.63	10.70	-30.6	-32.7	11.8	4.78e-04	0	42	102	1048576	21	4629
2026-01-04 09:34:41.99	132.58	10.79	-30.8	-33.4	11.3	9.28e-04	0	42	102	1048576	21	4881
2026-01-04 09:34:42.99	132.52	10.88	-30.8	-33.5	11.2	1.22e-03	0	42	102	1048576	21	4922
2026-01-04 09:34:44.00	132.47	10.97	-30.9	-33.9	11.0	1.84e-03	0	42	102	1048576	21	5058
2026-01-04 09:34:45.01	132.42	11.05	-31.0	-33.5	10.9	2.56e-03	0	42	102	1048576	22	4828
2026-01-04 09:34:46.02	132.36	11.14	-30.9	-33.3	11.1	2.02e-03	0	42	102	1048576	22	4721
2026-01-04 09:34:47.03	132.31	11.23	-30.8	-32.8	11.4	1.28e-03	0	42	102	1048576	22	4550
2026-01-04 09:34:48.04	132.26	11.32	-30.7	-32.6	11.6	1.10e-03	0	42	102	1048576	22	4479
2026-01-04 09:34:49.05	132.20	11.41	-30.6	-32.4	11.7	5.45e-04	0	42	102	1048576	22	4400
2026-01-04 09:34:50.05	132.15	11.50	-30.7	-32.6	11.6	5.34e-04	0	42	102	1048576	22	4483
2026-01-04 09:34:51.06	132.09	11.59	-30.5	-32.0	12.1	4.54e-04	0	42	102	1048576	22	4269
2026-01-04 09:34:52.06	132.04	11.68	-30.6	-32.4	11.7	3.81e-04	0	42	102	1048576	22	4422
2026-01-04 09:34:53.06	131.98	11.77	-30.5	-32.0	12.0	3.95e-04	0	42	102	1048576	22	4279
2026-01-04 09:34:54.07	131.92	11.86	-30.5	-31.9	12.1	3.07e-04	0	42	102	1048576	22	4243
2026-01-04 09:34:55.07	131.87	11.95	-30.5	-31.9	12.1	2.33e-04	0	42	102	1048576	22	4248
2026-01-04 09:34:56.07	131.81	12.04	-30.5	-32.0	12.0	3.37e-04	0	42	102	1048576	22	4280
2026-01-04 09:34:57.08	131.75	12.13	-30.7	-32.5	11.7	5.23e-04	0	42	102	1048576	22	4434
2026-01-04 09:34:58.09	131.69	12.22	-30.8	-32.8	11.5	7.29e-04	0	42	102	1048576	22	4568
2026-01-04 09:34:59.09	131.64	12.31	-30.6	-32.2	11.9	4.32e-04	0	42	102	1048576	22	4330
2026-01-04 09:35:00.10	131.58	12.41	-30.5	-32.0	12.0	3.74e-04	0	42	102	1048576	22	4289
2026-01-04 09:35:01.10	131.52	12.50	-30.2	-31.6	12.6	2.04e-04	0	42	102	1048576	21	4234
2026-01-04 09:35:02.11	131.46	12.59	-30.2	-31.6	12.7	7.62e-05	0	42	102	1048576	21	4234
2026-01-04 09:35:03.12	131.40	12.69	-30.3	-31.9	12.4	1.01e-04	0	42	102	1048576	21	4335
2026-01-04 09:35:04.13	131.34	12.78	-30.1	-31.4	12.8	8.92e-05	0	42	102	1048576	21	4154
2026-01-04 09:35:05.13	131.28	12.87	-30.1	-31.4	12.8	5.41e-05	0	42	102	1048576	21	4151
2026-01-04 09:35:06.14	131.22	12.97	-30.5	-32.5	12.1	9.07e-05	0	42	102	1048576	21	4518
2026-01-04 09:35:07.15	131.16	13.06	-30.4	-32.1	12.4	1.09e-04	0	42	102	1048576	21	4373
2026-01-04 09:35:08.16	131.09	13.16	-30.5	-32.4	12.1	2.29e-04	0	42	102	1048576	21	4491
2026-01-04 09:35:09.17	131.03	13.25	-30.5	-32.4	12.2	3.39e-04	0	42	102	1048576	21	4483
2026-01-04 09:35:10.18	130.97	13.35	-30.9	-33.5	11.4	6.65e-04	0	42	102	1048576	21	4870
2026-01-04 09:35:11.18	130.91	13.45	-31.0	-33.3	11.2	1.11e-03	0	43	102	1048576	22	4690
2026-01-04 09:35:12.19	130.84	13.54	-30.8	-32.9	11.5	5.40e-04	0	42	102	1048576	22	4562
2026-01-04 09:35:13.19	130.78	13.64	-30.8	-32.7	11.7	7.18e-04	0	43	102	1048576	22	4484
2026-01-04 09:35:14.20	130.71	13.74	-30.7	-32.5	11.8	5.19e-04	0	43	102	1048576	22	4429
2026-01-04 09:35:15.21	130.65	13.83	-30.6	-32.2	12.0	2.88e-04	0	42	102	1048576	22	4333
2026-01-04 09:35:16.22	130.58	13.93	-30.7	-32.5	11.8	3.30e-04	0	43	102	1048576	22	4429
2026-01-04 09:35:17.23	130.52	14.03	-30.5	-31.8	12.3	2.91e-04	0	42	102	1048576	22	4203
2026-01-04 09:35:18.23	130.45	14.13	-30.7	-32.3	12.0	2.97e-04	0	43	102	1048576	22	4364
2026-01-04 09:35:19.24	130.39	14.23	-30.8	-32.9	11.6	5.87e-04	0	42	102	1048576	22	4553
2026-01-04 09:35:20.25	130.32	14.33	-30.8	-32.8	11.7	6.37e-04	0	43	102	1048576	22	4522
2026-01-04 09:35:21.25	130.25	14.43	-30.7	-32.4	12.0	3.89e-04	0	42	102	1048576	22	4372
2026-01-04 09:35:22.26	130.18	14.53	-30.7	-32.5	11.9	3.45e-04	0	43	102	1048576	22	4408
2026-01-04 09:35:23.27	130.11	14.63	-30.8	-32.9	11.7	5.87e-04	0	42	102	1048576	22	4543
2026-01-04 09:35:24.27	130.05	14.73	-30.8	-32.8	11.6	6.90e-04	0	43	102	1048576	22	4540
2026-01-04 09:35:25.28	129.98	14.83	-30.6	-32.0	12.3	3.00e-04	0	43	102	1048576	22	4264
2026-01-04 09:35:26.28	129.91	14.93	-30.6	-32.1	12.2	1.95e-04	0	42	102	1048576	22	4275
2026-01-04 09:35:27.29	129.84	15.03	-30.5	-31.7	12.5	1.82e-04	0	43	102	1048576	22	4152
2026-01-04 09:35:28.30	129.77	15.13	-30.4	-31.5	12.7	8.01e-05	0	43	102	1048576	22	4085
2026-01-04 09:35:29.30	129.69	15.24	-30.5	-31.7	12.5	9.76e-05	0	43	102	1048576	22	4152
2026-01-04 09:35:30.31	129.62	15.34	-30.4	-31.5	12.7	8.54e-05	0	43	102	1048576	22	4074
2026-01-04 09:35:31.32	129.55	15.44	-30.5	-31.7	12.6	1.04e-04	0	43	102	1048576	22	4130
2026-01-04 09:35:32.32	129.48	15.55	-30.4	-31.4	12.7	8.01e-05	0	43	102	1048576	22	4064
2026-01-04 09:35:33.33	129.40	15.65	-30.4	-31.5	12.7	1.06e-04	0	42	102	1048576	22	4093
2026-01-04 09:35:34.33	129.33	15.75	-30.6	-32.0	12.3	1.04e-04	0	43	102	1048576	22	4244
2026-01-04 09:35:35.34	129.25	15.86	-30.6	-32.0	12.3	1.79e-04	0	43	102	1048576	22	4249
2026-01-04 09:35:36.35	129.18	15.97	-30.5	-31.7	12.6	1.02e-04	0	43	102	1048576	22	4136
2026-01-04 09:35:37.36	129.10	16.07	-30.5	-31.6	12.6	1.01e-04	0	42	102	1048576	22	4120
2026-01-04 09:35:38.36	129.03	16.18	-30.5	-31.8	12.5	9.99e-05	0	43	102	1048576	22	4161
2026-01-04 09:35:39.36	128.95	16.28	-30.6	-31.9	12.5	1.22e-04	0	43	102	1048576	22	4190
2026-01-04 09:35:40.37	128.87	16.39	-30.4	-31.4	12.8	7.32e-05	0	43	102	1048576	22	4051
2026-01-04 09:35:41.38	128.80	16.50	-30.4	-31.5	12.7	6.02e-05	0	43	102	1048576	22	4079
2026-01-04 09:35:42.38	128.72	16.61	-30.5	-31.8	12.5	1.02e-04	0	43	102	1048576	22	4176
2026-01-04 09:35:43.39	128.64	16.71	-30.7	-32.3	12.2	1.30e-04	0	43	102	1048576	22	4322
2026-01-04 09:35:44.39	128.56	16.82	-30.8	-32.6	12.0	2.80e-04	0	43	102	1048576	22	4415
2026-01-04 09:35:45.40	128.48	16.93	-30.7	-32.4	12.1	2.78e-04	0	43	102	1048576	22	4378
2026-01-04 09:35:46.41	128.40	17.04	-30.8	-32.5	12.0	2.67e-04	0	43	102	1048576	22	4413
2026-01-04 09:35:47.42	128.31	17.15	-30.8	-32.6	12.0	4.00e-04	0	43	102	1048576	22	4437
2026-01-04 09:35:48.42	128.23	17.26	-30.6	-31.9	12.5	1.66e-04	0	43	102	1048576	22	4200
2026-01-04 09:35:49.42	128.15	17.37	-30.3	-31.6	13.0	7.40e-05	0	43	102	1048576	21	4200
2026-01-04 09:35:50.43	128.07	17.48	-30.1	-31.1	13.3	1.67e-05	0	43	102	1048576	21	4038
2026-01-04 09:35:51.44	127.98	17.60	-30.2	-31.3	13.2	2.21e-05	0	43	102	1048576	21	4085
2026-01-04 09:35:52.45	127.90	17.71	-30.0	-30.9	13.5	6.80e-06	0	43	102	1048576	21	3983
2026-01-04 09:35:53.46	127.81	17.82	-30.2	-31.5	13.1	2.05e-05	0	43	102	1048576	21	4154
2026-01-04 09:35:54.46	127.73	17.93	-30.4	-31.9	12.9	5.18e-05	0	43	102	1048576	21	4279
2026-01-04 09:35:55.46	127.64	18.05	-30.5	-32.3	12.5	9.46e-05	0	43	102	1048576	21	4425
2026-01-04 09:35:56.47	127.55	18.16	-30.3	-31.6	13.0	3.73e-05	0	43	102	1048576	21	4201
2026-01-04 09:35:57.48	127.47	18.27	-30.4	-31.8	12.9	3.43e-05	0	43	102	1048576	21	4250
2026-01-04 09:35:58.49	127.38	18.39	-30.4	-32.0	12.8	8.31e-05	0	43	102	1048576	21	4311
2026-01-04 09:35:59.50	127.29	18.51	-30.4	-31.8	13.0	5.03e-05	0	43	102	1048576	21	4244
2026-01-04 09:36:00.50	127.20	18.62	-30.3	-31.5	13.2	2.97e-05	0	43	102	1048576	21	4143
2026-01-04 09:36:01.50	127.11	18.74	-30.4	-31.9	12.9	4.50e-05	0	43	102	1048576	21	4274
2026-01-04 09:36:02.51	127.02	18.85	-30.3	-31.7	13.1	3.50e-05	0	43	102	1048576	21	4198
2026-01-04 09:36:03.51	126.92	18.97	-30.5	-32.1	12.8	3.89e-05	0	43	102	1048576	21	4331
2026-01-04 09:36:04.51	126.83	19.09	-30.6	-32.3	12.6	8.01e-05	0	43	102	1048576	21	4398
2026-01-04 09:36:05.52	126.74	19.21	-30.6	-32.5	12.5	8.69e-05	0	43	102	1048576	21	4478
2026-01-04 09:36:06.53	126.64	19.32	-30.8	-33.2	12.1	1.72e-04	0	43	102	1048576	21	4699
2026-01-04 09:36:07.53	126.55	19.44	-30.9	-33.3	12.0	3.57e-04	0	43	102	1048576	21	4753
2026-01-04 09:36:08.54	126.45	19.56	-30.8	-32.9	12.3	1.98e-04	0	43	102	1048576	21	4603
2026-01-04 09:36:09.55	126.35	19.68	-30.6	-32.4	12.6	9.53e-05	0	43	102	1048576	21	4442
2026-01-04 09:36:10.54	126.26	19.80	-30.6	-32.3	12.7	6.02e-05	0	43	102	1048576	21	4409
2026-01-04 09:36:11.55	126.16	19.92	-30.7	-32.5	12.6	6.25e-05	0	43	102	1048576	21	4466
2026-01-04 09:36:12.55	126.06	20.05	-30.7	-32.7	12.5	1.33e-04	0	43	102	1048576	21	4521
2026-01-04 09:36:13.56	125.96	20.17	-30.8	-33.0	12.3	1.38e-04	0	43	102	1048576	21	4628
2026-01-04 09:36:14.56	125.86	20.29	-30.9	-33.3	12.1	2.94e-04	0	43	102	1048576	21	4724
2026-01-04 09:36:15.57	125.76	20.41	-31.0	-33.2	11.8	2.79e-04	0	43	102	1048576	22	4595
2026-01-04 09:36:16.57	125.66	20.54	-31.2	-33.5	11.6	4.60e-04	0	43	102	1048576	22	4729
2026-01-04 09:36:17.58	125.55	20.66	-31.0	-33.1	11.9	8.15e-04	0	43	102	1048576	22	4561
2026-01-04 09:36:18.58	125.45	20.78	-30.9	-32.8	12.1	2.33e-04	0	43	102	1048576	22	4471
2026-01-04 09:36:19.59	125.35	20.91	-31.0	-32.9	12.0	2.09e-04	0	43	102	1048576	22	4506
2026-01-04 09:36:20.60	125.24	21.04	-30.9	-32.7	12.2	1.96e-04	0	43	102	1048576	22	4430
2026-01-04 09:36:21.61	125.13	21.16	-31.0	-33.1	12.0	3.14e-04	0	43	102	1048576	22	4551
2026-01-04 09:36:22.61	125.03	21.29	-31.0	-33.1	12.0	7.35e-04	0	43	102	1048576	22	4554
2026-01-04 09:36:23.62	124.92	21.42	-31.3	-33.7	11.5	4.02e-04	0	43	102	1048576	22	4779
2026-01-04 09:36:24.62	124.81	21.54	-31.3	-33.9	11.4	8.56e-04	0	43	102	1048576	22	4851
2026-01-04 09:36:25.63	124.70	21.67	-31.3	-33.9	11.4	1.31e-03	0	43	102	1048576	22	4858
2026-01-04 09:36:26.64	124.58	21.80	-31.2	-33.5	11.7	9.38e-04	0	43	102	1048576	22	4711
2026-01-04 09:36:27.65	124.47	21.93	-31.0	-33.0	12.0	3.37e-04	0	43	102	1048576	22	4522
2026-01-04 09:36:28.66	124.36	22.06	-31.1	-33.2	11.9	2.07e-04	0	43	102	1048576	22	4595
2026-01-04 09:36:29.65	124.25	22.19	-31.1	-33.3	11.8	4.05e-04	0	43	102	1048576	22	4629
2026-01-04 09:36:30.66	124.13	22.32	-31.0	-32.9	12.2	4.58e-04	0	43	102	1048576	22	4478
2026-01-04 09:36:31.67	124.01	22.45	-31.0	-32.8	12.2	2.07e-04	0	43	102	1048576	22	4455
2026-01-04 09:36:32.67	123.90	22.59	-31.1	-33.1	12.0	2.04e-04	0	43	102	1048576	22	4568
2026-01-04 09:36:33.68	123.78	22.72	-31.1	-33.2	12.0	3.65e-04	0	43	102	1048576	22	4580
2026-01-04 09:36:34.69	123.66	22.85	-31.0	-33.0	12.1	2.91e-04	0	43	102	1048576	22	4529
2026-01-04 09:36:35.70	123.54	22.99	-31.0	-32.8	12.2	2.34e-04	0	43	102	1048576	22	4441
2026-01-04 09:36:36.71	123.42	23.12	-31.0	-32.9	12.2	1.75e-04	0	43	102	1048576	22	4475
2026-01-04 09:36:37.70	123.30	23.25	-31.2	-33.6	11.7	5.05e-04	0	43	102	1048576	22	4725
2026-01-04 09:36:38.71	123.17	23.39	-31.0	-33.0	12.1	4.26e-04	0	43	102	1048576	22	4525
2026-01-04 09:36:39.71	123.05	23.53	-31.2	-33.5	11.8	2.30e-04	0	43	102	1048576	22	4670
2026-01-04 09:36:40.72	122.92	23.66	-31.2	-33.6	11.7	4.16e-04	0	43	102	1048576	22	4720
2026-01-04 09:36:41.72	122.80	23.80	-31.3	-33.8	11.6	5.76e-04	0	43	102	1048576	22	4794
2026-01-04 09:36:42.73	122.67	23.94	-31.3	-33.6	11.7	6.76e-04	0	43	102	1048576	22	4733
2026-01-04 09:36:43.73	122.54	24.07	-31.1	-33.3	11.9	6.14e-04	0	43	102	1048576	22	4617
2026-01-04 09:36:44.74	122.41	24.21	-31.0	-32.9	12.2	3.52e-04	0	43	102	1048576	22	4488
2026-01-04 09:36:45.74	122.28	24.35	-31.0	-32.8	12.3	3.23e-04	0	43	102	1048576	22	4448
2026-01-04 09:36:46.75	122.15	24.49	-31.0	-32.9	12.3	2.71e-04	0	43	102	1048576	22	4468
2026-01-04 09:36:47.76	122.01	24.63	-31.3	-33.9	11.5	4.81e-04	0	43	102	1048576	22	4871
2026-01-04 09:36:48.76	121.88	24.77	-31.3	-33.8	11.7	5.34e-04	0	43	102	1048576	22	4780
2026-01-04 09:36:49.77	121.74	24.92	-31.2	-33.3	11.9	3.78e-04	0	43	102	1048576	22	4623
2026-01-04 09:36:50.78	121.60	25.06	-31.2	-33.5	11.9	4.00e-04	0	43	102	1048576	22	4680
2026-01-04 09:36:51.79	121.46	25.20	-31.3	-33.6	11.8	3.21e-04	0	43	102	1048576	22	4713
2026-01-04 09:36:52.80	121.32	25.35	-31.0	-33.0	12.2	3.39e-04	0	43	102	1048576	22	4499
2026-01-04 09:36:53.80	121.18	25.49	-31.0	-32.9	12.3	3.89e-04	0	43	102	1048576	22	4465
2026-01-04 09:36:54.81	121.04	25.64	-31.0	-32.9	12.3	2.26e-04	0	43	102	1048576	22	4458
2026-01-04 09:36:55.81	120.89	25.78	-31.3	-33.9	11.6	2.51e-04	0	43	102	1048576	22	4822
2026-01-04 09:36:56.81	120.75	25.92	-31.1	-33.1	12.1	3.14e-04	0	43	102	1048576	22	4530
2026-01-04 09:36:57.82	120.60	26.07	-30.9	-32.4	12.6	1.18e-04	0	43	102	1048576	22	4317
2026-01-04 09:36:58.83	120.45	26.22	-30.8	-32.3	12.7	1.60e-04	0	43	102	1048576	22	4263
2026-01-04 09:36:59.84	120.30	26.37	-30.8	-32.2	12.8	3.73e-05	0	43	102	1048576	22	4224
2026-01-04 09:37:00.84	120.15	26.51	-30.5	-31.5	13.3	1.44e-05	0	43	102	1048576	22	4037
2026-01-04 09:37:01.85	120.00	26.66	-30.4	-31.2	13.4	1.75e-05	0	43	102	1048576	22	3948
2026-01-04 09:37:02.85	119.85	26.81	-30.6	-31.7	13.1	2.21e-05	0	43	102	1048576	22	4068
2026-01-04 09:37:03.86	119.69	26.96	-30.8	-32.4	12.7	3.05e-05	0	43	102	1048576	22	4293
2026-01-04 09:37:04.87	119.53	27.11	-31.0	-32.7	12.5	7.62e-05	0	43	102	1048576	22	4400
2026-01-04 09:37:05.87	119.38	27.26	-31.0	-32.9	12.4	1.85e-04	0	43	102	1048576	22	4473
2026-01-04 09:37:06.88	119.22	27.42	-30.9	-32.5	12.6	2.44e-04	0	43	102	1048576	22	4318
2026-01-04 09:37:07.89	119.05	27.57	-30.9	-32.6	12.5	9.68e-05	0	43	102	1048576	22	4376
2026-01-04 09:37:08.90	118.89	27.72	-30.7	-32.4	12.6	7.85e-05	0	43	102	1048576	22	4343
2026-01-04 09:37:09.90	118.73	27.88	-30.3	-31.6	13.4	4.34e-05	0	43	102	1048576	21	4184
2026-01-04 09:37:10.91	118.56	28.03	-30.6	-32.4	12.8	5.03e-05	0	43	102	1048576	21	4455
2026-01-04 09:37:11.92	118.39	28.19	-30.7	-32.7	12.6	8.62e-05	0	43	102	1048576	21	4533
2026-01-04 09:37:12.93	118.22	28.34	-30.9	-33.3	12.3	7.85e-05	0	43	102	1048576	21	4732
2026-01-04 09:37:13.93	118.05	28.50	-31.0	-33.0	12.2	2.62e-04	0	43	102	1048576	22	4544
2026-01-04 09:37:14.93	117.88	28.65	-31.0	-32.9	12.2	3.36e-04	0	43	102	1048576	22	4511
2026-01-04 09:37:15.94	117.70	28.81	-30.9	-32.7	12.4	1.98e-04	0	43	102	1048576	22	4431
2026-01-04 09:37:16.94	117.53	28.97	-31.0	-33.0	12.1	1.36e-04	0	43	102	1048576	22	4535
2026-01-04 09:37:17.95	117.35	29.13	-30.7	-32.2	12.8	7.47e-05	0	43	102	1048576	22	4252
2026-01-04 09:37:18.96	117.17	29.29	-30.9	-32.6	12.5	9.30e-05	0	43	102	1048576	22	4387
2026-01-04 09:37:19.97	116.99	29.45	-31.2	-33.5	11.9	2.49e-04	0	43	102	1048576	22	4688
2026-01-04 09:37:20.98	116.80	29.61	-31.0	-33.0	12.1	2.82e-04	0	43	102	1048576	22	4539
2026-01-04 09:37:21.98	116.62	29.77	-31.2	-33.4	11.9	2.31e-04	0	43	102	1048576	22	4672
2026-01-04 09:37:22.99	116.43	29.93	-31.1	-33.4	12.0	2.92e-04	0	43	102	1048576	22	4668
2026-01-04 09:37:24.00	116.24	30.09	-31.1	-33.2	12.1	3.14e-04	0	43	102	1048576	22	4586
2026-01-04 09:37:25.00	116.05	30.25	-31.1	-33.2	12.0	3.75e-04	0	43	102	1048576	22	4598
2026-01-04 09:37:26.01	115.86	30.41	-31.0	-33.0	12.2	2.76e-04	0	43	102	1048576	22	4531
2026-01-04 09:37:27.02	115.66	30.58	-31.1	-33.2	12.0	2.52e-04	0	43	102	1048576	22	4592
2026-01-04 09:37:28.03	115.46	30.74	-31.2	-33.6	11.8	3.42e-04	0	43	102	1048576	22	4758
2026-01-04 09:37:29.04	115.26	30.91	-31.6	-34.4	10.9	1.30e-03	0	43	102	1048576	23	4952
2026-01-04 09:37:30.04	115.06	31.07	-31.4	-33.7	11.4	1.64e-03	0	43	102	1048576	23	4690
2026-01-04 09:37:31.04	114.86	31.24	-31.6	-34.4	10.9	1.97e-03	0	43	102	1048576	23	4943
2026-01-04 09:37:32.05	114.66	31.40	-31.5	-33.9	11.2	1.72e-03	0	43	102	1048576	23	4778
2026-01-04 09:37:33.06	114.45	31.57	-31.3	-33.4	11.5	1.01e-03	0	43	102	1048576	23	4586
2026-01-04 09:37:34.06	114.24	31.74	-31.4	-33.7	11.4	9.51e-04	0	43	102	1048576	23	4679
2026-01-04 09:37:35.07	114.03	31.90	-31.5	-33.8	11.3	1.37e-03	0	43	102	1048576	23	4734
2026-01-04 09:37:36.07	113.81	32.07	-31.5	-34.0	11.2	1.37e-03	0	43	102	1048576	23	4800
2026-01-04 09:37:37.08	113.60	32.24	-31.4	-33.6	11.5	9.67e-04	0	43	102	1048576	23	4653
2026-01-04 09:37:38.09	113.38	32.41	-31.2	-33.1	11.9	5.15e-04	0	43	102	1048576	23	4471
2026-01-04 09:37:39.10	113.15	32.58	-31.3	-33.1	11.9	3.87e-04	0	43	102	1048576	23	4472
2026-01-04 09:37:40.10	112.93	32.75	-31.4	-33.6	11.5	7.44e-04	0	43	102	1048576	23	4632
2026-01-04 09:37:41.11	112.71	32.92	-31.2	-33.1	11.9	6.84e-04	0	43	102	1048576	23	4461
2026-01-04 09:37:42.12	112.48	33.09	-31.4	-33.5	11.7	6.28e-04	0	43	102	1048576	23	4587
2026-01-04 09:37:43.12	112.25	33.26	-31.4	-33.5	11.6	8.06e-04	0	43	102	1048576	23	4584
2026-01-04 09:37:44.13	112.01	33.43	-31.6	-34.2	11.2	8.19e-04	0	43	102	1048576	23	4834
2026-01-04 09:37:45.14	111.78	33.61	-31.9	-35.0	10.6	2.41e-03	0	43	102	1048576	23	5150
2026-01-04 09:37:46.15	111.54	33.78	-32.0	-35.3	10.4	3.65e-03	0	43	102	1048576	23	5278
2026-01-04 09:37:47.15	111.30	33.95	-32.2	-35.7	9.8	9.89e-03	0	43	102	1048576	24	5384
2026-01-04 09:37:48.16	111.06	34.12	-31.8	-34.4	10.7	3.91e-03	0	43	102	1048576	24	4817
2026-01-04 09:37:49.17	110.81	34.30	-31.6	-33.5	11.4	2.77e-03	0	43	102	1048576	24	4500
2026-01-04 09:37:50.18	110.56	34.47	-31.8	-34.2	10.9	3.58e-03	0	43	102	1048576	24	4744
2026-01-04 09:37:51.19	110.31	34.65	-31.7	-34.0	11.0	2.24e-03	0	43	102	1048576	24	4671
2026-01-04 09:37:52.20	110.05	34.82	-31.7	-33.9	11.0	1.41e-03	0	43	102	1048576	24	4654
2026-01-04 09:37:53.20	109.80	35.00	-31.6	-33.6	11.2	1.67e-03	0	43	102	1048576	24	4545
2026-01-04 09:37:54.21	109.54	35.17	-31.5	-33.5	11.2	1.25e-03	0	43	102	1048576	24	4514
2026-01-04 09:37:55.22	109.27	35.35	-31.6	-33.7	11.2	1.60e-03	0	43	102	1048576	24	4611
2026-01-04 09:37:56.21	109.01	35.52	-31.8	-34.4	10.6	1.69e-03	0	43	102	1048576	24	4871
2026-01-04 09:37:57.21	108.75	35.70	-32.2	-36.0	9.4	8.87e-03	0	43	102	1048576	24	5572
2026-01-04 09:37:58.22	108.47	35.88	-32.3	-36.5	9.0	1.67e-02	0	43	102	1048576	24	5783
2026-01-04 09:37:59.22	108.20	36.05	-32.3	-36.3	9.2	2.07e-02	0	43	102	1048576	24	5696
2026-01-04 09:38:00.23	107.92	36.23	-32.0	-35.1	10.1	1.63e-02	0	43	102	1048576	24	5146
2026-01-04 09:38:01.23	107.65	36.40	-31.8	-34.5	10.6	5.14e-03	0	43	102	1048576	24	4885
2026-01-04 09:38:02.24	107.36	36.58	-31.6	-34.0	11.0	2.89e-03	0	43	102	1048576	24	4695
2026-01-04 09:38:03.24	107.08	36.76	-31.9	-34.5	10.7	2.55e-03	0	43	102	1048576	24	4905
2026-01-04 09:38:04.25	106.79	36.94	-31.9	-34.7	10.4	4.37e-03	0	43	102	1048576	24	4987
2026-01-04 09:38:05.26	106.49	37.11	-31.5	-33.3	11.4	1.78e-03	0	43	102	1048576	24	4434
2026-01-04 09:38:06.26	106.20	37.29	-31.5	-33.4	11.4	6.36e-04	0	43	102	1048576	24	4485
2026-01-04 09:38:07.27	105.90	37.47	-31.4	-33.2	11.5	8.36e-04	0	43	102	1048576	24	4416
2026-01-04 09:38:08.28	105.60	37.65	-31.1	-32.8	12.1	2.79e-04	0	43	102	1048576	23	4370
2026-01-04 09:38:09.29	105.29	37.83	-31.3	-33.2	11.9	3.46e-04	0	43	102	1048576	23	4502
2026-01-04 09:38:10.28	104.99	38.00	-31.5	-33.9	11.6	5.67e-04	0	43	102	1048576	23	4766
2026-01-04 09:38:11.29	104.67	38.18	-31.7	-34.5	11.0	1.30e-03	0	43	102	1048576	23	4993
2026-01-04 09:38:12.30	104.36	38.36	-31.7	-34.5	10.9	2.51e-03	0	43	102	1048576	23	4983
2026-01-04 09:38:13.31	104.03	38.54	-31.4	-33.5	11.6	1.02e-03	0	43	102	1048576	23	4609
2026-01-04 09:38:14.31	103.71	38.71	-31.2	-33.0	12.0	3.29e-04	0	43	102	1048576	23	4438
2026-01-04 09:38:15.32	103.39	38.89	-31.3	-33.4	11.8	4.26e-04	0	43	102	1048576	23	4565
2026-01-04 09:38:16.32	103.06	39.07	-31.6	-34.4	11.1	1.06e-03	0	43	102	1048576	23	4942
2026-01-04 09:38:17.32	102.73	39.24	-31.6	-34.2	11.1	1.88e-03	0	43	102	1048576	23	4897
2026-01-04 09:38:18.33	102.39	39.42	-31.6	-34.2	11.1	1.25e-03	0	43	102	1048576	23	4887
2026-01-04 09:38:19.34	102.05	39.60	-31.8	-34.9	10.7	2.17e-03	0	43	102	1048576	23	5147
2026-01-04 09:38:20.35	101.70	39.78	-32.0	-35.6	10.1	3.61e-03	0	43	102	1048576	23	5461
2026-01-04 09:38:21.36	101.35	39.95	-31.9	-34.9	10.2	5.87e-03	0	43	102	1048576	24	5086
2026-01-04 09:38:22.36	101.00	40.13	-31.8	-34.4	10.6	3.60e-03	0	43	102	1048576	24	4855
2026-01-04 09:38:23.37	100.64	40.30	-31.4	-33.3	11.4	1.37e-03	0	43	102	1048576	24	4459
2026-01-04 09:38:24.37	100.28	40.48	-31.3	-33.3	11.8	5.22e-04	0	43	102	1048576	23	4561
2026-01-04 09:38:25.37	99.92	40.65	-31.2	-33.0	12.0	5.23e-04	0	43	102	1048576	23	4440
2026-01-04 09:38:26.37	99.56	40.82	-31.3	-33.5	11.6	4.26e-04	0	43	102	1048576	23	4611
2026-01-04 09:38:27.38	99.18	41.00	-31.6	-34.5	11.0	1.30e-03	0	43	102	1048576	23	5011
2026-01-04 09:38:28.39	98.81	41.17	-31.6	-34.6	10.8	2.29e-03	0	43	102	1048576	23	5044
2026-01-04 09:38:29.39	98.43	41.34	-31.5	-33.9	11.3	1.87e-03	0	43	102	1048576	23	4781
2026-01-04 09:38:30.40	98.04	41.51	-31.1	-32.7	12.2	7.04e-04	0	43	102	1048576	23	4340
2026-01-04 09:38:31.41	97.65	41.69	-31.0	-32.4	12.5	9.53e-05	0	43	102	1048576	23	4217
2026-01-04 09:38:32.42	97.26	41.86	-31.3	-33.2	12.0	3.23e-04	0	43	102	1048576	23	4491
2026-01-04 09:38:33.43	96.86	42.03	-31.6	-34.3	11.1	5.92e-04	0	43	102	1048576	23	4903
2026-01-04 09:38:34.43	96.46	42.19	-31.8	-34.7	10.8	2.02e-03	0	43	102	1048576	23	5040
2026-01-04 09:38:35.44	96.06	42.36	-31.5	-34.0	11.3	1.24e-03	0	43	102	1048576	23	4791
2026-01-04 09:38:36.45	95.65	42.53	-31.4	-33.7	11.6	7.54e-04	0	43	102	1048576	23	4694
2026-01-04 09:38:37.45	95.24	42.70	-31.6	-34.3	11.1	1.12e-03	0	43	102	1048576	23	4908
2026-01-04 09:38:38.46	94.82	42.86	-31.8	-34.8	10.7	3.26e-03	0	43	102	1048576	23	5128
2026-01-04 09:38:39.47	94.39	43.03	-31.8	-34.9	10.8	2.92e-03	0	43	102	1048576	23	5166
2026-01-04 09:38:40.48	93.96	43.19	-31.7	-34.6	11.0	2.39e-03	0	43	102	1048576	23	5004
2026-01-04 09:38:41.48	93.54	43.35	-31.5	-33.8	11.4	1.99e-03	0	43	102	1048576	23	4704
2026-01-04 09:38:42.49	93.10	43.51	-30.8	-32.3	12.9	1.87e-04	0	43	102	1048576	22	4268
2026-01-04 09:38:43.50	92.66	43.67	-29.7	-30.3	14.8	6.80e-06	0	43	102	1048576	20	3873
2026-01-04 09:38:44.51	92.21	43.83	-29.4	-29.6	15.3	0.00e+00	0	43	102	1048576	20	3673
2026-01-04 09:38:45.52	91.76	43.99	-29.4	-29.5	15.2	0.00e+00	0	43	102	1048576	20	3663
2026-01-04 09:38:46.52	91.31	44.14	-29.8	-30.7	14.6	0.00e+00	0	43	102	1048576	20	3979
2026-01-04 09:38:47.53	90.85	44.30	-30.5	-32.0	13.4	3.80e-06	0	43	102	1048576	21	4283
2026-01-04 09:38:48.54	90.39	44.45	-31.4	-34.1	11.7	1.36e-04	0	43	102	1048576	22	4926
2026-01-04 09:38:49.54	89.93	44.60	-31.5	-34.1	11.3	1.09e-03	0	43	102	1048576	23	4867
2026-01-04 09:38:50.55	89.46	44.75	-31.1	-32.9	12.1	3.89e-04	0	43	102	1048576	23	4416
2026-01-04 09:38:51.56	88.98	44.90	-31.1	-32.9	12.0	1.87e-04	0	43	102	1048576	23	4439
2026-01-04 09:38:52.57	88.50	45.05	-31.0	-32.6	12.3	2.87e-04	0	43	102	1048576	23	4312
2026-01-04 09:38:53.57	88.02	45.19	-30.9	-32.5	12.7	9.23e-05	0	43	102	1048576	22	4367
2026-01-04 09:38:54.58	87.53	45.33	-30.7	-32.0	13.0	7.47e-05	0	43	102	1048576	22	4220
2026-01-04 09:38:55.58	87.04	45.47	-30.6	-32.0	13.1	2.21e-05	0	43	102	1048576	22	4211
2026-01-04 09:38:56.59	86.54	45.61	-30.3	-31.0	13.8	1.90e-05	0	43	102	1048576	22	3907
2026-01-04 09:38:57.60	86.03	45.75	-30.8	-32.4	12.9	2.89e-05	0	43	102	1048576	22	4329
2026-01-04 09:38:58.61	85.53	45.89	-30.5	-31.5	13.5	4.04e-05	0	43	102	1048576	22	4050
2026-01-04 09:38:59.61	85.02	46.02	-30.2	-31.2	14.0	8.30e-06	0	43	102	1048576	21	4038
2026-01-04 09:39:00.62	84.50	46.15	-30.1	-31.0	14.1	3.00e-06	0	44	102	1048576	21	3985
2026-01-04 09:39:01.63	83.98	46.28	-30.1	-31.0	14.1	1.50e-06	0	43	102	1048576	21	3976
2026-01-04 09:39:02.63	83.46	46.41	-30.4	-31.7	13.6	2.20e-06	0	43	102	1048576	21	4193
2026-01-04 09:39:03.65	82.93	46.53	-30.8	-32.9	12.8	3.89e-05	0	43	102	1048576	21	4588
2026-01-04 09:39:04.65	82.40	46.65	-31.5	-34.1	11.3	2.84e-04	0	43	102	1048576	23	4860
2026-01-04 09:39:05.65	81.87	46.77	-31.7	-34.9	10.7	1.67e-03	0	43	102	1048576	23	5176
2026-01-04 09:39:06.66	81.33	46.89	-31.8	-35.0	10.5	3.94e-03	0	43	102	1048576	23	5239
2026-01-04 09:39:07.66	80.79	47.00	-31.9	-35.4	10.3	4.46e-03	0	43	102	1048576	23	5387
2026-01-04 09:39:08.67	80.24	47.12	-32.3	-36.7	8.9	2.10e-02	0	43	102	1048576	24	5952
2026-01-04 09:39:09.68	79.68	47.23	-32.6	-37.4	7.8	7.62e-02	0	43	102	1048576	25	6283
2026-01-04 09:39:10.68	79.13	47.33	-32.5	-37.1	8.1	4.79e-02	0	43	102	1048576	25	6105
2026-01-04 09:39:11.68	78.58	47.44	-32.2	-35.9	9.1	3.15e-02	0	43	102	1048576	25	5468
2026-01-04 09:39:12.70	78.01	47.54	-32.2	-35.8	9.2	1.81e-02	0	43	102	1048576	25	5441
2026-01-04 09:39:13.71	77.44	47.64	-32.0	-35.0	9.7	1.13e-02	0	43	102	1048576	25	5120
2026-01-04 09:39:14.71	76.87	47.73	-32.0	-35.1	9.7	1.09e-02	0	43	102	1048576	25	5131
2026-01-04 09:39:15.72	76.29	47.83	-31.7	-34.3	10.7	7.79e-03	0	43	102	1048576	24	4851
2026-01-04 09:39:16.72	75.72	47.92	-31.6	-34.0	11.0	2.18e-03	0	43	102	1048576	24	4715
2026-01-04 09:39:17.72	75.15	48.00	-31.4	-33.2	11.5	1.24e-03	0	43	102	1048576	24	4436
2026-01-04 09:39:18.73	74.56	48.09	-31.3	-33.4	11.8	4.38e-04	0	43	102	1048576	23	4585
2026-01-04 09:39:19.73	73.98	48.17	-31.0	-32.6	12.3	1.91e-04	0	43	102	1048576	23	4330
2026-01-04 09:39:20.73	73.39	48.24	-30.9	-32.1	12.6	1.17e-04	0	43	102	1048576	23	4173
2026-01-04 09:39:21.74	72.80	48.32	-31.0	-33.1	12.4	8.31e-05	0	43	102	1048576	22	4601
2026-01-04 09:39:22.74	72.21	48.39	-31.2	-33.6	12.0	1.36e-04	0	43	102	1048576	22	4754
2026-01-04 09:39:23.75	71.61	48.46	-30.8	-32.4	12.7	1.07e-04	0	43	102	1048576	22	4355
2026-01-04 09:39:24.75	71.01	48.52	-30.3	-31.2	13.6	1.67e-05	0	43	102	1048576	22	3988
2026-01-04 09:39:25.74	70.42	48.58	-30.2	-31.3	13.8	3.80e-06	0	43	102	1048576	21	4098
2026-01-04 09:39:26.75	69.81	48.64	-30.8	-33.1	12.6	1.67e-05	0	43	102	1048576	21	4670
2026-01-04 09:39:27.76	69.20	48.70	-31.1	-33.5	12.0	1.78e-04	0	43	102	1048576	22	4722
2026-01-04 09:39:28.76	68.59	48.75	-31.0	-33.1	12.2	2.13e-04	0	43	102	1048576	22	4593
2026-01-04 09:39:29.76	67.99	48.79	-30.5	-31.8	13.1	8.01e-05	0	43	102	1048576	22	4175
2026-01-04 09:39:30.77	67.37	48.84	-30.2	-31.5	13.7	8.30e-06	0	43	102	1048576	21	4148
2026-01-04 09:39:31.78	66.75	48.88	-30.3	-31.5	13.7	8.30e-06	0	43	102	1048576	21	4167
2026-01-04 09:39:32.79	66.13	48.92	-29.7	-30.5	14.6	7.00e-07	0	43	102	1048576	20	3949
2026-01-04 09:39:33.79	65.52	48.95	-29.3	-30.0	15.2	7.00e-07	0	43	102	1048576	19	3901
2026-01-04 09:39:34.80	64.90	48.98	-29.5	-30.6	14.9	0.00e+00	0	43	102	1048576	19	4079
2026-01-04 09:39:35.81	64.28	49.01	-30.0	-31.3	14.1	1.50e-06	0	43	102	1048576	20	4192
2026-01-04 09:39:36.81	63.66	49.03	-30.7	-32.8	12.7	4.80e-05	0	43	102	1048576	21	4572
2026-01-04 09:39:37.82	63.03	49.05	-30.9	-32.9	12.3	1.70e-04	0	43	102	1048576	22	4531
2026-01-04 09:39:38.82	62.42	49.07	-31.2	-34.0	11.6	3.05e-04	0	43	102	1048576	22	4944
2026-01-04 09:39:39.83	61.79	49.08	-31.1	-33.6	11.8	1.13e-03	0	43	102	1048576	22	4804
2026-01-04 09:39:40.84	61.16	49.09	-30.6	-32.2	12.7	1.65e-04	0	43	102	1048576	22	4335
2026-01-04 09:39:41.84	60.54	49.09	-30.1	-31.3	13.6	1.44e-05	0	43	102	1048576	21	4142
2026-01-04 09:39:42.85	59.92	49.09	-30.4	-32.1	13.0	2.13e-05	0	43	102	1048576	21	4392
2026-01-04 09:39:43.85	59.30	49.09	-30.8	-33.2	12.4	1.30e-04	0	43	102	1048576	21	4745
2026-01-04 09:39:44.86	58.67	49.09	-30.5	-32.3	12.9	8.85e-05	0	43	102	1048576	21	4450
2026-01-04 09:39:45.86	58.05	49.08	-30.1	-31.1	13.8	2.44e-05	0	43	102	1048576	21	4079
2026-01-04 09:39:46.87	57.43	49.06	-29.7	-30.6	14.4	5.30e-06	0	43	102	1048576	20	4004
2026-01-04 09:39:47.88	56.80	49.04	-29.5	-30.0	14.8	7.00e-07	0	43	102	1048576	20	3841
2026-01-04 09:39:48.89	56.18	49.02	-29.7	-30.5	14.7	0.00e+00	0	43	102	1048576	20	3956
2026-01-04 09:39:49.89	55.56	49.00	-30.1	-31.7	13.8	1.50e-06	0	43	102	1048576	20	4326
2026-01-04 09:39:50.90	54.94	48.97	-29.6	-30.2	14.6	7.00e-07	0	43	102	1048576	20	3900
2026-01-04 09:39:51.90	54.32	48.94	-29.4	-29.9	14.9	0.00e+00	0	43	102	1048576	20	3793
2026-01-04 09:39:52.91	53.70	48.91	-30.0	-31.5	14.0	2.20e-06	0	43	102	1048576	20	4258
2026-01-04 09:39:53.92	53.09	48.87	-30.5	-32.7	13.0	1.29e-05	0	43	102	1048576	20	4685
2026-01-04 09:39:54.93	52.47	48.82	-30.7	-32.9	12.6	1.11e-04	0	43	102	1048576	21	4648
2026-01-04 09:39:55.93	51.86	48.78	-30.6	-32.8	12.7	5.87e-05	0	43	102	1048576	21	4625
2026-01-04 09:39:56.94	51.25	48.73	-31.1	-33.6	11.9	1.91e-04	0	43	102	1048576	22	4811
2026-01-04 09:39:57.95	50.64	48.68	-31.3	-34.4	11.2	7.20e-04	0	43	102	1048576	22	5151
2026-01-04 09:39:58.96	50.03	48.62	-31.2	-33.9	11.5	1.32e-03	0	43	102	1048576	22	4908
2026-01-04 09:39:59.96	49.43	48.56	-31.1	-33.4	12.0	5.05e-04	0	43	102	1048576	22	4727
2026-01-04 09:40:00.97	48.83	48.50	-31.3	-34.1	11.5	6.54e-04	0	43	102	1048576	22	4973
2026-01-04 09:40:01.97	48.23	48.43	-31.5	-34.4	10.9	1.02e-03	0	43	102	1048576	23	5010
2026-01-04 09:40:02.98	47.63	48.36	-31.4	-34.1	11.1	2.30e-03	0	43	102	1048576	23	4890
2026-01-04 09:40:03.98	47.04	48.29	-31.6	-34.7	10.8	2.09e-03	0	43	102	1048576	23	5105
2026-01-04 09:40:04.98	46.46	48.22	-31.4	-33.8	11.3	1.68e-03	0	43	102	1048576	23	4756
2026-01-04 09:40:05.98	45.87	48.14	-31.7	-34.6	10.8	1.15e-03	0	43	102	1048576	23	5072
2026-01-04 09:40:06.99	45.29	48.06	-31.6	-34.4	10.9	2.25e-03	0	43	102	1048576	23	4996
2026-01-04 09:40:08.00	44.70	47.97	-31.6	-34.5	10.9	1.07e-03	0	43	102	1048576	23	5026
2026-01-04 09:40:09.00	44.13	47.88	-31.4	-33.9	11.3	8.32e-04	0	43	102	1048576	23	4770
2026-01-04 09:40:10.01	43.55	47.79	-31.6	-34.3	11.1	1.17e-03	0	43	102	1048576	23	4938
2026-01-04 09:40:11.02	42.98	47.70	-32.1	-35.5	9.7	4.80e-03	0	43	102	1048576	24	5379
2026-01-04 09:40:12.03	42.41	47.60	-32.1	-35.6	9.6	1.14e-02	0	43	102	1048576	24	5440
2026-01-04 09:40:13.03	41.85	47.50	-31.7	-34.1	10.9	8.69e-03	0	43	102	1048576	24	4759
2026-01-04 09:40:14.04	41.28	47.40	-31.8	-34.5	10.6	2.81e-03	0	43	102	1048576	24	4910
2026-01-04 09:40:15.05	40.72	47.30	-31.3	-33.0	11.7	1.50e-03	0	43	102	1048576	24	4354
2026-01-04 09:40:16.05	40.17	47.19	-31.7	-34.6	10.9	1.59e-03	0	43	102	1048576	23	5062
2026-01-04 09:40:17.05	39.63	47.08	-31.7	-34.6	10.9	1.58e-03	0	43	102	1048576	23	5053
2026-01-04 09:40:18.06	39.08	46.97	-31.6	-34.4	11.0	1.93e-03	0	44	102	1048576	23	4957
2026-01-04 09:40:19.07	38.54	46.85	-31.4	-34.0	11.3	9.07e-04	0	43	102	1048576	23	4821
2026-01-04 09:40:20.07	38.00	46.73	-31.6	-34.5	10.9	2.28e-03	0	43	102	1048576	23	5016
2026-01-04 09:40:21.08	37.47	46.61	-31.7	-34.8	10.6	4.08e-03	0	43	102	1048576	23	5157
2026-01-04 09:40:22.09	36.94	46.49	-31.5	-34.1	11.1	2.22e-03	0	43	102	1048576	23	4872
2026-01-04 09:40:23.10	36.41	46.36	-31.7	-34.9	10.5	2.13e-03	0	43	102	1048576	23	5209
2026-01-04 09:40:24.11	35.89	46.24	-31.7	-34.7	10.7	3.26e-03	0	43	102	1048576	23	5124
2026-01-04 09:40:25.12	35.37	46.11	-31.4	-33.8	11.3	1.93e-03	0	43	102	1048576	23	4774
2026-01-04 09:40:26.12	34.86	45.98	-31.3	-33.6	11.4	1.15e-03	0	43	102	1048576	23	4697
2026-01-04 09:40:27.13	34.35	45.84	-30.9	-32.5	12.2	5.71e-04	0	43	102	1048576	23	4306
2026-01-04 09:40:28.14	33.85	45.71	-30.7	-32.3	12.7	1.01e-04	0	43	102	1048576	22	4335
2026-01-04 09:40:29.14	33.35	45.57	-30.7	-32.2	12.8	5.72e-05	0	43	102	1048576	22	4294
2026-01-04 09:40:30.15	32.86	45.43	-31.1	-33.2	12.1	2.50e-04	0	43	102	1048576	22	4614
2026-01-04 09:40:31.15	32.37	45.29	-30.9	-32.7	12.4	1.98e-04	0	43	102	1048576	22	4441
2026-01-04 09:40:32.16	31.88	45.14	-30.9	-32.6	12.5	1.03e-04	0	43	102	1048576	22	4403
2026-01-04 09:40:33.16	31.40	45.00	-30.8	-32.4	12.7	6.63e-05	0	43	102	1048576	22	4320
2026-01-04 09:40:34.17	30.92	44.85	-31.2	-33.6	12.1	2.52e-04	0	43	102	1048576	22	4714
2026-01-04 09:40:35.18	30.45	44.71	-31.6	-34.2	11.2	5.53e-04	0	44	102	1048576	23	4845
2026-01-04 09:40:36.20	29.98	44.55	-31.9	-35.1	10.5	2.50e-03	0	43	102	1048576	23	5230
2026-01-04 09:40:37.20	29.52	44.40	-31.0	-32.4	12.4	4.37e-04	0	43	102	1048576	23	4215
2026-01-04 09:40:38.21	29.05	44.25	-30.5	-31.5	13.3	5.18e-05	0	43	102	1048576	22	4027
2026-01-04 09:40:39.22	28.60	44.09	-30.5	-31.6	13.2	1.83e-05	0	43	102	1048576	22	4077
2026-01-04 09:40:40.23	28.15	43.94	-31.3	-34.0	11.6	3.72e-04	0	43	102	1048576	22	4894
2026-01-04 09:40:41.24	27.70	43.78	-31.5	-34.1	11.2	1.26e-03	0	43	102	1048576	23	4819
2026-01-04 09:40:42.25	27.26	43.62	-31.1	-32.8	12.1	1.23e-03	0	43	102	1048576	23	4361
2026-01-04 09:40:43.26	26.82	43.46	-30.9	-32.5	12.6	7.70e-05	0	43	102	1048576	22	4356
2026-01-04 09:40:44.26	26.39	43.30	-30.6	-31.7	13.2	6.71e-05	0	44	102	1048576	22	4098
2026-01-04 09:40:45.26	25.96	43.14	-30.8	-32.4	12.7	5.56e-05	0	43	102	1048576	22	4301
2026-01-04 09:40:46.27	25.54	42.98	-30.5	-31.4	13.3	6.02e-05	0	43	102	1048576	22	4021
2026-01-04 09:40:47.28	25.12	42.81	-29.8	-30.3	14.3	2.20e-06	0	43	102	1048576	21	3779
2026-01-04 09:40:48.28	24.70	42.65	-29.6	-30.1	14.6	7.00e-07	0	44	102	1048576	20	3834
2026-01-04 09:40:49.29	24.29	42.48	-29.7	-30.5	14.5	0.00e+00	0	44	102	1048576	20	3922
2026-01-04 09:40:50.29	23.89	42.32	-30.2	-31.7	13.7	3.80e-06	0	43	102	1048576	20	4299
2026-01-04 09:40:51.30	23.48	42.15	-30.2	-31.8	13.7	4.50e-06	0	43	102	1048576	20	4307
2026-01-04 09:40:52.31	23.08	41.98	-30.3	-32.0	13.5	9.90e-06	0	43	102	1048576	20	4377
2026-01-04 09:40:53.32	22.69	41.81	-30.4	-32.3	13.4	1.75e-05	0	43	102	1048576	20	4485
2026-01-04 09:40:54.32	22.30	41.64	-30.5	-32.0	13.2	2.05e-05	0	43	102	1048576	21	4290
2026-01-04 09:40:55.33	21.91	41.47	-30.6	-32.4	12.8	2.05e-05	0	43	102	1048576	21	4429
2026-01-04 09:40:56.33	21.53	41.30	-31.0	-32.9	12.3	1.20e-04	0	44	102	1048576	22	4491
2026-01-04 09:40:57.34	21.16	41.13	-31.6	-34.4	10.9	1.41e-03	0	43	102	1048576	23	4954
2026-01-04 09:40:58.35	20.78	40.95	-31.6	-34.5	10.7	3.18e-03	0	44	102	1048576	23	5005
2026-01-04 09:40:59.35	20.41	40.78	-32.0	-35.8	9.8	3.25e-03	0	43	102	1048576	23	5595
2026-01-04 09:41:00.36	20.05	40.61	-31.9	-34.9	10.1	7.64e-03	0	43	102	1048576	24	5086
2026-01-04 09:41:01.36	19.69	40.44	-32.1	-35.5	9.6	7.54e-03	0	43	102	1048576	24	5366
2026-01-04 09:41:02.37	19.33	40.26	-31.6	-33.7	11.0	6.83e-03	0	43	102	1048576	24	4625
2026-01-04 09:41:03.38	18.97	40.08	-31.2	-33.1	11.7	1.03e-03	0	43	102	1048576	23	4478
2026-01-04 09:41:04.39	18.62	39.91	-31.1	-32.7	12.2	2.56e-04	0	43	102	1048576	23	4326
2026-01-04 09:41:05.39	18.28	39.73	-31.1	-32.8	12.0	3.30e-04	0	43	102	1048576	23	4382
2026-01-04 09:41:06.40	17.93	39.56	-31.3	-33.3	11.7	2.84e-04	0	43	102	1048576	23	4520
2026-01-04 09:41:07.40	17.60	39.38	-31.5	-34.0	11.2	7.45e-04	0	43	102	1048576	23	4809
2026-01-04 09:41:08.41	17.26	39.21	-31.7	-34.6	10.8	1.45e-03	0	43	102	1048576	23	5024
2026-01-04 09:41:09.43	16.93	39.03	-32.0	-35.2	9.9	4.80e-03	0	43	102	1048576	24	5215
2026-01-04 09:41:10.43	16.60	38.85	-31.7	-34.3	10.5	5.00e-03	0	43	102	1048576	24	4833
2026-01-04 09:41:11.44	16.27	38.67	-31.4	-33.2	11.4	1.88e-03	0	43	102	1048576	24	4402
2026-01-04 09:41:12.44	15.96	38.50	-31.4	-33.6	11.4	7.54e-04	0	43	102	1048576	23	4652
2026-01-04 09:41:13.45	15.64	38.32	-31.4	-33.5	11.5	7.83e-04	0	43	102	1048576	23	4629
2026-01-04 09:41:14.46	15.32	38.14	-31.9	-35.2	10.3	1.33e-03	0	43	102	1048576	23	5271
2026-01-04 09:41:15.46	15.02	37.97	-32.2	-35.9	9.4	6.07e-03	0	43	102	1048576	24	5527
2026-01-04 09:41:16.46	14.71	37.79	-32.6	-37.1	8.0	4.32e-02	0	44	102	1048576	25	6040
2026-01-04 09:41:17.47	14.41	37.61	-32.8	-37.7	7.5	8.36e-02	0	44	102	1048576	25	6377
2026-01-04 09:41:18.48	14.10	37.44	-32.7	-37.4	7.8	9.42e-02	0	43	102	1048576	25	6203
2026-01-04 09:41:19.48	13.81	37.26	-32.5	-36.7	8.5	6.05e-02	0	43	102	1048576	25	5810
2026-01-04 09:41:20.49	13.51	37.08	-32.7	-37.3	7.9	7.65e-02	0	43	102	1048576	25	6140
2026-01-04 09:41:21.50	13.22	36.90	-32.7	-37.5	7.8	5.95e-02	0	43	102	1048576	25	6221
2026-01-04 09:41:22.50	12.94	36.73	-33.2	-39.3	6.0	1.14e-01	0	44	102	1048576	26	7292
2026-01-04 09:41:23.51	12.65	36.55	-33.1	-38.6	6.6	1.93e-01	0	43	102	1048576	26	6794
2026-01-04 09:41:24.52	12.37	36.37	-32.5	-36.1	8.5	9.50e-02	0	43	102	1048576	26	5405
2026-01-04 09:41:25.53	12.09	36.20	-32.1	-34.9	9.7	1.49e-02	0	43	102	1048576	25	4990
2026-01-04 09:41:26.54	11.82	36.02	-31.7	-34.1	10.7	2.75e-03	0	43	102	1048576	24	4746
2026-01-04 09:41:27.55	11.54	35.84	-31.6	-33.6	11.0	1.17e-03	0	43	102	1048576	24	4547
2026-01-04 09:41:28.55	11.28	35.67	-31.6	-33.5	11.1	1.08e-03	0	43	102	1048576	24	4522
2026-01-04 09:41:29.56	11.01	35.49	-31.8	-34.1	10.8	1.80e-03	0	43	102	1048576	24	4743
2026-01-04 09:41:30.56	10.75	35.32	-31.8	-34.3	10.7	3.94e-03	0	43	102	1048576	24	4802
2026-01-04 09:41:31.57	10.49	35.14	-31.9	-34.8	10.3	2.95e-03	0	43	102	1048576	24	4990
2026-01-04 09:41:32.58	10.23	34.97	-32.0	-35.1	10.1	7.65e-03	0	43	102	1048576	24	5108
2026-01-04 09:41:33.59	9.97	34.79	-32.0	-35.0	10.1	6.62e-03	0	43	102	1048576	24	5092
2026-01-04 09:41:34.59	9.72	34.62	-32.2	-35.7	9.5	1.52e-02	0	43	102	1048576	24	5402
2026-01-04 09:41:35.60	9.47	34.45	-32.3	-36.1	9.3	1.34e-02	0	43	102	1048576	24	5590
2026-01-04 09:41:36.60	9.23	34.27	-32.4	-36.1	8.9	3.36e-02	0	43	102	1048576	25	5508
2026-01-04 09:41:37.61	8.98	34.10	-32.4	-36.0	8.9	3.07e-02	0	43	102	1048576	25	5450
2026-01-04 09:41:38.61	8.74	33.93	-32.5	-36.5	8.6	2.90e-02	0	43	102	1048576	25	5676
2026-01-04 09:41:39.62	8.50	33.76	-32.3	-35.7	9.1	2.96e-02	0	43	102	1048576	25	5335
2026-01-04 09:41:40.62	8.27	33.59	-32.6	-36.7	8.4	4.04e-02	0	44	102	1048576	25	5822
2026-01-04 09:41:41.62	8.03	33.42	-32.5	-36.4	8.6	5.75e-02	0	43	102	1048576	25	5634
2026-01-04 09:41:42.62	7.80	33.25	-32.2	-35.3	9.4	2.92e-02	0	43	102	1048576	25	5138
2026-01-04 09:41:43.63	7.58	33.08	-31.8	-34.2	10.7	9.78e-03	0	43	102	1048576	24	4770
2026-01-04 09:41:44.63	7.35	32.91	-31.6	-33.7	11.0	2.74e-03	0	43	102	1048576	24	4574
2026-01-04 09:41:45.64	7.13	32.74	-31.2	-33.0	11.9	1.16e-03	0	43	102	1048576	23	4410
2026-01-04 09:41:46.65	6.90	32.57	-31.3	-33.1	11.8	3.90e-04	0	43	102	1048576	23	4454
2026-01-04 09:41:47.66	6.68	32.40	-31.3	-33.4	11.7	5.33e-04	0	43	102	1048576	23	4555
2026-01-04 09:41:48.66	6.47	32.23	-31.8	-34.9	10.6	1.27e-03	0	43	102	1048576	23	5129
2026-01-04 09:41:49.67	6.25	32.06	-32.1	-35.6	9.6	1.40e-02	0	43	102	1048576	24	5333
2026-01-04 09:41:50.67	6.04	31.90	-32.8	-37.6	7.7	3.68e-02	0	43	102	1048576	25	6255
2026-01-04 09:41:51.68	5.83	31.73	-33.0	-38.0	7.1	1.54e-01	0	43	102	1048576	26	6415
2026-01-04 09:41:52.69	5.62	31.56	-33.0	-38.0	7.1	1.49e-01	0	43	102	1048576	26	6425
2026-01-04 09:41:53.69	5.42	31.40	-32.9	-37.4	7.4	1.25e-01	0	43	102	1048576	26	6074
2026-01-04 09:41:54.70	5.21	31.23	-32.6	-36.2	8.4	6.58e-02	0	43	102	1048576	26	5455
2026-01-04 09:41:55.71	5.01	31.07	-32.7	-36.4	8.2	5.92e-02	0	43	102	1048576	26	5538
2026-01-04 09:41:56.72	4.81	30.90	-32.8	-37.2	7.6	7.81e-02	0	43	102	1048576	26	5976
2026-01-04 09:41:57.73	4.61	30.74	-32.7	-36.6	8.1	1.00e-01	0	43	102	1048576	26	5660
2026-01-04 09:41:58.72	4.42	30.58	-32.8	-37.2	7.6	4.53e-02	0	43	102	1048576	26	5969
2026-01-04 09:41:59.73	4.22	30.41	-33.0	-38.0	7.1	1.38e-01	0	43	102	1048576	26	6382
2026-01-04 09:42:00.74	4.03	30.25	-33.2	-39.3	6.2	2.08e-01	0	43	102	1048576	26	7232
2026-01-04 09:42:01.75	3.84	30.09	-33.3	-39.9	5.7	3.97e-01	0	43	102	1048576	26	7663
2026-01-04 09:42:02.76	3.65	29.93	-33.5	-40.5	5.1	5.72e-01	0	43	102	1048576	27	8113
2026-01-04 09:42:03.77	3.47	29.77	-33.4	-40.2	5.2	6.08e-01	0	44	102	1048576	27	7871
2026-01-04 09:42:04.78	3.28	29.61	-33.2	-39.0	5.9	4.73e-01	0	43	102	1048576	27	6952
2026-01-04 09:42:05.78	3.10	29.45	-32.7	-36.9	7.7	1.93e-01	0	43	102	1048576	26	5845
2026-01-04 09:42:06.79	2.92	29.29	-32.3	-35.3	9.0	3.53e-02	0	43	102	1048576	26	5059
2026-01-04 09:42:07.80	2.74	29.13	-32.1	-34.9	9.7	1.24e-02	0	43	102	1048576	25	4974
2026-01-04 09:42:08.81	2.56	28.97	-31.6	-33.9	10.7	4.36e-03	0	43	102	1048576	24	4694
2026-01-04 09:42:09.82	2.39	28.82	-31.5	-33.6	11.0	2.02e-03	0	43	102	1048576	24	4556
2026-01-04 09:42:10.82	2.21	28.66	-31.5	-33.4	11.1	1.77e-03	0	43	102	1048576	24	4484
2026-01-04 09:42:11.84	2.04	28.50	-31.4	-33.2	11.3	1.12e-03	0	43	102	1048576	24	4409
2026-01-04 09:42:12.84	1.87	28.35	-31.3	-33.2	11.6	8.32e-04	0	43	102	1048576	23	4519
2026-01-04 09:42:13.85	1.70	28.19	-31.2	-33.0	11.7	5.95e-04	0	43	102	1048576	23	4451
2026-01-04 09:42:14.85	1.54	28.04	-31.0	-32.4	12.1	2.95e-04	0	43	102	1048576	23	4240
2026-01-04 09:42:15.86	1.37	27.89	-30.8	-32.3	12.5	9.46e-05	0	43	102	1048576	22	4309
2026-01-04 09:42:16.87	1.21	27.73	-30.7	-32.2	12.6	8.16e-05	0	43	102	1048576	22	4254
2026-01-04 09:42:17.88	1.05	27.58	-30.5	-31.7	13.0	4.19e-05	0	43	102	1048576	22	4094
2026-01-04 09:42:18.88	0.89	27.43	-30.7	-32.1	12.7	5.18e-05	0	43	102	1048576	22	4245
2026-01-04 09:42:19.89	0.73	27.28	-30.6	-31.8	12.9	5.34e-05	0	43	102	1048576	22	4134
2026-01-04 09:42:20.89	0.57	27.13	-30.7	-32.0	12.8	4.73e-05	0	44	102	1048576	22	4201
2026-01-04 09:42:21.90	0.41	26.98	-30.8	-32.5	12.5	1.01e-04	0	43	102	1048576	22	4350
2026-01-04 09:42:22.90	0.26	26.83	-31.1	-33.4	11.8	3.77e-04	0	43	102	1048576	22	4686
2026-01-04 09:42:23.90	0.11	26.68	-31.6	-34.4	10.7	1.54e-03	0	43	102	1048576	23	4987
2026-01-04 09:42:24.91	359.96	26.53	-32.0	-35.4	9.5	6.00e-03	0	43	102	1048576	24	5324
2026-01-04 09:42:25.92	359.81	26.39	-32.3	-36.4	8.8	2.54e-02	0	43	102	1048576	24	5768
2026-01-04 09:42:26.92	359.66	26.24	-32.1	-35.8	9.3	2.07e-02	0	43	102	1048576	24	5473
2026-01-04 09:42:27.93	359.51	26.09	-32.1	-35.4	9.5	2.72e-02	0	43	102	1048576	24	5312
2026-01-04 09:42:28.93	359.37	25.95	-31.8	-34.6	10.1	9.89e-03	0	43	102	1048576	24	4976
2026-01-04 09:42:29.94	359.22	25.80	-31.7	-34.3	10.4	5.47e-03	0	43	102	1048576	24	4833
2026-01-04 09:42:30.94	359.08	25.66	-31.7	-34.1	10.6	3.64e-03	0	44	102	1048576	24	4744
2026-01-04 09:42:31.95	358.94	25.52	-31.7	-34.3	10.4	3.52e-03	0	43	102	1048576	24	4834
2026-01-04 09:42:32.96	358.80	25.37	-31.3	-33.1	11.3	1.39e-03	0	43	102	1048576	24	4384
2026-01-04 09:42:33.97	358.66	25.23	-31.3	-33.4	11.5	8.39e-04	0	43	102	1048576	23	4562
2026-01-04 09:42:34.98	358.52	25.09	-30.9	-32.1	12.3	4.40e-04	0	43	102	1048576	23	4131
2026-01-04 09:42:35.98	358.39	24.94	-30.6	-31.9	12.8	7.55e-05	0	43	102	1048576	22	4167
2026-01-04 09:42:36.99	358.25	24.80	-30.5	-31.4	13.1	4.04e-05	0	44	102	1048576	22	4031
2026-01-04 09:42:38.00	358.12	24.66	-30.6	-31.8	12.9	2.51e-05	0	44	102	1048576	22	4136
2026-01-04 09:42:39.00	357.98	24.52	-30.4	-31.3	13.2	3.96e-05	0	43	102	1048576	22	3977
2026-01-04 09:42:40.02	357.85	24.38	-30.9	-32.8	12.2	1.11e-04	0	43	102	1048576	22	4462
2026-01-04 09:42:41.02	357.72	24.24	-31.0	-33.0	12.0	2.39e-04	0	43	102	1048576	22	4528
2026-01-04 09:42:42.03	357.59	24.11	-31.4	-34.2	11.2	6.00e-04	0	43	102	1048576	22	4959
2026-01-04 09:42:43.03	357.46	23.97	-31.4	-34.3	11.1	1.54e-03	0	43	102	1048576	22	5005
2026-01-04 09:42:44.03	357.34	23.83	-31.6	-34.4	10.6	2.42e-03	0	43	102	1048576	23	4961
2026-01-04 09:42:45.04	357.21	23.70	-31.4	-33.7	11.1	2.63e-03	0	43	102	1048576	23	4689
2026-01-04 09:42:46.03	357.09	23.56	-31.3	-33.4	11.3	1.46e-03	0	43	102	1048576	23	4604
2026-01-04 09:42:47.04	356.97	23.43	-31.2	-33.0	11.6	7.81e-04	0	43	102	1048576	23	4462
2026-01-04 09:42:48.04	356.84	23.29	-31.1	-32.8	11.8	5.79e-04	0	43	102	1048576	23	4383
2026-01-04 09:42:49.05	356.72	23.16	-31.2	-33.0	11.6	4.77e-04	0	43	102	1048576	23	4455
2026-01-04 09:42:50.06	356.60	23.02	-31.3	-33.3	11.4	7.48e-04	0	43	102	1048576	23	4562
2026-01-04 09:42:51.06	356.48	22.89	-31.3	-33.6	11.2	1.09e-03	0	44	102	1048576	23	4660
2026-01-04 09:42:52.07	356.36	22.76	-31.1	-32.7	11.8	8.90e-04	0	43	102	1048576	23	4367
2026-01-04 09:42:53.08	356.25	22.63	-30.8	-32.5	12.3	2.46e-04	0	43	102	1048576	22	4363
2026-01-04 09:42:54.08	356.13	22.49	-30.8	-32.4	12.4	1.64e-04	0	43	102	1048576	22	4352
2026-01-04 09:42:55.09	356.02	22.36	-30.7	-32.2	12.5	1.11e-04	0	44	102	1048576	22	4276
2026-01-04 09:42:56.10	355.90	22.23	-30.8	-32.6	12.2	1.85e-04	0	44	102	1048576	22	4395
2026-01-04 09:42:57.10	355.79	22.10	-30.8	-32.4	12.4	1.59e-04	0	43	102	1048576	22	4340
2026-01-04 09:42:58.11	355.68	21.97	-30.9	-32.8	12.1	1.65e-04	0	43	102	1048576	22	4453
2026-01-04 09:42:59.12	355.56	21.84	-31.3	-33.9	11.3	4.47e-04	0	43	102	1048576	22	4857
2026-01-04 09:43:00.13	355.45	21.72	-31.2	-33.5	11.6	7.57e-04	0	43	102	1048576	22	4716
2026-01-04 09:43:01.13	355.35	21.59	-31.2	-33.6	11.6	8.71e-04	0	43	102	1048576	22	4737
2026-01-04 09:43:02.14	355.24	21.46	-31.1	-33.5	11.6	6.59e-04	0	43	102	1048576	22	4716
2026-01-04 09:43:03.15	355.13	21.33	-31.3	-33.9	11.4	9.28e-04	0	43	102	1048576	22	4854
2026-01-04 09:43:04.15	355.02	21.21	-31.4	-34.2	11.1	1.32e-03	0	44	102	1048576	22	4978
2026-01-04 09:43:05.16	354.92	21.08	-31.3	-33.9	11.3	1.26e-03	0	43	102	1048576	22	4891
2026-01-04 09:43:06.16	354.81	20.96	-31.2	-33.8	11.4	1.17e-03	0	43	102	1048576	22	4823
2026-01-04 09:43:07.16	354.71	20.84	-31.1	-33.4	11.7	6.56e-04	0	43	102	1048576	22	4669
2026-01-04 09:43:08.17	354.61	20.71	-30.9	-32.9	12.0	3.41e-04	0	43	102	1048576	22	4513
2026-01-04 09:43:09.17	354.50	20.59	-30.9	-32.7	12.0	3.22e-03	0	44	102	1048576	22	4452
2026-01-04 09:43:10.18	354.40	20.46	-30.9	-32.7	12.0	1.61e-03	0	43	102	1048576	22	4458
2026-01-04 09:43:11.18	354.30	20.34	-30.8	-32.4	12.2	1.14e-03	0	43	102	1048576	22	4362
2026-01-04 09:43:12.19	354.20	20.22	-30.9	-32.8	11.9	1.28e-03	0	43	102	1048576	22	4496
2026-01-04 09:43:13.20	354.10	20.10	-31.1	-33.4	11.4	2.39e-03	0	43	102	1048576	22	4719
2026-01-04 09:43:14.20	354.01	19.98	-31.0	-33.3	11.7	1.22e-03	0	43	102	1048576	22	4665
2026-01-04 09:43:15.21	353.91	19.86	-31.0	-33.1	11.7	1.91e-03	0	43	102	1048576	22	4599
2026-01-04 09:43:16.21	353.81	19.74	-31.1	-33.4	11.5	1.57e-03	0	43	102	1048576	22	4714
2026-01-04 09:43:17.21	353.72	19.62	-31.0	-33.1	11.6	3.81e-03	0	43	102	1048576	22	4618
2026-01-04 09:43:18.22	353.62	19.50	-31.0	-33.2	11.7	1.44e-03	0	44	102	1048576	22	4648
2026-01-04 09:43:19.22	353.53	19.38	-31.1	-33.5	11.5	6.99e-04	0	43	102	1048576	22	4754
2026-01-04 09:43:20.23	353.43	19.26	-31.1	-33.4	11.5	7.78e-04	0	43	102	1048576	22	4692
2026-01-04 09:43:21.24	353.34	19.15	-31.3	-34.0	11.1	1.45e-03	0	43	102	1048576	22	4950
2026-01-04 09:43:22.24	353.25	19.03	-30.9	-32.9	11.9	1.12e-03	0	43	102	1048576	22	4523
2026-01-04 09:43:23.25	353.16	18.91	-30.8	-32.6	12.1	2.69e-04	0	43	102	1048576	22	4442
2026-01-04 09:43:24.26	353.07	18.80	-30.7	-32.4	12.2	2.43e-04	0	43	102	1048576	22	4343
2026-01-04 09:43:25.26	352.98	18.68	-30.7	-32.2	12.4	2.25e-04	0	43	102	1048576	22	4286
2026-01-04 09:43:26.26	352.89	18.57	-30.5	-31.6	12.7	9.38e-05	0	43	102	1048576	22	4117
2026-01-04 09:43:27.27	352.80	18.45	-30.5	-31.8	12.6	9.99e-05	0	43	102	1048576	22	4172
2026-01-04 09:43:28.28	352.71	18.34	-30.6	-32.0	12.5	1.23e-04	0	43	102	1048576	22	4234
2026-01-04 09:43:29.28	352.63	18.22	-30.1	-31.4	12.7	1.44e-02	0	43	102	1048576	21	4160
2026-01-04 09:43:30.29	352.54	18.11	-29.9	-31.0	13.0	1.31e-02	0	43	102	1048576	21	4047
2026-01-04 09:43:31.29	352.46	18.00	-29.8	-30.5	13.3	1.09e-02	0	43	102	1048576	21	3911
2026-01-04 09:43:32.30	352.37	17.88	-29.7	-30.8	13.5	1.19e-02	0	43	102	1048576	20	4073
2026-01-04 09:43:33.30	352.29	17.77	-29.8	-31.0	13.2	9.95e-03	0	43	102	1048576	20	4160
2026-01-04 09:43:34.31	352.20	17.66	-29.8	-30.9	13.3	1.31e-02	0	43	102	1048576	20	4127
2026-01-04 09:43:35.32	352.12	17.55	-29.8	-31.1	13.2	1.39e-02	0	43	102	1048576	20	4193
2026-01-04 09:43:36.32	352.04	17.44	-29.9	-31.4	13.0	1.38e-02	0	43	102	1048576	20	4280
2026-01-04 09:43:37.33	351.96	17.33	-29.9	-31.6	12.9	1.42e-02	0	43	102	1048576	20	4334
2026-01-04 09:43:38.34	351.87	17.22	-30.1	-32.0	12.6	1.39e-02	0	43	102	1048576	20	4481
2026-01-04 09:43:39.35	351.79	17.11	-30.2	-32.3	12.4	1.45e-02	0	43	102	1048576	20	4607
2026-01-04 09:43:40.35	351.71	17.00	-30.3	-32.8	12.1	1.43e-02	0	44	102	1048576	20	4766
2026-01-04 09:43:41.35	351.63	16.89	-30.5	-32.6	11.8	1.41e-02	0	43	102	1048576	21	4624
2026-01-04 09:43:42.36	351.56	16.78	-30.8	-33.6	11.2	1.44e-02	0	43	102	1048576	21	4982
2026-01-04 09:43:43.37	351.48	16.67	-30.9	-34.0	10.9	1.51e-02	0	43	102	1048576	21	5162
2026-01-04 09:43:44.38	351.40	16.57	-31.1	-33.9	10.7	1.59e-02	0	43	102	1048576	22	4984
2026-01-04 09:43:45.38	351.32	16.46	-31.2	-34.4	10.4	1.70e-02	0	43	102	1048576	22	5209
2026-01-04 09:43:46.39	351.25	16.35	-31.5	-34.3	10.3	1.73e-02	0	43	102	1048576	23	5001
2026-01-04 09:43:47.40	351.17	16.25	-31.6	-34.8	10.0	7.19e-03	0	43	102	1048576	23	5173
2026-01-04 09:43:48.40	351.10	16.14	-31.7	-35.0	9.8	9.42e-03	0	43	102	1048576	23	5263
2026-01-04 09:43:49.41	351.02	16.04	-31.8	-35.4	9.5	1.34e-02	0	43	102	1048576	23	5472
2026-01-04 09:43:50.42	350.95	15.93	-31.8	-35.4	9.5	1.67e-02	0	43	102	1048576	23	5478
2026-01-04 09:43:51.42	350.87	15.83	-31.6	-34.7	10.0	1.10e-02	0	43	102	1048576	23	5154
2026-01-04 09:43:52.43	350.80	15.72	-31.6	-34.8	9.9	8.95e-03	0	43	102	1048576	23	5208
2026-01-04 09:43:53.44	350.73	15.62	-31.6	-34.7	10.1	6.41e-03	0	44	102	1048576	23	5140
2026-01-04 09:43:54.44	350.66	15.52	-31.5	-34.4	10.2	5.15e-03	0	43	102	1048576	23	5054
2026-01-04 09:43:55.45	350.58	15.41	-31.5	-34.4	10.2	5.81e-03	0	43	102	1048576	23	5034
2026-01-04 09:43:56.46	350.51	15.31	-31.5	-34.4	10.3	6.38e-03	0	43	102	1048576	23	5023
2026-01-04 09:43:57.47	350.44	15.21	-31.3	-33.9	10.6	4.97e-03	0	43	102	1048576	23	4853
2026-01-04 09:43:58.47	350.37	15.11	-31.1	-33.3	10.9	2.74e-03	0	44	102	1048576	23	4625
2026-01-04 09:43:59.48	350.30	15.00	-31.1	-33.4	10.8	7.50e-03	0	44	102	1048576	23	4650
2026-01-04 09:44:00.49	350.23	14.90	-31.1	-33.3	10.8	6.56e-03	0	43	102	1048576	23	4630
2026-01-04 09:44:01.50	350.16	14.80	-31.0	-33.0	11.1	3.47e-03	0	43	102	1048576	23	4520
2026-01-04 09:44:02.50	350.10	14.70	-31.2	-33.5	10.7	4.39e-03	0	43	102	1048576	23	4703
2026-01-04 09:44:03.51	350.03	14.60	-31.2	-33.6	10.6	5.28e-03	0	43	102	1048576	23	4732
2026-01-04 09:44:04.52	349.96	14.50	-31.1	-33.3	10.9	4.45e-03	0	43	102	1048576	23	4613
2026-01-04 09:44:05.53	349.89	14.40	-31.1	-33.2	11.0	2.01e-03	0	43	102	1048576	23	4597
2026-01-04 09:44:06.53	349.83	14.31	-31.1	-33.4	10.9	2.79e-03	0	43	102	1048576	23	4647
2026-01-04 09:44:07.54	349.76	14.21	-31.0	-33.0	10.9	3.06e-03	0	43	102	1048576	23	4509
2026-01-04 09:44:08.55	349.70	14.11	-31.2	-33.4	10.9	2.04e-03	0	43	102	1048576	23	4650
2026-01-04 09:44:09.56	349.63	14.01	-31.2	-33.5	10.8	2.71e-03	0	43	102	1048576	23	4692
2026-01-04 09:44:10.56	349.57	13.91	-31.1	-33.3	10.9	2.47e-03	0	43	102	1048576	23	4631
2026-01-04 09:44:11.57	349.50	13.82	-31.2	-33.4	10.8	2.03e-03	0	43	102	1048576	23	4678
2026-01-04 09:44:12.58	349.44	13.72	-31.2	-33.4	10.8	2.61e-03	0	43	102	1048576	23	4668
2026-01-04 09:44:13.59	349.38	13.62	-31.1	-33.2	11.0	1.61e-03	0	43	102	1048576	23	4572
2026-01-04 09:44:14.59	349.32	13.53	-31.1	-33.3	10.9	2.01e-03	0	43	102	1048576	23	4639
2026-01-04 09:44:15.59	349.25	13.43	-31.1	-33.3	10.7	2.13e-03	0	43	102	1048576	23	4640
2026-01-04 09:44:16.59	349.19	13.34	-31.1	-33.3	10.9	2.66e-03	0	43	102	1048576	23	4633
2026-01-04 09:44:17.60	349.13	13.24	-31.0	-33.0	11.1	1.88e-03	0	43	102	1048576	23	4506
2026-01-04 09:44:18.60	349.07	13.15	-31.0	-32.8	11.3	1.56e-03	0	43	102	1048576	23	4441
2026-01-04 09:44:19.61	349.01	13.05	-30.9	-32.6	11.4	1.16e-03	0	43	102	1048576	23	4358
2026-01-04 09:44:20.62	348.95	12.96	-30.9	-32.6	11.4	1.20e-03	0	43	102	1048576	23	4375
2026-01-04 09:44:21.63	348.89	12.87	-31.0	-32.8	11.2	1.31e-03	0	43	102	1048576	23	4462
2026-01-04 09:44:22.64	348.83	12.77	-30.9	-32.6	11.4	8.41e-04	0	43	102	1048576	23	4373
2026-01-04 09:44:23.64	348.77	12.68	-31.1	-33.2	11.0	1.05e-03	0	44	102	1048576	23	4577
2026-01-04 09:44:24.66	348.71	12.59	-31.1	-33.2	10.9	2.30e-03	0	43	102	1048576	23	4593
2026-01-04 09:44:25.66	348.66	12.49	-31.1	-33.2	10.9	2.03e-03	0	43	102	1048576	23	4590
2026-01-04 09:44:26.66	348.60	12.40	-31.2	-33.5	10.7	2.67e-03	0	43	102	1048576	23	4713
2026-01-04 09:44:27.67	348.54	12.31	-31.2	-33.6	10.7	3.18e-03	0	43	102	1048576	23	4741
2026-01-04 09:44:28.69	348.48	12.22	-31.2	-33.8	10.5	4.05e-03	0	43	102	1048576	23	4802
2026-01-04 09:44:29.69	348.43	12.13	-31.3	-34.0	10.3	4.44e-03	0	43	102	1048576	23	4899
2026-01-04 09:44:30.70	348.37	12.04	-31.4	-34.2	10.1	5.28e-03	0	44	102	1048576	23	4980
2026-01-04 09:44:31.70	348.32	11.95	-31.5	-34.6	9.8	7.95e-03	0	43	102	1048576	23	5178
2026-01-04 09:44:32.71	348.26	11.86	-31.5	-34.5	9.9	9.22e-03	0	44	102	1048576	23	5106
2026-01-04 09:44:33.72	348.20	11.77	-31.5	-34.8	9.7	1.06e-02	0	43	102	1048576	23	5233
2026-01-04 09:44:34.72	348.15	11.68	-31.6	-35.0	9.5	1.17e-02	0	44	102	1048576	23	5335
2026-01-04 09:44:35.74	348.10	11.59	-31.6	-34.9	9.6	1.45e-02	0	43	102	1048576	23	5308
2026-01-04 09:44:36.74	348.04	11.50	-31.5	-34.9	9.6	1.27e-02	0	43	102	1048576	23	5274
2026-01-04 09:44:37.74	347.99	11.41	-31.6	-35.1	9.4	1.36e-02	0	43	102	1048576	23	5400
2026-01-04 09:44:38.75	347.93	11.32	-31.6	-35.0	9.5	1.74e-02	0	43	102	1048576	23	5332
2026-01-04 09:44:39.76	347.88	11.23	-31.5	-34.6	9.7	1.12e-02	0	43	102	1048576	23	5175
2026-01-04 09:44:40.77	347.83	11.14	-31.5	-34.7	9.7	9.79e-03	0	44	102	1048576	23	5207
2026-01-04 09:44:41.77	347.78	11.06	-31.6	-34.9	9.6	1.38e-02	0	43	102	1048576	23	5289
2026-01-04 09:44:42.78	347.72	10.97	-31.3	-34.1	10.2	8.29e-03	0	43	102	1048576	23	4957
2026-01-04 09:44:43.78	347.67	10.88	-31.4	-34.4	9.9	7.10e-03	0	43	102	1048576	23	5097
2026-01-04 09:44:44.79	347.62	10.80	-31.3	-34.0	10.2	7.74e-03	0	43	102	1048576	23	4918
2026-01-04 09:44:45.79	347.57	10.71	-31.1	-33.5	10.6	3.49e-03	0	43	102	1048576	23	4730
2026-01-04 09:44:46.79	347.52	10.63	-31.2	-33.6	10.5	4.05e-03	0	43	102	1048576	23	4758
2026-01-04 09:44:47.79	347.47	10.54	-31.2	-33.6	10.5	4.51e-03	0	44	102	1048576	23	4765
2026-01-04 09:44:48.79	347.42	10.46	-31.0	-33.2	10.8	3.03e-03	0	43	102	1048576	23	4592
2026-01-04 09:44:49.80	347.37	10.37	-31.0	-33.2	10.8	2.33e-03	0	43	102	1048576	23	4600
2026-01-04 09:44:50.80	347.32	10.29	-30.9	-32.8	11.0	2.87e-03	0	43	102	1048576	23	4482
2026-01-04 09:44:51.81	347.27	10.20	-30.9	-32.8	11.0	1.97e-03	0	43	102	1048576	23	4466
2026-01-04 09:44:52.81	347.23	10.12	-30.9	-32.8	11.0	1.61e-03	0	44	102	1048576	23	4477
2026-01-04 09:44:53.82	347.18	10.03	-31.0	-33.0	10.8	1.73e-03	0	43	102	1048576	23	4560
2026-01-04 09:44:54.83	347.13	9.95	-30.9	-32.7	11.1	1.92e-03	0	44	102	1048576	23	4440
2026-01-04 09:44:55.83	347.08	9.86	-31.0	-33.0	10.8	2.23e-03	0	43	102	1048576	23	4556
2026-01-04 09:44:56.84	347.03	9.78	-30.9	-32.9	10.9	2.16e-03	0	43	102	1048576	23	4529
2026-01-04 09:44:57.84	346.99	9.70	-30.9	-32.7	11.0	2.04e-03	0	43	102	1048576	23	4451
2026-01-04 09:44:58.85	346.94	9.62	-31.1	-33.4	10.5	3.72e-03	0	43	102	1048576	23	4692
2026-01-04 09:44:59.85	346.89	9.53	-31.0	-33.1	10.7	3.61e-03	0	44	102	1048576	23	4608
2026-01-04 09:45:00.86	346.85	9.45	-31.1	-33.4	10.5	3.19e-03	0	43	102	1048576	23	4715
2026-01-04 09:45:01.86	346.80	9.37	-31.1	-33.4	10.4	4.05e-03	0	43	102	1048576	23	4724
2026-01-04 09:45:02.87	346.75	9.29	-31.2	-33.7	10.2	4.89e-03	0	44	102	1048576	23	4841
2026-01-04 09:45:03.88	346.71	9.20	-31.3	-34.2	9.9	6.93e-03	0	43	102	1048576	23	5019
2026-01-04 09:45:04.88	346.66	9.12	-31.2	-33.9	10.1	7.90e-03	0	43	102	1048576	23	4902
2026-01-04 09:45:05.89	346.62	9.04	-31.2	-34.0	9.9	7.66e-03	0	43	102	1048576	23	4942
2026-01-04 09:45:06.89	346.57	8.96	-31.2	-34.0	9.9	8.00e-03	0	43	102	1048576	23	4960
2026-01-04 09:45:07.90	346.53	8.88	-31.2	-34.0	9.9	8.78e-03	0	43	102	1048576	23	4946
2026-01-04 09:45:08.90	346.49	8.80	-31.3	-34.2	9.7	1.05e-02	0	43	102	1048576	23	5080
2026-01-04 09:45:09.90	346.44	8.72	-31.2	-34.0	9.8	1.41e-02	0	43	102	1048576	23	4957
2026-01-04 09:45:10.91	346.40	8.64	-31.2	-34.2	9.6	1.12e-02	0	44	102	1048576	23	5082
2026-01-04 09:45:11.92	346.35	8.56	-31.2	-34.1	9.7	1.62e-02	0	43	102	1048576	23	5014
2026-01-04 09:45:12.92	346.31	8.48	-31.1	-33.8	9.9	1.16e-02	0	43	102	1048576	23	4919
2026-01-04 09:45:13.93	346.27	8.40	-31.0	-33.5	10.1	9.18e-03	0	43	102	1048576	23	4794
2026-01-04 09:45:14.93	346.23	8.32	-31.1	-33.9	9.9	9.07e-03	0	43	102	1048576	23	4948
2026-01-04 09:45:15.94	346.18	8.25	-31.1	-34.0	9.7	1.29e-02	0	43	102	1048576	23	5027
2026-01-04 09:45:16.94	346.14	8.17	-31.1	-33.9	9.8	1.53e-02	0	44	102	1048576	23	4961
2026-01-04 09:45:17.95	346.10	8.09	-31.1	-34.0	9.7	1.02e-02	0	44	102	1048576	23	5021
2026-01-04 09:45:18.96	346.06	8.01	-31.2	-34.4	9.3	1.42e-02	0	43	102	1048576	23	5182
2026-01-04 09:45:19.96	346.02	7.93	-31.1	-34.0	9.7	1.13e-02	0	44	102	1048576	23	5014
2026-01-04 09:45:20.97	345.98	7.86	-31.1	-34.2	9.5	1.22e-02	0	44	102	1048576	23	5132
2026-01-04 09:45:21.98	345.93	7.78	-31.4	-34.7	9.2	1.41e-02	0	44	102	1048576	23	5292
2026-01-04 09:45:22.98	345.89	7.70	-31.2	-34.1	9.7	1.25e-02	0	43	102	1048576	23	5034
2026-01-04 09:45:23.98	345.85	7.62	-31.2	-34.1	9.7	1.18e-02	0	43	102	1048576	23	5036
2026-01-04 09:45:24.99	345.81	7.55	-31.2	-34.1	9.7	1.20e-02	0	44	102	1048576	23	5034
2026-01-04 09:45:25.99	345.77	7.47	-31.3	-34.6	9.3	1.80e-02	0	43	102	1048576	23	5251
2026-01-04 09:45:27.00	345.73	7.39	-31.4	-34.7	9.3	1.58e-02	0	43	102	1048576	23	5271
2026-01-04 09:45:28.00	345.70	7.32	-31.2	-34.3	9.5	1.39e-02	0	43	102	1048576	23	5113
2026-01-04 09:45:29.01	345.66	7.24	-31.4	-34.8	9.2	1.93e-02	0	44	102	1048576	23	5336
