passes_logs/2026/01/04/R2M6_AANII_01/R2M6_AANII_01__20260104_090447_NOAA_21_JPSS-2_rec.log

#Pass ID: 20260104_090447_NOAA 21 (JPSS-2)
#Satellite: NOAA 21 (JPSS-2)
#Configuration: NOAA 21
#almurnet v.1.7.20240730
#Start time: 2026-01-04 09:04:47

#Version: 2.2.20231116
#Station: R2M6_AANII_01
#Location: 30.233357 lon 59.946436 lat
#TLE: 1 54234U 22150A   26003.45311712  .00000198  00000+0  11468-3 0  9993
#TLE: 2 54234  98.7487 304.4932 0001159 347.5017  12.6130 14.19531745163172

#Time	Az	El	Level	Level2	SNR	BER	BlckErr	Temp	State	Recorded	gain1	gain2
2026-01-04 09:04:47.68	121.95	7.04	-31.2	-36.1	4.5	1.42e+00	0	41	0	0	23	6387
2026-01-04 09:04:48.69	121.89	7.11	-31.1	-35.8	4.6	1.41e+00	0	41	104	0	23	6232
2026-01-04 09:04:49.70	121.83	7.18	-30.9	-34.6	8.3	5.82e-02	0	41	0	0	23	5471
2026-01-04 09:04:50.70	121.77	7.26	-30.9	-34.5	8.4	4.70e-02	0	41	102	1048576	23	5430
2026-01-04 09:04:51.72	121.70	7.33	-31.0	-34.9	8.0	6.19e-02	0	41	102	1048576	23	5625
2026-01-04 09:04:52.72	121.64	7.40	-31.0	-34.8	8.2	5.83e-02	0	41	102	1048576	23	5559
2026-01-04 09:04:53.73	121.58	7.48	-30.9	-34.4	8.5	4.59e-02	0	41	102	1048576	23	5371
2026-01-04 09:04:54.74	121.52	7.55	-30.8	-34.1	8.6	3.91e-02	0	41	102	1048576	23	5263
2026-01-04 09:04:55.75	121.45	7.62	-30.8	-34.2	8.6	3.75e-02	0	41	102	1048576	23	5300
2026-01-04 09:04:56.75	121.39	7.70	-30.8	-34.0	8.8	3.46e-02	0	41	102	1048576	23	5218
2026-01-04 09:04:57.75	121.33	7.77	-30.5	-33.6	9.4	2.02e-02	0	41	102	1048576	22	5152
2026-01-04 09:04:58.75	121.26	7.84	-30.1	-33.0	10.2	7.75e-03	0	41	102	1048576	21	5026
2026-01-04 09:04:59.76	121.20	7.92	-29.8	-32.2	10.8	2.85e-03	0	41	102	1048576	21	4712
2026-01-04 09:05:00.77	121.13	7.99	-29.5	-31.8	11.4	1.55e-03	0	41	102	1048576	20	4685
2026-01-04 09:05:01.78	121.07	8.07	-29.3	-31.7	11.9	5.70e-04	0	41	102	1048576	19	4748
2026-01-04 09:05:02.78	121.00	8.14	-29.4	-31.9	11.7	4.50e-04	0	41	102	1048576	19	4806
2026-01-04 09:05:03.78	120.94	8.22	-29.3	-31.6	11.9	4.49e-04	0	41	102	1048576	19	4715
2026-01-04 09:05:04.79	120.87	8.29	-29.2	-31.5	12.0	2.96e-04	0	41	102	1048576	19	4653
2026-01-04 09:05:05.79	120.80	8.37	-29.3	-31.6	12.0	3.31e-04	0	41	102	1048576	19	4690
2026-01-04 09:05:06.80	120.74	8.45	-29.2	-31.3	12.2	2.72e-04	0	42	102	1048576	19	4591
2026-01-04 09:05:07.80	120.67	8.52	-29.1	-31.2	12.2	2.10e-04	0	41	102	1048576	19	4568
2026-01-04 09:05:08.81	120.60	8.60	-29.2	-31.3	12.2	2.37e-04	0	41	102	1048576	19	4613
2026-01-04 09:05:09.82	120.53	8.67	-29.3	-31.6	12.0	2.75e-04	0	41	102	1048576	19	4681
2026-01-04 09:05:10.83	120.46	8.75	-29.3	-31.7	11.9	3.31e-04	0	41	102	1048576	19	4736
2026-01-04 09:05:11.83	120.39	8.83	-29.2	-31.3	12.2	3.90e-04	0	41	102	1048576	19	4606
2026-01-04 09:05:12.83	120.33	8.90	-29.0	-30.8	12.5	1.51e-04	0	41	102	1048576	19	4456
2026-01-04 09:05:13.84	120.26	8.98	-29.0	-30.7	12.6	1.23e-04	0	42	102	1048576	19	4410
2026-01-04 09:05:14.85	120.19	9.06	-29.0	-30.8	12.6	9.23e-05	0	42	102	1048576	19	4439
2026-01-04 09:05:15.86	120.12	9.14	-29.1	-31.1	12.3	1.65e-04	0	42	102	1048576	19	4545
2026-01-04 09:05:16.87	120.04	9.22	-29.1	-31.1	12.4	1.50e-04	0	41	102	1048576	19	4529
2026-01-04 09:05:17.88	119.97	9.29	-29.1	-31.2	12.3	1.94e-04	0	42	102	1048576	19	4553
2026-01-04 09:05:18.89	119.90	9.37	-29.1	-31.2	12.4	1.52e-04	0	42	102	1048576	19	4554
2026-01-04 09:05:19.89	119.83	9.45	-29.1	-31.1	12.4	1.54e-04	0	42	102	1048576	19	4533
2026-01-04 09:05:20.90	119.76	9.53	-29.2	-31.4	12.2	1.81e-04	0	42	102	1048576	19	4619
2026-01-04 09:05:21.91	119.68	9.61	-29.0	-30.9	12.5	1.33e-04	0	42	102	1048576	19	4477
2026-01-04 09:05:22.92	119.61	9.69	-29.3	-31.5	12.1	1.83e-04	0	42	102	1048576	19	4669
2026-01-04 09:05:23.92	119.54	9.77	-29.0	-30.9	12.6	1.07e-04	0	42	102	1048576	19	4459
2026-01-04 09:05:24.93	119.46	9.85	-28.9	-30.5	12.8	7.32e-05	0	42	102	1048576	19	4338
2026-01-04 09:05:25.94	119.39	9.93	-28.8	-30.3	13.0	4.80e-05	0	42	102	1048576	19	4268
2026-01-04 09:05:26.95	119.31	10.01	-28.7	-30.6	13.1	2.89e-05	0	42	102	1048576	18	4476
2026-01-04 09:05:27.96	119.24	10.09	-28.7	-30.6	13.1	2.97e-05	0	42	102	1048576	18	4471
2026-01-04 09:05:28.97	119.16	10.17	-28.7	-30.6	13.1	2.59e-05	0	42	102	1048576	18	4457
2026-01-04 09:05:29.98	119.08	10.25	-28.6	-30.4	13.2	2.44e-05	0	42	102	1048576	18	4392
2026-01-04 09:05:30.98	119.01	10.33	-28.6	-30.4	13.2	1.83e-05	0	42	102	1048576	18	4407
2026-01-04 09:05:31.98	118.93	10.41	-28.5	-30.2	13.4	2.74e-05	0	42	102	1048576	18	4333
2026-01-04 09:05:32.99	118.85	10.49	-28.6	-30.2	13.4	1.14e-05	0	42	102	1048576	18	4358
2026-01-04 09:05:34.00	118.78	10.57	-28.7	-30.5	13.2	2.67e-05	0	42	102	1048576	18	4454
2026-01-04 09:05:35.00	118.70	10.65	-28.5	-30.2	13.4	1.22e-05	0	42	102	1048576	18	4338
2026-01-04 09:05:36.01	118.62	10.73	-28.6	-30.2	13.3	1.67e-05	0	42	102	1048576	18	4359
2026-01-04 09:05:37.01	118.54	10.82	-28.8	-30.9	13.0	4.27e-05	0	42	102	1048576	18	4555
2026-01-04 09:05:38.01	118.46	10.90	-28.6	-30.2	13.3	1.98e-05	0	42	102	1048576	18	4361
2026-01-04 09:05:39.02	118.38	10.98	-28.4	-29.9	13.6	6.80e-06	0	42	102	1048576	18	4249
2026-01-04 09:05:40.03	118.30	11.06	-28.4	-29.7	13.7	2.20e-06	0	42	102	1048576	18	4192
2026-01-04 09:05:41.04	118.22	11.15	-28.4	-29.7	13.7	6.80e-06	0	42	102	1048576	18	4199
2026-01-04 09:05:42.04	118.14	11.23	-28.4	-29.7	13.7	3.80e-06	0	42	102	1048576	18	4208
2026-01-04 09:05:43.05	118.05	11.31	-28.4	-29.8	13.7	5.30e-06	0	42	102	1048576	18	4221
2026-01-04 09:05:44.06	117.97	11.40	-28.3	-29.6	13.8	5.30e-06	0	42	102	1048576	18	4164
2026-01-04 09:05:45.06	117.89	11.48	-28.4	-29.7	13.7	7.60e-06	0	42	102	1048576	18	4213
2026-01-04 09:05:46.07	117.81	11.56	-28.4	-29.7	13.7	6.80e-06	0	42	102	1048576	18	4194
2026-01-04 09:05:47.08	117.72	11.65	-28.3	-29.6	13.8	5.30e-06	0	42	102	1048576	18	4168
2026-01-04 09:05:48.09	117.64	11.73	-28.3	-30.0	13.9	3.00e-06	0	42	102	1048576	17	4378
2026-01-04 09:05:49.09	117.55	11.82	-28.3	-30.1	13.8	7.60e-06	0	42	102	1048576	17	4404
2026-01-04 09:05:50.10	117.47	11.90	-28.2	-29.8	13.9	2.20e-06	0	42	102	1048576	17	4330
2026-01-04 09:05:51.11	117.38	11.99	-28.2	-29.9	13.9	1.50e-06	0	42	102	1048576	17	4353
2026-01-04 09:05:52.11	117.29	12.07	-28.3	-30.1	13.8	3.00e-06	0	42	102	1048576	17	4410
2026-01-04 09:05:53.12	117.21	12.16	-28.2	-29.9	13.9	2.20e-06	0	42	102	1048576	17	4353
2026-01-04 09:05:54.12	117.12	12.24	-28.2	-29.7	14.0	4.50e-06	0	42	102	1048576	17	4312
2026-01-04 09:05:55.13	117.03	12.33	-28.2	-29.8	14.0	2.20e-06	0	42	102	1048576	17	4327
2026-01-04 09:05:56.14	116.94	12.42	-28.2	-29.7	14.1	7.00e-07	0	42	102	1048576	17	4303
2026-01-04 09:05:57.14	116.85	12.50	-28.2	-29.8	14.0	7.00e-07	0	42	102	1048576	17	4337
2026-01-04 09:05:58.14	116.76	12.59	-28.2	-29.8	14.0	1.50e-06	0	42	102	1048576	17	4318
2026-01-04 09:05:59.15	116.67	12.68	-28.2	-29.7	14.1	3.80e-06	0	42	102	1048576	17	4295
2026-01-04 09:06:00.15	116.58	12.76	-28.2	-29.7	14.1	2.20e-06	0	42	102	1048576	17	4301
2026-01-04 09:06:01.16	116.49	12.85	-28.3	-29.9	14.0	3.00e-06	0	42	102	1048576	17	4362
2026-01-04 09:06:02.16	116.40	12.94	-28.2	-29.8	14.1	1.50e-06	0	42	102	1048576	17	4314
2026-01-04 09:06:03.16	116.31	13.02	-28.3	-30.0	13.9	3.00e-06	0	42	102	1048576	17	4379
2026-01-04 09:06:04.18	116.21	13.11	-28.4	-30.2	13.8	7.60e-06	0	42	102	1048576	17	4456
2026-01-04 09:06:05.18	116.12	13.20	-28.2	-29.9	14.0	2.20e-06	0	42	102	1048576	17	4354
2026-01-04 09:06:06.19	116.03	13.29	-28.3	-30.0	14.0	2.20e-06	0	42	102	1048576	17	4377
2026-01-04 09:06:07.20	115.93	13.38	-28.3	-30.1	14.0	4.50e-06	0	42	102	1048576	17	4402
2026-01-04 09:06:08.20	115.84	13.47	-28.2	-29.9	14.0	2.20e-06	0	43	102	1048576	17	4342
2026-01-04 09:06:09.21	115.74	13.56	-28.3	-29.9	14.0	1.50e-06	0	43	102	1048576	17	4354
2026-01-04 09:06:10.22	115.64	13.65	-28.2	-29.8	14.1	3.80e-06	0	43	102	1048576	17	4326
2026-01-04 09:06:11.22	115.55	13.74	-28.3	-30.0	14.0	7.00e-07	0	42	102	1048576	17	4372
2026-01-04 09:06:12.23	115.45	13.83	-28.2	-29.9	14.1	4.50e-06	0	42	102	1048576	17	4348
2026-01-04 09:06:13.24	115.35	13.92	-28.3	-30.0	14.0	1.50e-06	0	42	102	1048576	17	4376
2026-01-04 09:06:14.24	115.25	14.01	-28.4	-30.3	13.8	6.80e-06	0	43	102	1048576	17	4460
2026-01-04 09:06:15.25	115.15	14.10	-28.4	-30.2	13.8	7.60e-06	0	42	102	1048576	17	4450
2026-01-04 09:06:16.25	115.05	14.19	-28.4	-30.2	13.9	6.10e-06	0	43	102	1048576	17	4433
2026-01-04 09:06:17.26	114.95	14.28	-28.4	-30.3	13.8	5.30e-06	0	43	102	1048576	17	4466
2026-01-04 09:06:18.27	114.85	14.37	-28.5	-30.5	13.7	8.30e-06	0	43	102	1048576	17	4536
2026-01-04 09:06:19.28	114.75	14.47	-28.4	-30.3	13.9	4.50e-06	0	43	102	1048576	17	4453
2026-01-04 09:06:20.28	114.64	14.56	-28.3	-30.1	14.0	3.00e-06	0	43	102	1048576	17	4396
2026-01-04 09:06:21.29	114.54	14.65	-28.4	-30.3	13.9	2.20e-06	0	43	102	1048576	17	4455
2026-01-04 09:06:22.29	114.44	14.74	-28.5	-30.4	13.8	2.20e-06	0	42	102	1048576	17	4495
2026-01-04 09:06:23.30	114.33	14.84	-28.5	-30.5	13.7	8.30e-06	0	43	102	1048576	17	4538
2026-01-04 09:06:24.31	114.22	14.93	-28.3	-30.1	14.0	1.50e-06	0	43	102	1048576	17	4394
2026-01-04 09:06:25.32	114.12	15.02	-28.1	-29.6	14.3	3.00e-06	0	43	102	1048576	17	4262
2026-01-04 09:06:26.32	114.01	15.12	-28.1	-29.6	14.3	2.20e-06	0	43	102	1048576	17	4259
2026-01-04 09:06:27.33	113.90	15.21	-28.1	-29.6	14.3	2.20e-06	0	43	102	1048576	17	4255
2026-01-04 09:06:28.34	113.80	15.31	-28.1	-29.4	14.4	0.00e+00	0	42	102	1048576	17	4212
2026-01-04 09:06:29.34	113.69	15.40	-28.1	-29.6	14.3	0.00e+00	0	43	102	1048576	17	4251
2026-01-04 09:06:30.35	113.58	15.49	-28.2	-29.7	14.2	7.00e-07	0	43	102	1048576	17	4273
2026-01-04 09:06:31.36	113.47	15.59	-28.1	-29.5	14.3	1.50e-06	0	43	102	1048576	17	4241
2026-01-04 09:06:32.36	113.36	15.68	-28.3	-29.9	14.2	7.00e-07	0	43	102	1048576	17	4346
2026-01-04 09:06:33.37	113.24	15.78	-28.3	-30.0	14.1	2.20e-06	0	43	102	1048576	17	4367
2026-01-04 09:06:34.37	113.13	15.88	-28.2	-29.8	14.2	4.50e-06	0	43	102	1048576	17	4311
2026-01-04 09:06:35.38	113.02	15.97	-28.2	-29.8	14.2	1.50e-06	0	43	102	1048576	17	4310
2026-01-04 09:06:36.39	112.90	16.07	-28.1	-29.5	14.4	1.50e-06	0	43	102	1048576	17	4216
2026-01-04 09:06:37.39	112.79	16.16	-28.1	-29.6	14.4	1.50e-06	0	43	102	1048576	17	4256
2026-01-04 09:06:38.40	112.67	16.26	-28.1	-29.6	14.4	1.50e-06	0	43	102	1048576	17	4261
2026-01-04 09:06:39.40	112.56	16.36	-28.1	-29.5	14.4	7.00e-07	0	43	102	1048576	17	4226
2026-01-04 09:06:40.41	112.44	16.46	-28.1	-29.5	14.4	7.00e-07	0	43	102	1048576	17	4232
2026-01-04 09:06:41.42	112.32	16.55	-28.3	-29.9	14.2	0.00e+00	0	43	102	1048576	17	4330
2026-01-04 09:06:42.42	112.21	16.65	-28.4	-30.3	14.0	7.00e-07	0	43	102	1048576	17	4449
2026-01-04 09:06:43.43	112.09	16.75	-28.2	-29.7	14.3	0.00e+00	0	43	102	1048576	17	4275
2026-01-04 09:06:44.44	111.96	16.85	-28.1	-29.6	14.4	1.50e-06	0	43	102	1048576	17	4242
2026-01-04 09:06:45.44	111.84	16.95	-28.2	-29.7	14.3	7.00e-07	0	43	102	1048576	17	4284
2026-01-04 09:06:46.45	111.72	17.05	-28.2	-29.8	14.3	0.00e+00	0	43	102	1048576	17	4299
2026-01-04 09:06:47.45	111.60	17.14	-28.3	-29.9	14.2	7.00e-07	0	43	102	1048576	17	4343
2026-01-04 09:06:48.46	111.48	17.24	-28.3	-30.0	14.2	2.20e-06	0	43	102	1048576	17	4368
2026-01-04 09:06:49.47	111.35	17.34	-28.3	-30.0	14.2	0.00e+00	0	43	102	1048576	17	4361
2026-01-04 09:06:50.47	111.23	17.44	-28.4	-30.2	14.1	2.20e-06	0	43	102	1048576	17	4425
2026-01-04 09:06:51.48	111.10	17.54	-28.2	-29.8	14.3	7.00e-07	0	43	102	1048576	17	4305
2026-01-04 09:06:52.49	110.97	17.65	-28.3	-30.0	14.2	0.00e+00	0	43	102	1048576	17	4372
2026-01-04 09:06:53.49	110.85	17.75	-28.3	-30.0	14.2	2.20e-06	0	43	102	1048576	17	4356
2026-01-04 09:06:54.51	110.72	17.85	-28.2	-29.7	14.4	1.50e-06	0	43	102	1048576	17	4291
2026-01-04 09:06:55.51	110.59	17.95	-28.4	-30.2	14.1	3.80e-06	0	43	102	1048576	17	4416
2026-01-04 09:06:56.52	110.46	18.05	-28.4	-30.2	14.1	3.00e-06	0	43	102	1048576	17	4418
2026-01-04 09:06:57.52	110.33	18.15	-28.3	-29.8	14.3	7.00e-07	0	43	102	1048576	17	4305
2026-01-04 09:06:58.52	110.20	18.25	-28.3	-29.9	14.3	1.50e-06	0	43	102	1048576	17	4325
2026-01-04 09:06:59.53	110.06	18.36	-28.2	-29.6	14.4	1.50e-06	0	43	102	1048576	17	4263
2026-01-04 09:07:00.54	109.93	18.46	-28.3	-29.9	14.3	7.00e-07	0	43	102	1048576	17	4335
2026-01-04 09:07:01.53	109.79	18.56	-28.3	-29.9	14.3	7.00e-07	0	43	102	1048576	17	4334
2026-01-04 09:07:02.54	109.66	18.66	-28.3	-29.9	14.3	2.20e-06	0	43	102	1048576	17	4324
2026-01-04 09:07:03.54	109.52	18.77	-28.3	-29.8	14.4	7.00e-07	0	43	102	1048576	17	4318
2026-01-04 09:07:04.55	109.38	18.87	-28.3	-29.9	14.3	0.00e+00	0	43	102	1048576	17	4325
2026-01-04 09:07:05.56	109.25	18.98	-28.3	-29.9	14.3	7.60e-06	0	43	102	1048576	17	4326
2026-01-04 09:07:06.57	109.11	19.08	-28.2	-29.7	14.5	7.00e-07	0	43	102	1048576	17	4279
2026-01-04 09:07:07.58	108.96	19.19	-28.2	-29.7	14.4	1.50e-06	0	43	102	1048576	17	4271
2026-01-04 09:07:08.59	108.82	19.29	-28.2	-29.7	14.4	8.30e-06	0	43	102	1048576	17	4277
2026-01-04 09:07:09.59	108.68	19.39	-28.1	-29.5	14.6	0.00e+00	0	43	102	1048576	17	4219
2026-01-04 09:07:10.59	108.54	19.50	-28.1	-29.5	14.6	0.00e+00	0	43	102	1048576	17	4223
2026-01-04 09:07:11.60	108.39	19.61	-28.1	-29.5	14.6	3.80e-06	0	43	102	1048576	17	4208
2026-01-04 09:07:12.61	108.25	19.71	-28.0	-29.3	14.7	0.00e+00	0	43	102	1048576	17	4157
2026-01-04 09:07:13.62	108.10	19.82	-28.1	-29.3	14.7	0.00e+00	0	43	102	1048576	17	4170
2026-01-04 09:07:14.62	107.95	19.92	-27.9	-29.1	14.8	0.00e+00	0	43	102	1048576	17	4094
2026-01-04 09:07:15.63	107.80	20.03	-27.9	-29.1	14.9	0.00e+00	0	43	102	1048576	17	4098
2026-01-04 09:07:16.64	107.65	20.14	-27.9	-29.0	14.9	0.00e+00	0	43	102	1048576	17	4091
2026-01-04 09:07:17.64	107.50	20.24	-27.9	-29.0	14.9	0.00e+00	0	43	102	1048576	17	4084
2026-01-04 09:07:18.65	107.35	20.35	-27.8	-28.8	15.0	0.00e+00	0	43	102	1048576	17	4036
2026-01-04 09:07:19.66	107.20	20.46	-27.8	-28.8	15.0	0.00e+00	0	43	102	1048576	17	4021
2026-01-04 09:07:20.66	107.04	20.57	-27.7	-29.0	15.2	0.00e+00	0	43	102	1048576	16	4178
2026-01-04 09:07:21.67	106.89	20.67	-27.7	-28.9	15.2	0.00e+00	0	43	102	1048576	16	4169
2026-01-04 09:07:22.68	106.73	20.78	-27.7	-29.1	15.1	0.00e+00	0	43	102	1048576	16	4223
2026-01-04 09:07:23.68	106.58	20.89	-27.7	-28.9	15.2	0.00e+00	0	43	102	1048576	16	4165
2026-01-04 09:07:24.69	106.42	21.00	-27.5	-28.5	15.5	0.00e+00	0	43	102	1048576	16	4043
2026-01-04 09:07:25.70	106.26	21.11	-27.4	-28.3	15.6	0.00e+00	0	43	102	1048576	16	4000
2026-01-04 09:07:26.71	106.10	21.22	-27.5	-28.5	15.5	0.00e+00	0	43	102	1048576	16	4037
2026-01-04 09:07:27.72	105.93	21.33	-27.4	-28.3	15.6	0.00e+00	0	43	102	1048576	16	3986
2026-01-04 09:07:28.72	105.77	21.44	-27.3	-28.2	15.7	0.00e+00	0	43	102	1048576	16	3967
2026-01-04 09:07:29.73	105.61	21.55	-27.3	-28.1	15.7	0.00e+00	0	43	102	1048576	16	3958
2026-01-04 09:07:30.74	105.44	21.66	-27.2	-28.3	15.8	0.00e+00	0	43	102	1048576	15	4116
2026-01-04 09:07:31.74	105.27	21.77	-27.1	-28.2	15.8	0.00e+00	0	43	102	1048576	15	4088
2026-01-04 09:07:32.75	105.11	21.88	-27.1	-28.2	15.8	0.00e+00	0	43	102	1048576	15	4084
2026-01-04 09:07:33.75	104.94	21.99	-27.1	-28.2	15.8	0.00e+00	0	43	102	1048576	15	4087
2026-01-04 09:07:34.76	104.77	22.10	-27.1	-28.3	15.8	0.00e+00	0	43	102	1048576	15	4094
2026-01-04 09:07:35.77	104.60	22.21	-27.2	-28.4	15.7	0.00e+00	0	43	102	1048576	15	4125
2026-01-04 09:07:36.78	104.42	22.32	-27.2	-28.3	15.7	0.00e+00	0	43	102	1048576	15	4122
2026-01-04 09:07:37.78	104.25	22.43	-27.2	-28.4	15.7	0.00e+00	0	43	102	1048576	15	4147
2026-01-04 09:07:38.79	104.07	22.55	-27.4	-28.8	15.5	0.00e+00	0	43	102	1048576	15	4247
2026-01-04 09:07:39.80	103.90	22.66	-27.2	-28.4	15.7	0.00e+00	0	43	102	1048576	15	4138
2026-01-04 09:07:40.81	103.72	22.77	-27.0	-28.0	16.0	0.00e+00	0	43	102	1048576	15	4030
2026-01-04 09:07:41.81	103.54	22.88	-27.0	-27.9	16.1	0.00e+00	0	43	102	1048576	15	3986
2026-01-04 09:07:42.82	103.36	23.00	-27.0	-28.0	16.0	0.00e+00	0	43	102	1048576	15	4013
2026-01-04 09:07:43.83	103.18	23.11	-27.0	-28.0	16.0	0.00e+00	0	43	102	1048576	15	4015
2026-01-04 09:07:44.84	102.99	23.22	-27.1	-28.2	15.9	0.00e+00	0	43	102	1048576	15	4071
2026-01-04 09:07:45.84	102.81	23.34	-27.2	-28.4	15.8	0.00e+00	0	43	102	1048576	15	4120
2026-01-04 09:07:46.85	102.62	23.45	-27.3	-28.6	15.7	5.30e-06	0	43	102	1048576	15	4172
2026-01-04 09:07:47.85	102.44	23.56	-27.3	-28.5	15.7	0.00e+00	0	43	102	1048576	15	4171
2026-01-04 09:07:48.86	102.25	23.68	-27.4	-28.8	15.6	0.00e+00	0	43	102	1048576	15	4225
2026-01-04 09:07:49.87	102.06	23.79	-27.3	-28.6	15.7	0.00e+00	0	43	102	1048576	15	4194
2026-01-04 09:07:50.87	101.87	23.90	-27.3	-28.6	15.7	0.00e+00	0	43	102	1048576	15	4191
2026-01-04 09:07:51.88	101.67	24.02	-27.3	-28.7	15.6	0.00e+00	0	43	102	1048576	15	4205
2026-01-04 09:07:52.89	101.48	24.13	-27.2	-28.4	15.8	7.60e-06	0	43	102	1048576	15	4140
2026-01-04 09:07:53.90	101.28	24.25	-27.2	-28.5	15.8	0.00e+00	0	43	102	1048576	15	4151
2026-01-04 09:07:54.91	101.08	24.36	-27.3	-28.5	15.8	0.00e+00	0	43	102	1048576	15	4155
2026-01-04 09:07:55.91	100.89	24.48	-27.4	-28.8	15.6	1.50e-06	0	43	102	1048576	15	4235
2026-01-04 09:07:56.91	100.69	24.59	-27.4	-28.9	15.5	0.00e+00	0	43	102	1048576	15	4272
2026-01-04 09:07:57.92	100.49	24.70	-27.5	-29.1	15.5	0.00e+00	0	43	102	1048576	15	4318
2026-01-04 09:07:58.93	100.28	24.82	-27.5	-29.1	15.5	7.00e-07	0	43	102	1048576	15	4312
2026-01-04 09:07:59.94	100.08	24.93	-27.5	-29.0	15.5	0.00e+00	0	43	102	1048576	15	4307
2026-01-04 09:08:00.94	99.87	25.05	-27.5	-29.0	15.5	0.00e+00	0	43	102	1048576	15	4283
2026-01-04 09:08:01.95	99.66	25.16	-27.3	-28.7	15.7	0.00e+00	0	43	102	1048576	15	4201
2026-01-04 09:08:02.96	99.45	25.28	-27.2	-28.3	15.9	0.00e+00	0	43	102	1048576	15	4096
2026-01-04 09:08:03.97	99.24	25.40	-27.2	-28.4	15.9	0.00e+00	0	43	102	1048576	15	4120
2026-01-04 09:08:04.97	99.03	25.51	-27.2	-28.4	15.9	0.00e+00	0	43	102	1048576	15	4114
2026-01-04 09:08:05.98	98.82	25.63	-27.3	-28.7	15.7	0.00e+00	0	43	102	1048576	15	4198
2026-01-04 09:08:06.99	98.60	25.74	-27.4	-28.9	15.6	0.00e+00	0	43	102	1048576	15	4262
2026-01-04 09:08:07.99	98.39	25.86	-27.6	-29.2	15.5	0.00e+00	0	43	102	1048576	15	4346
2026-01-04 09:08:09.00	98.17	25.97	-27.6	-29.3	15.4	0.00e+00	0	43	102	1048576	15	4386
2026-01-04 09:08:10.01	97.95	26.09	-27.7	-29.5	15.3	0.00e+00	0	43	102	1048576	15	4433
2026-01-04 09:08:11.02	97.72	26.21	-27.6	-29.3	15.4	0.00e+00	0	43	102	1048576	15	4372
2026-01-04 09:08:12.03	97.50	26.32	-27.7	-29.6	15.2	0.00e+00	0	43	102	1048576	15	4445
2026-01-04 09:08:13.03	97.28	26.44	-27.5	-29.0	15.5	0.00e+00	0	43	102	1048576	15	4290
2026-01-04 09:08:14.04	97.05	26.55	-27.4	-28.9	15.6	0.00e+00	0	43	102	1048576	15	4256
2026-01-04 09:08:15.05	96.82	26.67	-27.5	-29.1	15.5	0.00e+00	0	43	102	1048576	15	4322
2026-01-04 09:08:16.06	96.59	26.79	-27.5	-29.1	15.5	0.00e+00	0	43	102	1048576	15	4307
2026-01-04 09:08:17.06	96.36	26.90	-27.7	-29.4	15.4	0.00e+00	0	43	102	1048576	15	4391
2026-01-04 09:08:18.07	96.13	27.02	-27.8	-29.6	15.2	0.00e+00	0	43	102	1048576	15	4449
2026-01-04 09:08:19.08	95.89	27.13	-27.9	-29.9	15.1	0.00e+00	0	43	102	1048576	15	4550
2026-01-04 09:08:20.09	95.65	27.25	-28.2	-30.1	14.9	0.00e+00	0	43	102	1048576	16	4479
2026-01-04 09:08:21.10	95.41	27.36	-28.1	-29.9	15.0	0.00e+00	0	43	102	1048576	16	4419
2026-01-04 09:08:22.10	95.17	27.48	-28.1	-29.8	15.0	0.00e+00	0	43	102	1048576	16	4391
2026-01-04 09:08:23.11	94.93	27.59	-28.1	-29.8	15.0	0.00e+00	0	43	102	1048576	16	4386
2026-01-04 09:08:24.12	94.69	27.71	-28.2	-30.0	14.9	0.00e+00	0	43	102	1048576	16	4447
2026-01-04 09:08:25.12	94.44	27.83	-28.1	-30.0	14.9	0.00e+00	0	43	102	1048576	16	4434
2026-01-04 09:08:26.13	94.19	27.94	-28.2	-30.0	14.9	0.00e+00	0	43	102	1048576	16	4454
2026-01-04 09:08:27.14	93.94	28.06	-28.3	-30.4	14.7	0.00e+00	0	43	102	1048576	16	4561
2026-01-04 09:08:28.15	93.69	28.17	-28.2	-30.1	14.9	0.00e+00	0	43	102	1048576	16	4485
2026-01-04 09:08:29.15	93.44	28.28	-28.2	-30.2	14.8	0.00e+00	0	43	102	1048576	16	4500
2026-01-04 09:08:30.16	93.19	28.40	-28.3	-30.3	14.8	1.50e-06	0	43	102	1048576	16	4528
2026-01-04 09:08:31.17	92.93	28.51	-28.3	-30.3	14.8	0.00e+00	0	43	102	1048576	16	4545
2026-01-04 09:08:32.18	92.67	28.63	-28.3	-30.3	14.7	0.00e+00	0	43	102	1048576	16	4547
2026-01-04 09:08:33.19	92.41	28.74	-28.2	-30.1	14.9	0.00e+00	0	43	102	1048576	16	4477
2026-01-04 09:08:34.19	92.15	28.86	-28.2	-30.1	14.9	7.00e-07	0	43	102	1048576	16	4482
2026-01-04 09:08:35.20	91.88	28.97	-28.1	-29.9	15.0	0.00e+00	0	43	102	1048576	16	4409
2026-01-04 09:08:36.20	91.62	29.08	-28.2	-30.0	14.9	0.00e+00	0	43	102	1048576	16	4452
2026-01-04 09:08:37.21	91.35	29.20	-28.1	-29.9	15.0	0.00e+00	0	43	102	1048576	16	4408
2026-01-04 09:08:38.22	91.08	29.31	-28.1	-29.9	15.0	0.00e+00	0	43	102	1048576	16	4418
2026-01-04 09:08:39.23	90.81	29.42	-28.2	-30.2	14.9	0.00e+00	0	43	102	1048576	16	4492
2026-01-04 09:08:40.23	90.54	29.53	-28.5	-30.2	14.6	0.00e+00	0	43	102	1048576	17	4392
2026-01-04 09:08:41.24	90.26	29.65	-28.2	-29.5	15.0	0.00e+00	0	43	102	1048576	17	4188
2026-01-04 09:08:42.24	89.98	29.76	-28.0	-29.1	15.2	0.00e+00	0	43	102	1048576	17	4082
2026-01-04 09:08:43.25	89.70	29.87	-27.9	-28.9	15.3	0.00e+00	0	43	102	1048576	17	4039
2026-01-04 09:08:44.26	89.42	29.98	-28.0	-29.1	15.2	0.00e+00	0	43	102	1048576	17	4084
2026-01-04 09:08:45.26	89.14	30.09	-27.9	-29.0	15.2	0.00e+00	0	43	102	1048576	17	4070
2026-01-04 09:08:46.26	88.86	30.20	-27.9	-28.9	15.3	0.00e+00	0	43	102	1048576	17	4047
2026-01-04 09:08:47.27	88.57	30.31	-27.8	-28.7	15.4	0.00e+00	0	43	102	1048576	17	3979
2026-01-04 09:08:48.28	88.28	30.42	-27.8	-29.1	15.5	0.00e+00	0	43	102	1048576	16	4192
2026-01-04 09:08:49.28	87.99	30.53	-27.8	-29.2	15.5	0.00e+00	0	43	102	1048576	16	4211
2026-01-04 09:08:50.29	87.70	30.64	-27.9	-29.4	15.4	0.00e+00	0	43	102	1048576	16	4264
2026-01-04 09:08:51.29	87.41	30.75	-27.8	-29.2	15.4	0.00e+00	0	43	102	1048576	16	4227
2026-01-04 09:08:52.30	87.11	30.85	-27.8	-29.3	15.4	0.00e+00	0	43	102	1048576	16	4239
2026-01-04 09:08:53.31	86.81	30.96	-27.8	-29.2	15.4	0.00e+00	0	43	102	1048576	16	4230
2026-01-04 09:08:54.31	86.51	31.07	-27.8	-29.1	15.5	0.00e+00	0	43	102	1048576	16	4193
2026-01-04 09:08:55.32	86.20	31.17	-27.9	-29.3	15.4	0.00e+00	0	43	102	1048576	16	4250
2026-01-04 09:08:56.33	85.90	31.28	-28.0	-29.7	15.2	0.00e+00	0	43	102	1048576	16	4348
2026-01-04 09:08:57.33	85.59	31.38	-28.1	-29.8	15.1	0.00e+00	0	43	102	1048576	16	4379
2026-01-04 09:08:58.34	85.28	31.49	-28.3	-30.3	14.9	0.00e+00	0	43	102	1048576	16	4523
2026-01-04 09:08:59.35	84.97	31.59	-28.3	-30.2	14.9	0.00e+00	0	43	102	1048576	16	4504
2026-01-04 09:09:00.36	84.66	31.70	-28.4	-30.5	14.7	0.00e+00	0	43	102	1048576	16	4586
2026-01-04 09:09:01.36	84.35	31.80	-28.3	-30.3	14.9	0.00e+00	0	43	102	1048576	16	4529
2026-01-04 09:09:02.37	84.03	31.90	-28.4	-30.6	14.7	7.00e-07	0	43	102	1048576	16	4611
2026-01-04 09:09:03.37	83.71	32.00	-28.5	-30.2	14.6	7.00e-07	0	43	102	1048576	17	4377
2026-01-04 09:09:04.38	83.39	32.10	-28.3	-29.9	14.8	0.00e+00	0	43	102	1048576	17	4299
2026-01-04 09:09:05.38	83.07	32.20	-28.3	-29.9	14.8	7.00e-07	0	43	102	1048576	17	4295
2026-01-04 09:09:06.39	82.74	32.30	-28.3	-29.8	14.8	0.00e+00	0	43	102	1048576	17	4287
2026-01-04 09:09:07.40	82.42	32.40	-28.3	-29.9	14.8	7.00e-07	0	43	102	1048576	17	4302
2026-01-04 09:09:08.40	82.09	32.50	-28.3	-29.8	14.8	0.00e+00	0	43	102	1048576	17	4282
2026-01-04 09:09:09.41	81.76	32.60	-28.4	-30.1	14.7	0.00e+00	0	43	102	1048576	17	4355
2026-01-04 09:09:10.42	81.42	32.69	-28.7	-30.7	14.4	0.00e+00	0	43	102	1048576	17	4522
2026-01-04 09:09:11.42	81.09	32.79	-28.8	-31.1	14.1	7.00e-07	0	43	102	1048576	17	4653
2026-01-04 09:09:12.42	80.76	32.88	-28.7	-30.7	14.3	0.00e+00	0	43	102	1048576	17	4521
2026-01-04 09:09:13.42	80.42	32.98	-28.7	-30.7	14.3	7.00e-07	0	43	102	1048576	17	4534
2026-01-04 09:09:14.43	80.08	33.07	-28.7	-30.7	14.3	7.00e-07	0	43	102	1048576	17	4528
2026-01-04 09:09:15.44	79.74	33.16	-28.8	-30.9	14.3	7.00e-07	0	43	102	1048576	17	4582
2026-01-04 09:09:16.44	79.39	33.25	-28.8	-31.0	14.2	3.80e-06	0	43	102	1048576	17	4637
2026-01-04 09:09:17.45	79.05	33.35	-28.8	-30.8	14.2	0.00e+00	0	43	102	1048576	17	4573
2026-01-04 09:09:18.45	78.70	33.43	-28.6	-30.6	14.4	1.50e-06	0	43	102	1048576	17	4499
2026-01-04 09:09:19.46	78.35	33.52	-28.7	-30.8	14.3	7.00e-07	0	43	102	1048576	17	4550
2026-01-04 09:09:20.47	77.99	33.61	-28.7	-30.6	14.4	1.50e-06	0	43	102	1048576	17	4511
2026-01-04 09:09:21.47	77.64	33.70	-28.5	-30.3	14.6	0.00e+00	0	43	102	1048576	17	4430
2026-01-04 09:09:22.48	77.29	33.78	-28.5	-30.2	14.6	0.00e+00	0	43	102	1048576	17	4389
2026-01-04 09:09:23.48	76.93	33.87	-28.5	-30.2	14.6	0.00e+00	0	43	102	1048576	17	4387
2026-01-04 09:09:24.49	76.57	33.95	-28.5	-30.2	14.6	0.00e+00	0	43	102	1048576	17	4378
2026-01-04 09:09:25.49	76.21	34.03	-28.5	-30.1	14.7	0.00e+00	0	43	102	1048576	17	4369
2026-01-04 09:09:26.50	75.85	34.12	-28.6	-30.4	14.5	7.00e-07	0	43	102	1048576	17	4441
2026-01-04 09:09:27.51	75.48	34.20	-28.6	-30.4	14.6	0.00e+00	0	43	102	1048576	17	4448
2026-01-04 09:09:28.51	75.12	34.28	-28.7	-30.8	14.3	0.00e+00	0	43	102	1048576	17	4556
2026-01-04 09:09:29.52	74.75	34.35	-28.8	-31.0	14.1	0.00e+00	0	43	102	1048576	17	4633
2026-01-04 09:09:30.53	74.37	34.43	-28.8	-30.9	14.2	4.50e-06	0	43	102	1048576	17	4610
2026-01-04 09:09:31.54	74.00	34.51	-28.8	-31.0	14.2	2.20e-06	0	43	102	1048576	17	4642
2026-01-04 09:09:32.54	73.63	34.58	-28.9	-31.2	14.0	2.20e-06	0	43	102	1048576	17	4704
2026-01-04 09:09:33.54	73.26	34.65	-29.1	-31.2	13.8	6.80e-06	0	43	102	1048576	18	4583
2026-01-04 09:09:34.56	72.87	34.73	-29.3	-31.7	13.6	7.60e-06	0	43	102	1048576	18	4720
2026-01-04 09:09:35.57	72.49	34.80	-29.3	-31.8	13.5	1.14e-05	0	43	102	1048576	18	4751
2026-01-04 09:09:36.57	72.12	34.87	-29.1	-31.3	13.8	1.14e-05	0	43	102	1048576	18	4598
2026-01-04 09:09:37.57	71.74	34.93	-29.1	-31.3	13.8	4.50e-06	0	43	102	1048576	18	4593
2026-01-04 09:09:38.58	71.35	35.00	-29.1	-31.2	13.8	3.80e-06	0	43	102	1048576	18	4584
2026-01-04 09:09:39.59	70.96	35.07	-29.2	-31.3	13.7	5.30e-06	0	43	102	1048576	18	4603
2026-01-04 09:09:40.60	70.58	35.13	-29.1	-31.2	13.8	5.30e-06	0	43	102	1048576	18	4563
2026-01-04 09:09:41.60	70.19	35.19	-29.2	-31.3	13.7	6.10e-06	0	43	102	1048576	18	4598
2026-01-04 09:09:42.60	69.80	35.26	-28.9	-30.8	14.1	1.50e-06	0	43	102	1048576	18	4445
2026-01-04 09:09:43.61	69.41	35.32	-28.7	-30.1	14.4	7.00e-07	0	43	102	1048576	18	4240
2026-01-04 09:09:44.62	69.02	35.37	-28.6	-29.9	14.6	0.00e+00	0	43	102	1048576	18	4200
2026-01-04 09:09:45.63	68.62	35.43	-28.7	-30.2	14.4	0.00e+00	0	43	102	1048576	18	4278
2026-01-04 09:09:46.63	68.23	35.49	-29.0	-30.8	14.0	3.00e-06	0	43	102	1048576	18	4462
2026-01-04 09:09:47.64	67.83	35.54	-29.1	-31.1	13.9	3.00e-06	0	43	102	1048576	18	4533
2026-01-04 09:09:48.64	67.43	35.59	-29.2	-31.3	13.7	1.06e-05	0	43	102	1048576	18	4614
2026-01-04 09:09:49.65	67.03	35.65	-29.3	-31.6	13.6	7.60e-06	0	43	102	1048576	18	4686
2026-01-04 09:09:50.66	66.63	35.70	-29.4	-31.9	13.4	9.10e-06	0	43	102	1048576	18	4785
2026-01-04 09:09:51.67	66.23	35.74	-29.4	-31.8	13.5	1.22e-05	0	43	102	1048576	18	4779
2026-01-04 09:09:52.67	65.83	35.79	-29.3	-31.6	13.6	1.52e-05	0	43	102	1048576	18	4689
2026-01-04 09:09:53.68	65.42	35.84	-29.3	-31.7	13.5	9.10e-06	0	43	102	1048576	18	4746
2026-01-04 09:09:54.69	65.02	35.88	-29.3	-31.6	13.6	1.06e-05	0	43	102	1048576	18	4682
2026-01-04 09:09:55.70	64.61	35.92	-29.1	-31.3	13.8	5.30e-06	0	43	102	1048576	18	4598
2026-01-04 09:09:56.71	64.20	35.96	-29.2	-31.5	13.7	4.50e-06	0	43	102	1048576	18	4656
2026-01-04 09:09:57.71	63.79	36.00	-29.0	-31.0	13.9	1.50e-06	0	43	102	1048576	18	4511
2026-01-04 09:09:58.72	63.38	36.04	-28.8	-30.5	14.2	7.00e-07	0	43	102	1048576	18	4363
2026-01-04 09:09:59.72	62.98	36.07	-28.8	-30.5	14.3	7.00e-07	0	43	102	1048576	18	4354
2026-01-04 09:10:00.72	62.57	36.11	-28.9	-30.6	14.2	0.00e+00	0	43	102	1048576	18	4383
2026-01-04 09:10:01.73	62.15	36.14	-29.1	-31.1	13.9	1.50e-06	0	43	102	1048576	18	4536
2026-01-04 09:10:02.73	61.74	36.17	-29.3	-31.6	13.6	6.80e-06	0	43	102	1048576	18	4709
2026-01-04 09:10:03.74	61.33	36.20	-29.4	-31.9	13.4	1.83e-05	0	43	102	1048576	18	4800
2026-01-04 09:10:04.74	60.92	36.23	-29.4	-32.0	13.4	1.06e-05	0	43	102	1048576	18	4812
2026-01-04 09:10:05.75	60.50	36.25	-29.6	-31.8	13.2	2.13e-05	0	43	102	1048576	19	4641
2026-01-04 09:10:06.76	60.09	36.28	-29.9	-32.5	12.8	6.63e-05	0	43	102	1048576	19	4881
2026-01-04 09:10:07.76	59.67	36.30	-29.7	-32.0	13.1	5.18e-05	0	43	102	1048576	19	4719
2026-01-04 09:10:08.77	59.25	36.32	-29.8	-32.2	12.9	3.28e-05	0	43	102	1048576	19	4790
2026-01-04 09:10:09.77	58.84	36.34	-29.6	-32.0	13.1	3.12e-05	0	43	102	1048576	19	4700
2026-01-04 09:10:10.79	58.42	36.36	-29.3	-31.1	13.6	1.67e-05	0	43	102	1048576	19	4438
2026-01-04 09:10:11.79	58.00	36.37	-28.9	-30.1	14.2	2.20e-06	0	43	102	1048576	19	4137
2026-01-04 09:10:12.80	57.58	36.39	-28.9	-30.1	14.2	1.50e-06	0	43	102	1048576	19	4141
2026-01-04 09:10:13.81	57.16	36.40	-28.9	-30.2	14.1	7.00e-07	0	43	102	1048576	19	4173
2026-01-04 09:10:14.81	56.75	36.41	-29.1	-30.7	13.9	7.00e-07	0	43	102	1048576	19	4317
2026-01-04 09:10:15.82	56.33	36.42	-29.1	-30.6	13.9	3.80e-06	0	43	102	1048576	19	4285
2026-01-04 09:10:16.83	55.91	36.42	-29.1	-30.7	13.9	3.80e-06	0	43	102	1048576	19	4311
2026-01-04 09:10:17.83	55.49	36.43	-29.0	-30.4	14.0	4.50e-06	0	43	102	1048576	19	4242
2026-01-04 09:10:18.84	55.07	36.43	-28.9	-30.3	14.0	2.20e-06	0	43	102	1048576	19	4192
2026-01-04 09:10:19.85	54.65	36.43	-29.2	-30.9	13.7	2.20e-06	0	43	102	1048576	19	4359
2026-01-04 09:10:20.85	54.23	36.43	-29.0	-30.4	14.0	6.10e-06	0	43	102	1048576	19	4240
2026-01-04 09:10:21.86	53.81	36.43	-29.0	-30.4	14.0	4.50e-06	0	43	102	1048576	19	4231
2026-01-04 09:10:22.87	53.39	36.43	-29.3	-31.2	13.5	4.50e-06	0	43	102	1048576	19	4453
2026-01-04 09:10:23.87	52.97	36.42	-29.2	-30.9	13.7	7.60e-06	0	43	102	1048576	19	4366
2026-01-04 09:10:24.88	52.55	36.41	-29.0	-30.3	14.0	7.00e-07	0	43	102	1048576	19	4208
2026-01-04 09:10:25.89	52.13	36.40	-29.0	-30.4	14.0	1.50e-06	0	43	102	1048576	19	4225
2026-01-04 09:10:26.89	51.72	36.39	-29.0	-30.5	13.9	4.50e-06	0	43	102	1048576	19	4263
2026-01-04 09:10:27.89	51.30	36.38	-28.8	-29.9	14.3	0.00e+00	0	43	102	1048576	19	4095
2026-01-04 09:10:28.90	50.88	36.37	-28.9	-30.3	14.1	0.00e+00	0	43	102	1048576	19	4195
2026-01-04 09:10:29.90	50.47	36.35	-29.2	-30.9	13.7	2.20e-06	0	43	102	1048576	19	4377
2026-01-04 09:10:30.91	50.05	36.33	-29.1	-30.8	13.7	7.60e-06	0	43	102	1048576	19	4343
2026-01-04 09:10:31.92	49.63	36.31	-29.1	-30.7	13.8	4.50e-06	0	43	102	1048576	19	4312
2026-01-04 09:10:32.92	49.22	36.29	-29.3	-31.1	13.6	4.50e-06	0	43	102	1048576	19	4429
2026-01-04 09:10:33.93	48.80	36.27	-29.1	-30.6	13.8	4.50e-06	0	43	102	1048576	19	4301
2026-01-04 09:10:34.93	48.39	36.25	-29.0	-30.3	14.0	4.50e-06	0	43	102	1048576	19	4192
2026-01-04 09:10:35.94	47.97	36.22	-29.1	-30.7	13.8	1.50e-06	0	43	102	1048576	19	4314
2026-01-04 09:10:36.94	47.56	36.19	-28.8	-30.0	14.2	3.80e-06	0	43	102	1048576	19	4123
2026-01-04 09:10:37.95	47.15	36.16	-28.7	-30.2	14.4	2.20e-06	0	43	102	1048576	18	4275
2026-01-04 09:10:38.95	46.74	36.13	-28.9	-30.6	14.2	7.00e-07	0	43	102	1048576	18	4379
2026-01-04 09:10:39.96	46.32	36.10	-29.0	-30.8	14.0	2.20e-06	0	43	102	1048576	18	4451
2026-01-04 09:10:40.96	45.92	36.06	-29.0	-30.9	14.0	1.50e-06	0	43	102	1048576	18	4479
2026-01-04 09:10:41.97	45.51	36.03	-28.8	-30.4	14.2	3.00e-06	0	43	102	1048576	18	4346
2026-01-04 09:10:42.98	45.10	35.99	-28.7	-30.1	14.4	1.50e-06	0	43	102	1048576	18	4265
2026-01-04 09:10:43.99	44.69	35.95	-28.7	-30.2	14.4	7.00e-07	0	43	102	1048576	18	4276
2026-01-04 09:10:44.99	44.28	35.91	-28.9	-30.7	14.1	7.00e-07	0	43	102	1048576	18	4417
2026-01-04 09:10:46.00	43.88	35.87	-28.9	-30.7	14.1	3.00e-06	0	43	102	1048576	18	4418
2026-01-04 09:10:47.00	43.48	35.82	-28.8	-30.5	14.2	2.20e-06	0	43	102	1048576	18	4372
2026-01-04 09:10:48.01	43.07	35.78	-29.0	-30.9	13.9	7.00e-07	0	43	102	1048576	18	4486
2026-01-04 09:10:49.02	42.67	35.73	-29.1	-31.1	13.8	3.00e-06	0	43	102	1048576	18	4537
2026-01-04 09:10:50.03	42.27	35.68	-29.1	-31.3	13.7	5.30e-06	0	43	102	1048576	18	4602
2026-01-04 09:10:51.04	41.86	35.63	-29.0	-31.0	13.9	3.80e-06	0	43	102	1048576	18	4526
2026-01-04 09:10:52.04	41.47	35.58	-29.2	-31.3	13.7	3.80e-06	0	43	102	1048576	18	4609
2026-01-04 09:10:53.04	41.07	35.53	-29.2	-31.4	13.6	8.30e-06	0	43	102	1048576	18	4626
2026-01-04 09:10:54.04	40.68	35.47	-29.1	-31.2	13.8	5.30e-06	0	43	102	1048576	18	4579
2026-01-04 09:10:55.05	40.29	35.41	-29.0	-31.0	13.8	3.00e-06	0	43	102	1048576	18	4526
2026-01-04 09:10:56.06	39.89	35.36	-29.2	-31.3	13.7	5.30e-06	0	43	102	1048576	18	4603
2026-01-04 09:10:57.07	39.50	35.30	-28.9	-30.6	14.1	3.00e-06	0	43	102	1048576	18	4388
2026-01-04 09:10:58.07	39.11	35.24	-28.6	-30.1	14.4	7.00e-07	0	43	102	1048576	18	4249
2026-01-04 09:10:59.08	38.72	35.18	-28.6	-30.1	14.4	1.50e-06	0	43	102	1048576	18	4253
2026-01-04 09:11:00.08	38.34	35.11	-28.8	-30.4	14.2	1.50e-06	0	43	102	1048576	18	4329
2026-01-04 09:11:01.09	37.95	35.05	-28.8	-30.5	14.2	1.50e-06	0	43	102	1048576	18	4360
2026-01-04 09:11:02.10	37.56	34.98	-28.9	-30.6	14.1	0.00e+00	0	43	102	1048576	18	4399
2026-01-04 09:11:03.10	37.18	34.91	-28.9	-30.6	14.1	4.50e-06	0	43	102	1048576	18	4403
2026-01-04 09:11:04.11	36.80	34.85	-28.8	-30.5	14.2	2.20e-06	0	43	102	1048576	18	4366
2026-01-04 09:11:05.12	36.42	34.78	-28.9	-30.7	14.0	2.20e-06	0	43	102	1048576	18	4420
2026-01-04 09:11:06.12	36.05	34.71	-29.2	-31.5	13.5	7.60e-06	0	43	102	1048576	18	4673
2026-01-04 09:11:07.13	35.67	34.63	-29.1	-31.3	13.6	4.50e-06	0	43	102	1048576	18	4605
2026-01-04 09:11:08.14	35.29	34.56	-29.2	-31.3	13.6	5.30e-06	0	43	102	1048576	18	4617
2026-01-04 09:11:09.15	34.92	34.48	-29.0	-30.9	13.9	4.50e-06	0	43	102	1048576	18	4477
2026-01-04 09:11:10.15	34.55	34.41	-28.8	-30.4	14.1	3.00e-06	0	43	102	1048576	18	4340
2026-01-04 09:11:11.15	34.19	34.33	-28.7	-30.2	14.3	2.20e-06	0	43	102	1048576	18	4283
2026-01-04 09:11:12.16	33.82	34.25	-28.6	-30.0	14.4	0.00e+00	0	43	102	1048576	18	4223
2026-01-04 09:11:13.17	33.45	34.17	-28.3	-29.4	14.7	0.00e+00	0	43	102	1048576	18	4058
2026-01-04 09:11:14.17	33.09	34.09	-28.4	-29.4	14.7	7.00e-07	0	43	102	1048576	18	4063
2026-01-04 09:11:15.18	32.73	34.01	-28.5	-29.7	14.5	7.00e-07	0	43	102	1048576	18	4145
2026-01-04 09:11:16.19	32.37	33.93	-28.6	-30.1	14.3	7.00e-07	0	43	102	1048576	18	4257
2026-01-04 09:11:17.19	32.01	33.85	-28.6	-30.1	14.3	7.00e-07	0	43	102	1048576	18	4257
2026-01-04 09:11:18.19	31.66	33.76	-28.4	-29.6	14.5	0.00e+00	0	43	102	1048576	18	4126
2026-01-04 09:11:19.20	31.30	33.68	-28.2	-29.5	14.9	0.00e+00	0	43	102	1048576	17	4195
2026-01-04 09:11:20.21	30.95	33.59	-28.2	-29.5	14.9	7.00e-07	0	43	102	1048576	17	4204
2026-01-04 09:11:21.22	30.59	33.50	-28.5	-30.4	14.4	0.00e+00	0	43	102	1048576	17	4439
2026-01-04 09:11:22.22	30.25	33.41	-28.4	-30.1	14.5	7.00e-07	0	43	102	1048576	17	4355
2026-01-04 09:11:23.23	29.90	33.32	-28.7	-30.8	14.2	1.50e-06	0	43	102	1048576	17	4556
2026-01-04 09:11:24.24	29.55	33.23	-29.2	-31.6	13.4	4.50e-06	0	43	102	1048576	18	4724
2026-01-04 09:11:25.24	29.21	33.14	-29.3	-31.9	13.0	2.44e-05	0	43	102	1048576	18	4879
2026-01-04 09:11:26.25	28.87	33.05	-29.2	-31.6	13.2	2.82e-05	0	43	102	1048576	18	4790
2026-01-04 09:11:27.26	28.53	32.95	-28.7	-30.4	14.1	2.20e-06	0	43	102	1048576	18	4363
2026-01-04 09:11:28.27	28.19	32.86	-28.3	-29.4	14.7	0.00e+00	0	43	102	1048576	18	4069
2026-01-04 09:11:29.28	27.86	32.76	-28.2	-29.6	14.8	0.00e+00	0	43	102	1048576	17	4221
2026-01-04 09:11:30.29	27.52	32.67	-28.3	-29.9	14.7	0.00e+00	0	43	102	1048576	17	4291
2026-01-04 09:11:31.29	27.20	32.57	-28.8	-30.9	14.1	1.50e-06	0	43	102	1048576	17	4584
2026-01-04 09:11:32.30	26.87	32.48	-29.2	-31.3	13.6	4.50e-06	0	43	102	1048576	18	4606
2026-01-04 09:11:33.30	26.54	32.38	-29.4	-31.8	13.3	1.44e-05	0	43	102	1048576	18	4782
2026-01-04 09:11:34.31	26.21	32.28	-29.7	-32.0	12.8	6.25e-05	0	43	102	1048576	19	4731
2026-01-04 09:11:35.32	25.89	32.18	-29.4	-31.3	13.3	2.97e-05	0	43	102	1048576	19	4519
2026-01-04 09:11:36.33	25.57	32.08	-29.0	-30.6	13.7	7.60e-06	0	43	102	1048576	19	4284
2026-01-04 09:11:37.33	25.25	31.98	-28.8	-30.0	14.1	1.50e-06	0	43	102	1048576	19	4115
2026-01-04 09:11:38.34	24.93	31.88	-28.7	-30.3	14.2	1.50e-06	0	43	102	1048576	18	4307
2026-01-04 09:11:39.35	24.62	31.77	-28.7	-30.2	14.2	1.50e-06	0	43	102	1048576	18	4294
2026-01-04 09:11:40.36	24.30	31.67	-28.7	-30.2	14.3	3.00e-06	0	43	102	1048576	18	4281
2026-01-04 09:11:41.36	23.99	31.57	-28.5	-29.9	14.4	7.00e-07	0	43	102	1048576	18	4196
2026-01-04 09:11:42.37	23.68	31.46	-28.3	-29.4	14.6	2.20e-06	0	43	102	1048576	18	4080
2026-01-04 09:11:43.37	23.38	31.36	-28.0	-29.2	15.0	0.00e+00	0	43	102	1048576	17	4107
2026-01-04 09:11:44.38	23.07	31.26	-27.9	-28.8	15.2	0.00e+00	0	43	102	1048576	17	4025
2026-01-04 09:11:45.39	22.77	31.15	-28.0	-29.2	15.0	0.00e+00	0	43	102	1048576	17	4119
2026-01-04 09:11:46.40	22.47	31.04	-28.1	-29.4	14.9	0.00e+00	0	43	102	1048576	17	4168
2026-01-04 09:11:47.40	22.17	30.94	-28.1	-29.4	14.9	0.00e+00	0	43	102	1048576	17	4176
2026-01-04 09:11:48.40	21.88	30.83	-28.3	-29.9	14.6	0.00e+00	0	43	102	1048576	17	4308
2026-01-04 09:11:49.41	21.58	30.72	-28.5	-30.2	14.4	0.00e+00	0	43	102	1048576	17	4412
2026-01-04 09:11:50.42	21.29	30.61	-28.7	-30.7	14.1	7.00e-07	0	43	102	1048576	17	4547
2026-01-04 09:11:51.43	20.99	30.51	-28.6	-30.6	14.2	2.20e-06	0	43	102	1048576	17	4518
2026-01-04 09:11:52.43	20.71	30.40	-28.8	-31.0	13.9	0.00e+00	0	43	102	1048576	17	4655
2026-01-04 09:11:53.44	20.42	30.29	-28.7	-30.9	13.9	7.00e-07	0	43	102	1048576	17	4604
2026-01-04 09:11:54.44	20.14	30.18	-28.5	-30.2	14.3	3.00e-06	0	43	102	1048576	17	4413
2026-01-04 09:11:55.45	19.85	30.07	-28.3	-29.9	14.4	7.00e-07	0	43	102	1048576	17	4324
2026-01-04 09:11:56.45	19.57	29.96	-28.3	-29.9	14.5	7.00e-07	0	43	102	1048576	17	4323
2026-01-04 09:11:57.46	19.29	29.85	-28.4	-30.0	14.4	7.00e-07	0	43	102	1048576	17	4357
2026-01-04 09:11:58.46	19.02	29.74	-28.4	-30.0	14.5	0.00e+00	0	43	102	1048576	17	4352
2026-01-04 09:11:59.47	18.74	29.63	-28.4	-30.1	14.4	0.00e+00	0	43	102	1048576	17	4376
2026-01-04 09:12:00.48	18.47	29.51	-28.3	-29.8	14.6	0.00e+00	0	43	102	1048576	17	4288
2026-01-04 09:12:01.48	18.20	29.40	-28.1	-29.3	14.8	0.00e+00	0	43	102	1048576	17	4159
2026-01-04 09:12:02.47	17.93	29.29	-27.9	-28.8	15.1	0.00e+00	0	43	102	1048576	17	4027
2026-01-04 09:12:03.48	17.66	29.18	-27.8	-29.1	15.3	0.00e+00	0	43	102	1048576	16	4210
2026-01-04 09:12:04.48	17.40	29.07	-27.8	-29.1	15.3	0.00e+00	0	43	102	1048576	16	4210
2026-01-04 09:12:05.49	17.13	28.96	-27.6	-28.7	15.6	0.00e+00	0	43	102	1048576	16	4083
2026-01-04 09:12:06.50	16.87	28.84	-27.6	-28.7	15.5	0.00e+00	0	43	102	1048576	16	4098
2026-01-04 09:12:07.50	16.61	28.73	-27.7	-28.9	15.4	0.00e+00	0	43	102	1048576	16	4155
2026-01-04 09:12:08.51	16.35	28.62	-27.8	-29.3	15.2	0.00e+00	0	43	102	1048576	16	4241
2026-01-04 09:12:09.52	16.09	28.50	-27.8	-29.1	15.3	0.00e+00	0	43	102	1048576	16	4207
2026-01-04 09:12:10.53	15.84	28.39	-27.7	-28.9	15.4	0.00e+00	0	43	102	1048576	16	4152
2026-01-04 09:12:11.53	15.59	28.27	-27.6	-28.8	15.5	0.00e+00	0	43	102	1048576	16	4120
2026-01-04 09:12:12.54	15.33	28.16	-27.6	-28.8	15.5	0.00e+00	0	43	102	1048576	16	4129
2026-01-04 09:12:13.55	15.08	28.04	-27.7	-29.0	15.4	0.00e+00	0	43	102	1048576	16	4164
2026-01-04 09:12:14.56	14.84	27.93	-27.9	-29.4	15.1	0.00e+00	0	43	102	1048576	16	4294
2026-01-04 09:12:15.57	14.59	27.81	-27.9	-29.5	15.1	0.00e+00	0	43	102	1048576	16	4312
2026-01-04 09:12:16.58	14.35	27.70	-27.8	-29.1	15.2	0.00e+00	0	43	102	1048576	16	4213
2026-01-04 09:12:17.58	14.10	27.59	-27.6	-28.7	15.5	0.00e+00	0	43	102	1048576	16	4086
2026-01-04 09:12:18.59	13.86	27.47	-27.5	-28.6	15.5	0.00e+00	0	43	102	1048576	16	4061
2026-01-04 09:12:19.60	13.62	27.35	-27.5	-28.5	15.6	0.00e+00	0	43	102	1048576	16	4035
2026-01-04 09:12:20.61	13.39	27.24	-27.4	-28.3	15.7	0.00e+00	0	43	102	1048576	16	3992
2026-01-04 09:12:21.62	13.15	27.12	-27.5	-28.6	15.6	0.00e+00	0	43	102	1048576	16	4063
2026-01-04 09:12:22.63	12.92	27.01	-27.7	-28.9	15.4	0.00e+00	0	43	102	1048576	16	4156
2026-01-04 09:12:23.63	12.69	26.89	-27.7	-28.9	15.3	0.00e+00	0	43	102	1048576	16	4157
2026-01-04 09:12:24.64	12.46	26.78	-27.7	-28.9	15.3	0.00e+00	0	43	102	1048576	16	4160
2026-01-04 09:12:25.65	12.23	26.66	-27.8	-29.2	15.1	0.00e+00	0	43	102	1048576	16	4221
2026-01-04 09:12:26.65	12.00	26.55	-27.9	-29.4	15.0	1.75e-05	0	43	102	1048576	16	4288
2026-01-04 09:12:27.66	11.77	26.43	-27.9	-29.4	15.0	0.00e+00	0	43	102	1048576	16	4279
2026-01-04 09:12:28.66	11.55	26.32	-28.0	-29.7	14.9	7.00e-07	0	43	102	1048576	16	4360
2026-01-04 09:12:29.66	11.33	26.20	-27.8	-29.1	15.1	0.00e+00	0	43	102	1048576	16	4205
2026-01-04 09:12:30.67	11.11	26.09	-27.5	-28.4	15.6	0.00e+00	0	43	102	1048576	16	4028
2026-01-04 09:12:31.68	10.89	25.97	-27.3	-28.1	15.8	0.00e+00	0	43	102	1048576	16	3931
2026-01-04 09:12:32.69	10.67	25.86	-27.1	-28.2	15.8	0.00e+00	0	43	102	1048576	15	4072
2026-01-04 09:12:33.68	10.46	25.74	-27.2	-28.4	15.7	0.00e+00	0	43	102	1048576	15	4140
2026-01-04 09:12:34.68	10.25	25.63	-27.3	-28.6	15.6	0.00e+00	0	43	102	1048576	15	4190
2026-01-04 09:12:35.69	10.04	25.51	-27.4	-28.8	15.5	0.00e+00	0	43	102	1048576	15	4250
2026-01-04 09:12:36.70	9.83	25.40	-27.6	-29.2	15.3	0.00e+00	0	43	102	1048576	15	4362
2026-01-04 09:12:37.70	9.62	25.29	-27.7	-29.5	15.1	0.00e+00	0	43	102	1048576	15	4440
2026-01-04 09:12:38.71	9.41	25.17	-27.8	-29.7	15.0	0.00e+00	0	43	102	1048576	15	4500
2026-01-04 09:12:39.72	9.20	25.05	-27.7	-29.6	15.0	7.00e-07	0	43	102	1048576	15	4481
2026-01-04 09:12:40.72	9.00	24.94	-27.7	-29.6	15.1	0.00e+00	0	43	102	1048576	15	4466
2026-01-04 09:12:41.73	8.80	24.83	-27.5	-29.1	15.3	0.00e+00	0	43	102	1048576	15	4323
2026-01-04 09:12:42.74	8.59	24.71	-27.3	-28.7	15.5	0.00e+00	0	43	102	1048576	15	4199
2026-01-04 09:12:43.74	8.40	24.60	-27.3	-28.6	15.6	0.00e+00	0	43	102	1048576	15	4188
2026-01-04 09:12:44.75	8.20	24.48	-27.1	-28.2	15.8	0.00e+00	0	43	102	1048576	15	4077
2026-01-04 09:12:45.75	8.00	24.37	-27.0	-28.0	15.9	0.00e+00	0	44	102	1048576	15	4015
2026-01-04 09:12:46.76	7.80	24.26	-27.0	-28.0	15.9	0.00e+00	0	43	102	1048576	15	4018
2026-01-04 09:12:47.77	7.61	24.14	-27.1	-28.3	15.7	0.00e+00	0	43	102	1048576	15	4101
2026-01-04 09:12:48.78	7.42	24.03	-27.1	-28.1	15.8	0.00e+00	0	43	102	1048576	15	4069
2026-01-04 09:12:49.79	7.22	23.91	-27.1	-28.2	15.8	0.00e+00	0	43	102	1048576	15	4072
2026-01-04 09:12:50.80	7.03	23.80	-27.3	-28.5	15.6	0.00e+00	0	43	102	1048576	15	4172
2026-01-04 09:12:51.81	6.84	23.69	-27.2	-28.4	15.6	0.00e+00	0	43	102	1048576	15	4140
2026-01-04 09:12:52.81	6.66	23.57	-27.2	-28.3	15.7	0.00e+00	0	43	102	1048576	15	4112
2026-01-04 09:12:53.81	6.47	23.46	-27.2	-28.5	15.6	3.80e-06	0	43	102	1048576	15	4156
2026-01-04 09:12:54.81	6.29	23.35	-27.2	-28.4	15.6	0.00e+00	0	43	102	1048576	15	4144
2026-01-04 09:12:55.82	6.11	23.24	-27.1	-28.3	15.7	0.00e+00	0	43	102	1048576	15	4098
2026-01-04 09:12:56.82	5.93	23.13	-27.2	-28.3	15.6	0.00e+00	0	43	102	1048576	15	4112
2026-01-04 09:12:57.82	5.75	23.01	-27.2	-28.4	15.6	0.00e+00	0	43	102	1048576	15	4125
2026-01-04 09:12:58.83	5.57	22.90	-27.3	-28.6	15.4	0.00e+00	0	43	102	1048576	15	4184
2026-01-04 09:12:59.84	5.39	22.79	-27.3	-28.6	15.4	0.00e+00	0	43	102	1048576	15	4186
2026-01-04 09:13:00.84	5.21	22.68	-27.4	-28.9	15.3	0.00e+00	0	43	102	1048576	15	4264
2026-01-04 09:13:01.85	5.04	22.57	-27.5	-29.1	15.2	0.00e+00	0	43	102	1048576	15	4341
2026-01-04 09:13:02.86	4.86	22.46	-27.6	-29.2	15.2	0.00e+00	0	43	102	1048576	15	4358
2026-01-04 09:13:03.86	4.69	22.35	-27.6	-29.4	15.1	0.00e+00	0	43	102	1048576	15	4405
2026-01-04 09:13:04.87	4.52	22.23	-27.6	-29.2	15.2	0.00e+00	0	43	102	1048576	15	4367
2026-01-04 09:13:05.87	4.35	22.12	-27.6	-29.4	15.1	0.00e+00	0	43	102	1048576	15	4402
2026-01-04 09:13:06.88	4.18	22.01	-27.5	-29.1	15.2	0.00e+00	0	43	102	1048576	15	4332
2026-01-04 09:13:07.89	4.01	21.90	-27.7	-29.5	15.0	7.00e-07	0	43	102	1048576	15	4446
2026-01-04 09:13:08.90	3.85	21.79	-27.6	-29.3	15.1	0.00e+00	0	43	102	1048576	15	4380
2026-01-04 09:13:09.91	3.68	21.68	-27.5	-29.0	15.2	0.00e+00	0	43	102	1048576	15	4316
2026-01-04 09:13:10.91	3.52	21.57	-27.5	-29.2	15.1	0.00e+00	0	43	102	1048576	15	4348
2026-01-04 09:13:11.92	3.35	21.46	-27.5	-29.1	15.2	7.00e-07	0	43	102	1048576	15	4330
2026-01-04 09:13:12.92	3.19	21.36	-27.5	-29.1	15.2	0.00e+00	0	43	102	1048576	15	4339
2026-01-04 09:13:13.93	3.03	21.25	-27.7	-29.6	14.9	7.00e-07	0	43	102	1048576	15	4462
2026-01-04 09:13:14.94	2.87	21.14	-27.8	-29.7	14.8	0.00e+00	0	43	102	1048576	15	4509
2026-01-04 09:13:15.94	2.71	21.03	-27.8	-29.7	14.8	7.00e-07	0	43	102	1048576	15	4510
2026-01-04 09:13:16.95	2.56	20.92	-27.9	-30.1	14.7	7.00e-07	0	43	102	1048576	15	4620
2026-01-04 09:13:17.96	2.40	20.81	-27.9	-30.0	14.7	0.00e+00	0	43	102	1048576	15	4580
2026-01-04 09:13:18.96	2.24	20.71	-28.2	-30.1	14.6	7.00e-07	0	43	102	1048576	16	4496
2026-01-04 09:13:19.97	2.09	20.60	-28.1	-30.0	14.6	7.00e-07	0	43	102	1048576	16	4466
2026-01-04 09:13:20.98	1.94	20.49	-28.4	-30.6	14.2	7.00e-07	0	43	102	1048576	16	4645
2026-01-04 09:13:21.99	1.78	20.38	-28.1	-30.0	14.6	0.00e+00	0	43	102	1048576	16	4469
2026-01-04 09:13:22.99	1.63	20.28	-28.0	-29.6	14.8	0.00e+00	0	43	102	1048576	16	4355
2026-01-04 09:13:24.00	1.48	20.17	-27.9	-29.4	14.9	0.00e+00	0	43	102	1048576	16	4304
2026-01-04 09:13:25.01	1.34	20.06	-27.9	-29.4	14.9	0.00e+00	0	43	102	1048576	16	4291
2026-01-04 09:13:26.02	1.19	19.96	-27.8	-29.2	15.1	0.00e+00	0	43	102	1048576	16	4237
2026-01-04 09:13:27.02	1.04	19.85	-27.7	-29.1	15.1	0.00e+00	0	43	102	1048576	16	4212
2026-01-04 09:13:28.03	0.90	19.75	-27.9	-29.4	14.9	0.00e+00	0	43	102	1048576	16	4304
2026-01-04 09:13:29.04	0.75	19.64	-27.8	-29.3	15.0	7.00e-07	0	43	102	1048576	16	4265
2026-01-04 09:13:30.05	0.61	19.54	-27.8	-29.3	14.9	0.00e+00	0	43	102	1048576	16	4269
2026-01-04 09:13:31.05	0.47	19.43	-28.0	-29.7	14.7	0.00e+00	0	43	102	1048576	16	4365
2026-01-04 09:13:32.07	0.32	19.33	-27.9	-29.5	14.9	0.00e+00	0	43	102	1048576	16	4321
2026-01-04 09:13:33.07	0.18	19.22	-27.9	-29.5	14.8	7.00e-07	0	43	102	1048576	16	4324
2026-01-04 09:13:34.07	0.04	19.12	-28.0	-29.8	14.7	0.00e+00	0	43	102	1048576	16	4416
2026-01-04 09:13:35.08	359.91	19.01	-27.8	-29.3	14.9	0.00e+00	0	43	102	1048576	16	4279
2026-01-04 09:13:36.09	359.77	18.91	-27.7	-29.1	15.1	0.00e+00	0	43	102	1048576	16	4206
2026-01-04 09:13:37.09	359.63	18.81	-27.7	-29.1	15.1	0.00e+00	0	43	102	1048576	16	4210
2026-01-04 09:13:38.09	359.50	18.71	-27.8	-29.2	14.9	0.00e+00	0	43	102	1048576	16	4253
2026-01-04 09:13:39.10	359.36	18.60	-27.6	-28.9	15.2	0.00e+00	0	43	102	1048576	16	4155
2026-01-04 09:13:40.10	359.23	18.50	-27.6	-28.8	15.2	0.00e+00	0	43	102	1048576	16	4130
2026-01-04 09:13:41.10	359.10	18.40	-27.7	-29.1	15.1	0.00e+00	0	43	102	1048576	16	4208
2026-01-04 09:13:42.12	358.96	18.30	-27.7	-28.9	15.2	0.00e+00	0	43	102	1048576	16	4164
2026-01-04 09:13:43.12	358.83	18.20	-27.6	-28.9	15.2	0.00e+00	0	43	102	1048576	16	4155
2026-01-04 09:13:44.13	358.70	18.09	-27.8	-29.2	15.0	0.00e+00	0	43	102	1048576	16	4232
2026-01-04 09:13:45.14	358.57	17.99	-27.7	-29.1	15.0	1.50e-06	0	43	102	1048576	16	4203
2026-01-04 09:13:46.15	358.44	17.89	-27.7	-29.0	15.1	0.00e+00	0	44	102	1048576	16	4199
2026-01-04 09:13:47.16	358.32	17.79	-27.8	-29.3	14.9	0.00e+00	0	43	102	1048576	16	4285
2026-01-04 09:13:48.16	358.19	17.69	-27.9	-29.4	14.9	0.00e+00	0	43	102	1048576	16	4308
2026-01-04 09:13:49.17	358.07	17.59	-28.0	-29.7	14.6	0.00e+00	0	43	102	1048576	16	4396
2026-01-04 09:13:50.18	357.94	17.49	-28.0	-29.6	14.7	7.00e-07	0	43	102	1048576	16	4365
2026-01-04 09:13:51.19	357.82	17.39	-28.1	-30.0	14.5	0.00e+00	0	43	102	1048576	16	4474
2026-01-04 09:13:52.20	357.69	17.29	-28.2	-30.2	14.4	0.00e+00	0	43	102	1048576	16	4533
2026-01-04 09:13:53.20	357.57	17.19	-28.1	-30.0	14.5	1.50e-06	0	43	102	1048576	16	4479
2026-01-04 09:13:54.20	357.45	17.09	-28.0	-29.8	14.6	0.00e+00	0	43	102	1048576	16	4406
2026-01-04 09:13:55.21	357.33	17.00	-28.1	-30.0	14.5	7.00e-07	0	43	102	1048576	16	4468
2026-01-04 09:13:56.22	357.21	16.90	-28.0	-29.8	14.6	0.00e+00	0	43	102	1048576	16	4405
2026-01-04 09:13:57.22	357.09	16.80	-28.0	-29.7	14.7	0.00e+00	0	43	102	1048576	16	4399
2026-01-04 09:13:58.22	356.97	16.70	-28.1	-30.0	14.5	7.00e-07	0	43	102	1048576	16	4461
2026-01-04 09:13:59.23	356.85	16.60	-27.9	-29.6	14.8	0.00e+00	0	43	102	1048576	16	4350
2026-01-04 09:14:00.24	356.74	16.51	-28.0	-29.7	14.7	0.00e+00	0	43	102	1048576	16	4376
2026-01-04 09:14:01.24	356.62	16.41	-28.0	-29.7	14.7	0.00e+00	0	43	102	1048576	16	4374
2026-01-04 09:14:02.24	356.51	16.31	-28.0	-29.6	14.7	0.00e+00	0	43	102	1048576	16	4363
2026-01-04 09:14:03.25	356.39	16.22	-28.0	-29.8	14.6	7.00e-07	0	43	102	1048576	16	4421
2026-01-04 09:14:04.25	356.28	16.12	-28.1	-30.0	14.5	7.00e-07	0	43	102	1048576	16	4462
2026-01-04 09:14:05.25	356.17	16.03	-28.2	-30.2	14.3	0.00e+00	0	43	102	1048576	16	4550
2026-01-04 09:14:06.26	356.05	15.93	-28.3	-30.5	14.2	7.00e-07	0	43	102	1048576	16	4628
2026-01-04 09:14:07.26	355.94	15.84	-28.4	-30.7	14.0	7.00e-07	0	44	102	1048576	16	4702
2026-01-04 09:14:08.27	355.83	15.74	-28.5	-30.5	13.9	3.80e-06	0	43	102	1048576	17	4515
2026-01-04 09:14:09.28	355.72	15.65	-28.7	-30.9	13.6	1.06e-05	0	44	102	1048576	17	4637
2026-01-04 09:14:10.29	355.61	15.55	-28.6	-30.8	13.7	5.30e-06	0	43	102	1048576	17	4599
2026-01-04 09:14:11.29	355.50	15.46	-28.7	-30.9	13.6	7.60e-06	0	43	102	1048576	17	4652
2026-01-04 09:14:12.29	355.40	15.36	-28.8	-31.1	13.5	1.75e-05	0	43	102	1048576	17	4702
2026-01-04 09:14:13.30	355.29	15.27	-28.8	-31.2	13.4	1.06e-05	0	43	102	1048576	17	4736
2026-01-04 09:14:14.30	355.18	15.18	-28.8	-31.3	13.3	1.90e-05	0	43	102	1048576	17	4773
2026-01-04 09:14:15.30	355.08	15.08	-28.7	-30.9	13.6	7.60e-06	0	43	102	1048576	17	4646
2026-01-04 09:14:16.31	354.97	14.99	-28.7	-30.8	13.6	9.90e-06	0	43	102	1048576	17	4624
2026-01-04 09:14:17.32	354.87	14.90	-28.6	-30.8	13.6	9.10e-06	0	43	102	1048576	17	4610
2026-01-04 09:14:18.32	354.77	14.81	-28.5	-30.5	13.8	5.30e-06	0	43	102	1048576	17	4526
2026-01-04 09:14:19.33	354.66	14.71	-28.5	-30.4	13.9	2.20e-06	0	43	102	1048576	17	4479
2026-01-04 09:14:20.34	354.56	14.62	-28.4	-30.3	13.9	4.50e-06	0	43	102	1048576	17	4455
2026-01-04 09:14:21.35	354.46	14.53	-28.3	-30.0	14.1	2.20e-06	0	43	102	1048576	17	4372
2026-01-04 09:14:22.36	354.36	14.44	-28.3	-29.9	14.1	1.50e-06	0	43	102	1048576	17	4354
2026-01-04 09:14:23.36	354.26	14.35	-28.3	-29.9	14.1	3.80e-06	0	43	102	1048576	17	4341
2026-01-04 09:14:24.36	354.16	14.26	-28.2	-29.7	14.2	7.00e-07	0	43	102	1048576	17	4290
2026-01-04 09:14:25.37	354.06	14.17	-28.3	-29.9	14.1	7.00e-07	0	43	102	1048576	17	4336
2026-01-04 09:14:26.38	353.96	14.07	-28.4	-30.2	13.9	5.30e-06	0	43	102	1048576	17	4422
2026-01-04 09:14:27.39	353.86	13.98	-28.3	-29.9	14.1	3.00e-06	0	43	102	1048576	17	4334
2026-01-04 09:14:28.40	353.76	13.89	-28.3	-30.0	14.1	2.20e-06	0	43	102	1048576	17	4363
2026-01-04 09:14:29.40	353.67	13.80	-28.4	-30.1	14.0	4.50e-06	0	43	102	1048576	17	4416
2026-01-04 09:14:30.41	353.57	13.71	-28.4	-30.2	13.9	7.00e-07	0	43	102	1048576	17	4423
2026-01-04 09:14:31.42	353.47	13.62	-28.5	-30.6	13.7	6.80e-06	0	43	102	1048576	17	4542
2026-01-04 09:14:32.43	353.38	13.54	-28.6	-30.8	13.6	1.14e-05	0	43	102	1048576	17	4613
2026-01-04 09:14:33.42	353.29	13.45	-28.7	-30.8	13.5	7.60e-06	0	43	102	1048576	17	4629
2026-01-04 09:14:34.43	353.19	13.36	-28.8	-31.2	13.3	1.75e-05	0	43	102	1048576	17	4734
2026-01-04 09:14:35.44	353.10	13.27	-28.8	-31.3	13.3	1.83e-05	0	43	102	1048576	17	4776
2026-01-04 09:14:36.45	353.00	13.18	-28.9	-31.6	13.1	1.37e-05	0	43	102	1048576	17	4864
2026-01-04 09:14:37.45	352.91	13.10	-29.1	-31.4	12.9	4.95e-05	0	43	102	1048576	18	4700
2026-01-04 09:14:38.45	352.82	13.01	-29.1	-31.5	12.9	4.50e-05	0	43	102	1048576	18	4722
2026-01-04 09:14:39.46	352.73	12.92	-29.2	-31.6	12.8	7.93e-05	0	43	102	1048576	18	4766
2026-01-04 09:14:40.47	352.64	12.83	-29.1	-31.5	12.8	7.32e-05	0	43	102	1048576	18	4745
2026-01-04 09:14:41.48	352.55	12.75	-29.2	-31.6	12.7	6.63e-05	0	43	102	1048576	18	4765
2026-01-04 09:14:42.48	352.46	12.66	-29.2	-31.7	12.7	6.94e-05	0	43	102	1048576	18	4804
2026-01-04 09:14:43.49	352.37	12.57	-29.1	-31.5	12.8	7.01e-05	0	44	102	1048576	18	4748
2026-01-04 09:14:44.49	352.28	12.49	-29.2	-31.8	12.6	8.08e-05	0	43	102	1048576	18	4851
2026-01-04 09:14:45.50	352.20	12.40	-29.2	-31.8	12.6	1.09e-04	0	43	102	1048576	18	4834
2026-01-04 09:14:46.50	352.11	12.32	-29.0	-31.2	12.9	3.73e-05	0	43	102	1048576	18	4631
2026-01-04 09:14:47.51	352.02	12.23	-28.8	-30.7	13.3	1.67e-05	0	43	102	1048576	18	4480
2026-01-04 09:14:48.51	351.94	12.15	-28.7	-30.4	13.4	1.29e-05	0	43	102	1048576	18	4389
2026-01-04 09:14:49.52	351.85	12.06	-28.6	-30.2	13.6	7.60e-06	0	43	102	1048576	18	4333
2026-01-04 09:14:50.53	351.77	11.98	-28.6	-30.3	13.5	1.37e-05	0	43	102	1048576	18	4363
2026-01-04 09:14:51.54	351.68	11.89	-28.6	-30.3	13.5	1.22e-05	0	43	102	1048576	18	4375
2026-01-04 09:14:52.55	351.60	11.81	-28.6	-30.2	13.6	7.60e-06	0	43	102	1048576	18	4337
2026-01-04 09:14:53.55	351.51	11.72	-28.6	-30.1	13.6	1.52e-05	0	43	102	1048576	18	4320
2026-01-04 09:14:54.56	351.43	11.64	-28.5	-30.0	13.7	5.30e-06	0	43	102	1048576	18	4279
2026-01-04 09:14:55.57	351.35	11.55	-28.5	-30.0	13.6	6.10e-06	0	43	102	1048576	18	4287
2026-01-04 09:14:56.57	351.27	11.47	-28.5	-30.1	13.6	6.10e-06	0	43	102	1048576	18	4294
2026-01-04 09:14:57.58	351.18	11.39	-28.5	-30.0	13.7	9.10e-06	0	43	102	1048576	18	4268
2026-01-04 09:14:58.58	351.10	11.31	-28.5	-29.9	13.7	5.30e-06	0	43	102	1048576	18	4255
2026-01-04 09:14:59.59	351.02	11.22	-28.5	-30.1	13.6	9.90e-06	0	43	102	1048576	18	4308
2026-01-04 09:15:00.59	350.94	11.14	-28.6	-30.1	13.6	1.52e-05	0	43	102	1048576	18	4307
2026-01-04 09:15:01.60	350.86	11.06	-28.6	-30.3	13.5	7.60e-06	0	43	102	1048576	18	4357
2026-01-04 09:15:02.61	350.78	10.98	-28.7	-30.4	13.4	1.75e-05	0	43	102	1048576	18	4398
2026-01-04 09:15:03.62	350.71	10.89	-28.7	-30.5	13.3	2.05e-05	0	43	102	1048576	18	4426
2026-01-04 09:15:04.62	350.63	10.81	-28.7	-30.5	13.3	1.90e-05	0	43	102	1048576	18	4439
2026-01-04 09:15:05.63	350.55	10.73	-28.7	-30.5	13.3	1.22e-05	0	43	102	1048576	18	4424
2026-01-04 09:15:06.63	350.47	10.65	-28.7	-30.6	13.3	2.51e-05	0	43	102	1048576	18	4452
2026-01-04 09:15:07.64	350.40	10.57	-28.8	-30.7	13.2	1.83e-05	0	43	102	1048576	18	4487
2026-01-04 09:15:08.65	350.32	10.49	-28.8	-30.7	13.1	2.36e-05	0	43	102	1048576	18	4504
2026-01-04 09:15:09.66	350.24	10.41	-28.9	-30.9	13.1	3.28e-05	0	43	102	1048576	18	4550
2026-01-04 09:15:10.66	350.17	10.33	-28.9	-30.9	13.0	4.27e-05	0	43	102	1048576	18	4554
2026-01-04 09:15:11.67	350.09	10.25	-28.9	-31.0	13.0	3.43e-05	0	43	102	1048576	18	4573
2026-01-04 09:15:12.67	350.02	10.17	-28.9	-31.0	12.9	4.27e-05	0	43	102	1048576	18	4598
2026-01-04 09:15:13.68	349.94	10.09	-28.9	-31.1	12.9	3.89e-05	0	43	102	1048576	18	4612
2026-01-04 09:15:14.69	349.87	10.01	-29.0	-31.1	12.9	5.26e-05	0	43	102	1048576	18	4623
2026-01-04 09:15:15.70	349.80	9.93	-29.0	-31.2	12.8	5.56e-05	0	43	102	1048576	18	4648
2026-01-04 09:15:16.71	349.72	9.85	-29.0	-31.3	12.7	6.94e-05	0	43	102	1048576	18	4692
2026-01-04 09:15:17.71	349.65	9.77	-29.1	-31.5	12.7	7.17e-05	0	43	102	1048576	18	4731
2026-01-04 09:15:18.72	349.58	9.69	-29.1	-31.5	12.6	9.53e-05	0	43	102	1048576	18	4751
2026-01-04 09:15:19.73	349.51	9.61	-29.1	-31.5	12.6	7.62e-05	0	43	102	1048576	18	4755
2026-01-04 09:15:20.74	349.43	9.53	-29.1	-31.6	12.6	9.30e-05	0	43	102	1048576	18	4774
2026-01-04 09:15:21.75	349.36	9.46	-29.2	-31.7	12.4	1.27e-04	0	43	102	1048576	18	4832
2026-01-04 09:15:22.76	349.29	9.38	-29.1	-31.6	12.5	1.17e-04	0	43	102	1048576	18	4777
2026-01-04 09:15:23.76	349.22	9.30	-29.2	-31.8	12.4	1.30e-04	0	43	102	1048576	18	4838
2026-01-04 09:15:24.76	349.15	9.22	-29.2	-31.9	12.3	1.45e-04	0	43	102	1048576	18	4875
2026-01-04 09:15:25.77	349.08	9.15	-29.3	-32.0	12.2	1.76e-04	0	43	102	1048576	18	4910
2026-01-04 09:15:26.78	349.01	9.07	-29.3	-31.9	12.3	1.82e-04	0	43	102	1048576	18	4898
2026-01-04 09:15:27.79	348.94	8.99	-29.3	-32.0	12.2	1.97e-04	0	43	102	1048576	18	4928
2026-01-04 09:15:28.78	348.88	8.92	-29.4	-32.2	12.1	2.39e-04	0	43	102	1048576	18	5005
2026-01-04 09:15:29.79	348.81	8.84	-29.4	-32.2	12.1	3.12e-04	0	43	102	1048576	18	5003
2026-01-04 09:15:30.80	348.74	8.76	-29.4	-32.4	12.0	3.46e-04	0	43	102	1048576	18	5059
2026-01-04 09:15:31.80	348.67	8.69	-29.4	-32.5	11.9	3.57e-04	0	43	102	1048576	18	5094
2026-01-04 09:15:32.81	348.61	8.61	-29.5	-32.1	11.8	4.59e-04	0	43	102	1048576	19	4846
2026-01-04 09:15:33.82	348.54	8.54	-29.5	-32.2	11.7	5.72e-04	0	43	102	1048576	19	4892
2026-01-04 09:15:34.82	348.48	8.46	-29.6	-32.3	11.7	6.22e-04	0	43	102	1048576	19	4918
2026-01-04 09:15:35.83	348.41	8.38	-29.6	-32.4	11.6	6.51e-04	0	43	102	1048576	19	4960
2026-01-04 09:15:36.84	348.34	8.31	-29.6	-32.4	11.6	7.52e-04	0	43	102	1048576	19	4945
2026-01-04 09:15:37.85	348.28	8.23	-29.8	-32.9	11.3	1.09e-03	0	43	102	1048576	19	5135
2026-01-04 09:15:38.85	348.21	8.16	-29.7	-32.6	11.4	1.26e-03	0	43	102	1048576	19	5057
2026-01-04 09:15:39.85	348.15	8.09	-29.5	-32.2	11.6	6.99e-04	0	43	102	1048576	19	4909
2026-01-04 09:15:40.86	348.09	8.01	-29.6	-32.3	11.6	7.16e-04	0	43	102	1048576	19	4938
2026-01-04 09:15:41.86	348.02	7.94	-29.6	-32.5	11.5	8.25e-04	0	43	102	1048576	19	5004
2026-01-04 09:15:42.86	347.96	7.86	-29.6	-32.5	11.5	8.01e-04	0	43	102	1048576	19	4991
2026-01-04 09:15:43.87	347.90	7.79	-29.7	-32.6	11.3	9.70e-04	0	43	102	1048576	19	5056
2026-01-04 09:15:44.88	347.83	7.72	-29.8	-33.0	11.1	1.19e-03	0	44	102	1048576	19	5184
2026-01-04 09:15:45.88	347.77	7.64	-29.7	-32.8	11.2	1.35e-03	0	43	102	1048576	19	5113
2026-01-04 09:15:46.89	347.71	7.57	-29.7	-32.7	11.3	1.29e-03	0	43	102	1048576	19	5091
2026-01-04 09:15:47.89	347.65	7.50	-29.8	-32.9	11.1	1.23e-03	0	43	102	1048576	19	5157
2026-01-04 09:15:48.90	347.59	7.42	-29.7	-32.8	11.2	1.52e-03	0	43	102	1048576	19	5136
2026-01-04 09:15:49.91	347.53	7.35	-29.8	-32.9	11.1	1.58e-03	0	43	102	1048576	19	5168
2026-01-04 09:15:50.92	347.47	7.28	-29.7	-32.8	11.2	1.29e-03	0	43	102	1048576	19	5124
2026-01-04 09:15:51.93	347.41	7.20	-29.8	-32.9	11.1	1.56e-03	0	43	102	1048576	19	5159
2026-01-04 09:15:52.93	347.35	7.13	-29.9	-33.2	10.9	2.12e-03	0	43	102	1048576	19	5272
2026-01-04 09:15:53.93	347.29	7.06	-33.0	-42.4	3.9	1.49e+00	0	43	104	1048576	26	10705
2026-01-04 09:15:54.93	347.23	6.99	-33.5	-45.2	3.8	1.49e+00	0	43	104	1048576	27	13777

#Closed at: 2026-01-04 09:15:55
#Recorded file [1 MB]: D:/data/31010_260104_120449.dat