passes_logs/2026/01/04/R2M6_AANII_01/R2M6_AANII_01__20260104_004212_FENGYUN_3D_rec.log

#Pass ID: 20260104_004212_FENGYUN 3D
#Satellite: FENGYUN 3D
#Configuration: FENGYUN 3D
#almurnet v.1.7.20240730
#Start time: 2026-01-04 00:42:14

#Version: 2.2.20231116
#Station: R2M6_AANII_01
#Location: 30.233357 lon 59.946436 lat
#TLE: 1 43010U 17072A   26003.51579816  .00000092  00000+0  65324-4 0  9992
#TLE: 2 43010  98.9912 335.1548 0001916 128.4619 231.6729 14.19692074421623

#Time	Az	El	Level	Level2	SNR	BER	BlckErr	Temp	State	Recorded	gain1	gain2
2026-01-04 00:42:14.01	31.67	7.09	-29.1	-31.7	5.6	7.66e-01	0	40	0	0	18	4887
2026-01-04 00:42:15.01	31.77	7.15	-29.7	-32.9	5.4	7.74e-01	0	41	104	0	19	5203
2026-01-04 00:42:16.01	31.87	7.21	-30.0	-33.1	9.7	8.62e-03	0	41	0	0	20	5176
2026-01-04 00:42:17.01	31.97	7.27	-29.6	-32.1	10.4	5.07e-03	0	41	0	5242880	20	4807
2026-01-04 00:42:18.02	32.07	7.33	-29.3	-31.8	11.0	2.33e-03	0	41	0	11534336	19	4779
2026-01-04 00:42:19.03	32.17	7.39	-29.1	-31.6	11.5	7.44e-04	0	41	0	16777216	18	4810
2026-01-04 00:42:20.03	32.28	7.45	-28.8	-30.9	11.9	3.29e-04	0	41	0	22020096	18	4590
2026-01-04 00:42:21.03	32.38	7.51	-28.6	-30.8	12.3	1.48e-04	0	41	0	28311552	17	4670
2026-01-04 00:42:22.04	32.48	7.58	-28.4	-30.4	12.5	8.46e-05	0	41	0	33554432	17	4546
2026-01-04 00:42:23.05	32.59	7.64	-28.3	-30.2	12.6	5.03e-05	0	41	0	38797312	17	4489
2026-01-04 00:42:24.05	32.69	7.70	-28.3	-30.5	12.6	4.23e-05	0	41	0	45088768	16	4662
2026-01-04 00:42:25.06	32.80	7.76	-28.4	-30.9	12.6	6.63e-05	0	41	0	50331648	16	4807
2026-01-04 00:42:26.06	32.90	7.82	-28.0	-29.9	13.2	1.83e-05	0	41	0	56623104	16	4505
2026-01-04 00:42:27.07	33.01	7.88	-27.6	-29.5	13.6	1.66e-04	0	41	0	61865984	15	4501
2026-01-04 00:42:28.07	33.11	7.95	-27.4	-29.2	13.7	2.20e-06	0	41	0	67108864	15	4395
2026-01-04 00:42:29.08	33.22	8.01	-27.4	-29.0	13.8	2.20e-06	0	41	0	73400320	15	4352
2026-01-04 00:42:30.09	33.33	8.07	-27.4	-29.5	13.9	8.00e-06	0	41	0	78643200	14	4601
2026-01-04 00:42:31.09	33.43	8.13	-27.3	-29.4	14.0	2.20e-06	0	41	0	84934656	14	4565
2026-01-04 00:42:32.10	33.54	8.20	-27.3	-29.3	14.0	2.51e-05	0	41	0	90177536	14	4551
2026-01-04 00:42:33.11	33.65	8.26	-27.2	-29.2	14.1	2.20e-06	0	41	0	95420416	14	4528
2026-01-04 00:42:34.11	33.76	8.32	-27.3	-29.4	14.0	1.10e-06	0	41	0	101711872	14	4563
2026-01-04 00:42:35.12	33.87	8.38	-27.1	-28.9	14.2	4.50e-06	0	41	0	106954752	14	4440
2026-01-04 00:42:36.12	33.98	8.45	-27.0	-28.7	14.4	4.23e-05	0	41	0	113246208	14	4377
2026-01-04 00:42:37.12	34.08	8.51	-27.0	-28.6	14.5	0.00e+00	0	41	0	118489088	14	4342
2026-01-04 00:42:38.13	34.20	8.57	-27.0	-28.6	14.4	0.00e+00	0	41	0	123731968	14	4345
2026-01-04 00:42:39.14	34.31	8.63	-26.9	-28.8	14.6	2.40e-05	0	41	0	130023424	13	4510
2026-01-04 00:42:40.15	34.42	8.70	-26.9	-28.9	14.6	1.10e-06	0	42	0	135266304	13	4543
2026-01-04 00:42:41.16	34.53	8.76	-26.8	-28.7	14.7	2.63e-05	0	41	0	140509184	13	4490
2026-01-04 00:42:42.16	34.64	8.82	-26.9	-29.0	14.5	3.89e-05	0	42	0	146800640	13	4568
2026-01-04 00:42:43.17	34.76	8.89	-26.8	-28.8	14.6	0.00e+00	0	42	0	152043520	13	4507
2026-01-04 00:42:44.18	34.87	8.95	-26.9	-28.9	14.6	1.49e-04	0	42	0	158334976	13	4523
2026-01-04 00:42:45.18	34.98	9.01	-26.8	-28.7	14.7	1.70e-04	0	42	0	163577856	13	4475
2026-01-04 00:42:46.19	35.10	9.08	-26.8	-28.7	14.7	0.00e+00	0	42	0	169869312	13	4482
2026-01-04 00:42:47.19	35.21	9.14	-26.9	-28.8	14.6	0.00e+00	0	42	0	175112192	13	4517
2026-01-04 00:42:48.20	35.33	9.20	-26.9	-28.9	14.6	1.37e-04	0	42	0	180355072	13	4542
2026-01-04 00:42:49.21	35.44	9.27	-26.9	-28.8	14.6	0.00e+00	0	42	0	186646528	13	4517
2026-01-04 00:42:50.22	35.56	9.33	-26.8	-28.8	14.7	5.70e-06	0	42	0	191889408	13	4493
2026-01-04 00:42:51.23	35.68	9.39	-26.9	-28.9	14.6	1.10e-06	0	42	0	198180864	13	4539
2026-01-04 00:42:52.23	35.79	9.46	-26.9	-29.0	14.6	0.00e+00	0	42	0	203423744	13	4569
2026-01-04 00:42:53.23	35.91	9.52	-27.1	-29.0	14.1	2.20e-06	0	42	0	208666624	14	4437
2026-01-04 00:42:54.24	36.03	9.58	-27.3	-29.4	13.8	3.40e-06	0	42	0	214958080	14	4560
2026-01-04 00:42:55.25	36.15	9.65	-27.0	-28.7	14.5	1.10e-06	0	42	0	220200960	14	4369
2026-01-04 00:42:56.25	36.27	9.71	-26.9	-28.3	14.7	0.00e+00	0	42	0	225443840	14	4263
2026-01-04 00:42:57.26	36.39	9.78	-26.8	-28.1	14.8	1.17e-04	0	42	0	231735296	14	4193
2026-01-04 00:42:58.27	36.51	9.84	-26.8	-28.1	14.9	0.00e+00	0	42	0	236978176	14	4186
2026-01-04 00:42:59.28	36.63	9.91	-26.8	-28.1	14.9	0.00e+00	0	42	0	243269632	14	4196
2026-01-04 00:43:00.28	36.75	9.97	-26.6	-27.7	15.1	5.14e-05	0	42	0	248512512	14	4093
2026-01-04 00:43:01.28	36.87	10.03	-26.5	-27.4	15.2	0.00e+00	0	42	0	254803968	14	4015
2026-01-04 00:43:02.28	36.99	10.10	-26.5	-27.4	15.3	1.81e-04	0	42	0	260046848	14	4016
2026-01-04 00:43:03.29	37.11	10.16	-26.4	-27.4	15.3	5.03e-05	0	42	0	265289728	14	3996
2026-01-04 00:43:04.29	37.23	10.23	-26.4	-27.2	15.4	0.00e+00	0	42	0	271581184	14	3964
2026-01-04 00:43:05.30	37.36	10.29	-26.3	-27.5	15.5	1.49e-04	0	42	0	276824064	13	4151
2026-01-04 00:43:06.30	37.48	10.35	-26.3	-27.6	15.5	0.00e+00	0	42	0	282066944	13	4160
2026-01-04 00:43:07.30	37.61	10.42	-26.3	-27.5	15.5	0.00e+00	0	42	0	288358400	13	4154
2026-01-04 00:43:08.31	37.73	10.48	-26.4	-27.8	15.3	0.00e+00	0	42	0	293601280	13	4216
2026-01-04 00:43:09.32	37.86	10.55	-26.5	-28.0	15.3	2.86e-05	0	42	0	299892736	13	4270
2026-01-04 00:43:10.32	37.98	10.61	-26.5	-27.9	15.3	0.00e+00	0	42	0	305135616	13	4252
2026-01-04 00:43:11.33	38.11	10.68	-26.6	-28.2	15.1	0.00e+00	0	42	0	310378496	13	4344
2026-01-04 00:43:12.34	38.24	10.74	-26.6	-28.2	15.1	3.77e-05	0	42	0	316669952	13	4337
2026-01-04 00:43:13.34	38.37	10.81	-26.6	-28.3	15.1	0.00e+00	0	42	0	321912832	13	4355
2026-01-04 00:43:14.35	38.49	10.87	-26.6	-28.3	15.1	0.00e+00	0	42	0	328204288	13	4364
2026-01-04 00:43:15.35	38.62	10.94	-26.7	-28.4	15.0	0.00e+00	0	42	0	333447168	13	4385
2026-01-04 00:43:16.36	38.75	11.00	-26.6	-28.3	15.1	0.00e+00	0	42	0	339738624	13	4351
2026-01-04 00:43:17.37	38.88	11.07	-26.6	-28.2	15.2	0.00e+00	0	42	0	344981504	13	4328
2026-01-04 00:43:18.37	39.01	11.13	-26.6	-28.1	15.2	0.00e+00	0	42	0	350224384	13	4319
2026-01-04 00:43:19.38	39.15	11.20	-26.6	-28.2	15.2	0.00e+00	0	42	0	356515840	13	4329
2026-01-04 00:43:20.39	39.28	11.26	-26.7	-28.4	15.0	0.00e+00	0	42	0	361758720	13	4388
2026-01-04 00:43:21.39	39.41	11.33	-26.7	-28.4	15.0	0.00e+00	0	42	0	367001600	13	4395
2026-01-04 00:43:22.39	39.54	11.39	-26.6	-28.2	15.2	0.00e+00	0	42	0	373293056	13	4328
2026-01-04 00:43:23.39	39.67	11.46	-26.6	-28.1	15.2	0.00e+00	0	43	0	378535936	13	4312
2026-01-04 00:43:24.40	39.81	11.52	-26.6	-28.1	15.2	0.00e+00	0	42	0	383778816	13	4320
2026-01-04 00:43:25.39	39.94	11.59	-26.7	-28.5	15.0	0.00e+00	0	42	0	390070272	13	4406
2026-01-04 00:43:26.40	40.08	11.65	-26.8	-28.6	15.0	0.00e+00	0	42	0	395313152	13	4429
2026-01-04 00:43:27.40	40.21	11.72	-26.6	-28.2	15.2	0.00e+00	0	42	0	401604608	13	4323
2026-01-04 00:43:28.41	40.35	11.78	-26.5	-28.1	15.3	0.00e+00	0	42	0	406847488	13	4294
2026-01-04 00:43:29.42	40.49	11.85	-26.6	-28.2	15.2	0.00e+00	0	42	0	413138944	13	4330
2026-01-04 00:43:30.43	40.62	11.92	-26.6	-28.3	15.2	0.00e+00	0	42	0	418381824	13	4347
2026-01-04 00:43:31.43	40.76	11.98	-26.5	-28.0	15.3	0.00e+00	0	43	0	423624704	13	4281
2026-01-04 00:43:32.44	40.90	12.05	-26.6	-28.1	15.3	0.00e+00	0	42	0	429916160	13	4301
2026-01-04 00:43:33.44	41.04	12.11	-26.5	-27.9	15.4	0.00e+00	0	42	0	435159040	13	4244
2026-01-04 00:43:34.45	41.18	12.18	-26.5	-28.0	15.3	0.00e+00	0	42	0	440401920	13	4276
2026-01-04 00:43:35.46	41.32	12.24	-26.6	-28.2	15.2	0.00e+00	0	42	0	446693376	13	4329
2026-01-04 00:43:36.47	41.46	12.31	-26.3	-27.6	15.6	0.00e+00	0	42	0	451936256	13	4160
2026-01-04 00:43:37.47	41.60	12.37	-26.1	-27.1	15.7	0.00e+00	0	43	0	458227712	13	4045
2026-01-04 00:43:38.48	41.75	12.44	-26.1	-27.0	15.9	0.00e+00	0	43	0	463470592	13	3998
2026-01-04 00:43:39.49	41.89	12.51	-26.0	-26.9	16.0	0.00e+00	0	42	0	468713472	13	3974
2026-01-04 00:43:40.49	42.03	12.57	-26.0	-26.9	16.0	4.00e-05	0	43	0	475004928	13	3976
2026-01-04 00:43:41.49	42.18	12.64	-25.9	-26.7	16.1	0.00e+00	0	43	0	480247808	13	3927
2026-01-04 00:43:42.50	42.32	12.70	-25.9	-26.6	16.2	0.00e+00	0	43	0	486539264	13	3901
2026-01-04 00:43:43.51	42.47	12.77	-25.8	-26.5	16.2	0.00e+00	0	43	0	491782144	13	3883
2026-01-04 00:43:44.52	42.62	12.84	-25.9	-26.7	16.1	0.00e+00	0	42	0	498073600	13	3924
2026-01-04 00:43:45.53	42.76	12.90	-25.9	-26.7	16.1	0.00e+00	0	43	0	503316480	13	3919
2026-01-04 00:43:46.54	42.91	12.97	-25.8	-26.5	16.2	0.00e+00	0	42	0	508559360	13	3881
2026-01-04 00:43:47.54	43.06	13.03	-25.9	-26.7	16.1	1.30e-04	0	42	0	514850816	13	3920
2026-01-04 00:43:48.54	43.21	13.10	-26.0	-26.9	16.0	0.00e+00	0	42	0	520093696	13	3981
2026-01-04 00:43:49.56	43.36	13.17	-26.0	-26.8	16.0	3.60e-04	0	43	0	525336576	13	3969
2026-01-04 00:43:50.56	43.51	13.23	-25.9	-27.1	16.2	0.00e+00	0	43	0	531628032	12	4148
2026-01-04 00:43:51.57	43.66	13.30	-25.9	-27.1	16.2	0.00e+00	0	43	0	536870912	12	4131
2026-01-04 00:43:52.57	43.81	13.36	-25.9	-27.7	16.2	5.77e-04	0	42	0	543162368	11	4406
2026-01-04 00:43:53.58	43.96	13.43	-25.8	-27.0	16.2	5.39e-04	0	43	0	548405248	12	4110
2026-01-04 00:43:54.59	44.11	13.50	-25.8	-26.8	16.3	0.00e+00	0	43	0	553648128	12	4067
2026-01-04 00:43:55.59	44.27	13.56	-25.8	-27.5	16.3	0.00e+00	0	43	0	559939584	11	4346
2026-01-04 00:43:56.60	44.42	13.63	-25.8	-27.5	16.3	3.74e-04	0	43	0	565182464	11	4345
2026-01-04 00:43:57.60	44.57	13.69	-25.8	-27.5	16.3	0.00e+00	0	43	0	571473920	11	4344
2026-01-04 00:43:58.60	44.73	13.76	-25.8	-27.5	16.3	2.93e-04	0	43	0	576716800	11	4352
2026-01-04 00:43:59.61	44.89	13.82	-25.9	-27.7	16.2	2.55e-04	0	43	0	583008256	11	4397
2026-01-04 00:44:00.62	45.04	13.89	-25.9	-27.2	16.1	0.00e+00	0	43	0	588251136	12	4175
2026-01-04 00:44:01.62	45.20	13.96	-26.2	-27.7	15.9	1.75e-04	0	43	0	593494016	12	4311
2026-01-04 00:44:02.63	45.36	14.02	-26.1	-27.7	15.9	0.00e+00	0	43	0	599785472	12	4289
2026-01-04 00:44:03.64	45.52	14.09	-26.0	-27.4	16.0	0.00e+00	0	43	0	605028352	12	4218
2026-01-04 00:44:04.65	45.68	14.15	-25.9	-27.2	16.1	0.00e+00	0	43	0	610271232	12	4169
2026-01-04 00:44:05.66	45.84	14.22	-26.0	-27.4	16.0	1.15e-04	0	43	0	616562688	12	4218
2026-01-04 00:44:06.66	46.00	14.29	-26.0	-27.3	16.1	0.00e+00	0	43	0	621805568	12	4194
2026-01-04 00:44:07.67	46.16	14.35	-26.0	-27.3	16.1	3.43e-05	0	43	0	628097024	12	4191
2026-01-04 00:44:08.68	46.32	14.42	-26.1	-27.7	15.9	1.91e-04	0	43	0	633339904	12	4291
2026-01-04 00:44:09.69	46.49	14.48	-26.0	-27.3	16.1	0.00e+00	0	43	0	638582784	12	4200
2026-01-04 00:44:10.70	46.65	14.55	-25.7	-26.8	16.4	2.39e-04	0	43	0	644874240	12	4065
2026-01-04 00:44:11.70	46.81	14.61	-25.6	-26.5	16.6	0.00e+00	0	43	0	650117120	12	3985
2026-01-04 00:44:12.71	46.98	14.68	-25.5	-26.3	16.7	0.00e+00	0	43	0	656408576	12	3938
2026-01-04 00:44:13.72	47.15	14.75	-25.6	-26.5	16.6	0.00e+00	0	43	0	661651456	12	3980
2026-01-04 00:44:14.73	47.31	14.81	-25.5	-26.2	16.8	0.00e+00	0	43	0	667942912	12	3906
2026-01-04 00:44:15.73	47.48	14.88	-25.5	-26.2	16.7	0.00e+00	0	43	0	673185792	12	3914
2026-01-04 00:44:16.73	47.65	14.94	-25.5	-26.3	16.7	0.00e+00	0	43	0	678428672	12	3943
2026-01-04 00:44:17.74	47.81	15.01	-25.7	-26.6	16.5	4.04e-04	0	43	0	684720128	12	4015
2026-01-04 00:44:18.74	47.98	15.07	-25.7	-26.7	16.5	0.00e+00	0	43	0	689963008	12	4032
2026-01-04 00:44:19.75	48.15	15.14	-25.7	-26.8	16.4	0.00e+00	0	43	0	695205888	12	4072
2026-01-04 00:44:20.75	48.32	15.20	-25.8	-27.0	16.3	0.00e+00	0	43	0	701497344	12	4110
2026-01-04 00:44:21.76	48.50	15.27	-26.0	-27.3	16.2	0.00e+00	0	43	0	706740224	12	4190
2026-01-04 00:44:22.76	48.67	15.33	-25.9	-27.0	16.3	0.00e+00	0	43	0	713031680	12	4113
2026-01-04 00:44:23.76	48.84	15.40	-25.8	-26.9	16.4	0.00e+00	0	43	0	718274560	12	4081
2026-01-04 00:44:24.76	49.01	15.46	-25.8	-26.8	16.4	0.00e+00	0	43	0	723517440	12	4060
2026-01-04 00:44:25.77	49.19	15.53	-25.8	-27.0	16.3	0.00e+00	0	43	0	729808896	12	4105
2026-01-04 00:44:26.77	49.36	15.59	-25.7	-26.8	16.4	0.00e+00	0	43	0	735051776	12	4053
2026-01-04 00:44:27.78	49.54	15.66	-25.9	-27.2	16.2	0.00e+00	0	43	0	741343232	12	4170
2026-01-04 00:44:28.78	49.71	15.72	-25.8	-26.8	16.4	0.00e+00	0	43	0	746586112	12	4067
2026-01-04 00:44:29.79	49.89	15.79	-25.4	-26.0	16.9	0.00e+00	0	43	0	751828992	12	3866
2026-01-04 00:44:30.80	50.07	15.85	-25.2	-26.2	17.1	0.00e+00	0	43	0	758120448	11	4003
2026-01-04 00:44:31.80	50.25	15.91	-25.3	-26.3	17.0	0.00e+00	0	43	0	763363328	11	4048
2026-01-04 00:44:32.81	50.43	15.98	-25.2	-26.1	17.2	0.00e+00	0	43	0	769654784	11	3992
2026-01-04 00:44:33.82	50.61	16.04	-25.2	-26.1	17.1	0.00e+00	0	43	0	774897664	11	3989
2026-01-04 00:44:34.83	50.79	16.11	-25.2	-26.1	17.2	0.00e+00	0	43	0	780140544	11	3993
2026-01-04 00:44:35.83	50.97	16.17	-25.2	-26.1	17.2	0.00e+00	0	43	0	786432000	11	3986
2026-01-04 00:44:36.82	51.15	16.23	-25.3	-26.2	17.1	0.00e+00	0	43	0	791674880	11	4019
2026-01-04 00:44:37.82	51.33	16.30	-25.2	-26.2	17.1	0.00e+00	0	43	0	796917760	11	4006
2026-01-04 00:44:38.83	51.52	16.36	-25.2	-26.6	17.2	0.00e+00	0	43	0	803209216	10	4234
2026-01-04 00:44:39.84	51.70	16.42	-25.3	-26.8	17.1	0.00e+00	0	43	0	808452096	10	4267
2026-01-04 00:44:40.84	51.89	16.49	-25.3	-26.7	17.1	0.00e+00	0	43	0	814743552	10	4261
2026-01-04 00:44:41.85	52.07	16.55	-25.3	-26.9	17.1	0.00e+00	0	43	0	819986432	10	4292
2026-01-04 00:44:42.85	52.26	16.61	-25.3	-26.7	17.1	0.00e+00	0	43	0	825229312	10	4247
2026-01-04 00:44:43.86	52.45	16.68	-25.2	-26.6	17.2	0.00e+00	0	43	0	831520768	10	4230
2026-01-04 00:44:44.87	52.64	16.74	-25.3	-26.8	17.1	0.00e+00	0	43	0	836763648	10	4274
2026-01-04 00:44:45.88	52.83	16.80	-25.2	-26.6	17.2	0.00e+00	0	43	0	843055104	10	4214
2026-01-04 00:44:46.89	53.02	16.87	-25.1	-26.3	17.4	0.00e+00	0	43	0	848297984	10	4155
2026-01-04 00:44:47.89	53.21	16.93	-25.2	-26.6	17.2	0.00e+00	0	43	0	853540864	10	4208
2026-01-04 00:44:48.90	53.40	16.99	-25.1	-26.4	17.3	0.00e+00	0	43	0	859832320	10	4159
2026-01-04 00:44:49.90	53.59	17.05	-25.1	-26.3	17.4	0.00e+00	0	43	0	865075200	10	4154
2026-01-04 00:44:50.91	53.79	17.12	-25.3	-26.7	17.2	0.00e+00	0	43	0	871366656	10	4239
2026-01-04 00:44:51.92	53.98	17.18	-25.0	-26.2	17.5	0.00e+00	0	43	0	876609536	10	4107
2026-01-04 00:44:52.92	54.18	17.24	-25.0	-26.1	17.5	0.00e+00	0	43	0	881852416	10	4082
2026-01-04 00:44:53.93	54.37	17.30	-24.9	-26.0	17.5	0.00e+00	0	43	0	888143872	10	4069
2026-01-04 00:44:54.93	54.57	17.36	-25.0	-26.0	16.6	0.00e+00	0	43	0	893386752	10	4073
2026-01-04 00:44:55.94	54.77	17.42	-25.0	-26.1	16.8	0.00e+00	0	43	0	899678208	10	4100
2026-01-04 00:44:56.95	54.96	17.49	-25.0	-26.2	17.4	0.00e+00	0	43	0	904921088	10	4126
2026-01-04 00:44:57.95	55.16	17.55	-25.1	-26.3	17.4	0.00e+00	0	43	0	910163968	10	4135
2026-01-04 00:44:58.95	55.36	17.61	-25.0	-26.2	17.4	0.00e+00	0	43	0	916455424	10	4132
2026-01-04 00:44:59.96	55.56	17.67	-25.1	-26.4	17.3	0.00e+00	0	43	0	921698304	10	4162
2026-01-04 00:45:00.96	55.76	17.73	-25.3	-26.8	17.1	0.00e+00	0	43	0	926941184	10	4275
2026-01-04 00:45:01.96	55.96	17.79	-25.1	-26.3	17.4	0.00e+00	0	43	0	933232640	10	4140
2026-01-04 00:45:02.97	56.17	17.85	-25.1	-26.3	17.4	0.00e+00	0	43	0	938475520	10	4132
2026-01-04 00:45:03.98	56.37	17.91	-25.2	-26.6	17.2	0.00e+00	0	43	0	944766976	10	4215
2026-01-04 00:45:04.99	56.58	17.97	-25.1	-26.4	17.3	2.72e-04	0	43	0	950009856	10	4167
2026-01-04 00:45:06.00	56.78	18.03	-25.1	-26.3	17.4	0.00e+00	0	43	0	955252736	10	4140
2026-01-04 00:45:07.01	56.99	18.09	-25.1	-26.4	17.4	2.96e-04	0	43	0	961544192	10	4157
2026-01-04 00:45:08.02	57.20	18.15	-25.1	-26.4	17.4	3.55e-04	0	43	0	966787072	10	4164
2026-01-04 00:45:09.02	57.40	18.20	-25.0	-26.1	17.5	0.00e+00	0	43	0	973078528	10	4092
2026-01-04 00:45:10.03	57.61	18.26	-25.0	-26.2	17.4	3.40e-04	0	43	0	978321408	10	4119
2026-01-04 00:45:11.04	57.82	18.32	-25.0	-26.2	17.5	0.00e+00	0	43	0	984612864	10	4128
2026-01-04 00:45:12.05	58.03	18.38	-25.1	-26.3	17.4	0.00e+00	0	43	0	989855744	10	4152
2026-01-04 00:45:13.05	58.24	18.44	-25.2	-26.7	17.2	2.91e-04	0	43	0	995098624	10	4241
2026-01-04 00:45:14.06	58.45	18.50	-25.0	-26.2	17.5	2.52e-04	0	43	0	1001390080	10	4112
2026-01-04 00:45:15.07	58.67	18.55	-25.0	-26.1	17.5	0.00e+00	0	43	0	1006632960	10	4105
2026-01-04 00:45:16.07	58.88	18.61	-25.2	-26.5	17.3	2.73e-04	0	43	0	1012924416	10	4189
2026-01-04 00:45:17.08	59.09	18.67	-25.0	-26.1	17.5	2.96e-04	0	43	0	1018167296	10	4092
2026-01-04 00:45:18.09	59.31	18.72	-24.9	-25.9	17.6	0.00e+00	0	43	0	1023410176	10	4055
2026-01-04 00:45:19.10	59.52	18.78	-24.9	-25.9	17.6	3.36e-04	0	43	0	1029701632	10	4051
2026-01-04 00:45:20.09	59.74	18.84	-24.9	-25.9	17.6	0.00e+00	0	43	0	1034944512	10	4041
2026-01-04 00:45:21.10	59.96	18.89	-24.7	-25.6	17.8	0.00e+00	0	43	0	1040187392	10	3967
2026-01-04 00:45:22.12	60.18	18.95	-24.8	-25.7	17.8	0.00e+00	0	43	0	1046478848	10	3996
2026-01-04 00:45:23.12	60.39	19.00	-24.8	-25.8	17.7	2.67e-04	0	43	0	1051721728	10	4011
2026-01-04 00:45:24.13	60.61	19.06	-24.7	-25.4	17.9	0.00e+00	0	43	0	1058013184	10	3916
2026-01-04 00:45:25.13	60.83	19.11	-24.6	-25.2	18.0	0.00e+00	0	43	0	1063256064	10	3879
2026-01-04 00:45:26.13	61.05	19.17	-24.6	-25.3	17.9	1.80e-04	0	43	0	1069547520	10	3906
2026-01-04 00:45:27.14	61.27	19.22	-24.8	-25.7	17.7	0.00e+00	0	43	0	1074790400	10	4000
2026-01-04 00:45:28.15	61.50	19.28	-24.9	-25.8	17.7	2.48e-04	0	43	0	1080033280	10	4028
2026-01-04 00:45:29.15	61.72	19.33	-24.8	-25.6	17.8	0.00e+00	0	43	0	1086324736	10	3964
2026-01-04 00:45:30.16	61.94	19.38	-24.9	-25.8	17.7	0.00e+00	0	43	0	1091567616	10	4022
2026-01-04 00:45:31.16	62.17	19.44	-24.9	-25.9	17.7	0.00e+00	0	43	0	1097859072	10	4036
2026-01-04 00:45:32.16	62.39	19.49	-25.0	-26.1	17.5	0.00e+00	0	43	0	1103101952	10	4093
2026-01-04 00:45:33.17	62.62	19.54	-25.0	-26.1	17.6	0.00e+00	0	43	0	1108344832	10	4088
2026-01-04 00:45:34.18	62.85	19.59	-24.7	-25.6	17.8	0.00e+00	0	43	0	1114636288	10	3956
2026-01-04 00:45:35.19	63.08	19.64	-24.6	-25.8	17.9	0.00e+00	0	43	0	1119879168	9	4128
2026-01-04 00:45:36.19	63.30	19.69	-24.7	-25.9	17.9	0.00e+00	0	43	0	1125122048	9	4154
2026-01-04 00:45:37.19	63.53	19.75	-24.5	-25.6	18.1	0.00e+00	0	43	0	1131413504	9	4071
2026-01-04 00:45:38.20	63.76	19.80	-24.5	-25.5	18.1	0.00e+00	0	43	0	1136656384	9	4063
2026-01-04 00:45:39.21	63.99	19.85	-24.5	-25.5	18.2	0.00e+00	0	43	0	1142947840	9	4042
2026-01-04 00:45:40.21	64.22	19.90	-24.3	-25.1	18.3	0.00e+00	0	43	0	1148190720	9	3962
2026-01-04 00:45:41.22	64.46	19.95	-24.5	-25.5	18.1	0.00e+00	0	43	0	1154482176	9	4051
2026-01-04 00:45:42.22	64.69	20.00	-24.5	-25.7	18.0	0.00e+00	0	43	0	1159725056	9	4105
2026-01-04 00:45:43.23	64.92	20.04	-24.7	-26.0	17.8	0.00e+00	0	43	0	1164967936	9	4190
2026-01-04 00:45:44.24	65.16	20.09	-24.6	-25.9	17.9	0.00e+00	0	43	0	1171259392	9	4160
2026-01-04 00:45:45.24	65.39	20.14	-24.6	-25.8	18.0	0.00e+00	0	43	0	1176502272	9	4119
2026-01-04 00:45:46.25	65.63	20.19	-24.6	-25.8	18.0	0.00e+00	0	43	0	1181745152	9	4123
2026-01-04 00:45:47.25	65.86	20.24	-24.7	-26.0	17.8	0.00e+00	0	43	0	1188036608	9	4185
2026-01-04 00:45:48.26	66.10	20.28	-24.8	-26.2	17.8	0.00e+00	0	43	0	1193279488	9	4226
2026-01-04 00:45:49.26	66.34	20.33	-24.7	-26.1	17.8	0.00e+00	0	43	0	1199570944	9	4194
2026-01-04 00:45:50.27	66.58	20.38	-24.8	-26.2	17.7	0.00e+00	0	43	0	1204813824	9	4248
2026-01-04 00:45:51.27	66.82	20.42	-24.8	-26.3	17.7	0.00e+00	0	43	0	1210056704	9	4251
2026-01-04 00:45:52.28	67.06	20.47	-24.7	-26.0	17.8	0.00e+00	0	43	0	1216348160	9	4189
2026-01-04 00:45:53.28	67.30	20.51	-24.7	-26.0	17.9	0.00e+00	0	43	0	1221591040	9	4175
2026-01-04 00:45:54.28	67.54	20.55	-24.8	-26.2	17.8	0.00e+00	0	43	0	1227882496	9	4229
2026-01-04 00:45:55.29	67.78	20.60	-24.8	-26.2	17.8	0.00e+00	0	43	0	1233125376	9	4222
2026-01-04 00:45:56.30	68.02	20.64	-24.9	-26.5	17.6	0.00e+00	0	43	0	1238368256	9	4300
2026-01-04 00:45:57.31	68.27	20.69	-24.6	-25.8	18.0	0.00e+00	0	43	0	1244659712	9	4121
2026-01-04 00:45:58.31	68.51	20.73	-24.3	-25.2	18.3	0.00e+00	0	43	0	1249902592	9	3988
2026-01-04 00:45:59.32	68.76	20.77	-24.2	-25.0	18.4	0.00e+00	0	43	0	1256194048	9	3925
2026-01-04 00:46:00.33	69.00	20.81	-24.2	-24.9	18.5	0.00e+00	0	43	0	1261436928	9	3903
2026-01-04 00:46:01.34	69.25	20.85	-24.2	-25.4	18.4	0.00e+00	0	43	0	1266679808	8	4141
2026-01-04 00:46:02.35	69.50	20.90	-24.0	-25.0	18.7	3.31e-05	0	43	0	1272971264	8	4036
2026-01-04 00:46:03.35	69.74	20.94	-24.1	-25.1	18.6	0.00e+00	0	43	0	1278214144	8	4071
2026-01-04 00:46:04.36	69.99	20.98	-24.1	-25.2	18.5	0.00e+00	0	43	0	1283457024	8	4100
2026-01-04 00:46:05.37	70.24	21.02	-24.1	-25.3	18.5	0.00e+00	0	43	0	1289748480	8	4108
2026-01-04 00:46:06.38	70.49	21.05	-24.2	-25.5	18.4	0.00e+00	0	43	0	1294991360	8	4160
2026-01-04 00:46:07.38	70.74	21.09	-24.1	-25.3	18.5	0.00e+00	0	43	0	1301282816	8	4122
2026-01-04 00:46:08.39	70.99	21.13	-24.2	-25.5	18.4	0.00e+00	0	43	0	1306525696	8	4164
2026-01-04 00:46:09.40	71.25	21.17	-24.2	-25.4	18.2	0.00e+00	0	43	0	1312817152	8	4138
2026-01-04 00:46:10.40	71.50	21.21	-24.1	-25.3	17.7	0.00e+00	0	43	0	1318060032	8	4105
2026-01-04 00:46:11.41	71.75	21.24	-24.3	-25.5	18.3	0.00e+00	0	43	0	1323302912	8	4170
2026-01-04 00:46:12.42	72.00	21.28	-24.2	-25.6	18.2	0.00e+00	0	43	0	1329594368	8	4200
2026-01-04 00:46:13.42	72.26	21.31	-24.2	-25.5	18.2	1.35e-04	0	43	0	1334837248	8	4187
2026-01-04 00:46:14.43	72.51	21.35	-24.3	-25.6	18.2	0.00e+00	0	43	0	1341128704	8	4218
2026-01-04 00:46:15.43	72.76	21.38	-24.3	-25.7	18.1	9.38e-05	0	43	0	1346371584	8	4235
2026-01-04 00:46:16.44	73.02	21.42	-24.2	-25.6	18.2	0.00e+00	0	43	0	1351614464	8	4211
2026-01-04 00:46:17.44	73.28	21.45	-24.4	-25.9	18.0	0.00e+00	0	43	0	1357905920	8	4287
2026-01-04 00:46:18.45	73.53	21.48	-24.4	-26.0	18.0	0.00e+00	0	43	0	1363148800	8	4303
2026-01-04 00:46:19.46	73.79	21.52	-24.3	-25.7	18.1	0.00e+00	0	43	0	1368391680	8	4231
2026-01-04 00:46:20.47	74.05	21.55	-24.2	-25.5	18.2	0.00e+00	0	43	0	1374683136	8	4194
2026-01-04 00:46:21.47	74.31	21.58	-24.2	-25.4	18.3	0.00e+00	0	43	0	1379926016	8	4164
2026-01-04 00:46:22.48	74.57	21.61	-24.1	-25.2	18.4	8.58e-05	0	43	0	1386217472	8	4114
2026-01-04 00:46:23.48	74.82	21.64	-24.1	-25.4	18.3	0.00e+00	0	43	0	1391460352	8	4161
2026-01-04 00:46:24.49	75.08	21.67	-24.4	-25.9	18.0	1.07e-04	0	43	0	1397751808	8	4293
2026-01-04 00:46:25.50	75.34	21.70	-24.4	-26.0	17.9	8.58e-05	0	43	0	1402994688	8	4324
2026-01-04 00:46:26.50	75.60	21.73	-24.3	-25.8	18.1	0.00e+00	0	43	0	1408237568	8	4255
2026-01-04 00:46:27.50	75.86	21.76	-24.2	-25.6	18.2	5.37e-05	0	43	0	1414529024	8	4199
2026-01-04 00:46:28.51	76.13	21.78	-24.3	-25.7	18.1	6.06e-05	0	43	0	1419771904	8	4235
2026-01-04 00:46:29.51	76.39	21.81	-24.2	-25.6	18.2	0.00e+00	0	43	0	1425014784	8	4195
2026-01-04 00:46:30.52	76.65	21.84	-24.3	-25.6	18.2	7.43e-05	0	43	0	1431306240	8	4214
2026-01-04 00:46:31.52	76.91	21.86	-24.4	-25.9	18.0	8.23e-05	0	43	0	1436549120	8	4290
2026-01-04 00:46:32.52	77.17	21.89	-24.2	-25.5	18.2	0.00e+00	0	43	0	1442840576	8	4197
2026-01-04 00:46:33.53	77.44	21.91	-24.1	-25.2	18.4	2.43e-04	0	43	0	1448083456	8	4112
2026-01-04 00:46:34.53	77.70	21.94	-24.1	-25.3	18.3	2.46e-04	0	43	0	1453326336	8	4142
2026-01-04 00:46:35.54	77.96	21.96	-24.0	-25.1	18.5	0.00e+00	0	43	0	1459617792	8	4080
2026-01-04 00:46:36.54	78.23	21.98	-23.8	-24.7	18.6	2.01e-04	0	43	0	1464860672	8	3993
2026-01-04 00:46:37.55	78.49	22.00	-23.7	-24.5	18.7	2.30e-04	0	43	0	1471152128	8	3949
2026-01-04 00:46:38.55	78.76	22.03	-23.8	-24.6	18.7	0.00e+00	0	43	0	1476395008	8	3959
2026-01-04 00:46:39.56	79.03	22.05	-23.9	-24.8	18.6	3.01e-04	0	43	0	1481637888	8	4003
2026-01-04 00:46:40.57	79.29	22.07	-24.0	-25.0	18.5	0.00e+00	0	43	0	1487929344	8	4058
2026-01-04 00:46:41.57	79.56	22.09	-24.0	-25.1	18.4	0.00e+00	0	43	0	1493172224	8	4091
2026-01-04 00:46:42.58	79.83	22.11	-24.1	-25.2	18.4	0.00e+00	0	43	0	1499463680	8	4116
2026-01-04 00:46:43.59	80.09	22.13	-23.9	-25.0	18.5	4.37e-04	0	43	0	1504706560	8	4049
2026-01-04 00:46:44.59	80.36	22.14	-23.9	-24.8	18.6	0.00e+00	0	43	0	1509949440	8	4010
2026-01-04 00:46:45.60	80.63	22.16	-23.9	-24.8	18.6	0.00e+00	0	43	0	1516240896	8	4019
2026-01-04 00:46:46.61	80.90	22.18	-23.9	-24.8	18.6	0.00e+00	0	43	0	1521483776	8	4008
2026-01-04 00:46:47.62	81.17	22.19	-23.9	-24.8	18.6	0.00e+00	0	43	0	1527775232	8	4001
2026-01-04 00:46:48.63	81.44	22.21	-24.0	-25.0	18.5	0.00e+00	0	43	0	1533018112	8	4063
2026-01-04 00:46:49.63	81.71	22.22	-24.0	-25.1	18.4	0.00e+00	0	43	0	1538260992	8	4087
2026-01-04 00:46:50.63	81.97	22.24	-24.0	-25.1	18.4	0.00e+00	0	43	0	1544552448	8	4100
2026-01-04 00:46:51.64	82.24	22.25	-24.1	-25.3	18.4	0.00e+00	0	43	0	1549795328	8	4143
2026-01-04 00:46:52.65	82.51	22.26	-24.0	-25.1	18.4	0.00e+00	0	43	0	1556086784	8	4081
2026-01-04 00:46:53.65	82.78	22.28	-23.9	-24.9	18.6	0.00e+00	0	43	0	1561329664	8	4028
2026-01-04 00:46:54.66	83.05	22.29	-23.9	-24.9	18.5	0.00e+00	0	43	0	1567621120	8	4045
2026-01-04 00:46:55.67	83.33	22.30	-23.9	-24.9	18.5	0.00e+00	0	43	0	1572864000	8	4040
2026-01-04 00:46:56.68	83.60	22.31	-24.0	-25.0	18.5	0.00e+00	0	43	0	1578106880	8	4063
2026-01-04 00:46:57.68	83.87	22.32	-23.9	-25.0	18.5	0.00e+00	0	43	0	1584398336	8	4051
2026-01-04 00:46:58.69	84.14	22.33	-23.9	-24.8	18.6	0.00e+00	0	43	0	1589641216	8	4006
2026-01-04 00:46:59.70	84.41	22.34	-23.9	-24.9	18.6	0.00e+00	0	43	0	1594884096	8	4022
2026-01-04 00:47:00.70	84.68	22.35	-23.8	-24.8	18.6	0.00e+00	0	43	0	1601175552	8	4004
2026-01-04 00:47:01.71	84.95	22.35	-23.9	-24.8	18.6	0.00e+00	0	43	0	1606418432	8	4016
2026-01-04 00:47:02.71	85.22	22.36	-23.9	-25.0	18.5	0.00e+00	0	43	0	1612709888	8	4042
2026-01-04 00:47:03.72	85.50	22.36	-24.0	-25.1	18.4	0.00e+00	0	43	0	1617952768	8	4086
2026-01-04 00:47:04.72	85.77	22.37	-23.9	-24.9	18.5	0.00e+00	0	43	0	1623195648	8	4044
2026-01-04 00:47:05.73	86.04	22.37	-24.0	-25.1	18.4	0.00e+00	0	43	0	1629487104	8	4075
2026-01-04 00:47:06.73	86.31	22.38	-24.0	-25.1	18.4	0.00e+00	0	43	0	1634729984	8	4081
2026-01-04 00:47:07.73	86.58	22.38	-24.0	-25.2	18.4	0.00e+00	0	43	0	1641021440	8	4104
2026-01-04 00:47:08.74	86.85	22.38	-24.0	-25.1	18.4	0.00e+00	0	43	0	1646264320	8	4086
2026-01-04 00:47:09.74	87.12	22.39	-24.2	-25.4	18.3	0.00e+00	0	43	0	1651507200	8	4173
2026-01-04 00:47:10.74	87.39	22.39	-24.1	-25.3	18.3	0.00e+00	0	43	0	1657798656	8	4149
2026-01-04 00:47:11.75	87.67	22.39	-24.0	-25.1	18.5	0.00e+00	0	43	0	1663041536	8	4081
2026-01-04 00:47:12.76	87.94	22.39	-23.9	-25.0	18.5	0.00e+00	0	43	0	1668284416	8	4051
2026-01-04 00:47:13.76	88.21	22.39	-24.0	-25.0	18.5	0.00e+00	0	43	0	1674575872	8	4068
2026-01-04 00:47:14.77	88.48	22.39	-23.9	-24.8	18.6	0.00e+00	0	43	0	1679818752	8	4016
2026-01-04 00:47:15.78	88.76	22.38	-23.8	-24.7	18.6	0.00e+00	0	43	0	1686110208	8	3988
2026-01-04 00:47:16.79	89.03	22.38	-24.0	-25.1	18.4	0.00e+00	0	43	0	1691353088	8	4092
2026-01-04 00:47:17.80	89.30	22.38	-24.1	-25.4	18.3	0.00e+00	0	43	0	1697644544	8	4145
2026-01-04 00:47:18.80	89.57	22.37	-24.1	-25.4	18.3	0.00e+00	0	43	0	1702887424	8	4166
2026-01-04 00:47:19.81	89.85	22.37	-24.1	-25.3	18.3	0.00e+00	0	43	0	1708130304	8	4150
2026-01-04 00:47:20.82	90.12	22.37	-24.1	-25.3	18.3	0.00e+00	0	43	0	1714421760	8	4133
2026-01-04 00:47:21.82	90.39	22.36	-24.2	-25.6	18.2	0.00e+00	0	43	0	1719664640	8	4206
2026-01-04 00:47:22.82	90.66	22.35	-24.0	-25.1	18.4	0.00e+00	0	43	0	1725956096	8	4086
2026-01-04 00:47:23.83	90.93	22.35	-24.3	-25.6	17.0	0.00e+00	0	43	0	1731198976	8	4216
2026-01-04 00:47:24.84	91.21	22.34	-24.2	-25.4	17.9	0.00e+00	0	43	0	1736441856	8	4168
2026-01-04 00:47:25.84	91.48	22.33	-23.9	-25.0	18.5	0.00e+00	0	43	0	1742733312	8	4053
2026-01-04 00:47:26.85	91.75	22.32	-23.9	-24.9	18.5	0.00e+00	0	43	0	1747976192	8	4042
2026-01-04 00:47:27.85	92.02	22.31	-24.0	-25.1	18.5	0.00e+00	0	43	0	1753219072	8	4090
2026-01-04 00:47:28.86	92.29	22.30	-24.0	-25.1	18.5	0.00e+00	0	43	0	1759510528	8	4075
2026-01-04 00:47:29.87	92.56	22.29	-23.9	-24.8	18.6	0.00e+00	0	43	0	1764753408	8	4022
2026-01-04 00:47:30.87	92.83	22.28	-23.9	-24.8	18.6	8.00e-06	0	43	0	1771044864	8	4013
2026-01-04 00:47:31.87	93.10	22.27	-23.9	-24.8	18.6	0.00e+00	0	43	0	1776287744	8	4008
2026-01-04 00:47:32.87	93.37	22.25	-23.9	-24.9	18.5	0.00e+00	0	43	0	1782579200	8	4033
2026-01-04 00:47:33.88	93.64	22.24	-23.9	-24.9	18.6	0.00e+00	0	43	0	1787822080	8	4031
2026-01-04 00:47:34.89	93.91	22.22	-24.0	-25.1	18.5	0.00e+00	0	43	0	1793064960	8	4076
2026-01-04 00:47:35.90	94.18	22.21	-24.1	-25.2	18.4	1.02e-05	0	43	0	1799356416	8	4118
2026-01-04 00:47:36.91	94.45	22.19	-24.0	-25.0	18.5	0.00e+00	0	43	0	1804599296	8	4070
2026-01-04 00:47:37.91	94.72	22.18	-24.0	-25.0	18.5	0.00e+00	0	43	0	1810890752	8	4066
2026-01-04 00:47:38.91	94.98	22.16	-24.2	-25.4	18.3	0.00e+00	0	43	0	1816133632	8	4161
2026-01-04 00:47:39.92	95.25	22.14	-24.1	-25.2	18.4	0.00e+00	0	43	0	1821376512	8	4112
2026-01-04 00:47:40.92	95.52	22.13	-24.0	-25.0	18.4	0.00e+00	0	43	0	1827667968	8	4071
2026-01-04 00:47:41.93	95.79	22.11	-24.1	-25.3	18.3	0.00e+00	0	43	0	1832910848	8	4127
2026-01-04 00:47:42.93	96.05	22.09	-24.1	-25.2	18.4	0.00e+00	0	43	0	1838153728	8	4119
2026-01-04 00:47:43.94	96.32	22.07	-24.2	-25.6	18.2	0.00e+00	0	43	0	1844445184	8	4215
2026-01-04 00:47:44.94	96.59	22.05	-24.1	-25.4	18.3	1.10e-06	0	43	0	1849688064	8	4157
2026-01-04 00:47:45.95	96.86	22.03	-24.0	-25.2	18.4	0.00e+00	0	43	0	1855979520	8	4121
2026-01-04 00:47:46.96	97.12	22.01	-24.1	-25.4	18.3	0.00e+00	0	43	102	1860173824	8	4158
2026-01-04 00:47:47.96	97.39	21.98	-24.1	-25.3	18.3	2.20e-06	0	43	102	1860173824	8	4125
2026-01-04 00:47:48.97	97.65	21.96	-24.1	-25.4	18.3	9.10e-06	0	43	102	1860173824	8	4149
2026-01-04 00:47:49.97	97.92	21.94	-24.2	-25.6	18.2	0.00e+00	0	43	102	1860173824	8	4201
2026-01-04 00:47:50.98	98.18	21.91	-24.3	-25.6	18.2	0.00e+00	0	43	102	1860173824	8	4217
2026-01-04 00:47:51.99	98.45	21.89	-24.1	-25.3	18.4	0.00e+00	0	43	102	1860173824	8	4119
2026-01-04 00:47:52.99	98.71	21.86	-24.2	-25.5	18.2	0.00e+00	0	43	102	1860173824	8	4180
2026-01-04 00:47:53.99	98.97	21.84	-24.2	-25.4	18.3	2.20e-06	0	43	102	1860173824	8	4162
2026-01-04 00:47:55.00	99.24	21.81	-24.2	-25.6	18.2	1.60e-05	0	43	102	1860173824	8	4208
2026-01-04 00:47:56.00	99.50	21.78	-24.3	-25.7	18.1	0.00e+00	0	43	102	1860173824	8	4225
2026-01-04 00:47:57.01	99.76	21.76	-24.6	-25.8	17.8	2.20e-06	0	43	102	1860173824	9	4155
2026-01-04 00:47:58.01	100.02	21.73	-24.3	-25.3	18.1	0.00e+00	0	43	102	1860173824	9	4018
2026-01-04 00:47:59.02	100.28	21.70	-24.1	-24.9	18.2	5.70e-06	0	43	102	1860173824	9	3933
2026-01-04 00:48:00.02	100.54	21.67	-24.0	-24.5	18.4	0.00e+00	0	43	102	1860173824	9	3830
2026-01-04 00:48:01.02	100.80	21.64	-24.0	-24.5	18.4	0.00e+00	0	43	102	1860173824	9	3834
2026-01-04 00:48:02.02	101.06	21.61	-24.1	-24.7	18.3	0.00e+00	0	43	102	1860173824	9	3890
2026-01-04 00:48:03.03	101.32	21.58	-23.9	-24.4	18.5	0.00e+00	0	43	102	1860173824	9	3807
2026-01-04 00:48:04.03	101.57	21.55	-24.1	-24.7	18.3	3.40e-06	0	43	102	1860173824	9	3891
2026-01-04 00:48:05.03	101.83	21.52	-24.1	-24.7	18.3	0.00e+00	0	43	102	1860173824	9	3892
2026-01-04 00:48:06.04	102.09	21.48	-24.1	-24.9	18.3	1.37e-05	0	43	102	1860173824	9	3921
2026-01-04 00:48:07.05	102.35	21.45	-24.3	-25.2	18.0	0.00e+00	0	43	102	1860173824	9	4011
2026-01-04 00:48:08.05	102.60	21.42	-24.1	-24.9	18.2	0.00e+00	0	43	102	1860173824	9	3920
2026-01-04 00:48:09.05	102.86	21.38	-24.1	-24.8	18.3	1.10e-06	0	43	102	1860173824	9	3902
2026-01-04 00:48:10.06	103.11	21.35	-24.3	-25.2	18.1	0.00e+00	0	43	102	1860173824	9	3991
2026-01-04 00:48:11.07	103.37	21.31	-24.3	-25.2	18.1	0.00e+00	0	43	102	1860173824	9	4007
2026-01-04 00:48:12.08	103.63	21.28	-24.5	-25.7	17.8	4.50e-06	0	43	102	1860173824	9	4133
2026-01-04 00:48:13.08	103.88	21.24	-24.4	-25.6	17.9	0.00e+00	0	43	102	1860173824	9	4098
2026-01-04 00:48:14.09	104.13	21.20	-24.4	-25.5	17.9	0.00e+00	0	43	102	1860173824	9	4091
2026-01-04 00:48:15.10	104.39	21.17	-24.4	-25.5	17.9	1.10e-06	0	43	102	1860173824	9	4089
2026-01-04 00:48:16.11	104.64	21.13	-24.3	-25.3	18.0	0.00e+00	0	43	102	1860173824	9	4017
2026-01-04 00:48:17.11	104.89	21.09	-24.3	-25.3	18.0	0.00e+00	0	43	102	1860173824	9	4026
2026-01-04 00:48:18.12	105.14	21.05	-24.2	-25.1	18.1	0.00e+00	0	43	102	1860173824	9	3976
2026-01-04 00:48:19.13	105.39	21.01	-24.2	-25.1	18.1	0.00e+00	0	43	102	1860173824	9	3968
2026-01-04 00:48:20.14	105.64	20.97	-24.2	-25.0	18.2	0.00e+00	0	43	102	1860173824	9	3954
2026-01-04 00:48:21.14	105.89	20.93	-24.3	-25.2	18.0	0.00e+00	0	43	102	1860173824	9	4012
2026-01-04 00:48:22.15	106.14	20.89	-24.3	-25.3	18.0	0.00e+00	0	43	102	1860173824	9	4039
2026-01-04 00:48:23.15	106.39	20.85	-24.4	-25.5	17.9	0.00e+00	0	43	102	1860173824	9	4071
2026-01-04 00:48:24.16	106.63	20.81	-24.4	-25.5	17.9	0.00e+00	0	43	102	1860173824	9	4082
2026-01-04 00:48:25.17	106.88	20.77	-24.4	-25.5	17.9	0.00e+00	0	43	102	1860173824	9	4082
2026-01-04 00:48:26.18	107.13	20.73	-24.4	-25.4	17.9	0.00e+00	0	43	102	1860173824	9	4055
2026-01-04 00:48:27.19	107.37	20.68	-24.4	-25.5	17.9	0.00e+00	0	43	102	1860173824	9	4086
2026-01-04 00:48:28.20	107.62	20.64	-24.5	-25.7	17.8	0.00e+00	0	43	102	1860173824	9	4120
2026-01-04 00:48:29.21	107.86	20.59	-24.4	-25.4	17.9	0.00e+00	0	43	102	1860173824	9	4058
2026-01-04 00:48:30.21	108.11	20.55	-24.4	-25.5	17.9	0.00e+00	0	43	102	1860173824	9	4073
2026-01-04 00:48:31.22	108.35	20.51	-24.4	-25.5	17.8	0.00e+00	0	43	102	1860173824	9	4084
2026-01-04 00:48:32.22	108.59	20.46	-24.5	-25.6	17.8	0.00e+00	0	43	102	1860173824	9	4098
2026-01-04 00:48:33.23	108.83	20.42	-24.3	-25.3	18.0	0.00e+00	0	43	102	1860173824	9	4027
2026-01-04 00:48:34.24	109.07	20.37	-24.4	-25.6	17.9	0.00e+00	0	43	102	1860173824	9	4088
2026-01-04 00:48:35.25	109.31	20.32	-24.7	-26.0	17.6	0.00e+00	0	43	102	1860173824	9	4203
2026-01-04 00:48:36.25	109.55	20.28	-24.6	-25.9	17.7	0.00e+00	0	43	102	1860173824	9	4170
2026-01-04 00:48:37.26	109.79	20.23	-24.8	-26.2	17.5	0.00e+00	0	43	102	1860173824	9	4264
2026-01-04 00:48:38.26	110.03	20.18	-24.7	-26.1	17.6	0.00e+00	0	43	102	1860173824	9	4230
2026-01-04 00:48:39.27	110.26	20.13	-24.8	-26.3	17.4	0.00e+00	0	43	102	1860173824	9	4280
2026-01-04 00:48:40.28	110.50	20.08	-24.7	-26.2	17.5	0.00e+00	0	43	102	1860173824	9	4263
2026-01-04 00:48:41.28	110.73	20.04	-24.9	-26.5	16.0	0.00e+00	0	43	102	1860173824	9	4344
2026-01-04 00:48:42.28	110.97	19.99	-25.0	-26.3	17.2	0.00e+00	0	43	102	1860173824	10	4162
2026-01-04 00:48:43.29	111.20	19.94	-24.8	-25.9	17.4	0.00e+00	0	43	102	1860173824	10	4056
2026-01-04 00:48:44.29	111.43	19.89	-24.7	-25.6	17.6	2.12e-04	0	43	102	1860173824	10	3983
2026-01-04 00:48:45.30	111.67	19.84	-24.7	-25.5	17.6	0.00e+00	0	43	102	1860173824	10	3981
2026-01-04 00:48:46.31	111.90	19.79	-24.8	-25.8	17.4	0.00e+00	0	43	102	1860173824	10	4048
2026-01-04 00:48:47.32	112.13	19.74	-24.8	-25.8	17.4	0.00e+00	0	43	102	1860173824	10	4052
2026-01-04 00:48:48.32	112.36	19.68	-24.9	-26.0	17.3	0.00e+00	0	43	102	1860173824	10	4109
2026-01-04 00:48:49.32	112.59	19.63	-24.7	-25.6	17.6	0.00e+00	0	43	102	1860173824	10	3990
2026-01-04 00:48:50.33	112.82	19.58	-24.5	-25.3	17.7	0.00e+00	0	43	102	1860173824	10	3913
2026-01-04 00:48:51.33	113.05	19.53	-24.6	-25.4	17.7	1.23e-04	0	43	102	1860173824	10	3941
2026-01-04 00:48:52.34	113.27	19.48	-24.6	-25.4	17.6	0.00e+00	0	43	102	1860173824	10	3953
2026-01-04 00:48:53.34	113.50	19.42	-24.5	-25.2	17.7	1.84e-04	0	43	102	1860173824	10	3901
2026-01-04 00:48:54.34	113.72	19.37	-24.6	-25.4	17.5	0.00e+00	0	43	102	1860173824	10	3951
2026-01-04 00:48:55.36	113.95	19.32	-24.7	-25.7	17.4	0.00e+00	0	43	102	1860173824	10	4013
2026-01-04 00:48:56.36	114.17	19.26	-24.9	-26.1	17.2	2.02e-04	0	43	102	1860173824	10	4124
2026-01-04 00:48:57.37	114.40	19.21	-25.0	-26.3	17.1	2.16e-04	0	43	102	1860173824	10	4182
2026-01-04 00:48:58.37	114.62	19.15	-25.1	-26.5	17.1	0.00e+00	0	43	102	1860173824	10	4223
2026-01-04 00:48:59.38	114.84	19.10	-25.1	-26.6	17.0	0.00e+00	0	43	102	1860173824	10	4248
2026-01-04 00:49:00.39	115.06	19.04	-25.2	-26.7	16.9	1.68e-04	0	43	102	1860173824	10	4281
2026-01-04 00:49:01.39	115.28	18.99	-25.0	-26.4	17.1	0.00e+00	0	43	102	1860173824	10	4183
2026-01-04 00:49:02.40	115.50	18.93	-25.0	-26.2	17.2	1.18e-04	0	43	102	1860173824	10	4152
2026-01-04 00:49:03.40	115.72	18.88	-25.1	-26.4	17.1	1.65e-04	0	43	102	1860173824	10	4189
2026-01-04 00:49:04.41	115.94	18.82	-25.1	-26.5	17.0	0.00e+00	0	43	102	1860173824	10	4231
2026-01-04 00:49:05.42	116.16	18.76	-25.0	-26.3	17.1	1.05e-04	0	43	102	1860173824	10	4167
2026-01-04 00:49:06.43	116.37	18.71	-25.0	-26.2	17.2	0.00e+00	0	43	102	1860173824	10	4135
2026-01-04 00:49:07.44	116.59	18.65	-25.0	-26.2	17.1	0.00e+00	0	43	102	1860173824	10	4159
2026-01-04 00:49:08.44	116.80	18.59	-25.1	-26.5	17.0	0.00e+00	0	43	102	1860173824	10	4211
2026-01-04 00:49:09.45	117.02	18.53	-25.1	-26.4	17.0	0.00e+00	0	43	102	1860173824	10	4203
2026-01-04 00:49:10.46	117.23	18.48	-24.9	-26.1	17.2	0.00e+00	0	43	102	1860173824	10	4117
2026-01-04 00:49:11.47	117.45	18.42	-24.9	-26.1	17.2	0.00e+00	0	43	102	1860173824	10	4117
2026-01-04 00:49:12.47	117.66	18.36	-25.0	-26.2	17.1	5.72e-05	0	43	102	1860173824	10	4140
2026-01-04 00:49:13.48	117.87	18.30	-25.0	-26.3	17.1	0.00e+00	0	43	102	1860173824	10	4163
2026-01-04 00:49:14.49	118.08	18.24	-25.1	-26.4	17.0	7.55e-05	0	43	102	1860173824	10	4204
2026-01-04 00:49:15.50	118.29	18.18	-25.2	-26.6	16.9	0.00e+00	0	43	102	1860173824	10	4258
2026-01-04 00:49:16.50	118.50	18.12	-25.2	-26.7	16.9	0.00e+00	0	43	102	1860173824	10	4284
2026-01-04 00:49:17.51	118.70	18.06	-25.2	-26.7	16.8	0.00e+00	0	43	102	1860173824	10	4284
2026-01-04 00:49:18.52	118.91	18.00	-25.1	-26.6	16.9	0.00e+00	0	43	102	1860173824	10	4238
2026-01-04 00:49:19.53	119.12	17.94	-25.3	-26.9	16.7	0.00e+00	0	43	102	1860173824	10	4333
2026-01-04 00:49:20.54	119.32	17.88	-25.4	-27.1	16.7	0.00e+00	0	43	102	1860173824	10	4375
2026-01-04 00:49:21.55	119.53	17.82	-25.4	-27.0	16.7	1.10e-06	0	43	102	1860173824	10	4365
2026-01-04 00:49:22.56	119.73	17.76	-25.5	-27.3	16.5	0.00e+00	0	43	102	1860173824	10	4427
2026-01-04 00:49:23.56	119.94	17.70	-25.5	-26.9	16.5	0.00e+00	0	43	102	1860173824	11	4220
2026-01-04 00:49:24.56	120.14	17.64	-25.6	-27.2	16.4	0.00e+00	0	43	102	1860173824	11	4285
2026-01-04 00:49:25.57	120.34	17.58	-25.6	-27.1	16.4	0.00e+00	0	43	102	1860173824	11	4274
2026-01-04 00:49:26.57	120.54	17.52	-25.6	-27.1	16.4	0.00e+00	0	43	102	1860173824	11	4270
2026-01-04 00:49:27.57	120.74	17.46	-25.5	-26.9	16.5	0.00e+00	0	43	102	1860173824	11	4221
2026-01-04 00:49:28.58	120.94	17.40	-25.4	-26.6	16.6	0.00e+00	0	43	102	1860173824	11	4140
2026-01-04 00:49:29.59	121.14	17.33	-25.4	-26.5	16.7	0.00e+00	0	43	102	1860173824	11	4122
2026-01-04 00:49:30.59	121.33	17.27	-25.3	-26.5	16.7	0.00e+00	0	43	102	1860173824	11	4113
2026-01-04 00:49:31.60	121.53	17.21	-25.4	-26.6	16.6	0.00e+00	0	43	102	1860173824	11	4146
2026-01-04 00:49:32.60	121.72	17.15	-25.4	-26.5	16.7	0.00e+00	0	44	102	1860173824	11	4122
2026-01-04 00:49:33.61	121.92	17.09	-25.3	-26.5	16.7	0.00e+00	0	43	102	1860173824	11	4105
2026-01-04 00:49:34.61	122.11	17.02	-25.3	-26.4	16.8	0.00e+00	0	43	102	1860173824	11	4076
2026-01-04 00:49:35.62	122.31	16.96	-25.2	-26.2	16.9	0.00e+00	0	43	102	1860173824	11	4028
2026-01-04 00:49:36.63	122.50	16.90	-25.1	-25.9	17.0	0.00e+00	0	43	102	1860173824	11	3973
2026-01-04 00:49:37.63	122.69	16.83	-25.2	-26.2	16.8	0.00e+00	0	43	102	1860173824	11	4047
2026-01-04 00:49:38.64	122.88	16.77	-25.3	-26.3	16.8	0.00e+00	0	43	102	1860173824	11	4061
2026-01-04 00:49:39.64	123.07	16.71	-25.3	-26.4	16.7	0.00e+00	0	43	102	1860173824	11	4101
2026-01-04 00:49:40.65	123.26	16.64	-25.3	-26.5	16.6	0.00e+00	0	43	102	1860173824	11	4127
2026-01-04 00:49:41.66	123.45	16.58	-25.4	-26.7	16.6	0.00e+00	0	43	102	1860173824	11	4176
2026-01-04 00:49:42.66	123.64	16.52	-25.4	-26.7	16.5	0.00e+00	0	43	102	1860173824	11	4178
2026-01-04 00:49:43.67	123.83	16.45	-25.5	-26.8	16.5	0.00e+00	0	43	102	1860173824	11	4187
2026-01-04 00:49:44.68	124.01	16.39	-25.6	-27.2	16.3	0.00e+00	0	43	102	1860173824	11	4301
2026-01-04 00:49:45.68	124.20	16.32	-25.8	-27.5	16.1	0.00e+00	0	43	102	1860173824	11	4375
2026-01-04 00:49:46.69	124.38	16.26	-25.7	-27.3	16.2	0.00e+00	0	43	102	1860173824	11	4315
2026-01-04 00:49:47.70	124.57	16.20	-25.7	-27.2	16.3	0.00e+00	0	43	102	1860173824	11	4285
2026-01-04 00:49:48.70	124.75	16.13	-25.6	-27.1	16.3	0.00e+00	0	43	102	1860173824	11	4272
2026-01-04 00:49:49.71	124.93	16.07	-25.7	-27.2	16.3	0.00e+00	0	43	102	1860173824	11	4294
2026-01-04 00:49:50.72	125.12	16.00	-25.7	-27.4	16.2	0.00e+00	0	43	102	1860173824	11	4336
2026-01-04 00:49:51.73	125.30	15.94	-26.0	-27.3	15.8	0.00e+00	0	43	102	1860173824	12	4226
2026-01-04 00:49:52.73	125.48	15.87	-26.0	-27.4	15.8	0.00e+00	0	43	102	1860173824	12	4245
2026-01-04 00:49:53.74	125.66	15.81	-26.3	-28.1	15.4	0.00e+00	0	43	102	1860173824	12	4432
2026-01-04 00:49:54.74	125.83	15.74	-26.2	-28.0	15.5	0.00e+00	0	43	102	1860173824	12	4403
2026-01-04 00:49:55.75	126.01	15.68	-26.0	-27.5	15.7	0.00e+00	0	43	102	1860173824	12	4286
2026-01-04 00:49:56.76	126.19	15.61	-25.8	-27.2	15.9	0.00e+00	0	43	102	1860173824	12	4187
2026-01-04 00:49:57.77	126.37	15.55	-25.7	-26.9	16.0	0.00e+00	0	43	102	1860173824	12	4130
2026-01-04 00:49:58.77	126.54	15.48	-25.8	-27.0	16.0	0.00e+00	0	43	102	1860173824	12	4138
2026-01-04 00:49:59.78	126.72	15.41	-25.7	-26.9	16.1	8.12e-05	0	43	102	1860173824	12	4108
2026-01-04 00:50:00.78	126.89	15.35	-25.6	-26.6	16.2	0.00e+00	0	43	102	1860173824	12	4038
2026-01-04 00:50:01.79	127.07	15.28	-25.7	-26.9	16.0	1.25e-05	0	43	102	1860173824	12	4110
2026-01-04 00:50:02.80	127.24	15.22	-25.7	-26.9	16.0	0.00e+00	0	43	102	1860173824	12	4114
2026-01-04 00:50:03.81	127.41	15.15	-25.8	-26.9	16.0	0.00e+00	0	43	102	1860173824	12	4119
2026-01-04 00:50:04.81	127.58	15.09	-25.8	-27.0	16.0	0.00e+00	0	43	102	1860173824	12	4129
2026-01-04 00:50:05.81	127.75	15.02	-25.8	-27.1	15.9	7.32e-05	0	43	102	1860173824	12	4171
2026-01-04 00:50:06.81	127.92	14.96	-25.9	-27.3	15.8	0.00e+00	0	43	102	1860173824	12	4221
2026-01-04 00:50:07.82	128.09	14.89	-25.8	-27.1	15.8	0.00e+00	0	43	102	1860173824	12	4180
2026-01-04 00:50:08.83	128.26	14.82	-25.8	-27.1	15.9	1.61e-04	0	43	102	1860173824	12	4170
2026-01-04 00:50:09.84	128.43	14.76	-25.9	-27.2	15.8	0.00e+00	0	43	102	1860173824	12	4213
2026-01-04 00:50:10.84	128.59	14.69	-25.8	-27.2	15.8	1.80e-04	0	43	102	1860173824	12	4195
2026-01-04 00:50:11.85	128.76	14.62	-25.9	-27.2	15.8	1.61e-04	0	44	102	1860173824	12	4210
2026-01-04 00:50:12.86	128.93	14.56	-26.0	-27.5	15.6	1.10e-06	0	43	102	1860173824	12	4277
2026-01-04 00:50:13.87	129.09	14.49	-25.9	-27.2	15.8	1.62e-04	0	43	102	1860173824	12	4191
2026-01-04 00:50:14.87	129.26	14.43	-25.9	-27.3	15.7	1.40e-04	0	43	102	1860173824	12	4226
2026-01-04 00:50:15.88	129.42	14.36	-25.8	-27.1	15.8	0.00e+00	0	43	102	1860173824	12	4165
2026-01-04 00:50:16.89	129.58	14.29	-26.0	-27.4	15.7	1.09e-04	0	43	102	1860173824	12	4239
2026-01-04 00:50:17.89	129.74	14.23	-25.9	-27.2	15.7	3.89e-05	0	43	102	1860173824	12	4205
2026-01-04 00:50:18.90	129.91	14.16	-26.1	-27.7	15.5	0.00e+00	0	43	102	1860173824	12	4324
2026-01-04 00:50:19.90	130.07	14.09	-26.0	-27.4	15.6	0.00e+00	0	44	102	1860173824	12	4251
2026-01-04 00:50:20.90	130.23	14.03	-25.9	-27.3	15.7	0.00e+00	0	43	102	1860173824	12	4220
2026-01-04 00:50:21.91	130.39	13.96	-26.0	-27.5	15.6	0.00e+00	0	43	102	1860173824	12	4271
2026-01-04 00:50:22.92	130.54	13.89	-26.1	-27.7	15.4	9.15e-05	0	43	102	1860173824	12	4326
2026-01-04 00:50:23.93	130.70	13.83	-26.1	-27.8	15.4	0.00e+00	0	43	102	1860173824	12	4356
2026-01-04 00:50:24.93	130.86	13.76	-26.0	-27.6	15.5	0.00e+00	0	43	102	1860173824	12	4304
2026-01-04 00:50:25.93	131.01	13.70	-26.0	-27.5	15.5	0.00e+00	0	43	102	1860173824	12	4273
2026-01-04 00:50:26.94	131.17	13.63	-26.1	-27.7	15.4	3.38e-04	0	43	102	1860173824	12	4324
2026-01-04 00:50:27.95	131.33	13.56	-25.9	-27.4	15.6	0.00e+00	0	43	102	1860173824	12	4236
2026-01-04 00:50:28.96	131.48	13.50	-25.9	-27.3	15.6	0.00e+00	0	43	102	1860173824	12	4233
2026-01-04 00:50:29.96	131.63	13.43	-26.0	-27.4	15.5	3.07e-04	0	43	102	1860173824	12	4259
2026-01-04 00:50:30.98	131.79	13.36	-25.9	-27.3	15.6	6.80e-06	0	43	102	1860173824	12	4240
2026-01-04 00:50:31.98	131.94	13.30	-26.1	-27.7	15.4	3.39e-04	0	43	102	1860173824	12	4345
2026-01-04 00:50:32.99	132.09	13.23	-26.1	-27.8	15.3	1.25e-05	0	43	102	1860173824	12	4380
2026-01-04 00:50:34.00	132.25	13.16	-26.2	-28.0	15.2	3.40e-06	0	43	102	1860173824	12	4422
2026-01-04 00:50:35.00	132.40	13.10	-26.2	-28.0	15.2	0.00e+00	0	43	102	1860173824	12	4434
2026-01-04 00:50:36.01	132.55	13.03	-26.3	-28.3	15.0	0.00e+00	0	43	102	1860173824	12	4515
2026-01-04 00:50:37.02	132.70	12.96	-26.3	-28.1	15.1	2.20e-06	0	43	102	1860173824	12	4455
2026-01-04 00:50:38.03	132.84	12.90	-26.3	-28.1	15.1	0.00e+00	0	43	102	1860173824	12	4465
2026-01-04 00:50:39.04	132.99	12.83	-26.4	-28.3	15.0	0.00e+00	0	43	102	1860173824	12	4510
2026-01-04 00:50:40.04	133.14	12.76	-26.4	-28.3	15.0	2.20e-06	0	43	102	1860173824	12	4501
2026-01-04 00:50:41.04	133.28	12.70	-26.4	-28.3	15.0	0.00e+00	0	43	102	1860173824	12	4515
2026-01-04 00:50:42.05	133.43	12.63	-26.3	-28.3	15.0	0.00e+00	0	43	102	1860173824	12	4507
2026-01-04 00:50:43.05	133.58	12.56	-26.3	-28.2	15.0	1.10e-06	0	43	102	1860173824	12	4494
2026-01-04 00:50:44.06	133.72	12.50	-26.5	-28.2	14.8	0.00e+00	0	43	102	1860173824	13	4360
2026-01-04 00:50:45.07	133.87	12.43	-26.6	-28.3	14.7	0.00e+00	0	43	102	1860173824	13	4402
2026-01-04 00:50:46.07	134.01	12.36	-26.8	-28.9	14.4	0.00e+00	0	43	102	1860173824	13	4572
2026-01-04 00:50:47.08	134.15	12.30	-26.6	-28.5	14.6	1.10e-06	0	43	102	1860173824	13	4458
2026-01-04 00:50:48.09	134.29	12.23	-26.5	-28.3	14.7	0.00e+00	0	43	102	1860173824	13	4391
2026-01-04 00:50:49.10	134.44	12.16	-26.6	-28.3	14.7	0.00e+00	0	43	102	1860173824	13	4406
2026-01-04 00:50:50.11	134.58	12.10	-26.6	-28.4	14.6	0.00e+00	0	43	102	1860173824	13	4427
2026-01-04 00:50:51.12	134.72	12.03	-26.7	-28.5	14.6	0.00e+00	0	43	102	1860173824	13	4468
2026-01-04 00:50:52.13	134.86	11.96	-26.7	-28.5	14.5	0.00e+00	0	43	102	1860173824	13	4474
2026-01-04 00:50:53.13	135.00	11.90	-26.7	-28.7	14.5	0.00e+00	0	43	102	1860173824	13	4507
2026-01-04 00:50:54.14	135.14	11.83	-26.6	-28.5	14.6	0.00e+00	0	43	102	1860173824	13	4451
2026-01-04 00:50:55.15	135.27	11.77	-26.6	-28.4	14.6	0.00e+00	0	43	102	1860173824	13	4428
2026-01-04 00:50:56.15	135.41	11.70	-26.6	-28.4	14.6	0.00e+00	0	43	102	1860173824	13	4442
2026-01-04 00:50:57.16	135.55	11.63	-26.6	-28.4	14.6	0.00e+00	0	43	102	1860173824	13	4441
2026-01-04 00:50:58.16	135.68	11.57	-26.6	-28.4	14.5	0.00e+00	0	43	102	1860173824	13	4450
2026-01-04 00:50:59.17	135.82	11.50	-26.7	-28.6	14.4	1.10e-06	0	43	102	1860173824	13	4486
2026-01-04 00:51:00.17	135.95	11.44	-26.8	-29.0	14.2	1.10e-06	0	43	102	1860173824	13	4604
2026-01-04 00:51:01.18	136.09	11.37	-26.6	-28.5	14.5	1.10e-06	0	43	102	1860173824	13	4450
2026-01-04 00:51:02.18	136.22	11.30	-26.5	-28.1	14.7	0.00e+00	0	43	102	1860173824	13	4347
2026-01-04 00:51:03.19	136.35	11.24	-26.5	-28.1	14.7	0.00e+00	0	43	102	1860173824	13	4344
2026-01-04 00:51:04.20	136.49	11.17	-26.6	-28.5	14.5	0.00e+00	0	43	102	1860173824	13	4454
2026-01-04 00:51:05.21	136.62	11.11	-26.5	-28.3	14.6	0.00e+00	0	43	102	1860173824	13	4405
2026-01-04 00:51:06.22	136.75	11.04	-26.7	-28.7	14.3	0.00e+00	0	43	102	1860173824	13	4524
2026-01-04 00:51:07.22	136.88	10.97	-26.8	-28.8	14.3	0.00e+00	0	43	102	1860173824	13	4533
2026-01-04 00:51:08.23	137.01	10.91	-26.8	-28.9	14.2	4.50e-06	0	43	102	1860173824	13	4582
2026-01-04 00:51:09.24	137.14	10.84	-26.7	-28.8	14.3	0.00e+00	0	43	102	1860173824	13	4537
2026-01-04 00:51:10.24	137.27	10.78	-26.8	-28.9	14.2	2.99e-04	0	43	102	1860173824	13	4579
2026-01-04 00:51:11.25	137.40	10.71	-26.9	-29.1	14.1	1.10e-06	0	43	102	1860173824	13	4631
2026-01-04 00:51:12.26	137.53	10.65	-26.9	-29.0	14.1	2.20e-06	0	43	102	1860173824	13	4620
2026-01-04 00:51:13.27	137.66	10.58	-26.9	-29.1	14.1	1.10e-06	0	43	102	1860173824	13	4645
2026-01-04 00:51:14.27	137.78	10.51	-26.9	-29.0	14.1	2.67e-04	0	43	102	1860173824	13	4626
2026-01-04 00:51:15.28	137.91	10.45	-26.7	-28.8	14.2	1.10e-06	0	43	102	1860173824	13	4557
2026-01-04 00:51:16.29	138.04	10.38	-26.7	-28.8	14.2	1.10e-06	0	43	102	1860173824	13	4547
2026-01-04 00:51:17.30	138.16	10.32	-26.8	-28.9	14.2	1.73e-04	0	43	102	1860173824	13	4579
2026-01-04 00:51:18.30	138.29	10.25	-26.8	-29.0	14.1	0.00e+00	0	43	102	1860173824	13	4601
2026-01-04 00:51:19.31	138.41	10.19	-26.8	-29.0	14.1	1.57e-04	0	43	102	1860173824	13	4604
2026-01-04 00:51:20.31	138.53	10.12	-26.9	-29.2	14.0	1.10e-06	0	43	102	1860173824	13	4674
2026-01-04 00:51:21.32	138.66	10.06	-27.0	-29.0	13.8	2.20e-06	0	43	102	1860173824	14	4487
2026-01-04 00:51:22.32	138.78	9.99	-26.8	-28.4	14.1	1.44e-04	0	43	102	1860173824	14	4320
2026-01-04 00:51:23.33	138.90	9.93	-26.8	-28.4	14.1	1.52e-04	0	43	102	1860173824	14	4318
2026-01-04 00:51:24.33	139.02	9.86	-26.7	-28.2	14.2	1.10e-06	0	43	102	1860173824	14	4273
2026-01-04 00:51:25.34	139.14	9.80	-26.7	-28.2	14.3	1.10e-06	0	43	102	1860173824	14	4266
2026-01-04 00:51:26.35	139.27	9.73	-26.8	-28.3	14.1	2.62e-04	0	43	102	1860173824	14	4314
2026-01-04 00:51:27.35	139.39	9.67	-26.9	-28.7	13.9	0.00e+00	0	43	102	1860173824	14	4406
2026-01-04 00:51:28.36	139.51	9.60	-26.8	-28.4	14.1	3.88e-04	0	43	102	1860173824	14	4347
2026-01-04 00:51:29.37	139.62	9.54	-26.9	-28.7	13.9	4.66e-04	0	43	102	1860173824	14	4423
2026-01-04 00:51:30.38	139.74	9.48	-26.8	-28.5	14.0	8.00e-06	0	43	102	1860173824	14	4369
2026-01-04 00:51:31.38	139.86	9.41	-26.9	-29.2	13.9	7.49e-04	0	43	102	1860173824	13	4682
2026-01-04 00:51:32.39	139.98	9.35	-27.1	-29.0	13.7	6.80e-06	0	43	102	1860173824	14	4513
2026-01-04 00:51:33.39	140.10	9.28	-27.0	-28.9	13.8	6.80e-06	0	43	102	1860173824	14	4469
2026-01-04 00:51:34.40	140.21	9.22	-27.0	-28.9	13.7	1.10e-06	0	43	102	1860173824	14	4480
2026-01-04 00:51:35.40	140.33	9.15	-27.1	-29.1	13.6	6.30e-04	0	43	102	1860173824	14	4536
2026-01-04 00:51:36.40	140.44	9.09	-27.3	-29.7	13.3	1.37e-05	0	43	102	1860173824	14	4711
2026-01-04 00:51:37.40	140.56	9.03	-27.2	-29.4	13.4	1.37e-05	0	43	102	1860173824	14	4641
2026-01-04 00:51:38.41	140.67	8.96	-27.3	-29.7	13.2	3.41e-04	0	43	102	1860173824	14	4715
2026-01-04 00:51:39.42	140.79	8.90	-27.4	-29.9	13.0	2.51e-05	0	43	102	1860173824	14	4797
2026-01-04 00:51:40.41	140.90	8.84	-27.4	-29.9	13.0	3.32e-04	0	43	102	1860173824	14	4783
2026-01-04 00:51:41.41	141.01	8.77	-27.7	-30.0	12.6	4.80e-05	0	43	102	1860173824	15	4728
2026-01-04 00:51:42.41	141.12	8.71	-27.7	-30.2	12.5	1.26e-04	0	43	102	1860173824	15	4778
2026-01-04 00:51:43.42	141.24	8.65	-27.5	-29.7	12.8	5.03e-05	0	43	102	1860173824	15	4633
2026-01-04 00:51:44.43	141.35	8.58	-27.5	-29.6	12.8	4.34e-05	0	43	102	1860173824	15	4583
2026-01-04 00:51:45.44	141.46	8.52	-27.5	-29.6	12.8	3.54e-05	0	43	102	1860173824	15	4595
2026-01-04 00:51:46.44	141.57	8.45	-27.5	-29.7	12.7	3.89e-05	0	43	102	1860173824	15	4628
2026-01-04 00:51:47.45	141.68	8.39	-27.5	-30.1	12.8	7.97e-04	0	43	102	1860173824	14	4875
2026-01-04 00:51:48.46	141.79	8.33	-27.5	-29.5	12.8	3.31e-05	0	43	102	1860173824	15	4571
2026-01-04 00:51:49.46	141.90	8.26	-27.5	-29.7	12.7	6.63e-05	0	43	102	1860173824	15	4626
2026-01-04 00:51:50.47	142.01	8.20	-27.5	-29.6	12.8	5.60e-05	0	43	102	1860173824	15	4599
2026-01-04 00:51:51.48	142.12	8.14	-27.6	-29.9	12.5	5.37e-05	0	43	102	1860173824	15	4705
2026-01-04 00:51:52.49	142.23	8.07	-27.6	-29.9	12.5	7.20e-05	0	43	102	1860173824	15	4679
2026-01-04 00:51:53.49	142.33	8.01	-27.6	-29.8	12.5	6.52e-05	0	43	102	1860173824	15	4682
2026-01-04 00:51:54.50	142.44	7.95	-27.7	-30.1	12.4	1.03e-04	0	43	102	1860173824	15	4757
2026-01-04 00:51:55.51	142.55	7.89	-27.7	-30.1	12.3	8.12e-05	0	43	102	1860173824	15	4785
2026-01-04 00:51:56.52	142.65	7.82	-27.7	-30.2	12.3	1.13e-04	0	43	102	1860173824	15	4804
2026-01-04 00:51:57.52	142.76	7.76	-27.7	-30.3	12.2	1.42e-04	0	43	102	1860173824	15	4836
2026-01-04 00:51:58.53	142.87	7.70	-27.8	-30.5	12.1	1.89e-04	0	43	102	1860173824	15	4896
2026-01-04 00:51:59.54	142.97	7.64	-27.8	-30.6	12.0	2.27e-04	0	43	102	1860173824	15	4923
2026-01-04 00:52:00.54	143.07	7.57	-27.8	-30.5	12.1	1.82e-04	0	43	102	1860173824	15	4894
2026-01-04 00:52:01.55	143.18	7.51	-27.7	-30.2	12.2	1.80e-04	0	43	102	1860173824	15	4812
2026-01-04 00:52:02.55	143.28	7.45	-27.8	-30.4	12.1	2.04e-04	0	43	102	1860173824	15	4878
2026-01-04 00:52:03.55	143.38	7.39	-27.9	-30.6	12.0	2.53e-04	0	43	102	1860173824	15	4949
2026-01-04 00:52:04.56	143.49	7.32	-27.8	-30.5	12.1	2.31e-04	0	43	102	1860173824	15	4893
2026-01-04 00:52:05.56	143.59	7.26	-27.9	-30.6	12.0	1.82e-04	0	43	102	1860173824	15	4912
2026-01-04 00:52:06.56	143.69	7.20	-27.9	-30.6	12.0	2.10e-04	0	43	102	1860173824	15	4930
2026-01-04 00:52:07.57	143.79	7.14	-27.8	-30.5	12.1	2.12e-04	0	43	102	1860173824	15	4897
2026-01-04 00:52:08.58	143.89	7.08	-32.3	-43.1	3.8	4.15e-01	0	43	104	1860173824	24	12478
2026-01-04 00:52:09.59	144.00	7.02	-33.2	-44.4	3.8	8.46e-01	0	43	104	1860173824	26	13088
2026-01-04 00:52:10.59	144.10	6.95	-33.6	-44.8	3.8	8.46e-01	0	43	104	1860173824	27	12986
2026-01-04 00:52:11.59	144.19	6.89	-33.8	-45.3	3.8	8.46e-01	0	43	104	1860173824	27	13382

#Closed at: 2026-01-04 00:52:12
#Recorded file [1860 MB]: D:/data/31010_260104_034215.dat