passes_logs/2026/01/04/R2M6_AANII_01/R2M6_AANII_01__20260104_022205_FENGYUN_3D_rec.log

#Pass ID: 20260104_022205_FENGYUN 3D
#Satellite: FENGYUN 3D
#Configuration: FENGYUN 3D
#almurnet v.1.7.20240730
#Start time: 2026-01-04 02:22:05

#Version: 2.2.20231116
#Station: R2M6_AANII_01
#Location: 30.233357 lon 59.946436 lat
#TLE: 1 43010U 17072A   26003.51579816  .00000092  00000+0  65324-4 0  9992
#TLE: 2 43010  98.9912 335.1548 0001916 128.4619 231.6729 14.19692074421623

#Time	Az	El	Level	Level2	SNR	BER	BlckErr	Temp	State	Recorded	gain1	gain2
2026-01-04 02:22:05.84	18.80	6.99	-29.5	-32.6	5.4	7.89e-01	0	40	0	0	19	5152
2026-01-04 02:22:06.84	18.81	7.07	-29.8	-33.4	5.3	7.93e-01	0	41	104	0	19	5474
2026-01-04 02:22:07.84	18.82	7.14	-29.7	-33.1	9.6	1.61e-02	0	41	0	0	19	5301
2026-01-04 02:22:08.85	18.82	7.22	-29.8	-33.2	9.5	1.74e-02	0	41	102	1048576	19	5364
2026-01-04 02:22:09.86	18.83	7.30	-29.8	-33.2	9.5	1.78e-02	0	41	102	1048576	19	5366
2026-01-04 02:22:10.86	18.83	7.38	-29.8	-33.4	9.3	2.01e-02	0	41	102	1048576	19	5455
2026-01-04 02:22:11.86	18.84	7.46	-29.9	-33.5	9.3	2.49e-02	0	41	102	1048576	19	5464
2026-01-04 02:22:12.87	18.85	7.53	-30.0	-33.9	9.1	2.50e-02	0	41	102	1048576	19	5621
2026-01-04 02:22:13.88	18.85	7.61	-29.9	-33.1	9.2	2.80e-02	0	41	102	1048576	20	5214
2026-01-04 02:22:14.88	18.86	7.69	-29.7	-33.0	9.7	1.53e-02	0	41	102	1048576	19	5264
2026-01-04 02:22:15.88	18.87	7.77	-29.8	-33.4	9.4	1.72e-02	0	41	102	1048576	19	5446
2026-01-04 02:22:16.89	18.87	7.85	-29.7	-32.9	9.8	1.47e-02	0	41	102	1048576	19	5219
2026-01-04 02:22:17.90	18.88	7.93	-29.3	-31.9	10.5	7.25e-03	0	41	102	1048576	19	4850
2026-01-04 02:22:18.91	18.88	8.01	-28.8	-30.7	11.3	2.61e-03	0	41	102	1048576	19	4452
2026-01-04 02:22:19.91	18.89	8.09	-28.4	-30.2	11.9	7.52e-04	0	41	102	1048576	18	4400
2026-01-04 02:22:20.91	18.90	8.17	-28.0	-29.6	12.5	2.41e-04	0	41	102	1048576	17	4342
2026-01-04 02:22:21.92	18.90	8.25	-27.7	-29.3	13.0	7.09e-05	0	41	102	1048576	16	4350
2026-01-04 02:22:22.93	18.91	8.34	-27.4	-28.6	13.5	3.31e-05	0	41	102	1048576	16	4145
2026-01-04 02:22:23.93	18.92	8.42	-27.0	-28.3	13.8	1.02e-05	0	41	102	1048576	15	4187
2026-01-04 02:22:24.94	18.92	8.50	-26.8	-27.9	14.0	4.50e-06	0	41	102	1048576	15	4066
2026-01-04 02:22:25.95	18.93	8.58	-26.7	-28.7	14.1	3.40e-06	0	41	102	1048576	13	4510
2026-01-04 02:22:26.95	18.93	8.66	-26.7	-28.6	14.2	3.40e-06	0	41	102	1048576	13	4468
2026-01-04 02:22:27.96	18.94	8.75	-25.8	-27.6	14.1	3.40e-06	0	41	102	1048576	13	4421
2026-01-04 02:22:28.96	18.95	8.83	-26.7	-28.6	12.9	3.40e-06	0	41	102	1048576	13	4489
2026-01-04 02:22:29.96	18.95	8.91	-26.7	-28.5	14.3	0.00e+00	0	41	102	1048576	13	4442
2026-01-04 02:22:30.97	18.96	8.99	-26.6	-28.3	14.1	0.00e+00	0	41	102	1048576	13	4402
2026-01-04 02:22:31.98	18.97	9.08	-26.6	-28.3	14.3	2.20e-06	0	41	102	1048576	13	4398
2026-01-04 02:22:32.99	18.97	9.16	-26.7	-28.6	14.2	3.40e-06	0	41	102	1048576	13	4463
2026-01-04 02:22:34.00	18.98	9.25	-26.5	-28.2	14.4	2.20e-06	0	41	102	1048576	13	4371
2026-01-04 02:22:35.00	18.99	9.33	-26.6	-28.4	14.4	5.34e-04	0	41	102	1048576	13	4414
2026-01-04 02:22:36.01	18.99	9.42	-26.8	-28.9	14.1	2.20e-06	0	41	102	1048576	13	4560
2026-01-04 02:22:37.01	19.00	9.50	-26.6	-28.4	14.4	4.59e-04	0	41	102	1048576	13	4423
2026-01-04 02:22:38.01	19.01	9.59	-26.5	-28.6	14.6	0.00e+00	0	41	102	1048576	12	4579
2026-01-04 02:22:39.02	19.01	9.67	-26.4	-28.5	14.6	2.20e-06	0	41	102	1048576	12	4557
2026-01-04 02:22:40.03	19.02	9.76	-26.4	-28.5	14.6	0.00e+00	0	41	102	1048576	12	4567
2026-01-04 02:22:41.03	19.02	9.84	-26.5	-28.2	14.5	0.00e+00	0	41	102	1048576	13	4351
2026-01-04 02:22:42.04	19.03	9.93	-26.5	-28.1	14.6	0.00e+00	0	42	102	1048576	13	4327
2026-01-04 02:22:43.05	19.04	10.02	-26.4	-28.5	14.6	0.00e+00	0	41	102	1048576	12	4560
2026-01-04 02:22:44.05	19.04	10.11	-26.4	-28.4	14.7	5.16e-04	0	41	102	1048576	12	4528
2026-01-04 02:22:45.05	19.05	10.19	-26.4	-28.3	14.7	0.00e+00	0	42	102	1048576	12	4514
2026-01-04 02:22:46.07	19.06	10.28	-26.4	-28.3	14.8	5.03e-04	0	42	102	1048576	12	4496
2026-01-04 02:22:47.08	19.06	10.37	-26.5	-28.5	14.6	5.05e-04	0	41	102	1048576	12	4570
2026-01-04 02:22:48.08	19.07	10.46	-26.3	-28.2	14.8	0.00e+00	0	41	102	1048576	12	4480
2026-01-04 02:22:49.09	19.08	10.55	-26.3	-28.2	14.8	5.37e-04	0	42	102	1048576	12	4472
2026-01-04 02:22:50.10	19.08	10.64	-26.3	-28.2	14.8	5.35e-04	0	42	102	1048576	12	4472
2026-01-04 02:22:51.11	19.09	10.73	-26.4	-28.4	14.7	0.00e+00	0	42	102	1048576	12	4514
2026-01-04 02:22:52.12	19.10	10.82	-26.3	-28.2	14.8	1.10e-06	0	42	102	1048576	12	4464
2026-01-04 02:22:53.12	19.10	10.91	-26.4	-28.4	14.7	6.04e-04	0	42	102	1048576	12	4522
2026-01-04 02:22:54.13	19.11	11.00	-26.5	-28.2	14.6	0.00e+00	0	42	102	1048576	13	4343
2026-01-04 02:22:55.13	19.12	11.09	-26.3	-27.7	14.8	6.29e-04	0	42	102	1048576	13	4225
2026-01-04 02:22:56.14	19.12	11.18	-26.3	-28.0	15.0	5.26e-04	0	42	102	1048576	12	4423
2026-01-04 02:22:57.14	19.13	11.27	-26.3	-28.1	14.9	0.00e+00	0	42	102	1048576	12	4443
2026-01-04 02:22:58.15	19.14	11.36	-26.2	-27.9	15.0	6.09e-04	0	42	102	1048576	12	4384
2026-01-04 02:22:59.16	19.14	11.46	-26.3	-28.2	14.9	0.00e+00	0	42	102	1048576	12	4463
2026-01-04 02:23:00.16	19.15	11.55	-26.2	-27.9	15.0	1.10e-06	0	42	102	1048576	12	4392
2026-01-04 02:23:01.16	19.16	11.64	-26.2	-27.9	15.1	0.00e+00	0	42	102	1048576	12	4373
2026-01-04 02:23:02.17	19.16	11.73	-26.1	-27.8	15.1	5.90e-04	0	42	102	1048576	12	4351
2026-01-04 02:23:03.17	19.17	11.83	-26.2	-28.0	15.0	0.00e+00	0	42	102	1048576	12	4407
2026-01-04 02:23:04.18	19.18	11.92	-26.2	-27.9	15.1	3.95e-04	0	42	102	1048576	12	4376
2026-01-04 02:23:05.19	19.18	12.01	-26.1	-27.7	15.2	4.61e-04	0	42	102	1048576	12	4339
2026-01-04 02:23:06.20	19.19	12.11	-26.1	-27.8	15.2	0.00e+00	0	42	102	1048576	12	4346
2026-01-04 02:23:07.21	19.20	12.21	-26.1	-27.7	15.2	4.55e-04	0	42	102	1048576	12	4338
2026-01-04 02:23:08.22	19.21	12.30	-26.1	-27.7	15.2	0.00e+00	0	42	102	1048576	12	4330
2026-01-04 02:23:09.23	19.21	12.40	-26.1	-27.7	15.2	0.00e+00	0	42	102	1048576	12	4317
2026-01-04 02:23:10.23	19.22	12.49	-26.2	-28.0	15.1	0.00e+00	0	42	102	1048576	12	4399
2026-01-04 02:23:11.23	19.23	12.59	-26.3	-28.2	14.9	0.00e+00	0	42	102	1048576	12	4465
2026-01-04 02:23:12.24	19.23	12.69	-26.1	-27.8	15.2	0.00e+00	0	42	102	1048576	12	4340
2026-01-04 02:23:13.24	19.24	12.78	-26.1	-27.7	15.2	0.00e+00	0	42	102	1048576	12	4342
2026-01-04 02:23:14.24	19.25	12.88	-26.1	-27.7	15.3	0.00e+00	0	42	102	1048576	12	4321
2026-01-04 02:23:15.25	19.25	12.98	-26.1	-27.7	15.2	0.00e+00	0	42	102	1048576	12	4318
2026-01-04 02:23:16.25	19.26	13.08	-26.1	-27.7	15.2	0.00e+00	0	42	102	1048576	12	4338
2026-01-04 02:23:17.26	19.27	13.18	-26.1	-27.8	15.2	0.00e+00	0	42	102	1048576	12	4347
2026-01-04 02:23:18.26	19.28	13.27	-26.1	-27.6	15.3	0.00e+00	0	42	102	1048576	12	4302
2026-01-04 02:23:19.27	19.28	13.37	-26.1	-27.8	15.2	0.00e+00	0	42	102	1048576	12	4353
2026-01-04 02:23:20.27	19.29	13.47	-26.2	-28.0	15.1	0.00e+00	0	42	102	1048576	12	4403
2026-01-04 02:23:21.28	19.30	13.58	-26.4	-28.3	14.9	1.10e-06	0	42	102	1048576	12	4489
2026-01-04 02:23:22.29	19.30	13.68	-26.4	-28.4	14.9	0.00e+00	0	42	102	1048576	12	4523
2026-01-04 02:23:23.29	19.31	13.78	-26.4	-28.3	15.0	0.00e+00	0	42	102	1048576	12	4495
2026-01-04 02:23:24.31	19.32	13.88	-26.4	-28.4	14.9	0.00e+00	0	42	102	1048576	12	4527
2026-01-04 02:23:25.31	19.33	13.98	-26.5	-28.2	14.7	0.00e+00	0	42	102	1048576	13	4344
2026-01-04 02:23:26.31	19.33	14.08	-26.3	-27.7	15.0	0.00e+00	0	42	102	1048576	13	4216
2026-01-04 02:23:27.32	19.34	14.19	-26.3	-27.7	15.0	0.00e+00	0	42	102	1048576	13	4200
2026-01-04 02:23:28.32	19.35	14.29	-26.3	-28.2	15.0	0.00e+00	0	42	102	1048576	12	4451
2026-01-04 02:23:29.33	19.35	14.40	-26.1	-27.6	15.4	0.00e+00	0	42	102	1048576	12	4284
2026-01-04 02:23:30.34	19.36	14.50	-25.8	-27.1	15.6	0.00e+00	0	42	102	1048576	12	4170
2026-01-04 02:23:31.35	19.37	14.61	-25.8	-27.6	15.7	0.00e+00	0	42	102	1048576	11	4401
2026-01-04 02:23:32.35	19.38	14.71	-25.9	-27.7	15.6	0.00e+00	0	42	102	1048576	11	4434
2026-01-04 02:23:33.36	19.38	14.82	-25.9	-27.8	15.6	0.00e+00	0	42	102	1048576	11	4450
2026-01-04 02:23:34.37	19.39	14.92	-25.9	-27.7	15.7	0.00e+00	0	42	102	1048576	11	4431
2026-01-04 02:23:35.38	19.40	15.03	-25.9	-27.3	15.5	0.00e+00	0	42	102	1048576	12	4218
2026-01-04 02:23:36.38	19.41	15.14	-26.2	-27.9	15.2	0.00e+00	0	42	102	1048576	12	4376
2026-01-04 02:23:37.39	19.41	15.25	-26.3	-28.0	15.1	0.00e+00	0	42	102	1048576	12	4414
2026-01-04 02:23:38.40	19.42	15.35	-26.0	-27.4	15.5	0.00e+00	0	42	102	1048576	12	4234
2026-01-04 02:23:39.40	19.43	15.46	-25.7	-26.8	15.9	0.00e+00	0	42	102	1048576	12	4080
2026-01-04 02:23:40.40	19.44	15.57	-25.6	-27.1	16.0	0.00e+00	0	42	102	1048576	11	4270
2026-01-04 02:23:41.41	19.44	15.68	-25.8	-27.4	15.8	0.00e+00	0	42	102	1048576	11	4362
2026-01-04 02:23:42.41	19.45	15.79	-25.7	-27.4	15.9	0.00e+00	0	42	102	1048576	11	4337
2026-01-04 02:23:43.42	19.46	15.90	-25.6	-27.0	16.1	0.00e+00	0	42	102	1048576	11	4229
2026-01-04 02:23:44.42	19.47	16.01	-25.4	-26.6	16.3	0.00e+00	0	42	102	1048576	11	4131
2026-01-04 02:23:45.42	19.47	16.12	-25.4	-26.5	16.3	0.00e+00	0	42	102	1048576	11	4120
2026-01-04 02:23:46.43	19.48	16.24	-25.3	-26.5	16.4	0.00e+00	0	42	102	1048576	11	4104
2026-01-04 02:23:47.43	19.49	16.35	-25.4	-27.0	16.3	0.00e+00	0	42	102	1048576	10	4364
2026-01-04 02:23:48.44	19.50	16.46	-25.4	-27.1	16.3	0.00e+00	0	42	102	1048576	10	4387
2026-01-04 02:23:49.45	19.51	16.58	-25.4	-26.6	16.3	0.00e+00	0	42	102	1048576	11	4130
2026-01-04 02:23:50.45	19.51	16.69	-25.1	-26.5	16.7	0.00e+00	0	42	102	1048576	10	4212
2026-01-04 02:23:51.46	19.52	16.80	-24.9	-26.1	16.9	0.00e+00	0	42	102	1048576	10	4116
2026-01-04 02:23:52.46	19.53	16.92	-25.0	-26.1	16.9	0.00e+00	0	42	102	1048576	10	4122
2026-01-04 02:23:53.46	19.54	17.03	-24.9	-26.1	16.9	0.00e+00	0	43	102	1048576	10	4118
2026-01-04 02:23:54.46	19.54	17.15	-24.9	-26.0	17.0	0.00e+00	0	43	102	1048576	10	4085
2026-01-04 02:23:55.46	19.55	17.27	-24.8	-26.3	17.0	0.00e+00	0	43	102	1048576	9	4292
2026-01-04 02:23:56.47	19.56	17.38	-24.8	-26.3	17.0	0.00e+00	0	43	102	1048576	9	4288
2026-01-04 02:23:57.47	19.57	17.50	-24.7	-26.2	17.1	0.00e+00	0	43	102	1048576	9	4243
2026-01-04 02:23:58.47	19.58	17.62	-24.7	-26.2	17.1	0.00e+00	0	43	102	1048576	9	4239
2026-01-04 02:23:59.48	19.58	17.74	-24.8	-26.4	17.0	0.00e+00	0	43	102	1048576	9	4293
2026-01-04 02:24:00.48	19.59	17.86	-24.8	-26.4	17.0	0.00e+00	0	43	102	1048576	9	4295
2026-01-04 02:24:01.48	19.60	17.98	-24.7	-26.1	17.2	0.00e+00	0	43	102	1048576	9	4217
2026-01-04 02:24:02.49	19.61	18.10	-24.6	-25.9	17.3	0.00e+00	0	43	102	1048576	9	4171
2026-01-04 02:24:03.49	19.62	18.22	-24.6	-25.8	17.3	3.29e-04	0	43	102	1048576	9	4154
2026-01-04 02:24:04.50	19.63	18.34	-24.5	-25.7	17.4	0.00e+00	0	43	102	1048576	9	4130
2026-01-04 02:24:05.51	19.63	18.47	-24.5	-25.6	17.5	0.00e+00	0	42	102	1048576	9	4104
2026-01-04 02:24:06.51	19.64	18.59	-24.4	-25.5	17.5	0.00e+00	0	43	102	1048576	9	4065
2026-01-04 02:24:07.52	19.65	18.71	-24.3	-25.3	17.6	0.00e+00	0	43	102	1048576	9	4021
2026-01-04 02:24:08.53	19.66	18.84	-24.4	-25.4	17.6	0.00e+00	0	43	102	1048576	9	4042
2026-01-04 02:24:09.53	19.67	18.96	-24.3	-25.8	17.6	0.00e+00	0	42	102	1048576	8	4255
2026-01-04 02:24:10.54	19.68	19.09	-24.3	-25.7	17.6	3.63e-04	0	43	102	1048576	8	4232
2026-01-04 02:24:11.54	19.68	19.22	-24.4	-25.8	17.6	0.00e+00	0	43	102	1048576	8	4273
2026-01-04 02:24:12.55	19.69	19.34	-24.3	-25.8	17.6	3.46e-04	0	43	102	1048576	8	4249
2026-01-04 02:24:13.56	19.70	19.47	-24.2	-25.6	17.7	0.00e+00	0	43	102	1048576	8	4211
2026-01-04 02:24:14.57	19.71	19.60	-24.2	-25.6	17.7	0.00e+00	0	43	102	1048576	8	4208
2026-01-04 02:24:15.57	19.72	19.73	-24.2	-25.6	17.7	3.22e-04	0	43	102	1048576	8	4202
2026-01-04 02:24:16.58	19.73	19.86	-24.2	-25.5	17.8	0.00e+00	0	43	102	1048576	8	4180
2026-01-04 02:24:17.59	19.74	19.99	-24.3	-25.8	17.6	0.00e+00	0	43	102	1048576	8	4264
2026-01-04 02:24:18.59	19.74	20.12	-24.2	-25.6	17.7	0.00e+00	0	43	102	1048576	8	4213
2026-01-04 02:24:19.60	19.75	20.26	-24.1	-25.2	17.9	3.11e-04	0	43	102	1048576	8	4100
2026-01-04 02:24:20.60	19.76	20.39	-24.0	-25.1	18.0	0.00e+00	0	43	102	1048576	8	4073
2026-01-04 02:24:21.61	19.77	20.52	-24.0	-25.0	18.0	3.34e-04	0	43	102	1048576	8	4068
2026-01-04 02:24:22.62	19.78	20.66	-24.0	-25.1	18.0	3.19e-04	0	43	102	1048576	8	4078
2026-01-04 02:24:23.62	19.79	20.79	-24.1	-25.2	18.0	0.00e+00	0	43	102	1048576	8	4101
2026-01-04 02:24:24.63	19.80	20.93	-24.0	-25.1	18.0	3.11e-04	0	43	102	1048576	8	4073
2026-01-04 02:24:25.63	19.81	21.06	-24.1	-25.2	18.0	0.00e+00	0	43	102	1048576	8	4104
2026-01-04 02:24:26.64	19.82	21.20	-24.2	-25.4	17.9	0.00e+00	0	43	102	1048576	8	4152
2026-01-04 02:24:27.65	19.82	21.34	-24.2	-25.4	17.9	0.00e+00	0	43	102	1048576	8	4162
2026-01-04 02:24:28.65	19.83	21.48	-24.4	-25.9	17.6	3.22e-04	0	43	102	1048576	8	4293
2026-01-04 02:24:29.66	19.84	21.62	-24.4	-25.5	17.6	0.00e+00	0	43	102	1048576	9	4073
2026-01-04 02:24:30.67	19.85	21.76	-24.4	-25.5	17.6	3.08e-04	0	43	102	1048576	9	4072
2026-01-04 02:24:31.67	19.86	21.90	-24.4	-25.5	17.6	3.04e-04	0	43	102	1048576	9	4066
2026-01-04 02:24:32.68	19.87	22.04	-24.5	-25.6	17.6	0.00e+00	0	43	102	1048576	9	4086
2026-01-04 02:24:33.69	19.88	22.18	-24.5	-25.6	17.5	3.04e-04	0	43	102	1048576	9	4096
2026-01-04 02:24:34.70	19.89	22.33	-24.5	-25.7	17.5	0.00e+00	0	43	102	1048576	9	4123
2026-01-04 02:24:35.71	19.90	22.47	-24.5	-25.6	17.5	0.00e+00	0	43	102	1048576	9	4098
2026-01-04 02:24:36.71	19.91	22.62	-24.3	-25.3	17.7	0.00e+00	0	43	102	1048576	9	4011
2026-01-04 02:24:37.72	19.92	22.76	-24.1	-25.2	18.0	2.66e-04	0	43	102	1048576	8	4115
2026-01-04 02:24:38.73	19.93	22.91	-24.1	-25.3	18.0	0.00e+00	0	43	102	1048576	8	4134
2026-01-04 02:24:39.74	19.94	23.06	-24.2	-25.6	17.9	0.00e+00	0	43	102	1048576	8	4205
2026-01-04 02:24:40.74	19.95	23.21	-24.2	-25.5	17.9	0.00e+00	0	43	102	1048576	8	4170
2026-01-04 02:24:41.75	19.96	23.36	-24.0	-25.1	18.1	0.00e+00	0	43	102	1048576	8	4072
2026-01-04 02:24:42.75	19.97	23.51	-23.9	-24.8	18.3	2.40e-04	0	43	102	1048576	8	4001
2026-01-04 02:24:43.76	19.98	23.66	-23.8	-24.7	18.3	0.00e+00	0	43	102	1048576	8	3975
2026-01-04 02:24:44.77	19.99	23.81	-23.8	-24.7	18.3	0.00e+00	0	43	102	1048576	8	3981
2026-01-04 02:24:45.78	20.00	23.96	-23.7	-24.9	18.4	0.00e+00	0	43	102	1048576	7	4151
2026-01-04 02:24:46.78	20.01	24.12	-23.6	-24.8	18.5	0.00e+00	0	43	102	1048576	7	4109
2026-01-04 02:24:47.79	20.02	24.27	-23.7	-24.9	18.4	0.00e+00	0	43	102	1048576	7	4141
2026-01-04 02:24:48.80	20.03	24.43	-23.6	-24.6	18.6	0.00e+00	0	43	102	1048576	7	4080
2026-01-04 02:24:49.80	20.04	24.58	-23.4	-24.4	18.8	0.00e+00	0	43	102	1048576	7	4013
2026-01-04 02:24:50.81	20.05	24.74	-23.5	-24.5	18.7	0.00e+00	0	43	102	1048576	7	4032
2026-01-04 02:24:51.81	20.06	24.90	-23.3	-24.2	18.8	0.00e+00	0	43	102	1048576	7	3964
2026-01-04 02:24:52.82	20.07	25.06	-23.3	-24.1	18.9	0.00e+00	0	43	102	1048576	7	3940
2026-01-04 02:24:53.82	20.08	25.22	-23.3	-24.1	18.9	0.00e+00	0	43	102	1048576	7	3950
2026-01-04 02:24:54.83	20.09	25.38	-23.5	-24.5	18.7	0.00e+00	0	43	102	1048576	7	4051
2026-01-04 02:24:55.83	20.10	25.54	-23.5	-24.5	18.7	0.00e+00	0	43	102	1048576	7	4049
2026-01-04 02:24:56.84	20.11	25.71	-23.6	-24.7	18.6	0.00e+00	0	43	102	1048576	7	4093
2026-01-04 02:24:57.84	20.12	25.87	-23.5	-24.6	18.7	0.00e+00	0	43	102	1048576	7	4064
2026-01-04 02:24:58.84	20.13	26.03	-23.4	-24.4	18.8	0.00e+00	0	43	102	1048576	7	4009
2026-01-04 02:24:59.85	20.14	26.20	-23.6	-24.7	18.6	0.00e+00	0	43	102	1048576	7	4082
2026-01-04 02:25:00.86	20.15	26.37	-23.5	-24.5	18.7	0.00e+00	0	43	102	1048576	7	4034
2026-01-04 02:25:01.87	20.17	26.54	-23.5	-24.5	18.7	0.00e+00	0	43	102	1048576	7	4040
2026-01-04 02:25:02.86	20.18	26.71	-23.4	-24.3	18.8	0.00e+00	0	43	102	1048576	7	3990
2026-01-04 02:25:03.87	20.19	26.88	-23.5	-24.5	18.7	0.00e+00	0	43	102	1048576	7	4035
2026-01-04 02:25:04.88	20.20	27.05	-23.4	-24.3	18.8	0.00e+00	0	43	102	1048576	7	3983
2026-01-04 02:25:05.89	20.21	27.22	-23.3	-24.0	19.0	0.00e+00	0	43	102	1048576	7	3934
2026-01-04 02:25:06.89	20.22	27.40	-23.2	-23.9	19.0	0.00e+00	0	43	102	1048576	7	3902
2026-01-04 02:25:07.90	20.23	27.57	-23.2	-24.0	19.0	0.00e+00	0	43	102	1048576	7	3919
2026-01-04 02:25:08.91	20.25	27.75	-23.2	-23.9	19.0	0.00e+00	0	43	102	1048576	7	3906
2026-01-04 02:25:09.91	20.26	27.92	-23.3	-24.1	19.0	0.00e+00	0	43	102	1048576	7	3941
2026-01-04 02:25:10.92	20.27	28.10	-23.3	-24.1	19.0	0.00e+00	0	43	102	1048576	7	3946
2026-01-04 02:25:11.92	20.28	28.28	-23.4	-24.2	18.9	0.00e+00	0	43	102	1048576	7	3969
2026-01-04 02:25:12.92	20.29	28.46	-23.3	-24.2	18.9	0.00e+00	0	43	102	1048576	7	3955
2026-01-04 02:25:13.93	20.30	28.64	-23.4	-24.3	18.9	0.00e+00	0	43	102	1048576	7	3986
2026-01-04 02:25:14.93	20.32	28.83	-23.4	-24.4	18.8	0.00e+00	0	43	102	1048576	7	4014
2026-01-04 02:25:15.94	20.33	29.01	-23.5	-24.4	18.8	0.00e+00	0	43	102	1048576	7	4023
2026-01-04 02:25:16.94	20.34	29.20	-23.5	-24.5	18.8	0.00e+00	0	43	102	1048576	7	4035
2026-01-04 02:25:17.94	20.35	29.38	-23.5	-24.4	18.8	0.00e+00	0	43	102	1048576	7	4029
2026-01-04 02:25:18.94	20.37	29.57	-23.5	-24.4	18.8	0.00e+00	0	43	102	1048576	7	4029
2026-01-04 02:25:19.95	20.38	29.76	-23.4	-24.2	18.9	0.00e+00	0	43	102	1048576	7	3970
2026-01-04 02:25:20.96	20.39	29.95	-23.3	-24.0	19.0	0.00e+00	0	43	102	1048576	7	3928
2026-01-04 02:25:21.97	20.40	30.14	-23.3	-24.2	18.9	0.00e+00	0	43	102	1048576	7	3954
2026-01-04 02:25:22.98	20.42	30.34	-23.3	-24.1	19.0	0.00e+00	0	43	102	1048576	7	3949
2026-01-04 02:25:23.98	20.43	30.53	-23.4	-24.3	18.9	0.00e+00	0	43	102	1048576	7	3978
2026-01-04 02:25:24.99	20.44	30.73	-23.6	-24.7	18.7	0.00e+00	0	43	102	1048576	7	4089
2026-01-04 02:25:26.00	20.46	30.92	-23.4	-24.3	18.9	0.00e+00	0	43	102	1048576	7	3989
2026-01-04 02:25:27.00	20.47	31.12	-23.3	-24.1	19.0	0.00e+00	0	43	102	1048576	7	3947
2026-01-04 02:25:28.00	20.48	31.32	-23.3	-24.1	19.0	0.00e+00	0	43	102	1048576	7	3955
2026-01-04 02:25:29.00	20.50	31.52	-23.5	-24.4	18.9	0.00e+00	0	43	102	1048576	7	4025
2026-01-04 02:25:30.01	20.51	31.72	-23.2	-24.0	19.1	0.00e+00	0	43	102	1048576	7	3911
2026-01-04 02:25:31.02	20.53	31.93	-23.4	-24.3	18.9	0.00e+00	0	43	102	1048576	7	3995
2026-01-04 02:25:32.02	20.54	32.13	-23.3	-24.2	19.0	0.00e+00	0	43	102	1048576	7	3963
2026-01-04 02:25:33.03	20.55	32.34	-23.4	-24.4	18.9	0.00e+00	0	43	102	1048576	7	4007
2026-01-04 02:25:34.04	20.57	32.55	-23.7	-24.9	18.6	5.60e-05	0	43	102	1048576	7	4134
2026-01-04 02:25:35.05	20.58	32.76	-23.5	-24.5	18.8	0.00e+00	0	43	102	1048576	7	4043
2026-01-04 02:25:36.05	20.60	32.97	-23.3	-24.1	19.0	0.00e+00	0	43	102	1048576	7	3948
2026-01-04 02:25:37.06	20.61	33.18	-23.3	-24.0	19.1	0.00e+00	0	43	102	1048576	7	3926
2026-01-04 02:25:38.07	20.63	33.40	-23.4	-24.3	18.9	0.00e+00	0	43	102	1048576	7	3990
2026-01-04 02:25:39.08	20.64	33.62	-23.4	-24.4	18.9	9.84e-05	0	43	102	1048576	7	4015
2026-01-04 02:25:40.07	20.66	33.83	-23.6	-24.8	18.7	0.00e+00	0	43	102	1048576	7	4126
2026-01-04 02:25:41.08	20.67	34.05	-23.4	-24.2	19.0	0.00e+00	0	43	102	1048576	7	3980
2026-01-04 02:25:42.09	20.69	34.27	-23.2	-23.9	19.1	0.00e+00	0	43	102	1048576	7	3905
2026-01-04 02:25:43.09	20.70	34.49	-23.3	-24.0	19.1	1.04e-04	0	43	102	1048576	7	3923
2026-01-04 02:25:44.10	20.72	34.72	-23.4	-24.2	19.0	0.00e+00	0	43	102	1048576	7	3980
2026-01-04 02:25:45.11	20.73	34.94	-23.1	-23.7	19.2	0.00e+00	0	43	102	1048576	7	3864
2026-01-04 02:25:46.11	20.75	35.17	-23.0	-23.5	19.4	9.04e-05	0	43	102	1048576	7	3811
2026-01-04 02:25:47.12	20.77	35.40	-23.1	-23.6	19.3	0.00e+00	0	43	102	1048576	7	3834
2026-01-04 02:25:48.12	20.78	35.63	-23.0	-23.4	19.4	7.09e-05	0	43	102	1048576	7	3781
2026-01-04 02:25:49.14	20.80	35.86	-23.0	-23.4	19.4	0.00e+00	0	43	102	1048576	7	3787
2026-01-04 02:25:50.14	20.82	36.09	-23.0	-23.4	19.5	0.00e+00	0	43	102	1048576	7	3787
2026-01-04 02:25:51.15	20.83	36.33	-22.8	-23.4	19.7	1.10e-04	0	43	102	1048576	6	3891
2026-01-04 02:25:52.16	20.85	36.57	-22.6	-23.0	19.9	1.04e-04	0	43	102	1048576	6	3797
2026-01-04 02:25:53.17	20.87	36.81	-22.6	-23.1	19.9	0.00e+00	0	43	102	1048576	6	3819
2026-01-04 02:25:54.17	20.89	37.05	-22.7	-23.3	19.8	1.04e-04	0	43	102	1048576	6	3857
2026-01-04 02:25:55.18	20.90	37.29	-22.6	-23.1	19.8	5.83e-05	0	43	102	1048576	6	3827
2026-01-04 02:25:56.19	20.92	37.54	-22.7	-23.4	19.7	0.00e+00	0	43	102	1048576	6	3878
2026-01-04 02:25:57.19	20.94	37.78	-22.9	-23.7	19.6	4.34e-05	0	43	102	1048576	6	3956
2026-01-04 02:25:58.20	20.96	38.03	-22.8	-23.6	19.6	5.03e-05	0	43	102	1048576	6	3938
2026-01-04 02:25:59.19	20.98	38.27	-23.0	-24.0	19.4	0.00e+00	0	43	102	1048576	6	4027
2026-01-04 02:26:00.20	20.99	38.53	-22.8	-23.6	19.6	1.25e-05	0	43	102	1048576	6	3942
2026-01-04 02:26:01.20	21.01	38.78	-22.8	-23.4	19.7	1.02e-05	0	43	102	1048576	6	3892
2026-01-04 02:26:02.21	21.03	39.04	-22.7	-23.3	19.8	0.00e+00	0	43	102	1048576	6	3863
2026-01-04 02:26:03.21	21.05	39.29	-22.5	-22.9	20.0	0.00e+00	0	43	102	1048576	6	3772
2026-01-04 02:26:04.22	21.07	39.55	-22.4	-22.7	20.1	1.10e-06	0	43	102	1048576	6	3730
2026-01-04 02:26:05.23	21.09	39.81	-22.5	-22.9	20.0	0.00e+00	0	43	102	1048576	6	3769
2026-01-04 02:26:06.23	21.11	40.07	-22.6	-23.2	19.8	0.00e+00	0	43	102	1048576	6	3835
2026-01-04 02:26:07.24	21.13	40.34	-22.9	-23.7	19.6	0.00e+00	0	43	102	1048576	6	3955
2026-01-04 02:26:08.25	21.15	40.61	-23.0	-24.0	19.4	0.00e+00	0	43	102	1048576	6	4033
2026-01-04 02:26:09.25	21.18	40.88	-23.2	-24.3	19.3	0.00e+00	0	43	102	1048576	6	4104
2026-01-04 02:26:10.26	21.20	41.15	-23.3	-24.5	19.2	0.00e+00	0	43	102	1048576	6	4143
2026-01-04 02:26:11.26	21.22	41.42	-23.3	-24.5	19.2	0.00e+00	0	43	102	1048576	6	4157
2026-01-04 02:26:12.27	21.24	41.70	-23.4	-24.7	19.1	0.00e+00	0	43	102	1048576	6	4203
2026-01-04 02:26:13.27	21.26	41.97	-23.3	-24.5	19.2	0.00e+00	0	43	102	1048576	6	4151
2026-01-04 02:26:14.28	21.29	42.25	-23.3	-24.5	19.2	0.00e+00	0	43	102	1048576	6	4153
2026-01-04 02:26:15.28	21.31	42.53	-23.3	-24.5	19.2	0.00e+00	0	43	102	1048576	6	4148
2026-01-04 02:26:16.29	21.33	42.82	-23.3	-24.6	19.2	0.00e+00	0	43	102	1048576	6	4183
2026-01-04 02:26:17.30	21.36	43.10	-23.3	-24.5	19.2	0.00e+00	0	43	102	1048576	6	4158
2026-01-04 02:26:18.30	21.38	43.39	-23.4	-24.7	19.1	0.00e+00	0	43	102	1048576	6	4204
2026-01-04 02:26:19.31	21.40	43.68	-23.2	-24.3	19.4	0.00e+00	0	43	102	1048576	6	4090
2026-01-04 02:26:20.32	21.43	43.97	-23.1	-24.1	19.5	0.00e+00	0	43	102	1048576	6	4047
2026-01-04 02:26:21.33	21.45	44.27	-23.1	-24.1	19.5	0.00e+00	0	43	102	1048576	6	4040
2026-01-04 02:26:22.33	21.48	44.57	-23.2	-24.4	19.3	0.00e+00	0	43	102	1048576	6	4121
2026-01-04 02:26:23.34	21.51	44.87	-23.4	-24.7	19.1	0.00e+00	0	43	102	1048576	6	4202
2026-01-04 02:26:24.35	21.53	45.17	-23.6	-24.8	18.8	0.00e+00	0	43	102	1048576	7	4116
2026-01-04 02:26:25.36	21.56	45.47	-23.7	-24.9	18.8	0.00e+00	0	43	102	1048576	7	4154
2026-01-04 02:26:26.37	21.59	45.78	-23.6	-24.8	18.9	0.00e+00	0	43	102	1048576	7	4102
2026-01-04 02:26:27.37	21.61	46.09	-23.4	-24.3	19.1	0.00e+00	0	43	102	1048576	7	3993
2026-01-04 02:26:28.38	21.64	46.40	-23.4	-24.3	19.1	0.00e+00	0	43	102	1048576	7	3989
2026-01-04 02:26:29.39	21.67	46.71	-23.4	-24.3	19.1	0.00e+00	0	43	102	1048576	7	3983
2026-01-04 02:26:30.39	21.70	47.03	-23.2	-23.8	19.4	0.00e+00	0	43	102	1048576	7	3855
2026-01-04 02:26:31.40	21.73	47.35	-23.4	-24.2	19.2	0.00e+00	0	43	102	1048576	7	3953
2026-01-04 02:26:32.41	21.76	47.67	-23.6	-24.8	18.9	0.00e+00	0	43	102	1048576	7	4109
2026-01-04 02:26:33.42	21.79	47.99	-23.6	-24.7	18.9	0.00e+00	0	43	102	1048576	7	4097
2026-01-04 02:26:34.42	21.82	48.32	-23.6	-24.6	19.0	0.00e+00	0	43	102	1048576	7	4060
2026-01-04 02:26:35.43	21.85	48.64	-23.4	-24.3	19.2	0.00e+00	0	43	102	1048576	7	3976
2026-01-04 02:26:36.44	21.89	48.98	-23.4	-24.2	19.2	0.00e+00	0	43	102	1048576	7	3955
2026-01-04 02:26:37.45	21.92	49.31	-23.5	-24.5	19.0	0.00e+00	0	43	102	1048576	7	4038
2026-01-04 02:26:38.45	21.95	49.64	-23.9	-25.4	18.6	0.00e+00	0	43	102	1048576	7	4272
2026-01-04 02:26:39.46	21.99	49.98	-24.1	-25.3	18.4	0.00e+00	0	43	102	1048576	8	4137
2026-01-04 02:26:40.46	22.02	50.32	-23.8	-24.5	18.8	0.00e+00	0	43	102	1048576	8	3935
2026-01-04 02:26:41.47	22.06	50.66	-23.6	-24.1	19.0	0.00e+00	0	43	102	1048576	8	3825
2026-01-04 02:26:42.48	22.10	51.01	-23.7	-24.3	18.9	0.00e+00	0	43	102	1048576	8	3885
2026-01-04 02:26:43.48	22.13	51.36	-23.8	-24.5	18.8	0.00e+00	0	43	102	1048576	8	3925
2026-01-04 02:26:44.49	22.17	51.71	-23.8	-24.6	18.8	0.00e+00	0	43	102	1048576	8	3937
2026-01-04 02:26:45.50	22.21	52.06	-24.2	-25.5	18.4	0.00e+00	0	43	102	1048576	8	4168
2026-01-04 02:26:46.51	22.25	52.42	-24.7	-26.0	17.8	0.00e+00	0	43	102	1048576	9	4176
2026-01-04 02:26:47.52	22.29	52.78	-24.9	-26.4	17.6	0.00e+00	0	43	102	1048576	9	4288
2026-01-04 02:26:48.53	22.33	53.14	-24.6	-25.8	17.9	0.00e+00	0	43	102	1048576	9	4137
2026-01-04 02:26:49.53	22.38	53.50	-24.0	-24.6	18.6	0.00e+00	0	43	102	1048576	9	3835
2026-01-04 02:26:50.53	22.42	53.87	-23.9	-24.4	18.7	0.00e+00	0	43	102	1048576	9	3788
2026-01-04 02:26:51.54	22.47	54.24	-24.2	-24.9	18.4	0.00e+00	0	43	102	1048576	9	3918
2026-01-04 02:26:52.55	22.51	54.61	-24.5	-25.6	18.0	0.00e+00	0	43	102	1048576	9	4081
2026-01-04 02:26:53.55	22.56	54.98	-24.7	-26.1	17.8	0.00e+00	0	43	102	1048576	9	4210
2026-01-04 02:26:54.56	22.61	55.36	-24.6	-25.9	17.9	0.00e+00	0	43	102	1048576	9	4159
2026-01-04 02:26:55.57	22.66	55.74	-24.5	-25.6	18.0	0.00e+00	0	43	102	1048576	9	4095
2026-01-04 02:26:56.57	22.71	56.12	-24.5	-25.5	18.1	0.00e+00	0	43	102	1048576	9	4056
2026-01-04 02:26:57.58	22.76	56.51	-24.4	-25.5	18.2	0.00e+00	0	43	102	1048576	9	4049
2026-01-04 02:26:58.58	22.81	56.89	-24.4	-25.3	18.2	0.00e+00	0	43	102	1048576	9	4014
2026-01-04 02:26:59.59	22.87	57.28	-24.2	-25.0	18.2	0.00e+00	0	43	102	1048576	9	3940
2026-01-04 02:27:00.60	22.92	57.68	-24.5	-25.6	17.7	0.00e+00	0	43	102	1048576	9	4069
2026-01-04 02:27:01.61	22.98	58.07	-24.6	-25.8	18.0	0.00e+00	0	43	102	1048576	9	4121
2026-01-04 02:27:02.61	23.04	58.47	-24.3	-25.2	18.1	5.37e-05	0	43	102	1048576	9	3990
2026-01-04 02:27:03.62	23.10	58.87	-24.0	-24.5	18.6	0.00e+00	0	43	102	1048576	9	3830
2026-01-04 02:27:04.63	23.16	59.28	-23.8	-24.2	18.8	0.00e+00	0	43	102	1048576	9	3741
2026-01-04 02:27:05.64	23.23	59.68	-24.2	-24.9	18.5	0.00e+00	0	43	102	1048576	9	3904
2026-01-04 02:27:06.65	23.29	60.09	-24.1	-24.8	18.5	0.00e+00	0	43	102	1048576	9	3876
2026-01-04 02:27:07.66	23.36	60.51	-23.7	-24.4	18.9	0.00e+00	0	43	102	1048576	8	3908
2026-01-04 02:27:08.67	23.43	60.92	-23.4	-23.8	19.3	0.00e+00	0	43	102	1048576	8	3762
2026-01-04 02:27:09.68	23.51	61.34	-23.1	-23.7	19.6	7.89e-05	0	43	102	1048576	7	3833
2026-01-04 02:27:10.69	23.58	61.76	-23.1	-23.6	19.6	0.00e+00	0	43	102	1048576	7	3819
2026-01-04 02:27:11.69	23.66	62.18	-23.3	-24.1	19.4	3.43e-05	0	43	102	1048576	7	3935
2026-01-04 02:27:12.70	23.74	62.61	-23.3	-24.1	19.4	0.00e+00	0	43	102	1048576	7	3931
2026-01-04 02:27:13.71	23.82	63.04	-23.3	-24.0	19.4	0.00e+00	0	43	102	1048576	7	3904
2026-01-04 02:27:14.72	23.91	63.47	-22.9	-23.3	19.8	0.00e+00	0	43	102	1048576	7	3758
2026-01-04 02:27:15.72	24.00	63.90	-22.7	-23.4	20.0	0.00e+00	0	43	102	1048576	6	3878
2026-01-04 02:27:16.72	24.09	64.33	-22.7	-23.3	20.0	0.00e+00	0	43	102	1048576	6	3848
2026-01-04 02:27:17.73	24.19	64.77	-22.8	-23.6	19.9	0.00e+00	0	43	102	1048576	6	3929
2026-01-04 02:27:18.74	24.29	65.21	-22.5	-23.0	20.2	0.00e+00	0	43	102	1048576	6	3781
2026-01-04 02:27:19.75	24.39	65.65	-22.1	-22.6	20.6	0.00e+00	0	43	102	1048576	5	3797
2026-01-04 02:27:20.75	24.50	66.10	-22.5	-23.4	20.2	0.00e+00	0	43	102	1048576	5	3995
2026-01-04 02:27:21.76	24.61	66.54	-22.7	-23.9	20.0	0.00e+00	0	43	102	1048576	5	4101
2026-01-04 02:27:22.77	24.73	67.00	-22.6	-23.6	20.2	0.00e+00	0	43	102	1048576	5	4031
2026-01-04 02:27:23.77	24.85	67.44	-22.7	-23.8	20.0	0.00e+00	0	43	102	1048576	5	4100
2026-01-04 02:27:24.78	24.97	67.90	-22.6	-23.7	20.1	0.00e+00	0	43	102	1048576	5	4056
2026-01-04 02:27:25.79	25.11	68.36	-22.6	-23.6	20.1	0.00e+00	0	43	102	1048576	5	4051
2026-01-04 02:27:26.80	25.25	68.82	-22.7	-23.8	20.1	0.00e+00	0	43	102	1048576	5	4082
2026-01-04 02:27:27.80	25.39	69.28	-22.6	-23.6	20.1	0.00e+00	0	43	102	1048576	5	4043
2026-01-04 02:27:28.81	25.54	69.74	-22.4	-23.2	20.3	0.00e+00	0	43	102	1048576	5	3935
2026-01-04 02:27:29.81	25.70	70.21	-22.1	-22.6	20.7	0.00e+00	0	43	102	1048576	5	3803
2026-01-04 02:27:30.81	25.87	70.67	-22.4	-23.1	20.4	0.00e+00	0	43	102	1048576	5	3920
2026-01-04 02:27:31.81	26.04	71.14	-22.2	-22.8	20.5	0.00e+00	0	43	102	1048576	5	3858
2026-01-04 02:27:32.82	26.23	71.61	-22.1	-22.5	20.7	0.00e+00	0	43	102	1048576	5	3786
2026-01-04 02:27:33.83	26.42	72.09	-22.1	-22.5	20.7	0.00e+00	0	43	102	1048576	5	3780
2026-01-04 02:27:34.84	26.63	72.56	-21.7	-22.1	21.1	0.00e+00	0	43	102	1048576	4	3802
2026-01-04 02:27:35.84	26.85	73.04	-22.0	-22.9	20.7	0.00e+00	0	43	102	1048576	4	3993
2026-01-04 02:27:36.85	27.08	73.52	-22.2	-23.3	20.5	1.05e-04	0	43	102	1048576	4	4092
2026-01-04 02:27:37.86	27.33	74.00	-22.1	-23.1	20.7	0.00e+00	0	43	102	1048576	4	4025
2026-01-04 02:27:38.87	27.59	74.48	-21.8	-22.5	21.0	1.45e-04	0	43	102	1048576	4	3879
2026-01-04 02:27:39.87	27.87	74.97	-21.7	-22.3	21.1	1.32e-04	0	43	102	1048576	4	3832
2026-01-04 02:27:40.87	28.16	75.45	-22.2	-23.3	20.6	1.10e-06	0	43	102	1048576	4	4089
2026-01-04 02:27:41.88	28.48	75.94	-21.9	-22.6	20.9	1.28e-04	0	43	102	1048576	4	3906
2026-01-04 02:27:42.88	28.82	76.42	-21.3	-21.3	21.5	0.00e+00	0	43	102	1048576	4	3624
2026-01-04 02:27:43.89	29.19	76.91	-21.5	-22.2	21.4	3.40e-06	0	43	102	1048576	3	3935
2026-01-04 02:27:44.89	29.59	77.40	-21.7	-22.7	21.1	0.00e+00	0	43	102	1048576	3	4061
2026-01-04 02:27:45.90	30.02	77.89	-21.0	-21.3	21.8	0.00e+00	0	43	102	1048576	3	3718
2026-01-04 02:27:46.91	30.49	78.39	-21.0	-21.3	21.8	2.20e-06	0	43	102	1048576	3	3730
2026-01-04 02:27:47.91	31.00	78.88	-21.6	-22.6	21.2	0.00e+00	0	43	102	1048576	3	4015
2026-01-04 02:27:48.92	31.56	79.37	-21.2	-21.7	21.7	0.00e+00	0	43	102	1048576	3	3807
2026-01-04 02:27:49.92	32.16	79.86	-21.0	-21.2	21.9	0.00e+00	0	43	102	1048576	3	3706
2026-01-04 02:27:50.93	32.84	80.36	-20.9	-21.1	22.0	0.00e+00	0	43	102	1048576	3	3681
2026-01-04 02:27:51.94	33.60	80.85	-21.0	-21.4	21.8	0.00e+00	0	43	102	1048576	3	3744
2026-01-04 02:27:52.95	34.44	81.35	-20.7	-21.2	22.1	0.00e+00	0	43	102	1048576	2	3812
2026-01-04 02:27:53.95	35.37	81.84	-20.6	-21.0	22.2	0.00e+00	0	43	102	1048576	2	3757
2026-01-04 02:27:54.96	36.43	82.33	-20.9	-21.6	21.9	0.00e+00	0	43	102	1048576	2	3909
2026-01-04 02:27:55.97	37.64	82.82	-20.7	-21.1	22.1	0.00e+00	0	43	102	1048576	2	3799
2026-01-04 02:27:56.97	39.02	83.30	-20.4	-20.6	22.4	0.00e+00	0	43	102	1048576	2	3679
2026-01-04 02:27:57.97	40.60	83.78	-20.4	-20.5	22.4	0.00e+00	0	43	102	1048576	2	3656
2026-01-04 02:27:58.98	42.47	84.26	-20.9	-21.7	21.9	0.00e+00	0	43	102	1048576	2	3917
2026-01-04 02:27:59.98	44.66	84.73	-21.8	-22.9	21.1	0.00e+00	0	43	102	1048576	3	4098
2026-01-04 02:28:00.99	47.30	85.19	-22.3	-23.5	20.5	0.00e+00	0	43	102	1048576	4	4121
2026-01-04 02:28:02.00	50.49	85.64	-22.5	-23.4	20.3	0.00e+00	0	43	102	1048576	5	3998
2026-01-04 02:28:03.00	54.37	86.07	-22.6	-23.6	20.2	0.00e+00	0	43	102	1048576	5	4036
2026-01-04 02:28:04.01	59.23	86.49	-22.4	-23.3	20.4	0.00e+00	0	43	102	1048576	5	3957
2026-01-04 02:28:05.02	65.34	86.87	-22.7	-23.7	20.2	0.00e+00	0	43	102	1048576	5	4066
2026-01-04 02:28:06.03	73.03	87.21	-22.6	-23.7	20.2	0.00e+00	0	43	102	1048576	5	4056
2026-01-04 02:28:07.03	82.51	87.48	-22.7	-23.8	20.2	0.00e+00	0	43	102	1048576	5	4077
2026-01-04 02:28:08.04	94.00	87.67	-22.7	-23.8	20.2	0.00e+00	0	43	102	1048576	5	4080
2026-01-04 02:28:09.05	106.92	87.75	-22.6	-23.5	20.4	0.00e+00	0	43	102	1048576	5	4003
2026-01-04 02:28:10.05	119.97	87.72	-22.8	-24.0	20.2	0.00e+00	0	43	102	1048576	5	4130
2026-01-04 02:28:11.05	132.03	87.57	-22.9	-24.2	20.1	0.00e+00	0	43	102	1048576	5	4173
2026-01-04 02:28:12.06	142.42	87.33	-23.0	-24.4	20.0	0.00e+00	0	43	102	1048576	5	4225
2026-01-04 02:28:13.07	150.85	87.01	-22.9	-24.2	20.1	0.00e+00	0	43	102	1048576	5	4188
2026-01-04 02:28:14.08	157.56	86.65	-22.8	-24.1	20.2	0.00e+00	0	43	102	1048576	5	4150
2026-01-04 02:28:15.08	162.84	86.25	-22.8	-24.1	20.2	0.00e+00	0	43	102	1048576	5	4158
2026-01-04 02:28:16.09	167.12	85.82	-22.5	-23.4	20.5	0.00e+00	0	43	102	1048576	5	3989
2026-01-04 02:28:17.10	170.58	85.37	-22.5	-23.4	20.5	0.00e+00	0	43	102	1048576	5	3999
2026-01-04 02:28:18.11	173.43	84.91	-22.4	-23.2	20.6	0.00e+00	0	43	102	1048576	5	3946
2026-01-04 02:28:19.11	175.78	84.45	-22.3	-22.9	20.8	0.00e+00	0	43	102	1048576	5	3865
2026-01-04 02:28:20.12	177.78	83.97	-22.2	-22.7	20.8	0.00e+00	0	43	102	1048576	5	3827
2026-01-04 02:28:21.13	179.48	83.49	-22.0	-22.4	21.0	0.00e+00	0	43	102	1048576	5	3752
2026-01-04 02:28:22.14	180.95	83.00	-22.2	-22.8	20.8	0.00e+00	0	43	102	1048576	5	3839
2026-01-04 02:28:23.13	182.20	82.52	-22.5	-23.4	20.5	0.00e+00	0	43	102	1048576	5	3985
2026-01-04 02:28:24.14	183.32	82.03	-22.0	-22.4	21.0	0.00e+00	0	43	102	1048576	5	3760
2026-01-04 02:28:25.15	184.31	81.54	-21.6	-22.1	21.3	0.00e+00	0	43	102	1048576	4	3801
2026-01-04 02:28:26.15	185.18	81.05	-21.6	-22.0	21.4	0.00e+00	0	43	102	1048576	4	3775
2026-01-04 02:28:27.16	185.96	80.55	-21.3	-21.9	21.7	0.00e+00	0	43	102	1048576	3	3859
2026-01-04 02:28:28.17	186.67	80.06	-21.2	-21.7	21.8	0.00e+00	0	43	102	1048576	3	3804
2026-01-04 02:28:29.18	187.31	79.56	-21.2	-21.6	21.9	0.00e+00	0	43	102	1048576	3	3782
2026-01-04 02:28:30.18	187.89	79.07	-21.2	-21.6	21.9	0.00e+00	0	43	102	1048576	3	3795
2026-01-04 02:28:31.18	188.41	78.58	-21.3	-21.9	21.7	2.20e-06	0	43	102	1048576	3	3846
2026-01-04 02:28:32.19	188.90	78.09	-21.4	-22.0	21.7	0.00e+00	0	43	102	1048576	3	3884
2026-01-04 02:28:33.19	189.34	77.60	-21.3	-22.0	21.7	0.00e+00	0	43	102	1048576	3	3876
2026-01-04 02:28:34.20	189.75	77.10	-21.3	-21.9	21.7	1.10e-06	0	43	102	1048576	3	3853
2026-01-04 02:28:35.21	190.13	76.61	-21.4	-22.1	21.6	0.00e+00	0	43	102	1048576	3	3911
2026-01-04 02:28:36.22	190.49	76.12	-21.8	-22.8	21.2	0.00e+00	0	43	102	1048576	3	4079
2026-01-04 02:28:37.23	190.82	75.63	-21.3	-22.0	21.7	2.20e-06	0	43	102	1048576	3	3870
2026-01-04 02:28:38.24	191.12	75.14	-21.4	-22.1	21.6	0.00e+00	0	43	102	1048576	3	3888
2026-01-04 02:28:39.24	191.41	74.66	-21.9	-23.2	21.0	0.00e+00	0	43	102	1048576	3	4182
2026-01-04 02:28:40.25	191.68	74.17	-21.8	-22.8	21.2	0.00e+00	0	43	102	1048576	3	4079
2026-01-04 02:28:41.26	191.93	73.69	-21.8	-22.8	21.2	0.00e+00	0	43	102	1048576	3	4073
2026-01-04 02:28:42.27	192.17	73.21	-22.2	-23.2	20.8	0.00e+00	0	43	102	1048576	4	4046
2026-01-04 02:28:43.27	192.39	72.73	-22.0	-22.9	20.9	1.10e-06	0	43	102	1048576	4	3979
2026-01-04 02:28:44.28	192.60	72.25	-22.0	-23.0	20.9	0.00e+00	0	43	102	1048576	4	3996
2026-01-04 02:28:45.29	192.80	71.78	-22.2	-23.3	20.7	0.00e+00	0	43	102	1048576	4	4078
2026-01-04 02:28:46.30	192.99	71.30	-22.2	-23.3	20.7	0.00e+00	0	43	102	1048576	4	4081
2026-01-04 02:28:47.31	193.17	70.83	-22.6	-23.5	20.4	0.00e+00	0	43	102	1048576	5	4023
2026-01-04 02:28:48.31	193.34	70.36	-22.6	-23.7	20.3	0.00e+00	0	43	102	1048576	5	4053
2026-01-04 02:28:49.32	193.50	69.89	-22.6	-23.6	20.3	0.00e+00	0	43	102	1048576	5	4034
2026-01-04 02:28:50.32	193.66	69.43	-22.6	-23.6	20.3	0.00e+00	0	43	102	1048576	5	4031
2026-01-04 02:28:51.32	193.80	68.97	-22.5	-23.3	20.4	0.00e+00	0	43	102	1048576	5	3960
2026-01-04 02:28:52.32	193.94	68.51	-22.5	-23.4	20.4	0.00e+00	0	43	102	1048576	5	3998
2026-01-04 02:28:53.33	194.08	68.05	-22.9	-24.2	20.0	0.00e+00	0	43	102	1048576	5	4183
2026-01-04 02:28:54.33	194.20	67.60	-22.6	-23.7	20.3	0.00e+00	0	43	102	1048576	5	4056
2026-01-04 02:28:55.33	194.33	67.15	-22.3	-22.9	20.6	0.00e+00	0	43	102	1048576	5	3872
2026-01-04 02:28:56.34	194.45	66.69	-22.8	-24.0	20.1	0.00e+00	0	43	102	1048576	5	4134
2026-01-04 02:28:57.34	194.56	66.25	-23.5	-24.5	19.4	0.00e+00	0	43	102	1048576	7	4039
2026-01-04 02:28:58.35	194.67	65.80	-23.4	-24.2	19.5	0.00e+00	0	43	102	1048576	7	3951
2026-01-04 02:28:59.35	194.77	65.36	-23.4	-24.2	19.6	0.00e+00	0	43	102	1048576	7	3953
2026-01-04 02:29:00.35	194.87	64.92	-23.8	-25.1	19.1	0.00e+00	0	43	102	1048576	7	4184
2026-01-04 02:29:01.36	194.97	64.48	-23.8	-25.1	19.1	0.00e+00	0	43	102	1048576	7	4179
2026-01-04 02:29:02.37	195.06	64.04	-23.6	-24.7	19.3	3.89e-05	0	43	102	1048576	7	4076
2026-01-04 02:29:03.37	195.15	63.61	-23.7	-25.0	19.2	1.37e-05	0	43	102	1048576	7	4137
2026-01-04 02:29:04.38	195.24	63.17	-23.8	-25.2	19.1	0.00e+00	0	43	102	1048576	7	4199
2026-01-04 02:29:05.38	195.32	62.75	-24.0	-25.1	18.9	3.43e-05	0	43	102	1048576	8	4061
2026-01-04 02:29:06.39	195.41	62.32	-23.6	-24.1	19.4	0.00e+00	0	43	102	1048576	8	3820
2026-01-04 02:29:07.39	195.48	61.90	-23.5	-24.0	19.4	0.00e+00	0	43	102	1048576	8	3814
2026-01-04 02:29:08.41	195.56	61.47	-23.6	-24.1	19.4	8.01e-05	0	43	102	1048576	8	3835
2026-01-04 02:29:09.41	195.64	61.05	-23.6	-24.1	19.3	0.00e+00	0	43	102	1048576	8	3834
2026-01-04 02:29:10.41	195.71	60.64	-23.5	-23.9	19.5	1.10e-06	0	43	102	1048576	8	3774
2026-01-04 02:29:11.42	195.78	60.22	-23.7	-24.5	19.2	0.00e+00	0	43	102	1048576	8	3915
2026-01-04 02:29:12.42	195.84	59.81	-24.1	-25.3	18.8	4.92e-05	0	43	102	1048576	8	4109
2026-01-04 02:29:13.43	195.91	59.40	-24.1	-25.2	18.8	0.00e+00	0	43	102	1048576	8	4093
2026-01-04 02:29:14.43	195.97	59.00	-23.6	-24.1	19.4	5.14e-05	0	43	102	1048576	8	3814
2026-01-04 02:29:15.44	196.03	58.60	-23.3	-23.6	19.6	0.00e+00	0	43	102	1048576	8	3713
2026-01-04 02:29:16.45	196.09	58.19	-23.4	-23.8	19.5	0.00e+00	0	43	102	1048576	8	3760
2026-01-04 02:29:17.45	196.15	57.80	-23.6	-24.2	19.3	0.00e+00	0	43	102	1048576	8	3856
2026-01-04 02:29:18.46	196.21	57.40	-24.0	-24.9	18.9	0.00e+00	0	43	102	1048576	8	4020
2026-01-04 02:29:19.47	196.26	57.01	-24.2	-25.4	18.7	0.00e+00	0	43	102	1048576	8	4139
2026-01-04 02:29:20.48	196.32	56.62	-24.1	-25.2	18.8	0.00e+00	0	43	102	1048576	8	4080
2026-01-04 02:29:21.48	196.37	56.23	-24.0	-25.1	18.8	0.00e+00	0	43	102	1048576	8	4052
2026-01-04 02:29:22.49	196.42	55.85	-24.2	-25.4	18.6	0.00e+00	0	43	102	1048576	8	4147
2026-01-04 02:29:23.49	196.47	55.47	-24.4	-25.9	18.4	0.00e+00	0	43	102	1048576	8	4276
2026-01-04 02:29:24.50	196.52	55.09	-24.5	-25.6	18.3	0.00e+00	0	43	102	1048576	9	4091
2026-01-04 02:29:25.51	196.56	54.71	-24.6	-25.7	18.2	0.00e+00	0	43	102	1048576	9	4115
2026-01-04 02:29:26.51	196.61	54.34	-24.6	-25.8	18.2	0.00e+00	0	43	102	1048576	9	4127
2026-01-04 02:29:27.52	196.66	53.96	-24.8	-26.1	18.0	0.00e+00	0	43	102	1048576	9	4220
2026-01-04 02:29:28.52	196.70	53.60	-24.7	-26.0	18.0	0.00e+00	0	43	102	1048576	9	4196
2026-01-04 02:29:29.54	196.74	53.23	-24.5	-25.7	18.2	0.00e+00	0	43	102	1048576	9	4093
2026-01-04 02:29:30.54	196.78	52.87	-24.5	-25.6	18.2	0.00e+00	0	43	102	1048576	9	4079
2026-01-04 02:29:31.55	196.83	52.50	-24.5	-25.5	18.3	0.00e+00	0	43	102	1048576	9	4046
2026-01-04 02:29:32.56	196.87	52.15	-24.3	-25.2	18.4	0.00e+00	0	43	102	1048576	9	3987
2026-01-04 02:29:33.56	196.90	51.79	-24.2	-25.0	18.6	0.00e+00	0	43	102	1048576	9	3939
2026-01-04 02:29:34.57	196.94	51.44	-23.9	-24.4	18.9	0.00e+00	0	43	102	1048576	9	3789
2026-01-04 02:29:35.58	196.98	51.09	-23.8	-24.2	19.0	0.00e+00	0	43	102	1048576	9	3748
2026-01-04 02:29:36.58	197.02	50.74	-23.9	-24.8	18.9	0.00e+00	0	43	102	1048576	8	3984
2026-01-04 02:29:37.59	197.05	50.40	-23.7	-24.4	19.1	0.00e+00	0	43	102	1048576	8	3902
2026-01-04 02:29:38.59	197.09	50.05	-23.5	-23.9	19.3	0.00e+00	0	43	102	1048576	8	3785
2026-01-04 02:29:39.60	197.12	49.71	-23.3	-23.6	19.5	0.00e+00	0	43	102	1048576	8	3699
2026-01-04 02:29:40.60	197.16	49.38	-23.5	-24.0	19.3	0.00e+00	0	43	102	1048576	8	3795
2026-01-04 02:29:41.61	197.19	49.04	-23.6	-24.2	19.2	0.00e+00	0	43	102	1048576	8	3847
2026-01-04 02:29:42.61	197.22	48.71	-23.8	-24.7	18.9	0.00e+00	0	43	102	1048576	8	3969
2026-01-04 02:29:43.63	197.26	48.38	-24.0	-25.0	18.8	0.00e+00	0	43	102	1048576	8	4049
2026-01-04 02:29:44.64	197.29	48.05	-24.0	-24.9	18.8	0.00e+00	0	43	102	1048576	8	4034
2026-01-04 02:29:45.64	197.32	47.73	-23.9	-24.8	18.8	0.00e+00	0	43	102	1048576	8	3988
2026-01-04 02:29:46.64	197.35	47.41	-23.5	-23.9	19.3	0.00e+00	0	43	102	1048576	8	3772
2026-01-04 02:29:47.64	197.38	47.09	-23.2	-23.8	19.6	0.00e+00	0	43	102	1048576	7	3861
2026-01-04 02:29:48.65	197.41	46.77	-23.2	-23.8	19.6	0.00e+00	0	43	102	1048576	7	3851
2026-01-04 02:29:49.66	197.43	46.45	-23.2	-23.9	19.5	0.00e+00	0	43	102	1048576	7	3887
2026-01-04 02:29:50.67	197.46	46.14	-23.4	-24.2	19.4	0.00e+00	0	43	102	1048576	7	3955
2026-01-04 02:29:51.67	197.49	45.83	-23.3	-24.0	19.5	0.00e+00	0	43	102	1048576	7	3913
2026-01-04 02:29:52.68	197.52	45.52	-23.1	-23.6	19.7	0.00e+00	0	43	102	1048576	7	3817
2026-01-04 02:29:53.68	197.54	45.22	-23.0	-23.4	19.8	0.00e+00	0	43	102	1048576	7	3774
2026-01-04 02:29:54.68	197.57	44.91	-22.9	-23.8	19.8	0.00e+00	0	43	102	1048576	6	3969
2026-01-04 02:29:55.68	197.60	44.61	-23.0	-23.9	19.8	0.00e+00	0	43	102	1048576	6	4000
2026-01-04 02:29:56.69	197.62	44.31	-22.9	-23.7	19.9	0.00e+00	0	43	102	1048576	6	3936
2026-01-04 02:29:57.69	197.65	44.02	-22.9	-23.7	19.9	0.00e+00	0	43	102	1048576	6	3940
2026-01-04 02:29:58.69	197.67	43.73	-23.0	-24.0	19.7	0.00e+00	0	43	102	1048576	6	4014
2026-01-04 02:29:59.69	197.70	43.44	-23.2	-24.3	19.6	0.00e+00	0	43	102	1048576	6	4092
2026-01-04 02:30:00.70	197.72	43.14	-23.3	-24.6	19.4	0.00e+00	0	43	102	1048576	6	4179
2026-01-04 02:30:01.71	197.74	42.86	-23.4	-24.7	19.3	0.00e+00	0	43	102	1048576	6	4209
2026-01-04 02:30:02.72	197.77	42.57	-23.4	-24.8	19.3	0.00e+00	0	43	102	1048576	6	4217
2026-01-04 02:30:03.72	197.79	42.29	-23.2	-24.4	19.5	0.00e+00	0	43	102	1048576	6	4111
2026-01-04 02:30:04.74	197.81	42.00	-23.2	-24.3	19.5	0.00e+00	0	43	102	1048576	6	4103
2026-01-04 02:30:05.74	197.83	41.72	-23.3	-24.5	19.4	0.00e+00	0	43	102	1048576	6	4133
2026-01-04 02:30:06.74	197.86	41.45	-23.2	-24.3	19.5	0.00e+00	0	43	102	1048576	6	4088
2026-01-04 02:30:07.75	197.88	41.17	-23.0	-24.0	19.7	0.00e+00	0	43	102	1048576	6	4016
2026-01-04 02:30:08.76	197.90	40.90	-23.0	-24.0	19.7	1.96e-04	0	43	102	1048576	6	4009
2026-01-04 02:30:09.77	197.92	40.63	-23.0	-23.9	19.8	0.00e+00	0	43	102	1048576	6	3988
2026-01-04 02:30:10.78	197.94	40.36	-22.8	-23.6	19.9	2.02e-04	0	43	102	1048576	6	3928
2026-01-04 02:30:11.78	197.96	40.09	-22.8	-23.6	19.9	0.00e+00	0	43	102	1048576	6	3933
2026-01-04 02:30:12.79	197.98	39.83	-22.8	-23.5	19.9	0.00e+00	0	43	102	1048576	6	3898
2026-01-04 02:30:13.80	198.00	39.56	-22.7	-23.3	20.0	1.85e-04	0	43	102	1048576	6	3862
2026-01-04 02:30:14.81	198.02	39.30	-22.7	-23.2	20.1	0.00e+00	0	43	102	1048576	6	3847
2026-01-04 02:30:15.82	198.04	39.04	-22.8	-23.4	20.0	0.00e+00	0	43	102	1048576	6	3890
2026-01-04 02:30:16.82	198.06	38.78	-22.8	-23.5	19.9	0.00e+00	0	43	102	1048576	6	3914
2026-01-04 02:30:17.83	198.08	38.53	-22.7	-23.2	20.1	1.89e-04	0	43	102	1048576	6	3837
2026-01-04 02:30:18.84	198.10	38.27	-22.7	-23.3	20.0	0.00e+00	0	43	102	1048576	6	3853
2026-01-04 02:30:19.84	198.11	38.02	-22.9	-23.8	19.8	1.92e-04	0	43	102	1048576	6	3964
2026-01-04 02:30:20.85	198.13	37.77	-22.9	-23.6	19.9	1.67e-04	0	43	102	1048576	6	3927
2026-01-04 02:30:21.85	198.15	37.53	-22.9	-23.7	19.8	0.00e+00	0	43	102	1048576	6	3951
2026-01-04 02:30:22.86	198.17	37.28	-23.1	-24.1	19.6	1.41e-04	0	43	102	1048576	6	4048
2026-01-04 02:30:23.87	198.19	37.04	-23.1	-24.1	19.6	3.40e-06	0	43	102	1048576	6	4047
2026-01-04 02:30:24.88	198.20	36.79	-23.3	-24.6	19.3	0.00e+00	0	43	102	1048576	6	4174
2026-01-04 02:30:25.88	198.22	36.55	-23.4	-24.7	19.3	1.73e-04	0	43	102	1048576	6	4213
2026-01-04 02:30:26.89	198.24	36.31	-23.6	-24.7	19.1	1.74e-04	0	43	102	1048576	7	4081
2026-01-04 02:30:27.89	198.25	36.08	-23.9	-25.4	18.7	0.00e+00	0	43	102	1048576	7	4271
2026-01-04 02:30:28.90	198.27	35.84	-23.7	-24.9	18.9	1.76e-04	0	43	102	1048576	7	4134
2026-01-04 02:30:29.91	198.29	35.61	-23.8	-25.1	18.8	1.72e-04	0	43	102	1048576	7	4184
2026-01-04 02:30:30.91	198.30	35.38	-23.5	-24.6	19.1	0.00e+00	0	43	102	1048576	7	4054
2026-01-04 02:30:31.92	198.32	35.15	-23.4	-24.3	19.2	1.76e-04	0	43	102	1048576	7	3991
2026-01-04 02:30:32.92	198.33	34.92	-23.5	-24.5	19.1	0.00e+00	0	43	102	1048576	7	4027
2026-01-04 02:30:33.93	198.35	34.69	-23.4	-24.3	19.2	0.00e+00	0	43	102	1048576	7	3988
2026-01-04 02:30:34.94	198.37	34.47	-23.5	-24.5	19.1	0.00e+00	0	43	102	1048576	7	4032
2026-01-04 02:30:35.94	198.38	34.24	-23.6	-24.6	19.1	1.52e-04	0	43	102	1048576	7	4056
2026-01-04 02:30:36.95	198.40	34.02	-23.8	-25.1	18.8	0.00e+00	0	43	102	1048576	7	4178
2026-01-04 02:30:37.95	198.41	33.80	-23.8	-25.1	18.8	0.00e+00	0	43	102	1048576	7	4170
2026-01-04 02:30:38.96	198.43	33.58	-24.0	-25.4	18.6	1.26e-04	0	43	102	1048576	7	4270
2026-01-04 02:30:39.97	198.44	33.36	-24.0	-25.1	18.5	0.00e+00	0	43	102	1048576	8	4065
2026-01-04 02:30:40.97	198.45	33.15	-23.8	-24.7	18.7	1.18e-04	0	43	102	1048576	8	3976
2026-01-04 02:30:41.98	198.47	32.93	-23.6	-24.3	19.0	0.00e+00	0	43	102	1048576	8	3872
2026-01-04 02:30:42.98	198.48	32.72	-23.5	-24.1	19.1	0.00e+00	0	43	102	1048576	8	3831
2026-01-04 02:30:43.99	198.50	32.51	-23.7	-24.4	18.9	0.00e+00	0	43	102	1048576	8	3906
2026-01-04 02:30:45.00	198.51	32.30	-23.8	-24.6	18.8	0.00e+00	0	43	102	1048576	8	3951
2026-01-04 02:30:46.00	198.52	32.09	-23.7	-24.4	18.9	0.00e+00	0	43	102	1048576	8	3910
2026-01-04 02:30:47.01	198.54	31.89	-23.7	-24.5	18.9	0.00e+00	0	43	102	1048576	8	3923
2026-01-04 02:30:48.01	198.55	31.68	-23.9	-24.7	18.7	8.35e-05	0	43	102	1048576	8	3990
2026-01-04 02:30:49.02	198.56	31.48	-23.6	-24.2	19.0	0.00e+00	0	43	102	1048576	8	3855
2026-01-04 02:30:50.03	198.58	31.27	-23.5	-24.0	19.1	0.00e+00	0	43	102	1048576	8	3801
2026-01-04 02:30:51.04	198.59	31.07	-23.5	-24.0	19.1	0.00e+00	0	43	102	1048576	8	3818
2026-01-04 02:30:52.05	198.60	30.87	-23.3	-23.6	19.3	0.00e+00	0	43	102	1048576	8	3715
2026-01-04 02:30:53.05	198.62	30.67	-23.4	-23.8	19.2	0.00e+00	0	43	102	1048576	8	3764
2026-01-04 02:30:54.05	198.63	30.48	-23.6	-24.2	19.0	0.00e+00	0	43	102	1048576	8	3861
2026-01-04 02:30:55.06	198.64	30.28	-23.5	-24.0	19.1	0.00e+00	0	43	102	1048576	8	3797
2026-01-04 02:30:56.06	198.66	30.09	-23.6	-24.2	18.9	0.00e+00	0	43	102	1048576	8	3862
2026-01-04 02:30:57.07	198.67	29.89	-24.0	-25.0	18.6	0.00e+00	0	43	102	1048576	8	4052
2026-01-04 02:30:58.08	198.68	29.70	-23.8	-24.6	18.8	0.00e+00	0	43	102	1048576	8	3942
2026-01-04 02:30:59.08	198.69	29.51	-23.9	-24.8	18.7	0.00e+00	0	43	102	1048576	8	3984
2026-01-04 02:31:00.09	198.70	29.32	-24.1	-25.2	18.4	0.00e+00	0	43	102	1048576	8	4095
2026-01-04 02:31:01.08	198.72	29.14	-24.0	-25.1	18.5	0.00e+00	0	43	102	1048576	8	4066
2026-01-04 02:31:02.08	198.73	28.95	-24.1	-25.3	18.4	0.00e+00	0	43	102	1048576	8	4131
2026-01-04 02:31:03.09	198.74	28.77	-24.0	-25.1	18.5	0.00e+00	0	43	102	1048576	8	4061
2026-01-04 02:31:04.10	198.75	28.58	-24.0	-25.1	18.5	0.00e+00	0	43	102	1048576	8	4067
2026-01-04 02:31:05.10	198.76	28.40	-24.1	-25.3	18.3	0.00e+00	0	43	102	1048576	8	4135
2026-01-04 02:31:06.10	198.77	28.22	-23.9	-24.9	18.6	0.00e+00	0	43	102	1048576	8	4028
2026-01-04 02:31:07.10	198.79	28.04	-23.6	-24.3	18.9	0.00e+00	0	43	102	1048576	8	3876
2026-01-04 02:31:08.11	198.80	27.86	-23.3	-24.1	19.2	0.00e+00	0	43	102	1048576	7	3940
2026-01-04 02:31:09.12	198.81	27.68	-23.1	-23.6	19.4	0.00e+00	0	43	102	1048576	7	3817
2026-01-04 02:31:10.13	198.82	27.50	-23.0	-23.5	19.5	0.00e+00	0	43	102	1048576	7	3796
2026-01-04 02:31:11.13	198.83	27.33	-23.0	-24.0	19.5	0.00e+00	0	43	102	1048576	6	4019
2026-01-04 02:31:12.14	198.84	27.15	-22.9	-23.8	19.6	0.00e+00	0	43	102	1048576	6	3980
2026-01-04 02:31:13.15	198.85	26.98	-23.1	-24.0	19.5	0.00e+00	0	43	102	1048576	6	4036
2026-01-04 02:31:14.16	198.86	26.80	-23.2	-24.4	19.2	0.00e+00	0	43	102	1048576	6	4128
2026-01-04 02:31:15.16	198.87	26.63	-23.0	-24.0	19.4	0.00e+00	0	43	102	1048576	6	4025
2026-01-04 02:31:16.17	198.89	26.46	-23.1	-24.1	19.4	0.00e+00	0	43	102	1048576	6	4059
2026-01-04 02:31:17.17	198.90	26.29	-23.1	-24.2	19.3	1.10e-06	0	43	102	1048576	6	4076
2026-01-04 02:31:18.17	198.91	26.12	-23.2	-24.3	19.3	0.00e+00	0	43	102	1048576	6	4089
2026-01-04 02:31:19.18	198.92	25.96	-23.2	-24.4	19.2	0.00e+00	0	43	102	1048576	6	4126
2026-01-04 02:31:20.18	198.93	25.79	-23.3	-24.5	19.2	6.80e-06	0	43	102	1048576	6	4152
2026-01-04 02:31:21.19	198.94	25.62	-23.4	-24.8	19.0	0.00e+00	0	43	102	1048576	6	4226
2026-01-04 02:31:22.20	198.95	25.46	-23.4	-24.8	19.0	0.00e+00	0	43	102	1048576	6	4217
2026-01-04 02:31:23.21	198.96	25.30	-23.4	-24.9	19.0	5.70e-06	0	43	102	1048576	6	4243
2026-01-04 02:31:24.21	198.97	25.13	-23.6	-24.8	18.8	0.00e+00	0	43	102	1048576	7	4107
2026-01-04 02:31:25.21	198.98	24.97	-23.7	-24.9	18.7	0.00e+00	0	43	102	1048576	7	4139
2026-01-04 02:31:26.22	198.99	24.81	-23.7	-24.9	18.7	0.00e+00	0	43	102	1048576	7	4141
2026-01-04 02:31:27.22	199.00	24.65	-23.7	-25.0	18.7	0.00e+00	0	43	102	1048576	7	4169
2026-01-04 02:31:28.23	199.01	24.50	-23.7	-25.0	18.7	3.47e-04	0	43	102	1048576	7	4159
2026-01-04 02:31:29.23	199.02	24.34	-23.8	-25.1	18.6	0.00e+00	0	43	102	1048576	7	4198
2026-01-04 02:31:30.24	199.03	24.18	-23.8	-25.2	18.5	0.00e+00	0	43	102	1048576	7	4208
2026-01-04 02:31:31.25	199.04	24.03	-23.8	-25.2	18.5	0.00e+00	0	43	102	1048576	7	4212
2026-01-04 02:31:32.26	199.05	23.87	-23.8	-25.1	18.6	0.00e+00	0	43	102	1048576	7	4191
2026-01-04 02:31:33.26	199.06	23.72	-23.9	-25.3	18.5	0.00e+00	0	43	102	1048576	7	4236
2026-01-04 02:31:34.26	199.06	23.57	-24.0	-25.2	18.3	0.00e+00	0	43	102	1048576	8	4092
2026-01-04 02:31:35.27	199.07	23.41	-23.9	-24.8	18.5	3.56e-04	0	43	102	1048576	8	4003
2026-01-04 02:31:36.28	199.08	23.26	-23.9	-24.8	18.5	0.00e+00	0	43	102	1048576	8	4005
2026-01-04 02:31:37.29	199.09	23.11	-23.8	-25.1	18.6	3.70e-04	0	43	102	1048576	7	4185
2026-01-04 02:31:38.29	199.10	22.96	-23.8	-25.1	18.6	0.00e+00	0	43	102	1048576	7	4194
2026-01-04 02:31:39.30	199.11	22.81	-23.8	-25.2	18.5	0.00e+00	0	43	102	1048576	7	4203
2026-01-04 02:31:40.31	199.12	22.67	-23.9	-25.3	18.4	3.82e-04	0	43	102	1048576	7	4250
2026-01-04 02:31:41.31	199.13	22.52	-24.2	-25.4	18.2	0.00e+00	0	43	102	1048576	8	4155
2026-01-04 02:31:42.32	199.14	22.37	-24.3	-25.7	18.0	0.00e+00	0	43	102	1048576	8	4237
2026-01-04 02:31:43.33	199.15	22.23	-24.2	-25.4	18.2	0.00e+00	0	43	102	1048576	8	4147
2026-01-04 02:31:44.34	199.16	22.08	-24.0	-25.1	18.3	3.72e-04	0	43	102	1048576	8	4084
2026-01-04 02:31:45.35	199.16	21.94	-24.1	-25.3	18.2	0.00e+00	0	43	102	1048576	8	4134
2026-01-04 02:31:46.35	199.17	21.80	-24.2	-25.4	18.2	3.60e-04	0	43	102	1048576	8	4151
2026-01-04 02:31:47.36	199.18	21.65	-24.1	-25.3	18.2	3.40e-04	0	43	102	1048576	8	4122
2026-01-04 02:31:48.36	199.19	21.51	-24.1	-25.3	18.2	0.00e+00	0	43	102	1048576	8	4122
2026-01-04 02:31:49.37	199.20	21.37	-24.1	-25.4	18.2	3.63e-04	0	43	102	1048576	8	4141
2026-01-04 02:31:50.38	199.21	21.23	-24.2	-25.5	18.1	3.48e-04	0	43	102	1048576	8	4175
2026-01-04 02:31:51.39	199.22	21.09	-24.2	-25.5	18.1	0.00e+00	0	43	102	1048576	8	4183
2026-01-04 02:31:52.39	199.23	20.96	-24.3	-25.6	18.0	3.38e-04	0	43	102	1048576	8	4206
2026-01-04 02:31:53.40	199.23	20.82	-24.2	-25.6	18.0	3.65e-04	0	43	102	1048576	8	4198
2026-01-04 02:31:54.40	199.24	20.68	-24.4	-25.9	17.9	0.00e+00	0	43	102	1048576	8	4275
2026-01-04 02:31:55.40	199.25	20.55	-24.4	-26.0	17.8	3.63e-04	0	43	102	1048576	8	4293
2026-01-04 02:31:56.41	199.26	20.41	-24.4	-25.8	17.9	3.44e-04	0	43	102	1048576	8	4257
2026-01-04 02:31:57.41	199.27	20.28	-24.4	-25.9	17.8	0.00e+00	0	43	102	1048576	8	4286
2026-01-04 02:31:58.42	199.28	20.15	-24.5	-26.0	17.8	3.47e-04	0	43	102	1048576	8	4312
2026-01-04 02:31:59.43	199.28	20.01	-24.6	-25.9	17.6	0.00e+00	0	43	102	1048576	9	4167
2026-01-04 02:32:00.41	199.29	19.88	-24.7	-26.1	17.5	0.00e+00	0	43	102	1048576	9	4207
2026-01-04 02:32:01.41	199.30	19.75	-24.7	-26.1	17.5	3.10e-04	0	43	102	1048576	9	4216
2026-01-04 02:32:02.42	199.31	19.62	-24.8	-26.3	17.4	3.18e-04	0	43	102	1048576	9	4257
2026-01-04 02:32:03.43	199.32	19.49	-24.8	-26.1	17.5	0.00e+00	0	43	102	1048576	9	4225
2026-01-04 02:32:04.43	199.32	19.36	-25.0	-26.6	17.2	4.50e-06	0	43	102	1048576	9	4341
2026-01-04 02:32:05.43	199.33	19.24	-25.2	-26.7	16.9	3.01e-04	0	43	102	1048576	10	4246
2026-01-04 02:32:06.44	199.34	19.11	-25.3	-26.8	16.8	0.00e+00	0	43	102	1048576	10	4289
2026-01-04 02:32:07.45	199.35	18.98	-25.2	-26.6	17.0	2.88e-04	0	43	102	1048576	10	4223
2026-01-04 02:32:08.46	199.35	18.85	-25.1	-26.4	17.0	0.00e+00	0	43	102	1048576	10	4178
2026-01-04 02:32:09.46	199.36	18.73	-25.1	-26.4	17.1	0.00e+00	0	43	102	1048576	10	4168
2026-01-04 02:32:10.47	199.37	18.60	-25.2	-26.7	16.9	2.57e-04	0	43	102	1048576	10	4250
2026-01-04 02:32:11.48	199.38	18.48	-25.2	-26.6	16.9	0.00e+00	0	43	102	1048576	10	4235
2026-01-04 02:32:12.49	199.39	18.35	-25.1	-26.3	17.1	0.00e+00	0	43	102	1048576	10	4166
2026-01-04 02:32:13.49	199.39	18.23	-24.9	-26.0	17.2	6.80e-06	0	43	102	1048576	10	4087
2026-01-04 02:32:14.50	199.40	18.10	-24.8	-25.8	17.3	1.89e-04	0	43	102	1048576	10	4031
2026-01-04 02:32:15.51	199.41	17.98	-24.8	-25.8	17.3	0.00e+00	0	43	102	1048576	10	4024
2026-01-04 02:32:16.51	199.42	17.86	-24.8	-25.9	17.3	6.80e-06	0	43	102	1048576	10	4049
2026-01-04 02:32:17.52	199.42	17.74	-24.9	-26.0	17.2	0.00e+00	0	43	102	1048576	10	4072
2026-01-04 02:32:18.53	199.43	17.62	-24.9	-26.0	17.2	0.00e+00	0	43	102	1048576	10	4080
2026-01-04 02:32:19.54	199.44	17.50	-24.9	-26.0	17.2	0.00e+00	0	43	102	1048576	10	4089
2026-01-04 02:32:20.54	199.45	17.38	-25.0	-26.3	17.1	0.00e+00	0	43	102	1048576	10	4157
2026-01-04 02:32:21.54	199.45	17.26	-25.1	-26.4	17.0	0.00e+00	0	43	102	1048576	10	4177
2026-01-04 02:32:22.55	199.46	17.14	-25.0	-26.2	17.1	0.00e+00	0	43	102	1048576	10	4142
2026-01-04 02:32:23.55	199.47	17.03	-25.0	-26.3	17.0	0.00e+00	0	43	102	1048576	10	4162
2026-01-04 02:32:24.56	199.47	16.91	-25.1	-26.4	17.0	0.00e+00	0	43	102	1048576	10	4184
2026-01-04 02:32:25.57	199.48	16.79	-25.1	-26.4	17.0	0.00e+00	0	43	102	1048576	10	4180
2026-01-04 02:32:26.57	199.49	16.68	-25.1	-26.4	16.9	0.00e+00	0	43	102	1048576	10	4195
2026-01-04 02:32:27.57	199.50	16.56	-25.1	-26.5	16.9	0.00e+00	0	43	102	1048576	10	4216
2026-01-04 02:32:28.58	199.50	16.45	-25.2	-26.5	16.9	0.00e+00	0	43	102	1048576	10	4223
2026-01-04 02:32:29.59	199.51	16.33	-25.2	-26.6	16.8	0.00e+00	0	43	102	1048576	10	4241
2026-01-04 02:32:30.59	199.52	16.22	-25.3	-26.8	16.7	0.00e+00	0	43	102	1048576	10	4292
2026-01-04 02:32:31.60	199.52	16.10	-25.3	-26.9	16.7	0.00e+00	0	43	102	1048576	10	4307
2026-01-04 02:32:32.61	199.53	15.99	-25.2	-26.6	16.8	0.00e+00	0	43	102	1048576	10	4233
2026-01-04 02:32:33.62	199.54	15.88	-25.3	-26.9	16.7	0.00e+00	0	43	102	1048576	10	4320
2026-01-04 02:32:34.62	199.54	15.77	-25.3	-26.8	16.7	0.00e+00	0	43	102	1048576	10	4301
2026-01-04 02:32:35.62	199.55	15.66	-25.2	-26.7	16.8	0.00e+00	0	43	102	1048576	10	4265
2026-01-04 02:32:36.62	199.56	15.55	-25.4	-27.0	16.6	0.00e+00	0	43	102	1048576	10	4360
2026-01-04 02:32:37.62	199.57	15.44	-25.4	-27.2	16.5	0.00e+00	0	43	102	1048576	10	4385
2026-01-04 02:32:38.62	199.57	15.33	-25.5	-26.8	16.4	0.00e+00	0	43	102	1048576	11	4175
2026-01-04 02:32:39.63	199.58	15.22	-25.5	-26.7	16.5	0.00e+00	0	43	102	1048576	11	4153
2026-01-04 02:32:40.64	199.59	15.11	-25.5	-26.7	16.5	0.00e+00	0	43	102	1048576	11	4155
2026-01-04 02:32:41.65	199.59	15.00	-25.5	-26.9	16.4	0.00e+00	0	43	102	1048576	11	4198
2026-01-04 02:32:42.65	199.60	14.89	-25.6	-27.0	16.3	0.00e+00	0	43	102	1048576	11	4233
2026-01-04 02:32:43.66	199.61	14.79	-25.5	-26.9	16.4	0.00e+00	0	43	102	1048576	11	4197
2026-01-04 02:32:44.67	199.61	14.68	-25.5	-26.7	16.5	0.00e+00	0	43	102	1048576	11	4149
2026-01-04 02:32:45.67	199.62	14.57	-25.5	-26.9	16.4	0.00e+00	0	43	102	1048576	11	4197
2026-01-04 02:32:46.67	199.63	14.47	-25.5	-26.8	16.4	0.00e+00	0	43	102	1048576	11	4188
2026-01-04 02:32:47.68	199.63	14.36	-25.6	-27.0	16.3	0.00e+00	0	43	102	1048576	11	4224
2026-01-04 02:32:48.69	199.64	14.26	-25.6	-27.0	16.3	1.10e-06	0	43	102	1048576	11	4242
2026-01-04 02:32:49.70	199.65	14.15	-25.6	-27.0	16.2	0.00e+00	0	43	102	1048576	11	4242
2026-01-04 02:32:50.70	199.65	14.05	-25.7	-27.2	16.2	0.00e+00	0	43	102	1048576	11	4280
2026-01-04 02:32:51.71	199.66	13.94	-25.8	-27.4	16.0	0.00e+00	0	43	102	1048576	11	4332
2026-01-04 02:32:52.71	199.66	13.84	-25.8	-27.4	16.0	0.00e+00	0	43	102	1048576	11	4344
2026-01-04 02:32:53.71	199.67	13.74	-25.9	-27.3	15.7	0.00e+00	0	43	102	1048576	12	4204
2026-01-04 02:32:54.72	199.68	13.64	-26.3	-28.0	15.4	0.00e+00	0	43	102	1048576	12	4395
2026-01-04 02:32:55.73	199.68	13.54	-26.3	-28.0	15.3	0.00e+00	0	43	102	1048576	12	4399
2026-01-04 02:32:56.73	199.69	13.43	-26.3	-28.0	15.3	0.00e+00	0	43	102	1048576	12	4408
2026-01-04 02:32:57.74	199.70	13.33	-26.4	-28.4	15.1	1.10e-06	0	43	102	1048576	12	4512
2026-01-04 02:32:58.75	199.70	13.23	-26.4	-27.8	15.1	0.00e+00	0	43	102	1048576	13	4229
2026-01-04 02:32:59.75	199.71	13.13	-26.3	-27.6	15.3	0.00e+00	0	43	102	1048576	13	4172
2026-01-04 02:33:00.76	199.72	13.03	-26.3	-27.6	15.2	1.60e-05	0	43	102	1048576	13	4179
2026-01-04 02:33:01.76	199.72	12.93	-26.4	-27.7	15.2	0.00e+00	0	43	102	1048576	13	4218
2026-01-04 02:33:02.77	199.73	12.83	-26.5	-27.9	15.1	0.00e+00	0	43	102	1048576	13	4270
2026-01-04 02:33:03.77	199.73	12.74	-26.5	-28.0	15.0	1.71e-05	0	43	102	1048576	13	4283
2026-01-04 02:33:04.78	199.74	12.64	-26.6	-28.2	14.9	0.00e+00	0	43	102	1048576	13	4337
2026-01-04 02:33:05.78	199.75	12.54	-26.6	-28.3	14.9	0.00e+00	0	43	102	1048576	13	4365
2026-01-04 02:33:06.78	199.75	12.44	-26.6	-28.2	14.9	1.71e-05	0	43	102	1048576	13	4353
2026-01-04 02:33:07.79	199.76	12.35	-27.0	-29.1	14.4	4.50e-06	0	43	102	1048576	13	4603
2026-01-04 02:33:08.79	199.77	12.25	-27.1	-28.9	14.2	1.10e-06	0	43	102	1048576	14	4426
2026-01-04 02:33:09.80	199.77	12.15	-27.2	-29.2	14.1	2.51e-05	0	43	102	1048576	14	4522
2026-01-04 02:33:10.80	199.78	12.06	-27.2	-29.1	14.1	5.70e-06	0	43	102	1048576	14	4491
2026-01-04 02:33:11.80	199.78	11.96	-27.1	-29.0	14.1	4.50e-06	0	43	102	1048576	14	4472
2026-01-04 02:33:12.81	199.79	11.87	-27.2	-29.2	14.0	2.05e-05	0	43	102	1048576	14	4525
2026-01-04 02:33:13.81	199.80	11.77	-27.2	-29.2	14.0	3.40e-06	0	43	102	1048576	14	4531
2026-01-04 02:33:14.82	199.80	11.68	-27.3	-29.5	13.9	5.70e-06	0	43	102	1048576	14	4602
2026-01-04 02:33:15.82	199.81	11.59	-27.3	-29.4	13.9	8.00e-06	0	43	102	1048576	14	4572
2026-01-04 02:33:16.82	199.81	11.49	-27.0	-28.6	14.4	1.10e-06	0	43	102	1048576	14	4341
2026-01-04 02:33:17.83	199.82	11.40	-26.7	-28.0	14.7	1.10e-06	0	43	102	1048576	14	4182
2026-01-04 02:33:18.84	199.83	11.31	-26.5	-27.5	15.0	0.00e+00	0	43	102	1048576	14	4045
2026-01-04 02:33:19.85	199.83	11.21	-26.3	-27.1	15.1	1.10e-06	0	43	102	1048576	14	3959
2026-01-04 02:33:20.85	199.84	11.12	-26.1	-27.3	15.3	0.00e+00	0	43	102	1048576	13	4091
2026-01-04 02:33:21.86	199.84	11.03	-26.2	-27.5	15.2	0.00e+00	0	43	102	1048576	13	4150
2026-01-04 02:33:22.87	199.85	10.94	-26.2	-27.4	15.3	0.00e+00	0	43	102	1048576	13	4128
2026-01-04 02:33:23.87	199.85	10.85	-26.3	-27.6	15.1	0.00e+00	0	43	102	1048576	13	4175
2026-01-04 02:33:24.88	199.86	10.76	-26.3	-27.5	15.2	0.00e+00	0	43	102	1048576	13	4167
2026-01-04 02:33:25.88	199.87	10.67	-26.3	-27.7	15.0	0.00e+00	0	43	102	1048576	13	4224
2026-01-04 02:33:26.90	199.87	10.57	-26.3	-27.6	15.1	0.00e+00	0	43	102	1048576	13	4186
2026-01-04 02:33:27.90	199.88	10.48	-26.4	-27.8	15.0	0.00e+00	0	43	102	1048576	13	4254
2026-01-04 02:33:28.91	199.88	10.39	-26.4	-27.9	14.9	0.00e+00	0	43	102	1048576	13	4281
2026-01-04 02:33:29.92	199.89	10.31	-26.5	-28.2	14.8	1.10e-06	0	43	102	1048576	13	4339
2026-01-04 02:33:30.92	199.89	10.22	-26.6	-28.3	14.7	0.00e+00	0	43	102	1048576	13	4368
2026-01-04 02:33:31.93	199.90	10.13	-26.7	-28.5	14.6	0.00e+00	0	43	102	1048576	13	4428
2026-01-04 02:33:32.94	199.91	10.04	-26.7	-28.5	14.6	1.10e-06	0	43	102	1048576	13	4435
2026-01-04 02:33:33.94	199.91	9.95	-26.6	-28.2	14.7	0.00e+00	0	43	102	1048576	13	4356
2026-01-04 02:33:34.95	199.92	9.86	-26.5	-28.1	14.8	0.00e+00	0	43	102	1048576	13	4314
2026-01-04 02:33:35.95	199.92	9.78	-26.5	-28.0	14.8	1.10e-06	0	43	102	1048576	13	4290
2026-01-04 02:33:36.95	199.93	9.69	-26.5	-28.1	14.8	0.00e+00	0	43	102	1048576	13	4324
2026-01-04 02:33:37.96	199.93	9.60	-26.5	-28.1	14.7	0.00e+00	0	43	102	1048576	13	4329
2026-01-04 02:33:38.96	199.94	9.52	-26.5	-28.1	14.8	0.00e+00	0	43	102	1048576	13	4313
2026-01-04 02:33:39.97	199.95	9.43	-26.5	-28.1	14.8	0.00e+00	0	43	102	1048576	13	4318
2026-01-04 02:33:40.98	199.95	9.35	-26.8	-28.7	14.4	1.10e-06	0	43	102	1048576	13	4490
2026-01-04 02:33:41.99	199.96	9.26	-26.6	-28.3	14.6	9.10e-06	0	43	102	1048576	13	4380
2026-01-04 02:33:42.99	199.96	9.18	-26.4	-28.0	14.8	0.00e+00	0	43	102	1048576	13	4284
2026-01-04 02:33:44.00	199.97	9.09	-26.5	-28.2	14.6	1.10e-06	0	43	102	1048576	13	4354
