passes_logs/2026/01/04/R2M6_AANII_01/R2M6_AANII_01__20260104_113534_NOAA_20_JPSS-1_rec.log

#Pass ID: 20260104_113534_NOAA 20 (JPSS-1)
#Satellite: NOAA 20 (JPSS-1)
#Configuration: NOAA 20
#almurnet v.1.7.20240730
#Start time: 2026-01-04 11:41:17

#Version: 2.2.20231116
#Station: R2M6_AANII_01
#Location: 30.233357 lon 59.946436 lat
#TLE: 1 43013U 17073A   26003.41800368  .00000169  00000+0  10117-3 0  9998
#TLE: 2 43013  98.7624 304.4804 0001884  56.1176 304.0179 14.19532918421092

#Time	Az	El	Level	Level2	SNR	BER	BlckErr	Temp	State	Recorded	gain1	gain2
2026-01-04 11:41:17.89	272.59	31.30	-34.1	-53.6	3.8	7.44e-01	0	43	0	0	28	33834
2026-01-04 11:41:18.89	272.95	31.28	-34.3	-48.0	3.8	1.49e+00	0	43	104	0	29	17450
2026-01-04 11:41:19.90	273.30	31.26	-34.3	-48.1	3.8	1.49e+00	0	43	104	0	29	17614
2026-01-04 11:41:20.91	273.66	31.24	-34.3	-48.1	3.8	1.49e+00	0	43	104	0	29	17621
2026-01-04 11:41:21.92	274.02	31.21	-34.4	-48.2	3.8	1.49e+00	0	43	104	0	29	17677
2026-01-04 11:41:22.93	274.38	31.19	-34.4	-48.2	3.8	1.49e+00	0	43	104	0	29	17717
2026-01-04 11:41:23.93	274.73	31.16	-34.4	-48.2	3.8	1.49e+00	0	43	104	0	29	17757
2026-01-04 11:41:24.94	275.09	31.14	-34.4	-48.2	3.8	1.49e+00	0	43	104	0	29	17746
2026-01-04 11:41:25.95	275.44	31.11	-34.4	-48.2	3.8	1.49e+00	0	43	104	0	29	17703
2026-01-04 11:41:26.95	275.79	31.08	-34.4	-48.2	3.8	1.49e+00	0	43	104	0	29	17767
2026-01-04 11:41:27.96	276.15	31.05	-34.4	-48.2	3.8	1.49e+00	0	43	104	0	29	17776
2026-01-04 11:41:28.96	276.50	31.02	-34.4	-48.2	3.8	1.49e+00	0	43	104	0	29	17762
2026-01-04 11:41:29.97	276.85	30.99	-34.4	-48.2	3.8	1.49e+00	0	43	104	0	29	17776
2026-01-04 11:41:30.98	277.20	30.96	-34.4	-48.2	3.8	1.49e+00	0	43	104	0	29	17730
2026-01-04 11:41:31.99	277.55	30.92	-34.4	-48.2	3.8	1.49e+00	0	43	104	0	29	17752
2026-01-04 11:41:33.00	277.90	30.89	-34.4	-48.2	3.8	1.49e+00	0	43	104	0	29	17730
2026-01-04 11:41:34.01	278.25	30.85	-34.4	-48.2	3.8	1.49e+00	0	43	104	0	29	17767
2026-01-04 11:41:35.02	278.60	30.81	-34.4	-48.2	3.8	1.49e+00	0	43	104	0	29	17698
2026-01-04 11:41:36.03	278.95	30.77	-34.3	-48.1	3.8	1.49e+00	0	43	104	0	29	17647
2026-01-04 11:41:37.04	279.30	30.73	-34.3	-48.0	3.8	1.49e+00	0	43	104	0	29	17552
2026-01-04 11:41:38.05	279.64	30.69	-34.3	-48.0	3.8	1.49e+00	0	43	104	0	29	17540
2026-01-04 11:41:39.05	279.99	30.65	-34.2	-48.0	3.8	1.49e+00	0	43	104	0	29	17506
2026-01-04 11:41:40.06	280.33	30.61	-34.2	-47.9	3.8	1.49e+00	0	43	104	0	29	17443
2026-01-04 11:41:41.06	280.67	30.57	-34.2	-47.8	3.8	1.49e+00	0	43	104	0	29	17361
2026-01-04 11:41:42.07	281.01	30.52	-34.2	-47.9	3.8	1.49e+00	0	43	104	0	29	17381
2026-01-04 11:41:43.08	281.36	30.47	-34.2	-47.8	3.8	1.49e+00	0	43	104	0	29	17325
2026-01-04 11:41:44.08	281.69	30.43	-34.1	-47.8	3.8	1.49e+00	0	43	104	0	29	17262
2026-01-04 11:41:45.09	282.03	30.38	-34.1	-47.7	3.8	1.49e+00	0	43	104	0	29	17151
2026-01-04 11:41:46.10	282.37	30.33	-34.1	-47.5	3.8	1.49e+00	0	43	104	0	29	17020
2026-01-04 11:41:47.11	282.71	30.28	-34.0	-47.4	3.8	1.49e+00	0	43	104	0	29	16942
2026-01-04 11:41:48.11	283.04	30.23	-33.9	-47.3	3.8	1.49e+00	0	43	104	0	29	16826
2026-01-04 11:41:49.12	283.38	30.18	-33.9	-47.3	3.8	1.49e+00	0	43	104	0	29	16836
2026-01-04 11:41:50.13	283.71	30.13	-33.9	-47.3	3.8	1.49e+00	0	43	104	0	29	16801
2026-01-04 11:41:51.14	284.05	30.07	-33.8	-47.2	3.8	1.49e+00	0	43	104	0	29	16736
2026-01-04 11:41:52.14	284.38	30.02	-33.7	-47.6	3.8	1.49e+00	0	43	104	0	28	17773
2026-01-04 11:41:53.15	284.71	29.96	-33.7	-47.6	3.8	1.49e+00	0	43	104	0	28	17757
2026-01-04 11:41:54.16	285.04	29.91	-33.8	-47.7	3.8	1.49e+00	0	43	104	0	28	17690
2026-01-04 11:41:55.16	285.36	29.85	-33.9	-47.7	3.8	1.49e+00	0	43	104	0	28	17583
2026-01-04 11:41:56.17	285.69	29.79	-33.9	-47.7	3.8	1.49e+00	0	43	104	0	28	17516
2026-01-04 11:41:57.18	286.02	29.73	-33.9	-47.7	3.8	1.49e+00	0	43	104	0	28	17656
2026-01-04 11:41:58.17	286.34	29.67	-33.9	-47.7	3.8	1.49e+00	0	43	104	0	28	17790
2026-01-04 11:41:59.18	286.66	29.61	-33.8	-47.7	3.8	1.49e+00	0	43	104	0	28	17787
2026-01-04 11:42:00.19	286.98	29.55	-33.9	-47.6	3.8	1.49e+00	0	43	104	0	28	17577
2026-01-04 11:42:01.19	287.30	29.49	-33.9	-47.5	3.8	1.49e+00	0	43	104	0	28	17316
2026-01-04 11:42:02.20	287.62	29.42	-33.9	-47.3	3.8	1.49e+00	0	43	104	0	28	16857
2026-01-04 11:42:03.21	287.94	29.36	-33.9	-47.0	3.8	1.49e+00	0	43	104	0	28	16402
2026-01-04 11:42:04.22	288.26	29.29	-33.8	-46.7	3.8	1.49e+00	0	43	104	0	28	15802
2026-01-04 11:42:05.23	288.58	29.23	-33.8	-46.1	3.8	1.49e+00	0	43	104	0	28	14892
2026-01-04 11:42:06.23	288.89	29.16	-33.8	-45.9	3.8	1.49e+00	0	43	104	0	28	14472
2026-01-04 11:42:07.24	289.20	29.09	-33.8	-45.6	3.8	1.49e+00	0	43	104	0	28	14095
2026-01-04 11:42:08.25	289.52	29.03	-33.6	-43.3	4.4	1.47e+00	0	43	104	0	28	10951
2026-01-04 11:42:09.26	289.83	28.96	-33.2	-40.0	4.7	8.27e-01	0	43	104	0	27	7953
2026-01-04 11:42:10.27	290.14	28.89	-32.5	-37.4	8.8	3.89e-01	0	43	104	0	26	6298
2026-01-04 11:42:11.28	290.45	28.82	-32.0	-36.1	10.2	1.02e-02	0	43	0	0	25	5724
2026-01-04 11:42:12.28	290.75	28.75	-32.1	-36.3	10.0	5.43e-03	0	43	102	1048576	25	5832
2026-01-04 11:42:13.29	291.06	28.68	-32.2	-36.8	9.6	9.75e-03	0	43	102	1048576	25	6113
2026-01-04 11:42:14.30	291.36	28.60	-32.4	-37.3	9.2	1.62e-02	0	43	102	1048576	25	6371
2026-01-04 11:42:15.30	291.66	28.53	-32.5	-37.8	8.8	2.78e-02	0	43	102	1048576	25	6638
2026-01-04 11:42:16.30	291.96	28.46	-32.5	-38.1	8.7	3.35e-02	0	43	102	1048576	25	6822
2026-01-04 11:42:17.31	292.26	28.38	-32.6	-38.4	8.4	4.61e-02	0	43	102	1048576	25	6993
2026-01-04 11:42:18.32	292.56	28.31	-32.7	-38.6	8.3	4.32e-02	0	43	102	1048576	25	7089
2026-01-04 11:42:19.33	292.86	28.23	-32.7	-38.8	8.0	6.57e-02	0	43	102	1048576	25	7270
2026-01-04 11:42:20.33	293.16	28.16	-32.4	-37.6	9.0	3.38e-02	0	43	102	1048576	25	6557
2026-01-04 11:42:21.34	293.45	28.08	-32.2	-36.5	9.8	1.47e-02	0	43	102	1048576	25	5952
2026-01-04 11:42:22.34	293.74	28.00	-31.8	-35.4	10.6	5.52e-03	0	43	102	1048576	25	5445
2026-01-04 11:42:23.35	294.03	27.93	-31.6	-35.1	11.3	1.50e-03	0	43	102	1048576	24	5395
2026-01-04 11:42:24.35	294.32	27.85	-31.4	-34.5	11.7	7.77e-04	0	43	102	1048576	24	5139
2026-01-04 11:42:25.36	294.61	27.77	-31.3	-34.3	11.8	3.81e-04	0	43	102	1048576	24	5058
2026-01-04 11:42:26.37	294.90	27.69	-31.4	-34.5	11.8	4.52e-04	0	44	102	1048576	24	5134
2026-01-04 11:42:27.37	295.18	27.61	-31.6	-35.1	11.3	1.01e-03	0	43	102	1048576	24	5415
2026-01-04 11:42:28.37	295.47	27.53	-31.7	-35.6	10.9	2.09e-03	0	43	102	1048576	24	5611
2026-01-04 11:42:29.38	295.75	27.45	-31.8	-35.9	10.7	2.30e-03	0	43	102	1048576	24	5756
2026-01-04 11:42:30.38	296.03	27.37	-31.8	-35.9	10.7	3.58e-03	0	43	102	1048576	24	5746
2026-01-04 11:42:31.39	296.31	27.29	-31.8	-35.8	10.7	2.83e-03	0	43	102	1048576	24	5723
2026-01-04 11:42:32.40	296.59	27.20	-31.9	-36.2	10.5	3.16e-03	0	43	102	1048576	24	5879
2026-01-04 11:42:33.41	296.87	27.12	-32.0	-36.4	10.3	4.77e-03	0	43	102	1048576	24	5981
2026-01-04 11:42:34.42	297.15	27.04	-31.9	-36.2	10.5	4.39e-03	0	43	102	1048576	24	5899
2026-01-04 11:42:35.42	297.42	26.96	-31.9	-36.3	10.4	4.40e-03	0	43	102	1048576	24	5950
2026-01-04 11:42:36.42	297.69	26.87	-31.9	-36.3	10.4	4.48e-03	0	43	102	1048576	24	5948
2026-01-04 11:42:37.43	297.96	26.79	-31.9	-36.2	10.5	5.03e-03	0	43	102	1048576	24	5881
2026-01-04 11:42:38.44	298.24	26.70	-31.7	-35.6	10.9	2.77e-03	0	43	102	1048576	24	5615
2026-01-04 11:42:39.45	298.50	26.62	-31.6	-35.3	11.1	1.76e-03	0	43	102	1048576	24	5473
2026-01-04 11:42:40.46	298.77	26.53	-31.5	-35.0	11.4	1.22e-03	0	43	102	1048576	24	5354
2026-01-04 11:42:41.46	299.04	26.44	-31.5	-34.9	11.4	1.07e-03	0	43	102	1048576	24	5322
2026-01-04 11:42:42.47	299.30	26.36	-31.4	-34.6	11.6	1.06e-03	0	43	102	1048576	24	5188
2026-01-04 11:42:43.48	299.57	26.27	-31.3	-34.7	11.9	3.93e-04	0	43	102	1048576	23	5339
2026-01-04 11:42:44.49	299.83	26.18	-31.1	-34.1	12.3	3.44e-04	0	43	102	1048576	23	5106
2026-01-04 11:42:45.49	300.09	26.10	-30.8	-33.2	12.9	9.07e-05	0	43	102	1048576	23	4778
2026-01-04 11:42:46.50	300.35	26.01	-30.6	-33.1	13.3	2.44e-05	0	43	102	1048576	22	4819
2026-01-04 11:42:47.51	300.61	25.92	-30.5	-33.0	13.4	1.37e-05	0	43	102	1048576	22	4798
2026-01-04 11:42:48.51	300.86	25.83	-30.7	-33.4	13.1	2.51e-05	0	43	102	1048576	22	4940
2026-01-04 11:42:49.52	301.12	25.74	-30.9	-34.2	12.6	5.87e-05	0	43	102	1048576	22	5235
2026-01-04 11:42:50.53	301.37	25.65	-31.1	-34.5	12.4	1.73e-04	0	43	102	1048576	22	5374
2026-01-04 11:42:51.53	301.62	25.57	-31.0	-34.5	12.4	1.93e-04	0	43	102	1048576	22	5366
2026-01-04 11:42:52.54	301.87	25.48	-31.0	-34.3	12.5	1.49e-04	0	43	102	1048576	22	5292
2026-01-04 11:42:53.55	302.12	25.39	-30.9	-34.1	12.6	8.08e-05	0	43	102	1048576	22	5214
2026-01-04 11:42:54.56	302.37	25.30	-31.1	-34.7	12.2	1.25e-04	0	43	102	1048576	22	5430
2026-01-04 11:42:55.57	302.62	25.21	-31.2	-34.9	12.0	3.02e-04	0	43	102	1048576	22	5539
2026-01-04 11:42:56.58	302.86	25.11	-31.2	-35.0	12.0	3.05e-04	0	43	102	1048576	22	5578
2026-01-04 11:42:57.58	303.11	25.02	-31.1	-34.8	12.1	3.01e-04	0	43	102	1048576	22	5488
2026-01-04 11:42:58.59	303.35	24.93	-31.0	-34.4	12.4	1.85e-04	0	43	102	1048576	22	5322
2026-01-04 11:42:59.59	303.59	24.84	-30.8	-33.8	12.8	1.09e-04	0	43	102	1048576	22	5095
2026-01-04 11:43:00.60	303.83	24.75	-30.8	-33.9	12.8	6.48e-05	0	43	102	1048576	22	5127
2026-01-04 11:43:01.61	304.07	24.66	-30.8	-33.9	12.7	1.01e-04	0	43	102	1048576	22	5145
2026-01-04 11:43:02.62	304.31	24.57	-31.0	-34.3	12.5	6.86e-05	0	43	102	1048576	22	5272
2026-01-04 11:43:03.63	304.54	24.48	-31.2	-35.0	12.0	3.03e-04	0	43	102	1048576	22	5556
2026-01-04 11:43:04.63	304.77	24.38	-31.3	-35.5	11.7	4.07e-04	0	43	102	1048576	22	5779
2026-01-04 11:43:05.64	305.01	24.29	-31.3	-35.5	11.6	9.09e-04	0	43	102	1048576	22	5790
2026-01-04 11:43:06.64	305.24	24.20	-31.1	-34.6	12.3	2.68e-04	0	43	102	1048576	22	5386
2026-01-04 11:43:07.65	305.47	24.11	-30.8	-33.8	12.8	7.62e-05	0	43	102	1048576	22	5087
2026-01-04 11:43:08.66	305.70	24.01	-30.6	-33.3	13.1	4.04e-05	0	43	102	1048576	22	4913
2026-01-04 11:43:09.67	305.93	23.92	-30.7	-33.6	12.9	3.50e-05	0	43	102	1048576	22	5010
2026-01-04 11:43:10.68	306.15	23.83	-31.0	-34.3	12.5	8.85e-05	0	43	102	1048576	22	5276
2026-01-04 11:43:11.69	306.38	23.73	-31.4	-35.5	11.6	2.66e-04	0	43	102	1048576	22	5816
2026-01-04 11:43:12.69	306.60	23.64	-31.6	-35.8	11.0	1.32e-03	0	43	102	1048576	23	5843
2026-01-04 11:43:13.70	306.82	23.55	-31.5	-35.5	11.2	1.74e-03	0	43	102	1048576	23	5715
2026-01-04 11:43:14.71	307.05	23.46	-31.3	-34.8	11.8	8.54e-04	0	43	102	1048576	23	5386
2026-01-04 11:43:15.71	307.26	23.36	-31.0	-33.9	12.3	3.47e-04	0	43	102	1048576	23	5047
2026-01-04 11:43:16.72	307.48	23.27	-30.8	-33.4	12.7	8.85e-05	0	43	102	1048576	23	4848
2026-01-04 11:43:17.72	307.70	23.18	-30.9	-33.6	12.6	9.53e-05	0	43	102	1048576	23	4909
2026-01-04 11:43:18.73	307.92	23.08	-30.9	-33.7	12.5	1.20e-04	0	43	102	1048576	23	4967
2026-01-04 11:43:19.74	308.13	22.99	-31.2	-34.4	12.1	2.25e-04	0	43	102	1048576	23	5203
2026-01-04 11:43:20.74	308.34	22.89	-31.3	-35.0	11.6	5.10e-04	0	43	102	1048576	23	5462
2026-01-04 11:43:21.74	308.55	22.80	-31.3	-34.9	11.7	6.80e-04	0	43	102	1048576	23	5435
2026-01-04 11:43:22.75	308.76	22.71	-31.2	-34.5	12.0	4.45e-04	0	43	102	1048576	23	5250
2026-01-04 11:43:23.75	308.97	22.61	-31.0	-33.8	12.4	2.09e-04	0	43	102	1048576	23	4989
2026-01-04 11:43:24.76	309.18	22.52	-30.9	-33.7	12.5	1.27e-04	0	43	102	1048576	23	4940
2026-01-04 11:43:25.76	309.39	22.43	-30.7	-33.5	13.0	1.23e-04	0	43	102	1048576	22	4980
2026-01-04 11:43:26.77	309.59	22.33	-30.6	-33.2	13.2	2.97e-05	0	43	102	1048576	22	4884
2026-01-04 11:43:27.77	309.80	22.24	-30.8	-33.8	12.8	4.11e-05	0	43	102	1048576	22	5094
2026-01-04 11:43:28.77	310.00	22.15	-31.0	-34.4	12.3	9.23e-05	0	43	102	1048576	22	5354
2026-01-04 11:43:29.78	310.20	22.05	-31.3	-35.2	11.8	3.49e-04	0	43	102	1048576	22	5681
2026-01-04 11:43:30.78	310.40	21.96	-31.3	-35.5	11.5	7.06e-04	0	43	102	1048576	22	5789
2026-01-04 11:43:31.79	310.60	21.86	-31.3	-35.3	11.7	6.53e-04	0	43	102	1048576	22	5736
2026-01-04 11:43:32.80	310.80	21.77	-31.0	-34.6	12.2	2.72e-04	0	43	102	1048576	22	5394
2026-01-04 11:43:33.80	311.00	21.68	-30.7	-33.6	12.8	9.84e-05	0	43	102	1048576	22	5029
2026-01-04 11:43:34.81	311.20	21.58	-30.6	-33.3	13.0	3.28e-05	0	43	102	1048576	22	4917
2026-01-04 11:43:35.82	311.39	21.49	-30.8	-33.7	12.8	4.57e-05	0	43	102	1048576	22	5076
2026-01-04 11:43:36.82	311.58	21.39	-30.9	-34.2	12.4	9.91e-05	0	43	102	1048576	22	5254
2026-01-04 11:43:37.82	311.78	21.30	-31.1	-34.9	12.0	2.14e-04	0	43	102	1048576	22	5528
2026-01-04 11:43:38.83	311.97	21.21	-31.3	-35.3	11.7	4.74e-04	0	43	102	1048576	22	5707
2026-01-04 11:43:39.84	312.16	21.11	-31.3	-35.2	11.7	6.13e-04	0	43	102	1048576	22	5695
2026-01-04 11:43:40.85	312.35	21.02	-31.1	-34.8	12.0	4.97e-04	0	43	102	1048576	22	5515
2026-01-04 11:43:41.85	312.54	20.93	-31.0	-34.4	12.2	2.80e-04	0	43	102	1048576	22	5332
2026-01-04 11:43:42.86	312.72	20.83	-30.9	-34.2	12.4	1.59e-04	0	43	102	1048576	22	5260
2026-01-04 11:43:43.87	312.91	20.74	-30.9	-34.3	12.3	1.04e-04	0	43	102	1048576	22	5296
2026-01-04 11:43:44.87	313.10	20.64	-30.7	-33.6	12.8	1.25e-04	0	43	102	1048576	22	5016
2026-01-04 11:43:45.88	313.28	20.55	-30.8	-33.8	12.7	5.79e-05	0	43	102	1048576	22	5096
2026-01-04 11:43:46.89	313.46	20.46	-30.8	-33.8	12.7	8.77e-05	0	43	102	1048576	22	5099
2026-01-04 11:43:47.90	313.65	20.36	-31.0	-34.6	12.2	1.52e-04	0	43	102	1048576	22	5417
2026-01-04 11:43:48.90	313.82	20.27	-31.0	-34.4	12.2	2.31e-04	0	43	102	1048576	22	5338
2026-01-04 11:43:49.91	314.01	20.18	-31.0	-34.6	12.1	2.07e-04	0	43	102	1048576	22	5408
2026-01-04 11:43:50.92	314.18	20.08	-31.1	-34.9	11.9	2.86e-04	0	43	102	1048576	22	5547
2026-01-04 11:43:51.92	314.36	19.99	-30.9	-34.2	12.3	2.67e-04	0	43	102	1048576	22	5282
2026-01-04 11:43:52.93	314.54	19.90	-30.7	-33.6	12.8	7.70e-05	0	43	102	1048576	22	5017
2026-01-04 11:43:53.94	314.71	19.80	-30.5	-33.0	13.1	3.89e-05	0	43	102	1048576	22	4821
2026-01-04 11:43:54.94	314.89	19.71	-30.4	-32.9	13.3	1.90e-05	0	43	102	1048576	22	4780
2026-01-04 11:43:55.95	315.06	19.62	-30.5	-33.2	13.1	2.67e-05	0	43	102	1048576	22	4874
2026-01-04 11:43:56.95	315.23	19.53	-30.6	-33.5	12.9	4.65e-05	0	43	102	1048576	22	4984
2026-01-04 11:43:57.95	315.40	19.43	-30.7	-33.6	12.7	6.25e-05	0	43	102	1048576	22	5048
2026-01-04 11:43:58.96	315.57	19.34	-30.9	-34.2	12.4	1.18e-04	0	43	102	1048576	22	5276
2026-01-04 11:43:59.97	315.74	19.25	-30.7	-33.6	12.8	9.00e-05	0	43	102	1048576	22	5040
2026-01-04 11:44:00.97	315.91	19.16	-30.5	-33.0	13.1	3.96e-05	0	43	102	1048576	22	4809
2026-01-04 11:44:01.97	316.08	19.07	-30.3	-32.6	13.4	1.83e-05	0	43	102	1048576	22	4665
2026-01-04 11:44:02.98	316.24	18.97	-30.2	-32.8	13.6	9.90e-06	0	43	102	1048576	21	4860
2026-01-04 11:44:03.99	316.41	18.88	-30.1	-32.6	13.7	4.50e-06	0	43	102	1048576	21	4773
2026-01-04 11:44:04.99	316.57	18.79	-30.2	-32.7	13.6	6.10e-06	0	43	102	1048576	21	4817
2026-01-04 11:44:06.01	316.74	18.70	-30.1	-32.5	13.7	6.10e-06	0	43	102	1048576	21	4765
2026-01-04 11:44:07.02	316.90	18.61	-30.1	-32.5	13.8	6.80e-06	0	43	102	1048576	21	4762
2026-01-04 11:44:08.02	317.06	18.52	-30.2	-32.8	13.6	8.30e-06	0	44	102	1048576	21	4841
2026-01-04 11:44:09.03	317.22	18.42	-30.0	-32.3	13.9	8.30e-06	0	43	102	1048576	21	4697
2026-01-04 11:44:10.04	317.38	18.33	-30.0	-32.2	13.9	3.00e-06	0	43	102	1048576	21	4655
2026-01-04 11:44:11.05	317.54	18.24	-29.9	-32.1	14.0	1.50e-06	0	43	102	1048576	21	4620
2026-01-04 11:44:12.05	317.70	18.15	-30.0	-32.2	14.0	4.50e-06	0	43	102	1048576	21	4632
2026-01-04 11:44:13.05	317.86	18.06	-29.8	-31.7	14.3	7.00e-07	0	43	102	1048576	21	4501
2026-01-04 11:44:14.06	318.01	17.97	-29.8	-31.8	14.2	7.00e-07	0	43	102	1048576	21	4516
2026-01-04 11:44:15.06	318.17	17.88	-30.1	-32.4	13.8	7.00e-07	0	43	102	1048576	21	4724
2026-01-04 11:44:16.07	318.32	17.79	-29.9	-32.1	14.0	3.00e-06	0	43	102	1048576	21	4616
2026-01-04 11:44:17.07	318.47	17.70	-29.9	-32.1	14.0	3.80e-06	0	43	102	1048576	21	4602
2026-01-04 11:44:18.07	318.63	17.61	-30.0	-32.4	13.8	6.80e-06	0	43	102	1048576	21	4710
2026-01-04 11:44:19.08	318.78	17.52	-30.1	-32.4	13.8	7.00e-07	0	43	102	1048576	21	4721
2026-01-04 11:44:20.09	318.93	17.43	-30.2	-32.8	13.5	9.10e-06	0	43	102	1048576	21	4853
2026-01-04 11:44:21.10	319.08	17.34	-30.4	-33.4	13.1	1.60e-05	0	43	102	1048576	21	5094
2026-01-04 11:44:22.10	319.23	17.25	-30.3	-33.2	13.2	3.12e-05	0	43	102	1048576	21	5013
2026-01-04 11:44:23.11	319.38	17.16	-30.3	-33.1	13.3	1.83e-05	0	43	102	1048576	21	4981
2026-01-04 11:44:24.12	319.52	17.07	-30.3	-33.1	13.3	1.52e-05	0	43	102	1048576	21	4978
2026-01-04 11:44:25.12	319.67	16.98	-30.4	-33.5	13.0	3.05e-05	0	43	102	1048576	21	5115
2026-01-04 11:44:26.13	319.81	16.89	-30.4	-33.3	13.1	2.28e-05	0	43	102	1048576	21	5052
2026-01-04 11:44:27.14	319.96	16.80	-30.6	-33.9	12.8	5.11e-05	0	43	102	1048576	21	5267
2026-01-04 11:44:28.14	320.10	16.72	-30.4	-33.4	13.1	4.34e-05	0	43	102	1048576	21	5079
2026-01-04 11:44:29.15	320.25	16.63	-30.3	-33.1	13.3	1.75e-05	0	43	102	1048576	21	4959
2026-01-04 11:44:30.16	320.39	16.54	-30.3	-33.1	13.2	2.44e-05	0	43	102	1048576	21	4984
2026-01-04 11:44:31.17	320.53	16.45	-30.3	-33.1	13.3	1.83e-05	0	43	102	1048576	21	4979
2026-01-04 11:44:32.18	320.67	16.36	-30.3	-33.1	13.3	2.05e-05	0	43	102	1048576	21	4961
2026-01-04 11:44:33.18	320.81	16.28	-30.4	-33.3	13.1	2.44e-05	0	43	102	1048576	21	5036
2026-01-04 11:44:34.19	320.95	16.19	-30.3	-33.0	13.3	1.90e-05	0	43	102	1048576	21	4951
2026-01-04 11:44:35.20	321.09	16.10	-30.4	-33.3	13.1	2.59e-05	0	43	102	1048576	21	5046
2026-01-04 11:44:36.20	321.23	16.01	-30.4	-33.3	13.1	2.74e-05	0	43	102	1048576	21	5044
2026-01-04 11:44:37.21	321.36	15.93	-30.4	-33.5	13.0	3.81e-05	0	43	102	1048576	21	5114
2026-01-04 11:44:38.21	321.50	15.84	-30.6	-34.0	12.6	5.64e-05	0	43	102	1048576	21	5313
2026-01-04 11:44:39.22	321.63	15.75	-30.5	-33.8	12.8	6.40e-05	0	43	102	1048576	21	5223
2026-01-04 11:44:40.23	321.77	15.66	-30.6	-34.1	12.6	7.78e-05	0	43	102	1048576	21	5360
2026-01-04 11:44:41.23	321.90	15.58	-30.7	-34.4	12.3	1.52e-04	0	43	102	1048576	21	5496
2026-01-04 11:44:42.24	322.04	15.49	-30.6	-33.9	12.7	1.27e-04	0	43	102	1048576	21	5286
2026-01-04 11:44:43.25	322.17	15.41	-30.6	-33.9	12.7	6.94e-05	0	43	102	1048576	21	5281
2026-01-04 11:44:44.25	322.30	15.32	-30.6	-34.0	12.6	9.15e-05	0	43	102	1048576	21	5338
2026-01-04 11:44:45.26	322.43	15.23	-30.7	-34.2	12.5	1.18e-04	0	43	102	1048576	21	5401
2026-01-04 11:44:46.27	322.56	15.15	-30.9	-34.9	12.0	2.80e-04	0	43	102	1048576	21	5702
2026-01-04 11:44:47.28	322.69	15.06	-30.8	-34.5	12.3	2.17e-04	0	43	102	1048576	21	5517
2026-01-04 11:44:48.29	322.82	14.98	-30.7	-34.4	12.3	1.87e-04	0	43	102	1048576	21	5506
2026-01-04 11:44:49.29	322.95	14.89	-30.8	-34.6	12.1	2.30e-04	0	43	102	1048576	21	5584
2026-01-04 11:44:50.30	323.08	14.81	-30.8	-34.7	12.1	2.59e-04	0	43	102	1048576	21	5631
2026-01-04 11:44:51.31	323.20	14.72	-30.9	-35.0	11.9	3.26e-04	0	43	102	1048576	21	5736
2026-01-04 11:44:52.32	323.33	14.64	-31.0	-34.6	11.8	4.71e-04	0	43	102	1048576	22	5481
2026-01-04 11:44:53.33	323.45	14.55	-30.9	-34.4	11.9	3.44e-04	0	43	102	1048576	22	5385
2026-01-04 11:44:54.33	323.58	14.47	-31.0	-34.6	11.9	3.47e-04	0	43	102	1048576	22	5452
2026-01-04 11:44:55.34	323.70	14.38	-30.9	-34.5	11.9	4.30e-04	0	43	102	1048576	22	5418
2026-01-04 11:44:56.34	323.82	14.30	-31.0	-34.7	11.7	5.18e-04	0	43	102	1048576	22	5521
2026-01-04 11:44:57.35	323.95	14.22	-31.1	-35.1	11.4	8.89e-04	0	43	102	1048576	22	5696
2026-01-04 11:44:58.35	324.07	14.13	-31.2	-35.2	11.4	9.52e-04	0	43	102	1048576	22	5723
2026-01-04 11:44:59.36	324.19	14.05	-31.2	-35.3	11.3	1.21e-03	0	43	102	1048576	22	5778
2026-01-04 11:45:00.37	324.31	13.97	-31.1	-35.1	11.4	1.06e-03	0	43	102	1048576	22	5711
2026-01-04 11:45:01.38	324.43	13.88	-31.1	-35.2	11.4	9.89e-04	0	43	102	1048576	22	5716
2026-01-04 11:45:02.39	324.55	13.80	-31.2	-35.4	11.2	9.67e-04	0	43	102	1048576	22	5827
2026-01-04 11:45:03.40	324.67	13.72	-31.3	-35.5	11.1	1.60e-03	0	43	102	1048576	22	5894
2026-01-04 11:45:04.40	324.79	13.63	-31.3	-35.7	10.9	1.63e-03	0	43	102	1048576	22	5989
2026-01-04 11:45:05.40	324.90	13.55	-31.4	-36.0	10.7	2.88e-03	0	43	102	1048576	22	6105
2026-01-04 11:45:06.41	325.02	13.47	-31.3	-35.6	11.0	2.13e-03	0	43	102	1048576	22	5921
2026-01-04 11:45:07.42	325.14	13.39	-31.1	-35.2	11.3	1.38e-03	0	43	102	1048576	22	5741
2026-01-04 11:45:08.43	325.25	13.31	-31.1	-35.2	11.3	1.17e-03	0	43	102	1048576	22	5747
2026-01-04 11:45:09.43	325.37	13.22	-31.2	-35.4	11.2	1.40e-03	0	43	102	1048576	22	5819
2026-01-04 11:45:10.43	325.48	13.14	-31.3	-35.6	11.0	1.62e-03	0	43	102	1048576	22	5942
2026-01-04 11:45:11.44	325.59	13.06	-31.3	-35.9	10.8	1.98e-03	0	43	102	1048576	22	6081
2026-01-04 11:45:12.45	325.71	12.98	-31.3	-35.8	10.8	3.07e-03	0	43	102	1048576	22	6040
2026-01-04 11:45:13.45	325.82	12.90	-31.2	-35.5	11.0	2.17e-03	0	43	102	1048576	22	5885
2026-01-04 11:45:14.45	325.93	12.82	-31.2	-35.5	11.1	1.74e-03	0	43	102	1048576	22	5880
2026-01-04 11:45:15.45	326.04	12.74	-31.2	-35.5	11.0	1.70e-03	0	43	102	1048576	22	5878
2026-01-04 11:45:16.46	326.15	12.66	-31.2	-35.5	11.1	1.60e-03	0	43	102	1048576	22	5872
2026-01-04 11:45:17.47	326.26	12.58	-31.3	-35.6	10.9	1.96e-03	0	43	102	1048576	22	5958
2026-01-04 11:45:18.48	326.37	12.50	-31.3	-35.7	10.9	2.27e-03	0	43	102	1048576	22	5979
2026-01-04 11:45:19.49	326.48	12.42	-31.2	-35.3	11.2	1.49e-03	0	43	102	1048576	22	5779
2026-01-04 11:45:20.49	326.59	12.34	-31.0	-34.9	11.4	1.21e-03	0	43	102	1048576	22	5644
2026-01-04 11:45:21.49	326.70	12.26	-31.1	-35.1	11.4	1.04e-03	0	43	102	1048576	22	5684
2026-01-04 11:45:22.50	326.80	12.18	-31.1	-35.1	11.3	1.11e-03	0	43	102	1048576	22	5707
2026-01-04 11:45:23.51	326.91	12.10	-31.1	-35.2	11.2	1.06e-03	0	43	102	1048576	22	5764
2026-01-04 11:45:24.51	327.02	12.02	-31.2	-35.4	11.1	1.50e-03	0	43	102	1048576	22	5828
2026-01-04 11:45:25.51	327.12	11.94	-31.1	-35.2	11.2	1.57e-03	0	43	102	1048576	22	5777
2026-01-04 11:45:26.51	327.23	11.87	-31.1	-35.1	11.3	1.20e-03	0	43	102	1048576	22	5703
2026-01-04 11:45:27.52	327.33	11.79	-31.2	-35.3	11.1	1.25e-03	0	43	102	1048576	22	5820
2026-01-04 11:45:28.53	327.44	11.71	-31.1	-35.2	11.2	1.71e-03	0	43	102	1048576	22	5780
2026-01-04 11:45:29.53	327.54	11.63	-31.2	-35.4	11.0	1.85e-03	0	43	102	1048576	22	5871
2026-01-04 11:45:30.54	327.64	11.55	-31.2	-35.6	10.9	2.24e-03	0	43	102	1048576	22	5932
2026-01-04 11:45:31.54	327.74	11.47	-31.2	-35.5	11.0	1.63e-03	0	43	102	1048576	22	5882
2026-01-04 11:45:32.54	327.84	11.40	-31.3	-35.7	10.8	2.28e-03	0	43	102	1048576	22	6014
2026-01-04 11:45:33.55	327.95	11.32	-31.2	-35.6	10.9	2.87e-03	0	43	102	1048576	22	5944
2026-01-04 11:45:34.56	328.05	11.24	-31.1	-35.2	11.2	1.61e-03	0	43	102	1048576	22	5770
2026-01-04 11:45:35.57	328.15	11.16	-31.0	-35.0	11.3	1.17e-03	0	43	102	1048576	22	5690
2026-01-04 11:45:36.58	328.25	11.09	-30.9	-34.6	11.6	9.28e-04	0	43	102	1048576	22	5513
2026-01-04 11:45:37.59	328.35	11.01	-30.9	-34.6	11.6	8.12e-04	0	43	102	1048576	22	5501
2026-01-04 11:45:38.60	328.45	10.93	-30.9	-34.7	11.5	6.88e-04	0	43	102	1048576	22	5542
2026-01-04 11:45:39.61	328.55	10.86	-30.9	-34.5	11.6	7.12e-04	0	43	102	1048576	22	5471
2026-01-04 11:45:40.61	328.64	10.78	-30.8	-34.2	11.9	4.79e-04	0	43	102	1048576	22	5324
2026-01-04 11:45:41.62	328.74	10.70	-30.7	-34.0	12.0	4.15e-04	0	43	102	1048576	22	5250
2026-01-04 11:45:42.62	328.84	10.63	-30.7	-34.0	12.0	3.20e-04	0	43	102	1048576	22	5275
2026-01-04 11:45:43.63	328.93	10.55	-30.8	-34.3	11.8	4.66e-04	0	43	102	1048576	22	5385
2026-01-04 11:45:44.64	329.03	10.48	-30.8	-34.3	11.8	5.87e-04	0	43	102	1048576	22	5361
2026-01-04 11:45:45.65	329.13	10.40	-30.9	-34.7	11.4	7.03e-04	0	43	102	1048576	22	5567
2026-01-04 11:45:46.66	329.22	10.32	-31.0	-34.8	11.4	9.68e-04	0	43	102	1048576	22	5590
2026-01-04 11:45:47.66	329.32	10.25	-30.9	-34.7	11.5	7.69e-04	0	43	102	1048576	22	5554
2026-01-04 11:45:48.67	329.41	10.17	-31.0	-34.8	11.4	7.71e-04	0	43	102	1048576	22	5595
2026-01-04 11:45:49.68	329.50	10.10	-30.9	-34.7	11.5	9.60e-04	0	43	102	1048576	22	5544
2026-01-04 11:45:50.69	329.60	10.02	-30.9	-34.7	11.5	9.85e-04	0	43	102	1048576	22	5543
2026-01-04 11:45:51.69	329.69	9.95	-31.0	-34.8	11.4	8.94e-04	0	43	102	1048576	22	5595
2026-01-04 11:45:52.70	329.78	9.88	-30.9	-34.6	11.5	8.64e-04	0	43	102	1048576	22	5502
2026-01-04 11:45:53.71	329.88	9.80	-30.9	-34.8	11.4	9.23e-04	0	43	102	1048576	22	5613
2026-01-04 11:45:54.71	329.97	9.73	-31.0	-34.9	11.2	1.32e-03	0	43	102	1048576	22	5644
2026-01-04 11:45:55.72	330.06	9.65	-31.0	-34.8	11.4	9.83e-04	0	43	102	1048576	22	5611
2026-01-04 11:45:56.73	330.15	9.58	-30.9	-34.8	11.3	9.96e-04	0	43	102	1048576	22	5596
2026-01-04 11:45:57.74	330.24	9.51	-30.9	-34.7	11.3	1.03e-03	0	43	102	1048576	22	5582
2026-01-04 11:45:58.74	330.33	9.43	-30.9	-34.8	11.3	1.03e-03	0	43	102	1048576	22	5606
2026-01-04 11:45:59.75	330.42	9.36	-31.0	-35.1	11.1	1.37e-03	0	43	102	1048576	22	5736
2026-01-04 11:46:00.76	330.51	9.29	-30.9	-34.8	11.3	1.60e-03	0	43	102	1048576	22	5612
2026-01-04 11:46:01.77	330.60	9.21	-30.9	-34.5	11.5	9.74e-04	0	43	102	1048576	22	5502
2026-01-04 11:46:02.78	330.68	9.14	-30.8	-34.5	11.5	7.93e-04	0	43	102	1048576	22	5478
2026-01-04 11:46:03.79	330.77	9.07	-30.8	-34.4	11.6	6.45e-04	0	43	102	1048576	22	5440
2026-01-04 11:46:04.80	330.86	8.99	-30.9	-34.7	11.3	8.28e-04	0	43	102	1048576	22	5559
2026-01-04 11:46:05.80	330.95	8.92	-30.8	-34.4	11.5	8.77e-04	0	43	102	1048576	22	5447
2026-01-04 11:46:06.80	331.03	8.85	-30.8	-34.4	11.5	8.86e-04	0	43	102	1048576	22	5445
2026-01-04 11:46:07.82	331.12	8.78	-30.9	-34.7	11.3	1.05e-03	0	43	102	1048576	22	5583
2026-01-04 11:46:08.82	331.20	8.71	-30.9	-34.7	11.3	1.07e-03	0	43	102	1048576	22	5591
2026-01-04 11:46:09.83	331.29	8.63	-30.9	-34.7	11.3	1.03e-03	0	43	102	1048576	22	5604
2026-01-04 11:46:10.84	331.37	8.56	-31.0	-35.2	10.9	1.50e-03	0	43	102	1048576	22	5814
2026-01-04 11:46:11.85	331.46	8.49	-31.0	-35.1	11.0	2.16e-03	0	43	102	1048576	22	5775
2026-01-04 11:46:12.86	331.54	8.42	-31.1	-35.2	10.9	2.00e-03	0	44	102	1048576	22	5830
2026-01-04 11:46:13.86	331.63	8.35	-31.1	-35.3	10.8	2.50e-03	0	43	102	1048576	22	5867
2026-01-04 11:46:14.87	331.71	8.28	-31.2	-35.6	10.6	2.73e-03	0	43	102	1048576	22	6008
2026-01-04 11:46:15.88	331.79	8.21	-31.2	-35.8	10.5	3.39e-03	0	43	102	1048576	22	6090
2026-01-04 11:46:16.89	331.88	8.14	-31.1	-35.4	10.7	3.51e-03	0	43	102	1048576	22	5930
2026-01-04 11:46:17.89	331.96	8.07	-31.2	-35.7	10.5	3.28e-03	0	43	102	1048576	22	6063
2026-01-04 11:46:18.90	332.04	8.00	-31.1	-35.5	10.6	3.42e-03	0	43	102	1048576	22	5988
2026-01-04 11:46:19.91	332.12	7.92	-31.0	-35.2	10.8	2.87e-03	0	43	102	1048576	22	5833
2026-01-04 11:46:20.90	332.20	7.86	-31.1	-35.3	10.7	2.53e-03	0	43	102	1048576	22	5880
2026-01-04 11:46:21.90	332.28	7.79	-31.1	-35.5	10.7	3.30e-03	0	43	102	1048576	22	5947
2026-01-04 11:46:22.92	332.36	7.72	-31.1	-35.6	10.5	3.50e-03	0	43	102	1048576	22	6042
2026-01-04 11:46:23.92	332.44	7.65	-31.1	-35.4	10.7	3.68e-03	0	43	102	1048576	22	5909
2026-01-04 11:46:24.93	332.52	7.58	-31.1	-35.5	10.6	2.79e-03	0	43	102	1048576	22	5960
2026-01-04 11:46:25.94	332.60	7.51	-31.0	-35.2	10.7	2.81e-03	0	43	102	1048576	22	5854
2026-01-04 11:46:26.95	332.68	7.44	-31.0	-35.2	10.8	2.61e-03	0	43	102	1048576	22	5837
2026-01-04 11:46:27.96	332.76	7.37	-31.1	-35.6	10.5	2.73e-03	0	43	102	1048576	22	6024
2026-01-04 11:46:28.96	332.84	7.30	-31.0	-35.3	10.7	2.95e-03	0	43	102	1048576	22	5869
2026-01-04 11:46:29.97	332.91	7.23	-31.0	-35.2	10.7	2.90e-03	0	43	102	1048576	22	5860
2026-01-04 11:46:30.98	332.99	7.16	-31.0	-35.1	10.8	3.23e-03	0	43	102	1048576	22	5787
2026-01-04 11:46:31.99	333.07	7.09	-31.1	-35.7	10.4	3.81e-03	0	43	102	1048576	22	6064
2026-01-04 11:46:33.00	333.15	7.03	-33.4	-47.5	3.8	1.37e+00	0	43	104	1048576	26	18280

#Closed at: 2026-01-04 11:46:33
#Recorded file [1 MB]: D:/data/31010_260104_144210.dat