passes_logs/2026/01/04/R2M6_AANII_01/R2M6_AANII_01__20260104_135634_FENGYUN_3D_rec.log

#Pass ID: 20260104_135634_FENGYUN 3D
#Satellite: FENGYUN 3D
#Configuration: FENGYUN 3D
#almurnet v.1.7.20240730
#Start time: 2026-01-04 13:56:36

#Version: 2.2.20231116
#Station: R2M6_AANII_01
#Location: 30.233357 lon 59.946436 lat
#TLE: 1 43010U 17072A   26003.93866112 -.00000029  00000+0  82070-5 0  9995
#TLE: 2 43010  98.9913 335.5841 0001959 128.6134 231.5217 14.19691935421687

#Time	Az	El	Level	Level2	SNR	BER	BlckErr	Temp	State	Recorded	gain1	gain2
2026-01-04 13:56:36.48	212.64	7.10	-28.2	-30.0	5.7	7.60e-01	0	40	0	0	17	4448
2026-01-04 13:56:37.48	212.74	7.16	-28.9	-31.2	5.6	7.66e-01	0	41	104	0	18	4692
2026-01-04 13:56:38.49	212.84	7.22	-29.0	-31.4	11.3	8.65e-04	0	41	0	0	18	4750
2026-01-04 13:56:39.49	212.93	7.29	-28.6	-30.4	11.9	3.56e-04	0	41	102	1048576	18	4452
2026-01-04 13:56:40.50	213.03	7.35	-28.3	-29.8	12.4	1.51e-04	0	41	102	1048576	18	4255
2026-01-04 13:56:41.51	213.13	7.41	-28.3	-30.3	12.3	8.35e-05	0	41	102	1048576	17	4508
2026-01-04 13:56:42.52	213.23	7.48	-28.3	-30.2	12.4	1.02e-04	0	41	102	1048576	17	4473
2026-01-04 13:56:43.53	213.33	7.54	-28.1	-29.8	12.6	8.58e-05	0	41	102	1048576	17	4380
2026-01-04 13:56:44.54	213.42	7.61	-28.0	-29.5	12.9	3.66e-05	0	41	102	1048576	17	4278
2026-01-04 13:56:45.54	213.52	7.67	-28.0	-29.6	12.8	3.20e-05	0	41	102	1048576	17	4309
2026-01-04 13:56:46.54	213.62	7.74	-28.0	-29.4	13.0	3.54e-05	0	41	102	1048576	17	4250
2026-01-04 13:56:47.55	213.72	7.80	-28.0	-29.5	12.9	2.51e-05	0	41	102	1048576	17	4261
2026-01-04 13:56:48.55	213.82	7.87	-27.9	-29.2	13.1	2.05e-05	0	41	102	1048576	17	4200
2026-01-04 13:56:49.56	213.92	7.93	-28.0	-29.4	12.9	3.20e-05	0	41	102	1048576	17	4253
2026-01-04 13:56:50.56	214.02	8.00	-28.0	-29.4	13.0	3.89e-05	0	41	102	1048576	17	4243
2026-01-04 13:56:51.56	214.13	8.06	-27.7	-29.3	13.3	1.02e-05	0	41	102	1048576	16	4335
2026-01-04 13:56:52.56	214.23	8.12	-27.5	-28.8	13.6	1.25e-05	0	41	102	1048576	16	4188
2026-01-04 13:56:53.56	214.33	8.19	-27.3	-28.3	13.9	1.10e-06	0	41	102	1048576	16	4039
2026-01-04 13:56:54.56	214.43	8.25	-27.1	-28.5	14.0	3.40e-06	0	41	102	1048576	15	4200
2026-01-04 13:56:55.57	214.54	8.32	-27.1	-28.4	14.0	1.10e-06	0	41	102	1048576	15	4173
2026-01-04 13:56:56.57	214.64	8.38	-27.0	-28.2	14.1	3.40e-06	0	41	102	1048576	15	4128
2026-01-04 13:56:57.58	214.74	8.45	-27.0	-28.3	14.1	1.10e-06	0	41	102	1048576	15	4145
2026-01-04 13:56:58.59	214.85	8.52	-27.3	-28.8	13.8	0.00e+00	0	41	102	1048576	15	4286
2026-01-04 13:56:59.60	214.96	8.58	-27.2	-28.7	13.8	3.40e-06	0	41	102	1048576	15	4265
2026-01-04 13:57:00.60	215.06	8.65	-27.1	-28.3	14.1	0.00e+00	0	42	102	1048576	15	4160
2026-01-04 13:57:01.60	215.17	8.71	-27.0	-28.2	14.2	2.20e-06	0	42	102	1048576	15	4120
2026-01-04 13:57:02.61	215.27	8.78	-27.1	-28.4	14.1	0.00e+00	0	41	102	1048576	15	4175
2026-01-04 13:57:03.62	215.38	8.85	-27.0	-28.2	14.1	0.00e+00	0	42	102	1048576	15	4140
2026-01-04 13:57:04.62	215.49	8.91	-27.0	-28.2	14.2	2.20e-06	0	41	102	1048576	15	4125
2026-01-04 13:57:05.62	215.60	8.98	-27.0	-28.1	14.2	0.00e+00	0	41	102	1048576	15	4115
2026-01-04 13:57:06.63	215.70	9.04	-27.0	-28.1	14.2	0.00e+00	0	42	102	1048576	15	4113
2026-01-04 13:57:07.64	215.81	9.11	-27.1	-28.4	14.0	1.10e-06	0	42	102	1048576	15	4190
2026-01-04 13:57:08.63	215.92	9.18	-27.1	-28.3	14.1	1.10e-06	0	41	102	1048576	15	4156
2026-01-04 13:57:09.64	216.03	9.24	-27.1	-28.3	14.1	1.10e-06	0	42	102	1048576	15	4157
2026-01-04 13:57:10.65	216.14	9.31	-27.1	-28.3	14.1	0.00e+00	0	42	102	1048576	15	4152
2026-01-04 13:57:11.65	216.25	9.38	-27.1	-28.4	14.1	2.20e-06	0	41	102	1048576	15	4177
2026-01-04 13:57:12.66	216.37	9.44	-27.1	-28.4	14.1	0.00e+00	0	42	102	1048576	15	4189
2026-01-04 13:57:13.66	216.48	9.51	-27.1	-28.5	14.1	1.10e-06	0	42	102	1048576	15	4208
2026-01-04 13:57:14.67	216.59	9.58	-27.2	-28.5	14.0	0.00e+00	0	41	102	1048576	15	4210
2026-01-04 13:57:15.67	216.70	9.64	-27.1	-28.4	14.1	1.10e-06	0	42	102	1048576	15	4177
2026-01-04 13:57:16.68	216.82	9.71	-27.2	-28.6	14.0	0.00e+00	0	42	102	1048576	15	4232
2026-01-04 13:57:17.69	216.93	9.78	-27.1	-28.4	14.1	2.20e-06	0	42	102	1048576	15	4171
2026-01-04 13:57:18.69	217.04	9.85	-26.9	-27.9	14.4	1.10e-06	0	42	102	1048576	15	4058
2026-01-04 13:57:19.69	217.16	9.91	-26.8	-27.8	14.5	0.00e+00	0	42	102	1048576	15	4020
2026-01-04 13:57:20.70	217.27	9.98	-26.8	-27.8	14.5	0.00e+00	0	41	102	1048576	15	4015
2026-01-04 13:57:21.71	217.39	10.05	-26.7	-28.0	14.7	0.00e+00	0	42	102	1048576	14	4180
2026-01-04 13:57:22.71	217.51	10.12	-26.7	-28.0	14.6	0.00e+00	0	42	102	1048576	14	4182
2026-01-04 13:57:23.72	217.62	10.18	-26.8	-28.1	14.6	0.00e+00	0	42	102	1048576	14	4208
2026-01-04 13:57:24.72	217.74	10.25	-26.7	-28.0	14.7	0.00e+00	0	42	102	1048576	14	4171
2026-01-04 13:57:25.73	217.86	10.32	-26.9	-28.3	14.5	1.10e-06	0	42	102	1048576	14	4259
2026-01-04 13:57:26.73	217.98	10.39	-26.9	-28.4	14.5	0.00e+00	0	42	102	1048576	14	4285
2026-01-04 13:57:27.73	218.10	10.45	-26.8	-28.2	14.6	0.00e+00	0	42	102	1048576	14	4231
2026-01-04 13:57:28.74	218.22	10.52	-26.8	-28.3	14.6	0.00e+00	0	42	102	1048576	14	4252
2026-01-04 13:57:29.74	218.34	10.59	-26.9	-28.5	14.4	0.00e+00	0	42	102	1048576	14	4301
2026-01-04 13:57:30.75	218.46	10.66	-26.9	-28.5	14.4	0.00e+00	0	42	102	1048576	14	4321
2026-01-04 13:57:31.76	218.58	10.73	-26.8	-28.3	14.6	0.00e+00	0	42	102	1048576	14	4251
2026-01-04 13:57:32.76	218.70	10.80	-26.9	-28.4	14.5	0.00e+00	0	42	102	1048576	14	4296
2026-01-04 13:57:33.77	218.82	10.86	-26.7	-28.1	14.6	0.00e+00	0	42	102	1048576	14	4201
2026-01-04 13:57:34.78	218.95	10.93	-26.7	-28.0	14.7	0.00e+00	0	42	102	1048576	14	4163
2026-01-04 13:57:35.78	219.07	11.00	-26.6	-27.8	14.9	0.00e+00	0	42	102	1048576	14	4119
2026-01-04 13:57:36.79	219.19	11.07	-26.7	-28.0	14.8	1.10e-06	0	42	102	1048576	14	4168
2026-01-04 13:57:37.80	219.32	11.14	-26.6	-27.7	14.9	0.00e+00	0	42	102	1048576	14	4088
2026-01-04 13:57:38.81	219.44	11.21	-26.7	-27.9	14.8	0.00e+00	0	42	102	1048576	14	4154
2026-01-04 13:57:39.81	219.57	11.28	-26.6	-27.8	14.9	0.00e+00	0	42	102	1048576	14	4120
2026-01-04 13:57:40.81	219.70	11.35	-26.6	-27.7	15.0	0.00e+00	0	42	102	1048576	14	4084
2026-01-04 13:57:41.82	219.82	11.42	-26.6	-27.7	14.9	0.00e+00	0	42	102	1048576	14	4097
2026-01-04 13:57:42.83	219.95	11.49	-26.8	-28.3	14.6	1.10e-06	0	42	102	1048576	14	4241
2026-01-04 13:57:43.84	220.08	11.56	-26.7	-27.9	14.8	0.00e+00	0	42	102	1048576	14	4149
2026-01-04 13:57:44.84	220.21	11.62	-26.7	-27.9	14.8	0.00e+00	0	42	102	1048576	14	4137
2026-01-04 13:57:45.85	220.34	11.69	-26.6	-27.8	14.9	0.00e+00	0	42	102	1048576	14	4131
2026-01-04 13:57:46.86	220.47	11.76	-26.7	-27.9	14.9	0.00e+00	0	42	102	1048576	14	4134
2026-01-04 13:57:47.87	220.60	11.83	-26.6	-27.6	15.0	0.00e+00	0	42	102	1048576	14	4072
2026-01-04 13:57:48.88	220.73	11.90	-26.5	-27.5	15.1	0.00e+00	0	42	102	1048576	14	4052
2026-01-04 13:57:49.88	220.86	11.97	-26.5	-27.6	15.0	0.00e+00	0	42	102	1048576	14	4060
2026-01-04 13:57:50.89	220.99	12.04	-26.5	-27.5	15.1	0.00e+00	0	42	102	1048576	14	4037
2026-01-04 13:57:51.89	221.13	12.11	-26.4	-27.2	15.3	0.00e+00	0	42	102	1048576	14	3961
2026-01-04 13:57:52.90	221.26	12.18	-26.5	-27.4	15.2	0.00e+00	0	42	102	1048576	14	4018
2026-01-04 13:57:53.91	221.39	12.25	-26.5	-27.5	15.1	0.00e+00	0	42	102	1048576	14	4028
2026-01-04 13:57:54.92	221.53	12.32	-26.5	-27.6	15.1	0.00e+00	0	42	102	1048576	14	4049
2026-01-04 13:57:55.92	221.66	12.39	-26.5	-27.5	15.1	0.00e+00	0	42	102	1048576	14	4039
2026-01-04 13:57:56.92	221.80	12.46	-26.6	-27.7	15.0	0.00e+00	0	42	102	1048576	14	4085
2026-01-04 13:57:57.92	221.94	12.53	-26.5	-27.5	15.1	0.00e+00	0	42	102	1048576	14	4039
2026-01-04 13:57:58.93	222.07	12.60	-26.4	-27.3	15.3	0.00e+00	0	42	102	1048576	14	3976
2026-01-04 13:57:59.93	222.21	12.67	-26.4	-27.3	15.3	0.00e+00	0	42	102	1048576	14	4000
2026-01-04 13:58:00.94	222.35	12.74	-26.5	-27.4	15.2	0.00e+00	0	42	102	1048576	14	4018
2026-01-04 13:58:01.95	222.49	12.81	-26.3	-27.1	15.4	0.00e+00	0	42	102	1048576	14	3936
2026-01-04 13:58:02.95	222.63	12.88	-26.2	-27.4	15.5	0.00e+00	0	42	102	1048576	13	4104
2026-01-04 13:58:03.96	222.77	12.95	-26.2	-27.4	15.5	0.00e+00	0	42	102	1048576	13	4122
2026-01-04 13:58:04.96	222.91	13.02	-26.4	-27.7	15.3	0.00e+00	0	42	102	1048576	13	4205
2026-01-04 13:58:05.97	223.05	13.10	-26.3	-27.6	15.4	1.10e-06	0	43	102	1048576	13	4157
2026-01-04 13:58:06.98	223.19	13.17	-26.3	-27.5	15.4	0.00e+00	0	43	102	1048576	13	4149
2026-01-04 13:58:07.98	223.34	13.24	-26.4	-27.7	15.3	0.00e+00	0	42	102	1048576	13	4201
2026-01-04 13:58:08.99	223.48	13.31	-26.3	-27.4	15.5	0.00e+00	0	42	102	1048576	13	4130
2026-01-04 13:58:09.99	223.62	13.38	-26.2	-27.3	15.5	0.00e+00	0	42	102	1048576	13	4082
2026-01-04 13:58:10.99	223.77	13.45	-26.3	-27.5	15.4	0.00e+00	0	42	102	1048576	13	4146
2026-01-04 13:58:12.00	223.92	13.52	-26.1	-27.2	15.6	0.00e+00	0	43	102	1048576	13	4061
2026-01-04 13:58:13.01	224.06	13.59	-26.2	-27.3	15.5	0.00e+00	0	43	102	1048576	13	4087
2026-01-04 13:58:14.01	224.21	13.66	-26.4	-27.7	15.3	0.00e+00	0	42	102	1048576	13	4205
2026-01-04 13:58:15.02	224.36	13.73	-26.2	-27.4	15.5	0.00e+00	0	43	102	1048576	13	4117
2026-01-04 13:58:16.03	224.51	13.80	-26.2	-27.3	15.6	0.00e+00	0	42	102	1048576	13	4081
2026-01-04 13:58:17.04	224.66	13.87	-26.1	-27.1	15.7	0.00e+00	0	43	102	1048576	13	4032
2026-01-04 13:58:18.04	224.80	13.95	-26.1	-27.1	15.6	0.00e+00	0	43	102	1048576	13	4044
2026-01-04 13:58:19.04	224.95	14.02	-26.0	-26.9	15.8	0.00e+00	0	42	102	1048576	13	3977
2026-01-04 13:58:20.05	225.11	14.09	-25.9	-26.7	15.9	0.00e+00	0	43	102	1048576	13	3935
2026-01-04 13:58:21.05	225.26	14.16	-25.9	-26.7	15.9	0.00e+00	0	42	102	1048576	13	3946
2026-01-04 13:58:22.06	225.41	14.23	-25.7	-26.8	16.2	0.00e+00	0	43	102	1048576	12	4062
2026-01-04 13:58:23.06	225.56	14.30	-25.7	-26.7	16.2	0.00e+00	0	42	102	1048576	12	4044
2026-01-04 13:58:24.07	225.72	14.37	-25.8	-26.8	16.1	0.00e+00	0	43	102	1048576	12	4066
2026-01-04 13:58:25.08	225.87	14.44	-25.6	-26.4	16.4	0.00e+00	0	43	102	1048576	12	3977
2026-01-04 13:58:26.09	226.03	14.51	-25.6	-26.5	16.3	0.00e+00	0	42	102	1048576	12	3999
2026-01-04 13:58:27.10	226.19	14.59	-25.7	-26.8	16.2	0.00e+00	0	43	102	1048576	12	4053
2026-01-04 13:58:28.10	226.34	14.66	-25.6	-26.5	16.3	0.00e+00	0	43	102	1048576	12	3987
2026-01-04 13:58:29.11	226.50	14.73	-25.6	-26.5	16.3	0.00e+00	0	43	102	1048576	12	3995
2026-01-04 13:58:30.12	226.66	14.80	-25.7	-26.7	16.3	0.00e+00	0	43	102	1048576	12	4031
2026-01-04 13:58:31.12	226.82	14.87	-25.6	-26.5	16.3	0.00e+00	0	43	102	1048576	12	4002
2026-01-04 13:58:32.12	226.98	14.94	-25.6	-26.5	16.4	0.00e+00	0	43	102	1048576	12	3981
2026-01-04 13:58:33.13	227.14	15.01	-25.7	-26.8	16.2	0.00e+00	0	43	102	1048576	12	4062
2026-01-04 13:58:34.14	227.30	15.09	-25.6	-26.5	16.3	0.00e+00	0	42	102	1048576	12	4000
2026-01-04 13:58:35.14	227.46	15.16	-25.6	-26.6	16.3	0.00e+00	0	43	102	1048576	12	4005
2026-01-04 13:58:36.15	227.63	15.23	-25.8	-26.8	16.2	0.00e+00	0	43	102	1048576	12	4068
2026-01-04 13:58:37.15	227.79	15.30	-25.7	-26.6	16.3	0.00e+00	0	43	102	1048576	12	4015
2026-01-04 13:58:38.16	227.95	15.37	-25.7	-26.7	16.3	0.00e+00	0	43	102	1048576	12	4033
2026-01-04 13:58:39.16	228.12	15.44	-25.8	-27.0	16.1	0.00e+00	0	43	102	1048576	12	4113
2026-01-04 13:58:40.16	228.28	15.51	-25.7	-26.8	16.2	0.00e+00	0	43	102	1048576	12	4059
2026-01-04 13:58:41.16	228.45	15.58	-25.8	-26.8	16.2	0.00e+00	0	43	102	1048576	12	4075
2026-01-04 13:58:42.17	228.62	15.65	-25.8	-26.9	16.2	0.00e+00	0	43	102	1048576	12	4087
2026-01-04 13:58:43.18	228.79	15.73	-25.7	-26.7	16.3	0.00e+00	0	43	102	1048576	12	4052
2026-01-04 13:58:44.19	228.95	15.80	-25.7	-26.7	16.3	0.00e+00	0	43	102	1048576	12	4042
2026-01-04 13:58:45.19	229.12	15.87	-25.7	-26.7	16.3	0.00e+00	0	43	102	1048576	12	4040
2026-01-04 13:58:46.20	229.29	15.94	-25.6	-26.5	16.4	0.00e+00	0	43	102	1048576	12	3988
2026-01-04 13:58:47.21	229.47	16.01	-25.6	-26.5	16.4	0.00e+00	0	43	102	1048576	12	3985
2026-01-04 13:58:48.21	229.64	16.08	-25.7	-26.7	16.3	0.00e+00	0	43	102	1048576	12	4045
2026-01-04 13:58:49.22	229.81	16.15	-25.6	-26.4	16.5	0.00e+00	0	43	102	1048576	12	3969
2026-01-04 13:58:50.22	229.98	16.22	-25.6	-26.4	16.5	0.00e+00	0	43	102	1048576	12	3971
2026-01-04 13:58:51.23	230.16	16.29	-25.6	-26.5	16.4	0.00e+00	0	43	102	1048576	12	3979
2026-01-04 13:58:52.24	230.34	16.36	-25.7	-26.8	16.3	0.00e+00	0	43	102	1048576	12	4062
2026-01-04 13:58:53.25	230.51	16.44	-25.6	-26.6	16.4	0.00e+00	0	43	102	1048576	12	4002
2026-01-04 13:58:54.26	230.69	16.51	-25.6	-26.5	16.4	0.00e+00	0	43	102	1048576	12	3993
2026-01-04 13:58:55.27	230.87	16.58	-25.7	-26.7	16.3	0.00e+00	0	43	102	1048576	12	4030
2026-01-04 13:58:56.27	231.05	16.65	-25.6	-26.5	16.4	0.00e+00	0	43	102	1048576	12	3982
2026-01-04 13:58:57.27	231.23	16.72	-25.6	-26.5	16.4	0.00e+00	0	43	102	1048576	12	3987
2026-01-04 13:58:58.27	231.40	16.79	-25.6	-26.5	16.4	0.00e+00	0	43	102	1048576	12	3983
2026-01-04 13:58:59.28	231.59	16.86	-25.6	-26.4	16.5	0.00e+00	0	43	102	1048576	12	3976
2026-01-04 13:59:00.29	231.77	16.93	-25.7	-26.7	16.3	0.00e+00	0	43	102	1048576	12	4031
2026-01-04 13:59:01.29	231.95	17.00	-25.4	-26.0	16.7	0.00e+00	0	43	102	1048576	12	3877
2026-01-04 13:59:02.29	232.13	17.07	-25.3	-25.8	16.8	0.00e+00	0	43	102	1048576	12	3811
2026-01-04 13:59:03.30	232.32	17.14	-25.3	-26.3	16.9	0.00e+00	0	43	102	1048576	11	4029
2026-01-04 13:59:04.31	232.50	17.21	-25.3	-26.4	16.9	0.00e+00	0	43	102	1048576	11	4068
2026-01-04 13:59:05.31	232.69	17.28	-25.5	-26.8	16.7	0.00e+00	0	43	102	1048576	11	4158
2026-01-04 13:59:06.32	232.88	17.35	-25.6	-26.9	16.6	0.00e+00	0	43	102	1048576	11	4183
2026-01-04 13:59:07.33	233.07	17.42	-25.6	-26.9	16.6	0.00e+00	0	43	102	1048576	11	4189
2026-01-04 13:59:08.34	233.25	17.49	-25.6	-27.0	16.6	2.20e-06	0	43	102	1048576	11	4209
2026-01-04 13:59:09.34	233.44	17.56	-25.6	-27.0	16.5	0.00e+00	0	43	102	1048576	11	4223
2026-01-04 13:59:10.34	233.63	17.63	-25.6	-27.1	16.5	0.00e+00	0	43	102	1048576	11	4236
2026-01-04 13:59:11.35	233.82	17.70	-25.5	-26.8	16.7	0.00e+00	0	43	102	1048576	11	4156
2026-01-04 13:59:12.36	234.02	17.77	-25.5	-26.7	16.7	0.00e+00	0	43	102	1048576	11	4133
2026-01-04 13:59:13.37	234.21	17.84	-25.5	-26.7	16.7	0.00e+00	0	43	102	1048576	11	4126
2026-01-04 13:59:14.37	234.40	17.91	-25.5	-26.7	16.7	0.00e+00	0	43	102	1048576	11	4130
2026-01-04 13:59:15.37	234.60	17.97	-25.6	-27.0	16.6	0.00e+00	0	43	102	1048576	11	4206
2026-01-04 13:59:16.38	234.79	18.04	-25.4	-26.5	16.9	0.00e+00	0	43	102	1048576	11	4086
2026-01-04 13:59:17.39	234.99	18.11	-25.2	-26.2	17.0	0.00e+00	0	43	102	1048576	11	4008
2026-01-04 13:59:18.39	235.19	18.18	-25.2	-26.1	17.1	0.00e+00	0	43	102	1048576	11	3982
2026-01-04 13:59:19.39	235.38	18.25	-25.1	-25.9	17.2	0.00e+00	0	43	102	1048576	11	3934
2026-01-04 13:59:20.40	235.58	18.32	-25.0	-25.6	17.3	3.40e-06	0	43	102	1048576	11	3873
2026-01-04 13:59:21.41	235.78	18.38	-25.0	-25.6	17.3	0.00e+00	0	43	102	1048576	11	3867
2026-01-04 13:59:22.42	235.98	18.45	-25.0	-25.7	17.3	0.00e+00	0	43	102	1048576	11	3886
2026-01-04 13:59:23.42	236.18	18.52	-25.0	-25.7	17.3	0.00e+00	0	43	102	1048576	11	3901
2026-01-04 13:59:24.43	236.39	18.59	-24.9	-25.5	17.4	0.00e+00	0	43	102	1048576	11	3847
2026-01-04 13:59:25.44	236.59	18.66	-24.9	-25.5	17.4	0.00e+00	0	43	102	1048576	11	3849
2026-01-04 13:59:26.44	236.79	18.72	-24.9	-25.5	17.4	0.00e+00	0	43	102	1048576	11	3846
2026-01-04 13:59:27.45	237.00	18.79	-24.9	-25.5	17.4	0.00e+00	0	43	102	1048576	11	3844
2026-01-04 13:59:28.46	237.21	18.86	-24.9	-25.4	17.4	0.00e+00	0	43	102	1048576	11	3826
2026-01-04 13:59:29.46	237.41	18.92	-24.9	-25.5	17.4	0.00e+00	0	43	102	1048576	11	3829
2026-01-04 13:59:30.47	237.62	18.99	-24.9	-25.5	17.4	0.00e+00	0	43	102	1048576	11	3854
2026-01-04 13:59:31.48	237.83	19.06	-25.0	-25.6	17.4	0.00e+00	0	43	102	1048576	11	3863
2026-01-04 13:59:32.48	238.04	19.12	-25.0	-25.6	17.3	0.00e+00	0	43	102	1048576	11	3863
2026-01-04 13:59:33.49	238.25	19.19	-25.0	-25.6	17.3	0.00e+00	0	43	102	1048576	11	3875
2026-01-04 13:59:34.49	238.46	19.25	-25.0	-25.7	17.3	0.00e+00	0	43	102	1048576	11	3894
2026-01-04 13:59:35.50	238.67	19.32	-24.9	-25.5	17.4	0.00e+00	0	43	102	1048576	11	3848
2026-01-04 13:59:36.50	238.88	19.39	-25.0	-25.7	17.3	0.00e+00	0	43	102	1048576	11	3893
2026-01-04 13:59:37.51	239.10	19.45	-25.1	-25.8	17.3	0.00e+00	0	43	102	1048576	11	3902
2026-01-04 13:59:38.52	239.31	19.52	-25.1	-25.9	17.2	0.00e+00	0	43	102	1048576	11	3943
2026-01-04 13:59:39.52	239.53	19.58	-25.2	-26.0	17.1	0.00e+00	0	43	102	1048576	11	3969
2026-01-04 13:59:40.53	239.75	19.65	-25.1	-25.8	17.3	0.00e+00	0	43	102	1048576	11	3916
2026-01-04 13:59:41.53	239.96	19.71	-25.0	-25.7	17.3	0.00e+00	0	43	102	1048576	11	3887
2026-01-04 13:59:42.54	240.18	19.77	-25.0	-25.7	17.3	0.00e+00	0	43	102	1048576	11	3881
2026-01-04 13:59:43.55	240.40	19.84	-25.0	-25.7	17.3	0.00e+00	0	43	102	1048576	11	3882
2026-01-04 13:59:44.56	240.62	19.90	-24.9	-25.6	17.4	0.00e+00	0	43	102	1048576	11	3858
2026-01-04 13:59:45.57	240.84	19.96	-25.0	-25.6	17.4	0.00e+00	0	43	102	1048576	11	3874
2026-01-04 13:59:46.58	241.07	20.03	-25.0	-25.6	17.4	0.00e+00	0	43	102	1048576	11	3871
2026-01-04 13:59:47.58	241.29	20.09	-25.0	-25.6	17.3	0.00e+00	0	43	102	1048576	11	3874
2026-01-04 13:59:48.59	241.51	20.15	-24.9	-25.5	17.4	0.00e+00	0	43	102	1048576	11	3839
2026-01-04 13:59:49.60	241.74	20.22	-24.8	-25.3	17.6	0.00e+00	0	43	102	1048576	11	3783
2026-01-04 13:59:50.60	241.96	20.28	-24.8	-25.2	17.6	0.00e+00	0	43	102	1048576	11	3769
2026-01-04 13:59:51.61	242.19	20.34	-24.9	-25.4	17.5	0.00e+00	0	43	102	1048576	11	3817
2026-01-04 13:59:52.62	242.42	20.40	-24.9	-25.5	17.4	0.00e+00	0	43	102	1048576	11	3839
2026-01-04 13:59:53.63	242.65	20.46	-25.0	-25.6	17.4	0.00e+00	0	43	102	1048576	11	3863
2026-01-04 13:59:54.63	242.87	20.52	-25.1	-25.8	17.3	0.00e+00	0	43	102	1048576	11	3910
2026-01-04 13:59:55.64	243.11	20.58	-25.2	-26.0	17.2	0.00e+00	0	43	102	1048576	11	3960
2026-01-04 13:59:56.65	243.34	20.64	-25.3	-26.3	17.1	0.00e+00	0	43	102	1048576	11	4029
2026-01-04 13:59:57.65	243.57	20.70	-25.3	-26.3	17.0	0.00e+00	0	43	102	1048576	11	4027
2026-01-04 13:59:58.66	243.80	20.76	-25.3	-26.4	17.0	0.00e+00	0	43	102	1048576	11	4059
2026-01-04 13:59:59.67	244.04	20.82	-25.1	-25.8	17.3	0.00e+00	0	43	102	1048576	11	3904
2026-01-04 14:00:00.67	244.27	20.88	-24.7	-25.5	17.7	0.00e+00	0	43	102	1048576	10	3936
2026-01-04 14:00:01.67	244.50	20.94	-24.4	-24.9	18.0	0.00e+00	0	43	102	1048576	10	3815
2026-01-04 14:00:02.68	244.74	21.00	-24.3	-24.7	18.1	0.00e+00	0	43	102	1048576	10	3770
2026-01-04 14:00:03.69	244.98	21.05	-24.4	-24.8	18.1	0.00e+00	0	43	102	1048576	10	3791
2026-01-04 14:00:04.68	245.21	21.11	-24.5	-25.1	17.9	0.00e+00	0	43	102	1048576	10	3860
2026-01-04 14:00:05.68	245.45	21.17	-24.7	-25.4	17.8	0.00e+00	0	43	102	1048576	10	3934
2026-01-04 14:00:06.69	245.69	21.22	-24.7	-25.6	17.7	0.00e+00	0	43	102	1048576	10	3969
2026-01-04 14:00:07.70	245.93	21.28	-24.7	-25.5	17.7	0.00e+00	0	43	102	1048576	10	3947
2026-01-04 14:00:08.71	246.17	21.34	-24.8	-25.6	17.6	0.00e+00	0	43	102	1048576	10	3972
2026-01-04 14:00:09.71	246.41	21.39	-24.7	-25.4	17.8	0.00e+00	0	43	102	1048576	10	3933
2026-01-04 14:00:10.72	246.65	21.45	-24.6	-25.2	17.9	0.00e+00	0	43	102	1048576	10	3884
2026-01-04 14:00:11.72	246.90	21.50	-24.6	-25.4	17.8	0.00e+00	0	43	102	1048576	10	3912
2026-01-04 14:00:12.73	247.14	21.56	-24.8	-25.8	17.6	0.00e+00	0	43	102	1048576	10	4009
2026-01-04 14:00:13.74	247.39	21.61	-24.9	-26.0	17.5	0.00e+00	0	43	102	1048576	10	4083
2026-01-04 14:00:14.75	247.64	21.66	-24.8	-25.7	17.6	0.00e+00	0	43	102	1048576	10	4008
2026-01-04 14:00:15.75	247.88	21.72	-24.7	-25.6	17.7	0.00e+00	0	43	102	1048576	10	3965
2026-01-04 14:00:16.76	248.13	21.77	-24.8	-25.8	17.6	0.00e+00	0	43	102	1048576	10	4012
2026-01-04 14:00:17.76	248.38	21.82	-24.8	-25.7	17.6	0.00e+00	0	43	102	1048576	10	4000
2026-01-04 14:00:18.77	248.63	21.87	-25.0	-26.1	17.5	0.00e+00	0	43	102	1048576	10	4086
2026-01-04 14:00:19.78	248.88	21.92	-24.7	-25.6	17.7	0.00e+00	0	43	102	1048576	10	3973
2026-01-04 14:00:20.79	249.13	21.98	-24.5	-25.2	17.9	0.00e+00	0	43	102	1048576	10	3867
2026-01-04 14:00:21.80	249.38	22.03	-24.4	-24.8	18.1	0.00e+00	0	43	102	1048576	10	3780
2026-01-04 14:00:22.80	249.63	22.08	-24.3	-24.7	18.2	0.00e+00	0	43	102	1048576	10	3758
2026-01-04 14:00:23.81	249.89	22.13	-24.2	-24.9	18.3	0.00e+00	0	43	102	1048576	9	3918
2026-01-04 14:00:24.82	250.14	22.17	-24.3	-25.1	18.2	0.00e+00	0	43	102	1048576	9	3964
2026-01-04 14:00:25.83	250.40	22.22	-24.3	-25.2	18.2	0.00e+00	0	43	102	1048576	9	3970
2026-01-04 14:00:26.83	250.65	22.27	-24.3	-25.3	18.1	0.00e+00	0	43	102	1048576	9	3999
2026-01-04 14:00:27.84	250.91	22.32	-24.2	-25.0	18.3	0.00e+00	0	43	102	1048576	9	3936
2026-01-04 14:00:28.85	251.17	22.37	-24.3	-25.1	18.2	0.00e+00	0	43	102	1048576	9	3956
2026-01-04 14:00:29.85	251.43	22.41	-24.3	-25.2	18.2	0.00e+00	0	43	102	1048576	9	3985
2026-01-04 14:00:30.86	251.69	22.46	-24.4	-25.4	18.1	0.00e+00	0	43	102	1048576	9	4037
2026-01-04 14:00:31.86	251.94	22.50	-24.4	-25.3	18.1	0.00e+00	0	43	102	1048576	9	4019
2026-01-04 14:00:32.87	252.21	22.55	-24.5	-25.7	17.9	0.00e+00	0	43	102	1048576	9	4095
2026-01-04 14:00:33.88	252.47	22.59	-24.3	-25.1	18.2	0.00e+00	0	43	102	1048576	9	3965
2026-01-04 14:00:34.88	252.73	22.64	-24.1	-24.8	18.4	0.00e+00	0	43	102	1048576	9	3892
2026-01-04 14:00:35.89	252.99	22.68	-24.2	-24.9	18.3	0.00e+00	0	43	102	1048576	9	3919
2026-01-04 14:00:36.89	253.25	22.72	-24.2	-25.0	18.3	0.00e+00	0	43	102	1048576	9	3933
2026-01-04 14:00:37.90	253.52	22.77	-24.3	-25.2	18.2	0.00e+00	0	43	102	1048576	9	3982
2026-01-04 14:00:38.91	253.78	22.81	-24.4	-25.3	18.1	0.00e+00	0	43	102	1048576	9	4017
2026-01-04 14:00:39.92	254.05	22.85	-24.3	-25.2	18.2	0.00e+00	0	43	102	1048576	9	3986
2026-01-04 14:00:40.92	254.31	22.89	-24.4	-25.3	18.1	0.00e+00	0	43	102	1048576	9	4011
2026-01-04 14:00:41.92	254.58	22.93	-24.5	-25.5	18.0	0.00e+00	0	43	102	1048576	9	4065
2026-01-04 14:00:42.93	254.85	22.97	-24.3	-25.1	18.2	1.10e-06	0	43	102	1048576	9	3951
2026-01-04 14:00:43.93	255.11	23.01	-24.2	-24.9	18.4	0.00e+00	0	43	102	1048576	9	3910
2026-01-04 14:00:44.94	255.38	23.05	-24.2	-25.0	18.3	0.00e+00	0	43	102	1048576	9	3928
2026-01-04 14:00:45.94	255.65	23.08	-24.2	-24.9	18.4	2.20e-06	0	43	102	1048576	9	3909
2026-01-04 14:00:46.95	255.92	23.12	-24.3	-25.2	18.2	0.00e+00	0	43	102	1048576	9	3990
2026-01-04 14:00:47.96	256.19	23.16	-24.1	-24.8	18.4	0.00e+00	0	43	102	1048576	9	3874
2026-01-04 14:00:48.96	256.46	23.19	-24.0	-24.6	18.5	1.10e-06	0	43	102	1048576	9	3845
2026-01-04 14:00:49.97	256.73	23.23	-24.0	-24.6	18.5	0.00e+00	0	43	102	1048576	9	3847
2026-01-04 14:00:50.98	257.01	23.26	-24.0	-24.4	18.6	0.00e+00	0	43	102	1048576	9	3799
2026-01-04 14:00:51.99	257.28	23.30	-24.1	-24.7	18.4	1.10e-06	0	43	102	1048576	9	3868
2026-01-04 14:00:52.99	257.55	23.33	-24.0	-24.6	18.5	0.00e+00	0	43	102	1048576	9	3841
2026-01-04 14:00:54.00	257.83	23.37	-24.1	-24.7	18.5	0.00e+00	0	43	102	1048576	9	3857
2026-01-04 14:00:55.01	258.10	23.40	-24.2	-25.0	18.3	6.80e-06	0	43	102	1048576	9	3921
2026-01-04 14:00:56.02	258.38	23.43	-24.0	-24.5	18.6	0.00e+00	0	43	102	1048576	9	3817
2026-01-04 14:00:57.01	258.65	23.46	-23.9	-24.4	18.6	0.00e+00	0	43	102	1048576	9	3785
2026-01-04 14:00:58.02	258.93	23.49	-24.1	-24.6	18.5	1.10e-06	0	43	102	1048576	9	3841
2026-01-04 14:00:59.02	259.20	23.52	-24.1	-24.7	18.5	0.00e+00	0	43	102	1048576	9	3866
2026-01-04 14:01:00.03	259.48	23.55	-24.2	-24.9	18.4	0.00e+00	0	43	102	1048576	9	3910
2026-01-04 14:01:01.04	259.76	23.58	-24.3	-25.1	18.3	0.00e+00	0	43	102	1048576	9	3959
2026-01-04 14:01:02.04	260.04	23.61	-24.2	-24.9	18.4	0.00e+00	0	43	102	1048576	9	3913
2026-01-04 14:01:03.05	260.32	23.63	-24.1	-24.8	18.4	0.00e+00	0	43	102	1048576	9	3885
2026-01-04 14:01:04.06	260.60	23.66	-24.2	-25.0	18.3	0.00e+00	0	43	102	1048576	9	3942
2026-01-04 14:01:05.06	260.87	23.69	-24.0	-24.5	18.6	0.00e+00	0	43	102	1048576	9	3805
2026-01-04 14:01:06.07	261.15	23.71	-23.9	-24.2	18.7	0.00e+00	0	43	102	1048576	9	3746
2026-01-04 14:01:07.08	261.44	23.74	-23.9	-24.3	18.7	0.00e+00	0	43	102	1048576	9	3768
2026-01-04 14:01:08.08	261.71	23.76	-24.2	-24.8	18.4	0.00e+00	0	43	102	1048576	9	3889
2026-01-04 14:01:09.09	262.00	23.78	-24.2	-24.9	18.4	0.00e+00	0	43	102	1048576	9	3910
2026-01-04 14:01:10.10	262.28	23.80	-24.2	-25.0	18.3	0.00e+00	0	43	102	1048576	9	3927
2026-01-04 14:01:11.10	262.56	23.83	-24.1	-24.8	18.5	0.00e+00	0	43	102	1048576	9	3877
2026-01-04 14:01:12.11	262.84	23.85	-24.2	-24.8	18.4	0.00e+00	0	43	102	1048576	9	3892
2026-01-04 14:01:13.11	263.12	23.87	-24.1	-24.7	18.5	0.00e+00	0	43	102	1048576	9	3863
2026-01-04 14:01:14.12	263.41	23.89	-24.2	-24.9	18.4	0.00e+00	0	43	102	1048576	9	3917
2026-01-04 14:01:15.13	263.69	23.91	-24.6	-25.8	17.9	0.00e+00	0	43	102	1048576	9	4125
2026-01-04 14:01:16.14	263.98	23.92	-24.3	-25.1	18.3	0.00e+00	0	43	102	1048576	9	3964
2026-01-04 14:01:17.15	264.26	23.94	-24.0	-24.6	18.6	0.00e+00	0	43	102	1048576	9	3832
2026-01-04 14:01:18.16	264.55	23.96	-23.8	-24.0	18.8	0.00e+00	0	43	102	1048576	9	3711
2026-01-04 14:01:19.17	264.83	23.97	-23.7	-24.3	18.9	0.00e+00	0	43	102	1048576	8	3880
2026-01-04 14:01:20.18	265.12	23.99	-23.7	-24.4	18.9	0.00e+00	0	43	102	1048576	8	3905
2026-01-04 14:01:21.19	265.41	24.00	-24.0	-25.0	18.6	0.00e+00	0	43	102	1048576	8	4038
2026-01-04 14:01:22.20	265.69	24.02	-24.1	-25.3	18.4	0.00e+00	0	43	102	1048576	8	4112
2026-01-04 14:01:23.20	265.98	24.03	-24.2	-25.5	18.3	0.00e+00	0	43	102	1048576	8	4182
2026-01-04 14:01:24.21	266.26	24.04	-24.1	-25.3	18.5	0.00e+00	0	43	102	1048576	8	4115
2026-01-04 14:01:25.22	266.55	24.06	-24.0	-25.0	18.6	0.00e+00	0	43	102	1048576	8	4055
2026-01-04 14:01:26.22	266.83	24.07	-24.0	-25.0	18.6	0.00e+00	0	43	102	1048576	8	4041
2026-01-04 14:01:27.23	267.12	24.08	-24.1	-25.3	18.4	4.50e-06	0	43	102	1048576	8	4114
2026-01-04 14:01:28.24	267.41	24.09	-24.1	-25.2	18.5	0.00e+00	0	43	102	1048576	8	4080
2026-01-04 14:01:29.24	267.69	24.10	-24.2	-25.3	18.4	0.00e+00	0	43	102	1048576	8	4126
2026-01-04 14:01:30.25	267.98	24.10	-24.1	-25.2	18.5	0.00e+00	0	43	102	1048576	8	4082
2026-01-04 14:01:31.26	268.27	24.11	-24.1	-25.3	18.4	0.00e+00	0	43	102	1048576	8	4113
2026-01-04 14:01:32.27	268.56	24.12	-24.2	-25.5	18.3	0.00e+00	0	43	102	1048576	8	4167
2026-01-04 14:01:33.28	268.85	24.12	-24.1	-25.1	18.5	0.00e+00	0	43	102	1048576	8	4078
2026-01-04 14:01:34.28	269.13	24.13	-24.0	-25.1	18.5	0.00e+00	0	43	102	1048576	8	4066
2026-01-04 14:01:35.29	269.42	24.13	-24.0	-25.0	18.6	0.00e+00	0	43	102	1048576	8	4032
2026-01-04 14:01:36.30	269.71	24.14	-23.8	-24.5	18.8	0.00e+00	0	43	102	1048576	8	3920
2026-01-04 14:01:37.31	270.00	24.14	-23.7	-24.4	18.9	0.00e+00	0	43	102	1048576	8	3900
2026-01-04 14:01:38.32	270.29	24.14	-23.8	-24.6	18.8	0.00e+00	0	43	102	1048576	8	3934
2026-01-04 14:01:39.33	270.58	24.14	-23.9	-24.7	18.7	0.00e+00	0	43	102	1048576	8	3974
2026-01-04 14:01:40.34	270.86	24.14	-23.9	-24.7	18.7	0.00e+00	0	43	102	1048576	8	3977
2026-01-04 14:01:41.35	271.15	24.14	-23.9	-24.8	18.7	0.00e+00	0	43	102	1048576	8	4001
2026-01-04 14:01:42.35	271.44	24.14	-23.9	-24.7	18.7	0.00e+00	0	43	102	1048576	8	3972
2026-01-04 14:01:43.36	271.73	24.14	-23.8	-24.7	18.8	0.00e+00	0	43	102	1048576	8	3967
2026-01-04 14:01:44.37	272.02	24.14	-23.9	-24.9	18.6	0.00e+00	0	43	102	1048576	8	4016
2026-01-04 14:01:45.38	272.30	24.13	-23.8	-24.7	18.7	0.00e+00	0	43	102	1048576	8	3972
2026-01-04 14:01:46.38	272.59	24.13	-23.9	-24.8	18.7	0.00e+00	0	43	102	1048576	8	3998
2026-01-04 14:01:47.39	272.88	24.13	-24.0	-24.9	18.6	0.00e+00	0	43	102	1048576	8	4024
2026-01-04 14:01:48.39	273.16	24.12	-23.8	-24.7	18.8	0.00e+00	0	43	102	1048576	8	3966
2026-01-04 14:01:49.39	273.45	24.12	-23.9	-24.9	18.7	0.00e+00	0	43	102	1048576	8	4008
2026-01-04 14:01:50.39	273.73	24.11	-23.9	-24.8	18.7	0.00e+00	0	43	102	1048576	8	3990
2026-01-04 14:01:51.40	274.02	24.10	-23.9	-24.9	18.6	0.00e+00	0	43	102	1048576	8	4026
2026-01-04 14:01:52.41	274.31	24.09	-23.9	-24.8	18.7	0.00e+00	0	43	102	1048576	8	4003
2026-01-04 14:01:53.42	274.60	24.08	-24.0	-25.0	18.6	0.00e+00	0	43	102	1048576	8	4051
2026-01-04 14:01:54.42	274.88	24.07	-24.0	-25.1	18.6	0.00e+00	0	43	102	1048576	8	4054
2026-01-04 14:01:55.43	275.17	24.06	-23.8	-24.7	18.7	0.00e+00	0	43	102	1048576	8	3957
2026-01-04 14:01:56.43	275.45	24.05	-23.8	-24.6	18.8	0.00e+00	0	43	102	1048576	8	3949
2026-01-04 14:01:57.43	275.74	24.04	-23.8	-24.6	18.8	0.00e+00	0	43	102	1048576	8	3956
2026-01-04 14:01:58.44	276.02	24.03	-23.9	-24.7	18.7	0.00e+00	0	43	102	1048576	8	3970
2026-01-04 14:01:59.45	276.31	24.01	-23.9	-24.9	18.7	0.00e+00	0	43	102	1048576	8	4008
2026-01-04 14:02:00.45	276.59	24.00	-23.9	-24.9	18.6	0.00e+00	0	43	102	1048576	8	4017
2026-01-04 14:02:01.45	276.88	23.99	-24.1	-25.1	18.5	0.00e+00	0	43	102	1048576	8	4077
2026-01-04 14:02:02.46	277.16	23.97	-24.1	-25.1	18.5	0.00e+00	0	43	102	1048576	8	4081
2026-01-04 14:02:03.46	277.45	23.95	-23.9	-24.9	18.6	0.00e+00	0	43	102	1048576	8	4013
2026-01-04 14:02:04.46	277.73	23.94	-24.0	-25.0	18.6	0.00e+00	0	43	102	1048576	8	4035
2026-01-04 14:02:05.47	278.01	23.92	-24.1	-25.2	18.5	0.00e+00	0	43	102	1048576	8	4082
2026-01-04 14:02:06.48	278.30	23.90	-24.1	-25.2	18.5	0.00e+00	0	43	102	1048576	8	4087
2026-01-04 14:02:07.48	278.58	23.88	-24.1	-25.3	18.5	0.00e+00	0	43	102	1048576	8	4107
2026-01-04 14:02:08.49	278.86	23.86	-24.3	-25.6	18.3	0.00e+00	0	43	102	1048576	8	4198
2026-01-04 14:02:09.50	279.14	23.84	-24.3	-25.7	18.2	0.00e+00	0	43	102	1048576	8	4209
2026-01-04 14:02:10.50	279.42	23.82	-24.0	-25.1	18.6	0.00e+00	0	43	102	1048576	8	4056
2026-01-04 14:02:11.51	279.71	23.80	-24.0	-24.9	18.6	0.00e+00	0	43	102	1048576	8	4021
2026-01-04 14:02:12.51	279.99	23.78	-23.9	-24.8	18.7	0.00e+00	0	43	102	1048576	8	3997
2026-01-04 14:02:13.52	280.27	23.75	-24.0	-25.1	18.6	0.00e+00	0	43	102	1048576	8	4062
2026-01-04 14:02:14.53	280.55	23.73	-24.0	-25.0	18.6	0.00e+00	0	43	102	1048576	8	4051
2026-01-04 14:02:15.54	280.83	23.70	-24.0	-25.0	18.6	0.00e+00	0	43	102	1048576	8	4039
2026-01-04 14:02:16.54	281.11	23.68	-24.0	-25.0	18.6	0.00e+00	0	43	102	1048576	8	4036
2026-01-04 14:02:17.55	281.39	23.65	-23.9	-24.8	18.7	0.00e+00	0	43	102	1048576	8	3999
2026-01-04 14:02:18.56	281.67	23.63	-24.0	-25.0	18.6	0.00e+00	0	43	102	1048576	8	4038
2026-01-04 14:02:19.57	281.95	23.60	-24.1	-25.2	18.5	0.00e+00	0	43	102	1048576	8	4102
2026-01-04 14:02:20.57	282.22	23.57	-24.2	-25.4	18.4	0.00e+00	0	43	102	1048576	8	4135
2026-01-04 14:02:21.57	282.50	23.54	-24.2	-25.4	18.4	0.00e+00	0	43	102	1048576	8	4134
2026-01-04 14:02:22.58	282.78	23.51	-24.0	-25.0	18.6	0.00e+00	0	43	102	1048576	8	4049
2026-01-04 14:02:23.59	283.05	23.48	-24.0	-25.0	18.6	0.00e+00	0	43	102	1048576	8	4034
2026-01-04 14:02:24.59	283.33	23.45	-24.2	-25.4	18.4	0.00e+00	0	43	102	1048576	8	4136
2026-01-04 14:02:25.60	283.60	23.42	-24.2	-25.4	18.4	0.00e+00	0	43	102	1048576	8	4139
2026-01-04 14:02:26.60	283.87	23.39	-24.0	-25.1	18.6	0.00e+00	0	43	102	1048576	8	4058
2026-01-04 14:02:27.60	284.15	23.36	-24.0	-25.1	18.5	0.00e+00	0	43	102	1048576	8	4065
2026-01-04 14:02:28.61	284.42	23.33	-24.1	-25.1	18.5	0.00e+00	0	43	102	1048576	8	4076
2026-01-04 14:02:29.61	284.69	23.29	-24.1	-25.3	18.5	0.00e+00	0	43	102	1048576	8	4121
2026-01-04 14:02:30.62	284.97	23.26	-24.3	-25.6	18.3	0.00e+00	0	43	102	1048576	8	4198
2026-01-04 14:02:31.62	285.24	23.22	-24.3	-25.6	18.3	0.00e+00	0	43	102	1048576	8	4187
2026-01-04 14:02:32.63	285.51	23.19	-24.2	-25.5	18.3	0.00e+00	0	43	102	1048576	8	4171
2026-01-04 14:02:33.64	285.78	23.15	-24.3	-25.7	18.3	0.00e+00	0	43	102	1048576	8	4211
2026-01-04 14:02:34.65	286.05	23.11	-24.3	-25.7	18.3	0.00e+00	0	43	102	1048576	8	4213
2026-01-04 14:02:35.65	286.32	23.08	-24.4	-25.8	18.2	0.00e+00	0	43	102	1048576	8	4254
2026-01-04 14:02:36.66	286.59	23.04	-24.4	-25.8	18.2	0.00e+00	0	43	102	1048576	8	4241
2026-01-04 14:02:37.67	286.85	23.00	-24.3	-25.7	18.2	0.00e+00	0	43	102	1048576	8	4226
2026-01-04 14:02:38.67	287.12	22.96	-24.3	-25.7	18.3	0.00e+00	0	43	102	1048576	8	4211
2026-01-04 14:02:39.67	287.38	22.92	-24.3	-25.6	18.3	0.00e+00	0	43	102	1048576	8	4196
2026-01-04 14:02:40.68	287.65	22.88	-24.4	-25.9	18.1	0.00e+00	0	43	102	1048576	8	4267
2026-01-04 14:02:41.68	287.91	22.84	-24.5	-25.6	18.0	0.00e+00	0	43	102	1048576	9	4075
2026-01-04 14:02:42.69	288.18	22.80	-24.6	-25.7	18.0	0.00e+00	0	43	102	1048576	9	4114
2026-01-04 14:02:43.69	288.44	22.76	-24.6	-25.8	17.9	0.00e+00	0	43	102	1048576	9	4117
2026-01-04 14:02:44.70	288.71	22.72	-24.7	-25.9	17.9	0.00e+00	0	43	102	1048576	9	4155
2026-01-04 14:02:45.71	288.97	22.67	-24.6	-25.9	17.9	0.00e+00	0	43	102	1048576	9	4151
2026-01-04 14:02:46.70	289.23	22.63	-24.7	-25.9	17.8	0.00e+00	0	43	102	1048576	9	4167
2026-01-04 14:02:47.71	289.49	22.59	-24.7	-26.1	17.8	0.00e+00	0	43	102	1048576	9	4199
2026-01-04 14:02:48.72	289.75	22.54	-24.6	-25.8	17.9	0.00e+00	0	43	102	1048576	9	4128
2026-01-04 14:02:49.73	290.01	22.50	-24.5	-25.5	18.1	0.00e+00	0	43	102	1048576	9	4056
2026-01-04 14:02:50.73	290.27	22.45	-24.5	-25.5	18.1	0.00e+00	0	43	102	1048576	9	4055
2026-01-04 14:02:51.74	290.53	22.41	-24.5	-25.5	18.1	0.00e+00	0	43	102	1048576	9	4064
2026-01-04 14:02:52.74	290.78	22.36	-24.6	-25.7	17.9	0.00e+00	0	43	102	1048576	9	4112
2026-01-04 14:02:53.75	291.04	22.31	-24.6	-25.8	18.0	0.00e+00	0	43	102	1048576	9	4120
2026-01-04 14:02:54.75	291.29	22.27	-24.7	-26.0	17.8	0.00e+00	0	43	102	1048576	9	4170
2026-01-04 14:02:55.76	291.55	22.22	-24.6	-25.7	18.0	0.00e+00	0	43	102	1048576	9	4113
2026-01-04 14:02:56.77	291.80	22.17	-24.4	-25.4	18.1	0.00e+00	0	43	102	1048576	9	4036
2026-01-04 14:02:57.77	292.06	22.12	-24.4	-25.4	18.1	0.00e+00	0	43	102	1048576	9	4028
2026-01-04 14:02:58.78	292.31	22.07	-24.4	-25.4	18.2	0.00e+00	0	43	102	1048576	9	4020
2026-01-04 14:02:59.78	292.56	22.02	-24.4	-25.4	18.1	0.00e+00	0	43	102	1048576	9	4030
2026-01-04 14:03:00.79	292.81	21.97	-24.5	-25.6	18.0	0.00e+00	0	43	102	1048576	9	4077
2026-01-04 14:03:01.80	293.06	21.92	-24.6	-25.7	18.0	0.00e+00	0	43	102	1048576	9	4105
2026-01-04 14:03:02.80	293.31	21.87	-24.6	-25.9	17.9	0.00e+00	0	43	102	1048576	9	4147
2026-01-04 14:03:03.80	293.56	21.82	-24.7	-25.9	17.9	0.00e+00	0	43	102	1048576	9	4156
2026-01-04 14:03:04.80	293.80	21.77	-24.8	-26.2	17.7	0.00e+00	0	43	102	1048576	9	4233
2026-01-04 14:03:05.81	294.05	21.71	-24.7	-25.9	17.9	0.00e+00	0	43	102	1048576	9	4160
2026-01-04 14:03:06.81	294.29	21.66	-24.7	-26.0	17.8	0.00e+00	0	43	102	1048576	9	4191
2026-01-04 14:03:07.81	294.54	21.61	-24.7	-26.0	17.8	0.00e+00	0	43	102	1048576	9	4169
2026-01-04 14:03:08.82	294.78	21.56	-24.6	-25.9	17.9	0.00e+00	0	43	102	1048576	9	4142
2026-01-04 14:03:09.82	295.03	21.50	-24.7	-26.1	17.8	0.00e+00	0	43	102	1048576	9	4197
2026-01-04 14:03:10.83	295.27	21.45	-24.7	-26.0	17.8	0.00e+00	0	43	102	1048576	9	4175
2026-01-04 14:03:11.84	295.51	21.39	-24.7	-26.0	17.8	0.00e+00	0	43	102	1048576	9	4179
2026-01-04 14:03:12.84	295.75	21.34	-24.8	-26.2	17.7	0.00e+00	0	43	102	1048576	9	4222
2026-01-04 14:03:13.85	295.99	21.28	-24.9	-26.5	17.6	0.00e+00	0	43	102	1048576	9	4308
2026-01-04 14:03:14.85	296.23	21.23	-24.8	-26.3	17.7	0.00e+00	0	43	102	1048576	9	4254
2026-01-04 14:03:15.86	296.47	21.17	-24.9	-26.3	17.6	0.00e+00	0	43	102	1048576	9	4266
2026-01-04 14:03:16.87	296.71	21.11	-25.0	-26.6	17.5	0.00e+00	0	43	102	1048576	9	4325
2026-01-04 14:03:17.88	296.95	21.05	-25.1	-26.3	17.4	0.00e+00	0	43	102	1048576	10	4134
2026-01-04 14:03:18.89	297.18	21.00	-25.1	-26.4	17.4	0.00e+00	0	43	102	1048576	10	4171
2026-01-04 14:03:19.90	297.42	20.94	-25.0	-26.2	17.5	0.00e+00	0	43	102	1048576	10	4108
2026-01-04 14:03:20.90	297.65	20.88	-25.1	-26.4	17.4	0.00e+00	0	43	102	1048576	10	4178
2026-01-04 14:03:21.90	297.88	20.82	-24.9	-26.0	17.6	0.00e+00	0	43	102	1048576	10	4065
2026-01-04 14:03:22.90	298.11	20.76	-24.8	-25.7	17.7	0.00e+00	0	43	102	1048576	10	4002
2026-01-04 14:03:23.91	298.35	20.71	-24.9	-25.8	17.7	0.00e+00	0	43	102	1048576	10	4025
2026-01-04 14:03:24.91	298.58	20.65	-25.0	-26.0	17.6	0.00e+00	0	43	102	1048576	10	4080
2026-01-04 14:03:25.92	298.81	20.59	-25.0	-26.2	17.5	0.00e+00	0	43	102	1048576	10	4115
2026-01-04 14:03:26.93	299.04	20.53	-25.1	-26.4	17.4	0.00e+00	0	43	102	1048576	10	4176
2026-01-04 14:03:27.93	299.26	20.47	-25.1	-26.3	17.4	0.00e+00	0	43	102	1048576	10	4138
2026-01-04 14:03:28.94	299.49	20.40	-25.1	-26.4	17.4	0.00e+00	0	43	102	1048576	10	4162
2026-01-04 14:03:29.95	299.72	20.34	-25.2	-26.5	17.3	0.00e+00	0	43	102	1048576	10	4192
2026-01-04 14:03:30.95	299.94	20.28	-24.9	-25.9	17.6	0.00e+00	0	43	102	1048576	10	4044
2026-01-04 14:03:31.96	300.17	20.22	-24.8	-25.7	17.7	0.00e+00	0	43	102	1048576	10	3985
2026-01-04 14:03:32.97	300.39	20.16	-24.8	-25.7	17.7	0.00e+00	0	43	102	1048576	10	3990
2026-01-04 14:03:33.98	300.61	20.10	-24.8	-25.7	17.7	0.00e+00	0	43	102	1048576	10	3985
2026-01-04 14:03:34.98	300.84	20.03	-25.0	-26.1	17.5	0.00e+00	0	43	102	1048576	10	4083
2026-01-04 14:03:35.99	301.06	19.97	-25.1	-26.3	17.4	0.00e+00	0	43	102	1048576	10	4148
2026-01-04 14:03:37.00	301.28	19.91	-25.3	-26.7	17.2	0.00e+00	0	43	102	1048576	10	4252
2026-01-04 14:03:38.00	301.50	19.85	-25.2	-26.6	17.2	0.00e+00	0	43	102	1048576	10	4236
2026-01-04 14:03:39.00	301.71	19.78	-25.3	-26.7	17.1	0.00e+00	0	43	102	1048576	10	4259
2026-01-04 14:03:40.01	301.93	19.72	-25.2	-26.6	17.2	0.00e+00	0	43	102	1048576	10	4226
2026-01-04 14:03:41.02	302.15	19.66	-25.3	-26.7	17.2	0.00e+00	0	43	102	1048576	10	4246
2026-01-04 14:03:42.03	302.36	19.59	-25.2	-26.5	17.3	0.00e+00	0	43	102	1048576	10	4183
2026-01-04 14:03:43.04	302.58	19.53	-25.2	-26.6	17.2	0.00e+00	0	43	102	1048576	10	4219
2026-01-04 14:03:44.05	302.80	19.46	-25.2	-26.5	17.3	0.00e+00	0	43	102	1048576	10	4200
2026-01-04 14:03:45.06	303.01	19.40	-25.3	-26.8	17.1	0.00e+00	0	43	102	1048576	10	4283
2026-01-04 14:03:46.07	303.22	19.33	-25.3	-26.7	17.2	0.00e+00	0	43	102	1048576	10	4242
2026-01-04 14:03:47.07	303.43	19.27	-25.3	-26.8	17.1	0.00e+00	0	43	102	1048576	10	4282
2026-01-04 14:03:48.08	303.64	19.20	-25.5	-26.8	16.8	0.00e+00	0	43	102	1048576	11	4152
2026-01-04 14:03:49.09	303.85	19.14	-25.6	-26.9	16.8	0.00e+00	0	43	102	1048576	11	4176
2026-01-04 14:03:50.09	304.06	19.07	-25.7	-27.2	16.7	0.00e+00	0	43	102	1048576	11	4257
2026-01-04 14:03:51.10	304.27	19.00	-25.5	-26.7	16.9	0.00e+00	0	43	102	1048576	11	4131
2026-01-04 14:03:52.11	304.48	18.94	-25.4	-26.6	17.0	0.00e+00	0	43	102	1048576	11	4096
2026-01-04 14:03:53.12	304.68	18.87	-25.4	-26.5	17.0	0.00e+00	0	43	102	1048576	11	4090
2026-01-04 14:03:54.12	304.89	18.80	-25.6	-26.9	16.8	0.00e+00	0	43	102	1048576	11	4193
2026-01-04 14:03:55.13	305.09	18.74	-25.5	-26.7	16.9	0.00e+00	0	43	102	1048576	11	4148
2026-01-04 14:03:56.14	305.30	18.67	-25.6	-26.9	16.8	0.00e+00	0	43	102	1048576	11	4180
2026-01-04 14:03:57.14	305.50	18.60	-25.7	-27.1	16.7	0.00e+00	0	43	102	1048576	11	4243
2026-01-04 14:03:58.15	305.70	18.54	-25.6	-27.0	16.8	1.10e-06	0	43	102	1048576	11	4203
2026-01-04 14:03:59.16	305.90	18.47	-25.7	-27.1	16.7	0.00e+00	0	43	102	1048576	11	4248
2026-01-04 14:04:00.17	306.10	18.40	-25.8	-27.4	16.5	0.00e+00	0	43	102	1048576	11	4312
2026-01-04 14:04:01.17	306.30	18.33	-25.8	-27.3	16.5	0.00e+00	0	43	102	1048576	11	4291
2026-01-04 14:04:02.18	306.50	18.27	-25.9	-27.5	16.4	0.00e+00	0	43	102	1048576	11	4357
2026-01-04 14:04:03.18	306.69	18.20	-26.0	-27.8	16.3	0.00e+00	0	43	102	1048576	11	4416
2026-01-04 14:04:04.19	306.89	18.13	-26.0	-27.4	16.2	0.00e+00	0	43	102	1048576	12	4197
2026-01-04 14:04:05.20	307.09	18.06	-26.1	-27.6	16.0	0.00e+00	0	43	102	1048576	12	4261
2026-01-04 14:04:06.20	307.28	17.99	-26.0	-27.3	16.2	0.00e+00	0	43	102	1048576	12	4176
2026-01-04 14:04:07.21	307.47	17.93	-26.0	-27.3	16.2	0.00e+00	0	43	102	1048576	12	4177
2026-01-04 14:04:08.22	307.67	17.86	-26.0	-27.3	16.2	0.00e+00	0	43	102	1048576	12	4173
2026-01-04 14:04:09.23	307.86	17.79	-26.1	-27.4	16.1	0.00e+00	0	43	102	1048576	12	4218
2026-01-04 14:04:10.23	308.05	17.72	-26.0	-27.2	16.3	0.00e+00	0	43	102	1048576	12	4162
2026-01-04 14:04:11.23	308.24	17.65	-25.9	-27.2	16.3	0.00e+00	0	43	102	1048576	12	4157
2026-01-04 14:04:12.24	308.43	17.58	-26.0	-27.4	16.2	0.00e+00	0	43	102	1048576	12	4210
2026-01-04 14:04:13.25	308.62	17.51	-26.0	-27.3	16.2	0.00e+00	0	43	102	1048576	12	4181
2026-01-04 14:04:14.25	308.81	17.44	-26.0	-27.4	16.2	1.10e-06	0	43	102	1048576	12	4214
2026-01-04 14:04:15.26	308.99	17.37	-26.0	-27.2	16.3	0.00e+00	0	43	102	1048576	12	4156
2026-01-04 14:04:16.27	309.18	17.30	-26.1	-27.4	16.1	0.00e+00	0	43	102	1048576	12	4219
2026-01-04 14:04:17.27	309.37	17.24	-25.8	-26.8	16.5	0.00e+00	0	43	102	1048576	12	4050
2026-01-04 14:04:18.28	309.55	17.17	-25.6	-26.5	16.6	0.00e+00	0	43	102	1048576	12	3975
2026-01-04 14:04:19.29	309.74	17.10	-25.6	-26.4	16.7	0.00e+00	0	43	102	1048576	12	3961
2026-01-04 14:04:20.30	309.92	17.03	-25.7	-26.6	16.6	0.00e+00	0	43	102	1048576	12	3992
2026-01-04 14:04:21.31	310.10	16.96	-25.8	-26.8	16.5	0.00e+00	0	43	102	1048576	12	4056
2026-01-04 14:04:22.31	310.28	16.89	-25.9	-27.1	16.3	0.00e+00	0	43	102	1048576	12	4125
2026-01-04 14:04:23.31	310.46	16.82	-25.9	-27.0	16.3	0.00e+00	0	43	102	1048576	12	4110
2026-01-04 14:04:24.32	310.64	16.75	-26.0	-27.2	16.2	0.00e+00	0	43	102	1048576	12	4161
2026-01-04 14:04:25.33	310.82	16.68	-25.9	-27.0	16.3	0.00e+00	0	43	102	1048576	12	4120
2026-01-04 14:04:26.33	311.00	16.61	-25.9	-27.0	16.3	0.00e+00	0	43	102	1048576	12	4114
2026-01-04 14:04:27.34	311.17	16.54	-25.8	-27.0	16.3	0.00e+00	0	43	102	1048576	12	4099
2026-01-04 14:04:28.34	311.35	16.47	-25.9	-27.1	16.3	0.00e+00	0	43	102	1048576	12	4141
2026-01-04 14:04:29.34	311.52	16.40	-26.0	-27.2	16.2	0.00e+00	0	43	102	1048576	12	4158
2026-01-04 14:04:30.35	311.70	16.33	-25.8	-26.9	16.4	0.00e+00	0	43	102	1048576	12	4070
2026-01-04 14:04:31.36	311.87	16.26	-25.7	-26.8	16.5	0.00e+00	0	43	102	1048576	12	4044
2026-01-04 14:04:32.36	312.05	16.19	-25.8	-27.0	16.4	0.00e+00	0	43	102	1048576	12	4094
2026-01-04 14:04:33.37	312.22	16.12	-25.9	-27.1	16.3	0.00e+00	0	43	102	1048576	12	4139
2026-01-04 14:04:34.38	312.39	16.04	-26.1	-27.6	16.0	0.00e+00	0	43	102	1048576	12	4265
2026-01-04 14:04:35.39	312.56	15.97	-26.2	-27.8	15.9	0.00e+00	0	43	102	1048576	12	4320
2026-01-04 14:04:36.39	312.73	15.90	-26.3	-28.0	15.8	0.00e+00	0	43	102	1048576	12	4386
2026-01-04 14:04:37.40	312.90	15.83	-26.4	-28.2	15.7	0.00e+00	0	43	102	1048576	12	4435
2026-01-04 14:04:38.40	313.07	15.76	-26.3	-28.1	15.7	0.00e+00	0	43	102	1048576	12	4411
2026-01-04 14:04:39.41	313.24	15.69	-26.4	-28.2	15.6	0.00e+00	0	43	102	1048576	12	4440
2026-01-04 14:04:40.42	313.41	15.62	-26.3	-28.1	15.7	0.00e+00	0	43	102	1048576	12	4386
2026-01-04 14:04:41.42	313.57	15.55	-26.3	-28.0	15.8	0.00e+00	0	43	102	1048576	12	4369
2026-01-04 14:04:42.43	313.74	15.48	-26.2	-27.8	15.8	0.00e+00	0	43	102	1048576	12	4324
2026-01-04 14:04:43.43	313.90	15.41	-26.1	-27.6	16.0	0.00e+00	0	43	102	1048576	12	4259
2026-01-04 14:04:44.44	314.06	15.34	-26.1	-27.5	16.0	0.00e+00	0	43	102	1048576	12	4242
2026-01-04 14:04:45.45	314.23	15.27	-26.1	-27.5	16.0	0.00e+00	0	43	102	1048576	12	4246
2026-01-04 14:04:46.45	314.39	15.20	-26.2	-27.7	15.9	0.00e+00	0	43	102	1048576	12	4298
2026-01-04 14:04:47.47	314.55	15.13	-26.3	-28.1	15.7	0.00e+00	0	43	102	1048576	12	4393
2026-01-04 14:04:48.47	314.71	15.06	-26.4	-28.1	15.7	0.00e+00	0	43	102	1048576	12	4404
2026-01-04 14:04:49.47	314.87	14.99	-26.3	-28.0	15.7	0.00e+00	0	43	102	1048576	12	4371
2026-01-04 14:04:50.48	315.03	14.91	-26.3	-28.0	15.7	0.00e+00	0	43	102	1048576	12	4385
2026-01-04 14:04:51.49	315.19	14.84	-26.4	-28.1	15.6	0.00e+00	0	43	102	1048576	12	4407
2026-01-04 14:04:52.50	315.35	14.77	-26.3	-28.1	15.7	0.00e+00	0	43	102	1048576	12	4398
2026-01-04 14:04:53.50	315.51	14.70	-26.4	-28.2	15.6	0.00e+00	0	43	102	1048576	12	4438
2026-01-04 14:04:54.51	315.66	14.63	-26.5	-28.3	15.5	0.00e+00	0	43	102	1048576	12	4471
2026-01-04 14:04:55.51	315.82	14.56	-26.4	-28.3	15.5	0.00e+00	0	43	102	1048576	12	4455
2026-01-04 14:04:56.52	315.97	14.49	-26.5	-28.3	15.5	0.00e+00	0	43	102	1048576	12	4471
2026-01-04 14:04:57.53	316.13	14.42	-26.4	-28.2	15.6	0.00e+00	0	43	102	1048576	12	4431
2026-01-04 14:04:58.53	316.28	14.35	-26.4	-28.3	15.5	0.00e+00	0	43	102	1048576	12	4449
2026-01-04 14:04:59.54	316.44	14.28	-26.5	-28.4	15.5	0.00e+00	0	43	102	1048576	12	4486
2026-01-04 14:05:00.54	316.59	14.21	-26.7	-28.3	15.2	0.00e+00	0	43	102	1048576	13	4344
2026-01-04 14:05:01.55	316.74	14.14	-26.7	-28.4	15.2	0.00e+00	0	43	102	1048576	13	4361
2026-01-04 14:05:02.56	316.89	14.07	-26.5	-27.9	15.5	0.00e+00	0	43	102	1048576	13	4235
2026-01-04 14:05:03.57	317.04	14.00	-26.5	-28.0	15.4	0.00e+00	0	43	102	1048576	13	4267
2026-01-04 14:05:04.58	317.19	13.93	-26.6	-28.1	15.3	0.00e+00	0	43	102	1048576	13	4297
2026-01-04 14:05:05.59	317.34	13.85	-26.7	-28.4	15.2	0.00e+00	0	43	102	1048576	13	4365
2026-01-04 14:05:06.60	317.49	13.78	-26.7	-28.4	15.2	0.00e+00	0	43	102	1048576	13	4378
2026-01-04 14:05:07.60	317.64	13.71	-26.6	-28.2	15.3	0.00e+00	0	43	102	1048576	13	4310
2026-01-04 14:05:08.61	317.78	13.64	-26.7	-28.3	15.2	0.00e+00	0	43	102	1048576	13	4345
2026-01-04 14:05:09.61	317.93	13.57	-26.7	-28.5	15.1	0.00e+00	0	43	102	1048576	13	4405
2026-01-04 14:05:10.61	318.07	13.50	-26.8	-28.5	15.1	0.00e+00	0	43	102	1048576	13	4408
2026-01-04 14:05:11.62	318.22	13.43	-26.6	-28.1	15.3	0.00e+00	0	43	102	1048576	13	4303
2026-01-04 14:05:12.63	318.36	13.36	-26.6	-28.1	15.3	0.00e+00	0	43	102	1048576	13	4304
2026-01-04 14:05:13.62	318.50	13.29	-26.6	-28.1	15.3	1.10e-06	0	43	102	1048576	13	4283
2026-01-04 14:05:14.63	318.65	13.22	-26.7	-28.4	15.1	0.00e+00	0	43	102	1048576	13	4376
2026-01-04 14:05:15.64	318.79	13.15	-26.7	-28.4	15.1	0.00e+00	0	43	102	1048576	13	4369
2026-01-04 14:05:16.64	318.93	13.08	-26.5	-28.0	15.3	0.00e+00	0	43	102	1048576	13	4271
2026-01-04 14:05:17.64	319.07	13.01	-26.5	-27.9	15.4	0.00e+00	0	43	102	1048576	13	4228
2026-01-04 14:05:18.65	319.21	12.94	-26.5	-28.0	15.3	0.00e+00	0	43	102	1048576	13	4278
2026-01-04 14:05:19.67	319.35	12.87	-26.6	-28.1	15.3	0.00e+00	0	43	102	1048576	13	4296
2026-01-04 14:05:20.67	319.49	12.80	-26.7	-28.4	15.1	0.00e+00	0	43	102	1048576	13	4370
2026-01-04 14:05:21.68	319.63	12.73	-26.7	-28.3	15.2	0.00e+00	0	43	102	1048576	13	4339
2026-01-04 14:05:22.68	319.77	12.66	-26.7	-28.4	15.1	0.00e+00	0	43	102	1048576	13	4363
2026-01-04 14:05:23.69	319.90	12.59	-26.7	-28.3	15.1	0.00e+00	0	43	102	1048576	13	4355
2026-01-04 14:05:24.70	320.04	12.52	-26.8	-28.7	14.9	0.00e+00	0	43	102	1048576	13	4466
2026-01-04 14:05:25.70	320.17	12.46	-26.8	-28.6	15.0	0.00e+00	0	43	102	1048576	13	4445
2026-01-04 14:05:26.71	320.31	12.39	-26.8	-28.6	14.9	0.00e+00	0	43	102	1048576	13	4437
2026-01-04 14:05:27.72	320.44	12.32	-26.8	-28.6	14.9	0.00e+00	0	43	102	1048576	13	4445
2026-01-04 14:05:28.73	320.58	12.25	-26.9	-28.9	14.8	0.00e+00	0	43	102	1048576	13	4530
2026-01-04 14:05:29.74	320.71	12.18	-26.9	-28.9	14.8	0.00e+00	0	43	102	1048576	13	4510
2026-01-04 14:05:30.75	320.85	12.11	-27.0	-29.1	14.7	0.00e+00	0	43	102	1048576	13	4569
2026-01-04 14:05:31.76	320.98	12.04	-26.9	-28.5	14.8	2.20e-06	0	43	102	1048576	14	4286
2026-01-04 14:05:32.76	321.11	11.97	-27.0	-28.6	14.7	1.10e-06	0	43	102	1048576	14	4322
2026-01-04 14:05:33.77	321.24	11.90	-27.0	-28.5	14.7	0.00e+00	0	43	102	1048576	14	4295
2026-01-04 14:05:34.77	321.37	11.83	-27.1	-28.7	14.6	0.00e+00	0	43	102	1048576	14	4354
2026-01-04 14:05:35.78	321.50	11.76	-27.0	-28.6	14.6	0.00e+00	0	43	102	1048576	14	4335
2026-01-04 14:05:36.79	321.63	11.69	-27.0	-28.7	14.7	0.00e+00	0	43	102	1048576	14	4341
2026-01-04 14:05:37.80	321.76	11.62	-27.0	-28.7	14.6	0.00e+00	0	43	102	1048576	14	4347
2026-01-04 14:05:38.80	321.89	11.56	-27.1	-28.7	14.6	0.00e+00	0	43	102	1048576	14	4348
2026-01-04 14:05:39.81	322.01	11.49	-27.2	-29.0	14.4	1.10e-06	0	43	102	1048576	14	4436
2026-01-04 14:05:40.81	322.14	11.42	-27.4	-29.4	14.2	0.00e+00	0	43	102	1048576	14	4550
2026-01-04 14:05:41.81	322.27	11.35	-27.3	-29.2	14.3	3.40e-06	0	43	102	1048576	14	4504
2026-01-04 14:05:42.82	322.39	11.28	-27.3	-29.2	14.3	0.00e+00	0	43	102	1048576	14	4509
2026-01-04 14:05:43.82	322.52	11.21	-27.4	-29.5	14.1	3.40e-06	0	43	102	1048576	14	4596
2026-01-04 14:05:44.83	322.64	11.15	-27.4	-29.4	14.2	1.10e-06	0	43	102	1048576	14	4562
2026-01-04 14:05:45.84	322.77	11.08	-27.3	-29.3	14.2	1.10e-06	0	43	102	1048576	14	4523
2026-01-04 14:05:46.84	322.89	11.01	-27.3	-29.2	14.3	0.00e+00	0	43	102	1048576	14	4480
2026-01-04 14:05:47.85	323.01	10.94	-27.2	-29.0	14.4	0.00e+00	0	43	102	1048576	14	4447
2026-01-04 14:05:48.86	323.13	10.87	-27.4	-29.6	14.1	3.40e-06	0	43	102	1048576	14	4597
2026-01-04 14:05:49.86	323.26	10.81	-27.3	-29.2	14.3	3.40e-06	0	43	102	1048576	14	4498
2026-01-04 14:05:50.87	323.38	10.74	-27.1	-28.7	14.6	0.00e+00	0	43	102	1048576	14	4350
2026-01-04 14:05:51.88	323.50	10.67	-26.9	-28.3	14.7	0.00e+00	0	43	102	1048576	14	4248
2026-01-04 14:05:52.89	323.62	10.60	-27.0	-28.5	14.7	0.00e+00	0	43	102	1048576	14	4292
2026-01-04 14:05:53.89	323.74	10.54	-27.0	-28.6	14.6	0.00e+00	0	43	102	1048576	14	4306
2026-01-04 14:05:54.90	323.86	10.47	-27.1	-28.7	14.5	1.10e-06	0	43	102	1048576	14	4354
2026-01-04 14:05:55.91	323.98	10.40	-27.1	-28.9	14.5	1.10e-06	0	43	102	1048576	14	4397
2026-01-04 14:05:56.91	324.09	10.33	-27.2	-28.9	14.4	0.00e+00	0	43	102	1048576	14	4402
2026-01-04 14:05:57.92	324.21	10.27	-27.2	-29.1	14.3	0.00e+00	0	43	102	1048576	14	4463
2026-01-04 14:05:58.93	324.33	10.20	-27.2	-28.9	14.4	0.00e+00	0	43	102	1048576	14	4411
2026-01-04 14:05:59.94	324.45	10.13	-27.3	-29.3	14.1	0.00e+00	0	43	102	1048576	14	4532
2026-01-04 14:06:00.94	324.56	10.06	-27.3	-29.3	14.2	2.20e-06	0	43	102	1048576	14	4521
2026-01-04 14:06:01.95	324.68	10.00	-27.5	-29.6	14.0	5.70e-06	0	43	102	1048576	14	4628
2026-01-04 14:06:02.96	324.79	9.93	-27.4	-29.4	14.1	0.00e+00	0	43	102	1048576	14	4554
2026-01-04 14:06:03.97	324.91	9.86	-27.2	-29.1	14.2	3.40e-06	0	43	102	1048576	14	4475
2026-01-04 14:06:04.98	325.02	9.80	-27.3	-29.4	14.1	2.20e-06	0	43	102	1048576	14	4555
2026-01-04 14:06:05.98	325.14	9.73	-27.3	-29.3	14.1	1.10e-06	0	43	102	1048576	14	4539
2026-01-04 14:06:06.99	325.25	9.66	-27.3	-29.4	14.1	0.00e+00	0	43	102	1048576	14	4564
2026-01-04 14:06:08.00	325.36	9.60	-27.4	-29.5	14.0	0.00e+00	0	43	102	1048576	14	4595
2026-01-04 14:06:09.00	325.47	9.53	-27.3	-29.3	14.1	0.00e+00	0	43	102	1048576	14	4540
2026-01-04 14:06:10.01	325.59	9.46	-27.2	-29.1	14.2	0.00e+00	0	43	102	1048576	14	4485
2026-01-04 14:06:11.02	325.70	9.40	-27.3	-29.2	14.2	0.00e+00	0	43	102	1048576	14	4496
2026-01-04 14:06:12.03	325.81	9.33	-27.3	-29.4	14.1	1.10e-06	0	43	102	1048576	14	4552
2026-01-04 14:06:13.03	325.92	9.27	-27.3	-29.3	14.1	1.10e-06	0	43	102	1048576	14	4517
2026-01-04 14:06:14.03	326.03	9.20	-27.4	-29.6	14.0	2.20e-06	0	43	102	1048576	14	4609
2026-01-04 14:06:15.03	326.13	9.13	-27.3	-29.3	14.1	0.00e+00	0	43	102	1048576	14	4535
2026-01-04 14:06:16.04	326.24	9.07	-27.3	-29.3	14.1	1.10e-06	0	43	102	1048576	14	4532
2026-01-04 14:06:17.05	326.35	9.00	-27.4	-29.5	14.0	0.00e+00	0	43	102	1048576	14	4577
2026-01-04 14:06:18.05	326.46	8.94	-27.5	-29.6	13.9	2.20e-06	0	43	102	1048576	14	4623
2026-01-04 14:06:19.06	326.57	8.87	-27.3	-29.4	14.0	1.10e-06	0	43	102	1048576	14	4547
2026-01-04 14:06:20.07	326.67	8.81	-27.4	-29.4	14.0	1.10e-06	0	43	102	1048576	14	4569
2026-01-04 14:06:21.08	326.78	8.74	-27.4	-29.6	13.9	3.40e-06	0	44	102	1048576	14	4614
2026-01-04 14:06:22.09	326.89	8.68	-27.6	-29.5	13.6	2.20e-06	0	43	102	1048576	15	4475
2026-01-04 14:06:23.10	326.99	8.61	-27.8	-30.0	13.3	1.60e-05	0	43	102	1048576	15	4621
2026-01-04 14:06:24.10	327.10	8.55	-27.7	-29.6	13.6	5.70e-06	0	43	102	1048576	15	4509
2026-01-04 14:06:25.11	327.20	8.48	-27.6	-29.5	13.7	3.40e-06	0	43	102	1048576	15	4475
2026-01-04 14:06:26.11	327.31	8.42	-27.7	-29.7	13.5	3.40e-06	0	43	102	1048576	15	4537
2026-01-04 14:06:27.12	327.41	8.35	-27.6	-29.5	13.6	8.00e-06	0	43	102	1048576	15	4482
2026-01-04 14:06:28.13	327.51	8.29	-27.8	-30.1	13.3	1.25e-05	0	43	102	1048576	15	4656
2026-01-04 14:06:29.14	327.62	8.22	-27.7	-29.7	13.5	2.20e-06	0	43	102	1048576	15	4551
2026-01-04 14:06:30.14	327.72	8.16	-27.8	-29.9	13.4	8.00e-06	0	43	102	1048576	15	4605
2026-01-04 14:06:31.15	327.82	8.09	-27.9	-30.1	13.2	6.80e-06	0	43	102	1048576	15	4679
2026-01-04 14:06:32.15	327.92	8.03	-27.8	-30.1	13.3	1.02e-05	0	43	102	1048576	15	4656
2026-01-04 14:06:33.17	328.02	7.96	-27.9	-30.2	13.1	2.74e-05	0	43	102	1048576	15	4707
2026-01-04 14:06:34.17	328.12	7.90	-28.2	-30.3	13.0	2.05e-05	0	43	102	1048576	16	4606
2026-01-04 14:06:35.18	328.22	7.84	-28.2	-30.4	12.9	2.86e-05	0	43	102	1048576	16	4626
2026-01-04 14:06:36.18	328.32	7.77	-28.2	-30.4	12.9	3.20e-05	0	43	102	1048576	16	4641
2026-01-04 14:06:37.19	328.42	7.71	-28.3	-30.6	12.8	3.89e-05	0	43	102	1048576	16	4694
2026-01-04 14:06:38.20	328.52	7.64	-28.1	-30.2	13.0	2.74e-05	0	43	102	1048576	16	4590
2026-01-04 14:06:39.21	328.62	7.58	-28.2	-30.5	12.9	3.66e-05	0	43	102	1048576	16	4664
2026-01-04 14:06:40.21	328.72	7.52	-28.2	-30.4	12.9	3.20e-05	0	43	102	1048576	16	4643
2026-01-04 14:06:41.22	328.82	7.45	-28.3	-30.5	12.8	4.57e-05	0	43	102	1048576	16	4683
2026-01-04 14:06:42.22	328.91	7.39	-28.2	-30.4	12.9	2.40e-05	0	43	102	1048576	16	4632
2026-01-04 14:06:43.23	329.01	7.33	-28.2	-30.5	12.8	3.66e-05	0	43	102	1048576	16	4665
2026-01-04 14:06:44.23	329.11	7.26	-28.2	-30.3	12.9	3.77e-05	0	43	102	1048576	16	4614
2026-01-04 14:06:45.24	329.20	7.20	-28.3	-30.5	12.8	4.23e-05	0	43	102	1048576	16	4677
2026-01-04 14:06:46.24	329.30	7.14	-28.2	-30.4	12.8	3.20e-05	0	43	102	1048576	16	4648
2026-01-04 14:06:47.24	329.39	7.07	-28.8	-31.4	12.1	6.29e-05	0	43	102	1048576	17	4850
2026-01-04 14:06:48.25	329.49	7.01	-33.5	-44.8	3.8	8.44e-01	0	43	104	1048576	26	13288
2026-01-04 14:06:49.25	329.58	6.95	-33.7	-44.9	3.8	8.46e-01	0	43	104	1048576	27	13076

#Closed at: 2026-01-04 14:06:49
#Recorded file [1 MB]: D:/data/31010_260104_165638.dat