passes_logs/2026/01/04/R2M6_AANII_01/R2M6_AANII_01__20260104_113049_AQUA_rec.log

#Pass ID: 20260104_113049_AQUA
#Satellite: AQUA
#Configuration: AQUA
#almurnet v.1.7.20240730
#Start time: 2026-01-04 11:30:48

#Version: 2.2.20231116
#Station: R2M6_AANII_01
#Location: 30.233357 lon 59.946436 lat
#TLE: 1 27424U 02022A   25365.92641127  .00002078  00000+0  42628-3 0  9999
#TLE: 2 27424  98.4058 327.1196 0001962  94.7781 340.6230 14.61783896258835

#Time	Az	El	Level	Level2	SNR	BER	BlckErr	Temp	State	Recorded	gain1	gain2
2026-01-04 11:30:48.83	143.22	6.98	-31.6	-38.3	5.0	7.10e-01	0	40	0	0	25	7783
2026-01-04 11:30:49.83	143.19	7.06	-31.7	-38.7	5.0	7.11e-01	0	41	104	0	25	8059
2026-01-04 11:30:50.84	143.15	7.14	-31.7	-37.9	12.7	6.11e-01	0	41	0	0	25	7392
2026-01-04 11:30:51.85	143.12	7.22	-31.6	-37.4	13.1	6.09e-01	0	41	102	524288	25	7066
2026-01-04 11:30:52.85	143.09	7.30	-31.6	-37.4	13.1	6.12e-01	0	41	102	524288	25	7054
2026-01-04 11:30:53.86	143.06	7.39	-31.7	-38.0	12.6	6.10e-01	0	41	102	524288	25	7411
2026-01-04 11:30:54.86	143.02	7.47	-31.6	-37.6	13.0	6.10e-01	0	41	102	524288	25	7165
2026-01-04 11:30:55.86	142.99	7.55	-31.5	-37.2	13.3	6.05e-01	0	41	102	524288	25	6894
2026-01-04 11:30:56.86	142.96	7.63	-31.5	-37.0	13.5	6.07e-01	0	41	102	524288	25	6778
2026-01-04 11:30:57.87	142.92	7.72	-31.4	-36.7	13.8	6.07e-01	0	41	102	524288	25	6598
2026-01-04 11:30:58.87	142.89	7.80	-31.4	-36.6	13.8	6.07e-01	0	41	102	524288	25	6580
2026-01-04 11:30:59.88	142.85	7.88	-31.4	-37.4	13.6	6.07e-01	0	41	102	524288	24	7177
2026-01-04 11:31:00.89	142.82	7.97	-31.4	-37.1	13.9	6.09e-01	0	41	102	524288	24	6969
2026-01-04 11:31:01.89	142.78	8.05	-31.2	-36.3	14.5	6.05e-01	0	41	102	524288	24	6484
2026-01-04 11:31:02.90	142.75	8.14	-31.0	-35.7	15.0	6.06e-01	0	41	102	524288	24	6175
2026-01-04 11:31:03.91	142.71	8.23	-30.9	-35.1	15.5	6.07e-01	0	41	102	524288	24	5842
2026-01-04 11:31:04.91	142.68	8.31	-30.8	-35.1	15.8	6.04e-01	0	41	102	524288	23	5927
2026-01-04 11:31:05.92	142.64	8.40	-30.9	-35.5	15.6	6.06e-01	0	41	102	524288	23	6116
2026-01-04 11:31:06.92	142.61	8.48	-30.9	-35.2	15.8	6.06e-01	0	41	102	524288	23	5957
2026-01-04 11:31:07.92	142.57	8.57	-30.8	-34.9	16.1	6.07e-01	0	41	102	524288	23	5790
2026-01-04 11:31:08.93	142.53	8.66	-30.7	-34.7	16.2	6.08e-01	0	41	102	524288	23	5722
2026-01-04 11:31:09.94	142.50	8.74	-30.8	-34.9	16.1	6.06e-01	0	41	102	524288	23	5815
2026-01-04 11:31:10.94	142.46	8.83	-30.7	-34.6	16.3	6.06e-01	0	41	102	524288	23	5659
2026-01-04 11:31:11.94	142.42	8.92	-30.8	-34.7	16.3	6.06e-01	0	41	102	524288	23	5697
2026-01-04 11:31:12.95	142.38	9.01	-30.7	-34.5	16.5	6.06e-01	0	41	102	524288	23	5571
2026-01-04 11:31:13.96	142.35	9.10	-30.6	-34.3	16.6	6.08e-01	0	41	102	524288	23	5505
2026-01-04 11:31:14.97	142.31	9.19	-30.6	-34.2	16.7	6.07e-01	0	41	102	524288	23	5453
2026-01-04 11:31:15.98	142.27	9.28	-30.6	-34.2	16.7	6.07e-01	0	41	102	524288	23	5454
2026-01-04 11:31:16.99	142.23	9.37	-30.7	-34.5	16.5	6.06e-01	0	41	102	524288	23	5573
2026-01-04 11:31:18.00	142.19	9.46	-30.6	-34.1	16.8	6.03e-01	0	41	102	524288	23	5402
2026-01-04 11:31:19.01	142.15	9.55	-30.5	-34.0	16.9	6.08e-01	0	41	102	524288	23	5357
2026-01-04 11:31:20.02	142.11	9.64	-30.6	-34.1	16.8	6.05e-01	0	41	102	524288	23	5373
2026-01-04 11:31:21.03	142.07	9.73	-30.6	-34.1	16.8	6.04e-01	0	41	102	524288	23	5404
2026-01-04 11:31:22.04	142.03	9.82	-30.7	-34.4	16.7	6.07e-01	0	42	102	524288	23	5513
2026-01-04 11:31:23.05	141.99	9.91	-30.4	-33.6	17.2	6.06e-01	0	42	102	524288	23	5190
2026-01-04 11:31:24.05	141.95	10.01	-30.6	-34.0	16.9	6.04e-01	0	42	102	524288	23	5351
2026-01-04 11:31:25.06	141.91	10.10	-30.5	-33.8	17.1	6.05e-01	0	42	102	524288	23	5254
2026-01-04 11:31:26.08	141.87	10.19	-30.5	-33.9	17.0	6.08e-01	0	42	102	524288	23	5322
2026-01-04 11:31:27.09	141.83	10.29	-30.5	-33.7	17.2	6.07e-01	0	42	102	524288	23	5235
2026-01-04 11:31:28.09	141.78	10.38	-30.5	-34.0	17.0	6.06e-01	0	42	102	524288	23	5331
2026-01-04 11:31:29.09	141.74	10.47	-30.6	-34.2	16.8	6.05e-01	0	42	102	524288	23	5456
2026-01-04 11:31:30.10	141.70	10.57	-30.4	-33.7	17.1	6.09e-01	0	42	102	524288	23	5244
2026-01-04 11:31:31.11	141.66	10.66	-30.3	-33.8	17.4	6.07e-01	0	42	102	524288	22	5401
2026-01-04 11:31:32.12	141.61	10.76	-30.3	-33.7	17.5	6.05e-01	0	42	102	524288	22	5329
2026-01-04 11:31:33.12	141.57	10.86	-30.3	-33.7	17.5	6.09e-01	0	42	102	524288	22	5333
2026-01-04 11:31:34.13	141.52	10.95	-30.3	-33.6	17.6	6.05e-01	0	42	102	524288	22	5303
2026-01-04 11:31:35.14	141.48	11.05	-30.2	-33.6	17.6	6.09e-01	0	42	102	524288	22	5277
2026-01-04 11:31:36.15	141.44	11.15	-30.3	-33.6	17.6	6.05e-01	0	42	102	524288	22	5298
2026-01-04 11:31:37.16	141.39	11.24	-30.4	-33.9	17.4	6.07e-01	0	42	102	524288	22	5415
2026-01-04 11:31:38.17	141.35	11.34	-30.2	-33.4	17.8	6.07e-01	0	42	102	524288	22	5209
2026-01-04 11:31:39.18	141.30	11.44	-30.2	-33.3	17.9	6.06e-01	0	42	102	524288	22	5142
2026-01-04 11:31:40.18	141.25	11.54	-30.1	-33.1	18.0	6.05e-01	0	42	102	524288	22	5083
2026-01-04 11:31:41.19	141.21	11.64	-30.1	-33.1	18.0	6.07e-01	0	42	102	524288	22	5078
2026-01-04 11:31:42.20	141.16	11.74	-30.2	-33.3	17.9	6.05e-01	0	42	102	524288	22	5132
2026-01-04 11:31:43.20	141.11	11.84	-30.1	-33.0	18.1	6.08e-01	0	42	102	524288	22	5032
2026-01-04 11:31:44.21	141.07	11.94	-30.0	-32.7	18.3	6.07e-01	0	42	102	524288	22	4939
2026-01-04 11:31:45.22	141.02	12.04	-30.0	-32.7	18.3	6.04e-01	0	42	102	524288	22	4917
2026-01-04 11:31:46.22	140.97	12.14	-29.9	-32.6	18.3	6.07e-01	0	42	102	524288	22	4900
2026-01-04 11:31:47.23	140.92	12.24	-30.0	-32.7	18.3	6.05e-01	0	42	102	524288	22	4945
2026-01-04 11:31:48.24	140.87	12.34	-30.0	-32.8	18.2	6.05e-01	0	42	102	524288	22	4963
2026-01-04 11:31:49.25	140.82	12.45	-30.0	-32.9	18.2	6.05e-01	0	42	102	524288	22	5023
2026-01-04 11:31:50.26	140.77	12.55	-30.0	-32.9	18.2	6.07e-01	0	42	102	524288	22	5018
2026-01-04 11:31:51.27	140.72	12.66	-30.0	-32.9	18.2	6.07e-01	0	42	102	524288	22	4995
2026-01-04 11:31:52.27	140.67	12.76	-30.0	-32.7	18.3	6.05e-01	0	42	102	524288	22	4953
2026-01-04 11:31:53.28	140.62	12.86	-30.0	-32.9	18.2	6.07e-01	0	42	102	524288	22	5023
2026-01-04 11:31:54.29	140.57	12.97	-30.0	-32.8	18.3	6.07e-01	0	42	102	524288	22	4966
2026-01-04 11:31:55.29	140.52	13.07	-30.0	-32.7	18.4	6.06e-01	0	42	102	524288	22	4939
2026-01-04 11:31:56.30	140.47	13.18	-30.0	-32.9	18.2	6.06e-01	0	42	102	524288	22	5027
2026-01-04 11:31:57.30	140.41	13.29	-30.2	-33.3	18.0	6.09e-01	0	42	102	524288	22	5144
2026-01-04 11:31:58.31	140.36	13.39	-30.0	-32.8	18.4	6.09e-01	0	42	102	524288	22	4965
2026-01-04 11:31:59.33	140.31	13.50	-29.9	-32.6	18.5	6.04e-01	0	42	102	524288	22	4878
2026-01-04 11:32:00.33	140.25	13.61	-30.0	-32.6	18.5	6.06e-01	0	42	102	524288	22	4882
2026-01-04 11:32:01.34	140.20	13.72	-30.0	-32.7	18.5	6.04e-01	0	42	102	524288	22	4905
2026-01-04 11:32:02.34	140.14	13.83	-30.0	-32.7	18.5	6.07e-01	0	42	102	524288	22	4901
2026-01-04 11:32:03.35	140.09	13.94	-30.0	-32.7	18.5	6.06e-01	0	42	102	524288	22	4913
2026-01-04 11:32:04.35	140.03	14.05	-30.0	-32.8	18.4	6.06e-01	0	42	102	524288	22	4937
2026-01-04 11:32:05.35	139.98	14.16	-30.1	-32.9	18.4	6.06e-01	0	42	102	524288	22	4982
2026-01-04 11:32:06.36	139.92	14.27	-30.2	-33.1	18.3	6.07e-01	0	42	102	524288	22	5061
2026-01-04 11:32:07.36	139.86	14.38	-30.1	-33.0	18.4	6.05e-01	0	42	102	524288	22	5000
2026-01-04 11:32:08.36	139.81	14.49	-30.2	-33.2	18.2	6.07e-01	0	42	102	524288	22	5086
2026-01-04 11:32:09.37	139.75	14.60	-30.2	-33.2	18.2	6.05e-01	0	42	102	524288	22	5083
2026-01-04 11:32:10.37	139.69	14.71	-30.1	-33.0	18.4	6.06e-01	0	42	102	524288	22	4997
2026-01-04 11:32:11.38	139.63	14.83	-30.1	-32.9	18.4	6.07e-01	0	42	102	524288	22	4990
2026-01-04 11:32:12.39	139.57	14.94	-30.2	-33.1	18.3	6.05e-01	0	42	102	524288	22	5034
2026-01-04 11:32:13.39	139.51	15.06	-30.1	-32.9	18.4	6.07e-01	0	42	102	524288	22	4982
2026-01-04 11:32:14.40	139.45	15.17	-30.1	-33.0	18.4	6.06e-01	0	42	102	524288	22	4991
2026-01-04 11:32:15.41	139.39	15.29	-30.1	-33.0	18.4	6.08e-01	0	42	102	524288	22	4993
2026-01-04 11:32:16.42	139.33	15.41	-30.0	-32.5	18.7	6.09e-01	0	42	102	524288	22	4825
2026-01-04 11:32:17.42	139.27	15.52	-29.9	-32.3	18.9	6.03e-01	0	42	102	524288	22	4737
2026-01-04 11:32:18.43	139.20	15.64	-29.8	-32.6	19.0	6.06e-01	0	42	102	524288	21	4972
2026-01-04 11:32:19.43	139.14	15.76	-29.8	-32.6	19.0	6.06e-01	0	42	102	524288	21	4968
2026-01-04 11:32:20.44	139.08	15.88	-29.8	-32.5	19.1	6.07e-01	0	42	102	524288	21	4934
2026-01-04 11:32:21.45	139.01	16.00	-29.8	-32.6	19.0	6.07e-01	0	42	102	524288	21	4957
2026-01-04 11:32:22.46	138.95	16.12	-29.9	-32.8	18.9	6.06e-01	0	42	102	524288	21	5046
2026-01-04 11:32:23.47	138.88	16.24	-29.9	-32.9	18.8	6.06e-01	0	42	102	524288	21	5077
2026-01-04 11:32:24.48	138.81	16.36	-29.9	-32.9	18.9	6.06e-01	0	42	102	524288	21	5085
2026-01-04 11:32:25.49	138.75	16.49	-29.9	-32.9	18.9	6.06e-01	0	42	102	524288	21	5076
2026-01-04 11:32:26.49	138.68	16.61	-29.9	-33.0	18.8	6.08e-01	0	42	102	524288	21	5101
2026-01-04 11:32:27.50	138.61	16.73	-30.0	-33.2	18.7	6.04e-01	0	42	102	524288	21	5184
2026-01-04 11:32:28.51	138.54	16.86	-30.0	-33.2	18.7	6.06e-01	0	43	102	524288	21	5172
2026-01-04 11:32:29.51	138.47	16.98	-30.0	-33.0	18.9	6.07e-01	0	42	102	524288	21	5079
2026-01-04 11:32:30.52	138.40	17.11	-30.0	-32.9	18.9	6.06e-01	0	43	102	524288	21	5056
2026-01-04 11:32:31.53	138.33	17.23	-30.0	-33.0	18.9	6.07e-01	0	42	102	524288	21	5095
2026-01-04 11:32:32.53	138.26	17.36	-30.0	-33.1	18.9	6.05e-01	0	42	102	524288	21	5105
2026-01-04 11:32:33.54	138.19	17.49	-30.1	-33.2	18.8	6.06e-01	0	42	102	524288	21	5145
2026-01-04 11:32:34.55	138.12	17.62	-30.2	-33.4	18.7	6.05e-01	0	43	102	524288	21	5232
2026-01-04 11:32:35.56	138.04	17.74	-30.2	-33.4	18.6	6.04e-01	0	42	102	524288	21	5238
2026-01-04 11:32:36.56	137.97	17.87	-30.2	-33.6	18.6	6.05e-01	0	43	102	524288	21	5285
2026-01-04 11:32:37.56	137.90	18.00	-30.3	-33.7	18.5	6.07e-01	0	42	102	524288	21	5338
2026-01-04 11:32:38.57	137.82	18.13	-30.1	-33.4	18.7	6.05e-01	0	42	102	524288	21	5212
2026-01-04 11:32:39.58	137.74	18.27	-30.1	-33.3	18.8	6.07e-01	0	43	102	524288	21	5192
2026-01-04 11:32:40.58	137.67	18.40	-30.1	-33.2	18.8	6.06e-01	0	43	102	524288	21	5168
2026-01-04 11:32:41.59	137.59	18.53	-30.2	-33.4	18.8	6.06e-01	0	42	102	524288	21	5202
2026-01-04 11:32:42.60	137.51	18.67	-30.2	-33.3	18.8	6.04e-01	0	43	102	524288	21	5182
2026-01-04 11:32:43.60	137.43	18.80	-30.2	-33.3	18.8	6.07e-01	0	42	102	524288	21	5179
2026-01-04 11:32:44.61	137.35	18.93	-30.2	-33.3	18.8	6.09e-01	0	42	102	524288	21	5177
2026-01-04 11:32:45.61	137.27	19.07	-30.2	-33.3	18.9	6.05e-01	0	42	102	524288	21	5165
2026-01-04 11:32:46.62	137.19	19.21	-30.1	-33.2	18.9	6.06e-01	0	42	102	524288	21	5127
2026-01-04 11:32:47.63	137.11	19.35	-30.1	-33.1	19.0	6.07e-01	0	43	102	524288	21	5090
2026-01-04 11:32:48.64	137.03	19.48	-30.1	-33.2	18.9	6.07e-01	0	42	102	524288	21	5111
2026-01-04 11:32:49.64	136.94	19.62	-30.1	-33.1	19.0	6.05e-01	0	43	102	524288	21	5103
2026-01-04 11:32:50.65	136.86	19.76	-30.0	-33.0	19.0	6.05e-01	0	43	102	524288	21	5057
2026-01-04 11:32:51.66	136.77	19.90	-30.0	-32.9	19.1	6.06e-01	0	43	102	524288	21	5032
2026-01-04 11:32:52.66	136.69	20.05	-30.0	-32.9	19.1	6.07e-01	0	43	102	524288	21	5032
2026-01-04 11:32:53.67	136.60	20.19	-30.1	-33.2	18.9	6.07e-01	0	42	102	524288	21	5148
2026-01-04 11:32:54.67	136.51	20.33	-30.1	-33.2	19.0	6.07e-01	0	43	102	524288	21	5114
2026-01-04 11:32:55.67	136.42	20.47	-30.3	-33.5	18.8	6.05e-01	0	43	102	524288	21	5249
2026-01-04 11:32:56.68	136.33	20.62	-30.3	-33.6	18.7	6.08e-01	0	42	102	524288	21	5288
2026-01-04 11:32:57.69	136.24	20.77	-30.2	-33.3	18.9	6.06e-01	0	43	102	524288	21	5151
2026-01-04 11:32:58.70	136.15	20.91	-30.2	-33.3	18.9	6.07e-01	0	43	102	524288	21	5167
2026-01-04 11:32:59.70	136.06	21.06	-30.2	-33.4	18.9	6.06e-01	0	43	102	524288	21	5208
2026-01-04 11:33:00.69	135.97	21.21	-30.2	-33.4	18.9	6.07e-01	0	42	102	524288	21	5192
2026-01-04 11:33:01.70	135.87	21.35	-30.3	-33.5	18.9	6.05e-01	0	42	102	524288	21	5240
2026-01-04 11:33:02.71	135.77	21.51	-30.2	-33.4	18.9	6.05e-01	0	43	102	524288	21	5191
2026-01-04 11:33:03.71	135.68	21.66	-30.2	-33.2	19.0	6.07e-01	0	43	102	524288	21	5137
2026-01-04 11:33:04.72	135.58	21.81	-30.1	-33.1	19.1	6.06e-01	0	43	102	524288	21	5083
2026-01-04 11:33:05.72	135.48	21.96	-30.2	-33.4	19.0	6.07e-01	0	43	102	524288	21	5186
2026-01-04 11:33:06.73	135.38	22.11	-30.1	-33.2	19.1	6.05e-01	0	43	102	524288	21	5133
2026-01-04 11:33:07.73	135.28	22.27	-30.2	-33.3	19.0	6.05e-01	0	43	102	524288	21	5150
2026-01-04 11:33:08.74	135.18	22.42	-30.2	-33.3	19.0	6.06e-01	0	43	102	524288	21	5154
2026-01-04 11:33:09.75	135.08	22.58	-30.2	-33.3	19.1	6.08e-01	0	43	102	524288	21	5137
2026-01-04 11:33:10.76	134.97	22.74	-30.3	-33.6	18.9	6.05e-01	0	43	102	524288	21	5247
2026-01-04 11:33:11.76	134.87	22.90	-30.3	-33.5	18.9	6.05e-01	0	43	102	524288	21	5221
2026-01-04 11:33:12.77	134.76	23.06	-30.3	-33.7	18.8	6.06e-01	0	42	102	524288	21	5281
2026-01-04 11:33:13.78	134.65	23.22	-30.3	-33.7	18.8	6.05e-01	0	43	102	524288	21	5274
2026-01-04 11:33:14.79	134.54	23.38	-30.4	-33.7	18.9	6.03e-01	0	43	102	524288	21	5290
2026-01-04 11:33:15.79	134.43	23.54	-30.5	-34.1	18.6	6.06e-01	0	43	102	524288	21	5453
2026-01-04 11:33:16.80	134.32	23.70	-30.4	-33.9	18.7	6.05e-01	0	43	102	524288	21	5369
2026-01-04 11:33:17.80	134.21	23.87	-30.3	-33.6	18.9	6.06e-01	0	42	102	524288	21	5262
2026-01-04 11:33:18.81	134.10	24.03	-30.4	-33.7	18.9	6.07e-01	0	43	102	524288	21	5268
2026-01-04 11:33:19.82	133.98	24.20	-30.3	-33.6	18.9	6.07e-01	0	43	102	524288	21	5247
2026-01-04 11:33:20.83	133.87	24.37	-30.3	-33.5	19.0	6.07e-01	0	43	102	524288	21	5214
2026-01-04 11:33:21.83	133.75	24.54	-30.3	-33.5	19.0	6.07e-01	0	43	102	524288	21	5200
2026-01-04 11:33:22.84	133.63	24.71	-30.4	-33.7	18.9	6.07e-01	0	43	102	524288	21	5292
2026-01-04 11:33:23.84	133.51	24.87	-30.3	-33.5	19.0	6.04e-01	0	43	102	524288	21	5217
2026-01-04 11:33:24.84	133.39	25.05	-30.3	-33.5	19.1	6.05e-01	0	43	102	524288	21	5183
2026-01-04 11:33:25.84	133.27	25.22	-30.3	-33.6	19.0	6.06e-01	0	43	102	524288	21	5232
2026-01-04 11:33:26.85	133.14	25.39	-30.4	-33.7	18.9	6.06e-01	0	43	102	524288	21	5289
2026-01-04 11:33:27.86	133.01	25.57	-30.4	-33.7	18.9	6.07e-01	0	43	102	524288	21	5287
2026-01-04 11:33:28.86	132.89	25.74	-30.4	-33.9	18.8	6.07e-01	0	43	102	524288	21	5333
2026-01-04 11:33:29.87	132.76	25.92	-30.5	-34.1	18.7	6.06e-01	0	43	102	524288	21	5424
2026-01-04 11:33:30.87	132.63	26.10	-30.3	-33.4	19.1	6.06e-01	0	43	102	524288	21	5173
2026-01-04 11:33:31.88	132.50	26.28	-30.1	-32.9	19.4	6.05e-01	0	43	102	524288	21	4978
2026-01-04 11:33:32.88	132.36	26.45	-30.0	-32.7	19.6	6.05e-01	0	43	102	524288	21	4911
2026-01-04 11:33:33.89	132.23	26.64	-30.0	-32.7	19.6	6.02e-01	0	43	102	524288	21	4893
2026-01-04 11:33:34.90	132.09	26.82	-30.1	-33.0	19.4	6.06e-01	0	43	102	524288	21	5005
2026-01-04 11:33:35.91	131.95	27.00	-30.0	-32.7	19.6	6.07e-01	0	43	102	524288	21	4915
2026-01-04 11:33:36.91	131.81	27.19	-30.2	-33.1	19.3	6.06e-01	0	43	102	524288	21	5064
2026-01-04 11:33:37.92	131.67	27.37	-30.2	-33.2	19.3	6.06e-01	0	43	102	524288	21	5096
2026-01-04 11:33:38.92	131.52	27.56	-30.2	-33.3	19.3	6.04e-01	0	43	102	524288	21	5108
2026-01-04 11:33:39.93	131.38	27.75	-30.3	-33.4	19.2	6.06e-01	0	43	102	524288	21	5167
2026-01-04 11:33:40.93	131.23	27.94	-30.1	-32.9	19.5	6.04e-01	0	43	102	524288	21	4985
2026-01-04 11:33:41.94	131.08	28.13	-29.9	-32.5	19.7	6.07e-01	0	43	102	524288	21	4827
2026-01-04 11:33:42.94	130.93	28.32	-30.0	-32.5	19.8	6.05e-01	0	43	102	524288	21	4844
2026-01-04 11:33:43.95	130.78	28.51	-30.0	-32.6	19.8	6.07e-01	0	43	102	524288	21	4854
2026-01-04 11:33:44.95	130.62	28.71	-29.9	-32.4	19.8	6.06e-01	0	43	102	524288	21	4798
2026-01-04 11:33:45.96	130.47	28.90	-29.8	-32.2	20.0	6.08e-01	0	43	102	524288	21	4724
2026-01-04 11:33:46.96	130.31	29.10	-29.9	-32.2	19.9	6.06e-01	0	43	102	524288	21	4739
2026-01-04 11:33:47.96	130.15	29.30	-29.9	-32.5	19.8	6.04e-01	0	43	102	524288	21	4807
2026-01-04 11:33:48.97	129.98	29.50	-29.8	-32.0	20.1	6.06e-01	0	43	102	524288	21	4664
2026-01-04 11:33:49.98	129.82	29.70	-29.7	-31.9	20.1	6.06e-01	0	43	102	524288	21	4634
2026-01-04 11:33:50.98	129.65	29.90	-29.8	-32.1	20.1	6.06e-01	0	43	102	524288	21	4694
2026-01-04 11:33:51.99	129.48	30.10	-29.8	-32.1	20.0	6.07e-01	0	43	102	524288	21	4702
2026-01-04 11:33:53.00	129.31	30.31	-29.8	-32.2	20.0	6.06e-01	0	43	102	524288	21	4723
2026-01-04 11:33:54.00	129.13	30.51	-29.8	-32.0	20.1	6.05e-01	0	43	102	524288	21	4669
2026-01-04 11:33:55.01	128.96	30.72	-29.9	-32.3	19.9	6.07e-01	0	43	102	524288	21	4771
2026-01-04 11:33:56.02	128.78	30.93	-29.8	-32.2	20.0	6.05e-01	0	43	102	524288	21	4715
2026-01-04 11:33:57.02	128.60	31.14	-29.9	-32.3	20.0	6.06e-01	0	43	102	524288	21	4750
2026-01-04 11:33:58.03	128.41	31.35	-30.0	-32.7	19.7	6.07e-01	0	43	102	524288	21	4878
2026-01-04 11:33:59.03	128.22	31.56	-29.9	-32.4	19.9	6.07e-01	0	43	102	524288	21	4803
2026-01-04 11:34:00.04	128.04	31.77	-30.0	-32.5	19.9	6.04e-01	0	43	102	524288	21	4813
2026-01-04 11:34:01.05	127.84	31.99	-30.0	-32.6	19.8	6.03e-01	0	43	102	524288	21	4858
2026-01-04 11:34:02.06	127.65	32.21	-30.2	-33.1	19.5	6.06e-01	0	43	102	524288	21	5030
2026-01-04 11:34:03.07	127.45	32.42	-30.1	-32.8	19.7	6.08e-01	0	43	102	524288	21	4907
2026-01-04 11:34:04.08	127.25	32.64	-30.1	-32.9	19.6	6.07e-01	0	43	102	524288	21	4966
2026-01-04 11:34:05.09	127.04	32.86	-30.4	-33.6	19.2	6.08e-01	0	43	102	524288	21	5189
2026-01-04 11:34:06.10	126.84	33.09	-30.1	-32.9	19.6	6.07e-01	0	43	102	524288	21	4958
2026-01-04 11:34:07.10	126.63	33.31	-30.2	-33.0	19.6	6.06e-01	0	43	102	524288	21	4978
2026-01-04 11:34:08.11	126.42	33.53	-30.3	-33.4	19.4	6.07e-01	0	43	102	524288	21	5126
2026-01-04 11:34:09.11	126.20	33.76	-30.3	-33.2	19.5	6.06e-01	0	43	102	524288	21	5070
2026-01-04 11:34:10.12	125.99	33.98	-30.2	-33.2	19.5	6.04e-01	0	43	102	524288	21	5041
2026-01-04 11:34:11.13	125.76	34.21	-30.1	-32.9	19.7	6.06e-01	0	43	102	524288	21	4936
2026-01-04 11:34:12.14	125.54	34.44	-30.3	-33.4	19.4	6.06e-01	0	43	102	524288	21	5144
2026-01-04 11:34:13.14	125.31	34.67	-30.4	-33.6	19.3	6.07e-01	0	43	102	524288	21	5216
2026-01-04 11:34:14.15	125.08	34.90	-30.6	-33.7	18.9	6.03e-01	0	43	102	524288	22	5122
2026-01-04 11:34:15.15	124.85	35.13	-30.7	-34.0	18.8	6.05e-01	0	43	102	524288	22	5224
2026-01-04 11:34:16.16	124.61	35.37	-30.9	-34.4	18.5	6.07e-01	0	43	102	524288	22	5400
2026-01-04 11:34:17.17	124.37	35.61	-30.8	-34.1	18.7	6.07e-01	0	43	102	524288	22	5269
2026-01-04 11:34:18.18	124.12	35.84	-30.7	-33.7	18.9	6.05e-01	0	43	102	524288	22	5123
2026-01-04 11:34:19.19	123.87	36.08	-30.6	-33.6	19.1	6.06e-01	0	43	102	524288	22	5067
2026-01-04 11:34:20.20	123.62	36.32	-30.9	-34.3	18.6	6.06e-01	0	43	102	524288	22	5334
2026-01-04 11:34:21.21	123.36	36.56	-31.1	-34.9	18.2	6.07e-01	0	43	102	524288	22	5575
2026-01-04 11:34:22.22	123.10	36.81	-31.3	-34.9	17.9	6.06e-01	0	43	102	524288	23	5448
2026-01-04 11:34:23.22	122.84	37.05	-31.1	-34.3	18.3	6.05e-01	0	43	102	524288	23	5246
2026-01-04 11:34:24.22	122.57	37.29	-31.1	-34.4	18.2	6.06e-01	0	43	102	524288	23	5286
2026-01-04 11:34:25.23	122.30	37.54	-31.3	-34.9	17.9	6.09e-01	0	43	102	524288	23	5469
2026-01-04 11:34:26.23	122.02	37.78	-31.3	-34.9	17.9	6.06e-01	0	43	102	524288	23	5480
2026-01-04 11:34:27.24	121.74	38.03	-31.4	-35.3	17.7	6.06e-01	0	43	102	524288	23	5616
2026-01-04 11:34:28.25	121.45	38.28	-31.4	-35.2	17.8	6.05e-01	0	43	102	524288	23	5570
2026-01-04 11:34:29.26	121.16	38.53	-31.3	-34.9	18.0	6.07e-01	0	43	102	524288	23	5467
2026-01-04 11:34:30.27	120.86	38.78	-31.2	-34.8	18.0	6.07e-01	0	43	102	524288	23	5414
2026-01-04 11:34:31.27	120.56	39.03	-31.4	-35.3	17.7	6.07e-01	0	43	102	524288	23	5616
2026-01-04 11:34:32.28	120.26	39.29	-31.4	-35.4	17.6	6.06e-01	0	43	102	524288	23	5675
2026-01-04 11:34:33.28	119.95	39.54	-31.3	-35.0	17.8	6.06e-01	0	43	102	524288	23	5521
2026-01-04 11:34:34.29	119.64	39.80	-31.3	-34.9	18.0	6.06e-01	0	43	102	524288	23	5456
2026-01-04 11:34:35.30	119.31	40.06	-31.5	-35.6	17.5	6.06e-01	0	43	102	524288	23	5742
2026-01-04 11:34:36.31	118.99	40.31	-31.2	-34.6	18.1	6.07e-01	0	43	102	524288	23	5348
2026-01-04 11:34:37.32	118.66	40.57	-31.1	-34.4	18.3	6.05e-01	0	43	102	524288	23	5238
2026-01-04 11:34:38.32	118.32	40.83	-31.3	-35.0	17.9	6.05e-01	0	43	102	524288	23	5513
2026-01-04 11:34:39.33	117.98	41.09	-31.4	-35.3	17.8	6.07e-01	0	43	102	524288	23	5606
2026-01-04 11:34:40.34	117.63	41.35	-31.4	-35.2	17.8	6.07e-01	0	43	102	524288	23	5572
2026-01-04 11:34:41.35	117.28	41.61	-31.4	-35.4	17.7	6.07e-01	0	43	102	524288	23	5642
2026-01-04 11:34:42.35	116.92	41.88	-31.7	-35.6	17.2	6.06e-01	0	43	102	524288	24	5649
2026-01-04 11:34:43.36	116.56	42.14	-31.7	-35.6	17.3	6.07e-01	0	43	102	524288	24	5618
2026-01-04 11:34:44.37	116.18	42.40	-31.7	-35.7	17.2	6.06e-01	0	43	102	524288	24	5661
2026-01-04 11:34:45.38	115.81	42.67	-31.8	-35.8	17.1	6.07e-01	0	43	102	524288	24	5721
2026-01-04 11:34:46.38	115.42	42.93	-31.7	-35.6	17.2	6.06e-01	0	43	102	524288	24	5661
2026-01-04 11:34:47.39	115.03	43.20	-31.6	-35.2	17.5	6.09e-01	0	43	102	524288	24	5467
2026-01-04 11:34:48.40	114.63	43.46	-31.6	-35.4	17.4	6.07e-01	0	43	102	524288	24	5553
2026-01-04 11:34:49.40	114.23	43.73	-31.6	-35.5	17.3	6.06e-01	0	43	102	524288	24	5581
2026-01-04 11:34:50.41	113.82	44.00	-31.8	-36.0	17.1	6.08e-01	0	43	102	524288	24	5795
2026-01-04 11:34:51.42	113.40	44.26	-31.9	-36.3	16.8	6.06e-01	0	43	102	524288	24	5961
2026-01-04 11:34:52.43	112.98	44.53	-31.4	-34.8	17.7	6.03e-01	0	43	102	524288	24	5316
2026-01-04 11:34:53.44	112.54	44.80	-31.2	-34.2	18.2	6.06e-01	0	43	102	524288	24	5053
2026-01-04 11:34:54.44	112.11	45.06	-31.1	-33.8	18.4	6.06e-01	0	43	102	524288	24	4927
2026-01-04 11:34:55.45	111.66	45.33	-31.2	-34.0	18.3	6.07e-01	0	43	102	524288	24	5010
2026-01-04 11:34:56.46	111.20	45.60	-31.2	-34.1	18.2	6.08e-01	0	43	102	524288	24	5042
2026-01-04 11:34:57.46	110.74	45.87	-31.0	-33.7	18.5	6.05e-01	0	43	102	524288	24	4882
2026-01-04 11:34:58.46	110.27	46.13	-30.9	-33.3	18.8	6.06e-01	0	43	102	524288	24	4733
2026-01-04 11:34:59.47	109.79	46.40	-31.1	-33.7	18.5	6.07e-01	0	43	102	524288	24	4894
2026-01-04 11:35:00.48	109.30	46.66	-31.2	-34.1	18.3	6.07e-01	0	43	102	524288	24	5021
2026-01-04 11:35:01.49	108.81	46.93	-31.0	-33.6	18.6	6.06e-01	0	43	102	524288	24	4832
2026-01-04 11:35:02.50	108.30	47.20	-31.0	-33.5	18.7	6.04e-01	0	43	102	524288	24	4812
2026-01-04 11:35:03.50	107.79	47.46	-31.3	-34.4	18.1	6.06e-01	0	43	102	524288	24	5130
2026-01-04 11:35:04.51	107.27	47.72	-31.1	-33.7	18.5	6.08e-01	0	43	102	524288	24	4901
2026-01-04 11:35:05.52	106.73	47.98	-31.0	-33.6	18.5	6.07e-01	0	43	102	524288	24	4865
2026-01-04 11:35:06.52	106.20	48.24	-31.2	-34.2	18.3	6.06e-01	0	43	102	524288	24	5064
2026-01-04 11:35:07.53	105.65	48.50	-31.4	-34.6	18.0	6.04e-01	0	43	102	524288	24	5205
2026-01-04 11:35:08.54	105.09	48.76	-31.1	-33.9	18.4	6.06e-01	0	43	102	524288	24	4965
2026-01-04 11:35:09.55	104.52	49.02	-30.9	-33.2	18.8	6.07e-01	0	43	102	524288	24	4721
2026-01-04 11:35:10.55	103.94	49.28	-31.3	-34.3	18.2	6.04e-01	0	43	102	524288	24	5102
2026-01-04 11:35:11.56	103.35	49.53	-31.3	-34.3	18.2	6.07e-01	0	43	102	524288	24	5111
2026-01-04 11:35:12.57	102.75	49.78	-30.9	-33.3	18.7	6.05e-01	0	43	102	524288	24	4743
2026-01-04 11:35:13.58	102.14	50.03	-30.9	-33.9	18.7	6.05e-01	0	43	102	524288	23	5050
2026-01-04 11:35:14.59	101.52	50.28	-31.0	-34.2	18.5	6.07e-01	0	43	102	524288	23	5157
2026-01-04 11:35:15.59	100.89	50.53	-31.0	-34.0	18.7	6.06e-01	0	43	102	524288	23	5086
2026-01-04 11:35:16.59	100.26	50.77	-30.6	-32.9	19.3	6.09e-01	0	43	102	524288	23	4689
2026-01-04 11:35:17.60	99.61	51.01	-30.8	-33.5	18.9	6.06e-01	0	43	102	524288	23	4918
2026-01-04 11:35:18.60	98.95	51.25	-30.8	-33.4	19.0	6.06e-01	0	43	102	524288	23	4882
2026-01-04 11:35:19.61	98.28	51.49	-30.8	-33.5	19.0	6.07e-01	0	43	102	524288	23	4918
2026-01-04 11:35:20.61	97.60	51.72	-30.5	-32.6	19.5	6.08e-01	0	43	102	524288	23	4599
2026-01-04 11:35:21.63	96.90	51.95	-30.6	-33.5	19.3	6.07e-01	0	43	102	524288	22	5021
2026-01-04 11:35:22.63	96.20	52.18	-30.8	-34.0	18.9	6.06e-01	0	43	102	524288	22	5207
2026-01-04 11:35:23.64	95.49	52.40	-30.6	-33.6	19.2	6.06e-01	0	43	102	524288	22	5051
2026-01-04 11:35:24.64	94.76	52.62	-30.6	-33.4	19.4	6.06e-01	0	43	102	524288	22	4966
2026-01-04 11:35:25.65	94.03	52.83	-31.1	-34.4	18.4	6.06e-01	0	43	102	524288	23	5257
2026-01-04 11:35:26.65	93.28	53.04	-31.2	-34.6	18.3	6.07e-01	0	43	102	524288	23	5318
2026-01-04 11:35:27.65	92.53	53.25	-31.3	-34.7	18.2	6.07e-01	0	43	102	524288	23	5377
2026-01-04 11:35:28.65	91.77	53.45	-31.3	-34.7	18.2	6.07e-01	0	43	102	524288	23	5368
2026-01-04 11:35:29.66	90.99	53.65	-31.2	-34.6	18.3	6.08e-01	0	43	102	524288	23	5313
2026-01-04 11:35:30.67	90.19	53.85	-31.0	-34.1	18.6	6.04e-01	0	43	102	524288	23	5152
2026-01-04 11:35:31.68	89.39	54.04	-31.1	-34.5	18.4	6.06e-01	0	43	102	524288	23	5276
2026-01-04 11:35:32.69	88.58	54.22	-31.1	-34.4	18.4	6.08e-01	0	43	102	524288	23	5245
2026-01-04 11:35:33.70	87.75	54.40	-31.3	-35.0	18.0	6.08e-01	0	43	102	524288	23	5467
2026-01-04 11:35:34.70	86.92	54.58	-31.3	-34.9	18.1	6.07e-01	0	43	102	524288	23	5431
2026-01-04 11:35:35.71	86.08	54.74	-30.8	-33.5	18.9	6.09e-01	0	43	102	524288	23	4924
2026-01-04 11:35:36.72	85.22	54.91	-30.8	-33.6	18.9	6.07e-01	0	43	102	524288	23	4955
2026-01-04 11:35:37.73	84.36	55.07	-31.0	-34.1	18.6	6.07e-01	0	43	102	524288	23	5111
2026-01-04 11:35:38.74	83.49	55.22	-30.7	-33.3	19.1	6.07e-01	0	43	102	524288	23	4827
2026-01-04 11:35:39.75	82.60	55.36	-31.0	-33.9	18.7	6.04e-01	0	43	102	524288	23	5063
2026-01-04 11:35:40.75	81.72	55.50	-30.9	-33.8	18.8	6.06e-01	0	43	102	524288	23	5013
2026-01-04 11:35:41.76	80.82	55.63	-31.0	-34.1	18.7	6.08e-01	0	43	102	524288	23	5129
2026-01-04 11:35:42.77	79.91	55.76	-31.1	-34.3	18.5	6.04e-01	0	43	102	524288	23	5192
2026-01-04 11:35:43.78	78.99	55.88	-30.9	-33.6	18.9	6.06e-01	0	43	102	524288	23	4958
2026-01-04 11:35:44.78	78.07	55.99	-31.0	-34.1	18.6	6.06e-01	0	43	102	524288	23	5116
2026-01-04 11:35:45.79	77.14	56.09	-30.9	-33.7	18.9	6.07e-01	0	43	102	524288	23	4972
2026-01-04 11:35:46.79	76.21	56.19	-30.8	-33.6	18.9	6.08e-01	0	43	102	524288	23	4939
2026-01-04 11:35:47.80	75.26	56.28	-30.7	-33.3	19.1	6.05e-01	0	43	102	524288	23	4843
2026-01-04 11:35:48.81	74.31	56.36	-31.1	-34.2	18.6	6.05e-01	0	43	102	524288	23	5165
2026-01-04 11:35:49.81	73.37	56.44	-30.7	-33.3	19.1	6.05e-01	0	43	102	524288	23	4843
2026-01-04 11:35:50.82	72.40	56.50	-31.0	-33.9	18.8	6.07e-01	0	43	102	524288	23	5054
2026-01-04 11:35:51.83	71.44	56.56	-31.0	-34.1	18.6	6.05e-01	0	43	102	524288	23	5116
2026-01-04 11:35:52.84	70.47	56.62	-31.0	-34.1	18.7	6.05e-01	0	43	102	524288	23	5120
2026-01-04 11:35:53.85	69.49	56.66	-31.3	-34.9	18.1	6.05e-01	0	43	102	524288	23	5441
2026-01-04 11:35:54.85	68.53	56.70	-31.1	-34.3	18.5	6.07e-01	0	43	102	524288	23	5208
2026-01-04 11:35:55.86	67.55	56.73	-31.2	-34.5	18.3	6.04e-01	0	43	102	524288	23	5293
2026-01-04 11:35:56.87	66.57	56.75	-30.8	-33.6	18.9	6.07e-01	0	43	102	524288	23	4929
2026-01-04 11:35:57.87	65.59	56.76	-31.5	-35.3	17.9	6.03e-01	0	43	102	524288	23	5620
2026-01-04 11:35:58.88	64.61	56.76	-31.1	-34.2	18.5	6.07e-01	0	43	102	524288	23	5157
2026-01-04 11:35:59.88	63.64	56.76	-31.2	-34.5	18.4	6.08e-01	0	43	102	524288	23	5291
2026-01-04 11:36:00.89	62.66	56.75	-31.0	-34.0	18.7	6.05e-01	0	43	102	524288	23	5102
2026-01-04 11:36:01.90	61.68	56.73	-31.2	-34.5	18.3	6.06e-01	0	43	102	524288	23	5296
2026-01-04 11:36:02.91	60.70	56.70	-31.1	-34.2	18.5	6.08e-01	0	43	102	524288	23	5182
2026-01-04 11:36:03.92	59.72	56.66	-31.0	-34.0	18.7	6.07e-01	0	43	102	524288	23	5075
2026-01-04 11:36:04.92	58.76	56.62	-31.5	-35.4	17.8	6.06e-01	0	43	102	524288	23	5639
2026-01-04 11:36:05.93	57.78	56.57	-31.4	-35.1	18.0	6.08e-01	0	43	102	524288	23	5519
2026-01-04 11:36:06.93	56.83	56.51	-30.8	-33.5	18.9	6.06e-01	0	43	102	524288	23	4923
2026-01-04 11:36:07.94	55.87	56.44	-31.0	-33.9	18.7	6.07e-01	0	43	102	524288	23	5066
2026-01-04 11:36:08.94	54.92	56.37	-31.3	-34.8	18.1	6.07e-01	0	43	102	524288	23	5412
2026-01-04 11:36:09.94	53.98	56.29	-30.7	-33.3	19.0	6.06e-01	0	43	102	524288	23	4857
2026-01-04 11:36:10.95	53.03	56.20	-30.7	-33.3	19.1	6.08e-01	0	43	102	524288	23	4834
2026-01-04 11:36:11.96	52.09	56.10	-31.2	-34.7	18.2	6.03e-01	0	43	102	524288	23	5378
2026-01-04 11:36:12.96	51.17	56.00	-30.7	-33.3	19.0	6.08e-01	0	43	102	524288	23	4838
2026-01-04 11:36:13.97	50.24	55.89	-30.3	-32.6	19.8	6.06e-01	0	43	102	524288	22	4704
2026-01-04 11:36:14.97	49.33	55.77	-30.9	-34.2	18.8	6.08e-01	0	43	102	524288	22	5294
2026-01-04 11:36:15.98	48.42	55.65	-30.4	-32.9	19.5	6.06e-01	0	43	102	524288	22	4823
2026-01-04 11:36:16.99	47.52	55.52	-30.2	-32.5	19.9	6.08e-01	0	43	102	524288	22	4688
2026-01-04 11:36:17.99	46.64	55.38	-30.7	-33.8	19.1	6.05e-01	0	43	102	524288	22	5143
2026-01-04 11:36:19.00	45.75	55.24	-30.7	-33.7	19.1	6.07e-01	0	43	102	524288	22	5116
2026-01-04 11:36:20.01	44.88	55.09	-30.3	-32.7	19.7	6.04e-01	0	43	102	524288	22	4754
2026-01-04 11:36:21.01	44.02	54.93	-30.4	-33.0	19.6	6.06e-01	0	43	102	524288	22	4846
2026-01-04 11:36:22.02	43.17	54.77	-30.9	-34.2	18.8	6.06e-01	0	43	102	524288	22	5309
2026-01-04 11:36:23.03	42.32	54.60	-30.6	-33.4	19.3	6.06e-01	0	43	102	524288	22	4994
2026-01-04 11:36:24.03	41.50	54.43	-30.4	-33.1	19.5	6.05e-01	0	43	102	524288	22	4889
2026-01-04 11:36:25.03	40.68	54.25	-30.2	-32.4	19.9	6.05e-01	0	43	102	524288	22	4641
2026-01-04 11:36:26.04	39.86	54.07	-30.3	-32.7	19.7	6.07e-01	0	43	102	524288	22	4761
2026-01-04 11:36:27.04	39.07	53.88	-30.5	-33.2	19.4	6.05e-01	0	43	102	524288	22	4912
2026-01-04 11:36:28.05	38.28	53.69	-30.4	-32.9	19.6	6.06e-01	0	43	102	524288	22	4807
2026-01-04 11:36:29.06	37.49	53.49	-30.6	-33.4	19.3	6.04e-01	0	43	102	524288	22	4995
2026-01-04 11:36:30.06	36.73	53.29	-30.6	-33.5	19.2	6.06e-01	0	43	102	524288	22	5035
2026-01-04 11:36:31.07	35.97	53.08	-30.6	-33.6	19.2	6.07e-01	0	43	102	524288	22	5076
2026-01-04 11:36:32.08	35.22	52.87	-31.0	-34.7	18.5	6.05e-01	0	43	102	524288	22	5472
2026-01-04 11:36:33.08	34.49	52.66	-30.5	-33.4	19.3	6.07e-01	0	43	102	524288	22	4976
2026-01-04 11:36:34.09	33.76	52.44	-30.7	-33.8	19.0	6.03e-01	0	43	102	524288	22	5137
2026-01-04 11:36:35.09	33.05	52.22	-30.7	-33.9	18.9	6.09e-01	0	43	102	524288	22	5167
2026-01-04 11:36:36.09	32.35	51.99	-30.7	-33.6	19.1	6.04e-01	0	43	102	524288	22	5081
2026-01-04 11:36:37.09	31.66	51.76	-31.3	-35.1	17.9	6.06e-01	0	43	102	524288	23	5526
2026-01-04 11:36:38.10	30.98	51.53	-31.0	-33.9	18.6	6.07e-01	0	43	102	524288	23	5083
2026-01-04 11:36:39.11	30.31	51.30	-30.7	-33.3	19.0	6.06e-01	0	43	102	524288	23	4854
2026-01-04 11:36:40.11	29.65	51.06	-30.8	-33.5	18.9	6.06e-01	0	43	102	524288	23	4913
2026-01-04 11:36:41.11	29.00	50.82	-30.8	-33.5	18.8	6.07e-01	0	43	102	524288	23	4922
2026-01-04 11:36:42.12	28.36	50.58	-30.9	-33.8	18.7	6.07e-01	0	43	102	524288	23	5038
2026-01-04 11:36:43.13	27.73	50.33	-31.4	-35.1	17.8	6.06e-01	0	43	102	524288	23	5558
2026-01-04 11:36:44.14	27.11	50.08	-30.8	-33.4	18.9	6.05e-01	0	43	102	524288	23	4901
2026-01-04 11:36:45.14	26.51	49.84	-30.4	-32.6	19.4	6.07e-01	0	43	102	524288	23	4626
2026-01-04 11:36:46.15	25.90	49.59	-30.4	-32.6	19.4	6.05e-01	0	43	102	524288	23	4628
2026-01-04 11:36:47.15	25.32	49.33	-30.5	-32.9	19.2	6.08e-01	0	43	102	524288	23	4720
2026-01-04 11:36:48.16	24.74	49.08	-30.1	-32.1	20.0	6.06e-01	0	43	102	524288	22	4570
2026-01-04 11:36:49.17	24.17	48.82	-30.4	-33.0	19.5	6.06e-01	0	43	102	524288	22	4854
2026-01-04 11:36:50.18	23.61	48.56	-30.2	-32.4	19.8	6.06e-01	0	43	102	524288	22	4660
2026-01-04 11:36:51.19	23.06	48.30	-30.3	-32.8	19.6	6.06e-01	0	43	102	524288	22	4801
2026-01-04 11:36:52.19	22.52	48.05	-30.3	-32.8	19.6	6.05e-01	0	43	102	524288	22	4790
2026-01-04 11:36:53.20	21.99	47.78	-30.2	-32.5	19.8	6.08e-01	0	43	102	524288	22	4691
2026-01-04 11:36:54.21	21.46	47.52	-30.3	-32.8	19.6	6.07e-01	0	43	102	524288	22	4799
2026-01-04 11:36:55.21	20.95	47.26	-30.9	-34.4	18.6	6.06e-01	0	43	102	524288	22	5364
2026-01-04 11:36:56.22	20.45	47.00	-30.6	-33.5	19.1	6.07e-01	0	43	102	524288	22	5027
2026-01-04 11:36:57.23	19.95	46.73	-30.3	-32.7	19.6	6.05e-01	0	43	102	524288	22	4756
2026-01-04 11:36:58.23	19.46	46.47	-30.1	-32.1	19.9	6.07e-01	0	43	102	524288	22	4571
2026-01-04 11:36:59.24	18.98	46.20	-29.9	-31.8	20.1	6.06e-01	0	43	102	524288	22	4471
2026-01-04 11:37:00.25	18.51	45.93	-30.0	-31.9	20.1	6.05e-01	0	43	102	524288	22	4510
2026-01-04 11:37:01.25	18.05	45.67	-30.4	-33.1	19.4	6.07e-01	0	43	102	524288	22	4913
2026-01-04 11:37:02.26	17.59	45.40	-30.4	-32.9	19.5	6.06e-01	0	43	102	524288	22	4838
2026-01-04 11:37:03.26	17.15	45.14	-30.4	-33.1	19.3	6.07e-01	0	43	102	524288	22	4912
2026-01-04 11:37:04.27	16.71	44.87	-30.0	-32.1	19.9	6.08e-01	0	43	102	524288	22	4567
2026-01-04 11:37:05.27	16.28	44.61	-29.9	-32.2	20.2	6.05e-01	0	43	102	524288	21	4712
2026-01-04 11:37:06.28	15.85	44.34	-30.0	-32.5	20.1	6.08e-01	0	43	102	524288	21	4799
2026-01-04 11:37:07.29	15.43	44.08	-30.1	-32.9	19.7	6.02e-01	0	43	102	524288	21	4946
2026-01-04 11:37:08.30	15.02	43.81	-30.1	-32.8	19.8	6.00e-01	0	43	102	524288	21	4889
2026-01-04 11:37:09.31	14.62	43.54	-30.2	-33.0	19.7	6.02e-01	0	43	102	524288	21	4992
2026-01-04 11:37:10.31	14.22	43.28	-30.3	-33.3	19.5	6.01e-01	0	43	102	524288	21	5096
2026-01-04 11:37:11.31	13.83	43.02	-30.1	-32.7	19.9	6.01e-01	0	43	102	524288	21	4859
2026-01-04 11:37:12.32	13.45	42.75	-30.4	-33.5	19.4	6.01e-01	0	43	102	524288	21	5139
2026-01-04 11:37:13.33	13.07	42.49	-30.6	-33.6	19.0	5.98e-01	0	43	102	524288	22	5073
2026-01-04 11:37:14.33	12.70	42.23	-30.3	-32.7	19.5	6.03e-01	0	43	102	524288	22	4760
2026-01-04 11:37:15.34	12.33	41.96	-30.2	-32.6	19.6	6.04e-01	0	43	102	524288	22	4737
2026-01-04 11:37:16.34	11.98	41.70	-30.6	-33.6	19.0	6.03e-01	0	43	102	524288	22	5074
2026-01-04 11:37:17.34	11.63	41.45	-30.6	-33.6	19.0	6.02e-01	0	43	102	524288	22	5066
2026-01-04 11:37:18.35	11.28	41.19	-30.4	-33.1	19.3	6.00e-01	0	43	102	524288	22	4908
2026-01-04 11:37:19.36	10.94	40.93	-30.6	-33.7	19.0	5.99e-01	0	43	102	524288	22	5110
2026-01-04 11:37:20.36	10.60	40.67	-31.1	-34.9	18.2	6.01e-01	0	43	102	524288	22	5606
2026-01-04 11:37:21.37	10.27	40.41	-31.0	-34.1	18.3	5.98e-01	0	43	102	524288	23	5168
2026-01-04 11:37:22.38	9.94	40.15	-30.8	-33.7	18.6	6.01e-01	0	43	102	524288	23	5006
2026-01-04 11:37:23.38	9.63	39.90	-31.1	-34.4	18.2	5.99e-01	0	43	102	524288	23	5283
2026-01-04 11:37:24.39	9.31	39.64	-31.3	-35.0	17.9	6.01e-01	0	43	102	524288	23	5498
2026-01-04 11:37:25.40	9.00	39.39	-31.3	-34.9	17.9	6.00e-01	0	43	102	524288	23	5467
2026-01-04 11:37:26.41	8.69	39.14	-31.2	-34.6	18.1	6.01e-01	0	43	102	524288	23	5346
2026-01-04 11:37:27.41	8.40	38.89	-31.3	-35.0	17.8	6.02e-01	0	43	102	524288	23	5514
2026-01-04 11:37:28.42	8.10	38.64	-31.4	-35.2	17.7	5.99e-01	0	43	102	524288	23	5592
2026-01-04 11:37:29.42	7.81	38.39	-31.1	-34.5	18.1	5.97e-01	0	43	102	524288	23	5320
2026-01-04 11:37:30.43	7.52	38.14	-30.9	-33.9	18.5	6.01e-01	0	43	102	524288	23	5091
2026-01-04 11:37:31.44	7.24	37.89	-31.0	-34.1	18.4	5.99e-01	0	43	102	524288	23	5160
2026-01-04 11:37:32.45	6.96	37.64	-31.0	-34.1	18.4	6.01e-01	0	43	102	524288	23	5167
2026-01-04 11:37:33.45	6.69	37.40	-30.9	-34.0	18.5	6.00e-01	0	43	102	524288	23	5107
2026-01-04 11:37:34.46	6.42	37.16	-31.2	-34.8	18.0	6.01e-01	0	43	102	524288	23	5423
2026-01-04 11:37:35.46	6.16	36.92	-31.3	-35.1	17.7	6.02e-01	0	43	102	524288	23	5555
2026-01-04 11:37:36.47	5.90	36.67	-31.0	-34.2	18.2	6.00e-01	0	43	102	524288	23	5201
2026-01-04 11:37:37.47	5.64	36.44	-30.7	-33.3	18.9	5.98e-01	0	43	102	524288	23	4855
2026-01-04 11:37:38.48	5.39	36.20	-30.8	-33.7	18.6	6.02e-01	0	43	102	524288	23	5006
2026-01-04 11:37:39.50	5.14	35.96	-31.0	-34.3	18.2	6.01e-01	0	43	102	524288	23	5227
2026-01-04 11:37:40.50	4.89	35.72	-31.2	-34.7	18.0	5.99e-01	0	43	102	524288	23	5392
2026-01-04 11:37:41.51	4.65	35.49	-31.1	-34.6	18.0	6.00e-01	0	43	102	524288	23	5367
2026-01-04 11:37:42.52	4.41	35.25	-31.0	-34.1	18.3	6.00e-01	0	43	102	524288	23	5183
2026-01-04 11:37:43.52	4.18	35.02	-30.9	-33.9	18.5	6.01e-01	0	43	102	524288	23	5107
2026-01-04 11:37:44.52	3.95	34.79	-31.0	-34.2	18.3	6.02e-01	0	43	102	524288	23	5207
2026-01-04 11:37:45.53	3.72	34.56	-31.0	-34.3	18.2	6.00e-01	0	43	102	524288	23	5258
2026-01-04 11:37:46.54	3.50	34.33	-30.9	-34.1	18.3	6.00e-01	0	43	102	524288	23	5158
2026-01-04 11:37:47.55	3.27	34.10	-30.8	-33.6	18.6	6.00e-01	0	43	102	524288	23	4992
2026-01-04 11:37:48.55	3.06	33.88	-30.7	-33.5	18.7	6.00e-01	0	43	102	524288	23	4954
2026-01-04 11:37:49.56	2.84	33.65	-30.8	-33.7	18.5	5.99e-01	0	43	102	524288	23	5035
2026-01-04 11:37:50.58	2.63	33.43	-30.7	-33.3	18.7	5.99e-01	0	43	102	524288	23	4891
2026-01-04 11:37:51.58	2.42	33.21	-30.3	-33.0	19.2	6.03e-01	0	43	102	524288	22	4868
2026-01-04 11:37:52.59	2.21	32.98	-30.2	-32.5	19.6	6.02e-01	0	43	102	524288	22	4715
2026-01-04 11:37:53.60	2.01	32.76	-30.2	-32.5	19.5	6.03e-01	0	43	102	524288	22	4714
2026-01-04 11:37:54.60	1.81	32.55	-30.2	-32.6	19.5	6.02e-01	0	43	102	524288	22	4758
2026-01-04 11:37:55.61	1.61	32.33	-30.2	-32.6	19.5	6.02e-01	0	43	102	524288	22	4738
2026-01-04 11:37:56.61	1.42	32.12	-30.2	-32.5	19.5	6.02e-01	0	43	102	524288	22	4727
2026-01-04 11:37:57.62	1.23	31.90	-30.3	-32.9	19.3	6.01e-01	0	43	102	524288	22	4840
2026-01-04 11:37:58.63	1.04	31.69	-30.2	-32.7	19.4	6.02e-01	0	43	102	524288	22	4785
2026-01-04 11:37:59.64	0.85	31.48	-29.9	-31.8	19.9	6.00e-01	0	43	102	524288	22	4499
2026-01-04 11:38:00.64	0.67	31.27	-29.6	-31.6	20.3	6.01e-01	0	43	102	524288	21	4540
2026-01-04 11:38:01.65	0.49	31.06	-29.5	-31.4	20.5	5.97e-01	0	43	102	524288	21	4463
2026-01-04 11:38:02.66	0.31	30.85	-29.6	-31.6	20.4	6.00e-01	0	43	102	524288	21	4526
2026-01-04 11:38:03.67	0.13	30.64	-29.8	-32.0	20.1	6.00e-01	0	43	102	524288	21	4662
2026-01-04 11:38:04.67	359.95	30.44	-29.8	-32.2	20.0	6.00e-01	0	43	102	524288	21	4716
2026-01-04 11:38:05.68	359.78	30.23	-29.8	-32.2	20.0	6.02e-01	0	43	102	524288	21	4723
2026-01-04 11:38:06.69	359.61	30.03	-29.8	-32.1	20.0	5.99e-01	0	43	102	524288	21	4681
2026-01-04 11:38:07.70	359.44	29.83	-29.8	-32.1	20.1	6.01e-01	0	43	102	524288	21	4684
2026-01-04 11:38:08.70	359.28	29.63	-29.9	-32.4	19.8	6.01e-01	0	43	102	524288	21	4805
2026-01-04 11:38:09.71	359.12	29.43	-29.9	-32.3	19.9	5.99e-01	0	43	102	524288	21	4766
2026-01-04 11:38:10.71	358.96	29.23	-29.8	-32.2	20.0	6.00e-01	0	43	102	524288	21	4711
2026-01-04 11:38:11.72	358.80	29.04	-29.9	-32.4	19.9	5.99e-01	0	43	102	524288	21	4784
2026-01-04 11:38:12.73	358.64	28.84	-29.9	-32.3	19.9	6.00e-01	0	43	102	524288	21	4764
2026-01-04 11:38:13.73	358.48	28.65	-29.9	-32.3	19.9	6.01e-01	0	43	102	524288	21	4760
2026-01-04 11:38:14.74	358.33	28.45	-29.9	-32.5	19.8	5.99e-01	0	43	102	524288	21	4815
2026-01-04 11:38:15.74	358.18	28.26	-30.0	-32.6	19.7	6.02e-01	0	43	102	524288	21	4852
2026-01-04 11:38:16.75	358.03	28.07	-30.0	-32.6	19.7	6.01e-01	0	43	102	524288	21	4868
2026-01-04 11:38:17.76	357.88	27.88	-29.9	-32.3	19.8	6.01e-01	0	43	102	524288	21	4778
2026-01-04 11:38:18.77	357.74	27.69	-29.8	-32.2	19.9	6.00e-01	0	43	102	524288	21	4723
2026-01-04 11:38:19.78	357.59	27.51	-29.8	-32.2	19.9	6.02e-01	0	43	102	524288	21	4738
2026-01-04 11:38:20.79	357.45	27.32	-30.0	-32.5	19.7	6.01e-01	0	43	102	524288	21	4843
2026-01-04 11:38:21.80	357.31	27.13	-30.0	-32.7	19.6	6.01e-01	0	43	102	524288	21	4883
2026-01-04 11:38:22.80	357.17	26.95	-30.1	-33.0	19.5	6.02e-01	0	43	102	524288	21	4988
2026-01-04 11:38:23.81	357.03	26.77	-30.2	-33.2	19.3	6.02e-01	0	43	102	524288	21	5065
2026-01-04 11:38:24.81	356.90	26.59	-30.3	-33.5	19.2	6.02e-01	0	43	102	524288	21	5174
2026-01-04 11:38:25.81	356.77	26.41	-30.3	-33.5	19.2	6.02e-01	0	43	102	524288	21	5178
2026-01-04 11:38:26.82	356.64	26.23	-30.3	-33.5	19.2	6.01e-01	0	43	102	524288	21	5171
2026-01-04 11:38:27.82	356.51	26.06	-30.4	-33.7	19.0	5.98e-01	0	43	102	524288	21	5260
2026-01-04 11:38:28.83	356.38	25.88	-30.3	-33.4	19.2	6.01e-01	0	43	102	524288	21	5140
2026-01-04 11:38:29.84	356.25	25.70	-30.3	-33.4	19.2	6.02e-01	0	43	102	524288	21	5160
2026-01-04 11:38:30.84	356.12	25.53	-30.2	-33.2	19.3	6.01e-01	0	43	102	524288	21	5059
2026-01-04 11:38:31.85	356.00	25.35	-30.2	-33.0	19.4	6.00e-01	0	43	102	524288	21	5020
2026-01-04 11:38:32.86	355.88	25.18	-30.2	-33.1	19.4	6.00e-01	0	43	102	524288	21	5046
2026-01-04 11:38:33.87	355.75	25.01	-30.2	-33.1	19.3	6.01e-01	0	43	102	524288	21	5050
2026-01-04 11:38:34.87	355.63	24.84	-30.2	-33.2	19.3	6.02e-01	0	43	102	524288	21	5096
2026-01-04 11:38:35.88	355.52	24.67	-30.4	-33.6	19.0	6.00e-01	0	43	102	524288	21	5228
2026-01-04 11:38:36.88	355.40	24.50	-30.3	-33.4	19.1	6.00e-01	0	43	102	524288	21	5149
2026-01-04 11:38:37.89	355.28	24.34	-30.2	-33.3	19.2	6.02e-01	0	43	102	524288	21	5113
2026-01-04 11:38:38.90	355.17	24.17	-30.3	-33.5	19.0	5.99e-01	0	43	102	524288	21	5195
2026-01-04 11:38:39.91	355.05	24.01	-30.3	-33.5	19.0	6.02e-01	0	43	102	524288	21	5191
2026-01-04 11:38:40.91	354.94	23.84	-30.4	-33.7	18.9	5.99e-01	0	43	102	524288	21	5287
2026-01-04 11:38:41.91	354.83	23.68	-30.4	-33.7	18.9	6.01e-01	0	43	102	524288	21	5280
2026-01-04 11:38:42.92	354.72	23.52	-30.5	-34.0	18.7	5.99e-01	0	43	102	524288	21	5386
2026-01-04 11:38:43.93	354.61	23.36	-30.4	-33.8	18.8	6.00e-01	0	43	102	524288	21	5295
2026-01-04 11:38:44.94	354.51	23.20	-30.3	-33.5	19.0	6.00e-01	0	43	102	524288	21	5204
2026-01-04 11:38:45.95	354.40	23.04	-30.3	-33.5	19.0	6.02e-01	0	43	102	524288	21	5201
2026-01-04 11:38:46.95	354.30	22.88	-30.2	-33.3	19.1	6.01e-01	0	43	102	524288	21	5133
2026-01-04 11:38:47.96	354.19	22.72	-30.3	-33.3	19.1	6.00e-01	0	43	102	524288	21	5137
2026-01-04 11:38:48.97	354.09	22.57	-30.3	-33.4	19.0	6.01e-01	0	43	102	524288	21	5177
2026-01-04 11:38:49.97	353.99	22.41	-30.3	-33.4	19.1	6.01e-01	0	43	102	524288	21	5158
2026-01-04 11:38:50.97	353.89	22.26	-30.4	-33.7	18.9	6.02e-01	0	43	102	524288	21	5276
2026-01-04 11:38:51.98	353.79	22.10	-30.3	-33.5	19.0	5.99e-01	0	43	102	524288	21	5202
2026-01-04 11:38:52.98	353.69	21.95	-30.4	-33.7	18.9	6.01e-01	0	43	102	524288	21	5275
2026-01-04 11:38:53.99	353.59	21.80	-30.4	-33.7	18.9	6.01e-01	0	43	102	524288	21	5271
2026-01-04 11:38:54.99	353.50	21.65	-30.5	-34.0	18.7	6.01e-01	0	43	102	524288	21	5408
2026-01-04 11:38:56.00	353.40	21.50	-30.4	-33.8	18.8	6.04e-01	0	43	102	524288	21	5301
2026-01-04 11:38:57.01	353.31	21.35	-30.3	-33.6	19.0	6.03e-01	0	43	102	524288	21	5230
2026-01-04 11:38:58.02	353.21	21.20	-30.4	-33.6	18.9	6.02e-01	0	43	102	524288	21	5252
2026-01-04 11:38:59.02	353.12	21.06	-30.3	-33.5	19.0	6.03e-01	0	43	102	524288	21	5223
2026-01-04 11:39:00.02	353.03	20.91	-30.3	-33.6	18.9	6.00e-01	0	43	102	524288	21	5235
2026-01-04 11:39:01.03	352.94	20.76	-30.4	-33.7	18.9	5.96e-01	0	43	102	524288	21	5266
2026-01-04 11:39:02.03	352.85	20.62	-30.3	-33.4	19.0	5.97e-01	0	43	102	524288	21	5174
2026-01-04 11:39:03.04	352.76	20.48	-30.3	-33.4	19.0	5.98e-01	0	43	102	524288	21	5170
2026-01-04 11:39:04.05	352.68	20.33	-30.3	-33.4	19.0	6.01e-01	0	43	102	524288	21	5168
2026-01-04 11:39:05.06	352.59	20.19	-30.4	-33.7	18.8	6.01e-01	0	43	102	524288	21	5299
2026-01-04 11:39:06.06	352.50	20.05	-30.3	-33.4	19.0	6.00e-01	0	43	102	524288	21	5175
2026-01-04 11:39:07.07	352.42	19.91	-30.3	-33.5	19.0	6.02e-01	0	43	102	524288	21	5188
2026-01-04 11:39:08.08	352.33	19.77	-30.3	-33.5	18.9	6.00e-01	0	43	102	524288	21	5194
2026-01-04 11:39:09.09	352.25	19.63	-30.4	-33.8	18.7	6.03e-01	0	43	102	524288	21	5316
2026-01-04 11:39:10.09	352.17	19.49	-30.3	-33.6	18.8	6.01e-01	0	43	102	524288	21	5254
2026-01-04 11:39:11.09	352.09	19.36	-30.3	-33.6	18.8	6.02e-01	0	43	102	524288	21	5254
2026-01-04 11:39:12.10	352.01	19.22	-30.4	-33.7	18.8	6.01e-01	0	43	102	524288	21	5283
2026-01-04 11:39:13.11	351.93	19.08	-30.4	-33.8	18.7	6.01e-01	0	43	102	524288	21	5335
2026-01-04 11:39:14.11	351.85	18.95	-30.4	-33.7	18.8	6.00e-01	0	43	102	524288	21	5283
2026-01-04 11:39:15.12	351.77	18.81	-30.4	-33.8	18.7	6.00e-01	0	43	102	524288	21	5334
2026-01-04 11:39:16.12	351.69	18.68	-30.5	-34.2	18.4	6.00e-01	0	43	102	524288	21	5476
2026-01-04 11:39:17.13	351.61	18.55	-30.3	-33.7	18.7	6.01e-01	0	43	102	524288	21	5291
2026-01-04 11:39:18.13	351.54	18.42	-30.3	-33.4	18.9	6.00e-01	0	43	102	524288	21	5200
2026-01-04 11:39:19.14	351.46	18.29	-30.2	-33.4	18.9	6.02e-01	0	43	102	524288	21	5189
2026-01-04 11:39:20.14	351.39	18.16	-30.2	-33.4	18.9	6.01e-01	0	43	102	524288	21	5188
2026-01-04 11:39:21.15	351.31	18.02	-30.2	-33.4	18.9	6.01e-01	0	43	102	524288	21	5181
2026-01-04 11:39:22.15	351.24	17.90	-30.2	-33.4	18.9	6.01e-01	0	43	102	524288	21	5204
2026-01-04 11:39:23.16	351.17	17.77	-30.2	-33.3	19.0	6.01e-01	0	43	102	524288	21	5146
2026-01-04 11:39:24.17	351.09	17.64	-30.2	-33.3	18.9	6.01e-01	0	43	102	524288	21	5151
2026-01-04 11:39:25.18	351.02	17.51	-30.2	-33.4	18.8	6.01e-01	0	43	102	524288	21	5205
2026-01-04 11:39:26.18	350.95	17.39	-30.1	-33.0	19.1	5.99e-01	0	43	102	524288	21	5060
2026-01-04 11:39:27.19	350.88	17.26	-30.2	-33.4	18.9	6.01e-01	0	43	102	524288	21	5176
2026-01-04 11:39:28.20	350.81	17.13	-30.3	-33.6	18.7	6.00e-01	0	43	102	524288	21	5284
2026-01-04 11:39:29.20	350.74	17.01	-30.1	-33.2	19.0	6.00e-01	0	43	102	524288	21	5134
2026-01-04 11:39:30.21	350.68	16.89	-30.0	-32.9	19.1	6.01e-01	0	43	102	524288	21	5033
2026-01-04 11:39:31.22	350.61	16.76	-30.0	-32.9	19.1	6.01e-01	0	43	102	524288	21	5030
2026-01-04 11:39:32.22	350.54	16.64	-30.0	-33.0	19.0	6.02e-01	0	43	102	524288	21	5085
2026-01-04 11:39:33.23	350.48	16.52	-30.1	-33.2	18.8	5.99e-01	0	43	102	524288	21	5164
2026-01-04 11:39:34.24	350.41	16.40	-30.1	-33.2	18.7	6.02e-01	0	43	102	524288	21	5169
2026-01-04 11:39:35.25	350.34	16.28	-30.1	-33.3	18.6	6.01e-01	0	43	102	524288	21	5218
2026-01-04 11:39:36.25	350.28	16.16	-30.1	-33.5	18.5	6.00e-01	0	43	102	524288	21	5267
2026-01-04 11:39:37.26	350.22	16.04	-30.1	-33.4	18.5	5.99e-01	0	43	102	524288	21	5247
2026-01-04 11:39:38.27	350.15	15.92	-30.2	-33.6	18.3	6.01e-01	0	43	102	524288	21	5356
2026-01-04 11:39:39.27	350.09	15.80	-30.2	-33.8	18.1	6.03e-01	0	43	102	524288	21	5456
2026-01-04 11:39:40.28	350.03	15.68	-30.1	-33.5	18.1	6.01e-01	0	43	102	524288	21	5374
2026-01-04 11:39:41.28	349.97	15.57	-29.9	-33.4	18.0	6.03e-01	0	43	102	524288	21	5376
2026-01-04 11:39:42.29	349.91	15.45	-29.7	-33.4	17.5	6.01e-01	0	43	102	524288	21	5485
2026-01-04 11:39:43.30	349.85	15.33	-29.6	-33.5	17.1	6.00e-01	0	43	102	524288	21	5641
2026-01-04 11:39:44.30	349.79	15.22	-29.6	-33.7	16.9	6.02e-01	0	43	102	524288	21	5762
2026-01-04 11:39:45.31	349.73	15.10	-29.7	-33.6	17.2	6.00e-01	0	43	102	524288	21	5678
2026-01-04 11:39:46.32	349.67	14.99	-30.2	-34.3	17.4	6.03e-01	0	43	102	524288	21	5801
2026-01-04 11:39:47.33	349.61	14.87	-30.2	-34.0	17.9	6.01e-01	0	43	102	524288	21	5595
2026-01-04 11:39:48.33	349.55	14.76	-30.1	-33.7	18.2	6.00e-01	0	43	102	524288	21	5429
2026-01-04 11:39:49.34	349.49	14.65	-30.0	-33.6	18.1	6.02e-01	0	43	102	524288	21	5412
2026-01-04 11:39:50.34	349.44	14.54	-29.7	-33.2	17.9	5.99e-01	0	43	102	524288	21	5391
2026-01-04 11:39:51.35	349.38	14.43	-29.3	-33.5	17.2	6.01e-01	0	43	102	524288	20	5834
2026-01-04 11:39:52.36	349.32	14.31	-28.5	-33.3	16.3	6.00e-01	0	43	102	524288	19	6259
2026-01-04 11:39:53.37	349.27	14.20	-27.1	-33.2	15.1	5.99e-01	0	43	102	524288	16	7281
2026-01-04 11:39:54.38	349.21	14.09	-26.6	-33.2	14.6	6.03e-01	0	43	102	524288	15	7690
2026-01-04 11:39:55.38	349.16	13.98	-26.1	-32.9	14.3	6.04e-01	0	43	102	524288	14	7947
2026-01-04 11:39:56.38	349.10	13.88	-25.9	-32.7	14.2	6.02e-01	0	43	102	524288	14	7846
2026-01-04 11:39:57.39	349.05	13.77	-26.1	-32.8	14.6	5.99e-01	0	43	102	524288	14	7789
2026-01-04 11:39:58.39	349.00	13.66	-27.0	-33.8	15.3	6.02e-01	0	43	102	524288	14	7849
2026-01-04 11:39:59.40	348.94	13.55	-28.3	-33.8	16.4	5.98e-01	0	43	102	524288	17	6787
2026-01-04 11:40:00.41	348.89	13.45	-28.9	-34.2	16.9	5.98e-01	0	43	102	524288	18	6556
2026-01-04 11:40:01.42	348.84	13.34	-29.6	-34.4	17.3	6.01e-01	0	43	102	524288	19	6294
2026-01-04 11:40:02.42	348.79	13.23	-29.6	-33.6	17.9	6.02e-01	0	43	102	524288	20	5694
2026-01-04 11:40:03.43	348.74	13.13	-29.7	-33.5	18.0	6.01e-01	0	43	102	524288	20	5627
2026-01-04 11:40:04.43	348.69	13.02	-29.8	-33.6	18.1	6.00e-01	0	43	102	524288	20	5626
2026-01-04 11:40:05.44	348.64	12.92	-29.9	-33.8	18.0	6.02e-01	0	43	102	524288	20	5669
2026-01-04 11:40:06.45	348.59	12.82	-29.9	-33.9	18.1	6.01e-01	0	43	102	524288	20	5662
2026-01-04 11:40:07.45	348.54	12.71	-30.1	-34.0	18.2	6.01e-01	0	43	102	524288	20	5669
2026-01-04 11:40:08.46	348.49	12.61	-30.2	-33.8	18.2	6.01e-01	0	43	102	524288	21	5411
2026-01-04 11:40:09.47	348.44	12.51	-30.4	-34.0	18.1	5.99e-01	0	43	102	524288	21	5500
2026-01-04 11:40:10.48	348.39	12.40	-30.4	-34.0	18.2	6.01e-01	0	43	102	524288	21	5454
2026-01-04 11:40:11.49	348.34	12.30	-30.4	-33.9	18.2	6.01e-01	0	43	102	524288	21	5441
2026-01-04 11:40:12.50	348.30	12.20	-30.3	-33.8	18.3	6.00e-01	0	43	102	524288	21	5398
2026-01-04 11:40:13.51	348.25	12.10	-30.3	-33.8	18.2	6.02e-01	0	43	102	524288	21	5407
2026-01-04 11:40:14.52	348.20	12.00	-30.2	-33.7	18.2	6.00e-01	0	43	102	524288	21	5385
2026-01-04 11:40:15.52	348.16	11.90	-30.3	-33.9	18.2	6.00e-01	0	43	102	524288	21	5448
2026-01-04 11:40:16.53	348.11	11.80	-30.4	-34.0	18.1	6.00e-01	0	43	102	524288	21	5475
2026-01-04 11:40:17.54	348.06	11.70	-30.2	-33.6	18.4	6.03e-01	0	43	102	524288	21	5327
2026-01-04 11:40:18.55	348.02	11.60	-30.3	-33.7	18.4	6.01e-01	0	43	102	524288	21	5361
2026-01-04 11:40:19.55	347.97	11.50	-30.3	-33.7	18.4	6.00e-01	0	43	102	524288	21	5322
2026-01-04 11:40:20.56	347.93	11.41	-30.4	-33.9	18.3	6.00e-01	0	43	102	524288	21	5417
2026-01-04 11:40:21.56	347.88	11.31	-30.4	-34.0	18.2	6.00e-01	0	43	102	524288	21	5464
2026-01-04 11:40:22.56	347.84	11.21	-30.4	-34.0	18.2	6.01e-01	0	43	102	524288	21	5476
2026-01-04 11:40:23.57	347.80	11.12	-30.4	-34.0	18.2	6.00e-01	0	43	102	524288	21	5451
2026-01-04 11:40:24.57	347.75	11.02	-30.3	-33.8	18.3	6.01e-01	0	43	102	524288	21	5389
2026-01-04 11:40:25.59	347.71	10.93	-30.3	-33.9	18.3	6.01e-01	0	43	102	524288	21	5426
2026-01-04 11:40:26.59	347.67	10.83	-30.3	-33.8	18.3	5.99e-01	0	43	102	524288	21	5401
2026-01-04 11:40:27.60	347.63	10.74	-30.4	-34.0	18.2	6.01e-01	0	43	102	524288	21	5479
2026-01-04 11:40:28.61	347.58	10.64	-30.4	-34.0	18.1	6.02e-01	0	43	102	524288	21	5489
2026-01-04 11:40:29.62	347.54	10.55	-30.5	-34.4	17.9	6.01e-01	0	43	102	524288	21	5650
2026-01-04 11:40:30.63	347.50	10.45	-30.5	-34.5	17.8	6.00e-01	0	43	102	524288	21	5686
2026-01-04 11:40:31.64	347.46	10.36	-30.5	-34.3	17.9	6.00e-01	0	43	102	524288	21	5585
2026-01-04 11:40:32.64	347.42	10.27	-30.4	-34.2	18.0	6.01e-01	0	43	102	524288	21	5560
2026-01-04 11:40:33.65	347.38	10.17	-30.5	-34.3	17.9	6.02e-01	0	43	102	524288	21	5600
2026-01-04 11:40:34.66	347.34	10.08	-30.5	-34.3	17.9	6.00e-01	0	43	102	524288	21	5612
2026-01-04 11:40:35.67	347.30	9.99	-30.5	-34.5	17.8	6.00e-01	0	43	102	524288	21	5682
2026-01-04 11:40:36.67	347.26	9.90	-30.5	-34.5	17.8	6.01e-01	0	43	102	524288	21	5684
2026-01-04 11:40:37.68	347.22	9.81	-30.6	-34.6	17.6	6.01e-01	0	43	102	524288	21	5729
2026-01-04 11:40:38.69	347.18	9.72	-30.6	-34.7	17.6	6.02e-01	0	43	102	524288	21	5779
2026-01-04 11:40:39.69	347.14	9.63	-30.8	-34.7	17.3	6.01e-01	0	43	102	524288	22	5664
2026-01-04 11:40:40.70	347.11	9.54	-30.7	-34.6	17.4	6.04e-01	0	43	102	524288	22	5625
2026-01-04 11:40:41.71	347.07	9.45	-30.8	-34.7	17.3	6.00e-01	0	43	102	524288	22	5648
2026-01-04 11:40:42.72	347.03	9.36	-30.7	-34.6	17.4	6.01e-01	0	43	102	524288	22	5606
2026-01-04 11:40:43.72	346.99	9.27	-30.7	-34.5	17.4	5.99e-01	0	43	102	524288	22	5574
2026-01-04 11:40:44.73	346.95	9.18	-30.7	-34.6	17.3	6.02e-01	0	43	102	524288	22	5625
2026-01-04 11:40:45.72	346.92	9.09	-30.7	-34.6	17.4	5.98e-01	0	43	102	524288	22	5603
2026-01-04 11:40:46.73	346.88	9.00	-30.8	-34.9	17.1	6.00e-01	0	43	102	524288	22	5760
2026-01-04 11:40:47.73	346.85	8.92	-31.0	-35.5	16.7	6.00e-01	0	43	102	524288	22	6034
2026-01-04 11:40:48.74	346.81	8.83	-30.9	-35.1	16.9	6.02e-01	0	43	102	524288	22	5838
2026-01-04 11:40:49.75	346.77	8.74	-30.7	-34.6	17.3	6.00e-01	0	43	102	524288	22	5617
2026-01-04 11:40:50.76	346.74	8.65	-30.7	-34.5	17.4	6.01e-01	0	43	102	524288	22	5571
2026-01-04 11:40:51.76	346.70	8.57	-30.7	-34.6	17.3	6.00e-01	0	43	102	524288	22	5645
2026-01-04 11:40:52.77	346.67	8.48	-30.7	-34.7	17.2	6.02e-01	0	43	102	524288	22	5673
2026-01-04 11:40:53.77	346.63	8.40	-30.7	-34.7	17.1	6.02e-01	0	43	102	524288	22	5681
2026-01-04 11:40:54.77	346.60	8.31	-30.7	-34.6	17.2	6.00e-01	0	43	102	524288	22	5640
2026-01-04 11:40:55.78	346.56	8.23	-30.7	-34.6	17.2	6.02e-01	0	43	102	524288	22	5656
2026-01-04 11:40:56.79	346.53	8.14	-30.7	-34.6	17.2	6.01e-01	0	43	102	524288	22	5641
2026-01-04 11:40:57.80	346.50	8.06	-30.8	-34.8	17.0	6.02e-01	0	43	102	524288	22	5744
2026-01-04 11:40:58.80	346.46	7.97	-30.8	-34.8	17.0	5.99e-01	0	43	102	524288	22	5741
2026-01-04 11:40:59.81	346.43	7.89	-30.7	-34.7	17.1	6.03e-01	0	43	102	524288	22	5704
2026-01-04 11:41:00.82	346.40	7.81	-30.8	-34.9	16.9	6.02e-01	0	43	102	524288	22	5798
2026-01-04 11:41:01.82	346.36	7.72	-30.8	-34.9	16.9	6.01e-01	0	43	102	524288	22	5780
2026-01-04 11:41:02.83	346.33	7.64	-30.8	-34.8	17.0	6.00e-01	0	43	102	524288	22	5740
2026-01-04 11:41:03.84	346.30	7.56	-30.9	-35.3	16.7	6.01e-01	0	43	102	524288	22	5956
2026-01-04 11:41:04.84	346.27	7.47	-30.8	-35.1	16.8	5.96e-01	0	43	102	524288	22	5873
2026-01-04 11:41:05.85	346.23	7.39	-30.8	-34.9	16.9	6.01e-01	0	43	102	524288	22	5804
2026-01-04 11:41:06.86	346.20	7.31	-30.8	-34.9	16.9	6.01e-01	0	43	102	524288	22	5782
2026-01-04 11:41:07.86	346.17	7.23	-30.7	-34.8	17.0	6.00e-01	0	43	102	524288	22	5745
2026-01-04 11:41:08.87	346.14	7.15	-30.8	-34.9	16.9	6.00e-01	0	43	102	524288	22	5774
2026-01-04 11:41:09.87	346.11	7.07	-33.3	-44.9	4.4	7.26e-01	0	43	104	524288	28	13704
2026-01-04 11:41:10.87	346.08	6.99	-33.9	-52.7	3.8	7.46e-01	0	43	104	524288	28	31317

#Closed at: 2026-01-04 11:41:11
#Recorded file [0 MB]: D:/data/31010_260104_143050.dat