passes_logs/2026/01/04/R2M6_AANII_01/R2M6_AANII_01__20260104_054928_FENGYUN_3E_rec.log

#Pass ID: 20260104_054928_FENGYUN 3E
#Satellite: FENGYUN 3E
#Configuration: FENGYUN 3E
#almurnet v.1.7.20240730
#Start time: 2026-01-04 05:49:27

#Version: 2.2.20231116
#Station: R2M6_AANII_01
#Location: 30.233357 lon 59.946436 lat
#TLE: 1 49008U 21062A   26003.51942929 -.00000034  00000+0  45519-5 0  9990
#TLE: 2 49008  98.7472   8.7829 0001426 160.7926 199.3304 14.19883272233213

#Time	Az	El	Level	Level2	SNR	BER	BlckErr	Temp	State	Recorded	gain1	gain2
2026-01-04 05:49:27.90	12.82	6.97	-29.6	-31.8	5.3	7.76e-01	0	41	0	0	19	4651
2026-01-04 05:49:28.90	12.76	7.04	-29.7	-32.1	5.3	7.78e-01	0	41	104	0	19	4748
2026-01-04 05:49:29.91	12.70	7.11	-29.8	-32.4	9.1	2.03e-02	0	41	0	0	19	4848
2026-01-04 05:49:30.92	12.64	7.19	-29.5	-31.4	9.7	1.14e-02	0	41	102	1048576	19	4506
2026-01-04 05:49:31.93	12.58	7.26	-29.7	-32.0	9.4	1.15e-02	0	41	102	1048576	19	4677
2026-01-04 05:49:32.94	12.52	7.33	-29.4	-31.3	9.8	1.05e-02	0	41	102	1048576	19	4441
2026-01-04 05:49:33.95	12.46	7.41	-29.3	-31.3	10.2	6.43e-03	0	41	102	1048576	18	4558
2026-01-04 05:49:34.96	12.40	7.48	-29.4	-31.6	10.0	6.16e-03	0	41	102	1048576	18	4640
2026-01-04 05:49:35.97	12.34	7.55	-29.0	-30.6	10.7	3.35e-03	0	41	102	1048576	18	4333
2026-01-04 05:49:36.97	12.28	7.63	-28.5	-29.4	11.5	8.60e-04	0	41	102	1048576	18	4006
2026-01-04 05:49:37.98	12.22	7.70	-28.1	-29.4	12.0	4.24e-04	0	41	102	1048576	16	4200
2026-01-04 05:49:38.98	12.15	7.77	-27.9	-28.9	12.4	1.46e-04	0	41	102	1048576	16	4042
2026-01-04 05:49:39.99	12.09	7.85	-27.7	-28.6	12.6	5.83e-05	0	41	102	1048576	16	3968
2026-01-04 05:49:40.99	12.03	7.92	-27.4	-28.3	12.9	4.80e-05	0	41	102	1048576	15	4004
2026-01-04 05:49:42.00	11.97	8.00	-27.4	-28.4	12.8	4.81e-04	0	41	102	1048576	15	4033
2026-01-04 05:49:43.01	11.90	8.07	-27.4	-28.3	12.9	4.23e-05	0	41	102	1048576	15	3987
2026-01-04 05:49:44.01	11.84	8.14	-27.4	-28.9	12.8	5.25e-04	0	41	102	1048576	14	4274
2026-01-04 05:49:45.00	11.78	8.22	-27.3	-28.7	13.0	2.97e-05	0	41	102	1048576	14	4202
2026-01-04 05:49:46.01	11.71	8.29	-27.4	-28.9	12.9	3.43e-05	0	41	102	1048576	14	4258
2026-01-04 05:49:47.02	11.65	8.37	-27.3	-28.7	13.0	4.76e-04	0	41	102	1048576	14	4198
2026-01-04 05:49:48.02	11.58	8.44	-27.2	-28.4	13.2	2.05e-05	0	41	102	1048576	14	4117
2026-01-04 05:49:49.03	11.52	8.52	-27.1	-28.1	13.4	1.83e-05	0	42	102	1048576	14	4044
2026-01-04 05:49:50.04	11.45	8.60	-27.1	-28.2	13.3	2.61e-04	0	42	102	1048576	14	4069
2026-01-04 05:49:51.04	11.39	8.67	-27.4	-28.7	13.0	2.43e-04	0	42	102	1048576	14	4209
2026-01-04 05:49:52.04	11.32	8.75	-27.1	-28.2	13.4	1.71e-05	0	41	102	1048576	14	4062
2026-01-04 05:49:53.04	11.25	8.82	-27.1	-28.2	13.4	1.71e-05	0	41	102	1048576	14	4057
2026-01-04 05:49:54.04	11.19	8.90	-27.2	-28.3	13.3	2.38e-04	0	42	102	1048576	14	4098
2026-01-04 05:49:55.06	11.12	8.98	-27.4	-28.9	13.0	2.17e-05	0	42	102	1048576	14	4257
2026-01-04 05:49:56.06	11.05	9.05	-27.2	-28.4	13.3	2.96e-04	0	42	102	1048576	14	4114
2026-01-04 05:49:57.06	10.98	9.13	-27.0	-27.9	13.6	1.90e-04	0	42	102	1048576	14	3989
2026-01-04 05:49:58.07	10.92	9.21	-27.0	-27.9	13.6	6.80e-06	0	42	102	1048576	14	3995
2026-01-04 05:49:59.08	10.85	9.29	-27.0	-28.0	13.5	2.59e-04	0	42	102	1048576	14	4015
2026-01-04 05:50:00.09	10.78	9.37	-26.9	-27.7	13.7	2.51e-04	0	42	102	1048576	14	3946
2026-01-04 05:50:01.10	10.71	9.44	-26.9	-27.7	13.7	4.50e-06	0	42	102	1048576	14	3942
2026-01-04 05:50:02.10	10.64	9.52	-26.9	-28.1	13.7	2.31e-04	0	42	102	1048576	13	4136
2026-01-04 05:50:03.11	10.57	9.60	-26.8	-28.0	13.8	4.50e-06	0	42	102	1048576	13	4128
2026-01-04 05:50:04.12	10.49	9.68	-26.9	-28.2	13.7	4.50e-06	0	42	102	1048576	13	4166
2026-01-04 05:50:05.13	10.42	9.76	-26.9	-28.2	13.7	5.70e-06	0	42	102	1048576	13	4185
2026-01-04 05:50:06.13	10.35	9.84	-26.8	-28.0	13.8	4.50e-06	0	42	102	1048576	13	4123
2026-01-04 05:50:07.14	10.28	9.92	-26.9	-28.2	13.7	6.80e-06	0	42	102	1048576	13	4168
2026-01-04 05:50:08.14	10.21	10.00	-26.8	-28.0	13.8	3.40e-06	0	42	102	1048576	13	4127
2026-01-04 05:50:09.15	10.13	10.08	-27.0	-28.3	13.7	3.07e-04	0	42	102	1048576	13	4211
2026-01-04 05:50:10.15	10.06	10.15	-26.8	-28.0	13.8	2.20e-06	0	42	102	1048576	13	4122
2026-01-04 05:50:11.16	9.99	10.24	-26.8	-28.0	13.8	2.20e-06	0	42	102	1048576	13	4125
2026-01-04 05:50:12.16	9.91	10.31	-27.0	-28.3	13.7	9.10e-06	0	42	102	1048576	13	4193
2026-01-04 05:50:13.17	9.84	10.40	-26.9	-28.2	13.8	5.70e-06	0	42	102	1048576	13	4166
2026-01-04 05:50:14.18	9.76	10.48	-26.9	-28.1	13.8	8.00e-06	0	42	102	1048576	13	4154
2026-01-04 05:50:15.19	9.69	10.56	-27.0	-28.4	13.6	8.00e-06	0	42	102	1048576	13	4218
2026-01-04 05:50:16.19	9.61	10.64	-27.3	-28.5	13.3	6.80e-06	0	42	102	1048576	14	4140
2026-01-04 05:50:17.20	9.53	10.72	-27.4	-28.8	13.1	2.51e-05	0	42	102	1048576	14	4229
2026-01-04 05:50:18.21	9.46	10.80	-27.1	-28.2	13.5	1.37e-05	0	42	102	1048576	14	4053
2026-01-04 05:50:19.22	9.38	10.88	-27.0	-27.8	13.8	3.40e-06	0	42	102	1048576	14	3951
2026-01-04 05:50:20.22	9.30	10.97	-26.8	-27.4	13.9	6.80e-06	0	42	102	1048576	14	3871
2026-01-04 05:50:21.23	9.22	11.05	-26.7	-27.6	14.1	5.70e-06	0	42	102	1048576	13	4016
2026-01-04 05:50:22.24	9.14	11.13	-26.7	-27.8	14.0	1.10e-06	0	42	102	1048576	13	4062
2026-01-04 05:50:23.25	9.06	11.21	-26.7	-27.7	14.1	1.10e-06	0	42	102	1048576	13	4044
2026-01-04 05:50:24.25	8.98	11.30	-26.7	-27.8	14.0	1.10e-06	0	42	102	1048576	13	4050
2026-01-04 05:50:25.26	8.90	11.38	-26.8	-28.0	13.9	1.10e-06	0	42	102	1048576	13	4106
2026-01-04 05:50:26.27	8.82	11.46	-26.7	-27.6	14.1	1.10e-06	0	42	102	1048576	13	4009
2026-01-04 05:50:27.28	8.74	11.55	-26.5	-27.3	14.3	1.10e-06	0	42	102	1048576	13	3940
2026-01-04 05:50:28.28	8.66	11.63	-26.7	-27.6	14.2	0.00e+00	0	42	102	1048576	13	4001
2026-01-04 05:50:29.29	8.58	11.72	-26.6	-27.5	14.2	1.10e-06	0	42	102	1048576	13	3984
2026-01-04 05:50:30.30	8.49	11.80	-26.5	-27.2	14.4	1.10e-06	0	42	102	1048576	13	3899
2026-01-04 05:50:31.31	8.41	11.89	-26.5	-27.2	14.4	0.00e+00	0	42	102	1048576	13	3898
2026-01-04 05:50:32.31	8.33	11.97	-26.5	-27.1	14.4	1.10e-06	0	42	102	1048576	13	3891
2026-01-04 05:50:33.31	8.24	12.05	-26.4	-26.9	14.6	0.00e+00	0	42	102	1048576	13	3828
2026-01-04 05:50:34.32	8.16	12.14	-26.4	-27.0	14.5	0.00e+00	0	42	102	1048576	13	3857
2026-01-04 05:50:35.32	8.07	12.22	-26.4	-26.9	14.6	0.00e+00	0	42	102	1048576	13	3837
2026-01-04 05:50:36.33	7.99	12.31	-26.4	-26.9	14.6	0.00e+00	0	42	102	1048576	13	3830
2026-01-04 05:50:37.32	7.90	12.40	-26.4	-27.1	14.5	0.00e+00	0	42	102	1048576	13	3881
2026-01-04 05:50:38.33	7.82	12.48	-26.5	-27.3	14.4	2.20e-06	0	42	102	1048576	13	3921
2026-01-04 05:50:39.34	7.73	12.57	-26.3	-26.8	14.7	0.00e+00	0	43	102	1048576	13	3816
2026-01-04 05:50:40.34	7.64	12.65	-26.3	-26.8	14.7	0.00e+00	0	42	102	1048576	13	3815
2026-01-04 05:50:41.35	7.55	12.74	-26.4	-27.0	14.6	0.00e+00	0	43	102	1048576	13	3847
2026-01-04 05:50:42.36	7.46	12.83	-26.5	-27.2	14.5	1.10e-06	0	43	102	1048576	13	3899
2026-01-04 05:50:43.37	7.37	12.92	-26.4	-27.0	14.6	1.10e-06	0	43	102	1048576	13	3852
2026-01-04 05:50:44.38	7.28	13.01	-26.4	-27.0	14.6	1.10e-06	0	43	102	1048576	13	3853
2026-01-04 05:50:45.38	7.19	13.09	-26.4	-27.1	14.6	0.00e+00	0	43	102	1048576	13	3879
2026-01-04 05:50:46.39	7.10	13.18	-26.4	-26.9	14.6	0.00e+00	0	42	102	1048576	13	3843
2026-01-04 05:50:47.39	7.01	13.27	-26.3	-27.3	14.7	1.10e-06	0	43	102	1048576	12	4044
2026-01-04 05:50:48.40	6.92	13.36	-26.3	-27.3	14.7	0.00e+00	0	43	102	1048576	12	4033
2026-01-04 05:50:49.41	6.82	13.45	-26.3	-27.3	14.7	0.00e+00	0	43	102	1048576	12	4048
2026-01-04 05:50:50.42	6.73	13.54	-26.3	-27.4	14.7	1.10e-06	0	43	102	1048576	12	4058
2026-01-04 05:50:51.43	6.64	13.63	-26.4	-27.4	14.7	0.00e+00	0	43	102	1048576	12	4063
2026-01-04 05:50:52.43	6.54	13.71	-26.8	-28.0	14.1	0.00e+00	0	43	102	1048576	13	4103
2026-01-04 05:50:53.44	6.45	13.81	-26.6	-27.4	14.4	0.00e+00	0	43	102	1048576	13	3964
2026-01-04 05:50:54.45	6.35	13.90	-26.6	-27.4	14.4	0.00e+00	0	43	102	1048576	13	3958
2026-01-04 05:50:55.45	6.25	13.99	-26.5	-27.1	14.6	1.10e-06	0	43	102	1048576	13	3887
2026-01-04 05:50:56.46	6.16	14.08	-26.1	-26.8	14.6	0.00e+00	0	43	102	1048576	13	3899
2026-01-04 05:50:57.47	6.06	14.17	-26.6	-27.5	14.4	0.00e+00	0	43	102	1048576	13	3971
2026-01-04 05:50:58.48	5.96	14.26	-26.5	-27.1	14.4	0.00e+00	0	43	102	1048576	13	3881
2026-01-04 05:50:59.49	5.86	14.35	-26.4	-27.5	14.6	1.10e-06	0	43	102	1048576	12	4085
2026-01-04 05:51:00.50	5.76	14.44	-26.3	-27.3	14.8	0.00e+00	0	43	102	1048576	12	4024
2026-01-04 05:51:01.51	5.66	14.54	-26.3	-27.3	14.8	0.00e+00	0	43	102	1048576	12	4033
2026-01-04 05:51:02.52	5.56	14.63	-26.0	-26.5	15.2	1.83e-04	0	43	102	1048576	12	3840
2026-01-04 05:51:03.53	5.46	14.72	-25.9	-26.4	15.3	0.00e+00	0	43	102	1048576	12	3804
2026-01-04 05:51:04.53	5.36	14.81	-25.9	-26.4	15.3	0.00e+00	0	43	102	1048576	12	3817
2026-01-04 05:51:05.53	5.25	14.90	-25.9	-26.4	15.3	1.56e-04	0	43	102	1048576	12	3798
2026-01-04 05:51:06.54	5.15	15.00	-25.8	-26.3	15.4	1.10e-06	0	43	102	1048576	12	3772
2026-01-04 05:51:07.55	5.05	15.09	-25.9	-26.3	15.3	1.51e-04	0	43	102	1048576	12	3778
2026-01-04 05:51:08.56	4.94	15.19	-25.9	-26.9	15.4	0.00e+00	0	43	102	1048576	11	4040
2026-01-04 05:51:09.57	4.83	15.28	-25.9	-26.8	15.4	0.00e+00	0	43	102	1048576	11	4016
2026-01-04 05:51:10.58	4.73	15.38	-25.9	-26.9	15.4	1.50e-04	0	43	102	1048576	11	4027
2026-01-04 05:51:11.58	4.62	15.47	-26.0	-27.1	15.3	0.00e+00	0	43	102	1048576	11	4072
2026-01-04 05:51:12.59	4.51	15.56	-25.9	-26.9	15.4	0.00e+00	0	43	102	1048576	11	4037
2026-01-04 05:51:13.60	4.40	15.66	-26.0	-27.1	15.2	0.00e+00	0	43	102	1048576	11	4076
2026-01-04 05:51:14.61	4.30	15.76	-25.9	-27.0	15.4	0.00e+00	0	43	102	1048576	11	4049
2026-01-04 05:51:15.61	4.19	15.85	-25.9	-26.8	15.4	0.00e+00	0	43	102	1048576	11	3999
2026-01-04 05:51:16.62	4.08	15.95	-25.7	-26.5	15.6	0.00e+00	0	43	102	1048576	11	3927
2026-01-04 05:51:17.62	3.96	16.04	-25.7	-26.4	15.7	0.00e+00	0	43	102	1048576	11	3905
2026-01-04 05:51:18.63	3.85	16.14	-25.8	-26.7	15.5	0.00e+00	0	43	102	1048576	11	3984
2026-01-04 05:51:19.64	3.74	16.24	-25.6	-26.2	15.8	0.00e+00	0	43	102	1048576	11	3853
2026-01-04 05:51:20.64	3.63	16.33	-25.6	-26.2	15.8	0.00e+00	0	43	102	1048576	11	3856
2026-01-04 05:51:21.64	3.51	16.43	-25.6	-26.3	15.7	0.00e+00	0	43	102	1048576	11	3888
2026-01-04 05:51:22.65	3.40	16.53	-25.6	-26.2	15.8	0.00e+00	0	43	102	1048576	11	3863
2026-01-04 05:51:23.66	3.28	16.62	-25.3	-25.7	16.1	0.00e+00	0	43	102	1048576	11	3737
2026-01-04 05:51:24.66	3.17	16.72	-25.5	-26.1	15.9	0.00e+00	0	43	102	1048576	11	3825
2026-01-04 05:51:25.67	3.05	16.82	-25.4	-25.8	16.0	0.00e+00	0	43	102	1048576	11	3760
2026-01-04 05:51:26.67	2.93	16.92	-25.4	-25.7	16.1	0.00e+00	0	43	102	1048576	11	3736
2026-01-04 05:51:27.68	2.81	17.02	-25.3	-25.5	16.1	0.00e+00	0	43	102	1048576	11	3707
2026-01-04 05:51:28.68	2.69	17.12	-25.2	-25.4	16.2	0.00e+00	0	43	102	1048576	11	3676
2026-01-04 05:51:29.68	2.57	17.21	-25.1	-25.1	16.4	0.00e+00	0	43	102	1048576	11	3595
2026-01-04 05:51:30.69	2.45	17.31	-25.0	-25.0	16.5	0.00e+00	0	43	102	1048576	11	3581
2026-01-04 05:51:31.70	2.33	17.41	-25.1	-25.2	16.4	0.00e+00	0	43	102	1048576	11	3619
2026-01-04 05:51:32.70	2.21	17.51	-25.1	-25.1	16.4	0.00e+00	0	43	102	1048576	11	3596
2026-01-04 05:51:33.71	2.08	17.62	-25.1	-25.1	16.4	0.00e+00	0	43	102	1048576	11	3603
2026-01-04 05:51:34.72	1.96	17.72	-25.1	-25.5	16.5	7.09e-05	0	43	102	1048576	10	3802
2026-01-04 05:51:35.72	1.83	17.82	-25.1	-25.7	16.4	0.00e+00	0	43	102	1048576	10	3835
2026-01-04 05:51:36.72	1.70	17.92	-25.0	-25.4	16.5	0.00e+00	0	43	102	1048576	10	3776
2026-01-04 05:51:37.74	1.58	18.02	-25.1	-25.5	16.5	0.00e+00	0	43	102	1048576	10	3802
2026-01-04 05:51:38.74	1.45	18.12	-25.0	-25.4	16.5	0.00e+00	0	43	102	1048576	10	3781
2026-01-04 05:51:39.75	1.32	18.22	-25.0	-25.4	16.6	0.00e+00	0	43	102	1048576	10	3760
2026-01-04 05:51:40.75	1.19	18.33	-25.0	-25.5	16.5	0.00e+00	0	43	102	1048576	10	3793
2026-01-04 05:51:41.76	1.06	18.43	-25.2	-25.8	16.3	0.00e+00	0	43	102	1048576	10	3874
2026-01-04 05:51:42.77	0.93	18.53	-25.1	-25.6	16.4	0.00e+00	0	43	102	1048576	10	3827
2026-01-04 05:51:43.78	0.79	18.63	-25.1	-25.6	16.4	0.00e+00	0	43	102	1048576	10	3827
2026-01-04 05:51:44.79	0.66	18.74	-24.7	-24.7	16.9	0.00e+00	0	43	102	1048576	10	3607
2026-01-04 05:51:45.79	0.52	18.84	-25.2	-25.7	16.4	0.00e+00	0	43	102	1048576	10	3850
2026-01-04 05:51:46.80	0.39	18.95	-25.1	-25.6	16.4	0.00e+00	0	43	102	1048576	10	3822
2026-01-04 05:51:47.81	0.25	19.05	-25.2	-25.8	16.4	0.00e+00	0	43	102	1048576	10	3862
2026-01-04 05:51:48.82	0.11	19.16	-25.0	-25.5	16.5	0.00e+00	0	43	102	1048576	10	3792
2026-01-04 05:51:49.83	359.97	19.26	-24.7	-25.2	16.9	0.00e+00	0	43	102	1048576	9	3827
2026-01-04 05:51:50.84	359.83	19.37	-24.8	-25.4	16.8	0.00e+00	0	43	102	1048576	9	3870
2026-01-04 05:51:51.85	359.69	19.47	-24.7	-25.3	16.9	0.00e+00	0	43	102	1048576	9	3841
2026-01-04 05:51:52.85	359.55	19.58	-24.7	-25.3	16.9	0.00e+00	0	43	102	1048576	9	3859
2026-01-04 05:51:53.86	359.41	19.68	-24.7	-25.3	16.9	0.00e+00	0	43	102	1048576	9	3840
2026-01-04 05:51:54.86	359.27	19.79	-24.7	-25.3	16.9	0.00e+00	0	43	102	1048576	9	3849
2026-01-04 05:51:55.87	359.12	19.89	-24.7	-25.3	16.9	0.00e+00	0	43	102	1048576	9	3855
2026-01-04 05:51:56.88	358.98	20.00	-24.7	-25.3	16.9	0.00e+00	0	43	102	1048576	9	3841
2026-01-04 05:51:57.89	358.83	20.11	-24.7	-25.2	16.9	0.00e+00	0	43	102	1048576	9	3835
2026-01-04 05:51:58.90	358.68	20.22	-24.7	-25.2	17.0	0.00e+00	0	43	102	1048576	9	3819
2026-01-04 05:51:59.90	358.53	20.32	-25.0	-25.8	16.6	0.00e+00	0	43	102	1048576	9	3979
2026-01-04 05:52:00.91	358.38	20.43	-24.8	-25.4	16.8	0.00e+00	0	43	102	1048576	9	3881
2026-01-04 05:52:01.92	358.23	20.54	-24.8	-25.5	16.8	0.00e+00	0	43	102	1048576	9	3893
2026-01-04 05:52:02.93	358.08	20.65	-24.8	-25.5	16.8	0.00e+00	0	43	102	1048576	9	3905
2026-01-04 05:52:03.93	357.93	20.76	-24.9	-25.8	16.7	0.00e+00	0	43	102	1048576	9	3965
2026-01-04 05:52:04.94	357.77	20.86	-25.0	-25.9	16.6	0.00e+00	0	43	102	1048576	9	3999
2026-01-04 05:52:05.95	357.62	20.97	-25.1	-25.5	16.6	0.00e+00	0	43	102	1048576	10	3802
2026-01-04 05:52:06.96	357.46	21.08	-25.2	-25.9	16.4	0.00e+00	0	43	102	1048576	10	3888
2026-01-04 05:52:07.96	357.30	21.19	-25.1	-25.6	16.5	0.00e+00	0	43	102	1048576	10	3823
2026-01-04 05:52:08.96	357.15	21.30	-25.1	-25.7	16.5	0.00e+00	0	43	102	1048576	10	3837
2026-01-04 05:52:09.97	356.99	21.41	-25.4	-26.2	16.2	0.00e+00	0	43	102	1048576	10	3973
2026-01-04 05:52:10.98	356.82	21.52	-25.0	-25.4	16.6	0.00e+00	0	43	102	1048576	10	3774
2026-01-04 05:52:11.99	356.66	21.63	-24.9	-25.1	16.8	0.00e+00	0	43	102	1048576	10	3697
2026-01-04 05:52:13.00	356.50	21.74	-24.8	-24.9	16.9	0.00e+00	0	43	102	1048576	10	3659
2026-01-04 05:52:14.01	356.33	21.85	-24.8	-25.6	16.8	0.00e+00	0	43	102	1048576	9	3909
2026-01-04 05:52:15.02	356.17	21.97	-24.6	-25.0	17.1	0.00e+00	0	43	102	1048576	9	3783
2026-01-04 05:52:16.03	356.00	22.08	-24.4	-24.6	17.3	0.00e+00	0	43	102	1048576	9	3687
2026-01-04 05:52:17.03	355.83	22.19	-24.6	-25.0	17.1	0.00e+00	0	43	102	1048576	9	3781
2026-01-04 05:52:18.04	355.66	22.30	-24.5	-24.9	17.2	0.00e+00	0	43	102	1048576	9	3748
2026-01-04 05:52:19.05	355.49	22.41	-24.6	-25.1	17.1	0.00e+00	0	43	102	1048576	9	3807
2026-01-04 05:52:20.06	355.32	22.53	-24.5	-24.8	17.2	0.00e+00	0	43	102	1048576	9	3736
2026-01-04 05:52:21.06	355.15	22.64	-24.6	-25.0	17.1	0.00e+00	0	43	102	1048576	9	3775
2026-01-04 05:52:22.07	354.97	22.75	-24.6	-25.0	17.1	0.00e+00	0	43	102	1048576	9	3770
2026-01-04 05:52:23.08	354.79	22.86	-24.5	-24.9	17.2	3.05e-04	0	43	102	1048576	9	3759
2026-01-04 05:52:24.08	354.62	22.97	-24.5	-24.9	17.2	0.00e+00	0	43	102	1048576	9	3753
2026-01-04 05:52:25.08	354.44	23.09	-24.5	-25.4	17.2	0.00e+00	0	43	102	1048576	8	3971
2026-01-04 05:52:26.09	354.26	23.20	-24.6	-25.1	17.1	2.84e-04	0	43	102	1048576	9	3800
2026-01-04 05:52:27.10	354.08	23.31	-24.4	-24.7	17.3	0.00e+00	0	43	102	1048576	9	3706
2026-01-04 05:52:28.10	353.90	23.43	-24.5	-25.3	17.2	3.46e-04	0	43	102	1048576	8	3952
2026-01-04 05:52:29.11	353.71	23.54	-24.6	-25.4	17.2	0.00e+00	0	43	102	1048576	8	3986
2026-01-04 05:52:30.12	353.53	23.66	-24.4	-25.2	17.3	0.00e+00	0	43	102	1048576	8	3925
2026-01-04 05:52:31.12	353.34	23.77	-24.4	-25.2	17.4	2.02e-04	0	43	102	1048576	8	3926
2026-01-04 05:52:32.13	353.15	23.89	-24.6	-25.1	17.1	0.00e+00	0	43	102	1048576	9	3791
2026-01-04 05:52:33.14	352.96	24.00	-24.7	-25.2	17.0	0.00e+00	0	43	102	1048576	9	3839
2026-01-04 05:52:34.14	352.77	24.11	-24.4	-24.7	17.4	1.17e-04	0	43	102	1048576	9	3705
2026-01-04 05:52:35.15	352.58	24.23	-24.2	-24.2	17.6	1.17e-04	0	43	102	1048576	9	3594
2026-01-04 05:52:36.16	352.39	24.34	-24.2	-24.1	17.6	0.00e+00	0	43	102	1048576	9	3579
2026-01-04 05:52:37.17	352.19	24.46	-24.1	-24.1	17.7	0.00e+00	0	43	102	1048576	9	3576
2026-01-04 05:52:38.17	352.00	24.57	-24.3	-24.3	17.5	0.00e+00	0	43	102	1048576	9	3630
2026-01-04 05:52:39.18	351.80	24.69	-24.0	-23.7	17.8	0.00e+00	0	43	102	1048576	9	3501
2026-01-04 05:52:40.18	351.60	24.81	-23.9	-23.6	17.9	0.00e+00	0	43	102	1048576	9	3469
2026-01-04 05:52:41.19	351.40	24.92	-24.0	-23.7	17.8	0.00e+00	0	43	102	1048576	9	3499
2026-01-04 05:52:42.20	351.19	25.04	-23.7	-23.7	18.1	0.00e+00	0	43	102	1048576	8	3591
2026-01-04 05:52:43.21	350.99	25.15	-23.9	-24.1	17.9	0.00e+00	0	43	102	1048576	8	3678
2026-01-04 05:52:44.20	350.79	25.27	-23.9	-24.0	18.0	0.00e+00	0	43	102	1048576	8	3648
2026-01-04 05:52:45.21	350.58	25.39	-24.0	-24.2	17.9	0.00e+00	0	43	102	1048576	8	3694
2026-01-04 05:52:46.22	350.37	25.50	-24.2	-24.7	17.6	0.00e+00	0	43	102	1048576	8	3802
2026-01-04 05:52:47.22	350.16	25.62	-24.0	-24.2	17.8	0.00e+00	0	43	102	1048576	8	3703
2026-01-04 05:52:48.23	349.95	25.73	-24.0	-24.3	17.8	0.00e+00	0	43	102	1048576	8	3724
2026-01-04 05:52:49.24	349.74	25.85	-24.0	-24.3	17.8	0.00e+00	0	43	102	1048576	8	3725
2026-01-04 05:52:50.24	349.52	25.97	-24.1	-24.5	17.7	0.00e+00	0	43	102	1048576	8	3762
2026-01-04 05:52:51.25	349.30	26.08	-24.2	-24.7	17.6	0.00e+00	0	43	102	1048576	8	3818
2026-01-04 05:52:52.26	349.09	26.20	-24.1	-24.6	17.7	0.00e+00	0	43	102	1048576	8	3785
2026-01-04 05:52:53.26	348.87	26.32	-24.2	-24.8	17.6	0.00e+00	0	43	102	1048576	8	3832
2026-01-04 05:52:54.27	348.65	26.43	-24.2	-24.6	17.6	0.00e+00	0	43	102	1048576	8	3794
2026-01-04 05:52:55.27	348.42	26.55	-24.2	-24.7	17.6	2.13e-04	0	43	102	1048576	8	3810
2026-01-04 05:52:56.28	348.20	26.67	-24.1	-24.6	17.7	0.00e+00	0	43	102	1048576	8	3786
2026-01-04 05:52:57.28	347.97	26.78	-24.3	-24.8	17.5	0.00e+00	0	43	102	1048576	8	3840
2026-01-04 05:52:58.29	347.74	26.90	-24.4	-25.2	17.4	0.00e+00	0	43	102	1048576	8	3930
2026-01-04 05:52:59.30	347.51	27.02	-24.3	-24.9	17.5	0.00e+00	0	43	102	1048576	8	3856
2026-01-04 05:53:00.30	347.28	27.13	-24.3	-24.9	17.5	0.00e+00	0	43	102	1048576	8	3853
2026-01-04 05:53:01.31	347.05	27.25	-24.3	-25.0	17.5	0.00e+00	0	43	102	1048576	8	3877
2026-01-04 05:53:02.32	346.81	27.37	-24.4	-25.1	17.4	0.00e+00	0	43	102	1048576	8	3915
2026-01-04 05:53:03.33	346.58	27.49	-24.1	-24.5	17.7	0.00e+00	0	43	102	1048576	8	3761
2026-01-04 05:53:04.33	346.34	27.60	-24.2	-24.8	17.6	0.00e+00	0	43	102	1048576	8	3829
2026-01-04 05:53:05.34	346.10	27.72	-24.3	-24.8	17.6	0.00e+00	0	43	102	1048576	8	3837
2026-01-04 05:53:06.35	345.86	27.84	-24.3	-24.8	17.6	0.00e+00	0	43	102	1048576	8	3834
2026-01-04 05:53:07.36	345.61	27.95	-24.3	-24.9	17.5	0.00e+00	0	43	102	1048576	8	3861
2026-01-04 05:53:08.36	345.37	28.07	-24.2	-24.6	17.7	0.00e+00	0	43	102	1048576	8	3799
2026-01-04 05:53:09.37	345.12	28.18	-24.2	-24.7	17.7	0.00e+00	0	43	102	1048576	8	3802
2026-01-04 05:53:10.37	344.87	28.30	-24.2	-24.7	17.6	0.00e+00	0	43	102	1048576	8	3820
2026-01-04 05:53:11.38	344.62	28.42	-24.3	-24.8	17.6	0.00e+00	0	43	102	1048576	8	3839
2026-01-04 05:53:12.39	344.36	28.53	-24.1	-24.6	17.7	0.00e+00	0	43	102	1048576	8	3781
2026-01-04 05:53:13.40	344.11	28.65	-24.2	-24.8	17.6	0.00e+00	0	43	102	1048576	8	3832
2026-01-04 05:53:14.40	343.85	28.76	-24.3	-24.8	17.6	0.00e+00	0	43	102	1048576	8	3841
2026-01-04 05:53:15.41	343.59	28.88	-24.1	-24.4	17.8	0.00e+00	0	43	102	1048576	8	3740
2026-01-04 05:53:16.42	343.33	28.99	-23.9	-24.6	17.9	0.00e+00	0	43	102	1048576	7	3895
2026-01-04 05:53:17.43	343.07	29.11	-23.8	-24.4	18.0	0.00e+00	0	43	102	1048576	7	3850
2026-01-04 05:53:18.44	342.80	29.23	-23.8	-24.3	18.1	0.00e+00	0	43	102	1048576	7	3832
2026-01-04 05:53:19.44	342.54	29.34	-23.8	-24.3	18.0	0.00e+00	0	43	102	1048576	7	3834
2026-01-04 05:53:20.44	342.27	29.45	-23.8	-24.4	18.0	0.00e+00	0	44	102	1048576	7	3836
2026-01-04 05:53:21.45	342.00	29.57	-23.7	-24.2	18.1	0.00e+00	0	43	102	1048576	7	3799
2026-01-04 05:53:22.46	341.73	29.68	-23.6	-24.0	18.2	0.00e+00	0	43	102	1048576	7	3748
2026-01-04 05:53:23.47	341.45	29.80	-23.6	-23.9	18.3	0.00e+00	0	43	102	1048576	7	3743
2026-01-04 05:53:24.47	341.18	29.91	-23.7	-24.2	18.1	0.00e+00	0	43	102	1048576	7	3812
2026-01-04 05:53:25.47	340.90	30.02	-23.8	-24.3	18.1	0.00e+00	0	43	102	1048576	7	3816
2026-01-04 05:53:26.48	340.62	30.13	-23.6	-23.9	18.3	0.00e+00	0	43	102	1048576	7	3729
2026-01-04 05:53:27.49	340.34	30.25	-23.6	-24.0	18.3	0.00e+00	0	43	102	1048576	7	3747
2026-01-04 05:53:28.50	340.06	30.36	-23.7	-24.1	18.2	0.00e+00	0	43	102	1048576	7	3779
2026-01-04 05:53:29.51	339.77	30.47	-23.7	-24.2	18.1	0.00e+00	0	43	102	1048576	7	3805
2026-01-04 05:53:30.51	339.48	30.58	-23.7	-24.1	18.2	0.00e+00	0	43	102	1048576	7	3774
2026-01-04 05:53:31.52	339.19	30.69	-23.7	-24.1	18.2	0.00e+00	0	43	102	1048576	7	3780
2026-01-04 05:53:32.53	338.90	30.80	-23.7	-24.2	18.1	0.00e+00	0	43	102	1048576	7	3807
2026-01-04 05:53:33.54	338.60	30.91	-23.8	-24.3	18.1	0.00e+00	0	43	102	1048576	7	3823
2026-01-04 05:53:34.54	338.31	31.02	-23.7	-24.1	18.1	0.00e+00	0	43	102	1048576	7	3783
2026-01-04 05:53:35.55	338.01	31.13	-23.6	-24.0	18.2	0.00e+00	0	43	102	1048576	7	3752
2026-01-04 05:53:36.56	337.71	31.24	-23.7	-24.2	18.1	0.00e+00	0	43	102	1048576	7	3790
2026-01-04 05:53:37.57	337.41	31.35	-23.9	-24.5	18.0	0.00e+00	0	43	102	1048576	7	3877
2026-01-04 05:53:38.58	337.10	31.46	-23.9	-24.6	17.9	0.00e+00	0	43	102	1048576	7	3896
2026-01-04 05:53:39.58	336.80	31.56	-23.9	-24.5	17.9	0.00e+00	0	43	102	1048576	7	3877
2026-01-04 05:53:40.59	336.49	31.67	-24.1	-24.9	17.8	0.00e+00	0	43	102	1048576	7	3967
2026-01-04 05:53:41.59	336.18	31.78	-24.1	-24.9	17.8	0.00e+00	0	43	102	1048576	7	3966
2026-01-04 05:53:42.60	335.87	31.88	-24.2	-24.7	17.7	0.00e+00	0	43	102	1048576	8	3800
2026-01-04 05:53:43.61	335.55	31.99	-24.0	-24.2	17.9	0.00e+00	0	43	102	1048576	8	3689
2026-01-04 05:53:44.61	335.24	32.09	-23.5	-23.2	18.4	0.00e+00	0	43	102	1048576	8	3478
2026-01-04 05:53:45.62	334.92	32.19	-23.3	-23.3	18.6	0.00e+00	0	43	102	1048576	7	3611
2026-01-04 05:53:46.63	334.60	32.30	-23.4	-24.0	18.5	4.04e-04	0	43	102	1048576	6	3856
2026-01-04 05:53:47.63	334.27	32.40	-23.4	-24.1	18.4	0.00e+00	0	43	102	1048576	6	3877
2026-01-04 05:53:48.64	333.95	32.50	-23.5	-24.2	18.4	0.00e+00	0	43	102	1048576	6	3897
2026-01-04 05:53:49.64	333.62	32.60	-23.5	-24.3	18.3	0.00e+00	0	43	102	1048576	6	3919
2026-01-04 05:53:50.65	333.29	32.70	-23.4	-24.0	18.5	0.00e+00	0	43	102	1048576	6	3861
2026-01-04 05:53:51.65	332.97	32.80	-23.4	-24.0	18.5	1.69e-04	0	43	102	1048576	6	3852
2026-01-04 05:53:52.66	332.63	32.90	-23.3	-23.9	18.6	0.00e+00	0	43	102	1048576	6	3823
2026-01-04 05:53:53.67	332.30	33.00	-23.2	-23.7	18.7	0.00e+00	0	43	102	1048576	6	3788
2026-01-04 05:53:54.67	331.96	33.09	-23.4	-24.0	18.5	0.00e+00	0	43	102	1048576	6	3851
2026-01-04 05:53:55.68	331.62	33.19	-23.2	-23.7	18.7	6.52e-05	0	43	102	1048576	6	3780
2026-01-04 05:53:56.69	331.28	33.29	-23.2	-23.6	18.7	0.00e+00	0	43	102	1048576	6	3758
2026-01-04 05:53:57.70	330.94	33.38	-23.3	-23.7	18.6	0.00e+00	0	43	102	1048576	6	3795
2026-01-04 05:53:58.71	330.59	33.48	-23.3	-23.9	18.5	1.83e-05	0	43	102	1048576	6	3833
2026-01-04 05:53:59.71	330.24	33.57	-23.4	-24.1	18.5	0.00e+00	0	43	102	1048576	6	3881
2026-01-04 05:54:00.72	329.89	33.66	-23.3	-23.8	18.6	5.83e-05	0	43	102	1048576	6	3816
2026-01-04 05:54:01.72	329.55	33.75	-23.2	-23.6	18.7	1.94e-05	0	43	102	1048576	6	3766
2026-01-04 05:54:02.72	329.19	33.84	-23.2	-23.7	18.7	0.00e+00	0	43	102	1048576	6	3778
2026-01-04 05:54:03.73	328.84	33.93	-23.2	-23.6	18.7	3.77e-05	0	43	102	1048576	6	3760
2026-01-04 05:54:04.74	328.48	34.02	-23.3	-23.8	18.6	9.04e-05	0	43	102	1048576	6	3802
2026-01-04 05:54:05.75	328.12	34.10	-23.3	-23.9	18.5	0.00e+00	0	43	102	1048576	6	3832
2026-01-04 05:54:06.75	327.76	34.19	-23.4	-24.1	18.4	1.54e-04	0	43	102	1048576	6	3886
2026-01-04 05:54:07.75	327.40	34.27	-23.6	-24.0	18.3	0.00e+00	0	43	102	1048576	7	3746
2026-01-04 05:54:08.76	327.04	34.36	-23.7	-24.2	18.1	0.00e+00	0	44	102	1048576	7	3811
2026-01-04 05:54:09.76	326.67	34.44	-23.5	-23.8	18.4	0.00e+00	0	43	102	1048576	7	3710
2026-01-04 05:54:10.77	326.30	34.52	-23.5	-23.7	18.4	2.44e-04	0	43	102	1048576	7	3684
2026-01-04 05:54:11.78	325.93	34.60	-23.4	-23.4	18.5	0.00e+00	0	43	102	1048576	7	3623
2026-01-04 05:54:12.79	325.56	34.68	-23.6	-24.3	18.3	0.00e+00	0	43	102	1048576	6	3932
2026-01-04 05:54:13.79	325.19	34.76	-23.4	-24.0	18.5	4.44e-04	0	43	102	1048576	6	3862
2026-01-04 05:54:14.80	324.81	34.84	-23.4	-24.0	18.5	0.00e+00	0	43	102	1048576	6	3865
2026-01-04 05:54:15.80	324.43	34.91	-23.4	-24.0	18.5	6.46e-04	0	43	102	1048576	6	3861
2026-01-04 05:54:16.80	324.06	34.98	-23.3	-23.8	18.6	0.00e+00	0	43	102	1048576	6	3816
2026-01-04 05:54:17.81	323.68	35.06	-23.5	-24.2	18.4	0.00e+00	0	43	102	1048576	6	3905
2026-01-04 05:54:18.82	323.29	35.13	-23.5	-24.2	18.4	5.50e-04	0	43	102	1048576	6	3916
2026-01-04 05:54:19.82	322.91	35.20	-23.6	-24.0	18.3	0.00e+00	0	43	102	1048576	7	3747
2026-01-04 05:54:20.83	322.52	35.27	-23.7	-24.1	18.2	0.00e+00	0	43	102	1048576	7	3773
2026-01-04 05:54:21.84	322.13	35.34	-23.8	-24.3	18.1	0.00e+00	0	43	102	1048576	7	3827
2026-01-04 05:54:22.85	321.74	35.40	-23.8	-24.3	18.1	0.00e+00	0	44	102	1048576	7	3817
2026-01-04 05:54:23.85	321.36	35.47	-23.7	-24.2	18.2	0.00e+00	0	43	102	1048576	7	3801
2026-01-04 05:54:24.86	320.96	35.53	-23.9	-24.4	18.0	0.00e+00	0	43	102	1048576	7	3857
2026-01-04 05:54:25.87	320.57	35.59	-23.5	-23.7	18.4	0.00e+00	0	43	102	1048576	7	3691
2026-01-04 05:54:26.87	320.17	35.66	-23.4	-23.4	18.5	0.00e+00	0	43	102	1048576	7	3627
2026-01-04 05:54:27.88	319.78	35.71	-23.4	-23.9	18.6	0.00e+00	0	43	102	1048576	6	3840
2026-01-04 05:54:28.88	319.38	35.77	-23.4	-24.0	18.5	0.00e+00	0	43	102	1048576	6	3867
2026-01-04 05:54:29.88	318.98	35.83	-23.6	-24.0	18.3	0.00e+00	0	43	102	1048576	7	3751
2026-01-04 05:54:30.89	318.58	35.88	-23.8	-24.4	18.0	0.00e+00	0	43	102	1048576	7	3854
2026-01-04 05:54:31.90	318.18	35.94	-23.7	-24.2	18.2	0.00e+00	0	43	102	1048576	7	3807
2026-01-04 05:54:32.90	317.77	35.99	-23.6	-23.9	18.3	0.00e+00	0	43	102	1048576	7	3735
2026-01-04 05:54:33.91	317.37	36.04	-23.5	-23.7	18.4	0.00e+00	0	43	102	1048576	7	3680
2026-01-04 05:54:34.92	316.96	36.09	-23.5	-23.8	18.4	0.00e+00	0	43	102	1048576	7	3706
2026-01-04 05:54:35.93	316.55	36.14	-23.3	-23.4	18.6	0.00e+00	0	43	102	1048576	7	3614
2026-01-04 05:54:36.94	316.14	36.18	-23.4	-23.4	18.5	0.00e+00	0	43	102	1048576	7	3631
2026-01-04 05:54:37.95	315.73	36.23	-23.3	-23.3	18.6	0.00e+00	0	43	102	1048576	7	3595
2026-01-04 05:54:38.96	315.32	36.27	-23.4	-23.5	18.5	0.00e+00	0	43	102	1048576	7	3641
2026-01-04 05:54:39.97	314.90	36.31	-23.5	-23.7	18.5	0.00e+00	0	43	102	1048576	7	3682
2026-01-04 05:54:40.97	314.49	36.35	-23.6	-23.9	18.3	0.00e+00	0	43	102	1048576	7	3740
2026-01-04 05:54:41.98	314.08	36.39	-23.5	-23.7	18.4	0.00e+00	0	43	102	1048576	7	3678
2026-01-04 05:54:42.98	313.67	36.42	-23.4	-23.5	18.5	0.00e+00	0	43	102	1048576	7	3640
2026-01-04 05:54:44.00	313.24	36.46	-23.5	-23.7	18.4	0.00e+00	0	43	102	1048576	7	3685
2026-01-04 05:54:45.00	312.83	36.49	-23.5	-23.6	18.5	0.00e+00	0	43	102	1048576	7	3670
2026-01-04 05:54:46.01	312.41	36.52	-23.5	-23.6	18.5	0.00e+00	0	43	102	1048576	7	3669
2026-01-04 05:54:47.01	312.00	36.55	-23.4	-23.9	18.5	0.00e+00	0	43	102	1048576	6	3835
2026-01-04 05:54:48.02	311.58	36.58	-23.3	-23.8	18.7	0.00e+00	0	43	102	1048576	6	3807
2026-01-04 05:54:49.03	311.15	36.60	-23.3	-23.9	18.4	0.00e+00	0	43	102	1048576	6	3823
2026-01-04 05:54:50.04	310.73	36.62	-23.3	-23.3	18.6	0.00e+00	0	43	102	1048576	7	3593
2026-01-04 05:54:51.05	310.31	36.65	-23.2	-23.1	18.7	0.00e+00	0	43	102	1048576	7	3551
2026-01-04 05:54:52.06	309.89	36.67	-23.5	-24.2	18.4	0.00e+00	0	43	102	1048576	6	3900
2026-01-04 05:54:53.07	309.46	36.69	-23.3	-23.8	18.6	0.00e+00	0	43	102	1048576	6	3812
2026-01-04 05:54:54.07	309.04	36.70	-23.3	-23.8	18.6	0.00e+00	0	43	102	1048576	6	3822
2026-01-04 05:54:55.08	308.62	36.72	-23.4	-24.0	18.5	0.00e+00	0	43	102	1048576	6	3867
2026-01-04 05:54:56.09	308.19	36.73	-23.3	-23.7	18.6	0.00e+00	0	43	102	1048576	6	3797
2026-01-04 05:54:57.10	307.77	36.74	-23.4	-23.9	18.6	0.00e+00	0	43	102	1048576	6	3844
2026-01-04 05:54:58.10	307.35	36.75	-23.2	-23.5	18.7	0.00e+00	0	43	102	1048576	6	3747
2026-01-04 05:54:59.11	306.92	36.76	-23.2	-23.6	18.8	0.00e+00	0	43	102	1048576	6	3760
2026-01-04 05:55:00.12	306.50	36.77	-23.2	-23.7	18.7	0.00e+00	0	43	102	1048576	6	3777
2026-01-04 05:55:01.12	306.07	36.77	-23.3	-23.7	18.6	0.00e+00	0	44	102	1048576	6	3800
2026-01-04 05:55:02.13	305.65	36.77	-23.4	-24.1	18.5	0.00e+00	0	43	102	1048576	6	3882
2026-01-04 05:55:03.14	305.22	36.77	-23.4	-24.1	18.5	0.00e+00	0	43	102	1048576	6	3876
2026-01-04 05:55:04.14	304.80	36.77	-23.5	-24.3	18.4	0.00e+00	0	43	102	1048576	6	3923
2026-01-04 05:55:05.15	304.37	36.77	-23.5	-24.3	18.4	0.00e+00	0	43	102	1048576	6	3931
2026-01-04 05:55:06.16	303.95	36.76	-23.5	-23.7	18.4	0.00e+00	0	43	102	1048576	7	3678
2026-01-04 05:55:07.17	303.52	36.76	-23.3	-23.9	18.6	1.69e-04	0	43	102	1048576	6	3832
2026-01-04 05:55:08.18	303.09	36.75	-23.2	-23.6	18.7	0.00e+00	0	43	102	1048576	6	3757
2026-01-04 05:55:09.19	302.67	36.74	-23.3	-23.8	18.6	0.00e+00	0	43	102	1048576	6	3815
2026-01-04 05:55:10.19	302.25	36.73	-23.2	-23.5	18.7	0.00e+00	0	43	102	1048576	6	3752
2026-01-04 05:55:11.20	301.82	36.71	-23.1	-23.5	18.8	0.00e+00	0	43	102	1048576	6	3738
2026-01-04 05:55:12.21	301.40	36.70	-23.3	-23.8	18.6	0.00e+00	0	43	102	1048576	6	3805
2026-01-04 05:55:13.22	300.97	36.68	-23.3	-23.8	18.6	0.00e+00	0	43	102	1048576	6	3823
2026-01-04 05:55:14.22	300.55	36.66	-23.4	-24.0	18.5	0.00e+00	0	43	102	1048576	6	3861
2026-01-04 05:55:15.23	300.13	36.64	-23.4	-24.0	18.5	4.50e-06	0	43	102	1048576	6	3862
2026-01-04 05:55:16.23	299.71	36.62	-23.3	-23.7	18.6	0.00e+00	0	43	102	1048576	6	3791
2026-01-04 05:55:17.24	299.29	36.60	-23.3	-23.8	18.6	0.00e+00	0	43	102	1048576	6	3812
2026-01-04 05:55:18.25	298.87	36.57	-23.4	-23.9	18.5	0.00e+00	0	43	102	1048576	6	3845
2026-01-04 05:55:19.26	298.45	36.54	-23.3	-23.7	18.6	0.00e+00	0	43	102	1048576	6	3800
2026-01-04 05:55:20.26	298.03	36.51	-23.4	-23.9	18.5	0.00e+00	0	43	102	1048576	6	3847
2026-01-04 05:55:21.27	297.61	36.48	-23.4	-24.0	18.5	4.32e-04	0	43	102	1048576	6	3859
2026-01-04 05:55:22.27	297.20	36.45	-23.3	-23.8	18.6	7.15e-04	0	43	102	1048576	6	3822
2026-01-04 05:55:23.28	296.78	36.41	-23.3	-23.7	18.7	0.00e+00	0	43	102	1048576	6	3791
2026-01-04 05:55:24.29	296.37	36.38	-23.2	-23.7	18.6	4.26e-04	0	43	102	1048576	6	3783
2026-01-04 05:55:25.29	295.95	36.34	-23.1	-23.8	18.8	3.55e-04	0	44	102	1048576	5	3916
2026-01-04 05:55:26.29	295.54	36.30	-23.1	-23.4	18.8	0.00e+00	0	43	102	1048576	6	3724
2026-01-04 05:55:27.30	295.13	36.26	-23.4	-24.0	18.5	0.00e+00	0	44	102	1048576	6	3849
2026-01-04 05:55:28.31	294.72	36.22	-23.6	-24.3	18.3	0.00e+00	0	43	102	1048576	6	3938
2026-01-04 05:55:29.32	294.30	36.17	-23.4	-24.1	18.4	0.00e+00	0	43	102	1048576	6	3885
2026-01-04 05:55:30.32	293.90	36.13	-23.4	-24.1	18.4	0.00e+00	0	44	102	1048576	6	3881
2026-01-04 05:55:31.33	293.49	36.08	-23.4	-24.0	18.5	0.00e+00	0	44	102	1048576	6	3860
2026-01-04 05:55:32.33	293.09	36.03	-23.3	-23.8	18.6	0.00e+00	0	43	102	1048576	6	3819
2026-01-04 05:55:33.34	292.68	35.98	-23.3	-23.9	18.5	0.00e+00	0	43	102	1048576	6	3833
2026-01-04 05:55:34.34	292.28	35.93	-23.4	-24.1	18.4	0.00e+00	0	43	102	1048576	6	3877
2026-01-04 05:55:35.35	291.87	35.87	-23.4	-24.0	18.5	0.00e+00	0	43	102	1048576	6	3856
2026-01-04 05:55:36.36	291.47	35.82	-23.5	-23.8	18.3	0.00e+00	0	43	102	1048576	7	3707
2026-01-04 05:55:37.36	291.07	35.76	-23.3	-23.2	18.6	0.00e+00	0	43	102	1048576	7	3591
2026-01-04 05:55:38.37	290.67	35.70	-23.1	-22.9	18.8	0.00e+00	0	43	102	1048576	7	3520
2026-01-04 05:55:39.38	290.27	35.64	-23.1	-23.5	18.7	1.65e-04	0	43	102	1048576	6	3736
2026-01-04 05:55:40.38	289.88	35.58	-23.1	-23.5	18.7	0.00e+00	0	43	102	1048576	6	3744
2026-01-04 05:55:41.39	289.48	35.52	-23.0	-23.2	18.9	0.00e+00	0	43	102	1048576	6	3670
2026-01-04 05:55:42.39	289.09	35.46	-22.9	-23.0	19.0	0.00e+00	0	43	102	1048576	6	3641
2026-01-04 05:55:43.40	288.70	35.39	-23.0	-23.3	18.9	0.00e+00	0	43	102	1048576	6	3691
2026-01-04 05:55:44.41	288.31	35.32	-23.1	-23.4	18.8	0.00e+00	0	43	102	1048576	6	3717
2026-01-04 05:55:45.42	287.92	35.25	-22.8	-22.8	19.0	0.00e+00	0	43	102	1048576	6	3602
2026-01-04 05:55:46.42	287.54	35.18	-22.8	-22.7	19.1	0.00e+00	0	43	102	1048576	6	3568
2026-01-04 05:55:47.43	287.15	35.11	-22.9	-22.9	19.0	0.00e+00	0	43	102	1048576	6	3622
2026-01-04 05:55:48.44	286.77	35.04	-23.1	-23.4	18.8	0.00e+00	0	43	102	1048576	6	3729
2026-01-04 05:55:49.45	286.38	34.97	-23.2	-23.6	18.7	0.00e+00	0	43	102	1048576	6	3773
2026-01-04 05:55:50.45	286.01	34.89	-23.2	-23.5	18.7	0.00e+00	0	43	102	1048576	6	3755
2026-01-04 05:55:51.46	285.63	34.82	-23.2	-23.6	18.7	0.00e+00	0	43	102	1048576	6	3760
2026-01-04 05:55:52.47	285.25	34.74	-23.2	-23.6	18.7	0.00e+00	0	43	102	1048576	6	3756
2026-01-04 05:55:53.48	284.87	34.66	-23.1	-23.4	18.7	0.00e+00	0	43	102	1048576	6	3727
2026-01-04 05:55:54.49	284.50	34.58	-23.3	-23.7	18.6	0.00e+00	0	43	102	1048576	6	3802
2026-01-04 05:55:55.49	284.13	34.50	-23.3	-23.9	18.5	0.00e+00	0	43	102	1048576	6	3828
2026-01-04 05:55:56.50	283.76	34.42	-23.0	-23.3	18.8	0.00e+00	0	43	102	1048576	6	3698
2026-01-04 05:55:57.51	283.39	34.34	-23.0	-23.2	18.9	0.00e+00	0	43	102	1048576	6	3683
2026-01-04 05:55:58.52	283.03	34.25	-23.1	-23.8	18.8	0.00e+00	0	43	102	1048576	5	3925
2026-01-04 05:55:59.51	282.67	34.17	-23.1	-23.4	18.7	0.00e+00	0	43	102	1048576	6	3736
2026-01-04 05:56:00.51	282.31	34.08	-23.2	-23.5	18.7	0.00e+00	0	43	102	1048576	6	3752
2026-01-04 05:56:01.52	281.95	33.99	-23.2	-23.5	18.6	0.00e+00	0	43	102	1048576	6	3756
2026-01-04 05:56:02.53	281.59	33.90	-23.1	-23.5	18.7	0.00e+00	0	43	102	1048576	6	3741
2026-01-04 05:56:03.54	281.24	33.82	-23.1	-23.3	18.8	0.00e+00	0	43	102	1048576	6	3703
2026-01-04 05:56:04.54	280.88	33.73	-23.0	-23.2	18.9	0.00e+00	0	43	102	1048576	6	3668
2026-01-04 05:56:05.55	280.53	33.63	-23.0	-23.3	18.8	0.00e+00	0	43	102	1048576	6	3691
2026-01-04 05:56:06.56	280.18	33.54	-23.1	-23.3	18.8	0.00e+00	0	43	102	1048576	6	3701
2026-01-04 05:56:07.57	279.83	33.45	-23.1	-23.5	18.7	0.00e+00	0	43	102	1048576	6	3742
2026-01-04 05:56:08.58	279.49	33.35	-23.2	-23.5	18.6	0.00e+00	0	43	102	1048576	6	3755
2026-01-04 05:56:09.59	279.14	33.26	-23.2	-23.6	18.6	0.00e+00	0	43	102	1048576	6	3778
2026-01-04 05:56:10.59	278.80	33.16	-23.2	-23.7	18.6	0.00e+00	0	44	102	1048576	6	3785
2026-01-04 05:56:11.59	278.46	33.07	-23.3	-23.7	18.5	0.00e+00	0	43	102	1048576	6	3798
2026-01-04 05:56:12.60	278.13	32.97	-23.4	-24.1	18.4	0.00e+00	0	43	102	1048576	6	3873
2026-01-04 05:56:13.61	277.79	32.87	-23.5	-24.3	18.2	0.00e+00	0	43	102	1048576	6	3928
2026-01-04 05:56:14.62	277.45	32.77	-23.5	-24.2	18.3	0.00e+00	0	43	102	1048576	6	3906
2026-01-04 05:56:15.62	277.13	32.67	-23.5	-24.2	18.3	0.00e+00	0	44	102	1048576	6	3897
2026-01-04 05:56:16.63	276.80	32.57	-23.6	-24.0	18.0	0.00e+00	0	44	102	1048576	7	3756
2026-01-04 05:56:17.64	276.47	32.47	-23.7	-24.2	18.0	0.00e+00	0	44	102	1048576	7	3811
2026-01-04 05:56:18.64	276.14	32.37	-23.9	-24.5	17.9	0.00e+00	0	43	102	1048576	7	3876
2026-01-04 05:56:19.65	275.82	32.26	-23.7	-24.2	18.0	0.00e+00	0	43	102	1048576	7	3812
2026-01-04 05:56:20.65	275.50	32.16	-23.6	-24.0	18.1	0.00e+00	0	44	102	1048576	7	3757
2026-01-04 05:56:21.65	275.18	32.06	-23.5	-23.7	18.2	0.00e+00	0	43	102	1048576	7	3695
2026-01-04 05:56:22.66	274.87	31.95	-23.5	-23.7	18.3	0.00e+00	0	43	102	1048576	7	3682
2026-01-04 05:56:23.67	274.55	31.85	-23.4	-23.6	18.3	0.00e+00	0	43	102	1048576	7	3660
2026-01-04 05:56:24.68	274.24	31.74	-23.5	-23.7	18.2	0.00e+00	0	43	102	1048576	7	3702
2026-01-04 05:56:25.68	273.93	31.63	-23.4	-24.0	18.3	1.10e-06	0	43	102	1048576	6	3856
2026-01-04 05:56:26.69	273.62	31.53	-23.4	-24.0	18.4	0.00e+00	0	43	102	1048576	6	3854
2026-01-04 05:56:27.69	273.31	31.42	-23.4	-24.0	18.4	0.00e+00	0	43	102	1048576	6	3867
2026-01-04 05:56:28.70	273.01	31.31	-23.6	-24.4	18.2	0.00e+00	0	44	102	1048576	6	3950
2026-01-04 05:56:29.70	272.71	31.20	-23.6	-23.9	18.1	0.00e+00	0	43	102	1048576	7	3743
2026-01-04 05:56:30.71	272.40	31.09	-23.6	-23.9	18.2	0.00e+00	0	43	102	1048576	7	3738
2026-01-04 05:56:31.72	272.10	30.98	-23.5	-23.8	18.2	0.00e+00	0	43	102	1048576	7	3719
2026-01-04 05:56:32.72	271.81	30.87	-23.4	-23.5	18.4	0.00e+00	0	43	102	1048576	7	3647
2026-01-04 05:56:33.73	271.51	30.76	-23.3	-23.3	18.4	0.00e+00	0	43	102	1048576	7	3611
2026-01-04 05:56:34.73	271.22	30.65	-23.4	-23.5	18.3	0.00e+00	0	43	102	1048576	7	3650
2026-01-04 05:56:35.74	270.93	30.54	-23.3	-23.4	18.5	0.00e+00	0	43	102	1048576	7	3619
2026-01-04 05:56:36.75	270.64	30.43	-23.3	-23.3	18.4	0.00e+00	0	43	102	1048576	7	3597
2026-01-04 05:56:37.76	270.35	30.32	-23.3	-23.3	18.4	0.00e+00	0	43	102	1048576	7	3607
2026-01-04 05:56:38.77	270.07	30.20	-23.3	-23.3	18.5	0.00e+00	0	43	102	1048576	7	3593
2026-01-04 05:56:39.77	269.79	30.09	-23.4	-23.5	18.3	0.00e+00	0	43	102	1048576	7	3658
2026-01-04 05:56:40.78	269.51	29.98	-23.4	-23.6	18.3	0.00e+00	0	44	102	1048576	7	3675
2026-01-04 05:56:41.79	269.23	29.86	-23.5	-23.8	18.2	0.00e+00	0	43	102	1048576	7	3722
2026-01-04 05:56:42.80	268.95	29.75	-23.5	-23.8	18.2	0.00e+00	0	43	102	1048576	7	3719
2026-01-04 05:56:43.81	268.67	29.64	-23.4	-23.6	18.3	0.00e+00	0	43	102	1048576	7	3676
2026-01-04 05:56:44.81	268.40	29.52	-23.5	-23.7	18.2	0.00e+00	0	43	102	1048576	7	3698
2026-01-04 05:56:45.81	268.13	29.41	-23.4	-23.6	18.3	4.80e-05	0	43	102	1048576	7	3659
2026-01-04 05:56:46.82	267.86	29.29	-23.3	-23.4	18.4	0.00e+00	0	44	102	1048576	7	3628
2026-01-04 05:56:47.83	267.60	29.18	-23.5	-23.7	18.2	0.00e+00	0	43	102	1048576	7	3693
2026-01-04 05:56:48.83	267.33	29.06	-23.3	-23.3	18.4	0.00e+00	0	44	102	1048576	7	3601
2026-01-04 05:56:49.84	267.07	28.95	-23.2	-23.2	18.5	0.00e+00	0	43	102	1048576	7	3571
2026-01-04 05:56:50.84	266.81	28.83	-23.3	-23.3	18.4	1.04e-04	0	43	102	1048576	7	3613
2026-01-04 05:56:51.85	266.55	28.72	-23.5	-24.3	18.2	0.00e+00	0	43	102	1048576	6	3923
2026-01-04 05:56:52.86	266.29	28.60	-23.6	-24.0	18.0	0.00e+00	0	43	102	1048576	7	3763
2026-01-04 05:56:53.87	266.03	28.48	-23.7	-24.2	17.9	0.00e+00	0	43	102	1048576	7	3806
2026-01-04 05:56:54.87	265.78	28.37	-23.8	-24.3	17.9	0.00e+00	0	43	102	1048576	7	3829
2026-01-04 05:56:55.87	265.53	28.25	-23.9	-24.6	17.7	0.00e+00	0	44	102	1048576	7	3902
2026-01-04 05:56:56.88	265.28	28.13	-23.8	-24.3	17.8	0.00e+00	0	43	102	1048576	7	3838
2026-01-04 05:56:57.89	265.03	28.02	-23.8	-24.5	17.7	4.23e-04	0	43	102	1048576	7	3871
2026-01-04 05:56:58.90	264.79	27.90	-23.8	-24.4	17.8	0.00e+00	0	43	102	1048576	7	3840
2026-01-04 05:56:59.90	264.54	27.78	-23.8	-24.3	17.9	0.00e+00	0	44	102	1048576	7	3821
2026-01-04 05:57:00.91	264.30	27.67	-24.1	-24.9	17.6	1.10e-06	0	43	102	1048576	7	3971
2026-01-04 05:57:01.91	264.06	27.55	-23.9	-24.1	17.8	0.00e+00	0	43	102	1048576	8	3669
2026-01-04 05:57:02.92	263.82	27.43	-23.7	-24.2	17.9	0.00e+00	0	43	102	1048576	7	3791
2026-01-04 05:57:03.92	263.58	27.31	-23.8	-24.4	17.8	0.00e+00	0	43	102	1048576	7	3843
2026-01-04 05:57:04.93	263.35	27.20	-24.1	-25.0	17.5	0.00e+00	0	43	102	1048576	7	3988
2026-01-04 05:57:05.94	263.11	27.08	-23.8	-24.3	17.9	0.00e+00	0	43	102	1048576	7	3832
2026-01-04 05:57:06.95	262.88	26.96	-23.6	-24.0	18.0	0.00e+00	0	43	102	1048576	7	3749
2026-01-04 05:57:07.95	262.65	26.85	-23.5	-23.8	18.1	0.00e+00	0	43	102	1048576	7	3707
2026-01-04 05:57:08.96	262.42	26.73	-23.7	-24.1	18.0	0.00e+00	0	43	102	1048576	7	3780
2026-01-04 05:57:09.97	262.19	26.61	-23.6	-23.9	18.1	0.00e+00	0	43	102	1048576	7	3733
2026-01-04 05:57:10.97	261.97	26.49	-23.6	-24.0	18.0	0.00e+00	0	43	102	1048576	7	3752
2026-01-04 05:57:11.97	261.75	26.38	-23.8	-24.3	17.8	0.00e+00	0	43	102	1048576	7	3835
2026-01-04 05:57:12.98	261.52	26.26	-23.7	-24.1	18.0	0.00e+00	0	43	102	1048576	7	3769
2026-01-04 05:57:13.99	261.30	26.14	-23.6	-24.0	18.0	0.00e+00	0	43	102	1048576	7	3758
2026-01-04 05:57:14.99	261.08	26.02	-23.7	-24.1	17.9	0.00e+00	0	43	102	1048576	7	3792
2026-01-04 05:57:15.99	260.87	25.91	-23.7	-24.2	17.9	0.00e+00	0	43	102	1048576	7	3797
2026-01-04 05:57:17.00	260.65	25.79	-23.9	-24.5	17.7	0.00e+00	0	43	102	1048576	7	3885
2026-01-04 05:57:18.00	260.44	25.67	-23.8	-24.5	17.8	0.00e+00	0	43	102	1048576	7	3872
2026-01-04 05:57:19.01	260.23	25.56	-24.0	-24.8	17.6	0.00e+00	0	44	102	1048576	7	3944
2026-01-04 05:57:20.02	260.01	25.44	-23.8	-24.4	17.8	0.00e+00	0	43	102	1048576	7	3844
2026-01-04 05:57:21.02	259.81	25.32	-23.7	-24.2	17.9	0.00e+00	0	43	102	1048576	7	3802
2026-01-04 05:57:22.03	259.60	25.21	-23.7	-24.2	17.9	0.00e+00	0	44	102	1048576	7	3807
2026-01-04 05:57:23.04	259.39	25.09	-23.9	-24.5	17.7	0.00e+00	0	43	102	1048576	7	3883
2026-01-04 05:57:24.04	259.19	24.97	-23.8	-24.3	17.8	0.00e+00	0	43	102	1048576	7	3837
2026-01-04 05:57:25.04	258.99	24.86	-23.8	-24.3	17.8	0.00e+00	0	43	102	1048576	7	3837
2026-01-04 05:57:26.05	258.78	24.74	-23.9	-24.6	17.6	0.00e+00	0	43	102	1048576	7	3897
2026-01-04 05:57:27.05	258.59	24.63	-23.9	-24.6	17.7	0.00e+00	0	43	102	1048576	7	3887
2026-01-04 05:57:28.05	258.39	24.51	-24.0	-24.8	17.6	0.00e+00	0	43	102	1048576	7	3938
2026-01-04 05:57:29.06	258.19	24.39	-24.1	-24.9	17.5	0.00e+00	0	44	102	1048576	7	3980
2026-01-04 05:57:30.06	258.00	24.28	-23.9	-24.5	17.7	0.00e+00	0	43	102	1048576	7	3882
2026-01-04 05:57:31.07	257.80	24.16	-23.8	-24.3	17.8	0.00e+00	0	43	102	1048576	7	3825
2026-01-04 05:57:32.08	257.61	24.05	-23.7	-24.3	17.8	0.00e+00	0	43	102	1048576	7	3823
2026-01-04 05:57:33.09	257.41	23.93	-23.8	-24.4	17.7	0.00e+00	0	43	102	1048576	7	3859
2026-01-04 05:57:34.10	257.22	23.82	-23.9	-24.6	17.6	0.00e+00	0	43	102	1048576	7	3899
2026-01-04 05:57:35.10	257.04	23.70	-23.8	-24.4	17.7	0.00e+00	0	43	102	1048576	7	3852
2026-01-04 05:57:36.10	256.85	23.59	-23.9	-24.5	17.7	0.00e+00	0	43	102	1048576	7	3873
2026-01-04 05:57:37.11	256.66	23.47	-23.9	-24.6	17.6	0.00e+00	0	43	102	1048576	7	3908
2026-01-04 05:57:38.12	256.48	23.36	-24.0	-24.8	17.5	0.00e+00	0	43	102	1048576	7	3938
2026-01-04 05:57:39.13	256.30	23.24	-24.0	-24.9	17.5	0.00e+00	0	43	102	1048576	7	3964
2026-01-04 05:57:40.13	256.11	23.13	-24.0	-24.8	17.4	0.00e+00	0	44	102	1048576	7	3958
2026-01-04 05:57:41.13	255.94	23.02	-24.0	-24.9	17.5	0.00e+00	0	43	102	1048576	7	3964
2026-01-04 05:57:42.14	255.76	22.90	-24.0	-24.9	17.4	0.00e+00	0	43	102	1048576	7	3970
2026-01-04 05:57:43.14	255.58	22.79	-23.9	-24.6	17.6	0.00e+00	0	43	102	1048576	7	3904
2026-01-04 05:57:44.15	255.40	22.68	-23.9	-24.7	17.6	0.00e+00	0	43	102	1048576	7	3911
2026-01-04 05:57:45.16	255.23	22.56	-23.8	-24.3	17.7	0.00e+00	0	43	102	1048576	7	3820
2026-01-04 05:57:46.17	255.05	22.45	-23.8	-24.3	17.7	0.00e+00	0	43	102	1048576	7	3831
2026-01-04 05:57:47.17	254.88	22.34	-23.9	-24.5	17.6	0.00e+00	0	43	102	1048576	7	3878
2026-01-04 05:57:48.18	254.71	22.23	-23.8	-24.4	17.7	0.00e+00	0	44	102	1048576	7	3863
2026-01-04 05:57:49.19	254.54	22.11	-23.9	-24.6	17.6	0.00e+00	0	43	102	1048576	7	3893
2026-01-04 05:57:50.19	254.37	22.00	-24.0	-24.8	17.4	0.00e+00	0	43	102	1048576	7	3954
2026-01-04 05:57:51.19	254.20	21.89	-24.0	-24.8	17.5	0.00e+00	0	43	102	1048576	7	3949
2026-01-04 05:57:52.20	254.04	21.78	-24.2	-24.7	17.3	0.00e+00	0	43	102	1048576	8	3829
2026-01-04 05:57:53.21	253.87	21.67	-24.4	-25.1	17.1	0.00e+00	0	43	102	1048576	8	3902
2026-01-04 05:57:54.22	253.71	21.56	-24.1	-24.6	17.3	3.73e-04	0	43	102	1048576	8	3805
2026-01-04 05:57:55.23	253.54	21.45	-24.0	-24.3	17.5	0.00e+00	0	43	102	1048576	8	3734
2026-01-04 05:57:56.22	253.38	21.34	-23.9	-24.7	17.5	0.00e+00	0	43	102	1048576	7	3924
2026-01-04 05:57:57.23	253.22	21.23	-24.0	-24.8	17.5	1.82e-04	0	43	102	1048576	7	3947
2026-01-04 05:57:58.24	253.06	21.12	-23.9	-24.6	17.5	0.00e+00	0	43	102	1048576	7	3906
2026-01-04 05:57:59.25	252.90	21.01	-24.0	-24.8	17.4	9.84e-05	0	43	102	1048576	7	3958
2026-01-04 05:58:00.26	252.75	20.90	-24.0	-24.8	17.4	0.00e+00	0	43	102	1048576	7	3952
2026-01-04 05:58:01.26	252.59	20.79	-24.3	-25.0	17.1	0.00e+00	0	43	102	1048576	8	3879
2026-01-04 05:58:02.27	252.43	20.68	-24.5	-25.4	16.9	1.52e-04	0	43	102	1048576	8	3989
2026-01-04 05:58:03.28	252.28	20.57	-24.4	-25.3	17.0	1.10e-06	0	43	102	1048576	8	3954
2026-01-04 05:58:04.29	252.13	20.46	-24.5	-25.3	16.9	0.00e+00	0	43	102	1048576	8	3975
2026-01-04 05:58:05.30	251.98	20.35	-24.6	-25.2	16.8	0.00e+00	0	43	102	1048576	9	3828
2026-01-04 05:58:06.31	251.82	20.24	-24.8	-25.4	16.6	9.98e-04	0	43	102	1048576	9	3884
2026-01-04 05:58:07.31	251.68	20.13	-24.9	-25.6	16.5	0.00e+00	0	43	102	1048576	9	3924
2026-01-04 05:58:08.32	251.53	20.03	-24.7	-25.2	16.7	1.19e-03	0	43	102	1048576	9	3844
2026-01-04 05:58:09.33	251.38	19.92	-24.6	-25.1	16.7	1.27e-03	0	43	102	1048576	9	3821
2026-01-04 05:58:10.33	251.23	19.81	-24.7	-25.3	16.6	0.00e+00	0	43	102	1048576	9	3853
2026-01-04 05:58:11.34	251.09	19.71	-24.7	-25.3	16.7	1.36e-03	0	43	102	1048576	9	3851
2026-01-04 05:58:12.34	250.94	19.60	-24.6	-25.1	16.8	1.52e-03	0	43	102	1048576	9	3806
2026-01-04 05:58:13.35	250.80	19.49	-24.6	-25.2	16.7	0.00e+00	0	43	102	1048576	9	3823
2026-01-04 05:58:14.36	250.66	19.39	-24.7	-25.3	16.7	1.24e-03	0	44	102	1048576	9	3844
2026-01-04 05:58:15.37	250.52	19.28	-24.6	-25.1	16.8	0.00e+00	0	43	102	1048576	9	3801
2026-01-04 05:58:16.38	250.38	19.18	-24.7	-25.3	16.7	0.00e+00	0	43	102	1048576	9	3862
2026-01-04 05:58:17.39	250.24	19.07	-24.8	-25.5	16.6	0.00e+00	0	43	102	1048576	9	3894
2026-01-04 05:58:18.40	250.10	18.96	-24.7	-25.4	16.6	9.43e-04	0	43	102	1048576	9	3868
2026-01-04 05:58:19.40	249.96	18.86	-24.8	-25.5	16.5	0.00e+00	0	44	102	1048576	9	3906
2026-01-04 05:58:20.41	249.82	18.76	-24.9	-25.8	16.4	0.00e+00	0	43	102	1048576	9	3969
2026-01-04 05:58:21.42	249.69	18.65	-25.0	-25.9	16.3	1.11e-03	0	43	102	1048576	9	4014
2026-01-04 05:58:22.43	249.55	18.55	-25.1	-25.7	16.2	0.00e+00	0	44	102	1048576	10	3837
2026-01-04 05:58:23.44	249.42	18.44	-25.2	-25.9	16.1	0.00e+00	0	44	102	1048576	10	3900
2026-01-04 05:58:24.45	249.29	18.34	-25.3	-26.1	15.9	0.00e+00	0	43	102	1048576	10	3953
2026-01-04 05:58:25.46	249.15	18.24	-25.2	-25.8	16.1	0.00e+00	0	44	102	1048576	10	3870
2026-01-04 05:58:26.46	249.02	18.13	-25.1	-25.6	16.2	0.00e+00	0	43	102	1048576	10	3836
2026-01-04 05:58:27.48	248.89	18.03	-25.1	-25.6	16.2	0.00e+00	0	44	102	1048576	10	3825
2026-01-04 05:58:28.48	248.77	17.93	-25.0	-25.5	16.2	0.00e+00	0	43	102	1048576	10	3807
2026-01-04 05:58:29.49	248.64	17.83	-25.1	-25.6	16.2	0.00e+00	0	44	102	1048576	10	3816
2026-01-04 05:58:30.50	248.51	17.72	-25.1	-25.8	16.1	0.00e+00	0	44	102	1048576	10	3860
2026-01-04 05:58:31.50	248.38	17.62	-25.2	-25.9	16.0	0.00e+00	0	43	102	1048576	10	3905
2026-01-04 05:58:32.51	248.26	17.52	-25.2	-25.9	16.0	0.00e+00	0	44	102	1048576	10	3896
2026-01-04 05:58:33.51	248.13	17.42	-25.1	-25.6	16.2	0.00e+00	0	43	102	1048576	10	3818
2026-01-04 05:58:34.52	248.01	17.32	-25.1	-25.7	16.2	0.00e+00	0	43	102	1048576	10	3840
2026-01-04 05:58:35.52	247.89	17.22	-25.2	-25.8	16.0	0.00e+00	0	43	102	1048576	10	3880
2026-01-04 05:58:36.53	247.76	17.12	-25.2	-25.9	16.0	0.00e+00	0	44	102	1048576	10	3885
2026-01-04 05:58:37.54	247.64	17.02	-25.2	-25.8	16.1	0.00e+00	0	43	102	1048576	10	3869
2026-01-04 05:58:38.55	247.52	16.92	-25.3	-26.0	16.0	0.00e+00	0	43	102	1048576	10	3927
2026-01-04 05:58:39.55	247.40	16.82	-25.4	-26.2	15.8	0.00e+00	0	44	102	1048576	10	3982
2026-01-04 05:58:40.55	247.28	16.72	-25.5	-26.5	15.7	0.00e+00	0	44	102	1048576	10	4041
2026-01-04 05:58:41.56	247.17	16.63	-25.5	-26.5	15.7	0.00e+00	0	44	102	1048576	10	4043
2026-01-04 05:58:42.56	247.05	16.53	-25.5	-26.5	15.7	0.00e+00	0	44	102	1048576	10	4037
2026-01-04 05:58:43.58	246.93	16.43	-25.6	-26.6	15.6	0.00e+00	0	44	102	1048576	10	4076
2026-01-04 05:58:44.58	246.82	16.33	-25.7	-26.5	15.4	0.00e+00	0	44	102	1048576	11	3946
2026-01-04 05:58:45.59	246.70	16.23	-25.7	-26.4	15.4	0.00e+00	0	43	102	1048576	11	3921
2026-01-04 05:58:46.59	246.59	16.14	-25.5	-25.9	15.7	0.00e+00	0	44	102	1048576	11	3798
2026-01-04 05:58:47.59	246.47	16.04	-25.3	-26.1	15.8	0.00e+00	0	44	102	1048576	10	3953
2026-01-04 05:58:48.60	246.36	15.94	-25.4	-26.3	15.8	0.00e+00	0	44	102	1048576	10	3986
2026-01-04 05:58:49.60	246.25	15.85	-25.4	-26.4	15.7	0.00e+00	0	44	102	1048576	10	4019
2026-01-04 05:58:50.61	246.14	15.75	-25.4	-26.4	15.7	0.00e+00	0	44	102	1048576	10	4031
2026-01-04 05:58:51.61	246.03	15.66	-25.4	-26.4	15.7	0.00e+00	0	43	102	1048576	10	4016
2026-01-04 05:58:52.61	245.92	15.56	-25.5	-26.4	15.6	0.00e+00	0	44	102	1048576	10	4032
2026-01-04 05:58:53.62	245.81	15.46	-25.5	-26.4	15.6	0.00e+00	0	44	102	1048576	10	4027
2026-01-04 05:58:54.63	245.70	15.37	-25.5	-26.5	15.6	0.00e+00	0	43	102	1048576	10	4039
2026-01-04 05:58:55.63	245.59	15.27	-25.5	-26.5	15.6	0.00e+00	0	44	102	1048576	10	4044
2026-01-04 05:58:56.64	245.49	15.18	-25.5	-26.5	15.6	0.00e+00	0	44	102	1048576	10	4034
2026-01-04 05:58:57.65	245.38	15.09	-25.4	-26.3	15.7	0.00e+00	0	44	102	1048576	10	4011
2026-01-04 05:58:58.65	245.28	14.99	-25.5	-26.4	15.6	0.00e+00	0	44	102	1048576	10	4023
2026-01-04 05:58:59.65	245.17	14.90	-25.4	-26.3	15.6	0.00e+00	0	44	102	1048576	10	4010
2026-01-04 05:59:00.65	245.07	14.81	-25.4	-26.2	15.7	0.00e+00	0	43	102	1048576	10	3977
2026-01-04 05:59:01.66	244.96	14.71	-25.4	-26.3	15.7	0.00e+00	0	44	102	1048576	10	3999
2026-01-04 05:59:02.67	244.86	14.62	-25.4	-26.4	15.6	0.00e+00	0	44	102	1048576	10	4025
2026-01-04 05:59:03.67	244.76	14.53	-25.4	-26.3	15.7	0.00e+00	0	43	102	1048576	10	3987
2026-01-04 05:59:04.68	244.66	14.43	-25.4	-26.2	15.7	0.00e+00	0	44	102	1048576	10	3979
2026-01-04 05:59:05.69	244.56	14.34	-25.5	-26.6	15.5	0.00e+00	0	44	102	1048576	10	4059
2026-01-04 05:59:06.69	244.46	14.25	-25.6	-26.7	15.5	0.00e+00	0	44	102	1048576	10	4086
2026-01-04 05:59:07.69	244.36	14.16	-25.7	-26.4	15.3	0.00e+00	0	43	102	1048576	11	3916
2026-01-04 05:59:08.70	244.26	14.07	-25.9	-26.9	15.1	0.00e+00	0	43	102	1048576	11	4035
2026-01-04 05:59:09.71	244.16	13.98	-25.9	-26.9	15.1	0.00e+00	0	44	102	1048576	11	4036
2026-01-04 05:59:10.72	244.06	13.88	-26.0	-27.1	14.6	0.00e+00	0	44	102	1048576	11	4094
2026-01-04 05:59:11.72	243.96	13.79	-26.0	-27.1	14.8	0.00e+00	0	43	102	1048576	11	4096
2026-01-04 05:59:12.72	243.87	13.70	-25.9	-27.0	15.0	2.20e-06	0	44	102	1048576	11	4070
2026-01-04 05:59:13.73	243.77	13.61	-26.0	-27.1	14.9	0.00e+00	0	43	102	1048576	11	4087
2026-01-04 05:59:14.74	243.68	13.52	-26.1	-26.8	14.7	0.00e+00	0	44	102	1048576	12	3935
2026-01-04 05:59:15.74	243.58	13.43	-26.3	-27.2	14.5	0.00e+00	0	44	102	1048576	12	4021
2026-01-04 05:59:16.75	243.49	13.34	-26.1	-27.0	14.6	0.00e+00	0	44	102	1048576	12	3961
2026-01-04 05:59:17.76	243.39	13.25	-26.0	-26.7	14.7	2.16e-04	0	44	102	1048576	12	3906
2026-01-04 05:59:18.77	243.30	13.17	-26.0	-26.7	14.8	0.00e+00	0	44	102	1048576	12	3900
2026-01-04 05:59:19.78	243.21	13.08	-26.1	-26.9	14.7	0.00e+00	0	44	102	1048576	12	3932
2026-01-04 05:59:20.79	243.11	12.99	-26.2	-27.2	14.5	2.16e-04	0	43	102	1048576	12	4011
2026-01-04 05:59:21.80	243.02	12.90	-26.2	-27.1	14.5	0.00e+00	0	44	102	1048576	12	3997
2026-01-04 05:59:22.81	242.93	12.81	-26.1	-27.0	14.6	2.29e-04	0	44	102	1048576	12	3964
2026-01-04 05:59:23.81	242.84	12.72	-26.3	-27.2	14.5	1.96e-04	0	44	102	1048576	12	4031
2026-01-04 05:59:24.82	242.75	12.64	-26.2	-27.2	14.5	2.20e-06	0	44	102	1048576	12	4018
2026-01-04 05:59:25.83	242.66	12.55	-26.2	-27.1	14.5	1.79e-04	0	44	102	1048576	12	4005
2026-01-04 05:59:26.83	242.57	12.46	-26.3	-27.4	14.3	1.99e-04	0	44	102	1048576	12	4080
2026-01-04 05:59:27.84	242.49	12.37	-26.2	-27.2	14.4	0.00e+00	0	44	102	1048576	12	4027
2026-01-04 05:59:28.85	242.40	12.29	-26.5	-27.7	14.1	0.00e+00	0	44	102	1048576	12	4164
2026-01-04 05:59:29.86	242.31	12.20	-26.3	-27.3	14.4	1.52e-04	0	44	102	1048576	12	4036
2026-01-04 05:59:30.86	242.22	12.12	-26.1	-26.8	14.6	0.00e+00	0	44	102	1048576	12	3927
2026-01-04 05:59:31.87	242.14	12.03	-26.0	-26.7	14.7	5.70e-06	0	44	102	1048576	12	3899
2026-01-04 05:59:32.88	242.05	11.94	-26.0	-26.6	14.7	6.98e-05	0	44	102	1048576	12	3868
2026-01-04 05:59:33.89	241.97	11.86	-26.0	-26.7	14.6	1.10e-06	0	44	102	1048576	12	3901
2026-01-04 05:59:34.89	241.88	11.77	-25.9	-26.5	14.8	1.10e-06	0	44	102	1048576	12	3847
2026-01-04 05:59:35.90	241.80	11.69	-25.9	-26.5	14.8	0.00e+00	0	44	102	1048576	12	3843
2026-01-04 05:59:36.90	241.72	11.60	-25.9	-26.4	14.8	0.00e+00	0	44	102	1048576	12	3830
2026-01-04 05:59:37.91	241.63	11.52	-25.9	-26.6	14.8	4.50e-06	0	43	102	1048576	12	3861
2026-01-04 05:59:38.92	241.55	11.44	-26.0	-26.8	14.6	0.00e+00	0	44	102	1048576	12	3913
2026-01-04 05:59:39.93	241.47	11.35	-25.9	-26.6	14.7	0.00e+00	0	44	102	1048576	12	3866
2026-01-04 05:59:40.94	241.39	11.27	-25.9	-26.4	14.8	0.00e+00	0	43	102	1048576	12	3812
2026-01-04 05:59:41.94	241.30	11.18	-25.9	-26.5	14.8	0.00e+00	0	44	102	1048576	12	3853
2026-01-04 05:59:42.96	241.22	11.10	-25.9	-26.5	14.7	0.00e+00	0	44	102	1048576	12	3851
2026-01-04 05:59:43.96	241.14	11.02	-26.0	-26.6	14.7	0.00e+00	0	44	102	1048576	12	3874
2026-01-04 05:59:44.97	241.06	10.93	-26.1	-26.8	14.6	0.00e+00	0	44	102	1048576	12	3927
2026-01-04 05:59:45.98	240.98	10.85	-26.1	-26.8	14.5	1.10e-06	0	44	102	1048576	12	3931
2026-01-04 05:59:46.99	240.90	10.77	-26.2	-27.1	14.4	0.00e+00	0	44	102	1048576	12	3989
2026-01-04 05:59:47.99	240.83	10.69	-26.2	-27.2	14.3	0.00e+00	0	44	102	1048576	12	4031
2026-01-04 05:59:49.00	240.75	10.61	-26.4	-27.5	14.1	3.40e-06	0	44	102	1048576	12	4109
2026-01-04 05:59:50.00	240.67	10.52	-26.4	-27.6	14.1	0.00e+00	0	44	102	1048576	12	4127
2026-01-04 05:59:51.01	240.60	10.44	-26.5	-27.9	13.9	2.20e-06	0	44	102	1048576	12	4200
2026-01-04 05:59:52.01	240.52	10.36	-26.6	-27.6	13.8	5.70e-06	0	44	102	1048576	13	4024
2026-01-04 05:59:53.02	240.44	10.28	-26.8	-28.0	13.5	2.20e-06	0	44	102	1048576	13	4141
2026-01-04 05:59:54.01	240.37	10.20	-26.8	-28.0	13.6	3.40e-06	0	44	102	1048576	13	4134
2026-01-04 05:59:55.02	240.29	10.12	-27.0	-28.4	13.3	1.02e-05	0	44	102	1048576	13	4244
2026-01-04 05:59:56.03	240.22	10.04	-27.0	-28.4	13.3	1.48e-05	0	44	102	1048576	13	4238
2026-01-04 05:59:57.03	240.14	9.96	-27.1	-28.6	13.2	1.83e-05	0	44	102	1048576	13	4297
2026-01-04 05:59:58.05	240.07	9.88	-27.1	-28.6	13.2	2.40e-05	0	44	102	1048576	13	4307
2026-01-04 05:59:59.05	240.00	9.80	-27.2	-28.4	13.0	3.77e-05	0	44	102	1048576	14	4151
2026-01-04 06:00:00.06	239.92	9.72	-27.3	-28.8	12.8	4.11e-05	0	44	102	1048576	14	4247
2026-01-04 06:00:01.06	239.85	9.64	-27.3	-28.6	12.9	3.77e-05	0	44	102	1048576	14	4182
2026-01-04 06:00:02.07	239.78	9.56	-27.2	-28.4	13.0	2.86e-05	0	44	102	1048576	14	4145
2026-01-04 06:00:03.08	239.71	9.48	-27.2	-28.5	12.9	3.43e-05	0	43	102	1048576	14	4173
2026-01-04 06:00:04.09	239.63	9.40	-27.2	-28.4	13.0	1.83e-05	0	44	102	1048576	14	4124
2026-01-04 06:00:05.10	239.56	9.32	-27.1	-28.3	13.1	2.97e-05	0	44	102	1048576	14	4112
2026-01-04 06:00:06.11	239.49	9.25	-27.2	-28.4	13.0	2.17e-05	0	44	102	1048576	14	4146
2026-01-04 06:00:07.11	239.42	9.17	-27.2	-28.4	13.0	4.11e-05	0	44	102	1048576	14	4136
2026-01-04 06:00:08.12	239.35	9.09	-27.1	-28.2	13.1	3.77e-05	0	43	102	1048576	14	4084
2026-01-04 06:00:09.13	239.28	9.01	-27.1	-28.3	13.0	2.51e-05	0	43	102	1048576	14	4100
2026-01-04 06:00:10.13	239.21	8.94	-27.1	-28.1	13.1	2.51e-05	0	43	102	1048576	14	4067
2026-01-04 06:00:11.14	239.14	8.86	-27.0	-28.0	13.2	2.63e-05	0	44	102	1048576	14	4042
2026-01-04 06:00:12.14	239.08	8.78	-27.0	-28.5	13.1	1.60e-05	0	44	102	1048576	13	4273
2026-01-04 06:00:13.14	239.01	8.71	-26.9	-28.3	13.2	1.48e-05	0	44	102	1048576	13	4228
2026-01-04 06:00:14.15	238.94	8.63	-27.0	-28.6	13.1	2.63e-05	0	43	102	1048576	13	4296
2026-01-04 06:00:15.15	238.87	8.55	-27.1	-28.3	13.0	2.86e-05	0	44	102	1048576	14	4104
2026-01-04 06:00:16.15	238.81	8.48	-27.1	-28.1	13.1	2.17e-05	0	44	102	1048576	14	4069
2026-01-04 06:00:17.16	238.74	8.40	-27.0	-27.9	13.2	2.51e-05	0	44	102	1048576	14	4014
2026-01-04 06:00:18.17	238.67	8.32	-27.0	-28.5	13.1	1.71e-05	0	44	102	1048576	13	4281
2026-01-04 06:00:19.17	238.61	8.25	-27.0	-28.5	13.1	1.48e-05	0	44	102	1048576	13	4280
2026-01-04 06:00:20.18	238.54	8.17	-27.0	-28.4	13.1	1.60e-05	0	44	102	1048576	13	4244
2026-01-04 06:00:21.18	238.48	8.10	-27.0	-28.6	13.0	3.20e-05	0	44	102	1048576	13	4298
2026-01-04 06:00:22.19	238.41	8.02	-27.0	-28.5	13.1	2.40e-05	0	44	102	1048576	13	4270
2026-01-04 06:00:23.20	238.35	7.95	-27.0	-28.5	13.1	2.74e-05	0	44	102	1048576	13	4278
2026-01-04 06:00:24.20	238.29	7.87	-27.0	-28.5	13.1	3.77e-05	0	44	102	1048576	13	4275
2026-01-04 06:00:25.21	238.22	7.80	-26.9	-28.3	13.1	2.63e-05	0	44	102	1048576	13	4224
2026-01-04 06:00:26.22	238.16	7.72	-27.1	-28.3	12.8	3.08e-05	0	44	102	1048576	14	4132
2026-01-04 06:00:27.22	238.10	7.65	-27.2	-28.5	12.7	6.06e-05	0	44	102	1048576	14	4177
2026-01-04 06:00:28.22	238.03	7.58	-27.4	-28.9	12.5	1.04e-04	0	44	102	1048576	14	4289
2026-01-04 06:00:29.23	237.97	7.50	-27.2	-28.4	12.8	7.89e-05	0	44	102	1048576	14	4137
2026-01-04 06:00:30.23	237.91	7.43	-27.0	-28.0	13.0	2.97e-05	0	44	102	1048576	14	4034
2026-01-04 06:00:31.24	237.85	7.35	-26.9	-27.8	13.1	1.94e-05	0	44	102	1048576	14	3995
2026-01-04 06:00:32.24	237.79	7.28	-26.5	-27.4	13.1	1.83e-05	0	44	102	1048576	14	3994
2026-01-04 06:00:33.25	237.72	7.21	-26.9	-27.8	13.1	2.28e-05	0	44	102	1048576	14	4002
2026-01-04 06:00:34.26	237.66	7.14	-27.0	-27.9	13.0	1.79e-04	0	44	102	1048576	14	4017
2026-01-04 06:00:35.26	237.60	7.06	-29.4	-31.8	9.8	4.57e-05	0	44	102	1048576	18	4767
2026-01-04 06:00:36.27	237.54	6.99	-33.1	-43.1	3.8	8.47e-01	0	44	104	1048576	25	11396
2026-01-04 06:00:37.27	237.48	6.92	-33.4	-43.2	3.8	8.46e-01	0	44	104	1048576	26	11114
2026-01-04 06:00:38.27	237.42	6.85	-33.6	-43.1	3.8	8.45e-01	0	44	104	1048576	27	10757

#Closed at: 2026-01-04 06:00:38
#Recorded file [1 MB]: D:/data/31010_260104_084929.dat