passes_logs/2026/01/04/R2M6_AANII_01/R2M6_AANII_01__20260104_040237_FENGYUN_3D_rec.log

#Pass ID: 20260104_040237_FENGYUN 3D
#Satellite: FENGYUN 3D
#Configuration: FENGYUN 3D
#almurnet v.1.7.20240730
#Start time: 2026-01-04 04:02:39

#Version: 2.2.20231116
#Station: R2M6_AANII_01
#Location: 30.233357 lon 59.946436 lat
#TLE: 1 43010U 17072A   26003.51579816  .00000092  00000+0  65324-4 0  9992
#TLE: 2 43010  98.9912 335.1548 0001916 128.4619 231.6729 14.19692074421623

#Time	Az	El	Level	Level2	SNR	BER	BlckErr	Temp	State	Recorded	gain1	gain2
2026-01-04 04:02:39.24	11.78	7.11	-30.0	-33.4	5.3	7.86e-01	0	41	0	0	20	5308
2026-01-04 04:02:40.24	11.70	7.18	-29.7	-32.5	5.4	7.82e-01	0	41	104	0	20	4937
2026-01-04 04:02:41.24	11.62	7.24	-29.8	-33.2	9.9	6.40e-03	0	41	0	0	19	5292
2026-01-04 04:02:42.25	11.54	7.31	-30.0	-33.5	9.7	9.51e-03	0	41	102	1048576	19	5426
2026-01-04 04:02:43.26	11.46	7.38	-29.9	-33.3	9.9	7.31e-03	0	41	102	1048576	19	5340
2026-01-04 04:02:44.26	11.38	7.45	-29.9	-33.3	9.8	8.94e-03	0	41	102	1048576	19	5338
2026-01-04 04:02:45.27	11.30	7.52	-29.4	-32.1	10.7	3.79e-03	0	41	102	1048576	19	4887
2026-01-04 04:02:46.28	11.22	7.59	-29.0	-30.9	11.5	7.61e-04	0	41	102	1048576	19	4472
2026-01-04 04:02:47.29	11.13	7.66	-28.6	-30.4	12.1	4.91e-04	0	41	102	1048576	18	4439
2026-01-04 04:02:48.30	11.05	7.73	-28.4	-30.4	12.4	8.69e-05	0	41	102	1048576	17	4544
2026-01-04 04:02:49.31	10.97	7.80	-28.5	-30.8	12.2	1.60e-04	0	41	102	1048576	17	4658
2026-01-04 04:02:50.32	10.89	7.87	-28.4	-30.4	12.5	7.78e-05	0	41	102	1048576	17	4528
2026-01-04 04:02:51.33	10.80	7.93	-28.4	-31.0	12.4	8.58e-05	0	41	102	1048576	16	4853
2026-01-04 04:02:52.33	10.72	8.00	-28.3	-30.7	12.6	5.14e-05	0	41	102	1048576	16	4744
2026-01-04 04:02:53.34	10.63	8.07	-28.2	-30.5	12.8	5.03e-05	0	41	102	1048576	16	4678
2026-01-04 04:02:54.34	10.55	8.14	-28.1	-30.2	13.0	3.07e-04	0	41	102	1048576	16	4568
2026-01-04 04:02:55.35	10.47	8.21	-28.1	-30.1	13.0	2.05e-05	0	41	102	1048576	16	4566
2026-01-04 04:02:56.35	10.38	8.28	-27.9	-29.8	13.2	2.05e-05	0	41	102	1048576	16	4471
2026-01-04 04:02:57.36	10.29	8.35	-27.7	-29.3	13.5	9.10e-06	0	41	102	1048576	16	4328
2026-01-04 04:02:58.37	10.21	8.42	-27.6	-29.0	13.7	4.50e-06	0	41	102	1048576	16	4234
2026-01-04 04:02:59.38	10.12	8.50	-27.4	-29.1	13.8	3.40e-06	0	41	102	1048576	15	4367
2026-01-04 04:03:00.38	10.03	8.57	-27.5	-29.4	13.6	4.50e-06	0	41	102	1048576	15	4470
2026-01-04 04:03:01.39	9.95	8.64	-27.6	-29.6	13.5	5.70e-06	0	41	102	1048576	15	4518
2026-01-04 04:03:02.39	9.86	8.71	-27.5	-29.2	13.7	2.20e-06	0	41	102	1048576	15	4409
2026-01-04 04:03:03.40	9.77	8.78	-27.4	-29.5	13.9	1.10e-06	0	41	102	1048576	14	4617
2026-01-04 04:03:04.40	9.68	8.85	-27.4	-29.6	13.8	3.40e-06	0	41	102	1048576	14	4642
2026-01-04 04:03:05.41	9.59	8.92	-27.5	-29.2	13.8	3.40e-06	0	41	102	1048576	15	4412
2026-01-04 04:03:06.41	9.50	8.99	-27.4	-29.1	13.9	6.80e-06	0	41	102	1048576	15	4373
2026-01-04 04:03:07.42	9.41	9.06	-27.5	-29.4	13.7	4.50e-06	0	41	102	1048576	15	4464
2026-01-04 04:03:08.41	9.32	9.13	-27.5	-29.3	13.7	4.50e-06	0	42	102	1048576	15	4448
2026-01-04 04:03:09.41	9.23	9.21	-27.4	-29.1	13.9	0.00e+00	0	42	102	1048576	15	4367
2026-01-04 04:03:10.42	9.14	9.28	-27.3	-28.9	14.0	3.40e-06	0	42	102	1048576	15	4303
2026-01-04 04:03:11.42	9.05	9.35	-27.4	-29.0	13.9	0.00e+00	0	41	102	1048576	15	4349
2026-01-04 04:03:12.42	8.96	9.42	-27.4	-29.1	13.9	1.10e-06	0	42	102	1048576	15	4368
2026-01-04 04:03:13.43	8.86	9.49	-27.3	-28.8	14.1	1.10e-06	0	42	102	1048576	15	4295
2026-01-04 04:03:14.44	8.77	9.57	-27.3	-28.9	14.0	3.40e-06	0	41	102	1048576	15	4317
2026-01-04 04:03:15.45	8.67	9.64	-27.1	-28.4	14.3	0.00e+00	0	42	102	1048576	15	4176
2026-01-04 04:03:16.46	8.58	9.71	-27.1	-28.5	14.3	1.10e-06	0	41	102	1048576	15	4198
2026-01-04 04:03:17.47	8.48	9.79	-27.1	-28.4	14.3	0.00e+00	0	42	102	1048576	15	4171
2026-01-04 04:03:18.47	8.39	9.86	-27.1	-28.3	14.4	1.10e-06	0	42	102	1048576	15	4129
2026-01-04 04:03:19.48	8.29	9.93	-27.1	-28.4	14.3	1.10e-06	0	42	102	1048576	15	4170
2026-01-04 04:03:20.49	8.20	10.01	-27.2	-28.6	14.2	0.00e+00	0	42	102	1048576	15	4213
2026-01-04 04:03:21.49	8.10	10.08	-27.2	-28.7	14.2	1.10e-06	0	42	102	1048576	15	4251
2026-01-04 04:03:22.50	8.00	10.15	-27.2	-28.5	14.3	1.10e-06	0	42	102	1048576	15	4189
2026-01-04 04:03:23.51	7.90	10.23	-27.1	-28.4	14.4	0.00e+00	0	42	102	1048576	15	4163
2026-01-04 04:03:24.51	7.80	10.30	-27.1	-28.9	14.3	1.10e-06	0	42	102	1048576	14	4423
2026-01-04 04:03:25.52	7.70	10.38	-27.1	-28.8	14.4	1.10e-06	0	42	102	1048576	14	4383
2026-01-04 04:03:26.53	7.60	10.45	-27.2	-29.1	14.3	1.10e-06	0	42	102	1048576	14	4460
2026-01-04 04:03:27.54	7.50	10.52	-27.2	-29.1	14.2	3.40e-06	0	42	102	1048576	14	4463
2026-01-04 04:03:28.54	7.40	10.60	-26.9	-28.5	14.6	0.00e+00	0	42	102	1048576	14	4292
2026-01-04 04:03:29.55	7.30	10.67	-26.8	-28.2	14.8	0.00e+00	0	42	102	1048576	14	4211
2026-01-04 04:03:30.55	7.20	10.75	-26.8	-28.1	14.8	0.00e+00	0	42	102	1048576	14	4207
2026-01-04 04:03:31.55	7.10	10.82	-26.8	-28.1	14.9	0.00e+00	0	42	102	1048576	14	4194
2026-01-04 04:03:32.56	7.00	10.90	-26.8	-28.1	14.9	1.10e-06	0	42	102	1048576	14	4187
2026-01-04 04:03:33.57	6.89	10.97	-26.8	-28.1	14.9	0.00e+00	0	42	102	1048576	14	4180
2026-01-04 04:03:34.57	6.79	11.05	-26.7	-28.0	14.6	1.10e-06	0	42	102	1048576	14	4179
2026-01-04 04:03:35.57	6.69	11.12	-26.7	-28.0	14.8	0.00e+00	0	42	102	1048576	14	4158
2026-01-04 04:03:36.58	6.58	11.20	-26.7	-27.9	15.0	0.00e+00	0	42	102	1048576	14	4137
2026-01-04 04:03:37.59	6.47	11.27	-26.7	-27.9	15.0	0.00e+00	0	42	102	1048576	14	4133
2026-01-04 04:03:38.60	6.37	11.35	-26.6	-27.7	15.1	1.10e-06	0	42	102	1048576	14	4097
2026-01-04 04:03:39.61	6.26	11.43	-26.6	-27.8	15.1	0.00e+00	0	42	102	1048576	14	4106
2026-01-04 04:03:40.61	6.15	11.50	-26.6	-27.7	15.1	0.00e+00	0	42	102	1048576	14	4079
2026-01-04 04:03:41.62	6.04	11.58	-26.6	-27.8	15.0	1.91e-04	0	42	102	1048576	14	4116
2026-01-04 04:03:42.62	5.94	11.66	-26.6	-27.7	15.1	0.00e+00	0	42	102	1048576	14	4086
2026-01-04 04:03:43.63	5.83	11.73	-26.4	-27.8	15.3	1.79e-04	0	42	102	1048576	13	4228
2026-01-04 04:03:44.64	5.72	11.81	-26.4	-27.8	15.3	0.00e+00	0	42	102	1048576	13	4227
2026-01-04 04:03:45.65	5.61	11.89	-26.5	-28.0	15.2	0.00e+00	0	42	102	1048576	13	4280
2026-01-04 04:03:46.66	5.50	11.96	-26.7	-28.4	15.0	0.00e+00	0	42	102	1048576	13	4368
2026-01-04 04:03:47.66	5.38	12.04	-26.6	-28.2	15.1	1.33e-04	0	42	102	1048576	13	4324
2026-01-04 04:03:48.66	5.27	12.12	-26.6	-28.1	15.2	0.00e+00	0	42	102	1048576	13	4305
2026-01-04 04:03:49.67	5.16	12.19	-26.7	-28.3	15.1	0.00e+00	0	42	102	1048576	13	4361
2026-01-04 04:03:50.68	5.05	12.27	-26.6	-28.3	15.1	2.79e-04	0	42	102	1048576	13	4354
2026-01-04 04:03:51.69	4.93	12.35	-26.6	-28.2	15.1	0.00e+00	0	42	102	1048576	13	4317
2026-01-04 04:03:52.69	4.82	12.43	-26.6	-28.2	15.1	2.57e-04	0	42	102	1048576	13	4320
2026-01-04 04:03:53.71	4.70	12.51	-26.6	-28.2	15.1	2.45e-04	0	42	102	1048576	13	4335
2026-01-04 04:03:54.70	4.59	12.58	-26.7	-28.5	14.9	1.10e-06	0	42	102	1048576	13	4424
2026-01-04 04:03:55.70	4.47	12.66	-26.6	-28.2	15.1	8.01e-05	0	42	102	1048576	13	4340
2026-01-04 04:03:56.71	4.35	12.74	-26.5	-28.0	15.3	3.08e-05	0	42	102	1048576	13	4267
2026-01-04 04:03:57.72	4.24	12.82	-26.4	-27.8	15.4	0.00e+00	0	42	102	1048576	13	4218
2026-01-04 04:03:58.72	4.12	12.90	-26.5	-27.9	15.3	0.00e+00	0	42	102	1048576	13	4243
2026-01-04 04:03:59.73	4.00	12.97	-26.4	-27.8	15.4	0.00e+00	0	42	102	1048576	13	4221
2026-01-04 04:04:00.74	3.88	13.05	-26.4	-27.9	15.4	0.00e+00	0	42	102	1048576	13	4240
2026-01-04 04:04:01.74	3.76	13.13	-26.4	-27.8	15.4	0.00e+00	0	42	102	1048576	13	4219
2026-01-04 04:04:02.75	3.64	13.21	-26.4	-27.7	15.5	0.00e+00	0	42	102	1048576	13	4188
2026-01-04 04:04:03.76	3.52	13.29	-26.3	-27.6	15.5	0.00e+00	0	42	102	1048576	13	4166
2026-01-04 04:04:04.76	3.39	13.37	-26.3	-27.6	15.5	0.00e+00	0	42	102	1048576	13	4173
2026-01-04 04:04:05.77	3.27	13.45	-26.3	-27.4	15.6	0.00e+00	0	42	102	1048576	13	4125
2026-01-04 04:04:06.76	3.15	13.53	-26.2	-27.4	15.7	0.00e+00	0	42	102	1048576	13	4104
2026-01-04 04:04:07.77	3.02	13.61	-26.3	-27.5	15.6	0.00e+00	0	42	102	1048576	13	4145
2026-01-04 04:04:08.78	2.90	13.69	-26.2	-27.3	15.7	0.00e+00	0	42	102	1048576	13	4087
2026-01-04 04:04:09.78	2.77	13.77	-26.2	-27.3	15.8	0.00e+00	0	42	102	1048576	13	4077
2026-01-04 04:04:10.78	2.65	13.85	-26.2	-27.2	15.8	0.00e+00	0	42	102	1048576	13	4074
2026-01-04 04:04:11.79	2.52	13.93	-26.1	-27.0	15.9	1.10e-06	0	42	102	1048576	13	4019
2026-01-04 04:04:12.80	2.39	14.01	-26.2	-27.3	15.8	0.00e+00	0	42	102	1048576	13	4073
2026-01-04 04:04:13.81	2.26	14.09	-26.1	-27.1	15.9	5.26e-05	0	42	102	1048576	13	4032
2026-01-04 04:04:14.81	2.13	14.17	-26.0	-26.9	16.0	0.00e+00	0	42	102	1048576	13	3977
2026-01-04 04:04:15.82	2.00	14.25	-26.1	-27.0	15.9	0.00e+00	0	42	102	1048576	13	4001
2026-01-04 04:04:16.83	1.87	14.33	-26.0	-26.8	16.0	0.00e+00	0	42	102	1048576	13	3966
2026-01-04 04:04:17.83	1.74	14.41	-26.0	-27.2	16.1	0.00e+00	0	43	102	1048576	12	4176
2026-01-04 04:04:18.84	1.61	14.49	-26.0	-27.3	16.1	0.00e+00	0	42	102	1048576	12	4181
2026-01-04 04:04:19.85	1.47	14.57	-25.9	-27.2	16.1	0.00e+00	0	42	102	1048576	12	4169
2026-01-04 04:04:20.86	1.34	14.66	-25.9	-27.2	16.1	0.00e+00	0	42	102	1048576	12	4174
2026-01-04 04:04:21.86	1.21	14.74	-26.1	-27.5	15.9	0.00e+00	0	42	102	1048576	12	4257
2026-01-04 04:04:22.87	1.07	14.82	-26.0	-27.3	16.1	0.00e+00	0	42	102	1048576	12	4188
2026-01-04 04:04:23.88	0.93	14.90	-26.0	-27.3	16.0	0.00e+00	0	43	102	1048576	12	4194
2026-01-04 04:04:24.89	0.80	14.98	-26.1	-27.5	15.9	0.00e+00	0	43	102	1048576	12	4255
2026-01-04 04:04:25.89	0.66	15.06	-25.9	-27.1	16.2	0.00e+00	0	43	102	1048576	12	4145
2026-01-04 04:04:26.90	0.52	15.15	-25.8	-26.9	16.3	0.00e+00	0	43	102	1048576	12	4086
2026-01-04 04:04:27.90	0.38	15.23	-25.8	-26.9	16.3	0.00e+00	0	42	102	1048576	12	4100
2026-01-04 04:04:28.91	0.24	15.31	-25.7	-26.8	16.4	0.00e+00	0	42	102	1048576	12	4058
2026-01-04 04:04:29.92	0.10	15.39	-25.7	-26.7	16.4	0.00e+00	0	42	102	1048576	12	4035
2026-01-04 04:04:30.92	359.96	15.47	-25.8	-26.9	16.3	0.00e+00	0	42	102	1048576	12	4084
2026-01-04 04:04:31.93	359.82	15.56	-26.0	-27.2	16.1	0.00e+00	0	42	102	1048576	12	4175
2026-01-04 04:04:32.94	359.67	15.64	-25.8	-27.0	16.3	0.00e+00	0	43	102	1048576	12	4103
2026-01-04 04:04:33.95	359.53	15.72	-25.7	-26.7	16.4	0.00e+00	0	43	102	1048576	12	4026
2026-01-04 04:04:34.95	359.39	15.80	-25.8	-27.3	16.4	0.00e+00	0	43	102	1048576	11	4311
2026-01-04 04:04:35.96	359.24	15.89	-25.8	-27.4	16.4	0.00e+00	0	43	102	1048576	11	4317
2026-01-04 04:04:36.97	359.09	15.97	-25.8	-27.4	16.4	0.00e+00	0	43	102	1048576	11	4334
2026-01-04 04:04:37.98	358.95	16.05	-25.8	-27.3	16.5	0.00e+00	0	43	102	1048576	11	4299
2026-01-04 04:04:38.99	358.80	16.14	-25.9	-27.7	16.2	0.00e+00	0	43	102	1048576	11	4414
2026-01-04 04:04:39.99	358.65	16.22	-25.7	-27.2	16.5	0.00e+00	0	43	102	1048576	11	4279
2026-01-04 04:04:41.00	358.50	16.30	-25.6	-26.9	16.6	0.00e+00	0	43	102	1048576	11	4199
2026-01-04 04:04:42.01	358.35	16.39	-25.5	-26.8	16.7	0.00e+00	0	43	102	1048576	11	4167
2026-01-04 04:04:43.01	358.20	16.47	-25.6	-27.0	16.6	0.00e+00	0	43	102	1048576	11	4210
2026-01-04 04:04:44.02	358.04	16.55	-25.5	-26.8	16.7	0.00e+00	0	43	102	1048576	11	4165
2026-01-04 04:04:45.03	357.89	16.64	-25.5	-26.7	16.8	0.00e+00	0	43	102	1048576	11	4150
2026-01-04 04:04:46.03	357.74	16.72	-25.5	-26.6	16.8	0.00e+00	0	42	102	1048576	11	4129
2026-01-04 04:04:47.03	357.58	16.80	-25.5	-26.8	16.7	0.00e+00	0	43	102	1048576	11	4166
2026-01-04 04:04:48.04	357.43	16.89	-25.5	-26.7	16.8	0.00e+00	0	43	102	1048576	11	4148
2026-01-04 04:04:49.05	357.27	16.97	-25.5	-26.8	16.7	0.00e+00	0	43	102	1048576	11	4168
2026-01-04 04:04:50.05	357.11	17.05	-25.7	-27.2	16.6	0.00e+00	0	43	102	1048576	11	4262
2026-01-04 04:04:51.06	356.95	17.14	-25.8	-27.3	16.5	0.00e+00	0	43	102	1048576	11	4299
2026-01-04 04:04:52.07	356.79	17.22	-25.7	-27.1	16.6	0.00e+00	0	43	102	1048576	11	4237
2026-01-04 04:04:53.08	356.63	17.31	-25.6	-27.0	16.6	0.00e+00	0	43	102	1048576	11	4229
2026-01-04 04:04:54.08	356.47	17.39	-25.7	-27.2	16.5	0.00e+00	0	43	102	1048576	11	4281
2026-01-04 04:04:55.09	356.31	17.48	-25.6	-26.9	16.7	0.00e+00	0	43	102	1048576	11	4185
2026-01-04 04:04:56.09	356.15	17.56	-25.5	-26.7	16.8	0.00e+00	0	43	102	1048576	11	4147
2026-01-04 04:04:57.10	355.98	17.64	-25.6	-26.9	16.7	0.00e+00	0	43	102	1048576	11	4197
2026-01-04 04:04:58.11	355.82	17.73	-25.5	-26.7	16.2	0.00e+00	0	43	102	1048576	11	4141
2026-01-04 04:04:59.11	355.65	17.81	-25.7	-27.1	16.5	0.00e+00	0	43	102	1048576	11	4257
2026-01-04 04:05:00.12	355.48	17.90	-25.4	-26.6	16.9	0.00e+00	0	43	102	1048576	11	4104
2026-01-04 04:05:01.13	355.32	17.98	-25.3	-26.8	17.0	0.00e+00	0	43	102	1048576	10	4277
2026-01-04 04:05:02.14	355.15	18.07	-25.2	-26.6	17.2	0.00e+00	0	43	102	1048576	10	4224
2026-01-04 04:05:03.14	354.98	18.15	-25.2	-26.6	17.2	0.00e+00	0	43	102	1048576	10	4234
2026-01-04 04:05:04.14	354.81	18.23	-25.1	-26.4	17.3	0.00e+00	0	43	102	1048576	10	4184
2026-01-04 04:05:05.15	354.64	18.32	-25.1	-26.4	17.3	4.43e-04	0	43	102	1048576	10	4160
2026-01-04 04:05:06.16	354.46	18.40	-25.2	-26.6	17.2	0.00e+00	0	43	102	1048576	10	4225
2026-01-04 04:05:07.16	354.29	18.49	-25.1	-26.3	17.3	5.06e-04	0	43	102	1048576	10	4158
2026-01-04 04:05:08.17	354.12	18.57	-25.1	-26.4	17.3	0.00e+00	0	43	102	1048576	10	4175
2026-01-04 04:05:09.18	353.94	18.66	-25.1	-26.4	17.3	0.00e+00	0	43	102	1048576	10	4183
2026-01-04 04:05:10.18	353.76	18.74	-25.2	-26.7	17.1	4.51e-04	0	43	102	1048576	10	4250
2026-01-04 04:05:11.19	353.59	18.83	-25.2	-26.7	17.1	0.00e+00	0	43	102	1048576	10	4250
2026-01-04 04:05:12.20	353.41	18.91	-25.1	-26.5	17.3	0.00e+00	0	43	102	1048576	10	4188
2026-01-04 04:05:13.21	353.23	19.00	-25.1	-26.5	17.3	0.00e+00	0	43	102	1048576	10	4186
2026-01-04 04:05:14.21	353.05	19.08	-25.2	-26.6	17.2	4.46e-04	0	43	102	1048576	10	4229
2026-01-04 04:05:15.22	352.86	19.17	-25.1	-26.3	17.4	0.00e+00	0	43	102	1048576	10	4143
2026-01-04 04:05:16.23	352.68	19.25	-24.9	-26.5	17.5	4.02e-04	0	43	102	1048576	9	4306
2026-01-04 04:05:17.23	352.50	19.33	-24.9	-26.4	17.5	3.99e-04	0	43	102	1048576	9	4294
2026-01-04 04:05:18.23	352.31	19.42	-24.9	-26.4	17.6	0.00e+00	0	43	102	1048576	9	4280
2026-01-04 04:05:19.24	352.13	19.50	-25.2	-26.5	17.3	3.65e-04	0	43	102	1048576	10	4194
2026-01-04 04:05:20.25	351.94	19.59	-25.4	-27.1	17.0	3.32e-04	0	43	102	1048576	10	4350
2026-01-04 04:05:21.26	351.75	19.67	-25.2	-26.5	17.2	0.00e+00	0	43	102	1048576	10	4203
2026-01-04 04:05:22.27	351.56	19.76	-25.0	-26.2	17.4	3.02e-04	0	43	102	1048576	10	4130
2026-01-04 04:05:23.27	351.37	19.84	-25.0	-26.1	17.5	2.47e-04	0	43	102	1048576	10	4093
2026-01-04 04:05:24.28	351.18	19.93	-25.0	-26.2	17.5	0.00e+00	0	43	102	1048576	10	4115
2026-01-04 04:05:25.28	350.99	20.01	-25.0	-26.1	17.5	2.31e-04	0	43	102	1048576	10	4105
2026-01-04 04:05:26.29	350.80	20.09	-25.0	-26.1	17.5	2.49e-04	0	43	102	1048576	10	4093
2026-01-04 04:05:27.29	350.60	20.18	-24.9	-26.0	17.5	0.00e+00	0	43	102	1048576	10	4082
2026-01-04 04:05:28.30	350.41	20.26	-24.9	-25.9	17.6	2.55e-04	0	43	102	1048576	10	4051
2026-01-04 04:05:29.30	350.21	20.35	-24.9	-25.9	17.6	0.00e+00	0	43	102	1048576	10	4041
2026-01-04 04:05:30.31	350.01	20.43	-24.9	-25.9	17.6	0.00e+00	0	43	102	1048576	10	4040
2026-01-04 04:05:31.32	349.81	20.51	-24.9	-25.9	17.6	2.76e-04	0	43	102	1048576	10	4054
2026-01-04 04:05:32.32	349.62	20.60	-24.9	-26.0	17.6	2.25e-04	0	43	102	1048576	10	4077
2026-01-04 04:05:33.33	349.41	20.68	-24.9	-25.8	17.6	0.00e+00	0	43	102	1048576	10	4033
2026-01-04 04:05:34.33	349.21	20.76	-24.9	-25.8	17.7	0.00e+00	0	43	102	1048576	10	4029
2026-01-04 04:05:35.34	349.01	20.85	-24.9	-25.9	17.6	1.58e-04	0	43	102	1048576	10	4038
2026-01-04 04:05:36.34	348.81	20.93	-24.7	-25.6	17.8	0.00e+00	0	43	102	1048576	10	3961
2026-01-04 04:05:37.35	348.60	21.01	-24.7	-25.6	17.8	1.83e-05	0	43	102	1048576	10	3975
2026-01-04 04:05:38.36	348.39	21.10	-24.8	-25.8	17.7	0.00e+00	0	43	102	1048576	10	4013
2026-01-04 04:05:39.37	348.18	21.18	-24.8	-25.7	17.7	0.00e+00	0	43	102	1048576	10	3998
2026-01-04 04:05:40.38	347.97	21.26	-24.8	-25.8	17.7	0.00e+00	0	43	102	1048576	10	4015
2026-01-04 04:05:41.38	347.77	21.35	-24.9	-25.9	17.6	0.00e+00	0	43	102	1048576	10	4041
2026-01-04 04:05:42.39	347.55	21.43	-24.9	-25.9	17.7	0.00e+00	0	43	102	1048576	10	4041
2026-01-04 04:05:43.39	347.34	21.51	-24.6	-25.3	18.0	0.00e+00	0	43	102	1048576	10	3896
2026-01-04 04:05:44.40	347.13	21.59	-24.4	-24.8	18.2	9.10e-06	0	43	102	1048576	10	3785
2026-01-04 04:05:45.40	346.92	21.68	-24.4	-24.9	18.2	0.00e+00	0	43	102	1048576	10	3797
2026-01-04 04:05:46.41	346.70	21.76	-24.4	-24.8	18.2	0.00e+00	0	43	102	1048576	10	3787
2026-01-04 04:05:47.42	346.48	21.84	-24.3	-24.7	18.3	0.00e+00	0	43	102	1048576	10	3769
2026-01-04 04:05:48.42	346.26	21.92	-24.3	-24.6	18.3	0.00e+00	0	43	102	1048576	10	3745
2026-01-04 04:05:49.43	346.04	22.00	-24.2	-24.9	18.4	0.00e+00	0	43	102	1048576	9	3918
2026-01-04 04:05:50.43	345.83	22.08	-24.2	-24.9	18.4	0.00e+00	0	43	102	1048576	9	3906
2026-01-04 04:05:51.43	345.61	22.16	-24.1	-24.8	18.4	0.00e+00	0	43	102	1048576	9	3889
2026-01-04 04:05:52.44	345.38	22.24	-24.1	-24.8	18.5	0.00e+00	0	43	102	1048576	9	3890
2026-01-04 04:05:53.45	345.16	22.33	-24.1	-24.8	18.5	0.00e+00	0	43	102	1048576	9	3890
2026-01-04 04:05:54.45	344.93	22.41	-24.2	-24.8	18.4	0.00e+00	0	43	102	1048576	9	3897
2026-01-04 04:05:55.45	344.71	22.48	-24.2	-25.0	18.4	0.00e+00	0	43	102	1048576	9	3926
2026-01-04 04:05:56.46	344.48	22.57	-24.2	-25.0	18.4	0.00e+00	0	43	102	1048576	9	3928
2026-01-04 04:05:57.46	344.25	22.64	-24.3	-25.1	18.3	0.00e+00	0	43	102	1048576	9	3966
2026-01-04 04:05:58.47	344.02	22.72	-24.4	-25.3	18.2	0.00e+00	0	43	102	1048576	9	4012
2026-01-04 04:05:59.48	343.79	22.80	-24.4	-25.4	18.2	0.00e+00	0	43	102	1048576	9	4039
2026-01-04 04:06:00.49	343.56	22.88	-24.5	-25.6	18.1	0.00e+00	0	43	102	1048576	9	4085
2026-01-04 04:06:01.49	343.33	22.96	-24.6	-25.7	18.0	0.00e+00	0	43	102	1048576	9	4108
2026-01-04 04:06:02.50	343.09	23.04	-24.5	-25.6	18.1	0.00e+00	0	43	102	1048576	9	4067
2026-01-04 04:06:03.51	342.85	23.12	-24.4	-25.3	18.2	0.00e+00	0	43	102	1048576	9	4010
2026-01-04 04:06:04.51	342.62	23.20	-24.4	-25.3	18.2	0.00e+00	0	43	102	1048576	9	4005
2026-01-04 04:06:05.51	342.38	23.27	-24.3	-25.1	18.3	0.00e+00	0	43	102	1048576	9	3965
2026-01-04 04:06:06.52	342.14	23.35	-24.2	-24.8	18.5	0.00e+00	0	43	102	1048576	9	3898
2026-01-04 04:06:07.53	341.90	23.43	-24.2	-24.9	18.5	0.00e+00	0	43	102	1048576	9	3900
2026-01-04 04:06:08.54	341.66	23.50	-24.1	-24.8	18.5	0.00e+00	0	43	102	1048576	9	3888
2026-01-04 04:06:09.55	341.41	23.58	-24.2	-24.9	18.4	0.00e+00	0	43	102	1048576	9	3914
2026-01-04 04:06:10.55	341.17	23.66	-24.3	-25.1	18.4	0.00e+00	0	43	102	1048576	9	3950
2026-01-04 04:06:11.55	340.93	23.73	-24.3	-25.2	18.3	0.00e+00	0	43	102	1048576	9	3984
2026-01-04 04:06:12.55	340.68	23.81	-24.3	-25.1	18.3	0.00e+00	0	43	102	1048576	9	3968
2026-01-04 04:06:13.56	340.43	23.88	-24.2	-24.9	18.4	0.00e+00	0	43	102	1048576	9	3917
2026-01-04 04:06:14.56	340.19	23.95	-24.2	-25.0	18.4	0.00e+00	0	43	102	1048576	9	3927
2026-01-04 04:06:15.56	339.94	24.03	-24.2	-24.9	18.4	0.00e+00	0	43	102	1048576	9	3916
2026-01-04 04:06:16.57	339.69	24.10	-24.2	-24.9	18.5	0.00e+00	0	43	102	1048576	9	3906
2026-01-04 04:06:17.57	339.43	24.18	-24.2	-25.0	18.4	0.00e+00	0	43	102	1048576	9	3925
2026-01-04 04:06:18.58	339.18	24.25	-24.2	-24.9	18.4	0.00e+00	0	43	102	1048576	9	3917
2026-01-04 04:06:19.59	338.92	24.32	-24.3	-25.1	18.3	0.00e+00	0	43	102	1048576	9	3959
2026-01-04 04:06:20.59	338.67	24.39	-24.2	-24.9	18.4	0.00e+00	0	43	102	1048576	9	3921
2026-01-04 04:06:21.60	338.41	24.46	-24.0	-24.5	18.6	0.00e+00	0	43	102	1048576	9	3825
2026-01-04 04:06:22.61	338.15	24.54	-24.0	-25.0	18.6	0.00e+00	0	43	102	1048576	8	4051
2026-01-04 04:06:23.61	337.89	24.61	-24.1	-25.3	18.5	0.00e+00	0	43	102	1048576	8	4113
2026-01-04 04:06:24.62	337.63	24.68	-24.2	-25.4	18.5	0.00e+00	0	43	102	1048576	8	4130
2026-01-04 04:06:25.63	337.37	24.75	-24.0	-25.1	18.6	0.00e+00	0	43	102	1048576	8	4062
2026-01-04 04:06:26.64	337.10	24.82	-24.0	-25.0	18.7	0.00e+00	0	43	102	1048576	8	4048
2026-01-04 04:06:27.65	336.84	24.89	-24.0	-25.0	18.7	0.00e+00	0	43	102	1048576	8	4036
2026-01-04 04:06:28.65	336.58	24.95	-24.0	-25.5	18.6	0.00e+00	0	43	102	1048576	7	4275
2026-01-04 04:06:29.66	336.31	25.02	-24.1	-25.2	18.6	0.00e+00	0	43	102	1048576	8	4092
2026-01-04 04:06:30.67	336.04	25.09	-24.2	-25.5	18.4	0.00e+00	0	43	102	1048576	8	4168
2026-01-04 04:06:31.67	335.77	25.16	-24.2	-25.4	18.5	8.20e-04	0	43	102	1048576	8	4130
2026-01-04 04:06:32.68	335.50	25.22	-24.0	-25.1	18.6	0.00e+00	0	43	102	1048576	8	4068
2026-01-04 04:06:33.68	335.23	25.29	-24.0	-25.0	18.7	8.42e-04	0	43	102	1048576	8	4030
2026-01-04 04:06:34.69	334.96	25.35	-24.0	-25.1	18.7	0.00e+00	0	43	102	1048576	8	4057
2026-01-04 04:06:35.70	334.68	25.42	-23.8	-24.7	18.9	0.00e+00	0	43	102	1048576	8	3955
2026-01-04 04:06:36.70	334.41	25.48	-23.7	-24.9	18.9	5.76e-04	0	43	102	1048576	7	4138
2026-01-04 04:06:37.71	334.13	25.55	-23.6	-24.8	19.0	0.00e+00	0	43	102	1048576	7	4099
2026-01-04 04:06:38.72	333.85	25.61	-23.6	-24.7	19.1	0.00e+00	0	43	102	1048576	7	4083
2026-01-04 04:06:39.72	333.58	25.67	-23.6	-24.7	19.1	0.00e+00	0	43	102	1048576	7	4083
2026-01-04 04:06:40.73	333.30	25.73	-23.7	-25.0	18.9	8.17e-04	0	43	102	1048576	7	4144
2026-01-04 04:06:41.74	333.02	25.80	-23.8	-25.1	18.9	0.00e+00	0	43	102	1048576	7	4178
2026-01-04 04:06:42.74	332.74	25.86	-24.0	-25.5	18.7	8.01e-04	0	43	102	1048576	7	4282
2026-01-04 04:06:43.75	332.45	25.92	-24.0	-25.0	18.7	6.88e-04	0	43	102	1048576	8	4050
2026-01-04 04:06:44.76	332.17	25.98	-24.0	-25.0	18.7	0.00e+00	0	43	102	1048576	8	4032
2026-01-04 04:06:45.77	331.88	26.03	-23.9	-24.9	18.7	7.01e-04	0	43	102	1048576	8	4013
2026-01-04 04:06:46.77	331.60	26.09	-24.0	-25.1	18.6	0.00e+00	0	43	102	1048576	8	4062
2026-01-04 04:06:47.78	331.31	26.15	-23.9	-24.8	18.8	0.00e+00	0	43	102	1048576	8	3990
2026-01-04 04:06:48.79	331.02	26.21	-23.8	-25.0	18.9	6.66e-04	0	43	102	1048576	7	4162
2026-01-04 04:06:49.79	330.73	26.26	-23.8	-25.1	18.9	3.87e-04	0	43	102	1048576	7	4174
2026-01-04 04:06:50.80	330.44	26.32	-23.9	-25.2	18.8	0.00e+00	0	43	102	1048576	7	4213
2026-01-04 04:06:51.81	330.15	26.37	-23.8	-25.0	18.9	8.81e-05	0	43	102	1048576	7	4154
2026-01-04 04:06:52.82	329.86	26.43	-23.7	-25.0	18.9	8.81e-05	0	43	102	1048576	7	4148
2026-01-04 04:06:53.82	329.57	26.48	-23.8	-25.0	18.9	0.00e+00	0	43	102	1048576	7	4152
2026-01-04 04:06:54.83	329.27	26.53	-23.9	-25.3	18.7	1.70e-04	0	43	102	1048576	7	4234
2026-01-04 04:06:55.83	328.98	26.58	-23.7	-25.0	18.9	0.00e+00	0	43	102	1048576	7	4150
2026-01-04 04:06:56.83	328.69	26.63	-23.7	-24.9	19.0	0.00e+00	0	43	102	1048576	7	4126
2026-01-04 04:06:57.84	328.39	26.68	-23.8	-25.1	18.9	0.00e+00	0	43	102	1048576	7	4179
2026-01-04 04:06:58.85	328.09	26.73	-23.7	-24.8	19.0	0.00e+00	0	43	102	1048576	7	4106
2026-01-04 04:06:59.85	327.79	26.78	-23.6	-24.6	19.1	0.00e+00	0	43	102	1048576	7	4052
2026-01-04 04:07:00.86	327.49	26.83	-23.6	-24.6	19.1	0.00e+00	0	43	102	1048576	7	4058
2026-01-04 04:07:01.87	327.19	26.88	-23.7	-24.8	19.0	1.04e-04	0	43	102	1048576	7	4096
2026-01-04 04:07:02.87	326.89	26.92	-23.8	-25.1	18.8	0.00e+00	0	43	102	1048576	7	4187
2026-01-04 04:07:03.88	326.59	26.97	-23.8	-25.0	18.9	5.72e-05	0	43	102	1048576	7	4154
2026-01-04 04:07:04.89	326.28	27.02	-23.7	-24.8	19.0	0.00e+00	0	43	102	1048576	7	4109
2026-01-04 04:07:05.90	325.98	27.06	-23.7	-24.8	19.0	0.00e+00	0	43	102	1048576	7	4099
2026-01-04 04:07:06.90	325.67	27.10	-23.6	-24.7	19.1	0.00e+00	0	43	102	1048576	7	4087
2026-01-04 04:07:07.91	325.37	27.14	-23.7	-24.8	19.0	0.00e+00	0	43	102	1048576	7	4110
2026-01-04 04:07:08.92	325.06	27.19	-23.8	-25.2	18.8	0.00e+00	0	43	102	1048576	7	4194
2026-01-04 04:07:09.92	324.75	27.23	-23.7	-24.9	18.9	0.00e+00	0	43	102	1048576	7	4140
2026-01-04 04:07:10.93	324.44	27.27	-23.6	-24.6	19.1	6.42e-04	0	43	102	1048576	7	4067
2026-01-04 04:07:11.94	324.13	27.31	-23.6	-24.7	19.1	0.00e+00	0	43	102	1048576	7	4068
2026-01-04 04:07:12.94	323.83	27.34	-23.5	-24.5	19.2	4.82e-04	0	43	102	1048576	7	4018
2026-01-04 04:07:13.95	323.52	27.38	-23.5	-24.3	19.3	0.00e+00	0	43	102	1048576	7	3988
2026-01-04 04:07:14.96	323.20	27.42	-23.5	-24.5	19.1	0.00e+00	0	43	102	1048576	7	4032
2026-01-04 04:07:15.97	322.89	27.45	-23.4	-24.8	19.3	0.00e+00	0	43	102	1048576	6	4206
2026-01-04 04:07:16.97	322.58	27.49	-23.4	-24.8	19.3	0.00e+00	0	43	102	1048576	6	4216
2026-01-04 04:07:17.97	322.27	27.52	-23.5	-24.9	19.2	0.00e+00	0	43	102	1048576	6	4243
2026-01-04 04:07:18.98	321.95	27.55	-23.6	-24.8	19.0	0.00e+00	0	43	102	1048576	7	4095
2026-01-04 04:07:19.98	321.64	27.58	-23.9	-25.3	18.8	0.00e+00	0	43	102	1048576	7	4221
2026-01-04 04:07:20.99	321.32	27.62	-23.6	-24.7	19.1	0.00e+00	0	43	102	1048576	7	4075
2026-01-04 04:07:21.99	321.01	27.65	-23.4	-24.2	19.3	0.00e+00	0	43	102	1048576	7	3965
2026-01-04 04:07:23.00	320.69	27.67	-23.3	-24.1	19.4	0.00e+00	0	43	102	1048576	7	3932
2026-01-04 04:07:24.01	320.38	27.70	-23.4	-24.2	19.3	0.00e+00	0	43	102	1048576	7	3971
2026-01-04 04:07:25.02	320.06	27.73	-23.4	-24.2	19.3	0.00e+00	0	43	102	1048576	7	3956
2026-01-04 04:07:26.03	319.74	27.76	-23.5	-24.5	19.2	0.00e+00	0	43	102	1048576	7	4022
2026-01-04 04:07:27.03	319.42	27.78	-23.3	-24.1	19.4	0.00e+00	0	43	102	1048576	7	3935
2026-01-04 04:07:28.04	319.10	27.80	-23.3	-24.0	19.4	0.00e+00	0	43	102	1048576	7	3914
2026-01-04 04:07:29.05	318.78	27.83	-23.4	-24.8	19.3	0.00e+00	0	43	102	1048576	6	4206
2026-01-04 04:07:30.05	318.46	27.85	-23.3	-24.6	19.4	0.00e+00	0	43	102	1048576	6	4162
2026-01-04 04:07:31.06	318.14	27.87	-23.3	-24.6	19.4	0.00e+00	0	43	102	1048576	6	4156
2026-01-04 04:07:32.07	317.82	27.89	-23.5	-24.5	19.2	0.00e+00	0	43	102	1048576	7	4029
2026-01-04 04:07:33.08	317.50	27.91	-23.3	-24.1	19.4	0.00e+00	0	43	102	1048576	7	3933
2026-01-04 04:07:34.08	317.18	27.93	-23.3	-23.9	19.5	0.00e+00	0	43	102	1048576	7	3895
2026-01-04 04:07:35.09	316.85	27.95	-23.3	-24.5	19.4	0.00e+00	0	43	102	1048576	6	4143
2026-01-04 04:07:36.10	316.53	27.96	-23.1	-24.0	19.7	0.00e+00	0	43	102	1048576	6	4027
2026-01-04 04:07:37.10	316.21	27.98	-23.0	-24.0	19.7	0.00e+00	0	43	102	1048576	6	4017
2026-01-04 04:07:38.11	315.88	27.99	-23.1	-24.1	19.6	0.00e+00	0	43	102	1048576	6	4038
2026-01-04 04:07:39.12	315.56	28.01	-23.0	-24.0	19.7	0.00e+00	0	43	102	1048576	6	4020
2026-01-04 04:07:40.13	315.23	28.02	-23.0	-23.9	19.7	0.00e+00	0	43	102	1048576	6	4005
2026-01-04 04:07:41.13	314.91	28.03	-23.0	-23.9	19.7	0.00e+00	0	43	102	1048576	6	4003
2026-01-04 04:07:42.14	314.59	28.04	-22.9	-23.7	19.8	0.00e+00	0	43	102	1048576	6	3941
2026-01-04 04:07:43.14	314.27	28.05	-23.0	-23.8	19.8	0.00e+00	0	43	102	1048576	6	3983
2026-01-04 04:07:44.16	313.94	28.06	-23.2	-24.3	19.5	0.00e+00	0	43	102	1048576	6	4097
2026-01-04 04:07:45.17	313.61	28.07	-23.2	-24.3	19.5	0.00e+00	0	43	102	1048576	6	4093
2026-01-04 04:07:46.17	313.29	28.07	-23.3	-24.5	19.4	0.00e+00	0	43	102	1048576	6	4154
2026-01-04 04:07:47.18	312.96	28.08	-23.3	-24.4	19.4	0.00e+00	0	43	102	1048576	6	4131
2026-01-04 04:07:48.19	312.64	28.08	-23.3	-24.5	19.4	0.00e+00	0	43	102	1048576	6	4130
2026-01-04 04:07:49.19	312.31	28.08	-23.3	-24.6	19.4	0.00e+00	0	43	102	1048576	6	4160
2026-01-04 04:07:50.20	311.99	28.09	-23.2	-24.4	19.4	0.00e+00	0	43	102	1048576	6	4126
2026-01-04 04:07:51.21	311.66	28.09	-23.3	-24.6	19.4	0.00e+00	0	43	102	1048576	6	4160
2026-01-04 04:07:52.22	311.33	28.09	-23.5	-24.9	19.2	0.00e+00	0	43	102	1048576	6	4246
2026-01-04 04:07:53.23	311.01	28.09	-23.4	-24.8	19.3	0.00e+00	0	43	102	1048576	6	4211
2026-01-04 04:07:54.23	310.68	28.08	-23.6	-24.8	18.9	0.00e+00	0	43	102	1048576	7	4092
2026-01-04 04:07:55.24	310.36	28.08	-23.9	-25.3	18.5	0.00e+00	0	43	102	1048576	7	4235
2026-01-04 04:07:56.25	310.03	28.08	-23.7	-24.8	19.0	0.00e+00	0	43	102	1048576	7	4113
2026-01-04 04:07:57.25	309.71	28.07	-23.6	-24.6	19.1	1.92e-04	0	43	102	1048576	7	4052
2026-01-04 04:07:58.26	309.38	28.07	-23.6	-24.6	19.1	0.00e+00	0	43	102	1048576	7	4060
2026-01-04 04:07:59.27	309.06	28.06	-23.6	-24.7	19.0	0.00e+00	0	43	102	1048576	7	4086
2026-01-04 04:08:00.27	308.73	28.05	-23.6	-24.7	19.1	0.00e+00	0	43	102	1048576	7	4067
2026-01-04 04:08:01.27	308.41	28.04	-23.7	-25.0	18.9	0.00e+00	0	43	102	1048576	7	4147
2026-01-04 04:08:02.27	308.09	28.03	-23.4	-24.3	19.3	0.00e+00	0	43	102	1048576	7	3973
2026-01-04 04:08:03.28	307.76	28.02	-23.2	-24.2	19.5	0.00e+00	0	43	102	1048576	6	4082
2026-01-04 04:08:04.29	307.44	28.01	-23.1	-24.1	19.6	6.77e-04	0	43	102	1048576	6	4037
2026-01-04 04:08:05.29	307.12	27.99	-23.2	-24.2	19.5	0.00e+00	0	43	102	1048576	6	4075
2026-01-04 04:08:06.30	306.79	27.98	-23.1	-24.1	19.6	5.17e-04	0	43	102	1048576	6	4034
2026-01-04 04:08:07.31	306.47	27.97	-23.0	-24.0	19.6	3.19e-04	0	43	102	1048576	6	4024
2026-01-04 04:08:08.31	306.15	27.95	-23.1	-24.0	19.6	0.00e+00	0	43	102	1048576	6	4028
2026-01-04 04:08:09.32	305.83	27.93	-23.0	-23.9	19.7	0.00e+00	0	43	102	1048576	6	3999
2026-01-04 04:08:10.32	305.51	27.91	-23.1	-24.1	19.6	0.00e+00	0	43	102	1048576	6	4042
2026-01-04 04:08:11.33	305.18	27.89	-23.1	-24.2	19.5	0.00e+00	0	43	102	1048576	6	4075
2026-01-04 04:08:12.34	304.86	27.87	-23.2	-24.3	19.4	0.00e+00	0	43	102	1048576	6	4095
2026-01-04 04:08:13.35	304.54	27.85	-23.2	-24.3	19.4	2.73e-04	0	43	102	1048576	6	4096
2026-01-04 04:08:14.35	304.22	27.83	-23.2	-24.3	19.5	0.00e+00	0	43	102	1048576	6	4101
2026-01-04 04:08:15.36	303.90	27.81	-23.1	-24.2	19.5	3.35e-04	0	43	102	1048576	6	4066
2026-01-04 04:08:16.37	303.58	27.78	-23.2	-24.3	19.5	3.64e-04	0	43	102	1048576	6	4087
2026-01-04 04:08:17.37	303.26	27.76	-23.3	-24.5	19.3	0.00e+00	0	43	102	1048576	6	4152
2026-01-04 04:08:18.38	302.94	27.73	-23.4	-24.8	19.2	3.22e-04	0	43	102	1048576	6	4211
2026-01-04 04:08:19.39	302.62	27.71	-23.3	-24.6	19.3	3.04e-04	0	43	102	1048576	6	4182
2026-01-04 04:08:20.40	302.30	27.68	-23.4	-24.8	19.2	0.00e+00	0	43	102	1048576	6	4228
2026-01-04 04:08:21.41	301.99	27.65	-23.7	-24.9	18.9	2.73e-04	0	43	102	1048576	7	4125
2026-01-04 04:08:22.41	301.67	27.62	-23.7	-24.9	18.9	3.16e-04	0	43	102	1048576	7	4139
2026-01-04 04:08:23.42	301.35	27.59	-23.3	-24.1	19.3	0.00e+00	0	43	102	1048576	7	3944
2026-01-04 04:08:24.42	301.04	27.56	-23.2	-24.2	19.5	2.95e-04	0	43	102	1048576	6	4076
2026-01-04 04:08:25.42	300.73	27.52	-23.2	-24.2	19.5	2.09e-04	0	43	102	1048576	6	4083
2026-01-04 04:08:26.43	300.41	27.49	-23.3	-24.5	19.4	0.00e+00	0	43	102	1048576	6	4137
2026-01-04 04:08:27.44	300.10	27.46	-23.3	-24.5	19.4	7.89e-05	0	43	102	1048576	6	4141
2026-01-04 04:08:28.44	299.79	27.42	-23.2	-24.4	19.4	0.00e+00	0	43	102	1048576	6	4115
2026-01-04 04:08:29.45	299.48	27.38	-23.2	-24.4	19.4	0.00e+00	0	43	102	1048576	6	4111
2026-01-04 04:08:30.45	299.17	27.35	-23.2	-24.3	19.5	0.00e+00	0	43	102	1048576	6	4090
2026-01-04 04:08:31.46	298.86	27.31	-23.3	-24.5	19.3	0.00e+00	0	43	102	1048576	6	4149
2026-01-04 04:08:32.46	298.55	27.27	-23.4	-24.7	19.3	0.00e+00	0	43	102	1048576	6	4182
2026-01-04 04:08:33.47	298.24	27.23	-23.4	-24.7	19.3	0.00e+00	0	43	102	1048576	6	4196
2026-01-04 04:08:34.47	297.93	27.19	-23.5	-24.4	19.2	0.00e+00	0	43	102	1048576	7	4001
2026-01-04 04:08:35.48	297.62	27.15	-23.3	-24.0	19.3	0.00e+00	0	43	102	1048576	7	3919
2026-01-04 04:08:36.49	297.32	27.11	-23.2	-23.9	19.4	0.00e+00	0	43	102	1048576	7	3880
2026-01-04 04:08:37.49	297.01	27.06	-23.2	-23.9	19.4	0.00e+00	0	43	102	1048576	7	3882
2026-01-04 04:08:38.49	296.71	27.02	-23.3	-24.1	19.3	0.00e+00	0	43	102	1048576	7	3934
2026-01-04 04:08:39.50	296.40	26.98	-23.3	-24.1	19.3	0.00e+00	0	43	102	1048576	7	3943
2026-01-04 04:08:40.50	296.10	26.93	-23.1	-23.7	19.5	0.00e+00	0	43	102	1048576	7	3839
2026-01-04 04:08:41.51	295.80	26.88	-22.9	-23.3	19.7	0.00e+00	0	43	102	1048576	7	3740
2026-01-04 04:08:42.52	295.50	26.84	-22.9	-23.8	19.7	0.00e+00	0	43	102	1048576	6	3963
2026-01-04 04:08:43.52	295.20	26.79	-23.0	-23.9	19.6	0.00e+00	0	43	102	1048576	6	3991
2026-01-04 04:08:44.53	294.90	26.74	-23.0	-23.9	19.7	0.00e+00	0	43	102	1048576	6	3991
2026-01-04 04:08:45.54	294.60	26.69	-22.9	-24.2	19.7	0.00e+00	0	43	102	1048576	5	4196
2026-01-04 04:08:46.55	294.30	26.64	-22.9	-24.2	19.7	0.00e+00	0	43	102	1048576	5	4198
2026-01-04 04:08:47.55	294.01	26.59	-23.1	-24.1	19.5	0.00e+00	0	43	102	1048576	6	4036
2026-01-04 04:08:48.56	293.71	26.54	-23.4	-24.7	19.2	0.00e+00	0	43	102	1048576	6	4186
2026-01-04 04:08:49.56	293.42	26.48	-23.4	-24.3	19.1	0.00e+00	0	43	102	1048576	7	3990
2026-01-04 04:08:50.57	293.12	26.43	-23.3	-24.0	19.3	0.00e+00	0	43	102	1048576	7	3918
2026-01-04 04:08:51.57	292.83	26.38	-23.3	-24.0	19.3	0.00e+00	0	43	102	1048576	7	3914
2026-01-04 04:08:52.58	292.54	26.32	-23.3	-24.6	19.2	0.00e+00	0	43	102	1048576	6	4180
2026-01-04 04:08:53.59	292.25	26.27	-23.4	-24.7	19.2	0.00e+00	0	43	102	1048576	6	4203
2026-01-04 04:08:54.59	291.96	26.21	-23.4	-24.7	19.2	0.00e+00	0	43	102	1048576	6	4201
2026-01-04 04:08:55.60	291.67	26.15	-23.3	-24.6	19.3	0.00e+00	0	43	102	1048576	6	4157
2026-01-04 04:08:56.61	291.38	26.10	-23.4	-24.7	19.2	0.00e+00	0	43	102	1048576	6	4202
2026-01-04 04:08:57.62	291.09	26.04	-23.4	-24.7	19.2	0.00e+00	0	43	102	1048576	6	4190
2026-01-04 04:08:58.62	290.81	25.98	-23.2	-24.4	19.3	0.00e+00	0	43	102	1048576	6	4128
2026-01-04 04:08:59.63	290.52	25.92	-23.2	-24.3	19.4	0.00e+00	0	43	102	1048576	6	4108
2026-01-04 04:09:00.64	290.24	25.86	-23.2	-24.3	19.4	0.00e+00	0	43	102	1048576	6	4102
2026-01-04 04:09:01.64	289.96	25.80	-23.1	-24.2	19.4	0.00e+00	0	43	102	1048576	6	4073
2026-01-04 04:09:02.64	289.68	25.74	-23.1	-24.2	19.4	0.00e+00	0	43	102	1048576	6	4066
2026-01-04 04:09:03.64	289.40	25.68	-23.1	-24.2	19.4	0.00e+00	0	43	102	1048576	6	4077
2026-01-04 04:09:04.65	289.12	25.61	-23.2	-24.3	19.4	0.00e+00	0	43	102	1048576	6	4103
2026-01-04 04:09:05.65	288.84	25.55	-23.2	-24.4	19.3	0.00e+00	0	43	102	1048576	6	4111
2026-01-04 04:09:06.66	288.56	25.49	-23.3	-24.7	19.2	0.00e+00	0	43	102	1048576	6	4184
2026-01-04 04:09:07.65	288.29	25.43	-23.3	-24.7	19.2	0.00e+00	0	43	102	1048576	6	4186
2026-01-04 04:09:08.66	288.02	25.36	-23.3	-24.6	19.2	0.00e+00	0	43	102	1048576	6	4184
2026-01-04 04:09:09.67	287.74	25.29	-23.4	-24.8	19.1	0.00e+00	0	43	102	1048576	6	4226
2026-01-04 04:09:10.68	287.47	25.23	-23.4	-24.3	19.1	0.00e+00	0	43	102	1048576	7	3982
2026-01-04 04:09:11.69	287.20	25.16	-23.3	-24.1	19.2	0.00e+00	0	43	102	1048576	7	3942
2026-01-04 04:09:12.69	286.93	25.09	-23.4	-24.3	19.1	0.00e+00	0	43	102	1048576	7	3974
2026-01-04 04:09:13.70	286.66	25.03	-23.6	-24.7	18.9	0.00e+00	0	43	102	1048576	7	4083
2026-01-04 04:09:14.71	286.39	24.96	-23.6	-24.8	18.9	0.00e+00	0	43	102	1048576	7	4103
2026-01-04 04:09:15.70	286.13	24.89	-23.8	-25.2	18.7	0.00e+00	0	43	102	1048576	7	4198
2026-01-04 04:09:16.71	285.86	24.82	-23.8	-25.0	18.7	0.00e+00	0	43	102	1048576	7	4161
2026-01-04 04:09:17.71	285.60	24.75	-23.5	-24.5	19.0	0.00e+00	0	43	102	1048576	7	4023
2026-01-04 04:09:18.72	285.33	24.68	-23.4	-24.3	19.1	0.00e+00	0	43	102	1048576	7	3985
2026-01-04 04:09:19.72	285.07	24.61	-23.5	-24.5	19.0	0.00e+00	0	43	102	1048576	7	4029
2026-01-04 04:09:20.73	284.81	24.54	-23.6	-24.6	18.9	0.00e+00	0	43	102	1048576	7	4058
2026-01-04 04:09:21.74	284.55	24.47	-23.8	-25.1	18.7	0.00e+00	0	43	102	1048576	7	4170
2026-01-04 04:09:22.74	284.30	24.40	-23.7	-24.9	18.8	0.00e+00	0	43	102	1048576	7	4119
2026-01-04 04:09:23.75	284.04	24.33	-23.5	-24.4	19.0	0.00e+00	0	43	102	1048576	7	4015
2026-01-04 04:09:24.76	283.78	24.25	-23.4	-24.2	19.1	0.00e+00	0	43	102	1048576	7	3956
2026-01-04 04:09:25.77	283.52	24.18	-23.4	-24.3	19.1	0.00e+00	0	43	102	1048576	7	3987
2026-01-04 04:09:26.77	283.27	24.11	-23.5	-24.4	19.0	0.00e+00	0	43	102	1048576	7	4003
2026-01-04 04:09:27.78	283.02	24.03	-23.5	-24.5	19.0	0.00e+00	0	43	102	1048576	7	4023
2026-01-04 04:09:28.79	282.77	23.96	-23.4	-24.4	19.0	0.00e+00	0	43	102	1048576	7	4002
2026-01-04 04:09:29.80	282.52	23.88	-23.4	-24.3	19.1	0.00e+00	0	43	102	1048576	7	3995
2026-01-04 04:09:30.80	282.27	23.81	-23.6	-24.7	18.9	0.00e+00	0	43	102	1048576	7	4075
2026-01-04 04:09:31.81	282.02	23.73	-23.5	-24.4	19.0	0.00e+00	0	43	102	1048576	7	4019
2026-01-04 04:09:32.81	281.78	23.66	-23.4	-24.2	19.2	0.00e+00	0	43	102	1048576	7	3950
2026-01-04 04:09:33.82	281.53	23.58	-23.3	-24.1	19.2	0.00e+00	0	43	102	1048576	7	3943
2026-01-04 04:09:34.82	281.29	23.50	-23.4	-24.2	19.1	0.00e+00	0	43	102	1048576	7	3973
2026-01-04 04:09:35.83	281.04	23.43	-23.4	-24.3	19.1	0.00e+00	0	43	102	1048576	7	3988
2026-01-04 04:09:36.84	280.80	23.35	-23.4	-24.2	19.1	0.00e+00	0	43	102	1048576	7	3970
2026-01-04 04:09:37.85	280.56	23.27	-23.4	-24.3	19.1	0.00e+00	0	43	102	1048576	7	3979
2026-01-04 04:09:38.85	280.32	23.20	-23.6	-24.7	18.8	0.00e+00	0	43	102	1048576	7	4084
2026-01-04 04:09:39.86	280.08	23.12	-23.6	-24.6	18.9	7.43e-04	0	43	102	1048576	7	4059
2026-01-04 04:09:40.87	279.84	23.04	-23.5	-24.4	19.0	0.00e+00	0	43	102	1048576	7	4013
2026-01-04 04:09:41.88	279.61	22.96	-23.5	-24.5	18.9	8.96e-04	0	43	102	1048576	7	4031
2026-01-04 04:09:42.88	279.37	22.88	-23.5	-24.5	18.9	1.04e-03	0	43	102	1048576	7	4033
2026-01-04 04:09:43.89	279.14	22.80	-23.8	-25.2	18.6	0.00e+00	0	43	102	1048576	7	4205
2026-01-04 04:09:44.90	278.91	22.72	-23.7	-24.9	18.7	9.70e-04	0	43	102	1048576	7	4146
2026-01-04 04:09:45.90	278.68	22.64	-23.6	-24.6	18.9	1.13e-03	0	43	102	1048576	7	4068
2026-01-04 04:09:46.91	278.45	22.56	-23.5	-24.5	18.9	0.00e+00	0	43	102	1048576	7	4029
2026-01-04 04:09:47.90	278.22	22.48	-23.6	-24.6	18.9	0.00e+00	0	43	102	1048576	7	4047
2026-01-04 04:09:48.91	277.99	22.40	-23.4	-24.3	19.0	8.41e-04	0	43	102	1048576	7	3982
2026-01-04 04:09:49.91	277.77	22.32	-23.5	-24.5	19.0	0.00e+00	0	43	102	1048576	7	4021
2026-01-04 04:09:50.92	277.54	22.24	-23.6	-24.7	18.8	7.38e-04	0	43	102	1048576	7	4073
2026-01-04 04:09:51.93	277.32	22.16	-23.7	-25.0	18.7	5.89e-04	0	43	102	1048576	7	4152
2026-01-04 04:09:52.93	277.10	22.08	-23.7	-25.0	18.7	0.00e+00	0	43	102	1048576	7	4148
2026-01-04 04:09:53.94	276.88	22.00	-23.7	-24.9	18.7	6.79e-04	0	43	102	1048576	7	4140
2026-01-04 04:09:54.95	276.65	21.92	-23.8	-25.2	18.5	0.00e+00	0	43	102	1048576	7	4209
2026-01-04 04:09:55.96	276.43	21.83	-23.8	-25.0	18.6	0.00e+00	0	43	102	1048576	7	4170
2026-01-04 04:09:56.96	276.22	21.75	-23.8	-25.2	18.6	1.94e-04	0	43	102	1048576	7	4200
2026-01-04 04:09:57.96	276.00	21.67	-23.9	-25.3	18.5	2.05e-04	0	43	102	1048576	7	4239
2026-01-04 04:09:58.97	275.79	21.59	-23.9	-25.3	18.5	0.00e+00	0	43	102	1048576	7	4244
2026-01-04 04:09:59.98	275.57	21.50	-23.9	-25.4	18.4	0.00e+00	0	43	102	1048576	7	4264
2026-01-04 04:10:00.99	275.36	21.42	-23.9	-25.2	18.5	0.00e+00	0	43	102	1048576	7	4220
2026-01-04 04:10:02.00	275.14	21.34	-24.0	-25.5	18.4	0.00e+00	0	43	102	1048576	7	4284
2026-01-04 04:10:03.00	274.93	21.26	-24.0	-25.1	18.3	5.70e-06	0	43	102	1048576	8	4080
2026-01-04 04:10:04.01	274.72	21.17	-24.3	-25.7	18.0	0.00e+00	0	43	102	1048576	8	4238
2026-01-04 04:10:05.02	274.51	21.09	-24.3	-25.6	18.1	0.00e+00	0	43	102	1048576	8	4213
2026-01-04 04:10:06.02	274.31	21.01	-24.4	-26.0	17.9	1.10e-06	0	43	102	1048576	8	4298
2026-01-04 04:10:07.03	274.10	20.92	-24.2	-25.5	18.1	0.00e+00	0	43	102	1048576	8	4174
2026-01-04 04:10:08.04	273.89	20.84	-24.1	-25.4	18.2	0.00e+00	0	43	102	1048576	8	4135
2026-01-04 04:10:09.04	273.69	20.75	-24.2	-25.5	18.1	3.40e-06	0	43	102	1048576	8	4167
2026-01-04 04:10:10.04	273.49	20.67	-24.2	-25.4	18.2	9.26e-05	0	43	102	1048576	8	4155
2026-01-04 04:10:11.05	273.29	20.59	-24.3	-25.7	18.0	0.00e+00	0	43	102	1048576	8	4215
2026-01-04 04:10:12.06	273.08	20.50	-24.3	-25.7	18.0	7.66e-05	0	43	102	1048576	8	4213
2026-01-04 04:10:13.06	272.89	20.42	-24.3	-25.7	18.0	0.00e+00	0	43	102	1048576	8	4223
2026-01-04 04:10:14.07	272.69	20.33	-24.2	-25.5	18.1	0.00e+00	0	43	102	1048576	8	4182
2026-01-04 04:10:15.07	272.49	20.25	-24.3	-25.7	18.0	0.00e+00	0	43	102	1048576	8	4220
2026-01-04 04:10:16.08	272.29	20.17	-24.2	-25.6	18.1	0.00e+00	0	43	102	1048576	8	4193
2026-01-04 04:10:17.09	272.10	20.08	-24.3	-25.8	18.0	0.00e+00	0	43	102	1048576	8	4249
2026-01-04 04:10:18.09	271.90	20.00	-24.3	-25.6	18.0	0.00e+00	0	43	102	1048576	8	4211
2026-01-04 04:10:19.10	271.71	19.91	-24.3	-25.7	18.0	0.00e+00	0	43	102	1048576	8	4217
2026-01-04 04:10:20.10	271.52	19.83	-24.4	-25.9	17.9	0.00e+00	0	43	102	1048576	8	4281
2026-01-04 04:10:21.10	271.33	19.74	-24.2	-25.5	18.1	1.10e-06	0	43	102	1048576	8	4167
2026-01-04 04:10:22.10	271.14	19.66	-24.1	-25.4	18.1	0.00e+00	0	43	102	1048576	8	4135
2026-01-04 04:10:23.11	270.95	19.57	-24.2	-25.5	18.1	0.00e+00	0	43	102	1048576	8	4169
2026-01-04 04:10:24.11	270.76	19.49	-24.3	-25.6	18.0	0.00e+00	0	43	102	1048576	8	4189
2026-01-04 04:10:25.12	270.58	19.41	-24.4	-25.8	17.9	0.00e+00	0	43	102	1048576	8	4259
2026-01-04 04:10:26.13	270.39	19.32	-24.4	-25.8	17.9	0.00e+00	0	43	102	1048576	8	4260
2026-01-04 04:10:27.14	270.20	19.24	-24.5	-26.1	17.8	0.00e+00	0	43	102	1048576	8	4321
2026-01-04 04:10:28.15	270.02	19.15	-24.5	-26.0	17.8	0.00e+00	0	43	102	1048576	8	4309
2026-01-04 04:10:29.16	269.84	19.06	-24.6	-25.7	17.7	0.00e+00	0	43	102	1048576	9	4122
2026-01-04 04:10:30.16	269.65	18.98	-24.7	-26.2	17.5	0.00e+00	0	43	102	1048576	9	4232
2026-01-04 04:10:31.17	269.47	18.89	-24.6	-25.8	17.6	0.00e+00	0	43	102	1048576	9	4151
2026-01-04 04:10:32.18	269.29	18.81	-24.6	-25.9	17.6	0.00e+00	0	43	102	1048576	9	4170
2026-01-04 04:10:33.18	269.12	18.73	-24.5	-25.6	17.7	0.00e+00	0	43	102	1048576	9	4100
2026-01-04 04:10:34.19	268.94	18.64	-24.4	-25.5	17.8	0.00e+00	0	43	102	1048576	9	4052
2026-01-04 04:10:35.19	268.76	18.56	-24.4	-25.5	17.8	0.00e+00	0	43	102	1048576	9	4049
2026-01-04 04:10:36.20	268.58	18.47	-24.3	-25.7	18.0	0.00e+00	0	43	102	1048576	8	4217
2026-01-04 04:10:37.21	268.41	18.39	-24.4	-25.9	17.8	0.00e+00	0	43	102	1048576	8	4279
2026-01-04 04:10:38.22	268.24	18.30	-24.6	-25.9	17.6	0.00e+00	0	43	102	1048576	9	4155
2026-01-04 04:10:39.22	268.06	18.22	-24.9	-26.4	17.3	0.00e+00	0	43	102	1048576	9	4294
2026-01-04 04:10:40.23	267.89	18.13	-24.8	-26.3	17.4	0.00e+00	0	43	102	1048576	9	4265
2026-01-04 04:10:41.24	267.72	18.05	-25.2	-26.6	16.9	0.00e+00	0	43	102	1048576	10	4235
2026-01-04 04:10:42.25	267.55	17.96	-25.5	-26.7	16.6	0.00e+00	0	43	102	1048576	11	4141
2026-01-04 04:10:43.25	267.38	17.88	-25.2	-26.2	16.9	0.00e+00	0	43	102	1048576	11	4012
2026-01-04 04:10:44.26	267.21	17.79	-25.4	-26.5	16.7	0.00e+00	0	43	102	1048576	11	4105
2026-01-04 04:10:45.27	267.05	17.71	-25.3	-26.8	16.8	0.00e+00	0	43	102	1048576	10	4296
2026-01-04 04:10:46.28	266.88	17.62	-25.4	-27.1	16.6	0.00e+00	0	43	102	1048576	10	4373
2026-01-04 04:10:47.28	266.71	17.54	-25.3	-26.8	16.8	0.00e+00	0	43	102	1048576	10	4295
2026-01-04 04:10:48.29	266.55	17.45	-25.3	-26.8	16.8	0.00e+00	0	43	102	1048576	10	4288
2026-01-04 04:10:49.29	266.39	17.37	-25.3	-26.9	16.8	0.00e+00	0	43	102	1048576	10	4308
2026-01-04 04:10:50.29	266.23	17.28	-25.2	-26.7	16.9	3.40e-06	0	43	102	1048576	10	4248
2026-01-04 04:10:51.30	266.06	17.20	-25.0	-26.2	17.1	0.00e+00	0	43	102	1048576	10	4137
2026-01-04 04:10:52.30	265.90	17.12	-25.0	-26.1	17.2	0.00e+00	0	43	102	1048576	10	4108
2026-01-04 04:10:53.31	265.74	17.03	-25.0	-26.2	17.1	8.00e-06	0	43	102	1048576	10	4131
2026-01-04 04:10:54.32	265.59	16.95	-25.0	-26.3	17.1	0.00e+00	0	43	102	1048576	10	4146
2026-01-04 04:10:55.32	265.43	16.86	-25.1	-26.4	17.0	0.00e+00	0	43	102	1048576	10	4189
2026-01-04 04:10:56.33	265.27	16.78	-25.2	-26.5	16.9	0.00e+00	0	43	102	1048576	10	4218
2026-01-04 04:10:57.34	265.11	16.69	-25.2	-26.6	16.9	0.00e+00	0	43	102	1048576	10	4226
2026-01-04 04:10:58.34	264.96	16.61	-25.2	-26.5	16.9	0.00e+00	0	43	102	1048576	10	4218
2026-01-04 04:10:59.36	264.80	16.53	-25.2	-26.5	16.8	2.20e-06	0	43	102	1048576	10	4216
2026-01-04 04:11:00.36	264.65	16.44	-25.2	-26.6	16.9	0.00e+00	0	43	102	1048576	10	4244
2026-01-04 04:11:01.37	264.50	16.36	-25.2	-26.6	16.9	0.00e+00	0	43	102	1048576	10	4238
2026-01-04 04:11:02.38	264.35	16.27	-25.1	-26.5	17.0	1.10e-06	0	43	102	1048576	10	4199
2026-01-04 04:11:03.38	264.20	16.19	-25.1	-26.5	16.9	0.00e+00	0	43	102	1048576	10	4206
2026-01-04 04:11:04.39	264.05	16.11	-25.2	-26.5	16.9	0.00e+00	0	43	102	1048576	10	4212
2026-01-04 04:11:05.39	263.90	16.02	-25.2	-26.6	16.9	3.40e-06	0	43	102	1048576	10	4226
2026-01-04 04:11:06.41	263.75	15.94	-25.2	-26.7	16.8	0.00e+00	0	43	102	1048576	10	4267
2026-01-04 04:11:07.41	263.60	15.86	-25.2	-26.6	16.9	0.00e+00	0	43	102	1048576	10	4242
2026-01-04 04:11:08.42	263.45	15.77	-25.3	-26.8	16.8	1.28e-03	0	43	102	1048576	10	4280
2026-01-04 04:11:09.43	263.31	15.69	-25.3	-26.8	16.7	0.00e+00	0	43	102	1048576	10	4289
2026-01-04 04:11:10.44	263.16	15.61	-25.2	-26.6	16.8	0.00e+00	0	43	102	1048576	10	4246
2026-01-04 04:11:11.44	263.02	15.52	-25.3	-26.8	16.7	0.00e+00	0	43	102	1048576	10	4280
2026-01-04 04:11:12.45	262.87	15.44	-25.3	-26.9	16.7	8.46e-04	0	43	102	1048576	10	4312
2026-01-04 04:11:13.45	262.73	15.36	-25.4	-27.0	16.6	0.00e+00	0	43	102	1048576	10	4335
2026-01-04 04:11:14.45	262.59	15.28	-25.4	-27.1	16.6	6.99e-04	0	43	102	1048576	10	4382
2026-01-04 04:11:15.46	262.45	15.19	-25.5	-27.2	16.5	2.04e-04	0	43	102	1048576	10	4403
2026-01-04 04:11:16.48	262.31	15.11	-25.5	-27.2	16.5	0.00e+00	0	43	102	1048576	10	4398
2026-01-04 04:11:17.48	262.17	15.03	-25.6	-26.9	16.4	0.00e+00	0	43	102	1048576	11	4208
2026-01-04 04:11:18.49	262.03	14.95	-25.8	-27.3	16.2	0.00e+00	0	43	102	1048576	11	4315
2026-01-04 04:11:19.50	261.89	14.87	-25.7	-27.3	16.2	0.00e+00	0	43	102	1048576	11	4299
2026-01-04 04:11:20.51	261.76	14.78	-25.7	-27.2	16.2	8.48e-04	0	43	102	1048576	11	4281
2026-01-04 04:11:21.51	261.62	14.70	-25.7	-27.3	16.2	8.34e-04	0	43	102	1048576	11	4313
2026-01-04 04:11:22.52	261.48	14.62	-25.8	-27.4	16.1	0.00e+00	0	43	102	1048576	11	4325
2026-01-04 04:11:23.53	261.35	14.54	-25.7	-27.2	16.2	8.81e-04	0	43	102	1048576	11	4286
2026-01-04 04:11:24.53	261.22	14.46	-25.8	-27.5	16.0	9.75e-04	0	43	102	1048576	11	4356
2026-01-04 04:11:25.54	261.08	14.38	-25.8	-27.4	16.1	0.00e+00	0	43	102	1048576	11	4345
2026-01-04 04:11:26.55	260.95	14.29	-25.7	-27.2	16.2	9.52e-04	0	43	102	1048576	11	4271
2026-01-04 04:11:27.56	260.82	14.21	-25.7	-27.3	16.1	0.00e+00	0	43	102	1048576	11	4322
2026-01-04 04:11:28.56	260.69	14.13	-25.7	-27.3	16.1	0.00e+00	0	43	102	1048576	11	4306
2026-01-04 04:11:29.57	260.56	14.05	-25.8	-27.4	16.1	9.65e-04	0	43	102	1048576	11	4335
2026-01-04 04:11:30.58	260.42	13.97	-25.8	-27.5	16.0	9.78e-04	0	43	102	1048576	11	4362
2026-01-04 04:11:31.58	260.30	13.89	-25.9	-27.3	15.8	0.00e+00	0	43	102	1048576	12	4195
2026-01-04 04:11:32.59	260.17	13.81	-26.3	-28.1	15.3	0.00e+00	0	43	102	1048576	12	4424
2026-01-04 04:11:33.60	260.04	13.73	-26.4	-28.2	15.2	1.38e-03	0	43	102	1048576	12	4451
2026-01-04 04:11:34.61	259.91	13.65	-26.1	-27.7	15.5	0.00e+00	0	43	102	1048576	12	4323
2026-01-04 04:11:35.61	259.79	13.57	-26.0	-27.4	15.7	1.39e-03	0	43	102	1048576	12	4220
2026-01-04 04:11:36.62	259.66	13.49	-25.9	-27.2	15.8	0.00e+00	0	43	102	1048576	12	4189
2026-01-04 04:11:37.62	259.54	13.41	-25.9	-27.2	15.8	0.00e+00	0	43	102	1048576	12	4186
2026-01-04 04:11:38.62	259.41	13.33	-25.9	-27.2	15.8	1.28e-03	0	43	102	1048576	12	4188
2026-01-04 04:11:39.63	259.29	13.25	-25.9	-27.3	15.7	0.00e+00	0	43	102	1048576	12	4197
2026-01-04 04:11:40.63	259.17	13.17	-26.0	-27.3	15.7	0.00e+00	0	43	102	1048576	12	4201
2026-01-04 04:11:41.64	259.05	13.09	-25.9	-27.7	15.8	0.00e+00	0	43	102	1048576	11	4418
2026-01-04 04:11:42.64	258.93	13.01	-25.9	-27.7	15.8	1.31e-03	0	43	102	1048576	11	4432
2026-01-04 04:11:43.65	258.80	12.93	-25.9	-27.6	15.9	1.10e-06	0	43	102	1048576	11	4395
2026-01-04 04:11:44.66	258.68	12.85	-25.9	-27.8	15.8	0.00e+00	0	43	102	1048576	11	4439
2026-01-04 04:11:45.66	258.57	12.77	-25.9	-27.2	15.8	0.00e+00	0	43	102	1048576	12	4167
2026-01-04 04:11:46.67	258.45	12.70	-25.9	-27.1	15.8	3.40e-06	0	43	102	1048576	12	4156
2026-01-04 04:11:47.68	258.33	12.62	-25.9	-27.7	15.8	0.00e+00	0	43	102	1048576	11	4426
2026-01-04 04:11:48.69	258.21	12.54	-26.0	-27.8	15.7	0.00e+00	0	43	102	1048576	11	4462
2026-01-04 04:11:49.69	258.09	12.46	-25.9	-27.7	15.8	2.20e-06	0	43	102	1048576	11	4427
2026-01-04 04:11:50.70	257.98	12.38	-26.0	-27.9	15.7	0.00e+00	0	43	102	1048576	11	4475
2026-01-04 04:11:51.71	257.86	12.30	-26.0	-27.4	15.6	0.00e+00	0	43	102	1048576	12	4236
2026-01-04 04:11:52.71	257.75	12.23	-26.0	-27.4	15.6	2.20e-06	0	43	102	1048576	12	4222
2026-01-04 04:11:53.72	257.63	12.15	-26.0	-27.4	15.6	0.00e+00	0	43	102	1048576	12	4220
2026-01-04 04:11:54.72	257.52	12.07	-26.0	-27.4	15.6	0.00e+00	0	43	102	1048576	12	4244
2026-01-04 04:11:55.73	257.41	11.99	-26.1	-27.6	15.5	3.40e-06	0	43	102	1048576	12	4281
2026-01-04 04:11:56.73	257.29	11.92	-26.2	-27.7	15.4	0.00e+00	0	43	102	1048576	12	4326
2026-01-04 04:11:57.74	257.18	11.84	-26.1	-27.7	15.4	0.00e+00	0	43	102	1048576	12	4318
2026-01-04 04:11:58.75	257.07	11.76	-26.3	-28.0	15.3	0.00e+00	0	43	102	1048576	12	4396
2026-01-04 04:11:59.76	256.96	11.68	-26.3	-28.1	15.2	0.00e+00	0	43	102	1048576	12	4416
2026-01-04 04:12:00.77	256.85	11.61	-26.3	-28.1	15.2	0.00e+00	0	43	102	1048576	12	4432
2026-01-04 04:12:01.76	256.74	11.53	-26.5	-28.1	14.9	0.00e+00	0	43	102	1048576	13	4304
2026-01-04 04:12:02.77	256.63	11.45	-26.8	-28.7	14.6	0.00e+00	0	43	102	1048576	13	4474
2026-01-04 04:12:03.77	256.52	11.38	-26.9	-28.9	14.4	0.00e+00	0	43	102	1048576	13	4532
2026-01-04 04:12:04.78	256.42	11.30	-26.8	-28.8	14.4	1.10e-06	0	43	102	1048576	13	4518
2026-01-04 04:12:05.79	256.31	11.23	-26.9	-29.0	14.4	0.00e+00	0	43	102	1048576	13	4577
2026-01-04 04:12:06.79	256.20	11.15	-26.9	-28.9	14.4	0.00e+00	0	43	102	1048576	13	4531
2026-01-04 04:12:07.79	256.10	11.07	-26.8	-28.8	14.5	1.10e-06	0	43	102	1048576	13	4505
2026-01-04 04:12:08.80	255.99	11.00	-26.9	-29.0	14.4	0.00e+00	0	43	102	1048576	13	4568
2026-01-04 04:12:09.81	255.89	10.92	-26.7	-28.5	14.6	0.00e+00	0	43	102	1048576	13	4431
2026-01-04 04:12:10.81	255.78	10.85	-26.5	-28.2	14.8	0.00e+00	0	43	102	1048576	13	4332
2026-01-04 04:12:11.82	255.68	10.77	-26.5	-28.0	14.9	0.00e+00	0	43	102	1048576	13	4282
2026-01-04 04:12:12.83	255.57	10.70	-26.5	-28.5	14.9	0.00e+00	0	43	102	1048576	12	4543
2026-01-04 04:12:13.84	255.47	10.62	-26.5	-28.0	14.9	0.00e+00	0	43	102	1048576	13	4283
2026-01-04 04:12:14.84	255.37	10.55	-26.6	-28.2	14.8	0.00e+00	0	43	102	1048576	13	4348
2026-01-04 04:12:15.84	255.27	10.47	-26.5	-28.1	14.8	0.00e+00	0	43	102	1048576	13	4304
2026-01-04 04:12:16.84	255.17	10.40	-26.5	-28.1	14.8	0.00e+00	0	43	102	1048576	13	4312
2026-01-04 04:12:17.85	255.07	10.32	-26.6	-28.3	14.7	0.00e+00	0	43	102	1048576	13	4377
2026-01-04 04:12:18.85	254.97	10.25	-26.6	-28.2	14.7	0.00e+00	0	43	102	1048576	13	4352
2026-01-04 04:12:19.85	254.87	10.18	-26.7	-28.5	14.6	0.00e+00	0	43	102	1048576	13	4432
2026-01-04 04:12:20.86	254.77	10.10	-26.6	-28.3	14.7	0.00e+00	0	43	102	1048576	13	4377
2026-01-04 04:12:21.87	254.67	10.03	-26.6	-28.2	14.7	1.10e-06	0	43	102	1048576	13	4342
2026-01-04 04:12:22.87	254.57	9.95	-26.7	-28.4	14.6	0.00e+00	0	43	102	1048576	13	4402
2026-01-04 04:12:23.88	254.47	9.88	-26.7	-28.6	14.5	0.00e+00	0	43	102	1048576	13	4467
2026-01-04 04:12:24.88	254.38	9.81	-26.7	-28.6	14.5	2.20e-06	0	43	102	1048576	13	4461
2026-01-04 04:12:25.88	254.28	9.73	-26.8	-28.8	14.4	0.00e+00	0	43	102	1048576	13	4521
2026-01-04 04:12:26.88	254.19	9.66	-26.8	-28.8	14.4	0.00e+00	0	43	102	1048576	13	4511
2026-01-04 04:12:27.88	254.09	9.59	-26.8	-28.8	14.3	2.20e-06	0	43	102	1048576	13	4532
2026-01-04 04:12:28.89	254.00	9.52	-27.1	-28.9	14.0	0.00e+00	0	43	102	1048576	14	4442
2026-01-04 04:12:29.89	253.90	9.44	-27.0	-28.8	13.2	2.20e-06	0	43	102	1048576	14	4412
2026-01-04 04:12:30.90	253.81	9.37	-27.0	-28.8	14.1	1.10e-06	0	43	102	1048576	14	4396
2026-01-04 04:12:31.91	253.71	9.30	-27.0	-28.8	14.0	2.20e-06	0	43	102	1048576	14	4398
2026-01-04 04:12:32.92	253.62	9.22	-27.2	-29.2	13.8	1.10e-06	0	43	102	1048576	14	4525
2026-01-04 04:12:33.92	253.53	9.15	-27.0	-28.8	14.0	0.00e+00	0	43	102	1048576	14	4405
2026-01-04 04:12:34.93	253.44	9.08	-27.0	-28.8	14.0	0.00e+00	0	43	102	1048576	14	4404
2026-01-04 04:12:35.93	253.34	9.01	-27.0	-28.8	14.0	0.00e+00	0	43	102	1048576	14	4410
2026-01-04 04:12:36.93	253.25	8.94	-27.0	-28.7	14.1	5.70e-06	0	43	102	1048576	14	4384
2026-01-04 04:12:37.94	253.16	8.87	-27.3	-29.3	13.7	3.40e-06	0	43	102	1048576	14	4565
2026-01-04 04:12:38.95	253.07	8.79	-27.0	-29.1	14.1	9.39e-04	0	43	102	1048576	13	4613
2026-01-04 04:12:39.95	252.98	8.72	-26.8	-28.8	14.3	4.50e-06	0	43	102	1048576	13	4522
2026-01-04 04:12:40.96	252.89	8.65	-27.0	-29.2	14.0	9.34e-04	0	43	102	1048576	13	4644
2026-01-04 04:12:41.97	252.80	8.58	-26.8	-28.7	14.3	2.20e-06	0	43	102	1048576	13	4498
2026-01-04 04:12:42.97	252.71	8.51	-26.8	-28.7	14.3	3.40e-06	0	43	102	1048576	13	4498
2026-01-04 04:12:43.98	252.63	8.44	-26.8	-28.8	14.2	6.49e-04	0	43	102	1048576	13	4540
2026-01-04 04:12:44.99	252.54	8.37	-26.9	-29.1	14.1	0.00e+00	0	43	102	1048576	13	4605
2026-01-04 04:12:46.00	252.45	8.30	-26.9	-29.1	14.1	6.80e-06	0	43	102	1048576	13	4616
2026-01-04 04:12:47.00	252.36	8.23	-27.0	-28.8	13.9	3.40e-06	0	43	102	1048576	14	4414
2026-01-04 04:12:48.01	252.28	8.15	-27.2	-29.2	13.7	4.20e-04	0	43	102	1048576	14	4520
2026-01-04 04:12:49.02	252.19	8.08	-27.1	-28.9	13.9	3.40e-06	0	43	102	1048576	14	4455
2026-01-04 04:12:50.02	252.11	8.01	-27.0	-28.9	13.9	3.48e-04	0	43	102	1048576	14	4436
2026-01-04 04:12:51.03	252.02	7.94	-27.1	-28.9	13.8	3.35e-04	0	43	102	1048576	14	4457
2026-01-04 04:12:52.04	251.94	7.87	-27.0	-28.9	13.9	2.20e-06	0	43	102	1048576	14	4438
2026-01-04 04:12:53.05	251.85	7.80	-27.2	-29.2	13.6	1.83e-04	0	43	102	1048576	14	4551
2026-01-04 04:12:54.06	251.77	7.73	-27.1	-29.0	13.8	8.00e-06	0	43	102	1048576	14	4467
2026-01-04 04:12:55.06	251.68	7.67	-26.9	-28.6	14.0	2.20e-06	0	43	102	1048576	14	4362
2026-01-04 04:12:56.07	251.60	7.60	-27.0	-28.7	14.0	1.10e-06	0	43	102	1048576	14	4389
2026-01-04 04:12:57.08	251.52	7.53	-27.0	-28.9	13.9	3.40e-06	0	43	102	1048576	14	4435
2026-01-04 04:12:58.08	251.44	7.46	-27.0	-28.8	13.9	4.50e-06	0	43	102	1048576	14	4420
2026-01-04 04:12:59.08	251.36	7.39	-27.0	-28.8	13.9	0.00e+00	0	43	102	1048576	14	4421
2026-01-04 04:13:00.09	251.27	7.32	-27.1	-29.1	13.7	1.10e-06	0	43	102	1048576	14	4499
2026-01-04 04:13:01.09	251.19	7.25	-27.1	-29.0	13.7	1.10e-06	0	43	102	1048576	14	4471
2026-01-04 04:13:02.10	251.11	7.18	-27.1	-29.0	13.7	2.20e-06	0	43	102	1048576	14	4476
2026-01-04 04:13:03.11	251.03	7.11	-27.1	-28.9	13.8	1.10e-06	0	43	102	1048576	14	4451
2026-01-04 04:13:04.11	250.95	7.05	-33.0	-44.3	3.8	8.47e-01	0	43	104	1048576	25	13275
2026-01-04 04:13:05.11	250.87	6.98	-33.3	-44.7	3.8	8.46e-01	0	43	104	1048576	26	13272
2026-01-04 04:13:06.11	250.79	6.91	-33.6	-44.7	3.8	8.47e-01	0	43	104	1048576	27	12941
2026-01-04 04:13:07.11	250.72	6.84	-33.8	-45.1	3.8	8.46e-01	0	43	104	1048576	27	13214

#Closed at: 2026-01-04 04:13:07
#Recorded file [1 MB]: D:/data/31010_260104_070241.dat