passes_logs/2026/01/04/R2M6_AANII_01/R2M6_AANII_01__20260104_121447_FENGYUN_3D_rec.log

#Pass ID: 20260104_121447_FENGYUN 3D
#Satellite: FENGYUN 3D
#Configuration: FENGYUN 3D
#almurnet v.1.7.20240730
#Start time: 2026-01-04 12:14:47

#Version: 2.2.20231116
#Station: R2M6_AANII_01
#Location: 30.233357 lon 59.946436 lat
#TLE: 1 43010U 17072A   26003.51579816  .00000092  00000+0  65324-4 0  9992
#TLE: 2 43010  98.9912 335.1548 0001916 128.4619 231.6729 14.19692074421623

#Time	Az	El	Level	Level2	SNR	BER	BlckErr	Temp	State	Recorded	gain1	gain2
2026-01-04 12:14:47.36	157.07	7.00	-28.9	-31.4	5.5	7.84e-01	0	41	0	0	19	4755
2026-01-04 12:14:48.36	157.07	7.08	-29.5	-32.9	5.4	7.89e-01	0	41	104	0	19	5283
2026-01-04 12:14:49.37	157.07	7.16	-29.5	-32.6	9.9	1.11e-02	0	41	0	0	19	5184
2026-01-04 12:14:50.37	157.07	7.24	-29.3	-32.2	10.2	7.02e-03	0	41	102	1048576	19	5006
2026-01-04 12:14:51.38	157.07	7.32	-29.4	-32.4	10.2	9.19e-03	0	41	102	1048576	19	5065
2026-01-04 12:14:52.39	157.07	7.39	-29.2	-31.8	10.6	5.29e-03	0	41	102	1048576	19	4838
2026-01-04 12:14:53.40	157.07	7.47	-29.0	-31.1	11.0	2.98e-03	0	41	102	1048576	19	4621
2026-01-04 12:14:54.40	157.07	7.55	-28.9	-31.0	11.2	1.60e-03	0	41	102	1048576	19	4565
2026-01-04 12:14:55.41	157.07	7.63	-28.7	-31.0	11.5	1.19e-03	0	41	102	1048576	18	4667
2026-01-04 12:14:56.42	157.07	7.71	-29.0	-31.6	11.1	2.06e-03	0	41	102	1048576	18	4881
2026-01-04 12:14:57.43	157.07	7.79	-29.0	-31.7	11.0	2.61e-03	0	41	102	1048576	18	4915
2026-01-04 12:14:58.43	157.07	7.87	-28.7	-31.0	11.5	1.36e-03	0	41	102	1048576	18	4666
2026-01-04 12:14:59.44	157.07	7.96	-28.5	-30.5	11.8	9.21e-04	0	41	102	1048576	18	4534
2026-01-04 12:15:00.44	157.07	8.04	-28.3	-29.9	12.2	3.98e-04	0	41	102	1048576	18	4331
2026-01-04 12:15:01.45	157.07	8.12	-28.0	-29.8	12.6	1.99e-04	0	41	102	1048576	17	4398
2026-01-04 12:15:02.46	157.07	8.20	-27.9	-29.5	12.8	8.35e-05	0	41	102	1048576	17	4307
2026-01-04 12:15:03.47	157.07	8.28	-27.8	-29.6	13.0	8.46e-05	0	41	102	1048576	16	4462
2026-01-04 12:15:04.47	157.07	8.36	-27.7	-29.6	13.0	6.06e-05	0	41	102	1048576	16	4439
2026-01-04 12:15:05.48	157.07	8.45	-27.8	-29.7	13.0	6.63e-05	0	41	102	1048576	16	4467
2026-01-04 12:15:06.49	157.07	8.53	-27.9	-29.8	12.9	6.17e-05	0	41	102	1048576	16	4515
2026-01-04 12:15:07.50	157.07	8.61	-27.7	-29.5	13.2	3.66e-05	0	41	102	1048576	16	4405
2026-01-04 12:15:08.50	157.07	8.70	-27.7	-29.4	13.2	4.69e-05	0	41	102	1048576	16	4377
2026-01-04 12:15:09.51	157.07	8.78	-27.7	-29.4	13.2	4.69e-05	0	41	102	1048576	16	4388
2026-01-04 12:15:10.51	157.07	8.86	-27.7	-29.5	13.1	3.89e-05	0	41	102	1048576	16	4417
2026-01-04 12:15:11.52	157.07	8.95	-27.8	-29.6	13.1	5.60e-05	0	41	102	1048576	16	4440
2026-01-04 12:15:12.52	157.07	9.03	-27.8	-29.6	13.1	5.03e-05	0	41	102	1048576	16	4424
2026-01-04 12:15:13.53	157.07	9.12	-27.8	-29.6	13.1	5.49e-05	0	41	102	1048576	16	4421
2026-01-04 12:15:14.54	157.07	9.20	-27.7	-29.4	13.2	5.83e-05	0	41	102	1048576	16	4386
2026-01-04 12:15:15.55	157.07	9.29	-27.8	-29.6	13.2	5.26e-05	0	41	102	1048576	16	4430
2026-01-04 12:15:16.55	157.06	9.37	-27.7	-29.3	13.3	1.48e-05	0	42	102	1048576	16	4348
2026-01-04 12:15:17.56	157.06	9.46	-27.7	-29.2	13.4	3.08e-05	0	41	102	1048576	16	4312
2026-01-04 12:15:18.57	157.06	9.54	-27.8	-29.5	13.2	2.28e-05	0	41	102	1048576	16	4394
2026-01-04 12:15:19.57	157.06	9.63	-27.7	-29.4	13.3	3.20e-05	0	42	102	1048576	16	4356
2026-01-04 12:15:20.57	157.06	9.72	-27.6	-29.1	13.5	1.60e-05	0	42	102	1048576	16	4276
2026-01-04 12:15:21.58	157.06	9.80	-27.6	-29.0	13.6	1.83e-05	0	41	102	1048576	16	4254
2026-01-04 12:15:22.59	157.06	9.89	-27.7	-29.4	13.3	1.83e-05	0	42	102	1048576	16	4371
2026-01-04 12:15:23.59	157.06	9.98	-27.7	-29.2	13.4	4.11e-05	0	42	102	1048576	16	4312
2026-01-04 12:15:24.60	157.06	10.07	-27.6	-29.1	13.6	1.02e-05	0	42	102	1048576	16	4270
2026-01-04 12:15:25.61	157.06	10.16	-27.5	-28.9	13.6	1.25e-05	0	42	102	1048576	16	4221
2026-01-04 12:15:26.61	157.06	10.24	-27.6	-29.1	13.5	1.37e-05	0	42	102	1048576	16	4284
2026-01-04 12:15:27.62	157.06	10.33	-27.7	-29.3	13.4	2.05e-05	0	42	102	1048576	16	4327
2026-01-04 12:15:28.63	157.06	10.42	-27.6	-29.2	13.5	1.37e-05	0	42	102	1048576	16	4295
2026-01-04 12:15:29.64	157.06	10.51	-27.7	-29.4	13.4	1.71e-05	0	41	102	1048576	16	4348
2026-01-04 12:15:30.64	157.06	10.60	-27.7	-29.4	13.4	1.83e-05	0	42	102	1048576	16	4368
2026-01-04 12:15:31.65	157.06	10.69	-27.6	-29.1	13.5	1.48e-05	0	42	102	1048576	16	4282
2026-01-04 12:15:32.65	157.06	10.78	-27.5	-28.8	13.8	1.02e-05	0	42	102	1048576	16	4179
2026-01-04 12:15:33.67	157.05	10.87	-27.4	-28.6	13.9	1.14e-05	0	42	102	1048576	16	4129
2026-01-04 12:15:34.66	157.05	10.96	-27.3	-28.4	14.0	8.00e-06	0	42	102	1048576	16	4071
2026-01-04 12:15:35.67	157.05	11.06	-27.3	-28.4	14.0	1.48e-05	0	42	102	1048576	16	4078
2026-01-04 12:15:36.68	157.05	11.15	-27.3	-28.5	14.0	4.50e-06	0	42	102	1048576	16	4092
2026-01-04 12:15:37.68	157.05	11.24	-27.5	-28.7	13.8	9.10e-06	0	42	102	1048576	16	4168
2026-01-04 12:15:38.69	157.05	11.33	-27.3	-28.5	14.0	3.40e-06	0	42	102	1048576	16	4098
2026-01-04 12:15:39.70	157.05	11.43	-27.0	-28.2	14.2	3.40e-06	0	42	102	1048576	15	4137
2026-01-04 12:15:40.70	157.05	11.52	-27.0	-28.1	14.3	2.20e-06	0	42	102	1048576	15	4107
2026-01-04 12:15:41.71	157.05	11.61	-27.0	-28.2	14.3	0.00e+00	0	42	102	1048576	15	4136
2026-01-04 12:15:42.72	157.05	11.71	-27.0	-28.2	14.3	1.10e-06	0	42	102	1048576	15	4128
2026-01-04 12:15:43.72	157.05	11.80	-26.9	-28.1	14.4	1.10e-06	0	42	102	1048576	15	4096
2026-01-04 12:15:44.73	157.05	11.90	-26.9	-28.0	14.4	0.00e+00	0	42	102	1048576	15	4090
2026-01-04 12:15:45.74	157.04	11.99	-27.0	-28.1	14.3	2.20e-06	0	42	102	1048576	15	4115
2026-01-04 12:15:46.74	157.04	12.09	-27.1	-28.5	14.1	5.70e-06	0	42	102	1048576	15	4228
2026-01-04 12:15:47.75	157.04	12.18	-27.1	-28.3	14.2	2.20e-06	0	42	102	1048576	15	4173
2026-01-04 12:15:48.76	157.04	12.28	-27.0	-28.3	14.3	5.70e-06	0	42	102	1048576	15	4162
2026-01-04 12:15:49.77	157.04	12.38	-27.0	-28.2	14.3	3.40e-06	0	42	102	1048576	15	4133
2026-01-04 12:15:50.78	157.04	12.47	-27.0	-28.2	14.3	2.20e-06	0	42	102	1048576	15	4127
2026-01-04 12:15:51.78	157.04	12.57	-27.1	-28.4	14.2	1.10e-06	0	42	102	1048576	15	4188
2026-01-04 12:15:52.79	157.04	12.67	-27.0	-28.1	14.3	2.20e-06	0	42	102	1048576	15	4121
2026-01-04 12:15:53.80	157.03	12.77	-26.9	-27.9	14.5	5.70e-06	0	42	102	1048576	15	4057
2026-01-04 12:15:54.80	157.03	12.87	-27.0	-28.1	14.4	0.00e+00	0	42	102	1048576	15	4107
2026-01-04 12:15:55.81	157.03	12.97	-26.9	-27.9	14.5	0.00e+00	0	42	102	1048576	15	4045
2026-01-04 12:15:56.82	157.03	13.07	-26.9	-28.0	14.5	0.00e+00	0	42	102	1048576	15	4088
2026-01-04 12:15:57.82	157.03	13.17	-26.9	-27.9	14.5	0.00e+00	0	42	102	1048576	15	4066
2026-01-04 12:15:58.83	157.03	13.27	-26.7	-28.1	14.7	1.10e-06	0	42	102	1048576	14	4216
2026-01-04 12:15:59.84	157.03	13.37	-26.7	-28.0	14.8	0.00e+00	0	42	102	1048576	14	4190
2026-01-04 12:16:00.84	157.02	13.47	-26.8	-28.3	14.6	0.00e+00	0	42	102	1048576	14	4256
2026-01-04 12:16:01.85	157.02	13.57	-26.8	-28.2	14.7	0.00e+00	0	42	102	1048576	14	4233
2026-01-04 12:16:02.86	157.02	13.67	-26.7	-27.9	14.8	0.00e+00	0	42	102	1048576	14	4162
2026-01-04 12:16:03.87	157.02	13.77	-26.7	-28.1	14.7	0.00e+00	0	42	102	1048576	14	4211
2026-01-04 12:16:04.87	157.02	13.88	-26.6	-27.8	14.9	0.00e+00	0	42	102	1048576	14	4123
2026-01-04 12:16:05.88	157.02	13.98	-26.5	-27.6	15.0	0.00e+00	0	42	102	1048576	14	4083
2026-01-04 12:16:06.88	157.02	14.08	-26.7	-27.9	14.9	0.00e+00	0	42	102	1048576	14	4163
2026-01-04 12:16:07.88	157.01	14.19	-26.5	-27.6	15.1	0.00e+00	0	42	102	1048576	14	4072
2026-01-04 12:16:08.89	157.01	14.29	-26.4	-27.3	15.2	0.00e+00	0	42	102	1048576	14	4006
2026-01-04 12:16:09.90	157.01	14.40	-26.3	-27.1	15.3	0.00e+00	0	42	102	1048576	14	3940
2026-01-04 12:16:10.90	157.01	14.50	-26.2	-27.4	15.4	0.00e+00	0	42	102	1048576	13	4142
2026-01-04 12:16:11.90	157.01	14.61	-26.2	-27.4	15.4	1.10e-06	0	42	102	1048576	13	4138
2026-01-04 12:16:12.91	157.00	14.71	-26.2	-27.3	15.5	0.00e+00	0	42	102	1048576	13	4108
2026-01-04 12:16:13.92	157.00	14.82	-26.2	-27.4	15.5	0.00e+00	0	42	102	1048576	13	4131
2026-01-04 12:16:14.93	157.00	14.93	-26.3	-27.6	15.4	0.00e+00	0	42	102	1048576	13	4176
2026-01-04 12:16:15.93	157.00	15.04	-26.5	-27.9	15.2	0.00e+00	0	42	102	1048576	13	4269
2026-01-04 12:16:16.94	157.00	15.14	-26.3	-27.6	15.4	0.00e+00	0	42	102	1048576	13	4169
2026-01-04 12:16:17.95	156.99	15.25	-26.2	-27.4	15.5	0.00e+00	0	42	102	1048576	13	4138
2026-01-04 12:16:18.96	156.99	15.36	-26.3	-27.5	15.4	0.00e+00	0	42	102	1048576	13	4150
2026-01-04 12:16:19.97	156.99	15.47	-26.1	-27.2	15.6	0.00e+00	0	42	102	1048576	13	4089
2026-01-04 12:16:20.98	156.99	15.58	-26.1	-27.1	15.6	0.00e+00	0	42	102	1048576	13	4050
2026-01-04 12:16:21.99	156.99	15.70	-26.2	-27.3	15.6	0.00e+00	0	42	102	1048576	13	4111
2026-01-04 12:16:22.99	156.98	15.81	-26.0	-27.0	15.7	0.00e+00	0	42	102	1048576	13	4022
2026-01-04 12:16:24.00	156.98	15.92	-26.2	-27.3	15.5	0.00e+00	0	43	102	1048576	13	4106
2026-01-04 12:16:25.01	156.98	16.03	-26.0	-26.9	15.8	0.00e+00	0	42	102	1048576	13	3998
2026-01-04 12:16:26.02	156.98	16.14	-25.9	-26.7	15.9	0.00e+00	0	43	102	1048576	13	3942
2026-01-04 12:16:27.02	156.97	16.26	-25.7	-26.9	16.1	0.00e+00	0	43	102	1048576	12	4097
2026-01-04 12:16:28.03	156.97	16.37	-25.8	-26.9	16.1	0.00e+00	0	42	102	1048576	12	4111
2026-01-04 12:16:29.04	156.97	16.49	-25.9	-27.2	15.9	0.00e+00	0	42	102	1048576	12	4179
2026-01-04 12:16:30.04	156.97	16.60	-26.0	-27.5	15.7	0.00e+00	0	42	102	1048576	12	4261
2026-01-04 12:16:31.04	156.96	16.72	-25.8	-27.0	16.0	0.00e+00	0	43	102	1048576	12	4121
2026-01-04 12:16:32.04	156.96	16.83	-25.8	-26.9	16.0	0.00e+00	0	43	102	1048576	12	4107
2026-01-04 12:16:33.05	156.96	16.95	-25.9	-27.1	16.0	0.00e+00	0	42	102	1048576	12	4157
2026-01-04 12:16:34.06	156.96	17.07	-25.7	-26.9	16.1	0.00e+00	0	43	102	1048576	12	4100
2026-01-04 12:16:35.06	156.95	17.18	-25.7	-26.8	16.2	0.00e+00	0	43	102	1048576	12	4069
2026-01-04 12:16:36.07	156.95	17.30	-25.8	-27.1	16.0	0.00e+00	0	42	102	1048576	12	4145
2026-01-04 12:16:37.07	156.95	17.42	-25.7	-26.7	16.2	0.00e+00	0	42	102	1048576	12	4047
2026-01-04 12:16:38.08	156.95	17.54	-25.9	-27.1	16.0	0.00e+00	0	43	102	1048576	12	4167
2026-01-04 12:16:39.09	156.94	17.66	-25.7	-26.7	16.2	0.00e+00	0	43	102	1048576	12	4059
2026-01-04 12:16:40.10	156.94	17.78	-25.5	-26.4	16.4	0.00e+00	0	43	102	1048576	12	3973
2026-01-04 12:16:41.10	156.94	17.90	-25.4	-26.1	16.6	0.00e+00	0	42	102	1048576	12	3895
2026-01-04 12:16:42.11	156.93	18.02	-25.3	-25.9	16.7	0.00e+00	0	42	102	1048576	12	3852
2026-01-04 12:16:43.12	156.93	18.15	-25.3	-25.9	16.7	0.00e+00	0	43	102	1048576	12	3858
2026-01-04 12:16:44.12	156.93	18.27	-25.3	-26.4	16.7	8.00e-06	0	42	102	1048576	11	4088
2026-01-04 12:16:45.13	156.92	18.39	-25.4	-26.6	16.6	0.00e+00	0	43	102	1048576	11	4144
2026-01-04 12:16:46.14	156.92	18.52	-25.2	-26.2	16.9	0.00e+00	0	43	102	1048576	11	4029
2026-01-04 12:16:47.14	156.92	18.64	-25.2	-26.1	16.9	5.70e-06	0	43	102	1048576	11	4007
2026-01-04 12:16:48.15	156.91	18.77	-25.3	-26.3	16.8	0.00e+00	0	43	102	1048576	11	4051
2026-01-04 12:16:49.16	156.91	18.89	-25.2	-26.1	16.9	0.00e+00	0	43	102	1048576	11	3999
2026-01-04 12:16:50.16	156.91	19.02	-25.2	-26.1	16.9	2.20e-06	0	42	102	1048576	11	4013
2026-01-04 12:16:51.17	156.90	19.15	-25.2	-26.1	16.9	0.00e+00	0	43	102	1048576	11	4009
2026-01-04 12:16:52.18	156.90	19.28	-25.2	-26.1	16.9	0.00e+00	0	43	102	1048576	11	4002
2026-01-04 12:16:53.19	156.90	19.41	-25.2	-26.2	16.9	0.00e+00	0	43	102	1048576	11	4023
2026-01-04 12:16:54.20	156.89	19.54	-25.2	-26.1	16.9	0.00e+00	0	43	102	1048576	11	4001
2026-01-04 12:16:55.21	156.89	19.67	-25.1	-26.0	17.0	0.00e+00	0	43	102	1048576	11	3976
2026-01-04 12:16:56.21	156.88	19.80	-25.2	-26.1	16.9	1.10e-06	0	43	102	1048576	11	4011
2026-01-04 12:16:57.21	156.88	19.93	-25.1	-26.0	17.0	0.00e+00	0	43	102	1048576	11	3987
2026-01-04 12:16:58.22	156.88	20.06	-25.2	-26.2	16.9	0.00e+00	0	42	102	1048576	11	4020
2026-01-04 12:16:59.22	156.87	20.19	-25.3	-26.4	16.8	0.00e+00	0	43	102	1048576	11	4089
2026-01-04 12:17:00.23	156.87	20.33	-25.2	-26.1	16.9	0.00e+00	0	43	102	1048576	11	4007
2026-01-04 12:17:01.24	156.86	20.46	-25.1	-26.0	17.0	0.00e+00	0	43	102	1048576	11	3972
2026-01-04 12:17:02.25	156.86	20.60	-25.1	-26.0	17.0	0.00e+00	0	43	102	1048576	11	3991
2026-01-04 12:17:03.26	156.86	20.73	-25.1	-25.9	17.1	0.00e+00	0	43	102	1048576	11	3961
2026-01-04 12:17:04.26	156.85	20.87	-25.0	-25.7	17.2	0.00e+00	0	43	102	1048576	11	3919
2026-01-04 12:17:05.26	156.85	21.01	-25.0	-25.8	17.2	0.00e+00	0	43	102	1048576	11	3923
2026-01-04 12:17:06.27	156.84	21.15	-25.1	-26.0	17.1	0.00e+00	0	43	102	1048576	11	3975
2026-01-04 12:17:07.28	156.84	21.28	-24.9	-25.5	17.3	0.00e+00	0	43	102	1048576	11	3870
2026-01-04 12:17:08.28	156.83	21.42	-24.8	-25.4	17.4	0.00e+00	0	43	102	1048576	11	3836
2026-01-04 12:17:09.29	156.83	21.56	-24.8	-25.3	17.4	0.00e+00	0	43	102	1048576	11	3822
2026-01-04 12:17:10.30	156.82	21.71	-24.8	-25.4	17.4	0.00e+00	0	43	102	1048576	11	3828
2026-01-04 12:17:11.31	156.82	21.85	-24.7	-25.7	17.5	0.00e+00	0	43	102	1048576	10	4009
2026-01-04 12:17:12.31	156.81	21.99	-24.8	-25.7	17.4	0.00e+00	0	43	102	1048576	10	4022
2026-01-04 12:17:13.32	156.81	22.14	-24.7	-25.7	17.5	0.00e+00	0	42	102	1048576	10	4007
2026-01-04 12:17:14.33	156.80	22.28	-24.8	-25.8	17.5	0.00e+00	0	43	102	1048576	10	4047
2026-01-04 12:17:15.33	156.80	22.42	-24.8	-25.9	17.4	0.00e+00	0	43	102	1048576	10	4060
2026-01-04 12:17:16.34	156.79	22.57	-24.7	-25.5	17.6	0.00e+00	0	43	102	1048576	10	3974
2026-01-04 12:17:17.35	156.79	22.72	-24.6	-25.4	17.7	0.00e+00	0	43	102	1048576	10	3938
2026-01-04 12:17:18.36	156.78	22.87	-24.6	-25.3	17.7	0.00e+00	0	43	102	1048576	10	3922
2026-01-04 12:17:19.37	156.78	23.02	-24.5	-25.1	17.9	0.00e+00	0	43	102	1048576	10	3874
2026-01-04 12:17:20.38	156.77	23.17	-24.4	-25.0	17.9	0.00e+00	0	43	102	1048576	10	3839
2026-01-04 12:17:21.38	156.77	23.32	-24.5	-25.0	17.9	0.00e+00	0	43	102	1048576	10	3855
2026-01-04 12:17:22.38	156.76	23.47	-24.5	-25.1	17.9	0.00e+00	0	43	102	1048576	10	3861
2026-01-04 12:17:23.39	156.76	23.62	-24.3	-24.8	18.0	0.00e+00	0	42	102	1048576	10	3793
2026-01-04 12:17:24.39	156.75	23.77	-24.3	-24.7	18.1	0.00e+00	0	43	102	1048576	10	3775
2026-01-04 12:17:25.40	156.74	23.92	-24.3	-24.7	18.1	0.00e+00	0	43	102	1048576	10	3770
2026-01-04 12:17:26.40	156.74	24.08	-24.2	-25.1	18.1	0.00e+00	0	43	102	1048576	9	3961
2026-01-04 12:17:27.41	156.73	24.24	-24.2	-25.0	18.2	0.00e+00	0	43	102	1048576	9	3948
2026-01-04 12:17:28.42	156.73	24.39	-24.2	-24.9	18.2	0.00e+00	0	43	102	1048576	9	3923
2026-01-04 12:17:29.42	156.72	24.55	-24.3	-25.1	18.1	0.00e+00	0	43	102	1048576	9	3972
2026-01-04 12:17:30.43	156.71	24.71	-24.3	-25.2	18.1	0.00e+00	0	43	102	1048576	9	3995
2026-01-04 12:17:31.44	156.71	24.87	-24.2	-24.9	18.2	0.00e+00	0	43	102	1048576	9	3934
2026-01-04 12:17:32.45	156.70	25.03	-24.2	-24.9	18.2	0.00e+00	0	43	102	1048576	9	3932
2026-01-04 12:17:33.45	156.69	25.19	-24.2	-25.0	18.2	0.00e+00	0	43	102	1048576	9	3940
2026-01-04 12:17:34.46	156.69	25.35	-24.2	-25.0	18.2	0.00e+00	0	43	102	1048576	9	3941
2026-01-04 12:17:35.46	156.68	25.52	-24.2	-25.0	18.3	0.00e+00	0	43	102	1048576	9	3948
2026-01-04 12:17:36.47	156.67	25.68	-24.2	-25.1	18.2	0.00e+00	0	43	102	1048576	9	3966
2026-01-04 12:17:37.48	156.67	25.85	-24.2	-25.0	18.3	0.00e+00	0	43	102	1048576	9	3942
2026-01-04 12:17:38.48	156.66	26.01	-24.1	-24.8	18.4	0.00e+00	0	43	102	1048576	9	3907
2026-01-04 12:17:39.49	156.65	26.18	-24.2	-24.9	18.3	0.00e+00	0	43	102	1048576	9	3920
2026-01-04 12:17:40.50	156.64	26.35	-24.1	-24.9	18.3	0.00e+00	0	43	102	1048576	9	3920
2026-01-04 12:17:41.51	156.64	26.52	-24.0	-24.7	18.4	0.00e+00	0	43	102	1048576	9	3862
2026-01-04 12:17:42.52	156.63	26.69	-24.2	-24.9	18.3	0.00e+00	0	43	102	1048576	9	3931
2026-01-04 12:17:43.53	156.62	26.86	-24.2	-25.0	18.3	0.00e+00	0	43	102	1048576	9	3950
2026-01-04 12:17:44.53	156.61	27.04	-24.1	-24.9	18.3	0.00e+00	0	43	102	1048576	9	3917
2026-01-04 12:17:45.54	156.60	27.21	-24.2	-24.9	18.3	0.00e+00	0	43	102	1048576	9	3931
2026-01-04 12:17:46.55	156.60	27.39	-24.3	-25.2	18.1	0.00e+00	0	43	102	1048576	9	4000
2026-01-04 12:17:47.56	156.59	27.56	-24.5	-25.6	18.0	0.00e+00	0	43	102	1048576	9	4098
2026-01-04 12:17:48.56	156.58	27.74	-24.5	-25.6	17.9	0.00e+00	0	43	102	1048576	9	4101
2026-01-04 12:17:49.56	156.57	27.92	-24.4	-25.4	18.1	0.00e+00	0	43	102	1048576	9	4052
2026-01-04 12:17:50.57	156.56	28.10	-24.5	-25.6	18.0	0.00e+00	0	43	102	1048576	9	4084
2026-01-04 12:17:51.57	156.55	28.28	-24.5	-25.6	18.0	0.00e+00	0	43	102	1048576	9	4103
2026-01-04 12:17:52.58	156.54	28.46	-24.5	-25.6	18.0	0.00e+00	0	43	102	1048576	9	4104
2026-01-04 12:17:53.59	156.54	28.65	-24.6	-25.9	17.8	0.00e+00	0	43	102	1048576	9	4183
2026-01-04 12:17:54.59	156.53	28.83	-24.7	-26.0	17.8	0.00e+00	0	43	102	1048576	9	4196
2026-01-04 12:17:55.60	156.52	29.02	-24.5	-25.7	17.9	0.00e+00	0	43	102	1048576	9	4129
2026-01-04 12:17:56.60	156.51	29.20	-24.4	-25.5	18.0	0.00e+00	0	43	102	1048576	9	4073
2026-01-04 12:17:57.60	156.50	29.39	-24.4	-25.5	18.1	0.00e+00	0	43	102	1048576	9	4068
2026-01-04 12:17:58.60	156.49	29.58	-24.3	-25.3	18.1	0.00e+00	0	43	102	1048576	9	4035
2026-01-04 12:17:59.61	156.48	29.77	-24.3	-25.3	18.1	0.00e+00	0	43	102	1048576	9	4034
2026-01-04 12:18:00.62	156.47	29.96	-24.2	-25.1	18.2	0.00e+00	0	43	102	1048576	9	3978
2026-01-04 12:18:01.63	156.46	30.15	-24.0	-24.6	18.5	0.00e+00	0	43	102	1048576	9	3860
2026-01-04 12:18:02.64	156.45	30.35	-23.9	-24.3	18.7	0.00e+00	0	43	102	1048576	9	3795
2026-01-04 12:18:03.64	156.44	30.55	-23.8	-24.2	18.7	0.00e+00	0	43	102	1048576	9	3766
2026-01-04 12:18:04.65	156.43	30.74	-23.9	-24.4	18.6	0.00e+00	0	43	102	1048576	9	3807
2026-01-04 12:18:05.65	156.41	30.94	-23.9	-24.3	18.7	0.00e+00	0	43	102	1048576	9	3784
2026-01-04 12:18:06.66	156.40	31.14	-23.8	-24.6	18.8	0.00e+00	0	43	102	1048576	8	3959
2026-01-04 12:18:07.67	156.39	31.34	-23.8	-24.6	18.8	0.00e+00	0	43	102	1048576	8	3964
2026-01-04 12:18:08.68	156.38	31.55	-23.9	-24.8	18.7	0.00e+00	0	43	102	1048576	8	3999
2026-01-04 12:18:09.68	156.37	31.75	-23.9	-24.8	18.7	0.00e+00	0	43	102	1048576	8	4013
2026-01-04 12:18:10.68	156.36	31.95	-23.9	-24.9	18.6	0.00e+00	0	43	102	1048576	8	4032
2026-01-04 12:18:11.69	156.34	32.16	-23.9	-25.0	18.6	0.00e+00	0	43	102	1048576	8	4053
2026-01-04 12:18:12.69	156.33	32.37	-24.1	-25.3	18.5	0.00e+00	0	43	102	1048576	8	4132
2026-01-04 12:18:13.70	156.32	32.58	-24.1	-25.3	18.4	0.00e+00	0	43	102	1048576	8	4133
2026-01-04 12:18:14.70	156.31	32.79	-24.0	-25.0	18.6	0.00e+00	0	43	102	1048576	8	4057
2026-01-04 12:18:15.71	156.29	33.00	-23.9	-24.8	18.7	0.00e+00	0	43	102	1048576	8	4021
2026-01-04 12:18:16.71	156.28	33.22	-23.9	-24.8	18.7	0.00e+00	0	43	102	1048576	8	4009
2026-01-04 12:18:17.72	156.27	33.43	-24.0	-25.0	18.6	0.00e+00	0	43	102	1048576	8	4052
2026-01-04 12:18:18.73	156.25	33.65	-23.9	-24.9	18.7	0.00e+00	0	43	102	1048576	8	4019
2026-01-04 12:18:19.73	156.24	33.87	-23.9	-24.9	18.7	0.00e+00	0	43	102	1048576	8	4020
2026-01-04 12:18:20.74	156.23	34.09	-23.8	-24.7	18.8	0.00e+00	0	43	102	1048576	8	3984
2026-01-04 12:18:21.74	156.21	34.31	-23.7	-24.5	18.8	0.00e+00	0	43	102	1048576	8	3944
2026-01-04 12:18:22.75	156.20	34.54	-23.8	-24.7	18.8	0.00e+00	0	43	102	1048576	8	3980
2026-01-04 12:18:23.75	156.18	34.76	-23.7	-24.4	18.9	0.00e+00	0	43	102	1048576	8	3922
2026-01-04 12:18:24.76	156.17	34.99	-23.6	-24.2	19.0	0.00e+00	0	43	102	1048576	8	3871
2026-01-04 12:18:25.77	156.15	35.22	-23.7	-24.5	18.9	0.00e+00	0	43	102	1048576	8	3930
2026-01-04 12:18:26.78	156.14	35.45	-23.7	-24.4	18.9	0.00e+00	0	43	102	1048576	8	3914
2026-01-04 12:18:27.78	156.12	35.68	-23.6	-24.3	19.0	0.00e+00	0	43	102	1048576	8	3879
2026-01-04 12:18:28.79	156.11	35.92	-23.5	-24.1	19.1	0.00e+00	0	43	102	1048576	8	3837
2026-01-04 12:18:29.80	156.09	36.15	-23.6	-24.2	19.1	0.00e+00	0	43	102	1048576	8	3861
2026-01-04 12:18:30.81	156.07	36.39	-23.5	-24.1	19.1	0.00e+00	0	43	102	1048576	8	3840
2026-01-04 12:18:31.81	156.06	36.63	-23.5	-24.1	19.1	0.00e+00	0	43	102	1048576	8	3837
2026-01-04 12:18:32.82	156.04	36.87	-23.6	-24.2	19.1	0.00e+00	0	43	102	1048576	8	3855
2026-01-04 12:18:33.83	156.02	37.11	-23.6	-24.3	19.0	0.00e+00	0	43	102	1048576	8	3881
2026-01-04 12:18:34.84	156.00	37.36	-23.5	-24.1	19.1	0.00e+00	0	43	102	1048576	8	3840
2026-01-04 12:18:35.84	155.99	37.60	-23.5	-24.1	19.1	0.00e+00	0	43	102	1048576	8	3849
2026-01-04 12:18:36.85	155.97	37.85	-23.7	-24.4	18.9	0.00e+00	0	43	102	1048576	8	3923
2026-01-04 12:18:37.86	155.95	38.10	-23.5	-23.9	19.2	0.00e+00	0	43	102	1048576	8	3799
2026-01-04 12:18:38.86	155.93	38.35	-23.3	-23.7	19.3	0.00e+00	0	43	102	1048576	8	3749
2026-01-04 12:18:39.87	155.91	38.61	-23.4	-23.8	19.3	0.00e+00	0	43	102	1048576	8	3781
2026-01-04 12:18:40.88	155.89	38.86	-23.5	-24.0	19.2	0.00e+00	0	43	102	1048576	8	3811
2026-01-04 12:18:41.89	155.87	39.12	-23.5	-24.1	19.1	0.00e+00	0	43	102	1048576	8	3843
2026-01-04 12:18:42.89	155.85	39.38	-23.7	-24.5	18.9	0.00e+00	0	43	102	1048576	8	3938
2026-01-04 12:18:43.90	155.83	39.64	-23.8	-24.5	18.9	0.00e+00	0	43	102	1048576	8	3939
2026-01-04 12:18:44.91	155.81	39.90	-23.8	-24.7	18.9	0.00e+00	0	43	102	1048576	8	3971
2026-01-04 12:18:45.91	155.78	40.17	-23.9	-24.9	18.8	0.00e+00	0	43	102	1048576	8	4025
2026-01-04 12:18:46.92	155.76	40.44	-24.1	-25.4	18.5	0.00e+00	0	43	102	1048576	8	4149
2026-01-04 12:18:47.93	155.74	40.71	-24.3	-25.7	18.3	0.00e+00	0	43	102	1048576	8	4238
2026-01-04 12:18:48.93	155.72	40.98	-24.4	-25.8	18.3	0.00e+00	0	43	102	1048576	8	4264
2026-01-04 12:18:49.94	155.69	41.25	-24.2	-25.6	18.4	0.00e+00	0	43	102	1048576	8	4196
2026-01-04 12:18:50.94	155.67	41.52	-24.1	-25.4	18.6	0.00e+00	0	43	102	1048576	8	4139
2026-01-04 12:18:51.95	155.65	41.80	-24.3	-25.6	18.5	0.00e+00	0	43	102	1048576	8	4192
2026-01-04 12:18:52.96	155.62	42.08	-24.0	-25.0	18.7	0.00e+00	0	43	102	1048576	8	4051
2026-01-04 12:18:53.97	155.59	42.37	-24.3	-25.6	18.5	0.00e+00	0	43	102	1048576	8	4195
2026-01-04 12:18:54.98	155.57	42.65	-24.2	-25.5	18.5	0.00e+00	0	43	102	1048576	8	4161
2026-01-04 12:18:55.98	155.54	42.93	-24.4	-25.9	18.3	0.00e+00	0	43	102	1048576	8	4292
2026-01-04 12:18:56.99	155.52	43.22	-24.3	-25.7	18.4	0.00e+00	0	43	102	1048576	8	4238
2026-01-04 12:18:57.99	155.49	43.51	-24.4	-25.8	18.3	0.00e+00	0	43	102	1048576	8	4265
2026-01-04 12:18:59.00	155.46	43.81	-24.1	-25.3	18.6	0.00e+00	0	43	102	1048576	8	4126
2026-01-04 12:19:00.01	155.43	44.10	-23.9	-24.9	18.8	0.00e+00	0	43	102	1048576	8	4016
2026-01-04 12:19:01.01	155.40	44.40	-24.0	-25.0	18.8	0.00e+00	0	43	102	1048576	8	4053
2026-01-04 12:19:02.02	155.37	44.70	-24.3	-25.6	18.4	0.00e+00	0	43	102	1048576	8	4212
2026-01-04 12:19:03.03	155.34	45.00	-24.4	-25.9	18.3	0.00e+00	0	43	102	1048576	8	4294
2026-01-04 12:19:04.04	155.31	45.30	-24.9	-26.5	17.8	0.00e+00	0	43	102	1048576	9	4318
2026-01-04 12:19:05.04	155.28	45.61	-24.4	-25.5	18.2	0.00e+00	0	43	102	1048576	9	4068
2026-01-04 12:19:06.05	155.25	45.92	-24.2	-25.0	18.5	0.00e+00	0	43	102	1048576	9	3951
2026-01-04 12:19:07.05	155.21	46.23	-24.1	-24.7	18.7	0.00e+00	0	43	102	1048576	9	3865
2026-01-04 12:19:08.06	155.18	46.54	-24.0	-24.6	18.7	0.00e+00	0	43	102	1048576	9	3854
2026-01-04 12:19:09.07	155.14	46.86	-24.1	-24.8	18.6	0.00e+00	0	43	102	1048576	9	3882
2026-01-04 12:19:10.08	155.11	47.18	-23.7	-24.5	19.0	0.00e+00	0	43	102	1048576	8	3927
2026-01-04 12:19:11.08	155.07	47.49	-23.6	-24.2	19.2	0.00e+00	0	43	102	1048576	8	3849
2026-01-04 12:19:12.08	155.04	47.81	-23.6	-24.2	19.2	0.00e+00	0	43	102	1048576	8	3855
2026-01-04 12:19:13.08	155.00	48.14	-24.0	-25.0	18.8	0.00e+00	0	43	102	1048576	8	4041
2026-01-04 12:19:14.09	154.96	48.47	-24.1	-25.2	18.7	0.00e+00	0	43	102	1048576	8	4090
2026-01-04 12:19:15.10	154.92	48.80	-24.2	-25.5	18.6	0.00e+00	0	43	102	1048576	8	4162
2026-01-04 12:19:16.11	154.88	49.13	-24.0	-25.0	18.8	0.00e+00	0	43	102	1048576	8	4041
2026-01-04 12:19:17.12	154.84	49.47	-24.0	-25.0	18.8	0.00e+00	0	43	102	1048576	8	4035
2026-01-04 12:19:18.13	154.79	49.81	-24.2	-25.4	18.6	0.00e+00	0	43	102	1048576	8	4139
2026-01-04 12:19:19.14	154.75	50.15	-24.2	-25.4	18.7	0.00e+00	0	43	102	1048576	8	4136
2026-01-04 12:19:20.14	154.70	50.49	-24.2	-25.5	18.6	0.00e+00	0	43	102	1048576	8	4161
2026-01-04 12:19:21.15	154.66	50.83	-24.4	-25.9	18.4	0.00e+00	0	43	102	1048576	8	4277
2026-01-04 12:19:22.16	154.61	51.18	-24.4	-25.9	18.4	0.00e+00	0	43	102	1048576	8	4275
2026-01-04 12:19:23.17	154.56	51.53	-24.6	-25.8	18.2	0.00e+00	0	43	102	1048576	9	4138
2026-01-04 12:19:24.17	154.51	51.88	-25.0	-26.6	17.8	0.00e+00	0	43	102	1048576	9	4340
2026-01-04 12:19:25.17	154.46	52.24	-24.8	-26.2	18.0	0.00e+00	0	43	102	1048576	9	4221
2026-01-04 12:19:26.19	154.41	52.60	-24.6	-25.7	18.2	0.00e+00	0	43	102	1048576	9	4108
2026-01-04 12:19:27.19	154.36	52.96	-24.8	-26.3	17.9	0.00e+00	0	43	102	1048576	9	4265
2026-01-04 12:19:28.20	154.30	53.32	-25.0	-26.6	17.7	0.00e+00	0	43	102	1048576	9	4361
2026-01-04 12:19:29.20	154.25	53.69	-25.1	-26.3	17.6	0.00e+00	0	43	102	1048576	10	4157
2026-01-04 12:19:30.21	154.19	54.05	-25.0	-26.3	17.7	0.00e+00	0	43	102	1048576	10	4143
2026-01-04 12:19:31.22	154.13	54.43	-25.2	-26.6	17.5	0.00e+00	0	43	102	1048576	10	4221
2026-01-04 12:19:32.22	154.07	54.80	-25.3	-26.8	17.4	0.00e+00	0	43	102	1048576	10	4292
2026-01-04 12:19:33.23	154.01	55.18	-25.3	-26.8	17.4	0.00e+00	0	43	102	1048576	10	4288
2026-01-04 12:19:34.23	153.94	55.55	-25.0	-26.1	17.8	0.00e+00	0	43	102	1048576	10	4113
2026-01-04 12:19:35.24	153.87	55.93	-24.8	-25.7	18.0	0.00e+00	0	43	102	1048576	10	3988
2026-01-04 12:19:36.25	153.81	56.32	-24.7	-25.4	18.2	0.00e+00	0	43	102	1048576	10	3935
2026-01-04 12:19:37.25	153.74	56.70	-24.9	-25.9	17.9	0.00e+00	0	43	102	1048576	10	4051
2026-01-04 12:19:38.26	153.66	57.09	-25.0	-26.2	17.8	0.00e+00	0	43	102	1048576	10	4115
2026-01-04 12:19:39.26	153.59	57.48	-25.0	-26.2	17.8	0.00e+00	0	43	102	1048576	10	4133
2026-01-04 12:19:40.27	153.51	57.88	-24.8	-25.7	18.1	0.00e+00	0	43	102	1048576	10	3997
2026-01-04 12:19:41.28	153.43	58.28	-24.5	-25.0	18.4	0.00e+00	0	43	102	1048576	10	3832
2026-01-04 12:19:42.29	153.35	58.68	-24.6	-25.3	18.2	0.00e+00	0	43	102	1048576	10	3912
2026-01-04 12:19:43.29	153.27	59.08	-24.4	-24.9	18.5	0.00e+00	0	43	102	1048576	10	3814
2026-01-04 12:19:44.30	153.18	59.49	-24.0	-24.6	18.8	0.00e+00	0	43	102	1048576	9	3842
2026-01-04 12:19:45.31	153.09	59.89	-23.8	-24.2	19.1	0.00e+00	0	43	102	1048576	9	3743
2026-01-04 12:19:46.31	153.00	60.30	-24.1	-24.8	18.8	0.00e+00	0	43	102	1048576	9	3884
2026-01-04 12:19:47.32	152.90	60.72	-24.5	-25.7	18.3	0.00e+00	0	43	102	1048576	9	4111
2026-01-04 12:19:48.33	152.80	61.13	-24.7	-26.1	18.1	0.00e+00	0	43	102	1048576	9	4227
2026-01-04 12:19:49.34	152.70	61.55	-24.2	-24.9	18.7	0.00e+00	0	43	102	1048576	9	3924
2026-01-04 12:19:50.35	152.59	61.97	-23.8	-24.1	19.1	0.00e+00	0	43	102	1048576	9	3740
2026-01-04 12:19:51.36	152.48	62.40	-23.9	-24.4	19.0	0.00e+00	0	43	102	1048576	9	3791
2026-01-04 12:19:52.37	152.36	62.83	-23.8	-24.1	19.1	0.00e+00	0	43	102	1048576	9	3743
2026-01-04 12:19:53.38	152.24	63.26	-23.6	-24.1	19.3	0.00e+00	0	43	102	1048576	8	3837
2026-01-04 12:19:54.38	152.12	63.68	-23.4	-23.8	19.5	0.00e+00	0	43	102	1048576	8	3760
2026-01-04 12:19:55.39	151.99	64.12	-23.4	-23.7	19.5	0.00e+00	0	43	102	1048576	8	3752
2026-01-04 12:19:56.40	151.86	64.55	-23.7	-24.4	19.2	0.00e+00	0	43	102	1048576	8	3900
2026-01-04 12:19:57.40	151.72	64.99	-23.6	-24.2	19.3	0.00e+00	0	43	102	1048576	8	3867
2026-01-04 12:19:58.41	151.57	65.43	-23.6	-24.1	19.3	0.00e+00	0	43	102	1048576	8	3839
2026-01-04 12:19:59.42	151.42	65.88	-23.7	-24.4	19.2	0.00e+00	0	43	102	1048576	8	3911
2026-01-04 12:20:00.42	151.27	66.32	-23.5	-24.1	19.4	0.00e+00	0	43	102	1048576	8	3832
2026-01-04 12:20:01.43	151.10	66.77	-23.5	-23.9	19.5	0.00e+00	0	43	102	1048576	8	3790
2026-01-04 12:20:02.43	150.93	67.21	-23.2	-23.9	19.7	0.00e+00	0	43	102	1048576	7	3889
2026-01-04 12:20:03.44	150.76	67.67	-23.4	-24.2	19.5	0.00e+00	0	43	102	1048576	7	3965
2026-01-04 12:20:04.45	150.57	68.12	-23.3	-24.0	19.6	0.00e+00	0	43	102	1048576	7	3907
2026-01-04 12:20:05.45	150.37	68.57	-23.1	-23.7	19.7	0.00e+00	0	43	102	1048576	7	3849
2026-01-04 12:20:06.46	150.17	69.03	-23.2	-24.0	19.6	0.00e+00	0	43	102	1048576	7	3910
2026-01-04 12:20:07.47	149.95	69.49	-23.4	-24.3	19.5	0.00e+00	0	43	102	1048576	7	3997
2026-01-04 12:20:08.48	149.73	69.96	-23.2	-23.9	19.7	0.00e+00	0	43	102	1048576	7	3889
2026-01-04 12:20:09.48	149.49	70.42	-22.9	-23.2	20.0	0.00e+00	0	43	102	1048576	7	3740
2026-01-04 12:20:10.48	149.24	70.88	-22.8	-23.1	20.1	0.00e+00	0	43	102	1048576	7	3708
2026-01-04 12:20:11.49	148.98	71.35	-22.9	-23.2	20.0	0.00e+00	0	43	102	1048576	7	3745
2026-01-04 12:20:12.50	148.70	71.82	-22.8	-23.1	20.0	0.00e+00	0	43	102	1048576	7	3715
2026-01-04 12:20:13.50	148.41	72.29	-23.0	-23.9	19.9	0.00e+00	0	43	102	1048576	6	4012
2026-01-04 12:20:14.50	148.10	72.76	-22.9	-23.8	20.0	0.00e+00	0	43	102	1048576	6	3978
2026-01-04 12:20:15.51	147.77	73.23	-22.5	-22.9	20.4	0.00e+00	0	43	102	1048576	6	3781
2026-01-04 12:20:16.52	147.42	73.71	-22.4	-22.6	20.5	0.00e+00	0	43	102	1048576	6	3714
2026-01-04 12:20:17.52	147.05	74.18	-22.2	-22.8	20.6	0.00e+00	0	43	102	1048576	5	3853
2026-01-04 12:20:18.53	146.65	74.66	-22.2	-22.8	20.6	0.00e+00	0	43	102	1048576	5	3854
2026-01-04 12:20:19.53	146.23	75.14	-22.4	-23.3	20.4	0.00e+00	0	43	102	1048576	5	3985
2026-01-04 12:20:20.53	145.78	75.61	-22.3	-23.1	20.5	0.00e+00	0	43	102	1048576	5	3936
2026-01-04 12:20:21.55	145.29	76.10	-22.0	-22.3	20.8	0.00e+00	0	43	102	1048576	5	3754
2026-01-04 12:20:22.55	144.77	76.58	-22.2	-22.8	20.6	0.00e+00	0	43	102	1048576	5	3854
2026-01-04 12:20:23.56	144.21	77.06	-22.2	-22.7	20.6	0.00e+00	0	43	102	1048576	5	3851
2026-01-04 12:20:24.56	143.61	77.54	-21.7	-22.3	21.1	0.00e+00	0	43	102	1048576	4	3865
2026-01-04 12:20:25.57	142.95	78.02	-21.7	-22.2	21.2	0.00e+00	0	43	102	1048576	4	3834
2026-01-04 12:20:26.58	142.24	78.50	-21.7	-22.2	21.2	0.00e+00	0	43	102	1048576	4	3843
2026-01-04 12:20:27.58	141.46	78.98	-21.4	-21.8	21.3	0.00e+00	0	43	102	1048576	4	3742
2026-01-04 12:20:28.59	140.61	79.46	-21.3	-21.9	21.6	0.00e+00	0	43	102	1048576	3	3867
2026-01-04 12:20:29.59	139.69	79.94	-21.3	-22.0	21.5	0.00e+00	0	43	102	1048576	3	3888
2026-01-04 12:20:30.60	138.66	80.41	-21.6	-22.6	21.2	0.00e+00	0	43	102	1048576	3	4040
2026-01-04 12:20:31.61	137.52	80.89	-21.3	-21.9	21.6	0.00e+00	0	43	102	1048576	3	3860
2026-01-04 12:20:32.62	136.25	81.36	-20.9	-21.2	22.2	0.00e+00	0	43	102	1048576	3	3693
2026-01-04 12:20:33.63	134.83	81.83	-20.9	-21.0	22.3	0.00e+00	0	43	102	1048576	3	3662
2026-01-04 12:20:34.63	133.26	82.29	-20.9	-21.0	22.3	0.00e+00	0	43	102	1048576	3	3662
2026-01-04 12:20:35.64	131.46	82.75	-20.6	-21.0	22.5	0.00e+00	0	43	102	1048576	2	3758
2026-01-04 12:20:36.65	129.43	83.20	-20.8	-21.4	22.4	0.00e+00	0	43	102	1048576	2	3840
2026-01-04 12:20:37.65	127.13	83.64	-21.2	-22.2	21.9	0.00e+00	0	43	102	1048576	2	4046
2026-01-04 12:20:38.66	124.46	84.07	-21.3	-22.5	21.8	0.00e+00	0	43	102	1048576	2	4095
2026-01-04 12:20:39.66	121.41	84.48	-21.8	-22.9	21.4	0.00e+00	0	43	102	1048576	3	4082
2026-01-04 12:20:40.67	117.84	84.88	-22.1	-23.0	21.1	0.00e+00	0	43	102	1048576	4	3991
2026-01-04 12:20:41.68	113.68	85.26	-22.1	-23.0	21.1	0.00e+00	0	43	102	1048576	4	3999
2026-01-04 12:20:42.68	108.88	85.60	-22.0	-22.8	21.2	0.00e+00	0	43	102	1048576	4	3959
2026-01-04 12:20:43.69	103.25	85.91	-22.1	-23.1	21.1	0.00e+00	0	43	102	1048576	4	4018
2026-01-04 12:20:44.69	96.84	86.18	-22.0	-22.7	21.3	0.00e+00	0	43	102	1048576	4	3934
2026-01-04 12:20:45.70	89.50	86.39	-22.2	-23.1	21.1	0.00e+00	0	43	102	1048576	4	4029
2026-01-04 12:20:46.70	81.48	86.53	-22.4	-23.7	20.8	0.00e+00	0	43	102	1048576	4	4178
2026-01-04 12:20:47.71	72.86	86.60	-22.8	-24.1	20.3	0.00e+00	0	43	102	1048576	5	4142
2026-01-04 12:20:48.72	64.08	86.60	-22.9	-24.2	20.3	0.00e+00	0	43	102	1048576	5	4180
2026-01-04 12:20:49.72	55.62	86.51	-22.8	-23.9	20.5	0.00e+00	0	43	102	1048576	5	4097
2026-01-04 12:20:50.72	47.72	86.36	-23.0	-24.3	20.2	0.00e+00	0	43	102	1048576	5	4200
2026-01-04 12:20:51.73	40.53	86.14	-22.9	-24.3	20.2	0.00e+00	0	43	102	1048576	5	4188
2026-01-04 12:20:52.74	34.20	85.86	-23.1	-24.1	20.1	0.00e+00	0	43	102	1048576	6	4051
2026-01-04 12:20:53.75	28.72	85.54	-23.2	-24.4	19.9	0.00e+00	0	43	102	1048576	6	4121
2026-01-04 12:20:54.76	24.02	85.19	-22.8	-23.5	20.3	0.00e+00	0	43	102	1048576	6	3894
2026-01-04 12:20:55.76	20.02	84.81	-22.6	-23.0	20.6	0.00e+00	0	43	102	1048576	6	3788
2026-01-04 12:20:56.77	16.54	84.41	-22.7	-23.2	20.5	0.00e+00	0	43	102	1048576	6	3823
2026-01-04 12:20:57.78	13.55	83.99	-22.9	-23.7	20.2	0.00e+00	0	43	102	1048576	6	3958
2026-01-04 12:20:58.78	10.98	83.56	-22.9	-23.8	20.2	0.00e+00	0	43	102	1048576	6	3967
2026-01-04 12:20:59.79	8.71	83.12	-22.7	-23.3	20.4	0.00e+00	0	43	102	1048576	6	3852
2026-01-04 12:21:00.80	6.73	82.66	-22.7	-23.3	20.5	0.00e+00	0	43	102	1048576	6	3847
2026-01-04 12:21:01.80	4.99	82.21	-23.0	-24.0	20.1	0.00e+00	0	43	102	1048576	6	4005
2026-01-04 12:21:02.81	3.44	81.74	-22.5	-22.8	20.7	0.00e+00	0	43	102	1048576	6	3742
2026-01-04 12:21:03.82	2.05	81.28	-22.2	-22.8	20.9	0.00e+00	0	43	102	1048576	5	3847
2026-01-04 12:21:04.83	0.81	80.80	-22.6	-23.6	20.5	0.00e+00	0	43	102	1048576	5	4040
2026-01-04 12:21:05.84	359.69	80.33	-22.5	-23.3	20.7	0.00e+00	0	43	102	1048576	5	3954
2026-01-04 12:21:06.84	358.69	79.85	-21.9	-22.2	21.2	0.00e+00	0	43	102	1048576	5	3704
2026-01-04 12:21:07.85	357.77	79.37	-21.7	-22.3	21.4	0.00e+00	0	43	102	1048576	4	3829
2026-01-04 12:21:08.85	356.94	78.90	-22.3	-23.5	20.8	0.00e+00	0	43	102	1048576	4	4139
2026-01-04 12:21:09.86	356.18	78.42	-22.0	-22.9	21.1	0.00e+00	0	43	102	1048576	4	3969
2026-01-04 12:21:10.86	355.48	77.94	-21.8	-22.4	21.3	0.00e+00	0	43	102	1048576	4	3872
2026-01-04 12:21:11.87	354.83	77.46	-21.8	-22.4	21.3	0.00e+00	0	43	102	1048576	4	3854
2026-01-04 12:21:12.87	354.24	76.98	-21.7	-22.2	21.4	0.00e+00	0	43	102	1048576	4	3821
2026-01-04 12:21:13.88	353.68	76.50	-21.8	-22.4	21.3	0.00e+00	0	43	102	1048576	4	3862
2026-01-04 12:21:14.89	353.17	76.02	-22.1	-23.0	21.1	0.00e+00	0	43	102	1048576	4	3998
2026-01-04 12:21:15.89	352.69	75.54	-22.3	-23.4	20.8	0.00e+00	0	43	102	1048576	4	4095
2026-01-04 12:21:16.90	352.24	75.06	-22.1	-23.0	21.0	0.00e+00	0	43	102	1048576	4	3998
2026-01-04 12:21:17.91	351.82	74.58	-22.2	-23.2	20.9	0.00e+00	0	43	102	1048576	4	4038
2026-01-04 12:21:18.91	351.44	74.11	-22.4	-23.7	20.7	0.00e+00	0	43	102	1048576	4	4183
2026-01-04 12:21:19.93	351.06	73.62	-22.7	-23.8	20.4	0.00e+00	0	43	102	1048576	5	4073
2026-01-04 12:21:20.93	350.72	73.15	-22.8	-23.9	20.3	0.00e+00	0	43	102	1048576	5	4113
2026-01-04 12:21:21.94	350.39	72.68	-22.4	-23.2	20.7	0.00e+00	0	43	102	1048576	5	3936
2026-01-04 12:21:22.95	350.09	72.21	-22.4	-23.1	20.7	0.00e+00	0	43	102	1048576	5	3920
2026-01-04 12:21:23.96	349.80	71.74	-22.4	-23.2	20.7	0.00e+00	0	43	102	1048576	5	3922
2026-01-04 12:21:24.96	349.52	71.27	-22.8	-23.9	20.3	0.00e+00	0	43	102	1048576	5	4114
2026-01-04 12:21:25.97	349.26	70.80	-22.9	-24.2	20.2	0.00e+00	0	43	102	1048576	5	4179
2026-01-04 12:21:26.98	349.01	70.34	-22.6	-23.6	20.5	0.00e+00	0	43	102	1048576	5	4021
2026-01-04 12:21:27.98	348.78	69.88	-23.2	-24.3	19.9	0.00e+00	0	43	102	1048576	6	4090
2026-01-04 12:21:28.99	348.56	69.42	-23.5	-24.9	19.6	0.00e+00	0	43	102	1048576	6	4255
2026-01-04 12:21:30.00	348.34	68.96	-23.1	-24.2	20.0	0.00e+00	0	43	102	1048576	6	4052
2026-01-04 12:21:31.00	348.14	68.50	-23.3	-24.4	19.8	0.00e+00	0	43	102	1048576	6	4114
2026-01-04 12:21:32.01	347.95	68.05	-23.4	-24.8	19.6	0.00e+00	0	43	102	1048576	6	4230
2026-01-04 12:21:33.02	347.76	67.59	-23.5	-24.5	19.6	0.00e+00	0	43	102	1048576	7	4020
2026-01-04 12:21:34.03	347.59	67.14	-23.2	-23.8	19.9	0.00e+00	0	43	102	1048576	7	3860
2026-01-04 12:21:35.03	347.42	66.70	-23.4	-24.3	19.7	0.00e+00	0	43	102	1048576	7	3964
2026-01-04 12:21:36.05	347.25	66.24	-23.4	-24.2	19.7	0.00e+00	0	43	102	1048576	7	3941
2026-01-04 12:21:37.05	347.10	65.80	-23.8	-25.0	19.3	0.00e+00	0	43	102	1048576	7	4155
2026-01-04 12:21:38.06	346.95	65.36	-23.5	-24.5	19.5	0.00e+00	0	43	102	1048576	7	4032
2026-01-04 12:21:39.07	346.81	64.92	-23.6	-24.6	19.5	0.00e+00	0	43	102	1048576	7	4047
2026-01-04 12:21:40.08	346.67	64.48	-23.4	-24.3	19.6	0.00e+00	0	43	102	1048576	7	3972
2026-01-04 12:21:41.08	346.54	64.05	-23.3	-24.1	19.8	0.00e+00	0	43	102	1048576	7	3917
2026-01-04 12:21:42.09	346.41	63.62	-23.6	-24.6	19.5	0.00e+00	0	43	102	1048576	7	4060
2026-01-04 12:21:43.10	346.29	63.19	-23.5	-24.5	19.6	0.00e+00	0	43	102	1048576	7	4027
2026-01-04 12:21:44.10	346.17	62.76	-23.8	-25.1	19.3	0.00e+00	0	43	102	1048576	7	4168
2026-01-04 12:21:45.11	346.06	62.34	-23.5	-24.4	19.6	0.00e+00	0	43	102	1048576	7	3999
2026-01-04 12:21:46.12	345.95	61.92	-23.4	-24.2	19.7	0.00e+00	0	43	102	1048576	7	3960
2026-01-04 12:21:47.12	345.84	61.50	-23.5	-24.4	19.6	0.00e+00	0	43	102	1048576	7	3995
2026-01-04 12:21:48.13	345.74	61.08	-23.5	-24.5	19.6	0.00e+00	0	43	102	1048576	7	4017
2026-01-04 12:21:49.14	345.64	60.67	-23.6	-24.6	19.5	0.00e+00	0	43	102	1048576	7	4049
2026-01-04 12:21:50.15	345.54	60.25	-23.6	-24.7	19.5	0.00e+00	0	43	102	1048576	7	4063
2026-01-04 12:21:51.16	345.45	59.84	-23.9	-25.2	19.2	0.00e+00	0	43	102	1048576	7	4203
2026-01-04 12:21:52.16	345.36	59.44	-24.1	-25.1	19.0	0.00e+00	0	43	102	1048576	8	4062
2026-01-04 12:21:53.17	345.28	59.04	-24.0	-25.0	19.1	0.00e+00	0	43	102	1048576	8	4033
2026-01-04 12:21:54.17	345.19	58.64	-24.2	-25.5	18.8	0.00e+00	0	43	102	1048576	8	4152
2026-01-04 12:21:55.17	345.11	58.24	-24.5	-25.9	18.6	0.00e+00	0	43	102	1048576	8	4267
2026-01-04 12:21:56.17	345.03	57.85	-24.7	-25.9	18.4	0.00e+00	0	43	102	1048576	9	4141
2026-01-04 12:21:57.18	344.96	57.45	-24.6	-25.8	18.4	0.00e+00	0	43	102	1048576	9	4111
2026-01-04 12:21:58.18	344.88	57.07	-24.6	-25.6	18.5	0.00e+00	0	43	102	1048576	9	4072
2026-01-04 12:21:59.19	344.81	56.68	-24.9	-26.4	18.1	0.00e+00	0	43	102	1048576	9	4267
2026-01-04 12:22:00.20	344.74	56.29	-25.0	-26.5	18.0	0.00e+00	0	43	102	1048576	9	4305
2026-01-04 12:22:01.20	344.67	55.91	-24.9	-26.3	18.1	0.00e+00	0	43	102	1048576	9	4260
2026-01-04 12:22:02.21	344.61	55.53	-25.0	-26.0	18.0	0.00e+00	0	43	102	1048576	10	4066
2026-01-04 12:22:03.22	344.54	55.15	-24.9	-25.8	18.2	0.00e+00	0	43	102	1048576	10	4007
2026-01-04 12:22:04.23	344.48	54.78	-24.9	-25.9	18.1	0.00e+00	0	43	102	1048576	10	4024
2026-01-04 12:22:05.23	344.42	54.41	-24.9	-25.9	18.1	0.00e+00	0	43	102	1048576	10	4033
2026-01-04 12:22:06.24	344.36	54.04	-24.8	-25.7	18.2	0.00e+00	0	43	102	1048576	10	3965
2026-01-04 12:22:07.25	344.31	53.67	-24.9	-25.8	18.1	0.00e+00	0	43	102	1048576	10	4011
2026-01-04 12:22:08.26	344.25	53.30	-24.8	-25.7	18.2	0.00e+00	0	43	102	1048576	10	3975
2026-01-04 12:22:09.26	344.20	52.94	-24.9	-25.9	18.1	0.00e+00	0	43	102	1048576	10	4028
2026-01-04 12:22:10.27	344.14	52.58	-25.0	-26.0	18.0	0.00e+00	0	43	102	1048576	10	4070
2026-01-04 12:22:11.28	344.09	52.23	-24.6	-25.2	18.5	0.00e+00	0	43	102	1048576	10	3858
2026-01-04 12:22:12.28	344.04	51.87	-24.3	-24.5	18.8	0.00e+00	0	43	102	1048576	10	3708
2026-01-04 12:22:13.29	343.99	51.52	-24.2	-24.9	18.8	0.00e+00	0	43	102	1048576	9	3906
2026-01-04 12:22:14.30	343.94	51.17	-24.3	-25.1	18.7	0.00e+00	0	43	102	1048576	9	3941
2026-01-04 12:22:15.30	343.90	50.83	-24.3	-25.0	18.7	0.00e+00	0	43	102	1048576	9	3935
2026-01-04 12:22:16.31	343.85	50.48	-24.3	-25.2	18.7	0.00e+00	0	43	102	1048576	9	3966
2026-01-04 12:22:17.32	343.81	50.14	-24.2	-24.9	18.8	0.00e+00	0	43	102	1048576	9	3904
2026-01-04 12:22:18.32	343.76	49.81	-23.9	-24.2	19.2	0.00e+00	0	43	102	1048576	9	3734
2026-01-04 12:22:19.32	343.72	49.47	-23.8	-24.5	19.2	0.00e+00	0	43	102	1048576	8	3928
2026-01-04 12:22:20.33	343.68	49.14	-23.9	-24.9	19.1	0.00e+00	0	43	102	1048576	8	4007
2026-01-04 12:22:21.34	343.64	48.80	-24.0	-25.0	19.0	0.00e+00	0	43	102	1048576	8	4053
2026-01-04 12:22:22.35	343.60	48.47	-23.9	-24.7	19.2	0.00e+00	0	43	102	1048576	8	3968
2026-01-04 12:22:23.36	343.56	48.15	-23.8	-24.5	19.3	0.00e+00	0	43	102	1048576	8	3919
2026-01-04 12:22:24.37	343.53	47.82	-23.8	-24.6	19.2	0.00e+00	0	43	102	1048576	8	3935
2026-01-04 12:22:25.38	343.49	47.50	-23.7	-24.4	19.3	0.00e+00	0	43	102	1048576	8	3884
2026-01-04 12:22:26.38	343.45	47.18	-23.8	-24.5	19.3	0.00e+00	0	43	102	1048576	8	3904
2026-01-04 12:22:27.39	343.42	46.87	-23.8	-24.6	19.2	0.00e+00	0	43	102	1048576	8	3946
2026-01-04 12:22:28.40	343.38	46.55	-23.8	-24.7	19.2	0.00e+00	0	43	102	1048576	8	3959
2026-01-04 12:22:29.41	343.35	46.24	-23.8	-24.5	19.2	0.00e+00	0	43	102	1048576	8	3930
2026-01-04 12:22:30.42	343.32	45.93	-23.8	-24.7	19.2	0.00e+00	0	43	102	1048576	8	3966
2026-01-04 12:22:31.42	343.28	45.62	-23.9	-24.7	19.2	0.00e+00	0	43	102	1048576	8	3964
2026-01-04 12:22:32.43	343.25	45.32	-23.9	-24.7	19.1	0.00e+00	0	43	102	1048576	8	3963
2026-01-04 12:22:33.43	343.22	45.02	-23.9	-24.7	19.1	0.00e+00	0	43	102	1048576	8	3976
2026-01-04 12:22:34.44	343.19	44.72	-23.9	-24.8	19.1	0.00e+00	0	43	102	1048576	8	3992
2026-01-04 12:22:35.45	343.16	44.42	-23.9	-24.8	19.1	0.00e+00	0	43	102	1048576	8	3979
2026-01-04 12:22:36.46	343.13	44.12	-23.8	-24.6	19.2	0.00e+00	0	43	102	1048576	8	3935
2026-01-04 12:22:37.46	343.11	43.83	-23.9	-24.8	19.1	0.00e+00	0	43	102	1048576	8	3973
2026-01-04 12:22:38.47	343.08	43.54	-24.0	-25.1	18.9	0.00e+00	0	43	102	1048576	8	4057
2026-01-04 12:22:39.48	343.05	43.25	-24.1	-25.3	18.8	0.00e+00	0	43	102	1048576	8	4112
2026-01-04 12:22:40.49	343.02	42.96	-24.2	-25.4	18.7	0.00e+00	0	43	102	1048576	8	4148
2026-01-04 12:22:41.49	343.00	42.68	-24.0	-25.1	18.9	0.00e+00	0	43	102	1048576	8	4053
2026-01-04 12:22:42.50	342.97	42.39	-23.8	-24.6	19.2	0.00e+00	0	43	102	1048576	8	3944
2026-01-04 12:22:43.51	342.95	42.11	-23.7	-24.4	19.3	0.00e+00	0	43	102	1048576	8	3895
2026-01-04 12:22:44.51	342.92	41.83	-23.8	-24.5	19.2	0.00e+00	0	43	102	1048576	8	3904
2026-01-04 12:22:45.52	342.90	41.56	-23.7	-24.3	19.3	0.00e+00	0	43	102	1048576	8	3870
2026-01-04 12:22:46.53	342.88	41.28	-23.5	-23.9	19.5	0.00e+00	0	43	102	1048576	8	3766
2026-01-04 12:22:47.53	342.85	41.01	-23.4	-23.7	19.6	0.00e+00	0	43	102	1048576	8	3728
2026-01-04 12:22:48.54	342.83	40.74	-23.5	-23.8	19.5	0.00e+00	0	43	102	1048576	8	3764
2026-01-04 12:22:49.54	342.81	40.47	-23.6	-24.1	19.4	0.00e+00	0	43	102	1048576	8	3831
2026-01-04 12:22:50.55	342.79	40.21	-23.5	-24.0	19.4	0.00e+00	0	43	102	1048576	8	3810
2026-01-04 12:22:51.56	342.76	39.94	-23.4	-23.8	19.6	0.00e+00	0	43	102	1048576	8	3766
2026-01-04 12:22:52.57	342.74	39.68	-23.5	-23.9	19.5	0.00e+00	0	43	102	1048576	8	3772
2026-01-04 12:22:53.57	342.72	39.42	-23.6	-24.1	19.4	0.00e+00	0	43	102	1048576	8	3833
2026-01-04 12:22:54.58	342.70	39.16	-23.5	-24.0	19.5	0.00e+00	0	43	102	1048576	8	3798
2026-01-04 12:22:55.58	342.68	38.91	-23.4	-23.8	19.5	0.00e+00	0	43	102	1048576	8	3751
2026-01-04 12:22:56.59	342.66	38.65	-23.7	-24.3	19.3	0.00e+00	0	43	102	1048576	8	3875
2026-01-04 12:22:57.59	342.65	38.40	-23.7	-24.3	19.3	0.00e+00	0	43	102	1048576	8	3857
2026-01-04 12:22:58.60	342.63	38.15	-23.4	-23.7	19.6	0.00e+00	0	43	102	1048576	8	3729
2026-01-04 12:22:59.60	342.61	37.90	-23.2	-23.8	19.7	0.00e+00	0	43	102	1048576	7	3867
2026-01-04 12:23:00.61	342.59	37.66	-23.5	-24.4	19.5	0.00e+00	0	43	102	1048576	7	3994
2026-01-04 12:23:01.61	342.57	37.41	-23.9	-25.3	19.0	0.00e+00	0	43	102	1048576	7	4222
2026-01-04 12:23:02.62	342.55	37.17	-24.1	-25.2	18.8	0.00e+00	0	43	102	1048576	8	4100
2026-01-04 12:23:03.64	342.54	36.92	-24.1	-25.2	18.8	0.00e+00	0	43	102	1048576	8	4082
2026-01-04 12:23:04.65	342.52	36.68	-24.0	-25.0	18.9	0.00e+00	0	43	102	1048576	8	4047
2026-01-04 12:23:05.65	342.50	36.45	-23.9	-24.9	18.9	0.00e+00	0	43	102	1048576	8	4020
2026-01-04 12:23:06.66	342.49	36.21	-23.9	-24.9	18.9	0.00e+00	0	43	102	1048576	8	4018
2026-01-04 12:23:07.67	342.47	35.97	-23.9	-24.8	19.0	0.00e+00	0	43	102	1048576	8	3990
2026-01-04 12:23:08.68	342.46	35.74	-24.0	-24.9	18.9	0.00e+00	0	43	102	1048576	8	4018
2026-01-04 12:23:09.68	342.44	35.51	-23.8	-24.6	19.1	0.00e+00	0	43	102	1048576	8	3933
2026-01-04 12:23:10.69	342.43	35.28	-23.5	-24.0	19.4	0.00e+00	0	43	102	1048576	8	3798
2026-01-04 12:23:11.70	342.41	35.05	-23.4	-23.8	19.5	0.00e+00	0	43	102	1048576	8	3756
2026-01-04 12:23:12.71	342.40	34.83	-23.5	-23.9	19.4	0.00e+00	0	43	102	1048576	8	3770
2026-01-04 12:23:13.71	342.38	34.60	-23.4	-23.8	19.5	0.00e+00	0	43	102	1048576	8	3757
2026-01-04 12:23:14.71	342.37	34.38	-23.5	-23.9	19.4	0.00e+00	0	43	102	1048576	8	3768
2026-01-04 12:23:15.72	342.36	34.16	-23.6	-24.2	19.3	0.00e+00	0	43	102	1048576	8	3842
2026-01-04 12:23:16.72	342.34	33.94	-23.7	-24.3	19.2	0.00e+00	0	43	102	1048576	8	3878
2026-01-04 12:23:17.73	342.33	33.72	-23.8	-24.6	19.1	0.00e+00	0	43	102	1048576	8	3936
2026-01-04 12:23:18.73	342.32	33.51	-23.9	-24.8	19.0	0.00e+00	0	43	102	1048576	8	3986
2026-01-04 12:23:19.74	342.30	33.29	-24.0	-25.1	18.8	0.00e+00	0	43	102	1048576	8	4062
2026-01-04 12:23:20.74	342.29	33.08	-24.2	-25.5	18.6	0.00e+00	0	43	102	1048576	8	4177
2026-01-04 12:23:21.75	342.28	32.86	-24.3	-25.6	18.6	0.00e+00	0	43	102	1048576	8	4187
2026-01-04 12:23:22.76	342.27	32.65	-24.3	-25.6	18.6	0.00e+00	0	43	102	1048576	8	4182
2026-01-04 12:23:23.77	342.25	32.44	-24.4	-25.8	18.4	0.00e+00	0	43	102	1048576	8	4244
2026-01-04 12:23:24.77	342.24	32.24	-24.3	-25.7	18.5	0.00e+00	0	43	102	1048576	8	4210
2026-01-04 12:23:25.78	342.23	32.03	-24.4	-25.8	18.4	0.00e+00	0	43	102	1048576	8	4231
2026-01-04 12:23:26.79	342.22	31.82	-24.5	-26.0	18.3	0.00e+00	0	43	102	1048576	8	4286
2026-01-04 12:23:27.80	342.21	31.62	-24.4	-25.2	18.5	0.00e+00	0	43	102	1048576	9	3986
2026-01-04 12:23:28.80	342.20	31.42	-24.1	-24.8	18.7	0.00e+00	0	43	102	1048576	9	3880
2026-01-04 12:23:29.81	342.19	31.22	-24.0	-24.4	18.9	0.00e+00	0	43	102	1048576	9	3790
2026-01-04 12:23:30.82	342.17	31.02	-23.9	-24.3	19.0	0.00e+00	0	43	102	1048576	9	3756
2026-01-04 12:23:31.82	342.16	30.82	-23.9	-24.4	18.9	0.00e+00	0	43	102	1048576	9	3777
2026-01-04 12:23:32.83	342.15	30.62	-23.9	-24.3	19.0	0.00e+00	0	43	102	1048576	9	3754
2026-01-04 12:23:33.84	342.14	30.43	-24.1	-24.6	18.7	0.00e+00	0	43	102	1048576	9	3841
2026-01-04 12:23:34.85	342.13	30.23	-23.9	-24.4	18.9	0.00e+00	0	43	102	1048576	9	3773
2026-01-04 12:23:35.85	342.12	30.04	-23.7	-24.4	19.1	0.00e+00	0	43	102	1048576	8	3899
2026-01-04 12:23:36.86	342.11	29.85	-23.9	-24.7	19.0	0.00e+00	0	43	102	1048576	8	3959
2026-01-04 12:23:37.87	342.10	29.66	-23.8	-24.6	19.0	0.00e+00	0	43	102	1048576	8	3941
2026-01-04 12:23:38.87	342.10	29.47	-23.8	-24.5	19.1	0.00e+00	0	43	102	1048576	8	3924
2026-01-04 12:23:39.88	342.09	29.28	-23.9	-24.8	19.0	0.00e+00	0	43	102	1048576	8	3984
2026-01-04 12:23:40.89	342.08	29.10	-23.8	-24.7	19.0	0.00e+00	0	43	102	1048576	8	3960
2026-01-04 12:23:41.89	342.07	28.91	-23.8	-24.6	19.0	0.00e+00	0	43	102	1048576	8	3947
2026-01-04 12:23:42.90	342.06	28.73	-23.8	-24.6	19.0	0.00e+00	0	43	102	1048576	8	3952
2026-01-04 12:23:43.91	342.05	28.55	-23.9	-24.9	18.9	0.00e+00	0	43	102	1048576	8	4008
2026-01-04 12:23:44.91	342.04	28.37	-23.8	-24.7	19.0	0.00e+00	0	43	102	1048576	8	3965
2026-01-04 12:23:45.92	342.03	28.18	-23.9	-24.8	18.9	0.00e+00	0	43	102	1048576	8	3979
2026-01-04 12:23:46.93	342.03	28.01	-24.1	-25.2	18.7	0.00e+00	0	43	102	1048576	8	4089
2026-01-04 12:23:47.94	342.02	27.83	-24.3	-25.7	18.5	0.00e+00	0	43	102	1048576	8	4206
2026-01-04 12:23:48.94	342.01	27.65	-24.1	-25.3	18.7	0.00e+00	0	43	102	1048576	8	4106
2026-01-04 12:23:49.95	342.00	27.47	-24.2	-25.3	18.7	0.00e+00	0	43	102	1048576	8	4115
2026-01-04 12:23:50.96	341.99	27.30	-24.3	-25.7	18.5	0.00e+00	0	43	102	1048576	8	4212
2026-01-04 12:23:51.97	341.99	27.13	-24.2	-25.4	18.6	0.00e+00	0	43	102	1048576	8	4138
2026-01-04 12:23:52.97	341.98	26.95	-24.2	-25.4	18.5	0.00e+00	0	43	102	1048576	8	4146
2026-01-04 12:23:53.98	341.97	26.78	-24.3	-25.7	18.4	0.00e+00	0	43	102	1048576	8	4220
2026-01-04 12:23:54.99	341.97	26.61	-24.3	-25.6	18.5	0.00e+00	0	43	102	1048576	8	4191
2026-01-04 12:23:55.99	341.96	26.44	-24.8	-26.1	18.0	0.00e+00	0	43	102	1048576	9	4199
2026-01-04 12:23:57.00	341.95	26.28	-24.7	-25.9	18.0	0.00e+00	0	43	102	1048576	9	4154
2026-01-04 12:23:58.00	341.94	26.11	-24.4	-25.4	18.3	0.00e+00	0	43	102	1048576	9	4016
2026-01-04 12:23:59.01	341.94	25.94	-24.2	-25.0	18.5	0.00e+00	0	43	102	1048576	9	3932
2026-01-04 12:24:00.01	341.93	25.78	-24.2	-24.8	18.6	0.00e+00	0	43	102	1048576	9	3897
2026-01-04 12:24:01.02	341.92	25.61	-24.1	-24.7	18.6	0.00e+00	0	43	102	1048576	9	3872
2026-01-04 12:24:02.02	341.92	25.45	-24.2	-25.0	18.5	0.00e+00	0	43	102	1048576	9	3928
2026-01-04 12:24:03.03	341.91	25.29	-24.3	-25.3	18.4	0.00e+00	0	43	102	1048576	9	3998
2026-01-04 12:24:04.04	341.91	25.13	-24.2	-25.0	18.5	0.00e+00	0	43	102	1048576	9	3941
2026-01-04 12:24:05.05	341.90	24.97	-24.3	-25.2	18.4	0.00e+00	0	43	102	1048576	9	3973
2026-01-04 12:24:06.05	341.89	24.81	-24.5	-25.6	18.2	0.00e+00	0	43	102	1048576	9	4068
2026-01-04 12:24:07.06	341.89	24.65	-24.3	-25.2	18.4	0.00e+00	0	43	102	1048576	9	3971
2026-01-04 12:24:08.07	341.88	24.49	-24.3	-25.1	18.4	0.00e+00	0	43	102	1048576	9	3960
2026-01-04 12:24:09.07	341.88	24.34	-24.4	-25.3	18.3	0.00e+00	0	43	102	1048576	9	4010
2026-01-04 12:24:10.08	341.87	24.18	-24.3	-25.2	18.4	0.00e+00	0	43	102	1048576	9	3971
2026-01-04 12:24:11.09	341.87	24.03	-24.4	-25.3	18.3	0.00e+00	0	43	102	1048576	9	4016
2026-01-04 12:24:12.10	341.86	23.87	-24.6	-25.7	18.1	0.00e+00	0	43	102	1048576	9	4112
2026-01-04 12:24:13.10	341.85	23.72	-24.5	-25.6	18.1	0.00e+00	0	43	102	1048576	9	4075
2026-01-04 12:24:14.11	341.85	23.57	-24.6	-25.8	18.0	0.00e+00	0	43	102	1048576	9	4135
2026-01-04 12:24:15.11	341.84	23.42	-24.6	-25.8	18.0	0.00e+00	0	43	102	1048576	9	4120
2026-01-04 12:24:16.12	341.84	23.27	-24.7	-26.1	17.9	0.00e+00	0	43	102	1048576	9	4195
2026-01-04 12:24:17.12	341.83	23.12	-24.9	-26.4	17.7	0.00e+00	0	43	102	1048576	9	4287
2026-01-04 12:24:18.13	341.83	22.97	-24.8	-26.2	17.8	0.00e+00	0	43	102	1048576	9	4239
2026-01-04 12:24:19.14	341.83	22.83	-24.9	-26.4	17.7	0.00e+00	0	43	102	1048576	9	4286
2026-01-04 12:24:20.14	341.82	22.68	-24.9	-26.4	17.7	0.00e+00	0	43	102	1048576	9	4270
2026-01-04 12:24:21.15	341.82	22.53	-25.0	-26.6	17.6	0.00e+00	0	43	102	1048576	9	4330
2026-01-04 12:24:22.16	341.81	22.39	-25.0	-26.5	17.6	0.00e+00	0	43	102	1048576	9	4322
2026-01-04 12:24:23.17	341.81	22.25	-25.3	-26.8	17.2	0.00e+00	0	43	102	1048576	10	4284
2026-01-04 12:24:24.17	341.80	22.10	-25.2	-26.6	17.3	0.00e+00	0	43	102	1048576	10	4208
2026-01-04 12:24:25.17	341.80	21.96	-25.4	-27.0	17.1	0.00e+00	0	43	102	1048576	10	4317
2026-01-04 12:24:26.18	341.79	21.82	-25.3	-26.7	17.3	0.00e+00	0	43	102	1048576	10	4243
2026-01-04 12:24:27.19	341.79	21.68	-25.4	-27.1	17.1	0.00e+00	0	43	102	1048576	10	4348
2026-01-04 12:24:28.20	341.79	21.54	-25.4	-26.9	17.1	0.00e+00	0	43	102	1048576	10	4297
2026-01-04 12:24:29.20	341.78	21.40	-25.5	-27.2	17.0	0.00e+00	0	43	102	1048576	10	4384
2026-01-04 12:24:30.21	341.78	21.26	-25.6	-26.9	16.8	0.00e+00	0	43	102	1048576	11	4197
2026-01-04 12:24:31.21	341.77	21.12	-25.7	-27.1	16.8	0.00e+00	0	43	102	1048576	11	4232
2026-01-04 12:24:32.22	341.77	20.99	-25.6	-26.9	16.9	0.00e+00	0	43	102	1048576	11	4188
2026-01-04 12:24:33.22	341.77	20.85	-25.5	-26.7	17.0	0.00e+00	0	43	102	1048576	11	4143
2026-01-04 12:24:34.23	341.76	20.72	-25.7	-27.0	16.8	0.00e+00	0	43	102	1048576	11	4226
2026-01-04 12:24:35.24	341.76	20.58	-25.6	-27.0	16.8	0.00e+00	0	43	102	1048576	11	4205
2026-01-04 12:24:36.24	341.76	20.45	-25.4	-26.5	17.0	0.00e+00	0	43	102	1048576	11	4091
2026-01-04 12:24:37.25	341.75	20.31	-25.3	-26.2	17.3	0.00e+00	0	43	102	1048576	11	3996
2026-01-04 12:24:38.25	341.75	20.18	-25.1	-25.8	17.4	0.00e+00	0	43	102	1048576	11	3912
2026-01-04 12:24:39.26	341.75	20.05	-25.0	-25.6	17.5	0.00e+00	0	43	102	1048576	11	3872
2026-01-04 12:24:40.27	341.74	19.92	-25.0	-25.7	17.5	0.00e+00	0	43	102	1048576	11	3880
2026-01-04 12:24:41.28	341.74	19.79	-25.1	-25.8	17.4	0.00e+00	0	43	102	1048576	11	3916
2026-01-04 12:24:42.28	341.74	19.66	-25.1	-25.8	17.4	0.00e+00	0	43	102	1048576	11	3905
2026-01-04 12:24:43.28	341.73	19.53	-25.2	-26.0	17.3	0.00e+00	0	43	102	1048576	11	3952
2026-01-04 12:24:44.29	341.73	19.40	-25.3	-26.3	17.2	0.00e+00	0	43	102	1048576	11	4029
2026-01-04 12:24:45.29	341.73	19.27	-25.1	-25.9	17.3	0.00e+00	0	43	102	1048576	11	3937
2026-01-04 12:24:46.30	341.72	19.15	-25.1	-25.9	17.3	0.00e+00	0	43	102	1048576	11	3941
2026-01-04 12:24:47.31	341.72	19.02	-25.2	-26.0	17.3	0.00e+00	0	43	102	1048576	11	3964
2026-01-04 12:24:48.32	341.72	18.89	-25.2	-26.0	17.3	0.00e+00	0	43	102	1048576	11	3952
2026-01-04 12:24:49.32	341.72	18.77	-25.2	-26.0	17.3	0.00e+00	0	43	102	1048576	11	3962
2026-01-04 12:24:50.32	341.71	18.64	-25.2	-26.1	17.2	0.00e+00	0	43	102	1048576	11	3988
2026-01-04 12:24:51.33	341.71	18.52	-25.3	-26.2	17.2	0.00e+00	0	43	102	1048576	11	4003
2026-01-04 12:24:52.34	341.71	18.40	-25.3	-26.3	17.1	0.00e+00	0	43	102	1048576	11	4039
2026-01-04 12:24:53.35	341.71	18.27	-25.4	-26.5	17.0	0.00e+00	0	43	102	1048576	11	4091
2026-01-04 12:24:54.35	341.70	18.15	-25.4	-26.5	17.0	0.00e+00	0	43	102	1048576	11	4095
2026-01-04 12:24:55.36	341.70	18.03	-25.5	-26.8	16.8	0.00e+00	0	43	102	1048576	11	4163
2026-01-04 12:24:56.37	341.70	17.91	-25.6	-26.9	16.8	0.00e+00	0	43	102	1048576	11	4179
2026-01-04 12:24:57.37	341.70	17.79	-25.6	-27.0	16.7	0.00e+00	0	43	102	1048576	11	4204
2026-01-04 12:24:58.37	341.69	17.67	-25.7	-27.1	16.6	0.00e+00	0	43	102	1048576	11	4246
2026-01-04 12:24:59.37	341.69	17.55	-25.7	-27.1	16.6	0.00e+00	0	43	102	1048576	11	4248
2026-01-04 12:25:00.37	341.69	17.43	-25.8	-27.3	16.5	0.00e+00	0	43	102	1048576	11	4304
2026-01-04 12:25:01.38	341.69	17.32	-25.8	-27.4	16.5	0.00e+00	0	43	102	1048576	11	4314
2026-01-04 12:25:02.39	341.69	17.20	-25.9	-27.1	16.3	0.00e+00	0	43	102	1048576	12	4136
2026-01-04 12:25:03.39	341.68	17.08	-25.8	-26.9	16.4	0.00e+00	0	43	102	1048576	12	4075
2026-01-04 12:25:04.40	341.68	16.97	-25.7	-26.7	16.5	0.00e+00	0	43	102	1048576	12	4022
2026-01-04 12:25:05.41	341.68	16.85	-25.6	-26.4	16.6	0.00e+00	0	43	102	1048576	12	3971
2026-01-04 12:25:06.42	341.68	16.73	-25.6	-26.5	16.6	0.00e+00	0	43	102	1048576	12	3994
2026-01-04 12:25:07.42	341.68	16.62	-25.6	-26.5	16.6	0.00e+00	0	43	102	1048576	12	3986
2026-01-04 12:25:08.43	341.67	16.51	-25.7	-26.6	16.6	0.00e+00	0	43	102	1048576	12	4005
2026-01-04 12:25:09.44	341.67	16.39	-25.7	-26.7	16.5	0.00e+00	0	43	102	1048576	12	4024
2026-01-04 12:25:10.44	341.67	16.28	-25.7	-26.6	16.5	1.10e-06	0	43	102	1048576	12	3997
2026-01-04 12:25:11.44	341.67	16.17	-25.7	-26.7	16.5	0.00e+00	0	43	102	1048576	12	4038
2026-01-04 12:25:12.45	341.67	16.05	-25.7	-26.7	16.5	0.00e+00	0	43	102	1048576	12	4037
2026-01-04 12:25:13.46	341.67	15.94	-25.9	-27.0	16.3	0.00e+00	0	43	102	1048576	12	4110
2026-01-04 12:25:14.47	341.66	15.83	-26.0	-27.3	16.1	0.00e+00	0	43	102	1048576	12	4178
2026-01-04 12:25:15.48	341.66	15.72	-26.0	-27.3	16.1	0.00e+00	0	43	102	1048576	12	4196
2026-01-04 12:25:16.48	341.66	15.61	-26.0	-27.4	16.1	0.00e+00	0	43	102	1048576	12	4212
2026-01-04 12:25:17.49	341.66	15.50	-26.0	-27.4	16.0	0.00e+00	0	43	102	1048576	12	4217
2026-01-04 12:25:18.50	341.66	15.39	-26.1	-27.5	16.0	0.00e+00	0	43	102	1048576	12	4237
2026-01-04 12:25:19.50	341.66	15.28	-26.1	-27.6	16.0	0.00e+00	0	43	102	1048576	12	4254
2026-01-04 12:25:20.51	341.66	15.18	-26.1	-27.6	15.9	0.00e+00	0	43	102	1048576	12	4275
2026-01-04 12:25:21.52	341.66	15.07	-26.1	-27.4	16.0	0.00e+00	0	43	102	1048576	12	4225
2026-01-04 12:25:22.53	341.65	14.96	-26.0	-27.2	16.1	0.00e+00	0	43	102	1048576	12	4166
2026-01-04 12:25:23.53	341.65	14.85	-25.9	-27.2	16.1	0.00e+00	0	43	102	1048576	12	4155
2026-01-04 12:25:24.54	341.65	14.75	-26.0	-27.3	16.1	0.00e+00	0	43	102	1048576	12	4190
2026-01-04 12:25:25.55	341.65	14.64	-26.0	-27.4	16.0	0.00e+00	0	43	102	1048576	12	4207
2026-01-04 12:25:26.56	341.65	14.54	-26.0	-27.4	16.0	0.00e+00	0	43	102	1048576	12	4201
2026-01-04 12:25:27.57	341.65	14.43	-26.1	-27.5	15.9	0.00e+00	0	43	102	1048576	12	4245
2026-01-04 12:25:28.57	341.65	14.33	-26.1	-27.6	15.9	0.00e+00	0	43	102	1048576	12	4257
2026-01-04 12:25:29.57	341.65	14.22	-26.1	-27.6	15.9	0.00e+00	0	43	102	1048576	12	4267
2026-01-04 12:25:30.58	341.65	14.12	-26.1	-27.6	15.9	0.00e+00	0	43	102	1048576	12	4273
2026-01-04 12:25:31.58	341.65	14.02	-26.1	-27.6	15.9	1.10e-06	0	43	102	1048576	12	4262
2026-01-04 12:25:32.59	341.64	13.92	-26.1	-27.5	15.9	0.00e+00	0	43	102	1048576	12	4247
2026-01-04 12:25:33.59	341.64	13.81	-26.2	-27.7	15.8	0.00e+00	0	43	102	1048576	12	4297
2026-01-04 12:25:34.60	341.64	13.71	-26.2	-27.8	15.8	0.00e+00	0	43	102	1048576	12	4317
2026-01-04 12:25:35.61	341.64	13.61	-26.3	-27.9	15.7	0.00e+00	0	43	102	1048576	12	4360
2026-01-04 12:25:36.62	341.64	13.51	-26.2	-27.9	15.7	0.00e+00	0	43	102	1048576	12	4338
2026-01-04 12:25:37.63	341.64	13.41	-26.3	-27.9	15.7	0.00e+00	0	43	102	1048576	12	4358
2026-01-04 12:25:38.63	341.64	13.31	-26.3	-28.0	15.6	0.00e+00	0	43	102	1048576	12	4380
2026-01-04 12:25:39.63	341.64	13.21	-26.3	-28.1	15.6	0.00e+00	0	43	102	1048576	12	4394
2026-01-04 12:25:40.63	341.64	13.11	-26.4	-28.2	15.5	0.00e+00	0	43	102	1048576	12	4434
2026-01-04 12:25:41.64	341.64	13.01	-26.4	-28.2	15.5	0.00e+00	0	43	102	1048576	12	4442
2026-01-04 12:25:42.65	341.64	12.91	-26.5	-28.0	15.3	0.00e+00	0	43	102	1048576	13	4274
2026-01-04 12:25:43.66	341.64	12.82	-26.8	-28.6	15.0	0.00e+00	0	43	102	1048576	13	4432
2026-01-04 12:25:44.66	341.64	12.72	-26.9	-28.8	14.8	0.00e+00	0	43	102	1048576	13	4491
2026-01-04 12:25:45.67	341.64	12.62	-26.9	-28.9	14.8	3.40e-06	0	43	102	1048576	13	4518
2026-01-04 12:25:46.68	341.64	12.52	-27.0	-29.0	14.7	2.20e-06	0	43	102	1048576	13	4556
2026-01-04 12:25:47.69	341.64	12.43	-27.0	-28.5	14.7	2.20e-06	0	43	102	1048576	14	4288
2026-01-04 12:25:48.70	341.64	12.33	-27.0	-28.7	14.7	1.10e-06	0	43	102	1048576	14	4338
2026-01-04 12:25:49.70	341.64	12.24	-27.1	-28.8	14.6	0.00e+00	0	43	102	1048576	14	4377
2026-01-04 12:25:50.70	341.64	12.14	-27.2	-29.0	14.5	1.10e-06	0	43	102	1048576	14	4430
2026-01-04 12:25:51.71	341.64	12.05	-27.2	-29.0	14.5	1.10e-06	0	43	102	1048576	14	4424
2026-01-04 12:25:52.72	341.64	11.95	-27.3	-29.3	14.3	0.00e+00	0	43	102	1048576	14	4519
2026-01-04 12:25:53.73	341.64	11.86	-27.4	-29.5	14.2	0.00e+00	0	43	102	1048576	14	4575
2026-01-04 12:25:54.74	341.64	11.76	-27.4	-29.6	14.1	1.10e-06	0	43	102	1048576	14	4603
2026-01-04 12:25:55.75	341.63	11.67	-27.4	-29.1	14.1	6.80e-06	0	44	102	1048576	15	4350
2026-01-04 12:25:56.75	341.63	11.58	-27.3	-28.7	14.3	2.20e-06	0	43	102	1048576	15	4253
2026-01-04 12:25:57.76	341.63	11.48	-27.1	-28.3	14.6	0.00e+00	0	43	102	1048576	15	4123
2026-01-04 12:25:58.77	341.63	11.39	-26.9	-28.0	14.7	0.00e+00	0	43	102	1048576	15	4051
2026-01-04 12:25:59.77	341.63	11.30	-26.8	-27.7	14.8	0.00e+00	0	43	102	1048576	15	3994
2026-01-04 12:26:00.77	341.63	11.21	-26.8	-27.6	14.9	1.10e-06	0	43	102	1048576	15	3951
2026-01-04 12:26:01.78	341.63	11.12	-26.8	-28.2	14.8	0.00e+00	0	44	102	1048576	14	4220
2026-01-04 12:26:02.79	341.64	11.02	-26.8	-28.2	14.8	1.10e-06	0	43	102	1048576	14	4217
2026-01-04 12:26:03.80	341.64	10.93	-26.9	-28.3	14.8	0.00e+00	0	43	102	1048576	14	4255
2026-01-04 12:26:04.80	341.64	10.84	-26.9	-28.3	14.8	1.10e-06	0	43	102	1048576	14	4243
2026-01-04 12:26:05.81	341.64	10.75	-26.9	-28.4	14.7	1.10e-06	0	43	102	1048576	14	4261
2026-01-04 12:26:06.82	341.64	10.66	-26.9	-28.4	14.7	0.00e+00	0	43	102	1048576	14	4260
2026-01-04 12:26:07.83	341.64	10.57	-26.9	-28.5	14.7	0.00e+00	0	43	102	1048576	14	4288
2026-01-04 12:26:08.83	341.64	10.49	-26.9	-28.4	14.7	1.10e-06	0	43	102	1048576	14	4263
2026-01-04 12:26:09.85	341.64	10.40	-27.0	-28.5	14.6	2.20e-06	0	43	102	1048576	14	4298
2026-01-04 12:26:10.85	341.64	10.31	-26.9	-28.4	14.7	2.20e-06	0	43	102	1048576	14	4282
2026-01-04 12:26:11.85	341.64	10.22	-27.0	-28.6	14.6	0.00e+00	0	43	102	1048576	14	4315
2026-01-04 12:26:12.86	341.64	10.13	-27.0	-28.6	14.6	0.00e+00	0	43	102	1048576	14	4328
2026-01-04 12:26:13.87	341.64	10.04	-27.1	-28.8	14.4	1.10e-06	0	43	102	1048576	14	4389
2026-01-04 12:26:14.88	341.64	9.96	-27.0	-28.7	14.5	0.00e+00	0	43	102	1048576	14	4359
2026-01-04 12:26:15.90	341.64	9.87	-27.1	-28.8	14.4	0.00e+00	0	43	102	1048576	14	4376
2026-01-04 12:26:16.90	341.64	9.78	-27.2	-29.0	14.3	0.00e+00	0	43	102	1048576	14	4444
2026-01-04 12:26:17.91	341.64	9.70	-27.2	-29.0	14.3	1.10e-06	0	43	102	1048576	14	4453
2026-01-04 12:26:18.92	341.64	9.61	-27.2	-29.1	14.2	1.10e-06	0	43	102	1048576	14	4468
2026-01-04 12:26:19.92	341.64	9.53	-27.2	-29.1	14.2	5.70e-06	0	43	102	1048576	14	4480
