passes_logs/2026/01/04/R2M6_AANII_01/R2M6_AANII_01__20260104_033238_AQUA_rec.log

#Pass ID: 20260104_033238_AQUA
#Satellite: AQUA
#Configuration: AQUA
#almurnet v.1.7.20240730
#Start time: 2026-01-04 03:32:40

#Version: 2.2.20231116
#Station: R2M6_AANII_01
#Location: 30.233357 lon 59.946436 lat
#TLE: 1 27424U 02022A   25365.92641127  .00002078  00000+0  42628-3 0  9999
#TLE: 2 27424  98.4058 327.1196 0001962  94.7781 340.6230 14.61783896258835

#Time	Az	El	Level	Level2	SNR	BER	BlckErr	Temp	State	Recorded	gain1	gain2
2026-01-04 03:32:40.28	7.07	7.11	-32.5	-48.0	3.8	7.42e-01	0	40	0	0	26	21446
2026-01-04 03:32:41.29	6.97	7.18	-32.3	-47.7	3.8	7.45e-01	0	40	104	0	25	21200
2026-01-04 03:32:42.29	6.88	7.25	-32.3	-47.8	3.8	7.46e-01	0	41	104	0	25	21427
2026-01-04 03:32:43.30	6.78	7.32	-32.4	-48.2	3.8	7.44e-01	0	40	104	0	25	22034
2026-01-04 03:32:44.31	6.68	7.39	-32.5	-48.4	3.8	7.43e-01	0	41	104	0	25	22542
2026-01-04 03:32:45.32	6.58	7.46	-32.5	-48.5	3.8	7.43e-01	0	40	104	0	25	22614
2026-01-04 03:32:46.31	6.48	7.53	-32.4	-47.8	3.8	7.45e-01	0	41	104	0	25	21292
2026-01-04 03:32:47.32	6.38	7.61	-32.1	-47.0	3.8	7.46e-01	0	41	104	0	25	19816
2026-01-04 03:32:48.33	6.28	7.68	-32.0	-46.8	3.9	7.42e-01	0	40	104	0	24	19879
2026-01-04 03:32:49.34	6.18	7.75	-31.8	-46.3	3.8	7.44e-01	0	41	104	0	24	19111
2026-01-04 03:32:50.34	6.08	7.82	-31.7	-45.9	3.8	7.45e-01	0	41	104	0	24	18467
2026-01-04 03:32:51.34	5.98	7.89	-31.8	-46.1	3.8	7.44e-01	0	41	104	0	24	18681
2026-01-04 03:32:52.35	5.88	7.96	-31.9	-46.4	3.8	7.43e-01	0	41	104	0	24	19155
2026-01-04 03:32:53.36	5.77	8.04	-31.6	-45.4	3.8	7.48e-01	0	41	104	0	24	17662
2026-01-04 03:32:54.36	5.67	8.11	-31.3	-45.0	3.8	7.45e-01	0	41	104	0	23	17530
2026-01-04 03:32:55.37	5.57	8.18	-31.1	-44.5	3.8	7.44e-01	0	41	104	0	23	16766
2026-01-04 03:32:56.38	5.46	8.25	-31.0	-44.1	3.8	7.48e-01	0	41	104	0	23	16338
2026-01-04 03:32:57.39	5.35	8.33	-30.9	-44.3	3.8	7.43e-01	0	41	104	0	22	16836
2026-01-04 03:32:58.39	5.25	8.40	-31.0	-44.6	3.8	7.45e-01	0	41	104	0	22	17297
2026-01-04 03:32:59.40	5.14	8.47	-31.2	-44.6	3.8	7.46e-01	0	41	104	0	23	16958
2026-01-04 03:33:00.39	5.04	8.54	-31.4	-45.3	3.8	7.48e-01	0	41	104	0	23	17932
2026-01-04 03:33:01.40	4.93	8.62	-31.7	-45.7	3.8	7.44e-01	0	41	104	0	24	18095
2026-01-04 03:33:02.41	4.82	8.69	-31.9	-46.5	3.8	7.47e-01	0	41	104	0	24	19353
2026-01-04 03:33:03.41	4.71	8.76	-32.0	-47.1	3.8	7.47e-01	0	41	104	0	24	20260
2026-01-04 03:33:04.42	4.60	8.84	-32.0	-47.0	3.8	7.41e-01	0	41	104	0	24	20246
2026-01-04 03:33:05.43	4.49	8.91	-32.1	-47.2	3.8	7.46e-01	0	41	104	0	24	20422
2026-01-04 03:33:06.44	4.38	8.98	-32.1	-46.8	3.8	7.43e-01	0	41	104	0	25	19565
2026-01-04 03:33:07.45	4.27	9.06	-32.2	-47.0	3.8	7.46e-01	0	41	104	0	25	19901
2026-01-04 03:33:08.45	4.15	9.13	-32.3	-47.4	3.8	7.43e-01	0	41	104	0	25	20523
2026-01-04 03:33:09.45	4.04	9.21	-32.4	-47.8	3.8	7.43e-01	0	41	104	0	25	21323
2026-01-04 03:33:10.46	3.93	9.28	-32.6	-48.6	3.8	7.46e-01	0	41	104	0	25	22729
2026-01-04 03:33:11.47	3.81	9.35	-32.8	-48.8	3.8	7.46e-01	0	41	104	0	26	22816
2026-01-04 03:33:12.47	3.70	9.43	-32.9	-49.5	3.8	7.45e-01	0	41	104	0	26	24448
2026-01-04 03:33:13.48	3.58	9.50	-33.0	-50.2	3.8	7.46e-01	0	41	104	0	26	25877
2026-01-04 03:33:14.49	3.47	9.58	-33.1	-50.2	3.8	7.46e-01	0	41	104	0	27	25788
2026-01-04 03:33:15.49	3.35	9.65	-33.2	-50.7	3.8	7.47e-01	0	41	104	0	27	26801
2026-01-04 03:33:16.50	3.23	9.73	-33.2	-50.7	3.8	7.44e-01	0	41	104	0	27	26839
2026-01-04 03:33:17.51	3.11	9.81	-33.2	-50.4	3.8	7.45e-01	0	41	104	0	27	26068
2026-01-04 03:33:18.51	3.00	9.88	-33.2	-50.2	3.8	7.46e-01	0	42	104	0	27	25499
2026-01-04 03:33:19.52	2.88	9.96	-33.1	-49.9	3.8	7.44e-01	0	41	104	0	27	24930
2026-01-04 03:33:20.52	2.76	10.03	-33.1	-49.8	3.8	7.43e-01	0	42	104	0	27	24505
2026-01-04 03:33:21.53	2.63	10.11	-33.1	-50.1	3.8	7.47e-01	0	42	104	0	26	25524
2026-01-04 03:33:22.53	2.51	10.18	-33.0	-49.9	3.8	7.46e-01	0	42	104	0	26	25189
2026-01-04 03:33:23.54	2.39	10.26	-33.0	-49.5	3.8	7.42e-01	0	42	104	0	26	24108
2026-01-04 03:33:24.55	2.27	10.34	-32.8	-48.9	3.8	7.44e-01	0	41	104	0	26	22945
2026-01-04 03:33:25.56	2.14	10.41	-32.6	-48.1	3.8	7.42e-01	0	42	104	0	26	21326
2026-01-04 03:33:26.57	2.02	10.49	-32.4	-47.2	3.8	7.47e-01	0	42	104	0	26	19683
2026-01-04 03:33:27.58	1.89	10.57	-32.2	-46.7	3.8	7.45e-01	0	41	104	0	25	19234
2026-01-04 03:33:28.58	1.77	10.64	-32.0	-46.2	3.8	7.43e-01	0	42	104	0	25	18334
2026-01-04 03:33:29.59	1.64	10.72	-32.1	-46.4	3.8	7.45e-01	0	42	104	0	25	18675
2026-01-04 03:33:30.59	1.51	10.80	-32.2	-46.6	3.8	7.48e-01	0	42	104	0	25	19068
2026-01-04 03:33:31.60	1.38	10.88	-32.3	-47.2	3.8	7.45e-01	0	41	104	0	25	19941
2026-01-04 03:33:32.61	1.25	10.95	-32.5	-47.7	3.8	7.46e-01	0	42	104	0	25	20864
2026-01-04 03:33:33.61	1.13	11.03	-32.7	-48.0	3.8	7.46e-01	0	42	104	0	26	21023
2026-01-04 03:33:34.62	0.99	11.11	-32.7	-47.9	3.8	7.43e-01	0	42	104	0	26	20876
2026-01-04 03:33:35.63	0.86	11.19	-32.4	-47.3	3.8	7.45e-01	0	42	104	0	25	20108
2026-01-04 03:33:36.64	0.73	11.27	-32.2	-46.8	3.8	7.44e-01	0	42	104	0	25	19240
2026-01-04 03:33:37.65	0.60	11.34	-32.0	-45.9	3.8	7.46e-01	0	42	104	0	25	17977
2026-01-04 03:33:38.66	0.46	11.42	-31.8	-45.4	3.8	7.41e-01	0	42	104	0	25	17222
2026-01-04 03:33:39.67	0.33	11.50	-31.7	-45.5	3.8	7.46e-01	0	42	104	0	24	17596
2026-01-04 03:33:40.67	0.19	11.58	-31.6	-45.3	3.8	7.44e-01	0	42	104	0	24	17319
2026-01-04 03:33:41.68	0.06	11.66	-31.4	-45.0	3.8	7.47e-01	0	42	104	0	23	17347
2026-01-04 03:33:42.68	359.92	11.74	-31.1	-44.2	3.8	7.46e-01	0	42	104	0	23	16240
2026-01-04 03:33:43.69	359.78	11.82	-30.8	-43.3	3.8	7.45e-01	0	42	104	0	23	15225
2026-01-04 03:33:44.70	359.64	11.89	-30.6	-43.3	3.8	7.46e-01	0	42	104	0	22	15582
2026-01-04 03:33:45.71	359.50	11.97	-30.4	-43.3	3.8	7.44e-01	0	42	104	0	21	15940
2026-01-04 03:33:46.71	359.36	12.05	-30.3	-43.2	3.8	7.47e-01	0	42	104	0	21	15780
2026-01-04 03:33:47.72	359.22	12.13	-30.4	-43.3	3.8	7.41e-01	0	42	104	0	21	15898
2026-01-04 03:33:48.72	359.08	12.21	-30.5	-43.6	3.8	7.45e-01	0	42	104	0	21	16264
2026-01-04 03:33:49.73	358.94	12.29	-30.8	-44.0	3.8	7.46e-01	0	42	104	0	22	16352
2026-01-04 03:33:50.74	358.79	12.37	-31.1	-44.7	3.8	7.44e-01	0	42	104	0	22	17214
2026-01-04 03:33:51.75	358.65	12.45	-31.4	-45.2	3.8	7.47e-01	0	42	104	0	23	17508
2026-01-04 03:33:52.76	358.50	12.53	-31.8	-45.7	3.8	7.43e-01	0	42	104	0	24	17974
2026-01-04 03:33:53.77	358.36	12.61	-31.9	-46.1	3.8	7.43e-01	0	42	104	0	24	18573
2026-01-04 03:33:54.77	358.21	12.69	-31.9	-46.3	3.8	7.43e-01	0	42	104	0	24	18873
2026-01-04 03:33:55.77	358.06	12.77	-32.1	-46.7	3.8	7.44e-01	0	42	104	0	24	19459
2026-01-04 03:33:56.78	357.91	12.85	-32.2	-46.6	3.8	7.48e-01	0	42	104	0	25	18913
2026-01-04 03:33:57.78	357.77	12.93	-32.3	-47.2	3.8	7.45e-01	0	42	104	0	25	19860
2026-01-04 03:33:58.79	357.61	13.02	-32.3	-46.9	3.8	7.45e-01	0	42	104	0	25	19440
2026-01-04 03:33:59.80	357.46	13.10	-32.1	-46.4	3.8	7.45e-01	0	42	104	0	25	18643
2026-01-04 03:34:00.80	357.31	13.18	-32.3	-47.1	3.8	7.45e-01	0	42	104	0	25	19786
2026-01-04 03:34:01.81	357.16	13.26	-32.6	-48.2	3.8	7.43e-01	0	42	104	0	25	21619
2026-01-04 03:34:02.82	357.00	13.34	-32.9	-48.7	3.8	7.44e-01	0	42	104	0	26	22182
2026-01-04 03:34:03.82	356.85	13.42	-33.0	-49.4	3.8	7.45e-01	0	42	104	0	26	23686
2026-01-04 03:34:04.83	356.69	13.50	-33.2	-49.5	3.8	7.45e-01	0	42	104	0	27	23628
2026-01-04 03:34:05.83	356.53	13.58	-33.3	-50.0	3.8	7.47e-01	0	42	104	0	27	24831
2026-01-04 03:34:06.85	356.37	13.67	-33.2	-49.9	3.8	7.46e-01	0	42	104	0	27	24523
2026-01-04 03:34:07.85	356.22	13.75	-33.2	-49.6	3.8	7.42e-01	0	42	104	0	27	23868
2026-01-04 03:34:08.86	356.06	13.83	-33.2	-49.4	3.8	7.46e-01	0	42	104	0	27	23363
2026-01-04 03:34:09.86	355.90	13.91	-33.1	-49.3	3.8	7.48e-01	0	42	104	0	27	23143
2026-01-04 03:34:10.87	355.73	13.99	-33.1	-49.3	3.8	7.42e-01	0	42	104	0	27	23074
2026-01-04 03:34:11.88	355.57	14.08	-33.2	-49.3	3.8	7.46e-01	0	42	104	0	27	23100
2026-01-04 03:34:12.88	355.41	14.16	-33.1	-49.1	3.8	7.42e-01	0	42	104	0	27	22784
2026-01-04 03:34:13.89	355.24	14.24	-33.0	-48.7	3.8	7.44e-01	0	42	104	0	27	21855
2026-01-04 03:34:14.90	355.08	14.32	-32.9	-48.6	3.8	7.42e-01	0	42	104	0	26	21935
2026-01-04 03:34:15.91	354.91	14.40	-32.7	-47.8	3.8	7.45e-01	0	42	104	0	26	20600
2026-01-04 03:34:16.91	354.74	14.49	-32.4	-46.9	3.8	7.46e-01	0	42	104	0	26	19015
2026-01-04 03:34:17.91	354.57	14.57	-32.1	-46.1	3.8	7.46e-01	0	42	104	0	25	18174
2026-01-04 03:34:18.93	354.40	14.65	-32.2	-46.6	3.8	7.41e-01	0	42	104	0	25	18880
2026-01-04 03:34:19.93	354.23	14.73	-32.4	-47.1	3.8	7.46e-01	0	43	104	0	25	19519
2026-01-04 03:34:20.94	354.06	14.82	-32.6	-47.5	3.8	7.46e-01	0	42	104	0	26	20012
2026-01-04 03:34:21.94	353.89	14.90	-32.9	-48.5	3.8	7.44e-01	0	42	104	0	26	21768
2026-01-04 03:34:22.95	353.71	14.98	-32.7	-47.8	3.8	7.44e-01	0	42	104	0	26	20377
2026-01-04 03:34:23.96	353.54	15.07	-32.4	-46.8	3.8	7.47e-01	0	42	104	0	26	18732
2026-01-04 03:34:24.96	353.36	15.15	-32.1	-37.2	6.0	6.58e-01	0	42	104	0	25	6506
2026-01-04 03:34:25.97	353.18	15.23	-31.8	-36.1	15.6	6.04e-01	0	42	0	0	25	5909
2026-01-04 03:34:26.97	353.01	15.31	-31.5	-35.6	16.3	6.04e-01	0	42	102	524288	24	5805
2026-01-04 03:34:27.97	352.83	15.40	-31.2	-35.3	16.8	6.02e-01	0	42	102	524288	23	5778
2026-01-04 03:34:28.97	352.65	15.48	-31.0	-34.7	17.3	6.01e-01	0	42	102	524288	23	5485
2026-01-04 03:34:29.98	352.47	15.56	-30.8	-34.7	17.6	6.03e-01	0	42	102	524288	22	5607
2026-01-04 03:34:30.99	352.28	15.65	-31.0	-35.0	17.5	6.03e-01	0	42	102	524288	22	5745
2026-01-04 03:34:31.99	352.10	15.73	-31.3	-35.4	16.9	6.03e-01	0	42	102	524288	23	5803
2026-01-04 03:34:33.00	351.91	15.81	-30.9	-34.4	17.5	6.04e-01	0	42	102	524288	23	5371
2026-01-04 03:34:34.01	351.73	15.90	-30.6	-34.1	18.0	6.04e-01	0	43	102	524288	22	5362
2026-01-04 03:34:35.02	351.54	15.98	-30.5	-33.6	18.4	6.03e-01	0	42	102	524288	22	5158
2026-01-04 03:34:36.03	351.35	16.06	-30.3	-33.6	18.6	6.03e-01	0	42	102	524288	21	5279
2026-01-04 03:34:37.03	351.16	16.15	-30.2	-33.4	18.8	6.02e-01	0	42	102	524288	21	5186
2026-01-04 03:34:38.04	350.97	16.23	-30.4	-33.9	18.4	6.02e-01	0	42	102	524288	21	5401
2026-01-04 03:34:39.05	350.78	16.31	-30.1	-33.2	18.9	6.04e-01	0	42	102	524288	21	5117
2026-01-04 03:34:40.06	350.58	16.40	-29.9	-33.2	19.2	6.01e-01	0	42	102	524288	20	5233
2026-01-04 03:34:41.06	350.39	16.48	-30.1	-33.2	18.9	6.01e-01	0	42	102	524288	21	5132
2026-01-04 03:34:42.07	350.20	16.56	-30.0	-32.8	19.1	6.02e-01	0	42	102	524288	21	4975
2026-01-04 03:34:43.07	350.00	16.65	-29.9	-33.2	19.2	6.02e-01	0	42	102	524288	20	5220
2026-01-04 03:34:44.08	349.80	16.73	-30.1	-33.6	19.0	6.03e-01	0	42	102	524288	20	5379
2026-01-04 03:34:45.08	349.60	16.81	-30.2	-33.5	18.8	6.05e-01	0	42	102	524288	21	5218
2026-01-04 03:34:46.09	349.40	16.90	-30.2	-33.3	18.9	6.01e-01	0	43	102	524288	21	5146
2026-01-04 03:34:47.09	349.20	16.98	-30.1	-33.2	18.9	6.05e-01	0	43	102	524288	21	5125
2026-01-04 03:34:48.10	349.00	17.06	-29.8	-32.9	18.9	6.02e-01	0	42	102	524288	21	5132
2026-01-04 03:34:49.11	348.80	17.15	-30.2	-33.4	18.9	6.00e-01	0	42	102	524288	21	5182
2026-01-04 03:34:50.12	348.59	17.23	-30.3	-33.7	18.5	6.03e-01	0	43	102	524288	21	5324
2026-01-04 03:34:51.13	348.38	17.31	-30.2	-33.4	18.7	6.01e-01	0	43	102	524288	21	5199
2026-01-04 03:34:52.13	348.18	17.40	-30.4	-33.8	18.6	6.02e-01	0	42	102	524288	21	5331
2026-01-04 03:34:53.13	347.97	17.48	-30.2	-33.3	18.8	6.02e-01	0	42	102	524288	21	5139
2026-01-04 03:34:54.13	347.76	17.56	-30.1	-33.0	19.1	6.05e-01	0	43	102	524288	21	5049
2026-01-04 03:34:55.14	347.55	17.64	-30.1	-33.0	19.1	6.02e-01	0	43	102	524288	21	5040
2026-01-04 03:34:56.15	347.34	17.73	-30.0	-32.9	19.2	6.05e-01	0	42	102	524288	21	5008
2026-01-04 03:34:57.15	347.13	17.81	-30.1	-33.0	19.1	6.03e-01	0	43	102	524288	21	5062
2026-01-04 03:34:58.16	346.91	17.89	-30.0	-32.8	19.2	6.04e-01	0	43	102	524288	21	4989
2026-01-04 03:34:59.17	346.69	17.97	-30.0	-32.8	19.3	6.03e-01	0	42	102	524288	21	4961
2026-01-04 03:35:00.17	346.48	18.06	-30.0	-32.9	19.2	6.03e-01	0	43	102	524288	21	4992
2026-01-04 03:35:01.16	346.26	18.14	-30.0	-32.7	19.3	6.03e-01	0	43	102	524288	21	4952
2026-01-04 03:35:02.16	346.04	18.22	-30.0	-32.9	19.2	6.04e-01	0	42	102	524288	21	5009
2026-01-04 03:35:03.16	345.82	18.30	-30.1	-33.1	19.0	6.01e-01	0	43	102	524288	21	5081
2026-01-04 03:35:04.17	345.60	18.38	-30.1	-33.1	19.1	6.03e-01	0	43	102	524288	21	5060
2026-01-04 03:35:05.17	345.38	18.46	-30.2	-33.4	18.9	6.02e-01	0	42	102	524288	21	5169
2026-01-04 03:35:06.18	345.15	18.55	-30.2	-33.3	18.9	6.03e-01	0	42	102	524288	21	5154
2026-01-04 03:35:07.19	344.93	18.63	-30.2	-33.3	18.9	6.05e-01	0	43	102	524288	21	5164
2026-01-04 03:35:08.20	344.70	18.71	-30.2	-33.2	18.9	6.02e-01	0	43	102	524288	21	5131
2026-01-04 03:35:09.21	344.47	18.79	-30.2	-33.4	18.8	6.04e-01	0	43	102	524288	21	5185
2026-01-04 03:35:10.21	344.24	18.87	-30.2	-33.4	18.9	6.04e-01	0	43	102	524288	21	5185
2026-01-04 03:35:11.21	344.01	18.95	-30.3	-33.7	18.7	6.05e-01	0	42	102	524288	21	5293
2026-01-04 03:35:12.22	343.78	19.03	-30.1	-33.1	19.1	6.01e-01	0	42	102	524288	21	5080
2026-01-04 03:35:13.22	343.54	19.11	-30.0	-32.8	19.2	6.03e-01	0	43	102	524288	21	4970
2026-01-04 03:35:14.23	343.31	19.19	-30.0	-32.7	19.3	6.03e-01	0	43	102	524288	21	4941
2026-01-04 03:35:15.24	343.07	19.27	-30.0	-32.8	19.2	6.06e-01	0	43	102	524288	21	4980
2026-01-04 03:35:16.25	342.83	19.35	-30.1	-32.9	19.2	6.04e-01	0	43	102	524288	21	5018
2026-01-04 03:35:17.25	342.59	19.43	-30.1	-33.1	19.1	6.04e-01	0	43	102	524288	21	5062
2026-01-04 03:35:18.26	342.35	19.51	-30.1	-33.1	19.0	6.07e-01	0	42	102	524288	21	5077
2026-01-04 03:35:19.26	342.11	19.59	-30.1	-33.0	19.1	6.03e-01	0	42	102	524288	21	5032
2026-01-04 03:35:20.27	341.87	19.67	-30.2	-33.2	19.0	6.03e-01	0	43	102	524288	21	5107
2026-01-04 03:35:21.28	341.62	19.75	-30.2	-33.4	18.9	6.03e-01	0	43	102	524288	21	5193
2026-01-04 03:35:22.29	341.37	19.83	-30.2	-33.2	19.0	6.02e-01	0	43	102	524288	21	5111
2026-01-04 03:35:23.29	341.13	19.91	-30.1	-33.1	19.1	6.03e-01	0	43	102	524288	21	5059
2026-01-04 03:35:24.30	340.88	19.98	-30.1	-33.1	19.1	6.02e-01	0	43	102	524288	21	5085
2026-01-04 03:35:25.31	340.63	20.06	-30.1	-33.1	19.1	6.05e-01	0	43	102	524288	21	5070
2026-01-04 03:35:26.31	340.38	20.14	-30.0	-33.4	19.2	6.02e-01	0	43	102	524288	20	5294
2026-01-04 03:35:27.32	340.12	20.22	-30.0	-33.4	19.2	6.02e-01	0	43	102	524288	20	5300
2026-01-04 03:35:28.33	339.87	20.29	-30.1	-33.4	19.2	6.05e-01	0	43	102	524288	20	5305
2026-01-04 03:35:29.34	339.61	20.37	-30.1	-33.2	19.0	6.03e-01	0	43	102	524288	21	5094
2026-01-04 03:35:30.34	339.36	20.45	-30.3	-33.6	18.7	6.03e-01	0	43	102	524288	21	5270
2026-01-04 03:35:31.35	339.10	20.52	-30.4	-33.9	18.6	6.03e-01	0	43	102	524288	21	5359
2026-01-04 03:35:32.35	338.84	20.60	-30.3	-33.5	18.8	6.02e-01	0	43	102	524288	21	5238
2026-01-04 03:35:33.35	338.58	20.67	-30.4	-33.8	18.7	6.03e-01	0	43	102	524288	21	5329
2026-01-04 03:35:34.36	338.32	20.75	-30.4	-33.8	18.7	6.03e-01	0	42	102	524288	21	5329
2026-01-04 03:35:35.37	338.05	20.82	-30.3	-33.5	18.9	6.02e-01	0	43	102	524288	21	5203
2026-01-04 03:35:36.37	337.79	20.90	-30.2	-33.3	19.0	6.03e-01	0	43	102	524288	21	5145
2026-01-04 03:35:37.38	337.52	20.97	-30.2	-33.3	19.0	6.02e-01	0	43	102	524288	21	5160
2026-01-04 03:35:38.39	337.25	21.04	-30.2	-33.2	19.0	6.01e-01	0	43	102	524288	21	5109
2026-01-04 03:35:39.40	336.98	21.12	-30.2	-33.2	19.0	6.03e-01	0	43	102	524288	21	5103
2026-01-04 03:35:40.40	336.71	21.19	-30.2	-33.3	19.0	6.03e-01	0	43	102	524288	21	5136
2026-01-04 03:35:41.41	336.44	21.26	-30.2	-33.3	19.0	6.04e-01	0	43	102	524288	21	5155
2026-01-04 03:35:42.42	336.17	21.33	-30.2	-33.3	18.9	6.01e-01	0	43	102	524288	21	5160
2026-01-04 03:35:43.43	335.89	21.40	-30.1	-33.1	19.1	6.01e-01	0	43	102	524288	21	5082
2026-01-04 03:35:44.43	335.62	21.47	-30.1	-33.1	19.1	6.03e-01	0	43	102	524288	21	5085
2026-01-04 03:35:45.44	335.34	21.54	-30.2	-33.2	19.0	6.03e-01	0	43	102	524288	21	5119
2026-01-04 03:35:46.44	335.06	21.61	-30.3	-33.5	18.9	6.01e-01	0	43	102	524288	21	5208
2026-01-04 03:35:47.45	334.78	21.68	-30.3	-33.7	18.8	6.04e-01	0	43	102	524288	21	5285
2026-01-04 03:35:48.45	334.50	21.75	-30.3	-33.6	18.8	6.02e-01	0	43	102	524288	21	5241
2026-01-04 03:35:49.46	334.22	21.82	-30.3	-33.7	18.7	6.03e-01	0	43	102	524288	21	5288
2026-01-04 03:35:50.47	333.93	21.89	-30.3	-33.5	18.8	6.01e-01	0	43	102	524288	21	5212
2026-01-04 03:35:51.48	333.64	21.95	-30.3	-33.5	18.9	6.01e-01	0	43	102	524288	21	5236
2026-01-04 03:35:52.49	333.36	22.02	-30.3	-33.5	18.9	6.03e-01	0	43	102	524288	21	5221
2026-01-04 03:35:53.50	333.07	22.09	-30.2	-33.2	19.0	6.02e-01	0	43	102	524288	21	5122
2026-01-04 03:35:54.50	332.78	22.15	-30.2	-33.3	19.0	6.02e-01	0	43	102	524288	21	5142
2026-01-04 03:35:55.51	332.49	22.22	-30.2	-33.2	19.1	6.05e-01	0	43	102	524288	21	5097
2026-01-04 03:35:56.52	332.20	22.28	-30.2	-33.3	19.0	6.02e-01	0	43	102	524288	21	5143
2026-01-04 03:35:57.52	331.91	22.34	-30.3	-33.7	18.7	6.02e-01	0	43	102	524288	21	5278
2026-01-04 03:35:58.53	331.61	22.41	-30.3	-33.7	18.8	6.01e-01	0	43	102	524288	21	5273
2026-01-04 03:35:59.54	331.31	22.47	-30.3	-33.5	18.9	6.00e-01	0	43	102	524288	21	5201
2026-01-04 03:36:00.55	331.02	22.53	-30.2	-33.3	19.0	6.02e-01	0	43	102	524288	21	5149
2026-01-04 03:36:01.56	330.72	22.59	-30.3	-33.5	18.8	6.03e-01	0	43	102	524288	21	5229
2026-01-04 03:36:02.55	330.42	22.65	-30.4	-33.8	18.7	6.04e-01	0	43	102	524288	21	5321
2026-01-04 03:36:03.56	330.12	22.71	-30.3	-33.6	18.8	6.02e-01	0	43	102	524288	21	5238
2026-01-04 03:36:04.57	329.82	22.77	-30.1	-33.1	19.1	6.00e-01	0	43	102	524288	21	5054
2026-01-04 03:36:05.58	329.51	22.83	-30.1	-33.1	19.1	6.03e-01	0	42	102	524288	21	5067
2026-01-04 03:36:06.58	329.21	22.89	-30.2	-33.2	19.0	6.01e-01	0	43	102	524288	21	5105
2026-01-04 03:36:07.59	328.90	22.95	-30.3	-33.5	18.9	6.03e-01	0	43	102	524288	21	5227
2026-01-04 03:36:08.60	328.60	23.00	-30.4	-33.7	18.7	6.02e-01	0	43	102	524288	21	5296
2026-01-04 03:36:09.60	328.29	23.06	-30.4	-33.9	18.7	6.01e-01	0	43	102	524288	21	5360
2026-01-04 03:36:10.61	327.98	23.11	-30.4	-33.9	18.6	6.02e-01	0	43	102	524288	21	5355
2026-01-04 03:36:11.61	327.67	23.17	-30.5	-34.1	18.5	6.06e-01	0	43	102	524288	21	5467
2026-01-04 03:36:12.62	327.36	23.22	-30.6	-34.0	18.3	6.04e-01	0	43	102	524288	22	5281
2026-01-04 03:36:13.63	327.05	23.27	-30.6	-33.8	18.4	6.01e-01	0	43	102	524288	22	5217
2026-01-04 03:36:14.63	326.74	23.33	-30.5	-34.1	18.0	6.05e-01	0	43	102	524288	21	5463
2026-01-04 03:36:15.64	326.42	23.38	-30.5	-34.1	18.5	6.02e-01	0	43	102	524288	21	5456
2026-01-04 03:36:16.65	326.10	23.43	-30.5	-34.0	18.4	6.04e-01	0	43	102	524288	21	5421
2026-01-04 03:36:17.65	325.79	23.48	-30.5	-34.1	18.4	6.01e-01	0	43	102	524288	21	5464
2026-01-04 03:36:18.66	325.47	23.53	-30.6	-33.8	18.4	6.03e-01	0	43	102	524288	22	5225
2026-01-04 03:36:19.67	325.15	23.58	-30.4	-33.3	18.7	6.01e-01	0	43	102	524288	22	5017
2026-01-04 03:36:20.67	324.83	23.62	-30.3	-33.0	18.9	6.03e-01	0	43	102	524288	22	4913
2026-01-04 03:36:21.68	324.51	23.67	-30.2	-32.7	19.0	6.01e-01	0	43	102	524288	22	4823
2026-01-04 03:36:22.69	324.19	23.71	-30.3	-32.9	18.9	6.03e-01	0	43	102	524288	22	4885
2026-01-04 03:36:23.70	323.86	23.76	-30.3	-33.0	18.9	6.02e-01	0	43	102	524288	22	4926
2026-01-04 03:36:24.70	323.54	23.80	-30.3	-32.9	18.9	6.02e-01	0	43	102	524288	22	4900
2026-01-04 03:36:25.71	323.22	23.85	-30.4	-33.8	18.8	6.03e-01	0	43	102	524288	21	5313
2026-01-04 03:36:26.72	322.89	23.89	-30.4	-33.7	18.8	6.03e-01	0	43	102	524288	21	5288
2026-01-04 03:36:27.73	322.56	23.93	-30.3	-33.4	18.9	6.04e-01	0	43	102	524288	21	5191
2026-01-04 03:36:28.73	322.24	23.97	-30.2	-33.3	19.1	6.04e-01	0	43	102	524288	21	5128
2026-01-04 03:36:29.74	321.91	24.01	-30.3	-33.4	18.9	6.04e-01	0	43	102	524288	21	5184
2026-01-04 03:36:30.75	321.58	24.05	-30.2	-33.2	19.1	6.03e-01	0	43	102	524288	21	5110
2026-01-04 03:36:31.76	321.25	24.08	-30.1	-33.0	19.2	6.03e-01	0	43	102	524288	21	5011
2026-01-04 03:36:32.76	320.92	24.12	-30.3	-33.4	18.9	6.01e-01	0	43	102	524288	21	5191
2026-01-04 03:36:33.77	320.58	24.16	-30.2	-33.3	19.0	6.03e-01	0	43	102	524288	21	5142
2026-01-04 03:36:34.78	320.25	24.19	-30.2	-33.4	19.0	6.02e-01	0	43	102	524288	21	5161
2026-01-04 03:36:35.79	319.92	24.23	-30.1	-33.0	19.2	6.03e-01	0	43	102	524288	21	5036
2026-01-04 03:36:36.79	319.58	24.26	-30.3	-33.5	18.9	6.05e-01	0	43	102	524288	21	5229
2026-01-04 03:36:37.80	319.25	24.29	-30.2	-33.2	19.1	6.01e-01	0	43	102	524288	21	5090
2026-01-04 03:36:38.80	318.91	24.32	-30.3	-33.4	19.0	6.04e-01	0	43	102	524288	21	5180
2026-01-04 03:36:39.81	318.58	24.35	-30.3	-33.4	19.0	6.03e-01	0	43	102	524288	21	5169
2026-01-04 03:36:40.82	318.24	24.38	-30.2	-33.3	19.0	6.02e-01	0	43	102	524288	21	5142
2026-01-04 03:36:41.82	317.90	24.41	-30.2	-33.3	19.0	6.02e-01	0	43	102	524288	21	5149
2026-01-04 03:36:42.82	317.57	24.43	-30.5	-34.1	18.6	6.03e-01	0	43	102	524288	21	5430
2026-01-04 03:36:43.82	317.23	24.46	-30.3	-33.5	18.9	6.03e-01	0	43	102	524288	21	5227
2026-01-04 03:36:44.82	316.89	24.48	-30.3	-33.6	18.8	6.05e-01	0	43	102	524288	21	5243
2026-01-04 03:36:45.83	316.55	24.51	-30.3	-33.6	18.9	6.02e-01	0	43	102	524288	21	5234
2026-01-04 03:36:46.84	316.21	24.53	-30.4	-33.8	18.7	6.01e-01	0	43	102	524288	21	5314
2026-01-04 03:36:47.84	315.87	24.55	-30.4	-33.8	18.8	6.01e-01	0	43	102	524288	21	5304
2026-01-04 03:36:48.85	315.53	24.57	-30.3	-33.5	19.0	6.04e-01	0	43	102	524288	21	5200
2026-01-04 03:36:49.86	315.19	24.59	-30.5	-34.1	18.6	6.02e-01	0	43	102	524288	21	5439
2026-01-04 03:36:50.87	314.84	24.61	-30.4	-33.8	18.7	6.04e-01	0	43	102	524288	21	5320
2026-01-04 03:36:51.88	314.50	24.63	-30.4	-33.7	18.8	6.01e-01	0	43	102	524288	21	5305
2026-01-04 03:36:52.88	314.16	24.64	-30.3	-33.6	18.8	6.02e-01	0	43	102	524288	21	5248
2026-01-04 03:36:53.89	313.81	24.66	-30.5	-34.0	18.7	6.02e-01	0	43	102	524288	21	5395
2026-01-04 03:36:54.89	313.47	24.67	-30.2	-33.3	19.1	6.01e-01	0	43	102	524288	21	5130
2026-01-04 03:36:55.90	313.13	24.69	-30.4	-33.9	18.7	6.05e-01	0	43	102	524288	21	5360
2026-01-04 03:36:56.90	312.79	24.70	-30.5	-34.0	18.6	6.04e-01	0	43	102	524288	21	5411
2026-01-04 03:36:57.91	312.44	24.71	-30.4	-33.8	18.8	6.04e-01	0	43	102	524288	21	5329
2026-01-04 03:36:58.91	312.10	24.72	-30.9	-34.8	17.7	6.01e-01	0	43	102	524288	22	5623
2026-01-04 03:36:59.92	311.75	24.73	-30.5	-33.7	18.5	6.01e-01	0	43	102	524288	22	5165
2026-01-04 03:37:00.93	311.40	24.73	-30.4	-33.2	18.8	6.04e-01	0	43	102	524288	22	4995
2026-01-04 03:37:01.93	311.06	24.74	-30.4	-34.0	18.6	6.03e-01	0	43	102	524288	21	5391
2026-01-04 03:37:02.93	310.72	24.75	-30.3	-33.6	18.9	6.03e-01	0	43	102	524288	21	5231
2026-01-04 03:37:03.94	310.37	24.75	-30.6	-33.9	18.3	6.03e-01	0	43	102	524288	22	5271
2026-01-04 03:37:04.95	310.02	24.75	-30.5	-33.5	18.6	6.03e-01	0	43	102	524288	22	5101
2026-01-04 03:37:05.95	309.68	24.76	-30.4	-33.3	18.8	6.02e-01	0	43	102	524288	22	5008
2026-01-04 03:37:06.96	309.33	24.76	-30.9	-34.8	17.8	6.02e-01	0	43	102	524288	22	5634
2026-01-04 03:37:07.97	308.99	24.76	-30.6	-33.9	18.3	6.02e-01	0	43	102	524288	22	5260
2026-01-04 03:37:08.98	308.64	24.76	-30.3	-33.1	18.8	6.02e-01	0	43	102	524288	22	4958
2026-01-04 03:37:09.99	308.29	24.75	-30.5	-33.5	18.6	6.01e-01	0	43	102	524288	22	5119
2026-01-04 03:37:10.99	307.95	24.75	-30.3	-33.0	19.0	6.04e-01	0	43	102	524288	22	4913
2026-01-04 03:37:12.00	307.60	24.75	-30.3	-32.9	19.0	6.00e-01	0	43	102	524288	22	4882
2026-01-04 03:37:13.01	307.25	24.74	-30.5	-33.5	18.6	6.03e-01	0	43	102	524288	22	5113
2026-01-04 03:37:14.01	306.91	24.73	-30.3	-33.0	18.9	6.02e-01	0	43	102	524288	22	4901
2026-01-04 03:37:15.02	306.56	24.73	-30.7	-34.0	18.3	6.03e-01	0	43	102	524288	22	5314
2026-01-04 03:37:16.03	306.22	24.72	-29.7	-31.9	19.9	6.03e-01	0	43	102	524288	21	4645
2026-01-04 03:37:17.03	305.87	24.71	-30.6	-33.9	18.1	6.03e-01	0	43	102	524288	22	5271
2026-01-04 03:37:18.04	305.53	24.70	-30.3	-33.4	19.0	6.03e-01	0	43	102	524288	21	5186
2026-01-04 03:37:19.05	305.18	24.69	-29.9	-32.1	19.4	6.04e-01	0	43	102	524288	22	4593
2026-01-04 03:37:20.06	304.84	24.67	-30.7	-34.3	18.1	6.03e-01	0	43	102	524288	22	5407
2026-01-04 03:37:21.06	304.50	24.66	-30.2	-33.1	19.1	6.03e-01	0	43	102	524288	21	5073
2026-01-04 03:37:22.07	304.15	24.64	-31.0	-35.1	17.7	6.03e-01	0	43	102	524288	22	5733
2026-01-04 03:37:23.07	303.81	24.63	-29.8	-32.2	19.6	6.04e-01	0	43	102	524288	21	4749
2026-01-04 03:37:24.08	303.47	24.61	-30.7	-34.2	17.9	6.03e-01	0	43	102	524288	22	5365
2026-01-04 03:37:25.09	303.12	24.59	-30.5	-34.0	18.7	6.04e-01	0	43	102	524288	21	5426
2026-01-04 03:37:26.09	302.78	24.57	-30.2	-32.6	19.0	6.01e-01	0	43	102	524288	22	4786
2026-01-04 03:37:27.10	302.44	24.55	-30.8	-34.4	18.1	6.03e-01	0	43	102	524288	22	5465
2026-01-04 03:37:28.11	302.10	24.53	-30.5	-33.6	18.5	6.02e-01	0	43	102	524288	22	5132
2026-01-04 03:37:29.11	301.76	24.51	-31.1	-34.9	17.3	6.04e-01	0	43	102	524288	23	5565
2026-01-04 03:37:30.12	301.42	24.48	-30.0	-32.3	19.3	6.06e-01	0	43	102	524288	22	4657
2026-01-04 03:37:31.13	301.08	24.46	-31.1	-34.9	17.2	6.02e-01	0	43	102	524288	23	5580
2026-01-04 03:37:32.13	300.74	24.43	-30.1	-32.9	19.3	6.02e-01	0	43	102	524288	21	5000
2026-01-04 03:37:33.14	300.40	24.41	-30.9	-34.3	17.6	6.03e-01	0	43	102	524288	23	5311
2026-01-04 03:37:34.15	300.06	24.38	-30.7	-34.2	18.2	6.04e-01	0	43	102	524288	22	5384
2026-01-04 03:37:35.15	299.72	24.35	-30.4	-33.4	18.6	6.04e-01	0	43	102	524288	22	5049
2026-01-04 03:37:36.16	299.39	24.32	-30.4	-33.4	18.6	6.02e-01	0	43	102	524288	22	5076
2026-01-04 03:37:37.17	299.05	24.29	-30.9	-34.9	17.6	6.04e-01	0	43	102	524288	22	5661
2026-01-04 03:37:38.18	298.71	24.26	-30.4	-33.4	18.7	6.02e-01	0	43	102	524288	22	5071
2026-01-04 03:37:39.18	298.38	24.22	-30.8	-34.3	17.9	6.04e-01	0	43	102	524288	22	5433
2026-01-04 03:37:40.19	298.05	24.19	-30.7	-34.1	18.2	6.04e-01	0	43	102	524288	22	5348
2026-01-04 03:37:41.19	297.72	24.16	-30.4	-33.2	18.7	6.03e-01	0	43	102	524288	22	5004
2026-01-04 03:37:42.20	297.38	24.12	-30.1	-32.5	19.1	6.02e-01	0	43	102	524288	22	4746
2026-01-04 03:37:43.20	297.05	24.08	-30.6	-34.0	18.2	6.02e-01	0	43	102	524288	22	5312
2026-01-04 03:37:44.21	296.72	24.05	-30.0	-32.2	19.3	6.04e-01	0	43	102	524288	22	4657
2026-01-04 03:37:45.21	296.39	24.01	-30.5	-33.7	18.4	6.04e-01	0	43	102	524288	22	5199
2026-01-04 03:37:46.22	296.06	23.97	-30.3	-33.0	19.0	6.03e-01	0	43	102	524288	22	4911
2026-01-04 03:37:47.22	295.74	23.93	-30.6	-33.9	18.2	6.03e-01	0	43	102	524288	22	5260
2026-01-04 03:37:48.23	295.41	23.89	-30.3	-32.9	18.9	6.04e-01	0	43	102	524288	22	4902
2026-01-04 03:37:49.24	295.08	23.85	-30.3	-33.7	18.7	6.00e-01	0	43	102	524288	21	5307
2026-01-04 03:37:50.24	294.76	23.80	-30.0	-33.3	19.3	6.04e-01	0	43	102	524288	20	5236
2026-01-04 03:37:51.25	294.43	23.76	-30.3	-33.7	18.7	6.04e-01	0	43	102	524288	21	5298
2026-01-04 03:37:52.26	294.11	23.71	-30.3	-33.7	18.7	6.02e-01	0	43	102	524288	21	5301
2026-01-04 03:37:53.27	293.78	23.67	-30.2	-33.4	18.9	6.03e-01	0	43	102	524288	21	5166
2026-01-04 03:37:54.28	293.46	23.62	-30.4	-33.8	18.6	6.01e-01	0	43	102	524288	21	5356
2026-01-04 03:37:55.28	293.14	23.57	-30.0	-33.2	19.4	6.02e-01	0	43	102	524288	20	5212
2026-01-04 03:37:56.29	292.82	23.53	-30.6	-33.8	18.3	6.04e-01	0	43	102	524288	22	5249
2026-01-04 03:37:57.29	292.51	23.48	-29.8	-32.2	19.6	6.02e-01	0	43	102	524288	21	4750
2026-01-04 03:37:58.29	292.19	23.43	-30.6	-34.4	18.2	6.04e-01	0	43	102	524288	21	5593
2026-01-04 03:37:59.30	291.87	23.38	-29.9	-32.9	19.4	6.02e-01	0	43	102	524288	20	5112
2026-01-04 03:38:00.30	291.56	23.33	-30.7	-34.2	18.1	6.04e-01	0	43	102	524288	22	5393
2026-01-04 03:38:01.30	291.25	23.27	-30.0	-32.7	19.2	6.01e-01	0	43	102	524288	21	4946
2026-01-04 03:38:02.31	290.93	23.22	-30.5	-34.1	18.4	6.03e-01	0	43	102	524288	21	5466
2026-01-04 03:38:03.32	290.62	23.17	-29.8	-32.2	19.6	6.04e-01	0	43	102	524288	21	4767
2026-01-04 03:38:04.32	290.31	23.11	-30.7	-34.2	18.1	6.03e-01	0	43	102	524288	22	5405
2026-01-04 03:38:05.33	290.00	23.06	-30.2	-33.4	18.8	6.04e-01	0	43	102	524288	21	5189
2026-01-04 03:38:06.34	289.69	23.00	-30.6	-34.4	18.2	6.04e-01	0	43	102	524288	21	5588
2026-01-04 03:38:07.34	289.39	22.95	-30.3	-33.2	18.6	6.03e-01	0	43	102	524288	22	4989
2026-01-04 03:38:08.35	289.08	22.89	-30.3	-33.7	18.7	6.04e-01	0	43	102	524288	21	5298
2026-01-04 03:38:09.35	288.77	22.83	-30.6	-34.0	18.0	6.04e-01	0	43	102	524288	22	5329
2026-01-04 03:38:10.36	288.47	22.77	-30.0	-32.8	19.2	6.03e-01	0	43	102	524288	21	4975
2026-01-04 03:38:11.36	288.17	22.71	-30.9	-34.9	17.5	6.03e-01	0	43	102	524288	22	5709
2026-01-04 03:38:12.37	287.87	22.65	-30.1	-32.4	19.1	6.03e-01	0	43	102	524288	22	4714
2026-01-04 03:38:13.38	287.57	22.59	-31.0	-35.2	17.4	6.04e-01	0	43	102	524288	22	5797
2026-01-04 03:38:14.38	287.27	22.53	-30.8	-33.9	17.7	6.02e-01	0	43	102	524288	23	5179
2026-01-04 03:38:15.39	286.97	22.47	-30.3	-33.2	18.6	6.04e-01	0	43	102	524288	22	4994
2026-01-04 03:38:16.39	286.67	22.41	-30.6	-34.4	18.1	6.02e-01	0	43	102	524288	21	5601
2026-01-04 03:38:17.40	286.38	22.34	-30.4	-33.8	18.5	6.03e-01	0	43	102	524288	21	5336
2026-01-04 03:38:18.40	286.09	22.28	-30.6	-34.4	18.2	6.01e-01	0	43	102	524288	21	5609
2026-01-04 03:38:19.41	285.79	22.21	-30.3	-33.1	18.7	6.04e-01	0	43	102	524288	22	4974
2026-01-04 03:38:20.42	285.50	22.15	-30.6	-34.0	18.1	6.02e-01	0	43	102	524288	22	5329
2026-01-04 03:38:21.42	285.21	22.08	-30.6	-33.9	18.1	6.03e-01	0	43	102	524288	22	5269
2026-01-04 03:38:22.43	284.92	22.02	-30.2	-32.7	18.9	6.03e-01	0	43	102	524288	22	4842
2026-01-04 03:38:23.44	284.63	21.95	-30.6	-34.0	18.1	6.05e-01	0	43	102	524288	22	5340
2026-01-04 03:38:24.44	284.35	21.88	-30.3	-33.0	18.6	6.04e-01	0	43	102	524288	22	4947
2026-01-04 03:38:25.45	284.06	21.82	-30.2	-33.3	18.9	6.02e-01	0	43	102	524288	21	5138
2026-01-04 03:38:26.46	283.78	21.75	-30.7	-34.2	17.9	6.01e-01	0	43	102	524288	22	5418
2026-01-04 03:38:27.47	283.49	21.68	-30.3	-33.2	18.5	6.01e-01	0	43	102	524288	22	5022
2026-01-04 03:38:28.47	283.22	21.61	-30.4	-33.9	18.5	6.03e-01	0	43	102	524288	21	5391
2026-01-04 03:38:29.47	282.94	21.54	-30.9	-34.9	17.5	6.04e-01	0	43	102	524288	22	5681
2026-01-04 03:38:30.48	282.66	21.47	-30.7	-34.3	17.9	6.04e-01	0	43	102	524288	22	5462
2026-01-04 03:38:31.49	282.38	21.40	-30.9	-34.7	17.6	6.01e-01	0	43	102	524288	22	5607
2026-01-04 03:38:32.50	282.10	21.33	-30.9	-34.8	17.6	6.03e-01	0	43	102	524288	22	5653
2026-01-04 03:38:33.50	281.83	21.25	-31.0	-35.2	17.2	6.03e-01	0	43	102	524288	22	5850
2026-01-04 03:38:34.51	281.56	21.18	-31.0	-35.1	17.3	6.02e-01	0	43	102	524288	22	5801
2026-01-04 03:38:35.52	281.28	21.11	-31.1	-35.0	17.1	6.04e-01	0	43	102	524288	23	5627
2026-01-04 03:38:36.53	281.01	21.04	-31.2	-35.3	16.9	6.04e-01	0	43	102	524288	23	5743
2026-01-04 03:38:37.54	280.74	20.96	-31.3	-35.5	16.7	6.03e-01	0	43	102	524288	23	5874
2026-01-04 03:38:38.55	280.48	20.89	-31.3	-35.7	16.6	6.04e-01	0	43	102	524288	23	5934
2026-01-04 03:38:39.55	280.21	20.81	-31.0	-34.7	17.3	6.05e-01	0	43	102	524288	23	5492
2026-01-04 03:38:40.56	279.94	20.74	-30.6	-34.0	18.1	6.01e-01	0	43	102	524288	22	5302
2026-01-04 03:38:41.56	279.68	20.67	-30.4	-34.1	18.3	6.01e-01	0	43	102	524288	21	5464
2026-01-04 03:38:42.56	279.42	20.59	-30.5	-34.2	18.2	6.01e-01	0	43	102	524288	21	5511
2026-01-04 03:38:43.57	279.16	20.51	-30.4	-33.9	18.4	6.03e-01	0	43	102	524288	21	5397
2026-01-04 03:38:44.58	278.90	20.44	-30.1	-33.1	18.9	6.02e-01	0	43	102	524288	21	5085
2026-01-04 03:38:45.58	278.64	20.36	-30.0	-32.9	19.0	6.05e-01	0	43	102	524288	21	5024
2026-01-04 03:38:46.58	278.39	20.29	-30.2	-33.4	18.8	6.02e-01	0	43	102	524288	21	5205
2026-01-04 03:38:47.58	278.14	20.21	-30.2	-33.3	18.7	6.03e-01	0	43	102	524288	21	5191
2026-01-04 03:38:48.59	277.88	20.13	-29.8	-32.4	19.3	6.03e-01	0	43	102	524288	21	4845
2026-01-04 03:38:49.59	277.63	20.05	-29.9	-32.6	19.2	6.01e-01	0	43	102	524288	21	4915
2026-01-04 03:38:50.59	277.38	19.98	-30.1	-33.1	18.9	6.04e-01	0	43	102	524288	21	5109
2026-01-04 03:38:51.60	277.13	19.90	-29.9	-32.7	19.1	6.03e-01	0	43	102	524288	21	4966
2026-01-04 03:38:52.60	276.88	19.82	-29.8	-32.8	19.4	6.02e-01	0	43	102	524288	20	5080
2026-01-04 03:38:53.61	276.63	19.74	-29.9	-33.2	19.1	6.02e-01	0	43	102	524288	20	5236
2026-01-04 03:38:54.62	276.39	19.66	-30.0	-33.4	18.9	6.03e-01	0	43	102	524288	20	5324
2026-01-04 03:38:55.63	276.14	19.58	-30.1	-33.3	18.7	6.04e-01	0	43	102	524288	21	5186
2026-01-04 03:38:56.63	275.90	19.50	-30.3	-33.6	18.5	6.05e-01	0	43	102	524288	21	5307
2026-01-04 03:38:57.64	275.66	19.42	-30.2	-33.5	18.6	6.03e-01	0	43	102	524288	21	5240
2026-01-04 03:38:58.65	275.42	19.34	-30.1	-33.1	18.8	6.05e-01	0	43	102	524288	21	5118
2026-01-04 03:38:59.66	275.18	19.26	-30.1	-33.1	18.8	6.04e-01	0	43	102	524288	21	5108
2026-01-04 03:39:00.66	274.94	19.18	-30.2	-33.5	18.6	6.02e-01	0	43	102	524288	21	5258
2026-01-04 03:39:01.67	274.70	19.10	-30.3	-33.8	18.4	6.05e-01	0	43	102	524288	21	5383
2026-01-04 03:39:02.68	274.47	19.02	-30.3	-33.7	18.5	6.03e-01	0	43	102	524288	21	5322
2026-01-04 03:39:03.68	274.23	18.94	-30.3	-33.8	18.4	6.04e-01	0	43	102	524288	21	5380
2026-01-04 03:39:04.68	274.00	18.86	-30.2	-33.6	18.5	6.03e-01	0	43	102	524288	21	5284
2026-01-04 03:39:05.69	273.77	18.78	-30.1	-33.1	18.8	6.03e-01	0	43	102	524288	21	5109
2026-01-04 03:39:06.70	273.54	18.70	-30.0	-33.0	18.7	6.03e-01	0	43	102	524288	21	5056
2026-01-04 03:39:07.71	273.31	18.61	-29.9	-33.2	18.6	6.04e-01	0	43	102	524288	20	5242
2026-01-04 03:39:08.71	273.08	18.53	-29.8	-33.0	19.2	6.03e-01	0	43	102	524288	20	5194
2026-01-04 03:39:09.71	272.86	18.45	-29.9	-33.2	18.6	6.03e-01	0	43	102	524288	20	5254
2026-01-04 03:39:10.71	272.64	18.37	-30.0	-33.3	18.9	6.04e-01	0	43	102	524288	20	5311
2026-01-04 03:39:11.71	272.41	18.29	-30.0	-33.5	18.8	6.04e-01	0	43	102	524288	20	5387
2026-01-04 03:39:12.72	272.19	18.21	-29.9	-33.1	19.1	6.03e-01	0	43	102	524288	20	5232
2026-01-04 03:39:13.73	271.97	18.12	-29.8	-32.8	19.3	6.04e-01	0	43	102	524288	20	5099
2026-01-04 03:39:14.73	271.75	18.04	-29.8	-32.9	19.2	6.02e-01	0	43	102	524288	20	5139
2026-01-04 03:39:15.73	271.53	17.96	-29.9	-33.1	19.1	6.03e-01	0	43	102	524288	20	5224
2026-01-04 03:39:16.74	271.32	17.88	-29.9	-33.2	19.0	6.03e-01	0	43	102	524288	20	5258
2026-01-04 03:39:17.75	271.10	17.79	-29.8	-33.0	19.2	6.03e-01	0	43	102	524288	20	5185
2026-01-04 03:39:18.76	270.88	17.71	-29.8	-32.8	19.2	6.02e-01	0	43	102	524288	20	5126
2026-01-04 03:39:19.76	270.67	17.63	-29.9	-33.2	19.0	6.03e-01	0	43	102	524288	20	5261
2026-01-04 03:39:20.76	270.46	17.54	-29.9	-33.2	19.0	6.02e-01	0	43	102	524288	20	5279
2026-01-04 03:39:21.77	270.25	17.46	-30.0	-33.5	18.8	6.03e-01	0	43	102	524288	20	5390
2026-01-04 03:39:22.78	270.04	17.38	-30.1	-33.3	18.6	6.02e-01	0	43	102	524288	21	5177
2026-01-04 03:39:23.79	269.83	17.29	-30.0	-33.0	18.8	6.02e-01	0	43	102	524288	21	5087
2026-01-04 03:39:24.78	269.63	17.21	-30.1	-33.7	18.7	6.04e-01	0	43	102	524288	20	5467
2026-01-04 03:39:25.79	269.42	17.13	-30.0	-33.6	18.8	6.04e-01	0	43	102	524288	20	5409
2026-01-04 03:39:26.80	269.21	17.04	-30.0	-33.5	18.8	6.03e-01	0	43	102	524288	20	5389
2026-01-04 03:39:27.81	269.01	16.96	-30.0	-33.5	18.8	6.03e-01	0	43	102	524288	20	5396
2026-01-04 03:39:28.81	268.81	16.88	-30.2	-33.6	18.4	6.04e-01	0	43	102	524288	21	5309
2026-01-04 03:39:29.81	268.61	16.79	-30.4	-34.2	18.1	6.05e-01	0	43	102	524288	21	5528
2026-01-04 03:39:30.82	268.41	16.71	-30.3	-33.7	18.3	6.03e-01	0	43	102	524288	21	5366
2026-01-04 03:39:31.82	268.21	16.63	-30.1	-33.3	18.6	6.03e-01	0	43	102	524288	21	5186
2026-01-04 03:39:32.83	268.01	16.54	-29.9	-32.9	18.8	6.05e-01	0	43	102	524288	21	5037
2026-01-04 03:39:33.84	267.82	16.46	-29.8	-32.8	19.1	6.04e-01	0	43	102	524288	20	5139
2026-01-04 03:39:34.84	267.62	16.37	-29.7	-32.8	19.2	6.03e-01	0	43	102	524288	20	5126
2026-01-04 03:39:35.85	267.43	16.29	-29.7	-32.8	19.2	6.03e-01	0	43	102	524288	20	5110
2026-01-04 03:39:36.84	267.24	16.21	-29.9	-33.3	18.9	6.02e-01	0	43	102	524288	20	5295
2026-01-04 03:39:37.85	267.04	16.12	-29.9	-33.4	18.8	6.02e-01	0	43	102	524288	20	5332
2026-01-04 03:39:38.85	266.86	16.04	-30.1	-33.7	18.6	6.01e-01	0	43	102	524288	20	5477
2026-01-04 03:39:39.86	266.67	15.96	-29.9	-33.2	18.9	6.02e-01	0	43	102	524288	20	5275
2026-01-04 03:39:40.86	266.48	15.87	-29.7	-32.8	19.2	6.01e-01	0	43	102	524288	20	5116
2026-01-04 03:39:41.86	266.29	15.79	-29.8	-32.9	19.1	6.03e-01	0	43	102	524288	20	5149
2026-01-04 03:39:42.87	266.11	15.71	-29.7	-32.8	19.1	6.01e-01	0	43	102	524288	20	5127
2026-01-04 03:39:43.88	265.92	15.62	-30.0	-33.5	18.6	6.04e-01	0	43	102	524288	20	5416
2026-01-04 03:39:44.88	265.74	15.54	-30.0	-33.5	18.7	6.04e-01	0	43	102	524288	20	5381
2026-01-04 03:39:45.89	265.55	15.46	-30.1	-33.7	18.5	6.04e-01	0	43	102	524288	20	5494
2026-01-04 03:39:46.89	265.37	15.37	-29.9	-33.2	18.8	6.03e-01	0	43	102	524288	20	5290
2026-01-04 03:39:47.90	265.19	15.29	-29.8	-32.9	19.1	6.01e-01	0	43	102	524288	20	5172
2026-01-04 03:39:48.91	265.01	15.21	-29.8	-32.9	19.1	6.02e-01	0	43	102	524288	20	5162
2026-01-04 03:39:49.91	264.83	15.12	-29.8	-33.0	19.0	6.02e-01	0	43	102	524288	20	5189
2026-01-04 03:39:50.92	264.66	15.04	-29.8	-33.1	19.0	6.02e-01	0	43	102	524288	20	5243
2026-01-04 03:39:51.93	264.48	14.96	-29.8	-33.0	19.0	6.01e-01	0	43	102	524288	20	5197
2026-01-04 03:39:52.94	264.30	14.87	-29.8	-33.0	19.0	6.03e-01	0	43	102	524288	20	5216
2026-01-04 03:39:53.95	264.13	14.79	-29.9	-33.2	18.8	6.02e-01	0	43	102	524288	20	5291
2026-01-04 03:39:54.95	263.96	14.71	-29.8	-33.1	18.9	6.05e-01	0	43	102	524288	20	5236
2026-01-04 03:39:55.96	263.78	14.62	-29.7	-32.9	19.1	6.04e-01	0	43	102	524288	20	5162
2026-01-04 03:39:56.97	263.61	14.54	-29.8	-33.0	18.9	6.03e-01	0	43	102	524288	20	5228
2026-01-04 03:39:57.97	263.44	14.46	-29.8	-33.0	19.0	6.03e-01	0	43	102	524288	20	5189
2026-01-04 03:39:58.98	263.27	14.37	-29.9	-33.2	18.8	6.04e-01	0	43	102	524288	20	5297
2026-01-04 03:39:59.98	263.11	14.29	-29.8	-33.1	18.9	6.02e-01	0	43	102	524288	20	5240
2026-01-04 03:40:00.99	262.94	14.21	-29.9	-33.3	18.8	6.03e-01	0	43	102	524288	20	5307
2026-01-04 03:40:02.00	262.77	14.13	-29.9	-33.3	18.8	6.04e-01	0	43	102	524288	20	5317
2026-01-04 03:40:03.00	262.61	14.04	-29.9	-33.4	18.6	6.03e-01	0	43	102	524288	20	5384
2026-01-04 03:40:04.01	262.44	13.96	-29.9	-33.2	18.8	6.03e-01	0	43	102	524288	20	5293
2026-01-04 03:40:05.02	262.28	13.88	-29.9	-33.2	18.8	6.01e-01	0	43	102	524288	20	5291
2026-01-04 03:40:06.03	262.12	13.80	-30.0	-33.5	18.6	6.01e-01	0	43	102	524288	20	5404
2026-01-04 03:40:07.04	261.96	13.71	-29.9	-33.2	18.8	6.02e-01	0	43	102	524288	20	5304
2026-01-04 03:40:08.04	261.80	13.63	-29.9	-33.2	18.8	6.05e-01	0	43	102	524288	20	5294
2026-01-04 03:40:09.05	261.64	13.55	-29.9	-33.5	18.6	6.02e-01	0	43	102	524288	20	5411
2026-01-04 03:40:10.06	261.48	13.47	-29.9	-33.2	18.7	6.03e-01	0	43	102	524288	20	5315
2026-01-04 03:40:11.06	261.32	13.39	-29.9	-33.3	18.7	6.04e-01	0	43	102	524288	20	5333
2026-01-04 03:40:12.06	261.17	13.31	-29.9	-33.3	18.7	6.03e-01	0	43	102	524288	20	5340
2026-01-04 03:40:13.06	261.01	13.22	-29.9	-33.4	18.6	6.03e-01	0	43	102	524288	20	5373
2026-01-04 03:40:14.07	260.86	13.14	-29.8	-33.2	18.7	6.01e-01	0	43	102	524288	20	5304
2026-01-04 03:40:15.08	260.70	13.06	-29.9	-33.4	18.6	6.01e-01	0	43	102	524288	20	5387
2026-01-04 03:40:16.08	260.55	12.98	-29.9	-33.5	18.6	6.01e-01	0	43	102	524288	20	5402
2026-01-04 03:40:17.09	260.40	12.90	-30.0	-33.6	18.5	6.03e-01	0	43	102	524288	20	5460
2026-01-04 03:40:18.09	260.25	12.82	-29.9	-33.5	18.5	6.03e-01	0	43	102	524288	20	5420
2026-01-04 03:40:19.09	260.10	12.74	-30.0	-33.8	18.3	6.05e-01	0	43	102	524288	20	5524
2026-01-04 03:40:20.10	259.95	12.66	-29.9	-33.5	18.5	6.04e-01	0	43	102	524288	20	5400
2026-01-04 03:40:21.10	259.81	12.58	-29.9	-33.3	18.6	6.03e-01	0	43	102	524288	20	5351
2026-01-04 03:40:22.11	259.66	12.50	-29.9	-33.5	18.5	6.04e-01	0	43	102	524288	20	5425
2026-01-04 03:40:23.11	259.51	12.42	-30.1	-33.8	18.3	6.01e-01	0	43	102	524288	20	5553
2026-01-04 03:40:24.12	259.37	12.34	-30.0	-33.6	18.5	6.04e-01	0	43	102	524288	20	5446
2026-01-04 03:40:25.13	259.22	12.25	-30.0	-33.6	18.4	6.01e-01	0	43	102	524288	20	5479
2026-01-04 03:40:26.13	259.08	12.18	-30.0	-33.5	18.5	6.03e-01	0	43	102	524288	20	5444
2026-01-04 03:40:27.14	258.94	12.10	-30.0	-33.6	18.4	6.04e-01	0	43	102	524288	20	5479
2026-01-04 03:40:28.15	258.79	12.01	-29.9	-33.5	18.5	6.02e-01	0	43	102	524288	20	5424
2026-01-04 03:40:29.16	258.65	11.94	-30.0	-33.6	18.4	6.03e-01	0	43	102	524288	20	5471
2026-01-04 03:40:30.17	258.51	11.86	-29.9	-33.4	18.5	6.05e-01	0	43	102	524288	20	5393
2026-01-04 03:40:31.17	258.37	11.78	-29.9	-33.5	18.5	6.01e-01	0	43	102	524288	20	5423
2026-01-04 03:40:32.18	258.23	11.70	-29.9	-33.5	18.5	6.04e-01	0	43	102	524288	20	5429
2026-01-04 03:40:33.18	258.10	11.62	-30.0	-33.7	18.3	6.02e-01	0	43	102	524288	20	5508
2026-01-04 03:40:34.18	257.96	11.54	-28.9	-32.8	18.3	6.04e-01	0	43	102	524288	20	5622
2026-01-04 03:40:35.18	257.82	11.46	-30.1	-33.9	18.2	6.03e-01	0	43	102	524288	20	5593
2026-01-04 03:40:36.18	257.69	11.38	-30.1	-33.9	17.6	6.01e-01	0	43	102	524288	20	5603
2026-01-04 03:40:37.19	257.55	11.30	-30.1	-33.5	18.1	6.03e-01	0	43	102	524288	21	5335
2026-01-04 03:40:38.20	257.42	11.23	-30.2	-33.7	18.0	6.01e-01	0	43	102	524288	21	5424
2026-01-04 03:40:39.21	257.29	11.15	-30.2	-33.7	17.9	6.02e-01	0	43	102	524288	21	5408
2026-01-04 03:40:40.22	257.15	11.07	-30.0	-33.2	18.3	6.02e-01	0	43	102	524288	21	5216
2026-01-04 03:40:41.22	257.02	10.99	-29.9	-33.0	18.4	6.01e-01	0	43	102	524288	21	5125
2026-01-04 03:40:42.23	256.89	10.91	-30.0	-33.7	18.2	6.04e-01	0	43	102	524288	20	5532
2026-01-04 03:40:43.24	256.76	10.83	-30.0	-33.7	18.2	6.03e-01	0	43	102	524288	20	5537
2026-01-04 03:40:44.24	256.63	10.76	-30.0	-33.7	18.2	6.00e-01	0	43	102	524288	20	5518
2026-01-04 03:40:45.25	256.50	10.68	-30.2	-33.7	17.9	6.01e-01	0	43	102	524288	21	5419
2026-01-04 03:40:46.26	256.37	10.60	-30.2	-33.7	18.0	6.02e-01	0	43	102	524288	21	5385
2026-01-04 03:40:47.27	256.25	10.52	-30.2	-33.7	17.9	6.02e-01	0	43	102	524288	21	5405
2026-01-04 03:40:48.27	256.12	10.45	-30.2	-33.9	17.8	6.01e-01	0	43	102	524288	21	5471
2026-01-04 03:40:49.28	256.00	10.37	-30.1	-33.6	18.0	6.04e-01	0	43	102	524288	21	5367
2026-01-04 03:40:50.29	255.87	10.29	-30.2	-33.7	17.9	6.02e-01	0	43	102	524288	21	5419
2026-01-04 03:40:51.30	255.75	10.22	-30.1	-33.6	17.9	6.03e-01	0	43	102	524288	21	5383
2026-01-04 03:40:52.30	255.62	10.14	-30.1	-34.0	18.0	6.02e-01	0	43	102	524288	20	5632
2026-01-04 03:40:53.31	255.50	10.06	-30.0	-33.9	18.1	6.02e-01	0	43	102	524288	20	5587
2026-01-04 03:40:54.32	255.38	9.99	-30.1	-33.6	18.0	6.03e-01	0	43	102	524288	21	5354
2026-01-04 03:40:55.33	255.26	9.91	-30.1	-33.5	18.1	6.03e-01	0	43	102	524288	21	5317
2026-01-04 03:40:56.33	255.14	9.83	-30.2	-33.7	17.9	6.02e-01	0	43	102	524288	21	5428
2026-01-04 03:40:57.33	255.02	9.76	-30.2	-33.8	17.8	6.02e-01	0	43	102	524288	21	5472
2026-01-04 03:40:58.34	254.90	9.68	-30.1	-33.7	17.9	6.02e-01	0	43	102	524288	21	5412
2026-01-04 03:40:59.35	254.78	9.61	-30.2	-33.9	17.7	6.05e-01	0	43	102	524288	21	5506
2026-01-04 03:41:00.35	254.66	9.53	-30.3	-34.0	17.6	6.03e-01	0	43	102	524288	21	5561
2026-01-04 03:41:01.36	254.54	9.46	-30.1	-33.7	17.9	6.02e-01	0	43	102	524288	21	5400
2026-01-04 03:41:02.37	254.43	9.38	-30.1	-33.7	17.9	6.02e-01	0	43	102	524288	21	5419
2026-01-04 03:41:03.38	254.31	9.31	-30.2	-33.9	17.7	6.02e-01	0	43	102	524288	21	5484
2026-01-04 03:41:04.38	254.19	9.23	-30.2	-33.8	17.8	6.03e-01	0	43	102	524288	21	5455
2026-01-04 03:41:05.39	254.08	9.16	-30.2	-34.0	17.6	6.03e-01	0	43	102	524288	21	5558
2026-01-04 03:41:06.40	253.97	9.08	-30.3	-34.2	17.5	6.03e-01	0	43	102	524288	21	5623
2026-01-04 03:41:07.40	253.85	9.01	-30.2	-34.0	17.6	6.02e-01	0	43	102	524288	21	5547
2026-01-04 03:41:08.41	253.74	8.93	-30.4	-34.4	17.3	6.03e-01	0	43	102	524288	21	5715
2026-01-04 03:41:09.42	253.63	8.86	-30.5	-34.7	17.1	6.03e-01	0	43	102	524288	21	5875
2026-01-04 03:41:10.43	253.52	8.79	-30.4	-34.5	17.2	6.02e-01	0	43	102	524288	21	5760
2026-01-04 03:41:11.43	253.40	8.71	-30.6	-35.0	16.9	6.03e-01	0	43	102	524288	21	6006
2026-01-04 03:41:12.44	253.29	8.64	-30.6	-34.6	16.8	6.05e-01	0	43	102	524288	22	5700
2026-01-04 03:41:13.45	253.18	8.56	-30.5	-34.9	16.9	6.03e-01	0	43	102	524288	21	5954
2026-01-04 03:41:14.46	253.08	8.49	-30.5	-34.9	16.9	6.02e-01	0	43	102	524288	21	5954
2026-01-04 03:41:15.47	252.97	8.42	-30.5	-34.5	16.8	6.04e-01	0	43	102	524288	22	5660
2026-01-04 03:41:16.47	252.86	8.34	-30.4	-34.7	17.1	6.03e-01	0	43	102	524288	21	5864
2026-01-04 03:41:17.48	252.75	8.27	-30.4	-34.7	17.0	6.03e-01	0	43	102	524288	21	5856
2026-01-04 03:41:18.49	252.64	8.20	-30.4	-34.6	17.1	6.05e-01	0	43	102	524288	21	5828
2026-01-04 03:41:19.50	252.54	8.13	-30.3	-34.4	17.2	6.03e-01	0	43	102	524288	21	5729
2026-01-04 03:41:20.50	252.43	8.05	-30.3	-34.3	17.3	6.03e-01	0	43	102	524288	21	5677
2026-01-04 03:41:21.51	252.33	7.98	-30.3	-34.3	17.3	6.01e-01	0	43	102	524288	21	5675
2026-01-04 03:41:22.52	252.22	7.91	-30.3	-34.4	17.2	6.03e-01	0	43	102	524288	21	5728
2026-01-04 03:41:23.52	252.12	7.84	-30.3	-34.4	17.2	6.04e-01	0	43	102	524288	21	5733
2026-01-04 03:41:24.52	252.02	7.77	-30.4	-34.4	17.2	6.00e-01	0	43	102	524288	21	5765
2026-01-04 03:41:25.51	251.92	7.69	-30.4	-34.6	17.0	6.03e-01	0	43	102	524288	21	5846
2026-01-04 03:41:26.52	251.82	7.62	-30.4	-34.6	17.0	6.05e-01	0	43	102	524288	21	5850
2026-01-04 03:41:27.53	251.71	7.55	-30.5	-34.9	16.9	6.02e-01	0	43	102	524288	21	5969
2026-01-04 03:41:28.54	251.61	7.48	-30.5	-34.9	16.8	6.05e-01	0	43	102	524288	21	6001
2026-01-04 03:41:29.55	251.51	7.41	-30.5	-35.0	16.7	6.01e-01	0	43	102	524288	21	6052
2026-01-04 03:41:30.55	251.41	7.34	-30.6	-34.6	16.6	6.02e-01	0	43	102	524288	22	5750
2026-01-04 03:41:31.56	251.31	7.27	-30.5	-34.4	16.8	6.02e-01	0	43	102	524288	22	5662
2026-01-04 03:41:32.57	251.21	7.19	-30.5	-34.5	16.8	6.03e-01	0	43	102	524288	22	5678
2026-01-04 03:41:33.57	251.12	7.12	-30.6	-34.9	16.5	6.04e-01	0	43	102	524288	22	5867
2026-01-04 03:41:34.58	251.02	7.05	-33.3	-51.5	3.9	7.46e-01	0	43	104	524288	27	29238

#Closed at: 2026-01-04 03:41:35
#Recorded file [0 MB]: D:/data/31010_260104_063425.dat