passes_logs/2026/01/04/R2M6_AANII_01/R2M6_AANII_01__20260104_012112_SUOMI_NPP_rec.log

#Pass ID: 20260104_012112_SUOMI NPP
#Satellite: SUOMI NPP
#Configuration: NPP
#almurnet v.1.7.20240730
#Start time: 2026-01-04 01:21:12

#Version: 2.2.20231116
#Station: R2M6_AANII_01
#Location: 30.233357 lon 59.946436 lat
#TLE: 1 37849U 11061A   26001.07732418  .00000182  00000+0  10735-3 0  9990
#TLE: 2 37849  98.7795 303.2470 0002580  87.2016 272.9455 14.19520779734739

#Time	Az	El	Level	Level2	SNR	BER	BlckErr	Temp	State	Recorded	gain1	gain2
2026-01-04 01:21:12.51	13.92	6.97	-31.6	-36.0	5.1	1.27e+00	0	41	0	0	23	5921
2026-01-04 01:21:13.51	13.88	7.04	-31.8	-36.8	4.9	1.30e+00	0	40	104	0	23	6364
2026-01-04 01:21:14.51	13.83	7.12	-31.7	-36.3	8.0	9.47e-02	0	41	0	0	23	6068
2026-01-04 01:21:15.51	13.78	7.19	-31.7	-36.1	8.1	5.80e-02	0	41	102	1048576	23	6000
2026-01-04 01:21:16.51	13.74	7.26	-31.8	-36.6	7.8	7.08e-02	0	41	102	1048576	23	6228
2026-01-04 01:21:17.52	13.69	7.34	-31.8	-36.5	7.8	9.08e-02	0	41	102	1048576	23	6209
2026-01-04 01:21:18.53	13.64	7.42	-31.7	-36.1	8.2	7.54e-02	0	41	102	1048576	23	5952
2026-01-04 01:21:19.53	13.60	7.49	-31.5	-35.3	8.9	3.50e-02	0	41	102	1048576	23	5533
2026-01-04 01:21:20.54	13.55	7.57	-31.5	-35.0	9.1	2.73e-02	0	41	102	1048576	23	5398
2026-01-04 01:21:21.55	13.50	7.64	-31.5	-35.2	9.0	2.74e-02	0	41	102	1048576	23	5500
2026-01-04 01:21:22.56	13.45	7.72	-31.3	-34.5	9.5	1.88e-02	0	41	102	1048576	23	5207
2026-01-04 01:21:23.57	13.41	7.80	-31.1	-34.2	10.1	9.86e-03	0	41	102	1048576	22	5149
2026-01-04 01:21:24.57	13.36	7.87	-30.9	-33.7	10.5	8.08e-03	0	41	102	1048576	22	4939
2026-01-04 01:21:25.58	13.31	7.95	-30.8	-33.8	10.7	2.93e-03	0	41	102	1048576	21	5081
2026-01-04 01:21:26.59	13.26	8.03	-30.8	-33.8	10.7	4.16e-03	0	41	102	1048576	21	5083
2026-01-04 01:21:27.59	13.21	8.10	-30.7	-33.3	11.1	2.23e-03	0	41	102	1048576	21	4885
2026-01-04 01:21:28.60	13.16	8.18	-30.6	-32.9	11.4	4.11e-03	0	41	102	1048576	21	4725
2026-01-04 01:21:29.61	13.11	8.26	-30.4	-32.8	11.9	1.02e-03	0	41	102	1048576	20	4762
2026-01-04 01:21:30.62	13.06	8.34	-30.4	-33.0	11.8	8.32e-04	0	41	102	1048576	20	4844
2026-01-04 01:21:31.63	13.01	8.41	-30.4	-33.0	11.8	4.74e-04	0	41	102	1048576	20	4839
2026-01-04 01:21:32.63	12.96	8.49	-30.4	-32.9	11.8	3.65e-04	0	41	102	1048576	20	4814
2026-01-04 01:21:33.64	12.91	8.57	-30.4	-33.0	11.8	1.12e-03	0	41	102	1048576	20	4828
2026-01-04 01:21:34.64	12.86	8.65	-30.6	-33.1	11.4	8.03e-04	0	41	102	1048576	21	4783
2026-01-04 01:21:35.65	12.81	8.73	-30.6	-33.1	11.4	1.07e-03	0	41	102	1048576	21	4771
2026-01-04 01:21:36.66	12.75	8.81	-30.4	-32.5	11.8	5.48e-04	0	41	102	1048576	21	4574
2026-01-04 01:21:37.66	12.70	8.89	-30.4	-32.8	12.0	3.60e-04	0	41	102	1048576	20	4745
2026-01-04 01:21:38.66	12.65	8.96	-30.4	-33.0	11.8	4.23e-04	0	41	102	1048576	20	4833
2026-01-04 01:21:39.67	12.60	9.04	-30.5	-32.6	11.8	3.68e-04	0	41	102	1048576	21	4604
2026-01-04 01:21:40.68	12.54	9.12	-30.7	-33.3	11.3	6.77e-04	0	41	102	1048576	21	4859
2026-01-04 01:21:41.68	12.49	9.20	-29.8	-32.3	11.5	1.92e-03	0	42	102	1048576	21	4752
2026-01-04 01:21:42.69	12.44	9.29	-30.5	-33.0	11.4	5.59e-04	0	41	102	1048576	20	4835
2026-01-04 01:21:43.70	12.38	9.37	-30.5	-32.8	11.6	3.73e-04	0	42	102	1048576	21	4647
2026-01-04 01:21:44.70	12.33	9.45	-30.7	-33.1	10.6	1.06e-03	0	41	102	1048576	21	4782
2026-01-04 01:21:45.71	12.27	9.53	-30.6	-33.0	11.5	8.44e-04	0	42	102	1048576	21	4740
2026-01-04 01:21:46.72	12.22	9.61	-30.6	-33.1	11.5	7.86e-04	0	41	102	1048576	21	4760
2026-01-04 01:21:47.73	12.16	9.69	-30.7	-33.1	11.5	1.13e-03	0	42	102	1048576	21	4757
2026-01-04 01:21:48.72	12.11	9.77	-30.6	-32.9	11.6	3.24e-03	0	41	102	1048576	21	4705
2026-01-04 01:21:49.73	12.05	9.85	-30.6	-32.9	11.7	7.83e-04	0	42	102	1048576	21	4687
2026-01-04 01:21:50.73	12.00	9.94	-30.6	-33.0	11.6	5.87e-04	0	42	102	1048576	21	4715
2026-01-04 01:21:51.74	11.94	10.02	-30.8	-33.7	11.1	1.17e-03	0	42	102	1048576	21	4984
2026-01-04 01:21:52.75	11.88	10.10	-30.7	-33.1	11.5	1.32e-03	0	42	102	1048576	21	4767
2026-01-04 01:21:53.76	11.82	10.19	-30.5	-32.6	11.9	5.64e-04	0	42	102	1048576	21	4580
2026-01-04 01:21:54.76	11.77	10.27	-30.4	-32.7	12.1	3.87e-04	0	42	102	1048576	20	4708
2026-01-04 01:21:55.77	11.71	10.35	-30.3	-32.4	12.3	4.37e-04	0	42	102	1048576	20	4614
2026-01-04 01:21:56.78	11.65	10.44	-30.2	-32.2	12.5	1.14e-04	0	42	102	1048576	20	4549
2026-01-04 01:21:57.78	11.59	10.52	-30.3	-32.4	12.4	1.30e-04	0	42	102	1048576	20	4615
2026-01-04 01:21:58.79	11.53	10.60	-30.2	-32.2	12.5	4.39e-04	0	42	102	1048576	20	4544
2026-01-04 01:21:59.80	11.47	10.69	-30.4	-32.7	12.2	2.48e-03	0	42	102	1048576	20	4697
2026-01-04 01:22:00.80	11.41	10.77	-30.3	-32.4	12.4	1.40e-04	0	42	102	1048576	20	4608
2026-01-04 01:22:01.81	11.35	10.86	-30.2	-32.3	12.5	3.97e-04	0	42	102	1048576	20	4547
2026-01-04 01:22:02.82	11.29	10.95	-30.3	-32.3	12.5	2.80e-03	0	42	102	1048576	20	4562
2026-01-04 01:22:03.83	11.23	11.03	-30.2	-32.1	12.6	2.75e-03	0	42	102	1048576	20	4499
2026-01-04 01:22:04.83	11.17	11.12	-30.2	-32.3	12.6	7.70e-05	0	42	102	1048576	20	4545
2026-01-04 01:22:05.84	11.11	11.20	-30.2	-32.1	12.6	2.72e-03	0	42	102	1048576	20	4495
2026-01-04 01:22:06.85	11.04	11.29	-30.2	-32.1	12.6	2.53e-03	0	42	102	1048576	20	4500
2026-01-04 01:22:07.86	10.98	11.38	-30.3	-32.3	12.3	9.99e-05	0	42	102	1048576	20	4568
2026-01-04 01:22:08.86	10.92	11.46	-30.2	-32.2	12.5	2.46e-03	0	42	102	1048576	20	4521
2026-01-04 01:22:09.87	10.85	11.55	-30.2	-32.2	12.6	2.76e-03	0	42	102	1048576	20	4514
2026-01-04 01:22:10.88	10.79	11.64	-30.3	-32.3	12.5	4.41e-04	0	42	102	1048576	20	4564
2026-01-04 01:22:11.88	10.73	11.73	-30.2	-32.2	12.6	3.13e-03	0	42	102	1048576	20	4523
2026-01-04 01:22:12.89	10.66	11.81	-30.2	-32.2	12.6	2.65e-03	0	42	102	1048576	20	4521
2026-01-04 01:22:13.90	10.60	11.90	-30.1	-31.9	12.8	3.46e-04	0	42	102	1048576	20	4419
2026-01-04 01:22:14.91	10.53	11.99	-30.1	-32.0	12.8	4.23e-04	0	42	102	1048576	20	4445
2026-01-04 01:22:15.92	10.47	12.08	-30.1	-31.8	12.9	2.37e-03	0	42	102	1048576	20	4389
2026-01-04 01:22:16.92	10.40	12.17	-30.1	-31.9	12.8	3.28e-04	0	42	102	1048576	20	4412
2026-01-04 01:22:17.92	10.33	12.26	-30.2	-32.0	12.8	2.36e-03	0	42	102	1048576	20	4458
2026-01-04 01:22:18.92	10.27	12.35	-30.4	-32.6	12.4	2.59e-03	0	42	102	1048576	20	4664
2026-01-04 01:22:19.93	10.20	12.44	-30.2	-32.1	12.7	3.82e-04	0	42	102	1048576	20	4491
2026-01-04 01:22:20.94	10.13	12.53	-30.1	-31.8	12.9	2.55e-03	0	42	102	1048576	20	4381
2026-01-04 01:22:21.95	10.06	12.62	-30.1	-31.9	12.9	5.34e-05	0	42	102	1048576	20	4425
2026-01-04 01:22:22.96	9.99	12.71	-30.1	-31.9	12.9	3.00e-04	0	42	102	1048576	20	4412
2026-01-04 01:22:23.96	9.92	12.80	-30.0	-31.6	13.1	2.51e-03	0	42	102	1048576	20	4313
2026-01-04 01:22:24.97	9.85	12.90	-30.3	-32.3	12.6	7.09e-05	0	42	102	1048576	20	4569
2026-01-04 01:22:25.97	9.78	12.99	-30.2	-32.1	12.8	4.36e-04	0	42	102	1048576	20	4469
2026-01-04 01:22:26.98	9.71	13.08	-30.3	-32.3	12.7	2.30e-03	0	42	102	1048576	20	4534
2026-01-04 01:22:27.98	9.64	13.17	-30.4	-32.7	12.4	2.63e-03	0	42	102	1048576	20	4683
2026-01-04 01:22:28.99	9.57	13.26	-30.3	-32.5	12.5	4.16e-04	0	42	102	1048576	20	4619
2026-01-04 01:22:30.00	9.50	13.36	-30.5	-32.4	12.2	2.93e-03	0	42	102	1048576	21	4489
2026-01-04 01:22:31.01	9.42	13.45	-30.7	-33.1	11.8	2.76e-03	0	42	102	1048576	21	4737
2026-01-04 01:22:32.01	9.35	13.54	-30.6	-32.7	12.1	6.61e-04	0	42	102	1048576	21	4589
2026-01-04 01:22:33.02	9.28	13.64	-30.7	-32.9	11.9	6.03e-04	0	42	102	1048576	21	4674
2026-01-04 01:22:34.03	9.20	13.73	-30.6	-32.6	12.1	2.65e-03	0	42	102	1048576	21	4565
2026-01-04 01:22:35.04	9.13	13.83	-30.7	-33.1	11.8	7.59e-04	0	42	102	1048576	21	4745
2026-01-04 01:22:36.04	9.05	13.92	-30.6	-32.8	11.9	8.32e-04	0	42	102	1048576	21	4643
2026-01-04 01:22:37.05	8.98	14.02	-30.6	-32.6	12.0	4.45e-04	0	42	102	1048576	21	4573
2026-01-04 01:22:38.06	8.90	14.11	-30.7	-33.1	11.8	9.14e-04	0	42	102	1048576	21	4743
2026-01-04 01:22:39.07	8.82	14.21	-30.6	-32.6	12.1	7.12e-04	0	43	102	1048576	21	4560
2026-01-04 01:22:40.07	8.75	14.31	-30.3	-31.9	12.6	1.85e-04	0	42	102	1048576	21	4329
2026-01-04 01:22:41.07	8.67	14.40	-30.2	-32.2	12.8	2.96e-04	0	42	102	1048576	20	4506
2026-01-04 01:22:42.08	8.59	14.50	-30.4	-32.6	12.5	2.46e-04	0	42	102	1048576	20	4654
2026-01-04 01:22:43.08	8.51	14.60	-30.3	-32.3	12.7	7.01e-05	0	42	102	1048576	20	4535
2026-01-04 01:22:44.09	8.43	14.70	-30.3	-32.4	12.7	2.50e-04	0	43	102	1048576	20	4566
2026-01-04 01:22:45.10	8.35	14.79	-30.3	-32.0	12.5	3.21e-04	0	43	102	1048576	21	4344
2026-01-04 01:22:46.11	8.27	14.89	-30.3	-32.3	12.7	9.23e-05	0	43	102	1048576	20	4559
2026-01-04 01:22:47.11	8.19	14.99	-30.2	-32.0	12.9	2.27e-04	0	42	102	1048576	20	4435
2026-01-04 01:22:48.12	8.11	15.09	-30.3	-32.3	12.8	5.79e-05	0	42	102	1048576	20	4543
2026-01-04 01:22:49.13	8.03	15.19	-30.3	-32.3	12.7	5.34e-05	0	43	102	1048576	20	4555
2026-01-04 01:22:50.14	7.95	15.29	-30.3	-32.2	12.8	2.10e-04	0	43	102	1048576	20	4507
2026-01-04 01:22:51.15	7.86	15.39	-30.3	-32.3	12.8	2.18e-04	0	42	102	1048576	20	4533
2026-01-04 01:22:52.15	7.78	15.49	-30.2	-32.1	12.9	5.49e-05	0	43	102	1048576	20	4465
2026-01-04 01:22:53.16	7.69	15.59	-29.4	-31.0	13.2	2.17e-04	0	43	102	1048576	20	4334
2026-01-04 01:22:54.16	7.61	15.69	-30.2	-32.1	12.9	2.06e-04	0	43	102	1048576	20	4481
2026-01-04 01:22:55.17	7.52	15.79	-30.3	-32.4	12.6	7.40e-05	0	42	102	1048576	20	4548
2026-01-04 01:22:56.18	7.44	15.90	-30.3	-32.3	11.6	1.88e-04	0	42	102	1048576	20	4516
2026-01-04 01:22:57.18	7.35	16.00	-30.3	-32.3	12.1	1.78e-04	0	43	102	1048576	20	4528
2026-01-04 01:22:58.19	7.26	16.10	-30.4	-32.6	12.7	1.96e-04	0	42	102	1048576	20	4611
2026-01-04 01:22:59.20	7.17	16.20	-30.3	-32.3	12.8	1.96e-04	0	43	102	1048576	20	4541
2026-01-04 01:23:00.21	7.09	16.31	-30.4	-32.6	12.7	2.56e-04	0	42	102	1048576	20	4614
2026-01-04 01:23:01.22	7.00	16.41	-30.3	-32.2	12.9	2.17e-04	0	43	102	1048576	20	4484
2026-01-04 01:23:02.23	6.91	16.51	-30.4	-32.5	12.7	5.18e-05	0	43	102	1048576	20	4580
2026-01-04 01:23:03.23	6.81	16.62	-30.5	-32.7	12.6	1.90e-04	0	43	102	1048576	20	4645
2026-01-04 01:23:04.24	6.72	16.72	-30.3	-31.8	12.9	7.24e-05	0	43	102	1048576	21	4261
2026-01-04 01:23:05.25	6.63	16.83	-30.3	-32.3	12.9	2.51e-03	0	43	102	1048576	20	4513
2026-01-04 01:23:06.25	6.54	16.93	-30.3	-32.2	12.9	7.01e-05	0	42	102	1048576	20	4504
2026-01-04 01:23:07.26	6.45	17.04	-30.3	-32.2	12.9	2.89e-05	0	43	102	1048576	20	4482
2026-01-04 01:23:08.27	6.35	17.15	-30.1	-31.6	13.3	2.41e-03	0	43	102	1048576	20	4290
2026-01-04 01:23:09.28	6.26	17.25	-29.9	-31.0	13.7	2.19e-03	0	42	102	1048576	20	4122
2026-01-04 01:23:10.29	6.16	17.36	-30.0	-31.5	13.4	8.30e-06	0	43	102	1048576	20	4255
2026-01-04 01:23:11.29	6.06	17.47	-29.8	-31.5	13.8	2.20e-03	0	42	102	1048576	19	4333
2026-01-04 01:23:12.30	5.97	17.58	-29.9	-31.6	13.8	2.43e-03	0	43	102	1048576	19	4368
2026-01-04 01:23:13.31	5.87	17.68	-30.0	-31.3	13.5	9.10e-06	0	43	102	1048576	20	4204
2026-01-04 01:23:14.31	5.77	17.79	-30.0	-31.5	13.4	2.47e-03	0	43	102	1048576	20	4254
2026-01-04 01:23:15.32	5.67	17.90	-30.0	-31.3	13.5	2.38e-03	0	42	102	1048576	20	4197
2026-01-04 01:23:16.33	5.57	18.01	-30.0	-31.5	13.4	1.65e-04	0	43	102	1048576	20	4258
2026-01-04 01:23:17.33	5.47	18.12	-30.0	-31.5	13.4	1.77e-04	0	43	102	1048576	20	4270
2026-01-04 01:23:18.33	5.37	18.23	-30.0	-31.4	13.5	2.28e-03	0	43	102	1048576	20	4233
2026-01-04 01:23:19.34	5.27	18.34	-30.1	-31.7	13.3	1.80e-04	0	43	102	1048576	20	4336
2026-01-04 01:23:20.35	5.17	18.45	-30.2	-32.1	13.1	2.32e-03	0	43	102	1048576	20	4443
2026-01-04 01:23:21.36	5.06	18.56	-30.3	-32.2	13.0	2.59e-03	0	43	102	1048576	20	4478
2026-01-04 01:23:22.36	4.96	18.67	-30.3	-32.1	13.0	1.65e-04	0	42	102	1048576	20	4462
2026-01-04 01:23:23.37	4.85	18.79	-30.3	-32.3	12.9	2.62e-03	0	43	102	1048576	20	4537
2026-01-04 01:23:24.37	4.75	18.90	-30.4	-32.6	12.7	2.53e-03	0	43	102	1048576	20	4608
2026-01-04 01:23:25.38	4.64	19.01	-30.5	-32.3	12.6	2.57e-04	0	43	102	1048576	21	4415
2026-01-04 01:23:26.38	4.53	19.13	-30.4	-32.6	12.6	2.53e-03	0	43	102	1048576	20	4623
2026-01-04 01:23:27.39	4.42	19.24	-30.4	-32.5	12.8	2.31e-03	0	43	102	1048576	20	4583
2026-01-04 01:23:28.40	4.31	19.35	-30.4	-32.6	12.8	1.74e-04	0	43	102	1048576	20	4609
2026-01-04 01:23:29.41	4.20	19.47	-30.5	-32.2	12.7	2.36e-03	0	43	102	1048576	21	4376
2026-01-04 01:23:30.41	4.09	19.58	-30.6	-32.5	12.5	2.59e-03	0	43	102	1048576	21	4482
2026-01-04 01:23:31.42	3.98	19.70	-30.7	-32.7	12.4	1.39e-04	0	43	102	1048576	21	4547
2026-01-04 01:23:32.43	3.87	19.82	-30.6	-32.6	12.4	2.71e-03	0	43	102	1048576	21	4516
2026-01-04 01:23:33.44	3.75	19.93	-30.6	-32.5	12.5	2.81e-03	0	43	102	1048576	21	4473
2026-01-04 01:23:34.44	3.64	20.05	-30.6	-32.6	12.5	1.20e-04	0	43	102	1048576	21	4510
2026-01-04 01:23:35.45	3.52	20.17	-30.7	-32.8	12.4	2.68e-03	0	43	102	1048576	21	4574
2026-01-04 01:23:36.45	3.41	20.28	-30.6	-32.5	12.5	2.54e-03	0	43	102	1048576	21	4495
2026-01-04 01:23:37.46	3.29	20.40	-30.7	-32.8	12.4	1.21e-04	0	43	102	1048576	21	4573
2026-01-04 01:23:38.46	3.17	20.52	-30.8	-33.2	12.0	2.07e-04	0	43	102	1048576	21	4716
2026-01-04 01:23:39.47	3.05	20.64	-30.6	-32.5	12.5	2.69e-03	0	43	102	1048576	21	4493
2026-01-04 01:23:40.48	2.93	20.76	-30.6	-32.5	12.6	2.40e-04	0	43	102	1048576	21	4466
2026-01-04 01:23:41.49	2.81	20.88	-30.6	-32.6	12.6	2.08e-04	0	43	102	1048576	21	4505
2026-01-04 01:23:42.49	2.69	21.00	-30.6	-32.5	12.5	1.15e-04	0	43	102	1048576	21	4489
2026-01-04 01:23:43.50	2.57	21.12	-30.6	-32.6	12.6	2.21e-04	0	43	102	1048576	21	4495
2026-01-04 01:23:44.51	2.44	21.24	-30.8	-33.1	12.2	1.87e-04	0	43	102	1048576	21	4686
2026-01-04 01:23:45.51	2.32	21.36	-30.8	-33.1	12.2	2.70e-04	0	43	102	1048576	21	4667
2026-01-04 01:23:46.52	2.19	21.48	-30.6	-32.5	12.6	2.02e-04	0	43	102	1048576	21	4481
2026-01-04 01:23:47.52	2.06	21.60	-30.5	-32.6	12.8	4.42e-05	0	43	102	1048576	20	4592
2026-01-04 01:23:48.52	1.94	21.73	-30.4	-32.5	13.0	3.28e-05	0	43	102	1048576	20	4558
2026-01-04 01:23:49.53	1.81	21.85	-30.5	-32.1	12.9	5.34e-05	0	43	102	1048576	21	4329
2026-01-04 01:23:50.54	1.68	21.97	-30.6	-32.5	12.6	2.71e-03	0	43	102	1048576	21	4485
2026-01-04 01:23:51.55	1.54	22.10	-30.6	-32.4	12.6	1.49e-04	0	43	102	1048576	21	4436
2026-01-04 01:23:52.56	1.41	22.22	-30.7	-32.8	12.3	9.30e-05	0	43	102	1048576	21	4578
2026-01-04 01:23:53.56	1.28	22.35	-30.8	-33.0	12.3	1.29e-03	0	43	102	1048576	21	4646
2026-01-04 01:23:54.56	1.15	22.47	-30.8	-33.0	12.2	1.69e-04	0	43	102	1048576	21	4631
2026-01-04 01:23:55.57	1.01	22.60	-30.6	-32.5	12.5	1.24e-04	0	43	102	1048576	21	4487
2026-01-04 01:23:56.58	0.87	22.73	-30.8	-33.0	12.2	1.30e-04	0	43	102	1048576	21	4657
2026-01-04 01:23:57.58	0.73	22.85	-30.7	-32.8	12.4	1.62e-04	0	43	102	1048576	21	4577
2026-01-04 01:23:58.58	0.60	22.98	-30.7	-32.9	12.3	1.50e-04	0	43	102	1048576	21	4624
2026-01-04 01:23:59.59	0.46	23.11	-30.8	-33.2	12.2	2.31e-04	0	43	102	1048576	21	4728
2026-01-04 01:24:00.59	0.31	23.23	-30.8	-33.1	12.1	2.68e-04	0	43	102	1048576	21	4702
2026-01-04 01:24:01.60	0.17	23.36	-30.8	-33.1	12.2	2.14e-04	0	43	102	1048576	21	4694
2026-01-04 01:24:02.61	0.03	23.49	-30.9	-32.7	12.1	2.99e-04	0	43	102	1048576	22	4456
2026-01-04 01:24:03.62	359.88	23.62	-30.7	-32.8	12.4	1.92e-04	0	43	102	1048576	21	4593
2026-01-04 01:24:04.62	359.74	23.75	-30.7	-32.6	12.5	1.52e-04	0	43	102	1048576	21	4518
2026-01-04 01:24:05.63	359.59	23.88	-30.7	-32.6	12.6	2.44e-04	0	43	102	1048576	21	4525
2026-01-04 01:24:06.64	359.44	24.01	-30.8	-32.9	12.3	1.59e-04	0	43	102	1048576	21	4611
2026-01-04 01:24:07.65	359.29	24.14	-31.0	-33.7	11.9	2.14e-04	0	43	102	1048576	21	4893
2026-01-04 01:24:08.65	359.14	24.27	-30.9	-32.8	12.1	3.31e-04	0	43	102	1048576	22	4481
2026-01-04 01:24:09.65	358.99	24.41	-31.0	-33.6	11.9	2.68e-04	0	43	102	1048576	21	4857
2026-01-04 01:24:10.66	358.83	24.54	-31.3	-34.2	10.4	4.26e-04	0	43	102	1048576	22	4993
2026-01-04 01:24:11.67	358.67	24.67	-31.2	-33.8	11.0	1.38e-03	0	43	102	1048576	22	4835
2026-01-04 01:24:12.68	358.52	24.81	-31.0	-33.2	11.8	6.26e-04	0	43	102	1048576	22	4628
2026-01-04 01:24:13.69	358.36	24.94	-30.9	-33.2	12.0	8.91e-04	0	43	102	1048576	21	4733
2026-01-04 01:24:14.69	358.20	25.07	-30.9	-33.5	12.0	3.71e-04	0	43	102	1048576	21	4809
2026-01-04 01:24:15.69	358.04	25.21	-31.0	-33.5	12.0	2.14e-04	0	43	102	1048576	21	4840
2026-01-04 01:24:16.70	357.88	25.34	-30.6	-32.6	12.6	1.51e-04	0	43	102	1048576	21	4514
2026-01-04 01:24:17.71	357.71	25.48	-30.8	-32.9	12.4	2.59e-03	0	43	102	1048576	21	4622
2026-01-04 01:24:18.72	357.55	25.62	-30.6	-32.4	12.6	1.88e-04	0	43	102	1048576	21	4436
2026-01-04 01:24:19.73	357.38	25.75	-30.3	-32.2	13.1	4.57e-05	0	43	102	1048576	20	4478
2026-01-04 01:24:20.73	357.21	25.89	-30.4	-32.4	13.0	2.59e-05	0	43	102	1048576	20	4537
2026-01-04 01:24:21.73	357.04	26.03	-30.6	-32.6	12.5	3.37e-04	0	43	102	1048576	21	4518
2026-01-04 01:24:22.74	356.87	26.16	-31.0	-33.6	11.9	2.26e-04	0	43	102	1048576	21	4883
2026-01-04 01:24:23.74	356.70	26.30	-31.2	-33.9	11.3	4.30e-04	0	43	102	1048576	22	4901
2026-01-04 01:24:24.75	356.53	26.44	-31.2	-33.7	11.5	7.16e-04	0	43	102	1048576	22	4810
2026-01-04 01:24:25.75	356.35	26.58	-31.2	-33.9	11.4	1.10e-03	0	43	102	1048576	22	4887
2026-01-04 01:24:26.76	356.17	26.72	-31.1	-33.3	11.8	1.51e-03	0	43	102	1048576	22	4681
2026-01-04 01:24:27.77	355.99	26.86	-30.9	-32.8	12.1	5.01e-04	0	43	102	1048576	22	4500
2026-01-04 01:24:28.77	355.82	27.00	-30.7	-32.7	12.6	2.01e-03	0	43	102	1048576	21	4535
2026-01-04 01:24:29.78	355.63	27.14	-30.6	-32.4	12.7	2.93e-04	0	43	102	1048576	21	4448
2026-01-04 01:24:30.78	355.45	27.28	-30.6	-32.4	12.7	2.06e-04	0	43	102	1048576	21	4422
2026-01-04 01:24:31.78	355.27	27.42	-30.9	-33.2	12.2	1.99e-03	0	43	102	1048576	21	4730
2026-01-04 01:24:32.79	355.08	27.56	-30.5	-32.6	13.0	1.85e-03	0	43	102	1048576	20	4601
2026-01-04 01:24:33.80	354.89	27.70	-30.4	-31.8	13.2	2.82e-05	0	43	102	1048576	21	4231
2026-01-04 01:24:34.81	354.70	27.85	-30.3	-31.6	13.3	1.93e-03	0	43	102	1048576	21	4191
2026-01-04 01:24:35.81	354.51	27.99	-30.7	-32.7	12.6	1.82e-03	0	43	102	1048576	21	4516
2026-01-04 01:24:36.82	354.31	28.13	-30.8	-32.9	12.5	9.00e-05	0	43	102	1048576	21	4592
2026-01-04 01:24:37.82	354.12	28.28	-30.8	-32.9	12.5	1.82e-03	0	43	102	1048576	21	4589
2026-01-04 01:24:38.83	353.92	28.42	-30.9	-33.2	12.3	1.80e-03	0	43	102	1048576	21	4723
2026-01-04 01:24:39.83	353.72	28.56	-31.1	-33.4	11.8	3.18e-04	0	43	102	1048576	22	4680
2026-01-04 01:24:40.84	353.52	28.71	-30.8	-32.9	12.5	1.51e-03	0	43	102	1048576	21	4609
2026-01-04 01:24:41.85	353.31	28.86	-30.8	-33.2	12.3	1.56e-03	0	43	102	1048576	21	4701
2026-01-04 01:24:42.86	353.11	29.00	-30.7	-32.2	12.7	4.39e-04	0	43	102	1048576	22	4270
2026-01-04 01:24:43.86	352.90	29.15	-30.9	-33.3	12.2	1.48e-03	0	43	102	1048576	21	4744
2026-01-04 01:24:44.87	352.69	29.29	-31.0	-33.2	11.9	1.50e-03	0	43	102	1048576	22	4624
2026-01-04 01:24:45.87	352.48	29.44	-30.9	-32.7	12.2	4.19e-04	0	43	102	1048576	22	4461
2026-01-04 01:24:46.88	352.27	29.59	-31.1	-33.4	11.8	1.58e-03	0	43	102	1048576	22	4689
2026-01-04 01:24:47.88	352.06	29.73	-31.4	-34.2	11.1	2.24e-03	0	43	102	1048576	22	5019
2026-01-04 01:24:48.89	351.84	29.88	-31.2	-33.9	11.4	7.99e-04	0	43	102	1048576	22	4875
2026-01-04 01:24:49.90	351.62	30.03	-31.3	-34.1	11.3	2.32e-03	0	43	102	1048576	22	4955
2026-01-04 01:24:50.90	351.40	30.18	-31.4	-33.7	11.3	1.78e-03	0	43	102	1048576	23	4708
2026-01-04 01:24:51.91	351.18	30.32	-31.4	-33.7	11.2	1.25e-03	0	43	102	1048576	23	4709
2026-01-04 01:24:52.92	350.95	30.47	-31.4	-34.3	11.3	3.08e-03	0	43	102	1048576	22	5008
2026-01-04 01:24:53.93	350.72	30.62	-31.4	-34.3	11.2	4.51e-03	0	43	102	1048576	22	5030
2026-01-04 01:24:54.93	350.50	30.77	-31.4	-33.6	11.4	1.29e-03	0	43	102	1048576	23	4675
2026-01-04 01:24:55.94	350.26	30.92	-31.6	-34.3	10.8	3.65e-03	0	43	102	1048576	23	4939
2026-01-04 01:24:56.95	350.03	31.07	-31.3	-33.9	11.5	3.32e-03	0	43	102	1048576	22	4860
2026-01-04 01:24:57.96	349.79	31.22	-31.3	-33.8	11.6	6.23e-04	0	43	102	1048576	22	4820
2026-01-04 01:24:58.96	349.56	31.37	-31.2	-33.5	11.8	3.19e-03	0	43	102	1048576	22	4708
2026-01-04 01:24:59.96	349.32	31.52	-31.1	-33.2	12.0	2.68e-03	0	43	102	1048576	22	4586
2026-01-04 01:25:00.97	349.08	31.67	-31.4	-34.1	11.5	4.07e-04	0	43	102	1048576	22	4929
2026-01-04 01:25:01.97	348.83	31.82	-31.0	-33.1	12.1	3.41e-04	0	43	102	1048576	22	4562
2026-01-04 01:25:02.98	348.58	31.97	-31.1	-33.4	11.9	2.16e-03	0	43	102	1048576	22	4663
2026-01-04 01:25:03.99	348.33	32.12	-31.6	-34.3	10.9	1.23e-03	0	43	102	1048576	23	4933
2026-01-04 01:25:05.00	348.08	32.27	-31.9	-35.3	10.1	4.30e-03	0	43	102	1048576	23	5325
2026-01-04 01:25:06.01	347.83	32.43	-32.1	-35.6	9.6	9.99e-03	0	43	102	1048576	24	5384
2026-01-04 01:25:07.02	347.57	32.58	-32.0	-35.2	9.8	1.35e-02	0	43	102	1048576	24	5196
2026-01-04 01:25:08.02	347.31	32.73	-32.2	-35.9	9.3	2.24e-02	0	43	102	1048576	24	5536
2026-01-04 01:25:09.03	347.05	32.88	-31.8	-34.7	10.1	1.58e-02	0	43	102	1048576	24	5022
2026-01-04 01:25:10.03	346.79	33.03	-31.7	-34.5	10.3	6.66e-03	0	43	102	1048576	24	4926
2026-01-04 01:25:11.04	346.52	33.18	-31.7	-34.9	10.4	5.25e-03	0	43	102	1048576	23	5187
2026-01-04 01:25:12.04	346.25	33.33	-31.7	-34.7	10.5	4.25e-03	0	43	102	1048576	23	5084
2026-01-04 01:25:13.05	345.98	33.49	-31.9	-35.6	9.9	4.98e-03	0	43	102	1048576	23	5496
2026-01-04 01:25:14.06	345.70	33.64	-31.9	-35.1	9.9	9.36e-03	0	43	102	1048576	24	5190
2026-01-04 01:25:15.06	345.43	33.79	-32.0	-35.4	9.7	9.20e-03	0	43	102	1048576	24	5293
2026-01-04 01:25:16.07	345.15	33.94	-32.1	-35.8	9.4	1.34e-02	0	43	102	1048576	24	5466
2026-01-04 01:25:17.08	344.87	34.09	-32.0	-35.1	9.9	1.39e-02	0	43	102	1048576	24	5158
2026-01-04 01:25:18.09	344.58	34.25	-32.1	-35.6	9.5	1.94e-02	0	43	102	1048576	24	5389
2026-01-04 01:25:19.10	344.29	34.40	-32.1	-35.6	9.5	1.61e-02	0	43	102	1048576	24	5387
2026-01-04 01:25:20.11	344.00	34.55	-32.1	-35.6	9.6	1.41e-02	0	43	102	1048576	24	5384
2026-01-04 01:25:21.12	343.71	34.70	-31.7	-34.3	10.6	5.15e-03	0	43	102	1048576	24	4823
2026-01-04 01:25:22.12	343.41	34.85	-31.7	-33.9	10.8	3.08e-03	0	43	102	1048576	24	4682
2026-01-04 01:25:23.13	343.11	35.00	-31.8	-34.9	10.6	2.86e-03	0	43	102	1048576	23	5125
2026-01-04 01:25:24.14	342.81	35.15	-31.2	-33.2	11.8	7.22e-04	0	43	102	1048576	23	4486
2026-01-04 01:25:25.15	342.51	35.31	-31.2	-33.1	11.8	5.60e-04	0	43	102	1048576	23	4447
2026-01-04 01:25:26.16	342.20	35.46	-31.2	-33.6	11.3	5.81e-04	0	43	102	1048576	22	4743
2026-01-04 01:25:27.16	341.89	35.61	-31.1	-33.2	12.1	2.75e-04	0	43	102	1048576	22	4602
2026-01-04 01:25:28.17	341.58	35.76	-31.2	-33.4	11.9	7.05e-04	0	43	102	1048576	22	4673
2026-01-04 01:25:29.17	341.26	35.91	-31.4	-34.0	11.4	4.94e-04	0	43	102	1048576	22	4893
2026-01-04 01:25:30.17	340.95	36.05	-31.8	-34.9	10.5	1.22e-03	0	43	102	1048576	23	5148
2026-01-04 01:25:31.18	340.63	36.20	-32.2	-35.8	9.4	8.41e-03	0	43	102	1048576	24	5479
2026-01-04 01:25:32.18	340.30	36.35	-32.0	-35.2	9.9	1.03e-02	0	43	102	1048576	24	5229
2026-01-04 01:25:33.19	339.97	36.50	-31.9	-34.9	10.0	7.66e-03	0	43	102	1048576	24	5112
2026-01-04 01:25:34.19	339.65	36.65	-31.6	-34.4	10.7	7.12e-03	0	43	102	1048576	23	4961
2026-01-04 01:25:35.20	339.31	36.80	-31.5	-34.2	10.8	2.80e-03	0	43	102	1048576	23	4906
2026-01-04 01:25:36.21	338.97	36.94	-31.6	-34.4	10.7	2.30e-03	0	43	102	1048576	23	5014
2026-01-04 01:25:37.22	338.63	37.09	-31.8	-35.1	10.2	7.53e-03	0	43	102	1048576	23	5295
2026-01-04 01:25:38.22	338.29	37.23	-31.8	-35.3	10.2	5.99e-03	0	43	102	1048576	23	5334
2026-01-04 01:25:39.23	337.95	37.38	-31.8	-35.2	10.2	8.08e-03	0	43	102	1048576	23	5306
2026-01-04 01:25:40.24	337.60	37.53	-31.5	-34.1	11.1	3.41e-03	0	43	102	1048576	23	4831
2026-01-04 01:25:41.24	337.25	37.67	-31.4	-33.7	11.3	3.65e-03	0	43	102	1048576	23	4681
2026-01-04 01:25:42.25	336.89	37.81	-31.4	-33.6	11.3	8.91e-04	0	43	102	1048576	23	4677
2026-01-04 01:25:43.26	336.53	37.96	-31.5	-34.2	11.0	1.36e-03	0	43	102	1048576	23	4879
2026-01-04 01:25:44.26	336.17	38.10	-31.6	-34.5	10.7	4.86e-03	0	43	102	1048576	23	5005
2026-01-04 01:25:45.27	335.81	38.24	-31.8	-35.2	10.2	4.01e-03	0	43	102	1048576	23	5299
2026-01-04 01:25:46.27	335.44	38.38	-32.1	-35.7	9.3	8.00e-03	0	43	102	1048576	24	5460
2026-01-04 01:25:47.28	335.07	38.52	-31.9	-35.1	9.8	1.62e-02	0	43	102	1048576	24	5181
2026-01-04 01:25:48.29	334.69	38.66	-31.9	-35.1	9.8	1.01e-02	0	43	102	1048576	24	5215
2026-01-04 01:25:49.29	334.32	38.80	-31.9	-35.5	10.0	1.08e-02	0	43	102	1048576	23	5458
2026-01-04 01:25:50.30	333.93	38.94	-31.7	-34.9	10.3	9.45e-03	0	43	102	1048576	23	5224
2026-01-04 01:25:51.30	333.55	39.07	-31.3	-33.6	11.3	2.08e-03	0	43	102	1048576	23	4681
2026-01-04 01:25:52.31	333.16	39.21	-31.2	-33.6	11.7	1.38e-03	0	43	102	1048576	22	4774
2026-01-04 01:25:53.31	332.78	39.34	-31.3	-33.8	11.6	6.25e-04	0	43	102	1048576	22	4854
2026-01-04 01:25:54.32	332.38	39.48	-31.4	-34.0	11.0	1.78e-03	0	43	102	1048576	23	4836
2026-01-04 01:25:55.32	331.99	39.61	-31.2	-33.8	11.5	2.07e-03	0	43	102	1048576	22	4844
2026-01-04 01:25:56.33	331.58	39.74	-30.9	-32.9	12.1	1.20e-03	0	43	102	1048576	22	4526
2026-01-04 01:25:57.34	331.18	39.87	-30.7	-32.3	12.5	2.79e-04	0	43	102	1048576	22	4302
2026-01-04 01:25:58.35	330.77	40.00	-30.7	-32.6	12.7	3.75e-04	0	43	102	1048576	21	4506
2026-01-04 01:25:59.34	330.37	40.13	-31.0	-33.5	12.2	5.16e-04	0	43	102	1048576	21	4814
2026-01-04 01:26:00.35	329.95	40.26	-31.1	-33.3	11.9	4.20e-04	0	43	102	1048576	22	4675
2026-01-04 01:26:01.35	329.54	40.38	-31.1	-33.4	11.8	1.86e-03	0	43	102	1048576	22	4702
2026-01-04 01:26:02.36	329.12	40.51	-31.0	-33.2	11.9	2.44e-03	0	43	102	1048576	22	4617
2026-01-04 01:26:03.36	328.70	40.63	-31.5	-34.3	10.8	1.09e-03	0	43	102	1048576	23	4931
2026-01-04 01:26:04.37	328.27	40.75	-31.1	-33.6	11.6	3.11e-03	0	43	102	1048576	22	4757
2026-01-04 01:26:05.38	327.84	40.87	-30.9	-32.8	12.1	3.20e-03	0	43	102	1048576	22	4498
2026-01-04 01:26:06.39	327.40	40.99	-30.6	-32.0	12.8	1.40e-04	0	43	102	1048576	22	4230
2026-01-04 01:26:07.40	326.96	41.11	-30.5	-32.3	12.9	7.55e-05	0	43	102	1048576	21	4396
2026-01-04 01:26:08.40	326.53	41.22	-30.7	-32.8	12.6	2.35e-03	0	43	102	1048576	21	4563
2026-01-04 01:26:09.41	326.08	41.34	-30.7	-32.7	12.7	8.23e-05	0	43	102	1048576	21	4543
2026-01-04 01:26:10.42	325.64	41.45	-30.9	-32.6	12.3	2.50e-04	0	43	102	1048576	22	4423
2026-01-04 01:26:11.42	325.19	41.56	-30.3	-31.5	13.4	6.10e-05	0	43	102	1048576	21	4159
2026-01-04 01:26:12.44	324.73	41.67	-29.9	-30.5	14.1	5.30e-06	0	43	102	1048576	21	3872
2026-01-04 01:26:13.44	324.28	41.78	-29.8	-30.9	14.1	2.83e-03	0	43	102	1048576	20	4077
2026-01-04 01:26:14.44	323.83	41.89	-30.1	-31.8	13.5	3.80e-06	0	43	102	1048576	20	4333
2026-01-04 01:26:15.45	323.36	41.99	-30.2	-32.0	13.2	1.14e-05	0	43	102	1048576	20	4428
2026-01-04 01:26:16.46	322.90	42.09	-30.9	-33.4	12.1	2.68e-03	0	43	102	1048576	21	4817
2026-01-04 01:26:17.47	322.43	42.19	-31.1	-33.7	11.5	6.13e-04	0	43	102	1048576	22	4813
2026-01-04 01:26:18.48	321.96	42.29	-30.9	-32.9	12.0	5.06e-04	0	43	102	1048576	22	4539
2026-01-04 01:26:19.49	321.48	42.39	-30.6	-32.8	12.5	2.38e-03	0	43	102	1048576	21	4604
2026-01-04 01:26:20.49	321.01	42.48	-30.2	-32.1	13.2	4.19e-05	0	43	102	1048576	20	4451
2026-01-04 01:26:21.50	320.53	42.58	-30.0	-31.5	13.5	1.37e-05	0	43	102	1048576	20	4260
2026-01-04 01:26:22.51	320.05	42.67	-30.1	-31.7	13.5	4.50e-06	0	43	102	1048576	20	4321
2026-01-04 01:26:23.51	319.57	42.76	-30.1	-31.8	13.5	9.10e-06	0	43	102	1048576	20	4345
2026-01-04 01:26:24.52	319.08	42.84	-29.8	-30.8	14.0	0.00e+00	0	43	102	1048576	20	4064
2026-01-04 01:26:25.53	318.59	42.93	-30.1	-31.8	13.4	9.10e-06	0	43	102	1048576	20	4363
2026-01-04 01:26:26.54	318.09	43.01	-30.4	-32.5	13.0	1.69e-03	0	43	102	1048576	20	4577
2026-01-04 01:26:27.54	317.60	43.09	-30.3	-31.7	13.2	5.03e-05	0	43	102	1048576	21	4236
2026-01-04 01:26:28.55	317.10	43.17	-30.4	-32.6	12.9	3.35e-05	0	43	102	1048576	20	4617
2026-01-04 01:26:29.55	316.61	43.24	-30.4	-32.4	13.1	2.05e-05	0	43	102	1048576	20	4543
2026-01-04 01:26:30.56	316.10	43.32	-30.6	-32.6	12.6	9.53e-05	0	43	102	1048576	21	4527
2026-01-04 01:26:31.57	315.60	43.39	-31.1	-33.4	11.9	2.61e-04	0	43	102	1048576	22	4702
2026-01-04 01:26:32.58	315.09	43.46	-31.1	-33.3	11.9	5.35e-04	0	43	102	1048576	22	4669
2026-01-04 01:26:33.58	314.58	43.52	-30.4	-33.1	11.4	6.45e-04	0	43	102	1048576	22	4871
2026-01-04 01:26:34.59	314.07	43.58	-31.0	-32.9	12.1	6.05e-04	0	43	102	1048576	22	4509
2026-01-04 01:26:35.59	313.56	43.65	-31.0	-33.4	12.2	1.18e-04	0	43	102	1048576	21	4773
2026-01-04 01:26:36.59	313.05	43.70	-31.0	-33.6	11.8	4.24e-04	0	43	102	1048576	21	4842
2026-01-04 01:26:37.60	312.53	43.76	-31.0	-33.2	11.3	5.13e-04	0	43	102	1048576	22	4627
2026-01-04 01:26:38.61	312.02	43.81	-30.9	-32.7	12.3	1.55e-04	0	43	102	1048576	22	4438
2026-01-04 01:26:39.61	311.50	43.86	-30.7	-32.8	12.3	2.19e-04	0	43	102	1048576	21	4547
2026-01-04 01:26:40.62	310.98	43.91	-30.9	-33.2	12.2	1.56e-04	0	43	102	1048576	21	4715
2026-01-04 01:26:41.63	310.45	43.96	-31.3	-34.1	11.3	3.65e-04	0	43	102	1048576	22	4954
2026-01-04 01:26:42.64	309.93	44.00	-31.1	-33.6	11.5	1.13e-03	0	43	102	1048576	22	4792
2026-01-04 01:26:43.64	309.40	44.04	-30.9	-33.5	12.0	2.71e-03	0	43	102	1048576	21	4846
2026-01-04 01:26:44.64	308.88	44.08	-30.7	-32.7	12.5	1.81e-04	0	43	102	1048576	21	4559
2026-01-04 01:26:45.65	308.35	44.12	-30.3	-32.1	13.3	1.36e-04	0	43	102	1048576	20	4427
2026-01-04 01:26:46.65	307.82	44.15	-29.8	-30.7	14.1	2.25e-03	0	43	102	1048576	20	4013
2026-01-04 01:26:47.65	307.30	44.18	-29.6	-30.4	14.4	0.00e+00	0	43	102	1048576	20	3919
2026-01-04 01:26:48.66	306.76	44.21	-30.3	-32.1	13.3	3.80e-06	0	43	102	1048576	20	4437
2026-01-04 01:26:49.67	306.23	44.23	-30.9	-33.3	12.2	4.88e-05	0	43	102	1048576	21	4778
2026-01-04 01:26:50.67	305.70	44.25	-31.1	-33.5	11.6	7.32e-04	0	43	102	1048576	22	4768
2026-01-04 01:26:51.68	305.16	44.27	-31.2	-33.8	11.5	9.29e-04	0	43	102	1048576	22	4861
2026-01-04 01:26:52.69	304.63	44.29	-31.3	-34.2	11.2	9.15e-04	0	43	102	1048576	22	5018
2026-01-04 01:26:53.69	304.10	44.30	-31.5	-34.3	10.7	3.63e-03	0	43	102	1048576	23	4985
2026-01-04 01:26:54.70	303.56	44.31	-31.3	-34.3	11.0	4.93e-03	0	43	102	1048576	22	5073
2026-01-04 01:26:55.71	303.02	44.32	-31.0	-33.3	11.7	2.05e-03	0	43	102	1048576	22	4669
2026-01-04 01:26:56.71	302.49	44.32	-31.0	-33.1	11.9	6.05e-04	0	43	102	1048576	22	4623
2026-01-04 01:26:57.72	301.95	44.33	-30.5	-32.4	12.6	2.26e-04	0	43	102	1048576	21	4478
2026-01-04 01:26:58.73	301.41	44.33	-30.2	-31.6	13.2	6.25e-05	0	43	102	1048576	21	4199
2026-01-04 01:26:59.72	300.89	44.32	-30.3	-31.8	13.1	2.28e-05	0	43	102	1048576	21	4269
2026-01-04 01:27:00.72	300.35	44.32	-30.7	-32.9	12.3	2.47e-04	0	43	102	1048576	21	4656
2026-01-04 01:27:01.73	299.82	44.31	-31.2	-34.1	11.2	2.03e-03	0	43	102	1048576	22	5003
2026-01-04 01:27:02.73	299.28	44.29	-31.1	-33.7	11.4	2.14e-03	0	43	102	1048576	22	4856
2026-01-04 01:27:03.74	298.75	44.28	-30.3	-31.7	13.1	1.04e-03	0	43	102	1048576	21	4240
2026-01-04 01:27:04.75	298.21	44.26	-30.3	-32.2	13.2	1.16e-03	0	43	102	1048576	20	4469
2026-01-04 01:27:05.75	297.68	44.24	-30.7	-32.8	12.5	2.44e-05	0	43	102	1048576	21	4609
2026-01-04 01:27:06.76	297.15	44.22	-31.4	-34.4	11.1	3.09e-03	0	43	102	1048576	22	5107
2026-01-04 01:27:07.77	296.61	44.19	-31.4	-34.6	10.9	3.22e-03	0	43	102	1048576	22	5179
2026-01-04 01:27:08.77	296.08	44.17	-31.4	-34.7	10.6	1.45e-03	0	43	102	1048576	22	5243
2026-01-04 01:27:09.77	295.56	44.14	-31.6	-34.7	10.4	4.53e-03	0	43	102	1048576	23	5143
2026-01-04 01:27:10.78	295.03	44.10	-31.5	-34.6	10.3	8.05e-03	0	43	102	1048576	23	5141
2026-01-04 01:27:11.78	294.50	44.07	-31.4	-34.2	10.6	3.52e-03	0	43	102	1048576	23	4957
2026-01-04 01:27:12.79	293.97	44.03	-31.5	-34.7	10.4	5.32e-03	0	43	102	1048576	23	5170
2026-01-04 01:27:13.79	293.45	43.98	-31.5	-34.5	10.5	5.46e-03	0	43	102	1048576	23	5065
2026-01-04 01:27:14.79	292.93	43.94	-31.2	-33.6	11.1	1.22e-03	0	43	102	1048576	23	4714
2026-01-04 01:27:15.78	292.42	43.89	-31.3	-34.1	11.2	2.88e-03	0	43	102	1048576	22	4994
2026-01-04 01:27:16.79	291.89	43.84	-31.2	-33.8	11.2	3.15e-03	0	43	102	1048576	22	4884
2026-01-04 01:27:17.79	291.38	43.79	-31.3	-34.2	11.1	1.97e-03	0	43	102	1048576	22	5040
2026-01-04 01:27:18.80	290.86	43.74	-31.4	-34.7	10.7	3.35e-03	0	43	102	1048576	22	5257
2026-01-04 01:27:19.81	290.34	43.68	-31.4	-34.0	10.8	4.07e-03	0	43	102	1048576	23	4871
2026-01-04 01:27:20.81	289.83	43.62	-31.9	-36.2	9.2	1.52e-02	0	43	102	1048576	23	5853
2026-01-04 01:27:21.82	289.32	43.56	-31.8	-35.1	9.5	1.99e-02	0	43	102	1048576	24	5261
2026-01-04 01:27:22.83	288.80	43.49	-31.6	-34.5	9.9	6.37e-03	0	43	102	1048576	24	5017
2026-01-04 01:27:23.83	288.30	43.43	-31.7	-34.5	10.2	4.01e-03	0	43	102	1048576	24	4968
2026-01-04 01:27:24.84	287.79	43.36	-31.6	-34.4	10.4	5.14e-03	0	43	102	1048576	24	4956
2026-01-04 01:27:25.85	287.29	43.28	-31.4	-34.3	10.6	6.21e-03	0	43	102	1048576	23	5005
2026-01-04 01:27:26.85	286.79	43.21	-31.5	-34.7	10.2	5.67e-03	0	43	102	1048576	23	5211
2026-01-04 01:27:27.86	286.29	43.13	-31.5	-34.7	10.2	6.59e-03	0	43	102	1048576	23	5185
2026-01-04 01:27:28.86	285.80	43.06	-31.8	-35.7	9.5	1.24e-02	0	43	102	1048576	23	5638
2026-01-04 01:27:29.87	285.30	42.97	-31.3	-34.0	10.8	8.40e-03	0	43	102	1048576	23	4916
2026-01-04 01:27:30.88	284.81	42.89	-30.8	-32.7	12.0	4.43e-04	0	43	102	1048576	22	4495
2026-01-04 01:27:31.88	284.32	42.81	-30.4	-32.1	12.8	1.62e-04	0	43	102	1048576	21	4376
2026-01-04 01:27:32.88	283.84	42.72	-30.7	-32.8	12.4	4.65e-05	0	43	102	1048576	21	4625
2026-01-04 01:27:33.90	283.35	42.63	-30.8	-33.0	12.2	2.43e-04	0	43	102	1048576	21	4689
2026-01-04 01:27:34.90	282.87	42.54	-30.9	-33.4	12.0	2.27e-04	0	43	102	1048576	21	4812
2026-01-04 01:27:35.91	282.39	42.44	-30.4	-32.2	12.8	3.72e-04	0	43	102	1048576	21	4397
2026-01-04 01:27:36.91	281.92	42.35	-30.3	-31.8	13.1	4.42e-05	0	43	102	1048576	21	4279
2026-01-04 01:27:37.92	281.44	42.25	-29.7	-30.6	14.1	3.00e-06	0	43	102	1048576	20	4010
2026-01-04 01:27:38.93	280.97	42.15	-29.8	-30.9	14.0	3.80e-06	0	43	102	1048576	20	4085
2026-01-04 01:27:39.93	280.51	42.05	-29.9	-31.7	13.9	2.24e-03	0	43	102	1048576	19	4407
2026-01-04 01:27:40.94	280.04	41.95	-30.1	-31.6	13.4	1.29e-05	0	43	102	1048576	20	4315
2026-01-04 01:27:41.95	279.58	41.84	-30.3	-32.3	13.1	4.80e-05	0	43	102	1048576	20	4515
2026-01-04 01:27:42.95	279.13	41.73	-29.8	-31.0	13.9	2.62e-04	0	43	102	1048576	20	4103
2026-01-04 01:27:43.96	278.67	41.62	-29.4	-30.4	14.6	7.00e-07	0	43	102	1048576	19	4040
2026-01-04 01:27:44.97	278.22	41.51	-29.2	-29.9	15.0	0.00e+00	0	43	102	1048576	19	3888
2026-01-04 01:27:45.97	277.77	41.40	-29.6	-30.7	14.7	0.00e+00	0	43	102	1048576	19	4059
2026-01-04 01:27:46.98	277.32	41.29	-29.8	-31.0	14.6	0.00e+00	0	43	102	1048576	19	4137
2026-01-04 01:27:47.99	276.88	41.17	-29.9	-31.3	14.4	0.00e+00	0	43	102	1048576	19	4236
2026-01-04 01:27:48.99	276.44	41.06	-29.6	-30.1	14.8	7.00e-07	0	43	102	1048576	20	3818
2026-01-04 01:27:49.99	276.01	40.94	-29.4	-30.2	15.1	1.70e-04	0	43	102	1048576	19	3915
2026-01-04 01:27:51.00	275.58	40.82	-29.1	-29.3	15.6	0.00e+00	0	43	102	1048576	19	3684
2026-01-04 01:27:52.01	275.15	40.70	-29.0	-29.7	15.7	0.00e+00	0	43	102	1048576	18	3865
2026-01-04 01:27:53.01	274.72	40.58	-28.7	-28.9	16.1	0.00e+00	0	43	102	1048576	18	3676
2026-01-04 01:27:54.01	274.30	40.45	-28.8	-29.2	15.9	0.00e+00	0	43	102	1048576	18	3758
2026-01-04 01:27:55.02	273.88	40.33	-28.4	-29.5	15.7	0.00e+00	0	43	102	1048576	17	4093
2026-01-04 01:27:56.02	273.47	40.20	-29.6	-30.6	14.8	0.00e+00	0	43	102	1048576	19	4039
2026-01-04 01:27:57.02	273.06	40.07	-29.7	-30.7	13.9	0.00e+00	0	43	102	1048576	19	4076
2026-01-04 01:27:58.03	272.65	39.94	-29.5	-30.7	14.4	0.00e+00	0	43	102	1048576	18	4165
2026-01-04 01:27:59.03	272.24	39.81	-29.6	-30.6	14.8	0.00e+00	0	43	102	1048576	19	4020
2026-01-04 01:28:00.04	271.84	39.68	-29.4	-30.5	15.0	0.00e+00	0	43	102	1048576	18	4104
2026-01-04 01:28:01.05	271.44	39.55	-29.2	-30.2	15.3	0.00e+00	0	43	102	1048576	18	4019
2026-01-04 01:28:02.06	271.04	39.42	-28.6	-28.6	16.2	0.00e+00	0	43	102	1048576	18	3595
2026-01-04 01:28:03.06	270.65	39.28	-28.7	-29.5	16.0	0.00e+00	0	43	102	1048576	17	3923
2026-01-04 01:28:04.07	270.25	39.15	-29.6	-30.7	14.8	2.05e-03	0	43	102	1048576	19	4062
2026-01-04 01:28:05.08	269.87	39.01	-29.9	-30.9	14.1	0.00e+00	0	43	102	1048576	20	4053
2026-01-04 01:28:06.09	269.48	38.87	-29.6	-30.7	14.7	2.20e-06	0	43	102	1048576	19	4072
2026-01-04 01:28:07.10	269.10	38.73	-29.2	-30.2	15.3	2.26e-03	0	43	102	1048576	18	4011
2026-01-04 01:28:08.10	268.72	38.59	-29.3	-30.3	15.3	0.00e+00	0	43	102	1048576	18	4032
2026-01-04 01:28:09.11	268.35	38.45	-29.3	-30.4	15.2	0.00e+00	0	43	102	1048576	18	4073
2026-01-04 01:28:10.11	267.98	38.31	-29.7	-30.9	14.6	2.75e-03	0	43	102	1048576	19	4125
2026-01-04 01:28:11.12	267.61	38.17	-30.0	-31.5	14.2	0.00e+00	0	43	102	1048576	19	4306
2026-01-04 01:28:12.13	267.25	38.03	-29.9	-31.5	14.2	7.00e-07	0	43	102	1048576	19	4297
2026-01-04 01:28:13.14	266.88	37.88	-30.5	-32.5	13.2	3.00e-06	0	43	102	1048576	20	4520
2026-01-04 01:28:14.14	266.53	37.74	-30.8	-32.9	12.7	8.69e-05	0	43	102	1048576	21	4578
2026-01-04 01:28:15.15	266.17	37.60	-30.1	-31.4	13.9	2.22e-03	0	43	102	1048576	20	4171
2026-01-04 01:28:16.15	265.82	37.45	-29.4	-30.0	15.0	0.00e+00	0	43	102	1048576	19	3887
2026-01-04 01:28:17.15	265.48	37.31	-29.5	-30.4	14.9	0.00e+00	0	43	102	1048576	19	3970
2026-01-04 01:28:18.16	265.13	37.16	-30.1	-31.5	13.8	2.45e-03	0	43	102	1048576	20	4206
2026-01-04 01:28:19.16	264.79	37.02	-30.4	-32.3	13.3	3.80e-06	0	43	102	1048576	20	4452
2026-01-04 01:28:20.17	264.45	36.87	-30.2	-31.6	13.7	9.10e-06	0	43	102	1048576	20	4255
2026-01-04 01:28:21.17	264.11	36.72	-29.9	-30.8	14.2	2.65e-03	0	43	102	1048576	20	4015
2026-01-04 01:28:22.18	263.78	36.57	-29.9	-31.0	14.1	2.23e-03	0	43	102	1048576	20	4070
2026-01-04 01:28:23.19	263.45	36.42	-30.3	-32.0	13.5	1.50e-06	0	43	102	1048576	20	4386
2026-01-04 01:28:24.19	263.12	36.27	-30.3	-31.9	13.5	2.44e-03	0	43	102	1048576	20	4330
2026-01-04 01:28:25.20	262.80	36.12	-30.0	-31.2	14.0	2.44e-03	0	43	102	1048576	20	4128
2026-01-04 01:28:26.21	262.48	35.97	-30.1	-31.4	14.0	2.20e-06	0	43	102	1048576	20	4171
2026-01-04 01:28:27.21	262.16	35.83	-30.6	-32.4	12.9	3.06e-03	0	43	102	1048576	21	4415
2026-01-04 01:28:28.22	261.84	35.67	-30.9	-33.1	12.4	4.05e-03	0	43	102	1048576	21	4647
2026-01-04 01:28:29.22	261.53	35.52	-30.8	-32.2	12.7	1.56e-04	0	43	102	1048576	22	4265
2026-01-04 01:28:30.23	261.22	35.37	-30.3	-31.9	13.5	4.14e-03	0	43	102	1048576	20	4334
2026-01-04 01:28:31.23	260.92	35.22	-30.1	-31.5	13.8	3.77e-03	0	43	102	1048576	20	4219
2026-01-04 01:28:32.24	260.61	35.07	-30.2	-31.8	13.6	5.30e-06	0	43	102	1048576	20	4304
2026-01-04 01:28:33.25	260.31	34.92	-29.8	-30.8	14.2	2.16e-03	0	43	102	1048576	20	3998
2026-01-04 01:28:34.25	260.02	34.77	-29.5	-30.5	14.8	2.08e-03	0	43	102	1048576	19	3997
2026-01-04 01:28:35.26	259.72	34.62	-29.8	-31.0	14.5	0.00e+00	0	43	102	1048576	19	4146
2026-01-04 01:28:36.26	259.43	34.47	-30.4	-32.1	13.4	7.34e-04	0	43	102	1048576	20	4415
2026-01-04 01:28:37.27	259.14	34.31	-31.0	-33.4	12.3	2.54e-04	0	43	102	1048576	21	4752
2026-01-04 01:28:38.28	258.85	34.16	-31.5	-33.8	11.2	1.10e-03	0	43	102	1048576	23	4718
2026-01-04 01:28:39.29	258.56	34.01	-31.3	-33.7	11.7	2.79e-03	0	43	102	1048576	22	4767
2026-01-04 01:28:40.29	258.28	33.86	-30.8	-32.7	12.6	1.32e-04	0	43	102	1048576	21	4511
2026-01-04 01:28:41.30	258.00	33.70	-30.7	-32.6	12.8	4.04e-05	0	43	102	1048576	21	4467
2026-01-04 01:28:42.31	257.73	33.55	-31.0	-32.9	12.2	2.36e-03	0	43	102	1048576	22	4487
2026-01-04 01:28:43.32	257.45	33.40	-31.4	-34.0	11.4	6.77e-04	0	43	102	1048576	22	4888
2026-01-04 01:28:44.33	257.18	33.25	-31.8	-35.0	10.4	3.86e-03	0	43	102	1048576	23	5171
2026-01-04 01:28:45.33	256.91	33.09	-32.1	-35.6	9.6	1.07e-02	0	43	102	1048576	24	5352
2026-01-04 01:28:46.34	256.64	32.94	-32.5	-36.7	8.3	2.53e-02	0	43	102	1048576	25	5837
2026-01-04 01:28:47.35	256.38	32.79	-33.0	-39.0	6.6	1.28e-01	0	43	102	1048576	25	7178
2026-01-04 01:28:48.35	256.12	32.64	-33.3	-40.4	5.3	4.03e-01	0	43	102	1048576	26	8167
2026-01-04 01:28:49.36	255.86	32.48	-33.1	-39.3	6.0	5.29e-01	0	43	102	1048576	26	7320
2026-01-04 01:28:50.36	255.61	32.33	-32.7	-36.9	7.7	1.39e-01	0	43	102	1048576	26	5857
2026-01-04 01:28:51.37	255.35	32.18	-32.3	-35.6	9.0	4.22e-02	0	43	102	1048576	25	5302
2026-01-04 01:28:52.38	255.10	32.03	-32.3	-36.2	9.1	2.13e-02	0	43	102	1048576	24	5652
2026-01-04 01:28:53.39	254.85	31.88	-32.4	-36.1	8.6	4.45e-02	0	43	102	1048576	25	5508
2026-01-04 01:28:54.40	254.60	31.73	-32.5	-36.5	8.4	4.16e-02	0	43	102	1048576	25	5710
2026-01-04 01:28:55.40	254.36	31.58	-32.3	-36.0	8.6	4.26e-02	0	43	102	1048576	25	5494
2026-01-04 01:28:56.41	254.11	31.42	-32.1	-35.0	9.5	1.68e-02	0	43	102	1048576	25	5036
2026-01-04 01:28:57.42	253.87	31.27	-31.9	-34.7	10.1	8.97e-03	0	43	102	1048576	24	4997
2026-01-04 01:28:58.43	253.63	31.12	-31.6	-34.4	10.8	4.07e-03	0	43	102	1048576	23	4956
2026-01-04 01:28:59.44	253.40	30.97	-31.5	-34.0	11.0	3.96e-03	0	43	102	1048576	23	4781
2026-01-04 01:29:00.44	253.17	30.82	-31.6	-34.3	10.8	2.79e-03	0	43	102	1048576	23	4919
2026-01-04 01:29:01.44	252.94	30.67	-31.7	-34.5	10.6	4.07e-03	0	43	102	1048576	23	4995
2026-01-04 01:29:02.45	252.71	30.52	-31.5	-34.0	11.0	2.93e-03	0	43	102	1048576	23	4803
2026-01-04 01:29:03.46	252.48	30.37	-31.6	-34.3	10.9	2.49e-03	0	43	102	1048576	23	4923
2026-01-04 01:29:04.47	252.25	30.22	-31.6	-34.5	10.7	2.26e-03	0	43	102	1048576	23	4996
2026-01-04 01:29:05.47	252.03	30.08	-31.7	-34.7	10.4	4.67e-03	0	43	102	1048576	23	5069
2026-01-04 01:29:06.48	251.81	29.93	-31.5	-33.9	11.0	2.51e-03	0	43	102	1048576	23	4767
2026-01-04 01:29:07.49	251.59	29.78	-31.7	-34.6	10.6	3.49e-03	0	43	102	1048576	23	5032
2026-01-04 01:29:08.49	251.37	29.63	-31.5	-33.9	11.0	3.19e-03	0	43	102	1048576	23	4754
2026-01-04 01:29:09.50	251.16	29.48	-31.2	-33.4	11.7	2.26e-03	0	43	102	1048576	22	4687
2026-01-04 01:29:10.51	250.95	29.34	-31.0	-33.1	12.0	2.77e-04	0	43	102	1048576	22	4548
2026-01-04 01:29:11.51	250.74	29.19	-31.3	-34.0	11.3	5.51e-04	0	43	102	1048576	22	4886
2026-01-04 01:29:12.52	250.53	29.04	-31.4	-34.1	11.2	1.33e-03	0	43	102	1048576	22	4945
2026-01-04 01:29:13.52	250.32	28.90	-31.5	-34.1	10.9	2.21e-03	0	43	102	1048576	23	4837
2026-01-04 01:29:14.53	250.12	28.75	-31.4	-34.1	11.2	1.11e-03	0	43	102	1048576	22	4947
2026-01-04 01:29:15.54	249.91	28.60	-31.1	-33.3	11.8	5.97e-04	0	43	102	1048576	22	4632
2026-01-04 01:29:16.55	249.71	28.46	-31.0	-33.0	12.0	6.63e-04	0	43	102	1048576	22	4535
2026-01-04 01:29:17.55	249.51	28.31	-30.8	-32.8	12.5	1.59e-04	0	43	102	1048576	21	4561
2026-01-04 01:29:18.56	249.31	28.17	-30.9	-33.4	12.1	2.62e-04	0	43	102	1048576	21	4754
2026-01-04 01:29:19.57	249.12	28.03	-30.8	-33.0	12.2	7.32e-04	0	43	102	1048576	21	4638
2026-01-04 01:29:20.57	248.92	27.88	-30.8	-33.0	12.3	3.46e-03	0	43	102	1048576	21	4638
2026-01-04 01:29:21.58	248.73	27.74	-30.8	-33.0	12.3	1.98e-04	0	43	102	1048576	21	4646
2026-01-04 01:29:22.59	248.54	27.60	-31.1	-33.5	11.7	2.30e-04	0	43	102	1048576	22	4702
2026-01-04 01:29:23.60	248.35	27.45	-30.9	-33.2	12.1	3.74e-03	0	43	102	1048576	21	4690
2026-01-04 01:29:24.61	248.16	27.31	-30.9	-33.2	12.1	1.61e-03	0	43	102	1048576	21	4697
2026-01-04 01:29:25.61	247.98	27.17	-30.9	-33.4	12.0	3.17e-04	0	43	102	1048576	21	4770
2026-01-04 01:29:26.61	247.79	27.03	-31.1	-33.4	11.7	4.27e-03	0	43	102	1048576	22	4673
2026-01-04 01:29:27.62	247.61	26.89	-30.9	-32.8	12.0	4.84e-03	0	43	102	1048576	22	4475
2026-01-04 01:29:28.63	247.43	26.75	-30.7	-32.8	12.4	1.45e-04	0	43	102	1048576	21	4581
2026-01-04 01:29:29.64	247.25	26.60	-30.7	-32.6	12.5	4.19e-03	0	43	102	1048576	21	4505
2026-01-04 01:29:30.64	247.07	26.47	-30.9	-33.2	12.1	4.05e-03	0	43	102	1048576	21	4721
2026-01-04 01:29:31.64	246.90	26.33	-30.8	-33.0	12.2	1.60e-03	0	43	102	1048576	21	4622
2026-01-04 01:29:32.65	246.72	26.19	-30.5	-32.2	12.7	1.21e-04	0	43	102	1048576	21	4369
2026-01-04 01:29:33.66	246.55	26.05	-30.4	-32.0	12.9	3.05e-03	0	43	102	1048576	21	4290
2026-01-04 01:29:34.67	246.38	25.91	-30.3	-32.2	13.1	5.23e-04	0	43	102	1048576	20	4452
2026-01-04 01:29:35.68	246.21	25.77	-30.2	-31.7	13.4	4.84e-04	0	43	102	1048576	20	4315
2026-01-04 01:29:36.68	246.04	25.64	-30.2	-31.7	13.4	2.74e-03	0	43	102	1048576	20	4294
2026-01-04 01:29:37.69	245.87	25.50	-30.1	-31.7	13.4	9.10e-06	0	43	102	1048576	20	4297
2026-01-04 01:29:38.70	245.71	25.36	-30.1	-31.7	13.4	2.30e-03	0	43	102	1048576	20	4287
2026-01-04 01:29:39.70	245.55	25.23	-30.6	-32.4	12.6	2.12e-03	0	43	102	1048576	21	4450
2026-01-04 01:29:40.71	245.38	25.09	-30.5	-32.3	12.6	1.17e-04	0	43	102	1048576	21	4401
2026-01-04 01:29:41.72	245.22	24.96	-30.5	-32.6	12.8	8.31e-05	0	43	102	1048576	20	4601
2026-01-04 01:29:42.72	245.06	24.82	-30.7	-32.6	12.5	1.07e-04	0	43	102	1048576	21	4508
2026-01-04 01:29:43.73	244.90	24.69	-30.7	-32.8	12.3	1.61e-04	0	43	102	1048576	21	4567
2026-01-04 01:29:44.73	244.75	24.55	-30.6	-32.4	12.5	1.62e-03	0	43	102	1048576	21	4427
2026-01-04 01:29:45.74	244.59	24.42	-30.5	-32.3	12.7	2.44e-03	0	43	102	1048576	21	4393
2026-01-04 01:29:46.74	244.44	24.29	-30.6	-32.5	12.5	1.65e-04	0	43	102	1048576	21	4469
2026-01-04 01:29:47.75	244.28	24.16	-30.3	-32.0	13.1	2.52e-03	0	43	102	1048576	20	4408
2026-01-04 01:29:48.76	244.13	24.02	-30.0	-31.4	13.4	2.35e-03	0	43	102	1048576	20	4228
2026-01-04 01:29:49.77	243.98	23.89	-29.8	-30.8	13.9	8.30e-06	0	43	102	1048576	20	4030
2026-01-04 01:29:50.77	243.83	23.76	-30.1	-31.5	13.5	3.30e-03	0	43	102	1048576	20	4250
2026-01-04 01:29:51.78	243.69	23.63	-30.2	-32.0	13.1	2.21e-03	0	43	102	1048576	20	4395
2026-01-04 01:29:52.79	243.54	23.50	-30.4	-32.6	12.8	2.27e-04	0	43	102	1048576	20	4590
2026-01-04 01:29:53.80	243.39	23.37	-30.9	-33.4	11.8	9.66e-04	0	43	102	1048576	21	4781
2026-01-04 01:29:54.81	243.25	23.24	-31.1	-33.6	11.4	3.47e-03	0	43	102	1048576	22	4775
2026-01-04 01:29:55.82	243.10	23.11	-31.4	-34.4	10.8	1.77e-03	0	43	102	1048576	22	5084
2026-01-04 01:29:56.82	242.96	22.98	-31.4	-34.3	10.8	2.57e-03	0	43	102	1048576	22	5050
2026-01-04 01:29:57.82	242.82	22.86	-31.3	-34.0	11.1	2.35e-03	0	43	102	1048576	22	4941
2026-01-04 01:29:58.83	242.68	22.73	-31.0	-33.2	11.6	1.16e-03	0	43	102	1048576	22	4625
2026-01-04 01:29:59.83	242.55	22.60	-31.0	-33.2	11.6	7.11e-04	0	43	102	1048576	22	4644
2026-01-04 01:30:00.83	242.41	22.48	-30.9	-32.8	11.8	4.78e-04	0	43	102	1048576	22	4500
2026-01-04 01:30:01.84	242.27	22.35	-30.9	-33.0	11.8	4.49e-04	0	43	102	1048576	22	4563
2026-01-04 01:30:02.85	242.14	22.22	-31.0	-33.2	11.6	1.12e-03	0	43	102	1048576	22	4651
2026-01-04 01:30:03.86	242.00	22.10	-31.0	-33.2	11.7	1.34e-03	0	43	102	1048576	22	4620
2026-01-04 01:30:04.86	241.87	21.97	-31.0	-33.2	11.6	6.01e-04	0	43	102	1048576	22	4637
2026-01-04 01:30:05.87	241.74	21.85	-30.9	-33.3	11.8	1.86e-03	0	43	102	1048576	21	4748
2026-01-04 01:30:06.88	241.61	21.72	-30.8	-33.2	11.9	2.33e-03	0	43	102	1048576	21	4744
2026-01-04 01:30:07.88	241.48	21.60	-30.8	-33.1	12.0	4.00e-04	0	43	102	1048576	21	4690
2026-01-04 01:30:08.89	241.35	21.48	-30.9	-33.3	11.8	2.55e-03	0	43	102	1048576	21	4763
2026-01-04 01:30:09.90	241.22	21.36	-30.8	-33.1	11.9	2.68e-03	0	43	102	1048576	21	4706
2026-01-04 01:30:10.91	241.10	21.23	-30.8	-33.3	11.9	3.62e-04	0	43	102	1048576	21	4758
2026-01-04 01:30:11.91	240.97	21.11	-30.9	-33.5	11.7	2.94e-03	0	43	102	1048576	21	4853
2026-01-04 01:30:12.92	240.85	20.99	-30.5	-32.4	12.3	1.27e-03	0	43	102	1048576	21	4449
2026-01-04 01:30:13.93	240.72	20.87	-30.4	-31.9	12.7	1.27e-04	0	43	102	1048576	21	4290
2026-01-04 01:30:14.94	240.60	20.75	-30.2	-31.9	13.1	2.06e-03	0	43	102	1048576	20	4392
2026-01-04 01:30:15.94	240.48	20.63	-30.1	-31.7	13.2	2.17e-03	0	43	102	1048576	20	4313
2026-01-04 01:30:16.94	240.36	20.51	-30.1	-31.7	13.2	2.13e-05	0	43	102	1048576	20	4324
2026-01-04 01:30:17.95	240.24	20.39	-30.2	-32.0	13.0	1.94e-03	0	43	102	1048576	20	4419
2026-01-04 01:30:18.95	240.12	20.27	-29.1	-30.6	13.3	1.68e-03	0	43	102	1048576	20	4280
2026-01-04 01:30:19.96	240.00	20.15	-30.1	-32.0	12.6	8.30e-06	0	43	102	1048576	19	4517
2026-01-04 01:30:20.97	239.89	20.04	-29.9	-31.7	12.2	1.47e-03	0	43	102	1048576	19	4409
2026-01-04 01:30:21.97	239.77	19.92	-30.0	-31.5	12.9	1.41e-03	0	43	102	1048576	20	4279
2026-01-04 01:30:22.97	239.66	19.80	-30.2	-31.9	12.9	2.67e-05	0	43	102	1048576	20	4407
2026-01-04 01:30:23.98	239.54	19.69	-30.3	-32.4	12.6	1.11e-03	0	43	102	1048576	20	4565
2026-01-04 01:30:24.98	239.43	19.57	-30.5	-32.4	12.3	9.38e-04	0	43	102	1048576	21	4470
2026-01-04 01:30:25.99	239.32	19.46	-30.5	-32.4	12.3	2.37e-04	0	43	102	1048576	21	4481
2026-01-04 01:30:27.00	239.21	19.34	-30.8	-33.2	11.8	3.55e-04	0	43	102	1048576	21	4751
2026-01-04 01:30:28.00	239.10	19.23	-30.6	-32.7	12.1	1.00e-03	0	43	102	1048576	21	4565
2026-01-04 01:30:29.01	238.99	19.11	-30.6	-32.7	12.1	2.50e-04	0	43	102	1048576	21	4589
2026-01-04 01:30:30.02	238.88	19.00	-30.6	-32.5	12.2	3.16e-03	0	43	102	1048576	21	4519
2026-01-04 01:30:31.02	238.77	18.88	-30.6	-32.5	12.2	2.14e-04	0	43	102	1048576	21	4513
2026-01-04 01:30:32.03	238.66	18.77	-30.6	-32.8	12.1	2.35e-04	0	43	102	1048576	21	4607
2026-01-04 01:30:33.03	238.56	18.66	-30.4	-32.7	12.5	3.05e-03	0	43	102	1048576	20	4666
2026-01-04 01:30:34.04	238.45	18.55	-30.3	-32.3	12.7	1.04e-04	0	43	102	1048576	20	4510
2026-01-04 01:30:35.04	238.35	18.43	-30.4	-32.4	12.6	9.84e-05	0	43	102	1048576	20	4568
2026-01-04 01:30:36.05	238.24	18.32	-30.7	-32.8	12.0	2.95e-03	0	43	102	1048576	21	4613
2026-01-04 01:30:37.05	238.14	18.21	-30.5	-32.5	12.2	1.08e-03	0	43	102	1048576	21	4499
2026-01-04 01:30:38.06	238.04	18.10	-30.6	-32.6	12.1	2.08e-04	0	43	102	1048576	21	4552
2026-01-04 01:30:39.06	237.94	17.99	-30.7	-32.9	11.9	6.33e-04	0	43	102	1048576	21	4662
2026-01-04 01:30:40.07	237.83	17.88	-30.8	-33.3	11.5	1.96e-03	0	43	102	1048576	21	4810
2026-01-04 01:30:41.08	237.73	17.77	-30.8	-33.2	11.7	3.69e-03	0	43	102	1048576	21	4747
2026-01-04 01:30:42.07	237.64	17.66	-30.9	-33.6	11.3	1.16e-03	0	43	102	1048576	21	4921
2026-01-04 01:30:43.08	237.54	17.55	-30.8	-33.2	11.6	2.46e-03	0	43	102	1048576	21	4773
2026-01-04 01:30:44.08	237.44	17.45	-31.0	-33.5	11.1	4.05e-03	0	43	102	1048576	22	4792
2026-01-04 01:30:45.09	237.34	17.34	-31.3	-34.3	10.6	2.38e-03	0	43	102	1048576	22	5092
2026-01-04 01:30:46.09	237.25	17.23	-31.2	-34.1	10.6	4.53e-03	0	43	102	1048576	22	5040
2026-01-04 01:30:47.10	237.15	17.12	-31.5	-35.0	10.0	8.09e-03	0	43	102	1048576	22	5406
2026-01-04 01:30:48.11	237.05	17.02	-31.4	-34.7	10.3	8.59e-03	0	43	102	1048576	22	5270
2026-01-04 01:30:49.11	236.96	16.91	-31.5	-35.0	10.0	5.93e-03	0	43	102	1048576	22	5409
2026-01-04 01:30:50.13	236.86	16.80	-31.6	-34.8	9.7	1.25e-02	0	43	102	1048576	23	5245
2026-01-04 01:30:51.13	236.77	16.70	-31.6	-35.1	9.5	1.46e-02	0	43	102	1048576	23	5369
2026-01-04 01:30:52.14	236.68	16.59	-31.3	-34.6	10.3	9.52e-03	0	43	102	1048576	22	5229
2026-01-04 01:30:53.14	236.59	16.49	-31.0	-33.6	10.9	3.49e-03	0	43	102	1048576	22	4832
2026-01-04 01:30:54.15	236.50	16.38	-30.7	-33.2	11.6	2.38e-03	0	43	102	1048576	21	4770
2026-01-04 01:30:55.15	236.41	16.28	-30.5	-32.5	12.1	5.89e-04	0	43	102	1048576	21	4516
2026-01-04 01:30:56.16	236.32	16.18	-30.3	-32.4	12.4	2.36e-03	0	43	102	1048576	20	4577
2026-01-04 01:30:57.17	236.23	16.07	-30.3	-32.3	12.5	2.53e-03	0	43	102	1048576	20	4545
2026-01-04 01:30:58.18	236.14	15.97	-30.1	-31.7	12.9	8.85e-05	0	43	102	1048576	20	4353
2026-01-04 01:30:59.18	236.05	15.87	-29.9	-31.4	13.2	2.53e-03	0	43	102	1048576	20	4237
2026-01-04 01:31:00.19	235.96	15.76	-29.9	-31.8	13.2	2.38e-03	0	43	102	1048576	19	4476
2026-01-04 01:31:01.20	235.88	15.66	-30.0	-31.6	13.0	3.81e-05	0	43	102	1048576	20	4326
2026-01-04 01:31:02.20	235.79	15.56	-30.1	-31.8	12.9	2.48e-03	0	43	102	1048576	20	4373
2026-01-04 01:31:03.21	235.70	15.46	-30.1	-31.9	12.8	5.34e-05	0	43	102	1048576	20	4398
2026-01-04 01:31:04.22	235.62	15.36	-30.4	-32.7	12.2	1.41e-04	0	43	102	1048576	20	4693
2026-01-04 01:31:05.22	235.53	15.26	-30.4	-32.8	12.2	2.71e-03	0	43	102	1048576	20	4734
2026-01-04 01:31:06.23	235.45	15.16	-30.5	-32.6	11.9	6.33e-04	0	43	102	1048576	21	4585
2026-01-04 01:31:07.23	235.37	15.06	-30.6	-32.8	11.7	5.19e-04	0	43	102	1048576	21	4648
2026-01-04 01:31:08.23	235.29	14.96	-30.6	-32.7	11.8	3.26e-03	0	43	102	1048576	21	4611
2026-01-04 01:31:09.25	235.20	14.86	-30.5	-32.5	12.0	5.30e-04	0	43	102	1048576	21	4531
2026-01-04 01:31:10.25	235.12	14.76	-30.7	-33.1	11.6	4.58e-04	0	43	102	1048576	21	4743
2026-01-04 01:31:11.25	235.04	14.66	-30.7	-33.2	11.4	3.44e-03	0	43	102	1048576	21	4797
2026-01-04 01:31:12.26	234.96	14.56	-30.4	-32.3	12.1	2.99e-03	0	43	102	1048576	21	4462
2026-01-04 01:31:13.27	234.88	14.47	-30.4	-32.2	12.2	3.13e-04	0	43	102	1048576	21	4424
2026-01-04 01:31:14.28	234.80	14.37	-30.3	-32.3	12.5	2.53e-04	0	43	102	1048576	20	4572
2026-01-04 01:31:15.28	234.72	14.27	-30.4	-32.6	12.2	2.91e-03	0	43	102	1048576	20	4676
2026-01-04 01:31:16.28	234.64	14.18	-30.5	-32.5	12.0	3.44e-04	0	43	102	1048576	21	4532
2026-01-04 01:31:17.28	234.57	14.08	-30.4	-32.8	12.0	2.88e-04	0	43	102	1048576	20	4745
2026-01-04 01:31:18.29	234.49	13.98	-30.5	-32.9	11.9	6.24e-04	0	43	102	1048576	20	4793
2026-01-04 01:31:19.29	234.41	13.89	-30.5	-32.6	11.9	3.29e-04	0	43	102	1048576	21	4562
2026-01-04 01:31:20.29	234.34	13.79	-30.7	-33.0	11.6	6.44e-04	0	43	102	1048576	21	4743
2026-01-04 01:31:21.29	234.26	13.70	-30.7	-33.1	11.5	7.56e-04	0	43	102	1048576	21	4780
2026-01-04 01:31:22.30	234.19	13.60	-30.8	-33.6	11.1	1.14e-03	0	43	102	1048576	21	4944
2026-01-04 01:31:23.30	234.11	13.51	-30.9	-33.8	11.0	1.90e-03	0	43	102	1048576	21	5031
2026-01-04 01:31:24.31	234.04	13.41	-31.0	-33.8	10.6	3.24e-03	0	43	102	1048576	22	4953
2026-01-04 01:31:25.32	233.96	13.32	-31.1	-33.8	10.5	3.00e-03	0	43	102	1048576	22	4956
2026-01-04 01:31:26.33	233.89	13.23	-31.1	-34.1	10.4	4.41e-03	0	43	102	1048576	22	5047
2026-01-04 01:31:27.33	233.82	13.13	-31.1	-33.9	10.5	4.08e-03	0	43	102	1048576	22	5001
2026-01-04 01:31:28.34	233.75	13.04	-31.2	-34.5	10.1	6.22e-03	0	43	102	1048576	22	5228
2026-01-04 01:31:29.35	233.67	12.95	-31.0	-33.8	10.6	4.18e-03	0	43	102	1048576	22	4963
2026-01-04 01:31:30.36	233.60	12.85	-31.0	-33.8	10.6	3.32e-03	0	43	102	1048576	22	4963
2026-01-04 01:31:31.37	233.53	12.76	-30.9	-33.6	10.7	3.03e-03	0	43	102	1048576	22	4866
2026-01-04 01:31:32.37	233.46	12.67	-30.9	-33.9	10.8	3.14e-03	0	43	102	1048576	21	5094
2026-01-04 01:31:33.38	233.39	12.58	-31.0	-34.1	10.6	2.94e-03	0	43	102	1048576	21	5195
2026-01-04 01:31:34.39	233.32	12.49	-31.0	-33.8	10.5	3.75e-03	0	43	102	1048576	22	4982
2026-01-04 01:31:35.40	233.25	12.40	-30.9	-34.1	10.2	3.47e-03	0	43	102	1048576	21	5173
2026-01-04 01:31:36.40	233.18	12.31	-30.8	-33.8	10.8	2.84e-03	0	43	102	1048576	21	5070
2026-01-04 01:31:37.41	233.11	12.22	-30.9	-34.2	10.5	3.21e-03	0	43	102	1048576	21	5212
2026-01-04 01:31:38.42	233.05	12.13	-31.1	-34.1	10.2	3.70e-03	0	43	102	1048576	22	5107
2026-01-04 01:31:39.43	232.98	12.04	-31.1	-34.3	10.1	5.72e-03	0	43	102	1048576	22	5158
2026-01-04 01:31:40.44	232.91	11.95	-31.2	-34.5	10.0	8.62e-03	0	43	102	1048576	22	5276
2026-01-04 01:31:41.44	232.85	11.86	-31.2	-34.5	10.0	7.36e-03	0	43	102	1048576	22	5253
2026-01-04 01:31:42.44	232.78	11.77	-31.2	-34.6	9.9	9.91e-03	0	43	102	1048576	22	5300
2026-01-04 01:31:43.45	232.71	11.68	-31.1	-34.3	10.0	8.32e-03	0	43	102	1048576	22	5174
2026-01-04 01:31:44.46	232.65	11.59	-31.1	-34.2	10.2	6.49e-03	0	43	102	1048576	22	5139
2026-01-04 01:31:45.47	232.58	11.50	-31.2	-34.3	10.0	7.08e-03	0	43	102	1048576	22	5191
2026-01-04 01:31:46.47	232.52	11.42	-31.1	-34.3	10.1	9.95e-03	0	43	102	1048576	22	5162
2026-01-04 01:31:47.47	232.46	11.33	-31.2	-34.3	10.0	8.95e-03	0	43	102	1048576	22	5199
2026-01-04 01:31:48.48	232.39	11.24	-31.1	-34.1	10.1	7.37e-03	0	43	102	1048576	22	5096
2026-01-04 01:31:49.49	232.33	11.15	-31.0	-33.7	10.5	7.12e-03	0	43	102	1048576	22	4932
2026-01-04 01:31:50.50	232.26	11.07	-30.9	-34.2	10.5	5.81e-03	0	43	102	1048576	21	5220
2026-01-04 01:31:51.51	232.20	10.98	-31.0	-34.2	10.5	4.47e-03	0	43	102	1048576	21	5213
2026-01-04 01:31:52.51	232.14	10.90	-30.9	-34.1	10.5	6.67e-03	0	43	102	1048576	21	5209
2026-01-04 01:31:53.52	232.08	10.81	-30.9	-34.0	10.6	5.65e-03	0	43	102	1048576	21	5148
2026-01-04 01:31:54.53	232.02	10.72	-30.9	-34.1	10.5	3.49e-03	0	43	102	1048576	21	5175
2026-01-04 01:31:55.53	231.96	10.64	-30.9	-34.2	10.5	3.62e-03	0	43	102	1048576	21	5216
2026-01-04 01:31:56.55	231.89	10.55	-30.9	-33.9	10.6	5.74e-03	0	43	102	1048576	21	5117
2026-01-04 01:31:57.55	231.83	10.47	-30.9	-34.1	10.4	3.64e-03	0	43	102	1048576	21	5200
2026-01-04 01:31:58.55	231.78	10.38	-30.8	-33.7	10.8	2.97e-03	0	43	102	1048576	21	5030
2026-01-04 01:31:59.56	231.72	10.30	-30.9	-34.1	10.4	4.51e-03	0	43	102	1048576	21	5179
2026-01-04 01:32:00.55	231.66	10.22	-30.9	-34.0	10.5	4.65e-03	0	43	102	1048576	21	5168
2026-01-04 01:32:01.56	231.60	10.13	-30.8	-33.9	10.5	6.65e-03	0	43	102	1048576	21	5125
2026-01-04 01:32:02.56	231.54	10.05	-30.8	-33.7	10.7	4.71e-03	0	43	102	1048576	21	5034
2026-01-04 01:32:03.56	231.48	9.97	-30.9	-34.0	10.5	3.70e-03	0	43	102	1048576	21	5155
2026-01-04 01:32:04.57	231.42	9.88	-31.0	-34.3	10.3	5.96e-03	0	43	102	1048576	21	5299
2026-01-04 01:32:05.57	231.37	9.80	-30.9	-34.2	10.3	5.05e-03	0	43	102	1048576	21	5231
2026-01-04 01:32:06.58	231.31	9.72	-30.9	-34.2	10.2	5.46e-03	0	43	102	1048576	21	5268
2026-01-04 01:32:07.58	231.25	9.64	-31.0	-34.1	10.0	8.67e-03	0	43	102	1048576	22	5111
2026-01-04 01:32:08.59	231.20	9.56	-31.2	-34.8	9.5	1.24e-02	0	43	102	1048576	22	5427
2026-01-04 01:32:09.61	231.14	9.47	-31.2	-34.7	9.5	1.78e-02	0	43	102	1048576	22	5413
2026-01-04 01:32:10.62	231.08	9.39	-31.1	-34.3	9.8	1.24e-02	0	43	102	1048576	22	5228
2026-01-04 01:32:11.62	231.03	9.31	-31.0	-34.2	9.9	1.17e-02	0	43	102	1048576	22	5153
2026-01-04 01:32:12.63	230.97	9.23	-31.0	-33.9	10.1	7.89e-03	0	43	102	1048576	22	5059
2026-01-04 01:32:13.63	230.92	9.15	-30.9	-34.2	10.2	8.64e-03	0	43	102	1048576	21	5276
2026-01-04 01:32:14.64	230.86	9.07	-31.0	-34.5	10.0	9.11e-03	0	43	102	1048576	21	5412
2026-01-04 01:32:15.65	230.81	8.99	-31.0	-33.9	10.1	7.99e-03	0	43	102	1048576	22	5064
2026-01-04 01:32:16.66	230.76	8.91	-31.0	-34.1	10.0	1.04e-02	0	43	102	1048576	22	5128
2026-01-04 01:32:17.66	230.70	8.83	-31.0	-34.5	10.0	9.59e-03	0	43	102	1048576	21	5390
2026-01-04 01:32:18.67	230.65	8.75	-30.9	-34.3	10.1	6.92e-03	0	43	102	1048576	21	5323
2026-01-04 01:32:19.67	230.60	8.67	-31.0	-34.0	10.0	7.75e-03	0	43	102	1048576	22	5089
2026-01-04 01:32:20.68	230.54	8.59	-31.1	-34.5	9.6	1.25e-02	0	43	102	1048576	22	5325
2026-01-04 01:32:21.69	230.49	8.51	-31.1	-34.3	9.7	1.60e-02	0	43	102	1048576	22	5244
2026-01-04 01:32:22.70	230.44	8.43	-31.0	-34.2	9.7	1.02e-02	0	43	102	1048576	22	5219
2026-01-04 01:32:23.71	230.39	8.35	-31.1	-34.4	9.6	1.23e-02	0	43	102	1048576	22	5289
2026-01-04 01:32:24.71	230.34	8.27	-31.0	-34.3	9.7	1.24e-02	0	43	102	1048576	22	5231
2026-01-04 01:32:25.71	230.28	8.20	-31.2	-34.8	9.3	1.73e-02	0	43	102	1048576	22	5480
2026-01-04 01:32:26.72	230.23	8.12	-31.1	-34.7	9.3	2.18e-02	0	43	102	1048576	22	5422
2026-01-04 01:32:27.73	230.18	8.04	-31.2	-35.0	9.1	1.93e-02	0	43	102	1048576	22	5554
2026-01-04 01:32:28.74	230.13	7.96	-31.2	-34.9	9.1	2.72e-02	0	43	102	1048576	22	5541
2026-01-04 01:32:29.74	230.08	7.89	-31.2	-35.0	9.0	2.57e-02	0	43	102	1048576	22	5616
2026-01-04 01:32:30.75	230.03	7.81	-31.1	-34.6	9.4	1.57e-02	0	43	102	1048576	22	5392
2026-01-04 01:32:31.75	229.98	7.73	-31.2	-35.0	9.1	1.85e-02	0	43	102	1048576	22	5574
2026-01-04 01:32:32.76	229.93	7.66	-31.2	-35.1	9.0	2.31e-02	0	43	102	1048576	22	5609
2026-01-04 01:32:33.77	229.89	7.58	-31.4	-35.6	8.6	3.10e-02	0	43	102	1048576	22	5870
2026-01-04 01:32:34.77	229.84	7.50	-31.3	-35.5	8.7	3.85e-02	0	43	102	1048576	22	5811
2026-01-04 01:32:35.78	229.79	7.43	-31.4	-35.7	8.5	3.99e-02	0	43	102	1048576	22	5920
2026-01-04 01:32:36.79	229.74	7.35	-31.5	-36.2	8.1	5.64e-02	0	43	102	1048576	22	6190
2026-01-04 01:32:37.79	229.69	7.28	-31.4	-35.5	8.2	7.06e-02	0	43	102	1048576	23	5729
2026-01-04 01:32:38.80	229.64	7.20	-31.4	-36.0	8.2	5.27e-02	0	43	102	1048576	22	6095
2026-01-04 01:32:39.81	229.60	7.13	-31.4	-35.9	8.3	5.31e-02	0	43	102	1048576	22	6034
2026-01-04 01:32:40.82	229.55	7.05	-32.9	-45.2	3.8	8.72e-01	0	43	104	1048576	25	14790
2026-01-04 01:32:41.82	229.50	6.98	-33.3	-45.7	3.8	1.49e+00	0	43	104	1048576	26	15092
2026-01-04 01:32:42.82	229.46	6.90	-33.5	-45.7	3.8	1.49e+00	0	43	104	1048576	27	14669
2026-01-04 01:32:43.83	229.41	6.83	-33.7	-46.1	3.8	1.49e+00	0	43	104	1048576	27	15055

#Closed at: 2026-01-04 01:32:44
#Recorded file [1 MB]: D:/data/31010_260104_042114.dat