passes_logs/2026/01/04/R2M6_AANII_01/R2M6_AANII_01__20260104_154236_FENGYUN_3E_rec.log

#Pass ID: 20260104_154236_FENGYUN 3E
#Satellite: FENGYUN 3E
#Configuration: FENGYUN 3E
#almurnet v.1.7.20240730
#Start time: 2026-01-04 15:42:36

#Version: 2.2.20231116
#Station: R2M6_AANII_01
#Location: 30.233357 lon 59.946436 lat
#TLE: 1 49008U 21062A   26004.01270550 -.00000256  00000+0 -10014-3 0  9997
#TLE: 2 49008  98.7472   9.2701 0001499 161.2681 198.8551 14.19882497233285

#Time	Az	El	Level	Level2	SNR	BER	BlckErr	Temp	State	Recorded	gain1	gain2
2026-01-04 15:42:36.64	195.68	7.01	-27.6	-29.1	5.6	7.55e-01	0	41	0	0	15	4238
2026-01-04 15:42:37.65	195.75	7.08	-29.3	-31.7	5.3	7.73e-01	0	41	104	0	18	4743
2026-01-04 15:42:38.65	195.81	7.15	-29.1	-31.0	10.1	8.93e-03	0	41	0	0	18	4513
2026-01-04 15:42:39.66	195.88	7.22	-29.3	-31.5	9.8	1.09e-02	0	41	102	1048576	18	4651
2026-01-04 15:42:40.67	195.95	7.29	-28.7	-30.1	10.6	9.36e-03	0	41	102	1048576	18	4233
2026-01-04 15:42:41.67	196.02	7.36	-28.8	-30.3	10.6	4.74e-03	0	41	102	1048576	18	4273
2026-01-04 15:42:42.68	196.09	7.44	-28.4	-29.3	11.3	1.86e-03	0	41	102	1048576	18	3979
2026-01-04 15:42:43.68	196.16	7.51	-27.9	-28.6	12.0	5.00e-04	0	41	102	1048576	17	3901
2026-01-04 15:42:44.68	196.23	7.58	-27.5	-28.1	12.6	1.44e-04	0	41	102	1048576	16	3865
2026-01-04 15:42:45.69	196.30	7.65	-27.3	-28.2	12.7	7.55e-05	0	41	102	1048576	15	4005
2026-01-04 15:42:46.69	196.37	7.72	-27.2	-27.9	12.9	6.06e-05	0	41	102	1048576	15	3923
2026-01-04 15:42:47.70	196.44	7.80	-27.4	-28.4	12.6	6.17e-05	0	41	102	1048576	15	4045
2026-01-04 15:42:48.70	196.51	7.87	-27.5	-28.7	12.4	1.94e-04	0	41	102	1048576	15	4135
2026-01-04 15:42:49.70	196.58	7.94	-27.3	-28.2	12.7	8.23e-05	0	41	102	1048576	15	3979
2026-01-04 15:42:50.71	196.65	8.02	-27.4	-28.5	12.5	1.03e-04	0	41	102	1048576	15	4075
2026-01-04 15:42:51.72	196.72	8.09	-27.5	-28.6	12.5	1.35e-04	0	41	102	1048576	15	4090
2026-01-04 15:42:52.72	196.80	8.16	-27.3	-28.1	12.8	5.95e-05	0	41	102	1048576	15	3965
2026-01-04 15:42:53.73	196.87	8.24	-27.3	-28.3	12.7	5.83e-05	0	41	102	1048576	15	4004
2026-01-04 15:42:54.74	196.94	8.31	-27.3	-28.1	12.9	7.09e-05	0	41	102	1048576	15	3961
2026-01-04 15:42:55.74	197.02	8.39	-27.6	-28.9	12.3	1.34e-04	0	41	102	1048576	15	4178
2026-01-04 15:42:56.75	197.09	8.46	-27.1	-28.3	13.0	6.98e-05	0	42	102	1048576	14	4112
2026-01-04 15:42:57.76	197.16	8.54	-27.2	-28.4	13.0	2.97e-05	0	41	102	1048576	14	4134
2026-01-04 15:42:58.77	197.24	8.61	-27.2	-28.5	12.9	6.29e-05	0	42	102	1048576	14	4166
2026-01-04 15:42:59.78	197.31	8.69	-27.4	-28.8	12.8	4.80e-05	0	42	102	1048576	14	4251
2026-01-04 15:43:00.78	197.39	8.76	-27.3	-28.7	12.9	8.81e-05	0	42	102	1048576	14	4213
2026-01-04 15:43:01.79	197.47	8.84	-27.3	-28.8	12.8	7.20e-05	0	42	102	1048576	14	4236
2026-01-04 15:43:02.79	197.54	8.91	-27.4	-28.4	12.7	5.83e-05	0	42	102	1048576	15	4025
2026-01-04 15:43:03.80	197.62	8.99	-27.6	-28.8	12.5	1.06e-04	0	42	102	1048576	15	4149
2026-01-04 15:43:04.80	197.69	9.06	-27.3	-28.2	12.9	7.89e-05	0	42	102	1048576	15	3977
2026-01-04 15:43:05.80	197.77	9.14	-27.4	-28.4	12.8	5.95e-05	0	42	102	1048576	15	4038
2026-01-04 15:43:06.81	197.85	9.22	-27.4	-28.3	12.8	7.55e-05	0	42	102	1048576	15	4018
2026-01-04 15:43:07.81	197.93	9.29	-27.4	-28.3	12.9	5.14e-05	0	42	102	1048576	15	3993
2026-01-04 15:43:08.82	198.01	9.37	-27.3	-28.2	12.9	4.69e-05	0	42	102	1048576	15	3994
2026-01-04 15:43:09.82	198.08	9.45	-27.5	-28.7	12.6	9.61e-05	0	42	102	1048576	15	4110
2026-01-04 15:43:10.83	198.16	9.52	-27.3	-28.1	13.0	3.89e-05	0	42	102	1048576	15	3942
2026-01-04 15:43:11.83	198.24	9.60	-27.0	-27.5	13.4	2.97e-05	0	42	102	1048576	15	3797
2026-01-04 15:43:12.84	198.32	9.68	-26.8	-27.5	13.7	6.80e-06	0	42	102	1048576	14	3889
2026-01-04 15:43:13.85	198.40	9.76	-26.9	-27.6	13.5	6.80e-06	0	42	102	1048576	14	3932
2026-01-04 15:43:14.86	198.48	9.83	-26.7	-27.3	13.8	1.25e-05	0	42	102	1048576	14	3847
2026-01-04 15:43:15.86	198.57	9.91	-26.5	-26.8	14.1	3.40e-06	0	42	102	1048576	14	3727
2026-01-04 15:43:16.86	198.65	9.99	-26.6	-27.1	13.9	6.80e-06	0	42	102	1048576	14	3815
2026-01-04 15:43:17.87	198.73	10.07	-26.5	-26.9	14.0	1.37e-05	0	42	102	1048576	14	3743
2026-01-04 15:43:18.88	198.81	10.15	-26.6	-27.0	14.0	4.50e-06	0	42	102	1048576	14	3763
2026-01-04 15:43:19.89	198.89	10.23	-26.7	-27.2	13.9	4.50e-06	0	42	102	1048576	14	3828
2026-01-04 15:43:20.90	198.98	10.31	-26.6	-26.9	14.0	3.40e-06	0	42	102	1048576	14	3757
2026-01-04 15:43:21.90	199.06	10.39	-26.4	-27.0	14.2	2.20e-06	0	42	102	1048576	13	3861
2026-01-04 15:43:22.91	199.15	10.46	-26.4	-27.1	14.2	2.20e-06	0	42	102	1048576	13	3898
2026-01-04 15:43:23.92	199.23	10.54	-26.3	-26.9	14.3	0.00e+00	0	42	102	1048576	13	3861
2026-01-04 15:43:24.93	199.32	10.63	-26.4	-27.2	14.2	0.00e+00	0	42	102	1048576	13	3911
2026-01-04 15:43:25.93	199.40	10.70	-26.3	-26.9	14.3	3.40e-06	0	42	102	1048576	13	3855
2026-01-04 15:43:26.94	199.49	10.79	-26.3	-26.9	14.4	0.00e+00	0	42	102	1048576	13	3838
2026-01-04 15:43:27.94	199.57	10.87	-26.4	-27.0	14.3	1.10e-06	0	42	102	1048576	13	3874
2026-01-04 15:43:28.94	199.66	10.95	-26.4	-27.0	14.3	0.00e+00	0	42	102	1048576	13	3863
2026-01-04 15:43:29.95	199.75	11.03	-26.3	-26.9	14.3	1.10e-06	0	42	102	1048576	13	3848
2026-01-04 15:43:30.96	199.84	11.11	-26.4	-27.2	14.2	2.20e-06	0	42	102	1048576	13	3915
2026-01-04 15:43:31.97	199.93	11.19	-26.4	-27.1	14.3	0.00e+00	0	42	102	1048576	13	3882
2026-01-04 15:43:32.98	200.01	11.27	-26.5	-27.3	14.2	1.10e-06	0	42	102	1048576	13	3946
2026-01-04 15:43:33.99	200.10	11.35	-26.7	-27.8	13.9	4.50e-06	0	42	102	1048576	13	4069
2026-01-04 15:43:35.00	200.19	11.44	-26.6	-27.4	14.1	3.40e-06	0	42	102	1048576	13	3970
2026-01-04 15:43:36.01	200.28	11.52	-26.4	-27.0	14.4	1.10e-06	0	42	102	1048576	13	3869
2026-01-04 15:43:37.02	200.38	11.60	-26.4	-27.0	14.3	0.00e+00	0	42	102	1048576	13	3868
2026-01-04 15:43:38.02	200.47	11.68	-26.5	-27.3	14.1	1.10e-06	0	42	102	1048576	13	3955
2026-01-04 15:43:39.03	200.56	11.77	-26.6	-27.6	14.0	3.40e-06	0	42	102	1048576	13	4019
2026-01-04 15:43:40.03	200.65	11.85	-26.5	-27.2	14.2	0.00e+00	0	42	102	1048576	13	3929
2026-01-04 15:43:41.03	200.74	11.93	-26.4	-27.0	14.4	1.10e-06	0	42	102	1048576	13	3861
2026-01-04 15:43:42.04	200.84	12.02	-26.4	-27.1	14.3	0.00e+00	0	42	102	1048576	13	3896
2026-01-04 15:43:43.04	200.93	12.10	-26.4	-27.1	14.3	0.00e+00	0	42	102	1048576	13	3891
2026-01-04 15:43:44.05	201.02	12.18	-26.2	-26.6	14.6	0.00e+00	0	43	102	1048576	13	3778
2026-01-04 15:43:45.06	201.12	12.27	-26.5	-27.3	14.2	2.20e-06	0	42	102	1048576	13	3936
2026-01-04 15:43:46.07	201.21	12.35	-26.3	-26.9	14.5	1.10e-06	0	43	102	1048576	13	3840
2026-01-04 15:43:47.07	201.31	12.44	-26.2	-26.6	14.6	1.10e-06	0	43	102	1048576	13	3781
2026-01-04 15:43:48.08	201.41	12.52	-26.3	-26.9	14.4	0.00e+00	0	42	102	1048576	13	3860
2026-01-04 15:43:49.09	201.50	12.61	-26.2	-26.7	14.6	2.20e-06	0	43	102	1048576	13	3795
2026-01-04 15:43:50.09	201.60	12.69	-26.3	-26.8	14.5	0.00e+00	0	43	102	1048576	13	3809
2026-01-04 15:43:51.10	201.70	12.78	-26.1	-26.5	14.7	0.00e+00	0	43	102	1048576	13	3746
2026-01-04 15:43:52.11	201.80	12.86	-26.1	-26.4	14.8	0.00e+00	0	43	102	1048576	13	3716
2026-01-04 15:43:53.11	201.90	12.95	-26.2	-26.7	14.6	1.14e-05	0	43	102	1048576	13	3783
2026-01-04 15:43:54.12	202.00	13.04	-26.3	-26.9	14.5	0.00e+00	0	43	102	1048576	13	3833
2026-01-04 15:43:55.12	202.10	13.12	-26.1	-26.5	14.7	0.00e+00	0	43	102	1048576	13	3735
2026-01-04 15:43:56.13	202.20	13.21	-26.2	-26.6	14.6	8.00e-06	0	43	102	1048576	13	3782
2026-01-04 15:43:57.14	202.30	13.30	-26.1	-26.3	14.8	0.00e+00	0	43	102	1048576	13	3704
2026-01-04 15:43:58.15	202.40	13.38	-26.0	-26.1	14.9	0.00e+00	0	43	102	1048576	13	3668
2026-01-04 15:43:59.15	202.50	13.47	-26.0	-26.1	15.0	6.80e-06	0	43	102	1048576	13	3649
2026-01-04 15:44:00.16	202.61	13.56	-25.9	-26.5	15.0	0.00e+00	0	43	102	1048576	12	3855
2026-01-04 15:44:01.17	202.71	13.65	-25.9	-26.4	15.1	0.00e+00	0	43	102	1048576	12	3819
2026-01-04 15:44:02.18	202.81	13.74	-25.8	-26.3	15.2	0.00e+00	0	43	102	1048576	12	3782
2026-01-04 15:44:03.18	202.92	13.82	-25.9	-26.3	15.1	0.00e+00	0	43	102	1048576	12	3802
2026-01-04 15:44:04.18	203.02	13.91	-25.9	-26.5	15.0	0.00e+00	0	43	102	1048576	12	3849
2026-01-04 15:44:05.18	203.13	14.00	-25.8	-26.1	15.3	0.00e+00	0	43	102	1048576	12	3749
2026-01-04 15:44:06.19	203.24	14.09	-25.9	-26.4	15.1	0.00e+00	0	43	102	1048576	12	3826
2026-01-04 15:44:07.20	203.34	14.18	-25.9	-26.5	15.0	0.00e+00	0	43	102	1048576	12	3840
2026-01-04 15:44:08.20	203.45	14.27	-25.9	-26.3	15.1	1.10e-06	0	43	102	1048576	12	3798
2026-01-04 15:44:09.20	203.56	14.36	-25.9	-26.5	15.0	1.10e-06	0	43	102	1048576	12	3843
2026-01-04 15:44:10.22	203.67	14.45	-26.0	-26.6	15.0	0.00e+00	0	43	102	1048576	12	3855
2026-01-04 15:44:11.22	203.78	14.54	-25.9	-26.5	15.1	0.00e+00	0	43	102	1048576	12	3831
2026-01-04 15:44:12.23	203.89	14.63	-25.9	-26.5	15.0	0.00e+00	0	43	102	1048576	12	3844
2026-01-04 15:44:13.23	204.00	14.72	-26.1	-26.9	14.8	0.00e+00	0	43	102	1048576	12	3939
2026-01-04 15:44:14.23	204.11	14.81	-25.8	-26.3	15.2	0.00e+00	0	43	102	1048576	12	3797
2026-01-04 15:44:15.24	204.22	14.90	-25.6	-25.8	15.5	0.00e+00	0	43	102	1048576	12	3668
2026-01-04 15:44:16.25	204.34	14.99	-25.6	-25.9	15.4	0.00e+00	0	43	102	1048576	12	3693
2026-01-04 15:44:17.26	204.45	15.08	-25.6	-25.8	15.5	0.00e+00	0	43	102	1048576	12	3671
2026-01-04 15:44:18.26	204.56	15.18	-25.6	-25.7	15.5	0.00e+00	0	43	102	1048576	12	3647
2026-01-04 15:44:19.27	204.68	15.27	-25.6	-25.7	15.6	0.00e+00	0	43	102	1048576	12	3648
2026-01-04 15:44:20.28	204.80	15.36	-25.4	-25.4	15.7	0.00e+00	0	43	102	1048576	12	3589
2026-01-04 15:44:21.29	204.91	15.45	-25.4	-25.9	15.8	0.00e+00	0	43	102	1048576	11	3794
2026-01-04 15:44:22.30	205.03	15.55	-25.4	-25.9	15.8	0.00e+00	0	43	102	1048576	11	3794
2026-01-04 15:44:23.30	205.15	15.64	-25.5	-25.9	15.8	0.00e+00	0	43	102	1048576	11	3801
2026-01-04 15:44:24.30	205.27	15.73	-25.4	-25.7	15.9	0.00e+00	0	43	102	1048576	11	3746
2026-01-04 15:44:25.31	205.39	15.83	-25.5	-26.0	15.7	0.00e+00	0	43	102	1048576	11	3831
2026-01-04 15:44:26.32	205.51	15.92	-25.4	-25.8	15.8	0.00e+00	0	43	102	1048576	11	3775
2026-01-04 15:44:27.33	205.63	16.02	-25.4	-25.8	15.9	0.00e+00	0	43	102	1048576	11	3775
2026-01-04 15:44:28.32	205.75	16.11	-25.5	-26.0	15.8	0.00e+00	0	43	102	1048576	11	3813
2026-01-04 15:44:29.32	205.87	16.20	-25.4	-25.8	15.9	0.00e+00	0	43	102	1048576	11	3761
2026-01-04 15:44:30.33	205.99	16.30	-25.4	-25.9	15.9	0.00e+00	0	43	102	1048576	11	3784
2026-01-04 15:44:31.34	206.12	16.39	-25.4	-25.9	15.8	0.00e+00	0	43	102	1048576	11	3795
2026-01-04 15:44:32.35	206.24	16.49	-25.2	-25.4	16.1	0.00e+00	0	43	102	1048576	11	3688
2026-01-04 15:44:33.36	206.37	16.59	-25.3	-25.6	16.0	0.00e+00	0	43	102	1048576	11	3714
2026-01-04 15:44:34.36	206.49	16.68	-25.3	-25.5	16.0	0.00e+00	0	43	102	1048576	11	3711
2026-01-04 15:44:35.37	206.62	16.78	-25.1	-25.2	16.2	0.00e+00	0	43	102	1048576	11	3639
2026-01-04 15:44:36.37	206.75	16.87	-25.2	-25.4	16.1	0.00e+00	0	43	102	1048576	11	3677
2026-01-04 15:44:37.37	206.87	16.97	-25.2	-25.3	16.2	0.00e+00	0	43	102	1048576	11	3656
2026-01-04 15:44:38.38	207.00	17.07	-25.1	-25.1	16.3	0.00e+00	0	43	102	1048576	11	3606
2026-01-04 15:44:39.39	207.13	17.16	-25.1	-25.1	16.3	0.00e+00	0	43	102	1048576	11	3602
2026-01-04 15:44:40.40	207.27	17.26	-25.0	-25.0	16.3	0.00e+00	0	43	102	1048576	11	3588
2026-01-04 15:44:41.40	207.40	17.36	-25.1	-25.2	16.2	0.00e+00	0	43	102	1048576	11	3644
2026-01-04 15:44:42.41	207.53	17.46	-25.1	-25.2	16.3	0.00e+00	0	43	102	1048576	11	3639
2026-01-04 15:44:43.42	207.66	17.55	-25.1	-25.2	16.3	0.00e+00	0	43	102	1048576	11	3629
2026-01-04 15:44:44.41	207.80	17.65	-25.1	-25.1	16.3	0.00e+00	0	43	102	1048576	11	3602
2026-01-04 15:44:45.42	207.93	17.75	-25.1	-25.1	16.3	0.00e+00	0	43	102	1048576	11	3608
2026-01-04 15:44:46.43	208.07	17.85	-25.2	-25.3	16.2	0.00e+00	0	43	102	1048576	11	3667
2026-01-04 15:44:47.43	208.20	17.95	-24.9	-24.8	16.5	0.00e+00	0	43	102	1048576	11	3554
2026-01-04 15:44:48.44	208.34	18.05	-25.0	-24.9	16.4	0.00e+00	0	43	102	1048576	11	3559
2026-01-04 15:44:49.45	208.48	18.15	-24.9	-24.8	16.5	0.00e+00	0	43	102	1048576	11	3545
2026-01-04 15:44:50.45	208.62	18.25	-25.0	-25.0	16.4	0.00e+00	0	43	102	1048576	11	3578
2026-01-04 15:44:51.46	208.76	18.35	-24.9	-24.8	16.5	0.00e+00	0	43	102	1048576	11	3535
2026-01-04 15:44:52.47	208.90	18.45	-25.0	-25.5	16.4	2.20e-06	0	43	102	1048576	10	3790
2026-01-04 15:44:53.48	209.04	18.55	-24.9	-25.1	16.6	0.00e+00	0	43	102	1048576	10	3709
2026-01-04 15:44:54.48	209.19	18.65	-24.8	-24.9	16.7	0.00e+00	0	43	102	1048576	10	3671
2026-01-04 15:44:55.49	209.33	18.75	-24.7	-24.8	16.8	4.50e-06	0	43	102	1048576	10	3638
2026-01-04 15:44:56.50	209.48	18.85	-24.8	-25.0	16.7	0.00e+00	0	43	102	1048576	10	3677
2026-01-04 15:44:57.50	209.62	18.95	-24.7	-24.8	16.8	0.00e+00	0	43	102	1048576	10	3643
2026-01-04 15:44:58.51	209.77	19.06	-24.8	-25.0	16.7	0.00e+00	0	43	102	1048576	10	3680
2026-01-04 15:44:59.52	209.92	19.16	-24.8	-24.9	16.7	0.00e+00	0	43	102	1048576	10	3667
2026-01-04 15:45:00.52	210.06	19.26	-24.9	-25.1	16.6	0.00e+00	0	43	102	1048576	10	3715
2026-01-04 15:45:01.53	210.21	19.36	-24.9	-25.2	16.6	0.00e+00	0	43	102	1048576	10	3737
2026-01-04 15:45:02.54	210.36	19.46	-25.0	-25.4	16.5	0.00e+00	0	43	102	1048576	10	3773
2026-01-04 15:45:03.55	210.52	19.57	-25.1	-25.6	16.4	0.00e+00	0	43	102	1048576	10	3815
2026-01-04 15:45:04.55	210.67	19.67	-25.0	-25.4	16.5	0.00e+00	0	43	102	1048576	10	3778
2026-01-04 15:45:05.56	210.82	19.77	-24.8	-25.1	16.7	0.00e+00	0	43	102	1048576	10	3702
2026-01-04 15:45:06.57	210.98	19.88	-24.7	-24.8	16.9	0.00e+00	0	43	102	1048576	10	3630
2026-01-04 15:45:07.57	211.13	19.98	-24.8	-25.0	16.8	0.00e+00	0	43	102	1048576	10	3676
2026-01-04 15:45:08.58	211.29	20.09	-24.6	-24.7	16.9	0.00e+00	0	43	102	1048576	10	3607
2026-01-04 15:45:09.59	211.45	20.19	-24.7	-24.8	16.9	0.00e+00	0	43	102	1048576	10	3628
2026-01-04 15:45:10.60	211.61	20.30	-24.6	-24.6	17.0	0.00e+00	0	43	102	1048576	10	3595
2026-01-04 15:45:11.60	211.77	20.40	-24.5	-24.9	17.0	0.00e+00	0	43	102	1048576	9	3775
2026-01-04 15:45:12.61	211.93	20.50	-24.4	-24.7	17.1	0.00e+00	0	43	102	1048576	9	3715
2026-01-04 15:45:13.62	212.09	20.61	-24.6	-25.1	16.9	0.00e+00	0	43	102	1048576	9	3806
2026-01-04 15:45:14.62	212.25	20.72	-24.6	-25.0	17.0	0.00e+00	0	43	102	1048576	9	3777
2026-01-04 15:45:15.62	212.41	20.82	-24.5	-24.8	17.1	0.00e+00	0	43	102	1048576	9	3732
2026-01-04 15:45:16.63	212.58	20.93	-24.6	-25.2	16.9	0.00e+00	0	43	102	1048576	9	3820
2026-01-04 15:45:17.63	212.75	21.03	-24.5	-24.8	17.1	0.00e+00	0	43	102	1048576	9	3734
2026-01-04 15:45:18.63	212.91	21.14	-24.4	-24.7	17.2	0.00e+00	0	43	102	1048576	9	3717
2026-01-04 15:45:19.64	213.08	21.24	-24.5	-24.8	17.1	0.00e+00	0	43	102	1048576	9	3741
2026-01-04 15:45:20.64	213.25	21.35	-24.5	-24.8	17.1	0.00e+00	0	43	102	1048576	9	3725
2026-01-04 15:45:21.65	213.42	21.46	-24.5	-24.8	17.1	0.00e+00	0	43	102	1048576	9	3741
2026-01-04 15:45:22.66	213.59	21.56	-24.5	-24.8	17.1	0.00e+00	0	43	102	1048576	9	3738
2026-01-04 15:45:23.66	213.77	21.67	-24.7	-25.3	16.9	0.00e+00	0	43	102	1048576	9	3856
2026-01-04 15:45:24.67	213.94	21.78	-24.6	-25.1	17.0	0.00e+00	0	43	102	1048576	9	3812
2026-01-04 15:45:25.68	214.12	21.89	-24.5	-24.9	17.1	0.00e+00	0	43	102	1048576	9	3749
2026-01-04 15:45:26.69	214.29	21.99	-24.5	-24.9	17.1	0.00e+00	0	43	102	1048576	9	3760
2026-01-04 15:45:27.70	214.47	22.10	-24.5	-24.9	17.1	0.00e+00	0	43	102	1048576	9	3755
2026-01-04 15:45:28.70	214.65	22.21	-24.5	-24.9	17.1	0.00e+00	0	43	102	1048576	9	3762
2026-01-04 15:45:29.70	214.83	22.32	-24.5	-24.9	17.1	0.00e+00	0	43	102	1048576	9	3769
2026-01-04 15:45:30.71	215.01	22.43	-24.7	-25.2	17.0	0.00e+00	0	43	102	1048576	9	3823
2026-01-04 15:45:31.72	215.19	22.54	-24.6	-25.0	17.1	0.00e+00	0	43	102	1048576	9	3788
2026-01-04 15:45:32.72	215.38	22.64	-24.4	-24.7	17.2	0.00e+00	0	43	102	1048576	9	3716
2026-01-04 15:45:33.73	215.56	22.75	-24.3	-24.4	17.4	0.00e+00	0	43	102	1048576	9	3655
2026-01-04 15:45:34.74	215.75	22.86	-24.4	-24.6	17.3	0.00e+00	0	43	102	1048576	9	3686
2026-01-04 15:45:35.74	215.94	22.97	-24.2	-24.3	17.5	0.00e+00	0	43	102	1048576	9	3617
2026-01-04 15:45:36.75	216.13	23.08	-24.2	-24.2	17.5	0.00e+00	0	43	102	1048576	9	3605
2026-01-04 15:45:37.76	216.32	23.19	-24.2	-24.3	17.5	0.00e+00	0	43	102	1048576	9	3619
2026-01-04 15:45:38.77	216.51	23.30	-24.1	-24.0	17.6	0.00e+00	0	43	102	1048576	9	3567
2026-01-04 15:45:39.77	216.70	23.41	-24.0	-23.9	17.7	0.00e+00	0	43	102	1048576	9	3533
2026-01-04 15:45:40.78	216.90	23.52	-24.1	-24.0	17.6	0.00e+00	0	43	102	1048576	9	3552
2026-01-04 15:45:41.79	217.09	23.63	-24.0	-23.8	17.8	0.00e+00	0	43	102	1048576	9	3505
2026-01-04 15:45:42.79	217.29	23.74	-24.0	-24.3	17.7	0.00e+00	0	43	102	1048576	8	3717
2026-01-04 15:45:43.80	217.49	23.85	-23.9	-24.1	17.9	0.00e+00	0	43	102	1048576	8	3673
2026-01-04 15:45:44.80	217.69	23.96	-23.9	-24.2	17.8	0.00e+00	0	43	102	1048576	8	3694
2026-01-04 15:45:45.81	217.89	24.07	-23.9	-24.0	17.9	0.00e+00	0	43	102	1048576	8	3657
2026-01-04 15:45:46.82	218.09	24.19	-23.8	-23.8	18.0	0.00e+00	0	43	102	1048576	8	3607
2026-01-04 15:45:47.82	218.29	24.30	-23.8	-23.8	18.0	0.00e+00	0	43	102	1048576	8	3612
2026-01-04 15:45:48.83	218.50	24.41	-24.0	-24.3	17.8	0.00e+00	0	43	102	1048576	8	3717
2026-01-04 15:45:49.83	218.70	24.52	-24.1	-24.6	17.6	0.00e+00	0	43	102	1048576	8	3785
2026-01-04 15:45:50.84	218.91	24.63	-24.0	-24.3	17.8	0.00e+00	0	43	102	1048576	8	3716
2026-01-04 15:45:51.84	219.12	24.74	-24.1	-24.4	17.7	0.00e+00	0	43	102	1048576	8	3756
2026-01-04 15:45:52.85	219.33	24.85	-24.1	-24.5	17.7	0.00e+00	0	43	102	1048576	8	3778
2026-01-04 15:45:53.85	219.54	24.96	-24.1	-24.5	17.7	0.00e+00	0	43	102	1048576	8	3780
2026-01-04 15:45:54.85	219.76	25.07	-24.2	-24.7	17.6	0.00e+00	0	43	102	1048576	8	3808
2026-01-04 15:45:55.86	219.97	25.18	-24.4	-25.1	17.4	0.00e+00	0	43	102	1048576	8	3912
2026-01-04 15:45:56.87	220.19	25.30	-24.2	-24.7	17.6	0.00e+00	0	43	102	1048576	8	3810
2026-01-04 15:45:57.87	220.41	25.41	-24.0	-24.2	17.8	0.00e+00	0	43	102	1048576	8	3694
2026-01-04 15:45:58.88	220.63	25.52	-23.9	-24.0	17.9	0.00e+00	0	43	102	1048576	8	3659
2026-01-04 15:45:59.89	220.85	25.63	-23.9	-24.1	17.9	0.00e+00	0	43	102	1048576	8	3675
2026-01-04 15:46:00.90	221.07	25.74	-24.0	-24.3	17.8	0.00e+00	0	44	102	1048576	8	3731
2026-01-04 15:46:01.91	221.30	25.85	-24.0	-24.2	17.8	0.00e+00	0	44	102	1048576	8	3699
2026-01-04 15:46:02.91	221.52	25.97	-24.0	-24.3	17.8	0.00e+00	0	44	102	1048576	8	3731
2026-01-04 15:46:03.92	221.75	26.08	-24.1	-24.4	17.7	0.00e+00	0	43	102	1048576	8	3751
2026-01-04 15:46:04.93	221.98	26.19	-24.0	-24.3	17.8	0.00e+00	0	44	102	1048576	8	3728
2026-01-04 15:46:05.94	222.21	26.30	-23.8	-23.8	18.0	0.00e+00	0	43	102	1048576	8	3620
2026-01-04 15:46:06.94	222.45	26.41	-23.8	-23.8	18.1	0.00e+00	0	43	102	1048576	8	3612
2026-01-04 15:46:07.95	222.68	26.53	-23.8	-23.8	18.1	0.00e+00	0	43	102	1048576	8	3614
2026-01-04 15:46:08.96	222.92	26.64	-23.8	-23.8	18.0	0.00e+00	0	43	102	1048576	8	3623
2026-01-04 15:46:09.97	223.15	26.75	-23.9	-24.1	17.9	0.00e+00	0	43	102	1048576	8	3679
2026-01-04 15:46:10.97	223.39	26.86	-23.8	-23.9	18.0	0.00e+00	0	43	102	1048576	8	3625
2026-01-04 15:46:11.98	223.63	26.97	-23.8	-23.8	18.1	0.00e+00	0	43	102	1048576	8	3606
2026-01-04 15:46:12.99	223.88	27.08	-23.8	-23.8	18.1	0.00e+00	0	43	102	1048576	8	3615
2026-01-04 15:46:13.99	224.12	27.19	-23.7	-23.7	18.1	0.00e+00	0	43	102	1048576	8	3589
2026-01-04 15:46:15.00	224.36	27.31	-23.7	-23.6	18.2	0.00e+00	0	43	102	1048576	8	3573
2026-01-04 15:46:16.00	224.61	27.42	-23.7	-23.7	18.1	0.00e+00	0	44	102	1048576	8	3590
2026-01-04 15:46:17.01	224.86	27.53	-23.7	-23.6	18.2	0.00e+00	0	44	102	1048576	8	3573
2026-01-04 15:46:18.03	225.11	27.64	-23.7	-23.7	18.2	0.00e+00	0	43	102	1048576	8	3579
2026-01-04 15:46:19.03	225.36	27.75	-23.8	-23.8	18.1	0.00e+00	0	44	102	1048576	8	3617
2026-01-04 15:46:20.03	225.62	27.86	-23.9	-24.1	18.0	0.00e+00	0	43	102	1048576	8	3671
2026-01-04 15:46:21.03	225.87	27.97	-23.7	-23.7	18.1	0.00e+00	0	43	102	1048576	8	3600
2026-01-04 15:46:22.04	226.13	28.08	-23.8	-24.0	18.0	0.00e+00	0	43	102	1048576	8	3649
2026-01-04 15:46:23.05	226.39	28.19	-23.6	-23.5	18.2	0.00e+00	0	43	102	1048576	8	3544
2026-01-04 15:46:24.06	226.65	28.30	-23.6	-23.4	18.3	0.00e+00	0	43	102	1048576	8	3514
2026-01-04 15:46:25.06	226.91	28.41	-23.7	-23.6	18.2	0.00e+00	0	43	102	1048576	8	3576
2026-01-04 15:46:26.07	227.18	28.52	-23.6	-23.4	18.3	0.00e+00	0	43	102	1048576	8	3527
2026-01-04 15:46:27.07	227.44	28.63	-23.5	-23.3	18.4	0.00e+00	0	43	102	1048576	8	3500
2026-01-04 15:46:28.07	227.71	28.73	-23.7	-23.7	18.2	0.00e+00	0	43	102	1048576	8	3583
2026-01-04 15:46:29.08	227.98	28.84	-23.8	-23.9	18.1	0.00e+00	0	43	102	1048576	8	3622
2026-01-04 15:46:30.08	228.25	28.95	-23.8	-23.9	18.0	0.00e+00	0	43	102	1048576	8	3635
2026-01-04 15:46:31.09	228.52	29.06	-23.9	-24.1	17.9	0.00e+00	0	43	102	1048576	8	3689
2026-01-04 15:46:32.09	228.80	29.17	-23.8	-23.9	18.1	0.00e+00	0	43	102	1048576	8	3638
2026-01-04 15:46:33.10	229.07	29.28	-23.9	-24.0	18.0	0.00e+00	0	43	102	1048576	8	3656
2026-01-04 15:46:34.11	229.35	29.38	-23.9	-24.0	18.0	0.00e+00	0	43	102	1048576	8	3648
2026-01-04 15:46:35.11	229.63	29.49	-24.0	-24.3	17.9	0.00e+00	0	43	102	1048576	8	3721
2026-01-04 15:46:36.12	229.92	29.60	-23.8	-23.8	18.2	0.00e+00	0	44	102	1048576	8	3606
2026-01-04 15:46:37.13	230.20	29.70	-23.6	-23.4	18.3	0.00e+00	0	43	102	1048576	8	3524
2026-01-04 15:46:38.14	230.49	29.81	-23.6	-23.4	18.4	0.00e+00	0	44	102	1048576	8	3517
2026-01-04 15:46:39.14	230.77	29.91	-23.7	-23.6	18.2	0.00e+00	0	43	102	1048576	8	3563
2026-01-04 15:46:40.14	231.06	30.02	-23.6	-23.4	18.3	0.00e+00	0	43	102	1048576	8	3528
2026-01-04 15:46:41.15	231.35	30.12	-23.6	-23.5	18.3	0.00e+00	0	43	102	1048576	8	3554
2026-01-04 15:46:42.16	231.65	30.23	-23.7	-23.7	18.2	0.00e+00	0	43	102	1048576	8	3581
2026-01-04 15:46:43.16	231.94	30.33	-23.6	-23.4	18.3	0.00e+00	0	43	102	1048576	8	3532
2026-01-04 15:46:44.17	232.24	30.44	-23.7	-23.6	18.2	0.00e+00	0	43	102	1048576	8	3555
2026-01-04 15:46:45.17	232.54	30.54	-23.5	-23.2	18.4	0.00e+00	0	43	102	1048576	8	3482
2026-01-04 15:46:46.17	232.84	30.64	-23.5	-23.2	18.4	0.00e+00	0	43	102	1048576	8	3482
2026-01-04 15:46:47.17	233.14	30.74	-23.5	-23.3	18.4	0.00e+00	0	43	102	1048576	8	3495
2026-01-04 15:46:48.18	233.44	30.84	-23.7	-23.6	18.3	0.00e+00	0	43	102	1048576	8	3565
2026-01-04 15:46:49.19	233.75	30.94	-23.5	-23.3	18.4	0.00e+00	0	44	102	1048576	8	3505
2026-01-04 15:46:50.19	234.06	31.04	-23.6	-23.5	18.3	0.00e+00	0	43	102	1048576	8	3547
2026-01-04 15:46:51.20	234.37	31.14	-23.6	-23.5	18.3	0.00e+00	0	43	102	1048576	8	3547
2026-01-04 15:46:52.21	234.68	31.24	-23.7	-23.6	18.3	0.00e+00	0	43	102	1048576	8	3556
2026-01-04 15:46:53.21	234.99	31.34	-23.5	-23.3	18.4	0.00e+00	0	43	102	1048576	8	3496
2026-01-04 15:46:54.21	235.31	31.44	-23.6	-23.3	18.4	0.00e+00	0	43	102	1048576	8	3505
2026-01-04 15:46:55.22	235.63	31.54	-23.6	-23.4	18.4	0.00e+00	0	43	102	1048576	8	3514
2026-01-04 15:46:56.22	235.94	31.63	-23.7	-23.7	18.2	0.00e+00	0	43	102	1048576	8	3587
2026-01-04 15:46:57.23	236.27	31.73	-23.8	-23.8	18.2	0.00e+00	0	43	102	1048576	8	3600
2026-01-04 15:46:58.23	236.59	31.82	-23.8	-23.9	18.1	0.00e+00	0	44	102	1048576	8	3636
2026-01-04 15:46:59.24	236.91	31.92	-23.7	-23.6	18.3	0.00e+00	0	43	102	1048576	8	3558
2026-01-04 15:47:00.25	237.24	32.01	-23.6	-23.4	18.3	0.00e+00	0	43	102	1048576	8	3536
2026-01-04 15:47:01.26	237.57	32.11	-23.6	-23.5	18.3	0.00e+00	0	43	102	1048576	8	3537
2026-01-04 15:47:02.25	237.90	32.20	-23.4	-23.1	18.5	0.00e+00	0	43	102	1048576	8	3456
2026-01-04 15:47:03.26	238.23	32.29	-23.4	-23.4	18.6	0.00e+00	0	43	102	1048576	7	3624
2026-01-04 15:47:04.26	238.56	32.38	-23.3	-23.2	18.7	0.00e+00	0	43	102	1048576	7	3582
2026-01-04 15:47:05.27	238.90	32.47	-23.3	-23.4	18.6	0.00e+00	0	43	102	1048576	7	3616
2026-01-04 15:47:06.27	239.24	32.56	-23.3	-23.4	18.6	0.00e+00	0	44	102	1048576	7	3613
2026-01-04 15:47:07.28	239.58	32.65	-23.4	-23.5	18.5	0.00e+00	0	43	102	1048576	7	3645
2026-01-04 15:47:08.29	239.92	32.74	-23.6	-23.9	18.3	0.00e+00	0	43	102	1048576	7	3737
2026-01-04 15:47:09.30	240.26	32.83	-23.4	-23.6	18.5	0.00e+00	0	43	102	1048576	7	3666
2026-01-04 15:47:10.30	240.61	32.91	-23.6	-23.9	18.4	0.00e+00	0	44	102	1048576	7	3730
2026-01-04 15:47:11.30	240.95	33.00	-23.6	-23.9	18.3	0.00e+00	0	44	102	1048576	7	3741
2026-01-04 15:47:12.31	241.30	33.08	-23.4	-23.4	18.6	0.00e+00	0	44	102	1048576	7	3621
2026-01-04 15:47:13.33	241.66	33.16	-23.4	-23.5	18.6	0.00e+00	0	44	102	1048576	7	3635
2026-01-04 15:47:14.33	242.01	33.25	-23.4	-23.6	18.5	0.00e+00	0	44	102	1048576	7	3666
2026-01-04 15:47:15.33	242.36	33.33	-23.5	-23.7	18.5	0.00e+00	0	43	102	1048576	7	3680
2026-01-04 15:47:16.34	242.72	33.41	-23.4	-23.5	18.5	0.00e+00	0	43	102	1048576	7	3641
2026-01-04 15:47:17.35	243.08	33.49	-23.4	-23.5	18.6	0.00e+00	0	43	102	1048576	7	3639
2026-01-04 15:47:18.35	243.43	33.57	-23.3	-23.3	18.7	0.00e+00	0	43	102	1048576	7	3589
2026-01-04 15:47:19.36	243.80	33.64	-23.4	-23.5	18.5	0.00e+00	0	43	102	1048576	7	3648
2026-01-04 15:47:20.37	244.16	33.72	-23.6	-23.9	18.3	0.00e+00	0	44	102	1048576	7	3741
2026-01-04 15:47:21.37	244.52	33.79	-23.7	-24.2	18.2	0.00e+00	0	43	102	1048576	7	3804
2026-01-04 15:47:22.38	244.89	33.87	-23.8	-24.3	18.1	0.00e+00	0	44	102	1048576	7	3820
2026-01-04 15:47:23.39	245.26	33.94	-23.7	-24.2	18.2	0.00e+00	0	43	102	1048576	7	3790
2026-01-04 15:47:24.39	245.62	34.01	-23.7	-24.2	18.2	0.00e+00	0	43	102	1048576	7	3803
2026-01-04 15:47:25.40	246.00	34.09	-23.6	-23.9	18.4	0.00e+00	0	43	102	1048576	7	3724
2026-01-04 15:47:26.40	246.37	34.15	-23.7	-24.2	18.2	0.00e+00	0	43	102	1048576	7	3801
2026-01-04 15:47:27.41	246.74	34.22	-23.7	-24.2	18.2	0.00e+00	0	43	102	1048576	7	3803
2026-01-04 15:47:28.42	247.12	34.29	-23.7	-24.1	18.3	0.00e+00	0	43	102	1048576	7	3770
2026-01-04 15:47:29.43	247.50	34.36	-23.6	-24.0	18.3	0.00e+00	0	43	102	1048576	7	3745
2026-01-04 15:47:30.43	247.87	34.42	-23.6	-23.9	18.4	0.00e+00	0	43	102	1048576	7	3735
2026-01-04 15:47:31.44	248.25	34.49	-23.4	-23.4	18.6	0.00e+00	0	43	102	1048576	7	3623
2026-01-04 15:47:32.44	248.63	34.55	-23.4	-23.4	18.6	0.00e+00	0	43	102	1048576	7	3629
2026-01-04 15:47:33.45	249.02	34.61	-23.5	-23.7	18.5	0.00e+00	0	43	102	1048576	7	3698
2026-01-04 15:47:34.46	249.40	34.67	-23.6	-23.9	18.4	0.00e+00	0	44	102	1048576	7	3729
2026-01-04 15:47:35.47	249.79	34.73	-23.6	-23.9	18.4	0.00e+00	0	43	102	1048576	7	3725
2026-01-04 15:47:36.48	250.18	34.78	-23.6	-23.8	18.4	0.00e+00	0	43	102	1048576	7	3715
2026-01-04 15:47:37.49	250.57	34.84	-23.5	-23.7	18.5	0.00e+00	0	43	102	1048576	7	3683
2026-01-04 15:47:38.50	250.96	34.89	-23.6	-23.9	18.4	0.00e+00	0	43	102	1048576	7	3730
2026-01-04 15:47:39.50	251.35	34.95	-23.5	-23.7	18.5	0.00e+00	0	43	102	1048576	7	3694
2026-01-04 15:47:40.51	251.74	35.00	-23.4	-23.5	18.6	0.00e+00	0	43	102	1048576	7	3639
2026-01-04 15:47:41.52	252.13	35.05	-23.4	-23.4	18.5	0.00e+00	0	43	102	1048576	7	3629
2026-01-04 15:47:42.52	252.53	35.10	-23.5	-23.7	18.5	0.00e+00	0	44	102	1048576	7	3691
2026-01-04 15:47:43.52	252.92	35.15	-23.5	-23.8	18.4	0.00e+00	0	43	102	1048576	7	3708
2026-01-04 15:47:44.53	253.32	35.19	-23.6	-23.9	18.4	0.00e+00	0	43	102	1048576	7	3734
2026-01-04 15:47:45.54	253.72	35.24	-23.6	-23.9	18.4	0.00e+00	0	43	102	1048576	7	3721
2026-01-04 15:47:46.54	254.11	35.28	-23.3	-23.3	18.7	0.00e+00	0	43	102	1048576	7	3595
2026-01-04 15:47:47.56	254.52	35.32	-23.0	-22.7	19.0	0.00e+00	0	44	102	1048576	7	3479
2026-01-04 15:47:48.56	254.92	35.36	-23.0	-22.8	19.0	0.00e+00	0	44	102	1048576	7	3481
2026-01-04 15:47:49.57	255.32	35.40	-23.0	-22.7	19.0	0.00e+00	0	43	102	1048576	7	3474
2026-01-04 15:47:50.58	255.72	35.44	-23.1	-22.9	18.9	0.00e+00	0	43	102	1048576	7	3509
2026-01-04 15:47:51.59	256.13	35.47	-23.3	-23.3	18.7	0.00e+00	0	43	102	1048576	7	3600
2026-01-04 15:47:52.60	256.53	35.51	-23.4	-23.4	18.6	0.00e+00	0	44	102	1048576	7	3617
2026-01-04 15:47:53.61	256.94	35.54	-23.5	-23.7	18.5	0.00e+00	0	44	102	1048576	7	3688
2026-01-04 15:47:54.62	257.35	35.57	-23.4	-23.6	18.6	0.00e+00	0	43	102	1048576	7	3653
2026-01-04 15:47:55.62	257.75	35.60	-23.3	-23.2	18.8	0.00e+00	0	43	102	1048576	7	3571
2026-01-04 15:47:56.63	258.16	35.63	-23.4	-23.5	18.6	0.00e+00	0	44	102	1048576	7	3635
2026-01-04 15:47:57.63	258.57	35.65	-23.6	-23.9	18.4	0.00e+00	0	44	102	1048576	7	3718
2026-01-04 15:47:58.64	258.98	35.68	-23.8	-24.4	18.1	0.00e+00	0	43	102	1048576	7	3834
2026-01-04 15:47:59.65	259.39	35.70	-23.9	-24.6	18.0	0.00e+00	0	44	102	1048576	7	3900
2026-01-04 15:48:00.65	259.79	35.72	-24.0	-24.8	17.9	0.00e+00	0	43	102	1048576	7	3952
2026-01-04 15:48:01.66	260.21	35.74	-24.0	-24.8	17.9	1.10e-06	0	44	102	1048576	7	3943
2026-01-04 15:48:02.67	260.62	35.76	-23.8	-24.4	18.1	0.00e+00	0	43	102	1048576	7	3860
2026-01-04 15:48:03.68	261.03	35.78	-23.9	-24.5	18.1	0.00e+00	0	43	102	1048576	7	3871
2026-01-04 15:48:04.69	261.44	35.79	-24.0	-24.9	17.9	1.10e-06	0	43	102	1048576	7	3953
2026-01-04 15:48:05.69	261.85	35.81	-23.9	-24.0	18.1	0.00e+00	0	43	102	1048576	8	3659
2026-01-04 15:48:06.70	262.27	35.82	-23.7	-23.6	18.4	0.00e+00	0	43	102	1048576	8	3560
2026-01-04 15:48:07.70	262.68	35.83	-23.6	-23.3	18.5	1.10e-06	0	43	102	1048576	8	3509
2026-01-04 15:48:08.71	263.09	35.84	-23.6	-23.3	18.5	0.00e+00	0	44	102	1048576	8	3509
2026-01-04 15:48:09.71	263.50	35.85	-23.7	-23.7	18.3	0.00e+00	0	43	102	1048576	8	3580
2026-01-04 15:48:10.71	263.91	35.85	-23.8	-23.8	18.2	0.00e+00	0	43	102	1048576	8	3619
2026-01-04 15:48:11.72	264.32	35.85	-24.0	-24.2	18.0	0.00e+00	0	44	102	1048576	8	3703
2026-01-04 15:48:12.73	264.74	35.86	-23.9	-24.1	18.1	0.00e+00	0	43	102	1048576	8	3664
2026-01-04 15:48:13.74	265.15	35.86	-23.7	-23.6	18.3	0.00e+00	0	43	102	1048576	8	3575
2026-01-04 15:48:14.74	265.56	35.86	-23.7	-23.6	18.4	0.00e+00	0	44	102	1048576	8	3558
2026-01-04 15:48:15.75	265.98	35.85	-23.8	-23.8	18.2	0.00e+00	0	43	102	1048576	8	3604
2026-01-04 15:48:16.76	266.39	35.85	-23.7	-23.5	18.4	0.00e+00	0	43	102	1048576	8	3554
2026-01-04 15:48:17.77	266.81	35.84	-23.8	-23.8	18.3	0.00e+00	0	43	102	1048576	8	3609
2026-01-04 15:48:18.77	267.22	35.83	-24.0	-24.3	18.0	0.00e+00	0	43	102	1048576	8	3720
2026-01-04 15:48:19.78	267.63	35.83	-23.8	-23.9	18.2	0.00e+00	0	44	102	1048576	8	3632
2026-01-04 15:48:20.79	268.05	35.81	-23.6	-23.4	18.5	0.00e+00	0	43	102	1048576	8	3517
2026-01-04 15:48:21.79	268.45	35.80	-23.4	-23.0	18.6	0.00e+00	0	43	102	1048576	8	3437
2026-01-04 15:48:22.80	268.87	35.79	-23.5	-23.7	18.5	0.00e+00	0	44	102	1048576	7	3686
2026-01-04 15:48:23.81	269.28	35.77	-23.4	-23.6	18.5	0.00e+00	0	43	102	1048576	7	3658
2026-01-04 15:48:24.81	269.69	35.75	-23.5	-23.7	18.5	0.00e+00	0	43	102	1048576	7	3681
2026-01-04 15:48:25.82	270.10	35.74	-23.4	-23.5	18.6	0.00e+00	0	44	102	1048576	7	3637
2026-01-04 15:48:26.82	270.51	35.71	-23.5	-23.6	18.6	1.10e-06	0	43	102	1048576	7	3668
2026-01-04 15:48:27.82	270.91	35.69	-23.4	-23.5	18.6	0.00e+00	0	43	102	1048576	7	3647
2026-01-04 15:48:28.83	271.32	35.67	-23.5	-23.7	18.5	0.00e+00	0	44	102	1048576	7	3687
2026-01-04 15:48:29.84	271.73	35.64	-23.5	-23.7	18.5	0.00e+00	0	43	102	1048576	7	3696
2026-01-04 15:48:30.84	272.14	35.62	-23.5	-23.7	18.5	0.00e+00	0	43	102	1048576	7	3677
2026-01-04 15:48:31.85	272.55	35.59	-23.5	-23.8	18.5	0.00e+00	0	43	102	1048576	7	3703
2026-01-04 15:48:32.86	272.95	35.56	-23.8	-24.3	18.2	0.00e+00	0	43	102	1048576	7	3822
2026-01-04 15:48:33.87	273.36	35.53	-23.6	-24.0	18.4	0.00e+00	0	43	102	1048576	7	3747
2026-01-04 15:48:34.87	273.76	35.49	-23.4	-23.6	18.6	0.00e+00	0	43	102	1048576	7	3654
2026-01-04 15:48:35.88	274.17	35.46	-23.5	-23.7	18.5	0.00e+00	0	44	102	1048576	7	3678
2026-01-04 15:48:36.89	274.57	35.42	-23.4	-23.5	18.6	0.00e+00	0	44	102	1048576	7	3645
2026-01-04 15:48:37.89	274.97	35.38	-23.6	-24.0	18.4	0.00e+00	0	44	102	1048576	7	3749
2026-01-04 15:48:38.90	275.37	35.34	-23.6	-23.8	18.5	0.00e+00	0	43	102	1048576	7	3715
2026-01-04 15:48:39.90	275.77	35.30	-23.7	-24.1	18.3	0.00e+00	0	44	102	1048576	7	3772
2026-01-04 15:48:40.91	276.17	35.26	-23.6	-23.9	18.4	0.00e+00	0	44	102	1048576	7	3734
2026-01-04 15:48:41.91	276.56	35.22	-23.5	-23.7	18.5	0.00e+00	0	43	102	1048576	7	3690
2026-01-04 15:48:42.92	276.96	35.17	-23.5	-23.8	18.5	0.00e+00	0	44	102	1048576	7	3701
2026-01-04 15:48:43.93	277.36	35.13	-23.3	-23.2	18.8	0.00e+00	0	44	102	1048576	7	3581
2026-01-04 15:48:44.93	277.75	35.08	-23.3	-23.3	18.8	0.00e+00	0	43	102	1048576	7	3587
2026-01-04 15:48:45.93	278.14	35.03	-23.5	-23.6	18.6	0.00e+00	0	43	102	1048576	7	3670
2026-01-04 15:48:46.94	278.54	34.98	-23.4	-23.5	18.7	0.00e+00	0	43	102	1048576	7	3634
2026-01-04 15:48:47.94	278.92	34.93	-23.7	-24.0	18.4	0.00e+00	0	44	102	1048576	7	3759
2026-01-04 15:48:48.95	279.32	34.87	-23.5	-23.7	18.5	0.00e+00	0	44	102	1048576	7	3681
2026-01-04 15:48:49.95	279.70	34.82	-23.5	-23.7	18.5	0.00e+00	0	44	102	1048576	7	3692
2026-01-04 15:48:50.96	280.09	34.76	-23.4	-23.5	18.6	0.00e+00	0	43	102	1048576	7	3644
2026-01-04 15:48:51.97	280.48	34.71	-23.4	-23.5	18.6	0.00e+00	0	44	102	1048576	7	3649
2026-01-04 15:48:52.98	280.86	34.65	-23.4	-23.5	18.6	0.00e+00	0	43	102	1048576	7	3631
2026-01-04 15:48:53.99	281.25	34.59	-23.6	-23.8	18.5	0.00e+00	0	44	102	1048576	7	3707
2026-01-04 15:48:54.99	281.63	34.52	-23.5	-23.7	18.5	0.00e+00	0	44	102	1048576	7	3691
2026-01-04 15:48:56.00	282.01	34.46	-23.5	-23.7	18.5	0.00e+00	0	44	102	1048576	7	3683
2026-01-04 15:48:57.01	282.39	34.40	-23.5	-23.7	18.6	0.00e+00	0	44	102	1048576	7	3676
2026-01-04 15:48:58.01	282.76	34.33	-23.5	-23.8	18.5	0.00e+00	0	44	102	1048576	7	3713
2026-01-04 15:48:59.02	283.14	34.27	-23.4	-23.6	18.6	0.00e+00	0	43	102	1048576	7	3666
2026-01-04 15:49:00.03	283.51	34.20	-23.6	-23.9	18.4	0.00e+00	0	44	102	1048576	7	3730
2026-01-04 15:49:01.03	283.88	34.13	-23.5	-23.7	18.5	0.00e+00	0	44	102	1048576	7	3687
2026-01-04 15:49:02.04	284.26	34.06	-23.8	-24.4	18.2	0.00e+00	0	44	102	1048576	7	3850
2026-01-04 15:49:03.05	284.63	33.99	-23.8	-24.3	18.3	0.00e+00	0	43	102	1048576	7	3828
2026-01-04 15:49:04.05	284.99	33.92	-24.0	-24.8	18.0	0.00e+00	0	43	102	1048576	7	3947
2026-01-04 15:49:05.06	285.36	33.84	-23.9	-24.4	18.2	0.00e+00	0	44	102	1048576	7	3854
2026-01-04 15:49:06.06	285.72	33.77	-23.8	-24.4	18.1	0.00e+00	0	44	102	1048576	7	3857
2026-01-04 15:49:07.08	286.09	33.69	-23.8	-24.4	18.2	0.00e+00	0	44	102	1048576	7	3832
2026-01-04 15:49:08.08	286.45	33.62	-23.6	-23.8	18.5	0.00e+00	0	44	102	1048576	7	3710
2026-01-04 15:49:09.09	286.81	33.54	-23.5	-23.7	18.5	0.00e+00	0	43	102	1048576	7	3694
2026-01-04 15:49:10.09	287.16	33.46	-23.7	-24.0	18.4	0.00e+00	0	44	102	1048576	7	3755
2026-01-04 15:49:11.10	287.52	33.38	-23.6	-23.9	18.5	0.00e+00	0	44	102	1048576	7	3728
2026-01-04 15:49:12.11	287.88	33.30	-23.8	-24.4	18.2	0.00e+00	0	44	102	1048576	7	3840
2026-01-04 15:49:13.12	288.23	33.22	-23.7	-24.2	18.3	0.00e+00	0	44	102	1048576	7	3798
2026-01-04 15:49:14.13	288.58	33.14	-23.7	-24.0	18.4	0.00e+00	0	44	102	1048576	7	3760
2026-01-04 15:49:15.13	288.93	33.05	-23.7	-24.1	18.3	0.00e+00	0	44	102	1048576	7	3774
2026-01-04 15:49:16.13	289.27	32.97	-23.8	-24.4	18.2	0.00e+00	0	44	102	1048576	7	3845
2026-01-04 15:49:17.14	289.62	32.89	-23.6	-24.0	18.4	0.00e+00	0	44	102	1048576	7	3754
2026-01-04 15:49:18.14	289.96	32.80	-23.7	-24.1	18.4	0.00e+00	0	44	102	1048576	7	3776
2026-01-04 15:49:19.15	290.31	32.71	-23.8	-24.3	18.2	0.00e+00	0	43	102	1048576	7	3819
2026-01-04 15:49:20.16	290.65	32.62	-23.9	-24.5	18.1	0.00e+00	0	43	102	1048576	7	3868
2026-01-04 15:49:21.16	290.98	32.54	-23.9	-24.6	18.1	0.00e+00	0	44	102	1048576	7	3895
2026-01-04 15:49:22.17	291.32	32.45	-23.9	-24.5	18.1	0.00e+00	0	44	102	1048576	7	3868
2026-01-04 15:49:23.18	291.66	32.36	-23.9	-24.5	18.1	0.00e+00	0	44	102	1048576	7	3866
2026-01-04 15:49:24.19	291.99	32.26	-23.9	-24.5	18.1	0.00e+00	0	44	102	1048576	7	3873
2026-01-04 15:49:25.20	292.32	32.17	-24.1	-24.4	17.9	0.00e+00	0	44	102	1048576	8	3746
2026-01-04 15:49:26.20	292.65	32.08	-24.3	-24.8	17.8	0.00e+00	0	44	102	1048576	8	3831
2026-01-04 15:49:27.21	292.98	31.99	-24.0	-24.2	18.1	0.00e+00	0	44	102	1048576	8	3685
2026-01-04 15:49:28.21	293.30	31.89	-23.9	-23.9	18.2	0.00e+00	0	44	102	1048576	8	3632
2026-01-04 15:49:29.22	293.63	31.80	-23.9	-24.0	18.2	0.00e+00	0	43	102	1048576	8	3637
2026-01-04 15:49:30.22	293.95	31.70	-24.1	-24.5	17.9	0.00e+00	0	44	102	1048576	8	3755
2026-01-04 15:49:31.23	294.27	31.61	-24.0	-24.3	18.0	0.00e+00	0	43	102	1048576	8	3723
2026-01-04 15:49:32.24	294.59	31.51	-24.2	-24.7	17.8	0.00e+00	0	43	102	1048576	8	3813
2026-01-04 15:49:33.25	294.90	31.41	-24.0	-24.3	18.0	0.00e+00	0	44	102	1048576	8	3717
2026-01-04 15:49:34.26	295.22	31.32	-23.9	-24.1	18.1	0.00e+00	0	44	102	1048576	8	3665
2026-01-04 15:49:35.26	295.53	31.22	-23.9	-24.1	18.1	0.00e+00	0	43	102	1048576	8	3666
2026-01-04 15:49:36.27	295.84	31.12	-23.9	-24.0	18.2	0.00e+00	0	44	102	1048576	8	3642
2026-01-04 15:49:37.28	296.15	31.02	-23.8	-23.8	18.2	0.00e+00	0	44	102	1048576	8	3614
2026-01-04 15:49:38.28	296.45	30.92	-23.7	-23.7	18.3	0.00e+00	0	44	102	1048576	8	3590
2026-01-04 15:49:39.28	296.76	30.82	-23.8	-23.9	18.2	0.00e+00	0	44	102	1048576	8	3625
2026-01-04 15:49:40.29	297.06	30.72	-23.8	-23.8	18.3	0.00e+00	0	44	102	1048576	8	3605
2026-01-04 15:49:41.29	297.36	30.62	-23.9	-24.0	18.2	0.00e+00	0	44	102	1048576	8	3653
2026-01-04 15:49:42.30	297.66	30.51	-23.8	-23.9	18.2	0.00e+00	0	43	102	1048576	8	3625
2026-01-04 15:49:43.30	297.95	30.41	-23.9	-24.0	18.2	0.00e+00	0	43	102	1048576	8	3639
2026-01-04 15:49:44.31	298.25	30.31	-23.9	-24.1	18.1	0.00e+00	0	44	102	1048576	8	3679
2026-01-04 15:49:45.32	298.55	30.21	-24.0	-24.2	18.1	0.00e+00	0	44	102	1048576	8	3687
2026-01-04 15:49:46.32	298.84	30.10	-24.0	-24.2	18.0	0.00e+00	0	43	102	1048576	8	3695
2026-01-04 15:49:47.33	299.13	30.00	-24.0	-24.3	18.0	0.00e+00	0	44	102	1048576	8	3716
2026-01-04 15:49:48.34	299.42	29.89	-23.9	-24.2	18.1	0.00e+00	0	44	102	1048576	8	3689
2026-01-04 15:49:49.34	299.70	29.79	-24.1	-24.4	17.9	0.00e+00	0	43	102	1048576	8	3747
2026-01-04 15:49:50.35	299.99	29.68	-24.1	-24.4	18.0	0.00e+00	0	44	102	1048576	8	3741
2026-01-04 15:49:51.35	300.27	29.58	-23.9	-24.1	18.1	0.00e+00	0	43	102	1048576	8	3683
2026-01-04 15:49:52.36	300.55	29.47	-24.1	-24.4	17.9	0.00e+00	0	43	102	1048576	8	3746
2026-01-04 15:49:53.37	300.83	29.36	-24.2	-24.6	17.8	0.00e+00	0	43	102	1048576	8	3793
2026-01-04 15:49:54.37	301.10	29.26	-24.0	-24.3	18.0	0.00e+00	0	44	102	1048576	8	3726
2026-01-04 15:49:55.38	301.38	29.15	-24.0	-24.3	18.0	0.00e+00	0	44	102	1048576	8	3714
2026-01-04 15:49:56.38	301.65	29.04	-24.0	-24.3	18.0	0.00e+00	0	44	102	1048576	8	3727
2026-01-04 15:49:57.39	301.92	28.94	-24.0	-24.3	18.0	0.00e+00	0	43	102	1048576	8	3723
2026-01-04 15:49:58.40	302.19	28.83	-24.0	-24.2	18.1	0.00e+00	0	43	102	1048576	8	3694
2026-01-04 15:49:59.40	302.46	28.72	-24.0	-24.3	18.0	0.00e+00	0	44	102	1048576	8	3717
2026-01-04 15:50:00.41	302.73	28.61	-24.0	-24.2	18.0	0.00e+00	0	43	102	1048576	8	3696
2026-01-04 15:50:01.42	302.99	28.50	-23.8	-23.9	18.2	0.00e+00	0	44	102	1048576	8	3626
2026-01-04 15:50:02.43	303.26	28.39	-23.7	-23.7	18.3	0.00e+00	0	43	102	1048576	8	3587
2026-01-04 15:50:03.43	303.52	28.28	-23.8	-23.8	18.2	0.00e+00	0	43	102	1048576	8	3611
2026-01-04 15:50:04.43	303.77	28.18	-23.8	-23.9	18.2	0.00e+00	0	43	102	1048576	8	3640
2026-01-04 15:50:05.44	304.03	28.07	-23.9	-24.0	18.1	0.00e+00	0	44	102	1048576	8	3658
2026-01-04 15:50:06.45	304.29	27.96	-24.0	-24.2	18.0	0.00e+00	0	44	102	1048576	8	3688
2026-01-04 15:50:07.45	304.54	27.85	-24.0	-24.4	17.9	0.00e+00	0	43	102	1048576	8	3733
2026-01-04 15:50:08.46	304.80	27.74	-24.1	-24.5	17.9	0.00e+00	0	43	102	1048576	8	3753
2026-01-04 15:50:09.47	305.05	27.63	-24.2	-24.6	17.8	0.00e+00	0	44	102	1048576	8	3790
2026-01-04 15:50:10.48	305.30	27.52	-24.2	-24.6	17.8	0.00e+00	0	43	102	1048576	8	3795
2026-01-04 15:50:11.49	305.55	27.41	-24.1	-24.5	17.9	0.00e+00	0	44	102	1048576	8	3757
2026-01-04 15:50:12.49	305.79	27.30	-24.2	-24.6	17.8	0.00e+00	0	43	102	1048576	8	3781
2026-01-04 15:50:13.50	306.03	27.19	-24.1	-24.6	17.9	0.00e+00	0	44	102	1048576	8	3778
2026-01-04 15:50:14.51	306.28	27.07	-24.1	-24.4	17.9	0.00e+00	0	44	102	1048576	8	3734
2026-01-04 15:50:15.51	306.52	26.96	-24.1	-24.6	17.9	0.00e+00	0	44	102	1048576	8	3775
2026-01-04 15:50:16.51	306.75	26.85	-24.1	-24.4	17.9	0.00e+00	0	44	102	1048576	8	3740
2026-01-04 15:50:17.52	306.99	26.74	-24.1	-24.4	17.9	0.00e+00	0	43	102	1048576	8	3745
2026-01-04 15:50:18.53	307.23	26.63	-24.0	-24.3	18.0	0.00e+00	0	44	102	1048576	8	3715
2026-01-04 15:50:19.54	307.46	26.52	-23.9	-24.1	18.1	0.00e+00	0	43	102	1048576	8	3678
2026-01-04 15:50:20.55	307.70	26.41	-24.0	-24.2	18.0	0.00e+00	0	43	102	1048576	8	3698
2026-01-04 15:50:21.55	307.93	26.30	-24.0	-24.3	18.0	0.00e+00	0	44	102	1048576	8	3713
2026-01-04 15:50:22.55	308.16	26.19	-24.1	-24.5	17.9	0.00e+00	0	44	102	1048576	8	3759
2026-01-04 15:50:23.56	308.38	26.08	-24.3	-24.8	17.7	0.00e+00	0	44	102	1048576	8	3830
2026-01-04 15:50:24.56	308.61	25.97	-24.3	-24.9	17.6	0.00e+00	0	43	102	1048576	8	3865
2026-01-04 15:50:25.57	308.83	25.86	-24.4	-25.0	17.6	0.00e+00	0	43	102	1048576	8	3881
2026-01-04 15:50:26.58	309.06	25.74	-24.3	-25.0	17.6	0.00e+00	0	43	102	1048576	8	3878
2026-01-04 15:50:27.59	309.28	25.63	-24.3	-24.8	17.7	0.00e+00	0	44	102	1048576	8	3839
2026-01-04 15:50:28.58	309.50	25.52	-24.2	-24.7	17.7	0.00e+00	0	44	102	1048576	8	3814
2026-01-04 15:50:29.59	309.72	25.41	-24.4	-25.0	17.6	0.00e+00	0	43	102	1048576	8	3877
2026-01-04 15:50:30.60	309.94	25.30	-24.3	-24.9	17.6	0.00e+00	0	44	102	1048576	8	3866
2026-01-04 15:50:31.60	310.15	25.19	-24.2	-24.6	17.8	0.00e+00	0	44	102	1048576	8	3782
2026-01-04 15:50:32.61	310.36	25.08	-24.1	-24.5	17.8	0.00e+00	0	43	102	1048576	8	3763
2026-01-04 15:50:33.62	310.58	24.97	-24.2	-24.7	17.7	0.00e+00	0	44	102	1048576	8	3810
2026-01-04 15:50:34.63	310.79	24.86	-24.1	-24.6	17.8	0.00e+00	0	44	102	1048576	8	3776
2026-01-04 15:50:35.63	311.00	24.75	-24.2	-24.6	17.8	0.00e+00	0	44	102	1048576	8	3784
2026-01-04 15:50:36.64	311.21	24.64	-24.2	-24.6	17.8	0.00e+00	0	44	102	1048576	8	3781
2026-01-04 15:50:37.64	311.41	24.53	-24.1	-24.5	17.8	0.00e+00	0	44	102	1048576	8	3771
2026-01-04 15:50:38.65	311.62	24.42	-24.2	-24.7	17.7	0.00e+00	0	44	102	1048576	8	3813
2026-01-04 15:50:39.66	311.83	24.31	-24.3	-24.8	17.7	0.00e+00	0	44	102	1048576	8	3833
2026-01-04 15:50:40.66	312.03	24.20	-24.4	-25.0	17.6	0.00e+00	0	44	102	1048576	8	3879
2026-01-04 15:50:41.67	312.23	24.09	-24.4	-25.1	17.5	0.00e+00	0	44	102	1048576	8	3898
2026-01-04 15:50:42.68	312.43	23.98	-24.4	-25.1	17.5	0.00e+00	0	43	102	1048576	8	3900
2026-01-04 15:50:43.68	312.63	23.87	-24.4	-25.2	17.4	0.00e+00	0	44	102	1048576	8	3918
2026-01-04 15:50:44.69	312.83	23.76	-24.5	-25.3	17.4	0.00e+00	0	44	102	1048576	8	3960
2026-01-04 15:50:45.69	313.02	23.65	-24.5	-25.3	17.4	0.00e+00	0	43	102	1048576	8	3945
2026-01-04 15:50:46.70	313.22	23.54	-24.5	-25.3	17.4	0.00e+00	0	43	102	1048576	8	3942
2026-01-04 15:50:47.71	313.41	23.43	-24.4	-25.1	17.5	0.00e+00	0	43	102	1048576	8	3910
2026-01-04 15:50:48.71	313.60	23.32	-24.5	-25.3	17.4	0.00e+00	0	43	102	1048576	8	3945
2026-01-04 15:50:49.72	313.79	23.21	-24.5	-25.2	17.4	0.00e+00	0	43	102	1048576	8	3939
2026-01-04 15:50:50.72	313.98	23.10	-24.4	-25.2	17.4	0.00e+00	0	44	102	1048576	8	3918
2026-01-04 15:50:51.73	314.17	23.00	-24.4	-25.1	17.4	0.00e+00	0	44	102	1048576	8	3910
2026-01-04 15:50:52.74	314.36	22.89	-24.5	-25.2	17.4	0.00e+00	0	43	102	1048576	8	3936
2026-01-04 15:50:53.75	314.54	22.78	-24.5	-25.3	17.4	0.00e+00	0	44	102	1048576	8	3957
2026-01-04 15:50:54.75	314.73	22.67	-24.5	-25.4	17.3	0.00e+00	0	43	102	1048576	8	3976
2026-01-04 15:50:55.76	314.91	22.56	-24.7	-25.3	17.1	0.00e+00	0	44	102	1048576	9	3846
2026-01-04 15:50:56.77	315.09	22.45	-24.9	-25.7	16.9	0.00e+00	0	43	102	1048576	9	3943
2026-01-04 15:50:57.77	315.27	22.35	-24.9	-25.7	16.9	0.00e+00	0	43	102	1048576	9	3938
2026-01-04 15:50:58.77	315.45	22.24	-24.9	-25.6	17.0	0.00e+00	0	44	102	1048576	9	3920
2026-01-04 15:50:59.77	315.63	22.13	-25.0	-25.8	16.8	0.00e+00	0	44	102	1048576	9	3969
2026-01-04 15:51:00.77	315.80	22.03	-24.9	-25.7	16.9	0.00e+00	0	44	102	1048576	9	3956
2026-01-04 15:51:01.78	315.98	21.92	-25.0	-25.8	16.8	0.00e+00	0	43	102	1048576	9	3971
2026-01-04 15:51:02.79	316.15	21.81	-24.9	-25.7	16.9	0.00e+00	0	44	102	1048576	9	3933
2026-01-04 15:51:03.80	316.33	21.70	-24.9	-25.6	16.9	0.00e+00	0	43	102	1048576	9	3917
2026-01-04 15:51:04.80	316.50	21.60	-24.8	-25.5	17.0	0.00e+00	0	44	102	1048576	9	3900
2026-01-04 15:51:05.81	316.67	21.49	-24.9	-25.7	16.9	0.00e+00	0	44	102	1048576	9	3942
2026-01-04 15:51:06.83	316.84	21.39	-24.9	-25.6	16.9	0.00e+00	0	44	102	1048576	9	3923
2026-01-04 15:51:07.83	317.01	21.28	-24.8	-25.5	17.0	0.00e+00	0	43	102	1048576	9	3886
2026-01-04 15:51:08.84	317.18	21.17	-24.9	-25.6	16.9	0.00e+00	0	43	102	1048576	9	3924
2026-01-04 15:51:09.85	317.35	21.07	-24.9	-25.6	16.9	0.00e+00	0	44	102	1048576	9	3925
2026-01-04 15:51:10.85	317.51	20.96	-24.8	-25.4	17.0	0.00e+00	0	44	102	1048576	9	3876
2026-01-04 15:51:11.85	317.68	20.86	-24.8	-25.5	17.0	0.00e+00	0	44	102	1048576	9	3889
2026-01-04 15:51:12.85	317.84	20.76	-24.8	-25.6	16.9	0.00e+00	0	44	102	1048576	9	3912
2026-01-04 15:51:13.85	318.00	20.65	-24.9	-25.7	16.8	0.00e+00	0	44	102	1048576	9	3951
2026-01-04 15:51:14.86	318.16	20.55	-25.0	-26.0	16.7	0.00e+00	0	44	102	1048576	9	4022
2026-01-04 15:51:15.87	318.32	20.44	-25.1	-26.0	16.7	0.00e+00	0	44	102	1048576	9	4021
2026-01-04 15:51:16.88	318.48	20.34	-25.2	-25.8	16.5	0.00e+00	0	44	102	1048576	10	3862
2026-01-04 15:51:17.88	318.64	20.23	-25.3	-26.1	16.4	0.00e+00	0	44	102	1048576	10	3944
2026-01-04 15:51:18.89	318.80	20.13	-25.2	-25.9	16.5	0.00e+00	0	44	102	1048576	10	3885
2026-01-04 15:51:19.90	318.95	20.03	-25.2	-25.7	16.6	0.00e+00	0	43	102	1048576	10	3854
2026-01-04 15:51:20.90	319.11	19.92	-25.1	-25.7	16.6	0.00e+00	0	44	102	1048576	10	3833
2026-01-04 15:51:21.91	319.26	19.82	-25.3	-26.0	16.5	0.00e+00	0	43	102	1048576	10	3900
2026-01-04 15:51:22.91	319.41	19.72	-25.3	-26.0	16.4	0.00e+00	0	44	102	1048576	10	3922
2026-01-04 15:51:23.92	319.57	19.62	-25.3	-25.9	16.5	0.00e+00	0	44	102	1048576	10	3891
2026-01-04 15:51:24.93	319.72	19.51	-25.3	-26.0	16.4	0.00e+00	0	44	102	1048576	10	3917
2026-01-04 15:51:25.94	319.87	19.41	-25.2	-25.9	16.5	0.00e+00	0	43	102	1048576	10	3871
2026-01-04 15:51:26.94	320.02	19.31	-25.2	-25.8	16.5	0.00e+00	0	44	102	1048576	10	3862
2026-01-04 15:51:27.95	320.17	19.21	-25.3	-26.1	16.4	0.00e+00	0	44	102	1048576	10	3918
2026-01-04 15:51:28.96	320.31	19.11	-25.2	-25.9	16.4	0.00e+00	0	44	102	1048576	10	3880
2026-01-04 15:51:29.97	320.46	19.01	-25.3	-25.9	16.4	0.00e+00	0	44	102	1048576	10	3894
2026-01-04 15:51:30.97	320.61	18.91	-25.2	-25.9	16.4	0.00e+00	0	44	102	1048576	10	3880
2026-01-04 15:51:31.98	320.75	18.81	-25.5	-26.3	16.2	0.00e+00	0	43	102	1048576	10	3989
2026-01-04 15:51:32.98	320.89	18.71	-25.4	-26.2	16.3	0.00e+00	0	44	102	1048576	10	3960
2026-01-04 15:51:33.99	321.04	18.61	-25.4	-26.1	16.3	0.00e+00	0	43	102	1048576	10	3940
2026-01-04 15:51:34.99	321.18	18.51	-25.5	-26.4	16.2	0.00e+00	0	43	102	1048576	10	4008
2026-01-04 15:51:36.00	321.32	18.41	-25.4	-26.3	16.2	0.00e+00	0	43	102	1048576	10	3983
2026-01-04 15:51:37.01	321.46	18.31	-25.7	-26.4	15.9	0.00e+00	0	44	102	1048576	11	3887
2026-01-04 15:51:38.02	321.60	18.21	-26.1	-26.7	15.4	0.00e+00	0	44	102	1048576	12	3861
2026-01-04 15:51:39.02	321.74	18.11	-25.7	-25.8	15.9	0.00e+00	0	43	102	1048576	12	3657
2026-01-04 15:51:40.03	321.87	18.01	-25.4	-25.3	16.1	0.00e+00	0	44	102	1048576	12	3551
2026-01-04 15:51:41.03	322.01	17.91	-25.3	-25.6	16.3	0.00e+00	0	44	102	1048576	11	3702
2026-01-04 15:51:42.03	322.14	17.82	-25.6	-26.1	16.1	0.00e+00	0	44	102	1048576	11	3818
2026-01-04 15:51:43.04	322.28	17.72	-25.7	-26.3	16.0	0.00e+00	0	44	102	1048576	11	3874
2026-01-04 15:51:44.04	322.41	17.62	-25.6	-26.2	16.0	0.00e+00	0	44	102	1048576	11	3859
2026-01-04 15:51:45.05	322.55	17.52	-25.7	-26.4	15.9	0.00e+00	0	44	102	1048576	11	3898
2026-01-04 15:51:46.06	322.68	17.43	-25.8	-26.6	15.8	0.00e+00	0	44	102	1048576	11	3957
2026-01-04 15:51:47.07	322.81	17.33	-25.8	-26.5	15.8	0.00e+00	0	44	102	1048576	11	3926
2026-01-04 15:51:48.07	322.94	17.23	-25.8	-26.7	15.7	0.00e+00	0	43	102	1048576	11	3975
2026-01-04 15:51:49.08	323.07	17.14	-25.7	-26.4	15.9	0.00e+00	0	44	102	1048576	11	3886
2026-01-04 15:51:50.09	323.20	17.04	-25.6	-26.2	16.0	0.00e+00	0	44	102	1048576	11	3847
2026-01-04 15:51:51.10	323.33	16.94	-25.7	-26.3	15.9	0.00e+00	0	44	102	1048576	11	3870
2026-01-04 15:51:52.10	323.46	16.85	-25.6	-26.1	16.0	0.00e+00	0	44	102	1048576	11	3825
2026-01-04 15:51:53.11	323.58	16.75	-25.6	-26.1	16.0	0.00e+00	0	44	102	1048576	11	3826
2026-01-04 15:51:54.11	323.71	16.66	-25.7	-26.4	15.9	0.00e+00	0	44	102	1048576	11	3896
2026-01-04 15:51:55.12	323.83	16.56	-25.6	-26.1	16.0	0.00e+00	0	44	102	1048576	11	3839
2026-01-04 15:51:56.13	323.96	16.47	-25.7	-26.4	15.8	0.00e+00	0	44	102	1048576	11	3905
2026-01-04 15:51:57.14	324.08	16.37	-25.6	-26.1	16.0	0.00e+00	0	44	102	1048576	11	3825
2026-01-04 15:51:58.15	324.21	16.28	-25.8	-26.6	15.7	0.00e+00	0	44	102	1048576	11	3948
2026-01-04 15:51:59.15	324.33	16.18	-25.6	-26.3	15.9	0.00e+00	0	44	102	1048576	11	3879
2026-01-04 15:52:00.16	324.45	16.09	-25.6	-26.1	16.0	0.00e+00	0	44	102	1048576	11	3840
2026-01-04 15:52:01.16	324.57	16.00	-25.6	-26.2	15.9	0.00e+00	0	44	102	1048576	11	3866
2026-01-04 15:52:02.17	324.69	15.90	-25.7	-26.4	15.8	0.00e+00	0	44	102	1048576	11	3912
2026-01-04 15:52:03.17	324.81	15.81	-26.0	-27.0	15.5	0.00e+00	0	43	102	1048576	11	4050
2026-01-04 15:52:04.18	324.93	15.72	-25.9	-26.8	15.6	0.00e+00	0	43	102	1048576	11	3991
2026-01-04 15:52:05.19	325.04	15.63	-26.1	-27.3	15.3	0.00e+00	0	44	102	1048576	11	4120
2026-01-04 15:52:06.19	325.16	15.53	-25.9	-26.9	15.5	0.00e+00	0	44	102	1048576	11	4033
2026-01-04 15:52:07.20	325.28	15.44	-25.9	-26.9	15.5	0.00e+00	0	44	102	1048576	11	4024
2026-01-04 15:52:08.21	325.39	15.35	-26.0	-27.1	15.4	0.00e+00	0	44	102	1048576	11	4069
2026-01-04 15:52:09.21	325.51	15.26	-26.0	-27.0	15.4	0.00e+00	0	44	102	1048576	11	4064
2026-01-04 15:52:10.22	325.62	15.17	-26.1	-27.2	15.3	0.00e+00	0	44	102	1048576	11	4097
2026-01-04 15:52:11.22	325.74	15.08	-26.1	-27.3	15.3	1.10e-06	0	44	102	1048576	11	4123
2026-01-04 15:52:12.23	325.85	14.99	-26.1	-26.9	15.2	0.00e+00	0	44	102	1048576	12	3927
2026-01-04 15:52:13.24	325.96	14.90	-26.3	-27.3	14.9	0.00e+00	0	44	102	1048576	12	4031
2026-01-04 15:52:14.25	326.07	14.80	-26.1	-26.8	15.2	0.00e+00	0	44	102	1048576	12	3892
2026-01-04 15:52:15.26	326.19	14.71	-26.0	-26.5	15.3	0.00e+00	0	44	102	1048576	12	3841
2026-01-04 15:52:16.26	326.30	14.63	-26.0	-26.6	15.3	0.00e+00	0	44	102	1048576	12	3856
2026-01-04 15:52:17.26	326.41	14.54	-26.0	-26.6	15.3	0.00e+00	0	44	102	1048576	12	3851
2026-01-04 15:52:18.26	326.51	14.45	-26.1	-26.9	15.1	0.00e+00	0	43	102	1048576	12	3919
2026-01-04 15:52:19.27	326.62	14.36	-26.0	-26.6	15.3	0.00e+00	0	44	102	1048576	12	3860
2026-01-04 15:52:20.28	326.73	14.27	-26.0	-26.7	15.2	1.10e-06	0	44	102	1048576	12	3874
2026-01-04 15:52:21.29	326.84	14.18	-26.0	-26.7	15.2	0.00e+00	0	44	102	1048576	12	3873
2026-01-04 15:52:22.30	326.95	14.09	-26.1	-26.8	15.2	0.00e+00	0	44	102	1048576	12	3896
2026-01-04 15:52:23.30	327.05	14.00	-26.2	-26.9	15.1	0.00e+00	0	44	102	1048576	12	3933
2026-01-04 15:52:24.31	327.16	13.92	-26.2	-27.0	15.0	0.00e+00	0	44	102	1048576	12	3961
2026-01-04 15:52:25.32	327.26	13.83	-26.2	-27.1	15.0	0.00e+00	0	44	102	1048576	12	3982
2026-01-04 15:52:26.33	327.37	13.74	-26.2	-27.0	15.1	0.00e+00	0	44	102	1048576	12	3948
2026-01-04 15:52:27.33	327.47	13.65	-26.2	-27.1	15.0	0.00e+00	0	44	102	1048576	12	3976
2026-01-04 15:52:28.33	327.57	13.57	-26.3	-27.1	14.9	0.00e+00	0	44	102	1048576	12	3989
2026-01-04 15:52:29.33	327.68	13.48	-26.3	-27.2	14.9	0.00e+00	0	44	102	1048576	12	4007
2026-01-04 15:52:30.34	327.78	13.39	-26.3	-27.3	14.8	0.00e+00	0	44	102	1048576	12	4031
2026-01-04 15:52:31.35	327.88	13.31	-26.3	-27.3	14.8	0.00e+00	0	44	102	1048576	12	4039
2026-01-04 15:52:32.36	327.98	13.22	-26.4	-27.4	14.8	0.00e+00	0	44	102	1048576	12	4058
2026-01-04 15:52:33.36	328.08	13.14	-26.4	-27.6	14.7	1.10e-06	0	44	102	1048576	12	4109
2026-01-04 15:52:34.37	328.18	13.05	-26.3	-27.3	14.8	0.00e+00	0	44	102	1048576	12	4038
2026-01-04 15:52:35.38	328.28	12.96	-26.3	-27.3	14.8	0.00e+00	0	44	102	1048576	12	4030
2026-01-04 15:52:36.39	328.38	12.88	-26.4	-27.5	14.7	0.00e+00	0	44	102	1048576	12	4075
2026-01-04 15:52:37.39	328.48	12.79	-26.4	-27.4	14.8	0.00e+00	0	44	102	1048576	12	4056
2026-01-04 15:52:38.40	328.57	12.71	-26.4	-27.4	14.8	0.00e+00	0	44	102	1048576	12	4061
2026-01-04 15:52:39.40	328.67	12.62	-26.4	-27.5	14.7	0.00e+00	0	44	102	1048576	12	4088
2026-01-04 15:52:40.41	328.77	12.54	-26.4	-27.4	14.8	0.00e+00	0	44	102	1048576	12	4060
2026-01-04 15:52:41.41	328.86	12.46	-26.4	-27.6	14.7	0.00e+00	0	44	102	1048576	12	4102
2026-01-04 15:52:42.43	328.96	12.37	-26.5	-27.7	14.6	0.00e+00	0	44	102	1048576	12	4121
2026-01-04 15:52:43.43	329.05	12.29	-26.4	-27.6	14.7	0.00e+00	0	44	102	1048576	12	4100
2026-01-04 15:52:44.44	329.15	12.20	-26.5	-27.6	14.6	0.00e+00	0	44	102	1048576	12	4108
2026-01-04 15:52:45.45	329.24	12.12	-26.5	-27.7	14.6	0.00e+00	0	44	102	1048576	12	4127
2026-01-04 15:52:46.46	329.34	12.04	-26.5	-27.7	14.6	0.00e+00	0	44	102	1048576	12	4133
2026-01-04 15:52:47.46	329.43	11.96	-26.5	-27.7	14.5	0.00e+00	0	44	102	1048576	12	4148
2026-01-04 15:52:48.46	329.52	11.87	-26.6	-27.5	14.4	0.00e+00	0	44	102	1048576	13	3983
2026-01-04 15:52:49.46	329.61	11.79	-26.6	-27.4	14.5	3.40e-06	0	44	102	1048576	13	3942
2026-01-04 15:52:50.47	329.71	11.71	-26.6	-27.4	14.4	0.00e+00	0	44	102	1048576	13	3952
2026-01-04 15:52:51.47	329.80	11.63	-26.6	-27.5	14.4	1.10e-06	0	44	102	1048576	13	3972
2026-01-04 15:52:52.48	329.89	11.55	-26.6	-27.5	14.4	1.10e-06	0	44	102	1048576	13	3982
2026-01-04 15:52:53.49	329.98	11.46	-26.6	-27.4	14.4	1.10e-06	0	44	102	1048576	13	3957
2026-01-04 15:52:54.50	330.07	11.38	-26.7	-27.6	14.3	1.10e-06	0	44	102	1048576	13	4000
2026-01-04 15:52:55.50	330.16	11.30	-26.7	-27.7	14.2	1.10e-06	0	43	102	1048576	13	4034
2026-01-04 15:52:56.51	330.24	11.22	-26.8	-27.9	14.1	1.10e-06	0	44	102	1048576	13	4089
2026-01-04 15:52:57.52	330.33	11.14	-26.9	-28.0	14.1	3.40e-06	0	44	102	1048576	13	4109
2026-01-04 15:52:58.53	330.42	11.06	-26.8	-27.8	14.2	2.20e-06	0	44	102	1048576	13	4058
2026-01-04 15:52:59.54	330.51	10.98	-26.8	-28.0	14.1	0.00e+00	0	44	102	1048576	13	4106
2026-01-04 15:53:00.53	330.59	10.90	-26.9	-28.0	14.0	5.70e-06	0	44	102	1048576	13	4111
2026-01-04 15:53:01.54	330.68	10.82	-26.9	-28.2	13.9	3.40e-06	0	44	102	1048576	13	4159
2026-01-04 15:53:02.55	330.77	10.74	-27.0	-28.3	13.9	5.70e-06	0	44	102	1048576	13	4176
2026-01-04 15:53:03.54	330.85	10.66	-26.9	-28.2	14.0	1.10e-06	0	44	102	1048576	13	4159
2026-01-04 15:53:04.55	330.94	10.58	-27.0	-28.3	13.9	6.80e-06	0	44	102	1048576	13	4196
2026-01-04 15:53:05.55	331.02	10.51	-27.1	-28.5	13.8	4.50e-06	0	44	102	1048576	13	4239
2026-01-04 15:53:06.55	331.10	10.43	-27.0	-28.4	13.8	2.20e-06	0	44	102	1048576	13	4216
2026-01-04 15:53:07.56	331.19	10.35	-27.0	-28.3	13.8	3.40e-06	0	44	102	1048576	13	4203
2026-01-04 15:53:08.57	331.27	10.27	-27.0	-28.4	13.8	1.10e-06	0	44	102	1048576	13	4232
2026-01-04 15:53:09.57	331.36	10.19	-27.0	-28.5	13.8	5.70e-06	0	44	102	1048576	13	4238
2026-01-04 15:53:10.58	331.44	10.11	-27.1	-28.1	13.7	6.80e-06	0	44	102	1048576	14	4037
2026-01-04 15:53:11.59	331.52	10.04	-27.1	-28.2	13.6	9.10e-06	0	44	102	1048576	14	4051
2026-01-04 15:53:12.59	331.60	9.96	-27.0	-27.9	13.8	9.10e-06	0	44	102	1048576	14	3979
2026-01-04 15:53:13.59	331.68	9.88	-27.1	-28.0	13.7	3.40e-06	0	44	102	1048576	14	4019
2026-01-04 15:53:14.59	331.76	9.80	-27.1	-28.1	13.7	6.80e-06	0	44	102	1048576	14	4022
2026-01-04 15:53:15.60	331.84	9.73	-27.2	-28.2	13.6	3.40e-06	0	44	102	1048576	14	4064
2026-01-04 15:53:16.60	331.92	9.65	-27.2	-28.3	13.5	1.02e-05	0	44	102	1048576	14	4084
2026-01-04 15:53:17.61	332.00	9.57	-27.1	-28.1	13.7	5.70e-06	0	44	102	1048576	14	4032
2026-01-04 15:53:18.61	332.08	9.50	-27.2	-28.2	13.6	6.80e-06	0	44	102	1048576	14	4068
2026-01-04 15:53:19.62	332.16	9.42	-27.2	-28.3	13.5	1.02e-05	0	44	102	1048576	14	4100
2026-01-04 15:53:20.63	332.24	9.35	-27.2	-28.3	13.5	1.02e-05	0	44	102	1048576	14	4087
2026-01-04 15:53:21.64	332.32	9.27	-27.3	-28.6	13.3	1.48e-05	0	44	102	1048576	14	4166
2026-01-04 15:53:22.65	332.40	9.19	-27.3	-28.4	13.4	1.37e-05	0	44	102	1048576	14	4128
2026-01-04 15:53:23.65	332.47	9.12	-27.1	-28.2	13.6	1.02e-05	0	44	102	1048576	14	4055
2026-01-04 15:53:24.66	332.55	9.04	-27.1	-28.2	13.6	1.60e-05	0	44	102	1048576	14	4052
2026-01-04 15:53:25.67	332.63	8.97	-27.1	-28.1	13.6	6.80e-06	0	44	102	1048576	14	4034
2026-01-04 15:53:26.68	332.70	8.89	-27.2	-28.2	13.5	6.80e-06	0	44	102	1048576	14	4071
2026-01-04 15:53:27.68	332.78	8.82	-27.1	-28.1	13.6	9.10e-06	0	44	102	1048576	14	4035
2026-01-04 15:53:28.68	332.86	8.74	-27.2	-28.4	13.4	1.48e-05	0	44	102	1048576	14	4120
2026-01-04 15:53:29.69	332.93	8.67	-27.2	-28.3	13.4	2.17e-05	0	44	102	1048576	14	4099
2026-01-04 15:53:30.70	333.01	8.60	-27.2	-28.2	13.5	3.40e-06	0	44	102	1048576	14	4072
2026-01-04 15:53:31.70	333.08	8.52	-27.3	-28.5	13.4	1.94e-05	0	44	102	1048576	14	4132
2026-01-04 15:53:32.71	333.15	8.45	-27.2	-28.3	13.4	1.25e-05	0	44	102	1048576	14	4081
2026-01-04 15:53:33.71	333.23	8.37	-27.3	-28.6	13.3	2.86e-05	0	44	102	1048576	14	4178
2026-01-04 15:53:34.71	333.30	8.30	-27.2	-28.4	13.4	1.37e-05	0	44	102	1048576	14	4121
2026-01-04 15:53:35.72	333.37	8.23	-27.3	-28.6	13.2	1.83e-05	0	44	102	1048576	14	4168
2026-01-04 15:53:36.72	333.45	8.16	-27.4	-28.8	13.1	1.60e-05	0	44	102	1048576	14	4231
2026-01-04 15:53:37.73	333.52	8.08	-27.4	-28.7	13.1	3.89e-05	0	44	102	1048576	14	4213
2026-01-04 15:53:38.73	333.59	8.01	-27.5	-29.0	12.9	6.06e-05	0	44	102	1048576	14	4301
2026-01-04 15:53:39.74	333.66	7.94	-27.4	-28.8	13.1	2.86e-05	0	44	102	1048576	14	4223
2026-01-04 15:53:40.75	333.73	7.86	-27.4	-28.9	13.0	4.69e-05	0	44	102	1048576	14	4260
2026-01-04 15:53:41.76	333.81	7.79	-27.5	-29.1	12.9	5.26e-05	0	44	102	1048576	14	4307
2026-01-04 15:53:42.76	333.88	7.72	-27.5	-29.0	12.9	7.78e-05	0	44	102	1048576	14	4301
2026-01-04 15:53:43.77	333.95	7.65	-27.5	-28.6	12.9	5.72e-05	0	43	102	1048576	15	4084
2026-01-04 15:53:44.78	334.02	7.58	-27.6	-28.7	12.8	8.46e-05	0	44	102	1048576	15	4109
2026-01-04 15:53:45.79	334.09	7.50	-27.6	-28.7	12.8	7.32e-05	0	44	102	1048576	15	4101
2026-01-04 15:53:46.79	334.16	7.43	-27.6	-28.7	12.8	5.72e-05	0	44	102	1048576	15	4105
2026-01-04 15:53:47.80	334.23	7.36	-27.7	-29.0	12.7	9.04e-05	0	44	102	1048576	15	4173
2026-01-04 15:53:48.80	334.29	7.29	-27.7	-29.0	12.7	1.11e-04	0	44	102	1048576	15	4173
2026-01-04 15:53:49.81	334.36	7.22	-27.8	-29.1	12.6	9.49e-05	0	44	102	1048576	15	4221
2026-01-04 15:53:50.81	334.43	7.15	-28.0	-29.8	12.1	2.10e-04	0	44	102	1048576	15	4418
2026-01-04 15:53:51.82	334.50	7.08	-33.2	-42.1	3.8	7.48e-01	0	44	104	1048576	26	10084
2026-01-04 15:53:52.82	334.57	7.01	-33.6	-43.6	3.8	8.45e-01	0	44	104	1048576	26	11389

#Closed at: 2026-01-04 15:53:53
#Recorded file [1 MB]: D:/data/31010_260104_184238.dat