passes_logs/2026/01/04/R2M6_AANII_01/R2M6_AANII_01__20260104_140148_FENGYUN_3E_rec.log

#Pass ID: 20260104_140148_FENGYUN 3E
#Satellite: FENGYUN 3E
#Configuration: FENGYUN 3E
#almurnet v.1.7.20240730
#Start time: 2026-01-04 14:06:56

#Version: 2.2.20231116
#Station: R2M6_AANII_01
#Location: 30.233357 lon 59.946436 lat
#TLE: 1 49008U 21062A   26004.01270550 -.00000256  00000+0 -10014-3 0  9997
#TLE: 2 49008  98.7472   9.2701 0001499 161.2681 198.8551 14.19882497233285

#Time	Az	El	Level	Level2	SNR	BER	BlckErr	Temp	State	Recorded	gain1	gain2
2026-01-04 14:06:56.58	99.30	53.90	-33.9	-45.2	3.8	8.46e-01	0	43	0	0	27	13216
2026-01-04 14:06:57.58	98.71	54.11	-34.3	-43.5	3.8	8.47e-01	0	43	104	0	29	10384
2026-01-04 14:06:58.59	98.10	54.33	-34.4	-43.7	3.8	8.46e-01	0	43	104	0	29	10533
2026-01-04 14:06:59.59	97.49	54.54	-34.4	-43.7	3.8	8.46e-01	0	43	104	0	29	10493
2026-01-04 14:07:00.60	96.86	54.75	-34.4	-43.7	3.8	8.47e-01	0	43	104	0	29	10525
2026-01-04 14:07:01.61	96.23	54.95	-34.4	-43.8	3.8	8.46e-01	0	43	104	0	29	10590
2026-01-04 14:07:02.62	95.58	55.16	-34.4	-43.8	3.8	8.46e-01	0	43	104	0	29	10548
2026-01-04 14:07:03.62	94.93	55.36	-34.4	-43.7	3.8	8.46e-01	0	44	104	0	29	10530
2026-01-04 14:07:04.63	94.27	55.56	-34.4	-43.7	3.8	8.45e-01	0	43	104	0	29	10537
2026-01-04 14:07:05.64	93.60	55.75	-34.4	-43.7	3.8	8.47e-01	0	43	104	0	29	10502
2026-01-04 14:07:06.65	92.91	55.94	-34.4	-43.7	3.8	8.45e-01	0	43	104	0	29	10500
2026-01-04 14:07:07.65	92.23	56.13	-34.4	-43.7	3.8	8.46e-01	0	44	104	0	29	10573
2026-01-04 14:07:08.66	91.53	56.32	-34.4	-43.7	3.8	8.47e-01	0	44	104	0	29	10500
2026-01-04 14:07:09.66	90.83	56.50	-34.4	-43.7	3.8	8.47e-01	0	43	104	0	29	10488
2026-01-04 14:07:10.67	90.11	56.67	-34.4	-43.6	3.8	8.46e-01	0	43	104	0	29	10429
2026-01-04 14:07:11.67	89.38	56.85	-34.4	-43.7	3.8	8.45e-01	0	44	104	0	29	10480
2026-01-04 14:07:12.68	88.65	57.02	-34.4	-43.7	3.8	8.46e-01	0	43	104	0	29	10502
2026-01-04 14:07:13.68	87.91	57.18	-34.4	-43.7	3.8	8.45e-01	0	43	104	0	29	10523
2026-01-04 14:07:14.68	87.16	57.34	-34.4	-43.8	3.8	8.45e-01	0	43	104	0	29	10552
2026-01-04 14:07:15.68	86.40	57.50	-34.4	-43.8	3.8	8.46e-01	0	43	104	0	29	10580
2026-01-04 14:07:16.69	85.63	57.65	-34.4	-43.7	3.8	8.46e-01	0	44	104	0	29	10495
2026-01-04 14:07:17.69	84.85	57.80	-34.5	-44.0	3.8	8.45e-01	0	43	104	0	29	10725
2026-01-04 14:07:18.70	84.06	57.94	-34.5	-43.8	3.8	8.46e-01	0	44	104	0	29	10541
2026-01-04 14:07:19.71	83.26	58.08	-34.4	-43.7	3.8	8.46e-01	0	43	104	0	29	10456
2026-01-04 14:07:20.72	82.45	58.21	-34.4	-43.8	3.8	8.45e-01	0	44	104	0	29	10558
2026-01-04 14:07:21.73	81.64	58.34	-34.4	-43.7	3.8	8.46e-01	0	44	104	0	29	10480
2026-01-04 14:07:22.74	80.82	58.46	-34.4	-43.6	3.8	8.47e-01	0	44	104	0	29	10451
2026-01-04 14:07:23.74	79.99	58.58	-34.4	-43.5	3.8	8.46e-01	0	44	104	0	29	10322
2026-01-04 14:07:24.75	79.16	58.69	-34.4	-43.6	3.8	8.45e-01	0	44	104	0	29	10423
2026-01-04 14:07:25.76	78.31	58.80	-34.4	-43.6	3.8	8.46e-01	0	44	104	0	29	10413
2026-01-04 14:07:26.76	77.47	58.90	-34.4	-43.7	3.8	8.45e-01	0	44	104	0	29	10463
2026-01-04 14:07:27.77	76.61	59.00	-34.4	-43.5	3.8	8.48e-01	0	44	104	0	29	10332
2026-01-04 14:07:28.78	75.75	59.09	-34.4	-43.5	3.8	8.45e-01	0	44	104	0	29	10351
2026-01-04 14:07:29.79	74.88	59.17	-34.4	-43.6	3.8	8.46e-01	0	44	104	0	29	10411
2026-01-04 14:07:30.80	74.00	59.25	-34.4	-43.6	3.8	8.46e-01	0	44	104	0	29	10399
2026-01-04 14:07:31.81	73.12	59.32	-34.4	-43.5	3.8	8.47e-01	0	44	104	0	29	10279
2026-01-04 14:07:32.82	72.24	59.39	-34.3	-43.3	3.8	8.46e-01	0	44	104	0	29	10081
2026-01-04 14:07:33.82	71.36	59.45	-34.3	-43.3	3.8	8.47e-01	0	44	104	0	29	10054
2026-01-04 14:07:34.83	70.46	59.50	-34.4	-43.5	3.8	8.46e-01	0	44	104	0	29	10268
2026-01-04 14:07:35.84	69.57	59.55	-34.4	-43.7	3.8	8.46e-01	0	44	104	0	29	10542
2026-01-04 14:07:36.85	68.67	59.59	-34.4	-43.6	3.8	8.45e-01	0	44	104	0	29	10386
2026-01-04 14:07:37.85	67.78	59.62	-34.4	-43.4	3.8	8.47e-01	0	44	104	0	29	10224
2026-01-04 14:07:38.86	66.87	59.65	-34.4	-43.4	3.8	8.46e-01	0	44	104	0	29	10158
2026-01-04 14:07:39.86	65.98	59.67	-34.4	-43.6	3.8	8.46e-01	0	44	104	0	29	10443
2026-01-04 14:07:40.86	65.08	59.69	-34.4	-43.6	3.8	8.47e-01	0	44	104	0	29	10452
2026-01-04 14:07:41.86	64.18	59.69	-34.3	-43.0	3.8	8.47e-01	0	44	104	0	29	9838
2026-01-04 14:07:42.87	63.27	59.70	-34.3	-43.1	3.8	8.47e-01	0	44	104	0	29	9894
2026-01-04 14:07:43.88	62.36	59.69	-34.4	-43.4	3.8	8.46e-01	0	44	104	0	29	10241
2026-01-04 14:07:44.89	61.46	59.68	-34.3	-43.2	3.8	8.45e-01	0	44	104	0	29	9999
2026-01-04 14:07:45.89	60.56	59.66	-34.3	-43.1	3.8	8.47e-01	0	44	104	0	29	9946
2026-01-04 14:07:46.90	59.65	59.64	-34.4	-43.5	3.8	8.46e-01	0	44	104	0	29	10344
2026-01-04 14:07:47.91	58.75	59.61	-34.1	-41.8	3.8	8.45e-01	0	44	104	0	29	8679
2026-01-04 14:07:48.91	57.86	59.57	-33.7	-39.2	4.4	8.41e-01	0	44	104	0	28	6818
2026-01-04 14:07:49.92	56.96	59.53	-30.5	-31.6	10.5	1.45e-02	0	44	102	1048576	22	4107
2026-01-04 14:07:50.93	56.07	59.48	-26.7	-27.0	15.4	0.00e+00	0	44	102	1048576	14	3723
2026-01-04 14:07:51.93	55.18	59.43	-26.4	-26.8	15.8	0.00e+00	0	44	102	1048576	13	3772
2026-01-04 14:07:52.94	54.30	59.36	-27.2	-28.1	14.9	0.00e+00	0	44	102	1048576	14	3978
2026-01-04 14:07:53.94	53.42	59.30	-26.9	-27.3	15.3	0.00e+00	0	44	102	1048576	14	3796
2026-01-04 14:07:54.94	52.55	59.22	-26.4	-26.3	15.8	0.00e+00	0	44	102	1048576	14	3549
2026-01-04 14:07:55.96	51.67	59.14	-25.8	-26.1	16.5	0.00e+00	0	44	102	1048576	12	3703
2026-01-04 14:07:56.95	50.82	59.06	-25.6	-25.5	16.8	0.00e+00	0	44	102	1048576	12	3566
2026-01-04 14:07:57.96	49.96	58.96	-25.8	-26.1	16.4	0.00e+00	0	44	102	1048576	12	3708
2026-01-04 14:07:58.96	49.12	58.87	-26.2	-26.8	16.1	0.00e+00	0	44	102	1048576	12	3879
2026-01-04 14:07:59.96	48.28	58.77	-26.7	-27.4	15.5	0.00e+00	0	44	102	1048576	13	3916
2026-01-04 14:08:00.97	47.43	58.66	-25.8	-26.1	16.4	0.00e+00	0	44	102	1048576	12	3717
2026-01-04 14:08:01.98	46.60	58.54	-25.0	-24.9	17.4	0.00e+00	0	44	102	1048576	11	3538
2026-01-04 14:08:02.99	45.77	58.42	-24.8	-24.9	17.7	0.00e+00	0	44	102	1048576	10	3636
2026-01-04 14:08:04.00	44.95	58.30	-24.9	-25.1	17.5	0.00e+00	0	44	102	1048576	10	3685
2026-01-04 14:08:05.01	44.14	58.17	-25.3	-26.0	17.1	0.00e+00	0	44	102	1048576	10	3903
2026-01-04 14:08:06.02	43.34	58.03	-25.6	-26.5	16.8	0.00e+00	0	44	102	1048576	10	4019
2026-01-04 14:08:07.03	42.54	57.89	-25.6	-26.0	16.8	0.00e+00	0	44	102	1048576	11	3799
2026-01-04 14:08:08.04	41.76	57.75	-25.6	-26.1	16.7	0.00e+00	0	44	102	1048576	11	3811
2026-01-04 14:08:09.04	40.99	57.60	-25.5	-25.8	16.9	0.00e+00	0	44	102	1048576	11	3751
2026-01-04 14:08:10.05	40.22	57.44	-25.2	-25.2	17.2	0.00e+00	0	44	102	1048576	11	3599
2026-01-04 14:08:11.06	39.45	57.28	-25.1	-25.0	17.3	0.00e+00	0	44	102	1048576	11	3557
2026-01-04 14:08:12.07	38.70	57.12	-25.3	-25.5	17.0	0.00e+00	0	44	102	1048576	11	3672
2026-01-04 14:08:13.08	37.96	56.95	-25.3	-25.3	17.1	0.00e+00	0	44	102	1048576	11	3638
2026-01-04 14:08:14.09	37.23	56.78	-25.4	-25.7	17.0	0.00e+00	0	44	102	1048576	11	3715
2026-01-04 14:08:15.09	36.51	56.61	-25.0	-24.7	17.5	0.00e+00	0	44	102	1048576	11	3501
2026-01-04 14:08:16.09	35.80	56.43	-24.7	-24.7	17.7	0.00e+00	0	44	102	1048576	10	3601
2026-01-04 14:08:17.10	35.10	56.25	-24.8	-24.8	17.7	0.00e+00	0	44	102	1048576	10	3613
2026-01-04 14:08:18.11	34.40	56.06	-25.0	-25.3	17.4	0.00e+00	0	44	102	1048576	10	3730
2026-01-04 14:08:19.12	33.71	55.87	-25.0	-25.4	17.4	0.00e+00	0	44	102	1048576	10	3754
2026-01-04 14:08:20.12	33.04	55.68	-25.3	-25.8	17.2	0.00e+00	0	44	102	1048576	10	3853
2026-01-04 14:08:21.13	32.37	55.49	-25.1	-25.5	17.3	0.00e+00	0	44	102	1048576	10	3784
2026-01-04 14:08:22.14	31.71	55.29	-25.1	-25.4	17.3	0.00e+00	0	44	102	1048576	10	3757
2026-01-04 14:08:23.14	31.07	55.09	-25.2	-25.8	17.2	0.00e+00	0	44	102	1048576	10	3853
2026-01-04 14:08:24.15	30.43	54.88	-25.3	-25.9	17.1	0.00e+00	0	44	102	1048576	10	3865
2026-01-04 14:08:25.15	29.80	54.68	-25.5	-26.4	16.9	0.00e+00	0	44	102	1048576	10	3984
2026-01-04 14:08:26.16	29.18	54.47	-25.6	-26.0	16.8	0.00e+00	0	44	102	1048576	11	3791
2026-01-04 14:08:27.17	28.57	54.25	-25.3	-25.3	17.0	0.00e+00	0	44	102	1048576	11	3629
2026-01-04 14:08:28.17	27.97	54.04	-25.4	-25.6	17.0	0.00e+00	0	44	102	1048576	11	3706
2026-01-04 14:08:29.18	27.38	53.82	-25.8	-26.4	16.6	0.00e+00	0	44	102	1048576	11	3894
2026-01-04 14:08:30.18	26.80	53.61	-25.8	-26.5	16.5	0.00e+00	0	44	102	1048576	11	3914
2026-01-04 14:08:31.19	26.22	53.38	-26.0	-26.4	16.2	0.00e+00	0	44	102	1048576	12	3775
2026-01-04 14:08:32.19	25.66	53.16	-25.8	-26.0	16.4	0.00e+00	0	44	102	1048576	12	3688
2026-01-04 14:08:33.19	25.10	52.94	-26.0	-26.5	16.2	0.00e+00	0	44	102	1048576	12	3810
2026-01-04 14:08:34.20	24.55	52.71	-25.7	-25.9	16.5	0.00e+00	0	44	102	1048576	12	3675
2026-01-04 14:08:35.21	24.01	52.48	-25.6	-25.6	16.7	0.00e+00	0	44	102	1048576	12	3593
2026-01-04 14:08:36.21	23.48	52.26	-25.5	-25.8	16.9	0.00e+00	0	44	102	1048576	11	3740
2026-01-04 14:08:37.22	22.96	52.02	-25.2	-25.2	17.2	0.00e+00	0	44	102	1048576	11	3613
2026-01-04 14:08:38.23	22.44	51.79	-25.1	-25.1	17.3	0.00e+00	0	44	102	1048576	11	3584
2026-01-04 14:08:39.23	21.93	51.56	-25.4	-25.6	17.0	0.00e+00	0	44	102	1048576	11	3688
2026-01-04 14:08:40.24	21.43	51.32	-25.3	-25.4	17.1	0.00e+00	0	44	102	1048576	11	3660
2026-01-04 14:08:41.24	20.94	51.09	-25.4	-25.6	16.9	0.00e+00	0	44	102	1048576	11	3697
2026-01-04 14:08:42.25	20.46	50.85	-25.2	-25.3	17.2	0.00e+00	0	44	102	1048576	11	3620
2026-01-04 14:08:43.26	19.98	50.61	-25.3	-25.4	17.1	0.00e+00	0	44	102	1048576	11	3646
2026-01-04 14:08:44.26	19.51	50.38	-25.4	-25.6	16.9	0.00e+00	0	44	102	1048576	11	3702
2026-01-04 14:08:45.27	19.05	50.14	-25.4	-25.8	16.9	0.00e+00	0	44	102	1048576	11	3741
2026-01-04 14:08:46.28	18.59	49.90	-25.8	-26.4	16.5	0.00e+00	0	44	102	1048576	11	3893
2026-01-04 14:08:47.28	18.15	49.66	-25.8	-26.5	16.5	0.00e+00	0	44	102	1048576	11	3914
2026-01-04 14:08:48.29	17.71	49.42	-25.5	-26.0	16.8	0.00e+00	0	44	102	1048576	11	3781
2026-01-04 14:08:49.30	17.27	49.17	-25.5	-25.9	16.8	0.00e+00	0	44	102	1048576	11	3766
2026-01-04 14:08:50.31	16.85	48.93	-25.7	-26.2	16.6	0.00e+00	0	44	102	1048576	11	3855
2026-01-04 14:08:51.31	16.43	48.69	-25.6	-26.2	16.6	0.00e+00	0	44	102	1048576	11	3841
2026-01-04 14:08:52.32	16.02	48.45	-25.2	-25.3	17.1	0.00e+00	0	44	102	1048576	11	3641
2026-01-04 14:08:53.33	15.61	48.20	-24.9	-25.1	17.4	0.00e+00	0	44	102	1048576	10	3679
2026-01-04 14:08:54.33	15.21	47.96	-25.0	-25.3	17.4	0.00e+00	0	44	102	1048576	10	3723
2026-01-04 14:08:55.34	14.82	47.72	-25.0	-25.3	17.3	0.00e+00	0	44	102	1048576	10	3737
2026-01-04 14:08:56.35	14.43	47.47	-25.1	-25.6	17.2	0.00e+00	0	44	102	1048576	10	3788
2026-01-04 14:08:57.36	14.04	47.23	-24.5	-24.3	17.8	0.00e+00	0	44	102	1048576	10	3509
2026-01-04 14:08:58.37	13.67	46.98	-24.1	-23.9	18.2	0.00e+00	0	44	102	1048576	9	3534
2026-01-04 14:08:59.37	13.30	46.74	-23.9	-23.5	18.5	0.00e+00	0	44	102	1048576	9	3438
2026-01-04 14:09:00.38	12.93	46.50	-24.0	-23.8	18.4	0.00e+00	0	44	102	1048576	9	3507
2026-01-04 14:09:01.39	12.57	46.26	-24.2	-24.1	18.2	0.00e+00	0	44	102	1048576	9	3567
2026-01-04 14:09:02.39	12.22	46.01	-24.2	-24.1	18.2	0.00e+00	0	44	102	1048576	9	3569
2026-01-04 14:09:03.40	11.88	45.77	-24.2	-24.1	18.1	0.00e+00	0	44	102	1048576	9	3573
2026-01-04 14:09:04.41	11.53	45.53	-24.3	-24.3	18.1	0.00e+00	0	44	102	1048576	9	3609
2026-01-04 14:09:05.42	11.20	45.29	-24.5	-24.8	17.9	0.00e+00	0	44	102	1048576	9	3719
2026-01-04 14:09:06.42	10.87	45.05	-24.7	-25.1	17.7	0.00e+00	0	44	102	1048576	9	3788
2026-01-04 14:09:07.43	10.54	44.80	-24.4	-24.7	17.9	0.00e+00	0	44	102	1048576	9	3696
2026-01-04 14:09:08.44	10.22	44.56	-24.3	-24.3	18.1	0.00e+00	0	44	102	1048576	9	3606
2026-01-04 14:09:09.45	9.90	44.32	-24.2	-24.1	18.1	0.00e+00	0	44	102	1048576	9	3575
2026-01-04 14:09:10.45	9.59	44.08	-24.1	-23.8	18.3	0.00e+00	0	44	102	1048576	9	3513
2026-01-04 14:09:11.46	9.28	43.84	-23.9	-23.5	18.5	0.00e+00	0	44	102	1048576	9	3436
2026-01-04 14:09:12.47	8.98	43.60	-23.9	-24.0	18.5	0.00e+00	0	44	102	1048576	8	3641
2026-01-04 14:09:13.48	8.68	43.37	-24.0	-24.3	18.3	0.00e+00	0	44	102	1048576	8	3718
2026-01-04 14:09:14.48	8.39	43.13	-24.0	-24.3	18.2	0.00e+00	0	44	102	1048576	8	3714
2026-01-04 14:09:15.49	8.10	42.89	-24.1	-24.3	18.3	0.00e+00	0	44	102	1048576	8	3720
2026-01-04 14:09:16.50	7.81	42.66	-23.9	-24.1	18.4	0.00e+00	0	44	102	1048576	8	3671
2026-01-04 14:09:17.50	7.53	42.42	-24.0	-24.2	18.3	0.00e+00	0	44	102	1048576	8	3697
2026-01-04 14:09:18.51	7.25	42.19	-24.0	-24.2	18.4	0.00e+00	0	44	102	1048576	8	3694
2026-01-04 14:09:19.52	6.98	41.95	-23.9	-24.0	18.4	0.00e+00	0	44	102	1048576	8	3642
2026-01-04 14:09:20.52	6.71	41.72	-24.1	-24.4	18.3	0.00e+00	0	44	102	1048576	8	3726
2026-01-04 14:09:21.53	6.45	41.49	-24.1	-24.6	18.2	0.00e+00	0	44	102	1048576	8	3770
2026-01-04 14:09:22.53	6.19	41.26	-24.1	-24.5	18.2	0.00e+00	0	44	102	1048576	8	3748
2026-01-04 14:09:23.54	5.93	41.03	-24.1	-24.4	18.3	0.00e+00	0	44	102	1048576	8	3723
2026-01-04 14:09:24.55	5.68	40.80	-24.1	-24.4	17.9	0.00e+00	0	44	102	1048576	8	3739
2026-01-04 14:09:25.55	5.43	40.57	-24.0	-24.3	18.3	0.00e+00	0	44	102	1048576	8	3714
2026-01-04 14:09:26.56	5.18	40.34	-24.3	-24.8	18.0	0.00e+00	0	44	102	1048576	8	3831
2026-01-04 14:09:27.56	4.94	40.11	-24.4	-25.0	17.9	0.00e+00	0	44	102	1048576	8	3880
2026-01-04 14:09:28.57	4.70	39.89	-24.4	-25.0	17.9	0.00e+00	0	44	102	1048576	8	3868
2026-01-04 14:09:29.57	4.46	39.66	-24.3	-24.9	18.0	0.00e+00	0	44	102	1048576	8	3844
2026-01-04 14:09:30.58	4.23	39.44	-24.3	-24.9	17.9	0.00e+00	0	44	102	1048576	8	3861
2026-01-04 14:09:31.59	4.00	39.21	-24.3	-24.8	18.0	0.00e+00	0	44	102	1048576	8	3823
2026-01-04 14:09:32.59	3.78	38.99	-24.3	-24.8	18.0	0.00e+00	0	44	102	1048576	8	3818
2026-01-04 14:09:33.60	3.55	38.77	-24.2	-24.7	18.1	0.00e+00	0	44	102	1048576	8	3800
2026-01-04 14:09:34.61	3.33	38.55	-24.1	-24.4	18.2	0.00e+00	0	44	102	1048576	8	3726
2026-01-04 14:09:35.62	3.11	38.33	-24.0	-24.3	18.3	0.00e+00	0	44	102	1048576	8	3702
2026-01-04 14:09:36.62	2.90	38.11	-24.0	-24.2	18.3	0.00e+00	0	44	102	1048576	8	3687
2026-01-04 14:09:37.63	2.69	37.89	-23.9	-24.1	18.3	0.00e+00	0	44	102	1048576	8	3669
2026-01-04 14:09:38.63	2.48	37.67	-23.9	-24.1	18.3	0.00e+00	0	44	102	1048576	8	3675
2026-01-04 14:09:39.64	2.27	37.46	-24.0	-24.3	18.2	0.00e+00	0	44	102	1048576	8	3721
2026-01-04 14:09:40.65	2.07	37.24	-24.1	-24.4	18.2	0.00e+00	0	44	102	1048576	8	3732
2026-01-04 14:09:41.65	1.87	37.03	-24.2	-24.8	18.0	0.00e+00	0	44	102	1048576	8	3822
2026-01-04 14:09:42.66	1.67	36.81	-24.3	-24.9	18.0	0.00e+00	0	44	102	1048576	8	3850
2026-01-04 14:09:43.66	1.48	36.60	-24.3	-25.0	17.9	0.00e+00	0	44	102	1048576	8	3871
2026-01-04 14:09:44.67	1.29	36.39	-24.3	-24.8	18.0	0.00e+00	0	44	102	1048576	8	3828
2026-01-04 14:09:45.68	1.10	36.18	-24.1	-24.5	18.0	0.00e+00	0	44	102	1048576	8	3750
2026-01-04 14:09:46.68	0.91	35.97	-24.1	-24.5	18.1	0.00e+00	0	44	102	1048576	8	3759
2026-01-04 14:09:47.69	0.73	35.76	-23.9	-24.1	18.3	0.00e+00	0	44	102	1048576	8	3661
2026-01-04 14:09:48.70	0.54	35.56	-23.7	-23.7	18.6	0.00e+00	0	44	102	1048576	8	3571
2026-01-04 14:09:49.71	0.36	35.35	-23.7	-23.6	18.6	0.00e+00	0	44	102	1048576	8	3553
2026-01-04 14:09:50.71	0.18	35.15	-23.8	-23.8	18.5	0.00e+00	0	44	102	1048576	8	3600
2026-01-04 14:09:51.72	0.01	34.94	-23.6	-23.5	18.6	0.00e+00	0	44	102	1048576	8	3540
2026-01-04 14:09:52.72	359.84	34.74	-23.5	-23.2	18.8	0.00e+00	0	44	102	1048576	8	3488
2026-01-04 14:09:53.73	359.66	34.54	-23.6	-23.4	18.7	0.00e+00	0	44	102	1048576	8	3516
2026-01-04 14:09:54.74	359.49	34.33	-23.5	-23.3	18.7	0.00e+00	0	44	102	1048576	8	3490
2026-01-04 14:09:55.75	359.33	34.13	-23.4	-23.0	18.8	0.00e+00	0	44	102	1048576	8	3443
2026-01-04 14:09:56.75	359.16	33.94	-23.5	-23.3	18.7	0.00e+00	0	44	102	1048576	8	3487
2026-01-04 14:09:57.76	359.00	33.74	-23.5	-23.1	18.8	0.00e+00	0	44	102	1048576	8	3451
2026-01-04 14:09:58.77	358.84	33.54	-23.6	-23.4	18.6	0.00e+00	0	44	102	1048576	8	3526
2026-01-04 14:09:59.78	358.68	33.34	-23.6	-23.4	18.7	0.00e+00	0	44	102	1048576	8	3519
2026-01-04 14:10:00.78	358.52	33.15	-23.5	-23.3	18.7	0.00e+00	0	44	102	1048576	8	3491
2026-01-04 14:10:01.79	358.37	32.95	-23.6	-23.4	18.7	0.00e+00	0	44	102	1048576	8	3512
2026-01-04 14:10:02.80	358.21	32.76	-23.6	-23.5	18.7	0.00e+00	0	44	102	1048576	8	3532
2026-01-04 14:10:03.81	358.06	32.57	-23.7	-23.6	18.5	0.00e+00	0	44	102	1048576	8	3568
2026-01-04 14:10:04.82	357.91	32.38	-23.8	-23.8	18.5	0.00e+00	0	44	102	1048576	8	3596
2026-01-04 14:10:05.82	357.76	32.19	-24.0	-24.1	18.3	0.00e+00	0	44	102	1048576	8	3679
2026-01-04 14:10:06.83	357.62	32.00	-23.8	-23.9	18.4	1.10e-06	0	44	102	1048576	8	3634
2026-01-04 14:10:07.83	357.47	31.81	-23.8	-23.7	18.5	0.00e+00	0	44	102	1048576	8	3591
2026-01-04 14:10:08.84	357.33	31.62	-23.7	-23.7	18.5	0.00e+00	0	44	102	1048576	8	3582
2026-01-04 14:10:09.84	357.19	31.44	-23.7	-23.5	18.6	0.00e+00	0	44	102	1048576	8	3536
2026-01-04 14:10:10.85	357.05	31.25	-23.7	-23.7	18.5	0.00e+00	0	44	102	1048576	8	3574
2026-01-04 14:10:11.86	356.91	31.07	-23.6	-23.4	18.6	0.00e+00	0	44	102	1048576	8	3519
2026-01-04 14:10:12.87	356.78	30.88	-23.6	-23.4	18.6	0.00e+00	0	44	102	1048576	8	3520
2026-01-04 14:10:13.88	356.64	30.70	-23.8	-23.8	18.4	0.00e+00	0	44	102	1048576	8	3605
2026-01-04 14:10:14.89	356.51	30.52	-23.7	-23.7	18.5	0.00e+00	0	44	102	1048576	8	3582
2026-01-04 14:10:15.90	356.38	30.34	-23.9	-24.0	18.3	0.00e+00	0	44	102	1048576	8	3651
2026-01-04 14:10:16.90	356.25	30.16	-23.8	-23.9	18.3	0.00e+00	0	44	102	1048576	8	3631
2026-01-04 14:10:17.91	356.12	29.98	-23.9	-24.0	18.4	0.00e+00	0	44	102	1048576	8	3640
2026-01-04 14:10:18.92	355.99	29.80	-23.8	-23.8	18.4	0.00e+00	0	44	102	1048576	8	3608
2026-01-04 14:10:19.93	355.87	29.63	-23.8	-23.8	18.4	0.00e+00	0	44	102	1048576	8	3598
2026-01-04 14:10:20.94	355.74	29.45	-23.9	-24.1	18.3	0.00e+00	0	44	102	1048576	8	3659
2026-01-04 14:10:21.94	355.62	29.28	-23.7	-23.6	18.5	0.00e+00	0	44	102	1048576	8	3564
2026-01-04 14:10:22.95	355.50	29.10	-23.6	-23.3	18.6	0.00e+00	0	44	102	1048576	8	3503
2026-01-04 14:10:23.96	355.38	28.93	-23.6	-23.3	18.6	0.00e+00	0	44	102	1048576	8	3497
2026-01-04 14:10:24.97	355.26	28.76	-23.8	-23.8	18.4	0.00e+00	0	44	102	1048576	8	3595
2026-01-04 14:10:25.97	355.14	28.59	-23.7	-23.6	18.5	0.00e+00	0	44	102	1048576	8	3551
2026-01-04 14:10:26.98	355.03	28.42	-23.9	-24.1	18.3	0.00e+00	0	44	102	1048576	8	3658
2026-01-04 14:10:27.99	354.91	28.25	-23.9	-23.9	18.3	0.00e+00	0	44	102	1048576	8	3631
2026-01-04 14:10:29.00	354.80	28.08	-24.1	-24.5	18.0	0.00e+00	0	44	102	1048576	8	3764
2026-01-04 14:10:30.01	354.68	27.91	-24.1	-24.4	18.0	0.00e+00	0	44	102	1048576	8	3746
2026-01-04 14:10:31.02	354.57	27.74	-24.4	-25.0	17.8	0.00e+00	0	44	102	1048576	8	3868
2026-01-04 14:10:32.03	354.46	27.58	-24.3	-24.9	17.8	0.00e+00	0	44	102	1048576	8	3848
2026-01-04 14:10:33.04	354.35	27.41	-24.5	-25.3	17.6	0.00e+00	0	43	102	1048576	8	3961
2026-01-04 14:10:34.05	354.24	27.25	-24.4	-25.1	17.7	0.00e+00	0	44	102	1048576	8	3909
2026-01-04 14:10:35.06	354.14	27.08	-24.4	-25.1	17.7	3.40e-06	0	44	102	1048576	8	3896
2026-01-04 14:10:36.07	354.03	26.92	-24.4	-25.2	17.6	0.00e+00	0	44	102	1048576	8	3927
2026-01-04 14:10:37.06	353.93	26.76	-24.4	-25.2	17.6	0.00e+00	0	44	102	1048576	8	3925
2026-01-04 14:10:38.07	353.82	26.60	-24.4	-25.1	17.7	1.10e-06	0	44	102	1048576	8	3911
2026-01-04 14:10:39.08	353.72	26.44	-24.3	-25.0	17.7	0.00e+00	0	44	102	1048576	8	3871
2026-01-04 14:10:40.09	353.62	26.28	-24.4	-25.0	17.7	0.00e+00	0	44	102	1048576	8	3883
2026-01-04 14:10:41.10	353.52	26.12	-24.2	-24.8	17.8	0.00e+00	0	44	102	1048576	8	3825
2026-01-04 14:10:42.10	353.42	25.97	-24.2	-24.7	17.9	0.00e+00	0	44	102	1048576	8	3807
2026-01-04 14:10:43.11	353.32	25.81	-24.3	-24.9	17.7	0.00e+00	0	44	102	1048576	8	3860
2026-01-04 14:10:44.12	353.23	25.66	-24.1	-24.5	18.0	0.00e+00	0	44	102	1048576	8	3757
2026-01-04 14:10:45.12	353.13	25.50	-24.1	-24.4	18.1	0.00e+00	0	44	102	1048576	8	3731
2026-01-04 14:10:46.13	353.04	25.35	-24.1	-24.5	18.0	0.00e+00	0	44	102	1048576	8	3759
2026-01-04 14:10:47.14	352.94	25.19	-24.2	-24.7	17.8	0.00e+00	0	44	102	1048576	8	3796
2026-01-04 14:10:48.14	352.85	25.04	-24.1	-24.4	18.0	0.00e+00	0	44	102	1048576	8	3732
2026-01-04 14:10:49.15	352.76	24.89	-24.1	-24.4	17.9	0.00e+00	0	44	102	1048576	8	3744
2026-01-04 14:10:50.15	352.66	24.74	-24.0	-24.3	18.0	0.00e+00	0	44	102	1048576	8	3724
2026-01-04 14:10:51.16	352.57	24.59	-24.1	-24.5	18.0	0.00e+00	0	44	102	1048576	8	3752
2026-01-04 14:10:52.17	352.48	24.44	-24.2	-24.6	17.8	0.00e+00	0	44	102	1048576	8	3789
2026-01-04 14:10:53.18	352.40	24.29	-24.1	-24.4	18.0	0.00e+00	0	44	102	1048576	8	3735
2026-01-04 14:10:54.18	352.31	24.15	-24.0	-24.3	18.0	0.00e+00	0	43	102	1048576	8	3723
2026-01-04 14:10:55.19	352.22	24.00	-24.1	-24.4	18.0	0.00e+00	0	44	102	1048576	8	3746
2026-01-04 14:10:56.19	352.14	23.85	-24.0	-24.3	18.0	0.00e+00	0	44	102	1048576	8	3722
2026-01-04 14:10:57.20	352.05	23.71	-24.1	-24.4	18.0	0.00e+00	0	44	102	1048576	8	3732
2026-01-04 14:10:58.20	351.97	23.57	-24.1	-24.5	17.9	0.00e+00	0	44	102	1048576	8	3761
2026-01-04 14:10:59.21	351.88	23.42	-24.1	-24.5	17.9	0.00e+00	0	44	102	1048576	8	3760
2026-01-04 14:11:00.22	351.80	23.28	-24.2	-24.7	17.8	0.00e+00	0	44	102	1048576	8	3798
2026-01-04 14:11:01.22	351.72	23.14	-24.4	-25.1	17.6	0.00e+00	0	44	102	1048576	8	3891
2026-01-04 14:11:02.23	351.64	22.99	-24.3	-24.8	17.7	0.00e+00	0	44	102	1048576	8	3836
2026-01-04 14:11:03.24	351.55	22.85	-24.3	-24.8	17.7	0.00e+00	0	44	102	1048576	8	3840
2026-01-04 14:11:04.25	351.47	22.71	-24.3	-24.9	17.7	0.00e+00	0	44	102	1048576	8	3851
2026-01-04 14:11:05.26	351.40	22.57	-24.4	-25.0	17.6	0.00e+00	0	44	102	1048576	8	3891
2026-01-04 14:11:06.27	351.32	22.43	-24.3	-24.9	17.6	0.00e+00	0	44	102	1048576	8	3856
2026-01-04 14:11:07.27	351.24	22.30	-24.4	-25.2	17.5	0.00e+00	0	44	102	1048576	8	3917
2026-01-04 14:11:08.28	351.16	22.16	-24.6	-25.1	17.3	0.00e+00	0	44	102	1048576	9	3791
2026-01-04 14:11:09.29	351.09	22.02	-24.9	-25.6	17.0	0.00e+00	0	44	102	1048576	9	3910
2026-01-04 14:11:10.29	351.01	21.89	-25.0	-25.4	16.9	0.00e+00	0	44	102	1048576	10	3763
2026-01-04 14:11:11.29	350.94	21.75	-24.7	-24.8	17.2	0.00e+00	0	44	102	1048576	10	3621
2026-01-04 14:11:12.30	350.86	21.62	-24.5	-24.4	17.4	0.00e+00	0	44	102	1048576	10	3531
2026-01-04 14:11:13.31	350.79	21.48	-24.5	-24.3	17.5	0.00e+00	0	44	102	1048576	10	3524
2026-01-04 14:11:14.31	350.72	21.35	-24.5	-24.3	17.4	0.00e+00	0	44	102	1048576	10	3530
2026-01-04 14:11:15.32	350.64	21.22	-24.5	-24.3	17.5	0.00e+00	0	44	102	1048576	10	3520
2026-01-04 14:11:16.33	350.57	21.08	-24.3	-24.5	17.6	0.00e+00	0	44	102	1048576	9	3658
2026-01-04 14:11:17.34	350.50	20.95	-24.3	-24.4	17.6	0.00e+00	0	44	102	1048576	9	3647
2026-01-04 14:11:18.34	350.43	20.82	-24.4	-24.6	17.5	0.00e+00	0	44	102	1048576	9	3689
2026-01-04 14:11:19.34	350.36	20.69	-24.4	-24.6	17.5	0.00e+00	0	44	102	1048576	9	3683
2026-01-04 14:11:20.35	350.29	20.56	-24.4	-24.7	17.4	0.00e+00	0	44	102	1048576	9	3710
2026-01-04 14:11:21.36	350.22	20.43	-24.5	-24.7	17.4	0.00e+00	0	44	102	1048576	9	3716
2026-01-04 14:11:22.36	350.16	20.30	-24.5	-24.8	17.3	0.00e+00	0	44	102	1048576	9	3728
2026-01-04 14:11:23.37	350.09	20.18	-24.5	-24.9	17.3	0.00e+00	0	44	102	1048576	9	3750
2026-01-04 14:11:24.38	350.02	20.05	-24.6	-25.1	17.2	0.00e+00	0	44	102	1048576	9	3798
2026-01-04 14:11:25.39	349.96	19.92	-24.7	-25.2	17.2	0.00e+00	0	44	102	1048576	9	3816
2026-01-04 14:11:26.39	349.89	19.80	-24.7	-25.3	17.2	0.00e+00	0	44	102	1048576	9	3837
2026-01-04 14:11:27.39	349.83	19.67	-24.7	-25.3	17.1	0.00e+00	0	44	102	1048576	9	3857
2026-01-04 14:11:28.40	349.76	19.55	-24.8	-25.5	17.0	0.00e+00	0	44	102	1048576	9	3885
2026-01-04 14:11:29.41	349.70	19.42	-24.8	-25.5	17.0	0.00e+00	0	44	102	1048576	9	3892
2026-01-04 14:11:30.42	349.64	19.30	-24.9	-25.7	16.9	0.00e+00	0	44	102	1048576	9	3948
2026-01-04 14:11:31.42	349.57	19.18	-24.9	-25.7	16.9	0.00e+00	0	44	102	1048576	9	3939
2026-01-04 14:11:32.43	349.51	19.05	-25.0	-25.8	16.9	0.00e+00	0	44	102	1048576	9	3975
2026-01-04 14:11:33.44	349.45	18.93	-25.0	-25.9	16.8	0.00e+00	0	44	102	1048576	9	3997
2026-01-04 14:11:34.44	349.39	18.81	-25.1	-25.6	16.7	0.00e+00	0	44	102	1048576	10	3809
2026-01-04 14:11:35.45	349.33	18.69	-25.1	-25.6	16.7	0.00e+00	0	44	102	1048576	10	3812
2026-01-04 14:11:36.45	349.27	18.57	-25.1	-25.6	16.7	0.00e+00	0	44	102	1048576	10	3809
2026-01-04 14:11:37.46	349.21	18.45	-25.2	-25.8	16.6	0.00e+00	0	44	102	1048576	10	3855
2026-01-04 14:11:38.46	349.15	18.33	-25.3	-26.1	16.5	0.00e+00	0	44	102	1048576	10	3928
2026-01-04 14:11:39.47	349.09	18.21	-25.4	-26.3	16.3	0.00e+00	0	44	102	1048576	10	3969
2026-01-04 14:11:40.48	349.03	18.09	-25.3	-26.1	16.4	0.00e+00	0	44	102	1048576	10	3923
2026-01-04 14:11:41.49	348.97	17.98	-25.3	-26.1	16.4	0.00e+00	0	44	102	1048576	10	3933
2026-01-04 14:11:42.50	348.92	17.86	-25.4	-26.3	16.3	0.00e+00	0	44	102	1048576	10	3976
2026-01-04 14:11:43.51	348.86	17.74	-25.4	-26.3	16.3	0.00e+00	0	44	102	1048576	10	3981
2026-01-04 14:11:44.51	348.80	17.63	-25.5	-26.4	16.3	0.00e+00	0	44	102	1048576	10	4001
2026-01-04 14:11:45.52	348.75	17.51	-25.4	-26.2	16.3	0.00e+00	0	44	102	1048576	10	3959
2026-01-04 14:11:46.52	348.69	17.40	-25.4	-26.3	16.3	0.00e+00	0	44	102	1048576	10	3983
2026-01-04 14:11:47.53	348.64	17.28	-25.5	-26.4	16.2	0.00e+00	0	44	102	1048576	10	4007
2026-01-04 14:11:48.53	348.59	17.17	-25.5	-26.5	16.2	0.00e+00	0	44	102	1048576	10	4026
2026-01-04 14:11:49.54	348.53	17.06	-25.5	-26.5	16.2	0.00e+00	0	44	102	1048576	10	4020
2026-01-04 14:11:50.55	348.48	16.94	-25.5	-26.1	16.1	0.00e+00	0	44	102	1048576	11	3820
2026-01-04 14:11:51.55	348.42	16.83	-25.6	-26.1	16.1	0.00e+00	0	43	102	1048576	11	3841
2026-01-04 14:11:52.56	348.37	16.72	-25.6	-26.1	16.1	0.00e+00	0	44	102	1048576	11	3824
2026-01-04 14:11:53.57	348.32	16.61	-25.6	-26.2	16.0	0.00e+00	0	44	102	1048576	11	3850
2026-01-04 14:11:54.58	348.27	16.50	-25.7	-26.4	15.9	0.00e+00	0	44	102	1048576	11	3904
2026-01-04 14:11:55.58	348.22	16.39	-25.7	-26.4	15.9	0.00e+00	0	44	102	1048576	11	3910
2026-01-04 14:11:56.59	348.16	16.28	-25.7	-26.4	15.9	0.00e+00	0	44	102	1048576	11	3893
2026-01-04 14:11:57.60	348.11	16.17	-25.7	-26.4	15.9	0.00e+00	0	44	102	1048576	11	3906
2026-01-04 14:11:58.60	348.06	16.06	-25.7	-26.4	15.9	0.00e+00	0	44	102	1048576	11	3904
2026-01-04 14:11:59.61	348.01	15.95	-25.8	-26.6	15.8	0.00e+00	0	44	102	1048576	11	3944
2026-01-04 14:12:00.62	347.96	15.84	-25.8	-26.6	15.8	0.00e+00	0	44	102	1048576	11	3944
2026-01-04 14:12:01.62	347.92	15.73	-25.7	-26.5	15.8	0.00e+00	0	44	102	1048576	11	3924
2026-01-04 14:12:02.63	347.87	15.62	-25.7	-26.5	15.8	0.00e+00	0	43	102	1048576	11	3933
2026-01-04 14:12:03.63	347.82	15.52	-25.8	-26.5	15.8	0.00e+00	0	44	102	1048576	11	3937
2026-01-04 14:12:04.64	347.77	15.41	-25.8	-26.6	15.7	0.00e+00	0	44	102	1048576	11	3963
2026-01-04 14:12:05.64	347.72	15.31	-25.8	-26.6	15.7	0.00e+00	0	44	102	1048576	11	3952
2026-01-04 14:12:06.65	347.68	15.20	-25.8	-26.7	15.7	0.00e+00	0	44	102	1048576	11	3974
2026-01-04 14:12:07.66	347.63	15.10	-25.8	-26.5	15.7	0.00e+00	0	44	102	1048576	11	3928
2026-01-04 14:12:08.67	347.58	14.99	-25.7	-26.5	15.7	0.00e+00	0	44	102	1048576	11	3923
2026-01-04 14:12:09.67	347.54	14.89	-25.7	-26.3	15.8	0.00e+00	0	44	102	1048576	11	3883
2026-01-04 14:12:10.68	347.49	14.78	-25.8	-26.5	15.7	0.00e+00	0	44	102	1048576	11	3929
2026-01-04 14:12:11.69	347.45	14.68	-25.7	-26.5	15.7	0.00e+00	0	44	102	1048576	11	3925
2026-01-04 14:12:12.69	347.40	14.58	-25.7	-26.4	15.7	0.00e+00	0	44	102	1048576	11	3897
2026-01-04 14:12:13.70	347.36	14.47	-25.7	-26.5	15.6	0.00e+00	0	44	102	1048576	11	3929
2026-01-04 14:12:14.71	347.31	14.37	-25.7	-26.5	15.5	0.00e+00	0	44	102	1048576	11	3926
2026-01-04 14:12:15.72	347.27	14.27	-25.8	-26.6	15.5	0.00e+00	0	44	102	1048576	11	3960
2026-01-04 14:12:16.72	347.22	14.17	-25.8	-26.7	15.5	0.00e+00	0	44	102	1048576	11	3966
2026-01-04 14:12:17.73	347.18	14.07	-25.8	-26.6	15.5	0.00e+00	0	44	102	1048576	11	3963
2026-01-04 14:12:18.74	347.14	13.97	-25.8	-26.6	15.5	0.00e+00	0	44	102	1048576	11	3952
2026-01-04 14:12:19.74	347.09	13.87	-25.9	-26.7	15.5	0.00e+00	0	44	102	1048576	11	3988
2026-01-04 14:12:20.75	347.05	13.77	-25.9	-26.8	15.4	0.00e+00	0	44	102	1048576	11	4007
2026-01-04 14:12:21.76	347.01	13.67	-25.9	-26.8	15.5	0.00e+00	0	44	102	1048576	11	4010
2026-01-04 14:12:22.76	346.97	13.57	-26.0	-27.1	15.3	0.00e+00	0	44	102	1048576	11	4086
2026-01-04 14:12:23.77	346.93	13.47	-26.0	-27.1	15.3	0.00e+00	0	44	102	1048576	11	4080
2026-01-04 14:12:24.77	346.88	13.37	-26.0	-26.7	15.2	0.00e+00	0	44	102	1048576	12	3865
2026-01-04 14:12:25.78	346.84	13.28	-26.1	-26.8	15.2	0.00e+00	0	44	102	1048576	12	3904
2026-01-04 14:12:26.78	346.80	13.18	-26.1	-26.8	15.2	0.00e+00	0	44	102	1048576	12	3910
2026-01-04 14:12:27.79	346.76	13.08	-26.2	-27.1	15.0	0.00e+00	0	44	102	1048576	12	3975
2026-01-04 14:12:28.80	346.72	12.99	-26.2	-27.1	15.0	0.00e+00	0	44	102	1048576	12	3973
2026-01-04 14:12:29.80	346.68	12.89	-26.2	-27.1	15.0	0.00e+00	0	44	102	1048576	12	3969
2026-01-04 14:12:30.81	346.64	12.79	-26.3	-27.3	14.9	0.00e+00	0	44	102	1048576	12	4024
2026-01-04 14:12:31.82	346.60	12.70	-26.4	-27.4	14.8	1.10e-06	0	44	102	1048576	12	4056
2026-01-04 14:12:32.82	346.56	12.60	-26.4	-27.4	14.7	1.10e-06	0	44	102	1048576	12	4057
2026-01-04 14:12:33.83	346.53	12.51	-26.5	-27.7	14.5	1.10e-06	0	44	102	1048576	12	4140
2026-01-04 14:12:34.84	346.49	12.41	-26.7	-27.5	14.3	0.00e+00	0	44	102	1048576	13	3984
2026-01-04 14:12:35.84	346.45	12.32	-26.8	-28.0	14.0	0.00e+00	0	44	102	1048576	13	4093
2026-01-04 14:12:36.85	346.41	12.23	-26.8	-27.9	14.1	1.10e-06	0	44	102	1048576	13	4076
2026-01-04 14:12:37.86	346.37	12.13	-26.7	-27.7	14.1	1.10e-06	0	44	102	1048576	13	4035
2026-01-04 14:12:38.87	346.34	12.04	-26.8	-27.8	14.1	1.10e-06	0	44	102	1048576	13	4056
2026-01-04 14:12:39.88	346.30	11.95	-26.8	-27.8	14.1	2.20e-06	0	44	102	1048576	13	4061
2026-01-04 14:12:40.88	346.26	11.85	-27.0	-28.3	13.8	6.80e-06	0	44	102	1048576	13	4193
2026-01-04 14:12:41.88	346.23	11.76	-26.9	-28.0	14.0	1.10e-06	0	44	102	1048576	13	4115
2026-01-04 14:12:42.90	346.19	11.67	-26.8	-27.8	14.1	0.00e+00	0	44	102	1048576	13	4055
2026-01-04 14:12:43.91	346.15	11.58	-26.7	-27.7	14.2	3.40e-06	0	44	102	1048576	13	4028
2026-01-04 14:12:44.91	346.12	11.49	-26.8	-28.0	14.0	2.20e-06	0	44	102	1048576	13	4098
2026-01-04 14:12:45.91	346.08	11.40	-26.8	-28.0	14.0	3.40e-06	0	44	102	1048576	13	4109
2026-01-04 14:12:46.92	346.05	11.31	-26.8	-28.0	14.0	1.10e-06	0	44	102	1048576	13	4106
2026-01-04 14:12:47.92	346.01	11.22	-26.8	-27.9	13.9	4.50e-06	0	44	102	1048576	13	4090
2026-01-04 14:12:48.93	345.98	11.13	-26.8	-27.9	13.9	4.50e-06	0	44	102	1048576	13	4098
2026-01-04 14:12:49.94	345.94	11.04	-26.9	-28.1	13.8	5.70e-06	0	44	102	1048576	13	4127
2026-01-04 14:12:50.94	345.91	10.95	-26.9	-28.1	13.8	4.50e-06	0	44	102	1048576	13	4136
2026-01-04 14:12:51.95	345.87	10.86	-26.9	-28.1	13.8	3.40e-06	0	44	102	1048576	13	4145
2026-01-04 14:12:52.96	345.84	10.77	-26.9	-28.2	13.7	9.10e-06	0	44	102	1048576	13	4175
2026-01-04 14:12:53.97	345.81	10.68	-27.0	-28.3	13.7	5.70e-06	0	44	102	1048576	13	4191
2026-01-04 14:12:54.97	345.77	10.59	-27.0	-28.4	13.7	4.50e-06	0	44	102	1048576	13	4211
2026-01-04 14:12:55.98	345.74	10.51	-27.2	-28.3	13.5	1.48e-05	0	44	102	1048576	14	4083
2026-01-04 14:12:56.98	345.71	10.42	-27.4	-28.9	13.2	2.17e-05	0	44	102	1048576	14	4234
2026-01-04 14:12:57.99	345.67	10.33	-27.2	-28.4	13.5	1.37e-05	0	44	102	1048576	14	4099
2026-01-04 14:12:59.00	345.64	10.25	-27.1	-28.1	13.7	1.02e-05	0	44	102	1048576	14	4032
2026-01-04 14:13:00.01	345.61	10.16	-27.0	-27.8	13.8	9.10e-06	0	44	102	1048576	14	3954
2026-01-04 14:13:01.01	345.58	10.07	-27.1	-28.0	13.7	8.00e-06	0	44	102	1048576	14	4009
2026-01-04 14:13:02.02	345.54	9.99	-27.0	-27.9	13.8	9.10e-06	0	44	102	1048576	14	3981
2026-01-04 14:13:03.03	345.51	9.90	-27.1	-28.1	13.6	1.14e-05	0	44	102	1048576	14	4027
2026-01-04 14:13:04.03	345.48	9.82	-27.0	-27.8	13.7	3.40e-06	0	44	102	1048576	14	3967
2026-01-04 14:13:05.03	345.45	9.73	-27.0	-27.9	13.7	4.50e-06	0	44	102	1048576	14	3974
2026-01-04 14:13:06.03	345.42	9.65	-27.1	-28.0	13.6	5.70e-06	0	44	102	1048576	14	4007
2026-01-04 14:13:07.04	345.39	9.56	-27.0	-27.9	13.7	8.00e-06	0	44	102	1048576	14	3970
2026-01-04 14:13:08.04	345.36	9.48	-27.1	-28.1	13.6	1.02e-05	0	44	102	1048576	14	4026
2026-01-04 14:13:09.05	345.33	9.40	-27.1	-28.1	13.6	9.10e-06	0	44	102	1048576	14	4030
2026-01-04 14:13:10.06	345.30	9.31	-27.1	-28.1	13.5	1.14e-05	0	44	102	1048576	14	4032
2026-01-04 14:13:11.06	345.27	9.23	-27.1	-28.2	13.5	8.00e-06	0	44	102	1048576	14	4061
2026-01-04 14:13:12.07	345.24	9.14	-27.1	-28.0	13.6	3.40e-06	0	44	102	1048576	14	4023
2026-01-04 14:13:13.07	345.21	9.06	-27.2	-28.3	13.5	1.94e-05	0	44	102	1048576	14	4087
2026-01-04 14:13:14.07	345.18	8.98	-27.1	-28.1	13.6	1.37e-05	0	44	102	1048576	14	4036
2026-01-04 14:13:15.08	345.15	8.90	-27.1	-28.0	13.6	2.20e-06	0	44	102	1048576	14	4009
2026-01-04 14:13:16.08	345.12	8.82	-27.0	-28.0	13.6	8.00e-06	0	44	102	1048576	14	4006
2026-01-04 14:13:17.09	345.09	8.73	-27.1	-28.1	13.5	1.48e-05	0	44	102	1048576	14	4038
2026-01-04 14:13:18.10	345.06	8.65	-27.1	-28.2	13.3	1.60e-05	0	44	102	1048576	14	4060
2026-01-04 14:13:19.11	345.03	8.57	-27.1	-28.2	13.4	1.94e-05	0	44	102	1048576	14	4059
2026-01-04 14:13:20.11	345.00	8.49	-27.1	-28.2	13.3	2.40e-05	0	44	102	1048576	14	4065
2026-01-04 14:13:21.11	344.98	8.41	-27.1	-28.1	13.3	1.94e-05	0	44	102	1048576	14	4049
2026-01-04 14:13:22.11	344.95	8.33	-27.2	-28.4	13.1	3.20e-05	0	44	102	1048576	14	4116
2026-01-04 14:13:23.12	344.92	8.25	-27.2	-28.2	13.1	4.46e-05	0	44	102	1048576	14	4081
2026-01-04 14:13:24.12	344.89	8.17	-27.2	-28.4	13.1	2.86e-05	0	44	102	1048576	14	4127
2026-01-04 14:13:25.13	344.87	8.09	-27.4	-28.9	12.9	6.75e-05	0	44	102	1048576	14	4250
2026-01-04 14:13:26.13	344.84	8.01	-27.3	-28.6	13.0	5.03e-05	0	44	102	1048576	14	4163
2026-01-04 14:13:27.14	344.81	7.93	-27.2	-28.4	13.1	3.43e-05	0	44	102	1048576	14	4128
2026-01-04 14:13:28.14	344.78	7.85	-27.3	-28.6	13.0	4.69e-05	0	44	102	1048576	14	4173
2026-01-04 14:13:29.15	344.76	7.77	-27.3	-28.5	13.2	2.40e-05	0	44	102	1048576	14	4137
2026-01-04 14:13:30.15	344.73	7.70	-27.4	-28.7	13.1	1.94e-05	0	44	102	1048576	14	4206
2026-01-04 14:13:31.16	344.70	7.62	-27.4	-28.8	13.1	2.86e-05	0	44	102	1048576	14	4218
2026-01-04 14:13:32.17	344.68	7.54	-27.4	-28.8	13.1	3.89e-05	0	44	102	1048576	14	4217
2026-01-04 14:13:33.17	344.65	7.46	-27.4	-28.7	13.1	3.08e-05	0	44	102	1048576	14	4211
2026-01-04 14:13:34.18	344.63	7.38	-27.5	-29.0	13.0	4.80e-05	0	44	102	1048576	14	4292
2026-01-04 14:13:35.19	344.60	7.31	-27.5	-29.0	13.0	4.00e-05	0	44	102	1048576	14	4301
2026-01-04 14:13:36.19	344.57	7.23	-27.6	-28.8	12.8	4.92e-05	0	44	102	1048576	15	4132
2026-01-04 14:13:37.20	344.55	7.15	-27.7	-29.0	12.7	9.26e-05	0	44	102	1048576	15	4179
2026-01-04 14:13:38.21	344.52	7.08	-28.4	-30.2	11.9	6.52e-05	0	44	102	1048576	16	4425
2026-01-04 14:13:39.22	344.50	7.00	-33.0	-40.7	4.0	8.23e-01	0	44	102	1048576	25	8770

#Closed at: 2026-01-04 14:13:39
#Recorded file [1 MB]: D:/data/31010_260104_170749.dat