passes_logs/2026/01/04/R2M6_AANII_01/R2M6_AANII_01__20260104_103600_FENGYUN_3D_rec.log

#Pass ID: 20260104_103600_FENGYUN 3D
#Satellite: FENGYUN 3D
#Configuration: FENGYUN 3D
#almurnet v.1.7.20240730
#Start time: 2026-01-04 10:36:02

#Version: 2.2.20231116
#Station: R2M6_AANII_01
#Location: 30.233357 lon 59.946436 lat
#TLE: 1 43010U 17072A   26003.51579816  .00000092  00000+0  65324-4 0  9992
#TLE: 2 43010  98.9912 335.1548 0001916 128.4619 231.6729 14.19692074421623

#Time	Az	El	Level	Level2	SNR	BER	BlckErr	Temp	State	Recorded	gain1	gain2
2026-01-04 10:36:02.63	106.22	7.11	-30.7	-34.3	5.0	7.96e-01	0	41	0	0	22	5469
2026-01-04 10:36:03.63	106.14	7.18	-30.1	-33.1	5.3	7.87e-01	0	41	104	0	21	5090
2026-01-04 10:36:04.64	106.05	7.25	-30.0	-32.7	9.4	1.98e-02	0	41	0	0	21	4936
2026-01-04 10:36:05.64	105.97	7.31	-30.0	-32.8	9.4	2.04e-02	0	41	102	1048576	21	4958
2026-01-04 10:36:06.65	105.88	7.38	-29.9	-32.6	9.5	1.99e-02	0	41	102	1048576	21	4882
2026-01-04 10:36:07.66	105.80	7.45	-29.7	-32.4	10.0	1.43e-02	0	41	102	1048576	20	4929
2026-01-04 10:36:08.67	105.71	7.52	-29.3	-31.8	10.8	5.56e-03	0	41	102	1048576	19	4797
2026-01-04 10:36:09.68	105.63	7.59	-28.9	-30.7	11.6	1.46e-03	0	41	102	1048576	19	4439
2026-01-04 10:36:10.68	105.54	7.65	-28.5	-30.2	12.2	5.03e-04	0	41	102	1048576	18	4380
2026-01-04 10:36:11.69	105.45	7.72	-28.2	-30.1	12.5	2.09e-04	0	41	102	1048576	17	4473
2026-01-04 10:36:12.70	105.36	7.79	-28.3	-30.2	12.5	1.61e-04	0	41	102	1048576	17	4503
2026-01-04 10:36:13.71	105.27	7.86	-28.3	-30.2	12.5	2.02e-04	0	41	102	1048576	17	4506
2026-01-04 10:36:14.71	105.19	7.93	-28.2	-30.1	12.6	1.45e-04	0	41	102	1048576	17	4472
2026-01-04 10:36:15.71	105.10	8.00	-28.2	-30.0	12.6	1.76e-04	0	41	102	1048576	17	4446
2026-01-04 10:36:16.72	105.01	8.07	-28.1	-29.7	12.8	1.29e-04	0	41	102	1048576	17	4355
2026-01-04 10:36:17.73	104.92	8.13	-28.1	-29.9	12.7	1.20e-04	0	41	102	1048576	17	4402
2026-01-04 10:36:18.74	104.83	8.20	-28.0	-29.6	12.9	6.86e-05	0	41	102	1048576	17	4315
2026-01-04 10:36:19.75	104.74	8.27	-28.1	-29.8	12.8	9.15e-05	0	42	102	1048576	17	4362
2026-01-04 10:36:20.75	104.65	8.34	-28.1	-29.7	12.8	8.46e-05	0	42	102	1048576	17	4342
2026-01-04 10:36:21.75	104.55	8.41	-28.1	-29.8	12.8	8.12e-05	0	41	102	1048576	17	4375
2026-01-04 10:36:22.76	104.46	8.48	-28.2	-30.0	12.7	8.69e-05	0	41	102	1048576	17	4417
2026-01-04 10:36:23.76	104.37	8.55	-27.9	-29.3	13.1	7.78e-05	0	41	102	1048576	17	4225
2026-01-04 10:36:24.77	104.28	8.62	-27.8	-29.1	13.3	4.92e-05	0	41	102	1048576	17	4159
2026-01-04 10:36:25.77	104.18	8.69	-27.7	-29.3	13.4	2.74e-05	0	42	102	1048576	16	4338
2026-01-04 10:36:26.78	104.09	8.76	-27.7	-29.4	13.4	3.54e-05	0	42	102	1048576	16	4353
2026-01-04 10:36:27.79	103.99	8.83	-27.6	-29.2	13.5	2.51e-05	0	42	102	1048576	16	4284
2026-01-04 10:36:28.80	103.90	8.90	-27.6	-29.0	13.6	1.71e-05	0	42	102	1048576	16	4252
2026-01-04 10:36:29.80	103.80	8.97	-27.6	-29.1	13.5	1.71e-05	0	42	102	1048576	16	4267
2026-01-04 10:36:30.81	103.71	9.04	-27.5	-28.9	13.6	1.14e-05	0	42	102	1048576	16	4217
2026-01-04 10:36:31.83	103.61	9.11	-27.6	-29.0	13.7	8.00e-06	0	42	102	1048576	16	4229
2026-01-04 10:36:32.82	103.51	9.18	-27.6	-29.0	13.6	1.60e-05	0	42	102	1048576	16	4253
2026-01-04 10:36:33.83	103.42	9.25	-27.6	-29.1	13.6	1.71e-05	0	42	102	1048576	16	4271
2026-01-04 10:36:34.84	103.32	9.32	-27.6	-29.0	13.7	1.25e-05	0	42	102	1048576	16	4232
2026-01-04 10:36:35.85	103.22	9.40	-27.4	-28.5	13.9	2.20e-06	0	42	102	1048576	16	4113
2026-01-04 10:36:36.85	103.12	9.47	-27.4	-28.7	13.8	6.80e-06	0	42	102	1048576	16	4144
2026-01-04 10:36:37.86	103.02	9.54	-27.4	-28.6	13.9	8.00e-06	0	42	102	1048576	16	4143
2026-01-04 10:36:38.86	102.92	9.61	-27.5	-28.7	13.8	6.80e-06	0	42	102	1048576	16	4171
2026-01-04 10:36:39.87	102.82	9.68	-27.4	-28.5	13.9	5.70e-06	0	42	102	1048576	16	4109
2026-01-04 10:36:40.88	102.72	9.75	-27.4	-28.7	13.8	3.40e-06	0	42	102	1048576	16	4154
2026-01-04 10:36:41.89	102.62	9.83	-27.3	-28.4	14.0	1.10e-06	0	42	102	1048576	16	4086
2026-01-04 10:36:42.90	102.52	9.90	-27.3	-28.5	14.0	4.50e-06	0	42	102	1048576	16	4094
2026-01-04 10:36:43.91	102.41	9.97	-27.3	-28.4	14.0	5.70e-06	0	42	102	1048576	16	4085
2026-01-04 10:36:44.91	102.31	10.04	-27.5	-28.8	13.8	5.70e-06	0	42	102	1048576	16	4179
2026-01-04 10:36:45.92	102.21	10.11	-27.4	-28.5	14.0	5.70e-06	0	42	102	1048576	16	4101
2026-01-04 10:36:46.93	102.10	10.19	-27.4	-28.5	14.0	3.40e-06	0	42	102	1048576	16	4119
2026-01-04 10:36:47.94	102.00	10.26	-27.4	-28.6	13.9	5.70e-06	0	42	102	1048576	16	4137
2026-01-04 10:36:48.94	101.89	10.33	-27.4	-28.7	13.9	2.20e-06	0	42	102	1048576	16	4150
2026-01-04 10:36:49.95	101.79	10.41	-27.5	-28.8	13.8	4.50e-06	0	42	102	1048576	16	4174
2026-01-04 10:36:50.96	101.68	10.48	-27.4	-28.7	13.9	4.50e-06	0	42	102	1048576	16	4154
2026-01-04 10:36:51.96	101.58	10.55	-27.5	-28.9	13.8	5.70e-06	0	42	102	1048576	16	4217
2026-01-04 10:36:52.97	101.47	10.62	-27.5	-28.9	13.8	6.80e-06	0	42	102	1048576	16	4206
2026-01-04 10:36:53.98	101.36	10.70	-27.5	-28.9	13.8	9.10e-06	0	42	102	1048576	16	4212
2026-01-04 10:36:54.99	101.25	10.77	-27.7	-29.3	13.6	1.02e-05	0	42	102	1048576	16	4317
2026-01-04 10:36:55.99	101.14	10.84	-27.5	-28.9	13.8	9.10e-06	0	42	102	1048576	16	4213
2026-01-04 10:36:56.99	101.04	10.92	-27.5	-28.7	13.9	9.10e-06	0	42	102	1048576	16	4169
2026-01-04 10:36:58.00	100.93	10.99	-27.5	-28.8	13.9	8.00e-06	0	42	102	1048576	16	4181
2026-01-04 10:36:59.01	100.81	11.07	-27.5	-28.8	13.9	6.80e-06	0	42	102	1048576	16	4177
2026-01-04 10:37:00.01	100.70	11.14	-27.7	-29.2	13.6	1.25e-05	0	42	102	1048576	16	4306
2026-01-04 10:37:01.02	100.59	11.21	-27.5	-28.8	13.9	6.80e-06	0	42	102	1048576	16	4174
2026-01-04 10:37:02.03	100.48	11.29	-27.3	-28.4	14.1	1.10e-06	0	42	102	1048576	16	4076
2026-01-04 10:37:03.03	100.37	11.36	-27.1	-28.4	14.2	1.10e-06	0	42	102	1048576	15	4181
2026-01-04 10:37:04.03	100.25	11.44	-27.1	-28.5	14.2	0.00e+00	0	42	102	1048576	15	4216
2026-01-04 10:37:05.04	100.14	11.51	-27.1	-28.4	14.2	1.10e-06	0	42	102	1048576	15	4179
2026-01-04 10:37:06.05	100.03	11.59	-27.0	-28.3	14.3	3.40e-06	0	42	102	1048576	15	4159
2026-01-04 10:37:07.06	99.91	11.66	-27.1	-28.5	14.1	2.20e-06	0	42	102	1048576	15	4224
2026-01-04 10:37:08.06	99.79	11.74	-26.9	-28.0	14.5	1.10e-06	0	42	102	1048576	15	4084
2026-01-04 10:37:09.07	99.68	11.81	-27.0	-28.2	14.4	1.10e-06	0	42	102	1048576	15	4133
2026-01-04 10:37:10.08	99.56	11.89	-26.9	-28.0	14.5	2.20e-06	0	42	102	1048576	15	4069
2026-01-04 10:37:11.08	99.44	11.96	-26.8	-27.7	14.7	1.10e-06	0	42	102	1048576	15	3997
2026-01-04 10:37:12.09	99.32	12.04	-26.8	-28.2	14.7	0.00e+00	0	42	102	1048576	14	4232
2026-01-04 10:37:13.10	99.21	12.11	-26.8	-28.2	14.7	2.20e-06	0	43	102	1048576	14	4230
2026-01-04 10:37:14.11	99.09	12.19	-26.7	-28.0	14.8	1.10e-06	0	42	102	1048576	14	4194
2026-01-04 10:37:15.11	98.97	12.26	-26.7	-28.0	14.8	1.10e-06	0	42	102	1048576	14	4192
2026-01-04 10:37:16.12	98.85	12.34	-26.7	-28.0	14.8	1.10e-06	0	43	102	1048576	14	4171
2026-01-04 10:37:17.12	98.72	12.41	-26.8	-28.3	14.6	0.00e+00	0	42	102	1048576	14	4256
2026-01-04 10:37:18.13	98.60	12.49	-26.7	-28.1	14.8	0.00e+00	0	42	102	1048576	14	4212
2026-01-04 10:37:19.14	98.48	12.57	-26.7	-28.0	14.8	0.00e+00	0	42	102	1048576	14	4178
2026-01-04 10:37:20.14	98.36	12.64	-26.7	-27.9	14.9	0.00e+00	0	42	102	1048576	14	4166
2026-01-04 10:37:21.14	98.23	12.72	-26.6	-27.8	15.0	0.00e+00	0	43	102	1048576	14	4119
2026-01-04 10:37:22.15	98.11	12.80	-26.7	-27.9	14.9	2.20e-06	0	43	102	1048576	14	4163
2026-01-04 10:37:23.16	97.98	12.87	-26.6	-27.8	15.0	0.00e+00	0	43	102	1048576	14	4120
2026-01-04 10:37:24.17	97.86	12.95	-26.6	-27.7	15.0	1.10e-06	0	43	102	1048576	14	4105
2026-01-04 10:37:25.17	97.73	13.03	-26.6	-27.7	15.0	0.00e+00	0	43	102	1048576	14	4090
2026-01-04 10:37:26.18	97.60	13.10	-26.6	-27.7	15.1	0.00e+00	0	43	102	1048576	14	4095
2026-01-04 10:37:27.19	97.47	13.18	-26.6	-27.8	15.0	0.00e+00	0	43	102	1048576	14	4116
2026-01-04 10:37:28.20	97.35	13.26	-26.7	-27.9	15.0	0.00e+00	0	43	102	1048576	14	4154
2026-01-04 10:37:29.20	97.22	13.33	-26.8	-28.3	14.8	1.10e-06	0	43	102	1048576	14	4242
2026-01-04 10:37:30.20	97.09	13.41	-26.6	-27.7	15.1	0.00e+00	0	43	102	1048576	14	4104
2026-01-04 10:37:31.21	96.96	13.49	-26.5	-27.6	15.1	0.00e+00	0	43	102	1048576	14	4066
2026-01-04 10:37:32.22	96.82	13.57	-26.5	-27.5	15.2	0.00e+00	0	43	102	1048576	14	4050
2026-01-04 10:37:33.22	96.69	13.64	-26.6	-27.7	15.1	0.00e+00	0	43	102	1048576	14	4099
2026-01-04 10:37:34.23	96.56	13.72	-26.4	-27.2	15.4	0.00e+00	0	43	102	1048576	14	3976
2026-01-04 10:37:35.24	96.43	13.80	-26.5	-27.4	15.3	0.00e+00	0	43	102	1048576	14	4031
2026-01-04 10:37:36.25	96.29	13.88	-26.4	-27.2	15.4	1.10e-06	0	43	102	1048576	14	3970
2026-01-04 10:37:37.25	96.16	13.96	-26.3	-27.2	15.4	0.00e+00	0	43	102	1048576	14	3970
2026-01-04 10:37:38.27	96.02	14.03	-26.4	-27.3	15.4	0.00e+00	0	43	102	1048576	14	3990
2026-01-04 10:37:39.28	95.88	14.11	-26.4	-27.4	15.3	0.00e+00	0	43	102	1048576	14	4007
2026-01-04 10:37:40.27	95.75	14.19	-26.2	-27.4	15.6	0.00e+00	0	43	102	1048576	13	4132
2026-01-04 10:37:41.28	95.61	14.27	-26.2	-27.5	15.6	0.00e+00	0	43	102	1048576	13	4142
2026-01-04 10:37:42.28	95.47	14.35	-26.3	-27.5	15.5	0.00e+00	0	43	102	1048576	13	4153
2026-01-04 10:37:43.29	95.33	14.42	-26.3	-27.5	15.6	0.00e+00	0	43	102	1048576	13	4151
2026-01-04 10:37:44.30	95.19	14.50	-26.3	-27.5	15.5	0.00e+00	0	43	102	1048576	13	4158
2026-01-04 10:37:45.30	95.05	14.58	-26.3	-27.5	15.5	0.00e+00	0	43	102	1048576	13	4160
2026-01-04 10:37:46.31	94.91	14.66	-26.2	-27.2	15.7	0.00e+00	0	43	102	1048576	13	4081
2026-01-04 10:37:47.32	94.77	14.74	-26.2	-27.4	15.6	0.00e+00	0	43	102	1048576	13	4117
2026-01-04 10:37:48.32	94.62	14.82	-26.2	-27.5	15.6	0.00e+00	0	43	102	1048576	13	4139
2026-01-04 10:37:49.33	94.48	14.90	-26.2	-27.4	15.6	0.00e+00	0	43	102	1048576	13	4127
2026-01-04 10:37:50.33	94.34	14.98	-26.2	-27.4	15.6	0.00e+00	0	43	102	1048576	13	4137
2026-01-04 10:37:51.33	94.19	15.05	-26.1	-27.2	15.7	0.00e+00	0	43	102	1048576	13	4086
2026-01-04 10:37:52.34	94.05	15.13	-26.1	-27.2	15.7	0.00e+00	0	43	102	1048576	13	4067
2026-01-04 10:37:53.35	93.90	15.21	-26.0	-27.0	15.9	0.00e+00	0	43	102	1048576	13	4015
2026-01-04 10:37:54.36	93.75	15.29	-26.0	-27.0	15.9	0.00e+00	0	42	102	1048576	13	4015
2026-01-04 10:37:55.37	93.60	15.37	-26.0	-27.0	15.9	0.00e+00	0	43	102	1048576	13	4012
2026-01-04 10:37:56.37	93.45	15.45	-25.9	-26.7	16.1	0.00e+00	0	43	102	1048576	13	3932
2026-01-04 10:37:57.38	93.30	15.53	-25.9	-26.7	16.1	0.00e+00	0	43	102	1048576	13	3932
2026-01-04 10:37:58.38	93.15	15.61	-26.0	-27.0	15.9	0.00e+00	0	43	102	1048576	13	4012
2026-01-04 10:37:59.39	93.00	15.69	-26.1	-27.2	15.8	0.00e+00	0	43	102	1048576	13	4065
2026-01-04 10:38:00.39	92.85	15.77	-26.0	-26.9	16.0	0.00e+00	0	43	102	1048576	13	3987
2026-01-04 10:38:01.40	92.69	15.85	-26.0	-27.0	15.9	0.00e+00	0	43	102	1048576	13	4010
2026-01-04 10:38:02.41	92.54	15.93	-26.0	-26.9	16.0	0.00e+00	0	43	102	1048576	13	3986
2026-01-04 10:38:03.41	92.38	16.01	-25.9	-26.8	16.0	0.00e+00	0	43	102	1048576	13	3965
2026-01-04 10:38:04.42	92.23	16.09	-26.0	-26.9	16.0	0.00e+00	0	43	102	1048576	13	3991
2026-01-04 10:38:05.43	92.07	16.17	-26.0	-26.9	16.0	0.00e+00	0	43	102	1048576	13	3996
2026-01-04 10:38:06.44	91.91	16.25	-26.0	-27.0	16.0	0.00e+00	0	43	102	1048576	13	4006
2026-01-04 10:38:07.45	91.75	16.33	-26.1	-27.1	15.9	0.00e+00	0	43	102	1048576	13	4033
2026-01-04 10:38:08.46	91.59	16.41	-25.8	-26.5	16.2	0.00e+00	0	43	102	1048576	13	3891
2026-01-04 10:38:09.46	91.43	16.49	-25.7	-26.8	16.3	0.00e+00	0	43	102	1048576	12	4076
2026-01-04 10:38:10.47	91.27	16.57	-25.7	-26.8	16.3	0.00e+00	0	43	102	1048576	12	4077
2026-01-04 10:38:11.48	91.11	16.65	-25.8	-26.9	16.3	0.00e+00	0	43	102	1048576	12	4091
2026-01-04 10:38:12.49	90.95	16.73	-25.7	-26.8	16.3	0.00e+00	0	43	102	1048576	12	4083
2026-01-04 10:38:13.49	90.78	16.81	-25.7	-26.7	16.4	0.00e+00	0	43	102	1048576	12	4049
2026-01-04 10:38:14.50	90.62	16.89	-25.7	-26.7	16.4	0.00e+00	0	43	102	1048576	12	4045
2026-01-04 10:38:15.50	90.45	16.97	-25.8	-26.9	16.3	0.00e+00	0	43	102	1048576	12	4093
2026-01-04 10:38:16.51	90.29	17.05	-25.7	-26.8	16.3	0.00e+00	0	43	102	1048576	12	4083
2026-01-04 10:38:17.52	90.12	17.13	-25.8	-26.9	16.3	0.00e+00	0	43	102	1048576	12	4095
2026-01-04 10:38:18.53	89.95	17.21	-25.7	-26.8	16.4	0.00e+00	0	43	102	1048576	12	4077
2026-01-04 10:38:19.53	89.78	17.29	-25.7	-26.7	16.4	0.00e+00	0	43	102	1048576	12	4042
2026-01-04 10:38:20.54	89.61	17.37	-25.6	-26.6	16.5	0.00e+00	0	43	102	1048576	12	4020
2026-01-04 10:38:21.54	89.44	17.45	-25.7	-26.7	16.4	0.00e+00	0	43	102	1048576	12	4043
2026-01-04 10:38:22.55	89.27	17.53	-25.6	-26.6	16.5	0.00e+00	0	43	102	1048576	12	4016
2026-01-04 10:38:23.56	89.09	17.61	-25.5	-26.3	16.7	0.00e+00	0	43	102	1048576	12	3945
2026-01-04 10:38:24.56	88.92	17.69	-25.5	-26.3	16.7	0.00e+00	0	43	102	1048576	12	3944
2026-01-04 10:38:25.57	88.75	17.77	-25.5	-26.2	16.7	0.00e+00	0	43	102	1048576	12	3919
2026-01-04 10:38:26.58	88.57	17.85	-25.4	-26.2	16.7	0.00e+00	0	43	102	1048576	12	3919
2026-01-04 10:38:27.58	88.39	17.93	-25.6	-26.4	16.6	0.00e+00	0	43	102	1048576	12	3981
2026-01-04 10:38:28.59	88.22	18.01	-25.5	-26.3	16.7	0.00e+00	0	43	102	1048576	12	3950
2026-01-04 10:38:29.60	88.04	18.09	-25.4	-26.1	16.8	0.00e+00	0	43	102	1048576	12	3888
2026-01-04 10:38:30.60	87.86	18.17	-25.4	-26.1	16.8	0.00e+00	0	43	102	1048576	12	3887
2026-01-04 10:38:31.60	87.68	18.25	-25.4	-26.0	16.9	0.00e+00	0	43	102	1048576	12	3870
2026-01-04 10:38:32.61	87.50	18.33	-25.3	-26.5	17.0	0.00e+00	0	43	102	1048576	11	4087
2026-01-04 10:38:33.62	87.31	18.41	-25.3	-26.4	16.9	0.00e+00	0	43	102	1048576	11	4081
2026-01-04 10:38:34.63	87.13	18.49	-25.4	-26.5	17.0	0.00e+00	0	43	102	1048576	11	4088
2026-01-04 10:38:35.63	86.95	18.57	-25.4	-26.5	16.9	0.00e+00	0	43	102	1048576	11	4098
2026-01-04 10:38:36.64	86.76	18.65	-25.3	-26.5	17.0	0.00e+00	0	43	102	1048576	11	4088
2026-01-04 10:38:37.65	86.58	18.73	-25.4	-26.5	16.9	0.00e+00	0	43	102	1048576	11	4095
2026-01-04 10:38:38.65	86.39	18.81	-25.4	-26.7	16.8	0.00e+00	0	43	102	1048576	11	4145
2026-01-04 10:38:39.65	86.20	18.89	-25.5	-26.8	16.8	0.00e+00	0	43	102	1048576	11	4173
2026-01-04 10:38:40.66	86.01	18.97	-25.5	-26.8	16.8	0.00e+00	0	43	102	1048576	11	4177
2026-01-04 10:38:41.67	85.82	19.05	-25.4	-26.5	16.9	0.00e+00	0	43	102	1048576	11	4100
2026-01-04 10:38:42.67	85.63	19.13	-25.4	-26.5	17.0	0.00e+00	0	43	102	1048576	11	4098
2026-01-04 10:38:43.68	85.44	19.21	-25.3	-26.3	17.0	0.00e+00	0	43	102	1048576	11	4062
2026-01-04 10:38:44.69	85.24	19.29	-25.3	-26.3	17.0	0.00e+00	0	43	102	1048576	11	4057
2026-01-04 10:38:45.70	85.05	19.37	-25.3	-26.4	17.0	0.00e+00	0	43	102	1048576	11	4077
2026-01-04 10:38:46.70	84.86	19.44	-25.4	-26.5	16.9	0.00e+00	0	43	102	1048576	11	4105
2026-01-04 10:38:47.71	84.66	19.52	-25.3	-26.2	17.1	0.00e+00	0	43	102	1048576	11	4036
2026-01-04 10:38:48.72	84.46	19.60	-25.2	-26.1	17.2	0.00e+00	0	43	102	1048576	11	3995
2026-01-04 10:38:49.72	84.26	19.68	-25.2	-26.2	17.1	0.00e+00	0	43	102	1048576	11	4021
2026-01-04 10:38:50.73	84.06	19.76	-25.2	-26.0	17.2	0.00e+00	0	43	102	1048576	11	3985
2026-01-04 10:38:51.74	83.86	19.84	-25.1	-25.8	17.3	0.00e+00	0	43	102	1048576	11	3933
2026-01-04 10:38:52.75	83.66	19.92	-25.1	-25.9	17.3	0.00e+00	0	43	102	1048576	11	3945
2026-01-04 10:38:53.75	83.46	20.00	-25.0	-25.7	17.4	0.00e+00	0	43	102	1048576	11	3902
2026-01-04 10:38:54.76	83.26	20.07	-24.9	-25.5	17.4	0.00e+00	0	43	102	1048576	11	3864
2026-01-04 10:38:55.76	83.05	20.15	-25.1	-25.9	17.3	0.00e+00	0	43	102	1048576	11	3948
2026-01-04 10:38:56.76	82.85	20.23	-25.0	-25.7	17.4	0.00e+00	0	43	102	1048576	11	3890
2026-01-04 10:38:57.77	82.64	20.31	-24.8	-25.2	17.6	0.00e+00	0	43	102	1048576	11	3789
2026-01-04 10:38:58.78	82.43	20.38	-24.8	-25.7	17.7	0.00e+00	0	43	102	1048576	10	4007
2026-01-04 10:38:59.79	82.22	20.46	-24.7	-25.5	17.8	0.00e+00	0	43	102	1048576	10	3959
2026-01-04 10:39:00.79	82.01	20.54	-24.6	-25.4	17.9	0.00e+00	0	43	102	1048576	10	3928
2026-01-04 10:39:01.80	81.80	20.62	-24.6	-25.4	17.9	0.00e+00	0	43	102	1048576	10	3927
2026-01-04 10:39:02.81	81.59	20.69	-24.7	-25.7	17.7	0.00e+00	0	43	102	1048576	10	3996
2026-01-04 10:39:03.81	81.38	20.77	-24.8	-25.7	17.7	0.00e+00	0	43	102	1048576	10	4002
2026-01-04 10:39:04.82	81.16	20.85	-24.8	-25.8	17.6	0.00e+00	0	43	102	1048576	10	4034
2026-01-04 10:39:05.83	80.95	20.92	-24.7	-25.6	17.7	0.00e+00	0	43	102	1048576	10	3989
2026-01-04 10:39:06.84	80.73	21.00	-24.7	-25.5	17.7	0.00e+00	0	43	102	1048576	10	3971
2026-01-04 10:39:07.84	80.51	21.07	-24.8	-25.7	17.7	0.00e+00	0	43	102	1048576	10	4015
2026-01-04 10:39:08.85	80.29	21.15	-24.7	-25.6	17.7	0.00e+00	0	43	102	1048576	10	3990
2026-01-04 10:39:09.85	80.08	21.23	-24.8	-25.7	17.7	0.00e+00	0	43	102	1048576	10	4020
2026-01-04 10:39:10.86	79.86	21.30	-24.8	-25.8	17.6	0.00e+00	0	43	102	1048576	10	4045
2026-01-04 10:39:11.87	79.63	21.38	-24.8	-25.9	17.6	0.00e+00	0	43	102	1048576	10	4059
2026-01-04 10:39:12.87	79.41	21.45	-24.9	-26.0	17.5	0.00e+00	0	43	102	1048576	10	4080
2026-01-04 10:39:13.88	79.19	21.53	-24.8	-25.8	17.6	0.00e+00	0	43	102	1048576	10	4046
2026-01-04 10:39:14.88	78.96	21.60	-24.8	-25.8	17.7	0.00e+00	0	43	102	1048576	10	4022
2026-01-04 10:39:15.88	78.74	21.67	-25.0	-26.2	17.5	0.00e+00	0	43	102	1048576	10	4128
2026-01-04 10:39:16.88	78.51	21.75	-24.8	-25.7	17.7	0.00e+00	0	43	102	1048576	10	4024
2026-01-04 10:39:17.89	78.28	21.82	-24.7	-25.6	17.8	0.00e+00	0	43	102	1048576	10	3977
2026-01-04 10:39:18.90	78.05	21.89	-24.7	-25.5	17.8	0.00e+00	0	43	102	1048576	10	3965
2026-01-04 10:39:19.90	77.83	21.97	-24.8	-25.7	17.7	0.00e+00	0	43	102	1048576	10	4005
2026-01-04 10:39:20.90	77.60	22.04	-24.6	-25.4	17.8	0.00e+00	0	43	102	1048576	10	3933
2026-01-04 10:39:21.92	77.36	22.11	-24.7	-25.6	17.7	0.00e+00	0	43	102	1048576	10	3976
2026-01-04 10:39:22.92	77.13	22.18	-24.7	-25.7	17.7	0.00e+00	0	43	102	1048576	10	3998
2026-01-04 10:39:23.93	76.89	22.25	-24.9	-26.1	17.5	0.00e+00	0	43	102	1048576	10	4102
2026-01-04 10:39:24.94	76.66	22.33	-24.8	-25.7	17.7	0.00e+00	0	43	102	1048576	10	4020
2026-01-04 10:39:25.94	76.42	22.40	-24.7	-25.6	17.7	0.00e+00	0	43	102	1048576	10	3996
2026-01-04 10:39:26.95	76.18	22.47	-24.8	-25.7	17.7	0.00e+00	0	43	102	1048576	10	4013
2026-01-04 10:39:27.96	75.94	22.54	-24.6	-25.4	17.9	2.20e-06	0	43	102	1048576	10	3935
2026-01-04 10:39:28.97	75.70	22.61	-24.6	-25.4	17.9	0.00e+00	0	43	102	1048576	10	3926
2026-01-04 10:39:29.97	75.46	22.68	-24.8	-25.7	17.7	0.00e+00	0	43	102	1048576	10	4012
2026-01-04 10:39:30.98	75.22	22.75	-24.6	-25.3	17.9	0.00e+00	0	43	102	1048576	10	3915
2026-01-04 10:39:31.99	74.97	22.82	-24.5	-25.2	18.0	0.00e+00	0	43	102	1048576	10	3875
2026-01-04 10:39:32.99	74.73	22.89	-24.6	-25.4	17.9	0.00e+00	0	43	102	1048576	10	3928
2026-01-04 10:39:34.00	74.48	22.95	-24.8	-25.7	17.7	0.00e+00	0	43	102	1048576	10	4010
2026-01-04 10:39:35.01	74.24	23.02	-24.7	-25.6	17.8	0.00e+00	0	43	102	1048576	10	3981
2026-01-04 10:39:36.02	73.99	23.09	-24.7	-25.5	17.8	0.00e+00	0	43	102	1048576	10	3971
2026-01-04 10:39:37.03	73.74	23.16	-24.8	-25.9	17.6	0.00e+00	0	43	102	1048576	10	4046
2026-01-04 10:39:38.03	73.49	23.22	-24.8	-25.7	17.7	0.00e+00	0	43	102	1048576	10	4002
2026-01-04 10:39:39.04	73.24	23.29	-24.8	-25.7	17.8	0.00e+00	0	43	102	1048576	10	4001
2026-01-04 10:39:40.05	72.99	23.36	-24.8	-25.8	17.7	1.10e-06	0	43	102	1048576	10	4026
2026-01-04 10:39:41.06	72.73	23.42	-25.0	-26.2	17.5	0.00e+00	0	43	102	1048576	10	4133
2026-01-04 10:39:42.06	72.48	23.49	-24.6	-25.3	17.9	0.00e+00	0	43	102	1048576	10	3918
2026-01-04 10:39:43.07	72.22	23.55	-24.4	-24.9	18.1	1.10e-06	0	43	102	1048576	10	3823
2026-01-04 10:39:44.08	71.97	23.61	-24.3	-24.7	18.2	0.00e+00	0	43	102	1048576	10	3780
2026-01-04 10:39:45.08	71.71	23.68	-24.4	-25.4	18.2	0.00e+00	0	43	102	1048576	9	4039
2026-01-04 10:39:46.09	71.45	23.74	-24.4	-25.4	18.1	0.00e+00	0	43	102	1048576	9	4050
2026-01-04 10:39:47.09	71.19	23.80	-24.5	-25.7	18.0	0.00e+00	0	43	102	1048576	9	4122
2026-01-04 10:39:48.10	70.93	23.87	-24.4	-25.4	18.2	0.00e+00	0	43	102	1048576	9	4044
2026-01-04 10:39:49.10	70.67	23.93	-24.3	-25.3	18.2	1.10e-06	0	43	102	1048576	9	4011
2026-01-04 10:39:50.11	70.41	23.99	-24.4	-25.5	18.1	0.00e+00	0	43	102	1048576	9	4067
2026-01-04 10:39:51.11	70.15	24.05	-24.4	-25.4	18.1	0.00e+00	0	43	102	1048576	9	4044
2026-01-04 10:39:52.12	69.88	24.11	-24.4	-25.4	18.2	0.00e+00	0	43	102	1048576	9	4042
2026-01-04 10:39:53.12	69.62	24.17	-24.3	-25.3	18.2	0.00e+00	0	43	102	1048576	9	4018
2026-01-04 10:39:54.13	69.35	24.23	-24.5	-25.6	18.2	0.00e+00	0	43	102	1048576	9	4082
2026-01-04 10:39:55.14	69.08	24.29	-24.3	-25.1	18.5	0.00e+00	0	43	102	1048576	9	3955
2026-01-04 10:39:56.14	68.82	24.34	-24.2	-25.0	18.6	0.00e+00	0	43	102	1048576	9	3919
2026-01-04 10:39:57.14	68.55	24.40	-24.3	-25.1	18.5	0.00e+00	0	43	102	1048576	9	3954
2026-01-04 10:39:58.15	68.28	24.46	-24.4	-25.3	18.4	0.00e+00	0	43	102	1048576	9	4007
2026-01-04 10:39:59.16	68.00	24.51	-24.2	-25.0	18.5	0.00e+00	0	43	102	1048576	9	3922
2026-01-04 10:40:00.17	67.73	24.57	-24.3	-25.0	18.5	0.00e+00	0	43	102	1048576	9	3938
2026-01-04 10:40:01.18	67.46	24.62	-24.2	-24.9	18.6	0.00e+00	0	43	102	1048576	9	3916
2026-01-04 10:40:02.18	67.18	24.68	-24.3	-25.1	18.5	0.00e+00	0	43	102	1048576	9	3945
2026-01-04 10:40:03.19	66.91	24.73	-24.4	-25.3	18.4	0.00e+00	0	43	102	1048576	9	4005
2026-01-04 10:40:04.19	66.63	24.78	-24.3	-25.0	18.5	0.00e+00	0	43	102	1048576	9	3938
2026-01-04 10:40:05.20	66.36	24.84	-24.2	-25.0	18.6	0.00e+00	0	43	102	1048576	9	3928
2026-01-04 10:40:06.20	66.08	24.89	-24.3	-25.0	18.5	0.00e+00	0	43	102	1048576	9	3938
2026-01-04 10:40:07.21	65.80	24.94	-24.1	-24.7	18.8	0.00e+00	0	43	102	1048576	9	3845
2026-01-04 10:40:08.22	65.52	24.99	-24.0	-24.5	18.8	0.00e+00	0	43	102	1048576	9	3813
2026-01-04 10:40:09.23	65.24	25.04	-24.1	-24.6	18.8	0.00e+00	0	43	102	1048576	9	3836
2026-01-04 10:40:10.24	64.95	25.09	-24.0	-24.5	18.8	0.00e+00	0	43	102	1048576	9	3805
2026-01-04 10:40:11.25	64.67	25.14	-24.0	-24.5	18.8	0.00e+00	0	43	102	1048576	9	3808
2026-01-04 10:40:12.26	64.39	25.19	-24.0	-24.4	18.8	0.00e+00	0	43	102	1048576	9	3795
2026-01-04 10:40:13.27	64.10	25.24	-24.1	-24.7	18.7	0.00e+00	0	43	102	1048576	9	3848
2026-01-04 10:40:14.27	63.82	25.28	-24.1	-24.8	18.7	0.00e+00	0	43	102	1048576	9	3875
2026-01-04 10:40:15.28	63.53	25.33	-24.3	-25.1	18.5	0.00e+00	0	43	102	1048576	9	3956
2026-01-04 10:40:16.29	63.24	25.37	-24.3	-25.2	18.4	0.00e+00	0	43	102	1048576	9	3983
2026-01-04 10:40:17.30	62.95	25.42	-24.4	-25.3	18.4	0.00e+00	0	43	102	1048576	9	4012
2026-01-04 10:40:18.30	62.67	25.46	-24.3	-25.2	18.5	0.00e+00	0	43	102	1048576	9	3973
2026-01-04 10:40:19.31	62.38	25.50	-24.3	-25.1	18.5	0.00e+00	0	43	102	1048576	9	3961
2026-01-04 10:40:20.32	62.09	25.55	-24.3	-25.2	18.5	0.00e+00	0	43	102	1048576	9	3980
2026-01-04 10:40:21.33	61.79	25.59	-24.4	-25.3	18.4	0.00e+00	0	43	102	1048576	9	3987
2026-01-04 10:40:22.33	61.50	25.63	-24.4	-25.4	18.3	0.00e+00	0	43	102	1048576	9	4028
2026-01-04 10:40:23.33	61.21	25.67	-24.3	-25.2	18.5	0.00e+00	0	43	102	1048576	9	3970
2026-01-04 10:40:24.33	60.92	25.71	-24.3	-25.2	18.5	0.00e+00	0	43	102	1048576	9	3970
2026-01-04 10:40:25.34	60.63	25.75	-24.4	-25.3	18.4	0.00e+00	0	43	102	1048576	9	3998
2026-01-04 10:40:26.35	60.33	25.79	-24.4	-25.4	18.3	0.00e+00	0	43	102	1048576	9	4032
2026-01-04 10:40:27.36	60.04	25.82	-24.6	-25.8	18.2	0.00e+00	0	43	102	1048576	9	4122
2026-01-04 10:40:28.37	59.74	25.86	-24.4	-25.2	18.5	0.00e+00	0	43	102	1048576	9	3983
2026-01-04 10:40:29.38	59.44	25.89	-24.2	-25.0	18.6	0.00e+00	0	43	102	1048576	9	3917
2026-01-04 10:40:30.38	59.15	25.93	-24.2	-24.8	18.7	0.00e+00	0	43	102	1048576	9	3887
2026-01-04 10:40:31.39	58.85	25.96	-24.2	-25.0	18.6	0.00e+00	0	43	102	1048576	9	3920
2026-01-04 10:40:32.40	58.55	26.00	-24.3	-25.1	18.5	0.00e+00	0	43	102	1048576	9	3956
2026-01-04 10:40:33.40	58.25	26.03	-24.2	-24.8	18.7	0.00e+00	0	43	102	1048576	9	3878
2026-01-04 10:40:34.41	57.95	26.06	-24.2	-24.9	18.7	0.00e+00	0	43	102	1048576	9	3897
2026-01-04 10:40:35.42	57.65	26.09	-24.3	-25.1	18.5	0.00e+00	0	43	102	1048576	9	3949
2026-01-04 10:40:36.43	57.35	26.12	-24.2	-24.9	18.6	0.00e+00	0	43	102	1048576	9	3900
2026-01-04 10:40:37.43	57.05	26.15	-24.2	-25.0	18.6	0.00e+00	0	43	102	1048576	9	3930
2026-01-04 10:40:38.44	56.75	26.18	-24.2	-24.9	18.6	0.00e+00	0	43	102	1048576	9	3911
2026-01-04 10:40:39.45	56.44	26.20	-24.2	-24.9	18.6	0.00e+00	0	43	102	1048576	9	3912
2026-01-04 10:40:40.46	56.14	26.23	-24.3	-25.1	18.5	0.00e+00	0	43	102	1048576	9	3944
2026-01-04 10:40:41.46	55.84	26.26	-24.2	-24.9	18.6	0.00e+00	0	43	102	1048576	9	3912
2026-01-04 10:40:42.47	55.53	26.28	-24.2	-24.9	18.6	0.00e+00	0	43	102	1048576	9	3912
2026-01-04 10:40:43.47	55.23	26.30	-24.3	-25.0	18.6	0.00e+00	0	44	102	1048576	9	3932
2026-01-04 10:40:44.48	54.92	26.33	-24.3	-25.1	18.5	0.00e+00	0	43	102	1048576	9	3949
2026-01-04 10:40:45.49	54.62	26.35	-24.4	-25.2	18.4	0.00e+00	0	44	102	1048576	9	3984
2026-01-04 10:40:46.49	54.31	26.37	-24.4	-25.3	18.4	0.00e+00	0	43	102	1048576	9	3988
2026-01-04 10:40:47.50	54.01	26.39	-24.4	-25.3	18.4	0.00e+00	0	43	102	1048576	9	4007
2026-01-04 10:40:48.50	53.70	26.41	-24.4	-25.3	18.4	0.00e+00	0	43	102	1048576	9	3995
2026-01-04 10:40:49.51	53.39	26.43	-24.3	-25.0	18.5	0.00e+00	0	43	102	1048576	9	3938
2026-01-04 10:40:50.52	53.09	26.45	-24.1	-24.6	18.8	0.00e+00	0	43	102	1048576	9	3835
2026-01-04 10:40:51.52	52.78	26.46	-24.0	-24.5	18.8	0.00e+00	0	43	102	1048576	9	3811
2026-01-04 10:40:52.53	52.47	26.48	-23.9	-24.3	18.9	0.00e+00	0	43	102	1048576	9	3772
2026-01-04 10:40:53.53	52.17	26.49	-23.8	-24.2	19.0	0.00e+00	0	43	102	1048576	9	3736
2026-01-04 10:40:54.54	51.86	26.51	-23.7	-24.4	19.1	0.00e+00	0	43	102	1048576	8	3893
2026-01-04 10:40:55.55	51.55	26.52	-23.7	-24.4	19.1	0.00e+00	0	43	102	1048576	8	3886
2026-01-04 10:40:56.55	51.24	26.53	-23.7	-24.4	19.1	0.00e+00	0	43	102	1048576	8	3886
2026-01-04 10:40:57.56	50.93	26.54	-23.6	-24.2	19.2	0.00e+00	0	43	102	1048576	8	3850
2026-01-04 10:40:58.56	50.62	26.55	-23.6	-24.2	19.2	0.00e+00	0	43	102	1048576	8	3839
2026-01-04 10:40:59.57	50.31	26.56	-23.7	-24.4	19.1	0.00e+00	0	43	102	1048576	8	3896
2026-01-04 10:41:00.57	50.00	26.57	-24.0	-25.0	18.8	0.00e+00	0	43	102	1048576	8	4041
2026-01-04 10:41:01.57	49.70	26.58	-24.2	-25.4	18.7	0.00e+00	0	43	102	1048576	8	4131
2026-01-04 10:41:02.57	49.39	26.59	-24.3	-25.6	18.6	0.00e+00	0	43	102	1048576	8	4175
2026-01-04 10:41:03.58	49.08	26.59	-24.3	-25.6	18.5	0.00e+00	0	43	102	1048576	8	4183
2026-01-04 10:41:04.59	48.77	26.60	-24.2	-25.3	18.7	0.00e+00	0	43	102	1048576	8	4119
2026-01-04 10:41:05.59	48.46	26.60	-24.2	-25.3	18.7	0.00e+00	0	43	102	1048576	8	4124
2026-01-04 10:41:06.60	48.15	26.60	-24.1	-25.2	18.7	0.00e+00	0	44	102	1048576	8	4083
2026-01-04 10:41:07.60	47.84	26.61	-24.0	-25.1	18.8	0.00e+00	0	43	102	1048576	8	4055
2026-01-04 10:41:08.60	47.53	26.61	-24.0	-25.0	18.8	0.00e+00	0	44	102	1048576	8	4035
2026-01-04 10:41:09.60	47.22	26.61	-23.8	-24.7	19.0	0.00e+00	0	43	102	1048576	8	3955
2026-01-04 10:41:10.61	46.91	26.61	-23.8	-24.6	19.1	0.00e+00	0	44	102	1048576	8	3932
2026-01-04 10:41:11.62	46.60	26.60	-23.7	-24.3	19.2	0.00e+00	0	44	102	1048576	8	3881
2026-01-04 10:41:12.63	46.29	26.60	-23.7	-24.3	19.2	0.00e+00	0	43	102	1048576	8	3867
2026-01-04 10:41:13.64	45.98	26.60	-23.8	-24.5	19.1	0.00e+00	0	43	102	1048576	8	3925
2026-01-04 10:41:14.64	45.67	26.59	-24.0	-25.0	18.8	0.00e+00	0	43	102	1048576	8	4042
2026-01-04 10:41:15.65	45.36	26.59	-24.1	-25.2	18.7	0.00e+00	0	43	102	1048576	8	4095
2026-01-04 10:41:16.65	45.05	26.58	-24.2	-25.4	18.6	0.00e+00	0	43	102	1048576	8	4136
2026-01-04 10:41:17.65	44.74	26.57	-24.2	-25.3	18.7	0.00e+00	0	43	102	1048576	8	4118
2026-01-04 10:41:18.66	44.43	26.57	-24.1	-25.2	18.7	0.00e+00	0	44	102	1048576	8	4086
2026-01-04 10:41:19.67	44.12	26.56	-24.1	-25.2	18.7	0.00e+00	0	43	102	1048576	8	4092
2026-01-04 10:41:20.67	43.81	26.55	-24.1	-25.3	18.7	0.00e+00	0	43	102	1048576	8	4106
2026-01-04 10:41:21.68	43.50	26.54	-24.2	-25.3	18.7	0.00e+00	0	44	102	1048576	8	4117
2026-01-04 10:41:22.69	43.19	26.53	-24.1	-25.2	18.8	0.00e+00	0	43	102	1048576	8	4081
2026-01-04 10:41:23.70	42.88	26.51	-24.1	-25.1	18.8	0.00e+00	0	44	102	1048576	8	4064
2026-01-04 10:41:24.70	42.58	26.50	-24.2	-25.4	18.6	0.00e+00	0	43	102	1048576	8	4125
2026-01-04 10:41:25.70	42.27	26.48	-24.1	-25.2	18.7	0.00e+00	0	43	102	1048576	8	4084
2026-01-04 10:41:26.71	41.96	26.47	-24.2	-25.3	18.6	0.00e+00	0	44	102	1048576	8	4119
2026-01-04 10:41:27.71	41.66	26.45	-24.1	-25.3	18.7	0.00e+00	0	44	102	1048576	8	4116
2026-01-04 10:41:28.72	41.35	26.44	-24.0	-25.1	18.8	0.00e+00	0	43	102	1048576	8	4056
2026-01-04 10:41:29.73	41.04	26.42	-24.0	-25.1	18.8	0.00e+00	0	43	102	1048576	8	4054
2026-01-04 10:41:30.73	40.74	26.40	-23.9	-24.9	18.9	0.00e+00	0	43	102	1048576	8	3999
2026-01-04 10:41:31.74	40.43	26.38	-23.9	-24.8	18.9	0.00e+00	0	44	102	1048576	8	3981
2026-01-04 10:41:32.75	40.12	26.36	-24.1	-25.2	18.7	0.00e+00	0	44	102	1048576	8	4075
2026-01-04 10:41:33.75	39.82	26.34	-24.4	-25.9	18.3	0.00e+00	0	43	102	1048576	8	4265
2026-01-04 10:41:34.76	39.51	26.31	-24.4	-25.4	18.3	0.00e+00	0	43	102	1048576	9	4021
2026-01-04 10:41:35.77	39.21	26.29	-24.3	-25.1	18.5	0.00e+00	0	43	102	1048576	9	3962
2026-01-04 10:41:36.77	38.91	26.27	-24.3	-25.1	18.5	0.00e+00	0	43	102	1048576	9	3945
2026-01-04 10:41:37.78	38.60	26.24	-24.3	-25.2	18.5	0.00e+00	0	43	102	1048576	9	3972
2026-01-04 10:41:38.79	38.30	26.22	-24.2	-24.9	18.6	0.00e+00	0	43	102	1048576	9	3907
2026-01-04 10:41:39.79	38.00	26.19	-24.2	-25.0	18.5	0.00e+00	0	43	102	1048576	9	3921
2026-01-04 10:41:40.80	37.70	26.16	-24.0	-24.4	18.8	0.00e+00	0	43	102	1048576	9	3794
2026-01-04 10:41:41.80	37.40	26.13	-23.8	-24.1	19.0	0.00e+00	0	43	102	1048576	9	3708
2026-01-04 10:41:42.82	37.09	26.10	-23.8	-24.5	19.1	0.00e+00	0	43	102	1048576	8	3914
2026-01-04 10:41:43.82	36.79	26.07	-23.7	-24.4	19.1	0.00e+00	0	43	102	1048576	8	3886
2026-01-04 10:41:44.83	36.49	26.04	-23.7	-24.3	19.2	0.00e+00	0	43	102	1048576	8	3862
2026-01-04 10:41:45.84	36.19	26.01	-23.9	-24.7	18.9	0.00e+00	0	43	102	1048576	8	3967
2026-01-04 10:41:46.84	35.90	25.98	-23.8	-24.6	19.0	0.00e+00	0	43	102	1048576	8	3946
2026-01-04 10:41:47.85	35.60	25.94	-23.9	-24.8	18.9	0.00e+00	0	43	102	1048576	8	3990
2026-01-04 10:41:48.86	35.30	25.91	-23.9	-24.8	18.9	0.00e+00	0	43	102	1048576	8	3989
2026-01-04 10:41:49.86	35.01	25.87	-23.9	-24.8	18.9	0.00e+00	0	43	102	1048576	8	3986
2026-01-04 10:41:50.86	34.71	25.84	-24.1	-25.2	18.7	0.00e+00	0	43	102	1048576	8	4077
2026-01-04 10:41:51.88	34.41	25.80	-24.0	-25.0	18.8	0.00e+00	0	43	102	1048576	8	4029
2026-01-04 10:41:52.88	34.12	25.76	-24.0	-24.9	18.8	0.00e+00	0	44	102	1048576	8	4020
2026-01-04 10:41:53.89	33.83	25.73	-24.0	-25.0	18.8	0.00e+00	0	43	102	1048576	8	4031
2026-01-04 10:41:54.90	33.53	25.69	-23.9	-24.8	18.9	0.00e+00	0	44	102	1048576	8	3978
2026-01-04 10:41:55.91	33.24	25.65	-23.8	-24.5	19.0	0.00e+00	0	44	102	1048576	8	3916
2026-01-04 10:41:56.91	32.95	25.61	-23.8	-24.6	19.0	0.00e+00	0	44	102	1048576	8	3943
2026-01-04 10:41:57.91	32.66	25.57	-23.9	-24.8	18.9	0.00e+00	0	43	102	1048576	8	3988
2026-01-04 10:41:58.92	32.37	25.52	-24.0	-25.0	18.8	0.00e+00	0	44	102	1048576	8	4028
2026-01-04 10:41:59.93	32.08	25.48	-24.0	-24.9	18.8	0.00e+00	0	43	102	1048576	8	4023
2026-01-04 10:42:00.94	31.79	25.44	-24.0	-25.1	18.8	0.00e+00	0	44	102	1048576	8	4055
2026-01-04 10:42:01.94	31.50	25.39	-23.9	-24.9	18.8	0.00e+00	0	44	102	1048576	8	4014
2026-01-04 10:42:02.95	31.22	25.35	-24.0	-25.1	18.8	0.00e+00	0	44	102	1048576	8	4049
2026-01-04 10:42:03.95	30.93	25.30	-23.9	-24.8	18.9	0.00e+00	0	43	102	1048576	8	3983
2026-01-04 10:42:04.96	30.65	25.26	-23.8	-24.6	19.0	0.00e+00	0	43	102	1048576	8	3934
2026-01-04 10:42:05.96	30.36	25.21	-23.9	-24.8	18.9	0.00e+00	0	44	102	1048576	8	3985
2026-01-04 10:42:06.97	30.08	25.16	-23.8	-24.7	19.0	0.00e+00	0	43	102	1048576	8	3958
2026-01-04 10:42:07.98	29.80	25.11	-23.8	-24.6	19.0	0.00e+00	0	43	102	1048576	8	3937
2026-01-04 10:42:08.98	29.52	25.07	-23.8	-24.7	19.0	0.00e+00	0	44	102	1048576	8	3961
2026-01-04 10:42:09.99	29.24	25.02	-23.7	-24.4	19.1	0.00e+00	0	43	102	1048576	8	3902
2026-01-04 10:42:10.99	28.96	24.97	-23.8	-24.5	19.0	0.00e+00	0	44	102	1048576	8	3908
2026-01-04 10:42:12.01	28.67	24.91	-23.9	-24.8	18.9	0.00e+00	0	44	102	1048576	8	3997
2026-01-04 10:42:13.02	28.40	24.86	-23.8	-24.5	19.0	0.00e+00	0	43	102	1048576	8	3926
2026-01-04 10:42:14.02	28.12	24.81	-23.7	-24.4	19.1	0.00e+00	0	43	102	1048576	8	3886
2026-01-04 10:42:15.02	27.85	24.76	-23.8	-24.6	19.0	0.00e+00	0	43	102	1048576	8	3947
2026-01-04 10:42:16.02	27.57	24.71	-23.8	-24.6	18.9	0.00e+00	0	43	102	1048576	8	3944
2026-01-04 10:42:17.03	27.30	24.65	-23.8	-24.7	18.9	0.00e+00	0	43	102	1048576	8	3960
2026-01-04 10:42:18.04	27.02	24.60	-23.8	-24.6	18.9	0.00e+00	0	44	102	1048576	8	3955
2026-01-04 10:42:19.04	26.75	24.54	-24.0	-25.0	18.8	0.00e+00	0	44	102	1048576	8	4030
2026-01-04 10:42:20.05	26.48	24.49	-23.9	-24.7	18.9	0.00e+00	0	43	102	1048576	8	3975
2026-01-04 10:42:21.05	26.21	24.43	-23.9	-24.7	18.9	0.00e+00	0	43	102	1048576	8	3967
2026-01-04 10:42:22.06	25.94	24.37	-23.9	-24.7	18.9	0.00e+00	0	43	102	1048576	8	3972
2026-01-04 10:42:23.07	25.67	24.31	-24.0	-25.0	18.8	0.00e+00	0	43	102	1048576	8	4033
2026-01-04 10:42:24.08	25.40	24.26	-23.9	-24.8	18.8	0.00e+00	0	43	102	1048576	8	4003
2026-01-04 10:42:25.08	25.14	24.20	-24.0	-25.0	18.7	0.00e+00	0	43	102	1048576	8	4040
2026-01-04 10:42:26.08	24.88	24.14	-24.1	-25.3	18.6	0.00e+00	0	43	102	1048576	8	4109
2026-01-04 10:42:27.08	24.61	24.08	-23.9	-24.8	18.8	0.00e+00	0	44	102	1048576	8	3985
2026-01-04 10:42:28.08	24.35	24.02	-23.9	-24.8	18.8	0.00e+00	0	43	102	1048576	8	3980
2026-01-04 10:42:29.09	24.09	23.96	-24.0	-25.1	18.7	0.00e+00	0	43	102	1048576	8	4058
2026-01-04 10:42:30.10	23.83	23.90	-24.1	-25.2	18.6	0.00e+00	0	44	102	1048576	8	4084
2026-01-04 10:42:31.11	23.57	23.84	-24.1	-25.2	18.7	0.00e+00	0	43	102	1048576	8	4080
2026-01-04 10:42:32.12	23.31	23.77	-24.0	-25.1	18.7	0.00e+00	0	44	102	1048576	8	4069
2026-01-04 10:42:33.12	23.05	23.71	-24.1	-25.2	18.6	0.00e+00	0	44	102	1048576	8	4077
2026-01-04 10:42:34.12	22.79	23.65	-24.3	-25.6	18.4	0.00e+00	0	43	102	1048576	8	4176
2026-01-04 10:42:35.13	22.54	23.58	-24.1	-25.2	18.6	0.00e+00	0	44	102	1048576	8	4082
2026-01-04 10:42:36.12	22.29	23.52	-24.1	-25.1	18.6	0.00e+00	0	43	102	1048576	8	4070
2026-01-04 10:42:37.13	22.03	23.46	-24.1	-25.1	18.6	0.00e+00	0	44	102	1048576	8	4078
2026-01-04 10:42:38.14	21.78	23.39	-24.0	-25.1	18.7	0.00e+00	0	43	102	1048576	8	4060
2026-01-04 10:42:39.15	21.53	23.33	-24.0	-25.0	18.7	0.00e+00	0	44	102	1048576	8	4031
2026-01-04 10:42:40.15	21.28	23.26	-24.1	-25.2	18.6	0.00e+00	0	43	102	1048576	8	4085
2026-01-04 10:42:41.16	21.03	23.19	-23.9	-24.8	18.8	0.00e+00	0	43	102	1048576	8	3987
2026-01-04 10:42:42.17	20.78	23.13	-23.9	-24.8	18.8	0.00e+00	0	43	102	1048576	8	3980
2026-01-04 10:42:43.18	20.53	23.06	-23.9	-24.9	18.8	0.00e+00	0	43	102	1048576	8	4007
2026-01-04 10:42:44.18	20.28	22.99	-23.8	-24.7	18.9	0.00e+00	0	43	102	1048576	8	3964
2026-01-04 10:42:45.19	20.04	22.92	-23.9	-24.9	18.8	0.00e+00	0	44	102	1048576	8	4002
2026-01-04 10:42:46.19	19.79	22.86	-23.9	-24.7	18.9	0.00e+00	0	43	102	1048576	8	3969
2026-01-04 10:42:47.20	19.55	22.79	-24.0	-25.0	18.7	0.00e+00	0	44	102	1048576	8	4040
2026-01-04 10:42:48.21	19.31	22.72	-24.1	-25.1	18.6	0.00e+00	0	44	102	1048576	8	4072
2026-01-04 10:42:49.22	19.07	22.65	-24.0	-25.0	18.7	0.00e+00	0	44	102	1048576	8	4049
2026-01-04 10:42:50.22	18.83	22.58	-24.1	-25.3	18.6	0.00e+00	0	43	102	1048576	8	4106
2026-01-04 10:42:51.23	18.59	22.51	-24.1	-25.2	18.6	0.00e+00	0	43	102	1048576	8	4082
2026-01-04 10:42:52.24	18.35	22.44	-24.2	-25.3	18.5	0.00e+00	0	43	102	1048576	8	4126
2026-01-04 10:42:53.25	18.11	22.37	-24.2	-25.4	18.5	0.00e+00	0	43	102	1048576	8	4137
2026-01-04 10:42:54.25	17.88	22.30	-24.2	-25.4	18.4	0.00e+00	0	43	102	1048576	8	4149
2026-01-04 10:42:55.26	17.64	22.23	-24.1	-25.2	18.6	0.00e+00	0	44	102	1048576	8	4086
2026-01-04 10:42:56.27	17.41	22.15	-24.1	-25.1	18.6	0.00e+00	0	44	102	1048576	8	4067
2026-01-04 10:42:57.27	17.18	22.08	-24.0	-25.0	18.7	0.00e+00	0	44	102	1048576	8	4036
2026-01-04 10:42:58.28	16.95	22.01	-24.1	-25.2	18.6	0.00e+00	0	44	102	1048576	8	4092
2026-01-04 10:42:59.28	16.72	21.94	-24.2	-25.5	18.4	0.00e+00	0	44	102	1048576	8	4153
2026-01-04 10:43:00.29	16.49	21.86	-24.3	-25.7	18.3	0.00e+00	0	43	102	1048576	8	4212
2026-01-04 10:43:01.30	16.26	21.79	-24.3	-25.7	18.3	0.00e+00	0	43	102	1048576	8	4210
2026-01-04 10:43:02.31	16.03	21.72	-24.3	-25.7	18.3	0.00e+00	0	43	102	1048576	8	4203
2026-01-04 10:43:03.32	15.80	21.64	-24.3	-25.6	18.3	0.00e+00	0	44	102	1048576	8	4196
2026-01-04 10:43:04.33	15.58	21.57	-24.4	-25.8	18.2	0.00e+00	0	44	102	1048576	8	4241
2026-01-04 10:43:05.33	15.36	21.50	-24.5	-26.0	18.1	0.00e+00	0	43	102	1048576	8	4304
2026-01-04 10:43:06.34	15.13	21.42	-24.6	-25.9	17.9	0.00e+00	0	43	102	1048576	9	4142
2026-01-04 10:43:07.35	14.91	21.35	-24.7	-26.0	17.9	0.00e+00	0	43	102	1048576	9	4179
2026-01-04 10:43:08.36	14.69	21.27	-24.6	-25.7	18.0	0.00e+00	0	43	102	1048576	9	4097
2026-01-04 10:43:09.36	14.47	21.20	-24.5	-25.6	18.1	0.00e+00	0	44	102	1048576	9	4074
2026-01-04 10:43:10.37	14.25	21.12	-24.6	-25.8	18.0	0.00e+00	0	43	102	1048576	9	4119
2026-01-04 10:43:11.38	14.04	21.05	-24.7	-25.9	17.9	0.00e+00	0	44	102	1048576	9	4156
2026-01-04 10:43:12.38	13.82	20.97	-24.8	-26.3	17.7	0.00e+00	0	43	102	1048576	9	4259
2026-01-04 10:43:13.39	13.61	20.89	-24.9	-26.4	17.6	0.00e+00	0	44	102	1048576	9	4295
2026-01-04 10:43:14.40	13.39	20.82	-24.9	-26.4	17.6	0.00e+00	0	43	102	1048576	9	4293
2026-01-04 10:43:15.41	13.18	20.74	-24.8	-26.2	17.7	0.00e+00	0	43	102	1048576	9	4220
2026-01-04 10:43:16.42	12.97	20.66	-24.8	-26.1	17.8	0.00e+00	0	43	102	1048576	9	4201
2026-01-04 10:43:17.42	12.76	20.59	-24.7	-26.0	17.8	0.00e+00	0	43	102	1048576	9	4179
2026-01-04 10:43:18.43	12.55	20.51	-24.8	-26.1	17.8	0.00e+00	0	43	102	1048576	9	4201
2026-01-04 10:43:19.44	12.34	20.43	-24.8	-26.2	17.8	0.00e+00	0	44	102	1048576	9	4227
2026-01-04 10:43:20.44	12.13	20.36	-24.8	-26.2	17.7	0.00e+00	0	44	102	1048576	9	4230
2026-01-04 10:43:21.45	11.92	20.28	-24.8	-26.2	17.7	0.00e+00	0	44	102	1048576	9	4236
2026-01-04 10:43:22.46	11.72	20.20	-24.8	-26.3	17.7	0.00e+00	0	44	102	1048576	9	4243
2026-01-04 10:43:23.46	11.51	20.12	-24.8	-26.2	17.8	0.00e+00	0	43	102	1048576	9	4226
2026-01-04 10:43:24.47	11.31	20.05	-24.9	-26.4	17.6	0.00e+00	0	43	102	1048576	9	4275
2026-01-04 10:43:25.47	11.11	19.97	-24.9	-26.4	17.6	0.00e+00	0	43	102	1048576	9	4270
2026-01-04 10:43:26.47	10.91	19.89	-24.8	-26.2	17.7	0.00e+00	0	43	102	1048576	9	4230
2026-01-04 10:43:27.48	10.71	19.81	-24.7	-26.0	17.8	0.00e+00	0	44	102	1048576	9	4189
2026-01-04 10:43:28.49	10.51	19.73	-24.7	-25.9	17.9	0.00e+00	0	44	102	1048576	9	4150
2026-01-04 10:43:29.49	10.31	19.66	-24.6	-25.7	17.9	0.00e+00	0	44	102	1048576	9	4110
2026-01-04 10:43:30.50	10.12	19.58	-24.6	-25.9	17.9	0.00e+00	0	43	102	1048576	9	4139
2026-01-04 10:43:31.51	9.92	19.50	-24.8	-26.1	17.8	0.00e+00	0	43	102	1048576	9	4199
2026-01-04 10:43:32.52	9.72	19.42	-24.9	-26.3	17.6	0.00e+00	0	44	102	1048576	9	4269
2026-01-04 10:43:33.53	9.53	19.34	-24.9	-26.4	17.6	0.00e+00	0	44	102	1048576	9	4290
2026-01-04 10:43:34.53	9.34	19.26	-25.0	-26.2	17.5	0.00e+00	0	44	102	1048576	10	4108
2026-01-04 10:43:35.54	9.14	19.18	-25.0	-26.1	17.5	0.00e+00	0	43	102	1048576	10	4100
2026-01-04 10:43:36.54	8.95	19.10	-25.0	-26.2	17.4	0.00e+00	0	43	102	1048576	10	4127
2026-01-04 10:43:37.55	8.76	19.02	-25.1	-26.3	17.4	0.00e+00	0	44	102	1048576	10	4142
2026-01-04 10:43:38.55	8.58	18.95	-25.1	-26.3	17.4	0.00e+00	0	44	102	1048576	10	4154
2026-01-04 10:43:39.56	8.39	18.87	-25.1	-26.3	17.4	0.00e+00	0	43	102	1048576	10	4153
2026-01-04 10:43:40.57	8.20	18.79	-24.9	-25.9	17.5	0.00e+00	0	43	102	1048576	10	4053
2026-01-04 10:43:41.58	8.01	18.71	-25.0	-26.0	17.5	0.00e+00	0	44	102	1048576	10	4080
2026-01-04 10:43:42.58	7.83	18.63	-24.9	-25.8	17.6	0.00e+00	0	43	102	1048576	10	4025
2026-01-04 10:43:43.59	7.65	18.55	-24.9	-25.8	17.6	0.00e+00	0	43	102	1048576	10	4024
2026-01-04 10:43:44.60	7.46	18.47	-24.9	-25.9	17.6	0.00e+00	0	44	102	1048576	10	4033
2026-01-04 10:43:45.61	7.28	18.39	-24.9	-25.9	17.6	0.00e+00	0	44	102	1048576	10	4049
2026-01-04 10:43:46.61	7.10	18.31	-24.9	-26.0	17.5	0.00e+00	0	43	102	1048576	10	4068
2026-01-04 10:43:47.62	6.92	18.23	-25.0	-26.2	17.4	0.00e+00	0	43	102	1048576	10	4119
2026-01-04 10:43:48.62	6.74	18.15	-25.1	-26.4	17.3	0.00e+00	0	43	102	1048576	10	4158
2026-01-04 10:43:49.63	6.56	18.07	-25.1	-26.5	17.3	0.00e+00	0	44	102	1048576	10	4185
2026-01-04 10:43:50.63	6.39	17.99	-25.3	-26.8	17.1	0.00e+00	0	43	102	1048576	10	4273
2026-01-04 10:43:51.65	6.21	17.91	-25.4	-26.9	17.0	0.00e+00	0	43	102	1048576	10	4307
2026-01-04 10:43:52.65	6.03	17.83	-25.4	-27.0	16.9	0.00e+00	0	44	102	1048576	10	4336
2026-01-04 10:43:53.66	5.86	17.75	-25.4	-27.0	17.0	0.00e+00	0	43	102	1048576	10	4318
2026-01-04 10:43:54.67	5.69	17.67	-25.4	-27.0	17.0	0.00e+00	0	43	102	1048576	10	4316
2026-01-04 10:43:55.68	5.51	17.59	-25.4	-27.1	16.9	0.00e+00	0	43	102	1048576	10	4342
2026-01-04 10:43:56.68	5.34	17.51	-25.4	-26.9	17.0	0.00e+00	0	43	102	1048576	10	4305
2026-01-04 10:43:57.69	5.17	17.43	-25.5	-27.2	16.9	0.00e+00	0	43	102	1048576	10	4371
2026-01-04 10:43:58.70	5.00	17.35	-25.8	-27.3	16.6	0.00e+00	0	43	102	1048576	11	4288
2026-01-04 10:43:59.70	4.83	17.27	-25.8	-27.3	16.5	0.00e+00	0	43	102	1048576	11	4282
2026-01-04 10:44:00.70	4.67	17.19	-25.7	-27.1	16.6	0.00e+00	0	44	102	1048576	11	4239
2026-01-04 10:44:01.71	4.50	17.11	-25.6	-27.0	16.6	0.00e+00	0	43	102	1048576	11	4230
2026-01-04 10:44:02.72	4.33	17.03	-25.7	-27.2	16.5	0.00e+00	0	43	102	1048576	11	4273
2026-01-04 10:44:03.73	4.17	16.95	-25.6	-27.0	16.6	0.00e+00	0	43	102	1048576	11	4229
2026-01-04 10:44:04.74	4.00	16.87	-25.6	-26.9	16.7	0.00e+00	0	43	102	1048576	11	4179
2026-01-04 10:44:05.75	3.84	16.79	-25.6	-26.9	16.7	0.00e+00	0	44	102	1048576	11	4184
2026-01-04 10:44:06.76	3.67	16.71	-25.6	-26.9	16.7	0.00e+00	0	43	102	1048576	11	4199
2026-01-04 10:44:07.76	3.51	16.63	-25.6	-26.9	16.7	0.00e+00	0	43	102	1048576	11	4192
2026-01-04 10:44:08.77	3.35	16.55	-25.6	-26.9	16.7	2.20e-06	0	43	102	1048576	11	4182
2026-01-04 10:44:09.78	3.19	16.47	-25.6	-27.0	16.6	0.00e+00	0	43	102	1048576	11	4220
2026-01-04 10:44:10.79	3.03	16.39	-25.6	-26.9	16.7	0.00e+00	0	43	102	1048576	11	4180
2026-01-04 10:44:11.80	2.87	16.31	-25.6	-26.9	16.7	0.00e+00	0	43	102	1048576	11	4200
2026-01-04 10:44:12.80	2.72	16.23	-25.6	-26.9	16.7	0.00e+00	0	43	102	1048576	11	4188
2026-01-04 10:44:13.80	2.56	16.15	-25.6	-27.0	16.6	0.00e+00	0	43	102	1048576	11	4213
2026-01-04 10:44:14.81	2.41	16.07	-25.7	-27.1	16.6	0.00e+00	0	43	102	1048576	11	4243
2026-01-04 10:44:15.82	2.25	15.99	-25.7	-27.2	16.5	0.00e+00	0	44	102	1048576	11	4267
2026-01-04 10:44:16.83	2.10	15.91	-25.7	-27.2	16.5	0.00e+00	0	43	102	1048576	11	4269
2026-01-04 10:44:17.83	1.94	15.83	-25.9	-27.5	16.3	0.00e+00	0	43	102	1048576	11	4352
2026-01-04 10:44:18.84	1.79	15.75	-25.9	-27.6	16.3	0.00e+00	0	43	102	1048576	11	4382
2026-01-04 10:44:19.84	1.64	15.67	-25.9	-27.6	16.3	0.00e+00	0	43	102	1048576	11	4362
2026-01-04 10:44:20.84	1.49	15.60	-25.9	-27.7	16.2	0.00e+00	0	43	102	1048576	11	4393
2026-01-04 10:44:21.85	1.34	15.52	-25.9	-27.6	16.2	0.00e+00	0	43	102	1048576	11	4390
2026-01-04 10:44:22.86	1.19	15.44	-26.0	-27.7	16.2	0.00e+00	0	43	102	1048576	11	4410
2026-01-04 10:44:23.86	1.04	15.36	-25.9	-27.7	16.2	0.00e+00	0	43	102	1048576	11	4404
2026-01-04 10:44:24.87	0.90	15.28	-26.0	-27.4	16.0	0.00e+00	0	43	102	1048576	12	4209
2026-01-04 10:44:25.88	0.75	15.20	-26.4	-28.1	15.6	0.00e+00	0	43	102	1048576	12	4410
2026-01-04 10:44:26.88	0.60	15.12	-26.1	-27.6	15.9	0.00e+00	0	43	102	1048576	12	4273
2026-01-04 10:44:27.89	0.46	15.04	-26.0	-27.2	16.1	0.00e+00	0	44	102	1048576	12	4174
2026-01-04 10:44:28.89	0.32	14.96	-25.9	-27.1	16.2	0.00e+00	0	43	102	1048576	12	4128
2026-01-04 10:44:29.89	0.17	14.89	-25.9	-27.1	16.2	0.00e+00	0	43	102	1048576	12	4140
2026-01-04 10:44:30.89	0.03	14.81	-25.9	-27.1	16.2	0.00e+00	0	43	102	1048576	12	4128
2026-01-04 10:44:31.90	359.89	14.73	-25.9	-27.2	16.1	1.10e-06	0	43	102	1048576	12	4164
2026-01-04 10:44:32.91	359.75	14.65	-25.9	-27.2	16.1	0.00e+00	0	44	102	1048576	12	4171
2026-01-04 10:44:33.90	359.61	14.57	-26.1	-27.5	15.9	0.00e+00	0	43	102	1048576	12	4254
2026-01-04 10:44:34.91	359.47	14.49	-26.1	-27.6	15.9	0.00e+00	0	43	102	1048576	12	4279
2026-01-04 10:44:35.92	359.33	14.42	-26.3	-27.9	15.7	0.00e+00	0	43	102	1048576	12	4360
2026-01-04 10:44:36.93	359.19	14.34	-26.2	-27.8	15.7	0.00e+00	0	43	102	1048576	12	4336
2026-01-04 10:44:37.94	359.05	14.26	-26.3	-28.0	15.7	0.00e+00	0	43	102	1048576	12	4374
2026-01-04 10:44:38.95	358.92	14.18	-26.3	-27.9	15.7	0.00e+00	0	43	102	1048576	12	4366
2026-01-04 10:44:39.96	358.78	14.10	-26.4	-28.2	15.5	0.00e+00	0	44	102	1048576	12	4433
2026-01-04 10:44:40.97	358.64	14.02	-26.3	-28.0	15.6	0.00e+00	0	44	102	1048576	12	4386
2026-01-04 10:44:41.98	358.51	13.95	-26.3	-28.0	15.6	0.00e+00	0	43	102	1048576	12	4391
2026-01-04 10:44:42.98	358.38	13.87	-26.2	-27.9	15.7	0.00e+00	0	43	102	1048576	12	4339
2026-01-04 10:44:43.98	358.24	13.79	-26.2	-27.8	15.7	0.00e+00	0	43	102	1048576	12	4316
2026-01-04 10:44:44.99	358.11	13.71	-26.3	-28.1	15.5	0.00e+00	0	43	102	1048576	12	4402
2026-01-04 10:44:46.00	357.98	13.64	-26.2	-27.8	15.7	0.00e+00	0	43	102	1048576	12	4318
2026-01-04 10:44:47.01	357.85	13.56	-26.2	-27.9	15.7	0.00e+00	0	43	102	1048576	12	4345
2026-01-04 10:44:48.01	357.72	13.48	-26.3	-27.9	15.6	0.00e+00	0	43	102	1048576	12	4369
2026-01-04 10:44:49.02	357.59	13.41	-26.3	-28.0	15.6	0.00e+00	0	43	102	1048576	12	4377
2026-01-04 10:44:50.02	357.46	13.33	-26.3	-28.0	15.6	0.00e+00	0	43	102	1048576	12	4384
2026-01-04 10:44:51.03	357.33	13.25	-26.3	-28.0	15.6	0.00e+00	0	43	102	1048576	12	4372
2026-01-04 10:44:52.04	357.20	13.17	-26.3	-28.0	15.5	0.00e+00	0	43	102	1048576	12	4390
2026-01-04 10:44:53.05	357.08	13.10	-26.2	-27.7	15.7	0.00e+00	0	43	102	1048576	12	4314
2026-01-04 10:44:54.06	356.95	13.02	-26.2	-27.7	15.7	0.00e+00	0	43	102	1048576	12	4306
2026-01-04 10:44:55.07	356.82	12.94	-26.2	-27.7	15.7	0.00e+00	0	44	102	1048576	12	4309
2026-01-04 10:44:56.08	356.70	12.87	-26.4	-28.2	15.4	0.00e+00	0	43	102	1048576	12	4427
2026-01-04 10:44:57.09	356.58	12.79	-26.4	-28.1	15.5	0.00e+00	0	43	102	1048576	12	4420
2026-01-04 10:44:58.09	356.45	12.72	-26.5	-28.0	15.2	0.00e+00	0	44	102	1048576	13	4283
2026-01-04 10:44:59.10	356.33	12.64	-26.5	-27.9	15.3	0.00e+00	0	43	102	1048576	13	4258
2026-01-04 10:45:00.10	356.21	12.56	-26.5	-28.0	15.2	0.00e+00	0	43	102	1048576	13	4278
2026-01-04 10:45:01.12	356.08	12.49	-26.7	-28.4	15.0	0.00e+00	0	44	102	1048576	13	4371
2026-01-04 10:45:02.12	355.96	12.41	-26.6	-28.2	15.1	0.00e+00	0	43	102	1048576	13	4325
2026-01-04 10:45:03.13	355.84	12.34	-26.7	-28.5	15.0	0.00e+00	0	43	102	1048576	13	4415
2026-01-04 10:45:04.13	355.73	12.26	-26.6	-28.3	15.1	0.00e+00	0	43	102	1048576	13	4350
2026-01-04 10:45:05.14	355.61	12.18	-26.6	-28.2	15.1	0.00e+00	0	43	102	1048576	13	4335
2026-01-04 10:45:06.15	355.49	12.11	-26.6	-28.2	15.1	0.00e+00	0	43	102	1048576	13	4334
2026-01-04 10:45:07.16	355.37	12.03	-26.6	-28.2	15.1	0.00e+00	0	43	102	1048576	13	4325
2026-01-04 10:45:08.17	355.25	11.96	-26.7	-28.3	15.0	0.00e+00	0	43	102	1048576	13	4360
2026-01-04 10:45:09.18	355.13	11.88	-26.8	-28.6	14.9	1.10e-06	0	43	102	1048576	13	4429
2026-01-04 10:45:10.18	355.02	11.81	-26.6	-28.3	15.0	1.10e-06	0	43	102	1048576	13	4352
2026-01-04 10:45:11.19	354.90	11.73	-26.7	-28.5	14.9	0.00e+00	0	43	102	1048576	13	4404
2026-01-04 10:45:12.19	354.79	11.66	-26.8	-28.6	14.8	0.00e+00	0	43	102	1048576	13	4443
2026-01-04 10:45:13.20	354.68	11.58	-26.7	-28.5	14.9	0.00e+00	0	43	102	1048576	13	4420
2026-01-04 10:45:14.20	354.56	11.51	-26.8	-28.7	14.8	0.00e+00	0	44	102	1048576	13	4471
2026-01-04 10:45:15.21	354.45	11.44	-26.7	-28.5	14.9	0.00e+00	0	43	102	1048576	13	4418
2026-01-04 10:45:16.21	354.34	11.36	-26.8	-28.5	14.9	1.10e-06	0	43	102	1048576	13	4424
2026-01-04 10:45:17.22	354.23	11.29	-26.7	-28.5	14.9	0.00e+00	0	43	102	1048576	13	4410
2026-01-04 10:45:18.22	354.12	11.21	-26.7	-28.4	15.0	0.00e+00	0	43	102	1048576	13	4377
2026-01-04 10:45:19.23	354.01	11.14	-26.7	-28.5	14.9	0.00e+00	0	43	102	1048576	13	4401
2026-01-04 10:45:20.23	353.90	11.07	-26.9	-28.8	14.7	0.00e+00	0	43	102	1048576	13	4492
2026-01-04 10:45:21.23	353.79	10.99	-27.0	-29.0	14.6	1.10e-06	0	43	102	1048576	13	4557
2026-01-04 10:45:22.24	353.68	10.92	-26.9	-28.9	14.7	2.20e-06	0	43	102	1048576	13	4518
2026-01-04 10:45:23.24	353.57	10.85	-27.0	-29.0	14.6	1.10e-06	0	43	102	1048576	13	4563
2026-01-04 10:45:24.25	353.46	10.77	-27.0	-29.0	14.6	2.20e-06	0	43	102	1048576	13	4562
2026-01-04 10:45:25.26	353.35	10.70	-27.1	-28.8	14.4	0.00e+00	0	43	102	1048576	14	4392
2026-01-04 10:45:26.27	353.25	10.63	-27.2	-29.1	14.2	1.10e-06	0	43	102	1048576	14	4471
2026-01-04 10:45:27.27	353.14	10.56	-27.2	-29.0	14.3	0.00e+00	0	43	102	1048576	14	4447
2026-01-04 10:45:28.28	353.04	10.48	-27.3	-29.4	14.0	2.20e-06	0	44	102	1048576	14	4560
2026-01-04 10:45:29.29	352.93	10.41	-27.2	-29.1	14.2	3.40e-06	0	43	102	1048576	14	4487
2026-01-04 10:45:30.29	352.83	10.34	-27.4	-29.6	13.9	8.00e-06	0	44	102	1048576	14	4619
2026-01-04 10:45:31.30	352.72	10.26	-27.2	-29.1	14.2	3.40e-06	0	43	102	1048576	14	4488
2026-01-04 10:45:32.31	352.62	10.19	-27.1	-28.8	14.4	3.40e-06	0	43	102	1048576	14	4400
2026-01-04 10:45:33.31	352.52	10.12	-27.0	-28.7	14.4	1.10e-06	0	43	102	1048576	14	4368
2026-01-04 10:45:34.31	352.42	10.05	-27.0	-28.7	14.4	0.00e+00	0	43	102	1048576	14	4351
2026-01-04 10:45:35.32	352.31	9.98	-27.0	-28.6	14.5	2.20e-06	0	43	102	1048576	14	4341
2026-01-04 10:45:36.33	352.21	9.90	-27.1	-28.8	14.4	1.10e-06	0	43	102	1048576	14	4385
2026-01-04 10:45:37.34	352.11	9.83	-27.2	-29.1	14.2	3.40e-06	0	43	102	1048576	14	4467
2026-01-04 10:45:38.35	352.01	9.76	-27.3	-29.4	14.0	1.02e-05	0	43	102	1048576	14	4550
2026-01-04 10:45:39.35	351.91	9.69	-27.2	-29.1	14.2	0.00e+00	0	43	102	1048576	14	4463
2026-01-04 10:45:40.36	351.81	9.62	-27.1	-28.9	14.3	1.10e-06	0	43	102	1048576	14	4417
2026-01-04 10:45:41.36	351.71	9.55	-27.1	-28.9	14.3	2.20e-06	0	43	102	1048576	14	4425
2026-01-04 10:45:42.37	351.62	9.48	-27.1	-28.9	14.2	3.40e-06	0	43	102	1048576	14	4434
2026-01-04 10:45:43.38	351.52	9.40	-27.2	-29.0	14.2	2.20e-06	0	44	102	1048576	14	4458
2026-01-04 10:45:44.39	351.42	9.33	-27.2	-29.1	14.1	2.20e-06	0	44	102	1048576	14	4488
2026-01-04 10:45:45.39	351.32	9.26	-27.2	-29.2	14.1	4.50e-06	0	44	102	1048576	14	4495
2026-01-04 10:45:46.40	351.23	9.19	-27.3	-29.3	14.0	3.40e-06	0	43	102	1048576	14	4550
2026-01-04 10:45:47.40	351.13	9.12	-27.3	-29.3	14.0	2.20e-06	0	43	102	1048576	14	4533
2026-01-04 10:45:48.41	351.04	9.05	-27.3	-29.4	14.0	5.70e-06	0	43	102	1048576	14	4570
2026-01-04 10:45:49.42	350.94	8.98	-27.4	-29.7	13.8	0.00e+00	0	43	102	1048576	14	4650
2026-01-04 10:45:50.43	350.85	8.91	-27.4	-29.7	13.8	5.70e-06	0	43	102	1048576	14	4651
2026-01-04 10:45:51.44	350.75	8.84	-27.3	-29.3	13.9	4.50e-06	0	43	102	1048576	14	4550
2026-01-04 10:45:52.44	350.66	8.77	-27.3	-29.4	13.9	6.80e-06	0	43	102	1048576	14	4573
2026-01-04 10:45:53.44	350.57	8.70	-27.4	-29.5	13.9	1.02e-05	0	43	102	1048576	14	4602
2026-01-04 10:45:54.45	350.47	8.63	-27.3	-29.4	13.9	4.50e-06	0	43	102	1048576	14	4583
2026-01-04 10:45:55.46	350.38	8.56	-27.4	-29.6	13.8	1.48e-05	0	43	102	1048576	14	4634
2026-01-04 10:45:56.46	350.29	8.49	-27.5	-29.8	13.7	1.14e-05	0	43	102	1048576	14	4677
2026-01-04 10:45:57.47	350.20	8.42	-27.7	-29.7	13.4	1.48e-05	0	43	102	1048576	15	4549
2026-01-04 10:45:58.47	350.11	8.36	-27.7	-29.9	13.3	4.80e-05	0	43	102	1048576	15	4599
2026-01-04 10:45:59.49	350.02	8.29	-27.6	-29.4	13.6	1.83e-05	0	43	102	1048576	15	4465
2026-01-04 10:46:00.49	349.93	8.22	-27.4	-29.2	13.7	9.10e-06	0	43	102	1048576	15	4399
2026-01-04 10:46:01.50	349.84	8.15	-27.3	-28.9	13.8	6.80e-06	0	43	102	1048576	15	4329
2026-01-04 10:46:02.50	349.75	8.08	-27.4	-29.2	13.7	9.10e-06	0	43	102	1048576	15	4389
2026-01-04 10:46:03.51	349.66	8.01	-27.5	-29.2	13.7	1.25e-05	0	43	102	1048576	15	4419
2026-01-04 10:46:04.52	349.57	7.94	-27.5	-29.2	13.6	1.71e-05	0	43	102	1048576	15	4419
2026-01-04 10:46:05.52	349.49	7.87	-27.5	-29.4	13.5	1.71e-05	0	43	102	1048576	15	4466
2026-01-04 10:46:06.53	349.40	7.81	-27.5	-29.4	13.5	2.05e-05	0	43	102	1048576	15	4457
2026-01-04 10:46:07.54	349.31	7.74	-27.6	-29.6	13.4	1.48e-05	0	43	102	1048576	15	4534
2026-01-04 10:46:08.54	349.23	7.67	-27.7	-29.7	13.3	2.97e-05	0	44	102	1048576	15	4553
2026-01-04 10:46:09.55	349.14	7.60	-27.5	-29.3	13.6	1.94e-05	0	44	102	1048576	15	4414
2026-01-04 10:46:10.56	349.05	7.53	-27.4	-29.2	13.6	1.48e-05	0	43	102	1048576	15	4393
2026-01-04 10:46:11.57	348.97	7.47	-27.5	-29.2	13.6	8.00e-06	0	43	102	1048576	15	4420
2026-01-04 10:46:12.57	348.88	7.40	-27.5	-29.4	13.5	2.17e-05	0	43	102	1048576	15	4449
2026-01-04 10:46:13.58	348.80	7.33	-27.5	-29.3	13.5	2.28e-05	0	44	102	1048576	15	4431
2026-01-04 10:46:14.59	348.72	7.26	-27.6	-29.6	13.3	1.83e-05	0	44	102	1048576	15	4510
2026-01-04 10:46:15.60	348.63	7.20	-27.6	-29.6	13.3	3.43e-05	0	43	102	1048576	15	4518
2026-01-04 10:46:16.61	348.55	7.13	-27.4	-29.2	13.5	1.71e-05	0	43	102	1048576	15	4403
2026-01-04 10:46:17.62	348.47	7.06	-33.1	-43.7	3.8	8.52e-02	0	43	104	1048576	26	12160
2026-01-04 10:46:18.62	348.38	7.00	-33.4	-44.5	3.8	8.45e-01	0	43	104	1048576	26	12909

#Closed at: 2026-01-04 10:46:18
#Recorded file [1 MB]: D:/data/31010_260104_133604.dat