passes_logs/2026/01/04/R2M6_AANII_01/R2M6_AANII_01__20260104_095425_NOAA_20_JPSS-1_rec.log

#Pass ID: 20260104_095425_NOAA 20 (JPSS-1)
#Satellite: NOAA 20 (JPSS-1)
#Configuration: NOAA 20
#almurnet v.1.7.20240730
#Start time: 2026-01-04 09:54:26

#Version: 2.2.20231116
#Station: R2M6_AANII_01
#Location: 30.233357 lon 59.946436 lat
#TLE: 1 43013U 17073A   26003.41800368  .00000169  00000+0  10117-3 0  9998
#TLE: 2 43013  98.7624 304.4804 0001884  56.1176 304.0179 14.19532918421092

#Time	Az	El	Level	Level2	SNR	BER	BlckErr	Temp	State	Recorded	gain1	gain2
2026-01-04 09:54:26.33	147.42	7.05	-30.8	-36.5	5.1	1.27e+00	0	41	0	0	23	6878
2026-01-04 09:54:27.33	147.41	7.12	-31.0	-36.9	5.0	1.28e+00	0	41	104	0	23	7132
2026-01-04 09:54:28.34	147.39	7.20	-30.9	-36.4	8.4	4.39e-02	0	41	0	0	23	6762
2026-01-04 09:54:29.35	147.37	7.28	-30.9	-36.3	8.5	5.18e-02	0	41	102	1048576	23	6725
2026-01-04 09:54:30.36	147.35	7.36	-30.7	-36.0	9.1	2.88e-02	0	41	102	1048576	22	6603
2026-01-04 09:54:31.37	147.33	7.44	-30.7	-35.7	9.4	1.67e-02	0	41	102	1048576	22	6430
2026-01-04 09:54:32.37	147.31	7.52	-30.7	-35.5	9.7	1.38e-02	0	41	102	1048576	22	6271
2026-01-04 09:54:33.38	147.30	7.60	-30.7	-35.5	9.7	1.13e-02	0	41	102	1048576	22	6268
2026-01-04 09:54:34.39	147.28	7.68	-30.6	-35.2	9.9	1.04e-02	0	41	102	1048576	22	6103
2026-01-04 09:54:35.39	147.26	7.76	-30.5	-34.8	10.3	7.10e-03	0	41	102	1048576	22	5880
2026-01-04 09:54:36.39	147.24	7.84	-30.4	-34.3	10.7	3.68e-03	0	41	102	1048576	22	5646
2026-01-04 09:54:37.40	147.22	7.92	-30.3	-34.1	10.8	2.71e-03	0	41	102	1048576	22	5532
2026-01-04 09:54:38.40	147.20	8.00	-30.3	-33.8	11.1	1.83e-03	0	41	102	1048576	22	5384
2026-01-04 09:54:39.41	147.18	8.08	-30.2	-34.0	11.3	1.16e-03	0	41	102	1048576	21	5571
2026-01-04 09:54:40.42	147.16	8.16	-30.2	-34.0	11.3	1.13e-03	0	41	102	1048576	21	5591
2026-01-04 09:54:41.43	147.14	8.24	-30.3	-34.2	11.2	1.36e-03	0	41	102	1048576	21	5651
2026-01-04 09:54:42.43	147.12	8.32	-30.3	-34.1	11.4	1.06e-03	0	41	102	1048576	21	5581
2026-01-04 09:54:43.44	147.10	8.40	-30.3	-34.1	11.4	9.65e-04	0	41	102	1048576	21	5571
2026-01-04 09:54:44.44	147.08	8.48	-30.3	-33.9	11.5	7.97e-04	0	41	102	1048576	21	5507
2026-01-04 09:54:45.45	147.06	8.57	-30.2	-33.9	11.5	8.05e-04	0	41	102	1048576	21	5510
2026-01-04 09:54:46.46	147.04	8.65	-30.3	-34.2	11.3	8.98e-04	0	41	102	1048576	21	5604
2026-01-04 09:54:47.47	147.02	8.73	-30.4	-34.4	11.2	1.41e-03	0	41	102	1048576	21	5689
2026-01-04 09:54:48.48	147.00	8.82	-30.3	-34.0	11.5	9.86e-04	0	41	102	1048576	21	5493
2026-01-04 09:54:49.48	146.98	8.90	-30.2	-33.8	11.7	5.90e-04	0	42	102	1048576	21	5408
2026-01-04 09:54:50.49	146.96	8.98	-30.2	-33.6	11.8	4.70e-04	0	42	102	1048576	21	5350
2026-01-04 09:54:51.49	146.94	9.07	-30.2	-33.6	11.9	4.05e-04	0	41	102	1048576	21	5330
2026-01-04 09:54:52.50	146.92	9.15	-30.2	-33.6	11.9	4.47e-04	0	41	102	1048576	21	5328
2026-01-04 09:54:53.51	146.90	9.24	-30.3	-33.9	11.6	4.36e-04	0	42	102	1048576	21	5465
2026-01-04 09:54:54.51	146.88	9.32	-30.3	-33.9	11.6	8.09e-04	0	42	102	1048576	21	5451
2026-01-04 09:54:55.52	146.85	9.41	-30.2	-33.5	12.0	3.81e-04	0	41	102	1048576	21	5272
2026-01-04 09:54:56.52	146.83	9.49	-30.1	-33.3	12.1	2.51e-04	0	42	102	1048576	21	5194
2026-01-04 09:54:57.53	146.81	9.58	-30.1	-33.3	12.1	2.46e-04	0	41	102	1048576	21	5204
2026-01-04 09:54:58.53	146.79	9.66	-30.1	-33.3	12.1	3.10e-04	0	42	102	1048576	21	5211
2026-01-04 09:54:59.54	146.77	9.75	-30.0	-33.1	12.3	2.07e-04	0	42	102	1048576	21	5103
2026-01-04 09:55:00.55	146.74	9.84	-30.0	-33.0	12.3	1.55e-04	0	42	102	1048576	21	5088
2026-01-04 09:55:01.56	146.72	9.92	-30.1	-33.3	12.2	1.69e-04	0	42	102	1048576	21	5182
2026-01-04 09:55:02.56	146.70	10.01	-30.2	-33.5	12.0	2.97e-04	0	42	102	1048576	21	5282
2026-01-04 09:55:03.57	146.68	10.10	-30.2	-33.5	12.0	3.70e-04	0	42	102	1048576	21	5287
2026-01-04 09:55:04.57	146.65	10.18	-30.2	-33.4	12.1	2.45e-04	0	42	102	1048576	21	5248
2026-01-04 09:55:05.58	146.63	10.27	-30.1	-33.3	12.2	2.38e-04	0	42	102	1048576	21	5180
2026-01-04 09:55:06.59	146.61	10.36	-30.2	-33.4	12.1	2.85e-04	0	42	102	1048576	21	5244
2026-01-04 09:55:07.59	146.58	10.45	-30.2	-33.4	12.1	2.99e-04	0	42	102	1048576	21	5237
2026-01-04 09:55:08.60	146.56	10.54	-30.3	-33.8	11.9	2.37e-04	0	42	102	1048576	21	5388
2026-01-04 09:55:09.60	146.54	10.63	-30.2	-33.6	12.0	4.10e-04	0	42	102	1048576	21	5309
2026-01-04 09:55:10.61	146.51	10.72	-30.0	-33.1	12.4	2.05e-04	0	42	102	1048576	21	5109
2026-01-04 09:55:11.60	146.49	10.81	-30.0	-32.8	12.6	1.30e-04	0	42	102	1048576	21	5003
2026-01-04 09:55:12.61	146.47	10.90	-29.9	-32.7	12.7	8.92e-05	0	42	102	1048576	21	4949
2026-01-04 09:55:13.61	146.44	10.99	-29.9	-32.6	12.7	7.17e-05	0	42	102	1048576	21	4904
2026-01-04 09:55:14.62	146.42	11.08	-29.9	-32.6	12.7	6.63e-05	0	42	102	1048576	21	4905
2026-01-04 09:55:15.62	146.39	11.17	-29.8	-32.4	12.9	4.42e-05	0	42	102	1048576	21	4836
2026-01-04 09:55:16.62	146.37	11.26	-29.8	-32.3	12.9	4.34e-05	0	42	102	1048576	21	4809
2026-01-04 09:55:17.63	146.34	11.35	-29.9	-32.5	12.8	4.50e-05	0	42	102	1048576	21	4854
2026-01-04 09:55:18.64	146.32	11.44	-29.8	-32.3	12.9	7.01e-05	0	42	102	1048576	21	4814
2026-01-04 09:55:19.64	146.29	11.54	-29.7	-32.6	13.1	3.96e-05	0	42	102	1048576	20	5021
2026-01-04 09:55:20.65	146.27	11.63	-29.7	-32.6	13.1	2.44e-05	0	42	102	1048576	20	5002
2026-01-04 09:55:21.66	146.24	11.72	-29.8	-32.8	13.0	4.11e-05	0	42	102	1048576	20	5080
2026-01-04 09:55:22.67	146.21	11.82	-29.8	-32.6	13.1	3.66e-05	0	42	102	1048576	20	5009
2026-01-04 09:55:23.68	146.19	11.91	-29.8	-32.7	13.1	3.28e-05	0	42	102	1048576	20	5039
2026-01-04 09:55:24.68	146.16	12.00	-29.8	-32.7	13.1	3.12e-05	0	42	102	1048576	20	5042
2026-01-04 09:55:25.69	146.14	12.10	-29.8	-32.8	13.0	3.73e-05	0	42	102	1048576	20	5093
2026-01-04 09:55:26.70	146.11	12.20	-29.8	-32.9	13.0	4.04e-05	0	42	102	1048576	20	5105
2026-01-04 09:55:27.70	146.08	12.29	-29.9	-33.0	12.9	4.80e-05	0	42	102	1048576	20	5135
2026-01-04 09:55:28.70	146.06	12.39	-29.8	-32.9	13.0	3.12e-05	0	42	102	1048576	20	5100
2026-01-04 09:55:29.72	146.03	12.48	-29.8	-32.8	13.1	3.96e-05	0	42	102	1048576	20	5066
2026-01-04 09:55:30.73	146.00	12.58	-29.8	-32.8	13.1	2.74e-05	0	42	102	1048576	20	5063
2026-01-04 09:55:31.74	145.97	12.68	-29.8	-32.7	13.2	2.59e-05	0	42	102	1048576	20	5022
2026-01-04 09:55:32.75	145.95	12.77	-29.8	-32.7	13.2	2.82e-05	0	42	102	1048576	20	5014
2026-01-04 09:55:33.75	145.92	12.87	-29.8	-32.7	13.2	2.21e-05	0	42	102	1048576	20	5022
2026-01-04 09:55:34.77	145.89	12.97	-29.8	-32.6	13.2	2.13e-05	0	42	102	1048576	20	5004
2026-01-04 09:55:35.78	145.86	13.07	-29.8	-32.8	13.1	2.36e-05	0	42	102	1048576	20	5067
2026-01-04 09:55:36.78	145.83	13.17	-29.8	-32.6	13.2	1.98e-05	0	42	102	1048576	20	4993
2026-01-04 09:55:37.79	145.80	13.27	-29.7	-32.4	13.4	1.60e-05	0	42	102	1048576	20	4903
2026-01-04 09:55:38.80	145.77	13.37	-29.7	-32.3	13.4	1.14e-05	0	43	102	1048576	20	4899
2026-01-04 09:55:39.81	145.74	13.47	-29.7	-32.4	13.4	9.10e-06	0	42	102	1048576	20	4918
2026-01-04 09:55:40.83	145.71	13.57	-29.7	-32.5	13.3	1.90e-05	0	42	102	1048576	20	4948
2026-01-04 09:55:41.83	145.69	13.67	-29.7	-32.4	13.4	1.22e-05	0	42	102	1048576	20	4934
2026-01-04 09:55:42.84	145.66	13.77	-29.7	-32.6	13.3	1.37e-05	0	42	102	1048576	20	4978
2026-01-04 09:55:43.85	145.63	13.87	-29.7	-32.6	13.3	1.52e-05	0	42	102	1048576	20	4981
2026-01-04 09:55:44.86	145.59	13.98	-29.7	-32.4	13.4	8.30e-06	0	42	102	1048576	20	4931
2026-01-04 09:55:45.87	145.56	14.08	-29.7	-32.5	13.3	1.67e-05	0	43	102	1048576	20	4964
2026-01-04 09:55:46.87	145.53	14.18	-29.8	-32.8	13.2	1.44e-05	0	42	102	1048576	20	5052
2026-01-04 09:55:47.88	145.50	14.29	-29.7	-32.5	13.4	2.21e-05	0	43	102	1048576	20	4941
2026-01-04 09:55:48.89	145.47	14.39	-29.7	-32.5	13.4	7.60e-06	0	42	102	1048576	20	4950
2026-01-04 09:55:49.90	145.44	14.49	-29.7	-32.3	13.5	1.22e-05	0	42	102	1048576	20	4874
2026-01-04 09:55:50.91	145.41	14.60	-29.8	-32.5	13.4	1.60e-05	0	43	102	1048576	20	4940
2026-01-04 09:55:51.92	145.38	14.71	-29.8	-32.7	13.3	1.52e-05	0	43	102	1048576	20	5025
2026-01-04 09:55:52.92	145.34	14.81	-29.7	-32.4	13.5	1.37e-05	0	43	102	1048576	20	4889
2026-01-04 09:55:53.92	145.31	14.92	-29.7	-32.3	13.6	9.90e-06	0	42	102	1048576	20	4846
2026-01-04 09:55:54.93	145.28	15.02	-29.7	-32.3	13.6	9.10e-06	0	42	102	1048576	20	4859
2026-01-04 09:55:55.93	145.25	15.13	-29.7	-32.4	13.5	7.60e-06	0	43	102	1048576	20	4907
2026-01-04 09:55:56.94	145.21	15.24	-29.7	-32.4	13.5	9.90e-06	0	43	102	1048576	20	4890
2026-01-04 09:55:57.93	145.18	15.34	-29.8	-32.6	13.4	1.14e-05	0	42	102	1048576	20	4955
2026-01-04 09:55:58.93	145.14	15.45	-30.0	-33.1	13.1	2.89e-05	0	43	102	1048576	20	5165
2026-01-04 09:55:59.94	145.11	15.56	-30.0	-33.1	13.1	2.97e-05	0	43	102	1048576	20	5136
2026-01-04 09:56:00.94	145.08	15.67	-30.1	-33.3	12.9	3.58e-05	0	43	102	1048576	20	5244
2026-01-04 09:56:01.95	145.04	15.78	-30.0	-33.0	13.1	3.35e-05	0	43	102	1048576	20	5115
2026-01-04 09:56:02.96	145.01	15.89	-29.9	-33.0	13.2	2.67e-05	0	42	102	1048576	20	5104
2026-01-04 09:56:03.97	144.97	16.00	-30.0	-33.2	13.1	2.36e-05	0	42	102	1048576	20	5184
2026-01-04 09:56:04.90	144.94	16.10	-29.9	-32.8	13.3	3.20e-05	0	42	102	1048576	20	5019
2026-01-04 09:56:05.90	144.90	16.21	-29.7	-32.4	13.6	1.22e-05	0	43	102	1048576	20	4865
2026-01-04 09:56:06.92	144.87	16.33	-29.7	-32.4	13.6	7.60e-06	0	43	102	1048576	20	4876
2026-01-04 09:56:07.92	144.83	16.44	-29.8	-32.5	13.5	1.22e-05	0	43	102	1048576	20	4931
2026-01-04 09:56:08.93	144.79	16.55	-29.7	-32.3	13.8	8.30e-06	0	43	102	1048576	20	4827
2026-01-04 09:56:09.94	144.76	16.67	-29.7	-32.1	13.9	3.80e-06	0	43	102	1048576	20	4766
2026-01-04 09:56:10.94	144.72	16.78	-29.6	-31.9	14.0	2.20e-06	0	43	102	1048576	20	4705
2026-01-04 09:56:11.95	144.68	16.90	-29.6	-32.0	14.0	2.20e-06	0	43	102	1048576	20	4719
2026-01-04 09:56:12.95	144.64	17.01	-29.6	-32.1	14.0	1.50e-06	0	43	102	1048576	20	4752
2026-01-04 09:56:13.96	144.61	17.13	-29.7	-32.2	13.9	6.10e-06	0	43	102	1048576	20	4799
2026-01-04 09:56:14.97	144.57	17.25	-29.7	-32.2	13.9	1.50e-06	0	43	102	1048576	20	4823
2026-01-04 09:56:15.98	144.53	17.36	-29.8	-32.6	13.7	6.10e-06	0	43	102	1048576	20	4942
2026-01-04 09:56:16.98	144.49	17.48	-29.7	-32.2	13.9	5.30e-06	0	43	102	1048576	20	4801
2026-01-04 09:56:17.98	144.45	17.60	-29.6	-31.9	14.1	3.80e-06	0	43	102	1048576	20	4710
2026-01-04 09:56:19.00	144.41	17.72	-29.6	-31.9	14.1	1.50e-06	0	43	102	1048576	20	4707
2026-01-04 09:56:20.00	144.37	17.84	-29.7	-32.1	14.0	1.50e-06	0	43	102	1048576	20	4752
2026-01-04 09:56:21.01	144.33	17.96	-29.8	-32.6	13.6	7.60e-06	0	43	102	1048576	20	4934
2026-01-04 09:56:22.02	144.29	18.08	-29.6	-31.9	14.2	0.00e+00	0	43	102	1048576	20	4692
2026-01-04 09:56:23.03	144.25	18.20	-29.7	-32.0	14.1	1.50e-06	0	43	102	1048576	20	4741
2026-01-04 09:56:24.03	144.21	18.32	-29.8	-32.3	13.9	5.30e-06	0	43	102	1048576	20	4833
2026-01-04 09:56:25.04	144.16	18.44	-29.7	-32.1	14.1	0.00e+00	0	43	102	1048576	20	4744
2026-01-04 09:56:26.04	144.12	18.56	-29.7	-32.1	14.1	7.00e-07	0	43	102	1048576	20	4746
2026-01-04 09:56:27.05	144.08	18.69	-29.6	-32.0	14.1	3.80e-06	0	43	102	1048576	20	4715
2026-01-04 09:56:28.06	144.04	18.81	-29.8	-32.5	13.8	0.00e+00	0	43	102	1048576	20	4903
2026-01-04 09:56:29.06	143.99	18.93	-30.0	-33.0	13.5	1.14e-05	0	43	102	1048576	20	5060
2026-01-04 09:56:30.07	143.95	19.06	-29.8	-32.4	13.9	4.50e-06	0	43	102	1048576	20	4853
2026-01-04 09:56:31.08	143.91	19.19	-29.6	-32.0	14.2	3.00e-06	0	43	102	1048576	20	4704
2026-01-04 09:56:32.08	143.86	19.31	-29.6	-31.9	14.3	3.80e-06	0	43	102	1048576	20	4679
2026-01-04 09:56:33.09	143.82	19.44	-29.7	-32.1	14.2	2.20e-06	0	43	102	1048576	20	4736
2026-01-04 09:56:34.10	143.77	19.57	-29.8	-32.3	14.0	2.20e-06	0	43	102	1048576	20	4818
2026-01-04 09:56:35.11	143.73	19.70	-29.6	-31.7	14.4	0.00e+00	0	43	102	1048576	20	4624
2026-01-04 09:56:36.12	143.68	19.83	-29.6	-31.9	14.3	0.00e+00	0	43	102	1048576	20	4672
2026-01-04 09:56:37.12	143.63	19.95	-29.6	-31.9	14.3	7.00e-07	0	43	102	1048576	20	4656
2026-01-04 09:56:38.12	143.59	20.08	-29.7	-32.0	14.2	1.50e-06	0	43	102	1048576	20	4723
2026-01-04 09:56:39.13	143.54	20.21	-29.7	-32.1	14.2	1.50e-06	0	43	102	1048576	20	4720
2026-01-04 09:56:40.13	143.49	20.35	-29.7	-32.2	14.1	0.00e+00	0	43	102	1048576	20	4758
2026-01-04 09:56:41.13	143.44	20.48	-29.8	-32.4	14.0	2.20e-06	0	43	102	1048576	20	4826
2026-01-04 09:56:42.14	143.39	20.61	-29.7	-32.1	14.2	0.00e+00	0	43	102	1048576	20	4741
2026-01-04 09:56:43.15	143.35	20.74	-29.6	-31.8	14.4	7.00e-07	0	43	102	1048576	20	4627
2026-01-04 09:56:44.16	143.30	20.88	-29.8	-32.2	14.2	7.00e-07	0	43	102	1048576	20	4780
2026-01-04 09:56:45.16	143.25	21.01	-29.9	-32.5	14.0	1.50e-06	0	43	102	1048576	20	4892
2026-01-04 09:56:46.17	143.20	21.15	-29.8	-32.2	14.2	2.20e-06	0	43	102	1048576	20	4784
2026-01-04 09:56:47.18	143.14	21.29	-29.6	-31.9	14.3	1.50e-06	0	43	102	1048576	20	4675
2026-01-04 09:56:48.19	143.09	21.42	-29.6	-31.9	14.4	0.00e+00	0	43	102	1048576	20	4666
2026-01-04 09:56:49.19	143.04	21.56	-29.7	-32.1	14.3	7.00e-07	0	43	102	1048576	20	4725
2026-01-04 09:56:50.20	142.99	21.70	-29.7	-31.9	14.4	0.00e+00	0	43	102	1048576	20	4667
2026-01-04 09:56:51.21	142.94	21.84	-29.8	-32.3	14.2	2.20e-06	0	43	102	1048576	20	4787
2026-01-04 09:56:52.21	142.88	21.98	-29.7	-32.1	14.3	0.00e+00	0	43	102	1048576	20	4720
2026-01-04 09:56:53.21	142.83	22.12	-29.6	-31.7	14.5	1.50e-06	0	43	102	1048576	20	4611
2026-01-04 09:56:54.22	142.77	22.26	-29.6	-31.6	14.6	0.00e+00	0	43	102	1048576	20	4578
2026-01-04 09:56:55.22	142.72	22.40	-29.5	-31.6	14.7	0.00e+00	0	43	102	1048576	20	4550
2026-01-04 09:56:56.22	142.66	22.54	-29.5	-31.5	14.7	4.50e-06	0	43	102	1048576	20	4528
2026-01-04 09:56:57.23	142.61	22.69	-29.5	-31.6	14.7	0.00e+00	0	43	102	1048576	20	4547
2026-01-04 09:56:58.24	142.55	22.83	-29.6	-31.7	14.6	7.00e-07	0	43	102	1048576	20	4601
2026-01-04 09:56:59.25	142.49	22.98	-29.6	-31.6	14.7	7.00e-07	0	43	102	1048576	20	4565
2026-01-04 09:57:00.25	142.44	23.12	-29.7	-32.0	14.4	7.00e-07	0	43	102	1048576	20	4697
2026-01-04 09:57:01.26	142.38	23.27	-29.8	-32.4	14.2	1.50e-06	0	43	102	1048576	20	4811
2026-01-04 09:57:02.27	142.32	23.42	-29.7	-32.1	14.4	3.80e-06	0	43	102	1048576	20	4727
2026-01-04 09:57:03.28	142.26	23.57	-29.7	-32.1	14.4	7.00e-07	0	43	102	1048576	20	4705
2026-01-04 09:57:04.28	142.20	23.72	-29.7	-32.1	14.4	7.00e-07	0	43	102	1048576	20	4716
2026-01-04 09:57:05.30	142.14	23.87	-29.8	-32.2	14.3	1.50e-06	0	43	102	1048576	20	4764
2026-01-04 09:57:06.30	142.08	24.02	-29.8	-32.3	14.3	7.00e-07	0	43	102	1048576	20	4769
2026-01-04 09:57:07.31	142.02	24.17	-29.8	-32.3	14.3	7.00e-07	0	43	102	1048576	20	4781
2026-01-04 09:57:08.31	141.95	24.32	-29.8	-32.2	14.3	7.00e-07	0	43	102	1048576	20	4765
2026-01-04 09:57:09.32	141.89	24.48	-29.9	-32.4	14.2	7.00e-07	0	43	102	1048576	20	4815
2026-01-04 09:57:10.33	141.83	24.63	-29.9	-32.6	14.1	0.00e+00	0	43	102	1048576	20	4872
2026-01-04 09:57:11.34	141.76	24.79	-29.9	-32.5	14.2	7.00e-07	0	43	102	1048576	20	4849
2026-01-04 09:57:12.34	141.70	24.94	-30.0	-32.8	14.0	4.50e-06	0	43	102	1048576	20	4952
2026-01-04 09:57:13.35	141.63	25.10	-30.1	-33.0	13.9	2.20e-06	0	43	102	1048576	20	5025
2026-01-04 09:57:14.35	141.57	25.26	-30.1	-33.0	13.9	2.20e-06	0	43	102	1048576	20	5031
2026-01-04 09:57:15.36	141.50	25.42	-30.1	-32.9	13.9	1.50e-06	0	43	102	1048576	20	5000
2026-01-04 09:57:16.37	141.43	25.58	-30.1	-33.1	13.8	6.10e-06	0	43	102	1048576	20	5067
2026-01-04 09:57:17.38	141.36	25.74	-30.2	-33.3	13.7	3.80e-06	0	43	102	1048576	20	5124
2026-01-04 09:57:18.38	141.29	25.90	-30.3	-33.6	13.5	1.06e-05	0	43	102	1048576	20	5263
2026-01-04 09:57:19.39	141.22	26.06	-30.4	-33.8	13.4	1.29e-05	0	43	102	1048576	20	5318
2026-01-04 09:57:20.40	141.15	26.23	-30.5	-34.0	13.2	1.98e-05	0	43	102	1048576	20	5400
2026-01-04 09:57:21.41	141.08	26.39	-30.6	-33.8	13.1	3.28e-05	0	43	102	1048576	21	5215
2026-01-04 09:57:22.41	141.01	26.55	-30.7	-34.2	12.8	4.57e-05	0	43	102	1048576	21	5361
2026-01-04 09:57:23.42	140.93	26.72	-30.8	-34.3	12.8	5.72e-05	0	43	102	1048576	21	5411
2026-01-04 09:57:24.43	140.86	26.89	-30.9	-34.6	12.6	8.31e-05	0	43	102	1048576	21	5525
2026-01-04 09:57:25.44	140.79	27.06	-31.0	-34.9	12.3	1.17e-04	0	43	102	1048576	21	5677
2026-01-04 09:57:26.44	140.71	27.23	-31.2	-35.0	12.0	2.36e-04	0	43	102	1048576	22	5599
2026-01-04 09:57:27.44	140.63	27.40	-31.3	-35.3	11.8	5.20e-04	0	43	102	1048576	22	5709
2026-01-04 09:57:28.45	140.56	27.57	-31.3	-35.4	11.7	5.73e-04	0	43	102	1048576	22	5771
2026-01-04 09:57:29.46	140.48	27.74	-31.5	-35.8	11.4	8.78e-04	0	43	102	1048576	22	5939
2026-01-04 09:57:30.47	140.40	27.91	-31.6	-35.7	11.2	1.02e-03	0	43	102	1048576	23	5772
2026-01-04 09:57:31.48	140.32	28.09	-31.7	-36.2	10.8	1.90e-03	0	43	102	1048576	23	6022
2026-01-04 09:57:32.48	140.24	28.26	-31.7	-36.2	10.8	2.85e-03	0	43	102	1048576	23	6001
2026-01-04 09:57:33.49	140.16	28.44	-31.7	-36.0	11.0	2.33e-03	0	43	102	1048576	23	5914
2026-01-04 09:57:34.50	140.07	28.62	-31.5	-35.5	11.4	1.09e-03	0	43	102	1048576	23	5670
2026-01-04 09:57:35.51	139.99	28.80	-31.4	-35.2	11.6	8.13e-04	0	43	102	1048576	23	5548
2026-01-04 09:57:36.52	139.90	28.98	-31.3	-34.9	11.8	6.74e-04	0	43	102	1048576	23	5411
2026-01-04 09:57:37.52	139.82	29.16	-31.4	-35.1	11.6	6.13e-04	0	43	102	1048576	23	5488
2026-01-04 09:57:38.53	139.73	29.34	-31.4	-34.9	11.8	4.45e-04	0	43	102	1048576	23	5438
2026-01-04 09:57:39.53	139.65	29.52	-31.5	-35.2	11.6	5.31e-04	0	43	102	1048576	23	5538
2026-01-04 09:57:40.54	139.56	29.71	-31.6	-35.5	11.3	7.63e-04	0	43	102	1048576	23	5694
2026-01-04 09:57:41.55	139.47	29.89	-31.7	-35.8	11.2	1.56e-03	0	43	102	1048576	23	5826
2026-01-04 09:57:42.55	139.38	30.08	-31.6	-35.7	11.2	1.23e-03	0	43	102	1048576	23	5776
2026-01-04 09:57:43.55	139.29	30.26	-31.7	-36.1	11.0	1.32e-03	0	43	102	1048576	23	5949
2026-01-04 09:57:44.56	139.19	30.45	-31.7	-35.9	11.2	1.59e-03	0	43	102	1048576	23	5839
2026-01-04 09:57:45.57	139.10	30.64	-31.7	-36.0	11.0	2.07e-03	0	43	102	1048576	23	5925
2026-01-04 09:57:46.58	139.00	30.84	-31.7	-36.0	11.0	2.04e-03	0	43	102	1048576	23	5900
2026-01-04 09:57:47.59	138.91	31.03	-31.8	-36.4	10.8	1.82e-03	0	43	102	1048576	23	6089
2026-01-04 09:57:48.59	138.81	31.22	-31.9	-36.5	10.7	3.42e-03	0	43	102	1048576	23	6123
2026-01-04 09:57:49.60	138.71	31.42	-31.8	-36.2	10.9	2.38e-03	0	43	102	1048576	23	5974
2026-01-04 09:57:50.61	138.61	31.61	-31.9	-36.6	10.6	2.10e-03	0	43	102	1048576	23	6198
2026-01-04 09:57:51.62	138.51	31.81	-32.1	-36.6	10.3	5.00e-03	0	43	102	1048576	24	6107
2026-01-04 09:57:52.62	138.41	32.01	-32.0	-36.6	10.3	5.00e-03	0	43	102	1048576	24	6076
2026-01-04 09:57:53.63	138.30	32.21	-32.1	-36.9	10.1	7.44e-03	0	43	102	1048576	24	6230
2026-01-04 09:57:54.64	138.20	32.41	-32.2	-37.1	9.9	8.57e-03	0	43	102	1048576	24	6325
2026-01-04 09:57:55.65	138.09	32.61	-32.2	-37.0	9.9	7.28e-03	0	43	102	1048576	24	6310
2026-01-04 09:57:56.65	137.98	32.81	-32.2	-37.0	10.0	7.92e-03	0	43	102	1048576	24	6300
2026-01-04 09:57:57.66	137.87	33.02	-32.2	-37.2	9.8	9.05e-03	0	43	102	1048576	24	6394
2026-01-04 09:57:58.66	137.76	33.22	-32.4	-37.8	9.4	1.21e-02	0	43	102	1048576	24	6713
2026-01-04 09:57:59.67	137.65	33.43	-32.3	-37.5	9.6	1.55e-02	0	43	102	1048576	24	6556
2026-01-04 09:58:00.68	137.54	33.64	-32.2	-37.2	9.9	1.05e-02	0	43	102	1048576	24	6385
2026-01-04 09:58:01.69	137.42	33.85	-32.4	-37.8	9.4	1.42e-02	0	43	102	1048576	24	6740
2026-01-04 09:58:02.70	137.30	34.06	-32.4	-37.7	9.4	1.60e-02	0	43	102	1048576	24	6667
2026-01-04 09:58:03.70	137.19	34.27	-32.4	-37.7	9.5	1.59e-02	0	43	102	1048576	24	6647
2026-01-04 09:58:04.71	137.07	34.48	-32.4	-37.7	9.4	1.35e-02	0	43	102	1048576	24	6661
2026-01-04 09:58:05.72	136.94	34.70	-32.3	-37.6	9.6	1.49e-02	0	43	102	1048576	24	6590
2026-01-04 09:58:06.73	136.82	34.91	-32.3	-37.4	9.7	1.20e-02	0	43	102	1048576	24	6494
2026-01-04 09:58:07.73	136.70	35.13	-32.3	-37.6	9.6	1.14e-02	0	43	102	1048576	24	6562
2026-01-04 09:58:08.73	136.57	35.35	-32.4	-37.9	9.4	1.50e-02	0	43	102	1048576	24	6745
2026-01-04 09:58:09.74	136.44	35.57	-32.6	-37.9	9.0	1.77e-02	0	43	102	1048576	25	6653
2026-01-04 09:58:10.74	136.31	35.79	-32.7	-38.6	8.5	2.98e-02	0	43	102	1048576	25	7096
2026-01-04 09:58:11.74	136.18	36.01	-32.8	-39.0	8.1	5.39e-02	0	43	102	1048576	25	7307
2026-01-04 09:58:12.75	136.05	36.23	-32.8	-39.1	8.1	5.75e-02	0	43	102	1048576	25	7388
2026-01-04 09:58:13.75	135.91	36.46	-33.0	-39.4	7.5	7.18e-02	0	43	102	1048576	26	7500
2026-01-04 09:58:14.76	135.78	36.68	-32.9	-38.7	8.0	7.35e-02	0	43	102	1048576	26	7056
2026-01-04 09:58:15.77	135.64	36.91	-32.8	-38.4	8.3	6.05e-02	0	43	102	1048576	26	6824
2026-01-04 09:58:16.78	135.49	37.14	-32.8	-38.3	8.3	4.77e-02	0	43	102	1048576	26	6797
2026-01-04 09:58:17.78	135.35	37.37	-32.8	-38.2	8.4	4.34e-02	0	43	102	1048576	26	6720
2026-01-04 09:58:18.79	135.21	37.61	-32.7	-37.7	8.7	4.11e-02	0	43	102	1048576	26	6460
2026-01-04 09:58:19.80	135.06	37.84	-32.6	-37.5	9.0	2.93e-02	0	43	102	1048576	26	6339
2026-01-04 09:58:20.81	134.91	38.08	-32.6	-37.4	9.1	2.26e-02	0	43	102	1048576	26	6258
2026-01-04 09:58:21.81	134.76	38.31	-32.5	-37.2	9.3	2.36e-02	0	43	102	1048576	26	6153
2026-01-04 09:58:22.82	134.60	38.55	-32.4	-36.6	9.7	1.46e-02	0	43	102	1048576	26	5851
2026-01-04 09:58:23.82	134.45	38.79	-32.3	-36.7	10.0	1.01e-02	0	43	102	1048576	25	5992
2026-01-04 09:58:24.83	134.29	39.03	-32.3	-36.8	10.0	9.10e-03	0	43	102	1048576	25	6029
2026-01-04 09:58:25.84	134.12	39.27	-32.4	-37.1	9.7	1.19e-02	0	43	102	1048576	25	6195
2026-01-04 09:58:26.85	133.96	39.52	-32.2	-36.6	10.1	1.12e-02	0	43	102	1048576	25	5961
2026-01-04 09:58:27.86	133.79	39.76	-32.1	-36.0	10.5	5.04e-03	0	43	102	1048576	25	5672
2026-01-04 09:58:28.86	133.62	40.01	-31.9	-35.5	10.9	2.77e-03	0	43	102	1048576	25	5448
2026-01-04 09:58:29.87	133.45	40.26	-31.8	-35.2	11.1	1.83e-03	0	43	102	1048576	25	5293
2026-01-04 09:58:30.87	133.28	40.50	-31.7	-35.3	11.5	9.96e-04	0	43	102	1048576	24	5428
2026-01-04 09:58:31.88	133.10	40.76	-31.6	-34.9	11.7	6.97e-04	0	43	102	1048576	24	5272
2026-01-04 09:58:32.89	132.92	41.01	-31.5	-34.8	11.8	4.68e-04	0	43	102	1048576	24	5222
2026-01-04 09:58:33.89	132.74	41.26	-31.5	-34.7	11.8	4.00e-04	0	43	102	1048576	24	5219
2026-01-04 09:58:34.90	132.55	41.52	-31.6	-35.1	11.6	6.60e-04	0	43	102	1048576	24	5374
2026-01-04 09:58:35.90	132.37	41.77	-31.5	-34.7	11.9	6.20e-04	0	43	102	1048576	24	5194
2026-01-04 09:58:36.91	132.17	42.03	-31.4	-34.3	12.2	3.45e-04	0	43	102	1048576	24	5025
2026-01-04 09:58:37.91	131.98	42.29	-31.3	-34.4	12.4	1.56e-04	0	43	102	1048576	23	5172
2026-01-04 09:58:38.92	131.78	42.55	-31.4	-34.8	12.1	1.79e-04	0	43	102	1048576	23	5344
2026-01-04 09:58:39.93	131.58	42.81	-31.4	-34.9	12.0	2.49e-04	0	43	102	1048576	23	5390
2026-01-04 09:58:40.93	131.37	43.08	-31.3	-34.5	12.3	1.61e-04	0	43	102	1048576	23	5213
2026-01-04 09:58:41.94	131.17	43.34	-31.2	-34.3	12.5	1.42e-04	0	43	102	1048576	23	5146
2026-01-04 09:58:42.94	130.96	43.61	-31.1	-34.0	12.7	1.11e-04	0	43	102	1048576	23	5029
2026-01-04 09:58:43.94	130.74	43.87	-31.2	-34.1	12.7	6.63e-05	0	43	102	1048576	23	5055
2026-01-04 09:58:44.95	130.52	44.14	-31.3	-34.5	12.4	9.53e-05	0	43	102	1048576	23	5200
2026-01-04 09:58:45.95	130.30	44.41	-31.3	-34.5	12.4	1.01e-04	0	43	102	1048576	23	5206
2026-01-04 09:58:46.95	130.08	44.68	-31.2	-34.2	12.6	1.12e-04	0	43	102	1048576	23	5088
2026-01-04 09:58:47.95	129.85	44.95	-31.3	-34.4	12.4	1.28e-04	0	43	102	1048576	23	5179
2026-01-04 09:58:48.96	129.61	45.23	-31.2	-34.2	12.6	1.30e-04	0	43	102	1048576	23	5088
2026-01-04 09:58:49.97	129.37	45.51	-31.1	-34.0	12.7	5.87e-05	0	43	102	1048576	23	5028
2026-01-04 09:58:50.98	129.13	45.79	-31.3	-34.6	12.4	1.13e-04	0	43	102	1048576	23	5230
2026-01-04 09:58:51.98	128.88	46.06	-31.2	-34.3	12.6	1.02e-04	0	43	102	1048576	23	5117
2026-01-04 09:58:52.99	128.63	46.34	-31.4	-34.8	12.3	1.59e-04	0	43	102	1048576	23	5309
2026-01-04 09:58:54.00	128.37	46.63	-30.9	-33.4	13.2	9.15e-05	0	43	102	1048576	23	4789
2026-01-04 09:58:55.00	128.11	46.91	-30.7	-33.4	13.5	1.29e-05	0	43	102	1048576	22	4886
2026-01-04 09:58:56.01	127.84	47.19	-30.6	-32.9	13.8	6.10e-06	0	43	102	1048576	22	4736
2026-01-04 09:58:57.01	127.57	47.47	-30.6	-33.0	13.8	3.80e-06	0	43	102	1048576	22	4751
2026-01-04 09:58:58.02	127.30	47.76	-30.7	-33.3	13.6	8.30e-06	0	43	102	1048576	22	4864
2026-01-04 09:58:59.03	127.02	48.05	-30.7	-33.3	13.6	3.80e-06	0	43	102	1048576	22	4859
2026-01-04 09:59:00.03	126.73	48.34	-30.9	-33.9	13.2	6.80e-06	0	43	102	1048576	22	5064
2026-01-04 09:59:01.04	126.44	48.63	-30.9	-33.9	13.2	2.36e-05	0	43	102	1048576	22	5070
2026-01-04 09:59:02.04	126.14	48.92	-30.9	-33.9	13.2	2.21e-05	0	43	102	1048576	22	5084
2026-01-04 09:59:03.06	125.83	49.21	-30.8	-33.5	13.5	1.83e-05	0	43	102	1048576	22	4922
2026-01-04 09:59:04.06	125.53	49.50	-30.7	-33.4	13.5	9.90e-06	0	43	102	1048576	22	4903
2026-01-04 09:59:05.07	125.21	49.80	-30.5	-32.6	14.1	3.00e-06	0	43	102	1048576	22	4628
2026-01-04 09:59:06.08	124.89	50.09	-30.5	-32.9	13.9	1.50e-06	0	43	102	1048576	22	4702
2026-01-04 09:59:07.09	124.56	50.39	-30.6	-33.1	13.7	6.10e-06	0	43	102	1048576	22	4787
2026-01-04 09:59:08.09	124.23	50.69	-30.2	-32.5	14.4	7.00e-07	0	43	102	1048576	21	4676
2026-01-04 09:59:09.10	123.88	50.98	-30.0	-32.0	14.7	7.00e-07	0	43	102	1048576	21	4542
2026-01-04 09:59:10.11	123.53	51.28	-30.1	-32.2	14.7	0.00e+00	0	43	102	1048576	21	4580
2026-01-04 09:59:11.11	123.18	51.58	-30.3	-32.7	14.3	7.00e-07	0	43	102	1048576	21	4745
2026-01-04 09:59:12.12	122.82	51.88	-30.3	-32.8	14.2	7.00e-07	0	43	102	1048576	21	4798
2026-01-04 09:59:13.12	122.45	52.18	-30.2	-32.5	14.4	0.00e+00	0	43	102	1048576	21	4681
2026-01-04 09:59:14.13	122.07	52.48	-30.2	-32.4	14.4	7.00e-07	0	43	102	1048576	21	4660
2026-01-04 09:59:15.13	121.69	52.78	-30.0	-32.0	14.7	0.00e+00	0	43	102	1048576	21	4534
2026-01-04 09:59:16.14	121.29	53.08	-30.2	-32.5	14.4	7.00e-07	0	43	102	1048576	21	4685
2026-01-04 09:59:17.14	120.90	53.38	-30.3	-32.6	14.4	7.00e-07	0	43	102	1048576	21	4733
2026-01-04 09:59:18.15	120.48	53.69	-30.1	-32.3	14.6	0.00e+00	0	43	102	1048576	21	4619
2026-01-04 09:59:19.16	120.06	53.99	-29.8	-31.5	15.0	0.00e+00	0	43	102	1048576	21	4370
2026-01-04 09:59:20.17	119.63	54.30	-30.0	-32.3	14.9	0.00e+00	0	43	102	1048576	20	4733
2026-01-04 09:59:21.17	119.20	54.60	-30.2	-33.0	14.4	0.00e+00	0	43	102	1048576	20	4959
2026-01-04 09:59:22.18	118.75	54.90	-30.5	-33.7	14.0	7.00e-07	0	43	102	1048576	20	5226
2026-01-04 09:59:23.19	118.30	55.21	-30.9	-34.3	13.4	3.80e-06	0	43	102	1048576	21	5331
2026-01-04 09:59:24.20	117.83	55.51	-31.1	-34.4	13.0	3.28e-05	0	43	102	1048576	22	5242
2026-01-04 09:59:25.21	117.35	55.81	-31.2	-34.8	12.7	6.10e-05	0	43	102	1048576	22	5415
2026-01-04 09:59:26.21	116.87	56.11	-31.4	-35.3	12.4	1.33e-04	0	43	102	1048576	22	5618
2026-01-04 09:59:27.22	116.37	56.42	-31.5	-35.1	12.1	2.23e-04	0	43	102	1048576	23	5425
2026-01-04 09:59:28.23	115.86	56.72	-31.7	-35.7	11.7	5.24e-04	0	43	102	1048576	23	5669
2026-01-04 09:59:29.23	115.34	57.02	-31.9	-36.4	11.3	8.51e-04	0	43	102	1048576	23	5990
2026-01-04 09:59:30.24	114.81	57.32	-32.1	-36.5	10.7	1.84e-03	0	43	102	1048576	24	5970
2026-01-04 09:59:31.25	114.26	57.62	-32.2	-36.6	10.7	3.23e-03	0	43	102	1048576	24	6004
2026-01-04 09:59:32.25	113.71	57.92	-32.2	-36.7	10.7	3.57e-03	0	43	102	1048576	24	6046
2026-01-04 09:59:33.25	113.15	58.21	-31.8	-35.4	11.6	1.64e-03	0	43	102	1048576	24	5440
2026-01-04 09:59:34.26	112.56	58.51	-31.6	-34.7	12.2	2.55e-04	0	43	102	1048576	24	5160
2026-01-04 09:59:35.26	111.97	58.80	-31.5	-34.5	12.2	1.87e-04	0	43	102	1048576	24	5088
2026-01-04 09:59:36.27	111.36	59.10	-31.5	-34.5	12.2	2.61e-04	0	43	102	1048576	24	5081
2026-01-04 09:59:37.28	110.74	59.39	-31.1	-33.7	13.1	4.50e-05	0	43	102	1048576	23	4883
2026-01-04 09:59:38.29	110.10	59.68	-30.7	-33.3	13.7	6.10e-06	0	43	102	1048576	22	4824
2026-01-04 09:59:39.30	109.45	59.97	-30.6	-32.9	14.0	4.50e-06	0	43	102	1048576	22	4703
2026-01-04 09:59:40.31	108.79	60.25	-30.3	-32.1	14.4	1.50e-06	0	43	102	1048576	22	4439
2026-01-04 09:59:41.31	108.11	60.54	-29.8	-31.5	15.1	0.00e+00	0	43	102	1048576	21	4370
2026-01-04 09:59:42.31	107.42	60.82	-29.4	-30.9	15.8	0.00e+00	0	43	102	1048576	20	4275
2026-01-04 09:59:43.32	106.71	61.10	-29.4	-30.9	15.8	0.00e+00	0	43	102	1048576	20	4276
2026-01-04 09:59:44.32	105.99	61.37	-29.6	-31.4	15.4	0.00e+00	0	43	102	1048576	20	4450
2026-01-04 09:59:45.32	105.25	61.64	-29.4	-31.0	15.8	0.00e+00	0	43	102	1048576	20	4302
2026-01-04 09:59:46.33	104.49	61.91	-29.4	-30.8	15.9	0.00e+00	0	43	102	1048576	20	4261
2026-01-04 09:59:47.34	103.71	62.18	-29.3	-31.1	16.0	0.00e+00	0	43	102	1048576	19	4437
2026-01-04 09:59:48.35	102.92	62.44	-29.1	-30.6	16.3	0.00e+00	0	43	102	1048576	19	4301
2026-01-04 09:59:49.35	102.11	62.70	-28.9	-30.3	16.5	0.00e+00	0	43	102	1048576	19	4215
2026-01-04 09:59:50.36	101.28	62.95	-29.0	-30.5	16.4	0.00e+00	0	43	102	1048576	19	4270
2026-01-04 09:59:51.37	100.44	63.20	-29.2	-30.9	16.2	0.00e+00	0	43	102	1048576	19	4371
2026-01-04 09:59:52.38	99.57	63.45	-28.9	-30.3	16.5	0.00e+00	0	43	102	1048576	19	4199
2026-01-04 09:59:53.38	98.70	63.69	-28.9	-30.1	16.7	0.00e+00	0	43	102	1048576	19	4151
2026-01-04 09:59:54.39	97.79	63.93	-29.1	-30.7	16.3	0.00e+00	0	43	102	1048576	19	4331
2026-01-04 09:59:55.40	96.87	64.16	-29.5	-31.7	15.7	0.00e+00	0	43	102	1048576	19	4626
2026-01-04 09:59:56.40	95.94	64.39	-29.7	-32.2	15.4	0.00e+00	0	43	102	1048576	19	4777
2026-01-04 09:59:57.41	94.99	64.61	-29.8	-32.2	15.4	0.00e+00	0	43	102	1048576	19	4789
2026-01-04 09:59:58.42	94.01	64.82	-29.9	-32.1	15.1	0.00e+00	0	43	102	1048576	20	4637
2026-01-04 09:59:59.43	93.02	65.03	-30.4	-33.4	14.4	0.00e+00	0	43	102	1048576	20	5082
2026-01-04 10:00:00.43	92.01	65.23	-30.6	-33.5	13.9	4.50e-06	0	43	102	1048576	21	5035
2026-01-04 10:00:01.44	90.98	65.43	-31.2	-34.5	13.0	1.52e-05	0	43	102	1048576	22	5284
2026-01-04 10:00:02.45	89.93	65.62	-31.6	-35.3	12.1	1.76e-04	0	43	102	1048576	23	5527
2026-01-04 10:00:03.45	88.88	65.80	-31.3	-34.4	12.7	1.76e-04	0	43	102	1048576	23	5146
2026-01-04 10:00:04.45	87.80	65.97	-31.0	-33.6	13.2	2.59e-05	0	43	102	1048576	23	4841
2026-01-04 10:00:05.46	86.70	66.14	-31.1	-33.8	13.1	1.14e-05	0	43	102	1048576	23	4922
2026-01-04 10:00:06.47	85.58	66.30	-31.3	-34.5	12.6	3.66e-05	0	43	102	1048576	23	5185
2026-01-04 10:00:07.48	84.45	66.45	-31.5	-35.0	12.4	1.45e-04	0	43	102	1048576	23	5364
2026-01-04 10:00:08.48	83.31	66.59	-31.7	-35.6	12.0	2.61e-04	0	43	102	1048576	23	5621
2026-01-04 10:00:09.49	82.14	66.73	-31.6	-35.3	12.1	3.32e-04	0	43	102	1048576	23	5516
2026-01-04 10:00:10.49	80.98	66.85	-31.5	-35.0	12.3	2.29e-04	0	43	102	1048576	23	5380
2026-01-04 10:00:11.50	79.78	66.97	-31.7	-35.6	11.8	5.04e-04	0	43	102	1048576	23	5649
2026-01-04 10:00:12.50	78.59	67.08	-31.5	-34.9	12.4	3.02e-04	0	43	102	1048576	23	5317
2026-01-04 10:00:13.51	77.37	67.18	-31.4	-34.6	12.6	1.12e-04	0	43	102	1048576	23	5226
2026-01-04 10:00:14.51	76.15	67.27	-31.6	-35.2	12.2	1.79e-04	0	43	102	1048576	23	5456
2026-01-04 10:00:15.52	74.91	67.35	-31.7	-35.4	12.1	4.35e-04	0	43	102	1048576	23	5536
2026-01-04 10:00:16.52	73.68	67.41	-31.4	-34.7	12.5	1.96e-04	0	43	102	1048576	23	5240
2026-01-04 10:00:17.53	72.42	67.48	-31.6	-35.2	12.2	1.20e-04	0	43	102	1048576	23	5455
2026-01-04 10:00:18.54	71.16	67.53	-31.7	-35.5	12.0	3.63e-04	0	43	102	1048576	23	5579
2026-01-04 10:00:19.55	69.89	67.57	-31.7	-35.7	11.8	4.74e-04	0	43	102	1048576	23	5649
2026-01-04 10:00:20.56	68.62	67.60	-31.9	-36.2	11.6	6.13e-04	0	43	102	1048576	23	5876
2026-01-04 10:00:21.56	67.36	67.62	-31.8	-35.9	11.6	6.92e-04	0	43	102	1048576	23	5763
2026-01-04 10:00:22.58	66.07	67.63	-31.9	-36.3	11.4	7.33e-04	0	43	102	1048576	23	5923
2026-01-04 10:00:23.59	64.79	67.63	-32.1	-36.2	11.1	1.27e-03	0	43	102	1048576	24	5808
2026-01-04 10:00:24.59	63.53	67.62	-32.1	-36.4	10.9	2.59e-03	0	43	102	1048576	24	5872
2026-01-04 10:00:25.60	62.25	67.59	-31.7	-35.2	11.8	8.71e-04	0	43	102	1048576	24	5338
2026-01-04 10:00:26.61	60.98	67.56	-31.5	-34.4	12.3	1.84e-04	0	43	102	1048576	24	5042
2026-01-04 10:00:27.62	59.71	67.52	-31.2	-34.0	12.9	3.73e-05	0	43	102	1048576	23	4997
2026-01-04 10:00:28.62	58.46	67.47	-31.2	-34.0	13.0	4.27e-05	0	43	102	1048576	23	4972
2026-01-04 10:00:29.63	57.21	67.41	-31.4	-34.7	12.5	7.78e-05	0	43	102	1048576	23	5254
2026-01-04 10:00:30.64	55.96	67.34	-31.4	-34.8	12.4	2.01e-04	0	43	102	1048576	23	5305
2026-01-04 10:00:31.65	54.72	67.26	-31.4	-34.8	12.4	1.67e-04	0	43	102	1048576	23	5287
2026-01-04 10:00:32.65	53.51	67.17	-31.3	-34.4	12.6	1.09e-04	0	43	102	1048576	23	5155
2026-01-04 10:00:33.66	52.29	67.07	-31.4	-34.7	12.4	1.13e-04	0	43	102	1048576	23	5272
2026-01-04 10:00:34.67	51.09	66.96	-31.3	-34.4	12.7	1.27e-04	0	43	102	1048576	23	5141
2026-01-04 10:00:35.68	49.90	66.84	-31.1	-33.9	13.0	8.92e-05	0	43	102	1048576	23	4950
2026-01-04 10:00:36.69	48.72	66.72	-30.9	-33.2	13.5	1.60e-05	0	43	102	1048576	23	4694
2026-01-04 10:00:37.70	47.56	66.58	-30.6	-33.0	13.9	3.80e-06	0	43	102	1048576	22	4737
2026-01-04 10:00:38.71	46.41	66.44	-30.4	-32.4	14.2	7.00e-07	0	43	102	1048576	22	4546
2026-01-04 10:00:39.71	45.29	66.29	-30.7	-33.3	13.7	4.50e-06	0	43	102	1048576	22	4850
2026-01-04 10:00:40.72	44.17	66.13	-30.6	-32.9	13.9	1.14e-05	0	43	102	1048576	22	4723
2026-01-04 10:00:41.73	43.07	65.96	-30.2	-32.5	14.4	7.00e-07	0	43	102	1048576	21	4688
2026-01-04 10:00:42.74	41.99	65.78	-30.3	-32.8	14.4	0.00e+00	0	43	102	1048576	21	4796
2026-01-04 10:00:43.75	40.93	65.60	-30.0	-32.1	14.7	7.00e-07	0	43	102	1048576	21	4543
2026-01-04 10:00:44.75	39.89	65.41	-29.7	-31.7	15.3	0.00e+00	0	43	102	1048576	20	4538
2026-01-04 10:00:45.75	38.87	65.22	-29.7	-31.7	15.3	0.00e+00	0	43	102	1048576	20	4530
2026-01-04 10:00:46.76	37.86	65.01	-29.4	-31.0	15.8	7.00e-07	0	43	102	1048576	20	4318
2026-01-04 10:00:47.77	36.87	64.80	-29.1	-30.7	16.2	0.00e+00	0	43	102	1048576	19	4326
2026-01-04 10:00:48.78	35.90	64.59	-29.0	-30.4	16.4	0.00e+00	0	43	102	1048576	19	4252
2026-01-04 10:00:49.79	34.94	64.37	-29.1	-30.8	16.2	0.00e+00	0	43	102	1048576	19	4355
2026-01-04 10:00:50.80	34.01	64.14	-29.2	-30.8	16.1	0.00e+00	0	43	102	1048576	19	4366
2026-01-04 10:00:51.81	33.09	63.91	-29.6	-31.9	15.6	0.00e+00	0	43	102	1048576	19	4678
2026-01-04 10:00:52.81	32.20	63.67	-29.4	-31.5	15.7	3.00e-06	0	43	102	1048576	19	4578
2026-01-04 10:00:53.82	31.32	63.43	-29.6	-32.0	15.4	0.00e+00	0	43	102	1048576	19	4734
2026-01-04 10:00:54.83	30.46	63.18	-29.8	-32.3	15.3	0.00e+00	0	43	102	1048576	19	4841
2026-01-04 10:00:55.83	29.62	62.93	-30.1	-32.7	14.7	2.20e-06	0	43	102	1048576	20	4843
2026-01-04 10:00:56.84	28.80	62.68	-30.3	-33.2	14.3	7.00e-07	0	43	102	1048576	20	5015
2026-01-04 10:00:57.85	27.99	62.42	-30.7	-33.9	13.6	6.80e-06	0	43	102	1048576	21	5185
2026-01-04 10:00:58.85	27.20	62.16	-30.7	-33.6	13.8	1.06e-05	0	43	102	1048576	21	5080
2026-01-04 10:00:59.86	26.43	61.89	-30.7	-33.8	13.6	4.50e-06	0	43	102	1048576	21	5142
2026-01-04 10:01:00.86	25.68	61.62	-30.8	-34.0	13.5	7.60e-06	0	43	102	1048576	21	5213
2026-01-04 10:01:01.87	24.93	61.35	-31.1	-34.4	12.9	1.83e-05	0	43	102	1048576	22	5257
2026-01-04 10:01:02.88	24.21	61.07	-31.4	-35.3	12.2	1.41e-04	0	43	102	1048576	22	5626
2026-01-04 10:01:03.89	23.50	60.79	-31.6	-35.3	11.9	3.22e-04	0	43	102	1048576	23	5541
2026-01-04 10:01:04.90	22.81	60.51	-31.7	-35.6	11.7	4.13e-04	0	43	102	1048576	23	5667
2026-01-04 10:01:05.90	22.13	60.23	-31.7	-35.6	11.7	5.52e-04	0	43	102	1048576	23	5659
2026-01-04 10:01:06.91	21.47	59.95	-31.5	-35.1	12.1	3.84e-04	0	43	102	1048576	23	5432
2026-01-04 10:01:07.92	20.82	59.66	-31.6	-35.3	11.9	2.71e-04	0	43	102	1048576	23	5531
2026-01-04 10:01:08.93	20.19	59.37	-31.9	-36.2	11.3	5.28e-04	0	43	102	1048576	23	5941
2026-01-04 10:01:09.94	19.57	59.08	-31.9	-35.7	11.2	1.96e-03	0	43	102	1048576	24	5596
2026-01-04 10:01:10.94	18.97	58.78	-31.8	-35.4	11.4	1.27e-03	0	43	102	1048576	24	5484
2026-01-04 10:01:11.95	18.37	58.49	-31.8	-35.6	11.4	9.01e-04	0	43	102	1048576	24	5553
2026-01-04 10:01:12.95	17.80	58.20	-32.0	-36.2	10.8	2.38e-03	0	43	102	1048576	24	5849
2026-01-04 10:01:13.96	17.23	57.90	-31.6	-35.0	11.8	8.59e-04	0	43	102	1048576	24	5281
2026-01-04 10:01:14.97	16.68	57.60	-31.7	-35.4	11.5	5.01e-04	0	43	102	1048576	24	5451
2026-01-04 10:01:15.97	16.14	57.30	-31.6	-35.0	11.8	6.17e-04	0	43	102	1048576	24	5285
2026-01-04 10:01:16.98	15.61	57.00	-31.5	-34.6	12.0	3.38e-04	0	43	102	1048576	24	5135
2026-01-04 10:01:17.99	15.09	56.70	-31.6	-34.9	11.8	3.24e-04	0	43	102	1048576	24	5248
2026-01-04 10:01:19.00	14.58	56.40	-31.4	-34.3	12.2	3.17e-04	0	43	102	1048576	24	5035
2026-01-04 10:01:20.01	14.09	56.10	-31.4	-34.2	12.4	1.65e-04	0	43	102	1048576	24	4976
2026-01-04 10:01:21.01	13.60	55.80	-31.4	-34.4	12.1	1.95e-04	0	43	102	1048576	24	5080
2026-01-04 10:01:22.01	13.13	55.50	-31.1	-33.9	12.9	1.28e-04	0	43	102	1048576	23	4955
2026-01-04 10:01:23.02	12.67	55.20	-30.7	-33.2	13.6	1.37e-05	0	43	102	1048576	22	4830
2026-01-04 10:01:24.03	12.21	54.89	-30.3	-32.3	14.2	2.20e-06	0	43	102	1048576	22	4512
2026-01-04 10:01:25.03	11.77	54.59	-30.3	-32.7	14.3	2.20e-06	0	43	102	1048576	21	4760
2026-01-04 10:01:26.04	11.33	54.29	-30.3	-32.8	14.2	1.50e-06	0	43	102	1048576	21	4791
2026-01-04 10:01:27.05	10.91	53.99	-30.2	-32.5	14.3	1.50e-06	0	43	102	1048576	21	4700
2026-01-04 10:01:28.05	10.49	53.69	-30.1	-32.2	14.5	7.00e-07	0	43	102	1048576	21	4601
2026-01-04 10:01:29.06	10.08	53.38	-30.3	-32.7	14.3	7.00e-07	0	43	102	1048576	21	4752
2026-01-04 10:01:30.06	9.68	53.08	-30.2	-32.4	14.4	0.00e+00	0	43	102	1048576	21	4676
2026-01-04 10:01:31.07	9.29	52.78	-30.0	-31.9	14.7	0.00e+00	0	43	102	1048576	21	4510
2026-01-04 10:01:32.08	8.91	52.48	-29.8	-31.5	14.9	0.00e+00	0	43	102	1048576	21	4369
2026-01-04 10:01:33.09	8.53	52.18	-29.7	-31.9	15.1	0.00e+00	0	43	102	1048576	20	4591
2026-01-04 10:01:34.10	8.16	51.88	-29.9	-32.3	14.8	0.00e+00	0	43	102	1048576	20	4739
2026-01-04 10:01:35.10	7.80	51.58	-30.0	-32.5	14.7	0.00e+00	0	43	102	1048576	20	4784
2026-01-04 10:01:36.11	7.45	51.28	-30.3	-33.1	14.3	7.00e-07	0	43	102	1048576	20	5025
2026-01-04 10:01:37.12	7.10	50.99	-30.5	-33.4	13.8	3.00e-06	0	43	102	1048576	21	5000
2026-01-04 10:01:38.13	6.76	50.69	-30.5	-33.4	13.8	6.10e-06	0	43	102	1048576	21	4991
2026-01-04 10:01:39.14	6.42	50.39	-30.5	-33.4	13.7	5.30e-06	0	43	102	1048576	21	5016
2026-01-04 10:01:40.15	6.10	50.10	-30.7	-33.7	13.6	5.30e-06	0	43	102	1048576	21	5131
2026-01-04 10:01:41.16	5.77	49.80	-30.8	-34.2	13.3	1.52e-05	0	43	102	1048576	21	5309
2026-01-04 10:01:42.17	5.46	49.51	-30.9	-34.3	13.1	1.83e-05	0	43	102	1048576	21	5358
2026-01-04 10:01:43.18	5.15	49.22	-31.1	-34.5	12.8	4.88e-05	0	43	102	1048576	22	5316
2026-01-04 10:01:44.18	4.85	48.93	-31.2	-34.7	12.6	8.85e-05	0	43	102	1048576	22	5389
2026-01-04 10:01:45.19	4.55	48.64	-31.3	-35.1	12.3	1.30e-04	0	43	102	1048576	22	5574
2026-01-04 10:01:46.19	4.26	48.35	-31.2	-34.7	12.6	1.27e-04	0	43	102	1048576	22	5404
2026-01-04 10:01:47.20	3.98	48.06	-31.0	-34.2	12.9	7.24e-05	0	43	102	1048576	22	5190
2026-01-04 10:01:48.21	3.70	47.77	-31.0	-34.1	12.9	3.66e-05	0	43	102	1048576	22	5157
2026-01-04 10:01:49.22	3.42	47.49	-31.2	-34.6	12.7	8.08e-05	0	43	102	1048576	22	5358
2026-01-04 10:01:50.22	3.15	47.21	-31.2	-34.8	12.4	5.95e-05	0	43	102	1048576	22	5448
2026-01-04 10:01:51.23	2.89	46.92	-31.5	-35.1	11.9	2.26e-04	0	43	102	1048576	23	5474
2026-01-04 10:01:52.24	2.63	46.64	-31.6	-35.4	11.8	4.52e-04	0	43	102	1048576	23	5596
2026-01-04 10:01:53.24	2.37	46.36	-31.6	-35.6	11.6	6.38e-04	0	43	102	1048576	23	5666
2026-01-04 10:01:54.25	2.12	46.08	-31.8	-36.0	11.3	1.17e-03	0	43	102	1048576	23	5871
2026-01-04 10:01:55.26	1.87	45.80	-31.5	-35.2	11.8	8.76e-04	0	43	102	1048576	23	5521
2026-01-04 10:01:56.26	1.63	45.53	-31.4	-34.8	12.1	3.02e-04	0	43	102	1048576	23	5358
2026-01-04 10:01:57.27	1.40	45.25	-31.5	-35.0	12.0	2.60e-04	0	43	102	1048576	23	5437
2026-01-04 10:01:58.27	1.16	44.98	-31.6	-35.3	11.7	3.87e-04	0	43	102	1048576	23	5562
2026-01-04 10:01:59.28	0.93	44.71	-31.4	-34.7	12.1	3.35e-04	0	43	102	1048576	23	5308
2026-01-04 10:02:00.28	0.71	44.44	-31.3	-34.7	12.2	2.54e-04	0	43	102	1048576	23	5299
2026-01-04 10:02:01.28	0.49	44.17	-31.3	-34.6	12.3	1.36e-04	0	43	102	1048576	23	5258
2026-01-04 10:02:02.29	0.27	43.90	-31.6	-35.4	11.6	3.74e-04	0	43	102	1048576	23	5607
2026-01-04 10:02:03.30	0.05	43.63	-31.7	-35.9	11.3	7.90e-04	0	43	102	1048576	23	5825
2026-01-04 10:02:04.30	359.85	43.37	-32.0	-36.7	10.7	2.24e-03	0	43	102	1048576	23	6210
2026-01-04 10:02:05.31	359.64	43.11	-32.0	-36.8	10.7	2.97e-03	0	43	102	1048576	23	6257
2026-01-04 10:02:06.32	359.43	42.84	-32.1	-36.6	10.4	4.56e-03	0	43	102	1048576	24	6053
2026-01-04 10:02:07.32	359.23	42.58	-32.2	-36.8	10.3	5.26e-03	0	43	102	1048576	24	6175
2026-01-04 10:02:08.32	359.04	42.32	-32.2	-37.2	10.0	5.46e-03	0	43	102	1048576	24	6374
2026-01-04 10:02:09.34	358.84	42.06	-32.3	-37.4	9.8	7.54e-03	0	43	102	1048576	24	6489
2026-01-04 10:02:10.34	358.65	41.81	-32.5	-38.1	9.3	1.68e-02	0	43	102	1048576	24	6841
2026-01-04 10:02:11.35	358.46	41.55	-32.3	-37.5	9.8	1.29e-02	0	43	102	1048576	24	6503
2026-01-04 10:02:12.36	358.28	41.30	-32.5	-38.0	9.4	1.62e-02	0	43	102	1048576	24	6802
2026-01-04 10:02:13.37	358.10	41.04	-32.5	-37.7	9.2	1.92e-02	0	43	102	1048576	25	6523
2026-01-04 10:02:14.38	357.92	40.79	-32.6	-37.9	9.1	2.10e-02	0	43	102	1048576	25	6632
2026-01-04 10:02:15.37	357.74	40.55	-32.5	-37.6	9.3	2.05e-02	0	43	102	1048576	25	6452
2026-01-04 10:02:16.37	357.57	40.30	-32.5	-37.6	9.3	1.59e-02	0	43	102	1048576	25	6473
2026-01-04 10:02:17.37	357.40	40.05	-32.3	-37.0	9.7	1.68e-02	0	43	102	1048576	25	6182
2026-01-04 10:02:18.38	357.23	39.81	-32.2	-36.5	10.1	8.42e-03	0	43	102	1048576	25	5894
2026-01-04 10:02:19.39	357.07	39.56	-32.2	-36.5	10.1	6.40e-03	0	43	102	1048576	25	5895
2026-01-04 10:02:20.40	356.90	39.32	-32.2	-36.7	9.9	7.24e-03	0	43	102	1048576	25	5991
2026-01-04 10:02:21.40	356.74	39.08	-32.2	-36.6	10.0	1.04e-02	0	43	102	1048576	25	5980
2026-01-04 10:02:22.41	356.58	38.84	-32.1	-36.1	10.3	5.07e-03	0	43	102	1048576	25	5719
2026-01-04 10:02:23.42	356.43	38.60	-31.9	-35.5	10.8	3.21e-03	0	43	102	1048576	25	5452
2026-01-04 10:02:24.43	356.27	38.36	-31.9	-35.3	11.0	2.10e-03	0	43	102	1048576	25	5382
2026-01-04 10:02:25.43	356.12	38.13	-31.9	-35.4	10.9	2.16e-03	0	43	102	1048576	25	5421
2026-01-04 10:02:26.44	355.97	37.89	-31.9	-35.7	10.7	3.33e-03	0	43	102	1048576	25	5535
2026-01-04 10:02:27.45	355.83	37.66	-32.1	-36.2	10.2	4.26e-03	0	43	102	1048576	25	5800
2026-01-04 10:02:28.46	355.68	37.43	-32.0	-36.0	10.4	6.07e-03	0	43	102	1048576	25	5697
2026-01-04 10:02:29.47	355.54	37.20	-31.8	-35.1	11.0	2.74e-03	0	43	102	1048576	25	5299
2026-01-04 10:02:30.47	355.40	36.97	-31.5	-34.7	11.7	1.03e-03	0	43	102	1048576	24	5238
2026-01-04 10:02:31.47	355.26	36.75	-31.4	-34.4	11.9	4.78e-04	0	43	102	1048576	24	5092
2026-01-04 10:02:32.48	355.12	36.52	-31.3	-34.6	12.1	2.41e-04	0	43	102	1048576	23	5287
2026-01-04 10:02:33.48	354.99	36.30	-31.4	-34.9	11.9	4.06e-04	0	43	102	1048576	23	5414
2026-01-04 10:02:34.49	354.86	36.07	-31.4	-34.9	12.0	3.81e-04	0	43	102	1048576	23	5406
2026-01-04 10:02:35.50	354.72	35.85	-31.4	-35.1	11.8	4.19e-04	0	43	102	1048576	23	5473
2026-01-04 10:02:36.50	354.60	35.63	-31.4	-34.8	11.9	3.94e-04	0	43	102	1048576	23	5380
2026-01-04 10:02:37.51	354.47	35.41	-31.2	-34.5	12.2	2.29e-04	0	43	102	1048576	23	5246
2026-01-04 10:02:38.52	354.34	35.19	-31.2	-34.3	12.3	1.75e-04	0	43	102	1048576	23	5158
2026-01-04 10:02:39.53	354.22	34.98	-31.4	-34.9	12.0	2.80e-04	0	43	102	1048576	23	5377
2026-01-04 10:02:40.54	354.09	34.76	-31.5	-35.3	11.6	5.54e-04	0	43	102	1048576	23	5578
2026-01-04 10:02:41.55	353.97	34.55	-31.7	-35.8	11.3	9.70e-04	0	43	102	1048576	23	5774
2026-01-04 10:02:42.56	353.85	34.33	-31.8	-36.1	11.0	1.29e-03	0	43	102	1048576	23	5940
2026-01-04 10:02:43.56	353.74	34.12	-31.7	-36.1	11.1	1.83e-03	0	43	102	1048576	23	5914
2026-01-04 10:02:44.57	353.62	33.91	-31.6	-35.7	11.3	1.39e-03	0	43	102	1048576	23	5759
2026-01-04 10:02:45.58	353.51	33.70	-31.6	-35.6	11.4	1.00e-03	0	43	102	1048576	23	5698
2026-01-04 10:02:46.58	353.39	33.50	-31.7	-35.8	11.3	1.05e-03	0	43	102	1048576	23	5791
2026-01-04 10:02:47.59	353.28	33.29	-31.8	-36.2	10.9	1.31e-03	0	43	102	1048576	23	5995
2026-01-04 10:02:48.60	353.17	33.09	-31.9	-36.7	10.6	3.28e-03	0	43	102	1048576	23	6244
2026-01-04 10:02:49.60	353.06	32.89	-32.1	-36.7	10.2	4.01e-03	0	43	102	1048576	24	6115
2026-01-04 10:02:50.61	352.96	32.68	-32.1	-36.8	10.1	7.68e-03	0	43	102	1048576	24	6177
2026-01-04 10:02:51.62	352.85	32.48	-32.3	-37.3	9.7	7.93e-03	0	43	102	1048576	24	6454
2026-01-04 10:02:52.63	352.75	32.28	-32.3	-37.6	9.4	1.52e-02	0	43	102	1048576	24	6625
2026-01-04 10:02:53.63	352.64	32.08	-32.5	-38.1	9.1	1.60e-02	0	43	102	1048576	24	6915
2026-01-04 10:02:54.64	352.54	31.89	-32.6	-38.2	8.6	2.98e-02	0	43	102	1048576	25	6843
2026-01-04 10:02:55.65	352.44	31.69	-32.6	-38.4	8.5	4.44e-02	0	43	102	1048576	25	6981
2026-01-04 10:02:56.65	352.34	31.50	-32.7	-38.8	8.2	5.74e-02	0	43	102	1048576	25	7217
2026-01-04 10:02:57.66	352.24	31.30	-32.7	-38.8	8.1	6.97e-02	0	43	102	1048576	25	7269
2026-01-04 10:02:58.66	352.15	31.11	-32.7	-38.7	8.2	5.49e-02	0	43	102	1048576	25	7198
2026-01-04 10:02:59.67	352.05	30.92	-32.7	-38.7	8.2	5.48e-02	0	43	102	1048576	25	7218
2026-01-04 10:03:00.68	351.96	30.73	-32.8	-39.0	8.0	5.33e-02	0	43	102	1048576	25	7350
2026-01-04 10:03:01.69	351.86	30.54	-32.6	-38.4	8.4	6.41e-02	0	43	102	1048576	25	6975
2026-01-04 10:03:02.69	351.77	30.35	-32.4	-37.6	9.0	3.03e-02	0	43	102	1048576	25	6546
2026-01-04 10:03:03.70	351.68	30.17	-32.3	-37.2	9.4	2.14e-02	0	43	102	1048576	25	6311
2026-01-04 10:03:04.71	351.59	29.98	-32.1	-36.5	9.9	1.36e-02	0	43	102	1048576	25	5937
2026-01-04 10:03:05.72	351.50	29.79	-32.1	-36.4	10.0	8.10e-03	0	44	102	1048576	25	5888
2026-01-04 10:03:06.72	351.41	29.61	-32.1	-36.2	10.1	7.47e-03	0	43	102	1048576	25	5810
2026-01-04 10:03:07.72	351.33	29.43	-32.1	-36.2	10.1	7.07e-03	0	43	102	1048576	25	5823
2026-01-04 10:03:08.72	351.24	29.25	-32.0	-36.0	10.2	5.40e-03	0	43	102	1048576	25	5705
2026-01-04 10:03:09.73	351.16	29.07	-32.1	-36.2	10.1	5.37e-03	0	43	102	1048576	25	5785
2026-01-04 10:03:10.74	351.07	28.89	-32.0	-36.1	10.2	6.67e-03	0	43	102	1048576	25	5774
2026-01-04 10:03:11.75	350.99	28.71	-32.1	-36.2	10.1	6.47e-03	0	43	102	1048576	25	5783
2026-01-04 10:03:12.76	350.91	28.54	-32.1	-36.2	10.1	6.82e-03	0	43	102	1048576	25	5803
2026-01-04 10:03:13.75	350.83	28.36	-32.0	-36.2	10.1	6.81e-03	0	43	102	1048576	25	5789
2026-01-04 10:03:14.76	350.75	28.19	-32.1	-36.2	10.1	6.90e-03	0	43	102	1048576	25	5808
2026-01-04 10:03:15.77	350.67	28.01	-32.0	-36.1	10.1	6.88e-03	0	43	102	1048576	25	5753
2026-01-04 10:03:16.78	350.59	27.84	-32.1	-36.5	9.9	7.84e-03	0	43	102	1048576	25	5956
2026-01-04 10:03:17.79	350.51	27.67	-32.0	-36.0	10.3	8.96e-03	0	43	102	1048576	25	5695
2026-01-04 10:03:18.79	350.43	27.50	-31.9	-35.7	10.5	4.41e-03	0	43	102	1048576	25	5574
2026-01-04 10:03:19.80	350.36	27.33	-31.9	-35.6	10.6	3.99e-03	0	43	102	1048576	25	5521
2026-01-04 10:03:20.81	350.28	27.16	-31.8	-35.4	10.6	3.23e-03	0	43	102	1048576	25	5461
2026-01-04 10:03:21.82	350.21	26.99	-31.8	-35.7	10.8	2.50e-03	0	43	102	1048576	24	5662
2026-01-04 10:03:22.83	350.13	26.82	-31.7	-35.6	11.0	1.91e-03	0	43	102	1048576	24	5604
2026-01-04 10:03:23.84	350.06	26.66	-31.6	-35.3	11.1	1.65e-03	0	43	102	1048576	24	5509
2026-01-04 10:03:24.85	349.99	26.49	-31.5	-34.7	11.5	1.06e-03	0	43	102	1048576	24	5257
2026-01-04 10:03:25.85	349.92	26.33	-31.4	-34.5	11.7	6.88e-04	0	43	102	1048576	24	5144
2026-01-04 10:03:26.86	349.85	26.17	-31.3	-34.4	11.8	5.56e-04	0	44	102	1048576	24	5116
2026-01-04 10:03:27.87	349.78	26.00	-31.3	-34.6	12.0	3.94e-04	0	43	102	1048576	23	5297
2026-01-04 10:03:28.87	349.71	25.84	-31.3	-34.9	11.8	4.75e-04	0	43	102	1048576	23	5417
2026-01-04 10:03:29.88	349.64	25.68	-31.2	-34.6	12.0	4.55e-04	0	43	102	1048576	23	5307
2026-01-04 10:03:30.89	349.58	25.52	-31.4	-34.9	11.7	3.70e-04	0	43	102	1048576	23	5444
2026-01-04 10:03:31.89	349.51	25.37	-31.4	-35.0	11.7	6.07e-04	0	43	102	1048576	23	5459
2026-01-04 10:03:32.90	349.44	25.21	-31.4	-35.1	11.6	6.29e-04	0	43	102	1048576	23	5532
2026-01-04 10:03:33.91	349.38	25.05	-31.3	-35.0	11.6	6.83e-04	0	43	102	1048576	23	5451
2026-01-04 10:03:34.92	349.31	24.89	-31.4	-35.1	11.5	6.85e-04	0	43	102	1048576	23	5529
2026-01-04 10:03:35.92	349.25	24.74	-31.4	-35.1	11.5	8.39e-04	0	43	102	1048576	23	5531
2026-01-04 10:03:36.93	349.19	24.59	-31.4	-35.2	11.5	7.56e-04	0	43	102	1048576	23	5546
2026-01-04 10:03:37.94	349.12	24.43	-31.5	-35.3	11.4	9.24e-04	0	43	102	1048576	23	5605
2026-01-04 10:03:38.95	349.06	24.28	-31.2	-34.7	11.8	5.84e-04	0	43	102	1048576	23	5340
2026-01-04 10:03:39.96	349.00	24.13	-31.0	-34.0	12.3	2.60e-04	0	43	102	1048576	23	5082
2026-01-04 10:03:40.96	348.94	23.98	-30.9	-33.7	12.5	1.49e-04	0	43	102	1048576	23	4949
2026-01-04 10:03:41.96	348.88	23.83	-30.8	-33.4	12.7	6.48e-05	0	43	102	1048576	23	4848
2026-01-04 10:03:42.97	348.82	23.68	-30.8	-33.9	12.6	8.54e-05	0	43	102	1048576	22	5152
2026-01-04 10:03:43.98	348.76	23.53	-30.7	-33.6	12.9	6.02e-05	0	43	102	1048576	22	5009
2026-01-04 10:03:44.98	348.71	23.39	-30.7	-33.7	12.8	3.96e-05	0	44	102	1048576	22	5049
2026-01-04 10:03:45.99	348.65	23.24	-30.6	-33.3	13.1	2.59e-05	0	43	102	1048576	22	4902
2026-01-04 10:03:47.00	348.59	23.09	-30.7	-33.6	12.9	2.44e-05	0	43	102	1048576	22	5014
2026-01-04 10:03:48.01	348.53	22.95	-30.6	-33.4	13.0	4.80e-05	0	43	102	1048576	22	4939
2026-01-04 10:03:49.01	348.48	22.81	-30.7	-33.4	13.0	3.12e-05	0	43	102	1048576	22	4964
2026-01-04 10:03:50.02	348.42	22.66	-30.8	-33.8	12.7	5.56e-05	0	43	102	1048576	22	5095
2026-01-04 10:03:51.03	348.37	22.52	-30.7	-33.6	12.9	5.56e-05	0	43	102	1048576	22	5012
2026-01-04 10:03:52.04	348.31	22.38	-30.7	-33.5	12.9	5.03e-05	0	43	102	1048576	22	5008
2026-01-04 10:03:53.05	348.26	22.24	-30.8	-33.8	12.8	5.95e-05	0	43	102	1048576	22	5087
2026-01-04 10:03:54.06	348.21	22.09	-30.7	-33.7	12.8	7.32e-05	0	43	102	1048576	22	5058
2026-01-04 10:03:55.06	348.15	21.96	-30.7	-33.7	12.8	6.94e-05	0	43	102	1048576	22	5050
2026-01-04 10:03:56.06	348.10	21.82	-30.8	-33.9	12.7	8.31e-05	0	43	102	1048576	22	5131
2026-01-04 10:03:57.06	348.05	21.68	-30.7	-33.6	12.8	7.78e-05	0	43	102	1048576	22	5045
2026-01-04 10:03:58.07	348.00	21.54	-30.7	-33.5	12.8	5.87e-05	0	43	102	1048576	22	5009
2026-01-04 10:03:59.08	347.95	21.41	-30.8	-33.8	12.7	6.48e-05	0	43	102	1048576	22	5112
2026-01-04 10:04:00.08	347.90	21.27	-30.7	-33.6	12.8	6.02e-05	0	43	102	1048576	22	5043
2026-01-04 10:04:01.08	347.85	21.14	-30.7	-33.5	12.9	4.95e-05	0	43	102	1048576	22	4995
2026-01-04 10:04:02.09	347.80	21.00	-30.8	-33.8	12.6	8.39e-05	0	43	102	1048576	22	5128
2026-01-04 10:04:03.09	347.75	20.87	-30.7	-33.6	12.8	7.09e-05	0	43	102	1048576	22	5034
2026-01-04 10:04:04.09	347.70	20.74	-30.7	-33.6	12.8	5.95e-05	0	43	102	1048576	22	5037
2026-01-04 10:04:05.10	347.65	20.60	-30.7	-33.8	12.7	7.40e-05	0	43	102	1048576	22	5092
2026-01-04 10:04:06.11	347.61	20.47	-30.7	-33.7	12.7	6.63e-05	0	43	102	1048576	22	5065
2026-01-04 10:04:07.12	347.56	20.34	-30.7	-33.7	12.7	7.32e-05	0	43	102	1048576	22	5096
2026-01-04 10:04:08.13	347.51	20.21	-30.8	-34.0	12.6	1.18e-04	0	43	102	1048576	22	5197
2026-01-04 10:04:09.14	347.47	20.08	-30.8	-34.0	12.5	9.91e-05	0	43	102	1048576	22	5185
2026-01-04 10:04:10.14	347.42	19.95	-30.9	-34.2	12.4	1.31e-04	0	43	102	1048576	22	5272
2026-01-04 10:04:11.14	347.38	19.82	-30.9	-34.2	12.3	1.50e-04	0	43	102	1048576	22	5293
2026-01-04 10:04:12.15	347.33	19.70	-30.9	-34.4	12.2	2.49e-04	0	43	102	1048576	22	5357
2026-01-04 10:04:13.16	347.29	19.57	-30.9	-34.2	12.3	1.98e-04	0	43	102	1048576	22	5262
2026-01-04 10:04:14.17	347.24	19.44	-30.9	-34.4	12.2	1.81e-04	0	43	102	1048576	22	5351
2026-01-04 10:04:15.18	347.20	19.32	-30.9	-34.4	12.2	2.33e-04	0	43	102	1048576	22	5351
2026-01-04 10:04:16.18	347.15	19.19	-31.0	-34.7	12.0	2.48e-04	0	43	102	1048576	22	5472
2026-01-04 10:04:17.19	347.11	19.07	-30.9	-34.4	12.2	2.71e-04	0	43	102	1048576	22	5375
2026-01-04 10:04:18.19	347.07	18.94	-31.0	-34.5	12.1	2.30e-04	0	43	102	1048576	22	5384
2026-01-04 10:04:19.20	347.03	18.82	-31.0	-34.7	12.0	2.96e-04	0	43	102	1048576	22	5475
2026-01-04 10:04:20.21	346.98	18.70	-31.0	-34.6	12.0	3.33e-04	0	43	102	1048576	22	5431
2026-01-04 10:04:21.21	346.94	18.57	-31.1	-34.8	11.9	3.13e-04	0	43	102	1048576	22	5515
2026-01-04 10:04:22.23	346.90	18.45	-31.1	-35.0	11.7	5.60e-04	0	43	102	1048576	22	5620
2026-01-04 10:04:23.23	346.86	18.33	-31.1	-34.9	11.8	4.71e-04	0	43	102	1048576	22	5564
2026-01-04 10:04:24.24	346.82	18.21	-31.2	-35.1	11.7	5.68e-04	0	43	102	1048576	22	5666
2026-01-04 10:04:25.24	346.78	18.09	-31.3	-35.5	11.4	1.09e-03	0	43	102	1048576	22	5848
2026-01-04 10:04:26.24	346.74	17.97	-31.3	-35.5	11.4	9.25e-04	0	43	102	1048576	22	5842
2026-01-04 10:04:27.25	346.70	17.85	-31.3	-35.7	11.2	1.34e-03	0	43	102	1048576	22	5921
2026-01-04 10:04:28.26	346.66	17.73	-31.3	-35.5	11.3	1.11e-03	0	43	102	1048576	22	5838
2026-01-04 10:04:29.27	346.62	17.62	-31.2	-35.2	11.5	7.70e-04	0	43	102	1048576	22	5723
2026-01-04 10:04:30.27	346.59	17.50	-31.2	-35.2	11.5	6.26e-04	0	43	102	1048576	22	5722
2026-01-04 10:04:31.28	346.55	17.38	-31.2	-35.3	11.5	7.83e-04	0	43	102	1048576	22	5760
2026-01-04 10:04:32.29	346.51	17.27	-31.1	-35.0	11.7	7.99e-04	0	43	102	1048576	22	5629
2026-01-04 10:04:33.29	346.47	17.15	-31.2	-35.1	11.6	6.42e-04	0	43	102	1048576	22	5680
2026-01-04 10:04:34.30	346.44	17.04	-31.2	-35.2	11.5	7.73e-04	0	43	102	1048576	22	5714
2026-01-04 10:04:35.31	346.40	16.92	-31.2	-35.2	11.5	6.81e-04	0	43	102	1048576	22	5710
2026-01-04 10:04:36.33	346.36	16.81	-31.2	-35.3	11.4	9.68e-04	0	43	102	1048576	22	5786
2026-01-04 10:04:37.33	346.33	16.69	-31.3	-35.5	11.3	1.17e-03	0	43	102	1048576	22	5854
2026-01-04 10:04:38.33	346.29	16.58	-31.2	-35.4	11.4	9.47e-04	0	43	102	1048576	22	5809
2026-01-04 10:04:39.34	346.25	16.47	-31.2	-35.4	11.3	9.90e-04	0	43	102	1048576	22	5812
2026-01-04 10:04:40.35	346.22	16.36	-31.3	-35.5	11.2	1.19e-03	0	43	102	1048576	22	5879
2026-01-04 10:04:41.36	346.18	16.24	-31.3	-35.5	11.3	1.22e-03	0	43	102	1048576	22	5850
2026-01-04 10:04:42.36	346.15	16.13	-31.4	-35.9	11.0	1.45e-03	0	43	102	1048576	22	6025
2026-01-04 10:04:43.37	346.11	16.02	-31.4	-36.1	10.8	2.51e-03	0	43	102	1048576	22	6137
2026-01-04 10:04:44.37	346.08	15.91	-31.4	-35.9	10.9	2.12e-03	0	43	102	1048576	22	6044
2026-01-04 10:04:45.38	346.05	15.80	-31.5	-36.2	10.7	2.69e-03	0	43	102	1048576	22	6196
2026-01-04 10:04:46.39	346.01	15.69	-31.6	-36.0	10.5	4.05e-03	0	43	102	1048576	23	6001
2026-01-04 10:04:47.40	345.98	15.59	-31.5	-35.8	10.6	3.48e-03	0	43	102	1048576	23	5905
2026-01-04 10:04:48.40	345.95	15.48	-31.6	-36.0	10.4	3.76e-03	0	43	102	1048576	23	6013
2026-01-04 10:04:49.41	345.91	15.37	-31.5	-36.0	10.4	4.47e-03	0	43	102	1048576	23	5994
2026-01-04 10:04:50.42	345.88	15.26	-31.6	-36.0	10.4	4.00e-03	0	43	102	1048576	23	6011
2026-01-04 10:04:51.43	345.85	15.16	-31.6	-36.3	10.2	5.51e-03	0	43	102	1048576	23	6169
2026-01-04 10:04:52.43	345.82	15.05	-31.5	-35.9	10.5	4.86e-03	0	43	102	1048576	23	5945
2026-01-04 10:04:53.44	345.79	14.94	-31.4	-35.6	10.7	3.43e-03	0	43	102	1048576	23	5811
2026-01-04 10:04:54.45	345.75	14.84	-31.4	-35.5	10.8	2.80e-03	0	43	102	1048576	23	5760
2026-01-04 10:04:55.46	345.72	14.73	-31.4	-35.5	10.8	2.59e-03	0	43	102	1048576	23	5783
2026-01-04 10:04:56.45	345.69	14.63	-31.5	-35.8	10.6	2.95e-03	0	43	102	1048576	23	5928
2026-01-04 10:04:57.45	345.66	14.53	-31.5	-35.9	10.5	4.44e-03	0	44	102	1048576	23	5968
2026-01-04 10:04:58.45	345.63	14.42	-31.5	-35.7	10.6	3.70e-03	0	43	102	1048576	23	5879
2026-01-04 10:04:59.46	345.60	14.32	-31.5	-35.9	10.4	4.13e-03	0	43	102	1048576	23	5977
2026-01-04 10:05:00.47	345.57	14.22	-31.5	-35.9	10.4	4.05e-03	0	43	102	1048576	23	5980
2026-01-04 10:05:01.47	345.54	14.12	-31.6	-36.1	10.3	4.99e-03	0	43	102	1048576	23	6080
2026-01-04 10:05:02.47	345.51	14.02	-31.6	-36.2	10.2	5.94e-03	0	43	102	1048576	23	6121
2026-01-04 10:05:03.48	345.48	13.91	-31.6	-36.2	10.2	5.99e-03	0	43	102	1048576	23	6116
2026-01-04 10:05:04.48	345.45	13.81	-31.5	-35.8	10.5	5.63e-03	0	43	102	1048576	23	5941
2026-01-04 10:05:05.49	345.42	13.71	-31.5	-35.9	10.5	4.00e-03	0	43	102	1048576	23	5966
2026-01-04 10:05:06.50	345.40	13.61	-31.5	-35.8	10.5	4.38e-03	0	43	102	1048576	23	5946
2026-01-04 10:05:07.51	345.37	13.51	-31.5	-35.8	10.5	4.04e-03	0	44	102	1048576	23	5938
2026-01-04 10:05:08.51	345.34	13.41	-31.5	-36.0	10.3	4.52e-03	0	43	102	1048576	23	6016
2026-01-04 10:05:09.52	345.31	13.31	-31.5	-35.9	10.4	5.89e-03	0	44	102	1048576	23	5964
2026-01-04 10:05:10.52	345.28	13.22	-31.4	-35.7	10.6	3.82e-03	0	43	102	1048576	23	5866
2026-01-04 10:05:11.53	345.26	13.12	-31.4	-35.8	10.5	4.13e-03	0	43	102	1048576	23	5929
2026-01-04 10:05:12.53	345.23	13.02	-31.4	-35.7	10.5	4.05e-03	0	43	102	1048576	23	5881
2026-01-04 10:05:13.54	345.20	12.92	-31.4	-35.7	10.5	3.81e-03	0	43	102	1048576	23	5911
2026-01-04 10:05:14.54	345.17	12.83	-31.5	-35.8	10.4	4.26e-03	0	43	102	1048576	23	5962
2026-01-04 10:05:15.55	345.15	12.73	-31.4	-35.8	10.4	4.77e-03	0	43	102	1048576	23	5942
2026-01-04 10:05:16.56	345.12	12.63	-31.4	-35.6	10.5	4.11e-03	0	44	102	1048576	23	5855
2026-01-04 10:05:17.56	345.10	12.54	-31.4	-35.6	10.6	3.81e-03	0	44	102	1048576	23	5831
2026-01-04 10:05:18.57	345.07	12.44	-31.4	-35.7	10.5	3.72e-03	0	43	102	1048576	23	5876
2026-01-04 10:05:19.57	345.04	12.35	-31.4	-35.7	10.5	4.39e-03	0	43	102	1048576	23	5877
2026-01-04 10:05:20.58	345.02	12.25	-31.4	-35.5	10.6	3.44e-03	0	44	102	1048576	23	5819
2026-01-04 10:05:21.59	344.99	12.16	-31.4	-35.6	10.6	3.63e-03	0	44	102	1048576	23	5831
2026-01-04 10:05:22.59	344.97	12.06	-31.3	-35.5	10.6	3.25e-03	0	43	102	1048576	23	5783
2026-01-04 10:05:23.60	344.94	11.97	-31.4	-35.8	10.4	3.77e-03	0	44	102	1048576	23	5944
2026-01-04 10:05:24.61	344.92	11.88	-31.4	-35.5	10.5	4.28e-03	0	44	102	1048576	23	5830
2026-01-04 10:05:25.62	344.89	11.78	-31.4	-35.6	10.4	3.89e-03	0	43	102	1048576	23	5879
2026-01-04 10:05:26.62	344.87	11.69	-31.4	-35.6	10.5	4.72e-03	0	44	102	1048576	23	5872
2026-01-04 10:05:27.62	344.84	11.60	-31.4	-35.5	10.5	3.87e-03	0	43	102	1048576	23	5826
2026-01-04 10:05:28.63	344.82	11.51	-31.3	-35.5	10.6	4.07e-03	0	43	102	1048576	23	5817
2026-01-04 10:05:29.63	344.79	11.41	-31.4	-35.6	10.4	3.93e-03	0	43	102	1048576	23	5879
2026-01-04 10:05:30.64	344.77	11.32	-31.4	-35.7	10.4	4.87e-03	0	43	102	1048576	23	5911
2026-01-04 10:05:31.65	344.75	11.23	-31.4	-35.8	10.3	4.84e-03	0	44	102	1048576	23	5963
2026-01-04 10:05:32.66	344.72	11.14	-31.4	-35.6	10.4	5.09e-03	0	43	102	1048576	23	5868
2026-01-04 10:05:33.66	344.70	11.05	-31.3	-35.5	10.5	3.62e-03	0	44	102	1048576	23	5829
2026-01-04 10:05:34.67	344.68	10.96	-31.3	-35.5	10.5	4.02e-03	0	44	102	1048576	23	5836
2026-01-04 10:05:35.68	344.65	10.87	-31.4	-35.8	10.3	4.64e-03	0	43	102	1048576	23	5959
2026-01-04 10:05:36.69	344.63	10.78	-31.4	-35.8	10.3	6.05e-03	0	43	102	1048576	23	5966
2026-01-04 10:05:37.70	344.61	10.69	-31.4	-35.9	10.3	4.82e-03	0	43	102	1048576	23	6002
2026-01-04 10:05:38.70	344.58	10.60	-31.5	-36.2	9.9	7.79e-03	0	44	102	1048576	23	6191
2026-01-04 10:05:39.71	344.56	10.51	-31.5	-36.3	9.9	9.41e-03	0	44	102	1048576	23	6202
2026-01-04 10:05:40.72	344.54	10.43	-31.5	-36.1	10.0	8.67e-03	0	43	102	1048576	23	6130
2026-01-04 10:05:41.72	344.52	10.34	-31.5	-36.2	9.9	7.95e-03	0	43	102	1048576	23	6155
2026-01-04 10:05:42.73	344.50	10.25	-31.4	-36.0	10.1	7.46e-03	0	43	102	1048576	23	6059
2026-01-04 10:05:43.74	344.47	10.16	-31.5	-36.1	10.0	7.28e-03	0	44	102	1048576	23	6129
2026-01-04 10:05:44.74	344.45	10.08	-31.5	-36.2	9.9	9.44e-03	0	43	102	1048576	23	6183
2026-01-04 10:05:45.75	344.43	9.99	-31.4	-36.0	10.1	8.20e-03	0	43	102	1048576	23	6067
2026-01-04 10:05:46.75	344.41	9.91	-31.4	-35.9	10.1	7.05e-03	0	43	102	1048576	23	6035
2026-01-04 10:05:47.75	344.39	9.82	-31.4	-36.0	10.0	7.32e-03	0	43	102	1048576	23	6088
2026-01-04 10:05:48.77	344.37	9.73	-31.5	-36.4	9.7	9.47e-03	0	44	102	1048576	23	6303
2026-01-04 10:05:49.77	344.35	9.65	-31.5	-36.2	9.8	1.14e-02	0	43	102	1048576	23	6204
2026-01-04 10:05:50.78	344.33	9.56	-31.5	-36.2	9.9	8.92e-03	0	43	102	1048576	23	6170
2026-01-04 10:05:51.78	344.31	9.48	-31.5	-36.4	9.7	1.06e-02	0	43	102	1048576	23	6309
2026-01-04 10:05:52.79	344.28	9.39	-31.6	-36.6	9.5	1.34e-02	0	43	102	1048576	23	6432
2026-01-04 10:05:53.79	344.26	9.31	-31.6	-36.7	9.4	1.51e-02	0	44	102	1048576	23	6458
2026-01-04 10:05:54.80	344.24	9.23	-31.6	-36.8	9.4	1.58e-02	0	43	102	1048576	23	6501
2026-01-04 10:05:55.80	344.22	9.14	-31.6	-36.8	9.4	1.75e-02	0	44	102	1048576	23	6527
2026-01-04 10:05:56.80	344.20	9.06	-31.6	-36.7	9.4	1.82e-02	0	43	102	1048576	23	6466
