passes_logs/2026/01/04/R2M6_AANII_01/R2M6_AANII_01__20260104_015449_AQUA_rec.log

#Pass ID: 20260104_015449_AQUA
#Satellite: AQUA
#Configuration: AQUA
#almurnet v.1.7.20240730
#Start time: 2026-01-04 01:54:49

#Version: 2.2.20231116
#Station: R2M6_AANII_01
#Location: 30.233357 lon 59.946436 lat
#TLE: 1 27424U 02022A   25365.92641127  .00002078  00000+0  42628-3 0  9999
#TLE: 2 27424  98.4058 327.1196 0001962  94.7781 340.6230 14.61783896258835

#Time	Az	El	Level	Level2	SNR	BER	BlckErr	Temp	State	Recorded	gain1	gain2
2026-01-04 01:54:49.15	18.08	6.94	-31.7	-46.7	3.8	7.47e-01	0	42	0	0	24	20361
2026-01-04 01:54:50.15	18.09	7.03	-31.7	-47.0	3.8	7.48e-01	0	42	104	0	24	20950
2026-01-04 01:54:51.17	18.10	7.11	-31.7	-47.0	3.8	7.43e-01	0	42	104	0	24	20792
2026-01-04 01:54:52.17	18.11	7.19	-31.7	-46.8	3.8	7.45e-01	0	42	104	0	24	20446
2026-01-04 01:54:53.17	18.12	7.27	-31.7	-46.7	3.8	7.44e-01	0	42	104	0	24	20309
2026-01-04 01:54:54.18	18.13	7.36	-31.8	-47.2	3.8	7.46e-01	0	42	104	0	24	21012
2026-01-04 01:54:55.18	18.14	7.44	-31.9	-47.3	3.8	7.48e-01	0	42	104	0	24	21294
2026-01-04 01:54:56.19	18.14	7.52	-32.0	-47.8	3.8	7.44e-01	0	42	104	0	24	22230
2026-01-04 01:54:57.19	18.15	7.60	-31.8	-47.0	3.8	7.50e-01	0	42	104	0	24	20673
2026-01-04 01:54:58.20	18.16	7.69	-31.6	-46.1	3.8	7.46e-01	0	42	104	0	24	19208
2026-01-04 01:54:59.20	18.17	7.77	-31.3	-45.8	3.8	7.43e-01	0	42	104	0	23	19053
2026-01-04 01:55:00.21	18.18	7.86	-31.1	-45.0	3.8	7.44e-01	0	42	104	0	23	17780
2026-01-04 01:55:01.22	18.19	7.94	-30.9	-44.4	3.8	7.45e-01	0	42	104	0	23	17035
2026-01-04 01:55:02.23	18.20	8.03	-30.8	-44.6	3.8	7.48e-01	0	42	104	0	22	17583
2026-01-04 01:55:03.23	18.21	8.11	-30.9	-45.0	3.8	7.42e-01	0	42	104	0	22	18093
2026-01-04 01:55:04.24	18.22	8.20	-30.7	-44.2	3.8	7.44e-01	0	42	104	0	22	17134
2026-01-04 01:55:05.25	18.23	8.29	-30.6	-44.3	3.8	7.47e-01	0	42	104	0	21	17607
2026-01-04 01:55:06.26	18.24	8.37	-30.5	-44.1	3.8	7.45e-01	0	42	104	0	21	17334
2026-01-04 01:55:07.26	18.25	8.46	-30.5	-44.0	3.8	7.45e-01	0	42	104	0	21	17221
2026-01-04 01:55:08.27	18.26	8.55	-30.5	-44.3	3.8	7.45e-01	0	42	104	0	21	17531
2026-01-04 01:55:09.28	18.27	8.64	-30.6	-44.1	3.8	7.43e-01	0	42	104	0	22	16993
2026-01-04 01:55:10.28	18.28	8.72	-30.7	-44.4	3.8	7.46e-01	0	42	104	0	22	17264
2026-01-04 01:55:11.29	18.29	8.81	-30.9	-45.0	3.8	7.43e-01	0	42	104	0	22	18091
2026-01-04 01:55:12.29	18.30	8.90	-31.0	-45.1	3.8	7.43e-01	0	42	104	0	22	18289
2026-01-04 01:55:13.29	18.31	8.99	-31.2	-45.2	3.8	7.45e-01	0	42	104	0	23	18123
2026-01-04 01:55:14.30	18.32	9.08	-31.4	-45.9	3.8	7.44e-01	0	42	104	0	23	19037
2026-01-04 01:55:15.30	18.33	9.17	-31.6	-46.3	3.8	7.48e-01	0	42	104	0	24	19407
2026-01-04 01:55:16.31	18.34	9.26	-31.7	-46.5	3.8	7.46e-01	0	42	104	0	24	19801
2026-01-04 01:55:17.31	18.35	9.35	-31.9	-47.1	3.8	7.46e-01	0	42	104	0	24	20796
2026-01-04 01:55:18.31	18.36	9.44	-32.0	-47.7	3.8	7.44e-01	0	42	104	0	24	21846
2026-01-04 01:55:19.31	18.37	9.53	-32.2	-48.1	3.8	7.43e-01	0	42	104	0	25	22320
2026-01-04 01:55:20.32	18.38	9.62	-32.3	-48.6	3.8	7.46e-01	0	42	104	0	25	23346
2026-01-04 01:55:21.33	18.39	9.71	-32.5	-49.2	3.8	7.45e-01	0	42	104	0	25	24766
2026-01-04 01:55:22.33	18.40	9.80	-32.6	-49.5	3.8	7.44e-01	0	42	104	0	26	24946
2026-01-04 01:55:23.35	18.41	9.90	-32.8	-50.1	3.8	7.42e-01	0	42	104	0	26	26411
2026-01-04 01:55:24.36	18.42	9.99	-32.9	-50.7	3.8	7.45e-01	0	43	104	0	26	28056
2026-01-04 01:55:25.36	18.43	10.08	-33.0	-51.2	3.8	7.45e-01	0	42	104	0	26	29401
2026-01-04 01:55:26.37	18.44	10.18	-33.0	-51.7	3.8	7.46e-01	0	42	104	0	26	30996
2026-01-04 01:55:27.38	18.45	10.27	-33.1	-51.6	3.8	7.43e-01	0	42	104	0	27	30228
2026-01-04 01:55:28.38	18.46	10.37	-33.1	-51.6	3.8	7.46e-01	0	42	104	0	27	30356
2026-01-04 01:55:29.39	18.47	10.46	-33.1	-51.5	3.8	7.46e-01	0	42	104	0	27	29970
2026-01-04 01:55:30.39	18.48	10.56	-33.1	-51.4	3.8	7.47e-01	0	42	104	0	27	29634
2026-01-04 01:55:31.40	18.49	10.65	-33.1	-51.2	3.8	7.44e-01	0	42	104	0	27	29011
2026-01-04 01:55:32.40	18.50	10.75	-33.1	-51.0	3.8	7.46e-01	0	43	104	0	27	28430
2026-01-04 01:55:33.41	18.51	10.85	-33.1	-50.9	3.8	7.47e-01	0	42	104	0	27	28079
2026-01-04 01:55:34.42	18.52	10.94	-33.1	-51.3	3.8	7.44e-01	0	42	104	0	26	29393
2026-01-04 01:55:35.43	18.53	11.04	-33.0	-50.6	3.8	7.46e-01	0	43	104	0	26	27541
2026-01-04 01:55:36.44	18.54	11.14	-32.8	-49.7	3.8	7.45e-01	0	42	104	0	26	25185
2026-01-04 01:55:37.44	18.55	11.24	-32.6	-48.6	3.8	7.46e-01	0	43	104	0	26	22834
2026-01-04 01:55:38.45	18.56	11.34	-32.3	-48.0	3.8	7.47e-01	0	43	104	0	25	22030
2026-01-04 01:55:39.45	18.58	11.43	-32.0	-46.9	3.8	7.44e-01	0	43	104	0	25	20052
2026-01-04 01:55:40.46	18.59	11.53	-31.8	-46.7	3.8	7.46e-01	0	43	104	0	24	19884
2026-01-04 01:55:41.47	18.60	11.64	-31.8	-46.6	3.8	7.46e-01	0	43	104	0	24	19759
2026-01-04 01:55:42.48	18.61	11.74	-31.9	-47.0	3.8	7.45e-01	0	42	104	0	24	20401
2026-01-04 01:55:43.48	18.62	11.84	-32.0	-47.2	3.8	7.44e-01	0	43	104	0	24	20798
2026-01-04 01:55:44.49	18.63	11.94	-32.1	-47.3	3.8	7.48e-01	0	42	104	0	25	20619
2026-01-04 01:55:45.50	18.64	12.04	-32.1	-47.3	3.8	7.46e-01	0	43	104	0	25	20597
2026-01-04 01:55:46.50	18.65	12.14	-31.9	-46.5	3.8	7.46e-01	0	43	104	0	25	19252
2026-01-04 01:55:47.50	18.66	12.25	-31.6	-46.0	3.8	7.46e-01	0	43	104	0	24	18816
2026-01-04 01:55:48.51	18.68	12.35	-31.4	-45.1	3.8	7.44e-01	0	43	104	0	24	17459
2026-01-04 01:55:49.51	18.69	12.45	-29.9	-43.5	3.8	7.45e-01	0	43	104	0	23	17141
2026-01-04 01:55:50.52	18.70	12.56	-30.8	-44.4	3.8	7.45e-01	0	43	104	0	22	17115
2026-01-04 01:55:51.53	18.71	12.66	-30.6	-44.1	3.8	7.46e-01	0	43	104	0	21	17028
2026-01-04 01:55:52.53	18.72	12.77	-30.4	-43.7	3.8	7.47e-01	0	43	104	0	21	16733
2026-01-04 01:55:53.54	18.73	12.87	-30.1	-43.0	3.8	7.44e-01	0	43	104	0	21	15799
2026-01-04 01:55:54.54	18.75	12.98	-30.1	-43.3	3.8	7.50e-01	0	43	104	0	20	16428
2026-01-04 01:55:55.55	18.76	13.09	-30.0	-43.1	3.8	7.44e-01	0	43	104	0	20	16300
2026-01-04 01:55:56.56	18.77	13.20	-30.1	-43.4	3.8	7.42e-01	0	43	104	0	20	16565
2026-01-04 01:55:57.57	18.78	13.30	-30.2	-43.2	3.8	7.46e-01	0	42	104	0	21	16031
2026-01-04 01:55:58.57	18.79	13.41	-30.4	-43.7	3.8	7.44e-01	0	43	104	0	21	16640
2026-01-04 01:55:59.57	18.80	13.52	-30.6	-44.2	3.8	7.43e-01	0	43	104	0	21	17273
2026-01-04 01:56:00.58	18.82	13.63	-30.7	-43.9	3.8	7.46e-01	0	43	104	0	22	16598
2026-01-04 01:56:01.58	18.83	13.74	-30.8	-44.3	3.8	7.50e-01	0	43	104	0	22	17039
2026-01-04 01:56:02.58	18.84	13.85	-31.0	-44.8	3.8	7.48e-01	0	43	104	0	22	17696
2026-01-04 01:56:03.59	18.85	13.96	-31.3	-45.2	3.8	7.47e-01	0	43	104	0	23	17881
2026-01-04 01:56:04.60	18.87	14.08	-31.5	-46.0	3.8	7.46e-01	0	43	104	0	23	18993
2026-01-04 01:56:05.60	18.88	14.19	-31.7	-46.2	3.8	7.43e-01	0	43	104	0	24	19104
2026-01-04 01:56:06.60	18.89	14.30	-32.0	-47.1	3.8	7.43e-01	0	43	104	0	24	20402
2026-01-04 01:56:07.60	18.90	14.41	-32.2	-47.4	3.8	7.45e-01	0	43	104	0	25	20684
2026-01-04 01:56:08.61	18.92	14.53	-32.4	-48.1	3.8	7.43e-01	0	43	104	0	25	21986
2026-01-04 01:56:09.62	18.93	14.64	-32.4	-48.1	3.8	7.44e-01	0	43	104	0	25	22071
2026-01-04 01:56:10.62	18.94	14.76	-32.3	-47.7	3.8	7.45e-01	0	43	104	0	25	21228
2026-01-04 01:56:11.63	18.95	14.87	-32.3	-47.9	3.8	7.47e-01	0	43	104	0	25	21554
2026-01-04 01:56:12.63	18.97	14.99	-32.5	-48.6	3.8	7.43e-01	0	43	104	0	25	22934
2026-01-04 01:56:13.64	18.98	15.11	-32.8	-49.2	3.8	7.45e-01	0	43	104	0	26	23835
2026-01-04 01:56:14.65	18.99	15.23	-33.0	-50.3	3.8	7.43e-01	0	43	104	0	26	26338
2026-01-04 01:56:15.65	19.01	15.34	-33.2	-50.8	3.8	7.46e-01	0	43	104	0	27	27343
2026-01-04 01:56:16.66	19.02	15.46	-33.3	-51.6	3.8	7.45e-01	0	43	104	0	27	29521
2026-01-04 01:56:17.66	19.03	15.58	-33.4	-51.9	3.8	7.48e-01	0	43	104	0	27	30548
2026-01-04 01:56:18.67	19.04	15.70	-33.3	-51.7	3.8	7.44e-01	0	43	104	0	27	29816
2026-01-04 01:56:19.68	19.06	15.83	-33.3	-51.5	3.8	7.46e-01	0	43	104	0	27	29284
2026-01-04 01:56:20.68	19.07	15.95	-33.3	-51.5	3.8	7.47e-01	0	43	104	0	27	29128
2026-01-04 01:56:21.69	19.09	16.07	-33.3	-51.4	3.8	7.45e-01	0	43	104	0	27	28834
2026-01-04 01:56:22.69	19.10	16.19	-33.3	-51.4	3.8	7.49e-01	0	43	104	0	27	28840
2026-01-04 01:56:23.69	19.11	16.32	-33.3	-51.5	3.8	7.46e-01	0	43	104	0	27	29235
2026-01-04 01:56:24.70	19.13	16.44	-33.3	-51.1	3.8	7.46e-01	0	43	104	0	27	28032
2026-01-04 01:56:25.71	19.14	16.57	-33.1	-50.1	3.8	7.44e-01	0	43	104	0	27	25538
2026-01-04 01:56:26.71	19.15	16.69	-32.9	-49.0	3.8	7.45e-01	0	43	104	0	27	22954
2026-01-04 01:56:27.71	19.17	16.82	-32.6	-48.2	3.8	7.44e-01	0	43	104	0	26	21607
2026-01-04 01:56:28.72	19.18	16.95	-32.3	-47.4	3.8	7.45e-01	0	43	104	0	25	20503
2026-01-04 01:56:29.73	19.20	17.08	-31.9	-46.0	3.8	7.48e-01	0	43	104	0	25	18353
2026-01-04 01:56:30.74	19.21	17.20	-31.9	-46.4	3.8	7.47e-01	0	43	104	0	24	19287
2026-01-04 01:56:31.74	19.23	17.33	-32.0	-47.0	3.8	7.41e-01	0	43	104	0	24	20210
2026-01-04 01:56:32.75	19.24	17.46	-32.2	-47.2	3.8	7.47e-01	0	43	104	0	25	20095
2026-01-04 01:56:33.75	19.25	17.60	-32.1	-46.7	3.8	7.47e-01	0	43	104	0	25	19297
2026-01-04 01:56:34.76	19.27	17.73	-31.9	-46.7	3.8	7.43e-01	0	43	104	0	24	19580
2026-01-04 01:56:35.77	19.28	17.86	-31.8	-46.1	3.8	7.48e-01	0	43	104	0	24	18768
2026-01-04 01:56:36.77	19.30	17.99	-31.5	-45.3	3.8	7.47e-01	0	43	104	0	24	17545
2026-01-04 01:56:37.78	19.31	18.13	-31.2	-44.8	3.8	7.44e-01	0	43	104	0	23	17252
2026-01-04 01:56:38.79	19.33	18.26	-30.8	-43.7	3.8	7.42e-01	0	43	104	0	23	15823
2026-01-04 01:56:39.79	19.34	18.40	-30.5	-43.2	3.8	7.45e-01	0	43	104	0	22	15671
2026-01-04 01:56:40.80	19.36	18.54	-30.2	-43.0	3.8	7.45e-01	0	43	104	0	21	15711
2026-01-04 01:56:41.81	19.38	18.68	-29.9	-42.3	3.8	7.45e-01	0	43	104	0	21	15001
2026-01-04 01:56:42.82	19.39	18.82	-29.8	-42.5	3.8	7.42e-01	0	43	104	0	20	15459
2026-01-04 01:56:43.82	19.41	18.95	-29.8	-42.4	3.8	7.45e-01	0	43	104	0	20	15455
2026-01-04 01:56:44.83	19.42	19.09	-29.9	-42.7	3.8	7.41e-01	0	43	104	0	20	15701
2026-01-04 01:56:45.84	19.44	19.24	-30.1	-43.1	3.8	7.43e-01	0	43	104	0	20	16238
2026-01-04 01:56:46.84	19.45	19.38	-30.3	-43.3	3.8	7.42e-01	0	43	104	0	21	16054
2026-01-04 01:56:47.85	19.47	19.52	-30.6	-44.0	3.8	7.45e-01	0	43	104	0	21	16893
2026-01-04 01:56:48.85	19.49	19.66	-30.9	-44.6	3.8	7.41e-01	0	43	104	0	22	17303
2026-01-04 01:56:49.86	19.50	19.81	-31.1	-45.0	3.8	7.46e-01	0	43	104	0	22	17772
2026-01-04 01:56:50.87	19.52	19.96	-31.2	-44.9	3.8	7.45e-01	0	43	104	0	23	17346
2026-01-04 01:56:51.88	19.54	20.10	-31.4	-45.5	3.8	7.44e-01	0	43	104	0	23	18104
2026-01-04 01:56:52.88	19.55	20.25	-31.7	-45.7	3.8	7.44e-01	0	43	104	0	24	18078
2026-01-04 01:56:53.88	19.57	20.40	-31.9	-46.5	3.8	7.43e-01	0	43	104	0	24	19369
2026-01-04 01:56:54.89	19.59	20.55	-32.1	-46.8	3.8	7.44e-01	0	43	104	0	25	19565
2026-01-04 01:56:55.90	19.60	20.70	-32.4	-47.8	3.8	7.44e-01	0	43	104	0	25	21192
2026-01-04 01:56:56.91	19.62	20.85	-32.7	-48.2	3.8	7.47e-01	0	43	104	0	26	21638
2026-01-04 01:56:57.92	19.64	21.01	-32.6	-48.0	3.8	7.45e-01	0	43	104	0	26	21194
2026-01-04 01:56:58.92	19.66	21.16	-32.4	-47.9	3.8	7.43e-01	0	43	104	0	25	21389
2026-01-04 01:56:59.93	19.67	21.31	-32.3	-47.5	3.8	7.46e-01	0	43	104	0	25	20540
2026-01-04 01:57:00.94	19.69	21.47	-32.2	-47.0	3.8	7.45e-01	0	43	104	0	25	19798
2026-01-04 01:57:01.94	19.71	21.63	-32.4	-47.6	3.8	7.45e-01	0	43	104	0	25	20858
2026-01-04 01:57:02.95	19.73	21.78	-32.6	-48.4	3.8	7.45e-01	0	43	104	0	25	22262
2026-01-04 01:57:03.95	19.75	21.94	-32.9	-49.1	3.8	7.48e-01	0	43	104	0	26	23322
2026-01-04 01:57:04.96	19.76	22.10	-33.1	-43.0	5.0	7.17e-01	0	43	104	0	27	11198
2026-01-04 01:57:05.96	19.78	22.26	-33.3	-44.2	7.6	6.50e-01	0	43	104	0	27	12568
2026-01-04 01:57:06.96	19.80	22.42	-33.5	-46.5	5.8	6.89e-01	0	43	102	524288	27	16083
2026-01-04 01:57:07.97	19.82	22.59	-33.5	-45.8	6.3	6.78e-01	0	43	102	524288	27	14823
2026-01-04 01:57:08.97	19.84	22.75	-33.4	-45.3	6.7	6.69e-01	0	43	102	524288	27	14048
2026-01-04 01:57:09.98	19.86	22.92	-33.4	-45.1	6.9	6.66e-01	0	43	102	524288	27	13779
2026-01-04 01:57:10.99	19.88	23.09	-33.4	-45.0	7.0	6.65e-01	0	43	102	524288	27	13614
2026-01-04 01:57:11.99	19.90	23.25	-33.4	-44.9	7.1	6.62e-01	0	43	102	524288	27	13487
2026-01-04 01:57:13.00	19.92	23.42	-33.5	-45.9	6.2	6.81e-01	0	43	102	524288	27	15046
2026-01-04 01:57:14.00	19.94	23.59	-33.5	-45.4	6.6	6.71e-01	0	43	102	524288	27	14239
2026-01-04 01:57:15.01	19.96	23.76	-33.5	-45.5	6.6	6.73e-01	0	43	102	524288	27	14380
2026-01-04 01:57:16.02	19.98	23.94	-33.3	-43.9	8.0	6.44e-01	0	43	102	524288	27	12092
2026-01-04 01:57:17.03	20.00	24.11	-33.1	-41.9	9.7	6.24e-01	0	43	102	524288	27	9892
2026-01-04 01:57:18.03	20.02	24.29	-32.8	-40.6	11.3	6.12e-01	0	43	102	524288	26	8785
2026-01-04 01:57:19.04	20.04	24.47	-32.5	-38.8	12.8	6.06e-01	0	43	102	524288	26	7465
2026-01-04 01:57:20.04	20.06	24.64	-32.1	-37.2	14.1	6.06e-01	0	43	102	524288	26	6488
2026-01-04 01:57:21.04	20.08	24.82	-31.7	-36.6	15.2	6.03e-01	0	43	102	524288	24	6372
2026-01-04 01:57:22.04	20.10	25.00	-31.3	-35.4	16.1	6.02e-01	0	43	102	524288	24	5756
2026-01-04 01:57:23.05	20.13	25.18	-31.0	-34.2	17.0	6.02e-01	0	43	102	524288	24	5254
2026-01-04 01:57:24.05	20.15	25.37	-30.6	-34.2	17.7	6.01e-01	0	43	102	524288	22	5454
2026-01-04 01:57:25.06	20.17	25.55	-30.3	-33.4	18.2	6.03e-01	0	43	102	524288	22	5118
2026-01-04 01:57:26.07	20.19	25.74	-30.1	-32.8	18.6	6.04e-01	0	43	102	524288	22	4906
2026-01-04 01:57:27.07	20.21	25.92	-29.9	-32.8	18.9	6.04e-01	0	43	102	524288	21	5034
2026-01-04 01:57:28.08	20.24	26.11	-29.8	-33.1	19.1	6.03e-01	0	43	102	524288	20	5225
2026-01-04 01:57:29.09	20.26	26.31	-29.9	-33.1	19.0	6.03e-01	0	43	102	524288	20	5248
2026-01-04 01:57:30.09	20.28	26.50	-29.7	-32.6	19.3	6.02e-01	0	43	102	524288	20	5052
2026-01-04 01:57:31.10	20.31	26.69	-29.6	-32.3	19.5	6.06e-01	0	43	102	524288	20	4948
2026-01-04 01:57:32.11	20.33	26.89	-29.5	-32.1	19.6	6.01e-01	0	43	102	524288	20	4877
2026-01-04 01:57:33.11	20.36	27.08	-29.5	-32.6	19.7	6.05e-01	0	43	102	524288	19	5168
2026-01-04 01:57:34.11	20.38	27.28	-29.5	-32.7	19.7	6.03e-01	0	43	102	524288	19	5178
2026-01-04 01:57:35.12	20.40	27.48	-29.4	-32.4	19.8	6.02e-01	0	43	102	524288	19	5094
2026-01-04 01:57:36.12	20.43	27.68	-29.5	-32.6	19.7	6.06e-01	0	43	102	524288	19	5156
2026-01-04 01:57:37.12	20.45	27.88	-29.4	-32.3	19.9	6.02e-01	0	43	102	524288	19	5042
2026-01-04 01:57:38.12	20.48	28.08	-29.3	-32.1	20.0	6.02e-01	0	43	102	524288	19	4977
2026-01-04 01:57:39.13	20.50	28.29	-29.3	-32.1	20.1	6.04e-01	0	43	102	524288	19	4962
2026-01-04 01:57:40.13	20.53	28.50	-29.3	-32.1	20.0	6.02e-01	0	43	102	524288	19	4981
2026-01-04 01:57:41.13	20.56	28.70	-29.2	-31.8	20.2	6.03e-01	0	43	102	524288	19	4863
2026-01-04 01:57:42.14	20.58	28.92	-29.2	-31.8	20.2	6.05e-01	0	43	102	524288	19	4872
2026-01-04 01:57:43.15	20.61	29.13	-29.2	-31.8	20.2	6.08e-01	0	43	102	524288	19	4861
2026-01-04 01:57:44.15	20.64	29.34	-29.2	-31.9	20.2	6.02e-01	0	43	102	524288	19	4914
2026-01-04 01:57:45.15	20.66	29.56	-29.3	-32.0	20.1	6.03e-01	0	43	102	524288	19	4933
2026-01-04 01:57:46.16	20.69	29.78	-29.3	-32.1	20.1	6.01e-01	0	43	102	524288	19	4971
2026-01-04 01:57:47.17	20.72	30.00	-29.1	-31.7	20.3	6.03e-01	0	43	102	524288	19	4825
2026-01-04 01:57:48.17	20.75	30.22	-29.2	-31.8	20.3	6.03e-01	0	43	102	524288	19	4852
2026-01-04 01:57:49.18	20.78	30.44	-29.1	-31.7	20.4	6.03e-01	0	43	102	524288	19	4821
2026-01-04 01:57:50.19	20.81	30.67	-29.1	-31.7	20.4	6.02e-01	0	43	102	524288	19	4818
2026-01-04 01:57:51.19	20.84	30.89	-29.2	-31.9	20.3	6.01e-01	0	43	102	524288	19	4883
2026-01-04 01:57:52.19	20.87	31.12	-29.2	-31.9	20.2	6.05e-01	0	43	102	524288	19	4906
2026-01-04 01:57:53.20	20.90	31.35	-29.3	-32.0	20.2	6.03e-01	0	43	102	524288	19	4928
2026-01-04 01:57:54.21	20.93	31.59	-29.3	-32.2	20.1	6.03e-01	0	43	102	524288	19	4998
2026-01-04 01:57:55.21	20.96	31.82	-29.2	-31.9	20.3	6.05e-01	0	43	102	524288	19	4893
2026-01-04 01:57:56.23	20.99	32.06	-29.3	-32.1	20.1	6.03e-01	0	43	102	524288	19	4964
2026-01-04 01:57:57.23	21.02	32.30	-29.4	-32.2	20.1	6.04e-01	0	43	102	524288	19	5008
2026-01-04 01:57:58.24	21.06	32.54	-29.4	-32.4	20.0	6.02e-01	0	43	102	524288	19	5054
2026-01-04 01:57:59.25	21.09	32.79	-29.5	-32.6	19.9	6.01e-01	0	43	102	524288	19	5122
2026-01-04 01:58:00.26	21.12	33.03	-29.4	-32.4	20.0	6.04e-01	0	43	102	524288	19	5048
2026-01-04 01:58:01.26	21.16	33.28	-29.4	-32.4	20.0	6.03e-01	0	43	102	524288	19	5074
2026-01-04 01:58:02.27	21.19	33.53	-29.5	-32.2	19.7	6.03e-01	0	43	102	524288	20	4896
2026-01-04 01:58:03.27	21.22	33.78	-29.6	-32.3	19.7	6.03e-01	0	43	102	524288	20	4912
2026-01-04 01:58:04.28	21.26	34.04	-29.6	-32.4	19.7	6.04e-01	0	43	102	524288	20	4959
2026-01-04 01:58:05.28	21.30	34.29	-29.6	-32.3	19.7	6.01e-01	0	43	102	524288	20	4924
2026-01-04 01:58:06.28	21.33	34.55	-29.7	-32.6	19.6	6.01e-01	0	43	102	524288	20	5028
2026-01-04 01:58:07.29	21.37	34.81	-29.9	-33.2	19.2	6.02e-01	0	43	102	524288	20	5236
2026-01-04 01:58:08.30	21.41	35.07	-30.0	-33.4	19.1	6.02e-01	0	43	102	524288	20	5340
2026-01-04 01:58:09.30	21.44	35.34	-30.3	-33.6	18.7	6.02e-01	0	43	102	524288	21	5281
2026-01-04 01:58:10.30	21.48	35.60	-30.3	-33.8	18.5	6.02e-01	0	43	102	524288	21	5356
2026-01-04 01:58:11.31	21.52	35.88	-30.3	-33.6	18.6	6.00e-01	0	43	102	524288	21	5301
2026-01-04 01:58:12.32	21.56	36.15	-30.4	-33.9	18.5	6.01e-01	0	43	102	524288	21	5410
2026-01-04 01:58:13.33	21.60	36.43	-30.5	-34.2	18.3	6.03e-01	0	43	102	524288	21	5502
2026-01-04 01:58:14.34	21.64	36.71	-30.4	-34.0	18.4	6.01e-01	0	43	102	524288	21	5443
2026-01-04 01:58:15.35	21.68	36.99	-30.6	-34.5	18.1	6.03e-01	0	43	102	524288	21	5625
2026-01-04 01:58:16.36	21.73	37.27	-30.8	-34.6	17.7	6.03e-01	0	43	102	524288	22	5562
2026-01-04 01:58:17.37	21.77	37.56	-31.0	-35.3	17.2	6.03e-01	0	43	102	524288	22	5866
2026-01-04 01:58:18.38	21.81	37.85	-30.9	-34.9	17.5	6.03e-01	0	43	102	524288	22	5696
2026-01-04 01:58:19.38	21.86	38.14	-31.1	-35.0	17.2	6.03e-01	0	43	102	524288	23	5616
2026-01-04 01:58:20.39	21.90	38.43	-31.3	-35.6	16.8	6.04e-01	0	43	102	524288	23	5883
2026-01-04 01:58:21.39	21.95	38.72	-31.3	-35.4	16.9	6.02e-01	0	43	102	524288	23	5801
2026-01-04 01:58:22.40	22.00	39.02	-31.4	-35.9	16.6	6.03e-01	0	43	102	524288	23	6009
2026-01-04 01:58:23.41	22.04	39.33	-31.4	-35.8	16.6	6.05e-01	0	43	102	524288	23	5993
2026-01-04 01:58:24.41	22.09	39.63	-31.4	-35.9	16.6	6.01e-01	0	43	102	524288	23	6009
2026-01-04 01:58:25.42	22.14	39.94	-31.3	-35.6	16.8	6.03e-01	0	43	102	524288	23	5883
2026-01-04 01:58:26.43	22.19	40.25	-31.3	-35.5	16.9	6.03e-01	0	43	102	524288	23	5825
2026-01-04 01:58:27.43	22.24	40.56	-31.4	-35.8	16.6	6.06e-01	0	43	102	524288	23	5981
2026-01-04 01:58:28.44	22.29	40.88	-31.3	-35.4	16.9	6.03e-01	0	43	102	524288	23	5786
2026-01-04 01:58:29.45	22.35	41.20	-30.9	-34.2	17.7	6.05e-01	0	43	102	524288	23	5282
2026-01-04 01:58:30.45	22.40	41.52	-30.5	-33.1	18.5	6.05e-01	0	43	102	524288	23	4852
2026-01-04 01:58:31.46	22.46	41.84	-30.1	-32.6	19.0	6.03e-01	0	43	102	524288	22	4804
2026-01-04 01:58:32.47	22.51	42.17	-29.9	-32.1	19.4	6.03e-01	0	43	102	524288	22	4625
2026-01-04 01:58:33.48	22.57	42.51	-30.0	-32.3	19.3	6.04e-01	0	43	102	524288	22	4687
2026-01-04 01:58:34.49	22.63	42.84	-30.1	-33.0	19.1	6.00e-01	0	43	102	524288	21	5052
2026-01-04 01:58:35.50	22.69	43.18	-29.7	-32.1	19.7	6.01e-01	0	43	102	524288	21	4722
2026-01-04 01:58:36.51	22.75	43.52	-29.6	-31.9	19.8	6.03e-01	0	43	102	524288	21	4664
2026-01-04 01:58:37.52	22.81	43.87	-29.7	-32.0	19.7	6.03e-01	0	43	102	524288	21	4697
2026-01-04 01:58:38.53	22.87	44.21	-29.6	-31.8	19.8	6.02e-01	0	43	102	524288	21	4616
2026-01-04 01:58:39.54	22.94	44.57	-29.5	-31.5	20.0	6.03e-01	0	43	102	524288	21	4545
2026-01-04 01:58:40.54	23.00	44.92	-29.6	-31.8	19.9	6.02e-01	0	43	102	524288	21	4628
2026-01-04 01:58:41.54	23.07	45.27	-29.5	-31.6	20.0	6.04e-01	0	43	102	524288	21	4577
2026-01-04 01:58:42.55	23.14	45.63	-29.4	-31.2	20.2	6.02e-01	0	43	102	524288	21	4454
2026-01-04 01:58:43.56	23.21	46.00	-29.7	-31.9	19.9	6.04e-01	0	43	102	524288	21	4674
2026-01-04 01:58:44.57	23.28	46.37	-29.7	-32.0	19.7	6.03e-01	0	43	102	524288	21	4705
2026-01-04 01:58:45.57	23.35	46.73	-29.6	-31.8	19.8	6.03e-01	0	43	102	524288	21	4622
2026-01-04 01:58:46.58	23.43	47.11	-29.7	-32.0	19.7	6.01e-01	0	43	102	524288	21	4702
2026-01-04 01:58:47.59	23.51	47.49	-29.7	-31.9	19.8	6.02e-01	0	43	102	524288	21	4678
2026-01-04 01:58:48.59	23.59	47.87	-29.6	-31.9	19.9	6.02e-01	0	43	102	524288	21	4649
2026-01-04 01:58:49.59	23.67	48.25	-29.5	-31.4	20.1	6.04e-01	0	43	102	524288	21	4505
2026-01-04 01:58:50.60	23.75	48.64	-29.4	-31.2	20.3	6.03e-01	0	43	102	524288	21	4450
2026-01-04 01:58:51.61	23.83	49.03	-29.7	-31.9	19.9	6.05e-01	0	43	102	524288	21	4668
2026-01-04 01:58:52.62	23.92	49.43	-29.8	-32.2	19.7	6.02e-01	0	43	102	524288	21	4767
2026-01-04 01:58:53.61	24.01	49.82	-29.7	-32.0	19.8	6.04e-01	0	43	102	524288	21	4675
2026-01-04 01:58:54.62	24.10	50.22	-29.4	-31.6	20.3	6.04e-01	0	43	102	524288	20	4668
2026-01-04 01:58:55.63	24.19	50.63	-29.5	-32.0	20.1	6.03e-01	0	43	102	524288	20	4806
2026-01-04 01:58:56.64	24.29	51.04	-29.6	-32.2	20.0	6.02e-01	0	43	102	524288	20	4854
2026-01-04 01:58:57.65	24.39	51.45	-29.3	-31.5	20.4	6.02e-01	0	43	102	524288	20	4646
2026-01-04 01:58:58.66	24.49	51.87	-29.3	-31.5	20.4	6.06e-01	0	43	102	524288	20	4633
2026-01-04 01:58:59.66	24.60	52.29	-29.4	-31.6	20.4	6.02e-01	0	43	102	524288	20	4677
2026-01-04 01:59:00.65	24.70	52.71	-29.0	-30.7	20.8	6.04e-01	0	43	102	524288	20	4381
2026-01-04 01:59:01.67	24.81	53.14	-28.8	-30.7	21.2	6.03e-01	0	43	102	524288	19	4482
2026-01-04 01:59:02.67	24.93	53.57	-29.0	-31.2	20.9	6.04e-01	0	43	102	524288	19	4647
2026-01-04 01:59:03.68	25.04	54.01	-28.9	-31.0	21.0	6.04e-01	0	43	102	524288	19	4578
2026-01-04 01:59:04.69	25.16	54.45	-29.1	-31.4	20.8	6.03e-01	0	43	102	524288	19	4709
2026-01-04 01:59:05.70	25.29	54.89	-29.0	-31.1	21.0	6.00e-01	0	43	102	524288	19	4603
2026-01-04 01:59:06.70	25.41	55.34	-29.2	-31.8	20.7	6.04e-01	0	43	102	524288	19	4817
2026-01-04 01:59:07.71	25.55	55.79	-29.4	-32.2	20.3	6.03e-01	0	43	102	524288	19	4958
2026-01-04 01:59:08.71	25.68	56.24	-29.5	-32.1	20.1	6.02e-01	0	43	102	524288	20	4828
2026-01-04 01:59:09.72	25.82	56.70	-29.8	-32.6	19.8	6.04e-01	0	43	102	524288	20	5009
2026-01-04 01:59:10.72	25.97	57.16	-29.6	-32.2	20.0	6.02e-01	0	43	102	524288	20	4870
2026-01-04 01:59:11.72	26.12	57.63	-30.0	-33.3	19.4	6.03e-01	0	43	102	524288	20	5237
2026-01-04 01:59:12.73	26.27	58.10	-30.0	-33.1	19.5	6.02e-01	0	43	102	524288	20	5189
2026-01-04 01:59:13.74	26.43	58.57	-30.1	-33.1	19.2	6.01e-01	0	43	102	524288	21	5046
2026-01-04 01:59:14.75	26.60	59.05	-30.2	-33.3	19.1	6.00e-01	0	43	102	524288	21	5140
2026-01-04 01:59:15.75	26.77	59.53	-30.2	-33.2	19.2	6.03e-01	0	43	102	524288	21	5109
2026-01-04 01:59:16.76	26.95	60.01	-30.4	-33.7	18.9	6.03e-01	0	43	102	524288	21	5284
2026-01-04 01:59:17.77	27.14	60.50	-30.5	-34.1	18.5	6.03e-01	0	43	102	524288	21	5448
2026-01-04 01:59:18.78	27.33	61.00	-30.6	-34.2	18.5	6.04e-01	0	43	102	524288	21	5472
2026-01-04 01:59:19.78	27.53	61.49	-30.7	-34.0	18.4	6.02e-01	0	43	102	524288	22	5285
2026-01-04 01:59:20.79	27.74	61.99	-30.8	-34.5	18.1	6.04e-01	0	43	102	524288	22	5466
2026-01-04 01:59:21.80	27.96	62.50	-31.0	-34.9	17.9	6.02e-01	0	43	102	524288	22	5641
2026-01-04 01:59:22.81	28.19	63.00	-31.2	-35.1	17.4	6.03e-01	0	43	102	524288	23	5602
2026-01-04 01:59:23.82	28.43	63.52	-31.3	-35.1	17.4	6.02e-01	0	43	102	524288	23	5635
2026-01-04 01:59:24.83	28.67	64.03	-31.6	-36.1	16.7	6.04e-01	0	43	102	524288	23	6085
2026-01-04 01:59:25.84	28.93	64.55	-31.9	-36.6	16.1	6.01e-01	0	43	102	524288	24	6200
2026-01-04 01:59:26.85	29.21	65.07	-31.8	-36.3	16.3	6.02e-01	0	43	102	524288	24	6038
2026-01-04 01:59:27.86	29.49	65.59	-32.3	-37.5	15.1	6.03e-01	0	43	102	524288	25	6577
2026-01-04 01:59:28.87	29.79	66.12	-32.2	-37.1	15.3	6.03e-01	0	43	102	524288	25	6332
2026-01-04 01:59:29.88	30.10	66.65	-32.3	-37.6	15.0	6.06e-01	0	43	102	524288	25	6613
2026-01-04 01:59:30.88	30.42	67.18	-32.2	-37.2	15.3	6.02e-01	0	43	102	524288	25	6402
2026-01-04 01:59:31.89	30.77	67.72	-32.2	-37.2	15.3	6.03e-01	0	43	102	524288	25	6425
2026-01-04 01:59:32.90	31.13	68.26	-32.5	-38.3	14.5	6.06e-01	0	43	102	524288	25	7012
2026-01-04 01:59:33.91	31.52	68.80	-32.4	-37.9	14.8	6.02e-01	0	43	102	524288	25	6768
2026-01-04 01:59:34.91	31.92	69.34	-32.3	-37.6	15.0	6.03e-01	0	43	102	524288	25	6613
2026-01-04 01:59:35.92	32.35	69.89	-32.5	-38.4	14.5	6.02e-01	0	43	102	524288	25	7073
2026-01-04 01:59:36.92	32.80	70.43	-32.7	-38.6	13.8	6.05e-01	0	43	102	524288	26	7097
2026-01-04 01:59:37.92	33.27	70.97	-32.2	-36.8	15.3	6.05e-01	0	43	102	524288	26	6085
2026-01-04 01:59:38.93	33.79	71.53	-32.5	-37.8	14.6	6.03e-01	0	43	102	524288	26	6636
2026-01-04 01:59:39.94	34.33	72.08	-32.4	-37.4	14.7	6.06e-01	0	43	102	524288	26	6412
2026-01-04 01:59:40.94	34.91	72.63	-32.2	-36.6	15.4	6.02e-01	0	43	102	524288	26	5980
2026-01-04 01:59:41.94	35.52	73.18	-32.4	-37.2	15.0	6.05e-01	0	43	102	524288	26	6268
2026-01-04 01:59:42.95	36.19	73.74	-32.2	-36.5	15.5	6.05e-01	0	43	102	524288	26	5913
2026-01-04 01:59:43.95	36.90	74.29	-31.9	-35.7	16.1	6.00e-01	0	43	102	524288	26	5548
2026-01-04 01:59:44.97	37.68	74.85	-31.9	-36.3	16.0	6.05e-01	0	43	102	524288	25	5928
2026-01-04 01:59:45.97	38.50	75.41	-31.7	-35.6	16.5	6.02e-01	0	43	102	524288	25	5602
2026-01-04 01:59:46.97	39.39	75.96	-31.8	-35.7	16.4	6.03e-01	0	43	102	524288	25	5647
2026-01-04 01:59:47.98	40.36	76.51	-31.6	-35.0	16.9	6.03e-01	0	43	102	524288	25	5357
2026-01-04 01:59:48.99	41.42	77.07	-31.4	-35.2	17.1	6.02e-01	0	43	102	524288	24	5525
2026-01-04 01:59:49.99	42.57	77.61	-31.3	-34.7	17.4	6.03e-01	0	43	102	524288	24	5346
2026-01-04 01:59:50.99	43.83	78.16	-31.1	-34.0	17.8	6.01e-01	0	43	102	524288	24	5074
2026-01-04 01:59:52.00	45.22	78.70	-30.8	-33.7	18.4	6.01e-01	0	43	102	524288	23	5050
2026-01-04 01:59:53.00	46.74	79.23	-30.6	-33.2	18.6	6.02e-01	0	43	102	524288	23	4863
2026-01-04 01:59:54.00	48.42	79.76	-30.4	-33.1	19.1	6.01e-01	0	43	102	524288	22	4932
2026-01-04 01:59:55.01	50.30	80.28	-30.3	-33.0	19.1	6.04e-01	0	43	102	524288	22	4908
2026-01-04 01:59:56.01	52.37	80.79	-29.9	-31.8	19.8	6.02e-01	0	43	102	524288	22	4509
2026-01-04 01:59:57.01	54.69	81.29	-29.9	-32.5	19.7	6.03e-01	0	43	102	524288	21	4847
2026-01-04 01:59:58.02	57.32	81.77	-29.4	-31.6	20.6	6.02e-01	0	43	102	524288	20	4646
2026-01-04 01:59:59.03	60.27	82.24	-29.8	-32.6	20.0	6.02e-01	0	43	102	524288	20	4981
2026-01-04 02:00:00.03	63.56	82.68	-29.5	-32.0	20.3	6.05e-01	0	43	102	524288	20	4774
2026-01-04 02:00:01.04	67.30	83.10	-29.5	-31.8	20.4	6.01e-01	0	43	102	524288	20	4698
2026-01-04 02:00:02.04	71.47	83.49	-29.7	-32.5	20.1	6.03e-01	0	43	102	524288	20	4942
2026-01-04 02:00:03.05	76.18	83.83	-29.9	-32.8	19.8	6.02e-01	0	43	102	524288	20	5048
2026-01-04 02:00:04.06	81.42	84.14	-29.7	-32.4	20.0	6.03e-01	0	43	102	524288	20	4910
2026-01-04 02:00:05.06	87.13	84.39	-30.2	-33.0	19.5	6.03e-01	0	43	102	524288	21	5019
2026-01-04 02:00:06.06	93.30	84.57	-30.2	-33.1	19.5	6.05e-01	0	43	102	524288	21	5028
2026-01-04 02:00:07.06	99.82	84.69	-30.1	-32.9	19.7	6.05e-01	0	43	102	524288	21	4960
2026-01-04 02:00:08.07	106.64	84.75	-30.5	-33.9	19.0	6.03e-01	0	43	102	524288	21	5322
2026-01-04 02:00:09.08	113.48	84.72	-30.5	-33.9	19.0	6.03e-01	0	43	102	524288	21	5344
2026-01-04 02:00:10.08	120.11	84.62	-30.8	-34.3	18.5	6.02e-01	0	43	102	524288	22	5372
2026-01-04 02:00:11.09	126.48	84.46	-31.3	-35.0	17.7	6.02e-01	0	43	102	524288	23	5536
2026-01-04 02:00:12.10	132.41	84.23	-31.2	-34.7	18.0	6.00e-01	0	43	102	524288	23	5383
2026-01-04 02:00:13.10	137.78	83.94	-31.5	-35.5	17.4	6.03e-01	0	43	102	524288	23	5751
2026-01-04 02:00:14.10	142.63	83.61	-31.8	-36.2	16.8	6.01e-01	0	43	102	524288	24	5951
2026-01-04 02:00:15.11	147.01	83.24	-32.1	-37.0	16.1	6.02e-01	0	43	102	524288	24	6321
2026-01-04 02:00:16.11	150.87	82.83	-32.5	-38.0	15.0	6.03e-01	0	43	102	524288	25	6761
2026-01-04 02:00:17.11	154.30	82.40	-32.4	-37.4	15.5	6.02e-01	0	43	102	524288	25	6432
2026-01-04 02:00:18.12	157.38	81.94	-32.2	-36.8	15.9	6.03e-01	0	43	102	524288	25	6120
2026-01-04 02:00:19.13	160.11	81.46	-31.8	-35.6	16.8	6.01e-01	0	43	102	524288	25	5574
2026-01-04 02:00:20.13	162.53	80.96	-31.8	-35.6	16.9	6.02e-01	0	43	102	524288	25	5534
2026-01-04 02:00:21.14	164.71	80.45	-31.8	-35.5	16.8	6.03e-01	0	43	102	524288	25	5536
2026-01-04 02:00:22.15	166.66	79.93	-31.9	-35.8	16.7	6.02e-01	0	43	102	524288	25	5637
2026-01-04 02:00:23.16	168.41	79.40	-32.4	-37.3	15.5	6.04e-01	0	43	102	524288	25	6397
2026-01-04 02:00:24.16	169.98	78.87	-31.9	-36.0	16.5	6.02e-01	0	43	102	524288	25	5727
2026-01-04 02:00:25.17	171.42	78.33	-31.9	-35.9	16.6	6.03e-01	0	43	102	524288	25	5702
2026-01-04 02:00:26.17	172.72	77.79	-31.8	-35.5	16.8	6.04e-01	0	43	102	524288	25	5540
2026-01-04 02:00:27.18	173.91	77.24	-32.2	-36.8	15.9	6.02e-01	0	43	102	524288	25	6165
2026-01-04 02:00:28.18	174.99	76.69	-32.1	-36.6	16.1	6.03e-01	0	43	102	524288	25	6025
2026-01-04 02:00:29.19	175.99	76.13	-32.4	-37.4	15.4	6.04e-01	0	43	102	524288	25	6460
2026-01-04 02:00:30.20	176.92	75.58	-32.4	-37.7	15.3	6.03e-01	0	43	102	524288	25	6593
2026-01-04 02:00:31.20	177.76	75.02	-32.2	-36.9	15.8	6.04e-01	0	43	102	524288	25	6198
2026-01-04 02:00:32.21	178.55	74.47	-32.4	-37.5	15.4	6.03e-01	0	43	102	524288	25	6475
2026-01-04 02:00:33.21	179.27	73.91	-32.6	-37.8	14.7	6.02e-01	0	43	102	524288	26	6560
2026-01-04 02:00:34.22	179.96	73.35	-32.0	-35.7	16.3	6.02e-01	0	43	102	524288	26	5494
2026-01-04 02:00:35.22	180.59	72.80	-32.2	-36.4	15.8	6.04e-01	0	43	102	524288	26	5843
2026-01-04 02:00:36.23	181.18	72.24	-32.5	-37.3	15.1	6.03e-01	0	43	102	524288	26	6292
2026-01-04 02:00:37.24	181.74	71.69	-31.9	-35.4	16.5	6.02e-01	0	43	102	524288	26	5367
2026-01-04 02:00:38.25	182.26	71.13	-31.7	-35.3	16.8	6.04e-01	0	43	102	524288	25	5458
2026-01-04 02:00:39.26	182.75	70.58	-32.1	-36.6	16.0	6.03e-01	0	43	102	524288	25	6055
2026-01-04 02:00:40.26	183.21	70.04	-32.1	-36.7	16.0	6.03e-01	0	43	102	524288	25	6102
2026-01-04 02:00:41.27	183.65	69.49	-32.0	-36.3	16.1	6.04e-01	0	43	102	524288	25	5891
2026-01-04 02:00:42.27	184.05	68.95	-31.9	-35.9	16.5	6.05e-01	0	43	102	524288	25	5700
2026-01-04 02:00:43.28	184.44	68.40	-32.3	-37.4	15.4	6.03e-01	0	43	102	524288	25	6454
2026-01-04 02:00:44.29	184.81	67.86	-32.3	-37.2	15.5	6.04e-01	0	43	102	524288	25	6370
2026-01-04 02:00:45.30	185.16	67.32	-32.2	-37.0	15.7	6.04e-01	0	43	102	524288	25	6244
2026-01-04 02:00:46.30	185.49	66.79	-32.1	-36.5	16.1	6.03e-01	0	43	102	524288	25	5988
2026-01-04 02:00:47.31	185.81	66.26	-32.0	-36.4	16.1	6.02e-01	0	43	102	524288	25	5942
2026-01-04 02:00:48.31	186.11	65.74	-31.9	-36.0	16.4	6.01e-01	0	43	102	524288	25	5749
2026-01-04 02:00:49.32	186.40	65.21	-31.9	-36.1	16.2	6.03e-01	0	43	102	524288	25	5849
2026-01-04 02:00:50.32	186.67	64.69	-31.5	-34.8	17.2	6.01e-01	0	43	102	524288	25	5239
2026-01-04 02:00:51.33	186.93	64.17	-31.3	-34.5	17.6	6.02e-01	0	43	102	524288	24	5247
2026-01-04 02:00:52.34	187.19	63.65	-31.1	-34.1	18.0	6.04e-01	0	43	102	524288	24	5059
2026-01-04 02:00:53.35	187.43	63.14	-31.0	-33.8	18.2	6.04e-01	0	43	102	524288	24	4956
2026-01-04 02:00:54.36	187.66	62.63	-30.9	-34.1	18.3	6.01e-01	0	43	102	524288	23	5198
2026-01-04 02:00:55.37	187.88	62.12	-30.9	-34.2	18.1	6.02e-01	0	43	102	524288	23	5236
2026-01-04 02:00:56.37	188.09	61.62	-30.6	-33.2	18.7	6.02e-01	0	43	102	524288	23	4870
2026-01-04 02:00:57.37	188.29	61.13	-30.6	-33.2	18.8	6.03e-01	0	43	102	524288	23	4864
2026-01-04 02:00:58.37	188.49	60.64	-30.5	-33.1	18.9	6.05e-01	0	43	102	524288	23	4808
2026-01-04 02:00:59.38	188.67	60.14	-30.7	-33.4	18.7	6.03e-01	0	43	102	524288	23	4935
2026-01-04 02:01:00.39	188.86	59.65	-30.8	-33.9	18.3	6.02e-01	0	43	102	524288	23	5145
2026-01-04 02:01:01.39	189.03	59.17	-30.6	-33.1	18.8	6.02e-01	0	43	102	524288	23	4834
2026-01-04 02:01:02.39	189.20	58.70	-30.4	-32.8	19.0	6.03e-01	0	43	102	524288	23	4722
2026-01-04 02:01:03.40	189.36	58.22	-30.7	-33.5	18.6	6.03e-01	0	43	102	524288	23	4970
2026-01-04 02:01:04.41	189.52	57.75	-31.1	-34.6	17.9	6.03e-01	0	43	102	524288	23	5403
2026-01-04 02:01:05.42	189.67	57.28	-31.3	-35.3	17.4	6.04e-01	0	43	102	524288	23	5721
2026-01-04 02:01:06.43	189.82	56.81	-31.3	-35.2	17.4	6.03e-01	0	43	102	524288	23	5679
2026-01-04 02:01:07.43	189.96	56.35	-30.7	-33.5	18.5	6.04e-01	0	43	102	524288	23	4986
2026-01-04 02:01:08.43	190.10	55.90	-30.5	-32.8	19.0	6.04e-01	0	43	102	524288	23	4730
2026-01-04 02:01:09.44	190.23	55.44	-30.7	-33.4	18.7	6.04e-01	0	43	102	524288	23	4941
2026-01-04 02:01:10.44	190.36	54.99	-30.8	-33.7	18.4	6.03e-01	0	43	102	524288	23	5053
2026-01-04 02:01:11.44	190.48	54.55	-30.2	-32.7	19.3	6.05e-01	0	43	102	524288	22	4816
2026-01-04 02:01:12.45	190.61	54.11	-29.8	-32.2	19.9	6.04e-01	0	43	102	524288	21	4735
2026-01-04 02:01:13.46	190.72	53.67	-29.5	-31.4	20.4	6.02e-01	0	43	102	524288	21	4487
2026-01-04 02:01:14.46	190.84	53.24	-29.4	-31.2	20.5	6.04e-01	0	43	102	524288	21	4418
2026-01-04 02:01:15.46	190.95	52.81	-29.4	-31.6	20.5	6.02e-01	0	43	102	524288	20	4666
2026-01-04 02:01:16.47	191.06	52.38	-29.4	-31.8	20.4	6.03e-01	0	43	102	524288	20	4707
2026-01-04 02:01:17.48	191.16	51.95	-29.5	-31.9	20.4	6.03e-01	0	43	102	524288	20	4761
2026-01-04 02:01:18.48	191.26	51.54	-29.7	-32.5	20.0	6.01e-01	0	43	102	524288	20	4950
2026-01-04 02:01:19.49	191.36	51.12	-29.8	-32.8	19.8	6.01e-01	0	43	102	524288	20	5053
2026-01-04 02:01:20.49	191.46	50.71	-29.9	-33.1	19.6	6.05e-01	0	43	102	524288	20	5160
2026-01-04 02:01:21.50	191.55	50.30	-30.0	-33.3	19.5	6.01e-01	0	43	102	524288	20	5240
2026-01-04 02:01:22.51	191.65	49.89	-29.9	-32.9	19.7	6.03e-01	0	43	102	524288	20	5109
2026-01-04 02:01:23.52	191.74	49.49	-29.8	-32.8	19.8	6.03e-01	0	43	102	524288	20	5054
2026-01-04 02:01:24.52	191.82	49.10	-30.1	-33.4	19.5	6.05e-01	0	43	102	524288	20	5280
2026-01-04 02:01:25.53	191.91	48.70	-30.2	-33.2	19.3	6.01e-01	0	43	102	524288	21	5097
2026-01-04 02:01:26.54	191.99	48.31	-30.2	-33.4	19.2	6.04e-01	0	43	102	524288	21	5154
2026-01-04 02:01:27.55	192.07	47.92	-30.2	-33.3	19.2	6.01e-01	0	43	102	524288	21	5129
2026-01-04 02:01:28.56	192.15	47.54	-30.2	-33.3	19.2	6.02e-01	0	43	102	524288	21	5112
2026-01-04 02:01:29.56	192.23	47.16	-30.4	-33.8	18.9	6.03e-01	0	43	102	524288	21	5305
2026-01-04 02:01:30.57	192.31	46.78	-30.6	-34.3	18.6	6.02e-01	0	43	102	524288	21	5506
2026-01-04 02:01:31.58	192.38	46.41	-30.6	-33.9	18.6	6.02e-01	0	43	102	524288	22	5231
2026-01-04 02:01:32.59	192.45	46.04	-30.6	-33.9	18.5	6.03e-01	0	43	102	524288	22	5253
2026-01-04 02:01:33.59	192.52	45.67	-30.6	-33.9	18.5	6.03e-01	0	43	102	524288	22	5256
2026-01-04 02:01:34.59	192.59	45.31	-30.6	-33.7	18.7	6.04e-01	0	43	102	524288	22	5154
2026-01-04 02:01:35.60	192.66	44.95	-30.4	-33.4	18.8	6.03e-01	0	43	102	524288	22	5041
2026-01-04 02:01:36.60	192.72	44.60	-30.6	-33.8	18.6	6.04e-01	0	43	102	524288	22	5220
2026-01-04 02:01:37.61	192.79	44.25	-30.8	-34.3	18.2	6.03e-01	0	43	102	524288	22	5411
2026-01-04 02:01:38.62	192.85	43.90	-30.9	-34.8	18.0	6.01e-01	0	43	102	524288	22	5590
2026-01-04 02:01:39.62	192.92	43.55	-31.0	-34.9	17.8	6.03e-01	0	43	102	524288	22	5657
2026-01-04 02:01:40.63	192.98	43.21	-30.6	-33.7	18.6	6.03e-01	0	43	102	524288	22	5187
2026-01-04 02:01:41.64	193.04	42.87	-30.2	-32.6	19.3	6.02e-01	0	43	102	524288	22	4789
2026-01-04 02:01:42.64	193.09	42.53	-30.0	-32.1	19.6	6.03e-01	0	43	102	524288	22	4607
2026-01-04 02:01:43.65	193.15	42.20	-30.1	-32.4	19.4	6.04e-01	0	43	102	524288	22	4708
2026-01-04 02:01:44.66	193.21	41.87	-30.3	-33.1	19.0	6.03e-01	0	43	102	524288	22	4947
2026-01-04 02:01:45.67	193.26	41.54	-30.5	-33.6	18.6	6.05e-01	0	43	102	524288	22	5144
2026-01-04 02:01:46.67	193.32	41.22	-30.6	-33.7	18.5	6.01e-01	0	43	102	524288	22	5192
2026-01-04 02:01:47.68	193.37	40.90	-30.6	-33.7	18.6	6.03e-01	0	43	102	524288	22	5191
2026-01-04 02:01:48.69	193.42	40.58	-30.6	-33.9	18.4	6.01e-01	0	43	102	524288	22	5270
2026-01-04 02:01:49.70	193.47	40.26	-30.5	-33.7	18.6	6.03e-01	0	43	102	524288	22	5162
2026-01-04 02:01:50.71	193.52	39.95	-30.5	-33.5	18.7	6.01e-01	0	43	102	524288	22	5113
2026-01-04 02:01:51.72	193.57	39.64	-30.6	-33.8	18.5	6.03e-01	0	43	102	524288	22	5207
2026-01-04 02:01:52.72	193.62	39.33	-30.6	-34.0	18.4	6.04e-01	0	43	102	524288	22	5292
2026-01-04 02:01:53.72	193.67	39.03	-30.6	-33.9	18.4	6.03e-01	0	43	102	524288	22	5265
2026-01-04 02:01:54.72	193.71	38.73	-30.6	-33.8	18.5	6.02e-01	0	43	102	524288	22	5230
2026-01-04 02:01:55.72	193.76	38.43	-30.6	-33.8	18.5	6.02e-01	0	43	102	524288	22	5201
2026-01-04 02:01:56.73	193.81	38.14	-30.7	-34.2	18.2	6.03e-01	0	43	102	524288	22	5359
2026-01-04 02:01:57.73	193.85	37.85	-30.7	-34.2	18.2	6.01e-01	0	43	102	524288	22	5387
2026-01-04 02:01:58.74	193.89	37.56	-30.8	-34.4	18.1	6.01e-01	0	43	102	524288	22	5466
2026-01-04 02:01:59.74	193.94	37.27	-30.9	-34.7	17.9	6.02e-01	0	43	102	524288	22	5563
2026-01-04 02:02:00.75	193.98	36.98	-30.8	-34.5	18.0	6.04e-01	0	43	102	524288	22	5483
2026-01-04 02:02:01.75	194.02	36.70	-30.7	-34.2	18.2	6.01e-01	0	43	102	524288	22	5375
2026-01-04 02:02:02.76	194.06	36.42	-30.8	-34.4	18.1	6.04e-01	0	43	102	524288	22	5451
2026-01-04 02:02:03.77	194.10	36.14	-30.7	-34.2	18.2	6.01e-01	0	43	102	524288	22	5379
2026-01-04 02:02:04.78	194.14	35.87	-30.5	-33.7	18.5	6.02e-01	0	43	102	524288	22	5174
2026-01-04 02:02:05.78	194.18	35.60	-30.5	-33.6	18.6	6.03e-01	0	43	102	524288	22	5133
2026-01-04 02:02:06.78	194.22	35.33	-30.5	-33.6	18.6	6.03e-01	0	43	102	524288	22	5149
2026-01-04 02:02:07.79	194.26	35.06	-30.4	-33.4	18.7	6.04e-01	0	43	102	524288	22	5059
2026-01-04 02:02:08.80	194.29	34.79	-30.5	-33.8	18.4	6.04e-01	0	43	102	524288	22	5215
2026-01-04 02:02:09.80	194.33	34.53	-30.5	-33.5	18.5	5.99e-01	0	43	102	524288	22	5125
2026-01-04 02:02:10.81	194.37	34.27	-30.1	-32.5	19.1	6.03e-01	0	43	102	524288	22	4773
2026-01-04 02:02:11.81	194.40	34.02	-29.7	-32.0	19.8	6.00e-01	0	43	102	524288	21	4685
2026-01-04 02:02:12.82	194.44	33.76	-29.5	-31.5	20.1	6.03e-01	0	43	102	524288	21	4526
2026-01-04 02:02:13.83	194.47	33.50	-29.4	-31.7	20.3	6.04e-01	0	43	102	524288	20	4717
2026-01-04 02:02:14.84	194.51	33.25	-29.3	-31.5	20.4	6.04e-01	0	43	102	524288	20	4653
2026-01-04 02:02:15.84	194.54	33.00	-29.2	-31.2	20.6	6.05e-01	0	43	102	524288	20	4557
2026-01-04 02:02:16.85	194.57	32.76	-29.1	-31.1	20.6	6.02e-01	0	43	102	524288	20	4503
2026-01-04 02:02:17.85	194.60	32.51	-29.2	-31.8	20.6	6.04e-01	0	43	102	524288	19	4842
2026-01-04 02:02:18.86	194.64	32.27	-29.1	-31.6	20.7	6.03e-01	0	43	102	524288	19	4770
2026-01-04 02:02:19.86	194.67	32.03	-29.1	-31.6	20.7	6.03e-01	0	43	102	524288	19	4782
2026-01-04 02:02:20.87	194.70	31.79	-29.2	-31.7	20.7	6.03e-01	0	43	102	524288	19	4801
2026-01-04 02:02:21.88	194.73	31.55	-29.3	-32.0	20.5	6.01e-01	0	43	102	524288	19	4905
2026-01-04 02:02:22.89	194.76	31.32	-29.3	-32.0	20.4	6.01e-01	0	43	102	524288	19	4932
2026-01-04 02:02:23.89	194.79	31.09	-29.3	-32.0	20.4	6.03e-01	0	43	102	524288	19	4919
2026-01-04 02:02:24.90	194.82	30.85	-29.3	-32.0	20.4	6.03e-01	0	43	102	524288	19	4928
2026-01-04 02:02:25.90	194.85	30.63	-29.4	-32.3	20.2	6.03e-01	0	43	102	524288	19	5030
2026-01-04 02:02:26.91	194.88	30.40	-29.3	-31.9	20.4	6.03e-01	0	43	102	524288	19	4893
2026-01-04 02:02:27.91	194.91	30.18	-29.2	-31.8	20.5	6.02e-01	0	43	102	524288	19	4838
2026-01-04 02:02:28.92	194.94	29.95	-29.3	-32.0	20.4	6.04e-01	0	43	102	524288	19	4921
2026-01-04 02:02:29.92	194.96	29.73	-29.4	-32.2	20.3	6.01e-01	0	43	102	524288	19	4991
2026-01-04 02:02:30.93	194.99	29.51	-29.3	-32.2	20.3	6.05e-01	0	43	102	524288	19	4981
2026-01-04 02:02:31.94	195.02	29.29	-29.5	-32.4	20.1	6.03e-01	0	43	102	524288	19	5076
2026-01-04 02:02:32.94	195.05	29.08	-29.4	-32.4	20.1	6.01e-01	0	43	102	524288	19	5062
2026-01-04 02:02:33.95	195.07	28.86	-29.5	-32.6	20.0	6.03e-01	0	43	102	524288	19	5137
2026-01-04 02:02:34.96	195.10	28.65	-29.4	-32.3	20.2	6.02e-01	0	43	102	524288	19	5034
2026-01-04 02:02:35.97	195.13	28.44	-29.4	-32.2	20.2	6.04e-01	0	43	102	524288	19	5000
2026-01-04 02:02:36.97	195.15	28.23	-29.4	-32.3	20.2	6.02e-01	0	43	102	524288	19	5027
2026-01-04 02:02:37.98	195.18	28.02	-29.4	-32.4	20.1	6.01e-01	0	43	102	524288	19	5070
2026-01-04 02:02:38.99	195.20	27.82	-29.6	-32.3	19.9	6.05e-01	0	43	102	524288	20	4911
2026-01-04 02:02:39.99	195.23	27.61	-29.5	-32.1	19.9	6.00e-01	0	43	102	524288	20	4870
2026-01-04 02:02:41.00	195.25	27.41	-29.4	-31.9	20.0	6.05e-01	0	43	102	524288	20	4793
2026-01-04 02:02:42.01	195.27	27.21	-29.4	-32.4	20.1	6.03e-01	0	43	102	524288	19	5069
2026-01-04 02:02:43.02	195.30	27.01	-29.5	-32.6	20.0	6.03e-01	0	43	102	524288	19	5127
2026-01-04 02:02:44.02	195.32	26.81	-29.6	-32.2	19.8	6.01e-01	0	43	102	524288	20	4888
2026-01-04 02:02:45.03	195.35	26.62	-29.5	-32.1	19.9	6.02e-01	0	43	102	524288	20	4852
2026-01-04 02:02:46.03	195.37	26.42	-29.5	-32.2	19.8	6.03e-01	0	43	102	524288	20	4885
2026-01-04 02:02:47.04	195.39	26.23	-29.6	-32.7	19.9	6.01e-01	0	43	102	524288	19	5177
2026-01-04 02:02:48.05	195.41	26.04	-29.6	-32.2	19.8	6.03e-01	0	43	102	524288	20	4894
2026-01-04 02:02:49.05	195.44	25.85	-29.6	-32.3	19.7	6.03e-01	0	43	102	524288	20	4910
2026-01-04 02:02:50.06	195.46	25.66	-29.8	-32.8	19.4	6.04e-01	0	43	102	524288	20	5111
2026-01-04 02:02:51.05	195.48	25.47	-29.7	-32.7	19.5	6.02e-01	0	43	102	524288	20	5063
2026-01-04 02:02:52.06	195.50	25.29	-29.8	-33.0	19.3	6.02e-01	0	43	102	524288	20	5175
2026-01-04 02:02:53.07	195.52	25.10	-29.8	-32.9	19.4	6.02e-01	0	43	102	524288	20	5122
2026-01-04 02:02:54.07	195.55	24.92	-29.9	-33.1	19.2	6.02e-01	0	43	102	524288	20	5206
2026-01-04 02:02:55.08	195.57	24.74	-29.9	-33.1	19.2	6.05e-01	0	43	102	524288	20	5208
2026-01-04 02:02:56.09	195.59	24.56	-29.9	-33.2	19.1	6.05e-01	0	43	102	524288	20	5258
2026-01-04 02:02:57.09	195.61	24.38	-29.9	-33.1	19.2	6.03e-01	0	43	102	524288	20	5227
2026-01-04 02:02:58.09	195.63	24.20	-28.8	-32.2	19.1	6.03e-01	0	43	102	524288	20	5334
2026-01-04 02:02:59.09	195.65	24.03	-30.2	-33.4	18.6	6.04e-01	0	43	102	524288	21	5234
2026-01-04 02:03:00.11	195.67	23.85	-30.4	-34.0	18.4	6.01e-01	0	43	102	524288	21	5450
2026-01-04 02:03:01.11	195.69	23.68	-30.2	-33.4	18.7	6.04e-01	0	43	102	524288	21	5198
2026-01-04 02:03:02.12	195.71	23.50	-30.0	-33.5	18.9	6.02e-01	0	43	102	524288	20	5356
2026-01-04 02:03:03.12	195.73	23.33	-29.9	-33.3	19.2	6.03e-01	0	43	102	524288	20	5271
2026-01-04 02:03:04.13	195.75	23.16	-30.0	-33.5	19.0	6.01e-01	0	43	102	524288	20	5376
2026-01-04 02:03:05.14	195.77	22.99	-30.1	-33.7	18.9	6.01e-01	0	43	102	524288	20	5433
2026-01-04 02:03:06.14	195.79	22.83	-30.0	-33.5	18.9	6.02e-01	0	43	102	524288	20	5388
2026-01-04 02:03:07.15	195.80	22.66	-30.1	-33.6	18.9	6.03e-01	0	43	102	524288	20	5402
2026-01-04 02:03:08.16	195.82	22.49	-30.2	-33.5	18.6	6.01e-01	0	43	102	524288	21	5267
2026-01-04 02:03:09.17	195.84	22.33	-30.4	-33.9	18.4	6.02e-01	0	43	102	524288	21	5431
2026-01-04 02:03:10.18	195.86	22.16	-30.1	-33.3	18.8	6.03e-01	0	43	102	524288	21	5182
2026-01-04 02:03:11.19	195.88	22.00	-30.3	-33.8	18.5	6.03e-01	0	43	102	524288	21	5357
2026-01-04 02:03:12.19	195.90	21.84	-30.5	-34.4	18.0	6.03e-01	0	43	102	524288	21	5629
2026-01-04 02:03:13.20	195.91	21.68	-30.3	-33.9	18.4	6.01e-01	0	43	102	524288	21	5411
2026-01-04 02:03:14.21	195.93	21.52	-30.2	-33.4	18.6	6.02e-01	0	43	102	524288	21	5242
2026-01-04 02:03:15.22	195.95	21.36	-30.1	-33.1	18.8	6.03e-01	0	43	102	524288	21	5120
2026-01-04 02:03:16.21	195.97	21.21	-30.1	-33.2	18.8	6.03e-01	0	43	102	524288	21	5150
2026-01-04 02:03:17.22	195.98	21.05	-30.1	-33.3	18.7	6.03e-01	0	43	102	524288	21	5193
2026-01-04 02:03:18.23	196.00	20.90	-30.0	-32.9	18.9	6.01e-01	0	43	102	524288	21	5036
2026-01-04 02:03:19.23	196.02	20.75	-29.8	-32.5	19.2	6.02e-01	0	43	102	524288	21	4892
2026-01-04 02:03:20.24	196.03	20.59	-29.8	-32.9	19.2	6.00e-01	0	43	102	524288	20	5143
2026-01-04 02:03:21.25	196.05	20.44	-29.7	-32.6	19.4	6.02e-01	0	43	102	524288	20	5053
2026-01-04 02:03:22.26	196.07	20.29	-29.7	-32.8	19.3	6.06e-01	0	43	102	524288	20	5117
2026-01-04 02:03:23.27	196.08	20.14	-29.8	-32.9	19.2	6.04e-01	0	43	102	524288	20	5167
2026-01-04 02:03:24.27	196.10	19.99	-29.8	-32.8	19.2	6.02e-01	0	43	102	524288	20	5124
2026-01-04 02:03:25.28	196.12	19.84	-29.7	-32.8	19.3	6.02e-01	0	43	102	524288	20	5110
2026-01-04 02:03:26.28	196.13	19.70	-29.8	-33.0	19.1	6.03e-01	0	43	102	524288	20	5199
2026-01-04 02:03:27.29	196.15	19.55	-29.9	-33.2	19.0	6.02e-01	0	43	102	524288	20	5280
2026-01-04 02:03:28.30	196.16	19.41	-29.8	-32.8	19.2	6.02e-01	0	43	102	524288	20	5135
2026-01-04 02:03:29.30	196.18	19.27	-29.8	-32.8	19.2	6.03e-01	0	43	102	524288	20	5132
2026-01-04 02:03:30.31	196.19	19.12	-29.7	-32.8	19.2	6.04e-01	0	43	102	524288	20	5129
2026-01-04 02:03:31.31	196.21	18.98	-29.7	-32.8	19.2	6.02e-01	0	43	102	524288	20	5109
2026-01-04 02:03:32.31	196.23	18.84	-29.8	-33.0	19.1	6.00e-01	0	43	102	524288	20	5192
2026-01-04 02:03:33.31	196.24	18.70	-29.9	-33.3	18.9	6.03e-01	0	43	102	524288	20	5322
2026-01-04 02:03:34.31	196.26	18.56	-29.8	-33.0	19.0	6.05e-01	0	43	102	524288	20	5205
2026-01-04 02:03:35.32	196.27	18.42	-29.7	-32.8	19.2	6.01e-01	0	43	102	524288	20	5131
2026-01-04 02:03:36.33	196.29	18.29	-29.6	-32.6	19.3	6.03e-01	0	43	102	524288	20	5043
2026-01-04 02:03:37.34	196.30	18.15	-29.7	-32.6	19.3	6.03e-01	0	43	102	524288	20	5059
2026-01-04 02:03:38.34	196.31	18.01	-29.7	-32.7	19.3	6.03e-01	0	43	102	524288	20	5100
2026-01-04 02:03:39.35	196.33	17.88	-29.7	-32.8	19.2	6.01e-01	0	43	102	524288	20	5146
2026-01-04 02:03:40.35	196.34	17.74	-29.8	-32.9	19.1	6.02e-01	0	43	102	524288	20	5178
2026-01-04 02:03:41.35	196.36	17.61	-29.7	-32.8	19.2	6.04e-01	0	43	102	524288	20	5130
2026-01-04 02:03:42.36	196.37	17.48	-29.7	-32.8	19.1	6.02e-01	0	43	102	524288	20	5140
2026-01-04 02:03:43.36	196.39	17.35	-29.7	-32.8	19.1	6.03e-01	0	43	102	524288	20	5153
2026-01-04 02:03:44.37	196.40	17.22	-29.8	-32.9	19.1	6.03e-01	0	43	102	524288	20	5178
2026-01-04 02:03:45.37	196.41	17.09	-29.7	-32.8	19.1	6.02e-01	0	43	102	524288	20	5146
2026-01-04 02:03:46.37	196.43	16.96	-29.8	-33.1	19.0	6.04e-01	0	43	102	524288	20	5243
2026-01-04 02:03:47.38	196.44	16.83	-29.8	-33.0	19.0	6.02e-01	0	43	102	524288	20	5220
2026-01-04 02:03:48.38	196.45	16.70	-29.9	-33.2	18.9	6.01e-01	0	43	102	524288	20	5285
2026-01-04 02:03:49.38	196.47	16.57	-29.9	-33.3	18.8	6.00e-01	0	43	102	524288	20	5341
2026-01-04 02:03:50.39	196.48	16.45	-29.9	-33.2	18.9	6.01e-01	0	43	102	524288	20	5276
2026-01-04 02:03:51.39	196.49	16.32	-29.9	-33.5	18.7	6.04e-01	0	43	102	524288	20	5390
2026-01-04 02:03:52.40	196.51	16.20	-30.0	-33.7	18.5	6.03e-01	0	43	102	524288	20	5478
2026-01-04 02:03:53.41	196.52	16.07	-30.0	-33.7	18.5	6.04e-01	0	43	102	524288	20	5474
2026-01-04 02:03:54.41	196.53	15.95	-30.1	-33.4	18.4	6.03e-01	0	43	102	524288	21	5272
2026-01-04 02:03:55.41	196.55	15.82	-30.3	-33.9	18.1	6.04e-01	0	43	102	524288	21	5467
2026-01-04 02:03:56.42	196.56	15.70	-30.3	-34.0	18.0	6.04e-01	0	43	102	524288	21	5496
2026-01-04 02:03:57.42	196.57	15.58	-30.1	-33.4	18.4	6.02e-01	0	43	102	524288	21	5241
2026-01-04 02:03:58.43	196.58	15.46	-30.0	-33.1	18.6	6.03e-01	0	43	102	524288	21	5133
2026-01-04 02:03:59.44	196.60	15.34	-30.0	-33.0	18.6	6.02e-01	0	43	102	524288	21	5108
2026-01-04 02:04:00.44	196.61	15.22	-30.0	-33.1	18.5	6.03e-01	0	43	102	524288	21	5143
2026-01-04 02:04:01.45	196.62	15.10	-30.1	-33.3	18.4	6.04e-01	0	43	102	524288	21	5239
2026-01-04 02:04:02.45	196.63	14.98	-30.2	-33.6	18.2	6.00e-01	0	43	102	524288	21	5343
2026-01-04 02:04:03.46	196.65	14.86	-30.0	-33.2	18.4	6.03e-01	0	43	102	524288	21	5199
2026-01-04 02:04:04.47	196.66	14.75	-29.8	-32.6	18.8	6.04e-01	0	43	102	524288	21	4970
2026-01-04 02:04:05.48	196.67	14.63	-29.7	-32.3	19.0	6.03e-01	0	43	102	524288	21	4859
2026-01-04 02:04:06.49	196.68	14.51	-29.6	-32.2	19.1	6.03e-01	0	43	102	524288	21	4814
2026-01-04 02:04:07.49	196.70	14.40	-29.6	-32.0	19.1	6.04e-01	0	43	102	524288	21	4770
2026-01-04 02:04:08.50	196.71	14.28	-29.6	-32.0	19.2	6.02e-01	0	43	102	524288	21	4752
2026-01-04 02:04:09.51	196.72	14.17	-29.6	-32.0	19.1	6.04e-01	0	43	102	524288	21	4773
2026-01-04 02:04:10.52	196.73	14.05	-29.5	-31.9	19.2	6.02e-01	0	43	102	524288	21	4743
2026-01-04 02:04:11.53	196.74	13.94	-29.5	-31.9	19.2	6.03e-01	0	43	102	524288	21	4747
2026-01-04 02:04:12.54	196.75	13.83	-29.7	-32.3	19.0	6.04e-01	0	43	102	524288	21	4854
2026-01-04 02:04:13.54	196.77	13.72	-29.7	-32.3	18.9	6.04e-01	0	43	102	524288	21	4874
2026-01-04 02:04:14.55	196.78	13.60	-29.6	-32.0	19.1	6.00e-01	0	43	102	524288	21	4784
2026-01-04 02:04:15.56	196.79	13.49	-29.5	-31.9	19.1	6.02e-01	0	43	102	524288	21	4738
2026-01-04 02:04:16.57	196.80	13.38	-29.5	-32.0	19.1	6.02e-01	0	43	102	524288	21	4762
2026-01-04 02:04:17.57	196.81	13.27	-29.6	-32.1	19.0	6.03e-01	0	43	102	524288	21	4814
2026-01-04 02:04:18.58	196.82	13.16	-29.6	-32.1	19.0	6.05e-01	0	43	102	524288	21	4814
2026-01-04 02:04:19.59	196.83	13.06	-29.5	-32.0	19.1	6.05e-01	0	43	102	524288	21	4763
2026-01-04 02:04:20.59	196.85	12.95	-29.5	-32.0	19.1	6.03e-01	0	43	102	524288	21	4773
2026-01-04 02:04:21.60	196.86	12.84	-29.6	-32.1	19.0	6.02e-01	0	43	102	524288	21	4796
2026-01-04 02:04:22.61	196.87	12.73	-29.6	-32.1	19.0	6.03e-01	0	43	102	524288	21	4808
2026-01-04 02:04:23.61	196.88	12.63	-29.6	-32.2	18.9	6.04e-01	0	43	102	524288	21	4858
2026-01-04 02:04:24.62	196.89	12.52	-29.8	-32.7	18.6	6.04e-01	0	43	102	524288	21	5010
2026-01-04 02:04:25.63	196.90	12.42	-29.8	-32.6	18.6	6.04e-01	0	43	102	524288	21	5004
2026-01-04 02:04:26.63	196.91	12.31	-29.7	-32.5	18.7	6.03e-01	0	43	102	524288	21	4969
2026-01-04 02:04:27.64	196.92	12.21	-29.8	-32.6	18.6	6.03e-01	0	43	102	524288	21	4984
2026-01-04 02:04:28.65	196.93	12.10	-29.9	-32.9	18.4	6.05e-01	0	43	102	524288	21	5106
2026-01-04 02:04:29.66	196.94	12.00	-29.9	-33.0	18.4	6.04e-01	0	43	102	524288	21	5133
2026-01-04 02:04:30.66	196.95	11.90	-29.9	-32.9	18.4	6.03e-01	0	43	102	524288	21	5097
2026-01-04 02:04:31.67	196.96	11.79	-30.0	-33.3	18.1	6.03e-01	0	43	102	524288	21	5278
2026-01-04 02:04:32.68	196.97	11.69	-30.0	-33.3	18.1	6.01e-01	0	43	102	524288	21	5260
2026-01-04 02:04:33.68	196.98	11.59	-30.0	-33.2	18.2	6.01e-01	0	43	102	524288	21	5216
2026-01-04 02:04:34.69	196.99	11.49	-29.9	-33.1	18.2	6.03e-01	0	43	102	524288	21	5165
2026-01-04 02:04:35.70	197.00	11.39	-29.9	-33.1	18.2	6.03e-01	0	43	102	524288	21	5177
2026-01-04 02:04:36.71	197.02	11.29	-29.9	-33.0	18.3	6.04e-01	0	43	102	524288	21	5157
2026-01-04 02:04:37.71	197.03	11.19	-30.0	-33.2	18.2	6.02e-01	0	43	102	524288	21	5214
2026-01-04 02:04:38.71	197.04	11.09	-29.9	-33.1	18.2	6.04e-01	0	43	102	524288	21	5185
2026-01-04 02:04:39.72	197.05	10.99	-30.0	-33.2	18.1	6.03e-01	0	43	102	524288	21	5245
2026-01-04 02:04:40.72	197.06	10.89	-30.0	-33.2	18.1	6.05e-01	0	43	102	524288	21	5234
2026-01-04 02:04:41.73	197.07	10.79	-30.0	-33.2	18.1	6.03e-01	0	43	102	524288	21	5240
2026-01-04 02:04:42.73	197.08	10.70	-30.1	-33.6	17.9	6.02e-01	0	43	102	524288	21	5370
2026-01-04 02:04:43.74	197.08	10.60	-30.1	-33.7	17.8	6.00e-01	0	43	102	524288	21	5426
2026-01-04 02:04:44.74	197.09	10.50	-30.1	-33.6	17.9	6.03e-01	0	43	102	524288	21	5393
2026-01-04 02:04:45.75	197.10	10.41	-30.1	-33.7	17.8	6.05e-01	0	43	102	524288	21	5420
2026-01-04 02:04:46.76	197.11	10.31	-30.1	-33.6	17.8	6.02e-01	0	43	102	524288	21	5385
2026-01-04 02:04:47.76	197.12	10.22	-30.1	-33.6	17.8	6.03e-01	0	43	102	524288	21	5398
2026-01-04 02:04:48.77	197.13	10.12	-30.1	-33.8	17.7	6.03e-01	0	43	102	524288	21	5468
2026-01-04 02:04:49.78	197.14	10.03	-30.0	-33.4	18.0	6.02e-01	0	43	102	524288	21	5322
2026-01-04 02:04:50.79	197.15	9.93	-29.9	-33.2	18.0	6.03e-01	0	43	102	524288	21	5238
2026-01-04 02:04:51.80	197.16	9.84	-30.0	-33.4	17.9	6.04e-01	0	43	102	524288	21	5326
2026-01-04 02:04:52.80	197.17	9.74	-30.0	-33.4	17.9	6.02e-01	0	43	102	524288	21	5310
2026-01-04 02:04:53.81	197.18	9.65	-30.0	-33.3	18.0	6.04e-01	0	43	102	524288	21	5293
2026-01-04 02:04:54.81	197.19	9.56	-30.1	-33.6	17.8	6.03e-01	0	43	102	524288	21	5414
2026-01-04 02:04:55.82	197.20	9.47	-30.0	-33.5	17.8	6.02e-01	0	43	102	524288	21	5378
2026-01-04 02:04:56.82	197.21	9.38	-30.1	-33.6	17.8	6.01e-01	0	43	102	524288	21	5407
2026-01-04 02:04:57.83	197.22	9.28	-30.2	-33.9	17.5	6.04e-01	0	43	102	524288	21	5541
2026-01-04 02:04:58.83	197.23	9.19	-30.2	-33.8	17.6	6.04e-01	0	43	102	524288	21	5510
2026-01-04 02:04:59.84	197.24	9.10	-30.1	-33.6	17.7	6.04e-01	0	43	102	524288	21	5416
2026-01-04 02:05:00.85	197.25	9.01	-30.0	-33.5	17.8	6.02e-01	0	43	102	524288	21	5377
2026-01-04 02:05:01.85	197.25	8.92	-30.0	-33.4	17.8	6.04e-01	0	43	102	524288	21	5348
2026-01-04 02:05:02.86	197.26	8.83	-30.0	-33.5	17.7	6.03e-01	0	43	102	524288	21	5388
2026-01-04 02:05:03.87	197.27	8.74	-30.1	-33.8	17.6	6.03e-01	0	43	102	524288	21	5508
2026-01-04 02:05:04.88	197.28	8.65	-30.0	-33.5	17.8	6.02e-01	0	43	102	524288	21	5369
2026-01-04 02:05:05.88	197.29	8.57	-30.0	-33.5	17.8	6.02e-01	0	43	102	524288	21	5367
2026-01-04 02:05:06.89	197.30	8.48	-30.2	-34.0	17.4	6.03e-01	0	43	102	524288	21	5591
2026-01-04 02:05:07.89	197.31	8.39	-30.1	-33.6	17.7	6.01e-01	0	43	102	524288	21	5427
2026-01-04 02:05:08.90	197.32	8.30	-30.1	-33.8	17.5	6.05e-01	0	43	102	524288	21	5491
2026-01-04 02:05:09.90	197.33	8.22	-30.1	-33.8	17.5	6.04e-01	0	43	102	524288	21	5509
2026-01-04 02:05:10.91	197.33	8.13	-30.2	-34.1	17.3	6.02e-01	0	43	102	524288	21	5618
2026-01-04 02:05:11.92	197.34	8.04	-30.1	-33.9	17.4	6.04e-01	0	43	102	524288	21	5568
2026-01-04 02:05:12.92	197.35	7.96	-30.2	-34.1	17.3	6.03e-01	0	43	102	524288	21	5644
2026-01-04 02:05:13.92	197.36	7.87	-30.3	-34.5	17.0	6.02e-01	0	43	102	524288	21	5808
2026-01-04 02:05:14.93	197.37	7.78	-30.3	-34.4	17.0	6.03e-01	0	43	102	524288	21	5792
2026-01-04 02:05:15.94	197.38	7.70	-30.4	-34.7	16.9	6.01e-01	0	43	102	524288	21	5930
2026-01-04 02:05:16.95	197.39	7.61	-30.5	-35.1	16.6	6.03e-01	0	43	102	524288	21	6084
2026-01-04 02:05:17.95	197.39	7.53	-30.6	-35.3	16.4	6.03e-01	0	43	102	524288	21	6184
2026-01-04 02:05:18.95	197.40	7.45	-30.5	-34.9	16.7	6.04e-01	0	43	102	524288	21	6031
2026-01-04 02:05:19.96	197.41	7.36	-30.7	-35.1	16.2	6.03e-01	0	43	102	524288	22	6001
2026-01-04 02:05:20.97	197.42	7.28	-30.5	-34.7	16.4	6.01e-01	0	43	102	524288	22	5819
2026-01-04 02:05:21.97	197.43	7.19	-30.5	-34.6	16.5	6.03e-01	0	43	102	524288	22	5787
2026-01-04 02:05:22.98	197.44	7.11	-30.7	-35.2	16.2	6.02e-01	0	43	102	524288	22	6042
2026-01-04 02:05:23.98	197.44	7.03	-33.3	-52.6	3.8	7.45e-01	0	43	104	524288	27	33322
2026-01-04 02:05:24.99	197.45	6.95	-33.5	-53.1	3.8	7.43e-01	0	43	104	524288	27	34350
2026-01-04 02:05:26.00	197.46	6.86	-33.5	-52.7	3.8	7.45e-01	0	43	104	524288	28	32737

#Closed at: 2026-01-04 02:05:26
#Recorded file [0 MB]: D:/data/31010_260104_045706.dat