passes_logs/2026/01/04/R2M6_AANII_01/R2M6_AANII_01__20260104_000134_NOAA_20_JPSS-1_rec.log

#Pass ID: 20260104_000134_NOAA 20 (JPSS-1)
#Satellite: NOAA 20 (JPSS-1)
#Configuration: NOAA 20
#almurnet v.1.7.20240730
#Start time: 2026-01-04 00:01:35

#Version: 2.2.20231116
#Station: R2M6_AANII_01
#Location: 30.233357 lon 59.946436 lat
#TLE: 1 43013U 17073A   26003.41800368  .00000169  00000+0  10117-3 0  9998
#TLE: 2 43013  98.7624 304.4804 0001884  56.1176 304.0179 14.19532918421092

#Time	Az	El	Level	Level2	SNR	BER	BlckErr	Temp	State	Recorded	gain1	gain2
2026-01-04 00:01:35.72	19.89	7.12	-31.7	-38.7	4.8	1.33e+00	0	40	0	0	23	8117
2026-01-04 00:01:36.72	19.91	7.19	-31.8	-39.4	4.7	1.36e+00	0	40	104	0	23	8631
2026-01-04 00:01:37.73	19.93	7.27	-31.8	-39.1	6.7	2.04e-01	0	41	0	0	23	8380
2026-01-04 00:01:38.74	19.95	7.35	-31.9	-39.8	6.2	2.59e-01	0	41	0	1048576	23	8985
2026-01-04 00:01:39.74	19.97	7.43	-31.9	-39.9	6.2	3.33e-01	0	41	0	3145728	23	8975
2026-01-04 00:01:40.75	20.00	7.50	-31.8	-39.3	6.6	2.59e-01	0	41	0	5242880	23	8504
2026-01-04 00:01:41.75	20.02	7.58	-31.8	-38.8	6.9	1.97e-01	0	41	0	7340032	23	8126
2026-01-04 00:01:42.77	20.04	7.66	-31.7	-38.6	7.1	1.43e-01	0	41	0	9437184	23	7979
2026-01-04 00:01:43.77	20.06	7.74	-31.7	-38.6	7.2	1.32e-01	0	41	0	10485760	23	7953
2026-01-04 00:01:44.78	20.08	7.82	-31.6	-37.9	7.7	1.44e-01	0	41	0	12582912	23	7473
2026-01-04 00:01:45.78	20.11	7.90	-31.4	-36.9	8.5	5.52e-02	0	41	0	14680064	23	6786
2026-01-04 00:01:46.79	20.13	7.98	-31.1	-36.5	9.2	2.87e-02	0	41	0	16777216	22	6640
2026-01-04 00:01:47.80	20.15	8.06	-30.9	-36.1	9.8	1.67e-02	0	41	0	18874368	21	6561
2026-01-04 00:01:48.80	20.17	8.14	-30.7	-35.3	10.5	5.44e-03	0	41	0	19922944	21	6115
2026-01-04 00:01:49.81	20.20	8.22	-30.5	-35.2	10.9	3.26e-03	0	41	0	22020096	20	6172
2026-01-04 00:01:50.81	20.22	8.30	-30.5	-34.8	10.8	2.86e-03	0	41	0	24117248	21	5900
2026-01-04 00:01:51.81	20.24	8.38	-30.7	-35.4	10.4	3.04e-03	0	41	0	26214400	21	6188
2026-01-04 00:01:52.82	20.27	8.46	-30.6	-35.2	10.6	6.86e-03	0	41	0	28311552	21	6064
2026-01-04 00:01:53.83	20.29	8.54	-30.5	-34.7	10.9	3.32e-03	0	41	0	29360128	21	5845
2026-01-04 00:01:54.82	20.31	8.62	-30.4	-34.4	11.1	1.73e-03	0	41	0	31457280	21	5712
2026-01-04 00:01:55.83	20.34	8.70	-30.4	-34.8	11.3	3.84e-03	0	41	0	33554432	20	5981
2026-01-04 00:01:56.83	20.36	8.78	-30.4	-34.8	11.3	1.61e-03	0	41	0	35651584	20	5970
2026-01-04 00:01:57.84	20.38	8.87	-30.6	-34.8	10.9	1.43e-03	0	41	0	37748736	21	5878
2026-01-04 00:01:58.84	20.41	8.95	-30.8	-35.4	10.5	5.92e-03	0	41	0	38797312	21	6180
2026-01-04 00:01:59.85	20.43	9.03	-30.6	-34.9	10.9	5.59e-03	0	41	0	40894464	21	5925
2026-01-04 00:02:00.85	20.45	9.11	-30.4	-34.2	11.4	1.60e-03	0	41	0	42991616	21	5603
2026-01-04 00:02:01.85	20.48	9.20	-30.2	-34.2	11.7	1.30e-03	0	41	0	45088768	20	5704
2026-01-04 00:02:02.85	20.50	9.28	-30.3	-34.6	11.5	3.02e-03	0	41	0	46137344	20	5861
2026-01-04 00:02:03.85	20.53	9.36	-30.4	-34.7	11.5	1.01e-03	0	41	0	48234496	20	5905
2026-01-04 00:02:04.86	20.55	9.45	-30.3	-34.4	11.7	1.33e-03	0	41	0	50331648	20	5778
2026-01-04 00:02:05.86	20.57	9.53	-30.3	-34.6	11.5	2.98e-03	0	41	0	52428800	20	5855
2026-01-04 00:02:06.87	20.60	9.62	-30.4	-34.6	11.5	9.09e-04	0	42	0	54525952	20	5867
2026-01-04 00:02:07.87	20.62	9.70	-30.3	-34.5	11.6	1.33e-03	0	41	0	56623104	20	5818
2026-01-04 00:02:08.88	20.65	9.79	-30.5	-34.9	11.3	3.03e-03	0	41	0	57671680	20	5997
2026-01-04 00:02:09.89	20.67	9.87	-30.4	-34.1	11.5	1.03e-03	0	42	0	59768832	21	5541
2026-01-04 00:02:10.89	20.70	9.96	-30.2	-34.2	11.8	2.72e-03	0	42	0	61865984	20	5669
2026-01-04 00:02:11.90	20.72	10.04	-30.3	-34.4	11.6	1.12e-03	0	42	0	63963136	20	5784
2026-01-04 00:02:12.91	20.75	10.13	-30.2	-34.1	11.9	5.48e-04	0	42	0	65011712	20	5655
2026-01-04 00:02:13.91	20.77	10.22	-30.1	-33.9	12.0	2.51e-03	0	42	0	67108864	20	5558
2026-01-04 00:02:14.92	20.80	10.31	-30.0	-33.6	12.3	2.29e-04	0	42	0	69206016	20	5414
2026-01-04 00:02:15.93	20.83	10.39	-30.0	-33.6	12.2	2.13e-04	0	42	0	71303168	20	5431
2026-01-04 00:02:16.94	20.85	10.48	-30.0	-33.4	12.4	2.22e-03	0	42	0	73400320	20	5357
2026-01-04 00:02:17.94	20.88	10.57	-30.2	-34.1	11.9	2.20e-03	0	42	0	74448896	20	5629
2026-01-04 00:02:18.94	20.90	10.66	-30.1	-33.6	12.3	2.38e-04	0	42	0	76546048	20	5434
2026-01-04 00:02:19.95	20.93	10.75	-29.9	-33.1	12.6	2.09e-03	0	42	0	78643200	20	5228
2026-01-04 00:02:20.96	20.96	10.83	-29.8	-33.4	12.9	2.04e-03	0	42	0	80740352	19	5427
2026-01-04 00:02:21.96	20.98	10.92	-29.9	-33.5	12.8	4.73e-05	0	42	0	82837504	19	5460
2026-01-04 00:02:22.97	21.01	11.01	-30.0	-33.3	12.5	2.07e-03	0	42	0	84934656	20	5295
2026-01-04 00:02:23.98	21.04	11.10	-30.0	-33.4	12.5	2.01e-03	0	42	0	85983232	20	5333
2026-01-04 00:02:24.98	21.06	11.19	-30.0	-33.5	12.4	1.33e-04	0	42	0	88080384	20	5364
2026-01-04 00:02:25.98	21.09	11.28	-30.0	-33.3	12.6	2.00e-03	0	42	0	90177536	20	5295
2026-01-04 00:02:26.98	21.12	11.37	-29.9	-33.2	12.6	2.03e-03	0	42	0	92274688	20	5245
2026-01-04 00:02:27.99	21.14	11.47	-29.9	-33.2	12.6	9.46e-05	0	42	0	93323264	20	5264
2026-01-04 00:02:28.99	21.17	11.56	-29.1	-32.5	12.5	1.07e-04	0	42	0	95420416	20	5311
2026-01-04 00:02:29.99	21.20	11.65	-29.9	-33.1	12.7	2.31e-03	0	42	0	97517568	20	5193
2026-01-04 00:02:31.00	21.23	11.74	-29.8	-33.4	12.5	6.17e-05	0	42	0	99614720	19	5401
2026-01-04 00:02:32.01	21.26	11.83	-29.8	-33.4	12.3	2.06e-03	0	42	0	101711872	19	5415
2026-01-04 00:02:33.02	21.28	11.93	-29.8	-33.2	13.1	3.43e-05	0	42	0	102760448	19	5325
2026-01-04 00:02:34.02	21.31	12.02	-29.8	-33.4	12.5	2.67e-05	0	42	0	104857600	19	5404
2026-01-04 00:02:35.03	21.34	12.11	-30.0	-33.8	12.7	2.05e-03	0	42	0	106954752	19	5564
2026-01-04 00:02:36.03	21.37	12.21	-29.9	-33.6	12.8	6.40e-05	0	42	0	109051904	19	5487
2026-01-04 00:02:37.03	21.40	12.30	-30.0	-33.7	12.8	5.72e-05	0	42	0	111149056	19	5529
2026-01-04 00:02:38.04	21.43	12.40	-29.9	-33.5	12.9	2.01e-03	0	42	0	112197632	19	5462
2026-01-04 00:02:39.05	21.46	12.49	-30.0	-33.3	12.7	7.93e-05	0	42	0	114294784	20	5261
2026-01-04 00:02:40.06	21.48	12.59	-30.1	-33.6	12.5	1.04e-04	0	42	0	116391936	20	5400
2026-01-04 00:02:41.06	21.51	12.68	-30.0	-33.5	12.6	2.41e-03	0	42	0	118489088	20	5338
2026-01-04 00:02:42.07	21.54	12.78	-30.2	-33.8	12.3	2.35e-03	0	42	0	120586240	20	5493
2026-01-04 00:02:43.07	21.57	12.88	-30.1	-33.6	12.5	9.60e-04	0	42	0	121634816	20	5400
2026-01-04 00:02:44.07	21.60	12.97	-30.1	-33.8	12.3	1.54e-04	0	42	0	123731968	20	5475
2026-01-04 00:02:45.08	21.63	13.07	-30.4	-34.4	11.9	2.28e-03	0	42	0	125829120	20	5756
2026-01-04 00:02:46.08	21.66	13.17	-30.2	-33.9	12.2	1.25e-03	0	42	0	127926272	20	5532
2026-01-04 00:02:47.09	21.69	13.27	-30.1	-33.6	12.5	1.52e-04	0	42	0	130023424	20	5391
2026-01-04 00:02:48.09	21.72	13.36	-30.0	-33.4	12.6	2.41e-03	0	42	0	131072000	20	5321
2026-01-04 00:02:49.10	21.75	13.46	-30.1	-33.6	12.5	9.08e-04	0	42	0	133169152	20	5396
2026-01-04 00:02:50.10	21.78	13.56	-30.0	-33.4	12.6	8.68e-04	0	42	0	135266304	20	5321
2026-01-04 00:02:51.11	21.82	13.66	-30.3	-34.1	12.1	1.35e-04	0	42	0	137363456	20	5607
2026-01-04 00:02:52.12	21.85	13.76	-30.1	-33.5	12.6	1.56e-04	0	42	0	139460608	20	5346
2026-01-04 00:02:53.12	21.88	13.86	-30.0	-33.7	12.9	7.43e-04	0	42	0	140509184	19	5503
2026-01-04 00:02:54.13	21.91	13.96	-29.9	-33.3	13.1	4.11e-05	0	42	0	142606336	19	5373
2026-01-04 00:02:55.13	21.94	14.06	-29.9	-33.5	13.0	3.96e-05	0	42	0	144703488	19	5459
2026-01-04 00:02:56.13	21.97	14.17	-30.1	-33.4	12.7	6.35e-04	0	42	0	146800640	20	5321
2026-01-04 00:02:57.12	22.00	14.27	-30.1	-33.5	12.6	8.85e-05	0	42	0	148897792	20	5320
2026-01-04 00:02:58.12	22.04	14.37	-30.1	-33.5	12.6	9.91e-05	0	42	0	149946368	20	5330
2026-01-04 00:02:59.13	22.07	14.47	-30.1	-33.6	12.6	6.16e-04	0	42	0	152043520	20	5388
2026-01-04 00:03:00.13	22.10	14.57	-30.2	-34.0	12.3	1.30e-04	0	42	0	154140672	20	5532
2026-01-04 00:03:01.14	22.13	14.68	-30.1	-33.7	12.5	6.23e-04	0	42	0	156237824	20	5412
2026-01-04 00:03:02.14	22.17	14.78	-30.1	-33.5	12.7	5.99e-04	0	42	0	158334976	20	5330
2026-01-04 00:03:03.15	22.20	14.89	-30.1	-33.6	12.6	8.46e-05	0	42	0	159383552	20	5358
2026-01-04 00:03:04.16	22.23	14.99	-30.1	-33.6	12.6	5.33e-04	0	42	0	161480704	20	5363
2026-01-04 00:03:05.16	22.27	15.10	-30.3	-34.1	12.3	1.09e-04	0	42	0	163577856	20	5574
2026-01-04 00:03:06.17	22.30	15.21	-30.1	-33.6	12.6	1.10e-04	0	42	0	165675008	20	5357
2026-01-04 00:03:07.18	22.34	15.31	-30.0	-33.2	12.3	4.36e-04	0	42	0	167772160	20	5211
2026-01-04 00:03:08.18	22.37	15.42	-29.9	-33.5	12.6	3.52e-04	0	42	0	168820736	19	5424
2026-01-04 00:03:09.18	22.41	15.53	-30.0	-33.1	13.0	3.05e-05	0	42	0	170917888	20	5180
2026-01-04 00:03:10.18	22.44	15.63	-30.1	-33.5	12.6	4.25e-04	0	42	0	173015040	20	5343
2026-01-04 00:03:11.18	22.47	15.74	-30.3	-34.1	12.2	4.94e-04	0	42	0	175112192	20	5599
2026-01-04 00:03:12.19	22.51	15.85	-30.4	-34.4	12.1	2.53e-04	0	42	0	176160768	20	5697
2026-01-04 00:03:13.19	22.54	15.96	-30.3	-34.2	12.2	5.32e-04	0	42	0	178257920	20	5630
2026-01-04 00:03:14.20	22.58	16.07	-30.4	-34.5	12.0	5.95e-04	0	42	0	180355072	20	5759
2026-01-04 00:03:15.20	22.62	16.18	-30.4	-34.4	12.1	2.71e-04	0	42	0	182452224	20	5688
2026-01-04 00:03:16.20	22.65	16.29	-30.4	-34.5	12.0	2.33e-03	0	42	0	184549376	20	5764
2026-01-04 00:03:17.20	22.69	16.40	-30.6	-34.5	11.7	7.29e-04	0	42	0	185597952	21	5620
2026-01-04 00:03:18.20	22.72	16.51	-30.7	-34.9	11.4	8.07e-04	0	42	0	187695104	21	5822
2026-01-04 00:03:19.21	22.76	16.62	-30.6	-34.4	11.8	2.31e-03	0	42	0	189792256	21	5593
2026-01-04 00:03:20.21	22.80	16.74	-30.4	-34.4	12.1	6.16e-04	0	42	0	191889408	20	5728
2026-01-04 00:03:21.22	22.84	16.85	-30.3	-34.2	12.3	2.44e-04	0	42	0	193986560	20	5603
2026-01-04 00:03:22.22	22.87	16.96	-30.4	-34.4	12.1	1.77e-03	0	43	0	195035136	20	5713
2026-01-04 00:03:23.23	22.91	17.08	-30.4	-34.4	12.2	2.09e-03	0	42	0	197132288	20	5701
2026-01-04 00:03:24.23	22.95	17.19	-30.5	-34.1	12.0	3.06e-04	0	42	0	199229440	21	5472
2026-01-04 00:03:25.25	22.99	17.31	-30.3	-34.2	12.3	6.19e-04	0	42	0	201326592	20	5627
2026-01-04 00:03:26.24	23.03	17.42	-30.3	-33.9	12.5	1.63e-03	0	42	0	203423744	20	5498
2026-01-04 00:03:27.25	23.07	17.54	-30.3	-34.1	12.4	1.66e-04	0	42	0	204472320	20	5577
2026-01-04 00:03:28.26	23.10	17.66	-30.2	-33.9	12.5	5.16e-04	0	42	0	206569472	20	5465
2026-01-04 00:03:29.27	23.14	17.78	-30.2	-33.8	12.6	1.55e-03	0	42	0	208666624	20	5426
2026-01-04 00:03:30.27	23.18	17.90	-30.2	-33.8	12.6	8.69e-05	0	42	0	210763776	20	5421
2026-01-04 00:03:31.27	23.22	18.01	-30.1	-33.5	12.8	4.71e-04	0	43	0	212860928	20	5312
2026-01-04 00:03:32.27	23.26	18.13	-30.1	-33.3	12.9	1.52e-03	0	43	0	213909504	20	5255
2026-01-04 00:03:33.28	23.30	18.25	-30.0	-33.2	13.0	2.97e-05	0	42	0	216006656	20	5190
2026-01-04 00:03:34.29	23.35	18.37	-30.0	-33.3	13.0	2.17e-03	0	42	0	218103808	20	5236
2026-01-04 00:03:35.29	23.39	18.49	-30.1	-33.4	12.9	6.13e-04	0	42	0	220200960	20	5271
2026-01-04 00:03:36.29	23.43	18.62	-30.0	-33.1	13.1	3.50e-05	0	43	0	222298112	20	5159
2026-01-04 00:03:37.30	23.47	18.74	-30.0	-33.1	13.1	1.61e-03	0	43	0	223346688	20	5145
2026-01-04 00:03:38.31	23.51	18.86	-30.0	-33.2	13.1	2.07e-03	0	42	0	225443840	20	5178
2026-01-04 00:03:39.32	23.55	18.99	-30.0	-33.0	13.1	2.74e-05	0	43	0	227540992	20	5141
2026-01-04 00:03:40.32	23.60	19.11	-30.0	-33.2	13.0	1.52e-03	0	43	0	229638144	20	5201
2026-01-04 00:03:41.32	23.64	19.23	-30.0	-33.1	13.1	1.70e-03	0	43	0	231735296	20	5173
2026-01-04 00:03:42.33	23.68	19.36	-30.1	-33.4	12.9	4.19e-05	0	42	0	232783872	20	5287
2026-01-04 00:03:43.34	23.73	19.49	-30.2	-33.6	12.8	1.81e-03	0	43	0	234881024	20	5346
2026-01-04 00:03:44.35	23.77	19.61	-30.1	-33.3	13.0	1.91e-03	0	43	0	236978176	20	5229
2026-01-04 00:03:45.36	23.81	19.74	-30.0	-33.2	13.0	3.35e-05	0	42	0	239075328	20	5199
2026-01-04 00:03:46.36	23.86	19.87	-30.1	-33.3	13.0	1.80e-03	0	43	0	241172480	20	5222
2026-01-04 00:03:47.37	23.90	20.00	-30.1	-33.3	13.0	1.71e-03	0	42	0	242221056	20	5214
2026-01-04 00:03:48.37	23.95	20.13	-30.1	-33.3	13.0	3.28e-05	0	43	0	244318208	20	5232
2026-01-04 00:03:49.38	23.99	20.26	-30.0	-33.3	13.1	3.43e-05	0	42	0	246415360	20	5217
2026-01-04 00:03:50.38	24.04	20.39	-30.1	-33.3	13.0	1.90e-03	0	42	0	248512512	20	5242
2026-01-04 00:03:51.38	24.09	20.52	-30.1	-33.3	13.0	3.35e-05	0	43	0	250609664	20	5215
2026-01-04 00:03:52.39	24.13	20.65	-30.1	-33.4	13.0	4.19e-05	0	42	0	251658240	20	5263
2026-01-04 00:03:53.39	24.18	20.78	-30.2	-33.7	12.8	1.92e-03	0	43	0	253755392	20	5370
2026-01-04 00:03:54.40	24.23	20.92	-30.2	-33.7	12.8	7.01e-05	0	43	0	255852544	20	5382
2026-01-04 00:03:55.41	24.28	21.05	-30.2	-33.6	12.8	2.00e-03	0	43	0	257949696	20	5352
2026-01-04 00:03:56.40	24.32	21.18	-30.2	-33.6	12.8	5.79e-05	0	43	0	260046848	20	5344
2026-01-04 00:03:57.40	24.37	21.32	-30.1	-33.5	13.0	4.42e-05	0	43	0	261095424	20	5288
2026-01-04 00:03:58.41	24.42	21.45	-30.2	-33.7	12.8	1.86e-03	0	43	0	263192576	20	5381
2026-01-04 00:03:59.42	24.47	21.59	-30.2	-33.8	12.7	7.24e-05	0	43	0	265289728	20	5429
2026-01-04 00:04:00.42	24.52	21.73	-30.2	-33.7	12.7	6.48e-05	0	43	0	267386880	20	5398
2026-01-04 00:04:01.42	24.57	21.87	-30.3	-33.9	12.6	1.71e-03	0	43	0	268435456	20	5474
2026-01-04 00:04:02.43	24.62	22.00	-30.3	-34.1	12.5	1.27e-04	0	43	0	270532608	20	5538
2026-01-04 00:04:03.44	24.67	22.15	-30.2	-33.8	12.7	7.24e-05	0	43	0	272629760	20	5459
2026-01-04 00:04:04.44	24.72	22.28	-30.3	-34.1	12.5	1.59e-03	0	43	0	274726912	20	5531
2026-01-04 00:04:05.45	24.77	22.43	-30.2	-33.7	12.8	1.48e-03	0	43	0	276824064	20	5395
2026-01-04 00:04:06.45	24.83	22.57	-30.1	-33.5	12.9	4.11e-05	0	43	0	277872640	20	5292
2026-01-04 00:04:07.45	24.88	22.71	-30.2	-33.6	12.8	4.42e-05	0	43	0	279969792	20	5325
2026-01-04 00:04:08.45	24.93	22.85	-30.2	-33.6	12.9	7.09e-04	0	43	0	282066944	20	5325
2026-01-04 00:04:09.46	24.99	23.00	-30.2	-33.7	12.9	2.02e-04	0	43	0	284164096	20	5371
2026-01-04 00:04:10.46	25.04	23.14	-30.2	-33.7	12.8	8.62e-05	0	43	0	286261248	20	5381
2026-01-04 00:04:11.46	25.09	23.29	-30.0	-33.2	13.2	3.12e-05	0	43	0	287309824	20	5186
2026-01-04 00:04:12.47	25.15	23.43	-29.9	-32.9	13.4	1.52e-05	0	43	0	289406976	20	5062
2026-01-04 00:04:13.47	25.20	23.58	-30.0	-33.4	13.5	9.90e-06	0	43	0	291504128	19	5351
2026-01-04 00:04:14.48	25.26	23.73	-30.0	-33.0	13.4	1.60e-05	0	43	0	293601280	20	5096
2026-01-04 00:04:15.49	25.32	23.88	-30.0	-33.0	13.3	2.36e-05	0	43	0	295698432	20	5117
2026-01-04 00:04:16.49	25.37	24.03	-30.0	-33.1	13.3	2.04e-04	0	43	0	296747008	20	5122
2026-01-04 00:04:17.50	25.43	24.18	-30.0	-33.2	13.2	2.13e-05	0	43	0	298844160	20	5170
2026-01-04 00:04:18.51	25.49	24.33	-30.0	-33.1	13.3	1.90e-05	0	43	0	300941312	20	5150
2026-01-04 00:04:19.51	25.55	24.49	-30.0	-33.1	13.2	1.97e-04	0	43	0	303038464	20	5147
2026-01-04 00:04:20.52	25.61	24.64	-30.0	-33.1	13.3	1.98e-05	0	43	0	305135616	20	5141
2026-01-04 00:04:21.52	25.67	24.79	-30.0	-33.1	13.3	2.44e-05	0	43	0	306184192	20	5127
2026-01-04 00:04:22.53	25.73	24.95	-30.0	-33.0	13.4	1.78e-04	0	43	0	308281344	20	5087
2026-01-04 00:04:23.54	25.79	25.11	-30.0	-33.0	13.4	1.60e-05	0	43	0	310378496	20	5093
2026-01-04 00:04:24.55	25.85	25.26	-30.1	-33.2	13.2	2.13e-05	0	43	0	312475648	20	5182
2026-01-04 00:04:25.55	25.91	25.42	-30.1	-33.3	13.2	3.66e-05	0	43	0	314572800	20	5201
2026-01-04 00:04:26.55	25.97	25.58	-30.0	-33.1	13.3	1.90e-05	0	43	0	315621376	20	5123
2026-01-04 00:04:27.56	26.04	25.74	-30.1	-33.2	13.3	1.49e-04	0	43	0	317718528	20	5170
2026-01-04 00:04:28.56	26.10	25.90	-30.0	-33.0	13.4	2.97e-05	0	43	0	319815680	20	5114
2026-01-04 00:04:29.57	26.16	26.06	-30.0	-33.0	13.4	1.22e-05	0	43	0	321912832	20	5113
2026-01-04 00:04:30.57	26.23	26.22	-30.0	-33.1	12.6	1.36e-04	0	43	0	324009984	20	5144
2026-01-04 00:04:31.58	26.29	26.39	-29.9	-32.9	13.3	1.22e-05	0	43	0	325058560	20	5045
2026-01-04 00:04:32.59	26.36	26.55	-29.9	-32.7	13.6	9.10e-06	0	43	0	327155712	20	4979
2026-01-04 00:04:33.59	26.43	26.72	-29.9	-33.3	13.6	3.20e-05	0	43	0	329252864	19	5310
2026-01-04 00:04:34.60	26.49	26.88	-29.9	-33.3	13.6	3.05e-05	0	43	0	331350016	19	5309
2026-01-04 00:04:35.61	26.56	27.05	-30.0	-33.4	13.6	6.80e-06	0	43	0	333447168	19	5335
2026-01-04 00:04:36.60	26.63	27.22	-29.9	-32.7	13.6	1.60e-05	0	43	0	334495744	20	4993
2026-01-04 00:04:37.61	26.70	27.39	-30.0	-33.0	13.4	1.22e-05	0	43	0	336592896	20	5086
2026-01-04 00:04:38.62	26.77	27.56	-30.0	-33.0	13.4	9.90e-06	0	43	0	338690048	20	5079
2026-01-04 00:04:39.62	26.84	27.73	-29.9	-32.8	13.6	4.23e-04	0	43	0	340787200	20	5006
2026-01-04 00:04:40.63	26.91	27.90	-30.0	-33.4	13.6	6.80e-06	0	43	0	342884352	19	5317
2026-01-04 00:04:41.63	26.98	28.08	-29.9	-32.8	13.6	8.30e-06	0	43	0	343932928	20	5019
2026-01-04 00:04:42.64	27.06	28.25	-30.0	-33.0	13.4	2.27e-04	0	43	0	346030080	20	5087
2026-01-04 00:04:43.65	27.13	28.43	-30.0	-33.0	13.5	1.19e-04	0	43	0	348127232	20	5070
2026-01-04 00:04:44.66	27.21	28.61	-30.0	-33.1	13.4	8.30e-06	0	43	0	350224384	20	5117
2026-01-04 00:04:45.66	27.28	28.78	-30.2	-33.4	13.2	1.06e-05	0	43	0	352321536	20	5250
2026-01-04 00:04:46.66	27.36	28.96	-30.2	-33.6	13.1	6.33e-05	0	43	0	353370112	20	5292
2026-01-04 00:04:47.67	27.43	29.14	-30.3	-33.8	13.0	2.97e-05	0	43	0	355467264	20	5379
2026-01-04 00:04:48.68	27.51	29.32	-30.4	-34.1	12.8	6.10e-05	0	43	0	357564416	20	5514
2026-01-04 00:04:49.68	27.59	29.51	-30.5	-33.8	12.6	1.04e-04	0	43	0	359661568	21	5282
2026-01-04 00:04:50.69	27.67	29.69	-30.6	-34.1	12.4	1.20e-04	0	43	0	361758720	21	5379
2026-01-04 00:04:51.69	27.75	29.87	-30.7	-34.4	12.3	1.80e-04	0	43	0	362807296	21	5508
2026-01-04 00:04:52.69	27.83	30.06	-30.7	-34.6	12.1	2.53e-04	0	43	0	364904448	21	5597
2026-01-04 00:04:53.70	27.91	30.25	-30.8	-34.6	12.1	2.91e-04	0	43	0	367001600	21	5603
2026-01-04 00:04:54.70	27.99	30.43	-30.8	-34.8	12.0	4.22e-04	0	43	0	369098752	21	5697
2026-01-04 00:04:55.71	28.08	30.62	-30.9	-35.0	11.9	4.20e-04	0	43	0	371195904	21	5761
2026-01-04 00:04:56.71	28.16	30.81	-30.9	-35.1	11.7	4.92e-04	0	43	0	372244480	21	5849
2026-01-04 00:04:57.71	28.25	31.00	-31.0	-35.0	11.5	9.55e-04	0	43	0	374341632	22	5651
2026-01-04 00:04:58.71	28.33	31.20	-31.3	-35.7	11.0	1.26e-03	0	43	0	376438784	22	5984
2026-01-04 00:04:59.72	28.42	31.39	-31.3	-36.0	10.8	2.56e-03	0	43	0	378535936	22	6125
2026-01-04 00:05:00.72	28.51	31.59	-31.4	-36.1	10.7	2.44e-03	0	43	0	380633088	22	6192
2026-01-04 00:05:01.72	28.60	31.78	-31.5	-36.3	10.6	3.72e-03	0	43	0	381681664	22	6297
2026-01-04 00:05:02.73	28.69	31.98	-31.5	-36.0	10.4	4.67e-03	0	43	0	383778816	23	6054
2026-01-04 00:05:03.74	28.78	32.18	-31.4	-35.6	10.7	3.78e-03	0	43	0	385875968	23	5861
2026-01-04 00:05:04.75	28.88	32.38	-31.4	-35.7	10.7	3.79e-03	0	43	0	387973120	23	5895
2026-01-04 00:05:05.75	28.97	32.58	-31.3	-35.4	10.9	3.70e-03	0	43	0	390070272	23	5737
2026-01-04 00:05:06.75	29.06	32.78	-31.3	-35.2	11.0	1.99e-03	0	43	0	391118848	23	5659
2026-01-04 00:05:07.76	29.16	32.99	-31.3	-35.2	11.0	1.68e-03	0	43	0	393216000	23	5647
2026-01-04 00:05:08.76	29.26	33.19	-31.2	-34.9	11.3	1.45e-03	0	43	0	395313152	23	5511
2026-01-04 00:05:09.76	29.36	33.40	-31.2	-34.9	11.2	1.22e-03	0	43	0	397410304	23	5529
2026-01-04 00:05:10.76	29.46	33.61	-31.2	-34.8	11.3	1.39e-03	0	43	0	398458880	23	5472
2026-01-04 00:05:11.77	29.56	33.82	-30.9	-34.1	11.9	6.35e-04	0	43	0	400556032	23	5156
2026-01-04 00:05:12.78	29.66	34.03	-30.7	-33.9	12.3	1.95e-04	0	43	0	402653184	22	5208
2026-01-04 00:05:13.78	29.76	34.24	-30.8	-34.3	12.2	2.14e-04	0	43	0	404750336	22	5337
2026-01-04 00:05:14.79	29.87	34.45	-30.7	-34.0	12.3	2.45e-04	0	43	0	406847488	22	5223
2026-01-04 00:05:15.79	29.97	34.67	-30.8	-34.2	12.2	2.84e-04	0	43	0	408944640	22	5294
2026-01-04 00:05:16.80	30.08	34.88	-30.8	-34.3	12.2	2.79e-04	0	43	0	409993216	22	5334
2026-01-04 00:05:17.81	30.19	35.10	-30.8	-34.2	12.1	2.46e-04	0	43	0	412090368	22	5312
2026-01-04 00:05:18.81	30.30	35.32	-31.0	-34.7	11.9	3.06e-04	0	43	0	414187520	22	5501
2026-01-04 00:05:19.82	30.41	35.54	-30.9	-34.6	11.9	3.94e-04	0	43	0	416284672	22	5469
2026-01-04 00:05:20.82	30.53	35.76	-31.0	-34.7	11.8	3.87e-04	0	43	0	418381824	22	5533
2026-01-04 00:05:21.83	30.64	35.99	-31.2	-35.2	11.5	6.66e-04	0	43	0	419430400	22	5751
2026-01-04 00:05:22.84	30.76	36.21	-31.2	-35.5	11.3	9.55e-04	0	43	0	421527552	22	5876
2026-01-04 00:05:23.84	30.88	36.44	-31.3	-35.7	11.2	1.57e-03	0	43	0	423624704	22	5959
2026-01-04 00:05:24.85	31.00	36.67	-31.3	-35.8	11.1	1.98e-03	0	43	0	425721856	22	6008
2026-01-04 00:05:25.86	31.12	36.90	-31.5	-36.3	10.7	1.87e-03	0	43	0	426770432	22	6280
2026-01-04 00:05:26.86	31.24	37.13	-31.5	-35.9	10.6	3.69e-03	0	43	0	428867584	23	5963
2026-01-04 00:05:27.87	31.36	37.36	-31.5	-36.0	10.6	3.44e-03	0	43	0	430964736	23	6015
2026-01-04 00:05:28.87	31.49	37.59	-31.6	-36.2	10.4	3.80e-03	0	43	0	433061888	23	6116
2026-01-04 00:05:29.88	31.62	37.83	-31.6	-36.3	10.4	4.62e-03	0	43	0	435159040	23	6132
2026-01-04 00:05:30.88	31.75	38.06	-31.6	-36.3	10.3	4.66e-03	0	43	0	437256192	23	6146
2026-01-04 00:05:31.89	31.88	38.30	-31.7	-36.5	10.2	5.20e-03	0	43	0	438304768	23	6238
2026-01-04 00:05:32.90	32.01	38.55	-31.8	-36.8	10.0	8.28e-03	0	43	0	440401920	23	6385
2026-01-04 00:05:33.90	32.15	38.79	-31.5	-36.6	9.8	7.83e-03	0	43	0	442499072	23	6491
2026-01-04 00:05:34.91	32.29	39.03	-31.9	-37.3	9.5	1.15e-02	0	43	0	444596224	23	6698
2026-01-04 00:05:35.91	32.43	39.27	-32.0	-37.1	9.3	1.48e-02	0	43	0	445644800	24	6462
2026-01-04 00:05:36.92	32.57	39.52	-32.0	-37.2	9.2	1.70e-02	0	43	0	447741952	24	6539
2026-01-04 00:05:37.92	32.71	39.77	-32.0	-36.9	9.5	1.76e-02	0	43	0	449839104	24	6387
2026-01-04 00:05:38.93	32.86	40.02	-32.0	-37.3	9.2	1.57e-02	0	43	0	451936256	24	6559
2026-01-04 00:05:39.94	33.01	40.27	-32.0	-37.2	9.3	1.82e-02	0	43	0	454033408	24	6526
2026-01-04 00:05:40.94	33.16	40.52	-32.1	-37.5	9.1	2.05e-02	0	43	0	455081984	24	6678
2026-01-04 00:05:41.95	33.31	40.77	-32.0	-37.5	9.5	1.54e-02	0	43	0	457179136	23	6787
2026-01-04 00:05:42.96	33.46	41.03	-32.1	-37.3	9.2	1.72e-02	0	43	0	459276288	24	6592
2026-01-04 00:05:43.95	33.62	41.28	-32.0	-37.0	9.5	1.54e-02	0	43	0	461373440	24	6396
2026-01-04 00:05:44.96	33.78	41.54	-31.9	-37.1	9.8	1.07e-02	0	43	0	463470592	23	6550
2026-01-04 00:05:45.97	33.94	41.81	-31.9	-37.2	9.7	1.15e-02	0	43	0	464519168	23	6632
2026-01-04 00:05:46.97	34.11	42.07	-31.8	-36.8	10.0	9.63e-03	0	43	0	466616320	23	6399
2026-01-04 00:05:47.97	34.27	42.33	-31.7	-36.5	10.3	6.49e-03	0	43	0	468713472	23	6230
2026-01-04 00:05:48.97	34.44	42.59	-31.7	-36.5	10.1	5.43e-03	0	43	0	470810624	23	6240
2026-01-04 00:05:49.98	34.62	42.86	-31.5	-35.9	10.7	3.25e-03	0	43	0	472907776	23	5947
2026-01-04 00:05:50.99	34.79	43.13	-31.5	-36.2	10.9	2.32e-03	0	43	0	473956352	22	6166
2026-01-04 00:05:51.99	34.97	43.40	-31.5	-36.1	11.0	1.94e-03	0	43	0	476053504	22	6157
2026-01-04 00:05:52.99	35.15	43.67	-31.5	-35.9	10.8	2.31e-03	0	43	0	478150656	23	5921
2026-01-04 00:05:53.99	35.34	43.94	-31.7	-36.3	10.5	3.82e-03	0	43	0	480247808	23	6114
2026-01-04 00:05:55.00	35.52	44.22	-31.6	-36.0	10.7	3.38e-03	0	43	0	482344960	23	6010
2026-01-04 00:05:56.01	35.72	44.50	-31.5	-35.7	10.8	2.89e-03	0	43	0	483393536	23	5868
2026-01-04 00:05:57.01	35.91	44.77	-31.6	-36.2	10.6	3.76e-03	0	43	0	485490688	23	6067
2026-01-04 00:05:58.02	36.11	45.05	-31.6	-35.9	10.8	2.82e-03	0	43	0	487587840	23	5956
2026-01-04 00:05:59.03	36.31	45.34	-31.2	-34.9	11.5	1.38e-03	0	43	0	489684992	23	5470
2026-01-04 00:06:00.03	36.51	45.62	-31.1	-34.9	11.8	9.51e-04	0	43	0	491782144	22	5587
2026-01-04 00:06:01.04	36.72	45.90	-31.1	-35.0	11.8	5.47e-04	0	43	0	492830720	22	5647
2026-01-04 00:06:02.04	36.93	46.19	-31.2	-35.1	11.8	4.93e-04	0	43	0	494927872	22	5687
2026-01-04 00:06:03.05	37.15	46.48	-31.3	-35.7	11.3	1.98e-03	0	43	0	497025024	22	5939
2026-01-04 00:06:04.06	37.37	46.77	-31.3	-35.7	11.3	2.13e-03	0	43	0	499122176	22	5928
2026-01-04 00:06:05.06	37.59	47.06	-31.4	-35.9	11.1	1.13e-03	0	43	0	501219328	22	6044
2026-01-04 00:06:06.07	37.82	47.35	-31.4	-35.8	11.3	1.77e-03	0	43	0	502267904	22	5988
2026-01-04 00:06:07.07	38.06	47.65	-31.4	-35.9	11.1	2.17e-03	0	43	0	504365056	22	6019
2026-01-04 00:06:08.08	38.29	47.94	-31.3	-35.4	11.5	1.08e-03	0	43	0	506462208	22	5812
2026-01-04 00:06:09.09	38.54	48.24	-31.2	-35.3	11.7	6.07e-04	0	43	0	508559360	22	5740
2026-01-04 00:06:10.10	38.78	48.54	-31.3	-35.4	11.5	1.17e-03	0	43	0	510656512	22	5811
2026-01-04 00:06:11.10	39.03	48.84	-31.4	-35.9	11.2	9.76e-04	0	43	0	511705088	22	6037
2026-01-04 00:06:12.11	39.29	49.14	-31.2	-34.8	11.6	1.47e-03	0	43	0	513802240	23	5416
2026-01-04 00:06:13.10	39.54	49.44	-31.1	-35.0	11.8	8.64e-04	0	43	0	515899392	22	5613
2026-01-04 00:06:14.10	39.81	49.75	-31.1	-35.0	11.8	4.23e-04	0	43	0	517996544	22	5615
2026-01-04 00:06:15.11	40.08	50.05	-31.2	-35.2	11.6	5.15e-04	0	43	0	520093696	22	5723
2026-01-04 00:06:16.11	40.36	50.36	-30.8	-33.9	12.6	3.21e-04	0	43	0	521142272	22	5159
2026-01-04 00:06:17.10	40.63	50.66	-30.4	-32.8	13.3	2.36e-05	0	43	0	523239424	22	4768
2026-01-04 00:06:18.11	40.92	50.97	-30.1	-32.5	13.8	8.01e-05	0	43	0	525336576	21	4769
2026-01-04 00:06:19.11	41.21	51.28	-29.8	-32.4	14.2	9.23e-05	0	43	0	527433728	20	4824
2026-01-04 00:06:20.12	41.52	51.60	-29.6	-31.7	14.7	7.00e-07	0	43	0	528482304	20	4584
2026-01-04 00:06:21.13	41.82	51.91	-29.3	-31.4	15.2	4.68e-04	0	43	0	530579456	19	4607
2026-01-04 00:06:22.13	42.13	52.23	-29.0	-31.3	15.6	8.56e-04	0	43	0	532676608	18	4658
2026-01-04 00:06:23.14	42.45	52.55	-29.0	-31.2	15.6	0.00e+00	0	43	0	534773760	18	4626
2026-01-04 00:06:24.15	42.78	52.87	-28.4	-29.7	16.5	6.69e-04	0	43	0	536870912	18	4193
2026-01-04 00:06:25.15	43.11	53.18	-27.9	-29.6	17.1	4.74e-04	0	43	0	538968064	16	4376
2026-01-04 00:06:26.16	43.45	53.50	-27.6	-29.0	17.5	0.00e+00	0	43	0	540016640	16	4196
2026-01-04 00:06:27.16	43.80	53.82	-27.6	-28.9	17.5	1.01e-04	0	43	0	542113792	16	4189
2026-01-04 00:06:28.16	44.15	54.14	-28.0	-29.9	17.0	0.00e+00	0	43	0	544210944	16	4465
2026-01-04 00:06:29.17	44.52	54.47	-28.2	-30.2	16.8	0.00e+00	0	43	0	546308096	16	4564
2026-01-04 00:06:30.18	44.89	54.79	-28.6	-30.6	16.3	0.00e+00	0	43	0	548405248	17	4574
2026-01-04 00:06:31.18	45.27	55.12	-28.7	-30.9	16.2	1.42e-04	0	43	0	549453824	17	4645
2026-01-04 00:06:32.18	45.66	55.44	-28.9	-31.4	15.9	0.00e+00	0	43	0	551550976	17	4804
2026-01-04 00:06:33.18	46.05	55.76	-29.3	-32.0	15.2	0.00e+00	0	43	0	553648128	18	4884
2026-01-04 00:06:34.18	46.46	56.09	-29.5	-31.9	15.0	8.60e-04	0	43	0	555745280	19	4757
2026-01-04 00:06:35.18	46.87	56.41	-29.6	-32.2	14.8	0.00e+00	0	43	0	556793856	19	4857
2026-01-04 00:06:36.19	47.30	56.74	-29.6	-32.3	14.7	1.10e-03	0	43	0	558891008	19	4892
2026-01-04 00:06:37.19	47.74	57.07	-29.7	-32.3	14.7	0.00e+00	0	43	0	560988160	19	4893
2026-01-04 00:06:38.20	48.18	57.40	-29.8	-32.7	14.5	0.00e+00	0	43	0	563085312	19	5009
2026-01-04 00:06:39.21	48.64	57.73	-30.0	-32.7	14.2	1.74e-03	0	43	0	565182464	20	4919
2026-01-04 00:06:40.21	49.11	58.06	-30.1	-33.0	14.0	1.50e-06	0	43	0	566231040	20	5031
2026-01-04 00:06:41.21	49.59	58.38	-30.1	-33.1	13.9	5.30e-06	0	43	0	568328192	20	5060
2026-01-04 00:06:42.22	50.08	58.71	-29.8	-32.3	14.4	1.71e-03	0	43	0	570425344	20	4770
2026-01-04 00:06:43.22	50.59	59.04	-29.8	-32.6	14.6	0.00e+00	0	43	0	572522496	19	4972
2026-01-04 00:06:44.23	51.11	59.37	-29.4	-31.6	15.2	0.00e+00	0	43	0	574619648	19	4656
2026-01-04 00:06:45.23	51.63	59.70	-29.2	-31.7	15.4	1.60e-03	0	43	0	575668224	18	4794
2026-01-04 00:06:46.24	52.18	60.02	-29.1	-31.4	15.7	1.73e-03	0	43	0	577765376	18	4696
2026-01-04 00:06:47.24	52.74	60.35	-29.2	-31.5	15.6	0.00e+00	0	43	0	579862528	18	4740
2026-01-04 00:06:48.25	53.31	60.68	-29.1	-31.3	15.7	0.00e+00	0	43	0	581959680	18	4677
2026-01-04 00:06:49.26	53.90	61.00	-29.1	-31.5	15.6	1.31e-03	0	43	0	584056832	18	4717
2026-01-04 00:06:50.27	54.51	61.33	-29.2	-31.7	15.5	0.00e+00	0	43	0	585105408	18	4805
2026-01-04 00:06:51.28	55.13	61.65	-29.1	-31.4	15.6	0.00e+00	0	43	0	587202560	18	4682
2026-01-04 00:06:52.28	55.76	61.97	-28.9	-31.0	15.9	0.00e+00	0	43	0	589299712	18	4556
2026-01-04 00:06:53.28	56.41	62.29	-29.0	-31.1	15.8	0.00e+00	0	43	0	591396864	18	4597
2026-01-04 00:06:54.28	57.07	62.61	-29.0	-31.2	15.8	0.00e+00	0	43	0	593494016	18	4619
2026-01-04 00:06:55.29	57.76	62.93	-29.3	-31.9	15.4	0.00e+00	0	43	0	594542592	18	4869
2026-01-04 00:06:56.30	58.47	63.24	-29.6	-32.2	14.9	0.00e+00	0	43	0	596639744	19	4836
2026-01-04 00:06:57.30	59.19	63.55	-29.9	-32.9	14.5	0.00e+00	0	43	0	598736896	19	5100
2026-01-04 00:06:58.31	59.94	63.86	-29.9	-32.9	14.5	0.00e+00	0	43	0	600834048	19	5067
2026-01-04 00:06:59.31	60.69	64.17	-30.2	-33.3	13.9	7.00e-07	0	43	0	602931200	20	5112
2026-01-04 00:07:00.31	61.47	64.47	-30.6	-33.8	13.2	2.67e-05	0	43	0	603979776	21	5193
2026-01-04 00:07:01.32	62.28	64.77	-30.2	-32.7	13.9	9.90e-06	0	43	0	606076928	21	4809
2026-01-04 00:07:02.33	63.11	65.07	-29.9	-31.9	14.4	7.00e-07	0	43	0	608174080	21	4550
2026-01-04 00:07:03.34	63.96	65.37	-29.9	-32.5	14.3	7.00e-07	0	43	0	610271232	20	4856
2026-01-04 00:07:04.35	64.83	65.66	-30.4	-33.9	13.5	3.80e-06	0	43	0	612368384	20	5347
2026-01-04 00:07:05.35	65.72	65.94	-30.5	-33.6	13.3	2.28e-05	0	43	0	613416960	21	5130
2026-01-04 00:07:06.36	66.64	66.23	-30.3	-32.9	13.6	1.52e-05	0	43	0	615514112	21	4858
2026-01-04 00:07:07.36	67.58	66.50	-30.1	-32.9	14.2	1.50e-06	0	43	0	617611264	20	4972
2026-01-04 00:07:08.37	68.55	66.78	-29.9	-32.3	14.4	7.00e-07	0	43	0	619708416	20	4786
2026-01-04 00:07:09.37	69.53	67.04	-30.0	-33.0	13.4	0.00e+00	0	43	0	621805568	19	5114
2026-01-04 00:07:10.38	70.55	67.31	-30.3	-33.5	13.8	2.20e-06	0	43	0	622854144	20	5203
2026-01-04 00:07:11.39	71.60	67.56	-30.6	-33.8	12.9	2.36e-05	0	43	0	624951296	21	5190
2026-01-04 00:07:12.40	72.67	67.81	-30.6	-33.9	13.1	2.74e-05	0	43	0	627048448	21	5251
2026-01-04 00:07:13.40	73.76	68.05	-30.8	-34.5	12.7	6.02e-05	0	43	0	629145600	21	5474
2026-01-04 00:07:14.41	74.88	68.29	-31.1	-34.6	12.4	8.77e-05	0	43	0	631242752	22	5404
2026-01-04 00:07:15.41	76.02	68.52	-31.1	-34.8	12.3	3.57e-04	0	43	0	632291328	22	5497
2026-01-04 00:07:16.42	77.19	68.74	-30.8	-33.8	12.8	1.25e-04	0	43	0	634388480	22	5103
2026-01-04 00:07:17.42	78.38	68.96	-30.8	-34.4	12.9	2.38e-04	0	43	0	636485632	21	5421
2026-01-04 00:07:18.43	79.61	69.16	-30.9	-34.2	12.6	8.92e-05	0	43	0	638582784	22	5262
2026-01-04 00:07:19.44	80.87	69.36	-31.0	-34.5	12.5	9.46e-05	0	43	0	640679936	22	5383
2026-01-04 00:07:20.45	82.15	69.55	-31.1	-34.8	12.2	5.65e-04	0	43	0	641728512	22	5505
2026-01-04 00:07:21.45	83.44	69.73	-31.1	-34.6	12.5	2.33e-04	0	43	0	643825664	22	5399
2026-01-04 00:07:22.46	84.77	69.90	-30.8	-33.9	12.8	1.03e-04	0	43	0	645922816	22	5127
2026-01-04 00:07:23.46	86.11	70.06	-30.8	-34.3	13.0	1.77e-03	0	43	0	648019968	21	5382
2026-01-04 00:07:24.46	87.47	70.21	-30.7	-34.2	13.0	2.30e-03	0	43	0	650117120	21	5354
2026-01-04 00:07:25.46	88.85	70.34	-31.1	-34.7	12.3	6.71e-05	0	43	0	651165696	22	5427
2026-01-04 00:07:26.47	90.27	70.47	-31.0	-34.3	12.6	2.65e-03	0	43	0	653262848	22	5281
2026-01-04 00:07:27.48	91.70	70.59	-30.5	-33.6	13.3	2.23e-03	0	43	0	655360000	21	5126
2026-01-04 00:07:28.48	93.14	70.70	-30.0	-32.6	14.3	4.50e-06	0	43	0	657457152	20	4865
2026-01-04 00:07:29.49	94.61	70.79	-29.4	-31.5	15.4	0.00e+00	0	43	0	659554304	19	4599
2026-01-04 00:07:30.49	96.08	70.88	-29.0	-31.2	15.9	1.88e-03	0	43	0	660602880	18	4607
2026-01-04 00:07:31.50	97.58	70.95	-28.9	-30.9	16.0	1.06e-04	0	43	0	662700032	18	4535
2026-01-04 00:07:32.50	99.07	71.01	-29.2	-31.5	15.7	0.00e+00	0	43	0	664797184	18	4729
2026-01-04 00:07:33.51	100.59	71.05	-29.4	-32.1	15.3	1.10e-03	0	43	0	666894336	18	4913
2026-01-04 00:07:34.51	102.10	71.09	-29.3	-31.7	15.5	0.00e+00	0	43	0	668991488	18	4794
2026-01-04 00:07:35.52	103.63	71.11	-28.7	-31.0	16.3	1.08e-03	0	43	0	670040064	17	4667
2026-01-04 00:07:36.52	105.14	71.12	-28.9	-31.3	16.1	1.72e-03	0	43	0	672137216	17	4761
2026-01-04 00:07:37.53	106.68	71.11	-29.4	-32.1	15.4	0.00e+00	0	43	0	674234368	18	4899
2026-01-04 00:07:38.54	108.21	71.10	-29.4	-31.6	15.4	1.50e-03	0	43	0	676331520	19	4652
2026-01-04 00:07:39.54	109.72	71.07	-29.4	-32.2	15.4	0.00e+00	0	43	0	678428672	18	4926
2026-01-04 00:07:40.55	111.24	71.03	-29.6	-32.0	15.1	0.00e+00	0	43	0	679477248	19	4770
2026-01-04 00:07:41.56	112.75	70.98	-30.0	-32.6	14.5	9.97e-04	0	43	0	681574400	20	4858
2026-01-04 00:07:42.56	114.24	70.91	-30.4	-33.7	13.7	1.62e-03	0	43	0	683671552	20	5263
2026-01-04 00:07:43.57	115.74	70.84	-30.5	-33.6	13.5	8.30e-06	0	43	0	685768704	21	5116
2026-01-04 00:07:44.57	117.20	70.75	-30.4	-33.3	13.7	2.58e-04	0	43	0	687865856	21	4996
2026-01-04 00:07:45.58	118.66	70.65	-30.4	-33.3	13.7	2.05e-04	0	43	0	688914432	21	4985
2026-01-04 00:07:46.58	120.09	70.53	-30.8	-34.2	13.0	1.60e-05	0	43	0	691011584	21	5362
2026-01-04 00:07:47.58	121.51	70.41	-30.7	-34.1	13.1	1.03e-03	0	43	0	693108736	21	5310
2026-01-04 00:07:48.59	122.91	70.28	-30.7	-34.1	13.1	1.38e-03	0	43	0	695205888	21	5287
2026-01-04 00:07:49.59	124.29	70.13	-30.8	-34.3	13.0	3.66e-05	0	43	0	697303040	21	5397
2026-01-04 00:07:50.60	125.65	69.98	-30.7	-34.2	13.1	1.65e-03	0	43	0	698351616	21	5342
2026-01-04 00:07:51.61	126.99	69.81	-30.7	-34.0	13.2	1.62e-03	0	43	0	700448768	21	5263
2026-01-04 00:07:52.62	128.31	69.64	-30.8	-34.3	12.9	2.59e-05	0	43	0	702545920	21	5391
2026-01-04 00:07:53.62	129.59	69.45	-30.7	-34.1	13.1	4.65e-05	0	43	0	704643072	21	5309
2026-01-04 00:07:54.62	130.85	69.26	-30.5	-33.5	13.5	1.50e-03	0	43	0	706740224	21	5067
2026-01-04 00:07:55.63	132.09	69.06	-30.6	-33.7	13.3	1.60e-05	0	43	0	707788800	21	5161
2026-01-04 00:07:56.63	133.29	68.85	-30.6	-33.7	13.4	1.29e-05	0	43	0	709885952	21	5135
2026-01-04 00:07:57.63	134.47	68.63	-30.6	-33.8	13.3	2.21e-05	0	43	0	711983104	21	5186
2026-01-04 00:07:58.64	135.64	68.41	-31.0	-34.8	12.7	2.89e-05	0	43	0	714080256	21	5598
2026-01-04 00:07:59.65	136.78	68.17	-31.0	-34.3	12.6	4.79e-04	0	43	0	715128832	22	5284
2026-01-04 00:08:00.65	137.88	67.93	-31.0	-34.9	12.6	5.79e-05	0	43	0	717225984	21	5641
2026-01-04 00:08:01.66	138.96	67.69	-31.5	-35.9	11.5	3.47e-04	0	43	0	719323136	22	5991
2026-01-04 00:08:02.66	140.01	67.43	-31.4	-35.1	11.7	2.95e-03	0	43	0	721420288	23	5508
2026-01-04 00:08:03.66	141.03	67.18	-31.2	-35.0	12.1	2.14e-04	0	43	0	723517440	22	5572
2026-01-04 00:08:04.67	142.04	66.91	-30.9	-34.2	12.8	1.24e-04	0	43	0	725614592	22	5224
2026-01-04 00:08:05.67	143.02	66.64	-31.1	-34.7	12.4	2.42e-03	0	43	0	726663168	22	5454
2026-01-04 00:08:06.68	143.97	66.37	-31.5	-35.9	11.6	4.13e-04	0	43	0	728760320	22	5972
2026-01-04 00:08:07.69	144.91	66.08	-32.0	-36.9	10.4	3.04e-03	0	43	0	730857472	23	6388
2026-01-04 00:08:08.70	145.82	65.80	-31.8	-36.2	10.9	4.76e-03	0	43	0	732954624	23	6025
2026-01-04 00:08:09.71	146.71	65.51	-31.0	-33.8	12.7	3.33e-03	0	43	0	734003200	23	4984
2026-01-04 00:08:10.71	147.56	65.22	-30.7	-33.6	13.2	2.13e-05	0	43	0	736100352	22	5006
2026-01-04 00:08:11.72	148.40	64.92	-30.9	-34.8	12.7	7.85e-05	0	43	0	738197504	21	5583
2026-01-04 00:08:12.72	149.21	64.62	-30.8	-33.9	12.9	1.85e-03	0	43	0	740294656	22	5123
2026-01-04 00:08:13.73	150.01	64.32	-30.0	-32.1	14.3	3.80e-06	0	43	0	742391808	21	4599
2026-01-04 00:08:14.74	150.79	64.01	-29.2	-31.2	15.6	0.00e+00	0	43	0	743440384	19	4512
2026-01-04 00:08:15.74	151.54	63.70	-28.4	-29.6	16.8	3.80e-06	0	43	0	745537536	18	4159
2026-01-04 00:08:16.75	152.28	63.39	-28.1	-29.5	17.2	0.00e+00	0	43	0	747634688	17	4216
2026-01-04 00:08:17.76	152.99	63.07	-28.3	-29.9	16.9	0.00e+00	0	43	0	749731840	17	4325
2026-01-04 00:08:18.77	153.69	62.75	-28.2	-29.7	17.0	0.00e+00	0	43	0	751828992	17	4290
2026-01-04 00:08:19.77	154.37	62.44	-27.6	-28.8	17.8	0.00e+00	0	43	0	752877568	16	4150
2026-01-04 00:08:20.77	155.02	62.12	-27.1	-28.2	18.3	0.00e+00	0	43	0	754974720	15	4088
2026-01-04 00:08:21.77	155.66	61.80	-27.3	-28.8	17.9	0.00e+00	0	43	0	757071872	15	4250
2026-01-04 00:08:22.78	156.30	61.47	-27.9	-30.0	17.3	0.00e+00	0	43	0	759169024	15	4600
2026-01-04 00:08:23.79	156.91	61.15	-28.8	-31.2	16.2	0.00e+00	0	43	0	761266176	17	4746
2026-01-04 00:08:24.80	157.51	60.82	-29.3	-31.8	15.5	0.00e+00	0	43	0	762314752	18	4835
2026-01-04 00:08:25.81	158.09	60.49	-28.8	-30.8	16.1	0.00e+00	0	43	0	764411904	18	4497
2026-01-04 00:08:26.82	158.66	60.17	-28.6	-30.6	16.6	0.00e+00	0	43	0	766509056	17	4534
2026-01-04 00:08:27.83	159.21	59.84	-29.1	-31.4	15.8	0.00e+00	0	43	0	768606208	18	4698
2026-01-04 00:08:28.84	159.75	59.51	-30.3	-33.6	13.7	7.00e-07	0	43	0	770703360	20	5252
2026-01-04 00:08:29.84	160.27	59.18	-30.5	-33.5	13.4	9.97e-04	0	43	0	771751936	21	5105
2026-01-04 00:08:30.84	160.78	58.85	-29.5	-31.4	15.1	1.50e-06	0	43	0	773849088	20	4468
2026-01-04 00:08:31.85	161.28	58.52	-29.1	-31.3	15.8	0.00e+00	0	43	0	775946240	18	4657
2026-01-04 00:08:32.85	161.77	58.19	-29.7	-32.4	14.9	0.00e+00	0	43	0	778043392	19	4892
2026-01-04 00:08:33.86	162.25	57.86	-30.8	-34.3	13.0	7.60e-06	0	43	0	780140544	21	5395
2026-01-04 00:08:34.87	162.71	57.53	-31.6	-35.9	11.0	6.91e-04	0	43	0	781189120	23	5887
2026-01-04 00:08:35.87	163.16	57.20	-30.8	-34.0	12.8	1.12e-03	0	43	0	783286272	22	5196
2026-01-04 00:08:36.88	163.61	56.87	-29.0	-30.6	15.8	0.00e+00	0	43	0	785383424	19	4341
2026-01-04 00:08:37.88	164.04	56.54	-28.0	-29.1	17.3	0.00e+00	0	43	0	787480576	17	4118
2026-01-04 00:08:38.89	164.46	56.21	-28.3	-30.4	16.9	0.00e+00	0	43	0	789577728	16	4581
2026-01-04 00:08:39.89	164.87	55.89	-29.3	-31.9	15.4	0.00e+00	0	43	0	790626304	18	4867
2026-01-04 00:08:40.90	165.27	55.56	-29.9	-32.9	14.5	3.59e-04	0	43	0	792723456	19	5087
2026-01-04 00:08:41.90	165.67	55.23	-29.1	-30.9	15.7	0.00e+00	0	43	0	794820608	19	4437
2026-01-04 00:08:42.90	166.05	54.91	-27.8	-28.9	17.4	0.00e+00	0	43	0	796917760	17	4064
2026-01-04 00:08:43.90	166.42	54.59	-26.9	-27.9	18.4	0.00e+00	0	43	0	799014912	15	4023
2026-01-04 00:08:44.91	166.79	54.26	-26.9	-27.8	18.4	0.00e+00	0	43	0	800063488	15	3997
2026-01-04 00:08:45.92	167.15	53.94	-27.9	-30.0	17.2	0.00e+00	0	43	0	802160640	15	4611
2026-01-04 00:08:46.93	167.51	53.61	-28.6	-30.7	16.4	0.00e+00	0	43	0	804257792	17	4573
2026-01-04 00:08:47.93	167.85	53.29	-29.0	-31.2	15.8	0.00e+00	0	43	0	806354944	18	4645
2026-01-04 00:08:48.93	168.18	52.97	-28.7	-30.6	16.2	0.00e+00	0	43	0	808452096	18	4434
2026-01-04 00:08:49.93	168.51	52.66	-28.3	-29.9	16.9	0.00e+00	0	43	0	809500672	17	4344
2026-01-04 00:08:50.94	168.83	52.34	-28.5	-30.3	16.6	0.00e+00	0	43	0	811597824	17	4469
2026-01-04 00:08:51.94	169.15	52.02	-28.7	-31.0	16.2	0.00e+00	0	43	0	813694976	17	4679
2026-01-04 00:08:52.95	169.46	51.70	-29.8	-32.5	14.8	3.00e-06	0	43	0	815792128	19	4952
2026-01-04 00:08:53.95	169.76	51.39	-30.6	-34.0	13.0	1.06e-05	0	43	0	817889280	21	5292
2026-01-04 00:08:54.96	170.06	51.08	-30.7	-34.3	12.8	6.10e-05	0	43	0	818937856	21	5402
2026-01-04 00:08:55.97	170.35	50.76	-31.3	-35.5	11.7	9.68e-05	0	43	0	821035008	22	5790
2026-01-04 00:08:56.97	170.63	50.45	-31.3	-35.3	11.8	5.96e-04	0	43	0	823132160	22	5735
2026-01-04 00:08:57.98	170.91	50.14	-31.5	-35.4	11.3	7.64e-04	0	43	0	825229312	23	5667
2026-01-04 00:08:58.99	171.19	49.83	-31.1	-34.4	12.1	6.59e-04	0	43	0	827326464	23	5215
2026-01-04 00:08:59.99	171.45	49.53	-31.6	-35.9	11.1	9.22e-04	0	43	0	828375040	23	5888
2026-01-04 00:09:01.00	171.72	49.22	-32.1	-37.1	9.8	4.52e-03	0	43	0	830472192	24	6409
2026-01-04 00:09:02.01	171.98	48.92	-32.9	-40.0	7.1	4.59e-02	0	43	0	832569344	25	8164
2026-01-04 00:09:03.02	172.23	48.61	-32.8	-39.7	7.3	1.57e-01	0	43	0	834666496	25	7963
2026-01-04 00:09:04.03	172.48	48.31	-32.3	-37.4	9.0	4.78e-02	0	43	0	836763648	25	6476
2026-01-04 00:09:05.03	172.72	48.01	-31.9	-35.8	10.3	9.01e-03	0	43	0	837812224	25	5649
2026-01-04 00:09:06.04	172.96	47.72	-31.7	-35.6	10.8	2.91e-03	0	43	0	839909376	24	5667
2026-01-04 00:09:07.04	173.19	47.42	-31.9	-36.4	10.3	3.75e-03	0	43	0	842006528	24	6026
2026-01-04 00:09:08.05	173.43	47.13	-31.7	-35.8	10.7	3.78e-03	0	43	0	844103680	24	5728
2026-01-04 00:09:09.06	173.65	46.83	-31.7	-35.8	10.7	2.89e-03	0	43	0	846200832	24	5730
2026-01-04 00:09:10.07	173.87	46.54	-32.1	-37.0	9.8	7.31e-03	0	43	0	847249408	24	6357
2026-01-04 00:09:11.07	174.09	46.25	-32.3	-37.7	9.3	1.38e-02	0	43	0	849346560	24	6711
2026-01-04 00:09:12.08	174.31	45.96	-32.4	-38.1	8.9	2.79e-02	0	43	0	851443712	24	6957
2026-01-04 00:09:13.09	174.52	45.67	-31.9	-36.4	10.2	9.31e-03	0	43	0	853540864	24	6062
2026-01-04 00:09:14.10	174.72	45.39	-31.3	-34.4	11.6	1.79e-03	0	43	0	855638016	24	5161
2026-01-04 00:09:15.11	174.93	45.10	-30.6	-33.4	13.1	2.62e-04	0	43	0	856686592	22	4950
2026-01-04 00:09:16.11	175.13	44.82	-30.2	-32.6	13.9	1.37e-05	0	43	0	858783744	21	4781
2026-01-04 00:09:17.12	175.32	44.54	-30.2	-32.8	13.8	4.50e-06	0	43	0	860880896	21	4846
2026-01-04 00:09:18.13	175.52	44.26	-30.7	-34.2	12.9	2.05e-05	0	43	0	862978048	21	5356
2026-01-04 00:09:19.13	175.70	43.99	-31.0	-35.0	12.3	7.47e-05	0	43	0	865075200	21	5710
2026-01-04 00:09:20.14	175.89	43.71	-31.7	-36.1	10.8	1.64e-03	0	43	0	866123776	23	5994
2026-01-04 00:09:21.14	176.07	43.44	-31.3	-35.1	11.5	1.78e-03	0	43	0	868220928	23	5546
2026-01-04 00:09:22.14	176.25	43.17	-30.8	-33.5	12.6	3.53e-04	0	43	0	870318080	23	4895
2026-01-04 00:09:23.15	176.43	42.90	-30.1	-32.5	13.9	3.80e-06	0	43	0	872415232	21	4762
2026-01-04 00:09:24.16	176.60	42.63	-29.5	-31.4	14.9	0.00e+00	0	43	0	874512384	20	4480
2026-01-04 00:09:25.16	176.77	42.36	-29.0	-30.7	15.7	0.00e+00	0	43	0	875560960	19	4376
2026-01-04 00:09:26.16	176.94	42.10	-28.5	-30.0	16.4	0.00e+00	0	43	0	877658112	18	4269
2026-01-04 00:09:27.17	177.11	41.83	-28.6	-30.1	16.4	0.00e+00	0	43	0	879755264	18	4289
2026-01-04 00:09:28.17	177.27	41.57	-29.1	-31.3	15.6	0.00e+00	0	43	0	881852416	18	4672
2026-01-04 00:09:29.18	177.43	41.31	-29.8	-32.8	14.4	2.67e-05	0	43	0	883949568	19	5085
2026-01-04 00:09:30.18	177.59	41.05	-30.6	-34.0	12.9	1.83e-05	0	43	0	884998144	21	5330
2026-01-04 00:09:31.19	177.74	40.79	-31.4	-35.9	11.3	3.79e-04	0	43	0	887095296	22	6024
2026-01-04 00:09:32.20	177.90	40.54	-31.4	-35.4	11.2	1.90e-03	0	43	0	889192448	23	5698
2026-01-04 00:09:33.21	178.05	40.28	-30.9	-33.7	12.4	2.58e-04	0	43	0	891289600	23	4994
2026-01-04 00:09:34.21	178.20	40.03	-30.5	-33.1	13.2	5.95e-05	0	43	0	893386752	22	4879
2026-01-04 00:09:35.21	178.34	39.78	-30.1	-32.5	13.8	1.29e-04	0	43	0	894435328	21	4758
2026-01-04 00:09:36.22	178.49	39.53	-30.1	-33.1	13.8	1.23e-04	0	43	0	896532480	20	5056
2026-01-04 00:09:37.22	178.63	39.29	-30.1	-32.9	14.0	3.80e-06	0	43	0	898629632	20	5008
2026-01-04 00:09:38.22	178.77	39.04	-30.3	-33.6	13.5	4.50e-06	0	43	0	900726784	20	5272
2026-01-04 00:09:39.23	178.91	38.80	-30.6	-33.9	12.9	1.50e-04	0	43	0	902823936	21	5277
2026-01-04 00:09:40.24	179.04	38.55	-31.0	-34.7	12.1	1.51e-04	0	43	0	903872512	22	5482
2026-01-04 00:09:41.25	179.18	38.31	-31.3	-35.6	11.5	6.77e-04	0	43	0	905969664	22	5897
2026-01-04 00:09:42.25	179.31	38.07	-31.4	-36.0	11.1	1.09e-03	0	43	0	908066816	22	6081
2026-01-04 00:09:43.26	179.44	37.83	-31.7	-36.3	10.6	2.90e-03	0	43	0	910163968	23	6128
2026-01-04 00:09:44.26	179.57	37.60	-31.7	-36.3	10.5	4.57e-03	0	43	0	912261120	23	6119
2026-01-04 00:09:45.27	179.70	37.36	-31.2	-34.6	11.7	1.34e-03	0	43	0	913309696	23	5365
2026-01-04 00:09:46.27	179.82	37.13	-30.7	-34.3	12.5	1.23e-03	0	43	0	915406848	21	5436
2026-01-04 00:09:47.28	179.95	36.89	-30.2	-33.4	13.5	3.43e-05	0	43	0	917504000	20	5193
2026-01-04 00:09:48.29	180.07	36.66	-30.0	-32.7	13.9	8.30e-06	0	43	0	919601152	20	4950
2026-01-04 00:09:49.29	180.19	36.43	-29.9	-32.4	14.2	2.20e-06	0	43	0	921698304	20	4826
2026-01-04 00:09:50.30	180.31	36.20	-29.9	-33.1	14.1	7.00e-07	0	43	0	922746880	19	5176
2026-01-04 00:09:51.31	180.42	35.98	-29.9	-32.9	14.3	0.00e+00	0	43	0	924844032	19	5099
2026-01-04 00:09:52.32	180.54	35.75	-30.1	-32.9	13.9	1.50e-06	0	43	0	926941184	20	5016
2026-01-04 00:09:53.32	180.65	35.53	-30.2	-33.4	13.5	1.35e-03	0	43	0	929038336	20	5193
2026-01-04 00:09:54.33	180.76	35.31	-30.3	-33.5	13.4	7.60e-06	0	43	0	931135488	20	5244
2026-01-04 00:09:55.33	180.87	35.09	-30.5	-34.1	13.1	2.28e-05	0	43	0	932184064	20	5476
2026-01-04 00:09:56.34	180.98	34.87	-30.5	-34.1	13.0	1.59e-03	0	43	0	934281216	20	5490
2026-01-04 00:09:57.34	181.09	34.65	-30.6	-34.0	12.8	6.56e-05	0	43	0	936378368	21	5313
2026-01-04 00:09:58.34	181.20	34.44	-30.8	-34.5	12.5	7.17e-05	0	43	0	938475520	21	5520
2026-01-04 00:09:59.35	181.30	34.22	-31.0	-35.0	12.1	1.47e-04	0	43	0	940572672	21	5749
2026-01-04 00:10:00.36	181.41	34.00	-31.0	-34.6	12.0	3.11e-04	0	43	0	941621248	22	5469
2026-01-04 00:10:01.36	181.51	33.79	-31.1	-35.1	11.7	4.38e-04	0	43	0	943718400	22	5671
2026-01-04 00:10:02.37	181.61	33.58	-31.2	-35.2	11.6	8.17e-04	0	43	0	945815552	22	5716
2026-01-04 00:10:03.37	181.71	33.37	-31.0	-34.7	12.0	4.04e-04	0	43	0	947912704	22	5485
2026-01-04 00:10:04.37	181.81	33.17	-30.9	-34.7	12.2	9.62e-04	0	43	0	950009856	21	5626
2026-01-04 00:10:05.38	181.91	32.96	-30.8	-34.6	12.3	1.56e-04	0	43	0	951058432	21	5570
2026-01-04 00:10:06.39	182.00	32.75	-30.7	-34.4	12.5	1.25e-04	0	43	0	953155584	21	5472
2026-01-04 00:10:07.39	182.10	32.55	-30.8	-34.5	12.4	6.13e-04	0	43	0	955252736	21	5537
2026-01-04 00:10:08.40	182.19	32.35	-30.9	-34.8	12.1	6.23e-04	0	43	0	957349888	21	5676
2026-01-04 00:10:09.41	182.29	32.14	-30.9	-34.9	12.1	2.11e-04	0	43	0	959447040	21	5708
2026-01-04 00:10:10.41	182.38	31.94	-31.0	-35.1	12.0	6.45e-04	0	43	0	960495616	21	5771
2026-01-04 00:10:11.42	182.47	31.74	-31.2	-35.2	11.6	7.52e-04	0	43	0	962592768	22	5715
2026-01-04 00:10:12.42	182.56	31.55	-31.2	-35.4	11.4	9.67e-04	0	43	0	964689920	22	5818
2026-01-04 00:10:13.43	182.65	31.35	-31.3	-35.7	11.2	1.62e-03	0	43	0	966787072	22	5952
2026-01-04 00:10:14.43	182.73	31.16	-31.5	-35.8	10.8	2.53e-03	0	43	0	968884224	23	5894
2026-01-04 00:10:15.43	182.82	30.96	-31.5	-35.8	10.7	2.61e-03	0	43	0	969932800	23	5920
2026-01-04 00:10:16.43	182.91	30.77	-31.6	-36.1	10.6	3.54e-03	0	43	0	972029952	23	6041
2026-01-04 00:10:17.44	182.99	30.58	-31.6	-36.1	10.6	4.27e-03	0	43	0	974127104	23	6037
2026-01-04 00:10:18.44	183.07	30.39	-31.6	-36.2	10.4	4.08e-03	0	43	0	976224256	23	6109
2026-01-04 00:10:19.45	183.16	30.20	-31.6	-36.3	10.3	4.52e-03	0	43	0	977272832	23	6157
2026-01-04 00:10:20.45	183.24	30.01	-31.6	-36.1	10.5	5.40e-03	0	43	0	979369984	23	6079
2026-01-04 00:10:21.46	183.32	29.82	-31.3	-35.3	11.1	2.49e-03	0	43	0	981467136	23	5671
2026-01-04 00:10:22.46	183.40	29.64	-31.1	-35.0	11.6	1.83e-03	0	43	0	983564288	22	5640
2026-01-04 00:10:23.47	183.48	29.45	-30.9	-34.6	12.0	1.90e-03	0	43	0	985661440	22	5465
2026-01-04 00:10:24.47	183.56	29.27	-30.8	-34.2	12.3	2.65e-04	0	43	0	987758592	22	5291
2026-01-04 00:10:25.48	183.64	29.09	-30.8	-34.6	12.3	1.56e-03	0	43	0	988807168	21	5581
2026-01-04 00:10:26.49	183.71	28.91	-30.7	-34.2	12.5	5.35e-04	0	43	0	990904320	21	5410
2026-01-04 00:10:27.49	183.79	28.73	-30.5	-33.7	12.9	5.03e-05	0	43	0	993001472	21	5198
2026-01-04 00:10:28.49	183.86	28.55	-30.6	-34.1	12.6	2.16e-03	0	43	0	995098624	21	5360
2026-01-04 00:10:29.49	183.94	28.37	-30.6	-33.9	12.8	1.79e-03	0	43	0	996147200	21	5282
2026-01-04 00:10:30.50	184.01	28.20	-30.3	-33.1	13.2	2.97e-05	0	43	0	998244352	21	4989
2026-01-04 00:10:31.51	184.08	28.02	-30.0	-32.8	13.8	2.21e-03	0	43	0	1000341504	20	4990
2026-01-04 00:10:32.51	184.16	27.85	-29.8	-32.8	14.2	1.96e-03	0	43	0	1002438656	19	5100
2026-01-04 00:10:33.52	184.23	27.67	-29.8	-32.9	14.1	2.20e-06	0	43	0	1004535808	19	5113
2026-01-04 00:10:34.51	184.30	27.50	-29.9	-33.2	13.9	2.25e-03	0	43	0	1005584384	19	5232
2026-01-04 00:10:35.52	184.37	27.33	-30.0	-32.9	13.7	2.36e-03	0	43	0	1007681536	20	5018
2026-01-04 00:10:36.53	184.44	27.16	-29.8	-32.5	14.0	4.50e-06	0	43	0	1009778688	20	4871
2026-01-04 00:10:37.53	184.50	26.99	-29.9	-33.0	14.0	3.11e-04	0	43	0	1011875840	19	5173
2026-01-04 00:10:38.54	184.57	26.82	-29.9	-33.1	13.9	2.36e-03	0	43	0	1013972992	19	5200
2026-01-04 00:10:39.54	184.64	26.65	-30.0	-33.3	13.8	5.26e-05	0	43	0	1015021568	19	5292
2026-01-04 00:10:40.54	184.71	26.49	-30.1	-33.2	13.5	3.74e-04	0	43	0	1017118720	20	5144
2026-01-04 00:10:41.55	184.77	26.32	-30.2	-33.4	13.3	3.71e-04	0	43	0	1019215872	20	5236
2026-01-04 00:10:42.55	184.84	26.16	-30.2	-33.4	13.3	8.85e-05	0	43	0	1021313024	20	5226
2026-01-04 00:10:43.56	184.90	25.99	-30.4	-33.9	13.0	3.80e-04	0	43	0	1023410176	20	5416
2026-01-04 00:10:44.56	184.96	25.83	-30.4	-34.1	12.9	4.16e-04	0	43	0	1024458752	20	5478
2026-01-04 00:10:45.57	185.03	25.67	-30.1	-33.2	13.4	1.04e-04	0	43	0	1026555904	20	5158
2026-01-04 00:10:46.57	185.09	25.51	-29.8	-32.5	13.9	4.50e-06	0	43	0	1028653056	20	4896
2026-01-04 00:10:47.57	185.15	25.35	-29.8	-32.9	14.0	3.75e-04	0	43	0	1030750208	19	5138
2026-01-04 00:10:48.58	185.21	25.19	-29.9	-33.2	13.8	7.00e-07	0	43	0	1032847360	19	5243
2026-01-04 00:10:49.59	185.28	25.03	-29.8	-32.9	14.1	2.10e-03	0	43	0	1033895936	19	5117
2026-01-04 00:10:50.59	185.34	24.88	-29.6	-32.4	14.4	3.49e-04	0	43	0	1035993088	19	4935
2026-01-04 00:10:51.60	185.40	24.72	-29.4	-31.8	14.7	0.00e+00	0	43	0	1038090240	19	4739
2026-01-04 00:10:52.60	185.45	24.56	-29.3	-32.1	14.8	3.52e-04	0	43	0	1040187392	18	4968
2026-01-04 00:10:53.60	185.51	24.41	-29.3	-32.1	14.8	0.00e+00	0	43	0	1042284544	18	4965
2026-01-04 00:10:54.61	185.57	24.26	-29.4	-32.3	14.7	0.00e+00	0	43	0	1043333120	18	5022
2026-01-04 00:10:55.61	185.63	24.11	-29.4	-32.4	14.7	3.78e-04	0	43	0	1045430272	18	5053
2026-01-04 00:10:56.62	185.69	23.95	-29.3	-32.0	14.9	1.94e-03	0	43	0	1047527424	18	4925
2026-01-04 00:10:57.62	185.74	23.80	-29.2	-31.8	15.0	0.00e+00	0	43	0	1049624576	18	4850
2026-01-04 00:10:58.63	185.80	23.65	-29.2	-31.9	14.9	3.09e-04	0	43	0	1051721728	18	4883
2026-01-04 00:10:59.63	185.85	23.50	-29.2	-31.7	15.0	2.62e-04	0	43	0	1052770304	18	4843
2026-01-04 00:11:00.63	185.91	23.36	-29.2	-31.9	14.9	0.00e+00	0	43	0	1054867456	18	4911
2026-01-04 00:11:01.64	185.96	23.21	-29.1	-31.7	15.1	2.78e-04	0	43	0	1056964608	18	4818
2026-01-04 00:11:02.63	186.02	23.06	-29.0	-31.4	15.2	2.82e-04	0	43	0	1059061760	18	4737
2026-01-04 00:11:03.63	186.07	22.92	-29.0	-31.2	15.3	0.00e+00	0	43	0	1061158912	18	4679
2026-01-04 00:11:04.64	186.12	22.77	-29.0	-31.7	15.3	0.00e+00	0	43	0	1062207488	17	4955
2026-01-04 00:11:05.64	186.18	22.63	-29.0	-31.9	15.2	2.65e-04	0	43	0	1064304640	17	5000
2026-01-04 00:11:06.65	186.23	22.48	-29.1	-31.5	15.1	0.00e+00	0	43	0	1066401792	18	4768
2026-01-04 00:11:07.66	186.28	22.34	-29.1	-31.6	15.1	0.00e+00	0	43	0	1068498944	18	4798
2026-01-04 00:11:08.67	186.33	22.20	-29.2	-31.9	14.9	2.80e-04	0	43	0	1069547520	18	4907
2026-01-04 00:11:09.67	186.38	22.06	-29.3	-32.1	14.6	7.00e-07	0	43	0	1071644672	18	4966
2026-01-04 00:11:10.68	186.43	21.92	-29.4	-32.3	14.6	0.00e+00	0	43	0	1073741824	18	5047
2026-01-04 00:11:11.69	186.48	21.78	-29.3	-32.2	14.6	7.00e-07	0	43	0	1075838976	18	5024
2026-01-04 00:11:12.69	186.53	21.64	-29.4	-32.3	14.7	0.00e+00	0	43	0	1077936128	18	5028
2026-01-04 00:11:13.69	186.58	21.50	-29.5	-32.6	14.4	1.52e-03	0	43	0	1078984704	18	5151
2026-01-04 00:11:14.70	186.63	21.36	-29.7	-32.7	14.1	7.00e-07	0	43	0	1081081856	19	5073
2026-01-04 00:11:15.71	186.68	21.23	-29.7	-32.6	14.1	3.00e-06	0	43	0	1083179008	19	5036
2026-01-04 00:11:16.71	186.73	21.09	-29.5	-32.1	14.4	3.05e-04	0	43	0	1085276160	19	4872
2026-01-04 00:11:17.71	186.78	20.96	-29.4	-32.4	14.5	7.00e-07	0	43	0	1087373312	18	5073
2026-01-04 00:11:18.72	186.82	20.82	-29.5	-32.6	14.4	1.50e-06	0	43	0	1088421888	18	5144
2026-01-04 00:11:19.72	186.87	20.69	-29.4	-32.3	14.6	3.36e-04	0	43	0	1090519040	18	5028
2026-01-04 00:11:20.73	186.92	20.55	-29.3	-32.1	14.7	1.99e-04	0	43	0	1092616192	18	4959
2026-01-04 00:11:21.73	186.96	20.42	-29.2	-31.8	14.9	0.00e+00	0	43	0	1094713344	18	4877
2026-01-04 00:11:22.73	187.01	20.29	-29.2	-31.8	14.9	0.00e+00	0	43	0	1096810496	18	4862
2026-01-04 00:11:23.74	187.05	20.16	-29.2	-31.8	14.9	1.90e-04	0	43	0	1097859072	18	4868
2026-01-04 00:11:24.75	187.10	20.03	-29.2	-31.8	14.9	1.22e-03	0	43	0	1099956224	18	4871
2026-01-04 00:11:25.75	187.14	19.90	-29.2	-31.8	14.9	0.00e+00	0	43	0	1102053376	18	4861
2026-01-04 00:11:26.76	187.19	19.77	-29.2	-31.9	14.8	3.22e-04	0	43	0	1104150528	18	4896
2026-01-04 00:11:27.77	187.23	19.64	-29.2	-32.0	14.8	6.81e-04	0	43	0	1106247680	18	4930
2026-01-04 00:11:28.78	187.28	19.51	-29.4	-32.3	14.5	0.00e+00	0	43	0	1107296256	18	5055
2026-01-04 00:11:29.77	187.32	19.39	-29.4	-32.3	14.5	1.50e-06	0	43	0	1109393408	18	5057
2026-01-04 00:11:30.78	187.36	19.26	-29.5	-32.6	14.3	5.06e-04	0	43	0	1111490560	18	5160
2026-01-04 00:11:31.79	187.41	19.13	-29.6	-32.5	14.1	4.81e-04	0	43	0	1113587712	19	5011
2026-01-04 00:11:32.79	187.45	19.01	-29.7	-32.6	14.0	7.00e-07	0	43	0	1115684864	19	5055
2026-01-04 00:11:33.79	187.49	18.88	-29.8	-32.9	13.8	4.10e-04	0	43	0	1116733440	19	5169
2026-01-04 00:11:34.80	187.53	18.76	-29.8	-32.9	13.8	3.59e-04	0	43	0	1118830592	19	5158
2026-01-04 00:11:35.81	187.57	18.63	-29.8	-32.9	13.8	4.27e-05	0	43	0	1120927744	19	5169
2026-01-04 00:11:36.81	187.61	18.51	-29.9	-32.9	13.4	6.80e-06	0	43	0	1123024896	20	5072
2026-01-04 00:11:37.82	187.66	18.39	-30.2	-33.5	13.0	3.40e-04	0	43	0	1125122048	20	5296
2026-01-04 00:11:38.82	187.70	18.27	-30.2	-33.7	12.8	9.68e-05	0	43	0	1126170624	20	5391
2026-01-04 00:11:39.83	187.74	18.15	-30.2	-33.8	12.7	6.63e-05	0	43	0	1128267776	20	5407
2026-01-04 00:11:40.84	187.78	18.02	-30.3	-34.0	12.7	3.62e-04	0	43	0	1130364928	20	5500
2026-01-04 00:11:41.84	187.82	17.91	-30.3	-33.8	12.8	7.09e-05	0	43	0	1132462080	20	5409
2026-01-04 00:11:42.85	187.86	17.79	-30.2	-33.8	12.8	2.33e-04	0	43	0	1134559232	20	5406
2026-01-04 00:11:43.85	187.89	17.67	-30.3	-33.9	12.7	4.22e-04	0	43	0	1135607808	20	5464
2026-01-04 00:11:44.85	187.93	17.55	-30.2	-33.5	13.0	5.41e-05	0	43	0	1137704960	20	5297
2026-01-04 00:11:45.86	187.97	17.43	-30.0	-33.0	13.3	8.31e-05	0	43	0	1139802112	20	5103
2026-01-04 00:11:46.86	188.01	17.31	-30.0	-33.4	13.4	5.03e-05	0	43	0	1141899264	19	5367
2026-01-04 00:11:47.87	188.05	17.20	-29.9	-32.9	13.3	1.22e-05	0	43	0	1143996416	20	5064
2026-01-04 00:11:48.87	188.09	17.08	-30.1	-33.4	13.0	6.63e-05	0	43	0	1145044992	20	5264
2026-01-04 00:11:49.88	188.12	16.97	-30.0	-33.1	13.2	6.56e-05	0	43	0	1147142144	20	5154
2026-01-04 00:11:50.89	188.16	16.85	-30.1	-33.4	13.0	3.73e-05	0	43	0	1149239296	20	5269
2026-01-04 00:11:51.89	188.20	16.74	-30.1	-33.4	13.0	7.93e-05	0	43	0	1151336448	20	5255
2026-01-04 00:11:52.89	188.23	16.62	-30.2	-33.7	12.8	7.62e-05	0	43	0	1153433600	20	5379
2026-01-04 00:11:53.90	188.27	16.51	-30.2	-33.6	12.9	4.95e-05	0	43	0	1154482176	20	5324
2026-01-04 00:11:54.91	188.31	16.40	-30.1	-33.4	13.0	3.05e-04	0	43	0	1156579328	20	5254
2026-01-04 00:11:55.91	188.34	16.28	-30.1	-33.4	13.0	1.08e-04	0	43	0	1158676480	20	5268
2026-01-04 00:11:56.91	188.38	16.17	-30.1	-33.4	12.9	4.04e-05	0	43	0	1160773632	20	5251
2026-01-04 00:11:57.92	188.41	16.06	-30.0	-33.0	13.2	2.87e-04	0	43	0	1162870784	20	5114
2026-01-04 00:11:58.93	188.45	15.95	-30.0	-33.5	13.3	1.08e-04	0	43	0	1163919360	19	5410
2026-01-04 00:11:59.93	188.48	15.84	-30.0	-33.1	13.2	1.60e-05	0	43	0	1166016512	20	5138
2026-01-04 00:12:00.93	188.52	15.73	-30.0	-33.2	13.1	2.56e-04	0	43	0	1168113664	20	5187
2026-01-04 00:12:01.94	188.55	15.62	-30.0	-33.2	13.1	3.52e-04	0	43	0	1170210816	20	5206
2026-01-04 00:12:02.94	188.59	15.51	-30.1	-33.4	12.9	3.73e-05	0	43	0	1172307968	20	5259
2026-01-04 00:12:03.95	188.62	15.40	-30.0	-33.2	13.0	3.14e-04	0	43	0	1173356544	20	5199
2026-01-04 00:12:04.96	188.66	15.29	-30.1	-33.4	13.0	3.03e-04	0	43	0	1175453696	20	5254
2026-01-04 00:12:05.96	188.69	15.19	-30.2	-33.7	12.7	5.34e-05	0	43	0	1177550848	20	5393
2026-01-04 00:12:06.96	188.72	15.08	-30.2	-33.6	12.8	2.55e-04	0	43	0	1179648000	20	5353
2026-01-04 00:12:07.96	188.76	14.97	-30.2	-33.9	12.6	3.41e-04	0	43	0	1180696576	20	5463
2026-01-04 00:12:08.97	188.79	14.87	-30.5	-34.5	12.1	1.23e-04	0	43	0	1182793728	20	5739
2026-01-04 00:12:09.98	188.82	14.76	-30.3	-34.1	12.4	4.58e-04	0	43	0	1184890880	20	5562
2026-01-04 00:12:10.99	188.85	14.66	-30.2	-33.8	12.6	4.07e-04	0	43	0	1186988032	20	5431
2026-01-04 00:12:11.99	188.89	14.55	-30.2	-33.7	12.7	6.86e-05	0	43	0	1189085184	20	5384
2026-01-04 00:12:13.00	188.92	14.45	-30.2	-33.8	12.6	6.19e-04	0	43	0	1191182336	20	5430
2026-01-04 00:12:14.00	188.95	14.34	-30.1	-33.5	12.8	2.68e-04	0	43	0	1192230912	20	5300
2026-01-04 00:12:15.00	188.98	14.24	-30.2	-33.6	12.7	5.64e-05	0	43	0	1194328064	20	5378
2026-01-04 00:12:16.00	189.01	14.14	-30.2	-33.6	12.7	2.94e-04	0	43	0	1196425216	20	5371
2026-01-04 00:12:17.01	189.05	14.04	-30.3	-34.0	12.4	6.40e-04	0	43	0	1198522368	20	5537
2026-01-04 00:12:18.01	189.08	13.93	-30.2	-33.7	12.7	1.05e-04	0	43	0	1199570944	20	5389
2026-01-04 00:12:19.02	189.11	13.83	-29.9	-33.0	13.1	2.55e-04	0	43	0	1201668096	20	5130
2026-01-04 00:12:20.03	189.14	13.73	-29.9	-33.4	13.2	1.98e-04	0	43	0	1203765248	19	5370
2026-01-04 00:12:21.03	189.17	13.63	-30.0	-33.1	13.0	4.11e-05	0	43	0	1205862400	20	5162
2026-01-04 00:12:22.04	189.20	13.53	-30.1	-33.4	12.8	2.13e-04	0	43	0	1207959552	20	5284
2026-01-04 00:12:23.04	189.23	13.43	-30.0	-33.1	13.0	2.23e-04	0	43	0	1209008128	20	5179
2026-01-04 00:12:24.04	189.26	13.33	-30.0	-33.1	13.0	3.28e-05	0	43	0	1211105280	20	5160
2026-01-04 00:12:25.04	189.29	13.23	-30.0	-33.1	13.0	2.04e-04	0	43	0	1213202432	20	5174
2026-01-04 00:12:26.05	189.32	13.13	-30.1	-33.5	12.8	2.16e-04	0	43	0	1215299584	20	5304
2026-01-04 00:12:27.05	189.35	13.03	-29.9	-32.9	13.1	5.03e-05	0	43	0	1217396736	20	5107
2026-01-04 00:12:28.06	189.38	12.93	-29.9	-33.0	13.0	1.75e-04	0	43	0	1218445312	20	5142
2026-01-04 00:12:29.06	189.41	12.84	-30.0	-33.2	12.9	1.81e-04	0	43	0	1220542464	20	5217
2026-01-04 00:12:30.06	189.44	12.74	-29.9	-33.0	13.0	4.88e-05	0	43	0	1222639616	20	5139
2026-01-04 00:12:31.07	189.47	12.64	-29.9	-33.4	13.1	3.50e-05	0	43	0	1224736768	19	5403
2026-01-04 00:12:32.07	189.49	12.55	-30.0	-33.6	13.1	1.21e-04	0	43	0	1226833920	19	5450
2026-01-04 00:12:33.08	189.52	12.45	-29.0	-32.4	12.6	3.12e-05	0	43	0	1227882496	20	5316
2026-01-04 00:12:34.09	189.55	12.35	-30.3	-34.6	12.2	1.23e-04	0	43	0	1229979648	19	5873
2026-01-04 00:12:35.09	189.58	12.26	-30.0	-33.3	12.8	1.92e-04	0	43	0	1232076800	20	5272
2026-01-04 00:12:36.10	189.61	12.16	-30.0	-33.6	12.4	5.79e-05	0	43	0	1234173952	19	5475
2026-01-04 00:12:37.11	189.64	12.07	-29.9	-33.5	12.5	1.22e-04	0	43	0	1236271104	19	5447
2026-01-04 00:12:38.11	189.66	11.97	-30.0	-33.6	13.0	4.50e-05	0	43	0	1237319680	19	5484
2026-01-04 00:12:39.12	189.69	11.88	-30.0	-33.3	12.7	5.41e-05	0	43	0	1239416832	20	5268
2026-01-04 00:12:40.12	189.72	11.79	-30.1	-33.6	12.6	1.95e-04	0	43	0	1241513984	20	5387
2026-01-04 00:12:41.12	189.74	11.69	-30.1	-33.5	12.7	8.85e-05	0	43	0	1243611136	20	5320
2026-01-04 00:12:42.13	189.77	11.60	-30.2	-33.8	12.4	1.05e-04	0	43	0	1245708288	20	5458
2026-01-04 00:12:43.13	189.80	11.51	-30.1	-33.5	12.6	1.98e-04	0	43	0	1246756864	20	5330
2026-01-04 00:12:44.14	189.83	11.42	-30.0	-33.3	12.8	7.17e-05	0	43	0	1248854016	20	5241
2026-01-04 00:12:45.14	189.85	11.32	-30.1	-33.6	12.6	9.76e-05	0	43	0	1250951168	20	5367
2026-01-04 00:12:46.13	189.88	11.23	-30.0	-33.3	12.7	1.59e-04	0	43	0	1253048320	20	5275
2026-01-04 00:12:47.13	189.90	11.14	-30.2	-33.9	12.3	2.15e-04	0	43	0	1255145472	20	5508
2026-01-04 00:12:48.14	189.93	11.05	-30.1	-33.6	12.5	1.42e-03	0	43	0	1256194048	20	5403
2026-01-04 00:12:49.14	189.96	10.96	-30.2	-34.0	12.3	1.85e-04	0	43	0	1258291200	20	5546
2026-01-04 00:12:50.14	189.98	10.87	-30.1	-33.7	12.4	2.23e-04	0	43	0	1260388352	20	5449
2026-01-04 00:12:51.15	190.01	10.78	-30.1	-33.6	12.5	1.56e-03	0	43	0	1262485504	20	5375
2026-01-04 00:12:52.15	190.03	10.69	-30.2	-33.8	12.3	1.71e-03	0	43	0	1264582656	20	5493
2026-01-04 00:12:53.15	190.06	10.60	-30.2	-33.8	12.3	1.91e-04	0	43	0	1265631232	20	5485
2026-01-04 00:12:54.16	190.08	10.52	-30.2	-33.8	12.3	1.35e-04	0	43	0	1267728384	20	5470
2026-01-04 00:12:55.16	190.11	10.43	-30.1	-33.8	12.4	1.75e-03	0	43	0	1269825536	20	5464
2026-01-04 00:12:56.17	190.14	10.34	-30.1	-33.6	12.4	1.72e-04	0	43	0	1271922688	20	5403
2026-01-04 00:12:57.17	190.16	10.25	-30.2	-33.9	12.2	1.38e-04	0	43	0	1272971264	20	5530
2026-01-04 00:12:58.17	190.18	10.16	-30.2	-34.1	12.1	1.94e-03	0	43	0	1275068416	20	5591
2026-01-04 00:12:59.17	190.21	10.08	-30.3	-34.2	12.0	2.81e-04	0	43	0	1277165568	20	5645
2026-01-04 00:13:00.18	190.23	9.99	-30.3	-34.2	12.0	3.22e-04	0	43	0	1279262720	20	5673
2026-01-04 00:13:01.19	190.26	9.90	-30.4	-34.6	11.7	2.31e-03	0	43	0	1281359872	20	5817
2026-01-04 00:13:02.19	190.28	9.82	-30.4	-34.6	11.7	5.28e-04	0	43	0	1282408448	20	5828
2026-01-04 00:13:03.19	190.31	9.73	-30.4	-34.7	11.6	2.16e-03	0	43	0	1284505600	20	5883
2026-01-04 00:13:04.19	190.33	9.64	-30.6	-34.6	11.3	8.29e-04	0	43	0	1286602752	21	5751
2026-01-04 00:13:05.20	190.35	9.56	-30.7	-35.1	11.0	1.74e-03	0	43	0	1288699904	21	5963
2026-01-04 00:13:06.21	190.38	9.47	-30.6	-34.8	11.2	3.54e-03	0	43	0	1290797056	21	5821
