passes_logs/2026/01/04/R2M6_AANII_01/R2M6_AANII_01__20260104_225240_NOAA_21_JPSS-2_rec.log

#Pass ID: 20260104_225240_NOAA 21 (JPSS-2)
#Satellite: NOAA 21 (JPSS-2)
#Configuration: NOAA 21
#almurnet v.1.7.20240730
#Start time: 2026-01-04 22:52:41

#Version: 2.2.20231116
#Station: R2M6_AANII_01
#Location: 30.233357 lon 59.946436 lat
#TLE: 1 54234U 22150A   26004.22845673  .00000174  00000+0  10347-3 0  9996
#TLE: 2 54234  98.7489 305.2591 0001115 345.0884  15.0259 14.19531906163281

#Time	Az	El	Level	Level2	SNR	BER	BlckErr	Temp	State	Recorded	gain1	gain2
2026-01-04 22:52:41.34	28.41	7.03	-31.1	-37.1	4.3	1.43e+00	0	41	0	0	22	7220
2026-01-04 22:52:42.34	28.49	7.10	-31.7	-39.4	4.1	1.46e+00	0	41	104	0	23	8737
2026-01-04 22:52:43.35	28.58	7.16	-31.7	-38.4	5.3	5.35e-01	0	41	0	0	23	7820
2026-01-04 22:52:44.36	28.67	7.23	-31.8	-39.0	5.0	6.38e-01	0	41	102	1048576	23	8226
2026-01-04 22:52:45.37	28.76	7.30	-31.8	-39.2	4.9	7.80e-01	0	41	102	1048576	23	8383
2026-01-04 22:52:46.37	28.84	7.36	-31.7	-38.6	5.2	6.01e-01	0	41	102	1048576	23	7948
2026-01-04 22:52:47.37	28.93	7.43	-31.6	-38.0	5.5	5.33e-01	0	41	102	1048576	23	7480
2026-01-04 22:52:48.37	29.02	7.49	-31.4	-36.8	6.2	3.29e-01	0	41	102	1048576	23	6711
2026-01-04 22:52:49.38	29.11	7.56	-31.2	-36.6	6.7	2.31e-01	0	41	102	1048576	22	6673
2026-01-04 22:52:50.39	29.20	7.63	-30.9	-35.6	7.4	1.28e-01	0	41	102	1048576	22	6139
2026-01-04 22:52:51.40	29.29	7.69	-30.6	-34.8	8.3	5.94e-02	0	41	102	1048576	21	5847
2026-01-04 22:52:52.40	29.38	7.76	-30.3	-33.9	8.9	3.11e-02	0	41	102	1048576	21	5451
2026-01-04 22:52:53.40	29.47	7.83	-30.1	-33.7	9.4	1.88e-02	0	41	102	1048576	20	5460
2026-01-04 22:52:54.41	29.56	7.89	-29.8	-32.9	10.0	9.36e-03	0	41	102	1048576	20	5157
2026-01-04 22:52:55.42	29.65	7.96	-29.6	-32.9	10.5	5.02e-03	0	41	102	1048576	19	5225
2026-01-04 22:52:56.43	29.74	8.03	-29.5	-32.4	10.8	2.88e-03	0	41	102	1048576	19	5055
2026-01-04 22:52:57.44	29.83	8.10	-29.5	-32.3	10.8	2.48e-03	0	41	102	1048576	19	5015
2026-01-04 22:52:58.44	29.92	8.16	-29.3	-32.6	10.9	2.09e-03	0	41	102	1048576	18	5269
2026-01-04 22:52:59.45	30.02	8.23	-29.3	-32.0	11.0	2.28e-03	0	41	102	1048576	19	4913
2026-01-04 22:53:00.46	30.11	8.30	-29.2	-32.1	10.9	1.19e-03	0	41	102	1048576	18	5029
2026-01-04 22:53:01.47	30.21	8.37	-29.1	-32.0	11.3	7.30e-04	0	41	102	1048576	18	4990
2026-01-04 22:53:02.47	30.30	8.44	-29.1	-31.9	11.6	8.86e-04	0	42	102	1048576	18	4951
2026-01-04 22:53:03.47	30.39	8.50	-29.0	-31.6	11.7	6.35e-04	0	41	102	1048576	18	4860
2026-01-04 22:53:04.46	30.49	8.57	-28.9	-31.8	12.0	1.19e-03	0	41	102	1048576	17	5030
2026-01-04 22:53:05.47	30.58	8.64	-28.8	-31.7	12.0	3.55e-04	0	42	102	1048576	17	4989
2026-01-04 22:53:06.47	30.68	8.71	-28.8	-31.7	12.0	3.40e-04	0	42	102	1048576	17	4990
2026-01-04 22:53:07.48	30.77	8.78	-29.0	-32.1	11.8	5.19e-04	0	41	102	1048576	17	5124
2026-01-04 22:53:08.48	30.87	8.84	-29.0	-31.4	11.8	4.98e-04	0	42	102	1048576	18	4797
2026-01-04 22:53:09.49	30.97	8.91	-28.9	-31.2	12.1	1.04e-03	0	42	102	1048576	18	4707
2026-01-04 22:53:10.50	31.06	8.98	-28.8	-31.4	12.3	8.96e-04	0	42	102	1048576	17	4875
2026-01-04 22:53:11.50	31.16	9.05	-28.7	-31.2	12.4	1.36e-04	0	42	102	1048576	17	4808
2026-01-04 22:53:12.51	31.26	9.12	-28.8	-31.6	12.2	2.14e-04	0	42	102	1048576	17	4957
2026-01-04 22:53:13.51	31.36	9.19	-28.9	-31.7	12.2	2.40e-04	0	42	102	1048576	17	4970
2026-01-04 22:53:14.52	31.46	9.26	-28.9	-31.6	12.2	2.27e-04	0	42	102	1048576	17	4950
2026-01-04 22:53:15.53	31.56	9.33	-28.9	-31.7	12.2	9.01e-04	0	42	102	1048576	17	4963
2026-01-04 22:53:16.54	31.66	9.40	-28.8	-31.5	12.3	8.31e-04	0	42	102	1048576	17	4922
2026-01-04 22:53:17.54	31.76	9.47	-28.8	-31.5	12.3	2.07e-04	0	42	102	1048576	17	4909
2026-01-04 22:53:18.54	31.86	9.54	-28.9	-31.7	12.2	1.75e-04	0	42	102	1048576	17	4988
2026-01-04 22:53:19.56	31.96	9.61	-28.8	-31.6	12.2	1.17e-03	0	42	102	1048576	17	4953
2026-01-04 22:53:20.56	32.06	9.68	-28.8	-31.4	12.4	1.67e-04	0	42	102	1048576	17	4869
2026-01-04 22:53:21.57	32.17	9.75	-28.9	-31.7	12.2	1.08e-03	0	42	102	1048576	17	4970
2026-01-04 22:53:22.58	32.27	9.82	-28.8	-31.5	12.3	1.02e-03	0	42	102	1048576	17	4912
2026-01-04 22:53:23.58	32.37	9.89	-28.6	-30.9	12.7	9.91e-05	0	42	102	1048576	17	4711
2026-01-04 22:53:24.59	32.48	9.96	-28.6	-30.9	12.7	8.19e-04	0	42	102	1048576	17	4700
2026-01-04 22:53:25.60	32.58	10.03	-28.6	-30.9	12.7	8.02e-04	0	42	102	1048576	17	4704
2026-01-04 22:53:26.60	32.69	10.10	-28.6	-30.9	12.7	7.55e-05	0	42	102	1048576	17	4700
2026-01-04 22:53:27.61	32.79	10.17	-28.6	-30.9	12.7	6.86e-04	0	42	102	1048576	17	4714
2026-01-04 22:53:28.62	32.90	10.24	-28.6	-31.0	12.6	1.04e-04	0	42	102	1048576	17	4728
2026-01-04 22:53:29.63	33.00	10.32	-28.5	-30.8	12.8	6.33e-05	0	42	102	1048576	17	4672
2026-01-04 22:53:30.63	33.11	10.39	-28.6	-30.9	12.8	6.40e-04	0	42	102	1048576	17	4689
2026-01-04 22:53:31.63	33.22	10.46	-28.5	-30.7	12.9	5.64e-04	0	42	102	1048576	17	4627
2026-01-04 22:53:32.64	33.33	10.53	-28.4	-30.5	13.0	4.50e-05	0	42	102	1048576	17	4563
2026-01-04 22:53:33.65	33.43	10.60	-28.5	-30.6	12.9	5.03e-05	0	42	102	1048576	17	4616
2026-01-04 22:53:34.66	33.54	10.67	-28.4	-30.5	13.0	3.35e-05	0	42	102	1048576	17	4561
2026-01-04 22:53:35.66	33.65	10.75	-28.3	-30.3	13.1	2.67e-05	0	42	102	1048576	17	4516
2026-01-04 22:53:36.67	33.76	10.82	-28.4	-31.0	13.0	3.25e-04	0	42	102	1048576	16	4850
2026-01-04 22:53:37.68	33.87	10.89	-28.4	-30.5	13.0	3.49e-04	0	42	102	1048576	17	4555
2026-01-04 22:53:38.68	33.98	10.96	-28.4	-30.3	13.1	2.59e-05	0	42	102	1048576	17	4516
2026-01-04 22:53:39.69	34.10	11.04	-28.4	-30.5	13.1	2.89e-05	0	42	102	1048576	17	4558
2026-01-04 22:53:40.70	34.21	11.11	-28.4	-30.4	13.1	3.12e-05	0	42	102	1048576	17	4525
2026-01-04 22:53:41.71	34.32	11.18	-28.4	-30.6	13.0	6.79e-05	0	42	102	1048576	17	4590
2026-01-04 22:53:42.72	34.43	11.25	-28.4	-31.0	13.0	5.18e-05	0	42	102	1048576	16	4841
2026-01-04 22:53:43.72	34.55	11.33	-28.4	-31.0	13.0	3.20e-05	0	42	102	1048576	16	4863
2026-01-04 22:53:44.73	34.66	11.40	-28.4	-30.9	13.1	4.04e-05	0	42	102	1048576	16	4816
2026-01-04 22:53:45.74	34.78	11.47	-28.3	-30.6	13.2	1.52e-05	0	42	102	1048576	16	4721
2026-01-04 22:53:46.74	34.89	11.55	-28.3	-30.6	13.3	1.52e-05	0	42	102	1048576	16	4718
2026-01-04 22:53:47.75	35.01	11.62	-28.2	-30.5	13.4	1.67e-05	0	42	102	1048576	16	4674
2026-01-04 22:53:48.76	35.12	11.69	-28.2	-30.4	13.4	1.22e-05	0	42	102	1048576	16	4654
2026-01-04 22:53:49.77	35.24	11.77	-28.1	-30.2	13.5	9.90e-06	0	42	102	1048576	16	4599
2026-01-04 22:53:50.77	35.36	11.84	-28.1	-30.1	13.6	1.22e-05	0	42	102	1048576	16	4566
2026-01-04 22:53:51.78	35.48	11.92	-28.2	-30.4	13.4	1.37e-05	0	42	102	1048576	16	4642
2026-01-04 22:53:52.79	35.60	11.99	-28.3	-30.7	13.2	2.74e-05	0	42	102	1048576	16	4751
2026-01-04 22:53:53.80	35.71	12.07	-28.3	-30.7	13.2	2.44e-05	0	43	102	1048576	16	4756
2026-01-04 22:53:54.80	35.83	12.14	-28.4	-31.0	13.1	2.82e-05	0	42	102	1048576	16	4848
2026-01-04 22:53:55.80	35.95	12.21	-28.5	-31.1	13.0	4.65e-05	0	42	102	1048576	16	4895
2026-01-04 22:53:56.81	36.07	12.29	-28.5	-30.6	13.0	3.28e-05	0	42	102	1048576	17	4619
2026-01-04 22:53:57.82	36.20	12.36	-28.5	-30.6	13.0	3.81e-05	0	42	102	1048576	17	4604
2026-01-04 22:53:58.82	36.32	12.44	-28.5	-30.8	12.9	4.88e-05	0	42	102	1048576	17	4652
2026-01-04 22:53:59.82	36.44	12.51	-28.4	-30.5	13.1	3.35e-05	0	43	102	1048576	17	4558
2026-01-04 22:54:00.83	36.56	12.59	-28.3	-30.1	13.3	1.83e-05	0	43	102	1048576	17	4449
2026-01-04 22:54:01.83	36.69	12.66	-28.2	-30.0	13.4	1.22e-05	0	42	102	1048576	17	4420
2026-01-04 22:54:02.84	36.81	12.74	-28.3	-30.1	13.4	6.25e-05	0	43	102	1048576	17	4431
2026-01-04 22:54:03.84	36.94	12.81	-28.2	-29.9	13.5	4.80e-05	0	43	102	1048576	17	4371
2026-01-04 22:54:04.85	37.06	12.89	-28.4	-30.5	13.2	2.28e-05	0	42	102	1048576	17	4558
2026-01-04 22:54:05.86	37.19	12.96	-28.3	-30.1	13.3	1.90e-05	0	43	102	1048576	17	4454
2026-01-04 22:54:06.86	37.32	13.04	-28.2	-29.9	13.5	1.22e-05	0	43	102	1048576	17	4387
2026-01-04 22:54:07.87	37.44	13.11	-28.2	-30.0	13.4	1.52e-05	0	43	102	1048576	17	4416
2026-01-04 22:54:08.87	37.57	13.19	-28.3	-30.1	13.4	1.75e-05	0	42	102	1048576	17	4434
2026-01-04 22:54:09.88	37.70	13.27	-28.3	-30.2	13.3	1.14e-05	0	43	102	1048576	17	4472
2026-01-04 22:54:10.89	37.83	13.34	-28.5	-30.6	13.1	2.67e-05	0	43	102	1048576	17	4585
2026-01-04 22:54:11.89	37.96	13.42	-28.4	-30.3	13.2	2.51e-05	0	43	102	1048576	17	4517
2026-01-04 22:54:12.90	38.09	13.49	-28.2	-30.0	13.4	1.83e-05	0	43	102	1048576	17	4414
2026-01-04 22:54:13.90	38.22	13.57	-28.2	-30.0	13.4	6.80e-06	0	43	102	1048576	17	4405
2026-01-04 22:54:14.91	38.35	13.65	-28.4	-30.3	13.3	2.13e-05	0	42	102	1048576	17	4513
2026-01-04 22:54:15.92	38.49	13.72	-28.2	-30.0	13.5	1.52e-05	0	43	102	1048576	17	4400
2026-01-04 22:54:16.93	38.62	13.80	-28.4	-30.5	13.2	2.74e-05	0	43	102	1048576	17	4559
2026-01-04 22:54:17.93	38.75	13.88	-28.2	-30.0	13.5	1.06e-05	0	42	102	1048576	17	4421
2026-01-04 22:54:18.94	38.89	13.96	-28.2	-29.8	13.6	7.60e-06	0	43	102	1048576	17	4361
2026-01-04 22:54:19.95	39.03	14.03	-28.1	-29.7	13.7	6.80e-06	0	43	102	1048576	17	4328
2026-01-04 22:54:20.96	39.16	14.11	-28.2	-29.8	13.6	7.60e-06	0	43	102	1048576	17	4361
2026-01-04 22:54:21.96	39.30	14.19	-28.2	-29.8	13.6	6.80e-06	0	43	102	1048576	17	4349
2026-01-04 22:54:22.96	39.43	14.26	-28.3	-30.1	13.4	9.10e-06	0	43	102	1048576	17	4451
2026-01-04 22:54:23.97	39.57	14.34	-28.4	-30.4	13.3	1.67e-05	0	43	102	1048576	17	4537
2026-01-04 22:54:24.97	39.71	14.42	-28.2	-30.0	13.6	1.52e-05	0	43	102	1048576	17	4397
2026-01-04 22:54:25.97	39.85	14.50	-28.2	-29.8	13.7	6.80e-06	0	43	102	1048576	17	4340
2026-01-04 22:54:26.98	39.99	14.57	-28.2	-29.8	13.7	6.80e-06	0	43	102	1048576	17	4334
2026-01-04 22:54:27.98	40.13	14.65	-28.2	-30.3	13.7	9.10e-06	0	43	102	1048576	16	4590
2026-01-04 22:54:28.98	40.27	14.73	-28.2	-30.4	13.6	1.06e-05	0	43	102	1048576	16	4640
2026-01-04 22:54:29.99	40.41	14.81	-28.2	-30.4	13.6	5.30e-06	0	43	102	1048576	16	4636
2026-01-04 22:54:31.00	40.56	14.89	-28.3	-30.6	13.5	9.90e-06	0	43	102	1048576	16	4693
2026-01-04 22:54:32.00	40.70	14.96	-28.3	-30.6	13.5	1.52e-05	0	43	102	1048576	16	4682
2026-01-04 22:54:33.01	40.85	15.04	-28.4	-30.8	13.4	1.22e-05	0	43	102	1048576	16	4759
2026-01-04 22:54:34.01	40.99	15.12	-28.4	-30.8	13.4	9.10e-06	0	43	102	1048576	16	4750
2026-01-04 22:54:35.02	41.14	15.20	-28.3	-30.7	13.5	6.80e-06	0	43	102	1048576	16	4725
2026-01-04 22:54:36.03	41.28	15.28	-28.5	-31.0	13.3	2.36e-05	0	43	102	1048576	16	4819
2026-01-04 22:54:37.04	41.43	15.36	-28.4	-30.8	13.4	9.10e-06	0	43	102	1048576	16	4754
2026-01-04 22:54:38.04	41.58	15.43	-28.3	-30.7	13.5	8.30e-06	0	43	102	1048576	16	4730
2026-01-04 22:54:39.04	41.73	15.51	-28.4	-30.8	13.4	1.06e-05	0	43	102	1048576	16	4759
2026-01-04 22:54:40.05	41.88	15.59	-28.4	-30.9	13.4	1.60e-05	0	43	102	1048576	16	4786
2026-01-04 22:54:41.06	42.03	15.67	-28.5	-30.6	13.2	1.83e-05	0	43	102	1048576	17	4585
2026-01-04 22:54:42.06	42.18	15.75	-28.5	-30.7	13.2	1.83e-05	0	43	102	1048576	17	4607
2026-01-04 22:54:43.07	42.33	15.83	-28.6	-30.8	13.1	3.66e-05	0	43	102	1048576	17	4638
2026-01-04 22:54:44.07	42.49	15.91	-28.5	-30.7	13.2	2.21e-05	0	43	102	1048576	17	4619
2026-01-04 22:54:45.08	42.64	15.99	-28.6	-30.8	13.1	2.44e-05	0	43	102	1048576	17	4641
2026-01-04 22:54:46.09	42.79	16.07	-28.6	-30.7	13.2	2.44e-05	0	43	102	1048576	17	4621
2026-01-04 22:54:47.10	42.95	16.15	-28.5	-30.6	13.3	1.67e-05	0	43	102	1048576	17	4588
2026-01-04 22:54:48.10	43.11	16.23	-28.5	-30.7	13.2	2.67e-05	0	43	102	1048576	17	4605
2026-01-04 22:54:49.11	43.26	16.31	-28.4	-30.4	13.4	1.06e-05	0	43	102	1048576	17	4507
2026-01-04 22:54:50.12	43.42	16.38	-28.5	-30.5	13.3	2.36e-05	0	43	102	1048576	17	4556
2026-01-04 22:54:51.13	43.58	16.46	-28.3	-30.1	13.6	1.44e-05	0	43	102	1048576	17	4435
2026-01-04 22:54:52.13	43.74	16.54	-28.3	-30.1	13.6	4.50e-06	0	43	102	1048576	17	4425
2026-01-04 22:54:53.14	43.90	16.62	-28.3	-30.1	13.5	5.30e-06	0	43	102	1048576	17	4442
2026-01-04 22:54:54.14	44.06	16.70	-28.4	-30.3	13.5	5.30e-06	0	43	102	1048576	17	4483
2026-01-04 22:54:55.15	44.22	16.78	-28.6	-30.8	13.2	2.21e-05	0	43	102	1048576	17	4637
2026-01-04 22:54:56.16	44.39	16.86	-28.7	-31.2	12.8	3.96e-05	0	43	102	1048576	17	4753
2026-01-04 22:54:57.17	44.55	16.94	-28.7	-31.0	12.9	2.34e-04	0	43	102	1048576	17	4695
2026-01-04 22:54:58.18	44.72	17.02	-28.7	-31.0	13.1	2.67e-05	0	43	102	1048576	17	4703
2026-01-04 22:54:59.18	44.88	17.10	-28.7	-31.1	13.0	2.89e-05	0	43	102	1048576	17	4727
2026-01-04 22:55:00.19	45.05	17.18	-28.8	-31.2	12.9	4.73e-05	0	43	102	1048576	17	4769
2026-01-04 22:55:01.19	45.21	17.26	-28.7	-31.0	13.1	2.74e-05	0	43	102	1048576	17	4707
2026-01-04 22:55:02.20	45.38	17.34	-28.7	-31.1	13.0	2.09e-04	0	43	102	1048576	17	4719
2026-01-04 22:55:03.21	45.55	17.42	-28.6	-30.7	13.3	2.43e-04	0	43	102	1048576	17	4612
2026-01-04 22:55:04.21	45.72	17.50	-28.5	-30.5	13.4	9.10e-06	0	43	102	1048576	17	4527
2026-01-04 22:55:05.22	45.89	17.58	-28.5	-30.5	13.4	1.44e-05	0	43	102	1048576	17	4534
2026-01-04 22:55:06.23	46.06	17.66	-28.6	-30.7	13.3	1.90e-05	0	43	102	1048576	17	4604
2026-01-04 22:55:07.23	46.23	17.74	-28.6	-30.7	13.3	1.22e-05	0	43	102	1048576	17	4601
2026-01-04 22:55:08.25	46.41	17.83	-28.6	-30.8	13.2	1.45e-04	0	43	102	1048576	17	4645
2026-01-04 22:55:09.25	46.58	17.91	-28.7	-30.9	13.2	1.79e-04	0	43	102	1048576	17	4679
2026-01-04 22:55:10.26	46.76	17.99	-28.7	-31.2	13.0	3.05e-05	0	43	102	1048576	17	4754
2026-01-04 22:55:11.27	46.93	18.07	-28.6	-30.8	13.2	2.74e-05	0	43	102	1048576	17	4650
2026-01-04 22:55:12.27	47.11	18.15	-28.6	-30.7	13.3	4.45e-04	0	43	102	1048576	17	4610
2026-01-04 22:55:13.28	47.29	18.23	-28.5	-30.5	13.4	2.05e-05	0	43	102	1048576	17	4552
2026-01-04 22:55:14.29	47.47	18.31	-28.6	-30.7	13.4	4.33e-04	0	43	102	1048576	17	4593
2026-01-04 22:55:15.30	47.65	18.39	-28.5	-30.6	13.4	3.06e-04	0	43	102	1048576	17	4564
2026-01-04 22:55:16.31	47.83	18.47	-28.5	-30.5	13.5	1.44e-05	0	43	102	1048576	17	4536
2026-01-04 22:55:17.32	48.01	18.55	-28.4	-30.4	13.5	2.08e-04	0	43	102	1048576	17	4512
2026-01-04 22:55:18.32	48.19	18.63	-28.6	-30.7	13.3	3.02e-04	0	43	102	1048576	17	4593
2026-01-04 22:55:19.32	48.37	18.71	-28.6	-30.7	13.3	1.98e-05	0	43	102	1048576	17	4616
2026-01-04 22:55:20.33	48.56	18.79	-28.7	-31.1	13.1	7.41e-04	0	43	102	1048576	17	4719
2026-01-04 22:55:21.34	48.74	18.87	-28.6	-30.9	13.2	1.11e-03	0	43	102	1048576	17	4650
2026-01-04 22:55:22.35	48.93	18.95	-28.6	-30.8	13.3	1.60e-05	0	43	102	1048576	17	4646
2026-01-04 22:55:23.35	49.12	19.03	-28.5	-30.6	13.4	7.06e-04	0	43	102	1048576	17	4581
2026-01-04 22:55:24.36	49.30	19.11	-28.4	-30.3	13.6	1.62e-04	0	43	102	1048576	17	4487
2026-01-04 22:55:25.36	49.49	19.19	-28.4	-30.2	13.6	4.50e-06	0	43	102	1048576	17	4447
2026-01-04 22:55:26.37	49.68	19.27	-28.3	-29.9	13.8	3.43e-05	0	43	102	1048576	17	4358
2026-01-04 22:55:27.38	49.87	19.35	-28.3	-30.0	13.7	5.30e-06	0	43	102	1048576	17	4398
2026-01-04 22:55:28.38	50.06	19.43	-28.2	-29.8	13.9	2.20e-06	0	43	102	1048576	17	4321
2026-01-04 22:55:29.39	50.26	19.51	-28.2	-29.9	13.9	7.17e-05	0	43	102	1048576	17	4361
2026-01-04 22:55:30.39	50.45	19.59	-28.2	-29.7	13.9	7.55e-05	0	43	102	1048576	17	4307
2026-01-04 22:55:31.39	50.64	19.67	-28.2	-29.7	13.9	3.80e-06	0	43	102	1048576	17	4305
2026-01-04 22:55:32.40	50.84	19.75	-28.2	-29.7	13.9	6.10e-06	0	43	102	1048576	17	4294
2026-01-04 22:55:33.41	51.04	19.83	-28.1	-29.6	14.0	3.00e-06	0	43	102	1048576	17	4264
2026-01-04 22:55:34.42	51.24	19.91	-28.0	-29.4	14.1	1.50e-06	0	43	102	1048576	17	4208
2026-01-04 22:55:35.42	51.43	19.99	-28.1	-29.6	14.1	7.60e-06	0	43	102	1048576	17	4255
2026-01-04 22:55:36.43	51.63	20.07	-28.0	-29.4	14.2	3.80e-06	0	43	102	1048576	17	4216
2026-01-04 22:55:37.43	51.83	20.14	-27.8	-28.9	14.4	0.00e+00	0	43	102	1048576	17	4083
2026-01-04 22:55:38.44	52.04	20.22	-27.8	-29.3	14.5	0.00e+00	0	43	102	1048576	16	4278
2026-01-04 22:55:39.45	52.24	20.30	-27.6	-29.4	14.6	1.50e-06	0	43	102	1048576	15	4435
2026-01-04 22:55:40.45	52.44	20.38	-27.5	-29.3	14.6	0.00e+00	0	43	102	1048576	15	4416
2026-01-04 22:55:41.46	52.65	20.46	-27.6	-29.5	14.5	0.00e+00	0	43	102	1048576	15	4474
2026-01-04 22:55:42.47	52.86	20.54	-27.7	-29.7	14.4	0.00e+00	0	43	102	1048576	15	4511
2026-01-04 22:55:43.48	53.06	20.62	-27.6	-29.4	14.6	0.00e+00	0	43	102	1048576	15	4430
2026-01-04 22:55:44.48	53.27	20.70	-27.6	-29.5	14.5	7.00e-07	0	43	102	1048576	15	4453
2026-01-04 22:55:45.49	53.48	20.78	-27.7	-29.6	14.5	0.00e+00	0	43	102	1048576	15	4478
2026-01-04 22:55:46.49	53.69	20.85	-27.7	-29.7	14.4	0.00e+00	0	43	102	1048576	15	4513
2026-01-04 22:55:47.49	53.90	20.93	-27.8	-29.8	14.4	1.50e-06	0	43	102	1048576	15	4544
2026-01-04 22:55:48.49	54.11	21.01	-27.7	-29.6	14.5	0.00e+00	0	43	102	1048576	15	4505
2026-01-04 22:55:49.50	54.32	21.09	-27.7	-29.5	14.5	0.00e+00	0	43	102	1048576	15	4476
2026-01-04 22:55:50.50	54.54	21.16	-27.7	-29.7	14.4	7.00e-07	0	43	102	1048576	15	4532
2026-01-04 22:55:51.51	54.75	21.24	-27.8	-29.8	14.4	7.00e-07	0	43	102	1048576	15	4553
2026-01-04 22:55:52.51	54.97	21.32	-27.7	-29.6	14.4	0.00e+00	0	43	102	1048576	15	4509
2026-01-04 22:55:53.52	55.19	21.40	-27.7	-29.6	14.5	0.00e+00	0	43	102	1048576	15	4504
2026-01-04 22:55:54.53	55.40	21.47	-27.7	-29.6	14.5	2.20e-06	0	43	102	1048576	15	4495
2026-01-04 22:55:55.54	55.63	21.55	-27.6	-29.4	14.5	7.00e-07	0	43	102	1048576	15	4448
2026-01-04 22:55:56.54	55.84	21.63	-27.6	-29.4	14.6	0.00e+00	0	43	102	1048576	15	4438
2026-01-04 22:55:57.54	56.06	21.70	-27.6	-29.5	14.6	0.00e+00	0	43	102	1048576	15	4452
2026-01-04 22:55:58.55	56.29	21.78	-27.6	-29.5	14.6	7.00e-07	0	43	102	1048576	15	4455
2026-01-04 22:55:59.56	56.51	21.86	-27.8	-29.9	14.3	0.00e+00	0	43	102	1048576	15	4587
2026-01-04 22:56:00.56	56.74	21.93	-27.7	-29.7	14.4	0.00e+00	0	43	102	1048576	15	4528
2026-01-04 22:56:01.57	56.96	22.01	-27.5	-29.2	14.7	0.00e+00	0	43	102	1048576	15	4369
2026-01-04 22:56:02.58	57.19	22.08	-27.3	-28.8	14.9	0.00e+00	0	43	102	1048576	15	4254
2026-01-04 22:56:03.58	57.42	22.16	-27.3	-28.7	15.0	0.00e+00	0	43	102	1048576	15	4248
2026-01-04 22:56:04.59	57.65	22.23	-27.3	-28.7	15.0	0.00e+00	0	43	102	1048576	15	4228
2026-01-04 22:56:05.60	57.88	22.31	-27.2	-28.6	15.0	0.00e+00	0	43	102	1048576	15	4215
2026-01-04 22:56:06.61	58.11	22.38	-27.3	-28.7	15.0	0.00e+00	0	43	102	1048576	15	4251
2026-01-04 22:56:07.61	58.34	22.46	-27.3	-28.7	15.0	0.00e+00	0	43	102	1048576	15	4245
2026-01-04 22:56:08.62	58.58	22.53	-27.4	-28.9	14.9	0.00e+00	0	43	102	1048576	15	4279
2026-01-04 22:56:09.63	58.81	22.60	-27.3	-28.8	14.9	0.00e+00	0	43	102	1048576	15	4269
2026-01-04 22:56:10.64	59.05	22.68	-27.3	-28.8	15.0	0.00e+00	0	43	102	1048576	15	4254
2026-01-04 22:56:11.65	59.29	22.75	-27.2	-29.1	15.1	0.00e+00	0	43	102	1048576	14	4461
2026-01-04 22:56:12.66	59.53	22.82	-27.3	-29.1	15.1	0.00e+00	0	43	102	1048576	14	4458
2026-01-04 22:56:13.66	59.76	22.90	-27.4	-29.3	14.9	7.00e-07	0	43	102	1048576	14	4526
2026-01-04 22:56:14.67	60.01	22.97	-27.3	-29.3	15.0	0.00e+00	0	43	102	1048576	14	4524
2026-01-04 22:56:15.67	60.24	23.04	-27.2	-28.9	15.2	0.00e+00	0	43	102	1048576	14	4412
2026-01-04 22:56:16.68	60.49	23.11	-27.2	-29.1	15.1	0.00e+00	0	43	102	1048576	14	4444
2026-01-04 22:56:17.69	60.73	23.18	-27.2	-29.0	15.1	0.00e+00	0	43	102	1048576	14	4431
2026-01-04 22:56:18.70	60.98	23.25	-27.3	-29.2	15.0	0.00e+00	0	43	102	1048576	14	4485
2026-01-04 22:56:19.70	61.22	23.32	-27.3	-29.2	14.8	0.00e+00	0	43	102	1048576	14	4488
2026-01-04 22:56:20.71	61.47	23.39	-27.3	-29.2	15.0	0.00e+00	0	43	102	1048576	14	4481
2026-01-04 22:56:21.72	61.72	23.46	-27.5	-29.6	14.8	0.00e+00	0	43	102	1048576	14	4606
2026-01-04 22:56:22.73	61.97	23.53	-27.4	-28.8	14.9	7.00e-07	0	43	102	1048576	15	4270
2026-01-04 22:56:23.73	62.22	23.60	-27.3	-29.2	15.0	0.00e+00	0	43	102	1048576	14	4477
2026-01-04 22:56:24.74	62.47	23.67	-27.3	-29.3	15.0	0.00e+00	0	43	102	1048576	14	4499
2026-01-04 22:56:25.75	62.72	23.74	-27.5	-29.6	14.8	1.36e-03	0	43	102	1048576	14	4592
2026-01-04 22:56:26.74	62.97	23.81	-27.4	-29.1	14.8	0.00e+00	0	43	102	1048576	15	4334
2026-01-04 22:56:27.75	63.23	23.88	-27.5	-29.1	14.8	0.00e+00	0	43	102	1048576	15	4344
2026-01-04 22:56:28.75	63.48	23.94	-27.5	-29.3	14.7	6.68e-04	0	43	102	1048576	15	4404
2026-01-04 22:56:29.76	63.74	24.01	-27.5	-29.3	14.7	6.00e-04	0	43	102	1048576	15	4395
2026-01-04 22:56:30.77	64.00	24.08	-27.6	-29.5	14.6	1.50e-06	0	43	102	1048576	15	4471
2026-01-04 22:56:31.77	64.25	24.14	-27.6	-29.4	14.6	7.00e-07	0	43	102	1048576	15	4438
2026-01-04 22:56:32.78	64.51	24.21	-27.7	-29.6	14.6	0.00e+00	0	43	102	1048576	15	4480
2026-01-04 22:56:33.79	64.78	24.27	-27.6	-29.4	14.7	0.00e+00	0	43	102	1048576	15	4431
2026-01-04 22:56:34.80	65.04	24.34	-27.6	-29.4	14.7	1.10e-04	0	43	102	1048576	15	4419
2026-01-04 22:56:35.80	65.30	24.40	-27.6	-29.5	14.6	6.56e-05	0	43	102	1048576	15	4465
2026-01-04 22:56:36.81	65.56	24.47	-27.7	-29.7	14.5	1.50e-06	0	43	102	1048576	15	4531
2026-01-04 22:56:37.81	65.83	24.53	-27.8	-29.9	14.4	7.00e-07	0	43	102	1048576	15	4567
2026-01-04 22:56:38.82	66.09	24.59	-27.8	-29.9	14.3	2.13e-05	0	43	102	1048576	15	4593
2026-01-04 22:56:39.83	66.36	24.65	-27.9	-30.1	14.3	1.50e-06	0	43	102	1048576	15	4627
2026-01-04 22:56:40.84	66.63	24.72	-27.9	-30.0	14.3	6.10e-06	0	43	102	1048576	15	4612
2026-01-04 22:56:41.85	66.90	24.78	-27.9	-30.1	14.2	8.46e-05	0	43	102	1048576	15	4645
2026-01-04 22:56:42.86	67.17	24.84	-27.8	-29.8	14.5	0.00e+00	0	44	102	1048576	15	4546
2026-01-04 22:56:43.86	67.44	24.90	-27.7	-29.6	14.5	1.50e-06	0	43	102	1048576	15	4494
2026-01-04 22:56:44.87	67.72	24.96	-27.7	-29.7	14.4	1.58e-04	0	43	102	1048576	15	4505
2026-01-04 22:56:45.87	67.99	25.02	-27.7	-29.7	14.5	0.00e+00	0	43	102	1048576	15	4530
2026-01-04 22:56:46.88	68.26	25.08	-27.8	-29.9	14.4	1.38e-04	0	43	102	1048576	15	4575
2026-01-04 22:56:47.88	68.54	25.13	-27.9	-30.2	14.2	2.25e-04	0	43	102	1048576	15	4660
2026-01-04 22:56:48.89	68.81	25.19	-27.8	-29.9	14.4	0.00e+00	0	43	102	1048576	15	4579
2026-01-04 22:56:49.90	69.09	25.25	-27.7	-29.7	14.5	0.00e+00	0	43	102	1048576	15	4526
2026-01-04 22:56:50.91	69.37	25.31	-27.7	-29.7	14.5	3.39e-04	0	43	102	1048576	15	4526
2026-01-04 22:56:51.92	69.65	25.36	-27.7	-29.5	14.6	0.00e+00	0	43	102	1048576	15	4468
2026-01-04 22:56:52.92	69.93	25.42	-27.6	-29.5	14.6	6.45e-04	0	43	102	1048576	15	4446
2026-01-04 22:56:53.92	70.21	25.47	-27.6	-29.5	14.6	0.00e+00	0	43	102	1048576	15	4453
2026-01-04 22:56:54.93	70.49	25.52	-27.8	-29.8	14.4	7.00e-07	0	43	102	1048576	15	4561
2026-01-04 22:56:55.94	70.78	25.58	-27.7	-29.7	14.5	7.00e-07	0	43	102	1048576	15	4505
2026-01-04 22:56:56.95	71.06	25.63	-27.8	-29.7	14.4	0.00e+00	0	43	102	1048576	15	4531
2026-01-04 22:56:57.95	71.34	25.68	-27.8	-29.8	14.4	0.00e+00	0	43	102	1048576	15	4553
2026-01-04 22:56:58.96	71.63	25.73	-27.8	-29.8	14.4	1.50e-06	0	43	102	1048576	15	4540
2026-01-04 22:56:59.97	71.92	25.79	-27.8	-29.9	14.4	2.20e-06	0	43	102	1048576	15	4574
2026-01-04 22:57:00.98	72.21	25.84	-27.7	-29.6	14.6	7.00e-07	0	43	102	1048576	15	4478
2026-01-04 22:57:01.98	72.49	25.89	-27.6	-29.4	14.7	0.00e+00	0	43	102	1048576	15	4427
2026-01-04 22:57:02.98	72.78	25.93	-27.6	-29.4	14.7	5.10e-04	0	43	102	1048576	15	4442
2026-01-04 22:57:03.99	73.07	25.98	-27.5	-29.2	14.8	7.00e-07	0	43	102	1048576	15	4382
2026-01-04 22:57:05.00	73.37	26.03	-27.5	-29.2	14.8	0.00e+00	0	43	102	1048576	15	4383
2026-01-04 22:57:06.01	73.66	26.08	-27.7	-29.7	14.5	0.00e+00	0	43	102	1048576	15	4512
2026-01-04 22:57:07.02	73.95	26.12	-27.6	-29.4	14.7	0.00e+00	0	43	102	1048576	15	4441
2026-01-04 22:57:08.02	74.24	26.17	-27.8	-29.8	14.5	7.00e-07	0	43	102	1048576	15	4542
2026-01-04 22:57:09.03	74.54	26.21	-27.6	-29.5	14.6	3.80e-06	0	43	102	1048576	15	4456
2026-01-04 22:57:10.03	74.83	26.26	-27.6	-29.4	14.7	7.00e-07	0	43	102	1048576	15	4427
2026-01-04 22:57:11.04	75.13	26.30	-27.7	-29.6	14.6	7.00e-07	0	43	102	1048576	15	4487
2026-01-04 22:57:12.04	75.43	26.34	-27.6	-29.5	14.7	5.30e-06	0	43	102	1048576	15	4448
2026-01-04 22:57:13.05	75.72	26.38	-27.7	-29.5	14.6	0.00e+00	0	43	102	1048576	15	4463
2026-01-04 22:57:14.06	76.02	26.43	-27.7	-29.5	14.6	2.20e-06	0	43	102	1048576	15	4460
2026-01-04 22:57:15.07	76.32	26.47	-27.7	-29.7	14.5	1.50e-06	0	44	102	1048576	15	4529
2026-01-04 22:57:16.07	76.62	26.51	-27.6	-29.3	14.8	0.00e+00	0	43	102	1048576	15	4392
2026-01-04 22:57:17.08	76.92	26.54	-27.5	-29.1	14.9	7.00e-07	0	43	102	1048576	15	4351
2026-01-04 22:57:18.09	77.23	26.58	-27.5	-29.3	14.8	2.20e-06	0	43	102	1048576	15	4391
2026-01-04 22:57:19.09	77.53	26.62	-27.6	-29.5	14.7	0.00e+00	0	43	102	1048576	15	4457
2026-01-04 22:57:20.10	77.83	26.66	-27.6	-29.5	14.7	7.00e-07	0	43	102	1048576	15	4455
2026-01-04 22:57:21.10	78.13	26.69	-27.7	-29.6	14.6	0.00e+00	0	43	102	1048576	15	4480
2026-01-04 22:57:22.11	78.44	26.73	-27.8	-29.9	14.4	0.00e+00	0	43	102	1048576	15	4572
2026-01-04 22:57:23.11	78.74	26.76	-27.6	-29.4	14.7	0.00e+00	0	43	102	1048576	15	4420
2026-01-04 22:57:24.12	79.05	26.79	-27.5	-29.2	14.8	7.00e-07	0	43	102	1048576	15	4362
2026-01-04 22:57:25.13	79.36	26.83	-27.6	-29.3	14.8	0.00e+00	0	43	102	1048576	15	4401
2026-01-04 22:57:26.14	79.66	26.86	-27.6	-29.3	14.8	1.50e-06	0	43	102	1048576	15	4408
2026-01-04 22:57:27.15	79.97	26.89	-27.7	-29.7	14.5	0.00e+00	0	43	102	1048576	15	4515
2026-01-04 22:57:28.15	80.28	26.92	-27.5	-29.2	14.9	0.00e+00	0	43	102	1048576	15	4358
2026-01-04 22:57:29.15	80.58	26.95	-27.4	-28.9	15.0	0.00e+00	0	43	102	1048576	15	4279
2026-01-04 22:57:30.16	80.90	26.98	-27.3	-28.8	15.1	0.00e+00	0	43	102	1048576	15	4250
2026-01-04 22:57:31.17	81.21	27.00	-27.4	-28.8	15.0	0.00e+00	0	43	102	1048576	15	4266
2026-01-04 22:57:32.18	81.52	27.03	-27.4	-29.0	15.0	0.00e+00	0	43	102	1048576	15	4294
2026-01-04 22:57:33.19	81.83	27.06	-27.5	-29.2	14.9	0.00e+00	0	43	102	1048576	15	4362
2026-01-04 22:57:34.20	82.14	27.08	-27.5	-29.2	14.9	0.00e+00	0	43	102	1048576	15	4357
2026-01-04 22:57:35.21	82.45	27.10	-27.4	-29.0	15.0	0.00e+00	0	43	102	1048576	15	4298
2026-01-04 22:57:36.22	82.77	27.13	-27.4	-28.9	15.0	0.00e+00	0	43	102	1048576	15	4291
2026-01-04 22:57:37.23	83.08	27.15	-27.3	-28.8	15.1	0.00e+00	0	43	102	1048576	15	4251
2026-01-04 22:57:38.24	83.39	27.17	-27.4	-29.0	14.9	0.00e+00	0	43	102	1048576	15	4320
2026-01-04 22:57:39.25	83.71	27.19	-27.6	-29.3	14.8	7.00e-07	0	43	102	1048576	15	4403
2026-01-04 22:57:40.25	84.02	27.21	-27.5	-29.2	14.9	0.00e+00	0	43	102	1048576	15	4365
2026-01-04 22:57:41.26	84.34	27.23	-27.5	-29.2	14.9	0.00e+00	0	43	102	1048576	15	4372
2026-01-04 22:57:42.26	84.65	27.25	-27.6	-29.4	14.8	0.00e+00	0	43	102	1048576	15	4415
2026-01-04 22:57:43.27	84.97	27.26	-27.6	-29.3	14.7	0.00e+00	0	43	102	1048576	15	4410
2026-01-04 22:57:44.27	85.28	27.28	-27.4	-29.0	15.0	3.80e-06	0	43	102	1048576	15	4299
2026-01-04 22:57:45.28	85.59	27.29	-27.5	-29.1	14.9	0.00e+00	0	43	102	1048576	15	4327
2026-01-04 22:57:46.29	85.91	27.31	-27.5	-29.3	14.8	1.81e-04	0	43	102	1048576	15	4391
2026-01-04 22:57:47.30	86.23	27.32	-27.5	-29.2	14.8	1.36e-04	0	43	102	1048576	15	4385
2026-01-04 22:57:48.30	86.54	27.33	-27.5	-29.3	14.8	0.00e+00	0	43	102	1048576	15	4392
2026-01-04 22:57:49.31	86.86	27.35	-27.6	-29.4	14.7	0.00e+00	0	43	102	1048576	15	4422
2026-01-04 22:57:50.32	87.18	27.36	-27.6	-29.4	14.7	2.67e-05	0	43	102	1048576	15	4429
2026-01-04 22:57:51.33	87.50	27.37	-27.5	-29.0	14.9	7.00e-07	0	43	102	1048576	15	4325
2026-01-04 22:57:52.33	87.81	27.37	-27.4	-29.0	14.9	2.20e-06	0	43	102	1048576	15	4321
2026-01-04 22:57:53.33	88.13	27.38	-27.5	-29.2	14.8	7.00e-07	0	43	102	1048576	15	4373
2026-01-04 22:57:54.34	88.45	27.39	-27.5	-29.1	14.9	0.00e+00	0	43	102	1048576	15	4347
2026-01-04 22:57:55.34	88.76	27.39	-27.5	-29.2	14.8	7.00e-07	0	43	102	1048576	15	4377
2026-01-04 22:57:56.35	89.08	27.40	-27.6	-29.3	14.7	1.50e-06	0	43	102	1048576	15	4412
2026-01-04 22:57:57.35	89.40	27.40	-27.5	-29.1	14.9	0.00e+00	0	43	102	1048576	15	4342
2026-01-04 22:57:58.35	89.71	27.41	-27.5	-29.2	14.8	3.00e-06	0	43	102	1048576	15	4382
2026-01-04 22:57:59.36	90.03	27.41	-27.6	-29.5	14.6	4.11e-05	0	43	102	1048576	15	4448
2026-01-04 22:58:00.37	90.35	27.41	-27.8	-29.8	14.5	0.00e+00	0	44	102	1048576	15	4542
2026-01-04 22:58:01.37	90.67	27.41	-27.6	-29.3	14.7	1.20e-04	0	43	102	1048576	15	4406
2026-01-04 22:58:02.39	90.99	27.41	-27.6	-29.5	14.7	2.37e-04	0	43	102	1048576	15	4442
2026-01-04 22:58:03.40	91.31	27.41	-27.5	-29.2	14.8	0.00e+00	0	43	102	1048576	15	4374
2026-01-04 22:58:04.41	91.63	27.40	-27.6	-29.5	14.7	3.07e-04	0	43	102	1048576	15	4457
2026-01-04 22:58:05.42	91.95	27.40	-27.6	-29.5	14.7	0.00e+00	0	43	102	1048576	15	4451
2026-01-04 22:58:06.42	92.26	27.40	-27.5	-29.2	14.9	0.00e+00	0	43	102	1048576	15	4356
2026-01-04 22:58:07.43	92.58	27.39	-27.6	-29.3	14.8	2.78e-04	0	44	102	1048576	15	4408
2026-01-04 22:58:08.44	92.90	27.39	-27.4	-28.9	15.0	3.46e-04	0	44	102	1048576	15	4286
2026-01-04 22:58:09.44	93.22	27.38	-27.3	-28.7	15.1	0.00e+00	0	43	102	1048576	15	4225
2026-01-04 22:58:10.45	93.53	27.37	-27.3	-28.6	15.2	0.00e+00	0	43	102	1048576	15	4198
2026-01-04 22:58:11.46	93.85	27.36	-27.2	-28.5	15.2	0.00e+00	0	43	102	1048576	15	4176
2026-01-04 22:58:12.47	94.17	27.35	-27.2	-28.5	15.2	0.00e+00	0	43	102	1048576	15	4187
2026-01-04 22:58:13.47	94.49	27.34	-27.3	-28.7	15.1	0.00e+00	0	43	102	1048576	15	4228
2026-01-04 22:58:14.48	94.80	27.33	-27.3	-28.8	15.1	0.00e+00	0	43	102	1048576	15	4265
2026-01-04 22:58:15.48	95.12	27.32	-27.4	-29.0	15.0	7.00e-07	0	43	102	1048576	15	4302
2026-01-04 22:58:16.49	95.43	27.30	-27.4	-28.9	15.0	0.00e+00	0	43	102	1048576	15	4278
2026-01-04 22:58:17.49	95.75	27.29	-27.4	-28.8	15.1	0.00e+00	0	43	102	1048576	15	4263
2026-01-04 22:58:18.50	96.07	27.27	-27.5	-29.2	14.8	7.00e-07	0	44	102	1048576	15	4373
2026-01-04 22:58:19.51	96.38	27.25	-27.6	-29.3	14.8	1.50e-06	0	43	102	1048576	15	4397
2026-01-04 22:58:20.52	96.70	27.24	-27.4	-28.9	15.0	7.00e-07	0	43	102	1048576	15	4291
2026-01-04 22:58:21.53	97.01	27.22	-27.4	-29.0	15.0	0.00e+00	0	43	102	1048576	15	4314
2026-01-04 22:58:22.53	97.33	27.20	-27.5	-29.2	14.8	0.00e+00	0	43	102	1048576	15	4360
2026-01-04 22:58:23.53	97.64	27.18	-27.5	-29.1	14.9	0.00e+00	0	43	102	1048576	15	4343
2026-01-04 22:58:24.54	97.95	27.16	-27.5	-29.2	14.8	0.00e+00	0	44	102	1048576	15	4366
2026-01-04 22:58:25.55	98.27	27.14	-27.5	-29.1	14.8	0.00e+00	0	43	102	1048576	15	4354
2026-01-04 22:58:26.56	98.58	27.11	-27.5	-29.1	14.8	0.00e+00	0	43	102	1048576	15	4353
2026-01-04 22:58:27.57	98.89	27.09	-27.5	-29.2	14.8	0.00e+00	0	43	102	1048576	15	4364
2026-01-04 22:58:28.57	99.20	27.07	-27.3	-28.8	15.0	0.00e+00	0	43	102	1048576	15	4268
2026-01-04 22:58:29.58	99.52	27.04	-27.3	-28.8	15.1	0.00e+00	0	43	102	1048576	15	4260
2026-01-04 22:58:30.59	99.83	27.02	-27.3	-28.7	15.1	0.00e+00	0	43	102	1048576	15	4223
2026-01-04 22:58:31.60	100.14	26.99	-27.3	-28.8	15.1	0.00e+00	0	43	102	1048576	15	4254
2026-01-04 22:58:32.61	100.45	26.96	-27.5	-29.1	14.9	0.00e+00	0	43	102	1048576	15	4338
2026-01-04 22:58:33.62	100.76	26.93	-27.5	-29.2	14.8	0.00e+00	0	43	102	1048576	15	4375
2026-01-04 22:58:34.62	101.07	26.90	-27.7	-29.6	14.6	0.00e+00	0	43	102	1048576	15	4495
2026-01-04 22:58:35.63	101.38	26.87	-27.7	-29.6	14.6	7.00e-07	0	43	102	1048576	15	4487
2026-01-04 22:58:36.63	101.68	26.84	-27.7	-29.6	14.5	0.00e+00	0	43	102	1048576	15	4505
2026-01-04 22:58:37.64	101.99	26.81	-27.6	-29.5	14.7	0.00e+00	0	43	102	1048576	15	4463
2026-01-04 22:58:38.65	102.30	26.77	-27.6	-29.3	14.7	0.00e+00	0	43	102	1048576	15	4412
2026-01-04 22:58:39.65	102.60	26.74	-27.7	-29.7	14.5	0.00e+00	0	43	102	1048576	15	4525
2026-01-04 22:58:40.66	102.91	26.71	-27.7	-29.7	14.5	1.50e-06	0	43	102	1048576	15	4516
2026-01-04 22:58:41.66	103.21	26.67	-27.8	-29.9	14.4	7.00e-07	0	43	102	1048576	15	4586
2026-01-04 22:58:42.67	103.52	26.63	-27.7	-29.6	14.6	0.00e+00	0	43	102	1048576	15	4489
2026-01-04 22:58:43.68	103.82	26.60	-27.6	-29.3	14.7	7.00e-07	0	43	102	1048576	15	4417
2026-01-04 22:58:44.68	104.12	26.56	-27.6	-29.5	14.6	7.00e-07	0	43	102	1048576	15	4453
2026-01-04 22:58:45.69	104.42	26.52	-27.7	-29.6	14.6	0.00e+00	0	43	102	1048576	15	4500
2026-01-04 22:58:46.69	104.72	26.48	-27.7	-29.7	14.5	7.00e-07	0	43	102	1048576	15	4520
2026-01-04 22:58:47.69	105.02	26.44	-27.7	-29.6	14.6	7.00e-07	0	43	102	1048576	15	4485
2026-01-04 22:58:48.70	105.32	26.40	-27.7	-29.6	14.6	0.00e+00	0	43	102	1048576	15	4481
2026-01-04 22:58:49.70	105.62	26.36	-27.7	-29.6	14.5	7.00e-07	0	43	102	1048576	15	4494
2026-01-04 22:58:50.71	105.92	26.32	-27.6	-29.4	14.7	7.00e-07	0	43	102	1048576	15	4439
2026-01-04 22:58:51.72	106.22	26.27	-27.6	-29.3	14.7	0.00e+00	0	43	102	1048576	15	4415
2026-01-04 22:58:52.73	106.51	26.23	-27.7	-29.6	14.6	7.00e-07	0	44	102	1048576	15	4482
2026-01-04 22:58:53.74	106.81	26.19	-27.7	-29.6	14.5	7.00e-07	0	43	102	1048576	15	4505
2026-01-04 22:58:54.75	107.11	26.14	-27.7	-29.7	14.5	1.50e-06	0	43	102	1048576	15	4528
2026-01-04 22:58:55.76	107.40	26.09	-27.7	-29.6	14.6	7.00e-07	0	43	102	1048576	15	4480
2026-01-04 22:58:56.76	107.69	26.05	-27.5	-29.3	14.7	7.00e-07	0	44	102	1048576	15	4402
2026-01-04 22:58:57.76	107.98	26.00	-27.5	-29.3	14.7	0.00e+00	0	43	102	1048576	15	4397
2026-01-04 22:58:58.77	108.28	25.95	-27.4	-28.9	14.9	7.00e-07	0	43	102	1048576	15	4288
2026-01-04 22:58:59.78	108.57	25.90	-27.2	-28.5	15.2	0.00e+00	0	43	102	1048576	15	4173
2026-01-04 22:59:00.79	108.86	25.85	-27.2	-28.5	15.1	0.00e+00	0	43	102	1048576	15	4187
2026-01-04 22:59:01.80	109.15	25.80	-27.1	-28.4	15.2	0.00e+00	0	43	102	1048576	15	4149
2026-01-04 22:59:02.81	109.44	25.75	-27.1	-28.3	15.3	0.00e+00	0	43	102	1048576	15	4134
2026-01-04 22:59:03.81	109.72	25.70	-27.2	-28.4	15.2	0.00e+00	0	43	102	1048576	15	4156
2026-01-04 22:59:04.82	110.01	25.65	-27.2	-28.4	15.2	0.00e+00	0	43	102	1048576	15	4166
2026-01-04 22:59:05.83	110.30	25.60	-27.2	-28.4	15.2	0.00e+00	0	44	102	1048576	15	4162
2026-01-04 22:59:06.83	110.58	25.54	-27.3	-28.7	15.1	0.00e+00	0	43	102	1048576	15	4223
2026-01-04 22:59:07.84	110.86	25.49	-27.2	-28.5	15.1	7.00e-07	0	44	102	1048576	15	4182
2026-01-04 22:59:08.85	111.15	25.43	-27.2	-28.6	15.1	0.00e+00	0	43	102	1048576	15	4192
2026-01-04 22:59:09.85	111.43	25.38	-27.2	-28.5	15.1	0.00e+00	0	43	102	1048576	15	4170
2026-01-04 22:59:10.86	111.71	25.32	-27.3	-28.8	15.0	0.00e+00	0	43	102	1048576	15	4257
2026-01-04 22:59:11.87	111.99	25.27	-27.2	-28.5	15.1	0.00e+00	0	44	102	1048576	15	4191
2026-01-04 22:59:12.88	112.27	25.21	-27.3	-28.7	15.0	0.00e+00	0	44	102	1048576	15	4237
2026-01-04 22:59:13.89	112.55	25.15	-27.2	-28.6	15.1	3.00e-06	0	43	102	1048576	15	4209
2026-01-04 22:59:14.89	112.82	25.09	-27.2	-28.4	15.2	0.00e+00	0	43	102	1048576	15	4146
2026-01-04 22:59:15.90	113.10	25.03	-27.2	-28.9	15.2	2.41e-04	0	43	102	1048576	14	4404
2026-01-04 22:59:16.91	113.37	24.98	-27.2	-29.1	15.1	0.00e+00	0	43	102	1048576	14	4449
2026-01-04 22:59:17.92	113.65	24.92	-27.2	-29.1	15.0	0.00e+00	0	43	102	1048576	14	4444
2026-01-04 22:59:18.92	113.92	24.86	-27.3	-29.2	15.0	9.53e-05	0	43	102	1048576	14	4485
2026-01-04 22:59:19.93	114.19	24.79	-27.1	-28.8	15.2	9.30e-05	0	43	102	1048576	14	4372
2026-01-04 22:59:20.93	114.46	24.73	-27.0	-28.5	15.4	0.00e+00	0	43	102	1048576	14	4283
2026-01-04 22:59:21.94	114.73	24.67	-27.2	-28.9	15.1	7.70e-05	0	43	102	1048576	14	4410
2026-01-04 22:59:22.95	115.00	24.61	-27.2	-29.1	15.0	6.17e-05	0	43	102	1048576	14	4453
2026-01-04 22:59:23.95	115.27	24.55	-27.4	-29.4	14.8	7.00e-07	0	43	102	1048576	14	4562
2026-01-04 22:59:24.96	115.53	24.48	-27.6	-29.3	14.6	9.90e-06	0	43	102	1048576	15	4414
2026-01-04 22:59:25.96	115.80	24.42	-27.8	-30.0	14.2	1.50e-06	0	43	102	1048576	15	4600
2026-01-04 22:59:26.96	116.06	24.35	-27.8	-29.8	14.3	0.00e+00	0	43	102	1048576	15	4558
2026-01-04 22:59:27.97	116.32	24.29	-27.9	-30.1	14.1	1.50e-06	0	43	102	1048576	15	4643
2026-01-04 22:59:28.98	116.59	24.22	-27.7	-29.6	14.4	1.98e-05	0	43	102	1048576	15	4489
2026-01-04 22:59:29.99	116.85	24.16	-27.7	-29.6	14.4	7.00e-07	0	43	102	1048576	15	4507
2026-01-04 22:59:30.99	117.11	24.09	-27.6	-29.4	14.5	6.10e-06	0	44	102	1048576	15	4428
2026-01-04 22:59:32.00	117.37	24.03	-27.5	-29.3	14.6	1.50e-06	0	43	102	1048576	15	4398
2026-01-04 22:59:33.01	117.63	23.96	-27.6	-29.5	14.4	0.00e+00	0	43	102	1048576	15	4474
2026-01-04 22:59:34.01	117.88	23.89	-27.6	-29.4	14.5	0.00e+00	0	43	102	1048576	15	4442
2026-01-04 22:59:35.02	118.14	23.82	-27.7	-29.6	14.4	1.24e-04	0	43	102	1048576	15	4488
2026-01-04 22:59:36.03	118.39	23.75	-27.7	-29.7	14.4	1.50e-06	0	43	102	1048576	15	4516
2026-01-04 22:59:37.03	118.65	23.69	-27.8	-30.0	14.2	3.00e-06	0	43	102	1048576	15	4629
2026-01-04 22:59:38.04	118.90	23.62	-27.7	-29.8	14.3	0.00e+00	0	43	102	1048576	15	4548
2026-01-04 22:59:39.04	119.15	23.55	-27.8	-29.8	14.2	7.00e-07	0	43	102	1048576	15	4569
2026-01-04 22:59:40.05	119.40	23.48	-27.8	-29.9	14.2	7.00e-07	0	43	102	1048576	15	4594
2026-01-04 22:59:41.06	119.65	23.41	-27.7	-29.6	14.4	1.50e-06	0	43	102	1048576	15	4508
2026-01-04 22:59:42.07	119.90	23.34	-27.5	-29.3	14.6	1.50e-06	0	43	102	1048576	15	4413
2026-01-04 22:59:43.07	120.14	23.27	-27.6	-29.5	14.4	0.00e+00	0	43	102	1048576	15	4468
2026-01-04 22:59:44.08	120.39	23.19	-27.3	-28.8	14.9	0.00e+00	0	43	102	1048576	15	4256
2026-01-04 22:59:45.09	120.64	23.12	-27.4	-28.9	14.8	7.00e-07	0	43	102	1048576	15	4292
2026-01-04 22:59:46.10	120.88	23.05	-27.6	-29.5	14.5	3.80e-06	0	43	102	1048576	15	4458
2026-01-04 22:59:47.10	121.12	22.98	-27.5	-29.1	14.7	7.00e-07	0	43	102	1048576	15	4363
2026-01-04 22:59:48.10	121.36	22.91	-27.8	-29.9	14.2	7.00e-07	0	43	102	1048576	15	4578
2026-01-04 22:59:49.11	121.60	22.83	-27.7	-29.8	14.3	7.00e-07	0	43	102	1048576	15	4564
2026-01-04 22:59:50.12	121.84	22.76	-27.9	-30.2	14.0	2.20e-06	0	43	102	1048576	15	4691
2026-01-04 22:59:51.13	122.08	22.69	-27.6	-29.5	14.4	2.20e-06	0	43	102	1048576	15	4485
2026-01-04 22:59:52.13	122.32	22.61	-27.5	-29.3	14.5	1.50e-06	0	43	102	1048576	15	4412
2026-01-04 22:59:53.14	122.56	22.54	-27.4	-29.1	14.6	0.00e+00	0	44	102	1048576	15	4354
2026-01-04 22:59:54.15	122.79	22.46	-27.6	-29.4	14.5	7.00e-07	0	43	102	1048576	15	4431
2026-01-04 22:59:55.16	123.03	22.39	-27.4	-28.9	14.8	1.50e-06	0	43	102	1048576	15	4309
2026-01-04 22:59:56.16	123.26	22.32	-27.4	-28.9	14.7	7.00e-07	0	43	102	1048576	15	4310
2026-01-04 22:59:57.17	123.49	22.24	-27.5	-29.2	14.6	7.00e-07	0	43	102	1048576	15	4375
2026-01-04 22:59:58.17	123.72	22.16	-27.5	-29.3	14.5	0.00e+00	0	44	102	1048576	15	4415
2026-01-04 22:59:59.18	123.95	22.09	-27.7	-29.7	14.3	1.50e-06	0	43	102	1048576	15	4541
2026-01-04 23:00:00.18	124.18	22.01	-27.5	-29.3	14.5	0.00e+00	0	43	102	1048576	15	4414
2026-01-04 23:00:01.19	124.40	21.94	-27.4	-29.0	14.6	1.50e-06	0	43	102	1048576	15	4346
2026-01-04 23:00:02.20	124.63	21.86	-27.4	-29.1	14.6	7.00e-07	0	43	102	1048576	15	4361
2026-01-04 23:00:03.21	124.86	21.78	-27.5	-29.3	14.5	7.00e-07	0	43	102	1048576	15	4411
2026-01-04 23:00:04.21	125.08	21.71	-27.5	-29.3	14.5	7.00e-07	0	43	102	1048576	15	4424
2026-01-04 23:00:05.22	125.30	21.63	-27.5	-29.3	14.5	0.00e+00	0	43	102	1048576	15	4423
2026-01-04 23:00:06.23	125.53	21.55	-27.4	-29.1	14.6	0.00e+00	0	43	102	1048576	15	4352
2026-01-04 23:00:07.24	125.75	21.48	-27.5	-29.1	14.6	0.00e+00	0	44	102	1048576	15	4372
2026-01-04 23:00:08.25	125.97	21.40	-27.5	-29.2	14.5	3.00e-06	0	43	102	1048576	15	4387
2026-01-04 23:00:09.25	126.19	21.32	-27.3	-28.7	14.8	0.00e+00	0	43	102	1048576	15	4256
2026-01-04 23:00:10.26	126.41	21.24	-27.3	-28.7	14.8	7.00e-07	0	43	102	1048576	15	4254
2026-01-04 23:00:11.27	126.62	21.16	-27.3	-28.8	14.8	0.00e+00	0	43	102	1048576	15	4272
2026-01-04 23:00:12.26	126.83	21.09	-27.3	-28.8	14.8	0.00e+00	0	43	102	1048576	15	4279
2026-01-04 23:00:13.27	127.05	21.01	-27.5	-29.2	14.5	0.00e+00	0	43	102	1048576	15	4386
2026-01-04 23:00:14.28	127.26	20.93	-27.3	-28.7	14.8	0.00e+00	0	43	102	1048576	15	4247
2026-01-04 23:00:15.28	127.48	20.85	-27.3	-28.7	14.8	0.00e+00	0	43	102	1048576	15	4246
2026-01-04 23:00:16.29	127.69	20.77	-27.3	-28.7	14.8	0.00e+00	0	43	102	1048576	15	4259
2026-01-04 23:00:17.30	127.90	20.69	-27.3	-28.8	14.7	0.00e+00	0	43	102	1048576	15	4280
2026-01-04 23:00:18.30	128.11	20.61	-27.3	-28.8	14.7	7.00e-07	0	43	102	1048576	15	4284
2026-01-04 23:00:19.31	128.31	20.54	-27.3	-28.8	14.8	7.00e-07	0	43	102	1048576	15	4260
2026-01-04 23:00:20.32	128.52	20.46	-27.4	-29.0	14.6	0.00e+00	0	43	102	1048576	15	4329
2026-01-04 23:00:21.32	128.73	20.38	-27.4	-29.0	14.6	0.00e+00	0	43	102	1048576	15	4342
2026-01-04 23:00:22.33	128.93	20.30	-27.5	-29.3	14.5	0.00e+00	0	43	102	1048576	15	4412
2026-01-04 23:00:23.33	129.14	20.22	-27.5	-29.2	14.5	1.50e-06	0	43	102	1048576	15	4390
2026-01-04 23:00:24.34	129.34	20.14	-27.6	-29.5	14.2	1.50e-06	0	43	102	1048576	15	4484
2026-01-04 23:00:25.34	129.54	20.06	-27.8	-30.0	14.0	1.57e-04	0	44	102	1048576	15	4634
2026-01-04 23:00:26.35	129.74	19.98	-27.8	-30.1	14.0	5.30e-06	0	43	102	1048576	15	4650
2026-01-04 23:00:27.36	129.94	19.90	-27.8	-30.0	14.0	2.20e-06	0	44	102	1048576	15	4645
2026-01-04 23:00:28.37	130.14	19.82	-27.9	-30.1	14.0	1.50e-06	0	43	102	1048576	15	4664
2026-01-04 23:00:29.38	130.34	19.74	-27.9	-30.1	14.0	1.50e-06	0	43	102	1048576	15	4656
2026-01-04 23:00:30.39	130.54	19.66	-27.8	-30.1	14.0	1.51e-04	0	43	102	1048576	15	4651
2026-01-04 23:00:31.39	130.73	19.58	-27.9	-30.1	13.9	2.07e-04	0	43	102	1048576	15	4669
2026-01-04 23:00:32.39	130.93	19.50	-28.2	-30.2	13.7	6.10e-06	0	44	102	1048576	16	4581
2026-01-04 23:00:33.40	131.12	19.42	-28.0	-29.8	14.0	4.50e-06	0	43	102	1048576	16	4444
2026-01-04 23:00:34.41	131.32	19.33	-27.8	-29.4	14.2	2.20e-06	0	43	102	1048576	16	4348
2026-01-04 23:00:35.41	131.51	19.25	-27.7	-29.2	14.3	1.50e-06	0	43	102	1048576	16	4287
2026-01-04 23:00:36.43	131.70	19.17	-27.8	-29.4	14.2	2.19e-04	0	43	102	1048576	16	4323
2026-01-04 23:00:37.43	131.89	19.09	-27.9	-29.6	14.1	2.20e-06	0	44	102	1048576	16	4380
2026-01-04 23:00:38.43	132.08	19.01	-27.9	-29.8	14.0	5.30e-06	0	43	102	1048576	16	4441
2026-01-04 23:00:39.44	132.26	18.93	-28.0	-29.8	13.9	4.50e-06	0	43	102	1048576	16	4463
2026-01-04 23:00:40.45	132.45	18.85	-28.0	-29.8	14.0	8.69e-05	0	43	102	1048576	16	4450
2026-01-04 23:00:41.46	132.64	18.77	-27.9	-29.6	14.1	7.00e-07	0	43	102	1048576	16	4388
2026-01-04 23:00:42.46	132.82	18.69	-27.9	-29.7	14.1	8.39e-05	0	43	102	1048576	16	4412
2026-01-04 23:00:43.47	133.01	18.61	-28.0	-29.8	14.0	1.23e-04	0	43	102	1048576	16	4450
2026-01-04 23:00:44.48	133.19	18.53	-28.0	-29.8	13.9	1.50e-06	0	43	102	1048576	16	4465
2026-01-04 23:00:45.49	133.37	18.45	-28.0	-30.0	13.8	1.11e-04	0	43	102	1048576	16	4514
2026-01-04 23:00:46.49	133.55	18.37	-28.1	-30.2	13.8	1.33e-04	0	44	102	1048576	16	4562
2026-01-04 23:00:47.50	133.74	18.28	-28.1	-30.2	13.7	6.80e-06	0	43	102	1048576	16	4565
2026-01-04 23:00:48.50	133.91	18.20	-28.1	-30.1	13.8	6.20e-04	0	43	102	1048576	16	4539
2026-01-04 23:00:49.51	134.09	18.12	-28.1	-30.1	13.8	1.06e-03	0	44	102	1048576	16	4527
2026-01-04 23:00:50.52	134.27	18.04	-28.1	-30.2	13.7	1.22e-05	0	44	102	1048576	16	4577
2026-01-04 23:00:51.53	134.45	17.96	-28.2	-30.3	13.6	1.14e-03	0	43	102	1048576	16	4619
2026-01-04 23:00:52.53	134.62	17.88	-28.0	-30.4	13.6	1.32e-03	0	43	102	1048576	15	4779
2026-01-04 23:00:53.53	134.80	17.80	-28.2	-30.5	13.5	1.37e-05	0	44	102	1048576	16	4682
2026-01-04 23:00:54.54	134.97	17.72	-28.2	-30.5	13.5	1.44e-05	0	43	102	1048576	16	4654
2026-01-04 23:00:55.55	135.15	17.64	-28.2	-30.4	13.6	9.90e-06	0	43	102	1048576	16	4627
2026-01-04 23:00:56.55	135.32	17.56	-28.2	-30.4	13.5	4.50e-06	0	43	102	1048576	16	4653
2026-01-04 23:00:57.56	135.49	17.48	-28.2	-30.3	13.5	5.26e-04	0	43	102	1048576	16	4625
2026-01-04 23:00:58.56	135.66	17.39	-28.2	-30.4	13.5	5.25e-04	0	43	102	1048576	16	4647
2026-01-04 23:00:59.56	135.83	17.31	-28.3	-30.5	13.4	9.10e-06	0	43	102	1048576	16	4686
2026-01-04 23:01:00.57	136.00	17.23	-28.3	-30.6	13.4	1.29e-05	0	43	102	1048576	16	4707
2026-01-04 23:01:01.58	136.16	17.15	-28.3	-30.7	13.3	2.13e-05	0	43	102	1048576	16	4746
2026-01-04 23:01:02.58	136.33	17.07	-28.3	-30.6	13.3	1.75e-05	0	44	102	1048576	16	4715
2026-01-04 23:01:03.59	136.50	16.99	-28.3	-30.8	13.2	4.93e-04	0	44	102	1048576	16	4783
2026-01-04 23:01:04.60	136.66	16.91	-28.4	-31.0	13.1	3.05e-05	0	43	102	1048576	16	4842
2026-01-04 23:01:05.60	136.83	16.83	-28.4	-30.9	13.1	2.89e-05	0	43	102	1048576	16	4801
2026-01-04 23:01:06.61	136.99	16.75	-28.4	-30.9	13.1	4.57e-05	0	44	102	1048576	16	4814
2026-01-04 23:01:07.62	137.15	16.67	-28.3	-30.7	13.2	3.96e-05	0	43	102	1048576	16	4741
2026-01-04 23:01:08.63	137.32	16.59	-28.2	-30.4	13.4	1.06e-05	0	43	102	1048576	16	4654
2026-01-04 23:01:09.63	137.48	16.51	-28.2	-30.5	13.3	1.14e-05	0	43	102	1048576	16	4680
2026-01-04 23:01:10.64	137.64	16.43	-28.2	-30.4	13.4	1.29e-05	0	44	102	1048576	16	4644
2026-01-04 23:01:11.64	137.79	16.35	-28.3	-30.6	13.3	1.90e-05	0	43	102	1048576	16	4717
2026-01-04 23:01:12.64	137.95	16.27	-28.2	-30.5	13.3	1.98e-05	0	43	102	1048576	16	4672
2026-01-04 23:01:13.65	138.11	16.19	-28.1	-30.2	13.5	1.44e-05	0	43	102	1048576	16	4595
2026-01-04 23:01:14.66	138.27	16.11	-28.0	-30.0	13.6	1.06e-05	0	43	102	1048576	16	4545
2026-01-04 23:01:15.67	138.42	16.03	-27.8	-30.1	13.7	6.10e-06	0	43	102	1048576	15	4684
2026-01-04 23:01:16.68	138.58	15.95	-27.9	-30.3	13.5	1.14e-05	0	43	102	1048576	15	4760
2026-01-04 23:01:17.68	138.73	15.87	-28.2	-30.4	13.4	1.37e-05	0	43	102	1048576	16	4654
2026-01-04 23:01:18.68	138.89	15.79	-28.2	-30.6	13.2	1.75e-05	0	43	102	1048576	16	4710
2026-01-04 23:01:19.68	139.04	15.71	-28.3	-30.7	13.2	2.51e-05	0	43	102	1048576	16	4734
2026-01-04 23:01:20.68	139.19	15.63	-28.3	-30.8	13.1	2.97e-05	0	43	102	1048576	16	4774
2026-01-04 23:01:21.69	139.34	15.55	-28.3	-30.8	13.1	3.96e-05	0	44	102	1048576	16	4795
2026-01-04 23:01:22.70	139.49	15.47	-28.5	-31.1	12.9	5.34e-05	0	43	102	1048576	16	4883
2026-01-04 23:01:23.71	139.64	15.39	-28.4	-30.4	13.0	6.02e-05	0	44	102	1048576	17	4556
2026-01-04 23:01:24.71	139.79	15.31	-28.3	-30.2	13.1	2.82e-05	0	43	102	1048576	17	4504
2026-01-04 23:01:25.72	139.94	15.23	-28.3	-30.1	13.1	2.44e-05	0	44	102	1048576	17	4465
2026-01-04 23:01:26.73	140.09	15.15	-28.2	-30.1	13.2	3.28e-05	0	44	102	1048576	17	4458
2026-01-04 23:01:27.73	140.23	15.07	-28.3	-30.7	13.1	3.50e-05	0	43	102	1048576	16	4766
2026-01-04 23:01:28.74	140.38	14.99	-28.2	-30.6	13.1	2.89e-05	0	43	102	1048576	16	4721
2026-01-04 23:01:29.75	140.52	14.91	-28.3	-30.7	13.0	3.28e-05	0	43	102	1048576	16	4774
2026-01-04 23:01:30.76	140.67	14.83	-28.3	-30.7	13.0	5.03e-05	0	44	102	1048576	16	4765
2026-01-04 23:01:31.76	140.81	14.76	-28.2	-30.5	13.2	2.51e-05	0	43	102	1048576	16	4694
2026-01-04 23:01:32.77	140.96	14.68	-28.3	-30.9	12.9	5.41e-05	0	43	102	1048576	16	4826
2026-01-04 23:01:33.77	141.10	14.60	-28.2	-30.6	13.0	3.89e-05	0	44	102	1048576	16	4727
2026-01-04 23:01:34.78	141.24	14.52	-28.2	-30.6	13.0	3.58e-05	0	44	102	1048576	16	4739
2026-01-04 23:01:35.78	141.38	14.44	-28.3	-30.7	12.9	5.03e-05	0	44	102	1048576	16	4778
2026-01-04 23:01:36.79	141.52	14.36	-28.3	-30.9	12.8	5.18e-05	0	44	102	1048576	16	4851
2026-01-04 23:01:37.80	141.66	14.28	-28.4	-31.0	12.7	6.79e-05	0	44	102	1048576	16	4878
2026-01-04 23:01:38.80	141.80	14.21	-28.5	-31.2	12.6	8.54e-05	0	43	102	1048576	16	4947
2026-01-04 23:01:39.80	141.93	14.13	-28.4	-31.1	12.6	9.68e-05	0	44	102	1048576	16	4918
2026-01-04 23:01:40.81	142.07	14.05	-28.5	-31.3	12.5	1.05e-04	0	43	102	1048576	16	4987
2026-01-04 23:01:41.82	142.21	13.97	-28.4	-31.2	12.6	1.09e-04	0	44	102	1048576	16	4938
2026-01-04 23:01:42.82	142.34	13.90	-28.5	-31.2	12.5	8.77e-05	0	43	102	1048576	16	4953
2026-01-04 23:01:43.83	142.48	13.82	-28.5	-31.0	12.4	1.69e-04	0	43	102	1048576	17	4753
2026-01-04 23:01:44.84	142.61	13.74	-28.7	-31.5	12.0	2.60e-04	0	43	102	1048576	17	4935
2026-01-04 23:01:45.85	142.75	13.66	-28.7	-31.3	12.1	2.85e-04	0	44	102	1048576	17	4873
2026-01-04 23:01:46.85	142.88	13.59	-28.5	-31.0	12.3	2.04e-04	0	44	102	1048576	17	4778
2026-01-04 23:01:47.86	143.01	13.51	-27.7	-30.2	12.3	1.56e-04	0	44	102	1048576	17	4766
2026-01-04 23:01:48.87	143.15	13.43	-28.6	-31.5	11.8	2.35e-04	0	44	102	1048576	16	5065
2026-01-04 23:01:49.87	143.28	13.35	-28.6	-31.2	12.1	2.43e-04	0	44	102	1048576	17	4851
2026-01-04 23:01:50.88	143.41	13.28	-28.6	-31.3	11.6	2.88e-04	0	44	102	1048576	17	4884
2026-01-04 23:01:51.89	143.54	13.20	-28.7	-31.4	12.0	2.28e-03	0	44	102	1048576	17	4918
2026-01-04 23:01:52.90	143.67	13.12	-28.7	-31.3	12.0	3.28e-04	0	44	102	1048576	17	4911
2026-01-04 23:01:53.90	143.79	13.05	-28.6	-31.3	12.0	2.78e-04	0	43	102	1048576	17	4905
2026-01-04 23:01:54.91	143.92	12.97	-28.7	-31.5	11.9	3.26e-04	0	44	102	1048576	17	4974
2026-01-04 23:01:55.91	144.05	12.89	-28.7	-31.6	11.8	4.45e-04	0	44	102	1048576	17	5004
2026-01-04 23:01:56.92	144.18	12.82	-28.7	-31.5	11.9	2.69e-03	0	44	102	1048576	17	4974
2026-01-04 23:01:57.92	144.30	12.74	-28.8	-31.7	11.8	2.57e-03	0	43	102	1048576	17	5029
2026-01-04 23:01:58.92	144.43	12.67	-28.9	-32.1	11.5	6.44e-04	0	43	102	1048576	17	5195
2026-01-04 23:01:59.92	144.55	12.59	-28.8	-31.9	11.6	6.83e-04	0	44	102	1048576	17	5097
2026-01-04 23:02:00.93	144.68	12.51	-28.8	-31.7	11.8	5.46e-04	0	43	102	1048576	17	5040
2026-01-04 23:02:01.94	144.80	12.44	-28.8	-31.8	11.7	5.56e-04	0	44	102	1048576	17	5062
2026-01-04 23:02:02.94	144.92	12.36	-28.8	-31.8	11.7	3.45e-03	0	43	102	1048576	17	5068
2026-01-04 23:02:03.95	145.04	12.29	-29.1	-32.1	11.2	4.10e-03	0	44	102	1048576	18	5043
2026-01-04 23:02:04.96	145.17	12.21	-28.9	-31.5	11.6	9.63e-04	0	44	102	1048576	18	4848
2026-01-04 23:02:05.96	145.29	12.14	-28.8	-31.6	11.9	4.29e-04	0	43	102	1048576	17	4997
2026-01-04 23:02:06.97	145.41	12.06	-28.9	-32.0	11.6	4.37e-03	0	43	102	1048576	17	5142
2026-01-04 23:02:07.98	145.53	11.99	-28.7	-31.5	11.9	4.26e-04	0	44	102	1048576	17	4957
2026-01-04 23:02:08.99	145.65	11.91	-28.7	-31.3	12.1	4.25e-03	0	44	102	1048576	17	4877
2026-01-04 23:02:10.00	145.77	11.84	-28.7	-31.3	12.1	4.10e-03	0	43	102	1048576	17	4878
2026-01-04 23:02:11.00	145.88	11.76	-28.6	-31.1	12.2	2.50e-04	0	43	102	1048576	17	4802
2026-01-04 23:02:12.00	146.00	11.69	-28.6	-31.3	12.1	4.06e-03	0	43	102	1048576	17	4866
2026-01-04 23:02:13.01	146.12	11.61	-28.6	-31.1	12.2	3.70e-03	0	43	102	1048576	17	4800
2026-01-04 23:02:14.02	146.24	11.54	-28.5	-31.0	12.3	2.37e-04	0	44	102	1048576	17	4774
2026-01-04 23:02:15.03	146.35	11.46	-28.6	-31.1	12.2	3.64e-03	0	44	102	1048576	17	4799
2026-01-04 23:02:16.03	146.47	11.39	-28.6	-31.1	12.2	2.41e-04	0	44	102	1048576	17	4807
2026-01-04 23:02:17.04	146.58	11.32	-28.6	-31.2	12.1	2.64e-04	0	44	102	1048576	17	4852
2026-01-04 23:02:18.05	146.70	11.24	-28.7	-31.5	11.9	4.32e-03	0	44	102	1048576	17	4967
2026-01-04 23:02:19.05	146.81	11.17	-28.6	-31.2	12.0	4.17e-03	0	44	102	1048576	17	4866
2026-01-04 23:02:20.06	146.92	11.10	-28.8	-31.7	11.7	7.66e-04	0	44	102	1048576	17	5042
2026-01-04 23:02:21.07	147.04	11.02	-28.7	-31.4	12.0	3.49e-04	0	43	102	1048576	17	4913
2026-01-04 23:02:22.08	147.15	10.95	-28.7	-31.4	11.9	3.88e-04	0	44	102	1048576	17	4941
2026-01-04 23:02:23.08	147.26	10.88	-28.7	-31.5	11.8	4.65e-04	0	44	102	1048576	17	4984
2026-01-04 23:02:24.08	147.37	10.80	-28.9	-32.1	11.5	8.73e-04	0	44	102	1048576	17	5174
2026-01-04 23:02:25.09	147.48	10.73	-28.8	-31.6	11.8	4.18e-03	0	43	102	1048576	17	5006
2026-01-04 23:02:26.10	147.59	10.66	-29.1	-31.9	11.4	8.44e-04	0	44	102	1048576	18	4988
2026-01-04 23:02:27.11	147.70	10.58	-28.8	-31.6	11.8	4.90e-04	0	43	102	1048576	17	4992
2026-01-04 23:02:28.11	147.81	10.51	-28.7	-31.5	11.9	4.56e-04	0	44	102	1048576	17	4979
2026-01-04 23:02:29.12	147.92	10.44	-28.7	-31.5	11.9	3.76e-04	0	44	102	1048576	17	4953
2026-01-04 23:02:30.13	148.02	10.37	-28.9	-32.1	11.5	4.67e-03	0	43	102	1048576	17	5175
2026-01-04 23:02:31.14	148.13	10.29	-28.7	-31.6	11.8	5.82e-04	0	43	102	1048576	17	5000
2026-01-04 23:02:32.14	148.24	10.22	-28.7	-31.4	11.9	3.55e-04	0	44	102	1048576	17	4945
2026-01-04 23:02:33.15	148.34	10.15	-28.8	-31.8	11.6	5.83e-04	0	44	102	1048576	17	5078
2026-01-04 23:02:34.15	148.45	10.08	-28.7	-31.5	11.8	5.23e-04	0	43	102	1048576	17	4967
2026-01-04 23:02:35.16	148.56	10.01	-28.7	-31.4	11.9	4.34e-04	0	44	102	1048576	17	4930
2026-01-04 23:02:36.16	148.66	9.94	-28.7	-31.6	11.8	4.37e-04	0	43	102	1048576	17	5014
2026-01-04 23:02:37.17	148.76	9.86	-28.7	-31.4	11.8	4.73e-04	0	43	102	1048576	17	4951
2026-01-04 23:02:38.18	148.87	9.79	-28.8	-31.9	11.6	6.91e-04	0	44	102	1048576	17	5096
2026-01-04 23:02:39.18	148.97	9.72	-28.7	-31.6	11.7	5.59e-04	0	43	102	1048576	17	4998
2026-01-04 23:02:40.18	149.07	9.65	-28.7	-31.7	11.7	5.39e-04	0	44	102	1048576	17	5038
2026-01-04 23:02:41.19	149.18	9.58	-28.8	-31.8	11.5	7.51e-04	0	43	102	1048576	17	5092
2026-01-04 23:02:42.20	149.28	9.51	-28.8	-31.8	11.5	7.32e-04	0	44	102	1048576	17	5103
2026-01-04 23:02:43.20	149.38	9.44	-28.9	-32.0	11.4	9.59e-04	0	43	102	1048576	17	5161
2026-01-04 23:02:44.21	149.48	9.37	-28.9	-32.1	11.3	1.10e-03	0	43	102	1048576	17	5201
2026-01-04 23:02:45.22	149.58	9.30	-28.8	-32.0	11.4	8.61e-04	0	44	102	1048576	17	5155
2026-01-04 23:02:46.23	149.68	9.23	-28.9	-32.2	11.2	1.24e-03	0	43	102	1048576	17	5229
2026-01-04 23:02:47.23	149.78	9.16	-29.0	-32.2	11.2	1.35e-03	0	43	102	1048576	17	5259
2026-01-04 23:02:48.24	149.88	9.09	-29.1	-32.2	10.9	2.02e-03	0	44	102	1048576	18	5128
2026-01-04 23:02:49.24	149.98	9.02	-29.1	-32.1	10.9	2.63e-03	0	43	102	1048576	18	5126
2026-01-04 23:02:50.25	150.08	8.95	-29.1	-32.1	10.9	2.19e-03	0	44	102	1048576	18	5125
2026-01-04 23:02:51.25	150.17	8.88	-29.1	-32.2	10.9	2.00e-03	0	44	102	1048576	18	5128
2026-01-04 23:02:52.26	150.27	8.81	-29.0	-31.9	11.0	1.93e-03	0	44	102	1048576	18	5052
2026-01-04 23:02:53.27	150.37	8.74	-29.0	-32.4	11.0	1.93e-03	0	44	102	1048576	17	5342
2026-01-04 23:02:54.28	150.47	8.67	-29.0	-32.5	10.9	2.11e-03	0	44	102	1048576	17	5407
2026-01-04 23:02:55.28	150.56	8.60	-29.0	-32.1	10.8	2.48e-03	0	44	102	1048576	18	5153
2026-01-04 23:02:56.29	150.66	8.53	-29.0	-32.6	10.7	2.83e-03	0	43	102	1048576	17	5454
2026-01-04 23:02:57.30	150.75	8.46	-29.0	-32.6	10.7	3.03e-03	0	44	102	1048576	17	5484
2026-01-04 23:02:58.30	150.85	8.39	-29.1	-32.4	10.5	3.78e-03	0	43	102	1048576	18	5298
2026-01-04 23:02:59.30	150.94	8.33	-29.2	-32.9	10.1	6.84e-03	0	44	102	1048576	18	5503
2026-01-04 23:03:00.31	151.03	8.26	-29.2	-32.6	10.3	5.17e-03	0	43	102	1048576	18	5386
2026-01-04 23:03:01.32	151.13	8.19	-29.3	-33.0	10.0	7.81e-03	0	44	102	1048576	18	5547
2026-01-04 23:03:02.33	151.22	8.12	-29.1	-32.5	10.3	6.13e-03	0	44	102	1048576	18	5334
2026-01-04 23:03:03.33	151.31	8.05	-29.0	-32.3	10.5	4.12e-03	0	43	102	1048576	18	5235
2026-01-04 23:03:04.34	151.41	7.98	-29.0	-32.7	10.5	3.31e-03	0	43	102	1048576	17	5527
2026-01-04 23:03:05.34	151.50	7.92	-29.0	-32.1	10.6	3.95e-03	0	43	102	1048576	18	5180
2026-01-04 23:03:06.35	151.59	7.85	-29.0	-32.2	10.5	3.94e-03	0	44	102	1048576	18	5215
2026-01-04 23:03:07.36	151.68	7.78	-28.9	-32.6	10.6	3.73e-03	0	43	102	1048576	17	5474
2026-01-04 23:03:08.37	151.77	7.71	-29.0	-32.6	10.6	3.94e-03	0	43	102	1048576	17	5479
2026-01-04 23:03:09.37	151.86	7.64	-29.1	-32.5	10.3	4.48e-03	0	44	102	1048576	18	5311
2026-01-04 23:03:10.38	151.95	7.58	-29.2	-32.9	10.1	6.41e-03	0	44	102	1048576	18	5488
2026-01-04 23:03:11.39	152.04	7.51	-29.3	-33.0	9.9	8.62e-03	0	43	102	1048576	18	5544
2026-01-04 23:03:12.39	152.13	7.44	-29.3	-33.0	9.9	7.31e-03	0	44	102	1048576	18	5544
2026-01-04 23:03:13.40	152.22	7.38	-29.3	-33.2	9.8	1.06e-02	0	44	102	1048576	18	5638
2026-01-04 23:03:14.41	152.31	7.31	-28.4	-32.3	9.7	9.74e-03	0	43	102	1048576	18	5649
2026-01-04 23:03:15.42	152.39	7.24	-29.3	-33.2	9.7	1.10e-02	0	43	102	1048576	18	5636
2026-01-04 23:03:16.42	152.48	7.18	-29.3	-33.2	9.7	1.02e-02	0	44	102	1048576	18	5634
2026-01-04 23:03:17.43	152.57	7.11	-29.5	-33.6	9.0	1.30e-02	0	44	102	1048576	18	5811
2026-01-04 23:03:18.44	152.65	7.04	-31.5	-40.2	4.0	9.66e-01	0	44	104	1048576	23	9791
2026-01-04 23:03:19.45	152.74	6.98	-32.5	-44.3	3.8	1.49e+00	0	44	104	1048576	25	14007
2026-01-04 23:03:20.45	152.83	6.91	-33.2	-45.1	3.8	1.49e+00	0	43	104	1048576	26	14154
2026-01-04 23:03:21.46	152.91	6.84	-33.4	-45.6	3.8	1.49e+00	0	44	104	1048576	26	14530

#Closed at: 2026-01-04 23:03:21
#Recorded file [1 MB]: D:/data/31010_260105_015243.dat