passes_logs/2026/01/04/R2M6_AANII_01/R2M6_AANII_01__20260104_232205_SUOMI_NPP_rec.log

#Pass ID: 20260104_232205_SUOMI NPP
#Satellite: SUOMI NPP
#Configuration: NPP
#almurnet v.1.7.20240730
#Start time: 2026-01-04 23:22:07

#Version: 2.2.20231116
#Station: R2M6_AANII_01
#Location: 30.233357 lon 59.946436 lat
#TLE: 1 37849U 11061A   26003.96724563  .00000164  00000+0  98899-4 0  9990
#TLE: 2 37849  98.7800 306.1116 0002573  82.3190 277.8279 14.19522066735141

#Time	Az	El	Level	Level2	SNR	BER	BlckErr	Temp	State	Recorded	gain1	gain2
2026-01-04 23:22:07.17	24.92	7.09	-32.0	-39.6	4.1	1.42e+00	0	41	0	0	24	8594
2026-01-04 23:22:08.18	24.98	7.16	-32.2	-40.9	4.0	1.47e+00	0	41	104	0	24	9817
2026-01-04 23:22:09.18	25.04	7.24	-32.3	-41.4	4.2	1.36e+00	0	41	0	0	24	10228
2026-01-04 23:22:10.19	25.11	7.31	-32.2	-40.5	4.5	1.23e+00	0	41	102	1048576	24	9299
2026-01-04 23:22:11.19	25.17	7.38	-32.1	-39.4	4.9	8.62e-01	0	41	102	1048576	24	8341
2026-01-04 23:22:12.20	25.24	7.45	-32.0	-38.6	5.4	6.13e-01	0	41	102	1048576	24	7665
2026-01-04 23:22:13.21	25.30	7.52	-31.9	-37.7	5.9	4.27e-01	0	41	102	1048576	24	7061
2026-01-04 23:22:14.22	25.37	7.60	-31.7	-37.1	6.7	2.44e-01	0	41	102	1048576	23	6685
2026-01-04 23:22:15.22	25.43	7.67	-31.5	-36.2	7.4	1.47e-01	0	41	102	1048576	23	6174
2026-01-04 23:22:16.22	25.50	7.74	-31.4	-35.8	7.8	9.93e-02	0	41	102	1048576	23	5923
2026-01-04 23:22:17.23	25.56	7.82	-31.3	-35.7	8.2	5.02e-02	0	41	102	1048576	22	5935
2026-01-04 23:22:18.23	25.63	7.89	-31.1	-34.9	8.8	3.63e-02	0	41	102	1048576	22	5577
2026-01-04 23:22:19.23	25.69	7.96	-31.0	-34.5	9.2	2.46e-02	0	41	102	1048576	22	5374
2026-01-04 23:22:20.24	25.76	8.04	-31.0	-34.5	9.2	1.95e-02	0	41	102	1048576	22	5371
2026-01-04 23:22:21.24	25.83	8.11	-31.1	-34.6	9.1	2.00e-02	0	41	102	1048576	22	5429
2026-01-04 23:22:22.25	25.90	8.18	-31.1	-34.7	9.1	2.42e-02	0	41	102	1048576	22	5445
2026-01-04 23:22:23.25	25.96	8.26	-31.1	-34.7	9.0	2.29e-02	0	41	102	1048576	22	5463
2026-01-04 23:22:24.26	26.03	8.33	-31.1	-34.5	9.2	2.38e-02	0	41	102	1048576	22	5374
2026-01-04 23:22:25.27	26.10	8.41	-31.0	-34.4	9.3	1.66e-02	0	41	102	1048576	22	5318
2026-01-04 23:22:26.28	26.17	8.48	-31.1	-34.7	9.1	1.83e-02	0	41	102	1048576	22	5440
2026-01-04 23:22:27.28	26.24	8.56	-31.0	-34.3	9.4	1.78e-02	0	42	102	1048576	22	5281
2026-01-04 23:22:28.29	26.31	8.63	-31.1	-34.6	9.2	1.90e-02	0	41	102	1048576	22	5406
2026-01-04 23:22:29.30	26.38	8.71	-31.0	-34.2	9.6	1.44e-02	0	42	102	1048576	22	5192
2026-01-04 23:22:30.31	26.45	8.78	-30.9	-34.0	9.7	1.25e-02	0	41	102	1048576	22	5122
2026-01-04 23:22:31.31	26.52	8.86	-31.0	-34.4	9.4	1.34e-02	0	41	102	1048576	22	5300
2026-01-04 23:22:32.32	26.59	8.94	-31.0	-34.3	9.5	1.59e-02	0	42	102	1048576	22	5251
2026-01-04 23:22:33.33	26.66	9.01	-31.1	-34.6	9.2	1.89e-02	0	42	102	1048576	22	5380
2026-01-04 23:22:34.33	26.73	9.09	-31.2	-34.9	9.0	2.52e-02	0	42	102	1048576	22	5518
2026-01-04 23:22:35.34	26.80	9.17	-31.1	-34.6	9.2	1.96e-02	0	42	102	1048576	22	5375
2026-01-04 23:22:36.35	26.88	9.24	-31.2	-34.8	9.1	2.10e-02	0	42	102	1048576	22	5486
2026-01-04 23:22:37.35	26.95	9.32	-31.2	-34.9	9.0	2.38e-02	0	42	102	1048576	22	5518
2026-01-04 23:22:38.36	27.02	9.40	-31.2	-35.0	8.9	2.26e-02	0	42	102	1048576	22	5582
2026-01-04 23:22:39.37	27.10	9.47	-31.3	-35.2	8.7	3.33e-02	0	42	102	1048576	22	5677
2026-01-04 23:22:40.38	27.17	9.55	-31.1	-34.4	9.3	1.90e-02	0	42	102	1048576	22	5301
2026-01-04 23:22:41.39	27.24	9.63	-31.0	-34.7	9.5	1.58e-02	0	42	102	1048576	21	5505
2026-01-04 23:22:42.40	27.32	9.71	-30.9	-34.5	9.8	9.68e-03	0	42	102	1048576	21	5406
2026-01-04 23:22:43.41	27.39	9.79	-31.0	-34.3	9.5	1.37e-02	0	42	102	1048576	22	5250
2026-01-04 23:22:44.41	27.47	9.86	-31.1	-34.6	9.3	1.48e-02	0	42	102	1048576	22	5389
2026-01-04 23:22:45.42	27.55	9.94	-31.1	-34.6	9.3	2.16e-02	0	42	102	1048576	22	5365
2026-01-04 23:22:46.42	27.62	10.02	-31.1	-34.6	9.3	1.55e-02	0	42	102	1048576	22	5355
2026-01-04 23:22:47.43	27.70	10.10	-31.1	-34.7	9.3	2.12e-02	0	42	102	1048576	22	5391
2026-01-04 23:22:48.44	27.77	10.18	-31.0	-34.2	9.6	1.30e-02	0	42	102	1048576	22	5184
2026-01-04 23:22:49.45	27.85	10.26	-30.8	-33.8	10.3	8.36e-03	0	42	102	1048576	21	5090
2026-01-04 23:22:50.45	27.93	10.34	-30.7	-33.6	10.5	5.16e-03	0	42	102	1048576	21	5022
2026-01-04 23:22:51.46	28.01	10.42	-30.8	-33.9	10.2	7.07e-03	0	42	102	1048576	21	5162
2026-01-04 23:22:52.47	28.09	10.50	-30.7	-33.5	10.6	4.70e-03	0	42	102	1048576	21	4975
2026-01-04 23:22:53.48	28.16	10.58	-30.6	-33.1	10.9	2.88e-03	0	42	102	1048576	21	4834
2026-01-04 23:22:54.49	28.24	10.66	-30.6	-33.1	10.9	2.06e-03	0	42	102	1048576	21	4815
2026-01-04 23:22:55.49	28.32	10.74	-30.5	-32.9	11.0	1.92e-03	0	42	102	1048576	21	4754
2026-01-04 23:22:56.49	28.40	10.82	-30.6	-33.2	10.8	2.21e-03	0	42	102	1048576	21	4864
2026-01-04 23:22:57.50	28.48	10.91	-30.6	-33.2	10.8	1.74e-03	0	42	102	1048576	21	4869
2026-01-04 23:22:58.50	28.56	10.99	-30.6	-33.2	10.9	2.19e-03	0	42	102	1048576	21	4849
2026-01-04 23:22:59.50	28.64	11.07	-30.6	-33.1	10.9	2.19e-03	0	42	102	1048576	21	4830
2026-01-04 23:23:00.50	28.73	11.15	-30.6	-33.3	10.8	2.83e-03	0	42	102	1048576	21	4883
2026-01-04 23:23:01.51	28.81	11.23	-30.6	-33.2	10.9	3.11e-03	0	42	102	1048576	21	4835
2026-01-04 23:23:02.51	28.89	11.31	-30.5	-32.7	11.2	2.15e-03	0	42	102	1048576	21	4664
2026-01-04 23:23:03.51	28.97	11.40	-30.6	-33.2	10.9	2.26e-03	0	42	102	1048576	21	4835
2026-01-04 23:23:04.51	29.06	11.48	-30.7	-33.5	10.7	3.55e-03	0	42	102	1048576	21	4953
2026-01-04 23:23:05.52	29.14	11.56	-30.6	-33.3	10.9	2.68e-03	0	42	102	1048576	21	4875
2026-01-04 23:23:06.53	29.22	11.64	-30.6	-33.2	10.9	2.15e-03	0	42	102	1048576	21	4857
2026-01-04 23:23:07.54	29.31	11.73	-30.7	-33.3	10.9	2.35e-03	0	42	102	1048576	21	4903
2026-01-04 23:23:08.54	29.39	11.81	-30.6	-33.2	10.9	3.39e-03	0	42	102	1048576	21	4835
2026-01-04 23:23:09.55	29.48	11.90	-30.6	-33.3	10.9	2.05e-03	0	43	102	1048576	21	4868
2026-01-04 23:23:10.55	29.57	11.98	-30.7	-33.6	10.7	2.80e-03	0	42	102	1048576	21	4985
2026-01-04 23:23:11.56	29.65	12.06	-30.6	-33.3	10.9	4.00e-03	0	42	102	1048576	21	4863
2026-01-04 23:23:12.57	29.74	12.15	-30.6	-33.0	11.1	1.91e-03	0	42	102	1048576	21	4756
2026-01-04 23:23:13.57	29.83	12.23	-30.5	-32.8	11.3	1.94e-03	0	42	102	1048576	21	4679
2026-01-04 23:23:14.58	29.92	12.32	-30.4	-32.5	11.5	1.57e-03	0	43	102	1048576	21	4593
2026-01-04 23:23:15.59	30.00	12.41	-30.5	-32.7	11.2	1.08e-03	0	42	102	1048576	21	4672
2026-01-04 23:23:16.60	30.09	12.49	-30.5	-33.2	11.4	1.38e-03	0	43	102	1048576	20	4921
2026-01-04 23:23:17.61	30.18	12.58	-30.5	-33.2	11.3	1.47e-03	0	42	102	1048576	20	4936
2026-01-04 23:23:18.61	30.27	12.66	-30.4	-32.6	11.4	8.69e-04	0	43	102	1048576	21	4631
2026-01-04 23:23:19.62	30.36	12.75	-30.6	-33.1	11.1	1.44e-03	0	43	102	1048576	21	4799
2026-01-04 23:23:20.63	30.46	12.84	-30.5	-32.9	11.2	2.56e-03	0	43	102	1048576	21	4725
2026-01-04 23:23:21.64	30.55	12.92	-30.5	-32.8	11.3	1.18e-03	0	42	102	1048576	21	4686
2026-01-04 23:23:22.65	30.64	13.01	-30.5	-32.9	11.2	1.48e-03	0	43	102	1048576	21	4731
2026-01-04 23:23:23.65	30.73	13.10	-30.6	-33.2	11.0	1.72e-03	0	43	102	1048576	21	4829
2026-01-04 23:23:24.66	30.83	13.19	-30.7	-33.3	10.9	2.01e-03	0	43	102	1048576	21	4885
2026-01-04 23:23:25.66	30.92	13.27	-30.7	-33.3	10.9	2.74e-03	0	43	102	1048576	21	4889
2026-01-04 23:23:26.67	31.01	13.36	-30.6	-33.3	10.9	1.77e-03	0	43	102	1048576	21	4878
2026-01-04 23:23:27.67	31.11	13.45	-30.7	-33.5	10.8	2.05e-03	0	43	102	1048576	21	4961
2026-01-04 23:23:28.68	31.20	13.54	-30.6	-33.1	11.0	3.16e-03	0	42	102	1048576	21	4813
2026-01-04 23:23:29.69	31.30	13.63	-30.5	-32.8	11.3	1.66e-03	0	43	102	1048576	21	4685
2026-01-04 23:23:30.69	31.39	13.72	-30.6	-32.9	11.2	1.14e-03	0	43	102	1048576	21	4732
2026-01-04 23:23:31.70	31.49	13.81	-30.5	-32.8	11.4	1.41e-03	0	43	102	1048576	21	4691
2026-01-04 23:23:32.70	31.59	13.90	-30.5	-32.8	11.3	1.64e-03	0	43	102	1048576	21	4684
2026-01-04 23:23:33.71	31.69	13.99	-30.5	-32.6	11.4	1.08e-03	0	43	102	1048576	21	4619
2026-01-04 23:23:34.72	31.79	14.08	-30.4	-32.4	11.6	1.81e-03	0	43	102	1048576	21	4546
2026-01-04 23:23:35.72	31.88	14.17	-30.4	-33.0	11.5	1.18e-03	0	43	102	1048576	20	4859
2026-01-04 23:23:36.73	31.98	14.26	-30.4	-33.1	11.5	6.22e-04	0	43	102	1048576	20	4882
2026-01-04 23:23:37.74	32.09	14.35	-30.4	-32.4	11.6	8.53e-04	0	43	102	1048576	21	4525
2026-01-04 23:23:38.74	32.19	14.44	-30.4	-32.8	11.6	1.30e-03	0	43	102	1048576	20	4787
2026-01-04 23:23:39.75	32.29	14.53	-30.5	-33.1	11.5	6.44e-04	0	43	102	1048576	20	4877
2026-01-04 23:23:40.75	32.39	14.62	-30.6	-33.0	11.3	1.27e-03	0	43	102	1048576	21	4751
2026-01-04 23:23:41.76	32.49	14.72	-30.8	-33.5	10.9	1.41e-03	0	43	102	1048576	21	4938
2026-01-04 23:23:42.76	32.60	14.81	-30.7	-33.5	10.9	2.49e-03	0	43	102	1048576	21	4925
2026-01-04 23:23:43.77	32.70	14.90	-30.7	-33.3	11.1	1.62e-03	0	43	102	1048576	21	4849
2026-01-04 23:23:44.78	32.80	14.99	-30.6	-33.0	11.2	1.61e-03	0	43	102	1048576	21	4745
2026-01-04 23:23:45.78	32.91	15.09	-30.7	-33.3	11.0	1.85e-03	0	43	102	1048576	21	4845
2026-01-04 23:23:46.79	33.02	15.18	-30.7	-33.2	11.1	1.41e-03	0	43	102	1048576	21	4817
2026-01-04 23:23:47.79	33.12	15.27	-30.5	-32.7	11.5	1.17e-03	0	43	102	1048576	21	4635
2026-01-04 23:23:48.80	33.23	15.37	-30.4	-32.4	11.7	7.89e-04	0	43	102	1048576	21	4509
2026-01-04 23:23:49.81	33.34	15.46	-30.5	-32.6	11.6	7.82e-04	0	43	102	1048576	21	4608
2026-01-04 23:23:50.81	33.44	15.56	-30.4	-32.5	11.7	5.74e-04	0	43	102	1048576	21	4542
2026-01-04 23:23:51.82	33.55	15.65	-30.4	-32.2	11.8	5.22e-04	0	43	102	1048576	21	4457
2026-01-04 23:23:52.83	33.66	15.75	-30.4	-32.8	11.8	4.90e-04	0	43	102	1048576	20	4771
2026-01-04 23:23:53.83	33.77	15.84	-30.4	-32.7	11.9	4.29e-04	0	43	102	1048576	20	4734
2026-01-04 23:23:54.83	33.88	15.94	-30.2	-32.3	12.1	2.87e-04	0	43	102	1048576	20	4590
2026-01-04 23:23:55.84	34.00	16.03	-30.4	-32.7	11.9	2.02e-04	0	43	102	1048576	20	4728
2026-01-04 23:23:56.85	34.11	16.13	-30.4	-32.7	11.9	2.11e-04	0	43	102	1048576	20	4726
2026-01-04 23:23:57.85	34.22	16.23	-30.3	-32.7	12.0	3.34e-04	0	43	102	1048576	20	4703
2026-01-04 23:23:58.85	34.33	16.32	-30.4	-32.8	11.8	4.30e-04	0	43	102	1048576	20	4760
2026-01-04 23:23:59.86	34.45	16.42	-30.5	-32.7	11.6	7.59e-04	0	43	102	1048576	21	4630
2026-01-04 23:24:00.87	34.57	16.52	-30.8	-33.5	11.0	9.64e-04	0	43	102	1048576	21	4903
2026-01-04 23:24:01.88	34.68	16.62	-30.6	-32.9	11.5	1.28e-03	0	43	102	1048576	21	4677
2026-01-04 23:24:02.88	34.80	16.71	-30.5	-32.5	11.7	7.45e-04	0	43	102	1048576	21	4560
2026-01-04 23:24:03.89	34.92	16.81	-30.5	-32.6	11.7	5.66e-04	0	43	102	1048576	21	4579
2026-01-04 23:24:04.90	35.03	16.91	-30.5	-32.7	11.7	6.64e-04	0	43	102	1048576	21	4608
2026-01-04 23:24:05.90	35.15	17.01	-30.5	-32.6	11.6	6.17e-04	0	43	102	1048576	21	4595
2026-01-04 23:24:06.91	35.27	17.11	-30.6	-32.8	11.7	5.18e-04	0	43	102	1048576	21	4640
2026-01-04 23:24:07.92	35.39	17.21	-30.6	-32.9	11.5	6.45e-04	0	43	102	1048576	21	4687
2026-01-04 23:24:08.93	35.51	17.31	-30.7	-33.3	11.2	1.21e-03	0	43	102	1048576	21	4845
2026-01-04 23:24:09.93	35.64	17.41	-30.7	-33.0	11.4	1.46e-03	0	43	102	1048576	21	4741
2026-01-04 23:24:10.94	35.76	17.51	-30.7	-33.3	11.2	9.63e-04	0	43	102	1048576	21	4828
2026-01-04 23:24:11.94	35.88	17.61	-30.8	-33.5	11.1	1.34e-03	0	43	102	1048576	21	4913
2026-01-04 23:24:12.95	36.01	17.71	-30.8	-33.5	11.2	1.65e-03	0	43	102	1048576	21	4896
2026-01-04 23:24:13.96	36.13	17.81	-31.0	-34.0	10.7	2.24e-03	0	43	102	1048576	21	5121
2026-01-04 23:24:14.97	36.26	17.91	-30.9	-33.6	11.1	2.05e-03	0	43	102	1048576	21	4958
2026-01-04 23:24:15.97	36.39	18.01	-30.8	-33.6	11.1	1.27e-03	0	43	102	1048576	21	4941
2026-01-04 23:24:16.98	36.51	18.12	-30.7	-33.3	11.3	1.23e-03	0	43	102	1048576	21	4814
2026-01-04 23:24:17.98	36.64	18.22	-30.7	-33.2	11.3	9.89e-04	0	43	102	1048576	21	4778
2026-01-04 23:24:18.98	36.77	18.32	-30.7	-33.0	11.5	9.82e-04	0	43	102	1048576	21	4703
2026-01-04 23:24:19.98	36.90	18.42	-30.6	-32.9	11.6	9.73e-04	0	43	102	1048576	21	4672
2026-01-04 23:24:20.99	37.03	18.53	-30.5	-32.7	11.8	4.49e-04	0	43	102	1048576	21	4593
2026-01-04 23:24:21.99	37.16	18.63	-30.5	-32.6	11.8	3.71e-04	0	43	102	1048576	21	4551
2026-01-04 23:24:23.00	37.29	18.73	-30.6	-32.8	11.7	6.94e-04	0	43	102	1048576	21	4622
2026-01-04 23:24:24.01	37.43	18.84	-30.5	-32.6	11.8	6.21e-04	0	43	102	1048576	21	4552
2026-01-04 23:24:25.02	37.56	18.94	-30.6	-32.8	11.7	5.06e-04	0	43	102	1048576	21	4645
2026-01-04 23:24:26.03	37.70	19.05	-30.6	-32.7	11.8	5.86e-04	0	43	102	1048576	21	4612
2026-01-04 23:24:27.03	37.83	19.15	-30.7	-33.2	11.4	6.16e-04	0	43	102	1048576	21	4774
2026-01-04 23:24:28.04	37.97	19.26	-30.6	-32.8	11.7	6.03e-04	0	43	102	1048576	21	4636
2026-01-04 23:24:29.04	38.11	19.36	-30.6	-32.9	11.7	4.02e-04	0	43	102	1048576	21	4654
2026-01-04 23:24:30.06	38.25	19.47	-30.6	-32.9	11.6	7.70e-04	0	43	102	1048576	21	4656
2026-01-04 23:24:31.06	38.39	19.57	-30.6	-32.7	11.8	6.00e-04	0	43	102	1048576	21	4585
2026-01-04 23:24:32.07	38.53	19.68	-30.6	-32.8	11.7	4.87e-04	0	43	102	1048576	21	4636
2026-01-04 23:24:33.08	38.67	19.79	-30.7	-33.0	11.6	5.78e-04	0	43	102	1048576	21	4687
2026-01-04 23:24:34.08	38.82	19.89	-30.7	-32.9	11.6	7.39e-04	0	43	102	1048576	21	4674
2026-01-04 23:24:35.09	38.96	20.00	-30.7	-33.0	11.6	8.59e-04	0	43	102	1048576	21	4696
2026-01-04 23:24:36.10	39.10	20.11	-30.7	-33.0	11.6	6.94e-04	0	43	102	1048576	21	4686
2026-01-04 23:24:37.10	39.25	20.22	-30.8	-33.4	11.3	8.39e-04	0	43	102	1048576	21	4845
2026-01-04 23:24:38.11	39.40	20.33	-30.7	-32.9	11.6	8.06e-04	0	43	102	1048576	21	4667
2026-01-04 23:24:39.11	39.54	20.43	-30.7	-33.0	11.6	7.02e-04	0	43	102	1048576	21	4708
2026-01-04 23:24:40.12	39.69	20.54	-30.6	-32.7	11.8	6.10e-04	0	43	102	1048576	21	4584
2026-01-04 23:24:41.13	39.84	20.65	-30.6	-32.8	11.8	5.94e-04	0	43	102	1048576	21	4618
2026-01-04 23:24:42.13	39.99	20.76	-30.8	-33.2	11.5	7.35e-04	0	43	102	1048576	21	4768
2026-01-04 23:24:43.14	40.15	20.87	-30.7	-33.0	11.6	8.70e-04	0	43	102	1048576	21	4701
2026-01-04 23:24:44.15	40.30	20.98	-30.6	-32.6	11.8	5.77e-04	0	43	102	1048576	21	4568
2026-01-04 23:24:45.15	40.45	21.09	-30.7	-33.1	11.6	4.90e-04	0	43	102	1048576	21	4726
2026-01-04 23:24:46.16	40.61	21.20	-30.7	-32.9	11.8	5.03e-04	0	43	102	1048576	21	4643
2026-01-04 23:24:47.17	40.76	21.31	-30.6	-32.8	11.8	5.52e-04	0	43	102	1048576	21	4616
2026-01-04 23:24:48.18	40.92	21.42	-31.0	-33.5	11.0	8.07e-04	0	43	102	1048576	22	4773
2026-01-04 23:24:49.18	41.08	21.53	-31.1	-33.8	10.8	2.42e-03	0	43	102	1048576	22	4907
2026-01-04 23:24:50.19	41.24	21.65	-30.8	-32.8	11.5	1.35e-03	0	43	102	1048576	22	4520
2026-01-04 23:24:51.20	41.40	21.76	-30.9	-33.0	11.4	8.04e-04	0	43	102	1048576	22	4584
2026-01-04 23:24:52.21	41.56	21.87	-30.8	-32.7	11.6	7.41e-04	0	43	102	1048576	22	4481
2026-01-04 23:24:53.21	41.73	21.98	-30.5	-32.1	11.9	6.10e-04	0	43	102	1048576	22	4345
2026-01-04 23:24:54.21	41.89	22.10	-30.8	-32.6	11.7	5.15e-04	0	43	102	1048576	22	4460
2026-01-04 23:24:55.22	42.05	22.21	-30.8	-32.7	11.6	6.00e-04	0	43	102	1048576	22	4471
2026-01-04 23:24:56.23	42.22	22.32	-30.7	-32.5	11.8	4.36e-04	0	43	102	1048576	22	4413
2026-01-04 23:24:57.23	42.39	22.43	-30.7	-32.4	11.8	4.46e-04	0	43	102	1048576	22	4387
2026-01-04 23:24:58.24	42.56	22.55	-30.4	-31.6	12.4	2.98e-04	0	43	102	1048576	22	4123
2026-01-04 23:24:59.24	42.73	22.66	-30.2	-31.3	12.9	7.70e-05	0	43	102	1048576	21	4131
2026-01-04 23:25:00.24	42.90	22.78	-30.1	-31.2	13.0	4.73e-05	0	43	102	1048576	21	4074
2026-01-04 23:25:01.25	43.07	22.89	-30.1	-31.1	13.1	3.81e-05	0	43	102	1048576	21	4035
2026-01-04 23:25:02.26	43.24	23.01	-30.1	-31.2	13.0	4.27e-05	0	43	102	1048576	21	4091
2026-01-04 23:25:03.27	43.42	23.12	-30.1	-31.2	13.0	3.96e-05	0	43	102	1048576	21	4086
2026-01-04 23:25:04.27	43.59	23.24	-30.1	-31.2	13.0	3.20e-05	0	43	102	1048576	21	4088
2026-01-04 23:25:05.28	43.77	23.35	-30.2	-31.5	12.8	3.96e-05	0	43	102	1048576	21	4171
2026-01-04 23:25:06.28	43.95	23.47	-30.4	-32.0	12.5	7.09e-05	0	43	102	1048576	21	4329
2026-01-04 23:25:07.28	44.13	23.58	-30.6	-32.7	12.1	2.10e-04	0	43	102	1048576	21	4552
2026-01-04 23:25:08.29	44.31	23.70	-30.5	-32.3	12.3	1.97e-04	0	43	102	1048576	21	4440
2026-01-04 23:25:09.30	44.49	23.82	-30.5	-32.5	12.2	1.88e-04	0	43	102	1048576	21	4483
2026-01-04 23:25:10.31	44.68	23.93	-30.5	-32.3	12.3	4.61e-04	0	43	102	1048576	21	4434
2026-01-04 23:25:11.31	44.86	24.05	-30.4	-32.1	12.4	1.41e-04	0	43	102	1048576	21	4374
2026-01-04 23:25:12.32	45.05	24.17	-30.3	-31.6	12.7	1.17e-04	0	43	102	1048576	21	4207
2026-01-04 23:25:13.33	45.24	24.28	-30.4	-32.5	12.5	4.28e-04	0	43	102	1048576	20	4580
2026-01-04 23:25:14.33	45.43	24.40	-30.3	-32.2	12.6	1.45e-04	0	43	102	1048576	20	4499
2026-01-04 23:25:15.34	45.62	24.52	-30.0	-31.3	13.3	4.50e-05	0	43	102	1048576	20	4203
2026-01-04 23:25:16.35	45.81	24.64	-29.9	-31.1	13.4	2.14e-04	0	43	102	1048576	20	4127
2026-01-04 23:25:17.36	46.00	24.76	-29.8	-30.8	13.6	3.22e-04	0	43	102	1048576	20	4042
2026-01-04 23:25:18.37	46.20	24.88	-29.9	-31.0	13.4	1.67e-05	0	43	102	1048576	20	4112
2026-01-04 23:25:19.38	46.40	24.99	-29.8	-31.0	13.5	6.10e-05	0	43	102	1048576	20	4105
2026-01-04 23:25:20.39	46.60	25.11	-30.0	-31.5	13.2	5.41e-05	0	43	102	1048576	20	4261
2026-01-04 23:25:21.39	46.79	25.23	-29.9	-31.0	13.5	2.05e-05	0	43	102	1048576	20	4105
2026-01-04 23:25:22.40	47.00	25.35	-29.8	-30.9	13.6	5.95e-05	0	43	102	1048576	20	4075
2026-01-04 23:25:23.40	47.20	25.47	-29.8	-30.8	13.6	6.80e-06	0	43	102	1048576	20	4048
2026-01-04 23:25:24.41	47.40	25.59	-29.9	-31.0	13.4	6.10e-06	0	43	102	1048576	20	4116
2026-01-04 23:25:25.41	47.61	25.71	-29.8	-30.8	13.7	9.90e-06	0	43	102	1048576	20	4035
2026-01-04 23:25:26.41	47.81	25.83	-29.9	-31.1	13.5	7.60e-06	0	43	102	1048576	20	4125
2026-01-04 23:25:27.41	48.02	25.95	-30.0	-31.3	13.3	1.52e-05	0	43	102	1048576	20	4192
2026-01-04 23:25:28.42	48.23	26.07	-29.8	-30.9	13.6	9.10e-06	0	43	102	1048576	20	4081
2026-01-04 23:25:29.43	48.44	26.19	-29.8	-31.0	13.6	9.10e-06	0	43	102	1048576	20	4100
2026-01-04 23:25:30.43	48.65	26.31	-29.9	-31.1	13.5	6.80e-06	0	43	102	1048576	20	4143
2026-01-04 23:25:31.44	48.87	26.43	-29.8	-30.8	13.6	2.36e-05	0	43	102	1048576	20	4045
2026-01-04 23:25:32.45	49.08	26.55	-29.7	-31.0	13.9	1.61e-04	0	43	102	1048576	19	4180
2026-01-04 23:25:33.46	49.30	26.67	-29.8	-31.2	13.8	1.50e-06	0	43	102	1048576	19	4245
2026-01-04 23:25:34.47	49.52	26.79	-29.7	-30.9	14.0	2.45e-04	0	43	102	1048576	19	4151
2026-01-04 23:25:35.48	49.75	26.91	-29.7	-30.9	14.0	0.00e+00	0	43	102	1048576	19	4165
2026-01-04 23:25:36.48	49.97	27.03	-29.7	-30.9	14.1	2.20e-06	0	43	102	1048576	19	4166
2026-01-04 23:25:37.49	50.19	27.16	-29.9	-31.5	13.6	4.97e-04	0	43	102	1048576	19	4324
2026-01-04 23:25:38.50	50.42	27.28	-29.9	-31.4	13.7	3.13e-04	0	43	102	1048576	19	4319
2026-01-04 23:25:39.51	50.65	27.40	-29.9	-31.6	13.6	6.10e-06	0	43	102	1048576	19	4359
2026-01-04 23:25:40.52	50.88	27.52	-30.0	-31.4	13.3	9.86e-04	0	43	102	1048576	20	4236
2026-01-04 23:25:41.53	51.11	27.64	-30.0	-31.5	13.3	1.03e-03	0	43	102	1048576	20	4248
2026-01-04 23:25:42.54	51.34	27.76	-30.2	-31.9	13.0	2.21e-05	0	43	102	1048576	20	4383
2026-01-04 23:25:43.55	51.58	27.89	-30.2	-31.8	13.0	2.91e-04	0	43	102	1048576	20	4336
2026-01-04 23:25:44.56	51.82	28.01	-30.1	-31.7	13.1	4.88e-05	0	43	102	1048576	20	4303
2026-01-04 23:25:45.56	52.05	28.13	-30.0	-31.2	13.4	1.52e-05	0	43	102	1048576	20	4172
2026-01-04 23:25:46.57	52.29	28.25	-30.1	-31.6	13.3	2.13e-05	0	43	102	1048576	20	4266
2026-01-04 23:25:47.58	52.54	28.37	-30.2	-31.9	13.0	3.50e-05	0	43	102	1048576	20	4377
2026-01-04 23:25:48.59	52.78	28.50	-30.3	-32.0	12.9	4.73e-05	0	44	102	1048576	20	4401
2026-01-04 23:25:49.59	53.03	28.62	-30.4	-32.4	12.7	6.25e-05	0	43	102	1048576	20	4530
2026-01-04 23:25:50.60	53.27	28.74	-30.4	-31.9	12.6	1.13e-04	0	44	102	1048576	21	4283
2026-01-04 23:25:51.61	53.52	28.86	-30.5	-32.2	12.6	8.46e-05	0	43	102	1048576	21	4382
2026-01-04 23:25:52.61	53.77	28.98	-30.6	-32.4	12.4	1.14e-04	0	43	102	1048576	21	4438
2026-01-04 23:25:53.63	54.03	29.10	-30.6	-32.5	12.2	2.62e-04	0	43	102	1048576	21	4481
2026-01-04 23:25:54.63	54.28	29.22	-30.8	-33.2	11.8	3.70e-04	0	43	102	1048576	21	4710
2026-01-04 23:25:55.64	54.54	29.35	-30.8	-33.2	11.8	5.39e-04	0	43	102	1048576	21	4722
2026-01-04 23:25:56.64	54.80	29.47	-30.8	-33.2	11.8	6.67e-04	0	43	102	1048576	21	4730
2026-01-04 23:25:57.64	55.06	29.59	-31.0	-33.5	11.6	6.20e-04	0	43	102	1048576	21	4848
2026-01-04 23:25:58.65	55.32	29.71	-30.9	-33.4	11.7	5.99e-04	0	43	102	1048576	21	4809
2026-01-04 23:25:59.66	55.59	29.83	-30.8	-33.1	11.9	3.87e-04	0	43	102	1048576	21	4681
2026-01-04 23:26:00.66	55.85	29.95	-31.1	-33.5	11.3	1.09e-03	0	43	102	1048576	22	4731
2026-01-04 23:26:01.67	56.12	30.07	-31.4	-34.6	10.5	2.22e-03	0	43	102	1048576	22	5154
2026-01-04 23:26:02.67	56.39	30.19	-31.5	-34.2	10.4	4.71e-03	0	43	102	1048576	23	4921
2026-01-04 23:26:03.68	56.66	30.31	-31.7	-34.8	10.0	5.28e-03	0	43	102	1048576	23	5155
2026-01-04 23:26:04.69	56.94	30.43	-31.8	-35.1	9.8	9.26e-03	0	43	102	1048576	23	5289
2026-01-04 23:26:05.70	57.21	30.55	-32.0	-36.0	9.2	1.23e-02	0	43	102	1048576	23	5690
2026-01-04 23:26:06.70	57.49	30.67	-32.0	-35.6	9.0	2.32e-02	0	44	102	1048576	24	5455
2026-01-04 23:26:07.71	57.77	30.79	-32.1	-35.9	8.8	2.74e-02	0	43	102	1048576	24	5577
2026-01-04 23:26:08.72	58.06	30.91	-32.2	-36.2	8.5	2.65e-02	0	43	102	1048576	24	5723
2026-01-04 23:26:09.72	58.34	31.03	-32.1	-36.0	8.7	3.31e-02	0	43	102	1048576	24	5624
2026-01-04 23:26:10.73	58.63	31.15	-32.1	-35.7	8.9	2.83e-02	0	43	102	1048576	24	5482
2026-01-04 23:26:11.73	58.91	31.26	-32.0	-35.5	9.1	2.13e-02	0	43	102	1048576	24	5385
2026-01-04 23:26:12.74	59.20	31.38	-32.1	-35.7	8.9	1.97e-02	0	43	102	1048576	24	5492
2026-01-04 23:26:13.75	59.50	31.50	-32.2	-36.1	8.7	3.66e-02	0	43	102	1048576	24	5655
2026-01-04 23:26:14.75	59.79	31.62	-32.4	-36.9	8.0	4.99e-02	0	43	102	1048576	24	6046
2026-01-04 23:26:15.76	60.09	31.73	-32.5	-37.0	7.6	1.01e-01	0	43	102	1048576	25	6038
2026-01-04 23:26:16.77	60.39	31.85	-32.3	-36.1	8.2	6.88e-02	0	43	102	1048576	25	5590
2026-01-04 23:26:17.77	60.69	31.97	-32.2	-36.1	8.6	4.87e-02	0	43	102	1048576	24	5656
2026-01-04 23:26:18.78	60.99	32.08	-32.1	-35.9	8.9	2.63e-02	0	43	102	1048576	24	5544
2026-01-04 23:26:19.79	61.30	32.20	-32.2	-36.2	8.6	3.27e-02	0	44	102	1048576	24	5681
2026-01-04 23:26:20.80	61.61	32.31	-32.3	-36.5	8.5	3.82e-02	0	44	102	1048576	24	5840
2026-01-04 23:26:21.80	61.92	32.43	-32.3	-36.7	8.3	4.33e-02	0	43	102	1048576	24	5963
2026-01-04 23:26:22.81	62.23	32.54	-32.5	-37.3	7.7	7.27e-02	0	43	102	1048576	24	6265
2026-01-04 23:26:23.81	62.54	32.66	-32.5	-36.9	7.7	8.72e-02	0	43	102	1048576	25	5988
2026-01-04 23:26:24.81	62.86	32.77	-32.5	-37.1	7.5	9.23e-02	0	43	102	1048576	25	6074
2026-01-04 23:26:25.82	63.18	32.88	-32.7	-37.9	6.8	1.43e-01	0	43	102	1048576	25	6582
2026-01-04 23:26:26.82	63.49	32.99	-32.7	-37.8	7.0	1.86e-01	0	43	102	1048576	25	6506
2026-01-04 23:26:27.82	63.81	33.10	-32.8	-38.6	6.4	1.89e-01	0	43	102	1048576	25	6970
2026-01-04 23:26:28.83	64.14	33.21	-32.6	-37.3	7.3	1.55e-01	0	43	102	1048576	25	6209
2026-01-04 23:26:29.83	64.47	33.32	-32.4	-36.5	8.0	8.29e-02	0	43	102	1048576	25	5782
2026-01-04 23:26:30.84	64.80	33.43	-32.2	-35.7	8.6	5.49e-02	0	44	102	1048576	25	5390
2026-01-04 23:26:31.84	65.13	33.54	-32.0	-35.0	9.2	3.09e-02	0	44	102	1048576	25	5087
2026-01-04 23:26:32.84	65.46	33.65	-32.2	-35.6	8.8	2.30e-02	0	43	102	1048576	25	5309
2026-01-04 23:26:33.85	65.79	33.76	-32.4	-36.3	8.3	3.82e-02	0	44	102	1048576	25	5689
2026-01-04 23:26:34.86	66.13	33.86	-32.4	-36.3	8.1	5.46e-02	0	43	102	1048576	25	5684
2026-01-04 23:26:35.87	66.48	33.97	-32.5	-37.0	7.6	6.82e-02	0	43	102	1048576	25	6043
2026-01-04 23:26:36.87	66.82	34.08	-32.5	-36.9	7.7	8.94e-02	0	43	102	1048576	25	5956
2026-01-04 23:26:37.87	67.16	34.18	-32.3	-36.0	8.4	6.01e-02	0	43	102	1048576	25	5525
2026-01-04 23:26:38.88	67.51	34.28	-31.8	-34.2	9.7	1.51e-02	0	44	102	1048576	25	4752
2026-01-04 23:26:39.88	67.85	34.39	-31.4	-33.5	10.6	5.18e-03	0	43	102	1048576	24	4534
2026-01-04 23:26:40.89	68.21	34.49	-31.5	-34.0	10.7	2.46e-03	0	43	102	1048576	23	4814
2026-01-04 23:26:41.89	68.56	34.59	-31.2	-33.3	11.2	2.26e-03	0	43	102	1048576	23	4568
2026-01-04 23:26:42.90	68.91	34.69	-31.5	-34.0	10.7	2.36e-03	0	43	102	1048576	23	4825
2026-01-04 23:26:43.91	69.27	34.79	-32.0	-35.8	9.4	6.90e-03	0	44	102	1048576	23	5607
2026-01-04 23:26:44.92	69.63	34.89	-32.1	-35.7	9.1	2.42e-02	0	43	102	1048576	24	5459
2026-01-04 23:26:45.92	69.99	34.99	-32.2	-36.1	8.7	3.98e-02	0	43	102	1048576	24	5649
2026-01-04 23:26:46.93	70.36	35.08	-31.9	-35.1	9.5	2.03e-02	0	43	102	1048576	24	5192
2026-01-04 23:26:47.94	70.73	35.18	-31.8	-34.5	9.9	1.32e-02	0	43	102	1048576	24	4943
2026-01-04 23:26:48.95	71.10	35.27	-31.7	-34.2	10.2	5.21e-03	0	43	102	1048576	24	4800
2026-01-04 23:26:49.95	71.46	35.37	-31.8	-34.5	10.0	6.21e-03	0	44	102	1048576	24	4943
2026-01-04 23:26:50.96	71.84	35.46	-31.2	-33.1	11.3	2.87e-03	0	43	102	1048576	23	4497
2026-01-04 23:26:51.97	72.21	35.55	-30.9	-32.4	11.8	5.58e-04	0	43	102	1048576	23	4259
2026-01-04 23:26:52.97	72.59	35.64	-30.9	-32.2	12.0	2.69e-04	0	43	102	1048576	23	4177
2026-01-04 23:26:53.98	72.97	35.73	-30.9	-32.3	12.0	3.71e-04	0	43	102	1048576	23	4222
2026-01-04 23:26:54.99	73.35	35.82	-31.1	-32.7	11.7	5.26e-04	0	43	102	1048576	23	4359
2026-01-04 23:26:56.00	73.74	35.91	-31.1	-32.8	11.6	9.95e-04	0	43	102	1048576	23	4369
2026-01-04 23:26:57.00	74.12	35.99	-31.0	-32.7	11.7	7.93e-04	0	43	102	1048576	23	4344
2026-01-04 23:26:58.01	74.51	36.08	-30.4	-31.4	12.8	2.84e-04	0	43	102	1048576	22	4026
2026-01-04 23:26:59.01	74.89	36.16	-29.9	-30.4	13.7	5.56e-05	0	43	102	1048576	21	3839
2026-01-04 23:27:00.02	75.29	36.25	-29.9	-30.4	13.8	5.30e-06	0	43	102	1048576	21	3814
2026-01-04 23:27:01.03	75.68	36.33	-30.0	-30.9	13.5	3.89e-05	0	43	102	1048576	21	3957
2026-01-04 23:27:02.04	76.08	36.41	-30.4	-31.8	12.9	4.34e-05	0	44	102	1048576	21	4250
2026-01-04 23:27:03.04	76.47	36.49	-30.7	-32.8	12.3	1.30e-04	0	43	102	1048576	21	4554
2026-01-04 23:27:04.05	76.87	36.56	-30.6	-32.6	12.4	3.50e-04	0	44	102	1048576	21	4489
2026-01-04 23:27:05.06	77.27	36.64	-30.6	-32.4	12.6	5.35e-04	0	44	102	1048576	21	4416
2026-01-04 23:27:06.07	77.68	36.71	-30.6	-32.3	12.5	7.17e-05	0	43	102	1048576	21	4397
2026-01-04 23:27:07.07	78.08	36.79	-30.6	-32.5	12.4	6.29e-04	0	43	102	1048576	21	4451
2026-01-04 23:27:08.07	78.48	36.86	-30.8	-33.1	12.0	6.44e-04	0	44	102	1048576	21	4677
2026-01-04 23:27:09.08	78.89	36.93	-30.7	-32.6	12.3	2.79e-04	0	43	102	1048576	21	4513
2026-01-04 23:27:10.09	79.30	37.00	-30.6	-32.3	12.5	3.86e-04	0	43	102	1048576	21	4406
2026-01-04 23:27:11.10	79.72	37.06	-30.5	-32.2	12.6	2.33e-04	0	43	102	1048576	21	4353
2026-01-04 23:27:12.11	80.13	37.13	-30.2	-31.2	13.3	2.67e-05	0	43	102	1048576	21	4061
2026-01-04 23:27:13.11	80.54	37.19	-30.1	-31.0	13.4	8.85e-05	0	43	102	1048576	21	4004
2026-01-04 23:27:14.12	80.96	37.26	-30.2	-31.9	13.0	9.15e-05	0	43	102	1048576	20	4357
2026-01-04 23:27:15.13	81.38	37.32	-30.7	-32.8	12.3	1.37e-04	0	43	102	1048576	21	4575
2026-01-04 23:27:16.13	81.80	37.38	-30.9	-33.3	11.9	2.47e-04	0	43	102	1048576	21	4733
2026-01-04 23:27:17.13	82.21	37.44	-31.1	-33.5	11.4	8.68e-04	0	43	102	1048576	22	4711
2026-01-04 23:27:18.14	82.64	37.49	-31.1	-33.3	11.6	9.13e-04	0	44	102	1048576	22	4661
2026-01-04 23:27:19.14	83.06	37.55	-31.3	-33.9	11.3	1.10e-03	0	43	102	1048576	22	4872
2026-01-04 23:27:20.15	83.48	37.60	-31.1	-33.3	11.6	1.08e-03	0	44	102	1048576	22	4649
2026-01-04 23:27:21.15	83.91	37.65	-30.8	-32.5	12.1	5.29e-04	0	43	102	1048576	22	4362
2026-01-04 23:27:22.16	84.34	37.70	-30.5	-31.7	12.6	1.15e-04	0	43	102	1048576	22	4129
2026-01-04 23:27:23.16	84.76	37.75	-30.5	-31.6	12.7	6.02e-05	0	43	102	1048576	22	4082
2026-01-04 23:27:24.16	85.19	37.80	-30.6	-31.9	12.5	6.40e-05	0	43	102	1048576	22	4182
2026-01-04 23:27:25.16	85.62	37.84	-30.5	-32.0	12.8	6.33e-05	0	44	102	1048576	21	4306
2026-01-04 23:27:26.17	86.05	37.88	-30.7	-32.8	12.2	1.69e-04	0	43	102	1048576	21	4571
2026-01-04 23:27:27.16	86.48	37.92	-30.9	-33.2	11.9	2.04e-04	0	44	102	1048576	21	4705
2026-01-04 23:27:28.17	86.92	37.96	-31.0	-33.1	11.7	5.20e-04	0	43	102	1048576	22	4593
2026-01-04 23:27:29.17	87.35	38.00	-31.4	-34.2	10.9	1.15e-03	0	43	102	1048576	22	4990
2026-01-04 23:27:30.17	87.78	38.04	-31.6	-34.4	10.3	3.41e-03	0	43	102	1048576	23	4986
2026-01-04 23:27:31.17	88.22	38.07	-31.7	-34.8	10.2	5.88e-03	0	44	102	1048576	23	5136
2026-01-04 23:27:32.18	88.66	38.10	-31.6	-34.3	10.5	5.67e-03	0	43	102	1048576	23	4923
2026-01-04 23:27:33.18	89.10	38.13	-31.5	-34.1	10.7	3.10e-03	0	44	102	1048576	23	4842
2026-01-04 23:27:34.19	89.54	38.16	-31.7	-34.6	10.3	4.11e-03	0	43	102	1048576	23	5061
2026-01-04 23:27:35.20	89.98	38.19	-31.5	-34.1	10.5	4.44e-03	0	44	102	1048576	23	4845
2026-01-04 23:27:36.21	90.42	38.22	-31.3	-33.6	11.0	2.50e-03	0	43	102	1048576	23	4654
2026-01-04 23:27:37.21	90.86	38.24	-31.2	-33.0	11.4	1.57e-03	0	44	102	1048576	23	4459
2026-01-04 23:27:38.22	91.31	38.26	-31.2	-33.1	11.4	8.71e-04	0	44	102	1048576	23	4472
2026-01-04 23:27:39.23	91.75	38.28	-31.6	-34.4	10.5	2.10e-03	0	44	102	1048576	23	4983
2026-01-04 23:27:40.23	92.19	38.30	-32.3	-36.3	8.6	1.57e-02	0	44	102	1048576	24	5744
2026-01-04 23:27:41.23	92.64	38.31	-32.3	-36.7	8.3	6.32e-02	0	43	102	1048576	24	5926
2026-01-04 23:27:42.24	93.08	38.33	-32.2	-36.3	8.6	4.25e-02	0	44	102	1048576	24	5723
2026-01-04 23:27:43.25	93.53	38.34	-31.7	-34.3	10.1	1.40e-02	0	44	102	1048576	24	4838
2026-01-04 23:27:44.26	93.98	38.35	-31.3	-32.9	11.1	3.24e-03	0	44	102	1048576	24	4338
2026-01-04 23:27:45.26	94.42	38.36	-31.0	-32.6	11.6	7.23e-04	0	44	102	1048576	23	4326
2026-01-04 23:27:46.27	94.87	38.36	-31.1	-32.8	11.5	6.93e-04	0	43	102	1048576	23	4382
2026-01-04 23:27:47.28	95.32	38.37	-31.1	-32.8	11.5	1.08e-03	0	43	102	1048576	23	4401
2026-01-04 23:27:48.29	95.76	38.37	-31.0	-32.6	11.7	5.42e-04	0	44	102	1048576	23	4307
2026-01-04 23:27:49.29	96.21	38.37	-31.1	-32.9	11.5	8.78e-04	0	44	102	1048576	23	4434
2026-01-04 23:27:50.29	96.65	38.37	-30.9	-32.3	11.9	4.88e-04	0	44	102	1048576	23	4230
2026-01-04 23:27:51.30	97.10	38.36	-31.0	-32.6	11.8	4.32e-04	0	43	102	1048576	23	4328
2026-01-04 23:27:52.31	97.55	38.36	-31.0	-32.6	11.7	5.39e-04	0	43	102	1048576	23	4318
2026-01-04 23:27:53.31	97.99	38.35	-31.0	-32.5	11.8	5.15e-04	0	44	102	1048576	23	4293
2026-01-04 23:27:54.31	98.43	38.34	-30.9	-32.4	11.9	4.69e-04	0	43	102	1048576	23	4249
2026-01-04 23:27:55.32	98.88	38.33	-31.0	-32.7	11.6	6.35e-04	0	43	102	1048576	23	4354
2026-01-04 23:27:56.33	99.33	38.32	-31.3	-33.5	11.1	9.17e-04	0	43	102	1048576	23	4638
2026-01-04 23:27:57.33	99.77	38.30	-31.2	-33.1	11.3	1.70e-03	0	43	102	1048576	23	4506
2026-01-04 23:27:58.33	100.21	38.29	-30.9	-32.3	11.9	7.29e-04	0	43	102	1048576	23	4216
2026-01-04 23:27:59.34	100.66	38.27	-31.0	-33.0	11.8	3.38e-04	0	44	102	1048576	22	4545
2026-01-04 23:28:00.35	101.10	38.25	-31.1	-33.3	11.4	7.05e-04	0	44	102	1048576	22	4652
2026-01-04 23:28:01.36	101.55	38.23	-30.9	-32.8	11.8	7.74e-04	0	44	102	1048576	22	4470
2026-01-04 23:28:02.37	101.99	38.20	-30.3	-31.2	12.9	1.07e-04	0	44	102	1048576	22	3978
2026-01-04 23:28:03.38	102.43	38.17	-30.1	-31.1	13.4	2.05e-05	0	43	102	1048576	21	4019
2026-01-04 23:28:04.38	102.87	38.15	-30.4	-31.9	12.8	2.89e-05	0	43	102	1048576	21	4270
2026-01-04 23:28:05.39	103.31	38.12	-30.9	-33.4	11.8	2.73e-04	0	43	102	1048576	21	4779
2026-01-04 23:28:06.40	103.75	38.09	-31.2	-33.6	11.3	8.54e-04	0	44	102	1048576	22	4749
2026-01-04 23:28:07.40	104.19	38.05	-31.0	-33.2	11.7	8.92e-04	0	43	102	1048576	22	4611
2026-01-04 23:28:08.41	104.63	38.02	-31.0	-33.0	11.7	4.29e-04	0	44	102	1048576	22	4543
2026-01-04 23:28:09.42	105.07	37.98	-30.9	-32.8	11.9	4.74e-04	0	44	102	1048576	22	4480
2026-01-04 23:28:10.42	105.50	37.94	-31.1	-33.4	11.4	8.47e-04	0	43	102	1048576	22	4685
2026-01-04 23:28:11.43	105.94	37.90	-31.2	-33.7	11.2	1.20e-03	0	43	102	1048576	22	4802
2026-01-04 23:28:12.44	106.37	37.86	-31.0	-33.2	11.4	1.78e-03	0	43	102	1048576	22	4638
2026-01-04 23:28:13.45	106.81	37.81	-30.7	-32.4	12.1	5.82e-04	0	43	102	1048576	22	4344
2026-01-04 23:28:14.46	107.24	37.77	-30.9	-32.7	12.0	2.08e-04	0	43	102	1048576	22	4466
2026-01-04 23:28:15.47	107.67	37.72	-31.6	-34.5	10.4	1.99e-03	0	43	102	1048576	23	5049
2026-01-04 23:28:16.47	108.10	37.67	-32.0	-35.8	9.3	1.42e-02	0	43	102	1048576	23	5608
2026-01-04 23:28:17.48	108.52	37.62	-31.5	-33.8	10.4	1.88e-02	0	43	102	1048576	24	4690
2026-01-04 23:28:18.49	108.95	37.57	-30.7	-32.2	12.1	7.35e-04	0	43	102	1048576	22	4292
2026-01-04 23:28:19.50	109.38	37.51	-30.0	-30.9	13.4	6.10e-05	0	43	102	1048576	21	3969
2026-01-04 23:28:20.50	109.80	37.46	-30.4	-32.0	12.8	3.66e-05	0	44	102	1048576	21	4299
2026-01-04 23:28:21.51	110.22	37.40	-31.0	-33.6	11.7	2.13e-04	0	43	102	1048576	21	4854
2026-01-04 23:28:22.52	110.64	37.34	-31.0	-33.1	11.6	7.58e-04	0	43	102	1048576	22	4602
2026-01-04 23:28:23.53	111.07	37.28	-30.3	-31.1	12.9	1.20e-04	0	43	102	1048576	22	3947
2026-01-04 23:28:24.53	111.48	37.22	-30.1	-31.0	13.3	3.28e-05	0	43	102	1048576	21	4003
2026-01-04 23:28:25.54	111.90	37.15	-30.4	-31.9	12.7	4.11e-05	0	43	102	1048576	21	4282
2026-01-04 23:28:26.55	112.31	37.09	-31.1	-33.4	11.4	3.90e-04	0	43	102	1048576	22	4711
2026-01-04 23:28:27.56	112.73	37.02	-31.5	-34.2	10.4	2.34e-03	0	43	102	1048576	23	4912
2026-01-04 23:28:28.56	113.14	36.95	-31.6	-34.7	10.1	7.97e-03	0	44	102	1048576	23	5123
2026-01-04 23:28:29.57	113.55	36.88	-31.1	-33.0	11.3	2.53e-03	0	43	102	1048576	23	4472
2026-01-04 23:28:30.58	113.95	36.81	-30.7	-32.1	12.2	4.48e-04	0	43	102	1048576	22	4267
2026-01-04 23:28:31.59	114.36	36.74	-30.5	-31.6	12.6	1.43e-04	0	43	102	1048576	22	4102
2026-01-04 23:28:32.59	114.76	36.66	-31.0	-33.1	11.6	3.77e-04	0	43	102	1048576	22	4606
2026-01-04 23:28:33.59	115.16	36.59	-31.0	-33.1	11.5	1.56e-03	0	44	102	1048576	22	4596
2026-01-04 23:28:34.60	115.56	36.51	-30.5	-31.7	12.5	3.98e-04	0	44	102	1048576	22	4132
2026-01-04 23:28:35.61	115.96	36.43	-29.9	-30.7	13.5	1.83e-05	0	43	102	1048576	21	3914
2026-01-04 23:28:36.62	116.36	36.35	-29.8	-30.7	13.8	6.10e-06	0	43	102	1048576	20	4010
2026-01-04 23:28:37.63	116.76	36.27	-30.0	-31.2	13.5	9.90e-06	0	44	102	1048576	20	4158
2026-01-04 23:28:38.64	117.15	36.19	-30.6	-32.5	12.3	6.10e-05	0	44	102	1048576	21	4500
2026-01-04 23:28:39.65	117.54	36.10	-31.1	-33.5	11.3	1.18e-03	0	44	102	1048576	22	4727
2026-01-04 23:28:40.65	117.93	36.02	-31.3	-34.1	10.8	1.79e-03	0	44	102	1048576	22	4965
2026-01-04 23:28:41.66	118.32	35.93	-31.4	-34.0	10.5	4.51e-03	0	44	102	1048576	23	4854
2026-01-04 23:28:42.67	118.70	35.84	-31.5	-34.1	10.4	4.30e-03	0	44	102	1048576	23	4906
2026-01-04 23:28:43.67	119.08	35.76	-31.6	-34.5	10.1	5.90e-03	0	43	102	1048576	23	5055
2026-01-04 23:28:44.67	119.46	35.67	-31.9	-35.6	9.3	1.27e-02	0	44	102	1048576	23	5542
2026-01-04 23:28:45.68	119.84	35.58	-31.9	-35.2	9.3	2.31e-02	0	44	102	1048576	24	5246
2026-01-04 23:28:46.69	120.22	35.49	-31.3	-33.3	10.6	8.27e-03	0	44	102	1048576	24	4502
2026-01-04 23:28:47.70	120.60	35.39	-30.8	-32.2	11.8	1.37e-03	0	44	102	1048576	23	4205
2026-01-04 23:28:48.70	120.97	35.30	-30.5	-31.8	12.5	2.23e-04	0	43	102	1048576	22	4155
2026-01-04 23:28:49.71	121.34	35.20	-30.8	-32.5	11.9	2.61e-04	0	44	102	1048576	22	4397
2026-01-04 23:28:50.71	121.70	35.11	-31.3	-34.2	10.7	6.55e-04	0	43	102	1048576	22	5010
2026-01-04 23:28:51.72	122.07	35.01	-31.5	-34.1	10.4	4.53e-03	0	43	102	1048576	23	4907
2026-01-04 23:28:52.71	122.43	34.91	-31.4	-34.0	10.5	6.35e-03	0	43	102	1048576	23	4837
2026-01-04 23:28:53.72	122.79	34.82	-31.3	-33.7	10.7	3.90e-03	0	43	102	1048576	23	4736
2026-01-04 23:28:54.73	123.15	34.72	-31.2	-33.2	11.1	1.96e-03	0	43	102	1048576	23	4531
2026-01-04 23:28:55.73	123.51	34.62	-31.4	-34.1	10.5	3.12e-03	0	44	102	1048576	23	4879
2026-01-04 23:28:56.73	123.86	34.51	-31.7	-35.0	9.7	6.67e-03	0	44	102	1048576	23	5279
2026-01-04 23:28:57.73	124.21	34.41	-32.4	-37.4	7.6	2.49e-02	0	43	102	1048576	24	6396
2026-01-04 23:28:58.74	124.56	34.31	-32.6	-37.6	7.0	1.65e-01	0	44	102	1048576	25	6420
2026-01-04 23:28:59.74	124.91	34.21	-32.3	-36.3	7.8	1.06e-01	0	43	102	1048576	25	5716
2026-01-04 23:29:00.75	125.26	34.10	-32.1	-35.6	8.5	4.60e-02	0	44	102	1048576	25	5363
2026-01-04 23:29:01.76	125.60	33.99	-31.9	-34.8	9.1	2.79e-02	0	43	102	1048576	25	5034
2026-01-04 23:29:02.77	125.94	33.89	-32.3	-36.2	8.1	3.46e-02	0	43	102	1048576	25	5642
2026-01-04 23:29:03.77	126.28	33.78	-32.4	-37.0	7.5	8.91e-02	0	43	102	1048576	25	6055
2026-01-04 23:29:04.78	126.62	33.67	-32.7	-38.5	6.4	2.13e-01	0	44	102	1048576	25	6951
2026-01-04 23:29:05.79	126.96	33.56	-32.5	-37.2	7.3	2.03e-01	0	43	102	1048576	25	6208
2026-01-04 23:29:06.79	127.29	33.46	-32.0	-35.2	8.8	5.02e-02	0	43	102	1048576	25	5168
2026-01-04 23:29:07.80	127.62	33.35	-31.7	-34.7	9.6	1.52e-02	0	43	102	1048576	24	5038
2026-01-04 23:29:08.79	127.94	33.24	-31.8	-34.8	9.6	9.01e-03	0	44	102	1048576	24	5080
2026-01-04 23:29:09.80	128.27	33.13	-32.4	-37.3	7.6	3.59e-02	0	44	102	1048576	24	6316
2026-01-04 23:29:10.81	128.60	33.01	-32.8	-39.2	5.9	1.80e-01	0	44	102	1048576	25	7466
2026-01-04 23:29:11.81	128.92	32.90	-32.9	-39.5	5.6	4.66e-01	0	44	102	1048576	25	7749
2026-01-04 23:29:12.82	129.24	32.79	-32.3	-36.3	7.8	2.19e-01	0	43	102	1048576	25	5748
2026-01-04 23:29:13.82	129.56	32.68	-31.4	-33.6	10.3	2.09e-02	0	44	102	1048576	24	4643
2026-01-04 23:29:14.83	129.87	32.56	-31.3	-33.7	10.7	2.42e-03	0	44	102	1048576	23	4732
2026-01-04 23:29:15.84	130.19	32.45	-31.6	-34.7	9.9	3.40e-03	0	43	102	1048576	23	5148
2026-01-04 23:29:16.85	130.50	32.33	-32.3	-37.0	7.7	3.12e-02	0	44	102	1048576	24	6182
2026-01-04 23:29:17.86	130.81	32.21	-32.7	-38.3	6.4	1.38e-01	0	43	102	1048576	25	6886
2026-01-04 23:29:18.87	131.12	32.10	-32.7	-38.4	6.3	2.74e-01	0	44	102	1048576	25	6969
2026-01-04 23:29:19.88	131.42	31.98	-32.2	-36.0	8.1	1.24e-01	0	44	102	1048576	25	5592
2026-01-04 23:29:20.88	131.72	31.87	-31.7	-34.7	9.6	2.91e-02	0	44	102	1048576	24	5054
2026-01-04 23:29:21.89	132.03	31.75	-31.4	-33.6	10.3	5.19e-03	0	43	102	1048576	24	4643
2026-01-04 23:29:22.90	132.33	31.63	-31.9	-35.2	9.2	1.10e-02	0	44	102	1048576	24	5298
2026-01-04 23:29:23.91	132.62	31.51	-31.9	-35.2	9.1	2.79e-02	0	43	102	1048576	24	5287
2026-01-04 23:29:24.92	132.92	31.39	-31.7	-34.6	9.5	1.40e-02	0	44	102	1048576	24	5054
2026-01-04 23:29:25.92	133.21	31.28	-31.4	-33.8	10.1	6.89e-03	0	43	102	1048576	24	4722
2026-01-04 23:29:26.93	133.50	31.16	-30.9	-32.7	11.3	2.14e-03	0	43	102	1048576	23	4396
2026-01-04 23:29:27.93	133.79	31.04	-31.2	-33.3	10.9	1.63e-03	0	43	102	1048576	23	4622
2026-01-04 23:29:28.94	134.07	30.92	-31.3	-33.9	10.4	3.78e-03	0	43	102	1048576	23	4845
2026-01-04 23:29:29.95	134.36	30.80	-31.7	-35.3	9.4	8.58e-03	0	43	102	1048576	23	5425
2026-01-04 23:29:30.96	134.64	30.68	-32.1	-36.4	8.3	2.93e-02	0	43	102	1048576	24	5864
2026-01-04 23:29:31.97	134.92	30.56	-31.9	-35.6	8.8	3.51e-02	0	44	102	1048576	24	5469
2026-01-04 23:29:32.97	135.20	30.44	-31.5	-34.1	9.9	1.21e-02	0	44	102	1048576	24	4829
2026-01-04 23:29:33.98	135.47	30.32	-31.2	-33.6	10.7	4.58e-03	0	44	102	1048576	23	4707
2026-01-04 23:29:34.99	135.75	30.19	-31.1	-33.1	11.1	1.54e-03	0	44	102	1048576	23	4532
2026-01-04 23:29:35.99	136.02	30.07	-31.1	-33.0	11.1	1.48e-03	0	44	102	1048576	23	4496
2026-01-04 23:29:37.00	136.29	29.95	-31.4	-34.1	10.3	2.89e-03	0	43	102	1048576	23	4910
2026-01-04 23:29:38.01	136.56	29.83	-31.4	-34.2	10.2	6.93e-03	0	44	102	1048576	23	4983
2026-01-04 23:29:39.01	136.82	29.71	-30.9	-32.9	11.5	1.89e-03	0	43	102	1048576	22	4570
2026-01-04 23:29:40.02	137.09	29.59	-30.5	-31.8	12.3	3.55e-04	0	44	102	1048576	22	4197
2026-01-04 23:29:41.03	137.35	29.47	-30.4	-31.4	12.6	1.05e-04	0	44	102	1048576	22	4075
2026-01-04 23:29:42.03	137.61	29.35	-30.4	-32.2	12.3	5.14e-04	0	44	102	1048576	21	4392
2026-01-04 23:29:43.04	137.87	29.22	-30.3	-32.4	12.5	4.97e-04	0	44	102	1048576	20	4544
2026-01-04 23:29:44.05	138.12	29.10	-30.7	-33.0	11.7	2.33e-04	0	44	102	1048576	21	4675
2026-01-04 23:29:45.06	138.38	28.98	-31.0	-33.4	11.1	1.36e-03	0	43	102	1048576	22	4719
2026-01-04 23:29:46.07	138.63	28.85	-30.9	-33.0	11.4	1.83e-03	0	43	102	1048576	22	4596
2026-01-04 23:29:47.07	138.88	28.73	-30.6	-32.1	12.0	5.81e-04	0	44	102	1048576	22	4287
2026-01-04 23:29:48.08	139.13	28.61	-30.3	-31.8	12.6	7.29e-04	0	44	102	1048576	21	4277
2026-01-04 23:29:49.09	139.38	28.49	-30.4	-32.5	12.4	9.42e-04	0	43	102	1048576	20	4610
2026-01-04 23:29:50.09	139.62	28.37	-30.4	-32.7	12.3	1.58e-04	0	43	102	1048576	20	4659
2026-01-04 23:29:51.08	139.86	28.25	-30.5	-32.5	12.0	2.89e-04	0	44	102	1048576	21	4505
2026-01-04 23:29:52.08	140.10	28.12	-30.6	-32.8	11.7	1.73e-03	0	44	102	1048576	21	4611
2026-01-04 23:29:53.09	140.34	28.00	-31.0	-33.8	11.1	1.13e-03	0	44	102	1048576	21	4992
2026-01-04 23:29:54.09	140.58	27.88	-30.4	-32.2	12.1	1.47e-03	0	43	102	1048576	21	4420
2026-01-04 23:29:55.09	140.81	27.76	-29.8	-30.9	13.4	6.56e-05	0	44	102	1048576	20	4092
2026-01-04 23:29:56.10	141.05	27.64	-29.4	-30.0	14.0	1.29e-05	0	44	102	1048576	20	3837
2026-01-04 23:29:57.10	141.28	27.51	-29.3	-30.0	14.3	4.90e-04	0	43	102	1048576	19	3922
2026-01-04 23:29:58.11	141.51	27.39	-29.3	-30.2	14.2	0.00e+00	0	44	102	1048576	19	3965
2026-01-04 23:29:59.11	141.74	27.27	-29.5	-30.6	13.9	0.00e+00	0	44	102	1048576	19	4098
2026-01-04 23:30:00.12	141.96	27.15	-29.5	-30.8	13.8	7.84e-04	0	44	102	1048576	19	4147
2026-01-04 23:30:01.12	142.19	27.03	-29.6	-30.9	13.7	3.80e-06	0	44	102	1048576	19	4180
2026-01-04 23:30:02.13	142.41	26.90	-29.7	-31.3	13.4	8.30e-06	0	43	102	1048576	19	4311
2026-01-04 23:30:03.14	142.64	26.78	-29.4	-30.4	14.1	9.03e-04	0	44	102	1048576	19	4030
2026-01-04 23:30:04.14	142.86	26.66	-29.0	-29.8	14.7	1.17e-03	0	44	102	1048576	18	3962
2026-01-04 23:30:05.15	143.08	26.54	-28.8	-29.5	14.9	0.00e+00	0	44	102	1048576	18	3870
2026-01-04 23:30:06.15	143.29	26.42	-28.7	-29.6	15.1	1.61e-03	0	44	102	1048576	17	3990
2026-01-04 23:30:07.16	143.51	26.30	-28.8	-29.9	15.0	1.75e-03	0	43	102	1048576	17	4083
2026-01-04 23:30:08.17	143.72	26.17	-29.4	-30.8	14.1	7.00e-07	0	43	102	1048576	18	4260
2026-01-04 23:30:09.17	143.93	26.05	-29.6	-30.8	13.7	7.60e-06	0	44	102	1048576	19	4162
2026-01-04 23:30:10.18	144.15	25.93	-30.0	-31.5	12.9	2.32e-03	0	43	102	1048576	20	4281
2026-01-04 23:30:11.19	144.36	25.81	-29.8	-31.1	13.1	2.59e-05	0	43	102	1048576	20	4158
2026-01-04 23:30:12.19	144.56	25.69	-29.4	-30.4	14.0	3.80e-06	0	44	102	1048576	19	4047
2026-01-04 23:30:13.20	144.77	25.57	-29.1	-30.2	14.5	2.20e-06	0	43	102	1048576	18	4063
2026-01-04 23:30:14.21	144.97	25.45	-29.0	-29.8	14.7	7.00e-07	0	44	102	1048576	18	3960
2026-01-04 23:30:15.21	145.18	25.33	-28.9	-29.7	14.8	0.00e+00	0	44	102	1048576	18	3943
2026-01-04 23:30:16.22	145.38	25.21	-29.1	-30.1	14.6	0.00e+00	0	43	102	1048576	18	4032
2026-01-04 23:30:17.23	145.58	25.09	-29.1	-30.0	14.6	0.00e+00	0	44	102	1048576	18	4022
2026-01-04 23:30:18.23	145.78	24.97	-29.1	-30.2	14.4	1.50e-06	0	44	102	1048576	18	4081
2026-01-04 23:30:19.23	145.97	24.85	-29.4	-30.8	14.1	2.20e-06	0	44	102	1048576	18	4246
2026-01-04 23:30:20.23	146.17	24.73	-29.4	-30.8	14.1	3.80e-06	0	43	102	1048576	18	4251
2026-01-04 23:30:21.24	146.36	24.61	-29.3	-30.8	14.1	1.50e-06	0	44	102	1048576	18	4240
2026-01-04 23:30:22.25	146.56	24.50	-29.2	-30.5	14.2	0.00e+00	0	43	102	1048576	18	4175
2026-01-04 23:30:23.26	146.75	24.38	-29.1	-30.1	14.5	7.00e-07	0	44	102	1048576	18	4056
2026-01-04 23:30:24.27	146.94	24.26	-29.1	-30.2	14.3	4.50e-06	0	44	102	1048576	18	4093
2026-01-04 23:30:25.28	147.13	24.14	-29.4	-30.9	14.0	2.20e-06	0	44	102	1048576	18	4291
2026-01-04 23:30:26.28	147.32	24.02	-29.4	-30.4	13.9	3.80e-06	0	44	102	1048576	19	4058
2026-01-04 23:30:27.29	147.50	23.90	-29.5	-30.7	13.8	7.60e-06	0	44	102	1048576	19	4123
2026-01-04 23:30:28.30	147.69	23.79	-29.8	-31.3	13.4	1.06e-05	0	43	102	1048576	19	4321
2026-01-04 23:30:29.30	147.87	23.67	-29.8	-31.4	13.4	2.67e-05	0	44	102	1048576	19	4338
2026-01-04 23:30:30.31	148.05	23.55	-30.0	-31.5	12.9	4.73e-05	0	43	102	1048576	20	4286
2026-01-04 23:30:31.32	148.23	23.43	-29.9	-31.3	13.0	3.58e-05	0	44	102	1048576	20	4243
2026-01-04 23:30:32.32	148.41	23.32	-29.7	-30.7	13.4	1.22e-05	0	44	102	1048576	20	4053
2026-01-04 23:30:33.33	148.59	23.20	-29.7	-31.4	13.3	1.06e-05	0	44	102	1048576	19	4338
2026-01-04 23:30:34.34	148.77	23.08	-29.9	-31.2	13.0	3.89e-05	0	44	102	1048576	20	4224
2026-01-04 23:30:35.34	148.94	22.97	-28.7	-29.7	13.4	1.52e-05	0	44	102	1048576	20	4028
2026-01-04 23:30:36.35	149.12	22.85	-29.2	-30.8	12.6	9.90e-06	0	44	102	1048576	19	4336
2026-01-04 23:30:37.36	149.29	22.74	-29.6	-31.0	13.5	2.21e-05	0	44	102	1048576	19	4222
2026-01-04 23:30:38.36	149.46	22.62	-29.5	-30.8	12.1	7.60e-06	0	43	102	1048576	19	4181
2026-01-04 23:30:39.36	149.63	22.51	-29.5	-30.9	13.6	6.80e-06	0	44	102	1048576	19	4186
2026-01-04 23:30:40.37	149.80	22.39	-29.2	-30.0	14.1	5.30e-06	0	44	102	1048576	19	3947
2026-01-04 23:30:41.38	149.97	22.28	-29.4	-30.9	13.9	2.51e-03	0	44	102	1048576	18	4281
2026-01-04 23:30:42.38	150.14	22.17	-29.3	-30.8	14.0	4.50e-06	0	44	102	1048576	18	4266
2026-01-04 23:30:43.39	150.30	22.05	-29.2	-30.4	14.2	0.00e+00	0	43	102	1048576	18	4142
2026-01-04 23:30:44.40	150.47	21.94	-29.4	-30.9	13.9	2.15e-03	0	44	102	1048576	18	4284
2026-01-04 23:30:45.41	150.63	21.82	-29.4	-30.9	13.8	6.80e-06	0	44	102	1048576	18	4286
2026-01-04 23:30:46.41	150.79	21.71	-29.5	-30.9	13.5	6.80e-06	0	44	102	1048576	19	4197
2026-01-04 23:30:47.42	150.95	21.60	-29.6	-31.1	13.4	1.14e-05	0	44	102	1048576	19	4256
2026-01-04 23:30:48.42	151.11	21.49	-29.6	-31.0	13.4	2.39e-03	0	44	102	1048576	19	4242
2026-01-04 23:30:49.42	151.27	21.38	-29.8	-31.7	13.0	2.05e-05	0	43	102	1048576	19	4451
2026-01-04 23:30:50.43	151.43	21.26	-29.8	-31.6	13.0	4.95e-05	0	44	102	1048576	19	4422
2026-01-04 23:30:51.43	151.59	21.15	-29.8	-31.6	13.0	2.34e-03	0	44	102	1048576	19	4413
2026-01-04 23:30:52.44	151.74	21.04	-29.8	-31.5	13.0	4.80e-05	0	43	102	1048576	19	4389
2026-01-04 23:30:53.45	151.90	20.93	-29.5	-30.8	13.5	1.75e-05	0	44	102	1048576	19	4171
2026-01-04 23:30:54.46	152.05	20.82	-29.5	-30.8	13.5	2.58e-03	0	44	102	1048576	19	4162
2026-01-04 23:30:55.47	152.20	20.71	-29.6	-31.0	13.4	2.59e-05	0	44	102	1048576	19	4235
2026-01-04 23:30:56.48	152.35	20.60	-29.7	-31.2	13.2	1.29e-05	0	44	102	1048576	19	4305
2026-01-04 23:30:57.49	152.51	20.49	-29.9	-31.3	12.8	4.19e-05	0	44	102	1048576	20	4260
2026-01-04 23:30:58.50	152.66	20.38	-30.3	-32.5	12.1	2.37e-04	0	43	102	1048576	20	4652
2026-01-04 23:30:59.51	152.80	20.27	-30.5	-32.8	11.4	3.00e-03	0	43	102	1048576	21	4658
2026-01-04 23:31:00.51	152.95	20.16	-30.8	-33.5	10.9	1.04e-03	0	44	102	1048576	21	4928
2026-01-04 23:31:01.52	153.10	20.05	-30.8	-33.5	10.8	3.00e-03	0	44	102	1048576	21	4955
2026-01-04 23:31:02.53	153.24	19.94	-30.8	-33.8	10.6	6.00e-03	0	43	102	1048576	21	5069
2026-01-04 23:31:03.53	153.39	19.83	-30.7	-33.2	11.0	3.25e-03	0	43	102	1048576	21	4846
2026-01-04 23:31:04.54	153.53	19.73	-30.6	-33.2	11.1	1.48e-03	0	43	102	1048576	21	4834
2026-01-04 23:31:05.55	153.67	19.62	-30.6	-33.0	11.1	4.74e-03	0	43	102	1048576	21	4766
2026-01-04 23:31:06.56	153.81	19.51	-30.6	-33.0	11.2	4.66e-03	0	44	102	1048576	21	4748
2026-01-04 23:31:07.56	153.95	19.40	-30.2	-31.9	11.9	7.12e-04	0	44	102	1048576	21	4387
2026-01-04 23:31:08.57	154.09	19.30	-30.0	-31.9	12.3	2.98e-03	0	43	102	1048576	20	4466
2026-01-04 23:31:09.58	154.23	19.19	-30.0	-31.9	12.2	2.64e-03	0	43	102	1048576	20	4474
2026-01-04 23:31:10.59	154.37	19.08	-30.1	-32.1	12.1	2.84e-04	0	44	102	1048576	20	4544
2026-01-04 23:31:11.59	154.51	18.98	-30.1	-32.2	12.0	2.76e-03	0	44	102	1048576	20	4574
2026-01-04 23:31:12.60	154.64	18.87	-30.3	-32.6	11.7	3.41e-03	0	43	102	1048576	20	4732
2026-01-04 23:31:13.60	154.78	18.77	-30.4	-33.1	11.4	8.15e-04	0	44	102	1048576	20	4917
2026-01-04 23:31:14.60	154.91	18.67	-30.6	-33.1	11.0	4.32e-03	0	44	102	1048576	21	4832
2026-01-04 23:31:15.61	155.04	18.56	-30.6	-33.1	11.0	4.51e-03	0	43	102	1048576	21	4817
2026-01-04 23:31:16.61	155.17	18.46	-30.4	-32.6	11.3	1.25e-03	0	44	102	1048576	21	4623
2026-01-04 23:31:17.62	155.30	18.35	-30.5	-32.7	11.2	1.61e-03	0	44	102	1048576	21	4685
2026-01-04 23:31:18.61	155.43	18.25	-30.3	-32.3	11.5	3.74e-03	0	44	102	1048576	21	4526
2026-01-04 23:31:19.62	155.56	18.15	-30.3	-32.4	11.5	7.13e-04	0	44	102	1048576	21	4561
2026-01-04 23:31:20.62	155.69	18.04	-30.4	-33.1	11.4	3.54e-03	0	44	102	1048576	20	4895
2026-01-04 23:31:21.63	155.82	17.94	-30.2	-32.5	11.7	3.13e-03	0	43	102	1048576	20	4699
2026-01-04 23:31:22.64	155.95	17.84	-30.4	-33.2	11.2	1.01e-03	0	43	102	1048576	20	4949
2026-01-04 23:31:23.64	156.07	17.74	-30.3	-32.4	11.4	4.60e-03	0	44	102	1048576	21	4566
2026-01-04 23:31:24.65	156.20	17.63	-30.2	-32.4	11.8	4.83e-04	0	44	102	1048576	20	4666
2026-01-04 23:31:25.66	156.32	17.53	-30.1	-32.2	11.9	4.42e-04	0	43	102	1048576	20	4585
2026-01-04 23:31:26.67	156.45	17.43	-30.0	-32.0	12.1	2.94e-03	0	43	102	1048576	20	4510
2026-01-04 23:31:27.67	156.57	17.33	-30.2	-32.5	11.7	4.99e-04	0	44	102	1048576	20	4696
2026-01-04 23:31:28.67	156.69	17.23	-30.4	-33.1	11.4	8.61e-04	0	44	102	1048576	20	4890
2026-01-04 23:31:29.68	156.81	17.13	-30.2	-32.6	11.7	3.39e-03	0	44	102	1048576	20	4713
2026-01-04 23:31:30.68	156.93	17.03	-30.4	-33.1	11.3	3.38e-03	0	44	102	1048576	20	4913
2026-01-04 23:31:31.69	157.05	16.93	-30.3	-32.7	11.6	1.15e-03	0	44	102	1048576	20	4755
2026-01-04 23:31:32.70	157.17	16.83	-30.3	-32.7	11.6	3.42e-03	0	44	102	1048576	20	4753
2026-01-04 23:31:33.71	157.29	16.73	-30.3	-32.9	11.4	3.66e-03	0	43	102	1048576	20	4822
2026-01-04 23:31:34.72	157.41	16.63	-30.1	-32.2	11.9	6.69e-04	0	44	102	1048576	20	4596
2026-01-04 23:31:35.72	157.52	16.53	-30.1	-32.3	11.8	4.22e-04	0	44	102	1048576	20	4599
2026-01-04 23:31:36.73	157.64	16.43	-30.1	-32.2	11.9	2.75e-03	0	44	102	1048576	20	4564
2026-01-04 23:31:37.74	157.75	16.34	-30.0	-31.9	12.0	3.32e-04	0	44	102	1048576	20	4467
2026-01-04 23:31:38.74	157.87	16.24	-30.2	-32.5	11.7	5.68e-04	0	44	102	1048576	20	4687
2026-01-04 23:31:39.74	157.98	16.14	-30.1	-32.4	11.8	1.64e-03	0	44	102	1048576	20	4644
2026-01-04 23:31:40.75	158.10	16.04	-30.1	-32.3	11.8	4.50e-04	0	44	102	1048576	20	4612
2026-01-04 23:31:41.76	158.21	15.95	-30.4	-33.0	11.4	9.49e-04	0	44	102	1048576	20	4859
2026-01-04 23:31:42.76	158.32	15.85	-30.2	-32.6	11.6	9.85e-04	0	43	102	1048576	20	4726
2026-01-04 23:31:43.77	158.43	15.75	-30.4	-33.3	11.1	7.66e-04	0	44	102	1048576	20	4987
2026-01-04 23:31:44.78	158.54	15.66	-30.5	-32.9	11.0	1.91e-03	0	44	102	1048576	21	4747
2026-01-04 23:31:45.79	158.65	15.56	-30.5	-33.0	10.9	1.60e-03	0	44	102	1048576	21	4778
2026-01-04 23:31:46.79	158.76	15.47	-30.8	-34.0	10.2	3.61e-03	0	44	102	1048576	21	5183
2026-01-04 23:31:47.80	158.87	15.37	-30.8	-33.9	10.2	5.48e-03	0	44	102	1048576	21	5181
2026-01-04 23:31:48.80	158.98	15.28	-31.0	-34.6	9.7	7.74e-03	0	44	102	1048576	21	5464
2026-01-04 23:31:49.81	159.08	15.18	-31.1	-34.4	9.5	1.60e-02	0	43	102	1048576	22	5276
2026-01-04 23:31:50.82	159.19	15.09	-30.8	-33.6	10.1	7.62e-03	0	43	102	1048576	22	4930
2026-01-04 23:31:51.83	159.30	14.99	-30.7	-33.7	10.4	5.13e-03	0	43	102	1048576	21	5090
2026-01-04 23:31:52.84	159.40	14.90	-30.6	-33.5	10.5	5.48e-03	0	44	102	1048576	21	4982
2026-01-04 23:31:53.84	159.50	14.80	-30.6	-33.2	10.7	3.73e-03	0	43	102	1048576	21	4898
2026-01-04 23:31:54.85	159.61	14.71	-30.7	-33.7	10.3	4.01e-03	0	43	102	1048576	21	5089
2026-01-04 23:31:55.86	159.71	14.62	-30.5	-33.1	10.7	4.36e-03	0	44	102	1048576	21	4857
2026-01-04 23:31:56.86	159.81	14.53	-30.5	-33.0	10.9	2.66e-03	0	44	102	1048576	21	4788
2026-01-04 23:31:57.86	159.92	14.43	-30.6	-33.2	10.7	2.79e-03	0	44	102	1048576	21	4898
2026-01-04 23:31:58.87	160.02	14.34	-30.4	-32.8	11.0	2.52e-03	0	44	102	1048576	21	4737
2026-01-04 23:31:59.87	160.12	14.25	-30.6	-33.2	10.6	2.31e-03	0	43	102	1048576	21	4895
2026-01-04 23:32:00.88	160.22	14.16	-30.5	-33.1	10.7	3.36e-03	0	44	102	1048576	21	4846
2026-01-04 23:32:01.89	160.32	14.07	-30.6	-33.5	10.4	3.87e-03	0	43	102	1048576	21	5017
2026-01-04 23:32:02.89	160.42	13.98	-29.8	-32.8	10.2	6.17e-03	0	44	102	1048576	21	5128
2026-01-04 23:32:03.90	160.51	13.88	-30.6	-33.6	10.3	5.48e-03	0	44	102	1048576	21	5085
2026-01-04 23:32:04.91	160.61	13.79	-30.9	-34.5	9.3	9.54e-03	0	44	102	1048576	21	5486
2026-01-04 23:32:05.91	160.71	13.70	-30.8	-34.3	9.8	1.25e-02	0	44	102	1048576	21	5359
2026-01-04 23:32:06.92	160.81	13.61	-30.9	-34.7	9.5	1.09e-02	0	44	102	1048576	21	5544
2026-01-04 23:32:07.93	160.90	13.52	-31.1	-34.7	9.1	1.95e-02	0	44	102	1048576	22	5466
2026-01-04 23:32:08.93	161.00	13.43	-31.0	-34.9	9.3	2.20e-02	0	44	102	1048576	21	5635
2026-01-04 23:32:09.94	161.09	13.34	-30.9	-34.7	9.5	1.59e-02	0	44	102	1048576	21	5543
2026-01-04 23:32:10.95	161.19	13.25	-30.9	-34.7	9.5	1.55e-02	0	44	102	1048576	21	5549
2026-01-04 23:32:11.95	161.28	13.17	-30.7	-34.0	9.9	9.90e-03	0	44	102	1048576	21	5222
2026-01-04 23:32:12.96	161.37	13.08	-30.8	-34.2	9.7	8.48e-03	0	44	102	1048576	21	5339
2026-01-04 23:32:13.97	161.47	12.99	-30.9	-34.5	9.6	1.62e-02	0	43	102	1048576	21	5447
2026-01-04 23:32:14.98	161.56	12.90	-31.0	-34.5	9.3	1.46e-02	0	44	102	1048576	22	5361
2026-01-04 23:32:15.98	161.65	12.81	-31.2	-35.3	8.6	2.47e-02	0	44	102	1048576	22	5728
2026-01-04 23:32:16.99	161.74	12.73	-31.0	-34.3	9.4	3.08e-02	0	44	102	1048576	22	5258
2026-01-04 23:32:18.00	161.83	12.64	-30.7	-34.0	9.9	1.46e-02	0	44	102	1048576	21	5239
2026-01-04 23:32:19.00	161.92	12.55	-30.6	-33.6	10.2	7.43e-03	0	44	102	1048576	21	5072
2026-01-04 23:32:20.01	162.01	12.46	-30.5	-33.3	10.5	4.54e-03	0	43	102	1048576	21	4952
2026-01-04 23:32:21.01	162.10	12.38	-30.5	-33.5	10.7	5.51e-03	0	44	102	1048576	20	5123
2026-01-04 23:32:22.02	162.19	12.29	-30.5	-33.0	10.6	4.06e-03	0	43	102	1048576	21	4850
2026-01-04 23:32:23.02	162.28	12.21	-30.5	-33.4	10.3	4.01e-03	0	44	102	1048576	21	5034
2026-01-04 23:32:24.03	162.37	12.12	-30.4	-33.5	10.6	5.68e-03	0	44	102	1048576	20	5118
2026-01-04 23:32:25.04	162.46	12.03	-30.5	-33.6	10.4	3.27e-03	0	44	102	1048576	20	5182
2026-01-04 23:32:26.05	162.54	11.95	-30.3	-33.0	10.8	2.49e-03	0	44	102	1048576	20	4936
2026-01-04 23:32:27.05	162.63	11.86	-30.2	-32.9	11.0	2.12e-03	0	43	102	1048576	20	4907
2026-01-04 23:32:28.05	162.71	11.78	-30.3	-33.3	10.7	2.16e-03	0	44	102	1048576	20	5041
2026-01-04 23:32:29.06	162.80	11.69	-30.4	-33.4	10.6	5.05e-03	0	44	102	1048576	20	5114
2026-01-04 23:32:30.06	162.88	11.61	-30.6	-33.6	10.2	4.78e-03	0	44	102	1048576	21	5082
2026-01-04 23:32:31.07	162.97	11.53	-30.7	-34.0	9.8	8.96e-03	0	44	102	1048576	21	5294
2026-01-04 23:32:32.08	163.05	11.44	-30.8	-34.5	9.4	1.42e-02	0	44	102	1048576	21	5514
2026-01-04 23:32:33.09	163.14	11.36	-30.9	-34.8	9.1	1.71e-02	0	44	102	1048576	21	5645
2026-01-04 23:32:34.09	163.22	11.28	-30.9	-34.8	9.1	2.13e-02	0	44	102	1048576	21	5661
2026-01-04 23:32:35.10	163.30	11.19	-31.0	-34.9	8.6	3.45e-02	0	43	102	1048576	22	5639
2026-01-04 23:32:36.11	163.38	11.11	-30.9	-34.9	9.1	2.68e-02	0	43	102	1048576	21	5681
2026-01-04 23:32:37.11	163.46	11.03	-30.9	-34.8	9.0	2.27e-02	0	44	102	1048576	21	5648
2026-01-04 23:32:38.11	163.55	10.94	-30.9	-35.1	8.9	3.22e-02	0	44	102	1048576	21	5801
2026-01-04 23:32:39.11	163.63	10.86	-30.8	-34.6	9.2	2.66e-02	0	44	102	1048576	21	5579
2026-01-04 23:32:40.12	163.71	10.78	-30.9	-35.0	8.9	1.97e-02	0	44	102	1048576	21	5751
2026-01-04 23:32:41.12	163.79	10.70	-30.9	-35.0	8.9	2.73e-02	0	44	102	1048576	21	5789
2026-01-04 23:32:42.13	163.87	10.62	-31.0	-34.9	8.5	3.62e-02	0	44	102	1048576	22	5659
2026-01-04 23:32:43.13	163.94	10.54	-31.1	-35.3	8.3	4.98e-02	0	44	102	1048576	22	5865
2026-01-04 23:32:44.13	164.02	10.46	-31.2	-35.6	8.0	5.81e-02	0	44	102	1048576	22	6033
2026-01-04 23:32:45.13	164.10	10.38	-31.3	-36.4	7.4	8.93e-02	0	44	102	1048576	22	6480
2026-01-04 23:32:46.14	164.18	10.29	-31.2	-35.7	7.9	9.65e-02	0	44	102	1048576	22	6088
2026-01-04 23:32:47.14	164.26	10.21	-31.3	-36.2	7.6	8.15e-02	0	44	102	1048576	22	6338
2026-01-04 23:32:48.15	164.33	10.13	-31.3	-36.5	7.3	1.32e-01	0	44	102	1048576	22	6510
2026-01-04 23:32:49.15	164.41	10.05	-31.3	-36.1	7.6	9.06e-02	0	44	102	1048576	22	6257
2026-01-04 23:32:50.16	164.49	9.97	-31.3	-36.2	7.6	8.66e-02	0	44	102	1048576	22	6347
2026-01-04 23:32:51.17	164.56	9.89	-31.3	-36.2	7.6	1.12e-01	0	44	102	1048576	22	6310
2026-01-04 23:32:52.18	164.64	9.81	-31.3	-36.0	7.7	8.92e-02	0	44	102	1048576	22	6199
2026-01-04 23:32:53.19	164.71	9.73	-31.3	-35.9	7.7	8.67e-02	0	44	102	1048576	22	6171
2026-01-04 23:32:54.20	164.79	9.66	-31.2	-35.9	7.8	8.01e-02	0	43	102	1048576	22	6127
2026-01-04 23:32:55.21	164.86	9.58	-31.4	-36.6	7.2	1.04e-01	0	43	102	1048576	22	6529
2026-01-04 23:32:56.22	164.94	9.50	-31.5	-36.7	6.7	1.90e-01	0	44	102	1048576	23	6539
2026-01-04 23:32:57.22	165.01	9.42	-31.3	-36.1	7.6	1.14e-01	0	43	102	1048576	22	6260
2026-01-04 23:32:58.23	165.08	9.34	-31.2	-35.6	7.9	7.35e-02	0	44	102	1048576	22	6008
2026-01-04 23:32:59.24	165.16	9.26	-30.9	-35.0	8.7	5.12e-02	0	44	102	1048576	21	5777
2026-01-04 23:33:00.25	165.23	9.18	-30.8	-34.6	9.0	3.10e-02	0	44	102	1048576	21	5584
2026-01-04 23:33:01.25	165.30	9.11	-30.7	-34.4	9.2	1.98e-02	0	43	102	1048576	21	5512
2026-01-04 23:33:02.27	165.37	9.03	-30.7	-34.3	9.3	2.24e-02	0	44	102	1048576	21	5444
2026-01-04 23:33:03.27	165.44	8.95	-30.7	-34.5	9.1	2.40e-02	0	44	102	1048576	21	5532
2026-01-04 23:33:04.28	165.51	8.88	-30.8	-34.8	8.8	3.33e-02	0	43	102	1048576	21	5704
2026-01-04 23:33:05.29	165.59	8.80	-30.8	-34.8	8.8	3.04e-02	0	44	102	1048576	21	5721
2026-01-04 23:33:06.30	165.66	8.72	-30.8	-34.9	8.8	3.37e-02	0	44	102	1048576	21	5739
2026-01-04 23:33:07.31	165.73	8.65	-30.8	-34.9	8.7	3.78e-02	0	44	102	1048576	21	5780
2026-01-04 23:33:08.31	165.80	8.57	-30.8	-34.7	8.8	2.94e-02	0	44	102	1048576	21	5672
2026-01-04 23:33:09.31	165.86	8.49	-30.8	-34.8	8.7	3.24e-02	0	44	102	1048576	21	5719
2026-01-04 23:33:10.32	165.93	8.42	-30.8	-34.7	8.8	3.62e-02	0	43	102	1048576	21	5679
2026-01-04 23:33:11.32	166.00	8.34	-30.8	-34.8	8.7	3.04e-02	0	44	102	1048576	21	5735
2026-01-04 23:33:12.33	166.07	8.27	-31.0	-35.2	8.2	3.60e-02	0	44	102	1048576	22	5811
2026-01-04 23:33:13.34	166.14	8.19	-30.9	-35.3	8.4	3.65e-02	0	44	102	1048576	21	5972
2026-01-04 23:33:14.35	166.21	8.12	-30.9	-35.4	8.3	5.64e-02	0	43	102	1048576	21	6035
2026-01-04 23:33:15.35	166.27	8.04	-31.0	-35.4	8.0	6.04e-02	0	44	102	1048576	22	5924
2026-01-04 23:33:16.36	166.34	7.97	-31.0	-35.2	8.1	7.10e-02	0	44	102	1048576	22	5823
2026-01-04 23:33:17.37	166.41	7.89	-31.1	-35.6	7.7	8.08e-02	0	44	102	1048576	22	6034
2026-01-04 23:33:18.38	166.47	7.82	-31.1	-35.8	7.6	9.77e-02	0	44	102	1048576	22	6192
2026-01-04 23:33:19.38	166.54	7.74	-31.0	-35.2	7.9	8.92e-02	0	44	102	1048576	22	5866
2026-01-04 23:33:20.39	166.60	7.67	-31.0	-35.3	7.9	7.32e-02	0	44	102	1048576	22	5910
2026-01-04 23:33:21.40	166.67	7.60	-31.0	-35.8	7.9	6.50e-02	0	44	102	1048576	21	6258
2026-01-04 23:33:22.40	166.73	7.52	-31.0	-35.9	7.8	6.95e-02	0	44	102	1048576	21	6307
2026-01-04 23:33:23.41	166.80	7.45	-31.0	-35.8	7.8	7.72e-02	0	44	102	1048576	21	6272
2026-01-04 23:33:24.42	166.86	7.38	-31.0	-35.9	7.8	7.58e-02	0	44	102	1048576	21	6349
2026-01-04 23:33:25.42	166.93	7.30	-31.1	-35.8	7.4	9.68e-02	0	44	102	1048576	22	6220
2026-01-04 23:33:26.43	166.99	7.23	-32.0	-42.8	3.8	1.14e-01	0	43	104	1048576	24	12480
2026-01-04 23:33:27.44	167.06	7.16	-32.1	-43.9	3.8	1.49e+00	0	44	104	1048576	24	14007
2026-01-04 23:33:28.44	167.12	7.09	-32.2	-44.2	3.8	1.49e+00	0	44	104	1048576	24	14290
2026-01-04 23:33:29.45	167.18	7.01	-32.2	-44.8	3.8	1.49e+00	0	44	104	1048576	24	15402
2026-01-04 23:33:30.45	167.24	6.94	-32.9	-45.6	3.8	1.49e+00	0	44	104	1048576	25	15452
2026-01-04 23:33:31.46	167.31	6.87	-33.3	-45.9	3.8	1.49e+00	0	44	104	1048576	26	15360
2026-01-04 23:33:32.47	167.37	6.80	-33.6	-45.9	3.8	1.49e+00	0	44	104	1048576	27	14894

#Closed at: 2026-01-04 23:33:32
#Recorded file [1 MB]: D:/data/31010_260105_022209.dat