passes_logs/2026/01/04/R2M6_AANII_01/R2M6_AANII_01__20260104_234247_NOAA_20_JPSS-1_rec.log

#Pass ID: 20260104_234247_NOAA 20 (JPSS-1)
#Satellite: NOAA 20 (JPSS-1)
#Configuration: NOAA 20
#almurnet v.1.7.20240730
#Start time: 2026-01-04 23:42:49

#Version: 2.2.20231116
#Station: R2M6_AANII_01
#Location: 30.233357 lon 59.946436 lat
#TLE: 1 43013U 17073A   26004.47528369  .00000132  00000+0  83671-4 0  9999
#TLE: 2 43013  98.7626 305.5264 0001854  54.5883 305.5466 14.19533142421242

#Time	Az	El	Level	Level2	SNR	BER	BlckErr	Temp	State	Recorded	gain1	gain2
2026-01-04 23:42:49.80	21.86	7.16	-30.7	-36.2	5.3	1.23e+00	0	41	0	0	21	6772
2026-01-04 23:42:50.80	21.90	7.23	-30.8	-36.3	5.2	1.24e+00	0	41	104	0	21	6839
2026-01-04 23:42:51.81	21.94	7.31	-30.9	-36.9	8.6	2.89e-02	0	41	0	0	21	7186
2026-01-04 23:42:52.82	21.98	7.38	-30.9	-36.8	8.7	3.50e-02	0	41	102	1048576	21	7117
2026-01-04 23:42:53.82	22.02	7.46	-30.8	-36.3	9.1	2.49e-02	0	41	102	1048576	21	6810
2026-01-04 23:42:54.83	22.06	7.54	-30.8	-36.5	9.0	2.64e-02	0	41	102	1048576	21	6909
2026-01-04 23:42:55.84	22.10	7.61	-30.8	-36.2	9.2	2.39e-02	0	41	102	1048576	21	6740
2026-01-04 23:42:56.85	22.14	7.69	-30.8	-36.3	9.1	2.12e-02	0	41	102	1048576	21	6780
2026-01-04 23:42:57.85	22.18	7.77	-30.8	-36.2	9.2	1.91e-02	0	41	102	1048576	21	6725
2026-01-04 23:42:58.86	22.22	7.84	-30.9	-36.8	8.8	2.89e-02	0	41	102	1048576	21	7068
2026-01-04 23:42:59.87	22.26	7.92	-30.9	-36.7	8.8	3.29e-02	0	41	102	1048576	21	7024
2026-01-04 23:43:00.88	22.30	8.00	-31.0	-36.6	8.5	3.29e-02	0	41	102	1048576	22	6885
2026-01-04 23:43:01.88	22.35	8.08	-31.2	-37.2	8.1	4.35e-02	0	41	102	1048576	22	7211
2026-01-04 23:43:02.89	22.39	8.16	-31.1	-37.0	8.3	6.27e-02	0	41	102	1048576	22	7114
2026-01-04 23:43:03.89	22.43	8.23	-31.1	-37.1	8.3	4.63e-02	0	41	102	1048576	22	7118
2026-01-04 23:43:04.90	22.47	8.31	-31.1	-36.9	8.3	5.55e-02	0	42	102	1048576	22	7049
2026-01-04 23:43:05.91	22.51	8.39	-30.1	-35.9	8.4	4.11e-02	0	42	102	1048576	22	7035
2026-01-04 23:43:06.91	22.56	8.47	-31.0	-37.1	8.5	4.85e-02	0	41	102	1048576	21	7264
2026-01-04 23:43:07.92	22.60	8.55	-31.2	-37.5	7.9	5.00e-02	0	42	102	1048576	22	7418
2026-01-04 23:43:08.92	22.64	8.63	-31.1	-37.1	8.2	7.57e-02	0	42	102	1048576	22	7123
2026-01-04 23:43:09.93	22.68	8.71	-30.9	-36.8	8.7	3.53e-02	0	41	102	1048576	21	7087
2026-01-04 23:43:10.93	22.73	8.79	-30.9	-36.6	9.0	2.66e-02	0	42	102	1048576	21	6925
2026-01-04 23:43:11.93	22.77	8.87	-31.0	-36.9	8.7	2.83e-02	0	42	102	1048576	21	7128
2026-01-04 23:43:12.93	22.81	8.95	-30.6	-35.5	9.8	1.13e-02	0	42	102	1048576	21	6336
2026-01-04 23:43:13.94	22.86	9.03	-30.7	-35.7	9.7	1.09e-02	0	42	102	1048576	21	6429
2026-01-04 23:43:14.95	22.90	9.11	-30.6	-35.4	9.9	1.07e-02	0	42	102	1048576	21	6290
2026-01-04 23:43:15.95	22.95	9.19	-30.8	-36.3	9.2	1.66e-02	0	42	102	1048576	21	6770
2026-01-04 23:43:16.96	22.99	9.27	-30.8	-36.1	9.4	1.77e-02	0	42	102	1048576	21	6637
2026-01-04 23:43:17.97	23.04	9.36	-30.6	-35.4	9.9	1.15e-02	0	42	102	1048576	21	6280
2026-01-04 23:43:18.97	23.08	9.44	-30.5	-35.1	10.2	5.93e-03	0	42	102	1048576	21	6084
2026-01-04 23:43:19.98	23.13	9.52	-30.4	-35.2	10.5	3.67e-03	0	42	102	1048576	20	6272
2026-01-04 23:43:20.99	23.17	9.60	-30.4	-35.2	10.5	4.19e-03	0	42	102	1048576	20	6235
2026-01-04 23:43:21.99	23.22	9.69	-30.5	-35.4	10.4	4.08e-03	0	42	102	1048576	20	6348
2026-01-04 23:43:23.00	23.26	9.77	-30.3	-35.0	10.7	3.10e-03	0	42	102	1048576	20	6146
2026-01-04 23:43:24.01	23.31	9.85	-30.5	-35.0	10.4	3.88e-03	0	42	102	1048576	21	6047
2026-01-04 23:43:25.02	23.36	9.94	-30.3	-34.5	10.7	4.11e-03	0	42	102	1048576	21	5783
2026-01-04 23:43:26.02	23.40	10.02	-30.3	-34.8	10.9	2.07e-03	0	42	102	1048576	20	6030
2026-01-04 23:43:27.03	23.45	10.11	-30.4	-35.1	10.7	3.39e-03	0	42	102	1048576	20	6180
2026-01-04 23:43:28.04	23.50	10.19	-30.2	-34.6	11.0	2.86e-03	0	42	102	1048576	20	5971
2026-01-04 23:43:29.04	23.55	10.27	-30.2	-34.6	11.0	1.88e-03	0	42	102	1048576	20	5959
2026-01-04 23:43:30.05	23.59	10.36	-30.3	-34.8	10.9	2.39e-03	0	42	102	1048576	20	6059
2026-01-04 23:43:31.06	23.64	10.45	-30.3	-34.9	10.8	2.74e-03	0	42	102	1048576	20	6099
2026-01-04 23:43:32.06	23.69	10.53	-30.3	-34.8	10.9	2.36e-03	0	42	102	1048576	20	6020
2026-01-04 23:43:33.06	23.74	10.62	-30.3	-34.9	10.8	2.26e-03	0	42	102	1048576	20	6088
2026-01-04 23:43:34.07	23.79	10.70	-30.3	-34.7	11.0	2.79e-03	0	42	102	1048576	20	5993
2026-01-04 23:43:35.07	23.84	10.79	-30.3	-34.8	10.9	1.86e-03	0	42	102	1048576	20	6027
2026-01-04 23:43:36.08	23.89	10.88	-30.3	-34.9	10.9	2.80e-03	0	42	102	1048576	20	6096
2026-01-04 23:43:37.08	23.93	10.96	-30.3	-34.9	10.9	2.82e-03	0	42	102	1048576	20	6073
2026-01-04 23:43:38.09	23.98	11.05	-30.3	-34.9	10.9	2.38e-03	0	42	102	1048576	20	6069
2026-01-04 23:43:39.09	24.03	11.14	-30.4	-35.0	10.8	2.76e-03	0	42	102	1048576	20	6132
2026-01-04 23:43:40.10	24.09	11.23	-30.3	-34.7	11.0	2.24e-03	0	42	102	1048576	20	5984
2026-01-04 23:43:41.11	24.14	11.31	-30.1	-34.2	11.4	1.45e-03	0	43	102	1048576	20	5768
2026-01-04 23:43:42.12	24.19	11.40	-30.2	-34.3	11.4	1.73e-03	0	42	102	1048576	20	5779
2026-01-04 23:43:43.12	24.24	11.49	-30.2	-34.3	11.3	1.98e-03	0	43	102	1048576	20	5791
2026-01-04 23:43:44.13	24.29	11.58	-30.3	-34.7	11.1	1.41e-03	0	42	102	1048576	20	5976
2026-01-04 23:43:45.14	24.34	11.67	-30.2	-34.3	11.4	1.92e-03	0	42	102	1048576	20	5791
2026-01-04 23:43:46.15	24.39	11.76	-30.3	-34.7	11.0	2.48e-03	0	42	102	1048576	20	5986
2026-01-04 23:43:47.17	24.45	11.85	-30.4	-35.1	10.7	2.32e-03	0	42	102	1048576	20	6182
2026-01-04 23:43:48.16	24.50	11.94	-30.2	-34.5	11.2	2.81e-03	0	42	102	1048576	20	5900
2026-01-04 23:43:49.17	24.55	12.03	-30.1	-34.2	11.5	1.31e-03	0	42	102	1048576	20	5723
2026-01-04 23:43:50.18	24.61	12.12	-30.0	-33.8	11.8	1.04e-03	0	43	102	1048576	20	5562
2026-01-04 23:43:51.19	24.66	12.22	-29.9	-33.5	11.9	9.76e-04	0	43	102	1048576	20	5442
2026-01-04 23:43:52.20	24.71	12.31	-30.0	-33.8	11.8	8.26e-04	0	42	102	1048576	20	5556
2026-01-04 23:43:53.20	24.77	12.40	-29.9	-33.6	11.9	1.06e-03	0	42	102	1048576	20	5455
2026-01-04 23:43:54.21	24.82	12.49	-30.0	-33.7	11.8	7.64e-04	0	43	102	1048576	20	5514
2026-01-04 23:43:55.21	24.88	12.58	-30.0	-33.7	11.8	8.96e-04	0	43	102	1048576	20	5518
2026-01-04 23:43:56.22	24.93	12.68	-30.0	-33.7	11.8	1.63e-03	0	43	102	1048576	20	5510
2026-01-04 23:43:57.23	24.99	12.77	-30.1	-34.0	11.6	9.87e-04	0	43	102	1048576	20	5626
2026-01-04 23:43:58.23	25.04	12.86	-29.9	-33.3	12.1	7.67e-04	0	42	102	1048576	20	5347
2026-01-04 23:43:59.24	25.10	12.96	-29.9	-34.0	12.1	1.23e-03	0	42	102	1048576	19	5714
2026-01-04 23:44:00.24	25.15	13.05	-29.8	-33.6	12.3	1.72e-04	0	42	102	1048576	19	5568
2026-01-04 23:44:01.24	25.21	13.15	-29.8	-33.6	12.4	1.32e-03	0	42	102	1048576	19	5544
2026-01-04 23:44:02.25	25.27	13.24	-29.9	-33.8	12.2	9.69e-04	0	42	102	1048576	19	5645
2026-01-04 23:44:03.26	25.33	13.34	-29.8	-33.6	12.4	1.56e-04	0	42	102	1048576	19	5561
2026-01-04 23:44:04.26	25.38	13.43	-29.9	-33.7	12.3	1.30e-03	0	42	102	1048576	19	5605
2026-01-04 23:44:05.28	25.44	13.53	-29.9	-33.8	12.2	1.01e-03	0	42	102	1048576	19	5644
2026-01-04 23:44:06.28	25.50	13.63	-29.8	-33.6	12.4	1.83e-04	0	43	102	1048576	19	5559
2026-01-04 23:44:07.29	25.56	13.72	-29.9	-33.8	12.2	7.65e-04	0	43	102	1048576	19	5653
2026-01-04 23:44:08.29	25.62	13.82	-29.9	-33.4	12.1	8.22e-04	0	43	102	1048576	20	5391
2026-01-04 23:44:09.30	25.68	13.92	-29.9	-33.9	12.2	2.28e-04	0	43	102	1048576	19	5687
2026-01-04 23:44:10.31	25.74	14.02	-29.9	-33.7	12.3	4.02e-04	0	43	102	1048576	19	5600
2026-01-04 23:44:11.31	25.80	14.11	-29.9	-33.8	12.2	1.96e-04	0	43	102	1048576	19	5665
2026-01-04 23:44:12.32	25.86	14.21	-29.9	-33.9	12.2	2.59e-04	0	43	102	1048576	19	5668
2026-01-04 23:44:13.33	25.92	14.31	-29.8	-33.6	12.4	2.37e-04	0	43	102	1048576	19	5558
2026-01-04 23:44:14.34	25.98	14.41	-29.8	-33.4	12.6	1.43e-04	0	43	102	1048576	19	5476
2026-01-04 23:44:15.34	26.04	14.51	-29.8	-33.5	12.5	5.48e-04	0	43	102	1048576	19	5521
2026-01-04 23:44:16.35	26.11	14.61	-29.8	-33.5	12.5	1.61e-04	0	43	102	1048576	19	5514
2026-01-04 23:44:17.36	26.17	14.71	-29.9	-33.8	12.3	2.94e-04	0	43	102	1048576	19	5618
2026-01-04 23:44:18.36	26.23	14.81	-30.1	-33.8	11.9	2.30e-04	0	43	102	1048576	20	5544
2026-01-04 23:44:19.36	26.29	14.92	-30.1	-34.0	11.8	6.42e-04	0	43	102	1048576	20	5609
2026-01-04 23:44:20.37	26.36	15.02	-29.9	-33.3	12.3	6.28e-04	0	43	102	1048576	20	5324
2026-01-04 23:44:21.38	26.42	15.12	-29.7	-33.1	12.8	1.33e-04	0	43	102	1048576	19	5334
2026-01-04 23:44:22.39	26.49	15.22	-29.6	-32.8	13.0	3.50e-05	0	43	102	1048576	19	5212
2026-01-04 23:44:23.40	26.55	15.33	-29.5	-32.4	13.3	2.28e-05	0	43	102	1048576	19	5084
2026-01-04 23:44:24.40	26.62	15.43	-29.4	-32.9	12.8	2.21e-05	0	43	102	1048576	18	5348
2026-01-04 23:44:25.41	26.68	15.53	-29.5	-32.9	13.3	2.05e-05	0	43	102	1048576	18	5381
2026-01-04 23:44:26.42	26.75	15.64	-29.5	-32.6	12.9	1.67e-05	0	43	102	1048576	19	5127
2026-01-04 23:44:27.43	26.82	15.74	-29.5	-33.0	13.2	1.90e-05	0	43	102	1048576	18	5398
2026-01-04 23:44:28.44	26.88	15.85	-29.6	-32.8	13.1	8.38e-04	0	43	102	1048576	19	5205
2026-01-04 23:44:29.44	26.95	15.95	-29.6	-32.8	13.1	3.50e-05	0	43	102	1048576	19	5197
2026-01-04 23:44:30.45	27.02	16.06	-29.5	-33.0	13.3	2.21e-05	0	43	102	1048576	18	5391
2026-01-04 23:44:31.46	27.09	16.17	-29.4	-32.9	13.4	7.46e-04	0	43	102	1048576	18	5357
2026-01-04 23:44:32.47	27.16	16.27	-29.5	-32.9	13.3	6.03e-04	0	43	102	1048576	18	5373
2026-01-04 23:44:33.46	27.23	16.38	-29.4	-32.4	13.4	1.90e-05	0	43	102	1048576	19	5074
2026-01-04 23:44:34.47	27.30	16.49	-29.3	-32.6	13.6	1.44e-05	0	43	102	1048576	18	5251
2026-01-04 23:44:35.48	27.37	16.60	-29.3	-32.5	13.7	4.45e-04	0	43	102	1048576	18	5199
2026-01-04 23:44:36.48	27.44	16.70	-29.3	-32.5	13.6	9.90e-06	0	43	102	1048576	18	5209
2026-01-04 23:44:37.49	27.51	16.81	-29.3	-32.5	13.6	8.30e-06	0	43	102	1048576	18	5202
2026-01-04 23:44:38.50	27.58	16.92	-29.4	-32.6	13.6	4.60e-04	0	43	102	1048576	18	5257
2026-01-04 23:44:39.51	27.65	17.03	-29.5	-33.0	13.4	4.85e-04	0	43	102	1048576	18	5380
2026-01-04 23:44:40.51	27.73	17.14	-29.7	-33.0	13.0	2.36e-05	0	43	102	1048576	19	5295
2026-01-04 23:44:41.52	27.80	17.26	-29.7	-33.1	13.0	6.94e-05	0	43	102	1048576	19	5300
2026-01-04 23:44:42.52	27.87	17.37	-29.5	-32.5	13.4	4.49e-04	0	43	102	1048576	19	5076
2026-01-04 23:44:43.53	27.95	17.48	-29.3	-32.1	13.6	9.90e-06	0	43	102	1048576	19	4946
2026-01-04 23:44:44.54	28.02	17.59	-29.2	-32.3	13.8	6.10e-06	0	43	102	1048576	18	5126
2026-01-04 23:44:45.55	28.10	17.70	-29.2	-32.3	13.8	4.03e-04	0	43	102	1048576	18	5125
2026-01-04 23:44:46.55	28.17	17.82	-29.3	-32.4	13.7	7.60e-06	0	43	102	1048576	18	5163
2026-01-04 23:44:47.56	28.25	17.93	-29.2	-32.3	13.8	3.00e-06	0	43	102	1048576	18	5122
2026-01-04 23:44:48.56	28.33	18.04	-29.3	-32.5	13.7	3.56e-04	0	43	102	1048576	18	5198
2026-01-04 23:44:49.57	28.40	18.16	-29.3	-32.5	13.7	9.90e-06	0	43	102	1048576	18	5197
2026-01-04 23:44:50.58	28.48	18.28	-29.3	-32.3	13.8	4.00e-04	0	43	102	1048576	18	5134
2026-01-04 23:44:51.58	28.56	18.39	-29.2	-32.2	13.9	2.20e-06	0	43	102	1048576	18	5092
2026-01-04 23:44:52.59	28.64	18.51	-29.2	-32.1	13.9	7.00e-07	0	43	102	1048576	18	5058
2026-01-04 23:44:53.59	28.72	18.62	-29.3	-32.4	13.8	3.93e-04	0	43	102	1048576	18	5162
2026-01-04 23:44:54.60	28.80	18.74	-29.3	-32.4	13.8	3.89e-04	0	43	102	1048576	18	5141
2026-01-04 23:44:55.60	28.88	18.86	-29.2	-32.2	13.9	6.80e-06	0	43	102	1048576	18	5091
2026-01-04 23:44:56.61	28.96	18.98	-29.2	-32.0	14.0	5.22e-04	0	43	102	1048576	18	5021
2026-01-04 23:44:57.61	29.04	19.09	-29.2	-32.2	14.0	5.08e-04	0	43	102	1048576	18	5070
2026-01-04 23:44:58.62	29.13	19.21	-29.2	-32.2	13.9	9.61e-05	0	43	102	1048576	18	5083
2026-01-04 23:44:59.62	29.21	19.33	-29.2	-32.3	13.9	5.72e-04	0	43	102	1048576	18	5099
2026-01-04 23:45:00.63	29.29	19.45	-29.2	-32.1	14.0	6.83e-04	0	43	102	1048576	18	5043
2026-01-04 23:45:01.64	29.38	19.57	-29.3	-32.3	13.9	7.00e-07	0	43	102	1048576	18	5109
2026-01-04 23:45:02.64	29.46	19.69	-29.2	-32.3	14.0	6.58e-04	0	43	102	1048576	18	5097
2026-01-04 23:45:03.64	29.55	19.82	-29.2	-32.1	14.0	5.84e-04	0	43	102	1048576	18	5052
2026-01-04 23:45:04.65	29.63	19.94	-29.4	-32.7	13.7	3.00e-06	0	43	102	1048576	18	5260
2026-01-04 23:45:05.66	29.72	20.06	-29.4	-32.7	13.7	6.10e-06	0	43	102	1048576	18	5273
2026-01-04 23:45:06.67	29.81	20.19	-29.4	-32.7	13.7	6.24e-04	0	43	102	1048576	18	5259
2026-01-04 23:45:07.68	29.90	20.31	-29.5	-32.6	13.5	8.30e-06	0	43	102	1048576	19	5094
2026-01-04 23:45:08.69	29.99	20.44	-29.6	-32.8	13.3	1.06e-05	0	43	102	1048576	19	5177
2026-01-04 23:45:09.70	30.08	20.56	-29.6	-32.6	13.4	5.14e-04	0	43	102	1048576	19	5107
2026-01-04 23:45:10.70	30.17	20.69	-29.5	-32.4	13.6	8.30e-06	0	43	102	1048576	19	5031
2026-01-04 23:45:11.70	30.26	20.81	-29.4	-32.7	13.7	8.30e-06	0	43	102	1048576	18	5238
2026-01-04 23:45:12.71	30.35	20.94	-29.4	-32.6	13.8	3.35e-05	0	43	102	1048576	18	5207
2026-01-04 23:45:13.72	30.45	21.07	-29.5	-32.8	13.6	2.59e-05	0	43	102	1048576	18	5303
2026-01-04 23:45:14.72	30.54	21.19	-29.3	-32.0	13.8	4.52e-04	0	43	102	1048576	19	4896
2026-01-04 23:45:15.73	30.63	21.32	-29.2	-32.2	14.0	3.00e-06	0	43	102	1048576	18	5064
2026-01-04 23:45:16.74	30.73	21.45	-29.2	-32.1	14.1	7.00e-07	0	43	102	1048576	18	5042
2026-01-04 23:45:17.75	30.82	21.58	-29.3	-32.4	13.9	4.71e-04	0	43	102	1048576	18	5133
2026-01-04 23:45:18.75	30.92	21.71	-29.2	-32.1	14.1	1.50e-06	0	43	102	1048576	18	5030
2026-01-04 23:45:19.75	31.02	21.84	-29.2	-32.1	14.1	2.20e-06	0	43	102	1048576	18	5025
2026-01-04 23:45:20.76	31.12	21.98	-29.3	-32.2	14.1	4.00e-04	0	43	102	1048576	18	5076
2026-01-04 23:45:21.77	31.21	22.11	-29.2	-32.1	14.1	5.30e-06	0	43	102	1048576	18	5026
2026-01-04 23:45:22.77	31.31	22.24	-29.1	-31.9	14.3	2.59e-05	0	43	102	1048576	18	4957
2026-01-04 23:45:23.77	31.41	22.37	-29.1	-31.8	14.3	7.00e-07	0	43	102	1048576	18	4932
2026-01-04 23:45:24.78	31.52	22.51	-29.2	-32.0	14.2	5.87e-04	0	43	102	1048576	18	5006
2026-01-04 23:45:25.79	31.62	22.64	-29.3	-32.4	14.0	4.12e-04	0	43	102	1048576	18	5136
2026-01-04 23:45:26.79	31.72	22.78	-29.3	-32.3	14.1	2.20e-06	0	43	102	1048576	18	5092
2026-01-04 23:45:27.80	31.82	22.91	-29.1	-31.9	14.3	1.14e-03	0	43	102	1048576	18	4968
2026-01-04 23:45:28.81	31.93	23.05	-29.1	-31.8	14.4	8.14e-04	0	43	102	1048576	18	4912
2026-01-04 23:45:29.81	32.03	23.19	-29.1	-31.7	14.4	7.00e-07	0	43	102	1048576	18	4887
2026-01-04 23:45:30.82	32.14	23.33	-29.0	-31.6	14.5	3.90e-04	0	43	102	1048576	18	4852
2026-01-04 23:45:31.83	32.25	23.46	-29.1	-31.7	14.4	0.00e+00	0	43	102	1048576	18	4888
2026-01-04 23:45:32.83	32.36	23.60	-29.0	-31.5	14.5	0.00e+00	0	43	102	1048576	18	4817
2026-01-04 23:45:33.84	32.47	23.74	-28.9	-31.7	14.8	2.44e-05	0	43	102	1048576	17	4997
2026-01-04 23:45:34.85	32.58	23.88	-28.9	-31.8	14.7	8.30e-06	0	43	102	1048576	17	5029
2026-01-04 23:45:35.86	32.69	24.03	-29.1	-31.7	14.4	0.00e+00	0	43	102	1048576	18	4886
2026-01-04 23:45:36.87	32.80	24.17	-29.3	-32.4	14.0	1.50e-06	0	43	102	1048576	18	5124
2026-01-04 23:45:37.87	32.91	24.31	-29.3	-32.2	14.1	4.50e-06	0	43	102	1048576	18	5061
2026-01-04 23:45:38.88	33.03	24.45	-29.3	-32.4	14.0	3.00e-06	0	43	102	1048576	18	5122
2026-01-04 23:45:39.88	33.14	24.60	-29.5	-32.7	13.8	3.00e-06	0	43	102	1048576	18	5254
2026-01-04 23:45:40.89	33.26	24.74	-29.5	-32.5	13.7	3.80e-06	0	43	102	1048576	19	5038
2026-01-04 23:45:41.90	33.38	24.89	-29.7	-32.9	13.3	1.22e-05	0	43	102	1048576	19	5189
2026-01-04 23:45:42.91	33.50	25.03	-29.7	-32.9	13.4	1.52e-05	0	43	102	1048576	19	5211
2026-01-04 23:45:43.92	33.62	25.18	-29.8	-33.1	13.0	2.28e-05	0	43	102	1048576	19	5287
2026-01-04 23:45:44.92	33.74	25.33	-30.0	-33.7	12.7	3.55e-04	0	43	102	1048576	19	5500
2026-01-04 23:45:45.93	33.86	25.47	-29.8	-32.7	13.1	3.35e-05	0	43	102	1048576	20	5027
2026-01-04 23:45:46.94	33.98	25.62	-29.8	-33.1	13.2	2.59e-05	0	43	102	1048576	19	5284
2026-01-04 23:45:47.95	34.10	25.77	-29.7	-33.0	13.3	1.67e-05	0	43	102	1048576	19	5236
2026-01-04 23:45:48.96	34.23	25.92	-29.8	-33.1	13.3	1.29e-05	0	43	102	1048576	19	5284
2026-01-04 23:45:49.96	34.35	26.07	-29.9	-33.4	13.1	2.44e-05	0	43	102	1048576	19	5382
2026-01-04 23:45:50.97	34.48	26.23	-29.9	-33.5	13.0	2.59e-05	0	43	102	1048576	19	5446
2026-01-04 23:45:51.97	34.61	26.38	-30.0	-33.3	12.8	6.10e-05	0	43	102	1048576	20	5251
2026-01-04 23:45:52.98	34.74	26.53	-30.2	-33.8	12.4	9.46e-05	0	43	102	1048576	20	5469
2026-01-04 23:45:53.99	34.87	26.69	-30.1	-33.5	12.6	1.20e-04	0	43	102	1048576	20	5348
2026-01-04 23:45:55.00	35.00	26.84	-30.0	-33.3	12.7	7.01e-05	0	43	102	1048576	20	5270
2026-01-04 23:45:56.00	35.14	26.99	-30.0	-33.3	12.8	8.77e-05	0	43	102	1048576	20	5267
2026-01-04 23:45:57.01	35.27	27.15	-30.1	-33.5	12.7	5.56e-05	0	43	102	1048576	20	5321
2026-01-04 23:45:58.02	35.41	27.31	-29.9	-33.1	12.9	4.73e-05	0	43	102	1048576	20	5183
2026-01-04 23:45:59.02	35.54	27.46	-29.9	-33.4	13.1	1.98e-04	0	43	102	1048576	19	5402
2026-01-04 23:46:00.03	35.68	27.62	-30.0	-33.1	12.9	3.58e-05	0	43	102	1048576	20	5181
2026-01-04 23:46:01.03	35.82	27.78	-29.9	-32.8	13.1	3.12e-05	0	43	102	1048576	20	5073
2026-01-04 23:46:02.04	35.96	27.94	-29.9	-33.5	13.1	2.14e-04	0	43	102	1048576	19	5430
2026-01-04 23:46:03.05	36.11	28.10	-29.9	-33.5	13.1	2.72e-04	0	43	102	1048576	19	5419
2026-01-04 23:46:04.05	36.25	28.26	-30.0	-33.2	12.9	2.36e-05	0	43	102	1048576	20	5227
2026-01-04 23:46:05.06	36.39	28.42	-30.1	-33.5	12.7	3.25e-04	0	43	102	1048576	20	5318
2026-01-04 23:46:06.07	36.54	28.59	-30.2	-33.8	12.5	3.12e-04	0	43	102	1048576	20	5460
2026-01-04 23:46:07.07	36.69	28.75	-30.3	-34.0	12.4	1.49e-04	0	43	102	1048576	20	5523
2026-01-04 23:46:08.08	36.84	28.91	-30.4	-34.4	12.1	4.66e-04	0	43	102	1048576	20	5700
2026-01-04 23:46:09.09	36.99	29.08	-30.5	-34.2	11.9	4.72e-04	0	43	102	1048576	21	5493
2026-01-04 23:46:10.09	37.14	29.24	-30.6	-34.3	11.8	4.45e-04	0	43	102	1048576	21	5573
2026-01-04 23:46:11.10	37.30	29.41	-30.8	-35.0	11.4	6.75e-04	0	43	102	1048576	21	5847
2026-01-04 23:46:12.10	37.45	29.58	-30.7	-34.8	11.5	8.96e-04	0	43	102	1048576	21	5768
2026-01-04 23:46:13.11	37.61	29.75	-30.9	-35.3	11.1	1.25e-03	0	43	102	1048576	21	6026
2026-01-04 23:46:14.12	37.77	29.92	-30.8	-35.2	11.2	1.53e-03	0	43	102	1048576	21	5969
2026-01-04 23:46:15.12	37.93	30.08	-30.8	-35.2	11.2	1.50e-03	0	43	102	1048576	21	5937
2026-01-04 23:46:16.13	38.09	30.25	-30.8	-35.2	11.2	1.37e-03	0	43	102	1048576	21	5965
2026-01-04 23:46:17.13	38.25	30.42	-31.0	-35.7	10.9	1.94e-03	0	43	102	1048576	21	6181
2026-01-04 23:46:18.13	38.42	30.60	-31.0	-35.6	10.9	2.18e-03	0	43	102	1048576	21	6143
2026-01-04 23:46:19.13	38.58	30.77	-31.0	-35.3	10.8	2.36e-03	0	43	102	1048576	22	5876
2026-01-04 23:46:20.14	38.75	30.94	-31.1	-35.5	10.7	2.83e-03	0	43	102	1048576	22	5961
2026-01-04 23:46:21.15	38.92	31.12	-31.0	-35.3	10.8	2.49e-03	0	43	102	1048576	22	5891
2026-01-04 23:46:22.16	39.10	31.29	-31.0	-35.3	10.9	2.48e-03	0	43	102	1048576	22	5856
2026-01-04 23:46:23.16	39.27	31.47	-31.1	-35.4	10.7	2.93e-03	0	43	102	1048576	22	5945
2026-01-04 23:46:24.17	39.45	31.64	-31.0	-35.1	10.9	2.83e-03	0	43	102	1048576	22	5791
2026-01-04 23:46:25.18	39.63	31.82	-31.0	-35.1	10.9	2.17e-03	0	43	102	1048576	22	5811
2026-01-04 23:46:26.18	39.81	32.00	-31.0	-35.3	10.9	2.46e-03	0	43	102	1048576	22	5881
2026-01-04 23:46:27.19	39.99	32.18	-31.1	-35.5	10.7	3.23e-03	0	43	102	1048576	22	5982
2026-01-04 23:46:28.20	40.17	32.36	-31.1	-35.4	10.8	2.45e-03	0	43	102	1048576	22	5912
2026-01-04 23:46:29.21	40.36	32.54	-31.0	-35.2	10.9	2.37e-03	0	43	102	1048576	22	5849
2026-01-04 23:46:30.22	40.55	32.72	-31.1	-35.5	10.7	2.10e-03	0	43	102	1048576	22	5951
2026-01-04 23:46:31.23	40.74	32.90	-31.1	-35.4	10.8	3.18e-03	0	43	102	1048576	22	5905
2026-01-04 23:46:32.24	40.93	33.09	-30.9	-34.9	11.2	1.41e-03	0	43	102	1048576	22	5678
2026-01-04 23:46:33.24	41.13	33.27	-30.8	-34.6	11.4	1.24e-03	0	43	102	1048576	22	5562
2026-01-04 23:46:34.24	41.32	33.45	-30.8	-34.4	11.6	8.02e-04	0	43	102	1048576	22	5448
2026-01-04 23:46:35.25	41.52	33.64	-30.7	-34.0	11.8	6.31e-04	0	43	102	1048576	22	5302
2026-01-04 23:46:36.26	41.72	33.82	-30.7	-34.2	11.7	4.87e-04	0	43	102	1048576	22	5358
2026-01-04 23:46:37.27	41.93	34.01	-30.7	-34.0	11.8	5.91e-04	0	43	102	1048576	22	5305
2026-01-04 23:46:38.28	42.13	34.20	-30.5	-33.5	12.2	2.75e-04	0	43	102	1048576	22	5110
2026-01-04 23:46:39.28	42.34	34.38	-30.6	-33.9	11.9	3.07e-04	0	43	102	1048576	22	5240
2026-01-04 23:46:40.29	42.55	34.57	-30.6	-33.9	11.9	4.36e-04	0	43	102	1048576	22	5265
2026-01-04 23:46:41.30	42.76	34.76	-30.6	-33.8	12.0	3.42e-04	0	43	102	1048576	22	5199
2026-01-04 23:46:42.31	42.98	34.96	-30.6	-33.9	11.9	5.41e-04	0	43	102	1048576	22	5250
2026-01-04 23:46:43.32	43.20	35.15	-30.6	-33.9	11.9	6.18e-04	0	43	102	1048576	22	5248
2026-01-04 23:46:44.32	43.41	35.34	-30.5	-33.4	12.3	3.27e-04	0	43	102	1048576	22	5044
2026-01-04 23:46:45.33	43.64	35.53	-30.2	-33.2	12.7	2.55e-04	0	43	102	1048576	21	5062
2026-01-04 23:46:46.33	43.86	35.72	-30.2	-33.2	12.7	1.80e-04	0	43	102	1048576	21	5080
2026-01-04 23:46:47.34	44.09	35.92	-30.1	-32.9	12.9	5.56e-05	0	43	102	1048576	21	4984
2026-01-04 23:46:48.35	44.32	36.11	-30.0	-33.2	13.1	5.18e-05	0	43	102	1048576	20	5168
2026-01-04 23:46:49.36	44.56	36.31	-30.0	-33.1	13.2	2.33e-04	0	43	102	1048576	20	5151
2026-01-04 23:46:50.36	44.79	36.50	-30.0	-33.1	13.1	3.05e-05	0	43	102	1048576	20	5142
2026-01-04 23:46:51.37	45.03	36.70	-29.9	-32.7	13.4	2.13e-05	0	43	102	1048576	20	5008
2026-01-04 23:46:52.38	45.27	36.90	-29.9	-33.4	13.4	4.55e-04	0	43	102	1048576	19	5352
2026-01-04 23:46:53.39	45.52	37.09	-30.0	-33.4	13.4	9.90e-06	0	43	102	1048576	19	5353
2026-01-04 23:46:54.39	45.76	37.29	-30.1	-33.3	13.0	2.28e-05	0	43	102	1048576	20	5233
2026-01-04 23:46:55.40	46.01	37.49	-30.1	-33.4	13.0	5.18e-05	0	43	102	1048576	20	5239
2026-01-04 23:46:56.41	46.27	37.69	-29.9	-32.7	13.4	2.28e-05	0	43	102	1048576	20	5009
2026-01-04 23:46:57.42	46.53	37.89	-29.7	-32.2	13.7	4.04e-05	0	43	102	1048576	20	4799
2026-01-04 23:46:58.42	46.78	38.09	-29.6	-31.9	14.0	3.00e-06	0	43	102	1048576	20	4706
2026-01-04 23:46:59.42	47.05	38.29	-29.5	-31.7	14.1	2.20e-06	0	43	102	1048576	20	4644
2026-01-04 23:47:00.43	47.31	38.49	-29.4	-31.6	14.2	5.87e-05	0	43	102	1048576	20	4595
2026-01-04 23:47:01.44	47.58	38.70	-29.4	-31.9	14.4	7.00e-07	0	43	102	1048576	19	4805
2026-01-04 23:47:02.44	47.85	38.90	-29.3	-31.7	14.5	1.50e-06	0	43	102	1048576	19	4732
2026-01-04 23:47:03.45	48.13	39.10	-29.2	-31.3	14.7	3.09e-04	0	43	102	1048576	19	4610
2026-01-04 23:47:04.45	48.41	39.30	-29.1	-31.6	14.9	0.00e+00	0	43	102	1048576	18	4812
2026-01-04 23:47:05.45	48.69	39.51	-29.2	-31.8	14.8	0.00e+00	0	43	102	1048576	18	4896
2026-01-04 23:47:06.46	48.98	39.71	-29.2	-32.0	14.6	2.86e-04	0	44	102	1048576	18	4946
2026-01-04 23:47:07.47	49.27	39.92	-29.3	-32.1	14.6	3.40e-04	0	43	102	1048576	18	4991
2026-01-04 23:47:08.48	49.56	40.12	-29.3	-32.2	14.5	0.00e+00	0	43	102	1048576	18	5036
2026-01-04 23:47:09.48	49.86	40.33	-29.3	-32.1	14.6	0.00e+00	0	43	102	1048576	18	4987
2026-01-04 23:47:10.49	50.16	40.54	-29.3	-32.3	14.5	1.01e-04	0	43	102	1048576	18	5036
2026-01-04 23:47:11.50	50.47	40.74	-29.3	-32.1	14.5	7.00e-07	0	43	102	1048576	18	4998
2026-01-04 23:47:12.51	50.78	40.95	-29.4	-32.3	14.4	0.00e+00	0	43	102	1048576	18	5056
2026-01-04 23:47:13.52	51.09	41.16	-29.5	-32.2	14.2	7.00e-07	0	43	102	1048576	19	4927
2026-01-04 23:47:14.52	51.40	41.36	-29.6	-32.5	14.0	3.80e-06	0	43	102	1048576	19	5009
2026-01-04 23:47:15.53	51.73	41.57	-29.6	-32.3	14.1	2.20e-06	0	43	102	1048576	19	4952
2026-01-04 23:47:16.53	52.05	41.78	-29.5	-32.1	14.3	7.00e-07	0	43	102	1048576	19	4882
2026-01-04 23:47:17.54	52.38	41.99	-29.5	-32.2	14.2	0.00e+00	0	43	102	1048576	19	4911
2026-01-04 23:47:18.55	52.71	42.20	-29.6	-32.5	14.0	1.50e-06	0	43	102	1048576	19	5012
2026-01-04 23:47:19.56	53.05	42.40	-29.6	-32.5	14.1	1.50e-06	0	43	102	1048576	19	5015
2026-01-04 23:47:20.56	53.39	42.61	-29.8	-32.8	13.8	3.80e-06	0	43	102	1048576	19	5134
2026-01-04 23:47:21.56	53.73	42.82	-29.9	-33.1	13.7	6.80e-06	0	43	102	1048576	19	5239
2026-01-04 23:47:22.56	54.08	43.03	-30.0	-33.4	13.5	1.22e-05	0	43	102	1048576	19	5358
2026-01-04 23:47:23.57	54.44	43.23	-30.0	-33.1	13.3	1.67e-05	0	43	102	1048576	20	5112
2026-01-04 23:47:24.58	54.80	43.44	-30.0	-33.1	13.3	2.13e-05	0	43	102	1048576	20	5140
2026-01-04 23:47:25.59	55.17	43.65	-30.0	-32.9	13.4	1.90e-05	0	43	102	1048576	20	5058
2026-01-04 23:47:26.59	55.53	43.86	-29.9	-32.8	13.5	6.10e-06	0	43	102	1048576	20	5036
2026-01-04 23:47:27.60	55.91	44.07	-29.9	-32.8	13.5	1.22e-05	0	43	102	1048576	20	5018
2026-01-04 23:47:28.61	56.29	44.28	-30.0	-33.0	13.4	1.14e-05	0	43	102	1048576	20	5101
2026-01-04 23:47:29.61	56.67	44.48	-30.2	-33.5	13.0	2.36e-05	0	43	102	1048576	20	5281
2026-01-04 23:47:30.62	57.06	44.69	-30.4	-34.1	12.6	5.03e-05	0	43	102	1048576	20	5546
2026-01-04 23:47:31.62	57.45	44.89	-30.7	-34.5	12.0	2.25e-04	0	43	102	1048576	21	5585
2026-01-04 23:47:32.63	57.85	45.10	-30.8	-34.9	11.7	4.13e-04	0	43	102	1048576	21	5775
2026-01-04 23:47:33.63	58.25	45.31	-30.8	-34.7	11.9	5.26e-04	0	43	102	1048576	21	5688
2026-01-04 23:47:34.64	58.66	45.51	-30.8	-34.8	11.8	4.41e-04	0	44	102	1048576	21	5727
2026-01-04 23:47:35.65	59.08	45.72	-30.8	-34.8	11.8	5.16e-04	0	43	102	1048576	21	5722
2026-01-04 23:47:36.65	59.49	45.92	-30.8	-34.7	11.9	4.03e-04	0	43	102	1048576	21	5660
2026-01-04 23:47:37.66	59.92	46.12	-31.0	-35.4	11.4	6.63e-04	0	43	102	1048576	21	5968
2026-01-04 23:47:38.66	60.35	46.33	-31.2	-35.7	10.9	1.65e-03	0	43	102	1048576	22	6033
2026-01-04 23:47:39.68	60.79	46.53	-31.4	-36.2	10.5	2.99e-03	0	44	102	1048576	22	6288
2026-01-04 23:47:40.68	61.23	46.73	-31.2	-35.6	10.9	3.45e-03	0	43	102	1048576	22	5957
2026-01-04 23:47:41.69	61.68	46.93	-31.0	-34.8	11.6	1.00e-03	0	44	102	1048576	22	5578
2026-01-04 23:47:42.70	62.13	47.13	-30.9	-34.5	11.8	5.38e-04	0	43	102	1048576	22	5443
2026-01-04 23:47:43.70	62.59	47.33	-30.9	-34.6	11.7	4.83e-04	0	43	102	1048576	22	5517
2026-01-04 23:47:44.71	63.05	47.53	-30.8	-34.2	11.9	5.02e-04	0	44	102	1048576	22	5333
2026-01-04 23:47:45.72	63.53	47.72	-30.8	-34.1	12.0	3.03e-04	0	43	102	1048576	22	5303
2026-01-04 23:47:46.72	64.00	47.92	-30.8	-34.3	11.9	3.72e-04	0	43	102	1048576	22	5394
2026-01-04 23:47:47.73	64.48	48.11	-30.9	-34.7	11.6	7.02e-04	0	43	102	1048576	22	5575
2026-01-04 23:47:48.73	64.97	48.30	-30.8	-34.4	11.9	4.81e-04	0	43	102	1048576	22	5431
2026-01-04 23:47:49.74	65.47	48.50	-30.8	-34.1	12.1	3.37e-04	0	43	102	1048576	22	5322
2026-01-04 23:47:50.74	65.96	48.69	-30.7	-33.9	12.2	2.34e-04	0	43	102	1048576	22	5235
2026-01-04 23:47:51.75	66.47	48.87	-30.7	-34.4	12.1	4.63e-04	0	43	102	1048576	21	5552
2026-01-04 23:47:52.76	66.99	49.06	-30.6	-34.3	12.2	3.02e-04	0	43	102	1048576	21	5489
2026-01-04 23:47:53.77	67.51	49.25	-30.6	-34.2	12.4	1.63e-04	0	43	102	1048576	21	5433
2026-01-04 23:47:54.78	68.03	49.43	-30.6	-34.1	12.3	1.88e-04	0	43	102	1048576	21	5424
2026-01-04 23:47:55.79	68.57	49.61	-30.6	-34.1	12.3	1.68e-04	0	43	102	1048576	21	5409
2026-01-04 23:47:56.80	69.11	49.79	-30.5	-33.9	12.5	1.61e-04	0	43	102	1048576	21	5307
2026-01-04 23:47:57.80	69.65	49.97	-30.5	-34.0	12.4	1.52e-04	0	44	102	1048576	21	5357
2026-01-04 23:47:58.81	70.20	50.15	-30.5	-34.0	12.4	1.41e-04	0	43	102	1048576	21	5380
2026-01-04 23:47:59.82	70.76	50.32	-30.7	-34.4	12.2	1.30e-04	0	43	102	1048576	21	5532
2026-01-04 23:48:00.82	71.32	50.49	-30.5	-34.0	12.5	2.16e-04	0	43	102	1048576	21	5345
2026-01-04 23:48:01.82	71.89	50.66	-30.5	-33.9	12.5	1.06e-04	0	43	102	1048576	21	5320
2026-01-04 23:48:02.82	72.46	50.83	-30.4	-33.6	12.8	4.29e-04	0	43	102	1048576	21	5195
2026-01-04 23:48:03.83	73.04	50.99	-30.0	-33.0	13.5	2.82e-05	0	43	102	1048576	20	5071
2026-01-04 23:48:04.83	73.63	51.15	-29.6	-32.0	14.2	1.50e-06	0	43	102	1048576	20	4710
2026-01-04 23:48:05.84	74.22	51.31	-29.8	-32.5	13.8	9.53e-05	0	43	102	1048576	20	4904
2026-01-04 23:48:06.85	74.83	51.47	-30.0	-32.9	13.5	9.10e-06	0	43	102	1048576	20	5041
2026-01-04 23:48:07.86	75.44	51.62	-30.5	-34.3	12.7	4.80e-05	0	43	102	1048576	20	5579
2026-01-04 23:48:08.86	76.05	51.77	-30.3	-33.2	13.0	7.01e-05	0	43	102	1048576	21	5062
2026-01-04 23:48:09.86	76.66	51.92	-29.9	-32.2	13.7	2.05e-05	0	43	102	1048576	21	4703
2026-01-04 23:48:10.87	77.29	52.07	-29.5	-31.6	14.4	7.00e-07	0	43	102	1048576	20	4594
2026-01-04 23:48:11.88	77.92	52.21	-29.1	-31.1	15.0	0.00e+00	0	43	102	1048576	19	4518
2026-01-04 23:48:12.89	78.56	52.35	-29.1	-31.0	15.2	0.00e+00	0	43	102	1048576	19	4480
2026-01-04 23:48:13.89	79.20	52.48	-29.3	-31.5	14.9	0.00e+00	0	43	102	1048576	19	4637
2026-01-04 23:48:14.90	79.86	52.62	-29.5	-32.1	14.5	0.00e+00	0	43	102	1048576	19	4850
2026-01-04 23:48:15.91	80.51	52.75	-29.7	-32.5	14.1	1.06e-05	0	43	102	1048576	19	4992
2026-01-04 23:48:16.91	81.17	52.87	-29.3	-31.7	14.8	0.00e+00	0	43	102	1048576	19	4703
2026-01-04 23:48:17.92	81.84	52.99	-29.0	-30.8	15.2	5.49e-05	0	43	102	1048576	19	4436
2026-01-04 23:48:18.93	82.51	53.11	-28.8	-30.4	15.6	6.40e-05	0	43	102	1048576	19	4298
2026-01-04 23:48:19.93	83.19	53.22	-28.7	-30.5	15.7	0.00e+00	0	43	102	1048576	18	4454
2026-01-04 23:48:20.94	83.87	53.34	-28.9	-31.0	15.5	0.00e+00	0	43	102	1048576	18	4602
2026-01-04 23:48:21.95	84.56	53.44	-29.1	-31.5	15.2	4.50e-05	0	43	102	1048576	18	4749
2026-01-04 23:48:22.96	85.26	53.55	-29.4	-32.2	14.7	0.00e+00	0	43	102	1048576	18	5001
2026-01-04 23:48:23.97	85.96	53.65	-29.3	-32.1	14.8	0.00e+00	0	43	102	1048576	18	4951
2026-01-04 23:48:24.97	86.66	53.74	-29.3	-32.2	14.8	3.70e-04	0	43	102	1048576	18	4981
2026-01-04 23:48:25.98	87.37	53.83	-29.4	-32.3	14.7	7.00e-07	0	43	102	1048576	18	5048
2026-01-04 23:48:26.99	88.08	53.92	-29.3	-32.2	14.7	6.79e-05	0	43	102	1048576	18	4989
2026-01-04 23:48:28.00	88.80	54.00	-29.7	-32.7	14.1	0.00e+00	0	43	102	1048576	19	5074
2026-01-04 23:48:29.00	89.51	54.08	-29.9	-33.2	13.8	7.00e-07	0	43	102	1048576	19	5249
2026-01-04 23:48:30.01	90.24	54.15	-29.9	-33.0	13.9	1.50e-06	0	43	102	1048576	19	5182
2026-01-04 23:48:31.02	90.97	54.22	-29.7	-32.5	14.2	0.00e+00	0	43	102	1048576	19	4987
2026-01-04 23:48:32.02	91.69	54.29	-29.6	-32.3	14.4	7.00e-07	0	43	102	1048576	19	4901
2026-01-04 23:48:33.03	92.43	54.35	-29.8	-32.9	14.0	2.97e-05	0	44	102	1048576	19	5134
2026-01-04 23:48:34.03	93.16	54.40	-29.7	-32.5	14.3	2.20e-06	0	43	102	1048576	19	4998
2026-01-04 23:48:35.03	93.90	54.45	-30.0	-32.9	13.6	6.80e-06	0	43	102	1048576	20	5021
2026-01-04 23:48:36.04	94.64	54.50	-29.9	-32.5	13.8	8.62e-05	0	44	102	1048576	20	4893
2026-01-04 23:48:37.05	95.39	54.54	-29.6	-31.8	14.3	2.17e-04	0	43	102	1048576	20	4654
2026-01-04 23:48:38.06	96.14	54.58	-29.7	-32.1	14.1	0.00e+00	0	44	102	1048576	20	4741
2026-01-04 23:48:39.07	96.89	54.61	-30.0	-33.0	13.6	1.14e-04	0	44	102	1048576	20	5062
2026-01-04 23:48:40.08	97.64	54.64	-30.1	-33.1	13.5	1.83e-05	0	44	102	1048576	20	5096
2026-01-04 23:48:41.09	98.39	54.66	-30.0	-32.9	13.6	9.10e-06	0	43	102	1048576	20	5031
2026-01-04 23:48:42.09	99.14	54.68	-29.5	-31.6	14.5	1.50e-06	0	44	102	1048576	20	4585
2026-01-04 23:48:43.10	99.89	54.69	-29.6	-32.3	14.4	1.87e-04	0	43	102	1048576	19	4933
2026-01-04 23:48:44.11	100.65	54.70	-29.7	-32.6	14.2	4.50e-06	0	43	102	1048576	19	5025
2026-01-04 23:48:45.11	101.40	54.70	-29.7	-32.7	14.2	2.20e-06	0	43	102	1048576	19	5050
2026-01-04 23:48:46.12	102.15	54.70	-29.7	-32.4	14.3	2.20e-06	0	43	102	1048576	19	4966
2026-01-04 23:48:47.13	102.91	54.69	-29.7	-32.6	14.2	7.00e-07	0	43	102	1048576	19	5022
2026-01-04 23:48:48.13	103.66	54.68	-29.4	-31.9	14.6	0.00e+00	0	43	102	1048576	19	4765
2026-01-04 23:48:49.14	104.41	54.66	-29.0	-30.8	15.3	0.00e+00	0	43	102	1048576	19	4438
2026-01-04 23:48:50.14	105.16	54.64	-28.9	-30.5	15.5	0.00e+00	0	44	102	1048576	19	4335
2026-01-04 23:48:51.15	105.91	54.62	-29.0	-30.9	15.3	0.00e+00	0	43	102	1048576	19	4454
2026-01-04 23:48:52.16	106.66	54.59	-28.6	-30.3	16.0	0.00e+00	0	43	102	1048576	18	4364
2026-01-04 23:48:53.16	107.40	54.55	-28.6	-30.2	16.0	0.00e+00	0	43	102	1048576	18	4356
2026-01-04 23:48:54.17	108.15	54.51	-28.6	-30.3	15.9	0.00e+00	0	43	102	1048576	18	4384
2026-01-04 23:48:55.17	108.89	54.47	-28.4	-30.4	16.1	0.00e+00	0	43	102	1048576	17	4510
2026-01-04 23:48:56.19	109.64	54.42	-28.5	-30.6	16.0	0.00e+00	0	43	102	1048576	17	4583
2026-01-04 23:48:57.19	110.37	54.36	-29.0	-31.7	15.4	0.00e+00	0	43	102	1048576	17	4953
2026-01-04 23:48:58.19	111.10	54.30	-29.2	-31.7	15.0	0.00e+00	0	43	102	1048576	18	4817
2026-01-04 23:48:59.20	111.84	54.24	-29.1	-31.4	15.3	0.00e+00	0	43	102	1048576	18	4734
2026-01-04 23:49:00.21	112.57	54.17	-29.4	-32.3	14.8	0.00e+00	0	43	102	1048576	18	5012
2026-01-04 23:49:01.22	113.30	54.10	-29.5	-32.1	14.5	0.00e+00	0	43	102	1048576	19	4829
2026-01-04 23:49:02.22	114.01	54.02	-29.6	-32.3	14.4	0.00e+00	0	43	102	1048576	19	4928
2026-01-04 23:49:03.23	114.73	53.94	-29.7	-32.5	14.3	2.20e-06	0	43	102	1048576	19	4978
2026-01-04 23:49:04.24	115.45	53.85	-29.3	-31.4	15.0	0.00e+00	0	43	102	1048576	19	4611
2026-01-04 23:49:05.25	116.16	53.76	-29.1	-31.0	15.3	0.00e+00	0	43	102	1048576	19	4494
2026-01-04 23:49:06.25	116.86	53.67	-29.2	-31.3	15.0	0.00e+00	0	44	102	1048576	19	4586
2026-01-04 23:49:07.26	117.56	53.57	-29.2	-31.3	15.1	0.00e+00	0	43	102	1048576	19	4565
2026-01-04 23:49:08.26	118.25	53.47	-29.0	-30.8	15.4	0.00e+00	0	43	102	1048576	19	4410
2026-01-04 23:49:09.26	118.94	53.37	-29.0	-30.9	15.3	0.00e+00	0	44	102	1048576	19	4443
2026-01-04 23:49:10.27	119.63	53.25	-29.0	-30.8	15.3	0.00e+00	0	43	102	1048576	19	4430
2026-01-04 23:49:11.28	120.31	53.14	-29.0	-30.9	15.3	0.00e+00	0	44	102	1048576	19	4442
2026-01-04 23:49:12.29	120.98	53.02	-29.0	-30.7	15.5	0.00e+00	0	43	102	1048576	19	4382
2026-01-04 23:49:13.30	121.66	52.90	-28.6	-30.4	16.0	0.00e+00	0	44	102	1048576	18	4397
2026-01-04 23:49:14.30	122.32	52.78	-28.8	-30.9	15.6	0.00e+00	0	43	102	1048576	18	4556
2026-01-04 23:49:15.30	122.97	52.65	-29.0	-31.4	15.3	0.00e+00	0	43	102	1048576	18	4718
2026-01-04 23:49:16.30	123.62	52.52	-29.1	-31.4	15.3	0.00e+00	0	43	102	1048576	18	4735
2026-01-04 23:49:17.32	124.27	52.38	-28.9	-31.0	15.5	5.34e-05	0	43	102	1048576	18	4605
2026-01-04 23:49:18.32	124.91	52.24	-28.9	-31.0	15.5	0.00e+00	0	43	102	1048576	18	4581
2026-01-04 23:49:19.33	125.55	52.10	-28.7	-30.6	15.7	0.00e+00	0	43	102	1048576	18	4480
2026-01-04 23:49:20.34	126.18	51.96	-28.9	-31.0	15.5	1.83e-05	0	43	102	1048576	18	4579
2026-01-04 23:49:21.35	126.80	51.81	-29.3	-31.9	15.0	0.00e+00	0	43	102	1048576	18	4906
2026-01-04 23:49:22.35	127.41	51.66	-29.4	-32.2	14.7	7.00e-07	0	43	102	1048576	18	5000
2026-01-04 23:49:23.36	128.03	51.50	-29.2	-31.9	15.0	2.20e-06	0	43	102	1048576	18	4871
2026-01-04 23:49:24.36	128.63	51.35	-29.2	-31.8	15.0	7.00e-07	0	43	102	1048576	18	4860
2026-01-04 23:49:25.37	129.22	51.19	-29.9	-33.2	13.9	0.00e+00	0	44	102	1048576	19	5223
2026-01-04 23:49:26.38	129.82	51.03	-30.9	-34.9	11.9	4.57e-05	0	44	102	1048576	21	5736
2026-01-04 23:49:27.39	130.40	50.86	-30.9	-35.0	11.9	1.41e-03	0	44	102	1048576	21	5767
2026-01-04 23:49:28.40	130.99	50.70	-30.6	-34.2	12.5	2.55e-04	0	43	102	1048576	21	5407
2026-01-04 23:49:29.40	131.55	50.53	-30.9	-34.9	12.0	1.32e-04	0	44	102	1048576	21	5727
2026-01-04 23:49:30.41	132.12	50.36	-32.0	-37.8	9.2	9.06e-03	0	44	102	1048576	23	7013
2026-01-04 23:49:31.42	132.68	50.18	-32.8	-41.1	5.9	1.78e-01	0	44	102	1048576	25	9292
2026-01-04 23:49:32.42	133.23	50.01	-32.7	-40.0	6.6	3.82e-01	0	43	102	1048576	25	8330
2026-01-04 23:49:33.43	133.78	49.83	-32.1	-37.3	8.7	5.43e-02	0	44	102	1048576	25	6527
2026-01-04 23:49:34.43	134.32	49.65	-31.9	-36.2	9.6	1.45e-02	0	43	102	1048576	25	5944
2026-01-04 23:49:35.44	134.85	49.47	-32.3	-38.4	8.2	2.59e-02	0	44	102	1048576	24	7315
2026-01-04 23:49:36.44	135.38	49.28	-32.7	-40.2	6.4	1.11e-01	0	43	102	1048576	25	8526
2026-01-04 23:49:37.45	135.90	49.10	-32.8	-40.9	6.0	3.45e-01	0	44	102	1048576	25	9103
2026-01-04 23:49:38.46	136.42	48.91	-32.3	-38.4	8.0	1.47e-01	0	43	102	1048576	24	7310
2026-01-04 23:49:39.47	136.93	48.72	-31.9	-37.4	9.4	2.98e-02	0	44	102	1048576	23	6785
2026-01-04 23:49:40.47	137.43	48.53	-31.9	-37.4	9.4	1.75e-02	0	43	102	1048576	23	6756
2026-01-04 23:49:41.47	137.92	48.34	-32.1	-37.7	8.7	2.39e-02	0	43	102	1048576	24	6873
2026-01-04 23:49:42.47	138.41	48.15	-32.5	-39.0	7.3	6.64e-02	0	44	102	1048576	25	7575
2026-01-04 23:49:43.48	138.90	47.96	-32.3	-37.8	8.2	8.63e-02	0	44	102	1048576	25	6845
2026-01-04 23:49:44.49	139.38	47.76	-31.5	-35.9	10.5	1.17e-02	0	44	102	1048576	23	5998
2026-01-04 23:49:45.50	139.85	47.56	-31.1	-35.2	11.4	2.32e-03	0	44	102	1048576	22	5731
2026-01-04 23:49:46.50	140.32	47.37	-31.2	-35.5	11.2	1.45e-03	0	43	102	1048576	22	5911
2026-01-04 23:49:47.51	140.78	47.17	-31.6	-36.3	10.2	4.78e-03	0	43	102	1048576	23	6161
2026-01-04 23:49:48.51	141.23	46.97	-32.2	-38.0	8.5	2.11e-02	0	44	102	1048576	24	7048
2026-01-04 23:49:49.52	141.69	46.77	-32.1	-38.0	8.5	6.20e-02	0	44	102	1048576	24	7031
2026-01-04 23:49:50.52	142.13	46.56	-31.3	-35.3	10.9	8.28e-03	0	44	102	1048576	23	5688
2026-01-04 23:49:51.52	142.56	46.36	-30.6	-33.5	12.5	1.84e-03	0	44	102	1048576	22	5041
2026-01-04 23:49:52.53	143.00	46.16	-30.1	-32.7	13.4	4.11e-05	0	44	102	1048576	21	4848
2026-01-04 23:49:53.53	143.42	45.96	-30.5	-33.9	12.6	4.65e-05	0	44	102	1048576	21	5301
2026-01-04 23:49:54.54	143.84	45.75	-31.2	-35.5	11.2	1.42e-03	0	43	102	1048576	22	5890
2026-01-04 23:49:55.55	144.26	45.54	-31.7	-36.7	10.0	5.29e-03	0	44	102	1048576	23	6389
2026-01-04 23:49:56.55	144.67	45.34	-31.3	-35.2	11.0	3.50e-03	0	44	102	1048576	23	5646
2026-01-04 23:49:57.56	145.08	45.13	-30.6	-33.7	12.4	1.70e-03	0	44	102	1048576	22	5143
2026-01-04 23:49:58.57	145.48	44.92	-30.2	-33.0	13.1	5.03e-05	0	43	102	1048576	21	4970
2026-01-04 23:49:59.57	145.87	44.72	-30.5	-34.3	12.7	1.41e-03	0	44	102	1048576	20	5598
2026-01-04 23:50:00.58	146.27	44.51	-31.0	-35.3	11.6	5.03e-04	0	43	102	1048576	21	5947
2026-01-04 23:50:01.59	146.65	44.30	-31.5	-36.1	10.3	2.04e-03	0	44	102	1048576	23	6111
2026-01-04 23:50:02.59	147.03	44.09	-31.8	-37.1	9.5	1.25e-02	0	44	102	1048576	23	6646
2026-01-04 23:50:03.60	147.41	43.88	-31.4	-35.7	10.6	5.28e-03	0	44	102	1048576	23	5898
2026-01-04 23:50:04.61	147.78	43.68	-31.0	-34.3	11.6	1.21e-03	0	44	102	1048576	23	5270
2026-01-04 23:50:05.61	148.15	43.47	-31.0	-35.0	11.5	1.80e-03	0	43	102	1048576	22	5652
2026-01-04 23:50:06.62	148.51	43.26	-31.6	-36.2	10.2	3.97e-03	0	43	102	1048576	23	6162
2026-01-04 23:50:07.63	148.87	43.05	-32.1	-37.8	8.6	1.88e-02	0	44	102	1048576	24	6923
2026-01-04 23:50:08.63	149.22	42.84	-32.4	-39.2	7.5	8.11e-02	0	44	102	1048576	24	7894
2026-01-04 23:50:09.64	149.57	42.63	-32.3	-38.7	7.9	1.06e-01	0	43	102	1048576	24	7525
2026-01-04 23:50:10.65	149.91	42.42	-32.2	-38.1	8.4	5.07e-02	0	44	102	1048576	24	7129
2026-01-04 23:50:11.66	150.25	42.21	-32.2	-38.3	8.2	5.57e-02	0	43	102	1048576	24	7292
2026-01-04 23:50:12.67	150.59	42.00	-32.2	-38.4	8.0	6.92e-02	0	44	102	1048576	24	7359
2026-01-04 23:50:13.67	150.91	41.79	-32.2	-38.0	8.4	5.75e-02	0	44	102	1048576	24	7091
2026-01-04 23:50:14.68	151.24	41.58	-32.0	-37.5	8.7	3.21e-02	0	43	102	1048576	24	6787
2026-01-04 23:50:15.69	151.57	41.37	-32.2	-38.3	8.2	3.82e-02	0	44	102	1048576	24	7232
2026-01-04 23:50:16.70	151.88	41.17	-32.2	-38.3	8.2	6.52e-02	0	44	102	1048576	24	7252
2026-01-04 23:50:17.70	152.20	40.96	-32.2	-38.2	8.2	5.78e-02	0	44	102	1048576	24	7195
2026-01-04 23:50:18.71	152.51	40.75	-32.3	-38.5	8.0	6.62e-02	0	43	102	1048576	24	7401
2026-01-04 23:50:19.72	152.82	40.54	-32.2	-38.2	8.3	5.96e-02	0	43	102	1048576	24	7177
2026-01-04 23:50:20.73	153.12	40.33	-32.2	-38.2	8.3	4.41e-02	0	44	102	1048576	24	7168
2026-01-04 23:50:21.74	153.42	40.13	-32.1	-37.9	8.4	4.92e-02	0	43	102	1048576	24	7013
2026-01-04 23:50:22.74	153.71	39.92	-32.0	-37.6	8.6	3.89e-02	0	44	102	1048576	24	6842
2026-01-04 23:50:23.75	154.00	39.71	-32.0	-37.4	8.9	2.65e-02	0	44	102	1048576	24	6698
2026-01-04 23:50:24.76	154.29	39.51	-32.2	-38.2	8.2	3.53e-02	0	44	102	1048576	24	7212
2026-01-04 23:50:25.76	154.58	39.30	-32.5	-39.6	7.2	7.53e-02	0	44	102	1048576	24	8178
2026-01-04 23:50:26.77	154.86	39.10	-32.6	-40.0	6.4	2.15e-01	0	43	102	1048576	25	8432
2026-01-04 23:50:27.78	155.13	38.89	-32.1	-37.5	8.3	1.22e-01	0	44	102	1048576	25	6712
2026-01-04 23:50:28.80	155.41	38.69	-31.3	-35.0	10.7	1.65e-02	0	44	102	1048576	24	5470
2026-01-04 23:50:29.80	155.68	38.49	-30.7	-33.8	12.2	3.67e-04	0	44	102	1048576	22	5181
2026-01-04 23:50:30.81	155.95	38.28	-30.6	-34.3	12.2	1.91e-04	0	43	102	1048576	21	5504
2026-01-04 23:50:31.81	156.21	38.08	-31.4	-36.2	10.5	8.46e-04	0	43	102	1048576	22	6259
2026-01-04 23:50:32.82	156.47	37.88	-32.0	-37.9	8.9	1.02e-02	0	44	102	1048576	23	7115
2026-01-04 23:50:33.82	156.73	37.68	-31.9	-37.0	9.1	2.88e-02	0	43	102	1048576	24	6476
2026-01-04 23:50:34.82	156.98	37.48	-31.2	-35.2	10.9	7.76e-03	0	44	102	1048576	23	5680
2026-01-04 23:50:35.83	157.23	37.28	-30.8	-34.4	11.7	1.15e-03	0	44	102	1048576	22	5426
2026-01-04 23:50:36.83	157.48	37.08	-30.7	-34.6	12.0	2.82e-04	0	44	102	1048576	21	5610
2026-01-04 23:50:37.83	157.72	36.88	-31.1	-35.3	11.2	7.80e-04	0	43	102	1048576	22	5849
2026-01-04 23:50:38.84	157.97	36.68	-31.3	-36.0	10.6	2.88e-03	0	43	102	1048576	22	6182
2026-01-04 23:50:39.84	158.21	36.49	-31.8	-37.4	9.2	1.38e-02	0	44	102	1048576	23	6813
2026-01-04 23:50:40.85	158.44	36.29	-32.1	-38.2	8.1	4.48e-02	0	44	102	1048576	24	7208
2026-01-04 23:50:41.86	158.68	36.09	-32.1	-38.2	8.2	6.23e-02	0	44	102	1048576	24	7242
2026-01-04 23:50:42.86	158.91	35.90	-31.7	-36.5	9.4	4.17e-02	0	44	102	1048576	24	6212
2026-01-04 23:50:43.87	159.14	35.70	-31.1	-35.4	11.0	3.38e-03	0	43	102	1048576	22	5876
2026-01-04 23:50:44.88	159.36	35.51	-30.6	-34.2	12.2	8.52e-04	0	43	102	1048576	21	5455
2026-01-04 23:50:45.89	159.59	35.32	-30.3	-33.4	12.8	1.34e-04	0	44	102	1048576	21	5118
2026-01-04 23:50:46.90	159.81	35.12	-30.4	-34.1	12.6	8.54e-04	0	44	102	1048576	20	5516
2026-01-04 23:50:47.91	160.03	34.93	-30.6	-34.1	12.3	1.01e-04	0	44	102	1048576	21	5409
2026-01-04 23:50:48.91	160.24	34.74	-31.2	-35.7	10.9	5.25e-04	0	43	102	1048576	22	6020
2026-01-04 23:50:49.92	160.46	34.55	-31.6	-36.5	9.9	9.02e-03	0	43	102	1048576	23	6308
2026-01-04 23:50:50.92	160.67	34.36	-32.0	-37.8	8.5	2.70e-02	0	44	102	1048576	24	6961
2026-01-04 23:50:51.92	160.87	34.17	-31.9	-37.3	8.8	4.55e-02	0	43	102	1048576	24	6681
2026-01-04 23:50:52.92	161.08	33.98	-31.6	-36.6	9.8	1.66e-02	0	43	102	1048576	23	6362
2026-01-04 23:50:53.93	161.28	33.80	-31.1	-35.3	11.0	5.91e-03	0	43	102	1048576	22	5849
2026-01-04 23:50:54.94	161.49	33.61	-30.6	-33.8	12.1	6.10e-04	0	43	102	1048576	22	5192
2026-01-04 23:50:55.94	161.68	33.42	-30.3	-34.0	12.7	3.66e-04	0	44	102	1048576	20	5464
2026-01-04 23:50:56.95	161.88	33.24	-30.6	-34.1	12.3	2.32e-03	0	43	102	1048576	21	5420
2026-01-04 23:50:57.95	162.08	33.05	-30.5	-34.1	12.3	2.05e-04	0	43	102	1048576	21	5409
2026-01-04 23:50:58.95	162.27	32.87	-30.8	-34.8	11.8	2.20e-04	0	44	102	1048576	21	5716
2026-01-04 23:50:59.96	162.46	32.69	-31.1	-35.3	11.1	3.25e-03	0	44	102	1048576	22	5824
2026-01-04 23:51:00.97	162.65	32.51	-31.1	-35.4	11.0	1.56e-03	0	43	102	1048576	22	5866
2026-01-04 23:51:01.97	162.83	32.33	-31.3	-35.9	10.6	2.38e-03	0	43	102	1048576	22	6148
2026-01-04 23:51:02.98	163.02	32.14	-31.3	-36.1	10.5	6.04e-03	0	43	102	1048576	22	6221
2026-01-04 23:51:03.98	163.20	31.97	-31.4	-36.4	10.3	5.18e-03	0	44	102	1048576	22	6406
2026-01-04 23:51:04.99	163.38	31.79	-31.4	-36.4	10.2	7.48e-03	0	44	102	1048576	22	6395
2026-01-04 23:51:06.00	163.56	31.61	-31.5	-36.6	10.1	5.89e-03	0	44	102	1048576	22	6522
2026-01-04 23:51:07.01	163.74	31.43	-31.5	-36.1	10.1	8.78e-03	0	44	102	1048576	23	6158
2026-01-04 23:51:08.02	163.91	31.25	-31.5	-36.3	9.9	1.04e-02	0	43	102	1048576	23	6236
2026-01-04 23:51:09.02	164.09	31.08	-31.7	-36.8	9.5	1.10e-02	0	43	102	1048576	23	6513
2026-01-04 23:51:10.03	164.26	30.90	-31.3	-35.4	10.6	5.12e-03	0	43	102	1048576	23	5783
2026-01-04 23:51:11.04	164.43	30.73	-30.3	-35.0	10.5	4.73e-03	0	44	102	1048576	22	6174
2026-01-04 23:51:12.05	164.60	30.55	-31.2	-35.8	10.6	5.45e-03	0	43	102	1048576	22	6098
2026-01-04 23:51:13.06	164.76	30.38	-31.2	-35.7	10.7	3.31e-03	0	43	102	1048576	22	6056
2026-01-04 23:51:14.07	164.93	30.20	-31.4	-36.5	10.1	6.82e-03	0	44	102	1048576	22	6472
2026-01-04 23:51:15.08	165.09	30.03	-31.5	-36.3	9.8	9.29e-03	0	44	102	1048576	23	6291
2026-01-04 23:51:16.08	165.25	29.86	-31.7	-37.0	9.3	1.14e-02	0	43	102	1048576	23	6665
2026-01-04 23:51:17.09	165.41	29.69	-31.6	-36.7	9.6	1.71e-02	0	43	102	1048576	23	6470
2026-01-04 23:51:18.10	165.57	29.52	-31.8	-37.5	8.9	2.17e-02	0	44	102	1048576	23	6932
2026-01-04 23:51:19.10	165.72	29.36	-31.6	-36.7	9.5	2.10e-02	0	44	102	1048576	23	6505
2026-01-04 23:51:20.12	165.88	29.19	-31.4	-36.3	10.1	1.05e-02	0	43	102	1048576	22	6395
2026-01-04 23:51:21.12	166.03	29.02	-31.2	-35.8	10.6	7.17e-03	0	43	102	1048576	22	6114
2026-01-04 23:51:22.13	166.18	28.85	-31.0	-35.0	11.2	2.15e-03	0	43	102	1048576	22	5718
2026-01-04 23:51:23.14	166.33	28.69	-30.9	-35.3	11.3	1.41e-03	0	43	102	1048576	21	5963
2026-01-04 23:51:24.15	166.48	28.52	-30.8	-35.0	11.5	2.42e-03	0	44	102	1048576	21	5838
2026-01-04 23:51:25.16	166.63	28.36	-30.9	-35.2	11.4	7.83e-04	0	43	102	1048576	21	5941
2026-01-04 23:51:26.16	166.77	28.20	-31.1	-35.3	10.9	2.55e-03	0	44	102	1048576	22	5878
2026-01-04 23:51:27.17	166.92	28.04	-30.9	-34.7	11.3	1.72e-03	0	44	102	1048576	22	5609
2026-01-04 23:51:28.18	167.06	27.87	-30.8	-35.2	11.4	9.62e-04	0	44	102	1048576	21	5914
2026-01-04 23:51:29.18	167.20	27.71	-31.0	-35.6	11.0	3.01e-03	0	43	102	1048576	21	6140
2026-01-04 23:51:30.18	167.34	27.56	-31.1	-35.4	10.9	2.07e-03	0	44	102	1048576	22	5917
2026-01-04 23:51:31.19	167.48	27.40	-31.2	-35.9	10.5	3.88e-03	0	44	102	1048576	22	6184
2026-01-04 23:51:32.20	167.62	27.24	-31.1	-35.6	10.7	5.91e-03	0	44	102	1048576	22	5993
2026-01-04 23:51:33.21	167.75	27.08	-31.2	-35.7	10.6	3.18e-03	0	44	102	1048576	22	6069
2026-01-04 23:51:34.21	167.89	26.92	-31.2	-36.0	10.4	4.43e-03	0	44	102	1048576	22	6228
2026-01-04 23:51:35.22	168.02	26.77	-31.1	-35.5	10.7	5.71e-03	0	44	102	1048576	22	5996
2026-01-04 23:51:36.23	168.15	26.61	-31.1	-35.4	10.8	2.53e-03	0	43	102	1048576	22	5939
2026-01-04 23:51:37.24	168.28	26.46	-31.1	-35.6	10.6	3.10e-03	0	44	102	1048576	22	6007
2026-01-04 23:51:38.24	168.41	26.30	-31.1	-35.4	10.8	3.08e-03	0	44	102	1048576	22	5926
2026-01-04 23:51:39.25	168.54	26.15	-30.9	-34.8	11.2	1.44e-03	0	44	102	1048576	22	5670
2026-01-04 23:51:40.26	168.67	26.00	-30.8	-34.6	11.4	1.31e-03	0	44	102	1048576	22	5582
2026-01-04 23:51:41.27	168.80	25.84	-30.7	-34.9	11.5	1.19e-03	0	44	102	1048576	21	5792
2026-01-04 23:51:42.27	168.92	25.69	-30.6	-34.3	11.9	2.26e-03	0	43	102	1048576	21	5543
2026-01-04 23:51:43.28	169.04	25.54	-30.5	-34.6	12.1	4.73e-04	0	44	102	1048576	20	5752
2026-01-04 23:51:44.29	169.17	25.39	-30.4	-34.3	12.2	4.61e-04	0	44	102	1048576	20	5634
2026-01-04 23:51:45.30	169.29	25.24	-30.3	-33.9	12.5	1.17e-04	0	43	102	1048576	20	5462
2026-01-04 23:51:46.31	169.41	25.10	-30.3	-34.1	12.4	4.24e-04	0	44	102	1048576	20	5552
2026-01-04 23:51:47.31	169.53	24.95	-30.2	-33.6	12.7	3.48e-04	0	44	102	1048576	20	5342
2026-01-04 23:51:48.31	169.65	24.80	-30.1	-33.6	12.7	5.87e-05	0	44	102	1048576	20	5337
2026-01-04 23:51:49.32	169.76	24.66	-30.2	-33.9	12.5	9.91e-05	0	44	102	1048576	20	5467
2026-01-04 23:51:50.33	169.88	24.51	-30.3	-34.1	12.3	3.75e-04	0	44	102	1048576	20	5562
2026-01-04 23:51:51.34	170.00	24.37	-30.5	-34.2	12.0	2.27e-04	0	44	102	1048576	21	5494
2026-01-04 23:51:52.34	170.11	24.22	-30.6	-34.5	11.7	7.71e-04	0	44	102	1048576	21	5630
2026-01-04 23:51:53.35	170.22	24.08	-30.6	-34.4	11.8	5.26e-04	0	43	102	1048576	21	5601
2026-01-04 23:51:54.36	170.33	23.94	-30.7	-34.7	11.6	6.17e-04	0	44	102	1048576	21	5711
2026-01-04 23:51:55.36	170.45	23.80	-30.2	-34.1	11.7	8.03e-04	0	44	102	1048576	21	5648
2026-01-04 23:51:56.37	170.56	23.65	-30.5	-34.7	11.7	4.89e-04	0	44	102	1048576	20	5813
2026-01-04 23:51:57.38	170.67	23.51	-30.5	-34.2	11.9	4.23e-04	0	44	102	1048576	21	5519
2026-01-04 23:51:58.38	170.77	23.37	-30.5	-34.7	11.4	5.73e-04	0	44	102	1048576	20	5821
2026-01-04 23:51:59.39	170.88	23.23	-30.4	-34.5	11.6	3.70e-04	0	44	102	1048576	20	5758
2026-01-04 23:52:00.40	170.99	23.09	-30.3	-34.1	12.3	2.10e-04	0	44	102	1048576	20	5576
2026-01-04 23:52:01.41	171.09	22.96	-30.4	-34.4	12.1	4.80e-04	0	44	102	1048576	20	5705
2026-01-04 23:52:02.41	171.20	22.82	-30.4	-34.3	12.1	1.55e-03	0	44	102	1048576	20	5673
2026-01-04 23:52:03.42	171.30	22.68	-30.1	-33.6	12.7	1.07e-04	0	43	102	1048576	20	5363
2026-01-04 23:52:04.42	171.40	22.55	-30.0	-33.2	12.9	6.63e-05	0	43	102	1048576	20	5215
2026-01-04 23:52:05.43	171.51	22.41	-29.9	-33.5	13.1	1.61e-04	0	43	102	1048576	19	5447
2026-01-04 23:52:06.44	171.61	22.28	-29.9	-33.5	13.1	1.61e-04	0	44	102	1048576	19	5443
2026-01-04 23:52:07.44	171.71	22.14	-29.9	-33.4	13.1	4.11e-05	0	44	102	1048576	19	5409
2026-01-04 23:52:08.45	171.81	22.01	-29.9	-33.4	13.1	1.73e-04	0	44	102	1048576	19	5405
2026-01-04 23:52:09.46	171.91	21.87	-29.9	-33.5	13.1	1.70e-04	0	43	102	1048576	19	5440
2026-01-04 23:52:10.47	172.00	21.74	-29.9	-33.5	13.1	3.35e-05	0	44	102	1048576	19	5441
2026-01-04 23:52:11.47	172.10	21.61	-29.9	-33.1	12.9	3.43e-05	0	44	102	1048576	20	5180
2026-01-04 23:52:12.48	172.20	21.48	-30.0	-33.2	12.9	2.56e-04	0	44	102	1048576	20	5202
2026-01-04 23:52:13.49	172.29	21.35	-30.0	-33.3	12.8	1.42e-03	0	44	102	1048576	20	5247
2026-01-04 23:52:14.50	172.39	21.22	-30.0	-33.3	12.8	4.57e-05	0	44	102	1048576	20	5271
2026-01-04 23:52:15.51	172.48	21.09	-29.9	-33.2	12.8	2.51e-04	0	44	102	1048576	20	5230
2026-01-04 23:52:16.51	172.57	20.96	-29.9	-33.7	12.9	1.59e-03	0	43	102	1048576	19	5557
2026-01-04 23:52:17.51	172.67	20.83	-29.7	-33.4	13.0	1.48e-03	0	44	102	1048576	19	5477
2026-01-04 23:52:18.52	172.76	20.71	-29.6	-33.2	13.0	3.28e-05	0	44	102	1048576	19	5441
2026-01-04 23:52:19.53	172.85	20.58	-29.6	-33.4	12.9	1.39e-03	0	43	102	1048576	19	5517
2026-01-04 23:52:20.53	172.94	20.45	-29.6	-33.4	12.9	1.35e-03	0	44	102	1048576	19	5542
2026-01-04 23:52:21.54	173.03	20.33	-29.7	-33.4	12.9	5.79e-05	0	44	102	1048576	19	5530
2026-01-04 23:52:22.55	173.12	20.20	-29.7	-33.2	13.1	8.09e-04	0	44	102	1048576	19	5344
2026-01-04 23:52:23.55	173.21	20.08	-29.8	-33.1	13.3	5.29e-04	0	44	102	1048576	19	5293
2026-01-04 23:52:24.56	173.29	19.95	-29.7	-32.8	13.4	1.56e-04	0	44	102	1048576	19	5194
2026-01-04 23:52:25.57	173.38	19.83	-29.5	-32.6	13.5	3.99e-04	0	44	102	1048576	19	5122
2026-01-04 23:52:26.57	173.47	19.70	-29.5	-32.7	13.4	3.57e-04	0	43	102	1048576	19	5191
2026-01-04 23:52:27.58	173.55	19.58	-29.5	-33.1	13.4	1.54e-04	0	43	102	1048576	18	5499
2026-01-04 23:52:28.58	173.64	19.46	-29.4	-32.9	13.6	7.60e-06	0	44	102	1048576	18	5382
2026-01-04 23:52:29.59	173.72	19.34	-29.2	-32.4	13.9	3.91e-04	0	43	102	1048576	18	5209
2026-01-04 23:52:30.59	173.80	19.22	-29.1	-32.2	14.0	8.16e-05	0	44	102	1048576	18	5156
2026-01-04 23:52:31.59	173.89	19.10	-29.0	-32.2	13.8	3.75e-04	0	44	102	1048576	18	5223
2026-01-04 23:52:32.60	173.97	18.98	-28.8	-32.2	13.7	3.04e-04	0	43	102	1048576	18	5302
2026-01-04 23:52:33.60	174.05	18.86	-28.7	-32.1	13.7	6.02e-05	0	44	102	1048576	18	5324
2026-01-04 23:52:34.60	174.13	18.74	-28.6	-32.5	13.6	2.97e-04	0	43	102	1048576	17	5642
2026-01-04 23:52:35.61	174.21	18.62	-28.7	-32.8	13.4	9.10e-06	0	44	102	1048576	17	5785
2026-01-04 23:52:36.62	174.29	18.51	-29.0	-33.0	13.2	8.92e-05	0	44	102	1048576	17	5746
2026-01-04 23:52:37.63	174.37	18.39	-29.4	-32.9	13.2	4.26e-04	0	44	102	1048576	18	5411
2026-01-04 23:52:38.63	174.45	18.27	-29.5	-32.6	13.5	5.22e-04	0	43	102	1048576	19	5104
2026-01-04 23:52:39.64	174.53	18.15	-29.7	-32.9	13.2	4.11e-05	0	43	102	1048576	19	5239
2026-01-04 23:52:40.65	174.61	18.04	-29.6	-32.8	13.2	6.15e-04	0	44	102	1048576	19	5220
2026-01-04 23:52:41.65	174.68	17.92	-29.5	-32.8	13.3	5.65e-04	0	44	102	1048576	19	5226
2026-01-04 23:52:42.66	174.76	17.81	-29.4	-33.0	13.4	3.28e-04	0	44	102	1048576	18	5447
2026-01-04 23:52:43.67	174.84	17.69	-29.5	-33.1	13.4	6.55e-04	0	44	102	1048576	18	5483
2026-01-04 23:52:44.68	174.91	17.58	-29.6	-32.9	13.2	8.27e-04	0	44	102	1048576	19	5246
2026-01-04 23:52:45.68	174.99	17.47	-29.5	-32.7	13.3	2.56e-04	0	43	102	1048576	19	5160
2026-01-04 23:52:46.69	175.06	17.35	-29.5	-32.5	13.5	1.60e-05	0	44	102	1048576	19	5083
2026-01-04 23:52:47.70	175.14	17.24	-29.5	-32.4	13.5	8.56e-04	0	44	102	1048576	19	5046
2026-01-04 23:52:48.71	175.21	17.13	-29.4	-32.4	13.6	2.27e-04	0	44	102	1048576	19	5037
2026-01-04 23:52:49.71	175.28	17.02	-29.4	-32.8	13.6	2.01e-04	0	44	102	1048576	18	5326
2026-01-04 23:52:50.72	175.35	16.91	-29.5	-32.5	13.5	6.33e-04	0	44	102	1048576	19	5105
2026-01-04 23:52:51.73	175.43	16.80	-29.6	-32.7	13.3	1.83e-05	0	44	102	1048576	19	5190
2026-01-04 23:52:52.73	175.50	16.69	-29.6	-32.8	13.3	1.90e-04	0	43	102	1048576	19	5193
2026-01-04 23:52:53.73	175.57	16.58	-29.6	-32.9	13.2	2.13e-05	0	43	102	1048576	19	5256
2026-01-04 23:52:54.73	175.64	16.47	-29.6	-32.9	13.2	3.20e-05	0	44	102	1048576	19	5233
2026-01-04 23:52:55.74	175.71	16.36	-29.7	-33.1	13.1	2.28e-04	0	44	102	1048576	19	5328
2026-01-04 23:52:56.75	175.78	16.25	-29.7	-33.0	13.1	2.59e-05	0	44	102	1048576	19	5303
2026-01-04 23:52:57.74	175.84	16.15	-29.8	-33.3	12.9	3.43e-05	0	44	102	1048576	19	5393
2026-01-04 23:52:58.75	175.91	16.04	-29.8	-33.4	12.8	3.12e-04	0	44	102	1048576	19	5454
2026-01-04 23:52:59.76	175.98	15.93	-29.9	-33.6	12.7	5.26e-05	0	44	102	1048576	19	5527
2026-01-04 23:53:00.77	176.05	15.82	-29.9	-33.8	12.5	4.42e-04	0	44	102	1048576	19	5621
2026-01-04 23:53:01.77	176.12	15.72	-29.9	-33.8	12.5	4.12e-04	0	43	102	1048576	19	5605
2026-01-04 23:53:02.78	176.18	15.61	-29.9	-33.7	12.6	9.38e-05	0	44	102	1048576	19	5570
2026-01-04 23:53:03.78	176.25	15.51	-29.9	-33.6	12.7	4.39e-04	0	44	102	1048576	19	5520
2026-01-04 23:53:04.78	176.31	15.40	-29.8	-33.4	12.8	6.40e-05	0	43	102	1048576	19	5433
2026-01-04 23:53:05.78	176.38	15.30	-29.9	-33.8	12.6	9.00e-05	0	43	102	1048576	19	5594
2026-01-04 23:53:06.79	176.44	15.20	-29.9	-33.6	12.6	3.97e-04	0	44	102	1048576	19	5542
2026-01-04 23:53:07.79	176.51	15.09	-29.9	-33.8	12.6	3.35e-04	0	44	102	1048576	19	5597
2026-01-04 23:53:08.80	176.57	14.99	-30.0	-33.4	12.4	6.94e-04	0	44	102	1048576	20	5338
2026-01-04 23:53:09.81	176.64	14.89	-30.1	-33.7	12.2	4.83e-04	0	43	102	1048576	20	5458
2026-01-04 23:53:10.81	176.70	14.78	-30.0	-33.5	12.3	5.70e-04	0	44	102	1048576	20	5405
2026-01-04 23:53:11.82	176.76	14.68	-30.0	-33.6	12.3	2.10e-04	0	44	102	1048576	20	5416
2026-01-04 23:53:12.83	176.82	14.58	-30.0	-33.5	12.3	5.21e-04	0	43	102	1048576	20	5379
2026-01-04 23:53:13.83	176.89	14.48	-30.1	-33.8	12.1	6.03e-04	0	44	102	1048576	20	5524
2026-01-04 23:53:14.84	176.95	14.38	-30.0	-33.7	12.2	2.77e-04	0	44	102	1048576	20	5455
2026-01-04 23:53:15.85	177.01	14.28	-30.0	-33.7	12.2	7.22e-04	0	44	102	1048576	20	5467
2026-01-04 23:53:16.85	177.07	14.18	-30.1	-33.9	12.0	7.40e-04	0	44	102	1048576	20	5553
2026-01-04 23:53:17.86	177.13	14.08	-30.1	-33.7	12.1	2.93e-04	0	43	102	1048576	20	5488
2026-01-04 23:53:18.87	177.19	13.98	-30.0	-33.6	12.2	2.30e-04	0	44	102	1048576	20	5422
2026-01-04 23:53:19.87	177.25	13.88	-30.0	-33.7	12.2	8.09e-04	0	44	102	1048576	20	5457
2026-01-04 23:53:20.88	177.31	13.78	-30.0	-33.7	12.2	2.36e-04	0	44	102	1048576	20	5456
2026-01-04 23:53:21.89	177.37	13.68	-30.1	-33.9	12.0	7.90e-04	0	43	102	1048576	20	5543
2026-01-04 23:53:22.89	177.43	13.59	-30.0	-33.5	12.2	2.59e-04	0	44	102	1048576	20	5399
2026-01-04 23:53:23.90	177.48	13.49	-29.9	-33.2	12.5	1.67e-04	0	43	102	1048576	20	5273
2026-01-04 23:53:24.91	177.54	13.39	-29.9	-33.7	12.5	6.62e-04	0	44	102	1048576	19	5584
2026-01-04 23:53:25.92	177.60	13.29	-29.9	-33.6	12.6	9.30e-05	0	43	102	1048576	19	5519
2026-01-04 23:53:26.92	177.66	13.20	-30.0	-33.9	12.4	1.17e-04	0	43	102	1048576	19	5636
2026-01-04 23:53:27.93	177.71	13.10	-29.9	-33.8	12.5	6.74e-04	0	44	102	1048576	19	5589
2026-01-04 23:53:28.94	177.77	13.01	-29.9	-33.6	12.6	3.99e-04	0	44	102	1048576	19	5529
2026-01-04 23:53:29.94	177.83	12.91	-29.9	-33.7	12.5	1.17e-04	0	44	102	1048576	19	5592
2026-01-04 23:53:30.95	177.88	12.82	-29.9	-33.6	12.5	6.18e-04	0	44	102	1048576	19	5535
2026-01-04 23:53:31.96	177.94	12.72	-29.9	-33.8	12.4	4.93e-04	0	43	102	1048576	19	5640
2026-01-04 23:53:32.96	177.99	12.63	-30.0	-33.5	12.2	2.20e-04	0	44	102	1048576	20	5390
2026-01-04 23:53:33.96	178.05	12.53	-30.2	-34.0	11.8	6.81e-04	0	44	102	1048576	20	5629
2026-01-04 23:53:34.98	178.10	12.44	-30.0	-33.6	12.1	9.01e-04	0	43	102	1048576	20	5424
2026-01-04 23:53:35.98	178.16	12.35	-30.0	-33.7	12.0	3.29e-04	0	43	102	1048576	20	5469
2026-01-04 23:53:36.98	178.21	12.25	-30.0	-33.6	12.1	2.83e-04	0	44	102	1048576	20	5432
2026-01-04 23:53:37.99	178.26	12.16	-30.1	-34.0	11.8	9.28e-04	0	44	102	1048576	20	5593
2026-01-04 23:53:38.99	178.32	12.07	-30.1	-34.0	11.8	5.27e-04	0	44	102	1048576	20	5605
2026-01-04 23:53:40.00	178.37	11.98	-30.1	-33.7	11.9	5.03e-04	0	44	102	1048576	20	5509
2026-01-04 23:53:41.01	178.42	11.89	-30.3	-34.5	11.4	5.93e-04	0	44	102	1048576	20	5835
2026-01-04 23:53:42.02	178.47	11.79	-30.2	-34.1	11.7	6.36e-04	0	44	102	1048576	20	5677
2026-01-04 23:53:43.02	178.53	11.70	-30.2	-34.1	11.7	6.87e-04	0	44	102	1048576	20	5661
2026-01-04 23:53:44.03	178.58	11.61	-30.1	-33.9	11.8	5.92e-04	0	44	102	1048576	20	5593
2026-01-04 23:53:45.03	178.63	11.52	-30.2	-34.2	11.6	5.52e-04	0	44	102	1048576	20	5715
2026-01-04 23:53:46.04	178.68	11.43	-30.2	-34.2	11.6	8.17e-04	0	43	102	1048576	20	5694
2026-01-04 23:53:47.05	178.73	11.34	-30.2	-34.3	11.5	8.70e-04	0	43	102	1048576	20	5768
2026-01-04 23:53:48.06	178.78	11.25	-30.2	-34.2	11.5	7.54e-04	0	43	102	1048576	20	5735
2026-01-04 23:53:49.06	178.83	11.17	-30.3	-34.5	11.4	1.03e-03	0	44	102	1048576	20	5847
2026-01-04 23:53:50.07	178.88	11.08	-30.4	-35.0	11.0	1.50e-03	0	44	102	1048576	20	6069
2026-01-04 23:53:51.08	178.93	10.99	-30.4	-34.8	11.1	1.62e-03	0	44	102	1048576	20	6013
2026-01-04 23:53:52.09	178.98	10.90	-30.5	-34.8	10.7	2.57e-03	0	44	102	1048576	21	5900
2026-01-04 23:53:53.09	179.03	10.81	-30.4	-34.4	11.0	2.23e-03	0	44	102	1048576	21	5721
2026-01-04 23:53:54.10	179.08	10.72	-30.4	-34.5	10.9	1.87e-03	0	44	102	1048576	21	5762
2026-01-04 23:53:55.11	179.13	10.64	-30.4	-35.0	10.7	3.10e-03	0	43	102	1048576	20	6094
2026-01-04 23:53:56.11	179.17	10.55	-30.4	-34.9	11.0	1.89e-03	0	43	102	1048576	20	6059
2026-01-04 23:53:57.12	179.22	10.46	-30.5	-34.9	10.6	2.95e-03	0	44	102	1048576	21	5950
2026-01-04 23:53:58.12	179.27	10.38	-30.4	-35.1	10.7	3.45e-03	0	44	102	1048576	20	6186
2026-01-04 23:53:59.13	179.32	10.29	-30.3	-34.8	11.0	2.05e-03	0	44	102	1048576	20	6022
2026-01-04 23:54:00.13	179.36	10.21	-30.5	-34.9	10.6	2.93e-03	0	44	102	1048576	21	5972
2026-01-04 23:54:01.14	179.41	10.12	-30.4	-34.9	10.9	2.74e-03	0	44	102	1048576	20	6054
2026-01-04 23:54:02.15	179.46	10.03	-30.4	-34.9	11.0	2.02e-03	0	44	102	1048576	20	6053
2026-01-04 23:54:03.16	179.51	9.95	-30.4	-34.9	10.9	2.15e-03	0	44	102	1048576	20	6092
2026-01-04 23:54:04.17	179.55	9.86	-30.4	-35.2	10.8	2.37e-03	0	44	102	1048576	20	6196
2026-01-04 23:54:05.17	179.60	9.78	-30.6	-35.2	10.4	4.41e-03	0	44	102	1048576	21	6092
2026-01-04 23:54:06.18	179.64	9.70	-30.6	-35.3	10.2	6.12e-03	0	43	102	1048576	21	6163
2026-01-04 23:54:07.18	179.69	9.61	-30.6	-35.1	10.4	4.78e-03	0	44	102	1048576	21	6061
2026-01-04 23:54:08.18	179.73	9.53	-30.4	-34.6	10.8	3.80e-03	0	43	102	1048576	21	5816
2026-01-04 23:54:09.19	179.78	9.45	-30.3	-34.8	10.9	2.86e-03	0	43	102	1048576	20	6032
2026-01-04 23:54:10.20	179.82	9.36	-30.3	-34.9	10.9	2.55e-03	0	43	102	1048576	20	6084
2026-01-04 23:54:11.21	179.87	9.28	-30.3	-34.7	11.0	3.15e-03	0	43	102	1048576	20	5998
2026-01-04 23:54:12.22	179.91	9.20	-30.3	-34.6	11.0	2.43e-03	0	44	102	1048576	20	5950
2026-01-04 23:54:13.23	179.96	9.11	-30.3	-34.9	10.8	3.13e-03	0	44	102	1048576	20	6087
2026-01-04 23:54:14.23	180.00	9.03	-30.3	-34.6	11.0	2.17e-03	0	44	102	1048576	20	5956
2026-01-04 23:54:15.24	180.04	8.95	-30.3	-34.8	10.9	2.77e-03	0	44	102	1048576	20	6045
2026-01-04 23:54:16.24	180.09	8.87	-30.3	-34.8	10.9	3.43e-03	0	43	102	1048576	20	6024
2026-01-04 23:54:17.26	180.13	8.79	-30.2	-34.5	11.0	2.25e-03	0	43	102	1048576	20	5914
2026-01-04 23:54:18.26	180.17	8.71	-30.2	-34.5	11.1	2.54e-03	0	44	102	1048576	20	5902
2026-01-04 23:54:19.26	180.22	8.63	-30.2	-34.6	11.0	2.67e-03	0	44	102	1048576	20	5963
2026-01-04 23:54:20.26	180.26	8.55	-30.3	-34.7	10.9	2.44e-03	0	43	102	1048576	20	6001
2026-01-04 23:54:21.27	180.30	8.47	-30.4	-35.0	10.7	2.58e-03	0	43	102	1048576	20	6166
2026-01-04 23:54:22.28	180.34	8.39	-30.2	-34.6	11.0	2.81e-03	0	43	102	1048576	20	5950
2026-01-04 23:54:23.28	180.38	8.31	-30.2	-34.6	10.9	1.79e-03	0	43	102	1048576	20	5956
