passes_logs/2026/01/04/R2M6_AANII_01/R2M6_AANII_01__20260104_075612_SUOMI_NPP_rec.log

#Pass ID: 20260104_075612_SUOMI NPP
#Satellite: SUOMI NPP
#Configuration: NPP
#almurnet v.1.7.20240730
#Start time: 2026-01-04 07:56:12

#Version: 2.2.20231116
#Station: R2M6_AANII_01
#Location: 30.233357 lon 59.946436 lat
#TLE: 1 37849U 11061A   26001.07732418  .00000182  00000+0  10735-3 0  9990
#TLE: 2 37849  98.7795 303.2470 0002580  87.2016 272.9455 14.19520779734739

#Time	Az	El	Level	Level2	SNR	BER	BlckErr	Temp	State	Recorded	gain1	gain2
2026-01-04 07:56:12.50	83.82	7.01	-32.6	-40.0	4.1	1.45e+00	0	41	0	0	26	8433
2026-01-04 07:56:13.50	83.70	7.07	-32.2	-37.7	4.6	1.32e+00	0	41	104	0	25	6772
2026-01-04 07:56:14.51	83.59	7.12	-32.2	-37.5	6.3	2.77e-01	0	41	0	0	25	6645
2026-01-04 07:56:15.52	83.47	7.18	-32.1	-37.3	6.4	2.58e-01	0	41	102	1048576	25	6549
2026-01-04 07:56:16.53	83.36	7.24	-32.2	-37.5	6.4	2.58e-01	0	41	102	1048576	25	6633
2026-01-04 07:56:17.54	83.24	7.29	-32.1	-37.2	6.5	2.42e-01	0	41	102	1048576	25	6475
2026-01-04 07:56:18.55	83.13	7.35	-32.1	-37.2	6.5	2.37e-01	0	41	102	1048576	25	6490
2026-01-04 07:56:19.56	83.01	7.41	-32.2	-37.5	6.4	2.36e-01	0	41	102	1048576	25	6633
2026-01-04 07:56:20.56	82.90	7.46	-32.2	-37.4	6.4	3.01e-01	0	41	102	1048576	25	6612
2026-01-04 07:56:21.56	82.78	7.52	-32.0	-36.3	7.2	2.05e-01	0	41	102	1048576	25	5923
2026-01-04 07:56:22.57	82.66	7.57	-31.8	-35.6	7.8	8.56e-02	0	41	102	1048576	25	5539
2026-01-04 07:56:23.58	82.54	7.63	-31.8	-36.1	7.7	6.56e-02	0	41	102	1048576	24	5926
2026-01-04 07:56:24.59	82.42	7.69	-31.8	-35.9	7.9	9.15e-02	0	41	102	1048576	24	5806
2026-01-04 07:56:25.59	82.31	7.74	-31.6	-35.1	8.6	4.41e-02	0	41	102	1048576	24	5409
2026-01-04 07:56:26.60	82.19	7.80	-31.4	-34.4	9.1	2.77e-02	0	41	102	1048576	24	5083
2026-01-04 07:56:27.61	82.07	7.86	-31.3	-34.0	9.5	1.72e-02	0	41	102	1048576	24	4892
2026-01-04 07:56:28.62	81.95	7.91	-31.2	-33.9	9.9	8.71e-03	0	41	102	1048576	23	4940
2026-01-04 07:56:29.63	81.82	7.97	-31.2	-34.1	9.8	9.29e-03	0	41	102	1048576	23	5005
2026-01-04 07:56:30.64	81.70	8.02	-31.2	-34.0	9.9	8.58e-03	0	41	102	1048576	23	4964
2026-01-04 07:56:31.65	81.58	8.08	-31.3	-34.4	9.7	9.92e-03	0	41	102	1048576	23	5140
2026-01-04 07:56:32.65	81.46	8.14	-31.3	-34.2	9.7	1.27e-02	0	41	102	1048576	23	5045
2026-01-04 07:56:33.66	81.34	8.19	-31.2	-33.8	10.1	9.08e-03	0	41	102	1048576	23	4895
2026-01-04 07:56:34.67	81.21	8.25	-31.2	-34.1	9.9	8.68e-03	0	41	102	1048576	23	4997
2026-01-04 07:56:35.67	81.09	8.31	-31.3	-34.1	9.9	8.50e-03	0	41	102	1048576	23	5009
2026-01-04 07:56:36.68	80.97	8.36	-31.3	-34.2	9.8	8.50e-03	0	41	102	1048576	23	5039
2026-01-04 07:56:37.69	80.84	8.42	-31.3	-34.3	9.7	9.98e-03	0	41	102	1048576	23	5068
2026-01-04 07:56:38.70	80.71	8.48	-31.3	-34.3	9.7	1.30e-02	0	41	102	1048576	23	5097
2026-01-04 07:56:39.71	80.59	8.53	-31.2	-33.9	10.0	8.70e-03	0	41	102	1048576	23	4904
2026-01-04 07:56:40.71	80.46	8.59	-31.2	-33.7	10.2	6.24e-03	0	41	102	1048576	23	4823
2026-01-04 07:56:41.72	80.34	8.64	-31.3	-34.0	10.0	7.89e-03	0	42	102	1048576	23	4963
2026-01-04 07:56:42.73	80.21	8.70	-31.3	-34.1	10.0	7.94e-03	0	41	102	1048576	23	4983
2026-01-04 07:56:43.74	80.08	8.76	-31.3	-34.3	9.8	7.90e-03	0	41	102	1048576	23	5078
2026-01-04 07:56:44.74	79.95	8.81	-31.4	-34.4	9.8	1.03e-02	0	41	102	1048576	23	5106
2026-01-04 07:56:45.75	79.82	8.87	-31.3	-34.4	9.8	9.14e-03	0	41	102	1048576	23	5088
2026-01-04 07:56:46.76	79.69	8.93	-31.3	-34.3	9.7	1.10e-02	0	41	102	1048576	23	5088
2026-01-04 07:56:47.77	79.56	8.98	-31.3	-34.2	9.8	9.11e-03	0	42	102	1048576	23	5058
2026-01-04 07:56:48.77	79.44	9.04	-31.2	-34.1	9.8	8.99e-03	0	42	102	1048576	23	5026
2026-01-04 07:56:49.78	79.30	9.10	-31.2	-34.1	10.0	7.89e-03	0	42	102	1048576	23	5000
2026-01-04 07:56:50.78	79.17	9.15	-31.2	-34.1	9.9	8.67e-03	0	41	102	1048576	23	5021
2026-01-04 07:56:51.79	79.04	9.21	-31.4	-34.8	9.4	1.46e-02	0	42	102	1048576	23	5299
2026-01-04 07:56:52.80	78.91	9.26	-31.4	-34.7	9.5	1.64e-02	0	42	102	1048576	23	5290
2026-01-04 07:56:53.81	78.78	9.32	-31.4	-34.8	9.4	1.34e-02	0	42	102	1048576	23	5326
2026-01-04 07:56:54.81	78.64	9.38	-31.5	-35.2	9.1	2.21e-02	0	42	102	1048576	23	5513
2026-01-04 07:56:55.82	78.51	9.43	-31.4	-34.7	9.5	1.97e-02	0	42	102	1048576	23	5273
2026-01-04 07:56:56.83	78.37	9.49	-31.3	-34.3	9.8	1.16e-02	0	42	102	1048576	23	5102
2026-01-04 07:56:57.83	78.24	9.54	-31.2	-33.9	10.1	7.79e-03	0	42	102	1048576	23	4935
2026-01-04 07:56:58.84	78.10	9.60	-31.2	-34.1	10.0	6.82e-03	0	42	102	1048576	23	4997
2026-01-04 07:56:59.85	77.97	9.66	-31.3	-34.3	9.8	8.77e-03	0	42	102	1048576	23	5079
2026-01-04 07:57:00.86	77.83	9.71	-31.3	-34.4	9.7	1.13e-02	0	42	102	1048576	23	5144
2026-01-04 07:57:01.86	77.70	9.77	-31.3	-34.3	9.9	8.81e-03	0	42	102	1048576	23	5084
2026-01-04 07:57:02.87	77.56	9.82	-31.2	-34.1	10.0	8.96e-03	0	42	102	1048576	23	4992
2026-01-04 07:57:03.87	77.42	9.88	-31.2	-33.9	10.1	7.73e-03	0	42	102	1048576	23	4938
2026-01-04 07:57:04.88	77.28	9.94	-31.1	-33.7	10.3	5.83e-03	0	42	102	1048576	23	4840
2026-01-04 07:57:05.89	77.14	9.99	-31.2	-33.8	10.2	5.83e-03	0	42	102	1048576	23	4887
2026-01-04 07:57:06.90	77.00	10.05	-31.2	-33.9	10.1	7.84e-03	0	42	102	1048576	23	4933
2026-01-04 07:57:07.90	76.86	10.10	-31.3	-34.2	10.0	7.24e-03	0	42	102	1048576	23	5043
2026-01-04 07:57:08.91	76.72	10.16	-31.3	-34.4	9.8	7.13e-03	0	42	102	1048576	23	5151
2026-01-04 07:57:09.91	76.58	10.21	-31.2	-34.1	10.0	7.13e-03	0	42	102	1048576	23	5018
2026-01-04 07:57:10.91	76.44	10.27	-31.3	-34.4	9.8	8.64e-03	0	42	102	1048576	23	5129
2026-01-04 07:57:11.92	76.30	10.33	-31.2	-34.0	10.1	9.75e-03	0	42	102	1048576	23	4971
2026-01-04 07:57:12.93	76.15	10.38	-31.2	-33.9	10.2	7.30e-03	0	42	102	1048576	23	4940
2026-01-04 07:57:13.94	76.01	10.44	-31.3	-34.3	9.9	7.27e-03	0	42	102	1048576	23	5085
2026-01-04 07:57:14.95	75.87	10.49	-31.4	-34.7	9.6	1.16e-02	0	42	102	1048576	23	5251
2026-01-04 07:57:15.96	75.72	10.55	-31.5	-34.8	9.5	1.42e-02	0	42	102	1048576	23	5318
2026-01-04 07:57:16.97	75.57	10.60	-31.7	-35.6	9.0	1.61e-02	0	42	102	1048576	23	5657
2026-01-04 07:57:17.97	75.43	10.66	-31.5	-35.1	9.3	1.85e-02	0	42	102	1048576	23	5437
2026-01-04 07:57:18.98	75.28	10.71	-31.6	-35.4	9.1	1.83e-02	0	42	102	1048576	23	5588
2026-01-04 07:57:19.99	75.14	10.77	-31.7	-35.6	9.0	2.40e-02	0	42	102	1048576	23	5640
2026-01-04 07:57:20.99	74.99	10.82	-31.6	-35.5	9.1	2.39e-02	0	42	102	1048576	23	5587
2026-01-04 07:57:22.00	74.84	10.88	-31.6	-35.3	9.2	2.42e-02	0	42	102	1048576	23	5509
2026-01-04 07:57:23.01	74.69	10.93	-31.7	-35.6	9.0	2.17e-02	0	42	102	1048576	23	5667
2026-01-04 07:57:24.01	74.54	10.99	-31.7	-35.7	8.9	2.58e-02	0	42	102	1048576	23	5700
2026-01-04 07:57:25.01	74.40	11.04	-31.6	-35.2	9.3	2.03e-02	0	42	102	1048576	23	5460
2026-01-04 07:57:26.02	74.24	11.10	-31.5	-35.1	9.4	1.43e-02	0	42	102	1048576	23	5418
2026-01-04 07:57:27.03	74.09	11.15	-31.5	-34.9	9.5	1.54e-02	0	42	102	1048576	23	5345
2026-01-04 07:57:28.04	73.94	11.21	-31.4	-34.6	9.7	1.16e-02	0	42	102	1048576	23	5215
2026-01-04 07:57:29.05	73.79	11.26	-31.5	-34.7	9.7	1.10e-02	0	42	102	1048576	23	5235
2026-01-04 07:57:30.06	73.64	11.32	-31.3	-34.1	10.1	1.01e-02	0	42	102	1048576	23	5002
2026-01-04 07:57:31.06	73.48	11.37	-31.2	-33.8	10.4	4.79e-03	0	42	102	1048576	23	4857
2026-01-04 07:57:32.07	73.33	11.42	-31.1	-33.6	10.5	4.52e-03	0	42	102	1048576	23	4789
2026-01-04 07:57:33.08	73.17	11.48	-31.2	-33.8	10.4	4.74e-03	0	42	102	1048576	23	4858
2026-01-04 07:57:34.08	73.02	11.53	-31.1	-33.7	10.5	4.68e-03	0	43	102	1048576	23	4814
2026-01-04 07:57:35.08	72.87	11.59	-31.1	-33.6	10.5	3.84e-03	0	42	102	1048576	23	4774
2026-01-04 07:57:36.09	72.71	11.64	-31.1	-33.6	10.5	3.23e-03	0	42	102	1048576	23	4786
2026-01-04 07:57:37.10	72.55	11.69	-31.0	-33.4	10.7	2.65e-03	0	42	102	1048576	23	4697
2026-01-04 07:57:38.10	72.40	11.75	-30.9	-32.8	11.1	1.73e-03	0	42	102	1048576	23	4500
2026-01-04 07:57:39.11	72.24	11.80	-30.8	-32.7	11.3	1.57e-03	0	42	102	1048576	23	4446
2026-01-04 07:57:40.12	72.08	11.86	-30.9	-33.0	11.0	1.74e-03	0	43	102	1048576	23	4556
2026-01-04 07:57:41.13	71.92	11.91	-30.8	-32.7	11.2	1.39e-03	0	42	102	1048576	23	4467
2026-01-04 07:57:42.13	71.76	11.96	-30.9	-32.8	11.1	1.29e-03	0	42	102	1048576	23	4498
2026-01-04 07:57:43.14	71.60	12.02	-30.8	-32.7	11.2	1.22e-03	0	43	102	1048576	23	4466
2026-01-04 07:57:44.15	71.44	12.07	-31.0	-33.2	10.8	1.82e-03	0	43	102	1048576	23	4638
2026-01-04 07:57:45.16	71.28	12.12	-31.0	-33.0	10.9	2.24e-03	0	43	102	1048576	23	4574
2026-01-04 07:57:46.17	71.12	12.18	-30.9	-32.8	11.2	1.56e-03	0	43	102	1048576	23	4491
2026-01-04 07:57:47.18	70.95	12.23	-30.9	-32.8	11.2	1.51e-03	0	43	102	1048576	23	4468
2026-01-04 07:57:48.18	70.79	12.28	-30.9	-32.8	11.1	1.45e-03	0	43	102	1048576	23	4494
2026-01-04 07:57:49.19	70.63	12.33	-31.0	-33.1	10.9	1.63e-03	0	42	102	1048576	23	4607
2026-01-04 07:57:50.20	70.46	12.39	-31.0	-33.1	10.9	2.32e-03	0	42	102	1048576	23	4594
2026-01-04 07:57:51.20	70.30	12.44	-30.8	-33.0	11.4	1.06e-03	0	42	102	1048576	22	4631
2026-01-04 07:57:52.21	70.13	12.49	-30.7	-32.8	11.5	7.40e-04	0	42	102	1048576	22	4586
2026-01-04 07:57:53.22	69.97	12.54	-30.8	-33.0	11.4	8.44e-04	0	42	102	1048576	22	4656
2026-01-04 07:57:54.23	69.80	12.60	-30.7	-32.8	11.5	9.54e-04	0	43	102	1048576	22	4584
2026-01-04 07:57:55.24	69.63	12.65	-30.7	-32.7	11.6	6.76e-04	0	43	102	1048576	22	4532
2026-01-04 07:57:56.25	69.46	12.70	-30.7	-32.8	11.6	6.88e-04	0	42	102	1048576	22	4548
2026-01-04 07:57:57.26	69.29	12.75	-30.7	-32.6	11.6	5.52e-04	0	42	102	1048576	22	4498
2026-01-04 07:57:58.26	69.13	12.80	-30.7	-32.7	11.6	6.77e-04	0	43	102	1048576	22	4536
2026-01-04 07:57:59.26	68.96	12.85	-30.5	-32.1	12.1	2.98e-04	0	43	102	1048576	22	4326
2026-01-04 07:58:00.27	68.79	12.90	-30.4	-31.7	12.4	1.99e-04	0	43	102	1048576	22	4178
2026-01-04 07:58:01.28	68.62	12.96	-30.5	-32.0	12.1	2.17e-04	0	43	102	1048576	22	4295
2026-01-04 07:58:02.29	68.44	13.01	-30.5	-32.1	12.1	3.52e-04	0	43	102	1048576	22	4317
2026-01-04 07:58:03.30	68.27	13.06	-30.6	-32.3	11.9	2.80e-04	0	43	102	1048576	22	4385
2026-01-04 07:58:04.30	68.10	13.11	-30.5	-32.2	11.9	4.05e-04	0	42	102	1048576	22	4373
2026-01-04 07:58:05.31	67.93	13.16	-30.5	-32.1	12.0	2.61e-04	0	43	102	1048576	22	4349
2026-01-04 07:58:06.31	67.75	13.21	-30.5	-32.1	12.1	2.40e-04	0	42	102	1048576	22	4332
2026-01-04 07:58:07.32	67.58	13.26	-30.5	-32.2	12.0	3.06e-04	0	43	102	1048576	22	4367
2026-01-04 07:58:08.33	67.40	13.31	-30.6	-32.5	11.8	5.91e-04	0	43	102	1048576	22	4475
2026-01-04 07:58:09.34	67.23	13.36	-30.7	-32.8	11.5	6.36e-04	0	42	102	1048576	22	4586
2026-01-04 07:58:10.35	67.05	13.41	-30.8	-33.1	11.3	9.39e-04	0	43	102	1048576	22	4696
2026-01-04 07:58:11.36	66.87	13.46	-30.7	-32.9	11.5	1.05e-03	0	43	102	1048576	22	4628
2026-01-04 07:58:12.37	66.70	13.51	-30.7	-32.8	11.6	8.02e-04	0	42	102	1048576	22	4557
2026-01-04 07:58:13.37	66.52	13.56	-30.8	-32.9	11.5	6.84e-04	0	43	102	1048576	22	4620
2026-01-04 07:58:14.38	66.34	13.61	-30.8	-33.1	11.4	7.85e-04	0	43	102	1048576	22	4669
2026-01-04 07:58:15.38	66.16	13.65	-30.8	-33.0	11.5	9.85e-04	0	43	102	1048576	22	4632
2026-01-04 07:58:16.39	65.98	13.70	-30.7	-32.6	11.8	6.20e-04	0	43	102	1048576	22	4498
2026-01-04 07:58:17.40	65.80	13.75	-30.7	-32.5	11.9	3.78e-04	0	43	102	1048576	22	4425
2026-01-04 07:58:18.40	65.62	13.80	-30.6	-32.2	12.1	4.50e-04	0	43	102	1048576	22	4347
2026-01-04 07:58:19.41	65.44	13.85	-30.4	-31.8	12.4	2.20e-04	0	43	102	1048576	22	4206
2026-01-04 07:58:20.42	65.26	13.90	-30.4	-31.8	12.4	1.46e-04	0	43	102	1048576	22	4199
2026-01-04 07:58:21.42	65.08	13.94	-30.4	-31.7	12.5	1.20e-04	0	43	102	1048576	22	4182
2026-01-04 07:58:22.42	64.89	13.99	-30.5	-31.9	12.3	1.63e-04	0	43	102	1048576	22	4223
2026-01-04 07:58:23.42	64.71	14.04	-30.4	-31.6	12.5	1.50e-04	0	43	102	1048576	22	4152
2026-01-04 07:58:24.42	64.53	14.08	-30.2	-31.6	12.8	6.17e-05	0	43	102	1048576	21	4245
2026-01-04 07:58:25.43	64.34	14.13	-30.3	-31.9	12.6	7.55e-05	0	43	102	1048576	21	4339
2026-01-04 07:58:26.44	64.16	14.18	-30.6	-32.7	12.1	2.00e-04	0	43	102	1048576	21	4599
2026-01-04 07:58:27.45	63.97	14.23	-30.5	-32.4	12.3	1.90e-04	0	43	102	1048576	21	4491
2026-01-04 07:58:28.46	63.78	14.27	-30.4	-32.3	12.4	1.33e-04	0	43	102	1048576	21	4456
2026-01-04 07:58:29.47	63.59	14.32	-30.5	-32.4	12.3	1.30e-04	0	43	102	1048576	21	4502
2026-01-04 07:58:30.48	63.40	14.36	-30.5	-32.5	12.3	1.53e-04	0	43	102	1048576	21	4522
2026-01-04 07:58:31.49	63.22	14.41	-30.5	-32.5	12.2	1.69e-04	0	43	102	1048576	21	4520
2026-01-04 07:58:32.49	63.03	14.45	-30.5	-32.6	12.2	2.74e-04	0	43	102	1048576	21	4558
2026-01-04 07:58:33.50	62.84	14.50	-30.4	-32.2	12.4	1.80e-04	0	43	102	1048576	21	4440
2026-01-04 07:58:34.51	62.65	14.54	-30.5	-32.5	12.3	1.13e-04	0	43	102	1048576	21	4517
2026-01-04 07:58:35.52	62.45	14.59	-30.3	-32.0	12.6	1.48e-04	0	43	102	1048576	21	4350
2026-01-04 07:58:36.52	62.26	14.63	-30.4	-32.0	12.6	7.01e-05	0	43	102	1048576	21	4372
2026-01-04 07:58:37.53	62.07	14.68	-30.4	-32.2	12.5	1.20e-04	0	43	102	1048576	21	4433
2026-01-04 07:58:38.54	61.88	14.72	-30.5	-32.4	12.4	1.06e-04	0	43	102	1048576	21	4476
2026-01-04 07:58:39.55	61.68	14.77	-30.6	-32.7	12.2	1.85e-04	0	43	102	1048576	21	4600
2026-01-04 07:58:40.55	61.49	14.81	-30.6	-32.8	12.1	2.35e-04	0	43	102	1048576	21	4634
2026-01-04 07:58:41.56	61.30	14.85	-30.6	-32.8	12.1	3.16e-04	0	43	102	1048576	21	4607
2026-01-04 07:58:42.56	61.10	14.89	-30.4	-32.2	12.5	2.35e-04	0	43	102	1048576	21	4433
2026-01-04 07:58:43.57	60.91	14.94	-30.5	-32.4	12.4	1.69e-04	0	43	102	1048576	21	4507
2026-01-04 07:58:44.57	60.71	14.98	-30.4	-32.2	12.5	1.23e-04	0	43	102	1048576	21	4420
2026-01-04 07:58:45.58	60.52	15.02	-30.3	-32.0	12.7	8.85e-05	0	43	102	1048576	21	4338
2026-01-04 07:58:46.58	60.32	15.06	-30.4	-32.2	12.5	8.31e-05	0	43	102	1048576	21	4409
2026-01-04 07:58:47.59	60.12	15.11	-30.4	-32.1	12.7	1.04e-04	0	43	102	1048576	21	4388
2026-01-04 07:58:48.60	59.92	15.15	-30.2	-31.7	12.9	5.64e-05	0	43	102	1048576	21	4233
2026-01-04 07:58:49.60	59.73	15.19	-30.1	-31.4	13.1	4.57e-05	0	43	102	1048576	21	4155
2026-01-04 07:58:50.61	59.53	15.23	-30.2	-31.6	12.9	3.96e-05	0	43	102	1048576	21	4226
2026-01-04 07:58:51.62	59.32	15.27	-30.2	-31.5	13.0	3.20e-05	0	43	102	1048576	21	4201
2026-01-04 07:58:52.63	59.12	15.31	-30.3	-31.8	12.8	4.80e-05	0	43	102	1048576	21	4279
2026-01-04 07:58:53.63	58.92	15.35	-30.5	-32.3	12.5	7.85e-05	0	43	102	1048576	21	4454
2026-01-04 07:58:54.64	58.72	15.39	-30.5	-32.5	12.4	1.64e-04	0	43	102	1048576	21	4499
2026-01-04 07:58:55.64	58.52	15.43	-30.4	-32.0	12.6	1.03e-04	0	43	102	1048576	21	4350
2026-01-04 07:58:56.65	58.32	15.47	-30.4	-32.0	12.7	9.30e-05	0	43	102	1048576	21	4354
2026-01-04 07:58:57.65	58.12	15.51	-30.4	-32.1	12.6	6.94e-05	0	43	102	1048576	21	4391
2026-01-04 07:58:58.66	57.91	15.54	-30.3	-31.7	12.9	6.71e-05	0	43	102	1048576	21	4261
2026-01-04 07:58:59.67	57.71	15.58	-30.4	-32.1	12.7	6.56e-05	0	43	102	1048576	21	4363
2026-01-04 07:59:00.68	57.50	15.62	-30.3	-31.9	12.8	7.47e-05	0	43	102	1048576	21	4301
2026-01-04 07:59:01.69	57.30	15.66	-30.2	-31.6	13.0	4.88e-05	0	43	102	1048576	21	4216
2026-01-04 07:59:02.69	57.09	15.70	-30.2	-31.6	13.0	3.50e-05	0	43	102	1048576	21	4234
2026-01-04 07:59:03.70	56.88	15.73	-30.3	-31.7	12.8	5.03e-05	0	43	102	1048576	21	4257
2026-01-04 07:59:04.71	56.68	15.77	-30.4	-32.0	12.7	3.96e-05	0	43	102	1048576	21	4338
2026-01-04 07:59:05.71	56.47	15.80	-30.3	-31.8	12.9	5.34e-05	0	43	102	1048576	21	4273
2026-01-04 07:59:06.72	56.26	15.84	-30.2	-31.5	13.1	3.89e-05	0	43	102	1048576	21	4167
2026-01-04 07:59:07.73	56.05	15.88	-30.0	-31.0	13.3	1.52e-05	0	43	102	1048576	21	4030
2026-01-04 07:59:08.74	55.84	15.91	-30.0	-31.1	13.3	1.22e-05	0	43	102	1048576	21	4044
2026-01-04 07:59:09.75	55.63	15.95	-30.0	-30.8	13.5	2.13e-05	0	43	102	1048576	21	3972
2026-01-04 07:59:10.75	55.43	15.98	-29.9	-30.6	13.6	4.50e-06	0	43	102	1048576	21	3914
2026-01-04 07:59:11.76	55.21	16.02	-29.9	-30.8	13.5	1.14e-05	0	43	102	1048576	21	3955
2026-01-04 07:59:12.77	55.00	16.05	-30.0	-30.9	13.4	5.30e-06	0	43	102	1048576	21	4012
2026-01-04 07:59:13.77	54.79	16.08	-29.9	-30.6	13.7	1.44e-05	0	43	102	1048576	21	3894
2026-01-04 07:59:14.78	54.58	16.12	-29.8	-30.8	13.9	4.50e-06	0	43	102	1048576	20	4044
2026-01-04 07:59:15.78	54.37	16.15	-29.9	-31.1	13.7	8.30e-06	0	43	102	1048576	20	4148
2026-01-04 07:59:16.79	54.16	16.18	-29.9	-31.2	13.6	1.22e-05	0	43	102	1048576	20	4171
2026-01-04 07:59:17.80	53.94	16.21	-29.9	-31.0	13.7	4.50e-06	0	43	102	1048576	20	4123
2026-01-04 07:59:18.80	53.73	16.25	-29.9	-31.3	13.6	9.10e-06	0	43	102	1048576	20	4194
2026-01-04 07:59:19.81	53.52	16.28	-30.0	-31.5	13.5	3.80e-06	0	43	102	1048576	20	4248
2026-01-04 07:59:20.82	53.30	16.31	-30.0	-31.4	13.5	1.67e-05	0	43	102	1048576	20	4220
2026-01-04 07:59:21.83	53.09	16.34	-30.0	-31.5	13.4	1.29e-05	0	43	102	1048576	20	4254
2026-01-04 07:59:22.84	52.87	16.37	-30.1	-31.8	13.2	2.13e-05	0	43	102	1048576	20	4353
2026-01-04 07:59:23.84	52.66	16.40	-30.2	-32.1	13.0	3.50e-05	0	43	102	1048576	20	4454
2026-01-04 07:59:24.85	52.44	16.43	-30.3	-32.2	12.9	3.89e-05	0	43	102	1048576	20	4492
2026-01-04 07:59:25.85	52.22	16.46	-30.4	-32.6	12.7	7.17e-05	0	43	102	1048576	20	4630
2026-01-04 07:59:26.86	52.01	16.49	-30.5	-32.8	12.6	8.92e-05	0	43	102	1048576	20	4684
2026-01-04 07:59:27.87	51.79	16.51	-30.5	-32.4	12.5	1.28e-04	0	43	102	1048576	21	4485
2026-01-04 07:59:28.87	51.57	16.54	-30.6	-32.6	12.3	1.72e-04	0	43	102	1048576	21	4543
2026-01-04 07:59:29.88	51.35	16.57	-30.5	-32.4	12.5	1.37e-04	0	43	102	1048576	21	4468
2026-01-04 07:59:30.89	51.13	16.60	-30.5	-32.2	12.6	1.23e-04	0	43	102	1048576	21	4415
2026-01-04 07:59:31.89	50.92	16.62	-30.6	-32.5	12.4	1.17e-04	0	43	102	1048576	21	4494
2026-01-04 07:59:32.91	50.69	16.65	-30.4	-32.2	12.6	1.04e-04	0	43	102	1048576	21	4399
2026-01-04 07:59:33.91	50.48	16.68	-30.6	-32.7	12.3	1.16e-04	0	43	102	1048576	21	4551
2026-01-04 07:59:34.91	50.26	16.70	-30.6	-32.6	12.3	1.43e-04	0	43	102	1048576	21	4543
2026-01-04 07:59:35.92	50.04	16.73	-30.5	-32.3	12.5	8.39e-05	0	43	102	1048576	21	4424
2026-01-04 07:59:36.93	49.81	16.75	-30.3	-31.6	13.0	4.50e-05	0	43	102	1048576	21	4224
2026-01-04 07:59:37.93	49.59	16.78	-30.0	-31.0	13.4	2.28e-05	0	43	102	1048576	21	4027
2026-01-04 07:59:38.94	49.37	16.80	-30.1	-31.1	13.4	1.22e-05	0	43	102	1048576	21	4041
2026-01-04 07:59:39.95	49.15	16.82	-30.1	-31.3	13.3	1.44e-05	0	43	102	1048576	21	4105
2026-01-04 07:59:40.96	48.93	16.85	-30.0	-31.0	13.5	2.05e-05	0	43	102	1048576	21	4021
2026-01-04 07:59:41.97	48.70	16.87	-30.2	-31.4	13.2	9.10e-06	0	43	102	1048576	21	4148
2026-01-04 07:59:42.98	48.48	16.89	-30.1	-31.1	13.3	9.90e-06	0	43	102	1048576	21	4055
2026-01-04 07:59:43.98	48.26	16.91	-30.0	-31.0	13.4	1.67e-05	0	43	102	1048576	21	4035
2026-01-04 07:59:44.99	48.03	16.94	-30.0	-30.9	13.5	1.67e-05	0	43	102	1048576	21	4003
2026-01-04 07:59:46.00	47.81	16.96	-29.9	-30.7	13.6	5.30e-06	0	43	102	1048576	21	3959
2026-01-04 07:59:47.01	47.58	16.98	-30.0	-31.0	13.4	9.90e-06	0	43	102	1048576	21	4043
2026-01-04 07:59:48.01	47.36	17.00	-30.0	-30.9	13.5	9.10e-06	0	43	102	1048576	21	4000
2026-01-04 07:59:49.01	47.14	17.02	-30.0	-30.9	13.4	9.90e-06	0	43	102	1048576	21	4012
2026-01-04 07:59:50.02	46.91	17.04	-30.0	-31.0	13.4	1.22e-05	0	43	102	1048576	21	4050
2026-01-04 07:59:51.03	46.68	17.06	-30.2	-31.4	13.1	2.13e-05	0	43	102	1048576	21	4164
2026-01-04 07:59:52.03	46.46	17.07	-30.4	-32.1	12.7	4.57e-05	0	43	102	1048576	21	4382
2026-01-04 07:59:53.04	46.23	17.09	-30.5	-32.4	12.5	8.54e-05	0	43	102	1048576	21	4474
2026-01-04 07:59:54.04	46.01	17.11	-30.6	-32.7	12.2	1.70e-04	0	43	102	1048576	21	4604
2026-01-04 07:59:55.06	45.78	17.13	-30.7	-33.1	12.0	4.06e-04	0	43	102	1048576	21	4753
2026-01-04 07:59:56.06	45.55	17.14	-30.8	-33.3	11.8	4.07e-04	0	43	102	1048576	21	4812
2026-01-04 07:59:57.07	45.33	17.16	-30.9	-33.6	11.6	6.40e-04	0	43	102	1048576	21	4922
2026-01-04 07:59:58.07	45.10	17.17	-30.9	-33.7	11.5	8.49e-04	0	43	102	1048576	21	4967
2026-01-04 07:59:59.08	44.87	17.19	-31.0	-33.9	11.4	9.07e-04	0	43	102	1048576	21	5058
2026-01-04 08:00:00.09	44.64	17.21	-30.9	-33.3	11.5	7.80e-04	0	43	102	1048576	22	4733
2026-01-04 08:00:01.09	44.42	17.22	-30.9	-33.3	11.4	7.93e-04	0	43	102	1048576	22	4740
2026-01-04 08:00:02.10	44.19	17.23	-30.9	-33.1	11.6	7.31e-04	0	43	102	1048576	22	4642
2026-01-04 08:00:03.11	43.96	17.25	-31.0	-33.3	11.4	7.61e-04	0	43	102	1048576	22	4739
2026-01-04 08:00:04.12	43.73	17.26	-31.0	-33.5	11.3	1.07e-03	0	43	102	1048576	22	4783
2026-01-04 08:00:05.12	43.50	17.27	-30.8	-32.9	11.8	8.15e-04	0	43	102	1048576	22	4564
2026-01-04 08:00:06.12	43.27	17.28	-30.7	-32.4	12.1	4.71e-04	0	43	102	1048576	22	4416
2026-01-04 08:00:07.13	43.04	17.30	-30.5	-32.0	12.4	2.16e-04	0	43	102	1048576	22	4270
2026-01-04 08:00:08.13	42.82	17.31	-30.4	-31.7	12.5	1.46e-04	0	43	102	1048576	22	4181
2026-01-04 08:00:09.14	42.59	17.32	-30.3	-31.5	12.7	7.70e-05	0	43	102	1048576	22	4104
2026-01-04 08:00:10.15	42.36	17.33	-30.5	-31.9	12.6	9.46e-05	0	43	102	1048576	22	4229
2026-01-04 08:00:11.16	42.13	17.34	-30.5	-32.0	12.4	1.36e-04	0	43	102	1048576	22	4270
2026-01-04 08:00:12.17	41.90	17.35	-30.4	-31.6	12.7	1.22e-04	0	43	102	1048576	22	4142
2026-01-04 08:00:13.17	41.67	17.36	-30.4	-31.6	12.6	1.04e-04	0	43	102	1048576	22	4150
2026-01-04 08:00:14.18	41.44	17.36	-30.4	-31.6	12.7	8.69e-05	0	43	102	1048576	22	4126
2026-01-04 08:00:15.19	41.20	17.37	-30.2	-31.5	13.0	4.34e-05	0	43	102	1048576	21	4188
2026-01-04 08:00:16.19	40.98	17.38	-30.1	-31.3	13.2	1.44e-05	0	43	102	1048576	21	4111
2026-01-04 08:00:17.20	40.74	17.39	-30.1	-31.4	13.1	2.05e-05	0	43	102	1048576	21	4145
2026-01-04 08:00:18.20	40.52	17.39	-30.2	-31.6	12.9	3.89e-05	0	43	102	1048576	21	4214
2026-01-04 08:00:19.21	40.28	17.40	-30.4	-32.0	12.7	5.95e-05	0	43	102	1048576	21	4341
2026-01-04 08:00:20.22	40.05	17.40	-30.7	-32.9	12.1	1.94e-04	0	43	102	1048576	21	4653
2026-01-04 08:00:21.22	39.82	17.41	-30.7	-32.9	12.0	2.38e-04	0	43	102	1048576	21	4657
2026-01-04 08:00:22.23	39.59	17.41	-30.8	-33.2	11.8	3.81e-04	0	43	102	1048576	21	4757
2026-01-04 08:00:23.24	39.36	17.42	-30.7	-32.9	12.0	3.33e-04	0	43	102	1048576	21	4674
2026-01-04 08:00:24.24	39.13	17.42	-30.6	-32.6	12.2	2.70e-04	0	43	102	1048576	21	4533
2026-01-04 08:00:25.25	38.90	17.42	-30.6	-32.7	12.2	2.17e-04	0	43	102	1048576	21	4583
2026-01-04 08:00:26.26	38.67	17.43	-30.7	-32.9	12.0	2.87e-04	0	43	102	1048576	21	4650
2026-01-04 08:00:27.26	38.44	17.43	-30.5	-32.6	12.2	1.75e-04	0	43	102	1048576	21	4539
2026-01-04 08:00:28.27	38.20	17.43	-30.5	-32.3	12.4	1.67e-04	0	43	102	1048576	21	4457
2026-01-04 08:00:29.28	37.97	17.43	-30.4	-32.0	12.7	1.04e-04	0	43	102	1048576	21	4347
2026-01-04 08:00:30.29	37.74	17.43	-30.3	-31.7	12.8	7.32e-05	0	43	102	1048576	21	4253
2026-01-04 08:00:31.29	37.51	17.43	-30.4	-32.0	12.7	5.49e-05	0	43	102	1048576	21	4351
2026-01-04 08:00:32.30	37.28	17.43	-30.5	-32.5	12.3	1.19e-04	0	43	102	1048576	21	4507
2026-01-04 08:00:33.31	37.05	17.43	-30.5	-32.3	12.5	1.15e-04	0	43	102	1048576	21	4430
2026-01-04 08:00:34.31	36.82	17.43	-30.7	-32.9	12.1	2.44e-04	0	43	102	1048576	21	4638
2026-01-04 08:00:35.32	36.59	17.43	-30.7	-33.1	11.9	2.93e-04	0	43	102	1048576	21	4727
2026-01-04 08:00:36.32	36.36	17.43	-30.9	-33.7	11.5	8.95e-04	0	43	102	1048576	21	4939
2026-01-04 08:00:37.33	36.12	17.43	-30.9	-33.2	11.5	1.08e-03	0	43	102	1048576	22	4672
2026-01-04 08:00:38.34	35.89	17.42	-31.0	-33.6	11.3	9.51e-04	0	43	102	1048576	22	4811
2026-01-04 08:00:39.34	35.66	17.42	-31.2	-34.0	10.9	1.56e-03	0	43	102	1048576	22	4986
2026-01-04 08:00:40.35	35.43	17.41	-31.4	-34.5	10.6	3.12e-03	0	43	102	1048576	22	5171
2026-01-04 08:00:41.36	35.20	17.41	-31.4	-34.2	10.4	5.56e-03	0	43	102	1048576	23	4942
2026-01-04 08:00:42.37	34.97	17.40	-31.1	-33.2	11.1	3.11e-03	0	43	102	1048576	23	4565
2026-01-04 08:00:43.37	34.74	17.40	-30.8	-32.3	11.7	8.15e-04	0	43	102	1048576	23	4286
2026-01-04 08:00:44.37	34.51	17.39	-30.6	-32.2	12.2	2.75e-04	0	43	102	1048576	22	4331
2026-01-04 08:00:45.38	34.28	17.39	-30.4	-31.7	12.5	1.65e-04	0	43	102	1048576	22	4173
2026-01-04 08:00:46.38	34.05	17.38	-30.4	-31.6	12.6	8.08e-05	0	43	102	1048576	22	4133
2026-01-04 08:00:47.38	33.82	17.37	-30.4	-31.7	12.5	1.08e-04	0	43	102	1048576	22	4168
2026-01-04 08:00:48.39	33.59	17.37	-30.4	-31.8	12.5	1.01e-04	0	43	102	1048576	22	4188
2026-01-04 08:00:49.40	33.36	17.36	-30.5	-31.8	12.4	1.23e-04	0	43	102	1048576	22	4205
2026-01-04 08:00:50.41	33.13	17.35	-30.3	-31.3	12.8	8.92e-05	0	43	102	1048576	22	4046
2026-01-04 08:00:51.41	32.90	17.34	-30.2	-31.7	12.9	5.49e-05	0	43	102	1048576	21	4238
2026-01-04 08:00:52.42	32.67	17.33	-30.3	-31.8	12.8	5.56e-05	0	43	102	1048576	21	4269
2026-01-04 08:00:53.43	32.44	17.32	-30.3	-31.9	12.7	5.79e-05	0	43	102	1048576	21	4321
2026-01-04 08:00:54.43	32.21	17.31	-30.4	-32.1	12.6	7.78e-05	0	43	102	1048576	21	4360
2026-01-04 08:00:55.44	31.98	17.30	-30.3	-31.7	12.9	6.48e-05	0	43	102	1048576	21	4233
2026-01-04 08:00:56.45	31.75	17.29	-30.3	-31.7	12.9	6.17e-05	0	43	102	1048576	21	4258
2026-01-04 08:00:57.46	31.52	17.27	-30.4	-32.0	12.7	5.87e-05	0	43	102	1048576	21	4327
2026-01-04 08:00:58.47	31.29	17.26	-30.5	-32.3	12.5	9.53e-05	0	43	102	1048576	21	4434
2026-01-04 08:00:59.47	31.07	17.25	-30.3	-31.8	12.8	5.56e-05	0	43	102	1048576	21	4269
2026-01-04 08:01:00.48	30.84	17.23	-30.4	-31.9	12.7	8.01e-05	0	43	102	1048576	21	4317
2026-01-04 08:01:01.48	30.61	17.22	-30.2	-31.4	13.1	7.93e-05	0	43	102	1048576	21	4131
2026-01-04 08:01:02.49	30.38	17.21	-29.9	-30.5	13.7	2.36e-05	0	43	102	1048576	21	3897
2026-01-04 08:01:03.50	30.15	17.19	-29.6	-30.4	14.0	3.00e-06	0	43	102	1048576	20	3946
2026-01-04 08:01:04.50	29.93	17.18	-29.5	-30.2	14.2	1.50e-06	0	43	102	1048576	20	3877
2026-01-04 08:01:05.51	29.70	17.16	-29.6	-30.4	14.1	7.00e-07	0	43	102	1048576	20	3931
2026-01-04 08:01:06.51	29.48	17.14	-29.7	-30.6	13.9	7.00e-07	0	43	102	1048576	20	4003
2026-01-04 08:01:07.52	29.25	17.13	-29.7	-30.7	13.9	3.80e-06	0	43	102	1048576	20	4030
2026-01-04 08:01:08.53	29.02	17.11	-30.0	-31.4	13.4	1.14e-05	0	43	102	1048576	20	4239
2026-01-04 08:01:09.54	28.79	17.09	-30.1	-31.6	13.3	1.37e-05	0	43	102	1048576	20	4302
2026-01-04 08:01:10.55	28.57	17.08	-29.8	-30.9	13.8	9.90e-06	0	43	102	1048576	20	4085
2026-01-04 08:01:11.56	28.34	17.06	-29.9	-31.0	13.7	7.60e-06	0	43	102	1048576	20	4109
2026-01-04 08:01:12.56	28.12	17.04	-29.9	-31.2	13.6	6.80e-06	0	43	102	1048576	20	4161
2026-01-04 08:01:13.57	27.89	17.02	-30.0	-31.3	13.5	1.75e-05	0	43	102	1048576	20	4194
2026-01-04 08:01:14.57	27.67	17.00	-30.0	-31.5	13.4	9.90e-06	0	43	102	1048576	20	4277
2026-01-04 08:01:15.58	27.44	16.98	-30.1	-31.6	13.3	2.05e-05	0	43	102	1048576	20	4303
2026-01-04 08:01:16.59	27.22	16.96	-30.0	-31.3	13.5	1.75e-05	0	43	102	1048576	20	4204
2026-01-04 08:01:17.59	27.00	16.94	-30.0	-31.4	13.4	1.67e-05	0	43	102	1048576	20	4227
2026-01-04 08:01:18.60	26.77	16.92	-30.1	-31.7	13.2	2.05e-05	0	43	102	1048576	20	4342
2026-01-04 08:01:19.61	26.55	16.89	-30.0	-31.4	13.4	2.36e-05	0	43	102	1048576	20	4234
2026-01-04 08:01:20.62	26.33	16.87	-30.2	-31.9	13.1	1.60e-05	0	43	102	1048576	20	4383
2026-01-04 08:01:21.62	26.10	16.85	-30.1	-31.7	13.3	1.67e-05	0	43	102	1048576	20	4336
2026-01-04 08:01:22.63	25.88	16.83	-30.0	-31.5	13.4	2.05e-05	0	43	102	1048576	20	4260
2026-01-04 08:01:23.63	25.66	16.80	-30.1	-31.7	13.2	2.05e-05	0	43	102	1048576	20	4331
2026-01-04 08:01:24.64	25.44	16.78	-30.1	-31.7	13.2	2.51e-05	0	43	102	1048576	20	4341
2026-01-04 08:01:25.65	25.22	16.75	-30.2	-31.9	13.1	3.05e-05	0	43	102	1048576	20	4387
2026-01-04 08:01:26.65	25.00	16.73	-30.2	-31.8	13.1	2.28e-05	0	43	102	1048576	20	4369
2026-01-04 08:01:27.66	24.78	16.71	-30.3	-32.4	12.8	2.59e-05	0	43	102	1048576	20	4545
2026-01-04 08:01:28.67	24.56	16.68	-30.3	-32.2	12.9	3.81e-05	0	43	102	1048576	20	4482
2026-01-04 08:01:29.68	24.34	16.65	-30.3	-32.1	12.9	4.11e-05	0	43	102	1048576	20	4472
2026-01-04 08:01:30.68	24.12	16.63	-30.1	-31.8	13.1	3.12e-05	0	43	102	1048576	20	4367
2026-01-04 08:01:31.68	23.90	16.60	-30.2	-31.9	13.1	3.43e-05	0	43	102	1048576	20	4408
2026-01-04 08:01:32.69	23.68	16.57	-30.2	-32.1	12.9	4.34e-05	0	43	102	1048576	20	4453
2026-01-04 08:01:33.69	23.47	16.55	-30.3	-32.1	12.9	3.73e-05	0	43	102	1048576	20	4468
2026-01-04 08:01:34.71	23.25	16.52	-30.4	-32.6	12.6	5.87e-05	0	43	102	1048576	20	4611
2026-01-04 08:01:35.71	23.03	16.49	-30.5	-32.7	12.5	9.00e-05	0	43	102	1048576	20	4683
2026-01-04 08:01:36.71	22.82	16.46	-30.4	-32.5	12.7	7.47e-05	0	43	102	1048576	20	4609
2026-01-04 08:01:37.72	22.60	16.43	-30.4	-32.1	12.5	1.15e-04	0	43	102	1048576	21	4381
2026-01-04 08:01:38.73	22.38	16.40	-30.5	-32.3	12.4	1.05e-04	0	43	102	1048576	21	4455
2026-01-04 08:01:39.74	22.17	16.37	-30.5	-32.3	12.4	1.28e-04	0	43	102	1048576	21	4459
2026-01-04 08:01:40.75	21.95	16.34	-30.6	-32.7	12.2	1.78e-04	0	43	102	1048576	21	4572
2026-01-04 08:01:41.75	21.74	16.31	-30.7	-33.1	11.9	3.63e-04	0	43	102	1048576	21	4715
2026-01-04 08:01:42.76	21.52	16.28	-30.9	-33.5	11.6	4.50e-04	0	43	102	1048576	21	4881
2026-01-04 08:01:43.77	21.31	16.25	-30.8	-33.2	11.8	5.77e-04	0	43	102	1048576	21	4752
2026-01-04 08:01:44.79	21.09	16.22	-30.8	-33.4	11.7	4.38e-04	0	43	102	1048576	21	4822
2026-01-04 08:01:45.79	20.88	16.19	-30.8	-33.2	11.8	4.87e-04	0	43	102	1048576	21	4770
2026-01-04 08:01:46.80	20.67	16.15	-30.7	-32.9	12.0	2.99e-04	0	43	102	1048576	21	4666
2026-01-04 08:01:47.81	20.46	16.12	-30.8	-33.2	11.8	4.36e-04	0	43	102	1048576	21	4774
2026-01-04 08:01:48.82	20.24	16.09	-30.7	-33.1	11.9	5.24e-04	0	43	102	1048576	21	4710
2026-01-04 08:01:49.83	20.03	16.05	-30.6	-32.7	12.2	3.43e-04	0	43	102	1048576	21	4576
2026-01-04 08:01:50.84	19.82	16.02	-30.8	-33.3	11.7	3.74e-04	0	43	102	1048576	21	4801
2026-01-04 08:01:51.84	19.61	15.99	-30.7	-32.9	12.0	4.14e-04	0	43	102	1048576	21	4644
2026-01-04 08:01:52.85	19.40	15.95	-30.5	-32.4	12.4	1.59e-04	0	43	102	1048576	21	4485
2026-01-04 08:01:53.85	19.20	15.92	-30.4	-32.0	12.6	1.28e-04	0	43	102	1048576	21	4360
2026-01-04 08:01:54.86	18.99	15.88	-30.5	-32.4	12.4	1.16e-04	0	43	102	1048576	21	4468
2026-01-04 08:01:55.87	18.78	15.85	-30.5	-32.3	12.5	1.42e-04	0	43	102	1048576	21	4430
2026-01-04 08:01:56.87	18.57	15.81	-30.3	-31.9	12.7	7.47e-05	0	43	102	1048576	21	4309
2026-01-04 08:01:57.88	18.36	15.77	-30.2	-31.5	12.9	5.03e-05	0	43	102	1048576	21	4200
2026-01-04 08:01:58.89	18.16	15.74	-30.1	-31.2	13.1	3.81e-05	0	43	102	1048576	21	4111
2026-01-04 08:01:59.90	17.95	15.70	-30.1	-31.1	13.2	3.28e-05	0	43	102	1048576	21	4066
2026-01-04 08:02:00.90	17.75	15.66	-30.0	-30.9	13.3	1.83e-05	0	43	102	1048576	21	4001
2026-01-04 08:02:01.91	17.54	15.63	-29.9	-30.7	13.5	5.30e-06	0	43	102	1048576	21	3943
2026-01-04 08:02:02.91	17.34	15.59	-29.9	-31.2	13.4	8.30e-06	0	43	102	1048576	20	4181
2026-01-04 08:02:03.92	17.13	15.55	-29.9	-31.1	13.6	1.14e-05	0	43	102	1048576	20	4150
2026-01-04 08:02:04.93	16.93	15.51	-29.8	-31.0	13.5	9.90e-06	0	43	102	1048576	20	4109
2026-01-04 08:02:05.93	16.73	15.47	-29.9	-31.3	13.3	1.22e-05	0	43	102	1048576	20	4209
2026-01-04 08:02:06.94	16.53	15.43	-29.9	-31.4	13.3	6.80e-06	0	43	102	1048576	20	4238
2026-01-04 08:02:07.95	16.32	15.40	-30.1	-31.7	13.2	1.37e-05	0	43	102	1048576	20	4327
2026-01-04 08:02:08.96	16.12	15.36	-30.0	-31.6	13.2	2.05e-05	0	43	102	1048576	20	4315
2026-01-04 08:02:09.96	15.92	15.32	-30.2	-32.1	12.8	3.05e-05	0	43	102	1048576	20	4488
2026-01-04 08:02:10.97	15.72	15.28	-30.5	-32.8	12.4	1.10e-04	0	43	102	1048576	20	4710
2026-01-04 08:02:11.98	15.52	15.24	-30.7	-32.9	12.0	2.05e-04	0	43	102	1048576	21	4657
2026-01-04 08:02:12.99	15.32	15.19	-30.9	-33.5	11.5	5.97e-04	0	43	102	1048576	21	4870
2026-01-04 08:02:13.99	15.13	15.15	-30.8	-33.5	11.6	7.70e-04	0	43	102	1048576	21	4872
2026-01-04 08:02:15.00	14.93	15.11	-30.9	-33.8	11.3	1.11e-03	0	43	102	1048576	21	5010
2026-01-04 08:02:16.00	14.73	15.07	-30.7	-33.2	11.7	6.03e-04	0	43	102	1048576	21	4753
2026-01-04 08:02:17.01	14.54	15.03	-30.7	-33.1	11.8	6.19e-04	0	43	102	1048576	21	4735
2026-01-04 08:02:18.01	14.34	14.99	-30.6	-32.8	12.0	3.62e-04	0	43	102	1048576	21	4626
2026-01-04 08:02:19.02	14.14	14.95	-30.6	-32.7	12.1	3.04e-04	0	43	102	1048576	21	4593
2026-01-04 08:02:20.03	13.95	14.90	-30.6	-32.6	12.1	3.33e-04	0	43	102	1048576	21	4570
2026-01-04 08:02:21.04	13.75	14.86	-30.8	-33.3	11.6	4.02e-04	0	43	102	1048576	21	4819
2026-01-04 08:02:22.04	13.56	14.82	-30.8	-33.4	11.6	6.66e-04	0	43	102	1048576	21	4865
2026-01-04 08:02:23.04	13.37	14.77	-30.7	-33.2	11.7	7.54e-04	0	43	102	1048576	21	4772
2026-01-04 08:02:24.05	13.18	14.73	-30.9	-33.8	11.3	8.33e-04	0	43	102	1048576	21	5008
2026-01-04 08:02:25.05	12.99	14.69	-30.9	-33.8	11.3	1.25e-03	0	43	102	1048576	21	5006
2026-01-04 08:02:26.06	12.79	14.64	-30.9	-33.6	11.4	1.12e-03	0	43	102	1048576	21	4931
2026-01-04 08:02:27.07	12.60	14.60	-30.8	-33.5	11.5	8.64e-04	0	43	102	1048576	21	4894
2026-01-04 08:02:28.08	12.41	14.55	-31.0	-33.9	11.2	1.13e-03	0	43	102	1048576	21	5032
2026-01-04 08:02:29.08	12.22	14.51	-30.6	-32.7	12.0	5.70e-04	0	43	102	1048576	21	4581
2026-01-04 08:02:30.09	12.03	14.46	-30.6	-32.8	11.9	3.36e-04	0	43	102	1048576	21	4629
2026-01-04 08:02:31.09	11.85	14.42	-30.6	-32.7	12.0	3.26e-04	0	43	102	1048576	21	4594
2026-01-04 08:02:32.10	11.66	14.37	-30.6	-32.8	11.9	2.75e-04	0	43	102	1048576	21	4644
2026-01-04 08:02:33.10	11.47	14.33	-30.7	-33.1	11.7	4.65e-04	0	43	102	1048576	21	4746
2026-01-04 08:02:34.10	11.28	14.28	-30.5	-32.4	12.2	3.02e-04	0	43	102	1048576	21	4506
2026-01-04 08:02:35.11	11.10	14.24	-30.3	-31.9	12.5	1.72e-04	0	43	102	1048576	21	4321
2026-01-04 08:02:36.12	10.91	14.19	-30.1	-31.2	13.0	4.80e-05	0	43	102	1048576	21	4118
2026-01-04 08:02:37.12	10.73	14.14	-30.1	-31.3	13.0	3.96e-05	0	43	102	1048576	21	4136
2026-01-04 08:02:38.13	10.54	14.10	-29.9	-30.9	13.2	1.83e-05	0	43	102	1048576	21	4031
2026-01-04 08:02:39.14	10.36	14.05	-30.1	-31.4	12.9	3.96e-05	0	43	102	1048576	21	4160
2026-01-04 08:02:40.14	10.18	14.00	-30.2	-31.5	12.8	6.63e-05	0	43	102	1048576	21	4211
2026-01-04 08:02:41.15	9.99	13.95	-30.3	-32.0	12.5	7.78e-05	0	43	102	1048576	21	4352
2026-01-04 08:02:42.15	9.81	13.91	-30.4	-32.1	12.3	1.56e-04	0	43	102	1048576	21	4395
2026-01-04 08:02:43.16	9.63	13.86	-30.4	-32.2	12.3	1.52e-04	0	43	102	1048576	21	4432
2026-01-04 08:02:44.17	9.45	13.81	-30.5	-32.4	12.2	2.06e-04	0	43	102	1048576	21	4497
2026-01-04 08:02:45.18	9.27	13.76	-30.3	-31.9	12.5	2.10e-04	0	43	102	1048576	21	4319
2026-01-04 08:02:46.18	9.09	13.72	-30.3	-32.0	12.4	1.54e-04	0	43	102	1048576	21	4376
2026-01-04 08:02:47.19	8.91	13.67	-30.3	-31.8	12.5	1.33e-04	0	43	102	1048576	21	4316
2026-01-04 08:02:48.19	8.73	13.62	-30.4	-32.2	12.3	1.36e-04	0	43	102	1048576	21	4430
2026-01-04 08:02:49.20	8.55	13.57	-30.2	-31.7	12.6	9.46e-05	0	43	102	1048576	21	4272
2026-01-04 08:02:50.21	8.38	13.52	-30.4	-32.3	12.3	1.26e-04	0	43	102	1048576	21	4454
2026-01-04 08:02:51.21	8.20	13.47	-30.4	-32.3	12.2	2.10e-04	0	43	102	1048576	21	4458
2026-01-04 08:02:52.22	8.02	13.42	-30.5	-32.6	12.0	2.84e-04	0	43	102	1048576	21	4567
2026-01-04 08:02:53.22	7.85	13.37	-30.6	-33.0	11.7	5.60e-04	0	43	102	1048576	21	4710
2026-01-04 08:02:54.23	7.67	13.32	-31.0	-34.0	11.0	1.08e-03	0	43	102	1048576	21	5121
2026-01-04 08:02:55.24	7.50	13.27	-31.3	-34.5	10.3	2.29e-03	0	43	102	1048576	22	5238
2026-01-04 08:02:56.24	7.33	13.22	-31.5	-35.3	9.7	7.76e-03	0	43	102	1048576	22	5591
2026-01-04 08:02:57.25	7.15	13.17	-31.7	-35.5	9.1	2.00e-02	0	43	102	1048576	23	5621
2026-01-04 08:02:58.26	6.98	13.12	-31.7	-35.8	9.0	2.81e-02	0	43	102	1048576	23	5752
2026-01-04 08:02:59.26	6.81	13.07	-31.8	-36.0	8.7	3.95e-02	0	43	102	1048576	23	5854
2026-01-04 08:03:00.27	6.64	13.02	-31.8	-36.2	8.5	3.81e-02	0	43	102	1048576	23	5946
2026-01-04 08:03:01.28	6.47	12.97	-31.8	-36.0	8.6	2.94e-02	0	43	102	1048576	23	5868
2026-01-04 08:03:02.28	6.30	12.92	-31.7	-35.7	8.9	2.75e-02	0	43	102	1048576	23	5689
2026-01-04 08:03:03.30	6.12	12.87	-31.7	-35.6	9.0	2.89e-02	0	43	102	1048576	23	5640
2026-01-04 08:03:04.30	5.96	12.82	-31.5	-34.8	9.6	2.15e-02	0	43	102	1048576	23	5247
2026-01-04 08:03:05.31	5.79	12.77	-31.3	-34.3	10.0	8.15e-03	0	43	102	1048576	23	5039
2026-01-04 08:03:06.32	5.62	12.71	-31.3	-34.1	10.2	5.90e-03	0	43	102	1048576	23	4969
2026-01-04 08:03:07.32	5.45	12.66	-31.2	-33.7	10.5	4.76e-03	0	43	102	1048576	23	4803
2026-01-04 08:03:08.33	5.29	12.61	-31.1	-33.4	10.7	3.96e-03	0	43	102	1048576	23	4701
2026-01-04 08:03:09.33	5.12	12.56	-31.0	-33.1	10.9	2.80e-03	0	43	102	1048576	23	4599
2026-01-04 08:03:10.34	4.96	12.51	-30.9	-32.9	11.1	1.68e-03	0	43	102	1048576	23	4494
2026-01-04 08:03:11.35	4.79	12.45	-30.8	-32.6	11.3	1.32e-03	0	43	102	1048576	23	4416
2026-01-04 08:03:12.36	4.63	12.40	-30.9	-32.9	11.1	1.24e-03	0	43	102	1048576	23	4502
2026-01-04 08:03:13.37	4.46	12.35	-30.9	-32.8	11.1	1.67e-03	0	43	102	1048576	23	4484
2026-01-04 08:03:14.38	4.30	12.30	-30.9	-32.7	11.2	1.58e-03	0	43	102	1048576	23	4438
2026-01-04 08:03:15.38	4.14	12.24	-30.9	-32.8	11.1	1.69e-03	0	43	102	1048576	23	4489
2026-01-04 08:03:16.39	3.97	12.19	-31.2	-33.7	10.5	3.22e-03	0	43	102	1048576	23	4806
2026-01-04 08:03:17.39	3.81	12.14	-31.3	-34.1	10.2	5.60e-03	0	43	102	1048576	23	4963
2026-01-04 08:03:18.39	3.66	12.09	-31.2	-33.6	10.5	4.65e-03	0	43	102	1048576	23	4787
2026-01-04 08:03:19.40	3.49	12.03	-31.1	-33.4	10.7	3.23e-03	0	43	102	1048576	23	4705
2026-01-04 08:03:20.41	3.33	11.98	-31.1	-33.4	10.7	3.20e-03	0	43	102	1048576	23	4688
2026-01-04 08:03:21.41	3.18	11.93	-31.1	-33.5	10.6	2.75e-03	0	43	102	1048576	23	4718
2026-01-04 08:03:22.41	3.02	11.87	-31.1	-33.3	10.7	3.40e-03	0	43	102	1048576	23	4665
2026-01-04 08:03:23.42	2.86	11.82	-30.9	-32.8	11.1	2.34e-03	0	43	102	1048576	23	4481
2026-01-04 08:03:24.42	2.71	11.77	-30.8	-32.6	11.2	1.46e-03	0	43	102	1048576	23	4391
2026-01-04 08:03:25.43	2.55	11.71	-30.8	-33.0	11.3	1.10e-03	0	43	102	1048576	22	4630
2026-01-04 08:03:26.43	2.39	11.66	-30.8	-33.1	11.2	1.33e-03	0	43	102	1048576	22	4660
2026-01-04 08:03:27.44	2.24	11.61	-30.9	-33.3	11.1	1.40e-03	0	43	102	1048576	22	4734
2026-01-04 08:03:28.45	2.08	11.55	-30.9	-33.1	11.2	1.61e-03	0	43	102	1048576	22	4687
2026-01-04 08:03:29.45	1.93	11.50	-30.7	-32.8	11.4	1.02e-03	0	43	102	1048576	22	4565
2026-01-04 08:03:30.46	1.78	11.44	-30.7	-32.8	11.4	9.02e-04	0	43	102	1048576	22	4548
2026-01-04 08:03:31.46	1.62	11.39	-30.8	-32.9	11.3	8.55e-04	0	43	102	1048576	22	4593
2026-01-04 08:03:32.47	1.47	11.34	-30.8	-33.2	11.1	1.31e-03	0	43	102	1048576	22	4699
2026-01-04 08:03:33.48	1.32	11.28	-30.9	-33.4	11.0	1.60e-03	0	43	102	1048576	22	4792
2026-01-04 08:03:34.49	1.17	11.23	-30.9	-33.5	10.9	2.17e-03	0	43	102	1048576	22	4813
2026-01-04 08:03:35.50	1.01	11.17	-30.9	-33.4	11.0	2.07e-03	0	43	102	1048576	22	4784
2026-01-04 08:03:36.50	0.87	11.12	-31.0	-33.7	10.8	2.65e-03	0	43	102	1048576	22	4887
2026-01-04 08:03:37.50	0.72	11.06	-31.0	-33.8	10.7	2.85e-03	0	43	102	1048576	22	4937
2026-01-04 08:03:38.50	0.57	11.01	-31.0	-33.8	10.7	2.72e-03	0	43	102	1048576	22	4932
2026-01-04 08:03:39.51	0.42	10.96	-31.1	-33.9	10.6	3.06e-03	0	43	102	1048576	22	4979
2026-01-04 08:03:40.52	0.27	10.90	-31.1	-34.0	10.5	3.64e-03	0	43	102	1048576	22	5022
2026-01-04 08:03:41.53	0.12	10.85	-31.2	-34.2	10.4	4.32e-03	0	43	102	1048576	22	5091
2026-01-04 08:03:42.54	359.98	10.79	-31.2	-34.3	10.3	4.49e-03	0	43	102	1048576	22	5125
2026-01-04 08:03:43.55	359.83	10.74	-31.2	-34.1	10.4	5.23e-03	0	43	102	1048576	22	5072
2026-01-04 08:03:44.55	359.69	10.68	-31.0	-33.5	10.9	2.99e-03	0	43	102	1048576	22	4817
2026-01-04 08:03:45.56	359.54	10.63	-30.9	-33.2	11.1	1.82e-03	0	43	102	1048576	22	4699
2026-01-04 08:03:46.56	359.40	10.57	-30.8	-32.9	11.3	1.32e-03	0	43	102	1048576	22	4593
2026-01-04 08:03:47.57	359.25	10.52	-30.6	-32.5	11.6	1.14e-03	0	43	102	1048576	22	4440
2026-01-04 08:03:48.58	359.11	10.46	-30.7	-32.6	11.5	6.64e-04	0	43	102	1048576	22	4499
2026-01-04 08:03:49.58	358.97	10.40	-30.6	-32.4	11.7	8.00e-04	0	43	102	1048576	22	4421
2026-01-04 08:03:50.59	358.82	10.35	-30.3	-31.4	12.3	2.70e-04	0	43	102	1048576	22	4107
2026-01-04 08:03:51.60	358.68	10.29	-30.1	-31.3	12.7	6.94e-05	0	43	102	1048576	21	4167
2026-01-04 08:03:52.61	358.54	10.24	-30.0	-31.1	12.8	6.40e-05	0	43	102	1048576	21	4081
2026-01-04 08:03:53.62	358.40	10.18	-30.0	-31.1	12.8	6.02e-05	0	43	102	1048576	21	4105
2026-01-04 08:03:54.62	358.26	10.13	-30.1	-31.4	12.6	6.33e-05	0	43	102	1048576	21	4191
2026-01-04 08:03:55.63	358.12	10.07	-30.3	-31.9	12.3	1.59e-04	0	43	102	1048576	21	4359
2026-01-04 08:03:56.64	357.98	10.02	-30.3	-32.1	12.1	3.00e-04	0	43	102	1048576	21	4431
2026-01-04 08:03:57.64	357.84	9.96	-30.3	-32.1	12.1	3.01e-04	0	43	102	1048576	21	4434
2026-01-04 08:03:58.64	357.71	9.91	-30.4	-32.4	11.9	3.65e-04	0	43	102	1048576	21	4525
2026-01-04 08:03:59.65	357.57	9.85	-30.4	-32.4	11.9	3.66e-04	0	43	102	1048576	21	4507
2026-01-04 08:04:00.66	357.43	9.79	-30.4	-32.3	12.0	2.52e-04	0	43	102	1048576	21	4489
2026-01-04 08:04:01.66	357.30	9.74	-30.4	-32.2	12.0	3.45e-04	0	43	102	1048576	21	4469
2026-01-04 08:04:02.67	357.16	9.68	-30.4	-32.3	11.9	3.40e-04	0	43	102	1048576	21	4476
2026-01-04 08:04:03.68	357.02	9.63	-30.5	-32.6	11.7	4.32e-04	0	43	102	1048576	21	4587
2026-01-04 08:04:04.68	356.89	9.57	-30.4	-32.5	11.8	6.29e-04	0	43	102	1048576	21	4558
2026-01-04 08:04:05.69	356.75	9.51	-30.3	-32.0	12.2	2.25e-04	0	43	102	1048576	21	4377
2026-01-04 08:04:06.70	356.62	9.46	-30.1	-31.6	12.4	1.52e-04	0	43	102	1048576	21	4264
2026-01-04 08:04:07.70	356.49	9.40	-30.1	-31.5	12.5	1.36e-04	0	43	102	1048576	21	4244
2026-01-04 08:04:08.71	356.36	9.35	-30.1	-31.6	12.4	1.54e-04	0	43	102	1048576	21	4262
2026-01-04 08:04:09.71	356.22	9.29	-30.3	-31.9	12.2	2.24e-04	0	43	102	1048576	21	4377
2026-01-04 08:04:10.71	356.09	9.24	-30.3	-32.1	12.0	2.77e-04	0	43	102	1048576	21	4429
2026-01-04 08:04:11.73	355.96	9.18	-30.4	-32.3	11.9	2.77e-04	0	43	102	1048576	21	4488
2026-01-04 08:04:12.74	355.83	9.12	-30.5	-32.7	11.6	5.12e-04	0	43	102	1048576	21	4637
2026-01-04 08:04:13.75	355.70	9.07	-30.5	-32.6	11.6	7.91e-04	0	43	102	1048576	21	4621
2026-01-04 08:04:14.76	355.57	9.01	-30.4	-32.5	11.8	5.27e-04	0	43	102	1048576	21	4548
2026-01-04 08:04:15.76	355.44	8.95	-30.5	-32.9	11.5	6.01e-04	0	43	102	1048576	21	4699
2026-01-04 08:04:16.77	355.31	8.90	-30.6	-33.0	11.4	1.09e-03	0	43	102	1048576	21	4753
2026-01-04 08:04:17.78	355.18	8.84	-30.6	-33.2	11.2	1.15e-03	0	43	102	1048576	21	4819
2026-01-04 08:04:18.78	355.06	8.79	-30.7	-33.4	11.1	1.28e-03	0	43	102	1048576	21	4897
2026-01-04 08:04:19.79	354.93	8.73	-30.8	-33.6	10.9	1.82e-03	0	43	102	1048576	21	4983
2026-01-04 08:04:20.80	354.80	8.67	-30.8	-33.5	11.0	1.70e-03	0	43	102	1048576	21	4943
2026-01-04 08:04:21.81	354.68	8.62	-30.9	-33.9	10.7	2.54e-03	0	43	102	1048576	21	5105
2026-01-04 08:04:22.81	354.55	8.56	-30.8	-33.7	10.8	2.98e-03	0	43	102	1048576	21	5026
2026-01-04 08:04:23.81	354.43	8.51	-30.7	-33.3	11.1	2.07e-03	0	43	102	1048576	21	4865
2026-01-04 08:04:24.81	354.30	8.45	-30.7	-33.4	11.0	1.68e-03	0	43	102	1048576	21	4908
2026-01-04 08:04:25.82	354.18	8.39	-30.6	-33.0	11.3	1.51e-03	0	43	102	1048576	21	4760
2026-01-04 08:04:26.83	354.06	8.34	-30.5	-32.9	11.4	1.37e-03	0	43	102	1048576	21	4705
2026-01-04 08:04:27.84	353.93	8.28	-30.5	-32.9	11.4	1.03e-03	0	43	102	1048576	21	4728
2026-01-04 08:04:28.84	353.81	8.22	-30.7	-33.3	11.1	1.35e-03	0	43	102	1048576	21	4890
2026-01-04 08:04:29.86	353.69	8.17	-30.5	-32.7	11.5	1.31e-03	0	43	102	1048576	21	4645
2026-01-04 08:04:30.86	353.57	8.11	-30.3	-32.1	11.9	6.12e-04	0	43	102	1048576	21	4453
2026-01-04 08:04:31.86	353.45	8.06	-30.3	-32.2	11.8	4.32e-04	0	43	102	1048576	21	4470
2026-01-04 08:04:32.87	353.33	8.00	-30.3	-32.1	11.9	4.05e-04	0	43	102	1048576	21	4436
2026-01-04 08:04:33.88	353.20	7.94	-30.3	-32.3	11.7	4.00e-04	0	43	102	1048576	21	4511
2026-01-04 08:04:34.89	353.08	7.89	-30.3	-32.2	11.8	5.40e-04	0	43	102	1048576	21	4481
2026-01-04 08:04:35.90	352.97	7.83	-30.6	-33.3	11.0	1.09e-03	0	43	102	1048576	21	4879
2026-01-04 08:04:36.90	352.85	7.77	-30.5	-32.9	11.3	1.80e-03	0	43	102	1048576	21	4738
2026-01-04 08:04:37.91	352.73	7.72	-30.8	-33.8	10.6	1.34e-03	0	43	102	1048576	21	5087
2026-01-04 08:04:38.92	352.61	7.66	-30.8	-33.6	10.7	3.26e-03	0	43	102	1048576	21	5023
2026-01-04 08:04:39.93	352.49	7.61	-30.7	-33.4	11.0	2.44e-03	0	43	102	1048576	21	4904
2026-01-04 08:04:40.94	352.38	7.55	-30.7	-33.5	10.9	2.03e-03	0	43	102	1048576	21	4948
2026-01-04 08:04:41.94	352.26	7.49	-30.8	-33.6	10.7	2.67e-03	0	43	102	1048576	21	5016
2026-01-04 08:04:42.95	352.14	7.44	-30.9	-34.1	10.4	3.11e-03	0	43	102	1048576	21	5192
2026-01-04 08:04:43.96	352.03	7.38	-30.7	-33.6	10.8	3.27e-03	0	43	102	1048576	21	4998
2026-01-04 08:04:44.97	351.91	7.32	-30.6	-33.2	11.0	1.97e-03	0	43	102	1048576	21	4838
2026-01-04 08:04:45.98	351.80	7.27	-30.6	-33.1	11.1	2.30e-03	0	43	102	1048576	21	4813
2026-01-04 08:04:46.99	351.68	7.21	-30.5	-32.7	11.3	1.23e-03	0	43	102	1048576	21	4671
2026-01-04 08:04:47.99	351.57	7.16	-30.5	-32.9	11.2	9.23e-04	0	43	102	1048576	21	4758
2026-01-04 08:04:49.00	351.46	7.10	-30.4	-32.4	11.5	7.24e-04	0	43	102	1048576	21	4557
2026-01-04 08:04:50.01	351.34	7.04	-33.2	-45.5	3.8	1.12e+00	0	43	104	1048576	26	14866
2026-01-04 08:04:51.02	351.23	6.99	-33.5	-45.7	3.8	1.49e+00	0	43	104	1048576	27	14612
2026-01-04 08:04:52.02	351.12	6.93	-33.7	-46.1	3.8	1.49e+00	0	43	104	1048576	27	14951

#Closed at: 2026-01-04 08:04:52
#Recorded file [1 MB]: D:/data/31010_260104_105614.dat