passes_logs/2026/01/04/R2M6_AANII_01/R2M6_AANII_01__20260104_111415_SUOMI_NPP_rec.log

#Pass ID: 20260104_111415_SUOMI NPP
#Satellite: SUOMI NPP
#Configuration: NPP
#almurnet v.1.7.20240730
#Start time: 2026-01-04 11:14:15

#Version: 2.2.20231116
#Station: R2M6_AANII_01
#Location: 30.233357 lon 59.946436 lat
#TLE: 1 37849U 11061A   26001.07732418  .00000182  00000+0  10735-3 0  9990
#TLE: 2 37849  98.7795 303.2470 0002580  87.2016 272.9455 14.19520779734739

#Time	Az	El	Level	Level2	SNR	BER	BlckErr	Temp	State	Recorded	gain1	gain2
2026-01-04 11:14:15.77	186.99	6.99	-31.0	-33.9	5.3	1.23e+00	0	40	0	0	23	5010
2026-01-04 11:14:16.78	187.05	7.06	-31.5	-36.0	4.9	1.29e+00	0	41	104	0	23	6005
2026-01-04 11:14:17.78	187.10	7.14	-31.4	-35.2	8.4	7.25e-02	0	41	0	0	23	5597
2026-01-04 11:14:18.79	187.15	7.21	-31.4	-35.1	8.5	4.29e-02	0	41	102	1048576	23	5557
2026-01-04 11:14:19.79	187.21	7.28	-31.6	-36.3	7.6	7.46e-02	0	41	102	1048576	23	6157
2026-01-04 11:14:20.80	187.26	7.36	-31.6	-36.0	7.8	1.10e-01	0	41	102	1048576	23	6012
2026-01-04 11:14:21.81	187.31	7.43	-31.3	-35.0	8.6	6.14e-02	0	41	102	1048576	23	5459
2026-01-04 11:14:22.82	187.37	7.51	-31.1	-34.2	9.3	2.31e-02	0	41	102	1048576	23	5110
2026-01-04 11:14:23.82	187.42	7.59	-31.0	-33.5	9.8	1.54e-02	0	41	102	1048576	23	4843
2026-01-04 11:14:24.83	187.48	7.66	-30.8	-33.0	10.2	8.55e-03	0	41	102	1048576	23	4646
2026-01-04 11:14:25.83	187.53	7.74	-30.8	-33.4	10.3	5.81e-03	0	41	102	1048576	22	4848
2026-01-04 11:14:26.83	187.59	7.81	-30.8	-33.6	10.1	5.91e-03	0	41	102	1048576	22	4927
2026-01-04 11:14:27.84	187.64	7.89	-30.8	-33.6	10.1	7.02e-03	0	41	102	1048576	22	4926
2026-01-04 11:14:28.85	187.70	7.96	-30.8	-33.5	10.2	6.20e-03	0	41	102	1048576	22	4896
2026-01-04 11:14:29.85	187.76	8.04	-30.9	-33.7	10.1	7.91e-03	0	41	102	1048576	22	4998
2026-01-04 11:14:30.86	187.81	8.12	-30.9	-33.7	10.1	7.11e-03	0	41	102	1048576	22	4973
2026-01-04 11:14:31.87	187.87	8.20	-30.9	-33.9	9.9	7.11e-03	0	41	102	1048576	22	5042
2026-01-04 11:14:32.88	187.93	8.27	-30.9	-33.8	10.0	8.05e-03	0	41	102	1048576	22	5015
2026-01-04 11:14:33.88	187.98	8.35	-31.0	-34.0	9.9	8.04e-03	0	41	102	1048576	22	5104
2026-01-04 11:14:34.89	188.04	8.43	-31.0	-34.2	9.7	1.25e-02	0	41	102	1048576	22	5182
2026-01-04 11:14:35.90	188.10	8.51	-31.0	-34.1	9.8	9.31e-03	0	41	102	1048576	22	5143
2026-01-04 11:14:36.91	188.16	8.58	-31.2	-34.9	9.2	1.30e-02	0	41	102	1048576	22	5490
2026-01-04 11:14:37.91	188.22	8.66	-31.1	-34.6	9.5	2.14e-02	0	41	102	1048576	22	5339
2026-01-04 11:14:38.92	188.28	8.74	-31.0	-34.1	9.8	9.62e-03	0	41	102	1048576	22	5145
2026-01-04 11:14:39.92	188.33	8.82	-30.9	-33.8	10.0	7.58e-03	0	41	102	1048576	22	5014
2026-01-04 11:14:40.92	188.39	8.90	-30.8	-33.5	10.3	6.49e-03	0	41	102	1048576	22	4899
2026-01-04 11:14:41.93	188.45	8.98	-30.9	-33.6	10.3	5.26e-03	0	41	102	1048576	22	4911
2026-01-04 11:14:42.94	188.51	9.06	-30.9	-33.6	10.2	6.35e-03	0	41	102	1048576	22	4936
2026-01-04 11:14:43.95	188.57	9.14	-30.9	-33.8	10.1	4.97e-03	0	41	102	1048576	22	4985
2026-01-04 11:14:44.96	188.63	9.22	-30.9	-33.7	10.2	6.36e-03	0	41	102	1048576	22	4955
2026-01-04 11:14:45.96	188.70	9.30	-31.0	-33.9	10.1	8.36e-03	0	42	102	1048576	22	5028
2026-01-04 11:14:46.97	188.76	9.38	-30.9	-33.8	10.2	5.98e-03	0	41	102	1048576	22	4987
2026-01-04 11:14:47.98	188.82	9.46	-30.9	-33.7	10.2	6.49e-03	0	42	102	1048576	22	4971
2026-01-04 11:14:48.99	188.88	9.54	-31.0	-33.8	10.2	5.60e-03	0	41	102	1048576	22	4997
2026-01-04 11:14:49.99	188.94	9.62	-30.9	-33.7	10.3	5.28e-03	0	41	102	1048576	22	4928
2026-01-04 11:14:51.00	189.01	9.70	-31.1	-34.2	9.9	6.90e-03	0	42	102	1048576	22	5156
2026-01-04 11:14:52.01	189.07	9.78	-31.0	-34.0	10.1	6.66e-03	0	42	102	1048576	22	5057
2026-01-04 11:14:53.01	189.13	9.87	-31.0	-33.8	10.2	6.52e-03	0	42	102	1048576	22	5000
2026-01-04 11:14:54.02	189.20	9.95	-31.0	-34.0	10.1	6.00e-03	0	42	102	1048576	22	5080
2026-01-04 11:14:55.03	189.26	10.03	-31.2	-34.7	9.5	1.23e-02	0	42	102	1048576	22	5385
2026-01-04 11:14:56.04	189.32	10.11	-31.0	-33.7	10.3	8.98e-03	0	42	102	1048576	22	4959
2026-01-04 11:14:57.04	189.39	10.20	-31.1	-34.2	9.9	6.44e-03	0	42	102	1048576	22	5156
2026-01-04 11:14:58.05	189.45	10.28	-31.0	-33.9	10.1	8.22e-03	0	42	102	1048576	22	5024
2026-01-04 11:14:59.06	189.52	10.36	-30.9	-33.6	10.4	4.79e-03	0	42	102	1048576	22	4911
2026-01-04 11:15:00.06	189.58	10.45	-31.0	-33.7	10.4	4.18e-03	0	42	102	1048576	22	4923
2026-01-04 11:15:01.07	189.65	10.53	-30.8	-33.3	10.6	4.84e-03	0	42	102	1048576	22	4772
2026-01-04 11:15:02.08	189.72	10.61	-30.9	-33.4	10.5	3.23e-03	0	42	102	1048576	22	4827
2026-01-04 11:15:03.09	189.78	10.70	-30.8	-33.3	10.6	3.45e-03	0	42	102	1048576	22	4789
2026-01-04 11:15:04.09	189.85	10.78	-30.9	-33.7	10.3	3.91e-03	0	42	102	1048576	22	4936
2026-01-04 11:15:05.10	189.92	10.87	-31.1	-34.4	9.8	8.84e-03	0	42	102	1048576	22	5210
2026-01-04 11:15:06.10	189.99	10.95	-30.9	-33.4	10.6	5.65e-03	0	42	102	1048576	22	4799
2026-01-04 11:15:07.11	190.05	11.04	-30.7	-32.8	11.0	2.72e-03	0	42	102	1048576	22	4598
2026-01-04 11:15:08.12	190.12	11.12	-30.6	-32.4	11.4	1.52e-03	0	42	102	1048576	22	4454
2026-01-04 11:15:09.12	190.19	11.21	-30.5	-32.0	11.7	7.65e-04	0	42	102	1048576	22	4301
2026-01-04 11:15:10.14	190.26	11.30	-30.4	-32.0	11.7	5.18e-04	0	42	102	1048576	22	4292
2026-01-04 11:15:11.14	190.33	11.38	-30.5	-32.1	11.7	5.14e-04	0	42	102	1048576	22	4337
2026-01-04 11:15:12.15	190.40	11.47	-30.4	-31.9	11.8	4.23e-04	0	42	102	1048576	22	4262
2026-01-04 11:15:13.16	190.47	11.56	-30.4	-31.9	11.8	4.62e-04	0	42	102	1048576	22	4276
2026-01-04 11:15:14.16	190.54	11.64	-30.3	-31.7	12.0	3.91e-04	0	42	102	1048576	22	4187
2026-01-04 11:15:15.17	190.62	11.73	-30.2	-31.8	12.2	2.23e-04	0	42	102	1048576	21	4303
2026-01-04 11:15:16.18	190.69	11.82	-30.1	-31.6	12.4	1.72e-04	0	42	102	1048576	21	4246
2026-01-04 11:15:17.18	190.76	11.91	-30.1	-31.4	12.5	1.46e-04	0	42	102	1048576	21	4199
2026-01-04 11:15:18.19	190.83	11.99	-30.1	-31.4	12.5	1.67e-04	0	42	102	1048576	21	4190
2026-01-04 11:15:19.20	190.91	12.08	-30.0	-31.2	12.6	7.47e-05	0	42	102	1048576	21	4124
2026-01-04 11:15:20.21	190.98	12.17	-30.1	-31.4	12.5	9.91e-05	0	42	102	1048576	21	4198
2026-01-04 11:15:21.21	191.05	12.26	-30.1	-31.5	12.5	1.24e-04	0	42	102	1048576	21	4219
2026-01-04 11:15:22.22	191.13	12.35	-30.3	-31.9	12.1	1.82e-04	0	42	102	1048576	21	4350
2026-01-04 11:15:23.22	191.20	12.44	-30.0	-31.2	12.6	1.30e-04	0	42	102	1048576	21	4133
2026-01-04 11:15:24.23	191.28	12.53	-30.0	-31.2	12.7	6.25e-05	0	42	102	1048576	21	4123
2026-01-04 11:15:25.24	191.35	12.62	-30.0	-31.0	12.9	6.48e-05	0	42	102	1048576	21	4047
2026-01-04 11:15:26.25	191.43	12.71	-30.1	-31.3	12.7	9.68e-05	0	42	102	1048576	21	4142
2026-01-04 11:15:27.25	191.50	12.80	-30.1	-31.5	12.5	7.62e-05	0	42	102	1048576	21	4198
2026-01-04 11:15:28.26	191.58	12.89	-30.1	-31.5	12.5	1.30e-04	0	42	102	1048576	21	4210
2026-01-04 11:15:29.26	191.66	12.99	-30.2	-31.6	12.5	9.46e-05	0	42	102	1048576	21	4229
2026-01-04 11:15:30.27	191.74	13.08	-30.0	-31.2	12.8	8.16e-05	0	42	102	1048576	21	4099
2026-01-04 11:15:31.27	191.81	13.17	-30.1	-31.3	12.7	9.23e-05	0	42	102	1048576	21	4130
2026-01-04 11:15:32.28	191.89	13.26	-30.2	-31.5	12.6	9.91e-05	0	42	102	1048576	21	4205
2026-01-04 11:15:33.29	191.97	13.36	-30.1	-31.2	12.8	9.23e-05	0	42	102	1048576	21	4121
2026-01-04 11:15:34.30	192.05	13.45	-30.1	-31.5	12.6	7.24e-05	0	42	102	1048576	21	4198
2026-01-04 11:15:35.30	192.13	13.54	-30.1	-31.5	12.6	1.17e-04	0	42	102	1048576	21	4196
2026-01-04 11:15:36.32	192.21	13.64	-30.1	-31.2	12.8	7.47e-05	0	42	102	1048576	21	4117
2026-01-04 11:15:37.32	192.30	13.73	-30.0	-31.1	12.9	5.34e-05	0	42	102	1048576	21	4075
2026-01-04 11:15:38.33	192.38	13.82	-30.0	-31.0	12.9	5.49e-05	0	43	102	1048576	21	4057
2026-01-04 11:15:39.33	192.46	13.92	-30.1	-31.4	12.6	8.62e-05	0	42	102	1048576	21	4179
2026-01-04 11:15:40.34	192.54	14.01	-30.0	-30.9	13.0	5.95e-05	0	43	102	1048576	21	4025
2026-01-04 11:15:41.33	192.62	14.11	-29.9	-30.7	13.1	2.05e-05	0	43	102	1048576	21	3969
2026-01-04 11:15:42.34	192.71	14.20	-29.8	-30.6	13.2	2.13e-05	0	42	102	1048576	21	3921
2026-01-04 11:15:43.35	192.79	14.30	-29.8	-30.9	13.3	2.59e-05	0	42	102	1048576	20	4104
2026-01-04 11:15:44.36	192.88	14.40	-29.8	-30.9	13.3	1.52e-05	0	42	102	1048576	20	4102
2026-01-04 11:15:45.37	192.96	14.49	-29.7	-30.8	13.4	1.06e-05	0	43	102	1048576	20	4071
2026-01-04 11:15:46.37	193.05	14.59	-29.7	-30.8	13.4	1.14e-05	0	42	102	1048576	20	4070
2026-01-04 11:15:47.38	193.13	14.69	-29.7	-30.8	13.4	1.83e-05	0	42	102	1048576	20	4083
2026-01-04 11:15:48.39	193.22	14.78	-29.7	-30.8	13.4	1.52e-05	0	42	102	1048576	20	4082
2026-01-04 11:15:49.39	193.31	14.88	-29.7	-30.8	13.4	2.36e-05	0	42	102	1048576	20	4071
2026-01-04 11:15:50.40	193.40	14.98	-29.7	-30.6	13.5	1.37e-05	0	42	102	1048576	20	4018
2026-01-04 11:15:51.41	193.49	15.08	-29.7	-30.6	13.6	2.20e-06	0	42	102	1048576	20	4004
2026-01-04 11:15:52.42	193.58	15.18	-29.7	-30.8	13.5	1.22e-05	0	43	102	1048576	20	4057
2026-01-04 11:15:53.42	193.66	15.28	-29.7	-30.6	13.6	3.80e-06	0	42	102	1048576	20	3998
2026-01-04 11:15:54.43	193.76	15.38	-29.7	-30.6	13.6	1.37e-05	0	42	102	1048576	20	4018
2026-01-04 11:15:55.44	193.85	15.48	-29.5	-30.2	13.9	8.30e-06	0	42	102	1048576	20	3898
2026-01-04 11:15:56.44	193.94	15.58	-29.6	-30.4	13.7	3.80e-06	0	43	102	1048576	20	3964
2026-01-04 11:15:57.45	194.03	15.68	-29.6	-30.5	13.7	9.10e-06	0	43	102	1048576	20	3971
2026-01-04 11:15:58.46	194.12	15.78	-29.5	-30.2	13.9	4.50e-06	0	43	102	1048576	20	3898
2026-01-04 11:15:59.46	194.22	15.88	-29.5	-30.1	14.0	6.80e-06	0	43	102	1048576	20	3852
2026-01-04 11:16:00.46	194.31	15.98	-29.6	-30.3	13.8	3.80e-06	0	42	102	1048576	20	3928
2026-01-04 11:16:01.47	194.40	16.08	-29.5	-30.1	14.0	1.50e-06	0	43	102	1048576	20	3873
2026-01-04 11:16:02.47	194.50	16.19	-29.4	-30.0	14.0	2.20e-06	0	42	102	1048576	20	3830
2026-01-04 11:16:03.49	194.59	16.29	-29.7	-30.7	13.6	2.20e-06	0	43	102	1048576	20	4045
2026-01-04 11:16:04.49	194.69	16.39	-29.8	-30.8	13.5	1.37e-05	0	42	102	1048576	20	4067
2026-01-04 11:16:05.50	194.79	16.50	-29.4	-29.8	14.2	1.50e-06	0	43	102	1048576	20	3780
2026-01-04 11:16:06.50	194.88	16.60	-29.5	-30.2	14.0	2.20e-06	0	43	102	1048576	20	3893
2026-01-04 11:16:07.51	194.98	16.70	-29.5	-30.1	14.1	2.20e-06	0	43	102	1048576	20	3852
2026-01-04 11:16:08.52	195.08	16.81	-29.6	-30.3	13.9	0.00e+00	0	42	102	1048576	20	3901
2026-01-04 11:16:09.52	195.18	16.91	-29.7	-30.5	13.8	5.30e-06	0	43	102	1048576	20	3977
2026-01-04 11:16:10.53	195.28	17.02	-29.7	-30.6	13.7	6.10e-06	0	43	102	1048576	20	3989
2026-01-04 11:16:11.54	195.38	17.12	-29.7	-30.7	13.7	2.20e-06	0	43	102	1048576	20	4030
2026-01-04 11:16:12.55	195.48	17.23	-29.8	-30.9	13.6	8.30e-06	0	43	102	1048576	20	4077
2026-01-04 11:16:13.56	195.59	17.34	-29.8	-31.0	13.5	6.80e-06	0	43	102	1048576	20	4099
2026-01-04 11:16:14.56	195.69	17.44	-29.9	-31.2	13.4	1.44e-05	0	43	102	1048576	20	4161
2026-01-04 11:16:15.57	195.79	17.55	-29.9	-31.0	13.4	1.75e-05	0	43	102	1048576	20	4120
2026-01-04 11:16:16.57	195.90	17.66	-29.9	-31.2	13.4	1.75e-05	0	43	102	1048576	20	4170
2026-01-04 11:16:17.58	196.00	17.77	-30.0	-31.5	13.2	2.89e-05	0	43	102	1048576	20	4253
2026-01-04 11:16:18.59	196.11	17.88	-30.1	-31.7	13.0	4.04e-05	0	43	102	1048576	20	4332
2026-01-04 11:16:19.60	196.22	17.98	-30.1	-31.7	13.0	4.04e-05	0	43	102	1048576	20	4332
2026-01-04 11:16:20.60	196.32	18.09	-30.1	-31.6	13.1	3.96e-05	0	43	102	1048576	20	4299
2026-01-04 11:16:21.60	196.43	18.20	-30.2	-31.9	12.9	3.73e-05	0	43	102	1048576	20	4378
2026-01-04 11:16:22.61	196.54	18.31	-30.2	-32.0	12.8	4.88e-05	0	43	102	1048576	20	4433
2026-01-04 11:16:23.61	196.65	18.42	-30.1	-31.7	13.1	3.50e-05	0	43	102	1048576	20	4328
2026-01-04 11:16:24.62	196.76	18.53	-30.2	-32.0	12.9	3.35e-05	0	43	102	1048576	20	4415
2026-01-04 11:16:25.63	196.87	18.64	-30.3	-32.2	12.8	7.01e-05	0	43	102	1048576	20	4476
2026-01-04 11:16:26.64	196.98	18.76	-30.3	-32.1	12.8	7.01e-05	0	43	102	1048576	20	4446
2026-01-04 11:16:27.64	197.09	18.87	-30.2	-32.0	12.9	4.04e-05	0	43	102	1048576	20	4433
2026-01-04 11:16:28.65	197.21	18.98	-30.3	-32.1	12.8	5.56e-05	0	43	102	1048576	20	4456
2026-01-04 11:16:29.65	197.32	19.09	-30.1	-31.8	13.1	5.56e-05	0	43	102	1048576	20	4348
2026-01-04 11:16:30.66	197.44	19.21	-30.1	-31.7	13.0	2.74e-05	0	43	102	1048576	20	4336
2026-01-04 11:16:31.67	197.55	19.32	-30.2	-31.8	13.1	3.89e-05	0	43	102	1048576	20	4341
2026-01-04 11:16:32.67	197.67	19.43	-30.0	-31.4	13.3	2.67e-05	0	43	102	1048576	20	4234
2026-01-04 11:16:33.68	197.79	19.55	-30.1	-31.7	13.1	2.67e-05	0	43	102	1048576	20	4315
2026-01-04 11:16:34.69	197.91	19.66	-30.0	-31.3	13.4	9.10e-06	0	43	102	1048576	20	4190
2026-01-04 11:16:35.70	198.03	19.78	-30.2	-31.8	13.0	1.98e-05	0	43	102	1048576	20	4365
2026-01-04 11:16:36.70	198.15	19.89	-30.1	-31.7	13.1	2.51e-05	0	43	102	1048576	20	4329
2026-01-04 11:16:37.71	198.27	20.01	-30.4	-32.4	12.7	5.41e-05	0	43	102	1048576	20	4558
2026-01-04 11:16:38.72	198.39	20.13	-30.4	-32.4	12.7	6.48e-05	0	43	102	1048576	20	4551
2026-01-04 11:16:39.73	198.51	20.24	-30.4	-32.5	12.7	5.72e-05	0	43	102	1048576	20	4585
2026-01-04 11:16:40.73	198.64	20.36	-30.5	-32.2	12.5	1.19e-04	0	43	102	1048576	21	4376
2026-01-04 11:16:41.74	198.76	20.48	-30.4	-32.1	12.6	1.06e-04	0	43	102	1048576	21	4354
2026-01-04 11:16:42.75	198.89	20.60	-30.5	-32.2	12.5	1.07e-04	0	43	102	1048576	21	4374
2026-01-04 11:16:43.76	199.02	20.72	-30.4	-31.9	12.7	1.50e-04	0	43	102	1048576	21	4293
2026-01-04 11:16:44.76	199.14	20.83	-30.5	-32.3	12.5	1.40e-04	0	43	102	1048576	21	4407
2026-01-04 11:16:45.76	199.27	20.95	-30.4	-31.9	12.8	1.32e-04	0	43	102	1048576	21	4296
2026-01-04 11:16:46.77	199.40	21.07	-30.4	-32.0	12.7	6.40e-05	0	43	102	1048576	21	4327
2026-01-04 11:16:47.78	199.53	21.19	-30.3	-31.7	12.9	6.17e-05	0	43	102	1048576	21	4208
2026-01-04 11:16:48.78	199.66	21.31	-30.1	-31.2	13.2	2.36e-05	0	43	102	1048576	21	4072
2026-01-04 11:16:49.79	199.79	21.43	-30.4	-31.9	12.7	2.89e-05	0	43	102	1048576	21	4284
2026-01-04 11:16:50.80	199.93	21.56	-30.3	-31.6	12.9	3.89e-05	0	43	102	1048576	21	4196
2026-01-04 11:16:51.81	200.06	21.68	-30.1	-31.2	13.2	1.75e-05	0	43	102	1048576	21	4065
2026-01-04 11:16:52.81	200.20	21.80	-30.3	-31.7	12.9	2.97e-05	0	43	102	1048576	21	4216
2026-01-04 11:16:53.82	200.33	21.92	-30.2	-31.4	13.1	4.11e-05	0	43	102	1048576	21	4120
2026-01-04 11:16:54.83	200.47	22.05	-30.1	-31.0	13.3	2.74e-05	0	43	102	1048576	21	4023
2026-01-04 11:16:55.84	200.61	22.17	-30.1	-31.0	13.3	1.90e-05	0	43	102	1048576	21	4023
2026-01-04 11:16:56.84	200.75	22.30	-30.2	-31.5	13.0	2.89e-05	0	43	102	1048576	21	4161
2026-01-04 11:16:57.85	200.89	22.42	-30.2	-31.3	13.1	3.12e-05	0	43	102	1048576	21	4102
2026-01-04 11:16:58.85	201.03	22.54	-30.3	-31.6	13.0	2.74e-05	0	43	102	1048576	21	4204
2026-01-04 11:16:59.86	201.18	22.67	-30.2	-31.5	13.1	5.49e-05	0	43	102	1048576	21	4150
2026-01-04 11:17:00.87	201.32	22.80	-30.2	-31.5	13.0	4.34e-05	0	43	102	1048576	21	4152
2026-01-04 11:17:01.88	201.47	22.92	-30.4	-31.8	12.9	4.65e-05	0	43	102	1048576	21	4259
2026-01-04 11:17:02.89	201.61	23.05	-30.2	-31.4	13.2	3.50e-05	0	43	102	1048576	21	4125
2026-01-04 11:17:03.90	201.76	23.18	-30.3	-31.5	13.1	2.67e-05	0	43	102	1048576	21	4164
2026-01-04 11:17:04.90	201.91	23.31	-30.3	-31.7	12.9	2.44e-05	0	43	102	1048576	21	4232
2026-01-04 11:17:05.91	202.06	23.43	-30.3	-31.6	13.0	3.43e-05	0	43	102	1048576	21	4192
2026-01-04 11:17:06.92	202.21	23.56	-30.1	-31.2	13.3	2.59e-05	0	43	102	1048576	21	4069
2026-01-04 11:17:07.93	202.37	23.69	-30.5	-32.1	12.7	3.89e-05	0	43	102	1048576	21	4345
2026-01-04 11:17:08.93	202.52	23.82	-30.3	-31.7	13.0	5.49e-05	0	43	102	1048576	21	4229
2026-01-04 11:17:09.94	202.67	23.95	-30.2	-31.4	13.1	2.13e-05	0	43	102	1048576	21	4137
2026-01-04 11:17:10.94	202.83	24.08	-30.3	-31.6	13.0	3.05e-05	0	43	102	1048576	21	4196
2026-01-04 11:17:11.94	202.99	24.21	-30.2	-31.3	13.3	3.89e-05	0	43	102	1048576	21	4083
2026-01-04 11:17:12.95	203.14	24.34	-30.2	-31.4	13.2	1.83e-05	0	43	102	1048576	21	4125
2026-01-04 11:17:13.95	203.30	24.47	-30.2	-31.3	13.2	2.05e-05	0	43	102	1048576	21	4094
2026-01-04 11:17:14.97	203.47	24.61	-30.4	-31.8	13.0	2.05e-05	0	43	102	1048576	21	4229
2026-01-04 11:17:15.97	203.63	24.74	-30.4	-31.8	12.9	2.51e-05	0	43	102	1048576	21	4245
2026-01-04 11:17:16.98	203.79	24.87	-30.3	-31.6	13.1	3.35e-05	0	43	102	1048576	21	4171
2026-01-04 11:17:17.98	203.96	25.00	-30.3	-31.6	13.1	4.19e-05	0	43	102	1048576	21	4193
2026-01-04 11:17:18.99	204.12	25.14	-30.4	-31.8	12.9	4.19e-05	0	43	102	1048576	21	4236
2026-01-04 11:17:19.99	204.29	25.27	-30.4	-32.0	12.8	4.19e-05	0	43	102	1048576	21	4291
2026-01-04 11:17:21.00	204.46	25.41	-30.4	-31.8	12.9	3.28e-05	0	43	102	1048576	21	4247
2026-01-04 11:17:22.00	204.63	25.54	-30.3	-31.6	13.1	2.74e-05	0	43	102	1048576	21	4173
2026-01-04 11:17:23.01	204.80	25.68	-30.3	-31.6	13.1	4.11e-05	0	43	102	1048576	21	4187
2026-01-04 11:17:24.01	204.98	25.81	-30.0	-30.9	13.6	2.44e-05	0	43	102	1048576	21	3956
2026-01-04 11:17:25.02	205.15	25.95	-30.0	-30.9	13.6	6.10e-06	0	43	102	1048576	21	3960
2026-01-04 11:17:26.03	205.33	26.09	-30.0	-30.7	13.7	3.80e-06	0	43	102	1048576	21	3925
2026-01-04 11:17:27.03	205.51	26.22	-30.0	-30.8	13.6	5.30e-06	0	43	102	1048576	21	3947
2026-01-04 11:17:28.04	205.69	26.36	-30.2	-31.2	13.4	1.37e-05	0	43	102	1048576	21	4056
2026-01-04 11:17:29.04	205.87	26.50	-30.2	-31.2	13.3	1.75e-05	0	43	102	1048576	21	4060
2026-01-04 11:17:30.05	206.05	26.64	-30.3	-31.5	13.2	1.67e-05	0	43	102	1048576	21	4156
2026-01-04 11:17:31.05	206.23	26.77	-30.3	-31.5	13.2	2.36e-05	0	43	102	1048576	21	4135
2026-01-04 11:17:32.05	206.42	26.91	-30.1	-31.1	13.4	2.21e-05	0	43	102	1048576	21	4027
2026-01-04 11:17:33.06	206.61	27.05	-30.2	-31.2	13.4	1.52e-05	0	43	102	1048576	21	4043
2026-01-04 11:17:34.06	206.79	27.19	-30.2	-31.3	13.3	1.75e-05	0	43	102	1048576	21	4076
2026-01-04 11:17:35.06	206.98	27.33	-30.1	-31.0	13.5	1.06e-05	0	43	102	1048576	21	4007
2026-01-04 11:17:36.07	207.18	27.47	-30.1	-31.0	13.6	1.37e-05	0	43	102	1048576	21	3996
2026-01-04 11:17:37.08	207.37	27.61	-30.2	-31.4	13.3	1.37e-05	0	43	102	1048576	21	4099
2026-01-04 11:17:38.08	207.56	27.75	-30.3	-31.6	13.2	1.14e-05	0	43	102	1048576	21	4162
2026-01-04 11:17:39.08	207.76	27.90	-30.4	-31.9	13.0	4.11e-05	0	43	102	1048576	21	4264
2026-01-04 11:17:40.09	207.96	28.04	-30.5	-32.1	12.8	4.34e-05	0	43	102	1048576	21	4335
2026-01-04 11:17:41.10	208.16	28.18	-30.6	-32.5	12.6	1.27e-04	0	43	102	1048576	21	4447
2026-01-04 11:17:42.10	208.36	28.32	-30.9	-33.2	12.1	1.70e-04	0	43	102	1048576	21	4707
2026-01-04 11:17:43.11	208.57	28.47	-31.0	-33.1	11.9	4.81e-04	0	43	102	1048576	22	4560
2026-01-04 11:17:44.11	208.77	28.61	-31.3	-34.0	11.3	8.54e-04	0	43	102	1048576	22	4887
2026-01-04 11:17:45.11	208.98	28.75	-31.3	-33.8	11.4	1.38e-03	0	43	102	1048576	22	4812
2026-01-04 11:17:46.12	209.19	28.90	-31.4	-34.2	11.0	1.82e-03	0	43	102	1048576	22	4993
2026-01-04 11:17:47.13	209.40	29.04	-31.7	-34.7	10.3	2.36e-03	0	43	102	1048576	23	5082
2026-01-04 11:17:48.13	209.61	29.19	-31.7	-34.6	10.5	3.86e-03	0	43	102	1048576	23	5030
2026-01-04 11:17:49.14	209.83	29.33	-31.8	-35.0	10.1	5.80e-03	0	43	102	1048576	23	5230
2026-01-04 11:17:50.15	210.05	29.48	-31.6	-34.5	10.5	5.74e-03	0	43	102	1048576	23	4990
2026-01-04 11:17:51.16	210.27	29.63	-31.5	-34.2	10.7	2.93e-03	0	43	102	1048576	23	4872
2026-01-04 11:17:52.16	210.49	29.77	-31.6	-34.2	10.7	3.25e-03	0	43	102	1048576	23	4892
2026-01-04 11:17:53.17	210.71	29.92	-31.7	-34.6	10.4	2.58e-03	0	43	102	1048576	23	5057
2026-01-04 11:17:54.17	210.94	30.06	-31.7	-34.8	10.5	3.85e-03	0	43	102	1048576	23	5107
2026-01-04 11:17:55.17	211.16	30.21	-31.6	-34.4	10.6	3.15e-03	0	43	102	1048576	23	4954
2026-01-04 11:17:56.18	211.39	30.36	-31.7	-34.6	10.5	2.72e-03	0	43	102	1048576	23	5032
2026-01-04 11:17:57.19	211.62	30.51	-31.7	-34.6	10.5	3.28e-03	0	43	102	1048576	23	5038
2026-01-04 11:17:58.19	211.85	30.65	-31.4	-33.6	11.2	2.16e-03	0	43	102	1048576	23	4641
2026-01-04 11:17:59.20	212.09	30.80	-31.0	-32.6	11.9	4.42e-04	0	43	102	1048576	23	4310
2026-01-04 11:18:00.20	212.33	30.95	-31.0	-32.4	12.0	3.40e-04	0	43	102	1048576	23	4240
2026-01-04 11:18:01.21	212.57	31.10	-30.9	-32.1	12.3	2.96e-04	0	43	102	1048576	23	4161
2026-01-04 11:18:02.21	212.81	31.25	-30.9	-32.2	12.1	1.76e-04	0	43	102	1048576	23	4180
2026-01-04 11:18:03.22	213.05	31.40	-31.0	-32.5	12.1	2.37e-04	0	43	102	1048576	23	4258
2026-01-04 11:18:04.23	213.30	31.55	-31.1	-32.6	11.9	3.94e-04	0	43	102	1048576	23	4312
2026-01-04 11:18:05.24	213.55	31.70	-31.3	-33.5	11.3	9.18e-04	0	43	102	1048576	23	4610
2026-01-04 11:18:06.24	213.80	31.84	-31.5	-34.1	10.9	1.29e-03	0	43	102	1048576	23	4844
2026-01-04 11:18:07.25	214.05	32.00	-31.7	-34.8	10.3	3.78e-03	0	43	102	1048576	23	5123
2026-01-04 11:18:08.25	214.30	32.14	-31.7	-34.7	10.5	3.41e-03	0	43	102	1048576	23	5062
2026-01-04 11:18:09.26	214.56	32.29	-31.4	-33.5	11.3	2.24e-03	0	43	102	1048576	23	4603
2026-01-04 11:18:10.27	214.82	32.45	-31.2	-33.1	11.6	9.92e-04	0	43	102	1048576	23	4472
2026-01-04 11:18:11.28	215.09	32.60	-31.2	-32.8	11.8	5.16e-04	0	43	102	1048576	23	4378
2026-01-04 11:18:12.28	215.35	32.75	-31.0	-32.5	12.1	4.18e-04	0	43	102	1048576	23	4257
2026-01-04 11:18:13.29	215.62	32.90	-31.1	-32.7	12.0	3.68e-04	0	43	102	1048576	23	4318
2026-01-04 11:18:14.30	215.89	33.05	-31.0	-32.5	12.1	3.04e-04	0	43	102	1048576	23	4257
2026-01-04 11:18:15.30	216.16	33.20	-31.1	-32.9	11.8	4.65e-04	0	43	102	1048576	23	4390
2026-01-04 11:18:16.31	216.43	33.35	-30.9	-32.2	12.2	2.77e-04	0	43	102	1048576	23	4183
2026-01-04 11:18:17.32	216.71	33.50	-31.2	-32.9	11.8	3.22e-04	0	43	102	1048576	23	4399
2026-01-04 11:18:18.33	216.99	33.65	-31.0	-32.5	12.1	4.16e-04	0	43	102	1048576	23	4265
2026-01-04 11:18:19.33	217.27	33.80	-31.3	-33.2	11.6	4.28e-04	0	43	102	1048576	23	4486
2026-01-04 11:18:20.34	217.56	33.95	-31.5	-33.9	11.1	1.09e-03	0	43	102	1048576	23	4743
2026-01-04 11:18:21.35	217.85	34.10	-31.9	-35.2	10.2	5.64e-03	0	43	102	1048576	23	5267
2026-01-04 11:18:22.36	218.14	34.25	-31.9	-35.2	10.2	6.07e-03	0	43	102	1048576	23	5262
2026-01-04 11:18:23.36	218.43	34.40	-31.9	-35.2	10.2	5.71e-03	0	43	102	1048576	23	5263
2026-01-04 11:18:24.37	218.72	34.55	-31.6	-34.2	10.9	2.41e-03	0	43	102	1048576	23	4867
2026-01-04 11:18:25.38	219.02	34.71	-31.2	-32.9	11.8	9.39e-04	0	43	102	1048576	23	4392
2026-01-04 11:18:26.39	219.33	34.86	-31.0	-32.3	12.2	3.48e-04	0	43	102	1048576	23	4212
2026-01-04 11:18:27.39	219.63	35.00	-31.0	-32.9	12.1	1.56e-04	0	43	102	1048576	22	4474
2026-01-04 11:18:28.40	219.93	35.16	-31.3	-33.8	11.4	6.97e-04	0	43	102	1048576	22	4806
2026-01-04 11:18:29.41	220.24	35.31	-31.6	-34.1	11.0	1.84e-03	0	43	102	1048576	23	4817
2026-01-04 11:18:30.41	220.55	35.45	-31.6	-34.4	10.8	2.35e-03	0	43	102	1048576	23	4940
2026-01-04 11:18:31.42	220.87	35.60	-31.6	-34.3	10.8	2.42e-03	0	43	102	1048576	23	4914
2026-01-04 11:18:32.42	221.18	35.75	-31.6	-34.2	10.9	1.26e-03	0	43	102	1048576	23	4864
2026-01-04 11:18:33.43	221.51	35.90	-31.2	-33.1	11.7	1.25e-03	0	43	102	1048576	23	4455
2026-01-04 11:18:34.43	221.83	36.05	-31.1	-32.6	12.0	6.31e-04	0	43	102	1048576	23	4302
2026-01-04 11:18:35.44	222.15	36.20	-30.9	-32.2	12.3	2.40e-04	0	43	102	1048576	23	4172
2026-01-04 11:18:36.45	222.48	36.34	-31.2	-33.0	11.8	2.50e-04	0	43	102	1048576	23	4431
2026-01-04 11:18:37.46	222.82	36.49	-31.5	-34.0	11.0	2.37e-03	0	43	102	1048576	23	4801
2026-01-04 11:18:38.46	223.15	36.64	-31.7	-34.5	10.7	1.80e-03	0	43	102	1048576	23	4986
2026-01-04 11:18:39.47	223.49	36.79	-31.6	-34.3	10.8	3.89e-03	0	43	102	1048576	23	4907
2026-01-04 11:18:40.48	223.83	36.93	-31.4	-33.6	11.3	1.11e-03	0	43	102	1048576	23	4649
2026-01-04 11:18:41.49	224.17	37.08	-31.2	-33.1	11.8	6.29e-04	0	43	102	1048576	23	4442
2026-01-04 11:18:42.49	224.52	37.22	-31.2	-32.8	11.9	5.01e-04	0	43	102	1048576	23	4365
2026-01-04 11:18:43.50	224.87	37.37	-31.5	-33.8	11.2	8.12e-04	0	43	102	1048576	23	4710
2026-01-04 11:18:44.51	225.22	37.51	-31.5	-33.8	11.3	8.20e-04	0	43	102	1048576	23	4693
2026-01-04 11:18:45.52	225.58	37.65	-31.2	-33.1	11.7	1.34e-03	0	43	102	1048576	23	4456
2026-01-04 11:18:46.52	225.94	37.80	-30.8	-31.8	12.6	2.62e-04	0	43	102	1048576	23	4039
2026-01-04 11:18:47.52	226.30	37.94	-30.9	-32.1	12.4	1.14e-04	0	43	102	1048576	23	4132
2026-01-04 11:18:48.53	226.66	38.08	-30.9	-32.2	12.3	1.61e-04	0	43	102	1048576	23	4167
2026-01-04 11:18:49.54	227.03	38.22	-31.4	-33.7	11.3	4.90e-04	0	43	102	1048576	23	4659
2026-01-04 11:18:50.55	227.41	38.36	-32.1	-35.4	9.8	6.45e-03	0	43	102	1048576	24	5254
2026-01-04 11:18:51.56	227.78	38.50	-32.2	-35.8	9.4	1.16e-02	0	43	102	1048576	24	5457
2026-01-04 11:18:52.57	228.16	38.64	-31.8	-34.3	10.5	6.25e-03	0	43	102	1048576	24	4819
2026-01-04 11:18:53.57	228.54	38.78	-31.5	-33.3	11.2	2.35e-03	0	43	102	1048576	24	4442
2026-01-04 11:18:54.58	228.93	38.91	-31.8	-34.2	10.6	1.99e-03	0	43	102	1048576	24	4773
2026-01-04 11:18:55.59	229.31	39.05	-31.6	-33.5	11.0	3.88e-03	0	43	102	1048576	24	4519
2026-01-04 11:18:56.60	229.71	39.19	-31.6	-33.7	11.0	2.49e-03	0	43	102	1048576	24	4580
2026-01-04 11:18:57.60	230.10	39.32	-31.7	-34.0	10.8	2.09e-03	0	43	102	1048576	24	4679
2026-01-04 11:18:58.61	230.50	39.45	-31.7	-34.1	10.7	1.41e-03	0	43	102	1048576	24	4736
2026-01-04 11:18:59.61	230.89	39.58	-31.6	-33.6	11.0	3.55e-03	0	43	102	1048576	24	4558
2026-01-04 11:19:00.62	231.30	39.71	-31.3	-32.7	11.7	8.89e-04	0	43	102	1048576	24	4247
2026-01-04 11:19:01.62	231.70	39.84	-31.1	-32.6	12.1	3.14e-04	0	43	102	1048576	23	4283
2026-01-04 11:19:02.62	232.11	39.97	-30.8	-31.9	12.6	3.54e-04	0	43	102	1048576	23	4059
2026-01-04 11:19:03.63	232.52	40.10	-31.0	-32.9	12.3	1.32e-04	0	43	102	1048576	22	4462
2026-01-04 11:19:04.64	232.94	40.23	-31.0	-32.7	12.3	1.33e-04	0	43	102	1048576	22	4418
2026-01-04 11:19:05.64	233.36	40.35	-31.0	-32.8	12.3	1.71e-04	0	43	102	1048576	22	4439
2026-01-04 11:19:06.65	233.78	40.47	-31.0	-32.7	12.3	2.46e-04	0	43	102	1048576	22	4411
2026-01-04 11:19:07.66	234.21	40.60	-30.9	-32.5	12.5	1.35e-04	0	43	102	1048576	22	4335
2026-01-04 11:19:08.67	234.64	40.72	-30.7	-31.9	12.8	5.79e-05	0	43	102	1048576	22	4148
2026-01-04 11:19:09.67	235.07	40.84	-30.8	-32.2	12.6	6.17e-05	0	43	102	1048576	22	4254
2026-01-04 11:19:10.68	235.50	40.96	-31.0	-32.7	12.4	1.19e-04	0	43	102	1048576	22	4418
2026-01-04 11:19:11.69	235.94	41.07	-31.0	-32.8	12.3	1.33e-04	0	43	102	1048576	22	4449
2026-01-04 11:19:12.69	236.38	41.19	-31.0	-32.8	12.4	1.17e-04	0	43	102	1048576	22	4440
2026-01-04 11:19:13.70	236.83	41.30	-31.0	-32.9	12.3	1.56e-04	0	43	102	1048576	22	4471
2026-01-04 11:19:14.71	237.28	41.42	-31.1	-33.1	12.2	2.61e-04	0	43	102	1048576	22	4535
2026-01-04 11:19:15.71	237.73	41.53	-30.9	-32.7	12.4	2.46e-04	0	43	102	1048576	22	4397
2026-01-04 11:19:16.72	238.18	41.64	-30.8	-32.2	12.7	7.17e-05	0	43	102	1048576	22	4254
2026-01-04 11:19:17.72	238.63	41.74	-30.2	-31.2	13.7	1.75e-05	0	43	102	1048576	21	4023
2026-01-04 11:19:18.73	239.10	41.85	-30.2	-31.1	13.7	8.30e-06	0	43	102	1048576	21	3997
2026-01-04 11:19:19.74	239.56	41.95	-30.2	-31.2	13.8	5.30e-06	0	43	102	1048576	21	4032
2026-01-04 11:19:20.74	240.02	42.06	-30.4	-31.7	13.4	1.52e-05	0	43	102	1048576	21	4165
2026-01-04 11:19:21.75	240.49	42.16	-30.9	-33.0	12.5	4.80e-05	0	43	102	1048576	21	4590
2026-01-04 11:19:22.76	240.96	42.26	-31.1	-33.2	12.1	2.77e-04	0	43	102	1048576	22	4563
2026-01-04 11:19:23.77	241.44	42.35	-31.1	-33.0	12.2	1.62e-04	0	43	102	1048576	22	4491
2026-01-04 11:19:24.77	241.91	42.45	-30.9	-32.4	12.6	1.15e-04	0	43	102	1048576	22	4311
2026-01-04 11:19:25.78	242.40	42.54	-31.3	-33.5	12.0	1.65e-04	0	43	102	1048576	22	4670
2026-01-04 11:19:26.79	242.88	42.63	-31.4	-33.5	11.6	7.79e-04	0	43	102	1048576	23	4564
2026-01-04 11:19:27.79	243.36	42.72	-31.1	-32.5	12.2	6.43e-04	0	43	102	1048576	23	4260
2026-01-04 11:19:28.80	243.85	42.81	-30.8	-32.1	12.8	1.57e-04	0	43	102	1048576	22	4198
2026-01-04 11:19:29.80	244.34	42.89	-30.8	-32.1	12.8	6.48e-05	0	43	102	1048576	22	4212
2026-01-04 11:19:30.81	244.83	42.97	-31.1	-33.2	12.2	1.38e-04	0	43	102	1048576	22	4559
2026-01-04 11:19:31.82	245.33	43.06	-31.2	-33.3	12.0	2.82e-04	0	43	102	1048576	22	4595
2026-01-04 11:19:32.82	245.82	43.13	-31.4	-34.0	11.5	2.61e-04	0	43	102	1048576	22	4846
2026-01-04 11:19:33.83	246.33	43.21	-31.7	-34.5	10.9	2.49e-03	0	43	102	1048576	23	4948
2026-01-04 11:19:34.84	246.83	43.28	-32.0	-35.0	10.1	6.66e-03	0	43	102	1048576	24	5061
2026-01-04 11:19:35.85	247.34	43.36	-32.1	-35.3	9.8	1.12e-02	0	43	102	1048576	24	5218
2026-01-04 11:19:36.85	247.84	43.42	-31.5	-33.2	11.5	3.10e-03	0	43	102	1048576	24	4400
2026-01-04 11:19:37.85	248.34	43.49	-30.9	-32.0	12.7	1.91e-04	0	43	102	1048576	23	4090
2026-01-04 11:19:38.86	248.86	43.56	-30.6	-31.6	13.2	3.89e-05	0	43	102	1048576	22	4064
2026-01-04 11:19:39.87	249.37	43.62	-30.4	-31.1	13.5	1.52e-05	0	43	102	1048576	22	3901
2026-01-04 11:19:40.88	249.89	43.68	-30.2	-31.2	13.8	3.00e-06	0	43	102	1048576	21	4033
2026-01-04 11:19:41.88	250.40	43.74	-30.3	-31.4	13.6	6.10e-06	0	43	102	1048576	21	4074
2026-01-04 11:19:42.89	250.92	43.79	-30.8	-32.8	12.8	1.90e-05	0	43	102	1048576	21	4521
2026-01-04 11:19:43.90	251.44	43.84	-30.9	-32.9	12.6	8.46e-05	0	43	102	1048576	21	4564
2026-01-04 11:19:44.91	251.97	43.89	-30.8	-32.1	12.8	1.27e-04	0	43	102	1048576	22	4215
2026-01-04 11:19:45.91	252.49	43.94	-30.6	-31.6	13.2	3.43e-05	0	43	102	1048576	22	4039
2026-01-04 11:19:46.92	253.01	43.99	-31.1	-33.2	12.2	8.31e-05	0	43	102	1048576	22	4548
2026-01-04 11:19:47.93	253.54	44.03	-31.3	-33.6	11.9	2.43e-04	0	43	102	1048576	22	4693
2026-01-04 11:19:48.94	254.07	44.07	-31.6	-34.0	11.1	5.98e-04	0	43	102	1048576	23	4780
2026-01-04 11:19:49.95	254.60	44.10	-31.3	-33.1	11.9	2.85e-04	0	43	102	1048576	23	4429
2026-01-04 11:19:50.95	255.13	44.14	-31.3	-33.1	11.9	2.43e-04	0	43	102	1048576	23	4418
2026-01-04 11:19:51.96	255.66	44.17	-31.2	-32.9	12.0	2.37e-04	0	43	102	1048576	23	4366
2026-01-04 11:19:52.97	256.20	44.20	-31.2	-32.8	12.1	3.67e-04	0	43	102	1048576	23	4345
2026-01-04 11:19:53.97	256.73	44.23	-31.1	-32.7	12.1	3.13e-04	0	43	102	1048576	23	4302
2026-01-04 11:19:54.98	257.26	44.25	-30.9	-32.5	12.6	8.23e-05	0	43	102	1048576	22	4323
2026-01-04 11:19:55.99	257.80	44.27	-31.1	-32.9	12.3	7.17e-05	0	43	102	1048576	22	4475
2026-01-04 11:19:56.99	258.33	44.29	-31.1	-33.0	12.3	1.39e-04	0	43	102	1048576	22	4487
2026-01-04 11:19:57.99	258.86	44.31	-31.3	-33.6	11.9	2.11e-04	0	43	102	1048576	22	4719
2026-01-04 11:19:59.00	259.40	44.32	-31.9	-35.0	10.4	1.68e-03	0	43	102	1048576	23	5164
2026-01-04 11:20:00.01	259.94	44.33	-31.2	-32.9	11.8	7.05e-04	0	43	102	1048576	23	4370
2026-01-04 11:20:01.01	260.47	44.34	-30.3	-31.0	13.6	4.04e-05	0	43	102	1048576	22	3866
2026-01-04 11:20:02.02	261.01	44.34	-29.6	-30.2	14.7	0.00e+00	0	43	102	1048576	20	3825
2026-01-04 11:20:03.03	261.55	44.34	-29.3	-29.3	15.2	0.00e+00	0	43	102	1048576	20	3595
2026-01-04 11:20:04.03	262.08	44.34	-29.2	-29.6	15.4	0.00e+00	0	43	102	1048576	19	3748
2026-01-04 11:20:05.03	262.62	44.34	-29.3	-29.7	15.3	0.00e+00	0	43	102	1048576	19	3790
2026-01-04 11:20:06.04	263.16	44.33	-29.6	-30.6	14.9	0.00e+00	0	43	102	1048576	19	4014
2026-01-04 11:20:07.05	263.69	44.32	-30.0	-31.2	14.1	3.80e-06	0	43	102	1048576	20	4094
2026-01-04 11:20:08.06	264.23	44.31	-30.4	-32.1	13.6	6.10e-06	0	43	102	1048576	20	4371
2026-01-04 11:20:09.07	264.77	44.30	-30.5	-31.8	13.4	1.52e-05	0	43	102	1048576	21	4210
2026-01-04 11:20:10.08	265.31	44.28	-30.7	-32.4	13.1	2.82e-05	0	43	102	1048576	21	4392
2026-01-04 11:20:11.08	265.84	44.26	-30.4	-31.7	13.4	1.44e-05	0	43	102	1048576	21	4161
2026-01-04 11:20:12.08	266.37	44.24	-30.5	-31.9	13.3	2.13e-05	0	43	102	1048576	21	4215
2026-01-04 11:20:13.09	266.90	44.21	-30.7	-32.4	13.0	3.58e-05	0	43	102	1048576	21	4385
2026-01-04 11:20:14.10	267.44	44.18	-31.2	-33.2	12.2	1.31e-04	0	43	102	1048576	22	4569
2026-01-04 11:20:15.10	267.97	44.15	-31.0	-32.9	12.4	3.09e-04	0	43	102	1048576	22	4444
2026-01-04 11:20:16.11	268.50	44.12	-30.2	-31.0	13.9	4.50e-05	0	43	102	1048576	21	3944
2026-01-04 11:20:17.12	269.03	44.08	-29.8	-30.1	14.5	1.50e-06	0	43	102	1048576	21	3720
2026-01-04 11:20:18.13	269.56	44.05	-30.2	-31.2	13.8	1.50e-06	0	43	102	1048576	21	4018
2026-01-04 11:20:19.14	270.09	44.01	-30.7	-32.3	13.1	1.44e-05	0	43	102	1048576	21	4366
2026-01-04 11:20:20.14	270.61	43.96	-30.4	-31.7	13.5	2.28e-05	0	43	102	1048576	21	4158
2026-01-04 11:20:21.15	271.13	43.92	-29.8	-30.1	14.5	1.50e-06	0	43	102	1048576	21	3708
2026-01-04 11:20:22.16	271.66	43.87	-30.2	-31.5	14.0	1.50e-06	0	43	102	1048576	20	4182
2026-01-04 11:20:23.16	272.17	43.82	-31.0	-33.2	12.5	3.28e-05	0	43	102	1048576	21	4643
2026-01-04 11:20:24.17	272.70	43.76	-31.5	-33.8	11.5	1.08e-03	0	43	102	1048576	23	4685
2026-01-04 11:20:25.18	273.21	43.71	-31.2	-32.7	12.1	7.54e-04	0	43	102	1048576	23	4301
2026-01-04 11:20:26.19	273.73	43.65	-31.1	-32.4	12.3	2.03e-04	0	43	102	1048576	23	4213
2026-01-04 11:20:27.20	274.25	43.59	-31.5	-33.6	11.6	4.46e-04	0	43	102	1048576	23	4600
2026-01-04 11:20:28.21	274.76	43.52	-32.0	-35.4	10.6	2.72e-03	0	43	102	1048576	23	5315
2026-01-04 11:20:29.22	275.27	43.46	-32.6	-36.5	8.6	1.74e-02	0	43	102	1048576	25	5636
2026-01-04 11:20:30.23	275.78	43.39	-32.3	-35.5	9.4	1.27e-02	0	43	102	1048576	25	5178
2026-01-04 11:20:31.24	276.28	43.32	-31.8	-33.6	10.8	5.23e-03	0	43	102	1048576	25	4444
2026-01-04 11:20:32.25	276.79	43.24	-31.7	-33.7	11.2	1.71e-03	0	43	102	1048576	24	4550
2026-01-04 11:20:33.25	277.29	43.17	-31.9	-34.4	10.6	4.41e-03	0	43	102	1048576	24	4807
2026-01-04 11:20:34.25	277.78	43.09	-32.1	-35.2	10.1	6.07e-03	0	43	102	1048576	24	5122
2026-01-04 11:20:35.27	278.28	43.01	-32.1	-35.2	10.0	7.58e-03	0	43	102	1048576	24	5128
2026-01-04 11:20:36.28	278.78	42.93	-31.7	-33.9	11.0	1.67e-03	0	43	102	1048576	24	4617
2026-01-04 11:20:37.28	279.26	42.85	-32.2	-35.4	10.0	2.75e-03	0	43	102	1048576	24	5208
2026-01-04 11:20:38.29	279.75	42.76	-32.8	-37.5	7.9	1.88e-02	0	43	102	1048576	25	6164
2026-01-04 11:20:39.29	280.24	42.67	-33.2	-38.6	6.8	1.13e-01	0	43	102	1048576	26	6704
2026-01-04 11:20:40.30	280.72	42.58	-33.1	-38.3	7.0	2.28e-01	0	43	102	1048576	26	6543
2026-01-04 11:20:41.30	281.20	42.49	-33.0	-37.5	7.6	1.12e-01	0	43	102	1048576	26	6085
2026-01-04 11:20:42.31	281.68	42.40	-32.6	-36.0	8.7	7.14e-02	0	43	102	1048576	26	5332
2026-01-04 11:20:43.31	282.15	42.30	-32.4	-35.1	9.3	2.81e-02	0	43	102	1048576	26	4946
2026-01-04 11:20:44.32	282.62	42.21	-32.1	-34.6	10.2	1.13e-02	0	43	102	1048576	25	4814
2026-01-04 11:20:45.33	283.09	42.11	-32.2	-35.0	9.9	5.38e-03	0	43	102	1048576	25	4977
2026-01-04 11:20:46.34	283.56	42.00	-32.2	-35.1	9.7	1.69e-02	0	43	102	1048576	25	5014
2026-01-04 11:20:47.34	284.02	41.90	-32.1	-34.6	10.1	7.26e-03	0	43	102	1048576	25	4794
2026-01-04 11:20:48.34	284.48	41.80	-31.8	-33.7	10.8	4.39e-03	0	43	102	1048576	25	4480
2026-01-04 11:20:49.35	284.93	41.69	-31.5	-33.2	11.5	1.00e-03	0	43	102	1048576	24	4390
2026-01-04 11:20:50.36	285.39	41.58	-31.6	-33.4	11.4	7.49e-04	0	43	102	1048576	24	4441
2026-01-04 11:20:51.37	285.84	41.47	-31.9	-34.3	10.8	2.61e-03	0	43	102	1048576	24	4763
2026-01-04 11:20:52.38	286.29	41.36	-31.8	-34.2	10.9	2.44e-03	0	43	102	1048576	24	4726
2026-01-04 11:20:53.38	286.73	41.25	-31.7	-33.7	11.2	2.07e-03	0	43	102	1048576	24	4549
2026-01-04 11:20:54.38	287.17	41.13	-31.7	-33.8	11.1	1.52e-03	0	43	102	1048576	24	4599
2026-01-04 11:20:55.39	287.61	41.02	-31.8	-34.2	10.9	1.82e-03	0	43	102	1048576	24	4734
2026-01-04 11:20:56.40	288.05	40.90	-32.3	-35.7	9.6	6.35e-03	0	43	102	1048576	24	5365
2026-01-04 11:20:57.40	288.48	40.78	-32.7	-37.0	8.3	3.97e-02	0	43	102	1048576	25	5897
2026-01-04 11:20:58.41	288.91	40.66	-32.7	-36.9	8.4	4.63e-02	0	43	102	1048576	25	5817
2026-01-04 11:20:59.42	289.34	40.54	-32.6	-36.3	8.9	3.59e-02	0	43	102	1048576	25	5551
2026-01-04 11:21:00.43	289.76	40.42	-32.7	-36.7	8.6	3.48e-02	0	43	102	1048576	25	5746
2026-01-04 11:21:01.44	290.18	40.29	-32.7	-36.8	8.5	4.94e-02	0	43	102	1048576	25	5775
2026-01-04 11:21:02.45	290.60	40.17	-32.4	-35.8	9.3	3.12e-02	0	43	102	1048576	25	5315
2026-01-04 11:21:03.45	291.01	40.04	-32.2	-35.0	9.8	1.15e-02	0	43	102	1048576	25	4957
2026-01-04 11:21:04.46	291.42	39.91	-31.7	-33.7	11.2	3.09e-03	0	43	102	1048576	24	4550
2026-01-04 11:21:05.46	291.83	39.78	-31.3	-32.6	11.9	7.40e-04	0	43	102	1048576	24	4180
2026-01-04 11:21:06.46	292.23	39.66	-31.3	-33.2	11.9	3.68e-04	0	43	102	1048576	23	4445
2026-01-04 11:21:07.48	292.63	39.52	-31.5	-33.6	11.6	4.51e-04	0	43	102	1048576	23	4581
2026-01-04 11:21:08.48	293.03	39.39	-31.5	-33.7	11.6	1.02e-03	0	43	102	1048576	23	4647
2026-01-04 11:21:09.48	293.42	39.26	-31.4	-33.5	11.7	3.58e-04	0	43	102	1048576	23	4547
2026-01-04 11:21:10.49	293.81	39.13	-31.7	-34.2	11.2	4.85e-04	0	43	102	1048576	23	4809
2026-01-04 11:21:11.50	294.20	38.99	-31.4	-33.4	11.7	1.63e-03	0	43	102	1048576	23	4538
2026-01-04 11:21:12.50	294.58	38.86	-30.4	-31.1	13.7	1.14e-04	0	43	102	1048576	22	3894
2026-01-04 11:21:13.51	294.97	38.72	-29.9	-30.7	14.5	1.50e-06	0	43	102	1048576	20	3958
2026-01-04 11:21:14.51	295.34	38.58	-29.9	-30.8	14.4	0.00e+00	0	43	102	1048576	20	3978
2026-01-04 11:21:15.52	295.72	38.44	-30.2	-31.5	14.0	7.00e-07	0	43	102	1048576	20	4181
2026-01-04 11:21:16.53	296.09	38.30	-30.4	-31.6	13.6	6.10e-06	0	43	102	1048576	21	4146
2026-01-04 11:21:17.53	296.46	38.17	-29.9	-30.4	14.4	1.50e-06	0	43	102	1048576	21	3785
2026-01-04 11:21:18.53	296.82	38.03	-29.4	-29.4	15.2	0.00e+00	0	43	102	1048576	20	3632
2026-01-04 11:21:19.54	297.19	37.88	-29.4	-30.0	15.3	7.00e-07	0	43	102	1048576	19	3861
2026-01-04 11:21:20.55	297.55	37.74	-29.3	-29.7	15.4	0.00e+00	0	43	102	1048576	19	3786
2026-01-04 11:21:21.56	297.90	37.60	-29.1	-29.3	15.7	0.00e+00	0	43	102	1048576	19	3678
2026-01-04 11:21:22.57	298.26	37.46	-28.7	-28.9	16.2	0.00e+00	0	43	102	1048576	18	3661
2026-01-04 11:21:23.57	298.61	37.31	-29.0	-29.6	15.8	0.00e+00	0	43	102	1048576	18	3841
2026-01-04 11:21:24.58	298.95	37.17	-29.1	-29.8	15.6	0.00e+00	0	43	102	1048576	18	3891
2026-01-04 11:21:25.59	299.30	37.02	-29.1	-29.8	15.7	0.00e+00	0	43	102	1048576	18	3886
2026-01-04 11:21:26.59	299.64	36.88	-29.1	-29.9	15.6	0.00e+00	0	43	102	1048576	18	3913
2026-01-04 11:21:27.61	299.98	36.73	-28.9	-29.2	16.0	0.00e+00	0	43	102	1048576	18	3746
2026-01-04 11:21:28.61	300.31	36.59	-29.0	-29.5	15.8	0.00e+00	0	43	102	1048576	18	3815
2026-01-04 11:21:29.62	300.65	36.44	-28.7	-28.9	16.2	0.00e+00	0	43	102	1048576	18	3661
2026-01-04 11:21:30.62	300.98	36.29	-28.7	-28.9	16.2	0.00e+00	0	43	102	1048576	18	3662
2026-01-04 11:21:31.63	301.30	36.15	-28.8	-29.0	16.1	0.00e+00	0	43	102	1048576	18	3689
2026-01-04 11:21:32.63	301.62	36.00	-29.1	-29.7	15.7	0.00e+00	0	43	102	1048576	18	3880
2026-01-04 11:21:33.64	301.95	35.85	-29.3	-30.4	15.3	0.00e+00	0	43	102	1048576	18	4046
2026-01-04 11:21:34.65	302.27	35.70	-29.4	-30.0	15.2	0.00e+00	0	43	102	1048576	19	3850
2026-01-04 11:21:35.66	302.58	35.56	-29.3	-29.7	15.4	0.00e+00	0	43	102	1048576	19	3780
2026-01-04 11:21:36.67	302.89	35.41	-29.4	-30.0	15.2	7.00e-07	0	43	102	1048576	19	3868
2026-01-04 11:21:37.68	303.20	35.26	-30.0	-31.5	14.4	0.00e+00	0	43	102	1048576	19	4266
2026-01-04 11:21:38.69	303.51	35.11	-30.5	-31.9	13.4	7.00e-07	0	43	102	1048576	21	4218
2026-01-04 11:21:39.70	303.82	34.96	-30.7	-32.5	13.0	2.67e-05	0	43	102	1048576	21	4398
2026-01-04 11:21:40.71	304.12	34.81	-30.1	-30.9	14.0	1.37e-05	0	43	102	1048576	21	3925
2026-01-04 11:21:41.72	304.42	34.66	-29.7	-30.3	14.6	1.50e-06	0	43	102	1048576	20	3864
2026-01-04 11:21:42.73	304.72	34.51	-29.6	-30.1	14.8	0.00e+00	0	43	102	1048576	20	3799
2026-01-04 11:21:43.73	305.01	34.36	-30.2	-31.6	13.9	0.00e+00	0	43	102	1048576	20	4211
2026-01-04 11:21:44.74	305.30	34.21	-30.8	-32.8	12.9	2.21e-05	0	43	102	1048576	21	4498
2026-01-04 11:21:45.75	305.59	34.06	-31.2	-33.4	12.1	2.39e-04	0	43	102	1048576	22	4619
2026-01-04 11:21:46.76	305.87	33.91	-31.5	-33.6	11.6	7.51e-04	0	43	102	1048576	23	4588
2026-01-04 11:21:47.77	306.16	33.76	-31.1	-32.6	12.2	7.16e-04	0	43	102	1048576	23	4278
2026-01-04 11:21:48.77	306.43	33.61	-30.7	-32.0	13.0	1.06e-04	0	43	102	1048576	22	4156
2026-01-04 11:21:49.77	306.71	33.46	-30.6	-31.6	13.3	2.89e-05	0	44	102	1048576	22	4050
2026-01-04 11:21:50.78	306.99	33.31	-30.8	-32.2	12.9	2.74e-05	0	43	102	1048576	22	4213
2026-01-04 11:21:51.79	307.26	33.16	-31.1	-33.0	12.4	6.94e-05	0	43	102	1048576	22	4491
2026-01-04 11:21:52.80	307.53	33.01	-31.9	-34.8	10.8	1.03e-03	0	43	102	1048576	23	5067
2026-01-04 11:21:53.81	307.80	32.86	-32.3	-35.9	9.5	1.76e-02	0	43	102	1048576	24	5460
2026-01-04 11:21:54.81	308.06	32.71	-32.3	-35.4	9.5	2.65e-02	0	43	102	1048576	25	5128
2026-01-04 11:21:55.82	308.33	32.56	-31.8	-34.1	10.9	4.07e-03	0	43	102	1048576	24	4693
2026-01-04 11:21:56.82	308.58	32.41	-31.4	-33.0	11.7	1.02e-03	0	43	102	1048576	24	4301
2026-01-04 11:21:57.83	308.84	32.26	-31.5	-33.1	11.6	4.64e-04	0	43	102	1048576	24	4351
2026-01-04 11:21:58.84	309.10	32.11	-31.3	-33.2	11.9	4.08e-04	0	43	102	1048576	23	4446
2026-01-04 11:21:59.85	309.35	31.96	-31.7	-34.2	11.1	8.40e-04	0	43	102	1048576	23	4821
2026-01-04 11:22:00.85	309.60	31.82	-32.4	-36.3	9.3	9.03e-03	0	43	102	1048576	24	5615
2026-01-04 11:22:01.86	309.85	31.67	-32.8	-37.6	7.9	4.55e-02	0	43	102	1048576	25	6193
2026-01-04 11:22:02.87	310.10	31.52	-32.7	-37.1	8.1	7.66e-02	0	43	102	1048576	25	5946
2026-01-04 11:22:03.87	310.34	31.37	-32.2	-35.0	9.7	2.34e-02	0	43	102	1048576	25	4988
2026-01-04 11:22:04.86	310.58	31.23	-31.8	-34.1	10.9	5.11e-03	0	43	102	1048576	24	4695
2026-01-04 11:22:05.87	310.82	31.08	-31.5	-33.3	11.5	9.80e-04	0	43	102	1048576	24	4409
2026-01-04 11:22:06.87	311.06	30.93	-31.7	-33.9	11.0	1.37e-03	0	43	102	1048576	24	4638
2026-01-04 11:22:07.88	311.30	30.78	-31.6	-33.5	11.2	1.61e-03	0	43	102	1048576	24	4479
2026-01-04 11:22:08.89	311.53	30.64	-31.7	-33.8	11.0	1.69e-03	0	43	102	1048576	24	4601
2026-01-04 11:22:09.89	311.76	30.49	-32.3	-35.9	9.5	6.34e-03	0	43	102	1048576	24	5445
2026-01-04 11:22:10.90	311.99	30.34	-32.3	-35.9	9.4	1.89e-02	0	43	102	1048576	24	5462
2026-01-04 11:22:11.91	312.22	30.20	-32.2	-35.6	9.7	1.28e-02	0	43	102	1048576	24	5331
2026-01-04 11:22:12.92	312.45	30.05	-32.1	-35.4	9.8	1.11e-02	0	43	102	1048576	24	5207
2026-01-04 11:22:13.92	312.67	29.90	-31.5	-33.2	11.5	2.91e-03	0	43	102	1048576	24	4380
2026-01-04 11:22:14.92	312.89	29.76	-31.1	-32.6	12.2	3.06e-04	0	43	102	1048576	23	4250
2026-01-04 11:22:15.93	313.11	29.61	-31.2	-32.7	12.1	1.89e-04	0	43	102	1048576	23	4312
2026-01-04 11:22:16.94	313.33	29.47	-31.6	-33.9	11.3	6.09e-04	0	43	102	1048576	23	4724
2026-01-04 11:22:17.94	313.54	29.32	-32.2	-35.5	9.8	2.91e-03	0	43	102	1048576	24	5281
2026-01-04 11:22:18.94	313.75	29.18	-32.6	-36.5	8.6	2.85e-02	0	43	102	1048576	25	5644
2026-01-04 11:22:19.95	313.97	29.04	-32.7	-36.9	8.2	5.37e-02	0	43	102	1048576	25	5870
2026-01-04 11:22:20.96	314.18	28.89	-32.7	-37.2	8.0	6.49e-02	0	43	102	1048576	25	6013
2026-01-04 11:22:21.97	314.39	28.75	-31.9	-34.0	10.5	2.65e-02	0	43	102	1048576	25	4597
2026-01-04 11:22:22.98	314.59	28.60	-30.9	-32.0	12.5	4.97e-04	0	43	102	1048576	23	4091
2026-01-04 11:22:23.99	314.80	28.46	-30.2	-31.1	13.8	1.60e-05	0	43	102	1048576	21	3993
2026-01-04 11:22:24.98	315.00	28.32	-29.9	-30.2	14.3	7.00e-07	0	43	102	1048576	21	3752
2026-01-04 11:22:25.99	315.20	28.18	-29.7	-30.3	14.6	0.00e+00	0	43	102	1048576	20	3850
2026-01-04 11:22:26.99	315.40	28.04	-30.3	-31.9	13.7	2.20e-06	0	43	102	1048576	20	4331
2026-01-04 11:22:28.00	315.60	27.90	-30.9	-33.1	12.5	3.12e-05	0	44	102	1048576	21	4622
2026-01-04 11:22:29.01	315.80	27.76	-31.3	-33.7	11.7	4.48e-04	0	43	102	1048576	22	4753
2026-01-04 11:22:30.01	315.99	27.62	-31.6	-34.1	11.1	9.76e-04	0	43	102	1048576	23	4796
2026-01-04 11:22:31.01	316.18	27.48	-31.5	-33.7	11.4	1.41e-03	0	43	102	1048576	23	4646
2026-01-04 11:22:32.02	316.37	27.34	-31.2	-32.9	11.9	6.37e-04	0	43	102	1048576	23	4389
2026-01-04 11:22:33.03	316.56	27.20	-31.0	-32.3	12.4	2.14e-04	0	43	102	1048576	23	4175
2026-01-04 11:22:34.03	316.75	27.06	-30.9	-32.1	12.5	1.31e-04	0	43	102	1048576	23	4129
2026-01-04 11:22:35.04	316.94	26.92	-31.1	-32.7	12.1	1.73e-04	0	43	102	1048576	23	4294
2026-01-04 11:22:36.04	317.12	26.78	-30.9	-32.1	12.5	1.35e-04	0	43	102	1048576	23	4113
2026-01-04 11:22:37.05	317.30	26.64	-31.2	-32.9	11.9	1.58e-04	0	43	102	1048576	23	4378
2026-01-04 11:22:38.06	317.49	26.51	-31.0	-32.3	12.3	2.88e-04	0	43	102	1048576	23	4191
2026-01-04 11:22:39.07	317.67	26.37	-31.0	-32.3	12.3	2.25e-04	0	43	102	1048576	23	4182
2026-01-04 11:22:40.08	317.85	26.23	-31.3	-33.2	11.7	3.38e-04	0	43	102	1048576	23	4492
2026-01-04 11:22:41.08	318.02	26.10	-31.0	-32.4	12.3	3.25e-04	0	43	102	1048576	23	4209
2026-01-04 11:22:42.09	318.20	25.96	-30.8	-31.9	12.6	1.31e-04	0	43	102	1048576	23	4061
2026-01-04 11:22:43.10	318.37	25.83	-30.7	-31.9	13.0	6.40e-05	0	43	102	1048576	22	4138
2026-01-04 11:22:44.10	318.54	25.69	-30.5	-31.3	13.3	3.12e-05	0	43	102	1048576	22	3971
2026-01-04 11:22:45.11	318.72	25.56	-30.4	-31.2	13.4	1.98e-05	0	43	102	1048576	22	3932
2026-01-04 11:22:46.11	318.89	25.42	-30.7	-32.0	12.9	1.98e-05	0	43	102	1048576	22	4165
2026-01-04 11:22:47.12	319.05	25.29	-30.9	-32.4	12.5	5.56e-05	0	43	102	1048576	22	4316
2026-01-04 11:22:48.13	319.22	25.16	-31.0	-32.9	12.2	1.25e-04	0	43	102	1048576	22	4481
2026-01-04 11:22:49.14	319.39	25.02	-30.8	-32.2	12.7	1.68e-04	0	43	102	1048576	22	4254
2026-01-04 11:22:50.14	319.55	24.89	-30.7	-32.0	12.7	9.15e-05	0	43	102	1048576	22	4190
2026-01-04 11:22:51.15	319.72	24.76	-30.8	-32.4	12.5	7.17e-05	0	43	102	1048576	22	4299
2026-01-04 11:22:52.15	319.88	24.63	-30.7	-32.1	12.7	8.23e-05	0	43	102	1048576	22	4206
2026-01-04 11:22:53.16	320.04	24.50	-30.9	-32.7	12.3	1.62e-04	0	43	102	1048576	22	4397
2026-01-04 11:22:54.16	320.20	24.37	-31.0	-33.0	12.2	1.71e-04	0	44	102	1048576	22	4489
2026-01-04 11:22:55.17	320.35	24.24	-31.2	-33.6	11.7	3.39e-04	0	43	102	1048576	22	4728
2026-01-04 11:22:56.17	320.51	24.11	-31.3	-33.8	11.6	5.30e-04	0	43	102	1048576	22	4788
2026-01-04 11:22:57.17	320.66	23.98	-31.4	-33.7	11.2	1.35e-03	0	43	102	1048576	23	4664
2026-01-04 11:22:58.18	320.82	23.85	-31.1	-32.5	12.1	5.65e-04	0	43	102	1048576	23	4274
2026-01-04 11:22:59.19	320.97	23.72	-30.7	-32.2	12.7	1.50e-04	0	43	102	1048576	22	4237
2026-01-04 11:23:00.20	321.12	23.59	-30.2	-31.1	13.6	1.83e-05	0	43	102	1048576	21	4018
2026-01-04 11:23:01.20	321.27	23.47	-30.0	-30.5	14.0	7.60e-06	0	43	102	1048576	21	3848
2026-01-04 11:23:02.21	321.42	23.34	-29.8	-30.2	14.2	0.00e+00	0	43	102	1048576	21	3753
2026-01-04 11:23:03.22	321.57	23.21	-29.7	-30.2	14.5	1.50e-06	0	43	102	1048576	20	3849
2026-01-04 11:23:04.23	321.72	23.09	-29.8	-30.5	14.3	7.00e-07	0	43	102	1048576	20	3930
2026-01-04 11:23:05.24	321.87	22.96	-29.9	-30.8	14.2	0.00e+00	0	43	102	1048576	20	4005
2026-01-04 11:23:06.24	322.01	22.83	-30.0	-31.3	13.7	2.20e-06	0	43	102	1048576	20	4140
2026-01-04 11:23:07.25	322.15	22.71	-30.2	-31.8	13.5	6.80e-06	0	43	102	1048576	20	4292
2026-01-04 11:23:08.26	322.30	22.58	-30.5	-32.5	13.1	1.52e-05	0	43	102	1048576	20	4520
2026-01-04 11:23:09.27	322.44	22.46	-30.5	-32.1	13.0	4.57e-05	0	43	102	1048576	21	4312
2026-01-04 11:23:10.27	322.58	22.34	-30.7	-32.7	12.6	8.39e-05	0	43	102	1048576	21	4495
2026-01-04 11:23:11.27	322.72	22.21	-31.0	-33.3	12.2	1.45e-04	0	43	102	1048576	21	4713
2026-01-04 11:23:12.28	322.86	22.09	-31.1	-33.1	12.0	2.89e-04	0	43	102	1048576	22	4551
2026-01-04 11:23:13.28	322.99	21.97	-31.1	-33.4	11.8	3.65e-04	0	43	102	1048576	22	4647
2026-01-04 11:23:14.29	323.13	21.85	-31.0	-32.9	12.0	3.75e-04	0	43	102	1048576	22	4501
2026-01-04 11:23:15.30	323.26	21.73	-30.8	-32.4	12.4	1.85e-04	0	43	102	1048576	22	4335
2026-01-04 11:23:16.30	323.40	21.61	-30.9	-32.7	12.2	1.70e-04	0	43	102	1048576	22	4413
2026-01-04 11:23:17.30	323.53	21.49	-30.8	-32.3	12.5	2.17e-04	0	43	102	1048576	22	4300
2026-01-04 11:23:18.31	323.66	21.36	-30.7	-32.1	12.6	9.30e-05	0	43	102	1048576	22	4223
2026-01-04 11:23:19.32	323.79	21.24	-30.9	-32.7	12.3	1.98e-04	0	43	102	1048576	22	4405
2026-01-04 11:23:20.33	323.92	21.12	-30.7	-31.9	12.7	1.20e-04	0	43	102	1048576	22	4176
2026-01-04 11:23:21.34	324.05	21.01	-30.9	-32.7	12.2	1.09e-04	0	43	102	1048576	22	4411
2026-01-04 11:23:22.34	324.18	20.89	-31.0	-33.1	11.9	3.81e-04	0	43	102	1048576	22	4552
2026-01-04 11:23:23.35	324.31	20.77	-30.9	-32.7	12.2	2.08e-04	0	43	102	1048576	22	4416
2026-01-04 11:23:24.35	324.43	20.65	-31.1	-33.4	11.8	3.49e-04	0	43	102	1048576	22	4652
2026-01-04 11:23:25.36	324.56	20.53	-31.0	-33.1	11.9	5.07e-04	0	43	102	1048576	22	4558
2026-01-04 11:23:26.37	324.69	20.42	-31.2	-33.5	11.7	3.86e-04	0	43	102	1048576	22	4683
2026-01-04 11:23:27.37	324.81	20.30	-31.2	-33.7	11.5	1.13e-03	0	43	102	1048576	22	4760
2026-01-04 11:23:28.38	324.93	20.19	-30.9	-32.7	12.2	2.43e-04	0	43	102	1048576	22	4421
2026-01-04 11:23:29.38	325.05	20.07	-30.8	-32.4	12.4	1.49e-04	0	43	102	1048576	22	4313
2026-01-04 11:23:30.39	325.17	19.96	-30.5	-31.7	12.8	8.46e-05	0	43	102	1048576	22	4101
2026-01-04 11:23:31.40	325.29	19.84	-30.2	-31.2	13.4	2.05e-05	0	43	102	1048576	21	4053
2026-01-04 11:23:32.41	325.41	19.73	-30.3	-31.5	13.3	2.44e-05	0	43	102	1048576	21	4131
2026-01-04 11:23:33.41	325.53	19.61	-30.0	-30.6	13.8	3.80e-06	0	43	102	1048576	21	3871
2026-01-04 11:23:34.42	325.65	19.50	-30.2	-31.1	13.6	3.80e-06	0	43	102	1048576	21	4016
2026-01-04 11:23:35.43	325.77	19.38	-30.2	-31.2	13.4	1.14e-05	0	43	102	1048576	21	4037
2026-01-04 11:23:36.43	325.88	19.27	-29.8	-30.3	14.0	1.50e-06	0	43	102	1048576	21	3787
2026-01-04 11:23:37.44	326.00	19.16	-30.0	-30.8	13.7	3.80e-06	0	43	102	1048576	21	3938
2026-01-04 11:23:38.45	326.11	19.05	-30.1	-30.9	13.6	7.60e-06	0	44	102	1048576	21	3969
2026-01-04 11:23:39.46	326.22	18.94	-30.3	-31.4	13.3	6.80e-06	0	43	102	1048576	21	4111
2026-01-04 11:23:40.47	326.34	18.82	-30.5	-32.1	12.9	3.05e-05	0	43	102	1048576	21	4321
2026-01-04 11:23:41.48	326.45	18.71	-30.4	-31.9	12.9	5.87e-05	0	43	102	1048576	21	4275
2026-01-04 11:23:42.49	326.56	18.60	-30.8	-32.9	12.3	1.65e-04	0	44	102	1048576	21	4590
2026-01-04 11:23:43.49	326.67	18.49	-31.0	-33.4	11.9	2.39e-04	0	43	102	1048576	21	4771
2026-01-04 11:23:44.49	326.78	18.39	-30.9	-33.1	12.2	3.14e-04	0	43	102	1048576	21	4662
2026-01-04 11:23:45.50	326.89	18.28	-31.0	-33.0	11.9	5.00e-04	0	43	102	1048576	22	4553
2026-01-04 11:23:46.51	327.00	18.17	-31.0	-33.0	11.9	4.71e-04	0	43	102	1048576	22	4545
2026-01-04 11:23:47.52	327.10	18.06	-31.0	-33.0	11.8	3.10e-04	0	43	102	1048576	22	4537
2026-01-04 11:23:48.53	327.21	17.95	-30.9	-32.8	12.1	2.80e-04	0	43	102	1048576	22	4455
2026-01-04 11:23:49.53	327.32	17.84	-30.7	-32.0	12.5	2.13e-04	0	43	102	1048576	22	4222
2026-01-04 11:23:50.54	327.42	17.74	-30.7	-32.2	12.3	1.63e-04	0	43	102	1048576	22	4287
2026-01-04 11:23:51.54	327.53	17.63	-30.6	-32.0	12.4	1.53e-04	0	43	102	1048576	22	4207
2026-01-04 11:23:52.55	327.63	17.52	-30.4	-31.2	13.0	5.11e-05	0	43	102	1048576	22	3971
2026-01-04 11:23:53.56	327.73	17.42	-30.2	-31.4	13.2	3.50e-05	0	43	102	1048576	21	4120
2026-01-04 11:23:54.57	327.84	17.31	-30.3	-31.5	13.1	2.36e-05	0	43	102	1048576	21	4149
2026-01-04 11:23:55.57	327.94	17.21	-30.3	-31.6	13.1	2.59e-05	0	43	102	1048576	21	4186
2026-01-04 11:23:56.58	328.04	17.10	-30.4	-31.9	12.9	4.27e-05	0	43	102	1048576	21	4261
2026-01-04 11:23:57.59	328.14	16.99	-30.5	-32.1	12.7	5.72e-05	0	43	102	1048576	21	4332
2026-01-04 11:23:58.60	328.24	16.89	-30.7	-32.7	12.4	1.40e-04	0	43	102	1048576	21	4528
2026-01-04 11:23:59.60	328.34	16.79	-30.9	-33.3	12.0	1.89e-04	0	43	102	1048576	21	4741
2026-01-04 11:24:00.61	328.44	16.68	-30.9	-32.9	11.9	4.76e-04	0	43	102	1048576	22	4534
2026-01-04 11:24:01.62	328.53	16.58	-31.1	-33.3	11.5	6.44e-04	0	43	102	1048576	22	4684
2026-01-04 11:24:02.63	328.63	16.48	-31.2	-33.8	11.2	1.10e-03	0	43	102	1048576	22	4842
2026-01-04 11:24:03.63	328.73	16.38	-31.3	-33.9	11.1	9.33e-04	0	43	102	1048576	22	4883
2026-01-04 11:24:04.64	328.82	16.27	-31.3	-33.9	11.1	1.22e-03	0	43	102	1048576	22	4891
2026-01-04 11:24:05.65	328.92	16.17	-31.3	-34.1	11.0	2.27e-03	0	43	102	1048576	22	4957
2026-01-04 11:24:06.65	329.01	16.07	-31.2	-33.9	11.2	2.09e-03	0	43	102	1048576	22	4863
2026-01-04 11:24:07.66	329.11	15.97	-31.3	-34.1	11.0	1.75e-03	0	43	102	1048576	22	4977
2026-01-04 11:24:08.67	329.20	15.87	-31.2	-33.9	11.2	1.19e-03	0	43	102	1048576	22	4865
2026-01-04 11:24:09.68	329.29	15.77	-31.3	-34.1	10.9	1.80e-03	0	43	102	1048576	22	4975
2026-01-04 11:24:10.69	329.39	15.67	-31.3	-34.0	11.0	2.47e-03	0	43	102	1048576	22	4914
2026-01-04 11:24:11.69	329.48	15.57	-31.1	-33.4	11.4	1.13e-03	0	43	102	1048576	22	4696
2026-01-04 11:24:12.70	329.57	15.47	-31.0	-33.2	11.6	7.67e-04	0	43	102	1048576	22	4640
2026-01-04 11:24:13.71	329.66	15.37	-31.1	-33.3	11.5	9.53e-04	0	43	102	1048576	22	4674
2026-01-04 11:24:14.72	329.75	15.27	-31.1	-33.4	11.4	1.03e-03	0	43	102	1048576	22	4687
2026-01-04 11:24:15.73	329.84	15.17	-31.3	-34.0	11.0	1.18e-03	0	43	102	1048576	22	4933
2026-01-04 11:24:16.74	329.93	15.07	-31.2	-33.9	11.0	1.88e-03	0	43	102	1048576	22	4879
2026-01-04 11:24:17.75	330.02	14.98	-31.2	-33.7	11.1	1.73e-03	0	43	102	1048576	22	4820
2026-01-04 11:24:18.75	330.10	14.88	-31.3	-34.1	10.9	1.92e-03	0	44	102	1048576	22	4948
2026-01-04 11:24:19.76	330.19	14.78	-31.2	-33.9	11.1	2.03e-03	0	44	102	1048576	22	4890
2026-01-04 11:24:20.76	330.28	14.69	-31.4	-34.4	10.6	2.01e-03	0	43	102	1048576	22	5089
2026-01-04 11:24:21.77	330.36	14.59	-31.4	-34.1	10.5	4.03e-03	0	43	102	1048576	23	4880
2026-01-04 11:24:22.77	330.45	14.49	-31.3	-33.7	10.8	3.08e-03	0	43	102	1048576	23	4746
2026-01-04 11:24:23.78	330.53	14.40	-31.4	-33.8	10.7	2.33e-03	0	43	102	1048576	23	4772
2026-01-04 11:24:24.79	330.62	14.30	-31.3	-33.7	10.8	2.76e-03	0	43	102	1048576	23	4746
2026-01-04 11:24:25.80	330.70	14.21	-31.4	-33.8	10.7	2.12e-03	0	43	102	1048576	23	4784
2026-01-04 11:24:26.81	330.79	14.11	-31.4	-34.1	10.5	3.32e-03	0	43	102	1048576	23	4868
2026-01-04 11:24:27.81	330.87	14.02	-31.3	-33.6	10.8	3.94e-03	0	43	102	1048576	23	4709
2026-01-04 11:24:28.82	330.95	13.93	-31.3	-33.5	10.9	2.33e-03	0	43	102	1048576	23	4678
2026-01-04 11:24:29.83	331.03	13.83	-31.2	-33.4	10.9	2.85e-03	0	43	102	1048576	23	4641
2026-01-04 11:24:30.83	331.11	13.74	-31.1	-32.9	11.3	1.53e-03	0	43	102	1048576	23	4449
2026-01-04 11:24:31.84	331.20	13.65	-31.1	-33.1	11.2	1.35e-03	0	43	102	1048576	23	4526
2026-01-04 11:24:32.85	331.28	13.55	-30.9	-32.5	11.5	1.22e-03	0	43	102	1048576	23	4323
2026-01-04 11:24:33.85	331.36	13.46	-30.9	-32.3	11.7	6.59e-04	0	43	102	1048576	23	4252
2026-01-04 11:24:34.86	331.44	13.37	-30.9	-32.3	11.7	6.95e-04	0	43	102	1048576	23	4259
2026-01-04 11:24:35.87	331.52	13.28	-30.8	-32.6	11.9	4.56e-04	0	43	102	1048576	22	4420
2026-01-04 11:24:36.88	331.59	13.18	-30.8	-32.8	11.7	4.56e-04	0	43	102	1048576	22	4501
2026-01-04 11:24:37.89	331.67	13.09	-30.7	-32.3	12.0	4.09e-04	0	43	102	1048576	22	4345
2026-01-04 11:24:38.90	331.75	13.00	-30.5	-31.9	12.3	1.59e-04	0	43	102	1048576	22	4192
2026-01-04 11:24:39.90	331.83	12.91	-30.5	-31.8	12.4	1.25e-04	0	43	102	1048576	22	4170
2026-01-04 11:24:40.91	331.90	12.82	-30.4	-31.5	12.6	1.41e-04	0	43	102	1048576	22	4091
2026-01-04 11:24:41.92	331.98	12.73	-30.5	-31.8	12.4	1.48e-04	0	43	102	1048576	22	4191
2026-01-04 11:24:42.92	332.06	12.64	-30.5	-31.8	12.3	1.73e-04	0	43	102	1048576	22	4191
2026-01-04 11:24:43.93	332.13	12.55	-30.4	-31.4	12.6	1.10e-04	0	43	102	1048576	22	4055
2026-01-04 11:24:44.94	332.21	12.46	-30.4	-31.6	12.5	1.23e-04	0	43	102	1048576	22	4115
2026-01-04 11:24:45.94	332.28	12.37	-30.4	-31.5	12.5	1.57e-04	0	43	102	1048576	22	4086
2026-01-04 11:24:46.95	332.36	12.29	-30.4	-31.5	12.5	9.46e-05	0	43	102	1048576	22	4093
2026-01-04 11:24:47.95	332.43	12.20	-30.6	-32.0	12.2	1.58e-04	0	43	102	1048576	22	4256
2026-01-04 11:24:48.96	332.50	12.11	-30.5	-31.7	12.4	1.93e-04	0	43	102	1048576	22	4164
2026-01-04 11:24:49.97	332.58	12.02	-30.4	-31.6	12.4	1.52e-04	0	43	102	1048576	22	4119
2026-01-04 11:24:50.98	332.65	11.93	-30.5	-31.9	12.2	2.36e-04	0	43	102	1048576	22	4220
2026-01-04 11:24:51.98	332.72	11.85	-30.6	-32.1	12.1	2.54e-04	0	43	102	1048576	22	4281
2026-01-04 11:24:52.99	332.79	11.76	-30.7	-32.3	11.9	2.95e-04	0	43	102	1048576	22	4342
2026-01-04 11:24:53.99	332.86	11.67	-30.7	-32.3	11.9	4.49e-04	0	43	102	1048576	22	4363
2026-01-04 11:24:55.01	332.94	11.59	-30.8	-32.6	11.7	5.16e-04	0	43	102	1048576	22	4463
2026-01-04 11:24:56.01	333.01	11.50	-31.0	-33.2	11.3	6.94e-04	0	43	102	1048576	22	4662
2026-01-04 11:24:57.01	333.08	11.42	-30.9	-32.9	11.5	9.44e-04	0	43	102	1048576	22	4576
2026-01-04 11:24:58.02	333.15	11.33	-31.0	-33.5	11.1	1.31e-03	0	43	102	1048576	22	4760
2026-01-04 11:24:59.03	333.22	11.24	-31.1	-33.7	10.9	1.96e-03	0	43	102	1048576	22	4865
2026-01-04 11:25:00.03	333.29	11.16	-31.1	-33.7	10.9	1.69e-03	0	44	102	1048576	22	4844
2026-01-04 11:25:01.04	333.35	11.07	-31.2	-34.0	10.7	2.35e-03	0	43	102	1048576	22	4978
2026-01-04 11:25:02.05	333.42	10.99	-31.2	-34.0	10.7	3.50e-03	0	43	102	1048576	22	4979
2026-01-04 11:25:03.05	333.49	10.91	-31.2	-33.9	10.7	2.73e-03	0	43	102	1048576	22	4932
2026-01-04 11:25:04.06	333.56	10.82	-31.3	-34.5	10.3	2.90e-03	0	43	102	1048576	22	5179
2026-01-04 11:25:05.07	333.63	10.74	-31.2	-34.2	10.5	4.90e-03	0	43	102	1048576	22	5061
2026-01-04 11:25:06.09	333.69	10.65	-31.4	-34.6	10.2	6.05e-03	0	43	102	1048576	22	5227
2026-01-04 11:25:07.09	333.76	10.57	-31.4	-34.8	10.0	8.15e-03	0	43	102	1048576	22	5291
2026-01-04 11:25:08.10	333.83	10.49	-31.4	-34.6	10.2	6.12e-03	0	43	102	1048576	22	5241
2026-01-04 11:25:09.10	333.89	10.40	-31.4	-34.9	10.0	6.25e-03	0	43	102	1048576	22	5346
2026-01-04 11:25:10.11	333.96	10.32	-31.5	-34.4	9.9	9.08e-03	0	43	102	1048576	23	5074
2026-01-04 11:25:11.12	334.02	10.24	-31.6	-34.8	9.7	1.05e-02	0	43	102	1048576	23	5216
2026-01-04 11:25:12.13	334.09	10.16	-31.6	-34.9	9.6	1.09e-02	0	43	102	1048576	23	5267
2026-01-04 11:25:13.14	334.15	10.07	-31.6	-34.8	9.6	1.21e-02	0	43	102	1048576	23	5237
2026-01-04 11:25:14.15	334.22	9.99	-31.5	-34.5	9.8	8.29e-03	0	43	102	1048576	23	5104
2026-01-04 11:25:15.16	334.28	9.91	-31.4	-34.3	10.0	8.03e-03	0	43	102	1048576	23	5034
2026-01-04 11:25:16.17	334.34	9.83	-31.4	-34.4	10.0	7.37e-03	0	43	102	1048576	23	5058
2026-01-04 11:25:17.18	334.41	9.75	-31.5	-34.8	9.7	1.11e-02	0	43	102	1048576	23	5218
2026-01-04 11:25:18.19	334.47	9.67	-31.5	-34.5	9.8	8.71e-03	0	43	102	1048576	23	5096
2026-01-04 11:25:19.20	334.53	9.59	-31.4	-34.4	9.9	9.68e-03	0	43	102	1048576	23	5083
2026-01-04 11:25:20.21	334.60	9.51	-31.4	-34.4	9.8	1.32e-02	0	43	102	1048576	23	5080
2026-01-04 11:25:21.21	334.66	9.43	-31.4	-34.2	9.9	8.53e-03	0	43	102	1048576	23	5013
2026-01-04 11:25:22.22	334.72	9.35	-31.4	-34.3	9.9	6.99e-03	0	43	102	1048576	23	5027
2026-01-04 11:25:23.23	334.78	9.27	-31.4	-34.2	10.0	8.30e-03	0	43	102	1048576	23	4994
2026-01-04 11:25:24.23	334.84	9.19	-31.3	-34.0	10.1	7.66e-03	0	43	102	1048576	23	4930
2026-01-04 11:25:25.23	334.90	9.11	-31.4	-34.3	9.8	8.77e-03	0	43	102	1048576	23	5020
2026-01-04 11:25:26.24	334.96	9.03	-31.4	-34.3	9.9	7.31e-03	0	43	102	1048576	23	5032
2026-01-04 11:25:27.25	335.02	8.95	-31.4	-34.3	9.9	8.68e-03	0	43	102	1048576	23	5030
2026-01-04 11:25:28.26	335.08	8.87	-31.3	-33.9	10.1	6.60e-03	0	43	102	1048576	23	4884
2026-01-04 11:25:29.27	335.14	8.80	-31.3	-34.1	10.0	7.44e-03	0	43	102	1048576	23	4965
2026-01-04 11:25:30.27	335.20	8.72	-31.3	-34.1	9.9	8.50e-03	0	44	102	1048576	23	4977
2026-01-04 11:25:31.28	335.26	8.64	-31.4	-34.2	9.9	8.50e-03	0	43	102	1048576	23	5023
2026-01-04 11:25:32.29	335.32	8.56	-31.3	-34.1	10.0	8.55e-03	0	43	102	1048576	23	4957
2026-01-04 11:25:33.29	335.38	8.49	-31.4	-34.5	9.7	8.91e-03	0	43	102	1048576	23	5115
2026-01-04 11:25:34.30	335.44	8.41	-31.3	-34.2	9.9	9.59e-03	0	43	102	1048576	23	4992
2026-01-04 11:25:35.31	335.49	8.33	-31.3	-34.2	9.9	8.94e-03	0	43	102	1048576	23	5014
2026-01-04 11:25:36.32	335.55	8.26	-31.4	-34.4	9.7	1.01e-02	0	43	102	1048576	23	5111
2026-01-04 11:25:37.33	335.61	8.18	-31.4	-34.4	9.7	1.17e-02	0	43	102	1048576	23	5104
2026-01-04 11:25:38.33	335.67	8.10	-31.4	-34.6	9.6	1.35e-02	0	43	102	1048576	23	5173
2026-01-04 11:25:39.34	335.72	8.03	-31.4	-34.5	9.6	1.28e-02	0	43	102	1048576	23	5168
2026-01-04 11:25:40.35	335.78	7.95	-31.4	-34.5	9.6	1.17e-02	0	43	102	1048576	23	5150
2026-01-04 11:25:41.35	335.83	7.88	-31.4	-34.7	9.4	1.24e-02	0	43	102	1048576	23	5222
2026-01-04 11:25:42.36	335.89	7.80	-31.4	-34.4	9.6	1.55e-02	0	43	102	1048576	23	5113
2026-01-04 11:25:43.37	335.95	7.73	-31.5	-34.8	9.3	1.47e-02	0	43	102	1048576	23	5274
2026-01-04 11:25:44.38	336.00	7.65	-31.4	-34.6	9.4	1.82e-02	0	43	102	1048576	23	5222
2026-01-04 11:25:45.39	336.06	7.58	-31.3	-34.3	9.6	1.21e-02	0	43	102	1048576	23	5090
