passes_logs/2026/01/04/R2M6_AANII_01/R2M6_AANII_01__20260104_104424_NOAA_21_JPSS-2_rec.log

#Pass ID: 20260104_104424_NOAA 21 (JPSS-2)
#Satellite: NOAA 21 (JPSS-2)
#Configuration: NOAA 21
#almurnet v.1.7.20240730
#Start time: 2026-01-04 10:46:25

#Version: 2.2.20231116
#Station: R2M6_AANII_01
#Location: 30.233357 lon 59.946436 lat
#TLE: 1 54234U 22150A   26003.45311712  .00000198  00000+0  11468-3 0  9993
#TLE: 2 54234  98.7487 304.4932 0001159 347.5017  12.6130 14.19531745163172

#Time	Az	El	Level	Level2	SNR	BER	BlckErr	Temp	State	Recorded	gain1	gain2
2026-01-04 10:46:25.66	178.25	18.55	-33.5	-44.3	3.8	8.46e-01	0	43	0	0	27	12463
2026-01-04 10:46:26.65	178.31	18.67	-34.2	-45.7	3.8	1.49e+00	0	43	104	0	29	13497
2026-01-04 10:46:27.66	178.37	18.79	-34.3	-45.8	3.8	1.49e+00	0	43	104	0	29	13562
2026-01-04 10:46:28.67	178.43	18.92	-34.3	-45.8	3.8	1.49e+00	0	43	104	0	29	13614
2026-01-04 10:46:29.67	178.49	19.04	-34.3	-45.9	3.8	1.49e+00	0	43	104	0	29	13617
2026-01-04 10:46:30.68	178.55	19.16	-34.3	-45.9	3.8	1.49e+00	0	43	104	0	29	13708
2026-01-04 10:46:31.68	178.61	19.29	-34.4	-46.0	3.8	1.49e+00	0	43	104	0	29	13724
2026-01-04 10:46:32.68	178.67	19.41	-34.4	-46.0	3.8	1.49e+00	0	43	104	0	29	13674
2026-01-04 10:46:33.70	178.73	19.54	-34.4	-46.0	3.8	1.49e+00	0	43	104	0	29	13684
2026-01-04 10:46:34.70	178.79	19.66	-34.4	-46.0	3.8	1.49e+00	0	43	104	0	29	13727
2026-01-04 10:46:35.71	178.86	19.79	-34.4	-46.0	3.8	1.49e+00	0	43	104	0	29	13722
2026-01-04 10:46:36.72	178.92	19.92	-34.4	-46.0	3.8	1.49e+00	0	43	104	0	29	13750
2026-01-04 10:46:37.72	178.98	20.04	-34.4	-46.0	3.8	1.49e+00	0	43	104	0	29	13719
2026-01-04 10:46:38.73	179.05	20.17	-34.4	-45.9	3.8	1.49e+00	0	43	104	0	29	13671
2026-01-04 10:46:39.74	179.11	20.30	-34.3	-46.0	3.8	1.49e+00	0	43	104	0	29	13716
2026-01-04 10:46:40.74	179.18	20.43	-34.3	-45.9	3.8	1.49e+00	0	43	104	0	29	13666
2026-01-04 10:46:41.75	179.24	20.56	-34.3	-45.9	3.8	1.49e+00	0	43	104	0	29	13655
2026-01-04 10:46:42.76	179.31	20.69	-34.3	-46.0	3.8	1.49e+00	0	43	104	0	29	13734
2026-01-04 10:46:43.76	179.38	20.83	-34.3	-45.9	3.8	1.49e+00	0	43	104	0	29	13670
2026-01-04 10:46:44.76	179.44	20.96	-34.3	-45.9	3.8	1.49e+00	0	43	104	0	29	13658
2026-01-04 10:46:45.77	179.51	21.09	-34.3	-45.8	3.8	1.49e+00	0	43	104	0	29	13584
2026-01-04 10:46:46.78	179.58	21.23	-34.2	-45.7	3.8	1.49e+00	0	43	104	0	29	13493
2026-01-04 10:46:47.79	179.65	21.36	-34.1	-45.6	3.8	1.49e+00	0	43	104	0	29	13445
2026-01-04 10:46:48.79	179.72	21.49	-34.1	-45.5	3.8	1.49e+00	0	43	104	0	29	13381
2026-01-04 10:46:49.80	179.79	21.63	-34.1	-45.5	3.8	1.49e+00	0	43	104	0	29	13306
2026-01-04 10:46:50.81	179.86	21.77	-34.0	-45.8	3.8	1.49e+00	0	43	104	0	28	14001
2026-01-04 10:46:51.82	179.93	21.91	-33.9	-45.6	3.8	1.49e+00	0	43	104	0	28	13876
2026-01-04 10:46:52.82	180.00	22.04	-33.9	-45.6	3.8	1.49e+00	0	43	104	0	28	13801
2026-01-04 10:46:53.83	180.07	22.18	-33.9	-45.6	3.8	1.49e+00	0	43	104	0	28	13782
2026-01-04 10:46:54.84	180.15	22.32	-33.9	-45.5	3.8	1.49e+00	0	43	104	0	28	13737
2026-01-04 10:46:55.84	180.22	22.46	-33.8	-45.4	3.8	1.49e+00	0	43	104	0	28	13622
2026-01-04 10:46:56.85	180.30	22.60	-33.8	-45.2	3.8	1.49e+00	0	43	104	0	28	13417
2026-01-04 10:46:57.86	180.37	22.74	-33.7	-44.8	3.8	1.49e+00	0	44	104	0	28	12981
2026-01-04 10:46:58.86	180.45	22.89	-33.6	-44.4	3.8	1.49e+00	0	43	104	0	28	12401
2026-01-04 10:46:59.87	180.52	23.03	-33.6	-44.3	3.8	1.49e+00	0	43	104	0	28	12390
2026-01-04 10:47:00.88	180.60	23.17	-33.6	-44.3	3.8	1.49e+00	0	43	104	0	28	12283
2026-01-04 10:47:01.88	180.68	23.32	-33.6	-44.1	3.8	1.49e+00	0	43	104	0	28	12074
2026-01-04 10:47:02.88	180.75	23.46	-33.5	-43.7	3.8	1.49e+00	0	43	104	0	28	11607
2026-01-04 10:47:03.89	180.83	23.61	-33.4	-43.0	3.8	1.49e+00	0	43	104	0	28	10756
2026-01-04 10:47:04.90	180.91	23.76	-33.3	-42.0	3.9	1.48e+00	0	43	104	0	28	9766
2026-01-04 10:47:05.91	180.99	23.90	-33.2	-40.8	4.5	1.42e+00	0	43	104	0	27	8623
2026-01-04 10:47:06.91	181.08	24.05	-33.0	-40.2	4.1	1.47e+00	0	43	104	0	27	8249
2026-01-04 10:47:07.92	181.16	24.20	-32.8	-38.4	5.5	5.14e-01	0	43	0	0	27	6859
2026-01-04 10:47:08.92	181.24	24.35	-32.6	-37.9	6.0	3.74e-01	0	43	102	1048576	26	6673
2026-01-04 10:47:09.93	181.32	24.50	-32.3	-36.7	6.8	2.23e-01	0	43	102	1048576	26	5983
2026-01-04 10:47:10.93	181.41	24.65	-31.8	-35.5	8.0	9.79e-02	0	43	102	1048576	25	5504
2026-01-04 10:47:11.94	181.49	24.81	-31.1	-34.2	9.6	1.99e-02	0	43	102	1048576	23	5131
2026-01-04 10:47:12.95	181.58	24.96	-30.1	-32.5	11.4	1.74e-03	0	43	102	1048576	21	4724
2026-01-04 10:47:13.96	181.67	25.11	-29.1	-30.9	13.1	5.72e-05	0	43	102	1048576	19	4410
2026-01-04 10:47:14.97	181.75	25.27	-28.1	-29.5	14.5	7.00e-07	0	43	102	1048576	17	4231
2026-01-04 10:47:15.98	181.84	25.43	-27.4	-28.5	15.4	0.00e+00	0	43	102	1048576	16	4045
2026-01-04 10:47:16.99	181.93	25.58	-27.0	-27.9	15.8	0.00e+00	0	44	102	1048576	15	4018
2026-01-04 10:47:18.00	182.02	25.74	-27.0	-27.9	15.8	0.00e+00	0	43	102	1048576	15	4014
2026-01-04 10:47:19.00	182.11	25.90	-27.3	-28.8	15.3	0.00e+00	0	44	102	1048576	15	4243
2026-01-04 10:47:20.00	182.20	26.06	-28.3	-30.4	14.3	1.50e-06	0	43	102	1048576	16	4586
2026-01-04 10:47:21.00	182.29	26.22	-28.5	-30.5	14.0	1.50e-06	0	43	102	1048576	17	4504
2026-01-04 10:47:22.01	182.39	26.38	-28.2	-29.7	14.4	1.50e-06	0	43	102	1048576	17	4272
2026-01-04 10:47:23.02	182.48	26.54	-28.7	-30.8	13.8	2.20e-06	0	43	102	1048576	17	4587
2026-01-04 10:47:24.03	182.58	26.70	-28.3	-29.8	14.4	1.06e-05	0	43	102	1048576	17	4303
2026-01-04 10:47:25.03	182.67	26.87	-28.0	-29.3	14.7	0.00e+00	0	44	102	1048576	17	4159
2026-01-04 10:47:26.04	182.77	27.03	-27.8	-28.8	14.9	7.00e-07	0	43	102	1048576	17	4040
2026-01-04 10:47:27.04	182.87	27.20	-27.8	-28.7	15.0	0.00e+00	0	43	102	1048576	17	4017
2026-01-04 10:47:28.05	182.97	27.36	-27.8	-29.3	15.0	0.00e+00	0	43	102	1048576	16	4260
2026-01-04 10:47:29.06	183.07	27.53	-27.8	-29.4	14.9	7.00e-07	0	43	102	1048576	16	4286
2026-01-04 10:47:30.07	183.17	27.70	-28.1	-29.8	14.7	2.20e-06	0	43	102	1048576	16	4422
2026-01-04 10:47:31.07	183.27	27.87	-27.9	-29.4	14.9	7.00e-07	0	43	102	1048576	16	4300
2026-01-04 10:47:32.08	183.38	28.04	-27.8	-29.2	15.1	0.00e+00	0	43	102	1048576	16	4234
2026-01-04 10:47:33.08	183.48	28.21	-27.9	-29.4	14.9	0.00e+00	0	43	102	1048576	16	4298
2026-01-04 10:47:34.09	183.58	28.38	-27.9	-29.5	14.9	0.00e+00	0	43	102	1048576	16	4309
2026-01-04 10:47:35.10	183.69	28.56	-28.0	-29.6	14.8	0.00e+00	0	43	102	1048576	16	4363
2026-01-04 10:47:36.11	183.80	28.73	-28.0	-29.6	14.8	2.20e-06	0	44	102	1048576	16	4361
2026-01-04 10:47:37.11	183.91	28.90	-28.0	-29.7	14.7	7.00e-07	0	43	102	1048576	16	4379
2026-01-04 10:47:38.11	184.02	29.08	-27.9	-29.6	14.8	7.00e-07	0	43	102	1048576	16	4348
2026-01-04 10:47:39.12	184.13	29.26	-28.0	-29.7	14.7	7.00e-07	0	43	102	1048576	16	4388
2026-01-04 10:47:40.12	184.24	29.43	-27.8	-29.3	15.0	0.00e+00	0	43	102	1048576	16	4279
2026-01-04 10:47:41.12	184.35	29.61	-27.9	-29.6	14.8	0.00e+00	0	43	102	1048576	16	4336
2026-01-04 10:47:42.12	184.47	29.79	-28.0	-29.8	14.7	0.00e+00	0	43	102	1048576	16	4419
2026-01-04 10:47:43.13	184.58	29.97	-28.0	-29.7	14.8	7.00e-07	0	43	102	1048576	16	4366
2026-01-04 10:47:44.13	184.70	30.15	-28.0	-29.7	14.8	0.00e+00	0	44	102	1048576	16	4369
2026-01-04 10:47:45.14	184.82	30.34	-28.1	-29.9	14.6	0.00e+00	0	43	102	1048576	16	4444
2026-01-04 10:47:46.14	184.94	30.52	-28.2	-30.2	14.4	0.00e+00	0	43	102	1048576	16	4535
2026-01-04 10:47:47.14	185.06	30.70	-27.9	-29.5	14.9	0.00e+00	0	43	102	1048576	16	4334
2026-01-04 10:47:48.15	185.18	30.89	-27.7	-28.9	15.2	0.00e+00	0	43	102	1048576	16	4166
2026-01-04 10:47:49.15	185.30	31.08	-27.7	-29.0	15.2	0.00e+00	0	43	102	1048576	16	4176
2026-01-04 10:47:50.16	185.43	31.27	-27.7	-29.0	15.1	0.00e+00	0	43	102	1048576	16	4191
2026-01-04 10:47:51.16	185.55	31.45	-27.6	-28.9	15.2	0.00e+00	0	43	102	1048576	16	4155
2026-01-04 10:47:52.17	185.68	31.65	-27.6	-28.8	15.3	0.00e+00	0	43	102	1048576	16	4130
2026-01-04 10:47:53.17	185.81	31.84	-27.7	-29.0	15.2	0.00e+00	0	43	102	1048576	16	4180
2026-01-04 10:47:54.18	185.94	32.03	-27.6	-28.9	15.2	0.00e+00	0	43	102	1048576	16	4147
2026-01-04 10:47:55.18	186.07	32.22	-27.7	-29.0	15.2	0.00e+00	0	43	102	1048576	16	4194
2026-01-04 10:47:56.18	186.21	32.42	-27.8	-29.1	15.1	0.00e+00	0	43	102	1048576	16	4212
2026-01-04 10:47:57.19	186.34	32.61	-27.8	-29.3	15.0	0.00e+00	0	43	102	1048576	16	4261
2026-01-04 10:47:58.19	186.48	32.81	-27.9	-29.5	14.9	0.00e+00	0	43	102	1048576	16	4332
2026-01-04 10:47:59.20	186.62	33.01	-27.9	-29.5	14.9	0.00e+00	0	43	102	1048576	16	4326
2026-01-04 10:48:00.21	186.76	33.21	-28.0	-29.6	14.9	0.00e+00	0	43	102	1048576	16	4345
2026-01-04 10:48:01.22	186.90	33.41	-28.0	-29.8	14.8	0.00e+00	0	43	102	1048576	16	4402
2026-01-04 10:48:02.23	187.05	33.61	-28.1	-29.9	14.7	0.00e+00	0	43	102	1048576	16	4435
2026-01-04 10:48:03.23	187.19	33.81	-28.1	-29.9	14.7	7.00e-07	0	43	102	1048576	16	4440
2026-01-04 10:48:04.24	187.34	34.02	-28.1	-30.0	14.7	7.00e-07	0	43	102	1048576	16	4458
2026-01-04 10:48:05.24	187.49	34.22	-28.2	-30.1	14.6	7.00e-07	0	43	102	1048576	16	4496
2026-01-04 10:48:06.25	187.64	34.43	-28.0	-29.7	14.8	0.00e+00	0	43	102	1048576	16	4380
2026-01-04 10:48:07.25	187.79	34.63	-28.1	-29.8	14.8	7.00e-07	0	43	102	1048576	16	4406
2026-01-04 10:48:08.26	187.95	34.84	-28.2	-30.2	14.6	0.00e+00	0	43	102	1048576	16	4523
2026-01-04 10:48:09.26	188.10	35.05	-28.5	-30.7	14.2	0.00e+00	0	43	102	1048576	16	4679
2026-01-04 10:48:10.27	188.26	35.26	-28.6	-30.7	14.0	3.80e-06	0	43	102	1048576	17	4548
2026-01-04 10:48:11.28	188.42	35.48	-28.8	-31.1	13.7	5.30e-06	0	43	102	1048576	17	4684
2026-01-04 10:48:12.28	188.59	35.69	-29.0	-31.1	13.5	9.90e-06	0	43	102	1048576	18	4570
2026-01-04 10:48:13.28	188.75	35.90	-29.1	-31.3	13.4	1.06e-05	0	43	102	1048576	18	4636
2026-01-04 10:48:14.29	188.92	36.12	-29.2	-31.5	13.2	2.82e-05	0	43	102	1048576	18	4682
2026-01-04 10:48:15.29	189.09	36.33	-29.2	-31.4	13.3	2.13e-05	0	43	102	1048576	18	4662
2026-01-04 10:48:16.29	189.26	36.55	-29.2	-31.5	13.3	2.51e-05	0	43	102	1048576	18	4687
2026-01-04 10:48:17.31	189.43	36.77	-29.1	-31.2	13.4	2.21e-05	0	43	102	1048576	18	4596
2026-01-04 10:48:18.31	189.61	36.99	-29.0	-31.0	13.6	8.30e-06	0	44	102	1048576	18	4524
2026-01-04 10:48:19.31	189.78	37.21	-29.1	-31.3	13.4	1.75e-05	0	43	102	1048576	18	4629
2026-01-04 10:48:20.32	189.96	37.43	-29.3	-31.8	13.1	3.35e-05	0	43	102	1048576	18	4802
2026-01-04 10:48:21.32	190.15	37.66	-29.4	-32.0	12.9	4.27e-05	0	43	102	1048576	18	4860
2026-01-04 10:48:22.33	190.33	37.88	-29.5	-31.8	12.7	6.71e-05	0	43	102	1048576	19	4690
2026-01-04 10:48:23.33	190.52	38.11	-29.5	-31.6	12.9	3.89e-05	0	43	102	1048576	19	4612
2026-01-04 10:48:24.34	190.71	38.34	-29.5	-31.6	12.9	4.34e-05	0	43	102	1048576	19	4617
2026-01-04 10:48:25.34	190.90	38.56	-29.4	-31.6	12.9	4.27e-05	0	43	102	1048576	19	4595
2026-01-04 10:48:26.35	191.10	38.79	-29.5	-31.6	12.9	5.34e-05	0	43	102	1048576	19	4612
2026-01-04 10:48:27.36	191.30	39.03	-29.3	-31.3	13.1	2.21e-05	0	43	102	1048576	19	4529
2026-01-04 10:48:28.37	191.50	39.26	-29.5	-31.6	12.9	5.95e-05	0	43	102	1048576	19	4614
2026-01-04 10:48:29.37	191.71	39.49	-29.3	-31.2	13.2	2.89e-05	0	43	102	1048576	19	4485
2026-01-04 10:48:30.38	191.91	39.73	-29.3	-31.3	13.1	1.98e-05	0	43	102	1048576	19	4514
2026-01-04 10:48:31.39	192.12	39.96	-29.4	-31.5	13.0	3.81e-05	0	43	102	1048576	19	4574
2026-01-04 10:48:32.40	192.34	40.20	-29.4	-31.6	12.9	4.11e-05	0	43	102	1048576	19	4618
2026-01-04 10:48:33.41	192.56	40.44	-29.5	-31.6	12.9	3.89e-05	0	43	102	1048576	19	4628
2026-01-04 10:48:34.41	192.77	40.68	-29.6	-32.1	12.7	9.00e-05	0	43	102	1048576	19	4765
2026-01-04 10:48:35.42	193.00	40.92	-29.5	-31.8	12.8	5.18e-05	0	43	102	1048576	19	4691
2026-01-04 10:48:36.43	193.22	41.16	-29.6	-32.0	12.7	8.23e-05	0	43	102	1048576	19	4741
2026-01-04 10:48:37.44	193.45	41.40	-29.7	-32.2	12.6	1.11e-04	0	43	102	1048576	19	4802
2026-01-04 10:48:38.44	193.69	41.65	-29.7	-32.2	12.6	8.92e-05	0	43	102	1048576	19	4787
2026-01-04 10:48:39.44	193.92	41.89	-29.7	-32.2	12.6	1.04e-04	0	43	102	1048576	19	4816
2026-01-04 10:48:40.46	194.16	42.14	-29.8	-32.4	12.4	1.18e-04	0	43	102	1048576	19	4874
2026-01-04 10:48:41.46	194.40	42.38	-29.8	-32.4	12.5	1.50e-04	0	43	102	1048576	19	4858
2026-01-04 10:48:42.47	194.65	42.63	-29.8	-32.5	12.4	1.40e-04	0	43	102	1048576	19	4915
2026-01-04 10:48:43.47	194.90	42.88	-29.9	-32.8	12.2	1.50e-04	0	43	102	1048576	19	5021
2026-01-04 10:48:44.48	195.16	43.13	-30.1	-32.8	11.9	3.53e-04	0	43	102	1048576	20	4894
2026-01-04 10:48:45.49	195.42	43.38	-30.2	-33.1	11.6	7.92e-04	0	43	102	1048576	20	5027
2026-01-04 10:48:46.50	195.68	43.64	-30.3	-33.2	11.6	5.52e-04	0	43	102	1048576	20	5054
2026-01-04 10:48:47.50	195.95	43.89	-30.2	-33.1	11.7	8.29e-04	0	43	102	1048576	20	5021
2026-01-04 10:48:48.51	196.22	44.14	-29.9	-32.3	12.2	3.33e-04	0	43	102	1048576	20	4726
2026-01-04 10:48:49.52	196.49	44.40	-29.8	-31.9	12.4	1.43e-04	0	43	102	1048576	20	4593
2026-01-04 10:48:50.52	196.77	44.65	-29.6	-31.5	12.6	1.14e-04	0	43	102	1048576	20	4488
2026-01-04 10:48:51.53	197.06	44.91	-29.7	-31.6	12.6	9.46e-05	0	43	102	1048576	20	4511
2026-01-04 10:48:52.53	197.34	45.17	-29.6	-31.6	12.6	9.07e-05	0	43	102	1048576	20	4496
2026-01-04 10:48:53.54	197.64	45.43	-29.5	-31.3	12.8	5.79e-05	0	43	102	1048576	20	4425
2026-01-04 10:48:54.55	197.94	45.69	-29.6	-31.5	12.7	5.11e-05	0	43	102	1048576	20	4479
2026-01-04 10:48:55.55	198.24	45.95	-29.9	-32.2	12.3	1.23e-04	0	43	102	1048576	20	4703
2026-01-04 10:48:56.55	198.54	46.21	-30.1	-32.7	11.9	3.00e-04	0	43	102	1048576	20	4864
2026-01-04 10:48:57.56	198.86	46.47	-30.2	-33.0	11.8	3.84e-04	0	43	102	1048576	20	4961
2026-01-04 10:48:58.57	199.18	46.73	-30.0	-32.4	12.2	2.45e-04	0	43	102	1048576	20	4762
2026-01-04 10:48:59.58	199.50	47.00	-29.7	-31.7	12.6	9.30e-05	0	43	102	1048576	20	4524
2026-01-04 10:49:00.59	199.83	47.26	-29.6	-31.5	12.7	7.47e-05	0	43	102	1048576	20	4486
2026-01-04 10:49:01.60	200.17	47.53	-29.5	-31.3	12.8	5.49e-05	0	43	102	1048576	20	4409
2026-01-04 10:49:02.60	200.51	47.79	-29.5	-31.3	12.8	7.70e-05	0	43	102	1048576	20	4429
2026-01-04 10:49:03.60	200.85	48.06	-29.6	-31.4	12.8	5.95e-05	0	43	102	1048576	20	4438
2026-01-04 10:49:04.61	201.20	48.32	-29.5	-31.3	12.8	5.95e-05	0	43	102	1048576	20	4415
2026-01-04 10:49:05.62	201.56	48.59	-29.4	-31.0	13.0	4.42e-05	0	43	102	1048576	20	4315
2026-01-04 10:49:06.62	201.92	48.86	-29.6	-31.6	12.7	7.01e-05	0	43	102	1048576	20	4509
2026-01-04 10:49:07.63	202.30	49.12	-29.7	-31.7	12.6	1.02e-04	0	43	102	1048576	20	4544
2026-01-04 10:49:08.64	202.67	49.39	-29.7	-31.8	12.6	1.40e-04	0	43	102	1048576	20	4568
2026-01-04 10:49:09.64	203.06	49.66	-29.8	-32.0	12.5	1.40e-04	0	43	102	1048576	20	4632
2026-01-04 10:49:10.65	203.45	49.93	-29.7	-31.8	12.6	9.15e-05	0	43	102	1048576	20	4579
2026-01-04 10:49:11.65	203.84	50.20	-29.6	-31.3	12.7	6.10e-05	0	43	102	1048576	20	4420
2026-01-04 10:49:12.66	204.25	50.47	-29.5	-31.3	12.9	4.27e-05	0	43	102	1048576	20	4397
2026-01-04 10:49:13.67	204.66	50.74	-29.7	-31.6	12.7	6.79e-05	0	43	102	1048576	20	4482
2026-01-04 10:49:14.67	205.08	51.00	-29.3	-30.7	13.2	5.03e-05	0	43	102	1048576	20	4247
2026-01-04 10:49:15.68	205.50	51.27	-29.2	-30.9	13.5	1.60e-05	0	43	102	1048576	19	4383
2026-01-04 10:49:16.69	205.94	51.54	-29.0	-30.6	13.7	1.50e-06	0	43	102	1048576	19	4296
2026-01-04 10:49:17.69	206.38	51.81	-29.1	-30.8	13.6	8.30e-06	0	43	102	1048576	19	4349
2026-01-04 10:49:18.70	206.83	52.08	-29.1	-30.6	13.6	1.06e-05	0	43	102	1048576	19	4306
2026-01-04 10:49:19.70	207.28	52.35	-29.0	-30.4	13.9	5.30e-06	0	43	102	1048576	19	4243
2026-01-04 10:49:20.71	207.75	52.61	-28.9	-30.2	13.9	3.80e-06	0	43	102	1048576	19	4194
2026-01-04 10:49:21.72	208.23	52.88	-28.9	-30.3	13.9	5.30e-06	0	43	102	1048576	19	4212
2026-01-04 10:49:22.72	208.71	53.15	-28.6	-29.9	14.4	7.00e-07	0	43	102	1048576	18	4207
2026-01-04 10:49:23.72	209.19	53.41	-28.1	-29.4	14.9	0.00e+00	0	43	102	1048576	17	4176
2026-01-04 10:49:24.73	209.70	53.68	-28.0	-29.1	15.1	0.00e+00	0	43	102	1048576	17	4097
2026-01-04 10:49:25.74	210.21	53.94	-28.0	-29.2	15.1	0.00e+00	0	43	102	1048576	17	4124
2026-01-04 10:49:26.75	210.73	54.21	-27.9	-28.9	15.2	0.00e+00	0	43	102	1048576	17	4037
2026-01-04 10:49:27.75	211.25	54.47	-28.0	-29.1	15.2	0.00e+00	0	43	102	1048576	17	4083
2026-01-04 10:49:28.76	211.79	54.73	-28.0	-29.1	15.1	7.00e-07	0	43	102	1048576	17	4096
2026-01-04 10:49:29.77	212.34	54.99	-27.8	-28.6	15.4	0.00e+00	0	43	102	1048576	17	3965
2026-01-04 10:49:30.77	212.90	55.25	-27.5	-28.5	15.7	0.00e+00	0	43	102	1048576	16	4039
2026-01-04 10:49:31.78	213.47	55.51	-27.3	-28.1	16.0	0.00e+00	0	43	102	1048576	16	3921
2026-01-04 10:49:32.78	214.04	55.76	-27.3	-28.5	15.8	0.00e+00	0	43	102	1048576	15	4154
2026-01-04 10:49:33.79	214.64	56.01	-27.1	-28.1	16.1	0.00e+00	0	43	102	1048576	15	4055
2026-01-04 10:49:34.80	215.24	56.27	-27.1	-28.1	16.1	0.00e+00	0	43	102	1048576	15	4041
2026-01-04 10:49:35.81	215.85	56.52	-27.3	-28.5	15.9	0.00e+00	0	43	102	1048576	15	4148
2026-01-04 10:49:36.81	216.47	56.76	-27.2	-28.4	15.9	0.00e+00	0	43	102	1048576	15	4107
2026-01-04 10:49:37.82	217.10	57.01	-27.4	-28.9	15.6	0.00e+00	0	43	102	1048576	15	4246
2026-01-04 10:49:38.83	217.75	57.26	-27.6	-29.3	15.4	0.00e+00	0	43	102	1048576	15	4362
2026-01-04 10:49:39.83	218.40	57.50	-27.7	-29.5	15.3	0.00e+00	0	43	102	1048576	15	4440
2026-01-04 10:49:40.84	219.07	57.74	-27.4	-28.9	15.6	0.00e+00	0	43	102	1048576	15	4255
2026-01-04 10:49:41.85	219.75	57.97	-27.3	-28.6	15.9	0.00e+00	0	43	102	1048576	15	4173
2026-01-04 10:49:42.86	220.45	58.21	-27.4	-28.8	15.8	7.00e-07	0	43	102	1048576	15	4225
2026-01-04 10:49:43.86	221.14	58.44	-27.3	-28.5	15.9	0.00e+00	0	43	102	1048576	15	4135
2026-01-04 10:49:44.87	221.86	58.66	-27.4	-28.9	15.7	0.00e+00	0	43	102	1048576	15	4253
2026-01-04 10:49:45.87	222.58	58.89	-27.4	-28.9	15.7	0.00e+00	0	43	102	1048576	15	4253
2026-01-04 10:49:46.88	223.33	59.11	-27.4	-28.9	15.7	0.00e+00	0	43	102	1048576	15	4250
2026-01-04 10:49:47.88	224.07	59.32	-27.5	-28.9	15.7	0.00e+00	0	43	102	1048576	15	4255
2026-01-04 10:49:48.89	224.84	59.54	-27.8	-29.8	15.2	0.00e+00	0	43	102	1048576	15	4510
2026-01-04 10:49:49.90	225.62	59.74	-27.6	-29.3	15.5	0.00e+00	0	43	102	1048576	15	4366
2026-01-04 10:49:50.91	226.41	59.95	-27.6	-29.2	15.5	0.00e+00	0	43	102	1048576	15	4331
2026-01-04 10:49:51.91	227.21	60.15	-27.6	-29.4	15.4	0.00e+00	0	44	102	1048576	15	4382
2026-01-04 10:49:52.92	228.02	60.35	-27.4	-28.7	15.7	0.00e+00	0	43	102	1048576	15	4210
2026-01-04 10:49:53.93	228.85	60.54	-27.2	-28.2	16.0	0.00e+00	0	43	102	1048576	15	4077
2026-01-04 10:49:54.94	229.69	60.73	-27.4	-28.7	15.8	0.00e+00	0	43	102	1048576	15	4205
2026-01-04 10:49:55.94	230.54	60.91	-27.1	-28.1	16.2	0.00e+00	0	43	102	1048576	15	4031
2026-01-04 10:49:56.94	231.40	61.08	-27.0	-27.8	16.3	0.00e+00	0	43	102	1048576	15	3971
2026-01-04 10:49:57.95	232.27	61.26	-27.0	-27.9	16.3	0.00e+00	0	43	102	1048576	15	3988
2026-01-04 10:49:58.95	233.15	61.42	-27.3	-28.5	15.9	0.00e+00	0	43	102	1048576	15	4143
2026-01-04 10:49:59.96	234.06	61.58	-27.0	-28.0	16.1	0.00e+00	0	43	102	1048576	15	4020
2026-01-04 10:50:00.97	234.97	61.74	-26.9	-27.6	16.3	0.00e+00	0	43	102	1048576	15	3926
2026-01-04 10:50:01.97	235.88	61.89	-26.9	-27.6	16.4	0.00e+00	0	43	102	1048576	15	3915
2026-01-04 10:50:02.98	236.82	62.03	-27.0	-27.9	16.2	0.00e+00	0	44	102	1048576	15	3999
2026-01-04 10:50:03.98	237.75	62.17	-27.7	-29.5	15.4	0.00e+00	0	43	102	1048576	15	4413
2026-01-04 10:50:04.99	238.71	62.30	-27.5	-29.0	15.6	0.00e+00	0	43	102	1048576	15	4269
2026-01-04 10:50:05.99	239.67	62.42	-27.4	-28.8	15.8	0.00e+00	0	43	102	1048576	15	4230
2026-01-04 10:50:07.00	240.64	62.54	-27.1	-28.1	16.1	0.00e+00	0	43	102	1048576	15	4051
2026-01-04 10:50:08.01	241.63	62.65	-26.6	-27.6	16.7	0.00e+00	0	43	102	1048576	14	4015
2026-01-04 10:50:09.01	242.61	62.75	-26.7	-27.8	16.6	0.00e+00	0	43	102	1048576	14	4056
2026-01-04 10:50:10.02	243.61	62.85	-26.8	-27.9	16.5	0.00e+00	0	43	102	1048576	14	4100
2026-01-04 10:50:11.03	244.62	62.94	-26.8	-28.0	16.5	0.00e+00	0	43	102	1048576	14	4116
2026-01-04 10:50:12.04	245.64	63.02	-26.6	-27.6	16.6	0.00e+00	0	43	102	1048576	14	4015
2026-01-04 10:50:13.04	246.65	63.10	-26.6	-27.5	16.7	0.00e+00	0	43	102	1048576	14	3997
2026-01-04 10:50:14.05	247.68	63.16	-27.1	-28.7	16.1	0.00e+00	0	43	102	1048576	14	4300
2026-01-04 10:50:15.06	248.72	63.22	-26.8	-27.9	16.5	0.00e+00	0	43	102	1048576	14	4096
2026-01-04 10:50:16.07	249.76	63.28	-26.4	-27.0	17.0	0.00e+00	0	43	102	1048576	14	3865
2026-01-04 10:50:17.07	250.79	63.32	-26.5	-27.2	16.9	0.00e+00	0	43	102	1048576	14	3927
2026-01-04 10:50:18.08	251.84	63.36	-27.0	-28.4	16.2	0.00e+00	0	43	102	1048576	14	4234
2026-01-04 10:50:19.09	252.89	63.39	-27.3	-29.0	15.9	0.00e+00	0	43	102	1048576	14	4406
2026-01-04 10:50:20.09	253.93	63.41	-27.0	-28.4	16.3	0.00e+00	0	43	102	1048576	14	4241
2026-01-04 10:50:21.10	254.99	63.42	-27.0	-28.5	16.2	0.00e+00	0	43	102	1048576	14	4258
2026-01-04 10:50:22.10	256.03	63.43	-27.2	-28.9	15.9	0.00e+00	0	43	102	1048576	14	4355
2026-01-04 10:50:23.11	257.09	63.43	-26.9	-28.1	16.4	0.00e+00	0	43	102	1048576	14	4154
2026-01-04 10:50:24.12	258.14	63.42	-26.8	-28.0	16.5	0.00e+00	0	43	102	1048576	14	4134
2026-01-04 10:50:25.12	259.18	63.40	-26.8	-28.0	16.5	0.00e+00	0	43	102	1048576	14	4131
2026-01-04 10:50:26.13	260.24	63.37	-27.3	-29.0	15.9	0.00e+00	0	43	102	1048576	14	4408
2026-01-04 10:50:27.13	261.27	63.34	-26.9	-28.2	16.3	0.00e+00	0	43	102	1048576	14	4183
2026-01-04 10:50:28.14	262.32	63.30	-26.8	-28.1	16.4	0.00e+00	0	43	102	1048576	14	4144
2026-01-04 10:50:29.15	263.36	63.25	-27.0	-28.4	16.3	0.00e+00	0	43	102	1048576	14	4232
2026-01-04 10:50:30.15	264.39	63.19	-27.0	-28.5	16.2	0.00e+00	0	43	102	1048576	14	4250
2026-01-04 10:50:31.16	265.42	63.13	-27.3	-29.2	15.8	0.00e+00	0	43	102	1048576	14	4445
2026-01-04 10:50:32.16	266.44	63.06	-27.3	-29.1	15.9	0.00e+00	0	43	102	1048576	14	4424
2026-01-04 10:50:33.17	267.46	62.98	-27.1	-28.7	16.2	4.50e-06	0	43	102	1048576	14	4310
2026-01-04 10:50:34.18	268.47	62.89	-27.0	-28.5	16.2	0.00e+00	0	43	102	1048576	14	4244
2026-01-04 10:50:35.18	269.46	62.80	-27.1	-28.5	16.2	0.00e+00	0	43	102	1048576	14	4261
2026-01-04 10:50:36.19	270.46	62.70	-26.7	-27.6	16.7	3.80e-06	0	43	102	1048576	14	4024
2026-01-04 10:50:37.20	271.45	62.59	-26.7	-27.6	16.7	0.00e+00	0	43	102	1048576	14	4021
2026-01-04 10:50:38.21	272.43	62.48	-26.8	-27.9	16.6	0.00e+00	0	43	102	1048576	14	4096
2026-01-04 10:50:39.21	273.39	62.36	-26.9	-28.1	16.4	6.80e-06	0	43	102	1048576	14	4134
2026-01-04 10:50:40.22	274.35	62.23	-27.1	-28.5	16.2	0.00e+00	0	43	102	1048576	14	4259
2026-01-04 10:50:41.23	275.30	62.09	-27.2	-28.9	16.0	0.00e+00	0	43	102	1048576	14	4370
2026-01-04 10:50:42.23	276.23	61.96	-27.2	-28.8	16.1	2.20e-06	0	43	102	1048576	14	4325
2026-01-04 10:50:43.24	277.15	61.81	-27.4	-28.8	15.8	0.00e+00	0	43	102	1048576	15	4234
2026-01-04 10:50:44.25	278.07	61.66	-27.3	-28.5	16.0	0.00e+00	0	43	102	1048576	15	4153
2026-01-04 10:50:45.26	278.98	61.50	-27.4	-28.8	15.8	0.00e+00	0	43	102	1048576	15	4225
2026-01-04 10:50:46.27	279.87	61.33	-27.4	-28.9	15.8	0.00e+00	0	43	102	1048576	15	4252
2026-01-04 10:50:47.28	280.75	61.16	-26.6	-27.4	16.8	0.00e+00	0	43	102	1048576	14	3974
2026-01-04 10:50:48.28	281.61	60.99	-26.2	-27.0	17.2	0.00e+00	0	43	102	1048576	13	3984
2026-01-04 10:50:49.29	282.47	60.81	-26.4	-27.6	16.9	0.00e+00	0	43	102	1048576	13	4132
2026-01-04 10:50:50.30	283.32	60.63	-26.8	-28.4	16.6	0.00e+00	0	43	102	1048576	13	4332
2026-01-04 10:50:51.30	284.14	60.44	-26.9	-28.8	16.3	0.00e+00	0	43	102	1048576	13	4439
2026-01-04 10:50:52.31	284.96	60.24	-27.1	-28.6	16.2	0.00e+00	0	43	102	1048576	14	4268
2026-01-04 10:50:53.32	285.77	60.05	-27.3	-29.1	16.0	0.00e+00	0	43	102	1048576	14	4409
2026-01-04 10:50:54.32	286.56	59.84	-27.1	-28.6	16.2	0.00e+00	0	43	102	1048576	14	4283
2026-01-04 10:50:55.32	287.34	59.64	-26.9	-28.2	16.4	0.00e+00	0	43	102	1048576	14	4167
2026-01-04 10:50:56.33	288.11	59.43	-27.4	-29.3	15.8	0.00e+00	0	43	102	1048576	14	4477
2026-01-04 10:50:57.34	288.87	59.21	-28.0	-30.1	15.0	0.00e+00	0	43	102	1048576	15	4617
2026-01-04 10:50:58.35	289.61	58.99	-28.7	-30.8	14.2	7.00e-07	0	43	102	1048576	17	4574
2026-01-04 10:50:59.35	290.34	58.77	-28.4	-30.1	14.7	7.00e-07	0	43	102	1048576	17	4380
2026-01-04 10:51:00.35	291.05	58.55	-28.2	-29.6	14.9	0.00e+00	0	43	102	1048576	17	4219
2026-01-04 10:51:01.35	291.76	58.32	-28.4	-30.1	14.6	0.00e+00	0	43	102	1048576	17	4361
2026-01-04 10:51:02.36	292.46	58.09	-28.5	-30.2	14.6	7.00e-07	0	43	102	1048576	17	4391
2026-01-04 10:51:03.37	293.14	57.86	-28.1	-29.4	15.1	0.00e+00	0	43	102	1048576	17	4160
2026-01-04 10:51:04.38	293.82	57.62	-28.1	-29.4	15.0	7.00e-07	0	43	102	1048576	17	4183
2026-01-04 10:51:05.39	294.48	57.38	-28.4	-30.0	14.7	0.00e+00	0	43	102	1048576	17	4343
2026-01-04 10:51:06.39	295.12	57.14	-28.6	-30.5	14.4	2.20e-06	0	43	102	1048576	17	4490
2026-01-04 10:51:07.40	295.76	56.89	-28.6	-30.6	14.4	7.00e-07	0	43	102	1048576	17	4521
2026-01-04 10:51:08.41	296.39	56.65	-28.2	-29.5	15.0	0.00e+00	0	43	102	1048576	17	4200
2026-01-04 10:51:09.42	297.01	56.40	-27.9	-28.9	15.4	0.00e+00	0	43	102	1048576	17	4023
2026-01-04 10:51:10.43	297.61	56.15	-27.9	-29.4	15.3	0.00e+00	0	43	102	1048576	16	4256
2026-01-04 10:51:11.43	298.20	55.90	-28.3	-30.4	14.7	7.00e-07	0	43	102	1048576	16	4556
2026-01-04 10:51:12.44	298.79	55.64	-28.6	-30.5	14.4	2.20e-06	0	43	102	1048576	17	4467
2026-01-04 10:51:13.45	299.36	55.39	-28.9	-31.3	14.0	2.20e-06	0	43	102	1048576	17	4741
2026-01-04 10:51:14.45	299.92	55.13	-28.7	-30.8	14.2	1.50e-06	0	43	102	1048576	17	4583
2026-01-04 10:51:15.46	300.47	54.87	-28.3	-29.8	14.8	0.00e+00	0	43	102	1048576	17	4269
2026-01-04 10:51:16.47	301.01	54.61	-28.1	-29.4	15.1	0.00e+00	0	43	102	1048576	17	4170
2026-01-04 10:51:17.48	301.55	54.35	-28.2	-29.5	15.0	1.50e-06	0	43	102	1048576	17	4200
2026-01-04 10:51:18.49	302.07	54.09	-28.1	-29.4	15.0	0.00e+00	0	43	102	1048576	17	4169
2026-01-04 10:51:19.49	302.58	53.82	-28.3	-29.7	14.9	0.00e+00	0	43	102	1048576	17	4248
2026-01-04 10:51:20.50	303.09	53.56	-28.8	-31.0	14.2	7.00e-07	0	43	102	1048576	17	4614
2026-01-04 10:51:21.50	303.58	53.30	-29.1	-31.2	13.8	5.30e-06	0	43	102	1048576	18	4565
2026-01-04 10:51:22.51	304.07	53.03	-28.7	-30.2	14.4	0.00e+00	0	43	102	1048576	18	4287
2026-01-04 10:51:23.51	304.54	52.77	-28.6	-30.0	14.5	1.50e-06	0	43	102	1048576	18	4223
2026-01-04 10:51:24.52	305.01	52.50	-28.7	-30.2	14.4	1.50e-06	0	43	102	1048576	18	4263
2026-01-04 10:51:25.53	305.48	52.23	-28.7	-30.1	14.4	7.00e-07	0	43	102	1048576	18	4250
2026-01-04 10:51:26.54	305.93	51.96	-28.8	-30.4	14.3	7.00e-07	0	43	102	1048576	18	4328
2026-01-04 10:51:27.54	306.37	51.70	-29.0	-31.0	14.0	7.00e-07	0	43	102	1048576	18	4493
2026-01-04 10:51:28.55	306.81	51.43	-29.6	-31.8	13.2	2.21e-05	0	43	102	1048576	19	4661
2026-01-04 10:51:29.56	307.24	51.16	-30.1	-32.8	12.2	1.56e-04	0	43	102	1048576	20	4871
2026-01-04 10:51:30.56	307.66	50.90	-30.2	-32.9	12.1	2.65e-04	0	43	102	1048576	20	4898
2026-01-04 10:51:31.57	308.07	50.63	-29.8	-31.8	12.7	1.62e-04	0	43	102	1048576	20	4555
2026-01-04 10:51:32.57	308.48	50.36	-29.3	-31.1	13.5	2.51e-05	0	43	102	1048576	19	4443
2026-01-04 10:51:33.58	308.88	50.09	-29.0	-30.4	13.9	3.80e-06	0	43	102	1048576	19	4232
2026-01-04 10:51:34.59	309.27	49.82	-29.0	-30.4	14.0	4.50e-06	0	43	102	1048576	19	4224
2026-01-04 10:51:35.60	309.66	49.56	-29.0	-30.5	13.9	2.20e-06	0	43	102	1048576	19	4237
2026-01-04 10:51:36.60	310.04	49.29	-29.4	-31.4	13.4	1.67e-05	0	43	102	1048576	19	4514
2026-01-04 10:51:37.61	310.41	49.02	-29.9	-32.7	12.6	6.48e-05	0	43	102	1048576	19	4941
2026-01-04 10:51:38.62	310.78	48.76	-29.9	-32.2	12.5	1.16e-04	0	43	102	1048576	20	4675
2026-01-04 10:51:39.63	311.14	48.49	-29.9	-32.0	12.6	9.30e-05	0	43	102	1048576	20	4626
2026-01-04 10:51:40.64	311.50	48.22	-29.8	-31.9	12.7	6.25e-05	0	43	102	1048576	20	4566
2026-01-04 10:51:41.65	311.84	47.96	-30.2	-32.8	12.2	1.85e-04	0	43	102	1048576	20	4863
2026-01-04 10:51:42.65	312.18	47.69	-30.3	-33.2	11.9	4.17e-04	0	43	102	1048576	20	5024
2026-01-04 10:51:43.66	312.52	47.43	-29.9	-32.2	12.5	2.01e-04	0	43	102	1048576	20	4676
2026-01-04 10:51:44.67	312.85	47.16	-29.6	-31.3	13.0	5.72e-05	0	43	102	1048576	20	4406
2026-01-04 10:51:45.67	313.18	46.90	-29.4	-30.9	13.3	1.98e-05	0	43	102	1048576	20	4288
2026-01-04 10:51:46.67	313.50	46.64	-29.8	-31.8	12.8	4.73e-05	0	43	102	1048576	20	4542
2026-01-04 10:51:47.67	313.81	46.38	-30.2	-32.9	12.0	2.17e-04	0	43	102	1048576	20	4933
2026-01-04 10:51:48.68	314.12	46.12	-30.8	-33.9	11.1	1.50e-03	0	43	102	1048576	21	5182
2026-01-04 10:51:49.68	314.42	45.87	-30.7	-33.6	11.2	1.62e-03	0	43	102	1048576	21	5078
2026-01-04 10:51:50.69	314.72	45.61	-30.4	-33.0	11.7	7.74e-04	0	43	102	1048576	21	4837
2026-01-04 10:51:51.70	315.02	45.35	-30.5	-33.2	11.5	6.84e-04	0	43	102	1048576	21	4913
2026-01-04 10:51:52.71	315.31	45.09	-30.5	-33.2	11.5	8.44e-04	0	43	102	1048576	21	4893
2026-01-04 10:51:53.72	315.60	44.83	-30.2	-32.5	11.9	5.58e-04	0	43	102	1048576	21	4668
2026-01-04 10:51:54.73	315.88	44.58	-29.9	-31.6	12.5	1.43e-04	0	43	102	1048576	21	4376
2026-01-04 10:51:55.73	316.16	44.32	-29.8	-31.8	12.6	1.22e-04	0	43	102	1048576	20	4545
2026-01-04 10:51:56.74	316.43	44.07	-29.7	-31.5	12.9	5.41e-05	0	43	102	1048576	20	4457
2026-01-04 10:51:57.75	316.70	43.81	-29.9	-32.1	12.5	7.17e-05	0	43	102	1048576	20	4638
2026-01-04 10:51:58.76	316.97	43.56	-30.0	-32.3	12.3	1.56e-04	0	43	102	1048576	20	4710
2026-01-04 10:51:59.76	317.22	43.31	-30.0	-32.3	12.4	1.36e-04	0	43	102	1048576	20	4699
2026-01-04 10:52:00.77	317.48	43.06	-30.1	-32.7	12.2	1.88e-04	0	43	102	1048576	20	4845
2026-01-04 10:52:01.78	317.73	42.81	-30.0	-32.3	12.4	1.53e-04	0	43	102	1048576	20	4722
2026-01-04 10:52:02.79	317.98	42.57	-29.7	-31.6	12.9	5.79e-05	0	43	102	1048576	20	4476
2026-01-04 10:52:03.79	318.23	42.32	-29.3	-30.7	13.4	2.13e-05	0	43	102	1048576	20	4212
2026-01-04 10:52:04.80	318.47	42.08	-29.1	-30.7	13.8	3.80e-06	0	43	102	1048576	19	4306
2026-01-04 10:52:05.80	318.71	41.83	-28.8	-29.8	14.2	7.00e-07	0	43	102	1048576	19	4069
2026-01-04 10:52:06.81	318.94	41.59	-28.8	-30.5	14.1	7.00e-07	0	43	102	1048576	18	4347
2026-01-04 10:52:07.82	319.17	41.35	-29.3	-31.5	13.5	1.06e-05	0	43	102	1048576	18	4669
2026-01-04 10:52:08.83	319.40	41.10	-29.7	-32.0	12.9	3.43e-05	0	43	102	1048576	19	4728
2026-01-04 10:52:09.83	319.62	40.87	-29.8	-32.4	12.8	7.09e-05	0	43	102	1048576	19	4835
2026-01-04 10:52:10.84	319.84	40.63	-29.8	-32.4	12.7	1.01e-04	0	43	102	1048576	19	4848
2026-01-04 10:52:11.85	320.06	40.39	-29.8	-32.3	12.8	6.56e-05	0	43	102	1048576	19	4798
2026-01-04 10:52:12.85	320.28	40.15	-29.7	-32.0	12.9	4.80e-05	0	43	102	1048576	19	4710
2026-01-04 10:52:13.86	320.49	39.92	-29.8	-32.5	12.6	8.85e-05	0	43	102	1048576	19	4874
2026-01-04 10:52:14.87	320.70	39.68	-29.9	-32.7	12.5	1.24e-04	0	43	102	1048576	19	4953
2026-01-04 10:52:15.87	320.90	39.45	-30.0	-32.4	12.3	1.48e-04	0	43	102	1048576	20	4753
2026-01-04 10:52:16.88	321.11	39.22	-30.1	-32.6	12.2	2.18e-04	0	43	102	1048576	20	4829
2026-01-04 10:52:17.89	321.31	38.99	-30.3	-33.2	11.8	3.71e-04	0	43	102	1048576	20	5034
2026-01-04 10:52:18.90	321.50	38.76	-30.3	-33.1	11.9	4.25e-04	0	43	102	1048576	20	4980
2026-01-04 10:52:19.90	321.70	38.53	-30.2	-32.9	12.0	3.53e-04	0	43	102	1048576	20	4918
2026-01-04 10:52:20.91	321.89	38.30	-30.2	-32.8	12.0	3.51e-04	0	43	102	1048576	20	4895
2026-01-04 10:52:21.92	322.08	38.08	-30.0	-32.3	12.4	1.59e-04	0	43	102	1048576	20	4716
2026-01-04 10:52:22.93	322.27	37.85	-30.0	-32.3	12.3	1.50e-04	0	43	102	1048576	20	4709
2026-01-04 10:52:23.93	322.45	37.63	-30.1	-32.7	12.1	2.18e-04	0	43	102	1048576	20	4829
2026-01-04 10:52:24.94	322.63	37.41	-29.9	-32.1	12.5	1.59e-04	0	43	102	1048576	20	4653
2026-01-04 10:52:25.95	322.81	37.19	-29.6	-31.5	12.8	8.01e-05	0	43	102	1048576	20	4454
2026-01-04 10:52:26.96	322.99	36.97	-29.6	-31.5	12.9	6.40e-05	0	43	102	1048576	20	4465
2026-01-04 10:52:27.96	323.16	36.75	-29.5	-31.2	13.0	4.50e-05	0	43	102	1048576	20	4380
2026-01-04 10:52:28.97	323.34	36.53	-29.4	-30.8	13.2	4.04e-05	0	43	102	1048576	20	4263
2026-01-04 10:52:29.98	323.51	36.31	-29.2	-30.9	13.6	1.44e-05	0	43	102	1048576	19	4392
2026-01-04 10:52:30.99	323.68	36.10	-28.8	-30.0	14.1	3.80e-06	0	43	102	1048576	19	4123
2026-01-04 10:52:31.99	323.84	35.89	-28.8	-30.4	14.1	2.20e-06	0	43	102	1048576	18	4340
2026-01-04 10:52:33.00	324.01	35.67	-28.6	-29.9	14.4	1.50e-06	0	43	102	1048576	18	4194
2026-01-04 10:52:34.01	324.17	35.46	-28.5	-29.7	14.5	0.00e+00	0	43	102	1048576	18	4134
2026-01-04 10:52:35.01	324.33	35.25	-28.6	-30.0	14.4	0.00e+00	0	43	102	1048576	18	4216
2026-01-04 10:52:36.01	324.48	35.04	-28.7	-30.1	14.3	2.20e-06	0	43	102	1048576	18	4265
2026-01-04 10:52:37.02	324.64	34.83	-28.9	-30.6	14.0	2.20e-06	0	43	102	1048576	18	4402
2026-01-04 10:52:38.03	324.79	34.63	-29.1	-31.2	13.7	3.00e-06	0	43	102	1048576	18	4586
2026-01-04 10:52:39.04	324.95	34.42	-29.1	-31.3	13.6	6.80e-06	0	43	102	1048576	18	4599
2026-01-04 10:52:40.04	325.10	34.22	-29.1	-31.3	13.6	5.30e-06	0	43	102	1048576	18	4593
2026-01-04 10:52:41.05	325.25	34.01	-29.0	-30.9	13.8	5.30e-06	0	43	102	1048576	18	4486
2026-01-04 10:52:42.06	325.39	33.81	-29.0	-31.0	13.7	8.30e-06	0	43	102	1048576	18	4509
2026-01-04 10:52:43.06	325.54	33.61	-28.9	-30.7	13.9	3.00e-06	0	43	102	1048576	18	4416
2026-01-04 10:52:44.07	325.68	33.41	-28.9	-30.8	13.9	4.50e-06	0	43	102	1048576	18	4447
2026-01-04 10:52:45.07	325.82	33.21	-29.0	-30.9	13.8	6.10e-06	0	43	102	1048576	18	4475
2026-01-04 10:52:46.08	325.96	33.01	-28.6	-30.0	14.4	0.00e+00	0	43	102	1048576	18	4225
2026-01-04 10:52:47.09	326.10	32.81	-28.3	-29.4	14.7	7.00e-07	0	43	102	1048576	18	4064
2026-01-04 10:52:48.10	326.24	32.62	-28.2	-29.6	14.8	0.00e+00	0	43	102	1048576	17	4216
2026-01-04 10:52:49.10	326.37	32.43	-28.1	-29.5	14.9	0.00e+00	0	43	102	1048576	17	4187
2026-01-04 10:52:50.10	326.50	32.23	-28.1	-29.3	15.0	7.00e-07	0	43	102	1048576	17	4138
2026-01-04 10:52:51.11	326.64	32.04	-28.1	-29.3	14.9	0.00e+00	0	43	102	1048576	17	4144
2026-01-04 10:52:52.12	326.77	31.85	-27.8	-29.1	15.3	0.00e+00	0	43	102	1048576	16	4190
2026-01-04 10:52:53.12	326.89	31.66	-27.7	-28.9	15.3	0.00e+00	0	43	102	1048576	16	4148
2026-01-04 10:52:54.13	327.02	31.47	-27.8	-29.2	15.2	0.00e+00	0	43	102	1048576	16	4227
2026-01-04 10:52:55.14	327.15	31.28	-27.8	-29.2	15.2	7.00e-07	0	43	102	1048576	16	4217
2026-01-04 10:52:56.14	327.27	31.10	-28.0	-29.6	15.0	7.00e-07	0	44	102	1048576	16	4322
2026-01-04 10:52:57.15	327.40	30.91	-28.0	-29.5	15.1	0.00e+00	0	43	102	1048576	16	4321
2026-01-04 10:52:58.16	327.52	30.72	-27.9	-29.5	15.1	0.00e+00	0	43	102	1048576	16	4299
2026-01-04 10:52:59.16	327.64	30.54	-28.1	-29.8	14.9	7.00e-07	0	43	102	1048576	16	4402
2026-01-04 10:53:00.17	327.76	30.36	-28.0	-29.6	15.0	0.00e+00	0	43	102	1048576	16	4338
2026-01-04 10:53:01.17	327.87	30.18	-28.0	-29.7	14.9	0.00e+00	0	43	102	1048576	16	4348
2026-01-04 10:53:02.18	327.99	30.00	-28.1	-29.9	14.8	7.00e-07	0	43	102	1048576	16	4421
2026-01-04 10:53:03.19	328.11	29.82	-28.1	-29.9	14.7	0.00e+00	0	43	102	1048576	16	4423
2026-01-04 10:53:04.20	328.22	29.64	-28.3	-30.3	14.5	7.00e-07	0	43	102	1048576	16	4541
2026-01-04 10:53:05.20	328.33	29.46	-28.2	-30.0	14.7	7.00e-07	0	43	102	1048576	16	4454
2026-01-04 10:53:06.21	328.45	29.28	-28.2	-30.1	14.7	0.00e+00	0	43	102	1048576	16	4495
2026-01-04 10:53:07.21	328.56	29.11	-28.3	-30.3	14.6	0.00e+00	0	43	102	1048576	16	4549
2026-01-04 10:53:08.22	328.67	28.93	-28.3	-30.4	14.6	0.00e+00	0	43	102	1048576	16	4561
2026-01-04 10:53:09.23	328.78	28.76	-28.4	-30.6	14.5	7.00e-07	0	43	102	1048576	16	4638
2026-01-04 10:53:10.23	328.88	28.59	-28.4	-30.6	14.5	2.20e-06	0	43	102	1048576	16	4628
2026-01-04 10:53:11.24	328.99	28.41	-28.2	-30.2	14.7	0.00e+00	0	43	102	1048576	16	4520
2026-01-04 10:53:12.24	329.09	28.24	-28.1	-29.9	14.9	0.00e+00	0	43	102	1048576	16	4422
2026-01-04 10:53:13.25	329.20	28.07	-28.1	-29.9	14.9	0.00e+00	0	43	102	1048576	16	4411
2026-01-04 10:53:14.26	329.30	27.90	-28.1	-29.9	14.8	0.00e+00	0	43	102	1048576	16	4436
2026-01-04 10:53:15.26	329.40	27.74	-27.9	-29.3	15.1	0.00e+00	0	43	102	1048576	16	4251
2026-01-04 10:53:16.27	329.50	27.57	-28.0	-29.5	15.0	0.00e+00	0	43	102	1048576	16	4322
2026-01-04 10:53:17.27	329.60	27.41	-28.1	-29.9	14.8	0.00e+00	0	43	102	1048576	16	4417
2026-01-04 10:53:18.28	329.70	27.24	-27.9	-29.3	15.1	0.00e+00	0	43	102	1048576	16	4263
2026-01-04 10:53:19.29	329.80	27.07	-27.7	-29.0	15.4	0.00e+00	0	43	102	1048576	16	4174
2026-01-04 10:53:20.29	329.90	26.91	-27.7	-28.9	15.4	0.00e+00	0	43	102	1048576	16	4145
2026-01-04 10:53:21.30	329.99	26.75	-27.7	-29.0	15.4	0.00e+00	0	43	102	1048576	16	4167
2026-01-04 10:53:22.30	330.09	26.59	-27.6	-28.7	15.5	0.00e+00	0	43	102	1048576	16	4099
2026-01-04 10:53:23.31	330.18	26.43	-27.4	-28.3	15.6	0.00e+00	0	44	102	1048576	16	4001
2026-01-04 10:53:24.32	330.27	26.27	-27.4	-28.2	15.7	0.00e+00	0	43	102	1048576	16	3964
2026-01-04 10:53:25.33	330.37	26.11	-27.3	-28.2	15.7	7.00e-07	0	43	102	1048576	16	3955
2026-01-04 10:53:26.34	330.46	25.95	-27.4	-28.3	15.6	0.00e+00	0	43	102	1048576	16	3983
2026-01-04 10:53:27.35	330.55	25.79	-27.1	-28.1	15.7	0.00e+00	0	43	102	1048576	15	4055
2026-01-04 10:53:28.35	330.64	25.64	-27.1	-28.2	15.7	0.00e+00	0	43	102	1048576	15	4068
2026-01-04 10:53:29.36	330.73	25.48	-27.2	-28.3	15.7	0.00e+00	0	43	102	1048576	15	4097
2026-01-04 10:53:30.37	330.82	25.33	-27.2	-28.4	15.7	0.00e+00	0	44	102	1048576	15	4142
2026-01-04 10:53:31.37	330.90	25.17	-27.3	-28.7	15.6	0.00e+00	0	43	102	1048576	15	4210
2026-01-04 10:53:32.37	330.99	25.02	-27.4	-28.9	15.5	0.00e+00	0	43	102	1048576	15	4270
2026-01-04 10:53:33.38	331.08	24.87	-27.5	-29.1	15.3	0.00e+00	0	43	102	1048576	15	4316
2026-01-04 10:53:34.38	331.16	24.72	-27.6	-29.2	15.1	0.00e+00	0	43	102	1048576	15	4360
2026-01-04 10:53:35.39	331.24	24.57	-27.7	-29.5	14.9	0.00e+00	0	43	102	1048576	15	4425
2026-01-04 10:53:36.39	331.33	24.42	-27.8	-29.7	14.8	0.00e+00	0	43	102	1048576	15	4493
2026-01-04 10:53:37.40	331.41	24.27	-27.7	-29.4	14.9	7.00e-07	0	43	102	1048576	15	4418
2026-01-04 10:53:38.40	331.49	24.12	-27.6	-29.4	15.0	7.00e-07	0	43	102	1048576	15	4393
2026-01-04 10:53:39.41	331.57	23.97	-27.7	-29.6	14.9	0.00e+00	0	43	102	1048576	15	4458
2026-01-04 10:53:40.42	331.65	23.83	-27.8	-29.7	14.8	0.00e+00	0	43	102	1048576	15	4480
2026-01-04 10:53:41.42	331.73	23.68	-27.8	-29.9	14.4	0.00e+00	0	43	102	1048576	15	4551
2026-01-04 10:53:42.43	331.81	23.54	-27.9	-30.0	14.0	2.20e-06	0	43	102	1048576	15	4593
2026-01-04 10:53:43.44	331.89	23.39	-27.9	-30.1	13.7	3.00e-06	0	43	102	1048576	15	4643
2026-01-04 10:53:44.45	331.97	23.25	-28.2	-30.1	13.8	6.80e-06	0	43	102	1048576	16	4514
2026-01-04 10:53:45.45	332.05	23.11	-28.2	-30.1	14.3	2.20e-06	0	43	102	1048576	16	4491
2026-01-04 10:53:46.46	332.12	22.96	-28.2	-30.2	14.4	1.50e-06	0	43	102	1048576	16	4535
2026-01-04 10:53:47.47	332.20	22.82	-28.2	-30.1	14.2	1.50e-06	0	44	102	1048576	16	4500
2026-01-04 10:53:48.48	332.27	22.68	-28.2	-30.2	13.8	3.00e-06	0	43	102	1048576	16	4528
2026-01-04 10:53:49.49	332.35	22.54	-28.2	-30.3	13.7	9.10e-06	0	43	102	1048576	16	4577
2026-01-04 10:53:50.50	332.42	22.40	-28.2	-30.2	14.0	3.80e-06	0	43	102	1048576	16	4519
2026-01-04 10:53:51.50	332.50	22.26	-28.2	-30.3	14.3	1.50e-06	0	43	102	1048576	16	4545
2026-01-04 10:53:52.50	332.57	22.13	-28.3	-30.5	14.3	7.00e-07	0	43	102	1048576	16	4619
2026-01-04 10:53:53.51	332.64	21.99	-28.3	-30.5	14.3	0.00e+00	0	43	102	1048576	16	4609
2026-01-04 10:53:54.52	332.71	21.85	-28.3	-30.5	14.2	7.00e-07	0	43	102	1048576	16	4614
2026-01-04 10:53:55.53	332.78	21.72	-28.4	-30.6	14.1	3.00e-06	0	43	102	1048576	16	4645
2026-01-04 10:53:56.54	332.85	21.58	-28.2	-30.1	14.4	7.00e-07	0	43	102	1048576	16	4492
2026-01-04 10:53:57.55	332.92	21.45	-28.0	-29.7	14.6	7.00e-07	0	44	102	1048576	16	4387
2026-01-04 10:53:58.55	332.99	21.31	-28.0	-29.7	14.8	0.00e+00	0	43	102	1048576	16	4367
2026-01-04 10:53:59.56	333.06	21.18	-27.9	-29.4	14.9	0.00e+00	0	43	102	1048576	16	4302
2026-01-04 10:54:00.57	333.13	21.05	-27.7	-29.1	15.1	0.00e+00	0	43	102	1048576	16	4196
2026-01-04 10:54:01.58	333.20	20.91	-27.7	-29.0	15.2	0.00e+00	0	43	102	1048576	16	4173
2026-01-04 10:54:02.58	333.26	20.78	-27.6	-28.7	15.3	0.00e+00	0	43	102	1048576	16	4099
2026-01-04 10:54:03.59	333.33	20.65	-27.6	-28.7	15.4	0.00e+00	0	43	102	1048576	16	4086
2026-01-04 10:54:04.60	333.40	20.52	-27.6	-28.8	15.3	0.00e+00	0	43	102	1048576	16	4130
2026-01-04 10:54:05.61	333.46	20.39	-27.6	-28.8	15.3	0.00e+00	0	43	102	1048576	16	4126
2026-01-04 10:54:06.61	333.53	20.27	-27.6	-28.7	15.4	0.00e+00	0	43	102	1048576	16	4091
2026-01-04 10:54:07.62	333.59	20.14	-27.6	-28.8	15.3	0.00e+00	0	43	102	1048576	16	4115
2026-01-04 10:54:08.63	333.65	20.01	-27.6	-28.9	15.2	0.00e+00	0	43	102	1048576	16	4142
2026-01-04 10:54:09.63	333.72	19.89	-27.7	-29.1	15.1	0.00e+00	0	43	102	1048576	16	4199
2026-01-04 10:54:10.64	333.78	19.76	-27.8	-29.3	15.0	0.00e+00	0	43	102	1048576	16	4261
2026-01-04 10:54:11.65	333.84	19.63	-27.8	-29.3	15.0	7.00e-07	0	43	102	1048576	16	4262
2026-01-04 10:54:12.66	333.91	19.51	-27.9	-29.5	14.9	0.00e+00	0	43	102	1048576	16	4308
2026-01-04 10:54:13.66	333.97	19.39	-27.9	-29.5	14.8	7.00e-07	0	43	102	1048576	16	4333
2026-01-04 10:54:14.67	334.03	19.26	-28.0	-29.8	14.6	7.00e-07	0	43	102	1048576	16	4409
2026-01-04 10:54:15.68	334.09	19.14	-28.1	-29.8	14.6	0.00e+00	0	43	102	1048576	16	4418
2026-01-04 10:54:16.69	334.15	19.02	-28.0	-29.7	14.7	0.00e+00	0	43	102	1048576	16	4377
2026-01-04 10:54:17.69	334.21	18.89	-28.0	-29.8	14.6	7.00e-07	0	43	102	1048576	16	4415
2026-01-04 10:54:18.70	334.27	18.77	-28.2	-30.1	14.4	0.00e+00	0	43	102	1048576	16	4512
2026-01-04 10:54:19.71	334.33	18.65	-28.1	-30.0	14.4	7.00e-07	0	43	102	1048576	16	4480
2026-01-04 10:54:20.72	334.39	18.53	-28.1	-30.0	14.4	0.00e+00	0	43	102	1048576	16	4471
2026-01-04 10:54:21.72	334.44	18.41	-28.2	-30.3	14.3	0.00e+00	0	43	102	1048576	16	4560
2026-01-04 10:54:22.72	334.50	18.29	-28.2	-30.3	14.4	7.00e-07	0	43	102	1048576	16	4554
2026-01-04 10:54:23.72	334.56	18.18	-28.1	-30.1	14.5	0.00e+00	0	43	102	1048576	16	4495
2026-01-04 10:54:24.73	334.61	18.06	-28.1	-30.1	14.5	0.00e+00	0	43	102	1048576	16	4488
2026-01-04 10:54:25.73	334.67	17.94	-28.2	-30.1	14.4	1.50e-06	0	43	102	1048576	16	4516
2026-01-04 10:54:26.74	334.73	17.82	-28.3	-30.5	14.2	1.50e-06	0	43	102	1048576	16	4625
2026-01-04 10:54:27.75	334.78	17.71	-28.3	-30.4	14.2	2.20e-06	0	43	102	1048576	16	4585
2026-01-04 10:54:28.76	334.84	17.59	-28.2	-30.2	14.3	0.00e+00	0	43	102	1048576	16	4526
2026-01-04 10:54:29.77	334.89	17.48	-28.2	-30.3	14.3	2.20e-06	0	43	102	1048576	16	4545
2026-01-04 10:54:30.78	334.95	17.36	-28.2	-30.3	14.3	1.50e-06	0	43	102	1048576	16	4561
2026-01-04 10:54:31.78	335.00	17.25	-28.2	-30.3	14.2	1.50e-06	0	43	102	1048576	16	4569
2026-01-04 10:54:32.79	335.05	17.13	-28.3	-30.6	14.1	7.00e-07	0	43	102	1048576	16	4641
2026-01-04 10:54:33.80	335.11	17.02	-28.3	-30.5	14.2	2.20e-06	0	43	102	1048576	16	4609
2026-01-04 10:54:34.80	335.16	16.91	-28.3	-30.5	14.2	2.20e-06	0	43	102	1048576	16	4617
2026-01-04 10:54:35.80	335.21	16.80	-28.4	-30.5	14.1	7.00e-07	0	43	102	1048576	16	4634
2026-01-04 10:54:36.81	335.26	16.69	-28.4	-30.6	14.1	7.00e-07	0	43	102	1048576	16	4649
2026-01-04 10:54:37.81	335.32	16.57	-28.3	-30.6	14.1	7.00e-07	0	43	102	1048576	16	4640
2026-01-04 10:54:38.81	335.37	16.46	-28.4	-30.7	14.0	2.20e-06	0	43	102	1048576	16	4679
2026-01-04 10:54:39.82	335.42	16.35	-28.4	-30.8	14.0	3.00e-06	0	43	102	1048576	16	4702
2026-01-04 10:54:40.82	335.47	16.25	-28.5	-30.4	13.9	1.50e-06	0	43	102	1048576	17	4487
2026-01-04 10:54:41.82	335.52	16.14	-28.7	-30.8	13.7	5.30e-06	0	43	102	1048576	17	4599
2026-01-04 10:54:42.83	335.57	16.03	-28.6	-30.6	13.8	6.80e-06	0	43	102	1048576	17	4555
2026-01-04 10:54:43.84	335.62	15.92	-28.5	-30.4	13.9	2.20e-06	0	43	102	1048576	17	4490
2026-01-04 10:54:44.85	335.67	15.81	-28.5	-30.5	13.9	3.80e-06	0	43	102	1048576	17	4496
2026-01-04 10:54:45.85	335.72	15.70	-28.6	-30.6	13.8	2.20e-06	0	43	102	1048576	17	4543
2026-01-04 10:54:46.86	335.77	15.60	-28.5	-30.4	13.9	6.10e-06	0	43	102	1048576	17	4483
2026-01-04 10:54:47.87	335.81	15.49	-28.6	-30.6	13.8	3.00e-06	0	43	102	1048576	17	4544
2026-01-04 10:54:48.88	335.86	15.38	-28.6	-30.6	13.7	6.10e-06	0	43	102	1048576	17	4560
2026-01-04 10:54:49.88	335.91	15.28	-28.7	-30.8	13.6	3.80e-06	0	43	102	1048576	17	4617
2026-01-04 10:54:50.89	335.96	15.17	-28.6	-30.7	13.7	6.80e-06	0	43	102	1048576	17	4593
2026-01-04 10:54:51.89	336.00	15.07	-28.7	-31.0	13.5	9.90e-06	0	43	102	1048576	17	4668
2026-01-04 10:54:52.90	336.05	14.96	-28.7	-31.0	13.5	1.37e-05	0	43	102	1048576	17	4679
2026-01-04 10:54:53.91	336.10	14.86	-28.8	-31.2	13.4	1.22e-05	0	43	102	1048576	17	4721
2026-01-04 10:54:54.92	336.15	14.76	-28.8	-31.1	13.4	1.22e-05	0	43	102	1048576	17	4711
2026-01-04 10:54:55.92	336.19	14.65	-28.8	-31.2	13.4	1.22e-05	0	43	102	1048576	17	4733
2026-01-04 10:54:56.93	336.24	14.55	-28.9	-31.3	13.3	1.22e-05	0	43	102	1048576	17	4769
2026-01-04 10:54:57.93	336.28	14.45	-28.8	-31.2	13.3	2.05e-05	0	43	102	1048576	17	4743
2026-01-04 10:54:58.94	336.33	14.35	-28.9	-31.5	13.2	1.75e-05	0	43	102	1048576	17	4830
2026-01-04 10:54:59.94	336.37	14.25	-28.9	-31.4	13.2	2.59e-05	0	43	102	1048576	17	4815
2026-01-04 10:55:00.95	336.42	14.15	-29.0	-31.6	13.1	1.75e-05	0	43	102	1048576	17	4860
2026-01-04 10:55:01.96	336.46	14.05	-29.2	-31.6	12.8	3.58e-05	0	43	102	1048576	18	4756
2026-01-04 10:55:02.97	336.51	13.94	-29.4	-32.3	12.4	1.29e-04	0	43	102	1048576	18	4980
2026-01-04 10:55:03.97	336.55	13.85	-29.3	-31.9	12.6	8.69e-05	0	43	102	1048576	18	4841
2026-01-04 10:55:04.98	336.59	13.75	-29.0	-31.3	13.0	5.87e-05	0	43	102	1048576	18	4653
2026-01-04 10:55:05.98	336.64	13.65	-28.9	-30.8	13.3	2.13e-05	0	43	102	1048576	18	4511
2026-01-04 10:55:06.99	336.68	13.55	-28.8	-30.6	13.4	1.52e-05	0	43	102	1048576	18	4449
2026-01-04 10:55:08.00	336.72	13.45	-28.8	-30.8	13.3	2.28e-05	0	43	102	1048576	18	4505
2026-01-04 10:55:09.01	336.77	13.35	-28.9	-30.9	13.2	2.21e-05	0	43	102	1048576	18	4548
2026-01-04 10:55:10.00	336.81	13.26	-28.8	-30.7	13.3	1.67e-05	0	43	102	1048576	18	4486
2026-01-04 10:55:11.02	336.85	13.16	-28.9	-30.8	13.2	1.98e-05	0	43	102	1048576	18	4520
2026-01-04 10:55:12.02	336.89	13.06	-28.9	-30.9	13.2	2.36e-05	0	43	102	1048576	18	4528
2026-01-04 10:55:13.03	336.93	12.97	-28.9	-31.0	13.1	2.82e-05	0	43	102	1048576	18	4583
2026-01-04 10:55:14.04	336.97	12.87	-28.9	-30.9	13.2	2.51e-05	0	43	102	1048576	18	4526
2026-01-04 10:55:15.05	337.02	12.77	-29.0	-31.2	13.0	3.28e-05	0	43	102	1048576	18	4625
2026-01-04 10:55:16.06	337.06	12.68	-28.9	-30.9	13.2	2.59e-05	0	43	102	1048576	18	4534
2026-01-04 10:55:17.06	337.10	12.58	-28.8	-30.7	13.3	1.98e-05	0	43	102	1048576	18	4462
2026-01-04 10:55:18.07	337.14	12.49	-28.8	-30.6	13.4	9.90e-06	0	44	102	1048576	18	4453
2026-01-04 10:55:19.08	337.18	12.39	-28.8	-30.7	13.3	9.10e-06	0	43	102	1048576	18	4464
2026-01-04 10:55:20.08	337.22	12.30	-28.8	-30.7	13.3	1.98e-05	0	43	102	1048576	18	4467
2026-01-04 10:55:21.09	337.26	12.21	-28.8	-30.7	13.3	2.89e-05	0	43	102	1048576	18	4484
2026-01-04 10:55:22.09	337.30	12.12	-29.0	-31.1	13.0	3.20e-05	0	43	102	1048576	18	4607
2026-01-04 10:55:23.09	337.34	12.02	-28.8	-30.8	13.2	2.05e-05	0	43	102	1048576	18	4508
2026-01-04 10:55:24.10	337.37	11.93	-28.8	-30.7	13.2	2.59e-05	0	43	102	1048576	18	4485
2026-01-04 10:55:25.11	337.41	11.84	-28.9	-30.9	13.1	3.28e-05	0	43	102	1048576	18	4539
2026-01-04 10:55:26.12	337.45	11.75	-29.0	-31.3	12.9	4.34e-05	0	43	102	1048576	18	4659
2026-01-04 10:55:27.13	337.49	11.65	-29.0	-31.3	12.9	5.64e-05	0	43	102	1048576	18	4671
2026-01-04 10:55:28.14	337.53	11.56	-29.0	-31.3	12.8	6.17e-05	0	43	102	1048576	18	4670
2026-01-04 10:55:29.15	337.57	11.47	-29.1	-31.5	12.7	7.70e-05	0	43	102	1048576	18	4746
2026-01-04 10:55:30.16	337.61	11.38	-29.0	-31.3	12.8	6.17e-05	0	43	102	1048576	18	4683
2026-01-04 10:55:31.16	337.64	11.29	-29.1	-31.4	12.8	5.87e-05	0	43	102	1048576	18	4695
2026-01-04 10:55:32.17	337.68	11.20	-29.1	-31.5	12.7	7.01e-05	0	43	102	1048576	18	4729
2026-01-04 10:55:33.18	337.72	11.11	-29.0	-31.3	12.8	6.63e-05	0	43	102	1048576	18	4685
2026-01-04 10:55:34.18	337.75	11.02	-29.2	-31.8	12.5	1.03e-04	0	43	102	1048576	18	4828
2026-01-04 10:55:35.18	337.79	10.94	-29.0	-31.2	12.9	7.17e-05	0	44	102	1048576	18	4651
2026-01-04 10:55:36.19	337.83	10.85	-28.9	-31.0	13.0	3.96e-05	0	43	102	1048576	18	4594
2026-01-04 10:55:37.20	337.86	10.76	-28.9	-30.9	13.0	5.03e-05	0	43	102	1048576	18	4547
2026-01-04 10:55:38.20	337.90	10.67	-28.9	-31.1	12.9	4.95e-05	0	43	102	1048576	18	4616
2026-01-04 10:55:39.20	337.94	10.58	-28.9	-31.0	13.0	3.96e-05	0	43	102	1048576	18	4586
2026-01-04 10:55:40.20	337.97	10.50	-28.9	-31.0	13.0	3.73e-05	0	43	102	1048576	18	4580
2026-01-04 10:55:41.21	338.01	10.41	-28.9	-31.1	12.9	5.26e-05	0	43	102	1048576	18	4604
2026-01-04 10:55:42.22	338.04	10.32	-29.0	-31.3	12.8	5.41e-05	0	43	102	1048576	18	4676
2026-01-04 10:55:43.23	338.08	10.24	-29.0	-31.2	12.8	5.49e-05	0	43	102	1048576	18	4633
2026-01-04 10:55:44.23	338.11	10.15	-29.1	-31.5	12.7	6.86e-05	0	43	102	1048576	18	4734
2026-01-04 10:55:45.24	338.15	10.07	-29.2	-31.8	12.4	1.19e-04	0	43	102	1048576	18	4855
2026-01-04 10:55:46.24	338.18	9.98	-29.3	-32.1	12.2	2.52e-04	0	43	102	1048576	18	4937
2026-01-04 10:55:47.25	338.22	9.90	-29.2	-31.7	12.4	1.64e-04	0	43	102	1048576	18	4831
2026-01-04 10:55:48.26	338.25	9.81	-29.2	-31.8	12.4	1.45e-04	0	43	102	1048576	18	4852
2026-01-04 10:55:49.26	338.29	9.73	-29.3	-31.9	12.3	1.75e-04	0	43	102	1048576	18	4888
2026-01-04 10:55:50.26	338.32	9.64	-29.3	-32.1	12.2	1.98e-04	0	43	102	1048576	18	4956
2026-01-04 10:55:51.26	338.35	9.56	-29.3	-32.1	12.2	2.00e-04	0	43	102	1048576	18	4951
2026-01-04 10:55:52.27	338.39	9.47	-29.5	-32.0	11.9	4.04e-04	0	43	102	1048576	19	4801
2026-01-04 10:55:53.27	338.42	9.39	-29.4	-31.7	12.1	3.16e-04	0	43	102	1048576	19	4705
2026-01-04 10:55:54.28	338.45	9.31	-29.2	-31.2	12.4	1.60e-04	0	43	102	1048576	19	4552
2026-01-04 10:55:55.29	338.49	9.23	-29.2	-31.2	12.4	1.27e-04	0	43	102	1048576	19	4542
2026-01-04 10:55:56.30	338.52	9.14	-29.1	-31.1	12.5	1.24e-04	0	43	102	1048576	19	4506
2026-01-04 10:55:57.30	338.55	9.06	-29.2	-31.2	12.4	1.43e-04	0	43	102	1048576	19	4563
2026-01-04 10:55:58.31	338.59	8.98	-29.2	-31.3	12.4	1.29e-04	0	43	102	1048576	19	4574
2026-01-04 10:55:59.32	338.62	8.90	-29.2	-31.3	12.3	2.14e-04	0	43	102	1048576	19	4581
2026-01-04 10:56:00.33	338.65	8.81	-29.1	-31.0	12.5	1.34e-04	0	43	102	1048576	19	4485
2026-01-04 10:56:01.33	338.68	8.73	-29.0	-30.9	12.6	9.99e-05	0	43	102	1048576	19	4447
2026-01-04 10:56:02.34	338.72	8.65	-29.1	-30.9	12.5	9.68e-05	0	43	102	1048576	19	4465
2026-01-04 10:56:03.34	338.75	8.57	-29.1	-31.1	12.4	1.28e-04	0	43	102	1048576	19	4507
2026-01-04 10:56:04.35	338.78	8.49	-29.1	-30.9	12.5	9.91e-05	0	43	102	1048576	19	4473
2026-01-04 10:56:05.34	338.81	8.41	-29.1	-31.1	12.4	1.42e-04	0	43	102	1048576	19	4521
2026-01-04 10:56:06.35	338.84	8.33	-29.1	-31.0	12.4	1.38e-04	0	43	102	1048576	19	4487
2026-01-04 10:56:07.35	338.87	8.25	-29.1	-31.0	12.4	1.39e-04	0	43	102	1048576	19	4496
2026-01-04 10:56:08.36	338.90	8.17	-29.1	-31.1	12.4	1.56e-04	0	43	102	1048576	19	4529
2026-01-04 10:56:09.36	338.94	8.09	-29.2	-31.2	12.2	2.27e-04	0	43	102	1048576	19	4575
2026-01-04 10:56:10.37	338.97	8.01	-29.2	-31.2	12.2	1.98e-04	0	43	102	1048576	19	4574
2026-01-04 10:56:11.37	339.00	7.94	-29.2	-31.2	12.2	2.12e-04	0	44	102	1048576	19	4567
2026-01-04 10:56:12.38	339.03	7.86	-29.2	-31.3	12.2	2.10e-04	0	43	102	1048576	19	4587
2026-01-04 10:56:13.39	339.06	7.78	-29.2	-31.2	12.2	2.33e-04	0	43	102	1048576	19	4574
2026-01-04 10:56:14.40	339.09	7.70	-29.2	-31.4	12.1	2.58e-04	0	43	102	1048576	19	4645
2026-01-04 10:56:15.39	339.12	7.62	-29.2	-31.4	12.1	3.58e-04	0	43	102	1048576	19	4637
2026-01-04 10:56:16.39	339.15	7.55	-29.2	-31.4	12.1	3.00e-04	0	43	102	1048576	19	4620
2026-01-04 10:56:17.40	339.18	7.47	-29.3	-31.5	12.0	3.49e-04	0	43	102	1048576	19	4674
2026-01-04 10:56:18.40	339.21	7.39	-29.3	-31.6	11.9	3.58e-04	0	43	102	1048576	19	4703
2026-01-04 10:56:19.40	339.24	7.31	-29.3	-31.5	12.0	3.61e-04	0	43	102	1048576	19	4674
2026-01-04 10:56:20.41	339.27	7.24	-29.3	-31.8	11.8	4.51e-04	0	43	102	1048576	19	4757
2026-01-04 10:56:21.40	339.30	7.16	-29.4	-32.0	11.6	6.28e-04	0	43	102	1048576	19	4843
2026-01-04 10:56:22.41	339.33	7.09	-32.9	-42.8	4.1	6.57e-03	0	43	102	1048576	25	11281
2026-01-04 10:56:23.42	339.35	7.01	-33.4	-45.6	3.8	1.49e+00	0	43	104	1048576	26	14605

#Closed at: 2026-01-04 10:56:24
#Recorded file [1 MB]: D:/data/31010_260104_134707.dat