passes_logs/2026/01/04/R2M6_AANII_01/R2M6_AANII_01__20260104_130851_AQUA_rec.log

#Pass ID: 20260104_130851_AQUA
#Satellite: AQUA
#Configuration: AQUA
#almurnet v.1.7.20240730
#Start time: 2026-01-04 13:08:53

#Version: 2.2.20231116
#Station: R2M6_AANII_01
#Location: 30.233357 lon 59.946436 lat
#TLE: 1 27424U 02022A   26003.93831471  .00001925  00000+0  39553-3 0  9996
#TLE: 2 27424  98.4067 330.1809 0002002  92.1714 343.8415 14.61796291259276

#Time	Az	El	Level	Level2	SNR	BER	BlckErr	Temp	State	Recorded	gain1	gain2
2026-01-04 13:08:53.75	198.97	7.14	-31.2	-37.0	5.2	7.06e-01	0	40	0	0	23	7036
2026-01-04 13:08:54.75	199.06	7.21	-31.7	-38.1	5.0	7.12e-01	0	40	104	0	25	7482
2026-01-04 13:08:55.76	199.14	7.29	-31.7	-37.0	13.8	6.06e-01	0	40	0	0	25	6647
2026-01-04 13:08:56.76	199.23	7.36	-31.4	-36.1	14.6	6.07e-01	0	41	102	524288	25	6128
2026-01-04 13:08:57.77	199.31	7.44	-31.2	-35.7	15.3	6.07e-01	0	41	102	524288	24	6026
2026-01-04 13:08:58.77	199.40	7.51	-31.0	-34.9	15.8	6.06e-01	0	41	102	524288	24	5662
2026-01-04 13:08:59.78	199.48	7.59	-30.8	-34.9	16.2	6.06e-01	0	41	102	524288	23	5732
2026-01-04 13:09:00.78	199.57	7.66	-30.7	-34.3	16.6	6.05e-01	0	40	102	524288	23	5494
2026-01-04 13:09:01.79	199.66	7.74	-30.6	-34.1	16.8	6.06e-01	0	41	102	524288	23	5412
2026-01-04 13:09:02.80	199.75	7.81	-30.6	-34.0	16.8	6.06e-01	0	41	102	524288	23	5366
2026-01-04 13:09:03.80	199.83	7.89	-30.6	-34.0	16.9	6.07e-01	0	41	102	524288	23	5342
2026-01-04 13:09:04.80	199.92	7.97	-30.5	-33.9	16.9	6.06e-01	0	41	102	524288	23	5320
2026-01-04 13:09:05.81	200.01	8.04	-30.6	-34.3	16.7	6.06e-01	0	41	102	524288	23	5459
2026-01-04 13:09:06.82	200.10	8.12	-30.5	-33.9	17.0	6.06e-01	0	41	102	524288	23	5298
2026-01-04 13:09:07.83	200.19	8.20	-30.5	-33.7	17.1	6.04e-01	0	41	102	524288	23	5224
2026-01-04 13:09:08.84	200.28	8.28	-30.5	-33.6	17.2	6.08e-01	0	41	102	524288	23	5185
2026-01-04 13:09:09.85	200.37	8.35	-30.6	-33.9	17.0	6.05e-01	0	41	102	524288	23	5301
2026-01-04 13:09:10.86	200.46	8.43	-30.5	-33.7	17.2	6.07e-01	0	41	102	524288	23	5217
2026-01-04 13:09:11.87	200.56	8.51	-30.6	-34.0	17.0	6.08e-01	0	41	102	524288	23	5335
2026-01-04 13:09:12.88	200.65	8.59	-30.4	-33.6	17.3	6.05e-01	0	41	102	524288	23	5153
2026-01-04 13:09:13.89	200.74	8.67	-30.5	-33.7	17.2	6.07e-01	0	41	102	524288	23	5230
2026-01-04 13:09:14.90	200.84	8.74	-30.5	-33.8	17.2	6.07e-01	0	41	102	524288	23	5242
2026-01-04 13:09:15.90	200.93	8.82	-30.6	-34.0	17.1	6.06e-01	0	41	102	524288	23	5313
2026-01-04 13:09:16.91	201.03	8.90	-30.5	-33.9	17.1	6.06e-01	0	41	102	524288	23	5271
2026-01-04 13:09:17.92	201.12	8.98	-30.5	-33.6	17.3	6.05e-01	0	41	102	524288	23	5168
2026-01-04 13:09:18.92	201.22	9.06	-30.5	-33.7	17.2	6.08e-01	0	41	102	524288	23	5219
2026-01-04 13:09:19.93	201.31	9.14	-30.5	-33.7	17.2	6.07e-01	0	41	102	524288	23	5222
2026-01-04 13:09:20.94	201.41	9.22	-30.5	-33.6	17.3	6.05e-01	0	41	102	524288	23	5179
2026-01-04 13:09:21.95	201.51	9.30	-30.5	-33.8	17.2	6.08e-01	0	41	102	524288	23	5245
2026-01-04 13:09:22.95	201.61	9.38	-30.5	-33.6	17.4	6.06e-01	0	41	102	524288	23	5151
2026-01-04 13:09:23.96	201.70	9.46	-30.4	-33.8	17.6	6.05e-01	0	41	102	524288	22	5326
2026-01-04 13:09:24.97	201.80	9.54	-30.4	-33.8	17.6	6.08e-01	0	41	102	524288	22	5336
2026-01-04 13:09:25.98	201.90	9.62	-30.4	-33.9	17.5	6.07e-01	0	41	102	524288	22	5392
2026-01-04 13:09:26.99	202.00	9.70	-30.5	-34.2	17.3	6.08e-01	0	41	102	524288	22	5502
2026-01-04 13:09:27.99	202.10	9.79	-30.4	-33.9	17.5	6.08e-01	0	41	102	524288	22	5395
2026-01-04 13:09:28.99	202.21	9.87	-30.5	-34.2	17.3	6.06e-01	0	41	102	524288	22	5522
2026-01-04 13:09:29.99	202.31	9.95	-30.4	-33.8	17.6	6.08e-01	0	42	102	524288	22	5338
2026-01-04 13:09:31.00	202.41	10.03	-30.4	-33.7	17.7	6.07e-01	0	41	102	524288	22	5295
2026-01-04 13:09:32.01	202.51	10.11	-30.3	-33.6	17.7	6.05e-01	0	42	102	524288	22	5267
2026-01-04 13:09:33.01	202.62	10.20	-30.3	-33.6	17.8	6.08e-01	0	42	102	524288	22	5249
2026-01-04 13:09:34.01	202.72	10.28	-30.4	-33.8	17.6	6.08e-01	0	42	102	524288	22	5323
2026-01-04 13:09:35.02	202.83	10.36	-30.3	-33.4	17.9	6.07e-01	0	42	102	524288	22	5181
2026-01-04 13:09:36.02	202.93	10.44	-30.2	-33.3	17.9	6.06e-01	0	41	102	524288	22	5129
2026-01-04 13:09:37.02	203.04	10.53	-30.2	-33.3	17.9	6.06e-01	0	42	102	524288	22	5150
2026-01-04 13:09:38.03	203.14	10.61	-30.2	-33.2	18.0	6.08e-01	0	42	102	524288	22	5077
2026-01-04 13:09:39.04	203.25	10.69	-30.2	-33.3	18.0	6.06e-01	0	42	102	524288	22	5129
2026-01-04 13:09:40.04	203.36	10.78	-30.3	-33.4	17.9	6.06e-01	0	42	102	524288	22	5168
2026-01-04 13:09:41.05	203.47	10.86	-30.4	-33.8	17.7	6.07e-01	0	42	102	524288	22	5326
2026-01-04 13:09:42.06	203.58	10.95	-30.3	-33.5	17.9	6.06e-01	0	42	102	524288	22	5204
2026-01-04 13:09:43.07	203.69	11.03	-30.2	-33.3	18.0	6.08e-01	0	42	102	524288	22	5119
2026-01-04 13:09:44.07	203.80	11.12	-30.3	-33.4	17.9	6.06e-01	0	42	102	524288	22	5172
2026-01-04 13:09:45.08	203.91	11.20	-30.2	-33.3	18.0	6.04e-01	0	42	102	524288	22	5109
2026-01-04 13:09:46.09	204.02	11.29	-30.3	-33.6	17.9	6.09e-01	0	42	102	524288	22	5221
2026-01-04 13:09:47.10	204.14	11.38	-30.2	-33.1	18.2	6.07e-01	0	42	102	524288	22	5040
2026-01-04 13:09:48.11	204.25	11.46	-30.1	-33.0	18.2	6.05e-01	0	42	102	524288	22	5005
2026-01-04 13:09:49.12	204.37	11.55	-30.1	-32.9	18.3	6.06e-01	0	42	102	524288	22	4983
2026-01-04 13:09:50.12	204.48	11.63	-30.1	-32.9	18.3	6.06e-01	0	42	102	524288	22	4952
2026-01-04 13:09:51.13	204.60	11.72	-30.1	-32.9	18.3	6.07e-01	0	42	102	524288	22	4955
2026-01-04 13:09:52.13	204.71	11.81	-30.1	-33.0	18.3	6.07e-01	0	42	102	524288	22	5000
2026-01-04 13:09:53.15	204.83	11.90	-30.1	-32.8	18.4	6.07e-01	0	42	102	524288	22	4931
2026-01-04 13:09:54.15	204.95	11.98	-30.2	-33.0	18.3	6.06e-01	0	42	102	524288	22	5017
2026-01-04 13:09:55.16	205.07	12.07	-30.2	-33.3	18.1	6.06e-01	0	42	102	524288	22	5106
2026-01-04 13:09:56.17	205.19	12.16	-30.1	-33.0	18.3	6.07e-01	0	42	102	524288	22	4998
2026-01-04 13:09:57.18	205.31	12.25	-30.1	-32.8	18.4	6.06e-01	0	42	102	524288	22	4939
2026-01-04 13:09:58.18	205.43	12.34	-30.1	-33.0	18.3	6.05e-01	0	42	102	524288	22	5001
2026-01-04 13:09:59.19	205.55	12.43	-30.2	-33.3	18.1	6.07e-01	0	42	102	524288	22	5094
2026-01-04 13:10:00.20	205.67	12.51	-30.3	-33.5	18.0	6.07e-01	0	42	102	524288	22	5183
2026-01-04 13:10:01.21	205.80	12.60	-30.2	-33.2	18.2	6.04e-01	0	42	102	524288	22	5085
2026-01-04 13:10:02.21	205.92	12.69	-30.2	-33.1	18.2	6.05e-01	0	42	102	524288	22	5022
2026-01-04 13:10:03.22	206.04	12.78	-30.2	-33.1	18.2	6.07e-01	0	42	102	524288	22	5044
2026-01-04 13:10:04.23	206.17	12.87	-30.2	-33.1	18.2	6.04e-01	0	42	102	524288	22	5030
2026-01-04 13:10:05.23	206.29	12.96	-30.1	-32.9	18.3	6.05e-01	0	42	102	524288	22	4971
2026-01-04 13:10:06.24	206.42	13.05	-30.2	-33.2	18.2	6.05e-01	0	42	102	524288	22	5054
2026-01-04 13:10:07.24	206.55	13.14	-30.1	-32.8	18.5	6.05e-01	0	42	102	524288	22	4920
2026-01-04 13:10:08.25	206.68	13.24	-30.0	-32.6	18.6	6.06e-01	0	42	102	524288	22	4837
2026-01-04 13:10:09.26	206.81	13.33	-30.0	-32.6	18.6	6.05e-01	0	42	102	524288	22	4842
2026-01-04 13:10:10.27	206.94	13.42	-30.0	-32.5	18.7	6.06e-01	0	42	102	524288	22	4810
2026-01-04 13:10:11.27	207.07	13.51	-30.0	-32.4	18.7	6.06e-01	0	42	102	524288	22	4787
2026-01-04 13:10:12.28	207.20	13.60	-29.9	-32.3	18.8	6.08e-01	0	42	102	524288	22	4741
2026-01-04 13:10:13.29	207.34	13.70	-29.9	-32.4	18.7	6.07e-01	0	42	102	524288	22	4783
2026-01-04 13:10:14.30	207.47	13.79	-30.0	-32.6	18.6	6.06e-01	0	42	102	524288	22	4858
2026-01-04 13:10:15.30	207.60	13.88	-29.9	-32.3	18.8	6.07e-01	0	42	102	524288	22	4733
2026-01-04 13:10:16.31	207.74	13.97	-29.9	-32.8	18.9	6.06e-01	0	42	102	524288	21	5008
2026-01-04 13:10:17.32	207.88	14.07	-29.9	-32.9	18.8	6.06e-01	0	42	102	524288	21	5045
2026-01-04 13:10:18.33	208.01	14.16	-30.0	-33.0	18.7	6.04e-01	0	42	102	524288	21	5081
2026-01-04 13:10:19.33	208.15	14.26	-29.9	-32.9	18.8	6.07e-01	0	42	102	524288	21	5046
2026-01-04 13:10:20.33	208.29	14.35	-30.0	-32.9	18.8	6.05e-01	0	42	102	524288	21	5055
2026-01-04 13:10:21.34	208.43	14.44	-30.0	-33.0	18.8	6.07e-01	0	42	102	524288	21	5074
2026-01-04 13:10:22.35	208.57	14.54	-30.0	-33.0	18.7	6.06e-01	0	42	102	524288	21	5080
2026-01-04 13:10:23.36	208.71	14.63	-30.0	-32.9	18.8	6.03e-01	0	42	102	524288	21	5060
2026-01-04 13:10:24.37	208.86	14.73	-29.9	-32.8	18.8	6.07e-01	0	42	102	524288	21	5029
2026-01-04 13:10:25.37	209.00	14.82	-30.0	-33.0	18.8	6.06e-01	0	42	102	524288	21	5075
2026-01-04 13:10:26.38	209.15	14.92	-30.0	-33.0	18.8	6.07e-01	0	42	102	524288	21	5097
2026-01-04 13:10:27.39	209.29	15.02	-30.0	-32.9	18.8	6.05e-01	0	42	102	524288	21	5059
2026-01-04 13:10:28.40	209.44	15.11	-29.9	-32.6	19.0	6.08e-01	0	42	102	524288	21	4950
2026-01-04 13:10:29.41	209.59	15.21	-29.9	-32.6	19.1	6.05e-01	0	42	102	524288	21	4942
2026-01-04 13:10:30.41	209.74	15.31	-29.9	-32.7	19.0	6.04e-01	0	42	102	524288	21	4956
2026-01-04 13:10:31.42	209.89	15.40	-29.9	-32.6	19.1	6.08e-01	0	42	102	524288	21	4934
2026-01-04 13:10:32.42	210.04	15.50	-29.9	-32.7	19.0	6.05e-01	0	42	102	524288	21	4959
2026-01-04 13:10:33.43	210.19	15.60	-29.9	-32.7	19.0	6.05e-01	0	42	102	524288	21	4973
2026-01-04 13:10:34.44	210.34	15.70	-30.0	-33.0	18.8	6.07e-01	0	42	102	524288	21	5065
2026-01-04 13:10:35.44	210.49	15.79	-30.0	-33.1	18.7	6.07e-01	0	42	102	524288	21	5125
2026-01-04 13:10:36.45	210.65	15.89	-29.9	-32.8	18.9	6.07e-01	0	42	102	524288	21	5016
2026-01-04 13:10:37.46	210.81	15.99	-29.9	-32.8	19.0	6.08e-01	0	42	102	524288	21	4990
2026-01-04 13:10:38.47	210.96	16.09	-29.9	-32.7	19.0	6.04e-01	0	42	102	524288	21	4967
2026-01-04 13:10:39.47	211.12	16.19	-29.9	-32.7	19.0	6.05e-01	0	42	102	524288	21	4968
2026-01-04 13:10:40.49	211.28	16.29	-29.9	-32.6	19.1	6.07e-01	0	42	102	524288	21	4937
2026-01-04 13:10:41.49	211.44	16.39	-29.9	-32.6	19.1	6.05e-01	0	42	102	524288	21	4947
2026-01-04 13:10:42.51	211.60	16.49	-30.1	-33.2	18.8	6.05e-01	0	42	102	524288	21	5127
2026-01-04 13:10:43.52	211.77	16.59	-30.0	-33.1	18.8	6.05e-01	0	42	102	524288	21	5097
2026-01-04 13:10:44.52	211.93	16.69	-29.9	-32.7	19.1	6.09e-01	0	42	102	524288	21	4960
2026-01-04 13:10:45.52	212.09	16.79	-29.8	-32.4	19.2	6.05e-01	0	43	102	524288	21	4861
2026-01-04 13:10:46.53	212.26	16.89	-29.8	-32.5	19.2	6.06e-01	0	42	102	524288	21	4890
2026-01-04 13:10:47.55	212.43	16.99	-29.8	-32.5	19.2	6.06e-01	0	42	102	524288	21	4889
2026-01-04 13:10:48.55	212.60	17.09	-30.0	-32.8	19.0	6.07e-01	0	42	102	524288	21	5001
2026-01-04 13:10:49.55	212.76	17.19	-29.9	-32.7	19.1	6.06e-01	0	42	102	524288	21	4945
2026-01-04 13:10:50.56	212.93	17.30	-29.8	-32.3	19.3	6.08e-01	0	42	102	524288	21	4824
2026-01-04 13:10:51.56	213.11	17.40	-29.8	-32.4	19.3	6.05e-01	0	42	102	524288	21	4861
2026-01-04 13:10:52.58	213.28	17.50	-29.8	-32.5	19.3	6.07e-01	0	42	102	524288	21	4877
2026-01-04 13:10:53.58	213.45	17.60	-29.8	-32.4	19.3	6.05e-01	0	42	102	524288	21	4862
2026-01-04 13:10:54.59	213.63	17.70	-30.0	-32.8	19.1	6.07e-01	0	42	102	524288	21	4983
2026-01-04 13:10:55.60	213.81	17.81	-30.0	-32.9	19.0	6.06e-01	0	42	102	524288	21	5015
2026-01-04 13:10:56.61	213.98	17.91	-29.9	-32.5	19.3	6.07e-01	0	42	102	524288	21	4890
2026-01-04 13:10:57.61	214.16	18.01	-29.8	-32.4	19.3	6.07e-01	0	42	102	524288	21	4861
2026-01-04 13:10:58.62	214.34	18.12	-29.9	-32.6	19.3	6.06e-01	0	42	102	524288	21	4905
2026-01-04 13:10:59.63	214.53	18.22	-29.9	-32.5	19.3	6.06e-01	0	42	102	524288	21	4899
2026-01-04 13:11:00.64	214.71	18.33	-29.9	-32.6	19.2	6.07e-01	0	42	102	524288	21	4905
2026-01-04 13:11:01.64	214.89	18.43	-29.9	-32.7	19.2	6.06e-01	0	42	102	524288	21	4934
2026-01-04 13:11:02.65	215.08	18.53	-29.9	-32.6	19.2	6.07e-01	0	43	102	524288	21	4922
2026-01-04 13:11:03.66	215.27	18.64	-29.8	-32.4	19.3	6.06e-01	0	42	102	524288	21	4862
2026-01-04 13:11:04.66	215.45	18.74	-29.8	-32.5	19.4	6.05e-01	0	43	102	524288	21	4868
2026-01-04 13:11:05.67	215.64	18.85	-29.8	-32.3	19.4	6.06e-01	0	43	102	524288	21	4818
2026-01-04 13:11:06.68	215.83	18.95	-29.8	-32.4	19.4	6.06e-01	0	43	102	524288	21	4845
2026-01-04 13:11:07.69	216.03	19.06	-29.9	-32.6	19.3	6.06e-01	0	42	102	524288	21	4910
2026-01-04 13:11:08.69	216.22	19.16	-29.9	-32.6	19.3	6.06e-01	0	42	102	524288	21	4897
2026-01-04 13:11:09.70	216.42	19.27	-29.8	-32.4	19.4	6.07e-01	0	42	102	524288	21	4829
2026-01-04 13:11:10.70	216.61	19.38	-29.8	-32.3	19.4	6.06e-01	0	42	102	524288	21	4807
2026-01-04 13:11:11.71	216.81	19.48	-29.7	-32.2	19.5	6.07e-01	0	42	102	524288	21	4757
2026-01-04 13:11:12.72	217.01	19.59	-29.8	-32.3	19.5	6.06e-01	0	42	102	524288	21	4809
2026-01-04 13:11:13.73	217.21	19.70	-29.8	-32.4	19.4	6.05e-01	0	43	102	524288	21	4844
2026-01-04 13:11:14.73	217.41	19.80	-29.9	-32.5	19.4	6.06e-01	0	43	102	524288	21	4881
2026-01-04 13:11:15.74	217.61	19.91	-29.9	-32.5	19.3	6.05e-01	0	43	102	524288	21	4877
2026-01-04 13:11:16.74	217.82	20.01	-29.8	-32.5	19.4	6.04e-01	0	42	102	524288	21	4860
2026-01-04 13:11:17.75	218.03	20.12	-29.9	-32.6	19.3	6.06e-01	0	43	102	524288	21	4919
2026-01-04 13:11:18.76	218.23	20.23	-29.9	-32.5	19.4	6.06e-01	0	43	102	524288	21	4864
2026-01-04 13:11:19.77	218.44	20.34	-29.8	-32.3	19.5	6.05e-01	0	42	102	524288	21	4792
2026-01-04 13:11:20.77	218.65	20.44	-29.9	-32.5	19.4	6.07e-01	0	43	102	524288	21	4858
2026-01-04 13:11:21.78	218.87	20.55	-29.9	-32.5	19.4	6.06e-01	0	43	102	524288	21	4863
2026-01-04 13:11:22.79	219.08	20.66	-29.9	-32.5	19.4	6.07e-01	0	43	102	524288	21	4876
2026-01-04 13:11:23.79	219.30	20.77	-30.0	-32.9	19.2	6.07e-01	0	43	102	524288	21	5003
2026-01-04 13:11:24.80	219.51	20.88	-30.0	-32.7	19.2	6.06e-01	0	43	102	524288	21	4959
2026-01-04 13:11:25.80	219.73	20.98	-29.9	-32.7	19.3	6.07e-01	0	43	102	524288	21	4944
2026-01-04 13:11:26.81	219.95	21.09	-30.0	-32.9	19.2	6.08e-01	0	42	102	524288	21	5008
2026-01-04 13:11:27.82	220.17	21.20	-29.9	-32.7	19.3	6.07e-01	0	42	102	524288	21	4926
2026-01-04 13:11:28.83	220.40	21.31	-29.9	-32.5	19.4	6.04e-01	0	43	102	524288	21	4879
2026-01-04 13:11:29.83	220.62	21.42	-29.9	-32.7	19.3	6.05e-01	0	43	102	524288	21	4942
2026-01-04 13:11:30.83	220.85	21.52	-29.9	-32.6	19.4	6.06e-01	0	43	102	524288	21	4911
2026-01-04 13:11:31.84	221.08	21.63	-29.9	-32.6	19.4	6.06e-01	0	43	102	524288	21	4895
2026-01-04 13:11:32.85	221.31	21.74	-30.0	-32.8	19.3	6.05e-01	0	42	102	524288	21	4974
2026-01-04 13:11:33.85	221.54	21.85	-30.0	-32.9	19.2	6.06e-01	0	43	102	524288	21	5009
2026-01-04 13:11:34.87	221.77	21.96	-30.0	-32.9	19.1	6.07e-01	0	43	102	524288	21	5030
2026-01-04 13:11:35.87	222.01	22.07	-30.0	-32.9	19.2	6.05e-01	0	43	102	524288	21	5011
2026-01-04 13:11:36.88	222.24	22.18	-30.0	-32.8	19.3	6.05e-01	0	42	102	524288	21	4974
2026-01-04 13:11:37.89	222.48	22.29	-30.0	-32.9	19.2	6.08e-01	0	42	102	524288	21	5015
2026-01-04 13:11:38.89	222.72	22.40	-29.9	-32.6	19.4	6.05e-01	0	43	102	524288	21	4905
2026-01-04 13:11:39.89	222.96	22.50	-29.9	-32.5	19.5	6.06e-01	0	43	102	524288	21	4848
2026-01-04 13:11:40.90	223.21	22.61	-30.0	-32.7	19.3	6.07e-01	0	43	102	524288	21	4953
2026-01-04 13:11:41.91	223.45	22.72	-30.1	-33.1	19.1	6.05e-01	0	42	102	524288	21	5089
2026-01-04 13:11:42.91	223.70	22.83	-30.1	-33.2	19.0	6.07e-01	0	43	102	524288	21	5108
2026-01-04 13:11:43.92	223.95	22.94	-30.2	-33.3	19.0	6.07e-01	0	43	102	524288	21	5144
2026-01-04 13:11:44.93	224.20	23.05	-30.1	-33.1	19.1	6.05e-01	0	43	102	524288	21	5068
2026-01-04 13:11:45.94	224.45	23.16	-30.2	-33.3	19.0	6.07e-01	0	43	102	524288	21	5150
2026-01-04 13:11:46.95	224.71	23.27	-30.1	-33.1	19.1	6.08e-01	0	43	102	524288	21	5087
2026-01-04 13:11:47.95	224.96	23.38	-30.2	-33.3	18.9	6.03e-01	0	43	102	524288	21	5167
2026-01-04 13:11:48.96	225.22	23.48	-30.0	-32.9	19.2	6.06e-01	0	43	102	524288	21	5011
2026-01-04 13:11:49.98	225.48	23.59	-30.0	-32.9	19.3	6.06e-01	0	43	102	524288	21	5000
2026-01-04 13:11:50.98	225.74	23.70	-30.1	-33.0	19.2	6.04e-01	0	43	102	524288	21	5041
2026-01-04 13:11:51.99	226.01	23.81	-30.0	-32.9	19.3	6.08e-01	0	43	102	524288	21	5002
2026-01-04 13:11:53.00	226.27	23.92	-30.1	-33.2	19.1	6.05e-01	0	43	102	524288	21	5106
2026-01-04 13:11:54.00	226.54	24.03	-30.2	-33.4	18.9	6.07e-01	0	43	102	524288	21	5202
2026-01-04 13:11:55.01	226.81	24.13	-30.2	-33.3	19.0	6.06e-01	0	43	102	524288	21	5158
2026-01-04 13:11:56.01	227.08	24.24	-30.1	-33.1	19.1	6.05e-01	0	43	102	524288	21	5087
2026-01-04 13:11:57.02	227.35	24.35	-30.2	-33.3	19.0	6.08e-01	0	43	102	524288	21	5145
2026-01-04 13:11:58.03	227.63	24.46	-30.2	-33.3	19.0	6.04e-01	0	43	102	524288	21	5147
2026-01-04 13:11:59.04	227.91	24.57	-30.3	-33.7	18.8	6.04e-01	0	43	102	524288	21	5297
2026-01-04 13:12:00.04	228.18	24.67	-30.2	-33.2	19.1	6.05e-01	0	43	102	524288	21	5115
2026-01-04 13:12:01.05	228.46	24.78	-30.1	-33.1	19.2	6.05e-01	0	43	102	524288	21	5076
2026-01-04 13:12:02.06	228.75	24.89	-30.3	-33.6	18.8	6.07e-01	0	43	102	524288	21	5266
2026-01-04 13:12:03.06	229.03	24.99	-30.2	-33.2	19.1	6.08e-01	0	43	102	524288	21	5106
2026-01-04 13:12:04.07	229.32	25.10	-30.1	-33.0	19.2	6.04e-01	0	43	102	524288	21	5050
2026-01-04 13:12:05.08	229.61	25.20	-30.2	-33.3	19.0	6.08e-01	0	43	102	524288	21	5146
2026-01-04 13:12:06.08	229.90	25.31	-30.2	-33.2	19.1	6.06e-01	0	43	102	524288	21	5111
2026-01-04 13:12:07.09	230.19	25.41	-30.3	-33.6	18.9	6.08e-01	0	43	102	524288	21	5257
2026-01-04 13:12:08.10	230.48	25.52	-30.2	-33.2	19.1	6.08e-01	0	43	102	524288	21	5121
2026-01-04 13:12:09.11	230.78	25.63	-30.3	-33.6	18.8	6.05e-01	0	43	102	524288	21	5257
2026-01-04 13:12:10.12	231.08	25.73	-30.1	-33.1	19.2	6.07e-01	0	43	102	524288	21	5064
2026-01-04 13:12:11.13	231.38	25.83	-30.1	-33.0	19.2	6.05e-01	0	43	102	524288	21	5042
2026-01-04 13:12:12.14	231.69	25.94	-30.2	-33.4	19.0	6.04e-01	0	43	102	524288	21	5173
2026-01-04 13:12:13.15	231.99	26.04	-30.1	-32.9	19.3	6.09e-01	0	43	102	524288	21	4992
2026-01-04 13:12:14.16	232.30	26.14	-30.1	-32.9	19.3	6.03e-01	0	43	102	524288	21	5004
2026-01-04 13:12:15.16	232.60	26.25	-30.2	-33.4	19.0	6.07e-01	0	43	102	524288	21	5167
2026-01-04 13:12:16.16	232.91	26.35	-30.1	-33.0	19.2	6.07e-01	0	43	102	524288	21	5028
2026-01-04 13:12:17.17	233.23	26.45	-30.2	-33.2	19.1	6.06e-01	0	43	102	524288	21	5104
2026-01-04 13:12:18.17	233.54	26.55	-30.3	-33.6	18.9	6.07e-01	0	43	102	524288	21	5228
2026-01-04 13:12:19.18	233.86	26.65	-30.2	-33.2	19.2	6.06e-01	0	43	102	524288	21	5089
2026-01-04 13:12:20.19	234.18	26.75	-30.2	-33.3	19.1	6.07e-01	0	43	102	524288	21	5123
2026-01-04 13:12:21.19	234.50	26.85	-30.4	-33.7	18.8	6.06e-01	0	43	102	524288	21	5297
2026-01-04 13:12:22.20	234.82	26.95	-30.3	-33.6	18.9	6.06e-01	0	43	102	524288	21	5238
2026-01-04 13:12:23.21	235.14	27.05	-30.3	-33.6	18.9	6.05e-01	0	43	102	524288	21	5242
2026-01-04 13:12:24.22	235.47	27.15	-30.5	-34.0	18.7	6.06e-01	0	43	102	524288	21	5389
2026-01-04 13:12:25.22	235.80	27.24	-30.4	-33.7	18.9	6.07e-01	0	43	102	524288	21	5263
2026-01-04 13:12:26.23	236.13	27.34	-30.2	-33.3	19.1	6.07e-01	0	43	102	524288	21	5120
2026-01-04 13:12:27.24	236.47	27.44	-30.3	-33.4	19.0	6.06e-01	0	43	102	524288	21	5162
2026-01-04 13:12:28.24	236.80	27.53	-30.4	-33.7	18.9	6.05e-01	0	43	102	524288	21	5273
2026-01-04 13:12:29.25	237.14	27.63	-30.3	-33.4	19.0	6.06e-01	0	43	102	524288	21	5174
2026-01-04 13:12:30.26	237.48	27.72	-30.2	-33.2	19.2	6.06e-01	0	42	102	524288	21	5098
2026-01-04 13:12:31.26	237.82	27.81	-30.3	-33.6	19.0	6.05e-01	0	43	102	524288	21	5231
2026-01-04 13:12:32.27	238.16	27.91	-30.5	-34.1	18.6	6.04e-01	0	43	102	524288	21	5426
2026-01-04 13:12:33.28	238.51	28.00	-30.6	-33.7	18.6	6.04e-01	0	43	102	524288	22	5148
2026-01-04 13:12:34.29	238.85	28.09	-30.4	-33.2	18.9	6.09e-01	0	43	102	524288	22	4959
2026-01-04 13:12:35.29	239.20	28.18	-30.4	-33.2	18.9	6.05e-01	0	43	102	524288	22	4991
2026-01-04 13:12:36.30	239.55	28.27	-30.5	-33.5	18.7	6.07e-01	0	43	102	524288	22	5072
2026-01-04 13:12:37.31	239.91	28.36	-30.6	-33.8	18.5	6.08e-01	0	43	102	524288	22	5186
2026-01-04 13:12:38.32	240.26	28.45	-30.6	-33.7	18.6	6.07e-01	0	43	102	524288	22	5152
2026-01-04 13:12:39.32	240.62	28.53	-30.7	-33.9	18.4	6.08e-01	0	43	102	524288	22	5239
2026-01-04 13:12:40.33	240.98	28.62	-30.4	-33.2	18.9	6.05e-01	0	43	102	524288	22	4965
2026-01-04 13:12:41.33	241.34	28.71	-30.2	-32.8	19.2	6.07e-01	0	43	102	524288	22	4836
2026-01-04 13:12:42.34	241.70	28.79	-30.2	-32.7	19.2	6.08e-01	0	43	102	524288	22	4804
2026-01-04 13:12:43.35	242.07	28.87	-30.2	-32.8	19.2	6.07e-01	0	43	102	524288	22	4820
2026-01-04 13:12:44.35	242.43	28.96	-30.2	-32.6	19.3	6.08e-01	0	43	102	524288	22	4756
2026-01-04 13:12:45.35	242.80	29.04	-30.1	-32.5	19.3	6.06e-01	0	43	102	524288	22	4735
2026-01-04 13:12:46.35	243.17	29.12	-30.2	-32.6	19.3	6.06e-01	0	43	102	524288	22	4768
2026-01-04 13:12:47.36	243.54	29.20	-30.2	-32.7	19.2	6.06e-01	0	43	102	524288	22	4796
2026-01-04 13:12:48.37	243.92	29.28	-30.1	-32.4	19.4	6.07e-01	0	43	102	524288	22	4702
2026-01-04 13:12:49.38	244.29	29.35	-30.2	-32.6	19.3	6.06e-01	0	43	102	524288	22	4753
2026-01-04 13:12:50.39	244.67	29.43	-30.1	-32.5	19.4	6.06e-01	0	43	102	524288	22	4730
2026-01-04 13:12:51.39	245.05	29.51	-30.3	-32.8	19.2	6.08e-01	0	43	102	524288	22	4847
2026-01-04 13:12:52.39	245.43	29.58	-30.4	-33.2	18.9	6.07e-01	0	43	102	524288	22	4988
2026-01-04 13:12:53.39	245.81	29.65	-30.2	-32.7	19.3	6.08e-01	0	43	102	524288	22	4782
2026-01-04 13:12:54.40	246.20	29.72	-30.0	-32.2	19.6	6.04e-01	0	43	102	524288	22	4624
2026-01-04 13:12:55.40	246.58	29.79	-30.1	-32.3	19.5	6.08e-01	0	43	102	524288	22	4659
2026-01-04 13:12:56.42	246.97	29.87	-30.1	-32.4	19.4	6.08e-01	0	43	102	524288	22	4707
2026-01-04 13:12:57.42	247.36	29.93	-30.0	-32.2	19.6	6.04e-01	0	43	102	524288	22	4632
2026-01-04 13:12:58.42	247.75	30.00	-30.1	-32.5	19.4	6.08e-01	0	43	102	524288	22	4712
2026-01-04 13:12:59.43	248.15	30.07	-30.0	-32.1	19.7	6.07e-01	0	43	102	524288	22	4596
2026-01-04 13:13:00.44	248.54	30.13	-29.9	-31.9	19.8	6.07e-01	0	43	102	524288	22	4532
2026-01-04 13:13:01.45	248.94	30.19	-30.0	-32.1	19.7	6.04e-01	0	43	102	524288	22	4586
2026-01-04 13:13:02.45	249.34	30.26	-29.8	-32.2	19.8	6.06e-01	0	43	102	524288	21	4746
2026-01-04 13:13:03.46	249.74	30.32	-29.8	-32.2	19.9	6.09e-01	0	43	102	524288	21	4746
2026-01-04 13:13:04.46	250.14	30.38	-30.0	-32.6	19.7	6.06e-01	0	43	102	524288	21	4862
2026-01-04 13:13:05.47	250.54	30.43	-30.1	-33.0	19.4	6.05e-01	0	43	102	524288	21	5000
2026-01-04 13:13:06.47	250.94	30.49	-29.9	-32.4	19.8	6.07e-01	0	43	102	524288	21	4807
2026-01-04 13:13:07.48	251.35	30.55	-30.2	-33.2	19.3	6.06e-01	0	43	102	524288	21	5076
2026-01-04 13:13:08.49	251.76	30.60	-30.2	-33.2	19.2	6.07e-01	0	43	102	524288	21	5082
2026-01-04 13:13:09.50	252.17	30.65	-30.1	-32.9	19.5	6.07e-01	0	43	102	524288	21	4974
2026-01-04 13:13:10.51	252.58	30.70	-30.1	-33.0	19.4	6.06e-01	0	43	102	524288	21	4996
2026-01-04 13:13:11.51	252.99	30.75	-30.1	-32.8	19.5	6.07e-01	0	43	102	524288	21	4949
2026-01-04 13:13:12.51	253.40	30.80	-29.9	-32.5	19.7	6.05e-01	0	43	102	524288	21	4828
2026-01-04 13:13:13.52	253.81	30.85	-30.0	-32.7	19.6	6.06e-01	0	43	102	524288	21	4906
2026-01-04 13:13:14.53	254.23	30.89	-30.0	-32.8	19.5	6.07e-01	0	43	102	524288	21	4935
2026-01-04 13:13:15.53	254.64	30.94	-30.0	-32.6	19.7	6.05e-01	0	43	102	524288	21	4854
2026-01-04 13:13:16.54	255.06	30.98	-29.8	-32.2	19.9	6.06e-01	0	43	102	524288	21	4726
2026-01-04 13:13:17.54	255.47	31.02	-29.8	-32.2	19.9	6.05e-01	0	43	102	524288	21	4744
2026-01-04 13:13:18.55	255.89	31.06	-29.9	-32.4	19.7	6.07e-01	0	43	102	524288	21	4809
2026-01-04 13:13:19.56	256.31	31.09	-29.8	-32.1	19.9	6.05e-01	0	43	102	524288	21	4710
2026-01-04 13:13:20.57	256.74	31.13	-29.9	-32.3	19.8	6.08e-01	0	43	102	524288	21	4757
2026-01-04 13:13:21.57	257.16	31.16	-29.9	-32.3	19.8	6.05e-01	0	43	102	524288	21	4764
2026-01-04 13:13:22.57	257.58	31.20	-29.8	-32.1	20.0	6.05e-01	0	43	102	524288	21	4695
2026-01-04 13:13:23.58	258.00	31.23	-29.9	-32.5	19.7	6.05e-01	0	43	102	524288	21	4816
2026-01-04 13:13:24.59	258.43	31.26	-29.9	-32.4	19.8	6.05e-01	0	43	102	524288	21	4802
2026-01-04 13:13:25.60	258.85	31.28	-29.9	-32.3	19.9	6.04e-01	0	43	102	524288	21	4754
2026-01-04 13:13:26.60	259.28	31.31	-29.9	-32.3	19.8	6.04e-01	0	43	102	524288	21	4776
2026-01-04 13:13:27.61	259.70	31.33	-29.8	-32.3	19.9	6.09e-01	0	43	102	524288	21	4750
2026-01-04 13:13:28.62	260.13	31.36	-30.0	-32.7	19.6	6.04e-01	0	43	102	524288	21	4898
2026-01-04 13:13:29.63	260.56	31.38	-30.0	-32.6	19.7	6.06e-01	0	43	102	524288	21	4869
2026-01-04 13:13:30.64	260.99	31.40	-29.8	-32.1	20.0	6.06e-01	0	43	102	524288	21	4693
2026-01-04 13:13:31.63	261.41	31.41	-29.7	-31.8	20.2	6.08e-01	0	43	102	524288	21	4594
2026-01-04 13:13:32.64	261.84	31.43	-29.7	-31.9	20.1	6.07e-01	0	43	102	524288	21	4635
2026-01-04 13:13:33.65	262.27	31.44	-29.8	-32.0	20.0	6.06e-01	0	43	102	524288	21	4675
2026-01-04 13:13:34.66	262.71	31.46	-29.8	-32.2	19.9	6.07e-01	0	43	102	524288	21	4730
2026-01-04 13:13:35.67	263.14	31.47	-29.7	-31.8	20.1	6.06e-01	0	43	102	524288	21	4603
2026-01-04 13:13:36.67	263.56	31.48	-29.7	-31.8	20.2	6.06e-01	0	43	102	524288	21	4598
2026-01-04 13:13:37.67	263.99	31.48	-29.6	-31.7	20.2	6.07e-01	0	43	102	524288	21	4569
2026-01-04 13:13:38.68	264.42	31.49	-29.7	-31.9	20.1	6.05e-01	0	43	102	524288	21	4625
2026-01-04 13:13:39.69	264.86	31.49	-29.7	-31.9	20.1	6.06e-01	0	43	102	524288	21	4615
2026-01-04 13:13:40.70	265.29	31.50	-29.7	-32.0	20.1	6.08e-01	0	43	102	524288	21	4662
2026-01-04 13:13:41.71	265.72	31.50	-29.6	-31.7	20.2	6.07e-01	0	43	102	524288	21	4572
2026-01-04 13:13:42.72	266.15	31.50	-29.6	-31.7	20.2	6.04e-01	0	43	102	524288	21	4569
2026-01-04 13:13:43.73	266.59	31.49	-29.7	-31.9	20.1	6.07e-01	0	43	102	524288	21	4636
2026-01-04 13:13:44.73	267.01	31.49	-29.8	-32.1	20.0	6.06e-01	0	43	102	524288	21	4685
2026-01-04 13:13:45.74	267.45	31.48	-29.7	-31.8	20.2	6.07e-01	0	43	102	524288	21	4585
2026-01-04 13:13:46.75	267.88	31.47	-29.6	-31.6	20.2	6.06e-01	0	43	102	524288	21	4551
2026-01-04 13:13:47.76	268.31	31.46	-29.8	-32.1	20.0	6.05e-01	0	43	102	524288	21	4713
2026-01-04 13:13:48.76	268.74	31.45	-29.8	-32.0	20.0	6.05e-01	0	43	102	524288	21	4662
2026-01-04 13:13:49.77	269.17	31.44	-30.0	-32.7	19.7	6.05e-01	0	43	102	524288	21	4897
2026-01-04 13:13:50.78	269.60	31.42	-30.0	-32.7	19.6	6.07e-01	0	43	102	524288	21	4891
2026-01-04 13:13:51.78	270.02	31.41	-29.8	-32.2	19.9	6.05e-01	0	43	102	524288	21	4721
2026-01-04 13:13:52.79	270.45	31.39	-29.8	-32.2	19.9	6.06e-01	0	43	102	524288	21	4723
2026-01-04 13:13:53.80	270.88	31.37	-29.8	-32.1	19.9	6.05e-01	0	43	102	524288	21	4713
2026-01-04 13:13:54.80	271.31	31.35	-30.0	-32.5	19.7	6.07e-01	0	43	102	524288	21	4834
2026-01-04 13:13:55.81	271.73	31.32	-30.0	-32.6	19.7	6.08e-01	0	43	102	524288	21	4855
2026-01-04 13:13:56.82	272.16	31.30	-30.1	-32.8	19.5	6.06e-01	0	43	102	524288	21	4945
2026-01-04 13:13:57.83	272.59	31.27	-29.9	-32.3	19.9	6.07e-01	0	43	102	524288	21	4748
2026-01-04 13:13:58.83	273.01	31.24	-29.7	-32.0	20.1	6.07e-01	0	43	102	524288	21	4650
2026-01-04 13:13:59.83	273.43	31.21	-29.6	-31.6	20.2	6.08e-01	0	43	102	524288	21	4546
2026-01-04 13:14:00.83	273.85	31.18	-29.5	-31.4	20.4	6.06e-01	0	43	102	524288	21	4462
2026-01-04 13:14:01.84	274.27	31.15	-29.7	-32.0	20.0	6.05e-01	0	43	102	524288	21	4662
2026-01-04 13:14:02.84	274.69	31.12	-29.5	-31.4	20.3	6.06e-01	0	43	102	524288	21	4488
2026-01-04 13:14:03.85	275.11	31.08	-29.6	-31.5	20.4	6.03e-01	0	43	102	524288	21	4506
2026-01-04 13:14:04.86	275.53	31.04	-29.7	-31.8	20.1	6.06e-01	0	43	102	524288	21	4591
2026-01-04 13:14:05.87	275.95	31.00	-29.5	-31.3	20.5	6.08e-01	0	43	102	524288	21	4433
2026-01-04 13:14:06.87	276.37	30.96	-29.7	-32.0	20.1	6.05e-01	0	43	102	524288	21	4651
2026-01-04 13:14:07.88	276.78	30.92	-29.6	-31.7	20.2	6.05e-01	0	43	102	524288	21	4574
2026-01-04 13:14:08.88	277.20	30.87	-29.5	-31.4	20.4	6.07e-01	0	43	102	524288	21	4458
2026-01-04 13:14:09.89	277.61	30.83	-29.6	-31.5	20.3	6.06e-01	0	43	102	524288	21	4519
2026-01-04 13:14:10.90	278.02	30.78	-29.5	-31.4	20.4	6.03e-01	0	43	102	524288	21	4464
2026-01-04 13:14:11.91	278.44	30.73	-29.5	-31.4	20.4	6.07e-01	0	43	102	524288	21	4476
2026-01-04 13:14:12.91	278.84	30.68	-29.7	-31.8	20.1	6.06e-01	0	43	102	524288	21	4612
2026-01-04 13:14:13.92	279.25	30.63	-29.6	-31.6	20.3	6.05e-01	0	43	102	524288	21	4538
2026-01-04 13:14:14.93	279.66	30.58	-29.5	-31.3	20.5	6.08e-01	0	43	102	524288	21	4437
2026-01-04 13:14:15.94	280.07	30.52	-29.6	-31.6	20.3	6.07e-01	0	43	102	524288	21	4541
2026-01-04 13:14:16.95	280.47	30.47	-29.5	-31.4	20.4	6.07e-01	0	43	102	524288	21	4473
2026-01-04 13:14:17.96	280.88	30.41	-29.5	-31.4	20.4	6.05e-01	0	43	102	524288	21	4471
2026-01-04 13:14:18.97	281.28	30.35	-29.7	-31.8	20.2	6.05e-01	0	43	102	524288	21	4600
2026-01-04 13:14:19.97	281.68	30.29	-29.6	-31.7	20.2	6.06e-01	0	43	102	524288	21	4579
2026-01-04 13:14:20.97	282.07	30.23	-29.6	-31.6	20.3	6.06e-01	0	43	102	524288	21	4549
2026-01-04 13:14:21.97	282.47	30.17	-29.7	-31.9	20.1	6.06e-01	0	43	102	524288	21	4640
2026-01-04 13:14:22.98	282.86	30.11	-29.6	-31.7	20.2	6.07e-01	0	43	102	524288	21	4577
2026-01-04 13:14:23.99	283.26	30.04	-29.6	-31.6	20.3	6.06e-01	0	43	102	524288	21	4545
2026-01-04 13:14:25.00	283.65	29.98	-29.9	-32.4	19.8	6.05e-01	0	43	102	524288	21	4786
2026-01-04 13:14:26.01	284.04	29.91	-29.9	-32.3	19.9	6.06e-01	0	43	102	524288	21	4769
2026-01-04 13:14:27.02	284.43	29.84	-30.0	-32.7	19.7	6.07e-01	0	43	102	524288	21	4893
2026-01-04 13:14:28.03	284.82	29.77	-29.8	-32.2	20.0	6.05e-01	0	43	102	524288	21	4711
2026-01-04 13:14:29.04	285.21	29.70	-29.7	-31.8	20.2	6.06e-01	0	43	102	524288	21	4602
2026-01-04 13:14:30.05	285.59	29.63	-29.7	-31.8	20.2	6.07e-01	0	43	102	524288	21	4610
2026-01-04 13:14:31.05	285.97	29.55	-29.9	-32.3	19.9	6.05e-01	0	43	102	524288	21	4773
2026-01-04 13:14:32.05	286.35	29.48	-29.9	-32.3	19.9	6.06e-01	0	43	102	524288	21	4773
2026-01-04 13:14:33.06	286.73	29.40	-30.0	-32.7	19.6	6.05e-01	0	43	102	524288	21	4901
2026-01-04 13:14:34.07	287.10	29.33	-29.8	-32.1	20.0	6.08e-01	0	43	102	524288	21	4703
2026-01-04 13:14:35.08	287.48	29.25	-29.5	-31.4	20.4	6.06e-01	0	43	102	524288	21	4487
2026-01-04 13:14:36.09	287.85	29.17	-29.6	-31.5	20.4	6.04e-01	0	43	102	524288	21	4507
2026-01-04 13:14:37.09	288.22	29.09	-29.7	-32.0	20.1	6.05e-01	0	43	102	524288	21	4653
2026-01-04 13:14:38.10	288.59	29.01	-29.6	-31.7	20.3	6.07e-01	0	43	102	524288	21	4563
2026-01-04 13:14:39.10	288.96	28.93	-29.6	-31.6	20.3	6.08e-01	0	43	102	524288	21	4539
2026-01-04 13:14:40.11	289.32	28.85	-29.7	-32.0	20.1	6.06e-01	0	43	102	524288	21	4647
2026-01-04 13:14:41.12	289.69	28.76	-29.7	-31.9	20.1	6.05e-01	0	43	102	524288	21	4639
2026-01-04 13:14:42.13	290.05	28.68	-29.7	-31.8	20.2	6.06e-01	0	43	102	524288	21	4601
2026-01-04 13:14:43.13	290.40	28.59	-29.7	-31.8	20.1	6.07e-01	0	43	102	524288	21	4607
2026-01-04 13:14:44.14	290.76	28.51	-29.8	-32.1	20.0	6.06e-01	0	43	102	524288	21	4680
2026-01-04 13:14:45.15	291.12	28.42	-29.8	-32.1	20.0	6.05e-01	0	43	102	524288	21	4681
2026-01-04 13:14:46.15	291.47	28.33	-29.8	-32.1	20.0	6.07e-01	0	43	102	524288	21	4677
2026-01-04 13:14:47.15	291.82	28.24	-29.8	-32.1	20.0	6.05e-01	0	43	102	524288	21	4697
2026-01-04 13:14:48.16	292.17	28.15	-29.8	-32.2	20.0	6.07e-01	0	43	102	524288	21	4711
2026-01-04 13:14:49.17	292.52	28.06	-29.9	-32.4	19.8	6.05e-01	0	43	102	524288	21	4781
2026-01-04 13:14:50.17	292.86	27.97	-29.9	-32.3	19.9	6.06e-01	0	43	102	524288	21	4746
2026-01-04 13:14:51.19	293.21	27.88	-29.9	-32.2	19.9	6.08e-01	0	43	102	524288	21	4739
2026-01-04 13:14:52.20	293.55	27.79	-29.9	-32.4	19.9	6.06e-01	0	43	102	524288	21	4778
2026-01-04 13:14:53.20	293.89	27.69	-30.0	-32.6	19.7	6.06e-01	0	43	102	524288	21	4849
2026-01-04 13:14:54.21	294.22	27.60	-30.1	-32.8	19.6	6.06e-01	0	43	102	524288	21	4913
2026-01-04 13:14:55.22	294.56	27.50	-30.0	-32.5	19.7	6.06e-01	0	43	102	524288	21	4839
2026-01-04 13:14:56.22	294.89	27.41	-30.0	-32.6	19.7	6.06e-01	0	43	102	524288	21	4874
2026-01-04 13:14:57.23	295.22	27.31	-30.0	-32.7	19.6	6.07e-01	0	43	102	524288	21	4901
2026-01-04 13:14:58.24	295.55	27.22	-29.9	-32.3	19.9	6.06e-01	0	43	102	524288	21	4745
2026-01-04 13:14:59.25	295.88	27.12	-29.9	-32.2	19.9	6.05e-01	0	43	102	524288	21	4732
2026-01-04 13:15:00.26	296.21	27.02	-30.1	-32.9	19.5	6.08e-01	0	43	102	524288	21	4949
2026-01-04 13:15:01.27	296.53	26.92	-30.1	-32.9	19.5	6.07e-01	0	43	102	524288	21	4984
2026-01-04 13:15:02.27	296.85	26.82	-30.0	-32.7	19.6	6.05e-01	0	43	102	524288	21	4913
2026-01-04 13:15:03.27	297.16	26.73	-29.9	-32.3	19.9	6.08e-01	0	43	102	524288	21	4758
2026-01-04 13:15:04.28	297.48	26.63	-30.1	-32.8	19.6	6.05e-01	0	43	102	524288	21	4928
2026-01-04 13:15:05.29	297.80	26.53	-30.3	-33.4	19.2	6.05e-01	0	43	102	524288	21	5137
2026-01-04 13:15:06.29	298.11	26.43	-30.3	-33.3	19.2	6.05e-01	0	43	102	524288	21	5125
2026-01-04 13:15:07.30	298.42	26.32	-30.4	-33.7	19.0	6.07e-01	0	43	102	524288	21	5251
2026-01-04 13:15:08.31	298.73	26.22	-30.2	-33.0	19.4	6.07e-01	0	43	102	524288	21	5011
2026-01-04 13:15:09.32	299.04	26.12	-30.0	-32.7	19.6	6.06e-01	0	43	102	524288	21	4903
2026-01-04 13:15:10.32	299.34	26.02	-30.1	-32.8	19.6	6.05e-01	0	43	102	524288	21	4914
2026-01-04 13:15:11.33	299.64	25.92	-30.0	-32.7	19.6	6.07e-01	0	43	102	524288	21	4894
2026-01-04 13:15:12.34	299.94	25.81	-30.0	-32.6	19.7	6.07e-01	0	43	102	524288	21	4851
2026-01-04 13:15:13.35	300.24	25.71	-30.0	-32.6	19.7	6.05e-01	0	43	102	524288	21	4866
2026-01-04 13:15:14.36	300.54	25.60	-30.1	-32.9	19.5	6.08e-01	0	43	102	524288	21	4953
2026-01-04 13:15:15.36	300.83	25.50	-30.2	-33.1	19.4	6.08e-01	0	43	102	524288	21	5035
2026-01-04 13:15:16.37	301.13	25.40	-30.2	-33.1	19.4	6.09e-01	0	43	102	524288	21	5029
2026-01-04 13:15:17.38	301.42	25.29	-30.1	-32.9	19.5	6.08e-01	0	43	102	524288	21	4953
2026-01-04 13:15:18.38	301.70	25.19	-30.1	-33.0	19.5	6.06e-01	0	43	102	524288	21	4992
2026-01-04 13:15:19.39	301.99	25.08	-30.1	-32.9	19.5	6.07e-01	0	43	102	524288	21	4966
2026-01-04 13:15:20.40	302.28	24.98	-30.1	-32.9	19.5	6.06e-01	0	43	102	524288	21	4948
2026-01-04 13:15:21.41	302.56	24.87	-30.2	-33.1	19.3	6.03e-01	0	43	102	524288	21	5043
2026-01-04 13:15:22.42	302.84	24.76	-30.2	-33.1	19.4	6.06e-01	0	43	102	524288	21	5024
2026-01-04 13:15:23.42	303.12	24.66	-30.2	-33.1	19.3	6.06e-01	0	43	102	524288	21	5047
2026-01-04 13:15:24.43	303.40	24.55	-30.2	-33.2	19.3	6.06e-01	0	43	102	524288	21	5061
2026-01-04 13:15:25.44	303.67	24.44	-30.1	-33.0	19.4	6.07e-01	0	43	102	524288	21	5016
2026-01-04 13:15:26.44	303.94	24.34	-30.2	-33.1	19.3	6.06e-01	0	43	102	524288	21	5054
2026-01-04 13:15:27.45	304.22	24.23	-30.3	-33.3	19.2	6.08e-01	0	43	102	524288	21	5130
2026-01-04 13:15:28.45	304.48	24.12	-30.3	-33.3	19.2	6.06e-01	0	43	102	524288	21	5127
2026-01-04 13:15:29.46	304.75	24.02	-30.2	-33.2	19.3	6.08e-01	0	43	102	524288	21	5073
2026-01-04 13:15:30.47	305.02	23.91	-30.2	-33.2	19.3	6.06e-01	0	43	102	524288	21	5068
2026-01-04 13:15:31.47	305.28	23.80	-30.3	-33.5	19.1	6.05e-01	0	43	102	524288	21	5167
2026-01-04 13:15:32.48	305.54	23.69	-30.4	-33.6	19.0	6.07e-01	0	43	102	524288	21	5220
2026-01-04 13:15:33.49	305.80	23.59	-30.4	-33.7	19.0	6.07e-01	0	43	102	524288	21	5264
2026-01-04 13:15:34.49	306.06	23.48	-30.5	-33.8	18.9	6.04e-01	0	43	102	524288	21	5318
2026-01-04 13:15:35.50	306.32	23.37	-30.3	-33.4	19.1	6.04e-01	0	43	102	524288	21	5163
2026-01-04 13:15:36.50	306.57	23.26	-30.2	-33.2	19.3	6.05e-01	0	43	102	524288	21	5072
2026-01-04 13:15:37.51	306.82	23.15	-30.2	-33.1	19.3	6.05e-01	0	43	102	524288	21	5052
2026-01-04 13:15:38.52	307.07	23.05	-30.2	-33.1	19.3	6.06e-01	0	43	102	524288	21	5041
2026-01-04 13:15:39.53	307.32	22.94	-30.2	-33.2	19.3	5.99e-01	0	43	102	524288	21	5058
2026-01-04 13:15:40.54	307.57	22.83	-30.2	-33.1	19.3	6.01e-01	0	43	102	524288	21	5058
2026-01-04 13:15:41.54	307.81	22.72	-30.1	-33.0	19.4	6.00e-01	0	43	102	524288	21	5008
2026-01-04 13:15:42.55	308.06	22.61	-30.2	-33.1	19.3	5.97e-01	0	43	102	524288	21	5045
2026-01-04 13:15:43.56	308.30	22.50	-30.2	-33.1	19.3	6.00e-01	0	43	102	524288	21	5029
2026-01-04 13:15:44.57	308.54	22.40	-30.1	-32.9	19.5	6.01e-01	0	43	102	524288	21	4963
2026-01-04 13:15:45.57	308.78	22.29	-30.2	-33.1	19.4	6.00e-01	0	43	102	524288	21	5023
2026-01-04 13:15:46.58	309.02	22.18	-30.2	-33.2	19.2	6.02e-01	0	43	102	524288	21	5095
2026-01-04 13:15:47.59	309.25	22.07	-30.2	-33.3	19.2	5.99e-01	0	43	102	524288	21	5102
2026-01-04 13:15:48.59	309.49	21.96	-30.3	-33.3	19.2	6.00e-01	0	43	102	524288	21	5131
2026-01-04 13:15:49.61	309.72	21.86	-30.3	-33.3	19.2	6.02e-01	0	43	102	524288	21	5134
2026-01-04 13:15:50.62	309.95	21.75	-30.2	-33.3	19.2	6.00e-01	0	43	102	524288	21	5108
2026-01-04 13:15:51.62	310.18	21.64	-30.2	-33.1	19.3	6.00e-01	0	43	102	524288	21	5040
2026-01-04 13:15:52.63	310.41	21.53	-30.2	-33.2	19.3	6.01e-01	0	43	102	524288	21	5075
2026-01-04 13:15:53.63	310.63	21.42	-30.2	-33.1	19.3	6.01e-01	0	43	102	524288	21	5038
2026-01-04 13:15:54.65	310.86	21.32	-30.1	-32.8	19.5	6.00e-01	0	43	102	524288	21	4946
2026-01-04 13:15:55.65	311.08	21.21	-30.1	-32.8	19.5	6.00e-01	0	43	102	524288	21	4940
2026-01-04 13:15:56.66	311.30	21.10	-30.1	-32.9	19.4	6.01e-01	0	43	102	524288	21	4961
2026-01-04 13:15:57.67	311.52	20.99	-30.1	-33.0	19.4	6.00e-01	0	43	102	524288	21	5026
2026-01-04 13:15:58.67	311.73	20.89	-30.1	-32.9	19.4	5.99e-01	0	43	102	524288	21	4994
2026-01-04 13:15:59.69	311.95	20.78	-30.1	-32.9	19.4	6.02e-01	0	43	102	524288	21	4965
2026-01-04 13:16:00.69	312.16	20.67	-30.1	-33.0	19.3	6.02e-01	0	43	102	524288	21	5024
2026-01-04 13:16:01.70	312.38	20.56	-30.1	-32.8	19.4	6.01e-01	0	43	102	524288	21	4954
2026-01-04 13:16:02.70	312.59	20.46	-30.0	-32.6	19.5	6.02e-01	0	43	102	524288	21	4889
2026-01-04 13:16:03.71	312.80	20.35	-30.0	-32.7	19.5	5.99e-01	0	43	102	524288	21	4901
2026-01-04 13:16:04.71	313.00	20.25	-30.0	-32.6	19.6	6.00e-01	0	43	102	524288	21	4882
2026-01-04 13:16:05.72	313.21	20.14	-30.0	-32.8	19.5	6.01e-01	0	43	102	524288	21	4930
2026-01-04 13:16:06.73	313.42	20.03	-30.0	-32.7	19.5	5.99e-01	0	43	102	524288	21	4907
2026-01-04 13:16:07.74	313.62	19.93	-30.0	-32.7	19.5	6.02e-01	0	43	102	524288	21	4922
2026-01-04 13:16:08.74	313.82	19.82	-30.0	-32.8	19.4	6.02e-01	0	43	102	524288	21	4937
2026-01-04 13:16:09.75	314.02	19.72	-30.1	-33.1	19.3	5.98e-01	0	43	102	524288	21	5035
2026-01-04 13:16:10.75	314.22	19.61	-30.1	-32.8	19.4	5.99e-01	0	43	102	524288	21	4957
2026-01-04 13:16:11.76	314.42	19.50	-30.0	-32.8	19.5	6.01e-01	0	43	102	524288	21	4946
2026-01-04 13:16:12.77	314.62	19.40	-30.0	-32.8	19.5	5.98e-01	0	43	102	524288	21	4941
2026-01-04 13:16:13.77	314.81	19.29	-30.0	-32.7	19.5	6.01e-01	0	43	102	524288	21	4926
2026-01-04 13:16:14.78	315.01	19.19	-30.1	-33.0	19.3	5.99e-01	0	43	102	524288	21	5031
2026-01-04 13:16:15.79	315.20	19.08	-30.1	-33.0	19.3	6.01e-01	0	43	102	524288	21	5015
2026-01-04 13:16:16.80	315.39	18.98	-30.2	-33.2	19.2	5.99e-01	0	43	102	524288	21	5083
2026-01-04 13:16:17.81	315.58	18.88	-30.4	-33.6	18.9	6.01e-01	0	43	102	524288	21	5261
2026-01-04 13:16:18.81	315.77	18.77	-30.3	-33.5	18.9	6.00e-01	0	43	102	524288	21	5197
2026-01-04 13:16:19.82	315.96	18.67	-30.4	-33.7	18.8	6.00e-01	0	43	102	524288	21	5298
2026-01-04 13:16:20.83	316.14	18.56	-30.3	-33.5	19.0	6.01e-01	0	43	102	524288	21	5196
2026-01-04 13:16:21.83	316.33	18.46	-30.2	-33.2	19.1	6.01e-01	0	43	102	524288	21	5089
2026-01-04 13:16:22.84	316.51	18.36	-30.2	-33.2	19.1	6.00e-01	0	43	102	524288	21	5103
2026-01-04 13:16:23.85	316.69	18.25	-30.1	-33.1	19.2	6.02e-01	0	43	102	524288	21	5067
2026-01-04 13:16:24.85	316.87	18.15	-30.4	-33.7	18.8	5.99e-01	0	43	102	524288	21	5285
2026-01-04 13:16:25.86	317.05	18.05	-30.2	-33.2	19.1	6.02e-01	0	43	102	524288	21	5104
2026-01-04 13:16:26.87	317.23	17.95	-30.0	-32.8	19.4	6.02e-01	0	43	102	524288	21	4934
2026-01-04 13:16:27.88	317.41	17.84	-30.0	-32.6	19.5	6.01e-01	0	43	102	524288	21	4886
2026-01-04 13:16:28.88	317.58	17.74	-30.0	-32.7	19.5	6.00e-01	0	43	102	524288	21	4906
2026-01-04 13:16:29.89	317.76	17.64	-30.0	-32.7	19.5	6.01e-01	0	43	102	524288	21	4908
2026-01-04 13:16:30.89	317.93	17.54	-30.0	-32.6	19.5	6.00e-01	0	43	102	524288	21	4897
2026-01-04 13:16:31.89	318.10	17.44	-30.0	-32.8	19.4	6.02e-01	0	43	102	524288	21	4950
2026-01-04 13:16:32.89	318.27	17.34	-29.9	-32.5	19.5	5.98e-01	0	43	102	524288	21	4851
2026-01-04 13:16:33.90	318.44	17.24	-29.9	-32.4	19.6	6.03e-01	0	43	102	524288	21	4823
2026-01-04 13:16:34.91	318.61	17.14	-29.8	-32.3	19.6	6.02e-01	0	43	102	524288	21	4798
2026-01-04 13:16:35.91	318.78	17.04	-29.9	-32.5	19.5	6.00e-01	0	43	102	524288	21	4864
2026-01-04 13:16:36.92	318.94	16.94	-29.8	-32.3	19.6	6.02e-01	0	43	102	524288	21	4793
2026-01-04 13:16:37.93	319.11	16.84	-29.9	-32.4	19.6	6.00e-01	0	43	102	524288	21	4811
2026-01-04 13:16:38.94	319.27	16.74	-29.9	-32.6	19.4	5.99e-01	0	43	102	524288	21	4885
2026-01-04 13:16:39.94	319.43	16.64	-29.9	-32.5	19.5	6.00e-01	0	43	102	524288	21	4834
2026-01-04 13:16:40.95	319.60	16.54	-30.0	-32.7	19.4	5.99e-01	0	43	102	524288	21	4938
2026-01-04 13:16:41.96	319.76	16.44	-29.9	-32.6	19.5	6.02e-01	0	43	102	524288	21	4880
2026-01-04 13:16:42.97	319.92	16.34	-30.0	-32.7	19.4	6.02e-01	0	43	102	524288	21	4927
2026-01-04 13:16:43.97	320.08	16.24	-30.0	-32.7	19.4	5.99e-01	0	43	102	524288	21	4936
2026-01-04 13:16:44.98	320.23	16.14	-30.1	-33.0	19.2	6.01e-01	0	43	102	524288	21	5033
2026-01-04 13:16:45.98	320.39	16.05	-30.0	-32.8	19.3	6.01e-01	0	43	102	524288	21	4967
2026-01-04 13:16:46.98	320.54	15.95	-30.0	-32.8	19.3	6.00e-01	0	43	102	524288	21	4954
2026-01-04 13:16:47.99	320.70	15.85	-30.0	-32.8	19.3	6.01e-01	0	43	102	524288	21	4951
2026-01-04 13:16:48.99	320.85	15.75	-30.1	-32.9	19.2	6.01e-01	0	43	102	524288	21	5008
2026-01-04 13:16:50.00	321.00	15.66	-30.0	-32.7	19.3	6.01e-01	0	43	102	524288	21	4924
2026-01-04 13:16:51.00	321.15	15.56	-30.0	-32.9	19.2	6.02e-01	0	43	102	524288	21	4999
2026-01-04 13:16:52.01	321.30	15.46	-29.9	-32.6	19.4	6.01e-01	0	43	102	524288	21	4893
2026-01-04 13:16:53.01	321.45	15.37	-29.9	-32.5	19.4	5.99e-01	0	43	102	524288	21	4870
2026-01-04 13:16:54.02	321.60	15.27	-29.9	-32.6	19.4	5.99e-01	0	43	102	524288	21	4905
2026-01-04 13:16:55.03	321.75	15.18	-30.1	-32.9	19.2	6.01e-01	0	43	102	524288	21	5005
2026-01-04 13:16:56.04	321.89	15.08	-30.0	-32.7	19.3	6.00e-01	0	43	102	524288	21	4915
2026-01-04 13:16:57.04	322.04	14.99	-30.1	-33.0	19.1	6.01e-01	0	43	102	524288	21	5050
2026-01-04 13:16:58.04	322.18	14.89	-30.2	-33.3	18.9	6.00e-01	0	43	102	524288	21	5144
2026-01-04 13:16:59.05	322.33	14.80	-30.1	-33.1	19.0	6.01e-01	0	43	102	524288	21	5093
2026-01-04 13:17:00.06	322.47	14.70	-30.2	-33.3	18.9	6.01e-01	0	43	102	524288	21	5135
2026-01-04 13:17:01.06	322.61	14.61	-30.2	-33.3	18.9	6.00e-01	0	43	102	524288	21	5142
2026-01-04 13:17:02.07	322.75	14.51	-30.3	-33.5	18.8	5.99e-01	0	43	102	524288	21	5228
2026-01-04 13:17:03.08	322.89	14.42	-30.2	-33.4	18.9	6.02e-01	0	43	102	524288	21	5175
2026-01-04 13:17:04.09	323.03	14.33	-30.4	-33.9	18.5	6.02e-01	0	43	102	524288	21	5381
2026-01-04 13:17:05.09	323.17	14.23	-30.2	-33.3	18.9	6.02e-01	0	43	102	524288	21	5168
2026-01-04 13:17:06.10	323.30	14.14	-30.1	-33.1	19.1	6.01e-01	0	43	102	524288	21	5067
2026-01-04 13:17:07.11	323.44	14.05	-30.0	-32.9	19.2	6.00e-01	0	43	102	524288	21	4993
2026-01-04 13:17:08.11	323.58	13.96	-30.0	-32.9	19.1	5.98e-01	0	43	102	524288	21	5007
2026-01-04 13:17:09.12	323.71	13.86	-30.0	-32.8	19.2	6.00e-01	0	43	102	524288	21	4962
2026-01-04 13:17:10.14	323.85	13.77	-30.0	-32.7	19.2	6.01e-01	0	43	102	524288	21	4951
2026-01-04 13:17:11.15	323.98	13.68	-30.0	-32.7	19.2	6.00e-01	0	43	102	524288	21	4941
2026-01-04 13:17:12.15	324.11	13.59	-30.1	-33.0	19.1	5.98e-01	0	43	102	524288	21	5031
2026-01-04 13:17:13.16	324.24	13.50	-30.2	-33.3	18.9	6.00e-01	0	43	102	524288	21	5159
2026-01-04 13:17:14.17	324.37	13.41	-30.1	-33.0	19.0	6.02e-01	0	43	102	524288	21	5063
2026-01-04 13:17:15.18	324.50	13.31	-30.0	-33.0	19.0	6.01e-01	0	43	102	524288	21	5035
2026-01-04 13:17:16.19	324.63	13.22	-30.1	-33.0	19.0	6.01e-01	0	43	102	524288	21	5051
2026-01-04 13:17:17.20	324.76	13.13	-30.1	-33.2	18.9	6.01e-01	0	43	102	524288	21	5139
2026-01-04 13:17:18.21	324.89	13.04	-30.2	-33.4	18.7	6.00e-01	0	43	102	524288	21	5216
2026-01-04 13:17:19.22	325.01	12.95	-30.2	-33.4	18.8	6.00e-01	0	43	102	524288	21	5197
2026-01-04 13:17:20.23	325.14	12.86	-30.3	-33.6	18.6	6.01e-01	0	43	102	524288	21	5284
2026-01-04 13:17:21.24	325.26	12.77	-30.4	-33.9	18.4	6.00e-01	0	43	102	524288	21	5405
2026-01-04 13:17:22.24	325.39	12.69	-30.3	-33.6	18.6	6.02e-01	0	43	102	524288	21	5281
2026-01-04 13:17:23.25	325.51	12.60	-30.4	-34.0	18.3	6.00e-01	0	43	102	524288	21	5434
2026-01-04 13:17:24.25	325.63	12.51	-30.6	-34.5	18.0	6.00e-01	0	43	102	524288	21	5641
2026-01-04 13:17:25.26	325.75	12.42	-30.6	-34.1	17.9	6.03e-01	0	43	102	524288	22	5355
2026-01-04 13:17:26.27	325.87	12.33	-30.7	-34.3	17.8	6.00e-01	0	43	102	524288	22	5447
2026-01-04 13:17:27.27	325.99	12.25	-30.6	-34.1	17.9	6.00e-01	0	43	102	524288	22	5352
2026-01-04 13:17:28.28	326.11	12.16	-30.6	-34.0	18.0	6.03e-01	0	43	102	524288	22	5342
2026-01-04 13:17:29.28	326.23	12.07	-30.6	-34.1	17.9	6.00e-01	0	43	102	524288	22	5372
2026-01-04 13:17:30.29	326.35	11.98	-30.7	-34.2	17.8	6.00e-01	0	43	102	524288	22	5401
2026-01-04 13:17:31.30	326.47	11.90	-30.5	-33.8	18.1	6.01e-01	0	43	102	524288	22	5252
2026-01-04 13:17:32.31	326.58	11.81	-30.5	-33.6	18.3	6.02e-01	0	43	102	524288	22	5165
2026-01-04 13:17:33.31	326.70	11.73	-30.4	-33.4	18.4	6.00e-01	0	43	102	524288	22	5104
2026-01-04 13:17:34.32	326.81	11.64	-30.5	-33.7	18.2	6.00e-01	0	43	102	524288	22	5223
2026-01-04 13:17:35.33	326.93	11.55	-30.5	-33.9	18.1	6.01e-01	0	43	102	524288	22	5277
2026-01-04 13:17:36.33	327.04	11.47	-30.5	-33.8	18.1	6.02e-01	0	43	102	524288	22	5241
2026-01-04 13:17:37.34	327.15	11.38	-30.6	-34.1	17.9	5.99e-01	0	43	102	524288	22	5379
2026-01-04 13:17:38.35	327.27	11.30	-30.5	-33.7	18.2	6.02e-01	0	43	102	524288	22	5200
2026-01-04 13:17:39.36	327.38	11.21	-30.4	-33.5	18.3	6.02e-01	0	43	102	524288	22	5131
2026-01-04 13:17:40.36	327.49	11.13	-30.4	-33.5	18.3	6.00e-01	0	43	102	524288	22	5151
2026-01-04 13:17:41.37	327.60	11.04	-30.5	-33.8	18.1	6.00e-01	0	43	102	524288	22	5242
2026-01-04 13:17:42.37	327.71	10.96	-30.6	-34.2	17.9	6.00e-01	0	43	102	524288	22	5409
2026-01-04 13:17:43.38	327.82	10.88	-30.7	-34.3	17.8	6.01e-01	0	43	102	524288	22	5448
2026-01-04 13:17:44.39	327.92	10.79	-30.6	-34.0	18.0	5.99e-01	0	43	102	524288	22	5338
2026-01-04 13:17:45.40	328.03	10.71	-30.6	-34.1	17.9	6.01e-01	0	43	102	524288	22	5382
2026-01-04 13:17:46.40	328.14	10.63	-30.7	-34.3	17.8	6.02e-01	0	43	102	524288	22	5450
2026-01-04 13:17:47.41	328.25	10.54	-30.7	-34.3	17.7	6.00e-01	0	43	102	524288	22	5453
2026-01-04 13:17:48.42	328.35	10.46	-30.6	-34.1	17.9	6.01e-01	0	43	102	524288	22	5377
2026-01-04 13:17:49.42	328.46	10.38	-30.6	-34.0	17.9	6.01e-01	0	43	102	524288	22	5345
2026-01-04 13:17:50.43	328.56	10.30	-30.6	-34.1	17.9	6.00e-01	0	43	102	524288	22	5397
2026-01-04 13:17:51.44	328.67	10.22	-30.6	-34.1	17.9	6.02e-01	0	43	102	524288	22	5368
2026-01-04 13:17:52.45	328.77	10.13	-30.5	-33.8	18.0	6.01e-01	0	43	102	524288	22	5283
2026-01-04 13:17:53.45	328.87	10.05	-30.5	-33.8	18.0	6.00e-01	0	43	102	524288	22	5282
2026-01-04 13:17:54.46	328.97	9.97	-30.6	-34.1	17.8	6.01e-01	0	43	102	524288	22	5396
2026-01-04 13:17:55.47	329.08	9.89	-30.7	-34.3	17.7	6.02e-01	0	43	102	524288	22	5450
2026-01-04 13:17:56.47	329.18	9.81	-30.7	-34.3	17.7	5.99e-01	0	43	102	524288	22	5468
2026-01-04 13:17:57.48	329.28	9.73	-30.7	-34.5	17.6	6.02e-01	0	43	102	524288	22	5532
2026-01-04 13:17:58.49	329.38	9.65	-30.8	-34.7	17.4	6.00e-01	0	43	102	524288	22	5615
2026-01-04 13:17:59.49	329.48	9.57	-30.8	-34.6	17.4	6.03e-01	0	43	102	524288	22	5608
2026-01-04 13:18:00.50	329.57	9.49	-30.9	-34.9	17.3	6.02e-01	0	43	102	524288	22	5715
2026-01-04 13:18:01.50	329.67	9.41	-30.9	-34.9	17.2	6.02e-01	0	43	102	524288	22	5728
2026-01-04 13:18:02.50	329.77	9.33	-30.8	-34.7	17.3	6.00e-01	0	43	102	524288	22	5650
2026-01-04 13:18:03.51	329.87	9.25	-30.8	-34.6	17.4	6.00e-01	0	43	102	524288	22	5616
2026-01-04 13:18:04.51	329.96	9.17	-30.8	-34.7	17.4	6.02e-01	0	43	102	524288	22	5648
2026-01-04 13:18:05.52	330.06	9.09	-30.9	-35.0	17.2	6.00e-01	0	43	102	524288	22	5766
2026-01-04 13:18:06.53	330.15	9.01	-30.9	-34.9	17.2	5.99e-01	0	43	102	524288	22	5731
2026-01-04 13:18:07.54	330.25	8.94	-30.8	-34.7	17.3	6.01e-01	0	43	102	524288	22	5628
2026-01-04 13:18:08.54	330.34	8.86	-30.6	-34.3	17.6	6.01e-01	0	43	102	524288	22	5472
2026-01-04 13:18:09.55	330.44	8.78	-30.6	-34.3	17.6	6.01e-01	0	43	102	524288	22	5471
2026-01-04 13:18:10.56	330.53	8.70	-30.7	-34.4	17.5	6.01e-01	0	43	102	524288	22	5509
2026-01-04 13:18:11.57	330.62	8.62	-30.7	-34.4	17.5	6.01e-01	0	43	102	524288	22	5520
2026-01-04 13:18:12.57	330.72	8.55	-30.7	-34.5	17.5	6.00e-01	0	43	102	524288	22	5551
2026-01-04 13:18:13.58	330.81	8.47	-30.7	-34.4	17.5	6.01e-01	0	43	102	524288	22	5542
2026-01-04 13:18:14.59	330.90	8.39	-30.8	-34.9	17.2	6.03e-01	0	43	102	524288	22	5730
2026-01-04 13:18:15.60	330.99	8.32	-30.8	-34.7	17.2	6.01e-01	0	43	102	524288	22	5674
2026-01-04 13:18:16.60	331.08	8.24	-30.8	-34.7	17.3	6.02e-01	0	43	102	524288	22	5640
2026-01-04 13:18:17.61	331.17	8.16	-30.7	-34.5	17.4	6.02e-01	0	43	102	524288	22	5596
2026-01-04 13:18:18.62	331.26	8.09	-30.8	-34.8	17.2	6.02e-01	0	43	102	524288	22	5719
2026-01-04 13:18:19.63	331.35	8.01	-30.8	-34.9	17.1	6.02e-01	0	43	102	524288	22	5741
2026-01-04 13:18:20.64	331.44	7.94	-30.8	-34.9	17.1	6.01e-01	0	43	102	524288	22	5754
2026-01-04 13:18:21.65	331.53	7.86	-30.9	-35.2	16.9	6.03e-01	0	43	102	524288	22	5877
2026-01-04 13:18:22.64	331.61	7.79	-30.9	-35.1	16.8	5.99e-01	0	43	102	524288	22	5844
2026-01-04 13:18:23.65	331.70	7.71	-30.8	-35.0	16.5	6.00e-01	0	43	102	524288	22	5809
2026-01-04 13:18:24.66	331.79	7.63	-30.8	-35.0	16.0	6.01e-01	0	43	102	524288	22	5854
2026-01-04 13:18:25.66	331.87	7.56	-30.9	-35.0	16.8	6.01e-01	0	43	102	524288	22	5833
2026-01-04 13:18:26.67	331.96	7.49	-30.8	-35.0	16.8	5.99e-01	0	43	102	524288	22	5833
2026-01-04 13:18:27.68	332.04	7.41	-31.0	-35.4	16.5	6.01e-01	0	43	102	524288	22	6006
2026-01-04 13:18:28.68	332.13	7.34	-30.9	-35.3	16.7	6.00e-01	0	43	102	524288	22	5952
2026-01-04 13:18:29.69	332.21	7.26	-30.8	-35.0	16.9	6.02e-01	0	43	102	524288	22	5804
2026-01-04 13:18:30.69	332.30	7.19	-30.8	-35.0	16.9	6.01e-01	0	43	102	524288	22	5802
2026-01-04 13:18:31.70	332.38	7.12	-30.9	-35.1	16.7	6.00e-01	0	43	102	524288	22	5889
2026-01-04 13:18:32.71	332.46	7.04	-33.6	-51.5	3.8	7.44e-01	0	43	104	524288	28	28172
2026-01-04 13:18:33.72	332.55	6.97	-33.9	-53.3	3.8	7.47e-01	0	43	104	524288	28	33628

#Closed at: 2026-01-04 13:18:33
#Recorded file [0 MB]: D:/data/31010_260104_160855.dat