passes_logs/2026/01/04/R2M6_AANII_01/R2M6_AANII_01__20260104_001753_AQUA_rec.log

#Pass ID: 20260104_001753_AQUA
#Satellite: AQUA
#Configuration: AQUA
#almurnet v.1.7.20240730
#Start time: 2026-01-04 00:17:54

#Version: 2.2.20231116
#Station: R2M6_AANII_01
#Location: 30.233357 lon 59.946436 lat
#TLE: 1 27424U 02022A   25365.92641127  .00002078  00000+0  42628-3 0  9999
#TLE: 2 27424  98.4058 327.1196 0001962  94.7781 340.6230 14.61783896258835

#Time	Az	El	Level	Level2	SNR	BER	BlckErr	Temp	State	Recorded	gain1	gain2
2026-01-04 00:17:54.42	35.46	7.08	-31.3	-37.7	5.2	7.10e-01	0	41	0	0	23	7478
2026-01-04 00:17:55.43	35.59	7.15	-32.1	-40.1	4.9	7.10e-01	0	41	104	0	25	9051
2026-01-04 00:17:56.43	35.71	7.21	-32.0	-39.4	12.3	6.06e-01	0	41	0	0	24	8461
2026-01-04 00:17:57.44	35.84	7.27	-32.1	-39.4	11.9	6.09e-01	0	41	0	1572864	25	8327
2026-01-04 00:17:58.44	35.96	7.33	-31.9	-38.6	12.6	6.04e-01	0	41	0	3670016	25	7718
2026-01-04 00:17:59.45	36.09	7.39	-31.8	-38.2	13.4	6.05e-01	0	41	0	5242880	24	7533
2026-01-04 00:18:00.45	36.22	7.45	-31.6	-37.4	14.0	6.02e-01	0	41	0	7340032	24	7000
2026-01-04 00:18:01.46	36.35	7.51	-31.4	-36.5	14.7	6.00e-01	0	41	0	9437184	24	6496
2026-01-04 00:18:02.47	36.47	7.57	-31.3	-36.5	15.1	6.04e-01	0	41	0	11010048	23	6557
2026-01-04 00:18:03.48	36.60	7.63	-31.1	-36.0	15.5	5.99e-01	0	41	0	13107200	23	6285
2026-01-04 00:18:04.48	36.73	7.69	-31.0	-35.7	15.7	6.02e-01	0	41	0	14680064	23	6172
2026-01-04 00:18:05.48	36.86	7.76	-31.0	-35.6	15.8	6.04e-01	0	41	0	16777216	23	6108
2026-01-04 00:18:06.49	36.99	7.82	-31.0	-35.6	15.8	6.01e-01	0	41	0	18874368	23	6094
2026-01-04 00:18:07.50	37.13	7.88	-31.1	-36.0	15.5	6.03e-01	0	41	0	20447232	23	6311
2026-01-04 00:18:08.51	37.26	7.94	-31.1	-36.1	15.4	6.03e-01	0	41	0	22544384	23	6364
2026-01-04 00:18:09.51	37.39	8.00	-30.9	-35.2	16.1	6.03e-01	0	41	0	24117248	23	5899
2026-01-04 00:18:10.51	37.52	8.06	-30.7	-34.4	16.7	5.99e-01	0	41	0	26214400	23	5546
2026-01-04 00:18:11.52	37.66	8.12	-30.5	-33.9	17.1	6.02e-01	0	41	0	28311552	23	5310
2026-01-04 00:18:12.52	37.79	8.18	-30.6	-34.5	17.1	5.99e-01	0	41	0	29884416	22	5640
2026-01-04 00:18:13.53	37.93	8.25	-30.6	-34.8	16.9	6.00e-01	0	41	0	31981568	22	5783
2026-01-04 00:18:14.54	38.06	8.31	-30.7	-34.8	16.9	6.04e-01	0	41	0	33554432	22	5788
2026-01-04 00:18:15.54	38.20	8.37	-30.7	-34.8	16.8	6.03e-01	0	41	0	35651584	22	5795
2026-01-04 00:18:16.55	38.34	8.43	-30.7	-34.8	16.9	6.02e-01	0	41	0	37748736	22	5804
2026-01-04 00:18:17.55	38.47	8.49	-30.7	-34.8	16.9	6.03e-01	0	41	0	39321600	22	5780
2026-01-04 00:18:18.56	38.61	8.56	-30.6	-34.5	17.1	6.04e-01	0	41	0	41418752	22	5654
2026-01-04 00:18:19.56	38.75	8.62	-30.5	-34.2	17.3	6.03e-01	0	41	0	42991616	22	5534
2026-01-04 00:18:20.57	38.89	8.68	-30.5	-34.4	17.2	6.03e-01	0	41	0	45088768	22	5591
2026-01-04 00:18:21.58	39.03	8.74	-30.5	-34.3	17.2	6.02e-01	0	41	0	47185920	22	5572
2026-01-04 00:18:22.58	39.17	8.80	-30.6	-34.6	17.1	6.01e-01	0	41	0	48758784	22	5674
2026-01-04 00:18:23.58	39.31	8.86	-30.6	-34.6	17.1	6.00e-01	0	42	0	50855936	22	5689
2026-01-04 00:18:24.58	39.45	8.93	-30.5	-34.2	17.4	6.01e-01	0	41	0	52428800	22	5507
2026-01-04 00:18:25.59	39.59	8.99	-30.4	-34.0	17.6	6.01e-01	0	42	0	54525952	22	5410
2026-01-04 00:18:26.60	39.74	9.05	-30.4	-33.8	17.7	6.02e-01	0	41	0	56623104	22	5344
2026-01-04 00:18:27.60	39.88	9.11	-30.4	-33.7	17.7	6.00e-01	0	42	0	58195968	22	5314
2026-01-04 00:18:28.61	40.02	9.17	-30.3	-33.6	17.8	6.03e-01	0	42	0	60293120	22	5266
2026-01-04 00:18:29.61	40.17	9.24	-30.3	-34.1	17.8	6.02e-01	0	42	0	61865984	21	5587
2026-01-04 00:18:30.62	40.31	9.30	-30.4	-34.3	17.7	6.03e-01	0	41	0	63963136	21	5635
2026-01-04 00:18:31.62	40.46	9.36	-30.4	-34.4	17.6	6.01e-01	0	42	0	66060288	21	5695
2026-01-04 00:18:32.62	40.61	9.42	-30.4	-34.4	17.6	6.05e-01	0	42	0	67633152	21	5685
2026-01-04 00:18:33.63	40.75	9.49	-30.4	-34.2	17.7	6.02e-01	0	42	0	69730304	21	5606
2026-01-04 00:18:34.64	40.90	9.55	-30.3	-34.1	17.8	6.01e-01	0	42	0	71303168	21	5560
2026-01-04 00:18:35.64	41.05	9.61	-30.4	-34.3	17.7	6.03e-01	0	42	0	73400320	21	5651
2026-01-04 00:18:36.65	41.20	9.67	-30.4	-34.2	17.8	6.01e-01	0	42	0	74973184	21	5599
2026-01-04 00:18:37.66	41.35	9.73	-30.3	-34.0	17.9	6.02e-01	0	42	0	77070336	21	5525
2026-01-04 00:18:38.67	41.50	9.80	-30.3	-34.1	17.9	6.01e-01	0	42	0	79167488	21	5561
2026-01-04 00:18:39.67	41.65	9.86	-30.3	-34.0	17.9	6.00e-01	0	42	0	80740352	21	5508
2026-01-04 00:18:40.68	41.81	9.92	-30.3	-33.9	18.0	6.03e-01	0	42	0	82837504	21	5491
2026-01-04 00:18:41.68	41.96	9.98	-30.4	-34.2	17.8	6.04e-01	0	42	0	84934656	21	5588
2026-01-04 00:18:42.69	42.11	10.05	-30.3	-34.1	17.9	5.99e-01	0	42	0	86507520	21	5550
2026-01-04 00:18:43.70	42.27	10.11	-30.2	-33.9	18.0	5.98e-01	0	42	0	88604672	21	5455
2026-01-04 00:18:44.71	42.42	10.17	-30.2	-33.8	18.0	6.04e-01	0	42	0	90177536	21	5443
2026-01-04 00:18:45.72	42.58	10.23	-30.3	-33.9	18.0	6.02e-01	0	41	0	92274688	21	5476
2026-01-04 00:18:46.73	42.74	10.30	-30.3	-34.1	17.9	6.01e-01	0	42	0	94371840	21	5535
2026-01-04 00:18:47.73	42.89	10.36	-30.3	-34.1	17.9	6.04e-01	0	42	0	95944704	21	5536
2026-01-04 00:18:48.74	43.05	10.42	-30.3	-33.9	18.0	6.00e-01	0	42	0	98041856	21	5473
2026-01-04 00:18:49.74	43.21	10.48	-30.3	-34.0	18.0	6.03e-01	0	42	0	99614720	21	5509
2026-01-04 00:18:50.75	43.37	10.55	-30.4	-34.4	17.8	6.02e-01	0	42	0	101711872	21	5655
2026-01-04 00:18:51.75	43.53	10.61	-30.4	-34.3	17.8	6.00e-01	0	42	0	103284736	21	5629
2026-01-04 00:18:52.75	43.69	10.67	-30.4	-34.1	17.9	6.02e-01	0	42	0	105381888	21	5537
2026-01-04 00:18:53.75	43.85	10.73	-30.3	-34.0	18.0	6.04e-01	0	42	0	107479040	21	5510
2026-01-04 00:18:54.75	44.01	10.79	-30.3	-33.8	18.1	6.00e-01	0	42	0	109051904	21	5410
2026-01-04 00:18:55.76	44.17	10.86	-30.3	-33.9	18.0	6.03e-01	0	42	0	111149056	21	5469
2026-01-04 00:18:56.76	44.34	10.92	-30.2	-33.7	18.2	6.02e-01	0	42	0	112721920	21	5367
2026-01-04 00:18:57.76	44.50	10.98	-30.2	-33.6	18.3	6.03e-01	0	42	0	114819072	21	5325
2026-01-04 00:18:58.76	44.66	11.04	-30.2	-33.5	18.4	6.01e-01	0	42	0	116391936	21	5301
2026-01-04 00:18:59.76	44.83	11.10	-30.2	-33.7	18.3	6.01e-01	0	42	0	118489088	21	5374
2026-01-04 00:19:00.76	44.99	11.17	-30.2	-33.7	18.2	6.03e-01	0	42	0	120586240	21	5391
2026-01-04 00:19:01.77	45.16	11.23	-30.2	-33.8	18.2	6.02e-01	0	42	0	122159104	21	5397
2026-01-04 00:19:02.77	45.33	11.29	-30.3	-33.9	18.1	6.00e-01	0	42	0	124256256	21	5452
2026-01-04 00:19:03.78	45.50	11.35	-30.2	-33.6	18.3	6.01e-01	0	42	0	126353408	21	5325
2026-01-04 00:19:04.78	45.67	11.41	-30.1	-33.4	18.4	6.01e-01	0	42	0	127926272	21	5248
2026-01-04 00:19:05.78	45.83	11.48	-30.1	-33.4	18.4	6.02e-01	0	42	0	130023424	21	5261
2026-01-04 00:19:06.79	46.01	11.54	-30.1	-33.4	18.4	6.01e-01	0	42	0	131596288	21	5262
2026-01-04 00:19:07.79	46.18	11.60	-30.1	-33.4	18.5	6.01e-01	0	42	0	133693440	21	5243
2026-01-04 00:19:08.80	46.35	11.66	-30.1	-33.3	18.5	6.06e-01	0	42	0	135266304	21	5218
2026-01-04 00:19:09.80	46.52	11.72	-30.1	-33.5	18.4	6.01e-01	0	42	0	137363456	21	5280
2026-01-04 00:19:10.80	46.70	11.78	-30.1	-33.3	18.5	6.01e-01	0	42	0	139460608	21	5223
2026-01-04 00:19:11.81	46.87	11.85	-30.1	-33.2	18.5	6.04e-01	0	42	0	141033472	21	5180
2026-01-04 00:19:12.81	47.05	11.91	-30.1	-33.3	18.6	6.03e-01	0	42	0	143130624	21	5193
2026-01-04 00:19:13.81	47.22	11.97	-30.2	-33.5	18.4	6.01e-01	0	42	0	144703488	21	5294
2026-01-04 00:19:14.82	47.40	12.03	-30.2	-33.6	18.4	6.03e-01	0	42	0	146800640	21	5310
2026-01-04 00:19:15.82	47.58	12.09	-30.2	-33.6	18.4	6.01e-01	0	42	0	148897792	21	5331
2026-01-04 00:19:16.82	47.75	12.15	-30.2	-33.7	18.3	6.03e-01	0	42	0	150470656	21	5341
2026-01-04 00:19:17.83	47.93	12.22	-30.2	-33.5	18.5	6.04e-01	0	42	0	152567808	21	5278
2026-01-04 00:19:18.84	48.11	12.28	-30.1	-33.4	18.5	6.01e-01	0	42	0	154140672	21	5238
2026-01-04 00:19:19.84	48.29	12.34	-30.1	-33.3	18.6	6.02e-01	0	42	0	156237824	21	5203
2026-01-04 00:19:20.84	48.47	12.40	-30.2	-33.6	18.4	6.01e-01	0	42	0	158334976	21	5313
2026-01-04 00:19:21.84	48.66	12.46	-30.1	-33.3	18.6	6.03e-01	0	42	0	159907840	21	5215
2026-01-04 00:19:22.85	48.84	12.52	-30.0	-33.6	18.7	6.03e-01	0	42	0	162004992	20	5448
2026-01-04 00:19:23.86	49.03	12.58	-30.2	-33.5	18.6	6.02e-01	0	42	0	163577856	21	5259
2026-01-04 00:19:24.86	49.21	12.64	-30.3	-33.7	18.4	6.00e-01	0	42	0	165675008	21	5365
2026-01-04 00:19:25.86	49.39	12.70	-30.1	-33.3	18.7	6.00e-01	0	42	0	167247872	21	5210
2026-01-04 00:19:26.87	49.58	12.76	-30.2	-33.5	18.6	6.00e-01	0	42	0	169345024	21	5264
2026-01-04 00:19:27.87	49.77	12.82	-30.2	-33.5	18.5	6.01e-01	0	42	0	171442176	21	5259
2026-01-04 00:19:28.88	49.96	12.89	-30.2	-33.6	18.4	6.02e-01	0	42	0	173015040	21	5315
2026-01-04 00:19:29.88	50.14	12.95	-30.4	-34.0	18.2	6.03e-01	0	42	0	175112192	21	5468
2026-01-04 00:19:30.89	50.33	13.01	-30.2	-33.5	18.5	6.04e-01	0	43	0	176685056	21	5272
2026-01-04 00:19:31.89	50.52	13.07	-30.1	-33.2	18.8	5.99e-01	0	42	0	178782208	21	5140
2026-01-04 00:19:32.90	50.72	13.13	-30.1	-33.1	18.8	6.00e-01	0	42	0	180879360	21	5132
2026-01-04 00:19:33.90	50.91	13.19	-30.1	-33.3	18.7	6.02e-01	0	42	0	182452224	21	5194
2026-01-04 00:19:34.90	51.10	13.25	-30.1	-33.2	18.8	5.99e-01	0	42	0	184549376	21	5140
2026-01-04 00:19:35.91	51.29	13.31	-30.0	-33.1	18.9	6.01e-01	0	42	0	186122240	21	5101
2026-01-04 00:19:36.91	51.49	13.36	-30.1	-33.7	18.8	6.00e-01	0	42	0	188219392	20	5477
2026-01-04 00:19:37.91	51.68	13.42	-30.0	-33.0	18.9	6.02e-01	0	42	0	189792256	21	5066
2026-01-04 00:19:38.92	51.88	13.48	-30.0	-32.9	19.0	6.03e-01	0	42	0	191889408	21	5034
2026-01-04 00:19:39.92	52.08	13.54	-30.0	-33.0	19.0	6.02e-01	0	42	0	193986560	21	5059
2026-01-04 00:19:40.92	52.27	13.60	-30.1	-33.2	18.8	6.02e-01	0	42	0	195559424	21	5136
2026-01-04 00:19:41.92	52.47	13.66	-30.2	-33.4	18.7	6.05e-01	0	42	0	197656576	21	5236
2026-01-04 00:19:42.93	52.67	13.72	-30.3	-33.7	18.5	6.00e-01	0	42	0	199753728	21	5339
2026-01-04 00:19:43.93	52.87	13.78	-30.2	-33.5	18.6	6.02e-01	0	42	0	201326592	21	5260
2026-01-04 00:19:44.93	53.07	13.84	-30.2	-33.5	18.6	6.03e-01	0	42	0	203423744	21	5255
2026-01-04 00:19:45.94	53.27	13.89	-30.2	-33.6	18.6	6.01e-01	0	42	0	204996608	21	5290
2026-01-04 00:19:46.95	53.48	13.95	-30.4	-33.9	18.4	6.00e-01	0	42	0	207093760	21	5432
2026-01-04 00:19:47.95	53.68	14.01	-30.2	-33.5	18.6	5.99e-01	0	42	0	208666624	21	5269
2026-01-04 00:19:48.95	53.88	14.07	-30.4	-34.1	18.2	6.04e-01	0	42	0	210763776	21	5500
2026-01-04 00:19:49.96	54.09	14.13	-30.2	-33.6	18.5	6.02e-01	0	43	0	212860928	21	5305
2026-01-04 00:19:50.97	54.30	14.18	-30.1	-33.3	18.8	6.03e-01	0	42	0	214433792	21	5185
2026-01-04 00:19:51.97	54.50	14.24	-30.0	-33.4	18.6	6.03e-01	0	43	0	216530944	20	5353
2026-01-04 00:19:52.98	54.71	14.30	-29.9	-33.3	19.1	6.04e-01	0	42	0	218103808	20	5288
2026-01-04 00:19:53.99	54.92	14.36	-29.9	-33.2	18.6	6.01e-01	0	42	0	220200960	20	5254
2026-01-04 00:19:54.99	55.13	14.41	-30.1	-33.6	18.5	6.02e-01	0	42	0	222298112	20	5428
2026-01-04 00:19:56.00	55.34	14.47	-29.9	-33.3	19.0	6.02e-01	0	42	0	223870976	20	5293
2026-01-04 00:19:57.00	55.55	14.53	-29.9	-33.2	19.0	6.02e-01	0	43	0	225968128	20	5276
2026-01-04 00:19:58.01	55.76	14.58	-30.0	-33.4	19.0	6.00e-01	0	42	0	227540992	20	5354
2026-01-04 00:19:59.01	55.98	14.64	-30.2	-33.4	18.7	6.03e-01	0	43	0	229638144	21	5222
2026-01-04 00:20:00.01	56.19	14.69	-30.4	-34.0	18.3	6.03e-01	0	43	0	231735296	21	5454
2026-01-04 00:20:01.02	56.40	14.75	-30.4	-34.0	18.4	6.02e-01	0	42	0	233308160	21	5437
2026-01-04 00:20:02.03	56.62	14.80	-30.4	-33.9	18.4	6.04e-01	0	43	0	235405312	21	5418
2026-01-04 00:20:03.03	56.84	14.86	-30.5	-34.3	18.2	6.02e-01	0	43	0	236978176	21	5554
2026-01-04 00:20:04.03	57.05	14.91	-30.4	-33.9	18.4	6.01e-01	0	42	0	239075328	21	5428
2026-01-04 00:20:05.04	57.27	14.97	-30.4	-33.9	18.4	6.02e-01	0	43	0	241172480	21	5427
2026-01-04 00:20:06.05	57.49	15.02	-30.4	-34.0	18.3	6.04e-01	0	43	0	242745344	21	5437
2026-01-04 00:20:07.05	57.71	15.08	-30.5	-34.2	18.2	6.00e-01	0	42	0	244842496	21	5536
2026-01-04 00:20:08.06	57.93	15.13	-30.3	-33.6	18.6	6.02e-01	0	42	0	246415360	21	5294
2026-01-04 00:20:09.07	58.15	15.19	-30.1	-33.2	18.8	6.05e-01	0	43	0	248512512	21	5122
2026-01-04 00:20:10.07	58.37	15.24	-29.9	-33.2	19.1	6.02e-01	0	43	0	250609664	20	5267
2026-01-04 00:20:11.07	58.60	15.29	-29.9	-33.1	19.2	5.99e-01	0	43	0	252182528	20	5219
2026-01-04 00:20:12.08	58.82	15.35	-30.0	-33.4	19.1	6.02e-01	0	43	0	254279680	20	5314
2026-01-04 00:20:13.09	59.05	15.40	-29.9	-33.2	19.2	6.03e-01	0	43	0	255852544	20	5261
2026-01-04 00:20:14.10	59.27	15.45	-30.0	-33.5	19.0	6.01e-01	0	43	0	257949696	20	5362
2026-01-04 00:20:15.10	59.50	15.50	-29.9	-33.2	19.2	5.98e-01	0	43	0	260046848	20	5257
2026-01-04 00:20:16.11	59.73	15.56	-29.9	-33.0	19.3	6.02e-01	0	43	0	261619712	20	5174
2026-01-04 00:20:17.11	59.95	15.61	-29.9	-33.3	19.2	6.02e-01	0	43	0	263716864	20	5266
2026-01-04 00:20:18.12	60.18	15.66	-29.9	-33.1	19.3	6.04e-01	0	43	0	265289728	20	5218
2026-01-04 00:20:19.12	60.41	15.71	-29.8	-33.0	19.3	6.05e-01	0	43	0	267386880	20	5159
2026-01-04 00:20:20.12	60.64	15.76	-29.8	-32.9	19.4	5.99e-01	0	43	0	269484032	20	5126
2026-01-04 00:20:21.13	60.87	15.81	-29.8	-32.8	19.4	6.00e-01	0	42	0	271056896	20	5102
2026-01-04 00:20:22.14	61.11	15.86	-29.9	-33.1	19.3	6.01e-01	0	43	0	273154048	20	5213
2026-01-04 00:20:23.13	61.34	15.91	-29.8	-33.0	19.3	6.05e-01	0	42	0	274726912	20	5160
2026-01-04 00:20:24.14	61.57	15.96	-29.9	-33.1	19.3	6.01e-01	0	43	0	276824064	20	5221
2026-01-04 00:20:25.15	61.81	16.01	-30.1	-33.5	19.0	6.02e-01	0	43	0	278396928	20	5362
2026-01-04 00:20:26.15	62.04	16.06	-29.9	-33.1	19.2	6.04e-01	0	43	0	280494080	20	5219
2026-01-04 00:20:27.16	62.28	16.11	-30.0	-33.4	19.1	6.01e-01	0	42	0	282591232	20	5325
2026-01-04 00:20:28.17	62.52	16.16	-30.2	-33.3	18.9	6.03e-01	0	42	0	284164096	21	5179
2026-01-04 00:20:29.18	62.76	16.20	-30.3	-33.6	18.7	6.01e-01	0	43	0	286261248	21	5290
2026-01-04 00:20:30.19	63.00	16.25	-30.1	-33.2	18.9	6.01e-01	0	43	0	288358400	21	5139
2026-01-04 00:20:31.19	63.23	16.30	-30.0	-33.4	19.1	6.01e-01	0	43	0	289931264	20	5320
2026-01-04 00:20:32.20	63.47	16.35	-30.2	-33.3	18.9	6.03e-01	0	43	0	292028416	21	5158
2026-01-04 00:20:33.21	63.72	16.39	-30.4	-33.9	18.5	6.02e-01	0	43	0	293601280	21	5381
2026-01-04 00:20:34.22	63.96	16.44	-30.6	-33.9	18.1	6.01e-01	0	43	0	295698432	22	5287
2026-01-04 00:20:35.22	64.20	16.48	-30.4	-33.3	18.6	6.03e-01	0	43	0	297271296	22	5050
2026-01-04 00:20:36.22	64.44	16.53	-30.1	-33.2	19.0	6.02e-01	0	43	0	299368448	21	5125
2026-01-04 00:20:37.22	64.69	16.57	-30.3	-33.6	18.7	6.02e-01	0	43	0	301465600	21	5284
2026-01-04 00:20:38.24	64.93	16.62	-30.6	-34.4	18.2	6.02e-01	0	43	0	303038464	21	5578
2026-01-04 00:20:39.24	65.18	16.66	-30.4	-34.0	18.4	6.03e-01	0	43	0	305135616	21	5414
2026-01-04 00:20:40.24	65.42	16.71	-30.1	-33.2	18.9	6.02e-01	0	43	0	306708480	21	5134
2026-01-04 00:20:41.24	65.67	16.75	-30.0	-32.7	19.2	6.02e-01	0	43	0	308805632	21	4958
2026-01-04 00:20:42.25	65.92	16.79	-29.9	-33.2	19.3	6.03e-01	0	43	0	310902784	20	5221
2026-01-04 00:20:43.24	66.16	16.84	-30.1	-33.1	18.9	6.00e-01	0	43	0	312475648	21	5095
2026-01-04 00:20:44.25	66.41	16.88	-30.0	-32.7	19.2	6.02e-01	0	43	0	314572800	21	4956
2026-01-04 00:20:45.26	66.66	16.92	-29.9	-32.7	19.2	6.04e-01	0	43	0	316145664	21	4938
2026-01-04 00:20:46.27	66.92	16.96	-30.1	-33.5	19.1	6.01e-01	0	43	0	318242816	20	5361
2026-01-04 00:20:47.27	67.17	17.00	-30.1	-33.2	19.0	6.01e-01	0	43	0	320339968	21	5118
2026-01-04 00:20:48.27	67.42	17.04	-30.2	-33.5	18.8	6.04e-01	0	43	0	321912832	21	5249
2026-01-04 00:20:49.27	67.67	17.08	-30.4	-33.8	18.6	6.05e-01	0	43	0	324009984	21	5360
2026-01-04 00:20:50.28	67.92	17.12	-30.1	-33.1	19.0	6.03e-01	0	43	0	325582848	21	5100
2026-01-04 00:20:51.29	68.18	17.16	-30.0	-32.8	19.3	6.03e-01	0	43	0	327680000	21	4960
2026-01-04 00:20:52.29	68.43	17.20	-30.0	-32.9	19.2	6.01e-01	0	43	0	329777152	21	5010
2026-01-04 00:20:53.30	68.69	17.24	-30.0	-32.8	19.2	6.03e-01	0	43	0	331350016	21	4991
2026-01-04 00:20:54.31	68.95	17.28	-30.0	-32.8	19.2	6.01e-01	0	43	0	333447168	21	4984
2026-01-04 00:20:55.31	69.20	17.31	-30.0	-32.8	19.2	6.00e-01	0	43	0	335020032	21	4973
2026-01-04 00:20:56.32	69.46	17.35	-30.0	-32.9	19.2	6.00e-01	0	43	0	337117184	21	5012
2026-01-04 00:20:57.32	69.72	17.39	-30.0	-33.4	19.1	6.01e-01	0	43	0	339214336	20	5323
2026-01-04 00:20:58.33	69.98	17.42	-30.0	-33.3	19.2	6.01e-01	0	43	0	340787200	20	5277
2026-01-04 00:20:59.33	70.24	17.46	-30.0	-33.5	19.1	6.03e-01	0	43	0	342884352	20	5337
2026-01-04 00:21:00.33	70.50	17.49	-30.1	-33.2	18.9	6.02e-01	0	43	0	344457216	21	5139
2026-01-04 00:21:01.34	70.76	17.53	-30.2	-33.3	18.9	6.04e-01	0	43	0	346554368	21	5157
2026-01-04 00:21:02.35	71.02	17.56	-30.2	-33.4	18.8	6.02e-01	0	43	0	348651520	21	5197
2026-01-04 00:21:03.35	71.28	17.60	-30.0	-32.9	19.1	6.00e-01	0	43	0	350224384	21	5023
2026-01-04 00:21:04.36	71.55	17.63	-29.9	-33.1	19.3	6.03e-01	0	43	0	352321536	20	5193
2026-01-04 00:21:05.36	71.81	17.66	-30.0	-33.5	19.1	6.02e-01	0	43	0	353894400	20	5339
2026-01-04 00:21:06.37	72.07	17.69	-30.3	-33.7	18.7	6.00e-01	0	43	0	355991552	21	5316
2026-01-04 00:21:07.38	72.34	17.73	-30.6	-34.4	18.2	6.02e-01	0	43	0	358088704	21	5602
2026-01-04 00:21:08.38	72.60	17.76	-30.7	-34.3	18.0	6.03e-01	0	43	0	359661568	22	5436
2026-01-04 00:21:09.38	72.87	17.79	-30.8	-34.4	17.9	6.01e-01	0	43	0	361758720	22	5486
2026-01-04 00:21:10.39	73.13	17.82	-30.6	-34.1	18.1	6.01e-01	0	43	0	363331584	22	5350
2026-01-04 00:21:11.40	73.40	17.85	-30.5	-33.8	18.3	6.01e-01	0	43	0	365428736	22	5238
2026-01-04 00:21:12.41	73.67	17.88	-30.5	-33.7	18.3	6.03e-01	0	43	0	367001600	22	5189
2026-01-04 00:21:13.41	73.94	17.90	-30.5	-33.8	18.3	6.00e-01	0	43	0	369098752	22	5228
2026-01-04 00:21:14.42	74.21	17.93	-30.4	-33.4	18.5	6.03e-01	0	43	0	371195904	22	5078
2026-01-04 00:21:15.43	74.48	17.96	-30.2	-32.9	18.8	6.01e-01	0	43	0	372768768	22	4895
2026-01-04 00:21:16.43	74.75	17.99	-30.1	-32.5	19.1	6.00e-01	0	43	0	374865920	22	4744
2026-01-04 00:21:17.44	75.02	18.01	-30.0	-32.2	19.3	6.04e-01	0	43	0	376963072	22	4669
2026-01-04 00:21:18.45	75.29	18.04	-30.0	-32.3	19.3	6.02e-01	0	43	0	378535936	22	4689
2026-01-04 00:21:19.46	75.56	18.06	-30.0	-32.4	19.2	6.02e-01	0	43	0	380633088	22	4733
2026-01-04 00:21:20.46	75.83	18.09	-29.9	-32.7	19.3	6.02e-01	0	43	0	382205952	21	4936
2026-01-04 00:21:21.47	76.10	18.11	-29.9	-32.6	19.3	6.01e-01	0	43	0	384303104	21	4913
2026-01-04 00:21:22.48	76.38	18.13	-29.9	-32.6	19.3	6.03e-01	0	43	0	386400256	21	4902
2026-01-04 00:21:23.49	76.65	18.16	-30.0	-33.0	19.1	6.03e-01	0	43	0	387973120	21	5041
2026-01-04 00:21:24.50	76.93	18.18	-30.0	-32.8	19.2	6.02e-01	0	43	0	390070272	21	4984
2026-01-04 00:21:25.51	77.20	18.20	-30.0	-32.7	19.3	6.04e-01	0	43	0	391643136	21	4955
2026-01-04 00:21:26.51	77.47	18.22	-30.1	-33.1	19.1	6.01e-01	0	43	0	393740288	21	5073
2026-01-04 00:21:27.51	77.75	18.24	-30.3	-33.6	18.8	6.01e-01	0	43	0	395313152	21	5269
2026-01-04 00:21:28.52	78.02	18.26	-30.3	-33.6	18.7	6.03e-01	0	43	0	397410304	21	5281
2026-01-04 00:21:29.53	78.30	18.28	-30.2	-33.3	18.9	5.99e-01	0	43	0	399507456	21	5174
2026-01-04 00:21:30.53	78.57	18.30	-30.3	-33.6	18.7	6.04e-01	0	43	0	401080320	21	5267
2026-01-04 00:21:31.54	78.85	18.32	-30.3	-33.6	18.7	6.02e-01	0	43	0	403177472	21	5292
2026-01-04 00:21:32.54	79.12	18.33	-30.3	-33.7	18.6	6.00e-01	0	43	0	405274624	21	5324
2026-01-04 00:21:33.55	79.40	18.35	-30.5	-34.3	18.3	6.03e-01	0	43	0	406847488	21	5561
2026-01-04 00:21:34.55	79.68	18.37	-30.5	-33.6	18.4	5.99e-01	0	43	0	408944640	22	5171
2026-01-04 00:21:35.56	79.95	18.38	-30.3	-33.0	18.8	6.01e-01	0	43	0	410517504	22	4941
2026-01-04 00:21:36.55	80.23	18.40	-30.1	-33.2	19.0	6.04e-01	0	43	0	412614656	21	5105
2026-01-04 00:21:37.56	80.51	18.41	-30.1	-33.2	19.0	6.04e-01	0	43	0	414187520	21	5130
2026-01-04 00:21:38.56	80.78	18.43	-30.3	-33.5	18.8	6.03e-01	0	43	0	416284672	21	5241
2026-01-04 00:21:39.56	81.06	18.44	-30.3	-33.5	18.7	6.00e-01	0	43	0	418381824	21	5247
2026-01-04 00:21:40.57	81.34	18.45	-30.2	-33.3	18.9	6.00e-01	0	43	0	419954688	21	5166
2026-01-04 00:21:41.57	81.62	18.46	-30.2	-33.5	18.8	6.04e-01	0	43	0	422051840	21	5222
2026-01-04 00:21:42.58	81.90	18.47	-30.2	-33.5	18.7	6.02e-01	0	43	0	423624704	21	5227
2026-01-04 00:21:43.58	82.17	18.48	-30.3	-33.6	18.7	6.03e-01	0	43	0	425721856	21	5265
2026-01-04 00:21:44.60	82.46	18.49	-30.3	-33.7	18.6	6.01e-01	0	43	0	427819008	21	5302
2026-01-04 00:21:45.60	82.74	18.50	-30.3	-33.5	18.7	6.02e-01	0	43	0	429391872	21	5249
2026-01-04 00:21:46.61	83.02	18.51	-30.2	-33.3	18.9	6.00e-01	0	43	0	431489024	21	5161
2026-01-04 00:21:47.62	83.30	18.52	-30.1	-33.2	19.0	6.00e-01	0	43	0	433061888	21	5111
2026-01-04 00:21:48.62	83.58	18.53	-30.1	-33.2	19.0	6.01e-01	0	43	0	435159040	21	5121
2026-01-04 00:21:49.63	83.86	18.53	-30.1	-33.2	18.9	6.03e-01	0	43	0	437256192	21	5124
2026-01-04 00:21:50.64	84.14	18.54	-30.1	-33.2	18.9	6.03e-01	0	43	0	438829056	21	5120
2026-01-04 00:21:51.64	84.42	18.55	-30.2	-33.3	18.9	6.02e-01	0	43	0	440926208	21	5146
2026-01-04 00:21:52.64	84.70	18.55	-30.2	-33.4	18.8	6.02e-01	0	43	0	442499072	21	5203
2026-01-04 00:21:53.65	84.98	18.55	-30.2	-33.4	18.8	6.02e-01	0	43	0	444596224	21	5192
2026-01-04 00:21:54.65	85.26	18.56	-30.3	-33.6	18.7	6.01e-01	0	43	0	446693376	21	5264
2026-01-04 00:21:55.65	85.54	18.56	-30.3	-33.5	18.7	6.00e-01	0	43	0	448266240	21	5250
2026-01-04 00:21:56.65	85.82	18.56	-30.1	-33.2	19.0	6.03e-01	0	43	0	450363392	21	5122
2026-01-04 00:21:57.65	86.10	18.56	-30.1	-33.2	18.9	6.02e-01	0	43	0	451936256	21	5118
2026-01-04 00:21:58.66	86.38	18.57	-30.2	-33.2	18.9	6.02e-01	0	43	0	454033408	21	5136
2026-01-04 00:21:59.66	86.66	18.57	-30.1	-33.2	18.9	6.00e-01	0	43	0	455606272	21	5109
2026-01-04 00:22:00.66	86.94	18.57	-30.1	-33.2	18.9	6.02e-01	0	43	0	457703424	21	5122
2026-01-04 00:22:01.66	87.22	18.56	-30.0	-32.9	19.1	6.04e-01	0	43	0	459800576	21	5000
2026-01-04 00:22:02.67	87.50	18.56	-30.0	-32.8	19.2	6.01e-01	0	43	0	461373440	21	4967
2026-01-04 00:22:03.67	87.78	18.56	-30.1	-33.1	19.0	6.01e-01	0	43	0	463470592	21	5086
2026-01-04 00:22:04.68	88.06	18.56	-30.1	-33.1	19.0	6.03e-01	0	43	0	465043456	21	5098
2026-01-04 00:22:05.69	88.34	18.55	-30.0	-32.9	19.1	6.03e-01	0	43	0	467140608	21	5018
2026-01-04 00:22:06.69	88.62	18.55	-30.1	-33.0	19.1	6.04e-01	0	43	0	469237760	21	5041
2026-01-04 00:22:07.69	88.90	18.54	-30.0	-32.9	19.1	6.01e-01	0	43	0	470810624	21	5004
2026-01-04 00:22:08.69	89.18	18.54	-30.0	-32.8	19.2	6.05e-01	0	43	0	472907776	21	4990
2026-01-04 00:22:09.70	89.46	18.53	-30.0	-32.8	19.2	6.01e-01	0	43	0	474480640	21	4985
2026-01-04 00:22:10.71	89.74	18.53	-30.0	-32.8	19.2	6.03e-01	0	43	0	476577792	21	4982
2026-01-04 00:22:11.71	90.02	18.52	-30.1	-33.0	19.1	6.02e-01	0	43	0	478674944	21	5035
2026-01-04 00:22:12.72	90.30	18.51	-30.1	-33.2	19.0	6.01e-01	0	43	0	480247808	21	5120
2026-01-04 00:22:13.72	90.58	18.50	-30.0	-32.8	19.2	6.00e-01	0	43	0	482344960	21	4990
2026-01-04 00:22:14.74	90.87	18.49	-29.9	-32.6	19.3	6.01e-01	0	43	0	483917824	21	4919
2026-01-04 00:22:15.74	91.14	18.48	-30.0	-32.8	19.2	6.00e-01	0	43	0	486014976	21	4968
2026-01-04 00:22:16.75	91.43	18.47	-30.0	-32.8	19.2	6.02e-01	0	43	0	488112128	21	4964
2026-01-04 00:22:17.75	91.70	18.46	-30.0	-32.9	19.1	6.01e-01	0	43	0	489684992	21	5014
2026-01-04 00:22:18.76	91.98	18.45	-30.1	-33.0	19.1	6.03e-01	0	43	0	491782144	21	5060
2026-01-04 00:22:19.77	92.26	18.44	-30.1	-33.1	19.0	6.03e-01	0	43	0	493879296	21	5086
2026-01-04 00:22:20.78	92.54	18.42	-30.1	-33.1	19.0	6.02e-01	0	43	0	495452160	21	5106
2026-01-04 00:22:21.78	92.82	18.41	-30.1	-33.2	18.9	6.01e-01	0	43	0	497549312	21	5142
2026-01-04 00:22:22.79	93.10	18.40	-30.2	-33.4	18.8	6.02e-01	0	43	0	499122176	21	5222
2026-01-04 00:22:23.79	93.38	18.38	-30.2	-33.5	18.7	6.03e-01	0	43	0	501219328	21	5242
2026-01-04 00:22:24.80	93.65	18.37	-30.1	-33.2	18.9	6.05e-01	0	43	0	502792192	21	5135
2026-01-04 00:22:25.81	93.93	18.35	-30.1	-33.2	19.0	6.03e-01	0	43	0	504889344	21	5106
2026-01-04 00:22:26.81	94.21	18.33	-30.3	-33.8	18.6	6.04e-01	0	43	0	506986496	21	5338
2026-01-04 00:22:27.81	94.48	18.31	-30.3	-33.8	18.6	6.01e-01	0	43	0	508559360	21	5348
2026-01-04 00:22:28.81	94.76	18.30	-30.3	-33.8	18.6	6.02e-01	0	43	0	510656512	21	5344
2026-01-04 00:22:29.81	95.03	18.28	-30.4	-34.0	18.5	6.03e-01	0	43	0	512229376	21	5424
2026-01-04 00:22:30.81	95.31	18.26	-30.4	-33.8	18.6	6.03e-01	0	43	0	514326528	21	5345
2026-01-04 00:22:31.82	95.58	18.24	-30.3	-33.6	18.7	6.01e-01	0	43	0	516423680	21	5261
2026-01-04 00:22:32.82	95.86	18.22	-30.2	-33.5	18.8	6.03e-01	0	43	0	517996544	21	5222
2026-01-04 00:22:33.83	96.13	18.20	-30.2	-33.4	18.8	6.02e-01	0	43	0	520093696	21	5196
2026-01-04 00:22:34.83	96.40	18.18	-30.3	-33.8	18.6	6.01e-01	0	43	0	521666560	21	5357
2026-01-04 00:22:35.84	96.68	18.15	-30.3	-33.6	18.7	6.02e-01	0	43	0	523763712	21	5264
2026-01-04 00:22:36.84	96.95	18.13	-30.2	-33.3	18.9	6.02e-01	0	43	0	525336576	21	5155
2026-01-04 00:22:37.85	97.22	18.11	-30.1	-33.1	19.0	6.02e-01	0	43	0	527433728	21	5071
2026-01-04 00:22:38.86	97.50	18.08	-30.0	-32.9	19.1	6.03e-01	0	43	0	529530880	21	5006
2026-01-04 00:22:39.86	97.77	18.06	-30.1	-33.0	19.0	6.00e-01	0	43	0	531103744	21	5066
2026-01-04 00:22:40.87	98.04	18.03	-30.0	-32.8	19.2	6.01e-01	0	43	0	533200896	21	4994
2026-01-04 00:22:41.87	98.31	18.01	-30.1	-33.2	18.9	6.02e-01	0	43	0	535298048	21	5124
2026-01-04 00:22:42.88	98.58	17.98	-30.1	-33.2	18.9	6.01e-01	0	43	0	536870912	21	5126
2026-01-04 00:22:43.88	98.85	17.96	-30.2	-33.3	18.8	6.01e-01	0	43	0	538968064	21	5167
2026-01-04 00:22:44.89	99.12	17.93	-30.3	-33.6	18.6	6.02e-01	0	43	0	540540928	21	5284
2026-01-04 00:22:45.89	99.39	17.90	-30.1	-33.2	18.9	6.04e-01	0	43	0	542638080	21	5110
2026-01-04 00:22:46.89	99.66	17.87	-30.0	-33.0	19.0	6.03e-01	0	43	0	544210944	21	5059
2026-01-04 00:22:47.90	99.93	17.84	-30.0	-33.0	19.0	6.02e-01	0	43	0	546308096	21	5054
2026-01-04 00:22:48.90	100.19	17.81	-30.0	-33.0	19.0	6.02e-01	0	43	0	548405248	21	5062
2026-01-04 00:22:49.91	100.46	17.78	-30.0	-32.9	19.1	6.02e-01	0	43	0	549978112	21	5021
2026-01-04 00:22:50.91	100.73	17.75	-30.0	-32.9	19.1	6.03e-01	0	43	0	552075264	21	5012
2026-01-04 00:22:51.92	100.99	17.72	-30.2	-33.4	18.8	6.00e-01	0	43	0	553648128	21	5223
2026-01-04 00:22:52.92	101.26	17.69	-30.1	-33.2	18.9	6.01e-01	0	43	0	555745280	21	5139
2026-01-04 00:22:53.93	101.52	17.66	-30.2	-33.5	18.7	6.03e-01	0	43	0	557842432	21	5242
2026-01-04 00:22:54.94	101.79	17.62	-30.1	-33.0	19.0	6.03e-01	0	43	0	559415296	21	5073
2026-01-04 00:22:55.95	102.05	17.59	-30.2	-33.3	18.8	6.01e-01	0	43	0	561512448	21	5159
2026-01-04 00:22:56.95	102.31	17.56	-30.0	-33.0	19.0	6.01e-01	0	43	0	563085312	21	5083
2026-01-04 00:22:57.96	102.58	17.52	-30.0	-32.9	19.1	6.04e-01	0	43	0	565182464	21	5034
2026-01-04 00:22:58.96	102.84	17.49	-30.0	-33.0	19.0	6.03e-01	0	43	0	567279616	21	5078
2026-01-04 00:22:59.96	103.10	17.45	-30.0	-33.0	19.0	6.01e-01	0	43	0	568852480	21	5075
2026-01-04 00:23:00.97	103.36	17.42	-30.1	-33.1	19.0	6.03e-01	0	43	0	570949632	21	5096
2026-01-04 00:23:01.98	103.62	17.38	-30.0	-32.9	19.1	6.01e-01	0	43	0	572522496	21	5029
2026-01-04 00:23:02.98	103.88	17.35	-30.0	-33.0	19.0	6.02e-01	0	43	0	574619648	21	5062
2026-01-04 00:23:03.98	104.13	17.31	-30.0	-33.0	19.0	6.00e-01	0	43	0	576716800	21	5070
2026-01-04 00:23:04.98	104.39	17.27	-30.1	-33.1	18.9	6.00e-01	0	43	0	578289664	21	5106
2026-01-04 00:23:05.99	104.65	17.23	-30.1	-33.3	18.8	6.04e-01	0	43	0	580386816	21	5172
2026-01-04 00:23:06.99	104.90	17.19	-30.0	-32.9	19.0	6.02e-01	0	43	0	581959680	21	5031
2026-01-04 00:23:08.00	105.16	17.15	-30.1	-33.1	19.0	6.03e-01	0	43	0	584056832	21	5095
2026-01-04 00:23:09.00	105.42	17.12	-30.1	-33.3	18.8	6.02e-01	0	43	0	585629696	21	5196
2026-01-04 00:23:10.01	105.67	17.08	-30.1	-33.1	19.0	6.02e-01	0	43	0	587726848	21	5087
2026-01-04 00:23:11.01	105.92	17.04	-30.1	-33.1	19.0	6.02e-01	0	43	0	589824000	21	5101
2026-01-04 00:23:12.02	106.18	16.99	-30.2	-33.4	18.8	6.01e-01	0	43	0	591396864	21	5209
2026-01-04 00:23:13.03	106.43	16.95	-30.0	-32.9	19.1	6.00e-01	0	43	0	593494016	21	5022
2026-01-04 00:23:14.03	106.68	16.91	-29.9	-32.7	19.1	6.04e-01	0	43	0	595591168	21	4956
2026-01-04 00:23:15.04	106.93	16.87	-30.0	-33.0	19.0	6.02e-01	0	43	0	597164032	21	5048
2026-01-04 00:23:16.04	107.18	16.83	-30.0	-32.9	19.1	6.01e-01	0	43	0	599261184	21	5020
2026-01-04 00:23:17.05	107.43	16.78	-30.1	-33.2	18.9	6.02e-01	0	43	0	600834048	21	5133
2026-01-04 00:23:18.04	107.68	16.74	-29.9	-32.7	19.2	6.04e-01	0	43	0	602931200	21	4958
2026-01-04 00:23:19.05	107.93	16.70	-29.9	-32.5	19.3	6.04e-01	0	43	0	604504064	21	4901
2026-01-04 00:23:20.06	108.18	16.65	-29.9	-32.8	19.1	6.03e-01	0	43	0	606601216	21	4992
2026-01-04 00:23:21.06	108.42	16.61	-30.0	-32.8	19.1	6.01e-01	0	43	0	608698368	21	5008
2026-01-04 00:23:22.07	108.67	16.56	-30.1	-33.1	19.0	6.02e-01	0	43	0	610271232	21	5089
2026-01-04 00:23:23.07	108.91	16.52	-30.1	-33.1	18.9	6.01e-01	0	43	0	612368384	21	5117
2026-01-04 00:23:24.07	109.15	16.47	-29.9	-32.7	19.1	6.03e-01	0	43	0	613941248	21	4970
2026-01-04 00:23:25.08	109.40	16.43	-29.9	-32.6	19.2	6.03e-01	0	43	0	616038400	21	4914
2026-01-04 00:23:26.08	109.64	16.38	-30.0	-33.4	19.0	6.04e-01	0	43	0	618135552	20	5316
2026-01-04 00:23:27.08	109.88	16.33	-30.0	-33.4	19.0	6.04e-01	0	43	0	619708416	20	5345
2026-01-04 00:23:28.09	110.12	16.29	-30.2	-33.4	18.8	6.01e-01	0	43	0	621805568	21	5204
2026-01-04 00:23:29.10	110.36	16.24	-30.3	-33.6	18.5	6.03e-01	0	43	0	623378432	21	5296
2026-01-04 00:23:30.11	110.61	16.19	-30.1	-33.2	18.9	6.02e-01	0	43	0	625475584	21	5137
2026-01-04 00:23:31.12	110.84	16.14	-30.0	-32.8	19.1	6.02e-01	0	43	0	627048448	21	5006
2026-01-04 00:23:32.13	111.08	16.09	-29.9	-33.2	19.1	6.00e-01	0	43	0	629145600	20	5257
2026-01-04 00:23:33.13	111.32	16.04	-29.9	-33.2	19.2	6.01e-01	0	43	0	631242752	20	5237
2026-01-04 00:23:34.14	111.56	15.99	-30.0	-33.5	18.9	5.99e-01	0	43	0	632815616	20	5379
2026-01-04 00:23:35.15	111.79	15.94	-30.0	-33.3	19.0	6.03e-01	0	43	0	634912768	20	5301
2026-01-04 00:23:36.15	112.03	15.90	-30.0	-33.5	18.9	6.02e-01	0	43	0	637009920	20	5364
2026-01-04 00:23:37.16	112.26	15.84	-30.2	-33.4	18.6	6.02e-01	0	43	0	638582784	21	5207
2026-01-04 00:23:38.17	112.50	15.79	-30.4	-34.0	18.3	6.01e-01	0	43	0	640679936	21	5471
2026-01-04 00:23:39.17	112.73	15.74	-30.2	-33.5	18.5	6.04e-01	0	43	0	642252800	21	5289
2026-01-04 00:23:40.18	112.96	15.69	-30.1	-33.2	18.7	6.04e-01	0	43	0	644349952	21	5175
2026-01-04 00:23:41.19	113.19	15.64	-29.9	-32.8	19.0	6.03e-01	0	43	0	646447104	21	5013
2026-01-04 00:23:42.20	113.42	15.59	-29.9	-32.8	19.0	6.00e-01	0	43	0	648019968	21	5018
2026-01-04 00:23:43.21	113.65	15.54	-30.0	-33.0	18.9	6.02e-01	0	43	0	650117120	21	5081
2026-01-04 00:23:44.21	113.88	15.48	-30.1	-33.4	18.7	6.03e-01	0	43	0	651689984	21	5234
2026-01-04 00:23:45.21	114.11	15.43	-29.9	-32.9	18.9	6.01e-01	0	43	0	653787136	21	5046
2026-01-04 00:23:46.22	114.33	15.38	-29.9	-32.7	19.0	5.99e-01	0	43	0	655884288	21	4990
2026-01-04 00:23:47.23	114.56	15.32	-29.4	-32.3	18.9	6.01e-01	0	43	0	657457152	21	5037
2026-01-04 00:23:48.23	114.78	15.27	-29.9	-33.3	18.9	6.01e-01	0	43	0	659554304	20	5336
2026-01-04 00:23:49.23	115.01	15.22	-29.9	-33.3	18.7	6.02e-01	0	43	0	661127168	20	5338
2026-01-04 00:23:50.24	115.23	15.16	-30.0	-33.5	18.5	6.00e-01	0	43	0	663224320	20	5393
2026-01-04 00:23:51.25	115.45	15.11	-29.9	-33.3	18.9	6.01e-01	0	43	0	665321472	20	5346
2026-01-04 00:23:52.25	115.67	15.06	-30.0	-33.6	18.4	6.05e-01	0	43	0	666894336	20	5435
2026-01-04 00:23:53.25	115.89	15.00	-30.1	-33.3	18.4	6.01e-01	0	43	0	668991488	21	5216
2026-01-04 00:23:54.25	116.11	14.95	-30.1	-33.3	18.6	6.01e-01	0	43	0	670564352	21	5197
2026-01-04 00:23:55.26	116.33	14.89	-30.0	-33.5	18.7	5.99e-01	0	43	0	672661504	20	5407
2026-01-04 00:23:56.26	116.55	14.84	-30.0	-33.5	18.7	6.01e-01	0	43	0	674234368	20	5381
2026-01-04 00:23:57.26	116.77	14.78	-29.9	-33.4	18.9	6.00e-01	0	43	0	676331520	20	5351
2026-01-04 00:23:58.27	116.98	14.72	-30.0	-33.4	18.8	6.01e-01	0	43	0	678428672	20	5368
2026-01-04 00:23:59.27	117.20	14.67	-30.1	-33.7	18.7	6.02e-01	0	43	0	680001536	20	5472
2026-01-04 00:24:00.27	117.41	14.61	-30.0	-33.5	18.8	6.03e-01	0	43	0	682098688	20	5392
2026-01-04 00:24:01.28	117.63	14.56	-30.0	-33.6	18.7	6.02e-01	0	43	0	683671552	20	5443
2026-01-04 00:24:02.29	117.84	14.50	-30.1	-33.3	18.6	6.03e-01	0	43	0	685768704	21	5205
2026-01-04 00:24:03.28	118.05	14.44	-30.2	-33.5	18.4	5.99e-01	0	43	0	687865856	21	5297
2026-01-04 00:24:04.28	118.26	14.39	-30.1	-33.4	18.5	6.04e-01	0	43	0	689438720	21	5228
2026-01-04 00:24:05.29	118.47	14.33	-30.2	-33.6	18.4	6.02e-01	0	43	0	691535872	21	5304
2026-01-04 00:24:06.30	118.68	14.27	-30.1	-33.4	18.5	6.02e-01	0	43	0	693108736	21	5242
2026-01-04 00:24:07.30	118.89	14.21	-30.1	-33.2	18.7	6.02e-01	0	43	0	695205888	21	5150
2026-01-04 00:24:08.31	119.10	14.15	-30.0	-33.1	18.8	6.02e-01	0	43	0	697303040	21	5114
2026-01-04 00:24:09.32	119.31	14.10	-30.0	-33.0	18.8	6.00e-01	0	43	0	698875904	21	5089
2026-01-04 00:24:10.33	119.51	14.04	-30.0	-33.1	18.7	6.02e-01	0	43	0	700973056	21	5124
2026-01-04 00:24:11.33	119.72	13.98	-30.1	-33.8	18.6	6.03e-01	0	43	0	702545920	20	5515
2026-01-04 00:24:12.34	119.92	13.92	-30.1	-33.4	18.5	6.01e-01	0	43	0	704643072	21	5278
2026-01-04 00:24:13.34	120.13	13.86	-30.1	-33.9	18.5	6.00e-01	0	43	0	706740224	20	5563
2026-01-04 00:24:14.35	120.33	13.80	-30.2	-33.7	18.3	6.01e-01	0	43	0	708313088	21	5381
2026-01-04 00:24:15.36	120.53	13.74	-30.2	-33.7	18.2	6.00e-01	0	43	0	710410240	21	5400
2026-01-04 00:24:16.36	120.73	13.69	-30.1	-33.4	18.4	6.02e-01	0	43	0	711983104	21	5276
2026-01-04 00:24:17.36	120.93	13.63	-30.0	-33.2	18.6	6.02e-01	0	43	0	714080256	21	5199
2026-01-04 00:24:18.37	121.13	13.57	-30.0	-33.2	18.6	6.02e-01	0	43	0	715653120	21	5182
2026-01-04 00:24:19.37	121.33	13.51	-30.1	-33.4	18.5	6.00e-01	0	43	0	717750272	21	5260
2026-01-04 00:24:20.38	121.53	13.45	-30.1	-33.4	18.5	6.01e-01	0	43	0	719847424	21	5260
2026-01-04 00:24:21.39	121.73	13.39	-30.0	-33.1	18.7	6.01e-01	0	43	0	721420288	21	5166
2026-01-04 00:24:22.40	121.92	13.33	-29.9	-32.9	18.8	6.01e-01	0	43	0	723517440	21	5081
2026-01-04 00:24:23.41	122.12	13.27	-29.9	-32.9	18.8	6.02e-01	0	43	0	725614592	21	5067
2026-01-04 00:24:24.41	122.31	13.21	-29.9	-33.0	18.8	6.05e-01	0	43	0	727187456	21	5101
2026-01-04 00:24:25.42	122.51	13.15	-30.0	-33.1	18.7	6.03e-01	0	43	0	729284608	21	5135
2026-01-04 00:24:26.42	122.70	13.09	-29.7	-32.8	18.6	6.02e-01	0	43	0	730857472	21	5189
2026-01-04 00:24:27.43	122.89	13.02	-30.0	-33.2	18.5	6.02e-01	0	43	0	732954624	21	5183
2026-01-04 00:24:28.43	123.08	12.96	-29.9	-33.0	18.7	6.01e-01	0	43	0	735051776	21	5109
2026-01-04 00:24:29.44	123.28	12.90	-29.9	-33.0	18.7	6.02e-01	0	43	0	736624640	21	5099
2026-01-04 00:24:30.44	123.46	12.84	-30.0	-33.0	18.6	6.02e-01	0	43	0	738721792	21	5133
2026-01-04 00:24:31.45	123.65	12.78	-30.0	-33.1	18.6	6.01e-01	0	43	0	740294656	21	5149
2026-01-04 00:24:32.46	123.84	12.72	-29.9	-33.0	18.7	6.02e-01	0	43	0	742391808	21	5102
2026-01-04 00:24:33.47	124.03	12.66	-30.0	-33.2	18.5	6.03e-01	0	43	0	743964672	21	5180
2026-01-04 00:24:34.47	124.22	12.60	-30.1	-33.8	18.5	5.99e-01	0	43	0	746061824	20	5521
2026-01-04 00:24:35.48	124.40	12.53	-30.1	-33.4	18.4	6.02e-01	0	43	0	748158976	21	5272
2026-01-04 00:24:36.48	124.59	12.47	-30.1	-33.3	18.5	6.02e-01	0	43	0	749731840	21	5231
2026-01-04 00:24:37.49	124.77	12.41	-30.1	-33.3	18.5	6.04e-01	0	43	0	751828992	21	5223
2026-01-04 00:24:38.48	124.95	12.35	-30.1	-33.5	18.4	6.02e-01	0	43	0	753926144	21	5290
2026-01-04 00:24:39.49	125.13	12.29	-30.1	-33.5	18.3	6.02e-01	0	43	0	755499008	21	5309
2026-01-04 00:24:40.49	125.32	12.23	-30.2	-33.5	18.3	6.02e-01	0	43	0	757596160	21	5314
2026-01-04 00:24:41.50	125.50	12.17	-30.1	-33.5	18.3	6.03e-01	0	43	0	759169024	21	5310
2026-01-04 00:24:42.50	125.68	12.10	-30.0	-33.3	18.4	6.02e-01	0	43	0	761266176	21	5232
2026-01-04 00:24:43.51	125.86	12.04	-30.0	-33.7	18.5	6.02e-01	0	43	0	762839040	20	5507
2026-01-04 00:24:44.50	126.03	11.98	-30.1	-33.9	18.3	6.00e-01	0	43	0	764936192	20	5584
2026-01-04 00:24:45.51	126.21	11.92	-30.1	-33.5	18.3	6.03e-01	0	43	0	767033344	21	5318
2026-01-04 00:24:46.52	126.39	11.86	-30.1	-33.5	18.3	6.04e-01	0	43	0	768606208	21	5315
2026-01-04 00:24:47.53	126.56	11.79	-30.2	-33.9	18.1	6.02e-01	0	43	0	770703360	21	5472
2026-01-04 00:24:48.52	126.74	11.73	-30.3	-33.9	18.0	6.00e-01	0	43	0	772276224	21	5466
2026-01-04 00:24:49.52	126.91	11.67	-30.2	-33.7	18.2	6.02e-01	0	43	0	774373376	21	5377
2026-01-04 00:24:50.52	127.08	11.61	-30.2	-33.6	18.3	6.03e-01	0	43	0	776470528	21	5328
2026-01-04 00:24:51.53	127.26	11.54	-30.2	-33.8	18.2	6.01e-01	0	43	0	778043392	21	5399
2026-01-04 00:24:52.54	127.43	11.48	-30.2	-33.7	18.1	6.04e-01	0	43	0	780140544	21	5379
2026-01-04 00:24:53.54	127.60	11.42	-30.2	-33.6	18.2	6.01e-01	0	43	0	781713408	21	5339
2026-01-04 00:24:54.55	127.77	11.36	-30.2	-33.7	18.1	6.01e-01	0	43	0	783810560	21	5410
2026-01-04 00:24:55.56	127.94	11.29	-30.1	-33.4	18.3	6.03e-01	0	43	0	785383424	21	5272
2026-01-04 00:24:56.57	128.11	11.23	-30.2	-33.6	18.2	6.03e-01	0	43	0	787480576	21	5374
2026-01-04 00:24:57.57	128.28	11.17	-30.2	-33.7	18.1	6.00e-01	0	43	0	789577728	21	5395
2026-01-04 00:24:58.58	128.45	11.11	-30.2	-33.7	18.1	6.00e-01	0	43	0	791150592	21	5399
2026-01-04 00:24:59.58	128.62	11.04	-30.2	-33.8	18.0	6.00e-01	0	43	0	793247744	21	5456
2026-01-04 00:25:00.59	128.78	10.98	-30.3	-34.0	17.8	6.02e-01	0	43	0	795344896	21	5546
2026-01-04 00:25:01.59	128.95	10.92	-30.3	-34.1	17.8	6.01e-01	0	43	0	796917760	21	5551
2026-01-04 00:25:02.60	129.11	10.85	-30.3	-33.9	17.9	6.01e-01	0	43	0	799014912	21	5495
2026-01-04 00:25:03.60	129.28	10.79	-30.3	-33.9	17.9	6.04e-01	0	43	0	800587776	21	5501
2026-01-04 00:25:04.61	129.44	10.73	-30.4	-34.4	17.6	6.02e-01	0	43	0	802684928	21	5683
2026-01-04 00:25:05.61	129.60	10.67	-30.3	-34.2	17.7	6.01e-01	0	43	0	804257792	21	5617
2026-01-04 00:25:06.62	129.76	10.60	-30.3	-33.9	17.9	6.03e-01	0	43	0	806354944	21	5504
2026-01-04 00:25:07.63	129.93	10.54	-30.2	-33.8	18.0	6.02e-01	0	43	0	808452096	21	5457
2026-01-04 00:25:08.63	130.08	10.48	-30.3	-34.0	17.8	6.03e-01	0	43	0	810024960	21	5544
2026-01-04 00:25:09.64	130.25	10.41	-30.2	-34.0	17.8	6.02e-01	0	43	0	812122112	21	5536
2026-01-04 00:25:10.64	130.40	10.35	-30.2	-33.8	17.9	6.00e-01	0	43	0	813694976	21	5474
2026-01-04 00:25:11.64	130.56	10.29	-30.2	-34.0	17.8	6.03e-01	0	43	0	815792128	21	5550
2026-01-04 00:25:12.64	130.72	10.23	-30.2	-33.8	17.9	6.01e-01	0	43	0	817889280	21	5447
2026-01-04 00:25:13.65	130.87	10.16	-30.2	-33.8	17.9	6.02e-01	0	43	0	819462144	21	5470
2026-01-04 00:25:14.65	131.03	10.10	-30.2	-33.8	17.9	5.98e-01	0	43	0	821559296	21	5445
2026-01-04 00:25:15.66	131.19	10.04	-30.2	-33.9	17.8	6.01e-01	0	43	0	823132160	21	5511
2026-01-04 00:25:16.66	131.34	9.97	-30.2	-33.8	17.9	5.99e-01	0	43	0	825229312	21	5464
2026-01-04 00:25:17.66	131.49	9.91	-30.2	-33.9	17.8	6.02e-01	0	43	0	827326464	21	5509
2026-01-04 00:25:18.67	131.65	9.85	-30.4	-34.4	17.4	6.04e-01	0	43	0	828899328	21	5707
2026-01-04 00:25:19.67	131.80	9.79	-30.4	-34.5	17.4	6.05e-01	0	43	0	830996480	21	5735
2026-01-04 00:25:20.67	131.95	9.72	-30.4	-34.5	17.5	6.01e-01	0	43	0	832569344	21	5742
2026-01-04 00:25:21.67	132.10	9.66	-30.5	-34.7	17.3	6.02e-01	0	43	0	834666496	21	5843
2026-01-04 00:25:22.68	132.25	9.60	-30.5	-34.8	17.2	6.02e-01	0	43	0	836763648	21	5883
2026-01-04 00:25:23.68	132.40	9.54	-30.5	-34.8	17.2	5.99e-01	0	43	0	838336512	21	5899
2026-01-04 00:25:24.69	132.55	9.47	-30.7	-34.8	16.9	6.04e-01	0	43	0	840433664	22	5765
2026-01-04 00:25:25.69	132.70	9.41	-30.8	-35.2	16.5	6.01e-01	0	43	0	842006528	22	5972
2026-01-04 00:25:26.70	132.85	9.35	-30.7	-34.9	16.7	5.98e-01	0	43	0	844103680	22	5837
2026-01-04 00:25:27.70	132.99	9.28	-30.7	-35.0	16.7	6.03e-01	0	43	0	845676544	22	5883
2026-01-04 00:25:28.71	133.14	9.22	-30.7	-34.8	16.7	6.03e-01	0	43	0	847773696	22	5801
2026-01-04 00:25:29.71	133.29	9.16	-30.6	-34.5	17.0	6.01e-01	0	43	0	849870848	22	5671
2026-01-04 00:25:30.72	133.43	9.10	-30.6	-34.5	16.9	6.01e-01	0	43	0	851443712	22	5669
2026-01-04 00:25:31.73	133.58	9.03	-30.5	-35.0	16.9	6.00e-01	0	43	0	853540864	21	6008
2026-01-04 00:25:32.74	133.72	8.97	-30.6	-35.1	16.8	6.04e-01	0	43	0	855638016	21	6056
2026-01-04 00:25:33.74	133.86	8.91	-30.5	-35.0	16.8	6.04e-01	0	43	0	857210880	21	6043
2026-01-04 00:25:34.75	134.01	8.84	-30.5	-34.9	16.9	6.00e-01	0	43	0	859308032	21	5962
2026-01-04 00:25:35.75	134.15	8.78	-30.4	-34.6	17.1	6.02e-01	0	43	0	860880896	21	5828
2026-01-04 00:25:36.76	134.29	8.72	-30.4	-34.7	17.0	6.04e-01	0	43	0	862978048	21	5896
2026-01-04 00:25:37.76	134.43	8.66	-30.4	-34.8	17.0	6.03e-01	0	43	0	864550912	21	5939
2026-01-04 00:25:38.77	134.57	8.59	-30.5	-35.0	16.8	5.99e-01	0	43	0	866648064	21	6057
2026-01-04 00:25:39.77	134.71	8.53	-30.3	-34.7	16.9	6.03e-01	0	43	0	868745216	21	5947
2026-01-04 00:25:40.78	134.85	8.47	-30.4	-35.0	16.7	6.01e-01	0	43	0	870318080	21	6094
2026-01-04 00:25:41.80	134.99	8.41	-30.3	-34.6	16.9	6.01e-01	0	43	0	872415232	21	5942
2026-01-04 00:25:42.80	135.13	8.34	-30.3	-34.8	16.8	6.00e-01	0	43	0	873988096	21	6026
2026-01-04 00:25:43.81	135.26	8.28	-30.4	-34.9	16.7	6.03e-01	0	43	0	876085248	21	6084
2026-01-04 00:25:44.81	135.40	8.22	-30.4	-35.0	16.6	6.04e-01	0	43	0	878182400	21	6095
2026-01-04 00:25:45.81	135.53	8.16	-30.4	-35.0	16.6	6.03e-01	0	43	0	879755264	21	6104
2026-01-04 00:25:46.81	135.67	8.10	-30.5	-35.1	16.6	6.02e-01	0	43	0	881852416	21	6127
2026-01-04 00:25:47.82	135.80	8.03	-30.7	-35.3	16.2	6.00e-01	0	43	0	883425280	22	6086
2026-01-04 00:25:48.82	135.94	7.97	-30.6	-34.9	16.5	6.02e-01	0	43	0	885522432	22	5886
2026-01-04 00:25:49.83	136.07	7.91	-30.6	-35.3	16.5	6.02e-01	0	43	0	887619584	21	6195
2026-01-04 00:25:50.84	136.20	7.85	-30.6	-34.7	16.6	6.01e-01	0	43	0	889192448	22	5793
2026-01-04 00:25:51.84	136.34	7.79	-30.7	-35.2	16.2	6.02e-01	0	43	0	891289600	22	6035
2026-01-04 00:25:52.84	136.47	7.72	-30.6	-34.9	16.3	6.02e-01	0	43	0	892862464	22	5943
2026-01-04 00:25:53.85	136.60	7.66	-30.6	-34.9	16.3	6.02e-01	0	43	0	894959616	22	5944
2026-01-04 00:25:54.86	136.73	7.60	-30.7	-35.5	15.9	5.97e-01	0	43	0	897056768	22	6264
2026-01-04 00:25:55.86	136.86	7.54	-30.6	-35.3	16.0	6.03e-01	0	43	0	898629632	22	6165
2026-01-04 00:25:56.87	136.99	7.48	-30.4	-34.8	16.3	6.02e-01	0	43	0	900726784	22	5995
2026-01-04 00:25:57.87	137.12	7.42	-30.4	-34.8	16.3	6.02e-01	0	43	0	902299648	22	5964
2026-01-04 00:25:58.87	137.24	7.35	-30.4	-35.3	16.2	6.02e-01	0	43	0	904396800	21	6334
2026-01-04 00:25:59.88	137.37	7.29	-30.3	-35.1	16.3	6.03e-01	0	43	0	906493952	21	6241
2026-01-04 00:26:00.88	137.50	7.23	-30.3	-34.9	16.5	6.00e-01	0	43	0	908066816	21	6146
2026-01-04 00:26:01.89	137.62	7.17	-30.3	-35.0	16.5	6.01e-01	0	43	0	910163968	21	6138
2026-01-04 00:26:02.89	137.75	7.11	-30.5	-35.4	16.2	6.03e-01	0	43	0	911736832	21	6380
2026-01-04 00:26:03.90	137.87	7.05	-33.3	-52.2	3.8	7.42e-01	0	43	104	912785408	27	31610
2026-01-04 00:26:04.90	138.00	6.99	-33.7	-52.9	3.8	7.44e-01	0	43	104	912785408	28	32961
2026-01-04 00:26:05.90	138.12	6.93	-34.0	-53.6	3.8	7.44e-01	0	43	104	912785408	28	34401
2026-01-04 00:26:06.91	138.25	6.86	-34.3	-53.6	3.8	7.44e-01	0	43	104	912785408	29	33210

#Closed at: 2026-01-04 00:26:07
#Recorded file [912 MB]: D:/data/31010_260104_031756.dat