passes_logs/2026/01/04/R2M6_AANII_01/R2M6_AANII_01__20260104_081607_NOAA_20_JPSS-1_rec.log

#Pass ID: 20260104_081607_NOAA 20 (JPSS-1)
#Satellite: NOAA 20 (JPSS-1)
#Configuration: NOAA 20
#almurnet v.1.7.20240730
#Start time: 2026-01-04 08:16:07

#Version: 2.2.20231116
#Station: R2M6_AANII_01
#Location: 30.233357 lon 59.946436 lat
#TLE: 1 43013U 17073A   26003.41800368  .00000169  00000+0  10117-3 0  9998
#TLE: 2 43013  98.7624 304.4804 0001884  56.1176 304.0179 14.19532918421092

#Time	Az	El	Level	Level2	SNR	BER	BlckErr	Temp	State	Recorded	gain1	gain2
2026-01-04 08:16:07.11	96.67	6.97	-31.1	-44.7	3.8	1.49e+00	0	41	0	0	23	17241
2026-01-04 08:16:08.11	96.58	7.04	-31.1	-44.7	3.8	1.49e+00	0	41	104	0	23	17288
2026-01-04 08:16:09.12	96.48	7.10	-31.0	-44.6	3.8	1.49e+00	0	41	104	0	23	17121
2026-01-04 08:16:10.13	96.38	7.16	-30.9	-44.4	3.8	1.49e+00	0	41	104	0	23	16976
2026-01-04 08:16:11.13	96.28	7.22	-30.9	-44.3	3.8	1.49e+00	0	41	104	0	23	16821
2026-01-04 08:16:12.14	96.18	7.29	-30.9	-44.2	3.8	1.49e+00	0	41	104	0	23	16816
2026-01-04 08:16:13.15	96.08	7.35	-30.9	-44.2	3.8	1.49e+00	0	41	104	0	23	16809
2026-01-04 08:16:14.15	95.98	7.41	-30.9	-44.3	3.8	1.49e+00	0	41	104	0	23	16853
2026-01-04 08:16:15.16	95.88	7.48	-30.9	-44.3	3.8	1.49e+00	0	41	104	0	23	16917
2026-01-04 08:16:16.17	95.78	7.54	-30.9	-44.4	3.8	1.49e+00	0	41	104	0	23	16942
2026-01-04 08:16:17.18	95.68	7.60	-31.0	-44.4	3.8	1.49e+00	0	41	104	0	23	17008
2026-01-04 08:16:18.18	95.58	7.67	-31.0	-44.5	3.8	1.49e+00	0	41	104	0	23	17106
2026-01-04 08:16:19.19	95.47	7.73	-31.1	-44.7	3.8	1.49e+00	0	41	104	0	23	17233
2026-01-04 08:16:20.20	95.37	7.79	-31.1	-44.8	3.8	1.49e+00	0	41	104	0	23	17350
2026-01-04 08:16:21.20	95.27	7.86	-31.1	-44.8	3.8	1.49e+00	0	41	104	0	23	17338
2026-01-04 08:16:22.21	95.17	7.92	-31.2	-45.0	3.8	1.49e+00	0	41	104	0	23	17518
2026-01-04 08:16:23.22	95.06	7.98	-31.3	-45.0	3.8	1.49e+00	0	41	104	0	23	17526
2026-01-04 08:16:24.23	94.96	8.05	-31.3	-45.0	3.8	1.49e+00	0	41	104	0	23	17571
2026-01-04 08:16:25.24	94.85	8.11	-31.3	-45.1	3.8	1.49e+00	0	41	104	0	23	17667
2026-01-04 08:16:26.24	94.75	8.17	-31.3	-45.1	3.8	1.49e+00	0	41	104	0	23	17637
2026-01-04 08:16:27.25	94.64	8.24	-31.4	-45.2	3.8	1.49e+00	0	41	104	0	23	17689
2026-01-04 08:16:28.25	94.53	8.30	-31.4	-45.3	3.8	1.49e+00	0	41	104	0	23	17745
2026-01-04 08:16:29.26	94.43	8.37	-31.4	-45.3	3.8	1.49e+00	0	41	104	0	23	17840
2026-01-04 08:16:30.27	94.32	8.43	-31.5	-45.4	3.8	1.49e+00	0	41	104	0	23	17880
2026-01-04 08:16:31.28	94.21	8.50	-31.6	-45.3	3.8	1.49e+00	0	41	104	0	23	17544
2026-01-04 08:16:32.28	94.10	8.56	-31.6	-45.2	3.8	1.49e+00	0	41	104	0	23	17157
2026-01-04 08:16:33.28	93.99	8.62	-31.7	-45.2	3.8	1.49e+00	0	41	104	0	23	17002
2026-01-04 08:16:34.29	93.88	8.69	-31.7	-45.2	3.8	1.49e+00	0	42	104	0	23	16921
2026-01-04 08:16:35.30	93.77	8.75	-31.8	-45.0	3.8	1.49e+00	0	41	104	0	23	16558
2026-01-04 08:16:36.31	93.66	8.82	-31.8	-44.8	3.8	1.49e+00	0	41	104	0	23	16050
2026-01-04 08:16:37.31	93.55	8.88	-31.8	-44.1	3.8	1.49e+00	0	41	104	0	23	14752
2026-01-04 08:16:38.31	93.44	8.95	-31.7	-42.7	4.2	1.48e+00	0	41	104	0	23	12690
2026-01-04 08:16:39.32	93.33	9.01	-31.7	-41.4	4.7	1.27e+00	0	42	0	0	23	11060
2026-01-04 08:16:40.32	93.22	9.07	-31.8	-41.3	4.8	8.06e-01	0	42	102	1048576	23	10749
2026-01-04 08:16:41.33	93.10	9.14	-31.9	-41.5	4.8	8.51e-01	0	42	102	1048576	23	10931
2026-01-04 08:16:42.34	92.99	9.20	-31.9	-40.3	5.6	6.95e-01	0	42	102	1048576	23	9568
2026-01-04 08:16:43.35	92.88	9.27	-31.6	-38.3	7.1	1.90e-01	0	42	102	1048576	23	7779
2026-01-04 08:16:44.35	92.76	9.33	-31.5	-37.6	7.9	8.31e-02	0	42	102	1048576	23	7242
2026-01-04 08:16:45.35	92.65	9.40	-31.6	-37.8	7.9	7.09e-02	0	42	102	1048576	23	7356
2026-01-04 08:16:46.36	92.53	9.46	-31.7	-38.0	7.9	7.08e-02	0	42	102	1048576	23	7400
2026-01-04 08:16:47.37	92.42	9.53	-31.7	-37.9	7.9	8.63e-02	0	42	102	1048576	23	7375
2026-01-04 08:16:48.37	92.30	9.59	-31.6	-37.4	8.4	5.42e-02	0	42	102	1048576	23	7042
2026-01-04 08:16:49.38	92.18	9.66	-31.7	-37.5	8.4	5.01e-02	0	41	102	1048576	23	7051
2026-01-04 08:16:50.39	92.06	9.72	-31.6	-37.3	8.6	4.12e-02	0	42	102	1048576	23	6893
2026-01-04 08:16:51.40	91.95	9.79	-31.7	-37.4	8.6	3.78e-02	0	42	102	1048576	23	6955
2026-01-04 08:16:52.41	91.83	9.86	-31.7	-37.3	8.6	3.90e-02	0	42	102	1048576	23	6921
2026-01-04 08:16:53.41	91.71	9.92	-31.7	-37.7	8.4	3.57e-02	0	42	102	1048576	23	7128
2026-01-04 08:16:54.42	91.59	9.99	-31.8	-37.9	8.3	5.68e-02	0	42	102	1048576	23	7244
2026-01-04 08:16:55.43	91.47	10.05	-31.6	-36.9	9.0	3.80e-02	0	42	102	1048576	23	6663
2026-01-04 08:16:56.43	91.35	10.12	-31.4	-36.2	9.7	1.44e-02	0	42	102	1048576	23	6277
2026-01-04 08:16:57.44	91.23	10.18	-31.2	-35.6	10.2	7.59e-03	0	42	102	1048576	23	5918
2026-01-04 08:16:58.45	91.10	10.25	-31.2	-35.2	10.5	5.16e-03	0	42	102	1048576	23	5753
2026-01-04 08:16:59.46	90.98	10.32	-31.2	-35.2	10.6	3.66e-03	0	42	102	1048576	23	5710
2026-01-04 08:17:00.47	90.86	10.38	-31.2	-35.3	10.5	3.49e-03	0	42	102	1048576	23	5772
2026-01-04 08:17:01.47	90.73	10.45	-31.2	-35.3	10.6	4.22e-03	0	42	102	1048576	23	5744
2026-01-04 08:17:02.48	90.61	10.51	-31.1	-34.9	10.8	3.16e-03	0	42	102	1048576	23	5594
2026-01-04 08:17:03.48	90.48	10.58	-31.1	-34.8	10.9	2.37e-03	0	42	102	1048576	23	5535
2026-01-04 08:17:04.49	90.36	10.64	-31.0	-34.6	11.0	1.93e-03	0	42	102	1048576	23	5464
2026-01-04 08:17:05.50	90.23	10.71	-31.0	-34.6	11.1	1.73e-03	0	42	102	1048576	23	5451
2026-01-04 08:17:06.51	90.11	10.78	-31.1	-34.8	10.9	1.91e-03	0	42	102	1048576	23	5540
2026-01-04 08:17:07.51	89.98	10.84	-31.1	-34.8	10.9	2.52e-03	0	42	102	1048576	23	5542
2026-01-04 08:17:08.52	89.85	10.91	-31.1	-34.8	11.0	2.12e-03	0	42	102	1048576	23	5527
2026-01-04 08:17:09.52	89.72	10.98	-31.0	-34.6	11.1	1.76e-03	0	42	102	1048576	23	5443
2026-01-04 08:17:10.53	89.59	11.04	-31.0	-34.6	11.1	1.57e-03	0	42	102	1048576	23	5447
2026-01-04 08:17:11.54	89.46	11.11	-31.1	-34.8	11.0	1.52e-03	0	42	102	1048576	23	5504
2026-01-04 08:17:12.55	89.33	11.17	-31.1	-34.9	10.9	2.48e-03	0	42	102	1048576	23	5578
2026-01-04 08:17:13.55	89.20	11.24	-31.1	-34.7	11.1	1.83e-03	0	42	102	1048576	23	5464
2026-01-04 08:17:14.55	89.07	11.31	-31.0	-34.5	11.2	1.47e-03	0	42	102	1048576	23	5400
2026-01-04 08:17:15.55	88.94	11.37	-31.1	-34.7	11.1	1.74e-03	0	42	102	1048576	23	5472
2026-01-04 08:17:16.56	88.81	11.44	-31.1	-34.8	11.1	1.60e-03	0	42	102	1048576	23	5501
2026-01-04 08:17:17.57	88.67	11.51	-31.1	-34.7	11.1	1.74e-03	0	42	102	1048576	23	5452
2026-01-04 08:17:18.57	88.54	11.57	-31.2	-35.0	11.0	1.68e-03	0	42	102	1048576	23	5575
2026-01-04 08:17:19.58	88.41	11.64	-31.1	-34.8	11.0	2.09e-03	0	42	102	1048576	23	5522
2026-01-04 08:17:20.59	88.27	11.71	-31.0	-34.6	11.3	1.40e-03	0	42	102	1048576	23	5406
2026-01-04 08:17:21.60	88.14	11.77	-31.0	-34.4	11.4	1.09e-03	0	42	102	1048576	23	5343
2026-01-04 08:17:22.61	88.00	11.84	-31.1	-34.6	11.2	1.12e-03	0	42	102	1048576	23	5424
2026-01-04 08:17:23.61	87.86	11.91	-31.1	-34.7	11.2	1.42e-03	0	42	102	1048576	23	5470
2026-01-04 08:17:24.62	87.72	11.97	-31.1	-34.7	11.2	1.73e-03	0	42	102	1048576	23	5443
2026-01-04 08:17:25.63	87.59	12.04	-31.0	-34.6	11.3	1.17e-03	0	42	102	1048576	23	5394
2026-01-04 08:17:26.64	87.45	12.11	-31.1	-34.8	11.1	1.33e-03	0	42	102	1048576	23	5503
2026-01-04 08:17:27.65	87.31	12.17	-31.2	-34.9	11.1	1.57e-03	0	42	102	1048576	23	5546
2026-01-04 08:17:28.65	87.17	12.24	-31.1	-34.8	11.2	1.73e-03	0	42	102	1048576	23	5484
2026-01-04 08:17:29.66	87.03	12.31	-31.2	-34.9	11.1	1.57e-03	0	42	102	1048576	23	5533
2026-01-04 08:17:30.66	86.89	12.37	-31.2	-34.9	11.1	1.76e-03	0	42	102	1048576	23	5528
2026-01-04 08:17:31.67	86.74	12.44	-31.1	-34.6	11.3	1.27e-03	0	42	102	1048576	23	5423
2026-01-04 08:17:32.67	86.60	12.51	-31.1	-34.7	11.3	1.22e-03	0	43	102	1048576	23	5436
2026-01-04 08:17:33.68	86.46	12.57	-31.1	-34.8	11.2	1.25e-03	0	43	102	1048576	23	5504
2026-01-04 08:17:34.69	86.31	12.64	-31.2	-34.9	11.2	1.51e-03	0	42	102	1048576	23	5511
2026-01-04 08:17:35.69	86.17	12.71	-31.1	-34.7	11.3	1.19e-03	0	42	102	1048576	23	5460
2026-01-04 08:17:36.70	86.02	12.77	-31.1	-34.8	11.3	1.33e-03	0	42	102	1048576	23	5469
2026-01-04 08:17:37.70	85.88	12.84	-31.2	-35.0	11.1	1.54e-03	0	42	102	1048576	23	5557
2026-01-04 08:17:38.71	85.73	12.91	-31.2	-34.9	11.2	1.63e-03	0	42	102	1048576	23	5536
2026-01-04 08:17:39.72	85.58	12.97	-31.2	-35.1	11.0	1.72e-03	0	42	102	1048576	23	5599
2026-01-04 08:17:40.73	85.44	13.04	-31.2	-35.1	11.0	1.87e-03	0	42	102	1048576	23	5616
2026-01-04 08:17:41.74	85.29	13.11	-31.3	-35.3	10.9	1.83e-03	0	42	102	1048576	23	5703
2026-01-04 08:17:42.74	85.14	13.17	-31.3	-35.4	10.8	2.50e-03	0	42	102	1048576	23	5756
2026-01-04 08:17:43.74	84.99	13.24	-31.3	-35.2	10.9	2.46e-03	0	42	102	1048576	23	5663
2026-01-04 08:17:44.75	84.84	13.31	-31.3	-35.1	11.0	2.15e-03	0	43	102	1048576	23	5636
2026-01-04 08:17:45.76	84.69	13.37	-31.2	-35.1	11.0	1.80e-03	0	42	102	1048576	23	5629
2026-01-04 08:17:46.77	84.53	13.44	-31.3	-35.4	10.8	2.14e-03	0	43	102	1048576	23	5762
2026-01-04 08:17:47.77	84.38	13.51	-31.3	-35.5	10.8	3.00e-03	0	43	102	1048576	23	5777
2026-01-04 08:17:48.78	84.23	13.57	-31.4	-35.6	10.7	2.47e-03	0	43	102	1048576	23	5843
2026-01-04 08:17:49.79	84.07	13.64	-31.3	-35.4	10.8	2.83e-03	0	42	102	1048576	23	5768
2026-01-04 08:17:50.80	83.92	13.71	-31.3	-35.1	11.1	1.74e-03	0	42	102	1048576	23	5611
2026-01-04 08:17:51.80	83.76	13.77	-31.3	-35.1	11.1	1.63e-03	0	43	102	1048576	23	5605
2026-01-04 08:17:52.81	83.60	13.84	-31.3	-35.2	11.0	1.80e-03	0	42	102	1048576	23	5645
2026-01-04 08:17:53.82	83.45	13.91	-31.3	-35.4	10.9	2.03e-03	0	43	102	1048576	23	5736
2026-01-04 08:17:54.82	83.29	13.97	-31.5	-35.9	10.6	2.54e-03	0	42	102	1048576	23	5981
2026-01-04 08:17:55.83	83.13	14.04	-31.4	-35.7	10.7	3.15e-03	0	42	102	1048576	23	5867
2026-01-04 08:17:56.84	82.97	14.11	-31.4	-35.7	10.7	3.08e-03	0	43	102	1048576	23	5872
2026-01-04 08:17:57.84	82.81	14.17	-31.5	-35.8	10.6	2.94e-03	0	43	102	1048576	23	5904
2026-01-04 08:17:58.85	82.65	14.24	-31.5	-36.0	10.5	3.05e-03	0	43	102	1048576	23	6021
2026-01-04 08:17:59.86	82.49	14.30	-31.5	-36.0	10.5	3.99e-03	0	43	102	1048576	23	5995
2026-01-04 08:18:00.86	82.33	14.37	-31.5	-36.0	10.5	3.65e-03	0	43	102	1048576	23	6004
2026-01-04 08:18:01.87	82.17	14.44	-31.6	-36.3	10.3	4.21e-03	0	43	102	1048576	23	6155
2026-01-04 08:18:02.88	82.00	14.50	-31.5	-36.0	10.5	5.09e-03	0	43	102	1048576	23	6041
2026-01-04 08:18:03.89	81.84	14.57	-31.6	-36.0	10.4	4.13e-03	0	43	102	1048576	23	6013
2026-01-04 08:18:04.90	81.67	14.64	-31.6	-36.2	10.3	4.35e-03	0	43	102	1048576	23	6129
2026-01-04 08:18:05.90	81.51	14.70	-31.5	-35.9	10.5	4.08e-03	0	43	102	1048576	23	5970
2026-01-04 08:18:06.91	81.34	14.77	-31.5	-35.8	10.7	3.34e-03	0	43	102	1048576	23	5898
2026-01-04 08:18:07.92	81.17	14.83	-31.5	-35.8	10.7	3.01e-03	0	43	102	1048576	23	5918
2026-01-04 08:18:08.93	81.00	14.90	-31.5	-35.9	10.6	3.29e-03	0	43	102	1048576	23	5950
2026-01-04 08:18:09.94	80.83	14.97	-31.5	-35.9	10.6	3.32e-03	0	43	102	1048576	23	5972
2026-01-04 08:18:10.94	80.66	15.03	-31.6	-36.1	10.5	3.79e-03	0	43	102	1048576	23	6053
2026-01-04 08:18:11.94	80.49	15.10	-31.6	-36.0	10.5	4.51e-03	0	43	102	1048576	23	5997
2026-01-04 08:18:12.95	80.32	15.16	-31.5	-35.7	10.7	3.05e-03	0	43	102	1048576	23	5877
2026-01-04 08:18:13.95	80.15	15.23	-31.4	-35.6	10.9	2.37e-03	0	43	102	1048576	23	5809
2026-01-04 08:18:14.96	79.98	15.29	-31.4	-35.4	11.0	2.33e-03	0	43	102	1048576	23	5723
2026-01-04 08:18:15.97	79.81	15.36	-31.4	-35.4	11.0	1.82e-03	0	43	102	1048576	23	5707
2026-01-04 08:18:16.98	79.63	15.42	-31.4	-35.5	11.0	1.84e-03	0	43	102	1048576	23	5740
2026-01-04 08:18:17.98	79.46	15.49	-31.4	-35.5	11.0	1.96e-03	0	43	102	1048576	23	5735
2026-01-04 08:18:18.99	79.28	15.55	-31.6	-36.0	10.6	2.68e-03	0	43	102	1048576	23	5979
2026-01-04 08:18:20.00	79.10	15.62	-31.4	-35.4	11.1	2.33e-03	0	43	102	1048576	23	5697
2026-01-04 08:18:21.01	78.93	15.68	-31.2	-34.8	11.5	1.25e-03	0	43	102	1048576	23	5430
2026-01-04 08:18:22.01	78.75	15.75	-31.1	-34.5	11.7	6.53e-04	0	43	102	1048576	23	5327
2026-01-04 08:18:23.02	78.57	15.81	-31.1	-34.3	11.8	4.62e-04	0	43	102	1048576	23	5238
2026-01-04 08:18:24.02	78.39	15.87	-31.1	-34.5	11.7	4.94e-04	0	43	102	1048576	23	5321
2026-01-04 08:18:25.03	78.21	15.94	-31.0	-34.2	11.9	5.11e-04	0	43	102	1048576	23	5209
2026-01-04 08:18:26.04	78.03	16.00	-31.1	-34.3	11.8	3.94e-04	0	43	102	1048576	23	5245
2026-01-04 08:18:27.05	77.85	16.07	-31.2	-34.7	11.6	5.88e-04	0	43	102	1048576	23	5410
2026-01-04 08:18:28.05	77.66	16.13	-31.0	-34.2	11.9	5.69e-04	0	43	102	1048576	23	5203
2026-01-04 08:18:29.05	77.48	16.19	-31.0	-34.1	12.0	3.46e-04	0	43	102	1048576	23	5132
2026-01-04 08:18:30.06	77.30	16.26	-31.0	-34.1	12.0	3.02e-04	0	43	102	1048576	23	5139
2026-01-04 08:18:31.07	77.11	16.32	-31.0	-34.0	12.1	3.20e-04	0	43	102	1048576	23	5116
2026-01-04 08:18:32.08	76.93	16.38	-30.9	-33.8	12.2	2.25e-04	0	43	102	1048576	23	5037
2026-01-04 08:18:33.09	76.74	16.45	-30.9	-33.7	12.3	1.52e-04	0	43	102	1048576	23	5007
2026-01-04 08:18:34.09	76.55	16.51	-30.9	-33.8	12.2	1.76e-04	0	43	102	1048576	23	5053
2026-01-04 08:18:35.10	76.36	16.57	-30.7	-33.8	12.6	1.40e-04	0	43	102	1048576	22	5116
2026-01-04 08:18:36.11	76.17	16.64	-30.8	-33.9	12.5	1.04e-04	0	43	102	1048576	22	5185
2026-01-04 08:18:37.12	75.98	16.70	-30.9	-34.3	12.2	1.81e-04	0	43	102	1048576	22	5332
2026-01-04 08:18:38.13	75.79	16.76	-30.7	-33.7	12.7	1.25e-04	0	43	102	1048576	22	5091
2026-01-04 08:18:39.14	75.60	16.82	-30.7	-33.7	12.6	9.30e-05	0	43	102	1048576	22	5095
2026-01-04 08:18:40.15	75.41	16.89	-30.7	-33.8	12.6	9.68e-05	0	43	102	1048576	22	5135
2026-01-04 08:18:41.15	75.22	16.95	-30.6	-33.5	12.8	5.79e-05	0	43	102	1048576	22	5028
2026-01-04 08:18:42.16	75.02	17.01	-30.6	-33.3	13.0	4.34e-05	0	43	102	1048576	22	4939
2026-01-04 08:18:43.16	74.83	17.07	-30.5	-33.3	12.9	3.81e-05	0	43	102	1048576	22	4925
2026-01-04 08:18:44.16	74.63	17.13	-30.4	-32.8	13.3	1.98e-05	0	43	102	1048576	22	4759
2026-01-04 08:18:45.17	74.44	17.19	-30.2	-32.9	13.6	1.14e-05	0	43	102	1048576	21	4884
2026-01-04 08:18:46.18	74.24	17.25	-30.2	-32.8	13.6	1.22e-05	0	43	102	1048576	21	4864
2026-01-04 08:18:47.19	74.04	17.32	-30.2	-32.9	13.5	8.30e-06	0	43	102	1048576	21	4909
2026-01-04 08:18:48.20	73.84	17.38	-30.3	-33.0	13.4	1.44e-05	0	43	102	1048576	21	4941
2026-01-04 08:18:49.20	73.64	17.44	-30.2	-32.9	13.6	1.29e-05	0	43	102	1048576	21	4887
2026-01-04 08:18:50.21	73.44	17.50	-30.3	-33.1	13.4	8.30e-06	0	43	102	1048576	21	4977
2026-01-04 08:18:51.22	73.24	17.56	-30.4	-33.2	13.3	1.29e-05	0	43	102	1048576	21	5021
2026-01-04 08:18:52.23	73.04	17.62	-30.4	-33.5	13.2	2.44e-05	0	43	102	1048576	21	5102
2026-01-04 08:18:53.24	72.83	17.68	-30.3	-33.1	13.4	2.13e-05	0	43	102	1048576	21	4982
2026-01-04 08:18:54.25	72.63	17.74	-30.2	-32.9	13.5	9.90e-06	0	43	102	1048576	21	4889
2026-01-04 08:18:55.25	72.43	17.79	-30.3	-33.0	13.5	8.30e-06	0	43	102	1048576	21	4927
2026-01-04 08:18:56.26	72.22	17.85	-30.3	-33.0	13.5	7.60e-06	0	43	102	1048576	21	4932
2026-01-04 08:18:57.26	72.02	17.91	-30.4	-33.4	13.2	1.98e-05	0	43	102	1048576	21	5081
2026-01-04 08:18:58.27	71.81	17.97	-30.2	-32.9	13.5	9.90e-06	0	43	102	1048576	21	4914
2026-01-04 08:18:59.27	71.60	18.03	-30.0	-32.4	13.9	6.80e-06	0	43	102	1048576	21	4718
2026-01-04 08:19:00.27	71.40	18.08	-30.0	-32.2	14.0	7.00e-07	0	43	102	1048576	21	4654
2026-01-04 08:19:01.28	71.19	18.14	-30.0	-32.3	14.0	1.50e-06	0	43	102	1048576	21	4670
2026-01-04 08:19:02.29	70.98	18.20	-30.1	-32.4	13.9	3.80e-06	0	43	102	1048576	21	4731
2026-01-04 08:19:03.29	70.77	18.26	-30.2	-32.7	13.7	7.60e-06	0	43	102	1048576	21	4819
2026-01-04 08:19:04.30	70.56	18.31	-30.2	-32.7	13.7	5.30e-06	0	43	102	1048576	21	4815
2026-01-04 08:19:05.30	70.34	18.37	-30.2	-32.8	13.7	5.30e-06	0	43	102	1048576	21	4854
2026-01-04 08:19:06.31	70.13	18.43	-30.2	-32.9	13.6	6.80e-06	0	43	102	1048576	21	4910
2026-01-04 08:19:07.32	69.92	18.48	-30.3	-32.9	13.6	6.10e-06	0	43	102	1048576	21	4903
2026-01-04 08:19:08.33	69.70	18.54	-30.3	-33.1	13.5	6.80e-06	0	43	102	1048576	21	4948
2026-01-04 08:19:09.33	69.49	18.59	-30.4	-33.3	13.3	1.60e-05	0	43	102	1048576	21	5029
2026-01-04 08:19:10.34	69.27	18.65	-30.4	-33.4	13.3	1.60e-05	0	43	102	1048576	21	5079
2026-01-04 08:19:11.35	69.05	18.70	-30.5	-33.6	13.1	1.29e-05	0	43	102	1048576	21	5156
2026-01-04 08:19:12.36	68.83	18.76	-30.5	-33.7	13.1	3.28e-05	0	43	102	1048576	21	5178
2026-01-04 08:19:13.36	68.62	18.81	-30.6	-33.8	13.0	2.51e-05	0	43	102	1048576	21	5206
2026-01-04 08:19:14.37	68.40	18.86	-30.5	-33.7	13.1	3.12e-05	0	43	102	1048576	21	5193
2026-01-04 08:19:15.37	68.18	18.92	-30.5	-33.8	13.0	4.34e-05	0	43	102	1048576	21	5215
2026-01-04 08:19:16.39	67.95	18.97	-30.5	-33.7	13.1	4.27e-05	0	43	102	1048576	21	5195
2026-01-04 08:19:17.40	67.73	19.02	-30.3	-33.1	13.5	2.05e-05	0	43	102	1048576	21	4966
2026-01-04 08:19:18.40	67.51	19.08	-30.1	-32.5	13.8	6.80e-06	0	43	102	1048576	21	4760
2026-01-04 08:19:19.41	67.29	19.13	-30.0	-32.2	14.1	0.00e+00	0	43	102	1048576	21	4648
2026-01-04 08:19:20.41	67.07	19.18	-30.0	-32.3	14.0	1.50e-06	0	43	102	1048576	21	4670
2026-01-04 08:19:21.42	66.84	19.23	-30.0	-32.2	14.1	3.80e-06	0	43	102	1048576	21	4640
2026-01-04 08:19:22.43	66.61	19.28	-30.0	-32.2	14.1	7.00e-07	0	43	102	1048576	21	4630
2026-01-04 08:19:23.43	66.39	19.33	-30.1	-32.5	13.9	1.50e-06	0	43	102	1048576	21	4730
2026-01-04 08:19:24.44	66.16	19.38	-30.1	-32.4	13.9	8.30e-06	0	43	102	1048576	21	4703
2026-01-04 08:19:25.44	65.94	19.43	-29.8	-31.7	14.4	2.20e-06	0	43	102	1048576	21	4471
2026-01-04 08:19:26.45	65.71	19.48	-29.6	-31.6	14.8	0.00e+00	0	43	102	1048576	20	4542
2026-01-04 08:19:27.45	65.48	19.53	-29.5	-31.4	14.9	0.00e+00	0	43	102	1048576	20	4503
2026-01-04 08:19:28.46	65.25	19.58	-29.5	-31.4	14.9	0.00e+00	0	43	102	1048576	20	4486
2026-01-04 08:19:29.46	65.02	19.63	-29.5	-31.5	14.8	0.00e+00	0	43	102	1048576	20	4514
2026-01-04 08:19:30.47	64.79	19.68	-29.5	-31.5	14.8	0.00e+00	0	43	102	1048576	20	4522
2026-01-04 08:19:31.48	64.55	19.72	-29.5	-31.5	14.8	0.00e+00	0	43	102	1048576	20	4521
2026-01-04 08:19:32.49	64.32	19.77	-29.6	-31.6	14.8	0.00e+00	0	43	102	1048576	20	4550
2026-01-04 08:19:33.49	64.09	19.82	-29.6	-31.6	14.8	0.00e+00	0	43	102	1048576	20	4551
2026-01-04 08:19:34.50	63.85	19.86	-29.6	-31.7	14.7	7.00e-07	0	43	102	1048576	20	4576
2026-01-04 08:19:35.50	63.62	19.91	-29.5	-31.5	14.9	0.00e+00	0	43	102	1048576	20	4507
2026-01-04 08:19:36.51	63.38	19.96	-29.6	-31.7	14.7	0.00e+00	0	43	102	1048576	20	4597
2026-01-04 08:19:37.52	63.15	20.00	-29.6	-31.6	14.8	1.50e-06	0	43	102	1048576	20	4559
2026-01-04 08:19:38.52	62.91	20.05	-29.5	-31.5	14.9	0.00e+00	0	43	102	1048576	20	4515
2026-01-04 08:19:39.52	62.67	20.09	-29.4	-31.3	15.0	0.00e+00	0	43	102	1048576	20	4454
2026-01-04 08:19:40.53	62.43	20.13	-29.3	-31.0	15.2	0.00e+00	0	43	102	1048576	20	4362
2026-01-04 08:19:41.53	62.20	20.18	-29.3	-31.1	15.2	0.00e+00	0	43	102	1048576	20	4383
2026-01-04 08:19:42.54	61.96	20.22	-29.4	-31.2	15.1	0.00e+00	0	43	102	1048576	20	4423
2026-01-04 08:19:43.55	61.72	20.26	-29.5	-31.4	14.9	0.00e+00	0	43	102	1048576	20	4478
2026-01-04 08:19:44.55	61.48	20.30	-29.4	-31.3	15.0	0.00e+00	0	43	102	1048576	20	4448
2026-01-04 08:19:45.55	61.24	20.35	-29.4	-31.3	15.0	0.00e+00	0	43	102	1048576	20	4445
2026-01-04 08:19:46.56	60.99	20.39	-29.5	-31.4	14.9	0.00e+00	0	43	102	1048576	20	4500
2026-01-04 08:19:47.57	60.75	20.43	-29.6	-31.8	14.7	0.00e+00	0	43	102	1048576	20	4608
2026-01-04 08:19:48.58	60.50	20.47	-29.7	-31.8	14.7	0.00e+00	0	43	102	1048576	20	4617
2026-01-04 08:19:49.59	60.26	20.51	-29.7	-32.0	14.6	1.50e-06	0	43	102	1048576	20	4664
2026-01-04 08:19:50.60	60.01	20.55	-29.7	-31.9	14.6	7.00e-07	0	43	102	1048576	20	4659
2026-01-04 08:19:51.60	59.77	20.59	-29.7	-31.8	14.7	0.00e+00	0	43	102	1048576	20	4626
2026-01-04 08:19:52.61	59.52	20.62	-29.7	-32.0	14.6	7.00e-07	0	43	102	1048576	20	4688
2026-01-04 08:19:53.62	59.27	20.66	-29.8	-32.2	14.4	0.00e+00	0	43	102	1048576	20	4758
2026-01-04 08:19:54.62	59.03	20.70	-29.8	-32.3	14.4	0.00e+00	0	43	102	1048576	20	4769
2026-01-04 08:19:55.63	58.78	20.73	-29.8	-32.2	14.5	1.50e-06	0	43	102	1048576	20	4723
2026-01-04 08:19:56.64	58.53	20.77	-30.0	-32.6	14.2	7.00e-07	0	43	102	1048576	20	4867
2026-01-04 08:19:57.65	58.28	20.81	-29.9	-32.5	14.3	3.00e-06	0	43	102	1048576	20	4835
2026-01-04 08:19:58.65	58.03	20.84	-29.9	-32.4	14.3	0.00e+00	0	43	102	1048576	20	4804
2026-01-04 08:19:59.65	57.78	20.88	-30.0	-32.6	14.2	2.20e-06	0	43	102	1048576	20	4892
2026-01-04 08:20:00.66	57.53	20.91	-30.0	-32.8	14.1	1.50e-06	0	43	102	1048576	20	4950
2026-01-04 08:20:01.67	57.28	20.94	-30.1	-33.0	13.9	3.80e-06	0	43	102	1048576	20	5030
2026-01-04 08:20:02.68	57.03	20.98	-30.2	-33.1	13.9	2.20e-06	0	43	102	1048576	20	5073
2026-01-04 08:20:03.69	56.77	21.01	-30.2	-33.3	13.8	6.10e-06	0	43	102	1048576	20	5130
2026-01-04 08:20:04.69	56.52	21.04	-30.4	-33.8	13.4	3.80e-06	0	43	102	1048576	20	5317
2026-01-04 08:20:05.70	56.27	21.07	-30.4	-33.8	13.4	1.44e-05	0	43	102	1048576	20	5318
2026-01-04 08:20:06.70	56.02	21.10	-30.5	-34.0	13.3	1.44e-05	0	43	102	1048576	20	5382
2026-01-04 08:20:07.71	55.76	21.13	-30.7	-34.3	12.8	3.20e-05	0	43	102	1048576	21	5397
2026-01-04 08:20:08.72	55.50	21.16	-30.7	-34.2	12.8	6.71e-05	0	43	102	1048576	21	5367
2026-01-04 08:20:09.72	55.25	21.19	-30.6	-33.9	13.0	5.41e-05	0	43	102	1048576	21	5237
2026-01-04 08:20:10.73	54.99	21.22	-30.5	-33.6	13.2	2.82e-05	0	43	102	1048576	21	5144
2026-01-04 08:20:11.73	54.74	21.25	-30.5	-33.4	13.3	1.67e-05	0	43	102	1048576	21	5077
2026-01-04 08:20:12.74	54.48	21.27	-30.4	-33.3	13.4	1.14e-05	0	43	102	1048576	21	5017
2026-01-04 08:20:13.75	54.22	21.30	-30.4	-33.3	13.5	1.60e-05	0	43	102	1048576	21	5004
2026-01-04 08:20:14.75	53.97	21.33	-30.5	-33.5	13.3	1.06e-05	0	43	102	1048576	21	5102
2026-01-04 08:20:15.76	53.71	21.35	-30.6	-33.7	13.2	2.28e-05	0	43	102	1048576	21	5166
2026-01-04 08:20:16.76	53.45	21.38	-30.6	-33.8	13.1	2.21e-05	0	43	102	1048576	21	5225
2026-01-04 08:20:17.77	53.19	21.40	-30.7	-34.1	12.9	3.89e-05	0	43	102	1048576	21	5334
2026-01-04 08:20:18.78	52.93	21.43	-30.7	-34.0	13.0	3.58e-05	0	43	102	1048576	21	5286
2026-01-04 08:20:19.79	52.67	21.45	-30.8	-34.4	12.7	6.40e-05	0	43	102	1048576	21	5466
2026-01-04 08:20:20.80	52.41	21.47	-30.9	-34.8	12.5	1.07e-04	0	43	102	1048576	21	5621
2026-01-04 08:20:21.80	52.15	21.49	-31.0	-34.5	12.4	1.59e-04	0	43	102	1048576	22	5392
2026-01-04 08:20:22.81	51.89	21.52	-31.1	-34.7	12.2	2.14e-04	0	43	102	1048576	22	5447
2026-01-04 08:20:23.82	51.63	21.54	-30.9	-34.2	12.5	1.59e-04	0	43	102	1048576	22	5266
2026-01-04 08:20:24.82	51.37	21.56	-30.9	-34.1	12.6	7.70e-05	0	43	102	1048576	22	5195
2026-01-04 08:20:25.83	51.10	21.58	-31.0	-34.4	12.4	1.23e-04	0	43	102	1048576	22	5341
2026-01-04 08:20:26.84	50.84	21.59	-31.1	-34.7	12.2	1.69e-04	0	43	102	1048576	22	5462
2026-01-04 08:20:27.84	50.58	21.61	-31.0	-34.3	12.4	2.01e-04	0	43	102	1048576	22	5296
2026-01-04 08:20:28.85	50.31	21.63	-30.8	-33.8	12.8	7.32e-05	0	43	102	1048576	22	5107
2026-01-04 08:20:29.85	50.05	21.65	-30.7	-33.5	13.0	4.19e-05	0	43	102	1048576	22	4971
2026-01-04 08:20:30.85	49.79	21.66	-30.7	-33.6	12.9	3.50e-05	0	43	102	1048576	22	5030
2026-01-04 08:20:31.86	49.53	21.68	-30.8	-33.8	12.9	4.19e-05	0	43	102	1048576	22	5077
2026-01-04 08:20:32.87	49.26	21.69	-30.9	-34.3	12.5	6.48e-05	0	43	102	1048576	22	5274
2026-01-04 08:20:33.87	49.00	21.71	-31.0	-34.3	12.5	1.20e-04	0	43	102	1048576	22	5298
2026-01-04 08:20:34.88	48.73	21.72	-30.9	-34.2	12.5	9.07e-05	0	43	102	1048576	22	5247
2026-01-04 08:20:35.89	48.47	21.74	-30.9	-34.2	12.6	7.55e-05	0	43	102	1048576	22	5245
2026-01-04 08:20:36.90	48.20	21.75	-31.0	-34.5	12.3	1.21e-04	0	43	102	1048576	22	5380
2026-01-04 08:20:37.90	47.94	21.76	-31.1	-34.7	12.2	2.06e-04	0	43	102	1048576	22	5440
2026-01-04 08:20:38.91	47.67	21.77	-31.3	-35.2	11.9	3.04e-04	0	43	102	1048576	22	5661
2026-01-04 08:20:39.91	47.41	21.78	-31.2	-35.1	12.0	3.84e-04	0	43	102	1048576	22	5605
2026-01-04 08:20:40.92	47.14	21.79	-31.1	-34.7	12.2	2.59e-04	0	43	102	1048576	22	5444
2026-01-04 08:20:41.92	46.88	21.80	-31.0	-34.5	12.3	1.59e-04	0	43	102	1048576	22	5388
2026-01-04 08:20:42.93	46.61	21.81	-31.1	-34.7	12.2	1.80e-04	0	43	102	1048576	22	5447
2026-01-04 08:20:43.94	46.34	21.82	-31.2	-35.0	12.0	2.32e-04	0	43	102	1048576	22	5576
2026-01-04 08:20:44.94	46.08	21.82	-31.1	-34.7	12.2	2.53e-04	0	43	102	1048576	22	5440
2026-01-04 08:20:45.95	45.81	21.83	-30.9	-34.2	12.6	1.09e-04	0	43	102	1048576	22	5245
2026-01-04 08:20:46.95	45.55	21.84	-30.8	-33.9	12.8	8.54e-05	0	43	102	1048576	22	5130
2026-01-04 08:20:47.96	45.28	21.84	-30.8	-33.8	12.8	5.72e-05	0	43	102	1048576	22	5114
2026-01-04 08:20:48.97	45.01	21.85	-30.9	-34.2	12.6	6.40e-05	0	43	102	1048576	22	5258
2026-01-04 08:20:49.98	44.74	21.85	-30.8	-34.0	12.7	8.39e-05	0	43	102	1048576	22	5192
2026-01-04 08:20:50.99	44.48	21.85	-31.0	-34.3	12.5	1.11e-04	0	43	102	1048576	22	5315
2026-01-04 08:20:51.99	44.21	21.86	-30.8	-34.0	12.7	7.70e-05	0	43	102	1048576	22	5191
2026-01-04 08:20:53.00	43.94	21.86	-30.7	-33.5	13.0	5.72e-05	0	43	102	1048576	22	5003
2026-01-04 08:20:54.01	43.68	21.86	-30.5	-33.2	13.2	2.59e-05	0	43	102	1048576	22	4876
2026-01-04 08:20:55.01	43.41	21.86	-30.4	-32.9	13.3	1.44e-05	0	43	102	1048576	22	4802
2026-01-04 08:20:56.02	43.14	21.86	-30.4	-33.0	13.3	1.98e-05	0	43	102	1048576	22	4864
2026-01-04 08:20:57.02	42.88	21.86	-30.2	-33.1	13.4	2.05e-05	0	43	102	1048576	21	5048
2026-01-04 08:20:58.02	42.61	21.86	-30.0	-32.8	13.6	5.30e-06	0	43	102	1048576	21	4961
2026-01-04 08:20:59.02	42.35	21.86	-29.5	-32.6	13.7	7.60e-06	0	43	102	1048576	20	5136
2026-01-04 08:21:00.03	42.08	21.85	-29.3	-33.1	13.6	6.10e-06	0	43	102	1048576	19	5546
2026-01-04 08:21:01.04	41.81	21.85	-29.8	-33.2	14.0	5.30e-06	0	43	102	1048576	19	5327
2026-01-04 08:21:02.05	41.54	21.85	-30.1	-33.2	13.8	1.50e-06	0	43	102	1048576	20	5100
2026-01-04 08:21:03.05	41.28	21.84	-30.3	-33.7	13.5	7.60e-06	0	43	102	1048576	20	5295
2026-01-04 08:21:04.06	41.01	21.84	-30.1	-33.1	13.8	9.10e-06	0	43	102	1048576	20	5088
2026-01-04 08:21:05.07	40.75	21.83	-30.2	-33.3	13.8	1.50e-06	0	43	102	1048576	20	5115
2026-01-04 08:21:06.08	40.48	21.82	-30.2	-33.3	13.8	6.10e-06	0	43	102	1048576	20	5139
2026-01-04 08:21:07.08	40.21	21.82	-30.3	-33.4	13.7	5.30e-06	0	43	102	1048576	20	5191
2026-01-04 08:21:08.09	39.95	21.81	-30.0	-32.8	14.1	3.00e-06	0	43	102	1048576	20	4947
2026-01-04 08:21:09.10	39.68	21.80	-29.8	-32.3	14.4	0.00e+00	0	43	102	1048576	20	4797
2026-01-04 08:21:10.11	39.41	21.79	-29.8	-32.2	14.4	0.00e+00	0	43	102	1048576	20	4764
2026-01-04 08:21:11.11	39.15	21.78	-29.9	-32.4	14.3	1.50e-06	0	43	102	1048576	20	4825
2026-01-04 08:21:12.12	38.88	21.77	-29.8	-32.3	14.4	7.00e-07	0	43	102	1048576	20	4770
2026-01-04 08:21:13.12	38.62	21.76	-29.6	-31.8	14.7	0.00e+00	0	43	102	1048576	20	4625
2026-01-04 08:21:14.13	38.35	21.75	-29.5	-31.5	14.9	7.00e-07	0	43	102	1048576	20	4511
2026-01-04 08:21:15.13	38.09	21.73	-29.5	-31.4	15.0	7.00e-07	0	43	102	1048576	20	4474
2026-01-04 08:21:16.14	37.83	21.72	-29.4	-31.2	15.1	0.00e+00	0	43	102	1048576	20	4433
2026-01-04 08:21:17.14	37.56	21.71	-29.6	-31.5	14.8	0.00e+00	0	43	102	1048576	20	4529
2026-01-04 08:21:18.15	37.30	21.69	-29.3	-31.0	15.2	0.00e+00	0	43	102	1048576	20	4364
2026-01-04 08:21:19.16	37.03	21.68	-29.3	-30.9	15.2	0.00e+00	0	43	102	1048576	20	4338
2026-01-04 08:21:20.17	36.77	21.66	-29.3	-31.5	15.2	0.00e+00	0	43	102	1048576	19	4616
2026-01-04 08:21:21.18	36.50	21.65	-29.4	-31.7	15.2	0.00e+00	0	43	102	1048576	19	4666
2026-01-04 08:21:22.19	36.24	21.63	-29.4	-31.5	15.2	0.00e+00	0	43	102	1048576	19	4629
2026-01-04 08:21:23.19	35.98	21.61	-29.2	-31.2	15.4	0.00e+00	0	43	102	1048576	19	4506
2026-01-04 08:21:24.20	35.72	21.59	-29.1	-31.0	15.5	0.00e+00	0	43	102	1048576	19	4461
2026-01-04 08:21:25.21	35.45	21.57	-29.2	-31.0	15.5	0.00e+00	0	43	102	1048576	19	4474
2026-01-04 08:21:26.21	35.19	21.56	-29.1	-30.9	15.6	0.00e+00	0	43	102	1048576	19	4426
2026-01-04 08:21:27.22	34.93	21.54	-29.1	-30.8	15.6	0.00e+00	0	43	102	1048576	19	4401
2026-01-04 08:21:28.23	34.67	21.51	-29.2	-31.0	15.6	0.00e+00	0	43	102	1048576	19	4466
2026-01-04 08:21:29.24	34.41	21.49	-29.1	-31.0	15.5	0.00e+00	0	43	102	1048576	19	4470
2026-01-04 08:21:30.24	34.15	21.47	-29.2	-31.1	15.5	0.00e+00	0	43	102	1048576	19	4479
2026-01-04 08:21:31.25	33.89	21.45	-29.2	-31.2	15.4	0.00e+00	0	43	102	1048576	19	4518
2026-01-04 08:21:32.26	33.63	21.43	-29.2	-31.1	15.5	0.00e+00	0	43	102	1048576	19	4483
2026-01-04 08:21:33.27	33.37	21.40	-29.2	-31.0	15.5	0.00e+00	0	43	102	1048576	19	4470
2026-01-04 08:21:34.27	33.11	21.38	-29.0	-30.7	15.7	0.00e+00	0	43	102	1048576	19	4364
2026-01-04 08:21:35.28	32.85	21.35	-29.0	-30.8	15.7	0.00e+00	0	43	102	1048576	19	4389
2026-01-04 08:21:36.29	32.59	21.33	-29.2	-31.1	15.5	0.00e+00	0	43	102	1048576	19	4483
2026-01-04 08:21:37.30	32.34	21.30	-29.3	-31.4	15.2	0.00e+00	0	43	102	1048576	19	4595
2026-01-04 08:21:38.31	32.08	21.27	-29.4	-31.6	15.2	0.00e+00	0	43	102	1048576	19	4633
2026-01-04 08:21:39.31	31.82	21.25	-29.4	-31.8	15.0	0.00e+00	0	43	102	1048576	19	4707
2026-01-04 08:21:40.32	31.57	21.22	-29.5	-31.8	15.1	7.00e-07	0	43	102	1048576	19	4713
2026-01-04 08:21:41.33	31.31	21.19	-29.6	-32.0	14.9	0.00e+00	0	43	102	1048576	19	4794
2026-01-04 08:21:42.34	31.05	21.16	-29.6	-32.1	14.8	0.00e+00	0	43	102	1048576	19	4822
2026-01-04 08:21:43.34	30.80	21.13	-29.6	-32.1	14.9	0.00e+00	0	43	102	1048576	19	4811
2026-01-04 08:21:44.35	30.55	21.10	-29.7	-32.4	14.7	0.00e+00	0	43	102	1048576	19	4906
2026-01-04 08:21:45.35	30.29	21.07	-29.8	-32.6	14.5	0.00e+00	0	43	102	1048576	19	5003
2026-01-04 08:21:46.36	30.04	21.04	-29.8	-32.8	14.4	0.00e+00	0	43	102	1048576	19	5041
2026-01-04 08:21:47.37	29.79	21.01	-29.9	-33.1	14.2	2.20e-06	0	43	102	1048576	19	5156
2026-01-04 08:21:48.38	29.53	20.98	-30.0	-32.8	14.0	1.50e-06	0	43	102	1048576	20	4968
2026-01-04 08:21:49.38	29.28	20.94	-30.1	-33.0	13.8	5.30e-06	0	43	102	1048576	20	5045
2026-01-04 08:21:50.39	29.03	20.91	-30.0	-32.8	14.0	1.50e-06	0	43	102	1048576	20	4954
2026-01-04 08:21:51.39	28.78	20.88	-30.0	-32.8	14.0	3.00e-06	0	43	102	1048576	20	4967
2026-01-04 08:21:52.40	28.53	20.84	-30.1	-33.1	13.8	2.20e-06	0	43	102	1048576	20	5051
2026-01-04 08:21:53.41	28.28	20.81	-30.2	-33.2	13.8	3.80e-06	0	43	102	1048576	20	5087
2026-01-04 08:21:54.41	28.04	20.77	-30.3	-33.6	13.5	1.22e-05	0	43	102	1048576	20	5253
2026-01-04 08:21:55.42	27.79	20.73	-30.5	-34.0	13.2	1.22e-05	0	43	102	1048576	20	5415
2026-01-04 08:21:56.42	27.54	20.70	-30.7	-34.1	12.8	3.89e-05	0	43	102	1048576	21	5339
2026-01-04 08:21:57.43	27.29	20.66	-30.7	-34.2	12.7	1.04e-04	0	43	102	1048576	21	5388
2026-01-04 08:21:58.43	27.05	20.62	-30.6	-33.8	13.0	5.87e-05	0	43	102	1048576	21	5218
2026-01-04 08:21:59.44	26.80	20.59	-30.4	-33.4	13.3	1.98e-05	0	43	102	1048576	21	5063
2026-01-04 08:22:00.44	26.56	20.55	-30.4	-33.4	13.3	2.44e-05	0	43	102	1048576	21	5054
2026-01-04 08:22:01.44	26.32	20.51	-30.4	-33.4	13.3	1.52e-05	0	43	102	1048576	21	5082
2026-01-04 08:22:02.45	26.07	20.47	-30.5	-33.5	13.2	1.67e-05	0	43	102	1048576	21	5119
2026-01-04 08:22:03.46	25.83	20.43	-30.5	-33.7	13.1	4.42e-05	0	43	102	1048576	21	5172
2026-01-04 08:22:04.46	25.59	20.39	-30.4	-33.3	13.3	1.98e-05	0	43	102	1048576	21	5049
2026-01-04 08:22:05.47	25.34	20.35	-30.3	-33.2	13.4	1.60e-05	0	43	102	1048576	21	4998
2026-01-04 08:22:06.47	25.10	20.31	-30.4	-33.3	13.3	2.13e-05	0	43	102	1048576	21	5055
2026-01-04 08:22:07.48	24.86	20.26	-30.5	-33.7	13.1	3.28e-05	0	43	102	1048576	21	5182
2026-01-04 08:22:08.49	24.62	20.22	-30.6	-33.9	12.9	3.66e-05	0	43	102	1048576	21	5261
2026-01-04 08:22:09.50	24.38	20.18	-30.6	-33.9	12.9	6.17e-05	0	43	102	1048576	21	5256
2026-01-04 08:22:10.50	24.15	20.14	-30.6	-33.9	13.0	4.11e-05	0	43	102	1048576	21	5247
2026-01-04 08:22:11.51	23.91	20.09	-30.6	-34.0	12.8	3.89e-05	0	43	102	1048576	21	5311
2026-01-04 08:22:12.52	23.67	20.05	-30.6	-34.0	12.9	7.01e-05	0	43	102	1048576	21	5307
2026-01-04 08:22:13.53	23.43	20.00	-30.5	-33.7	13.0	4.42e-05	0	43	102	1048576	21	5205
2026-01-04 08:22:14.53	23.20	19.96	-30.5	-33.7	13.0	2.36e-05	0	43	102	1048576	21	5194
2026-01-04 08:22:15.54	22.96	19.91	-30.4	-33.3	13.3	3.50e-05	0	43	102	1048576	21	5037
2026-01-04 08:22:16.55	22.73	19.87	-30.3	-33.0	13.5	1.29e-05	0	43	102	1048576	21	4939
2026-01-04 08:22:17.56	22.49	19.82	-30.2	-32.9	13.5	8.30e-06	0	43	102	1048576	21	4896
2026-01-04 08:22:18.57	22.26	19.77	-30.3	-33.1	13.5	1.06e-05	0	43	102	1048576	21	4954
2026-01-04 08:22:19.57	22.03	19.73	-30.4	-33.3	13.3	1.44e-05	0	43	102	1048576	21	5043
2026-01-04 08:22:20.58	21.80	19.68	-30.5	-33.7	13.0	2.82e-05	0	43	102	1048576	21	5205
2026-01-04 08:22:21.59	21.56	19.63	-30.6	-34.0	12.8	5.95e-05	0	43	102	1048576	21	5292
2026-01-04 08:22:22.59	21.34	19.58	-30.7	-34.2	12.7	7.01e-05	0	43	102	1048576	21	5376
2026-01-04 08:22:23.60	21.11	19.53	-30.6	-34.0	12.8	8.08e-05	0	43	102	1048576	21	5313
2026-01-04 08:22:24.61	20.88	19.48	-30.5	-33.8	13.0	4.42e-05	0	43	102	1048576	21	5204
2026-01-04 08:22:25.61	20.65	19.44	-30.6	-33.8	12.9	2.74e-05	0	43	102	1048576	21	5237
2026-01-04 08:22:26.62	20.42	19.39	-30.5	-33.6	13.1	4.34e-05	0	43	102	1048576	21	5143
2026-01-04 08:22:27.63	20.20	19.33	-30.3	-33.2	13.4	2.05e-05	0	43	102	1048576	21	4994
2026-01-04 08:22:28.64	19.97	19.28	-30.3	-33.1	13.4	1.60e-05	0	43	102	1048576	21	4959
2026-01-04 08:22:29.65	19.75	19.23	-30.4	-33.3	13.3	1.67e-05	0	43	102	1048576	21	5030
2026-01-04 08:22:30.65	19.52	19.18	-30.4	-33.4	13.2	1.67e-05	0	43	102	1048576	21	5077
2026-01-04 08:22:31.66	19.30	19.13	-30.5	-33.6	13.1	2.74e-05	0	43	102	1048576	21	5149
2026-01-04 08:22:32.67	19.08	19.08	-30.5	-33.8	12.9	3.58e-05	0	43	102	1048576	21	5225
2026-01-04 08:22:33.68	18.85	19.03	-30.6	-34.0	12.8	4.88e-05	0	43	102	1048576	21	5304
2026-01-04 08:22:34.69	18.63	18.97	-30.6	-34.0	12.8	6.71e-05	0	43	102	1048576	21	5302
2026-01-04 08:22:35.70	18.41	18.92	-30.6	-33.9	12.9	4.88e-05	0	43	102	1048576	21	5260
2026-01-04 08:22:36.70	18.19	18.87	-30.7	-34.1	12.8	5.18e-05	0	43	102	1048576	21	5342
2026-01-04 08:22:37.71	17.97	18.81	-30.8	-34.5	12.4	1.04e-04	0	43	102	1048576	21	5523
2026-01-04 08:22:38.72	17.76	18.76	-30.7	-34.1	12.7	1.63e-04	0	43	102	1048576	21	5368
2026-01-04 08:22:39.72	17.54	18.71	-30.5	-33.7	12.9	5.26e-05	0	43	102	1048576	21	5201
2026-01-04 08:22:40.72	17.33	18.65	-30.5	-33.7	13.0	4.34e-05	0	43	102	1048576	21	5179
2026-01-04 08:22:41.73	17.11	18.60	-30.4	-33.5	13.1	3.43e-05	0	43	102	1048576	21	5115
2026-01-04 08:22:42.74	16.89	18.54	-30.4	-33.5	13.1	3.43e-05	0	43	102	1048576	21	5121
2026-01-04 08:22:43.74	16.68	18.49	-30.4	-33.5	13.1	3.05e-05	0	43	102	1048576	21	5123
2026-01-04 08:22:44.75	16.47	18.43	-30.4	-33.4	13.1	3.89e-05	0	43	102	1048576	21	5079
2026-01-04 08:22:45.75	16.26	18.37	-30.3	-33.2	13.3	2.74e-05	0	43	102	1048576	21	5017
2026-01-04 08:22:46.76	16.05	18.32	-30.4	-33.3	13.2	1.75e-05	0	43	102	1048576	21	5061
2026-01-04 08:22:47.77	15.83	18.26	-30.4	-33.3	13.2	2.67e-05	0	43	102	1048576	21	5039
2026-01-04 08:22:48.78	15.62	18.20	-30.3	-33.2	13.3	1.29e-05	0	43	102	1048576	21	5016
2026-01-04 08:22:49.78	15.42	18.15	-30.4	-33.3	13.2	1.75e-05	0	43	102	1048576	21	5053
2026-01-04 08:22:50.79	15.21	18.09	-30.5	-33.6	13.0	2.51e-05	0	43	102	1048576	21	5158
2026-01-04 08:22:51.80	15.00	18.03	-30.5	-33.6	13.0	3.81e-05	0	43	102	1048576	21	5164
2026-01-04 08:22:52.81	14.79	17.97	-30.5	-33.7	12.9	2.74e-05	0	43	102	1048576	21	5204
2026-01-04 08:22:53.81	14.59	17.92	-30.5	-33.6	13.0	4.80e-05	0	43	102	1048576	21	5156
2026-01-04 08:22:54.82	14.38	17.86	-30.4	-33.5	13.0	3.89e-05	0	43	102	1048576	21	5138
2026-01-04 08:22:55.83	14.18	17.80	-30.4	-33.4	13.2	3.66e-05	0	43	102	1048576	21	5072
2026-01-04 08:22:56.84	13.97	17.74	-30.4	-33.5	13.1	3.66e-05	0	43	102	1048576	21	5106
2026-01-04 08:22:57.85	13.77	17.68	-30.6	-33.9	12.8	3.89e-05	0	43	102	1048576	21	5265
2026-01-04 08:22:58.86	13.57	17.62	-30.5	-33.7	12.9	6.40e-05	0	43	102	1048576	21	5188
2026-01-04 08:22:59.87	13.37	17.56	-30.4	-33.4	13.1	4.80e-05	0	43	102	1048576	21	5075
2026-01-04 08:23:00.87	13.17	17.50	-30.4	-33.4	13.1	2.82e-05	0	43	102	1048576	21	5077
2026-01-04 08:23:01.88	12.97	17.44	-30.5	-33.7	12.9	4.34e-05	0	43	102	1048576	21	5193
2026-01-04 08:23:02.88	12.77	17.38	-30.5	-33.8	12.8	4.50e-05	0	43	102	1048576	21	5242
2026-01-04 08:23:03.89	12.57	17.32	-30.6	-33.9	12.8	4.73e-05	0	43	102	1048576	21	5265
2026-01-04 08:23:04.90	12.37	17.26	-30.6	-34.1	12.6	6.10e-05	0	43	102	1048576	21	5349
2026-01-04 08:23:05.90	12.18	17.20	-30.6	-34.0	12.7	1.02e-04	0	43	102	1048576	21	5310
2026-01-04 08:23:06.91	11.98	17.14	-30.7	-34.2	12.5	1.07e-04	0	43	102	1048576	21	5403
2026-01-04 08:23:07.90	11.79	17.08	-30.6	-33.9	12.7	7.78e-05	0	43	102	1048576	21	5301
2026-01-04 08:23:08.91	11.60	17.02	-30.6	-33.9	12.8	5.87e-05	0	43	102	1048576	21	5277
2026-01-04 08:23:09.92	11.40	16.96	-30.6	-33.9	12.8	6.48e-05	0	43	102	1048576	21	5277
2026-01-04 08:23:10.93	11.21	16.89	-30.5	-33.7	12.9	5.49e-05	0	43	102	1048576	21	5219
2026-01-04 08:23:11.94	11.02	16.83	-30.6	-34.0	12.7	5.34e-05	0	43	102	1048576	21	5312
2026-01-04 08:23:12.94	10.83	16.77	-30.5	-33.7	12.8	6.86e-05	0	43	102	1048576	21	5211
2026-01-04 08:23:13.95	10.64	16.71	-30.4	-33.6	13.0	3.73e-05	0	43	102	1048576	21	5158
2026-01-04 08:23:14.96	10.45	16.65	-30.4	-33.6	13.0	4.04e-05	0	43	102	1048576	21	5152
2026-01-04 08:23:15.97	10.26	16.58	-30.5	-33.6	12.9	4.11e-05	0	43	102	1048576	21	5160
2026-01-04 08:23:16.97	10.07	16.52	-30.6	-34.0	12.7	7.09e-05	0	43	102	1048576	21	5313
2026-01-04 08:23:17.98	9.89	16.46	-30.6	-34.1	12.6	7.85e-05	0	43	102	1048576	21	5355
2026-01-04 08:23:18.99	9.70	16.39	-30.6	-34.1	12.6	9.07e-05	0	43	102	1048576	21	5369
2026-01-04 08:23:20.00	9.52	16.33	-30.6	-34.0	12.6	9.53e-05	0	43	102	1048576	21	5334
2026-01-04 08:23:21.01	9.33	16.27	-30.7	-34.3	12.4	1.12e-04	0	43	102	1048576	21	5470
2026-01-04 08:23:22.02	9.15	16.20	-30.6	-33.9	12.7	1.07e-04	0	43	102	1048576	21	5302
2026-01-04 08:23:23.03	8.96	16.14	-30.6	-33.9	12.7	8.77e-05	0	43	102	1048576	21	5301
2026-01-04 08:23:24.04	8.78	16.08	-30.6	-34.0	12.6	7.93e-05	0	43	102	1048576	21	5332
2026-01-04 08:23:25.04	8.60	16.01	-30.5	-33.8	12.8	8.54e-05	0	43	102	1048576	21	5237
2026-01-04 08:23:26.05	8.42	15.95	-30.6	-34.0	12.6	7.47e-05	0	43	102	1048576	21	5344
2026-01-04 08:23:27.05	8.24	15.89	-30.4	-33.6	12.9	6.71e-05	0	43	102	1048576	21	5188
2026-01-04 08:23:28.06	8.06	15.82	-30.3	-33.3	13.1	4.88e-05	0	43	102	1048576	21	5074
2026-01-04 08:23:29.07	7.88	15.76	-30.3	-33.2	13.2	2.28e-05	0	43	102	1048576	21	5006
2026-01-04 08:23:30.07	7.71	15.69	-30.3	-33.2	13.1	2.67e-05	0	43	102	1048576	21	5012
2026-01-04 08:23:31.08	7.53	15.63	-30.2	-32.9	13.3	1.67e-05	0	43	102	1048576	21	4937
2026-01-04 08:23:32.09	7.36	15.56	-30.1	-32.7	13.4	1.60e-05	0	43	102	1048576	21	4851
2026-01-04 08:23:33.10	7.18	15.50	-30.2	-32.9	13.3	1.29e-05	0	43	102	1048576	21	4926
2026-01-04 08:23:34.10	7.01	15.43	-30.2	-32.9	13.3	1.52e-05	0	43	102	1048576	21	4913
2026-01-04 08:23:35.11	6.83	15.37	-30.2	-32.8	13.4	1.90e-05	0	43	102	1048576	21	4893
2026-01-04 08:23:36.11	6.66	15.31	-30.2	-32.9	13.3	1.52e-05	0	43	102	1048576	21	4921
2026-01-04 08:23:37.11	6.49	15.24	-30.3	-33.2	13.1	2.89e-05	0	43	102	1048576	21	5041
2026-01-04 08:23:38.11	6.32	15.18	-30.3	-33.1	13.1	3.66e-05	0	43	102	1048576	21	5013
2026-01-04 08:23:39.12	6.15	15.11	-30.3	-33.1	13.1	2.28e-05	0	43	102	1048576	21	5013
2026-01-04 08:23:40.12	5.98	15.05	-30.3	-33.3	13.0	4.19e-05	0	43	102	1048576	21	5093
2026-01-04 08:23:41.13	5.81	14.98	-30.2	-33.0	13.2	1.75e-05	0	43	102	1048576	21	4963
2026-01-04 08:23:42.13	5.65	14.92	-30.1	-32.7	13.4	1.44e-05	0	43	102	1048576	21	4850
2026-01-04 08:23:43.14	5.48	14.85	-30.1	-32.6	13.5	1.44e-05	0	43	102	1048576	21	4823
2026-01-04 08:23:44.15	5.31	14.78	-30.0	-32.5	13.6	9.10e-06	0	43	102	1048576	21	4778
2026-01-04 08:23:45.16	5.15	14.72	-30.0	-32.3	13.7	6.80e-06	0	43	102	1048576	21	4723
2026-01-04 08:23:46.16	4.98	14.65	-30.0	-32.3	13.7	9.10e-06	0	43	102	1048576	21	4702
2026-01-04 08:23:47.17	4.82	14.59	-29.9	-32.2	13.8	4.50e-06	0	43	102	1048576	21	4672
2026-01-04 08:23:48.18	4.65	14.52	-29.8	-32.0	13.8	7.60e-06	0	43	102	1048576	21	4620
2026-01-04 08:23:49.18	4.49	14.46	-29.9	-32.3	13.7	5.30e-06	0	43	102	1048576	21	4711
2026-01-04 08:23:50.19	4.33	14.39	-30.1	-32.8	13.3	1.60e-05	0	43	102	1048576	21	4888
2026-01-04 08:23:51.19	4.17	14.32	-30.2	-32.9	13.2	1.98e-05	0	43	102	1048576	21	4939
2026-01-04 08:23:52.20	4.01	14.26	-30.2	-32.9	13.2	2.28e-05	0	43	102	1048576	21	4941
2026-01-04 08:23:53.20	3.85	14.19	-30.2	-33.0	13.1	3.20e-05	0	43	102	1048576	21	4974
2026-01-04 08:23:54.21	3.69	14.13	-30.2	-33.0	13.2	2.82e-05	0	43	102	1048576	21	4973
2026-01-04 08:23:55.22	3.53	14.06	-30.2	-33.0	13.2	2.59e-05	0	43	102	1048576	21	4973
2026-01-04 08:23:56.22	3.37	13.99	-30.3	-33.3	13.0	3.05e-05	0	43	102	1048576	21	5071
2026-01-04 08:23:57.23	3.22	13.93	-30.1	-32.7	13.3	1.90e-05	0	43	102	1048576	21	4870
2026-01-04 08:23:58.23	3.06	13.86	-30.0	-32.3	13.6	1.37e-05	0	43	102	1048576	21	4726
2026-01-04 08:23:59.23	2.91	13.80	-30.0	-32.4	13.6	9.10e-06	0	43	102	1048576	21	4739
2026-01-04 08:24:00.24	2.75	13.73	-30.0	-32.5	13.5	1.52e-05	0	43	102	1048576	21	4802
2026-01-04 08:24:01.25	2.60	13.66	-30.0	-32.4	13.5	1.06e-05	0	43	102	1048576	21	4760
2026-01-04 08:24:02.25	2.45	13.60	-30.0	-32.4	13.5	1.14e-05	0	43	102	1048576	21	4774
2026-01-04 08:24:03.26	2.29	13.53	-30.1	-32.7	13.3	1.06e-05	0	43	102	1048576	21	4847
2026-01-04 08:24:04.27	2.14	13.46	-30.0	-32.5	13.4	1.22e-05	0	43	102	1048576	21	4804
2026-01-04 08:24:05.27	1.99	13.40	-30.1	-32.8	13.3	1.60e-05	0	43	102	1048576	21	4897
2026-01-04 08:24:06.28	1.84	13.33	-30.2	-33.0	13.0	2.28e-05	0	43	102	1048576	21	4991
2026-01-04 08:24:07.29	1.69	13.26	-30.1	-32.9	13.2	2.67e-05	0	43	102	1048576	21	4923
2026-01-04 08:24:08.30	1.54	13.20	-30.3	-33.2	12.9	3.66e-05	0	43	102	1048576	21	5051
2026-01-04 08:24:09.30	1.39	13.13	-30.2	-33.0	13.1	3.05e-05	0	43	102	1048576	21	4988
2026-01-04 08:24:10.31	1.24	13.06	-30.3	-33.4	12.9	6.33e-05	0	43	102	1048576	21	5110
2026-01-04 08:24:11.32	1.09	13.00	-30.1	-32.8	13.2	2.82e-05	0	43	102	1048576	21	4920
2026-01-04 08:24:12.32	0.95	12.93	-30.1	-32.8	13.2	1.98e-05	0	43	102	1048576	21	4910
2026-01-04 08:24:13.33	0.80	12.86	-30.2	-33.1	13.0	3.12e-05	0	43	102	1048576	21	5010
2026-01-04 08:24:14.34	0.66	12.80	-30.2	-33.0	13.1	3.50e-05	0	43	102	1048576	21	4985
2026-01-04 08:24:15.35	0.51	12.73	-30.3	-33.2	13.0	3.66e-05	0	43	102	1048576	21	5055
2026-01-04 08:24:16.36	0.37	12.66	-30.4	-33.5	12.7	4.65e-05	0	43	102	1048576	21	5183
2026-01-04 08:24:17.36	0.23	12.60	-30.3	-33.4	12.8	5.26e-05	0	43	102	1048576	21	5128
2026-01-04 08:24:18.37	0.08	12.53	-30.4	-33.7	12.6	9.00e-05	0	43	102	1048576	21	5241
2026-01-04 08:24:19.38	359.94	12.46	-30.3	-33.3	12.8	9.07e-05	0	43	102	1048576	21	5112
2026-01-04 08:24:20.38	359.80	12.40	-30.3	-33.3	12.8	4.95e-05	0	43	102	1048576	21	5080
2026-01-04 08:24:21.39	359.66	12.33	-30.3	-33.2	12.9	4.27e-05	0	43	102	1048576	21	5074
2026-01-04 08:24:22.40	359.52	12.27	-30.2	-33.1	13.0	5.03e-05	0	43	102	1048576	21	5015
2026-01-04 08:24:23.40	359.38	12.20	-30.2	-33.1	13.0	4.57e-05	0	43	102	1048576	21	5026
2026-01-04 08:24:24.41	359.24	12.13	-30.2	-33.1	13.0	4.19e-05	0	43	102	1048576	21	5007
2026-01-04 08:24:25.42	359.10	12.07	-30.2	-33.1	12.9	3.50e-05	0	43	102	1048576	21	5023
2026-01-04 08:24:26.43	358.97	12.00	-30.2	-33.1	12.9	5.18e-05	0	43	102	1048576	21	5019
2026-01-04 08:24:27.44	358.83	11.93	-30.0	-32.6	13.2	3.43e-05	0	43	102	1048576	21	4842
2026-01-04 08:24:28.45	358.69	11.87	-30.0	-32.7	13.2	1.44e-05	0	43	102	1048576	21	4863
2026-01-04 08:24:29.46	358.56	11.80	-30.0	-32.6	13.2	1.98e-05	0	43	102	1048576	21	4855
2026-01-04 08:24:30.47	358.42	11.73	-30.1	-32.7	13.2	2.13e-05	0	43	102	1048576	21	4884
2026-01-04 08:24:31.47	358.29	11.67	-30.1	-32.9	13.0	4.11e-05	0	43	102	1048576	21	4960
2026-01-04 08:24:32.48	358.15	11.60	-30.2	-33.0	13.0	2.97e-05	0	43	102	1048576	21	4973
2026-01-04 08:24:33.48	358.02	11.53	-30.2	-33.1	12.9	4.57e-05	0	43	102	1048576	21	5015
2026-01-04 08:24:34.48	357.89	11.47	-30.2	-33.2	12.8	4.88e-05	0	43	102	1048576	21	5082
2026-01-04 08:24:35.48	357.76	11.40	-30.3	-33.5	12.6	7.24e-05	0	43	102	1048576	21	5185
2026-01-04 08:24:36.49	357.63	11.34	-30.3	-33.4	12.7	7.93e-05	0	43	102	1048576	21	5157
2026-01-04 08:24:37.50	357.50	11.27	-30.3	-33.5	12.6	8.31e-05	0	43	102	1048576	21	5167
2026-01-04 08:24:38.51	357.37	11.20	-30.4	-33.6	12.5	1.14e-04	0	43	102	1048576	21	5234
2026-01-04 08:24:39.51	357.24	11.14	-30.4	-33.7	12.4	1.62e-04	0	43	102	1048576	21	5275
2026-01-04 08:24:40.51	357.11	11.07	-30.4	-33.9	12.3	1.27e-04	0	43	102	1048576	21	5328
2026-01-04 08:24:41.52	356.98	11.01	-30.5	-34.1	12.2	1.62e-04	0	43	102	1048576	21	5419
2026-01-04 08:24:42.53	356.85	10.94	-30.6	-34.4	11.9	2.88e-04	0	43	102	1048576	21	5567
2026-01-04 08:24:43.54	356.73	10.87	-30.6	-34.4	11.9	4.26e-04	0	43	102	1048576	21	5550
2026-01-04 08:24:44.54	356.60	10.81	-30.7	-34.5	11.9	3.64e-04	0	43	102	1048576	21	5589
2026-01-04 08:24:45.55	356.48	10.74	-30.8	-34.8	11.6	5.07e-04	0	43	102	1048576	21	5735
2026-01-04 08:24:46.56	356.35	10.68	-30.8	-34.9	11.6	7.51e-04	0	43	102	1048576	21	5777
2026-01-04 08:24:47.57	356.23	10.61	-30.8	-34.9	11.6	6.00e-04	0	43	102	1048576	21	5792
2026-01-04 08:24:48.57	356.10	10.55	-30.8	-34.9	11.6	9.22e-04	0	43	102	1048576	21	5780
2026-01-04 08:24:49.57	355.98	10.48	-30.7	-34.5	11.8	5.33e-04	0	43	102	1048576	21	5620
2026-01-04 08:24:50.58	355.86	10.41	-30.7	-34.6	11.8	4.39e-04	0	43	102	1048576	21	5631
2026-01-04 08:24:51.60	355.73	10.35	-30.7	-34.7	11.7	4.57e-04	0	43	102	1048576	21	5678
2026-01-04 08:24:52.60	355.61	10.28	-30.7	-34.7	11.7	5.69e-04	0	43	102	1048576	21	5692
2026-01-04 08:24:53.61	355.49	10.22	-30.7	-34.8	11.6	6.78e-04	0	43	102	1048576	21	5738
2026-01-04 08:24:54.62	355.37	10.15	-30.8	-34.9	11.5	6.87e-04	0	43	102	1048576	21	5795
2026-01-04 08:24:55.62	355.25	10.09	-30.8	-34.9	11.5	9.07e-04	0	43	102	1048576	21	5802
2026-01-04 08:24:56.63	355.13	10.02	-30.8	-34.8	11.5	7.28e-04	0	43	102	1048576	21	5764
2026-01-04 08:24:57.64	355.01	9.96	-30.8	-34.9	11.5	7.37e-04	0	43	102	1048576	21	5809
2026-01-04 08:24:58.65	354.89	9.89	-30.8	-34.9	11.5	9.82e-04	0	43	102	1048576	21	5794
2026-01-04 08:24:59.65	354.77	9.83	-30.8	-35.0	11.4	8.41e-04	0	43	102	1048576	21	5827
2026-01-04 08:25:00.65	354.66	9.76	-30.8	-35.1	11.4	1.13e-03	0	43	102	1048576	21	5873
2026-01-04 08:25:01.66	354.54	9.70	-30.9	-35.2	11.2	1.12e-03	0	43	102	1048576	21	5948
2026-01-04 08:25:02.67	354.42	9.63	-30.8	-35.2	11.2	1.53e-03	0	43	102	1048576	21	5936
2026-01-04 08:25:03.67	354.31	9.57	-30.9	-35.4	11.1	1.35e-03	0	43	102	1048576	21	6028
2026-01-04 08:25:04.68	354.19	9.50	-30.9	-35.3	11.1	1.59e-03	0	43	102	1048576	21	5990
2026-01-04 08:25:05.69	354.08	9.44	-30.8	-35.0	11.3	1.34e-03	0	43	102	1048576	21	5845
2026-01-04 08:25:06.70	353.96	9.37	-30.7	-34.9	11.5	8.88e-04	0	43	102	1048576	21	5787
2026-01-04 08:25:07.71	353.85	9.31	-30.7	-34.8	11.5	9.11e-04	0	43	102	1048576	21	5771
2026-01-04 08:25:08.71	353.74	9.24	-30.7	-34.7	11.6	8.07e-04	0	43	102	1048576	21	5687
2026-01-04 08:25:09.72	353.62	9.18	-30.7	-34.7	11.6	7.51e-04	0	43	102	1048576	21	5703
2026-01-04 08:25:10.73	353.51	9.11	-30.7	-34.8	11.5	7.65e-04	0	43	102	1048576	21	5756
2026-01-04 08:25:11.73	353.40	9.05	-30.8	-35.0	11.3	8.80e-04	0	43	102	1048576	21	5837
2026-01-04 08:25:12.74	353.29	8.98	-30.8	-34.9	11.4	1.21e-03	0	43	102	1048576	21	5807
2026-01-04 08:25:13.75	353.18	8.92	-30.7	-34.9	11.4	9.12e-04	0	43	102	1048576	21	5799
2026-01-04 08:25:14.76	353.07	8.85	-30.8	-35.1	11.2	1.01e-03	0	43	102	1048576	21	5893
2026-01-04 08:25:15.77	352.96	8.79	-30.9	-35.3	11.0	1.55e-03	0	43	102	1048576	21	6021
2026-01-04 08:25:16.77	352.85	8.73	-30.9	-35.5	10.9	2.09e-03	0	43	102	1048576	21	6112
2026-01-04 08:25:17.78	352.74	8.66	-31.0	-35.3	10.7	2.92e-03	0	43	102	1048576	22	5874
2026-01-04 08:25:18.78	352.63	8.60	-31.2	-35.8	10.3	3.36e-03	0	43	102	1048576	22	6162
2026-01-04 08:25:19.79	352.53	8.53	-31.2	-35.8	10.3	5.67e-03	0	43	102	1048576	22	6146
2026-01-04 08:25:20.79	352.42	8.47	-31.1	-35.7	10.4	4.27e-03	0	43	102	1048576	22	6079
2026-01-04 08:25:21.80	352.31	8.41	-31.1	-35.8	10.3	4.85e-03	0	43	102	1048576	22	6138
2026-01-04 08:25:22.81	352.21	8.34	-31.2	-36.0	10.1	6.24e-03	0	43	102	1048576	22	6246
2026-01-04 08:25:23.81	352.10	8.28	-31.2	-36.0	10.2	7.26e-03	0	43	102	1048576	22	6226
2026-01-04 08:25:24.82	352.00	8.21	-31.2	-36.1	10.0	6.12e-03	0	43	102	1048576	22	6303
2026-01-04 08:25:25.83	351.89	8.15	-31.3	-36.5	9.7	1.05e-02	0	43	102	1048576	22	6548
2026-01-04 08:25:26.84	351.79	8.09	-31.2	-36.1	10.0	9.94e-03	0	43	102	1048576	22	6333
2026-01-04 08:25:27.84	351.68	8.02	-31.2	-35.9	10.2	7.25e-03	0	43	102	1048576	22	6210
2026-01-04 08:25:28.85	351.58	7.96	-31.1	-35.8	10.2	5.73e-03	0	43	102	1048576	22	6172
2026-01-04 08:25:29.85	351.48	7.90	-31.1	-35.8	10.3	5.47e-03	0	43	102	1048576	22	6137
2026-01-04 08:25:30.87	351.37	7.83	-31.1	-35.8	10.2	5.41e-03	0	43	102	1048576	22	6179
2026-01-04 08:25:31.87	351.27	7.77	-31.3	-36.3	9.8	7.57e-03	0	43	102	1048576	22	6423
2026-01-04 08:25:32.88	351.17	7.71	-31.2	-36.2	9.9	9.50e-03	0	43	102	1048576	22	6365
2026-01-04 08:25:33.89	351.07	7.64	-31.3	-36.6	9.6	1.09e-02	0	43	102	1048576	22	6597
2026-01-04 08:25:34.90	350.97	7.58	-31.3	-36.4	9.7	1.21e-02	0	43	102	1048576	22	6504
2026-01-04 08:25:35.91	350.87	7.52	-31.3	-36.3	9.8	1.03e-02	0	43	102	1048576	22	6433
2026-01-04 08:25:36.92	350.77	7.45	-31.3	-36.4	9.7	1.06e-02	0	43	102	1048576	22	6466
2026-01-04 08:25:37.93	350.67	7.39	-31.3	-36.4	9.7	1.15e-02	0	43	102	1048576	22	6489
2026-01-04 08:25:38.94	350.57	7.33	-31.3	-36.6	9.6	1.26e-02	0	43	102	1048576	22	6570
2026-01-04 08:25:39.95	350.47	7.27	-31.4	-36.8	9.4	1.45e-02	0	43	102	1048576	22	6738
2026-01-04 08:25:40.96	350.37	7.20	-31.3	-36.4	9.7	1.54e-02	0	43	102	1048576	22	6516
2026-01-04 08:25:41.95	350.28	7.14	-31.2	-36.2	9.8	1.09e-02	0	43	102	1048576	22	6404
2026-01-04 08:25:42.97	350.18	7.08	-31.1	-35.9	10.0	8.37e-03	0	43	102	1048576	22	6254
2026-01-04 08:25:43.98	350.08	7.02	-33.1	-45.3	3.8	1.06e+00	0	43	104	1048576	26	14694

#Closed at: 2026-01-04 08:25:44
#Recorded file [1 MB]: D:/data/31010_260104_111638.dat