passes_logs/2026/01/04/R2M6_AANII_01/R2M6_AANII_01__20260104_014204_NOAA_20_JPSS-1_rec.log

#Pass ID: 20260104_014204_NOAA 20 (JPSS-1)
#Satellite: NOAA 20 (JPSS-1)
#Configuration: NOAA 20
#almurnet v.1.7.20240730
#Start time: 2026-01-04 01:42:04

#Version: 2.2.20231116
#Station: R2M6_AANII_01
#Location: 30.233357 lon 59.946436 lat
#TLE: 1 43013U 17073A   26003.41800368  .00000169  00000+0  10117-3 0  9998
#TLE: 2 43013  98.7624 304.4804 0001884  56.1176 304.0179 14.19532918421092

#Time	Az	El	Level	Level2	SNR	BER	BlckErr	Temp	State	Recorded	gain1	gain2
2026-01-04 01:42:04.34	12.31	6.96	-32.2	-39.7	4.7	1.34e+00	0	40	0	0	24	8567
2026-01-04 01:42:05.35	12.24	7.03	-32.1	-39.4	4.7	1.32e+00	0	40	104	0	24	8316
2026-01-04 01:42:06.36	12.18	7.10	-32.1	-39.2	6.8	2.07e-01	0	41	0	0	24	8131
2026-01-04 01:42:07.35	12.11	7.17	-32.1	-39.1	6.9	1.61e-01	0	40	102	1048576	24	8037
2026-01-04 01:42:08.36	12.04	7.24	-32.1	-39.0	6.9	1.81e-01	0	40	102	1048576	24	7989
2026-01-04 01:42:09.36	11.98	7.31	-32.1	-38.8	7.1	1.61e-01	0	40	102	1048576	24	7833
2026-01-04 01:42:10.37	11.91	7.38	-32.1	-38.9	7.1	1.44e-01	0	41	102	1048576	24	7858
2026-01-04 01:42:11.37	11.84	7.45	-32.1	-38.8	7.2	1.38e-01	0	41	102	1048576	24	7815
2026-01-04 01:42:12.38	11.77	7.53	-32.2	-39.2	6.8	1.62e-01	0	41	102	1048576	24	8109
2026-01-04 01:42:13.38	11.71	7.60	-32.2	-39.6	6.6	2.18e-01	0	41	102	1048576	24	8371
2026-01-04 01:42:14.39	11.64	7.67	-32.0	-38.6	7.4	1.31e-01	0	41	102	1048576	24	7613
2026-01-04 01:42:15.39	11.57	7.74	-31.8	-38.0	8.2	7.25e-02	0	41	102	1048576	23	7343
2026-01-04 01:42:16.40	11.50	7.81	-31.8	-37.7	8.5	4.51e-02	0	41	102	1048576	23	7119
2026-01-04 01:42:17.40	11.43	7.89	-31.8	-37.9	8.3	6.07e-02	0	41	102	1048576	23	7243
2026-01-04 01:42:18.40	11.36	7.96	-31.7	-37.4	8.7	3.28e-02	0	41	102	1048576	23	6924
2026-01-04 01:42:19.41	11.29	8.03	-31.7	-37.4	8.7	3.59e-02	0	41	102	1048576	23	6960
2026-01-04 01:42:20.41	11.22	8.10	-31.7	-37.4	8.7	3.85e-02	0	41	102	1048576	23	6937
2026-01-04 01:42:21.41	11.15	8.18	-31.7	-37.2	8.9	3.07e-02	0	41	102	1048576	23	6806
2026-01-04 01:42:22.42	11.07	8.25	-31.7	-37.3	8.9	2.68e-02	0	41	102	1048576	23	6832
2026-01-04 01:42:23.42	11.00	8.32	-31.7	-37.3	8.9	3.10e-02	0	41	102	1048576	23	6835
2026-01-04 01:42:24.43	10.93	8.40	-31.7	-37.2	8.9	2.84e-02	0	41	102	1048576	23	6817
2026-01-04 01:42:25.44	10.86	8.47	-31.8	-37.8	8.5	3.55e-02	0	41	102	1048576	23	7138
2026-01-04 01:42:26.44	10.78	8.54	-31.9	-37.9	8.3	5.86e-02	0	41	102	1048576	23	7251
2026-01-04 01:42:27.44	10.71	8.62	-31.6	-37.0	9.1	2.69e-02	0	41	102	1048576	23	6671
2026-01-04 01:42:28.45	10.63	8.69	-31.5	-36.3	9.6	1.46e-02	0	41	102	1048576	23	6269
2026-01-04 01:42:29.45	10.56	8.77	-31.2	-36.0	10.3	8.80e-03	0	41	102	1048576	22	6224
2026-01-04 01:42:30.46	10.48	8.84	-31.1	-35.5	10.7	7.31e-03	0	41	102	1048576	22	5983
2026-01-04 01:42:31.47	10.41	8.92	-31.0	-35.1	10.9	2.39e-03	0	41	102	1048576	22	5796
2026-01-04 01:42:32.47	10.33	8.99	-30.9	-35.4	11.1	1.66e-03	0	41	102	1048576	21	6050
2026-01-04 01:42:33.48	10.26	9.07	-31.0	-35.3	10.9	2.53e-03	0	41	102	1048576	22	5865
2026-01-04 01:42:34.48	10.18	9.14	-31.0	-35.0	11.1	1.83e-03	0	41	102	1048576	22	5717
2026-01-04 01:42:35.49	10.10	9.22	-30.9	-35.5	11.1	1.44e-03	0	42	102	1048576	21	6053
2026-01-04 01:42:36.50	10.03	9.29	-30.9	-35.4	11.1	1.59e-03	0	41	102	1048576	21	6036
2026-01-04 01:42:37.51	9.95	9.37	-31.0	-35.6	11.1	1.74e-03	0	42	102	1048576	21	6113
2026-01-04 01:42:38.51	9.87	9.45	-31.2	-35.6	10.7	2.53e-03	0	41	102	1048576	22	6031
2026-01-04 01:42:39.52	9.79	9.52	-31.2	-35.6	10.7	3.69e-03	0	41	102	1048576	22	6015
2026-01-04 01:42:40.53	9.71	9.60	-31.1	-35.5	10.8	2.63e-03	0	42	102	1048576	22	5973
2026-01-04 01:42:41.53	9.63	9.68	-31.2	-35.6	10.7	3.75e-03	0	42	102	1048576	22	6031
2026-01-04 01:42:42.54	9.55	9.75	-31.1	-35.2	11.0	2.09e-03	0	41	102	1048576	22	5831
2026-01-04 01:42:43.55	9.47	9.83	-31.0	-35.0	11.2	1.66e-03	0	41	102	1048576	22	5730
2026-01-04 01:42:44.56	9.39	9.91	-31.0	-35.1	11.1	1.51e-03	0	42	102	1048576	22	5768
2026-01-04 01:42:45.56	9.31	9.99	-31.1	-35.3	11.0	1.68e-03	0	42	102	1048576	22	5868
2026-01-04 01:42:46.57	9.23	10.06	-31.1	-35.3	10.9	1.95e-03	0	41	102	1048576	22	5857
2026-01-04 01:42:47.58	9.14	10.14	-31.0	-35.5	11.2	4.14e-03	0	42	102	1048576	21	6044
2026-01-04 01:42:48.58	9.06	10.22	-31.0	-35.4	11.3	1.16e-03	0	42	102	1048576	21	6016
2026-01-04 01:42:49.59	8.98	10.30	-31.1	-35.4	10.9	1.68e-03	0	42	102	1048576	22	5922
2026-01-04 01:42:50.60	8.89	10.38	-31.1	-35.3	11.0	4.60e-03	0	42	102	1048576	22	5843
2026-01-04 01:42:51.60	8.81	10.45	-30.9	-35.3	11.3	1.38e-03	0	42	102	1048576	21	5982
2026-01-04 01:42:52.61	8.72	10.53	-31.0	-35.4	11.1	1.21e-03	0	42	102	1048576	21	6025
2026-01-04 01:42:53.61	8.64	10.61	-31.0	-35.4	11.2	1.54e-03	0	42	102	1048576	21	5990
2026-01-04 01:42:54.62	8.55	10.69	-30.9	-35.3	11.4	3.72e-03	0	42	102	1048576	21	5940
2026-01-04 01:42:55.62	8.47	10.77	-30.9	-35.2	11.4	9.58e-04	0	42	102	1048576	21	5917
2026-01-04 01:42:56.63	8.38	10.85	-31.0	-35.4	11.3	1.08e-03	0	42	102	1048576	21	6022
2026-01-04 01:42:57.64	8.29	10.93	-31.0	-35.2	11.2	3.89e-03	0	41	102	1048576	22	5774
2026-01-04 01:42:58.65	8.21	11.01	-31.0	-35.0	11.3	1.70e-03	0	42	102	1048576	22	5683
2026-01-04 01:42:59.65	8.12	11.09	-30.9	-35.2	11.5	1.02e-03	0	42	102	1048576	21	5913
2026-01-04 01:43:00.66	8.03	11.17	-30.9	-35.2	11.5	3.53e-03	0	42	102	1048576	21	5918
2026-01-04 01:43:01.67	7.94	11.25	-30.9	-35.1	11.6	9.68e-04	0	42	102	1048576	21	5826
2026-01-04 01:43:02.67	7.85	11.33	-30.9	-35.0	11.6	7.24e-04	0	42	102	1048576	21	5823
2026-01-04 01:43:03.68	7.76	11.41	-30.8	-34.9	11.7	6.08e-04	0	42	102	1048576	21	5769
2026-01-04 01:43:04.69	7.67	11.49	-30.8	-34.9	11.7	8.52e-04	0	42	102	1048576	21	5762
2026-01-04 01:43:05.70	7.58	11.57	-30.9	-35.3	11.5	3.27e-03	0	42	102	1048576	21	5923
2026-01-04 01:43:06.70	7.49	11.66	-30.9	-35.0	11.7	9.06e-04	0	42	102	1048576	21	5794
2026-01-04 01:43:07.71	7.39	11.74	-30.9	-35.1	11.6	8.10e-04	0	42	102	1048576	21	5842
2026-01-04 01:43:08.71	7.30	11.82	-30.8	-34.9	11.8	3.01e-03	0	42	102	1048576	21	5759
2026-01-04 01:43:09.72	7.21	11.90	-30.7	-34.6	12.0	1.27e-03	0	42	102	1048576	21	5632
2026-01-04 01:43:10.73	7.11	11.98	-30.7	-34.5	12.1	6.12e-04	0	42	102	1048576	21	5554
2026-01-04 01:43:11.73	7.02	12.07	-30.7	-34.5	12.1	2.89e-03	0	42	102	1048576	21	5552
2026-01-04 01:43:12.73	6.92	12.15	-30.7	-34.5	12.1	2.63e-03	0	42	102	1048576	21	5559
2026-01-04 01:43:13.74	6.83	12.23	-30.7	-34.3	12.2	2.87e-04	0	42	102	1048576	21	5502
2026-01-04 01:43:14.75	6.73	12.31	-30.6	-34.2	12.3	2.67e-03	0	42	102	1048576	21	5428
2026-01-04 01:43:15.75	6.64	12.40	-30.7	-34.3	12.2	2.39e-03	0	42	102	1048576	21	5493
2026-01-04 01:43:16.76	6.54	12.48	-30.6	-34.0	12.4	3.52e-04	0	42	102	1048576	21	5375
2026-01-04 01:43:17.76	6.44	12.56	-30.6	-34.0	12.4	2.51e-03	0	42	102	1048576	21	5375
2026-01-04 01:43:18.77	6.34	12.65	-30.6	-34.1	12.4	2.66e-03	0	42	102	1048576	21	5395
2026-01-04 01:43:19.77	6.24	12.73	-30.7	-34.4	12.2	3.20e-04	0	42	102	1048576	21	5530
2026-01-04 01:43:20.78	6.14	12.82	-30.6	-34.1	12.4	2.23e-03	0	42	102	1048576	21	5418
2026-01-04 01:43:21.79	6.04	12.90	-30.6	-34.1	12.4	2.72e-03	0	42	102	1048576	21	5404
2026-01-04 01:43:22.79	5.94	12.99	-30.6	-34.1	12.4	4.87e-04	0	42	102	1048576	21	5394
2026-01-04 01:43:23.79	5.84	13.07	-30.6	-34.2	12.3	2.78e-03	0	42	102	1048576	21	5438
2026-01-04 01:43:24.79	5.74	13.15	-30.7	-34.3	12.3	2.58e-03	0	42	102	1048576	21	5466
2026-01-04 01:43:25.79	5.64	13.24	-30.6	-34.2	12.3	7.23e-04	0	42	102	1048576	21	5453
2026-01-04 01:43:26.80	5.54	13.32	-30.7	-34.5	12.1	2.55e-03	0	42	102	1048576	21	5580
2026-01-04 01:43:27.81	5.43	13.41	-30.6	-34.2	12.4	1.73e-04	0	42	102	1048576	21	5424
2026-01-04 01:43:28.82	5.33	13.50	-30.5	-33.8	12.6	5.96e-04	0	42	102	1048576	21	5287
2026-01-04 01:43:29.82	5.22	13.58	-30.5	-33.9	12.6	2.99e-03	0	42	102	1048576	21	5314
2026-01-04 01:43:30.83	5.12	13.67	-30.5	-33.7	12.7	1.02e-04	0	42	102	1048576	21	5244
2026-01-04 01:43:31.83	5.01	13.75	-30.6	-34.1	12.5	5.01e-04	0	42	102	1048576	21	5385
2026-01-04 01:43:32.84	4.90	13.84	-30.5	-33.9	12.6	2.94e-03	0	42	102	1048576	21	5323
2026-01-04 01:43:33.85	4.80	13.93	-30.5	-33.8	12.6	7.17e-05	0	42	102	1048576	21	5289
2026-01-04 01:43:34.86	4.69	14.02	-30.5	-33.9	12.6	3.37e-04	0	42	102	1048576	21	5320
2026-01-04 01:43:35.86	4.58	14.10	-30.6	-34.3	12.3	2.71e-03	0	42	102	1048576	21	5465
2026-01-04 01:43:36.87	4.47	14.19	-30.6	-34.1	12.5	2.76e-03	0	42	102	1048576	21	5382
2026-01-04 01:43:37.88	4.36	14.28	-30.5	-33.9	12.7	1.64e-04	0	42	102	1048576	21	5288
2026-01-04 01:43:38.88	4.25	14.37	-30.5	-33.8	12.7	9.68e-05	0	42	102	1048576	21	5255
2026-01-04 01:43:39.88	4.14	14.45	-30.5	-33.8	12.7	2.70e-03	0	42	102	1048576	21	5259
2026-01-04 01:43:40.90	4.02	14.54	-30.5	-33.7	12.8	6.48e-05	0	42	102	1048576	21	5226
2026-01-04 01:43:41.90	3.91	14.63	-30.4	-34.1	12.8	5.79e-05	0	42	102	1048576	20	5508
2026-01-04 01:43:42.91	3.80	14.72	-30.4	-34.0	12.9	2.07e-03	0	42	102	1048576	20	5453
2026-01-04 01:43:43.92	3.68	14.81	-30.4	-34.1	12.8	5.03e-05	0	42	102	1048576	20	5512
2026-01-04 01:43:44.92	3.57	14.90	-30.5	-33.8	12.7	5.56e-05	0	43	102	1048576	21	5263
2026-01-04 01:43:45.93	3.45	14.99	-30.7	-34.3	12.4	1.02e-04	0	43	102	1048576	21	5453
2026-01-04 01:43:46.94	3.33	15.08	-30.5	-33.9	12.7	3.56e-04	0	42	102	1048576	21	5298
2026-01-04 01:43:47.95	3.22	15.17	-30.6	-34.0	12.6	8.39e-05	0	42	102	1048576	21	5326
2026-01-04 01:43:48.95	3.10	15.26	-30.7	-34.4	12.3	1.27e-04	0	43	102	1048576	21	5489
2026-01-04 01:43:49.96	2.98	15.35	-30.6	-34.1	12.5	1.47e-04	0	43	102	1048576	21	5396
2026-01-04 01:43:50.96	2.86	15.44	-30.7	-34.5	12.3	1.46e-04	0	43	102	1048576	21	5540
2026-01-04 01:43:51.97	2.74	15.53	-30.6	-34.0	12.6	1.20e-04	0	42	102	1048576	21	5358
2026-01-04 01:43:52.98	2.62	15.62	-30.5	-33.8	12.8	9.68e-05	0	42	102	1048576	21	5254
2026-01-04 01:43:53.98	2.50	15.71	-30.5	-33.9	12.8	5.79e-05	0	42	102	1048576	21	5280
2026-01-04 01:43:54.99	2.38	15.80	-30.6	-34.0	12.7	7.78e-05	0	43	102	1048576	21	5334
2026-01-04 01:43:55.99	2.25	15.89	-30.7	-34.4	12.4	8.62e-05	0	43	102	1048576	21	5489
2026-01-04 01:43:57.00	2.13	15.99	-29.7	-33.1	12.6	9.23e-05	0	42	102	1048576	21	5372
2026-01-04 01:43:58.01	2.00	16.08	-30.5	-33.8	12.8	6.56e-05	0	42	102	1048576	21	5242
2026-01-04 01:43:59.01	1.88	16.17	-30.5	-33.9	11.6	6.79e-05	0	42	102	1048576	21	5299
2026-01-04 01:44:00.02	1.75	16.26	-30.6	-34.0	11.7	2.59e-04	0	43	102	1048576	21	5321
2026-01-04 01:44:01.03	1.62	16.36	-30.7	-34.3	12.4	9.15e-05	0	43	102	1048576	21	5468
2026-01-04 01:44:02.03	1.50	16.45	-30.8	-34.5	12.3	1.61e-04	0	42	102	1048576	21	5539
2026-01-04 01:44:03.04	1.37	16.54	-30.8	-34.5	12.3	3.62e-04	0	42	102	1048576	21	5518
2026-01-04 01:44:04.04	1.24	16.63	-30.8	-34.6	12.3	1.65e-04	0	42	102	1048576	21	5560
2026-01-04 01:44:05.05	1.11	16.73	-30.7	-34.4	12.5	1.61e-04	0	42	102	1048576	21	5485
2026-01-04 01:44:06.06	0.97	16.82	-30.7	-34.4	12.4	1.30e-04	0	43	102	1048576	21	5481
2026-01-04 01:44:07.06	0.84	16.91	-30.9	-34.8	12.1	4.57e-04	0	43	102	1048576	21	5662
2026-01-04 01:44:08.06	0.71	17.01	-30.7	-34.4	12.5	1.31e-04	0	43	102	1048576	21	5473
2026-01-04 01:44:09.07	0.58	17.10	-30.7	-34.2	12.6	1.46e-04	0	43	102	1048576	21	5405
2026-01-04 01:44:10.08	0.44	17.20	-30.6	-34.1	12.6	9.46e-05	0	43	102	1048576	21	5366
2026-01-04 01:44:11.09	0.31	17.29	-30.6	-34.1	12.6	2.58e-03	0	42	102	1048576	21	5373
2026-01-04 01:44:12.09	0.17	17.39	-30.6	-34.1	12.6	7.85e-05	0	43	102	1048576	21	5365
2026-01-04 01:44:13.09	0.03	17.48	-30.6	-34.1	12.7	8.23e-05	0	43	102	1048576	21	5343
2026-01-04 01:44:14.10	359.89	17.58	-30.7	-34.3	12.5	2.82e-03	0	43	102	1048576	21	5430
2026-01-04 01:44:15.10	359.76	17.67	-30.6	-34.1	12.7	3.48e-04	0	43	102	1048576	21	5353
2026-01-04 01:44:16.11	359.62	17.77	-30.6	-34.1	12.7	6.86e-05	0	43	102	1048576	21	5347
2026-01-04 01:44:17.12	359.47	17.86	-30.7	-34.2	12.6	2.64e-03	0	43	102	1048576	21	5419
2026-01-04 01:44:18.12	359.33	17.96	-30.7	-34.3	12.6	2.47e-03	0	42	102	1048576	21	5440
2026-01-04 01:44:19.13	359.19	18.05	-30.9	-34.7	12.3	1.17e-04	0	43	102	1048576	21	5618
2026-01-04 01:44:20.14	359.05	18.15	-30.8	-34.6	12.4	1.60e-04	0	43	102	1048576	21	5572
2026-01-04 01:44:21.14	358.90	18.25	-30.8	-34.7	12.3	2.89e-03	0	43	102	1048576	21	5604
2026-01-04 01:44:22.15	358.76	18.34	-30.9	-34.7	12.0	4.20e-04	0	43	102	1048576	21	5623
2026-01-04 01:44:23.16	358.61	18.44	-30.8	-34.6	12.0	1.61e-04	0	43	102	1048576	21	5549
2026-01-04 01:44:24.17	358.46	18.54	-30.8	-34.5	12.4	2.68e-03	0	42	102	1048576	21	5532
2026-01-04 01:44:25.18	358.31	18.63	-30.8	-34.4	12.4	3.95e-04	0	43	102	1048576	21	5494
2026-01-04 01:44:26.19	358.16	18.73	-30.8	-34.5	12.5	1.03e-03	0	43	102	1048576	21	5514
2026-01-04 01:44:27.20	358.01	18.83	-30.8	-34.4	12.5	2.51e-03	0	43	102	1048576	21	5472
2026-01-04 01:44:28.20	357.86	18.93	-30.8	-34.5	12.5	3.85e-04	0	43	102	1048576	21	5497
2026-01-04 01:44:29.21	357.71	19.03	-30.8	-34.6	12.4	2.45e-03	0	43	102	1048576	21	5578
2026-01-04 01:44:30.21	357.55	19.12	-31.1	-34.8	12.0	2.87e-03	0	43	102	1048576	22	5516
2026-01-04 01:44:31.22	357.40	19.22	-31.2	-35.1	11.8	9.25e-04	0	43	102	1048576	22	5661
2026-01-04 01:44:32.22	357.24	19.32	-31.0	-35.0	12.1	2.85e-03	0	43	102	1048576	21	5723
2026-01-04 01:44:33.23	357.09	19.42	-31.1	-35.0	11.8	2.81e-03	0	43	102	1048576	22	5631
2026-01-04 01:44:34.23	356.93	19.52	-31.2	-35.1	11.7	1.27e-03	0	43	102	1048576	22	5661
2026-01-04 01:44:35.24	356.77	19.62	-31.2	-35.2	11.7	3.02e-03	0	43	102	1048576	22	5706
2026-01-04 01:44:36.24	356.61	19.71	-31.1	-35.0	11.8	2.68e-03	0	43	102	1048576	22	5600
2026-01-04 01:44:37.24	356.45	19.81	-31.1	-34.8	12.0	1.08e-03	0	43	102	1048576	22	5524
2026-01-04 01:44:38.25	356.29	19.91	-31.1	-34.9	11.9	2.55e-03	0	43	102	1048576	22	5555
2026-01-04 01:44:39.25	356.13	20.01	-31.1	-34.8	12.0	2.79e-03	0	43	102	1048576	22	5519
2026-01-04 01:44:40.26	355.97	20.11	-31.2	-35.1	11.8	1.10e-03	0	43	102	1048576	22	5643
2026-01-04 01:44:41.27	355.80	20.21	-31.3	-35.5	11.5	3.91e-03	0	43	102	1048576	22	5832
2026-01-04 01:44:42.28	355.63	20.31	-31.1	-34.8	12.0	2.68e-03	0	43	102	1048576	22	5510
2026-01-04 01:44:43.28	355.47	20.41	-30.9	-34.7	12.3	4.44e-04	0	43	102	1048576	21	5590
2026-01-04 01:44:44.28	355.30	20.51	-30.7	-34.3	12.6	8.19e-04	0	42	102	1048576	21	5442
2026-01-04 01:44:45.29	355.13	20.61	-30.6	-34.0	12.9	1.84e-03	0	43	102	1048576	21	5298
2026-01-04 01:44:46.30	354.96	20.71	-30.6	-34.0	12.9	2.39e-04	0	43	102	1048576	21	5302
2026-01-04 01:44:47.30	354.79	20.81	-30.6	-34.0	12.9	5.68e-04	0	43	102	1048576	21	5313
2026-01-04 01:44:48.31	354.61	20.91	-30.6	-34.0	12.9	1.91e-04	0	43	102	1048576	21	5316
2026-01-04 01:44:49.32	354.44	21.02	-30.7	-34.1	12.8	2.51e-04	0	43	102	1048576	21	5354
2026-01-04 01:44:50.32	354.27	21.12	-30.7	-34.3	12.7	5.39e-04	0	43	102	1048576	21	5394
2026-01-04 01:44:51.33	354.09	21.22	-30.5	-33.7	13.1	5.56e-05	0	43	102	1048576	21	5162
2026-01-04 01:44:52.34	353.91	21.32	-30.5	-33.5	13.2	6.61e-04	0	43	102	1048576	21	5096
2026-01-04 01:44:53.35	353.73	21.42	-30.5	-33.5	13.3	4.90e-04	0	43	102	1048576	21	5098
2026-01-04 01:44:54.35	353.55	21.52	-30.4	-33.3	13.3	2.44e-05	0	43	102	1048576	21	5041
2026-01-04 01:44:55.35	353.37	21.62	-30.5	-33.9	13.3	4.16e-04	0	43	102	1048576	20	5385
2026-01-04 01:44:56.36	353.19	21.72	-30.5	-33.7	13.1	1.51e-03	0	43	102	1048576	21	5169
2026-01-04 01:44:57.37	353.00	21.83	-30.5	-34.0	13.2	2.21e-05	0	43	102	1048576	20	5417
2026-01-04 01:44:58.38	352.82	21.93	-30.6	-33.9	13.0	5.18e-04	0	43	102	1048576	21	5255
2026-01-04 01:44:59.39	352.63	22.03	-30.7	-34.2	12.8	5.29e-04	0	43	102	1048576	21	5361
2026-01-04 01:45:00.39	352.45	22.13	-30.6	-34.0	12.9	4.57e-05	0	43	102	1048576	21	5285
2026-01-04 01:45:01.40	352.26	22.23	-30.7	-34.0	12.9	4.49e-04	0	43	102	1048576	21	5310
2026-01-04 01:45:02.41	352.07	22.34	-30.6	-33.9	13.0	3.17e-04	0	43	102	1048576	21	5245
2026-01-04 01:45:03.42	351.87	22.44	-30.6	-34.0	13.0	4.34e-05	0	43	102	1048576	21	5295
2026-01-04 01:45:04.43	351.68	22.54	-30.8	-34.3	12.7	2.39e-04	0	43	102	1048576	21	5425
2026-01-04 01:45:05.43	351.49	22.64	-30.7	-34.3	12.7	2.07e-04	0	43	102	1048576	21	5397
2026-01-04 01:45:06.44	351.29	22.75	-30.8	-34.4	12.7	7.47e-05	0	43	102	1048576	21	5463
2026-01-04 01:45:07.45	351.10	22.85	-30.9	-34.7	12.5	1.32e-04	0	43	102	1048576	21	5587
2026-01-04 01:45:08.45	350.90	22.95	-30.9	-34.2	12.5	2.68e-04	0	43	102	1048576	22	5268
2026-01-04 01:45:09.46	350.70	23.05	-30.8	-34.4	12.7	1.33e-04	0	43	102	1048576	21	5456
2026-01-04 01:45:10.46	350.50	23.16	-30.9	-34.6	12.6	8.31e-05	0	43	102	1048576	21	5517
2026-01-04 01:45:11.47	350.30	23.26	-30.9	-34.8	12.4	2.55e-04	0	43	102	1048576	21	5629
2026-01-04 01:45:12.48	350.10	23.36	-31.0	-34.5	12.2	1.95e-04	0	43	102	1048576	22	5398
2026-01-04 01:45:13.49	349.89	23.47	-30.9	-34.2	12.5	8.77e-05	0	43	102	1048576	22	5265
2026-01-04 01:45:14.48	349.69	23.57	-30.9	-34.7	12.4	1.23e-04	0	43	102	1048576	21	5573
2026-01-04 01:45:15.49	349.48	23.67	-30.9	-34.8	12.3	1.27e-04	0	43	102	1048576	21	5629
2026-01-04 01:45:16.50	349.27	23.77	-31.0	-34.9	12.4	1.93e-03	0	43	102	1048576	21	5646
2026-01-04 01:45:17.51	349.06	23.88	-31.0	-34.8	12.4	1.47e-04	0	43	102	1048576	21	5627
2026-01-04 01:45:18.52	348.85	23.98	-31.0	-34.9	12.4	1.61e-04	0	43	102	1048576	21	5638
2026-01-04 01:45:19.52	348.64	24.08	-31.0	-34.5	12.3	1.74e-04	0	43	102	1048576	22	5393
2026-01-04 01:45:20.53	348.42	24.18	-31.2	-35.1	11.9	1.76e-03	0	43	102	1048576	22	5646
2026-01-04 01:45:21.54	348.21	24.29	-31.2	-35.0	12.0	4.32e-04	0	43	102	1048576	22	5601
2026-01-04 01:45:22.54	347.99	24.39	-31.0	-34.9	12.4	2.92e-04	0	43	102	1048576	21	5638
2026-01-04 01:45:23.55	347.77	24.49	-30.9	-34.8	12.5	4.60e-04	0	43	102	1048576	21	5591
2026-01-04 01:45:24.56	347.55	24.59	-31.1	-34.9	12.1	1.97e-04	0	43	102	1048576	22	5528
2026-01-04 01:45:25.56	347.33	24.69	-31.2	-35.2	11.9	4.12e-04	0	43	102	1048576	22	5657
2026-01-04 01:45:26.56	347.11	24.80	-31.2	-35.1	12.0	3.87e-04	0	43	102	1048576	22	5608
2026-01-04 01:45:27.57	346.88	24.90	-31.2	-35.0	12.0	3.54e-04	0	43	102	1048576	22	5601
2026-01-04 01:45:28.58	346.66	25.00	-31.2	-35.0	12.0	3.91e-04	0	43	102	1048576	22	5571
2026-01-04 01:45:29.59	346.43	25.10	-31.2	-35.1	11.9	3.48e-04	0	43	102	1048576	22	5646
2026-01-04 01:45:30.59	346.20	25.20	-31.2	-35.1	11.9	3.80e-04	0	43	102	1048576	22	5646
2026-01-04 01:45:31.60	345.97	25.31	-31.2	-35.0	12.0	1.95e-03	0	43	102	1048576	22	5570
2026-01-04 01:45:32.61	345.74	25.41	-31.3	-35.3	11.8	4.79e-04	0	43	102	1048576	22	5723
2026-01-04 01:45:33.61	345.51	25.51	-31.2	-34.9	12.1	3.71e-04	0	43	102	1048576	22	5557
2026-01-04 01:45:34.61	345.27	25.61	-30.8	-34.4	12.8	1.97e-03	0	43	102	1048576	21	5438
2026-01-04 01:45:35.62	345.04	25.71	-30.6	-33.8	13.1	3.43e-05	0	43	102	1048576	21	5222
2026-01-04 01:45:36.62	344.80	25.81	-30.5	-33.6	13.3	2.67e-05	0	43	102	1048576	21	5145
2026-01-04 01:45:37.63	344.56	25.91	-30.5	-33.4	13.4	1.92e-03	0	43	102	1048576	21	5068
2026-01-04 01:45:38.63	344.32	26.01	-30.5	-33.6	13.3	1.74e-03	0	43	102	1048576	21	5141
2026-01-04 01:45:39.64	344.08	26.11	-30.6	-33.9	13.1	1.98e-05	0	43	102	1048576	21	5229
2026-01-04 01:45:40.64	343.84	26.21	-30.5	-33.5	13.3	1.81e-03	0	43	102	1048576	21	5096
2026-01-04 01:45:41.65	343.59	26.31	-30.5	-33.6	13.3	2.02e-03	0	43	102	1048576	21	5132
2026-01-04 01:45:42.66	343.34	26.42	-30.7	-34.1	13.0	2.89e-05	0	43	102	1048576	21	5329
2026-01-04 01:45:43.67	343.09	26.52	-30.7	-34.0	13.1	2.38e-03	0	43	102	1048576	21	5283
2026-01-04 01:45:44.67	342.84	26.61	-30.5	-33.4	13.4	2.28e-03	0	43	102	1048576	21	5070
2026-01-04 01:45:45.67	342.59	26.71	-30.4	-33.1	13.6	7.60e-06	0	43	102	1048576	21	4944
2026-01-04 01:45:46.68	342.34	26.81	-30.3	-33.4	13.8	2.23e-03	0	43	102	1048576	20	5162
2026-01-04 01:45:47.69	342.08	26.91	-30.3	-33.4	13.8	2.06e-03	0	43	102	1048576	20	5158
2026-01-04 01:45:48.69	341.83	27.01	-30.4	-33.9	13.5	1.06e-05	0	43	102	1048576	20	5336
2026-01-04 01:45:49.70	341.57	27.11	-30.5	-33.6	12.8	1.60e-05	0	43	102	1048576	21	5113
2026-01-04 01:45:50.71	341.31	27.21	-30.7	-34.0	13.0	2.29e-03	0	43	102	1048576	21	5281
2026-01-04 01:45:51.72	341.05	27.30	-30.7	-34.1	12.9	3.81e-05	0	43	102	1048576	21	5333
2026-01-04 01:45:52.72	340.79	27.40	-30.7	-34.1	12.9	2.34e-03	0	43	102	1048576	21	5313
2026-01-04 01:45:53.73	340.52	27.50	-30.8	-34.3	12.9	4.42e-05	0	43	102	1048576	21	5385
2026-01-04 01:45:54.74	340.25	27.59	-30.7	-34.1	13.0	4.11e-05	0	43	102	1048576	21	5333
2026-01-04 01:45:55.74	339.99	27.69	-30.6	-33.9	13.1	2.26e-03	0	43	102	1048576	21	5247
2026-01-04 01:45:56.75	339.72	27.79	-30.8	-34.2	12.9	3.89e-05	0	43	102	1048576	21	5378
2026-01-04 01:45:57.75	339.45	27.88	-30.8	-34.4	12.8	7.01e-05	0	43	102	1048576	21	5444
2026-01-04 01:45:58.76	339.17	27.98	-31.0	-34.5	12.4	2.02e-03	0	43	102	1048576	22	5373
2026-01-04 01:45:59.77	338.90	28.07	-31.1	-34.8	12.2	2.01e-04	0	43	102	1048576	22	5476
2026-01-04 01:46:00.77	338.62	28.16	-31.1	-34.7	12.3	1.92e-04	0	43	102	1048576	22	5457
2026-01-04 01:46:01.78	338.34	28.26	-31.2	-34.9	12.2	1.74e-03	0	43	102	1048576	22	5542
2026-01-04 01:46:02.79	338.06	28.35	-31.3	-35.2	11.9	1.94e-03	0	43	102	1048576	22	5676
2026-01-04 01:46:03.80	337.78	28.45	-31.4	-35.8	11.5	2.43e-03	0	43	102	1048576	22	5932
2026-01-04 01:46:04.80	337.50	28.54	-31.5	-35.5	11.4	1.03e-03	0	43	102	1048576	23	5681
2026-01-04 01:46:05.82	337.21	28.63	-31.6	-35.7	11.2	2.43e-03	0	43	102	1048576	23	5798
2026-01-04 01:46:06.82	336.93	28.72	-31.6	-35.9	11.1	2.89e-03	0	43	102	1048576	23	5861
2026-01-04 01:46:07.83	336.64	28.81	-31.7	-36.1	11.0	2.33e-03	0	43	102	1048576	23	5960
2026-01-04 01:46:08.83	336.35	28.90	-31.7	-36.1	10.9	2.88e-03	0	43	102	1048576	23	5987
2026-01-04 01:46:09.84	336.06	28.99	-31.9	-36.6	10.5	4.00e-03	0	43	102	1048576	23	6213
2026-01-04 01:46:10.85	335.77	29.08	-31.9	-36.7	10.5	5.40e-03	0	43	102	1048576	23	6259
2026-01-04 01:46:11.86	335.47	29.17	-32.0	-37.0	10.3	4.42e-03	0	43	102	1048576	23	6402
2026-01-04 01:46:12.87	335.17	29.26	-32.0	-36.7	10.2	6.64e-03	0	43	102	1048576	24	6158
2026-01-04 01:46:13.87	334.88	29.35	-32.0	-36.7	10.1	6.50e-03	0	43	102	1048576	24	6180
2026-01-04 01:46:14.87	334.58	29.43	-32.2	-37.1	9.8	7.39e-03	0	43	102	1048576	24	6400
2026-01-04 01:46:15.88	334.28	29.52	-32.1	-36.9	10.0	8.98e-03	0	43	102	1048576	24	6265
2026-01-04 01:46:16.89	333.98	29.61	-32.0	-36.6	10.2	5.38e-03	0	43	102	1048576	24	6083
2026-01-04 01:46:17.90	333.67	29.69	-32.0	-36.6	10.2	5.38e-03	0	43	102	1048576	24	6078
2026-01-04 01:46:18.90	333.37	29.78	-32.3	-37.6	9.4	6.68e-03	0	43	102	1048576	24	6656
2026-01-04 01:46:19.91	333.06	29.86	-32.3	-37.8	9.2	1.89e-02	0	43	102	1048576	24	6771
2026-01-04 01:46:20.92	332.75	29.94	-32.4	-38.0	9.1	2.22e-02	0	43	102	1048576	24	6892
2026-01-04 01:46:21.93	332.44	30.03	-32.4	-38.1	9.1	2.59e-02	0	43	102	1048576	24	6929
2026-01-04 01:46:22.93	332.13	30.11	-32.3	-37.8	9.3	1.94e-02	0	43	102	1048576	24	6773
2026-01-04 01:46:23.93	331.81	30.19	-32.3	-37.8	9.3	1.85e-02	0	43	102	1048576	24	6747
2026-01-04 01:46:24.93	331.50	30.27	-32.2	-37.3	9.7	1.74e-02	0	43	102	1048576	24	6467
2026-01-04 01:46:25.94	331.18	30.35	-31.0	-35.9	9.8	1.08e-02	0	43	102	1048576	24	6371
2026-01-04 01:46:26.95	330.86	30.43	-32.0	-36.9	10.4	7.59e-03	0	43	102	1048576	23	6366
2026-01-04 01:46:27.96	330.54	30.50	-32.0	-37.0	10.3	5.45e-03	0	43	102	1048576	23	6404
2026-01-04 01:46:28.97	330.22	30.58	-31.9	-36.7	10.5	5.04e-03	0	43	102	1048576	23	6270
2026-01-04 01:46:29.98	329.90	30.66	-32.0	-36.9	10.3	4.38e-03	0	43	102	1048576	23	6357
2026-01-04 01:46:30.98	329.57	30.73	-31.9	-36.7	10.5	4.80e-03	0	43	102	1048576	23	6278
2026-01-04 01:46:32.00	329.24	30.81	-31.9	-36.6	10.5	4.14e-03	0	43	102	1048576	23	6234
2026-01-04 01:46:33.01	328.91	30.88	-31.9	-36.6	10.6	3.90e-03	0	43	102	1048576	23	6203
2026-01-04 01:46:34.01	328.59	30.96	-31.8	-36.3	10.8	3.39e-03	0	43	102	1048576	23	6080
2026-01-04 01:46:35.02	328.25	31.03	-31.9	-36.6	10.6	2.84e-03	0	43	102	1048576	23	6185
2026-01-04 01:46:36.03	327.92	31.10	-31.9	-36.6	10.6	2.84e-03	0	43	102	1048576	23	6207
2026-01-04 01:46:37.03	327.59	31.17	-31.8	-36.4	10.8	5.52e-03	0	43	102	1048576	23	6090
2026-01-04 01:46:38.04	327.25	31.24	-31.8	-36.2	10.9	2.79e-03	0	43	102	1048576	23	6010
2026-01-04 01:46:39.04	326.92	31.31	-31.8	-36.3	10.8	2.75e-03	0	43	102	1048576	23	6054
2026-01-04 01:46:40.05	326.58	31.37	-31.9	-36.5	10.6	5.81e-03	0	43	102	1048576	23	6167
2026-01-04 01:46:41.06	326.24	31.44	-31.7	-35.9	11.2	4.94e-03	0	43	102	1048576	23	5849
2026-01-04 01:46:42.07	325.90	31.51	-31.6	-35.6	11.4	1.10e-03	0	43	102	1048576	23	5708
2026-01-04 01:46:43.07	325.56	31.57	-31.5	-35.4	11.5	3.20e-03	0	43	102	1048576	23	5651
2026-01-04 01:46:44.08	325.21	31.63	-31.6	-35.8	11.2	4.05e-03	0	43	102	1048576	23	5800
2026-01-04 01:46:45.08	324.87	31.70	-31.8	-36.4	10.7	1.84e-03	0	43	102	1048576	23	6097
2026-01-04 01:46:46.09	324.52	31.76	-31.8	-36.2	10.9	5.11e-03	0	43	102	1048576	23	5993
2026-01-04 01:46:47.09	324.18	31.82	-31.8	-36.4	10.8	4.98e-03	0	43	102	1048576	23	6112
2026-01-04 01:46:48.10	323.83	31.88	-31.9	-36.6	10.6	2.83e-03	0	43	102	1048576	23	6220
2026-01-04 01:46:49.10	323.48	31.93	-31.7	-35.9	11.1	4.34e-03	0	43	102	1048576	23	5858
2026-01-04 01:46:50.11	323.13	31.99	-31.5	-35.5	11.4	3.38e-03	0	43	102	1048576	23	5682
2026-01-04 01:46:51.12	322.77	32.05	-31.6	-35.6	11.3	1.22e-03	0	43	102	1048576	23	5742
2026-01-04 01:46:52.13	322.42	32.10	-31.8	-36.3	10.9	4.17e-03	0	43	102	1048576	23	6039
2026-01-04 01:46:53.13	322.06	32.15	-31.8	-36.4	10.7	5.08e-03	0	43	102	1048576	23	6091
2026-01-04 01:46:54.13	321.71	32.21	-31.8	-36.2	10.9	2.91e-03	0	43	102	1048576	23	5980
2026-01-04 01:46:55.14	321.35	32.26	-31.6	-35.8	11.2	4.37e-03	0	43	102	1048576	23	5822
2026-01-04 01:46:56.15	320.99	32.31	-31.6	-35.8	11.3	3.42e-03	0	43	102	1048576	23	5790
2026-01-04 01:46:57.16	320.63	32.36	-31.6	-35.7	11.3	1.67e-03	0	43	102	1048576	23	5756
2026-01-04 01:46:58.16	320.27	32.40	-31.5	-35.3	11.5	2.64e-03	0	43	102	1048576	23	5605
2026-01-04 01:46:59.17	319.91	32.45	-31.4	-35.5	11.8	6.26e-04	0	43	102	1048576	22	5802
2026-01-04 01:47:00.18	319.54	32.50	-31.5	-35.5	11.4	9.27e-04	0	43	102	1048576	23	5679
2026-01-04 01:47:01.19	319.18	32.54	-31.6	-35.8	11.2	3.10e-03	0	43	102	1048576	23	5807
2026-01-04 01:47:02.19	318.82	32.58	-31.8	-36.2	10.8	4.25e-03	0	43	102	1048576	23	6024
2026-01-04 01:47:03.20	318.45	32.62	-31.6	-35.7	11.3	1.50e-03	0	43	102	1048576	23	5772
2026-01-04 01:47:04.20	318.09	32.66	-31.4	-35.1	11.7	3.39e-03	0	43	102	1048576	23	5489
2026-01-04 01:47:05.21	317.72	32.70	-31.2	-35.0	12.1	2.83e-03	0	43	102	1048576	22	5574
2026-01-04 01:47:06.22	317.35	32.74	-31.1	-34.6	12.4	1.82e-04	0	43	102	1048576	22	5384
2026-01-04 01:47:07.23	316.98	32.78	-31.0	-34.5	12.5	1.61e-03	0	43	102	1048576	22	5340
2026-01-04 01:47:08.23	316.61	32.81	-31.0	-34.2	12.6	5.74e-04	0	43	102	1048576	22	5243
2026-01-04 01:47:09.22	316.24	32.85	-30.8	-33.6	13.1	3.81e-05	0	43	102	1048576	22	5021
2026-01-04 01:47:10.23	315.87	32.88	-30.7	-34.1	13.0	4.50e-05	0	43	102	1048576	21	5324
2026-01-04 01:47:11.24	315.50	32.91	-30.5	-33.4	13.5	2.35e-03	0	43	102	1048576	21	5046
2026-01-04 01:47:12.24	315.13	32.94	-30.5	-33.6	13.4	9.90e-06	0	43	102	1048576	21	5115
2026-01-04 01:47:13.26	314.75	32.97	-30.6	-33.7	13.2	1.98e-05	0	43	102	1048576	21	5155
2026-01-04 01:47:14.26	314.38	32.99	-30.6	-33.8	13.2	1.83e-05	0	43	102	1048576	21	5204
2026-01-04 01:47:15.26	314.00	33.02	-30.9	-34.5	12.8	3.04e-04	0	43	102	1048576	21	5462
2026-01-04 01:47:16.27	313.63	33.04	-31.0	-34.5	12.5	9.53e-05	0	43	102	1048576	22	5344
2026-01-04 01:47:17.28	313.25	33.07	-31.0	-34.3	12.7	1.01e-04	0	43	102	1048576	22	5254
2026-01-04 01:47:18.28	312.87	33.09	-30.9	-34.2	12.7	1.94e-04	0	43	102	1048576	22	5241
2026-01-04 01:47:19.29	312.50	33.11	-30.9	-34.7	12.6	4.34e-04	0	43	102	1048576	21	5553
2026-01-04 01:47:20.30	312.12	33.13	-31.1	-34.6	12.5	9.61e-05	0	43	102	1048576	22	5395
2026-01-04 01:47:21.31	311.74	33.14	-31.2	-34.9	12.2	1.43e-04	0	43	102	1048576	22	5508
2026-01-04 01:47:22.32	311.36	33.16	-31.3	-35.1	12.0	3.76e-04	0	43	102	1048576	22	5611
2026-01-04 01:47:23.32	310.98	33.17	-31.1	-34.7	12.4	2.23e-04	0	43	102	1048576	22	5424
2026-01-04 01:47:24.32	310.60	33.19	-31.0	-34.5	12.5	1.17e-04	0	43	102	1048576	22	5356
2026-01-04 01:47:25.32	310.23	33.20	-31.0	-34.4	12.5	9.00e-05	0	43	102	1048576	22	5329
2026-01-04 01:47:26.33	309.85	33.21	-31.1	-34.6	12.4	1.46e-04	0	43	102	1048576	22	5416
2026-01-04 01:47:27.34	309.46	33.22	-31.1	-34.6	12.4	1.26e-04	0	43	102	1048576	22	5392
2026-01-04 01:47:28.35	309.08	33.22	-31.1	-34.7	12.3	1.89e-04	0	43	102	1048576	22	5460
2026-01-04 01:47:29.36	308.70	33.23	-31.2	-34.9	12.2	1.89e-04	0	43	102	1048576	22	5543
2026-01-04 01:47:30.36	308.32	33.23	-31.2	-35.0	12.1	1.64e-03	0	43	102	1048576	22	5578
2026-01-04 01:47:31.37	307.94	33.24	-31.2	-35.0	12.1	2.55e-04	0	43	102	1048576	22	5571
2026-01-04 01:47:32.38	307.56	33.24	-31.3	-35.2	12.0	3.26e-04	0	43	102	1048576	22	5655
2026-01-04 01:47:33.38	307.18	33.24	-31.3	-35.3	11.9	8.48e-04	0	43	102	1048576	22	5702
2026-01-04 01:47:34.39	306.80	33.24	-31.3	-35.3	11.9	4.36e-04	0	43	102	1048576	22	5687
2026-01-04 01:47:35.39	306.42	33.24	-31.3	-35.4	11.9	3.79e-04	0	43	102	1048576	22	5733
2026-01-04 01:47:36.40	306.04	33.23	-31.3	-35.4	11.0	1.04e-03	0	43	102	1048576	22	5740
2026-01-04 01:47:37.41	305.66	33.23	-31.1	-34.7	11.4	9.17e-04	0	43	102	1048576	22	5456
2026-01-04 01:47:38.42	305.28	33.22	-31.1	-34.7	12.3	2.00e-04	0	43	102	1048576	22	5441
2026-01-04 01:47:39.42	304.90	33.21	-31.1	-34.7	12.2	1.01e-03	0	43	102	1048576	22	5440
2026-01-04 01:47:40.42	304.52	33.20	-30.9	-34.7	12.5	9.67e-04	0	43	102	1048576	21	5572
2026-01-04 01:47:41.43	304.14	33.19	-30.9	-34.7	12.6	1.23e-04	0	43	102	1048576	21	5535
2026-01-04 01:47:42.43	303.76	33.18	-30.9	-34.6	12.8	2.81e-03	0	43	102	1048576	21	5499
2026-01-04 01:47:43.44	303.38	33.16	-31.0	-34.8	12.5	4.02e-04	0	43	102	1048576	21	5593
2026-01-04 01:47:44.44	303.01	33.15	-31.2	-35.1	12.0	1.73e-04	0	43	102	1048576	22	5606
2026-01-04 01:47:45.45	302.63	33.13	-31.3	-35.3	11.9	3.95e-04	0	43	102	1048576	22	5712
2026-01-04 01:47:46.46	302.25	33.11	-31.3	-35.4	11.8	1.77e-03	0	43	102	1048576	22	5742
2026-01-04 01:47:47.46	301.87	33.09	-31.5	-35.8	11.5	6.45e-04	0	43	102	1048576	22	5951
2026-01-04 01:47:48.47	301.49	33.07	-31.5	-35.5	11.3	7.30e-04	0	43	102	1048576	23	5672
2026-01-04 01:47:49.47	301.12	33.05	-31.6	-35.6	11.3	3.76e-03	0	43	102	1048576	23	5746
2026-01-04 01:47:50.48	300.74	33.02	-31.6	-35.6	11.2	1.19e-03	0	43	102	1048576	23	5750
2026-01-04 01:47:51.49	300.36	33.00	-31.5	-35.3	11.5	9.66e-04	0	43	102	1048576	23	5613
2026-01-04 01:47:52.50	299.99	32.97	-31.5	-35.5	11.3	3.30e-03	0	43	102	1048576	23	5707
2026-01-04 01:47:53.50	299.62	32.94	-31.5	-35.6	11.3	1.35e-03	0	43	102	1048576	23	5727
2026-01-04 01:47:54.50	299.25	32.91	-31.5	-35.8	11.6	9.02e-04	0	43	102	1048576	22	5918
2026-01-04 01:47:55.51	298.87	32.88	-31.4	-35.6	11.7	5.74e-04	0	43	102	1048576	22	5826
2026-01-04 01:47:56.51	298.50	32.85	-31.3	-35.4	11.8	7.02e-04	0	43	102	1048576	22	5734
2026-01-04 01:47:57.52	298.13	32.82	-31.4	-35.6	11.7	9.36e-04	0	43	102	1048576	22	5823
2026-01-04 01:47:58.52	297.76	32.78	-31.5	-35.3	11.4	8.99e-04	0	43	102	1048576	23	5607
2026-01-04 01:47:59.53	297.39	32.75	-31.5	-35.4	11.4	8.52e-04	0	43	102	1048576	23	5640
2026-01-04 01:48:00.53	297.02	32.71	-31.6	-35.6	11.2	4.53e-03	0	43	102	1048576	23	5754
2026-01-04 01:48:01.54	296.65	32.67	-31.4	-35.7	11.6	2.55e-03	0	43	102	1048576	22	5865
2026-01-04 01:48:02.55	296.28	32.63	-31.5	-35.8	11.6	7.48e-04	0	43	102	1048576	22	5922
2026-01-04 01:48:03.56	295.92	32.59	-31.5	-35.3	11.4	3.94e-03	0	43	102	1048576	23	5613
2026-01-04 01:48:04.56	295.55	32.55	-31.4	-35.6	11.6	3.82e-03	0	43	102	1048576	22	5842
2026-01-04 01:48:05.57	295.19	32.50	-31.4	-35.5	11.6	6.19e-04	0	43	102	1048576	22	5811
2026-01-04 01:48:06.58	294.82	32.46	-31.5	-35.3	11.5	3.42e-03	0	43	102	1048576	23	5578
2026-01-04 01:48:07.59	294.46	32.41	-31.5	-35.8	11.5	3.85e-03	0	43	102	1048576	22	5957
2026-01-04 01:48:08.59	294.10	32.37	-31.6	-35.7	11.2	1.28e-03	0	43	102	1048576	23	5795
2026-01-04 01:48:09.60	293.74	32.32	-31.5	-35.5	11.3	4.03e-03	0	43	102	1048576	23	5690
2026-01-04 01:48:10.61	293.38	32.27	-31.4	-35.7	11.5	3.20e-03	0	43	102	1048576	22	5887
2026-01-04 01:48:11.62	293.02	32.22	-31.6	-35.6	11.3	1.23e-03	0	43	102	1048576	23	5759
2026-01-04 01:48:12.63	292.66	32.16	-31.7	-36.2	10.9	4.13e-03	0	43	102	1048576	23	6016
2026-01-04 01:48:13.64	292.30	32.11	-31.7	-36.1	10.9	5.48e-03	0	43	102	1048576	23	5966
2026-01-04 01:48:14.64	291.95	32.05	-31.6	-35.7	11.1	2.09e-03	0	43	102	1048576	23	5782
2026-01-04 01:48:15.64	291.60	32.00	-31.6	-35.7	11.2	3.91e-03	0	43	102	1048576	23	5793
2026-01-04 01:48:16.64	291.25	31.94	-31.7	-36.0	11.0	4.46e-03	0	43	102	1048576	23	5937
2026-01-04 01:48:17.65	290.90	31.89	-31.8	-36.4	10.7	3.10e-03	0	43	102	1048576	23	6111
2026-01-04 01:48:18.65	290.55	31.83	-31.8	-36.5	10.5	6.10e-03	0	43	102	1048576	23	6171
2026-01-04 01:48:19.66	290.20	31.77	-31.9	-36.7	10.4	4.05e-03	0	43	102	1048576	23	6279
2026-01-04 01:48:20.67	289.85	31.70	-31.7	-36.2	10.7	3.75e-03	0	43	102	1048576	23	6052
2026-01-04 01:48:21.67	289.51	31.64	-31.5	-35.4	11.4	4.44e-03	0	43	102	1048576	23	5641
2026-01-04 01:48:22.68	289.16	31.58	-31.3	-35.2	11.9	6.22e-04	0	43	102	1048576	22	5664
2026-01-04 01:48:23.69	288.82	31.52	-31.2	-35.0	12.0	4.07e-04	0	43	102	1048576	22	5596
2026-01-04 01:48:24.69	288.48	31.45	-31.2	-35.2	11.9	3.12e-03	0	43	102	1048576	22	5653
2026-01-04 01:48:25.70	288.14	31.38	-31.3	-35.3	11.8	4.47e-04	0	43	102	1048576	22	5717
2026-01-04 01:48:26.71	287.80	31.32	-31.4	-35.8	11.5	7.27e-04	0	43	102	1048576	22	5933
2026-01-04 01:48:27.71	287.46	31.25	-31.7	-36.0	10.9	4.20e-03	0	43	102	1048576	23	5935
2026-01-04 01:48:28.72	287.12	31.18	-31.7	-36.3	10.7	4.75e-03	0	43	102	1048576	23	6053
2026-01-04 01:48:29.73	286.79	31.11	-31.7	-36.1	10.8	2.60e-03	0	43	102	1048576	23	5990
2026-01-04 01:48:30.73	286.46	31.04	-31.6	-36.0	10.9	2.45e-03	0	43	102	1048576	23	5917
2026-01-04 01:48:31.73	286.13	30.97	-31.7	-36.0	10.9	3.54e-03	0	43	102	1048576	23	5943
2026-01-04 01:48:32.74	285.80	30.89	-31.5	-35.4	11.4	1.24e-03	0	43	102	1048576	23	5645
2026-01-04 01:48:33.74	285.47	30.82	-31.3	-35.4	11.7	6.55e-04	0	43	102	1048576	22	5746
2026-01-04 01:48:34.75	285.14	30.74	-31.3	-35.4	11.7	1.28e-03	0	43	102	1048576	22	5762
2026-01-04 01:48:35.76	284.81	30.67	-31.6	-35.6	11.2	1.31e-03	0	43	102	1048576	23	5768
2026-01-04 01:48:36.77	284.49	30.59	-31.6	-35.9	11.0	1.78e-03	0	43	102	1048576	23	5890
2026-01-04 01:48:37.77	284.17	30.52	-31.7	-36.1	10.8	2.15e-03	0	43	102	1048576	23	5994
2026-01-04 01:48:38.78	283.85	30.44	-31.7	-36.2	10.7	3.07e-03	0	43	102	1048576	23	6044
2026-01-04 01:48:39.78	283.53	30.36	-31.8	-36.4	10.6	3.33e-03	0	43	102	1048576	23	6147
2026-01-04 01:48:40.79	283.21	30.28	-31.8	-36.4	10.5	4.51e-03	0	43	102	1048576	23	6140
2026-01-04 01:48:41.80	282.89	30.20	-31.8	-36.5	10.5	3.31e-03	0	43	102	1048576	23	6184
2026-01-04 01:48:42.80	282.58	30.12	-31.9	-36.7	10.3	4.85e-03	0	43	102	1048576	23	6309
2026-01-04 01:48:43.82	282.26	30.04	-31.8	-36.5	10.6	4.07e-03	0	43	102	1048576	23	6189
2026-01-04 01:48:44.82	281.95	29.95	-31.5	-35.7	11.1	2.62e-03	0	43	102	1048576	23	5785
2026-01-04 01:48:45.82	281.64	29.87	-31.4	-35.1	11.5	1.01e-03	0	43	102	1048576	23	5554
2026-01-04 01:48:46.83	281.33	29.79	-31.2	-34.6	11.8	6.65e-04	0	43	102	1048576	23	5323
2026-01-04 01:48:47.83	281.03	29.70	-31.3	-34.7	11.8	4.59e-04	0	43	102	1048576	23	5370
2026-01-04 01:48:48.84	280.72	29.62	-31.3	-35.4	11.7	5.74e-04	0	43	102	1048576	22	5769
2026-01-04 01:48:49.85	280.42	29.53	-31.5	-35.9	11.3	8.11e-04	0	43	102	1048576	22	5989
2026-01-04 01:48:50.85	280.12	29.44	-31.4	-35.3	11.3	1.24e-03	0	43	102	1048576	23	5646
2026-01-04 01:48:51.85	279.82	29.36	-30.5	-34.9	11.1	1.01e-03	0	43	102	1048576	22	5974
2026-01-04 01:48:52.86	279.52	29.27	-31.3	-35.5	11.6	8.02e-04	0	43	102	1048576	22	5813
2026-01-04 01:48:53.87	279.22	29.18	-31.2	-35.1	11.1	5.03e-04	0	43	102	1048576	22	5656
2026-01-04 01:48:54.87	278.93	29.09	-31.2	-35.3	11.5	5.80e-04	0	43	102	1048576	22	5712
2026-01-04 01:48:55.88	278.63	29.00	-31.4	-35.9	11.3	1.03e-03	0	43	102	1048576	22	6003
2026-01-04 01:48:56.89	278.34	28.91	-31.5	-36.0	11.1	1.54e-03	0	43	102	1048576	22	6061
2026-01-04 01:48:57.90	278.05	28.82	-31.6	-35.8	10.9	1.67e-03	0	43	102	1048576	23	5864
2026-01-04 01:48:58.91	277.76	28.73	-31.8	-36.4	10.5	3.54e-03	0	43	102	1048576	23	6164
2026-01-04 01:48:59.92	277.47	28.64	-31.9	-36.8	10.3	4.87e-03	0	43	102	1048576	23	6345
2026-01-04 01:49:00.92	277.19	28.55	-31.9	-37.2	10.0	6.46e-03	0	43	102	1048576	23	6568
2026-01-04 01:49:01.92	276.90	28.45	-31.8	-36.5	10.4	8.10e-03	0	43	102	1048576	23	6237
2026-01-04 01:49:02.92	276.62	28.36	-31.9	-36.8	10.2	8.44e-03	0	43	102	1048576	23	6356
2026-01-04 01:49:03.93	276.34	28.27	-31.6	-35.8	11.0	3.82e-03	0	43	102	1048576	23	5854
2026-01-04 01:49:04.93	276.07	28.18	-31.3	-35.0	11.6	1.31e-03	0	43	102	1048576	23	5501
2026-01-04 01:49:05.94	275.79	28.08	-31.1	-34.7	12.1	2.51e-03	0	43	102	1048576	22	5494
2026-01-04 01:49:06.94	275.51	27.99	-31.0	-34.6	12.2	2.59e-04	0	43	102	1048576	22	5455
2026-01-04 01:49:07.95	275.24	27.89	-31.0	-34.5	12.2	2.62e-04	0	43	102	1048576	22	5406
2026-01-04 01:49:08.96	274.96	27.79	-30.9	-34.8	12.3	5.86e-04	0	43	102	1048576	21	5641
2026-01-04 01:49:09.96	274.70	27.70	-30.9	-34.9	12.3	6.52e-04	0	43	102	1048576	21	5678
2026-01-04 01:49:10.97	274.43	27.60	-31.0	-34.7	12.1	2.49e-04	0	43	102	1048576	22	5463
2026-01-04 01:49:11.98	274.16	27.51	-31.0	-34.7	12.0	2.71e-04	0	43	102	1048576	22	5480
2026-01-04 01:49:12.98	273.89	27.41	-31.0	-34.6	12.1	6.77e-04	0	43	102	1048576	22	5446
2026-01-04 01:49:13.99	273.63	27.31	-31.0	-34.5	12.2	2.14e-04	0	43	102	1048576	22	5382
2026-01-04 01:49:15.00	273.36	27.21	-31.0	-34.6	12.1	2.27e-04	0	43	102	1048576	22	5460
2026-01-04 01:49:16.00	273.10	27.12	-31.0	-34.7	12.0	4.03e-04	0	43	102	1048576	22	5499
2026-01-04 01:49:17.01	272.84	27.02	-31.1	-35.0	11.8	3.49e-04	0	43	102	1048576	22	5603
2026-01-04 01:49:18.01	272.59	26.92	-31.1	-34.9	11.9	3.91e-04	0	43	102	1048576	22	5560
2026-01-04 01:49:19.02	272.33	26.82	-31.1	-35.0	11.8	2.08e-03	0	43	102	1048576	22	5614
2026-01-04 01:49:20.02	272.08	26.72	-31.1	-34.8	11.9	4.82e-04	0	43	102	1048576	22	5534
2026-01-04 01:49:21.03	271.82	26.62	-31.1	-34.9	11.8	2.35e-03	0	43	102	1048576	22	5583
2026-01-04 01:49:22.03	271.57	26.52	-31.1	-34.9	11.9	4.01e-04	0	43	102	1048576	22	5573
2026-01-04 01:49:23.03	271.33	26.42	-31.3	-35.4	11.5	5.35e-04	0	43	102	1048576	22	5810
2026-01-04 01:49:24.04	271.08	26.32	-30.8	-34.5	12.5	1.12e-03	0	43	102	1048576	21	5509
2026-01-04 01:49:25.04	270.83	26.22	-30.5	-33.6	13.0	2.27e-04	0	43	102	1048576	21	5167
2026-01-04 01:49:26.05	270.59	26.12	-30.2	-32.8	13.5	1.37e-05	0	43	102	1048576	21	4879
2026-01-04 01:49:27.05	270.34	26.02	-30.1	-32.5	13.8	4.19e-05	0	43	102	1048576	21	4755
2026-01-04 01:49:28.06	270.10	25.92	-30.0	-32.9	13.9	4.20e-04	0	43	102	1048576	20	4992
2026-01-04 01:49:29.07	269.86	25.82	-30.1	-33.0	13.8	3.00e-06	0	43	102	1048576	20	5025
2026-01-04 01:49:30.08	269.62	25.72	-30.1	-33.2	13.7	1.92e-03	0	43	102	1048576	20	5102
2026-01-04 01:49:31.09	269.38	25.61	-29.8	-32.3	14.2	2.05e-03	0	43	102	1048576	20	4788
2026-01-04 01:49:32.09	269.15	25.51	-29.5	-31.4	14.8	7.00e-07	0	43	102	1048576	20	4488
2026-01-04 01:49:33.10	268.91	25.41	-29.3	-31.5	15.1	1.99e-03	0	43	102	1048576	19	4621
2026-01-04 01:49:34.11	268.68	25.31	-29.2	-31.7	15.3	2.25e-03	0	43	102	1048576	18	4811
2026-01-04 01:49:35.11	268.45	25.21	-29.3	-31.9	15.1	0.00e+00	0	43	102	1048576	18	4875
2026-01-04 01:49:36.12	268.22	25.10	-29.2	-31.8	15.2	0.00e+00	0	43	102	1048576	18	4841
2026-01-04 01:49:37.12	267.99	25.00	-29.3	-32.0	15.1	2.23e-03	0	43	102	1048576	18	4893
2026-01-04 01:49:38.13	267.76	24.90	-29.3	-31.9	15.1	0.00e+00	0	43	102	1048576	18	4884
2026-01-04 01:49:39.14	267.54	24.80	-29.4	-32.2	15.0	0.00e+00	0	43	102	1048576	18	4965
2026-01-04 01:49:40.14	267.31	24.70	-29.3	-31.9	15.1	1.49e-04	0	43	102	1048576	18	4863
2026-01-04 01:49:41.15	267.09	24.59	-29.3	-31.9	15.1	7.00e-07	0	43	102	1048576	18	4865
2026-01-04 01:49:42.15	266.87	24.49	-29.3	-32.1	15.0	0.00e+00	0	43	102	1048576	18	4937
2026-01-04 01:49:43.16	266.65	24.39	-29.2	-31.6	15.3	1.50e-06	0	43	102	1048576	18	4788
2026-01-04 01:49:44.17	266.43	24.28	-29.2	-31.6	15.3	0.00e+00	0	43	102	1048576	18	4778
2026-01-04 01:49:45.17	266.22	24.18	-28.9	-31.1	15.6	2.70e-03	0	43	102	1048576	18	4606
2026-01-04 01:49:46.17	266.00	24.08	-28.8	-31.4	15.7	0.00e+00	0	43	102	1048576	17	4811
2026-01-04 01:49:47.18	265.79	23.98	-28.8	-31.4	15.7	0.00e+00	0	43	102	1048576	17	4810
2026-01-04 01:49:48.18	265.58	23.87	-28.8	-31.2	15.8	2.05e-03	0	43	102	1048576	17	4744
2026-01-04 01:49:49.19	265.37	23.77	-28.8	-31.1	15.8	0.00e+00	0	43	102	1048576	17	4741
2026-01-04 01:49:50.20	265.16	23.67	-28.8	-31.1	15.8	0.00e+00	0	43	102	1048576	17	4740
2026-01-04 01:49:51.20	264.95	23.56	-28.6	-30.7	16.1	2.32e-03	0	43	102	1048576	17	4604
2026-01-04 01:49:52.20	264.74	23.46	-28.5	-30.6	16.1	0.00e+00	0	43	102	1048576	17	4579
2026-01-04 01:49:53.21	264.54	23.36	-28.5	-30.6	16.2	0.00e+00	0	43	102	1048576	17	4556
2026-01-04 01:49:54.21	264.33	23.26	-28.5	-31.0	16.2	0.00e+00	0	43	102	1048576	16	4789
2026-01-04 01:49:55.21	264.13	23.15	-28.5	-31.0	16.2	4.21e-03	0	43	102	1048576	16	4812
2026-01-04 01:49:56.22	263.93	23.05	-28.5	-30.5	16.2	0.00e+00	0	43	102	1048576	17	4524
2026-01-04 01:49:57.23	263.73	22.95	-28.6	-30.9	16.0	0.00e+00	0	43	102	1048576	17	4655
2026-01-04 01:49:58.24	263.53	22.84	-28.6	-30.8	16.0	2.42e-03	0	43	102	1048576	17	4636
2026-01-04 01:49:59.24	263.33	22.74	-28.7	-31.0	15.8	0.00e+00	0	43	102	1048576	17	4710
2026-01-04 01:50:00.26	263.13	22.64	-28.8	-31.3	15.7	0.00e+00	0	43	102	1048576	17	4804
2026-01-04 01:50:01.27	262.94	22.54	-28.8	-31.4	15.6	0.00e+00	0	43	102	1048576	17	4820
2026-01-04 01:50:02.28	262.74	22.43	-28.8	-31.4	15.6	0.00e+00	0	43	102	1048576	17	4832
2026-01-04 01:50:03.29	262.55	22.33	-28.9	-31.6	15.5	0.00e+00	0	43	102	1048576	17	4889
2026-01-04 01:50:04.29	262.36	22.23	-28.9	-31.5	15.6	0.00e+00	0	43	102	1048576	17	4849
2026-01-04 01:50:05.29	262.17	22.13	-28.9	-31.6	15.5	0.00e+00	0	43	102	1048576	17	4900
2026-01-04 01:50:06.30	261.98	22.02	-28.1	-30.8	15.3	0.00e+00	0	43	102	1048576	17	4939
2026-01-04 01:50:07.31	261.80	21.92	-29.1	-31.6	15.1	0.00e+00	0	43	102	1048576	18	4791
2026-01-04 01:50:08.31	261.61	21.82	-29.2	-31.7	13.5	0.00e+00	0	43	102	1048576	18	4805
2026-01-04 01:50:09.31	261.43	21.72	-29.1	-31.6	13.6	0.00e+00	0	43	102	1048576	18	4768
2026-01-04 01:50:10.32	261.24	21.61	-29.1	-31.5	15.2	0.00e+00	0	43	102	1048576	18	4747
2026-01-04 01:50:11.33	261.06	21.51	-29.1	-31.5	15.1	0.00e+00	0	43	102	1048576	18	4757
2026-01-04 01:50:12.33	260.88	21.41	-29.1	-31.6	15.1	7.00e-07	0	43	102	1048576	18	4768
2026-01-04 01:50:13.34	260.70	21.31	-29.1	-31.6	15.2	0.00e+00	0	43	102	1048576	18	4777
2026-01-04 01:50:14.34	260.52	21.21	-29.1	-31.6	15.2	0.00e+00	0	43	102	1048576	18	4781
2026-01-04 01:50:15.35	260.34	21.11	-29.1	-31.6	15.0	2.06e-03	0	43	102	1048576	18	4788
2026-01-04 01:50:16.35	260.17	21.01	-29.2	-31.8	15.0	0.00e+00	0	43	102	1048576	18	4848
2026-01-04 01:50:17.36	259.99	20.90	-29.3	-31.9	14.9	0.00e+00	0	43	102	1048576	18	4898
2026-01-04 01:50:18.36	259.82	20.80	-29.4	-32.3	14.8	0.00e+00	0	43	102	1048576	18	5017
2026-01-04 01:50:19.37	259.65	20.70	-29.5	-32.5	14.6	0.00e+00	0	43	102	1048576	18	5091
2026-01-04 01:50:20.38	259.47	20.60	-29.5	-32.1	14.5	7.00e-07	0	43	102	1048576	19	4852
2026-01-04 01:50:21.38	259.31	20.50	-29.6	-32.4	14.4	0.00e+00	0	43	102	1048576	19	4936
2026-01-04 01:50:22.39	259.14	20.40	-29.7	-32.6	14.2	0.00e+00	0	43	102	1048576	19	5002
2026-01-04 01:50:23.39	258.97	20.30	-29.7	-32.4	14.3	1.14e-03	0	43	102	1048576	19	4962
2026-01-04 01:50:24.40	258.80	20.20	-29.6	-32.3	14.4	7.00e-07	0	43	102	1048576	19	4929
2026-01-04 01:50:25.41	258.63	20.10	-29.6	-32.4	14.3	0.00e+00	0	43	102	1048576	19	4954
2026-01-04 01:50:26.41	258.47	20.00	-29.6	-32.3	14.4	1.97e-03	0	43	102	1048576	19	4918
2026-01-04 01:50:27.41	258.31	19.90	-29.7	-32.5	14.3	1.50e-06	0	43	102	1048576	19	4968
2026-01-04 01:50:28.41	258.14	19.80	-29.6	-32.4	14.3	2.20e-06	0	43	102	1048576	19	4970
2026-01-04 01:50:29.42	257.98	19.70	-29.8	-32.7	14.1	3.70e-03	0	43	102	1048576	19	5074
2026-01-04 01:50:30.42	257.82	19.60	-29.8	-32.9	14.0	2.27e-03	0	43	102	1048576	19	5148
2026-01-04 01:50:31.43	257.66	19.50	-29.8	-32.9	14.0	2.20e-06	0	43	102	1048576	19	5147
2026-01-04 01:50:32.43	257.50	19.40	-29.9	-33.1	13.9	2.96e-03	0	43	102	1048576	19	5214
2026-01-04 01:50:33.44	257.35	19.30	-29.8	-32.9	14.0	2.66e-03	0	43	102	1048576	19	5153
2026-01-04 01:50:34.45	257.19	19.20	-29.8	-33.0	13.9	2.20e-04	0	43	102	1048576	19	5156
2026-01-04 01:50:35.45	257.03	19.11	-29.9	-33.1	13.9	2.56e-03	0	43	102	1048576	19	5201
2026-01-04 01:50:36.46	256.88	19.01	-29.9	-33.2	13.8	2.82e-03	0	43	102	1048576	19	5262
2026-01-04 01:50:37.47	256.73	18.91	-29.9	-33.2	13.8	3.55e-04	0	43	102	1048576	19	5257
2026-01-04 01:50:38.47	256.57	18.81	-30.0	-33.4	13.6	6.80e-06	0	43	102	1048576	19	5321
2026-01-04 01:50:39.48	256.42	18.71	-30.1	-33.3	13.3	2.75e-03	0	43	102	1048576	20	5200
2026-01-04 01:50:40.48	256.27	18.62	-30.2	-33.6	13.1	1.35e-04	0	43	102	1048576	20	5305
2026-01-04 01:50:41.49	256.12	18.52	-30.2	-33.6	13.1	1.84e-03	0	43	102	1048576	20	5316
2026-01-04 01:50:42.49	255.97	18.42	-30.3	-33.9	12.9	9.78e-04	0	43	102	1048576	20	5434
2026-01-04 01:50:43.50	255.83	18.32	-30.4	-34.2	12.6	7.40e-05	0	43	102	1048576	20	5566
2026-01-04 01:50:44.50	255.68	18.23	-30.4	-34.2	12.7	1.45e-03	0	43	102	1048576	20	5554
2026-01-04 01:50:45.50	255.54	18.13	-30.5	-34.3	12.6	9.64e-04	0	43	102	1048576	20	5610
2026-01-04 01:50:46.51	255.39	18.03	-30.7	-34.4	12.2	1.79e-04	0	43	102	1048576	21	5533
2026-01-04 01:50:47.52	255.25	17.94	-30.7	-34.4	12.2	4.89e-03	0	43	102	1048576	21	5535
2026-01-04 01:50:48.52	255.10	17.84	-30.6	-34.3	12.2	2.62e-03	0	43	102	1048576	21	5499
2026-01-04 01:50:49.53	254.96	17.75	-30.7	-34.6	12.0	6.46e-04	0	43	102	1048576	21	5623
2026-01-04 01:50:50.54	254.82	17.65	-30.6	-34.1	12.4	5.12e-03	0	43	102	1048576	21	5403
2026-01-04 01:50:51.54	254.68	17.55	-30.4	-34.3	12.6	4.32e-03	0	43	102	1048576	20	5582
2026-01-04 01:50:52.55	254.54	17.46	-30.5	-34.3	12.6	8.16e-05	0	43	102	1048576	20	5595
2026-01-04 01:50:53.55	254.40	17.36	-30.4	-33.7	12.6	5.41e-03	0	43	102	1048576	21	5261
2026-01-04 01:50:54.56	254.26	17.27	-30.4	-34.1	12.7	5.44e-03	0	43	102	1048576	20	5508
2026-01-04 01:50:55.57	254.13	17.17	-30.4	-34.2	12.6	6.17e-05	0	43	102	1048576	20	5549
2026-01-04 01:50:56.58	253.99	17.08	-30.5	-33.9	12.5	4.21e-03	0	43	102	1048576	21	5325
2026-01-04 01:50:57.59	253.86	16.98	-30.4	-34.1	12.7	5.40e-03	0	43	102	1048576	20	5510
2026-01-04 01:50:58.59	253.72	16.89	-30.4	-34.1	12.7	1.50e-03	0	43	102	1048576	20	5511
2026-01-04 01:50:59.60	253.59	16.79	-30.4	-34.1	12.6	2.33e-03	0	43	102	1048576	20	5535
2026-01-04 01:51:00.61	253.46	16.70	-30.4	-34.1	12.6	5.66e-03	0	43	102	1048576	20	5534
2026-01-04 01:51:01.61	253.32	16.61	-30.4	-34.2	12.6	1.70e-03	0	43	102	1048576	20	5567
2026-01-04 01:51:02.61	253.19	16.51	-30.4	-34.3	12.5	2.31e-03	0	43	102	1048576	20	5612
2026-01-04 01:51:03.62	253.06	16.42	-30.4	-34.3	12.5	2.11e-03	0	43	102	1048576	20	5612
2026-01-04 01:51:04.63	252.93	16.33	-30.3	-34.0	12.7	1.60e-03	0	43	102	1048576	20	5497
2026-01-04 01:51:05.64	252.81	16.23	-30.4	-34.1	12.6	9.84e-05	0	43	102	1048576	20	5509
2026-01-04 01:51:06.64	252.68	16.14	-30.4	-34.1	12.6	6.78e-04	0	43	102	1048576	20	5517
2026-01-04 01:51:07.64	252.55	16.05	-30.4	-34.1	12.6	7.47e-05	0	43	102	1048576	20	5507
2026-01-04 01:51:08.65	252.43	15.96	-30.5	-34.3	12.4	1.14e-04	0	43	102	1048576	20	5632
2026-01-04 01:51:09.66	252.30	15.87	-30.5	-34.4	12.4	1.38e-04	0	43	102	1048576	20	5641
2026-01-04 01:51:10.67	252.18	15.77	-30.5	-34.5	12.3	1.36e-04	0	43	102	1048576	20	5691
2026-01-04 01:51:11.67	252.05	15.68	-30.6	-34.3	12.1	3.26e-03	0	43	102	1048576	21	5530
2026-01-04 01:51:12.67	251.93	15.59	-30.6	-34.4	12.0	3.32e-04	0	43	102	1048576	21	5541
2026-01-04 01:51:13.68	251.81	15.50	-30.5	-34.0	12.2	2.31e-04	0	43	102	1048576	21	5398
2026-01-04 01:51:14.69	251.69	15.41	-30.5	-34.0	12.3	4.78e-04	0	43	102	1048576	21	5375
2026-01-04 01:51:15.70	251.57	15.32	-30.5	-34.1	12.2	2.06e-04	0	43	102	1048576	21	5423
2026-01-04 01:51:16.70	251.45	15.23	-30.6	-34.3	12.0	2.38e-04	0	43	102	1048576	21	5534
2026-01-04 01:51:17.70	251.33	15.14	-30.5	-34.1	12.1	6.31e-04	0	43	102	1048576	21	5452
2026-01-04 01:51:18.70	251.21	15.05	-30.6	-34.2	12.1	2.68e-04	0	43	102	1048576	21	5495
2026-01-04 01:51:19.71	251.09	14.96	-30.7	-34.5	11.9	3.21e-04	0	43	102	1048576	21	5610
2026-01-04 01:51:20.72	250.98	14.87	-30.6	-34.3	12.0	6.87e-04	0	43	102	1048576	21	5516
2026-01-04 01:51:21.73	250.86	14.78	-30.5	-34.0	12.2	4.34e-04	0	43	102	1048576	21	5395
2026-01-04 01:51:22.73	250.75	14.69	-30.5	-33.9	12.2	1.94e-04	0	43	102	1048576	21	5370
2026-01-04 01:51:23.74	250.63	14.60	-30.4	-33.9	12.2	2.45e-04	0	43	102	1048576	21	5341
2026-01-04 01:51:24.75	250.52	14.51	-30.4	-34.2	11.6	2.55e-04	0	43	102	1048576	20	5610
2026-01-04 01:51:25.75	250.40	14.42	-30.3	-34.1	11.7	1.19e-04	0	43	102	1048576	20	5546
2026-01-04 01:51:26.75	250.29	14.33	-30.4	-34.3	11.8	1.66e-04	0	43	102	1048576	20	5627
2026-01-04 01:51:27.76	250.18	14.25	-30.4	-34.1	12.4	2.76e-04	0	43	102	1048576	20	5563
2026-01-04 01:51:28.78	250.07	14.16	-30.4	-34.4	12.2	3.93e-03	0	43	102	1048576	20	5667
2026-01-04 01:51:29.79	249.96	14.07	-30.3	-34.2	12.3	2.20e-04	0	43	102	1048576	20	5579
2026-01-04 01:51:30.79	249.85	13.98	-30.4	-34.2	12.4	1.56e-04	0	43	102	1048576	20	5582
2026-01-04 01:51:31.80	249.74	13.89	-30.4	-34.2	12.4	3.34e-03	0	43	102	1048576	20	5591
2026-01-04 01:51:32.81	249.63	13.81	-30.5	-34.5	12.1	2.08e-04	0	43	102	1048576	20	5745
2026-01-04 01:51:33.82	249.52	13.72	-30.4	-33.9	12.2	2.66e-04	0	43	102	1048576	21	5356
2026-01-04 01:51:34.82	249.41	13.63	-30.4	-34.4	12.2	2.16e-04	0	43	102	1048576	20	5681
2026-01-04 01:51:35.83	249.30	13.54	-30.5	-34.5	12.1	3.53e-03	0	43	102	1048576	20	5710
2026-01-04 01:51:36.84	249.20	13.46	-30.5	-34.1	12.0	2.68e-04	0	43	102	1048576	21	5450
2026-01-04 01:51:37.85	249.09	13.37	-30.7	-34.6	11.6	4.32e-04	0	43	102	1048576	21	5683
2026-01-04 01:51:38.85	248.99	13.29	-30.6	-34.4	11.7	4.22e-03	0	43	102	1048576	21	5601
2026-01-04 01:51:39.85	248.89	13.20	-30.7	-34.8	11.5	1.30e-03	0	43	102	1048576	21	5768
2026-01-04 01:51:40.86	248.78	13.11	-30.7	-34.7	11.6	8.92e-04	0	43	102	1048576	21	5693
2026-01-04 01:51:41.86	248.68	13.03	-30.6	-34.3	11.8	3.82e-03	0	43	102	1048576	21	5542
2026-01-04 01:51:42.87	248.58	12.94	-30.6	-34.4	11.8	1.02e-03	0	43	102	1048576	21	5571
2026-01-04 01:51:43.88	248.47	12.86	-30.6	-34.4	11.7	4.37e-04	0	43	102	1048576	21	5596
2026-01-04 01:51:44.88	248.37	12.77	-30.6	-34.5	11.7	5.46e-04	0	43	102	1048576	21	5652
2026-01-04 01:51:45.89	248.27	12.69	-30.6	-34.4	11.7	1.11e-03	0	43	102	1048576	21	5590
2026-01-04 01:51:46.89	248.17	12.61	-30.6	-34.4	11.8	3.40e-03	0	43	102	1048576	21	5573
2026-01-04 01:51:47.90	248.07	12.52	-30.6	-34.5	11.8	5.21e-04	0	43	102	1048576	21	5603
2026-01-04 01:51:48.91	247.97	12.44	-30.8	-34.9	11.4	9.96e-04	0	43	102	1048576	21	5825
2026-01-04 01:51:49.92	247.88	12.35	-30.6	-34.5	11.7	3.29e-03	0	43	102	1048576	21	5636
2026-01-04 01:51:50.92	247.78	12.27	-30.6	-34.4	11.7	3.09e-03	0	43	102	1048576	21	5598
2026-01-04 01:51:51.93	247.68	12.19	-30.6	-34.5	11.7	8.07e-04	0	43	102	1048576	21	5631
2026-01-04 01:51:52.93	247.59	12.10	-30.7	-34.7	11.5	3.16e-03	0	43	102	1048576	21	5722
2026-01-04 01:51:53.94	247.49	12.02	-30.6	-34.6	11.6	3.40e-03	0	43	102	1048576	21	5667
2026-01-04 01:51:54.95	247.39	11.94	-30.6	-34.6	11.6	8.58e-04	0	43	102	1048576	21	5670
2026-01-04 01:51:55.95	247.30	11.86	-30.7	-34.6	11.5	3.36e-03	0	43	102	1048576	21	5700
2026-01-04 01:51:56.96	247.20	11.77	-30.7	-34.8	11.5	3.41e-03	0	43	102	1048576	21	5751
2026-01-04 01:51:57.97	247.11	11.69	-30.7	-34.8	11.5	1.14e-03	0	43	102	1048576	21	5756
2026-01-04 01:51:58.97	247.02	11.61	-30.7	-34.7	11.5	4.82e-03	0	43	102	1048576	21	5738
2026-01-04 01:51:59.98	246.92	11.53	-30.7	-34.8	11.4	3.74e-03	0	43	102	1048576	21	5775
2026-01-04 01:52:00.99	246.83	11.45	-30.8	-35.0	11.3	1.69e-03	0	43	102	1048576	21	5866
2026-01-04 01:52:02.00	246.74	11.36	-30.7	-34.8	11.4	2.33e-03	0	43	102	1048576	21	5753
2026-01-04 01:52:03.01	246.65	11.28	-30.7	-34.7	11.4	5.26e-03	0	43	102	1048576	21	5745
2026-01-04 01:52:04.02	246.56	11.20	-30.7	-34.9	11.3	2.32e-03	0	43	102	1048576	21	5810
2026-01-04 01:52:05.02	246.47	11.12	-30.8	-35.2	11.1	2.82e-03	0	43	102	1048576	21	5963
2026-01-04 01:52:06.03	246.38	11.04	-30.8	-35.1	11.2	5.98e-03	0	43	102	1048576	21	5914
2026-01-04 01:52:07.03	246.29	10.96	-30.7	-35.0	11.2	2.81e-03	0	43	102	1048576	21	5870
2026-01-04 01:52:08.03	246.20	10.88	-30.8	-35.3	11.0	4.37e-03	0	43	102	1048576	21	6017
2026-01-04 01:52:09.04	246.11	10.80	-30.7	-34.9	11.2	2.17e-03	0	43	102	1048576	21	5849
2026-01-04 01:52:10.05	246.02	10.72	-30.7	-34.9	11.3	2.40e-03	0	43	102	1048576	21	5824
2026-01-04 01:52:11.06	245.94	10.64	-30.7	-34.9	11.2	4.17e-03	0	43	102	1048576	21	5860
2026-01-04 01:52:12.06	245.85	10.56	-30.9	-35.4	10.9	2.55e-03	0	43	102	1048576	21	6079
2026-01-04 01:52:13.07	245.76	10.48	-30.7	-34.9	11.2	1.64e-03	0	43	102	1048576	21	5855
2026-01-04 01:52:14.08	245.68	10.40	-30.6	-34.7	11.4	3.54e-03	0	43	102	1048576	21	5733
2026-01-04 01:52:15.08	245.59	10.32	-30.7	-34.7	11.4	1.36e-03	0	43	102	1048576	21	5765
2026-01-04 01:52:16.09	245.51	10.25	-30.7	-34.9	11.2	1.11e-03	0	43	102	1048576	21	5856
2026-01-04 01:52:17.09	245.43	10.17	-30.8	-35.2	11.0	3.44e-03	0	43	102	1048576	21	6004
2026-01-04 01:52:18.10	245.34	10.09	-30.8	-35.2	11.0	2.13e-03	0	43	102	1048576	21	6000
2026-01-04 01:52:19.11	245.26	10.01	-30.8	-35.3	10.9	2.10e-03	0	43	102	1048576	21	6030
2026-01-04 01:52:20.12	245.17	9.93	-30.9	-35.6	10.6	2.64e-03	0	43	102	1048576	21	6206
2026-01-04 01:52:21.13	245.09	9.85	-30.9	-35.5	10.7	4.10e-03	0	43	102	1048576	21	6165
2026-01-04 01:52:22.13	245.01	9.78	-30.9	-35.7	10.6	3.96e-03	0	43	102	1048576	21	6250
2026-01-04 01:52:23.13	244.93	9.70	-30.9	-35.6	10.7	3.10e-03	0	43	102	1048576	21	6167
2026-01-04 01:52:24.14	244.85	9.62	-30.9	-35.6	10.6	3.17e-03	0	43	102	1048576	21	6197
2026-01-04 01:52:25.14	244.77	9.55	-30.9	-35.8	10.5	3.43e-03	0	43	102	1048576	21	6268
2026-01-04 01:52:26.15	244.69	9.47	-31.1	-35.7	10.2	4.90e-03	0	43	102	1048576	22	6138
2026-01-04 01:52:27.15	244.61	9.39	-31.2	-36.3	9.7	8.69e-03	0	43	102	1048576	22	6481
2026-01-04 01:52:28.16	244.53	9.32	-31.0	-35.6	10.2	7.24e-03	0	43	102	1048576	22	6113
2026-01-04 01:52:29.16	244.45	9.24	-31.0	-35.3	10.4	4.61e-03	0	43	102	1048576	22	5962
2026-01-04 01:52:30.16	244.37	9.17	-30.9	-35.7	10.5	4.16e-03	0	43	102	1048576	21	6263
2026-01-04 01:52:31.17	244.29	9.09	-31.0	-36.0	10.3	4.15e-03	0	43	102	1048576	21	6410
2026-01-04 01:52:32.18	244.22	9.01	-31.1	-35.9	10.0	6.78e-03	0	43	102	1048576	22	6270
2026-01-04 01:52:33.19	244.14	8.94	-31.2	-36.2	9.7	1.03e-02	0	43	102	1048576	22	6436
2026-01-04 01:52:34.20	244.06	8.86	-31.1	-35.8	10.1	1.01e-02	0	43	102	1048576	22	6196
2026-01-04 01:52:35.21	243.98	8.79	-31.0	-35.7	10.1	6.02e-03	0	43	102	1048576	22	6154
2026-01-04 01:52:36.21	243.91	8.71	-31.0	-35.6	10.2	5.45e-03	0	43	102	1048576	22	6085
2026-01-04 01:52:37.22	243.83	8.64	-31.1	-35.9	10.0	6.84e-03	0	43	102	1048576	22	6249
2026-01-04 01:52:38.22	243.76	8.56	-31.0	-35.6	10.2	6.35e-03	0	43	102	1048576	22	6094
2026-01-04 01:52:39.23	243.68	8.49	-30.9	-35.9	10.2	5.91e-03	0	43	102	1048576	21	6403
2026-01-04 01:52:40.23	243.61	8.41	-31.0	-35.6	10.1	6.39e-03	0	43	102	1048576	22	6136
2026-01-04 01:52:41.24	243.53	8.34	-31.1	-35.9	9.5	7.75e-03	0	43	102	1048576	22	6309
2026-01-04 01:52:42.24	243.46	8.27	-31.2	-36.3	9.5	1.45e-02	0	43	102	1048576	22	6514
2026-01-04 01:52:43.25	243.39	8.19	-31.1	-36.0	9.8	1.07e-02	0	43	102	1048576	22	6338
2026-01-04 01:52:44.26	243.31	8.12	-31.1	-36.3	9.6	1.19e-02	0	43	102	1048576	22	6482
2026-01-04 01:52:45.25	243.24	8.05	-31.3	-36.7	9.2	1.91e-02	0	43	102	1048576	22	6725
2026-01-04 01:52:46.26	243.17	7.97	-31.1	-36.2	9.6	1.51e-02	0	43	102	1048576	22	6439
2026-01-04 01:52:47.26	243.10	7.90	-31.0	-35.9	9.8	1.04e-02	0	43	102	1048576	22	6288
2026-01-04 01:52:48.27	243.03	7.83	-31.0	-35.7	10.0	8.21e-03	0	43	102	1048576	22	6169
2026-01-04 01:52:49.28	242.96	7.75	-31.0	-36.1	10.0	9.16e-03	0	43	102	1048576	21	6538
2026-01-04 01:52:50.28	242.89	7.68	-31.0	-35.9	9.8	8.25e-03	0	43	102	1048576	22	6291
2026-01-04 01:52:51.29	242.82	7.61	-31.1	-36.2	9.6	1.03e-02	0	43	102	1048576	22	6478
2026-01-04 01:52:52.29	242.75	7.54	-31.2	-36.5	9.3	2.36e-02	0	43	102	1048576	22	6630
2026-01-04 01:52:53.30	242.68	7.46	-31.0	-36.0	9.7	1.28e-02	0	43	102	1048576	22	6351
2026-01-04 01:52:54.30	242.61	7.39	-31.0	-36.1	9.6	1.24e-02	0	43	102	1048576	22	6417
2026-01-04 01:52:55.30	242.54	7.32	-31.2	-36.7	9.1	2.06e-02	0	43	102	1048576	22	6748
2026-01-04 01:52:56.31	242.47	7.25	-31.3	-37.0	8.8	3.16e-02	0	43	102	1048576	22	6960
2026-01-04 01:52:57.32	242.40	7.18	-31.2	-36.8	8.9	2.93e-02	0	43	102	1048576	22	6858
2026-01-04 01:52:58.32	242.33	7.11	-32.5	-43.6	4.5	1.32e-01	0	43	102	1048576	24	12905
2026-01-04 01:52:59.33	242.27	7.04	-33.1	-47.3	3.8	1.49e+00	0	43	104	1048576	26	18430
2026-01-04 01:53:00.35	242.20	6.96	-33.4	-47.9	3.8	1.49e+00	0	43	104	1048576	26	19097
2026-01-04 01:53:01.35	242.13	6.89	-33.6	-47.8	3.8	1.49e+00	0	43	104	1048576	27	18467
2026-01-04 01:53:02.36	242.07	6.82	-33.8	-48.2	3.8	1.49e+00	0	43	104	1048576	27	18901

#Closed at: 2026-01-04 01:53:02
#Recorded file [1 MB]: D:/data/31010_260104_044206.dat