passes_logs/2026/01/16/R4.6S_Anadyr/R4.6S_Anadyr__20260116_221220_NOAA_21_JPSS-2_rec.log

#Pass ID: 20260116_221220_NOAA 21 (JPSS-2)
#Satellite: NOAA 21 (JPSS-2)
#Configuration: NOAA-21
#almurnet v.1.7.20251203
#Start time: 2026-01-16 22:12:25

#Version: 2.2.20231116
#Station: R4.6S_Anadyr
#Location: 177.4865 lon 64.73178 lat
#TLE: 1 54234U 22150A   26016.56338662  .00000024  00000+0  32257-4 0  9990
#TLE: 2 54234  98.7500 317.4442 0000622 279.9774  80.1332 14.19534942165033

#Time	Az	El	Level	Level2	SNR	BER	BlckErr	Temp	State	Recorded	gain1	gain2
2026-01-16 22:12:25.62	107.60	0.28	-48.3	-50.0	5.7	0.00e+00	0	27	0	0	60	38562
2026-01-16 22:12:26.60	107.55	0.34	-48.2	-61.1	3.5	1.52e+00	0	28	104	0	60	39734
2026-01-16 22:12:27.57	107.50	0.39	-48.3	-61.1	3.5	1.52e+00	0	28	104	0	60	39860
2026-01-16 22:12:28.55	107.46	0.45	-48.2	-61.0	3.5	1.52e+00	0	28	104	0	60	39483
2026-01-16 22:12:29.53	107.41	0.50	-48.1	-61.0	3.5	1.52e+00	0	28	104	0	60	39505
2026-01-16 22:12:30.51	107.36	0.56	-48.2	-61.0	3.5	1.52e+00	0	28	104	0	60	39539
2026-01-16 22:12:31.49	107.31	0.61	-48.2	-61.1	3.5	1.52e+00	0	28	104	0	60	39807
2026-01-16 22:12:32.46	107.26	0.67	-48.2	-61.0	3.5	1.51e+00	0	28	104	0	60	39485
2026-01-16 22:12:33.44	107.22	0.72	-48.0	-61.0	3.5	1.52e+00	0	28	104	0	60	39330
2026-01-16 22:12:34.42	107.17	0.78	-48.0	-61.0	3.5	1.52e+00	0	28	104	0	60	39174
2026-01-16 22:12:35.40	107.12	0.84	-47.7	-60.8	3.5	1.52e+00	0	28	104	0	60	38663
2026-01-16 22:12:36.38	107.07	0.89	-47.8	-60.6	3.5	1.52e+00	0	28	104	0	60	37633
2026-01-16 22:12:37.36	107.02	0.95	-47.5	-60.4	3.5	1.52e+00	0	28	104	0	60	36712
2026-01-16 22:12:38.33	106.97	1.00	-47.1	-60.2	3.5	1.52e+00	0	28	104	0	60	35952
2026-01-16 22:12:39.31	106.92	1.06	-45.8	-59.5	3.5	1.52e+00	0	28	104	0	60	33065
2026-01-16 22:12:40.28	106.87	1.12	-45.5	-59.0	3.5	1.52e+00	0	28	104	0	60	31188
2026-01-16 22:12:41.26	106.82	1.17	-45.3	-59.0	3.5	1.52e+00	0	28	104	0	60	31102
2026-01-16 22:12:42.24	106.77	1.23	-45.4	-59.0	3.5	1.52e+00	0	28	104	0	60	31407
2026-01-16 22:12:43.21	106.73	1.28	-45.5	-59.1	3.5	1.51e+00	0	28	104	0	60	31571
2026-01-16 22:12:44.19	106.67	1.34	-45.5	-59.0	3.5	1.52e+00	0	28	104	0	60	31426
2026-01-16 22:12:45.17	106.62	1.40	-45.4	-59.1	3.5	1.51e+00	0	28	104	0	60	31654
2026-01-16 22:12:46.14	106.57	1.45	-45.5	-59.0	3.5	1.52e+00	0	29	104	0	60	31444
2026-01-16 22:12:47.12	106.52	1.51	-45.4	-59.1	3.5	1.51e+00	0	28	104	0	60	31670
2026-01-16 22:12:48.10	106.47	1.57	-45.5	-59.0	3.5	1.52e+00	0	29	104	0	60	31398
2026-01-16 22:12:49.07	106.42	1.62	-45.5	-59.0	3.5	1.52e+00	0	28	104	0	60	31415
2026-01-16 22:12:50.05	106.37	1.68	-45.5	-59.0	3.5	1.52e+00	0	28	104	0	60	31393
2026-01-16 22:12:51.03	106.32	1.74	-45.4	-59.0	3.5	1.52e+00	0	28	104	0	60	31430
2026-01-16 22:12:52.00	106.27	1.80	-45.6	-59.0	3.5	1.52e+00	0	29	104	0	60	31372
2026-01-16 22:12:52.98	106.21	1.85	-45.7	-59.0	3.5	1.52e+00	0	28	104	0	60	31405
2026-01-16 22:12:53.95	106.16	1.91	-45.6	-59.0	3.5	1.52e+00	0	29	104	0	60	31358
2026-01-16 22:12:54.93	106.11	1.97	-45.6	-59.0	3.5	1.52e+00	0	29	104	0	60	31192
2026-01-16 22:12:55.91	106.06	2.03	-45.6	-58.8	3.5	1.52e+00	0	29	104	0	60	30409
2026-01-16 22:12:56.89	106.00	2.08	-45.5	-58.7	3.5	1.52e+00	0	29	104	0	60	30145
2026-01-16 22:12:57.87	105.95	2.14	-45.5	-58.9	3.5	1.52e+00	0	29	104	0	60	30784
2026-01-16 22:12:58.85	105.90	2.20	-45.5	-58.8	3.5	1.52e+00	0	29	104	0	60	30596
2026-01-16 22:12:59.82	105.84	2.26	-45.4	-58.7	3.5	1.51e+00	0	28	104	0	60	30365
2026-01-16 22:13:00.80	105.79	2.32	-45.4	-58.7	3.5	1.52e+00	0	29	104	0	60	30221
2026-01-16 22:13:01.77	105.74	2.37	-45.5	-58.8	3.5	1.52e+00	0	29	104	0	60	30499
2026-01-16 22:13:02.75	105.68	2.43	-45.5	-58.9	3.5	1.52e+00	0	29	104	0	60	31100
2026-01-16 22:13:03.72	105.63	2.49	-45.5	-59.0	3.5	1.52e+00	0	29	104	0	60	31164
2026-01-16 22:13:04.70	105.57	2.55	-45.4	-58.9	3.5	1.52e+00	0	29	104	0	60	31037
2026-01-16 22:13:05.68	105.52	2.61	-45.3	-58.9	3.5	1.52e+00	0	29	104	0	60	30785
2026-01-16 22:13:06.65	105.46	2.67	-45.4	-58.8	3.5	1.52e+00	0	29	104	0	60	30551
2026-01-16 22:13:07.63	105.41	2.72	-45.4	-58.6	3.5	1.52e+00	0	29	104	0	60	29820
2026-01-16 22:13:08.61	105.35	2.78	-45.5	-58.6	3.5	1.52e+00	0	29	104	0	60	29737
2026-01-16 22:13:09.59	105.30	2.84	-45.5	-58.7	3.5	1.52e+00	0	29	104	0	60	30267
2026-01-16 22:13:10.57	105.24	2.90	-45.4	-58.9	3.5	1.52e+00	0	29	104	0	60	30993
2026-01-16 22:13:11.54	105.18	2.96	-45.5	-58.9	3.5	1.52e+00	0	29	104	0	60	30851
2026-01-16 22:13:12.53	105.13	3.02	-45.4	-58.0	3.5	1.52e+00	0	29	104	0	60	27832
2026-01-16 22:13:13.51	105.07	3.08	-45.2	-55.4	4.2	1.46e+00	0	29	104	0	60	20594
2026-01-16 22:13:14.49	105.01	3.14	-44.7	-51.4	7.1	4.25e-01	0	29	0	0	60	13000
2026-01-16 22:13:15.47	104.95	3.20	-43.9	-48.7	9.2	4.37e-02	0	29	0	3145728	60	9593
2026-01-16 22:13:16.45	104.90	3.26	-42.8	-46.4	11.9	8.12e-04	0	29	0	6291456	60	7300
2026-01-16 22:13:17.42	104.84	3.32	-41.8	-44.5	13.7	3.43e-05	0	29	0	9437184	58	6616
2026-01-16 22:13:18.40	104.78	3.38	-40.6	-42.8	15.5	0.00e+00	0	29	0	12582912	54	6816
2026-01-16 22:13:19.37	104.72	3.44	-39.9	-41.9	16.3	0.00e+00	0	29	0	14680064	54	6146
2026-01-16 22:13:20.35	104.66	3.50	-40.3	-42.2	15.4	0.00e+00	0	29	0	17825792	52	7153
2026-01-16 22:13:21.33	104.60	3.56	-45.3	-59.2	3.5	1.52e+00	0	29	104	18874368	60	32124
2026-01-16 22:13:22.31	104.55	3.62	-43.4	-47.1	14.5	1.49e-01	0	29	104	18874368	60	7953
2026-01-16 22:13:23.28	104.49	3.68	-41.6	-44.0	14.9	3.04e-04	0	29	0	20971520	56	7038
2026-01-16 22:13:24.26	104.43	3.74	-37.9	-39.5	19.1	0.00e+00	0	29	0	24117248	50	5884
2026-01-16 22:13:25.24	104.37	3.80	-44.1	-58.1	3.5	1.52e+00	0	29	104	25165824	60	28348
2026-01-16 22:13:26.21	104.31	3.86	-39.2	-41.1	16.9	8.50e-01	0	29	104	25165824	52	6308
2026-01-16 22:13:27.19	104.25	3.92	-39.2	-40.7	17.9	0.00e+00	0	29	0	26214400	52	6059
2026-01-16 22:13:28.17	104.19	3.98	-38.7	-40.2	18.3	0.00e+00	0	29	0	29360128	50	6393
2026-01-16 22:13:29.15	104.13	4.04	-38.3	-39.7	18.7	0.00e+00	0	29	0	32505856	50	6047
2026-01-16 22:13:30.13	104.06	4.10	-38.1	-39.5	19.0	0.00e+00	0	29	0	35651584	50	5926
2026-01-16 22:13:31.10	104.00	4.17	-37.7	-39.1	19.5	0.00e+00	0	29	0	38797312	48	6323
2026-01-16 22:13:32.08	103.94	4.23	-37.9	-39.2	19.3	0.00e+00	0	29	0	41943040	48	6411
2026-01-16 22:13:33.05	103.88	4.29	-38.0	-39.3	19.3	0.00e+00	0	29	0	45088768	48	6482
2026-01-16 22:13:34.03	103.82	4.35	-37.9	-39.3	19.4	0.00e+00	0	29	0	47185920	48	6484
2026-01-16 22:13:35.01	103.75	4.41	-38.1	-39.5	18.9	0.00e+00	0	29	0	50331648	48	6643
2026-01-16 22:13:35.98	103.69	4.47	-37.2	-38.5	19.9	0.00e+00	0	29	0	53477376	48	5891
2026-01-16 22:13:36.95	103.63	4.53	-37.3	-38.6	19.8	0.00e+00	0	29	0	56623104	48	5944
2026-01-16 22:13:37.93	103.57	4.60	-37.1	-38.4	20.1	0.00e+00	0	29	0	59768832	48	5821
2026-01-16 22:13:38.91	103.50	4.66	-37.2	-38.4	20.0	0.00e+00	0	29	0	62914560	48	5831
2026-01-16 22:13:39.88	103.44	4.72	-37.2	-38.5	20.1	0.00e+00	0	29	0	66060288	48	5866
2026-01-16 22:13:40.86	103.37	4.78	-37.2	-38.5	19.9	0.00e+00	0	29	0	69206016	48	5866
2026-01-16 22:13:41.84	103.31	4.85	-37.0	-38.2	20.3	0.00e+00	0	29	0	72351744	48	5684
2026-01-16 22:13:42.82	103.24	4.91	-37.1	-38.3	20.3	0.00e+00	0	29	0	75497472	48	5741
2026-01-16 22:13:43.79	103.18	4.97	-36.8	-38.0	20.6	0.00e+00	0	29	0	78643200	46	6244
2026-01-16 22:13:44.77	103.11	5.03	-37.0	-38.3	20.4	0.00e+00	0	29	0	81788928	46	6428
2026-01-16 22:13:45.75	103.05	5.10	-36.8	-38.0	20.5	0.00e+00	0	29	0	84934656	46	6262
2026-01-16 22:13:46.73	102.98	5.16	-36.8	-38.1	20.6	0.00e+00	0	29	0	87031808	46	6291
2026-01-16 22:13:47.70	102.92	5.22	-36.8	-38.0	20.6	0.00e+00	0	29	0	90177536	46	6255
2026-01-16 22:13:48.68	102.85	5.29	-37.0	-38.2	20.6	0.00e+00	0	29	0	93323264	46	6409
2026-01-16 22:13:49.66	102.78	5.35	-36.8	-38.0	20.8	0.00e+00	0	29	0	96468992	46	6256
2026-01-16 22:13:50.64	102.72	5.41	-36.6	-37.8	20.9	0.00e+00	0	29	0	99614720	46	6121
2026-01-16 22:13:51.61	102.65	5.48	-36.7	-37.9	20.8	0.00e+00	0	29	0	102760448	46	6159
2026-01-16 22:13:52.59	102.58	5.54	-36.8	-38.0	20.7	0.00e+00	0	29	0	105906176	46	6226
2026-01-16 22:13:53.57	102.51	5.60	-36.7	-37.8	20.7	0.00e+00	0	29	0	109051904	46	6131
2026-01-16 22:13:54.55	102.44	5.67	-36.5	-37.6	21.0	0.00e+00	0	29	0	112197632	46	5981
2026-01-16 22:13:55.53	102.38	5.73	-37.0	-38.2	20.4	0.00e+00	0	29	0	115343360	46	6416
2026-01-16 22:13:56.50	102.31	5.80	-36.4	-37.6	21.1	0.00e+00	0	29	0	118489088	46	5975
2026-01-16 22:13:57.48	102.24	5.86	-36.6	-37.9	20.9	0.00e+00	0	29	0	120586240	46	6161
2026-01-16 22:13:58.45	102.17	5.92	-36.3	-37.7	21.0	0.00e+00	0	29	0	123731968	46	6021
2026-01-16 22:13:59.42	102.10	5.99	-36.3	-37.7	21.0	0.00e+00	0	29	0	126877696	46	6018
2026-01-16 22:14:00.40	102.03	6.05	-36.2	-37.6	21.1	0.00e+00	0	29	0	130023424	46	5929
2026-01-16 22:14:01.38	101.96	6.12	-36.1	-37.5	21.2	0.00e+00	0	29	0	133169152	46	5881
2026-01-16 22:14:02.36	101.89	6.18	-36.2	-37.6	21.2	0.00e+00	0	29	0	136314880	46	5965
2026-01-16 22:14:03.33	101.82	6.25	-36.0	-37.4	21.4	0.00e+00	0	29	0	139460608	46	5827
2026-01-16 22:14:04.31	101.74	6.31	-36.1	-37.4	21.3	0.00e+00	0	29	0	142606336	46	5842
2026-01-16 22:14:05.29	101.67	6.38	-36.2	-37.5	21.2	0.00e+00	0	29	0	145752064	46	5906
2026-01-16 22:14:06.27	101.60	6.44	-36.1	-37.3	21.3	0.00e+00	0	29	0	148897792	46	5783
2026-01-16 22:14:07.25	101.53	6.51	-36.2	-37.4	21.2	0.00e+00	0	29	0	152043520	46	5838
2026-01-16 22:14:08.23	101.45	6.57	-36.1	-37.3	21.2	0.00e+00	0	29	0	154140672	46	5752
2026-01-16 22:14:09.20	101.38	6.64	-36.2	-37.4	21.2	0.00e+00	0	29	0	157286400	46	5794
2026-01-16 22:14:10.18	101.31	6.71	-36.2	-37.4	21.3	0.00e+00	0	29	0	160432128	46	5796
2026-01-16 22:14:11.16	101.23	6.77	-36.3	-37.5	21.2	0.00e+00	0	29	0	163577856	46	5891
2026-01-16 22:14:12.13	101.16	6.84	-36.1	-37.2	21.4	0.00e+00	0	29	0	166723584	46	5714
2026-01-16 22:14:13.11	101.08	6.90	-36.2	-37.3	21.3	0.00e+00	0	29	0	169869312	46	5763
2026-01-16 22:14:14.09	101.01	6.97	-36.3	-37.4	21.4	0.00e+00	0	29	0	173015040	46	5855
2026-01-16 22:14:15.07	100.93	7.04	-36.5	-37.6	21.1	0.00e+00	0	29	0	176160768	46	5955
2026-01-16 22:14:16.04	100.86	7.10	-36.4	-37.5	21.3	0.00e+00	0	29	0	179306496	46	5887
2026-01-16 22:14:17.02	100.78	7.17	-36.4	-37.5	21.4	0.00e+00	0	29	0	182452224	46	5864
2026-01-16 22:14:17.99	100.71	7.24	-36.3	-37.4	21.4	0.00e+00	0	29	0	185597952	46	5837
2026-01-16 22:14:18.97	100.63	7.30	-36.3	-37.4	21.6	0.00e+00	0	29	0	187695104	46	5804
2026-01-16 22:14:19.95	100.55	7.37	-36.1	-37.2	21.6	0.00e+00	0	29	0	190840832	46	5687
2026-01-16 22:14:20.92	100.48	7.44	-36.0	-37.1	21.7	0.00e+00	0	29	0	193986560	46	5649
2026-01-16 22:14:21.90	100.40	7.50	-36.3	-37.4	21.6	0.00e+00	0	29	0	197132288	46	5822
2026-01-16 22:14:22.88	100.32	7.57	-36.2	-37.3	21.5	0.00e+00	0	29	0	200278016	46	5765
2026-01-16 22:14:23.86	100.24	7.64	-35.9	-37.0	21.8	0.00e+00	0	29	0	203423744	46	5541
2026-01-16 22:14:24.84	100.16	7.71	-36.0	-37.1	21.7	0.00e+00	0	29	0	206569472	46	5605
2026-01-16 22:14:25.81	100.08	7.77	-36.0	-37.0	21.8	0.00e+00	0	29	0	209715200	46	5569
2026-01-16 22:14:26.79	100.00	7.84	-36.0	-37.0	21.8	0.00e+00	0	29	0	212860928	46	5576
2026-01-16 22:14:27.77	99.92	7.91	-35.9	-36.9	21.8	0.00e+00	0	29	0	216006656	46	5519
2026-01-16 22:14:28.75	99.84	7.98	-35.6	-36.6	22.2	0.00e+00	0	29	0	219152384	44	5963
2026-01-16 22:14:29.73	99.76	8.05	-35.7	-36.7	22.1	0.00e+00	0	29	0	221249536	44	6026
2026-01-16 22:14:30.70	99.68	8.12	-35.7	-36.8	22.0	0.00e+00	0	29	0	224395264	44	6086
2026-01-16 22:14:31.68	99.60	8.18	-35.7	-36.8	21.9	0.00e+00	0	29	0	227540992	44	6095
2026-01-16 22:14:32.66	99.51	8.25	-35.7	-36.7	22.0	0.00e+00	0	29	0	230686720	44	6030
2026-01-16 22:14:33.63	99.43	8.32	-35.7	-36.7	22.0	0.00e+00	0	29	0	233832448	44	6061
2026-01-16 22:14:34.61	99.35	8.39	-35.8	-36.8	22.0	0.00e+00	0	29	0	236978176	44	6092
2026-01-16 22:14:35.59	99.27	8.46	-35.6	-36.7	22.0	0.00e+00	0	29	0	240123904	44	5995
2026-01-16 22:14:36.57	99.18	8.53	-35.6	-36.6	22.1	0.00e+00	0	29	0	243269632	44	5948
2026-01-16 22:14:37.54	99.10	8.60	-35.8	-36.8	22.1	0.00e+00	0	29	0	246415360	44	6133
2026-01-16 22:14:38.52	99.01	8.67	-35.8	-36.9	21.9	0.00e+00	0	29	0	249561088	44	6151
2026-01-16 22:14:39.49	98.93	8.74	-35.7	-36.8	22.1	0.00e+00	0	29	0	252706816	44	6079
2026-01-16 22:14:40.47	98.84	8.81	-35.7	-36.8	22.1	0.00e+00	0	29	0	255852544	44	6071
2026-01-16 22:14:41.45	98.76	8.88	-35.6	-36.7	22.2	0.00e+00	0	29	0	258998272	44	6019
2026-01-16 22:14:42.43	98.67	8.95	-35.7	-36.8	22.0	0.00e+00	0	29	0	261095424	44	6126
2026-01-16 22:14:43.41	98.58	9.02	-35.4	-36.5	22.4	0.00e+00	0	29	0	264241152	44	5870
2026-01-16 22:14:44.39	98.50	9.09	-35.4	-36.5	22.3	0.00e+00	0	29	0	267386880	44	5881
2026-01-16 22:14:45.36	98.41	9.16	-35.4	-36.5	22.4	0.00e+00	0	29	0	270532608	44	5890
2026-01-16 22:14:46.34	98.32	9.23	-35.4	-36.5	22.4	0.00e+00	0	29	0	273678336	44	5876
2026-01-16 22:14:47.32	98.23	9.30	-35.5	-36.6	22.2	0.00e+00	0	29	0	276824064	44	5931
2026-01-16 22:14:48.29	98.15	9.37	-35.4	-36.5	22.4	0.00e+00	0	29	0	279969792	44	5859
2026-01-16 22:14:49.27	98.06	9.44	-35.4	-36.4	22.4	0.00e+00	0	29	0	283115520	44	5850
2026-01-16 22:14:50.25	97.97	9.51	-35.4	-36.5	22.3	0.00e+00	0	29	0	286261248	44	5904
2026-01-16 22:14:51.23	97.88	9.58	-35.3	-36.3	22.5	0.00e+00	0	29	0	289406976	44	5776
2026-01-16 22:14:52.20	97.79	9.65	-35.4	-36.4	22.3	0.00e+00	0	29	0	292552704	44	5827
2026-01-16 22:14:53.18	97.69	9.73	-35.4	-36.4	22.3	0.00e+00	0	29	0	294649856	44	5834
2026-01-16 22:14:54.16	97.60	9.80	-35.6	-36.6	22.3	0.00e+00	0	29	0	297795584	44	5959
2026-01-16 22:14:55.13	97.51	9.87	-35.3	-36.3	22.3	0.00e+00	0	29	0	300941312	44	5773
2026-01-16 22:14:56.11	97.42	9.94	-35.4	-36.4	22.3	0.00e+00	0	29	0	304087040	44	5858
2026-01-16 22:14:57.09	97.32	10.01	-35.3	-36.3	22.4	0.00e+00	0	29	0	307232768	44	5772
2026-01-16 22:14:58.07	97.23	10.08	-35.3	-36.3	22.5	0.00e+00	0	29	0	310378496	44	5770
2026-01-16 22:14:59.05	97.14	10.16	-35.2	-36.2	22.6	0.00e+00	0	29	0	313524224	44	5714
2026-01-16 22:15:00.03	97.04	10.23	-35.0	-36.0	22.8	0.00e+00	0	29	0	316669952	44	5554
2026-01-16 22:15:01.00	96.95	10.30	-34.8	-35.8	22.9	0.00e+00	0	29	0	319815680	44	5447
2026-01-16 22:15:01.98	96.85	10.37	-34.8	-35.8	23.0	0.00e+00	0	29	0	322961408	42	6079
2026-01-16 22:15:02.96	96.76	10.45	-34.8	-35.7	23.1	0.00e+00	0	29	0	326107136	42	6037
2026-01-16 22:15:03.94	96.66	10.52	-34.7	-35.7	23.1	0.00e+00	0	29	0	329252864	42	6015
2026-01-16 22:15:04.91	96.56	10.59	-34.7	-35.7	23.1	0.00e+00	0	29	0	331350016	42	6013
2026-01-16 22:15:05.89	96.47	10.67	-35.0	-35.9	22.9	0.00e+00	0	29	0	334495744	42	6191
2026-01-16 22:15:06.87	96.37	10.74	-35.2	-36.2	22.7	0.00e+00	0	29	0	337641472	42	6373
2026-01-16 22:15:07.85	96.27	10.81	-35.2	-36.2	22.8	0.00e+00	0	29	0	340787200	42	6371
2026-01-16 22:15:08.82	96.17	10.89	-35.0	-36.0	22.8	0.00e+00	0	29	0	343932928	42	6239
2026-01-16 22:15:09.80	96.07	10.96	-34.7	-35.6	23.1	0.00e+00	0	29	0	347078656	42	5978
2026-01-16 22:15:10.78	95.97	11.04	-34.6	-35.5	23.2	0.00e+00	0	29	0	350224384	42	5910
2026-01-16 22:15:11.75	95.87	11.11	-34.6	-35.6	23.2	0.00e+00	0	29	0	353370112	42	5948
2026-01-16 22:15:12.73	95.77	11.18	-34.4	-35.3	23.3	0.00e+00	0	29	0	356515840	42	5791
2026-01-16 22:15:13.71	95.67	11.26	-34.4	-35.3	23.3	0.00e+00	0	29	0	359661568	42	5787
2026-01-16 22:15:14.69	95.57	11.33	-34.3	-35.2	23.5	0.00e+00	0	29	0	361758720	42	5715
2026-01-16 22:15:15.67	95.46	11.41	-34.2	-35.2	23.5	0.00e+00	0	29	0	364904448	42	5677
2026-01-16 22:15:16.64	95.36	11.48	-34.4	-35.4	23.4	0.00e+00	0	29	0	368050176	42	5799
2026-01-16 22:15:17.62	95.26	11.56	-34.1	-35.1	23.6	0.00e+00	0	29	0	371195904	42	5616
2026-01-16 22:15:18.59	95.15	11.63	-34.2	-35.1	23.6	0.00e+00	0	29	0	374341632	42	5637
2026-01-16 22:15:19.57	95.05	11.71	-34.2	-35.2	23.5	0.00e+00	0	29	0	377487360	42	5663
2026-01-16 22:15:20.55	94.94	11.78	-34.2	-35.1	23.5	0.00e+00	0	29	0	380633088	42	5658
2026-01-16 22:15:21.52	94.84	11.86	-34.1	-35.1	23.5	0.00e+00	0	29	0	383778816	42	5624
2026-01-16 22:15:22.50	94.73	11.93	-34.1	-35.1	23.6	0.00e+00	0	29	0	386924544	42	5595
2026-01-16 22:15:23.48	94.62	12.01	-34.2	-35.2	23.4	0.00e+00	0	29	0	390070272	42	5688
2026-01-16 22:15:24.46	94.52	12.08	-34.3	-35.3	23.5	0.00e+00	0	29	0	393216000	42	5728
2026-01-16 22:15:25.44	94.41	12.16	-34.2	-35.1	23.6	0.00e+00	0	28	0	396361728	42	5643
2026-01-16 22:15:26.41	94.30	12.24	-34.2	-35.2	23.6	0.00e+00	0	29	0	398458880	42	5698
2026-01-16 22:15:27.39	94.19	12.31	-34.2	-35.2	23.5	0.00e+00	0	29	0	401604608	42	5665
2026-01-16 22:15:28.37	94.08	12.39	-34.1	-35.0	23.6	0.00e+00	0	29	0	404750336	42	5589
2026-01-16 22:15:29.34	93.97	12.46	-34.0	-34.9	23.8	0.00e+00	0	29	0	407896064	42	5497
2026-01-16 22:15:30.32	93.86	12.54	-33.9	-34.8	23.9	0.00e+00	0	28	0	411041792	42	5417
2026-01-16 22:15:31.29	93.75	12.62	-34.2	-35.1	23.6	0.00e+00	0	29	0	414187520	42	5634
2026-01-16 22:15:32.27	93.64	12.69	-34.1	-35.0	23.7	0.00e+00	0	29	0	417333248	42	5563
2026-01-16 22:15:33.25	93.52	12.77	-33.9	-34.8	23.9	0.00e+00	0	28	0	420478976	42	5463
2026-01-16 22:15:34.23	93.41	12.85	-34.0	-34.9	23.7	0.00e+00	0	28	0	423624704	42	5510
2026-01-16 22:15:35.20	93.30	12.93	-33.8	-34.8	23.9	0.00e+00	0	29	0	426770432	42	5411
2026-01-16 22:15:36.18	93.18	13.00	-33.9	-34.9	23.8	0.00e+00	0	29	0	429916160	42	5488
2026-01-16 22:15:37.16	93.07	13.08	-33.8	-34.7	24.0	0.00e+00	0	29	0	433061888	42	5369
2026-01-16 22:15:38.13	92.95	13.16	-33.7	-34.6	24.0	0.00e+00	0	29	0	435159040	42	5337
2026-01-16 22:15:39.11	92.84	13.24	-33.7	-34.7	23.9	0.00e+00	0	29	0	438304768	40	6007
2026-01-16 22:15:40.08	92.72	13.31	-33.8	-34.7	24.0	0.00e+00	0	29	0	441450496	40	6047
2026-01-16 22:15:41.06	92.60	13.39	-33.7	-34.6	24.0	0.00e+00	0	29	0	444596224	40	5989
2026-01-16 22:15:42.04	92.48	13.47	-33.7	-34.7	23.9	0.00e+00	0	28	0	447741952	40	6022
2026-01-16 22:15:43.01	92.37	13.55	-33.9	-34.8	23.8	0.00e+00	0	29	0	450887680	40	6121
2026-01-16 22:15:43.99	92.25	13.63	-34.0	-34.9	23.9	0.00e+00	0	29	0	454033408	40	6204
2026-01-16 22:15:44.97	92.12	13.70	-34.0	-35.0	23.8	0.00e+00	0	29	0	457179136	40	6246
2026-01-16 22:15:45.95	92.00	13.78	-33.9	-34.9	23.9	0.00e+00	0	29	0	460324864	40	6153
2026-01-16 22:15:46.92	91.88	13.86	-34.0	-34.9	23.8	0.00e+00	0	29	0	463470592	40	6182
2026-01-16 22:15:47.90	91.76	13.94	-33.9	-34.8	24.0	0.00e+00	0	29	0	466616320	40	6089
2026-01-16 22:15:48.88	91.64	14.02	-34.0	-34.9	23.9	0.00e+00	0	29	0	468713472	40	6190
2026-01-16 22:15:49.86	91.51	14.10	-33.9	-34.8	23.9	0.00e+00	0	29	0	471859200	40	6115
2026-01-16 22:15:50.84	91.39	14.18	-33.8	-34.7	24.0	0.00e+00	0	29	0	475004928	40	6038
2026-01-16 22:15:51.81	91.26	14.26	-34.0	-34.9	23.9	0.00e+00	0	29	0	478150656	40	6171
2026-01-16 22:15:52.79	91.14	14.34	-33.9	-34.9	23.9	0.00e+00	0	28	0	481296384	40	6151
2026-01-16 22:15:53.77	91.01	14.42	-34.1	-35.0	23.8	0.00e+00	0	29	0	484442112	40	6245
2026-01-16 22:15:54.75	90.89	14.50	-34.0	-34.9	23.9	0.00e+00	0	29	0	487587840	40	6187
2026-01-16 22:15:55.72	90.76	14.58	-34.0	-34.9	23.9	0.00e+00	0	29	0	490733568	40	6178
2026-01-16 22:15:56.70	90.63	14.66	-34.0	-34.9	23.8	0.00e+00	0	29	0	493879296	40	6172
2026-01-16 22:15:57.68	90.50	14.74	-34.0	-34.9	23.8	0.00e+00	0	29	0	497025024	40	6203
2026-01-16 22:15:58.66	90.37	14.82	-34.0	-34.9	23.9	0.00e+00	0	29	0	500170752	40	6199
2026-01-16 22:15:59.64	90.24	14.90	-34.1	-35.0	23.8	0.00e+00	0	29	0	503316480	40	6244
2026-01-16 22:16:00.62	90.11	14.98	-34.1	-35.0	23.8	0.00e+00	0	28	0	505413632	40	6271
2026-01-16 22:16:01.60	89.98	15.06	-34.2	-35.1	23.7	0.00e+00	0	29	0	508559360	40	6323
2026-01-16 22:16:02.57	89.84	15.14	-34.1	-35.1	23.8	0.00e+00	0	29	0	511705088	40	6292
2026-01-16 22:16:03.55	89.71	15.22	-34.0	-34.9	23.9	0.00e+00	0	29	0	514850816	40	6198
2026-01-16 22:16:04.53	89.58	15.30	-33.9	-34.8	23.9	0.00e+00	0	29	0	517996544	40	6111
2026-01-16 22:16:05.51	89.44	15.38	-34.0	-34.9	23.8	0.00e+00	0	29	0	521142272	40	6204
2026-01-16 22:16:06.49	89.30	15.46	-34.0	-34.9	23.9	0.00e+00	0	28	0	524288000	40	6162
2026-01-16 22:16:07.47	89.17	15.55	-34.1	-35.0	23.7	0.00e+00	0	29	0	527433728	40	6238
2026-01-16 22:16:08.44	89.03	15.63	-34.1	-35.1	23.7	0.00e+00	0	28	0	530579456	40	6294
2026-01-16 22:16:09.41	88.90	15.71	-34.2	-35.1	23.7	0.00e+00	0	29	0	533725184	40	6316
2026-01-16 22:16:10.39	88.76	15.79	-34.1	-35.1	23.7	0.00e+00	0	28	0	536870912	40	6306
2026-01-16 22:16:11.37	88.62	15.87	-34.2	-35.2	23.8	0.00e+00	0	28	0	538968064	40	6356
2026-01-16 22:16:12.35	88.48	15.95	-34.3	-35.2	23.8	0.00e+00	0	28	0	542113792	40	6410
2026-01-16 22:16:13.32	88.34	16.03	-34.3	-35.3	23.7	0.00e+00	0	29	0	545259520	40	6426
2026-01-16 22:16:14.30	88.19	16.12	-34.3	-35.3	23.8	0.00e+00	0	28	0	548405248	40	6427
2026-01-16 22:16:15.28	88.05	16.20	-34.3	-35.3	23.8	0.00e+00	0	29	0	551550976	40	6425
2026-01-16 22:16:16.26	87.91	16.28	-34.3	-35.3	23.7	0.00e+00	0	29	0	554696704	40	6429
2026-01-16 22:16:17.23	87.76	16.36	-34.2	-35.1	23.8	0.00e+00	0	29	0	557842432	40	6322
2026-01-16 22:16:18.22	87.62	16.45	-34.1	-35.1	23.8	0.00e+00	0	29	0	560988160	40	6280
2026-01-16 22:16:19.19	87.47	16.53	-34.3	-35.2	23.7	0.00e+00	0	29	0	564133888	40	6389
2026-01-16 22:16:20.17	87.33	16.61	-34.2	-35.2	23.7	0.00e+00	0	29	0	567279616	40	6352
2026-01-16 22:16:21.15	87.18	16.69	-34.2	-35.2	23.7	0.00e+00	0	29	0	570425344	40	6354
2026-01-16 22:16:22.12	87.03	16.78	-34.2	-35.1	23.8	0.00e+00	0	29	0	572522496	40	6323
2026-01-16 22:16:23.10	86.88	16.86	-34.2	-35.2	23.8	0.00e+00	0	29	0	575668224	40	6351
2026-01-16 22:16:24.07	86.73	16.94	-34.2	-35.2	23.7	0.00e+00	0	29	0	578813952	40	6353
2026-01-16 22:16:25.05	86.58	17.02	-34.2	-35.1	23.6	0.00e+00	0	29	0	581959680	40	6350
2026-01-16 22:16:26.02	86.43	17.11	-34.3	-35.2	23.6	0.00e+00	0	29	0	585105408	40	6398
2026-01-16 22:16:26.99	86.28	17.19	-34.5	-35.5	23.6	0.00e+00	0	29	0	588251136	40	6583
2026-01-16 22:16:27.97	86.13	17.27	-34.4	-35.3	23.6	0.00e+00	0	29	0	591396864	40	6492
2026-01-16 22:16:28.95	85.97	17.35	-34.5	-35.4	23.5	0.00e+00	0	29	0	594542592	40	6535
2026-01-16 22:16:29.93	85.82	17.44	-34.4	-35.4	23.6	0.00e+00	0	28	0	597688320	40	6508
2026-01-16 22:16:30.90	85.66	17.52	-34.4	-35.3	23.7	0.00e+00	0	29	0	600834048	40	6448
2026-01-16 22:16:31.88	85.51	17.60	-34.3	-35.2	23.8	0.00e+00	0	28	0	603979776	40	6407
2026-01-16 22:16:32.85	85.35	17.69	-34.2	-35.1	23.8	0.00e+00	0	28	0	607125504	40	6290
2026-01-16 22:16:33.83	85.19	17.77	-34.1	-35.0	23.9	0.00e+00	0	29	0	609222656	40	6264
2026-01-16 22:16:34.81	85.03	17.85	-34.1	-35.0	23.8	0.00e+00	0	29	0	612368384	40	6225
2026-01-16 22:16:35.79	84.87	17.94	-34.1	-35.0	23.8	0.00e+00	0	29	0	615514112	40	6271
2026-01-16 22:16:36.76	84.71	18.02	-34.0	-34.9	23.8	0.00e+00	0	29	0	618659840	40	6205
2026-01-16 22:16:37.74	84.55	18.10	-34.0	-35.0	23.9	0.00e+00	0	29	0	621805568	40	6224
2026-01-16 22:16:38.72	84.38	18.19	-34.1	-35.0	23.8	0.00e+00	0	29	0	624951296	40	6265
2026-01-16 22:16:39.70	84.22	18.27	-34.1	-35.0	23.9	0.00e+00	0	29	0	628097024	40	6241
2026-01-16 22:16:40.68	84.06	18.36	-34.2	-35.1	23.9	0.00e+00	0	29	0	631242752	40	6293
2026-01-16 22:16:41.66	83.89	18.44	-34.1	-35.0	23.9	0.00e+00	0	28	0	634388480	40	6254
2026-01-16 22:16:42.63	83.72	18.52	-34.1	-35.0	24.0	0.00e+00	0	28	0	637534208	40	6249
2026-01-16 22:16:43.61	83.56	18.61	-34.0	-34.9	24.1	0.00e+00	0	28	0	640679936	40	6184
2026-01-16 22:16:44.59	83.39	18.69	-33.9	-34.8	24.1	0.00e+00	0	28	0	643825664	40	6100
2026-01-16 22:16:45.57	83.22	18.78	-34.0	-34.9	24.1	0.00e+00	0	28	0	645922816	40	6168
2026-01-16 22:16:46.55	83.05	18.86	-33.8	-34.8	24.1	0.00e+00	0	28	0	649068544	40	6068
2026-01-16 22:16:47.52	82.88	18.94	-33.9	-34.8	24.1	0.00e+00	0	28	0	652214272	40	6116
2026-01-16 22:16:48.50	82.70	19.03	-33.7	-34.6	24.2	0.00e+00	0	29	0	655360000	40	5969
2026-01-16 22:16:49.48	82.53	19.11	-33.7	-34.6	24.2	0.00e+00	0	28	0	658505728	40	5945
2026-01-16 22:16:50.46	82.36	19.20	-33.7	-34.6	24.2	0.00e+00	0	28	0	661651456	40	5989
2026-01-16 22:16:51.43	82.18	19.28	-33.8	-34.7	24.1	0.00e+00	0	28	0	664797184	40	6033
2026-01-16 22:16:52.41	82.00	19.36	-33.8	-34.7	24.2	0.00e+00	0	28	0	667942912	40	6054
2026-01-16 22:16:53.38	81.83	19.45	-33.8	-34.8	24.1	0.00e+00	0	28	0	671088640	40	6070
2026-01-16 22:16:54.36	81.65	19.53	-33.8	-34.7	24.2	0.00e+00	0	28	0	674234368	40	6055
2026-01-16 22:16:55.34	81.47	19.62	-33.8	-34.7	24.2	0.00e+00	0	28	0	677380096	40	6047
2026-01-16 22:16:56.32	81.29	19.70	-33.7	-34.7	24.3	0.00e+00	0	28	0	679477248	40	5997
2026-01-16 22:16:57.30	81.11	19.78	-33.7	-34.6	24.3	0.00e+00	0	28	0	682622976	40	5968
2026-01-16 22:16:58.27	80.93	19.87	-33.8	-34.8	24.2	0.00e+00	0	28	0	685768704	40	6065
2026-01-16 22:16:59.25	80.74	19.95	-33.6	-34.5	24.3	0.00e+00	0	28	0	688914432	40	5867
2026-01-16 22:17:00.23	80.56	20.04	-33.7	-34.6	24.3	0.00e+00	0	28	0	692060160	40	5936
2026-01-16 22:17:01.20	80.38	20.12	-33.6	-34.5	24.4	0.00e+00	0	28	0	695205888	40	5885
2026-01-16 22:17:02.18	80.19	20.20	-33.9	-34.8	24.4	0.00e+00	0	28	0	698351616	40	6112
2026-01-16 22:17:03.16	80.00	20.29	-33.7	-34.6	24.3	0.00e+00	0	28	0	701497344	40	5983
2026-01-16 22:17:04.14	79.81	20.37	-33.7	-34.6	24.4	0.00e+00	0	28	0	704643072	40	5943
2026-01-16 22:17:05.12	79.62	20.45	-33.7	-34.6	24.4	0.00e+00	0	28	0	707788800	40	5980
2026-01-16 22:17:06.09	79.43	20.54	-34.0	-35.0	24.2	0.00e+00	0	28	0	710934528	40	6218
2026-01-16 22:17:07.07	79.24	20.62	-34.1	-35.1	24.1	0.00e+00	0	28	0	713031680	40	6292
2026-01-16 22:17:08.05	79.05	20.70	-33.9	-34.8	24.2	0.00e+00	0	28	0	716177408	40	6082
2026-01-16 22:17:09.03	78.86	20.79	-33.8	-34.7	24.3	0.00e+00	0	28	0	719323136	40	6060
2026-01-16 22:17:10.00	78.66	20.87	-33.6	-34.5	24.4	0.00e+00	0	28	0	722468864	40	5888
2026-01-16 22:17:10.97	78.47	20.95	-33.2	-34.1	24.7	0.00e+00	0	28	0	725614592	40	5613
2026-01-16 22:17:11.95	78.27	21.04	-33.3	-34.2	24.7	0.00e+00	0	28	0	728760320	40	5667
2026-01-16 22:17:12.93	78.07	21.12	-33.1	-34.0	24.7	0.00e+00	0	28	0	731906048	40	5544
2026-01-16 22:17:13.91	77.87	21.20	-33.1	-34.0	24.7	0.00e+00	0	28	0	735051776	40	5563
2026-01-16 22:17:14.89	77.67	21.29	-33.1	-34.0	24.7	0.00e+00	0	28	0	738197504	40	5577
2026-01-16 22:17:15.87	77.47	21.37	-33.3	-34.2	24.7	0.00e+00	0	28	0	741343232	40	5669
2026-01-16 22:17:16.85	77.27	21.45	-33.4	-34.3	24.6	0.00e+00	0	28	0	744488960	40	5743
2026-01-16 22:17:17.82	77.07	21.53	-33.4	-34.3	24.6	0.00e+00	0	28	0	746586112	40	5760
2026-01-16 22:17:18.80	76.86	21.62	-33.4	-34.3	24.7	0.00e+00	0	28	0	749731840	40	5767
2026-01-16 22:17:19.77	76.66	21.70	-33.6	-34.4	24.7	0.00e+00	0	28	0	752877568	40	5842
2026-01-16 22:17:20.75	76.45	21.78	-33.7	-34.6	24.7	0.00e+00	0	28	0	756023296	40	5934
2026-01-16 22:17:21.73	76.24	21.86	-33.7	-34.5	24.8	0.00e+00	0	28	0	759169024	40	5918
2026-01-16 22:17:22.70	76.04	21.94	-33.3	-34.2	24.8	0.00e+00	0	28	0	762314752	40	5700
2026-01-16 22:17:23.68	75.83	22.03	-33.3	-34.2	24.8	0.00e+00	0	28	0	765460480	40	5687
2026-01-16 22:17:24.65	75.62	22.11	-33.3	-34.2	24.7	0.00e+00	0	28	0	768606208	40	5684
2026-01-16 22:17:25.63	75.41	22.19	-33.2	-34.0	24.5	0.00e+00	0	28	0	771751936	40	5590
2026-01-16 22:17:26.61	75.19	22.27	-33.3	-34.2	24.6	0.00e+00	0	28	0	774897664	40	5690
2026-01-16 22:17:27.59	74.98	22.35	-33.6	-34.4	24.4	0.00e+00	0	28	0	778043392	40	5856
2026-01-16 22:17:28.56	74.76	22.43	-33.2	-34.1	24.8	0.00e+00	0	28	0	781189120	40	5649
2026-01-16 22:17:29.54	74.55	22.51	-33.2	-34.1	24.7	0.00e+00	0	28	0	783286272	40	5627
2026-01-16 22:17:30.52	74.33	22.59	-33.2	-34.1	24.8	0.00e+00	0	28	0	786432000	40	5603
2026-01-16 22:17:31.50	74.11	22.67	-33.3	-34.1	24.7	0.00e+00	0	28	0	789577728	40	5650
2026-01-16 22:17:32.47	73.89	22.75	-33.1	-34.0	24.8	0.00e+00	0	28	0	792723456	40	5540
2026-01-16 22:17:33.45	73.67	22.83	-33.3	-34.2	24.7	0.00e+00	0	28	0	795869184	40	5671
2026-01-16 22:17:34.43	73.45	22.91	-33.3	-34.2	24.7	0.00e+00	0	28	0	799014912	40	5705
2026-01-16 22:17:35.41	73.22	22.99	-33.5	-34.4	24.6	0.00e+00	0	28	0	802160640	40	5811
2026-01-16 22:17:36.38	73.00	23.07	-33.6	-34.5	24.4	0.00e+00	0	28	0	805306368	40	5922
2026-01-16 22:17:37.36	72.77	23.15	-34.0	-34.9	24.2	0.00e+00	0	28	0	808452096	40	6198
2026-01-16 22:17:38.34	72.55	23.23	-33.9	-34.8	24.1	0.00e+00	0	28	0	811597824	40	6127
2026-01-16 22:17:39.32	72.32	23.31	-33.9	-34.8	24.2	0.00e+00	0	28	0	814743552	40	6129
2026-01-16 22:17:40.31	72.09	23.39	-33.8	-34.7	24.4	0.00e+00	0	28	0	817889280	40	5996
2026-01-16 22:17:41.28	71.86	23.47	-33.5	-34.4	24.5	0.00e+00	0	28	0	819986432	40	5818
2026-01-16 22:17:42.26	71.62	23.54	-33.6	-34.5	24.5	0.00e+00	0	28	0	823132160	40	5900
2026-01-16 22:17:43.23	71.39	23.62	-33.6	-34.4	24.5	0.00e+00	0	28	0	826277888	40	5857
2026-01-16 22:17:44.21	71.16	23.70	-33.6	-34.5	24.5	0.00e+00	0	28	0	829423616	40	5872
2026-01-16 22:17:45.19	70.92	23.78	-33.8	-34.7	24.5	0.00e+00	0	28	0	832569344	40	6018
2026-01-16 22:17:46.16	70.69	23.85	-33.9	-34.8	24.4	0.00e+00	0	28	0	835715072	40	6115
2026-01-16 22:17:47.15	70.45	23.93	-33.7	-34.5	24.5	0.00e+00	0	28	0	838860800	40	5926
2026-01-16 22:17:48.12	70.21	24.00	-33.6	-34.5	24.5	0.00e+00	0	28	0	842006528	40	5883
2026-01-16 22:17:49.10	69.97	24.08	-33.4	-34.3	24.6	0.00e+00	0	28	0	845152256	40	5755
2026-01-16 22:17:50.08	69.73	24.16	-33.7	-34.6	24.5	0.00e+00	0	28	0	848297984	40	5935
2026-01-16 22:17:51.06	69.49	24.23	-33.6	-34.5	24.5	0.00e+00	0	28	0	851443712	40	5871
2026-01-16 22:17:52.04	69.25	24.31	-33.5	-34.4	24.5	0.00e+00	0	28	0	853540864	40	5796
2026-01-16 22:17:53.01	69.00	24.38	-33.5	-34.4	24.5	0.00e+00	0	28	0	856686592	40	5847
2026-01-16 22:17:53.99	68.76	24.45	-33.6	-34.5	24.5	0.00e+00	0	28	0	859832320	40	5914
2026-01-16 22:17:54.97	68.51	24.53	-33.8	-34.6	24.4	0.00e+00	0	28	0	862978048	40	5994
2026-01-16 22:17:55.94	68.26	24.60	-33.9	-34.8	24.4	0.00e+00	0	28	0	866123776	40	6099
2026-01-16 22:17:56.92	68.01	24.67	-33.9	-34.8	24.3	0.00e+00	0	28	0	869269504	40	6110
2026-01-16 22:17:57.89	67.77	24.75	-33.7	-34.6	24.4	0.00e+00	0	28	0	872415232	40	5980
2026-01-16 22:17:58.87	67.52	24.82	-33.9	-34.8	24.4	0.00e+00	0	28	0	875560960	40	6083
2026-01-16 22:17:59.85	67.26	24.89	-34.0	-34.9	24.2	0.00e+00	0	28	0	878706688	40	6181
2026-01-16 22:18:00.83	67.01	24.96	-33.9	-34.8	24.3	0.00e+00	0	28	0	881852416	40	6096
2026-01-16 22:18:01.80	66.76	25.03	-33.8	-34.8	24.3	0.00e+00	0	28	0	884998144	40	6067
2026-01-16 22:18:02.78	66.50	25.10	-33.9	-34.8	24.2	0.00e+00	0	28	0	887095296	40	6105
2026-01-16 22:18:03.76	66.24	25.17	-33.9	-34.8	24.3	0.00e+00	0	28	0	890241024	40	6113
2026-01-16 22:18:04.73	65.99	25.24	-34.0	-34.9	24.2	0.00e+00	0	28	0	893386752	40	6202
2026-01-16 22:18:05.71	65.73	25.31	-34.1	-35.0	24.3	0.00e+00	0	28	0	896532480	40	6232
2026-01-16 22:18:06.69	65.47	25.38	-34.1	-35.0	24.3	0.00e+00	0	28	0	899678208	40	6256
2026-01-16 22:18:07.67	65.20	25.45	-34.1	-35.0	24.2	0.00e+00	0	28	0	902823936	40	6272
2026-01-16 22:18:08.65	64.94	25.51	-34.0	-34.9	24.2	0.00e+00	0	28	0	905969664	40	6182
2026-01-16 22:18:09.63	64.68	25.58	-34.1	-35.0	24.3	0.00e+00	0	28	0	909115392	40	6241
2026-01-16 22:18:10.60	64.41	25.65	-34.1	-35.0	24.2	0.00e+00	0	28	0	912261120	40	6222
2026-01-16 22:18:11.58	64.15	25.71	-33.9	-34.8	24.5	0.00e+00	0	28	0	915406848	40	6073
2026-01-16 22:18:12.56	63.88	25.78	-33.7	-34.6	24.5	0.00e+00	0	28	0	918552576	40	5954
2026-01-16 22:18:13.53	63.61	25.84	-33.8	-34.7	24.4	0.00e+00	0	28	0	920649728	40	6037
2026-01-16 22:18:14.51	63.34	25.91	-33.7	-34.5	24.4	0.00e+00	0	28	0	923795456	40	5926
2026-01-16 22:18:15.49	63.07	25.97	-33.7	-34.6	24.4	0.00e+00	0	28	0	926941184	40	5987
2026-01-16 22:18:16.46	62.80	26.04	-33.8	-34.7	24.2	0.00e+00	0	28	0	930086912	40	6055
2026-01-16 22:18:17.44	62.53	26.10	-33.8	-34.7	24.4	0.00e+00	0	28	0	933232640	40	5997
2026-01-16 22:18:18.42	62.25	26.16	-33.8	-34.7	24.3	0.00e+00	0	28	0	936378368	40	6063
2026-01-16 22:18:19.40	61.98	26.22	-33.8	-34.7	24.3	0.00e+00	0	28	0	939524096	40	6016
2026-01-16 22:18:20.38	61.70	26.28	-33.7	-34.6	24.4	0.00e+00	0	28	0	942669824	40	5938
2026-01-16 22:18:21.35	61.43	26.34	-33.8	-34.7	24.2	0.00e+00	0	28	0	945815552	40	6019
2026-01-16 22:18:22.33	61.15	26.40	-33.9	-34.8	24.1	0.00e+00	0	28	0	948961280	40	6082
2026-01-16 22:18:23.31	60.87	26.46	-33.7	-34.6	24.4	0.00e+00	0	28	0	952107008	40	5942
2026-01-16 22:18:24.29	60.59	26.52	-33.8	-34.7	24.3	0.00e+00	0	28	0	955252736	40	6034
2026-01-16 22:18:25.26	60.31	26.58	-34.0	-34.9	24.4	0.00e+00	0	28	0	957349888	40	6139
2026-01-16 22:18:26.24	60.03	26.64	-33.8	-34.8	24.3	0.00e+00	0	28	0	960495616	40	6072
2026-01-16 22:18:27.22	59.74	26.69	-33.9	-34.9	24.3	0.00e+00	0	28	0	963641344	40	6140
2026-01-16 22:18:28.20	59.46	26.75	-33.8	-34.7	24.5	0.00e+00	0	28	0	966787072	40	6030
2026-01-16 22:18:29.18	59.17	26.81	-33.7	-34.5	24.5	0.00e+00	0	28	0	969932800	40	5919
2026-01-16 22:18:30.15	58.89	26.86	-33.8	-34.7	24.3	0.00e+00	0	28	0	973078528	40	6022
2026-01-16 22:18:31.13	58.60	26.91	-33.6	-34.5	24.4	0.00e+00	0	28	0	976224256	40	5912
2026-01-16 22:18:32.11	58.31	26.97	-33.7	-34.6	24.5	0.00e+00	0	28	0	979369984	40	5932
2026-01-16 22:18:33.08	58.03	27.02	-33.7	-34.6	24.5	0.00e+00	0	28	0	982515712	40	5931
2026-01-16 22:18:34.06	57.74	27.07	-33.3	-34.2	24.7	0.00e+00	0	28	0	985661440	40	5702
2026-01-16 22:18:35.03	57.45	27.12	-33.3	-34.2	24.8	0.00e+00	0	28	0	988807168	40	5671
2026-01-16 22:18:36.02	57.15	27.17	-33.2	-34.1	24.8	0.00e+00	0	28	0	991952896	40	5606
2026-01-16 22:18:36.99	56.86	27.22	-33.3	-34.2	24.8	0.00e+00	0	28	0	995098624	40	5678
2026-01-16 22:18:37.97	56.57	27.27	-33.5	-34.4	24.5	0.00e+00	0	28	0	997195776	40	5800
2026-01-16 22:18:38.94	56.28	27.32	-33.7	-34.6	24.4	0.00e+00	0	28	0	1000341504	40	5981
2026-01-16 22:18:39.92	55.98	27.37	-33.8	-34.7	24.4	0.00e+00	0	28	0	1003487232	40	6002
2026-01-16 22:18:40.90	55.68	27.41	-33.9	-34.8	24.3	0.00e+00	0	28	0	1006632960	40	6075
2026-01-16 22:18:41.88	55.39	27.46	-33.8	-34.7	24.4	0.00e+00	0	28	0	1009778688	40	6032
2026-01-16 22:18:42.86	55.09	27.51	-33.7	-34.6	24.5	0.00e+00	0	28	0	1012924416	40	5955
2026-01-16 22:18:43.84	54.79	27.55	-33.6	-34.5	24.4	0.00e+00	0	28	0	1016070144	40	5908
2026-01-16 22:18:44.81	54.49	27.59	-33.8	-34.7	24.4	0.00e+00	0	28	0	1019215872	40	6035
2026-01-16 22:18:45.79	54.19	27.64	-33.7	-34.6	24.5	0.00e+00	0	28	0	1022361600	40	5955
2026-01-16 22:18:46.76	53.89	27.68	-33.7	-34.6	24.5	0.00e+00	0	28	0	1025507328	40	5979
2026-01-16 22:18:47.74	53.59	27.72	-33.6	-34.5	24.6	0.00e+00	0	28	0	1028653056	40	5874
2026-01-16 22:18:48.72	53.28	27.76	-33.6	-34.4	24.6	0.00e+00	0	28	0	1030750208	40	5845
2026-01-16 22:18:49.70	52.98	27.80	-33.3	-34.2	24.7	0.00e+00	0	28	0	1033895936	40	5713
2026-01-16 22:18:50.67	52.68	27.84	-33.5	-34.4	24.6	0.00e+00	0	28	0	1037041664	40	5813
2026-01-16 22:18:51.65	52.37	27.88	-33.6	-34.5	24.6	0.00e+00	0	28	0	1040187392	40	5895
2026-01-16 22:18:52.62	52.07	27.91	-33.6	-34.5	24.6	0.00e+00	0	28	0	1043333120	40	5901
2026-01-16 22:18:53.60	51.76	27.95	-33.7	-34.6	24.5	0.00e+00	0	28	0	1046478848	40	5942
2026-01-16 22:18:54.58	51.45	27.98	-33.6	-34.5	24.5	0.00e+00	0	28	0	1049624576	40	5868
2026-01-16 22:18:55.55	51.15	28.02	-33.4	-34.3	24.6	0.00e+00	0	28	0	1052770304	40	5759
2026-01-16 22:18:56.53	50.84	28.05	-33.2	-34.1	24.7	0.00e+00	0	28	0	1055916032	40	5608
2026-01-16 22:18:57.51	50.53	28.08	-33.4	-34.2	24.6	0.00e+00	0	28	0	1059061760	40	5722
2026-01-16 22:18:58.48	50.22	28.12	-33.4	-34.3	24.5	0.00e+00	0	28	0	1061158912	40	5739
2026-01-16 22:18:59.46	49.91	28.15	-33.5	-34.4	24.6	0.00e+00	0	28	0	1064304640	40	5829
2026-01-16 22:19:00.43	49.60	28.18	-33.6	-34.5	24.5	0.00e+00	0	28	0	1067450368	40	5899
2026-01-16 22:19:01.41	49.29	28.21	-33.5	-34.4	24.6	0.00e+00	0	28	0	1070596096	40	5828
2026-01-16 22:19:02.39	48.98	28.23	-33.3	-34.2	24.8	0.00e+00	0	28	0	1073741824	40	5707
2026-01-16 22:19:03.37	48.67	28.26	-33.5	-34.4	24.5	0.00e+00	0	28	0	1076887552	40	5798
2026-01-16 22:19:04.35	48.35	28.29	-33.7	-34.6	24.4	0.00e+00	0	28	0	1080033280	40	5961
2026-01-16 22:19:05.33	48.04	28.31	-33.6	-34.5	24.4	0.00e+00	0	28	0	1083179008	40	5902
2026-01-16 22:19:06.30	47.73	28.34	-33.8	-34.7	24.4	0.00e+00	0	28	0	1086324736	40	6058
2026-01-16 22:19:07.28	47.41	28.36	-33.9	-34.8	24.3	0.00e+00	0	28	0	1089470464	40	6094
2026-01-16 22:19:08.26	47.09	28.38	-34.0	-34.9	24.2	0.00e+00	0	28	0	1092616192	40	6200
2026-01-16 22:19:09.24	46.78	28.40	-33.9	-34.8	24.4	0.00e+00	0	28	0	1095761920	40	6074
2026-01-16 22:19:10.21	46.47	28.42	-33.8	-34.7	24.3	0.00e+00	0	28	0	1097859072	40	6040
2026-01-16 22:19:11.19	46.15	28.44	-33.7	-34.6	24.4	0.00e+00	0	28	0	1101004800	40	5950
2026-01-16 22:19:12.17	45.83	28.46	-34.0	-34.9	24.4	0.00e+00	0	28	0	1104150528	40	6153
2026-01-16 22:19:13.14	45.52	28.48	-33.8	-34.7	24.4	0.00e+00	0	28	0	1107296256	40	6017
2026-01-16 22:19:14.12	45.20	28.50	-33.7	-34.6	24.6	0.00e+00	0	28	0	1110441984	40	5930
2026-01-16 22:19:15.09	44.88	28.51	-33.4	-34.3	24.7	0.00e+00	0	28	0	1113587712	40	5771
2026-01-16 22:19:16.07	44.57	28.53	-33.2	-34.0	24.9	0.00e+00	0	28	0	1116733440	40	5591
2026-01-16 22:19:17.05	44.25	28.54	-33.2	-34.1	24.9	0.00e+00	0	28	0	1119879168	40	5643
2026-01-16 22:19:18.02	43.93	28.55	-33.4	-34.3	24.7	0.00e+00	0	28	0	1123024896	40	5739
2026-01-16 22:19:19.00	43.61	28.57	-33.5	-34.4	24.6	0.00e+00	0	28	0	1126170624	40	5814
2026-01-16 22:19:19.97	43.29	28.58	-33.6	-34.5	24.5	0.00e+00	0	28	0	1129316352	40	5877
2026-01-16 22:19:20.95	42.98	28.59	-33.6	-34.5	24.5	0.00e+00	0	28	0	1131413504	40	5906
2026-01-16 22:19:21.93	42.66	28.60	-33.6	-34.5	24.6	0.00e+00	0	28	0	1134559232	40	5876
2026-01-16 22:19:22.91	42.34	28.60	-33.7	-34.6	24.4	0.00e+00	0	28	0	1137704960	40	5989
2026-01-16 22:19:23.88	42.02	28.61	-33.8	-34.8	24.4	0.00e+00	0	28	0	1140850688	40	6073
2026-01-16 22:19:24.86	41.70	28.62	-33.5	-34.4	24.6	0.00e+00	0	28	0	1143996416	40	5811
2026-01-16 22:19:25.84	41.38	28.62	-33.6	-34.4	24.6	0.00e+00	0	28	0	1147142144	40	5854
2026-01-16 22:19:26.82	41.06	28.62	-33.6	-34.5	24.5	0.00e+00	0	28	0	1150287872	40	5875
2026-01-16 22:19:27.79	40.74	28.63	-33.6	-34.5	24.4	0.00e+00	0	28	0	1153433600	40	5867
2026-01-16 22:19:28.77	40.42	28.63	-33.9	-34.8	24.2	0.00e+00	0	28	0	1156579328	40	6105
2026-01-16 22:19:29.75	40.10	28.63	-34.0	-34.9	24.4	0.00e+00	0	28	0	1159725056	40	6172
2026-01-16 22:19:30.73	39.78	28.63	-34.2	-35.1	24.2	0.00e+00	0	28	0	1162870784	40	6289
2026-01-16 22:19:31.71	39.46	28.63	-34.4	-35.3	24.1	0.00e+00	0	28	0	1166016512	40	6462
2026-01-16 22:19:32.69	39.14	28.63	-34.0	-34.9	24.3	0.00e+00	0	28	0	1169162240	40	6135
2026-01-16 22:19:33.66	38.82	28.62	-33.5	-34.4	24.5	0.00e+00	0	28	0	1171259392	40	5840
2026-01-16 22:19:34.64	38.50	28.62	-33.6	-34.5	24.4	0.00e+00	0	28	0	1174405120	40	5886
2026-01-16 22:19:35.62	38.18	28.62	-33.5	-34.4	24.6	0.00e+00	0	28	0	1177550848	40	5815
2026-01-16 22:19:36.59	37.86	28.61	-33.5	-34.4	24.6	0.00e+00	0	28	0	1180696576	40	5800
2026-01-16 22:19:37.57	37.54	28.60	-33.6	-34.5	24.6	0.00e+00	0	28	0	1183842304	40	5918
2026-01-16 22:19:38.55	37.22	28.59	-33.7	-34.6	24.5	0.00e+00	0	28	0	1186988032	40	5951
2026-01-16 22:19:39.53	36.90	28.58	-33.6	-34.4	24.5	0.00e+00	0	28	0	1190133760	40	5854
2026-01-16 22:19:40.50	36.58	28.57	-33.4	-34.3	24.6	0.00e+00	0	28	0	1193279488	40	5771
2026-01-16 22:19:41.48	36.26	28.56	-33.3	-34.2	24.6	0.00e+00	0	28	0	1196425216	40	5684
2026-01-16 22:19:42.46	35.95	28.55	-33.2	-34.0	24.7	0.00e+00	0	28	0	1199570944	40	5591
2026-01-16 22:19:43.43	35.63	28.54	-33.4	-34.2	24.6	0.00e+00	0	28	0	1201668096	40	5720
2026-01-16 22:19:44.41	35.31	28.53	-33.4	-34.3	24.5	0.00e+00	0	28	0	1204813824	40	5767
2026-01-16 22:19:45.39	34.99	28.51	-33.4	-34.3	24.5	0.00e+00	0	28	0	1207959552	40	5784
2026-01-16 22:19:46.37	34.67	28.49	-33.4	-34.3	24.7	0.00e+00	0	28	0	1211105280	40	5727
2026-01-16 22:19:47.35	34.36	28.48	-33.4	-34.2	24.6	0.00e+00	0	28	0	1214251008	40	5721
2026-01-16 22:19:48.32	34.04	28.46	-33.3	-34.1	24.6	0.00e+00	0	28	0	1217396736	40	5659
2026-01-16 22:19:49.30	33.73	28.44	-33.4	-34.3	24.7	0.00e+00	0	28	0	1220542464	40	5765
2026-01-16 22:19:50.28	33.41	28.42	-33.5	-34.3	24.5	0.00e+00	0	28	0	1223688192	40	5785
2026-01-16 22:19:51.25	33.10	28.40	-33.3	-34.2	24.6	0.00e+00	0	28	0	1226833920	40	5680
2026-01-16 22:19:52.23	32.78	28.38	-33.6	-34.5	24.4	0.00e+00	0	28	0	1229979648	40	5880
2026-01-16 22:19:53.21	32.46	28.36	-33.9	-34.8	24.2	0.00e+00	0	28	0	1233125376	40	6076
2026-01-16 22:19:54.19	32.15	28.33	-33.6	-34.5	24.5	0.00e+00	0	28	0	1236271104	40	5882
2026-01-16 22:19:55.17	31.84	28.31	-33.7	-34.6	24.3	0.00e+00	0	28	0	1238368256	40	5962
2026-01-16 22:19:56.15	31.52	28.28	-33.7	-34.6	24.4	0.00e+00	0	28	0	1241513984	40	5965
2026-01-16 22:19:57.12	31.21	28.26	-33.6	-34.6	24.4	0.00e+00	0	28	0	1244659712	40	5932
2026-01-16 22:19:58.10	30.90	28.23	-33.6	-34.5	24.4	0.00e+00	0	28	0	1247805440	40	5908
2026-01-16 22:19:59.08	30.59	28.20	-33.7	-34.6	24.5	0.00e+00	0	28	0	1250951168	40	5951
2026-01-16 22:20:00.06	30.27	28.17	-33.6	-34.4	24.6	0.00e+00	0	28	0	1254096896	40	5854
2026-01-16 22:20:01.03	29.97	28.14	-33.4	-34.3	24.7	0.00e+00	0	28	0	1257242624	40	5767
2026-01-16 22:20:02.02	29.65	28.11	-33.4	-34.2	24.8	0.00e+00	0	28	0	1260388352	40	5714
2026-01-16 22:20:02.99	29.35	28.08	-33.6	-34.5	24.7	0.00e+00	0	28	0	1263534080	40	5867
2026-01-16 22:20:03.97	29.04	28.05	-33.3	-34.2	24.7	0.00e+00	0	28	0	1266679808	40	5677
2026-01-16 22:20:04.95	28.73	28.01	-33.5	-34.4	24.6	0.00e+00	0	28	0	1269825536	40	5835
2026-01-16 22:20:05.92	28.42	27.98	-33.6	-34.5	24.6	0.00e+00	0	28	0	1271922688	40	5907
2026-01-16 22:20:06.90	28.12	27.94	-33.8	-34.7	24.4	0.00e+00	0	28	0	1275068416	40	6025
2026-01-16 22:20:07.87	27.81	27.91	-33.9	-34.8	24.2	0.00e+00	0	28	0	1278214144	40	6117
2026-01-16 22:20:08.85	27.51	27.87	-33.8	-34.8	24.2	0.00e+00	0	28	0	1281359872	40	6080
2026-01-16 22:20:09.83	27.20	27.83	-33.7	-34.6	24.3	0.00e+00	0	28	0	1284505600	40	5964
2026-01-16 22:20:10.80	26.90	27.79	-33.8	-34.7	24.4	0.00e+00	0	28	0	1287651328	40	6062
2026-01-16 22:20:11.78	26.60	27.75	-33.6	-34.5	24.5	0.00e+00	0	28	0	1290797056	40	5903
2026-01-16 22:20:12.75	26.30	27.71	-33.9	-34.8	24.3	0.00e+00	0	28	0	1293942784	40	6067
2026-01-16 22:20:13.73	25.99	27.67	-33.9	-34.8	24.3	0.00e+00	0	28	0	1297088512	40	6088
2026-01-16 22:20:14.71	25.69	27.63	-33.7	-34.6	24.4	0.00e+00	0	28	0	1300234240	40	5928
2026-01-16 22:20:15.69	25.39	27.59	-33.9	-34.8	24.3	0.00e+00	0	28	0	1303379968	40	6090
2026-01-16 22:20:16.66	25.10	27.54	-33.8	-34.8	24.2	0.00e+00	0	28	0	1305477120	40	6068
2026-01-16 22:20:17.64	24.80	27.50	-33.9	-34.8	24.3	0.00e+00	0	28	0	1308622848	40	6097
2026-01-16 22:20:18.62	24.50	27.45	-33.7	-34.7	24.3	0.00e+00	0	28	0	1311768576	40	6000
2026-01-16 22:20:19.59	24.20	27.41	-33.7	-34.6	24.4	0.00e+00	0	28	0	1314914304	40	5953
2026-01-16 22:20:20.57	23.91	27.36	-33.6	-34.5	24.3	0.00e+00	0	28	0	1318060032	40	5923
2026-01-16 22:20:21.55	23.61	27.31	-33.7	-34.6	24.4	0.00e+00	0	28	0	1321205760	40	5973
2026-01-16 22:20:22.52	23.32	27.27	-33.6	-34.5	24.4	0.00e+00	0	28	0	1324351488	40	5912
2026-01-16 22:20:23.50	23.03	27.22	-33.7	-34.6	24.5	0.00e+00	0	28	0	1327497216	40	5949
2026-01-16 22:20:24.47	22.74	27.17	-33.8	-34.7	24.3	0.00e+00	0	28	0	1330642944	40	5995
2026-01-16 22:20:25.45	22.45	27.12	-34.0	-35.0	24.1	0.00e+00	0	28	0	1333788672	40	6228
2026-01-16 22:20:26.43	22.16	27.07	-34.1	-35.0	24.1	0.00e+00	0	28	0	1336934400	40	6255
2026-01-16 22:20:27.41	21.87	27.01	-34.0	-34.9	24.2	0.00e+00	0	28	0	1340080128	40	6162
2026-01-16 22:20:28.38	21.58	26.96	-34.2	-35.1	24.0	0.00e+00	0	28	0	1342177280	40	6343
2026-01-16 22:20:29.36	21.29	26.91	-34.1	-35.0	24.2	0.00e+00	0	28	0	1345323008	40	6258
2026-01-16 22:20:30.34	21.00	26.85	-34.0	-34.9	24.2	0.00e+00	0	28	0	1348468736	40	6170
2026-01-16 22:20:31.32	20.72	26.80	-34.1	-35.0	24.2	0.00e+00	0	28	0	1351614464	40	6246
2026-01-16 22:20:32.29	20.44	26.74	-34.1	-35.0	24.2	0.00e+00	0	28	0	1354760192	40	6233
2026-01-16 22:20:33.27	20.15	26.69	-33.9	-34.8	24.3	0.00e+00	0	28	0	1357905920	40	6127
2026-01-16 22:20:34.25	19.87	26.63	-34.0	-34.9	24.2	0.00e+00	0	28	0	1361051648	40	6198
2026-01-16 22:20:35.23	19.59	26.57	-34.0	-34.9	24.3	0.00e+00	0	28	0	1364197376	40	6204
2026-01-16 22:20:36.21	19.31	26.51	-33.9	-34.8	24.2	0.00e+00	0	28	0	1367343104	40	6096
2026-01-16 22:20:37.19	19.03	26.46	-33.6	-34.5	24.5	0.00e+00	0	28	0	1370488832	40	5915
2026-01-16 22:20:38.16	18.75	26.40	-33.3	-34.2	24.6	0.00e+00	0	28	0	1373634560	40	5678
2026-01-16 22:20:39.14	18.47	26.34	-33.5	-34.4	24.6	0.00e+00	0	28	0	1376780288	40	5809
2026-01-16 22:20:40.12	18.20	26.28	-33.4	-34.3	24.7	0.00e+00	0	28	0	1378877440	40	5751
2026-01-16 22:20:41.10	17.92	26.22	-33.0	-33.9	25.0	0.00e+00	0	28	0	1382023168	40	5511
2026-01-16 22:20:42.07	17.65	26.15	-33.2	-34.1	24.8	0.00e+00	0	28	0	1385168896	40	5623
2026-01-16 22:20:43.05	17.38	26.09	-33.4	-34.3	24.5	0.00e+00	0	28	0	1388314624	40	5765
2026-01-16 22:20:44.02	17.11	26.03	-33.9	-34.8	24.3	0.00e+00	0	28	0	1391460352	40	6067
2026-01-16 22:20:45.00	16.83	25.97	-34.0	-35.0	24.2	0.00e+00	0	28	0	1394606080	40	6208
2026-01-16 22:20:45.98	16.56	25.90	-34.0	-34.9	24.2	0.00e+00	0	28	0	1397751808	40	6204
2026-01-16 22:20:46.95	16.30	25.84	-33.8	-34.7	24.4	0.00e+00	0	28	0	1400897536	40	6039
2026-01-16 22:20:47.93	16.03	25.77	-33.6	-34.5	24.6	0.00e+00	0	28	0	1404043264	40	5867
2026-01-16 22:20:48.91	15.76	25.71	-33.2	-34.0	24.7	0.00e+00	0	28	0	1407188992	40	5588
2026-01-16 22:20:49.88	15.50	25.64	-33.1	-34.0	24.8	0.00e+00	0	28	0	1409286144	40	5557
2026-01-16 22:20:50.86	15.24	25.58	-33.0	-33.9	24.8	0.00e+00	0	28	0	1412431872	40	5508
2026-01-16 22:20:51.84	14.97	25.51	-33.0	-33.9	24.9	0.00e+00	0	28	0	1415577600	40	5511
2026-01-16 22:20:52.81	14.71	25.44	-33.1	-34.0	24.8	0.00e+00	0	28	0	1418723328	40	5556
2026-01-16 22:20:53.79	14.45	25.37	-33.5	-34.4	24.6	0.00e+00	0	28	0	1421869056	40	5832
2026-01-16 22:20:54.76	14.19	25.31	-33.8	-34.7	24.3	0.00e+00	0	28	0	1425014784	40	6050
2026-01-16 22:20:55.74	13.93	25.24	-33.8	-34.7	24.3	0.00e+00	0	28	0	1428160512	40	6033
2026-01-16 22:20:56.71	13.68	25.17	-33.7	-34.7	24.3	0.00e+00	0	28	0	1431306240	40	6001
2026-01-16 22:20:57.69	13.42	25.10	-33.4	-34.3	24.6	0.00e+00	0	28	0	1434451968	40	5767
2026-01-16 22:20:58.67	13.17	25.03	-33.4	-34.3	24.7	0.00e+00	0	28	0	1437597696	40	5778
2026-01-16 22:20:59.65	12.91	24.96	-33.3	-34.2	24.8	0.00e+00	0	28	0	1440743424	40	5684
2026-01-16 22:21:00.63	12.66	24.89	-33.1	-33.9	24.9	0.00e+00	0	28	0	1442840576	40	5528
2026-01-16 22:21:01.61	12.41	24.81	-33.2	-34.1	24.8	0.00e+00	0	28	0	1445986304	40	5607
2026-01-16 22:21:02.58	12.16	24.74	-33.4	-34.3	24.6	0.00e+00	0	28	0	1449132032	40	5765
2026-01-16 22:21:03.56	11.91	24.67	-33.6	-34.5	24.5	0.00e+00	0	28	0	1452277760	40	5864
2026-01-16 22:21:04.54	11.66	24.60	-33.7	-34.6	24.3	0.00e+00	0	28	0	1455423488	40	5960
2026-01-16 22:21:05.51	11.42	24.52	-33.5	-34.4	24.3	0.00e+00	0	28	0	1458569216	40	5849
2026-01-16 22:21:06.49	11.17	24.45	-33.4	-34.3	24.3	0.00e+00	0	28	0	1461714944	40	5789
2026-01-16 22:21:07.47	10.92	24.38	-33.0	-33.9	24.7	0.00e+00	0	28	0	1464860672	40	5510
2026-01-16 22:21:08.45	10.68	24.30	-33.0	-33.9	24.8	0.00e+00	0	28	0	1468006400	40	5496
2026-01-16 22:21:09.42	10.44	24.23	-32.9	-33.8	25.0	0.00e+00	0	28	0	1471152128	40	5424
2026-01-16 22:21:10.40	10.20	24.15	-32.8	-33.6	25.1	0.00e+00	0	28	0	1474297856	40	5343
2026-01-16 22:21:11.38	9.96	24.08	-33.0	-33.9	24.9	0.00e+00	0	28	0	1477443584	40	5482
2026-01-16 22:21:12.35	9.72	24.00	-33.2	-34.0	24.8	0.00e+00	0	28	0	1479540736	40	5581
2026-01-16 22:21:13.33	9.48	23.93	-33.1	-34.0	24.8	0.00e+00	0	28	0	1482686464	40	5579
2026-01-16 22:21:14.31	9.25	23.85	-33.2	-34.1	24.8	0.00e+00	0	28	0	1485832192	40	5605
2026-01-16 22:21:15.28	9.01	23.77	-33.0	-33.9	24.8	0.00e+00	0	28	0	1488977920	40	5521
2026-01-16 22:21:16.26	8.78	23.70	-33.0	-33.9	24.7	0.00e+00	0	28	0	1492123648	40	5477
2026-01-16 22:21:17.24	8.55	23.62	-33.0	-33.9	24.6	0.00e+00	0	28	0	1495269376	40	5522
2026-01-16 22:21:18.22	8.31	23.54	-32.9	-33.8	24.7	0.00e+00	0	28	0	1498415104	40	5426
2026-01-16 22:21:19.19	8.08	23.47	-32.8	-33.7	24.8	0.00e+00	0	28	0	1501560832	38	6036
2026-01-16 22:21:20.17	7.85	23.39	-32.8	-33.6	24.9	0.00e+00	0	28	0	1504706560	38	5993
2026-01-16 22:21:21.14	7.63	23.31	-32.9	-33.7	24.8	0.00e+00	0	28	0	1507852288	38	6063
2026-01-16 22:21:22.12	7.40	23.23	-33.1	-34.0	24.7	0.00e+00	0	28	0	1510998016	38	6219
2026-01-16 22:21:23.10	7.17	23.15	-33.1	-34.0	24.7	0.00e+00	0	28	0	1514143744	38	6214
2026-01-16 22:21:24.08	6.95	23.07	-33.2	-34.1	24.6	0.00e+00	0	28	0	1516240896	38	6334
2026-01-16 22:21:25.05	6.73	23.00	-33.2	-34.1	24.6	0.00e+00	0	28	0	1519386624	38	6308
2026-01-16 22:21:26.03	6.50	22.92	-33.3	-34.2	24.4	0.00e+00	0	28	0	1522532352	38	6367
2026-01-16 22:21:27.00	6.28	22.84	-33.1	-34.0	24.6	0.00e+00	0	28	0	1525678080	38	6250
2026-01-16 22:21:27.98	6.06	22.76	-33.3	-34.2	24.6	0.00e+00	0	28	0	1528823808	38	6392
2026-01-16 22:21:28.96	5.84	22.68	-33.1	-33.9	24.7	0.00e+00	0	28	0	1531969536	38	6201
2026-01-16 22:21:29.94	5.62	22.60	-33.2	-34.1	24.7	0.00e+00	0	28	0	1535115264	38	6325
2026-01-16 22:21:30.91	5.41	22.52	-33.2	-34.1	24.8	0.00e+00	0	28	0	1538260992	38	6296
2026-01-16 22:21:31.89	5.19	22.44	-33.3	-34.2	24.6	0.00e+00	0	28	0	1541406720	38	6369
2026-01-16 22:21:32.87	4.98	22.36	-33.4	-34.3	24.6	0.00e+00	0	28	0	1544552448	38	6432
2026-01-16 22:21:33.85	4.76	22.27	-33.5	-34.4	24.5	0.00e+00	0	28	0	1547698176	38	6499
2026-01-16 22:21:34.82	4.55	22.19	-33.4	-34.3	24.5	0.00e+00	0	28	0	1549795328	38	6430
2026-01-16 22:21:35.80	4.34	22.11	-33.4	-34.3	24.6	0.00e+00	0	28	0	1552941056	38	6492
2026-01-16 22:21:36.78	4.13	22.03	-33.3	-34.1	24.7	0.00e+00	0	28	0	1556086784	38	6349
2026-01-16 22:21:37.75	3.92	21.95	-33.2	-34.1	24.7	0.00e+00	0	28	0	1559232512	38	6331
2026-01-16 22:21:38.73	3.72	21.87	-33.4	-34.3	24.6	0.00e+00	0	28	0	1562378240	38	6442
2026-01-16 22:21:39.70	3.51	21.79	-33.4	-34.2	24.6	0.00e+00	0	28	0	1565523968	38	6421
2026-01-16 22:21:40.68	3.30	21.70	-33.2	-34.1	24.7	0.00e+00	0	28	0	1568669696	38	6282
2026-01-16 22:21:41.65	3.10	21.62	-33.2	-34.1	24.8	0.00e+00	0	28	0	1571815424	38	6290
2026-01-16 22:21:42.63	2.90	21.54	-33.4	-34.3	24.6	0.00e+00	0	28	0	1574961152	38	6448
2026-01-16 22:21:43.61	2.69	21.46	-33.5	-34.4	24.5	0.00e+00	0	28	0	1578106880	38	6551
2026-01-16 22:21:44.58	2.49	21.38	-33.7	-34.6	24.4	0.00e+00	0	28	0	1580204032	38	6720
2026-01-16 22:21:45.56	2.29	21.29	-33.8	-34.8	24.1	0.00e+00	0	28	0	1583349760	40	6079
2026-01-16 22:21:46.53	2.10	21.21	-34.2	-35.1	24.0	0.00e+00	0	28	0	1586495488	40	6335
2026-01-16 22:21:47.51	1.90	21.13	-33.9	-34.9	24.1	0.00e+00	0	28	0	1589641216	40	6151
2026-01-16 22:21:48.49	1.70	21.05	-33.9	-34.8	24.2	0.00e+00	0	28	0	1592786944	40	6125
2026-01-16 22:21:49.47	1.50	20.96	-33.7	-34.6	24.3	0.00e+00	0	28	0	1595932672	40	5960
2026-01-16 22:21:50.44	1.31	20.88	-33.8	-34.7	24.3	0.00e+00	0	28	0	1599078400	40	6016
2026-01-16 22:21:51.42	1.12	20.80	-33.7	-34.6	24.4	0.00e+00	0	28	0	1602224128	40	5933
2026-01-16 22:21:52.40	0.92	20.71	-33.6	-34.5	24.4	0.00e+00	0	28	0	1605369856	40	5902
2026-01-16 22:21:53.38	0.73	20.63	-33.6	-34.5	24.4	0.00e+00	0	28	0	1608515584	40	5920
2026-01-16 22:21:54.35	0.54	20.55	-33.7	-34.6	24.4	0.00e+00	0	28	0	1611661312	40	5939
2026-01-16 22:21:55.33	0.35	20.46	-33.9	-34.9	24.1	0.00e+00	0	28	0	1613758464	40	6150
2026-01-16 22:21:56.31	0.16	20.38	-34.0	-34.9	24.1	0.00e+00	0	28	0	1616904192	40	6199
2026-01-16 22:21:57.28	359.98	20.30	-33.7	-34.6	24.3	0.00e+00	0	28	0	1620049920	40	5993
2026-01-16 22:21:58.26	359.79	20.21	-33.7	-34.7	24.3	0.00e+00	0	28	0	1623195648	40	6004
2026-01-16 22:21:59.24	359.61	20.13	-33.6	-34.5	24.4	0.00e+00	0	28	0	1626341376	40	5882
2026-01-16 22:22:00.21	359.42	20.05	-33.5	-34.4	24.4	0.00e+00	0	28	0	1629487104	40	5810
2026-01-16 22:22:01.19	359.24	19.96	-33.6	-34.5	24.3	0.00e+00	0	28	0	1632632832	40	5859
2026-01-16 22:22:02.17	359.06	19.88	-33.5	-34.3	24.4	0.00e+00	0	28	0	1635778560	40	5790
2026-01-16 22:22:03.14	358.88	19.80	-33.4	-34.3	24.5	0.00e+00	0	28	0	1638924288	40	5776
2026-01-16 22:22:04.12	358.69	19.71	-33.5	-34.4	24.4	0.00e+00	0	28	0	1642070016	40	5801
2026-01-16 22:22:05.10	358.52	19.63	-33.3	-34.2	24.6	0.00e+00	0	28	0	1645215744	40	5660
2026-01-16 22:22:06.08	358.34	19.54	-33.3	-34.2	24.5	0.00e+00	0	28	0	1648361472	40	5680
2026-01-16 22:22:07.06	358.16	19.46	-33.3	-34.2	24.5	0.00e+00	0	28	0	1651507200	40	5686
2026-01-16 22:22:08.03	357.98	19.38	-33.2	-34.1	24.6	0.00e+00	0	28	0	1653604352	40	5631
2026-01-16 22:22:09.01	357.81	19.29	-33.4	-34.2	24.6	0.00e+00	0	28	0	1656750080	40	5713
2026-01-16 22:22:09.99	357.63	19.21	-33.4	-34.3	24.5	0.00e+00	0	28	0	1659895808	40	5747
2026-01-16 22:22:10.96	357.46	19.13	-33.5	-34.4	24.4	0.00e+00	0	28	0	1663041536	40	5816
2026-01-16 22:22:11.94	357.29	19.04	-33.5	-34.4	24.4	0.00e+00	0	28	0	1666187264	40	5832
2026-01-16 22:22:12.91	357.12	18.96	-33.5	-34.4	24.4	0.00e+00	0	28	0	1669332992	40	5852
2026-01-16 22:22:13.90	356.95	18.88	-33.6	-34.5	24.3	0.00e+00	0	28	0	1672478720	40	5905
2026-01-16 22:22:14.88	356.78	18.79	-33.6	-34.5	24.3	0.00e+00	0	28	0	1675624448	40	5910
2026-01-16 22:22:15.85	356.61	18.71	-33.7	-34.6	24.2	0.00e+00	0	28	0	1678770176	40	5953
2026-01-16 22:22:16.83	356.44	18.62	-33.9	-34.8	24.1	0.00e+00	0	28	0	1681915904	40	6090
2026-01-16 22:22:17.80	356.27	18.54	-33.8	-34.7	24.1	0.00e+00	0	28	0	1685061632	40	6022
2026-01-16 22:22:18.78	356.11	18.46	-33.7	-34.6	24.1	0.00e+00	0	28	0	1687158784	40	5983
2026-01-16 22:22:19.75	355.94	18.37	-33.6	-34.5	24.2	0.00e+00	0	28	0	1690304512	40	5883
2026-01-16 22:22:20.73	355.78	18.29	-33.6	-34.5	24.3	0.00e+00	0	28	0	1693450240	40	5920
2026-01-16 22:22:21.71	355.62	18.21	-33.6	-34.5	24.2	0.00e+00	0	28	0	1696595968	40	5886
2026-01-16 22:22:22.68	355.46	18.12	-33.6	-34.5	24.2	0.00e+00	0	28	0	1699741696	40	5917
2026-01-16 22:22:23.66	355.29	18.04	-34.1	-35.0	23.9	0.00e+00	0	28	0	1702887424	40	6238
2026-01-16 22:22:24.64	355.13	17.96	-33.9	-34.9	24.0	0.00e+00	0	28	0	1706033152	40	6145
2026-01-16 22:22:25.61	354.98	17.87	-34.2	-35.1	23.9	0.00e+00	0	28	0	1709178880	40	6317
2026-01-16 22:22:26.59	354.82	17.79	-34.4	-35.3	23.7	0.00e+00	0	28	0	1712324608	40	6468
2026-01-16 22:22:27.57	354.66	17.71	-34.1	-35.1	23.9	0.00e+00	0	28	0	1715470336	40	6286
2026-01-16 22:22:28.55	354.50	17.62	-34.2	-35.1	23.8	0.00e+00	0	28	0	1718616064	40	6337
2026-01-16 22:22:29.53	354.34	17.54	-34.2	-35.2	23.8	0.00e+00	0	28	0	1720713216	40	6355
2026-01-16 22:22:30.51	354.19	17.46	-34.1	-35.1	23.8	0.00e+00	0	28	0	1723858944	40	6296
2026-01-16 22:22:31.48	354.04	17.38	-34.3	-35.2	23.7	0.00e+00	0	28	0	1727004672	40	6391
2026-01-16 22:22:32.47	353.88	17.29	-34.2	-35.1	23.8	0.00e+00	0	28	0	1730150400	40	6320
2026-01-16 22:22:33.44	353.73	17.21	-33.9	-34.9	24.0	0.00e+00	0	28	0	1733296128	40	6137
2026-01-16 22:22:34.42	353.58	17.13	-33.8	-34.7	24.1	0.00e+00	0	28	0	1736441856	40	6030
2026-01-16 22:22:35.40	353.43	17.04	-33.7	-34.6	24.2	0.00e+00	0	28	0	1739587584	40	5937
2026-01-16 22:22:36.37	353.28	16.96	-33.6	-34.5	24.2	0.00e+00	0	28	0	1742733312	40	5918
2026-01-16 22:22:37.35	353.13	16.88	-33.7	-34.5	24.3	0.00e+00	0	28	0	1745879040	40	5919
2026-01-16 22:22:38.33	352.98	16.80	-33.9	-34.8	24.0	0.00e+00	0	28	0	1749024768	40	6086
2026-01-16 22:22:39.30	352.83	16.71	-34.1	-35.0	24.0	0.00e+00	0	28	0	1752170496	40	6230
2026-01-16 22:22:40.28	352.69	16.63	-34.1	-35.1	23.9	0.00e+00	0	28	0	1754267648	40	6287
2026-01-16 22:22:41.26	352.54	16.55	-34.3	-35.2	23.8	0.00e+00	0	28	0	1757413376	40	6373
2026-01-16 22:22:42.24	352.39	16.47	-34.4	-35.4	23.6	0.00e+00	0	28	0	1760559104	40	6527
2026-01-16 22:22:43.21	352.25	16.39	-34.4	-35.3	23.7	0.00e+00	0	28	0	1763704832	40	6476
2026-01-16 22:22:44.19	352.11	16.30	-34.4	-35.4	23.7	0.00e+00	0	28	0	1766850560	40	6519
2026-01-16 22:22:45.16	351.97	16.22	-34.3	-35.3	23.8	0.00e+00	0	28	0	1769996288	40	6434
2026-01-16 22:22:46.14	351.82	16.14	-34.3	-35.2	23.7	0.00e+00	0	28	0	1773142016	40	6368
2026-01-16 22:22:47.11	351.68	16.06	-34.1	-35.0	23.9	0.00e+00	0	28	0	1776287744	40	6231
2026-01-16 22:22:48.08	351.55	15.98	-34.0	-34.9	23.9	0.00e+00	0	28	0	1779433472	40	6197
2026-01-16 22:22:49.06	351.41	15.90	-33.8	-34.8	24.2	0.00e+00	0	28	0	1782579200	40	6072
2026-01-16 22:22:50.04	351.27	15.82	-33.8	-34.6	24.2	0.00e+00	0	28	0	1785724928	40	5993
2026-01-16 22:22:51.02	351.13	15.73	-33.8	-34.7	24.2	0.00e+00	0	28	0	1787822080	40	6045
2026-01-16 22:22:51.99	350.99	15.65	-33.8	-34.7	24.2	0.00e+00	0	28	0	1790967808	40	5995
2026-01-16 22:22:52.97	350.86	15.57	-33.9	-34.8	24.2	0.00e+00	0	28	0	1794113536	40	6100
2026-01-16 22:22:53.95	350.72	15.49	-33.9	-34.8	24.1	0.00e+00	0	28	0	1797259264	40	6095
2026-01-16 22:22:54.92	350.59	15.41	-34.2	-35.1	23.9	0.00e+00	0	28	0	1800404992	40	6321
2026-01-16 22:22:55.90	350.45	15.33	-34.2	-35.1	23.8	0.00e+00	0	28	0	1803550720	40	6339
2026-01-16 22:22:56.88	350.32	15.25	-34.4	-35.3	23.7	0.00e+00	0	28	0	1806696448	40	6476
2026-01-16 22:22:57.85	350.19	15.17	-34.5	-35.4	23.6	0.00e+00	0	28	0	1809842176	40	6559
2026-01-16 22:22:58.83	350.05	15.09	-34.7	-35.7	23.4	0.00e+00	0	28	0	1812987904	40	6758
2026-01-16 22:22:59.80	349.92	15.01	-34.5	-35.5	23.5	0.00e+00	0	28	0	1816133632	40	6616
2026-01-16 22:23:00.79	349.79	14.93	-34.5	-35.5	23.5	0.00e+00	0	28	0	1819279360	40	6582
2026-01-16 22:23:01.76	349.66	14.85	-34.4	-35.4	23.6	0.00e+00	0	28	0	1822425088	40	6513
2026-01-16 22:23:02.74	349.53	14.77	-34.3	-35.2	23.7	0.00e+00	0	28	0	1825570816	40	6387
2026-01-16 22:23:03.72	349.40	14.69	-34.1	-35.0	23.8	0.00e+00	0	28	0	1827667968	40	6259
2026-01-16 22:23:04.69	349.28	14.61	-34.1	-35.0	23.9	0.00e+00	0	28	0	1830813696	40	6223
2026-01-16 22:23:05.67	349.15	14.53	-33.9	-34.9	23.9	0.00e+00	0	28	0	1833959424	40	6141
2026-01-16 22:23:06.65	349.02	14.45	-33.8	-34.7	24.1	0.00e+00	0	28	0	1837105152	40	6024
2026-01-16 22:23:07.62	348.90	14.37	-33.9	-34.8	24.1	0.00e+00	0	28	0	1840250880	40	6093
2026-01-16 22:23:08.60	348.77	14.29	-33.7	-34.6	24.2	0.00e+00	0	28	0	1843396608	40	5949
2026-01-16 22:23:09.57	348.65	14.21	-33.8	-34.6	24.1	0.00e+00	0	28	0	1846542336	40	5986
2026-01-16 22:23:10.55	348.53	14.13	-33.9	-34.8	24.0	0.00e+00	0	28	0	1849688064	40	6103
2026-01-16 22:23:11.52	348.41	14.05	-34.1	-35.1	23.8	0.00e+00	0	28	0	1852833792	40	6282
2026-01-16 22:23:12.49	348.28	13.98	-34.1	-35.0	23.8	0.00e+00	0	29	0	1855979520	40	6257
2026-01-16 22:23:13.47	348.16	13.90	-34.3	-35.3	23.6	0.00e+00	0	29	0	1858076672	40	6425
2026-01-16 22:23:14.45	348.04	13.82	-34.2	-35.1	23.7	0.00e+00	0	29	0	1861222400	40	6314
2026-01-16 22:23:15.43	347.92	13.74	-34.5	-35.4	23.5	0.00e+00	0	29	0	1864368128	40	6541
2026-01-16 22:23:16.41	347.80	13.66	-34.5	-35.5	23.5	0.00e+00	0	29	0	1867513856	40	6606
2026-01-16 22:23:17.39	347.68	13.58	-34.6	-35.6	23.4	0.00e+00	0	29	0	1870659584	40	6656
2026-01-16 22:23:18.36	347.56	13.51	-34.7	-35.7	23.3	0.00e+00	0	28	0	1873805312	40	6736
2026-01-16 22:23:19.34	347.45	13.43	-34.7	-35.7	23.3	0.00e+00	0	29	0	1876951040	42	6031
2026-01-16 22:23:20.31	347.33	13.35	-34.7	-35.6	23.3	0.00e+00	0	28	0	1880096768	42	5988
2026-01-16 22:23:21.28	347.21	13.27	-34.5	-35.5	23.4	0.00e+00	0	29	0	1883242496	42	5882
2026-01-16 22:23:22.26	347.10	13.20	-34.5	-35.4	23.4	0.00e+00	0	29	0	1886388224	42	5843
2026-01-16 22:23:23.24	346.98	13.12	-34.5	-35.4	23.4	0.00e+00	0	29	0	1889533952	42	5848
2026-01-16 22:23:24.22	346.87	13.04	-34.1	-35.0	23.7	0.00e+00	0	29	0	1891631104	42	5583
2026-01-16 22:23:25.19	346.76	12.96	-34.0	-34.9	23.9	0.00e+00	0	29	0	1894776832	42	5509
2026-01-16 22:23:26.17	346.64	12.89	-33.9	-34.8	23.9	0.00e+00	0	29	0	1897922560	42	5444
2026-01-16 22:23:27.14	346.53	12.81	-34.0	-34.9	24.0	0.00e+00	0	29	0	1901068288	42	5483
2026-01-16 22:23:28.12	346.42	12.73	-34.0	-34.9	24.0	0.00e+00	0	29	0	1904214016	42	5496
2026-01-16 22:23:29.10	346.31	12.66	-34.0	-34.9	24.0	0.00e+00	0	29	0	1907359744	42	5489
2026-01-16 22:23:30.08	346.20	12.58	-34.2	-35.1	23.8	0.00e+00	0	29	0	1910505472	42	5642
2026-01-16 22:23:31.06	346.08	12.50	-34.2	-35.1	23.8	0.00e+00	0	29	0	1913651200	42	5638
2026-01-16 22:23:32.04	345.97	12.43	-34.4	-35.3	23.6	0.00e+00	0	29	0	1916796928	42	5774
2026-01-16 22:23:33.02	345.87	12.35	-34.6	-35.5	23.4	0.00e+00	0	29	0	1919942656	42	5915
2026-01-16 22:23:34.00	345.76	12.27	-34.8	-35.8	23.2	0.00e+00	0	29	0	1923088384	42	6066
2026-01-16 22:23:34.98	345.65	12.20	-35.1	-36.1	22.9	0.00e+00	0	29	0	1925185536	42	6288
2026-01-16 22:23:35.95	345.54	12.12	-35.2	-36.2	22.9	0.00e+00	0	29	0	1928331264	42	6368
2026-01-16 22:23:36.93	345.43	12.05	-35.3	-36.3	22.7	0.00e+00	0	29	0	1931476992	42	6472
2026-01-16 22:23:37.91	345.33	11.97	-35.5	-36.5	22.5	0.00e+00	0	29	0	1934622720	42	6626
2026-01-16 22:23:38.89	345.22	11.90	-35.4	-36.4	22.6	0.00e+00	0	29	0	1937768448	42	6515
2026-01-16 22:23:39.87	345.12	11.82	-35.5	-36.5	22.5	0.00e+00	0	29	0	1940914176	42	6621
2026-01-16 22:23:40.85	345.01	11.75	-35.5	-36.5	22.6	0.00e+00	0	29	0	1944059904	42	6603
