passes_logs/2026/01/16/R4.6S_Anadyr/R4.6S_Anadyr__20260116_224134_SUOMI_NPP_rec.log

#Pass ID: 20260116_224134_SUOMI NPP
#Satellite: SUOMI NPP
#Configuration: NPP
#almurnet v.1.7.20251203
#Start time: 2026-01-16 22:41:35

#Version: 2.2.20231116
#Station: R4.6S_Anadyr
#Location: 177.4865 lon 64.73178 lat
#TLE: 1 37849U 11061A   26016.58419598  .00000058  00000+0  48257-4 0  9996
#TLE: 2 37849  98.7812 318.6192 0002422  60.8544 299.2874 14.19525580736934

#Time	Az	El	Level	Level2	SNR	BER	BlckErr	Temp	State	Recorded	gain1	gain2
2026-01-16 22:41:35.75	117.40	0.06	-48.3	-60.8	3.5	1.52e+00	0	26	0	0	60	38641
2026-01-16 22:41:36.75	117.36	0.12	-48.4	-63.6	3.6	1.51e+00	0	27	104	0	60	54489
2026-01-16 22:41:37.76	117.32	0.18	-48.4	-63.6	3.6	1.51e+00	0	27	104	0	60	54582
2026-01-16 22:41:38.77	117.28	0.24	-48.2	-63.4	3.6	1.51e+00	0	27	104	0	60	53180
2026-01-16 22:41:39.78	117.25	0.29	-48.2	-63.4	3.6	1.51e+00	0	27	104	0	60	53466
2026-01-16 22:41:40.79	117.21	0.35	-48.3	-63.5	3.6	1.51e+00	0	27	104	0	60	53822
2026-01-16 22:41:41.80	117.17	0.41	-48.3	-63.5	3.6	1.51e+00	0	27	104	0	60	54307
2026-01-16 22:41:42.81	117.13	0.47	-48.4	-63.6	3.6	1.51e+00	0	27	104	0	60	54773
2026-01-16 22:41:43.82	117.09	0.53	-48.4	-63.6	3.6	1.51e+00	0	27	104	0	60	54642
2026-01-16 22:41:44.83	117.05	0.59	-48.5	-63.6	3.6	1.51e+00	0	27	104	0	60	54793
2026-01-16 22:41:45.84	117.01	0.65	-48.4	-63.6	3.6	1.51e+00	0	27	104	0	60	54695
2026-01-16 22:41:46.85	116.97	0.71	-48.2	-63.4	3.6	1.51e+00	0	27	104	0	60	53576
2026-01-16 22:41:47.86	116.93	0.76	-48.0	-63.3	3.6	1.51e+00	0	27	104	0	60	52790
2026-01-16 22:41:48.87	116.89	0.82	-47.9	-63.1	3.6	1.51e+00	0	27	104	0	60	51738
2026-01-16 22:41:49.88	116.84	0.88	-47.1	-63.0	3.6	1.51e+00	0	27	104	0	60	50938
2026-01-16 22:41:50.88	116.80	0.94	-47.2	-62.7	3.6	1.51e+00	0	27	104	0	60	49566
2026-01-16 22:41:51.89	116.76	1.00	-47.2	-62.4	3.6	1.51e+00	0	27	104	0	60	47519
2026-01-16 22:41:52.90	116.72	1.06	-46.0	-61.5	3.6	1.51e+00	0	27	104	0	60	43040
2026-01-16 22:41:53.91	116.68	1.12	-46.0	-61.5	3.6	1.51e+00	0	27	104	0	60	43154
2026-01-16 22:41:54.92	116.64	1.18	-46.1	-61.5	3.6	1.51e+00	0	27	104	0	60	42882
2026-01-16 22:41:55.93	116.60	1.24	-46.1	-61.5	3.6	1.51e+00	0	27	104	0	60	42804
2026-01-16 22:41:56.94	116.55	1.30	-46.0	-61.5	3.6	1.51e+00	0	27	104	0	60	42907
2026-01-16 22:41:57.95	116.51	1.36	-46.0	-61.5	3.6	1.51e+00	0	27	104	0	60	42957
2026-01-16 22:41:58.96	116.47	1.42	-46.0	-61.5	3.6	1.51e+00	0	27	104	0	60	42910
2026-01-16 22:41:59.97	116.43	1.48	-46.0	-61.5	3.6	1.51e+00	0	27	104	0	60	42805
2026-01-16 22:42:00.98	116.38	1.54	-46.1	-61.5	3.6	1.51e+00	0	27	104	0	60	43203
2026-01-16 22:42:01.99	116.34	1.60	-46.1	-61.6	3.6	1.51e+00	0	27	104	0	60	43315
2026-01-16 22:42:02.99	116.30	1.66	-46.1	-61.5	3.6	1.51e+00	0	27	104	0	60	43051
2026-01-16 22:42:04.00	116.25	1.72	-46.0	-61.6	3.6	1.51e+00	0	27	104	0	60	43244
2026-01-16 22:42:05.01	116.21	1.79	-46.1	-61.5	3.6	1.51e+00	0	27	104	0	60	42891
2026-01-16 22:42:06.02	116.17	1.85	-46.0	-61.4	3.6	1.51e+00	0	27	104	0	60	42583
2026-01-16 22:42:07.03	116.12	1.91	-46.0	-61.4	3.6	1.51e+00	0	27	104	0	60	42591
2026-01-16 22:42:08.04	116.08	1.97	-46.0	-61.4	3.6	1.51e+00	0	27	104	0	60	42256
2026-01-16 22:42:09.05	116.03	2.03	-46.1	-61.3	3.6	1.51e+00	0	27	104	0	60	42062
2026-01-16 22:42:10.06	115.99	2.09	-46.0	-61.3	3.6	1.51e+00	0	27	104	0	60	41843
2026-01-16 22:42:11.07	115.95	2.15	-46.0	-61.3	3.6	1.51e+00	0	27	104	0	60	41910
2026-01-16 22:42:12.08	115.90	2.22	-46.1	-61.4	3.6	1.51e+00	0	27	104	0	60	42658
2026-01-16 22:42:13.09	115.86	2.28	-46.1	-61.5	3.6	1.51e+00	0	27	104	0	60	42841
2026-01-16 22:42:14.09	115.81	2.34	-46.1	-61.6	3.6	1.51e+00	0	27	104	0	60	43246
2026-01-16 22:42:15.10	115.76	2.40	-46.1	-61.6	3.6	1.51e+00	0	27	104	0	60	43306
2026-01-16 22:42:16.11	115.72	2.46	-46.1	-61.5	3.6	1.51e+00	0	28	104	0	60	42982
2026-01-16 22:42:17.12	115.67	2.53	-46.0	-61.4	3.6	1.51e+00	0	27	104	0	60	42472
2026-01-16 22:42:18.13	115.63	2.59	-46.1	-61.5	3.6	1.51e+00	0	28	104	0	60	42796
2026-01-16 22:42:19.14	115.58	2.65	-46.1	-61.3	3.6	1.51e+00	0	27	104	0	60	42218
2026-01-16 22:42:20.15	115.53	2.71	-46.1	-61.2	3.6	1.51e+00	0	28	104	0	60	41720
2026-01-16 22:42:21.16	115.49	2.78	-46.1	-61.1	3.6	1.51e+00	0	27	104	0	60	41025
2026-01-16 22:42:22.17	115.44	2.84	-46.1	-61.0	3.6	1.51e+00	0	27	104	0	60	40545
2026-01-16 22:42:23.18	115.39	2.90	-46.0	-61.2	3.6	1.51e+00	0	28	104	0	60	41318
2026-01-16 22:42:24.19	115.34	2.97	-46.0	-61.4	3.6	1.51e+00	0	28	104	0	60	42482
2026-01-16 22:42:25.20	115.30	3.03	-46.0	-61.3	3.6	1.51e+00	0	28	104	0	60	42116
2026-01-16 22:42:26.21	115.25	3.09	-46.0	-60.0	3.6	1.51e+00	0	28	104	0	60	36201
2026-01-16 22:42:27.22	115.20	3.16	-45.7	-56.4	4.4	1.47e+00	92	28	0	0	60	23880
2026-01-16 22:42:28.23	115.15	3.22	-45.4	-52.9	6.9	3.22e-01	92	27	0	2097152	60	15944
2026-01-16 22:42:29.24	115.10	3.28	-45.0	-50.9	9.4	4.12e-02	0	28	0	3145728	60	12638
2026-01-16 22:42:30.25	115.06	3.35	-43.9	-47.9	12.5	1.83e-03	92	27	0	5242880	60	9024
2026-01-16 22:42:31.26	115.01	3.41	-43.4	-47.0	13.4	5.41e-05	0	28	0	7340032	60	8065
2026-01-16 22:42:32.26	114.96	3.48	-42.7	-45.7	15.1	7.00e-07	26	28	0	9437184	60	7001
2026-01-16 22:42:33.27	114.91	3.54	-42.2	-44.9	15.3	0.00e+00	0	28	0	11534336	58	7163
2026-01-16 22:42:34.28	114.86	3.60	-46.5	-61.3	3.6	7.81e-02	0	27	104	12582912	60	42178
2026-01-16 22:42:35.29	114.81	3.67	-43.9	-47.9	12.6	1.37e+00	5	27	104	12582912	60	8946
2026-01-16 22:42:36.30	114.76	3.73	-45.5	-58.5	3.6	1.53e-01	0	27	104	12582912	60	30333
2026-01-16 22:42:37.30	114.71	3.80	-45.6	-56.6	4.4	2.53e-01	88	27	0	12582912	60	24371
2026-01-16 22:42:38.31	114.66	3.86	-44.8	-50.5	9.7	1.33e-03	0	28	0	13631488	60	12047
2026-01-16 22:42:39.32	114.61	3.93	-42.4	-45.5	14.9	3.28e-05	66	28	0	15728640	58	7664
2026-01-16 22:42:40.32	114.56	3.99	-42.6	-45.8	14.5	2.20e-06	0	28	0	17825792	58	7898
2026-01-16 22:42:41.33	114.50	4.06	-42.6	-46.0	14.3	2.20e-06	92	28	0	19922944	58	8075
2026-01-16 22:42:42.34	114.45	4.12	-42.3	-45.4	15.1	1.50e-06	0	28	0	22020096	58	7584
2026-01-16 22:42:43.35	114.40	4.19	-42.3	-45.3	15.2	0.00e+00	92	28	0	23068672	58	7497
2026-01-16 22:42:44.36	114.35	4.26	-41.6	-44.1	16.4	0.00e+00	92	27	0	25165824	56	7316
2026-01-16 22:42:45.37	114.30	4.32	-41.9	-44.6	16.2	0.00e+00	0	28	0	27262976	56	7702
2026-01-16 22:42:46.38	114.24	4.39	-42.0	-44.6	16.2	0.00e+00	90	28	0	29360128	56	7730
2026-01-16 22:42:47.39	114.19	4.45	-41.5	-43.7	16.9	0.00e+00	0	28	0	31457280	56	7001
2026-01-16 22:42:48.40	114.14	4.52	-41.3	-43.4	17.5	0.00e+00	81	28	0	32505856	56	6734
2026-01-16 22:42:49.41	114.08	4.59	-41.0	-42.9	18.0	0.00e+00	25	27	0	34603008	56	6322
2026-01-16 22:42:50.42	114.03	4.65	-40.8	-42.6	18.4	0.00e+00	55	27	0	36700160	56	6114
2026-01-16 22:42:51.43	113.98	4.72	-40.6	-42.3	18.4	0.00e+00	92	28	0	38797312	54	6633
2026-01-16 22:42:52.44	113.92	4.79	-40.9	-42.6	18.2	0.00e+00	0	28	0	40894464	54	6923
2026-01-16 22:42:53.44	113.87	4.85	-40.3	-41.9	18.6	0.00e+00	89	27	0	41943040	54	6358
2026-01-16 22:42:54.45	113.81	4.92	-40.7	-42.4	18.6	0.00e+00	0	27	0	44040192	54	6737
2026-01-16 22:42:55.46	113.76	4.99	-40.6	-42.2	18.6	0.00e+00	92	27	0	46137344	54	6610
2026-01-16 22:42:56.47	113.70	5.06	-40.3	-41.9	18.8	0.00e+00	6	27	0	48234496	54	6344
2026-01-16 22:42:57.48	113.65	5.12	-40.3	-41.9	18.9	0.00e+00	92	28	0	50331648	54	6326
2026-01-16 22:42:58.49	113.59	5.19	-40.3	-41.8	19.0	0.00e+00	92	27	0	51380224	54	6288
2026-01-16 22:42:59.50	113.54	5.26	-40.3	-41.8	18.9	0.00e+00	0	27	0	53477376	54	6311
2026-01-16 22:43:00.51	113.48	5.33	-40.5	-42.1	18.7	0.00e+00	92	28	0	55574528	54	6491
2026-01-16 22:43:01.52	113.42	5.40	-40.3	-41.9	19.0	0.00e+00	0	27	0	57671680	54	6379
2026-01-16 22:43:02.53	113.37	5.46	-40.4	-42.0	18.8	0.00e+00	92	28	0	59768832	54	6431
2026-01-16 22:43:03.54	113.31	5.53	-40.6	-42.2	18.7	0.00e+00	0	28	0	60817408	54	6612
2026-01-16 22:43:04.55	113.25	5.60	-40.6	-42.3	18.6	0.00e+00	91	28	0	62914560	54	6646
2026-01-16 22:43:05.56	113.20	5.67	-40.9	-42.6	18.2	0.00e+00	91	27	0	65011712	54	6921
2026-01-16 22:43:06.57	113.14	5.74	-40.5	-42.1	18.8	0.00e+00	0	27	0	67108864	54	6475
2026-01-16 22:43:07.58	113.08	5.81	-40.4	-41.9	18.9	0.00e+00	92	28	0	69206016	54	6358
2026-01-16 22:43:08.59	113.02	5.88	-39.9	-41.3	19.4	0.00e+00	0	27	0	71303168	54	5947
2026-01-16 22:43:09.60	112.96	5.95	-39.9	-41.3	19.5	0.00e+00	90	27	0	72351744	52	6658
2026-01-16 22:43:10.61	112.90	6.02	-40.2	-41.7	19.1	0.00e+00	0	28	0	74448896	52	6969
2026-01-16 22:43:11.61	112.84	6.09	-40.3	-41.8	19.1	0.00e+00	92	28	0	76546048	52	7009
2026-01-16 22:43:12.62	112.78	6.16	-40.1	-41.5	19.4	0.00e+00	28	28	0	78643200	52	6842
2026-01-16 22:43:13.63	112.72	6.23	-39.8	-41.3	19.5	0.00e+00	3	28	0	80740352	52	6632
2026-01-16 22:43:14.64	112.66	6.30	-40.2	-41.7	19.3	0.00e+00	91	28	0	81788928	52	6972
2026-01-16 22:43:15.65	112.60	6.37	-40.3	-41.8	19.0	0.00e+00	0	27	0	83886080	52	7085
2026-01-16 22:43:16.66	112.54	6.44	-40.3	-41.9	19.0	0.00e+00	91	28	0	85983232	52	7148
2026-01-16 22:43:17.67	112.48	6.51	-40.1	-41.6	19.3	0.00e+00	0	28	0	88080384	52	6880
2026-01-16 22:43:18.68	112.42	6.58	-40.3	-41.8	19.2	0.00e+00	91	28	0	90177536	52	7076
2026-01-16 22:43:19.68	112.36	6.65	-40.2	-41.6	19.4	0.00e+00	23	28	0	91226112	52	6920
2026-01-16 22:43:20.69	112.30	6.72	-40.0	-41.4	19.6	0.00e+00	81	27	0	93323264	52	6706
2026-01-16 22:43:21.70	112.23	6.79	-40.0	-41.4	19.6	0.00e+00	92	27	0	95420416	52	6746
2026-01-16 22:43:22.71	112.17	6.87	-39.8	-41.2	19.7	0.00e+00	0	28	0	97517568	52	6595
2026-01-16 22:43:23.72	112.11	6.94	-39.9	-41.3	19.6	0.00e+00	66	28	0	99614720	52	6681
2026-01-16 22:43:24.73	112.04	7.01	-40.0	-41.4	19.5	0.00e+00	0	27	0	100663296	52	6735
2026-01-16 22:43:25.74	111.98	7.08	-40.3	-41.8	19.2	0.00e+00	72	27	0	102760448	52	7063
2026-01-16 22:43:26.75	111.92	7.15	-40.4	-41.9	19.2	0.00e+00	0	27	0	104857600	52	7156
2026-01-16 22:43:27.76	111.85	7.23	-40.2	-41.8	19.1	0.00e+00	91	27	0	106954752	52	7068
2026-01-16 22:43:28.77	111.79	7.30	-40.1	-41.7	19.3	0.00e+00	90	27	0	109051904	52	7002
2026-01-16 22:43:29.78	111.72	7.37	-40.1	-41.7	19.2	0.00e+00	0	27	0	110100480	52	6959
2026-01-16 22:43:30.79	111.65	7.44	-39.7	-41.1	19.9	0.00e+00	92	28	0	112197632	52	6539
2026-01-16 22:43:31.80	111.59	7.52	-40.0	-41.4	19.6	0.00e+00	0	27	0	114294784	52	6761
2026-01-16 22:43:32.81	111.52	7.59	-39.8	-41.2	20.0	0.00e+00	66	28	0	116391936	52	6576
2026-01-16 22:43:33.81	111.46	7.66	-39.5	-40.8	20.3	0.00e+00	0	28	0	118489088	52	6248
2026-01-16 22:43:34.82	111.39	7.74	-39.7	-41.0	20.1	0.00e+00	92	28	0	119537664	52	6424
2026-01-16 22:43:35.83	111.32	7.81	-39.4	-40.6	20.5	0.00e+00	92	28	0	121634816	52	6151
2026-01-16 22:43:36.84	111.26	7.88	-39.4	-40.7	20.3	0.00e+00	0	28	0	123731968	52	6201
2026-01-16 22:43:37.85	111.19	7.96	-39.2	-40.4	20.6	0.00e+00	66	27	0	125829120	52	6002
2026-01-16 22:43:38.86	111.12	8.03	-39.3	-40.6	20.5	0.00e+00	0	28	0	127926272	52	6129
2026-01-16 22:43:39.87	111.05	8.11	-39.6	-40.9	20.3	0.00e+00	90	28	0	128974848	52	6341
2026-01-16 22:43:40.88	110.98	8.18	-39.7	-41.0	20.1	0.00e+00	0	28	0	131072000	52	6440
2026-01-16 22:43:41.88	110.91	8.26	-39.6	-41.0	20.1	0.00e+00	92	27	0	133169152	52	6423
2026-01-16 22:43:42.89	110.84	8.33	-39.8	-41.3	19.8	0.00e+00	92	27	0	135266304	52	6616
2026-01-16 22:43:43.90	110.77	8.41	-39.4	-40.8	20.3	0.00e+00	0	28	0	137363456	52	6264
2026-01-16 22:43:44.91	110.70	8.48	-39.4	-40.8	20.2	0.00e+00	74	28	0	139460608	52	6298
2026-01-16 22:43:45.92	110.63	8.56	-39.1	-40.4	20.6	0.00e+00	0	27	0	140509184	52	6000
2026-01-16 22:43:46.93	110.56	8.63	-39.1	-40.4	20.7	0.00e+00	92	27	0	142606336	52	6029
2026-01-16 22:43:47.94	110.49	8.71	-39.1	-40.4	20.9	0.00e+00	0	27	0	144703488	52	6003
2026-01-16 22:43:48.95	110.42	8.79	-39.4	-40.8	20.7	0.00e+00	92	27	0	146800640	52	6287
2026-01-16 22:43:49.95	110.34	8.86	-39.4	-40.7	20.6	0.00e+00	76	27	0	147849216	52	6221
2026-01-16 22:43:50.97	110.27	8.94	-39.3	-40.6	20.6	0.00e+00	0	28	0	149946368	52	6157
2026-01-16 22:43:51.97	110.20	9.02	-39.1	-40.4	20.8	0.00e+00	90	28	0	152043520	52	5987
2026-01-16 22:43:52.98	110.12	9.09	-39.2	-40.5	20.7	0.00e+00	0	27	0	154140672	52	6058
2026-01-16 22:43:53.99	110.05	9.17	-39.3	-40.6	20.8	0.00e+00	80	27	0	156237824	52	6115
2026-01-16 22:43:55.00	109.97	9.25	-39.0	-40.2	20.9	0.00e+00	0	28	0	157286400	52	5879
2026-01-16 22:43:56.01	109.90	9.32	-39.2	-40.4	20.8	0.00e+00	92	28	0	159383552	52	6004
2026-01-16 22:43:57.02	109.82	9.40	-39.0	-40.2	21.0	0.00e+00	46	28	0	161480704	52	5873
2026-01-16 22:43:58.03	109.75	9.48	-38.7	-39.9	21.2	0.00e+00	0	28	0	163577856	50	6381
2026-01-16 22:43:59.04	109.67	9.56	-38.6	-39.9	21.0	0.00e+00	91	27	0	165675008	50	6378
2026-01-16 22:44:00.05	109.60	9.64	-38.7	-40.1	20.9	0.00e+00	0	27	0	167772160	50	6487
2026-01-16 22:44:01.06	109.52	9.71	-39.0	-40.4	20.9	0.00e+00	28	28	0	168820736	50	6708
2026-01-16 22:44:02.07	109.44	9.79	-39.1	-40.4	20.7	0.00e+00	0	28	0	170917888	50	6752
2026-01-16 22:44:03.08	109.36	9.87	-39.0	-40.2	20.9	0.00e+00	90	27	0	173015040	50	6599
2026-01-16 22:44:04.09	109.29	9.95	-39.0	-40.2	20.7	0.00e+00	0	28	0	175112192	50	6601
2026-01-16 22:44:05.09	109.21	10.03	-38.7	-39.9	20.9	0.00e+00	92	28	0	177209344	50	6357
2026-01-16 22:44:06.10	109.13	10.11	-38.4	-39.6	21.3	0.00e+00	92	28	0	178257920	50	6146
2026-01-16 22:44:07.11	109.05	10.19	-38.4	-39.5	21.2	0.00e+00	0	28	0	180355072	50	6102
2026-01-16 22:44:08.12	108.97	10.27	-38.2	-39.4	21.5	0.00e+00	92	28	0	182452224	50	5988
2026-01-16 22:44:09.13	108.89	10.35	-38.1	-39.2	21.7	0.00e+00	0	27	0	184549376	50	5830
2026-01-16 22:44:10.14	108.81	10.43	-38.3	-39.4	21.5	0.00e+00	92	28	0	186646528	50	6011
2026-01-16 22:44:11.15	108.72	10.51	-38.3	-39.4	21.5	0.00e+00	0	28	0	187695104	50	6006
2026-01-16 22:44:12.15	108.64	10.59	-38.6	-39.8	21.3	0.00e+00	92	28	0	189792256	50	6250
2026-01-16 22:44:13.16	108.56	10.67	-39.0	-40.2	21.0	0.00e+00	92	27	0	191889408	50	6587
2026-01-16 22:44:14.17	108.48	10.75	-38.9	-40.1	21.2	0.00e+00	0	27	0	193986560	50	6520
2026-01-16 22:44:15.18	108.40	10.83	-39.1	-40.3	21.0	0.00e+00	57	27	0	196083712	50	6664
2026-01-16 22:44:16.19	108.31	10.91	-38.9	-40.1	21.2	0.00e+00	0	27	0	197132288	50	6468
2026-01-16 22:44:17.20	108.23	11.00	-38.9	-40.1	21.1	0.00e+00	92	27	0	199229440	50	6499
2026-01-16 22:44:18.21	108.14	11.08	-38.7	-39.8	21.2	0.00e+00	0	27	0	201326592	50	6308
2026-01-16 22:44:19.22	108.06	11.16	-38.5	-39.6	21.5	0.00e+00	91	28	0	203423744	50	6165
2026-01-16 22:44:20.23	107.97	11.24	-38.7	-39.8	21.2	0.00e+00	92	28	0	205520896	50	6290
2026-01-16 22:44:21.24	107.88	11.33	-38.9	-40.1	21.1	0.00e+00	0	28	0	206569472	50	6507
2026-01-16 22:44:22.25	107.80	11.41	-39.1	-40.3	21.0	0.00e+00	92	27	0	208666624	50	6677
2026-01-16 22:44:23.26	107.71	11.49	-39.7	-41.0	20.4	0.00e+00	0	27	0	210763776	50	7223
2026-01-16 22:44:24.27	107.62	11.57	-40.1	-41.4	20.4	0.00e+00	64	27	0	212860928	52	6733
2026-01-16 22:44:25.28	107.53	11.66	-40.0	-41.4	20.0	0.00e+00	0	27	0	214958080	52	6713
2026-01-16 22:44:26.28	107.45	11.74	-39.4	-40.6	20.7	0.00e+00	92	28	0	216006656	52	6171
2026-01-16 22:44:27.29	107.36	11.82	-39.3	-40.6	20.8	0.00e+00	0	27	0	218103808	52	6115
2026-01-16 22:44:28.30	107.27	11.91	-39.0	-40.2	21.2	0.00e+00	0	27	0	220200960	52	5845
2026-01-16 22:44:29.31	107.18	11.99	-38.9	-40.0	21.3	0.00e+00	90	27	0	222298112	50	6449
2026-01-16 22:44:30.32	107.09	12.08	-38.6	-39.7	21.5	0.00e+00	0	27	0	224395264	50	6213
2026-01-16 22:44:31.32	106.99	12.16	-38.6	-39.7	21.4	0.00e+00	23	27	0	225443840	50	6214
2026-01-16 22:44:32.34	106.90	12.25	-38.3	-39.4	21.7	0.00e+00	0	28	0	227540992	50	6029
2026-01-16 22:44:33.35	106.81	12.33	-38.7	-39.9	21.5	0.00e+00	90	27	0	229638144	50	6344
2026-01-16 22:44:34.36	106.72	12.42	-38.6	-39.7	21.5	0.00e+00	0	27	0	231735296	50	6228
2026-01-16 22:44:35.37	106.62	12.50	-38.7	-39.8	21.6	0.00e+00	64	27	0	233832448	50	6274
2026-01-16 22:44:36.37	106.53	12.59	-38.7	-39.9	21.5	0.00e+00	90	28	0	235929600	50	6341
2026-01-16 22:44:37.38	106.43	12.67	-38.5	-39.7	21.6	0.00e+00	0	27	0	236978176	50	6197
2026-01-16 22:44:38.39	106.34	12.76	-38.2	-39.3	21.8	0.00e+00	90	27	0	239075328	50	5964
2026-01-16 22:44:39.40	106.24	12.85	-38.2	-39.3	22.0	0.00e+00	0	27	0	241172480	50	5922
2026-01-16 22:44:40.41	106.15	12.93	-38.1	-39.1	22.1	0.00e+00	92	27	0	243269632	50	5824
2026-01-16 22:44:41.42	106.05	13.02	-38.2	-39.3	22.1	0.00e+00	0	27	0	245366784	50	5956
2026-01-16 22:44:42.43	105.95	13.11	-38.2	-39.3	22.0	0.00e+00	87	27	0	246415360	50	5940
2026-01-16 22:44:43.44	105.85	13.20	-38.0	-39.1	22.3	0.00e+00	89	28	0	248512512	50	5789
2026-01-16 22:44:44.45	105.75	13.28	-38.3	-39.4	22.1	0.00e+00	0	28	0	250609664	50	5966
2026-01-16 22:44:45.46	105.65	13.37	-38.2	-39.2	22.0	0.00e+00	39	27	0	252706816	50	5869
2026-01-16 22:44:46.47	105.55	13.46	-38.3	-39.4	21.9	0.00e+00	3	28	0	254803968	50	5988
2026-01-16 22:44:47.48	105.45	13.55	-38.2	-39.2	22.1	0.00e+00	91	28	0	255852544	50	5871
2026-01-16 22:44:48.49	105.35	13.64	-38.0	-39.1	22.1	0.00e+00	0	28	0	257949696	50	5788
2026-01-16 22:44:49.50	105.25	13.73	-38.0	-39.0	22.2	0.00e+00	90	27	0	260046848	50	5734
2026-01-16 22:44:50.51	105.15	13.81	-37.9	-38.9	22.2	0.00e+00	90	27	0	262144000	50	5652
2026-01-16 22:44:51.52	105.04	13.90	-37.7	-38.7	22.5	0.00e+00	0	27	0	264241152	48	6205
2026-01-16 22:44:52.53	104.94	13.99	-37.9	-38.9	22.3	0.00e+00	90	27	0	265289728	48	6377
2026-01-16 22:44:53.54	104.83	14.08	-37.8	-38.7	22.4	0.00e+00	0	27	0	267386880	48	6225
2026-01-16 22:44:54.54	104.73	14.17	-38.3	-39.3	22.1	0.00e+00	89	27	0	269484032	48	6679
2026-01-16 22:44:55.55	104.62	14.26	-38.3	-39.3	22.0	0.00e+00	0	27	0	271581184	48	6675
2026-01-16 22:44:56.56	104.52	14.35	-38.3	-39.3	22.1	0.00e+00	92	27	0	273678336	48	6655
2026-01-16 22:44:57.57	104.41	14.44	-38.4	-39.5	21.9	0.00e+00	69	27	0	274726912	48	6821
2026-01-16 22:44:58.58	104.30	14.53	-38.3	-39.4	22.1	0.00e+00	0	28	0	276824064	48	6711
2026-01-16 22:44:59.58	104.20	14.62	-38.1	-39.1	22.4	0.00e+00	92	28	0	278921216	48	6470
2026-01-16 22:45:00.59	104.09	14.72	-38.0	-39.0	22.1	0.00e+00	0	27	0	281018368	48	6460
2026-01-16 22:45:01.60	103.98	14.81	-37.9	-39.0	22.5	0.00e+00	84	27	0	283115520	48	6401
2026-01-16 22:45:02.62	103.86	14.90	-38.0	-39.1	22.3	0.00e+00	0	27	0	284164096	48	6495
2026-01-16 22:45:03.63	103.75	14.99	-37.7	-38.8	22.5	0.00e+00	92	27	0	286261248	48	6255
2026-01-16 22:45:04.64	103.64	15.09	-37.8	-38.9	22.3	0.00e+00	33	27	0	288358400	48	6378
2026-01-16 22:45:05.65	103.53	15.18	-38.0	-39.1	22.0	0.00e+00	0	27	0	290455552	48	6528
2026-01-16 22:45:06.66	103.41	15.27	-37.9	-39.1	22.2	0.00e+00	92	27	0	292552704	48	6482
2026-01-16 22:45:07.67	103.30	15.36	-37.9	-39.0	22.1	0.00e+00	0	27	0	293601280	48	6452
2026-01-16 22:45:08.68	103.19	15.46	-37.9	-39.0	22.2	0.00e+00	92	27	0	295698432	48	6440
2026-01-16 22:45:09.69	103.07	15.55	-37.8	-38.9	22.3	0.00e+00	0	27	0	297795584	48	6344
2026-01-16 22:45:10.70	102.95	15.64	-38.1	-39.1	22.1	0.00e+00	92	27	0	299892736	48	6525
2026-01-16 22:45:11.71	102.84	15.74	-37.7	-38.7	22.5	0.00e+00	9	27	0	301989888	48	6185
2026-01-16 22:45:12.72	102.72	15.83	-37.8	-38.8	22.4	0.00e+00	89	27	0	304087040	48	6294
2026-01-16 22:45:13.73	102.60	15.93	-37.9	-39.0	22.3	0.00e+00	90	27	0	305135616	48	6399
2026-01-16 22:45:14.74	102.48	16.02	-37.6	-38.6	22.5	0.00e+00	0	27	0	307232768	48	6140
2026-01-16 22:45:15.75	102.36	16.12	-37.7	-38.7	22.4	0.00e+00	91	28	0	309329920	48	6219
2026-01-16 22:45:16.75	102.24	16.21	-38.0	-39.1	22.2	0.00e+00	0	28	0	311427072	48	6473
2026-01-16 22:45:17.76	102.12	16.31	-38.1	-39.1	22.1	0.00e+00	91	27	0	313524224	48	6480
2026-01-16 22:45:18.77	101.99	16.40	-38.0	-39.0	22.2	0.00e+00	17	27	0	314572800	48	6426
2026-01-16 22:45:19.78	101.87	16.50	-38.0	-39.0	22.2	0.00e+00	92	27	0	316669952	48	6419
2026-01-16 22:45:20.79	101.75	16.59	-38.0	-39.0	22.2	0.00e+00	92	27	0	318767104	48	6422
2026-01-16 22:45:21.80	101.62	16.69	-37.9	-38.9	22.2	0.00e+00	0	27	0	320864256	48	6365
2026-01-16 22:45:22.81	101.50	16.79	-37.8	-38.8	22.3	0.00e+00	51	28	0	322961408	48	6307
2026-01-16 22:45:23.82	101.37	16.88	-38.2	-39.3	21.9	0.00e+00	0	27	0	324009984	48	6619
2026-01-16 22:45:24.83	101.24	16.98	-38.1	-39.1	22.0	0.00e+00	92	27	0	326107136	48	6534
2026-01-16 22:45:25.84	101.11	17.08	-38.0	-39.0	22.3	0.00e+00	0	27	0	328204288	48	6421
2026-01-16 22:45:26.84	100.99	17.18	-37.9	-38.9	22.2	0.00e+00	92	27	0	330301440	48	6365
2026-01-16 22:45:27.85	100.86	17.27	-37.9	-38.9	22.3	0.00e+00	28	28	0	332398592	48	6388
2026-01-16 22:45:28.86	100.72	17.37	-37.7	-38.7	22.5	0.00e+00	0	27	0	333447168	48	6178
2026-01-16 22:45:29.87	100.59	17.47	-37.6	-38.5	22.6	0.00e+00	92	27	0	335544320	48	6088
2026-01-16 22:45:30.88	100.46	17.57	-37.5	-38.5	22.8	0.00e+00	0	27	0	337641472	48	6062
2026-01-16 22:45:31.89	100.33	17.67	-37.9	-38.9	22.4	0.00e+00	92	27	0	339738624	48	6350
2026-01-16 22:45:32.90	100.19	17.77	-37.7	-38.7	22.5	0.00e+00	0	27	0	341835776	48	6228
2026-01-16 22:45:33.91	100.06	17.87	-37.9	-38.9	22.4	0.00e+00	90	27	0	342884352	48	6333
2026-01-16 22:45:34.92	99.92	17.97	-38.1	-39.1	22.1	0.00e+00	90	27	0	344981504	48	6536
2026-01-16 22:45:35.93	99.78	18.06	-38.2	-39.3	22.1	0.00e+00	83	27	0	347078656	48	6630
2026-01-16 22:45:36.94	99.65	18.16	-38.1	-39.1	22.4	0.00e+00	92	27	0	349175808	48	6485
2026-01-16 22:45:37.95	99.51	18.27	-38.3	-39.4	22.1	0.00e+00	0	27	0	351272960	48	6727
2026-01-16 22:45:38.96	99.37	18.37	-38.4	-39.5	22.0	0.00e+00	91	27	0	352321536	48	6805
2026-01-16 22:45:39.97	99.23	18.47	-38.9	-40.0	21.6	0.00e+00	0	27	0	354418688	50	6424
2026-01-16 22:45:40.98	99.08	18.57	-39.0	-40.1	21.4	0.00e+00	92	28	0	356515840	50	6533
2026-01-16 22:45:41.99	98.94	18.67	-39.1	-40.3	21.2	0.00e+00	30	27	0	358612992	50	6659
2026-01-16 22:45:43.00	98.80	18.77	-39.0	-40.1	21.5	0.00e+00	92	27	0	360710144	50	6512
2026-01-16 22:45:44.01	98.65	18.87	-38.6	-39.7	21.8	0.00e+00	92	27	0	361758720	50	6237
2026-01-16 22:45:45.02	98.51	18.97	-38.5	-39.6	22.0	0.00e+00	0	27	0	363855872	50	6134
2026-01-16 22:45:46.03	98.36	19.07	-38.5	-39.6	21.9	0.00e+00	90	27	0	365953024	50	6135
2026-01-16 22:45:47.04	98.21	19.18	-38.8	-39.9	21.7	0.00e+00	0	27	0	368050176	50	6328
2026-01-16 22:45:48.05	98.06	19.28	-38.9	-40.0	21.7	0.00e+00	88	27	0	370147328	50	6424
2026-01-16 22:45:49.06	97.91	19.38	-38.9	-40.0	21.6	0.00e+00	0	27	0	371195904	50	6460
2026-01-16 22:45:50.07	97.76	19.48	-38.6	-39.6	22.0	0.00e+00	90	27	0	373293056	50	6147
2026-01-16 22:45:51.08	97.61	19.59	-38.4	-39.4	22.4	0.00e+00	90	27	0	375390208	50	5998
2026-01-16 22:45:52.09	97.46	19.69	-38.0	-38.9	22.1	0.00e+00	0	27	0	377487360	50	5688
2026-01-16 22:45:53.10	97.30	19.79	-38.1	-39.0	22.5	0.00e+00	60	27	0	379584512	50	5757
2026-01-16 22:45:54.11	97.15	19.90	-38.3	-39.3	22.4	0.00e+00	0	27	0	381681664	50	5957
2026-01-16 22:45:55.12	96.99	20.00	-38.6	-39.7	22.1	0.00e+00	92	27	0	382730240	50	6180
2026-01-16 22:45:56.13	96.84	20.11	-38.6	-39.7	22.0	0.00e+00	0	27	0	384827392	50	6190
2026-01-16 22:45:57.14	96.68	20.21	-38.7	-39.9	21.6	0.00e+00	92	27	0	386924544	50	6332
2026-01-16 22:45:58.14	96.52	20.31	-38.4	-39.4	22.2	0.00e+00	92	27	0	389021696	50	6002
2026-01-16 22:45:59.15	96.36	20.42	-38.4	-39.4	22.3	0.00e+00	4	27	0	390070272	50	5993
2026-01-16 22:46:00.16	96.20	20.52	-38.2	-39.3	22.2	0.00e+00	90	27	0	392167424	50	5911
2026-01-16 22:46:01.17	96.03	20.63	-38.5	-39.6	22.2	0.00e+00	0	27	0	394264576	50	6141
2026-01-16 22:46:02.17	95.87	20.73	-38.5	-39.6	22.0	0.00e+00	92	27	0	396361728	50	6131
2026-01-16 22:46:03.18	95.71	20.84	-38.5	-39.6	22.0	0.00e+00	0	27	0	398458880	50	6123
2026-01-16 22:46:04.19	95.54	20.94	-38.5	-39.6	22.1	0.00e+00	92	27	0	400556032	50	6170
2026-01-16 22:46:05.20	95.37	21.05	-38.8	-40.0	21.9	0.00e+00	0	27	0	401604608	50	6405
2026-01-16 22:46:06.21	95.21	21.16	-38.4	-39.5	22.3	0.00e+00	0	27	0	403701760	50	6068
2026-01-16 22:46:07.22	95.04	21.26	-38.9	-39.9	22.1	0.00e+00	92	27	0	405798912	50	6382
2026-01-16 22:46:08.23	94.87	21.37	-39.1	-40.2	21.8	0.00e+00	0	27	0	407896064	50	6565
2026-01-16 22:46:09.24	94.69	21.48	-38.9	-40.0	22.1	0.00e+00	84	27	0	409993216	50	6393
2026-01-16 22:46:10.25	94.52	21.58	-38.7	-39.7	22.1	0.00e+00	0	27	0	411041792	50	6218
2026-01-16 22:46:11.26	94.35	21.69	-38.9	-40.0	21.8	0.00e+00	77	27	0	413138944	50	6421
2026-01-16 22:46:12.27	94.17	21.80	-38.5	-39.6	22.0	0.00e+00	0	27	0	415236096	50	6110
2026-01-16 22:46:13.28	93.99	21.90	-38.8	-40.0	21.6	0.00e+00	92	27	0	417333248	50	6420
2026-01-16 22:46:14.28	93.82	22.01	-38.8	-39.9	21.9	0.00e+00	90	27	0	419430400	50	6362
2026-01-16 22:46:15.29	93.64	22.12	-38.8	-39.8	21.8	0.00e+00	0	27	0	420478976	50	6314
2026-01-16 22:46:16.30	93.46	22.23	-39.0	-40.1	21.7	0.00e+00	92	27	0	422576128	50	6526
2026-01-16 22:46:17.31	93.28	22.33	-39.4	-40.6	21.4	0.00e+00	0	27	0	424673280	50	6869
2026-01-16 22:46:18.32	93.09	22.44	-39.1	-40.3	21.4	0.00e+00	92	27	0	426770432	50	6669
2026-01-16 22:46:19.33	92.91	22.55	-39.4	-40.6	21.2	0.00e+00	0	27	0	428867584	50	6867
2026-01-16 22:46:20.34	92.72	22.66	-39.2	-40.4	21.3	0.00e+00	92	27	0	429916160	50	6716
2026-01-16 22:46:21.35	92.54	22.77	-39.7	-40.9	20.9	0.00e+00	69	27	0	432013312	50	7125
2026-01-16 22:46:22.36	92.35	22.87	-39.7	-40.9	21.2	0.00e+00	0	27	0	434110464	50	7115
2026-01-16 22:46:23.36	92.16	22.98	-39.5	-40.7	21.1	0.00e+00	72	27	0	436207616	52	6198
2026-01-16 22:46:24.37	91.97	23.09	-39.5	-40.7	21.3	0.00e+00	0	27	0	438304768	52	6194
2026-01-16 22:46:25.38	91.78	23.20	-39.6	-40.8	21.1	0.00e+00	92	27	0	439353344	52	6299
2026-01-16 22:46:26.39	91.58	23.31	-39.2	-40.4	21.4	0.00e+00	0	27	0	441450496	52	5998
2026-01-16 22:46:27.40	91.39	23.42	-39.1	-40.2	21.5	0.00e+00	92	27	0	443547648	52	5895
2026-01-16 22:46:28.41	91.19	23.53	-38.8	-39.9	21.9	0.00e+00	92	27	0	445644800	52	5632
2026-01-16 22:46:29.42	90.99	23.64	-38.9	-40.1	21.9	0.00e+00	0	27	0	447741952	50	6474
2026-01-16 22:46:30.43	90.79	23.75	-38.5	-39.6	22.2	0.00e+00	90	27	0	448790528	50	6110
2026-01-16 22:46:31.44	90.59	23.86	-38.2	-39.2	22.3	0.00e+00	0	27	0	450887680	50	5884
2026-01-16 22:46:32.45	90.39	23.96	-38.2	-39.3	22.3	0.00e+00	92	27	0	452984832	50	5928
2026-01-16 22:46:33.46	90.19	24.07	-38.2	-39.2	22.3	0.00e+00	0	27	0	455081984	50	5880
2026-01-16 22:46:34.47	89.98	24.18	-38.3	-39.4	22.0	0.00e+00	92	27	0	457179136	50	6003
2026-01-16 22:46:35.48	89.78	24.29	-38.3	-39.3	22.2	0.00e+00	92	27	0	458227712	50	5915
2026-01-16 22:46:36.48	89.57	24.40	-38.3	-39.3	22.3	0.00e+00	29	27	0	460324864	50	5920
2026-01-16 22:46:37.50	89.36	24.51	-38.7	-39.7	22.2	0.00e+00	92	27	0	462422016	50	6244
2026-01-16 22:46:38.50	89.15	24.62	-38.5	-39.6	22.2	0.00e+00	0	27	0	464519168	50	6120
2026-01-16 22:46:39.51	88.94	24.73	-38.6	-39.7	22.0	0.00e+00	81	27	0	466616320	50	6179
2026-01-16 22:46:40.52	88.72	24.84	-38.4	-39.4	22.1	0.00e+00	0	27	0	468713472	50	6015
2026-01-16 22:46:41.53	88.51	24.95	-38.5	-39.5	22.0	0.00e+00	90	27	0	469762048	50	6074
2026-01-16 22:46:42.54	88.29	25.06	-38.9	-40.0	21.6	0.00e+00	92	27	0	471859200	50	6459
2026-01-16 22:46:43.55	88.07	25.17	-39.1	-40.3	21.5	0.00e+00	92	27	0	473956352	50	6626
2026-01-16 22:46:44.56	87.85	25.28	-38.9	-40.0	21.8	0.00e+00	92	27	0	476053504	50	6422
2026-01-16 22:46:45.57	87.63	25.39	-38.7	-39.8	22.2	0.00e+00	0	27	0	478150656	50	6257
2026-01-16 22:46:46.58	87.41	25.50	-38.6	-39.6	22.2	0.00e+00	61	27	0	479199232	50	6167
2026-01-16 22:46:47.58	87.19	25.61	-38.5	-39.5	22.4	0.00e+00	32	27	0	481296384	50	6082
2026-01-16 22:46:48.60	86.96	25.72	-38.5	-39.6	22.2	0.00e+00	92	27	0	483393536	50	6120
2026-01-16 22:46:49.61	86.73	25.83	-38.7	-39.8	21.9	0.00e+00	33	27	0	485490688	50	6251
2026-01-16 22:46:50.61	86.50	25.94	-38.6	-39.7	22.1	0.00e+00	92	27	0	487587840	50	6177
2026-01-16 22:46:51.62	86.27	26.05	-38.3	-39.3	22.3	0.00e+00	90	27	0	488636416	50	5910
2026-01-16 22:46:52.63	86.04	26.16	-38.3	-39.3	22.4	0.00e+00	0	27	0	490733568	50	5929
2026-01-16 22:46:53.64	85.80	26.27	-38.2	-39.3	22.3	0.00e+00	89	27	0	492830720	50	5906
2026-01-16 22:46:54.64	85.57	26.38	-38.3	-39.4	22.2	0.00e+00	0	27	0	494927872	50	5965
2026-01-16 22:46:55.65	85.33	26.48	-38.3	-39.3	22.5	0.00e+00	92	27	0	497025024	50	5912
2026-01-16 22:46:56.66	85.09	26.59	-38.3	-39.3	22.2	0.00e+00	28	27	0	498073600	50	5938
2026-01-16 22:46:57.67	84.85	26.70	-38.5	-39.6	22.1	0.00e+00	92	27	0	500170752	50	6111
2026-01-16 22:46:58.67	84.61	26.81	-38.9	-40.0	21.8	0.00e+00	92	27	0	502267904	50	6452
2026-01-16 22:46:59.68	84.37	26.92	-39.1	-40.3	21.6	0.00e+00	0	27	0	504365056	50	6649
2026-01-16 22:47:00.69	84.12	27.03	-40.0	-41.2	21.0	0.00e+00	92	27	0	506462208	52	6611
2026-01-16 22:47:01.70	83.88	27.14	-39.3	-40.5	21.5	0.00e+00	0	27	0	507510784	52	6051
2026-01-16 22:47:02.71	83.63	27.25	-38.8	-39.9	22.1	0.00e+00	92	27	0	509607936	52	5638
2026-01-16 22:47:03.72	83.38	27.35	-38.5	-39.4	22.4	0.00e+00	0	27	0	511705088	50	6023
2026-01-16 22:47:04.72	83.13	27.46	-37.7	-38.6	22.9	0.00e+00	92	27	0	513802240	48	6133
2026-01-16 22:47:05.73	82.87	27.57	-37.2	-38.1	23.3	0.00e+00	92	27	0	515899392	48	5816
2026-01-16 22:47:06.74	82.62	27.68	-37.1	-38.0	23.0	0.00e+00	22	27	0	516947968	48	5717
2026-01-16 22:47:07.75	82.36	27.78	-36.8	-37.7	23.5	0.00e+00	92	27	0	519045120	46	6178
2026-01-16 22:47:08.76	82.10	27.89	-36.9	-37.7	23.4	0.00e+00	0	27	0	521142272	46	6244
2026-01-16 22:47:09.77	81.84	28.00	-37.1	-38.0	23.4	0.00e+00	92	27	0	523239424	46	6419
2026-01-16 22:47:10.78	81.57	28.10	-37.4	-38.3	23.0	0.00e+00	0	27	0	525336576	46	6644
2026-01-16 22:47:11.79	81.31	28.21	-38.0	-39.0	22.7	0.00e+00	92	27	0	526385152	48	6409
2026-01-16 22:47:12.80	81.04	28.32	-37.9	-38.9	22.4	0.00e+00	13	27	0	528482304	48	6352
2026-01-16 22:47:13.80	80.78	28.42	-38.0	-39.0	22.6	0.00e+00	0	27	0	530579456	48	6421
2026-01-16 22:47:14.81	80.51	28.53	-38.1	-39.0	22.5	0.00e+00	92	27	0	532676608	48	6462
2026-01-16 22:47:15.82	80.24	28.63	-38.2	-39.2	22.4	0.00e+00	0	27	0	534773760	48	6601
2026-01-16 22:47:16.83	79.96	28.74	-38.6	-39.7	22.2	0.00e+00	92	27	0	535822336	48	6948
2026-01-16 22:47:17.84	79.69	28.84	-38.9	-40.0	21.8	0.00e+00	0	27	0	537919488	50	6413
2026-01-16 22:47:18.85	79.41	28.94	-39.1	-40.2	21.5	0.00e+00	87	27	0	540016640	50	6596
2026-01-16 22:47:19.86	79.13	29.05	-40.0	-41.3	20.6	0.00e+00	0	27	0	542113792	52	6619
2026-01-16 22:47:20.87	78.85	29.15	-40.6	-42.1	19.9	0.00e+00	0	27	0	544210944	52	7285
2026-01-16 22:47:21.88	78.57	29.25	-40.7	-42.1	19.8	0.00e+00	92	27	0	545259520	52	7334
2026-01-16 22:47:22.88	78.29	29.36	-40.1	-41.5	20.4	0.00e+00	0	27	0	547356672	52	6804
2026-01-16 22:47:23.90	78.00	29.46	-40.0	-41.3	20.6	0.00e+00	48	27	0	549453824	52	6678
2026-01-16 22:47:24.91	77.71	29.56	-39.8	-41.0	20.9	0.00e+00	0	27	0	551550976	52	6460
2026-01-16 22:47:25.91	77.42	29.66	-39.6	-40.8	21.1	0.00e+00	90	27	0	553648128	52	6273
2026-01-16 22:47:26.92	77.13	29.76	-39.5	-40.7	21.2	0.00e+00	0	27	0	554696704	52	6201
2026-01-16 22:47:27.93	76.84	29.86	-39.4	-40.6	21.5	0.00e+00	42	27	0	556793856	52	6116
2026-01-16 22:47:28.94	76.54	29.96	-39.8	-41.0	21.1	0.00e+00	92	27	0	558891008	52	6419
2026-01-16 22:47:29.95	76.24	30.06	-39.9	-41.1	21.0	0.00e+00	1	27	0	560988160	52	6515
2026-01-16 22:47:30.96	75.94	30.16	-40.0	-41.3	20.9	0.00e+00	92	27	0	563085312	52	6621
2026-01-16 22:47:31.97	75.64	30.26	-40.2	-41.5	20.4	0.00e+00	0	27	0	565182464	52	6790
2026-01-16 22:47:32.98	75.34	30.35	-40.8	-42.3	19.6	0.00e+00	92	27	0	566231040	54	6655
2026-01-16 22:47:33.99	75.03	30.45	-41.4	-43.0	19.1	0.00e+00	0	27	0	568328192	54	7177
2026-01-16 22:47:35.00	74.73	30.55	-40.9	-42.4	19.5	0.00e+00	92	27	0	570425344	54	6708
2026-01-16 22:47:36.01	74.42	30.64	-41.5	-43.2	18.9	0.00e+00	92	27	0	572522496	54	7338
2026-01-16 22:47:37.02	74.11	30.74	-41.7	-43.4	18.8	0.00e+00	0	27	0	574619648	54	7531
2026-01-16 22:47:38.03	73.80	30.83	-42.7	-44.8	17.6	0.00e+00	56	27	0	575668224	56	7924
2026-01-16 22:47:39.04	73.48	30.93	-42.8	-44.8	17.5	0.00e+00	0	27	0	577765376	58	7083
2026-01-16 22:47:40.04	73.17	31.02	-42.2	-44.0	18.4	0.00e+00	92	27	0	579862528	58	6442
2026-01-16 22:47:41.05	72.85	31.11	-41.4	-43.0	19.4	0.00e+00	0	27	0	581959680	56	6401
2026-01-16 22:47:42.05	72.54	31.20	-40.6	-42.0	20.2	0.00e+00	92	27	0	583008256	56	5718
2026-01-16 22:47:43.07	72.21	31.29	-40.8	-42.2	20.0	0.00e+00	54	27	0	585105408	54	6542
2026-01-16 22:47:44.07	71.89	31.38	-40.8	-42.2	20.0	0.00e+00	0	27	0	587202560	54	6565
2026-01-16 22:47:45.08	71.57	31.47	-40.7	-42.1	20.2	0.00e+00	92	27	0	589299712	54	6519
2026-01-16 22:47:46.09	71.24	31.56	-40.6	-42.0	20.2	0.00e+00	0	27	0	591396864	54	6409
2026-01-16 22:47:47.10	70.91	31.65	-40.6	-42.0	20.1	0.00e+00	92	27	0	593494016	54	6391
2026-01-16 22:47:48.11	70.58	31.74	-40.7	-42.0	20.2	0.00e+00	0	27	0	594542592	54	6409
2026-01-16 22:47:49.12	70.25	31.82	-40.8	-42.1	20.1	0.00e+00	92	27	0	596639744	54	6527
2026-01-16 22:47:50.13	69.92	31.91	-40.6	-42.0	20.2	0.00e+00	35	27	0	598736896	54	6427
2026-01-16 22:47:51.14	69.58	31.99	-40.7	-42.0	20.0	0.00e+00	0	27	0	600834048	54	6449
2026-01-16 22:47:52.15	69.25	32.08	-40.6	-42.0	20.0	0.00e+00	90	27	0	602931200	54	6443
2026-01-16 22:47:53.16	68.91	32.16	-40.9	-42.3	19.8	0.00e+00	0	27	0	603979776	54	6681
2026-01-16 22:47:54.17	68.57	32.24	-41.0	-42.5	19.7	0.00e+00	92	27	0	606076928	54	6788
2026-01-16 22:47:55.18	68.22	32.32	-41.4	-43.1	19.1	0.00e+00	0	27	0	608174080	54	7274
2026-01-16 22:47:56.19	67.88	32.40	-42.1	-44.0	18.2	0.00e+00	92	27	0	610271232	56	7230
2026-01-16 22:47:57.20	67.53	32.48	-42.2	-44.1	18.1	0.00e+00	34	27	0	612368384	56	7324
2026-01-16 22:47:58.20	67.19	32.56	-41.8	-43.4	18.9	0.00e+00	74	27	0	613416960	56	6760
2026-01-16 22:47:59.21	66.84	32.64	-40.9	-42.3	19.9	0.00e+00	92	27	0	615514112	56	5933
2026-01-16 22:48:00.23	66.49	32.71	-41.1	-42.6	19.4	0.00e+00	0	27	0	617611264	54	6913
2026-01-16 22:48:01.24	66.14	32.79	-41.3	-43.0	19.1	0.00e+00	33	27	0	619708416	54	7189
2026-01-16 22:48:02.25	65.78	32.86	-41.0	-42.5	19.7	0.00e+00	0	27	0	621805568	54	6788
2026-01-16 22:48:03.26	65.43	32.94	-40.9	-42.4	19.7	0.00e+00	90	27	0	622854144	54	6733
2026-01-16 22:48:04.26	65.07	33.01	-41.0	-42.6	19.4	0.00e+00	0	27	0	624951296	54	6901
2026-01-16 22:48:05.28	64.71	33.08	-39.9	-41.2	20.7	0.00e+00	0	27	0	627048448	54	5854
2026-01-16 22:48:06.29	64.35	33.15	-39.9	-41.1	21.1	0.00e+00	59	27	0	629145600	54	5799
2026-01-16 22:48:07.30	63.99	33.22	-38.7	-39.7	22.1	0.00e+00	0	27	0	631242752	52	5552
2026-01-16 22:48:08.30	63.63	33.28	-38.9	-39.9	22.3	0.00e+00	0	27	0	632291328	50	6383
2026-01-16 22:48:09.32	63.26	33.35	-38.0	-39.0	22.6	0.00e+00	0	27	0	634388480	50	5709
2026-01-16 22:48:10.32	62.90	33.41	-38.4	-39.4	22.4	0.00e+00	92	27	0	636485632	50	5996
2026-01-16 22:48:11.33	62.53	33.48	-37.4	-38.3	23.2	0.00e+00	0	27	0	638582784	50	5299
2026-01-16 22:48:12.34	62.16	33.54	-37.3	-38.2	23.0	0.00e+00	52	27	0	640679936	48	5880
2026-01-16 22:48:13.35	61.79	33.60	-37.6	-38.5	22.8	0.00e+00	3	27	0	641728512	48	6067
2026-01-16 22:48:14.36	61.42	33.66	-37.5	-38.4	23.2	0.00e+00	0	27	0	643825664	48	5973
2026-01-16 22:48:15.37	61.04	33.72	-37.4	-38.3	23.2	0.00e+00	36	27	0	645922816	48	5908
2026-01-16 22:48:16.38	60.67	33.78	-37.8	-38.8	22.9	0.00e+00	0	27	0	648019968	48	6269
2026-01-16 22:48:17.38	60.30	33.83	-38.4	-39.5	22.3	0.00e+00	91	27	0	650117120	48	6800
2026-01-16 22:48:18.39	59.92	33.89	-39.1	-40.3	21.5	0.00e+00	0	27	0	651165696	50	6619
2026-01-16 22:48:19.40	59.54	33.94	-39.5	-40.7	21.0	0.00e+00	90	27	0	653262848	50	6988
2026-01-16 22:48:20.41	59.16	33.99	-39.2	-40.4	21.3	0.00e+00	92	27	0	655360000	50	6767
2026-01-16 22:48:21.42	58.78	34.04	-38.4	-39.4	22.3	0.00e+00	0	27	0	657457152	50	6011
2026-01-16 22:48:22.43	58.40	34.09	-37.8	-38.8	22.7	0.00e+00	45	27	0	659554304	50	5609
2026-01-16 22:48:23.44	58.01	34.14	-37.6	-38.6	22.8	0.00e+00	0	27	0	661651456	48	6120
2026-01-16 22:48:24.45	57.63	34.19	-37.2	-38.1	23.3	0.00e+00	91	28	0	662700032	48	5828
2026-01-16 22:48:25.46	57.25	34.23	-36.9	-37.9	23.4	0.00e+00	0	27	0	664797184	48	5636
2026-01-16 22:48:26.47	56.86	34.28	-37.1	-38.0	23.3	0.00e+00	92	27	0	666894336	48	5712
2026-01-16 22:48:27.48	56.47	34.32	-37.1	-38.0	23.4	0.00e+00	34	27	0	668991488	48	5712
2026-01-16 22:48:28.49	56.08	34.36	-36.9	-37.8	23.6	0.00e+00	0	27	0	671088640	48	5579
2026-01-16 22:48:29.50	55.69	34.40	-36.8	-37.6	23.5	0.00e+00	92	27	0	672137216	46	6173
2026-01-16 22:48:30.51	55.30	34.44	-37.4	-38.3	23.2	0.00e+00	0	28	0	674234368	46	6672
2026-01-16 22:48:31.52	54.91	34.48	-38.3	-39.4	22.3	0.00e+00	89	27	0	676331520	48	6711
2026-01-16 22:48:32.53	54.52	34.51	-38.5	-39.6	22.1	0.00e+00	0	27	0	678428672	48	6907
2026-01-16 22:48:33.54	54.13	34.55	-38.2	-39.2	22.5	0.00e+00	92	27	0	680525824	48	6601
2026-01-16 22:48:34.55	53.73	34.58	-37.8	-38.7	22.9	0.00e+00	0	27	0	681574400	48	6243
2026-01-16 22:48:35.56	53.34	34.61	-37.6	-38.5	23.1	0.00e+00	0	28	0	683671552	48	6047
2026-01-16 22:48:36.56	52.95	34.64	-38.0	-38.9	22.5	0.00e+00	90	27	0	685768704	48	6381
2026-01-16 22:48:37.57	52.55	34.67	-38.6	-39.7	22.1	0.00e+00	0	27	0	687865856	48	6973
2026-01-16 22:48:38.58	52.15	34.69	-38.6	-39.7	22.0	0.00e+00	78	27	0	689963008	48	6973
2026-01-16 22:48:39.59	51.76	34.72	-38.2	-39.3	22.3	0.00e+00	0	27	0	691011584	48	6629
2026-01-16 22:48:40.61	51.35	34.74	-38.6	-39.7	22.0	0.00e+00	92	28	0	693108736	48	6928
2026-01-16 22:48:41.61	50.96	34.76	-38.6	-39.7	22.0	0.00e+00	0	28	0	695205888	48	6931
2026-01-16 22:48:42.62	50.56	34.78	-38.3	-39.4	22.1	0.00e+00	0	28	0	697303040	48	6731
2026-01-16 22:48:43.63	50.16	34.80	-38.1	-39.1	22.8	0.00e+00	90	27	0	699400192	48	6496
2026-01-16 22:48:44.64	49.76	34.82	-37.8	-38.8	22.8	0.00e+00	0	28	0	700448768	48	6263
2026-01-16 22:48:45.65	49.36	34.83	-38.3	-39.3	22.3	0.00e+00	35	28	0	702545920	48	6644
2026-01-16 22:48:46.66	48.96	34.84	-38.6	-39.7	22.2	0.00e+00	0	28	0	704643072	50	6190
2026-01-16 22:48:47.67	48.56	34.86	-38.3	-39.3	22.3	0.00e+00	78	28	0	706740224	50	5940
2026-01-16 22:48:48.68	48.16	34.87	-38.6	-39.6	22.2	0.00e+00	0	28	0	708837376	50	6151
2026-01-16 22:48:49.69	47.76	34.88	-38.6	-39.7	22.1	0.00e+00	0	28	0	709885952	50	6199
2026-01-16 22:48:50.70	47.36	34.88	-39.2	-40.3	21.7	0.00e+00	45	28	0	711983104	50	6621
2026-01-16 22:48:51.71	46.96	34.89	-39.0	-40.1	21.7	0.00e+00	0	28	0	714080256	50	6502
2026-01-16 22:48:52.72	46.55	34.89	-38.8	-39.9	21.9	0.00e+00	90	28	0	716177408	50	6324
2026-01-16 22:48:53.73	46.15	34.89	-38.6	-39.7	22.0	0.00e+00	0	28	0	718274560	50	6225
2026-01-16 22:48:54.74	45.75	34.90	-38.6	-39.7	21.9	0.00e+00	92	28	0	719323136	50	6233
2026-01-16 22:48:55.75	45.35	34.89	-38.9	-40.0	21.8	0.00e+00	0	28	0	721420288	50	6435
2026-01-16 22:48:56.75	44.95	34.89	-38.8	-39.9	21.9	0.00e+00	86	28	0	723517440	50	6357
2026-01-16 22:48:57.76	44.55	34.89	-38.8	-39.9	22.0	0.00e+00	31	28	0	725614592	50	6319
2026-01-16 22:48:58.77	44.15	34.88	-38.9	-39.9	22.1	0.00e+00	0	28	0	727711744	50	6362
2026-01-16 22:48:59.78	43.75	34.88	-39.4	-40.5	21.5	0.00e+00	25	28	0	729808896	50	6833
2026-01-16 22:49:00.79	43.34	34.87	-39.7	-40.9	21.1	0.00e+00	0	28	0	730857472	50	7169
2026-01-16 22:49:01.80	42.94	34.86	-40.0	-41.3	20.7	0.00e+00	91	28	0	732954624	52	6666
2026-01-16 22:49:02.81	42.54	34.84	-38.8	-39.9	21.9	0.00e+00	0	28	0	735051776	52	5651
2026-01-16 22:49:03.82	42.14	34.83	-38.8	-39.9	21.9	0.00e+00	90	28	0	737148928	50	6331
2026-01-16 22:49:04.83	41.74	34.82	-38.2	-39.2	21.8	0.00e+00	58	28	0	739246080	50	5850
2026-01-16 22:49:05.84	41.34	34.80	-38.5	-39.5	22.4	0.00e+00	0	28	0	740294656	50	6039
2026-01-16 22:49:06.85	40.94	34.78	-38.9	-40.0	21.9	0.00e+00	61	28	0	742391808	50	6399
2026-01-16 22:49:07.86	40.54	34.76	-39.6	-40.8	21.1	0.00e+00	0	28	0	744488960	52	6250
2026-01-16 22:49:08.87	40.15	34.74	-40.0	-41.3	20.8	0.00e+00	92	28	0	746586112	52	6624
2026-01-16 22:49:09.88	39.75	34.72	-40.1	-41.4	20.6	0.00e+00	0	28	0	748683264	52	6717
2026-01-16 22:49:10.89	39.35	34.69	-40.0	-41.3	20.7	0.00e+00	75	28	0	749731840	52	6639
2026-01-16 22:49:11.90	38.96	34.66	-39.6	-40.8	21.1	0.00e+00	0	28	0	751828992	52	6313
2026-01-16 22:49:12.91	38.56	34.64	-38.6	-39.6	22.1	0.00e+00	0	28	0	753926144	50	6172
2026-01-16 22:49:13.92	38.16	34.61	-38.3	-39.3	22.3	0.00e+00	84	28	0	756023296	50	5945
2026-01-16 22:49:14.93	37.77	34.58	-38.3	-39.3	22.2	0.00e+00	0	28	0	758120448	50	5945
2026-01-16 22:49:15.94	37.38	34.54	-39.2	-40.3	21.8	0.00e+00	90	28	0	759169024	50	6685
2026-01-16 22:49:16.95	36.98	34.51	-40.3	-41.5	21.0	0.00e+00	0	28	0	761266176	52	6830
2026-01-16 22:49:17.96	36.59	34.48	-39.9	-41.1	21.0	0.00e+00	92	28	0	763363328	52	6518
2026-01-16 22:49:18.97	36.20	34.44	-40.1	-41.4	20.7	0.00e+00	0	28	0	765460480	52	6711
2026-01-16 22:49:19.98	35.81	34.40	-40.6	-42.0	20.3	0.00e+00	0	28	0	767557632	52	7229
2026-01-16 22:49:20.98	35.43	34.36	-39.4	-40.6	21.4	0.00e+00	91	28	0	768606208	52	6145
2026-01-16 22:49:22.00	35.03	34.32	-39.1	-40.3	21.5	0.00e+00	0	28	0	770703360	52	5907
2026-01-16 22:49:23.00	34.65	34.28	-39.1	-40.3	21.3	0.00e+00	88	28	0	772800512	52	5897
2026-01-16 22:49:24.01	34.26	34.23	-38.5	-39.5	22.2	0.00e+00	0	28	0	774897664	50	6072
2026-01-16 22:49:25.02	33.88	34.19	-38.0	-39.0	22.6	0.00e+00	92	28	0	776994816	50	5736
2026-01-16 22:49:26.03	33.50	34.14	-37.7	-38.6	22.7	0.00e+00	0	28	0	778043392	48	6154
2026-01-16 22:49:27.04	33.11	34.09	-38.3	-39.4	22.0	0.00e+00	63	28	0	780140544	48	6693
2026-01-16 22:49:28.05	32.73	34.04	-39.4	-40.6	21.2	0.00e+00	32	28	0	782237696	50	6879
2026-01-16 22:49:29.06	32.35	33.99	-38.9	-40.0	21.3	0.00e+00	0	28	0	784334848	50	6444
2026-01-16 22:49:30.07	31.97	33.94	-38.7	-39.8	21.7	0.00e+00	49	28	0	786432000	50	6305
2026-01-16 22:49:31.08	31.59	33.89	-38.9	-39.9	21.8	0.00e+00	0	28	0	787480576	50	6375
2026-01-16 22:49:32.09	31.22	33.83	-38.8	-39.8	22.3	0.00e+00	92	28	0	789577728	50	6290
2026-01-16 22:49:33.10	30.84	33.78	-38.8	-39.9	22.2	0.00e+00	0	28	0	791674880	50	6343
2026-01-16 22:49:34.11	30.47	33.72	-37.9	-38.9	22.6	0.00e+00	92	28	0	793772032	50	5672
2026-01-16 22:49:35.12	30.09	33.66	-38.3	-39.4	22.3	0.00e+00	90	28	0	795869184	50	5986
2026-01-16 22:49:36.12	29.73	33.60	-38.8	-39.9	21.8	0.00e+00	0	28	0	797966336	50	6351
2026-01-16 22:49:37.13	29.36	33.54	-39.0	-40.2	21.3	0.00e+00	64	28	0	799014912	50	6580
2026-01-16 22:49:38.14	28.99	33.48	-39.8	-41.1	20.8	0.00e+00	0	28	0	801112064	50	7313
2026-01-16 22:49:39.15	28.62	33.41	-40.3	-41.6	20.4	0.00e+00	90	28	0	803209216	52	6923
2026-01-16 22:49:40.16	28.26	33.35	-40.3	-41.6	20.6	0.00e+00	0	28	0	805306368	54	6118
2026-01-16 22:49:41.17	27.89	33.28	-39.2	-40.3	21.6	0.00e+00	92	28	0	807403520	52	5926
2026-01-16 22:49:42.17	27.53	33.22	-38.2	-39.2	22.4	0.00e+00	15	28	0	808452096	50	5860
2026-01-16 22:49:43.18	27.17	33.15	-37.9	-38.9	22.6	0.00e+00	0	28	0	810549248	50	5634
2026-01-16 22:49:44.19	26.81	33.08	-37.8	-38.7	22.7	0.00e+00	85	28	0	812646400	48	6241
2026-01-16 22:49:45.20	26.45	33.01	-38.1	-39.1	22.4	0.00e+00	0	28	0	814743552	48	6521
2026-01-16 22:49:46.21	26.10	32.94	-38.3	-39.3	22.2	0.00e+00	87	28	0	816840704	48	6659
2026-01-16 22:49:47.22	25.74	32.86	-38.8	-39.9	21.6	0.00e+00	0	28	0	817889280	50	6366
2026-01-16 22:49:48.23	25.39	32.79	-39.7	-41.0	20.8	0.00e+00	91	28	0	819986432	50	7206
2026-01-16 22:49:49.24	25.04	32.72	-40.5	-42.0	19.7	0.00e+00	0	28	0	822083584	52	7220
2026-01-16 22:49:50.24	24.69	32.64	-41.2	-42.9	19.1	0.00e+00	0	28	0	824180736	54	7133
2026-01-16 22:49:51.25	24.34	32.56	-40.9	-42.5	19.6	0.00e+00	60	28	0	826277888	54	6817
2026-01-16 22:49:52.26	24.00	32.49	-40.5	-42.0	19.8	0.00e+00	0	28	0	827326464	54	6444
2026-01-16 22:49:53.27	23.65	32.41	-40.4	-41.9	19.8	0.00e+00	26	28	0	829423616	54	6364
2026-01-16 22:49:54.28	23.31	32.33	-40.2	-41.6	20.5	0.00e+00	0	28	0	831520768	54	6153
2026-01-16 22:49:55.29	22.97	32.25	-40.2	-41.7	20.1	0.00e+00	75	28	0	833617920	54	6189
2026-01-16 22:49:56.30	22.63	32.16	-40.8	-42.4	19.8	0.00e+00	0	28	0	835715072	54	6717
2026-01-16 22:49:57.31	22.29	32.08	-41.5	-43.2	18.8	0.00e+00	0	28	0	836763648	54	7406
2026-01-16 22:49:58.32	21.95	32.00	-41.3	-43.0	19.3	0.00e+00	22	28	0	838860800	56	6399
2026-01-16 22:49:59.33	21.62	31.91	-40.2	-41.6	20.4	0.00e+00	0	28	0	840957952	54	6142
2026-01-16 22:50:00.34	21.28	31.83	-39.6	-40.9	21.0	0.00e+00	0	28	0	843055104	54	5640
2026-01-16 22:50:01.35	20.95	31.74	-39.7	-40.9	21.0	0.00e+00	0	28	0	845152256	52	6370
2026-01-16 22:50:02.36	20.62	31.66	-39.3	-40.5	21.3	0.00e+00	90	28	0	846200832	52	6074
2026-01-16 22:50:03.36	20.30	31.57	-40.0	-41.2	20.7	0.00e+00	0	28	0	848297984	52	6606
2026-01-16 22:50:04.37	19.97	31.48	-38.9	-40.0	21.8	0.00e+00	79	28	0	850395136	52	5761
2026-01-16 22:50:05.38	19.65	31.39	-38.8	-39.9	22.0	0.00e+00	92	28	0	852492288	50	6365
2026-01-16 22:50:06.40	19.32	31.30	-38.3	-39.3	22.5	0.00e+00	0	28	0	854589440	50	5935
2026-01-16 22:50:07.40	19.01	31.21	-38.4	-39.4	22.3	0.00e+00	37	28	0	855638016	50	6000
2026-01-16 22:50:08.41	18.69	31.12	-39.4	-40.6	21.2	0.00e+00	27	28	0	857735168	50	6849
2026-01-16 22:50:09.42	18.37	31.03	-40.3	-41.6	20.2	0.00e+00	90	28	0	859832320	52	6895
2026-01-16 22:50:10.43	18.06	30.93	-40.7	-42.2	20.2	0.00e+00	0	28	0	861929472	52	7338
2026-01-16 22:50:11.44	17.74	30.84	-40.7	-42.1	20.0	0.00e+00	89	28	0	864026624	52	7274
2026-01-16 22:50:12.45	17.43	30.75	-40.2	-41.5	20.5	0.00e+00	34	28	0	865075200	52	6832
2026-01-16 22:50:13.46	17.12	30.65	-39.8	-41.0	20.9	0.00e+00	0	28	0	867172352	52	6423
2026-01-16 22:50:14.47	16.82	30.56	-39.0	-40.1	21.7	0.00e+00	89	28	0	869269504	52	5782
2026-01-16 22:50:15.48	16.51	30.46	-38.7	-39.8	21.9	0.00e+00	0	28	0	871366656	50	6271
2026-01-16 22:50:16.49	16.21	30.36	-38.9	-40.1	21.7	0.00e+00	89	28	0	873463808	50	6472
2026-01-16 22:50:17.49	15.91	30.27	-39.8	-41.1	20.7	0.00e+00	0	28	0	874512384	50	7305
2026-01-16 22:50:18.50	15.61	30.17	-40.6	-42.0	20.2	0.00e+00	89	28	0	876609536	52	7212
2026-01-16 22:50:19.51	15.31	30.07	-41.3	-42.9	19.3	0.00e+00	33	28	0	878706688	54	7126
2026-01-16 22:50:20.52	15.01	29.97	-40.9	-42.3	19.9	0.00e+00	0	28	0	880803840	54	6674
2026-01-16 22:50:21.53	14.72	29.87	-40.3	-41.7	20.4	0.00e+00	89	28	0	882900992	54	6188
2026-01-16 22:50:22.54	14.42	29.77	-39.9	-41.2	20.9	0.00e+00	0	28	0	883949568	54	5832
2026-01-16 22:50:23.55	14.13	29.67	-39.5	-40.7	21.1	0.00e+00	33	28	0	886046720	52	6214
2026-01-16 22:50:24.56	13.84	29.57	-39.8	-41.1	20.8	0.00e+00	0	28	0	888143872	52	6525
2026-01-16 22:50:25.57	13.56	29.47	-39.7	-41.0	20.7	0.00e+00	90	28	0	890241024	52	6425
2026-01-16 22:50:26.57	13.27	29.37	-39.9	-41.1	20.9	0.00e+00	34	28	0	892338176	52	6535
2026-01-16 22:50:27.58	12.99	29.27	-40.4	-41.9	19.8	0.00e+00	0	28	0	894435328	52	7099
2026-01-16 22:50:28.59	12.71	29.16	-40.7	-42.3	19.6	0.00e+00	31	28	0	895483904	54	6620
2026-01-16 22:50:29.60	12.43	29.06	-40.7	-42.1	19.8	0.00e+00	0	28	0	897581056	54	6525
2026-01-16 22:50:30.61	12.15	28.96	-40.7	-42.1	19.8	0.00e+00	92	28	0	899678208	54	6536
2026-01-16 22:50:31.62	11.87	28.85	-40.5	-41.8	20.4	0.00e+00	0	28	0	901775360	54	6289
2026-01-16 22:50:32.63	11.60	28.75	-40.1	-41.3	20.9	0.00e+00	0	28	0	903872512	54	5926
2026-01-16 22:50:33.64	11.33	28.65	-39.4	-40.5	21.4	0.00e+00	0	28	0	904921088	52	6058
2026-01-16 22:50:34.64	11.06	28.54	-39.3	-40.4	21.4	0.00e+00	0	28	0	907018240	52	5977
2026-01-16 22:50:35.65	10.79	28.44	-39.4	-40.6	21.2	0.00e+00	58	28	0	909115392	52	6110
2026-01-16 22:50:36.66	10.52	28.33	-39.2	-40.4	21.3	0.00e+00	0	28	0	911212544	52	5985
2026-01-16 22:50:37.67	10.26	28.23	-39.3	-40.4	21.4	0.00e+00	90	28	0	913309696	52	6009
2026-01-16 22:50:38.68	9.99	28.12	-39.4	-40.7	21.1	0.00e+00	0	28	0	914358272	52	6178
2026-01-16 22:50:39.69	9.73	28.01	-40.1	-41.4	20.6	0.00e+00	0	28	0	916455424	52	6735
2026-01-16 22:50:40.70	9.47	27.91	-39.4	-40.6	21.2	0.00e+00	0	28	0	918552576	52	6142
2026-01-16 22:50:41.71	9.21	27.80	-38.8	-39.8	21.9	0.00e+00	0	28	0	920649728	50	6309
2026-01-16 22:50:42.72	8.95	27.69	-37.8	-38.8	22.8	0.00e+00	26	28	0	922746880	48	6289
2026-01-16 22:50:43.73	8.70	27.59	-37.6	-38.5	22.9	0.00e+00	0	28	0	923795456	48	6079
2026-01-16 22:50:44.74	8.45	27.48	-37.2	-38.1	23.2	0.00e+00	82	28	0	925892608	48	5812
2026-01-16 22:50:45.75	8.19	27.37	-37.5	-38.5	22.9	0.00e+00	0	29	0	927989760	48	6080
2026-01-16 22:50:46.75	7.95	27.26	-37.7	-38.7	22.6	0.00e+00	0	29	0	930086912	48	6240
2026-01-16 22:50:47.76	7.70	27.16	-38.0	-39.1	22.5	0.00e+00	0	28	0	932184064	48	6480
2026-01-16 22:50:48.77	7.45	27.05	-38.2	-39.3	22.3	0.00e+00	0	28	0	933232640	48	6633
2026-01-16 22:50:49.79	7.20	26.94	-38.1	-39.2	22.3	0.00e+00	30	28	0	935329792	48	6576
2026-01-16 22:50:50.80	6.96	26.83	-37.6	-38.6	22.8	0.00e+00	0	28	0	937426944	48	6160
2026-01-16 22:50:51.80	6.72	26.72	-37.5	-38.5	22.8	0.00e+00	82	28	0	939524096	48	6057
2026-01-16 22:50:52.81	6.48	26.61	-37.0	-37.9	23.3	0.00e+00	0	28	0	941621248	48	5695
2026-01-16 22:50:53.82	6.24	26.51	-36.7	-37.6	23.5	0.00e+00	0	28	0	942669824	48	5441
2026-01-16 22:50:54.83	6.01	26.40	-36.6	-37.5	23.6	0.00e+00	0	28	0	944766976	46	6035
2026-01-16 22:50:55.84	5.77	26.29	-36.8	-37.7	23.5	0.00e+00	0	29	0	946864128	46	6209
2026-01-16 22:50:56.85	5.54	26.18	-37.2	-38.2	23.2	0.00e+00	0	28	0	948961280	46	6565
2026-01-16 22:50:57.86	5.31	26.07	-37.4	-38.4	22.9	0.00e+00	0	28	0	951058432	46	6749
2026-01-16 22:50:58.86	5.08	25.96	-37.8	-38.8	22.5	0.00e+00	70	28	0	952107008	48	6314
2026-01-16 22:50:59.87	4.85	25.85	-38.1	-39.2	22.3	0.00e+00	0	29	0	954204160	48	6585
2026-01-16 22:51:00.88	4.62	25.74	-37.7	-38.7	22.7	0.00e+00	92	29	0	956301312	48	6238
2026-01-16 22:51:01.89	4.40	25.63	-37.3	-38.3	23.0	0.00e+00	0	29	0	958398464	48	5940
2026-01-16 22:51:02.90	4.17	25.52	-37.0	-38.0	23.2	0.00e+00	0	29	0	960495616	48	5720
2026-01-16 22:51:03.91	3.95	25.41	-36.8	-37.7	23.2	0.00e+00	0	28	0	962592768	46	6209
2026-01-16 22:51:04.92	3.73	25.30	-36.9	-37.8	23.4	0.00e+00	0	29	0	963641344	46	6268
2026-01-16 22:51:05.93	3.51	25.20	-36.5	-37.4	23.7	0.00e+00	92	29	0	965738496	46	6026
2026-01-16 22:51:06.94	3.29	25.09	-36.7	-37.6	23.4	0.00e+00	0	28	0	967835648	46	6144
2026-01-16 22:51:07.95	3.08	24.98	-36.6	-37.5	23.5	0.00e+00	92	29	0	969932800	46	6103
2026-01-16 22:51:08.96	2.86	24.87	-36.6	-37.6	23.5	0.00e+00	0	29	0	970981376	46	6109
2026-01-16 22:51:09.97	2.65	24.76	-36.7	-37.7	23.5	0.00e+00	0	29	0	973078528	46	6182
2026-01-16 22:51:10.97	2.44	24.65	-36.7	-37.7	23.4	0.00e+00	0	29	0	975175680	46	6181
2026-01-16 22:51:11.98	2.23	24.54	-36.7	-37.7	23.4	0.00e+00	0	29	0	977272832	46	6187
2026-01-16 22:51:12.99	2.02	24.43	-36.8	-37.7	23.3	0.00e+00	29	29	0	979369984	46	6207
2026-01-16 22:51:14.00	1.82	24.32	-36.8	-37.7	23.4	0.00e+00	0	28	0	980418560	46	6227
2026-01-16 22:51:15.01	1.61	24.21	-36.9	-37.8	23.3	0.00e+00	91	29	0	982515712	46	6275
2026-01-16 22:51:16.01	1.41	24.10	-36.5	-37.3	23.8	0.00e+00	0	29	0	984612864	46	5962
2026-01-16 22:51:17.02	1.21	23.99	-36.3	-37.1	23.8	0.00e+00	0	29	0	986710016	46	5826
2026-01-16 22:51:18.03	1.00	23.89	-36.7	-37.6	23.5	0.00e+00	0	29	0	988807168	46	6139
2026-01-16 22:51:19.04	0.80	23.78	-36.7	-37.6	23.5	0.00e+00	0	29	0	990904320	46	6142
2026-01-16 22:51:20.05	0.61	23.67	-37.0	-37.9	23.2	0.00e+00	44	29	0	991952896	46	6388
2026-01-16 22:51:21.06	0.41	23.56	-37.0	-38.0	23.1	0.00e+00	0	29	0	994050048	46	6396
2026-01-16 22:51:22.07	0.21	23.45	-36.9	-37.8	23.3	0.00e+00	92	29	0	996147200	46	6298
2026-01-16 22:51:23.08	0.02	23.34	-36.7	-37.6	23.6	0.00e+00	0	29	0	998244352	46	6132
2026-01-16 22:51:24.09	359.83	23.23	-36.9	-37.9	23.3	0.00e+00	0	29	0	1000341504	46	6320
2026-01-16 22:51:25.09	359.64	23.12	-36.9	-37.9	23.2	0.00e+00	0	29	0	1001390080	46	6344
2026-01-16 22:51:26.10	359.45	23.02	-37.0	-38.0	23.3	0.00e+00	0	29	0	1003487232	46	6406
2026-01-16 22:51:27.11	359.26	22.91	-37.1	-38.1	23.1	0.00e+00	33	29	0	1005584384	46	6502
2026-01-16 22:51:28.12	359.07	22.80	-37.7	-38.7	22.4	0.00e+00	0	29	0	1007681536	46	6984
2026-01-16 22:51:29.13	358.88	22.69	-37.6	-38.6	22.8	0.00e+00	29	29	0	1009778688	48	6157
2026-01-16 22:51:30.13	358.70	22.59	-37.7	-38.7	22.6	0.00e+00	0	29	0	1010827264	48	6195
2026-01-16 22:51:31.14	358.52	22.48	-37.8	-38.8	22.5	0.00e+00	79	29	0	1012924416	48	6268
2026-01-16 22:51:32.15	358.33	22.37	-38.0	-39.0	22.4	0.00e+00	0	29	0	1015021568	48	6428
2026-01-16 22:51:33.16	358.15	22.26	-37.3	-38.2	22.8	0.00e+00	0	29	0	1017118720	48	5893
2026-01-16 22:51:34.17	357.97	22.16	-37.5	-38.5	22.6	0.00e+00	0	29	0	1019215872	48	6070
2026-01-16 22:51:35.18	357.79	22.05	-37.9	-38.9	22.6	0.00e+00	0	29	0	1020264448	48	6331
2026-01-16 22:51:36.19	357.62	21.94	-37.9	-38.9	22.5	0.00e+00	27	29	0	1022361600	48	6347
2026-01-16 22:51:37.20	357.44	21.83	-38.2	-39.2	22.2	0.00e+00	0	29	0	1024458752	48	6598
2026-01-16 22:51:38.20	357.27	21.73	-38.2	-39.3	22.2	0.00e+00	92	29	0	1026555904	48	6618
2026-01-16 22:51:39.21	357.09	21.62	-38.5	-39.7	21.7	0.00e+00	0	29	0	1028653056	48	6954
2026-01-16 22:51:40.22	356.92	21.52	-38.4	-39.5	22.0	0.00e+00	0	29	0	1029701632	48	6824
2026-01-16 22:51:41.23	356.75	21.41	-38.5	-39.6	21.9	0.00e+00	0	29	0	1031798784	48	6884
2026-01-16 22:51:42.24	356.58	21.30	-38.3	-39.3	22.1	0.00e+00	0	29	0	1033895936	48	6685
2026-01-16 22:51:43.24	356.41	21.20	-38.5	-39.6	21.9	0.00e+00	60	29	0	1035993088	48	6908
2026-01-16 22:51:44.25	356.24	21.09	-38.7	-39.8	21.7	0.00e+00	0	29	0	1038090240	48	7059
2026-01-16 22:51:45.26	356.08	20.99	-38.9	-40.0	21.4	0.00e+00	17	29	0	1039138816	50	6443
2026-01-16 22:51:46.27	355.91	20.88	-38.8	-40.0	21.6	0.00e+00	0	29	0	1041235968	50	6427
2026-01-16 22:51:47.28	355.75	20.78	-38.4	-39.5	21.8	0.00e+00	0	29	0	1043333120	50	6075
2026-01-16 22:51:48.29	355.59	20.67	-38.6	-39.7	22.0	0.00e+00	0	29	0	1045430272	50	6226
2026-01-16 22:51:49.30	355.42	20.57	-38.3	-39.4	22.1	0.00e+00	0	29	0	1047527424	50	5968
2026-01-16 22:51:50.31	355.26	20.46	-37.8	-38.8	22.5	0.00e+00	81	29	0	1048576000	50	5604
2026-01-16 22:51:51.32	355.10	20.36	-38.1	-39.2	22.3	0.00e+00	0	29	0	1050673152	50	5844
2026-01-16 22:51:52.33	354.94	20.25	-37.7	-38.6	22.6	0.00e+00	44	29	0	1052770304	48	6173
2026-01-16 22:51:53.34	354.79	20.15	-37.4	-38.4	23.0	0.00e+00	0	29	0	1054867456	48	5995
2026-01-16 22:51:54.34	354.63	20.05	-37.3	-38.2	23.0	0.00e+00	15	29	0	1056964608	48	5885
2026-01-16 22:51:55.35	354.48	19.94	-37.4	-38.4	23.0	0.00e+00	0	29	0	1058013184	48	5978
2026-01-16 22:51:56.36	354.32	19.84	-37.5	-38.5	22.8	0.00e+00	0	29	0	1060110336	48	6092
2026-01-16 22:51:57.37	354.17	19.74	-37.6	-38.6	22.7	0.00e+00	9	29	0	1062207488	48	6144
2026-01-16 22:51:58.38	354.02	19.63	-37.6	-38.6	22.7	0.00e+00	0	29	0	1064304640	48	6123
2026-01-16 22:51:59.39	353.87	19.53	-37.8	-38.8	22.7	0.00e+00	85	29	0	1066401792	48	6277
2026-01-16 22:52:00.40	353.72	19.43	-37.4	-38.4	23.0	0.00e+00	0	29	0	1067450368	48	5973
2026-01-16 22:52:01.41	353.57	19.33	-37.3	-38.3	23.0	0.00e+00	27	29	0	1069547520	48	5906
2026-01-16 22:52:02.42	353.42	19.22	-37.0	-37.9	23.4	0.00e+00	0	29	0	1071644672	48	5689
2026-01-16 22:52:03.43	353.27	19.12	-36.9	-37.8	23.4	0.00e+00	0	29	0	1073741824	46	6253
2026-01-16 22:52:04.44	353.13	19.02	-36.6	-37.5	23.5	0.00e+00	0	29	0	1075838976	46	6081
2026-01-16 22:52:05.45	352.98	18.92	-36.8	-37.7	23.5	0.00e+00	0	29	0	1076887552	46	6187
2026-01-16 22:52:06.46	352.84	18.82	-36.9	-37.8	23.2	0.00e+00	31	29	0	1078984704	46	6282
2026-01-16 22:52:07.46	352.69	18.72	-37.1	-38.0	23.3	0.00e+00	0	29	0	1081081856	46	6439
2026-01-16 22:52:08.47	352.55	18.62	-37.5	-38.4	22.9	0.00e+00	92	29	0	1083179008	46	6757
2026-01-16 22:52:09.48	352.41	18.52	-37.7	-38.7	22.7	0.00e+00	0	29	0	1085276160	46	6931
2026-01-16 22:52:10.49	352.27	18.42	-38.2	-39.2	21.9	0.00e+00	0	29	0	1087373312	48	6573
2026-01-16 22:52:11.50	352.13	18.32	-38.9	-40.0	21.5	0.00e+00	6	29	0	1088421888	50	6420
2026-01-16 22:52:12.51	351.99	18.22	-39.6	-40.8	20.9	0.00e+00	0	29	0	1090519040	50	7070
2026-01-16 22:52:13.52	351.86	18.12	-40.1	-41.5	20.3	0.00e+00	30	29	0	1092616192	52	6772
2026-01-16 22:52:14.53	351.72	18.02	-41.0	-42.5	19.6	0.00e+00	0	29	0	1094713344	54	6805
2026-01-16 22:52:15.54	351.58	17.92	-41.0	-42.5	19.3	0.00e+00	90	29	0	1096810496	54	6832
2026-01-16 22:52:16.55	351.45	17.82	-40.9	-42.4	19.5	0.00e+00	3	29	0	1097859072	54	6725
2026-01-16 22:52:17.56	351.32	17.72	-40.6	-42.1	19.7	0.00e+00	0	29	0	1099956224	54	6490
2026-01-16 22:52:18.57	351.18	17.62	-40.2	-41.5	20.2	0.00e+00	0	29	0	1102053376	54	6068
2026-01-16 22:52:19.57	351.05	17.53	-39.6	-40.9	21.0	0.00e+00	0	29	0	1104150528	52	6321
2026-01-16 22:52:20.58	350.92	17.43	-39.0	-40.1	21.5	0.00e+00	53	29	0	1106247680	52	5802
2026-01-16 22:52:21.59	350.79	17.33	-38.6	-39.7	21.8	0.00e+00	0	29	0	1107296256	50	6224
2026-01-16 22:52:22.60	350.66	17.23	-38.5	-39.6	21.8	0.00e+00	92	29	0	1109393408	50	6169
2026-01-16 22:52:23.61	350.53	17.14	-38.6	-39.7	21.7	0.00e+00	0	29	0	1111490560	50	6210
2026-01-16 22:52:24.62	350.40	17.04	-38.7	-39.8	21.8	0.00e+00	0	29	0	1113587712	50	6253
2026-01-16 22:52:25.63	350.28	16.94	-38.4	-39.5	21.9	0.00e+00	0	29	0	1115684864	50	6050
2026-01-16 22:52:26.64	350.15	16.84	-38.8	-39.9	21.8	0.00e+00	0	29	0	1116733440	50	6380
2026-01-16 22:52:27.65	350.03	16.75	-38.6	-39.8	21.6	0.00e+00	77	29	0	1118830592	50	6253
2026-01-16 22:52:28.66	349.90	16.65	-39.1	-40.3	21.1	0.00e+00	0	29	0	1120927744	50	6679
2026-01-16 22:52:29.66	349.78	16.56	-39.1	-40.3	21.3	0.00e+00	91	29	0	1123024896	50	6648
2026-01-16 22:52:30.67	349.66	16.46	-39.2	-40.4	21.2	0.00e+00	0	29	0	1125122048	50	6703
2026-01-16 22:52:31.68	349.54	16.37	-39.0	-40.1	21.4	0.00e+00	68	29	0	1126170624	50	6533
2026-01-16 22:52:32.69	349.41	16.27	-38.7	-39.9	21.7	0.00e+00	0	29	0	1128267776	50	6321
2026-01-16 22:52:33.70	349.29	16.18	-38.9	-40.0	21.5	0.00e+00	0	29	0	1130364928	50	6432
2026-01-16 22:52:34.71	349.17	16.08	-38.6	-39.7	21.8	0.00e+00	23	29	0	1132462080	50	6187
2026-01-16 22:52:35.72	349.06	15.99	-38.2	-39.2	22.1	0.00e+00	0	29	0	1134559232	50	5889
2026-01-16 22:52:36.73	348.94	15.89	-38.1	-39.1	22.3	0.00e+00	92	29	0	1135607808	50	5779
2026-01-16 22:52:37.74	348.82	15.80	-38.1	-39.2	22.3	0.00e+00	0	29	0	1137704960	50	5843
2026-01-16 22:52:38.75	348.70	15.71	-38.5	-39.6	21.9	0.00e+00	73	29	0	1139802112	50	6132
2026-01-16 22:52:39.76	348.59	15.61	-38.1	-39.1	22.2	0.00e+00	0	29	0	1141899264	50	5797
2026-01-16 22:52:40.77	348.47	15.52	-38.4	-39.5	21.8	0.00e+00	0	29	0	1143996416	50	6090
2026-01-16 22:52:41.78	348.36	15.43	-38.8	-39.9	21.7	0.00e+00	25	29	0	1145044992	50	6348
2026-01-16 22:52:42.79	348.24	15.33	-38.6	-39.7	21.8	0.00e+00	0	29	0	1147142144	50	6226
2026-01-16 22:52:43.80	348.13	15.24	-38.6	-39.7	21.7	0.00e+00	41	29	0	1149239296	50	6204
2026-01-16 22:52:44.81	348.02	15.15	-38.7	-39.7	21.7	0.00e+00	0	29	0	1151336448	50	6238
2026-01-16 22:52:45.82	347.91	15.06	-38.6	-39.7	21.7	0.00e+00	90	29	0	1153433600	50	6224
2026-01-16 22:52:46.83	347.80	14.96	-38.9	-40.1	21.4	0.00e+00	0	29	0	1155530752	50	6475
2026-01-16 22:52:47.84	347.69	14.87	-38.7	-39.8	21.6	0.00e+00	0	29	0	1156579328	50	6264
2026-01-16 22:52:48.84	347.58	14.78	-38.8	-39.9	21.3	0.00e+00	0	29	0	1158676480	50	6339
2026-01-16 22:52:49.85	347.47	14.69	-38.7	-39.8	21.6	0.00e+00	11	29	0	1160773632	50	6280
2026-01-16 22:52:50.86	347.36	14.60	-38.9	-40.0	21.4	0.00e+00	73	29	0	1162870784	50	6438
2026-01-16 22:52:51.87	347.26	14.51	-38.8	-39.9	21.6	0.00e+00	0	29	0	1164967936	50	6339
2026-01-16 22:52:52.88	347.15	14.42	-38.9	-40.1	21.4	0.00e+00	47	29	0	1166016512	50	6475
2026-01-16 22:52:53.89	347.04	14.33	-39.0	-40.2	21.3	0.00e+00	0	29	0	1168113664	50	6557
2026-01-16 22:52:54.90	346.94	14.24	-38.9	-40.0	21.4	0.00e+00	0	29	0	1170210816	50	6438
2026-01-16 22:52:55.91	346.83	14.15	-38.6	-39.7	21.6	0.00e+00	0	29	0	1172307968	50	6232
2026-01-16 22:52:56.92	346.73	14.06	-38.4	-39.5	21.8	0.00e+00	0	29	0	1174405120	50	6059
2026-01-16 22:52:57.93	346.63	13.97	-38.3	-39.4	22.0	0.00e+00	65	29	0	1175453696	50	5965
2026-01-16 22:52:58.94	346.52	13.88	-38.0	-38.9	22.3	0.00e+00	0	29	0	1177550848	50	5695
2026-01-16 22:52:59.95	346.42	13.79	-38.1	-39.1	22.3	0.00e+00	90	29	0	1179648000	50	5796
2026-01-16 22:53:00.95	346.32	13.70	-37.9	-38.9	22.3	0.00e+00	0	29	0	1181745152	50	5646
2026-01-16 22:53:01.96	346.22	13.62	-37.8	-38.8	22.3	0.00e+00	0	29	0	1183842304	48	6311
2026-01-16 22:53:02.97	346.12	13.53	-38.0	-39.0	22.2	0.00e+00	0	29	0	1184890880	48	6439
2026-01-16 22:53:03.98	346.02	13.44	-38.2	-39.2	22.0	0.00e+00	0	29	0	1186988032	48	6613
2026-01-16 22:53:04.99	345.92	13.35	-38.6	-39.7	21.6	0.00e+00	0	29	0	1189085184	48	6950
2026-01-16 22:53:06.00	345.82	13.27	-38.8	-40.0	21.3	0.00e+00	0	29	0	1191182336	50	6398
2026-01-16 22:53:07.01	345.73	13.18	-39.3	-40.5	21.0	0.00e+00	90	29	0	1193279488	50	6813
2026-01-16 22:53:08.02	345.63	13.09	-39.7	-40.9	20.5	0.00e+00	0	29	0	1194328064	50	7165
2026-01-16 22:53:09.03	345.53	13.00	-40.0	-41.4	20.1	0.00e+00	85	29	0	1196425216	52	6709
2026-01-16 22:53:10.04	345.44	12.92	-40.4	-41.8	19.8	0.00e+00	0	29	0	1198522368	52	7064
2026-01-16 22:53:11.05	345.34	12.83	-40.6	-42.1	19.5	0.00e+00	0	29	0	1200619520	52	7311
