passes_logs/2026/01/16/R4.6S_Anadyr/R4.6S_Anadyr__20260116_010042_NOAA_20_JPSS-1_rec.log

#Pass ID: 20260116_010042_NOAA 20 (JPSS-1)
#Satellite: NOAA 20 (JPSS-1)
#Configuration: NOAA 20
#almurnet v.1.7.20251203
#Start time: 2026-01-16 01:00:44

#Version: 2.2.20231116
#Station: R4.6S_Anadyr
#Location: 177.4865 lon 64.73178 lat
#TLE: 1 43013U 17073A   26014.55467351  .00000038  00000+0  38801-4 0  9992
#TLE: 2 43013  98.7635 315.4987 0001517  39.9279 320.2008 14.19535859422677

#Time	Az	El	Level	Level2	SNR	BER	BlckErr	Temp	State	Recorded	gain1	gain2
2026-01-16 01:00:44.75	176.29	0.13	-48.2	-63.1	3.5	1.51e+00	0	24	0	0	60	51620
2026-01-16 01:00:45.75	176.32	0.19	-48.2	-63.4	3.6	1.51e+00	0	26	104	0	60	53679
2026-01-16 01:00:46.76	176.35	0.25	-48.1	-63.4	3.6	1.51e+00	0	26	104	0	60	53649
2026-01-16 01:00:47.77	176.38	0.31	-48.3	-63.5	3.6	1.51e+00	0	26	104	0	60	54047
2026-01-16 01:00:48.78	176.40	0.37	-48.0	-63.4	3.6	1.51e+00	0	26	104	0	60	53534
2026-01-16 01:00:49.79	176.43	0.43	-48.2	-63.5	3.6	1.51e+00	0	26	104	0	60	54279
2026-01-16 01:00:50.80	176.46	0.49	-48.3	-63.5	3.6	1.51e+00	0	26	104	0	60	53964
2026-01-16 01:00:51.81	176.49	0.55	-48.3	-63.4	3.6	1.51e+00	0	26	104	0	60	53473
2026-01-16 01:00:52.82	176.52	0.61	-48.3	-63.4	3.6	1.51e+00	0	26	104	0	60	53298
2026-01-16 01:00:53.83	176.54	0.67	-48.0	-63.4	3.6	1.51e+00	0	26	104	0	60	53170
2026-01-16 01:00:54.83	176.57	0.73	-47.9	-63.3	3.6	1.51e+00	0	26	104	0	60	52637
2026-01-16 01:00:55.84	176.60	0.79	-47.6	-63.2	3.6	1.51e+00	0	26	104	0	60	52519
2026-01-16 01:00:56.85	176.63	0.85	-48.0	-63.2	3.6	1.51e+00	0	26	104	0	60	52407
2026-01-16 01:00:57.86	176.66	0.91	-47.9	-63.0	3.6	1.51e+00	0	26	104	0	60	51347
2026-01-16 01:00:58.87	176.69	0.97	-47.6	-62.9	3.6	1.51e+00	0	26	104	0	60	50319
2026-01-16 01:00:59.88	176.72	1.03	-47.5	-62.7	3.6	1.51e+00	0	26	104	0	60	49227
2026-01-16 01:01:00.89	176.75	1.10	-47.1	-62.2	3.6	1.51e+00	0	26	104	0	60	46610
2026-01-16 01:01:01.90	176.77	1.16	-46.6	-61.8	3.6	1.51e+00	0	26	104	0	60	44245
2026-01-16 01:01:02.91	176.80	1.22	-46.6	-61.8	3.6	1.51e+00	0	26	104	0	60	44363
2026-01-16 01:01:03.92	176.83	1.28	-46.6	-61.8	3.6	1.51e+00	0	26	104	0	60	44259
2026-01-16 01:01:04.93	176.86	1.34	-46.6	-61.8	3.6	1.51e+00	0	26	104	0	60	44295
2026-01-16 01:01:05.94	176.89	1.40	-46.6	-61.7	3.6	1.51e+00	0	26	104	0	60	44032
2026-01-16 01:01:06.95	176.92	1.47	-46.6	-61.7	3.6	1.51e+00	0	26	104	0	60	44084
2026-01-16 01:01:07.96	176.95	1.53	-46.6	-61.7	3.6	1.51e+00	0	26	104	0	60	44065
2026-01-16 01:01:08.97	176.98	1.59	-46.5	-61.7	3.6	1.51e+00	0	26	104	0	60	43844
2026-01-16 01:01:09.98	177.01	1.65	-46.5	-61.6	3.6	1.51e+00	0	26	104	0	60	43620
2026-01-16 01:01:10.99	177.04	1.72	-46.5	-61.7	3.6	1.51e+00	0	26	104	0	60	43803
2026-01-16 01:01:11.99	177.07	1.78	-46.5	-61.7	3.6	1.51e+00	0	26	104	0	60	43709
2026-01-16 01:01:13.01	177.10	1.84	-46.5	-61.7	3.6	1.51e+00	0	26	104	0	60	43962
2026-01-16 01:01:14.02	177.13	1.91	-46.5	-61.7	3.6	1.51e+00	0	26	104	0	60	43879
2026-01-16 01:01:15.03	177.16	1.97	-46.5	-61.6	3.6	1.51e+00	0	26	104	0	60	43546
2026-01-16 01:01:16.04	177.19	2.03	-46.5	-61.6	3.6	1.51e+00	0	26	104	0	60	43476
2026-01-16 01:01:17.04	177.22	2.10	-46.5	-61.6	3.6	1.51e+00	0	26	104	0	60	43363
2026-01-16 01:01:18.05	177.25	2.16	-46.5	-61.6	3.6	1.51e+00	0	26	104	0	60	43647
2026-01-16 01:01:19.06	177.28	2.22	-46.5	-61.6	3.6	1.51e+00	0	26	104	0	60	43514
2026-01-16 01:01:20.07	177.32	2.29	-46.5	-61.6	3.6	1.51e+00	0	26	104	0	60	43506
2026-01-16 01:01:21.09	177.35	2.35	-46.5	-61.5	3.6	1.51e+00	0	26	104	0	60	42832
2026-01-16 01:01:22.09	177.38	2.41	-46.5	-61.0	3.6	1.51e+00	0	26	104	0	60	40611
2026-01-16 01:01:23.10	177.41	2.48	-46.4	-60.6	3.6	1.51e+00	0	26	104	0	60	38565
2026-01-16 01:01:24.11	177.44	2.54	-46.4	-59.7	3.6	1.51e+00	0	26	104	0	60	34788
2026-01-16 01:01:25.13	177.47	2.61	-46.4	-59.2	3.7	1.50e+00	0	26	104	0	60	32985
2026-01-16 01:01:26.14	177.51	2.67	-46.4	-59.3	3.6	1.48e+00	0	27	104	0	60	33385
2026-01-16 01:01:27.14	177.54	2.74	-46.4	-60.0	3.6	1.50e+00	0	26	104	0	60	36271
2026-01-16 01:01:28.16	177.57	2.80	-46.4	-60.7	3.5	1.51e+00	0	27	104	0	60	39378
2026-01-16 01:01:29.17	177.60	2.87	-46.4	-60.1	3.6	1.51e+00	0	27	104	0	60	36752
2026-01-16 01:01:30.18	177.63	2.93	-46.1	-56.1	5.1	9.50e-01	90	27	104	0	60	23035
2026-01-16 01:01:31.19	177.67	3.00	-45.7	-52.6	7.1	2.09e-01	21	27	0	1048576	60	15493
2026-01-16 01:01:32.20	177.70	3.07	-44.7	-49.4	11.1	2.80e-02	90	26	0	3145728	60	10630
2026-01-16 01:01:33.21	177.73	3.13	-43.8	-47.3	13.3	4.45e-04	0	26	0	5242880	60	8422
2026-01-16 01:01:34.22	177.77	3.20	-42.9	-45.7	15.1	0.00e+00	90	27	0	7340032	60	6975
2026-01-16 01:01:35.22	177.80	3.26	-41.8	-44.0	16.8	0.00e+00	90	27	0	8388608	58	6411
2026-01-16 01:01:36.24	177.83	3.33	-40.8	-42.6	18.0	0.00e+00	92	27	0	10485760	56	6153
2026-01-16 01:01:37.24	177.86	3.39	-40.3	-41.9	18.7	0.00e+00	92	27	0	12582912	54	6338
2026-01-16 01:01:38.25	177.90	3.46	-39.9	-41.5	19.1	0.00e+00	92	27	0	14680064	54	6067
2026-01-16 01:01:39.26	177.93	3.53	-39.9	-41.4	19.2	0.00e+00	92	27	0	16777216	54	6003
2026-01-16 01:01:40.27	177.97	3.59	-40.2	-41.9	18.7	0.00e+00	60	27	0	17825792	54	6328
2026-01-16 01:01:41.28	178.00	3.66	-40.7	-42.5	18.0	0.00e+00	90	27	0	19922944	54	6790
2026-01-16 01:01:42.29	178.03	3.73	-41.3	-43.3	17.1	0.00e+00	83	27	0	22020096	54	7437
2026-01-16 01:01:43.30	178.07	3.80	-40.7	-42.5	18.1	0.00e+00	91	27	0	24117248	54	6780
2026-01-16 01:01:44.31	178.10	3.86	-41.9	-44.0	17.3	0.00e+00	92	27	0	26214400	56	7212
2026-01-16 01:01:45.32	178.14	3.93	-46.4	-60.2	3.6	2.74e-02	0	27	104	27262976	60	37120
2026-01-16 01:01:46.33	178.17	4.00	-46.0	-54.9	4.4	1.39e+00	0	27	104	27262976	60	20051
2026-01-16 01:01:47.34	178.20	4.07	-44.5	-48.4	12.7	7.00e-07	8	27	0	27262976	60	9504
2026-01-16 01:01:48.34	178.24	4.13	-41.9	-43.9	16.9	0.00e+00	92	27	0	29360128	58	6375
2026-01-16 01:01:49.35	178.27	4.20	-41.6	-43.6	17.4	0.00e+00	0	27	0	31457280	56	6859
2026-01-16 01:01:50.36	178.31	4.27	-41.4	-43.3	17.6	0.00e+00	92	27	0	32505856	56	6634
2026-01-16 01:01:51.37	178.34	4.34	-41.2	-43.0	18.0	0.00e+00	92	27	0	34603008	56	6397
2026-01-16 01:01:52.38	178.38	4.41	-41.2	-43.0	18.1	0.00e+00	92	27	0	36700160	56	6426
2026-01-16 01:01:53.39	178.42	4.48	-40.3	-41.9	19.1	0.00e+00	92	27	0	38797312	54	6319
2026-01-16 01:01:54.39	178.45	4.55	-40.2	-41.7	19.1	0.00e+00	91	27	0	40894464	54	6239
2026-01-16 01:01:55.40	178.49	4.62	-40.2	-41.7	19.3	0.00e+00	92	27	0	41943040	54	6181
2026-01-16 01:01:56.41	178.52	4.69	-39.8	-41.3	19.7	0.00e+00	35	27	0	44040192	54	5900
2026-01-16 01:01:57.41	178.56	4.75	-39.8	-41.2	19.9	0.00e+00	92	27	0	46137344	54	5860
2026-01-16 01:01:58.42	178.60	4.82	-39.5	-40.8	20.0	0.00e+00	91	27	0	48234496	52	6310
2026-01-16 01:01:59.43	178.63	4.89	-39.6	-41.0	19.9	0.00e+00	90	27	0	50331648	52	6425
2026-01-16 01:02:00.44	178.67	4.96	-39.6	-40.9	20.1	0.00e+00	92	27	0	51380224	52	6385
2026-01-16 01:02:01.45	178.71	5.03	-39.2	-40.5	20.4	0.00e+00	92	27	0	53477376	52	6056
2026-01-16 01:02:02.46	178.74	5.11	-39.3	-40.6	20.3	0.00e+00	90	27	0	55574528	52	6152
2026-01-16 01:02:03.47	178.78	5.18	-39.3	-40.6	20.3	0.00e+00	0	27	0	57671680	52	6150
2026-01-16 01:02:04.48	178.82	5.25	-39.4	-40.8	20.2	0.00e+00	92	27	0	59768832	52	6251
2026-01-16 01:02:05.48	178.85	5.32	-39.3	-40.6	20.4	0.00e+00	84	27	0	60817408	52	6127
2026-01-16 01:02:06.49	178.89	5.39	-39.2	-40.5	20.4	0.00e+00	92	27	0	62914560	52	6068
2026-01-16 01:02:07.50	178.93	5.46	-39.3	-40.6	20.4	0.00e+00	92	27	0	65011712	52	6125
2026-01-16 01:02:08.51	178.97	5.53	-39.2	-40.5	20.5	0.00e+00	92	27	0	67108864	52	6079
2026-01-16 01:02:09.51	179.01	5.60	-39.5	-40.8	20.2	0.00e+00	92	27	0	69206016	52	6306
2026-01-16 01:02:10.52	179.04	5.67	-39.4	-40.7	20.4	0.00e+00	59	27	0	70254592	52	6187
2026-01-16 01:02:11.53	179.08	5.75	-39.2	-40.5	20.4	0.00e+00	92	27	0	72351744	52	6095
2026-01-16 01:02:12.54	179.12	5.82	-39.2	-40.5	20.6	0.00e+00	0	27	0	74448896	52	6034
2026-01-16 01:02:13.55	179.16	5.89	-39.0	-40.3	20.7	0.00e+00	92	27	0	76546048	52	5905
2026-01-16 01:02:14.56	179.20	5.96	-39.2	-40.4	20.5	0.00e+00	92	27	0	78643200	52	6011
2026-01-16 01:02:15.57	179.24	6.04	-39.1	-40.3	20.7	0.00e+00	92	27	0	80740352	52	5947
2026-01-16 01:02:16.58	179.28	6.11	-39.2	-40.5	20.6	0.00e+00	92	27	0	81788928	52	6081
2026-01-16 01:02:17.58	179.32	6.18	-39.3	-40.6	20.6	0.00e+00	92	27	0	83886080	52	6109
2026-01-16 01:02:18.59	179.36	6.26	-39.3	-40.6	20.4	0.00e+00	92	27	0	85983232	52	6157
2026-01-16 01:02:19.60	179.40	6.33	-39.1	-40.3	20.8	0.00e+00	7	27	0	88080384	52	5914
2026-01-16 01:02:20.61	179.44	6.40	-38.9	-40.2	21.0	0.00e+00	90	27	0	90177536	52	5835
2026-01-16 01:02:21.62	179.48	6.48	-39.0	-40.2	21.0	0.00e+00	34	27	0	91226112	52	5835
2026-01-16 01:02:22.63	179.52	6.55	-39.0	-40.2	20.9	0.00e+00	92	27	0	93323264	52	5849
2026-01-16 01:02:23.64	179.56	6.63	-39.1	-40.3	20.9	0.00e+00	92	27	0	95420416	52	5921
2026-01-16 01:02:24.65	179.60	6.70	-38.8	-40.0	21.1	0.00e+00	92	27	0	97517568	52	5721
2026-01-16 01:02:25.66	179.64	6.78	-38.8	-40.0	21.1	0.00e+00	92	27	0	99614720	52	5742
2026-01-16 01:02:26.67	179.68	6.85	-38.9	-40.0	21.1	0.00e+00	5	27	0	100663296	52	5758
2026-01-16 01:02:27.68	179.72	6.93	-38.8	-40.0	21.1	0.00e+00	92	27	0	102760448	50	6444
2026-01-16 01:02:28.69	179.76	7.00	-38.9	-40.0	21.0	0.00e+00	0	27	0	104857600	50	6461
2026-01-16 01:02:29.70	179.81	7.08	-39.1	-40.3	20.9	0.00e+00	91	27	0	106954752	50	6634
2026-01-16 01:02:30.71	179.85	7.16	-38.7	-39.8	21.3	0.00e+00	92	27	0	109051904	50	6297
2026-01-16 01:02:31.72	179.89	7.23	-38.6	-39.7	21.3	0.00e+00	91	27	0	110100480	50	6234
2026-01-16 01:02:32.72	179.93	7.31	-38.6	-39.7	21.4	0.00e+00	92	27	0	112197632	50	6208
2026-01-16 01:02:33.73	179.98	7.38	-38.5	-39.7	21.4	0.00e+00	90	27	0	114294784	50	6198
2026-01-16 01:02:34.74	180.02	7.46	-38.6	-39.8	21.4	0.00e+00	92	27	0	116391936	50	6266
2026-01-16 01:02:35.75	180.06	7.54	-38.8	-39.9	21.3	0.00e+00	0	27	0	118489088	50	6377
2026-01-16 01:02:36.76	180.10	7.62	-38.7	-39.9	21.4	0.00e+00	91	27	0	119537664	50	6344
2026-01-16 01:02:37.77	180.15	7.69	-38.6	-39.8	21.4	0.00e+00	92	27	0	121634816	50	6268
2026-01-16 01:02:38.78	180.19	7.77	-38.7	-39.9	21.4	0.00e+00	90	27	0	123731968	50	6320
2026-01-16 01:02:39.79	180.24	7.85	-38.8	-40.0	21.1	0.00e+00	92	27	0	125829120	50	6421
2026-01-16 01:02:40.80	180.28	7.93	-38.7	-39.9	21.3	0.00e+00	91	27	0	127926272	50	6348
2026-01-16 01:02:41.81	180.32	8.01	-38.9	-40.1	21.1	0.00e+00	92	27	0	128974848	50	6478
2026-01-16 01:02:42.81	180.37	8.08	-38.8	-39.9	21.3	0.00e+00	71	27	0	131072000	50	6375
2026-01-16 01:02:43.83	180.41	8.16	-38.6	-39.7	21.5	0.00e+00	92	27	0	133169152	50	6236
2026-01-16 01:02:44.83	180.46	8.24	-38.6	-39.7	21.5	0.00e+00	16	27	0	135266304	50	6205
2026-01-16 01:02:45.84	180.50	8.32	-38.6	-39.7	21.5	0.00e+00	93	27	0	137363456	50	6216
2026-01-16 01:02:46.85	180.55	8.40	-38.4	-39.5	21.7	0.00e+00	92	27	0	138412032	50	6073
2026-01-16 01:02:47.86	180.60	8.48	-38.5	-39.7	21.5	0.00e+00	92	27	0	140509184	50	6182
2026-01-16 01:02:48.87	180.64	8.56	-38.6	-39.7	21.5	0.00e+00	92	27	0	142606336	50	6225
2026-01-16 01:02:49.88	180.69	8.64	-38.7	-39.9	21.3	0.00e+00	0	27	0	144703488	50	6323
2026-01-16 01:02:50.89	180.73	8.72	-38.4	-39.5	21.7	0.00e+00	92	27	0	146800640	50	6067
2026-01-16 01:02:51.90	180.78	8.80	-38.6	-39.7	21.5	0.00e+00	0	27	0	147849216	50	6235
2026-01-16 01:02:52.91	180.83	8.88	-38.5	-39.7	21.5	0.00e+00	92	28	0	149946368	50	6183
2026-01-16 01:02:53.92	180.87	8.96	-38.4	-39.6	21.7	0.00e+00	92	27	0	152043520	50	6105
2026-01-16 01:02:54.93	180.92	9.05	-38.6	-39.7	21.6	0.00e+00	92	27	0	154140672	50	6207
2026-01-16 01:02:55.94	180.97	9.13	-38.5	-39.7	21.6	0.00e+00	90	27	0	156237824	50	6180
2026-01-16 01:02:56.95	181.02	9.21	-38.7	-39.8	21.5	0.00e+00	0	27	0	157286400	50	6284
2026-01-16 01:02:57.96	181.07	9.29	-38.5	-39.7	21.6	0.00e+00	91	27	0	159383552	50	6176
2026-01-16 01:02:58.96	181.11	9.37	-38.6	-39.7	21.5	0.00e+00	0	27	0	161480704	50	6242
2026-01-16 01:02:59.97	181.16	9.46	-38.5	-39.7	21.6	0.00e+00	90	27	0	163577856	50	6185
2026-01-16 01:03:00.98	181.21	9.54	-38.6	-39.7	21.6	0.00e+00	92	27	0	165675008	50	6191
2026-01-16 01:03:01.99	181.26	9.62	-38.4	-39.5	21.8	0.00e+00	90	27	0	166723584	50	6070
2026-01-16 01:03:03.00	181.31	9.71	-38.6	-39.7	21.7	0.00e+00	92	28	0	168820736	50	6214
2026-01-16 01:03:04.01	181.36	9.79	-38.4	-39.5	21.8	0.00e+00	30	28	0	170917888	50	6055
2026-01-16 01:03:05.02	181.41	9.88	-38.3	-39.4	21.9	0.00e+00	91	28	0	173015040	50	6007
2026-01-16 01:03:06.03	181.46	9.96	-38.5	-39.6	21.8	0.00e+00	36	28	0	175112192	50	6126
2026-01-16 01:03:07.03	181.51	10.04	-38.2	-39.3	22.0	0.00e+00	92	27	0	177209344	50	5928
2026-01-16 01:03:08.04	181.56	10.13	-38.3	-39.3	22.0	0.00e+00	16	27	0	178257920	50	5956
2026-01-16 01:03:09.05	181.61	10.21	-38.2	-39.3	22.1	0.00e+00	92	27	0	180355072	50	5900
2026-01-16 01:03:10.06	181.66	10.30	-38.1	-39.1	22.2	0.00e+00	92	28	0	182452224	50	5822
2026-01-16 01:03:11.07	181.71	10.39	-38.0	-39.1	22.2	0.00e+00	91	28	0	184549376	50	5766
2026-01-16 01:03:12.08	181.77	10.47	-38.1	-39.1	22.2	0.00e+00	92	27	0	186646528	50	5794
2026-01-16 01:03:13.09	181.82	10.56	-38.0	-39.0	22.3	0.00e+00	47	28	0	187695104	50	5736
2026-01-16 01:03:14.10	181.87	10.65	-37.9	-38.9	22.4	0.00e+00	92	28	0	189792256	50	5678
2026-01-16 01:03:15.11	181.92	10.73	-37.9	-38.9	22.4	0.00e+00	8	27	0	191889408	50	5668
2026-01-16 01:03:16.12	181.98	10.82	-37.9	-38.9	22.3	0.00e+00	90	28	0	193986560	50	5638
2026-01-16 01:03:17.13	182.03	10.91	-37.8	-38.8	22.5	0.00e+00	92	28	0	196083712	50	5597
2026-01-16 01:03:18.14	182.08	10.99	-37.8	-38.8	22.5	0.00e+00	92	27	0	197132288	48	6273
2026-01-16 01:03:19.15	182.14	11.08	-37.9	-38.9	22.4	0.00e+00	92	28	0	199229440	48	6351
2026-01-16 01:03:20.16	182.19	11.17	-37.7	-38.8	22.5	0.00e+00	0	28	0	201326592	48	6255
2026-01-16 01:03:21.16	182.25	11.26	-37.9	-38.9	22.5	0.00e+00	90	28	0	203423744	48	6353
2026-01-16 01:03:22.18	182.30	11.35	-37.9	-39.0	22.4	0.00e+00	18	28	0	205520896	48	6410
2026-01-16 01:03:23.18	182.36	11.44	-37.9	-38.9	22.5	0.00e+00	91	28	0	206569472	48	6335
2026-01-16 01:03:24.19	182.41	11.53	-37.7	-38.7	22.5	0.00e+00	73	28	0	208666624	48	6238
2026-01-16 01:03:25.20	182.47	11.62	-37.7	-38.8	22.6	0.00e+00	90	28	0	210763776	48	6250
2026-01-16 01:03:26.21	182.52	11.71	-37.8	-38.8	22.5	0.00e+00	92	28	0	212860928	48	6290
2026-01-16 01:03:27.22	182.58	11.80	-37.7	-38.7	22.5	0.00e+00	31	28	0	214958080	48	6232
2026-01-16 01:03:28.23	182.64	11.89	-37.8	-38.8	22.5	0.00e+00	92	28	0	216006656	48	6313
2026-01-16 01:03:29.24	182.69	11.98	-37.7	-38.7	22.6	0.00e+00	53	28	0	218103808	48	6222
2026-01-16 01:03:30.25	182.75	12.07	-37.7	-38.7	22.6	0.00e+00	90	28	0	220200960	48	6243
2026-01-16 01:03:31.26	182.81	12.16	-37.8	-38.8	22.6	0.00e+00	3	28	0	222298112	48	6295
2026-01-16 01:03:32.27	182.87	12.26	-37.8	-38.8	22.6	0.00e+00	92	28	0	224395264	48	6309
2026-01-16 01:03:33.28	182.93	12.35	-37.9	-38.9	22.5	0.00e+00	90	28	0	225443840	48	6346
2026-01-16 01:03:34.28	182.98	12.44	-37.8	-38.8	22.7	0.00e+00	67	28	0	227540992	48	6286
2026-01-16 01:03:35.30	183.04	12.53	-37.8	-38.9	22.5	0.00e+00	90	28	0	229638144	48	6328
2026-01-16 01:03:36.30	183.10	12.63	-37.6	-38.6	22.8	0.00e+00	44	28	0	231735296	48	6147
2026-01-16 01:03:37.31	183.16	12.72	-37.6	-38.7	22.7	0.00e+00	92	28	0	233832448	48	6176
2026-01-16 01:03:38.32	183.22	12.82	-37.7	-38.7	22.7	0.00e+00	0	28	0	234881024	48	6204
2026-01-16 01:03:39.33	183.28	12.91	-37.5	-38.5	22.8	0.00e+00	92	28	0	236978176	48	6090
2026-01-16 01:03:40.34	183.34	13.00	-37.6	-38.6	22.7	0.00e+00	92	28	0	239075328	48	6164
2026-01-16 01:03:41.35	183.41	13.10	-37.4	-38.4	22.9	0.00e+00	92	28	0	241172480	48	5992
2026-01-16 01:03:42.36	183.47	13.20	-37.3	-38.3	23.0	0.00e+00	90	28	0	243269632	48	5922
2026-01-16 01:03:43.37	183.53	13.29	-37.3	-38.3	23.1	0.00e+00	38	28	0	245366784	48	5924
2026-01-16 01:03:44.38	183.59	13.39	-37.3	-38.2	23.1	0.00e+00	90	28	0	246415360	48	5884
2026-01-16 01:03:45.39	183.65	13.48	-37.5	-38.4	22.9	0.00e+00	0	28	0	248512512	48	6016
2026-01-16 01:03:46.40	183.72	13.58	-37.2	-38.1	23.2	0.00e+00	89	28	0	250609664	48	5815
2026-01-16 01:03:47.40	183.78	13.68	-37.2	-38.2	23.2	0.00e+00	60	28	0	252706816	48	5835
2026-01-16 01:03:48.42	183.84	13.78	-37.2	-38.2	23.2	0.00e+00	92	28	0	254803968	48	5831
2026-01-16 01:03:49.42	183.91	13.87	-37.4	-38.3	23.1	0.00e+00	90	28	0	255852544	48	5958
2026-01-16 01:03:50.43	183.97	13.97	-37.1	-38.0	23.4	0.00e+00	92	28	0	257949696	48	5730
2026-01-16 01:03:51.44	184.04	14.07	-37.1	-38.0	23.3	0.00e+00	90	28	0	260046848	48	5726
2026-01-16 01:03:52.45	184.10	14.17	-37.1	-38.0	23.4	0.00e+00	52	28	0	262144000	48	5719
2026-01-16 01:03:53.46	184.17	14.27	-37.0	-37.9	23.5	0.00e+00	92	28	0	264241152	48	5676
2026-01-16 01:03:54.47	184.24	14.37	-37.1	-38.0	23.3	0.00e+00	33	28	0	265289728	48	5742
2026-01-16 01:03:55.47	184.30	14.47	-37.1	-38.0	23.4	0.00e+00	92	28	0	267386880	48	5713
2026-01-16 01:03:56.48	184.37	14.57	-37.1	-38.0	23.3	0.00e+00	90	28	0	269484032	48	5734
2026-01-16 01:03:57.49	184.44	14.67	-37.1	-38.0	23.4	0.00e+00	92	28	0	271581184	48	5723
2026-01-16 01:03:58.50	184.51	14.77	-37.1	-38.0	23.3	0.00e+00	92	28	0	273678336	48	5755
2026-01-16 01:03:59.51	184.57	14.87	-37.0	-37.9	23.5	0.00e+00	92	28	0	274726912	48	5689
2026-01-16 01:04:00.52	184.64	14.97	-37.1	-38.0	23.4	0.00e+00	92	28	0	276824064	48	5715
2026-01-16 01:04:01.53	184.71	15.08	-37.0	-37.9	23.5	0.00e+00	0	28	0	278921216	48	5675
2026-01-16 01:04:02.54	184.78	15.18	-36.9	-37.8	23.6	0.00e+00	92	28	0	281018368	48	5614
2026-01-16 01:04:03.55	184.85	15.28	-37.0	-37.9	23.4	0.00e+00	80	28	0	283115520	48	5684
2026-01-16 01:04:04.56	184.92	15.39	-37.0	-37.9	23.5	0.00e+00	92	28	0	284164096	48	5649
2026-01-16 01:04:05.57	185.00	15.49	-37.1	-38.0	23.4	0.00e+00	92	28	0	286261248	48	5716
2026-01-16 01:04:06.58	185.07	15.60	-37.0	-37.9	23.6	0.00e+00	92	28	0	288358400	48	5633
2026-01-16 01:04:07.59	185.14	15.70	-36.9	-37.8	23.6	0.00e+00	92	28	0	290455552	48	5604
2026-01-16 01:04:08.60	185.21	15.81	-36.9	-37.8	23.6	0.00e+00	92	28	0	292552704	48	5621
2026-01-16 01:04:09.61	185.29	15.91	-36.7	-37.5	23.8	0.00e+00	92	28	0	293601280	46	6103
2026-01-16 01:04:10.61	185.36	16.02	-36.7	-37.5	23.9	0.00e+00	37	28	0	295698432	46	6091
2026-01-16 01:04:11.62	185.43	16.12	-36.6	-37.5	24.0	0.00e+00	91	28	0	297795584	46	6036
2026-01-16 01:04:12.63	185.51	16.23	-36.6	-37.5	23.9	0.00e+00	92	28	0	299892736	46	6057
2026-01-16 01:04:13.64	185.58	16.34	-36.6	-37.5	23.9	0.00e+00	92	28	0	301989888	46	6049
2026-01-16 01:04:14.65	185.66	16.45	-36.5	-37.4	24.0	0.00e+00	92	28	0	303038464	46	6006
2026-01-16 01:04:15.66	185.73	16.56	-36.5	-37.4	24.0	0.00e+00	92	28	0	305135616	46	5973
2026-01-16 01:04:16.66	185.81	16.66	-36.6	-37.5	23.9	0.00e+00	92	28	0	307232768	46	6045
2026-01-16 01:04:17.67	185.89	16.77	-36.6	-37.5	23.9	0.00e+00	0	28	0	309329920	46	6085
2026-01-16 01:04:18.68	185.97	16.88	-36.5	-37.4	23.9	0.00e+00	90	28	0	311427072	46	6005
2026-01-16 01:04:19.69	186.04	16.99	-36.6	-37.5	23.9	0.00e+00	92	28	0	312475648	46	6079
2026-01-16 01:04:20.70	186.12	17.10	-36.5	-37.4	24.0	0.00e+00	92	28	0	314572800	46	5977
2026-01-16 01:04:21.71	186.20	17.21	-36.6	-37.5	24.0	0.00e+00	92	28	0	316669952	46	6042
2026-01-16 01:04:22.72	186.28	17.33	-36.6	-37.5	23.9	0.00e+00	92	28	0	318767104	46	6071
2026-01-16 01:04:23.73	186.36	17.44	-36.6	-37.5	23.8	0.00e+00	93	28	0	320864256	46	6077
2026-01-16 01:04:24.74	186.44	17.55	-36.5	-37.4	24.0	0.00e+00	0	28	0	321912832	46	5995
2026-01-16 01:04:25.74	186.53	17.66	-36.4	-37.3	24.1	0.00e+00	90	28	0	324009984	46	5899
2026-01-16 01:04:26.75	186.61	17.78	-36.4	-37.2	24.1	0.00e+00	92	28	0	326107136	46	5893
2026-01-16 01:04:27.76	186.69	17.89	-36.3	-37.1	24.2	0.00e+00	92	28	0	328204288	46	5822
2026-01-16 01:04:28.77	186.77	18.00	-36.3	-37.2	24.1	0.00e+00	92	28	0	330301440	46	5839
2026-01-16 01:04:29.78	186.86	18.12	-36.2	-37.1	24.4	0.00e+00	92	28	0	331350016	46	5768
2026-01-16 01:04:30.79	186.94	18.23	-36.0	-36.8	24.4	0.00e+00	92	28	0	333447168	46	5630
2026-01-16 01:04:31.80	187.03	18.35	-36.0	-36.8	24.4	0.00e+00	92	28	0	335544320	46	5621
2026-01-16 01:04:32.80	187.11	18.46	-36.0	-36.8	24.5	0.00e+00	92	28	0	337641472	46	5595
2026-01-16 01:04:33.81	187.20	18.58	-36.0	-36.9	24.5	0.00e+00	0	28	0	339738624	46	5631
2026-01-16 01:04:34.82	187.29	18.70	-35.9	-36.7	24.5	0.00e+00	92	28	0	341835776	46	5553
2026-01-16 01:04:35.83	187.38	18.82	-35.8	-36.6	24.6	0.00e+00	91	28	0	342884352	46	5498
2026-01-16 01:04:36.83	187.46	18.93	-35.8	-36.6	24.6	0.00e+00	91	28	0	344981504	46	5478
2026-01-16 01:04:37.84	187.55	19.05	-35.8	-36.6	24.7	0.00e+00	91	28	0	347078656	46	5482
2026-01-16 01:04:38.85	187.64	19.17	-35.8	-36.6	24.7	0.00e+00	92	28	0	349175808	46	5484
2026-01-16 01:04:39.86	187.73	19.29	-35.7	-36.5	24.7	0.00e+00	92	28	0	351272960	44	6068
2026-01-16 01:04:40.87	187.82	19.41	-35.7	-36.6	24.7	0.00e+00	0	28	0	352321536	44	6106
2026-01-16 01:04:41.88	187.92	19.53	-35.6	-36.4	24.8	0.00e+00	92	28	0	354418688	44	5980
2026-01-16 01:04:42.89	188.01	19.65	-35.7	-36.5	24.7	0.00e+00	92	28	0	356515840	44	6072
2026-01-16 01:04:43.90	188.10	19.78	-35.7	-36.5	24.8	0.00e+00	92	29	0	358612992	44	6092
2026-01-16 01:04:44.91	188.20	19.90	-35.7	-36.5	24.7	0.00e+00	92	28	0	360710144	44	6099
2026-01-16 01:04:45.92	188.29	20.02	-35.6	-36.4	24.8	0.00e+00	92	28	0	361758720	44	6032
2026-01-16 01:04:46.92	188.39	20.14	-35.7	-36.5	24.8	0.00e+00	92	29	0	363855872	44	6081
2026-01-16 01:04:47.93	188.48	20.27	-35.7	-36.5	24.8	0.00e+00	17	28	0	365953024	44	6047
2026-01-16 01:04:48.94	188.58	20.39	-35.6	-36.4	24.8	0.00e+00	92	28	0	368050176	44	6022
2026-01-16 01:04:49.95	188.68	20.52	-35.5	-36.3	24.9	0.00e+00	92	28	0	370147328	44	5932
2026-01-16 01:04:50.96	188.78	20.64	-35.6	-36.4	24.9	0.00e+00	92	28	0	371195904	44	6003
2026-01-16 01:04:51.97	188.87	20.77	-35.6	-36.4	25.0	0.00e+00	92	28	0	373293056	44	5965
2026-01-16 01:04:52.98	188.97	20.89	-35.6	-36.4	24.9	0.00e+00	92	28	0	375390208	44	6022
2026-01-16 01:04:53.99	189.08	21.02	-35.7	-36.5	24.8	0.00e+00	90	29	0	377487360	44	6059
2026-01-16 01:04:54.99	189.18	21.15	-35.5	-36.3	25.0	0.00e+00	92	29	0	379584512	44	5906
2026-01-16 01:04:56.00	189.28	21.28	-35.5	-36.3	25.0	0.00e+00	92	29	0	380633088	44	5905
2026-01-16 01:04:57.01	189.38	21.41	-35.5	-36.3	25.1	0.00e+00	32	29	0	382730240	44	5909
2026-01-16 01:04:58.02	189.49	21.54	-35.5	-36.3	25.0	0.00e+00	92	29	0	384827392	44	5960
2026-01-16 01:04:59.03	189.59	21.67	-35.4	-36.2	25.1	0.00e+00	91	28	0	386924544	44	5880
2026-01-16 01:05:00.04	189.70	21.80	-35.5	-36.3	25.0	0.00e+00	92	29	0	389021696	44	5956
2026-01-16 01:05:01.05	189.80	21.93	-35.4	-36.3	25.0	0.00e+00	92	28	0	390070272	44	5903
2026-01-16 01:05:02.06	189.91	22.06	-35.6	-36.4	25.0	0.00e+00	92	28	0	392167424	44	5991
2026-01-16 01:05:03.07	190.02	22.19	-35.4	-36.3	24.9	0.00e+00	92	29	0	394264576	44	5900
2026-01-16 01:05:04.08	190.13	22.32	-35.6	-36.4	25.0	0.00e+00	0	29	0	396361728	44	5988
2026-01-16 01:05:05.09	190.24	22.46	-35.5	-36.4	24.9	0.00e+00	92	29	0	398458880	44	5967
2026-01-16 01:05:06.10	190.35	22.59	-35.5	-36.3	25.0	0.00e+00	92	29	0	399507456	44	5938
2026-01-16 01:05:07.11	190.46	22.73	-35.5	-36.3	25.0	0.00e+00	91	29	0	401604608	44	5929
2026-01-16 01:05:08.11	190.57	22.86	-35.7	-36.5	24.9	0.00e+00	91	29	0	403701760	44	6082
2026-01-16 01:05:09.12	190.69	23.00	-35.7	-36.5	24.9	0.00e+00	92	29	0	405798912	44	6063
2026-01-16 01:05:10.13	190.80	23.13	-35.4	-36.2	25.1	0.00e+00	92	29	0	407896064	44	5883
2026-01-16 01:05:11.14	190.92	23.27	-35.5	-36.3	25.0	0.00e+00	0	29	0	408944640	44	5923
2026-01-16 01:05:12.15	191.03	23.41	-35.7	-36.5	24.9	0.00e+00	92	29	0	411041792	44	6049
2026-01-16 01:05:13.16	191.15	23.55	-35.5	-36.3	25.1	0.00e+00	2	29	0	413138944	44	5908
2026-01-16 01:05:14.17	191.27	23.69	-35.7	-36.5	24.8	0.00e+00	92	29	0	415236096	44	6054
2026-01-16 01:05:15.18	191.39	23.83	-35.6	-36.5	24.9	0.00e+00	90	29	0	417333248	44	6042
2026-01-16 01:05:16.18	191.51	23.96	-35.8	-36.6	24.8	0.00e+00	90	29	0	418381824	44	6116
2026-01-16 01:05:17.19	191.63	24.11	-35.6	-36.4	24.9	0.00e+00	91	29	0	420478976	44	6027
2026-01-16 01:05:18.20	191.76	24.25	-35.7	-36.6	24.9	0.00e+00	91	29	0	422576128	44	6105
2026-01-16 01:05:19.21	191.88	24.39	-35.8	-36.6	24.7	0.00e+00	90	29	0	424673280	44	6164
2026-01-16 01:05:20.21	192.00	24.53	-35.9	-36.7	24.6	0.00e+00	13	29	0	426770432	44	6222
2026-01-16 01:05:21.22	192.13	24.67	-35.7	-36.5	24.9	0.00e+00	92	29	0	427819008	44	6056
2026-01-16 01:05:22.23	192.26	24.82	-35.9	-36.7	24.7	0.00e+00	92	29	0	429916160	44	6203
2026-01-16 01:05:23.24	192.39	24.96	-35.9	-36.7	24.8	0.00e+00	92	29	0	432013312	44	6185
2026-01-16 01:05:24.25	192.52	25.11	-36.0	-36.8	24.6	0.00e+00	91	29	0	434110464	44	6282
2026-01-16 01:05:25.25	192.65	25.25	-36.0	-36.8	24.7	0.00e+00	92	29	0	436207616	44	6292
2026-01-16 01:05:26.26	192.78	25.40	-36.4	-37.2	24.4	0.00e+00	92	29	0	438304768	44	6586
2026-01-16 01:05:27.27	192.91	25.55	-36.3	-37.1	24.3	0.00e+00	58	29	0	439353344	44	6519
2026-01-16 01:05:28.28	193.04	25.70	-36.1	-36.9	24.5	0.00e+00	92	29	0	441450496	44	6384
2026-01-16 01:05:29.29	193.18	25.84	-36.2	-37.1	24.4	0.00e+00	92	29	0	443547648	44	6486
2026-01-16 01:05:30.30	193.32	25.99	-36.4	-37.3	24.2	0.00e+00	91	29	0	445644800	44	6640
2026-01-16 01:05:31.31	193.46	26.14	-36.6	-37.5	24.0	0.00e+00	92	29	0	447741952	44	6795
2026-01-16 01:05:32.32	193.59	26.29	-36.6	-37.5	24.0	0.00e+00	92	29	0	448790528	44	6775
2026-01-16 01:05:33.33	193.74	26.45	-36.6	-37.5	24.1	0.00e+00	92	29	0	450887680	44	6808
2026-01-16 01:05:34.34	193.88	26.60	-36.7	-37.6	24.0	0.00e+00	91	29	0	452984832	46	6151
2026-01-16 01:05:35.35	194.02	26.75	-36.9	-37.8	23.9	0.00e+00	92	29	0	455081984	46	6246
2026-01-16 01:05:36.36	194.17	26.90	-37.0	-37.9	23.8	0.00e+00	5	29	0	456130560	46	6346
2026-01-16 01:05:37.37	194.31	27.06	-36.9	-37.8	23.9	0.00e+00	92	29	0	458227712	46	6248
2026-01-16 01:05:38.38	194.46	27.21	-37.0	-37.9	23.8	0.00e+00	90	29	0	460324864	46	6373
2026-01-16 01:05:39.39	194.61	27.37	-37.0	-37.9	23.7	0.00e+00	92	29	0	462422016	46	6376
2026-01-16 01:05:40.40	194.76	27.52	-37.1	-38.0	23.6	0.00e+00	92	29	0	464519168	46	6454
2026-01-16 01:05:41.41	194.91	27.68	-37.2	-38.1	23.6	0.00e+00	92	29	0	466616320	46	6486
2026-01-16 01:05:42.42	195.06	27.84	-37.4	-38.4	23.3	0.00e+00	92	29	0	467664896	46	6718
2026-01-16 01:05:43.43	195.22	28.00	-37.4	-38.4	23.3	0.00e+00	29	29	0	469762048	46	6724
2026-01-16 01:05:44.44	195.37	28.16	-37.4	-38.4	23.3	0.00e+00	92	29	0	471859200	46	6717
2026-01-16 01:05:45.45	195.53	28.32	-37.5	-38.4	23.3	0.00e+00	92	29	0	473956352	46	6755
2026-01-16 01:05:46.46	195.69	28.48	-37.5	-38.4	23.3	0.00e+00	90	29	0	476053504	46	6758
2026-01-16 01:05:47.46	195.85	28.64	-37.2	-38.2	23.5	0.00e+00	91	29	0	477102080	46	6552
2026-01-16 01:05:48.47	196.01	28.80	-37.3	-38.3	23.4	0.00e+00	2	29	0	479199232	46	6632
2026-01-16 01:05:49.48	196.17	28.96	-37.4	-38.3	23.4	0.00e+00	91	29	0	481296384	46	6661
2026-01-16 01:05:50.49	196.34	29.12	-37.6	-38.6	23.3	0.00e+00	0	29	0	483393536	46	6863
2026-01-16 01:05:51.50	196.51	29.29	-37.8	-38.8	22.9	0.00e+00	92	29	0	485490688	48	6285
2026-01-16 01:05:52.51	196.68	29.45	-38.2	-39.2	22.6	0.00e+00	91	29	0	486539264	48	6603
2026-01-16 01:05:53.52	196.85	29.62	-38.5	-39.5	22.3	0.00e+00	92	29	0	488636416	48	6814
2026-01-16 01:05:54.53	197.02	29.78	-38.7	-39.7	22.1	0.00e+00	92	29	0	490733568	48	6997
2026-01-16 01:05:55.54	197.19	29.95	-38.9	-39.9	22.0	0.00e+00	83	29	0	492830720	50	6380
2026-01-16 01:05:56.55	197.37	30.12	-39.2	-40.3	21.5	0.00e+00	92	29	0	494927872	50	6649
2026-01-16 01:05:57.56	197.54	30.28	-39.4	-40.5	21.4	0.00e+00	32	29	0	495976448	50	6818
2026-01-16 01:05:58.56	197.72	30.45	-39.2	-40.3	21.6	0.00e+00	91	29	0	498073600	50	6680
2026-01-16 01:05:59.57	197.90	30.62	-39.3	-40.4	21.6	0.00e+00	37	29	0	500170752	50	6769
2026-01-16 01:06:00.59	198.09	30.79	-39.3	-40.4	21.6	0.00e+00	92	29	0	502267904	50	6767
2026-01-16 01:06:01.60	198.27	30.96	-39.3	-40.4	21.6	0.00e+00	91	29	0	504365056	50	6755
2026-01-16 01:06:02.60	198.46	31.13	-39.5	-40.7	21.5	0.00e+00	92	29	0	505413632	50	6930
2026-01-16 01:06:03.61	198.65	31.30	-39.5	-40.7	21.3	0.00e+00	92	29	0	507510784	50	6950
2026-01-16 01:06:04.62	198.84	31.48	-39.6	-40.8	21.3	0.00e+00	34	29	0	509607936	50	7031
2026-01-16 01:06:05.63	199.03	31.65	-39.5	-40.7	21.4	0.00e+00	92	29	0	511705088	50	6937
2026-01-16 01:06:06.64	199.22	31.82	-39.3	-40.5	21.5	0.00e+00	2	29	0	513802240	50	6790
2026-01-16 01:06:07.65	199.42	32.00	-39.2	-40.3	21.6	0.00e+00	92	29	0	514850816	50	6664
2026-01-16 01:06:08.66	199.62	32.17	-38.9	-39.9	22.0	0.00e+00	92	29	0	516947968	50	6387
2026-01-16 01:06:09.67	199.82	32.35	-38.7	-39.7	22.2	0.00e+00	91	29	0	519045120	50	6231
2026-01-16 01:06:10.67	200.02	32.53	-38.7	-39.7	22.3	0.00e+00	90	29	0	521142272	50	6203
2026-01-16 01:06:11.68	200.23	32.70	-38.7	-39.7	22.4	0.00e+00	0	29	0	523239424	50	6200
2026-01-16 01:06:12.69	200.43	32.88	-38.5	-39.5	22.4	0.00e+00	92	29	0	524288000	50	6090
2026-01-16 01:06:13.70	200.64	33.06	-38.7	-39.7	21.7	0.00e+00	50	29	0	526385152	50	6219
2026-01-16 01:06:14.71	200.85	33.24	-38.7	-39.7	22.2	0.00e+00	92	29	0	528482304	50	6242
2026-01-16 01:06:15.72	201.07	33.42	-38.6	-39.6	22.3	0.00e+00	91	29	0	530579456	50	6144
2026-01-16 01:06:16.73	201.29	33.60	-38.5	-39.6	22.4	0.00e+00	92	29	0	532676608	50	6108
2026-01-16 01:06:17.74	201.50	33.78	-38.5	-39.6	22.4	0.00e+00	91	29	0	534773760	50	6105
2026-01-16 01:06:18.75	201.73	33.96	-38.5	-39.6	22.3	0.00e+00	92	29	0	535822336	50	6127
2026-01-16 01:06:19.76	201.95	34.14	-38.4	-39.4	22.5	0.00e+00	91	29	0	537919488	50	6029
2026-01-16 01:06:20.76	202.17	34.33	-38.2	-39.2	22.7	0.00e+00	40	29	0	540016640	50	5857
2026-01-16 01:06:21.77	202.40	34.51	-38.1	-39.1	22.8	0.00e+00	92	29	0	542113792	50	5785
2026-01-16 01:06:22.78	202.63	34.69	-37.9	-38.9	23.0	0.00e+00	39	29	0	544210944	50	5659
2026-01-16 01:06:23.79	202.87	34.88	-37.9	-38.9	23.0	0.00e+00	90	29	0	545259520	50	5672
2026-01-16 01:06:24.80	203.10	35.06	-37.9	-38.9	23.0	0.00e+00	90	29	0	547356672	50	5650
2026-01-16 01:06:25.81	203.34	35.25	-38.1	-39.0	22.9	0.00e+00	92	29	0	549453824	50	5756
2026-01-16 01:06:26.82	203.58	35.44	-38.0	-38.9	22.9	0.00e+00	90	29	0	551550976	50	5692
2026-01-16 01:06:27.83	203.83	35.62	-37.9	-38.9	22.9	0.00e+00	39	29	0	553648128	50	5682
2026-01-16 01:06:28.84	204.07	35.81	-37.8	-38.7	23.1	0.00e+00	92	29	0	554696704	50	5546
2026-01-16 01:06:29.84	204.32	36.00	-37.7	-38.7	23.0	0.00e+00	19	29	0	556793856	48	6196
2026-01-16 01:06:30.85	204.57	36.19	-37.5	-38.5	23.4	0.00e+00	90	29	0	558891008	48	6037
2026-01-16 01:06:31.86	204.83	36.37	-37.4	-38.3	23.6	0.00e+00	92	29	0	560988160	48	5903
2026-01-16 01:06:32.87	205.09	36.56	-37.0	-37.9	23.8	0.00e+00	92	29	0	563085312	48	5682
2026-01-16 01:06:33.88	205.35	36.75	-37.1	-38.0	23.8	0.00e+00	92	29	0	564133888	48	5728
2026-01-16 01:06:34.89	205.61	36.94	-37.0	-37.9	23.8	0.00e+00	92	29	0	566231040	48	5644
2026-01-16 01:06:35.90	205.88	37.14	-37.0	-37.9	23.9	0.00e+00	92	29	0	568328192	48	5661
2026-01-16 01:06:36.91	206.15	37.33	-37.0	-38.0	23.9	0.00e+00	57	29	0	570425344	48	5705
2026-01-16 01:06:37.92	206.43	37.52	-36.7	-37.6	24.1	0.00e+00	92	29	0	572522496	46	6158
2026-01-16 01:06:38.93	206.70	37.71	-36.7	-37.6	24.1	0.00e+00	91	29	0	573571072	46	6143
2026-01-16 01:06:39.94	206.98	37.90	-36.7	-37.6	24.1	0.00e+00	91	29	0	575668224	46	6129
2026-01-16 01:06:40.95	207.27	38.10	-36.6	-37.5	24.2	0.00e+00	90	29	0	577765376	46	6043
2026-01-16 01:06:41.96	207.55	38.29	-36.5	-37.4	24.3	0.00e+00	90	29	0	579862528	46	5980
2026-01-16 01:06:42.96	207.84	38.48	-36.1	-37.0	24.7	0.00e+00	92	29	0	581959680	46	5710
2026-01-16 01:06:43.97	208.14	38.67	-36.3	-37.1	24.6	0.00e+00	0	29	0	583008256	46	5798
2026-01-16 01:06:44.98	208.43	38.87	-36.0	-36.8	24.8	0.00e+00	90	29	0	585105408	46	5597
2026-01-16 01:06:45.99	208.73	39.06	-36.1	-36.9	24.8	0.00e+00	0	29	0	587202560	46	5654
2026-01-16 01:06:47.00	209.04	39.26	-36.1	-36.9	24.6	0.00e+00	92	29	0	589299712	46	5663
2026-01-16 01:06:48.01	209.34	39.45	-36.2	-37.0	24.7	0.00e+00	91	29	0	591396864	46	5751
2026-01-16 01:06:49.02	209.66	39.64	-36.1	-36.9	24.7	0.00e+00	92	29	0	592445440	46	5636
2026-01-16 01:06:50.03	209.97	39.84	-36.0	-36.9	24.7	0.00e+00	90	29	0	594542592	46	5633
2026-01-16 01:06:51.03	210.29	40.03	-36.2	-37.0	24.7	0.00e+00	40	29	0	596639744	46	5746
2026-01-16 01:06:52.04	210.61	40.23	-36.2	-37.0	24.6	0.00e+00	92	29	0	598736896	46	5752
2026-01-16 01:06:53.05	210.93	40.42	-36.4	-37.3	24.5	0.00e+00	45	29	0	600834048	46	5912
2026-01-16 01:06:54.06	211.27	40.62	-36.5	-37.4	24.4	0.00e+00	92	29	0	602931200	46	5966
2026-01-16 01:06:55.07	211.60	40.81	-36.6	-37.4	24.3	0.00e+00	92	29	0	603979776	46	6008
2026-01-16 01:06:56.08	211.94	41.01	-36.5	-37.4	24.3	0.00e+00	92	29	0	606076928	46	5985
2026-01-16 01:06:57.09	212.28	41.20	-36.5	-37.4	24.3	0.00e+00	92	29	0	608174080	46	5965
2026-01-16 01:06:58.10	212.63	41.40	-36.6	-37.4	24.3	0.00e+00	92	29	0	610271232	46	6013
2026-01-16 01:06:59.11	212.98	41.59	-36.4	-37.2	24.5	0.00e+00	90	29	0	612368384	46	5889
2026-01-16 01:07:00.12	213.33	41.79	-36.6	-37.4	24.4	0.00e+00	8	29	0	613416960	46	6017
2026-01-16 01:07:01.13	213.69	41.98	-36.4	-37.3	24.4	0.00e+00	92	29	0	615514112	46	5901
2026-01-16 01:07:02.14	214.05	42.18	-36.6	-37.5	24.3	0.00e+00	90	29	0	617611264	46	6066
2026-01-16 01:07:03.14	214.42	42.37	-36.9	-37.8	24.0	0.00e+00	92	29	0	619708416	46	6255
2026-01-16 01:07:04.15	214.79	42.56	-37.2	-38.1	23.6	0.00e+00	92	29	0	620756992	46	6519
2026-01-16 01:07:05.16	215.16	42.76	-37.5	-38.4	23.5	0.00e+00	90	29	0	622854144	46	6719
2026-01-16 01:07:06.17	215.55	42.95	-37.5	-38.4	23.5	0.00e+00	92	29	0	624951296	46	6716
2026-01-16 01:07:07.18	215.93	43.14	-37.4	-38.3	23.5	0.00e+00	0	29	0	627048448	46	6618
2026-01-16 01:07:08.19	216.32	43.34	-37.4	-38.4	23.6	0.00e+00	92	29	0	629145600	46	6701
2026-01-16 01:07:09.20	216.71	43.53	-37.3	-38.2	23.7	0.00e+00	0	29	0	631242752	46	6582
2026-01-16 01:07:10.21	217.11	43.72	-37.1	-38.0	23.9	0.00e+00	92	29	0	632291328	46	6424
2026-01-16 01:07:11.22	217.52	43.91	-37.3	-38.2	23.7	0.00e+00	92	29	0	634388480	46	6552
2026-01-16 01:07:12.23	217.93	44.10	-37.1	-38.0	23.9	0.00e+00	91	29	0	636485632	46	6399
2026-01-16 01:07:13.24	218.34	44.29	-37.6	-38.5	23.3	0.00e+00	92	29	0	638582784	46	6805
2026-01-16 01:07:14.25	218.76	44.48	-38.2	-39.2	22.7	0.00e+00	90	29	0	640679936	48	6572
2026-01-16 01:07:15.26	219.18	44.67	-38.5	-39.5	22.5	0.00e+00	92	29	0	641728512	48	6787
2026-01-16 01:07:16.27	219.61	44.85	-38.2	-39.2	22.7	0.00e+00	40	29	0	643825664	48	6594
2026-01-16 01:07:17.28	220.04	45.04	-37.9	-38.9	23.0	0.00e+00	92	29	0	645922816	48	6355
2026-01-16 01:07:18.29	220.48	45.23	-37.8	-38.7	23.1	0.00e+00	91	29	0	648019968	48	6239
2026-01-16 01:07:19.29	220.92	45.41	-38.0	-39.0	22.9	0.00e+00	92	29	0	650117120	48	6424
2026-01-16 01:07:20.30	221.37	45.59	-38.8	-39.9	22.0	0.00e+00	92	29	0	651165696	48	7116
2026-01-16 01:07:21.31	221.82	45.77	-39.9	-41.2	21.0	0.00e+00	91	29	0	653262848	52	6542
2026-01-16 01:07:22.32	222.28	45.95	-40.2	-41.5	20.6	0.00e+00	91	29	0	655360000	52	6824
2026-01-16 01:07:23.33	222.74	46.13	-39.8	-41.0	21.1	0.00e+00	0	29	0	657457152	52	6456
2026-01-16 01:07:24.34	223.21	46.31	-39.6	-40.8	21.4	0.00e+00	92	29	0	659554304	52	6280
2026-01-16 01:07:25.35	223.69	46.49	-39.0	-40.1	21.9	0.00e+00	4	29	0	660602880	52	5828
2026-01-16 01:07:26.36	224.17	46.67	-38.4	-39.5	22.5	0.00e+00	92	29	0	662700032	50	6057
2026-01-16 01:07:27.37	224.65	46.84	-38.7	-39.8	22.1	0.00e+00	90	29	0	664797184	50	6259
2026-01-16 01:07:28.38	225.14	47.01	-38.9	-40.0	22.0	0.00e+00	92	29	0	666894336	50	6408
2026-01-16 01:07:29.39	225.64	47.19	-39.1	-40.2	21.8	0.00e+00	92	29	0	668991488	50	6610
2026-01-16 01:07:30.39	226.14	47.35	-39.1	-40.2	21.9	0.00e+00	2	29	0	670040064	50	6606
2026-01-16 01:07:31.40	226.64	47.52	-38.7	-39.7	22.4	0.00e+00	92	29	0	672137216	50	6209
2026-01-16 01:07:32.41	227.15	47.69	-38.1	-39.0	22.9	0.00e+00	27	29	0	674234368	50	5752
2026-01-16 01:07:33.42	227.67	47.85	-37.6	-38.5	23.3	0.00e+00	90	29	0	676331520	48	6096
2026-01-16 01:07:34.43	228.19	48.02	-37.5	-38.5	23.4	0.00e+00	92	30	0	678428672	48	6065
2026-01-16 01:07:35.44	228.72	48.18	-37.7	-38.6	23.3	0.00e+00	91	30	0	679477248	48	6166
2026-01-16 01:07:36.45	229.26	48.34	-37.8	-38.7	23.1	0.00e+00	92	30	0	681574400	48	6241
2026-01-16 01:07:37.46	229.79	48.49	-37.8	-38.8	23.0	0.00e+00	78	29	0	683671552	48	6251
2026-01-16 01:07:38.47	230.34	48.65	-37.7	-38.7	23.2	0.00e+00	92	30	0	685768704	48	6183
2026-01-16 01:07:39.47	230.88	48.80	-37.4	-38.3	23.5	0.00e+00	7	30	0	687865856	48	5947
2026-01-16 01:07:40.48	231.44	48.95	-36.9	-37.8	23.9	0.00e+00	92	30	0	688914432	48	5577
2026-01-16 01:07:41.49	232.00	49.09	-36.9	-37.8	24.1	0.00e+00	91	30	0	691011584	48	5599
2026-01-16 01:07:42.50	232.56	49.24	-37.1	-38.0	23.9	0.00e+00	92	29	0	693108736	48	5706
2026-01-16 01:07:43.50	233.13	49.38	-37.2	-38.2	23.7	0.00e+00	92	29	0	695205888	48	5844
2026-01-16 01:07:44.51	233.71	49.52	-37.2	-38.1	23.7	0.00e+00	91	30	0	697303040	48	5797
2026-01-16 01:07:45.52	234.29	49.66	-37.1	-38.0	23.8	0.00e+00	90	30	0	699400192	48	5704
2026-01-16 01:07:46.53	234.87	49.79	-36.7	-37.6	24.2	0.00e+00	0	29	0	700448768	46	6144
2026-01-16 01:07:47.54	235.47	49.93	-36.7	-37.6	24.2	0.00e+00	92	30	0	702545920	46	6146
2026-01-16 01:07:48.55	236.06	50.06	-36.8	-37.6	24.1	0.00e+00	16	29	0	704643072	46	6160
2026-01-16 01:07:49.56	236.66	50.18	-37.1	-38.0	23.8	0.00e+00	92	30	0	706740224	46	6435
2026-01-16 01:07:50.57	237.27	50.31	-37.5	-38.4	23.5	0.00e+00	92	29	0	708837376	46	6764
2026-01-16 01:07:51.58	237.88	50.43	-37.6	-38.6	23.3	0.00e+00	90	30	0	709885952	48	6136
2026-01-16 01:07:52.58	238.49	50.54	-37.6	-38.6	23.4	0.00e+00	90	30	0	711983104	48	6131
2026-01-16 01:07:53.59	239.11	50.66	-37.5	-38.4	23.4	0.00e+00	0	30	0	714080256	48	6032
2026-01-16 01:07:54.60	239.74	50.77	-36.9	-37.8	23.9	0.00e+00	90	30	0	716177408	48	5604
2026-01-16 01:07:55.61	240.37	50.88	-36.9	-37.8	24.0	0.00e+00	0	30	0	717225984	48	5599
2026-01-16 01:07:56.61	241.00	50.98	-37.1	-38.0	23.8	0.00e+00	90	30	0	719323136	48	5747
2026-01-16 01:07:57.62	241.64	51.08	-37.5	-38.5	23.5	0.00e+00	92	30	0	721420288	48	6035
2026-01-16 01:07:58.63	242.28	51.18	-37.6	-38.5	23.3	0.00e+00	90	30	0	723517440	48	6075
2026-01-16 01:07:59.64	242.93	51.27	-37.4	-38.3	23.6	0.00e+00	91	29	0	725614592	48	5926
2026-01-16 01:08:00.65	243.58	51.36	-37.0	-37.9	23.9	0.00e+00	92	30	0	727711744	48	5676
2026-01-16 01:08:01.66	244.23	51.45	-37.0	-38.0	23.9	0.00e+00	91	30	0	728760320	48	5706
2026-01-16 01:08:02.67	244.89	51.53	-37.1	-38.0	23.7	0.00e+00	5	30	0	730857472	48	5749
2026-01-16 01:08:03.68	245.55	51.61	-37.3	-38.2	23.3	0.00e+00	91	30	0	732954624	48	5885
2026-01-16 01:08:04.69	246.22	51.69	-37.5	-38.4	23.4	0.00e+00	91	30	0	735051776	48	6032
2026-01-16 01:08:05.70	246.89	51.76	-36.8	-37.7	24.0	0.00e+00	92	29	0	737148928	48	5538
2026-01-16 01:08:06.71	247.56	51.82	-36.5	-37.4	24.3	0.00e+00	92	30	0	738197504	46	5991
2026-01-16 01:08:07.72	248.23	51.89	-36.6	-37.5	24.1	0.00e+00	68	30	0	740294656	46	6087
2026-01-16 01:08:08.73	248.91	51.95	-37.2	-38.1	23.7	0.00e+00	92	30	0	742391808	46	6519
2026-01-16 01:08:09.74	249.59	52.00	-37.4	-38.3	23.4	0.00e+00	12	30	0	744488960	46	6688
2026-01-16 01:08:10.75	250.27	52.06	-37.3	-38.3	23.6	0.00e+00	91	30	0	746586112	46	6664
2026-01-16 01:08:11.76	250.96	52.10	-37.3	-38.3	23.5	0.00e+00	41	30	0	747634688	46	6623
2026-01-16 01:08:12.77	251.64	52.15	-36.8	-37.7	24.1	0.00e+00	91	30	0	749731840	46	6182
2026-01-16 01:08:13.78	252.33	52.19	-36.5	-37.4	24.3	0.00e+00	91	30	0	751828992	46	5986
2026-01-16 01:08:14.79	253.02	52.22	-36.8	-37.7	24.0	0.00e+00	92	30	0	753926144	46	6218
2026-01-16 01:08:15.80	253.71	52.25	-36.6	-37.5	24.3	0.00e+00	91	30	0	756023296	46	6063
2026-01-16 01:08:16.81	254.41	52.28	-36.5	-37.4	24.4	0.00e+00	0	30	0	757071872	46	5989
2026-01-16 01:08:17.82	255.10	52.30	-36.0	-36.8	24.8	0.00e+00	91	30	0	759169024	46	5623
2026-01-16 01:08:18.82	255.79	52.32	-35.7	-36.5	25.1	0.00e+00	1	30	0	761266176	46	5438
2026-01-16 01:08:19.83	256.49	52.33	-35.8	-36.6	25.0	0.00e+00	92	30	0	763363328	44	6128
2026-01-16 01:08:20.84	257.18	52.34	-36.2	-37.1	24.6	0.00e+00	92	30	0	765460480	44	6494
2026-01-16 01:08:21.85	257.88	52.35	-36.6	-37.5	24.3	0.00e+00	92	30	0	766509056	44	6785
2026-01-16 01:08:22.86	258.58	52.35	-36.3	-37.2	24.5	0.00e+00	92	30	0	768606208	44	6565
2026-01-16 01:08:23.87	259.27	52.34	-36.5	-37.4	24.4	0.00e+00	12	30	0	770703360	44	6735
2026-01-16 01:08:24.88	259.97	52.34	-36.8	-37.6	24.1	0.00e+00	92	30	0	772800512	46	6169
2026-01-16 01:08:25.89	260.66	52.33	-37.2	-38.1	23.3	0.00e+00	0	30	0	774897664	46	6521
2026-01-16 01:08:26.90	261.36	52.31	-37.2	-38.1	23.5	0.00e+00	91	30	0	775946240	46	6526
2026-01-16 01:08:27.91	262.05	52.29	-37.5	-38.4	23.4	0.00e+00	14	30	0	778043392	46	6755
2026-01-16 01:08:28.92	262.75	52.26	-36.5	-37.3	24.4	0.00e+00	92	30	0	780140544	46	5938
2026-01-16 01:08:29.92	263.43	52.24	-35.6	-36.4	25.0	0.00e+00	90	30	0	782237696	44	6012
2026-01-16 01:08:30.93	264.12	52.20	-35.8	-36.6	24.9	0.00e+00	92	30	0	784334848	44	6145
2026-01-16 01:08:31.94	264.81	52.16	-36.4	-37.3	24.3	0.00e+00	90	30	0	785383424	44	6642
2026-01-16 01:08:32.95	265.50	52.12	-36.6	-37.5	24.2	0.00e+00	0	30	0	787480576	46	6056
2026-01-16 01:08:33.96	266.19	52.08	-36.1	-36.9	24.7	0.00e+00	90	30	0	789577728	46	5691
2026-01-16 01:08:34.97	266.87	52.03	-36.1	-36.9	24.7	0.00e+00	6	30	0	791674880	46	5694
2026-01-16 01:08:35.98	267.55	51.97	-36.4	-37.3	24.5	0.00e+00	92	30	0	793772032	46	5913
2026-01-16 01:08:36.99	268.23	51.92	-36.6	-37.5	24.1	0.00e+00	92	30	0	795869184	46	6053
2026-01-16 01:08:38.00	268.90	51.85	-36.1	-36.9	24.7	0.00e+00	91	30	0	796917760	46	5658
2026-01-16 01:08:39.01	269.58	51.79	-35.8	-36.6	25.0	0.00e+00	91	30	0	799014912	46	5469
2026-01-16 01:08:40.02	270.24	51.72	-36.1	-36.9	24.7	0.00e+00	41	30	0	801112064	46	5660
2026-01-16 01:08:41.03	270.91	51.65	-36.5	-37.4	24.3	0.00e+00	92	30	0	803209216	46	5989
2026-01-16 01:08:42.03	271.57	51.57	-36.7	-37.6	24.1	0.00e+00	63	30	0	805306368	46	6153
2026-01-16 01:08:43.05	272.23	51.49	-36.6	-37.5	24.2	0.00e+00	92	30	0	806354944	46	6036
2026-01-16 01:08:44.06	272.89	51.40	-36.6	-37.4	24.4	0.00e+00	82	30	0	808452096	46	6009
2026-01-16 01:08:45.06	273.53	51.32	-36.0	-36.8	24.8	0.00e+00	91	30	0	810549248	46	5575
2026-01-16 01:08:46.07	274.18	51.22	-36.6	-37.5	24.2	0.00e+00	92	30	0	812646400	46	6055
2026-01-16 01:08:47.08	274.83	51.13	-37.6	-38.5	23.3	0.00e+00	67	30	0	814743552	46	6841
2026-01-16 01:08:48.09	275.47	51.03	-37.7	-38.6	23.3	0.00e+00	90	30	0	815792128	48	6157
2026-01-16 01:08:49.10	276.10	50.93	-37.7	-38.6	23.1	0.00e+00	58	30	0	817889280	48	6139
2026-01-16 01:08:50.11	276.73	50.82	-38.0	-39.0	22.9	0.00e+00	91	30	0	819986432	48	6395
2026-01-16 01:08:51.12	277.36	50.71	-38.3	-39.4	22.6	0.00e+00	83	30	0	822083584	48	6700
2026-01-16 01:08:52.13	277.98	50.60	-38.9	-39.9	22.0	0.00e+00	91	30	0	824180736	50	6382
2026-01-16 01:08:53.14	278.60	50.48	-39.4	-40.6	21.6	0.00e+00	90	30	0	825229312	50	6859
2026-01-16 01:08:54.15	279.21	50.36	-39.4	-40.6	21.5	0.00e+00	21	30	0	827326464	50	6855
2026-01-16 01:08:55.16	279.82	50.24	-39.1	-40.2	22.0	0.00e+00	92	30	0	829423616	50	6553
2026-01-16 01:08:56.17	280.42	50.12	-39.2	-40.3	21.7	0.00e+00	0	30	0	831520768	50	6630
2026-01-16 01:08:57.17	281.02	49.99	-40.0	-41.2	20.8	0.00e+00	92	30	0	833617920	52	6611
2026-01-16 01:08:58.18	281.61	49.86	-40.4	-41.7	20.3	0.00e+00	0	30	0	834666496	52	6995
2026-01-16 01:08:59.19	282.20	49.73	-40.2	-41.5	20.9	0.00e+00	92	30	0	836763648	52	6812
2026-01-16 01:09:00.20	282.78	49.59	-39.4	-40.5	21.8	0.00e+00	92	30	0	838860800	52	6045
2026-01-16 01:09:01.21	283.36	49.45	-39.3	-40.4	21.7	0.00e+00	33	30	0	840957952	52	6023
2026-01-16 01:09:02.21	283.92	49.31	-40.1	-41.3	20.9	0.00e+00	90	30	0	843055104	52	6651
2026-01-16 01:09:03.22	284.49	49.17	-40.5	-41.8	20.5	0.00e+00	41	30	0	844103680	52	7055
2026-01-16 01:09:04.24	285.06	49.02	-40.1	-41.3	20.9	0.00e+00	92	30	0	846200832	52	6665
2026-01-16 01:09:05.24	285.61	48.87	-39.3	-40.4	21.7	0.00e+00	43	30	0	848297984	52	5989
2026-01-16 01:09:06.25	286.16	48.72	-39.3	-40.4	21.6	0.00e+00	92	30	0	850395136	52	5992
2026-01-16 01:09:07.26	286.71	48.57	-39.6	-40.7	21.3	0.00e+00	92	30	0	852492288	52	6245
2026-01-16 01:09:08.27	287.25	48.42	-39.6	-40.8	21.2	0.00e+00	0	30	0	853540864	52	6276
2026-01-16 01:09:09.28	287.78	48.26	-39.6	-40.8	21.3	0.00e+00	92	30	0	855638016	52	6269
2026-01-16 01:09:10.29	288.31	48.10	-39.6	-40.7	21.2	0.00e+00	40	30	0	857735168	52	6213
2026-01-16 01:09:11.29	288.83	47.94	-39.9	-41.1	21.0	0.00e+00	92	30	0	859832320	52	6484
2026-01-16 01:09:12.30	289.35	47.78	-39.7	-40.9	21.4	0.00e+00	53	30	0	861929472	52	6339
2026-01-16 01:09:13.31	289.86	47.61	-39.8	-40.9	21.3	0.00e+00	92	30	0	864026624	52	6369
2026-01-16 01:09:14.32	290.37	47.44	-40.4	-41.8	20.5	0.00e+00	90	30	0	865075200	52	7010
2026-01-16 01:09:15.33	290.87	47.28	-40.3	-41.6	20.4	0.00e+00	0	30	0	867172352	52	6911
2026-01-16 01:09:16.34	291.37	47.11	-39.5	-40.7	21.5	0.00e+00	90	30	0	869269504	52	6186
2026-01-16 01:09:17.35	291.86	46.93	-39.4	-40.5	21.5	0.00e+00	6	30	0	871366656	52	6080
2026-01-16 01:09:18.36	292.35	46.76	-39.6	-40.8	21.4	0.00e+00	92	30	0	873463808	52	6256
2026-01-16 01:09:19.37	292.83	46.59	-39.9	-41.1	21.0	0.00e+00	34	30	0	874512384	52	6514
2026-01-16 01:09:20.38	293.31	46.41	-39.7	-40.9	21.1	0.00e+00	92	30	0	876609536	52	6373
2026-01-16 01:09:21.39	293.78	46.23	-38.7	-39.8	22.2	0.00e+00	0	30	0	878706688	52	5575
2026-01-16 01:09:22.40	294.24	46.05	-38.5	-39.5	22.5	0.00e+00	92	30	0	880803840	50	6086
2026-01-16 01:09:23.41	294.70	45.87	-38.8	-39.9	22.1	0.00e+00	90	30	0	882900992	50	6326
2026-01-16 01:09:24.42	295.16	45.69	-38.8	-39.8	22.1	0.00e+00	34	30	0	883949568	50	6311
2026-01-16 01:09:25.42	295.60	45.51	-39.1	-40.2	21.8	0.00e+00	92	30	0	886046720	50	6615
2026-01-16 01:09:26.43	296.05	45.33	-39.5	-40.6	21.5	0.00e+00	34	30	0	888143872	50	6901
2026-01-16 01:09:27.44	296.49	45.15	-39.8	-41.0	21.1	0.00e+00	90	30	0	890241024	52	6401
2026-01-16 01:09:28.45	296.92	44.96	-39.4	-40.6	21.6	0.00e+00	39	30	0	892338176	52	6141
2026-01-16 01:09:29.46	297.35	44.77	-39.0	-40.1	21.8	0.00e+00	92	30	0	893386752	52	5765
2026-01-16 01:09:30.47	297.78	44.59	-38.2	-39.1	22.8	0.00e+00	92	30	0	895483904	50	5816
2026-01-16 01:09:31.48	298.20	44.40	-37.5	-38.4	23.4	0.00e+00	7	30	0	897581056	48	6030
2026-01-16 01:09:32.49	298.61	44.21	-37.9	-38.8	23.0	0.00e+00	92	30	0	899678208	48	6291
2026-01-16 01:09:33.50	299.02	44.02	-38.7	-39.7	22.3	0.00e+00	47	30	0	901775360	48	6964
2026-01-16 01:09:34.51	299.43	43.83	-38.8	-39.9	22.1	0.00e+00	92	30	0	902823936	50	6342
2026-01-16 01:09:35.52	299.83	43.64	-38.7	-39.7	22.4	0.00e+00	0	30	0	904921088	50	6214
2026-01-16 01:09:36.52	300.22	43.45	-38.1	-39.0	22.9	0.00e+00	92	30	0	907018240	50	5743
2026-01-16 01:09:37.53	300.61	43.26	-37.6	-38.5	23.3	0.00e+00	0	30	0	909115392	48	6098
2026-01-16 01:09:38.54	301.00	43.07	-37.6	-38.5	23.1	0.00e+00	23	30	0	911212544	48	6053
2026-01-16 01:09:39.55	301.38	42.88	-38.3	-39.3	22.6	0.00e+00	92	30	0	912261120	48	6659
2026-01-16 01:09:40.56	301.76	42.69	-38.5	-39.6	22.4	0.00e+00	0	30	0	914358272	48	6853
2026-01-16 01:09:41.57	302.13	42.49	-38.1	-39.1	22.8	0.00e+00	92	30	0	916455424	48	6487
2026-01-16 01:09:42.58	302.50	42.30	-37.7	-38.6	23.3	0.00e+00	0	30	0	918552576	48	6152
2026-01-16 01:09:43.59	302.86	42.11	-37.5	-38.5	23.3	0.00e+00	92	30	0	920649728	48	6040
2026-01-16 01:09:44.60	303.22	41.91	-38.0	-39.0	22.9	0.00e+00	0	30	0	921698304	48	6407
2026-01-16 01:09:45.60	303.57	41.72	-38.5	-39.5	22.3	0.00e+00	92	30	0	923795456	48	6826
2026-01-16 01:09:46.61	303.93	41.53	-39.0	-40.1	21.8	0.00e+00	92	30	0	925892608	50	6533
2026-01-16 01:09:47.62	304.27	41.33	-39.1	-40.2	21.8	0.00e+00	0	30	0	927989760	50	6596
2026-01-16 01:09:48.63	304.62	41.14	-38.8	-39.8	22.2	0.00e+00	92	30	0	930086912	50	6317
2026-01-16 01:09:49.64	304.96	40.95	-38.6	-39.6	22.3	0.00e+00	38	30	0	931135488	50	6114
2026-01-16 01:09:50.65	305.29	40.75	-38.3	-39.2	22.7	0.00e+00	92	30	0	933232640	50	5892
2026-01-16 01:09:51.66	305.62	40.56	-38.3	-39.3	22.5	0.00e+00	43	30	0	935329792	50	5956
2026-01-16 01:09:52.67	305.95	40.36	-39.3	-40.5	21.5	0.00e+00	92	30	0	937426944	50	6770
2026-01-16 01:09:53.68	306.27	40.17	-40.4	-41.7	20.4	0.00e+00	89	30	0	939524096	52	6961
2026-01-16 01:09:54.69	306.59	39.97	-41.0	-42.5	19.7	0.00e+00	7	30	0	940572672	54	6806
2026-01-16 01:09:55.69	306.91	39.78	-41.4	-43.0	19.1	0.00e+00	92	30	0	942669824	54	7192
2026-01-16 01:09:56.70	307.22	39.59	-41.5	-43.1	19.1	0.00e+00	5	30	0	944766976	54	7312
2026-01-16 01:09:57.71	307.53	39.39	-41.3	-42.8	19.5	0.00e+00	91	30	0	946864128	54	7019
2026-01-16 01:09:58.72	307.83	39.20	-40.4	-41.7	20.5	0.00e+00	0	30	0	948961280	54	6219
2026-01-16 01:09:59.73	308.13	39.01	-40.4	-41.6	20.5	0.00e+00	92	30	0	950009856	54	6157
2026-01-16 01:10:00.74	308.43	38.81	-40.2	-41.4	20.7	0.00e+00	0	30	0	952107008	54	6010
2026-01-16 01:10:01.74	308.72	38.62	-40.9	-42.3	19.8	0.00e+00	0	30	0	954204160	54	6672
2026-01-16 01:10:02.75	309.02	38.43	-42.1	-43.9	18.2	0.00e+00	92	30	0	956301312	56	7098
2026-01-16 01:10:03.76	309.30	38.24	-42.2	-44.0	18.3	0.00e+00	35	30	0	958398464	56	7197
2026-01-16 01:10:04.77	309.59	38.05	-40.7	-42.1	20.1	0.00e+00	91	30	0	960495616	56	5825
2026-01-16 01:10:05.78	309.87	37.86	-39.8	-41.0	21.0	0.00e+00	0	30	0	961544192	54	5715
2026-01-16 01:10:06.79	310.15	37.66	-38.5	-39.5	22.5	0.00e+00	92	30	0	963641344	50	6051
2026-01-16 01:10:07.80	310.42	37.47	-38.0	-38.9	23.0	0.00e+00	0	30	0	965738496	50	5671
2026-01-16 01:10:08.81	310.69	37.28	-38.5	-39.5	22.3	0.00e+00	89	30	0	967835648	50	6102
2026-01-16 01:10:09.81	310.96	37.09	-40.1	-41.4	20.6	0.00e+00	91	30	0	969932800	52	6725
2026-01-16 01:10:10.82	311.23	36.91	-41.5	-43.1	19.0	0.00e+00	48	30	0	970981376	54	7317
2026-01-16 01:10:11.83	311.49	36.72	-42.1	-43.9	18.4	0.00e+00	91	30	0	973078528	56	7094
2026-01-16 01:10:12.84	311.75	36.53	-41.2	-42.7	19.5	0.00e+00	38	30	0	975175680	56	6224
2026-01-16 01:10:13.85	312.00	36.34	-40.4	-41.8	20.4	0.00e+00	92	30	0	977272832	54	6254
2026-01-16 01:10:14.86	312.26	36.15	-40.3	-41.6	20.7	0.00e+00	6	30	0	979369984	54	6129
2026-01-16 01:10:15.87	312.51	35.96	-38.7	-39.7	22.3	0.00e+00	92	30	0	980418560	52	5527
2026-01-16 01:10:16.88	312.76	35.78	-38.2	-39.2	22.7	0.00e+00	90	30	0	982515712	50	5834
2026-01-16 01:10:17.89	313.00	35.59	-39.4	-40.6	21.2	0.00e+00	0	30	0	984612864	50	6871
2026-01-16 01:10:18.90	313.24	35.41	-41.6	-43.2	18.8	0.00e+00	90	30	0	986710016	54	7381
2026-01-16 01:10:19.91	313.48	35.22	-43.1	-45.3	17.0	0.00e+00	7	30	0	988807168	58	7447
2026-01-16 01:10:20.92	313.72	35.04	-42.5	-44.5	17.9	0.00e+00	90	30	0	989855744	58	6847
2026-01-16 01:10:21.93	313.96	34.85	-41.8	-43.4	18.6	0.00e+00	6	30	0	991952896	56	6752
2026-01-16 01:10:22.94	314.19	34.67	-39.5	-40.7	21.5	0.00e+00	90	30	0	994050048	54	5523
2026-01-16 01:10:23.94	314.42	34.49	-38.6	-39.6	22.4	0.00e+00	0	30	0	996147200	50	6138
2026-01-16 01:10:24.95	314.64	34.30	-38.1	-39.1	22.8	0.00e+00	26	30	0	998244352	50	5770
2026-01-16 01:10:25.96	314.87	34.12	-38.2	-39.2	22.8	0.00e+00	92	30	0	999292928	50	5852
2026-01-16 01:10:26.97	315.09	33.94	-39.4	-40.5	21.6	0.00e+00	37	30	0	1001390080	50	6820
2026-01-16 01:10:27.98	315.31	33.76	-40.7	-42.0	20.1	0.00e+00	92	30	0	1003487232	52	7250
2026-01-16 01:10:28.99	315.53	33.58	-41.4	-42.9	19.2	0.00e+00	0	30	0	1005584384	54	7157
2026-01-16 01:10:30.00	315.74	33.40	-41.0	-42.5	19.7	0.00e+00	91	30	0	1007681536	54	6771
2026-01-16 01:10:31.01	315.95	33.22	-39.8	-41.0	21.0	0.00e+00	0	30	0	1008730112	54	5717
2026-01-16 01:10:32.02	316.17	33.04	-39.2	-40.3	21.7	0.00e+00	38	30	0	1010827264	52	5931
2026-01-16 01:10:33.03	316.37	32.87	-38.5	-39.5	22.5	0.00e+00	92	30	0	1012924416	50	6082
2026-01-16 01:10:34.04	316.58	32.69	-37.6	-38.5	23.4	0.00e+00	38	30	0	1015021568	48	6068
2026-01-16 01:10:35.05	316.78	32.51	-37.1	-38.0	23.8	0.00e+00	91	30	0	1017118720	48	5713
2026-01-16 01:10:36.06	316.98	32.34	-37.5	-38.4	23.3	0.00e+00	2	30	0	1018167296	48	5999
2026-01-16 01:10:37.07	317.18	32.16	-38.5	-39.5	22.2	0.00e+00	91	30	0	1020264448	48	6843
2026-01-16 01:10:38.07	317.38	31.99	-39.8	-41.0	21.0	0.00e+00	43	30	0	1022361600	50	7224
2026-01-16 01:10:39.09	317.58	31.82	-40.9	-42.4	19.5	0.00e+00	90	30	0	1024458752	54	6697
2026-01-16 01:10:40.10	317.77	31.64	-41.7	-43.4	18.8	0.00e+00	0	30	0	1026555904	54	7510
2026-01-16 01:10:41.11	317.96	31.47	-41.9	-43.6	18.6	0.00e+00	0	30	0	1027604480	56	6890
2026-01-16 01:10:42.11	318.15	31.30	-41.3	-42.8	19.4	0.00e+00	91	30	0	1029701632	56	6310
2026-01-16 01:10:43.12	318.34	31.13	-40.4	-41.7	20.4	0.00e+00	0	30	0	1031798784	54	6194
2026-01-16 01:10:44.13	318.52	30.96	-39.7	-40.9	21.1	0.00e+00	91	30	0	1033895936	54	5677
2026-01-16 01:10:45.14	318.71	30.79	-38.7	-39.7	22.2	0.00e+00	0	30	0	1035993088	52	5526
2026-01-16 01:10:46.15	318.89	30.62	-38.4	-39.5	22.5	0.00e+00	90	30	0	1037041664	50	6036
2026-01-16 01:10:47.15	319.07	30.46	-38.5	-39.6	22.3	0.00e+00	0	30	0	1039138816	50	6109
2026-01-16 01:10:48.16	319.24	30.29	-38.9	-40.0	21.9	0.00e+00	0	30	0	1041235968	50	6409
2026-01-16 01:10:49.17	319.42	30.12	-39.6	-40.8	21.1	0.00e+00	91	30	0	1043333120	50	7064
2026-01-16 01:10:50.18	319.60	29.96	-40.1	-41.3	20.6	0.00e+00	0	30	0	1045430272	52	6680
2026-01-16 01:10:51.19	319.77	29.79	-40.5	-41.8	20.2	0.00e+00	92	30	0	1046478848	52	7067
2026-01-16 01:10:52.20	319.94	29.63	-40.4	-41.7	20.4	0.00e+00	37	30	0	1048576000	52	6963
2026-01-16 01:10:53.21	320.11	29.46	-40.2	-41.5	20.6	0.00e+00	92	30	0	1050673152	52	6782
2026-01-16 01:10:54.21	320.28	29.30	-39.9	-41.1	21.0	0.00e+00	60	30	0	1052770304	52	6504
2026-01-16 01:10:55.22	320.44	29.14	-39.6	-40.8	21.1	0.00e+00	87	30	0	1054867456	52	6293
2026-01-16 01:10:56.23	320.61	28.98	-39.2	-40.3	21.6	0.00e+00	71	30	0	1056964608	52	5939
2026-01-16 01:10:57.24	320.77	28.81	-38.7	-39.8	22.3	0.00e+00	46	30	0	1058013184	52	5573
2026-01-16 01:10:58.25	320.93	28.65	-38.2	-39.2	22.7	0.00e+00	92	30	0	1060110336	50	5836
2026-01-16 01:10:59.26	321.09	28.49	-38.0	-39.0	22.9	0.00e+00	0	30	0	1062207488	50	5712
2026-01-16 01:11:00.27	321.25	28.33	-38.0	-38.9	22.9	0.00e+00	92	30	0	1064304640	50	5672
2026-01-16 01:11:01.28	321.41	28.18	-38.1	-39.0	22.8	0.00e+00	45	30	0	1066401792	50	5738
2026-01-16 01:11:02.29	321.56	28.02	-38.1	-39.0	22.8	0.00e+00	92	30	0	1067450368	50	5752
2026-01-16 01:11:03.30	321.71	27.86	-38.2	-39.2	22.5	0.00e+00	92	30	0	1069547520	50	5886
2026-01-16 01:11:04.31	321.87	27.70	-38.4	-39.4	22.5	0.00e+00	46	30	0	1071644672	50	5977
2026-01-16 01:11:05.31	322.02	27.55	-38.6	-39.6	22.2	0.00e+00	92	30	0	1073741824	50	6168
2026-01-16 01:11:06.32	322.17	27.40	-38.4	-39.5	22.4	0.00e+00	0	30	0	1075838976	50	6038
2026-01-16 01:11:07.33	322.31	27.24	-38.5	-39.6	22.3	0.00e+00	92	30	0	1076887552	50	6127
2026-01-16 01:11:08.34	322.46	27.09	-38.6	-39.7	22.3	0.00e+00	0	30	0	1078984704	50	6203
2026-01-16 01:11:09.35	322.61	26.93	-38.2	-39.2	22.6	0.00e+00	92	30	0	1081081856	50	5863
2026-01-16 01:11:10.36	322.75	26.78	-38.2	-39.2	22.5	0.00e+00	0	30	0	1083179008	50	5878
2026-01-16 01:11:11.37	322.89	26.63	-38.1	-39.1	22.8	0.00e+00	9	30	0	1085276160	50	5771
2026-01-16 01:11:12.38	323.03	26.48	-37.9	-38.9	22.9	0.00e+00	92	30	0	1086324736	50	5659
2026-01-16 01:11:13.39	323.17	26.33	-37.9	-38.9	22.9	0.00e+00	36	30	0	1088421888	50	5656
2026-01-16 01:11:14.40	323.31	26.18	-38.0	-38.9	22.8	0.00e+00	92	30	0	1090519040	50	5693
2026-01-16 01:11:15.41	323.45	26.03	-37.9	-38.8	22.9	0.00e+00	0	30	0	1092616192	50	5612
2026-01-16 01:11:16.42	323.59	25.88	-37.8	-38.7	22.4	0.00e+00	91	30	0	1094713344	50	5538
2026-01-16 01:11:17.43	323.72	25.73	-37.8	-38.7	23.1	0.00e+00	36	30	0	1095761920	48	6220
2026-01-16 01:11:18.44	323.86	25.59	-38.2	-39.2	22.6	0.00e+00	87	30	0	1097859072	48	6564
2026-01-16 01:11:19.45	323.99	25.44	-38.3	-39.3	22.5	0.00e+00	90	30	0	1099956224	48	6651
2026-01-16 01:11:20.46	324.12	25.30	-38.6	-39.6	22.3	0.00e+00	0	30	0	1102053376	48	6896
2026-01-16 01:11:21.47	324.25	25.15	-38.8	-39.9	21.9	0.00e+00	92	30	0	1104150528	50	6386
2026-01-16 01:11:22.48	324.38	25.01	-38.9	-40.0	21.9	0.00e+00	0	30	0	1105199104	50	6423
2026-01-16 01:11:23.48	324.51	24.86	-38.7	-39.8	22.0	0.00e+00	90	30	0	1107296256	50	6308
2026-01-16 01:11:24.49	324.63	24.72	-38.6	-39.7	22.2	0.00e+00	0	30	0	1109393408	50	6179
2026-01-16 01:11:25.50	324.76	24.58	-38.5	-39.5	22.2	0.00e+00	90	30	0	1111490560	50	6102
2026-01-16 01:11:26.51	324.88	24.44	-38.1	-39.0	22.7	0.00e+00	83	30	0	1113587712	50	5754
2026-01-16 01:11:27.52	325.01	24.30	-37.9	-38.8	22.8	0.00e+00	0	30	0	1114636288	50	5615
2026-01-16 01:11:28.53	325.13	24.15	-37.4	-38.3	23.4	0.00e+00	92	30	0	1116733440	48	5944
2026-01-16 01:11:29.54	325.25	24.01	-37.2	-38.1	23.5	0.00e+00	0	30	0	1118830592	48	5817
2026-01-16 01:11:30.54	325.37	23.88	-37.2	-38.1	23.5	0.00e+00	92	30	0	1120927744	48	5807
2026-01-16 01:11:31.55	325.49	23.74	-37.1	-38.0	23.7	0.00e+00	0	30	0	1123024896	48	5715
2026-01-16 01:11:32.56	325.61	23.60	-37.2	-38.1	23.6	0.00e+00	92	30	0	1125122048	48	5763
2026-01-16 01:11:33.57	325.73	23.46	-37.3	-38.2	23.3	0.00e+00	0	30	0	1126170624	48	5851
2026-01-16 01:11:34.58	325.84	23.33	-37.3	-38.2	23.4	0.00e+00	34	30	0	1128267776	48	5866
2026-01-16 01:11:35.59	325.96	23.19	-37.3	-38.3	23.3	0.00e+00	91	30	0	1130364928	48	5901
2026-01-16 01:11:36.60	326.07	23.05	-37.4	-38.4	23.3	0.00e+00	0	30	0	1132462080	48	5973
2026-01-16 01:11:37.61	326.19	22.92	-37.4	-38.3	23.3	0.00e+00	92	30	0	1133510656	48	5951
2026-01-16 01:11:38.62	326.30	22.78	-37.6	-38.5	23.2	0.00e+00	0	30	0	1135607808	48	6070
2026-01-16 01:11:39.63	326.41	22.65	-37.6	-38.5	23.2	0.00e+00	92	30	0	1137704960	48	6064
2026-01-16 01:11:40.64	326.52	22.52	-37.7	-38.7	23.0	0.00e+00	53	30	0	1139802112	48	6175
2026-01-16 01:11:41.64	326.63	22.39	-37.7	-38.7	23.0	0.00e+00	84	30	0	1141899264	48	6182
2026-01-16 01:11:42.65	326.74	22.25	-37.9	-38.9	22.9	0.00e+00	92	30	0	1142947840	48	6361
2026-01-16 01:11:43.66	326.85	22.12	-38.0	-39.0	22.7	0.00e+00	5	30	0	1145044992	48	6427
2026-01-16 01:11:44.67	326.96	21.99	-38.1	-39.1	22.6	0.00e+00	92	30	0	1147142144	48	6499
2026-01-16 01:11:45.68	327.06	21.86	-38.2	-39.2	22.5	0.00e+00	5	30	0	1149239296	48	6612
2026-01-16 01:11:46.69	327.17	21.73	-38.2	-39.2	22.6	0.00e+00	0	30	0	1151336448	48	6584
2026-01-16 01:11:47.70	327.27	21.60	-38.2	-39.2	22.5	0.00e+00	0	30	0	1153433600	48	6600
2026-01-16 01:11:48.71	327.38	21.47	-38.1	-39.1	22.6	0.00e+00	49	30	0	1154482176	48	6512
2026-01-16 01:11:49.72	327.48	21.35	-38.2	-39.2	22.5	0.00e+00	74	30	0	1156579328	48	6556
2026-01-16 01:11:50.73	327.58	21.22	-37.8	-38.7	23.0	0.00e+00	0	30	0	1158676480	48	6222
2026-01-16 01:11:51.74	327.69	21.09	-37.9	-38.9	22.8	0.00e+00	92	30	0	1160773632	48	6318
2026-01-16 01:11:52.75	327.79	20.97	-37.7	-38.6	23.1	0.00e+00	5	30	0	1162870784	48	6161
2026-01-16 01:11:53.75	327.89	20.84	-37.7	-38.7	23.0	0.00e+00	92	30	0	1163919360	48	6213
2026-01-16 01:11:54.76	327.98	20.72	-37.7	-38.6	23.0	0.00e+00	31	30	0	1166016512	48	6165
2026-01-16 01:11:55.77	328.08	20.59	-37.6	-38.5	23.1	0.00e+00	32	30	0	1168113664	48	6096
2026-01-16 01:11:56.78	328.18	20.47	-37.7	-38.7	22.9	0.00e+00	0	30	0	1170210816	48	6180
2026-01-16 01:11:57.79	328.28	20.34	-37.9	-38.8	22.8	0.00e+00	0	30	0	1172307968	48	6307
2026-01-16 01:11:58.80	328.37	20.22	-37.8	-38.8	22.8	0.00e+00	91	30	0	1173356544	48	6296
2026-01-16 01:11:59.81	328.47	20.10	-38.0	-39.0	22.7	0.00e+00	0	30	0	1175453696	48	6422
2026-01-16 01:12:00.82	328.56	19.97	-38.2	-39.2	22.4	0.00e+00	92	30	0	1177550848	48	6596
2026-01-16 01:12:01.82	328.66	19.85	-38.3	-39.3	22.4	0.00e+00	5	30	0	1179648000	48	6666
2026-01-16 01:12:02.83	328.75	19.73	-38.4	-39.4	22.3	0.00e+00	34	30	0	1181745152	48	6762
2026-01-16 01:12:03.84	328.84	19.61	-38.4	-39.5	22.2	0.00e+00	33	30	0	1182793728	48	6807
2026-01-16 01:12:04.85	328.93	19.49	-38.5	-39.6	22.1	0.00e+00	32	30	0	1184890880	48	6896
2026-01-16 01:12:05.86	329.03	19.37	-38.6	-39.7	22.0	0.00e+00	91	30	0	1186988032	48	6935
2026-01-16 01:12:06.87	329.12	19.25	-38.6	-39.6	22.0	0.00e+00	7	30	0	1189085184	48	6915
2026-01-16 01:12:07.88	329.21	19.14	-38.7	-39.8	21.9	0.00e+00	93	30	0	1191182336	48	7044
2026-01-16 01:12:08.89	329.30	19.02	-38.5	-39.6	22.1	0.00e+00	53	30	0	1192230912	48	6897
2026-01-16 01:12:09.90	329.38	18.90	-38.4	-39.5	22.2	0.00e+00	9	30	0	1194328064	48	6801
2026-01-16 01:12:10.90	329.47	18.79	-38.3	-39.3	22.3	0.00e+00	53	30	0	1196425216	48	6690
2026-01-16 01:12:11.91	329.56	18.67	-38.1	-39.1	22.6	0.00e+00	7	30	0	1198522368	48	6486
