passes_logs/2026/01/16/R4.6S_Anadyr/R4.6S_Anadyr__20260116_170454_FENGYUN_3D_rec.log

#Pass ID: 20260116_170454_FENGYUN 3D
#Satellite: FENGYUN 3D
#Configuration: FENGYUN 3D
#almurnet v.1.7.20251203
#Start time: 2026-01-16 17:04:57

#Version: 2.2.20231116
#Station: R4.6S_Anadyr
#Location: 177.4865 lon 64.73178 lat
#TLE: 1 43010U 17072A   26015.99024095 -.00000189  00000+0 -67463-4 0  9996
#TLE: 2 43010  98.9932 347.8215 0002366 106.5594 253.5841 14.19694691423396

#Time	Az	El	Level	Level2	SNR	BER	BlckErr	Temp	State	Recorded	gain1	gain2
2026-01-16 17:04:57.70	21.65	0.21	-48.4	-59.0	3.3	8.40e-01	0	27	0	0	60	32382
2026-01-16 17:04:58.71	21.65	0.27	-48.1	-60.3	3.6	8.46e-01	0	27	104	0	60	37228
2026-01-16 17:04:59.71	21.65	0.33	-48.0	-60.2	3.6	8.45e-01	0	27	104	0	60	37107
2026-01-16 17:05:00.72	21.64	0.39	-48.1	-60.2	3.6	8.44e-01	0	27	104	0	60	37173
2026-01-16 17:05:01.73	21.64	0.45	-48.0	-60.2	3.6	8.44e-01	0	27	104	0	60	37122
2026-01-16 17:05:02.74	21.64	0.51	-47.9	-60.1	3.6	8.45e-01	0	27	104	0	60	36669
2026-01-16 17:05:03.75	21.63	0.57	-47.9	-60.0	3.6	8.45e-01	0	27	104	0	60	36127
2026-01-16 17:05:04.76	21.63	0.64	-47.8	-59.9	3.6	8.46e-01	0	27	104	0	60	35885
2026-01-16 17:05:05.77	21.63	0.70	-47.6	-59.8	3.6	8.46e-01	0	28	104	0	60	35164
2026-01-16 17:05:06.78	21.62	0.76	-47.4	-59.5	3.6	8.43e-01	0	27	104	0	60	33989
2026-01-16 17:05:07.79	21.62	0.82	-47.3	-59.4	3.6	8.45e-01	0	28	104	0	60	33637
2026-01-16 17:05:08.80	21.62	0.88	-47.1	-59.2	3.6	8.45e-01	0	27	104	0	60	32870
2026-01-16 17:05:09.81	21.62	0.95	-46.7	-58.9	3.6	8.46e-01	0	28	104	0	60	31667
2026-01-16 17:05:10.82	21.61	1.01	-46.4	-58.4	3.6	8.45e-01	0	28	104	0	60	30187
2026-01-16 17:05:11.83	21.61	1.07	-46.4	-58.4	3.6	8.45e-01	0	28	104	0	60	30123
2026-01-16 17:05:12.84	21.61	1.13	-46.4	-58.4	3.6	8.45e-01	0	28	104	0	60	30121
2026-01-16 17:05:13.85	21.60	1.19	-46.4	-58.4	3.6	8.46e-01	0	28	104	0	60	30037
2026-01-16 17:05:14.86	21.60	1.26	-46.3	-58.1	3.6	8.44e-01	0	28	104	0	60	29086
2026-01-16 17:05:15.86	21.60	1.32	-46.3	-58.1	3.6	8.45e-01	0	28	104	0	60	28990
2026-01-16 17:05:16.87	21.59	1.38	-46.3	-58.0	3.6	8.44e-01	0	28	104	0	60	28762
2026-01-16 17:05:17.88	21.59	1.45	-46.3	-58.1	3.6	8.45e-01	0	28	104	0	60	28896
2026-01-16 17:05:18.89	21.58	1.51	-46.3	-58.1	3.5	8.46e-01	0	28	104	0	60	29056
2026-01-16 17:05:19.90	21.58	1.57	-46.3	-58.1	3.6	8.45e-01	0	28	104	0	60	29196
2026-01-16 17:05:20.91	21.58	1.64	-46.3	-58.3	3.6	8.44e-01	0	28	104	0	60	29805
2026-01-16 17:05:21.92	21.57	1.70	-46.3	-58.3	3.6	8.46e-01	0	28	104	0	60	29883
2026-01-16 17:05:22.93	21.57	1.76	-46.3	-58.4	3.6	8.44e-01	0	28	104	0	60	30138
2026-01-16 17:05:23.94	21.57	1.83	-46.3	-58.4	3.6	8.46e-01	0	28	104	0	60	30214
2026-01-16 17:05:24.95	21.56	1.89	-46.3	-58.4	3.6	8.45e-01	0	28	104	0	60	30196
2026-01-16 17:05:25.96	21.56	1.96	-46.3	-58.3	3.6	8.46e-01	0	28	104	0	60	29831
2026-01-16 17:05:26.97	21.56	2.02	-46.3	-58.3	3.6	8.45e-01	0	28	104	0	60	29657
2026-01-16 17:05:27.98	21.55	2.08	-46.3	-58.2	3.6	8.45e-01	0	28	104	0	60	29423
2026-01-16 17:05:28.99	21.55	2.15	-46.3	-57.9	3.6	8.45e-01	0	28	104	0	60	28498
2026-01-16 17:05:30.00	21.54	2.21	-46.3	-57.4	3.6	8.45e-01	0	28	104	0	60	26915
2026-01-16 17:05:31.01	21.54	2.28	-46.2	-56.6	3.6	8.44e-01	0	28	104	0	60	24548
2026-01-16 17:05:32.02	21.54	2.34	-46.1	-55.6	3.7	8.43e-01	0	28	0	0	60	21904
2026-01-16 17:05:33.03	21.53	2.41	-46.0	-55.4	3.9	8.42e-01	0	28	104	0	60	21292
2026-01-16 17:05:34.04	21.53	2.48	-45.9	-53.4	3.8	8.32e-01	0	28	0	0	60	16937
2026-01-16 17:05:35.05	21.52	2.54	-45.8	-52.9	4.0	8.23e-01	0	28	0	0	60	15957
2026-01-16 17:05:36.06	21.52	2.61	-45.9	-54.8	3.7	8.31e-01	0	28	104	0	60	19828
2026-01-16 17:05:37.07	21.52	2.67	-45.8	-53.8	4.3	7.58e-01	0	28	104	0	60	17636
2026-01-16 17:05:38.08	21.51	2.74	-45.5	-51.1	5.2	7.47e-01	0	28	0	0	60	12935
2026-01-16 17:05:39.09	21.51	2.80	-44.5	-48.5	8.4	1.50e-01	0	28	0	4194304	60	9606
2026-01-16 17:05:40.10	21.50	2.87	-44.3	-48.0	9.1	6.04e-02	0	28	0	10485760	60	9118
2026-01-16 17:05:41.11	21.50	2.94	-43.2	-46.0	11.7	3.42e-03	0	28	0	15728640	60	7200
2026-01-16 17:05:42.12	21.49	3.00	-41.3	-43.1	14.3	1.94e-05	0	28	0	22020096	56	6498
2026-01-16 17:05:43.13	21.49	3.07	-40.7	-42.4	15.1	0.00e+00	0	28	0	27262976	56	6000
2026-01-16 17:05:44.14	21.48	3.14	-39.1	-40.4	17.2	0.00e+00	0	28	0	32505856	52	5969
2026-01-16 17:05:45.15	21.48	3.21	-38.9	-40.2	17.4	0.00e+00	0	28	0	38797312	52	5842
2026-01-16 17:05:46.16	21.48	3.27	-38.2	-39.3	18.2	0.00e+00	0	28	0	44040192	50	5948
2026-01-16 17:05:47.17	21.47	3.34	-37.6	-38.7	18.8	0.00e+00	0	28	0	50331648	48	6201
2026-01-16 17:05:48.18	21.47	3.41	-37.4	-38.5	18.9	0.00e+00	0	28	0	55574528	48	6047
2026-01-16 17:05:49.19	21.46	3.48	-37.9	-39.1	18.3	0.00e+00	0	28	0	60817408	48	6494
2026-01-16 17:05:50.19	21.46	3.54	-38.2	-39.4	18.0	0.00e+00	0	28	0	67108864	48	6693
2026-01-16 17:05:51.20	21.45	3.61	-38.8	-40.1	17.3	0.00e+00	0	28	0	72351744	50	6508
2026-01-16 17:05:52.21	21.45	3.68	-39.4	-40.7	16.8	0.00e+00	0	28	0	78643200	52	6244
2026-01-16 17:05:53.22	21.44	3.75	-35.6	-36.6	20.9	0.00e+00	0	28	0	83886080	44	6112
2026-01-16 17:05:54.24	21.44	3.82	-40.1	-41.6	17.9	0.00e+00	0	28	0	89128960	52	6915
2026-01-16 17:05:55.25	21.43	3.89	-46.0	-56.4	3.6	8.44e-01	0	28	104	92274688	60	23919
2026-01-16 17:05:56.26	21.43	3.95	-36.9	-37.9	18.7	7.80e-01	0	28	104	92274688	48	5695
2026-01-16 17:05:57.27	21.42	4.02	-46.2	-55.7	3.8	8.43e-01	0	28	104	92274688	60	21976
2026-01-16 17:05:58.28	21.42	4.09	-37.0	-38.1	19.5	0.00e+00	0	29	0	93323264	48	5762
2026-01-16 17:05:59.29	21.41	4.16	-37.2	-38.2	19.5	0.00e+00	0	28	0	98566144	48	5836
2026-01-16 17:06:00.30	21.41	4.23	-35.9	-36.8	20.8	0.00e+00	0	29	0	103809024	46	5571
2026-01-16 17:06:01.31	21.40	4.30	-35.5	-36.4	21.2	0.00e+00	0	29	0	110100480	44	5972
2026-01-16 17:06:02.32	21.40	4.37	-35.1	-35.9	21.8	0.00e+00	0	28	0	115343360	44	5672
2026-01-16 17:06:03.32	21.39	4.44	-35.0	-35.9	21.7	0.00e+00	0	29	0	121634816	44	5647
2026-01-16 17:06:04.33	21.39	4.51	-35.0	-35.9	21.7	0.00e+00	0	28	0	126877696	44	5641
2026-01-16 17:06:05.34	21.38	4.58	-35.2	-36.1	21.5	0.00e+00	0	28	0	133169152	44	5771
2026-01-16 17:06:06.35	21.38	4.65	-35.0	-35.8	21.8	0.00e+00	0	29	0	138412032	44	5630
2026-01-16 17:06:07.36	21.37	4.72	-35.1	-35.9	21.6	0.00e+00	0	29	0	144703488	44	5663
2026-01-16 17:06:08.37	21.36	4.80	-34.8	-35.6	21.9	0.00e+00	0	29	0	149946368	44	5489
2026-01-16 17:06:09.38	21.36	4.87	-35.2	-36.1	21.6	0.00e+00	0	29	0	155189248	44	5768
2026-01-16 17:06:10.39	21.35	4.94	-35.1	-35.9	21.8	0.00e+00	0	28	0	161480704	44	5675
2026-01-16 17:06:11.40	21.35	5.01	-35.0	-35.9	21.8	0.00e+00	0	28	0	166723584	44	5646
2026-01-16 17:06:12.41	21.34	5.08	-35.2	-36.0	21.7	0.00e+00	0	29	0	173015040	44	5741
2026-01-16 17:06:13.43	21.34	5.16	-35.2	-36.0	21.7	0.00e+00	0	28	0	178257920	44	5728
2026-01-16 17:06:14.44	21.33	5.23	-34.9	-35.7	21.9	0.00e+00	0	28	0	183500800	44	5532
2026-01-16 17:06:15.45	21.32	5.30	-34.8	-35.7	22.0	0.00e+00	0	29	0	189792256	44	5523
2026-01-16 17:06:16.46	21.32	5.37	-34.8	-35.7	22.0	0.00e+00	0	29	0	195035136	44	5509
2026-01-16 17:06:17.47	21.31	5.45	-34.9	-35.7	22.1	0.00e+00	0	29	0	201326592	42	6198
2026-01-16 17:06:18.48	21.31	5.52	-34.8	-35.6	22.2	0.00e+00	0	29	0	206569472	42	6141
2026-01-16 17:06:19.49	21.30	5.59	-34.7	-35.5	22.3	0.00e+00	0	29	0	211812352	42	6087
2026-01-16 17:06:20.50	21.29	5.67	-34.8	-35.6	22.2	0.00e+00	0	29	0	218103808	42	6114
2026-01-16 17:06:21.51	21.29	5.74	-34.8	-35.6	22.3	0.00e+00	0	29	0	223346688	42	6130
2026-01-16 17:06:22.52	21.28	5.81	-34.7	-35.5	22.3	0.00e+00	0	29	0	229638144	42	6059
2026-01-16 17:06:23.53	21.28	5.89	-34.5	-35.3	22.5	0.00e+00	0	29	0	234881024	42	5926
2026-01-16 17:06:24.54	21.27	5.96	-34.5	-35.3	22.5	0.00e+00	0	29	0	241172480	42	5925
2026-01-16 17:06:25.55	21.26	6.04	-34.6	-35.3	22.4	0.00e+00	0	29	0	246415360	42	5964
2026-01-16 17:06:26.55	21.26	6.11	-34.4	-35.2	22.6	0.00e+00	0	29	0	251658240	42	5865
2026-01-16 17:06:27.57	21.25	6.19	-34.6	-35.4	22.5	0.00e+00	0	29	0	257949696	42	5971
2026-01-16 17:06:28.58	21.24	6.26	-34.6	-35.4	22.5	0.00e+00	0	29	0	263192576	42	6026
2026-01-16 17:06:29.59	21.24	6.34	-34.5	-35.2	22.6	0.00e+00	0	29	0	269484032	42	5894
2026-01-16 17:06:30.60	21.23	6.41	-34.4	-35.2	22.7	0.00e+00	0	29	0	274726912	42	5872
2026-01-16 17:06:31.61	21.22	6.49	-34.3	-35.1	22.7	0.00e+00	0	29	0	279969792	42	5772
2026-01-16 17:06:32.62	21.22	6.57	-34.3	-35.1	22.8	0.00e+00	0	29	0	286261248	42	5821
2026-01-16 17:06:33.63	21.21	6.64	-34.2	-35.0	22.9	0.00e+00	0	29	0	291504128	42	5703
2026-01-16 17:06:34.64	21.20	6.72	-34.3	-35.0	22.8	0.00e+00	0	29	0	297795584	42	5750
2026-01-16 17:06:35.65	21.20	6.80	-34.1	-34.8	23.0	0.00e+00	0	29	0	303038464	42	5626
2026-01-16 17:06:36.66	21.19	6.87	-34.1	-34.8	23.0	0.00e+00	0	29	0	308281344	42	5629
2026-01-16 17:06:37.67	21.18	6.95	-34.2	-35.0	23.0	0.00e+00	0	29	0	314572800	42	5703
2026-01-16 17:06:38.68	21.17	7.03	-34.4	-35.1	22.9	0.00e+00	0	29	0	319815680	42	5802
2026-01-16 17:06:39.69	21.17	7.10	-34.2	-35.0	22.9	0.00e+00	0	29	0	326107136	42	5723
2026-01-16 17:06:40.70	21.16	7.18	-33.9	-34.7	23.2	0.00e+00	0	29	0	331350016	42	5503
2026-01-16 17:06:41.71	21.15	7.26	-34.0	-34.7	23.2	0.00e+00	0	29	0	337641472	42	5541
2026-01-16 17:06:42.73	21.14	7.34	-33.9	-34.6	23.3	0.00e+00	0	29	0	342884352	42	5467
2026-01-16 17:06:43.73	21.14	7.42	-33.8	-34.5	23.4	0.00e+00	0	29	0	349175808	42	5424
2026-01-16 17:06:44.74	21.13	7.50	-33.9	-34.6	23.3	0.00e+00	0	29	0	354418688	40	6143
2026-01-16 17:06:45.75	21.12	7.58	-33.8	-34.5	23.4	0.00e+00	0	29	0	359661568	40	6068
2026-01-16 17:06:46.77	21.11	7.66	-33.8	-34.5	23.4	0.00e+00	0	29	0	365953024	40	6098
2026-01-16 17:06:47.78	21.11	7.74	-33.8	-34.5	23.4	0.00e+00	0	29	0	371195904	40	6063
2026-01-16 17:06:48.79	21.10	7.82	-33.7	-34.4	23.4	0.00e+00	0	29	0	377487360	40	6015
2026-01-16 17:06:49.80	21.09	7.90	-33.9	-34.7	23.3	0.00e+00	0	29	0	382730240	40	6189
2026-01-16 17:06:50.81	21.08	7.98	-33.7	-34.4	23.5	0.00e+00	0	29	0	387973120	40	6017
2026-01-16 17:06:51.82	21.07	8.06	-33.7	-34.4	23.5	0.00e+00	0	29	0	394264576	40	5989
2026-01-16 17:06:52.83	21.07	8.14	-33.8	-34.5	23.4	0.00e+00	0	29	0	399507456	40	6101
2026-01-16 17:06:53.84	21.06	8.22	-33.7	-34.4	23.6	0.00e+00	0	29	0	405798912	40	5986
2026-01-16 17:06:54.85	21.05	8.30	-33.8	-34.5	23.4	0.00e+00	0	29	0	411041792	40	6064
2026-01-16 17:06:55.86	21.04	8.38	-33.5	-34.2	23.8	0.00e+00	0	29	0	416284672	40	5870
2026-01-16 17:06:56.87	21.03	8.46	-33.4	-34.1	23.8	0.00e+00	0	29	0	422576128	40	5828
2026-01-16 17:06:57.88	21.03	8.55	-33.4	-34.2	23.8	0.00e+00	0	29	0	427819008	40	5842
2026-01-16 17:06:58.89	21.02	8.63	-33.3	-34.0	23.9	0.00e+00	0	29	0	434110464	40	5722
2026-01-16 17:06:59.90	21.01	8.71	-33.3	-34.0	23.9	0.00e+00	0	29	0	439353344	40	5709
2026-01-16 17:07:00.90	21.00	8.79	-33.3	-34.0	23.9	0.00e+00	0	29	0	445644800	40	5728
2026-01-16 17:07:01.91	20.99	8.88	-33.2	-34.0	24.0	0.00e+00	0	29	0	450887680	40	5699
2026-01-16 17:07:02.92	20.98	8.96	-33.2	-33.9	24.1	0.00e+00	0	29	0	457179136	40	5640
2026-01-16 17:07:03.93	20.97	9.05	-33.0	-33.7	24.2	0.00e+00	0	29	0	462422016	40	5551
2026-01-16 17:07:04.94	20.96	9.13	-33.1	-33.8	24.1	0.00e+00	0	29	0	467664896	40	5615
2026-01-16 17:07:05.95	20.96	9.21	-33.1	-33.8	24.1	0.00e+00	0	29	0	473956352	40	5575
2026-01-16 17:07:06.96	20.95	9.30	-32.9	-33.6	24.3	0.00e+00	0	29	0	479199232	40	5501
2026-01-16 17:07:07.97	20.94	9.38	-32.9	-33.6	24.3	0.00e+00	0	29	0	485490688	40	5494
2026-01-16 17:07:08.98	20.93	9.47	-32.9	-33.6	24.4	0.00e+00	0	29	0	490733568	40	5490
2026-01-16 17:07:09.99	20.92	9.55	-33.0	-33.7	24.3	0.00e+00	0	29	0	495976448	40	5517
2026-01-16 17:07:11.00	20.91	9.64	-33.0	-33.7	24.3	0.00e+00	0	29	0	502267904	40	5548
2026-01-16 17:07:12.01	20.90	9.73	-32.9	-33.6	24.3	0.00e+00	0	29	0	507510784	40	5477
2026-01-16 17:07:13.02	20.89	9.81	-32.9	-33.6	24.3	0.00e+00	0	29	0	513802240	40	5485
2026-01-16 17:07:14.03	20.88	9.90	-32.7	-33.4	24.5	0.00e+00	0	29	0	519045120	38	5989
2026-01-16 17:07:15.04	20.87	9.99	-32.9	-33.6	24.4	0.00e+00	0	29	0	524288000	38	6124
2026-01-16 17:07:16.05	20.86	10.08	-32.8	-33.5	24.5	0.00e+00	0	29	0	530579456	38	6069
2026-01-16 17:07:17.06	20.85	10.16	-32.7	-33.3	24.6	0.00e+00	0	29	0	535822336	38	5964
2026-01-16 17:07:18.07	20.84	10.25	-32.7	-33.4	24.6	0.00e+00	0	29	0	542113792	38	5989
2026-01-16 17:07:19.07	20.83	10.34	-32.8	-33.5	24.6	0.00e+00	0	29	0	547356672	38	6049
2026-01-16 17:07:20.08	20.82	10.43	-32.6	-33.3	24.6	0.00e+00	0	29	0	553648128	38	5941
2026-01-16 17:07:21.10	20.81	10.52	-32.6	-33.3	24.7	0.00e+00	0	29	0	558891008	38	5942
2026-01-16 17:07:22.11	20.80	10.61	-32.7	-33.4	24.5	0.00e+00	0	29	0	564133888	38	5989
2026-01-16 17:07:23.12	20.79	10.70	-32.5	-33.2	24.7	0.00e+00	0	29	0	570425344	38	5873
2026-01-16 17:07:24.13	20.78	10.79	-32.7	-33.4	24.5	0.00e+00	0	29	0	575668224	38	6002
2026-01-16 17:07:25.14	20.77	10.88	-32.6	-33.3	24.7	0.00e+00	0	29	0	581959680	38	5927
2026-01-16 17:07:26.15	20.76	10.97	-32.6	-33.3	24.6	0.00e+00	0	29	0	587202560	38	5956
2026-01-16 17:07:27.16	20.75	11.06	-32.7	-33.4	24.6	0.00e+00	0	29	0	592445440	38	5965
2026-01-16 17:07:28.17	20.74	11.15	-32.7	-33.4	24.5	0.00e+00	0	29	0	598736896	38	6024
2026-01-16 17:07:29.18	20.72	11.24	-32.5	-33.2	24.7	0.00e+00	0	29	0	603979776	38	5864
2026-01-16 17:07:30.19	20.71	11.33	-32.6	-33.3	24.6	0.00e+00	0	29	0	610271232	38	5932
2026-01-16 17:07:31.19	20.70	11.42	-32.5	-33.2	24.9	0.00e+00	0	29	0	615514112	38	5832
2026-01-16 17:07:32.20	20.69	11.52	-32.5	-33.2	24.8	0.00e+00	0	29	0	620756992	38	5875
2026-01-16 17:07:33.21	20.68	11.61	-32.5	-33.2	24.8	0.00e+00	0	29	0	627048448	38	5857
2026-01-16 17:07:34.22	20.67	11.70	-32.5	-33.2	24.8	0.00e+00	0	29	0	632291328	38	5837
2026-01-16 17:07:35.23	20.66	11.80	-32.6	-33.3	24.7	0.00e+00	0	29	0	638582784	38	5928
2026-01-16 17:07:36.24	20.64	11.89	-32.4	-33.1	25.0	0.00e+00	0	29	0	643825664	38	5797
2026-01-16 17:07:37.25	20.63	11.99	-32.5	-33.2	24.8	0.00e+00	0	29	0	650117120	38	5847
2026-01-16 17:07:38.26	20.62	12.08	-32.6	-33.3	24.7	0.00e+00	0	29	0	655360000	38	5937
2026-01-16 17:07:39.27	20.61	12.18	-32.6	-33.3	24.7	0.00e+00	0	29	0	661651456	38	5898
2026-01-16 17:07:40.28	20.60	12.27	-32.5	-33.2	24.9	0.00e+00	0	29	0	666894336	38	5840
2026-01-16 17:07:41.29	20.58	12.37	-32.5	-33.2	24.8	0.00e+00	0	29	0	672137216	38	5879
2026-01-16 17:07:42.30	20.57	12.46	-32.5	-33.2	24.8	0.00e+00	0	29	0	678428672	38	5859
2026-01-16 17:07:43.31	20.56	12.56	-32.5	-33.2	24.9	0.00e+00	0	29	0	683671552	38	5836
2026-01-16 17:07:44.32	20.55	12.66	-32.5	-33.2	24.9	0.00e+00	0	29	0	689963008	38	5835
2026-01-16 17:07:45.33	20.53	12.76	-32.4	-33.1	25.0	0.00e+00	0	29	0	695205888	38	5816
2026-01-16 17:07:46.34	20.52	12.85	-32.4	-33.1	25.0	0.00e+00	0	29	0	700448768	38	5803
2026-01-16 17:07:47.35	20.51	12.95	-32.3	-33.0	25.0	0.00e+00	0	29	0	706740224	38	5748
2026-01-16 17:07:48.36	20.50	13.05	-32.3	-32.9	25.1	0.00e+00	0	29	0	711983104	38	5678
2026-01-16 17:07:49.37	20.48	13.15	-32.2	-32.9	25.2	0.00e+00	0	29	0	718274560	38	5663
2026-01-16 17:07:50.38	20.47	13.25	-32.2	-32.9	25.2	0.00e+00	0	29	0	723517440	38	5656
2026-01-16 17:07:51.39	20.46	13.35	-32.2	-32.8	25.1	0.00e+00	0	29	0	728760320	38	5613
2026-01-16 17:07:52.40	20.44	13.45	-32.1	-32.8	25.2	0.00e+00	0	29	0	735051776	38	5577
2026-01-16 17:07:53.41	20.43	13.55	-32.2	-32.8	25.2	0.00e+00	0	29	0	740294656	38	5613
2026-01-16 17:07:54.42	20.41	13.65	-32.1	-32.8	25.3	0.00e+00	0	29	0	746586112	38	5605
2026-01-16 17:07:55.43	20.40	13.75	-32.1	-32.8	25.3	0.00e+00	0	29	0	751828992	38	5585
2026-01-16 17:07:56.44	20.39	13.85	-31.9	-32.6	25.4	0.00e+00	0	29	0	758120448	38	5477
2026-01-16 17:07:57.45	20.37	13.96	-31.8	-32.5	25.5	0.00e+00	0	29	0	763363328	38	5425
2026-01-16 17:07:58.46	20.36	14.06	-31.8	-32.5	25.4	0.00e+00	0	29	0	768606208	38	5407
2026-01-16 17:07:59.47	20.34	14.16	-31.7	-32.4	25.6	0.00e+00	0	29	0	774897664	36	6006
2026-01-16 17:08:00.48	20.33	14.27	-31.7	-32.4	25.6	0.00e+00	0	29	0	780140544	36	5974
2026-01-16 17:08:01.49	20.32	14.37	-31.7	-32.4	25.5	0.00e+00	0	29	0	786432000	36	5976
2026-01-16 17:08:02.50	20.30	14.48	-31.7	-32.4	25.6	0.00e+00	0	29	0	791674880	36	5993
2026-01-16 17:08:03.51	20.29	14.58	-31.7	-32.4	25.7	0.00e+00	0	29	0	797966336	36	5994
2026-01-16 17:08:04.52	20.27	14.69	-31.6	-32.2	25.8	0.00e+00	0	29	0	803209216	36	5892
2026-01-16 17:08:05.53	20.26	14.79	-31.7	-32.3	25.7	0.00e+00	0	29	0	808452096	36	5952
2026-01-16 17:08:06.54	20.24	14.90	-31.5	-32.1	25.8	0.00e+00	0	29	0	814743552	36	5823
2026-01-16 17:08:07.55	20.22	15.01	-31.4	-32.0	25.8	0.00e+00	0	29	0	819986432	36	5720
2026-01-16 17:08:08.57	20.21	15.11	-31.4	-32.0	25.9	0.00e+00	0	29	0	826277888	36	5748
2026-01-16 17:08:09.58	20.19	15.22	-31.4	-32.1	25.9	0.00e+00	0	29	0	831520768	36	5772
2026-01-16 17:08:10.59	20.18	15.33	-31.4	-32.1	25.8	0.00e+00	0	29	0	836763648	36	5769
2026-01-16 17:08:11.60	20.16	15.44	-31.3	-31.9	26.0	0.00e+00	0	29	0	843055104	36	5669
2026-01-16 17:08:12.61	20.15	15.55	-31.2	-31.8	26.1	0.00e+00	0	29	0	848297984	36	5610
2026-01-16 17:08:13.61	20.13	15.66	-31.2	-31.9	26.1	0.00e+00	0	29	0	854589440	36	5637
2026-01-16 17:08:14.62	20.11	15.77	-31.2	-31.8	26.1	0.00e+00	0	29	0	859832320	36	5620
2026-01-16 17:08:15.63	20.10	15.88	-31.0	-31.7	26.3	0.00e+00	0	29	0	866123776	36	5528
2026-01-16 17:08:16.64	20.08	15.99	-31.1	-31.8	26.2	0.00e+00	0	29	0	871366656	36	5571
2026-01-16 17:08:17.65	20.06	16.10	-31.1	-31.8	26.2	0.00e+00	0	29	0	876609536	36	5567
2026-01-16 17:08:18.65	20.05	16.21	-31.1	-31.8	26.1	0.00e+00	0	30	0	882900992	36	5571
2026-01-16 17:08:19.66	20.03	16.32	-31.1	-31.7	26.3	0.00e+00	0	29	0	888143872	36	5553
2026-01-16 17:08:20.67	20.01	16.44	-31.1	-31.7	26.3	0.00e+00	0	29	0	894435328	36	5563
2026-01-16 17:08:21.68	19.99	16.55	-31.1	-31.7	26.2	0.00e+00	0	29	0	899678208	36	5551
2026-01-16 17:08:22.69	19.98	16.67	-30.9	-31.6	26.3	0.00e+00	0	29	0	904921088	36	5455
2026-01-16 17:08:23.70	19.96	16.78	-30.9	-31.6	26.4	0.00e+00	0	30	0	911212544	36	5444
2026-01-16 17:08:24.71	19.94	16.90	-30.9	-31.6	26.4	0.00e+00	0	30	0	916455424	36	5464
2026-01-16 17:08:25.72	19.92	17.01	-30.9	-31.6	26.3	0.00e+00	0	29	0	922746880	36	5462
2026-01-16 17:08:26.73	19.90	17.13	-30.7	-31.4	26.5	0.00e+00	0	30	0	927989760	36	5335
2026-01-16 17:08:27.74	19.88	17.25	-30.7	-31.4	26.5	0.00e+00	0	30	0	933232640	34	5974
2026-01-16 17:08:28.75	19.87	17.36	-30.6	-31.3	26.5	0.00e+00	0	30	0	939524096	34	5945
2026-01-16 17:08:29.76	19.85	17.48	-30.7	-31.3	26.6	0.00e+00	0	29	0	944766976	34	5951
2026-01-16 17:08:30.77	19.83	17.60	-30.5	-31.1	26.7	0.00e+00	0	30	0	951058432	34	5815
2026-01-16 17:08:31.78	19.81	17.72	-30.6	-31.2	26.7	0.00e+00	0	30	0	956301312	34	5882
2026-01-16 17:08:32.79	19.79	17.84	-30.5	-31.1	26.7	0.00e+00	0	30	0	962592768	34	5804
2026-01-16 17:08:33.80	19.77	17.96	-30.3	-31.0	26.9	0.00e+00	0	29	0	967835648	34	5732
2026-01-16 17:08:34.81	19.75	18.08	-30.3	-30.9	26.9	0.00e+00	0	30	0	974127104	34	5658
2026-01-16 17:08:35.82	19.73	18.20	-30.3	-30.9	26.9	0.00e+00	0	30	0	979369984	34	5667
2026-01-16 17:08:36.83	19.71	18.33	-30.1	-30.7	27.0	0.00e+00	0	30	0	984612864	34	5559
2026-01-16 17:08:37.84	19.69	18.45	-30.2	-30.8	27.0	0.00e+00	0	30	0	990904320	34	5598
2026-01-16 17:08:38.85	19.67	18.57	-30.0	-30.6	27.2	0.00e+00	0	30	0	996147200	34	5486
2026-01-16 17:08:39.86	19.65	18.70	-30.0	-30.7	27.1	0.00e+00	0	30	0	1001390080	34	5509
2026-01-16 17:08:40.87	19.63	18.82	-30.0	-30.6	27.1	0.00e+00	0	30	0	1007681536	34	5471
2026-01-16 17:08:41.88	19.60	18.95	-30.0	-30.6	27.2	0.00e+00	0	30	0	1012924416	34	5465
2026-01-16 17:08:42.89	19.58	19.07	-29.9	-30.5	27.2	0.00e+00	0	30	0	1019215872	34	5430
2026-01-16 17:08:43.90	19.56	19.20	-30.1	-30.7	27.1	0.00e+00	0	30	0	1024458752	34	5544
2026-01-16 17:08:44.91	19.54	19.33	-29.8	-30.5	27.3	0.00e+00	0	30	0	1030750208	34	5390
2026-01-16 17:08:45.92	19.52	19.46	-30.0	-30.6	27.1	0.00e+00	0	30	0	1035993088	34	5500
2026-01-16 17:08:46.93	19.49	19.58	-30.0	-30.6	27.2	0.00e+00	0	30	0	1041235968	34	5447
2026-01-16 17:08:47.94	19.47	19.71	-29.8	-30.5	27.3	0.00e+00	0	30	0	1047527424	34	5384
2026-01-16 17:08:48.95	19.45	19.84	-29.8	-30.5	27.3	0.00e+00	0	30	0	1052770304	34	5396
2026-01-16 17:08:49.96	19.43	19.97	-30.0	-30.7	27.2	0.00e+00	0	30	0	1059061760	34	5503
2026-01-16 17:08:50.97	19.40	20.11	-29.9	-30.5	27.3	0.00e+00	0	30	0	1064304640	34	5431
2026-01-16 17:08:51.98	19.38	20.24	-30.0	-30.6	27.2	0.00e+00	0	30	0	1070596096	34	5492
2026-01-16 17:08:52.99	19.36	20.37	-30.1	-30.7	27.2	0.00e+00	0	30	0	1075838976	34	5524
2026-01-16 17:08:54.00	19.33	20.50	-30.0	-30.6	27.2	0.00e+00	0	30	0	1081081856	34	5491
2026-01-16 17:08:55.01	19.31	20.64	-30.1	-30.8	27.1	0.00e+00	0	30	0	1087373312	34	5567
2026-01-16 17:08:56.02	19.28	20.77	-30.2	-30.8	27.1	0.00e+00	0	30	0	1092616192	34	5589
2026-01-16 17:08:57.03	19.26	20.91	-30.0	-30.6	27.1	0.00e+00	0	30	0	1098907648	34	5502
2026-01-16 17:08:58.04	19.23	21.05	-30.1	-30.8	27.1	0.00e+00	0	30	0	1104150528	34	5576
2026-01-16 17:08:59.05	19.21	21.18	-30.2	-30.8	27.2	0.00e+00	0	30	0	1109393408	34	5600
2026-01-16 17:09:00.06	19.18	21.32	-30.3	-31.0	27.0	0.00e+00	0	30	0	1115684864	34	5721
2026-01-16 17:09:01.07	19.16	21.46	-30.3	-30.9	27.0	0.00e+00	0	30	0	1120927744	34	5679
2026-01-16 17:09:02.08	19.13	21.60	-30.2	-30.9	27.1	0.00e+00	0	30	0	1127219200	34	5641
2026-01-16 17:09:03.09	19.10	21.74	-30.2	-30.9	27.1	0.00e+00	0	30	0	1132462080	34	5650
2026-01-16 17:09:04.10	19.08	21.88	-30.3	-31.0	27.0	0.00e+00	0	30	0	1137704960	34	5713
2026-01-16 17:09:05.12	19.05	22.02	-30.3	-30.9	27.0	0.00e+00	0	30	0	1143996416	34	5681
2026-01-16 17:09:06.12	19.02	22.16	-30.1	-30.8	27.1	0.00e+00	0	30	0	1149239296	34	5609
2026-01-16 17:09:07.13	19.00	22.31	-30.1	-30.8	27.1	0.00e+00	0	30	0	1155530752	34	5600
2026-01-16 17:09:08.14	18.97	22.45	-30.0	-30.7	27.1	0.00e+00	0	30	0	1160773632	34	5546
2026-01-16 17:09:09.16	18.94	22.60	-30.0	-30.7	27.3	0.00e+00	0	30	0	1167065088	34	5513
2026-01-16 17:09:10.17	18.91	22.74	-30.0	-30.7	27.3	0.00e+00	0	30	0	1172307968	34	5514
2026-01-16 17:09:11.18	18.88	22.89	-30.0	-30.7	27.3	0.00e+00	0	30	0	1178599424	34	5508
2026-01-16 17:09:12.19	18.85	23.04	-29.9	-30.5	27.4	0.00e+00	0	30	0	1183842304	34	5414
2026-01-16 17:09:13.20	18.82	23.19	-29.8	-30.5	27.4	0.00e+00	0	30	0	1189085184	34	5390
2026-01-16 17:09:14.21	18.79	23.33	-29.8	-30.4	27.4	0.00e+00	0	30	0	1195376640	32	6004
2026-01-16 17:09:15.22	18.76	23.48	-29.7	-30.3	27.5	0.00e+00	0	30	0	1200619520	32	5961
2026-01-16 17:09:16.23	18.73	23.63	-29.6	-30.3	27.5	0.00e+00	0	30	0	1206910976	32	5930
2026-01-16 17:09:17.24	18.70	23.79	-29.5	-30.2	27.7	0.00e+00	0	30	0	1212153856	32	5857
2026-01-16 17:09:18.24	18.67	23.94	-29.7	-30.3	27.5	0.00e+00	0	30	0	1217396736	32	5923
2026-01-16 17:09:19.26	18.64	24.09	-29.5	-30.1	27.7	0.00e+00	0	30	0	1223688192	32	5823
2026-01-16 17:09:20.26	18.61	24.25	-29.4	-30.1	27.8	0.00e+00	0	30	0	1228931072	32	5767
2026-01-16 17:09:21.28	18.58	24.40	-29.5	-30.1	27.7	0.00e+00	0	30	0	1235222528	32	5799
2026-01-16 17:09:22.29	18.55	24.56	-29.4	-30.1	27.8	0.00e+00	0	30	0	1240465408	32	5774
2026-01-16 17:09:23.30	18.51	24.72	-29.3	-29.9	27.9	0.00e+00	0	30	0	1245708288	32	5692
2026-01-16 17:09:24.30	18.48	24.87	-29.4	-30.0	27.7	0.00e+00	0	30	0	1251999744	32	5746
2026-01-16 17:09:25.31	18.45	25.03	-29.4	-30.0	27.8	0.00e+00	0	30	0	1257242624	32	5748
2026-01-16 17:09:26.32	18.41	25.19	-29.3	-29.9	27.8	0.00e+00	0	30	0	1263534080	32	5675
2026-01-16 17:09:27.34	18.38	25.35	-29.3	-30.0	27.9	0.00e+00	0	30	0	1268776960	32	5728
2026-01-16 17:09:28.34	18.34	25.51	-29.4	-30.0	27.8	0.00e+00	0	30	0	1275068416	32	5727
2026-01-16 17:09:29.35	18.31	25.68	-29.4	-30.1	27.8	0.00e+00	0	30	0	1280311296	32	5772
2026-01-16 17:09:30.36	18.27	25.84	-29.3	-29.9	27.8	0.00e+00	0	30	0	1285554176	32	5691
2026-01-16 17:09:31.37	18.24	26.00	-29.3	-29.9	27.9	0.00e+00	0	30	0	1291845632	32	5671
2026-01-16 17:09:32.38	18.20	26.17	-29.1	-29.7	28.0	0.00e+00	0	30	0	1297088512	32	5524
2026-01-16 17:09:33.39	18.17	26.34	-29.3	-29.9	27.9	0.00e+00	0	30	0	1303379968	32	5668
2026-01-16 17:09:34.40	18.13	26.50	-29.0	-29.6	28.0	0.00e+00	0	30	0	1308622848	32	5491
2026-01-16 17:09:35.41	18.09	26.67	-28.9	-29.5	28.1	0.00e+00	0	30	0	1313865728	32	5417
2026-01-16 17:09:36.42	18.05	26.84	-28.8	-29.4	28.1	0.00e+00	0	30	0	1320157184	32	5369
2026-01-16 17:09:37.43	18.01	27.01	-28.8	-29.4	28.3	0.00e+00	0	30	0	1325400064	32	5348
2026-01-16 17:09:38.44	17.98	27.19	-28.9	-29.6	28.2	0.00e+00	0	30	0	1331691520	30	6104
2026-01-16 17:09:39.45	17.94	27.36	-28.8	-29.5	28.2	0.00e+00	0	30	0	1336934400	30	6035
2026-01-16 17:09:40.46	17.90	27.53	-29.0	-29.6	28.2	0.00e+00	0	30	0	1343225856	30	6108
2026-01-16 17:09:41.47	17.86	27.71	-29.0	-29.6	28.1	0.00e+00	0	30	0	1348468736	30	6142
2026-01-16 17:09:42.48	17.82	27.89	-29.0	-29.6	28.1	0.00e+00	0	30	0	1353711616	30	6104
2026-01-16 17:09:43.49	17.77	28.06	-29.1	-29.7	28.1	0.00e+00	0	30	0	1360003072	30	6199
2026-01-16 17:09:44.50	17.73	28.24	-29.0	-29.6	28.2	0.00e+00	0	30	0	1365245952	30	6122
2026-01-16 17:09:45.51	17.69	28.42	-29.1	-29.8	28.1	0.00e+00	0	30	0	1371537408	30	6248
2026-01-16 17:09:46.52	17.65	28.60	-29.0	-29.6	28.1	0.00e+00	0	30	0	1376780288	30	6160
2026-01-16 17:09:47.53	17.60	28.79	-29.0	-29.6	28.1	0.00e+00	0	30	0	1383071744	30	6133
2026-01-16 17:09:48.55	17.56	28.97	-29.1	-29.8	28.0	0.00e+00	0	30	0	1388314624	30	6248
2026-01-16 17:09:49.56	17.51	29.15	-29.0	-29.7	28.1	0.00e+00	0	30	0	1393557504	30	6180
2026-01-16 17:09:50.57	17.47	29.34	-29.0	-29.6	28.2	0.00e+00	0	30	0	1399848960	30	6173
2026-01-16 17:09:51.58	17.42	29.53	-29.0	-29.6	28.2	0.00e+00	0	30	0	1405091840	30	6157
2026-01-16 17:09:52.59	17.38	29.72	-29.1	-29.7	28.1	0.00e+00	0	30	0	1411383296	30	6211
2026-01-16 17:09:53.60	17.33	29.91	-29.1	-29.8	28.1	0.00e+00	0	30	0	1416626176	30	6252
2026-01-16 17:09:54.61	17.28	30.10	-29.1	-29.7	28.0	0.00e+00	0	30	0	1421869056	30	6226
2026-01-16 17:09:55.62	17.24	30.29	-29.0	-29.6	28.1	0.00e+00	0	30	0	1428160512	30	6128
2026-01-16 17:09:56.63	17.19	30.48	-29.0	-29.6	28.2	0.00e+00	0	30	0	1433403392	30	6114
2026-01-16 17:09:57.64	17.14	30.68	-29.0	-29.6	28.2	0.00e+00	0	30	0	1439694848	30	6135
2026-01-16 17:09:58.65	17.09	30.87	-29.0	-29.6	28.2	0.00e+00	0	30	0	1444937728	30	6139
2026-01-16 17:09:59.65	17.04	31.07	-28.8	-29.4	28.2	0.00e+00	0	30	0	1450180608	30	6027
2026-01-16 17:10:00.66	16.99	31.26	-28.9	-29.5	28.1	0.00e+00	0	30	0	1456472064	30	6064
2026-01-16 17:10:01.67	16.94	31.46	-28.9	-29.5	28.3	0.00e+00	0	30	0	1461714944	30	6059
2026-01-16 17:10:02.68	16.88	31.67	-28.8	-29.4	28.3	0.00e+00	0	30	0	1468006400	30	6029
2026-01-16 17:10:03.69	16.83	31.87	-28.8	-29.5	28.2	0.00e+00	0	30	0	1473249280	30	6037
2026-01-16 17:10:04.70	16.78	32.07	-28.7	-29.4	28.4	0.00e+00	0	30	0	1479540736	30	5972
2026-01-16 17:10:05.71	16.72	32.28	-28.8	-29.4	28.3	0.00e+00	0	30	0	1484783616	30	6019
2026-01-16 17:10:06.72	16.67	32.48	-28.7	-29.4	28.3	0.00e+00	0	30	0	1491075072	30	5976
2026-01-16 17:10:07.73	16.61	32.69	-28.7	-29.4	28.4	0.00e+00	0	30	0	1496317952	30	5977
2026-01-16 17:10:08.74	16.55	32.90	-28.8	-29.4	28.4	0.00e+00	0	30	0	1501560832	30	6007
2026-01-16 17:10:09.75	16.49	33.11	-28.7	-29.4	28.3	0.00e+00	0	30	0	1507852288	30	5991
2026-01-16 17:10:10.76	16.44	33.32	-28.7	-29.3	28.4	0.00e+00	0	30	0	1513095168	30	5953
2026-01-16 17:10:11.77	16.38	33.54	-28.7	-29.3	28.4	0.00e+00	0	30	0	1519386624	30	5918
2026-01-16 17:10:12.78	16.32	33.75	-28.6	-29.2	28.5	0.00e+00	0	30	0	1524629504	30	5848
2026-01-16 17:10:13.79	16.26	33.97	-28.6	-29.2	28.5	0.00e+00	0	30	0	1529872384	30	5846
2026-01-16 17:10:14.80	16.19	34.19	-28.5	-29.1	28.7	0.00e+00	0	30	0	1536163840	30	5776
2026-01-16 17:10:15.81	16.13	34.41	-28.2	-28.9	28.7	0.00e+00	0	30	0	1541406720	30	5646
2026-01-16 17:10:16.81	16.07	34.63	-28.1	-28.7	28.8	0.00e+00	0	30	0	1547698176	30	5555
2026-01-16 17:10:17.82	16.00	34.85	-28.3	-28.9	28.7	0.00e+00	0	30	0	1552941056	30	5665
2026-01-16 17:10:18.83	15.94	35.07	-28.1	-28.7	28.8	0.00e+00	0	30	0	1558183936	30	5516
2026-01-16 17:10:19.84	15.87	35.30	-28.1	-28.7	28.8	0.00e+00	0	30	0	1564475392	30	5554
2026-01-16 17:10:20.85	15.80	35.53	-28.1	-28.8	28.7	0.00e+00	0	30	0	1569718272	30	5575
2026-01-16 17:10:21.86	15.73	35.75	-28.2	-28.8	28.8	0.00e+00	0	30	0	1576009728	30	5597
2026-01-16 17:10:22.87	15.66	35.98	-28.3	-28.9	28.6	0.00e+00	0	30	0	1581252608	30	5655
2026-01-16 17:10:23.88	15.59	36.22	-28.4	-29.0	28.6	0.00e+00	0	30	0	1587544064	30	5741
2026-01-16 17:10:24.89	15.52	36.45	-28.5	-29.1	28.6	0.00e+00	0	30	0	1592786944	30	5824
2026-01-16 17:10:25.90	15.45	36.69	-28.6	-29.2	28.5	0.00e+00	0	30	0	1598029824	30	5854
2026-01-16 17:10:26.91	15.37	36.92	-28.7	-29.3	28.4	0.00e+00	0	30	0	1604321280	30	5936
2026-01-16 17:10:27.91	15.30	37.16	-28.7	-29.3	28.3	0.00e+00	0	30	0	1609564160	30	5937
2026-01-16 17:10:28.92	15.22	37.40	-28.6	-29.3	28.5	0.00e+00	0	30	0	1615855616	30	5899
2026-01-16 17:10:29.93	15.15	37.64	-28.7	-29.3	28.5	0.00e+00	0	30	0	1621098496	30	5926
2026-01-16 17:10:30.94	15.07	37.89	-28.4	-29.0	28.7	0.00e+00	0	30	0	1626341376	30	5756
2026-01-16 17:10:31.95	14.99	38.13	-28.5	-29.1	28.6	0.00e+00	0	30	0	1632632832	30	5810
2026-01-16 17:10:32.96	14.91	38.38	-28.4	-29.0	28.7	0.00e+00	0	30	0	1637875712	30	5698
2026-01-16 17:10:33.97	14.82	38.63	-28.5	-29.1	28.6	0.00e+00	0	30	0	1644167168	30	5772
2026-01-16 17:10:34.98	14.74	38.88	-28.2	-28.8	28.8	0.00e+00	0	30	0	1649410048	30	5602
2026-01-16 17:10:35.99	14.66	39.13	-28.3	-28.9	28.7	0.00e+00	0	30	0	1654652928	30	5658
2026-01-16 17:10:37.00	14.57	39.39	-28.4	-29.0	28.6	0.00e+00	0	30	0	1660944384	30	5745
2026-01-16 17:10:38.02	14.48	39.64	-28.3	-28.9	28.7	0.00e+00	0	30	0	1666187264	30	5686
2026-01-16 17:10:39.02	14.39	39.90	-28.5	-29.1	28.6	0.00e+00	0	30	0	1672478720	30	5778
2026-01-16 17:10:40.03	14.30	40.16	-28.7	-29.3	28.4	0.00e+00	0	30	0	1677721600	30	5952
2026-01-16 17:10:41.04	14.21	40.42	-28.9	-29.5	28.3	0.00e+00	0	30	0	1684013056	30	6051
2026-01-16 17:10:42.05	14.11	40.69	-29.0	-29.6	28.2	0.00e+00	0	30	0	1689255936	30	6151
2026-01-16 17:10:43.06	14.02	40.95	-29.1	-29.7	28.1	0.00e+00	0	30	0	1695547392	30	6208
2026-01-16 17:10:44.07	13.92	41.22	-29.0	-29.6	28.2	0.00e+00	0	30	0	1700790272	30	6161
2026-01-16 17:10:45.08	13.82	41.49	-28.8	-29.4	28.4	0.00e+00	0	30	0	1706033152	30	6011
2026-01-16 17:10:46.09	13.72	41.76	-28.8	-29.5	28.4	0.00e+00	0	30	0	1712324608	30	6034
2026-01-16 17:10:47.10	13.62	42.03	-28.9	-29.5	28.3	0.00e+00	0	30	0	1717567488	30	6089
2026-01-16 17:10:48.11	13.51	42.31	-29.2	-29.8	28.1	0.00e+00	0	30	0	1722810368	30	6282
2026-01-16 17:10:49.12	13.41	42.58	-29.4	-30.0	28.0	0.00e+00	0	30	0	1729101824	30	6446
2026-01-16 17:10:50.13	13.30	42.86	-29.0	-29.6	28.2	0.00e+00	0	30	0	1734344704	30	6142
2026-01-16 17:10:51.14	13.19	43.14	-28.8	-29.4	28.4	0.00e+00	0	30	0	1740636160	30	6027
2026-01-16 17:10:52.14	13.08	43.42	-29.0	-29.6	28.3	0.00e+00	0	30	0	1745879040	30	6123
2026-01-16 17:10:53.15	12.96	43.71	-28.9	-29.5	28.4	0.00e+00	0	30	0	1751121920	30	6042
2026-01-16 17:10:54.16	12.85	43.99	-29.0	-29.6	28.2	0.00e+00	0	30	0	1757413376	30	6152
2026-01-16 17:10:55.17	12.73	44.28	-29.4	-30.0	27.8	0.00e+00	0	30	0	1762656256	30	6433
2026-01-16 17:10:56.18	12.61	44.57	-29.3	-29.9	28.0	0.00e+00	0	30	0	1768947712	30	6364
2026-01-16 17:10:57.19	12.48	44.87	-29.2	-29.9	28.1	0.00e+00	0	30	0	1774190592	30	6322
2026-01-16 17:10:58.20	12.36	45.16	-29.3	-29.9	27.9	0.00e+00	0	30	0	1780482048	30	6387
2026-01-16 17:10:59.21	12.23	45.46	-29.4	-30.0	27.9	0.00e+00	0	30	0	1785724928	30	6441
2026-01-16 17:11:00.22	12.10	45.76	-29.4	-30.1	27.9	0.00e+00	0	30	0	1792016384	30	6500
2026-01-16 17:11:01.23	11.97	46.06	-29.4	-30.1	27.9	0.00e+00	0	30	0	1797259264	30	6476
2026-01-16 17:11:02.24	11.83	46.36	-29.5	-30.1	27.8	0.00e+00	0	30	0	1802502144	30	6512
2026-01-16 17:11:03.26	11.69	46.67	-28.9	-29.5	28.4	0.00e+00	0	30	0	1808793600	30	6069
2026-01-16 17:11:04.26	11.55	46.97	-28.8	-29.4	28.4	0.00e+00	0	30	0	1814036480	30	6031
2026-01-16 17:11:05.27	11.41	47.28	-28.8	-29.4	28.4	0.00e+00	0	30	0	1820327936	30	6031
2026-01-16 17:11:06.28	11.26	47.59	-29.1	-29.7	28.1	0.00e+00	0	30	0	1825570816	30	6207
2026-01-16 17:11:07.29	11.11	47.91	-29.2	-29.8	28.0	0.00e+00	0	30	0	1830813696	30	6302
2026-01-16 17:11:08.30	10.96	48.22	-29.2	-29.8	28.1	0.00e+00	0	30	0	1837105152	30	6287
2026-01-16 17:11:09.31	10.80	48.54	-29.1	-29.7	28.2	0.00e+00	0	30	0	1842348032	30	6196
2026-01-16 17:11:10.32	10.64	48.86	-28.9	-29.4	28.4	0.00e+00	0	30	0	1848639488	30	6023
2026-01-16 17:11:11.33	10.48	49.18	-29.0	-29.6	28.2	0.00e+00	0	30	0	1853882368	30	6155
2026-01-16 17:11:12.34	10.31	49.51	-29.2	-29.8	28.2	0.00e+00	0	30	0	1859125248	30	6299
2026-01-16 17:11:13.35	10.14	49.83	-29.4	-30.0	27.9	0.00e+00	0	30	0	1865416704	30	6442
2026-01-16 17:11:14.36	9.96	50.16	-29.5	-30.2	27.7	0.00e+00	0	30	0	1870659584	30	6552
2026-01-16 17:11:15.37	9.79	50.49	-29.7	-30.3	27.7	0.00e+00	0	30	0	1876951040	30	6675
2026-01-16 17:11:16.37	9.61	50.82	-29.5	-30.1	27.9	0.00e+00	0	30	0	1882193920	30	6500
2026-01-16 17:11:17.38	9.42	51.15	-29.7	-30.3	27.8	0.00e+00	0	30	0	1888485376	30	6648
2026-01-16 17:11:18.39	9.23	51.49	-29.9	-30.5	27.5	0.00e+00	0	30	0	1893728256	32	6067
2026-01-16 17:11:19.40	9.03	51.83	-30.4	-31.1	27.1	0.00e+00	0	30	0	1898971136	32	6480
2026-01-16 17:11:20.42	8.83	52.17	-30.6	-31.2	27.0	0.00e+00	0	30	0	1905262592	32	6605
2026-01-16 17:11:21.43	8.63	52.51	-30.3	-31.0	27.2	0.00e+00	0	30	0	1910505472	32	6424
2026-01-16 17:11:22.44	8.42	52.86	-30.4	-31.1	27.2	0.00e+00	0	30	0	1916796928	32	6485
2026-01-16 17:11:23.45	8.20	53.20	-30.2	-30.8	27.3	0.00e+00	0	30	0	1922039808	32	6271
2026-01-16 17:11:24.46	7.98	53.55	-30.5	-31.2	27.2	0.00e+00	0	30	0	1927282688	32	6543
2026-01-16 17:11:25.47	7.76	53.90	-30.8	-31.4	26.8	0.00e+00	0	30	0	1933574144	34	5988
2026-01-16 17:11:26.48	7.53	54.25	-30.7	-31.4	26.9	0.00e+00	0	30	0	1938817024	34	5968
2026-01-16 17:11:27.49	7.29	54.61	-30.5	-31.1	27.0	0.00e+00	0	30	0	1945108480	34	5823
2026-01-16 17:11:28.50	7.05	54.96	-30.4	-31.0	27.2	0.00e+00	0	30	0	1950351360	34	5744
2026-01-16 17:11:29.51	6.80	55.32	-30.4	-31.1	27.2	0.00e+00	0	30	0	1955594240	34	5763
2026-01-16 17:11:30.52	6.54	55.68	-30.0	-30.6	27.5	0.00e+00	0	30	0	1961885696	34	5490
2026-01-16 17:11:31.53	6.28	56.04	-29.8	-30.4	27.7	0.00e+00	0	30	0	1967128576	32	5975
2026-01-16 17:11:32.54	6.01	56.41	-29.6	-30.3	27.7	0.00e+00	0	30	0	1973420032	32	5900
2026-01-16 17:11:33.55	5.73	56.77	-29.4	-30.0	27.9	0.00e+00	0	30	0	1978662912	32	5745
2026-01-16 17:11:34.56	5.45	57.14	-29.2	-29.8	28.1	0.00e+00	0	30	0	1984954368	32	5588
2026-01-16 17:11:35.57	5.16	57.51	-29.1	-29.7	28.1	0.00e+00	0	30	0	1990197248	32	5554
2026-01-16 17:11:36.58	4.86	57.88	-29.2	-29.9	28.0	0.00e+00	0	30	0	1996488704	32	5643
2026-01-16 17:11:37.59	4.55	58.25	-29.7	-30.3	27.6	0.00e+00	0	30	0	2001731584	32	5926
2026-01-16 17:11:38.60	4.23	58.62	-30.0	-30.6	27.4	0.00e+00	0	30	0	2006974464	32	6170
2026-01-16 17:11:39.61	3.90	59.00	-29.4	-30.0	27.9	0.00e+00	0	30	0	2013265920	32	5728
2026-01-16 17:11:40.62	3.57	59.37	-29.2	-29.9	28.0	0.00e+00	0	30	0	2018508800	32	5631
2026-01-16 17:11:41.63	3.22	59.75	-29.6	-30.2	27.6	0.00e+00	0	30	0	2024800256	32	5847
2026-01-16 17:11:42.64	2.86	60.13	-30.0	-30.7	27.3	0.00e+00	0	30	0	2030043136	32	6212
2026-01-16 17:11:43.65	2.50	60.51	-29.6	-30.3	27.6	0.00e+00	0	30	0	2035286016	32	5897
2026-01-16 17:11:44.66	2.12	60.89	-28.7	-29.3	28.4	0.00e+00	0	30	0	2041577472	30	5956
2026-01-16 17:11:45.67	1.73	61.27	-28.7	-29.3	28.4	0.00e+00	0	30	0	2046820352	30	5940
2026-01-16 17:11:46.68	1.32	61.66	-28.9	-29.5	28.2	0.00e+00	0	30	0	2053111808	30	6087
2026-01-16 17:11:47.69	0.91	62.04	-29.0	-29.5	28.2	0.00e+00	0	30	0	2058354688	30	6085
2026-01-16 17:11:48.70	0.48	62.43	-29.0	-29.6	28.2	0.00e+00	0	30	0	2063597568	30	6114
2026-01-16 17:11:49.71	0.04	62.81	-28.8	-29.4	28.3	0.00e+00	0	30	0	2069889024	30	6010
2026-01-16 17:11:50.72	359.58	63.20	-28.9	-29.5	28.3	0.00e+00	0	30	0	2075131904	30	6056
2026-01-16 17:11:51.73	359.10	63.59	-29.0	-29.7	28.2	0.00e+00	0	30	0	2081423360	30	6191
2026-01-16 17:11:52.74	358.61	63.98	-29.2	-29.8	28.1	0.00e+00	0	30	0	2086666240	30	6289
2026-01-16 17:11:53.75	358.11	64.36	-28.9	-29.5	28.2	0.00e+00	0	30	0	2092957696	30	6036
2026-01-16 17:11:54.76	357.58	64.75	-28.8	-29.5	28.4	0.00e+00	0	30	0	2098200576	30	6045
2026-01-16 17:11:55.77	357.04	65.14	-28.7	-29.3	28.4	0.00e+00	0	30	0	2104492032	30	5948
2026-01-16 17:11:56.78	356.48	65.53	-28.8	-29.5	28.3	0.00e+00	0	30	0	2109734912	30	6067
2026-01-16 17:11:57.79	355.90	65.92	-28.6	-29.2	28.5	0.00e+00	0	30	0	2114977792	30	5867
2026-01-16 17:11:58.80	355.30	66.30	-28.3	-28.9	28.7	0.00e+00	0	30	0	2121269248	30	5656
2026-01-16 17:11:59.81	354.67	66.69	-28.4	-29.0	28.6	0.00e+00	0	30	0	2126512128	30	5756
2026-01-16 17:12:00.82	354.02	67.08	-28.6	-29.2	28.5	0.00e+00	0	30	0	2132803584	30	5876
2026-01-16 17:12:01.83	353.35	67.46	-28.4	-29.0	28.7	0.00e+00	0	30	0	2138046464	30	5698
2026-01-16 17:12:02.84	352.65	67.84	-27.9	-28.5	29.0	0.00e+00	0	30	0	2143289344	30	5395
2026-01-16 17:12:03.85	351.93	68.23	-28.0	-28.6	28.9	0.00e+00	0	30	0	2149580800	30	5491
2026-01-16 17:12:04.87	351.17	68.61	-28.4	-29.1	28.5	0.00e+00	0	30	0	2154823680	30	5806
2026-01-16 17:12:05.88	350.38	68.99	-28.3	-28.9	28.6	0.00e+00	0	30	0	2161115136	30	5658
2026-01-16 17:12:06.89	349.57	69.36	-28.1	-28.6	28.8	0.00e+00	0	30	0	2166358016	30	5492
2026-01-16 17:12:07.90	348.72	69.74	-28.1	-28.7	28.7	0.00e+00	0	30	0	2171600896	30	5551
2026-01-16 17:12:08.91	347.84	70.11	-27.8	-28.4	29.0	0.00e+00	0	30	0	2177892352	30	5350
2026-01-16 17:12:09.92	346.92	70.48	-27.4	-28.1	29.2	0.00e+00	0	30	0	2183135232	28	5764
2026-01-16 17:12:10.93	345.97	70.84	-27.4	-28.0	29.2	0.00e+00	0	30	0	2189426688	28	5723
2026-01-16 17:12:11.94	344.98	71.20	-27.5	-28.1	29.2	0.00e+00	0	30	0	2194669568	28	5806
2026-01-16 17:12:12.95	343.94	71.56	-27.6	-28.2	29.2	0.00e+00	0	30	0	2200961024	28	5895
2026-01-16 17:12:13.96	342.86	71.91	-28.0	-28.6	28.9	0.00e+00	0	30	0	2206203904	28	6146
2026-01-16 17:12:14.97	341.74	72.25	-28.0	-28.6	28.9	0.00e+00	0	30	0	2212495360	28	6104
2026-01-16 17:12:15.98	340.57	72.59	-28.0	-28.6	28.9	0.00e+00	0	30	0	2217738240	28	6141
2026-01-16 17:12:16.99	339.35	72.93	-28.1	-28.7	28.8	0.00e+00	0	30	0	2222981120	28	6228
2026-01-16 17:12:18.00	338.08	73.25	-28.0	-28.6	28.9	0.00e+00	0	30	0	2229272576	28	6123
2026-01-16 17:12:19.01	336.76	73.57	-27.8	-28.4	29.0	0.00e+00	0	30	0	2234515456	28	5970
2026-01-16 17:12:20.02	335.38	73.89	-27.6	-28.2	29.1	0.00e+00	0	30	0	2240806912	28	5891
2026-01-16 17:12:21.03	333.95	74.19	-27.7	-28.3	29.1	0.00e+00	0	30	0	2246049792	28	5923
2026-01-16 17:12:22.04	332.46	74.48	-27.4	-28.1	29.2	0.00e+00	0	31	0	2251292672	28	5777
2026-01-16 17:12:23.05	330.91	74.77	-27.4	-28.0	29.3	0.00e+00	0	31	0	2257584128	28	5725
2026-01-16 17:12:24.06	329.30	75.04	-27.5	-28.2	29.1	0.00e+00	0	31	0	2262827008	28	5834
2026-01-16 17:12:25.07	327.63	75.30	-27.6	-28.2	29.1	0.00e+00	0	31	0	2269118464	28	5859
2026-01-16 17:12:26.08	325.90	75.55	-27.3	-27.8	29.3	0.00e+00	0	31	0	2274361344	28	5616
2026-01-16 17:12:27.09	324.10	75.79	-27.2	-27.8	29.3	0.00e+00	0	31	0	2279604224	28	5613
2026-01-16 17:12:28.10	322.24	76.02	-27.1	-27.8	29.3	0.00e+00	0	31	0	2285895680	28	5595
2026-01-16 17:12:29.11	320.33	76.23	-26.8	-27.4	29.6	0.00e+00	0	30	0	2291138560	28	5352
2026-01-16 17:12:30.12	318.35	76.42	-26.8	-27.4	29.7	0.00e+00	0	31	0	2297430016	26	6006
2026-01-16 17:12:31.13	316.32	76.60	-26.8	-27.4	29.7	0.00e+00	0	31	0	2302672896	26	6012
2026-01-16 17:12:32.14	314.23	76.76	-26.6	-27.2	29.9	0.00e+00	0	30	0	2308964352	26	5850
2026-01-16 17:12:33.15	312.09	76.90	-26.7	-27.2	29.9	0.00e+00	0	31	0	2314207232	26	5891
2026-01-16 17:12:34.17	309.88	77.03	-26.7	-27.3	29.8	0.00e+00	0	31	0	2320498688	26	5916
2026-01-16 17:12:35.17	307.68	77.14	-26.6	-27.2	29.9	0.00e+00	0	30	0	2325741568	26	5872
2026-01-16 17:12:36.18	305.42	77.23	-26.7	-27.2	29.7	0.00e+00	0	31	0	2330984448	26	5887
2026-01-16 17:12:37.19	303.13	77.30	-26.7	-27.3	29.8	0.00e+00	0	31	0	2337275904	26	5923
2026-01-16 17:12:38.20	300.82	77.35	-26.9	-27.6	29.4	0.00e+00	0	31	0	2342518784	26	6105
2026-01-16 17:12:39.21	298.49	77.37	-26.7	-27.3	29.7	0.00e+00	0	31	0	2348810240	26	5929
2026-01-16 17:12:40.23	296.14	77.38	-26.6	-27.2	29.9	0.00e+00	0	31	0	2354053120	26	5859
2026-01-16 17:12:41.24	293.80	77.37	-26.6	-27.2	29.9	0.00e+00	0	30	0	2359296000	26	5874
2026-01-16 17:12:42.25	291.48	77.34	-26.5	-27.1	29.9	0.00e+00	0	30	0	2365587456	26	5814
2026-01-16 17:12:43.26	289.17	77.29	-26.5	-27.0	29.8	0.00e+00	0	30	0	2370830336	26	5760
2026-01-16 17:12:44.27	286.89	77.21	-26.8	-27.3	29.6	0.00e+00	0	30	0	2377121792	26	5963
2026-01-16 17:12:45.28	284.63	77.12	-26.7	-27.3	29.5	0.00e+00	0	31	0	2382364672	26	5943
2026-01-16 17:12:46.29	282.41	77.01	-26.6	-27.3	29.3	0.00e+00	0	30	0	2387607552	26	5903
2026-01-16 17:12:47.30	280.24	76.88	-26.9	-27.5	29.4	0.00e+00	0	30	0	2393899008	26	6067
2026-01-16 17:12:48.31	278.11	76.73	-26.9	-27.4	29.6	0.00e+00	0	30	0	2399141888	26	6022
2026-01-16 17:12:49.32	276.03	76.57	-26.7	-27.3	29.7	0.00e+00	0	30	0	2405433344	26	5954
2026-01-16 17:12:50.33	274.00	76.38	-26.9	-27.5	29.6	0.00e+00	0	30	0	2410676224	26	6067
2026-01-16 17:12:51.34	272.04	76.19	-27.1	-27.7	29.5	0.00e+00	0	30	0	2416967680	26	6175
2026-01-16 17:12:52.34	270.15	75.98	-26.9	-27.5	29.7	0.00e+00	0	31	0	2422210560	26	6052
2026-01-16 17:12:53.35	268.30	75.75	-26.9	-27.4	29.7	0.00e+00	0	30	0	2427453440	26	6026
2026-01-16 17:12:54.36	266.52	75.51	-27.2	-27.9	29.4	0.00e+00	0	30	0	2433744896	26	6328
2026-01-16 17:12:55.37	264.79	75.26	-27.2	-27.8	29.6	0.00e+00	0	31	0	2438987776	26	6294
2026-01-16 17:12:56.38	263.13	74.99	-27.2	-27.8	29.6	0.00e+00	0	30	0	2445279232	26	6250
2026-01-16 17:12:57.39	261.53	74.72	-27.1	-27.7	29.5	0.00e+00	0	31	0	2450522112	26	6186
2026-01-16 17:12:58.40	259.99	74.43	-27.2	-27.8	29.5	0.00e+00	0	30	0	2455764992	26	6288
2026-01-16 17:12:59.41	258.51	74.13	-27.1	-27.7	29.5	0.00e+00	0	30	0	2462056448	26	6175
2026-01-16 17:13:00.42	257.08	73.83	-27.2	-27.8	29.5	0.00e+00	0	31	0	2467299328	26	6288
2026-01-16 17:13:01.42	255.73	73.52	-27.4	-28.0	29.5	0.00e+00	0	31	0	2473590784	26	6402
2026-01-16 17:13:02.43	254.42	73.20	-27.6	-28.2	29.3	0.00e+00	0	31	0	2478833664	26	6599
2026-01-16 17:13:03.44	253.15	72.87	-27.6	-28.2	29.3	0.00e+00	0	31	0	2484076544	26	6552
2026-01-16 17:13:04.45	251.94	72.53	-27.7	-28.3	29.2	0.00e+00	0	31	0	2490368000	26	6675
2026-01-16 17:13:05.47	250.77	72.19	-27.7	-28.3	29.2	0.00e+00	0	31	0	2495610880	28	5914
2026-01-16 17:13:06.47	249.66	71.84	-27.9	-28.4	29.0	0.00e+00	0	31	0	2501902336	28	6033
2026-01-16 17:13:07.48	248.59	71.49	-27.7	-28.3	29.1	0.00e+00	0	30	0	2507145216	28	5897
2026-01-16 17:13:08.49	247.56	71.13	-27.7	-28.3	28.9	0.00e+00	0	30	0	2513436672	28	5907
2026-01-16 17:13:09.50	246.58	70.77	-27.9	-28.5	28.9	0.00e+00	0	30	0	2518679552	28	6101
2026-01-16 17:13:10.51	245.63	70.41	-28.1	-28.6	28.8	0.00e+00	0	31	0	2524971008	28	6163
2026-01-16 17:13:11.52	244.72	70.04	-27.8	-28.4	29.0	0.00e+00	0	31	0	2530213888	28	5970
2026-01-16 17:13:12.53	243.84	69.67	-27.8	-28.3	29.1	0.00e+00	0	31	0	2535456768	28	5919
2026-01-16 17:13:13.54	243.00	69.29	-27.9	-28.5	28.8	0.00e+00	0	30	0	2541748224	28	6084
2026-01-16 17:13:14.55	242.19	68.92	-28.0	-28.7	28.8	0.00e+00	0	31	0	2546991104	28	6186
2026-01-16 17:13:15.56	241.41	68.54	-27.7	-28.3	29.2	0.00e+00	0	31	0	2552233984	28	5933
2026-01-16 17:13:16.57	240.66	68.16	-27.5	-28.1	29.2	0.00e+00	0	30	0	2558525440	28	5803
2026-01-16 17:13:17.58	239.94	67.77	-28.0	-28.7	28.9	0.00e+00	0	31	0	2563768320	28	6191
2026-01-16 17:13:18.59	239.24	67.39	-28.2	-28.8	28.7	0.00e+00	0	30	0	2570059776	28	6315
2026-01-16 17:13:19.60	238.57	67.00	-27.8	-28.4	29.1	0.00e+00	0	30	0	2575302656	28	6014
2026-01-16 17:13:20.61	237.93	66.62	-28.0	-28.5	28.9	0.00e+00	0	30	0	2580545536	28	6086
2026-01-16 17:13:21.62	237.31	66.23	-28.3	-28.9	28.7	0.00e+00	0	31	0	2586836992	28	6343
2026-01-16 17:13:22.63	236.71	65.84	-28.1	-28.8	28.9	0.00e+00	0	30	0	2592079872	28	6275
2026-01-16 17:13:23.64	236.13	65.45	-27.9	-28.6	29.0	0.00e+00	0	30	0	2598371328	28	6137
2026-01-16 17:13:24.65	235.57	65.06	-28.3	-28.9	28.7	0.00e+00	0	31	0	2603614208	28	6378
2026-01-16 17:13:25.66	235.03	64.67	-28.5	-29.2	28.6	0.00e+00	0	30	0	2609905664	28	6562
2026-01-16 17:13:26.67	234.51	64.28	-28.4	-29.1	28.7	0.00e+00	0	30	0	2615148544	28	6477
2026-01-16 17:13:27.68	234.01	63.90	-28.2	-28.8	28.9	0.00e+00	0	31	0	2621440000	28	6306
2026-01-16 17:13:28.69	233.52	63.51	-28.2	-28.7	28.9	0.00e+00	0	30	0	2626682880	28	6229
2026-01-16 17:13:29.70	233.05	63.12	-28.0	-28.6	28.9	0.00e+00	0	30	0	2631925760	28	6112
2026-01-16 17:13:30.71	232.59	62.73	-28.4	-29.0	28.7	0.00e+00	0	30	0	2638217216	28	6416
2026-01-16 17:13:31.72	232.15	62.34	-28.5	-29.2	28.5	0.00e+00	0	30	0	2643460096	28	6592
2026-01-16 17:13:32.73	231.72	61.96	-28.4	-29.1	28.6	0.00e+00	0	30	0	2649751552	30	5773
2026-01-16 17:13:33.74	231.31	61.57	-28.5	-29.1	28.6	0.00e+00	0	30	0	2654994432	30	5787
2026-01-16 17:13:34.75	230.91	61.19	-28.8	-29.4	28.4	0.00e+00	0	30	0	2660237312	30	5971
2026-01-16 17:13:35.76	230.52	60.81	-29.0	-29.6	28.1	0.00e+00	0	30	0	2666528768	30	6136
2026-01-16 17:13:36.77	230.14	60.42	-28.9	-29.5	28.3	0.00e+00	0	30	0	2671771648	30	6071
2026-01-16 17:13:37.78	229.77	60.04	-28.9	-29.5	28.4	0.00e+00	0	30	0	2678063104	30	6064
2026-01-16 17:13:38.79	229.42	59.66	-29.1	-29.7	28.2	0.00e+00	0	30	0	2683305984	30	6237
2026-01-16 17:13:39.80	229.07	59.28	-29.3	-30.0	28.1	0.00e+00	0	30	0	2688548864	30	6423
2026-01-16 17:13:40.81	228.74	58.91	-29.1	-29.8	28.1	0.00e+00	0	30	0	2694840320	30	6295
2026-01-16 17:13:41.83	228.41	58.53	-29.1	-29.8	28.2	0.00e+00	0	30	0	2700083200	30	6273
2026-01-16 17:13:42.83	228.10	58.16	-29.3	-29.9	28.1	0.00e+00	0	30	0	2706374656	30	6325
2026-01-16 17:13:43.84	227.79	57.79	-29.3	-29.9	28.0	0.00e+00	0	30	0	2711617536	30	6364
2026-01-16 17:13:44.85	227.49	57.41	-29.2	-29.9	28.0	0.00e+00	0	30	0	2717908992	30	6347
2026-01-16 17:13:45.87	227.19	57.04	-29.4	-30.1	27.9	0.00e+00	0	30	0	2723151872	30	6492
2026-01-16 17:13:46.88	226.91	56.67	-29.8	-30.4	27.7	0.00e+00	0	30	0	2729443328	32	6019
2026-01-16 17:13:47.89	226.64	56.31	-29.7	-30.3	27.7	0.00e+00	0	30	0	2734686208	32	5957
2026-01-16 17:13:48.90	226.37	55.94	-29.6	-30.1	27.8	0.00e+00	0	30	0	2739929088	32	5801
2026-01-16 17:13:49.91	226.11	55.58	-29.5	-30.2	27.8	0.00e+00	0	30	0	2746220544	32	5860
2026-01-16 17:13:50.92	225.85	55.22	-30.1	-30.6	27.4	0.00e+00	0	30	0	2751463424	32	6161
2026-01-16 17:13:51.93	225.60	54.86	-30.3	-30.9	27.1	0.00e+00	0	30	0	2757754880	32	6389
2026-01-16 17:13:52.94	225.36	54.51	-30.3	-31.0	27.1	0.00e+00	0	30	0	2762997760	32	6444
2026-01-16 17:13:53.95	225.12	54.15	-30.0	-30.5	27.4	0.00e+00	0	30	0	2768240640	32	6098
2026-01-16 17:13:54.96	224.89	53.80	-29.9	-30.6	27.4	0.00e+00	0	30	0	2774532096	32	6166
2026-01-16 17:13:55.97	224.67	53.45	-30.1	-30.6	27.1	0.00e+00	0	30	0	2779774976	32	6150
2026-01-16 17:13:56.98	224.45	53.10	-30.3	-30.8	27.0	0.00e+00	0	30	0	2786066432	32	6311
2026-01-16 17:13:57.99	224.24	52.75	-29.8	-30.4	27.4	0.00e+00	0	30	0	2791309312	32	6027
2026-01-16 17:13:59.00	224.03	52.41	-29.8	-30.4	27.6	0.00e+00	0	30	0	2796552192	32	5974
2026-01-16 17:14:00.01	223.82	52.06	-29.3	-30.0	27.8	0.00e+00	0	30	0	2802843648	32	5740
2026-01-16 17:14:01.02	223.62	51.72	-29.4	-30.0	27.9	0.00e+00	0	30	0	2808086528	32	5716
2026-01-16 17:14:02.03	223.43	51.38	-29.2	-29.9	28.0	0.00e+00	0	30	0	2814377984	32	5638
2026-01-16 17:14:03.04	223.24	51.05	-29.2	-29.8	28.0	0.00e+00	0	30	0	2819620864	32	5571
2026-01-16 17:14:04.05	223.05	50.71	-29.2	-29.7	28.1	0.00e+00	0	30	0	2825912320	32	5539
2026-01-16 17:14:05.06	222.87	50.38	-29.1	-29.6	28.2	0.00e+00	0	30	0	2831155200	32	5490
2026-01-16 17:14:06.07	222.69	50.05	-29.2	-29.9	28.0	0.00e+00	0	30	0	2837446656	32	5654
2026-01-16 17:14:07.08	222.52	49.72	-29.5	-30.2	27.8	0.00e+00	0	30	0	2842689536	32	5887
2026-01-16 17:14:08.09	222.35	49.39	-29.2	-29.8	28.0	0.00e+00	0	30	0	2847932416	32	5577
2026-01-16 17:14:09.10	222.18	49.07	-29.1	-29.7	28.1	0.00e+00	0	30	0	2854223872	32	5523
2026-01-16 17:14:10.11	222.02	48.75	-28.9	-29.6	28.2	0.00e+00	0	30	0	2859466752	32	5465
2026-01-16 17:14:11.12	221.86	48.43	-29.0	-29.7	28.2	0.00e+00	0	30	0	2865758208	32	5539
2026-01-16 17:14:12.12	221.70	48.11	-29.1	-29.8	28.1	0.00e+00	0	30	0	2871001088	32	5609
2026-01-16 17:14:13.13	221.55	47.80	-29.3	-29.8	28.0	0.00e+00	0	30	0	2876243968	32	5625
2026-01-16 17:14:14.14	221.40	47.48	-29.1	-29.8	28.2	0.00e+00	0	30	0	2882535424	32	5589
2026-01-16 17:14:15.15	221.25	47.17	-29.1	-29.8	28.2	0.00e+00	0	30	0	2887778304	32	5579
2026-01-16 17:14:16.16	221.11	46.86	-28.9	-29.5	28.2	0.00e+00	0	30	0	2894069760	32	5398
2026-01-16 17:14:17.17	220.97	46.55	-28.7	-29.2	28.4	0.00e+00	0	30	0	2899312640	30	5855
2026-01-16 17:14:18.18	220.83	46.25	-28.6	-29.3	28.5	0.00e+00	0	30	0	2904555520	30	5919
2026-01-16 17:14:19.19	220.70	45.94	-28.6	-29.3	28.5	0.00e+00	0	30	0	2910846976	30	5901
2026-01-16 17:14:20.20	220.56	45.64	-28.6	-29.2	28.5	0.00e+00	0	30	0	2916089856	30	5843
2026-01-16 17:14:21.21	220.43	45.34	-28.8	-29.3	28.4	0.00e+00	0	30	0	2922381312	30	5960
2026-01-16 17:14:22.22	220.30	45.05	-28.9	-29.4	28.4	0.00e+00	0	30	0	2927624192	30	6005
2026-01-16 17:14:23.23	220.18	44.75	-28.9	-29.5	28.3	0.00e+00	0	30	0	2933915648	30	6046
2026-01-16 17:14:24.24	220.06	44.46	-28.9	-29.5	28.3	0.00e+00	0	30	0	2939158528	30	6071
2026-01-16 17:14:25.25	219.94	44.17	-29.0	-29.6	28.3	0.00e+00	0	30	0	2944401408	30	6125
2026-01-16 17:14:26.26	219.82	43.88	-29.1	-29.8	28.2	0.00e+00	0	30	0	2950692864	30	6268
2026-01-16 17:14:27.27	219.70	43.59	-28.7	-29.2	28.4	0.00e+00	0	30	0	2955935744	30	5887
2026-01-16 17:14:28.28	219.59	43.30	-28.7	-29.2	28.4	0.00e+00	0	30	0	2962227200	30	5872
2026-01-16 17:14:29.29	219.47	43.02	-28.6	-29.2	28.4	0.00e+00	0	30	0	2967470080	30	5836
2026-01-16 17:14:30.30	219.36	42.74	-28.9	-29.4	28.3	0.00e+00	0	30	0	2972712960	30	6018
2026-01-16 17:14:31.31	219.26	42.46	-28.9	-29.4	28.3	0.00e+00	0	30	0	2979004416	30	6023
2026-01-16 17:14:32.32	219.15	42.18	-29.0	-29.6	28.3	0.00e+00	0	30	0	2984247296	30	6104
2026-01-16 17:14:33.33	219.04	41.91	-29.1	-29.7	28.1	0.00e+00	0	30	0	2990538752	30	6195
2026-01-16 17:14:34.34	218.94	41.63	-28.8	-29.5	28.3	0.00e+00	0	30	0	2995781632	30	6099
2026-01-16 17:14:35.35	218.84	41.36	-28.9	-29.4	28.3	0.00e+00	0	30	0	3001024512	30	6017
2026-01-16 17:14:36.36	218.74	41.09	-28.7	-29.4	28.4	0.00e+00	0	30	0	3007315968	30	5996
2026-01-16 17:14:37.37	218.64	40.83	-28.5	-29.2	28.7	0.00e+00	0	30	0	3012558848	30	5848
2026-01-16 17:14:38.38	218.55	40.56	-28.4	-29.1	28.7	0.00e+00	0	30	0	3018850304	30	5772
2026-01-16 17:14:39.39	218.45	40.30	-28.5	-29.2	28.6	0.00e+00	0	30	0	3024093184	30	5854
2026-01-16 17:14:40.39	218.36	40.04	-28.3	-28.9	28.8	0.00e+00	0	30	0	3030384640	30	5692
2026-01-16 17:14:41.40	218.27	39.78	-28.3	-29.0	28.7	0.00e+00	0	30	0	3035627520	30	5747
2026-01-16 17:14:42.41	218.18	39.52	-28.2	-28.8	28.8	0.00e+00	0	30	0	3041918976	30	5571
2026-01-16 17:14:43.42	218.09	39.26	-28.3	-29.0	28.7	0.00e+00	0	30	0	3047161856	30	5707
2026-01-16 17:14:44.43	218.01	39.01	-28.3	-28.8	28.8	0.00e+00	0	30	0	3052404736	30	5608
2026-01-16 17:14:45.44	217.92	38.75	-28.3	-28.8	28.8	0.00e+00	0	30	0	3058696192	30	5606
2026-01-16 17:14:46.45	217.84	38.50	-28.3	-28.9	28.7	0.00e+00	0	30	0	3063939072	30	5646
2026-01-16 17:14:47.46	217.76	38.25	-28.3	-28.9	28.6	0.00e+00	0	30	0	3070230528	30	5631
2026-01-16 17:14:48.47	217.67	38.00	-28.3	-29.0	28.6	0.00e+00	0	30	0	3075473408	30	5729
2026-01-16 17:14:49.48	217.59	37.76	-28.3	-29.0	28.7	0.00e+00	0	30	0	3080716288	30	5737
2026-01-16 17:14:50.49	217.52	37.51	-28.3	-28.8	28.7	0.00e+00	0	30	0	3087007744	30	5625
2026-01-16 17:14:51.50	217.44	37.27	-28.2	-28.9	28.8	0.00e+00	0	30	0	3092250624	30	5672
2026-01-16 17:14:52.51	217.36	37.03	-28.4	-29.1	28.7	0.00e+00	0	30	0	3097493504	30	5764
2026-01-16 17:14:53.52	217.29	36.79	-28.4	-29.1	28.7	0.00e+00	0	30	0	3103784960	30	5766
2026-01-16 17:14:54.53	217.21	36.55	-28.4	-29.1	28.7	0.00e+00	0	30	0	3109027840	30	5769
2026-01-16 17:14:55.54	217.14	36.32	-28.5	-29.2	28.5	0.00e+00	0	30	0	3115319296	30	5868
2026-01-16 17:14:56.55	217.07	36.08	-28.5	-29.2	28.6	0.00e+00	0	30	0	3120562176	30	5841
2026-01-16 17:14:57.56	217.00	35.85	-28.5	-29.2	28.6	0.00e+00	0	30	0	3126853632	30	5875
2026-01-16 17:14:58.57	216.93	35.62	-28.6	-29.1	28.4	0.00e+00	0	30	0	3132096512	30	5800
2026-01-16 17:14:59.58	216.86	35.39	-28.5	-29.2	28.6	0.00e+00	0	30	0	3138387968	30	5876
2026-01-16 17:15:00.59	216.79	35.16	-28.4	-29.0	28.5	0.00e+00	0	30	0	3143630848	30	5715
2026-01-16 17:15:01.60	216.72	34.94	-28.3	-28.8	28.6	0.00e+00	0	30	0	3148873728	30	5616
2026-01-16 17:15:02.61	216.66	34.71	-28.5	-29.0	28.6	0.00e+00	0	30	0	3155165184	30	5758
2026-01-16 17:15:03.62	216.59	34.49	-28.4	-29.0	28.6	0.00e+00	0	30	0	3160408064	30	5699
2026-01-16 17:15:04.62	216.53	34.27	-28.4	-28.9	28.6	0.00e+00	0	30	0	3166699520	30	5675
2026-01-16 17:15:05.63	216.47	34.05	-28.4	-29.0	28.6	0.00e+00	0	30	0	3171942400	30	5722
2026-01-16 17:15:06.64	216.40	33.83	-28.4	-29.0	28.6	0.00e+00	0	30	0	3177185280	30	5724
2026-01-16 17:15:07.65	216.34	33.61	-28.6	-29.1	28.5	0.00e+00	0	30	0	3183476736	30	5825
2026-01-16 17:15:08.66	216.28	33.40	-28.6	-29.2	28.4	0.00e+00	0	30	0	3188719616	30	5837
2026-01-16 17:15:09.66	216.22	33.19	-28.5	-29.1	28.5	0.00e+00	0	30	0	3195011072	30	5773
2026-01-16 17:15:10.67	216.16	32.97	-28.7	-29.2	28.5	0.00e+00	0	30	0	3200253952	30	5863
2026-01-16 17:15:11.69	216.11	32.76	-28.8	-29.3	28.5	0.00e+00	0	30	0	3205496832	30	5958
2026-01-16 17:15:12.70	216.05	32.55	-28.8	-29.3	28.4	0.00e+00	0	30	0	3211788288	30	5940
2026-01-16 17:15:13.71	215.99	32.34	-28.8	-29.4	28.4	0.00e+00	0	30	0	3217031168	30	5972
2026-01-16 17:15:14.72	215.94	32.14	-29.0	-29.7	28.2	0.00e+00	0	30	0	3223322624	30	6210
2026-01-16 17:15:15.73	215.88	31.93	-29.1	-29.8	28.2	0.00e+00	0	30	0	3228565504	30	6284
2026-01-16 17:15:16.73	215.83	31.73	-29.1	-29.8	28.2	0.00e+00	0	30	0	3234856960	30	6261
2026-01-16 17:15:17.74	215.77	31.53	-29.2	-29.9	28.1	0.00e+00	0	30	0	3240099840	30	6325
2026-01-16 17:15:18.75	215.72	31.32	-29.3	-29.9	28.0	0.00e+00	0	30	0	3245342720	30	6327
2026-01-16 17:15:19.76	215.67	31.12	-29.3	-29.9	28.0	0.00e+00	0	30	0	3251634176	30	6359
2026-01-16 17:15:20.77	215.62	30.93	-29.5	-30.0	27.9	0.00e+00	0	30	0	3256877056	30	6444
2026-01-16 17:15:21.78	215.57	30.73	-29.3	-29.9	28.0	0.00e+00	0	30	0	3263168512	30	6318
2026-01-16 17:15:22.79	215.52	30.53	-29.3	-30.1	28.1	0.00e+00	0	30	0	3268411392	30	6474
2026-01-16 17:15:23.81	215.47	30.34	-29.4	-30.2	27.9	0.00e+00	0	30	0	3273654272	30	6550
2026-01-16 17:15:24.82	215.42	30.14	-29.2	-30.0	28.1	0.00e+00	0	30	0	3279945728	30	6404
2026-01-16 17:15:25.83	215.37	29.95	-29.2	-29.8	28.1	0.00e+00	0	30	0	3285188608	30	6284
2026-01-16 17:15:26.84	215.32	29.76	-29.0	-29.6	28.1	0.00e+00	0	30	0	3291480064	30	6120
2026-01-16 17:15:27.85	215.28	29.57	-29.2	-29.9	28.1	0.00e+00	0	30	0	3296722944	30	6330
2026-01-16 17:15:28.86	215.23	29.38	-29.1	-29.8	28.1	0.00e+00	0	30	0	3301965824	30	6275
2026-01-16 17:15:29.87	215.18	29.19	-28.9	-29.6	28.2	0.00e+00	0	30	0	3308257280	30	6156
2026-01-16 17:15:30.87	215.14	29.01	-29.0	-29.6	28.3	0.00e+00	0	30	0	3313500160	30	6168
2026-01-16 17:15:31.88	215.09	28.83	-28.9	-29.5	28.2	0.00e+00	0	30	0	3319791616	30	6051
2026-01-16 17:15:32.89	215.05	28.64	-29.0	-29.6	28.3	0.00e+00	0	30	0	3325034496	30	6109
2026-01-16 17:15:33.91	215.00	28.46	-28.8	-29.3	28.3	0.00e+00	0	30	0	3331325952	30	5963
2026-01-16 17:15:34.92	214.96	28.28	-28.8	-29.4	28.3	0.00e+00	0	30	0	3336568832	30	5970
2026-01-16 17:15:35.93	214.92	28.10	-28.8	-29.3	28.4	0.00e+00	0	30	0	3342860288	30	5934
2026-01-16 17:15:36.94	214.88	27.92	-28.8	-29.3	28.4	0.00e+00	0	30	0	3348103168	30	5956
2026-01-16 17:15:37.95	214.84	27.74	-29.0	-29.5	28.4	0.00e+00	0	30	0	3353346048	30	6098
2026-01-16 17:15:38.96	214.79	27.56	-28.8	-29.3	28.4	0.00e+00	0	30	0	3359637504	30	5959
2026-01-16 17:15:39.97	214.75	27.39	-28.9	-29.5	28.3	0.00e+00	0	30	0	3364880384	30	6058
2026-01-16 17:15:40.98	214.71	27.21	-29.0	-29.5	28.2	0.00e+00	0	30	0	3371171840	30	6099
2026-01-16 17:15:41.99	214.67	27.04	-29.0	-29.7	28.1	0.00e+00	0	30	0	3376414720	30	6236
2026-01-16 17:15:43.00	214.63	26.87	-29.0	-29.7	28.3	0.00e+00	0	30	0	3381657600	30	6231
2026-01-16 17:15:44.01	214.60	26.70	-29.2	-29.9	28.1	0.00e+00	0	30	0	3387949056	30	6362
2026-01-16 17:15:45.02	214.56	26.53	-29.1	-29.8	28.1	0.00e+00	0	30	0	3393191936	30	6315
2026-01-16 17:15:46.03	214.52	26.36	-29.1	-29.8	28.1	0.00e+00	0	30	0	3399483392	30	6310
2026-01-16 17:15:47.03	214.48	26.19	-29.1	-29.8	28.1	0.00e+00	0	30	0	3404726272	30	6279
2026-01-16 17:15:48.04	214.45	26.02	-29.1	-29.9	28.0	0.00e+00	0	30	0	3409969152	30	6320
2026-01-16 17:15:49.06	214.41	25.85	-29.5	-30.2	27.8	0.00e+00	0	30	0	3416260608	30	6568
2026-01-16 17:15:50.06	214.37	25.69	-29.6	-30.2	27.6	0.00e+00	0	30	0	3421503488	30	6561
2026-01-16 17:15:51.07	214.34	25.53	-29.4	-29.9	28.0	0.00e+00	0	30	0	3427794944	30	6379
2026-01-16 17:15:52.08	214.30	25.36	-29.3	-29.9	27.9	0.00e+00	0	30	0	3433037824	30	6347
2026-01-16 17:15:53.09	214.27	25.20	-29.3	-29.8	28.0	0.00e+00	0	29	0	3439329280	30	6300
2026-01-16 17:15:54.11	214.23	25.04	-29.2	-29.7	28.0	0.00e+00	0	29	0	3444572160	30	6235
2026-01-16 17:15:55.11	214.20	24.88	-29.4	-30.1	27.9	0.00e+00	0	29	0	3450863616	30	6485
2026-01-16 17:15:56.13	214.16	24.72	-29.1	-29.8	28.1	0.00e+00	0	29	0	3456106496	30	6305
2026-01-16 17:15:57.14	214.13	24.56	-29.1	-29.8	28.1	0.00e+00	0	29	0	3461349376	30	6305
2026-01-16 17:15:58.15	214.10	24.40	-29.3	-30.0	27.9	0.00e+00	0	30	0	3467640832	30	6398
2026-01-16 17:15:59.16	214.06	24.25	-29.3	-30.0	27.9	0.00e+00	0	29	0	3472883712	30	6408
2026-01-16 17:16:00.17	214.03	24.09	-29.2	-29.9	27.9	0.00e+00	0	29	0	3479175168	30	6386
2026-01-16 17:16:01.18	214.00	23.94	-29.4	-30.1	27.9	0.00e+00	0	29	0	3484418048	30	6521
2026-01-16 17:16:02.18	213.97	23.79	-29.6	-30.3	27.7	0.00e+00	0	30	0	3489660928	30	6657
2026-01-16 17:16:03.20	213.94	23.63	-29.6	-30.3	27.7	0.00e+00	0	29	0	3495952384	30	6688
2026-01-16 17:16:04.21	213.91	23.48	-29.7	-30.4	27.7	0.00e+00	0	29	0	3501195264	30	6745
2026-01-16 17:16:05.22	213.88	23.33	-29.7	-30.4	27.6	0.00e+00	0	29	0	3507486720	32	6032
2026-01-16 17:16:06.23	213.85	23.18	-29.9	-30.6	27.4	0.00e+00	0	29	0	3512729600	32	6166
2026-01-16 17:16:07.24	213.82	23.03	-29.9	-30.6	27.4	0.00e+00	0	30	0	3517972480	32	6161
2026-01-16 17:16:08.25	213.79	22.88	-30.0	-30.7	27.3	0.00e+00	0	30	0	3524263936	32	6222
2026-01-16 17:16:09.26	213.76	22.73	-29.9	-30.7	27.4	0.00e+00	0	29	0	3529506816	32	6183
2026-01-16 17:16:10.27	213.73	22.59	-30.0	-30.8	27.3	0.00e+00	0	29	0	3535798272	32	6249
2026-01-16 17:16:11.28	213.70	22.44	-30.0	-30.7	27.3	0.00e+00	0	30	0	3541041152	32	6222
2026-01-16 17:16:12.29	213.67	22.30	-30.0	-30.8	27.3	0.00e+00	0	30	0	3547332608	32	6256
2026-01-16 17:16:13.30	213.64	22.15	-30.1	-30.8	27.3	0.00e+00	0	30	0	3552575488	32	6280
2026-01-16 17:16:14.31	213.61	22.01	-30.1	-30.9	27.3	0.00e+00	0	30	0	3557818368	32	6325
2026-01-16 17:16:15.32	213.59	21.87	-30.1	-30.7	27.4	0.00e+00	0	30	0	3564109824	32	6183
2026-01-16 17:16:16.32	213.56	21.73	-30.1	-30.6	27.3	0.00e+00	0	29	0	3569352704	32	6171
2026-01-16 17:16:17.33	213.53	21.58	-30.1	-30.6	27.4	0.00e+00	0	29	0	3575644160	32	6169
2026-01-16 17:16:18.34	213.51	21.44	-30.1	-30.8	27.2	0.00e+00	0	29	0	3580887040	32	6294
2026-01-16 17:16:19.35	213.48	21.30	-30.0	-30.7	27.4	0.00e+00	0	29	0	3586129920	32	6240
2026-01-16 17:16:20.36	213.45	21.17	-29.9	-30.6	27.4	0.00e+00	0	29	0	3592421376	32	6168
2026-01-16 17:16:21.38	213.43	21.03	-29.9	-30.5	27.4	0.00e+00	0	29	0	3597664256	32	6050
2026-01-16 17:16:22.39	213.40	20.89	-29.9	-30.5	27.4	0.00e+00	0	29	0	3603955712	32	6069
2026-01-16 17:16:23.40	213.38	20.75	-30.0	-30.6	27.4	0.00e+00	0	29	0	3609198592	32	6139
2026-01-16 17:16:24.41	213.35	20.62	-30.1	-30.6	27.3	0.00e+00	0	29	0	3614441472	32	6153
2026-01-16 17:16:25.42	213.33	20.48	-30.1	-30.7	27.3	0.00e+00	0	29	0	3620732928	32	6197
2026-01-16 17:16:26.43	213.30	20.35	-29.9	-30.5	27.4	0.00e+00	0	29	0	3625975808	32	6065
2026-01-16 17:16:27.44	213.28	20.21	-30.0	-30.6	27.3	0.00e+00	0	29	0	3632267264	32	6120
2026-01-16 17:16:28.45	213.25	20.08	-30.0	-30.6	27.3	0.00e+00	0	29	0	3637510144	32	6134
2026-01-16 17:16:29.46	213.23	19.95	-30.1	-30.7	27.2	0.00e+00	0	29	0	3643801600	32	6210
2026-01-16 17:16:30.47	213.20	19.82	-30.1	-30.6	27.3	0.00e+00	0	29	0	3649044480	32	6154
2026-01-16 17:16:31.48	213.18	19.69	-30.1	-30.8	27.3	0.00e+00	0	29	0	3654287360	32	6259
