passes_logs/2026/01/16/R4.6S_Anadyr/R4.6S_Anadyr__20260116_230151_NOAA_20_JPSS-1_rec.log

#Pass ID: 20260116_230151_NOAA 20 (JPSS-1)
#Satellite: NOAA 20 (JPSS-1)
#Configuration: NOAA 20
#almurnet v.1.7.20251203
#Start time: 2026-01-16 23:01:54

#Version: 2.2.20231116
#Station: R4.6S_Anadyr
#Location: 177.4865 lon 64.73178 lat
#TLE: 1 43013U 17073A   26016.52825843  .00000039  00000+0  39346-4 0  9991
#TLE: 2 43013  98.7637 317.4515 0001446  37.2648 322.8628 14.19536276422951

#Time	Az	El	Level	Level2	SNR	BER	BlckErr	Temp	State	Recorded	gain1	gain2
2026-01-16 23:01:54.85	127.15	0.18	-48.7	-62.4	3.3	1.54e+00	0	28	0	0	60	47899
2026-01-16 23:01:55.86	127.12	0.24	-48.6	-63.7	3.6	1.51e+00	0	29	104	0	60	55312
2026-01-16 23:01:56.87	127.09	0.30	-48.5	-63.7	3.6	1.51e+00	0	29	104	0	60	55128
2026-01-16 23:01:57.88	127.06	0.36	-48.4	-63.6	3.6	1.51e+00	0	29	104	0	60	54504
2026-01-16 23:01:58.89	127.03	0.42	-48.3	-63.5	3.6	1.51e+00	0	29	104	0	60	54108
2026-01-16 23:01:59.90	127.00	0.48	-48.3	-63.5	3.6	1.51e+00	0	29	104	0	60	53863
2026-01-16 23:02:00.91	126.97	0.54	-48.2	-63.4	3.5	1.51e+00	0	29	104	0	60	53313
2026-01-16 23:02:01.92	126.94	0.60	-48.2	-63.4	3.6	1.51e+00	0	29	104	0	60	53420
2026-01-16 23:02:02.92	126.91	0.66	-48.0	-63.3	3.6	1.51e+00	0	29	104	0	60	52595
2026-01-16 23:02:03.93	126.88	0.72	-48.1	-63.2	3.6	1.51e+00	0	29	104	0	60	52345
2026-01-16 23:02:04.94	126.85	0.78	-47.5	-63.0	3.6	1.51e+00	0	29	104	0	60	51225
2026-01-16 23:02:05.95	126.82	0.84	-47.6	-62.9	3.6	1.51e+00	0	29	104	0	60	50534
2026-01-16 23:02:06.96	126.79	0.90	-47.6	-62.7	3.6	1.51e+00	0	29	104	0	60	49132
2026-01-16 23:02:07.97	126.76	0.96	-47.2	-62.3	3.6	1.51e+00	0	29	104	0	60	47223
2026-01-16 23:02:08.98	126.73	1.02	-46.7	-61.9	3.6	1.51e+00	0	29	104	0	60	44755
2026-01-16 23:02:09.99	126.70	1.08	-46.7	-61.8	3.6	1.51e+00	0	29	104	0	60	44493
2026-01-16 23:02:11.00	126.67	1.14	-46.7	-61.8	3.6	1.51e+00	0	29	104	0	60	44636
2026-01-16 23:02:12.01	126.63	1.20	-46.7	-61.9	3.6	1.51e+00	0	29	104	0	60	44743
2026-01-16 23:02:13.02	126.60	1.26	-46.7	-61.8	3.6	1.51e+00	0	29	104	0	60	44502
2026-01-16 23:02:14.02	126.57	1.33	-46.7	-61.9	3.6	1.51e+00	0	29	104	0	60	44865
2026-01-16 23:02:15.04	126.54	1.39	-46.7	-61.8	3.6	1.51e+00	0	29	104	0	60	44578
2026-01-16 23:02:16.05	126.51	1.45	-46.7	-61.8	3.6	1.51e+00	0	29	104	0	60	44520
2026-01-16 23:02:17.05	126.48	1.51	-46.7	-61.9	3.6	1.51e+00	0	29	104	0	60	44868
2026-01-16 23:02:18.06	126.44	1.57	-46.7	-61.9	3.6	1.51e+00	0	29	104	0	60	44764
2026-01-16 23:02:19.07	126.41	1.64	-46.7	-61.9	3.6	1.51e+00	0	29	104	0	60	44944
2026-01-16 23:02:20.08	126.38	1.70	-46.6	-61.9	3.6	1.51e+00	0	29	104	0	60	44892
2026-01-16 23:02:21.09	126.35	1.76	-46.6	-61.8	3.6	1.51e+00	0	29	104	0	60	44494
2026-01-16 23:02:22.10	126.31	1.82	-46.6	-61.7	3.6	1.51e+00	0	29	104	0	60	44086
2026-01-16 23:02:23.10	126.28	1.88	-46.6	-61.7	3.6	1.51e+00	0	29	104	0	60	44132
2026-01-16 23:02:24.12	126.25	1.95	-46.6	-61.7	3.6	1.51e+00	0	29	104	0	60	43736
2026-01-16 23:02:25.13	126.22	2.01	-46.6	-61.6	3.6	1.51e+00	0	29	104	0	60	43685
2026-01-16 23:02:26.14	126.18	2.07	-46.6	-61.7	3.6	1.51e+00	0	29	104	0	60	44057
2026-01-16 23:02:27.14	126.15	2.14	-46.6	-61.7	3.6	1.51e+00	0	29	104	0	60	44172
2026-01-16 23:02:28.16	126.11	2.20	-46.6	-61.8	3.6	1.51e+00	0	29	104	0	60	44449
2026-01-16 23:02:29.17	126.08	2.26	-46.6	-61.8	3.6	1.51e+00	0	29	104	0	60	44597
2026-01-16 23:02:30.18	126.05	2.33	-46.6	-61.8	3.6	1.51e+00	0	29	104	0	60	44689
2026-01-16 23:02:31.19	126.01	2.39	-46.6	-61.8	3.6	1.51e+00	0	29	104	0	60	44673
2026-01-16 23:02:32.20	125.98	2.46	-46.6	-61.7	3.6	1.51e+00	0	29	104	0	60	43897
2026-01-16 23:02:33.21	125.94	2.52	-46.7	-61.7	3.6	1.51e+00	0	29	104	0	60	43875
2026-01-16 23:02:34.22	125.91	2.58	-46.6	-61.5	3.6	1.51e+00	0	29	104	0	60	42930
2026-01-16 23:02:35.23	125.87	2.65	-46.6	-61.3	3.6	1.51e+00	0	29	104	0	60	42087
2026-01-16 23:02:36.23	125.84	2.71	-46.7	-61.2	3.6	1.51e+00	0	29	104	0	60	41284
2026-01-16 23:02:37.24	125.81	2.78	-46.6	-61.1	3.5	1.51e+00	0	29	104	0	60	40803
2026-01-16 23:02:38.25	125.77	2.84	-46.6	-61.2	3.5	1.51e+00	0	29	104	0	60	41391
2026-01-16 23:02:39.26	125.73	2.91	-46.6	-61.5	3.6	1.51e+00	0	29	104	0	60	42716
2026-01-16 23:02:40.27	125.70	2.97	-46.6	-61.8	3.6	1.51e+00	0	29	104	0	60	44551
2026-01-16 23:02:41.28	125.66	3.04	-46.6	-61.2	3.6	1.51e+00	0	29	104	0	60	41555
2026-01-16 23:02:42.28	125.63	3.10	-46.4	-58.1	4.2	1.50e+00	2	29	104	0	60	29073
2026-01-16 23:02:43.29	125.59	3.17	-46.1	-54.3	5.8	7.01e-01	92	29	0	0	60	18697
2026-01-16 23:02:44.30	125.56	3.23	-45.5	-51.6	8.5	9.83e-02	34	29	0	2097152	60	13680
2026-01-16 23:02:45.31	125.52	3.30	-44.2	-48.1	12.6	1.64e-03	92	29	0	4194304	60	9143
2026-01-16 23:02:46.32	125.48	3.36	-43.6	-46.8	14.1	6.10e-05	92	29	0	6291456	60	7881
2026-01-16 23:02:47.33	125.45	3.43	-42.6	-45.1	15.8	0.00e+00	89	29	0	7340032	58	7281
2026-01-16 23:02:48.34	125.41	3.49	-42.1	-44.4	16.5	0.00e+00	92	29	0	9437184	58	6743
2026-01-16 23:02:49.35	125.37	3.56	-41.7	-43.8	17.0	0.00e+00	0	29	0	11534336	56	7056
2026-01-16 23:02:50.37	125.33	3.63	-41.4	-43.3	17.4	0.00e+00	92	29	0	13631488	56	6680
2026-01-16 23:02:51.37	125.30	3.69	-46.9	-62.0	3.6	1.51e+00	0	29	104	13631488	60	45603
2026-01-16 23:02:52.38	125.26	3.76	-45.8	-54.5	5.1	1.50e+00	0	29	104	13631488	60	19171
2026-01-16 23:02:53.39	125.22	3.83	-45.9	-54.3	7.7	7.10e-01	92	29	104	13631488	60	18668
2026-01-16 23:02:54.40	125.18	3.89	-41.9	-44.0	17.4	0.00e+00	92	29	0	14680064	56	7245
2026-01-16 23:02:55.41	125.14	3.96	-46.3	-61.0	3.6	8.49e-01	0	29	104	15728640	60	40395
2026-01-16 23:02:56.42	125.11	4.03	-41.6	-43.6	16.8	1.47e+00	40	29	104	15728640	56	6908
2026-01-16 23:02:57.43	125.07	4.10	-40.9	-42.7	18.3	0.00e+00	92	29	0	15728640	56	6218
2026-01-16 23:02:58.44	125.03	4.16	-40.8	-42.5	18.4	0.00e+00	0	29	0	17825792	56	6083
2026-01-16 23:02:59.45	124.99	4.23	-40.3	-41.9	19.0	0.00e+00	90	29	0	19922944	54	6363
2026-01-16 23:03:00.46	124.95	4.30	-40.1	-41.7	19.2	0.00e+00	92	29	0	22020096	54	6211
2026-01-16 23:03:01.47	124.91	4.37	-40.2	-41.8	19.2	0.00e+00	92	29	0	24117248	54	6297
2026-01-16 23:03:02.48	124.87	4.44	-40.2	-41.8	19.2	0.00e+00	92	29	0	25165824	54	6261
2026-01-16 23:03:03.48	124.83	4.50	-40.1	-41.6	19.3	0.00e+00	92	29	0	27262976	54	6164
2026-01-16 23:03:04.49	124.79	4.57	-39.8	-41.3	19.7	0.00e+00	92	29	0	29360128	54	5947
2026-01-16 23:03:05.50	124.75	4.64	-39.7	-41.1	20.0	0.00e+00	2	29	0	31457280	52	6496
2026-01-16 23:03:06.51	124.71	4.71	-40.1	-41.7	19.3	0.00e+00	90	29	0	33554432	52	6947
2026-01-16 23:03:07.52	124.67	4.78	-40.1	-41.7	19.3	0.00e+00	92	29	0	34603008	52	6954
2026-01-16 23:03:08.53	124.63	4.85	-40.0	-41.5	19.6	0.00e+00	92	29	0	36700160	52	6786
2026-01-16 23:03:09.54	124.59	4.92	-40.2	-41.8	19.3	0.00e+00	92	29	0	38797312	52	7060
2026-01-16 23:03:10.55	124.55	4.99	-40.5	-42.1	18.9	0.00e+00	92	29	0	40894464	52	7333
2026-01-16 23:03:11.56	124.51	5.06	-40.6	-42.3	18.8	0.00e+00	92	29	0	42991616	52	7478
2026-01-16 23:03:12.57	124.46	5.13	-40.8	-42.5	18.6	0.00e+00	0	29	0	44040192	54	6799
2026-01-16 23:03:13.58	124.42	5.20	-40.9	-42.7	18.5	0.00e+00	92	29	0	46137344	54	6933
2026-01-16 23:03:14.59	124.38	5.27	-40.2	-41.7	19.4	0.00e+00	0	29	0	48234496	54	6205
2026-01-16 23:03:15.60	124.34	5.34	-40.0	-41.4	19.6	0.00e+00	92	29	0	50331648	54	6033
2026-01-16 23:03:16.61	124.29	5.41	-40.1	-41.6	19.5	0.00e+00	90	29	0	52428800	54	6119
2026-01-16 23:03:17.62	124.25	5.48	-40.0	-41.5	19.5	0.00e+00	92	29	0	53477376	54	6036
2026-01-16 23:03:18.63	124.21	5.55	-39.8	-41.1	20.0	0.00e+00	92	29	0	55574528	52	6512
2026-01-16 23:03:19.63	124.17	5.62	-39.7	-41.1	19.9	0.00e+00	92	29	0	57671680	52	6488
2026-01-16 23:03:20.64	124.12	5.69	-39.7	-41.1	19.9	0.00e+00	92	29	0	59768832	52	6472
2026-01-16 23:03:21.65	124.08	5.76	-39.8	-41.2	19.9	0.00e+00	43	29	0	61865984	52	6552
2026-01-16 23:03:22.66	124.04	5.84	-39.9	-41.3	19.7	0.00e+00	92	29	0	62914560	52	6663
2026-01-16 23:03:23.67	123.99	5.91	-39.8	-41.2	19.9	0.00e+00	92	29	0	65011712	52	6568
2026-01-16 23:03:24.68	123.95	5.98	-40.2	-41.7	19.6	0.00e+00	95	29	0	67108864	52	6950
2026-01-16 23:03:25.69	123.90	6.05	-40.3	-41.8	19.3	0.00e+00	92	29	0	69206016	52	7084
2026-01-16 23:03:26.70	123.86	6.12	-40.3	-41.9	19.3	0.00e+00	90	29	0	71303168	52	7134
2026-01-16 23:03:27.71	123.81	6.20	-40.1	-41.6	19.6	0.00e+00	92	29	0	72351744	52	6872
2026-01-16 23:03:28.72	123.77	6.27	-39.9	-41.4	19.9	0.00e+00	0	29	0	74448896	52	6694
2026-01-16 23:03:29.73	123.72	6.34	-39.9	-41.4	19.9	0.00e+00	89	29	0	76546048	52	6711
2026-01-16 23:03:30.74	123.68	6.42	-39.7	-41.2	20.1	0.00e+00	1	29	0	78643200	52	6540
2026-01-16 23:03:31.75	123.63	6.49	-39.7	-41.1	20.1	0.00e+00	90	29	0	80740352	52	6502
2026-01-16 23:03:32.75	123.58	6.56	-39.4	-40.7	20.4	0.00e+00	91	29	0	81788928	52	6199
2026-01-16 23:03:33.76	123.54	6.63	-39.5	-40.8	20.3	0.00e+00	92	29	0	83886080	52	6305
2026-01-16 23:03:34.77	123.49	6.71	-39.6	-40.9	20.3	0.00e+00	91	29	0	85983232	52	6352
2026-01-16 23:03:35.78	123.44	6.78	-39.4	-40.7	20.5	0.00e+00	49	29	0	88080384	52	6241
2026-01-16 23:03:36.79	123.40	6.86	-39.5	-40.8	20.5	0.00e+00	92	29	0	90177536	52	6258
2026-01-16 23:03:37.80	123.35	6.93	-39.5	-40.8	20.5	0.00e+00	0	29	0	92274688	52	6278
2026-01-16 23:03:38.81	123.30	7.01	-39.6	-40.9	20.4	0.00e+00	92	29	0	93323264	52	6375
2026-01-16 23:03:39.82	123.25	7.08	-39.6	-40.9	20.4	0.00e+00	92	29	0	95420416	52	6373
2026-01-16 23:03:40.83	123.20	7.16	-39.7	-41.0	20.4	0.00e+00	92	29	0	97517568	52	6438
2026-01-16 23:03:41.84	123.16	7.23	-39.6	-40.9	20.4	0.00e+00	92	29	0	99614720	52	6378
2026-01-16 23:03:42.85	123.11	7.31	-39.5	-40.8	20.6	0.00e+00	92	29	0	101711872	52	6269
2026-01-16 23:03:43.86	123.06	7.38	-39.5	-40.8	20.6	0.00e+00	92	29	0	102760448	52	6287
2026-01-16 23:03:44.87	123.01	7.46	-39.3	-40.5	20.9	0.00e+00	8	29	0	104857600	52	6059
2026-01-16 23:03:45.88	122.96	7.53	-39.3	-40.5	20.9	0.00e+00	91	29	0	106954752	52	6088
2026-01-16 23:03:46.89	122.91	7.61	-39.0	-40.2	21.1	0.00e+00	92	29	0	109051904	52	5839
2026-01-16 23:03:47.90	122.86	7.69	-39.0	-40.2	21.1	0.00e+00	92	29	0	111149056	52	5851
2026-01-16 23:03:48.91	122.81	7.76	-39.0	-40.2	21.1	0.00e+00	92	29	0	112197632	52	5864
2026-01-16 23:03:49.92	122.76	7.84	-38.9	-40.0	21.3	0.00e+00	91	29	0	114294784	52	5741
2026-01-16 23:03:50.92	122.71	7.92	-38.9	-40.1	21.2	0.00e+00	92	29	0	116391936	52	5794
2026-01-16 23:03:51.93	122.65	7.99	-39.1	-40.3	21.1	0.00e+00	0	29	0	118489088	52	5924
2026-01-16 23:03:52.95	122.60	8.07	-38.9	-40.1	21.3	0.00e+00	91	29	0	120586240	52	5768
2026-01-16 23:03:53.95	122.55	8.15	-39.0	-40.2	21.1	0.00e+00	0	29	0	121634816	52	5864
2026-01-16 23:03:54.96	122.50	8.23	-39.1	-40.3	21.1	0.00e+00	92	29	0	123731968	52	5905
2026-01-16 23:03:55.97	122.45	8.31	-39.1	-40.3	21.1	0.00e+00	91	29	0	125829120	52	5904
2026-01-16 23:03:56.98	122.39	8.38	-38.8	-40.0	21.4	0.00e+00	92	29	0	127926272	52	5725
2026-01-16 23:03:57.99	122.34	8.46	-38.9	-40.1	21.3	0.00e+00	92	29	0	130023424	52	5768
2026-01-16 23:03:59.00	122.29	8.54	-38.6	-39.8	21.5	0.00e+00	45	29	0	131072000	50	6255
2026-01-16 23:04:00.01	122.23	8.62	-38.6	-39.7	21.6	0.00e+00	92	29	0	133169152	50	6216
2026-01-16 23:04:01.02	122.18	8.70	-38.5	-39.6	21.8	0.00e+00	0	29	0	135266304	50	6137
2026-01-16 23:04:02.03	122.12	8.78	-38.5	-39.6	21.8	0.00e+00	90	29	0	137363456	50	6132
2026-01-16 23:04:03.04	122.07	8.86	-38.5	-39.6	21.8	0.00e+00	92	29	0	139460608	50	6147
2026-01-16 23:04:04.05	122.02	8.94	-38.5	-39.6	21.8	0.00e+00	89	29	0	140509184	50	6113
2026-01-16 23:04:05.06	121.96	9.02	-38.5	-39.6	21.8	0.00e+00	92	29	0	142606336	50	6121
2026-01-16 23:04:06.07	121.90	9.10	-38.5	-39.6	21.8	0.00e+00	54	29	0	144703488	50	6164
2026-01-16 23:04:07.07	121.85	9.18	-38.6	-39.8	21.6	0.00e+00	92	29	0	146800640	50	6248
2026-01-16 23:04:08.08	121.79	9.26	-38.6	-39.7	21.7	0.00e+00	31	29	0	148897792	50	6244
2026-01-16 23:04:09.09	121.74	9.34	-38.5	-39.6	21.8	0.00e+00	92	29	0	149946368	50	6142
2026-01-16 23:04:10.10	121.68	9.42	-38.6	-39.6	21.8	0.00e+00	35	29	0	152043520	50	6170
2026-01-16 23:04:11.11	121.62	9.51	-38.5	-39.6	21.8	0.00e+00	92	29	0	154140672	50	6140
2026-01-16 23:04:12.12	121.56	9.59	-38.4	-39.5	22.0	0.00e+00	91	29	0	156237824	50	6049
2026-01-16 23:04:13.13	121.51	9.67	-38.4	-39.5	22.0	0.00e+00	6	29	0	158334976	50	6055
2026-01-16 23:04:14.14	121.45	9.75	-38.5	-39.6	21.8	0.00e+00	91	29	0	160432128	50	6142
2026-01-16 23:04:15.15	121.39	9.83	-38.4	-39.5	22.0	0.00e+00	0	29	0	161480704	50	6066
2026-01-16 23:04:16.16	121.33	9.92	-38.4	-39.5	21.9	0.00e+00	92	29	0	163577856	50	6060
2026-01-16 23:04:17.17	121.27	10.00	-38.4	-39.5	22.0	0.00e+00	10	29	0	165675008	50	6074
2026-01-16 23:04:18.18	121.21	10.08	-38.5	-39.5	21.9	0.00e+00	92	29	0	167772160	50	6091
2026-01-16 23:04:19.19	121.15	10.17	-38.5	-39.6	21.9	0.00e+00	92	29	0	169869312	50	6121
2026-01-16 23:04:20.20	121.09	10.25	-38.4	-39.5	22.0	0.00e+00	51	29	0	170917888	50	6086
2026-01-16 23:04:21.21	121.03	10.33	-38.4	-39.5	22.0	0.00e+00	92	29	0	173015040	50	6056
2026-01-16 23:04:22.22	120.97	10.42	-38.3	-39.4	22.1	0.00e+00	40	29	0	175112192	50	5984
2026-01-16 23:04:23.23	120.91	10.50	-38.4	-39.5	21.9	0.00e+00	92	29	0	177209344	50	6034
2026-01-16 23:04:24.24	120.85	10.59	-38.3	-39.3	22.1	0.00e+00	74	29	0	179306496	50	5943
2026-01-16 23:04:25.25	120.78	10.67	-38.2	-39.3	22.1	0.00e+00	92	29	0	180355072	50	5931
2026-01-16 23:04:26.26	120.72	10.76	-38.4	-39.4	22.0	0.00e+00	92	29	0	182452224	50	6011
2026-01-16 23:04:27.26	120.66	10.84	-38.3	-39.4	22.2	0.00e+00	56	29	0	184549376	50	5966
2026-01-16 23:04:28.28	120.59	10.93	-38.2	-39.3	22.2	0.00e+00	89	29	0	186646528	50	5911
2026-01-16 23:04:29.28	120.53	11.02	-38.2	-39.3	22.2	0.00e+00	7	29	0	188743680	50	5900
2026-01-16 23:04:30.29	120.47	11.10	-38.2	-39.2	22.2	0.00e+00	91	29	0	189792256	50	5868
2026-01-16 23:04:31.30	120.40	11.19	-38.2	-39.2	22.2	0.00e+00	42	29	0	191889408	50	5888
2026-01-16 23:04:32.31	120.34	11.28	-38.2	-39.3	22.2	0.00e+00	92	29	0	193986560	50	5915
2026-01-16 23:04:33.32	120.27	11.36	-38.3	-39.4	22.0	0.00e+00	91	29	0	196083712	50	5969
2026-01-16 23:04:34.33	120.21	11.45	-38.2	-39.2	22.3	0.00e+00	90	29	0	198180864	50	5865
2026-01-16 23:04:35.34	120.14	11.54	-38.1	-39.2	22.3	0.00e+00	92	29	0	199229440	50	5840
2026-01-16 23:04:36.35	120.07	11.63	-38.1	-39.1	22.4	0.00e+00	8	29	0	201326592	50	5792
2026-01-16 23:04:37.36	120.01	11.71	-38.0	-39.0	22.4	0.00e+00	92	29	0	203423744	50	5739
2026-01-16 23:04:38.37	119.94	11.80	-37.9	-38.9	22.5	0.00e+00	52	29	0	205520896	50	5660
2026-01-16 23:04:39.38	119.87	11.89	-38.0	-39.0	22.5	0.00e+00	92	29	0	207618048	50	5710
2026-01-16 23:04:40.39	119.80	11.98	-37.9	-38.9	22.6	0.00e+00	53	29	0	208666624	50	5665
2026-01-16 23:04:41.40	119.73	12.07	-38.0	-39.0	22.5	0.00e+00	90	29	0	210763776	50	5718
2026-01-16 23:04:42.41	119.66	12.16	-38.2	-39.2	22.3	0.00e+00	92	29	0	212860928	50	5889
2026-01-16 23:04:43.41	119.59	12.25	-38.0	-39.0	22.5	0.00e+00	0	29	0	214958080	50	5759
2026-01-16 23:04:44.42	119.52	12.34	-37.8	-38.8	22.7	0.00e+00	92	29	0	217055232	50	5611
2026-01-16 23:04:45.43	119.45	12.43	-37.9	-38.9	22.4	0.00e+00	53	29	0	218103808	50	5688
2026-01-16 23:04:46.44	119.38	12.52	-37.9	-38.9	22.6	0.00e+00	92	29	0	220200960	50	5689
2026-01-16 23:04:47.45	119.31	12.61	-37.8	-38.8	22.7	0.00e+00	45	29	0	222298112	50	5583
2026-01-16 23:04:48.46	119.24	12.70	-37.9	-38.9	22.7	0.00e+00	92	29	0	224395264	50	5669
2026-01-16 23:04:49.47	119.17	12.80	-37.9	-38.9	22.6	0.00e+00	92	29	0	226492416	50	5669
2026-01-16 23:04:50.48	119.09	12.89	-37.7	-38.7	22.8	0.00e+00	0	29	0	228589568	48	6223
2026-01-16 23:04:51.49	119.02	12.98	-37.9	-38.9	22.6	0.00e+00	91	29	0	229638144	48	6384
2026-01-16 23:04:52.49	118.95	13.07	-37.6	-38.6	22.9	0.00e+00	29	29	0	231735296	48	6131
2026-01-16 23:04:53.50	118.87	13.17	-37.7	-38.7	22.8	0.00e+00	92	29	0	233832448	48	6219
2026-01-16 23:04:54.51	118.80	13.26	-37.7	-38.7	22.8	0.00e+00	39	29	0	235929600	48	6233
2026-01-16 23:04:55.52	118.72	13.35	-37.7	-38.8	22.7	0.00e+00	91	29	0	238026752	48	6248
2026-01-16 23:04:56.53	118.65	13.45	-37.6	-38.6	22.9	0.00e+00	80	29	0	239075328	48	6156
2026-01-16 23:04:57.54	118.57	13.54	-37.7	-38.7	22.8	0.00e+00	92	29	0	241172480	48	6241
2026-01-16 23:04:58.55	118.49	13.63	-37.7	-38.7	22.9	0.00e+00	92	29	0	243269632	48	6194
2026-01-16 23:04:59.56	118.42	13.73	-37.7	-38.7	22.9	0.00e+00	6	29	0	245366784	48	6180
2026-01-16 23:05:00.57	118.34	13.82	-37.7	-38.6	22.9	0.00e+00	92	29	0	247463936	48	6161
2026-01-16 23:05:01.57	118.26	13.92	-37.6	-38.6	22.9	0.00e+00	47	29	0	248512512	48	6148
2026-01-16 23:05:02.58	118.18	14.02	-37.7	-38.6	22.9	0.00e+00	92	29	0	250609664	48	6146
2026-01-16 23:05:03.59	118.10	14.11	-37.7	-38.7	22.9	0.00e+00	0	29	0	252706816	48	6226
2026-01-16 23:05:04.61	118.02	14.21	-37.7	-38.7	22.8	0.00e+00	92	29	0	254803968	48	6180
2026-01-16 23:05:05.61	117.94	14.30	-37.6	-38.6	22.9	0.00e+00	92	29	0	256901120	48	6165
2026-01-16 23:05:06.62	117.86	14.40	-37.7	-38.7	22.8	0.00e+00	0	29	0	257949696	48	6227
2026-01-16 23:05:07.63	117.78	14.50	-38.0	-39.0	22.6	0.00e+00	92	28	0	260046848	48	6423
2026-01-16 23:05:08.64	117.70	14.60	-37.8	-38.8	22.8	0.00e+00	46	29	0	262144000	48	6279
2026-01-16 23:05:09.65	117.62	14.70	-37.9	-38.9	22.6	0.00e+00	92	28	0	264241152	48	6353
2026-01-16 23:05:10.66	117.53	14.79	-37.8	-38.8	22.8	0.00e+00	32	29	0	266338304	48	6268
2026-01-16 23:05:11.67	117.45	14.89	-37.8	-38.8	22.7	0.00e+00	92	29	0	267386880	48	6295
2026-01-16 23:05:12.68	117.36	14.99	-37.8	-38.8	22.7	0.00e+00	92	29	0	269484032	48	6258
2026-01-16 23:05:13.69	117.28	15.09	-37.9	-38.9	22.7	0.00e+00	92	29	0	271581184	48	6329
2026-01-16 23:05:14.69	117.19	15.19	-37.7	-38.7	22.8	0.00e+00	92	29	0	273678336	48	6197
2026-01-16 23:05:15.70	117.11	15.29	-37.7	-38.7	22.9	0.00e+00	0	29	0	275775488	48	6222
2026-01-16 23:05:16.71	117.02	15.39	-37.9	-38.9	22.7	0.00e+00	92	29	0	276824064	48	6336
2026-01-16 23:05:17.72	116.93	15.49	-37.7	-38.7	22.9	0.00e+00	0	28	0	278921216	48	6198
2026-01-16 23:05:18.73	116.85	15.59	-37.8	-38.8	22.7	0.00e+00	92	29	0	281018368	48	6303
2026-01-16 23:05:19.74	116.76	15.69	-37.8	-38.8	22.8	0.00e+00	90	28	0	283115520	48	6287
2026-01-16 23:05:20.75	116.67	15.80	-37.8	-38.8	22.8	0.00e+00	92	28	0	285212672	48	6292
2026-01-16 23:05:21.76	116.58	15.90	-37.7	-38.7	22.9	0.00e+00	92	28	0	286261248	48	6210
2026-01-16 23:05:22.77	116.49	16.00	-37.9	-38.9	22.7	0.00e+00	0	29	0	288358400	48	6337
2026-01-16 23:05:23.78	116.40	16.10	-37.7	-38.7	22.9	0.00e+00	91	28	0	290455552	48	6194
2026-01-16 23:05:24.79	116.31	16.21	-37.8	-38.8	22.8	0.00e+00	0	28	0	292552704	48	6259
2026-01-16 23:05:25.80	116.21	16.31	-37.9	-38.9	22.7	0.00e+00	92	28	0	294649856	48	6368
2026-01-16 23:05:26.81	116.12	16.41	-37.9	-38.9	22.7	0.00e+00	0	28	0	295698432	48	6343
2026-01-16 23:05:27.81	116.03	16.52	-37.9	-39.0	22.6	0.00e+00	92	29	0	297795584	48	6395
2026-01-16 23:05:28.82	115.93	16.62	-37.9	-38.9	22.6	0.00e+00	92	29	0	299892736	48	6385
2026-01-16 23:05:29.83	115.84	16.73	-37.9	-38.9	22.5	0.00e+00	92	29	0	301989888	48	6372
2026-01-16 23:05:30.84	115.74	16.83	-37.9	-38.9	22.7	0.00e+00	92	28	0	304087040	48	6379
2026-01-16 23:05:31.85	115.65	16.94	-37.9	-38.9	22.7	0.00e+00	45	29	0	305135616	48	6346
2026-01-16 23:05:32.86	115.55	17.05	-38.1	-39.1	22.6	0.00e+00	91	28	0	307232768	48	6493
2026-01-16 23:05:33.87	115.45	17.15	-38.0	-39.0	22.7	0.00e+00	0	28	0	309329920	48	6398
2026-01-16 23:05:34.88	115.35	17.26	-38.0	-39.0	22.6	0.00e+00	92	29	0	311427072	48	6432
2026-01-16 23:05:35.89	115.25	17.37	-38.0	-39.0	22.5	0.00e+00	91	28	0	313524224	48	6426
2026-01-16 23:05:36.89	115.15	17.47	-38.0	-39.0	22.6	0.00e+00	90	28	0	314572800	48	6407
2026-01-16 23:05:37.90	115.05	17.58	-38.0	-39.0	22.6	0.00e+00	90	28	0	316669952	48	6409
2026-01-16 23:05:38.91	114.95	17.69	-37.9	-38.8	22.8	0.00e+00	44	29	0	318767104	48	6311
2026-01-16 23:05:39.92	114.85	17.80	-37.9	-38.8	22.8	0.00e+00	91	29	0	320864256	48	6301
2026-01-16 23:05:40.93	114.75	17.91	-38.1	-39.1	22.7	0.00e+00	6	28	0	322961408	48	6525
2026-01-16 23:05:41.93	114.64	18.02	-38.0	-39.0	22.8	0.00e+00	92	28	0	325058560	48	6412
2026-01-16 23:05:42.95	114.54	18.13	-38.0	-39.0	22.7	0.00e+00	7	28	0	326107136	48	6446
2026-01-16 23:05:43.95	114.43	18.24	-38.1	-39.1	22.6	0.00e+00	92	29	0	328204288	48	6471
2026-01-16 23:05:44.96	114.33	18.35	-38.0	-39.0	22.7	0.00e+00	92	28	0	330301440	48	6404
2026-01-16 23:05:45.97	114.22	18.46	-38.2	-39.1	22.6	0.00e+00	0	28	0	332398592	48	6539
2026-01-16 23:05:46.98	114.11	18.57	-38.0	-39.0	22.7	0.00e+00	92	28	0	334495744	48	6451
2026-01-16 23:05:47.99	114.00	18.68	-38.2	-39.2	22.6	0.00e+00	53	29	0	335544320	48	6557
2026-01-16 23:05:49.00	113.90	18.80	-38.2	-39.2	22.6	0.00e+00	92	28	0	337641472	48	6563
2026-01-16 23:05:50.00	113.79	18.91	-38.2	-39.2	22.6	0.00e+00	0	28	0	339738624	48	6551
2026-01-16 23:05:51.01	113.68	19.02	-38.0	-39.0	22.7	0.00e+00	92	28	0	341835776	48	6462
2026-01-16 23:05:52.02	113.56	19.13	-38.2	-39.2	22.6	0.00e+00	90	28	0	343932928	48	6557
2026-01-16 23:05:53.03	113.45	19.25	-38.1	-39.1	22.6	0.00e+00	92	28	0	344981504	48	6526
2026-01-16 23:05:54.04	113.34	19.36	-38.1	-39.1	22.7	0.00e+00	90	28	0	347078656	48	6484
2026-01-16 23:05:55.05	113.22	19.48	-38.1	-39.1	22.7	0.00e+00	54	29	0	349175808	48	6477
2026-01-16 23:05:56.06	113.11	19.59	-38.0	-39.0	22.7	0.00e+00	91	28	0	351272960	48	6410
2026-01-16 23:05:57.07	112.99	19.71	-37.8	-38.8	22.9	0.00e+00	38	28	0	353370112	48	6272
2026-01-16 23:05:58.08	112.87	19.82	-37.9	-38.9	22.8	0.00e+00	92	28	0	354418688	48	6352
2026-01-16 23:05:59.09	112.76	19.94	-37.8	-38.8	22.9	0.00e+00	92	29	0	356515840	48	6281
2026-01-16 23:06:00.10	112.64	20.06	-37.8	-38.8	22.9	0.00e+00	90	28	0	358612992	48	6263
2026-01-16 23:06:01.11	112.52	20.17	-37.7	-38.7	23.0	0.00e+00	91	28	0	360710144	48	6223
2026-01-16 23:06:02.12	112.40	20.29	-37.8	-38.7	22.8	0.00e+00	0	28	0	362807296	48	6239
2026-01-16 23:06:03.13	112.27	20.41	-37.8	-38.7	22.9	0.00e+00	92	28	0	363855872	48	6241
2026-01-16 23:06:04.13	112.15	20.53	-37.8	-38.8	22.9	0.00e+00	7	28	0	365953024	48	6283
2026-01-16 23:06:05.14	112.03	20.65	-37.8	-38.8	22.8	0.00e+00	92	28	0	368050176	48	6287
2026-01-16 23:06:06.15	111.90	20.77	-37.9	-38.8	22.7	0.00e+00	0	28	0	370147328	48	6304
2026-01-16 23:06:07.16	111.78	20.89	-38.0	-39.0	22.7	0.00e+00	92	28	0	372244480	48	6419
2026-01-16 23:06:08.17	111.65	21.01	-38.0	-39.0	22.7	0.00e+00	92	28	0	373293056	48	6435
2026-01-16 23:06:09.18	111.52	21.13	-37.9	-38.9	22.8	0.00e+00	91	28	0	375390208	48	6325
2026-01-16 23:06:10.19	111.40	21.25	-38.1	-39.0	22.7	0.00e+00	92	28	0	377487360	48	6459
2026-01-16 23:06:11.20	111.27	21.37	-38.0	-38.9	22.8	0.00e+00	0	28	0	379584512	48	6379
2026-01-16 23:06:12.21	111.14	21.49	-38.0	-39.0	22.7	0.00e+00	90	28	0	381681664	48	6396
2026-01-16 23:06:13.22	111.00	21.61	-37.9	-38.9	22.8	0.00e+00	0	28	0	382730240	48	6379
2026-01-16 23:06:14.23	110.87	21.74	-37.8	-38.8	22.9	0.00e+00	92	28	0	384827392	48	6290
2026-01-16 23:06:15.24	110.74	21.86	-37.9	-38.8	22.8	0.00e+00	90	28	0	386924544	48	6317
2026-01-16 23:06:16.25	110.60	21.98	-37.9	-38.9	22.8	0.00e+00	92	28	0	389021696	48	6356
2026-01-16 23:06:17.26	110.47	22.11	-38.0	-38.9	22.8	0.00e+00	90	28	0	391118848	48	6383
2026-01-16 23:06:18.27	110.33	22.23	-38.0	-38.9	22.9	0.00e+00	34	28	0	393216000	48	6381
2026-01-16 23:06:19.27	110.19	22.36	-38.0	-39.0	22.8	0.00e+00	92	28	0	394264576	48	6424
2026-01-16 23:06:20.28	110.05	22.48	-37.9	-38.9	22.9	0.00e+00	27	28	0	396361728	48	6346
2026-01-16 23:06:21.29	109.91	22.61	-38.1	-39.1	22.8	0.00e+00	92	28	0	398458880	48	6479
2026-01-16 23:06:22.30	109.77	22.73	-37.9	-38.9	22.9	0.00e+00	91	28	0	400556032	48	6322
2026-01-16 23:06:23.31	109.63	22.86	-38.0	-38.9	22.9	0.00e+00	92	28	0	401604608	48	6383
2026-01-16 23:06:24.32	109.48	22.99	-37.9	-38.9	22.9	0.00e+00	92	28	0	403701760	48	6352
2026-01-16 23:06:25.33	109.34	23.12	-37.9	-38.9	22.9	0.00e+00	92	29	0	405798912	48	6364
2026-01-16 23:06:26.34	109.19	23.24	-38.0	-39.0	22.8	0.00e+00	90	28	0	407896064	48	6401
2026-01-16 23:06:27.35	109.04	23.37	-37.9	-38.9	22.9	0.00e+00	0	28	0	409993216	48	6334
2026-01-16 23:06:28.36	108.89	23.50	-37.9	-38.9	22.9	0.00e+00	90	28	0	411041792	48	6348
2026-01-16 23:06:29.37	108.74	23.63	-38.0	-39.0	22.8	0.00e+00	56	28	0	413138944	48	6428
2026-01-16 23:06:30.38	108.59	23.76	-38.0	-38.9	22.8	0.00e+00	90	29	0	415236096	48	6387
2026-01-16 23:06:31.38	108.44	23.89	-37.9	-38.9	23.0	0.00e+00	92	28	0	417333248	48	6360
2026-01-16 23:06:32.39	108.28	24.02	-38.0	-38.9	22.9	0.00e+00	90	28	0	419430400	48	6370
2026-01-16 23:06:33.40	108.13	24.15	-38.0	-39.0	22.8	0.00e+00	92	28	0	421527552	48	6446
2026-01-16 23:06:34.41	107.97	24.28	-38.1	-39.0	22.9	0.00e+00	6	28	0	422576128	48	6457
2026-01-16 23:06:35.42	107.81	24.41	-37.9	-38.9	22.9	0.00e+00	92	28	0	424673280	48	6326
2026-01-16 23:06:36.43	107.65	24.54	-38.1	-39.0	22.9	0.00e+00	33	28	0	426770432	48	6457
2026-01-16 23:06:37.44	107.49	24.68	-38.1	-39.1	22.7	0.00e+00	92	28	0	428867584	48	6473
2026-01-16 23:06:38.45	107.33	24.81	-38.1	-39.1	22.7	0.00e+00	91	28	0	430964736	48	6519
2026-01-16 23:06:39.46	107.17	24.94	-38.3	-39.2	22.7	0.00e+00	90	28	0	432013312	48	6612
2026-01-16 23:06:40.47	107.00	25.08	-38.1	-39.1	22.8	0.00e+00	91	28	0	434110464	48	6496
2026-01-16 23:06:41.48	106.84	25.21	-38.2	-39.2	22.7	0.00e+00	92	28	0	436207616	48	6555
2026-01-16 23:06:42.49	106.67	25.35	-38.2	-39.2	22.7	0.00e+00	91	28	0	438304768	48	6599
2026-01-16 23:06:43.50	106.50	25.48	-38.1	-39.2	22.6	0.00e+00	0	28	0	440401920	48	6544
2026-01-16 23:06:44.51	106.33	25.62	-38.2	-39.2	22.6	0.00e+00	92	28	0	441450496	48	6596
2026-01-16 23:06:45.52	106.15	25.75	-38.3	-39.4	22.5	0.00e+00	91	28	0	443547648	48	6693
2026-01-16 23:06:46.53	105.98	25.89	-38.3	-39.3	22.5	0.00e+00	92	28	0	445644800	48	6686
2026-01-16 23:06:47.53	105.81	26.02	-38.4	-39.4	22.4	0.00e+00	92	28	0	447741952	48	6764
2026-01-16 23:06:48.54	105.63	26.16	-38.3	-39.4	22.5	0.00e+00	90	28	0	449839104	48	6715
2026-01-16 23:06:49.55	105.45	26.30	-38.1	-39.1	22.7	0.00e+00	91	28	0	450887680	48	6525
2026-01-16 23:06:50.55	105.27	26.44	-38.1	-39.1	22.8	0.00e+00	0	28	0	452984832	48	6494
2026-01-16 23:06:51.56	105.09	26.57	-37.9	-38.9	22.9	0.00e+00	92	28	0	455081984	48	6342
2026-01-16 23:06:52.57	104.91	26.71	-38.1	-39.1	22.8	0.00e+00	0	28	0	457179136	48	6470
2026-01-16 23:06:53.58	104.72	26.85	-38.3	-39.3	22.6	0.00e+00	91	28	0	459276288	48	6638
2026-01-16 23:06:54.59	104.54	26.99	-38.2	-39.2	22.6	0.00e+00	90	28	0	460324864	48	6584
2026-01-16 23:06:55.60	104.35	27.13	-38.4	-39.5	22.4	0.00e+00	92	28	0	462422016	48	6794
2026-01-16 23:06:56.61	104.16	27.27	-38.6	-39.7	22.2	0.00e+00	92	28	0	464519168	48	6938
2026-01-16 23:06:57.62	103.97	27.41	-38.6	-39.7	22.2	0.00e+00	26	28	0	466616320	48	6935
2026-01-16 23:06:58.63	103.77	27.55	-38.7	-39.8	22.1	0.00e+00	92	28	0	468713472	50	6288
2026-01-16 23:06:59.63	103.58	27.69	-38.7	-39.8	21.9	0.00e+00	0	28	0	469762048	50	6264
2026-01-16 23:07:00.64	103.38	27.83	-38.9	-39.9	22.0	0.00e+00	92	28	0	471859200	50	6369
2026-01-16 23:07:01.65	103.19	27.98	-38.8	-39.8	22.0	0.00e+00	90	28	0	473956352	50	6295
2026-01-16 23:07:02.66	102.99	28.12	-39.0	-40.0	21.8	0.00e+00	92	28	0	476053504	50	6462
2026-01-16 23:07:03.67	102.78	28.26	-39.2	-40.3	21.6	0.00e+00	90	28	0	478150656	50	6633
2026-01-16 23:07:04.68	102.58	28.40	-39.3	-40.4	21.5	0.00e+00	92	28	0	479199232	50	6702
2026-01-16 23:07:05.69	102.37	28.55	-39.4	-40.5	21.5	0.00e+00	90	28	0	481296384	50	6806
2026-01-16 23:07:06.70	102.17	28.69	-39.6	-40.7	21.3	0.00e+00	10	28	0	483393536	50	7000
2026-01-16 23:07:07.71	101.96	28.83	-39.8	-41.0	21.0	0.00e+00	90	28	0	485490688	52	6420
2026-01-16 23:07:08.72	101.74	28.98	-40.1	-41.3	20.8	0.00e+00	92	28	0	487587840	52	6652
2026-01-16 23:07:09.73	101.53	29.12	-40.4	-41.7	20.4	0.00e+00	92	28	0	489684992	52	6993
2026-01-16 23:07:10.74	101.32	29.27	-40.7	-42.1	20.0	0.00e+00	90	28	0	490733568	54	6472
2026-01-16 23:07:11.75	101.10	29.41	-40.9	-42.3	19.6	0.00e+00	92	28	0	492830720	54	6676
2026-01-16 23:07:12.75	100.88	29.56	-41.3	-42.8	19.2	0.00e+00	92	28	0	494927872	54	7079
2026-01-16 23:07:13.76	100.66	29.70	-41.3	-42.8	19.3	0.00e+00	0	28	0	497025024	54	7067
2026-01-16 23:07:14.77	100.44	29.85	-41.2	-42.6	19.5	0.00e+00	92	28	0	499122176	54	6900
2026-01-16 23:07:15.78	100.21	29.99	-41.2	-42.7	19.5	0.00e+00	0	28	0	500170752	54	6934
2026-01-16 23:07:16.79	99.98	30.14	-41.3	-42.8	19.6	0.00e+00	91	28	0	502267904	54	7026
2026-01-16 23:07:17.80	99.75	30.29	-41.2	-42.7	19.6	0.00e+00	92	28	0	504365056	54	6933
2026-01-16 23:07:18.81	99.52	30.43	-41.1	-42.5	19.6	0.00e+00	92	28	0	506462208	54	6833
2026-01-16 23:07:19.82	99.29	30.58	-41.3	-42.7	19.5	0.00e+00	92	28	0	508559360	54	7007
2026-01-16 23:07:20.83	99.05	30.73	-41.2	-42.6	19.6	0.00e+00	40	28	0	509607936	54	6886
2026-01-16 23:07:21.83	98.82	30.87	-41.1	-42.5	19.7	0.00e+00	92	28	0	511705088	54	6794
2026-01-16 23:07:22.85	98.58	31.02	-41.0	-42.4	19.9	0.00e+00	52	28	0	513802240	54	6697
2026-01-16 23:07:23.86	98.33	31.17	-40.8	-42.1	20.0	0.00e+00	91	28	0	515899392	54	6521
2026-01-16 23:07:24.86	98.09	31.32	-40.9	-42.3	19.9	0.00e+00	64	28	0	517996544	54	6663
2026-01-16 23:07:25.87	97.84	31.46	-40.9	-42.3	19.9	0.00e+00	92	28	0	519045120	54	6631
2026-01-16 23:07:26.88	97.59	31.61	-41.0	-42.4	19.9	0.00e+00	92	28	0	521142272	54	6728
2026-01-16 23:07:27.89	97.34	31.76	-41.1	-42.6	19.7	0.00e+00	92	28	0	523239424	54	6860
2026-01-16 23:07:28.89	97.09	31.91	-41.5	-42.9	19.7	0.00e+00	90	28	0	525336576	54	7144
2026-01-16 23:07:29.90	96.83	32.06	-41.2	-42.6	19.7	0.00e+00	0	28	0	527433728	54	6916
2026-01-16 23:07:30.91	96.58	32.20	-41.3	-42.8	19.4	0.00e+00	92	28	0	528482304	54	7073
2026-01-16 23:07:31.92	96.32	32.35	-41.2	-42.7	19.7	0.00e+00	80	28	0	530579456	54	6958
2026-01-16 23:07:32.92	96.05	32.50	-41.2	-42.6	19.6	0.00e+00	92	28	0	532676608	54	6906
2026-01-16 23:07:33.93	95.79	32.65	-41.1	-42.5	19.7	0.00e+00	92	28	0	534773760	54	6784
2026-01-16 23:07:34.94	95.52	32.80	-40.9	-42.3	19.9	0.00e+00	90	28	0	536870912	54	6630
2026-01-16 23:07:35.95	95.25	32.95	-40.5	-41.8	20.3	0.00e+00	92	28	0	537919488	54	6301
2026-01-16 23:07:36.96	94.98	33.10	-40.6	-42.0	20.2	0.00e+00	13	28	0	540016640	54	6397
2026-01-16 23:07:37.97	94.70	33.24	-40.4	-41.7	20.5	0.00e+00	92	28	0	542113792	54	6176
2026-01-16 23:07:38.98	94.42	33.39	-40.2	-41.5	20.4	0.00e+00	0	28	0	544210944	54	6052
2026-01-16 23:07:39.99	94.14	33.54	-40.3	-41.6	20.4	0.00e+00	92	28	0	546308096	54	6148
2026-01-16 23:07:41.00	93.86	33.69	-40.3	-41.5	20.6	0.00e+00	89	28	0	547356672	54	6079
2026-01-16 23:07:42.01	93.57	33.84	-40.1	-41.3	20.8	0.00e+00	92	28	0	549453824	54	5955
2026-01-16 23:07:43.02	93.28	33.99	-39.8	-41.0	21.1	0.00e+00	92	28	0	551550976	54	5706
2026-01-16 23:07:44.03	92.99	34.13	-39.7	-40.9	21.2	0.00e+00	44	28	0	553648128	52	6367
2026-01-16 23:07:45.04	92.70	34.28	-39.7	-40.8	21.3	0.00e+00	92	28	0	555745280	52	6299
2026-01-16 23:07:46.05	92.40	34.43	-39.5	-40.7	21.7	0.00e+00	37	28	0	556793856	52	6186
2026-01-16 23:07:47.05	92.10	34.58	-39.4	-40.5	21.9	0.00e+00	92	28	0	558891008	52	6058
2026-01-16 23:07:48.06	91.80	34.72	-38.9	-40.0	22.1	0.00e+00	49	28	0	560988160	52	5759
2026-01-16 23:07:49.07	91.50	34.87	-39.0	-40.1	22.0	0.00e+00	92	28	0	563085312	52	5811
2026-01-16 23:07:50.08	91.19	35.02	-38.9	-40.0	22.1	0.00e+00	92	28	0	565182464	52	5715
2026-01-16 23:07:51.09	90.88	35.17	-38.8	-39.8	22.2	0.00e+00	90	28	0	566231040	52	5622
2026-01-16 23:07:52.10	90.56	35.31	-38.9	-40.0	22.1	0.00e+00	92	28	0	568328192	52	5705
2026-01-16 23:07:53.11	90.25	35.46	-39.2	-40.3	21.8	0.00e+00	24	28	0	570425344	52	5931
2026-01-16 23:07:54.12	89.93	35.60	-39.4	-40.5	21.6	0.00e+00	92	28	0	572522496	52	6096
2026-01-16 23:07:55.12	89.61	35.75	-39.2	-40.3	21.8	0.00e+00	32	28	0	574619648	52	5942
2026-01-16 23:07:56.13	89.29	35.89	-39.6	-40.7	21.5	0.00e+00	92	28	0	575668224	52	6198
2026-01-16 23:07:57.14	88.96	36.04	-39.6	-40.7	21.6	0.00e+00	90	28	0	577765376	52	6194
2026-01-16 23:07:58.15	88.63	36.18	-39.7	-40.9	21.4	0.00e+00	92	28	0	579862528	52	6334
2026-01-16 23:07:59.16	88.29	36.32	-40.2	-41.4	21.0	0.00e+00	92	28	0	581959680	52	6717
2026-01-16 23:08:00.17	87.96	36.47	-40.1	-41.3	21.2	0.00e+00	0	28	0	584056832	52	6669
2026-01-16 23:08:01.18	87.62	36.61	-39.8	-41.0	21.4	0.00e+00	90	28	0	586153984	52	6401
2026-01-16 23:08:02.19	87.27	36.75	-40.0	-41.2	21.2	0.00e+00	0	28	0	587202560	52	6541
2026-01-16 23:08:03.20	86.93	36.89	-39.9	-41.1	21.2	0.00e+00	92	28	0	589299712	52	6494
2026-01-16 23:08:04.21	86.58	37.04	-39.7	-40.8	21.4	0.00e+00	91	28	0	591396864	52	6310
2026-01-16 23:08:05.22	86.23	37.18	-39.8	-40.9	21.3	0.00e+00	90	28	0	593494016	52	6384
2026-01-16 23:08:06.23	85.87	37.32	-39.9	-41.1	21.4	0.00e+00	92	28	0	595591168	52	6497
2026-01-16 23:08:07.23	85.52	37.45	-39.9	-41.1	20.8	0.00e+00	55	28	0	596639744	52	6516
2026-01-16 23:08:08.25	85.15	37.59	-40.1	-41.3	20.7	0.00e+00	91	28	0	598736896	52	6684
2026-01-16 23:08:09.25	84.79	37.73	-40.7	-42.0	20.5	0.00e+00	37	28	0	600834048	52	7199
2026-01-16 23:08:10.27	84.42	37.87	-40.5	-41.8	20.2	0.00e+00	92	28	0	602931200	54	6281
2026-01-16 23:08:11.27	84.06	38.00	-40.7	-42.0	20.1	0.00e+00	37	28	0	605028352	54	6450
2026-01-16 23:08:12.28	83.68	38.14	-41.1	-42.5	19.9	0.00e+00	89	28	0	606076928	54	6804
2026-01-16 23:08:13.29	83.31	38.27	-41.0	-42.3	20.2	0.00e+00	92	28	0	608174080	54	6689
2026-01-16 23:08:14.30	82.93	38.41	-40.5	-41.8	20.5	0.00e+00	92	28	0	610271232	54	6269
2026-01-16 23:08:15.31	82.55	38.54	-39.9	-41.0	21.2	0.00e+00	92	28	0	612368384	54	5755
2026-01-16 23:08:16.32	82.16	38.67	-39.9	-41.1	21.2	0.00e+00	0	28	0	614465536	52	6504
2026-01-16 23:08:17.33	81.77	38.80	-40.1	-41.2	21.3	0.00e+00	91	28	0	615514112	52	6598
2026-01-16 23:08:18.33	81.38	38.93	-39.8	-41.0	21.3	0.00e+00	0	28	0	617611264	52	6410
2026-01-16 23:08:19.34	80.99	39.06	-39.5	-40.6	21.7	0.00e+00	90	28	0	619708416	52	6165
2026-01-16 23:08:20.36	80.59	39.18	-39.6	-40.7	21.6	0.00e+00	92	28	0	621805568	52	6244
2026-01-16 23:08:21.36	80.19	39.31	-39.3	-40.4	21.9	0.00e+00	89	28	0	623902720	52	5998
2026-01-16 23:08:22.37	79.78	39.43	-39.5	-40.7	21.8	0.00e+00	92	28	0	624951296	52	6176
2026-01-16 23:08:23.38	79.38	39.56	-39.1	-40.1	22.2	0.00e+00	0	28	0	627048448	52	5816
2026-01-16 23:08:24.39	78.97	39.68	-39.0	-40.0	22.2	0.00e+00	92	28	0	629145600	52	5753
2026-01-16 23:08:25.40	78.55	39.80	-38.7	-39.7	22.5	0.00e+00	0	28	0	631242752	50	6204
2026-01-16 23:08:26.41	78.14	39.92	-38.1	-39.0	22.9	0.00e+00	92	28	0	633339904	50	5739
2026-01-16 23:08:27.42	77.72	40.04	-38.3	-39.3	22.8	0.00e+00	91	28	0	634388480	50	5898
2026-01-16 23:08:28.43	77.29	40.16	-38.5	-39.5	22.6	0.00e+00	91	28	0	636485632	50	6078
2026-01-16 23:08:29.44	76.87	40.28	-38.4	-39.4	22.7	0.00e+00	92	28	0	638582784	50	5996
2026-01-16 23:08:30.44	76.44	40.39	-37.8	-38.7	23.2	0.00e+00	25	28	0	640679936	50	5512
2026-01-16 23:08:31.45	76.01	40.50	-37.8	-38.7	23.3	0.00e+00	90	28	0	642777088	48	6219
2026-01-16 23:08:32.46	75.58	40.61	-37.9	-38.8	23.3	0.00e+00	23	28	0	643825664	48	6254
2026-01-16 23:08:33.47	75.14	40.72	-38.2	-39.2	23.1	0.00e+00	92	28	0	645922816	48	6541
2026-01-16 23:08:34.48	74.70	40.83	-38.4	-39.3	22.8	0.00e+00	92	28	0	648019968	48	6683
2026-01-16 23:08:35.49	74.25	40.94	-38.6	-39.6	22.8	0.00e+00	6	28	0	650117120	48	6856
2026-01-16 23:08:36.50	73.81	41.04	-38.9	-39.9	22.3	0.00e+00	91	28	0	652214272	50	6348
2026-01-16 23:08:37.50	73.36	41.15	-39.1	-40.2	21.9	0.00e+00	56	28	0	653262848	50	6598
2026-01-16 23:08:38.51	72.91	41.25	-39.0	-40.1	22.0	0.00e+00	92	28	0	655360000	50	6523
2026-01-16 23:08:39.52	72.45	41.35	-38.9	-39.9	22.3	0.00e+00	0	28	0	657457152	50	6371
2026-01-16 23:08:40.53	71.99	41.45	-38.4	-39.4	22.6	0.00e+00	90	28	0	659554304	50	6011
2026-01-16 23:08:41.54	71.53	41.54	-38.1	-39.1	23.0	0.00e+00	8	28	0	661651456	50	5782
2026-01-16 23:08:42.55	71.07	41.64	-37.6	-38.5	23.5	0.00e+00	92	28	0	662700032	48	6092
2026-01-16 23:08:43.55	70.61	41.73	-37.5	-38.4	23.5	0.00e+00	90	28	0	664797184	48	5978
2026-01-16 23:08:44.56	70.14	41.82	-37.8	-38.7	23.5	0.00e+00	0	28	0	666894336	48	6209
2026-01-16 23:08:45.57	69.67	41.91	-38.0	-39.0	23.4	0.00e+00	92	28	0	668991488	48	6407
2026-01-16 23:08:46.57	69.20	41.99	-37.7	-38.7	23.3	0.00e+00	50	28	0	671088640	48	6178
2026-01-16 23:08:47.58	68.72	42.08	-38.1	-39.1	23.1	0.00e+00	92	28	0	672137216	48	6480
2026-01-16 23:08:48.59	68.24	42.16	-38.1	-39.1	23.1	0.00e+00	33	28	0	674234368	48	6468
2026-01-16 23:08:49.60	67.76	42.24	-37.8	-38.8	23.2	0.00e+00	92	28	0	676331520	48	6256
2026-01-16 23:08:50.61	67.27	42.32	-37.9	-38.8	23.4	0.00e+00	92	28	0	678428672	48	6302
2026-01-16 23:08:51.61	66.79	42.40	-37.8	-38.8	23.4	0.00e+00	0	28	0	680525824	48	6246
2026-01-16 23:08:52.62	66.30	42.47	-37.8	-38.7	23.5	0.00e+00	92	28	0	682622976	48	6186
2026-01-16 23:08:53.63	65.81	42.54	-37.3	-38.2	24.0	0.00e+00	36	28	0	683671552	48	5849
2026-01-16 23:08:54.63	65.32	42.61	-36.9	-37.7	24.2	0.00e+00	92	28	0	685768704	48	5564
2026-01-16 23:08:55.64	64.83	42.68	-36.9	-37.7	24.2	0.00e+00	49	28	0	687865856	48	5565
2026-01-16 23:08:56.65	64.33	42.74	-37.2	-38.0	23.9	0.00e+00	92	28	0	689963008	48	5747
2026-01-16 23:08:57.66	63.83	42.81	-37.2	-38.1	23.9	0.00e+00	35	28	0	691011584	48	5796
2026-01-16 23:08:58.67	63.33	42.87	-37.3	-38.2	23.7	0.00e+00	0	28	0	693108736	48	5857
2026-01-16 23:08:59.67	62.83	42.92	-37.5	-38.4	23.7	0.00e+00	92	28	0	695205888	48	5991
2026-01-16 23:09:00.68	62.33	42.98	-37.4	-38.3	23.6	0.00e+00	33	28	0	697303040	48	5951
2026-01-16 23:09:01.69	61.82	43.03	-37.5	-38.3	23.6	0.00e+00	92	28	0	699400192	48	5948
2026-01-16 23:09:02.70	61.31	43.08	-37.2	-38.1	24.0	0.00e+00	7	28	0	700448768	48	5778
2026-01-16 23:09:03.71	60.80	43.13	-37.4	-38.3	23.8	0.00e+00	91	28	0	702545920	48	5922
2026-01-16 23:09:04.72	60.29	43.18	-37.3	-38.2	23.8	0.00e+00	6	28	0	704643072	48	5887
2026-01-16 23:09:05.73	59.78	43.22	-37.2	-38.0	23.7	0.00e+00	91	28	0	706740224	48	5747
2026-01-16 23:09:06.73	59.27	43.26	-37.3	-38.2	23.7	0.00e+00	92	28	0	708837376	48	5860
2026-01-16 23:09:07.75	58.75	43.30	-37.8	-38.7	23.2	0.00e+00	6	28	0	710934528	48	6217
2026-01-16 23:09:08.76	58.24	43.33	-38.0	-38.9	23.0	0.00e+00	92	28	0	711983104	48	6355
2026-01-16 23:09:09.76	57.72	43.37	-38.0	-39.0	23.1	0.00e+00	0	28	0	714080256	48	6407
2026-01-16 23:09:10.77	57.20	43.40	-37.8	-38.7	23.2	0.00e+00	91	28	0	716177408	48	6244
2026-01-16 23:09:11.78	56.69	43.42	-37.9	-38.8	23.2	0.00e+00	44	28	0	718274560	48	6306
2026-01-16 23:09:12.79	56.16	43.45	-38.2	-39.1	22.9	0.00e+00	92	28	0	720371712	48	6517
2026-01-16 23:09:13.80	55.64	43.47	-38.3	-39.3	22.8	0.00e+00	27	28	0	721420288	48	6640
2026-01-16 23:09:14.80	55.13	43.49	-38.4	-39.4	22.6	0.00e+00	0	28	0	723517440	48	6764
2026-01-16 23:09:15.81	54.61	43.51	-38.9	-40.0	22.3	0.00e+00	92	28	0	725614592	50	6422
2026-01-16 23:09:16.82	54.08	43.52	-38.9	-40.0	22.1	0.00e+00	31	28	0	727711744	50	6394
2026-01-16 23:09:17.83	53.56	43.53	-38.7	-39.7	22.5	0.00e+00	92	28	0	729808896	50	6212
2026-01-16 23:09:18.84	53.04	43.54	-38.5	-39.5	22.6	0.00e+00	30	28	0	730857472	50	6077
2026-01-16 23:09:19.85	52.51	43.55	-38.7	-39.7	22.3	0.00e+00	92	28	0	732954624	50	6245
2026-01-16 23:09:20.86	51.99	43.55	-39.5	-40.6	21.6	0.00e+00	36	28	0	735051776	50	6891
2026-01-16 23:09:21.87	51.46	43.56	-40.0	-41.1	21.4	0.00e+00	7	28	0	737148928	52	6531
2026-01-16 23:09:22.87	50.95	43.55	-39.7	-40.9	21.3	0.00e+00	92	28	0	739246080	52	6334
2026-01-16 23:09:23.88	50.42	43.55	-39.6	-40.7	21.7	0.00e+00	7	28	0	740294656	52	6196
2026-01-16 23:09:24.89	49.90	43.54	-39.8	-41.0	21.0	0.00e+00	90	28	0	742391808	52	6411
2026-01-16 23:09:25.90	49.37	43.53	-40.0	-41.2	21.0	0.00e+00	29	28	0	744488960	52	6588
2026-01-16 23:09:26.91	48.85	43.52	-40.3	-41.5	20.8	0.00e+00	90	28	0	746586112	52	6820
2026-01-16 23:09:27.92	48.33	43.51	-40.4	-41.7	20.6	0.00e+00	6	28	0	748683264	52	6980
2026-01-16 23:09:28.93	47.81	43.49	-40.5	-41.7	20.5	0.00e+00	92	28	0	749731840	52	7004
2026-01-16 23:09:29.93	47.29	43.47	-40.7	-42.0	20.5	0.00e+00	90	28	0	751828992	52	7213
2026-01-16 23:09:30.94	46.77	43.44	-40.3	-41.5	20.9	0.00e+00	0	28	0	753926144	52	6838
2026-01-16 23:09:31.95	46.25	43.42	-40.3	-41.5	20.8	0.00e+00	90	28	0	756023296	52	6830
2026-01-16 23:09:32.96	45.73	43.39	-40.5	-41.7	20.6	0.00e+00	6	28	0	758120448	52	6988
2026-01-16 23:09:33.96	45.22	43.36	-40.6	-41.9	20.4	0.00e+00	92	28	0	759169024	52	7093
2026-01-16 23:09:34.97	44.70	43.33	-40.6	-41.9	20.3	0.00e+00	56	28	0	761266176	52	7094
2026-01-16 23:09:35.98	44.19	43.29	-40.7	-42.0	20.3	0.00e+00	90	28	0	763363328	52	7201
2026-01-16 23:09:36.99	43.67	43.25	-40.7	-42.0	20.3	0.00e+00	10	28	0	765460480	54	6406
2026-01-16 23:09:38.00	43.16	43.21	-41.2	-42.6	19.8	0.00e+00	0	28	0	767557632	54	6852
2026-01-16 23:09:39.01	42.65	43.17	-41.1	-42.5	19.8	0.00e+00	90	28	0	768606208	54	6772
2026-01-16 23:09:40.02	42.14	43.12	-40.7	-42.0	20.1	0.00e+00	26	28	0	770703360	54	6444
2026-01-16 23:09:41.03	41.63	43.07	-40.8	-42.1	20.0	0.00e+00	90	28	0	772800512	54	6533
2026-01-16 23:09:42.03	41.12	43.02	-41.5	-43.0	19.4	0.00e+00	56	28	0	774897664	54	7206
2026-01-16 23:09:43.04	40.62	42.97	-41.7	-43.3	19.1	0.00e+00	91	28	0	776994816	54	7427
2026-01-16 23:09:44.04	40.12	42.91	-41.6	-43.1	19.3	0.00e+00	53	28	0	778043392	54	7284
2026-01-16 23:09:45.05	39.62	42.86	-41.1	-42.5	19.8	0.00e+00	92	28	0	780140544	54	6781
2026-01-16 23:09:46.07	39.11	42.79	-41.0	-42.4	19.9	0.00e+00	92	28	0	782237696	54	6744
2026-01-16 23:09:47.07	38.62	42.73	-41.1	-42.5	20.0	0.00e+00	24	28	0	784334848	54	6831
2026-01-16 23:09:48.08	38.12	42.67	-40.3	-41.5	20.7	0.00e+00	90	28	0	786432000	54	6100
2026-01-16 23:09:49.09	37.63	42.60	-40.0	-41.2	21.0	0.00e+00	26	28	0	787480576	54	5894
2026-01-16 23:09:50.11	37.13	42.53	-39.5	-40.6	21.5	0.00e+00	92	28	0	789577728	52	6166
2026-01-16 23:09:51.11	36.65	42.46	-39.6	-40.8	21.4	0.00e+00	25	28	0	791674880	52	6261
2026-01-16 23:09:52.12	36.16	42.38	-39.6	-40.8	21.4	0.00e+00	92	28	0	793772032	52	6287
2026-01-16 23:09:53.13	35.67	42.31	-39.4	-40.5	21.8	0.00e+00	92	28	0	795869184	52	6055
2026-01-16 23:09:54.14	35.19	42.23	-38.9	-39.9	22.3	0.00e+00	0	28	0	796917760	52	5692
2026-01-16 23:09:55.15	34.71	42.15	-38.8	-39.8	22.2	0.00e+00	90	28	0	799014912	50	6281
2026-01-16 23:09:56.16	34.23	42.06	-38.2	-39.2	23.0	0.00e+00	0	28	0	801112064	50	5862
2026-01-16 23:09:57.17	33.76	41.98	-37.6	-38.5	23.4	0.00e+00	91	28	0	803209216	48	6045
2026-01-16 23:09:58.18	33.28	41.89	-37.8	-38.8	23.1	0.00e+00	57	28	0	805306368	48	6250
2026-01-16 23:09:59.19	32.81	41.80	-37.9	-38.9	23.0	0.00e+00	90	28	0	807403520	48	6360
2026-01-16 23:10:00.20	32.34	41.71	-37.9	-38.8	23.1	0.00e+00	55	28	0	808452096	48	6304
2026-01-16 23:10:01.21	31.88	41.62	-37.6	-38.6	23.4	0.00e+00	25	28	0	810549248	48	6119
2026-01-16 23:10:02.22	31.42	41.52	-37.3	-38.2	23.6	0.00e+00	92	28	0	812646400	48	5888
2026-01-16 23:10:03.23	30.96	41.43	-37.0	-37.9	24.0	0.00e+00	0	28	0	814743552	48	5660
2026-01-16 23:10:04.24	30.50	41.33	-36.6	-37.5	24.2	0.00e+00	91	28	0	816840704	46	6064
2026-01-16 23:10:05.25	30.05	41.23	-36.5	-37.4	24.4	0.00e+00	27	28	0	817889280	46	5971
2026-01-16 23:10:06.26	29.59	41.13	-36.3	-37.1	24.6	0.00e+00	91	28	0	819986432	46	5817
2026-01-16 23:10:07.27	29.15	41.02	-36.3	-37.1	24.6	0.00e+00	0	28	0	822083584	46	5827
2026-01-16 23:10:08.28	28.70	40.92	-35.9	-36.7	25.0	0.00e+00	44	28	0	824180736	46	5554
2026-01-16 23:10:09.29	28.26	40.81	-36.0	-36.8	25.0	0.00e+00	90	28	0	826277888	46	5621
2026-01-16 23:10:10.30	27.82	40.70	-35.9	-36.7	24.9	0.00e+00	26	28	0	827326464	46	5561
2026-01-16 23:10:11.31	27.38	40.59	-35.6	-36.3	25.2	0.00e+00	90	28	0	829423616	44	5946
2026-01-16 23:10:12.32	26.95	40.48	-35.6	-36.4	25.2	0.00e+00	0	28	0	831520768	44	5991
2026-01-16 23:10:13.33	26.52	40.37	-35.6	-36.4	25.1	0.00e+00	89	28	0	833617920	44	6013
2026-01-16 23:10:14.33	26.09	40.25	-35.7	-36.5	25.1	0.00e+00	0	28	0	835715072	44	6076
2026-01-16 23:10:15.34	25.67	40.14	-35.7	-36.5	25.0	0.00e+00	91	28	0	836763648	44	6047
2026-01-16 23:10:16.35	25.25	40.02	-35.8	-36.6	24.9	0.00e+00	91	28	0	838860800	44	6146
2026-01-16 23:10:17.36	24.83	39.90	-35.7	-36.5	25.1	0.00e+00	0	28	0	840957952	44	6051
2026-01-16 23:10:18.37	24.42	39.78	-35.9	-36.7	24.9	0.00e+00	91	28	0	843055104	44	6181
2026-01-16 23:10:19.38	24.00	39.66	-35.6	-36.4	25.0	0.00e+00	0	28	0	845152256	44	5989
2026-01-16 23:10:20.38	23.60	39.54	-35.6	-36.4	25.2	0.00e+00	92	28	0	846200832	44	6007
2026-01-16 23:10:21.39	23.19	39.42	-35.6	-36.4	25.3	0.00e+00	0	28	0	848297984	44	6004
2026-01-16 23:10:22.40	22.79	39.29	-35.7	-36.5	25.2	0.00e+00	91	28	0	850395136	44	6075
2026-01-16 23:10:23.41	22.39	39.16	-35.7	-36.4	25.2	0.00e+00	55	28	0	852492288	44	6023
2026-01-16 23:10:24.42	21.99	39.04	-35.9	-36.7	25.1	0.00e+00	25	28	0	854589440	44	6177
2026-01-16 23:10:25.43	21.60	38.91	-36.1	-36.9	24.9	0.00e+00	92	28	0	855638016	44	6326
2026-01-16 23:10:26.43	21.21	38.78	-36.2	-37.0	24.8	0.00e+00	0	28	0	857735168	44	6411
2026-01-16 23:10:27.44	20.83	38.65	-36.2	-37.0	24.7	0.00e+00	91	28	0	859832320	44	6418
2026-01-16 23:10:28.45	20.44	38.52	-36.1	-36.9	24.9	0.00e+00	26	28	0	861929472	44	6351
2026-01-16 23:10:29.46	20.06	38.39	-36.3	-37.2	24.6	0.00e+00	91	28	0	864026624	44	6558
2026-01-16 23:10:30.47	19.68	38.25	-36.5	-37.4	24.5	0.00e+00	0	28	0	865075200	44	6698
2026-01-16 23:10:31.48	19.31	38.12	-36.3	-37.1	24.7	0.00e+00	91	28	0	867172352	44	6480
2026-01-16 23:10:32.49	18.94	37.98	-36.4	-37.2	24.5	0.00e+00	92	28	0	869269504	44	6564
2026-01-16 23:10:33.50	18.57	37.85	-36.5	-37.4	24.3	0.00e+00	26	28	0	871366656	44	6701
2026-01-16 23:10:34.51	18.20	37.71	-36.5	-37.3	24.3	0.00e+00	92	28	0	873463808	44	6646
2026-01-16 23:10:35.52	17.84	37.57	-36.8	-37.6	24.1	0.00e+00	0	28	0	874512384	46	6161
2026-01-16 23:10:36.53	17.48	37.44	-36.9	-37.8	23.9	0.00e+00	90	28	0	876609536	46	6280
2026-01-16 23:10:37.53	17.13	37.30	-37.1	-38.0	23.7	0.00e+00	2	28	0	878706688	46	6421
2026-01-16 23:10:38.54	16.78	37.16	-37.0	-37.9	24.0	0.00e+00	47	28	0	880803840	46	6341
2026-01-16 23:10:39.55	16.43	37.02	-37.1	-38.0	23.8	0.00e+00	87	28	0	882900992	46	6397
2026-01-16 23:10:40.56	16.08	36.88	-37.2	-38.1	23.7	0.00e+00	0	28	0	883949568	46	6518
2026-01-16 23:10:41.57	15.73	36.74	-37.4	-38.3	23.5	0.00e+00	92	28	0	886046720	46	6658
2026-01-16 23:10:42.58	15.39	36.60	-37.6	-38.6	23.3	0.00e+00	0	28	0	888143872	46	6871
2026-01-16 23:10:43.59	15.06	36.45	-37.7	-38.7	23.4	0.00e+00	90	28	0	890241024	48	6186
2026-01-16 23:10:44.59	14.72	36.31	-37.5	-38.4	23.4	0.00e+00	52	28	0	892338176	48	6026
2026-01-16 23:10:45.61	14.39	36.17	-37.4	-38.3	23.5	0.00e+00	92	28	0	893386752	48	5955
2026-01-16 23:10:46.62	14.06	36.02	-37.4	-38.3	23.4	0.00e+00	0	28	0	895483904	48	5923
2026-01-16 23:10:47.63	13.73	35.88	-37.4	-38.3	23.6	0.00e+00	29	28	0	897581056	48	5961
2026-01-16 23:10:48.63	13.41	35.74	-37.7	-38.6	23.3	0.00e+00	92	27	0	899678208	48	6169
2026-01-16 23:10:49.64	13.09	35.59	-38.0	-39.0	23.0	0.00e+00	53	28	0	901775360	48	6394
2026-01-16 23:10:50.65	12.77	35.45	-38.3	-39.3	22.8	0.00e+00	92	28	0	903872512	48	6633
2026-01-16 23:10:51.66	12.46	35.30	-38.2	-39.2	22.9	0.00e+00	0	28	0	904921088	48	6584
2026-01-16 23:10:52.66	12.15	35.16	-38.2	-39.2	22.8	0.00e+00	92	28	0	907018240	48	6542
2026-01-16 23:10:53.68	11.84	35.01	-38.6	-39.6	22.4	0.00e+00	0	28	0	909115392	48	6891
2026-01-16 23:10:54.68	11.54	34.86	-39.0	-40.1	21.9	0.00e+00	91	28	0	911212544	50	6534
2026-01-16 23:10:55.69	11.23	34.72	-39.1	-40.2	21.9	0.00e+00	92	28	0	913309696	50	6604
2026-01-16 23:10:56.70	10.93	34.57	-39.1	-40.2	21.9	0.00e+00	27	28	0	914358272	50	6580
2026-01-16 23:10:57.71	10.63	34.42	-38.8	-39.8	22.2	0.00e+00	92	28	0	916455424	50	6288
2026-01-16 23:10:58.72	10.34	34.28	-38.8	-39.9	22.2	0.00e+00	0	28	0	918552576	50	6333
2026-01-16 23:10:59.73	10.04	34.13	-39.0	-40.0	22.0	0.00e+00	92	28	0	920649728	50	6462
2026-01-16 23:11:00.74	9.75	33.98	-39.3	-40.4	21.7	0.00e+00	0	28	0	922746880	50	6716
2026-01-16 23:11:01.75	9.47	33.83	-39.7	-40.9	21.2	0.00e+00	92	28	0	923795456	50	7096
2026-01-16 23:11:02.75	9.19	33.69	-40.1	-41.3	20.8	0.00e+00	2	27	0	925892608	52	6667
2026-01-16 23:11:03.76	8.90	33.54	-40.4	-41.7	20.5	0.00e+00	6	28	0	927989760	52	6982
2026-01-16 23:11:04.77	8.62	33.39	-40.3	-41.6	20.6	0.00e+00	92	28	0	930086912	52	6877
2026-01-16 23:11:05.78	8.35	33.24	-40.0	-41.1	21.0	0.00e+00	6	28	0	932184064	52	6528
2026-01-16 23:11:06.79	8.07	33.09	-39.9	-41.1	21.1	0.00e+00	92	28	0	933232640	52	6490
2026-01-16 23:11:07.80	7.80	32.95	-40.0	-41.2	21.0	0.00e+00	50	28	0	935329792	52	6587
2026-01-16 23:11:08.81	7.53	32.80	-40.2	-41.4	20.8	0.00e+00	92	28	0	937426944	52	6758
2026-01-16 23:11:09.82	7.26	32.65	-40.6	-41.9	20.4	0.00e+00	15	28	0	939524096	52	7094
2026-01-16 23:11:10.82	7.00	32.50	-40.8	-42.1	20.1	0.00e+00	49	28	0	941621248	54	6524
2026-01-16 23:11:11.84	6.74	32.35	-40.9	-42.3	19.9	0.00e+00	92	28	0	942669824	54	6661
2026-01-16 23:11:12.84	6.48	32.21	-40.8	-42.2	20.1	0.00e+00	34	28	0	944766976	54	6552
2026-01-16 23:11:13.86	6.22	32.06	-40.8	-42.2	20.0	0.00e+00	92	28	0	946864128	54	6569
2026-01-16 23:11:14.86	5.97	31.91	-40.7	-42.0	20.2	0.00e+00	33	28	0	948961280	54	6431
2026-01-16 23:11:15.87	5.72	31.76	-40.9	-42.2	19.9	0.00e+00	91	28	0	951058432	54	6599
2026-01-16 23:11:16.88	5.47	31.62	-41.0	-42.3	20.0	0.00e+00	0	28	0	952107008	54	6682
2026-01-16 23:11:17.89	5.22	31.47	-40.7	-42.0	20.3	0.00e+00	7	28	0	954204160	54	6424
2026-01-16 23:11:18.90	4.97	31.32	-40.8	-42.1	20.1	0.00e+00	89	28	0	956301312	54	6539
2026-01-16 23:11:19.91	4.73	31.17	-40.4	-41.6	20.6	0.00e+00	7	28	0	958398464	54	6152
2026-01-16 23:11:20.92	4.49	31.03	-40.2	-41.4	20.8	0.00e+00	92	28	0	960495616	54	5994
2026-01-16 23:11:21.93	4.25	30.88	-40.2	-41.5	20.7	0.00e+00	0	28	0	961544192	54	6061
2026-01-16 23:11:22.94	4.01	30.73	-40.1	-41.4	20.8	0.00e+00	7	28	0	963641344	54	5984
2026-01-16 23:11:23.95	3.78	30.59	-40.1	-41.3	20.8	0.00e+00	6	28	0	965738496	54	5962
2026-01-16 23:11:24.95	3.55	30.44	-40.1	-41.3	20.8	0.00e+00	0	27	0	967835648	54	5957
2026-01-16 23:11:25.96	3.32	30.29	-40.2	-41.4	20.7	0.00e+00	0	27	0	969932800	54	6017
2026-01-16 23:11:26.97	3.09	30.15	-40.3	-41.6	20.5	0.00e+00	0	28	0	972029952	54	6144
2026-01-16 23:11:27.98	2.86	30.00	-40.1	-41.3	20.8	0.00e+00	92	28	0	973078528	54	5937
2026-01-16 23:11:28.99	2.64	29.86	-39.9	-41.1	21.0	0.00e+00	0	27	0	975175680	54	5793
2026-01-16 23:11:29.99	2.42	29.71	-39.9	-41.1	21.0	0.00e+00	51	28	0	977272832	54	5811
2026-01-16 23:11:31.00	2.20	29.57	-39.9	-41.1	21.1	0.00e+00	0	27	0	979369984	54	5796
2026-01-16 23:11:32.01	1.98	29.42	-39.6	-40.8	21.3	0.00e+00	0	28	0	980418560	52	6286
2026-01-16 23:11:33.02	1.76	29.28	-39.5	-40.6	21.5	0.00e+00	34	27	0	982515712	52	6144
2026-01-16 23:11:34.02	1.55	29.14	-39.4	-40.5	21.5	0.00e+00	52	27	0	984612864	52	6100
2026-01-16 23:11:35.03	1.34	28.99	-39.2	-40.3	21.8	0.00e+00	92	28	0	986710016	52	5911
2026-01-16 23:11:36.04	1.13	28.85	-39.2	-40.3	21.8	0.00e+00	29	27	0	988807168	52	5932
2026-01-16 23:11:37.05	0.92	28.71	-39.1	-40.2	21.8	0.00e+00	92	27	0	989855744	52	5888
2026-01-16 23:11:38.05	0.72	28.56	-39.1	-40.2	21.9	0.00e+00	52	28	0	991952896	52	5880
2026-01-16 23:11:39.06	0.51	28.42	-39.3	-40.4	21.8	0.00e+00	52	27	0	994050048	52	5995
2026-01-16 23:11:40.07	0.31	28.28	-39.3	-40.4	21.8	0.00e+00	0	27	0	996147200	52	5971
2026-01-16 23:11:41.08	0.11	28.14	-39.1	-40.2	21.9	0.00e+00	29	28	0	998244352	52	5871
2026-01-16 23:11:42.09	359.91	28.00	-39.1	-40.1	22.0	0.00e+00	92	27	0	1000341504	52	5820
2026-01-16 23:11:43.09	359.71	27.86	-38.9	-40.0	22.1	0.00e+00	2	27	0	1001390080	52	5729
2026-01-16 23:11:44.10	359.52	27.72	-38.9	-40.0	22.1	0.00e+00	92	28	0	1003487232	52	5737
2026-01-16 23:11:45.11	359.32	27.57	-39.0	-40.1	22.0	0.00e+00	28	28	0	1005584384	52	5808
2026-01-16 23:11:46.12	359.13	27.43	-38.8	-39.9	22.2	0.00e+00	0	28	0	1007681536	50	6321
2026-01-16 23:11:47.13	358.94	27.29	-38.8	-39.8	22.2	0.00e+00	0	27	0	1009778688	50	6299
2026-01-16 23:11:48.13	358.75	27.16	-38.7	-39.8	22.1	0.00e+00	0	27	0	1010827264	50	6282
2026-01-16 23:11:49.14	358.57	27.02	-38.7	-39.8	22.2	0.00e+00	0	27	0	1012924416	50	6272
2026-01-16 23:11:50.15	358.38	26.88	-38.6	-39.6	22.4	0.00e+00	0	27	0	1015021568	50	6142
2026-01-16 23:11:51.16	358.20	26.74	-38.7	-39.7	22.3	0.00e+00	92	27	0	1017118720	50	6207
2026-01-16 23:11:52.17	358.01	26.60	-38.6	-39.6	22.3	0.00e+00	0	28	0	1019215872	50	6120
2026-01-16 23:11:53.17	357.83	26.47	-38.6	-39.6	22.3	0.00e+00	92	27	0	1020264448	50	6139
2026-01-16 23:11:54.18	357.66	26.33	-38.5	-39.5	22.6	0.00e+00	52	28	0	1022361600	50	6055
2026-01-16 23:11:55.19	357.48	26.19	-38.3	-39.3	22.5	0.00e+00	3	28	0	1024458752	50	5947
2026-01-16 23:11:56.20	357.30	26.06	-38.5	-39.5	22.4	0.00e+00	0	28	0	1026555904	50	6057
2026-01-16 23:11:57.21	357.13	25.92	-38.7	-39.7	22.2	0.00e+00	51	28	0	1028653056	50	6205
2026-01-16 23:11:58.22	356.95	25.78	-38.8	-39.9	22.2	0.00e+00	92	28	0	1029701632	50	6321
2026-01-16 23:11:59.23	356.78	25.65	-38.8	-39.9	22.0	0.00e+00	30	27	0	1031798784	50	6346
2026-01-16 23:12:00.24	356.61	25.51	-38.9	-40.0	22.0	0.00e+00	92	28	0	1033895936	50	6403
2026-01-16 23:12:01.25	356.44	25.38	-39.0	-40.0	22.0	0.00e+00	32	28	0	1035993088	50	6453
2026-01-16 23:12:02.26	356.28	25.24	-38.9	-39.9	22.1	0.00e+00	30	27	0	1038090240	50	6383
2026-01-16 23:12:03.26	356.11	25.11	-38.2	-39.2	22.8	0.00e+00	4	28	0	1039138816	50	5845
2026-01-16 23:12:04.27	355.95	24.98	-38.0	-39.0	23.0	0.00e+00	32	27	0	1041235968	50	5724
2026-01-16 23:12:05.28	355.79	24.85	-38.2	-39.1	22.9	0.00e+00	32	27	0	1043333120	50	5828
2026-01-16 23:12:06.29	355.63	24.71	-37.8	-38.8	23.2	0.00e+00	0	27	0	1045430272	50	5578
2026-01-16 23:12:07.30	355.47	24.58	-37.9	-38.9	23.0	0.00e+00	92	28	0	1047527424	50	5652
2026-01-16 23:12:08.31	355.31	24.45	-37.8	-38.8	23.1	0.00e+00	0	28	0	1048576000	50	5587
2026-01-16 23:12:09.32	355.15	24.32	-37.9	-38.9	22.9	0.00e+00	0	27	0	1050673152	50	5635
2026-01-16 23:12:10.33	354.99	24.19	-38.0	-39.0	23.0	0.00e+00	0	27	0	1052770304	50	5696
2026-01-16 23:12:11.34	354.84	24.06	-38.1	-39.1	22.8	0.00e+00	0	27	0	1054867456	50	5779
2026-01-16 23:12:12.35	354.69	23.93	-38.2	-39.2	22.8	0.00e+00	0	27	0	1056964608	50	5843
2026-01-16 23:12:13.36	354.53	23.80	-38.5	-39.5	22.4	0.00e+00	0	27	0	1058013184	50	6088
2026-01-16 23:12:14.37	354.38	23.67	-38.4	-39.4	22.5	0.00e+00	92	27	0	1060110336	50	6007
2026-01-16 23:12:15.38	354.23	23.54	-38.5	-39.6	22.3	0.00e+00	51	27	0	1062207488	50	6123
2026-01-16 23:12:16.39	354.09	23.41	-38.6	-39.7	22.2	0.00e+00	92	27	0	1064304640	50	6188
2026-01-16 23:12:17.40	353.94	23.28	-38.5	-39.6	22.3	0.00e+00	0	27	0	1066401792	50	6121
2026-01-16 23:12:18.41	353.79	23.16	-38.5	-39.5	22.4	0.00e+00	2	27	0	1067450368	50	6054
2026-01-16 23:12:19.42	353.65	23.03	-38.4	-39.4	22.4	0.00e+00	0	27	0	1069547520	50	6010
2026-01-16 23:12:20.43	353.50	22.90	-38.4	-39.4	22.5	0.00e+00	30	27	0	1071644672	50	6004
2026-01-16 23:12:21.43	353.36	22.78	-38.4	-39.4	22.5	0.00e+00	92	27	0	1073741824	50	6012
2026-01-16 23:12:22.44	353.22	22.65	-38.4	-39.4	22.4	0.00e+00	29	27	0	1075838976	50	6019
2026-01-16 23:12:23.45	353.08	22.53	-38.5	-39.5	22.4	0.00e+00	92	27	0	1076887552	50	6046
2026-01-16 23:12:24.46	352.94	22.40	-38.4	-39.4	22.6	0.00e+00	52	27	0	1078984704	50	6031
2026-01-16 23:12:25.46	352.81	22.28	-38.3	-39.3	22.7	0.00e+00	31	27	0	1081081856	50	5901
2026-01-16 23:12:26.47	352.67	22.16	-38.3	-39.3	22.6	0.00e+00	0	27	0	1083179008	50	5931
2026-01-16 23:12:27.47	352.54	22.03	-38.2	-39.2	22.8	0.00e+00	0	27	0	1085276160	50	5877
2026-01-16 23:12:28.48	352.40	21.91	-38.1	-39.1	22.8	0.00e+00	16	27	0	1086324736	50	5787
2026-01-16 23:12:29.49	352.27	21.79	-38.0	-39.0	23.0	0.00e+00	0	27	0	1088421888	50	5740
2026-01-16 23:12:30.49	352.14	21.67	-38.1	-39.1	22.8	0.00e+00	92	27	0	1090519040	50	5786
2026-01-16 23:12:31.50	352.01	21.54	-38.0	-39.0	23.0	0.00e+00	2	27	0	1092616192	50	5726
2026-01-16 23:12:32.51	351.88	21.42	-38.1	-39.1	22.9	0.00e+00	92	27	0	1094713344	50	5764
2026-01-16 23:12:33.51	351.75	21.30	-38.0	-39.0	22.8	0.00e+00	32	27	0	1095761920	50	5704
2026-01-16 23:12:34.52	351.62	21.18	-38.1	-39.1	22.9	0.00e+00	0	27	0	1097859072	50	5768
2026-01-16 23:12:35.53	351.50	21.06	-38.1	-39.0	22.8	0.00e+00	0	27	0	1099956224	50	5757
2026-01-16 23:12:36.54	351.37	20.94	-38.0	-39.0	22.9	0.00e+00	2	27	0	1102053376	50	5734
2026-01-16 23:12:37.55	351.24	20.82	-38.1	-39.1	22.8	0.00e+00	90	27	0	1104150528	50	5779
2026-01-16 23:12:38.56	351.12	20.70	-38.0	-39.0	22.8	0.00e+00	0	27	0	1105199104	50	5697
2026-01-16 23:12:39.57	351.00	20.59	-38.1	-39.1	22.8	0.00e+00	92	27	0	1107296256	50	5783
2026-01-16 23:12:40.57	350.88	20.47	-38.2	-39.1	22.7	0.00e+00	0	28	0	1109393408	50	5824
2026-01-16 23:12:41.58	350.76	20.35	-38.1	-39.1	22.7	0.00e+00	49	27	0	1111490560	50	5822
2026-01-16 23:12:42.59	350.64	20.23	-38.2	-39.2	22.7	0.00e+00	2	27	0	1113587712	50	5857
2026-01-16 23:12:43.60	350.52	20.12	-38.2	-39.2	22.7	0.00e+00	0	27	0	1114636288	50	5857
2026-01-16 23:12:44.61	350.40	20.00	-38.0	-39.0	22.8	0.00e+00	29	27	0	1116733440	50	5729
2026-01-16 23:12:45.62	350.28	19.88	-38.1	-39.1	22.7	0.00e+00	48	27	0	1118830592	50	5764
2026-01-16 23:12:46.63	350.17	19.77	-38.2	-39.2	22.7	0.00e+00	90	27	0	1120927744	50	5843
2026-01-16 23:12:47.64	350.05	19.65	-38.1	-39.1	22.7	0.00e+00	49	27	0	1123024896	50	5774
2026-01-16 23:12:48.65	349.94	19.54	-38.2	-39.1	22.7	0.00e+00	32	27	0	1125122048	50	5822
2026-01-16 23:12:49.66	349.82	19.42	-38.2	-39.2	22.6	0.00e+00	49	27	0	1126170624	50	5861
2026-01-16 23:12:50.66	349.71	19.31	-38.3	-39.4	22.5	0.00e+00	0	27	0	1128267776	50	5969
2026-01-16 23:12:51.67	349.60	19.20	-38.3	-39.3	22.5	0.00e+00	33	27	0	1130364928	50	5929
2026-01-16 23:12:52.68	349.49	19.08	-38.4	-39.4	22.4	0.00e+00	6	27	0	1132462080	50	6033
2026-01-16 23:12:53.69	349.38	18.97	-38.5	-39.6	22.2	0.00e+00	92	27	0	1134559232	50	6128
2026-01-16 23:12:54.70	349.27	18.86	-38.5	-39.6	22.3	0.00e+00	34	27	0	1135607808	50	6110
2026-01-16 23:12:55.71	349.16	18.75	-38.6	-39.6	22.2	0.00e+00	92	27	0	1137704960	50	6159
2026-01-16 23:12:56.72	349.05	18.64	-38.6	-39.7	22.2	0.00e+00	0	27	0	1139802112	50	6182
2026-01-16 23:12:57.73	348.94	18.52	-38.7	-39.7	22.2	0.00e+00	0	27	0	1141899264	50	6227
2026-01-16 23:12:58.74	348.84	18.41	-38.8	-39.9	22.1	0.00e+00	6	27	0	1143996416	50	6336
2026-01-16 23:12:59.75	348.73	18.30	-38.5	-39.6	22.3	0.00e+00	5	27	0	1145044992	50	6120
2026-01-16 23:13:00.75	348.63	18.19	-38.7	-39.7	22.1	0.00e+00	92	27	0	1147142144	50	6226
2026-01-16 23:13:01.76	348.52	18.09	-38.8	-39.8	22.0	0.00e+00	0	27	0	1149239296	50	6302
2026-01-16 23:13:02.77	348.42	17.98	-38.4	-39.4	22.4	0.00e+00	92	27	0	1151336448	50	6000
2026-01-16 23:13:03.78	348.32	17.87	-38.4	-39.5	22.3	0.00e+00	49	27	0	1153433600	50	6043
2026-01-16 23:13:04.79	348.22	17.76	-38.2	-39.3	22.5	0.00e+00	48	27	0	1154482176	50	5901
2026-01-16 23:13:05.79	348.12	17.65	-38.5	-39.5	22.3	0.00e+00	6	27	0	1156579328	50	6067
2026-01-16 23:13:06.80	348.02	17.54	-38.5	-39.5	22.3	0.00e+00	48	27	0	1158676480	50	6084
2026-01-16 23:13:07.81	347.92	17.44	-38.6	-39.6	22.2	0.00e+00	63	27	0	1160773632	50	6146
2026-01-16 23:13:08.82	347.82	17.33	-38.7	-39.7	22.1	0.00e+00	48	27	0	1162870784	50	6215
2026-01-16 23:13:09.83	347.72	17.22	-38.6	-39.6	22.1	0.00e+00	92	27	0	1163919360	50	6153
2026-01-16 23:13:10.84	347.63	17.12	-38.6	-39.7	22.1	0.00e+00	47	27	0	1166016512	50	6204
2026-01-16 23:13:11.84	347.53	17.01	-38.8	-39.9	22.0	0.00e+00	49	27	0	1168113664	50	6336
2026-01-16 23:13:12.85	347.43	16.91	-38.7	-39.7	22.1	0.00e+00	38	27	0	1170210816	50	6243
2026-01-16 23:13:13.86	347.34	16.80	-38.8	-39.9	21.9	0.00e+00	5	27	0	1172307968	50	6328
2026-01-16 23:13:14.87	347.24	16.70	-38.9	-40.0	21.8	0.00e+00	40	27	0	1173356544	50	6453
2026-01-16 23:13:15.88	347.15	16.59	-39.1	-40.2	21.7	0.00e+00	42	27	0	1175453696	50	6599
2026-01-16 23:13:16.89	347.06	16.49	-39.0	-40.1	21.7	0.00e+00	91	27	0	1177550848	50	6535
2026-01-16 23:13:17.89	346.97	16.39	-39.0	-40.0	21.8	0.00e+00	38	27	0	1179648000	50	6462
2026-01-16 23:13:18.90	346.88	16.28	-39.0	-40.1	21.7	0.00e+00	92	27	0	1181745152	50	6521
2026-01-16 23:13:19.91	346.78	16.18	-39.0	-40.2	21.6	0.00e+00	40	27	0	1182793728	50	6546
2026-01-16 23:13:20.92	346.69	16.08	-39.1	-40.2	21.6	0.00e+00	6	27	0	1184890880	50	6570
2026-01-16 23:13:21.93	346.60	15.97	-38.9	-40.1	21.8	0.00e+00	4	27	0	1186988032	50	6465
2026-01-16 23:13:22.94	346.52	15.87	-39.1	-40.2	21.7	0.00e+00	0	27	0	1189085184	50	6565
2026-01-16 23:13:23.95	346.43	15.77	-39.1	-40.2	21.6	0.00e+00	91	27	0	1191182336	50	6583
2026-01-16 23:13:24.96	346.34	15.67	-39.2	-40.4	21.4	0.00e+00	0	27	0	1192230912	50	6735
2026-01-16 23:13:25.97	346.25	15.57	-39.2	-40.3	21.4	0.00e+00	92	27	0	1194328064	50	6675
