passes_logs/2026/01/16/R4.6S_Anadyr/R4.6S_Anadyr__20260116_174535_AQUA_rec.log

#Pass ID: 20260116_174535_AQUA
#Satellite: AQUA
#Configuration: AQUA
#almurnet v.1.7.20251203
#Start time: 2026-01-16 17:45:38

#Version: 2.2.20231116
#Station: R4.6S_Anadyr
#Location: 177.4865 lon 64.73178 lat
#TLE: 1 27424U 02022A   26015.92015591  .00000664  00000+0  14289-3 0  9993
#TLE: 2 27424  98.4082 342.3630 0002020  77.1389  16.3168 14.61822470261023

#Time	Az	El	Level	Level2	SNR	BER	BlckErr	Temp	State	Recorded	gain1	gain2
2026-01-16 17:45:38.14	22.21	0.15	-47.9	-59.6	3.5	8.45e-01	0	25	0	0	60	34459
2026-01-16 17:45:39.15	22.17	0.21	-48.8	-66.6	3.5	3.02e+01	0	26	104	0	60	82592
2026-01-16 17:45:40.16	22.13	0.27	-48.6	-66.5	3.5	3.02e+01	0	26	104	0	60	81057
2026-01-16 17:45:41.17	22.09	0.33	-48.7	-66.5	3.5	3.02e+01	0	27	104	0	60	81798
2026-01-16 17:45:42.18	22.05	0.39	-48.6	-66.6	3.5	3.02e+01	0	26	104	0	60	82104
2026-01-16 17:45:43.19	22.01	0.45	-48.9	-66.8	3.5	3.02e+01	0	27	104	0	60	84292
2026-01-16 17:45:44.20	21.97	0.51	-48.6	-66.4	3.5	3.02e+01	0	27	104	0	60	80865
2026-01-16 17:45:45.21	21.93	0.57	-48.5	-66.4	3.5	3.02e+01	0	26	104	0	60	80458
2026-01-16 17:45:46.22	21.88	0.63	-48.3	-66.2	3.5	3.02e+01	0	27	104	0	60	78918
2026-01-16 17:45:47.23	21.84	0.69	-48.2	-66.1	3.5	3.02e+01	0	27	104	0	60	78012
2026-01-16 17:45:48.24	21.80	0.75	-48.1	-66.0	3.5	3.02e+01	0	27	104	0	60	76885
2026-01-16 17:45:49.25	21.76	0.81	-47.8	-65.8	3.5	3.02e+01	0	27	104	0	60	75397
2026-01-16 17:45:50.26	21.72	0.88	-47.8	-65.7	3.5	3.02e+01	0	27	104	0	60	73795
2026-01-16 17:45:51.27	21.67	0.94	-47.6	-65.5	3.5	3.02e+01	0	27	104	0	60	72395
2026-01-16 17:45:52.28	21.63	1.00	-47.2	-65.3	3.5	3.02e+01	0	27	104	0	60	70472
2026-01-16 17:45:53.29	21.59	1.06	-47.1	-64.9	3.5	3.02e+01	0	27	104	0	60	67842
2026-01-16 17:45:54.30	21.55	1.12	-46.9	-64.7	3.5	3.02e+01	0	27	104	0	60	65827
2026-01-16 17:45:55.31	21.50	1.18	-46.8	-64.7	3.5	3.02e+01	0	27	104	0	60	65908
2026-01-16 17:45:56.32	21.46	1.25	-46.8	-64.7	3.5	3.02e+01	0	27	104	0	60	65774
2026-01-16 17:45:57.33	21.41	1.31	-46.8	-64.6	3.5	3.02e+01	0	27	104	0	60	65189
2026-01-16 17:45:58.34	21.37	1.37	-46.8	-64.6	3.5	3.02e+01	0	27	104	0	60	65234
2026-01-16 17:45:59.35	21.33	1.43	-46.8	-64.7	3.5	3.02e+01	0	27	104	0	60	65910
2026-01-16 17:46:00.36	21.28	1.49	-46.8	-64.7	3.5	3.02e+01	0	27	104	0	60	66399
2026-01-16 17:46:01.37	21.24	1.56	-46.8	-64.7	3.5	3.02e+01	0	27	104	0	60	66175
2026-01-16 17:46:02.38	21.19	1.62	-46.8	-64.8	3.5	3.02e+01	0	27	104	0	60	66499
2026-01-16 17:46:03.39	21.15	1.68	-46.8	-64.7	3.5	3.02e+01	0	27	104	0	60	65854
2026-01-16 17:46:04.40	21.10	1.75	-46.8	-64.6	3.5	3.02e+01	0	27	104	0	60	65296
2026-01-16 17:46:05.40	21.06	1.81	-46.8	-64.7	3.5	3.02e+01	0	27	104	0	60	65914
2026-01-16 17:46:06.41	21.01	1.87	-46.8	-64.6	3.5	3.02e+01	0	27	104	0	60	65593
2026-01-16 17:46:07.42	20.97	1.94	-46.8	-64.6	3.5	3.02e+01	0	27	104	0	60	65513
2026-01-16 17:46:08.43	20.92	2.00	-46.8	-64.7	3.5	3.02e+01	0	27	104	0	60	65902
2026-01-16 17:46:09.44	20.87	2.06	-46.8	-64.6	3.5	3.02e+01	0	27	104	0	60	65545
2026-01-16 17:46:10.45	20.83	2.13	-46.8	-64.7	3.5	3.02e+01	0	27	104	0	60	66192
2026-01-16 17:46:11.46	20.78	2.19	-46.8	-64.6	3.5	3.02e+01	0	27	104	0	60	65446
2026-01-16 17:46:12.47	20.73	2.25	-46.8	-64.6	3.5	3.02e+01	0	27	104	0	60	65031
2026-01-16 17:46:13.48	20.68	2.32	-46.8	-64.5	3.5	3.02e+01	0	27	104	0	60	64880
2026-01-16 17:46:14.49	20.64	2.38	-46.8	-64.5	3.5	3.02e+01	0	27	104	0	60	64532
2026-01-16 17:46:15.50	20.59	2.45	-46.8	-64.6	3.5	3.02e+01	0	27	104	0	60	65115
2026-01-16 17:46:16.51	20.54	2.51	-46.8	-64.6	3.5	3.02e+01	0	27	104	0	60	65651
2026-01-16 17:46:17.52	20.49	2.58	-46.8	-64.7	3.5	3.02e+01	0	27	104	0	60	65921
2026-01-16 17:46:18.53	20.44	2.64	-46.8	-64.7	3.5	3.02e+01	0	27	104	0	60	65976
2026-01-16 17:46:19.54	20.39	2.71	-46.8	-64.7	3.5	3.02e+01	0	27	104	0	60	65898
2026-01-16 17:46:20.55	20.34	2.77	-46.8	-64.6	3.5	3.02e+01	0	27	104	0	60	65269
2026-01-16 17:46:21.56	20.29	2.84	-46.8	-64.5	3.5	3.02e+01	0	27	104	0	60	64683
2026-01-16 17:46:22.56	20.25	2.90	-46.8	-64.5	3.5	3.02e+01	0	27	104	0	60	64340
2026-01-16 17:46:23.57	20.20	2.97	-46.7	-64.3	3.5	3.02e+01	0	27	104	0	60	62897
2026-01-16 17:46:24.58	20.15	3.04	-46.7	-64.1	3.5	3.02e+01	0	27	104	0	60	61646
2026-01-16 17:46:25.59	20.09	3.10	-46.7	-64.1	3.5	3.02e+01	0	27	104	0	60	61399
2026-01-16 17:46:26.60	20.04	3.17	-46.8	-64.4	3.5	3.02e+01	0	27	104	0	60	63908
2026-01-16 17:46:27.61	19.99	3.23	-46.8	-64.7	3.5	3.02e+01	0	27	104	0	60	66229
2026-01-16 17:46:28.62	19.94	3.30	-46.6	-63.8	3.5	3.02e+01	0	27	104	0	60	59667
2026-01-16 17:46:29.63	19.89	3.37	-46.2	-62.0	3.5	3.02e+01	0	27	104	0	60	48258
2026-01-16 17:46:30.64	19.84	3.43	-45.2	-59.0	3.6	3.02e+01	0	27	104	0	60	34411
2026-01-16 17:46:31.65	19.79	3.50	-44.0	-56.5	3.5	3.02e+01	0	27	104	0	60	25862
2026-01-16 17:46:32.66	19.73	3.57	-42.3	-53.9	3.5	3.02e+01	0	27	104	0	60	19008
2026-01-16 17:46:33.67	19.68	3.64	-41.3	-52.5	3.5	3.02e+01	0	27	104	0	58	18300
2026-01-16 17:46:34.68	19.63	3.70	-41.1	-52.3	3.5	3.02e+01	0	27	104	0	56	19862
2026-01-16 17:46:35.69	19.57	3.77	-41.1	-52.3	3.5	3.02e+01	0	27	104	0	56	19883
2026-01-16 17:46:36.70	19.52	3.84	-45.6	-59.8	3.5	3.02e+01	0	27	104	0	60	37583
2026-01-16 17:46:37.71	19.47	3.91	-46.1	-61.1	3.5	3.02e+01	0	27	104	0	60	43430
2026-01-16 17:46:38.72	19.41	3.97	-43.4	-55.6	3.5	3.02e+01	0	27	104	0	56	29315
2026-01-16 17:46:39.73	19.36	4.04	-38.0	-48.5	3.6	3.02e+01	0	27	104	0	52	16314
2026-01-16 17:46:40.73	19.30	4.11	-46.6	-63.3	3.5	3.02e+01	0	27	104	0	60	56361
2026-01-16 17:46:41.74	19.25	4.18	-41.5	-52.8	3.5	3.02e+01	0	27	104	0	60	16870
2026-01-16 17:46:42.75	19.19	4.25	-38.2	-48.8	3.5	3.02e+01	0	27	104	0	52	16716
2026-01-16 17:46:43.76	19.14	4.32	-38.3	-48.9	3.5	3.02e+01	0	27	104	0	52	17041
2026-01-16 17:46:44.77	19.08	4.39	-38.3	-48.9	3.5	3.02e+01	0	27	104	0	52	17002
2026-01-16 17:46:45.78	19.02	4.46	-39.7	-50.5	3.5	3.02e+01	0	27	104	0	50	22814
2026-01-16 17:46:46.79	18.97	4.52	-39.1	-49.8	3.6	3.02e+01	0	27	104	0	54	16867
2026-01-16 17:46:47.80	18.91	4.59	-46.6	-62.9	3.5	3.02e+01	0	27	104	0	60	53663
2026-01-16 17:46:48.81	18.85	4.66	-43.5	-55.5	3.5	3.02e+01	0	27	104	0	60	22840
2026-01-16 17:46:49.82	18.79	4.73	-39.4	-50.2	3.5	3.02e+01	0	27	104	0	50	22125
2026-01-16 17:46:50.83	18.74	4.80	-38.5	-49.1	3.5	3.02e+01	0	27	104	0	52	17414
2026-01-16 17:46:51.84	18.68	4.87	-37.4	-47.9	3.5	3.02e+01	0	27	104	0	50	16971
2026-01-16 17:46:52.85	18.62	4.95	-37.4	-47.9	3.6	3.02e+01	0	27	104	0	50	17019
2026-01-16 17:46:53.86	18.56	5.02	-36.6	-47.1	3.5	3.02e+01	0	27	104	0	48	17299
2026-01-16 17:46:54.87	18.50	5.09	-40.5	-51.5	3.5	3.02e+01	0	27	104	0	52	22838
2026-01-16 17:46:55.88	18.44	5.16	-38.5	-49.1	3.5	3.02e+01	0	27	104	0	52	17386
2026-01-16 17:46:56.89	18.38	5.23	-47.0	-64.6	3.5	3.02e+01	0	27	104	0	60	65689
2026-01-16 17:46:57.90	18.32	5.30	-44.7	-57.5	3.5	3.02e+01	0	27	104	0	60	28847
2026-01-16 17:46:58.91	18.26	5.37	-41.3	-52.5	3.5	3.02e+01	0	27	104	0	52	25830
2026-01-16 17:46:59.92	18.20	5.44	-37.6	-48.1	3.5	3.02e+01	0	27	104	0	50	17429
2026-01-16 17:47:00.93	18.14	5.52	-37.2	-47.6	3.5	3.02e+01	0	27	104	0	50	16401
2026-01-16 17:47:01.94	18.08	5.59	-37.4	-48.0	3.5	3.02e+01	0	27	104	0	50	17152
2026-01-16 17:47:02.95	18.01	5.66	-37.5	-48.0	3.5	3.02e+01	0	27	104	0	50	17271
2026-01-16 17:47:03.96	17.95	5.73	-42.1	-53.4	3.5	3.02e+01	0	27	104	0	56	22652
2026-01-16 17:47:04.96	17.89	5.81	-38.1	-48.6	3.5	3.02e+01	0	27	104	0	50	18455
2026-01-16 17:47:05.97	17.83	5.88	-47.0	-64.4	3.5	3.02e+01	0	27	104	0	60	63963
2026-01-16 17:47:06.98	17.76	5.95	-46.0	-60.5	3.5	3.02e+01	0	27	104	0	60	40826
2026-01-16 17:47:07.99	17.70	6.03	-44.4	-57.1	3.5	3.02e+01	0	27	104	0	60	27497
2026-01-16 17:47:09.00	17.64	6.10	-41.6	-52.8	3.5	3.02e+01	0	27	104	0	58	18957
2026-01-16 17:47:10.01	17.57	6.17	-41.2	-52.4	3.5	3.02e+01	0	27	104	0	58	17973
2026-01-16 17:47:11.02	17.51	6.25	-41.7	-52.9	3.5	3.02e+01	0	27	104	0	58	19002
2026-01-16 17:47:12.03	17.44	6.32	-39.8	-50.6	3.4	3.02e+01	0	27	104	0	56	16480
2026-01-16 17:47:13.04	17.37	6.40	-36.0	-46.3	3.5	3.02e+01	0	27	104	0	46	17881
2026-01-16 17:47:14.05	17.31	6.47	-45.7	-59.7	3.5	3.02e+01	0	27	104	0	60	37044
2026-01-16 17:47:15.06	17.24	6.54	-46.0	-60.4	3.5	3.02e+01	0	27	104	0	60	40142
2026-01-16 17:47:16.07	17.17	6.62	-40.4	-51.3	3.5	3.02e+01	0	27	104	0	56	17722
2026-01-16 17:47:17.08	17.11	6.69	-46.8	-63.4	3.5	3.02e+01	0	27	104	0	60	57247
2026-01-16 17:47:18.09	17.04	6.77	-39.6	-50.3	3.5	3.02e+01	0	27	104	0	56	15925
2026-01-16 17:47:19.11	16.97	6.85	-38.4	-49.0	3.5	3.02e+01	0	27	104	0	52	17242
2026-01-16 17:47:20.12	16.90	6.92	-37.8	-48.3	3.5	3.02e+01	0	27	104	0	50	17890
2026-01-16 17:47:21.13	16.83	7.00	-37.9	-48.4	3.5	3.02e+01	0	27	104	0	50	18087
2026-01-16 17:47:22.14	16.76	7.07	-44.6	-57.2	3.5	3.02e+01	0	27	104	0	60	27797
2026-01-16 17:47:23.15	16.69	7.15	-38.0	-48.4	3.4	3.02e+01	0	27	104	0	52	16088
2026-01-16 17:47:24.16	16.62	7.23	-47.0	-64.1	3.5	3.02e+01	0	27	104	0	60	61460
2026-01-16 17:47:25.17	16.55	7.30	-44.7	-49.3	16.2	3.02e+01	60	27	104	0	60	11205
2026-01-16 17:47:26.18	16.48	7.38	-41.2	-43.4	21.4	3.02e+01	60	27	0	524288	58	6387
2026-01-16 17:47:27.18	16.41	7.46	-36.0	-37.4	27.0	3.02e+01	60	27	0	2621440	48	5682
2026-01-16 17:47:28.19	16.34	7.54	-35.8	-37.1	27.3	3.02e+01	59	27	0	4718592	46	6175
2026-01-16 17:47:29.20	16.27	7.61	-35.5	-36.8	27.6	3.02e+01	50	27	0	6291456	46	5947
2026-01-16 17:47:30.21	16.19	7.69	-35.7	-37.0	27.4	3.02e+01	58	27	0	8388608	46	6121
2026-01-16 17:47:31.22	16.12	7.77	-35.8	-37.1	27.4	3.02e+01	59	27	0	9961472	46	6192
2026-01-16 17:47:32.23	16.05	7.85	-35.8	-37.1	27.3	3.02e+01	60	27	0	12058624	46	6193
2026-01-16 17:47:33.24	15.97	7.93	-35.6	-36.9	27.5	3.02e+01	58	27	0	14155776	46	6011
2026-01-16 17:47:34.25	15.90	8.01	-35.6	-36.9	27.6	3.02e+01	47	27	0	15728640	46	6008
2026-01-16 17:47:35.26	15.82	8.08	-35.3	-36.6	27.9	3.02e+01	57	27	0	17825792	46	5810
2026-01-16 17:47:36.27	15.75	8.16	-35.3	-36.6	27.8	3.02e+01	57	27	0	19922944	46	5793
2026-01-16 17:47:37.28	15.67	8.24	-35.1	-36.4	27.9	3.02e+01	45	27	0	21495808	46	5711
2026-01-16 17:47:38.28	15.59	8.32	-35.3	-36.6	27.8	3.02e+01	59	27	0	23592960	46	5818
2026-01-16 17:47:39.29	15.52	8.40	-35.2	-36.5	28.0	3.02e+01	60	27	0	25165824	46	5746
2026-01-16 17:47:40.30	15.44	8.48	-35.1	-36.4	28.1	3.02e+01	59	27	0	27262976	46	5677
2026-01-16 17:47:41.31	15.36	8.56	-34.9	-36.2	28.2	3.02e+01	59	27	0	29360128	44	6234
2026-01-16 17:47:42.32	15.28	8.64	-34.9	-36.2	28.3	3.02e+01	54	27	0	30932992	44	6215
2026-01-16 17:47:43.33	15.20	8.72	-35.1	-36.4	28.1	3.02e+01	58	27	0	33030144	44	6375
2026-01-16 17:47:44.34	15.12	8.81	-34.9	-36.2	28.2	3.02e+01	58	27	0	34603008	44	6245
2026-01-16 17:47:45.35	15.04	8.89	-35.0	-36.3	28.1	3.02e+01	49	27	0	36700160	44	6309
2026-01-16 17:47:46.36	14.96	8.97	-34.9	-36.2	28.2	3.02e+01	58	27	0	38797312	44	6245
2026-01-16 17:47:47.37	14.88	9.05	-34.8	-36.1	28.4	3.02e+01	59	27	0	40370176	44	6170
2026-01-16 17:47:48.38	14.80	9.13	-34.9	-36.2	28.3	3.02e+01	57	27	0	42467328	44	6232
2026-01-16 17:47:49.39	14.72	9.22	-34.8	-36.1	28.3	3.02e+01	57	27	0	44040192	44	6177
2026-01-16 17:47:50.39	14.64	9.30	-34.8	-36.1	28.3	3.02e+01	58	27	0	46137344	44	6184
2026-01-16 17:47:51.40	14.55	9.38	-34.8	-36.1	28.3	3.02e+01	61	27	0	48234496	44	6146
2026-01-16 17:47:52.41	14.47	9.46	-34.8	-36.0	28.4	3.02e+01	57	27	0	49807360	44	6125
2026-01-16 17:47:53.42	14.39	9.55	-34.7	-36.0	28.4	3.02e+01	46	27	0	51904512	44	6068
2026-01-16 17:47:54.43	14.30	9.63	-34.8	-36.1	28.4	3.02e+01	59	27	0	53477376	44	6165
2026-01-16 17:47:55.45	14.21	9.72	-35.1	-36.4	28.2	3.02e+01	55	27	0	55574528	44	6367
2026-01-16 17:47:56.46	14.13	9.80	-35.1	-36.4	28.2	3.02e+01	59	27	0	57671680	44	6378
2026-01-16 17:47:57.47	14.04	9.88	-35.0	-36.2	28.2	3.02e+01	59	27	0	59244544	44	6276
2026-01-16 17:47:58.47	13.96	9.97	-35.0	-36.3	28.3	3.02e+01	54	27	0	61341696	44	6300
2026-01-16 17:47:59.48	13.87	10.05	-35.0	-36.3	28.0	3.02e+01	61	27	0	62914560	44	6301
2026-01-16 17:48:00.49	13.78	10.14	-35.3	-36.7	28.0	3.02e+01	58	27	0	65011712	44	6576
2026-01-16 17:48:01.50	13.69	10.22	-34.8	-36.1	28.3	3.02e+01	44	27	0	67108864	44	6174
2026-01-16 17:48:02.51	13.60	10.31	-35.0	-36.3	28.2	3.02e+01	60	27	0	68681728	44	6335
2026-01-16 17:48:03.51	13.51	10.40	-35.2	-36.5	28.1	3.02e+01	59	27	0	70778880	44	6480
2026-01-16 17:48:04.52	13.42	10.48	-34.6	-35.8	28.6	3.02e+01	58	27	0	72876032	44	5984
2026-01-16 17:48:05.53	13.33	10.57	-34.3	-35.6	28.8	3.02e+01	59	27	0	74448896	44	5806
2026-01-16 17:48:06.54	13.24	10.66	-34.5	-35.8	28.7	3.02e+01	56	27	0	76546048	44	5955
2026-01-16 17:48:07.55	13.15	10.74	-34.2	-35.4	29.0	3.02e+01	57	27	0	78118912	44	5700
2026-01-16 17:48:08.56	13.05	10.83	-34.3	-35.6	28.9	3.02e+01	60	27	0	80216064	44	5809
2026-01-16 17:48:09.57	12.96	10.92	-34.3	-35.5	28.9	3.02e+01	56	27	0	82313216	44	5787
2026-01-16 17:48:10.58	12.87	11.01	-34.3	-35.5	28.9	3.02e+01	59	27	0	83886080	44	5789
2026-01-16 17:48:11.59	12.77	11.09	-34.3	-35.6	28.9	3.02e+01	48	27	0	85983232	44	5813
2026-01-16 17:48:12.60	12.68	11.18	-34.4	-35.6	28.8	3.02e+01	60	27	0	87556096	44	5855
2026-01-16 17:48:13.61	12.58	11.27	-34.3	-35.5	29.0	3.02e+01	61	27	0	89653248	44	5766
2026-01-16 17:48:14.62	12.48	11.36	-34.4	-35.6	28.8	3.02e+01	40	27	0	91750400	44	5847
2026-01-16 17:48:15.63	12.39	11.45	-34.3	-35.6	28.9	3.02e+01	59	27	0	93323264	44	5813
2026-01-16 17:48:16.64	12.29	11.54	-34.2	-35.5	29.0	3.02e+01	60	27	0	95420416	44	5738
2026-01-16 17:48:17.65	12.19	11.63	-34.3	-35.5	28.9	3.02e+01	53	27	0	96993280	44	5752
2026-01-16 17:48:18.66	12.09	11.72	-34.2	-35.4	29.1	3.02e+01	58	27	0	99090432	44	5682
2026-01-16 17:48:19.67	11.99	11.81	-34.2	-35.5	29.0	3.02e+01	58	27	0	101187584	44	5727
2026-01-16 17:48:20.68	11.89	11.90	-34.3	-35.5	29.0	3.02e+01	59	27	0	102760448	44	5749
2026-01-16 17:48:21.69	11.79	11.99	-34.3	-35.6	28.9	3.02e+01	57	27	0	104857600	44	5797
2026-01-16 17:48:22.70	11.68	12.08	-34.1	-35.4	29.1	3.02e+01	45	27	0	106430464	44	5676
2026-01-16 17:48:23.71	11.58	12.17	-34.1	-35.4	29.1	3.02e+01	59	27	0	108527616	44	5663
2026-01-16 17:48:24.71	11.48	12.27	-34.2	-35.4	29.1	3.02e+01	57	27	0	110624768	44	5681
2026-01-16 17:48:25.72	11.37	12.36	-34.1	-35.3	29.1	3.02e+01	57	27	0	112197632	44	5648
2026-01-16 17:48:26.73	11.27	12.45	-34.1	-35.3	29.2	3.02e+01	59	27	0	114294784	44	5617
2026-01-16 17:48:27.74	11.16	12.54	-34.1	-35.3	29.1	3.02e+01	46	27	0	116391936	44	5644
2026-01-16 17:48:28.75	11.06	12.64	-34.0	-35.2	29.2	3.02e+01	58	27	0	117964800	44	5586
2026-01-16 17:48:29.76	10.95	12.73	-34.1	-35.3	29.1	3.02e+01	61	27	0	120061952	44	5635
2026-01-16 17:48:30.77	10.84	12.82	-34.0	-35.2	29.3	3.02e+01	44	27	0	121634816	42	6232
2026-01-16 17:48:31.78	10.73	12.92	-34.0	-35.2	29.3	3.02e+01	61	27	0	123731968	42	6268
2026-01-16 17:48:32.79	10.62	13.01	-33.9	-35.1	29.4	3.02e+01	61	27	0	125829120	42	6182
2026-01-16 17:48:33.80	10.51	13.11	-34.0	-35.2	29.2	3.02e+01	61	27	0	127401984	42	6257
2026-01-16 17:48:34.81	10.40	13.20	-34.0	-35.2	29.3	3.02e+01	59	27	0	129499136	42	6264
2026-01-16 17:48:35.82	10.29	13.30	-34.0	-35.2	29.3	3.02e+01	52	27	0	131072000	42	6235
2026-01-16 17:48:36.83	10.18	13.39	-34.0	-35.2	29.4	3.02e+01	54	27	0	133169152	42	6220
2026-01-16 17:48:37.84	10.06	13.49	-34.1	-35.3	29.3	3.02e+01	60	27	0	135266304	42	6305
2026-01-16 17:48:38.85	9.95	13.58	-33.9	-35.1	29.3	3.02e+01	57	27	0	136839168	42	6197
2026-01-16 17:48:39.86	9.83	13.68	-33.9	-35.1	29.4	3.02e+01	58	27	0	138936320	42	6175
2026-01-16 17:48:40.87	9.72	13.78	-33.9	-35.2	29.4	3.02e+01	55	27	0	141033472	42	6207
2026-01-16 17:48:41.88	9.60	13.87	-33.9	-35.1	29.4	3.02e+01	58	27	0	142606336	42	6173
2026-01-16 17:48:42.89	9.48	13.97	-33.7	-35.0	29.5	3.02e+01	59	27	0	144703488	42	6069
2026-01-16 17:48:43.90	9.36	14.07	-33.9	-35.1	29.4	3.02e+01	52	27	0	146276352	42	6144
2026-01-16 17:48:44.91	9.24	14.17	-33.7	-34.9	29.6	3.02e+01	59	27	0	148373504	42	5999
2026-01-16 17:48:45.92	9.12	14.27	-33.7	-34.9	29.7	3.02e+01	59	27	0	150470656	42	6030
2026-01-16 17:48:46.93	9.00	14.37	-33.7	-34.9	29.6	3.02e+01	57	27	0	152043520	42	6041
2026-01-16 17:48:47.94	8.88	14.46	-33.7	-34.9	29.6	3.02e+01	59	27	0	154140672	42	6043
2026-01-16 17:48:48.95	8.76	14.56	-33.6	-34.7	29.7	3.02e+01	47	27	0	155713536	42	5924
2026-01-16 17:48:49.96	8.63	14.66	-33.7	-34.8	29.6	3.02e+01	58	27	0	157810688	42	5991
2026-01-16 17:48:50.97	8.51	14.76	-33.7	-34.9	29.7	3.02e+01	57	27	0	159907840	42	6023
2026-01-16 17:48:51.98	8.38	14.86	-33.7	-34.9	29.7	3.02e+01	52	27	0	161480704	42	6001
2026-01-16 17:48:52.99	8.25	14.96	-33.8	-35.0	29.6	3.02e+01	60	27	0	163577856	42	6128
2026-01-16 17:48:54.00	8.13	15.07	-33.6	-34.8	29.7	3.02e+01	60	27	0	165150720	42	5948
2026-01-16 17:48:55.01	8.00	15.17	-33.7	-34.9	29.6	3.02e+01	61	27	0	167247872	42	6043
2026-01-16 17:48:56.02	7.87	15.27	-33.7	-34.9	29.6	3.02e+01	51	27	0	169345024	42	6056
2026-01-16 17:48:57.03	7.74	15.37	-33.9	-35.1	29.5	3.02e+01	61	27	0	170917888	42	6166
2026-01-16 17:48:58.04	7.60	15.47	-33.7	-34.9	29.6	3.02e+01	61	27	0	173015040	42	6057
2026-01-16 17:48:59.05	7.47	15.57	-33.8	-35.0	29.5	3.02e+01	60	27	0	174587904	42	6114
2026-01-16 17:49:00.06	7.34	15.68	-33.8	-35.0	29.6	3.02e+01	49	27	0	176685056	42	6109
2026-01-16 17:49:01.06	7.21	15.78	-33.7	-34.9	29.7	3.02e+01	59	27	0	178782208	42	6000
2026-01-16 17:49:02.07	7.07	15.88	-33.5	-34.7	29.9	3.02e+01	58	27	0	180355072	42	5895
2026-01-16 17:49:03.08	6.93	15.99	-33.5	-34.7	29.8	3.02e+01	61	27	0	182452224	42	5899
2026-01-16 17:49:04.09	6.80	16.09	-33.5	-34.7	29.8	3.02e+01	57	27	0	184549376	42	5911
2026-01-16 17:49:05.10	6.66	16.20	-33.5	-34.7	29.8	3.02e+01	56	27	0	186122240	42	5906
2026-01-16 17:49:06.11	6.52	16.30	-33.7	-34.9	29.7	3.02e+01	57	27	0	188219392	42	6026
2026-01-16 17:49:07.12	6.38	16.41	-33.7	-34.9	29.7	3.02e+01	60	27	0	189792256	42	6043
2026-01-16 17:49:08.13	6.23	16.51	-33.7	-34.9	29.6	3.02e+01	44	27	0	191889408	42	6011
2026-01-16 17:49:09.14	6.09	16.62	-33.8	-35.0	29.6	3.02e+01	58	27	0	193986560	42	6095
2026-01-16 17:49:10.15	5.95	16.72	-33.9	-35.1	29.5	3.02e+01	59	27	0	195559424	42	6175
2026-01-16 17:49:11.16	5.80	16.83	-33.7	-34.9	29.8	3.02e+01	56	27	0	197656576	42	6017
2026-01-16 17:49:12.17	5.65	16.94	-33.7	-34.9	29.7	3.02e+01	60	27	0	199229440	42	6061
2026-01-16 17:49:13.18	5.51	17.04	-33.8	-35.0	29.7	3.02e+01	50	27	0	201326592	42	6067
2026-01-16 17:49:14.19	5.36	17.15	-33.6	-34.8	29.8	3.02e+01	59	27	0	203423744	42	5959
2026-01-16 17:49:15.20	5.21	17.26	-33.7	-34.9	29.7	3.02e+01	59	27	0	204996608	42	6054
2026-01-16 17:49:16.21	5.06	17.37	-33.6	-34.8	29.8	3.02e+01	58	27	0	207093760	42	5932
2026-01-16 17:49:17.22	4.91	17.48	-33.7	-34.9	29.7	3.02e+01	60	27	0	209190912	42	6045
2026-01-16 17:49:18.22	4.75	17.58	-33.5	-34.7	29.9	3.02e+01	46	27	0	210763776	42	5918
2026-01-16 17:49:19.23	4.60	17.69	-33.6	-34.8	29.8	3.02e+01	59	27	0	212860928	42	5946
2026-01-16 17:49:20.24	4.44	17.80	-33.7	-34.9	29.7	3.02e+01	57	27	0	214433792	42	6054
2026-01-16 17:49:21.25	4.29	17.91	-33.9	-35.1	29.6	3.02e+01	46	27	0	216530944	42	6180
2026-01-16 17:49:22.26	4.13	18.02	-33.9	-35.1	29.6	3.02e+01	59	27	0	218628096	42	6193
2026-01-16 17:49:23.27	3.97	18.13	-34.0	-35.2	29.5	3.02e+01	59	27	0	220200960	42	6257
2026-01-16 17:49:24.28	3.81	18.24	-34.0	-35.2	29.5	3.02e+01	60	27	0	222298112	42	6215
2026-01-16 17:49:25.29	3.65	18.36	-34.0	-35.2	29.4	3.02e+01	59	27	0	223870976	42	6277
2026-01-16 17:49:26.30	3.48	18.47	-34.0	-35.2	29.5	3.02e+01	52	27	0	225968128	42	6249
2026-01-16 17:49:27.31	3.32	18.58	-33.9	-35.1	29.6	3.02e+01	59	27	0	228065280	42	6193
2026-01-16 17:49:28.32	3.15	18.69	-34.0	-35.2	29.5	3.02e+01	58	27	0	229638144	42	6226
2026-01-16 17:49:29.33	2.98	18.80	-33.9	-35.1	29.6	3.02e+01	54	27	0	231735296	42	6163
2026-01-16 17:49:30.34	2.82	18.92	-33.7	-34.9	29.8	3.02e+01	59	27	0	233308160	42	6030
2026-01-16 17:49:31.35	2.65	19.03	-33.8	-35.0	29.7	3.02e+01	61	27	0	235405312	42	6104
2026-01-16 17:49:32.36	2.47	19.14	-33.9	-35.1	29.6	3.02e+01	59	27	0	237502464	42	6159
2026-01-16 17:49:33.37	2.30	19.26	-33.7	-34.9	29.7	3.02e+01	60	27	0	239075328	42	6002
2026-01-16 17:49:34.38	2.13	19.37	-33.6	-34.8	29.9	3.02e+01	45	27	0	241172480	42	5929
2026-01-16 17:49:35.39	1.95	19.48	-33.5	-34.7	29.9	3.02e+01	59	27	0	242745344	42	5899
2026-01-16 17:49:36.39	1.78	19.60	-33.5	-34.7	29.9	3.02e+01	59	27	0	244842496	42	5898
2026-01-16 17:49:37.40	1.60	19.71	-33.7	-34.9	29.8	3.02e+01	41	27	0	246939648	42	6003
2026-01-16 17:49:38.41	1.42	19.83	-33.6	-34.8	29.9	3.02e+01	60	27	0	248512512	42	5946
2026-01-16 17:49:39.42	1.24	19.94	-33.7	-34.9	29.8	3.02e+01	62	27	0	250609664	42	6043
2026-01-16 17:49:40.43	1.05	20.06	-33.9	-35.1	29.7	3.02e+01	58	27	0	252706816	42	6146
2026-01-16 17:49:41.44	0.87	20.17	-33.7	-34.9	29.8	3.02e+01	60	27	0	254279680	42	6022
2026-01-16 17:49:42.45	0.68	20.29	-33.8	-35.0	29.7	3.02e+01	54	27	0	256376832	42	6077
2026-01-16 17:49:43.47	0.49	20.41	-33.8	-35.0	29.7	3.02e+01	61	27	0	257949696	42	6094
2026-01-16 17:49:44.48	0.31	20.53	-33.9	-35.1	29.6	3.02e+01	59	27	0	260046848	42	6166
2026-01-16 17:49:45.49	0.12	20.64	-33.9	-35.1	29.5	3.02e+01	51	27	0	262144000	42	6188
2026-01-16 17:49:46.50	359.92	20.76	-34.1	-35.3	29.4	3.02e+01	59	27	0	263716864	42	6298
2026-01-16 17:49:47.51	359.73	20.88	-34.2	-35.4	29.4	3.02e+01	44	27	0	265814016	42	6403
2026-01-16 17:49:48.52	359.54	21.00	-34.2	-35.4	29.4	3.02e+01	59	27	0	267386880	42	6369
2026-01-16 17:49:49.52	359.34	21.11	-34.2	-35.4	29.4	3.02e+01	58	27	0	269484032	42	6384
2026-01-16 17:49:50.53	359.14	21.23	-34.1	-35.3	29.5	3.02e+01	50	27	0	271581184	42	6290
2026-01-16 17:49:51.54	358.94	21.35	-34.2	-35.4	29.3	3.02e+01	60	27	0	273154048	42	6394
2026-01-16 17:49:52.55	358.74	21.47	-34.0	-35.2	29.6	3.02e+01	62	27	0	275251200	42	6221
2026-01-16 17:49:53.56	358.54	21.59	-34.0	-35.2	29.6	3.02e+01	52	27	0	277348352	42	6272
2026-01-16 17:49:54.57	358.33	21.71	-33.9	-35.1	29.6	3.02e+01	59	27	0	278921216	42	6205
2026-01-16 17:49:55.58	358.13	21.83	-34.0	-35.2	29.5	3.02e+01	45	27	0	281018368	42	6261
2026-01-16 17:49:56.59	357.92	21.95	-34.0	-35.2	29.5	3.02e+01	55	27	0	282591232	42	6276
2026-01-16 17:49:57.60	357.71	22.07	-34.2	-35.4	29.4	3.02e+01	61	27	0	284688384	42	6376
2026-01-16 17:49:58.61	357.50	22.19	-34.1	-35.3	29.4	3.02e+01	47	27	0	286785536	42	6312
2026-01-16 17:49:59.62	357.28	22.31	-34.1	-35.3	29.5	3.02e+01	58	27	0	288358400	42	6299
2026-01-16 17:50:00.64	357.06	22.43	-33.9	-35.1	29.6	3.02e+01	57	27	0	290455552	42	6161
2026-01-16 17:50:01.64	356.85	22.55	-34.0	-35.2	29.5	3.02e+01	59	27	0	292028416	42	6220
2026-01-16 17:50:02.65	356.63	22.67	-34.0	-35.2	29.5	3.02e+01	59	27	0	294125568	42	6254
2026-01-16 17:50:03.66	356.41	22.79	-34.0	-35.2	29.6	3.02e+01	59	27	0	296222720	42	6211
2026-01-16 17:50:04.67	356.19	22.91	-34.1	-35.3	29.5	3.02e+01	56	27	0	297795584	42	6292
2026-01-16 17:50:05.68	355.96	23.04	-34.0	-35.2	29.5	3.02e+01	59	27	0	299892736	42	6250
2026-01-16 17:50:06.69	355.74	23.16	-34.1	-35.3	29.5	3.02e+01	44	27	0	301465600	42	6312
2026-01-16 17:50:07.70	355.51	23.28	-34.1	-35.3	29.5	3.02e+01	58	27	0	303562752	42	6305
2026-01-16 17:50:08.71	355.28	23.40	-34.1	-35.3	29.5	3.02e+01	58	27	0	305659904	42	6337
2026-01-16 17:50:09.72	355.05	23.52	-34.2	-35.4	29.4	3.02e+01	58	27	0	307232768	42	6419
2026-01-16 17:50:10.73	354.81	23.65	-34.2	-35.4	29.4	3.02e+01	61	27	0	309329920	42	6371
2026-01-16 17:50:11.74	354.58	23.77	-34.3	-35.5	29.3	3.02e+01	46	27	0	310902784	42	6495
2026-01-16 17:50:12.75	354.34	23.89	-34.2	-35.4	29.5	3.02e+01	61	27	0	312999936	42	6366
2026-01-16 17:50:13.76	354.10	24.01	-34.0	-35.2	29.5	3.02e+01	63	27	0	315097088	42	6252
2026-01-16 17:50:14.77	353.86	24.14	-34.0	-35.2	29.6	3.02e+01	44	27	0	316669952	42	6239
2026-01-16 17:50:15.78	353.61	24.26	-34.0	-35.2	29.5	3.02e+01	56	27	0	318767104	42	6254
2026-01-16 17:50:16.79	353.37	24.38	-34.1	-35.3	29.6	3.02e+01	60	27	0	320864256	42	6341
2026-01-16 17:50:17.80	353.12	24.51	-34.2	-35.4	29.4	3.02e+01	58	27	0	322437120	42	6407
2026-01-16 17:50:18.80	352.87	24.63	-34.0	-35.2	29.6	3.02e+01	60	27	0	324534272	42	6251
2026-01-16 17:50:19.81	352.62	24.75	-34.3	-35.5	29.4	3.02e+01	58	27	0	326107136	42	6439
2026-01-16 17:50:20.82	352.37	24.87	-34.2	-35.4	29.5	3.02e+01	59	27	0	328204288	42	6361
2026-01-16 17:50:21.83	352.11	25.00	-34.2	-35.4	29.4	3.02e+01	62	27	0	330301440	42	6361
2026-01-16 17:50:22.84	351.85	25.12	-34.2	-35.4	29.5	3.02e+01	47	27	0	331874304	42	6363
2026-01-16 17:50:23.85	351.59	25.24	-34.1	-35.3	29.5	3.02e+01	58	27	0	333971456	42	6307
2026-01-16 17:50:24.86	351.33	25.37	-34.1	-35.3	29.5	3.02e+01	46	27	0	335544320	42	6303
2026-01-16 17:50:25.87	351.06	25.49	-34.0	-35.2	29.6	3.02e+01	61	27	0	337641472	42	6275
2026-01-16 17:50:26.88	350.80	25.61	-33.9	-35.1	29.7	3.02e+01	60	27	0	339738624	42	6167
2026-01-16 17:50:27.89	350.53	25.74	-34.0	-35.2	29.6	3.02e+01	44	27	0	341311488	42	6251
2026-01-16 17:50:28.90	350.26	25.86	-33.9	-35.1	29.8	3.02e+01	59	27	0	343408640	42	6159
2026-01-16 17:50:29.91	349.98	25.98	-33.8	-35.0	29.8	3.02e+01	55	27	0	345505792	42	6080
2026-01-16 17:50:30.92	349.71	26.11	-33.8	-35.0	29.8	3.02e+01	58	27	0	347078656	42	6122
2026-01-16 17:50:31.93	349.43	26.23	-33.8	-35.0	29.8	3.02e+01	60	27	0	349175808	42	6106
2026-01-16 17:50:32.94	349.15	26.35	-33.8	-35.0	29.8	3.02e+01	47	27	0	350748672	42	6128
2026-01-16 17:50:33.95	348.87	26.47	-33.8	-35.0	29.8	3.02e+01	58	27	0	352845824	42	6132
2026-01-16 17:50:34.96	348.58	26.60	-33.9	-35.1	29.7	3.02e+01	57	27	0	354942976	42	6172
2026-01-16 17:50:35.97	348.29	26.72	-34.0	-35.2	29.6	3.02e+01	45	27	0	356515840	42	6262
2026-01-16 17:50:36.98	348.00	26.84	-34.0	-35.2	29.6	3.02e+01	59	27	0	358612992	42	6246
2026-01-16 17:50:37.99	347.71	26.96	-33.6	-34.8	30.0	3.02e+01	53	27	0	360185856	42	5976
2026-01-16 17:50:38.99	347.42	27.08	-33.8	-35.0	29.8	3.02e+01	60	27	0	362283008	42	6114
2026-01-16 17:50:40.00	347.12	27.21	-33.8	-35.0	29.8	3.02e+01	59	27	0	363855872	42	6093
2026-01-16 17:50:41.01	346.83	27.33	-33.8	-34.9	29.9	3.02e+01	61	27	0	365953024	42	6061
2026-01-16 17:50:42.02	346.52	27.45	-33.7	-34.9	30.0	3.02e+01	59	27	0	368050176	42	5995
2026-01-16 17:50:43.03	346.22	27.57	-33.4	-34.6	30.2	3.02e+01	59	27	0	369623040	42	5835
2026-01-16 17:50:44.04	345.91	27.69	-33.4	-34.6	30.1	3.02e+01	50	27	0	371720192	42	5807
2026-01-16 17:50:45.05	345.61	27.81	-33.6	-34.8	30.0	3.02e+01	55	27	0	373817344	42	5971
2026-01-16 17:50:46.06	345.29	27.93	-33.8	-35.0	29.9	3.02e+01	59	27	0	375390208	42	6076
2026-01-16 17:50:47.07	344.98	28.05	-33.8	-35.0	29.9	3.02e+01	62	27	0	377487360	42	6104
2026-01-16 17:50:48.08	344.67	28.17	-33.5	-34.7	30.1	3.02e+01	60	27	0	379060224	42	5903
2026-01-16 17:50:49.09	344.35	28.28	-33.6	-34.7	30.0	3.02e+01	53	27	0	381157376	42	5924
2026-01-16 17:50:50.10	344.03	28.40	-33.7	-34.9	29.8	3.02e+01	65	27	0	383254528	42	6056
2026-01-16 17:50:51.11	343.70	28.52	-33.4	-34.5	30.2	3.02e+01	58	27	0	384827392	42	5787
2026-01-16 17:50:52.12	343.38	28.64	-33.4	-34.6	30.1	3.02e+01	46	27	0	386924544	42	5823
2026-01-16 17:50:53.13	343.05	28.75	-33.4	-34.5	30.2	3.02e+01	60	27	0	389021696	42	5783
2026-01-16 17:50:54.14	342.72	28.87	-33.3	-34.5	30.3	3.02e+01	60	27	0	390594560	42	5755
2026-01-16 17:50:55.15	342.38	28.99	-33.3	-34.5	30.3	3.02e+01	56	27	0	392691712	42	5757
2026-01-16 17:50:56.16	342.05	29.10	-33.3	-34.5	30.3	3.02e+01	58	27	0	394264576	42	5774
2026-01-16 17:50:57.17	341.71	29.22	-33.4	-34.6	30.2	3.02e+01	50	27	0	396361728	42	5809
2026-01-16 17:50:58.18	341.37	29.33	-33.4	-34.6	30.1	3.02e+01	57	27	0	398458880	42	5824
2026-01-16 17:50:59.19	341.03	29.44	-33.3	-34.5	30.2	3.02e+01	59	27	0	400031744	42	5755
2026-01-16 17:51:00.20	340.68	29.55	-33.3	-34.5	30.3	3.02e+01	61	27	0	402128896	42	5730
2026-01-16 17:51:01.21	340.33	29.67	-33.2	-34.4	30.3	3.02e+01	57	27	0	403701760	42	5694
2026-01-16 17:51:02.22	339.98	29.78	-33.2	-34.4	30.4	3.02e+01	45	27	0	405798912	42	5672
2026-01-16 17:51:03.22	339.63	29.89	-33.2	-34.3	30.4	3.02e+01	59	27	0	407896064	42	5640
2026-01-16 17:51:04.23	339.28	30.00	-33.1	-34.2	30.4	3.02e+01	57	27	0	409468928	42	5591
2026-01-16 17:51:05.24	338.92	30.11	-33.2	-34.4	30.4	3.02e+01	50	27	0	411566080	42	5683
2026-01-16 17:51:06.25	338.56	30.21	-33.2	-34.4	30.3	3.02e+01	56	27	0	413138944	42	5698
2026-01-16 17:51:07.26	338.19	30.32	-33.2	-34.4	30.3	3.02e+01	58	27	0	415236096	42	5692
2026-01-16 17:51:08.27	337.83	30.43	-33.3	-34.5	30.3	3.02e+01	58	27	0	417333248	42	5747
2026-01-16 17:51:09.28	337.46	30.53	-33.4	-34.5	30.3	3.02e+01	58	27	0	418906112	42	5788
2026-01-16 17:51:10.29	337.09	30.64	-33.4	-34.6	30.2	3.02e+01	45	28	0	421003264	42	5824
2026-01-16 17:51:11.30	336.71	30.74	-33.2	-34.3	30.4	3.02e+01	59	27	0	422576128	42	5644
2026-01-16 17:51:12.31	336.34	30.85	-33.3	-34.4	30.3	3.02e+01	60	28	0	424673280	42	5708
2026-01-16 17:51:13.32	335.96	30.95	-33.3	-34.5	30.3	3.02e+01	46	27	0	426770432	42	5744
2026-01-16 17:51:14.33	335.58	31.05	-33.1	-34.2	30.5	3.02e+01	60	27	0	428343296	42	5578
2026-01-16 17:51:15.34	335.19	31.15	-33.1	-34.3	30.5	3.02e+01	59	27	0	430440448	42	5635
2026-01-16 17:51:16.35	334.81	31.25	-33.2	-34.4	30.3	3.02e+01	49	27	0	432013312	42	5684
2026-01-16 17:51:17.36	334.42	31.35	-33.3	-34.5	30.3	3.02e+01	58	27	0	434110464	42	5740
2026-01-16 17:51:18.37	334.03	31.44	-33.2	-34.3	30.4	3.02e+01	52	27	0	436207616	42	5635
2026-01-16 17:51:19.38	333.63	31.54	-33.2	-34.4	30.3	3.02e+01	58	28	0	437780480	42	5681
2026-01-16 17:51:20.39	333.24	31.63	-33.1	-34.3	30.4	3.02e+01	59	27	0	439877632	42	5626
2026-01-16 17:51:21.40	332.84	31.73	-33.3	-34.4	30.4	3.02e+01	53	28	0	441974784	42	5711
2026-01-16 17:51:22.41	332.44	31.82	-33.3	-34.5	30.3	3.02e+01	58	28	0	443547648	42	5758
2026-01-16 17:51:23.42	332.04	31.91	-33.4	-34.6	30.2	3.02e+01	62	28	0	445644800	42	5806
2026-01-16 17:51:24.43	331.63	32.00	-33.3	-34.5	30.2	3.02e+01	61	28	0	447217664	42	5769
2026-01-16 17:51:25.44	331.23	32.09	-33.3	-34.5	30.4	3.02e+01	58	28	0	449314816	42	5728
2026-01-16 17:51:26.45	330.82	32.17	-33.4	-34.6	30.3	3.02e+01	52	28	0	451411968	42	5793
2026-01-16 17:51:27.46	330.40	32.26	-33.4	-34.6	30.2	3.02e+01	59	28	0	452984832	42	5823
2026-01-16 17:51:28.47	329.99	32.34	-33.2	-34.4	30.3	3.02e+01	57	28	0	455081984	42	5709
2026-01-16 17:51:29.48	329.57	32.42	-33.4	-34.6	30.2	3.02e+01	46	28	0	457179136	42	5820
2026-01-16 17:51:30.49	329.15	32.51	-33.5	-34.7	30.2	3.02e+01	59	28	0	458752000	42	5877
2026-01-16 17:51:31.50	328.73	32.58	-33.5	-34.7	30.2	3.02e+01	60	28	0	460849152	42	5882
2026-01-16 17:51:32.51	328.31	32.66	-33.5	-34.7	30.1	3.02e+01	61	28	0	462422016	42	5896
2026-01-16 17:51:33.52	327.89	32.74	-33.5	-34.7	30.1	3.02e+01	60	28	0	464519168	42	5864
2026-01-16 17:51:34.53	327.46	32.81	-33.5	-34.7	30.1	3.02e+01	53	28	0	466616320	42	5884
2026-01-16 17:51:35.54	327.03	32.89	-33.6	-34.8	30.0	3.02e+01	60	28	0	468189184	42	5975
2026-01-16 17:51:36.55	326.60	32.96	-33.5	-34.7	30.1	3.02e+01	61	28	0	470286336	42	5909
2026-01-16 17:51:37.56	326.16	33.03	-33.6	-34.8	30.1	3.02e+01	58	28	0	471859200	42	5955
2026-01-16 17:51:38.57	325.73	33.10	-33.5	-34.7	30.1	3.02e+01	58	28	0	473956352	42	5918
2026-01-16 17:51:39.57	325.30	33.17	-33.5	-34.7	30.1	3.02e+01	47	28	0	476053504	42	5863
2026-01-16 17:51:40.58	324.86	33.23	-33.7	-34.8	30.0	3.02e+01	60	28	0	477626368	42	5987
2026-01-16 17:51:41.59	324.42	33.29	-33.5	-34.7	30.1	3.02e+01	58	28	0	479723520	42	5908
2026-01-16 17:51:42.60	323.98	33.36	-33.6	-34.7	30.1	3.02e+01	51	28	0	481296384	42	5924
2026-01-16 17:51:43.61	323.53	33.42	-33.8	-35.0	29.9	3.02e+01	60	28	0	483393536	42	6070
2026-01-16 17:51:44.62	323.09	33.47	-33.6	-34.8	30.0	3.02e+01	58	28	0	485490688	42	5975
2026-01-16 17:51:45.63	322.64	33.53	-33.7	-34.9	30.0	3.02e+01	60	28	0	487063552	42	5998
2026-01-16 17:51:46.64	322.19	33.59	-33.7	-34.8	30.0	3.02e+01	56	28	0	489160704	42	5994
2026-01-16 17:51:47.65	321.74	33.64	-33.8	-35.0	29.9	3.02e+01	46	28	0	490733568	42	6120
2026-01-16 17:51:48.66	321.29	33.69	-33.9	-35.1	29.9	3.02e+01	59	28	0	492830720	42	6178
2026-01-16 17:51:49.67	320.83	33.74	-33.9	-35.1	29.9	3.02e+01	55	28	0	494927872	42	6168
2026-01-16 17:51:50.68	320.38	33.79	-33.7	-34.9	30.0	3.02e+01	45	28	0	496500736	42	6024
2026-01-16 17:51:51.69	319.92	33.83	-33.9	-35.1	29.8	3.02e+01	60	28	0	498597888	42	6179
2026-01-16 17:51:52.70	319.47	33.87	-34.1	-35.3	29.7	3.02e+01	57	28	0	500170752	42	6288
2026-01-16 17:51:53.71	319.01	33.92	-34.1	-35.3	29.7	3.02e+01	57	28	0	502267904	42	6330
2026-01-16 17:51:54.72	318.55	33.95	-34.0	-35.2	29.8	3.02e+01	58	28	0	504365056	42	6220
2026-01-16 17:51:55.73	318.09	33.99	-34.0	-35.2	29.7	3.02e+01	57	28	0	505937920	42	6253
2026-01-16 17:51:56.74	317.62	34.03	-33.9	-35.1	29.9	3.02e+01	59	28	0	508035072	42	6139
2026-01-16 17:51:57.75	317.16	34.06	-34.0	-35.2	29.8	3.02e+01	54	28	0	510132224	42	6260
2026-01-16 17:51:58.76	316.70	34.09	-34.1	-35.3	29.7	3.02e+01	44	28	0	511705088	42	6304
2026-01-16 17:51:59.77	316.23	34.12	-33.9	-35.1	29.9	3.02e+01	61	28	0	513802240	42	6146
2026-01-16 17:52:00.78	315.77	34.15	-34.3	-35.6	29.5	3.02e+01	59	28	0	515375104	42	6500
2026-01-16 17:52:01.79	315.30	34.17	-34.0	-35.2	29.8	3.02e+01	56	28	0	517472256	42	6242
2026-01-16 17:52:02.80	314.83	34.20	-34.0	-35.2	29.7	3.02e+01	58	28	0	519569408	42	6270
2026-01-16 17:52:03.81	314.36	34.22	-34.0	-35.2	29.8	3.02e+01	57	28	0	521142272	42	6234
2026-01-16 17:52:04.82	313.90	34.23	-34.2	-35.5	29.5	3.02e+01	55	28	0	523239424	42	6438
2026-01-16 17:52:05.83	313.43	34.25	-34.3	-35.6	29.5	3.02e+01	60	28	0	525336576	42	6504
2026-01-16 17:52:06.84	312.96	34.27	-34.4	-35.6	29.4	3.02e+01	45	28	0	526909440	42	6563
2026-01-16 17:52:07.85	312.49	34.28	-34.1	-35.3	29.7	3.02e+01	57	28	0	529006592	42	6278
2026-01-16 17:52:08.86	312.02	34.29	-33.8	-35.0	29.8	3.02e+01	53	28	0	530579456	42	6088
2026-01-16 17:52:09.87	311.55	34.30	-34.1	-35.3	29.7	3.02e+01	61	28	0	532676608	42	6290
2026-01-16 17:52:10.88	311.08	34.30	-34.7	-35.9	29.1	3.02e+01	62	28	0	534773760	42	6801
2026-01-16 17:52:11.89	310.61	34.31	-34.8	-36.0	29.1	3.02e+01	55	28	0	536346624	42	6873
2026-01-16 17:52:12.90	310.13	34.31	-35.1	-36.4	28.7	3.02e+01	60	28	0	538443776	44	6361
2026-01-16 17:52:13.91	309.66	34.31	-34.7	-36.0	29.0	3.02e+01	54	28	0	540016640	44	6090
2026-01-16 17:52:14.92	309.19	34.30	-35.0	-36.3	28.8	3.02e+01	57	28	0	542113792	44	6326
2026-01-16 17:52:15.93	308.72	34.30	-34.2	-35.4	29.5	3.02e+01	58	28	0	544210944	44	5712
2026-01-16 17:52:16.94	308.25	34.29	-33.9	-35.1	29.8	3.02e+01	47	28	0	545783808	42	6142
2026-01-16 17:52:17.95	307.78	34.28	-33.9	-35.1	29.8	3.02e+01	57	28	0	547880960	42	6150
2026-01-16 17:52:18.96	307.31	34.27	-33.8	-35.0	29.9	3.02e+01	59	28	0	549978112	42	6072
2026-01-16 17:52:19.97	306.84	34.26	-34.1	-35.2	29.7	3.02e+01	46	28	0	551550976	42	6277
2026-01-16 17:52:20.98	306.37	34.24	-34.5	-35.8	29.1	3.02e+01	58	28	0	553648128	44	5938
2026-01-16 17:52:21.99	305.90	34.22	-34.8	-36.1	28.8	3.02e+01	60	28	0	555220992	44	6164
2026-01-16 17:52:23.00	305.43	34.20	-34.7	-36.0	29.0	3.02e+01	61	28	0	557318144	42	6813
2026-01-16 17:52:24.01	304.97	34.18	-35.1	-36.4	28.7	3.02e+01	57	28	0	559415296	42	7157
2026-01-16 17:52:25.02	304.50	34.16	-34.8	-36.1	28.8	3.02e+01	56	28	0	560988160	42	6954
2026-01-16 17:52:26.03	304.03	34.13	-34.1	-35.4	29.3	3.02e+01	57	28	0	563085312	42	6366
2026-01-16 17:52:27.04	303.57	34.10	-34.0	-35.2	29.5	3.02e+01	60	28	0	564658176	42	6234
2026-01-16 17:52:28.05	303.10	34.07	-33.8	-35.0	29.9	3.02e+01	47	28	0	566755328	44	5445
2026-01-16 17:52:29.06	302.64	34.04	-34.1	-35.4	29.6	3.02e+01	61	28	0	568852480	42	6367
2026-01-16 17:52:30.07	302.18	34.01	-34.5	-35.7	29.3	3.02e+01	58	28	0	570425344	42	6621
2026-01-16 17:52:31.08	301.71	33.97	-34.8	-36.1	29.1	3.02e+01	60	28	0	572522496	42	6952
2026-01-16 17:52:32.09	301.25	33.93	-34.9	-36.2	28.8	3.02e+01	57	28	0	574095360	42	7042
2026-01-16 17:52:33.10	300.79	33.89	-35.0	-36.3	28.8	3.02e+01	45	28	0	576192512	44	6281
2026-01-16 17:52:34.11	300.34	33.85	-34.9	-36.2	28.9	3.02e+01	57	28	0	578289664	44	6237
2026-01-16 17:52:35.12	299.88	33.80	-34.4	-35.7	29.3	3.02e+01	60	28	0	579862528	44	5862
2026-01-16 17:52:36.13	299.42	33.76	-34.1	-35.3	29.5	3.02e+01	46	28	0	581959680	44	5644
2026-01-16 17:52:37.14	298.97	33.71	-34.6	-35.9	29.2	3.02e+01	59	28	0	583532544	44	5997
2026-01-16 17:52:38.15	298.52	33.66	-34.7	-36.0	29.1	3.02e+01	58	28	0	585629696	44	6093
2026-01-16 17:52:39.16	298.06	33.61	-33.9	-35.1	29.5	3.02e+01	57	28	0	587726848	42	6187
2026-01-16 17:52:40.17	297.61	33.55	-33.6	-34.8	29.8	3.02e+01	57	28	0	589299712	42	5927
2026-01-16 17:52:41.18	297.17	33.50	-33.8	-35.0	29.9	3.02e+01	59	28	0	591396864	42	6073
2026-01-16 17:52:42.19	296.72	33.44	-34.0	-35.2	29.8	3.02e+01	57	28	0	593494016	42	6257
2026-01-16 17:52:43.19	296.28	33.38	-34.0	-35.2	29.7	3.02e+01	56	28	0	595066880	44	5582
2026-01-16 17:52:44.21	295.83	33.32	-34.4	-35.6	29.3	3.02e+01	59	28	0	597164032	44	5827
2026-01-16 17:52:45.21	295.39	33.26	-35.1	-36.4	28.4	3.02e+01	56	28	0	598736896	44	6374
2026-01-16 17:52:46.22	294.95	33.19	-34.9	-36.2	28.7	3.02e+01	49	28	0	600834048	42	7020
2026-01-16 17:52:47.23	294.51	33.12	-35.0	-36.3	28.4	3.02e+01	59	28	0	602931200	42	7109
2026-01-16 17:52:48.24	294.08	33.06	-34.1	-35.3	28.9	3.02e+01	61	28	0	604504064	42	6324
2026-01-16 17:52:49.25	293.64	32.99	-33.5	-34.6	29.7	3.02e+01	52	28	0	606601216	42	5797
2026-01-16 17:52:50.26	293.21	32.91	-33.5	-34.6	30.0	3.02e+01	60	28	0	608174080	42	5855
2026-01-16 17:52:51.27	292.78	32.84	-34.1	-35.3	29.1	3.02e+01	60	28	0	610271232	44	5625
2026-01-16 17:52:52.28	292.35	32.77	-35.1	-36.4	28.6	3.02e+01	60	28	0	612368384	44	6372
2026-01-16 17:52:53.29	291.93	32.69	-35.1	-36.4	28.7	3.02e+01	58	28	0	613941248	44	6355
2026-01-16 17:52:54.30	291.50	32.61	-34.6	-35.8	29.1	3.02e+01	46	28	0	616038400	44	5988
2026-01-16 17:52:55.31	291.08	32.53	-34.5	-35.7	29.1	3.02e+01	61	28	0	618135552	44	5916
2026-01-16 17:52:56.32	290.66	32.45	-34.3	-35.4	29.4	3.02e+01	59	28	0	619708416	44	5703
2026-01-16 17:52:57.33	290.24	32.37	-34.5	-35.7	29.0	3.02e+01	45	28	0	621805568	44	5864
2026-01-16 17:52:58.34	289.82	32.29	-35.6	-37.0	28.0	3.02e+01	62	28	0	623378432	44	6822
2026-01-16 17:52:59.35	289.41	32.20	-34.6	-35.8	28.6	3.02e+01	62	28	0	625475584	42	6724
2026-01-16 17:53:00.36	289.00	32.12	-34.0	-35.1	29.6	3.02e+01	61	28	0	627572736	44	5524
2026-01-16 17:53:01.37	288.59	32.03	-34.9	-36.1	28.9	3.02e+01	58	28	0	629145600	44	6198
2026-01-16 17:53:02.38	288.18	31.94	-34.5	-35.7	29.3	3.02e+01	58	28	0	631242752	44	5883
2026-01-16 17:53:03.39	287.78	31.85	-34.4	-35.6	29.3	3.02e+01	59	28	0	632815616	44	5832
2026-01-16 17:53:04.40	287.38	31.76	-34.3	-35.5	29.3	3.02e+01	57	28	0	634912768	44	5769
2026-01-16 17:53:05.41	286.98	31.66	-34.5	-35.7	29.3	3.02e+01	47	28	0	637009920	44	5860
2026-01-16 17:53:06.42	286.58	31.57	-34.8	-36.1	28.9	3.02e+01	58	28	0	638582784	44	6141
2026-01-16 17:53:07.43	286.18	31.47	-34.5	-35.7	29.3	3.02e+01	62	28	0	640679936	44	5906
2026-01-16 17:53:08.43	285.80	31.38	-34.7	-35.9	29.1	3.02e+01	63	28	0	642252800	44	6027
2026-01-16 17:53:09.44	285.41	31.28	-35.1	-36.3	28.6	3.02e+01	60	28	0	644349952	44	6343
2026-01-16 17:53:10.45	285.02	31.18	-35.5	-36.9	28.3	3.02e+01	55	28	0	646447104	44	6728
2026-01-16 17:53:11.46	284.63	31.08	-34.6	-35.8	29.0	3.02e+01	60	28	0	648019968	44	5977
2026-01-16 17:53:12.47	284.25	30.98	-35.7	-37.0	28.0	3.02e+01	59	28	0	650117120	44	6866
2026-01-16 17:53:13.48	283.87	30.88	-34.3	-35.5	29.3	3.02e+01	47	29	0	651689984	44	5756
2026-01-16 17:53:14.49	283.49	30.78	-34.9	-36.1	28.8	3.02e+01	55	28	0	653787136	44	6180
2026-01-16 17:53:15.50	283.12	30.67	-35.1	-36.4	28.6	3.02e+01	57	28	0	655884288	44	6375
2026-01-16 17:53:16.51	282.74	30.57	-34.7	-36.0	29.1	3.02e+01	58	28	0	657457152	44	6070
2026-01-16 17:53:17.52	282.37	30.46	-34.4	-35.6	29.3	3.02e+01	62	29	0	659554304	44	5843
2026-01-16 17:53:18.53	282.00	30.36	-34.1	-35.3	29.6	3.02e+01	53	28	0	661127168	44	5624
2026-01-16 17:53:19.54	281.64	30.25	-34.9	-36.2	28.8	3.02e+01	58	28	0	663224320	44	6212
2026-01-16 17:53:20.55	281.28	30.14	-34.3	-35.5	29.3	3.02e+01	62	29	0	665321472	44	5752
2026-01-16 17:53:21.56	280.92	30.03	-34.9	-36.2	28.3	3.02e+01	58	29	0	666894336	44	6233
2026-01-16 17:53:22.57	280.56	29.92	-34.0	-35.2	29.4	3.02e+01	58	29	0	668991488	42	6206
2026-01-16 17:53:23.58	280.20	29.81	-35.1	-36.4	28.0	3.02e+01	46	29	0	671088640	44	6376
2026-01-16 17:53:24.58	279.85	29.70	-34.6	-35.8	28.7	3.02e+01	60	29	0	672661504	44	5940
2026-01-16 17:53:25.59	279.50	29.59	-36.0	-37.4	27.5	3.02e+01	60	29	0	674758656	46	6354
2026-01-16 17:53:26.60	279.15	29.48	-35.4	-36.6	28.2	3.02e+01	44	29	0	676331520	46	5821
2026-01-16 17:53:27.62	278.81	29.36	-36.3	-37.6	27.4	3.02e+01	59	29	0	678428672	46	6557
2026-01-16 17:53:28.63	278.46	29.25	-34.7	-35.9	29.0	3.02e+01	60	28	0	680525824	44	6005
2026-01-16 17:53:29.63	278.13	29.13	-35.5	-36.8	27.9	3.02e+01	60	29	0	682098688	44	6691
2026-01-16 17:53:30.64	277.79	29.02	-33.8	-34.9	29.7	3.02e+01	59	29	0	684195840	42	6040
2026-01-16 17:53:31.65	277.45	28.90	-35.1	-36.3	28.7	3.02e+01	57	29	0	685768704	42	7110
2026-01-16 17:53:32.66	277.12	28.79	-34.6	-35.8	29.1	3.02e+01	56	29	0	687865856	44	5959
2026-01-16 17:53:33.67	276.79	28.67	-35.3	-36.5	28.1	3.02e+01	54	29	0	689963008	44	6494
2026-01-16 17:53:34.68	276.46	28.55	-35.4	-36.7	27.9	3.02e+01	45	29	0	691535872	44	6607
2026-01-16 17:53:35.69	276.14	28.43	-35.8	-37.0	28.0	3.02e+01	59	29	0	693633024	44	6856
2026-01-16 17:53:36.70	275.82	28.32	-36.4	-37.7	27.1	3.02e+01	58	29	0	695205888	46	6616
2026-01-16 17:53:37.71	275.50	28.20	-35.3	-36.5	28.4	3.02e+01	60	29	0	697303040	46	5785
2026-01-16 17:53:38.73	275.17	28.08	-36.4	-37.7	27.3	3.02e+01	60	29	0	699400192	46	6648
2026-01-16 17:53:39.74	274.86	27.96	-35.0	-36.2	26.4	3.02e+01	58	29	0	700973056	46	5572
2026-01-16 17:53:40.75	274.55	27.84	-35.5	-36.8	28.0	3.02e+01	58	29	0	703070208	44	6705
2026-01-16 17:53:41.75	274.24	27.72	-36.2	-37.5	27.3	3.02e+01	61	29	0	704643072	46	6493
2026-01-16 17:53:42.76	273.93	27.60	-34.3	-35.4	29.4	3.02e+01	46	29	0	706740224	44	5701
2026-01-16 17:53:43.77	273.63	27.48	-35.3	-36.6	28.3	3.02e+01	58	29	0	708837376	44	6572
2026-01-16 17:53:44.78	273.32	27.36	-34.8	-36.0	28.4	3.02e+01	59	29	0	710410240	44	6115
2026-01-16 17:53:45.79	273.02	27.23	-34.8	-35.9	28.9	3.02e+01	60	29	0	712507392	44	6059
2026-01-16 17:53:46.80	272.72	27.11	-35.9	-37.2	27.9	3.02e+01	62	29	0	714604544	44	7011
2026-01-16 17:53:47.81	272.43	26.99	-35.9	-37.2	27.5	3.02e+01	54	28	0	716177408	46	6258
2026-01-16 17:53:48.82	272.13	26.87	-35.9	-37.1	27.8	3.02e+01	60	29	0	718274560	46	6196
2026-01-16 17:53:49.83	271.84	26.75	-36.7	-38.1	27.1	3.02e+01	60	29	0	719847424	46	6957
2026-01-16 17:53:50.84	271.55	26.62	-35.4	-36.7	27.8	3.02e+01	56	29	0	721944576	46	5895
2026-01-16 17:53:51.85	271.27	26.50	-34.0	-35.1	29.5	3.02e+01	61	29	0	724041728	42	6171
2026-01-16 17:53:52.86	270.98	26.38	-35.2	-36.5	28.2	3.02e+01	58	28	0	725614592	44	6489
2026-01-16 17:53:53.87	270.70	26.26	-35.7	-37.0	27.5	3.02e+01	60	29	0	727711744	44	6879
2026-01-16 17:53:54.88	270.42	26.13	-35.5	-36.7	28.2	3.02e+01	58	29	0	729284608	44	6619
2026-01-16 17:53:55.89	270.14	26.01	-35.8	-37.1	27.9	3.02e+01	46	29	0	731381760	44	6916
2026-01-16 17:53:56.90	269.87	25.89	-36.3	-37.7	27.3	3.02e+01	59	29	0	733478912	46	6606
2026-01-16 17:53:57.91	269.59	25.76	-35.6	-36.8	28.0	3.02e+01	58	29	0	735051776	46	5986
2026-01-16 17:53:58.92	269.32	25.64	-34.7	-35.8	29.0	3.02e+01	58	29	0	737148928	44	5990
2026-01-16 17:53:59.92	269.06	25.52	-35.7	-37.0	28.1	3.02e+01	57	29	0	739246080	44	6823
2026-01-16 17:54:00.94	268.79	25.39	-35.8	-37.1	28.0	3.02e+01	45	29	0	740818944	46	6191
2026-01-16 17:54:01.95	268.52	25.27	-35.3	-36.6	28.2	3.02e+01	59	29	0	742916096	46	5818
2026-01-16 17:54:02.95	268.26	25.14	-35.0	-36.2	28.9	3.02e+01	58	29	0	744488960	46	5543
2026-01-16 17:54:03.96	268.00	25.02	-34.7	-36.0	28.9	3.02e+01	46	29	0	746586112	44	6072
2026-01-16 17:54:04.97	267.75	24.90	-35.2	-36.5	28.5	3.02e+01	59	29	0	748683264	44	6473
2026-01-16 17:54:05.99	267.49	24.77	-34.9	-36.2	28.7	3.02e+01	58	29	0	750256128	44	6231
2026-01-16 17:54:06.99	267.24	24.65	-34.7	-35.9	28.9	3.02e+01	57	29	0	752353280	44	6033
2026-01-16 17:54:08.00	266.99	24.53	-34.8	-35.9	29.1	3.02e+01	59	29	0	753926144	44	6062
2026-01-16 17:54:09.01	266.74	24.40	-34.7	-35.9	28.9	3.02e+01	56	29	0	756023296	44	6057
2026-01-16 17:54:10.02	266.49	24.28	-35.0	-36.3	28.7	3.02e+01	58	29	0	758120448	44	6312
2026-01-16 17:54:11.03	266.24	24.16	-35.0	-36.2	28.6	3.02e+01	58	29	0	759693312	44	6268
2026-01-16 17:54:12.04	266.00	24.03	-34.8	-36.1	28.8	3.02e+01	49	29	0	761790464	44	6142
2026-01-16 17:54:13.05	265.76	23.91	-34.6	-35.8	28.9	3.02e+01	60	29	0	763363328	44	5975
2026-01-16 17:54:14.06	265.52	23.79	-34.7	-35.9	28.9	3.02e+01	59	29	0	765460480	44	6038
2026-01-16 17:54:15.07	265.28	23.66	-35.0	-36.3	28.7	3.02e+01	60	29	0	767557632	44	6289
2026-01-16 17:54:16.08	265.05	23.54	-35.1	-36.4	28.5	3.02e+01	59	29	0	769130496	44	6393
2026-01-16 17:54:17.09	264.81	23.42	-35.0	-36.2	28.6	3.02e+01	47	29	0	771227648	44	6272
2026-01-16 17:54:18.09	264.58	23.30	-34.7	-35.9	28.9	3.02e+01	61	29	0	772800512	44	6024
2026-01-16 17:54:19.11	264.35	23.17	-34.8	-36.0	29.0	3.02e+01	59	29	0	774897664	44	6121
2026-01-16 17:54:20.11	264.13	23.05	-35.0	-36.2	28.8	3.02e+01	44	29	0	776994816	44	6249
2026-01-16 17:54:21.12	263.90	22.93	-35.0	-36.2	28.8	3.02e+01	58	29	0	778567680	44	6255
2026-01-16 17:54:22.13	263.68	22.81	-34.9	-36.1	28.8	3.02e+01	58	29	0	780664832	44	6179
2026-01-16 17:54:23.14	263.45	22.68	-35.0	-36.2	28.7	3.02e+01	61	29	0	782761984	44	6275
2026-01-16 17:54:24.15	263.23	22.56	-34.7	-35.9	29.0	3.02e+01	61	29	0	784334848	44	6053
2026-01-16 17:54:25.16	263.01	22.44	-34.8	-36.0	28.8	3.02e+01	56	29	0	786432000	44	6101
2026-01-16 17:54:26.17	262.80	22.32	-35.1	-36.3	28.7	3.02e+01	59	29	0	788004864	44	6328
2026-01-16 17:54:27.18	262.58	22.20	-34.7	-35.9	29.0	3.02e+01	58	29	0	790102016	44	6057
2026-01-16 17:54:28.19	262.37	22.08	-34.8	-36.0	28.9	3.02e+01	44	29	0	792199168	44	6099
2026-01-16 17:54:29.20	262.16	21.96	-34.8	-36.0	28.9	3.02e+01	61	29	0	793772032	44	6117
2026-01-16 17:54:30.21	261.95	21.84	-34.8	-36.0	28.9	3.02e+01	49	29	0	795869184	44	6123
2026-01-16 17:54:31.22	261.74	21.72	-34.9	-36.2	28.7	3.02e+01	60	29	0	797442048	44	6216
2026-01-16 17:54:32.23	261.53	21.60	-34.9	-36.1	28.8	3.02e+01	60	29	0	799539200	44	6169
2026-01-16 17:54:33.23	261.33	21.48	-34.7	-36.0	28.9	3.02e+01	51	29	0	801636352	44	6074
2026-01-16 17:54:34.24	261.13	21.36	-34.6	-35.8	29.1	3.02e+01	52	29	0	803209216	44	5950
2026-01-16 17:54:35.25	260.93	21.24	-34.7	-35.9	29.0	3.02e+01	60	29	0	805306368	44	6030
2026-01-16 17:54:36.26	260.73	21.12	-34.7	-35.9	29.0	3.02e+01	59	29	0	807403520	44	6007
2026-01-16 17:54:37.27	260.53	21.00	-34.6	-35.8	29.0	3.02e+01	58	29	0	808976384	44	5985
2026-01-16 17:54:38.28	260.33	20.88	-34.7	-36.0	28.9	3.02e+01	50	29	0	811073536	44	6086
2026-01-16 17:54:39.29	260.14	20.77	-34.9	-36.1	28.7	3.02e+01	59	29	0	812646400	44	6184
2026-01-16 17:54:40.30	259.94	20.65	-34.7	-35.9	28.9	3.02e+01	56	29	0	814743552	44	6036
2026-01-16 17:54:41.31	259.75	20.53	-34.7	-35.9	29.0	3.02e+01	45	29	0	816840704	44	6010
2026-01-16 17:54:42.32	259.56	20.41	-34.7	-36.0	29.0	3.02e+01	59	29	0	818413568	44	6084
2026-01-16 17:54:43.32	259.38	20.30	-34.6	-35.9	29.0	3.02e+01	58	29	0	820510720	44	6013
2026-01-16 17:54:44.33	259.19	20.18	-34.7	-36.0	28.9	3.02e+01	57	29	0	822083584	44	6076
2026-01-16 17:54:45.34	259.00	20.06	-34.6	-35.9	29.0	3.02e+01	56	29	0	824180736	44	5998
2026-01-16 17:54:46.35	258.82	19.95	-34.8	-36.0	28.8	3.02e+01	54	29	0	825753600	44	6127
2026-01-16 17:54:47.36	258.64	19.83	-34.9	-36.1	28.7	3.02e+01	56	29	0	827850752	44	6173
2026-01-16 17:54:48.37	258.45	19.71	-34.8	-36.1	28.8	3.02e+01	61	29	0	829947904	44	6160
2026-01-16 17:54:49.38	258.27	19.60	-34.8	-36.1	28.8	3.02e+01	48	29	0	831520768	44	6138
2026-01-16 17:54:50.39	258.10	19.48	-34.8	-36.0	28.8	3.02e+01	61	29	0	833617920	44	6126
2026-01-16 17:54:51.40	257.92	19.37	-34.7	-36.0	28.9	3.02e+01	60	29	0	835715072	44	6075
2026-01-16 17:54:52.41	257.74	19.26	-34.5	-35.7	29.1	3.02e+01	59	29	0	837287936	44	5895
2026-01-16 17:54:53.42	257.57	19.14	-34.5	-35.8	29.1	3.02e+01	51	29	0	839385088	44	5927
2026-01-16 17:54:54.42	257.40	19.03	-34.8	-36.0	28.9	3.02e+01	51	29	0	840957952	44	6118
2026-01-16 17:54:55.43	257.23	18.91	-34.8	-36.0	28.9	3.02e+01	59	29	0	843055104	44	6123
2026-01-16 17:54:56.44	257.06	18.80	-34.8	-36.1	28.8	3.02e+01	56	29	0	845152256	44	6138
2026-01-16 17:54:57.45	256.89	18.69	-34.7	-36.0	28.8	3.02e+01	47	29	0	846725120	44	6086
2026-01-16 17:54:58.46	256.72	18.58	-34.7	-35.9	28.9	3.02e+01	58	29	0	848822272	44	6048
2026-01-16 17:54:59.47	256.56	18.46	-34.7	-35.9	28.9	3.02e+01	58	29	0	850919424	44	6021
2026-01-16 17:55:00.48	256.39	18.35	-34.7	-35.9	29.0	3.02e+01	58	29	0	852492288	44	6024
2026-01-16 17:55:01.49	256.23	18.24	-34.5	-35.7	29.1	3.02e+01	62	29	0	854589440	44	5917
2026-01-16 17:55:02.50	256.07	18.13	-34.5	-35.8	29.0	3.02e+01	52	29	0	856162304	44	5939
2026-01-16 17:55:03.51	255.91	18.02	-34.4	-35.6	29.1	3.02e+01	62	29	0	858259456	44	5850
2026-01-16 17:55:04.52	255.75	17.91	-34.4	-35.6	29.2	3.02e+01	61	29	0	860356608	44	5850
2026-01-16 17:55:05.53	255.59	17.80	-34.3	-35.5	29.2	3.02e+01	51	29	0	861929472	44	5776
2026-01-16 17:55:06.54	255.43	17.69	-34.4	-35.6	29.3	3.02e+01	62	29	0	864026624	44	5821
2026-01-16 17:55:07.55	255.28	17.58	-34.6	-35.8	29.0	3.02e+01	47	29	0	865599488	44	5949
2026-01-16 17:55:08.56	255.12	17.47	-34.7	-35.9	28.9	3.02e+01	60	29	0	867696640	44	6049
2026-01-16 17:55:09.57	254.97	17.36	-34.8	-36.1	28.8	3.02e+01	60	29	0	869793792	44	6137
2026-01-16 17:55:10.58	254.81	17.25	-34.7	-36.0	28.8	3.02e+01	48	29	0	871366656	44	6080
2026-01-16 17:55:11.59	254.66	17.14	-34.7	-35.9	28.9	3.02e+01	57	29	0	873463808	44	6018
2026-01-16 17:55:12.60	254.51	17.03	-34.6	-35.8	28.9	3.02e+01	61	29	0	875036672	44	5955
2026-01-16 17:55:13.61	254.37	16.93	-34.6	-35.8	29.0	3.02e+01	56	29	0	877133824	44	5940
2026-01-16 17:55:14.62	254.22	16.82	-34.7	-36.0	28.9	3.02e+01	58	29	0	879230976	44	6073
2026-01-16 17:55:15.63	254.07	16.71	-34.7	-35.9	28.9	3.02e+01	50	29	0	880803840	44	6037
2026-01-16 17:55:16.64	253.93	16.60	-34.7	-35.9	28.9	3.02e+01	59	29	0	882900992	44	6026
2026-01-16 17:55:17.65	253.78	16.50	-34.8	-36.0	28.8	3.02e+01	62	29	0	884473856	44	6097
2026-01-16 17:55:18.66	253.64	16.39	-34.7	-35.9	28.8	3.02e+01	44	29	0	886571008	44	6038
2026-01-16 17:55:19.66	253.50	16.29	-34.6	-35.8	29.0	3.02e+01	59	29	0	888668160	44	5970
2026-01-16 17:55:20.67	253.36	16.18	-34.5	-35.7	29.0	3.02e+01	59	29	0	890241024	44	5905
2026-01-16 17:55:21.68	253.22	16.08	-34.8	-36.0	28.8	3.02e+01	59	29	0	892338176	44	6090
2026-01-16 17:55:22.69	253.08	15.97	-34.6	-35.8	28.9	3.02e+01	58	29	0	893911040	44	5987
2026-01-16 17:55:23.70	252.94	15.87	-34.5	-35.8	29.0	3.02e+01	58	29	0	896008192	44	5928
2026-01-16 17:55:24.71	252.80	15.76	-34.7	-35.9	28.9	3.02e+01	60	29	0	898105344	44	6027
2026-01-16 17:55:25.72	252.67	15.66	-34.9	-36.1	28.7	3.02e+01	59	29	0	899678208	44	6193
2026-01-16 17:55:26.73	252.53	15.56	-34.7	-35.9	28.8	3.02e+01	51	29	0	901775360	44	6024
2026-01-16 17:55:27.74	252.40	15.45	-34.6	-35.9	28.9	3.02e+01	61	29	0	903872512	44	5997
2026-01-16 17:55:28.75	252.27	15.35	-34.5	-35.8	28.9	3.02e+01	59	29	0	905445376	44	5936
2026-01-16 17:55:29.76	252.13	15.25	-34.6	-35.8	28.9	3.02e+01	59	29	0	907542528	44	5947
2026-01-16 17:55:30.77	252.00	15.15	-34.6	-35.9	28.9	3.02e+01	57	29	0	909115392	44	6019
2026-01-16 17:55:31.78	251.87	15.05	-34.6	-35.8	28.9	3.02e+01	53	29	0	911212544	44	5946
2026-01-16 17:55:32.79	251.75	14.94	-34.6	-35.8	28.9	3.02e+01	58	29	0	913309696	44	5970
2026-01-16 17:55:33.80	251.62	14.84	-34.6	-35.9	28.9	3.02e+01	60	29	0	914882560	44	6012
2026-01-16 17:55:34.81	251.49	14.74	-34.8	-36.0	28.8	3.02e+01	44	29	0	916979712	44	6099
2026-01-16 17:55:35.82	251.36	14.64	-34.8	-36.0	28.8	3.02e+01	60	29	0	919076864	44	6108
2026-01-16 17:55:36.83	251.24	14.54	-34.9	-36.1	28.6	3.02e+01	62	29	0	920649728	44	6167
2026-01-16 17:55:37.83	251.12	14.44	-34.8	-36.1	28.6	3.02e+01	60	29	0	922746880	44	6160
2026-01-16 17:55:38.84	250.99	14.34	-34.9	-36.2	28.6	3.02e+01	60	29	0	924319744	44	6231
2026-01-16 17:55:39.85	250.87	14.24	-34.8	-36.1	28.6	3.02e+01	55	29	0	926416896	44	6143
2026-01-16 17:55:40.86	250.75	14.15	-35.0	-36.2	28.5	3.02e+01	58	29	0	928514048	44	6255
2026-01-16 17:55:41.87	250.63	14.05	-34.9	-36.1	28.6	3.02e+01	60	29	0	930086912	44	6178
2026-01-16 17:55:42.88	250.51	13.95	-34.9	-36.2	28.5	3.02e+01	55	29	0	932184064	44	6212
2026-01-16 17:55:43.89	250.39	13.85	-34.8	-36.0	28.6	3.02e+01	57	29	0	933756928	44	6109
2026-01-16 17:55:44.91	250.27	13.75	-34.9	-36.1	28.6	3.02e+01	46	29	0	935854080	44	6161
2026-01-16 17:55:45.92	250.15	13.65	-34.9	-36.2	28.5	3.02e+01	58	29	0	937951232	44	6220
2026-01-16 17:55:46.93	250.04	13.56	-34.9	-36.1	28.6	3.02e+01	60	29	0	939524096	44	6204
2026-01-16 17:55:47.93	249.92	13.46	-34.8	-36.0	28.6	3.02e+01	47	29	0	941621248	44	6127
2026-01-16 17:55:48.95	249.81	13.36	-35.0	-36.2	28.5	3.02e+01	60	29	0	943194112	44	6263
2026-01-16 17:55:49.95	249.69	13.27	-35.1	-36.4	28.4	3.02e+01	56	29	0	945291264	44	6394
2026-01-16 17:55:50.97	249.58	13.17	-35.2	-36.4	28.3	3.02e+01	61	29	0	947388416	44	6420
2026-01-16 17:55:51.98	249.47	13.08	-35.2	-36.4	28.3	3.02e+01	56	29	0	948961280	44	6418
2026-01-16 17:55:52.99	249.36	12.98	-35.1	-36.3	28.4	3.02e+01	61	29	0	951058432	44	6341
2026-01-16 17:55:54.00	249.25	12.89	-35.0	-36.3	28.4	3.02e+01	57	29	0	952631296	44	6278
2026-01-16 17:55:55.01	249.14	12.79	-35.1	-36.4	28.3	3.02e+01	65	29	0	954728448	44	6363
2026-01-16 17:55:56.02	249.03	12.70	-34.9	-36.2	28.5	3.02e+01	46	29	0	956825600	44	6229
2026-01-16 17:55:57.03	248.92	12.61	-35.0	-36.2	28.5	3.02e+01	61	29	0	958398464	44	6254
2026-01-16 17:55:58.04	248.81	12.51	-35.1	-36.3	28.4	3.02e+01	59	29	0	960495616	44	6342
2026-01-16 17:55:59.05	248.70	12.42	-35.1	-36.4	28.3	3.02e+01	61	29	0	962068480	44	6359
2026-01-16 17:56:00.05	248.60	12.33	-35.0	-36.3	28.4	3.02e+01	59	30	0	964165632	44	6288
2026-01-16 17:56:01.06	248.49	12.23	-35.2	-36.4	28.3	3.02e+01	46	29	0	966262784	44	6408
2026-01-16 17:56:02.07	248.39	12.14	-35.1	-36.4	28.3	3.02e+01	59	29	0	967835648	44	6377
2026-01-16 17:56:03.08	248.28	12.05	-35.1	-36.3	28.4	3.02e+01	59	29	0	969932800	44	6348
2026-01-16 17:56:04.09	248.18	11.96	-35.1	-36.3	28.4	3.02e+01	45	29	0	972029952	44	6327
2026-01-16 17:56:05.10	248.08	11.87	-35.0	-36.2	28.4	3.02e+01	58	29	0	973602816	44	6268
2026-01-16 17:56:06.11	247.98	11.78	-35.1	-36.3	28.4	3.02e+01	58	29	0	975699968	44	6335
2026-01-16 17:56:07.12	247.88	11.68	-35.1	-36.3	28.4	3.02e+01	58	29	0	977272832	44	6348
2026-01-16 17:56:08.13	247.78	11.59	-35.3	-36.5	28.2	3.02e+01	56	29	0	979369984	44	6481
2026-01-16 17:56:09.14	247.68	11.50	-35.4	-36.7	28.2	3.02e+01	45	29	0	981467136	44	6580
2026-01-16 17:56:10.15	247.58	11.41	-35.2	-36.4	28.3	3.02e+01	56	29	0	983040000	44	6418
2026-01-16 17:56:11.16	247.48	11.32	-35.2	-36.4	28.2	3.02e+01	59	30	0	985137152	44	6423
2026-01-16 17:56:12.17	247.38	11.23	-35.3	-36.6	28.1	3.02e+01	44	29	0	987234304	44	6550
2026-01-16 17:56:13.18	247.28	11.15	-35.5	-36.8	28.0	3.02e+01	56	29	0	988807168	44	6683
2026-01-16 17:56:14.19	247.19	11.06	-35.5	-36.7	28.0	3.02e+01	56	29	0	990904320	44	6637
2026-01-16 17:56:15.21	247.09	10.97	-35.4	-36.7	28.0	3.02e+01	57	29	0	992477184	44	6593
2026-01-16 17:56:16.22	247.00	10.88	-35.5	-36.8	27.7	3.02e+01	53	30	0	994574336	44	6698
2026-01-16 17:56:17.23	246.90	10.79	-35.5	-36.8	27.9	3.02e+01	52	30	0	996671488	44	6676
2026-01-16 17:56:18.24	246.81	10.70	-35.5	-36.8	27.9	3.02e+01	58	29	0	998244352	44	6681
2026-01-16 17:56:19.25	246.71	10.62	-35.7	-37.0	27.7	3.02e+01	60	29	0	1000341504	44	6860
2026-01-16 17:56:20.26	246.62	10.53	-35.7	-37.0	27.7	3.02e+01	59	29	0	1001914368	44	6825
2026-01-16 17:56:21.27	246.53	10.44	-35.8	-37.1	27.5	3.02e+01	57	29	0	1004011520	44	6949
2026-01-16 17:56:22.28	246.44	10.35	-35.9	-37.2	27.4	3.02e+01	45	30	0	1006108672	44	7024
2026-01-16 17:56:23.28	246.35	10.27	-35.9	-37.3	27.3	3.02e+01	58	29	0	1007681536	46	6289
2026-01-16 17:56:24.29	246.26	10.18	-35.9	-37.3	27.4	3.02e+01	58	29	0	1009778688	46	6285
2026-01-16 17:56:25.30	246.17	10.10	-35.9	-37.2	27.4	3.02e+01	46	30	0	1011351552	46	6227
2026-01-16 17:56:26.31	246.08	10.01	-36.0	-37.3	27.3	3.02e+01	60	29	0	1013448704	46	6308
2026-01-16 17:56:27.32	245.99	9.93	-36.1	-37.4	27.2	3.02e+01	57	30	0	1015545856	46	6379
2026-01-16 17:56:28.33	245.90	9.84	-36.0	-37.3	27.2	3.02e+01	58	30	0	1017118720	46	6346
2026-01-16 17:56:29.34	245.81	9.76	-36.1	-37.5	27.1	3.02e+01	56	30	0	1019215872	46	6426
2026-01-16 17:56:30.35	245.73	9.67	-36.1	-37.4	27.3	3.02e+01	61	29	0	1020788736	46	6374
2026-01-16 17:56:31.36	245.64	9.59	-36.2	-37.6	27.0	3.02e+01	58	30	0	1022885888	46	6529
2026-01-16 17:56:32.37	245.56	9.50	-36.4	-37.8	26.8	3.02e+01	61	30	0	1024983040	46	6650
2026-01-16 17:56:33.38	245.47	9.42	-36.5	-37.8	26.8	3.02e+01	47	30	0	1026555904	46	6713
2026-01-16 17:56:34.39	245.39	9.34	-36.5	-37.9	26.8	3.02e+01	61	30	0	1028653056	46	6729
2026-01-16 17:56:35.40	245.30	9.25	-36.7	-38.0	26.6	3.02e+01	53	30	0	1030750208	46	6881
2026-01-16 17:56:36.42	245.22	9.17	-36.5	-37.9	26.6	3.02e+01	62	30	0	1032323072	46	6782
2026-01-16 17:56:37.43	245.13	9.09	-36.8	-38.2	26.4	3.02e+01	59	30	0	1034420224	46	7024
2026-01-16 17:56:38.43	245.05	9.00	-37.0	-38.4	26.3	3.02e+01	51	30	0	1035993088	48	6394
2026-01-16 17:56:39.44	244.97	8.92	-37.0	-38.4	26.3	3.02e+01	58	30	0	1038090240	48	6379
2026-01-16 17:56:40.45	244.89	8.84	-37.0	-38.4	26.1	3.02e+01	59	30	0	1040187392	48	6419
2026-01-16 17:56:41.46	244.81	8.76	-37.1	-38.6	26.0	3.02e+01	51	30	0	1041760256	48	6518
2026-01-16 17:56:42.47	244.73	8.68	-37.4	-38.8	25.7	3.02e+01	56	30	0	1043857408	48	6720
2026-01-16 17:56:43.48	244.65	8.60	-37.4	-38.8	25.7	3.02e+01	58	30	0	1045430272	48	6715
2026-01-16 17:56:44.49	244.57	8.52	-37.5	-38.9	25.6	3.02e+01	61	30	0	1047527424	48	6800
2026-01-16 17:56:45.50	244.49	8.43	-37.5	-38.9	25.6	3.02e+01	59	30	0	1049624576	48	6795
2026-01-16 17:56:46.51	244.41	8.35	-37.5	-39.0	25.5	3.02e+01	53	30	0	1051197440	48	6867
2026-01-16 17:56:47.52	244.33	8.27	-37.9	-39.4	25.1	3.02e+01	61	30	0	1053294592	48	7202
2026-01-16 17:56:48.53	244.26	8.19	-37.9	-39.4	25.1	3.02e+01	57	30	0	1054867456	50	6387
2026-01-16 17:56:49.54	244.18	8.11	-38.1	-39.7	24.9	3.02e+01	50	30	0	1056964608	50	6602
2026-01-16 17:56:50.55	244.10	8.03	-38.2	-39.9	24.6	3.02e+01	60	30	0	1059061760	50	6736
2026-01-16 17:56:51.55	244.03	7.96	-38.3	-39.9	24.6	3.02e+01	60	30	0	1060634624	50	6762
2026-01-16 17:56:52.56	243.95	7.88	-38.3	-40.0	24.4	3.02e+01	59	30	0	1062731776	50	6857
2026-01-16 17:56:53.57	243.88	7.80	-38.6	-40.3	24.2	3.02e+01	59	30	0	1064828928	50	7108
2026-01-16 17:56:54.58	243.80	7.72	-38.5	-40.2	24.3	3.02e+01	52	30	0	1066401792	50	7033
2026-01-16 17:56:55.59	243.73	7.64	-38.6	-40.3	24.1	3.02e+01	62	30	0	1068498944	50	7123
2026-01-16 17:56:56.60	243.65	7.56	-38.8	-40.5	24.0	3.02e+01	61	30	0	1070071808	50	7231
2026-01-16 17:56:57.61	243.58	7.48	-38.9	-40.7	23.8	3.02e+01	61	30	0	1072168960	52	6590
2026-01-16 17:56:58.62	243.51	7.41	-39.2	-41.0	23.6	3.02e+01	60	30	0	1074266112	52	6828
2026-01-16 17:56:59.63	243.44	7.33	-39.2	-41.1	23.3	3.02e+01	54	30	0	1075838976	52	6901
2026-01-16 17:57:00.64	243.36	7.25	-39.2	-41.1	23.4	3.02e+01	58	30	0	1077936128	52	6894
2026-01-16 17:57:01.65	243.29	7.17	-39.5	-41.4	23.1	3.02e+01	58	30	0	1079508992	52	7167
2026-01-16 17:57:02.66	243.22	7.10	-39.5	-41.4	23.1	3.02e+01	50	30	0	1081606144	52	7170
2026-01-16 17:57:03.67	243.15	7.02	-39.7	-41.6	22.9	3.02e+01	57	30	0	1083703296	52	7340
2026-01-16 17:57:04.68	243.08	6.94	-39.9	-41.8	22.7	3.02e+01	61	30	0	1085276160	52	7492
2026-01-16 17:57:05.69	243.01	6.87	-40.0	-41.9	22.6	3.02e+01	58	30	0	1087373312	54	6765
2026-01-16 17:57:06.70	242.94	6.79	-40.1	-42.0	22.3	3.02e+01	58	30	0	1088946176	54	6876
2026-01-16 17:57:07.70	242.87	6.72	-40.2	-42.2	22.2	3.02e+01	55	30	0	1091043328	54	7022
2026-01-16 17:57:08.71	242.80	6.64	-40.3	-42.3	22.1	3.02e+01	61	30	0	1093140480	54	7102
2026-01-16 17:57:09.72	242.73	6.57	-40.6	-42.7	21.7	3.02e+01	55	30	0	1094713344	54	7444
2026-01-16 17:57:10.73	242.67	6.49	-40.9	-43.2	21.3	3.02e+01	46	30	0	1096810496	54	7838
2026-01-16 17:57:11.74	242.60	6.42	-41.4	-43.8	20.8	3.02e+01	57	30	0	1098383360	56	7495
2026-01-16 17:57:12.75	242.53	6.34	-41.4	-43.9	20.6	3.02e+01	56	30	0	1100480512	56	7575
2026-01-16 17:57:13.76	242.47	6.27	-41.7	-44.3	20.4	3.02e+01	49	30	0	1102577664	56	7927
2026-01-16 17:57:14.77	242.40	6.19	-41.2	-43.7	20.8	3.02e+01	61	30	0	1104150528	56	7429
