passes_logs/2026/01/16/R4.6S_Anadyr/R4.6S_Anadyr__20260116_192247_AQUA_rec.log

#Pass ID: 20260116_192247_AQUA
#Satellite: AQUA
#Configuration: AQUA
#almurnet v.1.7.20251203
#Start time: 2026-01-16 19:22:49

#Version: 2.2.20231116
#Station: R4.6S_Anadyr
#Location: 177.4865 lon 64.73178 lat
#TLE: 1 27424U 02022A   26015.92015591  .00000664  00000+0  14289-3 0  9993
#TLE: 2 27424  98.4082 342.3630 0002020  77.1389  16.3168 14.61822470261023

#Time	Az	El	Level	Level2	SNR	BER	BlckErr	Temp	State	Recorded	gain1	gain2
2026-01-16 19:22:49.84	29.64	0.12	-47.8	-59.4	3.5	8.46e-01	0	26	0	0	60	33844
2026-01-16 19:22:50.85	29.56	0.18	-48.6	-66.5	3.5	3.03e+01	0	27	104	0	60	81557
2026-01-16 19:22:51.86	29.48	0.23	-48.6	-66.5	3.5	3.03e+01	0	27	104	0	60	81203
2026-01-16 19:22:52.87	29.40	0.28	-48.7	-66.6	3.5	3.03e+01	0	27	104	0	60	81824
2026-01-16 19:22:53.88	29.32	0.33	-48.5	-66.4	3.5	3.03e+01	0	27	104	0	60	80498
2026-01-16 19:22:54.89	29.25	0.39	-48.5	-66.3	3.5	3.03e+01	0	27	104	0	60	79901
2026-01-16 19:22:55.90	29.17	0.44	-48.3	-66.3	3.5	3.03e+01	0	27	104	0	60	79188
2026-01-16 19:22:56.91	29.09	0.49	-48.4	-66.3	3.5	3.03e+01	0	27	104	0	60	79366
2026-01-16 19:22:57.92	29.00	0.54	-48.4	-66.3	3.5	3.03e+01	0	27	104	0	60	79113
2026-01-16 19:22:58.93	28.92	0.60	-48.1	-66.2	3.5	3.03e+01	0	27	104	0	60	78268
2026-01-16 19:22:59.94	28.84	0.65	-47.9	-66.1	3.5	3.03e+01	0	27	104	0	60	77656
2026-01-16 19:23:00.95	28.76	0.70	-48.0	-65.9	3.5	3.03e+01	0	27	104	0	60	76291
2026-01-16 19:23:01.96	28.68	0.75	-47.8	-65.8	3.5	3.03e+01	0	27	104	0	60	75048
2026-01-16 19:23:02.97	28.60	0.81	-47.6	-65.7	3.5	3.03e+01	0	27	104	0	60	73915
2026-01-16 19:23:03.98	28.51	0.86	-47.6	-65.4	3.5	3.03e+01	0	27	104	0	60	71913
2026-01-16 19:23:04.99	28.43	0.91	-47.2	-65.2	3.5	3.03e+01	0	27	104	0	60	69982
2026-01-16 19:23:06.00	28.35	0.97	-46.7	-64.7	3.5	3.03e+01	0	27	104	0	60	66340
2026-01-16 19:23:07.01	28.26	1.02	-46.7	-64.6	3.5	3.03e+01	0	27	104	0	60	65652
2026-01-16 19:23:08.02	28.18	1.07	-46.7	-64.6	3.5	3.03e+01	0	27	104	0	60	65678
2026-01-16 19:23:09.03	28.10	1.13	-46.7	-64.6	3.5	3.03e+01	0	27	104	0	60	65532
2026-01-16 19:23:10.04	28.01	1.18	-46.6	-64.6	3.5	3.03e+01	0	27	104	0	60	65648
2026-01-16 19:23:11.05	27.93	1.23	-46.6	-64.7	3.5	3.03e+01	0	27	104	0	60	65755
2026-01-16 19:23:12.07	27.84	1.29	-46.7	-64.7	3.5	3.03e+01	0	27	104	0	60	65905
2026-01-16 19:23:13.07	27.76	1.34	-46.6	-64.7	3.5	3.03e+01	0	27	104	0	60	65772
2026-01-16 19:23:14.08	27.67	1.39	-46.6	-64.6	3.5	3.03e+01	0	27	104	0	60	65574
2026-01-16 19:23:15.09	27.58	1.45	-46.6	-64.6	3.5	3.03e+01	0	27	104	0	60	65618
2026-01-16 19:23:16.10	27.50	1.50	-46.6	-64.6	3.5	3.03e+01	0	27	104	0	60	65527
2026-01-16 19:23:17.11	27.41	1.55	-46.7	-64.6	3.5	3.03e+01	0	27	104	0	60	65543
2026-01-16 19:23:18.12	27.32	1.61	-46.7	-64.6	3.5	3.03e+01	0	27	104	0	60	65073
2026-01-16 19:23:19.13	27.23	1.66	-46.6	-64.6	3.5	3.03e+01	0	27	104	0	60	65022
2026-01-16 19:23:20.14	27.15	1.72	-46.6	-64.6	3.5	3.03e+01	0	27	104	0	60	65025
2026-01-16 19:23:21.15	27.06	1.77	-46.6	-64.5	3.5	3.03e+01	0	27	104	0	60	64714
2026-01-16 19:23:22.16	26.97	1.82	-46.6	-64.6	3.5	3.03e+01	0	27	104	0	60	65210
2026-01-16 19:23:23.17	26.88	1.88	-46.6	-64.5	3.5	3.03e+01	0	27	104	0	60	64656
2026-01-16 19:23:24.18	26.79	1.93	-46.6	-64.6	3.5	3.03e+01	0	27	104	0	60	65001
2026-01-16 19:23:25.19	26.70	1.99	-46.6	-64.6	3.5	3.03e+01	0	27	104	0	60	65140
2026-01-16 19:23:26.20	26.61	2.04	-46.6	-64.6	3.5	3.03e+01	0	27	104	0	60	65438
2026-01-16 19:23:27.21	26.52	2.09	-46.6	-64.6	3.5	3.03e+01	0	27	104	0	60	65350
2026-01-16 19:23:28.22	26.43	2.15	-46.6	-64.5	3.5	3.03e+01	0	27	104	0	60	64760
2026-01-16 19:23:29.23	26.34	2.20	-46.6	-64.5	3.5	3.03e+01	0	27	104	0	60	64319
2026-01-16 19:23:30.24	26.24	2.26	-46.6	-64.3	3.5	3.03e+01	0	27	104	0	60	63120
2026-01-16 19:23:31.25	26.15	2.31	-46.6	-64.2	3.5	3.03e+01	0	27	104	0	60	62283
2026-01-16 19:23:32.26	26.06	2.37	-46.5	-64.1	3.5	3.03e+01	0	27	104	0	60	61739
2026-01-16 19:23:33.27	25.97	2.42	-46.6	-64.3	3.5	3.03e+01	0	27	104	0	60	62942
2026-01-16 19:23:34.28	25.87	2.47	-46.6	-64.5	3.5	3.03e+01	0	27	104	0	60	64506
2026-01-16 19:23:35.29	25.78	2.53	-46.6	-64.5	3.5	3.03e+01	0	27	104	0	60	64872
2026-01-16 19:23:36.29	25.68	2.58	-46.6	-64.5	3.5	3.03e+01	0	27	104	0	60	64889
2026-01-16 19:23:37.30	25.59	2.64	-46.6	-64.5	3.5	3.03e+01	0	27	104	0	60	64690
2026-01-16 19:23:38.32	25.49	2.69	-46.6	-64.6	3.5	3.03e+01	0	27	104	0	60	65284
2026-01-16 19:23:39.32	25.40	2.75	-46.6	-64.5	3.5	3.03e+01	0	27	104	0	60	64367
2026-01-16 19:23:40.34	25.30	2.80	-46.5	-64.0	3.5	3.03e+01	0	27	104	0	60	60939
2026-01-16 19:23:41.34	25.21	2.86	-46.5	-63.7	3.5	3.03e+01	0	27	104	0	60	59009
2026-01-16 19:23:42.36	25.11	2.91	-46.5	-63.8	3.5	3.03e+01	0	27	104	0	60	59676
2026-01-16 19:23:43.36	25.01	2.97	-46.6	-64.2	3.5	3.03e+01	0	27	104	0	60	62629
2026-01-16 19:23:44.37	24.92	3.02	-46.2	-62.6	3.5	3.03e+01	0	27	104	0	60	51723
2026-01-16 19:23:45.38	24.82	3.08	-45.1	-58.9	3.5	3.03e+01	0	28	104	0	60	33946
2026-01-16 19:23:46.39	24.72	3.13	-43.1	-55.1	3.5	3.03e+01	0	28	104	0	60	21789
2026-01-16 19:23:47.40	24.62	3.19	-42.5	-54.2	3.5	3.03e+01	0	28	104	0	60	19824
2026-01-16 19:23:48.41	24.52	3.24	-42.2	-53.7	3.5	3.03e+01	0	28	104	0	60	18723
2026-01-16 19:23:49.42	24.42	3.30	-44.1	-56.9	3.5	3.03e+01	0	27	104	0	60	26844
2026-01-16 19:23:50.43	24.32	3.35	-43.2	-55.3	3.5	3.03e+01	0	28	104	0	60	22515
2026-01-16 19:23:51.44	24.22	3.41	-40.9	-52.1	3.6	3.03e+01	0	27	104	0	60	15428
2026-01-16 19:23:52.45	24.12	3.46	-38.8	-49.5	3.5	3.03e+01	0	28	104	0	50	20525
2026-01-16 19:23:53.46	24.02	3.52	-46.4	-63.7	3.5	3.03e+01	0	28	104	0	60	58816
2026-01-16 19:23:54.47	23.92	3.57	-38.6	-49.3	3.6	3.03e+01	0	28	104	0	52	17848
2026-01-16 19:23:55.48	23.82	3.63	-38.1	-48.7	3.5	3.03e+01	0	27	104	0	52	16604
2026-01-16 19:23:56.49	23.71	3.69	-38.0	-48.5	3.5	3.03e+01	0	27	104	0	50	18277
2026-01-16 19:23:57.50	23.61	3.74	-37.3	-47.8	3.5	3.03e+01	0	27	104	0	50	16829
2026-01-16 19:23:58.51	23.51	3.80	-37.2	-47.7	3.6	3.03e+01	0	27	104	0	50	16614
2026-01-16 19:23:59.52	23.40	3.85	-41.2	-52.4	3.5	3.03e+01	0	27	104	0	56	20137
2026-01-16 19:24:00.53	23.30	3.91	-41.1	-52.1	3.5	3.03e+01	0	28	104	0	60	15552
2026-01-16 19:24:01.54	23.19	3.96	-38.6	-49.2	3.3	3.03e+01	0	28	104	0	50	19730
2026-01-16 19:24:02.54	23.09	4.02	-46.8	-64.4	3.5	3.03e+01	0	27	104	0	60	63667
2026-01-16 19:24:03.55	22.98	4.07	-40.2	-51.1	3.5	3.03e+01	0	27	104	0	56	17479
2026-01-16 19:24:04.56	22.88	4.13	-40.4	-51.3	3.5	3.03e+01	0	28	104	0	56	17792
2026-01-16 19:24:05.57	22.77	4.19	-38.9	-49.5	3.5	3.03e+01	0	28	104	0	54	16240
2026-01-16 19:24:06.58	22.66	4.24	-38.9	-49.6	3.5	3.03e+01	0	27	104	0	50	20566
2026-01-16 19:24:07.59	22.55	4.30	-41.2	-52.4	3.5	3.03e+01	0	27	104	0	58	17924
2026-01-16 19:24:08.60	22.45	4.35	-42.6	-54.2	3.5	3.03e+01	0	27	104	0	50	35088
2026-01-16 19:24:09.61	22.34	4.41	-46.6	-62.8	3.5	3.03e+01	0	28	104	0	60	52980
2026-01-16 19:24:10.62	22.23	4.47	-39.7	-50.5	3.5	3.03e+01	0	28	104	0	56	16295
2026-01-16 19:24:11.63	22.12	4.52	-40.9	-51.9	3.6	3.03e+01	0	27	104	0	58	16924
2026-01-16 19:24:12.64	22.01	4.58	-40.3	-51.2	3.5	3.03e+01	0	27	104	0	54	19839
2026-01-16 19:24:13.65	21.90	4.64	-40.3	-51.3	3.5	3.03e+01	0	27	104	0	54	19953
2026-01-16 19:24:14.66	21.79	4.69	-39.7	-50.4	3.6	3.03e+01	0	27	104	0	54	18095
2026-01-16 19:24:15.67	21.68	4.75	-37.8	-48.3	3.5	3.03e+01	0	27	104	0	50	17784
2026-01-16 19:24:16.68	21.56	4.80	-39.6	-50.4	3.5	3.03e+01	0	27	104	0	50	22599
2026-01-16 19:24:17.69	21.45	4.86	-41.9	-53.3	3.5	3.03e+01	0	27	104	0	54	25026
2026-01-16 19:24:18.70	21.34	4.92	-40.0	-50.9	3.5	3.03e+01	0	27	104	0	56	16949
2026-01-16 19:24:19.70	21.23	4.97	-44.0	-56.5	3.5	3.03e+01	0	28	104	0	54	36410
2026-01-16 19:24:20.71	21.11	5.03	-42.5	-54.0	3.6	3.03e+01	0	28	104	0	60	19282
2026-01-16 19:24:21.73	21.00	5.09	-38.9	-49.5	3.5	3.03e+01	0	28	104	0	54	16252
2026-01-16 19:24:22.73	20.88	5.14	-37.6	-48.1	3.6	3.03e+01	0	27	104	0	50	17347
2026-01-16 19:24:23.74	20.77	5.20	-37.3	-47.8	3.5	3.03e+01	0	27	104	0	50	16841
2026-01-16 19:24:24.75	20.65	5.26	-44.9	-58.1	3.5	3.03e+01	0	27	104	0	60	30916
2026-01-16 19:24:25.76	20.54	5.31	-41.9	-53.1	3.5	3.03e+01	0	28	104	0	60	17422
2026-01-16 19:24:26.77	20.42	5.37	-46.9	-64.2	3.5	3.03e+01	0	27	104	0	60	62550
2026-01-16 19:24:27.78	20.30	5.43	-45.6	-59.6	3.5	3.03e+01	0	28	104	0	60	36585
2026-01-16 19:24:28.79	20.18	5.48	-37.1	-47.6	3.5	3.03e+01	0	28	104	0	48	18378
2026-01-16 19:24:29.80	20.07	5.54	-38.1	-48.6	3.5	3.03e+01	0	28	104	0	52	16402
2026-01-16 19:24:30.81	19.95	5.60	-37.8	-48.4	3.5	3.03e+01	0	28	104	0	50	17902
2026-01-16 19:24:31.82	19.83	5.65	-37.9	-48.4	3.5	3.03e+01	0	28	104	0	50	18047
2026-01-16 19:24:32.83	19.71	5.71	-37.7	-48.2	3.5	3.03e+01	0	28	104	0	50	17494
2026-01-16 19:24:33.84	19.59	5.77	-36.9	-47.3	3.5	3.03e+01	0	28	104	0	50	15923
2026-01-16 19:24:34.85	19.46	5.82	-41.2	-52.3	3.5	3.03e+01	0	28	104	0	54	22451
2026-01-16 19:24:35.86	19.34	5.88	-46.2	-61.2	3.5	3.03e+01	0	27	104	0	60	44084
2026-01-16 19:24:36.87	19.22	5.94	-42.5	-54.1	3.6	3.03e+01	0	27	104	0	60	19466
2026-01-16 19:24:37.88	19.10	6.00	-47.1	-64.4	3.5	3.03e+01	0	28	104	0	60	64171
2026-01-16 19:24:38.88	18.98	6.05	-41.7	-53.0	3.4	3.03e+01	0	28	104	0	60	17249
2026-01-16 19:24:39.89	18.85	6.11	-40.9	-51.9	3.5	3.03e+01	0	28	104	0	56	18984
2026-01-16 19:24:40.90	18.73	6.17	-40.4	-51.3	3.5	3.03e+01	0	28	104	0	56	17724
2026-01-16 19:24:41.91	18.60	6.22	-39.2	-49.9	3.5	3.03e+01	0	28	104	0	54	17042
2026-01-16 19:24:42.92	18.48	6.28	-43.2	-54.9	3.5	3.03e+01	0	27	104	0	60	21512
2026-01-16 19:24:43.93	18.35	6.34	-40.7	-51.7	3.5	3.03e+01	0	27	104	0	56	18576
2026-01-16 19:24:44.94	18.23	6.39	-47.0	-64.8	3.5	3.03e+01	0	28	104	0	60	66528
2026-01-16 19:24:45.95	18.10	6.45	-47.0	-63.6	3.5	3.03e+01	0	28	104	0	60	58187
2026-01-16 19:24:46.96	17.97	6.51	-40.5	-51.4	3.5	3.03e+01	0	28	104	0	52	22769
2026-01-16 19:24:47.97	17.84	6.57	-38.9	-49.7	3.5	3.03e+01	0	27	104	0	54	16524
2026-01-16 19:24:48.99	17.71	6.62	-39.1	-49.9	3.5	3.03e+01	0	27	104	0	52	18999
2026-01-16 19:24:50.00	17.58	6.68	-38.6	-49.1	3.5	3.03e+01	0	28	104	0	52	17458
2026-01-16 19:24:51.00	17.45	6.74	-38.3	-48.8	3.5	3.03e+01	0	27	104	0	52	16862
2026-01-16 19:24:52.01	17.32	6.79	-40.6	-51.5	3.5	3.03e+01	0	28	104	0	54	20513
2026-01-16 19:24:53.03	17.19	6.85	-42.0	-53.2	3.6	3.03e+01	0	27	104	0	56	22199
2026-01-16 19:24:54.03	17.06	6.91	-47.1	-63.8	3.5	3.03e+01	0	28	104	0	60	59528
2026-01-16 19:24:55.04	16.93	6.97	-40.1	-50.9	3.5	3.03e+01	0	27	104	0	54	19150
2026-01-16 19:24:56.05	16.80	7.02	-47.2	-64.7	3.5	3.03e+01	0	27	104	0	60	65781
2026-01-16 19:24:57.06	16.66	7.08	-38.6	-49.2	3.5	3.03e+01	0	27	104	0	54	15606
2026-01-16 19:24:58.07	16.53	7.14	-39.3	-50.0	3.5	3.03e+01	0	27	104	0	52	19186
2026-01-16 19:24:59.08	16.39	7.20	-39.2	-49.8	3.5	3.03e+01	0	28	104	0	52	18948
2026-01-16 19:25:00.09	16.26	7.25	-39.6	-50.3	3.5	3.03e+01	0	27	104	0	52	19918
2026-01-16 19:25:01.10	16.12	7.31	-42.4	-53.8	3.5	3.03e+01	0	28	104	0	58	21131
2026-01-16 19:25:02.11	15.99	7.37	-41.7	-53.0	3.5	3.03e+01	0	28	104	0	56	21539
2026-01-16 19:25:03.11	15.85	7.42	-47.1	-63.7	3.5	3.03e+01	0	27	104	0	60	59196
2026-01-16 19:25:04.13	15.71	7.48	-42.8	-54.2	3.5	3.03e+01	0	28	104	0	60	19818
2026-01-16 19:25:05.13	15.58	7.54	-47.2	-64.1	3.5	3.03e+01	0	28	104	0	60	61407
2026-01-16 19:25:06.14	15.44	7.60	-40.6	-51.5	3.5	3.03e+01	0	28	104	0	56	18302
2026-01-16 19:25:07.15	15.30	7.65	-41.1	-52.1	3.5	3.03e+01	0	28	104	0	56	19476
2026-01-16 19:25:08.16	15.16	7.71	-39.7	-50.4	3.5	3.03e+01	0	28	104	0	54	17936
2026-01-16 19:25:09.17	15.02	7.77	-38.7	-49.3	3.5	3.03e+01	0	27	104	0	52	17735
2026-01-16 19:25:10.18	14.88	7.82	-43.2	-55.0	3.5	3.03e+01	0	27	104	0	60	21759
2026-01-16 19:25:11.19	14.74	7.88	-40.3	-51.1	3.5	3.03e+01	0	28	104	0	56	17426
2026-01-16 19:25:12.20	14.59	7.94	-47.2	-64.5	3.6	3.03e+01	0	28	104	0	60	64499
2026-01-16 19:25:13.21	14.45	8.00	-45.9	-59.8	3.5	3.03e+01	0	28	104	0	60	37653
2026-01-16 19:25:14.22	14.31	8.05	-40.7	-51.6	3.5	3.03e+01	0	28	104	0	56	18397
2026-01-16 19:25:15.23	14.16	8.11	-39.3	-50.0	3.5	3.03e+01	0	28	104	0	52	19356
2026-01-16 19:25:16.23	14.02	8.17	-38.2	-48.7	3.6	3.03e+01	0	27	104	0	52	16658
2026-01-16 19:25:17.24	13.87	8.22	-38.1	-48.6	3.5	3.03e+01	0	28	104	0	50	18462
2026-01-16 19:25:18.26	13.73	8.28	-37.6	-48.1	3.5	3.03e+01	0	27	104	0	50	17486
2026-01-16 19:25:19.26	13.58	8.34	-36.5	-46.9	3.5	3.03e+01	0	27	104	0	48	16979
2026-01-16 19:25:20.27	13.43	8.39	-40.1	-50.9	3.5	3.03e+01	0	28	104	0	56	17004
2026-01-16 19:25:21.28	13.28	8.45	-46.2	-60.6	3.5	3.03e+01	0	28	104	0	60	41116
2026-01-16 19:25:22.29	13.14	8.51	-37.6	-48.0	3.5	3.03e+01	0	28	104	0	52	15342
2026-01-16 19:25:23.30	12.99	8.57	-47.3	-65.0	3.5	3.03e+01	0	28	104	0	60	68254
2026-01-16 19:25:24.31	12.84	8.62	-36.7	-47.0	3.5	3.03e+01	0	28	104	0	48	17259
2026-01-16 19:25:25.32	12.69	8.68	-36.2	-46.5	3.5	3.03e+01	0	28	104	0	48	16239
2026-01-16 19:25:26.33	12.53	8.74	-35.8	-46.1	3.5	3.03e+01	0	28	104	0	46	17428
2026-01-16 19:25:27.34	12.38	8.79	-36.0	-46.3	3.5	3.03e+01	0	28	104	0	46	17767
2026-01-16 19:25:28.35	12.23	8.85	-46.3	-60.6	3.5	3.03e+01	0	28	104	0	60	41171
2026-01-16 19:25:29.36	12.08	8.91	-37.0	-47.4	3.5	3.03e+01	0	28	104	0	50	16123
2026-01-16 19:25:30.36	11.92	8.96	-47.3	-64.2	3.6	3.03e+01	0	28	104	0	60	62501
2026-01-16 19:25:31.37	11.77	9.02	-42.5	-53.8	3.5	3.03e+01	0	28	104	0	60	18893
2026-01-16 19:25:32.38	11.61	9.08	-40.0	-50.7	3.5	3.03e+01	0	28	104	0	56	16672
2026-01-16 19:25:33.39	11.46	9.13	-38.8	-49.4	3.5	3.03e+01	0	28	104	0	52	17924
2026-01-16 19:25:34.40	11.30	9.19	-37.0	-47.5	3.6	3.03e+01	0	28	104	0	50	16155
2026-01-16 19:25:35.41	11.14	9.24	-36.0	-46.3	3.5	3.03e+01	0	28	104	0	48	15901
2026-01-16 19:25:36.42	10.99	9.30	-35.5	-45.9	3.5	3.03e+01	0	28	104	0	46	16898
2026-01-16 19:25:37.43	10.83	9.36	-35.5	-45.8	3.5	3.03e+01	0	28	104	0	46	16716
2026-01-16 19:25:38.44	10.67	9.41	-38.0	-48.5	3.5	3.03e+01	0	28	104	0	54	14479
2026-01-16 19:25:39.45	10.51	9.47	-42.8	-54.3	3.5	3.03e+01	0	28	104	0	60	19992
2026-01-16 19:25:40.46	10.35	9.53	-36.1	-46.4	3.5	3.03e+01	0	28	104	0	46	17960
2026-01-16 19:25:41.47	10.19	9.58	-47.4	-64.3	3.6	3.03e+01	0	28	104	0	60	63336
2026-01-16 19:25:42.48	10.02	9.64	-38.2	-48.6	3.5	3.03e+01	0	28	104	0	52	16500
2026-01-16 19:25:43.49	9.86	9.69	-37.5	-48.0	3.6	3.03e+01	0	28	104	0	50	17120
2026-01-16 19:25:44.49	9.70	9.75	-36.5	-46.9	3.5	3.03e+01	0	28	104	0	48	16966
2026-01-16 19:25:45.50	9.54	9.80	-37.4	-47.9	3.5	3.03e+01	0	28	104	0	48	19050
2026-01-16 19:25:46.51	9.37	9.86	-40.9	-51.9	3.5	3.03e+01	0	28	104	0	58	16941
2026-01-16 19:25:47.52	9.21	9.92	-39.5	-50.2	3.6	3.03e+01	0	27	104	0	48	24751
2026-01-16 19:25:48.53	9.04	9.97	-47.2	-63.5	3.5	3.03e+01	0	28	104	0	60	57407
2026-01-16 19:25:49.54	8.87	10.03	-38.4	-48.9	3.5	3.03e+01	0	28	104	0	56	13456
2026-01-16 19:25:50.56	8.70	10.08	-38.5	-49.0	3.6	3.03e+01	0	28	104	0	54	15290
2026-01-16 19:25:51.56	8.54	10.14	-38.2	-48.7	3.5	3.03e+01	0	28	104	0	50	18610
2026-01-16 19:25:52.57	8.37	10.19	-38.0	-48.5	3.5	3.03e+01	0	28	104	0	50	18157
2026-01-16 19:25:53.58	8.20	10.25	-37.0	-47.4	3.5	3.03e+01	0	27	104	0	48	17972
2026-01-16 19:25:54.59	8.03	10.30	-36.6	-47.0	3.5	3.03e+01	0	27	104	0	48	17095
2026-01-16 19:25:55.60	7.86	10.36	-38.1	-48.6	3.5	3.03e+01	0	27	104	0	48	20672
2026-01-16 19:25:56.60	7.69	10.41	-40.0	-50.7	3.5	3.03e+01	0	27	104	0	52	20988
2026-01-16 19:25:57.61	7.51	10.47	-42.5	-53.9	3.5	3.03e+01	0	28	104	0	60	19106
2026-01-16 19:25:58.62	7.34	10.52	-42.9	-54.3	3.5	3.03e+01	0	27	104	0	52	31741
2026-01-16 19:25:59.63	7.17	10.58	-46.1	-60.0	3.5	3.03e+01	0	28	104	0	60	38527
2026-01-16 19:26:00.64	6.99	10.63	-40.7	-51.6	3.5	3.03e+01	0	28	104	0	56	18318
2026-01-16 19:26:01.65	6.82	10.68	-39.3	-50.0	3.5	3.03e+01	0	27	104	0	54	17123
2026-01-16 19:26:02.65	6.64	10.74	-39.0	-49.7	3.5	3.03e+01	0	28	104	0	52	18547
2026-01-16 19:26:03.67	6.46	10.79	-47.3	-63.8	3.5	3.03e+01	0	27	104	0	60	59913
2026-01-16 19:26:04.68	6.29	10.85	-47.6	-64.9	3.5	3.03e+01	0	27	104	0	60	67592
2026-01-16 19:26:05.69	6.11	10.90	-38.4	-49.0	3.5	3.03e+01	0	28	104	0	54	15270
2026-01-16 19:26:06.70	5.93	10.95	-35.5	-45.8	3.5	3.03e+01	0	28	104	0	48	15029
2026-01-16 19:26:07.71	5.75	11.01	-47.0	-62.6	3.5	3.03e+01	0	28	104	0	60	51944
2026-01-16 19:26:08.72	5.57	11.06	-41.2	-52.1	3.5	3.03e+01	0	28	104	0	60	15511
2026-01-16 19:26:09.73	5.39	11.11	-37.4	-47.8	3.5	3.03e+01	0	28	104	0	50	16807
2026-01-16 19:26:10.74	5.21	11.17	-36.9	-47.3	3.5	3.03e+01	0	28	104	0	48	17729
2026-01-16 19:26:11.75	5.02	11.22	-36.1	-46.4	3.5	3.03e+01	0	27	104	0	46	18047
2026-01-16 19:26:12.76	4.84	11.27	-37.8	-48.2	3.5	3.03e+01	0	27	104	0	46	22203
2026-01-16 19:26:13.77	4.66	11.33	-37.6	-48.0	3.5	3.03e+01	0	27	104	0	46	21615
2026-01-16 19:26:14.78	4.47	11.38	-44.5	-56.7	3.5	3.03e+01	0	28	104	0	58	29602
2026-01-16 19:26:15.79	4.29	11.43	-39.1	-49.7	3.5	3.03e+01	0	28	104	0	54	16593
2026-01-16 19:26:16.79	4.10	11.48	-47.3	-63.9	3.5	3.03e+01	0	27	104	0	60	60432
2026-01-16 19:26:17.80	3.92	11.54	-37.6	-47.9	3.5	3.03e+01	0	28	104	0	54	13542
2026-01-16 19:26:18.81	3.73	11.59	-35.6	-45.9	3.5	3.03e+01	0	27	104	0	46	16920
2026-01-16 19:26:19.82	3.54	11.64	-35.2	-45.6	3.5	3.03e+01	0	27	104	0	46	16341
2026-01-16 19:26:20.83	3.35	11.69	-35.2	-45.4	3.5	3.03e+01	0	27	104	0	46	16094
2026-01-16 19:26:21.84	3.16	11.74	-46.4	-60.5	3.5	3.03e+01	0	27	104	0	60	40925
2026-01-16 19:26:22.85	2.97	11.79	-41.6	-52.7	3.5	3.03e+01	0	28	104	0	60	16541
2026-01-16 19:26:23.86	2.78	11.84	-47.1	-63.1	3.5	3.03e+01	0	27	104	0	60	54680
2026-01-16 19:26:24.87	2.59	11.90	-47.0	-62.6	3.5	3.03e+01	0	28	104	0	60	51864
2026-01-16 19:26:25.88	2.39	11.95	-39.2	-49.8	3.6	3.03e+01	0	28	104	0	50	21241
2026-01-16 19:26:26.89	2.20	12.00	-38.5	-49.1	3.5	3.03e+01	0	28	104	0	52	17304
2026-01-16 19:26:27.90	2.01	12.05	-38.7	-49.2	3.5	3.03e+01	0	27	104	0	52	17664
2026-01-16 19:26:28.90	1.81	12.10	-38.5	-49.0	3.5	3.03e+01	0	27	104	0	50	19211
2026-01-16 19:26:29.92	1.62	12.15	-38.2	-48.7	3.5	3.03e+01	0	27	104	0	50	18686
2026-01-16 19:26:30.93	1.42	12.20	-35.4	-45.7	3.5	3.03e+01	0	27	104	0	46	16604
2026-01-16 19:26:31.94	1.22	12.25	-40.2	-51.0	3.5	3.03e+01	0	27	104	0	54	19193
2026-01-16 19:26:32.94	1.03	12.30	-46.3	-60.5	3.5	3.03e+01	0	27	104	0	60	40550
2026-01-16 19:26:33.95	0.83	12.34	-39.3	-49.8	3.5	3.03e+01	0	27	104	0	52	18955
2026-01-16 19:26:34.96	0.63	12.39	-47.2	-63.2	3.5	3.03e+01	0	27	104	0	60	55499
2026-01-16 19:26:35.97	0.43	12.44	-38.4	-48.9	3.5	3.03e+01	0	27	104	0	54	15064
2026-01-16 19:26:36.98	0.23	12.49	-37.6	-48.0	3.5	3.03e+01	0	27	104	0	50	17140
2026-01-16 19:26:37.99	0.03	12.54	-36.2	-46.5	3.5	3.03e+01	0	28	104	0	48	16269
2026-01-16 19:26:39.00	359.83	12.59	-35.6	-45.8	3.5	3.03e+01	0	28	104	0	46	16878
2026-01-16 19:26:40.01	359.62	12.64	-46.3	-60.2	3.5	3.03e+01	0	27	104	0	60	39405
2026-01-16 19:26:41.02	359.42	12.68	-39.5	-50.1	3.6	3.03e+01	0	27	104	0	54	17402
2026-01-16 19:26:42.03	359.21	12.73	-47.2	-63.2	3.5	3.03e+01	0	28	104	0	60	55343
2026-01-16 19:26:43.04	359.01	12.78	-45.5	-58.5	3.5	3.03e+01	0	28	104	0	60	32373
2026-01-16 19:26:44.05	358.80	12.82	-38.8	-49.3	3.5	3.03e+01	0	27	104	0	50	19995
2026-01-16 19:26:45.06	358.60	12.87	-35.6	-45.9	3.5	3.03e+01	0	27	104	0	46	16945
2026-01-16 19:26:46.07	358.39	12.92	-35.5	-45.8	3.5	3.03e+01	0	28	104	0	46	16800
2026-01-16 19:26:47.08	358.18	12.96	-35.7	-46.1	3.5	3.03e+01	0	28	104	0	46	17398
2026-01-16 19:26:48.09	357.97	13.01	-35.5	-45.7	3.5	3.03e+01	0	28	104	0	46	16685
2026-01-16 19:26:49.10	357.76	13.06	-37.0	-47.4	3.5	3.03e+01	0	27	104	0	46	20114
2026-01-16 19:26:50.11	357.55	13.10	-42.1	-53.4	3.5	3.03e+01	0	27	104	0	56	22666
2026-01-16 19:26:51.11	357.35	13.15	-46.0	-59.6	3.5	3.03e+01	0	28	104	0	60	36682
2026-01-16 19:26:52.13	357.13	13.19	-41.0	-51.8	3.5	3.03e+01	0	27	104	0	56	18851
2026-01-16 19:26:53.13	356.92	13.24	-47.5	-64.2	3.5	3.03e+01	0	28	104	0	60	62227
2026-01-16 19:26:54.14	356.71	13.28	-38.6	-49.1	3.5	3.03e+01	0	28	104	0	52	17457
2026-01-16 19:26:55.15	356.50	13.32	-38.3	-48.8	3.5	3.03e+01	0	28	104	0	52	16824
2026-01-16 19:26:56.17	356.28	13.37	-38.4	-48.9	3.5	3.03e+01	0	28	104	0	50	19072
2026-01-16 19:26:57.18	356.07	13.41	-37.9	-48.4	3.5	3.03e+01	0	28	104	0	50	17902
2026-01-16 19:26:58.19	355.85	13.45	-46.9	-61.9	3.6	3.03e+01	0	28	104	0	60	48119
2026-01-16 19:26:59.19	355.64	13.50	-43.7	-55.6	3.6	3.03e+01	0	28	104	0	60	23072
2026-01-16 19:27:00.20	355.42	13.54	-42.4	-53.7	3.5	3.03e+01	0	27	104	0	58	20886
2026-01-16 19:27:01.21	355.20	13.58	-37.3	-47.7	3.5	3.03e+01	0	27	104	0	50	16532
2026-01-16 19:27:02.22	354.98	13.62	-47.1	-63.2	3.5	3.03e+01	0	28	104	0	60	55571
2026-01-16 19:27:03.23	354.76	13.66	-37.9	-48.3	3.5	3.03e+01	0	27	104	0	52	15858
2026-01-16 19:27:04.24	354.55	13.71	-36.6	-47.0	3.5	3.03e+01	0	27	104	0	48	17175
2026-01-16 19:27:05.25	354.32	13.75	-36.6	-47.0	3.5	3.03e+01	0	27	104	0	48	17138
2026-01-16 19:27:06.25	354.11	13.79	-35.8	-46.0	3.5	3.03e+01	0	27	104	0	48	15381
2026-01-16 19:27:07.26	353.88	13.83	-39.2	-49.8	3.5	3.03e+01	0	28	104	0	56	14984
2026-01-16 19:27:08.27	353.66	13.87	-40.7	-51.4	3.5	3.03e+01	0	28	104	0	60	14367
2026-01-16 19:27:09.28	353.44	13.91	-43.8	-55.6	3.5	3.03e+01	0	28	104	0	60	23068
2026-01-16 19:27:10.29	353.22	13.95	-38.2	-48.6	3.5	3.03e+01	0	27	104	0	54	14691
2026-01-16 19:27:11.30	352.99	13.99	-47.7	-65.3	3.5	3.03e+01	0	28	104	0	60	71110
2026-01-16 19:27:12.31	352.77	14.02	-38.2	-48.7	3.5	3.03e+01	0	27	104	0	50	18546
2026-01-16 19:27:13.33	352.54	14.06	-38.5	-49.1	3.5	3.03e+01	0	27	104	0	50	19434
2026-01-16 19:27:14.34	352.31	14.10	-38.6	-49.1	3.5	3.03e+01	0	27	104	0	50	19523
2026-01-16 19:27:15.34	352.09	14.14	-37.8	-48.3	3.5	3.03e+01	0	27	104	0	50	17699
2026-01-16 19:27:16.35	351.86	14.18	-41.6	-52.7	3.5	3.03e+01	0	27	104	0	58	18540
2026-01-16 19:27:17.36	351.63	14.21	-39.8	-50.5	3.5	3.03e+01	0	27	104	0	60	12912
2026-01-16 19:27:18.37	351.41	14.25	-39.9	-50.5	3.5	3.03e+01	0	27	104	0	58	14526
2026-01-16 19:27:19.38	351.18	14.29	-36.3	-46.5	3.6	3.03e+01	0	27	104	0	48	16288
2026-01-16 19:27:20.39	350.95	14.32	-47.7	-65.0	3.5	3.03e+01	0	27	104	0	60	68725
2026-01-16 19:27:21.40	350.72	14.36	-37.8	-48.2	3.5	3.03e+01	0	27	104	0	50	17629
2026-01-16 19:27:22.41	350.49	14.39	-37.1	-47.4	3.5	3.03e+01	0	27	104	0	50	16063
2026-01-16 19:27:23.42	350.25	14.43	-37.2	-47.6	3.5	3.03e+01	0	27	104	0	48	18391
2026-01-16 19:27:24.43	350.02	14.46	-35.9	-46.2	3.5	3.03e+01	0	27	104	0	48	15756
2026-01-16 19:27:25.44	349.79	14.49	-35.6	-45.9	3.5	3.03e+01	0	27	104	0	46	17032
2026-01-16 19:27:26.45	349.56	14.53	-37.9	-48.4	3.5	3.03e+01	0	27	104	0	54	14222
2026-01-16 19:27:27.46	349.32	14.56	-40.6	-51.5	3.5	3.03e+01	0	27	104	0	60	14426
2026-01-16 19:27:28.47	349.09	14.59	-36.5	-46.8	3.5	3.03e+01	0	27	104	0	48	16798
2026-01-16 19:27:29.48	348.85	14.62	-47.2	-62.9	3.5	3.03e+01	0	27	104	0	60	53939
2026-01-16 19:27:30.49	348.62	14.66	-37.9	-48.4	3.5	3.03e+01	0	27	104	0	50	17929
2026-01-16 19:27:31.50	348.38	14.69	-36.9	-47.3	3.5	3.03e+01	0	27	104	0	50	15843
2026-01-16 19:27:32.51	348.15	14.72	-36.3	-46.6	3.5	3.03e+01	0	27	104	0	48	16371
2026-01-16 19:27:33.52	347.91	14.75	-37.7	-48.1	3.5	3.03e+01	0	27	104	0	48	19464
2026-01-16 19:27:34.53	347.67	14.78	-41.2	-52.1	3.5	3.03e+01	0	27	104	0	58	17308
2026-01-16 19:27:35.54	347.43	14.81	-37.2	-47.4	3.5	3.03e+01	0	27	104	0	46	20207
2026-01-16 19:27:36.55	347.19	14.84	-45.1	-57.8	3.5	3.03e+01	0	27	104	0	60	29816
2026-01-16 19:27:37.56	346.96	14.87	-36.5	-46.8	3.5	3.03e+01	0	27	104	0	48	16797
2026-01-16 19:27:38.57	346.72	14.90	-38.4	-48.9	3.5	3.03e+01	0	27	104	0	54	15168
2026-01-16 19:27:39.58	346.48	14.92	-36.2	-46.5	3.5	3.03e+01	0	27	104	0	48	16307
2026-01-16 19:27:40.59	346.24	14.95	-35.4	-45.6	3.4	3.03e+01	0	27	104	0	46	16475
2026-01-16 19:27:41.60	345.99	14.98	-35.3	-45.4	3.6	3.03e+01	0	27	104	0	46	15973
2026-01-16 19:27:42.61	345.75	15.00	-35.5	-45.7	3.4	3.03e+01	0	27	104	0	46	16642
2026-01-16 19:27:43.62	345.51	15.03	-37.1	-38.7	23.1	3.03e+01	4	27	104	0	48	6637
2026-01-16 19:27:44.63	345.27	15.06	-37.9	-39.5	20.8	3.03e+01	61	27	0	524288	44	9093
2026-01-16 19:27:45.64	345.03	15.08	-46.3	-52.6	13.0	3.03e+01	59	27	104	1048576	60	16326
2026-01-16 19:27:46.65	344.78	15.11	-39.6	-41.3	23.4	3.03e+01	56	27	0	2097152	54	6327
2026-01-16 19:27:47.66	344.54	15.13	-42.1	-44.4	21.2	3.03e+01	59	27	0	4194304	60	6414
2026-01-16 19:27:48.67	344.29	15.15	-41.0	-43.0	22.2	3.03e+01	58	27	0	5767168	56	6851
2026-01-16 19:27:49.67	344.05	15.18	-39.2	-40.9	24.2	3.03e+01	57	27	0	7864320	54	6024
2026-01-16 19:27:50.68	343.81	15.20	-37.6	-39.1	26.0	3.03e+01	44	27	0	9437184	50	6160
2026-01-16 19:27:51.70	343.56	15.22	-36.4	-37.8	27.3	3.03e+01	57	27	0	11534336	48	5932
2026-01-16 19:27:52.70	343.32	15.24	-35.9	-37.3	27.8	3.03e+01	58	27	0	13631488	46	6278
2026-01-16 19:27:53.72	343.07	15.27	-35.1	-36.4	28.5	3.03e+01	59	27	0	15204352	46	5677
2026-01-16 19:27:54.72	342.82	15.29	-34.8	-36.0	28.8	3.03e+01	61	27	0	17301504	44	6091
2026-01-16 19:27:55.74	342.57	15.31	-34.7	-36.0	28.8	3.03e+01	46	27	0	18874368	44	6098
2026-01-16 19:27:56.75	342.33	15.33	-35.0	-36.2	28.6	3.03e+01	62	27	0	20971520	44	6255
2026-01-16 19:27:57.76	342.08	15.35	-35.0	-36.2	28.5	3.03e+01	62	27	0	23068672	44	6249
2026-01-16 19:27:58.76	341.83	15.37	-35.0	-36.3	28.5	3.03e+01	53	27	0	24641536	44	6315
2026-01-16 19:27:59.77	341.58	15.38	-35.0	-36.3	28.6	3.03e+01	60	27	0	26738688	44	6284
2026-01-16 19:28:00.78	341.34	15.40	-34.7	-36.0	28.9	3.03e+01	61	27	0	28835840	44	6068
2026-01-16 19:28:01.79	341.09	15.42	-34.9	-36.1	28.7	3.03e+01	62	27	0	30408704	44	6169
2026-01-16 19:28:02.80	340.84	15.44	-34.8	-36.1	28.7	3.03e+01	57	27	0	32505856	44	6155
2026-01-16 19:28:03.81	340.59	15.45	-34.9	-36.2	28.6	3.03e+01	55	27	0	34078720	44	6223
2026-01-16 19:28:04.81	340.34	15.47	-34.9	-36.2	28.7	3.03e+01	57	27	0	36175872	44	6207
2026-01-16 19:28:05.82	340.09	15.48	-34.9	-36.1	28.7	3.03e+01	59	27	0	38273024	44	6168
2026-01-16 19:28:06.83	339.84	15.50	-34.8	-36.0	28.8	3.03e+01	62	27	0	39845888	44	6119
2026-01-16 19:28:07.84	339.59	15.51	-34.9	-36.1	28.7	3.03e+01	62	27	0	41943040	44	6173
2026-01-16 19:28:08.85	339.34	15.53	-34.9	-36.2	28.6	3.03e+01	61	27	0	43515904	44	6241
2026-01-16 19:28:09.86	339.09	15.54	-34.8	-36.1	28.7	3.03e+01	59	27	0	45613056	44	6161
2026-01-16 19:28:10.87	338.84	15.55	-34.8	-36.1	28.8	3.03e+01	58	27	0	47710208	44	6135
2026-01-16 19:28:11.88	338.58	15.57	-34.7	-35.9	28.9	3.03e+01	46	27	0	49283072	44	6018
2026-01-16 19:28:12.88	338.33	15.58	-34.8	-36.1	28.8	3.03e+01	55	27	0	51380224	44	6152
2026-01-16 19:28:13.90	338.08	15.59	-35.0	-36.2	28.6	3.03e+01	56	27	0	52953088	44	6246
2026-01-16 19:28:14.90	337.83	15.60	-34.9	-36.2	28.6	3.03e+01	60	27	0	55050240	44	6235
2026-01-16 19:28:15.91	337.58	15.61	-34.9	-36.1	28.7	3.03e+01	61	27	0	57147392	44	6170
2026-01-16 19:28:16.92	337.33	15.62	-34.9	-36.2	28.7	3.03e+01	45	27	0	58720256	44	6217
2026-01-16 19:28:17.93	337.07	15.63	-35.0	-36.2	28.7	3.03e+01	60	27	0	60817408	44	6269
2026-01-16 19:28:18.94	336.82	15.64	-34.9	-36.1	28.7	3.03e+01	62	27	0	62390272	44	6187
2026-01-16 19:28:19.95	336.57	15.65	-34.9	-36.2	28.7	3.03e+01	45	27	0	64487424	44	6220
2026-01-16 19:28:20.96	336.31	15.65	-35.0	-36.3	28.5	3.03e+01	58	27	0	66584576	44	6282
2026-01-16 19:28:21.97	336.06	15.66	-35.0	-36.3	28.6	3.03e+01	60	27	0	68157440	44	6323
2026-01-16 19:28:22.98	335.81	15.67	-35.0	-36.3	28.6	3.03e+01	55	27	0	70254592	44	6289
2026-01-16 19:28:23.99	335.55	15.67	-35.0	-36.3	28.5	3.03e+01	59	27	0	72351744	44	6303
2026-01-16 19:28:25.00	335.30	15.68	-34.8	-36.1	28.8	3.03e+01	49	27	0	73924608	44	6154
2026-01-16 19:28:26.01	335.04	15.68	-34.9	-36.1	28.7	3.03e+01	60	27	0	76021760	44	6197
2026-01-16 19:28:27.02	334.79	15.69	-34.9	-36.1	28.7	3.03e+01	58	27	0	77594624	44	6198
2026-01-16 19:28:28.02	334.54	15.69	-35.1	-36.4	28.5	3.03e+01	52	27	0	79691776	44	6361
2026-01-16 19:28:29.03	334.28	15.69	-35.1	-36.3	28.6	3.03e+01	59	27	0	81788928	44	6331
2026-01-16 19:28:30.04	334.03	15.70	-35.2	-36.5	28.4	3.03e+01	60	27	0	83361792	44	6430
2026-01-16 19:28:31.05	333.78	15.70	-35.1	-36.3	28.6	3.03e+01	62	27	0	85458944	44	6348
2026-01-16 19:28:32.06	333.52	15.70	-34.7	-36.0	28.8	3.03e+01	60	27	0	87031808	44	6065
2026-01-16 19:28:33.07	333.27	15.70	-34.7	-36.0	28.8	3.03e+01	46	27	0	89128960	44	6084
2026-01-16 19:28:34.08	333.01	15.70	-34.8	-36.0	28.8	3.03e+01	60	27	0	91226112	44	6107
2026-01-16 19:28:35.09	332.76	15.70	-35.0	-36.2	28.6	3.03e+01	59	27	0	92798976	44	6273
2026-01-16 19:28:36.09	332.51	15.70	-35.2	-36.4	28.4	3.03e+01	44	27	0	94896128	44	6416
2026-01-16 19:28:37.10	332.25	15.70	-35.1	-36.4	28.5	3.03e+01	58	27	0	96468992	44	6395
2026-01-16 19:28:38.11	332.00	15.70	-35.1	-36.4	28.6	3.03e+01	51	27	0	98566144	44	6379
2026-01-16 19:28:39.12	331.74	15.70	-34.8	-36.1	28.7	3.03e+01	59	27	0	100663296	44	6146
2026-01-16 19:28:40.13	331.49	15.70	-34.8	-36.0	28.8	3.03e+01	57	27	0	102236160	44	6123
2026-01-16 19:28:41.14	331.24	15.69	-34.8	-36.0	28.8	3.03e+01	60	27	0	104333312	44	6113
2026-01-16 19:28:42.15	330.98	15.69	-34.8	-36.1	28.7	3.03e+01	56	27	0	105906176	44	6163
2026-01-16 19:28:43.16	330.73	15.68	-35.1	-36.3	28.6	3.03e+01	61	27	0	108003328	44	6327
2026-01-16 19:28:44.17	330.47	15.68	-35.1	-36.3	28.5	3.03e+01	52	27	0	110100480	44	6331
2026-01-16 19:28:45.18	330.22	15.67	-35.1	-36.3	28.6	3.03e+01	59	27	0	111673344	44	6330
2026-01-16 19:28:46.19	329.97	15.67	-34.9	-36.1	28.7	3.03e+01	51	27	0	113770496	44	6190
2026-01-16 19:28:47.20	329.71	15.66	-35.0	-36.2	28.6	3.03e+01	60	27	0	115343360	44	6264
2026-01-16 19:28:48.21	329.46	15.65	-34.9	-36.1	28.7	3.03e+01	59	27	0	117440512	44	6165
2026-01-16 19:28:49.21	329.21	15.65	-35.0	-36.3	28.6	3.03e+01	44	27	0	119537664	44	6286
2026-01-16 19:28:50.22	328.95	15.64	-35.0	-36.2	28.6	3.03e+01	59	27	0	121110528	44	6243
2026-01-16 19:28:51.23	328.70	15.63	-35.0	-36.2	28.7	3.03e+01	61	27	0	123207680	44	6242
2026-01-16 19:28:52.24	328.45	15.62	-34.9	-36.2	28.7	3.03e+01	58	27	0	125304832	44	6224
2026-01-16 19:28:53.25	328.19	15.61	-35.1	-36.4	28.5	3.03e+01	58	27	0	126877696	44	6389
2026-01-16 19:28:54.26	327.94	15.60	-35.2	-36.5	28.4	3.03e+01	51	27	0	128974848	44	6429
2026-01-16 19:28:55.27	327.69	15.59	-34.8	-36.1	28.8	3.03e+01	58	27	0	130547712	44	6148
2026-01-16 19:28:56.28	327.44	15.58	-35.1	-36.3	28.5	3.03e+01	59	27	0	132644864	44	6346
2026-01-16 19:28:57.29	327.19	15.57	-35.0	-36.2	28.6	3.03e+01	45	27	0	134742016	44	6268
2026-01-16 19:28:58.30	326.93	15.56	-35.4	-36.7	28.3	3.03e+01	59	27	0	136314880	44	6625
2026-01-16 19:28:59.31	326.68	15.54	-35.1	-36.4	28.5	3.03e+01	58	27	0	138412032	44	6374
2026-01-16 19:29:00.32	326.43	15.53	-34.9	-36.2	28.6	3.03e+01	58	27	0	139984896	44	6217
2026-01-16 19:29:01.33	326.18	15.52	-35.1	-36.4	28.5	3.03e+01	62	27	0	142082048	44	6401
2026-01-16 19:29:02.34	325.93	15.50	-34.9	-36.2	28.7	3.03e+01	59	27	0	144179200	44	6241
2026-01-16 19:29:03.35	325.68	15.49	-35.4	-36.7	28.3	3.03e+01	61	27	0	145752064	44	6581
2026-01-16 19:29:04.36	325.43	15.47	-35.5	-36.9	28.1	3.03e+01	62	27	0	147849216	44	6747
2026-01-16 19:29:05.37	325.18	15.45	-34.9	-36.1	28.7	3.03e+01	45	27	0	149946368	44	6202
2026-01-16 19:29:06.38	324.93	15.44	-35.5	-36.8	28.1	3.03e+01	56	27	0	151519232	44	6688
2026-01-16 19:29:07.38	324.68	15.42	-34.7	-35.9	28.9	3.03e+01	61	27	0	153616384	44	6058
2026-01-16 19:29:08.39	324.43	15.40	-35.1	-36.4	28.5	3.03e+01	56	27	0	155189248	44	6354
2026-01-16 19:29:09.40	324.18	15.39	-35.3	-36.5	28.4	3.03e+01	62	27	0	157286400	44	6497
2026-01-16 19:29:10.41	323.93	15.37	-34.9	-36.1	28.7	3.03e+01	48	27	0	159383552	44	6189
2026-01-16 19:29:11.42	323.69	15.35	-35.7	-37.0	28.0	3.03e+01	60	27	0	160956416	44	6867
2026-01-16 19:29:12.43	323.44	15.33	-34.9	-36.2	28.6	3.03e+01	59	27	0	163053568	44	6209
2026-01-16 19:29:13.44	323.19	15.31	-35.5	-36.7	28.2	3.03e+01	45	27	0	164626432	44	6641
2026-01-16 19:29:14.44	322.95	15.29	-35.9	-37.2	27.8	3.03e+01	59	27	0	166723584	44	7027
2026-01-16 19:29:15.45	322.70	15.27	-35.6	-36.8	28.1	3.03e+01	62	27	0	168296448	46	5991
2026-01-16 19:29:16.46	322.45	15.25	-36.3	-37.6	27.7	3.03e+01	61	27	0	170393600	46	6544
2026-01-16 19:29:17.47	322.21	15.23	-35.5	-36.8	28.2	3.03e+01	58	27	0	172490752	46	5944
2026-01-16 19:29:18.48	321.96	15.20	-35.1	-36.4	28.6	3.03e+01	50	27	0	174063616	46	5664
2026-01-16 19:29:19.49	321.72	15.18	-35.7	-36.9	28.0	3.03e+01	58	27	0	176160768	46	6064
2026-01-16 19:29:20.50	321.47	15.16	-35.7	-37.0	27.9	3.03e+01	58	27	0	178257920	46	6107
2026-01-16 19:29:21.51	321.23	15.13	-35.4	-36.6	28.3	3.03e+01	59	27	0	179830784	46	5839
2026-01-16 19:29:22.52	320.98	15.11	-35.6	-36.9	28.1	3.03e+01	57	27	0	181927936	46	6009
2026-01-16 19:29:23.53	320.74	15.08	-35.3	-36.5	28.4	3.03e+01	47	27	0	183500800	46	5779
2026-01-16 19:29:24.54	320.50	15.06	-35.2	-36.4	28.5	3.03e+01	63	27	0	185597952	46	5712
2026-01-16 19:29:25.55	320.25	15.03	-35.2	-36.5	28.4	3.03e+01	52	27	0	187695104	46	5737
2026-01-16 19:29:26.55	320.01	15.01	-35.3	-36.6	28.3	3.03e+01	49	27	0	189267968	46	5833
2026-01-16 19:29:27.56	319.77	14.98	-35.4	-36.6	28.3	3.03e+01	57	27	0	191365120	46	5821
2026-01-16 19:29:28.57	319.53	14.95	-35.8	-37.1	27.8	3.03e+01	60	27	0	193462272	46	6166
2026-01-16 19:29:29.58	319.29	14.93	-35.7	-37.0	27.8	3.03e+01	57	27	0	195035136	46	6085
2026-01-16 19:29:30.58	319.05	14.90	-35.4	-36.7	28.4	3.03e+01	59	27	0	197132288	46	5905
2026-01-16 19:29:31.59	318.81	14.87	-35.4	-36.7	28.2	3.03e+01	51	27	0	198705152	46	5896
2026-01-16 19:29:32.60	318.57	14.84	-35.8	-37.1	27.9	3.03e+01	56	27	0	200802304	46	6158
2026-01-16 19:29:33.61	318.33	14.81	-35.7	-37.0	28.1	3.03e+01	56	27	0	202899456	46	6122
2026-01-16 19:29:34.62	318.09	14.78	-35.0	-36.2	28.7	3.03e+01	45	27	0	204472320	46	5550
2026-01-16 19:29:35.63	317.86	14.75	-35.7	-37.0	27.9	3.03e+01	58	27	0	206569472	44	6875
2026-01-16 19:29:36.63	317.62	14.72	-34.7	-35.9	28.8	3.03e+01	59	27	0	208142336	44	6052
2026-01-16 19:29:37.64	317.38	14.69	-35.2	-36.5	28.4	3.03e+01	59	27	0	210239488	44	6427
2026-01-16 19:29:38.65	317.15	14.66	-35.0	-36.2	28.6	3.03e+01	59	28	0	211812352	44	6232
2026-01-16 19:29:39.66	316.91	14.63	-35.5	-36.7	28.1	3.03e+01	45	27	0	213909504	44	6644
2026-01-16 19:29:40.67	316.68	14.60	-35.4	-36.7	28.3	3.03e+01	58	27	0	216006656	44	6590
2026-01-16 19:29:41.68	316.44	14.56	-35.3	-36.6	28.3	3.03e+01	58	27	0	217579520	44	6514
2026-01-16 19:29:42.68	316.21	14.53	-34.7	-35.9	28.9	3.03e+01	45	27	0	219676672	44	6031
2026-01-16 19:29:43.70	315.97	14.50	-35.6	-37.0	27.9	3.03e+01	62	28	0	221773824	44	6842
2026-01-16 19:29:44.71	315.74	14.46	-34.7	-35.9	28.8	3.03e+01	58	28	0	223346688	44	6028
2026-01-16 19:29:45.71	315.51	14.43	-35.6	-37.0	27.6	3.03e+01	58	27	0	225443840	46	6084
2026-01-16 19:29:46.72	315.28	14.39	-35.0	-36.3	28.3	3.03e+01	60	28	0	227016704	44	6321
2026-01-16 19:29:47.73	315.05	14.36	-35.3	-36.6	28.2	3.03e+01	39	28	0	229113856	44	6546
2026-01-16 19:29:48.74	314.82	14.32	-34.7	-35.9	28.9	3.03e+01	57	28	0	231211008	44	6033
2026-01-16 19:29:49.75	314.59	14.29	-35.7	-37.0	27.9	3.03e+01	59	28	0	232783872	44	6882
2026-01-16 19:29:50.76	314.36	14.25	-34.7	-35.9	28.8	3.03e+01	54	28	0	234881024	44	6023
2026-01-16 19:29:51.77	314.13	14.22	-36.5	-38.0	27.0	3.03e+01	60	28	0	236453888	46	6842
2026-01-16 19:29:52.78	313.90	14.18	-34.2	-35.3	29.3	3.03e+01	55	28	0	238551040	44	5637
2026-01-16 19:29:53.79	313.67	14.14	-36.2	-37.7	27.1	3.03e+01	60	28	0	240648192	46	6595
2026-01-16 19:29:54.80	313.45	14.10	-34.3	-35.4	29.1	3.03e+01	57	28	0	242221056	44	5722
2026-01-16 19:29:55.81	313.22	14.07	-35.6	-37.0	27.8	3.03e+01	54	28	0	244318208	44	6806
2026-01-16 19:29:56.82	312.99	14.03	-35.2	-36.5	28.3	3.03e+01	56	28	0	246415360	44	6455
2026-01-16 19:29:57.83	312.77	13.99	-35.6	-36.9	28.0	3.03e+01	57	28	0	247988224	44	6756
2026-01-16 19:29:58.84	312.54	13.95	-35.6	-36.9	27.9	3.03e+01	52	28	0	250085376	46	6051
2026-01-16 19:29:59.85	312.32	13.91	-35.6	-36.9	27.5	3.03e+01	60	28	0	251658240	46	6037
2026-01-16 19:30:00.85	312.10	13.87	-36.3	-37.7	27.2	3.03e+01	43	28	0	253755392	46	6581
2026-01-16 19:30:01.86	311.88	13.83	-36.8	-38.2	26.8	3.03e+01	60	28	0	255852544	46	7009
2026-01-16 19:30:02.87	311.65	13.79	-36.9	-38.4	26.4	3.03e+01	61	28	0	257425408	48	6389
2026-01-16 19:30:03.88	311.43	13.75	-37.5	-39.0	26.0	3.03e+01	46	28	0	259522560	48	6825
2026-01-16 19:30:04.89	311.21	13.71	-38.0	-39.6	25.7	3.03e+01	57	28	0	261095424	50	6529
2026-01-16 19:30:05.90	310.99	13.67	-37.5	-38.9	26.3	3.03e+01	57	28	0	263192576	50	6056
2026-01-16 19:30:06.91	310.77	13.63	-36.7	-38.2	26.8	3.03e+01	60	28	0	265289728	48	6261
2026-01-16 19:30:07.92	310.55	13.59	-36.2	-37.5	27.4	3.03e+01	57	28	0	266862592	48	5777
2026-01-16 19:30:08.93	310.34	13.54	-36.9	-38.4	26.7	3.03e+01	45	28	0	268959744	46	7164
2026-01-16 19:30:09.94	310.12	13.50	-36.8	-38.2	26.7	3.03e+01	61	28	0	270532608	48	6267
2026-01-16 19:30:10.95	309.90	13.46	-36.3	-37.7	27.4	3.03e+01	62	28	0	272629760	48	5910
2026-01-16 19:30:11.96	309.69	13.41	-35.3	-36.5	28.5	3.03e+01	46	28	0	274726912	46	5773
2026-01-16 19:30:12.97	309.47	13.37	-35.1	-36.4	28.5	3.03e+01	61	28	0	276299776	46	5702
2026-01-16 19:30:13.97	309.26	13.33	-35.3	-36.6	28.4	3.03e+01	61	28	0	278396928	46	5835
2026-01-16 19:30:14.98	309.04	13.28	-35.4	-36.8	28.2	3.03e+01	56	28	0	279969792	46	5931
2026-01-16 19:30:15.99	308.83	13.24	-34.7	-36.0	28.7	3.03e+01	61	28	0	282066944	44	6086
2026-01-16 19:30:17.00	308.62	13.19	-35.5	-36.8	28.1	3.03e+01	57	28	0	284164096	44	6697
2026-01-16 19:30:18.01	308.41	13.15	-35.1	-36.4	28.5	3.03e+01	60	28	0	285736960	44	6388
2026-01-16 19:30:19.01	308.20	13.10	-35.6	-36.9	28.1	3.03e+01	57	28	0	287834112	44	6801
2026-01-16 19:30:20.03	307.98	13.06	-35.4	-36.8	28.1	3.03e+01	53	28	0	289931264	44	6660
2026-01-16 19:30:21.03	307.78	13.01	-35.4	-36.7	28.1	3.03e+01	61	28	0	291504128	44	6643
2026-01-16 19:30:22.04	307.57	12.97	-35.5	-36.9	28.0	3.03e+01	62	28	0	293601280	44	6735
2026-01-16 19:30:23.05	307.36	12.92	-35.1	-36.3	28.5	3.03e+01	62	28	0	295174144	44	6349
2026-01-16 19:30:24.06	307.15	12.88	-35.4	-36.8	28.2	3.03e+01	59	28	0	297271296	44	6676
2026-01-16 19:30:25.07	306.94	12.83	-35.2	-36.5	28.4	3.03e+01	45	28	0	299368448	44	6453
2026-01-16 19:30:26.08	306.74	12.78	-35.0	-36.3	28.6	3.03e+01	53	28	0	300941312	44	6289
2026-01-16 19:30:27.09	306.53	12.73	-35.1	-36.5	28.4	3.03e+01	57	28	0	303038464	44	6454
2026-01-16 19:30:28.09	306.33	12.69	-35.1	-36.5	28.4	3.03e+01	43	28	0	304611328	44	6436
2026-01-16 19:30:29.10	306.13	12.64	-35.2	-36.5	28.3	3.03e+01	58	28	0	306708480	44	6461
2026-01-16 19:30:30.11	305.92	12.59	-35.8	-37.2	27.6	3.03e+01	58	28	0	308805632	44	6996
2026-01-16 19:30:31.12	305.72	12.54	-35.1	-36.4	28.6	3.03e+01	58	28	0	310378496	44	6384
2026-01-16 19:30:32.13	305.52	12.50	-35.8	-37.2	27.8	3.03e+01	61	28	0	312475648	44	7001
2026-01-16 19:30:33.14	305.32	12.45	-35.4	-36.7	28.1	3.03e+01	59	28	0	314048512	44	6636
2026-01-16 19:30:34.15	305.12	12.40	-35.6	-37.0	27.7	3.03e+01	60	28	0	316145664	44	6848
2026-01-16 19:30:35.16	304.92	12.35	-35.7	-37.1	27.7	3.03e+01	57	28	0	318242816	46	6180
2026-01-16 19:30:36.17	304.72	12.30	-35.0	-36.3	28.5	3.03e+01	58	28	0	319815680	44	6293
2026-01-16 19:30:37.18	304.52	12.25	-35.7	-37.1	27.9	3.03e+01	58	28	0	321912832	44	6908
2026-01-16 19:30:38.19	304.32	12.20	-35.2	-36.6	28.3	3.03e+01	44	28	0	323485696	44	6509
2026-01-16 19:30:39.20	304.12	12.15	-35.3	-36.6	28.2	3.03e+01	62	28	0	325582848	44	6566
2026-01-16 19:30:40.21	303.93	12.10	-35.3	-36.7	28.2	3.03e+01	57	28	0	327680000	44	6587
2026-01-16 19:30:41.22	303.73	12.05	-35.5	-36.8	28.1	3.03e+01	48	28	0	329252864	44	6701
2026-01-16 19:30:42.23	303.54	12.00	-35.4	-36.8	28.0	3.03e+01	54	28	0	331350016	44	6673
2026-01-16 19:30:43.24	303.34	11.95	-35.0	-36.3	28.5	3.03e+01	60	28	0	332922880	44	6326
2026-01-16 19:30:44.25	303.15	11.90	-35.8	-37.2	27.6	3.03e+01	57	28	0	335020032	44	7008
2026-01-16 19:30:45.26	302.96	11.85	-35.5	-36.9	27.8	3.03e+01	58	28	0	337117184	46	6018
2026-01-16 19:30:46.27	302.77	11.80	-35.0	-36.3	28.3	3.03e+01	50	28	0	338690048	44	6309
2026-01-16 19:30:47.27	302.58	11.75	-36.2	-37.7	27.3	3.03e+01	59	28	0	340787200	46	6575
2026-01-16 19:30:48.28	302.39	11.69	-35.1	-36.4	28.2	3.03e+01	57	28	0	342884352	46	5670
2026-01-16 19:30:49.29	302.20	11.64	-35.3	-36.6	28.1	3.03e+01	49	28	0	344457216	44	6505
2026-01-16 19:30:50.30	302.01	11.59	-35.8	-37.2	27.7	3.03e+01	59	28	0	346554368	46	6211
2026-01-16 19:30:51.31	301.82	11.54	-34.8	-36.1	28.6	3.03e+01	62	28	0	348127232	44	6151
2026-01-16 19:30:52.32	301.63	11.49	-35.7	-37.0	27.8	3.03e+01	59	28	0	350224384	44	6865
2026-01-16 19:30:53.33	301.45	11.43	-35.7	-37.0	27.7	3.03e+01	59	28	0	352321536	46	6109
2026-01-16 19:30:54.34	301.26	11.38	-35.6	-36.9	27.9	3.03e+01	61	28	0	353894400	46	6019
2026-01-16 19:30:55.34	301.08	11.33	-36.2	-37.6	27.2	3.03e+01	59	28	0	355991552	46	6556
2026-01-16 19:30:56.35	300.89	11.28	-36.1	-37.5	27.4	3.03e+01	59	28	0	357564416	46	6454
2026-01-16 19:30:57.36	300.71	11.22	-36.0	-37.3	27.6	3.03e+01	47	28	0	359661568	46	6307
2026-01-16 19:30:58.37	300.52	11.17	-36.5	-37.9	27.1	3.03e+01	63	28	0	361758720	46	6740
2026-01-16 19:30:59.38	300.34	11.12	-35.5	-36.8	28.1	3.03e+01	60	28	0	363331584	46	5961
2026-01-16 19:31:00.39	300.16	11.06	-35.7	-37.0	27.9	3.03e+01	60	28	0	365428736	46	6116
2026-01-16 19:31:01.40	299.98	11.01	-35.9	-37.3	27.5	3.03e+01	61	28	0	367001600	46	6286
2026-01-16 19:31:02.41	299.80	10.96	-35.5	-36.8	28.1	3.03e+01	55	28	0	369098752	46	5936
2026-01-16 19:31:03.42	299.62	10.90	-35.6	-36.8	27.9	3.03e+01	60	28	0	371195904	46	5994
2026-01-16 19:31:04.43	299.44	10.85	-36.2	-37.6	27.3	3.03e+01	61	28	0	372768768	46	6515
2026-01-16 19:31:05.44	299.26	10.79	-35.4	-36.6	28.1	3.03e+01	46	28	0	374865920	46	5852
2026-01-16 19:31:06.45	299.09	10.74	-35.5	-36.8	28.0	3.03e+01	57	28	0	376438784	46	5981
2026-01-16 19:31:07.46	298.91	10.69	-35.9	-37.3	27.6	3.03e+01	46	28	0	378535936	46	6302
2026-01-16 19:31:08.47	298.73	10.63	-35.9	-37.2	27.6	3.03e+01	58	28	0	380633088	46	6274
2026-01-16 19:31:09.48	298.56	10.58	-35.9	-37.2	27.7	3.03e+01	61	28	0	382205952	46	6260
2026-01-16 19:31:10.48	298.38	10.52	-35.8	-37.2	27.7	3.03e+01	55	28	0	384303104	46	6219
2026-01-16 19:31:11.49	298.21	10.47	-35.8	-37.1	27.7	3.03e+01	58	28	0	386400256	46	6162
2026-01-16 19:31:12.50	298.04	10.41	-35.6	-36.9	28.0	3.03e+01	58	28	0	387973120	46	6008
2026-01-16 19:31:13.51	297.87	10.36	-35.8	-37.1	27.8	3.03e+01	59	28	0	390070272	46	6168
2026-01-16 19:31:14.52	297.69	10.30	-35.8	-37.1	27.7	3.03e+01	56	28	0	391643136	46	6156
2026-01-16 19:31:15.53	297.52	10.25	-35.7	-37.0	27.9	3.03e+01	46	28	0	393740288	46	6068
2026-01-16 19:31:16.54	297.35	10.19	-35.8	-37.1	27.8	3.03e+01	59	28	0	395837440	46	6173
2026-01-16 19:31:17.55	297.18	10.14	-36.0	-37.3	27.6	3.03e+01	58	28	0	397410304	46	6341
2026-01-16 19:31:18.56	297.01	10.08	-36.0	-37.4	27.4	3.03e+01	44	28	0	399507456	46	6360
2026-01-16 19:31:19.57	296.85	10.03	-36.3	-37.7	27.3	3.03e+01	61	28	0	401080320	46	6592
2026-01-16 19:31:20.57	296.68	9.97	-36.4	-37.7	27.2	3.03e+01	56	28	0	403177472	46	6612
2026-01-16 19:31:21.58	296.51	9.92	-36.2	-37.5	27.4	3.03e+01	57	28	0	405274624	46	6463
2026-01-16 19:31:22.59	296.35	9.86	-36.2	-37.5	27.4	3.03e+01	59	28	0	406847488	46	6458
2026-01-16 19:31:23.60	296.18	9.81	-36.1	-37.4	27.5	3.03e+01	48	28	0	408944640	46	6380
2026-01-16 19:31:24.61	296.02	9.75	-36.1	-37.4	27.4	3.03e+01	56	28	0	411041792	46	6366
2026-01-16 19:31:25.62	295.85	9.69	-35.7	-37.0	27.8	3.03e+01	61	28	0	412614656	46	6077
2026-01-16 19:31:26.63	295.69	9.64	-35.9	-37.2	27.6	3.03e+01	42	28	0	414711808	46	6245
2026-01-16 19:31:27.64	295.53	9.58	-36.3	-37.7	27.2	3.03e+01	58	28	0	416284672	46	6604
2026-01-16 19:31:28.65	295.37	9.53	-36.3	-37.7	27.1	3.03e+01	59	28	0	418381824	46	6610
2026-01-16 19:31:29.66	295.20	9.47	-36.3	-37.6	27.2	3.03e+01	62	28	0	420478976	46	6522
2026-01-16 19:31:30.66	295.04	9.41	-35.7	-37.0	27.8	3.03e+01	58	28	0	422051840	46	6075
2026-01-16 19:31:31.68	294.88	9.36	-36.0	-37.3	27.6	3.03e+01	48	28	0	424148992	46	6343
2026-01-16 19:31:32.69	294.72	9.30	-36.1	-37.5	27.3	3.03e+01	57	28	0	425721856	46	6447
2026-01-16 19:31:33.70	294.57	9.24	-36.2	-37.5	27.3	3.03e+01	56	28	0	427819008	46	6448
2026-01-16 19:31:34.70	294.41	9.19	-36.2	-37.5	27.3	3.03e+01	52	28	0	429391872	46	6468
2026-01-16 19:31:35.72	294.25	9.13	-36.1	-37.4	27.4	3.03e+01	59	28	0	431489024	46	6390
2026-01-16 19:31:36.72	294.10	9.07	-35.9	-37.2	27.5	3.03e+01	57	28	0	433586176	46	6272
2026-01-16 19:31:37.73	293.94	9.02	-36.0	-37.3	27.5	3.03e+01	60	28	0	435159040	46	6323
2026-01-16 19:31:38.74	293.78	8.96	-35.8	-37.1	27.7	3.03e+01	57	28	0	437256192	46	6152
2026-01-16 19:31:39.75	293.63	8.90	-35.9	-37.2	27.6	3.03e+01	48	28	0	439353344	46	6272
2026-01-16 19:31:40.76	293.48	8.85	-36.2	-37.5	27.3	3.03e+01	62	28	0	440926208	46	6474
2026-01-16 19:31:41.77	293.32	8.79	-36.2	-37.6	27.3	3.03e+01	59	28	0	443023360	46	6522
2026-01-16 19:31:42.78	293.17	8.73	-36.3	-37.7	27.1	3.03e+01	53	28	0	444596224	46	6605
2026-01-16 19:31:43.79	293.02	8.68	-36.3	-37.7	27.1	3.03e+01	62	28	0	446693376	46	6608
2026-01-16 19:31:44.80	292.87	8.62	-36.3	-37.6	27.2	3.03e+01	61	28	0	448790528	46	6543
2026-01-16 19:31:45.81	292.72	8.56	-36.2	-37.5	27.3	3.03e+01	52	28	0	450363392	46	6460
2026-01-16 19:31:46.82	292.57	8.51	-36.1	-37.5	27.5	3.03e+01	59	28	0	452460544	46	6433
2026-01-16 19:31:47.83	292.42	8.45	-36.0	-37.3	27.4	3.03e+01	49	28	0	454557696	46	6333
2026-01-16 19:31:48.84	292.27	8.39	-36.3	-37.7	27.1	3.03e+01	51	28	0	456130560	46	6587
2026-01-16 19:31:49.85	292.12	8.34	-36.4	-37.7	27.1	3.03e+01	64	28	0	458227712	46	6621
2026-01-16 19:31:50.86	291.97	8.28	-36.2	-37.5	27.2	3.03e+01	58	28	0	459800576	46	6484
2026-01-16 19:31:51.86	291.83	8.22	-36.1	-37.4	27.3	3.03e+01	57	29	0	461897728	46	6392
2026-01-16 19:31:52.87	291.68	8.16	-36.3	-37.7	27.1	3.03e+01	45	28	0	463994880	46	6578
2026-01-16 19:31:53.88	291.54	8.11	-36.3	-37.6	27.2	3.03e+01	60	28	0	465567744	46	6540
2026-01-16 19:31:54.89	291.39	8.05	-36.4	-37.8	27.1	3.03e+01	57	29	0	467664896	46	6664
2026-01-16 19:31:55.90	291.25	7.99	-36.6	-37.9	26.9	3.03e+01	50	29	0	469237760	46	6796
2026-01-16 19:31:56.91	291.10	7.94	-36.4	-37.8	27.0	3.03e+01	58	28	0	471334912	46	6671
2026-01-16 19:31:57.92	290.96	7.88	-36.2	-37.6	27.1	3.03e+01	60	29	0	473432064	46	6522
2026-01-16 19:31:58.93	290.82	7.82	-36.5	-37.8	26.9	3.03e+01	61	29	0	475004928	46	6688
2026-01-16 19:31:59.94	290.68	7.76	-36.4	-37.8	27.1	3.03e+01	58	28	0	477102080	46	6676
2026-01-16 19:32:00.95	290.53	7.71	-36.5	-37.9	26.9	3.03e+01	44	29	0	478674944	46	6763
2026-01-16 19:32:01.96	290.39	7.65	-36.5	-37.9	26.9	3.03e+01	57	29	0	480772096	46	6745
2026-01-16 19:32:02.96	290.26	7.59	-36.7	-38.1	26.7	3.03e+01	61	29	0	482869248	46	6887
2026-01-16 19:32:03.97	290.12	7.53	-36.7	-38.1	26.6	3.03e+01	50	29	0	484442112	46	6929
2026-01-16 19:32:04.98	289.98	7.48	-36.8	-38.1	26.6	3.03e+01	60	29	0	486539264	46	6961
2026-01-16 19:32:06.00	289.84	7.42	-36.4	-37.7	27.0	3.03e+01	57	29	0	488112128	46	6606
2026-01-16 19:32:07.00	289.70	7.36	-36.5	-37.9	26.9	3.03e+01	59	29	0	490209280	46	6749
2026-01-16 19:32:08.02	289.56	7.30	-36.4	-37.8	26.9	3.03e+01	53	28	0	492306432	46	6678
2026-01-16 19:32:09.03	289.43	7.25	-36.6	-38.0	26.8	3.03e+01	58	29	0	493879296	46	6808
2026-01-16 19:32:10.04	289.29	7.19	-36.7	-38.1	26.7	3.03e+01	57	29	0	495976448	46	6902
2026-01-16 19:32:11.05	289.16	7.13	-36.7	-38.1	26.6	3.03e+01	53	29	0	497549312	46	6940
2026-01-16 19:32:12.06	289.02	7.08	-36.7	-38.1	26.6	3.03e+01	46	29	0	499646464	46	6944
2026-01-16 19:32:13.06	288.89	7.02	-36.7	-38.1	26.6	3.03e+01	58	29	0	501743616	46	6926
2026-01-16 19:32:14.07	288.76	6.96	-36.5	-37.8	26.8	3.03e+01	58	29	0	503316480	46	6724
2026-01-16 19:32:15.08	288.62	6.90	-36.8	-38.2	26.6	3.03e+01	58	29	0	505413632	46	6970
2026-01-16 19:32:16.09	288.49	6.85	-36.7	-38.1	26.6	3.03e+01	60	29	0	507510784	46	6919
2026-01-16 19:32:17.10	288.36	6.79	-36.8	-38.2	26.4	3.03e+01	46	29	0	509083648	46	7023
2026-01-16 19:32:18.11	288.23	6.73	-36.8	-38.2	26.4	3.03e+01	59	29	0	511180800	48	6232
2026-01-16 19:32:19.12	288.10	6.67	-36.8	-38.2	26.4	3.03e+01	56	29	0	512753664	48	6260
2026-01-16 19:32:20.13	287.97	6.62	-36.7	-38.1	26.5	3.03e+01	59	29	0	514850816	48	6190
2026-01-16 19:32:21.14	287.84	6.56	-36.8	-38.1	26.5	3.03e+01	56	29	0	516947968	48	6205
2026-01-16 19:32:22.15	287.71	6.50	-36.9	-38.3	26.3	3.03e+01	59	29	0	518520832	48	6298
2026-01-16 19:32:23.16	287.58	6.45	-36.8	-38.2	26.4	3.03e+01	58	29	0	520617984	48	6221
2026-01-16 19:32:24.16	287.45	6.39	-37.1	-38.5	26.1	3.03e+01	60	29	0	522715136	48	6480
2026-01-16 19:32:25.17	287.33	6.33	-37.0	-38.4	26.2	3.03e+01	51	29	0	524288000	48	6410
2026-01-16 19:32:26.18	287.20	6.27	-37.0	-38.5	26.2	3.03e+01	59	29	0	526385152	48	6439
2026-01-16 19:32:27.19	287.08	6.22	-36.9	-38.4	26.2	3.03e+01	57	29	0	527958016	48	6361
2026-01-16 19:32:28.20	286.95	6.16	-36.9	-38.3	26.3	3.03e+01	59	29	0	530055168	48	6314
2026-01-16 19:32:29.21	286.82	6.10	-37.2	-38.7	26.0	3.03e+01	62	29	0	531628032	48	6578
2026-01-16 19:32:30.21	286.70	6.05	-37.2	-38.6	26.0	3.03e+01	50	29	0	533725184	48	6539
2026-01-16 19:32:31.22	286.58	5.99	-36.8	-38.2	26.4	3.03e+01	60	29	0	535822336	48	6258
2026-01-16 19:32:32.23	286.45	5.93	-36.8	-38.1	26.4	3.03e+01	59	29	0	537395200	48	6205
2026-01-16 19:32:33.24	286.33	5.88	-37.0	-38.4	26.2	3.03e+01	45	29	0	539492352	48	6388
2026-01-16 19:32:34.25	286.21	5.82	-36.9	-38.3	26.2	3.03e+01	58	29	0	541065216	48	6338
2026-01-16 19:32:35.26	286.09	5.76	-37.0	-38.5	26.1	3.03e+01	59	29	0	543162368	48	6439
2026-01-16 19:32:36.27	285.97	5.70	-37.1	-38.5	26.0	3.03e+01	59	29	0	545259520	48	6477
2026-01-16 19:32:37.28	285.85	5.65	-37.3	-38.7	25.8	3.03e+01	59	29	0	546832384	48	6641
2026-01-16 19:32:38.29	285.73	5.59	-37.5	-39.0	25.5	3.03e+01	49	29	0	548929536	48	6857
2026-01-16 19:32:39.29	285.61	5.53	-37.7	-39.2	25.5	3.03e+01	58	29	0	551026688	48	7021
2026-01-16 19:32:40.30	285.49	5.48	-37.3	-38.7	25.8	3.03e+01	57	29	0	552599552	48	6648
2026-01-16 19:32:41.31	285.37	5.42	-37.3	-38.7	25.8	3.03e+01	50	29	0	554696704	48	6641
2026-01-16 19:32:42.32	285.25	5.36	-37.4	-38.9	25.5	3.03e+01	62	29	0	556269568	48	6765
2026-01-16 19:32:43.33	285.13	5.31	-37.5	-39.0	25.5	3.03e+01	59	29	0	558366720	48	6862
2026-01-16 19:32:44.34	285.02	5.25	-37.4	-38.9	25.7	3.03e+01	60	29	0	560463872	48	6763
2026-01-16 19:32:45.35	284.90	5.19	-37.4	-38.9	25.7	3.03e+01	56	29	0	562036736	48	6755
2026-01-16 19:32:46.36	284.78	5.14	-37.1	-38.6	25.9	3.03e+01	46	29	0	564133888	48	6502
2026-01-16 19:32:47.37	284.67	5.08	-37.1	-38.5	26.0	3.03e+01	63	29	0	565706752	48	6462
2026-01-16 19:32:48.37	284.56	5.02	-37.3	-38.8	25.7	3.03e+01	62	29	0	567803904	48	6663
2026-01-16 19:32:49.39	284.44	4.97	-37.5	-39.0	25.5	3.03e+01	39	29	0	569901056	48	6824
2026-01-16 19:32:50.39	284.33	4.91	-37.4	-38.9	25.6	3.03e+01	62	29	0	571473920	48	6747
2026-01-16 19:32:51.40	284.21	4.85	-37.3	-38.8	25.7	3.03e+01	58	29	0	573571072	48	6651
2026-01-16 19:32:52.41	284.10	4.80	-37.6	-39.1	25.4	3.03e+01	62	29	0	575668224	48	6922
2026-01-16 19:32:53.42	283.99	4.74	-37.3	-38.8	25.7	3.03e+01	60	29	0	577241088	48	6686
2026-01-16 19:32:54.43	283.88	4.68	-37.2	-38.7	25.8	3.03e+01	57	29	0	579338240	48	6606
2026-01-16 19:32:55.44	283.76	4.63	-37.4	-38.9	25.5	3.03e+01	61	29	0	580911104	48	6748
2026-01-16 19:32:56.45	283.65	4.57	-37.5	-39.0	25.5	3.03e+01	61	29	0	583008256	48	6854
2026-01-16 19:32:57.46	283.54	4.52	-37.5	-39.0	25.4	3.03e+01	46	29	0	585105408	48	6859
2026-01-16 19:32:58.47	283.43	4.46	-37.6	-39.1	25.3	3.03e+01	59	29	0	586678272	48	6936
2026-01-16 19:32:59.48	283.32	4.40	-37.4	-38.8	25.4	3.03e+01	47	29	0	588775424	48	6725
2026-01-16 19:33:00.49	283.21	4.35	-37.8	-39.4	25.0	3.03e+01	58	29	0	590348288	48	7154
2026-01-16 19:33:01.50	283.10	4.29	-37.9	-39.4	25.0	3.03e+01	58	29	0	592445440	48	7204
2026-01-16 19:33:02.51	283.00	4.23	-37.7	-39.2	25.2	3.03e+01	54	29	0	594542592	48	7037
2026-01-16 19:33:03.52	282.89	4.18	-37.9	-39.4	24.9	3.03e+01	59	29	0	596115456	48	7195
2026-01-16 19:33:04.53	282.78	4.12	-37.7	-39.3	25.1	3.03e+01	61	29	0	598212608	50	6300
2026-01-16 19:33:05.54	282.67	4.07	-37.7	-39.2	25.1	3.03e+01	58	29	0	599785472	50	6254
2026-01-16 19:33:06.54	282.57	4.01	-37.3	-38.7	25.6	3.03e+01	57	29	0	601882624	50	5919
2026-01-16 19:33:07.56	282.46	3.95	-37.7	-39.2	25.1	3.03e+01	47	29	0	603979776	50	6222
2026-01-16 19:33:08.57	282.36	3.90	-37.7	-39.2	25.2	3.03e+01	53	29	0	605552640	50	6236
2026-01-16 19:33:09.58	282.25	3.84	-37.7	-39.3	25.0	3.03e+01	62	29	0	607649792	50	6306
2026-01-16 19:33:10.59	282.15	3.79	-37.9	-39.5	25.0	3.03e+01	45	29	0	609222656	50	6431
2026-01-16 19:33:11.60	282.04	3.73	-37.5	-39.0	25.2	3.03e+01	55	29	0	611319808	50	6115
2026-01-16 19:33:12.61	281.94	3.68	-37.5	-39.1	25.1	3.03e+01	59	29	0	613416960	50	6143
2026-01-16 19:33:13.62	281.84	3.62	-37.7	-39.2	25.2	3.03e+01	57	29	0	614989824	50	6234
2026-01-16 19:33:14.63	281.73	3.56	-37.6	-39.2	25.0	3.03e+01	59	29	0	617086976	50	6234
2026-01-16 19:33:15.63	281.63	3.51	-37.9	-39.5	24.7	3.03e+01	52	29	0	619184128	50	6485
2026-01-16 19:33:16.64	281.53	3.45	-38.2	-39.8	24.4	3.03e+01	61	29	0	620756992	50	6720
2026-01-16 19:33:17.65	281.43	3.40	-37.5	-39.0	25.0	3.03e+01	56	29	0	622854144	50	6126
2026-01-16 19:33:18.66	281.33	3.34	-38.0	-39.6	24.7	3.03e+01	50	29	0	624427008	50	6504
2026-01-16 19:33:19.67	281.23	3.29	-37.9	-39.5	24.7	3.03e+01	57	29	0	626524160	50	6466
2026-01-16 19:33:20.68	281.13	3.23	-37.9	-39.4	24.8	3.03e+01	58	29	0	628621312	50	6417
2026-01-16 19:33:21.69	281.03	3.18	-38.2	-39.8	24.4	3.03e+01	61	29	0	630194176	50	6687
2026-01-16 19:33:22.70	280.93	3.12	-38.3	-40.0	24.2	3.03e+01	59	29	0	632291328	50	6816
2026-01-16 19:33:23.71	280.83	3.07	-37.9	-39.5	24.5	3.03e+01	52	29	0	633864192	50	6452
2026-01-16 19:33:24.72	280.73	3.01	-47.3	-64.9	3.5	3.03e+01	0	29	104	635437056	60	67523
2026-01-16 19:33:25.73	280.63	2.96	-47.9	-65.6	3.5	3.03e+01	0	29	104	635437056	60	73443
2026-01-16 19:33:26.74	280.53	2.90	-48.2	-66.0	3.5	3.03e+01	0	29	104	635437056	60	76911
2026-01-16 19:33:27.74	280.44	2.85	-48.4	-66.2	3.5	3.03e+01	0	29	104	635437056	60	78907
2026-01-16 19:33:28.76	280.34	2.79	-48.4	-66.3	3.5	3.03e+01	0	29	104	635437056	60	79448
2026-01-16 19:33:29.77	280.24	2.74	-48.5	-66.3	3.5	3.03e+01	0	29	104	635437056	60	79670
2026-01-16 19:33:30.77	280.15	2.68	-48.5	-66.3	3.5	3.03e+01	0	29	104	635437056	60	79942
2026-01-16 19:33:31.78	280.05	2.63	-48.5	-66.3	3.5	3.03e+01	0	29	104	635437056	60	79647
2026-01-16 19:33:32.79	279.96	2.57	-48.5	-66.4	3.5	3.03e+01	0	29	104	635437056	60	80124
2026-01-16 19:33:33.80	279.86	2.52	-48.5	-66.4	3.5	3.03e+01	0	29	104	635437056	60	80130
2026-01-16 19:33:34.81	279.77	2.46	-48.2	-66.3	3.5	3.03e+01	0	29	104	635437056	60	79424
2026-01-16 19:33:35.82	279.67	2.41	-48.2	-66.3	3.5	3.03e+01	0	29	104	635437056	60	79142
2026-01-16 19:33:36.83	279.58	2.35	-48.1	-66.2	3.5	3.03e+01	0	29	104	635437056	60	78571
2026-01-16 19:33:37.84	279.49	2.30	-48.1	-66.2	3.5	3.03e+01	0	29	104	635437056	60	78543
2026-01-16 19:33:38.85	279.39	2.24	-48.3	-66.2	3.5	3.03e+01	0	29	104	635437056	60	78410
2026-01-16 19:33:39.86	279.30	2.19	-48.1	-66.2	3.5	3.03e+01	0	29	104	635437056	60	78237
2026-01-16 19:33:40.87	279.21	2.14	-48.3	-66.3	3.5	3.03e+01	0	29	104	635437056	60	79562
2026-01-16 19:33:41.88	279.12	2.08	-48.4	-66.2	3.5	3.03e+01	0	29	104	635437056	60	78861
2026-01-16 19:33:42.89	279.03	2.03	-48.4	-66.3	3.5	3.03e+01	0	29	104	635437056	60	79270
2026-01-16 19:33:43.90	278.93	1.97	-48.4	-66.2	3.5	3.03e+01	0	29	104	635437056	60	78690
2026-01-16 19:33:44.91	278.84	1.92	-48.3	-66.2	3.5	3.03e+01	0	30	104	635437056	60	78636
2026-01-16 19:33:45.92	278.75	1.87	-48.4	-66.2	3.5	3.03e+01	0	29	104	635437056	60	78936
2026-01-16 19:33:46.92	278.66	1.81	-48.4	-66.2	3.5	3.03e+01	0	29	104	635437056	60	78908
2026-01-16 19:33:47.93	278.57	1.76	-48.4	-66.3	3.5	3.03e+01	0	29	104	635437056	60	79123
2026-01-16 19:33:48.94	278.49	1.70	-48.4	-66.2	3.5	3.03e+01	0	29	104	635437056	60	78900
2026-01-16 19:33:49.95	278.40	1.65	-48.4	-66.3	3.5	3.03e+01	0	29	104	635437056	60	79044
2026-01-16 19:33:50.96	278.31	1.60	-48.4	-66.2	3.5	3.03e+01	0	30	104	635437056	60	78735
2026-01-16 19:33:51.98	278.22	1.54	-48.4	-66.3	3.5	3.03e+01	0	30	104	635437056	60	79066
2026-01-16 19:33:52.99	278.13	1.49	-48.5	-66.3	3.5	3.03e+01	0	30	104	635437056	60	79943
2026-01-16 19:33:54.00	278.04	1.43	-48.4	-66.2	3.5	3.03e+01	0	29	104	635437056	60	78954
2026-01-16 19:33:55.00	277.96	1.38	-48.4	-66.2	3.5	3.03e+01	0	30	104	635437056	60	78723
2026-01-16 19:33:56.01	277.87	1.33	-48.3	-66.2	3.5	3.03e+01	0	29	104	635437056	60	78197
2026-01-16 19:33:57.02	277.79	1.27	-48.4	-66.2	3.5	3.03e+01	0	30	104	635437056	60	78520
2026-01-16 19:33:58.04	277.70	1.22	-48.3	-66.1	3.5	3.03e+01	0	30	104	635437056	60	78093
2026-01-16 19:33:59.05	277.61	1.17	-48.5	-66.3	3.5	3.03e+01	0	30	104	635437056	60	79721
2026-01-16 19:34:00.05	277.53	1.11	-48.4	-66.2	3.5	3.03e+01	0	30	104	635437056	60	79024
2026-01-16 19:34:01.07	277.44	1.06	-48.4	-66.2	3.5	3.03e+01	0	30	104	635437056	60	78980
2026-01-16 19:34:02.08	277.36	1.01	-48.4	-66.3	3.5	3.03e+01	0	30	104	635437056	60	79680
2026-01-16 19:34:03.09	277.27	0.95	-48.4	-66.3	3.5	3.03e+01	0	30	104	635437056	60	79275
2026-01-16 19:34:04.10	277.19	0.90	-48.5	-66.4	3.5	3.03e+01	0	30	104	635437056	60	80066
2026-01-16 19:34:05.11	277.11	0.85	-48.4	-66.2	3.5	3.03e+01	0	30	104	635437056	60	78856
2026-01-16 19:34:06.12	277.02	0.79	-48.3	-66.2	3.5	3.03e+01	0	30	104	635437056	60	78421
2026-01-16 19:34:07.13	276.94	0.74	-48.4	-66.3	3.5	3.03e+01	0	30	104	635437056	60	79241
2026-01-16 19:34:08.14	276.86	0.69	-48.4	-66.3	3.5	3.03e+01	0	30	104	635437056	60	79164
2026-01-16 19:34:09.15	276.78	0.64	-48.4	-66.2	3.5	3.03e+01	0	30	104	635437056	60	78653
2026-01-16 19:34:10.16	276.69	0.58	-48.4	-66.2	3.5	3.03e+01	0	30	104	635437056	60	78850
2026-01-16 19:34:11.17	276.61	0.53	-48.4	-66.3	3.5	3.03e+01	0	29	104	635437056	60	79277
2026-01-16 19:34:12.18	276.53	0.48	-48.6	-66.5	3.5	3.03e+01	0	30	104	635437056	60	81375
2026-01-16 19:34:13.19	276.45	0.42	-48.5	-66.4	3.5	3.03e+01	0	29	104	635437056	60	79995
2026-01-16 19:34:14.20	276.37	0.37	-48.4	-66.2	3.5	3.03e+01	0	30	104	635437056	60	78957
2026-01-16 19:34:15.21	276.29	0.32	-48.4	-66.3	3.5	3.03e+01	0	30	104	635437056	60	79070
2026-01-16 19:34:16.22	276.21	0.27	-48.3	-66.2	3.5	3.03e+01	0	30	104	635437056	60	78181
2026-01-16 19:34:17.23	276.13	0.21	-48.3	-66.1	3.5	3.03e+01	0	30	104	635437056	60	77682
2026-01-16 19:34:18.24	276.05	0.16	-48.3	-66.2	3.5	3.03e+01	0	30	104	635437056	60	78346
2026-01-16 19:34:19.25	275.97	0.11	-48.4	-66.2	3.5	3.03e+01	0	30	104	635437056	60	78507
2026-01-16 19:34:20.26	275.89	0.06	-48.4	-66.3	3.5	3.03e+01	0	30	104	635437056	60	79775
2026-01-16 19:34:21.27	275.82	0.01	-48.4	-66.2	3.5	3.03e+01	0	30	104	635437056	60	78807
2026-01-16 19:34:22.28	275.74	-0.05	-48.4	-66.2	3.5	3.03e+01	0	30	104	635437056	60	78839
2026-01-16 19:34:23.29	275.66	-0.10	-48.5	-66.3	3.5	3.03e+01	0	30	104	635437056	60	79565

#Closed at: 2026-01-16 19:34:24
#Recorded file [635 MB]: D:/lorett/data/35029_260117_072249.dat