passes_logs/2026/01/16/R4.6S_Anadyr/R4.6S_Anadyr__20260116_112545_NOAA_20_JPSS-1_rec.log

#Pass ID: 20260116_112545_NOAA 20 (JPSS-1)
#Satellite: NOAA 20 (JPSS-1)
#Configuration: NOAA 20
#almurnet v.1.7.20251203
#Start time: 2026-01-16 11:25:51

#Version: 2.2.20231116
#Station: R4.6S_Anadyr
#Location: 177.4865 lon 64.73178 lat
#TLE: 1 43013U 17073A   26015.89389188  .00000026  00000+0  33113-4 0  9999
#TLE: 2 43013  98.7636 316.8238 0001460  37.8997 322.2282 14.19536128422860

#Time	Az	El	Level	Level2	SNR	BER	BlckErr	Temp	State	Recorded	gain1	gain2
2026-01-16 11:25:51.70	21.69	0.22	-45.1	-46.6	5.7	0.00e+00	0	28	0	0	60	26178
2026-01-16 11:25:52.71	21.80	0.25	-48.3	-63.5	3.6	1.51e+00	0	29	104	0	60	54061
2026-01-16 11:25:53.72	21.90	0.29	-48.1	-63.5	3.6	1.51e+00	0	29	104	0	60	53795
2026-01-16 11:25:54.73	22.00	0.33	-48.2	-63.4	3.6	1.51e+00	0	30	104	0	60	53251
2026-01-16 11:25:55.74	22.10	0.37	-47.9	-63.2	3.6	1.51e+00	0	30	104	0	60	52165
2026-01-16 11:25:56.75	22.20	0.41	-48.0	-63.2	3.6	1.51e+00	0	29	104	0	60	52378
2026-01-16 11:25:57.76	22.31	0.44	-47.9	-63.2	3.6	1.51e+00	0	30	104	0	60	52233
2026-01-16 11:25:58.77	22.41	0.48	-47.9	-63.1	3.5	1.51e+00	0	30	104	0	60	51684
2026-01-16 11:25:59.78	22.51	0.52	-47.6	-62.9	3.6	1.51e+00	0	30	104	0	60	50650
2026-01-16 11:26:00.79	22.61	0.56	-47.7	-62.9	3.6	1.51e+00	0	30	104	0	60	50267
2026-01-16 11:26:01.80	22.72	0.59	-47.6	-62.7	3.6	1.51e+00	0	30	104	0	60	49535
2026-01-16 11:26:02.81	22.82	0.63	-47.4	-62.5	3.6	1.51e+00	0	30	104	0	60	48393
2026-01-16 11:26:03.82	22.93	0.67	-47.1	-62.2	3.6	1.51e+00	0	30	104	0	60	46689
2026-01-16 11:26:04.82	23.03	0.71	-46.6	-61.8	3.6	1.51e+00	0	30	104	0	60	44409
2026-01-16 11:26:05.83	23.13	0.74	-46.3	-61.4	3.6	1.51e+00	0	30	104	0	60	42684
2026-01-16 11:26:06.84	23.24	0.78	-46.3	-61.5	3.6	1.51e+00	0	30	104	0	60	42746
2026-01-16 11:26:07.86	23.34	0.82	-46.4	-61.6	3.6	1.51e+00	0	30	104	0	60	43483
2026-01-16 11:26:08.87	23.45	0.86	-46.3	-61.5	3.6	1.51e+00	0	30	104	0	60	42856
2026-01-16 11:26:09.88	23.55	0.89	-46.3	-61.4	3.6	1.51e+00	0	30	104	0	60	42680
2026-01-16 11:26:10.89	23.66	0.93	-46.3	-61.5	3.6	1.51e+00	0	30	104	0	60	42845
2026-01-16 11:26:11.90	23.77	0.97	-46.3	-61.4	3.6	1.51e+00	0	30	104	0	60	42659
2026-01-16 11:26:12.91	23.87	1.01	-46.3	-61.5	3.6	1.51e+00	0	30	104	0	60	42941
2026-01-16 11:26:13.92	23.98	1.04	-46.3	-61.5	3.6	1.51e+00	0	30	104	0	60	42719
2026-01-16 11:26:14.93	24.09	1.08	-46.3	-61.5	3.6	1.51e+00	0	30	104	0	60	42833
2026-01-16 11:26:15.94	24.19	1.12	-46.3	-61.5	3.6	1.51e+00	0	30	104	0	60	43029
2026-01-16 11:26:16.95	24.30	1.16	-46.4	-61.6	3.6	1.51e+00	0	30	104	0	60	43257
2026-01-16 11:26:17.96	24.41	1.19	-46.4	-61.6	3.6	1.51e+00	0	30	104	0	60	43384
2026-01-16 11:26:18.97	24.52	1.23	-46.3	-61.5	3.6	1.51e+00	0	30	104	0	60	42847
2026-01-16 11:26:19.98	24.62	1.27	-46.3	-61.4	3.6	1.51e+00	0	30	104	0	60	42573
2026-01-16 11:26:20.99	24.73	1.30	-46.3	-61.4	3.6	1.51e+00	0	30	104	0	60	42518
2026-01-16 11:26:22.00	24.84	1.34	-46.3	-61.4	3.6	1.51e+00	0	30	104	0	60	42317
2026-01-16 11:26:23.01	24.95	1.38	-46.3	-61.4	3.6	1.51e+00	0	30	104	0	60	42469
2026-01-16 11:26:24.02	25.06	1.42	-46.2	-61.4	3.6	1.51e+00	0	30	104	0	60	42523
2026-01-16 11:26:25.03	25.17	1.45	-46.3	-61.4	3.6	1.51e+00	0	30	104	0	60	42668
2026-01-16 11:26:26.04	25.28	1.49	-46.2	-61.4	3.6	1.51e+00	0	30	104	0	60	42555
2026-01-16 11:26:27.05	25.39	1.53	-46.2	-61.4	3.6	1.51e+00	0	30	104	0	60	42552
2026-01-16 11:26:28.06	25.50	1.56	-46.2	-61.4	3.5	1.51e+00	0	30	104	0	60	42561
2026-01-16 11:26:29.07	25.61	1.60	-46.3	-61.4	3.6	1.51e+00	0	30	104	0	60	42488
2026-01-16 11:26:30.08	25.72	1.64	-46.3	-61.5	3.6	1.51e+00	0	30	104	0	60	42823
2026-01-16 11:26:31.09	25.83	1.67	-46.3	-61.5	3.6	1.51e+00	0	30	104	0	60	42741
2026-01-16 11:26:32.10	25.94	1.71	-46.3	-61.4	3.6	1.51e+00	0	30	104	0	60	42627
2026-01-16 11:26:33.11	26.05	1.75	-46.3	-61.4	3.6	1.51e+00	0	30	104	0	60	42687
2026-01-16 11:26:34.11	26.16	1.78	-46.3	-61.5	3.6	1.51e+00	0	30	104	0	60	42739
2026-01-16 11:26:35.12	26.27	1.82	-46.3	-61.4	3.6	1.51e+00	0	30	104	0	60	42518
2026-01-16 11:26:36.13	26.39	1.86	-46.3	-61.4	3.6	1.51e+00	0	30	104	0	60	42678
2026-01-16 11:26:37.14	26.50	1.89	-46.2	-61.4	3.6	1.51e+00	0	30	104	0	60	42634
2026-01-16 11:26:38.15	26.61	1.93	-46.3	-61.4	3.6	1.51e+00	0	30	104	0	60	42251
2026-01-16 11:26:39.16	26.72	1.97	-46.3	-61.4	3.6	1.51e+00	0	30	104	0	60	42451
2026-01-16 11:26:40.17	26.84	2.00	-46.3	-61.4	3.6	1.51e+00	0	30	104	0	60	42388
2026-01-16 11:26:41.18	26.95	2.04	-46.3	-61.4	3.6	1.51e+00	0	30	104	0	60	42426
2026-01-16 11:26:42.19	27.06	2.08	-46.2	-61.4	3.6	1.51e+00	0	30	104	0	60	42390
2026-01-16 11:26:43.20	27.18	2.11	-46.2	-61.4	3.6	1.51e+00	0	30	104	0	60	42553
2026-01-16 11:26:44.21	27.29	2.15	-46.2	-61.4	3.6	1.51e+00	0	30	104	0	60	42355
2026-01-16 11:26:45.22	27.41	2.18	-46.2	-61.4	3.6	1.51e+00	0	30	104	0	60	42432
2026-01-16 11:26:46.23	27.52	2.22	-46.2	-61.4	3.6	1.51e+00	0	30	104	0	60	42684
2026-01-16 11:26:47.24	27.64	2.26	-46.2	-61.4	3.6	1.51e+00	0	30	104	0	60	42378
2026-01-16 11:26:48.25	27.75	2.29	-46.2	-61.4	3.6	1.51e+00	0	30	104	0	60	42637
2026-01-16 11:26:49.26	27.87	2.33	-46.2	-61.4	3.6	1.51e+00	0	30	104	0	60	42364
2026-01-16 11:26:50.27	27.98	2.36	-46.2	-61.3	3.6	1.51e+00	0	30	104	0	60	42172
2026-01-16 11:26:51.27	28.10	2.40	-46.2	-61.2	3.6	1.51e+00	0	30	104	0	60	41706
2026-01-16 11:26:52.29	28.22	2.44	-46.2	-61.3	3.6	1.51e+00	0	30	104	0	60	42181
2026-01-16 11:26:53.30	28.33	2.47	-46.2	-61.4	3.6	1.51e+00	0	30	104	0	60	42492
2026-01-16 11:26:54.31	28.45	2.51	-46.2	-61.4	3.6	1.51e+00	0	30	104	0	60	42510
2026-01-16 11:26:55.32	28.57	2.54	-46.2	-61.3	3.6	1.51e+00	0	30	104	0	60	42084
2026-01-16 11:26:56.33	28.68	2.58	-46.2	-61.3	3.6	1.51e+00	0	30	104	0	60	42083
2026-01-16 11:26:57.34	28.80	2.62	-46.2	-61.0	3.6	1.51e+00	0	30	104	0	60	40768
2026-01-16 11:26:58.34	28.92	2.65	-46.2	-60.4	3.6	1.51e+00	0	30	104	0	60	37882
2026-01-16 11:26:59.35	29.04	2.69	-46.1	-59.6	3.6	1.51e+00	0	30	104	0	60	34637
2026-01-16 11:27:00.36	29.16	2.72	-46.2	-59.8	3.6	1.51e+00	0	30	104	0	60	35310
2026-01-16 11:27:01.37	29.27	2.76	-46.1	-58.9	3.7	1.51e+00	0	30	104	0	60	31994
2026-01-16 11:27:02.38	29.39	2.79	-45.5	-53.5	7.5	1.13e+00	92	30	104	0	60	17183
2026-01-16 11:27:03.39	29.51	2.83	-44.2	-48.5	11.9	2.25e-02	15	30	0	1048576	60	9579
2026-01-16 11:27:04.40	29.63	2.86	-42.9	-45.9	14.6	9.10e-06	92	30	0	3145728	60	7117
2026-01-16 11:27:05.41	29.75	2.90	-41.7	-44.0	16.3	0.00e+00	65	30	0	5242880	58	6436
2026-01-16 11:27:06.42	29.87	2.93	-41.0	-42.8	17.5	0.00e+00	6	30	0	6291456	56	6302
2026-01-16 11:27:07.43	29.99	2.97	-41.4	-43.5	17.0	0.00e+00	0	30	0	8388608	56	6779
2026-01-16 11:27:08.44	30.11	3.00	-42.2	-44.6	16.0	0.00e+00	62	30	0	10485760	56	7740
2026-01-16 11:27:09.45	30.24	3.04	-40.4	-42.0	18.1	0.00e+00	91	30	0	12582912	54	6457
2026-01-16 11:27:10.46	30.36	3.07	-41.9	-43.6	17.6	1.09e+00	6	30	0	13631488	60	5457
2026-01-16 11:27:11.47	30.48	3.11	-45.0	-50.9	5.8	1.50e+00	0	30	104	13631488	60	12719
2026-01-16 11:27:12.48	30.60	3.14	-42.5	-45.2	15.6	1.18e+00	4	30	104	13631488	58	7394
2026-01-16 11:27:13.49	30.72	3.18	-40.3	-42.0	17.3	0.00e+00	0	30	0	14680064	54	6439
2026-01-16 11:27:14.50	30.85	3.21	-45.1	-51.0	12.0	1.36e+00	0	30	104	15728640	60	12795
2026-01-16 11:27:15.51	30.97	3.25	-40.7	-42.5	17.9	0.00e+00	3	30	0	15728640	56	6094
2026-01-16 11:27:16.51	31.09	3.28	-39.9	-41.5	18.9	0.00e+00	91	30	0	17825792	54	6046
2026-01-16 11:27:17.52	31.21	3.32	-40.3	-41.9	18.6	0.00e+00	1	30	0	19922944	54	6389
2026-01-16 11:27:18.53	31.34	3.35	-40.0	-41.5	19.1	0.00e+00	92	30	0	22020096	54	6092
2026-01-16 11:27:19.54	31.46	3.39	-40.0	-41.6	18.6	0.00e+00	6	30	0	24117248	54	6160
2026-01-16 11:27:20.55	31.58	3.42	-40.0	-41.6	19.0	0.00e+00	45	30	0	25165824	54	6108
2026-01-16 11:27:21.56	31.71	3.46	-40.1	-41.6	18.9	0.00e+00	0	30	0	27262976	52	6917
2026-01-16 11:27:22.57	31.83	3.49	-39.9	-41.5	19.2	0.00e+00	22	30	0	29360128	52	6780
2026-01-16 11:27:23.58	31.96	3.52	-40.4	-42.0	18.7	0.00e+00	2	30	0	31457280	52	7218
2026-01-16 11:27:24.59	32.08	3.56	-40.2	-41.7	18.9	0.00e+00	65	30	0	33554432	52	7005
2026-01-16 11:27:25.60	32.21	3.59	-40.2	-41.8	18.8	0.00e+00	92	30	0	34603008	52	7071
2026-01-16 11:27:26.61	32.34	3.63	-39.7	-41.2	19.3	0.00e+00	22	30	0	36700160	52	6579
2026-01-16 11:27:27.62	32.46	3.66	-39.7	-41.2	19.4	0.00e+00	92	30	0	38797312	52	6569
2026-01-16 11:27:28.63	32.59	3.69	-40.1	-41.6	19.0	0.00e+00	3	30	0	40894464	52	6902
2026-01-16 11:27:29.64	32.71	3.73	-40.2	-41.8	18.8	0.00e+00	3	30	0	42991616	52	7063
2026-01-16 11:27:30.65	32.84	3.76	-40.1	-41.7	18.9	0.00e+00	64	30	0	44040192	52	6985
2026-01-16 11:27:31.66	32.97	3.79	-39.9	-41.5	19.2	0.00e+00	6	30	0	46137344	52	6795
2026-01-16 11:27:32.67	33.10	3.83	-39.6	-41.1	19.6	0.00e+00	92	30	0	48234496	52	6496
2026-01-16 11:27:33.68	33.22	3.86	-40.2	-41.8	18.9	0.00e+00	7	30	0	50331648	52	7077
2026-01-16 11:27:34.69	33.35	3.90	-39.6	-41.0	19.6	0.00e+00	92	30	0	52428800	52	6464
2026-01-16 11:27:35.70	33.48	3.93	-39.5	-41.0	19.8	0.00e+00	3	30	0	53477376	52	6408
2026-01-16 11:27:36.71	33.61	3.96	-39.6	-41.0	19.7	0.00e+00	3	30	0	55574528	52	6401
2026-01-16 11:27:37.72	33.74	3.99	-39.6	-41.0	19.7	0.00e+00	5	30	0	57671680	52	6418
2026-01-16 11:27:38.73	33.87	4.03	-39.7	-41.1	19.6	0.00e+00	22	30	0	59768832	52	6523
2026-01-16 11:27:39.74	34.00	4.06	-40.0	-41.6	19.2	0.00e+00	92	30	0	61865984	52	6850
2026-01-16 11:27:40.75	34.13	4.09	-40.0	-41.5	19.1	0.00e+00	22	30	0	62914560	52	6836
2026-01-16 11:27:41.76	34.26	4.13	-39.9	-41.4	19.3	0.00e+00	92	30	0	65011712	52	6737
2026-01-16 11:27:42.77	34.39	4.16	-39.5	-40.9	19.7	0.00e+00	58	30	0	67108864	52	6389
2026-01-16 11:27:43.78	34.52	4.19	-39.8	-41.3	19.3	0.00e+00	65	30	0	69206016	52	6676
2026-01-16 11:27:44.79	34.65	4.23	-39.7	-41.1	19.7	0.00e+00	61	30	0	71303168	52	6537
2026-01-16 11:27:45.80	34.78	4.26	-39.8	-41.3	19.4	0.00e+00	16	30	0	72351744	52	6645
2026-01-16 11:27:46.80	34.91	4.29	-39.9	-41.4	19.4	0.00e+00	0	30	0	74448896	52	6724
2026-01-16 11:27:47.81	35.04	4.32	-40.1	-41.6	19.3	0.00e+00	22	30	0	76546048	52	6910
2026-01-16 11:27:48.82	35.17	4.35	-40.3	-42.0	19.0	0.00e+00	92	30	0	78643200	52	7184
2026-01-16 11:27:49.83	35.30	4.39	-39.9	-41.4	19.3	0.00e+00	57	30	0	80740352	52	6761
2026-01-16 11:27:50.84	35.44	4.42	-40.1	-41.6	19.3	0.00e+00	90	30	0	81788928	52	6909
2026-01-16 11:27:51.85	35.57	4.45	-40.4	-42.0	18.9	0.00e+00	64	30	0	83886080	52	7200
2026-01-16 11:27:52.86	35.70	4.48	-40.1	-41.6	19.2	0.00e+00	0	30	0	85983232	52	6911
2026-01-16 11:27:53.87	35.84	4.52	-40.0	-41.5	19.3	0.00e+00	0	30	0	88080384	52	6786
2026-01-16 11:27:54.88	35.97	4.55	-40.2	-41.7	19.1	0.00e+00	0	30	0	90177536	52	6984
2026-01-16 11:27:55.89	36.10	4.58	-40.0	-41.5	19.5	0.00e+00	92	30	0	92274688	52	6793
2026-01-16 11:27:56.90	36.24	4.61	-40.3	-41.9	18.8	0.00e+00	0	30	0	93323264	52	7104
2026-01-16 11:27:57.92	36.37	4.64	-40.6	-42.3	18.7	0.00e+00	92	30	0	95420416	52	7486
2026-01-16 11:27:58.92	36.51	4.67	-40.3	-41.9	18.8	0.00e+00	0	30	0	97517568	54	6324
2026-01-16 11:27:59.93	36.64	4.70	-40.0	-41.5	19.4	0.00e+00	17	30	0	99614720	54	6042
2026-01-16 11:28:00.94	36.78	4.74	-39.7	-41.1	19.6	0.00e+00	0	30	0	101711872	52	6510
2026-01-16 11:28:01.96	36.91	4.77	-40.5	-42.1	18.7	0.00e+00	0	30	0	102760448	52	7317
2026-01-16 11:28:02.96	37.05	4.80	-39.7	-41.1	19.7	0.00e+00	73	30	0	104857600	52	6535
2026-01-16 11:28:03.98	37.19	4.83	-39.9	-41.4	19.4	0.00e+00	21	30	0	106954752	52	6766
2026-01-16 11:28:04.99	37.32	4.86	-40.0	-41.4	19.4	0.00e+00	91	30	0	109051904	52	6751
2026-01-16 11:28:06.00	37.46	4.89	-40.1	-41.6	19.5	0.00e+00	58	30	0	111149056	52	6886
2026-01-16 11:28:07.01	37.60	4.92	-39.9	-41.4	19.4	0.00e+00	23	30	0	112197632	52	6747
2026-01-16 11:28:08.01	37.73	4.95	-39.8	-41.2	19.6	0.00e+00	0	30	0	114294784	52	6600
2026-01-16 11:28:09.03	37.87	4.98	-39.7	-41.2	19.6	0.00e+00	65	30	0	116391936	52	6551
2026-01-16 11:28:10.04	38.01	5.01	-39.6	-41.0	19.9	0.00e+00	92	30	0	118489088	52	6403
2026-01-16 11:28:11.04	38.15	5.04	-40.0	-41.5	19.4	0.00e+00	0	30	0	120586240	52	6846
2026-01-16 11:28:12.06	38.29	5.07	-39.9	-41.3	19.4	0.00e+00	92	30	0	121634816	52	6692
2026-01-16 11:28:13.07	38.42	5.10	-39.8	-41.2	19.7	0.00e+00	0	30	0	123731968	52	6557
2026-01-16 11:28:14.08	38.56	5.13	-39.6	-41.0	19.9	0.00e+00	38	30	0	125829120	52	6445
2026-01-16 11:28:15.09	38.70	5.16	-40.0	-41.5	19.4	0.00e+00	2	30	0	127926272	52	6780
2026-01-16 11:28:16.10	38.84	5.19	-39.9	-41.3	19.6	0.00e+00	0	30	0	130023424	52	6668
2026-01-16 11:28:17.11	38.98	5.22	-40.0	-41.5	19.5	0.00e+00	0	30	0	131072000	52	6831
2026-01-16 11:28:18.12	39.12	5.25	-40.1	-41.6	19.3	0.00e+00	0	30	0	133169152	52	6853
2026-01-16 11:28:19.13	39.26	5.28	-40.2	-41.7	19.4	0.00e+00	92	30	0	135266304	52	6961
2026-01-16 11:28:20.14	39.40	5.31	-40.0	-41.4	19.7	0.00e+00	3	30	0	137363456	52	6727
2026-01-16 11:28:21.15	39.54	5.34	-39.8	-41.2	19.8	0.00e+00	92	30	0	139460608	52	6560
2026-01-16 11:28:22.16	39.68	5.37	-39.9	-41.3	19.6	0.00e+00	0	30	0	140509184	52	6639
2026-01-16 11:28:23.17	39.83	5.40	-40.3	-41.8	19.4	0.00e+00	22	30	0	142606336	52	7010
2026-01-16 11:28:24.18	39.97	5.43	-40.2	-41.7	19.3	0.00e+00	57	30	0	144703488	52	6988
2026-01-16 11:28:25.19	40.11	5.46	-40.3	-41.8	19.4	0.00e+00	23	30	0	146800640	52	7027
2026-01-16 11:28:26.19	40.25	5.49	-40.1	-41.6	19.3	0.00e+00	23	30	0	148897792	52	6900
2026-01-16 11:28:27.20	40.39	5.51	-39.9	-41.3	19.5	0.00e+00	0	30	0	149946368	52	6684
2026-01-16 11:28:28.22	40.54	5.54	-40.3	-41.8	19.1	0.00e+00	92	30	0	152043520	52	7065
2026-01-16 11:28:29.22	40.68	5.57	-40.6	-42.2	18.9	0.00e+00	59	30	0	154140672	52	7345
2026-01-16 11:28:30.23	40.82	5.60	-40.2	-41.7	19.3	0.00e+00	0	30	0	156237824	52	6953
2026-01-16 11:28:31.24	40.97	5.63	-40.1	-41.6	19.4	0.00e+00	57	29	0	158334976	52	6876
2026-01-16 11:28:32.25	41.11	5.66	-40.2	-41.7	19.4	0.00e+00	0	30	0	160432128	52	6939
2026-01-16 11:28:33.26	41.25	5.68	-40.2	-41.7	19.4	0.00e+00	0	30	0	161480704	52	6989
2026-01-16 11:28:34.27	41.40	5.71	-40.2	-41.6	19.4	0.00e+00	0	30	0	163577856	52	6918
2026-01-16 11:28:35.28	41.54	5.74	-40.2	-41.6	19.4	0.00e+00	92	30	0	165675008	52	6922
2026-01-16 11:28:36.29	41.69	5.77	-40.5	-42.1	19.0	0.00e+00	0	30	0	167772160	52	7262
2026-01-16 11:28:37.30	41.83	5.79	-40.5	-42.1	19.0	0.00e+00	26	29	0	169869312	52	7283
2026-01-16 11:28:38.31	41.98	5.82	-40.2	-41.7	19.3	0.00e+00	0	30	0	170917888	52	6944
2026-01-16 11:28:39.32	42.12	5.85	-40.3	-41.9	19.1	0.00e+00	22	30	0	173015040	52	7134
2026-01-16 11:28:40.33	42.27	5.87	-40.4	-41.9	19.2	0.00e+00	0	30	0	175112192	52	7130
2026-01-16 11:28:41.34	42.42	5.90	-40.3	-41.8	19.3	0.00e+00	0	30	0	177209344	52	7036
2026-01-16 11:28:42.34	42.56	5.93	-40.1	-41.5	19.6	0.00e+00	92	29	0	179306496	52	6848
2026-01-16 11:28:43.36	42.71	5.96	-40.2	-41.6	19.5	0.00e+00	0	30	0	180355072	52	6900
2026-01-16 11:28:44.36	42.85	5.98	-40.2	-41.7	19.5	0.00e+00	90	30	0	182452224	52	6961
2026-01-16 11:28:45.38	43.00	6.01	-40.3	-41.8	19.6	0.00e+00	58	30	0	184549376	52	7036
2026-01-16 11:28:46.38	43.15	6.03	-40.2	-41.6	19.6	0.00e+00	61	29	0	186646528	52	6916
2026-01-16 11:28:47.39	43.30	6.06	-40.0	-41.5	19.7	0.00e+00	62	30	0	188743680	52	6776
2026-01-16 11:28:48.40	43.44	6.09	-39.6	-41.0	20.0	0.00e+00	59	29	0	189792256	52	6416
2026-01-16 11:28:49.41	43.59	6.11	-39.9	-41.2	19.8	0.00e+00	20	30	0	191889408	52	6613
2026-01-16 11:28:50.42	43.74	6.14	-39.8	-41.1	19.8	0.00e+00	7	29	0	193986560	52	6530
2026-01-16 11:28:51.43	43.89	6.16	-40.0	-41.4	19.6	0.00e+00	90	30	0	196083712	52	6754
2026-01-16 11:28:52.44	44.04	6.19	-40.1	-41.5	19.5	0.00e+00	59	29	0	198180864	52	6832
2026-01-16 11:28:53.45	44.19	6.21	-40.1	-41.6	19.5	0.00e+00	13	29	0	199229440	52	6868
2026-01-16 11:28:54.46	44.34	6.24	-39.9	-41.3	19.7	0.00e+00	61	30	0	201326592	52	6672
2026-01-16 11:28:55.47	44.49	6.26	-40.1	-41.6	19.5	0.00e+00	1	29	0	203423744	52	6895
2026-01-16 11:28:56.48	44.64	6.29	-40.3	-41.8	19.4	0.00e+00	0	30	0	205520896	52	7031
2026-01-16 11:28:57.49	44.79	6.31	-40.4	-41.9	19.3	0.00e+00	0	29	0	207618048	52	7142
2026-01-16 11:28:58.50	44.94	6.34	-40.4	-41.9	19.2	0.00e+00	92	29	0	208666624	52	7135
2026-01-16 11:28:59.51	45.09	6.36	-40.3	-41.8	19.4	0.00e+00	1	29	0	210763776	52	7033
2026-01-16 11:29:00.51	45.24	6.39	-40.1	-41.5	19.6	0.00e+00	91	29	0	212860928	52	6816
2026-01-16 11:29:01.52	45.39	6.41	-39.8	-41.2	19.9	0.00e+00	5	29	0	214958080	52	6589
2026-01-16 11:29:02.53	45.54	6.44	-40.0	-41.4	19.8	0.00e+00	17	29	0	217055232	52	6695
2026-01-16 11:29:03.54	45.69	6.46	-40.0	-41.4	19.4	0.00e+00	0	29	0	218103808	52	6760
2026-01-16 11:29:04.55	45.84	6.48	-40.1	-41.5	19.8	0.00e+00	3	29	0	220200960	52	6829
2026-01-16 11:29:05.56	46.00	6.51	-39.9	-41.3	19.8	0.00e+00	92	29	0	222298112	52	6667
2026-01-16 11:29:06.57	46.15	6.53	-39.7	-41.0	20.1	0.00e+00	62	29	0	224395264	52	6431
2026-01-16 11:29:07.58	46.30	6.55	-39.8	-41.1	20.1	0.00e+00	90	29	0	226492416	52	6508
2026-01-16 11:29:08.59	46.45	6.58	-39.8	-41.1	20.0	0.00e+00	63	29	0	228589568	52	6525
2026-01-16 11:29:09.60	46.61	6.60	-39.9	-41.3	19.9	0.00e+00	23	29	0	229638144	52	6674
2026-01-16 11:29:10.61	46.76	6.62	-39.9	-41.3	19.8	0.00e+00	66	29	0	231735296	52	6685
2026-01-16 11:29:11.62	46.92	6.65	-40.0	-41.4	19.7	0.00e+00	7	29	0	233832448	52	6747
2026-01-16 11:29:12.63	47.07	6.67	-40.1	-41.5	19.6	0.00e+00	92	29	0	235929600	52	6847
2026-01-16 11:29:13.64	47.22	6.69	-40.0	-41.4	19.7	0.00e+00	0	29	0	238026752	52	6764
2026-01-16 11:29:14.65	47.38	6.71	-40.1	-41.5	19.5	0.00e+00	92	29	0	239075328	52	6831
2026-01-16 11:29:15.66	47.53	6.74	-40.1	-41.6	19.6	0.00e+00	7	29	0	241172480	52	6857
2026-01-16 11:29:16.67	47.69	6.76	-40.0	-41.5	19.6	0.00e+00	19	29	0	243269632	52	6790
2026-01-16 11:29:17.68	47.84	6.78	-40.3	-41.7	19.5	0.00e+00	6	29	0	245366784	52	6972
2026-01-16 11:29:18.68	48.00	6.80	-40.2	-41.7	19.6	0.00e+00	6	29	0	247463936	52	6934
2026-01-16 11:29:19.69	48.15	6.82	-40.3	-41.7	19.5	0.00e+00	0	29	0	248512512	52	6983
2026-01-16 11:29:20.70	48.31	6.84	-40.2	-41.7	19.4	0.00e+00	0	29	0	250609664	52	6955
2026-01-16 11:29:21.71	48.46	6.86	-40.0	-41.5	19.7	0.00e+00	92	29	0	252706816	52	6785
2026-01-16 11:29:22.72	48.62	6.89	-40.1	-41.5	19.7	0.00e+00	0	29	0	254803968	52	6807
2026-01-16 11:29:23.73	48.77	6.91	-40.0	-41.4	19.7	0.00e+00	85	29	0	256901120	52	6706
2026-01-16 11:29:24.74	48.93	6.93	-40.3	-41.7	19.7	0.00e+00	0	29	0	257949696	52	6945
2026-01-16 11:29:25.75	49.09	6.95	-40.2	-41.6	19.7	0.00e+00	24	29	0	260046848	52	6875
2026-01-16 11:29:26.76	49.24	6.97	-40.1	-41.5	19.6	0.00e+00	0	29	0	262144000	52	6848
2026-01-16 11:29:27.77	49.40	6.99	-40.0	-41.5	19.6	0.00e+00	18	29	0	264241152	52	6773
2026-01-16 11:29:28.78	49.56	7.01	-40.0	-41.5	19.6	0.00e+00	90	29	0	266338304	52	6784
2026-01-16 11:29:29.79	49.72	7.03	-40.4	-41.9	19.5	0.00e+00	17	29	0	267386880	52	7125
2026-01-16 11:29:30.80	49.87	7.05	-40.1	-41.6	19.6	0.00e+00	90	29	0	269484032	52	6869
2026-01-16 11:29:31.81	50.03	7.07	-40.1	-41.6	19.7	0.00e+00	18	29	0	271581184	52	6862
2026-01-16 11:29:32.82	50.19	7.09	-40.2	-41.6	19.6	0.00e+00	63	29	0	273678336	52	6907
2026-01-16 11:29:33.83	50.35	7.11	-40.2	-41.7	19.4	0.00e+00	64	29	0	275775488	52	7000
2026-01-16 11:29:34.84	50.51	7.12	-40.1	-41.6	19.5	0.00e+00	63	29	0	276824064	52	6911
2026-01-16 11:29:35.85	50.67	7.14	-40.2	-41.7	19.5	0.00e+00	83	29	0	278921216	52	6953
2026-01-16 11:29:36.86	50.83	7.16	-40.3	-41.8	19.4	0.00e+00	0	29	0	281018368	52	7083
2026-01-16 11:29:37.87	50.99	7.18	-40.2	-41.7	19.6	0.00e+00	92	29	0	283115520	52	6938
2026-01-16 11:29:38.88	51.14	7.20	-40.2	-41.6	19.6	0.00e+00	0	29	0	285212672	52	6894
2026-01-16 11:29:39.89	51.30	7.22	-40.2	-41.6	19.6	0.00e+00	0	29	0	286261248	52	6885
2026-01-16 11:29:40.90	51.46	7.24	-40.5	-41.9	19.6	0.00e+00	0	29	0	288358400	52	7159
2026-01-16 11:29:41.91	51.62	7.25	-40.2	-41.7	19.5	0.00e+00	0	29	0	290455552	52	6981
2026-01-16 11:29:42.92	51.78	7.27	-40.3	-41.8	19.6	0.00e+00	23	29	0	292552704	52	7062
2026-01-16 11:29:43.93	51.94	7.29	-40.1	-41.5	19.7	0.00e+00	22	29	0	294649856	52	6834
2026-01-16 11:29:44.94	52.11	7.31	-40.1	-41.5	19.6	0.00e+00	90	29	0	296747008	52	6837
2026-01-16 11:29:45.95	52.27	7.32	-40.0	-41.4	19.8	0.00e+00	0	29	0	297795584	52	6746
2026-01-16 11:29:46.96	52.43	7.34	-39.9	-41.3	19.9	0.00e+00	89	29	0	299892736	52	6654
2026-01-16 11:29:47.97	52.59	7.36	-39.9	-41.3	19.9	0.00e+00	23	29	0	301989888	52	6671
2026-01-16 11:29:48.98	52.75	7.37	-40.2	-41.6	19.8	0.00e+00	23	29	0	304087040	52	6891
2026-01-16 11:29:49.99	52.91	7.39	-40.2	-41.6	19.6	0.00e+00	69	29	0	306184192	52	6925
2026-01-16 11:29:51.00	53.07	7.41	-40.3	-41.7	19.7	0.00e+00	57	29	0	307232768	52	6962
2026-01-16 11:29:52.00	53.23	7.42	-39.9	-41.3	20.0	0.00e+00	90	29	0	309329920	52	6656
2026-01-16 11:29:53.02	53.40	7.44	-40.0	-41.4	19.8	0.00e+00	2	29	0	311427072	52	6736
2026-01-16 11:29:54.03	53.56	7.45	-40.0	-41.4	19.8	0.00e+00	90	29	0	313524224	52	6732
2026-01-16 11:29:55.04	53.72	7.47	-40.0	-41.4	19.9	0.00e+00	2	29	0	315621376	52	6721
2026-01-16 11:29:56.05	53.88	7.48	-39.9	-41.3	19.9	0.00e+00	2	29	0	316669952	52	6639
2026-01-16 11:29:57.05	54.04	7.50	-40.1	-41.5	19.8	0.00e+00	59	29	0	318767104	52	6848
2026-01-16 11:29:58.07	54.21	7.51	-39.9	-41.3	20.0	0.00e+00	0	29	0	320864256	52	6630
2026-01-16 11:29:59.08	54.37	7.53	-40.1	-41.5	19.9	0.00e+00	80	29	0	322961408	52	6799
2026-01-16 11:30:00.09	54.54	7.54	-40.1	-41.5	19.9	0.00e+00	0	29	0	325058560	52	6834
2026-01-16 11:30:01.10	54.70	7.56	-40.3	-41.7	19.8	0.00e+00	92	29	0	326107136	52	6935
2026-01-16 11:30:02.11	54.86	7.57	-40.3	-41.7	19.9	0.00e+00	0	29	0	328204288	52	6996
2026-01-16 11:30:03.12	55.03	7.59	-40.2	-41.6	19.8	0.00e+00	0	29	0	330301440	52	6853
2026-01-16 11:30:04.12	55.19	7.60	-40.0	-41.4	20.0	0.00e+00	17	29	0	332398592	52	6712
2026-01-16 11:30:05.14	55.35	7.61	-40.1	-41.5	19.9	0.00e+00	18	29	0	334495744	52	6786
2026-01-16 11:30:06.14	55.52	7.63	-40.4	-41.8	19.7	0.00e+00	0	29	0	335544320	52	7028
2026-01-16 11:30:07.16	55.68	7.64	-40.2	-41.7	19.6	0.00e+00	0	29	0	337641472	52	6944
2026-01-16 11:30:08.17	55.85	7.65	-40.2	-41.7	19.6	0.00e+00	92	29	0	339738624	52	6931
2026-01-16 11:30:09.18	56.01	7.67	-40.3	-41.8	19.5	0.00e+00	22	29	0	341835776	52	7033
2026-01-16 11:30:10.19	56.18	7.68	-40.5	-41.9	19.5	0.00e+00	92	29	0	343932928	52	7156
2026-01-16 11:30:11.19	56.34	7.69	-40.5	-42.0	19.4	0.00e+00	0	29	0	344981504	52	7194
2026-01-16 11:30:12.20	56.50	7.70	-40.7	-42.2	19.2	0.00e+00	59	29	0	347078656	54	6592
2026-01-16 11:30:13.21	56.67	7.72	-40.6	-42.1	19.2	0.00e+00	60	29	0	349175808	54	6507
2026-01-16 11:30:14.22	56.83	7.73	-40.5	-42.0	19.3	0.00e+00	57	29	0	351272960	54	6425
2026-01-16 11:30:15.23	57.00	7.74	-40.3	-41.8	19.4	0.00e+00	92	29	0	353370112	54	6300
2026-01-16 11:30:16.24	57.16	7.75	-40.4	-41.9	19.2	0.00e+00	0	29	0	354418688	54	6363
2026-01-16 11:30:17.25	57.33	7.76	-40.5	-42.0	19.2	0.00e+00	92	29	0	356515840	54	6459
2026-01-16 11:30:18.26	57.50	7.77	-40.3	-41.9	19.3	0.00e+00	0	29	0	358612992	54	6328
2026-01-16 11:30:19.27	57.66	7.78	-40.4	-42.0	19.3	0.00e+00	0	29	0	360710144	54	6391
2026-01-16 11:30:20.28	57.83	7.79	-40.4	-41.8	19.4	0.00e+00	0	29	0	362807296	54	6316
2026-01-16 11:30:21.29	57.99	7.80	-40.3	-41.7	19.5	0.00e+00	2	29	0	364904448	54	6241
2026-01-16 11:30:22.30	58.16	7.81	-40.6	-42.1	19.5	0.00e+00	81	29	0	365953024	54	6515
2026-01-16 11:30:23.31	58.33	7.82	-40.1	-41.6	19.6	0.00e+00	2	29	0	368050176	54	6138
2026-01-16 11:30:24.32	58.49	7.83	-40.1	-41.6	19.7	0.00e+00	92	29	0	370147328	54	6115
2026-01-16 11:30:25.33	58.66	7.84	-40.1	-41.5	19.6	0.00e+00	21	29	0	372244480	54	6078
2026-01-16 11:30:26.34	58.83	7.85	-40.3	-41.8	19.5	0.00e+00	2	29	0	374341632	54	6256
2026-01-16 11:30:27.35	58.99	7.86	-40.5	-42.0	19.4	0.00e+00	0	29	0	375390208	54	6414
2026-01-16 11:30:28.36	59.16	7.87	-40.4	-41.9	19.3	0.00e+00	16	29	0	377487360	54	6384
2026-01-16 11:30:29.37	59.33	7.88	-40.6	-42.2	19.0	0.00e+00	0	29	0	379584512	54	6543
2026-01-16 11:30:30.38	59.49	7.89	-40.8	-42.4	18.9	0.00e+00	16	29	0	381681664	54	6751
2026-01-16 11:30:31.39	59.66	7.90	-40.9	-42.5	18.7	0.00e+00	91	29	0	383778816	54	6832
2026-01-16 11:30:32.40	59.83	7.91	-41.0	-42.7	18.5	0.00e+00	18	29	0	384827392	54	6936
2026-01-16 11:30:33.41	60.00	7.91	-41.0	-42.6	18.6	0.00e+00	90	29	0	386924544	54	6891
2026-01-16 11:30:34.42	60.16	7.92	-41.1	-42.8	18.6	0.00e+00	0	29	0	389021696	54	7028
2026-01-16 11:30:35.43	60.33	7.93	-41.0	-42.7	18.6	0.00e+00	0	29	0	391118848	54	6949
2026-01-16 11:30:36.44	60.50	7.94	-41.0	-42.6	18.6	0.00e+00	0	29	0	393216000	54	6905
2026-01-16 11:30:37.45	60.67	7.94	-41.0	-42.6	18.6	0.00e+00	5	29	0	394264576	54	6914
2026-01-16 11:30:38.46	60.83	7.95	-41.0	-42.7	18.8	0.00e+00	90	29	0	396361728	54	6946
2026-01-16 11:30:39.47	61.00	7.96	-40.9	-42.5	18.8	0.00e+00	0	29	0	398458880	54	6807
2026-01-16 11:30:40.48	61.17	7.96	-40.9	-42.5	19.0	0.00e+00	92	29	0	400556032	54	6809
2026-01-16 11:30:41.49	61.34	7.97	-40.4	-41.9	19.4	0.00e+00	6	29	0	402653184	54	6348
2026-01-16 11:30:42.50	61.51	7.98	-40.4	-41.9	19.4	0.00e+00	2	29	0	403701760	54	6346
2026-01-16 11:30:43.51	61.67	7.98	-40.3	-41.8	19.6	0.00e+00	0	29	0	405798912	54	6269
2026-01-16 11:30:44.52	61.84	7.99	-40.2	-41.6	19.8	0.00e+00	21	29	0	407896064	54	6138
2026-01-16 11:30:45.53	62.01	7.99	-40.3	-41.7	19.5	0.00e+00	15	29	0	409993216	54	6195
2026-01-16 11:30:46.54	62.18	8.00	-40.3	-41.6	19.8	0.00e+00	21	29	0	412090368	54	6171
2026-01-16 11:30:47.55	62.35	8.00	-40.1	-41.6	19.7	0.00e+00	92	29	0	413138944	54	6115
2026-01-16 11:30:48.56	62.52	8.01	-40.0	-41.4	19.8	0.00e+00	21	29	0	415236096	54	6026
2026-01-16 11:30:49.57	62.68	8.01	-40.1	-41.6	19.8	0.00e+00	0	29	0	417333248	54	6156
2026-01-16 11:30:50.58	62.85	8.02	-40.2	-41.7	19.6	0.00e+00	64	29	0	419430400	54	6192
2026-01-16 11:30:51.59	63.02	8.02	-40.4	-41.9	19.5	0.00e+00	20	29	0	421527552	54	6365
2026-01-16 11:30:52.60	63.19	8.03	-40.3	-41.8	19.4	0.00e+00	2	29	0	422576128	54	6304
2026-01-16 11:30:53.61	63.36	8.03	-40.5	-42.0	19.4	0.00e+00	21	29	0	424673280	54	6399
2026-01-16 11:30:54.62	63.53	8.03	-40.1	-41.5	19.7	0.00e+00	92	29	0	426770432	54	6093
2026-01-16 11:30:55.63	63.70	8.04	-40.2	-41.6	19.6	0.00e+00	7	29	0	428867584	54	6167
2026-01-16 11:30:56.64	63.86	8.04	-40.5	-42.0	19.6	0.00e+00	92	29	0	430964736	54	6411
2026-01-16 11:30:57.65	64.03	8.04	-40.2	-41.6	19.8	0.00e+00	4	29	0	433061888	54	6126
2026-01-16 11:30:58.66	64.20	8.05	-40.3	-41.7	19.9	0.00e+00	2	29	0	434110464	54	6204
2026-01-16 11:30:59.67	64.37	8.05	-40.0	-41.4	19.9	0.00e+00	0	29	0	436207616	54	6013
2026-01-16 11:31:00.68	64.54	8.05	-39.8	-41.2	20.1	0.00e+00	2	29	0	438304768	54	5846
2026-01-16 11:31:01.69	64.71	8.05	-39.7	-41.0	20.3	0.00e+00	92	29	0	440401920	52	6428
2026-01-16 11:31:02.69	64.88	8.06	-39.6	-40.9	20.4	0.00e+00	3	29	0	442499072	52	6371
2026-01-16 11:31:03.71	65.05	8.06	-39.7	-41.0	20.4	0.00e+00	92	29	0	443547648	52	6403
2026-01-16 11:31:04.72	65.22	8.06	-39.8	-41.2	20.3	0.00e+00	3	29	0	445644800	52	6557
2026-01-16 11:31:05.73	65.39	8.06	-40.0	-41.3	20.5	0.00e+00	22	29	0	447741952	52	6641
2026-01-16 11:31:06.74	65.56	8.06	-39.8	-41.1	20.4	0.00e+00	22	29	0	449839104	52	6531
2026-01-16 11:31:07.75	65.72	8.06	-39.6	-40.9	20.3	0.00e+00	1	29	0	451936256	52	6340
2026-01-16 11:31:08.76	65.89	8.06	-39.7	-41.0	20.2	0.00e+00	65	29	0	452984832	52	6434
2026-01-16 11:31:09.76	66.06	8.06	-39.6	-41.0	20.4	0.00e+00	22	29	0	455081984	52	6401
2026-01-16 11:31:10.77	66.23	8.06	-39.7	-41.1	20.1	0.00e+00	90	29	0	457179136	52	6501
2026-01-16 11:31:11.78	66.40	8.06	-39.6	-41.0	20.2	0.00e+00	22	29	0	459276288	52	6420
2026-01-16 11:31:12.79	66.57	8.06	-39.7	-41.1	20.4	0.00e+00	73	29	0	461373440	52	6487
2026-01-16 11:31:13.80	66.74	8.06	-39.6	-41.0	20.3	0.00e+00	23	28	0	462422016	52	6396
2026-01-16 11:31:14.81	66.91	8.06	-39.7	-41.0	20.6	0.00e+00	58	29	0	464519168	52	6436
2026-01-16 11:31:15.82	67.08	8.06	-39.4	-40.7	20.7	0.00e+00	72	29	0	466616320	52	6199
2026-01-16 11:31:16.83	67.25	8.06	-39.0	-40.3	20.9	0.00e+00	0	29	0	468713472	52	5908
2026-01-16 11:31:17.84	67.41	8.06	-39.1	-40.4	20.7	0.00e+00	92	28	0	470810624	52	5984
2026-01-16 11:31:18.85	67.58	8.06	-38.9	-40.1	21.0	0.00e+00	60	29	0	471859200	52	5793
2026-01-16 11:31:19.86	67.75	8.06	-38.9	-40.1	21.0	0.00e+00	59	29	0	473956352	52	5807
2026-01-16 11:31:20.87	67.92	8.06	-39.0	-40.3	20.6	0.00e+00	0	29	0	476053504	52	5897
2026-01-16 11:31:21.88	68.09	8.05	-38.9	-40.1	20.8	0.00e+00	0	29	0	478150656	52	5801
2026-01-16 11:31:22.89	68.26	8.05	-39.0	-40.2	21.0	0.00e+00	0	29	0	480247808	52	5880
2026-01-16 11:31:23.90	68.43	8.05	-39.1	-40.4	20.9	0.00e+00	0	29	0	481296384	52	6002
2026-01-16 11:31:24.91	68.60	8.05	-39.2	-40.5	20.8	0.00e+00	92	28	0	483393536	52	6067
2026-01-16 11:31:25.92	68.77	8.04	-39.1	-40.3	20.9	0.00e+00	22	29	0	485490688	52	5942
2026-01-16 11:31:26.93	68.94	8.04	-39.1	-40.3	20.9	0.00e+00	92	29	0	487587840	52	5929
2026-01-16 11:31:27.94	69.10	8.04	-39.1	-40.3	20.9	0.00e+00	17	28	0	489684992	52	5934
2026-01-16 11:31:28.95	69.27	8.03	-39.0	-40.3	20.8	0.00e+00	0	29	0	490733568	52	5899
2026-01-16 11:31:29.96	69.44	8.03	-39.0	-40.3	20.9	0.00e+00	17	28	0	492830720	52	5914
2026-01-16 11:31:30.97	69.61	8.02	-39.0	-40.3	20.9	0.00e+00	4	29	0	494927872	52	5906
2026-01-16 11:31:31.97	69.78	8.02	-39.1	-40.3	20.9	0.00e+00	15	29	0	497025024	52	5948
2026-01-16 11:31:32.99	69.95	8.02	-39.0	-40.2	21.0	0.00e+00	65	29	0	499122176	52	5836
2026-01-16 11:31:34.00	70.12	8.01	-38.9	-40.1	21.0	0.00e+00	92	28	0	501219328	52	5791
2026-01-16 11:31:35.01	70.29	8.01	-38.9	-40.1	21.0	0.00e+00	17	28	0	502267904	52	5776
2026-01-16 11:31:36.02	70.45	8.00	-39.0	-40.2	20.9	0.00e+00	0	29	0	504365056	52	5889
2026-01-16 11:31:37.03	70.62	8.00	-39.2	-40.4	20.8	0.00e+00	60	28	0	506462208	52	6022
2026-01-16 11:31:38.03	70.79	7.99	-38.8	-40.0	21.1	0.00e+00	60	28	0	508559360	52	5738
2026-01-16 11:31:39.04	70.96	7.99	-38.8	-40.0	21.2	0.00e+00	0	28	0	510656512	52	5716
2026-01-16 11:31:40.05	71.13	7.98	-38.9	-40.1	21.0	0.00e+00	62	28	0	511705088	52	5795
2026-01-16 11:31:41.06	71.29	7.97	-38.8	-40.1	21.0	0.00e+00	92	29	0	513802240	52	5773
2026-01-16 11:31:42.07	71.46	7.97	-38.9	-40.1	21.0	0.00e+00	0	29	0	515899392	52	5771
2026-01-16 11:31:43.08	71.63	7.96	-39.0	-40.2	20.9	0.00e+00	51	28	0	517996544	52	5869
2026-01-16 11:31:44.09	71.80	7.95	-39.0	-40.2	21.0	0.00e+00	0	28	0	520093696	52	5887
2026-01-16 11:31:45.11	71.97	7.95	-39.0	-40.2	21.0	0.00e+00	3	28	0	521142272	52	5874
2026-01-16 11:31:46.11	72.13	7.94	-38.9	-40.1	21.1	0.00e+00	0	28	0	523239424	52	5800
2026-01-16 11:31:47.12	72.30	7.93	-38.8	-40.0	21.1	0.00e+00	0	28	0	525336576	52	5723
2026-01-16 11:31:48.13	72.47	7.92	-38.9	-40.1	21.0	0.00e+00	92	28	0	527433728	52	5765
2026-01-16 11:31:49.14	72.64	7.92	-38.6	-39.7	21.3	0.00e+00	0	28	0	529530880	50	6223
2026-01-16 11:31:50.15	72.81	7.91	-38.7	-39.9	21.2	0.00e+00	90	28	0	530579456	50	6326
2026-01-16 11:31:51.17	72.97	7.90	-38.9	-40.0	21.1	0.00e+00	21	28	0	532676608	50	6457
2026-01-16 11:31:52.18	73.14	7.89	-38.9	-40.1	21.0	0.00e+00	58	28	0	534773760	50	6531
2026-01-16 11:31:53.19	73.31	7.88	-38.8	-40.0	21.1	0.00e+00	61	28	0	536870912	50	6410
2026-01-16 11:31:54.20	73.48	7.88	-38.9	-40.1	20.8	0.00e+00	2	28	0	538968064	50	6538
2026-01-16 11:31:55.21	73.64	7.87	-38.9	-40.1	21.0	0.00e+00	92	28	0	540016640	50	6492
2026-01-16 11:31:56.22	73.81	7.86	-38.9	-40.1	20.9	0.00e+00	0	28	0	542113792	50	6473
2026-01-16 11:31:57.23	73.98	7.85	-39.0	-40.2	20.8	0.00e+00	92	28	0	544210944	50	6602
2026-01-16 11:31:58.23	74.14	7.84	-39.1	-40.3	20.6	0.00e+00	63	28	0	546308096	50	6668
2026-01-16 11:31:59.24	74.31	7.83	-39.0	-40.2	20.8	0.00e+00	48	28	0	548405248	50	6562
2026-01-16 11:32:00.25	74.48	7.82	-38.9	-40.1	20.8	0.00e+00	64	28	0	549453824	50	6537
2026-01-16 11:32:01.26	74.64	7.81	-38.9	-40.2	20.9	0.00e+00	0	28	0	551550976	50	6544
2026-01-16 11:32:02.27	74.81	7.80	-39.1	-40.3	20.7	0.00e+00	18	28	0	553648128	50	6649
2026-01-16 11:32:03.28	74.98	7.79	-39.1	-40.3	20.7	0.00e+00	0	28	0	555745280	50	6683
2026-01-16 11:32:04.29	75.14	7.78	-39.1	-40.3	20.7	0.00e+00	92	28	0	557842432	50	6653
2026-01-16 11:32:05.30	75.31	7.77	-39.2	-40.5	20.6	0.00e+00	0	28	0	558891008	50	6799
2026-01-16 11:32:06.31	75.47	7.75	-39.0	-40.2	20.7	0.00e+00	90	28	0	560988160	50	6608
2026-01-16 11:32:07.32	75.64	7.74	-39.1	-40.4	20.7	0.00e+00	21	28	0	563085312	50	6731
2026-01-16 11:32:08.33	75.81	7.73	-39.2	-40.5	20.6	0.00e+00	0	28	0	565182464	50	6778
2026-01-16 11:32:09.34	75.97	7.72	-39.0	-40.2	20.7	0.00e+00	0	28	0	567279616	50	6615
2026-01-16 11:32:10.35	76.14	7.71	-38.8	-40.1	20.8	0.00e+00	0	28	0	569376768	50	6493
2026-01-16 11:32:11.36	76.30	7.69	-39.0	-40.2	20.8	0.00e+00	90	28	0	570425344	50	6597
2026-01-16 11:32:12.37	76.47	7.68	-38.7	-40.0	20.9	0.00e+00	61	28	0	572522496	50	6402
2026-01-16 11:32:13.38	76.63	7.67	-38.7	-39.9	21.0	0.00e+00	92	28	0	574619648	50	6348
2026-01-16 11:32:14.39	76.80	7.66	-38.6	-39.8	21.1	0.00e+00	19	28	0	576716800	50	6271
2026-01-16 11:32:15.40	76.96	7.64	-38.4	-39.7	21.2	0.00e+00	33	28	0	578813952	50	6183
2026-01-16 11:32:16.41	77.13	7.63	-38.4	-39.7	21.2	0.00e+00	60	28	0	579862528	50	6185
2026-01-16 11:32:17.42	77.29	7.62	-38.5	-39.9	21.0	0.00e+00	61	28	0	581959680	50	6325
2026-01-16 11:32:18.43	77.45	7.60	-38.8	-40.1	20.9	0.00e+00	15	28	0	584056832	50	6489
2026-01-16 11:32:19.43	77.62	7.59	-38.8	-40.1	20.8	0.00e+00	6	28	0	586153984	50	6512
2026-01-16 11:32:20.44	77.78	7.58	-38.9	-40.3	20.7	0.00e+00	91	28	0	588251136	50	6618
2026-01-16 11:32:21.45	77.94	7.56	-38.9	-40.2	20.7	0.00e+00	59	28	0	589299712	50	6581
2026-01-16 11:32:22.46	78.11	7.55	-38.9	-40.2	20.7	0.00e+00	92	28	0	591396864	50	6570
2026-01-16 11:32:23.47	78.27	7.53	-39.0	-40.2	20.7	0.00e+00	2	28	0	593494016	50	6608
2026-01-16 11:32:24.48	78.44	7.52	-38.8	-40.2	20.8	0.00e+00	1	28	0	595591168	50	6551
2026-01-16 11:32:25.49	78.60	7.50	-38.6	-40.1	20.9	0.00e+00	6	28	0	597688320	50	6465
2026-01-16 11:32:26.50	78.76	7.49	-38.6	-40.1	20.9	0.00e+00	1	28	0	598736896	50	6471
2026-01-16 11:32:27.51	78.92	7.47	-38.4	-40.0	20.9	0.00e+00	92	28	0	600834048	50	6460
2026-01-16 11:32:28.52	79.09	7.46	-38.2	-39.9	21.0	0.00e+00	15	28	0	602931200	50	6333
2026-01-16 11:32:29.53	79.25	7.44	-38.0	-39.7	21.1	0.00e+00	92	28	0	605028352	50	6241
2026-01-16 11:32:30.54	79.41	7.43	-38.1	-39.9	21.0	0.00e+00	5	28	0	607125504	50	6364
2026-01-16 11:32:31.55	79.57	7.41	-38.1	-39.8	21.0	0.00e+00	5	28	0	608174080	50	6315
2026-01-16 11:32:32.56	79.74	7.39	-38.1	-39.9	21.1	0.00e+00	1	28	0	610271232	50	6365
2026-01-16 11:32:33.57	79.90	7.38	-38.1	-39.9	21.0	0.00e+00	0	28	0	612368384	50	6328
2026-01-16 11:32:34.58	80.06	7.36	-38.2	-39.9	21.1	0.00e+00	92	28	0	614465536	50	6364
2026-01-16 11:32:35.59	80.22	7.34	-37.9	-39.6	21.3	0.00e+00	69	28	0	616562688	50	6164
2026-01-16 11:32:36.60	80.38	7.33	-38.0	-39.7	21.2	0.00e+00	90	28	0	617611264	50	6228
2026-01-16 11:32:37.61	80.54	7.31	-37.7	-39.3	21.5	0.00e+00	66	28	0	619708416	48	6685
2026-01-16 11:32:38.62	80.71	7.29	-37.6	-39.3	21.5	0.00e+00	6	28	0	621805568	48	6658
2026-01-16 11:32:39.62	80.87	7.28	-37.6	-39.1	21.7	0.00e+00	6	28	0	623902720	48	6526
2026-01-16 11:32:40.64	81.03	7.26	-37.5	-39.0	21.9	0.00e+00	7	28	0	625999872	48	6436
2026-01-16 11:32:41.64	81.19	7.24	-37.6	-39.2	21.7	0.00e+00	0	28	0	627048448	48	6553
2026-01-16 11:32:42.66	81.35	7.22	-37.6	-39.1	21.7	0.00e+00	65	28	0	629145600	48	6500
2026-01-16 11:32:43.67	81.51	7.20	-37.7	-39.1	21.7	0.00e+00	92	28	0	631242752	48	6534
2026-01-16 11:32:44.68	81.67	7.19	-37.9	-39.3	21.5	0.00e+00	5	28	0	633339904	48	6669
2026-01-16 11:32:45.69	81.83	7.17	-38.0	-39.5	21.3	0.00e+00	92	28	0	635437056	48	6806
2026-01-16 11:32:46.70	81.99	7.15	-38.0	-39.6	21.2	0.00e+00	6	28	0	637534208	48	6860
2026-01-16 11:32:47.71	82.15	7.13	-38.0	-39.6	21.3	0.00e+00	2	28	0	638582784	48	6851
2026-01-16 11:32:48.72	82.31	7.11	-38.0	-39.7	21.1	0.00e+00	2	28	0	640679936	48	6932
2026-01-16 11:32:49.73	82.46	7.09	-37.9	-39.5	21.3	0.00e+00	21	28	0	642777088	48	6838
2026-01-16 11:32:50.74	82.62	7.07	-38.0	-39.7	21.0	0.00e+00	92	28	0	644874240	48	6988
2026-01-16 11:32:51.75	82.78	7.05	-37.8	-39.6	21.2	0.00e+00	21	28	0	646971392	48	6871
2026-01-16 11:32:52.76	82.94	7.03	-37.9	-39.7	21.2	0.00e+00	92	28	0	648019968	48	6979
2026-01-16 11:32:53.77	83.10	7.01	-37.9	-39.8	21.1	0.00e+00	59	28	0	650117120	48	7033
2026-01-16 11:32:54.78	83.26	6.99	-37.7	-39.6	21.2	0.00e+00	20	28	0	652214272	48	6857
2026-01-16 11:32:55.79	83.41	6.97	-37.8	-39.7	21.1	0.00e+00	68	28	0	654311424	48	6968
2026-01-16 11:32:56.80	83.57	6.95	-37.9	-39.8	21.1	0.00e+00	21	28	0	656408576	48	7039
2026-01-16 11:32:57.81	83.73	6.93	-37.9	-39.8	21.0	0.00e+00	74	28	0	657457152	48	7055
2026-01-16 11:32:58.82	83.89	6.91	-37.8	-39.7	21.1	0.00e+00	66	28	0	659554304	48	7001
2026-01-16 11:32:59.83	84.04	6.89	-37.8	-39.8	21.1	0.00e+00	92	28	0	661651456	48	7014
2026-01-16 11:33:00.84	84.20	6.87	-37.7	-39.5	21.2	0.00e+00	67	28	0	663748608	48	6845
2026-01-16 11:33:01.85	84.36	6.85	-37.7	-39.4	21.4	0.00e+00	65	28	0	665845760	48	6755
2026-01-16 11:33:02.86	84.51	6.83	-37.5	-39.1	21.7	0.00e+00	2	28	0	666894336	48	6526
2026-01-16 11:33:03.87	84.67	6.80	-37.6	-39.2	21.6	0.00e+00	0	28	0	668991488	48	6559
2026-01-16 11:33:04.89	84.83	6.78	-37.7	-39.2	21.6	0.00e+00	89	28	0	671088640	48	6586
2026-01-16 11:33:05.90	84.98	6.76	-37.9	-39.4	21.5	0.00e+00	0	28	0	673185792	48	6741
2026-01-16 11:33:06.91	85.14	6.74	-37.9	-39.3	21.4	0.00e+00	91	28	0	675282944	48	6645
2026-01-16 11:33:07.92	85.29	6.72	-38.0	-39.4	21.3	0.00e+00	0	28	0	677380096	48	6722
2026-01-16 11:33:08.93	85.45	6.69	-38.1	-39.5	21.2	0.00e+00	91	28	0	678428672	48	6823
2026-01-16 11:33:09.94	85.60	6.67	-38.5	-39.9	20.8	0.00e+00	0	28	0	680525824	48	7112
2026-01-16 11:33:10.95	85.75	6.65	-38.7	-40.1	20.5	0.00e+00	20	28	0	682622976	48	7334
2026-01-16 11:33:11.96	85.91	6.63	-38.8	-40.3	20.3	0.00e+00	0	28	0	684720128	50	6646
2026-01-16 11:33:12.97	86.06	6.60	-39.0	-40.6	20.0	0.00e+00	61	28	0	686817280	50	6860
2026-01-16 11:33:13.98	86.22	6.58	-39.1	-40.6	20.0	0.00e+00	92	28	0	687865856	50	6880
2026-01-16 11:33:14.99	86.37	6.56	-39.1	-40.7	20.0	0.00e+00	4	28	0	689963008	50	6938
2026-01-16 11:33:16.00	86.52	6.53	-39.4	-41.0	19.7	0.00e+00	92	28	0	692060160	50	7233
2026-01-16 11:33:17.01	86.68	6.51	-39.1	-40.6	20.2	0.00e+00	20	28	0	694157312	50	6885
2026-01-16 11:33:18.02	86.83	6.49	-38.9	-40.3	20.4	0.00e+00	0	28	0	696254464	50	6667
2026-01-16 11:33:19.03	86.98	6.46	-38.9	-40.3	20.3	0.00e+00	0	28	0	697303040	50	6686
2026-01-16 11:33:20.04	87.13	6.44	-38.7	-40.1	20.5	0.00e+00	2	28	0	699400192	50	6504
2026-01-16 11:33:21.05	87.29	6.41	-38.7	-40.1	20.5	0.00e+00	92	28	0	701497344	50	6501
2026-01-16 11:33:22.06	87.44	6.39	-38.9	-40.3	20.4	0.00e+00	60	28	0	703594496	50	6659
2026-01-16 11:33:23.07	87.59	6.36	-38.8	-40.2	20.7	0.00e+00	92	28	0	705691648	50	6571
2026-01-16 11:33:24.07	87.74	6.34	-38.6	-40.0	20.8	0.00e+00	2	28	0	706740224	50	6405
2026-01-16 11:33:25.08	87.89	6.32	-38.6	-40.0	20.8	0.00e+00	0	28	0	708837376	50	6411
2026-01-16 11:33:26.09	88.04	6.29	-38.6	-40.0	20.7	0.00e+00	0	28	0	710934528	50	6419
2026-01-16 11:33:27.10	88.19	6.27	-38.6	-39.9	20.7	0.00e+00	0	28	0	713031680	50	6352
2026-01-16 11:33:28.11	88.34	6.24	-39.0	-40.4	20.3	0.00e+00	80	28	0	715128832	50	6712
2026-01-16 11:33:29.12	88.49	6.21	-38.8	-40.2	20.4	0.00e+00	14	28	0	716177408	50	6571
2026-01-16 11:33:30.13	88.64	6.19	-39.0	-40.4	20.2	0.00e+00	92	28	0	718274560	50	6751
2026-01-16 11:33:31.14	88.79	6.16	-39.3	-40.7	19.9	0.00e+00	0	28	0	720371712	50	6977
2026-01-16 11:33:32.15	88.94	6.14	-39.2	-40.6	20.2	0.00e+00	92	28	0	722468864	50	6869
2026-01-16 11:33:33.16	89.09	6.11	-39.3	-40.6	20.1	0.00e+00	1	28	0	724566016	50	6910
2026-01-16 11:33:34.17	89.24	6.09	-39.3	-40.7	20.1	0.00e+00	66	28	0	725614592	50	6939
2026-01-16 11:33:35.18	89.39	6.06	-39.6	-41.0	19.7	0.00e+00	0	28	0	727711744	50	7249
2026-01-16 11:33:36.19	89.54	6.03	-40.0	-41.5	19.2	0.00e+00	22	28	0	729808896	52	6837
2026-01-16 11:33:37.20	89.68	6.01	-40.3	-42.0	18.7	0.00e+00	92	28	0	731906048	52	7194
2026-01-16 11:33:38.21	89.83	5.98	-40.6	-42.5	18.2	0.00e+00	2	28	0	734003200	52	7675
2026-01-16 11:33:39.22	89.98	5.95	-40.7	-42.8	18.0	0.00e+00	58	28	0	735051776	52	7867
2026-01-16 11:33:40.23	90.13	5.93	-40.4	-42.4	18.3	0.00e+00	60	28	0	737148928	52	7519
2026-01-16 11:33:41.24	90.27	5.90	-40.6	-42.5	18.1	0.00e+00	2	28	0	739246080	52	7651
2026-01-16 11:33:42.25	90.42	5.87	-40.7	-42.6	18.0	0.00e+00	0	28	0	741343232	54	6912
2026-01-16 11:33:43.26	90.57	5.85	-40.5	-42.4	18.1	0.00e+00	61	28	0	743440384	54	6737
2026-01-16 11:33:44.27	90.71	5.82	-40.3	-42.2	18.3	0.00e+00	92	28	0	745537536	54	6596
2026-01-16 11:33:45.29	90.86	5.79	-40.4	-42.3	18.3	0.00e+00	0	28	0	746586112	54	6647
2026-01-16 11:33:46.30	91.01	5.76	-40.3	-42.1	18.5	0.00e+00	92	28	0	748683264	54	6511
2026-01-16 11:33:47.31	91.15	5.74	-40.2	-42.0	18.7	0.00e+00	0	28	0	750780416	54	6393
2026-01-16 11:33:48.32	91.30	5.71	-40.3	-42.0	18.7	0.00e+00	20	28	0	752877568	54	6453
2026-01-16 11:33:49.33	91.44	5.68	-40.1	-41.7	18.9	0.00e+00	0	28	0	754974720	54	6225
2026-01-16 11:33:50.34	91.59	5.65	-40.1	-41.7	18.9	0.00e+00	18	28	0	756023296	54	6223
2026-01-16 11:33:51.35	91.73	5.62	-40.2	-41.8	18.9	0.00e+00	73	28	0	758120448	54	6249
2026-01-16 11:33:52.36	91.87	5.60	-40.0	-41.6	19.0	0.00e+00	0	28	0	760217600	54	6112
2026-01-16 11:33:53.37	92.02	5.57	-39.9	-41.4	19.1	0.00e+00	91	28	0	762314752	54	6006
2026-01-16 11:33:54.38	92.16	5.54	-39.8	-41.4	19.2	0.00e+00	0	28	0	764411904	54	5985
2026-01-16 11:33:55.39	92.30	5.51	-39.8	-41.4	19.2	0.00e+00	0	28	0	765460480	52	6757
2026-01-16 11:33:56.39	92.45	5.48	-40.1	-41.9	18.8	0.00e+00	19	28	0	767557632	52	7133
2026-01-16 11:33:57.40	92.59	5.45	-40.2	-42.3	18.4	0.00e+00	68	28	0	769654784	52	7460
2026-01-16 11:33:58.41	92.73	5.42	-40.3	-42.5	18.2	0.00e+00	0	28	0	771751936	52	7659
2026-01-16 11:33:59.42	92.87	5.39	-40.3	-42.5	18.2	0.00e+00	68	28	0	773849088	52	7645
2026-01-16 11:34:00.41	93.01	5.37	-40.7	-42.9	17.8	0.00e+00	92	28	0	774897664	52	7970
2026-01-16 11:34:01.42	93.15	5.34	-41.4	-43.7	16.9	0.00e+00	69	28	0	776994816	54	7801
2026-01-16 11:34:02.43	93.30	5.31	-41.4	-43.7	16.8	0.00e+00	92	28	0	779091968	54	7807
2026-01-16 11:34:03.44	93.44	5.28	-41.2	-43.7	16.7	0.00e+00	0	28	0	781189120	54	7841
2026-01-16 11:34:04.45	93.58	5.25	-41.3	-44.1	16.5	0.00e+00	0	28	0	783286272	54	8160
2026-01-16 11:34:05.46	93.72	5.22	-41.3	-44.2	16.4	0.00e+00	6	28	0	784334848	54	8265
2026-01-16 11:34:06.47	93.86	5.19	-41.4	-44.3	16.3	0.00e+00	1	28	0	786432000	54	8374
2026-01-16 11:34:07.48	94.00	5.16	-41.4	-44.2	16.4	0.00e+00	92	28	0	788529152	54	8264
2026-01-16 11:34:08.49	94.14	5.13	-41.1	-43.9	16.7	0.00e+00	3	28	0	790626304	54	7988
2026-01-16 11:34:09.50	94.28	5.10	-41.0	-43.8	16.8	0.00e+00	92	28	0	792723456	54	7904
2026-01-16 11:34:10.51	94.42	5.07	-41.0	-44.4	16.1	0.00e+00	3	28	0	793772032	54	8468
2026-01-16 11:34:11.52	94.56	5.04	-40.1	-43.8	16.7	0.00e+00	15	28	0	795869184	54	7917
2026-01-16 11:34:12.53	94.69	5.01	-39.9	-44.0	16.5	0.00e+00	18	28	0	797966336	54	8127
2026-01-16 11:34:13.54	94.83	4.98	-40.0	-43.9	16.7	0.00e+00	2	28	0	800063488	54	8037
2026-01-16 11:34:14.55	94.97	4.95	-40.3	-43.8	16.7	0.00e+00	0	28	0	802160640	54	7871
2026-01-16 11:34:15.56	95.11	4.91	-41.0	-43.7	16.8	0.00e+00	4	28	0	803209216	54	7849
2026-01-16 11:34:16.57	95.25	4.88	-41.1	-43.5	17.1	0.00e+00	92	28	0	805306368	54	7599
2026-01-16 11:34:17.57	95.38	4.85	-41.1	-43.3	17.3	0.00e+00	0	28	0	807403520	54	7440
2026-01-16 11:34:18.58	95.52	4.82	-40.8	-43.1	17.5	0.00e+00	67	28	0	809500672	54	7323
2026-01-16 11:34:19.60	95.66	4.79	-40.9	-43.2	17.5	0.00e+00	16	28	0	811597824	54	7415
2026-01-16 11:34:20.61	95.79	4.76	-40.8	-43.0	17.6	0.00e+00	18	28	0	812646400	54	7248
2026-01-16 11:34:21.62	95.93	4.73	-40.9	-43.0	17.5	0.00e+00	10	28	0	814743552	54	7207
2026-01-16 11:34:22.62	96.06	4.70	-40.4	-43.0	17.5	0.00e+00	69	28	0	816840704	54	7176
2026-01-16 11:34:23.63	96.20	4.66	-39.9	-42.9	17.5	0.00e+00	90	28	0	818937856	54	7151
2026-01-16 11:34:24.64	96.34	4.63	-39.7	-43.3	17.3	0.00e+00	69	28	0	821035008	52	8342
2026-01-16 11:34:25.66	96.47	4.60	-39.7	-43.6	16.9	0.00e+00	92	28	0	822083584	52	8656
2026-01-16 11:34:26.67	96.61	4.57	-39.5	-43.4	17.2	0.00e+00	3	28	0	824180736	52	8461
2026-01-16 11:34:27.67	96.74	4.54	-39.7	-43.2	17.1	0.00e+00	0	28	0	826277888	52	8311
2026-01-16 11:34:28.68	96.87	4.51	-40.1	-43.4	17.0	0.00e+00	6	28	0	828375040	52	8503
2026-01-16 11:34:29.70	97.01	4.47	-40.2	-43.0	17.4	0.00e+00	0	28	0	830472192	52	8064
2026-01-16 11:34:30.70	97.14	4.44	-40.2	-42.7	17.6	0.00e+00	92	28	0	831520768	52	7852
2026-01-16 11:34:31.71	97.27	4.41	-40.3	-42.6	17.8	0.00e+00	0	28	0	833617920	52	7730
2026-01-16 11:34:32.72	97.41	4.38	-40.7	-43.0	17.3	0.00e+00	90	28	0	835715072	52	8092
2026-01-16 11:34:33.73	97.54	4.34	-40.4	-42.6	17.6	0.00e+00	13	28	0	837812224	52	7756
2026-01-16 11:34:34.74	97.67	4.31	-40.6	-43.0	17.2	0.00e+00	13	28	0	839909376	52	8113
2026-01-16 11:34:35.75	97.81	4.28	-40.7	-42.9	17.6	0.00e+00	13	28	0	842006528	52	7955
2026-01-16 11:34:36.76	97.94	4.25	-41.3	-43.4	17.0	0.00e+00	18	28	0	843055104	54	7586
2026-01-16 11:34:37.77	98.07	4.21	-41.3	-43.6	16.8	0.00e+00	92	28	0	845152256	54	7689
2026-01-16 11:34:38.78	98.20	4.18	-41.1	-43.8	16.5	0.00e+00	19	28	0	847249408	54	7922
2026-01-16 11:34:39.79	98.33	4.15	-40.3	-43.8	16.7	0.00e+00	92	28	0	849346560	54	7894
2026-01-16 11:34:40.80	98.46	4.11	-39.5	-43.7	16.7	0.00e+00	20	28	0	851443712	52	8766
2026-01-16 11:34:41.81	98.59	4.08	-38.9	-44.2	16.1	0.00e+00	72	28	0	852492288	52	9312
2026-01-16 11:34:42.82	98.72	4.05	-38.2	-44.0	16.3	0.00e+00	0	28	0	854589440	50	10211
2026-01-16 11:34:43.83	98.85	4.01	-38.0	-43.9	16.1	0.00e+00	0	28	0	856686592	50	10066
2026-01-16 11:34:44.84	98.98	3.98	-38.2	-43.4	16.8	0.00e+00	79	28	0	858783744	50	9507
2026-01-16 11:34:45.85	99.11	3.95	-38.4	-42.8	17.6	0.00e+00	0	28	0	860880896	50	8854
2026-01-16 11:34:46.86	99.24	3.91	-38.9	-42.9	17.3	0.00e+00	90	28	0	861929472	50	8958
2026-01-16 11:34:47.87	99.37	3.88	-38.9	-42.2	18.0	0.00e+00	0	28	0	864026624	50	8316
2026-01-16 11:34:48.88	99.50	3.85	-38.9	-42.2	17.9	0.00e+00	89	28	0	866123776	50	8237
2026-01-16 11:34:49.89	99.63	3.81	-39.4	-42.6	17.7	0.00e+00	0	28	0	868220928	50	8630
2026-01-16 11:34:50.90	99.75	3.78	-39.5	-42.0	18.0	0.00e+00	0	28	0	870318080	50	8107
2026-01-16 11:34:51.91	99.88	3.74	-39.6	-42.0	18.0	0.00e+00	0	28	0	871366656	50	8067
2026-01-16 11:34:52.91	100.01	3.71	-39.9	-42.1	17.9	0.00e+00	18	28	0	873463808	52	7327
2026-01-16 11:34:53.92	100.14	3.68	-40.3	-42.4	17.6	0.00e+00	92	28	0	875560960	52	7551
2026-01-16 11:34:54.94	100.26	3.64	-40.3	-42.3	17.8	0.00e+00	16	28	0	877658112	52	7492
2026-01-16 11:34:55.94	100.39	3.61	-40.5	-42.3	17.8	0.00e+00	90	28	0	879755264	52	7507
2026-01-16 11:34:56.95	100.52	3.57	-40.4	-42.2	18.0	0.00e+00	16	28	0	880803840	52	7401
2026-01-16 11:34:57.96	100.64	3.54	-41.0	-43.0	17.3	0.00e+00	2	28	0	882900992	54	7208
2026-01-16 11:34:58.97	100.77	3.51	-40.7	-42.9	17.4	0.00e+00	0	28	0	884998144	54	7105
2026-01-16 11:34:59.98	100.89	3.47	-40.0	-42.6	17.3	0.00e+00	71	28	0	887095296	54	6884
2026-01-16 11:35:00.99	101.02	3.44	-40.0	-44.0	15.8	0.00e+00	13	28	0	889192448	54	8074
2026-01-16 11:35:02.00	101.14	3.40	-39.7	-43.7	16.1	0.00e+00	69	28	0	890241024	52	8782
2026-01-16 11:35:03.01	101.27	3.37	-39.4	-42.3	17.5	0.00e+00	90	28	0	892338176	52	7498
2026-01-16 11:35:04.02	101.39	3.33	-39.8	-41.8	18.3	0.00e+00	70	28	0	894435328	52	7061
2026-01-16 11:35:05.03	101.52	3.30	-41.2	-43.5	16.5	0.00e+00	67	28	0	896532480	54	7617
2026-01-16 11:35:06.04	101.64	3.26	-40.9	-43.0	17.1	0.00e+00	0	27	0	898629632	54	7201
2026-01-16 11:35:07.05	101.76	3.23	-40.7	-42.9	17.1	0.00e+00	0	28	0	899678208	54	7104
2026-01-16 11:35:08.06	101.89	3.19	-40.7	-43.4	16.4	0.00e+00	74	28	0	901775360	54	7582
2026-01-16 11:35:09.07	102.01	3.16	-40.2	-43.7	16.3	0.00e+00	0	28	0	903872512	54	7803
2026-01-16 11:35:10.08	102.13	3.12	-39.6	-43.5	16.4	0.00e+00	92	28	0	905969664	52	8582
2026-01-16 11:35:11.09	102.25	3.09	-39.4	-43.3	17.0	0.00e+00	0	28	0	908066816	52	8341
2026-01-16 11:35:12.10	102.38	3.05	-39.5	-43.3	16.6	0.00e+00	92	28	0	909115392	52	8362
2026-01-16 11:35:13.11	102.50	3.02	-39.3	-42.6	17.0	0.00e+00	0	28	0	911212544	52	7739
2026-01-16 11:35:14.12	102.62	2.98	-43.5	-61.8	3.6	1.25e+00	0	28	104	912261120	60	44709
2026-01-16 11:35:15.13	102.74	2.95	-47.1	-62.4	3.6	1.51e+00	0	28	104	912261120	60	47708
2026-01-16 11:35:16.14	102.86	2.91	-47.3	-62.6	3.6	1.51e+00	0	28	104	912261120	60	48975
2026-01-16 11:35:17.15	102.98	2.87	-47.6	-62.8	3.6	1.51e+00	0	28	104	912261120	60	49992
2026-01-16 11:35:18.16	103.10	2.84	-47.7	-62.9	3.6	1.51e+00	0	28	104	912261120	60	50508
2026-01-16 11:35:19.17	103.22	2.80	-47.6	-62.9	3.6	1.51e+00	0	28	104	912261120	60	50388
2026-01-16 11:35:20.17	103.34	2.77	-47.8	-63.0	3.6	1.51e+00	0	28	104	912261120	60	51077
2026-01-16 11:35:21.18	103.46	2.73	-47.8	-63.0	3.6	1.51e+00	0	28	104	912261120	60	51160
2026-01-16 11:35:22.20	103.58	2.70	-47.8	-63.0	3.6	1.51e+00	0	28	104	912261120	60	50902
2026-01-16 11:35:23.20	103.70	2.66	-47.7	-63.0	3.6	1.51e+00	0	28	104	912261120	60	51055
2026-01-16 11:35:24.21	103.82	2.62	-47.8	-63.0	3.6	1.51e+00	0	28	104	912261120	60	51085
2026-01-16 11:35:25.22	103.94	2.59	-47.8	-63.0	3.6	1.51e+00	0	28	104	912261120	60	51110
2026-01-16 11:35:26.23	104.05	2.55	-47.7	-63.0	3.6	1.51e+00	0	28	104	912261120	60	51031
2026-01-16 11:35:27.24	104.17	2.52	-47.8	-63.0	3.6	1.51e+00	0	28	104	912261120	60	51101
2026-01-16 11:35:28.25	104.29	2.48	-47.8	-63.0	3.6	1.51e+00	0	28	104	912261120	60	51162
2026-01-16 11:35:29.26	104.41	2.44	-47.8	-63.0	3.6	1.51e+00	0	28	104	912261120	60	51293
2026-01-16 11:35:30.27	104.52	2.41	-47.8	-63.1	3.6	1.51e+00	0	28	104	912261120	60	51405
2026-01-16 11:35:31.28	104.64	2.37	-47.8	-63.0	3.6	1.51e+00	0	28	104	912261120	60	51077
2026-01-16 11:35:32.29	104.76	2.34	-47.8	-63.0	3.6	1.51e+00	0	28	104	912261120	60	51243
2026-01-16 11:35:33.30	104.87	2.30	-47.8	-63.0	3.6	1.51e+00	0	28	104	912261120	60	51108
2026-01-16 11:35:34.31	104.99	2.26	-47.9	-63.1	3.6	1.51e+00	0	28	104	912261120	60	51524
2026-01-16 11:35:35.32	105.10	2.23	-47.8	-63.1	3.6	1.51e+00	0	28	104	912261120	60	51405
2026-01-16 11:35:36.33	105.22	2.19	-47.8	-63.0	3.6	1.51e+00	0	28	104	912261120	60	51249
2026-01-16 11:35:37.34	105.34	2.15	-47.9	-63.1	3.6	1.51e+00	0	28	104	912261120	60	51540
2026-01-16 11:35:38.35	105.45	2.12	-47.9	-63.1	3.6	1.51e+00	0	28	104	912261120	60	51693
2026-01-16 11:35:39.36	105.56	2.08	-47.8	-63.1	3.6	1.51e+00	0	28	104	912261120	60	51498
2026-01-16 11:35:40.38	105.68	2.04	-47.9	-63.1	3.6	1.51e+00	0	28	104	912261120	60	51586
2026-01-16 11:35:41.39	105.79	2.01	-47.9	-63.0	3.6	1.51e+00	0	28	104	912261120	60	51200
2026-01-16 11:35:42.40	105.91	1.97	-47.9	-63.1	3.6	1.51e+00	0	28	104	912261120	60	51454
2026-01-16 11:35:43.41	106.02	1.93	-47.9	-63.1	3.6	1.51e+00	0	28	104	912261120	60	51709
2026-01-16 11:35:44.41	106.13	1.90	-48.0	-63.2	3.6	1.51e+00	0	28	104	912261120	60	51966
2026-01-16 11:35:45.43	106.25	1.86	-47.9	-63.1	3.6	1.51e+00	0	28	104	912261120	60	51618
2026-01-16 11:35:46.43	106.36	1.82	-47.8	-63.0	3.6	1.51e+00	0	28	104	912261120	60	51053
2026-01-16 11:35:47.44	106.47	1.79	-47.9	-63.1	3.6	1.51e+00	0	28	104	912261120	60	51408
2026-01-16 11:35:48.45	106.58	1.75	-47.9	-63.1	3.6	1.51e+00	0	28	104	912261120	60	51884
2026-01-16 11:35:49.46	106.70	1.71	-47.9	-63.1	3.5	1.51e+00	0	28	104	912261120	60	51412
2026-01-16 11:35:50.47	106.81	1.67	-47.9	-63.0	3.6	1.51e+00	0	28	104	912261120	60	51318
2026-01-16 11:35:51.48	106.92	1.64	-47.8	-63.0	3.6	1.51e+00	0	28	104	912261120	60	51099
2026-01-16 11:35:52.49	107.03	1.60	-47.9	-63.1	3.6	1.51e+00	0	28	104	912261120	60	51617
2026-01-16 11:35:53.50	107.14	1.56	-47.9	-63.1	3.6	1.51e+00	0	28	104	912261120	60	51615
2026-01-16 11:35:54.51	107.25	1.53	-47.8	-63.1	3.6	1.51e+00	0	28	104	912261120	60	51362
2026-01-16 11:35:55.52	107.36	1.49	-47.9	-63.1	3.6	1.51e+00	0	28	104	912261120	60	51545
2026-01-16 11:35:56.53	107.47	1.45	-47.9	-63.0	3.6	1.51e+00	0	28	104	912261120	60	51243
2026-01-16 11:35:57.54	107.58	1.41	-47.9	-63.2	3.6	1.51e+00	0	28	104	912261120	60	52005
2026-01-16 11:35:58.55	107.69	1.38	-48.0	-63.2	3.6	1.51e+00	0	28	104	912261120	60	52333
2026-01-16 11:35:59.56	107.80	1.34	-48.0	-63.2	3.6	1.51e+00	0	28	104	912261120	60	52112
2026-01-16 11:36:00.57	107.91	1.30	-47.9	-63.1	3.6	1.51e+00	0	28	104	912261120	60	51494
2026-01-16 11:36:01.58	108.02	1.26	-48.0	-63.2	3.6	1.51e+00	0	28	104	912261120	60	52305
2026-01-16 11:36:02.59	108.13	1.23	-48.0	-63.2	3.6	1.51e+00	0	28	104	912261120	60	52360
2026-01-16 11:36:03.54	108.23	1.19	-48.0	-63.2	3.6	1.51e+00	0	28	104	912261120	60	52113
2026-01-16 11:36:04.55	108.34	1.15	-47.9	-63.1	3.6	1.51e+00	0	28	104	912261120	60	51594
2026-01-16 11:36:05.56	108.44	1.12	-48.1	-63.3	3.6	1.51e+00	0	28	104	912261120	60	52832
2026-01-16 11:36:06.57	108.55	1.08	-48.1	-63.2	3.6	1.51e+00	0	28	104	912261120	60	52518
2026-01-16 11:36:07.58	108.66	1.04	-47.9	-63.1	3.6	1.51e+00	0	28	104	912261120	60	51508
2026-01-16 11:36:08.59	108.77	1.00	-47.9	-63.1	3.6	1.51e+00	0	28	104	912261120	60	51823
2026-01-16 11:36:09.60	108.87	0.96	-48.1	-63.3	3.6	1.51e+00	0	28	104	912261120	60	52644
2026-01-16 11:36:10.61	108.98	0.93	-47.9	-63.1	3.6	1.51e+00	0	28	104	912261120	60	51707
2026-01-16 11:36:11.62	109.09	0.89	-48.1	-63.3	3.6	1.51e+00	0	28	104	912261120	60	52824
2026-01-16 11:36:12.63	109.19	0.85	-47.9	-63.1	3.6	1.51e+00	0	28	104	912261120	60	51708
2026-01-16 11:36:13.64	109.30	0.81	-48.0	-63.2	3.6	1.51e+00	0	28	104	912261120	60	52238
2026-01-16 11:36:14.65	109.40	0.78	-48.0	-63.2	3.6	1.51e+00	0	28	104	912261120	60	52304
2026-01-16 11:36:15.66	109.51	0.74	-48.0	-63.2	3.6	1.51e+00	0	28	104	912261120	60	52490
2026-01-16 11:36:16.67	109.61	0.70	-48.1	-63.3	3.6	1.51e+00	0	28	104	912261120	60	52614
2026-01-16 11:36:17.68	109.72	0.66	-48.2	-63.4	3.6	1.51e+00	0	28	104	912261120	60	53346
2026-01-16 11:36:18.69	109.82	0.62	-47.9	-63.1	3.6	1.51e+00	0	28	104	912261120	60	51358
2026-01-16 11:36:19.70	109.93	0.59	-48.0	-63.1	3.6	1.51e+00	0	28	104	912261120	60	51888
2026-01-16 11:36:20.71	110.03	0.55	-48.0	-63.2	3.6	1.51e+00	0	28	104	912261120	60	51986
2026-01-16 11:36:21.72	110.13	0.51	-48.1	-63.3	3.6	1.51e+00	0	28	104	912261120	60	52691
2026-01-16 11:36:22.73	110.24	0.47	-48.1	-63.3	3.6	1.51e+00	0	28	104	912261120	60	52798
2026-01-16 11:36:23.74	110.34	0.43	-47.9	-63.1	3.6	1.51e+00	0	28	104	912261120	60	51420
2026-01-16 11:36:24.75	110.44	0.40	-47.9	-63.1	3.6	1.51e+00	0	28	104	912261120	60	51847
2026-01-16 11:36:25.76	110.54	0.36	-47.9	-63.2	3.6	1.51e+00	0	28	104	912261120	60	52071
2026-01-16 11:36:26.77	110.65	0.32	-48.0	-63.2	3.6	1.51e+00	0	28	104	912261120	60	52157
2026-01-16 11:36:27.78	110.75	0.28	-48.0	-63.1	3.6	1.51e+00	0	28	104	912261120	60	51884
2026-01-16 11:36:28.79	110.85	0.24	-47.9	-63.1	3.6	1.51e+00	0	28	104	912261120	60	51861
2026-01-16 11:36:29.80	110.95	0.20	-47.9	-63.1	3.6	1.51e+00	0	28	104	912261120	60	51821
2026-01-16 11:36:30.81	111.05	0.17	-47.9	-63.1	3.6	1.51e+00	0	28	104	912261120	60	51858
2026-01-16 11:36:31.82	111.16	0.13	-47.9	-63.1	3.6	1.51e+00	0	28	104	912261120	60	51869
2026-01-16 11:36:32.83	111.26	0.09	-48.0	-63.2	3.6	1.51e+00	0	28	104	912261120	60	52368
2026-01-16 11:36:33.84	111.36	0.05	-48.1	-63.3	3.6	1.51e+00	0	28	104	912261120	60	52609
2026-01-16 11:36:34.85	111.46	0.01	-48.0	-63.2	3.6	1.51e+00	0	28	104	912261120	60	52011
2026-01-16 11:36:35.86	111.56	-0.03	-47.9	-63.2	3.6	1.51e+00	0	28	104	912261120	60	51982

#Closed at: 2026-01-16 11:36:36
#Recorded file [912 MB]: D:/lorett/data/35029_260116_232551.dat