passes_logs/2026/01/16/R4.6S_Anadyr/R4.6S_Anadyr__20260116_050226_FENGYUN_3D_rec.log

#Pass ID: 20260116_050226_FENGYUN 3D
#Satellite: FENGYUN 3D
#Configuration: FENGYUN 3D
#almurnet v.1.7.20251203
#Start time: 2026-01-16 05:02:27

#Version: 2.2.20231116
#Station: R4.6S_Anadyr
#Location: 177.4865 lon 64.73178 lat
#TLE: 1 43010U 17072A   26014.65117763 -.00000217  00000+0 -80772-4 0  9993
#TLE: 2 43010  98.9933 346.4618 0002330 108.4699 251.6730 14.19694700423204

#Time	Az	El	Level	Level2	SNR	BER	BlckErr	Temp	State	Recorded	gain1	gain2
2026-01-16 05:02:27.79	230.30	0.05	-48.6	-66.3	3.5	3.04e+01	0	26	0	0	60	79478
2026-01-16 05:02:28.80	230.39	0.09	-48.2	-60.3	3.6	8.47e-01	0	27	104	0	60	37360
2026-01-16 05:02:29.81	230.47	0.14	-48.7	-60.8	3.6	8.46e-01	0	27	104	0	60	39610
2026-01-16 05:02:30.82	230.56	0.18	-48.6	-60.8	3.6	8.46e-01	0	27	104	0	60	39432
2026-01-16 05:02:31.83	230.65	0.23	-48.5	-60.7	3.6	8.46e-01	0	27	104	0	60	39379
2026-01-16 05:02:32.84	230.74	0.27	-48.1	-60.3	3.6	8.45e-01	0	27	104	0	60	37446
2026-01-16 05:02:33.85	230.82	0.32	-48.0	-60.2	3.6	8.45e-01	0	27	104	0	60	36980
2026-01-16 05:02:34.86	230.91	0.37	-47.9	-60.1	3.6	8.45e-01	0	27	104	0	60	36724
2026-01-16 05:02:35.87	231.00	0.41	-48.0	-60.1	3.6	8.46e-01	0	27	104	0	60	36645
2026-01-16 05:02:36.88	231.09	0.46	-48.0	-60.2	3.6	8.45e-01	0	27	104	0	60	36789
2026-01-16 05:02:37.89	231.17	0.50	-47.9	-60.3	3.6	8.45e-01	0	27	104	0	60	37204
2026-01-16 05:02:38.90	231.26	0.55	-48.0	-60.1	3.6	8.45e-01	0	27	104	0	60	36483
2026-01-16 05:02:39.91	231.35	0.59	-47.3	-60.2	3.6	8.44e-01	0	27	104	0	60	36833
2026-01-16 05:02:40.91	231.44	0.64	-47.8	-60.2	3.6	8.45e-01	0	27	104	0	60	36882
2026-01-16 05:02:41.92	231.53	0.69	-48.0	-60.2	3.6	8.45e-01	0	27	104	0	60	36807
2026-01-16 05:02:42.93	231.62	0.73	-48.0	-60.1	3.6	8.46e-01	0	27	104	0	60	36674
2026-01-16 05:02:43.94	231.71	0.78	-47.8	-60.0	3.6	8.45e-01	0	27	104	0	60	36203
2026-01-16 05:02:44.95	231.80	0.82	-47.7	-59.8	3.6	8.45e-01	0	27	104	0	60	35212
2026-01-16 05:02:45.96	231.89	0.87	-47.3	-59.4	3.6	8.44e-01	0	27	104	0	60	33694
2026-01-16 05:02:46.97	231.98	0.92	-46.2	-58.6	3.6	8.45e-01	0	27	104	0	60	30612
2026-01-16 05:02:47.98	232.07	0.96	-45.5	-57.6	3.6	8.46e-01	0	27	104	0	60	27278
2026-01-16 05:02:48.99	232.16	1.01	-45.5	-57.5	3.6	8.44e-01	0	27	104	0	60	27222
2026-01-16 05:02:50.00	232.25	1.05	-45.4	-57.5	3.6	8.46e-01	0	27	104	0	60	27162
2026-01-16 05:02:51.01	232.35	1.10	-45.4	-57.5	3.6	8.46e-01	0	27	104	0	60	27102
2026-01-16 05:02:52.02	232.44	1.14	-45.5	-57.6	3.6	8.45e-01	0	27	104	0	60	27367
2026-01-16 05:02:53.03	232.53	1.19	-45.4	-57.5	3.6	8.45e-01	0	27	104	0	60	27070
2026-01-16 05:02:54.04	232.62	1.24	-45.4	-57.5	3.6	8.45e-01	0	27	104	0	60	27213
2026-01-16 05:02:55.05	232.72	1.28	-45.5	-57.5	3.6	8.45e-01	0	28	104	0	60	26976
2026-01-16 05:02:56.06	232.81	1.33	-45.5	-57.5	3.5	8.45e-01	0	27	104	0	60	27188
2026-01-16 05:02:57.07	232.90	1.37	-45.4	-57.5	3.6	8.44e-01	0	27	104	0	60	27078
2026-01-16 05:02:58.08	233.00	1.42	-45.5	-57.5	3.6	8.44e-01	0	28	104	0	60	27160
2026-01-16 05:02:59.09	233.09	1.47	-45.5	-57.5	3.6	8.44e-01	0	28	104	0	60	27188
2026-01-16 05:03:00.10	233.18	1.51	-45.5	-57.6	3.6	8.45e-01	0	28	104	0	60	27374
2026-01-16 05:03:01.11	233.28	1.56	-45.4	-57.5	3.6	8.46e-01	0	28	104	0	60	27116
2026-01-16 05:03:02.12	233.37	1.61	-45.4	-57.5	3.6	8.45e-01	0	28	104	0	60	27149
2026-01-16 05:03:03.13	233.47	1.65	-45.4	-57.5	3.6	8.46e-01	0	28	104	0	60	27121
2026-01-16 05:03:04.14	233.56	1.70	-45.4	-57.5	3.6	8.46e-01	0	28	104	0	60	27165
2026-01-16 05:03:05.15	233.66	1.74	-45.4	-57.5	3.6	8.44e-01	0	28	104	0	60	27147
2026-01-16 05:03:06.16	233.76	1.79	-45.4	-57.6	3.5	8.45e-01	0	28	104	0	60	27265
2026-01-16 05:03:07.17	233.85	1.84	-45.4	-57.5	3.6	8.45e-01	0	28	104	0	60	27081
2026-01-16 05:03:08.18	233.95	1.88	-45.4	-57.5	3.6	8.45e-01	0	28	104	0	60	27081
2026-01-16 05:03:09.19	234.04	1.93	-45.4	-57.5	3.6	8.45e-01	0	28	104	0	60	27204
2026-01-16 05:03:10.20	234.14	1.97	-45.4	-57.5	3.6	8.46e-01	0	28	104	0	60	27194
2026-01-16 05:03:11.21	234.24	2.02	-45.5	-57.5	3.6	8.45e-01	0	28	104	0	60	27132
2026-01-16 05:03:12.22	234.34	2.07	-45.5	-57.6	3.6	8.46e-01	0	28	104	0	60	27339
2026-01-16 05:03:13.23	234.44	2.11	-45.5	-57.5	3.6	8.46e-01	0	28	104	0	60	27205
2026-01-16 05:03:14.24	234.53	2.16	-45.5	-57.5	3.6	8.45e-01	0	28	104	0	60	27105
2026-01-16 05:03:15.25	234.63	2.21	-45.5	-57.5	3.6	8.46e-01	0	28	104	0	60	27100
2026-01-16 05:03:16.26	234.73	2.25	-45.5	-57.5	3.6	8.46e-01	0	28	104	0	60	27218
2026-01-16 05:03:17.27	234.83	2.30	-45.5	-57.5	3.6	8.46e-01	0	28	104	0	60	27129
2026-01-16 05:03:18.28	234.93	2.34	-45.5	-57.6	3.6	8.45e-01	0	28	104	0	60	27340
2026-01-16 05:03:19.29	235.03	2.39	-45.5	-57.6	3.6	8.46e-01	0	28	104	0	60	27273
2026-01-16 05:03:20.30	235.13	2.44	-45.4	-57.5	3.6	8.46e-01	0	28	104	0	60	27093
2026-01-16 05:03:21.31	235.23	2.48	-45.5	-57.5	3.6	8.44e-01	0	28	104	0	60	27123
2026-01-16 05:03:22.32	235.33	2.53	-45.5	-57.6	3.6	8.46e-01	0	28	104	0	60	27288
2026-01-16 05:03:23.33	235.43	2.58	-45.4	-57.5	3.6	8.45e-01	0	28	104	0	60	27171
2026-01-16 05:03:24.34	235.53	2.62	-45.4	-57.5	3.6	8.44e-01	0	28	104	0	60	26978
2026-01-16 05:03:25.35	235.63	2.67	-45.4	-57.5	3.6	8.46e-01	0	28	104	0	60	27003
2026-01-16 05:03:26.36	235.74	2.71	-45.5	-57.5	3.6	8.44e-01	0	28	104	0	60	27214
2026-01-16 05:03:27.36	235.84	2.76	-45.4	-57.5	3.6	8.45e-01	0	28	104	0	60	27047
2026-01-16 05:03:28.37	235.94	2.81	-45.4	-57.5	3.6	8.45e-01	0	28	104	0	60	27098
2026-01-16 05:03:29.39	236.04	2.85	-45.4	-57.5	3.6	8.44e-01	0	28	104	0	60	27000
2026-01-16 05:03:30.40	236.15	2.90	-45.4	-57.5	3.6	8.46e-01	0	28	104	0	60	27081
2026-01-16 05:03:31.40	236.25	2.95	-45.5	-57.5	3.6	8.45e-01	0	28	104	0	60	27027
2026-01-16 05:03:32.41	236.35	2.99	-45.4	-57.5	3.6	8.45e-01	0	28	104	0	60	26987
2026-01-16 05:03:33.43	236.46	3.04	-45.5	-57.6	3.6	8.46e-01	0	28	104	0	60	27504
2026-01-16 05:03:34.43	236.56	3.08	-45.5	-57.6	3.6	8.47e-01	0	28	104	0	60	27283
2026-01-16 05:03:35.44	236.67	3.13	-45.4	-57.4	3.6	8.45e-01	0	28	104	0	60	26645
2026-01-16 05:03:36.45	236.77	3.18	-45.7	-57.5	3.6	8.46e-01	0	28	104	0	60	27073
2026-01-16 05:03:37.46	236.88	3.22	-45.5	-57.5	3.6	8.44e-01	0	28	104	0	60	26993
2026-01-16 05:03:38.47	236.98	3.27	-45.4	-57.4	3.6	8.44e-01	0	28	104	0	60	26702
2026-01-16 05:03:39.48	237.09	3.32	-45.4	-57.3	3.6	8.44e-01	0	28	104	0	60	26488
2026-01-16 05:03:40.49	237.19	3.36	-45.8	-57.1	3.6	8.45e-01	0	28	104	0	60	26014
2026-01-16 05:03:41.50	237.30	3.41	-45.7	-57.4	3.6	8.46e-01	0	28	104	0	60	26854
2026-01-16 05:03:42.51	237.41	3.46	-45.4	-57.3	3.6	8.45e-01	0	28	104	0	60	26639
2026-01-16 05:03:43.51	237.51	3.50	-45.7	-57.3	3.6	8.45e-01	0	28	104	0	60	26620
2026-01-16 05:03:44.53	237.62	3.55	-45.8	-56.7	3.6	8.46e-01	0	28	104	0	60	24834
2026-01-16 05:03:45.54	237.73	3.59	-45.7	-57.3	3.6	8.44e-01	0	28	104	0	60	26375
2026-01-16 05:03:46.55	237.84	3.64	-45.6	-57.4	3.6	8.45e-01	0	28	104	0	60	26842
2026-01-16 05:03:47.56	237.95	3.69	-45.8	-57.0	3.6	8.45e-01	0	28	104	0	60	25668
2026-01-16 05:03:48.56	238.05	3.73	-45.9	-55.9	3.6	8.45e-01	0	28	104	0	60	22440
2026-01-16 05:03:49.57	238.16	3.78	-45.9	-57.0	3.5	8.45e-01	0	28	104	0	60	25614
2026-01-16 05:03:50.58	238.27	3.83	-45.9	-56.7	3.6	8.45e-01	0	28	104	0	60	24754
2026-01-16 05:03:51.59	238.38	3.87	-45.7	-54.4	4.0	8.35e-01	0	28	104	0	60	18974
2026-01-16 05:03:52.60	238.49	3.92	-45.6	-52.6	4.0	8.28e-01	0	28	0	0	60	15416
2026-01-16 05:03:53.61	238.60	3.96	-45.6	-52.5	4.1	8.24e-01	0	28	0	0	60	15284
2026-01-16 05:03:54.62	238.71	4.01	-45.6	-52.1	4.4	8.04e-01	0	28	0	0	60	14484
2026-01-16 05:03:55.63	238.83	4.06	-45.4	-51.7	4.6	7.93e-01	0	28	0	0	60	13953
2026-01-16 05:03:56.63	238.94	4.10	-45.4	-51.6	4.7	7.83e-01	0	28	0	0	60	13720
2026-01-16 05:03:57.65	239.05	4.15	-45.3	-51.1	5.1	7.42e-01	0	28	0	0	60	12925
2026-01-16 05:03:58.66	239.16	4.20	-45.1	-50.5	5.6	4.17e-01	0	28	0	4194304	60	12107
2026-01-16 05:03:59.67	239.27	4.24	-45.1	-50.5	5.6	4.39e-01	0	29	0	9437184	60	12137
2026-01-16 05:04:00.68	239.39	4.29	-44.9	-49.9	6.3	3.06e-01	0	28	0	14680064	60	11279
2026-01-16 05:04:01.69	239.50	4.33	-44.9	-49.7	6.6	2.43e-01	0	28	0	20971520	60	10994
2026-01-16 05:04:02.70	239.61	4.38	-44.9	-49.7	6.7	2.07e-01	0	29	0	26214400	60	10986
2026-01-16 05:04:03.71	239.73	4.43	-44.7	-49.1	7.5	1.43e-01	0	29	0	32505856	60	10265
2026-01-16 05:04:04.72	239.84	4.47	-44.6	-48.8	7.8	1.03e-01	0	29	0	37748736	60	9994
2026-01-16 05:04:05.73	239.96	4.52	-44.5	-48.5	8.2	7.73e-02	0	29	0	42991616	60	9613
2026-01-16 05:04:06.73	240.07	4.57	-44.3	-48.1	8.6	4.18e-02	0	29	0	49283072	60	9205
2026-01-16 05:04:07.74	240.18	4.61	-44.3	-48.0	8.7	4.52e-02	0	29	0	54525952	60	9096
2026-01-16 05:04:08.75	240.30	4.66	-43.9	-47.2	9.6	1.64e-02	0	28	0	60817408	60	8317
2026-01-16 05:04:09.76	240.42	4.70	-43.7	-47.0	10.0	1.14e-02	0	29	0	66060288	60	8087
2026-01-16 05:04:10.78	240.53	4.75	-43.5	-46.6	10.3	7.45e-03	0	29	0	71303168	60	7744
2026-01-16 05:04:11.79	240.65	4.80	-43.5	-46.7	10.2	6.14e-03	0	29	0	77594624	60	7777
2026-01-16 05:04:12.79	240.77	4.84	-43.3	-46.1	10.9	5.29e-03	0	29	0	82837504	60	7337
2026-01-16 05:04:13.80	240.88	4.89	-43.0	-45.8	11.4	1.67e-03	0	29	0	89128960	60	7014
2026-01-16 05:04:14.82	241.00	4.93	-43.0	-45.6	11.6	1.23e-03	0	29	0	94371840	60	6923
2026-01-16 05:04:15.83	241.12	4.98	-42.9	-45.5	11.9	8.93e-04	0	29	0	100663296	60	6786
2026-01-16 05:04:16.84	241.24	5.03	-42.7	-45.1	12.1	3.86e-04	0	29	0	105906176	58	7316
2026-01-16 05:04:17.85	241.36	5.07	-42.6	-45.0	12.3	2.53e-04	0	29	0	111149056	58	7205
2026-01-16 05:04:18.85	241.48	5.12	-42.2	-44.4	12.9	9.38e-05	0	29	0	117440512	58	6724
2026-01-16 05:04:19.86	241.60	5.16	-42.0	-44.1	13.3	3.77e-05	0	29	0	122683392	58	6467
2026-01-16 05:04:20.87	241.72	5.21	-41.7	-43.7	13.7	1.25e-05	0	29	0	128974848	56	7001
2026-01-16 05:04:21.88	241.84	5.26	-41.6	-43.5	13.9	9.10e-06	0	28	0	134217728	56	6828
2026-01-16 05:04:22.89	241.96	5.30	-41.5	-43.4	14.1	2.20e-06	0	29	0	139460608	56	6751
2026-01-16 05:04:23.90	242.08	5.35	-41.0	-42.7	14.8	0.00e+00	0	29	0	145752064	56	6243
2026-01-16 05:04:24.91	242.20	5.39	-40.6	-42.2	15.3	0.00e+00	0	29	0	150994944	54	6573
2026-01-16 05:04:25.92	242.32	5.44	-40.7	-42.3	15.3	0.00e+00	0	29	0	157286400	54	6624
2026-01-16 05:04:26.92	242.44	5.48	-40.1	-41.6	16.0	0.00e+00	0	29	0	162529280	54	6146
2026-01-16 05:04:27.93	242.56	5.53	-40.0	-41.4	16.2	0.00e+00	0	29	0	167772160	54	6012
2026-01-16 05:04:28.94	242.69	5.58	-39.9	-41.3	16.3	0.00e+00	0	29	0	174063616	54	5951
2026-01-16 05:04:29.95	242.81	5.62	-39.9	-41.3	16.4	0.00e+00	0	29	0	179306496	54	5929
2026-01-16 05:04:30.96	242.93	5.67	-39.6	-41.0	16.8	0.00e+00	0	29	0	185597952	52	6398
2026-01-16 05:04:31.97	243.06	5.71	-39.5	-40.9	16.9	0.00e+00	0	29	0	190840832	52	6324
2026-01-16 05:04:32.98	243.18	5.76	-39.2	-40.4	17.4	0.00e+00	0	29	0	197132288	52	6015
2026-01-16 05:04:33.99	243.31	5.80	-39.1	-40.3	17.4	0.00e+00	0	29	0	202375168	52	5958
2026-01-16 05:04:35.00	243.43	5.85	-38.9	-40.2	17.6	0.00e+00	0	29	0	207618048	52	5851
2026-01-16 05:04:36.01	243.56	5.89	-39.1	-40.3	17.6	0.00e+00	0	29	0	213909504	52	5930
2026-01-16 05:04:37.02	243.68	5.94	-38.7	-39.9	17.9	0.00e+00	0	29	0	219152384	50	6366
2026-01-16 05:04:38.03	243.81	5.99	-38.5	-39.6	18.2	0.00e+00	0	29	0	225443840	50	6152
2026-01-16 05:04:39.04	243.94	6.03	-38.3	-39.5	18.4	0.00e+00	0	29	0	230686720	50	6041
2026-01-16 05:04:40.05	244.06	6.08	-38.4	-39.5	18.3	0.00e+00	0	29	0	235929600	50	6075
2026-01-16 05:04:41.06	244.19	6.12	-38.2	-39.3	18.6	0.00e+00	0	29	0	242221056	50	5914
2026-01-16 05:04:42.06	244.32	6.17	-38.1	-39.2	18.6	0.00e+00	0	29	0	247463936	50	5872
2026-01-16 05:04:43.07	244.44	6.21	-38.0	-39.1	18.8	0.00e+00	0	29	0	253755392	50	5794
2026-01-16 05:04:44.08	244.57	6.26	-37.8	-38.9	18.9	0.00e+00	0	29	0	258998272	50	5667
2026-01-16 05:04:45.09	244.70	6.30	-37.8	-38.8	19.1	0.00e+00	0	29	0	264241152	50	5596
2026-01-16 05:04:46.10	244.83	6.35	-37.1	-38.1	19.8	0.00e+00	0	29	0	270532608	48	5800
2026-01-16 05:04:47.11	244.96	6.39	-37.1	-38.0	19.8	0.00e+00	0	29	0	275775488	48	5752
2026-01-16 05:04:48.12	245.09	6.44	-36.7	-37.7	20.2	0.00e+00	0	29	0	282066944	48	5507
2026-01-16 05:04:49.13	245.22	6.48	-36.3	-37.2	20.6	0.00e+00	0	29	0	287309824	46	5876
2026-01-16 05:04:50.13	245.35	6.53	-36.1	-37.1	20.9	0.00e+00	0	29	0	293601280	46	5767
2026-01-16 05:04:51.14	245.48	6.57	-36.0	-36.9	21.0	0.00e+00	0	29	0	298844160	46	5639
2026-01-16 05:04:52.16	245.61	6.62	-36.2	-37.0	20.9	0.00e+00	0	29	0	305135616	46	5755
2026-01-16 05:04:53.16	245.74	6.66	-35.7	-36.5	21.4	0.00e+00	0	29	0	310378496	46	5425
2026-01-16 05:04:54.17	245.88	6.71	-35.5	-36.3	21.5	0.00e+00	0	29	0	315621376	44	5963
2026-01-16 05:04:55.18	246.01	6.75	-35.6	-36.5	21.4	0.00e+00	0	29	0	321912832	44	6056
2026-01-16 05:04:56.20	246.14	6.79	-35.5	-36.3	21.6	0.00e+00	0	29	0	327155712	44	5960
2026-01-16 05:04:57.21	246.28	6.84	-35.2	-36.0	22.0	0.00e+00	0	29	0	333447168	44	5745
2026-01-16 05:04:58.22	246.41	6.88	-35.4	-36.3	21.7	0.00e+00	0	29	0	338690048	44	5899
2026-01-16 05:04:59.23	246.55	6.93	-35.3	-36.1	21.9	0.00e+00	0	29	0	343932928	44	5779
2026-01-16 05:05:00.23	246.68	6.97	-35.3	-36.1	21.9	0.00e+00	0	29	0	350224384	44	5792
2026-01-16 05:05:01.24	246.81	7.02	-35.1	-35.8	22.0	0.00e+00	0	29	0	355467264	44	5623
2026-01-16 05:05:02.25	246.95	7.06	-34.8	-35.6	22.4	0.00e+00	0	29	0	360710144	44	5444
2026-01-16 05:05:03.26	247.09	7.11	-34.8	-35.6	22.5	0.00e+00	0	29	0	367001600	42	6123
2026-01-16 05:05:04.26	247.22	7.15	-34.7	-35.5	22.5	0.00e+00	0	29	0	372244480	42	6079
2026-01-16 05:05:05.27	247.36	7.19	-34.7	-35.5	22.6	0.00e+00	0	29	0	378535936	42	6068
2026-01-16 05:05:06.28	247.49	7.24	-34.5	-35.2	22.8	0.00e+00	0	29	0	383778816	42	5874
2026-01-16 05:05:07.29	247.63	7.28	-34.4	-35.2	22.8	0.00e+00	0	29	0	390070272	42	5857
2026-01-16 05:05:08.30	247.77	7.32	-34.5	-35.3	22.7	0.00e+00	0	29	0	395313152	42	5926
2026-01-16 05:05:09.31	247.91	7.37	-34.4	-35.1	22.9	0.00e+00	0	29	0	401604608	42	5802
2026-01-16 05:05:10.32	248.05	7.41	-34.5	-35.3	22.8	0.00e+00	0	29	0	406847488	42	5915
2026-01-16 05:05:11.32	248.18	7.46	-34.0	-34.7	23.3	0.00e+00	0	29	0	412090368	42	5565
2026-01-16 05:05:12.33	248.32	7.50	-34.1	-34.8	23.1	0.00e+00	0	29	0	418381824	42	5619
2026-01-16 05:05:13.34	248.46	7.54	-34.1	-34.9	23.2	0.00e+00	0	29	0	423624704	42	5654
2026-01-16 05:05:14.35	248.60	7.59	-34.0	-34.8	23.3	0.00e+00	0	29	0	428867584	42	5569
2026-01-16 05:05:15.36	248.74	7.63	-34.0	-34.8	23.3	0.00e+00	0	29	0	435159040	42	5568
2026-01-16 05:05:16.37	248.89	7.67	-33.9	-34.7	23.4	0.00e+00	0	29	0	440401920	42	5514
2026-01-16 05:05:17.37	249.03	7.72	-34.0	-34.7	23.4	0.00e+00	0	29	0	446693376	42	5565
2026-01-16 05:05:18.38	249.17	7.76	-33.7	-34.5	23.6	0.00e+00	0	29	0	451936256	42	5402
2026-01-16 05:05:19.39	249.31	7.80	-33.7	-34.4	23.6	0.00e+00	0	29	0	457179136	40	6024
2026-01-16 05:05:20.40	249.45	7.85	-33.8	-34.5	23.5	0.00e+00	0	29	0	463470592	40	6052
2026-01-16 05:05:21.41	249.60	7.89	-33.8	-34.5	23.6	0.00e+00	0	29	0	468713472	40	6087
2026-01-16 05:05:22.42	249.74	7.93	-33.6	-34.4	23.7	0.00e+00	0	29	0	475004928	40	5977
2026-01-16 05:05:23.43	249.88	7.97	-33.6	-34.4	23.7	0.00e+00	0	29	0	480247808	40	5967
2026-01-16 05:05:24.44	250.03	8.02	-33.6	-34.3	23.8	0.00e+00	0	29	0	486539264	40	5922
2026-01-16 05:05:25.45	250.17	8.06	-33.4	-34.2	23.8	0.00e+00	0	29	0	491782144	40	5832
2026-01-16 05:05:26.46	250.32	8.10	-33.5	-34.2	23.9	0.00e+00	0	29	0	498073600	40	5852
2026-01-16 05:05:27.47	250.46	8.14	-33.5	-34.3	23.8	0.00e+00	0	29	0	503316480	40	5918
2026-01-16 05:05:28.48	250.61	8.19	-33.5	-34.2	23.8	0.00e+00	0	29	0	508559360	40	5895
2026-01-16 05:05:29.49	250.76	8.23	-33.4	-34.2	24.0	0.00e+00	0	29	0	514850816	40	5830
2026-01-16 05:05:30.50	250.90	8.27	-33.3	-34.0	24.0	0.00e+00	0	29	0	520093696	40	5719
2026-01-16 05:05:31.51	251.05	8.31	-33.4	-34.1	24.0	0.00e+00	0	29	0	526385152	40	5786
2026-01-16 05:05:32.52	251.20	8.36	-33.4	-34.1	23.9	0.00e+00	0	29	0	531628032	40	5827
2026-01-16 05:05:33.52	251.34	8.40	-33.2	-33.9	24.1	0.00e+00	0	29	0	536870912	40	5663
2026-01-16 05:05:34.53	251.49	8.44	-33.2	-33.9	24.1	0.00e+00	0	29	0	543162368	40	5685
2026-01-16 05:05:35.54	251.64	8.48	-33.2	-33.9	24.1	0.00e+00	0	29	0	548405248	40	5664
2026-01-16 05:05:36.55	251.79	8.52	-33.3	-34.1	24.0	0.00e+00	0	29	0	553648128	40	5762
2026-01-16 05:05:37.56	251.94	8.56	-33.2	-33.9	24.1	0.00e+00	0	29	0	559939584	40	5638
2026-01-16 05:05:38.57	252.09	8.61	-33.4	-34.1	23.9	0.00e+00	0	29	0	565182464	40	5805
2026-01-16 05:05:39.58	252.24	8.65	-33.4	-34.1	23.9	0.00e+00	0	29	0	571473920	40	5799
2026-01-16 05:05:40.59	252.39	8.69	-33.3	-34.1	24.1	0.00e+00	0	29	0	576716800	40	5773
2026-01-16 05:05:41.59	252.54	8.73	-33.3	-34.0	24.0	0.00e+00	0	29	0	583008256	40	5737
2026-01-16 05:05:42.60	252.69	8.77	-33.2	-33.9	24.1	0.00e+00	0	29	0	588251136	40	5650
2026-01-16 05:05:43.62	252.85	8.81	-33.2	-33.9	24.1	0.00e+00	0	29	0	594542592	40	5695
2026-01-16 05:05:44.63	253.00	8.85	-33.3	-34.0	24.0	0.00e+00	0	29	0	599785472	40	5760
2026-01-16 05:05:45.64	253.15	8.89	-33.3	-34.0	24.0	0.00e+00	0	29	0	605028352	40	5734
2026-01-16 05:05:46.65	253.30	8.93	-33.2	-33.9	24.2	0.00e+00	0	29	0	611319808	40	5652
2026-01-16 05:05:47.65	253.46	8.97	-33.2	-33.9	24.1	0.00e+00	0	29	0	616562688	40	5671
2026-01-16 05:05:48.66	253.61	9.01	-33.2	-33.9	24.1	0.00e+00	0	29	0	622854144	40	5680
2026-01-16 05:05:49.67	253.77	9.05	-33.2	-33.9	24.3	0.00e+00	0	29	0	628097024	40	5641
2026-01-16 05:05:50.69	253.92	9.10	-33.2	-33.9	24.2	0.00e+00	0	29	0	633339904	40	5651
2026-01-16 05:05:51.69	254.08	9.13	-33.1	-33.8	24.3	0.00e+00	0	29	0	639631360	40	5625
2026-01-16 05:05:52.70	254.23	9.17	-33.1	-33.8	24.3	0.00e+00	0	29	0	644874240	40	5617
2026-01-16 05:05:53.71	254.39	9.21	-33.1	-33.8	24.3	0.00e+00	0	29	0	651165696	40	5615
2026-01-16 05:05:54.72	254.54	9.25	-33.1	-33.8	24.2	0.00e+00	0	29	0	656408576	40	5591
2026-01-16 05:05:55.73	254.70	9.29	-33.1	-33.9	24.3	0.00e+00	0	29	0	661651456	40	5633
2026-01-16 05:05:56.74	254.86	9.33	-32.9	-33.6	24.4	0.00e+00	0	29	0	667942912	40	5478
2026-01-16 05:05:57.75	255.02	9.37	-33.0	-33.7	24.3	0.00e+00	0	29	0	673185792	40	5551
2026-01-16 05:05:58.76	255.18	9.41	-33.0	-33.7	24.4	0.00e+00	0	29	0	679477248	40	5530
2026-01-16 05:05:59.77	255.33	9.45	-33.1	-33.8	24.3	0.00e+00	0	29	0	684720128	40	5580
2026-01-16 05:06:00.78	255.49	9.49	-33.0	-33.7	24.3	0.00e+00	0	29	0	691011584	40	5538
2026-01-16 05:06:01.79	255.65	9.53	-32.9	-33.6	24.4	0.00e+00	0	29	0	696254464	40	5477
2026-01-16 05:06:02.80	255.81	9.57	-33.0	-33.7	24.4	0.00e+00	0	29	0	701497344	40	5508
2026-01-16 05:06:03.81	255.97	9.61	-33.0	-33.7	24.3	0.00e+00	0	29	0	707788800	40	5538
2026-01-16 05:06:04.82	256.13	9.64	-32.8	-33.5	24.5	0.00e+00	0	29	0	713031680	40	5397
2026-01-16 05:06:05.83	256.29	9.68	-33.0	-33.6	24.4	0.00e+00	0	29	0	719323136	40	5491
2026-01-16 05:06:06.84	256.46	9.72	-32.8	-33.5	24.6	0.00e+00	0	29	0	724566016	40	5433
2026-01-16 05:06:07.85	256.62	9.76	-32.9	-33.6	24.5	0.00e+00	0	30	0	729808896	40	5456
2026-01-16 05:06:08.86	256.78	9.80	-32.6	-33.4	24.7	0.00e+00	0	29	0	736100352	38	5970
2026-01-16 05:06:09.87	256.94	9.83	-32.7	-33.4	24.8	0.00e+00	0	29	0	741343232	38	5976
2026-01-16 05:06:10.87	257.10	9.87	-32.7	-33.4	24.7	0.00e+00	0	29	0	747634688	38	5970
2026-01-16 05:06:11.88	257.27	9.91	-32.8	-33.5	24.7	0.00e+00	0	29	0	752877568	38	6064
2026-01-16 05:06:12.89	257.43	9.95	-32.7	-33.4	24.7	0.00e+00	0	29	0	758120448	38	5993
2026-01-16 05:06:13.90	257.60	9.98	-32.8	-33.4	24.7	0.00e+00	0	29	0	764411904	38	6019
2026-01-16 05:06:14.91	257.76	10.02	-32.8	-33.4	24.6	0.00e+00	0	29	0	769654784	38	6004
2026-01-16 05:06:15.92	257.93	10.06	-32.8	-33.5	24.6	0.00e+00	0	29	0	775946240	38	6045
2026-01-16 05:06:16.93	258.09	10.09	-32.8	-33.5	24.7	0.00e+00	0	29	0	781189120	38	6040
2026-01-16 05:06:17.94	258.26	10.13	-32.9	-33.6	24.6	0.00e+00	0	29	0	787480576	38	6104
2026-01-16 05:06:18.95	258.42	10.17	-32.8	-33.5	24.6	0.00e+00	0	29	0	792723456	38	6053
2026-01-16 05:06:19.96	258.59	10.20	-33.0	-33.7	24.4	0.00e+00	0	29	0	799014912	38	6226
2026-01-16 05:06:20.97	258.76	10.24	-33.0	-33.7	24.3	0.00e+00	0	29	0	804257792	38	6188
2026-01-16 05:06:21.98	258.93	10.27	-32.9	-33.6	24.5	0.00e+00	0	29	0	809500672	38	6139
2026-01-16 05:06:22.99	259.09	10.31	-33.1	-33.8	24.5	0.00e+00	0	29	0	815792128	38	6261
2026-01-16 05:06:23.99	259.26	10.35	-33.0	-33.7	24.5	0.00e+00	0	29	0	821035008	38	6192
2026-01-16 05:06:25.01	259.43	10.38	-33.0	-33.7	24.5	0.00e+00	0	29	0	827326464	38	6192
2026-01-16 05:06:26.02	259.60	10.42	-33.1	-33.8	24.3	0.00e+00	0	29	0	832569344	38	6279
2026-01-16 05:06:27.03	259.77	10.45	-33.0	-33.7	24.5	0.00e+00	0	29	0	837812224	38	6174
2026-01-16 05:06:28.03	259.94	10.49	-33.2	-33.9	24.3	0.00e+00	0	29	0	844103680	38	6383
2026-01-16 05:06:29.04	260.11	10.52	-33.0	-33.7	24.5	0.00e+00	0	30	0	849346560	38	6193
2026-01-16 05:06:30.05	260.28	10.56	-33.0	-33.7	24.5	0.00e+00	0	30	0	854589440	38	6182
2026-01-16 05:06:31.06	260.45	10.59	-32.8	-33.5	24.6	0.00e+00	0	29	0	860880896	38	6085
2026-01-16 05:06:32.07	260.62	10.62	-32.8	-33.5	24.7	0.00e+00	0	29	0	866123776	38	6047
2026-01-16 05:06:33.08	260.79	10.66	-32.6	-33.3	24.9	0.00e+00	0	29	0	872415232	38	5934
2026-01-16 05:06:34.09	260.97	10.69	-32.5	-33.2	24.9	0.00e+00	0	29	0	877658112	38	5851
2026-01-16 05:06:35.10	261.14	10.73	-32.5	-33.2	24.9	0.00e+00	0	29	0	883949568	38	5883
2026-01-16 05:06:36.11	261.31	10.76	-32.5	-33.2	24.8	0.00e+00	0	30	0	889192448	38	5847
2026-01-16 05:06:37.11	261.48	10.79	-32.6	-33.3	24.8	0.00e+00	0	30	0	895483904	38	5928
2026-01-16 05:06:38.12	261.66	10.82	-32.5	-33.2	24.9	0.00e+00	0	29	0	900726784	38	5861
2026-01-16 05:06:39.13	261.83	10.86	-32.6	-33.3	24.8	0.00e+00	0	30	0	905969664	38	5912
2026-01-16 05:06:40.14	262.00	10.89	-32.8	-33.5	24.7	0.00e+00	0	29	0	912261120	38	6098
2026-01-16 05:06:41.15	262.18	10.92	-32.8	-33.5	24.7	0.00e+00	0	30	0	917504000	38	6053
2026-01-16 05:06:42.16	262.36	10.95	-32.9	-33.6	24.6	0.00e+00	0	30	0	923795456	38	6160
2026-01-16 05:06:43.17	262.53	10.99	-32.9	-33.6	24.6	0.00e+00	0	29	0	929038336	38	6123
2026-01-16 05:06:44.18	262.71	11.02	-32.6	-33.3	24.8	0.00e+00	0	30	0	934281216	38	5903
2026-01-16 05:06:45.19	262.88	11.05	-32.5	-33.2	25.0	0.00e+00	0	30	0	940572672	38	5830
2026-01-16 05:06:46.20	263.06	11.08	-32.5	-33.2	24.9	0.00e+00	0	29	0	945815552	38	5879
2026-01-16 05:06:47.21	263.24	11.11	-32.4	-33.1	25.0	0.00e+00	0	30	0	952107008	38	5780
2026-01-16 05:06:48.22	263.41	11.14	-32.6	-33.2	24.9	0.00e+00	0	30	0	957349888	38	5884
2026-01-16 05:06:49.23	263.59	11.18	-32.4	-33.0	25.1	0.00e+00	0	30	0	962592768	38	5738
2026-01-16 05:06:50.24	263.77	11.21	-32.2	-32.9	25.2	0.00e+00	0	30	0	968884224	38	5669
2026-01-16 05:06:51.25	263.95	11.24	-32.4	-33.1	25.0	0.00e+00	0	30	0	974127104	38	5800
2026-01-16 05:06:52.26	264.13	11.27	-32.5	-33.2	24.9	0.00e+00	0	30	0	980418560	38	5856
2026-01-16 05:06:53.26	264.31	11.30	-32.5	-33.2	24.9	0.00e+00	0	30	0	985661440	38	5856
2026-01-16 05:06:54.27	264.48	11.33	-33.5	-34.1	24.0	0.00e+00	0	30	0	991952896	38	6505
2026-01-16 05:06:55.28	264.66	11.36	-33.2	-33.9	24.8	0.00e+00	0	29	0	997195776	38	6376
2026-01-16 05:06:56.29	264.85	11.39	-32.8	-33.5	24.7	0.00e+00	0	30	0	1002438656	38	6052
2026-01-16 05:06:57.30	265.03	11.41	-32.9	-33.6	24.6	0.00e+00	0	30	0	1008730112	38	6131
2026-01-16 05:06:58.31	265.21	11.44	-32.7	-33.4	24.7	0.00e+00	0	30	0	1013972992	38	5987
2026-01-16 05:06:59.31	265.39	11.47	-32.6	-33.3	24.9	0.00e+00	0	30	0	1020264448	38	5909
2026-01-16 05:07:00.32	265.57	11.50	-32.4	-33.1	25.0	0.00e+00	0	30	0	1025507328	38	5788
2026-01-16 05:07:01.33	265.75	11.53	-32.3	-32.9	25.1	0.00e+00	0	30	0	1030750208	38	5678
2026-01-16 05:07:02.34	265.93	11.56	-32.4	-33.0	25.0	0.00e+00	0	30	0	1037041664	38	5752
2026-01-16 05:07:03.35	266.12	11.59	-32.3	-32.9	25.2	0.00e+00	0	30	0	1042284544	38	5664
2026-01-16 05:07:04.36	266.30	11.61	-32.3	-33.0	25.1	0.00e+00	0	30	0	1048576000	38	5698
2026-01-16 05:07:05.37	266.48	11.64	-32.3	-33.0	25.1	0.00e+00	0	30	0	1053818880	38	5725
2026-01-16 05:07:06.38	266.67	11.67	-32.4	-33.1	25.0	0.00e+00	0	30	0	1059061760	38	5763
2026-01-16 05:07:07.39	266.85	11.69	-32.4	-33.1	25.0	0.00e+00	0	30	0	1065353216	38	5791
2026-01-16 05:07:08.39	267.03	11.72	-32.5	-33.2	24.9	0.00e+00	0	30	0	1070596096	38	5887
2026-01-16 05:07:09.40	267.22	11.75	-32.5	-33.2	24.9	0.00e+00	0	30	0	1076887552	38	5861
2026-01-16 05:07:10.41	267.40	11.77	-32.6	-33.3	24.9	0.00e+00	0	30	0	1082130432	38	5944
2026-01-16 05:07:11.42	267.59	11.80	-32.4	-33.1	25.1	0.00e+00	0	29	0	1088421888	38	5797
2026-01-16 05:07:12.42	267.77	11.82	-32.5	-33.1	25.0	0.00e+00	0	30	0	1093664768	38	5820
2026-01-16 05:07:13.43	267.96	11.85	-32.4	-33.1	25.1	0.00e+00	0	30	0	1098907648	38	5790
2026-01-16 05:07:14.44	268.14	11.88	-32.4	-33.1	25.0	0.00e+00	0	30	0	1105199104	38	5793
2026-01-16 05:07:15.45	268.33	11.90	-32.5	-33.2	24.9	0.00e+00	0	30	0	1110441984	38	5883
2026-01-16 05:07:16.45	268.51	11.93	-32.7	-33.4	24.9	0.00e+00	0	30	0	1116733440	38	5987
2026-01-16 05:07:17.46	268.70	11.95	-32.7	-33.4	24.8	0.00e+00	0	30	0	1121976320	38	6017
2026-01-16 05:07:18.47	268.89	11.97	-32.7	-33.4	24.8	0.00e+00	0	30	0	1127219200	38	6026
2026-01-16 05:07:19.48	269.08	12.00	-32.6	-33.3	24.9	0.00e+00	0	30	0	1133510656	38	5925
2026-01-16 05:07:20.49	269.26	12.02	-32.5	-33.2	25.0	0.00e+00	0	30	0	1138753536	38	5887
2026-01-16 05:07:21.50	269.45	12.05	-32.6	-33.3	24.9	0.00e+00	0	30	0	1143996416	38	5916
2026-01-16 05:07:22.51	269.64	12.07	-32.6	-33.3	25.0	0.00e+00	0	30	0	1150287872	38	5904
2026-01-16 05:07:23.52	269.83	12.09	-32.4	-33.1	25.1	0.00e+00	0	30	0	1155530752	38	5787
2026-01-16 05:07:24.52	270.02	12.11	-32.4	-33.1	25.1	0.00e+00	0	30	0	1161822208	38	5781
2026-01-16 05:07:25.54	270.21	12.14	-32.3	-33.0	25.2	0.00e+00	0	30	0	1167065088	38	5712
2026-01-16 05:07:26.54	270.40	12.16	-32.4	-33.1	25.1	0.00e+00	0	30	0	1173356544	38	5803
2026-01-16 05:07:27.55	270.59	12.18	-32.4	-33.1	25.1	0.00e+00	0	30	0	1178599424	38	5806
2026-01-16 05:07:28.56	270.78	12.20	-32.2	-32.9	25.2	0.00e+00	0	30	0	1184890880	38	5667
2026-01-16 05:07:29.57	270.97	12.22	-32.2	-32.8	25.3	0.00e+00	0	30	0	1190133760	38	5628
2026-01-16 05:07:30.58	271.16	12.24	-32.1	-32.7	25.4	0.00e+00	0	30	0	1195376640	38	5549
2026-01-16 05:07:31.59	271.35	12.27	-31.9	-32.6	25.5	0.00e+00	0	30	0	1201668096	38	5465
2026-01-16 05:07:32.60	271.54	12.29	-32.0	-32.6	25.5	0.00e+00	0	30	0	1206910976	38	5490
2026-01-16 05:07:33.61	271.73	12.31	-32.0	-32.7	25.4	0.00e+00	0	30	0	1213202432	38	5518
2026-01-16 05:07:34.62	271.92	12.33	-32.0	-32.6	25.5	0.00e+00	0	30	0	1218445312	38	5499
2026-01-16 05:07:35.63	272.12	12.35	-32.1	-32.7	25.4	0.00e+00	0	30	0	1223688192	38	5561
2026-01-16 05:07:36.64	272.31	12.37	-32.0	-32.7	25.5	0.00e+00	0	30	0	1229979648	38	5551
2026-01-16 05:07:37.65	272.50	12.39	-32.1	-32.7	25.4	0.00e+00	0	30	0	1235222528	38	5542
2026-01-16 05:07:38.66	272.69	12.40	-32.1	-32.7	25.4	0.00e+00	0	30	0	1241513984	38	5536
2026-01-16 05:07:39.67	272.89	12.42	-31.9	-32.5	25.5	0.00e+00	0	30	0	1246756864	38	5435
2026-01-16 05:07:40.68	273.08	12.44	-32.0	-32.6	25.5	0.00e+00	0	30	0	1251999744	38	5480
2026-01-16 05:07:41.69	273.27	12.46	-32.4	-33.0	25.3	0.00e+00	0	30	0	1258291200	38	5726
2026-01-16 05:07:42.69	273.47	12.48	-31.9	-32.5	25.5	0.00e+00	0	30	0	1263534080	38	5418
2026-01-16 05:07:43.70	273.66	12.50	-31.9	-32.5	25.5	0.00e+00	0	30	0	1269825536	38	5433
2026-01-16 05:07:44.71	273.85	12.51	-31.9	-32.6	25.5	0.00e+00	0	30	0	1275068416	38	5449
2026-01-16 05:07:45.72	274.05	12.53	-31.9	-32.5	25.7	0.00e+00	0	30	0	1281359872	38	5409
2026-01-16 05:07:46.73	274.24	12.55	-31.9	-32.5	25.6	0.00e+00	0	30	0	1286602752	38	5415
2026-01-16 05:07:47.74	274.44	12.56	-32.0	-32.6	25.5	0.00e+00	0	30	0	1291845632	38	5482
2026-01-16 05:07:48.75	274.63	12.58	-32.1	-32.7	25.4	0.00e+00	0	30	0	1298137088	38	5518
2026-01-16 05:07:49.76	274.83	12.59	-32.1	-32.8	25.3	0.00e+00	0	30	0	1303379968	38	5578
2026-01-16 05:07:50.77	275.02	12.61	-32.2	-32.8	25.3	0.00e+00	0	30	0	1309671424	38	5625
2026-01-16 05:07:51.78	275.22	12.63	-32.0	-32.6	25.4	0.00e+00	0	30	0	1314914304	38	5502
2026-01-16 05:07:52.79	275.41	12.64	-32.1	-32.8	25.3	0.00e+00	0	30	0	1320157184	38	5598
2026-01-16 05:07:53.80	275.61	12.66	-32.1	-32.7	25.3	0.00e+00	0	30	0	1326448640	38	5562
2026-01-16 05:07:54.81	275.81	12.67	-32.2	-32.8	25.3	0.00e+00	0	30	0	1331691520	38	5628
2026-01-16 05:07:55.82	276.00	12.68	-32.1	-32.8	25.2	0.00e+00	0	30	0	1337982976	38	5630
2026-01-16 05:07:56.83	276.20	12.70	-32.3	-33.0	25.1	0.00e+00	0	30	0	1343225856	38	5756
2026-01-16 05:07:57.84	276.40	12.71	-32.1	-32.8	25.3	0.00e+00	0	30	0	1348468736	38	5610
2026-01-16 05:07:58.85	276.59	12.72	-32.2	-32.9	25.3	0.00e+00	0	30	0	1354760192	38	5680
2026-01-16 05:07:59.86	276.79	12.74	-32.0	-32.7	25.4	0.00e+00	0	30	0	1360003072	38	5560
2026-01-16 05:08:00.87	276.99	12.75	-32.1	-32.8	25.3	0.00e+00	0	30	0	1366294528	38	5595
2026-01-16 05:08:01.88	277.18	12.76	-32.2	-32.9	25.3	0.00e+00	0	30	0	1371537408	38	5667
2026-01-16 05:08:02.89	277.38	12.77	-32.1	-32.8	25.4	0.00e+00	0	30	0	1377828864	38	5587
2026-01-16 05:08:03.90	277.58	12.79	-32.2	-32.9	25.3	0.00e+00	0	30	0	1383071744	38	5669
2026-01-16 05:08:04.91	277.78	12.80	-32.2	-32.9	25.3	0.00e+00	0	30	0	1389363200	38	5639
2026-01-16 05:08:05.92	277.98	12.81	-32.3	-32.9	25.2	0.00e+00	0	30	0	1394606080	38	5659
2026-01-16 05:08:06.93	278.17	12.82	-32.4	-33.0	25.1	0.00e+00	0	30	0	1399848960	38	5725
2026-01-16 05:08:07.94	278.37	12.83	-32.3	-32.9	25.1	0.00e+00	0	30	0	1406140416	38	5693
2026-01-16 05:08:08.95	278.57	12.84	-32.4	-33.1	25.1	0.00e+00	0	30	0	1411383296	38	5787
2026-01-16 05:08:09.96	278.77	12.85	-32.1	-32.9	25.4	0.00e+00	0	30	0	1417674752	38	5632
2026-01-16 05:08:10.97	278.97	12.86	-32.1	-32.8	25.4	0.00e+00	0	30	0	1422917632	38	5604
2026-01-16 05:08:11.98	279.17	12.87	-32.2	-32.8	25.3	0.00e+00	0	30	0	1428160512	38	5608
2026-01-16 05:08:12.99	279.36	12.88	-32.1	-32.8	25.3	0.00e+00	0	30	0	1434451968	38	5616
2026-01-16 05:08:14.00	279.56	12.89	-32.2	-32.9	25.2	0.00e+00	0	30	0	1439694848	38	5675
2026-01-16 05:08:15.01	279.76	12.89	-32.3	-32.9	25.2	0.00e+00	0	30	0	1445986304	38	5685
2026-01-16 05:08:16.02	279.96	12.90	-32.3	-33.0	25.1	0.00e+00	0	30	0	1451229184	38	5709
2026-01-16 05:08:17.03	280.16	12.91	-32.0	-32.7	25.4	0.00e+00	0	30	0	1456472064	38	5537
2026-01-16 05:08:18.03	280.36	12.92	-31.9	-32.5	25.5	0.00e+00	0	30	0	1462763520	38	5437
2026-01-16 05:08:19.04	280.56	12.92	-31.8	-32.5	25.5	0.00e+00	0	30	0	1468006400	38	5411
2026-01-16 05:08:20.05	280.76	12.93	-32.1	-32.7	25.4	0.00e+00	0	30	0	1474297856	38	5549
2026-01-16 05:08:21.06	280.96	12.94	-31.9	-32.5	25.5	0.00e+00	0	30	0	1479540736	38	5420
2026-01-16 05:08:22.07	281.16	12.94	-31.9	-32.5	25.6	0.00e+00	0	30	0	1485832192	38	5422
2026-01-16 05:08:23.08	281.36	12.95	-31.8	-32.5	25.6	0.00e+00	0	30	0	1491075072	38	5392
2026-01-16 05:08:24.09	281.56	12.96	-31.9	-32.6	25.5	0.00e+00	0	30	0	1496317952	38	5449
2026-01-16 05:08:25.10	281.76	12.96	-32.0	-32.6	25.5	0.00e+00	0	30	0	1502609408	38	5499
2026-01-16 05:08:26.11	281.96	12.97	-32.1	-32.7	25.4	0.00e+00	0	30	0	1507852288	38	5553
2026-01-16 05:08:27.12	282.16	12.97	-32.1	-32.8	25.3	0.00e+00	0	30	0	1514143744	38	5570
2026-01-16 05:08:28.13	282.36	12.97	-32.2	-32.9	25.3	0.00e+00	0	30	0	1519386624	38	5636
2026-01-16 05:08:29.13	282.55	12.98	-32.0	-32.7	25.4	0.00e+00	0	30	0	1524629504	38	5527
2026-01-16 05:08:30.14	282.75	12.98	-32.1	-32.8	25.3	0.00e+00	0	30	0	1530920960	38	5599
2026-01-16 05:08:31.15	282.96	12.98	-32.1	-32.8	25.3	0.00e+00	0	30	0	1536163840	38	5582
2026-01-16 05:08:32.16	283.16	12.99	-32.1	-32.8	25.3	0.00e+00	0	30	0	1542455296	38	5596
2026-01-16 05:08:33.17	283.36	12.99	-32.2	-32.8	25.3	0.00e+00	0	30	0	1547698176	38	5630
2026-01-16 05:08:34.18	283.56	12.99	-32.0	-32.7	25.5	0.00e+00	0	30	0	1552941056	38	5510
2026-01-16 05:08:35.19	283.76	12.99	-32.0	-32.7	25.4	0.00e+00	0	30	0	1559232512	38	5527
2026-01-16 05:08:36.20	283.96	13.00	-32.2	-32.9	25.2	0.00e+00	0	30	0	1564475392	38	5652
2026-01-16 05:08:37.21	284.16	13.00	-32.2	-32.9	25.2	0.00e+00	0	30	0	1570766848	38	5637
2026-01-16 05:08:38.22	284.36	13.00	-32.1	-32.8	25.3	0.00e+00	0	30	0	1576009728	38	5624
2026-01-16 05:08:39.23	284.56	13.00	-32.0	-32.7	25.4	0.00e+00	0	30	0	1582301184	38	5533
2026-01-16 05:08:40.24	284.76	13.00	-32.1	-32.8	25.4	0.00e+00	0	30	0	1587544064	38	5567
2026-01-16 05:08:41.25	284.96	13.00	-32.1	-32.7	25.4	0.00e+00	0	30	0	1592786944	38	5564
2026-01-16 05:08:42.26	285.16	13.00	-32.2	-32.8	25.3	0.00e+00	0	30	0	1599078400	38	5624
2026-01-16 05:08:43.27	285.36	13.00	-32.2	-32.9	25.1	0.00e+00	0	30	0	1604321280	38	5640
2026-01-16 05:08:44.28	285.56	13.00	-32.1	-32.7	25.3	0.00e+00	0	30	0	1610612736	38	5562
2026-01-16 05:08:45.29	285.76	13.00	-32.0	-32.7	25.5	0.00e+00	0	30	0	1615855616	38	5512
2026-01-16 05:08:46.30	285.96	13.00	-32.0	-32.7	25.4	0.00e+00	0	30	0	1621098496	38	5529
2026-01-16 05:08:47.31	286.16	12.99	-32.0	-32.6	25.5	0.00e+00	0	30	0	1627389952	38	5494
2026-01-16 05:08:48.32	286.36	12.99	-32.0	-32.7	25.4	0.00e+00	0	30	0	1632632832	38	5539
2026-01-16 05:08:49.33	286.56	12.99	-32.0	-32.7	25.4	0.00e+00	0	30	0	1638924288	38	5527
2026-01-16 05:08:50.34	286.76	12.99	-32.1	-32.8	25.3	0.00e+00	0	30	0	1644167168	38	5578
2026-01-16 05:08:51.35	286.96	12.98	-32.1	-32.8	25.3	0.00e+00	0	30	0	1649410048	38	5577
2026-01-16 05:08:52.36	287.16	12.98	-32.2	-32.8	25.2	0.00e+00	0	30	0	1655701504	38	5585
2026-01-16 05:08:53.36	287.36	12.98	-32.1	-32.8	25.2	0.00e+00	0	30	0	1660944384	38	5583
2026-01-16 05:08:54.37	287.56	12.97	-32.1	-32.7	25.2	0.00e+00	0	30	0	1667235840	38	5565
2026-01-16 05:08:55.38	287.76	12.97	-32.1	-32.7	25.3	0.00e+00	0	30	0	1672478720	38	5544
2026-01-16 05:08:56.39	287.96	12.96	-32.0	-32.7	25.4	0.00e+00	0	30	0	1678770176	38	5516
2026-01-16 05:08:57.40	288.16	12.96	-32.0	-32.6	25.3	0.00e+00	0	30	0	1684013056	38	5488
2026-01-16 05:08:58.41	288.36	12.95	-32.0	-32.7	25.1	0.00e+00	0	30	0	1690304512	38	5540
2026-01-16 05:08:59.42	288.56	12.95	-32.0	-32.7	25.3	0.00e+00	0	30	0	1695547392	38	5503
2026-01-16 05:09:00.43	288.76	12.94	-32.3	-32.9	25.1	0.00e+00	0	30	0	1700790272	38	5680
2026-01-16 05:09:01.44	288.96	12.94	-32.1	-32.8	25.3	0.00e+00	0	30	0	1707081728	38	5587
2026-01-16 05:09:02.44	289.16	12.93	-32.3	-33.0	25.1	0.00e+00	0	30	0	1712324608	38	5701
2026-01-16 05:09:03.45	289.36	12.92	-32.3	-32.9	25.1	0.00e+00	0	30	0	1718616064	38	5686
2026-01-16 05:09:04.47	289.56	12.92	-32.2	-32.9	25.1	0.00e+00	0	30	0	1723858944	38	5649
2026-01-16 05:09:05.47	289.75	12.91	-32.3	-32.9	25.1	0.00e+00	0	30	0	1729101824	38	5667
2026-01-16 05:09:06.49	289.96	12.90	-32.1	-32.8	25.3	0.00e+00	0	30	0	1735393280	38	5602
2026-01-16 05:09:07.49	290.15	12.89	-32.1	-32.8	25.3	0.00e+00	0	30	0	1740636160	38	5595
2026-01-16 05:09:08.50	290.35	12.88	-32.1	-32.8	25.3	0.00e+00	0	30	0	1745879040	38	5577
2026-01-16 05:09:09.51	290.55	12.88	-32.1	-32.7	25.3	0.00e+00	0	30	0	1752170496	38	5558
2026-01-16 05:09:10.52	290.75	12.87	-32.1	-32.7	25.3	0.00e+00	0	30	0	1757413376	38	5551
2026-01-16 05:09:11.53	290.95	12.86	-32.2	-32.9	25.3	0.00e+00	0	30	0	1763704832	38	5655
2026-01-16 05:09:12.54	291.15	12.85	-32.2	-32.9	25.2	0.00e+00	0	30	0	1768947712	38	5638
2026-01-16 05:09:13.55	291.34	12.84	-32.4	-33.1	25.1	0.00e+00	0	30	0	1775239168	38	5764
2026-01-16 05:09:14.56	291.54	12.83	-32.5	-33.2	25.0	0.00e+00	0	30	0	1780482048	38	5833
2026-01-16 05:09:15.57	291.74	12.82	-32.4	-33.1	25.1	0.00e+00	0	30	0	1786773504	38	5781
2026-01-16 05:09:16.58	291.94	12.81	-32.4	-33.1	25.1	0.00e+00	0	30	0	1792016384	38	5780
2026-01-16 05:09:17.59	292.14	12.80	-32.5	-33.2	25.0	0.00e+00	0	30	0	1797259264	38	5856
2026-01-16 05:09:18.60	292.33	12.78	-32.3	-32.9	25.2	0.00e+00	0	30	0	1803550720	38	5680
2026-01-16 05:09:19.61	292.53	12.77	-32.2	-32.9	25.2	0.00e+00	0	30	0	1808793600	38	5682
2026-01-16 05:09:20.62	292.73	12.76	-32.2	-32.9	25.2	0.00e+00	0	30	0	1815085056	38	5660
2026-01-16 05:09:21.63	292.92	12.75	-32.2	-32.9	25.3	0.00e+00	0	30	0	1820327936	38	5667
2026-01-16 05:09:22.64	293.12	12.73	-32.2	-32.9	25.2	0.00e+00	0	30	0	1825570816	38	5656
2026-01-16 05:09:23.65	293.32	12.72	-32.2	-32.9	25.2	0.00e+00	0	30	0	1831862272	38	5658
2026-01-16 05:09:24.66	293.51	12.71	-32.2	-32.9	25.3	0.00e+00	0	30	0	1837105152	38	5638
2026-01-16 05:09:25.67	293.71	12.70	-32.2	-32.8	25.2	0.00e+00	0	30	0	1843396608	38	5600
2026-01-16 05:09:26.67	293.91	12.68	-32.2	-32.9	25.2	0.00e+00	0	30	0	1848639488	38	5683
2026-01-16 05:09:27.68	294.10	12.67	-32.2	-32.9	25.2	0.00e+00	0	30	0	1853882368	38	5639
2026-01-16 05:09:28.69	294.30	12.65	-32.3	-32.9	25.2	0.00e+00	0	30	0	1860173824	38	5691
2026-01-16 05:09:29.70	294.49	12.64	-32.1	-32.8	25.2	0.00e+00	0	30	0	1865416704	38	5587
2026-01-16 05:09:30.71	294.69	12.62	-32.0	-32.7	25.4	0.00e+00	0	30	0	1871708160	38	5557
2026-01-16 05:09:31.72	294.88	12.61	-32.1	-32.8	25.3	0.00e+00	0	30	0	1876951040	38	5568
2026-01-16 05:09:32.73	295.08	12.59	-32.2	-32.8	25.3	0.00e+00	0	30	0	1883242496	38	5598
2026-01-16 05:09:33.74	295.27	12.58	-32.3	-33.0	25.2	0.00e+00	0	30	0	1888485376	38	5701
2026-01-16 05:09:34.75	295.47	12.56	-32.2	-32.9	25.1	0.00e+00	0	30	0	1893728256	38	5678
2026-01-16 05:09:35.76	295.66	12.54	-32.3	-33.0	25.1	0.00e+00	0	30	0	1900019712	38	5734
2026-01-16 05:09:36.76	295.85	12.53	-32.3	-33.0	25.1	0.00e+00	0	30	0	1905262592	38	5741
2026-01-16 05:09:37.77	296.05	12.51	-32.4	-33.1	25.0	0.00e+00	0	30	0	1911554048	38	5773
2026-01-16 05:09:38.78	296.24	12.49	-32.2	-32.9	25.2	0.00e+00	0	30	0	1916796928	38	5653
2026-01-16 05:09:39.79	296.44	12.48	-32.1	-32.8	25.3	0.00e+00	0	30	0	1922039808	38	5617
2026-01-16 05:09:40.81	296.63	12.46	-32.1	-32.7	25.3	0.00e+00	0	30	0	1928331264	38	5558
2026-01-16 05:09:41.82	296.82	12.44	-32.3	-33.0	25.2	0.00e+00	0	30	0	1933574144	38	5698
2026-01-16 05:09:42.83	297.02	12.42	-32.3	-33.1	25.1	0.00e+00	0	30	0	1939865600	38	5766
2026-01-16 05:09:43.83	297.21	12.40	-32.3	-33.0	25.1	0.00e+00	0	30	0	1945108480	38	5703
2026-01-16 05:09:44.85	297.40	12.38	-32.3	-33.0	25.2	0.00e+00	0	30	0	1950351360	38	5718
2026-01-16 05:09:45.86	297.59	12.36	-32.2	-32.9	25.1	0.00e+00	0	30	0	1956642816	38	5664
2026-01-16 05:09:46.87	297.79	12.34	-32.2	-32.9	25.2	0.00e+00	0	30	0	1961885696	38	5640
2026-01-16 05:09:47.88	297.98	12.32	-32.4	-33.1	25.1	0.00e+00	0	30	0	1968177152	38	5768
2026-01-16 05:09:48.89	298.17	12.30	-32.3	-33.0	25.1	0.00e+00	0	30	0	1973420032	38	5731
2026-01-16 05:09:49.90	298.36	12.28	-32.4	-33.0	25.0	0.00e+00	0	30	0	1979711488	38	5746
2026-01-16 05:09:50.91	298.55	12.26	-32.4	-33.1	25.0	0.00e+00	0	30	0	1984954368	38	5775
2026-01-16 05:09:51.92	298.74	12.24	-32.6	-33.3	24.9	0.00e+00	0	30	0	1991245824	38	5949
2026-01-16 05:09:52.93	298.93	12.22	-32.4	-33.1	25.0	0.00e+00	0	30	0	1996488704	38	5800
2026-01-16 05:09:53.93	299.12	12.20	-32.4	-33.0	25.0	0.00e+00	0	30	0	2001731584	38	5757
2026-01-16 05:09:54.95	299.31	12.18	-32.5	-33.1	24.9	0.00e+00	0	30	0	2008023040	38	5807
2026-01-16 05:09:55.95	299.50	12.16	-32.5	-33.2	24.9	0.00e+00	0	30	0	2013265920	38	5878
2026-01-16 05:09:56.97	299.69	12.13	-32.6	-33.3	24.9	0.00e+00	0	30	0	2019557376	38	5938
2026-01-16 05:09:57.98	299.88	12.11	-32.6	-33.2	24.8	0.00e+00	0	30	0	2024800256	38	5893
2026-01-16 05:09:58.99	300.07	12.09	-32.6	-33.2	24.9	0.00e+00	0	30	0	2030043136	38	5869
2026-01-16 05:10:00.00	300.26	12.07	-32.6	-33.4	24.8	0.00e+00	0	30	0	2036334592	38	5973
2026-01-16 05:10:01.01	300.44	12.04	-32.5	-33.3	24.9	0.00e+00	0	30	0	2041577472	38	5904
2026-01-16 05:10:02.02	300.63	12.02	-32.5	-33.1	24.9	0.00e+00	0	30	0	2047868928	38	5787
2026-01-16 05:10:03.02	300.82	12.00	-32.5	-33.1	24.9	0.00e+00	0	30	0	2053111808	38	5785
2026-01-16 05:10:04.04	301.01	11.97	-32.7	-33.3	24.8	0.00e+00	0	30	0	2058354688	38	5910
2026-01-16 05:10:05.04	301.19	11.95	-32.5	-33.3	24.9	0.00e+00	0	30	0	2064646144	38	5925
2026-01-16 05:10:06.05	301.38	11.92	-32.6	-33.3	24.8	0.00e+00	0	30	0	2069889024	38	5960
2026-01-16 05:10:07.06	301.56	11.90	-32.5	-33.3	24.9	0.00e+00	0	30	0	2076180480	38	5920
2026-01-16 05:10:08.07	301.75	11.87	-32.7	-33.4	24.8	0.00e+00	0	30	0	2081423360	38	6027
2026-01-16 05:10:09.08	301.94	11.85	-32.8	-33.4	24.7	0.00e+00	0	30	0	2087714816	38	6033
2026-01-16 05:10:10.09	302.12	11.82	-32.7	-33.3	24.6	0.00e+00	0	30	0	2092957696	38	5936
2026-01-16 05:10:11.10	302.31	11.80	-32.8	-33.5	24.7	0.00e+00	0	30	0	2098200576	38	6085
2026-01-16 05:10:12.11	302.49	11.77	-32.5	-33.2	24.9	0.00e+00	0	30	0	2104492032	38	5893
2026-01-16 05:10:13.12	302.68	11.75	-32.7	-33.4	24.9	0.00e+00	0	30	0	2109734912	38	5977
2026-01-16 05:10:14.13	302.86	11.72	-32.7	-33.4	24.8	0.00e+00	0	30	0	2116026368	38	6032
2026-01-16 05:10:15.13	303.04	11.69	-32.6	-33.3	24.9	0.00e+00	0	30	0	2121269248	38	5935
2026-01-16 05:10:16.14	303.22	11.67	-32.6	-33.4	24.9	0.00e+00	0	30	0	2126512128	38	5972
2026-01-16 05:10:17.15	303.41	11.64	-32.7	-33.4	24.9	0.00e+00	0	30	0	2132803584	38	5975
2026-01-16 05:10:18.16	303.59	11.61	-32.6	-33.3	24.9	0.00e+00	0	30	0	2138046464	38	5924
2026-01-16 05:10:19.17	303.77	11.58	-32.6	-33.2	24.9	0.00e+00	0	30	0	2144337920	38	5864
2026-01-16 05:10:20.18	303.96	11.56	-32.6	-33.2	24.9	0.00e+00	0	30	0	2149580800	38	5875
2026-01-16 05:10:21.19	304.14	11.53	-32.5	-33.2	25.0	0.00e+00	0	30	0	2154823680	38	5837
2026-01-16 05:10:22.20	304.32	11.50	-32.6	-33.3	24.9	0.00e+00	0	30	0	2161115136	38	5935
2026-01-16 05:10:23.21	304.50	11.47	-32.6	-33.3	24.9	0.00e+00	0	30	0	2166358016	38	5945
2026-01-16 05:10:24.22	304.68	11.44	-32.8	-33.5	24.7	0.00e+00	0	30	0	2172649472	38	6089
2026-01-16 05:10:25.23	304.86	11.41	-32.9	-33.5	24.6	0.00e+00	0	30	0	2177892352	38	6051
2026-01-16 05:10:26.24	305.04	11.39	-32.8	-33.5	24.7	0.00e+00	0	30	0	2184183808	38	6040
2026-01-16 05:10:27.25	305.22	11.36	-32.9	-33.7	24.5	0.00e+00	0	30	0	2189426688	38	6202
2026-01-16 05:10:28.26	305.40	11.33	-33.0	-33.7	24.4	0.00e+00	0	30	0	2195718144	38	6177
2026-01-16 05:10:29.27	305.58	11.30	-33.1	-33.8	24.3	0.00e+00	0	30	0	2200961024	38	6310
2026-01-16 05:10:30.28	305.76	11.27	-32.9	-33.7	24.6	0.00e+00	0	30	0	2206203904	38	6186
2026-01-16 05:10:31.29	305.94	11.24	-32.9	-33.5	24.6	0.00e+00	0	30	0	2212495360	38	6100
2026-01-16 05:10:32.29	306.11	11.21	-32.8	-33.5	24.6	0.00e+00	0	30	0	2217738240	38	6053
2026-01-16 05:10:33.30	306.29	11.18	-32.9	-33.6	24.6	0.00e+00	0	30	0	2222981120	38	6143
2026-01-16 05:10:34.31	306.47	11.15	-32.8	-33.5	24.6	0.00e+00	0	30	0	2229272576	38	6052
2026-01-16 05:10:35.32	306.64	11.11	-32.8	-33.5	24.6	0.00e+00	0	30	0	2234515456	38	6050
2026-01-16 05:10:36.33	306.82	11.08	-32.8	-33.5	24.6	0.00e+00	0	30	0	2240806912	38	6075
2026-01-16 05:10:37.34	307.00	11.05	-32.7	-33.4	24.7	0.00e+00	0	30	0	2246049792	38	5992
2026-01-16 05:10:38.35	307.17	11.02	-32.8	-33.4	24.6	0.00e+00	0	30	0	2251292672	38	6012
2026-01-16 05:10:39.36	307.35	10.99	-32.7	-33.4	24.8	0.00e+00	0	30	0	2257584128	38	5995
2026-01-16 05:10:40.36	307.52	10.96	-32.7	-33.4	24.8	0.00e+00	0	30	0	2262827008	38	5968
2026-01-16 05:10:41.37	307.69	10.92	-32.6	-33.3	24.9	0.00e+00	0	30	0	2269118464	38	5918
2026-01-16 05:10:42.38	307.87	10.89	-32.7	-33.3	24.8	0.00e+00	0	30	0	2274361344	38	5951
2026-01-16 05:10:43.39	308.04	10.86	-32.7	-33.4	24.8	0.00e+00	0	30	0	2280652800	38	5998
2026-01-16 05:10:44.40	308.22	10.83	-32.8	-33.5	24.7	0.00e+00	0	30	0	2285895680	38	6036
2026-01-16 05:10:45.41	308.39	10.79	-32.9	-33.6	24.5	0.00e+00	0	30	0	2292187136	38	6128
2026-01-16 05:10:46.42	308.56	10.76	-33.0	-33.8	24.6	0.00e+00	0	30	0	2297430016	38	6264
2026-01-16 05:10:47.43	308.73	10.73	-33.0	-33.7	24.5	0.00e+00	0	30	0	2302672896	38	6185
2026-01-16 05:10:48.44	308.91	10.69	-33.0	-33.7	24.5	0.00e+00	0	30	0	2308964352	38	6232
2026-01-16 05:10:49.45	309.08	10.66	-32.9	-33.5	24.6	0.00e+00	0	30	0	2314207232	38	6097
2026-01-16 05:10:50.45	309.25	10.63	-32.9	-33.7	24.6	0.00e+00	0	30	0	2319450112	38	6181
2026-01-16 05:10:51.46	309.42	10.59	-32.8	-33.5	24.7	0.00e+00	0	30	0	2325741568	38	6090
2026-01-16 05:10:52.47	309.59	10.56	-32.8	-33.4	24.6	0.00e+00	0	30	0	2330984448	38	6032
2026-01-16 05:10:53.48	309.76	10.53	-33.0	-33.6	24.5	0.00e+00	0	30	0	2337275904	38	6173
2026-01-16 05:10:54.49	309.93	10.49	-33.0	-33.8	24.5	0.00e+00	0	30	0	2342518784	38	6257
2026-01-16 05:10:55.50	310.10	10.46	-33.2	-33.9	24.4	0.00e+00	0	30	0	2347761664	38	6372
2026-01-16 05:10:56.51	310.27	10.42	-33.2	-33.9	24.4	0.00e+00	0	30	0	2354053120	38	6342
2026-01-16 05:10:57.51	310.43	10.39	-33.2	-34.0	24.3	0.00e+00	0	30	0	2359296000	38	6392
2026-01-16 05:10:58.52	310.60	10.35	-33.1	-33.8	24.4	0.00e+00	0	30	0	2365587456	38	6305
2026-01-16 05:10:59.54	310.77	10.32	-33.2	-33.8	24.3	0.00e+00	0	30	0	2370830336	38	6280
2026-01-16 05:11:00.54	310.94	10.28	-33.0	-33.7	24.5	0.00e+00	0	30	0	2377121792	38	6205
2026-01-16 05:11:01.56	311.10	10.24	-32.9	-33.6	24.6	0.00e+00	0	30	0	2382364672	38	6162
2026-01-16 05:11:02.56	311.27	10.21	-32.9	-33.6	24.5	0.00e+00	0	30	0	2388656128	38	6114
2026-01-16 05:11:03.57	311.44	10.17	-33.0	-33.8	24.5	0.00e+00	0	30	0	2393899008	38	6251
2026-01-16 05:11:04.58	311.60	10.14	-33.1	-33.8	24.4	0.00e+00	0	30	0	2399141888	38	6294
2026-01-16 05:11:05.59	311.77	10.10	-33.2	-33.8	24.3	0.00e+00	0	30	0	2405433344	38	6313
2026-01-16 05:11:06.60	311.93	10.06	-33.2	-34.0	24.2	0.00e+00	0	30	0	2410676224	38	6417
2026-01-16 05:11:07.62	312.10	10.03	-33.2	-33.9	24.3	0.00e+00	0	30	0	2416967680	38	6352
2026-01-16 05:11:08.63	312.26	9.99	-33.4	-34.1	24.1	0.00e+00	0	30	0	2422210560	38	6488
2026-01-16 05:11:09.64	312.43	9.95	-33.4	-34.0	24.1	0.00e+00	0	30	0	2427453440	38	6445
2026-01-16 05:11:10.65	312.59	9.92	-33.4	-34.1	24.0	0.00e+00	0	30	0	2433744896	38	6490
2026-01-16 05:11:11.65	312.75	9.88	-33.6	-34.4	23.9	0.00e+00	0	31	0	2438987776	38	6701
2026-01-16 05:11:12.66	312.91	9.84	-33.6	-34.2	23.9	0.00e+00	0	31	0	2445279232	38	6611
2026-01-16 05:11:13.67	313.07	9.81	-33.5	-34.2	24.0	0.00e+00	0	31	0	2450522112	38	6597
2026-01-16 05:11:14.68	313.24	9.77	-33.2	-34.0	24.3	0.00e+00	0	30	0	2455764992	38	6425
2026-01-16 05:11:15.69	313.40	9.73	-33.2	-34.0	24.3	0.00e+00	0	30	0	2462056448	38	6406
2026-01-16 05:11:16.69	313.56	9.69	-33.1	-33.8	24.3	0.00e+00	0	30	0	2467299328	38	6295
2026-01-16 05:11:17.71	313.72	9.65	-33.2	-33.8	24.3	0.00e+00	0	30	0	2473590784	38	6300
2026-01-16 05:11:18.71	313.88	9.62	-33.3	-34.0	24.2	0.00e+00	0	30	0	2478833664	38	6416
2026-01-16 05:11:19.72	314.04	9.58	-33.4	-34.1	24.1	0.00e+00	0	30	0	2485125120	38	6532
2026-01-16 05:11:20.73	314.20	9.54	-33.3	-34.0	24.2	0.00e+00	0	30	0	2490368000	38	6418
2026-01-16 05:11:21.74	314.35	9.50	-33.4	-34.1	24.1	0.00e+00	0	30	0	2495610880	38	6539
2026-01-16 05:11:22.75	314.51	9.46	-33.3	-34.1	24.1	0.00e+00	0	31	0	2501902336	38	6471
2026-01-16 05:11:23.76	314.67	9.42	-33.2	-34.0	24.2	0.00e+00	0	31	0	2507145216	38	6426
2026-01-16 05:11:24.77	314.83	9.38	-33.2	-33.8	24.3	0.00e+00	0	30	0	2513436672	38	6292
2026-01-16 05:11:25.78	314.99	9.35	-33.2	-33.9	24.2	0.00e+00	0	31	0	2518679552	38	6375
2026-01-16 05:11:26.79	315.14	9.31	-33.3	-33.9	24.2	0.00e+00	0	31	0	2523922432	38	6351
2026-01-16 05:11:27.80	315.30	9.27	-33.3	-34.1	24.1	0.00e+00	0	31	0	2530213888	38	6516
2026-01-16 05:11:28.81	315.46	9.23	-33.2	-33.9	24.2	0.00e+00	0	31	0	2535456768	38	6349
2026-01-16 05:11:29.82	315.61	9.19	-33.3	-34.0	24.1	0.00e+00	0	31	0	2541748224	38	6409
2026-01-16 05:11:30.83	315.77	9.15	-33.2	-34.0	24.2	0.00e+00	0	31	0	2546991104	38	6414
2026-01-16 05:11:31.84	315.92	9.11	-33.2	-34.0	24.2	0.00e+00	0	31	0	2552233984	38	6394
2026-01-16 05:11:32.85	316.08	9.07	-33.3	-33.9	24.2	0.00e+00	0	31	0	2558525440	38	6362
2026-01-16 05:11:33.86	316.23	9.03	-33.3	-34.0	24.1	0.00e+00	0	30	0	2563768320	38	6419
2026-01-16 05:11:34.87	316.38	8.99	-33.3	-33.9	24.1	0.00e+00	0	31	0	2570059776	38	6381
2026-01-16 05:11:35.87	316.53	8.95	-33.5	-34.2	23.9	0.00e+00	0	31	0	2575302656	38	6567
2026-01-16 05:11:36.88	316.69	8.91	-33.4	-34.2	24.0	0.00e+00	0	31	0	2581594112	38	6567
2026-01-16 05:11:37.89	316.84	8.87	-33.5	-34.2	23.9	0.00e+00	0	31	0	2586836992	38	6601
2026-01-16 05:11:38.90	316.99	8.83	-33.7	-34.4	23.8	0.00e+00	0	31	0	2592079872	38	6707
2026-01-16 05:11:39.91	317.14	8.79	-33.7	-34.5	23.7	0.00e+00	0	31	0	2598371328	40	6049
2026-01-16 05:11:40.92	317.29	8.75	-33.8	-34.5	23.5	0.00e+00	0	30	0	2603614208	40	6076
2026-01-16 05:11:41.93	317.44	8.71	-33.9	-34.7	23.5	0.00e+00	0	31	0	2609905664	40	6204
2026-01-16 05:11:42.94	317.60	8.66	-33.9	-34.6	23.4	0.00e+00	0	31	0	2615148544	40	6151
2026-01-16 05:11:43.95	317.74	8.62	-33.8	-34.5	23.6	0.00e+00	0	31	0	2620391424	40	6091
2026-01-16 05:11:44.96	317.89	8.58	-33.9	-34.7	23.5	0.00e+00	0	30	0	2626682880	40	6192
2026-01-16 05:11:45.97	318.04	8.54	-33.7	-34.6	23.6	0.00e+00	0	31	0	2631925760	40	6104
2026-01-16 05:11:46.98	318.19	8.50	-33.8	-34.4	23.6	0.00e+00	0	31	0	2638217216	40	6007
2026-01-16 05:11:47.99	318.34	8.46	-33.6	-34.2	23.7	0.00e+00	0	31	0	2643460096	40	5876
2026-01-16 05:11:49.00	318.49	8.42	-33.6	-34.3	23.7	0.00e+00	0	30	0	2648702976	40	5946
2026-01-16 05:11:50.01	318.64	8.38	-33.6	-34.3	23.7	0.00e+00	0	31	0	2654994432	40	5917
2026-01-16 05:11:51.02	318.78	8.33	-33.5	-34.3	23.9	0.00e+00	0	31	0	2660237312	40	5901
2026-01-16 05:11:52.03	318.93	8.29	-33.5	-34.2	23.9	0.00e+00	0	31	0	2666528768	40	5877
2026-01-16 05:11:53.04	319.08	8.25	-33.5	-34.2	23.8	0.00e+00	0	31	0	2671771648	40	5856
2026-01-16 05:11:54.05	319.22	8.21	-33.7	-34.4	23.6	0.00e+00	0	31	0	2678063104	40	5973
2026-01-16 05:11:55.06	319.37	8.17	-33.7	-34.5	23.6	0.00e+00	0	31	0	2683305984	40	6038
2026-01-16 05:11:56.07	319.51	8.12	-34.0	-34.7	23.5	0.00e+00	0	31	0	2689597440	40	6206
2026-01-16 05:11:57.07	319.65	8.08	-34.1	-34.8	23.2	0.00e+00	0	31	0	2694840320	40	6251
2026-01-16 05:11:58.08	319.80	8.04	-33.9	-34.7	23.4	0.00e+00	0	31	0	2700083200	40	6206
2026-01-16 05:11:59.09	319.94	8.00	-34.1	-34.9	23.3	0.00e+00	0	31	0	2706374656	40	6343
2026-01-16 05:12:00.10	320.09	7.95	-34.1	-34.9	23.2	0.00e+00	0	31	0	2711617536	40	6381
2026-01-16 05:12:01.11	320.23	7.91	-34.2	-35.0	23.2	0.00e+00	0	31	0	2717908992	40	6447
2026-01-16 05:12:02.12	320.37	7.87	-34.4	-35.2	22.9	0.00e+00	0	31	0	2723151872	40	6572
2026-01-16 05:12:03.13	320.51	7.83	-33.9	-34.6	23.5	0.00e+00	0	30	0	2728394752	40	6141
2026-01-16 05:12:04.14	320.66	7.78	-33.8	-34.5	23.5	0.00e+00	0	31	0	2734686208	40	6057
2026-01-16 05:12:05.15	320.80	7.74	-33.7	-34.4	23.7	0.00e+00	0	31	0	2739929088	40	6003
2026-01-16 05:12:06.16	320.94	7.70	-33.7	-34.5	23.7	0.00e+00	0	31	0	2746220544	40	6051
2026-01-16 05:12:07.17	321.08	7.66	-33.8	-34.5	23.5	0.00e+00	0	31	0	2751463424	40	6093
2026-01-16 05:12:08.18	321.22	7.61	-33.8	-34.6	23.5	0.00e+00	0	31	0	2756706304	40	6112
2026-01-16 05:12:09.18	321.36	7.57	-33.8	-34.6	23.5	0.00e+00	0	31	0	2762997760	40	6115
2026-01-16 05:12:10.19	321.50	7.53	-33.8	-34.5	23.5	0.00e+00	0	31	0	2768240640	40	6082
2026-01-16 05:12:11.20	321.64	7.48	-33.9	-34.6	23.4	0.00e+00	0	31	0	2774532096	40	6147
2026-01-16 05:12:12.21	321.77	7.44	-33.9	-34.6	23.3	0.00e+00	0	31	0	2779774976	40	6131
2026-01-16 05:12:13.22	321.91	7.40	-34.1	-34.8	23.1	0.00e+00	0	31	0	2786066432	40	6308
2026-01-16 05:12:14.23	322.05	7.35	-34.4	-35.1	22.9	0.00e+00	0	31	0	2791309312	40	6537
2026-01-16 05:12:15.24	322.19	7.31	-34.1	-34.8	23.1	0.00e+00	0	31	0	2796552192	40	6279
2026-01-16 05:12:16.25	322.32	7.27	-34.2	-34.9	23.0	0.00e+00	0	31	0	2802843648	40	6384
2026-01-16 05:12:17.26	322.46	7.22	-34.4	-35.2	22.7	0.00e+00	0	31	0	2808086528	40	6572
2026-01-16 05:12:18.27	322.60	7.18	-34.4	-35.2	22.8	0.00e+00	0	31	0	2814377984	40	6591
2026-01-16 05:12:19.28	322.73	7.13	-34.4	-35.2	22.7	0.00e+00	0	31	0	2819620864	40	6597
2026-01-16 05:12:20.29	322.87	7.09	-34.4	-35.1	22.8	0.00e+00	0	31	0	2824863744	40	6527
2026-01-16 05:12:21.29	323.00	7.05	-34.3	-35.0	22.9	0.00e+00	0	31	0	2831155200	40	6428
2026-01-16 05:12:22.30	323.14	7.00	-34.4	-35.1	22.7	0.00e+00	0	31	0	2836398080	40	6528
2026-01-16 05:12:23.31	323.27	6.96	-34.3	-35.1	22.8	0.00e+00	0	31	0	2842689536	40	6504
2026-01-16 05:12:24.32	323.40	6.92	-34.3	-35.0	22.8	0.00e+00	0	31	0	2847932416	40	6460
2026-01-16 05:12:25.33	323.54	6.87	-34.2	-35.0	22.9	0.00e+00	0	31	0	2853175296	40	6392
2026-01-16 05:12:26.34	323.67	6.83	-34.2	-34.9	23.0	0.00e+00	0	31	0	2859466752	40	6361
2026-01-16 05:12:27.35	323.80	6.78	-34.2	-34.9	22.9	0.00e+00	0	31	0	2864709632	40	6355
2026-01-16 05:12:28.36	323.94	6.74	-34.1	-34.8	22.9	0.00e+00	0	31	0	2871001088	40	6304
2026-01-16 05:12:29.37	324.07	6.69	-34.1	-34.8	23.0	0.00e+00	0	31	0	2876243968	40	6304
2026-01-16 05:12:30.38	324.20	6.65	-34.2	-35.0	23.0	0.00e+00	0	31	0	2882535424	40	6396
2026-01-16 05:12:31.39	324.33	6.61	-34.3	-35.1	22.8	0.00e+00	0	31	0	2887778304	40	6470
2026-01-16 05:12:32.40	324.46	6.56	-34.4	-35.1	22.7	0.00e+00	0	31	0	2893021184	40	6536
2026-01-16 05:12:33.41	324.59	6.52	-34.5	-35.2	22.7	0.00e+00	0	31	0	2899312640	40	6582
2026-01-16 05:12:34.42	324.72	6.47	-34.6	-35.4	22.6	0.00e+00	0	31	0	2904555520	40	6730
2026-01-16 05:12:35.43	324.85	6.43	-34.5	-35.2	22.7	0.00e+00	0	31	0	2910846976	40	6611
2026-01-16 05:12:36.44	324.98	6.38	-34.7	-35.5	22.6	0.00e+00	0	31	0	2916089856	40	6807
2026-01-16 05:12:37.45	325.11	6.34	-34.6	-35.3	22.6	0.00e+00	0	31	0	2921332736	40	6630
2026-01-16 05:12:38.46	325.24	6.29	-34.5	-35.3	22.6	0.00e+00	0	31	0	2927624192	40	6643
2026-01-16 05:12:39.47	325.37	6.25	-34.5	-35.2	22.6	0.00e+00	0	31	0	2932867072	40	6614
2026-01-16 05:12:40.47	325.49	6.20	-34.6	-35.4	22.6	0.00e+00	0	31	0	2939158528	40	6720
2026-01-16 05:12:41.49	325.62	6.16	-34.4	-35.1	22.7	0.00e+00	0	31	0	2944401408	40	6522
2026-01-16 05:12:42.50	325.75	6.11	-34.5	-35.2	22.6	0.00e+00	0	31	0	2949644288	40	6579
2026-01-16 05:12:43.50	325.87	6.07	-34.4	-35.2	22.8	0.00e+00	0	31	0	2955935744	40	6596
2026-01-16 05:12:44.52	326.00	6.02	-34.5	-35.3	22.6	0.00e+00	0	31	0	2961178624	40	6645
2026-01-16 05:12:45.52	326.12	5.98	-34.4	-35.2	22.7	0.00e+00	0	31	0	2967470080	40	6591
2026-01-16 05:12:46.53	326.25	5.94	-34.6	-35.3	22.6	0.00e+00	0	31	0	2972712960	40	6636
2026-01-16 05:12:47.54	326.38	5.89	-34.6	-35.3	22.4	0.00e+00	0	31	0	2979004416	40	6664
2026-01-16 05:12:48.55	326.50	5.84	-34.6	-35.3	22.5	0.00e+00	0	31	0	2984247296	40	6647
2026-01-16 05:12:49.56	326.62	5.80	-34.7	-35.5	22.4	0.00e+00	0	31	0	2990538752	42	6078
2026-01-16 05:12:50.57	326.75	5.75	-34.9	-35.7	22.1	0.00e+00	0	31	0	2995781632	42	6212
2026-01-16 05:12:51.58	326.87	5.71	-34.8	-35.6	22.3	0.00e+00	0	31	0	3001024512	42	6166
2026-01-16 05:12:52.59	327.00	5.66	-34.5	-35.3	22.5	0.00e+00	0	31	0	3007315968	42	5954
2026-01-16 05:12:53.60	327.12	5.62	-34.6	-35.4	22.5	0.00e+00	0	31	0	3012558848	42	6007
2026-01-16 05:12:54.61	327.24	5.57	-34.6	-35.4	22.5	0.00e+00	0	31	0	3018850304	42	5985
2026-01-16 05:12:55.62	327.36	5.53	-34.7	-35.5	22.4	0.00e+00	0	31	0	3024093184	42	6062
2026-01-16 05:12:56.63	327.48	5.48	-34.7	-35.6	22.4	0.00e+00	0	31	0	3029336064	42	6108
2026-01-16 05:12:57.63	327.60	5.44	-34.8	-35.6	22.3	0.00e+00	0	31	0	3035627520	42	6167
2026-01-16 05:12:58.64	327.73	5.39	-34.8	-35.7	22.2	0.00e+00	0	31	0	3040870400	42	6202
2026-01-16 05:12:59.66	327.85	5.35	-34.6	-35.4	22.4	0.00e+00	0	31	0	3047161856	42	5988
2026-01-16 05:13:00.66	327.97	5.30	-34.9	-35.7	22.2	0.00e+00	0	31	0	3052404736	42	6224
2026-01-16 05:13:01.67	328.09	5.26	-34.9	-35.7	22.1	0.00e+00	0	31	0	3057647616	42	6200
2026-01-16 05:13:02.68	328.21	5.21	-34.6	-35.3	22.5	0.00e+00	0	31	0	3063939072	42	5934
2026-01-16 05:13:03.69	328.33	5.17	-34.9	-35.7	22.1	0.00e+00	0	31	0	3069181952	42	6179
2026-01-16 05:13:04.70	328.44	5.12	-34.8	-35.7	22.2	0.00e+00	0	31	0	3075473408	42	6184
2026-01-16 05:13:05.71	328.56	5.07	-35.1	-35.9	22.0	0.00e+00	0	31	0	3080716288	42	6319
2026-01-16 05:13:06.72	328.68	5.03	-35.0	-35.8	22.0	0.00e+00	0	31	0	3087007744	42	6256
2026-01-16 05:13:07.73	328.80	4.98	-35.2	-36.0	21.7	0.00e+00	0	31	0	3092250624	42	6434
2026-01-16 05:13:08.74	328.92	4.94	-35.1	-35.9	21.8	0.00e+00	0	31	0	3097493504	42	6346
2026-01-16 05:13:09.75	329.03	4.89	-35.0	-35.8	22.0	0.00e+00	0	31	0	3103784960	42	6278
2026-01-16 05:13:10.75	329.15	4.85	-35.1	-35.9	21.8	0.00e+00	0	31	0	3109027840	42	6344
2026-01-16 05:13:11.76	329.27	4.80	-35.2	-36.1	21.7	0.00e+00	0	31	0	3115319296	42	6498
2026-01-16 05:13:12.77	329.38	4.76	-35.3	-36.1	21.6	0.00e+00	0	31	0	3120562176	42	6488
2026-01-16 05:13:13.78	329.50	4.71	-35.3	-36.1	21.7	0.00e+00	0	31	0	3125805056	42	6530
2026-01-16 05:13:14.79	329.61	4.66	-35.1	-36.0	21.7	0.00e+00	0	31	0	3132096512	42	6454
2026-01-16 05:13:15.80	329.73	4.62	-35.2	-36.0	21.6	0.00e+00	0	31	0	3137339392	42	6461
2026-01-16 05:13:16.81	329.84	4.57	-35.2	-36.1	21.7	0.00e+00	0	31	0	3143630848	42	6476
2026-01-16 05:13:17.82	329.96	4.53	-35.2	-36.0	21.7	0.00e+00	0	31	0	3148873728	42	6404
2026-01-16 05:13:18.83	330.07	4.48	-35.3	-36.2	21.5	0.00e+00	0	31	0	3154116608	42	6599
2026-01-16 05:13:19.84	330.19	4.44	-35.0	-35.9	21.7	0.00e+00	0	31	0	3160408064	42	6357
2026-01-16 05:13:20.85	330.30	4.39	-35.2	-36.0	21.6	0.00e+00	0	31	0	3165650944	42	6447
2026-01-16 05:13:21.86	330.41	4.34	-35.2	-36.1	21.6	0.00e+00	0	31	0	3171942400	42	6485
2026-01-16 05:13:22.87	330.52	4.30	-35.1	-36.0	21.6	0.00e+00	0	31	0	3177185280	42	6416
2026-01-16 05:13:23.88	330.64	4.25	-35.2	-36.0	21.5	0.00e+00	0	31	0	3183476736	42	6400
2026-01-16 05:13:24.89	330.75	4.21	-35.0	-35.8	21.7	0.00e+00	0	31	0	3188719616	42	6261
2026-01-16 05:13:25.90	330.86	4.16	-34.9	-35.8	21.7	0.00e+00	0	31	0	3193962496	42	6288
2026-01-16 05:13:26.91	330.97	4.12	-35.4	-36.2	21.0	0.00e+00	0	31	0	3200253952	42	6575
2026-01-16 05:13:27.92	331.08	4.07	-35.8	-36.7	20.6	0.00e+00	0	31	0	3205496832	44	6207
2026-01-16 05:13:28.93	331.19	4.02	-35.9	-36.8	20.3	0.00e+00	0	31	0	3211788288	44	6248
2026-01-16 05:13:29.94	331.30	3.98	-36.0	-37.0	20.1	0.00e+00	0	31	0	3217031168	44	6409
2026-01-16 05:13:30.95	331.41	3.93	-36.9	-37.9	19.2	0.00e+00	0	31	0	3222274048	46	6363
2026-01-16 05:13:31.96	331.52	3.89	-37.1	-38.2	18.4	0.00e+00	0	31	0	3228565504	46	6542
2026-01-16 05:13:32.97	331.63	3.84	-37.7	-39.0	17.5	0.00e+00	0	31	0	3233808384	48	6421
2026-01-16 05:13:33.98	331.74	3.79	-37.8	-39.1	16.8	0.00e+00	0	31	0	3240099840	48	6533
2026-01-16 05:13:34.99	331.85	3.75	-38.9	-40.6	14.9	0.00e+00	0	31	0	3245342720	50	6859
2026-01-16 05:13:36.00	331.96	3.70	-39.7	-41.8	13.4	1.14e-05	0	31	0	3250585600	50	7870
2026-01-16 05:13:37.01	332.07	3.66	-40.7	-43.3	11.4	6.33e-04	0	31	0	3256877056	52	8412
2026-01-16 05:13:38.02	332.17	3.61	-41.4	-44.7	9.6	7.88e-03	0	31	0	3262119936	54	8794
2026-01-16 05:13:39.03	332.28	3.57	-41.7	-45.7	8.2	3.13e-02	0	31	0	3268411392	54	9810
2026-01-16 05:13:40.04	332.39	3.52	-42.2	-47.1	6.5	2.10e-01	0	31	0	3273654272	56	10261
2026-01-16 05:13:41.05	332.50	3.47	-42.5	-48.3	5.0	4.42e-01	0	31	0	3277848576	56	11800
2026-01-16 05:13:42.06	332.60	3.43	-42.7	-49.9	3.9	8.24e-01	0	31	0	3278897152	58	12735
2026-01-16 05:13:43.07	332.71	3.38	-42.8	-52.5	3.7	8.43e-01	0	31	104	3278897152	58	17052
2026-01-16 05:13:44.08	332.81	3.34	-42.9	-53.5	3.6	8.45e-01	0	31	104	3278897152	58	19267
2026-01-16 05:13:45.09	332.92	3.29	-42.9	-54.1	3.6	8.45e-01	0	31	104	3278897152	58	20607
2026-01-16 05:13:46.10	333.03	3.24	-42.9	-54.4	3.6	8.44e-01	0	31	104	3278897152	58	21314
2026-01-16 05:13:47.10	333.13	3.20	-42.9	-54.5	3.6	8.46e-01	0	31	104	3278897152	58	21603
2026-01-16 05:13:48.11	333.23	3.15	-42.9	-54.8	3.6	8.45e-01	0	31	104	3278897152	58	22316
2026-01-16 05:13:49.13	333.34	3.11	-43.0	-55.0	3.6	8.44e-01	0	31	104	3278897152	58	22878
2026-01-16 05:13:50.14	333.44	3.06	-43.0	-55.0	3.6	8.46e-01	0	31	104	3278897152	58	22742
2026-01-16 05:13:51.15	333.55	3.01	-43.0	-54.8	3.6	8.46e-01	0	31	104	3278897152	58	22332
2026-01-16 05:13:52.16	333.65	2.97	-47.0	-59.0	3.6	8.46e-01	0	31	104	3278897152	60	32385
2026-01-16 05:13:53.17	333.75	2.92	-47.4	-59.5	3.6	8.45e-01	0	31	104	3278897152	60	34138
2026-01-16 05:13:54.18	333.86	2.88	-47.7	-59.8	3.6	8.44e-01	0	31	104	3278897152	60	35286
2026-01-16 05:13:55.19	333.96	2.83	-47.9	-60.1	3.6	8.45e-01	0	31	104	3278897152	60	36374
2026-01-16 05:13:56.20	334.06	2.79	-48.0	-60.1	3.6	8.45e-01	0	31	104	3278897152	60	36503
2026-01-16 05:13:57.21	334.16	2.74	-48.0	-60.1	3.6	8.45e-01	0	31	104	3278897152	60	36675
2026-01-16 05:13:58.22	334.26	2.69	-48.1	-60.3	3.6	8.45e-01	0	31	104	3278897152	60	37270
2026-01-16 05:13:59.23	334.37	2.65	-48.2	-60.3	3.6	8.46e-01	0	31	104	3278897152	60	37386
2026-01-16 05:14:00.24	334.47	2.60	-48.1	-60.3	3.6	8.46e-01	0	31	104	3278897152	60	37599
2026-01-16 05:14:01.25	334.57	2.56	-47.8	-60.3	3.6	8.45e-01	0	31	104	3278897152	60	37558
2026-01-16 05:14:02.25	334.67	2.51	-46.7	-60.3	3.6	8.46e-01	0	31	104	3278897152	60	37232
2026-01-16 05:14:03.27	334.77	2.46	-47.9	-60.2	3.6	8.45e-01	0	31	104	3278897152	60	36896
