passes_logs/2026/01/16/R4.6S_Anadyr/R4.6S_Anadyr__20260116_235125_NOAA_21_JPSS-2_rec.log

#Pass ID: 20260116_235125_NOAA 21 (JPSS-2)
#Satellite: NOAA 21 (JPSS-2)
#Configuration: NOAA-21
#almurnet v.1.7.20251203
#Start time: 2026-01-16 23:51:28

#Version: 2.2.20231116
#Station: R4.6S_Anadyr
#Location: 177.4865 lon 64.73178 lat
#TLE: 1 54234U 22150A   26016.56338662  .00000024  00000+0  32257-4 0  9990
#TLE: 2 54234  98.7500 317.4442 0000622 279.9774  80.1332 14.19534942165033

#Time	Az	El	Level	Level2	SNR	BER	BlckErr	Temp	State	Recorded	gain1	gain2
2026-01-16 23:51:28.64	147.33	0.21	-48.4	-59.8	3.3	1.54e+00	0	29	0	0	60	34351
2026-01-16 23:51:29.65	147.33	0.27	-48.4	-61.2	3.5	1.51e+00	0	29	104	0	60	40409
2026-01-16 23:51:30.66	147.32	0.33	-48.4	-61.3	3.5	1.52e+00	0	29	104	0	60	40593
2026-01-16 23:51:31.67	147.31	0.39	-48.5	-61.3	3.5	1.52e+00	0	29	104	0	60	40593
2026-01-16 23:51:32.68	147.30	0.45	-48.4	-61.3	3.5	1.52e+00	0	29	104	0	60	40543
2026-01-16 23:51:33.69	147.30	0.51	-48.4	-61.2	3.5	1.52e+00	0	29	104	0	60	40293
2026-01-16 23:51:34.70	147.29	0.57	-48.3	-61.2	3.5	1.52e+00	0	29	104	0	60	40184
2026-01-16 23:51:35.71	147.28	0.64	-48.2	-61.0	3.5	1.52e+00	0	29	104	0	60	39516
2026-01-16 23:51:36.72	147.28	0.70	-48.1	-60.9	3.5	1.52e+00	0	29	104	0	60	39012
2026-01-16 23:51:37.73	147.27	0.76	-47.9	-60.7	3.5	1.52e+00	0	29	104	0	60	37839
2026-01-16 23:51:38.74	147.26	0.82	-47.7	-60.5	3.5	1.51e+00	0	29	104	0	60	37022
2026-01-16 23:51:39.75	147.25	0.89	-47.5	-60.3	3.5	1.52e+00	0	29	104	0	60	36415
2026-01-16 23:51:40.76	147.25	0.95	-47.0	-59.9	3.5	1.52e+00	0	29	104	0	60	34765
2026-01-16 23:51:41.77	147.24	1.01	-46.4	-59.3	3.5	1.52e+00	0	29	104	0	60	32233
2026-01-16 23:51:42.78	147.23	1.07	-46.3	-59.2	3.5	1.52e+00	0	29	104	0	60	32068
2026-01-16 23:51:43.79	147.23	1.14	-46.3	-59.2	3.5	1.52e+00	0	29	104	0	60	31862
2026-01-16 23:51:44.80	147.22	1.20	-46.3	-59.1	3.5	1.52e+00	0	29	104	0	60	31773
2026-01-16 23:51:45.81	147.21	1.26	-46.3	-59.2	3.5	1.52e+00	0	29	104	0	60	31852
2026-01-16 23:51:46.82	147.20	1.32	-46.3	-59.1	3.5	1.52e+00	0	29	104	0	60	31527
2026-01-16 23:51:47.83	147.19	1.39	-46.3	-59.1	3.5	1.52e+00	0	30	104	0	60	31613
2026-01-16 23:51:48.84	147.19	1.45	-46.3	-59.0	3.5	1.52e+00	0	30	104	0	60	31455
2026-01-16 23:51:49.85	147.18	1.52	-46.3	-59.1	3.5	1.52e+00	0	30	104	0	60	31494
2026-01-16 23:51:50.86	147.17	1.58	-46.3	-59.0	3.5	1.52e+00	0	29	104	0	60	31396
2026-01-16 23:51:51.86	147.16	1.64	-46.3	-59.0	3.5	1.52e+00	0	30	104	0	60	31358
2026-01-16 23:51:52.87	147.16	1.71	-46.3	-59.0	3.5	1.51e+00	0	30	104	0	60	31343
2026-01-16 23:51:53.88	147.15	1.77	-46.3	-59.0	3.5	1.52e+00	0	30	104	0	60	31225
2026-01-16 23:51:54.89	147.14	1.84	-46.3	-58.9	3.5	1.52e+00	0	30	104	0	60	31100
2026-01-16 23:51:55.90	147.13	1.90	-46.3	-59.0	3.5	1.52e+00	0	30	104	0	60	31295
2026-01-16 23:51:56.91	147.12	1.96	-46.3	-59.0	3.5	1.52e+00	0	30	104	0	60	31453
2026-01-16 23:51:57.92	147.12	2.03	-46.3	-59.0	3.5	1.52e+00	0	30	104	0	60	31350
2026-01-16 23:51:58.93	147.11	2.09	-46.3	-59.0	3.6	1.52e+00	0	30	104	0	60	31427
2026-01-16 23:51:59.94	147.10	2.16	-46.3	-59.1	3.5	1.52e+00	0	30	104	0	60	31522
2026-01-16 23:52:00.95	147.09	2.22	-46.3	-59.0	3.5	1.51e+00	0	30	104	0	60	31398
2026-01-16 23:52:01.96	147.08	2.29	-46.3	-59.1	3.5	1.52e+00	0	30	104	0	60	31486
2026-01-16 23:52:02.97	147.08	2.36	-46.3	-59.1	3.5	1.52e+00	0	30	104	0	60	31474
2026-01-16 23:52:03.98	147.07	2.42	-46.3	-59.1	3.5	1.52e+00	0	30	104	0	60	31610
2026-01-16 23:52:04.99	147.06	2.49	-46.3	-59.1	3.5	1.52e+00	0	30	104	0	60	31557
2026-01-16 23:52:06.00	147.05	2.55	-46.3	-59.2	3.5	1.52e+00	0	30	104	0	60	31834
2026-01-16 23:52:07.01	147.04	2.62	-46.3	-59.2	3.5	1.52e+00	0	30	104	0	60	31994
2026-01-16 23:52:08.01	147.03	2.68	-46.3	-59.2	3.5	1.51e+00	0	30	104	0	60	31966
2026-01-16 23:52:09.02	147.02	2.75	-46.3	-59.0	3.5	1.52e+00	0	30	104	0	60	31171
2026-01-16 23:52:10.03	147.02	2.82	-46.2	-58.4	3.5	1.51e+00	0	30	104	0	60	29210
2026-01-16 23:52:11.04	147.01	2.88	-46.1	-57.4	3.5	1.51e+00	0	30	104	0	60	26106
2026-01-16 23:52:12.05	147.00	2.95	-45.9	-55.8	4.2	1.47e+00	0	30	104	0	60	21562
2026-01-16 23:52:13.06	146.99	3.02	-45.6	-53.6	5.3	6.65e-01	123	30	104	0	60	16813
2026-01-16 23:52:14.07	146.98	3.09	-45.3	-51.1	6.6	2.72e-01	123	30	0	2097152	60	12613
2026-01-16 23:52:15.08	146.97	3.15	-44.6	-49.3	8.7	5.18e-02	122	30	0	5242880	60	10209
2026-01-16 23:52:16.09	146.96	3.22	-43.7	-47.3	10.9	8.40e-03	122	30	0	8388608	60	8128
2026-01-16 23:52:17.10	146.95	3.29	-43.1	-46.3	12.1	6.41e-04	123	30	0	11534336	60	7229
2026-01-16 23:52:18.11	146.94	3.36	-42.5	-45.2	13.2	1.06e-04	123	30	0	14680064	58	7157
2026-01-16 23:52:19.12	146.93	3.42	-42.0	-44.5	14.0	9.10e-06	123	30	0	17825792	58	6577
2026-01-16 23:52:20.13	146.93	3.49	-41.4	-43.6	14.8	7.00e-07	123	30	0	20971520	56	6673
2026-01-16 23:52:21.14	146.92	3.56	-41.0	-43.0	15.4	0.00e+00	123	30	0	24117248	56	6236
2026-01-16 23:52:22.15	146.91	3.63	-41.0	-43.0	15.5	0.00e+00	123	30	0	27262976	56	6266
2026-01-16 23:52:23.15	146.90	3.70	-40.8	-42.8	15.2	0.00e+00	123	30	0	30408704	54	6858
2026-01-16 23:52:24.17	146.89	3.77	-46.4	-58.2	3.5	1.51e+00	0	30	104	32505856	60	28513
2026-01-16 23:52:25.18	146.88	3.84	-45.3	-51.3	9.8	8.85e-01	122	30	104	32505856	60	12928
2026-01-16 23:52:26.18	146.87	3.90	-45.4	-53.6	4.0	6.49e-01	0	30	104	33554432	60	16825
2026-01-16 23:52:27.19	146.86	3.97	-40.3	-42.3	16.7	0.00e+00	123	30	0	33554432	52	7266
2026-01-16 23:52:28.20	146.85	4.04	-45.9	-56.6	3.7	5.06e-01	0	30	104	35651584	60	23760
2026-01-16 23:52:29.21	146.84	4.11	-40.9	-42.8	15.7	7.00e-07	123	30	0	35651584	56	6119
2026-01-16 23:52:30.22	146.83	4.18	-41.3	-43.4	15.1	0.00e+00	123	30	0	38797312	56	6549
2026-01-16 23:52:31.23	146.82	4.25	-40.9	-42.9	15.6	0.00e+00	123	30	0	41943040	56	6175
2026-01-16 23:52:32.24	146.81	4.32	-40.5	-42.3	16.4	0.00e+00	121	30	0	45088768	54	6477
2026-01-16 23:52:33.25	146.80	4.39	-40.4	-42.2	16.5	0.00e+00	122	30	0	48234496	54	6368
2026-01-16 23:52:34.26	146.79	4.47	-39.8	-41.4	17.4	0.00e+00	123	30	0	51380224	54	5816
2026-01-16 23:52:35.27	146.78	4.54	-39.8	-41.4	17.3	0.00e+00	122	30	0	54525952	52	6522
2026-01-16 23:52:36.28	146.77	4.61	-39.3	-40.8	18.1	0.00e+00	123	30	0	57671680	52	6072
2026-01-16 23:52:37.29	146.76	4.68	-39.1	-40.5	18.4	0.00e+00	120	30	0	60817408	52	5906
2026-01-16 23:52:38.30	146.75	4.75	-38.8	-40.2	18.4	0.00e+00	123	30	0	63963136	52	5715
2026-01-16 23:52:39.31	146.74	4.82	-38.6	-40.0	18.7	0.00e+00	121	30	0	67108864	50	6230
2026-01-16 23:52:40.32	146.73	4.89	-38.1	-39.4	19.3	0.00e+00	123	30	0	70254592	50	5819
2026-01-16 23:52:41.33	146.72	4.97	-37.8	-39.1	19.6	0.00e+00	123	30	0	73400320	50	5623
2026-01-16 23:52:42.34	146.71	5.04	-37.9	-39.2	19.4	0.00e+00	123	30	0	76546048	50	5704
2026-01-16 23:52:43.35	146.70	5.11	-37.8	-39.1	19.6	0.00e+00	122	30	0	79691776	50	5597
2026-01-16 23:52:44.36	146.69	5.18	-37.8	-39.1	19.6	0.00e+00	122	30	0	82837504	50	5616
2026-01-16 23:52:45.37	146.67	5.26	-37.8	-39.0	19.7	0.00e+00	123	30	0	85983232	48	6262
2026-01-16 23:52:46.38	146.66	5.33	-37.5	-38.8	20.0	0.00e+00	123	30	0	89128960	48	6074
2026-01-16 23:52:47.39	146.65	5.40	-37.7	-38.9	19.8	0.00e+00	122	30	0	92274688	48	6180
2026-01-16 23:52:48.40	146.64	5.48	-37.6	-38.8	19.9	0.00e+00	122	30	0	95420416	48	6087
2026-01-16 23:52:49.41	146.63	5.55	-37.3	-38.5	20.2	0.00e+00	123	30	0	99614720	48	5901
2026-01-16 23:52:50.42	146.62	5.62	-37.1	-38.3	20.4	0.00e+00	120	30	0	102760448	48	5769
2026-01-16 23:52:51.43	146.61	5.70	-37.4	-38.6	20.1	0.00e+00	122	30	0	104857600	48	5975
2026-01-16 23:52:52.44	146.60	5.77	-37.5	-38.7	20.1	0.00e+00	122	30	0	108003328	48	6047
2026-01-16 23:52:53.45	146.59	5.85	-37.5	-38.7	20.1	0.00e+00	120	30	0	111149056	48	6055
2026-01-16 23:52:54.46	146.57	5.92	-37.4	-38.6	20.2	0.00e+00	122	30	0	115343360	48	5961
2026-01-16 23:52:55.47	146.56	6.00	-37.4	-38.6	20.2	0.00e+00	123	30	0	118489088	48	5950
2026-01-16 23:52:56.48	146.55	6.07	-37.1	-38.3	20.5	0.00e+00	123	30	0	121634816	48	5776
2026-01-16 23:52:57.49	146.54	6.15	-37.3	-38.5	20.1	0.00e+00	123	30	0	124780544	48	5911
2026-01-16 23:52:58.50	146.53	6.22	-37.7	-39.0	19.9	0.00e+00	122	30	0	127926272	48	6207
2026-01-16 23:52:59.51	146.52	6.30	-37.7	-39.0	19.9	0.00e+00	122	30	0	131072000	48	6218
2026-01-16 23:53:00.52	146.50	6.37	-37.4	-38.7	20.3	0.00e+00	123	30	0	134217728	48	5995
2026-01-16 23:53:01.53	146.49	6.45	-37.0	-38.1	20.7	0.00e+00	123	30	0	137363456	48	5655
2026-01-16 23:53:02.54	146.48	6.53	-36.9	-38.1	20.8	0.00e+00	123	30	0	140509184	48	5637
2026-01-16 23:53:03.55	146.47	6.60	-36.9	-38.1	20.8	0.00e+00	122	30	0	143654912	48	5617
2026-01-16 23:53:04.56	146.46	6.68	-36.9	-38.1	20.8	0.00e+00	122	30	0	146800640	48	5621
2026-01-16 23:53:05.57	146.44	6.76	-37.1	-38.2	20.7	0.00e+00	122	30	0	149946368	48	5691
2026-01-16 23:53:06.58	146.43	6.83	-36.7	-37.8	21.0	0.00e+00	120	30	0	153092096	46	6129
2026-01-16 23:53:07.59	146.42	6.91	-37.0	-38.2	20.8	0.00e+00	123	30	0	156237824	46	6357
2026-01-16 23:53:08.60	146.41	6.99	-36.9	-38.0	20.9	0.00e+00	123	30	0	159383552	46	6250
2026-01-16 23:53:09.61	146.39	7.07	-36.7	-37.8	21.2	0.00e+00	122	30	0	162529280	46	6081
2026-01-16 23:53:10.62	146.38	7.15	-36.8	-37.9	21.0	0.00e+00	123	30	0	165675008	46	6172
2026-01-16 23:53:11.63	146.37	7.22	-36.6	-37.8	21.2	0.00e+00	123	30	0	168820736	46	6067
2026-01-16 23:53:12.64	146.36	7.30	-36.7	-37.8	21.2	0.00e+00	123	30	0	171966464	46	6080
2026-01-16 23:53:13.64	146.34	7.38	-36.5	-37.6	21.2	0.00e+00	123	30	0	175112192	46	5965
2026-01-16 23:53:14.65	146.33	7.46	-36.5	-37.6	21.3	0.00e+00	122	30	0	178257920	46	5973
2026-01-16 23:53:15.66	146.32	7.54	-36.6	-37.7	21.3	0.00e+00	118	30	0	181403648	46	6019
2026-01-16 23:53:16.67	146.30	7.62	-36.6	-37.7	21.2	0.00e+00	120	30	0	184549376	46	6009
2026-01-16 23:53:17.68	146.29	7.70	-36.5	-37.5	21.4	0.00e+00	122	30	0	187695104	46	5922
2026-01-16 23:53:18.69	146.28	7.78	-36.5	-37.6	21.3	0.00e+00	123	30	0	190840832	46	5977
2026-01-16 23:53:19.70	146.26	7.86	-36.4	-37.5	21.5	0.00e+00	122	30	0	193986560	46	5882
2026-01-16 23:53:20.71	146.25	7.94	-36.5	-37.6	21.4	0.00e+00	120	30	0	197132288	46	5990
2026-01-16 23:53:21.72	146.24	8.02	-36.5	-37.5	21.4	0.00e+00	123	30	0	200278016	46	5918
2026-01-16 23:53:22.73	146.22	8.10	-36.2	-37.2	21.7	0.00e+00	123	30	0	203423744	46	5712
2026-01-16 23:53:23.74	146.21	8.18	-36.2	-37.3	21.7	0.00e+00	123	30	0	206569472	46	5733
2026-01-16 23:53:24.75	146.19	8.27	-36.2	-37.2	21.7	0.00e+00	123	30	0	209715200	46	5722
2026-01-16 23:53:25.76	146.18	8.35	-36.2	-37.3	21.7	0.00e+00	122	30	0	212860928	46	5753
2026-01-16 23:53:26.77	146.17	8.43	-36.3	-37.4	21.6	0.00e+00	120	30	0	216006656	46	5831
2026-01-16 23:53:27.78	146.15	8.51	-36.1	-37.1	21.8	0.00e+00	123	30	0	219152384	46	5651
2026-01-16 23:53:28.78	146.14	8.59	-36.2	-37.2	21.7	0.00e+00	123	30	0	222298112	46	5712
2026-01-16 23:53:29.80	146.12	8.68	-36.6	-37.7	21.3	0.00e+00	123	30	0	225443840	46	6017
2026-01-16 23:53:30.81	146.11	8.76	-36.0	-37.1	21.8	0.00e+00	122	30	0	228589568	46	5603
2026-01-16 23:53:31.82	146.09	8.85	-36.0	-37.1	21.9	0.00e+00	122	30	0	231735296	46	5599
2026-01-16 23:53:32.82	146.08	8.93	-35.8	-36.8	22.1	0.00e+00	123	30	0	234881024	46	5462
2026-01-16 23:53:33.83	146.06	9.01	-35.9	-37.0	22.0	0.00e+00	122	30	0	238026752	46	5540
2026-01-16 23:53:34.85	146.05	9.10	-36.0	-37.0	22.0	0.00e+00	122	30	0	241172480	46	5579
2026-01-16 23:53:35.85	146.03	9.18	-35.9	-36.9	22.0	0.00e+00	123	30	0	244318208	46	5527
2026-01-16 23:53:36.86	146.02	9.27	-35.8	-36.9	22.1	0.00e+00	122	30	0	247463936	46	5480
2026-01-16 23:53:37.87	146.00	9.35	-35.9	-36.9	22.1	0.00e+00	123	30	0	250609664	46	5517
2026-01-16 23:53:38.88	145.99	9.44	-35.7	-36.7	22.1	0.00e+00	121	30	0	253755392	44	6048
2026-01-16 23:53:39.89	145.97	9.52	-35.7	-36.7	22.2	0.00e+00	122	30	0	256901120	44	6050
2026-01-16 23:53:40.90	145.96	9.61	-35.7	-36.7	22.2	0.00e+00	122	30	0	260046848	44	6057
2026-01-16 23:53:41.91	145.94	9.70	-35.7	-36.8	22.2	0.00e+00	122	30	0	263192576	44	6076
2026-01-16 23:53:42.92	145.92	9.78	-35.7	-36.7	22.3	0.00e+00	122	30	0	266338304	44	6030
2026-01-16 23:53:43.93	145.91	9.87	-35.5	-36.5	22.4	0.00e+00	123	30	0	269484032	44	5885
2026-01-16 23:53:44.94	145.89	9.96	-35.5	-36.5	22.4	0.00e+00	123	30	0	272629760	44	5902
2026-01-16 23:53:45.95	145.88	10.05	-35.5	-36.5	22.4	0.00e+00	123	30	0	275775488	44	5921
2026-01-16 23:53:46.96	145.86	10.13	-35.5	-36.5	22.4	0.00e+00	123	30	0	278921216	44	5874
2026-01-16 23:53:47.97	145.84	10.22	-35.4	-36.4	22.5	0.00e+00	123	30	0	282066944	44	5813
2026-01-16 23:53:48.97	145.83	10.31	-35.4	-36.4	22.5	0.00e+00	123	30	0	285212672	44	5857
2026-01-16 23:53:49.98	145.81	10.40	-35.4	-36.4	22.6	0.00e+00	123	30	0	288358400	44	5797
2026-01-16 23:53:50.99	145.79	10.49	-35.5	-36.5	22.5	0.00e+00	123	30	0	291504128	44	5871
2026-01-16 23:53:52.00	145.78	10.58	-35.5	-36.5	22.5	0.00e+00	123	30	0	294649856	44	5877
2026-01-16 23:53:53.01	145.76	10.67	-35.6	-36.6	22.4	0.00e+00	123	30	0	297795584	44	5940
2026-01-16 23:53:54.02	145.74	10.76	-35.2	-36.1	22.7	0.00e+00	122	30	0	300941312	44	5658
2026-01-16 23:53:55.03	145.73	10.85	-35.3	-36.3	22.6	0.00e+00	122	30	0	304087040	44	5785
2026-01-16 23:53:56.05	145.71	10.94	-35.2	-36.2	22.8	0.00e+00	123	30	0	307232768	44	5677
2026-01-16 23:53:57.05	145.69	11.03	-35.1	-36.1	22.8	0.00e+00	120	30	0	310378496	44	5602
2026-01-16 23:53:58.07	145.67	11.12	-35.2	-36.2	22.8	0.00e+00	122	30	0	313524224	44	5701
2026-01-16 23:53:59.07	145.66	11.22	-35.2	-36.2	22.7	0.00e+00	123	30	0	316669952	44	5661
2026-01-16 23:54:00.08	145.64	11.31	-35.4	-36.4	22.5	0.00e+00	122	30	0	319815680	44	5816
2026-01-16 23:54:01.09	145.62	11.40	-35.3	-36.3	22.7	0.00e+00	123	30	0	322961408	44	5741
2026-01-16 23:54:02.10	145.60	11.49	-35.1	-36.1	22.8	0.00e+00	120	30	0	326107136	44	5641
2026-01-16 23:54:03.11	145.58	11.59	-35.1	-36.1	22.8	0.00e+00	121	30	0	329252864	44	5637
2026-01-16 23:54:04.12	145.56	11.68	-35.0	-36.0	23.0	0.00e+00	123	30	0	332398592	44	5552
2026-01-16 23:54:05.13	145.55	11.77	-35.0	-36.0	22.9	0.00e+00	123	30	0	335544320	44	5549
2026-01-16 23:54:06.14	145.53	11.87	-35.0	-35.9	22.9	0.00e+00	122	30	0	338690048	44	5521
2026-01-16 23:54:07.15	145.51	11.96	-34.9	-35.9	23.0	0.00e+00	120	30	0	341835776	44	5488
2026-01-16 23:54:08.16	145.49	12.06	-35.0	-36.0	22.9	0.00e+00	123	30	0	344981504	44	5548
2026-01-16 23:54:09.17	145.47	12.15	-35.0	-36.0	23.0	0.00e+00	123	30	0	348127232	44	5537
2026-01-16 23:54:10.18	145.45	12.25	-34.9	-35.9	23.1	0.00e+00	122	30	0	351272960	44	5473
2026-01-16 23:54:11.19	145.43	12.35	-35.0	-35.9	23.0	0.00e+00	120	30	0	354418688	44	5526
2026-01-16 23:54:12.20	145.41	12.44	-34.8	-35.7	23.2	0.00e+00	122	30	0	357564416	42	6061
2026-01-16 23:54:13.21	145.39	12.54	-34.9	-35.8	23.1	0.00e+00	123	30	0	360710144	42	6114
2026-01-16 23:54:14.22	145.37	12.64	-35.0	-35.9	23.1	0.00e+00	123	30	0	363855872	42	6179
2026-01-16 23:54:15.23	145.35	12.73	-35.0	-35.9	23.1	0.00e+00	121	30	0	367001600	42	6187
2026-01-16 23:54:16.24	145.33	12.83	-35.0	-36.0	23.0	0.00e+00	123	30	0	370147328	42	6209
2026-01-16 23:54:17.25	145.31	12.93	-34.9	-35.8	23.2	0.00e+00	120	30	0	373293056	42	6128
2026-01-16 23:54:18.26	145.29	13.03	-34.8	-35.8	23.2	0.00e+00	122	30	0	376438784	42	6104
2026-01-16 23:54:19.27	145.27	13.13	-34.7	-35.7	23.2	0.00e+00	124	30	0	379584512	42	6029
2026-01-16 23:54:20.28	145.25	13.23	-34.7	-35.7	23.3	0.00e+00	123	30	0	382730240	42	6032
2026-01-16 23:54:21.29	145.23	13.33	-34.7	-35.7	23.3	0.00e+00	123	30	0	385875968	42	6010
2026-01-16 23:54:22.30	145.21	13.43	-34.8	-35.8	23.2	0.00e+00	123	30	0	389021696	42	6079
2026-01-16 23:54:23.31	145.19	13.53	-34.8	-35.8	23.2	0.00e+00	123	30	0	392167424	42	6098
2026-01-16 23:54:24.32	145.16	13.63	-34.7	-35.6	23.4	0.00e+00	123	30	0	395313152	42	5970
2026-01-16 23:54:25.32	145.14	13.73	-34.7	-35.7	23.3	0.00e+00	123	30	0	398458880	42	6009
2026-01-16 23:54:26.33	145.12	13.84	-34.6	-35.5	23.4	0.00e+00	123	30	0	401604608	42	5893
2026-01-16 23:54:27.35	145.10	13.94	-34.8	-35.7	23.3	0.00e+00	123	30	0	404750336	42	6034
2026-01-16 23:54:28.36	145.08	14.04	-34.6	-35.5	23.4	0.00e+00	120	30	0	407896064	42	5919
2026-01-16 23:54:29.37	145.05	14.15	-34.7	-35.6	23.4	0.00e+00	123	30	0	411041792	42	5976
2026-01-16 23:54:30.38	145.03	14.25	-34.6	-35.6	23.4	0.00e+00	122	30	0	414187520	42	5956
2026-01-16 23:54:31.39	145.01	14.35	-34.6	-35.6	23.5	0.00e+00	122	30	0	417333248	42	5939
2026-01-16 23:54:32.40	144.99	14.46	-34.6	-35.5	23.5	0.00e+00	123	30	0	420478976	42	5904
2026-01-16 23:54:33.41	144.96	14.56	-34.6	-35.6	23.4	0.00e+00	123	30	0	423624704	42	5937
2026-01-16 23:54:34.42	144.94	14.67	-34.6	-35.5	23.5	0.00e+00	120	30	0	426770432	42	5898
2026-01-16 23:54:35.43	144.92	14.78	-34.4	-35.4	23.6	0.00e+00	123	30	0	429916160	42	5792
2026-01-16 23:54:36.44	144.89	14.88	-34.5	-35.4	23.6	0.00e+00	120	30	0	433061888	42	5846
2026-01-16 23:54:37.45	144.87	14.99	-34.5	-35.4	23.6	0.00e+00	121	30	0	436207616	42	5852
2026-01-16 23:54:38.46	144.84	15.10	-34.3	-35.2	23.8	0.00e+00	123	30	0	440401920	42	5712
2026-01-16 23:54:39.47	144.82	15.21	-34.3	-35.2	23.7	0.00e+00	120	30	0	443547648	42	5721
2026-01-16 23:54:40.48	144.80	15.31	-34.4	-35.4	23.6	0.00e+00	120	30	0	445644800	42	5806
2026-01-16 23:54:41.49	144.77	15.42	-34.6	-35.6	23.6	0.00e+00	121	30	0	448790528	42	5933
2026-01-16 23:54:42.50	144.75	15.53	-34.3	-35.2	23.8	0.00e+00	122	30	0	451936256	42	5719
2026-01-16 23:54:43.51	144.72	15.64	-34.5	-35.4	23.7	0.00e+00	123	30	0	456130560	42	5822
2026-01-16 23:54:44.52	144.70	15.75	-34.4	-35.3	23.7	0.00e+00	122	30	0	459276288	42	5768
2026-01-16 23:54:45.53	144.67	15.87	-34.3	-35.3	23.8	0.00e+00	123	30	0	462422016	42	5738
2026-01-16 23:54:46.53	144.64	15.98	-34.4	-35.3	23.7	0.00e+00	120	30	0	465567744	42	5776
2026-01-16 23:54:47.54	144.62	16.09	-34.4	-35.3	23.7	0.00e+00	123	30	0	468713472	42	5755
2026-01-16 23:54:48.56	144.59	16.20	-34.4	-35.3	23.8	0.00e+00	123	30	0	471859200	42	5783
2026-01-16 23:54:49.56	144.57	16.31	-34.4	-35.3	23.7	0.00e+00	123	30	0	475004928	42	5779
2026-01-16 23:54:50.57	144.54	16.43	-34.2	-35.2	23.8	0.00e+00	121	30	0	478150656	42	5665
2026-01-16 23:54:51.58	144.51	16.54	-34.2	-35.1	23.8	0.00e+00	122	30	0	481296384	42	5656
2026-01-16 23:54:52.60	144.49	16.66	-34.4	-35.3	23.7	0.00e+00	122	30	0	484442112	42	5761
2026-01-16 23:54:53.60	144.46	16.77	-34.2	-35.1	23.9	0.00e+00	120	30	0	487587840	42	5649
2026-01-16 23:54:54.61	144.43	16.89	-34.3	-35.2	23.8	0.00e+00	122	30	0	490733568	42	5679
2026-01-16 23:54:55.62	144.40	17.00	-34.4	-35.3	23.7	0.00e+00	123	30	0	493879296	42	5769
2026-01-16 23:54:56.63	144.38	17.12	-34.3	-35.2	23.8	0.00e+00	123	30	0	497025024	42	5685
2026-01-16 23:54:57.64	144.35	17.24	-34.4	-35.3	23.8	0.00e+00	121	30	0	500170752	42	5735
2026-01-16 23:54:58.65	144.32	17.35	-34.2	-35.1	23.9	0.00e+00	123	30	0	503316480	42	5654
2026-01-16 23:54:59.66	144.29	17.47	-34.3	-35.2	23.8	0.00e+00	122	30	0	506462208	42	5707
2026-01-16 23:55:00.67	144.26	17.59	-34.4	-35.3	23.7	0.00e+00	123	30	0	509607936	42	5749
2026-01-16 23:55:01.68	144.23	17.71	-34.4	-35.3	23.6	0.00e+00	123	30	0	512753664	42	5755
2026-01-16 23:55:02.69	144.20	17.83	-34.3	-35.2	23.8	0.00e+00	123	30	0	515899392	42	5697
2026-01-16 23:55:03.70	144.17	17.95	-34.3	-35.3	23.7	0.00e+00	121	30	0	519045120	42	5745
2026-01-16 23:55:04.71	144.14	18.07	-34.3	-35.2	23.8	0.00e+00	122	30	0	522190848	42	5695
2026-01-16 23:55:05.72	144.11	18.20	-34.3	-35.2	23.7	0.00e+00	120	30	0	525336576	42	5681
2026-01-16 23:55:06.73	144.08	18.32	-34.3	-35.3	23.7	0.00e+00	122	30	0	528482304	42	5737
2026-01-16 23:55:07.74	144.05	18.44	-34.4	-35.3	23.7	0.00e+00	122	30	0	531628032	42	5746
2026-01-16 23:55:08.75	144.02	18.56	-34.3	-35.2	23.7	0.00e+00	123	30	0	534773760	42	5686
2026-01-16 23:55:09.76	143.99	18.69	-34.4	-35.3	23.7	0.00e+00	120	30	0	537919488	42	5745
2026-01-16 23:55:10.77	143.96	18.81	-34.5	-35.4	23.6	0.00e+00	123	30	0	541065216	42	5807
2026-01-16 23:55:11.78	143.93	18.94	-34.6	-35.5	23.6	0.00e+00	122	30	0	544210944	42	5926
2026-01-16 23:55:12.79	143.89	19.07	-34.4	-35.3	23.7	0.00e+00	123	30	0	547356672	42	5784
2026-01-16 23:55:13.80	143.86	19.19	-34.5	-35.4	23.5	0.00e+00	120	30	0	550502400	42	5831
2026-01-16 23:55:14.81	143.83	19.32	-34.3	-35.2	23.7	0.00e+00	123	30	0	553648128	42	5704
2026-01-16 23:55:15.82	143.79	19.45	-34.3	-35.3	23.7	0.00e+00	122	30	0	556793856	42	5741
2026-01-16 23:55:16.83	143.76	19.58	-34.4	-35.3	23.7	0.00e+00	120	30	0	559939584	42	5752
2026-01-16 23:55:17.85	143.73	19.71	-34.2	-35.1	23.8	0.00e+00	122	30	0	563085312	42	5659
2026-01-16 23:55:18.86	143.69	19.84	-34.2	-35.1	23.9	0.00e+00	123	30	0	566231040	42	5646
2026-01-16 23:55:19.87	143.66	19.97	-34.2	-35.1	23.9	0.00e+00	122	30	0	569376768	42	5628
2026-01-16 23:55:20.88	143.62	20.10	-34.2	-35.2	23.8	0.00e+00	122	30	0	572522496	42	5681
2026-01-16 23:55:21.89	143.59	20.23	-34.1	-35.1	23.8	0.00e+00	123	30	0	575668224	42	5604
2026-01-16 23:55:22.90	143.55	20.36	-34.0	-35.0	23.9	0.00e+00	123	30	0	578813952	42	5543
2026-01-16 23:55:23.91	143.52	20.50	-34.0	-35.0	24.0	0.00e+00	123	30	0	581959680	42	5535
2026-01-16 23:55:24.92	143.48	20.63	-33.9	-34.9	24.0	0.00e+00	122	30	0	585105408	42	5470
2026-01-16 23:55:25.93	143.45	20.77	-33.9	-34.9	24.1	0.00e+00	123	30	0	588251136	42	5471
2026-01-16 23:55:26.94	143.41	20.90	-34.0	-35.0	24.0	0.00e+00	122	30	0	591396864	42	5541
2026-01-16 23:55:27.95	143.37	21.04	-33.9	-34.8	24.1	0.00e+00	123	30	0	594542592	42	5463
2026-01-16 23:55:28.95	143.33	21.17	-33.9	-34.8	24.2	0.00e+00	122	30	0	597688320	42	5417
2026-01-16 23:55:29.96	143.30	21.31	-34.0	-34.9	24.0	0.00e+00	123	30	0	600834048	42	5478
2026-01-16 23:55:30.97	143.26	21.45	-33.6	-34.5	24.2	0.00e+00	122	30	0	603979776	40	5913
2026-01-16 23:55:31.98	143.22	21.59	-33.5	-34.4	24.4	0.00e+00	123	30	0	607125504	40	5809
2026-01-16 23:55:32.99	143.18	21.73	-33.5	-34.4	24.5	0.00e+00	123	30	0	610271232	40	5800
2026-01-16 23:55:34.00	143.14	21.87	-33.4	-34.3	24.5	0.00e+00	123	30	0	613416960	40	5781
2026-01-16 23:55:35.01	143.10	22.01	-33.5	-34.4	24.6	0.00e+00	123	30	0	616562688	40	5809
2026-01-16 23:55:36.02	143.06	22.15	-33.2	-34.1	24.8	0.00e+00	123	30	0	619708416	40	5640
2026-01-16 23:55:37.03	143.02	22.30	-33.2	-34.1	24.7	0.00e+00	123	30	0	622854144	40	5650
2026-01-16 23:55:38.05	142.98	22.44	-33.4	-34.3	24.7	0.00e+00	122	30	0	625999872	40	5730
2026-01-16 23:55:39.06	142.94	22.59	-33.0	-33.9	24.8	0.00e+00	120	30	0	629145600	40	5510
2026-01-16 23:55:40.07	142.90	22.73	-33.2	-34.1	24.8	0.00e+00	122	30	0	632291328	40	5604
2026-01-16 23:55:41.08	142.86	22.88	-33.2	-34.1	24.8	0.00e+00	120	30	0	635437056	40	5606
2026-01-16 23:55:42.09	142.81	23.03	-32.9	-33.8	24.9	0.00e+00	123	30	0	638582784	40	5443
2026-01-16 23:55:43.10	142.77	23.17	-33.0	-33.9	24.9	0.00e+00	123	30	0	641728512	40	5505
2026-01-16 23:55:44.11	142.73	23.32	-32.9	-33.8	25.1	0.00e+00	123	30	0	644874240	40	5419
2026-01-16 23:55:45.12	142.68	23.47	-32.7	-33.5	25.2	0.00e+00	120	30	0	648019968	38	5926
2026-01-16 23:55:46.13	142.64	23.62	-32.8	-33.6	25.2	0.00e+00	123	30	0	651165696	38	5983
2026-01-16 23:55:47.14	142.59	23.78	-32.7	-33.6	25.2	0.00e+00	120	30	0	654311424	38	5931
2026-01-16 23:55:48.15	142.55	23.93	-32.7	-33.6	25.2	0.00e+00	122	30	0	657457152	38	5947
2026-01-16 23:55:49.16	142.50	24.08	-32.8	-33.7	25.1	0.00e+00	120	30	0	660602880	38	6024
2026-01-16 23:55:50.17	142.46	24.23	-32.8	-33.7	25.2	0.00e+00	122	30	0	663748608	38	6027
2026-01-16 23:55:51.18	142.41	24.39	-32.9	-33.8	25.0	0.00e+00	123	30	0	666894336	38	6076
2026-01-16 23:55:52.19	142.36	24.54	-32.9	-33.8	25.1	0.00e+00	122	30	0	670040064	38	6085
2026-01-16 23:55:53.20	142.32	24.70	-32.9	-33.8	25.0	0.00e+00	122	29	0	673185792	38	6083
2026-01-16 23:55:54.22	142.27	24.86	-32.9	-33.8	25.1	0.00e+00	123	30	0	676331520	38	6085
2026-01-16 23:55:55.23	142.22	25.02	-33.2	-34.0	25.0	0.00e+00	123	30	0	679477248	38	6266
2026-01-16 23:55:56.24	142.17	25.18	-33.1	-34.0	25.0	0.00e+00	122	30	0	682622976	38	6229
2026-01-16 23:55:57.25	142.12	25.34	-33.1	-34.0	24.9	0.00e+00	123	30	0	685768704	38	6229
2026-01-16 23:55:58.26	142.07	25.50	-33.2	-34.1	24.9	0.00e+00	122	30	0	688914432	38	6304
2026-01-16 23:55:59.27	142.02	25.66	-33.3	-34.2	24.8	0.00e+00	122	30	0	692060160	38	6388
2026-01-16 23:56:00.28	141.97	25.83	-33.4	-34.3	24.8	0.00e+00	120	30	0	695205888	38	6451
2026-01-16 23:56:01.29	141.91	25.99	-33.5	-34.4	24.7	0.00e+00	120	30	0	698351616	38	6526
2026-01-16 23:56:02.30	141.86	26.16	-33.6	-34.5	24.6	0.00e+00	122	30	0	701497344	38	6614
2026-01-16 23:56:03.31	141.81	26.32	-33.7	-34.6	24.5	0.00e+00	122	30	0	704643072	38	6684
2026-01-16 23:56:04.32	141.75	26.49	-33.7	-34.6	24.5	0.00e+00	123	30	0	707788800	40	5974
2026-01-16 23:56:05.33	141.70	26.66	-33.8	-34.7	24.4	0.00e+00	121	30	0	710934528	40	6016
2026-01-16 23:56:06.33	141.65	26.82	-33.8	-34.7	24.4	0.00e+00	122	29	0	714080256	40	6040
2026-01-16 23:56:07.35	141.59	27.00	-34.0	-34.9	24.3	0.00e+00	123	29	0	717225984	40	6152
2026-01-16 23:56:08.36	141.53	27.17	-34.0	-34.9	24.3	0.00e+00	123	30	0	720371712	40	6196
2026-01-16 23:56:09.36	141.48	27.34	-33.9	-34.8	24.4	0.00e+00	122	29	0	723517440	40	6080
2026-01-16 23:56:10.37	141.42	27.51	-34.2	-35.1	24.1	0.00e+00	122	30	0	726663168	40	6338
2026-01-16 23:56:11.38	141.36	27.69	-34.1	-35.0	24.2	0.00e+00	123	29	0	729808896	40	6243
2026-01-16 23:56:12.39	141.30	27.86	-34.1	-35.0	24.2	0.00e+00	123	30	0	732954624	40	6254
2026-01-16 23:56:13.40	141.24	28.04	-34.1	-35.0	24.1	0.00e+00	123	30	0	736100352	40	6272
2026-01-16 23:56:14.41	141.18	28.22	-33.9	-34.8	24.3	0.00e+00	120	30	0	739246080	40	6114
2026-01-16 23:56:15.42	141.12	28.39	-34.0	-34.9	24.3	0.00e+00	122	29	0	742391808	40	6152
2026-01-16 23:56:16.43	141.06	28.57	-33.9	-34.8	24.3	0.00e+00	120	30	0	745537536	40	6119
2026-01-16 23:56:17.44	141.00	28.76	-34.0	-34.9	24.3	0.00e+00	122	29	0	748683264	40	6152
2026-01-16 23:56:18.45	140.94	28.94	-34.0	-34.9	24.3	0.00e+00	123	29	0	751828992	40	6137
2026-01-16 23:56:19.46	140.87	29.12	-34.0	-34.9	24.1	0.00e+00	123	30	0	756023296	40	6200
2026-01-16 23:56:20.47	140.81	29.31	-34.0	-34.9	24.2	0.00e+00	121	29	0	759169024	40	6160
2026-01-16 23:56:21.48	140.74	29.49	-34.0	-34.9	24.2	0.00e+00	123	30	0	762314752	40	6170
2026-01-16 23:56:22.49	140.68	29.68	-33.9	-34.8	24.3	0.00e+00	123	29	0	764411904	40	6068
2026-01-16 23:56:23.50	140.61	29.87	-33.9	-34.8	24.2	0.00e+00	123	29	0	767557632	40	6130
2026-01-16 23:56:24.51	140.54	30.06	-33.9	-34.8	24.3	0.00e+00	123	29	0	771751936	40	6084
2026-01-16 23:56:25.52	140.47	30.25	-33.9	-34.8	24.3	0.00e+00	122	29	0	774897664	40	6110
2026-01-16 23:56:26.53	140.40	30.44	-33.9	-34.8	24.3	0.00e+00	120	29	0	778043392	40	6082
2026-01-16 23:56:27.54	140.33	30.63	-33.8	-34.7	24.3	0.00e+00	123	29	0	781189120	40	6021
2026-01-16 23:56:28.55	140.26	30.82	-33.8	-34.7	24.3	0.00e+00	122	29	0	784334848	40	6037
2026-01-16 23:56:29.56	140.19	31.02	-33.6	-34.5	24.4	0.00e+00	123	29	0	787480576	40	5916
2026-01-16 23:56:30.57	140.12	31.22	-33.5	-34.3	24.5	0.00e+00	120	29	0	790626304	40	5788
2026-01-16 23:56:31.58	140.04	31.41	-33.5	-34.4	24.5	0.00e+00	123	29	0	793772032	40	5799
2026-01-16 23:56:32.59	139.97	31.61	-33.4	-34.3	24.5	0.00e+00	123	29	0	796917760	40	5767
2026-01-16 23:56:33.60	139.89	31.81	-33.6	-34.5	24.5	0.00e+00	123	29	0	800063488	40	5877
2026-01-16 23:56:34.61	139.81	32.02	-33.4	-34.3	24.6	0.00e+00	122	29	0	803209216	40	5735
2026-01-16 23:56:35.62	139.74	32.22	-33.5	-34.4	24.4	0.00e+00	122	29	0	806354944	40	5833
2026-01-16 23:56:36.63	139.66	32.42	-33.7	-34.6	24.4	0.00e+00	122	29	0	809500672	40	5941
2026-01-16 23:56:37.64	139.58	32.63	-33.7	-34.6	24.4	0.00e+00	122	30	0	812646400	40	5967
2026-01-16 23:56:38.65	139.50	32.84	-33.8	-34.7	24.2	0.00e+00	123	29	0	815792128	40	6030
2026-01-16 23:56:39.66	139.41	33.04	-33.9	-34.8	24.1	0.00e+00	123	29	0	818937856	40	6118
2026-01-16 23:56:40.67	139.33	33.25	-34.0	-34.9	24.0	0.00e+00	123	29	0	822083584	40	6186
2026-01-16 23:56:41.68	139.25	33.46	-34.2	-35.1	23.9	0.00e+00	123	29	0	825229312	40	6313
2026-01-16 23:56:42.69	139.16	33.68	-34.3	-35.2	23.7	0.00e+00	123	29	0	828375040	40	6394
2026-01-16 23:56:43.70	139.07	33.89	-34.3	-35.3	23.8	0.00e+00	123	29	0	831520768	40	6434
2026-01-16 23:56:44.71	138.99	34.11	-34.3	-35.2	23.9	0.00e+00	122	29	0	834666496	40	6423
2026-01-16 23:56:45.73	138.90	34.33	-34.5	-35.4	23.9	0.00e+00	122	30	0	837812224	40	6521
2026-01-16 23:56:46.74	138.81	34.54	-34.5	-35.4	23.8	0.00e+00	123	29	0	840957952	40	6550
2026-01-16 23:56:47.75	138.71	34.76	-34.7	-35.6	23.8	0.00e+00	122	30	0	844103680	40	6691
2026-01-16 23:56:48.76	138.62	34.99	-34.8	-35.7	23.6	0.00e+00	120	29	0	847249408	42	6055
2026-01-16 23:56:49.77	138.53	35.21	-35.2	-36.2	23.4	0.00e+00	123	29	0	850395136	42	6352
2026-01-16 23:56:50.78	138.43	35.43	-35.4	-36.4	23.2	0.00e+00	121	29	0	853540864	42	6526
2026-01-16 23:56:51.79	138.33	35.66	-35.7	-36.7	22.9	0.00e+00	122	29	0	856686592	42	6767
2026-01-16 23:56:52.80	138.24	35.88	-35.7	-36.7	23.0	0.00e+00	122	29	0	859832320	42	6761
2026-01-16 23:56:53.81	138.14	36.11	-35.8	-36.8	22.8	0.00e+00	120	29	0	862978048	44	6101
2026-01-16 23:56:54.82	138.04	36.34	-35.9	-36.9	22.7	0.00e+00	122	29	0	866123776	44	6172
2026-01-16 23:56:55.83	137.93	36.58	-35.8	-36.8	22.8	0.00e+00	122	29	0	869269504	44	6106
2026-01-16 23:56:56.84	137.83	36.81	-35.9	-36.9	22.8	0.00e+00	122	30	0	872415232	44	6143
2026-01-16 23:56:57.85	137.72	37.04	-35.8	-36.8	22.8	0.00e+00	123	29	0	875560960	44	6092
2026-01-16 23:56:58.86	137.62	37.28	-36.0	-37.0	22.6	0.00e+00	122	29	0	878706688	44	6277
2026-01-16 23:56:59.87	137.51	37.52	-36.2	-37.2	22.6	0.00e+00	123	29	0	881852416	44	6386
2026-01-16 23:57:00.88	137.40	37.76	-36.3	-37.3	22.4	0.00e+00	123	29	0	884998144	44	6443
2026-01-16 23:57:01.89	137.28	38.00	-36.3	-37.3	22.4	0.00e+00	123	29	0	888143872	44	6490
2026-01-16 23:57:02.90	137.17	38.24	-36.5	-37.6	22.1	0.00e+00	123	29	0	891289600	44	6665
2026-01-16 23:57:03.91	137.05	38.49	-36.5	-37.5	22.1	0.00e+00	120	29	0	894435328	46	5913
2026-01-16 23:57:04.92	136.94	38.73	-36.5	-37.5	22.1	0.00e+00	122	29	0	897581056	46	5911
2026-01-16 23:57:05.93	136.82	38.98	-36.5	-37.5	22.2	0.00e+00	122	29	0	900726784	46	5903
2026-01-16 23:57:06.93	136.70	39.23	-36.6	-37.7	22.0	0.00e+00	123	29	0	903872512	46	6020
2026-01-16 23:57:07.94	136.57	39.48	-36.5	-37.6	22.2	0.00e+00	120	29	0	907018240	46	5945
2026-01-16 23:57:08.95	136.45	39.73	-36.5	-37.5	22.2	0.00e+00	122	29	0	910163968	46	5923
2026-01-16 23:57:09.96	136.32	39.98	-36.4	-37.4	22.4	0.00e+00	123	29	0	913309696	46	5838
2026-01-16 23:57:10.97	136.19	40.24	-36.3	-37.3	22.4	0.00e+00	122	29	0	916455424	46	5763
2026-01-16 23:57:11.98	136.06	40.50	-36.1	-37.1	22.6	0.00e+00	123	29	0	919601152	46	5644
2026-01-16 23:57:12.99	135.93	40.76	-36.3	-37.3	22.4	0.00e+00	120	29	0	922746880	46	5750
2026-01-16 23:57:14.00	135.79	41.02	-36.1	-37.1	22.6	0.00e+00	122	29	0	925892608	46	5649
2026-01-16 23:57:15.01	135.65	41.28	-36.3	-37.3	22.4	0.00e+00	123	29	0	929038336	46	5781
2026-01-16 23:57:16.02	135.51	41.54	-36.3	-37.3	22.3	0.00e+00	123	29	0	932184064	46	5788
2026-01-16 23:57:17.03	135.37	41.81	-36.4	-37.5	22.1	0.00e+00	122	29	0	935329792	46	5861
2026-01-16 23:57:18.04	135.22	42.08	-36.4	-37.5	22.0	0.00e+00	122	29	0	938475520	46	5876
2026-01-16 23:57:19.05	135.08	42.35	-36.5	-37.5	22.0	0.00e+00	122	29	0	941621248	46	5896
2026-01-16 23:57:20.06	134.93	42.62	-36.4	-37.4	22.0	0.00e+00	123	29	0	944766976	46	5840
2026-01-16 23:57:21.06	134.78	42.89	-36.3	-37.3	22.0	0.00e+00	123	29	0	947912704	46	5778
2026-01-16 23:57:22.07	134.62	43.16	-36.4	-37.5	22.1	0.00e+00	123	29	0	951058432	46	5865
2026-01-16 23:57:23.08	134.46	43.44	-36.7	-37.8	21.9	0.00e+00	123	29	0	954204160	46	6085
2026-01-16 23:57:24.09	134.30	43.72	-36.4	-37.4	22.2	0.00e+00	122	29	0	957349888	46	5840
2026-01-16 23:57:25.11	134.14	44.00	-36.5	-37.5	22.1	0.00e+00	120	29	0	960495616	46	5914
2026-01-16 23:57:26.12	133.97	44.28	-36.5	-37.5	22.2	0.00e+00	122	29	0	963641344	46	5869
2026-01-16 23:57:27.12	133.80	44.56	-36.7	-37.7	22.2	0.00e+00	123	29	0	966787072	46	6029
2026-01-16 23:57:28.13	133.63	44.85	-36.8	-37.8	22.1	0.00e+00	122	29	0	969932800	46	6118
2026-01-16 23:57:29.15	133.45	45.14	-36.8	-37.9	22.0	0.00e+00	127	29	0	973078528	46	6146
2026-01-16 23:57:30.16	133.27	45.43	-36.7	-37.7	22.0	0.00e+00	120	29	0	976224256	46	6019
2026-01-16 23:57:31.17	133.09	45.72	-37.0	-38.0	21.9	0.00e+00	122	29	0	979369984	46	6236
2026-01-16 23:57:32.17	132.90	46.01	-36.3	-37.3	22.4	0.00e+00	123	29	0	982515712	46	5741
2026-01-16 23:57:33.19	132.71	46.30	-36.2	-37.2	22.3	0.00e+00	122	29	0	985661440	46	5702
2026-01-16 23:57:34.19	132.52	46.60	-36.2	-37.2	22.5	0.00e+00	123	29	0	988807168	46	5686
2026-01-16 23:57:35.20	132.32	46.89	-36.0	-37.0	22.6	0.00e+00	123	29	0	991952896	46	5587
2026-01-16 23:57:36.21	132.12	47.19	-36.0	-37.0	22.7	0.00e+00	123	29	0	995098624	46	5552
2026-01-16 23:57:37.22	131.92	47.49	-36.0	-37.0	22.7	0.00e+00	123	29	0	998244352	46	5560
2026-01-16 23:57:38.23	131.71	47.80	-36.0	-37.0	22.7	0.00e+00	122	29	0	1001390080	46	5543
2026-01-16 23:57:39.24	131.49	48.10	-36.1	-37.1	22.8	0.00e+00	123	29	0	1004535808	46	5607
2026-01-16 23:57:40.25	131.28	48.41	-35.8	-36.8	22.8	0.00e+00	123	29	0	1007681536	44	6102
2026-01-16 23:57:41.26	131.05	48.72	-35.8	-36.8	22.9	0.00e+00	121	29	0	1010827264	44	6071
2026-01-16 23:57:42.27	130.83	49.03	-35.7	-36.7	22.9	0.00e+00	120	29	0	1013972992	44	6037
2026-01-16 23:57:43.28	130.60	49.34	-35.7	-36.7	22.9	0.00e+00	122	29	0	1017118720	44	6038
2026-01-16 23:57:44.29	130.36	49.65	-35.8	-36.7	22.9	0.00e+00	120	29	0	1020264448	44	6057
2026-01-16 23:57:45.30	130.12	49.96	-35.7	-36.7	22.9	0.00e+00	123	29	0	1023410176	44	5997
2026-01-16 23:57:46.31	129.87	50.28	-35.7	-36.7	22.9	0.00e+00	123	29	0	1026555904	44	6024
2026-01-16 23:57:47.32	129.62	50.60	-35.4	-36.4	23.1	0.00e+00	120	29	0	1029701632	44	5812
2026-01-16 23:57:48.33	129.36	50.92	-35.4	-36.3	23.3	0.00e+00	123	29	0	1032847360	44	5767
2026-01-16 23:57:49.34	129.10	51.24	-35.3	-36.2	23.3	0.00e+00	123	29	0	1035993088	44	5723
2026-01-16 23:57:50.35	128.83	51.56	-35.3	-36.2	23.2	0.00e+00	123	29	0	1039138816	44	5725
2026-01-16 23:57:51.36	128.56	51.88	-35.5	-36.4	23.1	0.00e+00	123	29	0	1042284544	44	5837
2026-01-16 23:57:52.37	128.28	52.21	-35.4	-36.3	23.2	0.00e+00	123	29	0	1045430272	44	5790
2026-01-16 23:57:53.38	127.99	52.54	-35.1	-36.1	23.4	0.00e+00	123	29	0	1048576000	44	5610
2026-01-16 23:57:54.39	127.70	52.86	-35.2	-36.2	23.3	0.00e+00	123	29	0	1051721728	44	5671
2026-01-16 23:57:55.40	127.40	53.19	-34.7	-35.6	23.9	0.00e+00	120	29	0	1054867456	42	5971
2026-01-16 23:57:56.42	127.09	53.53	-34.6	-35.5	23.8	0.00e+00	123	29	0	1058013184	42	5911
2026-01-16 23:57:57.43	126.78	53.86	-34.6	-35.5	23.5	0.00e+00	123	29	0	1061158912	42	5908
2026-01-16 23:57:58.44	126.45	54.19	-34.8	-35.7	23.4	0.00e+00	123	29	0	1064304640	42	6051
2026-01-16 23:57:59.45	126.13	54.53	-34.8	-35.8	23.4	0.00e+00	123	29	0	1067450368	42	6068
2026-01-16 23:58:00.46	125.79	54.86	-34.6	-35.5	23.6	0.00e+00	122	29	0	1071644672	42	5882
2026-01-16 23:58:01.47	125.44	55.20	-34.5	-35.4	23.8	0.00e+00	123	29	0	1074790400	42	5855
2026-01-16 23:58:02.48	125.09	55.54	-34.3	-35.2	24.0	0.00e+00	122	29	0	1077936128	42	5697
2026-01-16 23:58:03.48	124.73	55.87	-34.2	-35.1	24.1	0.00e+00	122	29	0	1080033280	42	5659
2026-01-16 23:58:04.50	124.36	56.22	-34.0	-34.9	23.8	0.00e+00	123	29	0	1083179008	42	5520
2026-01-16 23:58:05.51	123.98	56.56	-34.2	-35.2	23.7	0.00e+00	123	29	0	1087373312	42	5708
2026-01-16 23:58:06.51	123.59	56.90	-34.1	-35.0	24.2	0.00e+00	123	29	0	1090519040	42	5594
2026-01-16 23:58:07.52	123.19	57.24	-34.0	-34.9	24.3	0.00e+00	122	29	0	1093664768	42	5502
2026-01-16 23:58:08.53	122.78	57.58	-34.0	-35.0	24.2	0.00e+00	123	29	0	1096810496	42	5531
2026-01-16 23:58:09.54	122.36	57.92	-33.9	-34.8	24.3	0.00e+00	120	29	0	1099956224	42	5437
2026-01-16 23:58:10.55	121.93	58.27	-33.5	-34.4	24.6	0.00e+00	123	29	0	1103101952	40	5844
2026-01-16 23:58:11.56	121.49	58.61	-33.4	-34.4	24.8	0.00e+00	120	29	0	1106247680	40	5794
2026-01-16 23:58:12.57	121.03	58.96	-33.1	-34.0	25.0	0.00e+00	123	29	0	1109393408	40	5549
2026-01-16 23:58:13.58	120.57	59.30	-33.1	-33.9	25.0	0.00e+00	120	29	0	1112539136	40	5504
2026-01-16 23:58:14.59	120.09	59.65	-33.4	-34.3	24.6	0.00e+00	123	29	0	1115684864	40	5763
2026-01-16 23:58:15.60	119.59	59.99	-33.5	-34.4	24.5	0.00e+00	123	29	0	1118830592	40	5828
2026-01-16 23:58:16.62	119.08	60.34	-33.4	-34.2	24.7	0.00e+00	123	29	0	1121976320	40	5718
2026-01-16 23:58:17.62	118.57	60.68	-33.4	-34.3	24.7	0.00e+00	120	29	0	1125122048	40	5726
2026-01-16 23:58:18.63	118.03	61.03	-33.2	-34.1	24.7	0.00e+00	123	29	0	1128267776	40	5641
2026-01-16 23:58:19.64	117.48	61.37	-33.0	-33.8	24.6	0.00e+00	123	29	0	1131413504	40	5453
2026-01-16 23:58:20.65	116.92	61.72	-32.8	-33.7	24.7	0.00e+00	123	29	0	1134559232	38	5999
2026-01-16 23:58:21.66	116.34	62.06	-32.9	-33.8	25.1	0.00e+00	122	29	0	1137704960	38	6102
2026-01-16 23:58:22.67	115.74	62.40	-32.6	-33.5	25.2	0.00e+00	123	29	0	1140850688	38	5880
2026-01-16 23:58:23.68	115.13	62.74	-32.7	-33.6	25.2	0.00e+00	122	29	0	1143996416	38	5946
2026-01-16 23:58:24.69	114.50	63.08	-32.6	-33.5	25.2	0.00e+00	122	29	0	1147142144	38	5869
2026-01-16 23:58:25.70	113.85	63.42	-32.3	-33.2	25.3	0.00e+00	123	29	0	1150287872	38	5662
2026-01-16 23:58:26.72	113.17	63.76	-32.4	-33.3	25.3	0.00e+00	120	29	0	1153433600	38	5749
2026-01-16 23:58:27.73	112.48	64.09	-32.3	-33.1	25.4	0.00e+00	123	29	0	1156579328	38	5655
2026-01-16 23:58:28.73	111.78	64.42	-32.3	-33.2	25.3	0.00e+00	122	29	0	1159725056	38	5667
2026-01-16 23:58:29.74	111.05	64.76	-32.4	-33.3	25.2	0.00e+00	120	29	0	1162870784	38	5746
2026-01-16 23:58:30.75	110.30	65.08	-32.5	-33.3	25.4	0.00e+00	123	29	0	1166016512	38	5774
2026-01-16 23:58:31.77	109.52	65.41	-32.5	-33.4	25.2	0.00e+00	123	29	0	1169162240	38	5808
2026-01-16 23:58:32.78	108.72	65.74	-32.7	-33.6	25.0	0.00e+00	122	29	0	1172307968	38	5954
2026-01-16 23:58:33.79	107.90	66.06	-32.6	-33.5	25.0	0.00e+00	122	29	0	1175453696	38	5901
2026-01-16 23:58:34.80	107.05	66.37	-32.8	-33.7	25.2	0.00e+00	122	29	0	1178599424	38	6026
2026-01-16 23:58:35.81	106.18	66.68	-32.7	-33.6	25.2	0.00e+00	120	29	0	1181745152	38	5962
2026-01-16 23:58:36.82	105.28	66.99	-32.7	-33.6	25.0	0.00e+00	123	29	0	1184890880	38	5957
2026-01-16 23:58:37.83	104.36	67.30	-32.5	-33.4	25.3	0.00e+00	123	29	0	1188036608	38	5815
2026-01-16 23:58:38.84	103.41	67.60	-32.5	-33.3	25.3	0.00e+00	122	29	0	1191182336	38	5758
2026-01-16 23:58:39.85	102.43	67.89	-32.2	-33.0	25.6	0.00e+00	120	29	0	1194328064	38	5574
2026-01-16 23:58:40.86	101.42	68.18	-32.1	-32.9	25.8	0.00e+00	120	29	0	1197473792	38	5496
2026-01-16 23:58:41.87	100.39	68.47	-32.1	-32.9	25.7	0.00e+00	122	29	0	1200619520	38	5510
2026-01-16 23:58:42.88	99.32	68.75	-32.2	-33.1	25.3	0.00e+00	123	29	0	1203765248	38	5605
2026-01-16 23:58:43.89	98.22	69.02	-32.4	-33.2	25.2	0.00e+00	123	29	0	1206910976	38	5721
2026-01-16 23:58:44.90	97.10	69.29	-32.5	-33.4	25.1	0.00e+00	123	29	0	1210056704	38	5831
2026-01-16 23:58:45.91	95.94	69.55	-32.5	-33.4	25.2	0.00e+00	123	29	0	1213202432	38	5799
2026-01-16 23:58:46.92	94.75	69.80	-32.7	-33.5	25.2	0.00e+00	122	29	0	1216348160	38	5922
2026-01-16 23:58:47.93	93.52	70.04	-33.1	-34.0	24.8	0.00e+00	127	29	0	1219493888	38	6264
2026-01-16 23:58:48.94	92.27	70.28	-33.2	-34.1	24.9	0.00e+00	123	29	0	1222639616	38	6299
2026-01-16 23:58:49.95	90.98	70.50	-33.1	-34.1	24.9	0.00e+00	123	29	0	1225785344	38	6279
2026-01-16 23:58:50.96	89.67	70.72	-33.1	-34.0	25.0	0.00e+00	122	29	0	1228931072	38	6235
2026-01-16 23:58:51.97	88.32	70.93	-33.0	-33.9	25.1	0.00e+00	123	29	0	1232076800	38	6152
2026-01-16 23:58:52.98	86.94	71.13	-32.7	-33.6	25.2	0.00e+00	123	29	0	1235222528	38	5970
2026-01-16 23:58:53.99	85.53	71.32	-32.7	-33.5	25.1	0.00e+00	123	29	0	1238368256	38	5921
2026-01-16 23:58:55.00	84.09	71.50	-33.2	-34.1	24.8	0.00e+00	123	29	0	1241513984	38	6309
2026-01-16 23:58:56.01	82.62	71.66	-33.2	-34.1	24.7	0.00e+00	123	29	0	1244659712	38	6347
2026-01-16 23:58:57.02	81.12	71.82	-32.9	-33.8	25.1	0.00e+00	123	29	0	1247805440	38	6085
2026-01-16 23:58:58.03	79.60	71.96	-32.7	-33.6	25.2	0.00e+00	122	29	0	1250951168	38	5928
2026-01-16 23:58:59.04	78.05	72.09	-32.5	-33.3	25.1	0.00e+00	123	29	0	1254096896	38	5771
2026-01-16 23:59:00.05	76.48	72.21	-32.7	-33.6	24.9	0.00e+00	120	29	0	1257242624	38	5990
2026-01-16 23:59:01.06	74.88	72.32	-32.7	-33.5	25.3	0.00e+00	123	29	0	1260388352	38	5903
2026-01-16 23:59:02.07	73.27	72.41	-32.8	-33.6	24.7	0.00e+00	122	29	0	1263534080	38	5993
2026-01-16 23:59:03.08	71.64	72.49	-32.7	-33.6	24.8	0.00e+00	123	29	0	1266679808	38	5948
2026-01-16 23:59:04.09	70.00	72.56	-32.6	-33.5	25.1	0.00e+00	122	29	0	1269825536	38	5900
2026-01-16 23:59:05.10	68.35	72.61	-33.2	-34.0	25.0	0.00e+00	120	29	0	1272971264	38	6265
2026-01-16 23:59:06.11	66.68	72.65	-33.5	-34.4	24.6	0.00e+00	122	29	0	1276116992	38	6517
2026-01-16 23:59:07.12	65.01	72.68	-33.5	-34.4	24.3	0.00e+00	122	29	0	1279262720	38	6565
2026-01-16 23:59:08.13	63.34	72.69	-32.9	-33.7	25.0	0.00e+00	122	29	0	1282408448	38	6057
2026-01-16 23:59:09.14	61.67	72.68	-32.8	-33.7	25.1	0.00e+00	123	29	0	1285554176	38	6024
2026-01-16 23:59:10.15	59.99	72.67	-32.6	-33.5	25.3	0.00e+00	123	29	0	1288699904	38	5908
2026-01-16 23:59:11.16	58.33	72.64	-32.8	-33.7	25.0	0.00e+00	123	29	0	1291845632	38	6014
2026-01-16 23:59:12.17	56.67	72.59	-33.0	-33.9	24.8	0.00e+00	123	29	0	1294991360	38	6140
2026-01-16 23:59:13.18	55.02	72.53	-33.0	-33.9	24.8	0.00e+00	123	29	0	1298137088	38	6177
2026-01-16 23:59:14.19	53.38	72.46	-32.8	-33.7	25.0	0.00e+00	123	29	0	1301282816	38	6032
2026-01-16 23:59:15.20	51.76	72.37	-32.5	-33.3	25.1	0.00e+00	123	29	0	1304428544	38	5786
2026-01-16 23:59:16.21	50.16	72.27	-32.7	-33.6	25.1	0.00e+00	120	29	0	1307574272	38	5943
2026-01-16 23:59:17.22	48.58	72.16	-32.9	-33.7	24.8	0.00e+00	123	29	0	1310720000	38	6059
2026-01-16 23:59:18.23	47.02	72.04	-32.8	-33.8	24.6	0.00e+00	123	29	0	1313865728	38	6066
2026-01-16 23:59:19.24	45.48	71.90	-32.6	-33.5	25.0	0.00e+00	120	29	0	1317011456	38	5912
2026-01-16 23:59:20.25	43.97	71.75	-32.7	-33.5	24.9	0.00e+00	123	29	0	1320157184	38	5922
2026-01-16 23:59:21.25	42.50	71.59	-32.5	-33.4	24.9	0.00e+00	123	29	0	1323302912	38	5847
2026-01-16 23:59:22.27	41.03	71.42	-32.5	-33.4	25.0	0.00e+00	123	29	0	1326448640	38	5837
2026-01-16 23:59:23.27	39.62	71.23	-32.9	-33.8	24.9	0.00e+00	123	29	0	1329594368	38	6115
2026-01-16 23:59:24.29	38.21	71.04	-33.2	-34.1	24.6	0.00e+00	123	29	0	1332740096	38	6284
2026-01-16 23:59:25.30	36.85	70.84	-33.0	-33.9	24.6	0.00e+00	123	29	0	1335885824	38	6190
2026-01-16 23:59:26.31	35.51	70.62	-32.8	-33.7	24.8	0.00e+00	120	29	0	1339031552	38	6022
2026-01-16 23:59:27.31	34.22	70.40	-32.3	-33.2	25.5	0.00e+00	123	29	0	1342177280	38	5664
2026-01-16 23:59:28.32	32.95	70.17	-32.0	-32.9	25.8	0.00e+00	120	29	0	1345323008	38	5468
2026-01-16 23:59:29.33	31.71	69.93	-32.4	-33.3	25.4	0.00e+00	123	29	0	1348468736	38	5731
2026-01-16 23:59:30.34	30.51	69.69	-32.5	-33.4	25.6	0.00e+00	122	29	0	1351614464	38	5807
2026-01-16 23:59:31.35	29.33	69.43	-32.6	-33.4	25.2	0.00e+00	122	29	0	1354760192	38	5855
2026-01-16 23:59:32.36	28.19	69.17	-32.0	-32.9	25.2	0.00e+00	120	29	0	1357905920	38	5489
2026-01-16 23:59:33.37	27.07	68.90	-32.2	-33.0	25.1	0.00e+00	122	29	0	1361051648	38	5567
2026-01-16 23:59:34.38	25.99	68.63	-32.4	-33.3	25.3	0.00e+00	120	29	0	1364197376	38	5727
2026-01-16 23:59:35.39	24.94	68.35	-32.9	-33.8	25.1	0.00e+00	123	29	0	1367343104	38	6095
2026-01-16 23:59:36.40	23.92	68.06	-33.1	-34.0	25.0	0.00e+00	122	29	0	1370488832	38	6214
2026-01-16 23:59:37.41	22.93	67.77	-32.8	-33.7	25.0	0.00e+00	122	29	0	1373634560	38	5998
2026-01-16 23:59:38.42	21.96	67.47	-32.8	-33.6	25.1	0.00e+00	123	29	0	1376780288	38	5974
2026-01-16 23:59:39.43	21.02	67.17	-32.4	-33.2	25.4	0.00e+00	120	29	0	1379926016	38	5692
2026-01-16 23:59:40.44	20.11	66.86	-32.2	-33.1	25.5	0.00e+00	123	29	0	1383071744	38	5608
2026-01-16 23:59:41.45	19.23	66.55	-32.4	-33.2	25.5	0.00e+00	122	29	0	1386217472	38	5722
2026-01-16 23:59:42.46	18.37	66.24	-33.0	-33.8	24.9	0.00e+00	123	29	0	1390411776	38	6102
2026-01-16 23:59:43.47	17.54	65.92	-33.0	-33.9	24.6	0.00e+00	120	29	0	1393557504	38	6182
2026-01-16 23:59:44.48	16.73	65.60	-32.7	-33.5	24.5	0.00e+00	123	29	0	1395654656	38	5917
2026-01-16 23:59:45.49	15.94	65.28	-32.2	-33.1	25.3	0.00e+00	123	29	0	1398800384	38	5616
2026-01-16 23:59:46.49	15.18	64.95	-32.1	-33.0	25.6	0.00e+00	123	29	0	1401946112	38	5545
2026-01-16 23:59:47.50	14.44	64.62	-32.8	-33.7	25.2	0.00e+00	123	29	0	1405091840	38	6027
2026-01-16 23:59:48.51	13.72	64.29	-33.8	-34.7	24.4	0.00e+00	123	29	0	1409286144	40	6036
2026-01-16 23:59:49.52	13.02	63.96	-33.9	-34.9	24.3	0.00e+00	122	29	0	1412431872	40	6152
2026-01-16 23:59:50.53	12.34	63.62	-33.9	-34.8	24.2	0.00e+00	122	29	0	1415577600	40	6090
2026-01-16 23:59:51.54	11.68	63.29	-32.8	-33.7	24.7	0.00e+00	123	29	0	1418723328	40	5368
2026-01-16 23:59:52.55	11.04	62.95	-32.4	-33.3	25.3	0.00e+00	120	29	0	1420820480	38	5752
2026-01-16 23:59:53.56	10.42	62.61	-32.2	-33.0	25.6	0.00e+00	123	29	0	1425014784	38	5594
2026-01-16 23:59:54.57	9.81	62.27	-32.7	-33.6	25.1	0.00e+00	122	29	0	1428160512	38	5949
2026-01-16 23:59:55.58	9.22	61.93	-33.5	-34.5	24.6	0.00e+00	120	29	0	1431306240	38	6576
2026-01-16 23:59:56.58	8.66	61.59	-33.8	-34.7	24.5	0.00e+00	123	29	0	1434451968	40	6017
2026-01-16 23:59:57.59	8.10	61.25	-33.6	-34.5	24.4	0.00e+00	123	29	0	1437597696	40	5878
2026-01-16 23:59:58.60	7.56	60.90	-33.1	-33.9	24.6	0.00e+00	123	29	0	1440743424	40	5528
2026-01-16 23:59:59.61	7.03	60.56	-32.9	-33.8	24.8	0.00e+00	122	29	0	1443889152	40	5443
2026-01-17 00:00:00.62	6.52	60.21	-32.8	-33.7	25.1	0.00e+00	123	29	0	1447034880	38	6016
2026-01-17 00:00:01.63	6.02	59.87	-32.9	-33.7	25.1	0.00e+00	123	29	0	1450180608	38	6038
2026-01-17 00:00:02.63	5.53	59.53	-33.1	-33.9	25.0	0.00e+00	122	29	0	1453326336	38	6192
2026-01-17 00:00:03.64	5.06	59.18	-33.8	-34.7	24.5	0.00e+00	123	29	0	1456472064	38	6742
2026-01-17 00:00:04.64	4.60	58.84	-34.3	-35.3	23.4	0.00e+00	123	29	0	1459617792	40	6441
2026-01-17 00:00:05.65	4.16	58.50	-34.2	-35.2	23.2	0.00e+00	123	29	0	1462763520	40	6359
2026-01-17 00:00:06.67	3.71	58.15	-33.7	-34.6	24.0	0.00e+00	122	29	0	1465909248	40	5952
2026-01-17 00:00:07.67	3.29	57.81	-32.8	-33.7	24.8	0.00e+00	123	29	0	1469054976	40	5354
2026-01-17 00:00:08.68	2.88	57.47	-32.7	-33.5	24.9	0.00e+00	120	29	0	1472200704	38	5923
2026-01-17 00:00:09.69	2.47	57.13	-33.1	-34.0	24.6	0.00e+00	122	29	0	1475346432	38	6227
2026-01-17 00:00:10.70	2.07	56.79	-33.4	-34.3	24.4	0.00e+00	123	29	0	1478492160	38	6441
2026-01-17 00:00:11.71	1.69	56.45	-34.2	-35.1	23.9	0.00e+00	123	29	0	1481637888	40	6332
2026-01-17 00:00:12.72	1.31	56.11	-34.7	-35.6	23.7	0.00e+00	120	29	0	1484783616	40	6714
2026-01-17 00:00:13.73	0.95	55.77	-34.9	-35.8	23.5	0.00e+00	123	29	0	1487929344	42	6133
2026-01-17 00:00:14.74	0.59	55.43	-34.8	-35.8	23.1	0.00e+00	123	29	0	1491075072	42	6070
2026-01-17 00:00:15.75	0.24	55.10	-34.2	-35.1	23.4	0.00e+00	123	29	0	1494220800	42	5656
2026-01-17 00:00:16.76	359.90	54.76	-34.2	-35.1	23.8	0.00e+00	122	29	0	1497366528	42	5654
2026-01-17 00:00:17.77	359.56	54.43	-34.0	-34.9	24.1	0.00e+00	120	29	0	1500512256	42	5509
2026-01-17 00:00:18.78	359.24	54.09	-34.5	-35.5	23.9	0.00e+00	123	29	0	1503657984	42	5862
2026-01-17 00:00:19.79	358.92	53.76	-34.8	-35.8	23.7	0.00e+00	122	29	0	1506803712	42	6078
2026-01-17 00:00:20.79	358.61	53.43	-34.8	-35.8	23.7	0.00e+00	120	29	0	1509949440	42	6076
2026-01-17 00:00:21.80	358.31	53.10	-35.0	-35.9	23.3	0.00e+00	123	29	0	1513095168	42	6184
2026-01-17 00:00:22.81	358.01	52.78	-35.5	-36.5	22.9	0.00e+00	123	29	0	1516240896	42	6617
2026-01-17 00:00:23.82	357.72	52.45	-35.8	-36.8	22.8	0.00e+00	123	29	0	1519386624	44	6133
2026-01-17 00:00:24.83	357.44	52.12	-35.8	-36.8	22.9	0.00e+00	123	29	0	1522532352	44	6080
2026-01-17 00:00:25.84	357.16	51.80	-35.1	-36.1	23.2	0.00e+00	123	29	0	1525678080	44	5626
2026-01-17 00:00:26.85	356.89	51.48	-35.1	-36.0	23.1	0.00e+00	122	29	0	1528823808	44	5590
2026-01-17 00:00:27.86	356.62	51.16	-34.6	-35.5	23.7	0.00e+00	122	29	0	1531969536	44	5268
2026-01-17 00:00:28.86	356.37	50.84	-34.4	-35.3	23.9	0.00e+00	123	29	0	1535115264	42	5775
2026-01-17 00:00:29.87	356.11	50.52	-35.5	-36.5	23.1	0.00e+00	123	29	0	1538260992	42	6613
2026-01-17 00:00:30.88	355.86	50.21	-36.3	-37.4	22.2	0.00e+00	123	29	0	1541406720	44	6521
2026-01-17 00:00:31.89	355.62	49.89	-36.8	-37.9	21.9	0.00e+00	120	29	0	1544552448	46	6139
2026-01-17 00:00:32.90	355.38	49.58	-37.1	-38.1	21.7	0.00e+00	122	29	0	1547698176	46	6348
2026-01-17 00:00:33.91	355.15	49.27	-36.7	-37.8	21.5	0.00e+00	122	29	0	1550843904	46	6120
2026-01-17 00:00:34.92	354.92	48.96	-36.5	-37.6	21.8	0.00e+00	122	29	0	1553989632	46	5949
2026-01-17 00:00:35.93	354.69	48.65	-36.2	-37.2	22.4	0.00e+00	122	29	0	1557135360	46	5720
2026-01-17 00:00:36.93	354.48	48.35	-36.1	-37.1	22.6	0.00e+00	123	29	0	1560281088	46	5617
2026-01-17 00:00:37.94	354.26	48.04	-35.9	-36.9	22.8	0.00e+00	123	29	0	1563426816	46	5494
2026-01-17 00:00:38.95	354.05	47.74	-36.0	-37.0	22.7	0.00e+00	122	29	0	1566572544	46	5578
2026-01-17 00:00:39.96	353.84	47.44	-35.5	-36.5	23.1	0.00e+00	123	29	0	1569718272	44	5887
2026-01-17 00:00:40.97	353.64	47.14	-35.1	-36.1	23.5	0.00e+00	123	29	0	1572864000	44	5600
2026-01-17 00:00:41.98	353.44	46.84	-34.8	-35.7	23.7	0.00e+00	122	29	0	1576009728	44	5395
2026-01-17 00:00:42.99	353.24	46.55	-35.3	-36.2	23.3	0.00e+00	121	29	0	1579155456	44	5692
2026-01-17 00:00:44.00	353.05	46.25	-35.8	-36.8	22.7	0.00e+00	123	29	0	1582301184	44	6086
2026-01-17 00:00:45.01	352.86	45.96	-36.6	-37.6	22.1	0.00e+00	123	29	0	1585446912	44	6722
2026-01-17 00:00:46.02	352.68	45.67	-37.2	-38.3	21.7	0.00e+00	123	29	0	1588592640	46	6431
2026-01-17 00:00:47.03	352.50	45.38	-37.0	-38.1	21.5	0.00e+00	122	29	0	1591738368	46	6298
2026-01-17 00:00:48.03	352.32	45.10	-36.7	-37.9	21.3	0.00e+00	123	29	0	1594884096	46	6140
2026-01-17 00:00:49.04	352.15	44.81	-36.5	-37.6	21.5	0.00e+00	123	29	0	1598029824	46	5941
2026-01-17 00:00:50.05	351.97	44.53	-36.0	-37.0	22.2	0.00e+00	123	29	0	1601175552	46	5568
2026-01-17 00:00:51.06	351.81	44.25	-35.5	-36.5	22.8	0.00e+00	120	29	0	1604321280	44	5891
2026-01-17 00:00:52.07	351.64	43.97	-35.7	-36.6	22.9	0.00e+00	122	29	0	1607467008	44	5971
2026-01-17 00:00:53.08	351.48	43.69	-36.2	-37.2	22.4	0.00e+00	121	29	0	1610612736	44	6407
2026-01-17 00:00:54.09	351.32	43.41	-36.4	-37.4	22.3	0.00e+00	123	29	0	1613758464	44	6540
2026-01-17 00:00:55.09	351.16	43.14	-36.5	-37.5	22.2	0.00e+00	123	29	0	1616904192	44	6610
2026-01-17 00:00:56.10	351.01	42.86	-36.4	-37.4	22.3	0.00e+00	123	29	0	1620049920	44	6500
2026-01-17 00:00:57.11	350.86	42.59	-36.3	-37.4	22.3	0.00e+00	120	29	0	1623195648	44	6500
2026-01-17 00:00:58.12	350.71	42.32	-36.3	-37.3	22.4	0.00e+00	123	29	0	1626341376	44	6481
2026-01-17 00:00:59.13	350.56	42.06	-36.0	-37.0	22.6	0.00e+00	124	29	0	1629487104	44	6261
2026-01-17 00:01:00.14	350.42	41.79	-36.2	-37.2	22.5	0.00e+00	122	29	0	1632632832	44	6374
2026-01-17 00:01:01.15	350.28	41.52	-36.3	-37.3	22.3	0.00e+00	123	29	0	1635778560	44	6487
2026-01-17 00:01:02.15	350.14	41.26	-36.5	-37.5	22.1	0.00e+00	122	29	0	1638924288	44	6619
2026-01-17 00:01:03.16	350.00	41.00	-36.6	-37.6	22.2	0.00e+00	123	29	0	1642070016	44	6699
2026-01-17 00:01:04.17	349.87	40.74	-36.6	-37.7	22.0	0.00e+00	122	29	0	1645215744	44	6729
2026-01-17 00:01:05.18	349.74	40.49	-36.6	-37.7	21.8	0.00e+00	123	29	0	1648361472	44	6753
2026-01-17 00:01:06.19	349.61	40.23	-36.4	-37.5	21.7	0.00e+00	122	29	0	1651507200	44	6636
2026-01-17 00:01:07.20	349.48	39.97	-36.2	-37.3	21.9	0.00e+00	122	29	0	1654652928	44	6437
2026-01-17 00:01:08.21	349.35	39.72	-36.0	-37.0	22.1	0.00e+00	122	29	0	1657798656	44	6243
2026-01-17 00:01:09.22	349.23	39.47	-35.8	-36.8	22.4	0.00e+00	120	29	0	1660944384	44	6095
2026-01-17 00:01:10.22	349.11	39.22	-36.0	-37.0	22.3	0.00e+00	127	29	0	1664090112	44	6230
2026-01-17 00:01:11.24	348.98	38.97	-36.4	-37.4	22.1	0.00e+00	122	29	0	1667235840	44	6529
2026-01-17 00:01:12.25	348.87	38.73	-36.4	-37.4	22.2	0.00e+00	123	29	0	1670381568	44	6570
2026-01-17 00:01:13.26	348.75	38.48	-36.4	-37.4	22.2	0.00e+00	123	29	0	1673527296	44	6542
2026-01-17 00:01:14.26	348.64	38.24	-35.9	-37.5	19.9	9.66e-03	122	29	0	1676673024	44	6596
2026-01-17 00:01:15.28	348.52	38.00	-35.7	-37.4	19.5	1.10e-02	122	29	0	1679818752	44	6507
2026-01-17 00:01:16.29	348.41	37.76	-35.6	-37.3	19.6	1.15e-02	125	29	0	1682964480	44	6453
2026-01-17 00:01:17.29	348.30	37.52	-35.1	-36.9	19.3	1.32e-02	122	29	0	1686110208	44	6201
2026-01-17 00:01:18.30	348.19	37.29	-34.6	-36.5	19.7	1.14e-02	120	29	0	1689255936	42	6610
2026-01-17 00:01:19.31	348.09	37.05	-34.0	-36.2	19.9	1.15e-02	120	29	0	1692401664	42	6359
2026-01-17 00:01:20.32	347.98	36.82	-34.7	-35.7	23.7	0.00e+00	123	29	0	1695547392	42	6002
2026-01-17 00:01:21.33	347.88	36.59	-34.7	-35.6	23.8	0.00e+00	123	29	0	1698693120	42	5993
2026-01-17 00:01:22.33	347.78	36.36	-34.6	-35.5	23.9	0.00e+00	121	29	0	1701838848	42	5884
2026-01-17 00:01:23.34	347.68	36.13	-34.7	-35.6	23.8	0.00e+00	123	29	0	1704984576	42	5949
2026-01-17 00:01:24.35	347.58	35.90	-34.9	-35.8	23.7	0.00e+00	120	29	0	1708130304	42	6105
2026-01-17 00:01:25.36	347.48	35.68	-34.9	-35.9	23.5	0.00e+00	123	29	0	1711276032	42	6145
2026-01-17 00:01:26.37	347.39	35.45	-35.1	-36.1	23.3	0.00e+00	122	29	0	1714421760	42	6282
2026-01-17 00:01:27.37	347.29	35.23	-35.1	-36.0	23.3	0.00e+00	123	29	0	1717567488	42	6257
2026-01-17 00:01:28.39	347.20	35.01	-35.2	-36.1	23.2	0.00e+00	123	29	0	1720713216	42	6330
2026-01-17 00:01:29.40	347.10	34.79	-34.9	-35.9	23.5	0.00e+00	123	29	0	1723858944	42	6164
2026-01-17 00:01:30.40	347.01	34.57	-35.1	-36.0	23.4	0.00e+00	122	29	0	1727004672	42	6257
2026-01-17 00:01:31.41	346.93	34.35	-35.0	-36.0	23.5	0.00e+00	120	29	0	1730150400	42	6224
2026-01-17 00:01:32.42	346.84	34.14	-34.9	-35.9	23.7	0.00e+00	123	29	0	1733296128	42	6139
2026-01-17 00:01:33.43	346.75	33.92	-34.8	-35.7	23.7	0.00e+00	120	29	0	1736441856	42	6052
2026-01-17 00:01:34.44	346.66	33.71	-35.0	-35.9	23.6	0.00e+00	117	29	0	1739587584	42	6156
2026-01-17 00:01:35.45	346.58	33.50	-34.9	-35.8	23.6	0.00e+00	123	29	0	1742733312	42	6091
2026-01-17 00:01:36.46	346.50	33.29	-35.0	-35.9	23.6	0.00e+00	121	29	0	1745879040	42	6194
2026-01-17 00:01:37.46	346.41	33.08	-35.1	-36.0	23.4	0.00e+00	123	29	0	1749024768	42	6272
2026-01-17 00:01:38.47	346.33	32.87	-35.2	-36.2	23.3	0.00e+00	122	29	0	1752170496	42	6375
2026-01-17 00:01:39.48	346.25	32.67	-35.1	-36.0	23.3	0.00e+00	123	29	0	1755316224	42	6276
2026-01-17 00:01:40.49	346.17	32.46	-35.2	-36.2	23.2	0.00e+00	123	29	0	1758461952	42	6361
2026-01-17 00:01:41.50	346.09	32.26	-35.2	-36.2	23.2	0.00e+00	122	29	0	1761607680	42	6357
2026-01-17 00:01:42.51	346.02	32.06	-35.0	-36.0	23.3	0.00e+00	123	29	0	1764753408	42	6232
2026-01-17 00:01:43.52	345.94	31.86	-34.7	-35.7	23.4	0.00e+00	123	29	0	1767899136	42	6015
2026-01-17 00:01:44.53	345.87	31.66	-34.9	-35.8	23.3	0.00e+00	123	29	0	1771044864	42	6108
2026-01-17 00:01:45.54	345.79	31.46	-34.6	-35.6	23.5	0.00e+00	123	29	0	1774190592	42	5942
2026-01-17 00:01:46.55	345.72	31.26	-34.5	-35.4	23.6	0.00e+00	123	29	0	1777336320	42	5850
2026-01-17 00:01:47.55	345.65	31.07	-34.4	-35.3	23.7	0.00e+00	123	29	0	1780482048	42	5789
2026-01-17 00:01:48.56	345.57	30.87	-34.0	-34.9	24.1	0.00e+00	123	29	0	1783627776	42	5530
2026-01-17 00:01:49.57	345.50	30.68	-34.1	-34.9	24.1	0.00e+00	123	29	0	1786773504	42	5529
2026-01-17 00:01:50.58	345.43	30.49	-33.6	-34.4	24.4	0.00e+00	122	29	0	1789919232	40	5852
2026-01-17 00:01:51.58	345.37	30.30	-33.6	-34.4	24.5	0.00e+00	123	29	0	1793064960	40	5846
2026-01-17 00:01:52.59	345.30	30.11	-33.4	-34.3	24.6	0.00e+00	123	29	0	1796210688	40	5756
2026-01-17 00:01:53.60	345.23	29.92	-33.4	-34.2	24.7	0.00e+00	122	29	0	1799356416	40	5708
2026-01-17 00:01:54.61	345.16	29.74	-33.0	-33.9	25.0	0.00e+00	120	29	0	1802502144	40	5482
2026-01-17 00:01:55.62	345.10	29.55	-33.0	-33.8	25.0	0.00e+00	122	29	0	1805647872	40	5431
2026-01-17 00:01:56.63	345.03	29.36	-32.9	-33.8	25.1	0.00e+00	123	29	0	1808793600	40	5416
2026-01-17 00:01:57.64	344.97	29.18	-32.9	-33.7	25.1	0.00e+00	122	29	0	1811939328	40	5382
2026-01-17 00:01:58.65	344.91	29.00	-33.0	-33.8	25.1	0.00e+00	122	29	0	1815085056	40	5447
2026-01-17 00:01:59.66	344.84	28.82	-33.0	-33.9	25.1	0.00e+00	120	29	0	1818230784	40	5477
2026-01-17 00:02:00.67	344.78	28.64	-33.2	-34.1	24.9	0.00e+00	123	29	0	1821376512	40	5599
2026-01-17 00:02:01.67	344.72	28.46	-33.3	-34.1	24.9	0.00e+00	123	29	0	1824522240	40	5657
2026-01-17 00:02:02.68	344.66	28.28	-33.4	-34.3	24.8	0.00e+00	122	29	0	1827667968	40	5736
2026-01-17 00:02:03.69	344.60	28.11	-33.6	-34.4	24.6	0.00e+00	122	29	0	1830813696	40	5853
2026-01-17 00:02:04.70	344.54	27.93	-33.7	-34.5	24.5	0.00e+00	122	29	0	1833959424	40	5918
2026-01-17 00:02:05.71	344.49	27.75	-33.8	-34.7	24.3	0.00e+00	123	29	0	1837105152	40	6050
2026-01-17 00:02:06.72	344.43	27.58	-33.9	-34.8	24.4	0.00e+00	122	29	0	1840250880	40	6066
2026-01-17 00:02:07.73	344.37	27.41	-33.9	-34.8	24.3	0.00e+00	122	29	0	1843396608	40	6083
2026-01-17 00:02:08.74	344.32	27.24	-34.0	-34.9	24.3	0.00e+00	123	29	0	1846542336	40	6200
2026-01-17 00:02:09.75	344.26	27.07	-33.8	-34.7	24.4	0.00e+00	123	29	0	1849688064	40	6029
2026-01-17 00:02:10.76	344.20	26.90	-33.8	-34.7	24.4	0.00e+00	123	29	0	1852833792	40	6004
2026-01-17 00:02:11.76	344.15	26.73	-33.7	-34.6	24.5	0.00e+00	121	29	0	1855979520	40	5931
2026-01-17 00:02:12.78	344.10	26.56	-33.7	-34.5	24.6	0.00e+00	123	29	0	1859125248	40	5926
2026-01-17 00:02:13.78	344.04	26.40	-33.7	-34.6	24.5	0.00e+00	122	29	0	1862270976	40	5946
2026-01-17 00:02:14.79	343.99	26.23	-33.7	-34.6	24.5	0.00e+00	123	29	0	1865416704	40	5951
2026-01-17 00:02:15.80	343.94	26.07	-33.7	-34.6	24.5	0.00e+00	122	29	0	1868562432	40	5927
2026-01-17 00:02:16.81	343.89	25.90	-33.6	-34.5	24.5	0.00e+00	123	29	0	1872756736	40	5908
2026-01-17 00:02:17.82	343.84	25.74	-33.6	-34.5	24.5	0.00e+00	123	29	0	1875902464	40	5900
2026-01-17 00:02:18.83	343.79	25.58	-33.7	-34.6	24.4	0.00e+00	123	29	0	1877999616	40	5982
2026-01-17 00:02:19.84	343.74	25.42	-33.5	-34.4	24.5	0.00e+00	120	29	0	1881145344	40	5857
2026-01-17 00:02:20.85	343.69	25.26	-33.7	-34.6	24.4	0.00e+00	122	29	0	1884291072	40	5988
2026-01-17 00:02:21.86	343.64	25.10	-33.8	-34.7	24.3	0.00e+00	123	29	0	1888485376	40	6055
2026-01-17 00:02:22.87	343.59	24.94	-33.7	-34.6	24.3	0.00e+00	120	29	0	1891631104	40	5992
2026-01-17 00:02:23.88	343.54	24.78	-33.8	-34.7	24.2	0.00e+00	122	29	0	1894776832	40	6044
2026-01-17 00:02:24.89	343.50	24.63	-33.9	-34.9	24.1	0.00e+00	122	29	0	1897922560	40	6144
2026-01-17 00:02:25.90	343.45	24.47	-33.9	-34.9	24.1	0.00e+00	122	29	0	1900019712	40	6135
2026-01-17 00:02:26.91	343.40	24.32	-34.0	-35.0	24.0	0.00e+00	123	29	0	1904214016	40	6231
2026-01-17 00:02:27.92	343.36	24.17	-34.1	-35.0	24.0	0.00e+00	123	29	0	1907359744	40	6261
2026-01-17 00:02:28.93	343.31	24.01	-34.1	-35.1	24.0	0.00e+00	122	29	0	1910505472	40	6299
2026-01-17 00:02:29.94	343.27	23.86	-34.2	-35.1	23.9	0.00e+00	123	29	0	1913651200	40	6322
2026-01-17 00:02:30.94	343.23	23.71	-34.1	-35.1	23.9	0.00e+00	123	29	0	1916796928	40	6296
2026-01-17 00:02:31.95	343.18	23.56	-34.2	-35.1	23.8	0.00e+00	123	29	0	1919942656	40	6327
2026-01-17 00:02:32.96	343.14	23.41	-34.2	-35.1	23.9	0.00e+00	123	29	0	1923088384	40	6330
2026-01-17 00:02:33.97	343.10	23.27	-34.1	-35.0	24.0	0.00e+00	123	29	0	1926234112	40	6252
2026-01-17 00:02:34.98	343.05	23.12	-34.0	-35.0	24.0	0.00e+00	122	29	0	1929379840	40	6227
2026-01-17 00:02:35.99	343.01	22.97	-34.1	-35.0	24.0	0.00e+00	123	29	0	1932525568	40	6254
2026-01-17 00:02:37.00	342.97	22.83	-34.0	-34.9	24.1	0.00e+00	120	29	0	1935671296	40	6160
2026-01-17 00:02:38.00	342.93	22.68	-33.7	-34.6	24.3	0.00e+00	122	29	0	1938817024	40	5961
2026-01-17 00:02:39.01	342.89	22.54	-33.6	-34.5	24.2	0.00e+00	122	29	0	1941962752	40	5921
2026-01-17 00:02:40.02	342.85	22.40	-33.6	-34.5	24.3	0.00e+00	123	29	0	1945108480	40	5868
2026-01-17 00:02:41.03	342.81	22.25	-33.6	-34.5	24.4	0.00e+00	123	29	0	1948254208	40	5865
2026-01-17 00:02:42.04	342.77	22.11	-33.6	-34.5	24.4	0.00e+00	122	29	0	1951399936	40	5904
2026-01-17 00:02:43.05	342.73	21.97	-33.5	-34.3	24.4	0.00e+00	123	29	0	1954545664	40	5787
2026-01-17 00:02:44.06	342.69	21.83	-33.3	-34.2	24.5	0.00e+00	123	29	0	1957691392	40	5692
2026-01-17 00:02:45.07	342.65	21.69	-33.4	-34.2	24.5	0.00e+00	123	29	0	1960837120	40	5718
2026-01-17 00:02:46.08	342.61	21.55	-33.3	-34.1	24.5	0.00e+00	122	29	0	1963982848	40	5656
