passes_logs/2026/01/16/R4.6S_Anadyr/R4.6S_Anadyr__20260116_033534_NOAA_21_JPSS-2_rec.log

#Pass ID: 20260116_033534_NOAA 21 (JPSS-2)
#Satellite: NOAA 21 (JPSS-2)
#Configuration: NOAA-21
#almurnet v.1.7.20251203
#Start time: 2026-01-16 03:35:36

#Version: 2.2.20231116
#Station: R4.6S_Anadyr
#Location: 177.4865 lon 64.73178 lat
#TLE: 1 54234U 22150A   26014.58979933  .00000039  00000+0  39403-4 0  9998
#TLE: 2 54234  98.7497 315.4945 0000653 294.6373  65.4735 14.19534652164756

#Time	Az	El	Level	Level2	SNR	BER	BlckErr	Temp	State	Recorded	gain1	gain2
2026-01-16 03:35:36.84	248.88	0.08	-48.1	-59.7	3.5	8.44e-01	0	26	0	0	60	35098
2026-01-16 03:35:37.85	248.98	0.12	-48.2	-61.1	3.5	1.52e+00	0	27	104	0	60	39769
2026-01-16 03:35:38.86	249.08	0.16	-48.4	-61.2	3.5	1.52e+00	0	27	104	0	60	40266
2026-01-16 03:35:39.87	249.18	0.20	-48.0	-61.0	3.5	1.52e+00	0	27	104	0	60	39551
2026-01-16 03:35:40.88	249.28	0.24	-48.1	-61.0	3.5	1.52e+00	0	28	104	0	60	39458
2026-01-16 03:35:41.89	249.38	0.27	-48.0	-61.0	3.5	1.52e+00	0	27	104	0	60	39233
2026-01-16 03:35:42.90	249.49	0.31	-48.0	-61.0	3.5	1.52e+00	0	28	104	0	60	39367
2026-01-16 03:35:43.91	249.59	0.35	-48.0	-61.0	3.5	1.52e+00	0	28	104	0	60	39528
2026-01-16 03:35:44.92	249.69	0.39	-48.1	-61.0	3.5	1.51e+00	0	28	104	0	60	39431
2026-01-16 03:35:45.93	249.79	0.43	-48.2	-61.0	3.5	1.52e+00	0	28	104	0	60	39524
2026-01-16 03:35:46.94	249.90	0.47	-48.2	-61.1	3.5	1.52e+00	0	28	104	0	60	39680
2026-01-16 03:35:47.95	250.00	0.50	-48.1	-61.0	3.5	1.52e+00	0	28	104	0	60	39304
2026-01-16 03:35:48.96	250.10	0.54	-48.1	-60.9	3.5	1.52e+00	0	28	104	0	60	39138
2026-01-16 03:35:49.97	250.21	0.58	-48.1	-60.9	3.5	1.51e+00	0	28	104	0	60	38784
2026-01-16 03:35:50.98	250.31	0.62	-47.9	-60.8	3.5	1.52e+00	0	28	104	0	60	38414
2026-01-16 03:35:51.99	250.42	0.66	-47.7	-60.5	3.5	1.52e+00	0	28	104	0	60	37048
2026-01-16 03:35:53.00	250.52	0.69	-47.3	-60.0	3.5	1.52e+00	0	28	104	0	60	35272
2026-01-16 03:35:54.01	250.63	0.73	-46.5	-59.1	3.5	1.52e+00	0	28	104	0	60	31750
2026-01-16 03:35:55.02	250.73	0.77	-46.5	-59.3	3.5	1.52e+00	0	28	104	0	60	32222
2026-01-16 03:35:56.03	250.84	0.81	-46.5	-59.3	3.5	1.51e+00	0	28	104	0	60	32257
2026-01-16 03:35:57.04	250.94	0.84	-46.5	-59.3	3.5	1.52e+00	0	28	104	0	60	32392
2026-01-16 03:35:58.05	251.05	0.88	-46.5	-59.3	3.5	1.52e+00	0	28	104	0	60	32205
2026-01-16 03:35:59.06	251.15	0.92	-46.4	-59.2	3.5	1.52e+00	0	28	104	0	60	32163
2026-01-16 03:36:00.07	251.26	0.96	-46.4	-59.2	3.5	1.52e+00	0	28	104	0	60	31909
2026-01-16 03:36:01.07	251.37	0.99	-46.4	-59.2	3.5	1.52e+00	0	28	104	0	60	32146
2026-01-16 03:36:01.99	251.46	1.03	-46.4	-59.2	3.5	1.52e+00	0	28	104	0	60	31875
2026-01-16 03:36:02.99	251.57	1.07	-46.5	-59.2	3.5	1.52e+00	0	28	104	0	60	32131
2026-01-16 03:36:04.00	251.68	1.10	-46.5	-59.3	3.5	1.52e+00	0	28	104	0	60	32244
2026-01-16 03:36:05.01	251.79	1.14	-46.5	-59.2	3.5	1.52e+00	0	28	104	0	60	32156
2026-01-16 03:36:06.02	251.89	1.18	-46.4	-59.3	3.5	1.52e+00	0	28	104	0	60	32306
2026-01-16 03:36:07.04	252.00	1.22	-46.4	-59.2	3.5	1.52e+00	0	28	104	0	60	32000
2026-01-16 03:36:08.04	252.11	1.25	-46.4	-59.2	3.5	1.52e+00	0	28	104	0	60	32165
2026-01-16 03:36:09.06	252.22	1.29	-46.4	-59.3	3.5	1.52e+00	0	28	104	0	60	32276
2026-01-16 03:36:10.06	252.33	1.33	-46.4	-59.2	3.5	1.51e+00	0	28	104	0	60	31952
2026-01-16 03:36:11.07	252.44	1.37	-46.4	-59.2	3.5	1.51e+00	0	28	104	0	60	31878
2026-01-16 03:36:12.08	252.55	1.40	-46.4	-59.2	3.5	1.52e+00	0	28	104	0	60	31857
2026-01-16 03:36:13.09	252.66	1.44	-46.4	-59.2	3.5	1.52e+00	0	28	104	0	60	31848
2026-01-16 03:36:14.10	252.77	1.48	-46.4	-59.2	3.5	1.51e+00	0	28	104	0	60	31837
2026-01-16 03:36:15.11	252.88	1.52	-46.4	-59.2	3.5	1.51e+00	0	28	104	0	60	31999
2026-01-16 03:36:16.12	252.99	1.55	-46.4	-59.2	3.5	1.51e+00	0	28	104	0	60	32100
2026-01-16 03:36:17.13	253.10	1.59	-46.4	-59.2	3.5	1.51e+00	0	28	104	0	60	32026
2026-01-16 03:36:18.14	253.21	1.63	-46.4	-59.2	3.5	1.52e+00	0	28	104	0	60	32020
2026-01-16 03:36:19.15	253.32	1.66	-46.4	-59.2	3.5	1.52e+00	0	28	104	0	60	31992
2026-01-16 03:36:20.16	253.43	1.70	-46.4	-59.1	3.5	1.52e+00	0	28	104	0	60	31747
2026-01-16 03:36:21.17	253.54	1.74	-46.4	-59.2	3.5	1.52e+00	0	28	104	0	60	32008
2026-01-16 03:36:22.18	253.66	1.78	-46.4	-59.1	3.5	1.52e+00	0	28	104	0	60	31671
2026-01-16 03:36:23.19	253.77	1.81	-46.4	-59.2	3.5	1.52e+00	0	28	104	0	60	31948
2026-01-16 03:36:24.20	253.88	1.85	-46.4	-59.2	3.5	1.52e+00	0	28	104	0	60	32012
2026-01-16 03:36:25.21	253.99	1.89	-46.4	-59.2	3.5	1.52e+00	0	28	104	0	60	32131
2026-01-16 03:36:26.22	254.11	1.92	-46.4	-59.2	3.5	1.52e+00	0	28	104	0	60	32015
2026-01-16 03:36:27.23	254.22	1.96	-46.4	-59.2	3.5	1.52e+00	0	28	104	0	60	31884
2026-01-16 03:36:28.24	254.34	2.00	-46.4	-59.1	3.5	1.52e+00	0	28	104	0	60	31707
2026-01-16 03:36:29.25	254.45	2.03	-46.4	-59.2	3.5	1.52e+00	0	28	104	0	60	31924
2026-01-16 03:36:30.26	254.56	2.07	-46.4	-59.2	3.5	1.52e+00	0	28	104	0	60	31852
2026-01-16 03:36:31.27	254.68	2.11	-46.4	-59.1	3.5	1.51e+00	0	28	104	0	60	31679
2026-01-16 03:36:32.28	254.79	2.14	-46.4	-59.2	3.5	1.51e+00	0	28	104	0	60	32086
2026-01-16 03:36:33.29	254.91	2.18	-46.4	-59.2	3.5	1.52e+00	0	28	104	0	60	31948
2026-01-16 03:36:34.30	255.02	2.22	-46.4	-59.2	3.5	1.52e+00	0	28	104	0	60	31937
2026-01-16 03:36:35.30	255.14	2.25	-46.4	-59.2	3.5	1.52e+00	0	28	104	0	60	32172
2026-01-16 03:36:36.32	255.26	2.29	-46.4	-59.2	3.5	1.52e+00	0	28	104	0	60	32111
2026-01-16 03:36:37.33	255.37	2.33	-46.4	-59.2	3.5	1.52e+00	0	28	104	0	60	32052
2026-01-16 03:36:38.34	255.49	2.36	-46.4	-59.2	3.5	1.52e+00	0	28	104	0	60	31839
2026-01-16 03:36:39.35	255.60	2.40	-46.4	-59.0	3.5	1.51e+00	0	28	104	0	60	31313
2026-01-16 03:36:40.36	255.72	2.43	-46.4	-59.0	3.5	1.52e+00	0	28	104	0	60	31173
2026-01-16 03:36:41.36	255.84	2.47	-46.4	-59.1	3.5	1.52e+00	0	28	104	0	60	31571
2026-01-16 03:36:42.37	255.96	2.51	-46.4	-59.2	3.5	1.52e+00	0	28	104	0	60	32171
2026-01-16 03:36:43.38	256.07	2.54	-46.4	-59.2	3.5	1.52e+00	0	28	104	0	60	31943
2026-01-16 03:36:44.39	256.19	2.58	-46.4	-59.0	3.5	1.52e+00	0	28	104	0	60	31330
2026-01-16 03:36:45.40	256.31	2.61	-46.4	-59.1	3.5	1.52e+00	0	28	104	0	60	31480
2026-01-16 03:36:46.41	256.43	2.65	-46.4	-59.0	3.5	1.52e+00	0	28	104	0	60	31455
2026-01-16 03:36:47.42	256.55	2.69	-46.3	-58.7	3.5	1.52e+00	0	28	104	0	60	30099
2026-01-16 03:36:48.43	256.67	2.72	-46.3	-57.8	3.5	1.51e+00	0	28	104	0	60	27328
2026-01-16 03:36:49.44	256.79	2.76	-46.3	-57.9	3.5	1.51e+00	0	28	104	0	60	27635
2026-01-16 03:36:50.45	256.91	2.79	-46.4	-58.7	3.5	1.52e+00	0	28	104	0	60	30188
2026-01-16 03:36:51.46	257.03	2.83	-46.3	-57.8	3.6	1.52e+00	0	28	104	0	60	27312
2026-01-16 03:36:52.47	257.15	2.86	-45.3	-52.0	6.8	1.02e+00	122	28	104	0	60	13970
2026-01-16 03:36:53.48	257.27	2.90	-44.1	-47.8	10.4	2.54e-02	123	28	0	2097152	60	8651
2026-01-16 03:36:54.49	257.39	2.93	-42.8	-45.6	12.7	1.42e-04	123	28	0	5242880	60	6692
2026-01-16 03:36:55.50	257.51	2.97	-41.9	-44.3	14.2	4.50e-06	123	28	0	7340032	58	6455
2026-01-16 03:36:56.51	257.63	3.01	-41.8	-44.1	14.2	7.00e-07	123	28	0	10485760	56	7066
2026-01-16 03:36:57.51	257.75	3.04	-38.6	-40.0	17.8	1.50e-06	122	28	0	13631488	48	7041
2026-01-16 03:36:58.52	257.87	3.08	-39.6	-41.6	13.3	0.00e+00	123	28	104	15728640	50	7546
2026-01-16 03:36:59.53	258.00	3.11	-41.8	-44.4	17.1	1.47e+00	123	28	104	15728640	60	5813
2026-01-16 03:37:00.54	258.12	3.15	-39.1	-40.6	17.7	0.00e+00	122	28	0	17825792	50	6702
2026-01-16 03:37:01.55	258.24	3.18	-38.1	-39.5	18.5	0.00e+00	120	28	0	20971520	50	5880
2026-01-16 03:37:02.56	258.36	3.22	-40.5	-42.3	16.8	1.06e-05	123	28	0	24117248	56	5740
2026-01-16 03:37:03.56	258.49	3.25	-38.8	-40.2	18.2	0.00e+00	123	28	0	27262976	52	5717
2026-01-16 03:37:04.58	258.61	3.29	-39.6	-41.2	17.3	0.00e+00	120	28	0	30408704	50	7181
2026-01-16 03:37:05.59	258.74	3.32	-39.6	-41.1	17.5	0.00e+00	123	28	0	33554432	50	7103
2026-01-16 03:37:06.60	258.86	3.36	-38.9	-40.3	18.2	0.00e+00	122	28	0	36700160	50	6496
2026-01-16 03:37:07.61	258.98	3.39	-38.4	-39.8	18.7	0.00e+00	120	28	0	39845888	50	6107
2026-01-16 03:37:08.61	259.11	3.42	-38.7	-40.1	18.4	0.00e+00	122	28	0	42991616	50	6311
2026-01-16 03:37:09.62	259.23	3.46	-38.2	-39.5	19.0	0.00e+00	120	28	0	46137344	50	5900
2026-01-16 03:37:10.63	259.36	3.49	-37.9	-39.2	19.2	0.00e+00	123	28	0	49283072	50	5719
2026-01-16 03:37:11.64	259.48	3.53	-37.5	-38.8	19.7	0.00e+00	122	28	0	52428800	48	6088
2026-01-16 03:37:12.65	259.61	3.56	-37.5	-38.7	19.7	0.00e+00	122	28	0	55574528	48	6062
2026-01-16 03:37:13.66	259.74	3.60	-37.9	-39.2	19.4	0.00e+00	120	28	0	58720256	48	6381
2026-01-16 03:37:14.67	259.86	3.63	-38.0	-39.3	19.3	0.00e+00	123	28	0	61865984	48	6466
2026-01-16 03:37:15.68	259.99	3.66	-37.6	-38.9	19.6	0.00e+00	123	28	0	65011712	48	6153
2026-01-16 03:37:16.68	260.12	3.70	-37.7	-38.9	19.7	0.00e+00	121	28	0	68157440	48	6174
2026-01-16 03:37:17.69	260.24	3.73	-37.7	-38.9	19.6	0.00e+00	123	28	0	71303168	48	6202
2026-01-16 03:37:18.70	260.37	3.77	-38.2	-39.6	19.1	0.00e+00	123	28	0	74448896	48	6663
2026-01-16 03:37:19.71	260.50	3.80	-38.3	-39.7	18.9	0.00e+00	120	28	0	77594624	48	6732
2026-01-16 03:37:20.72	260.63	3.83	-37.7	-38.9	19.4	0.00e+00	123	28	0	80740352	48	6186
2026-01-16 03:37:21.73	260.76	3.87	-37.8	-39.0	19.6	0.00e+00	123	28	0	83886080	48	6252
2026-01-16 03:37:22.74	260.88	3.90	-37.8	-39.0	19.6	0.00e+00	123	28	0	87031808	48	6267
2026-01-16 03:37:23.74	261.01	3.93	-37.6	-38.9	19.7	0.00e+00	122	28	0	90177536	48	6151
2026-01-16 03:37:24.75	261.14	3.97	-37.8	-39.1	19.5	0.00e+00	122	28	0	93323264	48	6327
2026-01-16 03:37:25.76	261.27	4.00	-37.7	-39.0	19.6	0.00e+00	123	28	0	96468992	48	6212
2026-01-16 03:37:26.77	261.40	4.03	-38.1	-39.4	19.2	0.00e+00	123	28	0	99614720	48	6570
2026-01-16 03:37:27.78	261.53	4.07	-37.9	-39.2	19.4	0.00e+00	122	28	0	102760448	48	6391
2026-01-16 03:37:28.79	261.66	4.10	-38.1	-39.4	19.4	0.00e+00	123	28	0	105906176	48	6506
2026-01-16 03:37:29.80	261.79	4.13	-37.9	-39.2	19.5	0.00e+00	122	28	0	109051904	48	6351
2026-01-16 03:37:30.81	261.92	4.17	-38.4	-39.7	19.0	0.00e+00	123	28	0	112197632	48	6755
2026-01-16 03:37:31.82	262.05	4.20	-38.1	-39.4	19.3	0.00e+00	123	28	0	115343360	48	6547
2026-01-16 03:37:32.83	262.19	4.23	-37.5	-38.8	20.0	0.00e+00	123	28	0	118489088	48	6082
2026-01-16 03:37:33.84	262.32	4.27	-37.7	-39.0	19.6	0.00e+00	122	28	0	121634816	48	6206
2026-01-16 03:37:34.85	262.45	4.30	-37.6	-38.8	19.9	0.00e+00	123	28	0	124780544	48	6092
2026-01-16 03:37:35.86	262.58	4.33	-37.7	-38.9	19.7	0.00e+00	122	28	0	127926272	48	6201
2026-01-16 03:37:36.87	262.72	4.36	-37.9	-39.1	19.5	0.00e+00	123	28	0	131072000	48	6350
2026-01-16 03:37:37.88	262.85	4.40	-37.5	-38.8	20.0	0.00e+00	123	28	0	134217728	48	6092
2026-01-16 03:37:38.89	262.98	4.43	-37.7	-38.9	19.7	0.00e+00	123	28	0	137363456	48	6188
2026-01-16 03:37:39.89	263.11	4.46	-37.6	-38.9	19.9	0.00e+00	123	28	0	140509184	48	6144
2026-01-16 03:37:40.90	263.25	4.49	-37.4	-38.6	20.1	0.00e+00	123	28	0	143654912	48	5949
2026-01-16 03:37:41.91	263.38	4.52	-37.5	-38.7	19.9	0.00e+00	122	28	0	146800640	48	6055
2026-01-16 03:37:42.92	263.52	4.56	-37.5	-38.7	19.9	0.00e+00	122	28	0	149946368	48	6054
2026-01-16 03:37:43.93	263.65	4.59	-37.6	-38.8	19.9	0.00e+00	122	28	0	153092096	48	6093
2026-01-16 03:37:44.94	263.79	4.62	-37.4	-38.6	20.3	0.00e+00	123	28	0	156237824	48	5931
2026-01-16 03:37:45.95	263.92	4.65	-37.4	-38.6	20.2	0.00e+00	123	28	0	159383552	48	5931
2026-01-16 03:37:46.96	264.06	4.68	-37.2	-38.4	20.2	0.00e+00	123	28	0	162529280	48	5838
2026-01-16 03:37:47.96	264.19	4.71	-37.0	-38.2	20.5	0.00e+00	120	28	0	165675008	48	5671
2026-01-16 03:37:48.97	264.33	4.75	-37.1	-38.3	20.5	0.00e+00	126	28	0	168820736	48	5742
2026-01-16 03:37:49.98	264.46	4.78	-37.3	-38.5	20.5	0.00e+00	123	28	0	171966464	48	5859
2026-01-16 03:37:50.99	264.60	4.81	-37.2	-38.4	20.4	0.00e+00	122	28	0	175112192	48	5811
2026-01-16 03:37:52.00	264.74	4.84	-37.2	-38.4	20.4	0.00e+00	123	28	0	178257920	48	5827
2026-01-16 03:37:53.01	264.87	4.87	-37.2	-38.4	20.3	0.00e+00	120	28	0	181403648	48	5832
2026-01-16 03:37:54.02	265.01	4.90	-36.9	-38.1	20.7	0.00e+00	122	28	0	184549376	48	5607
2026-01-16 03:37:55.03	265.15	4.93	-37.1	-38.2	20.4	0.00e+00	122	28	0	187695104	48	5711
2026-01-16 03:37:56.04	265.29	4.96	-37.2	-38.4	20.4	0.00e+00	123	28	0	190840832	48	5801
2026-01-16 03:37:57.04	265.42	4.99	-37.2	-38.4	20.4	0.00e+00	122	28	0	193986560	48	5799
2026-01-16 03:37:58.06	265.56	5.02	-37.0	-38.2	20.5	0.00e+00	123	28	0	197132288	48	5695
2026-01-16 03:37:59.06	265.70	5.05	-37.1	-38.2	20.5	0.00e+00	122	28	0	200278016	48	5714
2026-01-16 03:38:00.07	265.84	5.08	-37.1	-38.3	20.4	0.00e+00	123	28	0	203423744	48	5749
2026-01-16 03:38:01.08	265.98	5.11	-37.1	-38.2	20.6	0.00e+00	120	28	0	206569472	48	5709
2026-01-16 03:38:02.09	266.12	5.14	-37.3	-38.5	20.3	0.00e+00	123	28	0	209715200	48	5901
2026-01-16 03:38:03.10	266.26	5.17	-37.1	-38.3	20.5	0.00e+00	122	28	0	212860928	48	5770
2026-01-16 03:38:04.11	266.40	5.20	-37.3	-38.4	20.4	0.00e+00	123	28	0	216006656	48	5841
2026-01-16 03:38:05.12	266.54	5.23	-37.2	-38.4	20.4	0.00e+00	123	28	0	219152384	48	5808
2026-01-16 03:38:06.13	266.68	5.26	-37.3	-38.5	20.4	0.00e+00	123	28	0	222298112	48	5890
2026-01-16 03:38:07.14	266.82	5.29	-36.8	-37.9	20.9	0.00e+00	120	28	0	225443840	48	5504
2026-01-16 03:38:08.15	266.96	5.32	-36.9	-38.1	20.8	0.00e+00	123	28	0	228589568	46	6281
2026-01-16 03:38:09.16	267.11	5.35	-37.0	-38.1	20.7	0.00e+00	122	28	0	231735296	46	6343
2026-01-16 03:38:10.17	267.25	5.38	-36.8	-38.0	20.9	0.00e+00	122	28	0	234881024	46	6222
2026-01-16 03:38:11.18	267.39	5.41	-37.1	-38.2	20.6	0.00e+00	123	28	0	238026752	46	6402
2026-01-16 03:38:12.18	267.53	5.44	-37.1	-38.3	20.5	0.00e+00	123	28	0	241172480	46	6439
2026-01-16 03:38:13.19	267.67	5.47	-36.9	-38.1	20.7	0.00e+00	122	28	0	244318208	46	6300
2026-01-16 03:38:14.20	267.82	5.50	-36.8	-37.9	20.9	0.00e+00	123	28	0	247463936	46	6171
2026-01-16 03:38:15.21	267.96	5.52	-36.9	-38.0	20.8	0.00e+00	123	28	0	250609664	46	6262
2026-01-16 03:38:16.22	268.10	5.55	-37.1	-38.3	20.5	0.00e+00	120	28	0	253755392	46	6465
2026-01-16 03:38:17.23	268.25	5.58	-37.2	-38.3	20.5	0.00e+00	123	28	0	256901120	46	6480
2026-01-16 03:38:18.24	268.39	5.61	-37.3	-38.4	20.5	0.00e+00	123	28	0	260046848	46	6558
2026-01-16 03:38:19.25	268.53	5.64	-37.2	-38.3	20.5	0.00e+00	120	28	0	263192576	46	6494
2026-01-16 03:38:20.26	268.68	5.67	-36.9	-38.1	20.7	0.00e+00	123	28	0	266338304	46	6297
2026-01-16 03:38:21.26	268.82	5.69	-36.6	-37.7	21.1	0.00e+00	123	28	0	269484032	46	6005
2026-01-16 03:38:22.27	268.97	5.72	-36.7	-37.8	21.0	0.00e+00	122	28	0	272629760	46	6120
2026-01-16 03:38:23.28	269.11	5.75	-36.9	-38.1	20.8	0.00e+00	123	28	0	275775488	46	6281
2026-01-16 03:38:24.29	269.26	5.78	-36.7	-37.8	21.0	0.00e+00	123	28	0	278921216	46	6130
2026-01-16 03:38:25.30	269.40	5.80	-36.8	-38.0	20.9	0.00e+00	122	28	0	282066944	46	6226
2026-01-16 03:38:26.31	269.55	5.83	-36.8	-37.9	20.9	0.00e+00	123	28	0	285212672	46	6195
2026-01-16 03:38:27.32	269.70	5.86	-36.9	-38.1	20.8	0.00e+00	120	28	0	289406976	46	6280
2026-01-16 03:38:28.33	269.84	5.89	-37.4	-38.5	20.4	0.00e+00	123	28	0	291504128	46	6620
2026-01-16 03:38:29.33	269.99	5.91	-36.9	-38.0	20.9	0.00e+00	122	28	0	294649856	46	6272
2026-01-16 03:38:30.34	270.14	5.94	-36.6	-37.7	21.2	0.00e+00	121	28	0	297795584	46	6005
2026-01-16 03:38:31.35	270.28	5.97	-36.6	-37.7	21.2	0.00e+00	123	28	0	300941312	46	6005
2026-01-16 03:38:32.37	270.43	5.99	-36.7	-37.9	21.0	0.00e+00	120	28	0	305135616	46	6146
2026-01-16 03:38:33.37	270.58	6.02	-36.8	-38.0	20.9	0.00e+00	123	28	0	308281344	46	6215
2026-01-16 03:38:34.39	270.73	6.04	-36.7	-37.8	21.0	0.00e+00	123	28	0	311427072	46	6098
2026-01-16 03:38:35.39	270.88	6.07	-36.6	-37.7	21.1	0.00e+00	123	28	0	313524224	46	6040
2026-01-16 03:38:36.40	271.02	6.10	-36.8	-37.9	21.0	0.00e+00	120	28	0	316669952	46	6158
2026-01-16 03:38:37.41	271.17	6.12	-36.9	-38.0	20.8	0.00e+00	123	28	0	319815680	46	6248
2026-01-16 03:38:38.42	271.32	6.15	-36.7	-37.9	20.9	0.00e+00	122	28	0	324009984	46	6151
2026-01-16 03:38:39.42	271.47	6.17	-36.9	-38.0	20.9	0.00e+00	122	28	0	327155712	46	6260
2026-01-16 03:38:40.43	271.62	6.20	-36.8	-37.9	20.9	0.00e+00	122	28	0	330301440	46	6204
2026-01-16 03:38:41.45	271.77	6.22	-36.7	-37.8	21.1	0.00e+00	120	28	0	333447168	46	6128
2026-01-16 03:38:42.45	271.92	6.25	-36.7	-37.8	21.1	0.00e+00	122	28	0	336592896	46	6082
2026-01-16 03:38:43.46	272.07	6.27	-36.8	-37.9	20.9	0.00e+00	120	28	0	339738624	46	6196
2026-01-16 03:38:44.47	272.22	6.30	-36.6	-37.7	21.2	0.00e+00	122	28	0	342884352	46	6026
2026-01-16 03:38:45.49	272.37	6.32	-36.8	-37.9	21.0	0.00e+00	123	28	0	346030080	46	6185
2026-01-16 03:38:46.49	272.52	6.35	-36.7	-37.8	21.1	0.00e+00	123	28	0	349175808	46	6128
2026-01-16 03:38:47.50	272.68	6.37	-36.7	-37.8	21.1	0.00e+00	122	28	0	352321536	46	6125
2026-01-16 03:38:48.51	272.83	6.40	-36.7	-37.8	21.0	0.00e+00	122	28	0	355467264	46	6130
2026-01-16 03:38:49.52	272.98	6.42	-36.7	-37.9	21.1	0.00e+00	123	28	0	358612992	46	6136
2026-01-16 03:38:50.53	273.13	6.45	-36.6	-37.8	21.2	0.00e+00	122	28	0	361758720	46	6071
2026-01-16 03:38:51.54	273.28	6.47	-36.6	-37.7	21.2	0.00e+00	123	28	0	364904448	46	6005
2026-01-16 03:38:52.55	273.44	6.49	-36.5	-37.6	21.3	0.00e+00	120	28	0	368050176	46	5980
2026-01-16 03:38:53.56	273.59	6.52	-36.6	-37.7	21.2	0.00e+00	123	28	0	371195904	46	6010
2026-01-16 03:38:54.57	273.74	6.54	-36.4	-37.4	21.4	0.00e+00	123	28	0	374341632	46	5858
2026-01-16 03:38:55.58	273.90	6.56	-36.4	-37.5	21.4	0.00e+00	122	28	0	377487360	46	5901
2026-01-16 03:38:56.59	274.05	6.59	-36.5	-37.5	21.3	0.00e+00	122	28	0	380633088	46	5921
2026-01-16 03:38:57.60	274.20	6.61	-36.5	-37.5	21.5	0.00e+00	120	28	0	383778816	46	5909
2026-01-16 03:38:58.61	274.36	6.63	-36.3	-37.3	21.4	0.00e+00	123	28	0	386924544	46	5788
2026-01-16 03:38:59.62	274.51	6.65	-36.3	-37.3	21.5	0.00e+00	120	28	0	390070272	46	5790
2026-01-16 03:39:00.63	274.67	6.68	-36.4	-37.4	21.4	0.00e+00	122	28	0	393216000	46	5857
2026-01-16 03:39:01.64	274.82	6.70	-36.4	-37.5	21.4	0.00e+00	122	28	0	396361728	46	5881
2026-01-16 03:39:02.65	274.98	6.72	-36.3	-37.3	21.5	0.00e+00	122	28	0	399507456	46	5790
2026-01-16 03:39:03.66	275.13	6.74	-36.3	-37.3	21.5	0.00e+00	120	28	0	402653184	46	5775
2026-01-16 03:39:04.66	275.28	6.77	-36.2	-37.3	21.6	0.00e+00	122	28	0	405798912	46	5735
2026-01-16 03:39:05.67	275.44	6.79	-36.3	-37.4	21.5	0.00e+00	123	28	0	408944640	46	5834
2026-01-16 03:39:06.68	275.60	6.81	-36.3	-37.4	21.5	0.00e+00	123	28	0	412090368	46	5795
2026-01-16 03:39:07.69	275.75	6.83	-36.2	-37.3	21.5	0.00e+00	120	28	0	415236096	46	5747
2026-01-16 03:39:08.70	275.91	6.85	-36.3	-37.4	21.5	0.00e+00	122	28	0	418381824	46	5803
2026-01-16 03:39:09.71	276.06	6.87	-36.5	-37.6	21.3	0.00e+00	120	28	0	421527552	46	5934
2026-01-16 03:39:10.72	276.22	6.89	-36.3	-37.4	21.5	0.00e+00	122	28	0	424673280	46	5794
2026-01-16 03:39:11.73	276.38	6.91	-36.2	-37.2	21.6	0.00e+00	122	28	0	427819008	46	5725
2026-01-16 03:39:12.74	276.54	6.93	-36.2	-37.3	21.6	0.00e+00	123	28	0	430964736	46	5764
2026-01-16 03:39:13.74	276.69	6.95	-36.3	-37.4	21.4	0.00e+00	122	28	0	434110464	46	5830
2026-01-16 03:39:14.76	276.85	6.98	-36.2	-37.3	21.6	0.00e+00	122	28	0	437256192	46	5733
2026-01-16 03:39:15.77	277.01	7.00	-36.2	-37.3	21.6	0.00e+00	122	28	0	440401920	46	5754
2026-01-16 03:39:16.77	277.16	7.01	-36.2	-37.3	21.5	0.00e+00	122	28	0	443547648	46	5732
2026-01-16 03:39:17.78	277.32	7.03	-36.3	-37.3	21.5	0.00e+00	122	28	0	446693376	46	5788
2026-01-16 03:39:18.79	277.48	7.05	-36.3	-37.4	21.5	0.00e+00	123	28	0	449839104	46	5837
2026-01-16 03:39:19.80	277.64	7.07	-36.5	-37.6	21.3	0.00e+00	122	28	0	452984832	46	5976
2026-01-16 03:39:20.81	277.80	7.09	-36.6	-37.7	21.2	0.00e+00	123	28	0	456130560	46	6000
2026-01-16 03:39:21.82	277.96	7.11	-36.7	-37.8	21.2	0.00e+00	123	28	0	459276288	46	6114
2026-01-16 03:39:22.83	278.12	7.13	-36.3	-37.4	21.6	0.00e+00	120	28	0	462422016	46	5802
2026-01-16 03:39:23.84	278.28	7.15	-36.4	-37.5	21.4	0.00e+00	123	28	0	465567744	46	5894
2026-01-16 03:39:24.85	278.44	7.17	-36.3	-37.3	21.6	0.00e+00	122	28	0	468713472	46	5787
2026-01-16 03:39:25.86	278.59	7.19	-36.4	-37.5	21.4	0.00e+00	120	28	0	471859200	46	5911
2026-01-16 03:39:26.87	278.75	7.20	-36.3	-37.4	21.6	0.00e+00	122	28	0	475004928	46	5794
2026-01-16 03:39:27.88	278.91	7.22	-36.3	-37.4	21.5	0.00e+00	123	28	0	478150656	46	5826
2026-01-16 03:39:28.88	279.07	7.24	-36.2	-37.2	21.6	0.00e+00	123	28	0	481296384	46	5720
2026-01-16 03:39:29.90	279.24	7.26	-36.2	-37.2	21.6	0.00e+00	122	28	0	484442112	46	5704
2026-01-16 03:39:30.91	279.40	7.28	-36.3	-37.4	21.6	0.00e+00	120	28	0	487587840	46	5815
2026-01-16 03:39:31.91	279.56	7.29	-36.3	-37.4	21.4	0.00e+00	122	28	0	490733568	46	5828
2026-01-16 03:39:32.92	279.72	7.31	-36.3	-37.4	21.6	0.00e+00	120	28	0	493879296	46	5835
2026-01-16 03:39:33.93	279.88	7.33	-36.3	-37.4	21.5	0.00e+00	123	28	0	497025024	46	5814
2026-01-16 03:39:34.94	280.04	7.34	-36.2	-37.3	21.7	0.00e+00	122	28	0	500170752	46	5768
2026-01-16 03:39:35.95	280.20	7.36	-36.3	-37.4	21.6	0.00e+00	123	28	0	503316480	46	5797
2026-01-16 03:39:36.96	280.36	7.38	-36.1	-37.1	21.8	0.00e+00	123	28	0	506462208	46	5631
2026-01-16 03:39:37.97	280.52	7.39	-36.1	-37.2	21.8	0.00e+00	120	28	0	509607936	46	5692
2026-01-16 03:39:38.98	280.69	7.41	-36.1	-37.2	21.7	0.00e+00	123	28	0	512753664	46	5684
2026-01-16 03:39:39.99	280.85	7.42	-36.2	-37.3	21.6	0.00e+00	122	28	0	515899392	46	5768
2026-01-16 03:39:41.00	281.01	7.44	-36.2	-37.3	21.7	0.00e+00	123	28	0	519045120	46	5731
2026-01-16 03:39:42.00	281.17	7.46	-36.1	-37.2	21.8	0.00e+00	120	28	0	522190848	46	5673
2026-01-16 03:39:43.02	281.34	7.47	-36.0	-37.1	21.8	0.00e+00	120	28	0	525336576	46	5613
2026-01-16 03:39:44.02	281.50	7.49	-36.1	-37.2	21.7	0.00e+00	122	28	0	528482304	46	5682
2026-01-16 03:39:45.03	281.66	7.50	-36.2	-37.2	21.7	0.00e+00	122	28	0	531628032	46	5693
2026-01-16 03:39:46.04	281.82	7.52	-36.0	-37.1	21.8	0.00e+00	120	28	0	534773760	46	5610
2026-01-16 03:39:47.05	281.99	7.53	-36.3	-37.3	21.6	0.00e+00	122	28	0	537919488	46	5787
2026-01-16 03:39:48.06	282.15	7.54	-36.5	-37.5	21.3	0.00e+00	123	28	0	541065216	46	5921
2026-01-16 03:39:49.07	282.32	7.56	-36.6	-37.7	21.3	0.00e+00	122	28	0	544210944	46	6018
2026-01-16 03:39:50.09	282.48	7.57	-36.5	-37.5	21.4	0.00e+00	122	28	0	547356672	46	5924
2026-01-16 03:39:51.09	282.64	7.59	-36.3	-37.4	21.6	0.00e+00	123	28	0	550502400	46	5840
2026-01-16 03:39:52.10	282.81	7.60	-36.3	-37.4	21.6	0.00e+00	122	28	0	553648128	46	5820
2026-01-16 03:39:53.11	282.97	7.61	-36.3	-37.4	21.6	0.00e+00	122	28	0	556793856	46	5827
2026-01-16 03:39:54.12	283.14	7.63	-36.3	-37.4	21.6	0.00e+00	123	28	0	559939584	46	5806
2026-01-16 03:39:55.13	283.30	7.64	-36.3	-37.4	21.5	0.00e+00	120	28	0	563085312	46	5802
2026-01-16 03:39:56.14	283.47	7.65	-36.1	-37.2	21.6	0.00e+00	122	28	0	566231040	46	5664
2026-01-16 03:39:57.15	283.63	7.67	-35.9	-37.0	21.8	0.00e+00	122	28	0	569376768	46	5570
2026-01-16 03:39:58.16	283.80	7.68	-36.1	-37.1	21.8	0.00e+00	123	28	0	572522496	46	5651
2026-01-16 03:39:59.17	283.96	7.69	-36.1	-37.1	21.8	0.00e+00	123	28	0	575668224	46	5637
2026-01-16 03:40:00.18	284.13	7.70	-36.0	-37.1	21.7	0.00e+00	122	28	0	578813952	46	5621
2026-01-16 03:40:01.19	284.29	7.71	-36.2	-37.2	21.8	0.00e+00	124	28	0	581959680	46	5705
2026-01-16 03:40:02.20	284.46	7.73	-36.1	-37.1	21.8	0.00e+00	123	28	0	585105408	46	5649
2026-01-16 03:40:03.20	284.62	7.74	-36.1	-37.2	21.7	0.00e+00	122	28	0	588251136	46	5666
2026-01-16 03:40:04.21	284.79	7.75	-36.2	-37.3	21.6	0.00e+00	122	28	0	591396864	46	5755
2026-01-16 03:40:05.22	284.95	7.76	-36.2	-37.3	21.7	0.00e+00	120	28	0	594542592	46	5735
2026-01-16 03:40:06.23	285.12	7.77	-36.0	-37.1	21.9	0.00e+00	123	28	0	597688320	46	5627
2026-01-16 03:40:07.24	285.28	7.78	-36.1	-37.2	21.8	0.00e+00	123	28	0	600834048	46	5670
2026-01-16 03:40:08.25	285.45	7.79	-36.2	-37.2	21.7	0.00e+00	123	28	0	603979776	46	5714
2026-01-16 03:40:09.26	285.62	7.80	-36.3	-37.4	21.6	0.00e+00	123	28	0	607125504	46	5814
2026-01-16 03:40:10.27	285.78	7.81	-36.2	-37.3	21.7	0.00e+00	123	28	0	610271232	46	5726
2026-01-16 03:40:11.28	285.95	7.82	-36.3	-37.3	21.5	0.00e+00	122	28	0	613416960	46	5784
2026-01-16 03:40:12.29	286.12	7.83	-36.4	-37.5	21.4	0.00e+00	123	28	0	616562688	46	5897
2026-01-16 03:40:13.30	286.28	7.84	-36.2	-37.3	21.5	0.00e+00	122	28	0	619708416	46	5760
2026-01-16 03:40:14.31	286.45	7.85	-36.2	-37.2	21.5	0.00e+00	123	28	0	622854144	46	5718
2026-01-16 03:40:15.32	286.62	7.86	-36.1	-37.2	21.7	0.00e+00	123	28	0	625999872	46	5671
2026-01-16 03:40:16.33	286.78	7.87	-36.1	-37.2	21.7	0.00e+00	123	28	0	629145600	46	5688
2026-01-16 03:40:17.34	286.95	7.88	-36.1	-37.1	21.8	0.00e+00	123	28	0	632291328	46	5644
2026-01-16 03:40:18.34	287.12	7.88	-36.1	-37.2	21.8	0.00e+00	120	28	0	635437056	46	5670
2026-01-16 03:40:19.35	287.28	7.89	-36.1	-37.1	21.8	0.00e+00	122	28	0	638582784	46	5635
2026-01-16 03:40:20.36	287.45	7.90	-35.8	-36.8	22.0	0.00e+00	123	28	0	641728512	46	5466
2026-01-16 03:40:21.37	287.62	7.91	-35.8	-36.8	22.0	0.00e+00	123	28	0	644874240	46	5467
2026-01-16 03:40:22.38	287.79	7.92	-35.9	-37.0	21.9	0.00e+00	120	28	0	648019968	46	5544
2026-01-16 03:40:23.39	287.95	7.92	-35.9	-37.0	21.9	0.00e+00	122	28	0	651165696	46	5534
2026-01-16 03:40:24.40	288.12	7.93	-36.0	-37.1	21.8	0.00e+00	122	28	0	654311424	46	5599
2026-01-16 03:40:25.41	288.29	7.94	-36.2	-37.2	21.7	0.00e+00	122	28	0	657457152	46	5725
2026-01-16 03:40:26.42	288.46	7.94	-36.1	-37.2	21.8	0.00e+00	123	28	0	660602880	46	5693
2026-01-16 03:40:27.43	288.62	7.95	-36.1	-37.2	21.7	0.00e+00	123	28	0	663748608	46	5692
2026-01-16 03:40:28.44	288.79	7.96	-36.1	-37.2	21.8	0.00e+00	122	28	0	666894336	46	5671
2026-01-16 03:40:29.45	288.96	7.96	-36.1	-37.1	21.8	0.00e+00	120	28	0	670040064	46	5653
2026-01-16 03:40:30.46	289.13	7.97	-36.1	-37.1	21.8	0.00e+00	122	28	0	673185792	46	5632
2026-01-16 03:40:31.47	289.30	7.97	-36.0	-37.1	21.8	0.00e+00	123	28	0	677380096	46	5600
2026-01-16 03:40:32.48	289.47	7.98	-36.1	-37.1	21.8	0.00e+00	122	28	0	679477248	46	5640
2026-01-16 03:40:33.49	289.63	7.98	-35.9	-37.0	21.9	0.00e+00	123	28	0	682622976	46	5555
2026-01-16 03:40:34.50	289.80	7.99	-36.0	-37.1	21.7	0.00e+00	123	28	0	685768704	46	5635
2026-01-16 03:40:35.51	289.97	7.99	-36.1	-37.1	21.8	0.00e+00	123	28	0	688914432	46	5636
2026-01-16 03:40:36.52	290.14	8.00	-36.2	-37.2	21.7	0.00e+00	122	28	0	693108736	46	5712
2026-01-16 03:40:37.53	290.31	8.00	-36.3	-37.4	21.6	0.00e+00	123	28	0	696254464	46	5811
2026-01-16 03:40:38.54	290.48	8.01	-36.3	-37.3	21.6	0.00e+00	120	28	0	699400192	46	5788
2026-01-16 03:40:39.55	290.64	8.01	-36.1	-37.2	21.7	0.00e+00	123	28	0	701497344	46	5700
2026-01-16 03:40:40.56	290.81	8.02	-36.2	-37.3	21.7	0.00e+00	123	28	0	704643072	46	5767
2026-01-16 03:40:41.56	290.98	8.02	-36.1	-37.2	21.7	0.00e+00	122	28	0	708837376	46	5683
2026-01-16 03:40:42.57	291.15	8.02	-36.2	-37.3	21.6	0.00e+00	123	28	0	711983104	46	5778
2026-01-16 03:40:43.58	291.32	8.03	-36.1	-37.2	21.7	0.00e+00	123	28	0	715128832	46	5678
2026-01-16 03:40:44.59	291.49	8.03	-36.3	-37.4	21.6	0.00e+00	123	28	0	718274560	46	5820
2026-01-16 03:40:45.60	291.66	8.03	-36.8	-37.9	21.0	0.00e+00	123	28	0	721420288	46	6174
2026-01-16 03:40:46.61	291.82	8.03	-36.2	-37.3	21.6	0.00e+00	122	28	0	724566016	46	5773
2026-01-16 03:40:47.62	291.99	8.04	-36.4	-37.4	21.5	0.00e+00	123	28	0	727711744	46	5854
2026-01-16 03:40:48.63	292.16	8.04	-36.2	-37.3	21.6	0.00e+00	120	28	0	730857472	46	5751
2026-01-16 03:40:49.64	292.33	8.04	-36.1	-37.2	21.7	0.00e+00	122	28	0	734003200	46	5696
2026-01-16 03:40:50.65	292.50	8.04	-36.4	-37.4	21.5	0.00e+00	123	28	0	737148928	46	5848
2026-01-16 03:40:51.66	292.67	8.04	-36.1	-37.2	21.8	0.00e+00	122	28	0	740294656	46	5702
2026-01-16 03:40:52.67	292.84	8.05	-36.0	-37.1	21.8	0.00e+00	123	28	0	743440384	46	5601
2026-01-16 03:40:53.68	293.01	8.05	-36.0	-37.1	22.0	0.00e+00	120	28	0	746586112	46	5609
2026-01-16 03:40:54.69	293.18	8.05	-36.0	-37.0	21.9	0.00e+00	122	28	0	749731840	46	5583
2026-01-16 03:40:55.69	293.34	8.05	-35.9	-37.0	22.0	0.00e+00	123	28	0	752877568	46	5548
2026-01-16 03:40:56.70	293.51	8.05	-35.8	-36.8	22.0	0.00e+00	123	28	0	756023296	46	5428
2026-01-16 03:40:57.71	293.68	8.05	-35.8	-36.8	22.0	0.00e+00	123	28	0	759169024	46	5451
2026-01-16 03:40:58.72	293.85	8.05	-35.9	-36.9	21.9	0.00e+00	123	28	0	762314752	46	5506
2026-01-16 03:40:59.73	294.02	8.05	-35.9	-37.0	21.8	0.00e+00	123	28	0	765460480	46	5547
2026-01-16 03:41:00.74	294.19	8.05	-36.0	-37.0	21.8	0.00e+00	123	28	0	768606208	46	5588
2026-01-16 03:41:01.75	294.36	8.05	-36.0	-37.1	21.7	0.00e+00	120	28	0	771751936	46	5644
2026-01-16 03:41:02.76	294.53	8.05	-36.1	-37.2	21.7	0.00e+00	123	28	0	774897664	46	5660
2026-01-16 03:41:03.77	294.70	8.05	-36.0	-37.1	21.8	0.00e+00	124	28	0	778043392	46	5618
2026-01-16 03:41:04.78	294.86	8.04	-36.2	-37.3	21.6	0.00e+00	122	28	0	781189120	46	5726
2026-01-16 03:41:05.79	295.03	8.04	-36.0	-37.0	21.9	0.00e+00	122	28	0	784334848	46	5550
2026-01-16 03:41:06.80	295.20	8.04	-36.1	-37.1	21.8	0.00e+00	122	28	0	787480576	46	5659
2026-01-16 03:41:07.81	295.37	8.04	-36.1	-37.1	21.8	0.00e+00	123	28	0	790626304	46	5631
2026-01-16 03:41:08.82	295.54	8.04	-36.2	-37.3	21.6	0.00e+00	123	28	0	793772032	46	5743
2026-01-16 03:41:09.82	295.71	8.03	-36.1	-37.1	21.8	0.00e+00	123	28	0	796917760	46	5651
2026-01-16 03:41:10.83	295.88	8.03	-36.2	-37.3	21.7	0.00e+00	122	28	0	800063488	46	5741
2026-01-16 03:41:11.84	296.04	8.03	-36.4	-37.5	21.5	0.00e+00	122	28	0	803209216	46	5859
2026-01-16 03:41:12.85	296.21	8.03	-36.3	-37.3	21.6	0.00e+00	122	28	0	806354944	46	5777
2026-01-16 03:41:13.86	296.38	8.02	-36.4	-37.5	21.5	0.00e+00	123	28	0	809500672	46	5902
2026-01-16 03:41:14.87	296.55	8.02	-36.0	-37.1	21.9	0.00e+00	122	28	0	812646400	46	5597
2026-01-16 03:41:15.88	296.72	8.02	-36.2	-37.3	21.7	0.00e+00	123	28	0	815792128	46	5759
2026-01-16 03:41:16.89	296.89	8.01	-36.0	-37.0	21.9	0.00e+00	123	28	0	818937856	46	5586
2026-01-16 03:41:17.89	297.05	8.01	-36.0	-37.0	21.9	0.00e+00	123	28	0	822083584	46	5570
2026-01-16 03:41:18.90	297.22	8.00	-36.0	-37.1	21.8	0.00e+00	123	28	0	825229312	46	5631
2026-01-16 03:41:19.92	297.39	8.00	-35.9	-36.9	22.0	0.00e+00	122	28	0	828375040	46	5486
2026-01-16 03:41:20.92	297.56	7.99	-35.8	-36.9	22.0	0.00e+00	122	28	0	831520768	46	5487
2026-01-16 03:41:21.93	297.73	7.99	-36.0	-37.0	22.0	0.00e+00	123	28	0	834666496	46	5588
2026-01-16 03:41:22.94	297.90	7.98	-35.9	-37.0	21.9	0.00e+00	122	28	0	837812224	46	5550
2026-01-16 03:41:23.95	298.06	7.98	-35.8	-36.9	22.0	0.00e+00	123	28	0	840957952	46	5468
2026-01-16 03:41:24.96	298.23	7.97	-35.8	-36.8	22.1	0.00e+00	120	28	0	844103680	46	5433
2026-01-16 03:41:25.97	298.40	7.97	-36.0	-37.0	21.9	0.00e+00	123	28	0	847249408	46	5568
2026-01-16 03:41:26.98	298.57	7.96	-35.8	-36.9	22.0	0.00e+00	123	28	0	850395136	46	5483
2026-01-16 03:41:27.99	298.74	7.96	-35.8	-36.8	22.0	0.00e+00	123	28	0	853540864	46	5454
2026-01-16 03:41:28.99	298.90	7.95	-35.6	-36.7	22.1	0.00e+00	122	28	0	856686592	44	6021
2026-01-16 03:41:30.00	299.07	7.94	-35.8	-36.8	22.0	0.00e+00	123	28	0	859832320	44	6125
2026-01-16 03:41:31.01	299.24	7.94	-35.8	-36.8	22.0	0.00e+00	122	28	0	862978048	44	6095
2026-01-16 03:41:32.02	299.41	7.93	-35.8	-36.9	22.0	0.00e+00	123	28	0	866123776	44	6155
2026-01-16 03:41:33.03	299.57	7.92	-35.9	-36.9	21.9	0.00e+00	123	28	0	869269504	44	6205
2026-01-16 03:41:34.04	299.74	7.92	-35.8	-36.8	22.1	0.00e+00	123	28	0	872415232	44	6103
2026-01-16 03:41:35.05	299.91	7.91	-35.9	-37.0	21.9	0.00e+00	123	28	0	875560960	44	6235
2026-01-16 03:41:36.06	300.07	7.90	-35.8	-36.8	22.1	0.00e+00	123	28	0	878706688	44	6080
2026-01-16 03:41:37.07	300.24	7.89	-35.7	-36.8	22.2	0.00e+00	123	28	0	881852416	44	6071
2026-01-16 03:41:38.08	300.41	7.88	-35.6	-36.6	22.3	0.00e+00	123	28	0	884998144	44	5965
2026-01-16 03:41:39.09	300.58	7.88	-35.7	-36.7	22.2	0.00e+00	123	28	0	888143872	44	6026
2026-01-16 03:41:40.10	300.74	7.87	-35.6	-36.5	22.2	0.00e+00	123	28	0	891289600	44	5922
2026-01-16 03:41:41.11	300.91	7.86	-35.5	-36.5	22.2	0.00e+00	120	28	0	894435328	44	5926
2026-01-16 03:41:42.12	301.08	7.85	-35.6	-36.7	22.2	0.00e+00	123	28	0	897581056	44	6002
2026-01-16 03:41:43.13	301.24	7.84	-35.7	-36.7	22.0	0.00e+00	120	28	0	900726784	44	6047
2026-01-16 03:41:44.14	301.41	7.83	-35.8	-36.9	22.0	0.00e+00	123	28	0	903872512	44	6145
2026-01-16 03:41:45.15	301.58	7.82	-35.7	-36.7	22.1	0.00e+00	121	28	0	907018240	44	6044
2026-01-16 03:41:46.15	301.74	7.81	-35.7	-36.7	22.1	0.00e+00	124	28	0	910163968	44	6038
2026-01-16 03:41:47.16	301.91	7.80	-35.7	-36.7	22.2	0.00e+00	122	28	0	913309696	44	6024
2026-01-16 03:41:48.17	302.07	7.79	-35.8	-36.9	22.0	0.00e+00	120	28	0	916455424	44	6155
2026-01-16 03:41:49.18	302.24	7.78	-35.7	-36.7	22.1	0.00e+00	122	28	0	919601152	44	6059
2026-01-16 03:41:50.19	302.40	7.77	-35.7	-36.8	22.1	0.00e+00	120	28	0	922746880	44	6076
2026-01-16 03:41:51.20	302.57	7.76	-35.7	-36.7	22.1	0.00e+00	122	28	0	925892608	44	5999
2026-01-16 03:41:52.21	302.74	7.75	-35.7	-36.7	22.1	0.00e+00	123	28	0	929038336	44	6044
2026-01-16 03:41:53.22	302.90	7.74	-35.7	-36.7	22.0	0.00e+00	120	28	0	932184064	44	6054
2026-01-16 03:41:54.23	303.07	7.73	-35.9	-36.9	22.0	0.00e+00	123	28	0	935329792	44	6186
2026-01-16 03:41:55.24	303.23	7.71	-35.8	-36.8	22.0	0.00e+00	122	28	0	938475520	44	6124
2026-01-16 03:41:56.25	303.40	7.70	-35.9	-36.9	22.0	0.00e+00	123	28	0	941621248	44	6170
2026-01-16 03:41:57.26	303.56	7.69	-36.1	-37.1	21.7	0.00e+00	123	28	0	944766976	44	6337
2026-01-16 03:41:58.27	303.73	7.68	-35.9	-37.0	21.9	0.00e+00	122	28	0	947912704	44	6228
2026-01-16 03:41:59.28	303.89	7.67	-35.9	-37.0	21.9	0.00e+00	123	28	0	951058432	44	6227
2026-01-16 03:42:00.28	304.05	7.65	-36.0	-37.1	21.8	0.00e+00	123	28	0	954204160	44	6288
2026-01-16 03:42:01.29	304.22	7.64	-35.8	-36.8	22.0	0.00e+00	121	28	0	957349888	44	6132
2026-01-16 03:42:02.30	304.38	7.63	-35.9	-36.9	22.0	0.00e+00	120	28	0	960495616	44	6179
2026-01-16 03:42:03.31	304.55	7.61	-36.1	-37.1	21.8	0.00e+00	124	28	0	963641344	44	6332
2026-01-16 03:42:04.32	304.71	7.60	-36.2	-37.2	21.7	0.00e+00	122	28	0	966787072	44	6404
2026-01-16 03:42:05.33	304.87	7.59	-36.3	-37.3	21.6	0.00e+00	122	28	0	969932800	44	6481
2026-01-16 03:42:06.34	305.04	7.57	-36.1	-37.2	21.7	0.00e+00	123	28	0	973078528	44	6370
2026-01-16 03:42:07.35	305.20	7.56	-36.2	-37.2	21.7	0.00e+00	122	28	0	976224256	44	6416
2026-01-16 03:42:08.36	305.36	7.55	-36.1	-37.2	21.8	0.00e+00	123	28	0	979369984	44	6370
2026-01-16 03:42:09.37	305.53	7.53	-36.2	-37.2	21.6	0.00e+00	122	28	0	982515712	44	6417
2026-01-16 03:42:10.38	305.69	7.52	-36.2	-37.2	21.7	0.00e+00	123	28	0	985661440	44	6423
2026-01-16 03:42:11.39	305.85	7.50	-36.2	-37.3	21.6	0.00e+00	123	28	0	988807168	44	6429
2026-01-16 03:42:12.40	306.02	7.49	-36.3	-37.4	21.6	0.00e+00	123	28	0	991952896	44	6509
2026-01-16 03:42:13.41	306.18	7.47	-36.3	-37.4	21.5	0.00e+00	120	28	0	995098624	44	6506
2026-01-16 03:42:14.42	306.34	7.46	-36.5	-37.6	21.4	0.00e+00	120	28	0	998244352	44	6659
2026-01-16 03:42:15.42	306.50	7.44	-36.7	-37.8	21.1	0.00e+00	123	28	0	1001390080	44	6841
2026-01-16 03:42:16.44	306.67	7.43	-36.7	-37.9	21.2	0.00e+00	123	28	0	1004535808	44	6901
2026-01-16 03:42:17.44	306.83	7.41	-36.8	-37.9	21.0	0.00e+00	122	28	0	1007681536	46	6188
2026-01-16 03:42:18.45	306.99	7.39	-37.0	-38.1	21.0	0.00e+00	123	28	0	1010827264	46	6336
2026-01-16 03:42:19.46	307.15	7.38	-37.0	-38.2	20.8	0.00e+00	123	28	0	1013972992	46	6357
2026-01-16 03:42:20.47	307.31	7.36	-36.7	-37.9	21.1	0.00e+00	120	28	0	1017118720	46	6150
2026-01-16 03:42:21.48	307.47	7.35	-36.4	-37.5	21.3	0.00e+00	123	28	0	1020264448	46	5922
2026-01-16 03:42:22.49	307.63	7.33	-36.4	-37.5	21.4	0.00e+00	122	28	0	1023410176	46	5892
2026-01-16 03:42:23.50	307.79	7.31	-36.5	-37.6	21.3	0.00e+00	123	28	0	1026555904	46	5986
2026-01-16 03:42:24.51	307.95	7.30	-36.5	-37.6	21.3	0.00e+00	120	28	0	1029701632	46	5957
2026-01-16 03:42:25.52	308.11	7.28	-36.4	-37.5	21.3	0.00e+00	123	28	0	1032847360	46	5887
2026-01-16 03:42:26.53	308.27	7.26	-36.5	-37.6	21.2	0.00e+00	122	28	0	1035993088	46	5978
2026-01-16 03:42:27.54	308.43	7.24	-36.6	-37.7	21.2	0.00e+00	123	28	0	1039138816	46	6013
2026-01-16 03:42:28.55	308.59	7.23	-36.4	-37.5	21.4	0.00e+00	120	28	0	1042284544	46	5870
2026-01-16 03:42:29.56	308.75	7.21	-36.4	-37.5	21.4	0.00e+00	122	28	0	1045430272	46	5873
2026-01-16 03:42:30.57	308.91	7.19	-36.4	-37.5	21.3	0.00e+00	122	28	0	1048576000	46	5907
2026-01-16 03:42:31.58	309.07	7.17	-36.4	-37.5	21.3	0.00e+00	123	28	0	1051721728	46	5899
2026-01-16 03:42:32.59	309.23	7.15	-36.4	-37.5	21.4	0.00e+00	123	28	0	1054867456	46	5877
2026-01-16 03:42:33.60	309.39	7.13	-36.5	-37.6	21.2	0.00e+00	122	28	0	1058013184	46	5963
2026-01-16 03:42:34.61	309.55	7.11	-36.5	-37.6	21.2	0.00e+00	120	28	0	1061158912	46	5946
2026-01-16 03:42:35.62	309.71	7.10	-36.5	-37.6	21.2	0.00e+00	120	28	0	1064304640	46	5989
2026-01-16 03:42:36.62	309.86	7.08	-36.5	-37.6	21.2	0.00e+00	123	28	0	1067450368	46	5949
2026-01-16 03:42:37.63	310.02	7.06	-36.4	-37.5	21.3	0.00e+00	123	28	0	1070596096	46	5912
2026-01-16 03:42:38.64	310.18	7.04	-36.4	-37.5	21.3	0.00e+00	122	28	0	1073741824	46	5877
2026-01-16 03:42:39.65	310.34	7.02	-36.4	-37.5	21.3	0.00e+00	122	28	0	1076887552	46	5902
2026-01-16 03:42:40.66	310.50	7.00	-36.5	-37.6	21.2	0.00e+00	122	28	0	1080033280	46	5965
2026-01-16 03:42:41.67	310.65	6.98	-36.3	-37.3	21.5	0.00e+00	120	28	0	1084227584	46	5787
2026-01-16 03:42:42.68	310.81	6.96	-36.3	-37.4	21.4	0.00e+00	123	28	0	1087373312	46	5817
2026-01-16 03:42:43.69	310.97	6.94	-36.4	-37.6	21.3	0.00e+00	122	28	0	1089470464	46	5928
2026-01-16 03:42:44.70	311.12	6.92	-36.3	-37.4	21.5	0.00e+00	120	28	0	1092616192	46	5799
2026-01-16 03:42:45.70	311.28	6.90	-36.3	-37.4	21.4	0.00e+00	120	28	0	1095761920	46	5807
2026-01-16 03:42:46.71	311.43	6.88	-36.3	-37.4	21.4	0.00e+00	122	28	0	1098907648	46	5795
2026-01-16 03:42:47.72	311.59	6.86	-36.4	-37.4	21.4	0.00e+00	123	28	0	1103101952	46	5850
2026-01-16 03:42:48.73	311.75	6.83	-36.3	-37.3	21.4	0.00e+00	123	28	0	1106247680	46	5778
2026-01-16 03:42:49.75	311.90	6.81	-36.3	-37.4	21.4	0.00e+00	122	28	0	1109393408	46	5798
2026-01-16 03:42:50.75	312.06	6.79	-36.3	-37.4	21.4	0.00e+00	120	28	0	1111490560	46	5812
2026-01-16 03:42:51.76	312.21	6.77	-36.3	-37.4	21.4	0.00e+00	123	28	0	1115684864	46	5841
2026-01-16 03:42:52.77	312.37	6.75	-36.3	-37.3	21.5	0.00e+00	123	28	0	1118830592	46	5777
2026-01-16 03:42:53.78	312.52	6.73	-36.3	-37.4	21.5	0.00e+00	120	28	0	1121976320	46	5795
2026-01-16 03:42:54.79	312.68	6.70	-36.3	-37.4	21.4	0.00e+00	123	28	0	1125122048	46	5803
2026-01-16 03:42:55.80	312.83	6.68	-36.3	-37.3	21.6	0.00e+00	120	28	0	1128267776	46	5774
2026-01-16 03:42:56.81	312.98	6.66	-36.3	-37.4	21.5	0.00e+00	122	28	0	1131413504	46	5821
2026-01-16 03:42:57.82	313.14	6.64	-36.2	-37.3	21.5	0.00e+00	123	28	0	1134559232	46	5756
2026-01-16 03:42:58.83	313.29	6.62	-36.4	-37.4	21.4	0.00e+00	123	28	0	1137704960	46	5855
2026-01-16 03:42:59.84	313.45	6.59	-36.3	-37.4	21.5	0.00e+00	122	28	0	1140850688	46	5824
2026-01-16 03:43:00.85	313.60	6.57	-36.3	-37.4	21.4	0.00e+00	123	28	0	1143996416	46	5816
2026-01-16 03:43:01.86	313.75	6.55	-36.3	-37.4	21.4	0.00e+00	123	28	0	1147142144	46	5801
2026-01-16 03:43:02.87	313.90	6.52	-36.5	-37.6	21.4	0.00e+00	120	28	0	1150287872	46	5948
2026-01-16 03:43:03.88	314.06	6.50	-36.3	-37.4	21.3	0.00e+00	122	28	0	1153433600	46	5827
2026-01-16 03:43:04.89	314.21	6.48	-36.5	-37.6	21.4	0.00e+00	120	28	0	1156579328	46	5929
2026-01-16 03:43:05.89	314.36	6.45	-36.3	-37.4	21.4	0.00e+00	122	28	0	1159725056	46	5798
2026-01-16 03:43:06.90	314.51	6.43	-36.4	-37.5	21.4	0.00e+00	122	28	0	1162870784	46	5881
2026-01-16 03:43:07.91	314.66	6.40	-36.5	-37.6	21.2	0.00e+00	123	28	0	1166016512	46	5951
2026-01-16 03:43:08.92	314.81	6.38	-36.3	-37.3	21.4	0.00e+00	123	28	0	1169162240	46	5786
2026-01-16 03:43:09.93	314.96	6.36	-36.2	-37.3	21.4	0.00e+00	123	28	0	1172307968	46	5768
2026-01-16 03:43:10.94	315.11	6.33	-36.3	-37.3	21.4	0.00e+00	120	28	0	1175453696	46	5787
2026-01-16 03:43:11.95	315.26	6.31	-36.4	-37.5	21.4	0.00e+00	123	28	0	1178599424	46	5904
2026-01-16 03:43:12.96	315.41	6.28	-36.4	-37.4	21.3	0.00e+00	120	28	0	1181745152	46	5856
2026-01-16 03:43:13.97	315.56	6.26	-36.4	-37.5	21.3	0.00e+00	122	28	0	1184890880	46	5879
2026-01-16 03:43:14.98	315.71	6.23	-36.3	-37.4	21.3	0.00e+00	123	28	0	1188036608	46	5829
2026-01-16 03:43:15.99	315.86	6.21	-36.3	-37.4	21.4	0.00e+00	123	28	0	1191182336	46	5812
2026-01-16 03:43:17.00	316.01	6.18	-36.4	-37.5	21.3	0.00e+00	123	28	0	1194328064	46	5873
2026-01-16 03:43:18.01	316.16	6.16	-36.2	-37.3	21.5	0.00e+00	122	28	0	1197473792	46	5759
2026-01-16 03:43:19.02	316.31	6.13	-36.3	-37.4	21.3	0.00e+00	122	29	0	1200619520	46	5824
2026-01-16 03:43:20.03	316.46	6.11	-36.4	-37.5	21.3	0.00e+00	123	28	0	1203765248	46	5872
2026-01-16 03:43:21.04	316.61	6.08	-36.5	-37.6	21.2	0.00e+00	120	28	0	1206910976	46	5936
2026-01-16 03:43:22.05	316.75	6.05	-36.5	-37.6	21.1	0.00e+00	123	29	0	1210056704	46	5941
2026-01-16 03:43:23.05	316.90	6.03	-36.6	-37.7	21.0	0.00e+00	123	28	0	1213202432	46	6028
2026-01-16 03:43:24.06	317.05	6.00	-36.5	-37.7	21.1	0.00e+00	123	29	0	1216348160	46	5995
2026-01-16 03:43:25.07	317.20	5.98	-36.5	-37.6	21.1	0.00e+00	120	29	0	1219493888	46	5931
2026-01-16 03:43:26.08	317.34	5.95	-36.5	-37.7	21.0	0.00e+00	123	29	0	1222639616	46	6000
2026-01-16 03:43:27.09	317.49	5.92	-36.6	-37.7	21.0	0.00e+00	120	29	0	1225785344	46	6000
2026-01-16 03:43:28.10	317.64	5.90	-36.6	-37.7	21.1	0.00e+00	122	29	0	1228931072	46	6025
2026-01-16 03:43:29.12	317.78	5.87	-36.6	-37.7	21.1	0.00e+00	123	29	0	1232076800	46	6023
2026-01-16 03:43:30.12	317.93	5.84	-36.6	-37.7	21.1	0.00e+00	123	29	0	1235222528	46	6026
2026-01-16 03:43:31.13	318.07	5.82	-36.6	-37.7	21.1	0.00e+00	123	29	0	1238368256	46	6018
2026-01-16 03:43:32.14	318.22	5.79	-36.6	-37.7	21.1	0.00e+00	121	29	0	1241513984	46	6049
2026-01-16 03:43:33.15	318.36	5.76	-36.6	-37.8	21.0	0.00e+00	123	29	0	1244659712	46	6076
2026-01-16 03:43:34.16	318.51	5.73	-36.7	-37.8	21.0	0.00e+00	123	29	0	1247805440	46	6082
2026-01-16 03:43:35.17	318.65	5.71	-36.6	-37.7	21.0	0.00e+00	122	29	0	1250951168	46	6028
2026-01-16 03:43:36.18	318.80	5.68	-36.5	-37.6	21.1	0.00e+00	123	29	0	1254096896	46	5991
2026-01-16 03:43:37.19	318.94	5.65	-36.6	-37.8	20.9	0.00e+00	123	29	0	1257242624	46	6088
2026-01-16 03:43:38.20	319.08	5.62	-36.7	-37.9	20.8	0.00e+00	121	29	0	1260388352	46	6171
2026-01-16 03:43:39.21	319.23	5.59	-36.9	-38.0	20.7	0.00e+00	123	29	0	1263534080	46	6256
2026-01-16 03:43:40.22	319.37	5.57	-36.8	-37.9	20.7	0.00e+00	120	29	0	1266679808	46	6179
2026-01-16 03:43:41.23	319.51	5.54	-36.7	-37.8	20.8	0.00e+00	127	29	0	1269825536	46	6113
2026-01-16 03:43:42.24	319.66	5.51	-36.7	-37.8	20.8	0.00e+00	123	29	0	1272971264	46	6102
2026-01-16 03:43:43.25	319.80	5.48	-36.6	-37.7	20.9	0.00e+00	122	29	0	1276116992	46	6026
2026-01-16 03:43:44.26	319.94	5.45	-36.6	-37.8	20.8	0.00e+00	122	29	0	1279262720	46	6091
2026-01-16 03:43:45.26	320.08	5.42	-36.5	-37.6	21.0	0.00e+00	120	29	0	1282408448	46	5991
2026-01-16 03:43:46.27	320.22	5.40	-36.4	-37.5	21.1	0.00e+00	123	29	0	1285554176	46	5903
2026-01-16 03:43:47.28	320.36	5.37	-36.5	-37.6	21.0	0.00e+00	120	29	0	1288699904	46	5948
2026-01-16 03:43:48.29	320.51	5.34	-36.5	-37.7	20.9	0.00e+00	120	29	0	1291845632	46	5995
2026-01-16 03:43:49.30	320.65	5.31	-36.4	-37.5	21.1	0.00e+00	122	29	0	1294991360	46	5875
2026-01-16 03:43:50.31	320.79	5.28	-36.5	-37.6	21.0	0.00e+00	120	29	0	1298137088	46	5963
2026-01-16 03:43:51.32	320.93	5.25	-36.5	-37.6	21.1	0.00e+00	123	29	0	1301282816	46	5939
2026-01-16 03:43:52.33	321.07	5.22	-36.5	-37.6	21.0	0.00e+00	120	29	0	1304428544	46	5987
2026-01-16 03:43:53.34	321.21	5.19	-36.5	-37.6	21.1	0.00e+00	120	29	0	1307574272	46	5961
2026-01-16 03:43:54.35	321.35	5.16	-36.7	-37.8	20.9	0.00e+00	123	29	0	1310720000	46	6117
2026-01-16 03:43:55.36	321.48	5.13	-36.5	-37.6	21.0	0.00e+00	122	29	0	1313865728	46	5977
2026-01-16 03:43:56.37	321.62	5.10	-36.5	-37.7	21.0	0.00e+00	123	29	0	1317011456	46	5999
2026-01-16 03:43:57.38	321.76	5.07	-36.6	-37.7	21.0	0.00e+00	120	29	0	1320157184	46	6034
2026-01-16 03:43:58.39	321.90	5.04	-36.7	-37.8	20.8	0.00e+00	123	29	0	1323302912	46	6099
2026-01-16 03:43:59.40	322.04	5.01	-36.8	-37.9	20.7	0.00e+00	120	29	0	1326448640	46	6204
2026-01-16 03:44:00.41	322.18	4.98	-36.9	-38.0	20.6	0.00e+00	122	29	0	1329594368	46	6255
2026-01-16 03:44:01.42	322.31	4.95	-37.1	-38.2	20.4	0.00e+00	122	29	0	1332740096	46	6414
2026-01-16 03:44:02.43	322.45	4.92	-37.2	-38.4	20.3	0.00e+00	123	29	0	1335885824	46	6559
2026-01-16 03:44:03.44	322.59	4.89	-37.2	-38.3	20.3	0.00e+00	123	29	0	1339031552	46	6495
2026-01-16 03:44:04.45	322.72	4.86	-37.2	-38.4	20.3	0.00e+00	123	29	0	1342177280	46	6551
2026-01-16 03:44:05.46	322.86	4.83	-37.2	-38.4	20.3	0.00e+00	123	29	0	1345323008	46	6551
2026-01-16 03:44:06.47	323.00	4.80	-37.2	-38.4	20.2	0.00e+00	121	29	0	1348468736	46	6541
2026-01-16 03:44:07.48	323.13	4.77	-37.0	-38.1	20.5	0.00e+00	122	29	0	1351614464	46	6335
2026-01-16 03:44:08.49	323.27	4.73	-37.1	-38.2	20.5	0.00e+00	120	29	0	1354760192	46	6413
2026-01-16 03:44:09.50	323.40	4.70	-36.8	-38.0	20.6	0.00e+00	123	29	0	1357905920	46	6220
2026-01-16 03:44:10.50	323.54	4.67	-37.0	-38.2	20.4	0.00e+00	123	29	0	1361051648	46	6396
2026-01-16 03:44:11.51	323.67	4.64	-36.9	-38.1	20.6	0.00e+00	122	29	0	1364197376	46	6288
2026-01-16 03:44:12.52	323.81	4.61	-36.8	-37.9	20.6	0.00e+00	123	29	0	1367343104	46	6191
2026-01-16 03:44:13.53	323.94	4.58	-36.9	-38.0	20.6	0.00e+00	123	29	0	1370488832	46	6251
2026-01-16 03:44:14.54	324.07	4.55	-36.9	-38.0	20.5	0.00e+00	123	29	0	1373634560	46	6258
2026-01-16 03:44:15.55	324.21	4.51	-36.7	-37.9	20.7	0.00e+00	120	29	0	1376780288	46	6154
2026-01-16 03:44:16.56	324.34	4.48	-36.8	-38.0	20.6	0.00e+00	122	29	0	1379926016	46	6224
2026-01-16 03:44:17.57	324.47	4.45	-36.9	-38.1	20.5	0.00e+00	122	29	0	1383071744	46	6295
2026-01-16 03:44:18.58	324.61	4.42	-37.2	-38.3	20.2	0.00e+00	122	29	0	1386217472	46	6495
2026-01-16 03:44:19.59	324.74	4.39	-37.3	-38.5	20.1	0.00e+00	122	29	0	1389363200	46	6630
2026-01-16 03:44:20.60	324.87	4.35	-37.3	-38.5	20.1	0.00e+00	123	29	0	1392508928	46	6619
2026-01-16 03:44:21.61	325.00	4.32	-37.3	-38.5	20.2	0.00e+00	123	29	0	1395654656	46	6588
2026-01-16 03:44:22.62	325.14	4.29	-37.6	-38.8	19.8	0.00e+00	123	29	0	1398800384	46	6879
2026-01-16 03:44:23.63	325.27	4.26	-37.6	-38.8	19.8	0.00e+00	123	29	0	1401946112	48	6104
2026-01-16 03:44:24.64	325.40	4.22	-37.6	-38.8	19.7	0.00e+00	123	29	0	1405091840	48	6110
2026-01-16 03:44:25.64	325.53	4.19	-37.4	-38.6	20.0	0.00e+00	123	29	0	1408237568	48	5958
2026-01-16 03:44:26.65	325.66	4.16	-37.4	-38.6	20.0	0.00e+00	122	29	0	1411383296	48	5941
2026-01-16 03:44:27.66	325.79	4.13	-37.5	-38.7	19.9	0.00e+00	120	29	0	1414529024	48	6036
2026-01-16 03:44:28.67	325.92	4.09	-37.4	-38.6	20.0	0.00e+00	122	29	0	1417674752	48	5966
2026-01-16 03:44:29.68	326.05	4.06	-37.3	-38.5	20.0	0.00e+00	120	29	0	1420820480	48	5912
2026-01-16 03:44:30.69	326.18	4.03	-37.3	-38.5	20.0	0.00e+00	123	29	0	1423966208	48	5883
2026-01-16 03:44:31.70	326.31	4.00	-37.1	-38.3	20.2	0.00e+00	123	29	0	1427111936	48	5789
2026-01-16 03:44:32.71	326.44	3.96	-37.2	-38.4	20.0	0.00e+00	122	29	0	1430257664	48	5852
2026-01-16 03:44:33.72	326.56	3.93	-37.3	-38.5	20.0	0.00e+00	122	29	0	1433403392	48	5894
2026-01-16 03:44:34.73	326.69	3.90	-37.3	-38.5	20.0	0.00e+00	123	29	0	1436549120	48	5914
2026-01-16 03:44:35.74	326.82	3.86	-37.2	-38.4	20.0	0.00e+00	122	29	0	1439694848	48	5847
2026-01-16 03:44:36.75	326.95	3.83	-37.2	-38.4	20.1	0.00e+00	123	29	0	1442840576	48	5828
2026-01-16 03:44:37.75	327.07	3.80	-37.1	-38.3	20.2	0.00e+00	122	29	0	1445986304	48	5735
2026-01-16 03:44:38.76	327.20	3.76	-37.2	-38.4	20.0	0.00e+00	122	29	0	1450180608	48	5827
2026-01-16 03:44:39.77	327.33	3.73	-37.3	-38.5	19.9	0.00e+00	123	29	0	1452277760	48	5912
2026-01-16 03:44:40.78	327.45	3.70	-37.2	-38.4	20.0	0.00e+00	122	29	0	1455423488	48	5822
2026-01-16 03:44:41.79	327.58	3.66	-37.1	-38.3	20.1	0.00e+00	123	29	0	1458569216	48	5749
2026-01-16 03:44:42.80	327.71	3.63	-37.2	-38.4	20.0	0.00e+00	120	29	0	1461714944	48	5837
2026-01-16 03:44:43.81	327.83	3.59	-37.3	-38.6	19.8	0.00e+00	123	29	0	1464860672	48	5928
2026-01-16 03:44:44.82	327.96	3.56	-37.5	-38.8	19.6	0.00e+00	122	29	0	1469054976	48	6089
2026-01-16 03:44:45.83	328.08	3.53	-37.4	-38.6	19.7	0.00e+00	122	29	0	1472200704	48	5977
2026-01-16 03:44:46.84	328.21	3.49	-37.6	-38.9	19.6	0.00e+00	123	29	0	1475346432	48	6148
2026-01-16 03:44:47.85	328.33	3.46	-37.4	-38.6	19.6	0.00e+00	122	29	0	1477443584	48	5960
2026-01-16 03:44:48.85	328.46	3.42	-37.4	-38.6	19.5	0.00e+00	121	29	0	1480589312	48	5973
2026-01-16 03:44:49.86	328.58	3.39	-37.2	-38.5	19.6	0.00e+00	122	29	0	1484783616	48	5867
2026-01-16 03:44:50.87	328.70	3.35	-37.7	-39.0	18.8	0.00e+00	122	29	0	1487929344	48	6236
2026-01-16 03:44:51.88	328.83	3.32	-38.2	-39.7	18.4	0.00e+00	123	29	0	1491075072	48	6741
2026-01-16 03:44:52.89	328.95	3.29	-38.2	-39.7	18.2	0.00e+00	124	29	0	1494220800	48	6750
2026-01-16 03:44:53.90	329.07	3.25	-38.3	-39.8	17.9	0.00e+00	122	29	0	1497366528	48	6845
2026-01-16 03:44:54.91	329.20	3.22	-38.3	-39.8	18.0	0.00e+00	123	29	0	1499463680	48	6852
2026-01-16 03:44:55.92	329.32	3.18	-38.3	-39.8	17.9	0.00e+00	123	29	0	1503657984	48	6869
2026-01-16 03:44:56.93	329.44	3.15	-38.3	-39.8	17.8	0.00e+00	123	29	0	1506803712	48	6858
2026-01-16 03:44:57.94	329.56	3.11	-38.5	-40.1	17.3	0.00e+00	123	29	0	1509949440	48	7067
2026-01-16 03:44:58.95	329.68	3.08	-38.8	-40.5	16.8	0.00e+00	123	29	0	1513095168	48	7401
2026-01-16 03:44:59.96	329.81	3.04	-39.1	-41.0	16.0	0.00e+00	123	29	0	1516240896	50	6974
2026-01-16 03:45:00.97	329.93	3.01	-39.6	-41.5	15.5	0.00e+00	123	29	0	1519386624	50	7437
2026-01-16 03:45:01.98	330.05	2.97	-46.9	-59.7	3.5	1.52e+00	0	29	104	1520435200	60	33982
2026-01-16 03:45:02.99	330.17	2.94	-47.4	-60.2	3.5	1.52e+00	0	29	104	1520435200	60	36111
2026-01-16 03:45:04.00	330.29	2.90	-47.7	-60.5	3.5	1.52e+00	0	29	104	1520435200	60	37149
2026-01-16 03:45:05.01	330.41	2.87	-47.9	-60.7	3.5	1.52e+00	0	29	104	1520435200	60	38191
2026-01-16 03:45:06.01	330.53	2.83	-48.0	-60.9	3.5	1.52e+00	0	29	104	1520435200	60	38830
2026-01-16 03:45:07.02	330.65	2.80	-48.1	-60.9	3.5	1.52e+00	0	29	104	1520435200	60	39102
2026-01-16 03:45:08.03	330.77	2.76	-48.2	-61.0	3.5	1.52e+00	0	29	104	1520435200	60	39342
2026-01-16 03:45:09.04	330.88	2.73	-48.2	-61.0	3.5	1.52e+00	0	29	104	1520435200	60	39417
2026-01-16 03:45:10.06	331.00	2.69	-48.2	-61.1	3.5	1.52e+00	0	29	104	1520435200	60	39892
2026-01-16 03:45:11.06	331.12	2.66	-48.1	-61.1	3.6	1.52e+00	0	29	104	1520435200	60	39669
2026-01-16 03:45:12.07	331.24	2.62	-47.7	-61.1	3.5	1.52e+00	0	29	104	1520435200	60	39728
2026-01-16 03:45:13.09	331.36	2.58	-47.9	-61.0	3.5	1.52e+00	0	29	104	1520435200	60	39345
2026-01-16 03:45:14.10	331.48	2.55	-47.9	-61.0	3.5	1.52e+00	0	29	104	1520435200	60	39442
2026-01-16 03:45:15.11	331.59	2.51	-48.1	-61.0	3.5	1.52e+00	0	29	104	1520435200	60	39293
2026-01-16 03:45:16.12	331.71	2.48	-48.1	-60.9	3.5	1.51e+00	0	29	104	1520435200	60	39009
2026-01-16 03:45:17.13	331.83	2.44	-48.1	-61.0	3.5	1.52e+00	0	29	104	1520435200	60	39588
2026-01-16 03:45:18.14	331.94	2.40	-48.1	-61.0	3.5	1.52e+00	0	29	104	1520435200	60	39434
2026-01-16 03:45:19.15	332.06	2.37	-48.2	-61.1	3.5	1.52e+00	0	30	104	1520435200	60	39784
2026-01-16 03:45:20.15	332.17	2.33	-48.1	-60.9	3.5	1.52e+00	0	29	104	1520435200	60	39017
2026-01-16 03:45:21.16	332.29	2.30	-48.1	-60.9	3.5	1.52e+00	0	29	104	1520435200	60	38909
2026-01-16 03:45:22.17	332.40	2.26	-48.1	-61.0	3.5	1.52e+00	0	30	104	1520435200	60	39204
2026-01-16 03:45:23.18	332.52	2.23	-48.0	-60.9	3.5	1.52e+00	0	29	104	1520435200	60	39035
2026-01-16 03:45:24.19	332.63	2.19	-48.1	-61.0	3.5	1.52e+00	0	30	104	1520435200	60	39227
2026-01-16 03:45:25.20	332.75	2.15	-48.1	-61.0	3.5	1.51e+00	0	30	104	1520435200	60	39302
2026-01-16 03:45:26.21	332.86	2.12	-48.1	-61.0	3.5	1.52e+00	0	30	104	1520435200	60	39208
2026-01-16 03:45:27.22	332.98	2.08	-48.3	-61.1	3.5	1.52e+00	0	30	104	1520435200	60	39887
2026-01-16 03:45:28.23	333.09	2.04	-48.3	-61.2	3.5	1.52e+00	0	30	104	1520435200	60	40118
2026-01-16 03:45:29.24	333.20	2.01	-48.4	-61.2	3.5	1.52e+00	0	30	104	1520435200	60	40286
2026-01-16 03:45:30.25	333.32	1.97	-48.2	-61.1	3.5	1.51e+00	0	30	104	1520435200	60	39841
2026-01-16 03:45:31.26	333.43	1.94	-48.2	-61.0	3.5	1.52e+00	0	30	104	1520435200	60	39592
2026-01-16 03:45:32.27	333.54	1.90	-48.2	-61.0	3.5	1.52e+00	0	30	104	1520435200	60	39564
2026-01-16 03:45:33.28	333.66	1.86	-48.3	-61.2	3.5	1.52e+00	0	30	104	1520435200	60	40200
2026-01-16 03:45:34.29	333.77	1.83	-48.2	-61.1	3.5	1.52e+00	0	30	104	1520435200	60	39826
2026-01-16 03:45:35.30	333.88	1.79	-48.1	-61.0	3.5	1.52e+00	0	30	104	1520435200	60	39454
2026-01-16 03:45:36.31	333.99	1.75	-48.1	-60.9	3.5	1.52e+00	0	30	104	1520435200	60	39092
2026-01-16 03:45:37.32	334.10	1.72	-48.2	-61.1	3.5	1.52e+00	0	30	104	1520435200	60	39741
2026-01-16 03:45:38.33	334.21	1.68	-48.1	-61.0	3.5	1.52e+00	0	30	104	1520435200	60	39227
2026-01-16 03:45:39.34	334.33	1.64	-48.3	-61.1	3.5	1.51e+00	0	30	104	1520435200	60	39985
2026-01-16 03:45:40.35	334.44	1.61	-48.1	-61.0	3.5	1.52e+00	0	30	104	1520435200	60	39220
2026-01-16 03:45:41.36	334.55	1.57	-48.2	-61.0	3.5	1.52e+00	0	30	104	1520435200	60	39544
2026-01-16 03:45:42.37	334.66	1.53	-48.2	-61.1	3.5	1.51e+00	0	30	104	1520435200	60	39638
2026-01-16 03:45:43.38	334.77	1.50	-48.1	-60.9	3.5	1.52e+00	0	30	104	1520435200	60	39053
2026-01-16 03:45:44.39	334.88	1.46	-48.2	-61.1	3.5	1.51e+00	0	30	104	1520435200	60	39704
2026-01-16 03:45:45.40	334.98	1.42	-48.3	-61.2	3.5	1.51e+00	0	30	104	1520435200	60	40237
2026-01-16 03:45:46.41	335.09	1.38	-48.2	-61.0	3.5	1.51e+00	0	30	104	1520435200	60	39409
2026-01-16 03:45:47.42	335.20	1.35	-48.3	-61.1	3.5	1.52e+00	0	30	104	1520435200	60	40043
2026-01-16 03:45:48.43	335.31	1.31	-48.2	-61.1	3.5	1.52e+00	0	30	104	1520435200	60	39632
2026-01-16 03:45:49.44	335.42	1.27	-48.2	-61.0	3.5	1.52e+00	0	30	104	1520435200	60	39560
2026-01-16 03:45:50.45	335.53	1.24	-48.2	-61.1	3.5	1.52e+00	0	30	104	1520435200	60	40043
2026-01-16 03:45:51.46	335.63	1.20	-48.3	-61.1	3.5	1.52e+00	0	30	104	1520435200	60	39792
2026-01-16 03:45:52.47	335.74	1.16	-48.3	-61.1	3.5	1.52e+00	0	30	104	1520435200	60	39823
2026-01-16 03:45:53.49	335.85	1.12	-48.2	-61.1	3.5	1.52e+00	0	30	104	1520435200	60	39841
2026-01-16 03:45:54.50	335.96	1.09	-48.3	-61.1	3.5	1.52e+00	0	30	104	1520435200	60	39744
2026-01-16 03:45:55.51	336.06	1.05	-48.2	-61.0	3.5	1.52e+00	0	30	104	1520435200	60	39572
2026-01-16 03:45:56.52	336.17	1.01	-48.2	-61.0	3.5	1.52e+00	0	30	104	1520435200	60	39325
2026-01-16 03:45:57.53	336.28	0.98	-48.1	-61.0	3.5	1.52e+00	0	30	104	1520435200	60	39355
2026-01-16 03:45:58.54	336.38	0.94	-48.2	-61.0	3.5	1.52e+00	0	30	104	1520435200	60	39576
2026-01-16 03:45:59.55	336.49	0.90	-48.2	-61.0	3.5	1.52e+00	0	30	104	1520435200	60	39412
2026-01-16 03:46:00.56	336.59	0.86	-48.2	-61.1	3.5	1.52e+00	0	30	104	1520435200	60	39674
2026-01-16 03:46:01.57	336.70	0.83	-48.3	-61.2	3.5	1.52e+00	0	30	104	1520435200	60	40118
2026-01-16 03:46:02.58	336.80	0.79	-48.2	-61.1	3.5	1.52e+00	0	30	104	1520435200	60	39898
2026-01-16 03:46:03.59	336.91	0.75	-48.5	-61.4	3.5	1.52e+00	0	30	104	1520435200	60	41242
2026-01-16 03:46:04.60	337.01	0.71	-48.3	-61.1	3.5	1.51e+00	0	30	104	1520435200	60	39922
2026-01-16 03:46:05.61	337.12	0.68	-48.3	-61.1	3.5	1.52e+00	0	30	104	1520435200	60	39899
2026-01-16 03:46:06.62	337.22	0.64	-48.3	-61.2	3.5	1.52e+00	0	30	104	1520435200	60	40152
2026-01-16 03:46:07.63	337.33	0.60	-48.3	-61.2	3.5	1.52e+00	0	30	104	1520435200	60	40376
2026-01-16 03:46:08.64	337.43	0.56	-48.3	-61.1	3.5	1.52e+00	0	30	104	1520435200	60	40013
2026-01-16 03:46:09.65	337.53	0.53	-48.2	-61.0	3.5	1.52e+00	0	30	104	1520435200	60	39383
2026-01-16 03:46:10.66	337.64	0.49	-48.5	-61.3	3.5	1.52e+00	0	30	104	1520435200	60	40810
2026-01-16 03:46:11.67	337.74	0.45	-48.2	-61.0	3.5	1.52e+00	0	30	104	1520435200	60	39601
2026-01-16 03:46:12.69	337.84	0.41	-48.3	-61.1	3.5	1.52e+00	0	30	104	1520435200	60	39953
2026-01-16 03:46:13.70	337.94	0.37	-48.2	-61.1	3.5	1.52e+00	0	30	104	1520435200	60	39684
2026-01-16 03:46:14.71	338.05	0.34	-48.1	-61.0	3.5	1.52e+00	0	30	104	1520435200	60	39376
2026-01-16 03:46:15.71	338.15	0.30	-48.1	-60.9	3.5	1.52e+00	0	30	104	1520435200	60	39012
2026-01-16 03:46:16.73	338.25	0.26	-48.4	-61.2	3.5	1.52e+00	0	30	104	1520435200	60	40451
2026-01-16 03:46:17.74	338.35	0.22	-48.3	-61.1	3.5	1.52e+00	0	30	104	1520435200	60	39938
2026-01-16 03:46:18.75	338.45	0.19	-48.2	-61.1	3.5	1.52e+00	0	30	104	1520435200	60	39741
2026-01-16 03:46:19.76	338.55	0.15	-48.1	-60.9	3.5	1.52e+00	0	30	104	1520435200	60	39044
2026-01-16 03:46:20.77	338.65	0.11	-48.2	-61.0	3.5	1.52e+00	0	30	104	1520435200	60	39404
2026-01-16 03:46:21.78	338.75	0.07	-48.2	-61.1	3.5	1.52e+00	0	30	104	1520435200	60	39771
2026-01-16 03:46:22.79	338.85	0.03	-48.2	-61.1	3.5	1.52e+00	0	30	104	1520435200	60	39671
2026-01-16 03:46:23.80	338.95	-0.00	-48.2	-61.0	3.5	1.52e+00	0	30	104	1520435200	60	39594
2026-01-16 03:46:24.80	339.05	-0.04	-48.2	-61.1	3.5	1.52e+00	0	30	104	1520435200	60	39862

#Closed at: 2026-01-16 03:46:25
#Recorded file [1520 MB]: D:/lorett/data/35029_260116_153536.dat