passes_logs/2026/01/16/R4.6S_Anadyr/R4.6S_Anadyr__20260116_013852_FENGYUN_3D_rec.log

#Pass ID: 20260116_013852_FENGYUN 3D
#Satellite: FENGYUN 3D
#Configuration: FENGYUN 3D
#almurnet v.1.7.20251203
#Start time: 2026-01-16 01:38:55

#Version: 2.2.20231116
#Station: R4.6S_Anadyr
#Location: 177.4865 lon 64.73178 lat
#TLE: 1 43010U 17072A   26014.65117763 -.00000217  00000+0 -80772-4 0  9993
#TLE: 2 43010  98.9933 346.4618 0002330 108.4699 251.6730 14.19694700423204

#Time	Az	El	Level	Level2	SNR	BER	BlckErr	Temp	State	Recorded	gain1	gain2
2026-01-16 01:38:55.08	140.99	0.16	-48.6	-66.4	3.5	3.02e+01	0	26	0	0	60	80168
2026-01-16 01:38:56.09	140.98	0.22	-48.2	-60.4	3.5	8.45e-01	0	27	104	0	60	37980
2026-01-16 01:38:57.10	140.97	0.28	-48.5	-60.6	3.6	8.44e-01	0	27	104	0	60	38672
2026-01-16 01:38:58.10	140.95	0.34	-48.3	-60.5	3.6	8.46e-01	0	27	104	0	60	38317
2026-01-16 01:38:59.12	140.94	0.40	-48.3	-60.5	3.6	8.45e-01	0	27	104	0	60	38340
2026-01-16 01:39:00.12	140.93	0.47	-48.3	-60.5	3.6	8.45e-01	0	27	104	0	60	38205
2026-01-16 01:39:01.13	140.91	0.53	-48.1	-60.4	3.6	8.45e-01	0	27	104	0	60	37689
2026-01-16 01:39:02.15	140.90	0.59	-48.2	-60.3	3.6	8.44e-01	0	27	104	0	60	37543
2026-01-16 01:39:03.15	140.88	0.65	-48.2	-60.3	3.6	8.45e-01	0	28	104	0	60	37262
2026-01-16 01:39:04.16	140.87	0.71	-48.0	-60.2	3.6	8.46e-01	0	28	104	0	60	36977
2026-01-16 01:39:05.17	140.86	0.77	-47.1	-60.1	3.6	8.46e-01	0	28	104	0	60	36493
2026-01-16 01:39:06.18	140.84	0.83	-47.9	-60.0	3.6	8.45e-01	0	28	104	0	60	35944
2026-01-16 01:39:07.19	140.83	0.90	-47.5	-59.9	3.6	8.45e-01	0	28	104	0	60	35569
2026-01-16 01:39:08.20	140.81	0.96	-47.3	-59.6	3.6	8.46e-01	0	28	104	0	60	34565
2026-01-16 01:39:09.21	140.80	1.02	-46.2	-58.3	3.6	8.46e-01	0	28	104	0	60	29657
2026-01-16 01:39:10.22	140.79	1.08	-46.3	-58.1	3.6	8.45e-01	0	28	104	0	60	29095
2026-01-16 01:39:11.23	140.77	1.15	-45.3	-56.3	3.5	8.45e-01	0	28	104	0	60	23692
2026-01-16 01:39:12.24	140.76	1.21	-44.7	-57.1	3.6	8.45e-01	0	28	104	0	60	25937
2026-01-16 01:39:13.25	140.74	1.27	-44.7	-57.1	3.6	8.45e-01	0	28	104	0	60	25939
2026-01-16 01:39:14.25	140.73	1.33	-44.7	-57.0	3.6	8.45e-01	0	28	104	0	60	25575
2026-01-16 01:39:15.26	140.71	1.40	-44.7	-57.1	3.6	8.46e-01	0	28	104	0	60	26027
2026-01-16 01:39:16.27	140.70	1.46	-44.7	-57.1	3.6	8.45e-01	0	28	104	0	60	25820
2026-01-16 01:39:17.28	140.68	1.52	-44.7	-57.3	3.6	8.45e-01	0	28	104	0	60	26404
2026-01-16 01:39:18.29	140.67	1.59	-44.8	-57.2	3.5	8.45e-01	0	28	104	0	60	26319
2026-01-16 01:39:19.30	140.65	1.65	-44.3	-57.2	3.5	8.46e-01	0	28	104	0	60	26073
2026-01-16 01:39:20.31	140.64	1.72	-44.4	-57.3	3.6	8.45e-01	0	28	104	0	60	26446
2026-01-16 01:39:21.32	140.62	1.78	-44.7	-57.3	3.6	8.45e-01	0	28	104	0	60	26360
2026-01-16 01:39:22.33	140.61	1.84	-44.5	-57.3	3.6	8.45e-01	0	28	104	0	60	26381
2026-01-16 01:39:23.34	140.59	1.91	-44.5	-57.1	3.6	8.45e-01	0	28	104	0	60	26022
2026-01-16 01:39:24.35	140.58	1.97	-43.8	-57.1	3.6	8.44e-01	0	28	104	0	60	26028
2026-01-16 01:39:25.36	140.56	2.04	-44.3	-57.0	3.6	8.45e-01	0	28	104	0	60	25677
2026-01-16 01:39:26.37	140.55	2.10	-44.2	-52.7	3.9	7.78e-01	0	28	104	0	60	15587
2026-01-16 01:39:27.38	140.53	2.17	-44.3	-56.8	3.6	8.46e-01	0	28	104	0	60	25017
2026-01-16 01:39:28.39	140.52	2.23	-44.5	-56.9	3.6	8.46e-01	0	28	104	0	60	25253
2026-01-16 01:39:29.40	140.50	2.30	-44.3	-56.8	3.6	8.45e-01	0	28	104	0	60	25091
2026-01-16 01:39:30.40	140.48	2.36	-44.6	-57.0	3.6	8.45e-01	0	28	104	0	60	25552
2026-01-16 01:39:31.41	140.47	2.43	-44.2	-57.1	3.6	8.46e-01	0	28	104	0	60	25858
2026-01-16 01:39:32.42	140.45	2.49	-44.0	-57.2	3.6	8.45e-01	0	28	104	0	60	26176
2026-01-16 01:39:33.43	140.44	2.56	-44.6	-57.1	3.5	8.46e-01	0	28	104	0	60	25784
2026-01-16 01:39:34.44	140.42	2.62	-44.6	-57.0	3.6	8.45e-01	0	28	104	0	60	25644
2026-01-16 01:39:35.45	140.40	2.69	-44.6	-57.1	3.6	8.45e-01	0	28	104	0	60	25862
2026-01-16 01:39:36.46	140.39	2.76	-44.7	-57.2	3.6	8.46e-01	0	28	104	0	60	26058
2026-01-16 01:39:37.47	140.37	2.82	-44.7	-57.3	3.6	8.45e-01	0	28	104	0	60	26433
2026-01-16 01:39:38.48	140.35	2.89	-44.7	-57.3	3.6	8.45e-01	0	28	104	0	60	26338
2026-01-16 01:39:39.49	140.34	2.95	-44.6	-57.1	3.6	8.45e-01	0	28	104	0	60	25915
2026-01-16 01:39:40.50	140.32	3.02	-44.6	-56.6	3.6	8.45e-01	0	28	104	0	60	24465
2026-01-16 01:39:41.51	140.30	3.09	-44.5	-55.8	3.6	8.45e-01	0	28	104	0	60	22190
2026-01-16 01:39:42.52	140.29	3.16	-44.4	-54.6	3.7	8.44e-01	0	28	104	0	60	19372
2026-01-16 01:39:43.53	140.27	3.22	-44.2	-51.6	4.1	8.25e-01	0	28	0	0	60	13756
2026-01-16 01:39:44.54	140.25	3.29	-43.7	-49.2	6.0	6.02e-01	0	29	0	1048576	60	10415
2026-01-16 01:39:45.55	140.23	3.36	-43.6	-48.8	6.5	2.85e-01	0	28	0	7340032	60	9965
2026-01-16 01:39:46.56	140.22	3.43	-42.6	-46.4	9.2	4.34e-02	0	28	0	12582912	58	8441
2026-01-16 01:39:47.57	140.20	3.49	-42.4	-45.9	9.7	1.34e-02	0	28	0	17825792	58	8023
2026-01-16 01:39:48.58	140.18	3.56	-41.7	-44.6	11.5	2.93e-03	0	28	0	24117248	56	7690
2026-01-16 01:39:49.59	140.17	3.63	-41.5	-44.3	11.8	1.45e-03	0	28	0	29360128	56	7456
2026-01-16 01:39:50.60	140.15	3.70	-41.0	-43.5	12.5	1.76e-04	0	29	0	35651584	56	6829
2026-01-16 01:39:51.61	140.13	3.77	-40.8	-43.2	12.9	7.20e-05	0	28	0	40894464	56	6544
2026-01-16 01:39:52.62	140.11	3.84	-40.9	-43.3	12.7	7.32e-05	0	29	0	46137344	56	6634
2026-01-16 01:39:53.63	140.09	3.90	-44.6	-55.0	3.6	8.81e-05	0	28	104	51380224	58	22765
2026-01-16 01:39:54.64	140.08	3.97	-45.2	-56.2	3.6	8.45e-01	0	29	104	51380224	60	23453
2026-01-16 01:39:55.65	140.06	4.04	-41.7	-45.0	9.4	8.13e-01	0	28	104	51380224	54	9106
2026-01-16 01:39:56.66	140.04	4.11	-42.3	-45.6	10.3	4.78e-01	0	29	0	52428800	60	6869
2026-01-16 01:39:57.66	140.02	4.18	-42.8	-46.3	8.9	1.13e-03	0	29	0	57671680	56	9423
2026-01-16 01:39:58.67	140.00	4.25	-42.7	-45.8	10.3	1.92e-01	0	28	0	60817408	60	7039
2026-01-16 01:39:59.68	139.98	4.32	-41.6	-44.4	11.7	8.14e-04	0	29	0	66060288	56	7569
2026-01-16 01:40:00.69	139.97	4.39	-40.8	-43.1	13.4	9.95e-05	0	29	0	72351744	56	6468
2026-01-16 01:40:01.70	139.95	4.46	-40.0	-41.9	14.6	2.20e-06	0	29	0	77594624	54	6327
2026-01-16 01:40:02.71	139.93	4.53	-39.8	-41.6	14.6	2.20e-06	0	29	0	83886080	52	6903
2026-01-16 01:40:03.72	139.91	4.60	-39.8	-41.7	14.4	4.50e-06	0	29	0	89128960	52	6935
2026-01-16 01:40:04.73	139.89	4.67	-39.6	-41.4	15.2	1.02e-05	0	29	0	94371840	52	6717
2026-01-16 01:40:05.74	139.87	4.74	-39.8	-41.5	15.0	5.70e-06	0	29	0	100663296	52	6806
2026-01-16 01:40:06.75	139.85	4.82	-39.9	-41.6	15.1	2.20e-06	0	29	0	105906176	52	6872
2026-01-16 01:40:07.76	139.83	4.89	-39.8	-41.6	14.7	9.10e-06	0	29	0	112197632	52	6858
2026-01-16 01:40:08.77	139.81	4.96	-39.8	-41.5	14.9	9.10e-06	0	29	0	117440512	52	6816
2026-01-16 01:40:09.78	139.79	5.03	-39.5	-41.0	15.3	2.20e-06	0	29	0	122683392	52	6462
2026-01-16 01:40:10.79	139.77	5.10	-39.4	-41.0	15.7	2.20e-06	0	29	0	128974848	52	6401
2026-01-16 01:40:11.80	139.75	5.17	-39.0	-40.5	16.4	0.00e+00	0	29	0	134217728	52	6059
2026-01-16 01:40:12.81	139.73	5.25	-38.8	-40.4	16.2	0.00e+00	0	29	0	140509184	52	6030
2026-01-16 01:40:13.82	139.71	5.32	-38.9	-40.2	14.9	0.00e+00	0	29	0	145752064	50	6593
2026-01-16 01:40:14.83	139.69	5.39	-38.8	-40.2	16.7	0.00e+00	0	29	0	150994944	50	6551
2026-01-16 01:40:15.84	139.67	5.47	-38.5	-39.8	16.9	0.00e+00	0	29	0	157286400	50	6304
2026-01-16 01:40:16.85	139.65	5.54	-38.6	-39.9	16.9	1.10e-06	0	29	0	162529280	50	6356
2026-01-16 01:40:17.86	139.63	5.61	-38.3	-39.6	17.2	0.00e+00	0	29	0	168820736	50	6112
2026-01-16 01:40:18.87	139.61	5.69	-38.2	-39.5	17.4	0.00e+00	0	29	0	174063616	50	6065
2026-01-16 01:40:19.88	139.59	5.76	-38.0	-39.3	17.3	1.10e-06	0	29	0	180355072	50	5900
2026-01-16 01:40:20.89	139.57	5.83	-38.0	-39.2	15.8	1.25e-05	0	29	0	185597952	50	5884
2026-01-16 01:40:21.89	139.55	5.91	-38.0	-39.2	16.2	2.63e-05	0	29	0	190840832	50	5862
2026-01-16 01:40:22.90	139.53	5.98	-37.6	-38.8	18.0	5.70e-06	0	29	0	197132288	48	6286
2026-01-16 01:40:23.91	139.51	6.06	-37.4	-38.5	18.1	9.10e-06	0	29	0	202375168	48	6067
2026-01-16 01:40:24.92	139.48	6.13	-37.2	-38.3	18.2	0.00e+00	0	29	0	208666624	48	5938
2026-01-16 01:40:25.93	139.46	6.21	-37.3	-38.4	18.8	1.10e-06	0	29	0	213909504	48	5981
2026-01-16 01:40:26.94	139.44	6.28	-37.2	-38.2	18.2	2.20e-06	0	29	0	219152384	48	5878
2026-01-16 01:40:27.95	139.42	6.36	-36.9	-37.9	19.4	2.20e-06	0	29	0	225443840	48	5670
2026-01-16 01:40:28.95	139.40	6.43	-36.8	-37.8	19.5	2.20e-06	0	29	0	230686720	46	6281
2026-01-16 01:40:29.96	139.38	6.51	-36.8	-37.8	19.5	0.00e+00	0	29	0	236978176	46	6300
2026-01-16 01:40:30.97	139.35	6.58	-36.6	-37.6	19.8	0.00e+00	0	29	0	242221056	46	6147
2026-01-16 01:40:31.98	139.33	6.66	-36.6	-37.6	20.0	0.00e+00	0	29	0	247463936	46	6161
2026-01-16 01:40:32.99	139.31	6.74	-36.3	-37.3	19.4	0.00e+00	0	29	0	253755392	46	5901
2026-01-16 01:40:34.00	139.29	6.81	-36.1	-37.0	20.2	0.00e+00	0	29	0	258998272	46	5755
2026-01-16 01:40:35.01	139.26	6.89	-36.1	-37.0	20.5	0.00e+00	0	29	0	265289728	46	5749
2026-01-16 01:40:36.02	139.24	6.97	-36.0	-36.8	20.5	0.00e+00	0	29	0	270532608	46	5624
2026-01-16 01:40:37.03	139.22	7.04	-35.8	-36.7	20.4	0.00e+00	0	29	0	276824064	46	5549
2026-01-16 01:40:38.04	139.19	7.12	-35.8	-36.7	20.2	0.00e+00	0	29	0	282066944	46	5510
2026-01-16 01:40:39.05	139.17	7.20	-35.6	-36.5	20.4	0.00e+00	0	29	0	288358400	44	6048
2026-01-16 01:40:40.06	139.15	7.28	-35.5	-36.4	20.7	0.00e+00	0	29	0	293601280	44	6001
2026-01-16 01:40:41.07	139.12	7.36	-35.3	-36.1	21.1	0.00e+00	0	29	0	298844160	44	5828
2026-01-16 01:40:42.07	139.10	7.43	-35.3	-36.1	21.6	0.00e+00	0	29	0	305135616	44	5796
2026-01-16 01:40:43.08	139.08	7.51	-35.1	-36.0	21.5	0.00e+00	0	29	0	310378496	44	5703
2026-01-16 01:40:44.09	139.05	7.59	-34.9	-35.7	22.1	0.00e+00	0	29	0	315621376	44	5546
2026-01-16 01:40:45.10	139.03	7.67	-34.9	-35.7	21.8	0.00e+00	0	29	0	321912832	44	5531
2026-01-16 01:40:46.11	139.00	7.75	-34.7	-35.4	22.2	0.00e+00	0	29	0	327155712	42	6032
2026-01-16 01:40:47.12	138.98	7.83	-34.7	-35.5	22.2	0.00e+00	0	29	0	333447168	42	6100
2026-01-16 01:40:48.12	138.96	7.91	-34.6	-35.4	22.5	0.00e+00	0	29	0	338690048	42	5967
2026-01-16 01:40:49.13	138.93	7.99	-34.4	-35.2	22.6	0.00e+00	0	29	0	343932928	42	5894
2026-01-16 01:40:50.14	138.91	8.07	-34.5	-35.3	22.7	0.00e+00	0	29	0	350224384	42	5899
2026-01-16 01:40:51.15	138.88	8.15	-34.2	-35.0	23.0	0.00e+00	0	29	0	355467264	42	5696
2026-01-16 01:40:52.16	138.86	8.23	-34.1	-35.0	23.0	0.00e+00	0	29	0	361758720	42	5703
2026-01-16 01:40:53.17	138.83	8.31	-34.0	-34.9	23.1	0.00e+00	0	29	0	367001600	42	5642
2026-01-16 01:40:54.17	138.80	8.39	-34.1	-34.9	23.0	0.00e+00	0	29	0	373293056	42	5676
2026-01-16 01:40:55.18	138.78	8.48	-34.1	-34.9	23.2	0.00e+00	0	29	0	378535936	42	5653
2026-01-16 01:40:56.19	138.75	8.56	-34.0	-34.8	23.1	0.00e+00	0	29	0	384827392	42	5621
2026-01-16 01:40:57.21	138.73	8.64	-33.8	-34.6	23.4	0.00e+00	0	29	0	390070272	42	5482
2026-01-16 01:40:58.21	138.70	8.72	-33.9	-34.6	23.4	0.00e+00	0	29	0	395313152	42	5495
2026-01-16 01:40:59.22	138.67	8.81	-33.8	-34.5	23.5	0.00e+00	0	29	0	401604608	42	5438
2026-01-16 01:41:00.23	138.65	8.89	-33.6	-34.4	23.6	0.00e+00	0	29	0	406847488	40	5989
2026-01-16 01:41:01.24	138.62	8.97	-33.6	-34.4	23.6	0.00e+00	0	29	0	413138944	40	5990
2026-01-16 01:41:02.25	138.59	9.06	-33.6	-34.3	23.6	0.00e+00	0	29	0	418381824	40	5960
2026-01-16 01:41:03.26	138.57	9.14	-33.5	-34.2	23.8	0.00e+00	0	29	0	423624704	40	5883
2026-01-16 01:41:04.27	138.54	9.23	-33.5	-34.3	23.8	0.00e+00	0	29	0	429916160	40	5918
2026-01-16 01:41:05.28	138.51	9.31	-33.5	-34.3	23.8	0.00e+00	0	29	0	435159040	40	5912
2026-01-16 01:41:06.29	138.49	9.39	-33.4	-34.1	23.9	0.00e+00	0	29	0	440401920	40	5827
2026-01-16 01:41:07.30	138.46	9.48	-33.4	-34.1	23.9	0.00e+00	0	29	0	446693376	40	5816
2026-01-16 01:41:08.30	138.43	9.56	-33.4	-34.1	23.9	0.00e+00	0	29	0	451936256	40	5792
2026-01-16 01:41:09.31	138.40	9.65	-33.4	-34.2	23.9	0.00e+00	0	29	0	458227712	40	5834
2026-01-16 01:41:10.32	138.37	9.74	-33.3	-34.0	24.0	0.00e+00	0	29	0	463470592	40	5736
2026-01-16 01:41:11.33	138.35	9.82	-33.4	-34.1	23.9	0.00e+00	0	29	0	469762048	40	5812
2026-01-16 01:41:12.34	138.32	9.91	-33.4	-34.1	23.9	0.00e+00	0	29	0	475004928	40	5816
2026-01-16 01:41:13.35	138.29	10.00	-33.4	-34.1	24.0	0.00e+00	0	29	0	481296384	40	5770
2026-01-16 01:41:14.36	138.26	10.08	-33.2	-34.0	24.1	0.00e+00	0	29	0	486539264	40	5715
2026-01-16 01:41:15.37	138.23	10.17	-33.3	-34.1	24.0	0.00e+00	0	29	0	491782144	40	5780
2026-01-16 01:41:16.38	138.20	10.26	-33.4	-34.1	24.0	0.00e+00	0	29	0	498073600	40	5817
2026-01-16 01:41:17.39	138.17	10.35	-33.4	-34.1	24.0	0.00e+00	0	29	0	503316480	40	5800
2026-01-16 01:41:18.40	138.14	10.43	-33.2	-33.9	24.2	0.00e+00	0	29	0	509607936	40	5666
2026-01-16 01:41:19.40	138.11	10.52	-33.3	-34.0	24.1	0.00e+00	0	29	0	514850816	40	5753
2026-01-16 01:41:20.41	138.08	10.61	-33.1	-33.9	24.3	0.00e+00	0	29	0	520093696	40	5644
2026-01-16 01:41:21.42	138.05	10.70	-33.1	-33.8	24.3	0.00e+00	0	29	0	526385152	40	5623
2026-01-16 01:41:22.43	138.02	10.79	-33.1	-33.9	24.2	0.00e+00	0	29	0	531628032	40	5641
2026-01-16 01:41:23.44	137.99	10.88	-33.2	-33.9	24.2	0.00e+00	0	29	0	536870912	40	5675
2026-01-16 01:41:24.45	137.96	10.97	-33.0	-33.7	24.4	0.00e+00	0	29	0	543162368	40	5564
2026-01-16 01:41:25.46	137.93	11.06	-33.0	-33.7	24.4	0.00e+00	0	29	0	548405248	40	5552
2026-01-16 01:41:26.47	137.90	11.15	-33.0	-33.7	24.4	0.00e+00	0	29	0	554696704	40	5558
2026-01-16 01:41:27.47	137.86	11.24	-33.0	-33.7	24.4	0.00e+00	0	29	0	559939584	40	5540
2026-01-16 01:41:28.49	137.83	11.33	-33.0	-33.7	24.4	0.00e+00	0	29	0	566231040	40	5558
2026-01-16 01:41:29.49	137.80	11.43	-32.8	-33.6	24.5	0.00e+00	0	29	0	571473920	40	5445
2026-01-16 01:41:30.50	137.77	11.52	-32.9	-33.6	24.6	0.00e+00	0	29	0	577765376	40	5453
2026-01-16 01:41:31.51	137.74	11.61	-32.8	-33.5	24.7	0.00e+00	0	29	0	583008256	40	5406
2026-01-16 01:41:32.52	137.70	11.70	-32.8	-33.5	24.6	0.00e+00	0	29	0	588251136	38	6083
2026-01-16 01:41:33.53	137.67	11.80	-33.0	-33.8	24.4	0.00e+00	0	29	0	594542592	38	6249
2026-01-16 01:41:34.54	137.64	11.89	-32.9	-33.6	24.6	0.00e+00	0	29	0	599785472	38	6131
2026-01-16 01:41:35.55	137.60	11.98	-33.0	-33.7	24.5	0.00e+00	0	29	0	606076928	38	6213
2026-01-16 01:41:36.56	137.57	12.08	-32.9	-33.6	24.6	0.00e+00	0	29	0	611319808	38	6131
2026-01-16 01:41:37.57	137.54	12.17	-32.6	-33.3	24.8	0.00e+00	0	29	0	616562688	38	5930
2026-01-16 01:41:38.58	137.50	12.27	-32.7	-33.4	24.8	0.00e+00	0	30	0	622854144	38	5983
2026-01-16 01:41:39.59	137.47	12.36	-32.6	-33.3	24.8	0.00e+00	0	29	0	628097024	38	5916
2026-01-16 01:41:40.59	137.43	12.46	-32.5	-33.2	24.9	0.00e+00	0	29	0	634388480	38	5860
2026-01-16 01:41:41.60	137.40	12.55	-32.5	-33.2	24.8	0.00e+00	0	29	0	639631360	38	5891
2026-01-16 01:41:42.61	137.36	12.65	-32.5	-33.2	24.9	0.00e+00	0	29	0	644874240	38	5862
2026-01-16 01:41:43.62	137.33	12.75	-32.6	-33.3	25.0	0.00e+00	0	29	0	651165696	38	5901
2026-01-16 01:41:44.63	137.29	12.84	-32.4	-33.1	25.1	0.00e+00	0	30	0	656408576	38	5786
2026-01-16 01:41:45.65	137.25	12.94	-32.5	-33.1	25.0	0.00e+00	0	30	0	662700032	38	5810
2026-01-16 01:41:46.66	137.22	13.04	-32.5	-33.1	25.0	0.00e+00	0	30	0	667942912	38	5817
2026-01-16 01:41:47.67	137.18	13.14	-32.4	-33.1	25.1	0.00e+00	0	29	0	674234368	38	5787
2026-01-16 01:41:48.67	137.15	13.24	-32.3	-33.0	25.2	0.00e+00	0	29	0	679477248	38	5736
2026-01-16 01:41:49.68	137.11	13.34	-32.3	-33.0	25.2	0.00e+00	0	30	0	684720128	38	5708
2026-01-16 01:41:50.69	137.07	13.44	-32.2	-32.9	25.2	0.00e+00	0	29	0	691011584	38	5660
2026-01-16 01:41:51.70	137.03	13.54	-32.2	-32.8	25.2	0.00e+00	0	29	0	696254464	38	5623
2026-01-16 01:41:52.71	137.00	13.64	-32.1	-32.8	25.3	0.00e+00	0	29	0	702545920	38	5614
2026-01-16 01:41:53.72	136.96	13.74	-32.1	-32.8	25.4	0.00e+00	0	29	0	707788800	38	5576
2026-01-16 01:41:54.73	136.92	13.84	-32.1	-32.8	25.4	0.00e+00	0	29	0	713031680	38	5600
2026-01-16 01:41:55.74	136.88	13.94	-32.2	-32.9	25.2	0.00e+00	0	29	0	719323136	38	5643
2026-01-16 01:41:56.75	136.84	14.04	-32.0	-32.7	25.4	0.00e+00	0	29	0	724566016	38	5535
2026-01-16 01:41:57.76	136.80	14.14	-32.1	-32.8	25.4	0.00e+00	0	30	0	730857472	38	5572
2026-01-16 01:41:58.76	136.76	14.25	-32.1	-32.8	25.4	0.00e+00	0	30	0	736100352	38	5586
2026-01-16 01:41:59.77	136.72	14.35	-32.0	-32.7	25.5	0.00e+00	0	29	0	741343232	38	5518
2026-01-16 01:42:00.78	136.68	14.45	-31.9	-32.6	25.4	0.00e+00	0	30	0	747634688	38	5456
2026-01-16 01:42:01.79	136.64	14.56	-31.8	-32.5	25.6	0.00e+00	0	30	0	752877568	38	5411
2026-01-16 01:42:02.80	136.60	14.66	-31.7	-32.4	25.7	0.00e+00	0	30	0	759169024	36	5986
2026-01-16 01:42:03.81	136.56	14.77	-31.8	-32.5	25.7	0.00e+00	0	30	0	764411904	36	6035
2026-01-16 01:42:04.82	136.52	14.87	-31.8	-32.4	25.7	0.00e+00	0	30	0	770703360	36	6008
2026-01-16 01:42:05.83	136.48	14.98	-31.6	-32.3	25.9	0.00e+00	0	29	0	775946240	36	5908
2026-01-16 01:42:06.83	136.44	15.08	-31.7	-32.3	25.8	0.00e+00	0	29	0	781189120	36	5959
2026-01-16 01:42:07.85	136.40	15.19	-31.5	-32.2	25.9	0.00e+00	0	29	0	787480576	36	5845
2026-01-16 01:42:08.85	136.35	15.30	-31.6	-32.3	26.0	0.00e+00	0	29	0	792723456	36	5923
2026-01-16 01:42:09.86	136.31	15.40	-31.6	-32.3	25.8	0.00e+00	0	30	0	799014912	36	5944
2026-01-16 01:42:10.87	136.27	15.51	-31.4	-32.0	26.0	0.00e+00	0	30	0	804257792	36	5750
2026-01-16 01:42:11.88	136.22	15.62	-31.4	-32.1	26.1	0.00e+00	0	30	0	809500672	36	5767
2026-01-16 01:42:12.89	136.18	15.73	-31.3	-32.0	26.1	0.00e+00	0	30	0	815792128	36	5707
2026-01-16 01:42:13.90	136.13	15.84	-31.3	-32.0	26.2	0.00e+00	0	30	0	821035008	36	5720
2026-01-16 01:42:14.91	136.09	15.95	-31.2	-31.9	26.2	0.00e+00	0	30	0	827326464	36	5667
2026-01-16 01:42:15.92	136.05	16.06	-31.4	-32.1	26.1	0.00e+00	0	30	0	832569344	36	5796
2026-01-16 01:42:16.93	136.00	16.17	-31.2	-31.9	26.2	0.00e+00	0	30	0	837812224	36	5667
2026-01-16 01:42:17.94	135.95	16.28	-31.4	-32.0	26.1	0.00e+00	0	30	0	844103680	36	5760
2026-01-16 01:42:18.95	135.91	16.39	-31.2	-31.8	26.3	0.00e+00	0	30	0	849346560	36	5624
2026-01-16 01:42:19.95	135.86	16.50	-31.1	-31.8	26.2	0.00e+00	0	30	0	855638016	36	5596
2026-01-16 01:42:20.96	135.82	16.62	-31.3	-31.9	26.2	0.00e+00	0	30	0	860880896	36	5694
2026-01-16 01:42:21.97	135.77	16.73	-31.1	-31.8	26.4	0.00e+00	0	30	0	867172352	36	5577
2026-01-16 01:42:22.98	135.72	16.84	-31.2	-31.8	26.3	0.00e+00	0	30	0	872415232	36	5615
2026-01-16 01:42:23.99	135.67	16.96	-31.0	-31.7	26.4	0.00e+00	0	30	0	878706688	36	5531
2026-01-16 01:42:25.00	135.62	17.07	-31.1	-31.8	26.4	0.00e+00	0	30	0	883949568	36	5576
2026-01-16 01:42:26.01	135.58	17.19	-31.2	-31.8	26.3	0.00e+00	0	30	0	889192448	36	5622
2026-01-16 01:42:27.02	135.53	17.31	-31.1	-31.8	26.3	0.00e+00	0	30	0	895483904	36	5568
2026-01-16 01:42:28.03	135.48	17.42	-31.1	-31.8	26.4	0.00e+00	0	30	0	900726784	36	5584
2026-01-16 01:42:29.04	135.43	17.54	-31.0	-31.7	26.5	0.00e+00	0	30	0	905969664	36	5540
2026-01-16 01:42:30.05	135.38	17.66	-31.2	-31.8	26.2	0.00e+00	0	30	0	912261120	36	5618
2026-01-16 01:42:31.06	135.33	17.77	-31.0	-31.7	26.5	0.00e+00	0	30	0	917504000	36	5510
2026-01-16 01:42:32.07	135.27	17.89	-31.0	-31.6	26.5	0.00e+00	0	30	0	923795456	36	5487
2026-01-16 01:42:33.07	135.22	18.01	-30.9	-31.6	26.5	0.00e+00	0	30	0	929038336	36	5469
2026-01-16 01:42:34.08	135.17	18.13	-31.0	-31.7	26.5	0.00e+00	0	30	0	934281216	36	5524
2026-01-16 01:42:35.09	135.12	18.25	-30.9	-31.6	26.6	0.00e+00	0	30	0	940572672	36	5443
2026-01-16 01:42:36.10	135.07	18.37	-30.9	-31.5	26.7	0.00e+00	0	30	0	945815552	36	5421
2026-01-16 01:42:37.11	135.01	18.49	-30.9	-31.6	26.6	0.00e+00	0	30	0	952107008	36	5455
2026-01-16 01:42:38.12	134.96	18.62	-30.7	-31.3	26.8	0.00e+00	0	30	0	957349888	34	5941
2026-01-16 01:42:39.13	134.90	18.74	-30.7	-31.4	26.8	0.00e+00	0	30	0	963641344	34	5976
2026-01-16 01:42:40.14	134.85	18.86	-30.7	-31.3	26.8	0.00e+00	0	30	0	968884224	34	5940
2026-01-16 01:42:41.15	134.79	18.99	-30.7	-31.4	26.7	0.00e+00	0	30	0	975175680	34	5981
2026-01-16 01:42:42.15	134.74	19.11	-30.6	-31.3	26.8	0.00e+00	0	30	0	980418560	34	5926
2026-01-16 01:42:43.16	134.68	19.23	-30.7	-31.3	26.8	0.00e+00	0	30	0	985661440	34	5930
2026-01-16 01:42:44.17	134.63	19.36	-30.8	-31.4	26.7	0.00e+00	0	30	0	991952896	34	6009
2026-01-16 01:42:45.18	134.57	19.48	-30.8	-31.4	26.7	0.00e+00	0	30	0	997195776	34	6009
2026-01-16 01:42:46.19	134.51	19.61	-30.6	-31.3	26.8	0.00e+00	0	30	0	1003487232	34	5930
2026-01-16 01:42:47.20	134.45	19.74	-30.8	-31.5	26.6	0.00e+00	0	30	0	1008730112	34	6048
2026-01-16 01:42:48.21	134.40	19.87	-30.7	-31.4	26.7	0.00e+00	0	30	0	1013972992	34	5968
2026-01-16 01:42:49.22	134.34	20.00	-30.8	-31.5	26.7	0.00e+00	0	30	0	1020264448	34	6071
2026-01-16 01:42:50.23	134.28	20.12	-30.7	-31.4	26.8	0.00e+00	0	30	0	1025507328	34	5997
2026-01-16 01:42:51.23	134.22	20.25	-30.6	-31.2	26.9	0.00e+00	0	30	0	1030750208	34	5846
2026-01-16 01:42:52.24	134.16	20.38	-30.7	-31.3	26.8	0.00e+00	0	30	0	1037041664	34	5949
2026-01-16 01:42:53.25	134.09	20.52	-30.5	-31.1	26.9	0.00e+00	0	30	0	1042284544	34	5814
2026-01-16 01:42:54.26	134.03	20.65	-30.6	-31.2	26.8	0.00e+00	0	30	0	1048576000	34	5843
2026-01-16 01:42:55.27	133.97	20.78	-30.5	-31.1	26.9	0.00e+00	0	30	0	1053818880	34	5823
2026-01-16 01:42:56.28	133.91	20.91	-30.6	-31.2	26.8	0.00e+00	0	30	0	1060110336	34	5867
2026-01-16 01:42:57.29	133.84	21.05	-30.4	-31.0	27.0	0.00e+00	0	30	0	1065353216	34	5734
2026-01-16 01:42:58.29	133.78	21.18	-30.4	-31.0	27.0	0.00e+00	0	30	0	1071644672	34	5761
2026-01-16 01:42:59.30	133.72	21.31	-30.2	-30.9	27.2	0.00e+00	0	30	0	1076887552	34	5643
2026-01-16 01:43:00.31	133.65	21.45	-30.3	-31.0	27.0	0.00e+00	0	30	0	1082130432	34	5732
2026-01-16 01:43:01.32	133.58	21.59	-30.2	-30.8	27.3	0.00e+00	0	30	0	1088421888	34	5622
2026-01-16 01:43:02.33	133.52	21.72	-30.1	-30.7	27.3	0.00e+00	0	30	0	1093664768	34	5537
2026-01-16 01:43:03.34	133.45	21.86	-30.0	-30.7	27.3	0.00e+00	0	30	0	1098907648	34	5513
2026-01-16 01:43:04.35	133.38	22.00	-30.1	-30.7	27.3	0.00e+00	0	30	0	1105199104	34	5510
2026-01-16 01:43:05.36	133.31	22.14	-30.0	-30.6	27.4	0.00e+00	0	30	0	1110441984	34	5495
2026-01-16 01:43:06.37	133.25	22.28	-29.9	-30.5	27.5	0.00e+00	0	30	0	1116733440	34	5401
2026-01-16 01:43:07.38	133.18	22.42	-29.8	-30.4	27.6	0.00e+00	0	30	0	1121976320	34	5337
2026-01-16 01:43:08.39	133.11	22.56	-29.9	-30.5	27.4	0.00e+00	0	30	0	1127219200	32	6069
2026-01-16 01:43:09.40	133.03	22.71	-29.7	-30.3	27.7	0.00e+00	0	30	0	1133510656	32	5956
2026-01-16 01:43:10.41	132.96	22.85	-29.7	-30.3	27.6	0.00e+00	0	30	0	1138753536	32	5961
2026-01-16 01:43:11.41	132.89	22.99	-29.7	-30.4	27.7	0.00e+00	0	30	0	1145044992	32	5966
2026-01-16 01:43:12.42	132.82	23.13	-29.7	-30.3	27.6	0.00e+00	0	30	0	1150287872	32	5951
2026-01-16 01:43:13.43	132.74	23.28	-29.7	-30.3	27.6	0.00e+00	0	30	0	1156579328	32	5922
2026-01-16 01:43:14.44	132.67	23.43	-29.8	-30.4	27.6	0.00e+00	0	30	0	1161822208	32	5981
2026-01-16 01:43:15.45	132.59	23.57	-29.9	-30.5	27.6	0.00e+00	0	30	0	1168113664	32	6099
2026-01-16 01:43:16.46	132.52	23.72	-29.9	-30.5	27.5	0.00e+00	0	30	0	1173356544	32	6080
2026-01-16 01:43:17.47	132.44	23.87	-29.8	-30.5	27.6	0.00e+00	0	30	0	1178599424	32	6055
2026-01-16 01:43:18.48	132.36	24.02	-29.9	-30.6	27.4	0.00e+00	0	30	0	1184890880	32	6123
2026-01-16 01:43:19.49	132.29	24.17	-30.0	-30.7	27.4	0.00e+00	0	30	0	1190133760	32	6180
2026-01-16 01:43:20.50	132.21	24.32	-29.7	-30.4	27.6	0.00e+00	0	30	0	1196425216	32	6015
2026-01-16 01:43:21.50	132.13	24.47	-29.7	-30.4	27.6	0.00e+00	0	30	0	1201668096	32	5981
2026-01-16 01:43:22.51	132.05	24.62	-29.7	-30.4	27.7	0.00e+00	0	30	0	1206910976	32	5972
2026-01-16 01:43:23.52	131.96	24.77	-29.6	-30.3	27.7	0.00e+00	0	30	0	1213202432	32	5922
2026-01-16 01:43:24.53	131.88	24.93	-29.7	-30.3	27.6	0.00e+00	0	30	0	1218445312	32	5907
2026-01-16 01:43:25.54	131.80	25.08	-29.5	-30.2	27.8	0.00e+00	0	30	0	1223688192	32	5836
2026-01-16 01:43:26.55	131.72	25.24	-29.4	-30.1	27.8	0.00e+00	0	30	0	1229979648	32	5792
2026-01-16 01:43:27.56	131.63	25.40	-29.3	-30.0	27.9	0.00e+00	0	30	0	1235222528	32	5698
2026-01-16 01:43:28.57	131.54	25.55	-29.3	-30.0	28.0	0.00e+00	0	30	0	1241513984	32	5702
2026-01-16 01:43:29.57	131.46	25.71	-29.3	-30.0	28.0	0.00e+00	0	30	0	1246756864	32	5717
2026-01-16 01:43:30.58	131.37	25.87	-29.3	-30.0	27.9	0.00e+00	0	30	0	1253048320	32	5718
2026-01-16 01:43:31.59	131.28	26.03	-29.4	-30.0	28.0	0.00e+00	0	30	0	1258291200	32	5705
2026-01-16 01:43:32.60	131.19	26.19	-29.2	-29.9	28.0	0.00e+00	0	30	0	1264582656	32	5655
2026-01-16 01:43:33.61	131.10	26.35	-29.2	-29.8	28.1	0.00e+00	0	30	0	1269825536	32	5590
2026-01-16 01:43:34.62	131.01	26.51	-29.2	-29.9	28.0	0.00e+00	0	30	0	1275068416	32	5648
2026-01-16 01:43:35.63	130.92	26.68	-29.3	-29.9	28.0	0.00e+00	0	30	0	1281359872	32	5675
2026-01-16 01:43:36.64	130.83	26.84	-29.3	-30.0	27.9	0.00e+00	0	30	0	1286602752	32	5704
2026-01-16 01:43:37.65	130.73	27.01	-29.3	-30.0	28.0	0.00e+00	0	30	0	1292894208	32	5718
2026-01-16 01:43:38.65	130.64	27.17	-29.4	-30.0	27.9	0.00e+00	0	30	0	1298137088	32	5757
2026-01-16 01:43:39.66	130.54	27.34	-29.4	-30.0	28.0	0.00e+00	0	30	0	1303379968	32	5720
2026-01-16 01:43:40.67	130.44	27.51	-29.4	-30.1	27.9	0.00e+00	0	30	0	1309671424	32	5772
2026-01-16 01:43:41.68	130.35	27.68	-29.4	-30.0	28.0	0.00e+00	0	30	0	1314914304	32	5715
2026-01-16 01:43:42.69	130.25	27.85	-29.4	-30.0	27.9	0.00e+00	0	30	0	1320157184	32	5713
2026-01-16 01:43:43.69	130.15	28.02	-29.3	-29.9	28.1	0.00e+00	0	30	0	1326448640	32	5670
2026-01-16 01:43:44.70	130.05	28.19	-29.4	-30.1	27.9	0.00e+00	0	30	0	1331691520	32	5768
2026-01-16 01:43:45.71	129.94	28.36	-29.2	-29.8	28.2	0.00e+00	0	30	0	1337982976	32	5608
2026-01-16 01:43:46.72	129.84	28.54	-29.3	-30.0	28.1	0.00e+00	0	30	0	1343225856	32	5711
2026-01-16 01:43:47.73	129.73	28.71	-29.2	-29.8	28.1	0.00e+00	0	30	0	1349517312	32	5630
2026-01-16 01:43:48.74	129.63	28.89	-29.4	-30.0	28.0	0.00e+00	0	30	0	1354760192	32	5708
2026-01-16 01:43:49.75	129.52	29.06	-29.4	-30.0	28.0	0.00e+00	0	30	0	1361051648	32	5728
2026-01-16 01:43:50.76	129.41	29.24	-29.4	-30.0	27.9	0.00e+00	0	30	0	1366294528	32	5756
2026-01-16 01:43:51.77	129.30	29.42	-29.4	-30.0	28.0	0.00e+00	0	30	0	1371537408	32	5754
2026-01-16 01:43:52.78	129.19	29.60	-29.5	-30.1	27.9	0.00e+00	0	30	0	1377828864	32	5807
2026-01-16 01:43:53.79	129.08	29.78	-29.7	-30.3	27.7	0.00e+00	0	30	0	1383071744	32	5941
2026-01-16 01:43:54.80	128.96	29.96	-29.4	-30.0	27.9	0.00e+00	0	30	0	1389363200	32	5761
2026-01-16 01:43:55.81	128.85	30.15	-29.4	-30.0	27.9	0.00e+00	0	30	0	1394606080	32	5730
2026-01-16 01:43:56.82	128.73	30.33	-29.3	-29.9	28.1	0.00e+00	0	30	0	1399848960	32	5648
2026-01-16 01:43:57.83	128.61	30.51	-29.2	-29.9	28.1	0.00e+00	0	30	0	1406140416	32	5641
2026-01-16 01:43:58.84	128.49	30.70	-29.2	-29.8	28.2	0.00e+00	0	30	0	1411383296	32	5607
2026-01-16 01:43:59.85	128.37	30.89	-29.1	-29.7	28.2	0.00e+00	0	30	0	1417674752	32	5550
2026-01-16 01:44:00.86	128.25	31.08	-29.1	-29.7	28.3	0.00e+00	0	30	0	1422917632	32	5514
2026-01-16 01:44:01.87	128.13	31.27	-28.9	-29.6	28.3	0.00e+00	0	30	0	1428160512	32	5460
2026-01-16 01:44:02.88	128.00	31.46	-29.1	-29.7	28.3	0.00e+00	0	30	0	1434451968	32	5528
2026-01-16 01:44:03.89	127.88	31.65	-29.0	-29.6	28.3	0.00e+00	0	30	0	1439694848	32	5447
2026-01-16 01:44:04.90	127.75	31.84	-29.0	-29.6	28.2	0.00e+00	0	30	0	1445986304	32	5482
2026-01-16 01:44:05.91	127.62	32.03	-28.9	-29.6	28.4	0.00e+00	0	30	0	1451229184	32	5447
2026-01-16 01:44:06.92	127.49	32.23	-28.9	-29.5	28.4	0.00e+00	0	30	0	1457520640	32	5433
2026-01-16 01:44:07.93	127.35	32.42	-28.8	-29.5	28.5	0.00e+00	0	30	0	1462763520	32	5388
2026-01-16 01:44:08.93	127.22	32.62	-29.0	-29.6	28.3	0.00e+00	0	30	0	1468006400	32	5493
2026-01-16 01:44:09.94	127.08	32.82	-28.9	-29.5	28.4	0.00e+00	0	30	0	1474297856	32	5385
2026-01-16 01:44:10.95	126.95	33.02	-29.0	-29.6	28.4	0.00e+00	0	30	0	1479540736	32	5462
2026-01-16 01:44:11.96	126.81	33.22	-28.7	-29.4	28.5	0.00e+00	0	30	0	1485832192	30	5966
2026-01-16 01:44:12.97	126.67	33.42	-28.8	-29.5	28.4	0.00e+00	0	30	0	1491075072	30	6042
2026-01-16 01:44:13.98	126.52	33.62	-29.0	-29.6	28.4	0.00e+00	0	30	0	1496317952	30	6122
2026-01-16 01:44:14.99	126.38	33.82	-29.0	-29.7	28.3	0.00e+00	0	30	0	1502609408	30	6184
2026-01-16 01:44:16.00	126.23	34.03	-29.0	-29.6	28.3	0.00e+00	0	30	0	1507852288	30	6140
2026-01-16 01:44:17.01	126.08	34.23	-29.0	-29.6	28.3	0.00e+00	0	30	0	1514143744	30	6152
2026-01-16 01:44:18.02	125.93	34.44	-29.1	-29.7	28.2	0.00e+00	0	30	0	1519386624	30	6212
2026-01-16 01:44:19.02	125.78	34.65	-29.2	-29.8	28.1	0.00e+00	0	30	0	1524629504	30	6306
2026-01-16 01:44:20.03	125.62	34.86	-29.1	-29.8	28.1	0.00e+00	0	30	0	1530920960	30	6257
2026-01-16 01:44:21.04	125.47	35.07	-28.9	-29.5	28.4	0.00e+00	0	30	0	1536163840	30	6096
2026-01-16 01:44:22.05	125.31	35.28	-28.9	-29.5	28.4	0.00e+00	0	30	0	1542455296	30	6039
2026-01-16 01:44:23.06	125.15	35.49	-29.0	-29.6	28.3	0.00e+00	0	30	0	1547698176	30	6165
2026-01-16 01:44:24.07	124.99	35.71	-28.7	-29.3	28.5	0.00e+00	0	30	0	1553989632	30	5907
2026-01-16 01:44:25.07	124.82	35.92	-28.5	-29.2	28.7	0.00e+00	0	30	0	1559232512	30	5849
2026-01-16 01:44:26.08	124.65	36.14	-28.5	-29.2	28.7	0.00e+00	0	30	0	1564475392	30	5838
2026-01-16 01:44:27.10	124.48	36.36	-28.6	-29.2	28.6	0.00e+00	0	30	0	1570766848	30	5873
2026-01-16 01:44:28.11	124.31	36.57	-28.6	-29.3	28.6	0.00e+00	0	30	0	1576009728	30	5905
2026-01-16 01:44:29.11	124.14	36.79	-28.7	-29.3	28.5	0.00e+00	0	30	0	1582301184	30	5945
2026-01-16 01:44:30.12	123.96	37.01	-28.8	-29.4	28.3	0.00e+00	0	30	0	1587544064	30	6004
2026-01-16 01:44:31.13	123.78	37.23	-28.9	-29.5	28.3	0.00e+00	0	30	0	1592786944	30	6073
2026-01-16 01:44:32.14	123.60	37.46	-28.8	-29.4	28.4	0.00e+00	0	30	0	1599078400	30	6025
2026-01-16 01:44:33.15	123.41	37.68	-28.7	-29.3	28.5	0.00e+00	0	30	0	1604321280	30	5904
2026-01-16 01:44:34.16	123.23	37.91	-28.5	-29.1	28.7	0.00e+00	0	30	0	1610612736	30	5795
2026-01-16 01:44:35.17	123.04	38.14	-28.6	-29.2	28.6	0.00e+00	0	30	0	1615855616	30	5867
2026-01-16 01:44:36.18	122.85	38.36	-28.7	-29.3	28.5	0.00e+00	0	30	0	1621098496	30	5960
2026-01-16 01:44:37.19	122.65	38.59	-28.9	-29.5	28.4	0.00e+00	0	30	0	1627389952	30	6091
2026-01-16 01:44:38.20	122.45	38.82	-29.0	-29.6	28.3	0.00e+00	0	30	0	1632632832	30	6149
2026-01-16 01:44:39.21	122.25	39.05	-29.0	-29.6	28.2	0.00e+00	0	30	0	1638924288	30	6147
2026-01-16 01:44:40.22	122.05	39.29	-29.0	-29.6	28.3	0.00e+00	0	30	0	1644167168	30	6148
2026-01-16 01:44:41.23	121.84	39.52	-29.0	-29.7	28.2	0.00e+00	0	30	0	1650458624	30	6183
2026-01-16 01:44:42.24	121.63	39.76	-29.1	-29.8	28.2	0.00e+00	0	30	0	1655701504	30	6255
2026-01-16 01:44:43.25	121.42	39.99	-29.1	-29.7	28.3	0.00e+00	0	30	0	1661992960	30	6235
2026-01-16 01:44:44.26	121.20	40.23	-29.2	-29.8	28.2	0.00e+00	0	30	0	1667235840	30	6281
2026-01-16 01:44:45.27	120.98	40.47	-29.0	-29.6	28.3	0.00e+00	0	30	0	1672478720	30	6137
2026-01-16 01:44:46.28	120.76	40.71	-29.1	-29.7	28.3	0.00e+00	0	30	0	1678770176	30	6207
2026-01-16 01:44:47.29	120.53	40.95	-29.0	-29.6	28.2	0.00e+00	0	30	0	1684013056	30	6172
2026-01-16 01:44:48.30	120.30	41.19	-29.2	-29.8	28.2	0.00e+00	0	30	0	1690304512	30	6289
2026-01-16 01:44:49.31	120.07	41.43	-29.3	-29.9	28.0	0.00e+00	0	30	0	1695547392	30	6389
2026-01-16 01:44:50.31	119.84	41.67	-29.3	-30.0	28.1	0.00e+00	0	30	0	1700790272	30	6391
2026-01-16 01:44:51.32	119.60	41.92	-29.0	-29.6	28.4	0.00e+00	0	30	0	1707081728	30	6137
2026-01-16 01:44:52.33	119.35	42.16	-28.9	-29.5	28.3	0.00e+00	0	30	0	1712324608	30	6096
2026-01-16 01:44:53.34	119.11	42.41	-29.0	-29.7	28.3	0.00e+00	0	30	0	1718616064	30	6179
2026-01-16 01:44:54.35	118.85	42.66	-29.0	-29.6	28.3	0.00e+00	0	30	0	1723858944	30	6159
2026-01-16 01:44:55.36	118.60	42.91	-29.2	-29.9	28.1	0.00e+00	0	30	0	1729101824	30	6324
2026-01-16 01:44:56.37	118.34	43.16	-29.3	-29.9	28.1	0.00e+00	0	30	0	1735393280	30	6360
2026-01-16 01:44:57.38	118.08	43.41	-29.4	-30.1	28.0	0.00e+00	0	30	0	1740636160	30	6485
2026-01-16 01:44:58.38	117.81	43.66	-29.5	-30.2	27.8	0.00e+00	0	30	0	1746927616	30	6569
2026-01-16 01:44:59.40	117.54	43.91	-29.5	-30.2	27.9	0.00e+00	0	30	0	1752170496	30	6556
2026-01-16 01:45:00.41	117.26	44.16	-29.4	-30.0	28.0	0.00e+00	0	30	0	1758461952	30	6415
2026-01-16 01:45:01.41	116.98	44.42	-29.4	-30.0	28.0	0.00e+00	0	30	0	1763704832	30	6441
2026-01-16 01:45:02.42	116.70	44.67	-29.2	-29.8	28.1	0.00e+00	0	30	0	1768947712	30	6316
2026-01-16 01:45:03.43	116.41	44.93	-29.1	-29.7	28.2	0.00e+00	0	30	0	1775239168	30	6223
2026-01-16 01:45:04.44	116.11	45.19	-28.9	-29.5	28.4	0.00e+00	0	30	0	1780482048	30	6052
2026-01-16 01:45:05.45	115.81	45.44	-28.8	-29.4	28.4	0.00e+00	0	30	0	1786773504	30	6027
2026-01-16 01:45:06.46	115.51	45.70	-29.0	-29.6	28.3	0.00e+00	0	30	0	1792016384	30	6159
2026-01-16 01:45:07.47	115.20	45.96	-29.4	-30.0	28.1	0.00e+00	0	30	0	1797259264	30	6422
2026-01-16 01:45:08.48	114.88	46.22	-29.6	-30.2	27.9	0.00e+00	0	30	0	1803550720	30	6567
2026-01-16 01:45:09.49	114.56	46.48	-29.4	-30.1	27.9	0.00e+00	0	30	0	1808793600	30	6486
2026-01-16 01:45:10.50	114.23	46.74	-29.4	-30.1	27.9	0.00e+00	0	30	0	1815085056	30	6501
2026-01-16 01:45:11.51	113.90	47.00	-29.4	-30.0	28.0	0.00e+00	0	30	0	1820327936	30	6439
2026-01-16 01:45:12.52	113.57	47.27	-29.4	-30.0	28.1	0.00e+00	0	30	0	1825570816	30	6450
2026-01-16 01:45:13.52	113.23	47.53	-29.3	-30.0	28.0	0.00e+00	0	30	0	1831862272	30	6391
2026-01-16 01:45:14.53	112.88	47.79	-29.5	-30.1	28.0	0.00e+00	0	30	0	1837105152	30	6495
2026-01-16 01:45:15.54	112.52	48.05	-29.6	-30.2	27.9	0.00e+00	0	30	0	1843396608	30	6564
2026-01-16 01:45:16.55	112.16	48.32	-29.4	-30.1	27.9	0.00e+00	0	30	0	1848639488	30	6481
2026-01-16 01:45:17.56	111.80	48.58	-29.5	-30.1	27.9	0.00e+00	0	30	0	1854930944	30	6481
2026-01-16 01:45:18.57	111.42	48.85	-29.5	-30.1	27.9	0.00e+00	0	30	0	1860173824	30	6506
2026-01-16 01:45:19.58	111.04	49.11	-29.7	-30.4	27.7	0.00e+00	0	30	0	1865416704	32	5982
2026-01-16 01:45:20.59	110.66	49.38	-30.0	-30.6	27.5	0.00e+00	0	30	0	1871708160	32	6163
2026-01-16 01:45:21.60	110.26	49.64	-30.2	-30.8	27.4	0.00e+00	0	30	0	1876951040	32	6303
2026-01-16 01:45:22.61	109.86	49.91	-29.9	-30.6	27.6	0.00e+00	0	30	0	1883242496	32	6110
2026-01-16 01:45:23.62	109.46	50.18	-29.9	-30.5	27.6	0.00e+00	0	30	0	1888485376	32	6086
2026-01-16 01:45:24.63	109.04	50.44	-29.9	-30.5	27.6	0.00e+00	0	30	0	1893728256	32	6092
2026-01-16 01:45:25.64	108.62	50.71	-29.9	-30.6	27.5	0.00e+00	0	30	0	1900019712	32	6108
2026-01-16 01:45:26.65	108.19	50.97	-30.1	-30.7	27.3	0.00e+00	0	30	0	1905262592	32	6223
2026-01-16 01:45:27.66	107.75	51.24	-30.4	-31.1	27.2	0.00e+00	0	30	0	1911554048	32	6469
2026-01-16 01:45:28.67	107.31	51.50	-30.4	-31.0	27.2	0.00e+00	0	30	0	1916796928	32	6417
2026-01-16 01:45:29.68	106.85	51.77	-30.5	-31.2	26.9	0.00e+00	0	30	0	1922039808	32	6566
2026-01-16 01:45:30.69	106.39	52.03	-30.2	-30.8	27.2	0.00e+00	0	30	0	1928331264	32	6312
2026-01-16 01:45:31.69	105.93	52.29	-30.0	-30.6	27.1	0.00e+00	0	30	0	1933574144	32	6125
2026-01-16 01:45:32.70	105.45	52.55	-30.1	-30.7	27.3	0.00e+00	0	30	0	1939865600	32	6230
2026-01-16 01:45:33.72	104.96	52.82	-30.3	-30.9	27.3	0.00e+00	0	30	0	1945108480	32	6378
2026-01-16 01:45:34.73	104.46	53.08	-30.3	-30.9	27.3	0.00e+00	0	29	0	1951399936	32	6352
2026-01-16 01:45:35.73	103.96	53.34	-30.0	-30.6	27.5	0.00e+00	0	29	0	1956642816	32	6154
2026-01-16 01:45:36.74	103.45	53.60	-30.0	-30.7	27.5	0.00e+00	0	30	0	1962934272	32	6181
2026-01-16 01:45:37.75	102.93	53.85	-30.2	-30.8	27.3	0.00e+00	0	30	0	1968177152	32	6302
2026-01-16 01:45:38.76	102.39	54.11	-30.4	-31.0	27.2	0.00e+00	0	30	0	1973420032	32	6431
2026-01-16 01:45:39.77	101.85	54.37	-30.3	-30.9	27.3	0.00e+00	0	30	0	1979711488	32	6359
2026-01-16 01:45:40.78	101.30	54.62	-30.0	-30.6	27.5	0.00e+00	0	29	0	1984954368	32	6147
2026-01-16 01:45:41.79	100.74	54.87	-29.6	-30.2	27.8	0.00e+00	0	29	0	1991245824	32	5876
2026-01-16 01:45:42.80	100.17	55.13	-29.6	-30.2	27.7	0.00e+00	0	30	0	1996488704	32	5851
2026-01-16 01:45:43.81	99.58	55.37	-29.9	-30.5	27.5	0.00e+00	0	29	0	2001731584	32	6055
2026-01-16 01:45:44.82	98.99	55.62	-30.1	-30.7	27.4	0.00e+00	0	29	0	2008023040	32	6205
2026-01-16 01:45:45.83	98.39	55.87	-30.0	-30.6	27.5	0.00e+00	0	30	0	2013265920	32	6156
2026-01-16 01:45:46.84	97.78	56.11	-29.9	-30.6	27.5	0.00e+00	0	30	0	2019557376	32	6120
2026-01-16 01:45:47.85	97.15	56.35	-29.7	-30.3	27.7	0.00e+00	0	30	0	2024800256	32	5909
2026-01-16 01:45:48.86	96.52	56.59	-29.7	-30.4	27.7	0.00e+00	0	30	0	2030043136	32	5974
2026-01-16 01:45:49.87	95.87	56.83	-29.3	-29.9	28.0	0.00e+00	0	29	0	2036334592	32	5683
2026-01-16 01:45:50.88	95.21	57.06	-29.6	-30.2	27.8	0.00e+00	0	30	0	2041577472	32	5865
2026-01-16 01:45:51.88	94.55	57.29	-29.9	-30.6	27.6	0.00e+00	0	29	0	2047868928	32	6119
2026-01-16 01:45:52.89	93.87	57.52	-29.7	-30.4	27.7	0.00e+00	0	30	0	2053111808	32	5976
2026-01-16 01:45:53.90	93.18	57.75	-29.6	-30.2	27.8	0.00e+00	0	30	0	2059403264	32	5875
2026-01-16 01:45:54.91	92.47	57.97	-30.0	-30.6	27.5	0.00e+00	0	30	0	2064646144	32	6159
2026-01-16 01:45:55.92	91.76	58.19	-29.9	-30.6	27.5	0.00e+00	0	30	0	2069889024	32	6104
2026-01-16 01:45:56.92	91.04	58.40	-30.0	-30.6	27.5	0.00e+00	0	30	0	2076180480	32	6151
2026-01-16 01:45:57.93	90.30	58.61	-29.6	-30.2	27.8	0.00e+00	0	30	0	2081423360	32	5854
2026-01-16 01:45:58.94	89.55	58.82	-29.6	-30.2	27.9	0.00e+00	0	29	0	2087714816	32	5875
2026-01-16 01:45:59.95	88.79	59.03	-29.8	-30.4	27.6	0.00e+00	0	29	0	2092957696	32	6001
2026-01-16 01:46:00.97	88.01	59.23	-29.6	-30.3	27.8	0.00e+00	0	29	0	2098200576	32	5903
2026-01-16 01:46:01.98	87.22	59.42	-29.5	-30.1	27.8	0.00e+00	1	29	0	2104492032	32	5813
2026-01-16 01:46:02.98	86.43	59.61	-30.0	-30.6	27.4	0.00e+00	0	29	0	2109734912	32	6167
2026-01-16 01:46:04.00	85.61	59.80	-30.5	-31.2	27.0	0.00e+00	0	29	0	2116026368	32	6570
2026-01-16 01:46:05.01	84.79	59.98	-30.1	-30.8	27.4	0.00e+00	0	30	0	2121269248	32	6247
2026-01-16 01:46:06.02	83.96	60.16	-29.9	-30.5	27.6	0.00e+00	0	30	0	2126512128	32	6056
2026-01-16 01:46:07.02	83.12	60.33	-29.9	-30.6	27.4	0.00e+00	0	29	0	2132803584	32	6132
2026-01-16 01:46:08.03	82.27	60.50	-29.9	-30.5	27.6	0.00e+00	0	29	0	2138046464	32	6082
2026-01-16 01:46:09.04	81.40	60.66	-29.6	-30.2	27.8	0.00e+00	0	29	0	2144337920	32	5881
2026-01-16 01:46:10.05	80.52	60.82	-29.3	-29.9	28.1	0.00e+00	0	29	0	2149580800	32	5644
2026-01-16 01:46:11.06	79.64	60.97	-29.7	-30.3	27.7	0.00e+00	0	29	0	2155872256	32	5963
2026-01-16 01:46:12.07	78.74	61.11	-29.7	-30.4	27.7	0.00e+00	0	30	0	2161115136	32	6006
2026-01-16 01:46:13.08	77.83	61.25	-29.5	-30.1	28.0	0.00e+00	0	29	0	2166358016	32	5811
2026-01-16 01:46:14.09	76.91	61.38	-29.0	-29.6	28.3	0.00e+00	0	29	0	2172649472	32	5500
2026-01-16 01:46:15.10	75.98	61.51	-29.3	-29.9	28.1	0.00e+00	0	29	0	2177892352	32	5675
2026-01-16 01:46:16.11	75.04	61.63	-29.6	-30.3	27.7	0.00e+00	0	29	0	2184183808	32	5917
2026-01-16 01:46:17.12	74.10	61.74	-29.5	-30.2	27.9	0.00e+00	0	29	0	2189426688	32	5847
2026-01-16 01:46:18.13	73.14	61.85	-29.2	-29.8	28.2	0.00e+00	0	29	0	2194669568	32	5589
2026-01-16 01:46:19.14	72.18	61.95	-28.9	-29.5	28.3	0.00e+00	0	29	0	2200961024	32	5422
2026-01-16 01:46:20.15	71.21	62.04	-28.8	-29.4	28.4	0.00e+00	0	29	0	2206203904	32	5365
2026-01-16 01:46:21.15	70.24	62.13	-28.9	-29.5	28.5	0.00e+00	0	29	0	2212495360	32	5426
2026-01-16 01:46:22.16	69.25	62.21	-28.9	-29.5	28.4	0.00e+00	0	29	0	2217738240	32	5425
2026-01-16 01:46:23.17	68.26	62.28	-29.2	-29.8	28.2	0.00e+00	0	29	0	2222981120	32	5585
2026-01-16 01:46:24.18	67.27	62.34	-29.0	-29.7	28.3	0.00e+00	0	29	0	2229272576	32	5515
2026-01-16 01:46:25.19	66.26	62.40	-28.6	-29.2	28.6	0.00e+00	0	29	0	2234515456	30	5877
2026-01-16 01:46:26.20	65.26	62.45	-28.5	-29.1	28.6	0.00e+00	0	29	0	2240806912	30	5787
2026-01-16 01:46:27.21	64.25	62.49	-28.9	-29.5	28.4	0.00e+00	0	29	0	2246049792	30	6054
2026-01-16 01:46:28.22	63.24	62.53	-29.1	-29.7	28.3	0.00e+00	0	29	0	2252341248	30	6195
2026-01-16 01:46:29.23	62.22	62.56	-28.6	-29.2	28.6	0.00e+00	0	29	0	2257584128	30	5839
2026-01-16 01:46:30.24	61.20	62.58	-28.7	-29.4	28.5	0.00e+00	0	29	0	2263875584	30	5997
2026-01-16 01:46:31.25	60.18	62.59	-29.0	-29.6	28.4	0.00e+00	0	29	0	2269118464	30	6168
2026-01-16 01:46:32.26	59.16	62.59	-28.8	-29.4	28.5	0.00e+00	0	29	0	2274361344	30	5988
2026-01-16 01:46:33.27	58.15	62.59	-28.6	-29.2	28.5	0.00e+00	0	29	0	2280652800	30	5880
2026-01-16 01:46:34.28	57.13	62.58	-28.5	-29.1	28.7	0.00e+00	0	29	0	2285895680	30	5768
2026-01-16 01:46:35.29	56.11	62.56	-28.8	-29.4	28.5	0.00e+00	0	29	0	2291138560	30	5977
2026-01-16 01:46:36.30	55.09	62.53	-28.4	-29.0	28.7	0.00e+00	0	29	0	2297430016	30	5697
2026-01-16 01:46:37.31	54.08	62.50	-28.2	-28.8	28.8	0.00e+00	0	29	0	2302672896	30	5573
2026-01-16 01:46:38.31	53.08	62.46	-28.5	-29.1	28.5	0.00e+00	0	29	0	2308964352	30	5828
2026-01-16 01:46:39.32	52.07	62.41	-29.0	-29.6	28.4	0.00e+00	0	29	0	2314207232	30	6164
2026-01-16 01:46:40.33	51.07	62.35	-29.0	-29.6	28.1	0.00e+00	0	29	0	2319450112	30	6165
2026-01-16 01:46:41.34	50.08	62.29	-29.2	-29.8	28.1	0.00e+00	0	29	0	2325741568	30	6307
2026-01-16 01:46:42.35	49.08	62.22	-29.2	-29.8	28.1	0.00e+00	0	29	0	2330984448	30	6302
2026-01-16 01:46:43.36	48.10	62.14	-28.8	-29.4	28.4	0.00e+00	0	29	0	2337275904	30	6013
2026-01-16 01:46:44.37	47.12	62.05	-28.8	-29.4	28.4	0.00e+00	0	29	0	2342518784	30	5968
2026-01-16 01:46:45.38	46.15	61.96	-28.8	-29.3	28.4	0.00e+00	0	29	0	2348810240	30	5931
2026-01-16 01:46:46.39	45.19	61.86	-28.8	-29.5	28.4	0.00e+00	0	29	0	2354053120	30	6090
2026-01-16 01:46:47.39	44.24	61.76	-28.8	-29.5	28.3	0.00e+00	0	29	0	2360344576	30	6040
2026-01-16 01:46:48.41	43.28	61.64	-28.8	-29.5	28.4	0.00e+00	0	29	0	2365587456	30	6060
2026-01-16 01:46:49.42	42.34	61.52	-28.9	-29.5	28.4	0.00e+00	0	29	0	2370830336	30	6101
2026-01-16 01:46:50.42	41.43	61.40	-29.5	-30.1	27.9	0.00e+00	0	29	0	2377121792	30	6475
2026-01-16 01:46:51.43	40.51	61.27	-29.7	-30.4	27.7	0.00e+00	0	29	0	2382364672	32	5980
2026-01-16 01:46:52.44	39.60	61.13	-29.4	-30.0	28.1	0.00e+00	0	29	0	2388656128	32	5755
2026-01-16 01:46:53.45	38.70	60.99	-29.4	-30.0	28.1	0.00e+00	0	29	0	2393899008	32	5720
2026-01-16 01:46:54.46	37.81	60.84	-29.3	-30.0	28.1	0.00e+00	0	29	0	2399141888	32	5725
2026-01-16 01:46:55.47	36.93	60.68	-29.0	-29.7	28.3	0.00e+00	0	29	0	2405433344	32	5521
2026-01-16 01:46:56.48	36.06	60.52	-29.2	-29.8	28.1	0.00e+00	0	29	0	2410676224	32	5616
2026-01-16 01:46:57.49	35.21	60.35	-29.4	-30.0	27.9	0.00e+00	0	29	0	2415919104	32	5699
2026-01-16 01:46:58.50	34.36	60.18	-29.5	-30.1	27.9	0.00e+00	0	29	0	2422210560	32	5802
2026-01-16 01:46:59.51	33.53	60.01	-29.4	-30.0	28.1	0.00e+00	0	29	0	2427453440	32	5751
2026-01-16 01:47:00.51	32.71	59.83	-28.8	-29.5	28.4	0.00e+00	0	29	0	2433744896	32	5383
2026-01-16 01:47:01.52	31.90	59.64	-29.0	-29.5	28.3	0.00e+00	0	29	0	2438987776	32	5436
2026-01-16 01:47:02.53	31.11	59.45	-29.4	-30.0	28.0	0.00e+00	0	29	0	2445279232	32	5697
2026-01-16 01:47:03.54	30.32	59.26	-29.3	-30.0	28.1	0.00e+00	0	29	0	2450522112	32	5717
2026-01-16 01:47:04.55	29.54	59.06	-29.2	-29.7	28.0	0.00e+00	0	29	0	2456813568	32	5560
2026-01-16 01:47:05.55	28.79	58.86	-29.0	-29.6	28.3	0.00e+00	0	29	0	2462056448	32	5441
2026-01-16 01:47:06.56	28.04	58.65	-29.1	-29.7	28.2	0.00e+00	0	29	0	2467299328	32	5517
2026-01-16 01:47:07.57	27.30	58.44	-29.2	-29.8	28.1	0.00e+00	0	29	0	2473590784	32	5572
2026-01-16 01:47:08.58	26.57	58.22	-29.1	-29.8	28.3	0.00e+00	0	29	0	2478833664	32	5601
2026-01-16 01:47:09.58	25.86	58.01	-29.2	-29.9	28.1	0.00e+00	0	29	0	2484076544	32	5647
2026-01-16 01:47:10.59	25.16	57.79	-29.6	-30.2	27.8	0.00e+00	0	29	0	2490368000	32	5872
2026-01-16 01:47:11.60	24.46	57.56	-29.6	-30.3	27.9	0.00e+00	0	29	0	2495610880	32	5944
2026-01-16 01:47:12.61	23.78	57.33	-29.2	-29.8	28.2	0.00e+00	0	29	0	2501902336	32	5575
2026-01-16 01:47:13.62	23.11	57.10	-29.1	-29.7	28.2	0.00e+00	0	29	0	2507145216	32	5515
2026-01-16 01:47:14.63	22.46	56.87	-29.5	-30.1	27.9	0.00e+00	0	29	0	2512388096	32	5775
2026-01-16 01:47:15.64	21.81	56.63	-29.6	-30.2	27.8	0.00e+00	0	29	0	2518679552	32	5876
2026-01-16 01:47:16.65	21.17	56.40	-29.3	-29.9	28.1	0.00e+00	0	29	0	2523922432	32	5658
2026-01-16 01:47:17.66	20.55	56.15	-29.0	-29.6	28.3	0.00e+00	0	29	0	2530213888	32	5495
2026-01-16 01:47:18.66	19.94	55.91	-29.2	-29.9	28.0	0.00e+00	0	29	0	2535456768	32	5680
2026-01-16 01:47:19.68	19.33	55.67	-29.4	-30.0	27.9	0.00e+00	0	29	0	2541748224	32	5726
2026-01-16 01:47:20.68	18.74	55.42	-29.3	-29.9	28.0	0.00e+00	0	29	0	2546991104	32	5686
2026-01-16 01:47:21.69	18.16	55.17	-29.1	-29.8	28.1	0.00e+00	0	29	0	2553282560	32	5604
2026-01-16 01:47:22.70	17.59	54.92	-29.3	-29.8	28.0	0.00e+00	0	29	0	2558525440	32	5621
2026-01-16 01:47:23.71	17.02	54.67	-29.5	-30.1	27.9	0.00e+00	0	29	0	2563768320	32	5799
2026-01-16 01:47:24.72	16.47	54.42	-29.6	-30.2	27.8	0.00e+00	0	29	0	2570059776	32	5843
2026-01-16 01:47:25.73	15.93	54.16	-29.6	-30.1	27.9	0.00e+00	0	29	0	2575302656	32	5803
2026-01-16 01:47:26.74	15.40	53.91	-29.3	-30.0	27.9	0.00e+00	0	29	0	2581594112	32	5708
2026-01-16 01:47:27.75	14.87	53.65	-29.2	-29.9	28.1	0.00e+00	0	29	0	2586836992	32	5646
2026-01-16 01:47:28.76	14.36	53.39	-29.1	-29.7	28.1	0.00e+00	0	29	0	2592079872	32	5511
2026-01-16 01:47:29.77	13.85	53.13	-29.0	-29.6	28.2	0.00e+00	0	29	0	2598371328	32	5451
2026-01-16 01:47:30.78	13.36	52.87	-29.1	-29.6	28.2	0.00e+00	0	29	0	2603614208	32	5480
2026-01-16 01:47:31.79	12.87	52.61	-29.3	-30.0	28.0	0.00e+00	0	29	0	2608857088	32	5718
2026-01-16 01:47:32.80	12.39	52.35	-29.4	-30.1	27.9	0.00e+00	0	29	0	2615148544	32	5776
2026-01-16 01:47:33.81	11.92	52.09	-29.4	-30.1	28.0	0.00e+00	0	29	0	2620391424	32	5789
2026-01-16 01:47:34.82	11.46	51.82	-29.5	-30.1	27.9	0.00e+00	0	29	0	2626682880	32	5767
2026-01-16 01:47:35.83	11.01	51.56	-29.5	-30.2	27.9	0.00e+00	0	29	0	2631925760	32	5858
2026-01-16 01:47:36.83	10.56	51.30	-29.4	-30.1	28.0	0.00e+00	0	29	0	2638217216	32	5806
2026-01-16 01:47:37.84	10.13	51.03	-29.3	-30.0	28.0	0.00e+00	0	29	0	2643460096	32	5739
2026-01-16 01:47:38.85	9.70	50.77	-29.2	-29.8	28.1	0.00e+00	0	29	0	2649751552	32	5592
2026-01-16 01:47:39.86	9.27	50.50	-29.3	-29.9	28.1	0.00e+00	0	29	0	2654994432	32	5668
2026-01-16 01:47:40.87	8.86	50.24	-29.4	-30.0	28.1	0.00e+00	0	29	0	2660237312	32	5706
2026-01-16 01:47:41.88	8.45	49.97	-29.5	-30.2	27.8	0.00e+00	0	29	0	2666528768	32	5861
2026-01-16 01:47:42.89	8.05	49.71	-29.5	-30.1	27.8	0.00e+00	0	29	0	2671771648	32	5801
2026-01-16 01:47:43.90	7.66	49.44	-29.1	-29.6	28.1	0.00e+00	0	29	0	2678063104	32	5479
2026-01-16 01:47:44.91	7.27	49.18	-28.9	-29.6	28.3	0.00e+00	0	29	0	2683305984	32	5447
2026-01-16 01:47:45.91	6.89	48.92	-28.9	-29.5	28.2	0.00e+00	0	29	0	2688548864	32	5404
2026-01-16 01:47:46.92	6.52	48.65	-28.9	-29.5	28.3	0.00e+00	0	29	0	2694840320	32	5403
2026-01-16 01:47:47.93	6.15	48.39	-29.0	-29.7	28.2	0.00e+00	0	29	0	2700083200	32	5540
2026-01-16 01:47:48.94	5.79	48.13	-28.9	-29.6	28.2	0.00e+00	0	29	0	2706374656	32	5448
2026-01-16 01:47:49.95	5.44	47.86	-28.8	-29.3	28.2	0.00e+00	0	29	0	2711617536	32	5289
2026-01-16 01:47:50.96	5.09	47.60	-28.6	-29.2	28.1	0.00e+00	0	29	0	2716860416	30	5844
2026-01-16 01:47:51.97	4.74	47.34	-28.5	-29.1	28.0	0.00e+00	0	29	0	2723151872	30	5786
2026-01-16 01:47:52.98	4.41	47.08	-28.5	-29.0	28.2	0.00e+00	0	29	0	2728394752	30	5723
2026-01-16 01:47:53.99	4.07	46.82	-28.3	-29.0	28.4	0.00e+00	0	29	0	2734686208	30	5740
2026-01-16 01:47:55.00	3.75	46.55	-28.4	-28.9	28.4	0.00e+00	0	29	0	2739929088	30	5684
2026-01-16 01:47:56.01	3.43	46.29	-28.3	-28.9	28.5	0.00e+00	0	29	0	2746220544	30	5648
2026-01-16 01:47:57.02	3.11	46.04	-28.3	-28.9	28.7	0.00e+00	0	29	0	2751463424	30	5653
2026-01-16 01:47:58.02	2.81	45.78	-28.5	-29.0	28.4	0.00e+00	0	29	0	2756706304	30	5752
2026-01-16 01:47:59.03	2.50	45.52	-28.5	-29.0	28.5	0.00e+00	0	29	0	2762997760	30	5759
2026-01-16 01:48:00.04	2.20	45.26	-28.7	-29.3	28.5	0.00e+00	0	29	0	2768240640	30	5912
2026-01-16 01:48:01.05	1.90	45.01	-28.8	-29.5	28.4	0.00e+00	0	29	0	2774532096	30	6035
2026-01-16 01:48:02.06	1.61	44.75	-28.8	-29.5	28.5	0.00e+00	0	29	0	2779774976	30	6055
2026-01-16 01:48:03.07	1.33	44.50	-28.8	-29.4	28.4	0.00e+00	0	29	0	2785017856	30	6003
2026-01-16 01:48:04.08	1.05	44.24	-28.7	-29.3	28.4	0.00e+00	0	29	0	2791309312	30	5925
2026-01-16 01:48:05.09	0.77	43.99	-28.5	-29.0	28.6	0.00e+00	0	29	0	2796552192	30	5728
2026-01-16 01:48:06.10	0.50	43.74	-28.3	-28.9	28.7	0.00e+00	0	29	0	2802843648	30	5633
2026-01-16 01:48:07.11	0.23	43.49	-28.2	-28.9	28.8	0.00e+00	0	29	0	2808086528	30	5655
2026-01-16 01:48:08.12	359.97	43.24	-28.2	-28.7	28.9	0.00e+00	0	29	0	2813329408	30	5546
2026-01-16 01:48:09.13	359.71	42.99	-28.3	-29.0	28.7	0.00e+00	0	29	0	2819620864	30	5742
2026-01-16 01:48:10.14	359.45	42.74	-28.4	-29.1	28.7	0.00e+00	0	29	0	2824863744	30	5795
2026-01-16 01:48:11.15	359.20	42.49	-28.5	-29.2	28.6	0.00e+00	0	29	0	2831155200	30	5857
2026-01-16 01:48:12.16	358.95	42.25	-28.3	-29.0	28.8	0.00e+00	0	29	0	2836398080	30	5703
2026-01-16 01:48:13.17	358.71	42.00	-28.4	-28.9	28.7	0.00e+00	0	29	0	2842689536	30	5671
2026-01-16 01:48:14.18	358.47	41.76	-28.6	-29.3	28.6	0.00e+00	0	29	0	2847932416	30	5931
2026-01-16 01:48:15.18	358.23	41.52	-28.3	-28.9	28.7	0.00e+00	0	29	0	2853175296	30	5694
2026-01-16 01:48:16.19	358.00	41.27	-28.5	-29.2	28.6	0.00e+00	0	29	0	2859466752	30	5871
2026-01-16 01:48:17.20	357.77	41.03	-28.5	-29.1	28.5	0.00e+00	0	29	0	2864709632	30	5765
2026-01-16 01:48:18.21	357.55	40.79	-28.6	-29.1	28.6	0.00e+00	0	29	0	2871001088	30	5808
2026-01-16 01:48:19.22	357.32	40.55	-28.6	-29.2	28.5	0.00e+00	0	29	0	2876243968	30	5855
2026-01-16 01:48:20.23	357.10	40.32	-28.6	-29.2	28.4	0.00e+00	0	29	0	2881486848	30	5838
2026-01-16 01:48:21.24	356.89	40.08	-28.8	-29.3	28.5	0.00e+00	0	29	0	2887778304	30	5937
2026-01-16 01:48:22.25	356.67	39.84	-28.4	-29.1	28.7	0.00e+00	0	29	0	2893021184	30	5819
2026-01-16 01:48:23.26	356.46	39.61	-28.5	-29.2	28.7	0.00e+00	0	29	0	2899312640	30	5838
2026-01-16 01:48:24.27	356.26	39.38	-28.3	-28.9	28.8	0.00e+00	0	29	0	2904555520	30	5691
2026-01-16 01:48:25.28	356.05	39.14	-28.4	-28.9	28.6	0.00e+00	0	29	0	2909798400	30	5676
2026-01-16 01:48:26.29	355.85	38.91	-28.5	-29.0	28.6	0.00e+00	0	29	0	2916089856	30	5749
2026-01-16 01:48:27.30	355.65	38.68	-28.5	-29.0	28.6	0.00e+00	0	29	0	2921332736	30	5746
2026-01-16 01:48:28.30	355.46	38.46	-28.5	-29.1	28.5	0.00e+00	0	29	0	2927624192	30	5787
2026-01-16 01:48:29.31	355.27	38.23	-28.5	-29.2	28.6	0.00e+00	0	29	0	2932867072	30	5838
2026-01-16 01:48:30.32	355.08	38.00	-28.4	-29.0	28.6	0.00e+00	0	29	0	2939158528	30	5725
2026-01-16 01:48:31.33	354.89	37.78	-28.4	-29.1	28.6	0.00e+00	0	29	0	2944401408	30	5808
2026-01-16 01:48:32.34	354.71	37.55	-28.4	-29.1	28.6	0.00e+00	0	29	0	2950692864	30	5765
2026-01-16 01:48:33.35	354.53	37.33	-28.1	-28.8	28.8	0.00e+00	0	29	0	2955935744	30	5616
2026-01-16 01:48:34.36	354.35	37.11	-28.2	-28.9	28.7	0.00e+00	0	29	0	2961178624	30	5684
2026-01-16 01:48:35.37	354.17	36.89	-28.3	-29.0	28.7	0.00e+00	0	29	0	2967470080	30	5715
2026-01-16 01:48:36.38	354.00	36.67	-28.4	-29.1	28.7	0.00e+00	0	29	0	2972712960	30	5771
2026-01-16 01:48:37.39	353.82	36.45	-28.4	-29.1	28.7	0.00e+00	0	29	0	2977955840	30	5796
2026-01-16 01:48:38.40	353.65	36.23	-28.3	-28.8	28.8	0.00e+00	0	29	0	2984247296	30	5621
2026-01-16 01:48:39.41	353.49	36.02	-28.1	-28.8	28.8	0.00e+00	0	29	0	2989490176	30	5573
2026-01-16 01:48:40.42	353.32	35.80	-28.2	-28.9	28.8	0.00e+00	0	29	0	2995781632	30	5632
2026-01-16 01:48:41.43	353.16	35.59	-28.1	-28.8	28.7	0.00e+00	0	29	0	3001024512	30	5615
2026-01-16 01:48:42.43	353.00	35.38	-28.3	-28.9	28.7	0.00e+00	0	29	0	3006267392	30	5636
2026-01-16 01:48:43.44	352.84	35.17	-28.3	-28.9	28.6	0.00e+00	0	29	0	3012558848	30	5668
2026-01-16 01:48:44.45	352.68	34.96	-28.4	-29.1	28.6	0.00e+00	0	29	0	3017801728	30	5802
2026-01-16 01:48:45.46	352.53	34.75	-28.5	-29.3	28.6	0.00e+00	0	29	0	3024093184	30	5911
2026-01-16 01:48:46.47	352.38	34.54	-28.4	-29.1	28.6	0.00e+00	0	29	0	3029336064	30	5790
2026-01-16 01:48:47.48	352.22	34.33	-28.5	-29.1	28.5	0.00e+00	0	29	0	3035627520	30	5791
2026-01-16 01:48:48.49	352.08	34.13	-28.6	-29.3	28.5	0.00e+00	0	29	0	3040870400	30	5930
2026-01-16 01:48:49.50	351.93	33.92	-28.4	-29.0	28.7	0.00e+00	0	29	0	3047161856	30	5721
2026-01-16 01:48:50.50	351.79	33.72	-28.4	-28.9	28.6	0.00e+00	0	29	0	3052404736	30	5666
2026-01-16 01:48:51.51	351.64	33.52	-28.4	-28.9	28.6	0.00e+00	0	29	0	3057647616	30	5671
2026-01-16 01:48:52.52	351.50	33.32	-28.4	-28.9	28.6	0.00e+00	0	29	0	3063939072	30	5677
2026-01-16 01:48:53.53	351.36	33.12	-28.3	-28.9	28.7	0.00e+00	0	29	0	3069181952	30	5639
2026-01-16 01:48:54.54	351.22	32.92	-28.4	-29.1	28.6	0.00e+00	0	29	0	3075473408	30	5806
2026-01-16 01:48:55.55	351.09	32.72	-28.4	-28.9	28.6	0.00e+00	0	29	0	3080716288	30	5669
2026-01-16 01:48:56.56	350.95	32.53	-28.6	-29.3	28.5	0.00e+00	0	29	0	3085959168	30	5917
2026-01-16 01:48:57.57	350.82	32.33	-28.5	-29.2	28.6	0.00e+00	0	29	0	3092250624	30	5869
2026-01-16 01:48:58.58	350.69	32.14	-28.7	-29.4	28.4	0.00e+00	0	29	0	3097493504	30	6027
2026-01-16 01:48:59.59	350.56	31.94	-28.7	-29.4	28.4	0.00e+00	0	29	0	3102736384	30	6015
2026-01-16 01:49:00.60	350.43	31.75	-28.7	-29.4	28.4	0.00e+00	0	29	0	3109027840	30	5994
2026-01-16 01:49:01.61	350.31	31.56	-28.8	-29.5	28.3	0.00e+00	0	29	0	3114270720	30	6098
2026-01-16 01:49:02.62	350.18	31.37	-28.7	-29.2	28.3	0.00e+00	0	29	0	3120562176	30	5882
2026-01-16 01:49:03.63	350.06	31.18	-28.8	-29.4	28.3	0.00e+00	0	29	0	3125805056	30	5976
2026-01-16 01:49:04.64	349.94	30.99	-28.7	-29.2	28.4	0.00e+00	0	29	0	3132096512	30	5870
2026-01-16 01:49:05.65	349.81	30.81	-28.8	-29.5	28.4	0.00e+00	0	29	0	3137339392	30	6064
2026-01-16 01:49:06.66	349.70	30.62	-28.9	-29.6	28.3	0.00e+00	0	29	0	3143630848	30	6104
2026-01-16 01:49:07.66	349.58	30.44	-28.7	-29.4	28.4	0.00e+00	0	29	0	3148873728	30	5968
2026-01-16 01:49:08.67	349.46	30.26	-28.8	-29.5	28.3	0.00e+00	0	29	0	3154116608	30	6072
2026-01-16 01:49:09.68	349.35	30.07	-28.8	-29.5	28.4	0.00e+00	0	29	0	3160408064	30	6039
2026-01-16 01:49:10.69	349.23	29.89	-28.9	-29.6	28.3	0.00e+00	0	29	0	3165650944	30	6141
2026-01-16 01:49:11.70	349.12	29.71	-29.0	-29.7	28.1	0.00e+00	0	29	0	3171942400	30	6219
2026-01-16 01:49:12.71	349.01	29.53	-29.0	-29.7	28.3	0.00e+00	0	29	0	3177185280	30	6209
2026-01-16 01:49:13.72	348.90	29.35	-29.1	-29.8	28.1	0.00e+00	0	29	0	3182428160	30	6293
2026-01-16 01:49:14.73	348.79	29.17	-29.0	-29.7	28.2	0.00e+00	0	29	0	3188719616	30	6199
2026-01-16 01:49:15.74	348.69	29.00	-29.2	-29.9	28.2	0.00e+00	0	29	0	3193962496	30	6324
2026-01-16 01:49:16.75	348.58	28.82	-29.1	-29.8	28.0	0.00e+00	0	29	0	3200253952	30	6316
2026-01-16 01:49:17.76	348.47	28.65	-29.2	-29.8	27.9	0.00e+00	0	29	0	3205496832	30	6293
2026-01-16 01:49:18.77	348.37	28.47	-29.2	-29.8	28.1	0.00e+00	0	29	0	3210739712	30	6281
2026-01-16 01:49:19.78	348.27	28.30	-29.4	-30.0	27.9	0.00e+00	0	29	0	3217031168	30	6403
2026-01-16 01:49:20.79	348.17	28.13	-29.3	-30.0	27.9	0.00e+00	0	29	0	3222274048	30	6411
2026-01-16 01:49:21.80	348.07	27.96	-29.4	-30.1	28.0	0.00e+00	0	29	0	3228565504	30	6521
2026-01-16 01:49:22.81	347.97	27.79	-29.0	-29.6	28.2	0.00e+00	0	29	0	3233808384	30	6128
2026-01-16 01:49:23.82	347.87	27.62	-29.0	-29.5	28.2	0.00e+00	0	29	0	3239051264	30	6092
2026-01-16 01:49:24.82	347.77	27.45	-29.0	-29.5	28.2	0.00e+00	0	29	0	3245342720	30	6072
2026-01-16 01:49:25.83	347.68	27.29	-29.0	-29.5	28.2	0.00e+00	0	29	0	3250585600	30	6068
2026-01-16 01:49:26.84	347.58	27.12	-28.8	-29.5	28.2	0.00e+00	0	29	0	3256877056	30	6087
2026-01-16 01:49:27.85	347.49	26.96	-28.9	-29.4	28.2	0.00e+00	0	29	0	3262119936	30	6029
2026-01-16 01:49:28.86	347.40	26.79	-28.8	-29.3	28.3	0.00e+00	0	29	0	3268411392	30	5959
2026-01-16 01:49:29.87	347.30	26.63	-28.9	-29.5	28.3	0.00e+00	0	29	0	3273654272	30	6049
2026-01-16 01:49:30.88	347.21	26.47	-29.0	-29.6	28.1	0.00e+00	0	29	0	3278897152	30	6106
2026-01-16 01:49:31.88	347.12	26.31	-28.9	-29.4	28.2	0.00e+00	0	28	0	3285188608	30	6023
2026-01-16 01:49:32.89	347.03	26.15	-29.0	-29.5	28.2	0.00e+00	0	28	0	3290431488	30	6061
2026-01-16 01:49:33.90	346.95	25.99	-29.0	-29.5	28.2	0.00e+00	0	29	0	3296722944	30	6099
2026-01-16 01:49:34.91	346.86	25.83	-29.0	-29.5	28.2	0.00e+00	0	29	0	3301965824	30	6076
2026-01-16 01:49:35.92	346.77	25.67	-29.1	-29.6	28.1	0.00e+00	0	29	0	3307208704	30	6156
2026-01-16 01:49:36.93	346.69	25.51	-29.1	-29.7	28.0	0.00e+00	0	28	0	3313500160	30	6207
2026-01-16 01:49:37.94	346.60	25.36	-29.2	-29.7	28.0	0.00e+00	0	29	0	3318743040	30	6244
2026-01-16 01:49:38.94	346.52	25.20	-29.3	-29.9	27.9	0.00e+00	0	29	0	3325034496	30	6365
2026-01-16 01:49:39.96	346.44	25.05	-29.2	-29.8	27.9	0.00e+00	0	29	0	3330277376	30	6248
2026-01-16 01:49:40.96	346.35	24.89	-29.3	-29.9	27.9	0.00e+00	0	29	0	3335520256	30	6359
2026-01-16 01:49:41.97	346.27	24.74	-29.4	-29.9	27.8	0.00e+00	0	29	0	3341811712	30	6380
2026-01-16 01:49:42.98	346.19	24.59	-29.3	-29.8	27.9	0.00e+00	0	29	0	3347054592	30	6294
2026-01-16 01:49:43.99	346.11	24.44	-29.3	-29.9	27.7	0.00e+00	0	29	0	3353346048	30	6359
2026-01-16 01:49:45.00	346.04	24.29	-29.3	-29.9	27.9	0.00e+00	0	28	0	3358588928	30	6355
2026-01-16 01:49:46.01	345.96	24.14	-29.3	-29.9	27.8	0.00e+00	0	29	0	3364880384	30	6352
2026-01-16 01:49:47.02	345.88	23.99	-29.3	-30.0	27.8	0.00e+00	0	29	0	3370123264	30	6446
2026-01-16 01:49:48.03	345.80	23.84	-29.2	-29.8	27.9	0.00e+00	0	29	0	3375366144	30	6270
2026-01-16 01:49:49.03	345.73	23.69	-29.3	-30.0	27.9	0.00e+00	0	28	0	3381657600	30	6412
2026-01-16 01:49:50.04	345.65	23.55	-29.3	-30.0	27.8	0.00e+00	0	28	0	3386900480	30	6446
2026-01-16 01:49:51.05	345.58	23.40	-29.3	-29.9	27.9	0.00e+00	0	28	0	3393191936	30	6335
2026-01-16 01:49:52.06	345.51	23.26	-29.3	-29.9	27.9	0.00e+00	0	28	0	3398434816	30	6334
2026-01-16 01:49:53.07	345.43	23.11	-29.5	-30.0	27.8	0.00e+00	0	29	0	3403677696	30	6430
2026-01-16 01:49:54.07	345.36	22.97	-29.5	-30.1	27.7	0.00e+00	0	28	0	3409969152	30	6483
2026-01-16 01:49:55.08	345.29	22.83	-29.5	-30.0	27.7	0.00e+00	0	29	0	3415212032	30	6443
2026-01-16 01:49:56.09	345.22	22.69	-29.6	-30.1	27.6	0.00e+00	0	29	0	3420454912	30	6531
2026-01-16 01:49:57.10	345.15	22.54	-29.6	-30.2	27.6	0.00e+00	0	29	0	3426746368	30	6588
2026-01-16 01:49:58.10	345.08	22.40	-29.7	-30.3	27.5	0.00e+00	0	28	0	3431989248	30	6633
2026-01-16 01:49:59.11	345.01	22.26	-29.8	-30.3	27.4	0.00e+00	0	29	0	3438280704	32	5964
2026-01-16 01:50:00.12	344.94	22.13	-29.7	-30.3	27.5	0.00e+00	0	29	0	3443523584	32	5925
2026-01-16 01:50:01.13	344.88	21.99	-29.8	-30.4	27.5	0.00e+00	0	29	0	3449815040	32	5979
2026-01-16 01:50:02.14	344.81	21.85	-29.9	-30.5	27.4	0.00e+00	0	29	0	3455057920	32	6041
2026-01-16 01:50:03.14	344.74	21.71	-29.9	-30.4	27.4	0.00e+00	0	29	0	3461349376	32	6029
2026-01-16 01:50:04.16	344.68	21.58	-29.9	-30.5	27.4	0.00e+00	0	29	0	3466592256	32	6035
2026-01-16 01:50:05.16	344.61	21.44	-29.7	-30.3	27.5	0.00e+00	0	29	0	3471835136	32	5923
2026-01-16 01:50:06.17	344.55	21.31	-29.7	-30.5	27.5	0.00e+00	0	29	0	3478126592	32	6037
2026-01-16 01:50:07.18	344.49	21.17	-29.8	-30.4	27.4	0.00e+00	0	29	0	3483369472	32	5972
2026-01-16 01:50:08.19	344.42	21.04	-29.6	-30.2	27.6	0.00e+00	0	29	0	3488612352	32	5859
2026-01-16 01:50:09.20	344.36	20.91	-29.7	-30.2	27.5	0.00e+00	0	28	0	3494903808	32	5888
2026-01-16 01:50:10.21	344.30	20.77	-29.6	-30.3	27.5	0.00e+00	0	28	0	3500146688	32	5940
2026-01-16 01:50:11.22	344.24	20.64	-29.7	-30.4	27.4	0.00e+00	0	28	0	3506438144	32	6000
2026-01-16 01:50:12.23	344.18	20.51	-29.7	-30.3	27.5	0.00e+00	0	29	0	3511681024	32	5927
2026-01-16 01:50:13.24	344.12	20.38	-29.8	-30.3	27.3	0.00e+00	0	29	0	3516923904	32	5961
2026-01-16 01:50:14.25	344.06	20.25	-29.7	-30.4	27.5	0.00e+00	0	29	0	3523215360	32	5970
2026-01-16 01:50:15.26	344.00	20.12	-29.8	-30.5	27.4	0.00e+00	0	28	0	3528458240	32	6092
2026-01-16 01:50:16.26	343.94	19.99	-29.8	-30.5	27.5	0.00e+00	0	29	0	3534749696	32	6035
2026-01-16 01:50:17.27	343.88	19.87	-29.8	-30.5	27.4	0.00e+00	0	28	0	3539992576	32	6058
2026-01-16 01:50:18.28	343.82	19.74	-29.9	-30.6	27.4	0.00e+00	0	28	0	3546284032	32	6130
2026-01-16 01:50:19.29	343.77	19.61	-30.1	-30.6	27.3	0.00e+00	0	28	0	3551526912	32	6135
2026-01-16 01:50:20.30	343.71	19.49	-30.0	-30.6	27.3	0.00e+00	0	29	0	3557818368	32	6106
2026-01-16 01:50:21.31	343.65	19.36	-30.2	-30.9	27.1	0.00e+00	0	28	0	3563061248	32	6348
2026-01-16 01:50:22.32	343.60	19.24	-30.2	-31.0	27.1	0.00e+00	0	28	0	3568304128	32	6392
2026-01-16 01:50:23.33	343.54	19.11	-30.3	-31.0	27.0	0.00e+00	0	28	0	3574595584	32	6449
2026-01-16 01:50:24.34	343.49	18.99	-30.3	-31.0	27.0	0.00e+00	0	28	0	3579838464	32	6444
2026-01-16 01:50:25.35	343.43	18.87	-30.5	-31.1	26.9	0.00e+00	0	29	0	3586129920	32	6514
2026-01-16 01:50:26.36	343.38	18.74	-30.5	-31.2	26.8	0.00e+00	0	28	0	3591372800	32	6596
