passes_logs/2026/01/16/R4.6S_Anadyr/R4.6S_Anadyr__20260116_144626_NOAA_20_JPSS-1_rec.log

#Pass ID: 20260116_144626_NOAA 20 (JPSS-1)
#Satellite: NOAA 20 (JPSS-1)
#Configuration: NOAA 20
#almurnet v.1.7.20251203
#Start time: 2026-01-16 14:46:28

#Version: 2.2.20231116
#Station: R4.6S_Anadyr
#Location: 177.4865 lon 64.73178 lat
#TLE: 1 43013U 17073A   26015.89389188  .00000026  00000+0  33113-4 0  9999
#TLE: 2 43013  98.7636 316.8238 0001460  37.8997 322.2282 14.19536128422860

#Time	Az	El	Level	Level2	SNR	BER	BlckErr	Temp	State	Recorded	gain1	gain2
2026-01-16 14:46:28.41	20.62	0.14	-48.0	-62.9	3.6	1.51e+00	0	26	0	0	60	50637
2026-01-16 14:46:29.42	20.62	0.20	-48.6	-63.8	3.6	1.51e+00	0	27	104	0	60	56168
2026-01-16 14:46:30.43	20.62	0.26	-48.1	-63.3	3.6	1.51e+00	0	27	104	0	60	52695
2026-01-16 14:46:31.44	20.63	0.33	-48.0	-63.3	3.6	1.51e+00	0	27	104	0	60	52553
2026-01-16 14:46:32.45	20.63	0.39	-48.0	-63.2	3.6	1.51e+00	0	27	104	0	60	52535
2026-01-16 14:46:33.45	20.63	0.45	-48.0	-63.2	3.6	1.51e+00	0	27	104	0	60	52426
2026-01-16 14:46:34.47	20.64	0.51	-48.1	-63.2	3.6	1.51e+00	0	27	104	0	60	52325
2026-01-16 14:46:35.47	20.64	0.57	-48.0	-63.2	3.6	1.51e+00	0	28	104	0	60	52307
2026-01-16 14:46:36.49	20.64	0.63	-48.0	-63.2	3.6	1.51e+00	0	27	104	0	60	52149
2026-01-16 14:46:37.50	20.65	0.69	-47.8	-63.1	3.6	1.51e+00	0	28	104	0	60	51549
2026-01-16 14:46:38.51	20.65	0.75	-47.9	-63.1	3.6	1.51e+00	0	27	104	0	60	51388
2026-01-16 14:46:39.51	20.65	0.82	-47.7	-62.9	3.6	1.51e+00	0	28	104	0	60	50493
2026-01-16 14:46:40.52	20.66	0.88	-47.6	-62.8	3.6	1.51e+00	0	27	104	0	60	49802
2026-01-16 14:46:41.53	20.66	0.94	-47.1	-62.6	3.6	1.51e+00	0	28	104	0	60	48568
2026-01-16 14:46:42.55	20.66	1.00	-47.2	-62.3	3.6	1.51e+00	0	28	104	0	60	47281
2026-01-16 14:46:43.56	20.67	1.06	-47.0	-62.1	3.6	1.51e+00	0	28	104	0	60	46140
2026-01-16 14:46:44.57	20.67	1.13	-46.6	-61.8	3.6	1.51e+00	0	28	104	0	60	44301
2026-01-16 14:46:45.58	20.67	1.19	-46.5	-61.6	3.6	1.51e+00	0	28	104	0	60	43334
2026-01-16 14:46:46.59	20.68	1.25	-46.5	-61.7	3.6	1.51e+00	0	28	104	0	60	43760
2026-01-16 14:46:47.60	20.68	1.31	-46.5	-61.6	3.6	1.51e+00	0	28	104	0	60	43434
2026-01-16 14:46:48.61	20.68	1.38	-46.5	-61.5	3.6	1.51e+00	0	28	104	0	60	43096
2026-01-16 14:46:49.62	20.68	1.44	-46.5	-61.6	3.6	1.51e+00	0	28	104	0	60	43373
2026-01-16 14:46:50.62	20.69	1.50	-46.5	-61.5	3.6	1.51e+00	0	28	104	0	60	43063
2026-01-16 14:46:51.63	20.69	1.57	-46.5	-61.5	3.6	1.51e+00	0	28	104	0	60	43001
2026-01-16 14:46:52.64	20.69	1.63	-46.5	-61.5	3.6	1.51e+00	0	28	104	0	60	42988
2026-01-16 14:46:53.65	20.70	1.69	-46.5	-61.5	3.6	1.51e+00	0	28	104	0	60	43026
2026-01-16 14:46:54.66	20.70	1.76	-46.5	-61.6	3.6	1.51e+00	0	28	104	0	60	43433
2026-01-16 14:46:55.67	20.70	1.82	-46.4	-61.6	3.6	1.51e+00	0	28	104	0	60	43334
2026-01-16 14:46:56.68	20.71	1.89	-46.5	-61.6	3.6	1.51e+00	0	28	104	0	60	43629
2026-01-16 14:46:57.69	20.71	1.95	-46.4	-61.6	3.6	1.51e+00	0	28	104	0	60	43413
2026-01-16 14:46:58.70	20.71	2.01	-46.4	-61.6	3.6	1.51e+00	0	28	104	0	60	43487
2026-01-16 14:46:59.71	20.71	2.08	-46.5	-61.6	3.6	1.51e+00	0	28	104	0	60	43478
2026-01-16 14:47:00.72	20.72	2.14	-46.4	-61.6	3.6	1.51e+00	0	28	104	0	60	43309
2026-01-16 14:47:01.73	20.72	2.21	-46.4	-61.5	3.6	1.51e+00	0	28	104	0	60	42963
2026-01-16 14:47:02.74	20.72	2.27	-46.4	-61.5	3.6	1.51e+00	0	28	104	0	60	42773
2026-01-16 14:47:03.75	20.73	2.34	-46.4	-61.1	3.6	1.51e+00	0	28	104	0	60	41009
2026-01-16 14:47:04.76	20.73	2.40	-46.4	-60.7	3.6	1.51e+00	0	28	104	0	60	39221
2026-01-16 14:47:05.77	20.73	2.47	-46.4	-60.3	3.6	1.51e+00	0	28	104	0	60	37597
2026-01-16 14:47:06.78	20.74	2.53	-46.4	-60.0	3.6	1.51e+00	0	28	104	0	60	36289
2026-01-16 14:47:07.79	20.74	2.60	-46.4	-59.6	3.6	1.51e+00	0	28	104	0	60	34470
2026-01-16 14:47:08.80	20.74	2.67	-46.4	-59.6	3.6	1.51e+00	0	28	104	0	60	34563
2026-01-16 14:47:09.81	20.74	2.73	-46.4	-59.5	3.6	1.49e+00	0	28	104	0	60	34239
2026-01-16 14:47:10.82	20.75	2.80	-46.3	-59.3	3.6	1.50e+00	0	28	104	0	60	33527
2026-01-16 14:47:11.83	20.75	2.86	-46.2	-58.0	4.0	1.50e+00	0	28	104	0	60	28834
2026-01-16 14:47:12.84	20.75	2.93	-46.1	-55.1	4.9	8.30e-01	6	28	0	0	60	20512
2026-01-16 14:47:13.85	20.76	3.00	-45.8	-52.9	6.7	3.58e-01	92	28	0	2097152	60	15955
2026-01-16 14:47:14.86	20.76	3.06	-45.3	-51.1	8.9	8.61e-02	6	28	0	4194304	60	12999
2026-01-16 14:47:15.87	20.76	3.13	-44.7	-49.3	11.0	1.55e-02	6	28	0	6291456	60	10573
2026-01-16 14:47:16.88	20.76	3.20	-44.2	-48.2	12.4	5.04e-04	0	28	0	7340032	60	9279
2026-01-16 14:47:17.89	20.77	3.27	-43.4	-46.6	14.0	6.80e-06	0	28	0	9437184	60	7698
2026-01-16 14:47:18.90	20.77	3.33	-43.2	-46.2	14.7	7.00e-07	0	28	0	11534336	60	7357
2026-01-16 14:47:19.91	20.77	3.40	-42.5	-45.1	15.5	7.00e-07	6	28	0	13631488	58	7321
2026-01-16 14:47:20.92	20.78	3.47	-42.5	-45.1	15.6	0.00e+00	92	28	0	15728640	58	7268
2026-01-16 14:47:21.93	20.78	3.54	-42.5	-45.1	15.4	0.00e+00	0	28	0	16777216	58	7309
2026-01-16 14:47:22.94	20.78	3.60	-42.7	-45.4	15.2	0.00e+00	90	28	0	18874368	58	7533
2026-01-16 14:47:23.95	20.78	3.67	-43.0	-45.9	14.6	0.00e+00	37	28	0	20971520	58	8002
2026-01-16 14:47:24.96	20.79	3.74	-43.3	-46.4	14.0	0.00e+00	35	28	0	23068672	58	8517
2026-01-16 14:47:25.97	20.79	3.81	-44.0	-47.8	12.7	4.57e-05	27	28	0	25165824	60	8864
2026-01-16 14:47:26.98	20.79	3.88	-42.4	-44.9	15.5	2.74e-05	46	28	0	26214400	58	7107
2026-01-16 14:47:27.99	20.80	3.95	-42.3	-44.7	15.4	0.00e+00	92	28	0	28311552	56	7796
2026-01-16 14:47:29.00	20.80	4.02	-46.0	-55.4	4.2	2.70e-02	49	28	0	30408704	60	21308
2026-01-16 14:47:30.01	20.80	4.09	-43.9	-47.6	13.1	5.76e-01	92	28	104	30408704	60	8625
2026-01-16 14:47:31.02	20.80	4.16	-46.4	-60.3	3.6	5.30e-06	0	28	104	31457280	60	37386
2026-01-16 14:47:32.03	20.81	4.23	-44.5	-49.0	5.8	1.49e+00	0	28	104	31457280	60	10169
2026-01-16 14:47:33.03	20.81	4.29	-43.7	-47.1	13.7	9.10e-06	0	28	0	31457280	60	8152
2026-01-16 14:47:34.04	20.81	4.36	-44.1	-47.9	12.8	2.67e-05	0	28	0	33554432	60	8956
2026-01-16 14:47:35.05	20.82	4.43	-43.5	-46.7	14.2	3.80e-06	69	28	0	34603008	60	7825
2026-01-16 14:47:36.06	20.82	4.51	-42.7	-45.3	15.5	0.00e+00	50	28	0	36700160	60	6686
2026-01-16 14:47:37.07	20.82	4.58	-42.4	-44.9	16.0	0.00e+00	91	28	0	38797312	58	7103
2026-01-16 14:47:38.08	20.82	4.65	-42.2	-44.4	16.3	0.00e+00	0	28	0	40894464	58	6761
2026-01-16 14:47:39.10	20.83	4.72	-41.9	-44.0	16.9	0.00e+00	0	28	0	42991616	58	6442
2026-01-16 14:47:40.11	20.83	4.79	-41.9	-44.1	16.8	0.00e+00	0	28	0	44040192	58	6481
2026-01-16 14:47:41.12	20.83	4.86	-41.4	-43.3	17.6	0.00e+00	0	28	0	46137344	56	6663
2026-01-16 14:47:42.13	20.83	4.93	-41.2	-43.0	17.9	0.00e+00	0	28	0	48234496	56	6408
2026-01-16 14:47:43.13	20.84	5.00	-41.0	-42.7	18.1	0.00e+00	0	28	0	50331648	56	6238
2026-01-16 14:47:44.15	20.84	5.08	-40.8	-42.5	18.4	0.00e+00	92	28	0	52428800	56	6088
2026-01-16 14:47:45.16	20.84	5.15	-40.8	-42.5	18.4	0.00e+00	0	28	0	53477376	54	6779
2026-01-16 14:47:46.17	20.84	5.22	-41.0	-42.7	18.1	0.00e+00	92	28	0	55574528	54	6976
2026-01-16 14:47:47.18	20.85	5.29	-40.8	-42.5	18.4	0.00e+00	5	29	0	57671680	54	6824
2026-01-16 14:47:48.18	20.85	5.37	-40.8	-42.5	18.4	0.00e+00	38	28	0	59768832	54	6807
2026-01-16 14:47:49.20	20.85	5.44	-40.8	-42.5	18.5	0.00e+00	45	28	0	61865984	54	6772
2026-01-16 14:47:50.21	20.86	5.51	-40.4	-42.0	18.8	0.00e+00	38	29	0	62914560	54	6445
2026-01-16 14:47:51.21	20.86	5.58	-40.6	-42.3	18.7	0.00e+00	92	29	0	65011712	54	6616
2026-01-16 14:47:52.23	20.86	5.66	-40.6	-42.3	18.6	0.00e+00	44	29	0	67108864	54	6639
2026-01-16 14:47:53.23	20.86	5.73	-40.7	-42.4	18.6	0.00e+00	92	29	0	69206016	54	6711
2026-01-16 14:47:54.24	20.87	5.81	-40.4	-42.0	18.9	0.00e+00	43	29	0	71303168	54	6410
2026-01-16 14:47:55.25	20.87	5.88	-40.5	-42.1	18.8	0.00e+00	0	29	0	73400320	54	6523
2026-01-16 14:47:56.26	20.87	5.95	-40.5	-42.1	18.9	0.00e+00	0	29	0	74448896	54	6479
2026-01-16 14:47:57.27	20.87	6.03	-40.6	-42.2	18.6	0.00e+00	44	29	0	76546048	54	6593
2026-01-16 14:47:58.28	20.88	6.10	-40.5	-42.1	18.9	0.00e+00	92	29	0	78643200	54	6531
2026-01-16 14:47:59.29	20.88	6.18	-40.5	-42.0	18.9	0.00e+00	0	29	0	80740352	54	6464
2026-01-16 14:48:00.30	20.88	6.25	-40.4	-42.0	19.0	0.00e+00	92	29	0	82837504	54	6442
2026-01-16 14:48:01.31	20.88	6.33	-40.4	-42.0	18.9	0.00e+00	2	29	0	83886080	54	6444
2026-01-16 14:48:02.32	20.89	6.40	-40.4	-42.0	18.9	0.00e+00	30	28	0	85983232	54	6439
2026-01-16 14:48:03.33	20.89	6.48	-40.4	-41.9	19.1	0.00e+00	0	29	0	88080384	54	6359
2026-01-16 14:48:04.34	20.89	6.56	-40.3	-41.9	19.2	0.00e+00	0	29	0	90177536	54	6318
2026-01-16 14:48:05.35	20.89	6.63	-40.3	-41.8	19.1	0.00e+00	0	29	0	92274688	54	6306
2026-01-16 14:48:06.36	20.90	6.71	-40.4	-41.9	19.1	0.00e+00	0	29	0	93323264	54	6368
2026-01-16 14:48:07.37	20.90	6.79	-40.3	-41.8	19.3	0.00e+00	92	29	0	95420416	54	6272
2026-01-16 14:48:08.38	20.90	6.86	-40.3	-41.8	19.2	0.00e+00	41	29	0	97517568	54	6308
2026-01-16 14:48:09.39	20.90	6.94	-40.2	-41.8	19.4	0.00e+00	92	29	0	99614720	54	6247
2026-01-16 14:48:10.39	20.91	7.02	-40.2	-41.7	19.3	0.00e+00	0	29	0	101711872	54	6211
2026-01-16 14:48:11.41	20.91	7.10	-40.0	-41.5	19.6	0.00e+00	0	29	0	102760448	54	6048
2026-01-16 14:48:12.41	20.91	7.17	-40.2	-41.6	19.5	0.00e+00	43	29	0	104857600	54	6159
2026-01-16 14:48:13.42	20.91	7.25	-40.1	-41.5	19.6	0.00e+00	0	29	0	106954752	54	6076
2026-01-16 14:48:14.43	20.91	7.33	-40.1	-41.5	19.6	0.00e+00	91	29	0	109051904	54	6088
2026-01-16 14:48:15.45	20.92	7.41	-40.0	-41.5	19.7	0.00e+00	45	29	0	111149056	54	6047
2026-01-16 14:48:16.46	20.92	7.49	-39.9	-41.4	19.8	0.00e+00	90	29	0	112197632	54	5976
2026-01-16 14:48:17.46	20.92	7.57	-40.0	-41.4	19.7	0.00e+00	2	29	0	114294784	54	5997
2026-01-16 14:48:18.47	20.92	7.65	-40.0	-41.4	19.7	0.00e+00	2	29	0	116391936	54	5995
2026-01-16 14:48:19.48	20.93	7.73	-40.0	-41.4	19.7	0.00e+00	0	29	0	118489088	54	5997
2026-01-16 14:48:20.49	20.93	7.81	-40.0	-41.4	19.8	0.00e+00	0	29	0	120586240	54	5980
2026-01-16 14:48:21.50	20.93	7.89	-39.8	-41.2	19.9	0.00e+00	0	29	0	121634816	54	5874
2026-01-16 14:48:22.51	20.93	7.97	-39.8	-41.2	19.9	0.00e+00	0	29	0	123731968	54	5882
2026-01-16 14:48:23.53	20.94	8.05	-39.9	-41.3	19.8	0.00e+00	90	29	0	125829120	54	5944
2026-01-16 14:48:24.53	20.94	8.13	-39.8	-41.2	20.0	0.00e+00	39	29	0	127926272	54	5850
2026-01-16 14:48:25.54	20.94	8.21	-39.8	-41.2	19.9	0.00e+00	37	29	0	130023424	54	5854
2026-01-16 14:48:26.55	20.94	8.29	-39.9	-41.3	19.9	0.00e+00	0	29	0	131072000	54	5913
2026-01-16 14:48:27.56	20.94	8.37	-39.8	-41.2	20.0	0.00e+00	2	29	0	133169152	52	6582
2026-01-16 14:48:28.57	20.95	8.45	-39.7	-41.1	20.1	0.00e+00	0	29	0	135266304	52	6467
2026-01-16 14:48:29.58	20.95	8.54	-39.6	-41.0	20.2	0.00e+00	35	29	0	137363456	52	6404
2026-01-16 14:48:30.59	20.95	8.62	-39.8	-41.1	20.1	0.00e+00	92	29	0	139460608	52	6535
2026-01-16 14:48:31.60	20.95	8.70	-39.8	-41.1	20.2	0.00e+00	39	29	0	141557760	52	6519
2026-01-16 14:48:32.61	20.95	8.78	-39.6	-40.9	20.4	0.00e+00	91	29	0	142606336	52	6382
2026-01-16 14:48:33.62	20.96	8.87	-39.7	-41.1	20.2	0.00e+00	45	29	0	144703488	52	6493
2026-01-16 14:48:34.63	20.96	8.95	-39.5	-40.9	20.4	0.00e+00	0	29	0	146800640	52	6318
2026-01-16 14:48:35.64	20.96	9.04	-39.7	-41.0	20.3	0.00e+00	0	29	0	148897792	52	6415
2026-01-16 14:48:36.65	20.96	9.12	-39.5	-40.8	20.6	0.00e+00	47	29	0	150994944	52	6248
2026-01-16 14:48:37.65	20.97	9.20	-39.5	-40.8	20.5	0.00e+00	88	29	0	152043520	52	6258
2026-01-16 14:48:38.67	20.97	9.29	-39.5	-40.8	20.5	0.00e+00	6	29	0	154140672	52	6270
2026-01-16 14:48:39.68	20.97	9.37	-39.6	-40.9	20.5	0.00e+00	92	29	0	156237824	52	6327
2026-01-16 14:48:40.68	20.97	9.46	-39.5	-40.8	20.4	0.00e+00	0	29	0	158334976	52	6267
2026-01-16 14:48:41.69	20.97	9.54	-39.5	-40.8	20.6	0.00e+00	0	29	0	160432128	52	6257
2026-01-16 14:48:42.70	20.98	9.63	-39.3	-40.5	20.8	0.00e+00	7	29	0	161480704	52	6089
2026-01-16 14:48:43.71	20.98	9.72	-39.3	-40.5	20.8	0.00e+00	5	29	0	163577856	52	6099
2026-01-16 14:48:44.72	20.98	9.80	-39.3	-40.6	20.7	0.00e+00	0	29	0	165675008	52	6133
2026-01-16 14:48:45.73	20.98	9.89	-39.4	-40.7	20.6	0.00e+00	31	29	0	167772160	52	6185
2026-01-16 14:48:46.74	20.98	9.98	-39.4	-40.6	20.7	0.00e+00	92	29	0	169869312	52	6153
2026-01-16 14:48:47.75	20.99	10.06	-39.3	-40.5	20.8	0.00e+00	0	29	0	170917888	52	6081
2026-01-16 14:48:48.76	20.99	10.15	-39.2	-40.4	21.0	0.00e+00	91	29	0	173015040	52	5975
2026-01-16 14:48:49.77	20.99	10.24	-39.3	-40.6	20.7	0.00e+00	5	29	0	175112192	52	6113
2026-01-16 14:48:50.78	20.99	10.33	-39.4	-40.6	20.8	0.00e+00	39	29	0	177209344	52	6159
2026-01-16 14:48:51.79	20.99	10.42	-39.2	-40.5	20.9	0.00e+00	0	29	0	179306496	52	6034
2026-01-16 14:48:52.80	20.99	10.51	-39.1	-40.3	21.0	0.00e+00	33	29	0	180355072	52	5933
2026-01-16 14:48:53.81	21.00	10.60	-39.0	-40.2	21.1	0.00e+00	91	29	0	182452224	52	5884
2026-01-16 14:48:54.82	21.00	10.69	-39.1	-40.2	21.1	0.00e+00	38	29	0	184549376	52	5891
2026-01-16 14:48:55.83	21.00	10.78	-39.2	-40.5	20.9	0.00e+00	92	29	0	186646528	52	6034
2026-01-16 14:48:56.84	21.00	10.87	-39.0	-40.2	21.2	0.00e+00	48	29	0	188743680	52	5839
2026-01-16 14:48:57.85	21.00	10.96	-39.1	-40.3	20.9	0.00e+00	0	29	0	189792256	52	5960
2026-01-16 14:48:58.86	21.01	11.05	-39.2	-40.4	21.0	0.00e+00	54	29	0	191889408	52	5994
2026-01-16 14:48:59.86	21.01	11.14	-39.0	-40.1	21.2	0.00e+00	56	29	0	193986560	52	5827
2026-01-16 14:49:00.87	21.01	11.23	-39.0	-40.2	21.2	0.00e+00	89	29	0	196083712	52	5836
2026-01-16 14:49:01.88	21.01	11.32	-39.0	-40.1	21.2	0.00e+00	0	29	0	198180864	52	5818
2026-01-16 14:49:02.89	21.01	11.41	-38.9	-40.1	21.1	0.00e+00	92	29	0	199229440	52	5818
2026-01-16 14:49:03.91	21.01	11.51	-38.9	-40.1	21.3	0.00e+00	0	29	0	201326592	52	5769
2026-01-16 14:49:04.92	21.02	11.60	-38.9	-40.0	21.3	0.00e+00	0	29	0	203423744	52	5744
2026-01-16 14:49:05.93	21.02	11.69	-38.8	-40.0	21.4	0.00e+00	0	29	0	205520896	52	5733
2026-01-16 14:49:06.94	21.02	11.79	-38.9	-40.1	21.3	0.00e+00	0	29	0	207618048	52	5766
2026-01-16 14:49:07.95	21.02	11.88	-39.1	-40.3	21.0	0.00e+00	34	29	0	209715200	52	5926
2026-01-16 14:49:08.96	21.02	11.98	-39.1	-40.3	21.1	0.00e+00	0	29	0	210763776	52	5918
2026-01-16 14:49:09.97	21.02	12.07	-38.9	-40.1	21.3	0.00e+00	92	29	0	212860928	52	5787
2026-01-16 14:49:10.97	21.03	12.17	-38.8	-39.9	21.5	0.00e+00	40	29	0	214958080	52	5669
2026-01-16 14:49:11.98	21.03	12.26	-38.8	-40.0	21.5	0.00e+00	85	29	0	217055232	50	6414
2026-01-16 14:49:12.99	21.03	12.36	-38.7	-39.8	21.6	0.00e+00	40	29	0	219152384	50	6297
2026-01-16 14:49:14.00	21.03	12.45	-38.6	-39.7	21.7	0.00e+00	41	29	0	220200960	50	6201
2026-01-16 14:49:15.01	21.03	12.55	-38.6	-39.7	21.6	0.00e+00	0	29	0	222298112	50	6223
2026-01-16 14:49:16.02	21.03	12.65	-38.6	-39.7	21.7	0.00e+00	34	29	0	224395264	50	6204
2026-01-16 14:49:17.03	21.03	12.75	-38.7	-39.8	21.6	0.00e+00	92	29	0	226492416	50	6260
2026-01-16 14:49:18.04	21.04	12.84	-38.6	-39.8	21.7	0.00e+00	0	29	0	228589568	50	6251
2026-01-16 14:49:19.05	21.04	12.94	-38.6	-39.7	21.8	0.00e+00	91	29	0	229638144	50	6195
2026-01-16 14:49:20.06	21.04	13.04	-38.5	-39.6	21.8	0.00e+00	0	29	0	231735296	50	6156
2026-01-16 14:49:21.07	21.04	13.14	-38.5	-39.6	21.8	0.00e+00	40	29	0	233832448	50	6147
2026-01-16 14:49:22.08	21.04	13.24	-38.6	-39.8	21.6	0.00e+00	0	29	0	235929600	50	6251
2026-01-16 14:49:23.09	21.04	13.34	-38.7	-39.8	21.6	0.00e+00	0	29	0	238026752	50	6269
2026-01-16 14:49:24.10	21.04	13.44	-38.4	-39.5	21.9	0.00e+00	90	29	0	239075328	50	6061
2026-01-16 14:49:25.11	21.05	13.54	-38.4	-39.5	22.0	0.00e+00	0	29	0	241172480	50	6059
2026-01-16 14:49:26.12	21.05	13.64	-38.3	-39.4	22.0	0.00e+00	90	29	0	243269632	50	5997
2026-01-16 14:49:27.13	21.05	13.74	-38.4	-39.5	21.9	0.00e+00	0	29	0	245366784	50	6074
2026-01-16 14:49:28.14	21.05	13.85	-38.4	-39.5	21.9	0.00e+00	40	29	0	247463936	50	6055
2026-01-16 14:49:29.15	21.05	13.95	-38.5	-39.6	21.7	0.00e+00	41	29	0	248512512	50	6127
2026-01-16 14:49:30.16	21.05	14.05	-38.4	-39.4	21.9	0.00e+00	0	29	0	250609664	50	6021
2026-01-16 14:49:31.17	21.05	14.15	-38.3	-39.3	22.0	0.00e+00	92	29	0	252706816	50	5939
2026-01-16 14:49:32.18	21.05	14.26	-38.3	-39.4	22.0	0.00e+00	34	29	0	254803968	50	6007
2026-01-16 14:49:33.19	21.05	14.36	-38.3	-39.4	22.0	0.00e+00	92	29	0	256901120	50	6008
2026-01-16 14:49:34.20	21.06	14.47	-38.2	-39.2	22.1	0.00e+00	44	29	0	257949696	50	5895
2026-01-16 14:49:35.21	21.06	14.57	-38.2	-39.2	22.3	0.00e+00	91	29	0	260046848	50	5872
2026-01-16 14:49:36.22	21.06	14.68	-38.1	-39.2	22.3	0.00e+00	40	29	0	262144000	50	5856
2026-01-16 14:49:37.23	21.06	14.78	-38.2	-39.3	22.2	0.00e+00	40	29	0	264241152	50	5898
2026-01-16 14:49:38.24	21.06	14.89	-38.0	-39.0	22.4	0.00e+00	52	29	0	266338304	50	5754
2026-01-16 14:49:39.25	21.06	15.00	-38.0	-39.1	22.4	0.00e+00	0	29	0	267386880	50	5772
2026-01-16 14:49:40.26	21.06	15.11	-38.0	-39.0	22.4	0.00e+00	92	29	0	269484032	50	5755
2026-01-16 14:49:41.27	21.06	15.21	-38.0	-39.0	22.4	0.00e+00	0	29	0	271581184	50	5754
2026-01-16 14:49:42.28	21.06	15.32	-37.9	-38.9	22.4	0.00e+00	92	29	0	273678336	50	5691
2026-01-16 14:49:43.29	21.06	15.43	-37.9	-38.9	22.5	0.00e+00	0	29	0	275775488	50	5659
2026-01-16 14:49:44.30	21.07	15.54	-37.9	-38.9	22.6	0.00e+00	2	29	0	277872640	50	5656
2026-01-16 14:49:45.31	21.07	15.65	-37.9	-38.9	22.6	0.00e+00	0	29	0	278921216	50	5634
2026-01-16 14:49:46.32	21.07	15.76	-38.0	-39.1	22.4	0.00e+00	0	29	0	281018368	50	5767
2026-01-16 14:49:47.33	21.07	15.87	-37.8	-38.8	22.6	0.00e+00	92	29	0	283115520	50	5581
2026-01-16 14:49:48.34	21.07	15.98	-37.8	-38.8	22.6	0.00e+00	0	29	0	285212672	50	5567
2026-01-16 14:49:49.35	21.07	16.09	-37.8	-38.8	22.5	0.00e+00	92	29	0	287309824	48	6248
2026-01-16 14:49:50.36	21.07	16.21	-37.7	-38.7	22.7	0.00e+00	41	29	0	288358400	48	6203
2026-01-16 14:49:51.37	21.07	16.32	-37.6	-38.6	22.8	0.00e+00	38	29	0	290455552	48	6122
2026-01-16 14:49:52.38	21.07	16.43	-37.7	-38.7	22.8	0.00e+00	42	29	0	292552704	48	6182
2026-01-16 14:49:53.39	21.07	16.55	-37.5	-38.5	23.0	0.00e+00	41	29	0	294649856	48	6068
2026-01-16 14:49:54.40	21.07	16.66	-37.5	-38.5	22.9	0.00e+00	0	29	0	296747008	48	6065
2026-01-16 14:49:55.40	21.07	16.78	-37.6	-38.5	22.9	0.00e+00	0	29	0	297795584	48	6090
2026-01-16 14:49:56.41	21.07	16.89	-37.5	-38.4	23.0	0.00e+00	92	29	0	299892736	48	6020
2026-01-16 14:49:57.42	21.07	17.01	-37.6	-38.5	22.9	0.00e+00	0	29	0	301989888	48	6096
2026-01-16 14:49:58.43	21.07	17.13	-37.4	-38.3	23.1	0.00e+00	87	29	0	304087040	48	5960
2026-01-16 14:49:59.44	21.07	17.24	-37.4	-38.4	23.0	0.00e+00	2	29	0	306184192	48	6000
2026-01-16 14:50:00.45	21.08	17.36	-37.5	-38.4	23.0	0.00e+00	39	29	0	307232768	48	6020
2026-01-16 14:50:01.46	21.08	17.48	-37.3	-38.2	23.2	0.00e+00	39	29	0	309329920	48	5877
2026-01-16 14:50:02.47	21.08	17.60	-37.3	-38.3	23.1	0.00e+00	0	29	0	311427072	48	5902
2026-01-16 14:50:03.48	21.08	17.72	-37.4	-38.3	23.1	0.00e+00	92	29	0	313524224	48	5932
2026-01-16 14:50:04.49	21.08	17.84	-37.2	-38.2	23.2	0.00e+00	2	29	0	315621376	48	5833
2026-01-16 14:50:05.50	21.08	17.96	-37.2	-38.1	23.2	0.00e+00	90	29	0	316669952	48	5820
2026-01-16 14:50:06.51	21.08	18.08	-37.2	-38.1	23.3	0.00e+00	0	29	0	318767104	48	5816
2026-01-16 14:50:07.52	21.08	18.20	-37.3	-38.2	23.2	0.00e+00	0	30	0	320864256	48	5896
2026-01-16 14:50:08.53	21.08	18.32	-37.2	-38.2	23.2	0.00e+00	15	29	0	322961408	48	5830
2026-01-16 14:50:09.54	21.08	18.45	-37.1	-38.0	23.4	0.00e+00	0	29	0	325058560	48	5719
2026-01-16 14:50:10.55	21.08	18.57	-37.2	-38.1	23.2	0.00e+00	92	29	0	326107136	48	5803
2026-01-16 14:50:11.56	21.08	18.70	-37.1	-38.0	23.5	0.00e+00	0	29	0	328204288	48	5739
2026-01-16 14:50:12.57	21.08	18.82	-37.1	-38.0	23.3	0.00e+00	92	29	0	330301440	48	5740
2026-01-16 14:50:13.57	21.08	18.95	-37.1	-38.0	23.5	0.00e+00	46	30	0	332398592	48	5717
2026-01-16 14:50:14.58	21.08	19.07	-37.0	-37.9	23.5	0.00e+00	41	30	0	334495744	48	5690
2026-01-16 14:50:15.59	21.08	19.20	-37.0	-38.0	23.5	0.00e+00	41	30	0	335544320	48	5699
2026-01-16 14:50:16.60	21.08	19.33	-36.9	-37.8	23.5	0.00e+00	38	30	0	337641472	48	5618
2026-01-16 14:50:17.61	21.08	19.46	-37.0	-37.9	23.5	0.00e+00	0	30	0	339738624	48	5645
2026-01-16 14:50:18.62	21.08	19.58	-36.9	-37.8	23.6	0.00e+00	6	29	0	341835776	48	5596
2026-01-16 14:50:19.63	21.08	19.71	-36.9	-37.9	23.6	0.00e+00	92	30	0	343932928	48	5635
2026-01-16 14:50:20.64	21.08	19.84	-36.8	-37.7	23.7	0.00e+00	6	30	0	346030080	48	5535
2026-01-16 14:50:21.65	21.08	19.98	-36.9	-37.8	23.7	0.00e+00	92	30	0	347078656	48	5605
2026-01-16 14:50:22.66	21.08	20.11	-36.9	-37.8	23.6	0.00e+00	39	30	0	349175808	48	5599
2026-01-16 14:50:23.67	21.08	20.24	-36.9	-37.8	23.6	0.00e+00	41	30	0	351272960	48	5591
2026-01-16 14:50:24.68	21.08	20.37	-36.8	-37.7	23.8	0.00e+00	0	30	0	353370112	46	6195
2026-01-16 14:50:25.69	21.07	20.51	-36.8	-37.7	23.7	0.00e+00	6	29	0	355467264	46	6222
2026-01-16 14:50:26.70	21.07	20.64	-36.9	-37.8	23.5	0.00e+00	92	30	0	356515840	46	6313
2026-01-16 14:50:27.71	21.07	20.78	-36.8	-37.7	23.7	0.00e+00	5	30	0	358612992	46	6180
2026-01-16 14:50:28.72	21.07	20.91	-36.7	-37.6	23.8	0.00e+00	92	30	0	360710144	46	6164
2026-01-16 14:50:29.73	21.07	21.05	-36.7	-37.6	23.8	0.00e+00	0	30	0	362807296	46	6144
2026-01-16 14:50:30.74	21.07	21.19	-36.8	-37.7	23.7	0.00e+00	41	29	0	364904448	46	6185
2026-01-16 14:50:31.75	21.07	21.33	-36.7	-37.6	23.8	0.00e+00	30	30	0	365953024	46	6152
2026-01-16 14:50:32.76	21.07	21.46	-36.8	-37.7	23.6	0.00e+00	43	30	0	368050176	46	6232
2026-01-16 14:50:33.77	21.07	21.60	-36.7	-37.6	23.8	0.00e+00	72	30	0	370147328	46	6141
2026-01-16 14:50:34.78	21.07	21.74	-36.9	-37.8	23.6	0.00e+00	43	30	0	372244480	46	6247
2026-01-16 14:50:35.79	21.07	21.89	-36.7	-37.6	23.9	0.00e+00	92	30	0	374341632	46	6114
2026-01-16 14:50:36.80	21.07	22.03	-36.8	-37.7	23.7	0.00e+00	35	30	0	375390208	46	6220
2026-01-16 14:50:37.81	21.07	22.17	-36.6	-37.5	24.0	0.00e+00	54	30	0	377487360	46	6071
2026-01-16 14:50:38.82	21.06	22.32	-36.7	-37.6	23.9	0.00e+00	45	30	0	379584512	46	6146
2026-01-16 14:50:39.83	21.06	22.46	-36.6	-37.5	24.0	0.00e+00	46	30	0	381681664	46	6074
2026-01-16 14:50:40.84	21.06	22.61	-36.6	-37.5	23.9	0.00e+00	20	30	0	383778816	46	6062
2026-01-16 14:50:41.85	21.06	22.75	-36.8	-37.6	23.9	0.00e+00	0	30	0	384827392	46	6164
2026-01-16 14:50:42.86	21.06	22.90	-36.8	-37.6	23.8	0.00e+00	90	30	0	386924544	46	6166
2026-01-16 14:50:43.87	21.06	23.05	-36.8	-37.6	23.8	0.00e+00	53	30	0	389021696	46	6173
2026-01-16 14:50:44.88	21.06	23.20	-37.0	-37.9	23.7	0.00e+00	39	30	0	391118848	46	6340
2026-01-16 14:50:45.89	21.06	23.35	-36.6	-37.5	24.0	0.00e+00	0	30	0	393216000	46	6071
2026-01-16 14:50:46.90	21.05	23.50	-36.8	-37.7	23.9	0.00e+00	6	30	0	394264576	46	6187
2026-01-16 14:50:47.91	21.05	23.65	-36.8	-37.7	23.8	0.00e+00	4	30	0	396361728	46	6193
2026-01-16 14:50:48.92	21.05	23.80	-36.9	-37.8	23.7	0.00e+00	6	30	0	398458880	46	6297
2026-01-16 14:50:49.93	21.05	23.95	-37.2	-38.1	23.3	0.00e+00	92	30	0	400556032	46	6471
2026-01-16 14:50:50.94	21.05	24.11	-37.3	-38.2	23.4	0.00e+00	36	30	0	402653184	46	6553
2026-01-16 14:50:51.95	21.05	24.26	-37.0	-37.9	23.6	0.00e+00	82	30	0	403701760	46	6347
2026-01-16 14:50:52.96	21.05	24.42	-36.9	-37.7	23.8	0.00e+00	40	30	0	405798912	46	6231
2026-01-16 14:50:53.97	21.04	24.58	-36.7	-37.5	23.9	0.00e+00	38	30	0	407896064	46	6103
2026-01-16 14:50:54.98	21.04	24.73	-36.8	-37.6	23.5	0.00e+00	38	30	0	409993216	46	6167
2026-01-16 14:50:55.98	21.04	24.89	-36.8	-37.7	23.8	0.00e+00	42	30	0	412090368	46	6183
2026-01-16 14:50:57.00	21.04	25.05	-36.8	-37.6	23.9	0.00e+00	92	30	0	414187520	46	6144
2026-01-16 14:50:58.01	21.04	25.21	-36.9	-37.8	23.7	0.00e+00	42	30	0	415236096	46	6264
2026-01-16 14:50:59.02	21.03	25.37	-37.1	-38.0	23.5	0.00e+00	92	30	0	417333248	46	6419
2026-01-16 14:51:00.02	21.03	25.54	-37.1	-38.0	23.6	0.00e+00	43	30	0	419430400	46	6432
2026-01-16 14:51:01.03	21.03	25.70	-37.1	-38.0	23.5	0.00e+00	46	30	0	421527552	46	6446
2026-01-16 14:51:02.04	21.03	25.86	-37.1	-38.0	23.6	0.00e+00	36	30	0	423624704	46	6403
2026-01-16 14:51:03.06	21.02	26.03	-37.2	-38.1	23.5	0.00e+00	0	30	0	424673280	46	6483
2026-01-16 14:51:04.07	21.02	26.20	-37.3	-38.2	23.3	0.00e+00	72	30	0	426770432	46	6571
2026-01-16 14:51:05.08	21.02	26.37	-37.2	-38.1	23.5	0.00e+00	0	30	0	428867584	46	6527
2026-01-16 14:51:06.09	21.02	26.54	-37.4	-38.3	23.3	0.00e+00	92	30	0	430964736	46	6677
2026-01-16 14:51:07.10	21.01	26.71	-37.6	-38.5	23.1	0.00e+00	0	30	0	433061888	46	6816
2026-01-16 14:51:08.11	21.01	26.88	-37.7	-38.7	22.9	0.00e+00	89	30	0	434110464	46	6952
2026-01-16 14:51:09.12	21.01	27.05	-37.7	-38.6	23.0	0.00e+00	0	30	0	436207616	48	6161
2026-01-16 14:51:10.13	21.01	27.22	-37.8	-38.8	22.8	0.00e+00	38	30	0	438304768	48	6257
2026-01-16 14:51:11.14	21.00	27.40	-37.9	-38.9	22.8	0.00e+00	0	30	0	440401920	48	6356
2026-01-16 14:51:12.15	21.00	27.57	-38.1	-39.1	22.6	0.00e+00	0	30	0	442499072	48	6487
2026-01-16 14:51:13.16	21.00	27.75	-38.3	-39.3	22.4	0.00e+00	92	30	0	443547648	48	6683
2026-01-16 14:51:14.17	20.99	27.93	-38.4	-39.4	22.2	0.00e+00	43	30	0	445644800	48	6749
2026-01-16 14:51:15.18	20.99	28.11	-38.7	-39.8	21.9	0.00e+00	92	30	0	447741952	48	7056
2026-01-16 14:51:16.18	20.99	28.28	-38.8	-39.9	21.9	0.00e+00	43	30	0	449839104	50	6354
2026-01-16 14:51:17.19	20.98	28.46	-39.1	-40.2	21.6	0.00e+00	44	30	0	451936256	50	6560
2026-01-16 14:51:18.20	20.98	28.65	-39.4	-40.6	21.2	0.00e+00	39	30	0	452984832	50	6892
2026-01-16 14:51:19.21	20.98	28.83	-39.5	-40.7	21.2	0.00e+00	39	30	0	455081984	50	6964
2026-01-16 14:51:20.22	20.97	29.02	-39.6	-40.8	21.0	0.00e+00	90	30	0	457179136	50	7029
2026-01-16 14:51:21.23	20.97	29.20	-39.8	-41.0	20.8	0.00e+00	39	30	0	459276288	52	6439
2026-01-16 14:51:22.24	20.96	29.39	-39.9	-41.2	20.7	0.00e+00	90	30	0	461373440	52	6559
2026-01-16 14:51:23.25	20.96	29.58	-40.1	-41.4	20.5	0.00e+00	0	30	0	462422016	52	6739
2026-01-16 14:51:24.26	20.96	29.77	-40.3	-41.7	20.2	0.00e+00	6	30	0	464519168	52	6940
2026-01-16 14:51:25.27	20.95	29.96	-40.3	-41.6	20.2	0.00e+00	2	30	0	466616320	52	6886
2026-01-16 14:51:26.28	20.95	30.15	-40.6	-42.0	19.9	0.00e+00	0	30	0	468713472	52	7188
2026-01-16 14:51:27.29	20.94	30.35	-40.5	-41.9	20.1	0.00e+00	19	30	0	470810624	52	7109
2026-01-16 14:51:28.30	20.94	30.54	-40.5	-41.8	20.1	0.00e+00	0	30	0	471859200	52	7052
2026-01-16 14:51:29.31	20.93	30.74	-40.7	-42.0	20.0	0.00e+00	92	30	0	473956352	52	7251
2026-01-16 14:51:30.32	20.93	30.93	-40.5	-41.8	20.1	0.00e+00	0	30	0	476053504	52	7049
2026-01-16 14:51:31.33	20.92	31.13	-40.4	-41.8	20.2	0.00e+00	0	30	0	478150656	52	7040
2026-01-16 14:51:32.34	20.92	31.33	-40.1	-41.3	20.6	0.00e+00	0	30	0	480247808	52	6690
2026-01-16 14:51:33.35	20.91	31.54	-40.0	-41.3	20.6	0.00e+00	0	30	0	482344960	52	6668
2026-01-16 14:51:34.36	20.91	31.74	-40.1	-41.3	20.6	0.00e+00	0	30	0	483393536	52	6684
2026-01-16 14:51:35.37	20.90	31.94	-39.9	-41.2	20.7	0.00e+00	0	30	0	485490688	52	6565
2026-01-16 14:51:36.38	20.90	32.15	-39.8	-41.1	20.9	0.00e+00	92	30	0	487587840	52	6465
2026-01-16 14:51:37.39	20.89	32.36	-39.7	-41.0	21.0	0.00e+00	37	30	0	489684992	52	6396
2026-01-16 14:51:38.40	20.89	32.57	-39.6	-40.8	21.0	0.00e+00	92	30	0	491782144	52	6315
2026-01-16 14:51:39.41	20.88	32.78	-39.6	-40.8	21.2	0.00e+00	0	30	0	492830720	52	6260
2026-01-16 14:51:40.42	20.88	32.99	-39.3	-40.4	21.4	0.00e+00	44	30	0	494927872	52	6024
2026-01-16 14:51:41.42	20.87	33.20	-39.4	-40.5	21.4	0.00e+00	0	30	0	497025024	52	6099
2026-01-16 14:51:42.43	20.86	33.41	-39.3	-40.5	21.5	0.00e+00	34	30	0	499122176	52	6069
2026-01-16 14:51:43.44	20.86	33.63	-39.2	-40.3	21.6	0.00e+00	91	30	0	501219328	52	5928
2026-01-16 14:51:44.46	20.85	33.85	-39.0	-40.2	21.7	0.00e+00	0	30	0	502267904	52	5853
2026-01-16 14:51:45.47	20.84	34.07	-38.5	-39.5	22.3	0.00e+00	92	30	0	504365056	50	6099
2026-01-16 14:51:46.48	20.84	34.29	-38.0	-39.1	22.7	0.00e+00	0	30	0	506462208	50	5772
2026-01-16 14:51:47.49	20.83	34.51	-37.6	-38.6	22.9	0.00e+00	0	30	0	508559360	48	6139
2026-01-16 14:51:48.50	20.82	34.74	-37.4	-38.3	23.2	0.00e+00	0	30	0	510656512	48	5927
2026-01-16 14:51:49.51	20.82	34.97	-37.1	-38.0	23.6	0.00e+00	0	30	0	511705088	48	5723
2026-01-16 14:51:50.52	20.81	35.19	-36.8	-37.7	23.9	0.00e+00	2	30	0	513802240	48	5539
2026-01-16 14:51:51.53	20.80	35.42	-36.5	-37.4	24.1	0.00e+00	44	30	0	515899392	46	5995
2026-01-16 14:51:52.54	20.79	35.65	-36.4	-37.3	24.2	0.00e+00	92	30	0	517996544	46	5905
2026-01-16 14:51:53.55	20.79	35.89	-36.2	-37.0	24.5	0.00e+00	43	30	0	520093696	46	5739
2026-01-16 14:51:54.56	20.78	36.12	-36.2	-37.0	24.6	0.00e+00	74	30	0	521142272	46	5721
2026-01-16 14:51:55.57	20.77	36.36	-35.9	-36.7	24.8	0.00e+00	0	30	0	523239424	46	5563
2026-01-16 14:51:56.58	20.76	36.59	-35.9	-36.7	24.8	0.00e+00	38	30	0	525336576	46	5560
2026-01-16 14:51:57.59	20.75	36.83	-35.9	-36.7	24.7	0.00e+00	0	30	0	527433728	46	5540
2026-01-16 14:51:58.60	20.74	37.07	-36.0	-36.8	24.7	0.00e+00	44	30	0	529530880	46	5585
2026-01-16 14:51:59.61	20.74	37.32	-36.0	-36.8	24.7	0.00e+00	91	30	0	530579456	46	5608
2026-01-16 14:52:00.62	20.73	37.56	-36.0	-36.8	24.7	0.00e+00	39	30	0	532676608	46	5586
2026-01-16 14:52:01.63	20.72	37.81	-35.9	-36.7	24.7	0.00e+00	91	30	0	534773760	46	5510
2026-01-16 14:52:02.64	20.71	38.06	-35.7	-36.5	24.9	0.00e+00	0	30	0	536870912	44	6081
2026-01-16 14:52:03.65	20.70	38.31	-35.8	-36.6	24.8	0.00e+00	5	30	0	538968064	44	6152
2026-01-16 14:52:04.66	20.69	38.56	-35.8	-36.6	24.5	0.00e+00	6	30	0	540016640	44	6152
2026-01-16 14:52:05.67	20.68	38.81	-35.9	-36.7	24.4	0.00e+00	42	30	0	542113792	44	6215
2026-01-16 14:52:06.68	20.67	39.07	-36.0	-36.8	24.6	0.00e+00	92	30	0	544210944	44	6304
2026-01-16 14:52:07.69	20.66	39.33	-36.0	-36.8	24.8	0.00e+00	5	30	0	546308096	44	6281
2026-01-16 14:52:08.70	20.65	39.59	-35.8	-36.7	24.7	0.00e+00	90	30	0	548405248	44	6180
2026-01-16 14:52:09.70	20.63	39.85	-35.8	-36.7	24.8	0.00e+00	7	30	0	550502400	44	6180
2026-01-16 14:52:10.72	20.62	40.11	-35.8	-36.6	24.8	0.00e+00	6	30	0	551550976	44	6153
2026-01-16 14:52:11.73	20.61	40.38	-35.6	-36.4	25.0	0.00e+00	0	30	0	553648128	44	5984
2026-01-16 14:52:12.73	20.60	40.64	-35.3	-36.1	25.2	0.00e+00	0	30	0	555745280	44	5807
2026-01-16 14:52:13.74	20.59	40.91	-35.3	-36.1	25.1	0.00e+00	50	30	0	557842432	44	5798
2026-01-16 14:52:14.75	20.58	41.19	-35.6	-36.4	24.9	0.00e+00	45	30	0	559939584	44	6032
2026-01-16 14:52:15.77	20.56	41.46	-35.6	-36.4	24.8	0.00e+00	91	30	0	560988160	44	6012
2026-01-16 14:52:16.78	20.55	41.74	-35.8	-36.6	24.8	0.00e+00	39	30	0	563085312	44	6172
2026-01-16 14:52:17.78	20.54	42.01	-35.9	-36.7	24.7	0.00e+00	91	30	0	565182464	44	6203
2026-01-16 14:52:18.80	20.52	42.30	-35.8	-36.6	24.6	0.00e+00	43	30	0	567279616	44	6173
2026-01-16 14:52:19.81	20.51	42.58	-35.8	-36.7	24.6	0.00e+00	41	30	0	569376768	44	6176
2026-01-16 14:52:20.82	20.50	42.86	-35.9	-36.7	24.8	0.00e+00	61	30	0	570425344	44	6214
2026-01-16 14:52:21.83	20.48	43.15	-35.8	-36.6	24.9	0.00e+00	41	30	0	572522496	44	6133
2026-01-16 14:52:22.84	20.47	43.44	-35.8	-36.6	24.8	0.00e+00	92	30	0	574619648	44	6138
2026-01-16 14:52:23.85	20.45	43.73	-36.0	-36.8	24.7	0.00e+00	42	30	0	576716800	44	6300
2026-01-16 14:52:24.85	20.44	44.02	-36.3	-37.2	24.4	0.00e+00	91	30	0	578813952	44	6548
2026-01-16 14:52:25.86	20.42	44.32	-36.9	-37.8	23.9	0.00e+00	6	30	0	579862528	46	6249
2026-01-16 14:52:26.87	20.40	44.62	-37.4	-38.3	23.5	0.00e+00	41	30	0	581959680	46	6659
2026-01-16 14:52:27.88	20.39	44.92	-37.9	-38.9	22.9	0.00e+00	0	30	0	584056832	48	6335
2026-01-16 14:52:28.89	20.37	45.22	-38.3	-39.4	22.5	0.00e+00	6	30	0	586153984	48	6704
2026-01-16 14:52:29.90	20.35	45.52	-38.4	-39.5	22.4	0.00e+00	91	30	0	588251136	48	6770
2026-01-16 14:52:30.91	20.33	45.83	-38.9	-40.0	21.4	0.00e+00	0	30	0	589299712	50	6439
2026-01-16 14:52:31.92	20.32	46.14	-38.9	-40.0	21.9	0.00e+00	92	30	0	591396864	50	6425
2026-01-16 14:52:32.93	20.30	46.45	-38.8	-39.9	22.0	0.00e+00	41	30	0	593494016	50	6366
2026-01-16 14:52:33.94	20.28	46.76	-38.9	-39.9	21.9	0.00e+00	39	30	0	595591168	50	6387
2026-01-16 14:52:34.95	20.26	47.08	-38.9	-40.0	21.9	0.00e+00	0	30	0	597688320	50	6422
2026-01-16 14:52:35.96	20.24	47.40	-38.8	-39.9	22.1	0.00e+00	0	30	0	598736896	50	6323
2026-01-16 14:52:36.97	20.22	47.72	-38.8	-39.9	21.9	0.00e+00	7	30	0	600834048	50	6364
2026-01-16 14:52:37.98	20.20	48.04	-39.2	-40.3	21.6	0.00e+00	47	30	0	602931200	50	6654
2026-01-16 14:52:38.99	20.18	48.37	-38.9	-40.0	21.9	0.00e+00	92	30	0	605028352	50	6441
2026-01-16 14:52:40.00	20.15	48.70	-38.9	-40.0	22.0	0.00e+00	45	30	0	607125504	50	6412
2026-01-16 14:52:41.01	20.13	49.03	-39.0	-40.1	21.7	0.00e+00	92	30	0	608174080	50	6519
2026-01-16 14:52:42.02	20.11	49.36	-39.0	-40.1	21.9	0.00e+00	47	30	0	610271232	50	6498
2026-01-16 14:52:43.03	20.08	49.70	-39.0	-40.1	21.9	0.00e+00	0	30	0	612368384	50	6481
2026-01-16 14:52:44.04	20.06	50.04	-38.8	-39.8	22.0	0.00e+00	0	30	0	614465536	50	6295
2026-01-16 14:52:45.05	20.03	50.38	-38.5	-39.6	22.3	0.00e+00	36	30	0	616562688	50	6126
2026-01-16 14:52:46.06	20.01	50.72	-38.4	-39.5	22.4	0.00e+00	92	30	0	618659840	50	6059
2026-01-16 14:52:47.07	19.98	51.07	-37.5	-38.5	23.3	0.00e+00	0	30	0	619708416	48	6049
2026-01-16 14:52:48.08	19.95	51.42	-37.0	-37.9	23.8	0.00e+00	92	30	0	621805568	48	5640
2026-01-16 14:52:49.08	19.93	51.77	-36.2	-37.0	24.5	0.00e+00	0	30	0	623902720	46	5755
2026-01-16 14:52:50.09	19.90	52.12	-35.6	-36.4	25.1	0.00e+00	0	30	0	625999872	44	5978
2026-01-16 14:52:51.10	19.87	52.48	-35.3	-36.0	25.4	0.00e+00	0	30	0	628097024	44	5754
2026-01-16 14:52:52.11	19.84	52.84	-35.2	-36.0	25.4	0.00e+00	0	30	0	629145600	44	5712
2026-01-16 14:52:53.12	19.81	53.20	-34.9	-35.7	25.6	0.00e+00	90	30	0	631242752	44	5531
2026-01-16 14:52:54.13	19.77	53.56	-35.0	-35.7	25.5	0.00e+00	0	30	0	633339904	44	5557
2026-01-16 14:52:55.14	19.74	53.93	-34.8	-35.5	24.6	0.00e+00	90	30	0	635437056	44	5417
2026-01-16 14:52:56.15	19.71	54.30	-34.9	-35.6	25.6	0.00e+00	0	30	0	637534208	42	6152
2026-01-16 14:52:57.16	19.67	54.67	-34.7	-35.4	25.8	0.00e+00	45	30	0	638582784	42	6021
2026-01-16 14:52:58.17	19.63	55.05	-34.7	-35.5	25.7	0.00e+00	0	30	0	640679936	42	6053
2026-01-16 14:52:59.18	19.60	55.42	-35.3	-36.1	25.1	0.00e+00	0	30	0	642777088	42	6477
2026-01-16 14:53:00.19	19.56	55.80	-35.8	-36.6	24.8	0.00e+00	0	30	0	644874240	44	6120
2026-01-16 14:53:01.20	19.52	56.19	-36.7	-37.6	23.9	0.00e+00	41	30	0	646971392	44	6856
2026-01-16 14:53:02.21	19.48	56.57	-37.5	-38.5	23.2	0.00e+00	90	30	0	648019968	46	6790
2026-01-16 14:53:03.22	19.44	56.96	-38.4	-39.5	22.4	0.00e+00	40	30	0	650117120	48	6771
2026-01-16 14:53:04.23	19.39	57.35	-39.1	-40.2	21.6	0.00e+00	24	30	0	652214272	50	6573
2026-01-16 14:53:05.23	19.35	57.74	-38.9	-40.0	21.8	0.00e+00	41	30	0	654311424	50	6455
2026-01-16 14:53:06.24	19.30	58.14	-38.6	-39.7	22.2	0.00e+00	0	30	0	656408576	50	6181
2026-01-16 14:53:07.25	19.26	58.54	-38.5	-39.5	22.5	0.00e+00	0	30	0	657457152	50	6046
2026-01-16 14:53:08.26	19.21	58.94	-38.3	-39.3	22.6	0.00e+00	0	30	0	659554304	50	5903
2026-01-16 14:53:09.27	19.16	59.34	-37.9	-38.8	23.0	0.00e+00	90	30	0	661651456	50	5608
2026-01-16 14:53:10.28	19.10	59.75	-37.6	-38.5	23.2	0.00e+00	0	30	0	663748608	48	6084
2026-01-16 14:53:11.29	19.05	60.16	-37.1	-38.0	23.7	0.00e+00	92	30	0	665845760	48	5747
2026-01-16 14:53:12.30	18.99	60.57	-36.8	-37.7	23.9	0.00e+00	2	30	0	666894336	48	5507
2026-01-16 14:53:13.31	18.94	60.99	-36.3	-37.2	24.4	0.00e+00	0	30	0	668991488	46	5832
2026-01-16 14:53:14.32	18.87	61.41	-35.9	-36.7	24.8	0.00e+00	0	30	0	671088640	46	5550
2026-01-16 14:53:15.33	18.81	61.83	-35.9	-36.7	24.8	0.00e+00	0	30	0	673185792	46	5544
2026-01-16 14:53:16.34	18.75	62.25	-35.0	-35.8	25.5	0.00e+00	91	30	0	675282944	44	5576
2026-01-16 14:53:17.35	18.68	62.67	-34.5	-35.2	25.9	0.00e+00	0	30	0	676331520	42	5871
2026-01-16 14:53:18.36	18.61	63.10	-34.4	-35.2	26.0	0.00e+00	91	30	0	678428672	42	5840
2026-01-16 14:53:19.37	18.54	63.53	-34.5	-35.2	26.0	0.00e+00	47	30	0	680525824	42	5894
2026-01-16 14:53:20.38	18.46	63.97	-35.0	-35.8	25.3	0.00e+00	46	30	0	682622976	42	6281
2026-01-16 14:53:21.39	18.38	64.40	-35.5	-36.2	25.1	0.00e+00	46	30	0	684720128	42	6607
2026-01-16 14:53:22.40	18.30	64.84	-36.1	-36.9	24.6	0.00e+00	0	30	0	686817280	44	6356
2026-01-16 14:53:23.41	18.22	65.28	-36.7	-37.6	23.9	0.00e+00	0	30	0	687865856	44	6885
2026-01-16 14:53:24.42	18.13	65.73	-37.4	-38.3	23.4	0.00e+00	33	30	0	689963008	46	6663
2026-01-16 14:53:25.43	18.04	66.17	-37.8	-38.8	22.9	0.00e+00	91	30	0	692060160	46	7053
2026-01-16 14:53:26.44	17.94	66.62	-38.1	-39.1	22.5	0.00e+00	34	30	0	694157312	48	6492
2026-01-16 14:53:27.45	17.84	67.07	-38.3	-39.4	22.4	0.00e+00	91	30	0	696254464	48	6700
2026-01-16 14:53:28.46	17.73	67.52	-38.4	-39.4	22.3	0.00e+00	38	30	0	697303040	48	6726
2026-01-16 14:53:29.47	17.62	67.98	-38.5	-39.6	22.2	0.00e+00	44	30	0	699400192	48	6888
2026-01-16 14:53:30.48	17.51	68.44	-38.7	-39.8	22.0	0.00e+00	0	30	0	701497344	48	7019
2026-01-16 14:53:31.48	17.39	68.89	-39.2	-40.3	21.5	0.00e+00	0	30	0	703594496	50	6667
2026-01-16 14:53:32.49	17.26	69.35	-39.2	-40.4	21.6	0.00e+00	92	30	0	705691648	50	6708
2026-01-16 14:53:33.50	17.13	69.82	-39.1	-40.2	21.6	0.00e+00	0	30	0	706740224	50	6601
2026-01-16 14:53:34.51	16.99	70.29	-38.9	-39.9	22.0	0.00e+00	91	30	0	708837376	50	6377
2026-01-16 14:53:35.52	16.84	70.75	-38.7	-39.8	22.0	0.00e+00	0	30	0	710934528	50	6283
2026-01-16 14:53:36.53	16.68	71.22	-38.6	-39.6	22.2	0.00e+00	47	30	0	713031680	50	6141
2026-01-16 14:53:37.54	16.52	71.70	-38.4	-39.4	22.4	0.00e+00	38	30	0	715128832	50	6012
2026-01-16 14:53:38.55	16.34	72.17	-38.5	-39.5	22.2	0.00e+00	0	30	0	716177408	50	6054
2026-01-16 14:53:39.56	16.16	72.65	-39.2	-40.3	21.6	0.00e+00	30	30	0	718274560	50	6646
2026-01-16 14:53:40.57	15.96	73.13	-39.9	-41.1	20.7	0.00e+00	46	30	0	720371712	52	6518
2026-01-16 14:53:41.58	15.75	73.61	-40.1	-41.4	20.4	0.00e+00	92	30	0	722468864	52	6732
2026-01-16 14:53:42.59	15.53	74.09	-40.5	-41.8	19.9	0.00e+00	39	30	0	724566016	52	7057
2026-01-16 14:53:43.60	15.29	74.57	-40.8	-42.3	19.6	0.00e+00	36	30	0	725614592	54	6638
2026-01-16 14:53:44.61	15.04	75.06	-40.6	-42.0	19.9	0.00e+00	46	30	0	727711744	54	6425
2026-01-16 14:53:45.62	14.77	75.55	-40.7	-42.1	19.8	0.00e+00	44	30	0	729808896	54	6524
2026-01-16 14:53:46.63	14.48	76.03	-40.8	-42.3	19.7	0.00e+00	0	30	0	731906048	54	6665
2026-01-16 14:53:47.64	14.16	76.52	-40.8	-42.3	19.6	0.00e+00	0	30	0	734003200	54	6655
2026-01-16 14:53:48.65	13.83	77.01	-40.2	-41.6	20.3	0.00e+00	92	30	0	735051776	54	6111
2026-01-16 14:53:49.66	13.46	77.51	-40.9	-42.5	19.6	0.00e+00	6	30	0	737148928	54	6776
2026-01-16 14:53:50.67	13.06	78.00	-41.1	-42.7	19.3	0.00e+00	92	30	0	739246080	54	6939
2026-01-16 14:53:51.68	12.63	78.49	-40.9	-42.4	19.6	0.00e+00	6	30	0	741343232	54	6701
2026-01-16 14:53:52.69	12.16	78.99	-40.2	-41.5	20.3	0.00e+00	0	30	0	743440384	54	6083
2026-01-16 14:53:53.70	11.64	79.48	-38.5	-39.6	22.4	0.00e+00	0	30	0	744488960	52	5448
2026-01-16 14:53:54.71	11.07	79.98	-37.4	-38.3	23.4	0.00e+00	5	30	0	746586112	48	5912
2026-01-16 14:53:55.72	10.44	80.47	-37.2	-38.1	23.6	0.00e+00	91	30	0	748683264	48	5785
2026-01-16 14:53:56.73	9.74	80.97	-37.5	-38.4	23.3	0.00e+00	0	30	0	750780416	48	6021
2026-01-16 14:53:57.74	8.95	81.47	-38.6	-39.6	22.1	0.00e+00	92	30	0	752877568	48	6919
2026-01-16 14:53:58.74	8.08	81.95	-40.2	-41.4	20.5	0.00e+00	0	30	0	754974720	52	6765
2026-01-16 14:53:59.75	7.08	82.45	-40.4	-41.7	20.3	0.00e+00	0	30	0	756023296	54	6234
2026-01-16 14:54:00.76	5.94	82.94	-39.4	-40.5	21.4	0.00e+00	41	30	0	758120448	52	6082
2026-01-16 14:54:01.77	4.62	83.43	-38.9	-40.0	22.0	0.00e+00	6	30	0	760217600	52	5748
2026-01-16 14:54:02.78	3.10	83.92	-37.2	-38.1	23.5	0.00e+00	56	30	0	762314752	48	5808
2026-01-16 14:54:03.79	1.30	84.40	-35.8	-36.6	24.3	0.00e+00	39	30	0	764411904	46	5487
2026-01-16 14:54:04.80	359.17	84.87	-34.4	-35.1	26.0	0.00e+00	92	30	0	765460480	42	5776
2026-01-16 14:54:05.81	356.61	85.34	-34.3	-35.0	26.1	0.00e+00	45	31	0	767557632	42	5730
2026-01-16 14:54:06.82	353.47	85.80	-34.7	-35.5	25.8	0.00e+00	92	30	0	769654784	42	6037
2026-01-16 14:54:07.83	349.58	86.24	-35.2	-36.0	25.3	0.00e+00	4	30	0	771751936	42	6407
2026-01-16 14:54:08.84	344.68	86.66	-35.5	-36.3	25.2	0.00e+00	40	30	0	773849088	42	6681
2026-01-16 14:54:09.85	338.42	87.05	-35.8	-36.6	24.9	0.00e+00	5	30	0	774897664	44	6113
2026-01-16 14:54:10.86	330.39	87.39	-36.1	-37.0	24.5	0.00e+00	39	30	0	776994816	44	6392
2026-01-16 14:54:11.87	320.18	87.67	-36.1	-37.0	24.5	0.00e+00	91	30	0	779091968	44	6419
2026-01-16 14:54:12.88	307.72	87.86	-36.0	-36.8	24.7	0.00e+00	0	30	0	781189120	44	6279
2026-01-16 14:54:13.89	293.67	87.93	-35.8	-36.6	24.9	0.00e+00	91	30	0	783286272	44	6117
2026-01-16 14:54:14.90	279.54	87.87	-35.7	-36.5	25.0	0.00e+00	0	30	0	784334848	44	6091
2026-01-16 14:54:15.91	266.87	87.70	-36.1	-36.9	24.6	0.00e+00	6	30	0	786432000	44	6381
2026-01-16 14:54:16.92	256.43	87.43	-36.9	-37.8	23.4	0.00e+00	0	30	0	788529152	46	6254
2026-01-16 14:54:17.93	248.20	87.09	-37.8	-38.8	22.9	0.00e+00	0	31	0	790626304	48	6275
2026-01-16 14:54:18.94	241.79	86.70	-38.0	-39.0	22.8	0.00e+00	90	31	0	792723456	48	6435
2026-01-16 14:54:19.95	236.77	86.28	-37.1	-38.0	23.6	0.00e+00	45	31	0	793772032	48	5760
2026-01-16 14:54:20.96	232.79	85.84	-36.6	-37.4	24.3	0.00e+00	92	31	0	795869184	46	6032
2026-01-16 14:54:21.97	229.59	85.39	-35.9	-36.7	24.9	0.00e+00	45	30	0	797966336	46	5522
2026-01-16 14:54:22.98	226.97	84.92	-36.1	-36.9	24.7	0.00e+00	46	30	0	800063488	46	5654
2026-01-16 14:54:23.99	224.80	84.44	-35.9	-36.7	24.7	0.00e+00	37	30	0	802160640	46	5554
2026-01-16 14:54:25.01	222.96	83.96	-36.2	-37.0	24.6	0.00e+00	47	31	0	803209216	46	5727
2026-01-16 14:54:26.01	221.43	83.48	-36.7	-37.6	24.0	0.00e+00	90	31	0	805306368	46	6110
2026-01-16 14:54:27.02	220.10	82.99	-37.0	-37.9	24.0	0.00e+00	36	30	0	807403520	46	6351
2026-01-16 14:54:28.03	218.94	82.49	-37.2	-38.1	23.6	0.00e+00	90	30	0	809500672	46	6498
2026-01-16 14:54:29.04	217.93	82.00	-37.5	-38.4	23.3	0.00e+00	0	31	0	811597824	46	6717
2026-01-16 14:54:30.05	217.03	81.51	-37.3	-38.2	23.6	0.00e+00	59	31	0	812646400	48	5855
2026-01-16 14:54:31.07	216.23	81.01	-36.4	-37.2	24.2	0.00e+00	0	30	0	814743552	46	5869
2026-01-16 14:54:32.08	215.52	80.51	-35.6	-36.4	25.0	0.00e+00	0	31	0	816840704	46	5359
2026-01-16 14:54:33.09	214.89	80.01	-35.2	-36.0	25.4	0.00e+00	15	31	0	818937856	44	5729
2026-01-16 14:54:34.09	214.32	79.52	-35.4	-36.1	25.3	0.00e+00	0	30	0	821035008	44	5827
2026-01-16 14:54:35.10	213.79	79.03	-36.1	-37.0	24.5	0.00e+00	92	30	0	823132160	44	6405
2026-01-16 14:54:36.11	213.32	78.53	-36.7	-37.6	23.8	0.00e+00	0	31	0	824180736	44	6874
2026-01-16 14:54:37.12	212.88	78.04	-37.4	-38.4	23.2	0.00e+00	91	30	0	826277888	46	6699
2026-01-16 14:54:38.13	212.48	77.54	-38.0	-39.0	22.8	0.00e+00	0	31	0	828375040	48	6421
2026-01-16 14:54:39.14	212.12	77.05	-37.7	-38.6	23.0	0.00e+00	45	31	0	830472192	48	6162
2026-01-16 14:54:40.15	211.78	76.56	-38.0	-39.0	22.8	0.00e+00	0	30	0	832569344	48	6415
2026-01-16 14:54:41.15	211.46	76.07	-39.1	-40.3	21.7	0.00e+00	45	31	0	833617920	50	6616
2026-01-16 14:54:42.16	211.17	75.58	-40.1	-41.3	20.8	0.00e+00	92	31	0	835715072	52	6691
2026-01-16 14:54:43.17	210.90	75.10	-40.2	-41.5	20.6	0.00e+00	0	31	0	837812224	52	6802
2026-01-16 14:54:44.18	210.64	74.61	-40.8	-42.3	19.8	0.00e+00	91	31	0	839909376	54	6631
2026-01-16 14:54:45.20	210.40	74.12	-40.1	-41.4	20.8	0.00e+00	38	31	0	842006528	54	5992
2026-01-16 14:54:46.20	210.18	73.64	-39.4	-40.5	21.6	0.00e+00	46	31	0	843055104	52	6086
2026-01-16 14:54:47.21	209.97	73.16	-38.4	-39.4	22.4	0.00e+00	37	31	0	845152256	50	6032
2026-01-16 14:54:48.22	209.77	72.68	-37.7	-38.6	23.4	0.00e+00	36	31	0	847249408	50	5474
2026-01-16 14:54:49.23	209.59	72.21	-37.1	-37.9	23.7	0.00e+00	28	31	0	849346560	48	5691
2026-01-16 14:54:50.24	209.41	71.73	-37.3	-38.2	23.4	0.00e+00	37	30	0	851443712	48	5895
2026-01-16 14:54:51.25	209.24	71.26	-37.7	-38.7	23.0	0.00e+00	91	30	0	852492288	48	6207
2026-01-16 14:54:52.26	209.09	70.78	-37.8	-38.8	22.9	0.00e+00	0	30	0	854589440	48	6250
2026-01-16 14:54:53.27	208.94	70.31	-38.8	-39.8	21.8	0.00e+00	69	31	0	856686592	48	7075
2026-01-16 14:54:54.28	208.80	69.85	-39.7	-40.9	21.0	0.00e+00	0	31	0	858783744	50	7163
2026-01-16 14:54:55.29	208.66	69.38	-39.6	-40.7	21.2	0.00e+00	0	30	0	860880896	52	6243
2026-01-16 14:54:56.30	208.53	68.92	-39.6	-40.8	21.2	0.00e+00	2	30	0	861929472	52	6284
2026-01-16 14:54:57.31	208.41	68.46	-39.7	-40.9	21.2	0.00e+00	0	30	0	864026624	52	6348
2026-01-16 14:54:58.32	208.30	68.00	-40.0	-41.3	20.8	0.00e+00	92	31	0	866123776	52	6635
2026-01-16 14:54:59.33	208.19	67.54	-40.5	-41.8	20.3	0.00e+00	0	31	0	868220928	52	7047
2026-01-16 14:55:00.34	208.08	67.09	-39.5	-40.7	21.3	0.00e+00	92	30	0	870318080	52	6189
2026-01-16 14:55:01.35	207.98	66.64	-38.8	-39.9	22.1	0.00e+00	0	31	0	871366656	52	5642
2026-01-16 14:55:02.36	207.88	66.19	-38.4	-39.4	22.5	0.00e+00	40	31	0	873463808	50	6017
2026-01-16 14:55:03.37	207.79	65.74	-38.1	-39.1	22.6	0.00e+00	0	31	0	875560960	50	5816
2026-01-16 14:55:04.38	207.70	65.30	-38.1	-39.2	22.8	0.00e+00	41	31	0	877658112	50	5834
2026-01-16 14:55:05.39	207.61	64.85	-37.1	-38.0	23.8	0.00e+00	92	31	0	879755264	48	5737
2026-01-16 14:55:06.40	207.53	64.41	-36.2	-37.1	24.5	0.00e+00	2	30	0	880803840	46	5772
2026-01-16 14:55:07.41	207.45	63.98	-35.7	-36.5	25.1	0.00e+00	92	30	0	882900992	46	5434
2026-01-16 14:55:08.42	207.38	63.54	-34.5	-35.3	25.9	0.00e+00	0	30	0	884998144	42	5917
2026-01-16 14:55:09.43	207.30	63.11	-34.5	-35.2	26.0	0.00e+00	36	30	0	887095296	42	5884
2026-01-16 14:55:10.44	207.23	62.68	-34.4	-35.2	25.9	0.00e+00	0	30	0	889192448	42	5838
2026-01-16 14:55:11.45	207.17	62.26	-34.2	-34.9	26.3	0.00e+00	0	30	0	891289600	42	5669
2026-01-16 14:55:12.46	207.10	61.83	-34.4	-35.1	26.0	0.00e+00	91	30	0	892338176	42	5828
2026-01-16 14:55:13.47	207.04	61.41	-34.7	-35.4	25.7	0.00e+00	2	30	0	894435328	42	6009
2026-01-16 14:55:14.48	206.98	60.99	-35.9	-36.7	24.7	0.00e+00	90	30	0	896532480	42	6998
2026-01-16 14:55:15.49	206.92	60.57	-37.9	-39.0	22.7	0.00e+00	0	30	0	898629632	46	7175
2026-01-16 14:55:16.51	206.86	60.16	-38.8	-40.0	21.9	0.00e+00	0	30	0	900726784	50	6392
2026-01-16 14:55:17.51	206.81	59.75	-38.6	-39.7	22.3	0.00e+00	2	30	0	901775360	50	6191
2026-01-16 14:55:18.52	206.76	59.34	-38.6	-39.7	22.2	0.00e+00	0	30	0	903872512	50	6197
2026-01-16 14:55:19.53	206.70	58.94	-38.7	-39.7	22.2	0.00e+00	2	30	0	905969664	50	6219
2026-01-16 14:55:20.54	206.65	58.53	-38.7	-39.7	22.1	0.00e+00	0	30	0	908066816	50	6238
2026-01-16 14:55:21.55	206.61	58.13	-39.4	-40.5	21.4	0.00e+00	92	30	0	910163968	50	6808
2026-01-16 14:55:22.56	206.56	57.74	-40.3	-41.6	20.5	0.00e+00	2	30	0	911212544	52	6914
2026-01-16 14:55:23.57	206.52	57.34	-40.7	-42.1	20.0	0.00e+00	92	30	0	913309696	54	6505
2026-01-16 14:55:24.58	206.47	56.95	-39.9	-41.1	20.9	0.00e+00	43	30	0	915406848	54	5827
2026-01-16 14:55:25.58	206.43	56.56	-38.9	-40.0	22.0	0.00e+00	44	30	0	917504000	52	5747
2026-01-16 14:55:26.59	206.39	56.18	-38.0	-38.9	22.6	0.00e+00	51	30	0	919601152	50	5664
2026-01-16 14:55:27.60	206.35	55.79	-36.6	-37.4	24.3	0.00e+00	36	30	0	920649728	46	6003
2026-01-16 14:55:28.61	206.31	55.41	-36.4	-37.2	24.5	0.00e+00	92	30	0	922746880	46	5843
2026-01-16 14:55:29.62	206.27	55.03	-36.2	-37.1	24.4	0.00e+00	39	30	0	924844032	46	5767
2026-01-16 14:55:30.63	206.24	54.66	-35.8	-36.6	24.9	0.00e+00	29	30	0	926941184	46	5493
2026-01-16 14:55:31.64	206.20	54.28	-35.8	-36.6	24.7	0.00e+00	0	30	0	929038336	44	6135
2026-01-16 14:55:32.65	206.17	53.91	-35.7	-36.5	25.1	0.00e+00	44	30	0	930086912	44	6045
2026-01-16 14:55:33.66	206.13	53.54	-35.5	-36.3	25.2	0.00e+00	41	30	0	932184064	44	5948
2026-01-16 14:55:34.67	206.10	53.18	-35.4	-36.2	25.2	0.00e+00	45	30	0	934281216	44	5876
2026-01-16 14:55:35.68	206.07	52.81	-35.7	-36.4	25.0	0.00e+00	90	30	0	936378368	44	6029
2026-01-16 14:55:36.69	206.04	52.45	-36.3	-37.2	24.4	0.00e+00	0	30	0	938475520	44	6549
2026-01-16 14:55:37.70	206.01	52.10	-37.5	-38.4	23.2	0.00e+00	90	30	0	939524096	46	6766
2026-01-16 14:55:38.71	205.98	51.74	-38.6	-39.7	22.2	0.00e+00	6	30	0	941621248	48	6983
2026-01-16 14:55:39.72	205.95	51.39	-38.8	-39.9	22.2	0.00e+00	5	30	0	943718400	50	6320
2026-01-16 14:55:40.73	205.92	51.04	-38.4	-39.4	22.5	0.00e+00	0	30	0	945815552	50	6005
2026-01-16 14:55:41.74	205.90	50.69	-38.1	-39.1	22.9	0.00e+00	44	30	0	947912704	50	5762
2026-01-16 14:55:42.75	205.87	50.35	-38.2	-39.2	22.8	0.00e+00	41	30	0	948961280	50	5844
2026-01-16 14:55:43.76	205.85	50.00	-38.4	-39.4	22.6	0.00e+00	0	30	0	951058432	50	5976
2026-01-16 14:55:44.77	205.82	49.66	-38.4	-39.4	22.4	0.00e+00	92	30	0	953155584	50	5994
2026-01-16 14:55:45.78	205.80	49.33	-38.6	-39.6	22.3	0.00e+00	6	30	0	955252736	50	6165
2026-01-16 14:55:46.79	205.77	48.99	-39.6	-40.8	21.1	0.00e+00	45	30	0	957349888	50	7029
2026-01-16 14:55:47.79	205.75	48.66	-41.1	-42.6	19.4	0.00e+00	45	30	0	959447040	54	6880
2026-01-16 14:55:48.80	205.73	48.33	-41.9	-43.6	18.6	0.00e+00	41	30	0	960495616	56	6874
2026-01-16 14:55:49.81	205.71	48.01	-40.8	-42.2	19.7	0.00e+00	47	30	0	962592768	56	5863
2026-01-16 14:55:50.82	205.68	47.68	-39.7	-40.9	21.2	0.00e+00	41	30	0	964689920	52	6324
2026-01-16 14:55:51.83	205.66	47.36	-39.5	-40.7	21.4	0.00e+00	92	30	0	966787072	52	6212
2026-01-16 14:55:52.84	205.64	47.04	-38.4	-39.3	22.7	0.00e+00	42	30	0	968884224	50	5953
2026-01-16 14:55:53.85	205.62	46.72	-37.5	-38.4	23.4	0.00e+00	92	30	0	969932800	48	5967
2026-01-16 14:55:54.85	205.60	46.41	-37.8	-38.7	23.1	0.00e+00	6	30	0	972029952	48	6243
2026-01-16 14:55:55.86	205.59	46.10	-38.8	-39.9	22.0	0.00e+00	8	30	0	974127104	48	7132
2026-01-16 14:55:56.87	205.57	45.79	-39.5	-40.6	21.3	0.00e+00	44	30	0	976224256	50	6927
2026-01-16 14:55:57.88	205.55	45.48	-40.2	-41.5	20.6	0.00e+00	0	30	0	978321408	52	6817
2026-01-16 14:55:58.89	205.53	45.17	-40.6	-42.0	20.2	0.00e+00	96	30	0	979369984	52	7206
2026-01-16 14:55:59.90	205.51	44.87	-40.7	-42.2	20.1	0.00e+00	7	30	0	981467136	54	6558
2026-01-16 14:56:00.91	205.50	44.57	-39.9	-41.2	21.0	0.00e+00	92	30	0	983564288	54	5886
2026-01-16 14:56:01.92	205.48	44.27	-39.2	-40.4	21.9	0.00e+00	0	30	0	985661440	52	5987
2026-01-16 14:56:02.93	205.46	43.97	-38.3	-39.2	22.8	0.00e+00	26	30	0	987758592	50	5888
2026-01-16 14:56:03.94	205.45	43.68	-37.3	-38.2	23.7	0.00e+00	37	30	0	988807168	48	5835
2026-01-16 14:56:04.95	205.43	43.39	-36.8	-37.7	24.1	0.00e+00	0	30	0	990904320	48	5506
2026-01-16 14:56:05.96	205.42	43.10	-37.3	-38.2	23.6	0.00e+00	0	30	0	993001472	48	5877
2026-01-16 14:56:06.97	205.40	42.81	-37.9	-38.9	22.9	0.00e+00	43	30	0	995098624	48	6349
2026-01-16 14:56:07.98	205.39	42.52	-38.9	-40.0	21.9	0.00e+00	90	30	0	997195776	50	6407
2026-01-16 14:56:08.99	205.37	42.24	-39.7	-41.0	21.0	0.00e+00	42	30	0	998244352	50	7175
2026-01-16 14:56:10.00	205.36	41.96	-40.4	-41.8	20.4	0.00e+00	92	30	0	1000341504	52	7015
2026-01-16 14:56:11.00	205.35	41.68	-40.7	-42.1	20.0	0.00e+00	43	30	0	1002438656	52	7314
2026-01-16 14:56:12.01	205.33	41.41	-40.4	-41.7	20.5	0.00e+00	43	30	0	1004535808	52	7000
2026-01-16 14:56:13.02	205.32	41.13	-40.5	-41.9	20.3	0.00e+00	40	30	0	1006632960	52	7118
2026-01-16 14:56:14.03	205.31	40.86	-40.2	-41.5	20.7	0.00e+00	37	30	0	1007681536	52	6795
2026-01-16 14:56:15.04	205.30	40.59	-40.0	-41.2	21.0	0.00e+00	90	30	0	1009778688	52	6575
2026-01-16 14:56:16.05	205.28	40.32	-39.0	-40.0	22.0	0.00e+00	39	30	0	1011875840	52	5751
2026-01-16 14:56:17.06	205.27	40.05	-38.6	-39.5	22.5	0.00e+00	92	30	0	1013972992	50	6101
2026-01-16 14:56:18.07	205.26	39.79	-38.3	-39.3	22.7	0.00e+00	0	30	0	1016070144	50	5924
2026-01-16 14:56:19.08	205.25	39.53	-38.8	-39.9	22.1	0.00e+00	0	30	0	1017118720	50	6348
2026-01-16 14:56:20.09	205.24	39.26	-39.4	-40.6	21.5	0.00e+00	0	30	0	1019215872	50	6855
2026-01-16 14:56:21.10	205.23	39.01	-40.0	-41.2	20.9	0.00e+00	0	30	0	1021313024	52	6573
2026-01-16 14:56:22.11	205.22	38.75	-40.4	-41.7	20.5	0.00e+00	6	30	0	1023410176	52	6964
2026-01-16 14:56:23.12	205.21	38.49	-40.8	-42.2	19.9	0.00e+00	0	30	0	1025507328	54	6553
2026-01-16 14:56:24.13	205.20	38.24	-41.1	-42.5	19.6	0.00e+00	92	30	0	1027604480	54	6843
2026-01-16 14:56:25.14	205.19	37.99	-41.1	-42.6	19.5	0.00e+00	41	30	0	1028653056	54	6876
2026-01-16 14:56:26.15	205.18	37.74	-41.0	-42.5	19.6	0.00e+00	40	30	0	1030750208	54	6783
2026-01-16 14:56:27.16	205.17	37.49	-40.7	-42.1	19.9	0.00e+00	0	30	0	1032847360	54	6499
2026-01-16 14:56:28.17	205.16	37.25	-40.6	-42.0	20.1	0.00e+00	37	30	0	1034944512	54	6393
2026-01-16 14:56:29.18	205.15	37.00	-40.0	-41.3	20.9	0.00e+00	19	30	0	1037041664	54	5897
2026-01-16 14:56:30.20	205.14	36.76	-39.9	-41.1	21.0	0.00e+00	35	30	0	1038090240	54	5780
2026-01-16 14:56:31.21	205.13	36.52	-39.3	-40.5	21.6	0.00e+00	92	30	0	1040187392	52	6038
2026-01-16 14:56:32.21	205.12	36.28	-39.0	-40.1	22.0	0.00e+00	37	30	0	1042284544	52	5787
2026-01-16 14:56:33.22	205.11	36.05	-38.8	-39.9	22.1	0.00e+00	92	30	0	1044381696	52	5659
2026-01-16 14:56:34.23	205.10	35.81	-38.8	-39.8	22.2	0.00e+00	0	30	0	1046478848	50	6282
2026-01-16 14:56:35.24	205.10	35.58	-38.8	-39.8	22.0	0.00e+00	2	30	0	1047527424	50	6297
2026-01-16 14:56:36.25	205.09	35.35	-38.9	-39.9	22.0	0.00e+00	40	30	0	1049624576	50	6360
2026-01-16 14:56:37.26	205.08	35.12	-39.0	-40.1	21.8	0.00e+00	0	30	0	1051721728	50	6519
2026-01-16 14:56:38.27	205.07	34.89	-39.2	-40.3	21.6	0.00e+00	91	30	0	1053818880	50	6679
2026-01-16 14:56:39.28	205.06	34.66	-39.6	-40.8	21.2	0.00e+00	0	30	0	1055916032	50	7051
2026-01-16 14:56:40.29	205.06	34.44	-39.9	-41.2	20.9	0.00e+00	92	30	0	1056964608	52	6540
2026-01-16 14:56:41.30	205.05	34.21	-40.1	-41.4	20.6	0.00e+00	2	30	0	1059061760	52	6699
2026-01-16 14:56:42.31	205.04	33.99	-40.4	-41.7	20.3	0.00e+00	0	30	0	1061158912	52	7007
2026-01-16 14:56:43.32	205.04	33.77	-40.4	-41.8	20.3	0.00e+00	0	30	0	1063256064	52	7016
2026-01-16 14:56:44.33	205.03	33.55	-40.6	-41.9	20.2	0.00e+00	0	30	0	1065353216	52	7133
2026-01-16 14:56:45.34	205.02	33.33	-40.7	-42.0	20.0	0.00e+00	82	30	0	1066401792	52	7249
2026-01-16 14:56:46.35	205.02	33.12	-40.8	-42.2	20.0	0.00e+00	0	30	0	1068498944	54	6574
2026-01-16 14:56:47.36	205.01	32.90	-40.7	-42.1	20.0	0.00e+00	92	30	0	1070596096	54	6480
2026-01-16 14:56:48.36	205.00	32.69	-40.8	-42.2	19.8	0.00e+00	43	30	0	1072693248	54	6584
2026-01-16 14:56:49.37	205.00	32.48	-40.5	-41.9	20.2	0.00e+00	69	30	0	1074790400	54	6336
2026-01-16 14:56:50.38	204.99	32.27	-40.5	-41.8	20.3	0.00e+00	2	30	0	1075838976	54	6313
2026-01-16 14:56:51.39	204.99	32.06	-40.2	-41.4	20.6	0.00e+00	0	30	0	1077936128	54	6032
2026-01-16 14:56:52.40	204.98	31.86	-40.1	-41.4	20.7	0.00e+00	0	30	0	1080033280	54	5982
2026-01-16 14:56:53.41	204.97	31.65	-39.7	-40.9	21.1	0.00e+00	41	30	0	1082130432	54	5687
2026-01-16 14:56:54.43	204.97	31.45	-39.6	-40.8	21.2	0.00e+00	90	30	0	1084227584	52	6268
2026-01-16 14:56:55.44	204.96	31.24	-39.5	-40.7	21.3	0.00e+00	41	30	0	1085276160	52	6179
2026-01-16 14:56:56.45	204.96	31.04	-39.6	-40.8	21.2	0.00e+00	91	30	0	1087373312	52	6270
2026-01-16 14:56:57.46	204.95	30.84	-39.7	-40.9	21.2	0.00e+00	0	30	0	1089470464	52	6320
2026-01-16 14:56:58.47	204.95	30.65	-39.6	-40.8	21.2	0.00e+00	0	30	0	1091567616	52	6275
2026-01-16 14:56:59.47	204.94	30.45	-39.7	-40.9	21.2	0.00e+00	0	30	0	1093664768	52	6340
2026-01-16 14:57:00.49	204.94	30.25	-39.7	-40.9	21.1	0.00e+00	2	30	0	1095761920	52	6360
2026-01-16 14:57:01.50	204.93	30.06	-39.7	-40.9	21.1	0.00e+00	92	30	0	1096810496	52	6365
2026-01-16 14:57:02.51	204.93	29.87	-39.8	-41.0	21.1	0.00e+00	0	30	0	1098907648	52	6413
2026-01-16 14:57:03.52	204.92	29.67	-39.8	-41.0	21.0	0.00e+00	92	30	0	1101004800	52	6442
2026-01-16 14:57:04.53	204.92	29.48	-39.6	-40.7	21.2	0.00e+00	0	30	0	1103101952	52	6235
2026-01-16 14:57:05.54	204.91	29.29	-39.6	-40.7	21.3	0.00e+00	8	30	0	1105199104	52	6240
2026-01-16 14:57:06.54	204.91	29.11	-39.6	-40.7	21.3	0.00e+00	0	30	0	1106247680	52	6237
2026-01-16 14:57:07.55	204.91	28.92	-39.4	-40.5	21.5	0.00e+00	0	30	0	1108344832	52	6100
2026-01-16 14:57:08.57	204.90	28.73	-39.2	-40.3	21.6	0.00e+00	0	30	0	1110441984	52	5926
2026-01-16 14:57:09.57	204.90	28.55	-39.1	-40.2	21.6	0.00e+00	41	30	0	1112539136	52	5892
2026-01-16 14:57:10.58	204.89	28.37	-39.1	-40.3	21.7	0.00e+00	90	30	0	1114636288	52	5900
2026-01-16 14:57:11.60	204.89	28.18	-39.0	-40.1	21.8	0.00e+00	39	30	0	1115684864	52	5792
2026-01-16 14:57:12.61	204.89	28.00	-38.7	-39.8	22.1	0.00e+00	92	30	0	1117782016	50	6260
2026-01-16 14:57:13.62	204.88	27.82	-38.7	-39.8	22.1	0.00e+00	38	30	0	1119879168	50	6277
2026-01-16 14:57:14.63	204.88	27.65	-38.5	-39.6	22.3	0.00e+00	0	30	0	1121976320	50	6111
2026-01-16 14:57:15.64	204.88	27.47	-38.3	-39.3	22.6	0.00e+00	0	30	0	1124073472	50	5912
2026-01-16 14:57:16.65	204.87	27.29	-38.0	-39.0	22.8	0.00e+00	42	30	0	1125122048	50	5736
2026-01-16 14:57:17.66	204.87	27.12	-37.9	-38.8	22.9	0.00e+00	91	30	0	1127219200	50	5627
2026-01-16 14:57:18.67	204.86	26.94	-37.8	-38.8	23.0	0.00e+00	6	30	0	1129316352	50	5570
2026-01-16 14:57:19.67	204.86	26.77	-37.6	-38.5	23.2	0.00e+00	92	30	0	1131413504	48	6077
2026-01-16 14:57:20.69	204.86	26.60	-37.5	-38.4	23.3	0.00e+00	0	30	0	1133510656	48	6027
2026-01-16 14:57:21.69	204.86	26.43	-37.5	-38.4	23.3	0.00e+00	5	30	0	1134559232	48	5999
2026-01-16 14:57:22.70	204.85	26.26	-37.4	-38.3	23.5	0.00e+00	0	30	0	1136656384	48	5933
2026-01-16 14:57:23.71	204.85	26.09	-37.3	-38.2	23.5	0.00e+00	5	29	0	1138753536	48	5880
2026-01-16 14:57:24.72	204.85	25.93	-37.3	-38.2	23.5	0.00e+00	88	29	0	1140850688	48	5872
2026-01-16 14:57:25.73	204.84	25.76	-37.2	-38.1	23.5	0.00e+00	0	30	0	1142947840	48	5789
2026-01-16 14:57:26.74	204.84	25.59	-37.5	-38.4	23.4	0.00e+00	90	30	0	1143996416	48	5989
2026-01-16 14:57:27.75	204.84	25.43	-37.3	-38.2	23.4	0.00e+00	33	30	0	1146093568	48	5894
2026-01-16 14:57:28.76	204.84	25.27	-37.4	-38.4	23.3	0.00e+00	90	29	0	1148190720	48	5981
2026-01-16 14:57:29.77	204.83	25.10	-37.4	-38.3	23.4	0.00e+00	6	29	0	1150287872	48	5928
2026-01-16 14:57:30.78	204.83	24.94	-37.4	-38.3	23.3	0.00e+00	33	29	0	1152385024	48	5951
2026-01-16 14:57:31.79	204.83	24.78	-37.5	-38.4	23.2	0.00e+00	90	29	0	1153433600	48	6009
2026-01-16 14:57:32.80	204.83	24.62	-37.4	-38.3	23.3	0.00e+00	55	29	0	1155530752	48	5916
2026-01-16 14:57:33.81	204.82	24.47	-37.5	-38.4	23.2	0.00e+00	92	29	0	1157627904	48	6020
2026-01-16 14:57:34.82	204.82	24.31	-37.5	-38.5	23.2	0.00e+00	32	30	0	1159725056	48	6040
2026-01-16 14:57:35.83	204.82	24.15	-37.6	-38.6	23.1	0.00e+00	92	29	0	1161822208	48	6114
2026-01-16 14:57:36.84	204.82	24.00	-37.6	-38.6	23.2	0.00e+00	8	29	0	1163919360	48	6124
2026-01-16 14:57:37.85	204.81	23.84	-37.4	-38.4	23.3	0.00e+00	0	29	0	1164967936	48	5985
2026-01-16 14:57:38.86	204.81	23.69	-37.6	-38.5	23.2	0.00e+00	60	29	0	1167065088	48	6095
2026-01-16 14:57:39.87	204.81	23.54	-37.3	-38.2	23.4	0.00e+00	48	29	0	1169162240	48	5894
2026-01-16 14:57:40.88	204.81	23.38	-37.4	-38.4	23.4	0.00e+00	91	29	0	1171259392	48	5967
2026-01-16 14:57:41.89	204.81	23.23	-37.3	-38.2	23.3	0.00e+00	0	29	0	1173356544	48	5879
2026-01-16 14:57:42.90	204.80	23.08	-37.5	-38.4	23.1	0.00e+00	91	29	0	1174405120	48	6017
2026-01-16 14:57:43.92	204.80	22.93	-37.5	-38.4	23.0	0.00e+00	0	29	0	1176502272	48	6013
2026-01-16 14:57:44.93	204.80	22.78	-37.3	-38.2	23.4	0.00e+00	0	29	0	1178599424	48	5852
2026-01-16 14:57:45.94	204.80	22.64	-37.4	-38.3	23.4	0.00e+00	0	29	0	1180696576	48	5914
2026-01-16 14:57:46.95	204.80	22.49	-37.4	-38.3	23.4	0.00e+00	38	29	0	1182793728	48	5916
2026-01-16 14:57:47.96	204.80	22.34	-37.2	-38.1	23.5	0.00e+00	92	29	0	1183842304	48	5824
2026-01-16 14:57:48.97	204.79	22.20	-37.1	-38.0	23.6	0.00e+00	39	29	0	1185939456	48	5730
2026-01-16 14:57:49.98	204.79	22.05	-37.0	-37.9	23.6	0.00e+00	92	29	0	1188036608	48	5689
2026-01-16 14:57:50.99	204.79	21.91	-37.0	-37.9	23.7	0.00e+00	44	29	0	1190133760	48	5680
2026-01-16 14:57:52.00	204.79	21.77	-37.1	-38.0	23.7	0.00e+00	66	29	0	1192230912	48	5727
2026-01-16 14:57:53.01	204.79	21.63	-37.1	-38.1	23.5	0.00e+00	42	29	0	1193279488	48	5763
2026-01-16 14:57:54.02	204.79	21.48	-37.2	-38.1	23.6	0.00e+00	43	29	0	1195376640	48	5780
2026-01-16 14:57:55.03	204.79	21.34	-37.1	-38.0	23.6	0.00e+00	18	29	0	1197473792	48	5742
2026-01-16 14:57:56.04	204.78	21.21	-37.4	-38.4	23.3	0.00e+00	45	29	0	1199570944	48	5971
2026-01-16 14:57:57.05	204.78	21.07	-37.3	-38.3	23.4	0.00e+00	91	29	0	1201668096	48	5916
2026-01-16 14:57:58.06	204.78	20.93	-37.5	-38.4	23.3	0.00e+00	48	29	0	1202716672	48	6030
2026-01-16 14:57:59.07	204.78	20.79	-37.5	-38.4	23.2	0.00e+00	92	29	0	1204813824	48	6027
2026-01-16 14:58:00.08	204.78	20.66	-37.6	-38.6	23.1	0.00e+00	2	29	0	1206910976	48	6116
2026-01-16 14:58:01.09	204.78	20.52	-37.8	-38.8	22.8	0.00e+00	0	29	0	1209008128	48	6309
2026-01-16 14:58:02.10	204.78	20.38	-37.7	-38.7	23.0	0.00e+00	10	29	0	1211105280	48	6220
2026-01-16 14:58:03.11	204.78	20.25	-37.9	-38.9	22.8	0.00e+00	0	29	0	1212153856	48	6342
