passes_logs/2026/01/16/R4.6S_Anadyr/R4.6S_Anadyr__20260116_022148_SUOMI_NPP_rec.log

#Pass ID: 20260116_022148_SUOMI NPP
#Satellite: SUOMI NPP
#Configuration: NPP
#almurnet v.1.7.20251203
#Start time: 2026-01-16 02:21:48

#Version: 2.2.20231116
#Station: R4.6S_Anadyr
#Location: 177.4865 lon 64.73178 lat
#TLE: 1 37849U 11061A   26014.61059675  .00000037  00000+0  38639-4 0  9994
#TLE: 2 37849  98.7810 316.6625 0002460  64.3781 295.7649 14.19525105736658

#Time	Az	El	Level	Level2	SNR	BER	BlckErr	Temp	State	Recorded	gain1	gain2
2026-01-16 02:21:48.85	210.14	0.03	-48.1	-59.7	3.5	8.44e-01	0	26	0	0	60	35067
2026-01-16 02:21:49.86	210.21	0.08	-47.8	-63.3	3.6	1.51e+00	0	27	104	0	60	52938
2026-01-16 02:21:50.87	210.28	0.13	-48.1	-63.3	3.6	1.51e+00	0	28	104	0	60	52951
2026-01-16 02:21:51.88	210.34	0.19	-48.2	-63.3	3.6	1.51e+00	0	28	104	0	60	53150
2026-01-16 02:21:52.89	210.41	0.24	-47.9	-63.4	3.6	1.51e+00	0	28	104	0	60	53258
2026-01-16 02:21:53.90	210.47	0.29	-48.1	-63.4	3.6	1.51e+00	0	28	104	0	60	53458
2026-01-16 02:21:54.91	210.54	0.34	-48.3	-63.5	3.6	1.51e+00	0	28	104	0	60	53809
2026-01-16 02:21:55.92	210.61	0.40	-48.2	-63.4	3.6	1.51e+00	0	28	104	0	60	53536
2026-01-16 02:21:56.93	210.68	0.45	-48.2	-63.4	3.6	1.51e+00	0	28	104	0	60	53186
2026-01-16 02:21:57.94	210.74	0.50	-47.9	-63.3	3.6	1.51e+00	0	28	104	0	60	53082
2026-01-16 02:21:58.95	210.81	0.56	-47.6	-63.3	3.6	1.51e+00	0	28	104	0	60	52576
2026-01-16 02:21:59.96	210.88	0.61	-47.9	-63.2	3.6	1.51e+00	0	28	104	0	60	52104
2026-01-16 02:22:00.97	210.95	0.66	-47.8	-63.1	3.6	1.51e+00	0	28	104	0	60	51834
2026-01-16 02:22:01.98	211.02	0.72	-47.9	-63.1	3.6	1.51e+00	0	28	104	0	60	51372
2026-01-16 02:22:02.99	211.08	0.77	-47.7	-62.9	3.6	1.51e+00	0	28	104	0	60	50265
2026-01-16 02:22:04.00	211.15	0.82	-47.3	-62.6	3.6	1.51e+00	0	28	104	0	60	48802
2026-01-16 02:22:05.01	211.22	0.88	-46.9	-62.1	3.6	1.51e+00	0	28	104	0	60	45853
2026-01-16 02:22:06.02	211.29	0.93	-46.6	-61.7	3.6	1.51e+00	0	28	104	0	60	44149
2026-01-16 02:22:07.03	211.36	0.98	-46.6	-61.8	3.6	1.51e+00	0	28	104	0	60	44326
2026-01-16 02:22:08.04	211.43	1.04	-46.6	-61.7	3.6	1.51e+00	0	28	104	0	60	44111
2026-01-16 02:22:09.05	211.50	1.09	-46.6	-61.7	3.6	1.51e+00	0	28	104	0	60	43788
2026-01-16 02:22:10.06	211.57	1.14	-46.6	-61.7	3.6	1.51e+00	0	28	104	0	60	43711
2026-01-16 02:22:11.07	211.64	1.20	-46.6	-61.7	3.6	1.51e+00	0	28	104	0	60	44136
2026-01-16 02:22:12.08	211.71	1.25	-46.6	-61.6	3.6	1.51e+00	0	28	104	0	60	43444
2026-01-16 02:22:13.09	211.78	1.31	-46.6	-61.7	3.6	1.51e+00	0	28	104	0	60	43911
2026-01-16 02:22:14.10	211.85	1.36	-46.6	-61.7	3.6	1.51e+00	0	28	104	0	60	43725
2026-01-16 02:22:15.11	211.93	1.41	-46.6	-61.8	3.6	1.51e+00	0	28	104	0	60	44341
2026-01-16 02:22:16.11	212.00	1.47	-46.6	-61.7	3.6	1.51e+00	0	28	104	0	60	44108
2026-01-16 02:22:17.12	212.07	1.52	-46.6	-61.7	3.6	1.51e+00	0	28	104	0	60	44104
2026-01-16 02:22:18.13	212.14	1.58	-46.6	-61.7	3.6	1.51e+00	0	28	104	0	60	44211
2026-01-16 02:22:19.14	212.21	1.63	-46.6	-61.8	3.6	1.51e+00	0	28	104	0	60	44248
2026-01-16 02:22:20.15	212.29	1.68	-46.6	-61.8	3.6	1.51e+00	0	28	104	0	60	44280
2026-01-16 02:22:21.16	212.36	1.74	-46.6	-61.7	3.6	1.51e+00	0	28	104	0	60	44164
2026-01-16 02:22:22.17	212.43	1.79	-46.6	-61.8	3.6	1.51e+00	0	28	104	0	60	44307
2026-01-16 02:22:23.18	212.51	1.85	-46.6	-61.8	3.6	1.51e+00	0	28	104	0	60	44241
2026-01-16 02:22:24.19	212.58	1.90	-46.6	-61.7	3.6	1.51e+00	0	28	104	0	60	44195
2026-01-16 02:22:25.20	212.65	1.96	-46.6	-61.7	3.6	1.51e+00	0	28	104	0	60	43718
2026-01-16 02:22:26.21	212.73	2.01	-46.6	-61.7	3.6	1.51e+00	0	28	104	0	60	44077
2026-01-16 02:22:27.22	212.80	2.07	-46.6	-61.7	3.6	1.51e+00	0	28	104	0	60	44040
2026-01-16 02:22:28.23	212.88	2.12	-46.6	-61.7	3.6	1.51e+00	0	28	104	0	60	43983
2026-01-16 02:22:29.24	212.95	2.18	-46.6	-61.7	3.5	1.51e+00	0	28	104	0	60	43806
2026-01-16 02:22:30.25	213.03	2.23	-46.6	-61.6	3.6	1.51e+00	0	28	104	0	60	43538
2026-01-16 02:22:31.26	213.10	2.29	-46.6	-61.5	3.6	1.51e+00	0	28	104	0	60	43175
2026-01-16 02:22:32.26	213.18	2.34	-46.5	-60.9	3.6	1.51e+00	0	28	104	0	60	39975
2026-01-16 02:22:33.27	213.26	2.40	-46.5	-60.3	3.6	1.51e+00	0	28	104	0	60	37363
2026-01-16 02:22:34.28	213.33	2.45	-46.5	-59.5	3.7	1.51e+00	0	28	104	0	60	34120
2026-01-16 02:22:35.29	213.41	2.51	-46.5	-59.4	3.8	1.48e+00	0	28	104	0	60	33629
2026-01-16 02:22:36.30	213.49	2.56	-46.5	-60.1	3.6	1.51e+00	0	28	104	0	60	36514
2026-01-16 02:22:37.31	213.56	2.62	-46.5	-60.8	3.6	1.51e+00	0	28	104	0	60	39587
2026-01-16 02:22:38.32	213.64	2.67	-46.4	-58.0	3.8	1.51e+00	0	28	104	0	60	28585
2026-01-16 02:22:39.33	213.72	2.73	-45.9	-54.0	7.0	3.28e-01	0	28	104	0	60	18037
2026-01-16 02:22:40.34	213.80	2.79	-45.1	-50.1	10.3	2.58e-02	90	28	0	1048576	60	11614
2026-01-16 02:22:41.35	213.87	2.84	-44.0	-47.6	13.0	3.94e-04	92	28	0	3145728	60	8677
2026-01-16 02:22:42.36	213.95	2.90	-42.6	-45.2	15.5	9.10e-06	0	28	0	5242880	58	7398
2026-01-16 02:22:43.37	214.03	2.95	-42.3	-44.8	15.9	0.00e+00	92	28	0	6291456	58	7016
2026-01-16 02:22:44.38	214.11	3.01	-42.1	-44.4	16.2	0.00e+00	0	28	0	8388608	58	6705
2026-01-16 02:22:45.39	214.19	3.07	-42.1	-44.5	16.0	0.00e+00	92	28	0	10485760	58	6808
2026-01-16 02:22:46.40	214.27	3.12	-42.8	-45.5	15.0	0.00e+00	0	28	0	12582912	58	7625
2026-01-16 02:22:47.41	214.35	3.18	-42.9	-45.6	15.2	0.00e+00	92	28	0	14680064	58	7755
2026-01-16 02:22:48.42	214.43	3.24	-44.4	-48.7	10.5	0.00e+00	85	28	0	15728640	58	10998
2026-01-16 02:22:49.43	214.51	3.29	-46.2	-56.5	7.0	1.50e+00	0	28	104	16777216	60	24077
2026-01-16 02:22:50.44	214.59	3.35	-41.8	-43.9	17.1	0.00e+00	92	28	0	17825792	56	7096
2026-01-16 02:22:51.45	214.67	3.40	-41.1	-42.9	18.1	7.00e-07	0	28	0	18874368	58	5676
2026-01-16 02:22:52.45	214.76	3.46	-45.4	-50.9	10.0	1.04e-01	92	28	0	20971520	60	12678
2026-01-16 02:22:53.46	214.84	3.52	-41.8	-44.0	16.8	0.00e+00	0	28	0	23068672	58	6420
2026-01-16 02:22:54.47	214.92	3.57	-41.7	-43.7	17.1	0.00e+00	92	28	0	25165824	56	6994
2026-01-16 02:22:55.48	215.00	3.63	-41.4	-43.4	17.3	0.00e+00	43	28	0	27262976	56	6748
2026-01-16 02:22:56.49	215.08	3.69	-40.8	-42.5	18.4	0.00e+00	92	28	0	28311552	56	6071
2026-01-16 02:22:57.49	215.17	3.74	-40.6	-42.2	18.7	0.00e+00	90	28	0	30408704	54	6596
2026-01-16 02:22:58.50	215.25	3.80	-40.0	-41.5	19.3	0.00e+00	0	28	0	32505856	54	6048
2026-01-16 02:22:59.51	215.33	3.86	-40.0	-41.5	19.2	0.00e+00	62	28	0	34603008	54	6049
2026-01-16 02:23:00.52	215.42	3.92	-40.1	-41.6	19.1	0.00e+00	0	28	0	36700160	54	6150
2026-01-16 02:23:01.53	215.50	3.97	-40.2	-41.8	18.9	0.00e+00	91	28	0	37748736	54	6268
2026-01-16 02:23:02.54	215.59	4.03	-40.1	-41.7	19.1	0.00e+00	28	28	0	39845888	54	6177
2026-01-16 02:23:03.55	215.67	4.09	-40.0	-41.4	19.3	0.00e+00	90	28	0	41943040	54	6032
2026-01-16 02:23:04.56	215.76	4.15	-39.7	-41.1	19.7	0.00e+00	92	28	0	44040192	52	6490
2026-01-16 02:23:05.57	215.84	4.20	-39.3	-40.6	20.1	0.00e+00	0	28	0	46137344	52	6171
2026-01-16 02:23:06.57	215.93	4.26	-39.5	-40.9	19.9	0.00e+00	92	28	0	47185920	52	6325
2026-01-16 02:23:07.58	216.01	4.32	-39.3	-40.6	20.2	0.00e+00	0	28	0	49283072	52	6120
2026-01-16 02:23:08.59	216.10	4.38	-39.5	-40.8	20.0	0.00e+00	91	28	0	51380224	52	6286
2026-01-16 02:23:09.60	216.19	4.43	-39.1	-40.3	20.5	0.00e+00	0	28	0	53477376	52	5953
2026-01-16 02:23:10.61	216.27	4.49	-39.3	-40.6	20.2	0.00e+00	92	28	0	55574528	52	6151
2026-01-16 02:23:11.62	216.36	4.55	-39.1	-40.4	20.5	0.00e+00	90	28	0	56623104	52	5974
2026-01-16 02:23:12.63	216.45	4.61	-39.2	-40.4	20.3	0.00e+00	0	28	0	58720256	52	6028
2026-01-16 02:23:13.64	216.54	4.67	-39.0	-40.3	20.5	0.00e+00	79	28	0	60817408	52	5930
2026-01-16 02:23:14.65	216.63	4.72	-39.0	-40.2	20.6	0.00e+00	0	28	0	62914560	52	5881
2026-01-16 02:23:15.66	216.72	4.78	-39.2	-40.5	20.3	0.00e+00	92	28	0	65011712	52	6048
2026-01-16 02:23:16.67	216.81	4.84	-39.2	-40.5	20.4	0.00e+00	0	28	0	66060288	52	6049
2026-01-16 02:23:17.68	216.89	4.90	-39.3	-40.6	20.3	0.00e+00	90	28	0	68157440	52	6153
2026-01-16 02:23:18.68	216.98	4.96	-39.1	-40.4	20.4	0.00e+00	92	28	0	70254592	52	6008
2026-01-16 02:23:19.69	217.07	5.02	-39.0	-40.3	20.5	0.00e+00	92	28	0	72351744	52	5925
2026-01-16 02:23:20.70	217.16	5.07	-39.3	-40.6	20.3	1.50e-06	92	28	0	74448896	52	6118
2026-01-16 02:23:21.71	217.26	5.13	-39.2	-40.5	20.4	0.00e+00	0	28	0	75497472	52	6043
2026-01-16 02:23:22.72	217.35	5.19	-39.0	-40.3	20.6	0.00e+00	92	28	0	77594624	52	5936
2026-01-16 02:23:23.73	217.44	5.25	-39.2	-40.5	20.4	0.00e+00	0	28	0	79691776	52	6063
2026-01-16 02:23:24.74	217.53	5.31	-39.4	-40.7	20.2	0.00e+00	91	28	0	81788928	52	6226
2026-01-16 02:23:25.75	217.62	5.37	-39.2	-40.4	20.5	0.00e+00	32	28	0	83886080	52	6031
2026-01-16 02:23:26.76	217.72	5.43	-39.3	-40.6	20.5	0.00e+00	92	28	0	84934656	52	6151
2026-01-16 02:23:27.76	217.81	5.49	-39.2	-40.5	20.4	0.00e+00	92	28	0	87031808	52	6092
2026-01-16 02:23:28.77	217.90	5.55	-38.9	-40.1	20.7	0.00e+00	0	28	0	89128960	52	5787
2026-01-16 02:23:29.78	218.00	5.60	-39.1	-40.4	20.5	0.00e+00	92	28	0	91226112	52	5966
2026-01-16 02:23:30.79	218.09	5.66	-39.0	-40.3	20.7	0.00e+00	0	28	0	93323264	52	5900
2026-01-16 02:23:31.80	218.18	5.72	-39.2	-40.4	20.5	0.00e+00	92	28	0	94371840	52	6016
2026-01-16 02:23:32.81	218.28	5.78	-39.1	-40.4	20.6	0.00e+00	31	28	0	96468992	52	5981
2026-01-16 02:23:33.82	218.37	5.84	-39.2	-40.4	20.5	0.00e+00	92	28	0	98566144	52	6026
2026-01-16 02:23:34.83	218.47	5.90	-39.3	-40.5	20.4	0.00e+00	92	28	0	100663296	52	6078
2026-01-16 02:23:35.84	218.57	5.96	-39.3	-40.6	20.4	0.00e+00	0	28	0	102760448	52	6129
2026-01-16 02:23:36.85	218.66	6.02	-39.2	-40.4	20.7	0.00e+00	92	28	0	104857600	52	5999
2026-01-16 02:23:37.86	218.76	6.08	-39.3	-40.6	20.4	0.00e+00	0	28	0	105906176	52	6151
2026-01-16 02:23:38.86	218.86	6.14	-39.5	-40.8	20.2	0.00e+00	92	28	0	108003328	52	6273
2026-01-16 02:23:39.88	218.95	6.20	-39.5	-40.8	20.2	0.00e+00	0	28	0	110100480	52	6258
2026-01-16 02:23:40.88	219.05	6.26	-39.5	-40.8	20.1	0.00e+00	92	28	0	112197632	52	6279
2026-01-16 02:23:41.89	219.15	6.32	-39.8	-41.1	20.0	0.00e+00	90	28	0	114294784	52	6528
2026-01-16 02:23:42.90	219.25	6.38	-39.7	-41.1	20.1	0.00e+00	0	28	0	115343360	52	6492
2026-01-16 02:23:43.91	219.35	6.44	-39.9	-41.2	19.8	0.00e+00	55	28	0	117440512	52	6610
2026-01-16 02:23:44.91	219.45	6.50	-39.8	-41.2	20.0	0.00e+00	0	28	0	119537664	52	6568
2026-01-16 02:23:45.92	219.55	6.56	-39.7	-41.1	20.0	0.00e+00	92	28	0	121634816	52	6466
2026-01-16 02:23:46.93	219.65	6.62	-39.7	-41.1	20.1	0.00e+00	33	28	0	123731968	52	6473
2026-01-16 02:23:47.94	219.75	6.68	-39.5	-40.8	20.4	0.00e+00	92	28	0	124780544	52	6250
2026-01-16 02:23:48.95	219.85	6.74	-39.3	-40.6	20.4	0.00e+00	92	28	0	126877696	52	6140
2026-01-16 02:23:49.96	219.95	6.80	-39.4	-40.7	20.4	0.00e+00	0	28	0	128974848	52	6242
2026-01-16 02:23:50.97	220.05	6.87	-39.3	-40.6	20.4	0.00e+00	92	28	0	131072000	52	6143
2026-01-16 02:23:51.97	220.15	6.93	-39.3	-40.6	20.5	0.00e+00	0	28	0	133169152	52	6128
2026-01-16 02:23:52.98	220.25	6.99	-39.4	-40.7	20.4	0.00e+00	91	28	0	134217728	52	6185
2026-01-16 02:23:53.99	220.36	7.05	-39.3	-40.5	20.6	0.00e+00	0	28	0	136314880	52	6092
2026-01-16 02:23:55.00	220.46	7.11	-39.0	-40.2	20.9	0.00e+00	92	28	0	138412032	52	5873
2026-01-16 02:23:56.01	220.57	7.17	-39.2	-40.4	20.7	0.00e+00	62	28	0	140509184	52	6019
2026-01-16 02:23:57.02	220.67	7.23	-39.0	-40.2	20.8	0.00e+00	0	28	0	142606336	52	5867
2026-01-16 02:23:58.03	220.77	7.29	-39.0	-40.2	20.8	0.00e+00	90	28	0	143654912	52	5868
2026-01-16 02:23:59.04	220.88	7.35	-39.0	-40.3	20.8	0.00e+00	0	28	0	145752064	52	5897
2026-01-16 02:24:00.05	220.99	7.41	-38.8	-40.0	21.0	0.00e+00	91	28	0	147849216	52	5703
2026-01-16 02:24:01.06	221.09	7.48	-38.8	-40.0	20.9	0.00e+00	0	28	0	149946368	50	6423
2026-01-16 02:24:02.07	221.20	7.54	-38.8	-40.0	21.0	0.00e+00	91	28	0	152043520	50	6403
2026-01-16 02:24:03.07	221.30	7.60	-39.0	-40.2	20.8	0.00e+00	86	28	0	153092096	50	6560
2026-01-16 02:24:04.08	221.41	7.66	-39.0	-40.2	20.9	0.00e+00	92	28	0	155189248	50	6556
2026-01-16 02:24:05.09	221.52	7.72	-38.8	-40.0	20.9	0.00e+00	90	28	0	157286400	50	6441
2026-01-16 02:24:06.10	221.63	7.78	-39.1	-40.3	20.9	0.00e+00	0	28	0	159383552	50	6624
2026-01-16 02:24:07.11	221.74	7.85	-39.0	-40.2	20.8	0.00e+00	92	28	0	161480704	50	6587
2026-01-16 02:24:08.12	221.84	7.91	-39.2	-40.4	20.6	0.00e+00	0	28	0	162529280	50	6745
2026-01-16 02:24:09.13	221.95	7.97	-39.3	-40.6	20.5	0.00e+00	82	28	0	164626432	50	6863
2026-01-16 02:24:10.14	222.06	8.03	-39.6	-40.9	20.3	0.00e+00	68	28	0	166723584	50	7093
2026-01-16 02:24:11.15	222.18	8.09	-39.5	-40.8	20.3	0.00e+00	92	28	0	168820736	50	7048
2026-01-16 02:24:12.15	222.28	8.16	-39.7	-41.0	20.2	0.00e+00	92	28	0	170917888	50	7200
2026-01-16 02:24:13.16	222.40	8.22	-39.6	-40.9	20.3	0.00e+00	0	28	0	173015040	50	7106
2026-01-16 02:24:14.17	222.51	8.28	-39.5	-40.8	20.3	0.00e+00	91	28	0	174063616	50	7077
2026-01-16 02:24:15.18	222.62	8.34	-39.9	-41.2	20.0	0.00e+00	0	28	0	176160768	52	6573
2026-01-16 02:24:16.19	222.73	8.40	-39.7	-41.1	20.2	0.00e+00	90	28	0	178257920	52	6471
2026-01-16 02:24:17.20	222.85	8.47	-40.0	-41.4	19.8	0.00e+00	0	28	0	180355072	52	6708
2026-01-16 02:24:18.21	222.96	8.53	-40.0	-41.3	19.9	0.00e+00	92	28	0	181403648	52	6669
2026-01-16 02:24:19.22	223.07	8.59	-39.8	-41.1	20.2	0.00e+00	92	28	0	183500800	52	6480
2026-01-16 02:24:20.23	223.19	8.65	-40.0	-41.3	19.9	0.00e+00	0	28	0	185597952	52	6683
2026-01-16 02:24:21.23	223.30	8.72	-39.8	-41.1	20.3	0.00e+00	71	28	0	187695104	52	6481
2026-01-16 02:24:22.24	223.42	8.78	-39.7	-41.0	20.3	0.00e+00	0	28	0	189792256	52	6412
2026-01-16 02:24:23.25	223.53	8.84	-39.6	-40.9	20.2	0.00e+00	92	28	0	190840832	52	6319
2026-01-16 02:24:24.26	223.65	8.91	-39.7	-41.0	20.2	0.00e+00	0	28	0	192937984	52	6442
2026-01-16 02:24:25.27	223.77	8.97	-39.7	-41.0	20.3	0.00e+00	92	28	0	195035136	52	6402
2026-01-16 02:24:26.28	223.89	9.03	-39.6	-40.9	20.3	0.00e+00	91	28	0	197132288	52	6373
2026-01-16 02:24:27.29	224.00	9.09	-39.8	-41.1	20.2	0.00e+00	0	28	0	199229440	52	6532
2026-01-16 02:24:28.30	224.12	9.16	-39.7	-41.0	20.3	0.00e+00	92	28	0	201326592	52	6452
2026-01-16 02:24:29.31	224.24	9.22	-39.7	-41.1	20.2	0.00e+00	0	28	0	202375168	52	6475
2026-01-16 02:24:30.32	224.36	9.28	-39.9	-41.2	20.1	0.00e+00	92	28	0	204472320	52	6604
2026-01-16 02:24:31.33	224.48	9.35	-39.7	-41.0	20.2	0.00e+00	0	28	0	206569472	52	6457
2026-01-16 02:24:32.34	224.60	9.41	-39.8	-41.1	20.3	0.00e+00	90	28	0	208666624	52	6488
2026-01-16 02:24:33.35	224.72	9.47	-39.8	-41.2	20.1	0.00e+00	35	28	0	210763776	52	6550
2026-01-16 02:24:34.35	224.84	9.54	-39.4	-40.7	20.6	0.00e+00	92	28	0	211812352	52	6177
2026-01-16 02:24:35.36	224.96	9.60	-39.4	-40.6	20.6	0.00e+00	92	28	0	213909504	52	6162
2026-01-16 02:24:36.37	225.09	9.66	-39.4	-40.6	20.7	0.00e+00	0	28	0	216006656	52	6149
2026-01-16 02:24:37.38	225.21	9.73	-39.3	-40.5	20.6	0.00e+00	92	28	0	218103808	52	6080
2026-01-16 02:24:38.39	225.33	9.79	-39.1	-40.3	20.9	0.00e+00	0	28	0	220200960	52	5906
2026-01-16 02:24:39.40	225.46	9.85	-39.0	-40.2	21.1	0.00e+00	92	28	0	221249536	52	5854
2026-01-16 02:24:40.41	225.58	9.92	-38.8	-39.9	21.2	0.00e+00	0	28	0	223346688	52	5689
2026-01-16 02:24:41.42	225.71	9.98	-38.8	-40.0	21.2	0.00e+00	92	28	0	225443840	52	5710
2026-01-16 02:24:42.43	225.83	10.05	-38.9	-40.0	21.2	0.00e+00	92	28	0	227540992	52	5724
2026-01-16 02:24:43.43	225.96	10.11	-38.8	-39.9	21.3	0.00e+00	0	28	0	229638144	52	5673
2026-01-16 02:24:44.44	226.08	10.17	-38.9	-40.0	21.3	0.00e+00	92	28	0	230686720	50	6423
2026-01-16 02:24:45.45	226.21	10.24	-38.7	-39.9	21.3	0.00e+00	0	28	0	232783872	50	6334
2026-01-16 02:24:46.46	226.34	10.30	-38.8	-39.9	21.4	0.00e+00	92	28	0	234881024	50	6383
2026-01-16 02:24:47.47	226.47	10.36	-38.8	-39.9	21.3	0.00e+00	30	28	0	236978176	50	6376
2026-01-16 02:24:48.48	226.60	10.43	-38.9	-40.0	21.2	0.00e+00	92	28	0	239075328	50	6447
2026-01-16 02:24:49.49	226.73	10.49	-38.9	-40.1	21.1	0.00e+00	92	28	0	240123904	50	6493
2026-01-16 02:24:50.49	226.85	10.56	-39.0	-40.2	21.0	0.00e+00	0	28	0	242221056	50	6576
2026-01-16 02:24:51.50	226.99	10.62	-38.9	-40.1	21.2	0.00e+00	92	28	0	244318208	50	6477
2026-01-16 02:24:52.51	227.12	10.69	-38.9	-40.1	21.1	0.00e+00	0	28	0	246415360	50	6512
2026-01-16 02:24:53.52	227.25	10.75	-39.0	-40.2	21.0	0.00e+00	92	28	0	248512512	50	6586
2026-01-16 02:24:54.53	227.38	10.81	-39.1	-40.3	21.0	0.00e+00	0	28	0	249561088	50	6632
2026-01-16 02:24:55.54	227.51	10.88	-39.1	-40.3	21.0	0.00e+00	92	28	0	251658240	50	6624
2026-01-16 02:24:56.55	227.65	10.94	-39.0	-40.2	21.0	0.00e+00	92	28	0	253755392	50	6566
2026-01-16 02:24:57.55	227.78	11.01	-39.0	-40.1	21.1	0.00e+00	67	28	0	255852544	50	6534
2026-01-16 02:24:58.56	227.91	11.07	-38.9	-40.1	21.2	0.00e+00	92	28	0	257949696	50	6476
2026-01-16 02:24:59.57	228.05	11.14	-38.8	-40.0	21.1	0.00e+00	0	28	0	258998272	50	6424
2026-01-16 02:25:00.58	228.18	11.20	-38.9	-40.1	21.0	0.00e+00	92	28	0	261095424	50	6477
2026-01-16 02:25:01.59	228.32	11.26	-39.0	-40.1	21.2	0.00e+00	0	28	0	263192576	50	6514
2026-01-16 02:25:02.59	228.45	11.33	-38.9	-40.1	21.3	0.00e+00	92	28	0	265289728	50	6479
2026-01-16 02:25:03.60	228.59	11.39	-39.0	-40.2	20.9	0.00e+00	74	28	0	267386880	50	6555
2026-01-16 02:25:04.61	228.73	11.46	-39.0	-40.1	21.2	0.00e+00	92	28	0	268435456	50	6538
2026-01-16 02:25:05.62	228.87	11.52	-39.0	-40.1	21.1	0.00e+00	90	28	0	270532608	50	6514
2026-01-16 02:25:06.63	229.01	11.59	-38.9	-40.1	21.2	0.00e+00	0	28	0	272629760	50	6465
2026-01-16 02:25:07.64	229.15	11.65	-39.1	-40.3	21.0	0.00e+00	92	28	0	274726912	50	6655
2026-01-16 02:25:08.65	229.29	11.72	-39.1	-40.3	21.0	0.00e+00	0	28	0	276824064	50	6628
2026-01-16 02:25:09.66	229.43	11.78	-39.1	-40.3	20.9	0.00e+00	90	28	0	277872640	50	6688
2026-01-16 02:25:10.67	229.57	11.85	-39.3	-40.5	20.8	0.00e+00	34	28	0	279969792	50	6840
2026-01-16 02:25:11.68	229.71	11.91	-39.0	-40.2	21.1	0.00e+00	90	28	0	282066944	50	6580
2026-01-16 02:25:12.69	229.85	11.97	-39.0	-40.1	21.1	0.00e+00	90	28	0	284164096	50	6511
2026-01-16 02:25:13.69	230.00	12.04	-39.0	-40.1	20.8	0.00e+00	0	28	0	286261248	50	6510
2026-01-16 02:25:14.70	230.14	12.10	-38.9	-40.0	21.2	0.00e+00	75	28	0	287309824	50	6439
2026-01-16 02:25:15.71	230.28	12.17	-38.8	-40.0	21.2	0.00e+00	0	28	0	289406976	50	6404
2026-01-16 02:25:16.72	230.43	12.23	-38.5	-39.6	21.7	0.00e+00	90	28	0	291504128	50	6112
2026-01-16 02:25:17.73	230.58	12.30	-38.4	-39.5	21.6	0.00e+00	34	28	0	293601280	50	6090
2026-01-16 02:25:18.74	230.72	12.36	-38.4	-39.5	21.7	0.00e+00	92	28	0	295698432	50	6047
2026-01-16 02:25:19.75	230.87	12.43	-38.2	-39.3	21.8	0.00e+00	90	28	0	297795584	50	5916
2026-01-16 02:25:20.76	231.02	12.49	-38.3	-39.4	21.9	0.00e+00	0	28	0	298844160	50	5968
2026-01-16 02:25:21.77	231.16	12.56	-38.0	-39.1	22.0	0.00e+00	92	28	0	300941312	50	5781
2026-01-16 02:25:22.78	231.31	12.62	-38.2	-39.2	21.9	0.00e+00	0	28	0	303038464	50	5889
2026-01-16 02:25:23.79	231.46	12.69	-38.1	-39.2	22.0	0.00e+00	92	28	0	305135616	50	5864
2026-01-16 02:25:24.80	231.61	12.75	-38.0	-39.0	22.1	0.00e+00	17	28	0	307232768	50	5750
2026-01-16 02:25:25.81	231.76	12.82	-38.3	-39.3	21.8	0.00e+00	92	28	0	308281344	50	5948
2026-01-16 02:25:26.82	231.91	12.88	-38.3	-39.4	21.8	0.00e+00	92	28	0	310378496	50	5971
2026-01-16 02:25:27.83	232.07	12.95	-38.4	-39.4	21.7	0.00e+00	0	28	0	312475648	50	6032
2026-01-16 02:25:28.84	232.22	13.01	-38.3	-39.4	21.8	0.00e+00	90	28	0	314572800	50	5981
2026-01-16 02:25:29.85	232.37	13.08	-38.3	-39.4	21.8	0.00e+00	0	28	0	316669952	50	6009
2026-01-16 02:25:30.86	232.53	13.14	-38.3	-39.4	21.8	0.00e+00	91	28	0	317718528	50	6014
2026-01-16 02:25:31.87	232.68	13.21	-38.3	-39.3	21.8	0.00e+00	0	28	0	319815680	50	5949
2026-01-16 02:25:32.87	232.84	13.27	-38.4	-39.4	21.8	0.00e+00	92	28	0	321912832	50	6020
2026-01-16 02:25:33.88	232.99	13.33	-38.2	-39.2	21.9	0.00e+00	92	28	0	324009984	50	5858
2026-01-16 02:25:34.89	233.15	13.40	-38.3	-39.4	21.8	0.00e+00	60	28	0	326107136	50	6009
2026-01-16 02:25:35.90	233.30	13.46	-38.3	-39.3	21.8	0.00e+00	92	28	0	327155712	50	5948
2026-01-16 02:25:36.91	233.46	13.53	-38.5	-39.6	21.6	0.00e+00	0	28	0	329252864	50	6172
2026-01-16 02:25:37.92	233.62	13.59	-38.5	-39.6	21.6	0.00e+00	92	28	0	331350016	50	6161
2026-01-16 02:25:38.93	233.78	13.66	-38.5	-39.6	21.7	0.00e+00	0	28	0	333447168	50	6129
2026-01-16 02:25:39.94	233.94	13.72	-38.4	-39.5	21.7	0.00e+00	90	28	0	335544320	50	6064
2026-01-16 02:25:40.95	234.10	13.79	-38.5	-39.6	21.8	0.00e+00	38	28	0	336592896	50	6151
2026-01-16 02:25:41.96	234.26	13.85	-38.4	-39.5	21.7	0.00e+00	92	28	0	338690048	50	6061
2026-01-16 02:25:42.97	234.42	13.92	-38.1	-39.1	22.1	0.00e+00	92	28	0	340787200	50	5825
2026-01-16 02:25:43.97	234.59	13.98	-38.1	-39.1	22.1	0.00e+00	0	28	0	342884352	50	5786
2026-01-16 02:25:44.98	234.75	14.04	-37.8	-38.8	22.4	0.00e+00	91	28	0	344981504	50	5587
2026-01-16 02:25:45.99	234.91	14.11	-37.5	-38.5	22.6	0.00e+00	0	28	0	346030080	48	6075
2026-01-16 02:25:47.00	235.08	14.17	-37.5	-38.5	22.5	0.00e+00	92	28	0	348127232	48	6045
2026-01-16 02:25:48.01	235.24	14.24	-37.6	-38.6	22.5	0.00e+00	37	28	0	350224384	48	6120
2026-01-16 02:25:49.02	235.41	14.30	-37.5	-38.5	22.6	0.00e+00	92	28	0	352321536	48	6096
2026-01-16 02:25:50.02	235.57	14.36	-37.4	-38.3	22.7	0.00e+00	92	28	0	354418688	48	5952
2026-01-16 02:25:51.03	235.74	14.43	-37.4	-38.4	22.7	0.00e+00	0	28	0	355467264	48	5999
2026-01-16 02:25:52.04	235.91	14.49	-37.2	-38.1	22.9	0.00e+00	92	28	0	357564416	48	5827
2026-01-16 02:25:53.05	236.08	14.56	-37.3	-38.3	22.8	0.00e+00	0	28	0	359661568	48	5912
2026-01-16 02:25:54.06	236.25	14.62	-37.1	-38.0	23.0	0.00e+00	92	28	0	361758720	48	5745
2026-01-16 02:25:55.07	236.42	14.68	-37.2	-38.2	22.8	0.00e+00	3	28	0	363855872	48	5832
2026-01-16 02:25:56.08	236.59	14.75	-37.2	-38.2	22.5	0.00e+00	93	28	0	365953024	48	5831
2026-01-16 02:25:57.09	236.76	14.81	-37.1	-38.2	21.6	0.00e+00	88	28	0	367001600	48	5863
2026-01-16 02:25:58.10	236.93	14.87	-37.0	-38.2	21.6	1.29e-05	0	28	0	369098752	48	5851
2026-01-16 02:25:59.11	237.11	14.94	-37.2	-38.2	22.4	0.00e+00	92	28	0	371195904	48	5874
2026-01-16 02:26:00.12	237.28	15.00	-37.4	-38.4	22.7	0.00e+00	0	28	0	373293056	48	5993
2026-01-16 02:26:01.12	237.45	15.06	-37.1	-38.1	22.9	0.00e+00	91	28	0	375390208	48	5780
2026-01-16 02:26:02.13	237.63	15.13	-37.1	-38.1	22.9	0.00e+00	0	28	0	376438784	48	5789
2026-01-16 02:26:03.14	237.80	15.19	-37.1	-38.1	23.0	0.00e+00	92	28	0	378535936	48	5770
2026-01-16 02:26:04.15	237.98	15.25	-37.2	-38.1	22.9	0.00e+00	92	28	0	380633088	48	5821
2026-01-16 02:26:05.16	238.16	15.32	-37.3	-38.3	22.8	0.00e+00	0	28	0	382730240	48	5903
2026-01-16 02:26:06.17	238.34	15.38	-37.4	-38.4	22.7	0.00e+00	63	28	0	384827392	48	5974
2026-01-16 02:26:07.18	238.52	15.44	-37.8	-38.8	22.5	0.00e+00	0	28	0	385875968	48	6268
2026-01-16 02:26:08.19	238.70	15.51	-37.7	-38.7	22.5	0.00e+00	87	28	0	387973120	48	6204
2026-01-16 02:26:09.20	238.88	15.57	-37.8	-38.9	22.4	0.00e+00	0	28	0	390070272	48	6319
2026-01-16 02:26:10.20	239.06	15.63	-37.6	-38.6	22.6	0.00e+00	92	28	0	392167424	48	6173
2026-01-16 02:26:11.21	239.24	15.69	-37.6	-38.6	22.6	0.00e+00	34	28	0	394264576	48	6116
2026-01-16 02:26:12.22	239.42	15.76	-37.4	-38.4	22.9	0.00e+00	0	28	0	395313152	48	5971
2026-01-16 02:26:13.23	239.60	15.82	-37.4	-38.3	22.8	0.00e+00	92	28	0	397410304	48	5964
2026-01-16 02:26:14.24	239.79	15.88	-37.2	-38.2	22.8	0.00e+00	0	28	0	399507456	48	5836
2026-01-16 02:26:15.25	239.97	15.94	-37.1	-38.0	23.1	0.00e+00	92	28	0	401604608	48	5720
2026-01-16 02:26:16.26	240.16	16.00	-37.2	-38.1	22.9	0.00e+00	0	28	0	403701760	48	5803
2026-01-16 02:26:17.26	240.34	16.06	-37.2	-38.2	22.9	0.00e+00	92	28	0	404750336	48	5856
2026-01-16 02:26:18.27	240.53	16.13	-37.3	-38.3	22.9	0.00e+00	76	28	0	406847488	48	5899
2026-01-16 02:26:19.28	240.72	16.19	-37.5	-38.4	22.7	0.00e+00	92	28	0	408944640	48	6028
2026-01-16 02:26:20.29	240.90	16.25	-37.7	-38.7	22.6	0.00e+00	91	28	0	411041792	48	6208
2026-01-16 02:26:21.30	241.09	16.31	-37.6	-38.6	22.6	0.00e+00	0	28	0	413138944	48	6128
2026-01-16 02:26:22.31	241.28	16.37	-37.3	-38.3	22.9	0.00e+00	71	28	0	414187520	48	5934
2026-01-16 02:26:23.32	241.47	16.43	-37.3	-38.2	22.8	0.00e+00	0	28	0	416284672	48	5890
2026-01-16 02:26:24.33	241.67	16.49	-37.0	-38.0	23.2	0.00e+00	92	28	0	418381824	48	5697
2026-01-16 02:26:25.34	241.86	16.55	-37.0	-37.9	23.2	0.00e+00	0	28	0	420478976	48	5664
2026-01-16 02:26:26.35	242.05	16.61	-37.1	-38.0	23.1	0.00e+00	92	28	0	422576128	48	5724
2026-01-16 02:26:27.35	242.24	16.67	-37.0	-37.9	23.1	0.00e+00	92	28	0	423624704	48	5663
2026-01-16 02:26:28.36	242.44	16.73	-36.9	-37.8	23.3	0.00e+00	0	28	0	425721856	48	5584
2026-01-16 02:26:29.37	242.63	16.79	-37.0	-37.9	23.2	0.00e+00	63	28	0	427819008	48	5662
2026-01-16 02:26:30.38	242.83	16.85	-36.9	-37.8	23.3	0.00e+00	0	28	0	429916160	48	5591
2026-01-16 02:26:31.39	243.03	16.91	-37.0	-37.9	23.3	0.00e+00	90	28	0	432013312	48	5644
2026-01-16 02:26:32.40	243.22	16.97	-36.8	-37.7	23.3	0.00e+00	9	28	0	433061888	46	6222
2026-01-16 02:26:33.41	243.42	17.03	-37.1	-38.0	23.3	0.00e+00	92	28	0	435159040	46	6399
2026-01-16 02:26:34.42	243.62	17.09	-36.8	-37.6	23.5	0.00e+00	92	28	0	437256192	46	6160
2026-01-16 02:26:35.43	243.82	17.15	-36.9	-37.8	23.3	0.00e+00	0	28	0	439353344	46	6248
2026-01-16 02:26:36.44	244.02	17.21	-36.9	-37.8	23.2	0.00e+00	92	28	0	441450496	46	6281
2026-01-16 02:26:37.45	244.22	17.27	-36.8	-37.7	23.3	0.00e+00	0	28	0	442499072	46	6217
2026-01-16 02:26:38.46	244.42	17.33	-37.1	-38.0	23.1	0.00e+00	92	28	0	444596224	46	6431
2026-01-16 02:26:39.47	244.63	17.38	-37.1	-38.0	23.1	0.00e+00	0	28	0	446693376	46	6462
2026-01-16 02:26:40.47	244.83	17.44	-37.0	-37.9	23.2	0.00e+00	92	28	0	448790528	46	6331
2026-01-16 02:26:41.48	245.03	17.50	-37.0	-38.0	23.2	0.00e+00	92	28	0	450887680	46	6395
2026-01-16 02:26:42.49	245.24	17.56	-37.0	-37.9	23.3	0.00e+00	0	28	0	451936256	46	6325
2026-01-16 02:26:43.50	245.44	17.61	-36.6	-37.5	23.5	0.00e+00	92	28	0	454033408	46	6059
2026-01-16 02:26:44.51	245.65	17.67	-36.7	-37.6	23.3	0.00e+00	0	28	0	456130560	46	6121
2026-01-16 02:26:45.52	245.86	17.73	-36.7	-37.6	23.4	0.00e+00	90	28	0	458227712	46	6152
2026-01-16 02:26:46.53	246.07	17.78	-37.0	-37.9	23.2	0.00e+00	0	28	0	460324864	46	6353
2026-01-16 02:26:47.54	246.28	17.84	-37.3	-38.2	22.9	0.00e+00	92	28	0	462422016	46	6605
2026-01-16 02:26:48.55	246.48	17.90	-37.4	-38.4	22.8	0.00e+00	92	28	0	463470592	46	6714
2026-01-16 02:26:49.56	246.70	17.95	-37.5	-38.5	22.9	0.00e+00	0	28	0	465567744	46	6778
2026-01-16 02:26:50.57	246.91	18.01	-37.4	-38.4	22.8	0.00e+00	92	28	0	467664896	46	6700
2026-01-16 02:26:51.58	247.12	18.06	-37.3	-38.2	22.9	0.00e+00	0	28	0	469762048	46	6578
2026-01-16 02:26:52.59	247.33	18.12	-37.3	-38.2	23.0	0.00e+00	87	28	0	471859200	46	6555
2026-01-16 02:26:53.60	247.54	18.17	-37.3	-38.2	23.1	0.00e+00	0	28	0	472907776	46	6571
2026-01-16 02:26:54.61	247.76	18.23	-37.4	-38.4	22.9	0.00e+00	92	28	0	475004928	46	6714
2026-01-16 02:26:55.62	247.97	18.28	-37.7	-38.6	22.7	0.00e+00	92	28	0	477102080	48	6163
2026-01-16 02:26:56.63	248.19	18.34	-37.9	-38.9	22.5	0.00e+00	69	28	0	479199232	48	6326
2026-01-16 02:26:57.63	248.40	18.39	-37.9	-38.9	22.4	0.00e+00	92	28	0	481296384	48	6358
2026-01-16 02:26:58.64	248.62	18.44	-38.1	-39.1	21.9	0.00e+00	0	28	0	482344960	48	6530
2026-01-16 02:26:59.65	248.84	18.50	-37.9	-38.9	22.4	0.00e+00	62	28	0	484442112	48	6378
2026-01-16 02:27:00.66	249.06	18.55	-37.8	-38.7	22.7	0.00e+00	0	28	0	486539264	48	6224
2026-01-16 02:27:01.67	249.28	18.60	-37.7	-38.7	22.6	0.00e+00	92	28	0	488636416	48	6176
2026-01-16 02:27:02.68	249.50	18.65	-37.8	-38.7	22.6	0.00e+00	0	28	0	490733568	48	6240
2026-01-16 02:27:03.69	249.72	18.71	-38.2	-39.2	22.2	0.00e+00	90	28	0	491782144	48	6611
2026-01-16 02:27:04.70	249.94	18.76	-38.4	-39.4	21.9	0.00e+00	92	28	0	493879296	48	6768
2026-01-16 02:27:05.71	250.16	18.81	-38.4	-39.4	22.0	0.00e+00	0	28	0	495976448	48	6748
2026-01-16 02:27:06.72	250.38	18.86	-38.8	-39.9	21.5	0.00e+00	64	28	0	498073600	50	6370
2026-01-16 02:27:07.73	250.61	18.91	-38.7	-39.8	21.7	0.00e+00	0	28	0	500170752	50	6287
2026-01-16 02:27:08.74	250.83	18.96	-38.8	-39.9	21.7	0.00e+00	90	28	0	501219328	50	6359
2026-01-16 02:27:09.74	251.05	19.01	-38.8	-39.9	21.6	0.00e+00	0	28	0	503316480	50	6325
2026-01-16 02:27:10.76	251.28	19.06	-39.0	-40.1	21.4	0.00e+00	90	28	0	505413632	50	6500
2026-01-16 02:27:11.76	251.51	19.11	-39.2	-40.3	21.2	0.00e+00	90	28	0	507510784	50	6645
2026-01-16 02:27:12.77	251.73	19.16	-39.5	-40.7	21.0	0.00e+00	0	28	0	509607936	50	6947
2026-01-16 02:27:13.78	251.96	19.21	-39.1	-40.3	21.4	0.00e+00	86	28	0	510656512	50	6622
2026-01-16 02:27:14.80	252.19	19.26	-39.2	-40.4	21.2	0.00e+00	0	28	0	512753664	50	6706
2026-01-16 02:27:15.80	252.42	19.30	-39.3	-40.4	21.4	0.00e+00	55	28	0	514850816	50	6738
2026-01-16 02:27:16.81	252.65	19.35	-39.1	-40.2	21.5	0.00e+00	0	28	0	516947968	50	6587
2026-01-16 02:27:17.82	252.88	19.40	-38.8	-39.9	21.6	0.00e+00	92	28	0	519045120	50	6356
2026-01-16 02:27:18.83	253.11	19.45	-38.9	-39.9	21.6	0.00e+00	37	28	0	520093696	50	6388
2026-01-16 02:27:19.84	253.34	19.49	-39.0	-40.1	21.5	0.00e+00	0	28	0	522190848	50	6479
2026-01-16 02:27:20.85	253.58	19.54	-39.0	-40.1	21.5	0.00e+00	91	28	0	524288000	50	6502
2026-01-16 02:27:21.86	253.81	19.59	-38.9	-40.0	21.6	0.00e+00	0	28	0	526385152	50	6444
2026-01-16 02:27:22.86	254.04	19.63	-38.7	-39.7	21.7	0.00e+00	92	28	0	528482304	50	6239
2026-01-16 02:27:23.87	254.28	19.68	-38.7	-39.8	21.5	0.00e+00	0	28	0	530579456	50	6264
2026-01-16 02:27:24.88	254.51	19.72	-38.6	-39.7	21.9	0.00e+00	92	28	0	531628032	50	6188
2026-01-16 02:27:25.89	254.75	19.76	-38.8	-39.9	21.7	0.00e+00	39	28	0	533725184	50	6371
2026-01-16 02:27:26.90	254.99	19.81	-38.7	-39.7	21.8	0.00e+00	51	28	0	535822336	50	6223
2026-01-16 02:27:27.91	255.22	19.85	-38.6	-39.7	21.7	0.00e+00	92	28	0	537919488	50	6222
2026-01-16 02:27:28.92	255.46	19.90	-38.8	-39.9	21.8	0.00e+00	0	28	0	540016640	50	6323
2026-01-16 02:27:29.93	255.70	19.94	-38.1	-39.1	22.4	0.00e+00	92	28	0	541065216	50	5808
2026-01-16 02:27:30.94	255.94	19.98	-37.9	-38.8	22.6	0.00e+00	0	28	0	543162368	50	5602
2026-01-16 02:27:31.95	256.18	20.02	-37.6	-38.6	22.6	0.00e+00	92	28	0	545259520	48	6115
2026-01-16 02:27:32.96	256.42	20.06	-37.7	-38.6	22.8	0.00e+00	40	28	0	547356672	48	6164
2026-01-16 02:27:33.97	256.66	20.10	-37.4	-38.4	22.9	0.00e+00	35	28	0	549453824	48	5985
2026-01-16 02:27:34.98	256.90	20.14	-37.8	-38.8	22.5	0.00e+00	92	28	0	550502400	48	6306
2026-01-16 02:27:35.99	257.15	20.18	-38.0	-39.0	21.8	0.00e+00	0	28	0	552599552	48	6411
2026-01-16 02:27:36.99	257.39	20.22	-37.9	-38.9	22.5	0.00e+00	92	28	0	554696704	48	6328
2026-01-16 02:27:38.00	257.63	20.26	-37.9	-38.9	22.5	0.00e+00	0	28	0	556793856	48	6331
2026-01-16 02:27:39.01	257.88	20.30	-37.8	-38.7	22.6	0.00e+00	91	28	0	558891008	48	6224
2026-01-16 02:27:40.02	258.12	20.34	-37.4	-38.4	22.9	0.00e+00	0	28	0	559939584	48	5977
2026-01-16 02:27:41.03	258.37	20.38	-37.3	-38.2	23.0	0.00e+00	66	28	0	562036736	48	5844
2026-01-16 02:27:42.04	258.61	20.42	-37.5	-38.5	22.8	0.00e+00	92	28	0	564133888	48	6036
2026-01-16 02:27:43.05	258.86	20.45	-37.8	-38.8	22.5	0.00e+00	0	28	0	566231040	48	6283
2026-01-16 02:27:44.06	259.11	20.49	-38.0	-39.0	22.4	0.00e+00	90	28	0	568328192	48	6416
2026-01-16 02:27:45.07	259.35	20.52	-37.8	-38.8	22.6	0.00e+00	0	28	0	569376768	48	6276
2026-01-16 02:27:46.08	259.60	20.56	-37.3	-38.3	23.0	0.00e+00	54	28	0	571473920	48	5905
2026-01-16 02:27:47.09	259.85	20.60	-37.0	-37.9	23.0	0.00e+00	0	28	0	573571072	48	5677
2026-01-16 02:27:48.10	260.10	20.63	-36.9	-37.8	23.3	0.00e+00	90	28	0	575668224	46	6303
2026-01-16 02:27:49.11	260.35	20.66	-36.7	-37.6	23.5	0.00e+00	92	28	0	577765376	46	6147
2026-01-16 02:27:50.12	260.60	20.70	-36.8	-37.7	23.4	0.00e+00	0	28	0	578813952	46	6236
2026-01-16 02:27:51.13	260.85	20.73	-37.1	-38.0	23.3	0.00e+00	92	28	0	580911104	46	6414
2026-01-16 02:27:52.13	261.10	20.76	-37.1	-38.0	23.3	0.00e+00	0	28	0	583008256	46	6447
2026-01-16 02:27:53.14	261.36	20.79	-37.1	-38.0	23.3	0.00e+00	54	28	0	585105408	46	6423
2026-01-16 02:27:54.15	261.61	20.83	-37.1	-38.0	23.3	0.00e+00	0	28	0	587202560	46	6443
2026-01-16 02:27:55.16	261.86	20.86	-36.9	-37.8	23.3	0.00e+00	81	28	0	588251136	46	6257
2026-01-16 02:27:56.17	262.11	20.89	-37.2	-38.2	23.1	0.00e+00	92	28	0	590348288	46	6556
2026-01-16 02:27:57.18	262.37	20.92	-37.5	-38.4	22.8	0.00e+00	0	28	0	592445440	46	6736
2026-01-16 02:27:58.19	262.62	20.95	-37.7	-38.6	22.8	0.00e+00	91	28	0	594542592	46	6898
2026-01-16 02:27:59.20	262.88	20.98	-37.4	-38.4	22.9	0.00e+00	0	28	0	596639744	46	6723
2026-01-16 02:28:00.21	263.13	21.00	-37.3	-38.2	23.0	0.00e+00	86	28	0	597688320	46	6611
2026-01-16 02:28:01.22	263.39	21.03	-37.3	-38.2	23.1	0.00e+00	0	28	0	599785472	46	6599
2026-01-16 02:28:02.23	263.65	21.06	-37.1	-38.0	23.3	0.00e+00	90	28	0	601882624	46	6443
2026-01-16 02:28:03.23	263.90	21.08	-37.2	-38.1	23.1	0.00e+00	35	28	0	603979776	46	6501
2026-01-16 02:28:04.24	264.16	21.11	-37.4	-38.3	23.1	0.00e+00	0	28	0	606076928	46	6660
2026-01-16 02:28:05.25	264.42	21.14	-37.3	-38.2	23.1	0.00e+00	91	28	0	607125504	46	6582
2026-01-16 02:28:06.26	264.67	21.16	-37.0	-37.9	23.4	0.00e+00	0	28	0	609222656	46	6368
2026-01-16 02:28:07.27	264.93	21.19	-36.8	-37.7	23.5	0.00e+00	71	28	0	611319808	46	6224
2026-01-16 02:28:08.28	265.19	21.21	-36.5	-37.3	23.6	0.00e+00	0	28	0	613416960	46	5955
2026-01-16 02:28:09.29	265.45	21.23	-36.8	-37.7	23.5	0.00e+00	91	28	0	615514112	46	6217
2026-01-16 02:28:10.30	265.71	21.26	-36.9	-37.8	23.3	0.00e+00	39	28	0	616562688	46	6256
2026-01-16 02:28:11.31	265.97	21.28	-37.3	-38.2	22.9	0.00e+00	91	28	0	618659840	46	6605
2026-01-16 02:28:12.32	266.23	21.30	-37.3	-38.2	23.1	0.00e+00	92	28	0	620756992	46	6559
2026-01-16 02:28:13.33	266.49	21.32	-37.1	-38.0	23.3	0.00e+00	0	28	0	622854144	46	6434
2026-01-16 02:28:14.34	266.75	21.34	-37.0	-37.9	23.4	0.00e+00	33	28	0	624951296	46	6326
2026-01-16 02:28:15.35	267.01	21.36	-37.0	-37.9	23.2	0.00e+00	0	28	0	627048448	46	6384
2026-01-16 02:28:16.36	267.28	21.38	-37.0	-38.0	23.3	0.00e+00	92	28	0	628097024	46	6393
2026-01-16 02:28:17.37	267.54	21.40	-37.3	-38.2	22.9	0.00e+00	39	28	0	630194176	46	6567
2026-01-16 02:28:18.37	267.80	21.42	-37.7	-38.7	22.6	0.00e+00	92	28	0	632291328	46	6943
2026-01-16 02:28:19.38	268.06	21.44	-37.8	-38.8	22.5	0.00e+00	91	28	0	634388480	48	6284
2026-01-16 02:28:20.39	268.32	21.45	-37.6	-38.5	22.5	0.00e+00	0	28	0	636485632	48	6088
2026-01-16 02:28:21.40	268.59	21.47	-37.3	-38.2	23.1	0.00e+00	92	28	0	637534208	48	5869
2026-01-16 02:28:22.41	268.85	21.48	-37.1	-38.0	23.2	0.00e+00	0	28	0	639631360	48	5759
2026-01-16 02:28:23.42	269.11	21.50	-37.2	-38.1	23.0	0.00e+00	92	28	0	641728512	48	5803
2026-01-16 02:28:24.43	269.38	21.51	-37.2	-38.2	23.1	0.00e+00	0	28	0	643825664	48	5849
2026-01-16 02:28:25.44	269.64	21.53	-37.6	-38.5	22.8	0.00e+00	92	28	0	645922816	48	6098
2026-01-16 02:28:26.45	269.91	21.54	-37.9	-38.9	22.5	0.00e+00	38	28	0	646971392	48	6324
2026-01-16 02:28:27.46	270.17	21.55	-37.8	-38.8	22.6	0.00e+00	0	28	0	649068544	48	6303
2026-01-16 02:28:28.47	270.43	21.57	-37.7	-38.7	22.7	0.00e+00	92	28	0	651165696	48	6215
2026-01-16 02:28:29.48	270.70	21.58	-37.4	-38.3	23.0	0.00e+00	0	28	0	653262848	48	5960
2026-01-16 02:28:30.49	270.96	21.59	-37.0	-37.9	23.3	0.00e+00	92	28	0	655360000	48	5687
2026-01-16 02:28:31.49	271.23	21.60	-37.0	-37.9	23.3	0.00e+00	0	28	0	656408576	48	5666
2026-01-16 02:28:32.50	271.49	21.61	-37.2	-38.1	23.1	0.00e+00	92	28	0	658505728	48	5822
2026-01-16 02:28:33.51	271.76	21.62	-37.3	-38.2	23.0	0.00e+00	32	28	0	660602880	48	5864
2026-01-16 02:28:34.52	272.02	21.63	-37.3	-38.2	23.0	0.00e+00	25	28	0	662700032	48	5860
2026-01-16 02:28:35.53	272.29	21.64	-37.2	-38.2	23.1	0.00e+00	92	28	0	664797184	48	5840
2026-01-16 02:28:36.54	272.56	21.64	-37.1	-38.0	23.2	0.00e+00	0	28	0	665845760	48	5715
2026-01-16 02:28:37.55	272.82	21.65	-36.9	-37.9	23.3	0.00e+00	92	28	0	667942912	48	5631
2026-01-16 02:28:38.56	273.09	21.66	-37.1	-38.0	23.2	0.00e+00	0	28	0	670040064	48	5748
2026-01-16 02:28:39.57	273.36	21.66	-37.5	-38.4	22.8	0.00e+00	92	28	0	672137216	48	6004
2026-01-16 02:28:40.58	273.62	21.67	-37.7	-38.7	22.7	0.00e+00	32	28	0	674234368	48	6183
2026-01-16 02:28:41.59	273.89	21.67	-37.7	-38.7	22.7	0.00e+00	3	28	0	675282944	48	6189
2026-01-16 02:28:42.60	274.15	21.67	-37.4	-38.4	22.9	0.00e+00	92	28	0	677380096	48	5989
2026-01-16 02:28:43.61	274.42	21.68	-37.4	-38.4	22.9	0.00e+00	0	28	0	679477248	48	5982
2026-01-16 02:28:44.62	274.69	21.68	-37.3	-38.2	23.1	0.00e+00	48	28	0	681574400	48	5888
2026-01-16 02:28:45.62	274.95	21.68	-37.6	-38.6	22.8	0.00e+00	0	28	0	683671552	48	6107
2026-01-16 02:28:46.63	275.22	21.68	-38.1	-39.1	22.3	0.00e+00	92	28	0	684720128	48	6486
2026-01-16 02:28:47.65	275.49	21.68	-38.4	-39.4	22.1	0.00e+00	0	28	0	686817280	48	6755
2026-01-16 02:28:48.65	275.75	21.68	-38.5	-39.6	21.9	0.00e+00	91	28	0	688914432	48	6857
2026-01-16 02:28:49.66	276.02	21.68	-38.6	-39.6	22.1	0.00e+00	92	28	0	691011584	48	6884
2026-01-16 02:28:50.67	276.29	21.68	-38.4	-39.4	22.1	0.00e+00	0	28	0	693108736	48	6760
2026-01-16 02:28:51.68	276.55	21.68	-38.2	-39.2	22.1	0.00e+00	35	28	0	695205888	48	6609
2026-01-16 02:28:52.69	276.82	21.68	-38.3	-39.4	22.1	0.00e+00	0	28	0	696254464	48	6696
2026-01-16 02:28:53.70	277.09	21.67	-38.1	-39.1	22.3	0.00e+00	91	28	0	698351616	48	6509
2026-01-16 02:28:54.71	277.35	21.67	-37.9	-38.8	22.5	0.00e+00	0	28	0	700448768	48	6315
2026-01-16 02:28:55.72	277.62	21.66	-37.5	-38.5	22.8	0.00e+00	90	28	0	702545920	48	6038
2026-01-16 02:28:56.73	277.88	21.66	-37.5	-38.4	22.8	0.00e+00	92	28	0	704643072	48	6014
2026-01-16 02:28:57.74	278.15	21.65	-37.4	-38.4	22.9	0.00e+00	0	28	0	705691648	48	5968
2026-01-16 02:28:58.75	278.42	21.65	-37.7	-38.7	22.8	0.00e+00	54	28	0	707788800	48	6178
2026-01-16 02:28:59.76	278.68	21.64	-37.8	-38.8	22.5	0.00e+00	0	28	0	709885952	48	6277
2026-01-16 02:29:00.76	278.95	21.63	-37.9	-38.9	22.5	0.00e+00	92	28	0	711983104	48	6386
2026-01-16 02:29:01.77	279.21	21.62	-38.0	-39.1	21.8	0.00e+00	0	28	0	714080256	48	6471
2026-01-16 02:29:02.78	279.48	21.61	-38.0	-39.0	22.5	0.00e+00	91	28	0	715128832	48	6430
2026-01-16 02:29:03.79	279.74	21.61	-37.7	-38.6	22.7	0.00e+00	92	28	0	717225984	48	6173
2026-01-16 02:29:04.80	280.01	21.60	-37.7	-38.6	22.6	0.00e+00	0	28	0	719323136	48	6151
2026-01-16 02:29:05.81	280.27	21.58	-37.7	-38.6	22.7	0.00e+00	66	28	0	721420288	48	6164
2026-01-16 02:29:06.82	280.54	21.57	-37.8	-38.8	22.6	0.00e+00	0	28	0	723517440	48	6279
2026-01-16 02:29:07.83	280.80	21.56	-37.7	-38.7	22.6	0.00e+00	92	28	0	724566016	48	6174
2026-01-16 02:29:08.83	281.06	21.55	-37.6	-38.5	22.8	0.00e+00	0	28	0	726663168	48	6078
2026-01-16 02:29:09.84	281.33	21.54	-37.5	-38.4	22.9	0.00e+00	92	28	0	728760320	48	6019
2026-01-16 02:29:10.85	281.59	21.52	-37.2	-38.1	23.1	0.00e+00	76	28	0	730857472	48	5770
2026-01-16 02:29:11.86	281.86	21.51	-37.0	-37.9	23.3	0.00e+00	0	28	0	732954624	48	5676
2026-01-16 02:29:12.87	282.12	21.49	-37.0	-37.9	23.3	0.00e+00	90	28	0	734003200	48	5669
2026-01-16 02:29:13.88	282.38	21.48	-37.0	-37.9	23.3	0.00e+00	0	28	0	736100352	48	5643
2026-01-16 02:29:14.89	282.65	21.46	-37.1	-38.0	23.3	0.00e+00	80	28	0	738197504	48	5726
2026-01-16 02:29:15.90	282.91	21.45	-37.3	-38.2	23.1	0.00e+00	0	28	0	740294656	48	5879
2026-01-16 02:29:16.91	283.17	21.43	-37.3	-38.3	23.1	0.00e+00	92	28	0	742391808	48	5917
2026-01-16 02:29:17.92	283.43	21.41	-37.4	-38.3	23.0	0.00e+00	52	28	0	743440384	48	5946
2026-01-16 02:29:18.93	283.69	21.39	-37.3	-38.3	23.1	0.00e+00	0	28	0	745537536	48	5901
2026-01-16 02:29:19.94	283.96	21.37	-37.3	-38.2	23.1	0.00e+00	92	28	0	747634688	48	5890
2026-01-16 02:29:20.95	284.22	21.35	-37.5	-38.4	22.9	0.00e+00	0	28	0	749731840	48	6002
2026-01-16 02:29:21.96	284.48	21.33	-37.3	-38.2	23.0	0.00e+00	37	28	0	751828992	48	5875
2026-01-16 02:29:22.97	284.74	21.31	-37.3	-38.2	22.9	0.00e+00	0	28	0	752877568	48	5844
2026-01-16 02:29:23.98	285.00	21.29	-37.3	-38.3	23.0	0.00e+00	92	28	0	754974720	48	5906
2026-01-16 02:29:24.99	285.26	21.27	-37.4	-38.3	23.0	0.00e+00	0	28	0	757071872	48	5948
2026-01-16 02:29:26.00	285.52	21.25	-37.6	-38.5	22.7	0.00e+00	50	28	0	759169024	48	6072
2026-01-16 02:29:27.01	285.78	21.22	-37.5	-38.4	22.9	0.00e+00	90	28	0	761266176	48	5989
2026-01-16 02:29:28.02	286.04	21.20	-37.3	-38.3	22.9	0.00e+00	0	28	0	763363328	48	5913
2026-01-16 02:29:29.03	286.29	21.18	-37.4	-38.3	22.9	0.00e+00	92	28	0	764411904	48	5955
2026-01-16 02:29:30.04	286.55	21.15	-37.2	-38.2	23.0	0.00e+00	0	28	0	766509056	48	5833
2026-01-16 02:29:31.05	286.81	21.13	-37.3	-38.3	23.0	0.00e+00	92	28	0	768606208	48	5904
2026-01-16 02:29:32.05	287.06	21.10	-37.5	-38.4	22.8	0.00e+00	0	28	0	770703360	48	6028
2026-01-16 02:29:33.06	287.32	21.07	-37.5	-38.5	22.9	0.00e+00	91	28	0	771751936	48	6034
2026-01-16 02:29:34.07	287.58	21.05	-37.5	-38.5	22.8	0.00e+00	92	28	0	773849088	48	6056
2026-01-16 02:29:35.08	287.83	21.02	-37.4	-38.4	23.0	0.00e+00	0	28	0	775946240	48	5983
2026-01-16 02:29:36.09	288.09	20.99	-37.4	-38.4	22.9	0.00e+00	0	28	0	778043392	48	5989
2026-01-16 02:29:37.10	288.34	20.96	-37.5	-38.5	22.8	0.00e+00	0	28	0	780140544	48	6049
2026-01-16 02:29:38.11	288.60	20.94	-37.4	-38.4	22.9	0.00e+00	27	28	0	781189120	48	5988
2026-01-16 02:29:39.12	288.85	20.91	-37.3	-38.2	23.1	0.00e+00	0	28	0	783286272	48	5861
2026-01-16 02:29:40.13	289.10	20.88	-37.4	-38.3	22.9	0.00e+00	47	28	0	785383424	48	5906
2026-01-16 02:29:41.13	289.35	20.85	-37.6	-38.5	22.6	0.00e+00	10	28	0	787480576	48	6102
2026-01-16 02:29:42.14	289.61	20.81	-37.7	-38.6	22.7	0.00e+00	0	28	0	789577728	48	6169
2026-01-16 02:29:43.15	289.86	20.78	-37.4	-38.4	22.8	0.00e+00	58	28	0	791674880	48	5988
2026-01-16 02:29:44.16	290.11	20.75	-37.5	-38.5	22.8	0.00e+00	0	28	0	792723456	48	6073
2026-01-16 02:29:45.17	290.36	20.72	-37.3	-38.2	22.9	0.00e+00	92	28	0	794820608	48	5883
2026-01-16 02:29:46.18	290.61	20.69	-37.2	-38.1	23.0	0.00e+00	0	28	0	796917760	48	5810
2026-01-16 02:29:47.19	290.86	20.65	-36.9	-37.9	23.2	0.00e+00	92	28	0	799014912	48	5640
2026-01-16 02:29:48.20	291.11	20.62	-36.9	-37.8	23.3	0.00e+00	34	28	0	801112064	48	5583
2026-01-16 02:29:49.21	291.36	20.58	-36.8	-37.7	23.4	0.00e+00	0	28	0	802160640	46	6212
2026-01-16 02:29:50.22	291.61	20.55	-37.0	-37.9	23.2	0.00e+00	49	28	0	804257792	46	6355
2026-01-16 02:29:51.23	291.85	20.51	-37.0	-37.9	23.3	0.00e+00	0	28	0	806354944	46	6378
2026-01-16 02:29:52.23	292.10	20.48	-36.8	-37.7	23.4	0.00e+00	90	28	0	808452096	46	6233
2026-01-16 02:29:53.24	292.35	20.44	-36.9	-37.8	23.3	0.00e+00	0	28	0	810549248	46	6278
2026-01-16 02:29:54.25	292.59	20.40	-36.7	-37.6	23.5	0.00e+00	91	28	0	811597824	46	6169
2026-01-16 02:29:55.26	292.84	20.37	-36.7	-37.6	23.6	0.00e+00	34	28	0	813694976	46	6120
2026-01-16 02:29:56.27	293.08	20.33	-36.5	-37.4	23.5	0.00e+00	0	28	0	815792128	46	5970
2026-01-16 02:29:57.28	293.33	20.29	-36.9	-37.8	23.3	0.00e+00	91	28	0	817889280	46	6264
2026-01-16 02:29:58.29	293.57	20.25	-36.6	-37.5	23.5	0.00e+00	0	28	0	819986432	46	6050
2026-01-16 02:29:59.30	293.81	20.21	-37.0	-37.9	23.2	0.00e+00	71	28	0	821035008	46	6336
2026-01-16 02:30:00.31	294.05	20.17	-37.2	-38.1	23.1	0.00e+00	0	28	0	823132160	46	6535
2026-01-16 02:30:01.32	294.30	20.13	-37.2	-38.1	23.1	0.00e+00	92	28	0	825229312	46	6526
2026-01-16 02:30:02.33	294.54	20.09	-37.1	-38.0	23.2	0.00e+00	0	28	0	827326464	46	6457
2026-01-16 02:30:03.34	294.78	20.05	-37.0	-37.9	23.2	0.00e+00	0	28	0	829423616	46	6376
2026-01-16 02:30:04.35	295.02	20.01	-36.8	-37.7	23.4	0.00e+00	86	28	0	830472192	46	6243
2026-01-16 02:30:05.35	295.25	19.97	-36.6	-37.5	23.6	0.00e+00	0	28	0	832569344	46	6086
2026-01-16 02:30:06.36	295.49	19.93	-36.7	-37.6	23.5	0.00e+00	32	28	0	834666496	46	6146
2026-01-16 02:30:07.37	295.73	19.88	-36.6	-37.5	23.6	0.00e+00	0	28	0	836763648	46	6034
2026-01-16 02:30:08.37	295.96	19.84	-36.7	-37.6	23.5	0.00e+00	91	28	0	838860800	46	6158
2026-01-16 02:30:09.38	296.20	19.80	-36.5	-37.3	23.6	0.00e+00	0	28	0	839909376	46	5952
2026-01-16 02:30:10.39	296.44	19.75	-36.4	-37.3	23.7	0.00e+00	69	28	0	842006528	46	5926
2026-01-16 02:30:11.40	296.67	19.71	-36.5	-37.4	23.5	0.00e+00	77	28	0	844103680	46	5996
2026-01-16 02:30:12.41	296.91	19.66	-36.8	-37.7	23.4	0.00e+00	0	28	0	846200832	46	6205
2026-01-16 02:30:13.42	297.14	19.62	-36.7	-37.6	23.5	0.00e+00	37	28	0	848297984	46	6157
2026-01-16 02:30:14.43	297.37	19.57	-36.8	-37.7	23.4	0.00e+00	0	28	0	849346560	46	6225
2026-01-16 02:30:15.44	297.61	19.53	-36.6	-37.4	23.6	0.00e+00	95	28	0	851443712	46	6025
2026-01-16 02:30:16.45	297.84	19.48	-36.5	-37.3	23.8	0.00e+00	0	28	0	853540864	46	5944
2026-01-16 02:30:17.46	298.07	19.44	-36.4	-37.2	23.8	0.00e+00	75	28	0	855638016	46	5875
2026-01-16 02:30:18.47	298.30	19.39	-36.6	-37.5	23.6	0.00e+00	38	28	0	857735168	46	6055
2026-01-16 02:30:19.48	298.53	19.34	-36.7	-37.6	23.5	0.00e+00	0	28	0	858783744	46	6169
2026-01-16 02:30:20.49	298.76	19.29	-36.8	-37.7	23.3	0.00e+00	39	28	0	860880896	46	6215
2026-01-16 02:30:21.50	298.99	19.25	-36.9	-37.8	23.1	0.00e+00	0	28	0	862978048	46	6303
2026-01-16 02:30:22.51	299.21	19.20	-37.2	-38.2	23.0	0.00e+00	90	28	0	865075200	46	6562
2026-01-16 02:30:23.51	299.44	19.15	-37.4	-38.3	22.9	0.00e+00	0	28	0	867172352	46	6679
2026-01-16 02:30:24.52	299.66	19.10	-37.3	-38.3	22.9	0.00e+00	92	28	0	869269504	46	6637
2026-01-16 02:30:25.53	299.89	19.05	-37.2	-38.1	23.1	0.00e+00	67	28	0	870318080	46	6538
2026-01-16 02:30:26.54	300.11	19.00	-37.1	-38.0	23.2	0.00e+00	0	28	0	872415232	46	6444
2026-01-16 02:30:27.55	300.34	18.95	-36.9	-37.8	23.3	0.00e+00	62	28	0	874512384	46	6257
2026-01-16 02:30:28.56	300.56	18.90	-37.0	-37.9	23.2	0.00e+00	0	28	0	876609536	46	6374
2026-01-16 02:30:29.57	300.78	18.85	-37.0	-37.9	23.4	0.00e+00	92	28	0	878706688	46	6318
2026-01-16 02:30:30.58	301.01	18.80	-36.9	-37.8	23.3	0.00e+00	0	28	0	879755264	46	6256
2026-01-16 02:30:31.59	301.23	18.75	-37.0	-37.9	23.3	0.00e+00	76	28	0	881852416	46	6354
2026-01-16 02:30:32.60	301.45	18.70	-37.0	-37.9	23.2	0.00e+00	0	28	0	883949568	46	6387
2026-01-16 02:30:33.61	301.67	18.65	-37.2	-38.1	23.0	0.00e+00	0	28	0	886046720	46	6488
2026-01-16 02:30:34.61	301.88	18.59	-37.2	-38.2	23.0	0.00e+00	92	28	0	887095296	46	6551
2026-01-16 02:30:35.62	302.10	18.54	-37.2	-38.2	23.0	0.00e+00	0	28	0	889192448	46	6541
2026-01-16 02:30:36.63	302.32	18.49	-37.4	-38.4	22.8	0.00e+00	31	28	0	891289600	46	6713
2026-01-16 02:30:37.64	302.54	18.44	-37.7	-38.7	22.4	0.00e+00	0	28	0	893386752	46	6945
2026-01-16 02:30:38.65	302.75	18.38	-38.0	-39.0	22.3	0.00e+00	92	28	0	895483904	48	6427
2026-01-16 02:30:39.66	302.97	18.33	-38.3	-39.4	21.9	0.00e+00	0	28	0	897581056	48	6726
2026-01-16 02:30:40.67	303.18	18.28	-38.6	-39.6	21.9	0.00e+00	0	28	0	898629632	48	6920
2026-01-16 02:30:41.68	303.40	18.22	-38.5	-39.6	21.9	0.00e+00	92	28	0	900726784	48	6850
2026-01-16 02:30:42.69	303.61	18.17	-38.2	-39.2	22.3	0.00e+00	0	28	0	902823936	48	6581
2026-01-16 02:30:43.70	303.82	18.11	-37.9	-38.9	22.5	0.00e+00	33	28	0	904921088	48	6380
2026-01-16 02:30:44.71	304.03	18.06	-37.8	-38.7	22.6	0.00e+00	0	28	0	907018240	48	6239
2026-01-16 02:30:45.72	304.24	18.00	-37.7	-38.7	22.5	0.00e+00	92	28	0	908066816	48	6201
2026-01-16 02:30:46.73	304.45	17.95	-37.9	-38.9	22.4	0.00e+00	0	28	0	910163968	48	6385
2026-01-16 02:30:47.74	304.66	17.89	-38.3	-39.4	22.0	0.00e+00	60	28	0	912261120	48	6733
2026-01-16 02:30:48.74	304.87	17.84	-38.8	-39.9	21.6	0.00e+00	92	28	0	914358272	48	7092
2026-01-16 02:30:49.75	305.08	17.78	-38.5	-39.6	21.7	0.00e+00	0	28	0	916455424	50	6120
2026-01-16 02:30:50.76	305.28	17.72	-38.4	-39.5	21.9	0.00e+00	63	28	0	917504000	50	6072
2026-01-16 02:30:51.77	305.49	17.67	-38.5	-39.5	21.9	0.00e+00	0	28	0	919601152	50	6082
2026-01-16 02:30:52.78	305.70	17.61	-38.1	-39.1	22.2	0.00e+00	92	28	0	921698304	50	5808
2026-01-16 02:30:53.78	305.90	17.55	-38.1	-39.1	22.2	0.00e+00	0	28	0	923795456	50	5806
2026-01-16 02:30:54.79	306.10	17.50	-38.0	-39.1	22.3	0.00e+00	92	28	0	925892608	50	5779
2026-01-16 02:30:55.80	306.31	17.44	-38.2	-39.2	22.2	0.00e+00	36	28	0	926941184	50	5853
2026-01-16 02:30:56.81	306.51	17.38	-38.3	-39.3	22.2	0.00e+00	0	28	0	929038336	50	5937
2026-01-16 02:30:57.82	306.71	17.32	-38.3	-39.4	22.1	0.00e+00	29	28	0	931135488	50	5982
2026-01-16 02:30:58.83	306.91	17.27	-38.4	-39.5	21.9	0.00e+00	0	28	0	933232640	50	6059
2026-01-16 02:30:59.84	307.11	17.21	-38.8	-39.9	21.8	0.00e+00	92	27	0	935329792	50	6320
2026-01-16 02:31:00.85	307.31	17.15	-38.5	-39.6	21.8	0.00e+00	0	28	0	936378368	50	6144
2026-01-16 02:31:01.86	307.51	17.09	-38.6	-39.7	21.8	0.00e+00	91	28	0	938475520	50	6232
2026-01-16 02:31:02.86	307.71	17.03	-38.5	-39.6	21.8	0.00e+00	0	28	0	940572672	50	6131
2026-01-16 02:31:03.88	307.90	16.97	-38.3	-39.4	22.0	0.00e+00	0	28	0	942669824	50	5993
2026-01-16 02:31:04.88	308.10	16.92	-38.5	-39.6	21.8	0.00e+00	79	28	0	944766976	50	6140
2026-01-16 02:31:05.89	308.30	16.86	-38.7	-39.8	21.7	0.00e+00	0	28	0	945815552	50	6254
2026-01-16 02:31:06.90	308.49	16.80	-38.6	-39.7	21.9	0.00e+00	71	28	0	947912704	50	6194
2026-01-16 02:31:07.91	308.68	16.74	-39.1	-40.2	21.2	0.00e+00	0	28	0	950009856	50	6613
2026-01-16 02:31:08.92	308.88	16.68	-39.0	-40.2	21.3	0.00e+00	81	27	0	952107008	50	6548
2026-01-16 02:31:09.93	309.07	16.62	-38.9	-40.1	21.2	0.00e+00	0	28	0	954204160	50	6531
2026-01-16 02:31:10.94	309.26	16.56	-39.0	-40.1	21.2	0.00e+00	0	28	0	955252736	50	6539
2026-01-16 02:31:11.95	309.45	16.50	-38.9	-40.1	21.2	0.00e+00	92	28	0	957349888	50	6484
2026-01-16 02:31:12.96	309.64	16.44	-38.8	-39.9	21.4	0.00e+00	0	28	0	959447040	50	6390
2026-01-16 02:31:13.97	309.83	16.38	-38.8	-40.0	21.3	0.00e+00	38	28	0	961544192	50	6432
2026-01-16 02:31:14.98	310.02	16.32	-38.8	-39.9	21.5	0.00e+00	0	28	0	963641344	50	6379
2026-01-16 02:31:15.99	310.21	16.26	-38.6	-39.8	21.6	0.00e+00	92	28	0	965738496	50	6260
2026-01-16 02:31:17.00	310.40	16.19	-38.5	-39.6	21.6	0.00e+00	0	28	0	966787072	50	6157
2026-01-16 02:31:18.00	310.58	16.13	-38.7	-39.8	21.4	0.00e+00	0	28	0	968884224	50	6306
2026-01-16 02:31:19.01	310.77	16.07	-38.4	-39.5	21.8	0.00e+00	92	28	0	970981376	50	6084
2026-01-16 02:31:20.02	310.95	16.01	-38.1	-39.2	22.0	0.00e+00	0	28	0	973078528	50	5844
2026-01-16 02:31:21.03	311.14	15.95	-38.1	-39.1	22.1	0.00e+00	92	28	0	975175680	50	5820
2026-01-16 02:31:22.04	311.32	15.89	-37.7	-38.7	22.4	0.00e+00	0	28	0	976224256	50	5520
2026-01-16 02:31:23.05	311.51	15.83	-37.6	-38.6	22.5	0.00e+00	92	28	0	978321408	48	6152
2026-01-16 02:31:24.06	311.69	15.77	-37.5	-38.5	22.5	0.00e+00	0	28	0	980418560	48	6091
2026-01-16 02:31:25.07	311.87	15.70	-37.7	-38.7	22.4	0.00e+00	0	28	0	982515712	48	6192
2026-01-16 02:31:26.08	312.05	15.64	-37.9	-38.9	22.3	0.00e+00	71	28	0	984612864	48	6384
2026-01-16 02:31:27.09	312.23	15.58	-37.8	-38.9	22.2	0.00e+00	0	28	0	985661440	48	6338
2026-01-16 02:31:28.10	312.41	15.52	-38.0	-39.1	22.1	0.00e+00	0	28	0	987758592	48	6508
2026-01-16 02:31:29.10	312.59	15.46	-38.0	-39.0	22.1	0.00e+00	0	28	0	989855744	48	6434
2026-01-16 02:31:30.11	312.77	15.39	-38.1	-39.2	22.0	0.00e+00	36	28	0	991952896	48	6550
2026-01-16 02:31:31.12	312.94	15.33	-38.0	-39.1	22.1	0.00e+00	0	28	0	994050048	48	6473
2026-01-16 02:31:32.13	313.12	15.27	-38.1	-39.2	21.9	0.00e+00	92	28	0	995098624	48	6562
2026-01-16 02:31:33.14	313.29	15.21	-38.5	-39.6	21.6	0.00e+00	89	28	0	997195776	48	6900
2026-01-16 02:31:34.15	313.47	15.14	-38.5	-39.6	21.7	0.00e+00	0	28	0	999292928	48	6875
2026-01-16 02:31:35.16	313.64	15.08	-38.8	-39.9	21.4	0.00e+00	37	28	0	1001390080	50	6375
2026-01-16 02:31:36.17	313.82	15.02	-38.7	-39.8	21.4	0.00e+00	0	28	0	1003487232	50	6278
2026-01-16 02:31:37.18	313.99	14.95	-38.7	-39.9	21.4	0.00e+00	92	28	0	1004535808	50	6356
2026-01-16 02:31:38.19	314.16	14.89	-38.6	-39.8	21.5	0.00e+00	0	28	0	1006632960	50	6261
2026-01-16 02:31:39.20	314.33	14.83	-38.2	-39.3	21.9	0.00e+00	82	28	0	1008730112	50	5898
2026-01-16 02:31:40.20	314.50	14.77	-38.3	-39.4	21.8	0.00e+00	31	28	0	1010827264	50	5976
2026-01-16 02:31:41.21	314.67	14.70	-38.0	-39.0	22.0	0.00e+00	0	28	0	1012924416	50	5751
2026-01-16 02:31:42.22	314.84	14.64	-37.9	-38.9	22.1	0.00e+00	92	28	0	1013972992	50	5687
2026-01-16 02:31:43.23	315.01	14.58	-38.1	-39.1	22.0	0.00e+00	0	28	0	1016070144	50	5805
2026-01-16 02:31:44.24	315.18	14.51	-38.1	-39.2	21.9	0.00e+00	92	28	0	1018167296	50	5867
2026-01-16 02:31:45.25	315.35	14.45	-38.2	-39.3	21.9	0.00e+00	0	28	0	1020264448	50	5934
2026-01-16 02:31:46.26	315.51	14.38	-38.6	-39.8	21.6	0.00e+00	92	28	0	1022361600	50	6255
2026-01-16 02:31:47.27	315.68	14.32	-38.7	-39.8	21.4	0.00e+00	25	28	0	1023410176	50	6298
2026-01-16 02:31:48.28	315.84	14.26	-38.9	-40.0	21.3	0.00e+00	0	28	0	1025507328	50	6460
2026-01-16 02:31:49.29	316.01	14.19	-38.4	-39.5	21.7	0.00e+00	92	28	0	1027604480	50	6087
2026-01-16 02:31:50.30	316.17	14.13	-38.2	-39.2	22.0	0.00e+00	0	28	0	1029701632	50	5892
2026-01-16 02:31:51.31	316.34	14.07	-37.7	-38.8	22.3	0.00e+00	34	28	0	1031798784	50	5568
2026-01-16 02:31:52.32	316.50	14.00	-37.9	-39.0	22.1	0.00e+00	0	28	0	1033895936	48	6397
2026-01-16 02:31:53.33	316.66	13.94	-37.9	-38.9	22.4	0.00e+00	92	28	0	1034944512	48	6336
2026-01-16 02:31:54.34	316.82	13.87	-37.5	-38.5	22.3	0.00e+00	0	28	0	1037041664	48	6063
2026-01-16 02:31:55.35	316.98	13.81	-37.9	-38.9	22.2	0.00e+00	0	28	0	1039138816	48	6389
2026-01-16 02:31:56.36	317.14	13.75	-37.9	-38.9	22.1	0.00e+00	92	28	0	1041235968	48	6365
2026-01-16 02:31:57.37	317.30	13.68	-38.2	-39.2	22.0	0.00e+00	0	28	0	1043333120	48	6613
2026-01-16 02:31:58.38	317.46	13.62	-38.7	-39.8	21.4	0.00e+00	88	27	0	1044381696	50	6296
2026-01-16 02:31:59.38	317.62	13.56	-39.0	-40.2	21.3	0.00e+00	0	28	0	1046478848	50	6562
2026-01-16 02:32:00.37	317.77	13.49	-39.5	-40.8	20.5	0.00e+00	78	28	0	1048576000	50	7020
2026-01-16 02:32:01.38	317.93	13.43	-39.5	-40.7	20.8	0.00e+00	0	28	0	1050673152	50	6986
2026-01-16 02:32:02.39	318.08	13.36	-39.1	-40.3	21.1	0.00e+00	90	27	0	1051721728	50	6634
2026-01-16 02:32:03.40	318.24	13.30	-38.3	-39.5	21.8	0.00e+00	33	28	0	1053818880	50	6047
2026-01-16 02:32:04.41	318.39	13.24	-38.0	-39.1	22.0	0.00e+00	0	28	0	1055916032	50	5782
2026-01-16 02:32:05.42	318.55	13.17	-38.2	-39.3	22.0	0.00e+00	74	28	0	1058013184	50	5905
2026-01-16 02:32:06.43	318.70	13.11	-37.5	-38.5	22.6	0.00e+00	0	28	0	1060110336	48	6056
2026-01-16 02:32:07.44	318.85	13.04	-37.5	-38.5	22.4	0.00e+00	92	28	0	1062207488	48	6075
2026-01-16 02:32:08.45	319.00	12.98	-37.4	-38.3	22.7	0.00e+00	0	28	0	1063256064	48	5951
2026-01-16 02:32:09.46	319.16	12.91	-37.1	-38.1	22.8	0.00e+00	92	28	0	1065353216	48	5775
2026-01-16 02:32:10.46	319.30	12.85	-37.6	-38.5	22.5	0.00e+00	0	28	0	1067450368	48	6102
2026-01-16 02:32:11.47	319.45	12.79	-37.9	-39.0	22.3	0.00e+00	0	28	0	1069547520	48	6415
2026-01-16 02:32:12.48	319.60	12.72	-38.0	-39.0	21.9	0.00e+00	90	28	0	1071644672	48	6446
2026-01-16 02:32:13.49	319.75	12.66	-38.2	-39.3	22.1	0.00e+00	0	28	0	1072693248	48	6647
2026-01-16 02:32:14.50	319.90	12.59	-37.7	-38.8	22.1	0.00e+00	72	27	0	1074790400	48	6252
2026-01-16 02:32:15.51	320.05	12.53	-37.7	-38.8	22.2	0.00e+00	0	28	0	1076887552	48	6257
2026-01-16 02:32:16.52	320.20	12.47	-37.2	-38.2	22.7	0.00e+00	92	28	0	1078984704	48	5860
2026-01-16 02:32:17.52	320.34	12.40	-37.0	-38.0	22.8	0.00e+00	0	28	0	1081081856	48	5724
2026-01-16 02:32:18.53	320.49	12.34	-37.2	-38.1	22.7	0.00e+00	0	28	0	1082130432	48	5821
2026-01-16 02:32:19.54	320.63	12.27	-37.6	-38.6	22.3	0.00e+00	77	28	0	1084227584	48	6162
2026-01-16 02:32:20.55	320.78	12.21	-37.4	-38.4	22.5	0.00e+00	0	28	0	1086324736	48	6018
2026-01-16 02:32:21.56	320.92	12.14	-37.7	-38.7	22.2	0.00e+00	92	27	0	1088421888	48	6201
2026-01-16 02:32:22.57	321.06	12.08	-37.9	-39.0	22.0	0.00e+00	0	28	0	1090519040	48	6418
2026-01-16 02:32:23.58	321.21	12.02	-38.1	-39.2	21.8	0.00e+00	70	28	0	1091567616	48	6604
2026-01-16 02:32:24.58	321.35	11.95	-38.4	-39.5	21.6	0.00e+00	0	28	0	1093664768	48	6787
2026-01-16 02:32:25.59	321.49	11.89	-38.6	-39.8	21.4	0.00e+00	0	28	0	1095761920	48	7018
2026-01-16 02:32:26.60	321.63	11.82	-38.5	-39.6	21.5	0.00e+00	28	28	0	1097859072	48	6902
2026-01-16 02:32:27.61	321.77	11.76	-38.5	-39.7	21.4	0.00e+00	0	28	0	1099956224	48	6960
2026-01-16 02:32:28.62	321.91	11.70	-38.5	-39.7	21.4	0.00e+00	49	28	0	1101004800	50	6188
2026-01-16 02:32:29.63	322.05	11.63	-38.5	-39.6	21.5	0.00e+00	0	28	0	1103101952	50	6139
2026-01-16 02:32:30.64	322.19	11.57	-38.3	-39.4	21.7	0.00e+00	0	28	0	1105199104	50	5996
2026-01-16 02:32:31.65	322.32	11.50	-38.1	-39.2	22.0	0.00e+00	0	28	0	1107296256	50	5845
2026-01-16 02:32:32.66	322.46	11.44	-38.2	-39.3	21.7	0.00e+00	0	28	0	1109393408	50	5949
2026-01-16 02:32:33.67	322.60	11.38	-38.3	-39.4	21.6	0.00e+00	70	28	0	1110441984	50	5969
2026-01-16 02:32:34.68	322.73	11.31	-38.3	-39.5	21.5	0.00e+00	0	28	0	1112539136	50	6037
2026-01-16 02:32:35.69	322.87	11.25	-38.1	-39.2	21.7	0.00e+00	67	28	0	1114636288	50	5891
2026-01-16 02:32:36.70	323.01	11.18	-38.3	-39.4	21.7	0.00e+00	0	27	0	1116733440	50	5970
2026-01-16 02:32:37.71	323.14	11.12	-38.2	-39.2	21.8	0.00e+00	21	27	0	1118830592	50	5891
2026-01-16 02:32:38.72	323.27	11.06	-37.9	-39.0	22.0	0.00e+00	0	28	0	1119879168	50	5706
2026-01-16 02:32:39.73	323.41	10.99	-37.8	-38.8	22.2	0.00e+00	0	27	0	1121976320	50	5615
2026-01-16 02:32:40.74	323.54	10.93	-37.5	-38.5	22.4	0.00e+00	46	27	0	1124073472	48	6097
2026-01-16 02:32:41.75	323.67	10.87	-37.5	-38.5	22.3	0.00e+00	0	27	0	1126170624	48	6061
2026-01-16 02:32:42.76	323.80	10.80	-37.3	-38.3	22.5	0.00e+00	92	27	0	1128267776	48	5935
2026-01-16 02:32:43.77	323.93	10.74	-37.4	-38.4	22.3	0.00e+00	0	28	0	1130364928	48	5992
2026-01-16 02:32:44.78	324.07	10.67	-37.3	-38.3	22.5	0.00e+00	34	28	0	1131413504	48	5920
2026-01-16 02:32:45.79	324.20	10.61	-37.5	-38.5	22.4	0.00e+00	0	28	0	1133510656	48	6049
2026-01-16 02:32:46.80	324.33	10.55	-37.5	-38.5	22.3	0.00e+00	0	27	0	1135607808	48	6081
2026-01-16 02:32:47.81	324.45	10.48	-37.9	-38.9	21.9	0.00e+00	0	28	0	1137704960	48	6359
2026-01-16 02:32:48.82	324.58	10.42	-38.0	-39.1	21.7	0.00e+00	0	27	0	1139802112	48	6489
2026-01-16 02:32:49.83	324.71	10.36	-37.9	-39.0	22.0	0.00e+00	34	27	0	1140850688	48	6412
2026-01-16 02:32:50.84	324.84	10.29	-37.9	-39.0	21.7	0.00e+00	0	27	0	1142947840	48	6400
2026-01-16 02:32:51.84	324.96	10.23	-37.9	-39.0	21.8	0.00e+00	90	27	0	1145044992	48	6393
2026-01-16 02:32:52.85	325.09	10.17	-37.9	-39.0	21.8	0.00e+00	0	27	0	1147142144	48	6422
2026-01-16 02:32:53.86	325.22	10.10	-37.9	-38.9	21.9	0.00e+00	0	27	0	1149239296	48	6384
2026-01-16 02:32:54.87	325.34	10.04	-38.0	-39.1	21.8	0.00e+00	0	27	0	1150287872	48	6502
2026-01-16 02:32:55.88	325.47	9.98	-38.1	-39.2	21.7	0.00e+00	0	28	0	1152385024	48	6553
2026-01-16 02:32:56.89	325.59	9.91	-37.8	-38.9	22.0	0.00e+00	29	28	0	1154482176	48	6330
2026-01-16 02:32:57.90	325.71	9.85	-37.7	-38.8	22.0	0.00e+00	0	28	0	1156579328	48	6261
2026-01-16 02:32:58.91	325.84	9.79	-37.9	-38.9	21.9	0.00e+00	91	27	0	1158676480	48	6389
2026-01-16 02:32:59.92	325.96	9.72	-38.1	-39.1	21.7	0.00e+00	0	27	0	1159725056	48	6526
2026-01-16 02:33:00.93	326.08	9.66	-38.4	-39.5	21.5	0.00e+00	0	27	0	1161822208	48	6840
2026-01-16 02:33:01.94	326.20	9.60	-38.5	-39.6	21.3	0.00e+00	0	28	0	1163919360	48	6912
2026-01-16 02:33:02.95	326.32	9.54	-38.7	-39.9	21.2	0.00e+00	0	27	0	1166016512	48	7117
2026-01-16 02:33:03.95	326.44	9.47	-38.8	-39.9	21.1	0.00e+00	51	27	0	1168113664	50	6375
2026-01-16 02:33:04.96	326.56	9.41	-38.9	-40.1	20.9	0.00e+00	32	27	0	1169162240	50	6473
2026-01-16 02:33:05.97	326.68	9.35	-38.9	-40.1	20.9	0.00e+00	63	27	0	1171259392	50	6492
2026-01-16 02:33:06.98	326.80	9.29	-38.5	-39.7	21.3	0.00e+00	0	27	0	1173356544	50	6211
2026-01-16 02:33:07.99	326.92	9.22	-38.5	-39.6	21.4	0.00e+00	0	27	0	1175453696	50	6140
2026-01-16 02:33:09.00	327.04	9.16	-38.3	-39.4	21.6	0.00e+00	0	27	0	1177550848	50	5974
2026-01-16 02:33:10.01	327.16	9.10	-38.1	-39.2	21.7	0.00e+00	0	28	0	1178599424	50	5880
2026-01-16 02:33:11.02	327.28	9.04	-37.8	-38.8	22.0	0.00e+00	31	27	0	1180696576	50	5598
2026-01-16 02:33:12.03	327.39	8.97	-37.5	-38.5	22.2	0.00e+00	0	27	0	1182793728	48	6083
2026-01-16 02:33:13.04	327.51	8.91	-37.4	-38.4	22.3	0.00e+00	88	27	0	1184890880	48	6033
2026-01-16 02:33:14.05	327.62	8.85	-37.4	-38.4	22.3	0.00e+00	0	27	0	1186988032	48	5980
2026-01-16 02:33:15.06	327.74	8.79	-37.4	-38.4	22.3	0.00e+00	0	27	0	1188036608	48	5968
2026-01-16 02:33:16.07	327.85	8.72	-37.4	-38.5	22.2	0.00e+00	0	28	0	1190133760	48	6045
2026-01-16 02:33:17.08	327.97	8.66	-37.7	-38.8	22.0	0.00e+00	0	27	0	1192230912	48	6260
2026-01-16 02:33:18.09	328.08	8.60	-38.0	-39.1	21.7	0.00e+00	0	27	0	1194328064	48	6475
2026-01-16 02:33:19.10	328.20	8.54	-38.2	-39.3	21.5	0.00e+00	0	27	0	1196425216	48	6664
