passes_logs/2026/01/16/R4.6S_Anadyr/R4.6S_Anadyr__20260116_042541_AQUA_rec.log

#Pass ID: 20260116_042541_AQUA
#Satellite: AQUA
#Configuration: AQUA
#almurnet v.1.7.20251203
#Start time: 2026-01-16 04:25:44

#Version: 2.2.20231116
#Station: R4.6S_Anadyr
#Location: 177.4865 lon 64.73178 lat
#TLE: 1 27424U 02022A   26014.61231444  .00000653  00000+0  14070-3 0  9991
#TLE: 2 27424  98.4080 341.0332 0002042  78.9336 335.9961 14.61820174260839

#Time	Az	El	Level	Level2	SNR	BER	BlckErr	Temp	State	Recorded	gain1	gain2
2026-01-16 04:25:44.34	225.46	0.13	-48.2	-60.7	3.4	1.52e+00	0	26	0	0	60	37894
2026-01-16 04:25:45.34	225.55	0.18	-48.7	-66.8	3.5	3.04e+01	0	27	104	0	60	84158
2026-01-16 04:25:46.35	225.64	0.23	-48.7	-66.7	3.5	3.04e+01	0	27	104	0	60	82936
2026-01-16 04:25:47.36	225.73	0.28	-48.2	-66.4	3.5	3.04e+01	0	27	104	0	60	80785
2026-01-16 04:25:48.37	225.83	0.33	-48.5	-66.5	3.5	3.04e+01	0	27	104	0	60	81236
2026-01-16 04:25:49.38	225.92	0.37	-48.3	-66.5	3.5	3.04e+01	0	27	104	0	60	81106
2026-01-16 04:25:50.39	226.01	0.42	-48.3	-66.4	3.5	3.04e+01	0	27	104	0	60	80729
2026-01-16 04:25:51.40	226.11	0.47	-48.5	-66.5	3.5	3.04e+01	0	28	104	0	60	80890
2026-01-16 04:25:52.41	226.20	0.52	-48.4	-66.4	3.5	3.04e+01	0	27	104	0	60	80637
2026-01-16 04:25:53.41	226.29	0.57	-48.4	-66.4	3.5	3.04e+01	0	28	104	0	60	80610
2026-01-16 04:25:54.43	226.39	0.62	-48.3	-66.4	3.5	3.04e+01	0	28	104	0	60	80132
2026-01-16 04:25:55.44	226.48	0.67	-48.3	-66.4	3.5	3.04e+01	0	28	104	0	60	80181
2026-01-16 04:25:56.45	226.58	0.72	-48.5	-66.3	3.5	3.04e+01	0	28	104	0	60	79886
2026-01-16 04:25:57.46	226.67	0.77	-48.4	-66.3	3.5	3.04e+01	0	28	104	0	60	79189
2026-01-16 04:25:58.47	226.77	0.81	-48.3	-66.1	3.5	3.04e+01	0	28	104	0	60	77935
2026-01-16 04:25:59.48	226.86	0.86	-47.9	-65.9	3.5	3.04e+01	0	28	104	0	60	75959
2026-01-16 04:26:00.49	226.96	0.91	-46.8	-65.4	3.5	3.04e+01	0	28	104	0	60	71851
2026-01-16 04:26:01.50	227.06	0.96	-46.0	-63.9	3.5	3.04e+01	0	28	104	0	60	60150
2026-01-16 04:26:02.51	227.15	1.01	-45.0	-63.7	3.5	3.04e+01	0	28	104	0	60	58757
2026-01-16 04:26:03.52	227.25	1.06	-44.9	-63.7	3.5	3.04e+01	0	28	104	0	60	58744
2026-01-16 04:26:04.53	227.35	1.11	-44.8	-63.8	3.5	3.04e+01	0	28	104	0	60	59622
2026-01-16 04:26:05.54	227.45	1.16	-44.9	-63.9	3.5	3.04e+01	0	28	104	0	60	60185
2026-01-16 04:26:06.54	227.55	1.21	-44.5	-63.8	3.5	3.04e+01	0	28	104	0	60	59748
2026-01-16 04:26:07.55	227.64	1.26	-44.9	-63.9	3.5	3.04e+01	0	28	104	0	60	60240
2026-01-16 04:26:08.56	227.74	1.31	-44.9	-63.9	3.5	3.04e+01	0	28	104	0	60	60189
2026-01-16 04:26:09.57	227.84	1.36	-44.9	-63.8	3.5	3.04e+01	0	28	104	0	60	59489
2026-01-16 04:26:10.58	227.94	1.41	-44.7	-63.8	3.5	3.04e+01	0	28	104	0	60	59522
2026-01-16 04:26:11.59	228.04	1.46	-44.9	-64.0	3.5	3.04e+01	0	28	104	0	60	60644
2026-01-16 04:26:12.60	228.14	1.51	-44.9	-63.8	3.5	3.04e+01	0	28	104	0	60	59642
2026-01-16 04:26:13.62	228.25	1.56	-44.9	-63.8	3.5	3.04e+01	0	28	104	0	60	59693
2026-01-16 04:26:14.63	228.35	1.60	-44.9	-63.8	3.5	3.04e+01	0	28	104	0	60	59630
2026-01-16 04:26:15.63	228.45	1.65	-45.0	-63.9	3.5	3.04e+01	0	28	104	0	60	60417
2026-01-16 04:26:16.64	228.55	1.70	-44.8	-63.9	3.5	3.04e+01	0	28	104	0	60	60006
2026-01-16 04:26:17.65	228.65	1.75	-44.9	-63.8	3.5	3.04e+01	0	28	104	0	60	59583
2026-01-16 04:26:18.66	228.75	1.80	-45.0	-63.8	3.5	3.04e+01	0	28	104	0	60	59541
2026-01-16 04:26:19.67	228.86	1.85	-44.8	-63.7	3.5	3.04e+01	0	28	104	0	60	59169
2026-01-16 04:26:20.68	228.96	1.90	-44.8	-63.8	3.5	3.04e+01	0	28	104	0	60	59500
2026-01-16 04:26:21.69	229.06	1.95	-44.9	-63.7	3.5	3.04e+01	0	28	104	0	60	58937
2026-01-16 04:26:22.70	229.17	2.00	-44.8	-63.7	3.5	3.04e+01	0	28	104	0	60	58743
2026-01-16 04:26:23.71	229.27	2.05	-44.5	-63.7	3.5	3.04e+01	0	28	104	0	60	58838
2026-01-16 04:26:24.72	229.38	2.10	-44.8	-63.8	3.5	3.04e+01	0	28	104	0	60	59432
2026-01-16 04:26:25.73	229.48	2.15	-44.8	-63.9	3.5	3.04e+01	0	28	104	0	60	60038
2026-01-16 04:26:26.74	229.59	2.20	-44.9	-63.8	3.5	3.04e+01	0	28	104	0	60	59571
2026-01-16 04:26:27.75	229.69	2.25	-44.8	-63.6	3.5	3.04e+01	0	28	104	0	60	58373
2026-01-16 04:26:28.76	229.80	2.30	-44.9	-63.4	3.5	3.04e+01	0	28	104	0	60	57100
2026-01-16 04:26:29.77	229.91	2.35	-44.7	-63.4	3.5	3.04e+01	0	28	104	0	60	56834
2026-01-16 04:26:30.78	230.01	2.40	-44.9	-63.4	3.5	3.04e+01	0	28	104	0	60	56910
2026-01-16 04:26:31.79	230.12	2.45	-44.9	-63.4	3.5	3.04e+01	0	28	104	0	60	57027
2026-01-16 04:26:32.80	230.23	2.50	-45.1	-63.5	3.5	3.04e+01	0	28	104	0	60	57332
2026-01-16 04:26:33.81	230.34	2.55	-44.8	-63.3	3.5	3.04e+01	0	28	104	0	60	56049
2026-01-16 04:26:34.82	230.45	2.60	-44.7	-62.9	3.5	3.04e+01	0	28	104	0	60	53641
2026-01-16 04:26:35.83	230.56	2.65	-44.7	-62.2	3.6	3.04e+01	0	28	104	0	60	49788
2026-01-16 04:26:36.84	230.67	2.70	-44.7	-61.2	3.9	3.04e+01	0	28	104	0	60	44175
2026-01-16 04:26:37.85	230.78	2.75	-44.5	-60.0	4.4	3.04e+01	0	28	104	0	60	38365
2026-01-16 04:26:38.86	230.89	2.80	-44.8	-59.2	4.7	3.04e+01	0	28	104	0	60	35277
2026-01-16 04:26:39.87	231.00	2.85	-44.5	-58.6	5.1	3.04e+01	0	28	104	0	60	32733
2026-01-16 04:26:40.88	231.11	2.90	-44.7	-57.9	3.9	3.04e+01	0	28	104	0	60	30349
2026-01-16 04:26:41.89	231.22	2.95	-44.8	-57.7	5.3	3.04e+01	0	28	0	0	60	29697
2026-01-16 04:26:42.90	231.33	3.00	-44.8	-58.9	4.9	3.04e+01	30	28	104	0	60	33808
2026-01-16 04:26:43.91	231.44	3.05	-45.5	-58.3	5.4	3.04e+01	0	28	104	0	60	31732
2026-01-16 04:26:44.92	231.56	3.10	-45.8	-59.6	4.5	3.04e+01	0	28	104	0	60	36824
2026-01-16 04:26:45.93	231.67	3.15	-44.9	-63.3	3.5	3.04e+01	0	28	104	0	60	56469
2026-01-16 04:26:46.94	231.78	3.20	-45.4	-62.9	3.5	3.04e+01	0	28	104	0	60	53579
2026-01-16 04:26:47.95	231.90	3.25	-45.7	-58.0	5.8	3.04e+01	31	28	104	0	60	30653
2026-01-16 04:26:48.96	232.01	3.31	-45.4	-57.2	5.7	3.04e+01	75	28	0	524288	60	27816
2026-01-16 04:26:49.97	232.12	3.36	-45.4	-58.0	5.9	3.04e+01	92	28	104	524288	60	30408
2026-01-16 04:26:50.98	232.24	3.41	-45.5	-56.8	6.0	3.04e+01	92	28	0	1572864	60	26777
2026-01-16 04:26:51.99	232.35	3.46	-45.6	-57.8	5.7	3.04e+01	0	28	104	2097152	60	29851
2026-01-16 04:26:53.00	232.47	3.51	-45.8	-57.4	5.6	3.04e+01	91	28	0	2097152	60	28636
2026-01-16 04:26:54.01	232.59	3.56	-45.9	-58.3	5.6	3.04e+01	33	28	104	2621440	60	31701
2026-01-16 04:26:55.02	232.70	3.61	-46.1	-57.6	3.9	3.04e+01	0	28	104	2621440	60	29291
2026-01-16 04:26:56.02	232.82	3.66	-46.1	-58.6	5.3	3.04e+01	1	28	0	2621440	60	32728
2026-01-16 04:26:57.04	232.94	3.71	-46.2	-58.6	5.6	3.04e+01	0	28	104	2621440	60	32606
2026-01-16 04:26:58.04	233.06	3.76	-46.2	-59.1	3.8	3.04e+01	0	28	104	2621440	60	34689
2026-01-16 04:26:59.05	233.17	3.81	-45.9	-58.3	5.3	3.04e+01	0	28	0	2621440	60	31608
2026-01-16 04:27:00.06	233.29	3.86	-45.9	-58.3	5.7	3.04e+01	0	28	104	2621440	60	31779
2026-01-16 04:27:01.06	233.41	3.91	-45.7	-58.5	4.0	3.04e+01	0	28	104	3145728	60	32425
2026-01-16 04:27:02.07	233.53	3.96	-45.9	-58.6	5.5	3.04e+01	4	28	0	3145728	60	32854
2026-01-16 04:27:03.08	233.65	4.01	-46.0	-58.8	5.4	3.04e+01	42	28	104	3145728	60	33551
2026-01-16 04:27:04.09	233.77	4.06	-46.3	-59.2	3.9	3.04e+01	2	28	104	3145728	60	35053
2026-01-16 04:27:05.10	233.89	4.11	-46.2	-59.2	5.2	3.04e+01	0	28	0	3145728	60	35067
2026-01-16 04:27:06.11	234.01	4.16	-45.9	-59.1	5.3	3.04e+01	62	28	104	3145728	60	34564
2026-01-16 04:27:07.12	234.14	4.21	-46.0	-59.2	3.9	3.04e+01	0	28	104	3145728	60	34975
2026-01-16 04:27:08.13	234.26	4.26	-45.9	-58.6	5.3	3.04e+01	0	28	0	3145728	60	32720
2026-01-16 04:27:09.14	234.38	4.31	-46.0	-58.6	5.6	3.04e+01	26	28	104	3145728	60	32917
2026-01-16 04:27:10.15	234.50	4.36	-46.2	-58.7	3.9	3.04e+01	0	28	104	3145728	60	32989
2026-01-16 04:27:11.16	234.63	4.42	-46.4	-58.0	5.6	3.04e+01	43	28	0	3145728	60	30616
2026-01-16 04:27:12.17	234.75	4.47	-46.6	-57.5	4.0	3.04e+01	36	28	104	4718592	60	29001
2026-01-16 04:27:13.18	234.88	4.52	-46.5	-58.6	5.7	3.04e+01	90	28	104	4718592	60	32923
2026-01-16 04:27:14.19	235.00	4.57	-46.5	-57.5	5.6	3.04e+01	65	28	0	5767168	60	28878
2026-01-16 04:27:15.20	235.13	4.62	-46.6	-58.9	5.8	3.04e+01	37	28	104	6291456	60	33819
2026-01-16 04:27:16.21	235.25	4.67	-46.6	-57.8	5.7	3.04e+01	0	28	0	6815744	60	29840
2026-01-16 04:27:17.22	235.38	4.72	-46.5	-58.6	4.0	3.04e+01	0	28	104	7864320	60	32923
2026-01-16 04:27:18.23	235.51	4.77	-46.5	-57.5	6.3	3.04e+01	90	28	0	7864320	60	28863
2026-01-16 04:27:19.23	235.63	4.82	-46.6	-57.4	6.0	3.04e+01	43	28	0	9961472	60	28395
2026-01-16 04:27:20.25	235.76	4.87	-46.6	-56.7	6.6	3.04e+01	90	28	0	11534336	60	26384
2026-01-16 04:27:21.25	235.89	4.92	-46.5	-56.5	6.8	3.04e+01	92	28	0	13107200	60	25867
2026-01-16 04:27:22.27	236.02	4.97	-46.3	-56.4	6.8	3.04e+01	92	28	0	15204352	60	25403
2026-01-16 04:27:23.28	236.15	5.02	-46.0	-56.6	7.0	3.04e+01	92	28	0	17301504	60	25895
2026-01-16 04:27:24.29	236.28	5.07	-45.8	-56.1	7.3	3.04e+01	90	28	0	18874368	60	24628
2026-01-16 04:27:25.30	236.41	5.12	-45.5	-55.9	7.5	3.04e+01	92	28	0	20971520	60	24105
2026-01-16 04:27:26.30	236.54	5.17	-45.2	-55.5	8.1	3.04e+01	92	28	0	22544384	60	22942
2026-01-16 04:27:27.31	236.67	5.22	-45.1	-55.1	8.5	3.04e+01	92	28	0	24641536	60	21982
2026-01-16 04:27:28.32	236.80	5.27	-45.2	-54.9	8.8	3.04e+01	92	28	0	26738688	60	21307
2026-01-16 04:27:29.33	236.93	5.33	-45.4	-54.6	9.3	3.04e+01	92	28	0	28311552	60	20592
2026-01-16 04:27:30.34	237.07	5.38	-45.3	-54.4	9.2	3.04e+01	92	28	0	30408704	60	20204
2026-01-16 04:27:31.35	237.20	5.43	-45.2	-54.1	9.7	3.04e+01	90	28	0	31981568	60	19530
2026-01-16 04:27:32.36	237.33	5.48	-44.7	-54.0	9.9	3.04e+01	92	28	0	34078720	60	19316
2026-01-16 04:27:33.37	237.47	5.53	-44.6	-53.6	10.4	3.04e+01	92	28	0	36175872	60	18354
2026-01-16 04:27:34.37	237.60	5.58	-44.6	-53.2	10.9	3.04e+01	91	28	0	37748736	60	17542
2026-01-16 04:27:35.39	237.74	5.63	-44.5	-52.7	11.4	3.04e+01	91	28	0	39845888	60	16671
2026-01-16 04:27:36.39	237.87	5.68	-44.7	-52.4	11.7	3.04e+01	91	28	0	41418752	60	16121
2026-01-16 04:27:37.40	238.01	5.73	-45.5	-52.0	12.1	3.04e+01	90	28	0	43515904	60	15350
2026-01-16 04:27:38.41	238.14	5.78	-45.6	-51.7	12.4	3.04e+01	92	28	0	45613056	60	14840
2026-01-16 04:27:39.42	238.28	5.83	-45.5	-51.6	12.5	3.04e+01	91	28	0	47185920	60	14667
2026-01-16 04:27:40.43	238.42	5.88	-45.3	-51.5	12.7	3.04e+01	91	28	0	49283072	60	14499
2026-01-16 04:27:41.44	238.56	5.93	-45.3	-51.2	13.2	3.04e+01	91	28	0	50855936	60	13919
2026-01-16 04:27:42.45	238.69	5.98	-45.2	-50.8	13.5	3.04e+01	92	28	0	52953088	60	13309
2026-01-16 04:27:43.46	238.83	6.03	-45.1	-50.5	13.9	3.04e+01	90	28	0	55050240	60	12867
2026-01-16 04:27:44.47	238.97	6.08	-44.9	-50.4	14.1	3.04e+01	92	28	0	56623104	60	12788
2026-01-16 04:27:45.47	239.11	6.13	-44.5	-49.6	14.9	3.04e+01	92	28	0	58720256	60	11580
2026-01-16 04:27:46.48	239.25	6.18	-44.3	-49.1	15.3	3.04e+01	90	28	0	60817408	60	10935
2026-01-16 04:27:47.49	239.39	6.23	-44.2	-49.0	15.4	3.04e+01	90	28	0	62390272	60	10836
2026-01-16 04:27:48.50	239.53	6.28	-44.0	-48.5	16.0	3.04e+01	92	28	0	64487424	60	10294
2026-01-16 04:27:49.51	239.68	6.33	-43.7	-48.5	16.1	3.04e+01	90	28	0	66060288	60	10183
2026-01-16 04:27:50.52	239.82	6.38	-43.1	-48.0	16.7	3.04e+01	90	28	0	68157440	60	9669
2026-01-16 04:27:51.53	239.96	6.43	-43.1	-47.9	16.7	3.04e+01	91	28	0	70254592	60	9509
2026-01-16 04:27:52.54	240.11	6.48	-43.1	-47.4	17.3	3.04e+01	92	28	0	71827456	60	8975
2026-01-16 04:27:53.55	240.25	6.53	-43.0	-46.8	17.8	3.04e+01	89	28	0	73924608	60	8398
2026-01-16 04:27:54.56	240.39	6.58	-43.0	-46.6	18.1	3.04e+01	92	28	0	75497472	60	8193
2026-01-16 04:27:55.57	240.54	6.63	-43.1	-46.4	18.2	3.04e+01	92	28	0	77594624	60	8077
2026-01-16 04:27:56.58	240.69	6.68	-42.8	-46.0	18.7	3.04e+01	89	28	0	79691776	60	7660
2026-01-16 04:27:57.59	240.83	6.73	-42.8	-45.8	18.9	3.04e+01	91	28	0	81264640	60	7499
2026-01-16 04:27:58.59	240.98	6.78	-42.7	-45.6	19.1	3.04e+01	91	28	0	83361792	60	7373
2026-01-16 04:27:59.60	241.12	6.83	-42.6	-45.4	19.4	3.04e+01	92	28	0	85458944	60	7167
2026-01-16 04:28:00.61	241.27	6.88	-42.3	-44.8	19.9	3.04e+01	92	28	0	87031808	60	6706
2026-01-16 04:28:01.62	241.42	6.93	-42.0	-44.4	20.4	3.04e+01	92	28	0	89128960	60	6374
2026-01-16 04:28:02.63	241.57	6.98	-41.8	-44.2	20.5	3.04e+01	92	28	0	90701824	58	7004
2026-01-16 04:28:03.64	241.72	7.03	-41.6	-44.0	20.7	3.04e+01	90	28	0	92798976	58	6880
2026-01-16 04:28:04.65	241.87	7.08	-41.4	-43.7	20.9	3.04e+01	91	28	0	94371840	58	6645
2026-01-16 04:28:05.66	242.02	7.13	-41.1	-43.3	21.4	3.04e+01	91	28	0	96468992	58	6342
2026-01-16 04:28:06.67	242.17	7.18	-41.0	-43.1	21.6	3.04e+01	92	28	0	98566144	58	6204
2026-01-16 04:28:07.68	242.32	7.23	-40.9	-43.1	21.7	3.04e+01	91	28	0	100139008	56	6904
2026-01-16 04:28:08.69	242.47	7.28	-40.8	-42.9	21.9	3.04e+01	92	28	0	102236160	56	6795
2026-01-16 04:28:09.70	242.63	7.32	-40.6	-42.7	22.0	3.04e+01	92	28	0	103809024	56	6630
2026-01-16 04:28:10.71	242.78	7.37	-40.4	-42.5	22.3	3.04e+01	92	28	0	105906176	56	6425
2026-01-16 04:28:11.72	242.93	7.42	-40.1	-42.0	22.7	3.04e+01	92	28	0	108003328	56	6092
2026-01-16 04:28:12.72	243.09	7.47	-39.8	-41.8	22.9	3.04e+01	91	28	0	109576192	54	6662
2026-01-16 04:28:13.73	243.24	7.52	-39.7	-41.6	23.0	3.04e+01	92	28	0	111673344	54	6551
2026-01-16 04:28:14.74	243.40	7.57	-39.8	-41.7	23.1	3.04e+01	92	28	0	113770496	54	6597
2026-01-16 04:28:15.75	243.55	7.62	-39.7	-41.5	23.3	3.04e+01	92	28	0	115343360	54	6460
2026-01-16 04:28:16.76	243.71	7.67	-39.3	-41.0	23.7	3.04e+01	92	28	0	117440512	54	6131
2026-01-16 04:28:17.77	243.86	7.72	-39.0	-40.7	24.0	3.04e+01	93	28	0	119013376	54	5896
2026-01-16 04:28:18.77	244.02	7.76	-39.0	-40.7	24.0	3.04e+01	92	28	0	121110528	52	6587
2026-01-16 04:28:19.78	244.18	7.81	-38.8	-40.4	24.3	3.04e+01	92	28	0	123207680	52	6399
2026-01-16 04:28:20.79	244.34	7.86	-38.8	-40.5	24.2	3.04e+01	91	28	0	124780544	52	6451
2026-01-16 04:28:21.80	244.50	7.91	-38.8	-40.4	24.3	3.04e+01	92	28	0	126877696	52	6405
2026-01-16 04:28:22.81	244.66	7.96	-38.6	-40.2	24.5	3.04e+01	92	28	0	128974848	52	6242
2026-01-16 04:28:23.82	244.82	8.01	-38.3	-39.9	24.9	3.04e+01	92	28	0	130547712	52	5997
2026-01-16 04:28:24.82	244.98	8.05	-38.0	-39.5	25.3	3.04e+01	92	28	0	132644864	52	5778
2026-01-16 04:28:25.83	245.14	8.10	-37.9	-39.4	25.4	3.04e+01	90	28	0	134217728	50	6367
2026-01-16 04:28:26.84	245.30	8.15	-37.9	-39.4	25.3	3.04e+01	92	28	0	136314880	50	6364
2026-01-16 04:28:27.85	245.46	8.20	-37.6	-39.1	25.6	3.04e+01	92	28	0	137887744	50	6175
2026-01-16 04:28:28.86	245.62	8.25	-37.5	-39.0	25.8	3.04e+01	91	28	0	139984896	50	6087
2026-01-16 04:28:29.87	245.79	8.29	-37.3	-38.8	25.9	3.04e+01	92	28	0	142082048	50	5930
2026-01-16 04:28:30.88	245.95	8.34	-37.2	-38.7	26.1	3.04e+01	91	28	0	143654912	50	5876
2026-01-16 04:28:31.89	246.12	8.39	-37.3	-38.7	26.0	3.04e+01	92	28	0	145752064	50	5896
2026-01-16 04:28:32.90	246.28	8.44	-37.1	-38.5	26.3	3.04e+01	92	28	0	147324928	50	5738
2026-01-16 04:28:33.91	246.45	8.48	-37.0	-38.4	26.3	3.04e+01	91	28	0	149422080	48	6371
2026-01-16 04:28:34.92	246.62	8.53	-36.7	-38.1	26.7	3.04e+01	89	28	0	151519232	48	6197
2026-01-16 04:28:35.92	246.78	8.58	-36.8	-38.2	26.5	3.04e+01	91	28	0	153092096	48	6245
2026-01-16 04:28:36.93	246.95	8.63	-36.7	-38.1	26.6	3.04e+01	90	28	0	155189248	48	6162
2026-01-16 04:28:37.94	247.12	8.67	-36.6	-37.9	26.8	3.04e+01	89	28	0	157286400	48	6060
2026-01-16 04:28:38.95	247.29	8.72	-36.5	-37.9	26.9	3.04e+01	92	28	0	158859264	48	6008
2026-01-16 04:28:39.96	247.45	8.77	-36.4	-37.8	26.9	3.04e+01	92	28	0	160956416	48	5961
2026-01-16 04:28:40.97	247.62	8.81	-36.3	-37.6	27.2	3.04e+01	92	28	0	162529280	48	5846
2026-01-16 04:28:41.98	247.79	8.86	-36.1	-37.5	27.3	3.04e+01	90	28	0	164626432	48	5730
2026-01-16 04:28:42.98	247.96	8.91	-36.3	-37.6	27.2	3.04e+01	92	28	0	166723584	48	5835
2026-01-16 04:28:43.99	248.14	8.95	-36.3	-37.7	27.1	3.04e+01	92	28	0	168296448	48	5877
2026-01-16 04:28:45.00	248.31	9.00	-36.3	-37.7	27.1	3.04e+01	91	28	0	170393600	48	5883
2026-01-16 04:28:46.01	248.48	9.04	-36.1	-37.5	27.4	3.04e+01	91	28	0	172490752	48	5726
2026-01-16 04:28:47.02	248.65	9.09	-36.0	-37.3	27.5	3.04e+01	93	28	0	174063616	48	5614
2026-01-16 04:28:48.03	248.83	9.14	-36.1	-37.4	27.5	3.04e+01	91	28	0	176160768	48	5685
2026-01-16 04:28:49.04	249.00	9.18	-35.9	-37.2	27.6	3.04e+01	92	28	0	177733632	46	6248
2026-01-16 04:28:50.05	249.18	9.23	-36.0	-37.4	27.5	3.04e+01	92	28	0	179830784	46	6362
2026-01-16 04:28:51.06	249.35	9.27	-36.0	-37.3	27.5	3.04e+01	91	28	0	181927936	46	6314
2026-01-16 04:28:52.07	249.53	9.32	-36.2	-37.5	27.3	3.04e+01	90	28	0	183500800	46	6473
2026-01-16 04:28:53.08	249.71	9.36	-36.0	-37.3	27.5	3.04e+01	91	28	0	185597952	46	6318
2026-01-16 04:28:54.09	249.88	9.41	-35.9	-37.2	27.7	3.04e+01	92	28	0	187170816	46	6264
2026-01-16 04:28:55.10	250.06	9.45	-35.8	-37.1	27.7	3.04e+01	91	28	0	189267968	46	6135
2026-01-16 04:28:56.11	250.24	9.50	-35.7	-37.0	27.7	3.04e+01	92	28	0	191365120	46	6119
2026-01-16 04:28:57.12	250.42	9.54	-35.8	-37.1	27.7	3.04e+01	92	28	0	192937984	46	6150
2026-01-16 04:28:58.13	250.60	9.59	-35.8	-37.1	27.7	3.04e+01	92	28	0	195035136	46	6146
2026-01-16 04:28:59.13	250.78	9.63	-35.7	-37.0	27.7	3.04e+01	90	28	0	196608000	46	6124
2026-01-16 04:29:00.14	250.96	9.68	-35.5	-36.8	27.9	3.04e+01	92	28	0	198705152	46	5940
2026-01-16 04:29:01.15	251.14	9.72	-35.5	-36.8	27.9	3.04e+01	92	28	0	200802304	46	5979
2026-01-16 04:29:02.16	251.32	9.76	-35.6	-36.9	27.8	3.04e+01	92	28	0	202375168	46	6036
2026-01-16 04:29:03.17	251.50	9.81	-35.6	-36.9	27.8	3.04e+01	92	28	0	204472320	46	6064
2026-01-16 04:29:04.18	251.69	9.85	-35.7	-37.0	27.7	3.04e+01	92	28	0	206045184	46	6070
2026-01-16 04:29:05.19	251.87	9.90	-35.5	-36.8	27.9	3.04e+01	92	28	0	208142336	46	5962
2026-01-16 04:29:06.20	252.05	9.94	-35.6	-36.9	27.9	3.04e+01	90	28	0	210239488	46	6006
2026-01-16 04:29:07.21	252.24	9.98	-35.4	-36.7	27.9	3.04e+01	92	28	0	211812352	46	5894
2026-01-16 04:29:08.22	252.42	10.03	-35.5	-36.8	27.9	3.04e+01	92	28	0	213909504	46	5945
2026-01-16 04:29:09.23	252.61	10.07	-35.6	-36.9	27.8	3.04e+01	91	28	0	215482368	46	6008
2026-01-16 04:29:10.24	252.80	10.11	-35.7	-37.0	27.6	3.04e+01	91	28	0	217579520	46	6077
2026-01-16 04:29:11.25	252.98	10.15	-35.5	-36.8	27.8	3.04e+01	92	28	0	219676672	46	5958
2026-01-16 04:29:12.25	253.17	10.20	-35.5	-36.8	27.9	3.04e+01	90	28	0	221249536	46	5941
2026-01-16 04:29:13.26	253.36	10.24	-35.4	-36.6	28.0	3.04e+01	94	28	0	223346688	46	5844
2026-01-16 04:29:14.27	253.55	10.28	-35.5	-36.8	27.9	3.04e+01	91	28	0	225443840	46	5943
2026-01-16 04:29:15.28	253.74	10.32	-35.5	-36.8	27.9	3.04e+01	91	28	0	227016704	46	5982
2026-01-16 04:29:16.29	253.93	10.36	-35.4	-36.7	27.9	3.04e+01	92	28	0	229113856	46	5897
2026-01-16 04:29:17.30	254.12	10.40	-35.5	-36.8	27.9	3.04e+01	91	28	0	230686720	46	5970
2026-01-16 04:29:18.30	254.31	10.45	-35.5	-36.7	27.9	3.04e+01	92	28	0	232783872	46	5920
2026-01-16 04:29:19.31	254.50	10.49	-35.5	-36.8	27.9	3.04e+01	92	28	0	234881024	46	5927
2026-01-16 04:29:20.32	254.69	10.53	-35.6	-36.9	27.9	3.04e+01	92	28	0	236453888	46	5995
2026-01-16 04:29:21.33	254.88	10.57	-35.7	-37.0	27.8	3.04e+01	92	28	0	238551040	46	6071
2026-01-16 04:29:22.34	255.07	10.61	-35.4	-36.7	28.0	3.04e+01	92	28	0	240123904	46	5915
2026-01-16 04:29:23.35	255.27	10.65	-35.4	-36.7	28.0	3.04e+01	90	28	0	242221056	46	5904
2026-01-16 04:29:24.35	255.46	10.69	-35.4	-36.6	28.1	3.04e+01	92	28	0	244318208	46	5844
2026-01-16 04:29:25.36	255.66	10.73	-35.6	-36.8	28.0	3.04e+01	92	28	0	245891072	46	5991
2026-01-16 04:29:26.37	255.85	10.77	-35.3	-36.6	28.1	3.04e+01	92	28	0	247988224	46	5812
2026-01-16 04:29:27.38	256.05	10.81	-35.3	-36.6	28.1	3.04e+01	90	28	0	249561088	46	5821
2026-01-16 04:29:28.40	256.25	10.85	-35.4	-36.7	28.0	3.04e+01	91	28	0	251658240	46	5880
2026-01-16 04:29:29.41	256.44	10.89	-35.4	-36.7	28.0	3.04e+01	91	28	0	253755392	46	5917
2026-01-16 04:29:30.42	256.64	10.93	-35.6	-36.9	27.9	3.04e+01	91	28	0	255328256	46	6036
2026-01-16 04:29:31.42	256.84	10.96	-35.3	-36.6	28.1	3.04e+01	92	28	0	257425408	46	5825
2026-01-16 04:29:32.43	257.04	11.00	-35.2	-36.5	28.2	3.04e+01	92	27	0	258998272	46	5758
2026-01-16 04:29:33.44	257.24	11.04	-35.3	-36.6	28.2	3.04e+01	92	28	0	261095424	46	5818
2026-01-16 04:29:34.45	257.43	11.08	-35.4	-36.7	28.0	3.04e+01	92	28	0	263192576	46	5889
2026-01-16 04:29:35.46	257.64	11.12	-35.4	-36.7	27.9	3.04e+01	92	28	0	264765440	46	5886
2026-01-16 04:29:36.47	257.84	11.15	-35.2	-36.5	28.2	3.04e+01	92	28	0	266862592	46	5745
2026-01-16 04:29:37.48	258.04	11.19	-35.1	-36.4	28.2	3.04e+01	92	28	0	268959744	46	5688
2026-01-16 04:29:38.49	258.24	11.23	-35.6	-36.9	27.8	3.04e+01	92	28	0	270532608	46	6031
2026-01-16 04:29:39.50	258.44	11.26	-35.4	-36.7	28.0	3.04e+01	92	28	0	272629760	46	5902
2026-01-16 04:29:40.51	258.65	11.30	-35.5	-36.8	28.0	3.04e+01	92	28	0	274202624	46	5962
2026-01-16 04:29:41.52	258.85	11.34	-35.3	-36.5	28.2	3.04e+01	86	28	0	276299776	46	5780
2026-01-16 04:29:42.53	259.05	11.37	-35.2	-36.5	28.3	3.04e+01	90	28	0	278396928	46	5748
2026-01-16 04:29:43.53	259.26	11.41	-35.2	-36.4	28.4	3.04e+01	92	28	0	279969792	46	5714
2026-01-16 04:29:44.54	259.46	11.44	-35.2	-36.5	28.3	3.04e+01	90	28	0	282066944	46	5759
2026-01-16 04:29:45.55	259.67	11.48	-35.3	-36.6	28.1	3.04e+01	90	28	0	283639808	46	5834
2026-01-16 04:29:46.56	259.87	11.51	-35.0	-36.2	28.5	3.04e+01	92	28	0	285736960	46	5574
2026-01-16 04:29:47.57	260.08	11.55	-35.1	-36.3	28.3	3.04e+01	90	28	0	287834112	44	6316
2026-01-16 04:29:48.58	260.29	11.58	-34.9	-36.2	28.4	3.04e+01	92	28	0	289406976	44	6209
2026-01-16 04:29:49.59	260.49	11.62	-35.0	-36.3	28.4	3.04e+01	90	28	0	291504128	44	6295
2026-01-16 04:29:50.60	260.70	11.65	-35.0	-36.3	28.3	3.04e+01	92	28	0	293601280	44	6304
2026-01-16 04:29:51.61	260.91	11.68	-35.1	-36.3	28.2	3.04e+01	92	28	0	295174144	44	6346
2026-01-16 04:29:52.62	261.12	11.72	-35.0	-36.2	28.4	3.04e+01	92	28	0	297271296	44	6261
2026-01-16 04:29:53.63	261.33	11.75	-34.9	-36.1	28.4	3.04e+01	92	28	0	298844160	44	6203
2026-01-16 04:29:54.63	261.54	11.78	-34.9	-36.2	28.4	3.04e+01	92	28	0	300941312	44	6229
2026-01-16 04:29:55.64	261.75	11.82	-34.9	-36.2	28.4	3.04e+01	92	27	0	302514176	44	6241
2026-01-16 04:29:56.65	261.96	11.85	-34.9	-36.1	28.4	3.04e+01	92	28	0	304611328	44	6198
2026-01-16 04:29:57.66	262.17	11.88	-34.9	-36.1	28.4	3.04e+01	92	28	0	306708480	44	6186
2026-01-16 04:29:58.67	262.38	11.91	-34.9	-36.2	28.5	3.04e+01	92	28	0	308281344	44	6221
2026-01-16 04:29:59.67	262.59	11.94	-35.0	-36.2	28.4	3.04e+01	92	28	0	310378496	44	6263
2026-01-16 04:30:00.69	262.81	11.97	-35.0	-36.2	28.4	3.04e+01	88	28	0	311951360	44	6258
2026-01-16 04:30:01.69	263.02	12.01	-34.9	-36.2	28.4	3.04e+01	92	28	0	314048512	44	6239
2026-01-16 04:30:02.70	263.23	12.04	-35.1	-36.3	28.4	3.04e+01	92	28	0	316145664	44	6332
2026-01-16 04:30:03.71	263.45	12.07	-35.2	-36.4	28.3	3.04e+01	92	27	0	317718528	44	6402
2026-01-16 04:30:04.72	263.66	12.10	-35.0	-36.3	28.3	3.04e+01	92	28	0	319815680	44	6282
2026-01-16 04:30:05.73	263.88	12.13	-34.9	-36.1	28.6	3.04e+01	90	27	0	321912832	44	6180
2026-01-16 04:30:06.74	264.09	12.15	-34.9	-36.1	28.6	3.04e+01	92	28	0	323485696	44	6167
2026-01-16 04:30:07.75	264.31	12.18	-35.0	-36.3	28.4	3.04e+01	92	28	0	325582848	44	6332
2026-01-16 04:30:08.76	264.53	12.21	-35.3	-36.5	28.4	3.04e+01	92	28	0	327155712	44	6495
2026-01-16 04:30:09.76	264.74	12.24	-34.9	-36.1	28.6	3.04e+01	90	28	0	329252864	44	6201
2026-01-16 04:30:10.77	264.96	12.27	-34.8	-36.1	28.5	3.04e+01	92	28	0	331350016	44	6138
2026-01-16 04:30:11.78	265.18	12.30	-35.0	-36.2	28.5	3.04e+01	92	28	0	332922880	44	6264
2026-01-16 04:30:12.79	265.40	12.32	-35.0	-36.2	28.5	3.04e+01	91	28	0	335020032	44	6264
2026-01-16 04:30:13.80	265.61	12.35	-34.9	-36.2	28.6	3.04e+01	92	28	0	336592896	44	6212
2026-01-16 04:30:14.81	265.83	12.38	-34.9	-36.2	28.6	3.04e+01	91	28	0	338690048	44	6211
2026-01-16 04:30:15.81	266.05	12.40	-34.9	-36.1	28.6	3.04e+01	92	27	0	340787200	44	6174
2026-01-16 04:30:16.82	266.27	12.43	-35.1	-36.3	28.4	3.04e+01	92	28	0	342360064	44	6337
2026-01-16 04:30:17.83	266.49	12.46	-35.2	-36.5	28.3	3.04e+01	92	27	0	344457216	44	6478
2026-01-16 04:30:18.84	266.71	12.48	-35.3	-36.6	28.2	3.04e+01	92	27	0	346030080	44	6552
2026-01-16 04:30:19.85	266.93	12.51	-35.0	-36.2	28.5	3.04e+01	92	28	0	348127232	44	6244
2026-01-16 04:30:20.86	267.15	12.53	-34.8	-36.1	28.6	3.04e+01	90	28	0	350224384	44	6158
2026-01-16 04:30:21.87	267.38	12.55	-34.9	-36.2	28.5	3.04e+01	92	28	0	351797248	44	6210
2026-01-16 04:30:22.88	267.60	12.58	-35.0	-36.3	28.6	3.04e+01	89	28	0	353894400	44	6310
2026-01-16 04:30:23.89	267.82	12.60	-35.0	-36.3	28.5	3.04e+01	92	28	0	355467264	44	6318
2026-01-16 04:30:24.90	268.04	12.63	-34.9	-36.1	28.6	3.04e+01	91	28	0	357564416	44	6177
2026-01-16 04:30:25.91	268.27	12.65	-34.8	-36.1	28.6	3.04e+01	92	28	0	359661568	44	6164
2026-01-16 04:30:26.92	268.49	12.67	-34.8	-36.0	28.6	3.04e+01	92	28	0	361234432	44	6111
2026-01-16 04:30:27.93	268.72	12.69	-34.8	-36.0	28.7	3.04e+01	92	28	0	363331584	44	6132
2026-01-16 04:30:28.94	268.94	12.72	-34.8	-36.0	28.7	3.04e+01	90	28	0	365428736	44	6093
2026-01-16 04:30:29.94	269.16	12.74	-34.9	-36.2	28.6	3.04e+01	92	28	0	367001600	44	6222
2026-01-16 04:30:30.95	269.39	12.76	-34.8	-36.0	28.7	3.04e+01	92	28	0	369098752	44	6108
2026-01-16 04:30:31.96	269.61	12.78	-34.9	-36.1	28.7	3.04e+01	92	28	0	370671616	44	6179
2026-01-16 04:30:32.97	269.84	12.80	-34.9	-36.1	28.6	3.04e+01	92	27	0	372768768	44	6180
2026-01-16 04:30:33.98	270.07	12.82	-34.9	-36.2	28.6	3.04e+01	92	27	0	374865920	44	6214
2026-01-16 04:30:34.99	270.29	12.84	-34.8	-36.1	28.6	3.04e+01	92	28	0	376438784	44	6159
2026-01-16 04:30:36.00	270.52	12.86	-35.2	-36.5	28.5	3.04e+01	92	28	0	378535936	44	6429
2026-01-16 04:30:37.01	270.75	12.88	-34.9	-36.1	28.7	3.04e+01	90	28	0	380108800	44	6174
2026-01-16 04:30:38.02	270.97	12.90	-34.9	-36.2	28.5	3.04e+01	90	28	0	382205952	44	6218
2026-01-16 04:30:39.02	271.20	12.91	-35.0	-36.3	28.5	3.04e+01	92	27	0	384303104	44	6280
2026-01-16 04:30:40.03	271.43	12.93	-34.9	-36.2	28.6	3.04e+01	92	27	0	385875968	44	6237
2026-01-16 04:30:41.04	271.65	12.95	-34.8	-36.0	28.7	3.04e+01	92	27	0	387973120	44	6106
2026-01-16 04:30:42.05	271.88	12.97	-34.8	-36.0	28.7	3.04e+01	87	28	0	389545984	44	6133
2026-01-16 04:30:43.06	272.11	12.98	-35.0	-36.3	28.6	3.04e+01	91	28	0	391643136	44	6291
2026-01-16 04:30:44.06	272.34	13.00	-34.7	-35.9	28.7	3.04e+01	92	28	0	393740288	44	6061
2026-01-16 04:30:45.07	272.57	13.02	-34.7	-35.9	28.8	3.04e+01	91	28	0	395313152	44	6027
2026-01-16 04:30:46.08	272.80	13.03	-34.8	-36.0	28.6	3.04e+01	91	28	0	397410304	44	6112
2026-01-16 04:30:47.09	273.03	13.05	-34.7	-36.0	28.7	3.04e+01	89	27	0	398983168	44	6102
2026-01-16 04:30:48.10	273.26	13.06	-34.8	-36.1	28.7	3.04e+01	92	27	0	401080320	44	6141
2026-01-16 04:30:49.11	273.49	13.08	-34.8	-36.0	28.7	3.04e+01	90	28	0	403177472	44	6117
2026-01-16 04:30:50.12	273.72	13.09	-34.8	-36.0	28.7	3.04e+01	92	28	0	404750336	44	6098
2026-01-16 04:30:51.13	273.95	13.10	-34.9	-36.1	28.6	3.04e+01	92	28	0	406847488	44	6205
2026-01-16 04:30:52.14	274.18	13.12	-34.7	-36.0	28.8	3.04e+01	91	28	0	408420352	44	6079
2026-01-16 04:30:53.15	274.41	13.13	-34.7	-35.9	28.7	3.04e+01	90	28	0	410517504	44	6045
2026-01-16 04:30:54.16	274.64	13.14	-34.8	-36.0	28.8	3.04e+01	90	28	0	412614656	44	6131
2026-01-16 04:30:55.17	274.87	13.15	-34.8	-36.1	28.7	3.04e+01	92	28	0	414187520	44	6135
2026-01-16 04:30:56.18	275.10	13.17	-34.8	-36.0	28.8	3.04e+01	92	27	0	416284672	44	6091
2026-01-16 04:30:57.19	275.34	13.18	-34.8	-36.1	28.7	3.04e+01	90	27	0	418381824	44	6141
2026-01-16 04:30:58.20	275.57	13.19	-34.8	-36.0	28.8	3.04e+01	92	27	0	419954688	44	6123
2026-01-16 04:30:59.21	275.80	13.20	-34.8	-36.0	28.7	3.04e+01	92	27	0	422051840	44	6112
2026-01-16 04:31:00.22	276.03	13.21	-34.8	-36.0	28.7	3.04e+01	92	27	0	423624704	44	6118
2026-01-16 04:31:01.23	276.27	13.22	-34.8	-36.0	28.7	3.04e+01	88	27	0	425721856	44	6098
2026-01-16 04:31:02.23	276.50	13.23	-34.9	-36.2	28.6	3.04e+01	92	28	0	427819008	44	6225
2026-01-16 04:31:03.24	276.73	13.24	-34.9	-36.2	28.5	3.04e+01	92	28	0	429391872	44	6223
2026-01-16 04:31:04.25	276.96	13.24	-34.9	-36.1	28.7	3.04e+01	92	27	0	431489024	44	6188
2026-01-16 04:31:05.26	277.20	13.25	-34.8	-36.0	28.8	3.04e+01	92	27	0	433061888	44	6099
2026-01-16 04:31:06.27	277.43	13.26	-34.7	-36.0	28.8	3.04e+01	92	27	0	435159040	44	6068
2026-01-16 04:31:07.28	277.66	13.27	-34.7	-35.9	28.8	3.04e+01	92	27	0	437256192	44	6056
2026-01-16 04:31:08.29	277.90	13.27	-34.5	-35.8	28.9	3.04e+01	92	27	0	438829056	44	5940
2026-01-16 04:31:09.30	278.13	13.28	-34.7	-36.0	28.7	3.04e+01	92	27	0	440926208	44	6095
2026-01-16 04:31:10.31	278.36	13.29	-34.8	-36.0	28.7	3.04e+01	90	27	0	443023360	44	6091
2026-01-16 04:31:11.32	278.60	13.29	-34.6	-35.8	28.9	3.04e+01	92	27	0	444596224	44	5973
2026-01-16 04:31:12.33	278.83	13.30	-34.6	-35.8	28.8	3.04e+01	92	27	0	446693376	44	5976
2026-01-16 04:31:13.34	279.06	13.30	-34.8	-36.0	28.7	3.04e+01	92	27	0	448266240	44	6109
2026-01-16 04:31:14.34	279.30	13.31	-34.8	-36.0	28.7	3.04e+01	92	27	0	450363392	44	6108
2026-01-16 04:31:15.35	279.53	13.31	-34.7	-36.0	28.8	3.04e+01	91	27	0	452460544	44	6076
2026-01-16 04:31:16.36	279.76	13.31	-34.7	-35.9	28.8	3.04e+01	91	27	0	454033408	44	6021
2026-01-16 04:31:17.37	280.00	13.32	-34.6	-35.9	28.8	3.04e+01	92	27	0	456130560	44	6001
2026-01-16 04:31:18.38	280.23	13.32	-34.7	-36.0	28.9	3.04e+01	90	27	0	457703424	44	6065
2026-01-16 04:31:19.39	280.47	13.32	-34.8	-36.0	28.7	3.04e+01	92	27	0	459800576	44	6130
2026-01-16 04:31:20.40	280.70	13.32	-34.9	-36.1	28.6	3.04e+01	87	27	0	461897728	44	6165
2026-01-16 04:31:21.41	280.93	13.32	-34.7	-36.0	28.8	3.04e+01	91	27	0	463470592	44	6078
2026-01-16 04:31:22.41	281.17	13.33	-34.6	-35.9	28.8	3.04e+01	92	27	0	465567744	44	6007
2026-01-16 04:31:23.42	281.40	13.33	-34.7	-36.0	28.8	3.04e+01	88	27	0	467140608	44	6067
2026-01-16 04:31:24.44	281.64	13.33	-34.7	-35.9	28.8	3.04e+01	92	27	0	469237760	44	6061
2026-01-16 04:31:25.45	281.87	13.33	-34.8	-36.0	28.8	3.04e+01	92	27	0	471334912	44	6129
2026-01-16 04:31:26.45	282.10	13.32	-34.6	-35.9	28.9	3.04e+01	90	27	0	472907776	44	5995
2026-01-16 04:31:27.46	282.34	13.32	-34.6	-35.8	28.9	3.04e+01	92	27	0	475004928	44	5970
2026-01-16 04:31:28.47	282.57	13.32	-34.6	-35.8	28.9	3.04e+01	92	27	0	476577792	44	5948
2026-01-16 04:31:29.48	282.81	13.32	-34.6	-35.8	28.9	3.04e+01	92	27	0	478674944	44	5977
2026-01-16 04:31:30.49	283.04	13.32	-34.7	-35.9	28.8	3.04e+01	92	27	0	480772096	44	6047
2026-01-16 04:31:31.49	283.27	13.32	-34.6	-35.9	28.8	3.04e+01	90	27	0	482344960	44	5998
2026-01-16 04:31:32.50	283.51	13.31	-34.8	-36.1	28.7	3.04e+01	92	27	0	484442112	44	6140
2026-01-16 04:31:33.51	283.74	13.31	-34.6	-35.9	28.8	3.04e+01	92	27	0	486539264	44	6017
2026-01-16 04:31:34.52	283.97	13.30	-34.6	-35.8	28.8	3.04e+01	91	27	0	488112128	44	5971
2026-01-16 04:31:35.53	284.21	13.30	-34.4	-35.6	29.0	3.04e+01	91	27	0	490209280	44	5840
2026-01-16 04:31:36.53	284.44	13.29	-34.5	-35.7	29.0	3.04e+01	89	27	0	491782144	44	5900
2026-01-16 04:31:37.54	284.67	13.29	-34.6	-35.9	28.8	3.04e+01	92	27	0	493879296	44	6004
2026-01-16 04:31:38.55	284.91	13.28	-34.7	-36.0	28.7	3.04e+01	92	27	0	495976448	44	6077
2026-01-16 04:31:39.56	285.14	13.28	-34.6	-35.9	28.8	3.04e+01	91	27	0	497549312	44	6001
2026-01-16 04:31:40.57	285.37	13.27	-34.6	-35.9	28.9	3.04e+01	92	27	0	499646464	44	6009
2026-01-16 04:31:41.57	285.60	13.26	-34.6	-35.9	28.8	3.04e+01	92	27	0	501219328	44	6022
2026-01-16 04:31:42.58	285.84	13.26	-34.6	-35.9	28.8	3.04e+01	91	27	0	503316480	44	6007
2026-01-16 04:31:43.59	286.07	13.25	-34.5	-35.7	28.9	3.04e+01	91	27	0	504889344	44	5915
2026-01-16 04:31:44.60	286.30	13.24	-34.5	-35.8	28.9	3.04e+01	91	27	0	506986496	44	5938
2026-01-16 04:31:45.61	286.54	13.23	-34.6	-35.8	28.9	3.04e+01	92	27	0	509083648	44	5982
2026-01-16 04:31:46.62	286.77	13.22	-34.7	-35.9	28.7	3.04e+01	90	27	0	510656512	44	6047
2026-01-16 04:31:47.63	287.00	13.21	-34.6	-35.8	28.8	3.04e+01	92	27	0	512753664	44	5994
2026-01-16 04:31:48.64	287.23	13.20	-34.6	-35.8	28.8	3.04e+01	92	27	0	514850816	44	5968
2026-01-16 04:31:49.65	287.46	13.19	-34.6	-35.8	28.9	3.04e+01	90	27	0	516423680	44	5966
2026-01-16 04:31:50.66	287.70	13.18	-34.7	-35.9	28.8	3.04e+01	92	27	0	518520832	44	6036
2026-01-16 04:31:51.67	287.93	13.17	-34.6	-35.8	28.8	3.04e+01	92	27	0	520093696	44	5965
2026-01-16 04:31:52.68	288.16	13.16	-34.8	-36.0	28.7	3.04e+01	92	27	0	522190848	44	6106
2026-01-16 04:31:53.69	288.39	13.15	-34.5	-35.8	28.9	3.04e+01	92	27	0	524288000	44	5934
2026-01-16 04:31:54.69	288.62	13.14	-34.6	-35.8	28.9	3.04e+01	92	27	0	525860864	44	5965
2026-01-16 04:31:55.70	288.85	13.12	-34.6	-35.8	28.8	3.04e+01	92	27	0	527958016	44	5962
2026-01-16 04:31:56.71	289.08	13.11	-34.6	-35.8	28.9	3.04e+01	91	27	0	529530880	44	5973
2026-01-16 04:31:57.72	289.31	13.10	-34.5	-35.8	28.8	3.04e+01	91	27	0	531628032	44	5950
2026-01-16 04:31:58.73	289.54	13.08	-34.5	-35.7	28.9	3.04e+01	92	27	0	533725184	44	5902
2026-01-16 04:31:59.74	289.77	13.07	-34.5	-35.7	29.0	3.04e+01	92	27	0	535298048	44	5908
2026-01-16 04:32:00.72	289.99	13.06	-34.6	-35.8	28.9	3.04e+01	91	27	0	537395200	44	5953
2026-01-16 04:32:01.73	290.22	13.04	-34.7	-35.9	28.8	3.04e+01	92	27	0	538968064	44	6059
2026-01-16 04:32:02.73	290.45	13.03	-34.6	-35.8	28.7	3.04e+01	92	27	0	541065216	44	5942
2026-01-16 04:32:03.74	290.68	13.01	-34.6	-35.9	28.8	3.04e+01	92	27	0	543162368	44	5999
2026-01-16 04:32:04.75	290.91	12.99	-34.7	-36.0	28.8	3.04e+01	91	27	0	544735232	44	6067
2026-01-16 04:32:05.76	291.14	12.98	-34.7	-35.9	28.7	3.04e+01	91	27	0	546832384	44	6018
2026-01-16 04:32:06.77	291.37	12.96	-34.7	-36.0	28.7	3.04e+01	90	27	0	548405248	44	6074
2026-01-16 04:32:07.78	291.59	12.94	-34.6	-35.8	28.8	3.04e+01	91	27	0	550502400	44	5960
2026-01-16 04:32:08.79	291.82	12.93	-34.5	-35.8	28.8	3.04e+01	92	27	0	552599552	44	5940
2026-01-16 04:32:09.80	292.05	12.91	-34.5	-35.7	28.8	3.04e+01	90	27	0	554172416	44	5915
2026-01-16 04:32:10.81	292.28	12.89	-34.6	-35.8	28.9	3.04e+01	92	27	0	556269568	44	5954
2026-01-16 04:32:11.82	292.50	12.87	-34.6	-35.8	28.8	3.04e+01	92	27	0	557842432	44	5983
2026-01-16 04:32:12.82	292.73	12.85	-34.6	-35.8	28.8	3.04e+01	92	27	0	559939584	44	5989
2026-01-16 04:32:13.83	292.95	12.83	-34.5	-35.8	28.9	3.04e+01	92	27	0	562036736	44	5939
2026-01-16 04:32:14.84	293.18	12.81	-34.6	-35.8	28.8	3.04e+01	92	27	0	563609600	44	5961
2026-01-16 04:32:15.85	293.40	12.79	-34.5	-35.7	29.0	3.04e+01	92	27	0	565706752	44	5912
2026-01-16 04:32:16.86	293.63	12.77	-34.6	-35.8	28.8	3.04e+01	91	27	0	567803904	44	5969
2026-01-16 04:32:17.87	293.85	12.75	-34.6	-35.9	28.8	3.04e+01	91	27	0	569376768	44	6023
2026-01-16 04:32:18.87	294.08	12.73	-34.6	-35.8	28.9	3.04e+01	90	27	0	571473920	44	5962
2026-01-16 04:32:19.88	294.30	12.71	-34.6	-35.8	28.8	3.04e+01	92	27	0	573046784	44	5978
2026-01-16 04:32:20.89	294.52	12.69	-34.6	-35.8	28.9	3.04e+01	92	27	0	575143936	44	5949
2026-01-16 04:32:21.89	294.74	12.66	-34.6	-35.9	28.8	3.04e+01	92	27	0	576716800	44	6008
2026-01-16 04:32:22.90	294.97	12.64	-34.4	-35.7	29.0	3.04e+01	91	27	0	578813952	44	5875
2026-01-16 04:32:23.91	295.19	12.62	-34.5	-35.7	28.9	3.04e+01	90	27	0	580911104	44	5926
2026-01-16 04:32:24.92	295.41	12.60	-34.6	-35.8	28.8	3.04e+01	90	27	0	582483968	44	5967
2026-01-16 04:32:25.93	295.63	12.57	-34.7	-35.9	28.7	3.04e+01	89	27	0	584581120	44	6042
2026-01-16 04:32:26.94	295.86	12.55	-34.8	-36.1	28.7	3.04e+01	92	27	0	586678272	44	6150
2026-01-16 04:32:27.95	296.08	12.52	-34.6	-35.9	28.8	3.04e+01	92	27	0	588251136	44	6017
2026-01-16 04:32:28.96	296.30	12.50	-34.6	-35.9	28.8	3.04e+01	92	27	0	590348288	44	5998
2026-01-16 04:32:29.96	296.52	12.47	-34.6	-35.8	28.8	3.04e+01	90	27	0	591921152	44	5992
2026-01-16 04:32:30.97	296.74	12.45	-34.7	-36.0	28.7	3.04e+01	90	27	0	594018304	44	6067
2026-01-16 04:32:31.98	296.96	12.42	-34.6	-35.8	28.8	3.04e+01	92	27	0	596115456	44	5984
2026-01-16 04:32:32.99	297.18	12.40	-34.5	-35.8	28.8	3.04e+01	92	27	0	597688320	44	5945
2026-01-16 04:32:34.00	297.39	12.37	-34.4	-35.6	28.9	3.04e+01	91	27	0	599785472	44	5857
2026-01-16 04:32:35.01	297.61	12.34	-34.5	-35.8	28.9	3.04e+01	92	27	0	601358336	44	5950
2026-01-16 04:32:36.02	297.83	12.32	-34.6	-35.8	28.8	3.04e+01	91	27	0	603455488	44	5991
2026-01-16 04:32:37.03	298.05	12.29	-34.6	-35.9	28.8	3.04e+01	92	27	0	605552640	44	6038
2026-01-16 04:32:38.04	298.26	12.26	-34.6	-35.9	28.8	3.04e+01	90	27	0	607125504	44	6023
2026-01-16 04:32:39.05	298.48	12.23	-34.7	-36.0	28.7	3.04e+01	64	27	0	609222656	44	6069
2026-01-16 04:32:40.05	298.70	12.20	-34.6	-35.9	28.8	3.04e+01	60	27	0	611319808	44	6007
2026-01-16 04:32:41.06	298.91	12.18	-34.6	-35.9	28.8	3.04e+01	56	27	0	612892672	44	6001
2026-01-16 04:32:42.08	299.13	12.15	-34.7	-35.9	28.7	3.04e+01	57	27	0	614989824	44	6052
2026-01-16 04:32:43.08	299.34	12.12	-34.6	-35.8	28.8	3.04e+01	60	27	0	616562688	44	5994
2026-01-16 04:32:44.09	299.56	12.09	-34.7	-35.9	28.7	3.04e+01	45	27	0	618659840	44	6055
2026-01-16 04:32:45.10	299.77	12.06	-34.6	-35.9	28.8	3.04e+01	57	27	0	620756992	44	6008
2026-01-16 04:32:46.11	299.98	12.03	-34.6	-35.8	28.8	3.04e+01	48	27	0	622329856	44	5967
2026-01-16 04:32:47.12	300.20	12.00	-34.6	-35.8	28.8	3.04e+01	55	27	0	624427008	44	5980
2026-01-16 04:32:48.13	300.41	11.97	-34.6	-35.9	28.8	3.04e+01	61	27	0	625999872	44	6009
2026-01-16 04:32:49.14	300.62	11.94	-34.8	-36.1	28.6	3.04e+01	53	27	0	628097024	44	6160
2026-01-16 04:32:50.15	300.83	11.90	-34.6	-35.9	28.8	3.04e+01	59	27	0	630194176	44	6018
2026-01-16 04:32:51.16	301.04	11.87	-34.6	-35.9	28.7	3.04e+01	59	27	0	631767040	44	5997
2026-01-16 04:32:52.17	301.25	11.84	-34.7	-36.0	28.7	3.04e+01	60	27	0	633864192	44	6075
2026-01-16 04:32:53.17	301.46	11.81	-34.7	-35.9	28.8	3.04e+01	60	27	0	635437056	44	6037
2026-01-16 04:32:54.18	301.67	11.78	-34.6	-35.9	28.7	3.04e+01	47	27	0	637534208	44	6009
2026-01-16 04:32:55.19	301.88	11.74	-34.7	-35.9	28.7	3.04e+01	56	27	0	639631360	44	6054
2026-01-16 04:32:56.20	302.09	11.71	-34.6	-35.9	28.7	3.04e+01	58	27	0	641204224	44	6029
2026-01-16 04:32:57.21	302.30	11.68	-34.7	-36.0	28.6	3.04e+01	44	27	0	643301376	44	6108
2026-01-16 04:32:58.21	302.50	11.64	-34.7	-36.0	28.7	3.04e+01	60	27	0	644874240	44	6077
2026-01-16 04:32:59.22	302.71	11.61	-34.7	-36.0	28.6	3.04e+01	56	27	0	646971392	44	6107
2026-01-16 04:33:00.23	302.92	11.58	-34.7	-36.0	28.7	3.04e+01	57	27	0	649068544	44	6066
2026-01-16 04:33:01.24	303.12	11.54	-34.7	-36.0	28.6	3.04e+01	60	27	0	650641408	44	6092
2026-01-16 04:33:02.25	303.33	11.51	-34.9	-36.1	28.5	3.04e+01	46	27	0	652738560	44	6188
2026-01-16 04:33:03.26	303.53	11.47	-34.8	-36.1	28.5	3.04e+01	58	27	0	654311424	44	6154
2026-01-16 04:33:04.26	303.74	11.44	-34.7	-36.0	28.6	3.04e+01	61	27	0	656408576	44	6110
2026-01-16 04:33:05.27	303.94	11.40	-34.7	-36.0	28.7	3.04e+01	45	27	0	658505728	44	6067
2026-01-16 04:33:06.28	304.14	11.37	-34.7	-35.9	28.7	3.04e+01	59	27	0	660078592	44	6051
2026-01-16 04:33:07.29	304.35	11.33	-34.6	-35.8	28.8	3.04e+01	62	27	0	662175744	44	5982
2026-01-16 04:33:08.30	304.55	11.29	-34.7	-36.0	28.7	3.04e+01	53	27	0	664272896	44	6085
2026-01-16 04:33:09.31	304.75	11.26	-34.8	-36.0	28.6	3.04e+01	57	27	0	665845760	44	6130
2026-01-16 04:33:10.32	304.95	11.22	-34.9	-36.2	28.4	3.04e+01	61	27	0	667942912	44	6232
2026-01-16 04:33:11.32	305.15	11.19	-34.8	-36.1	28.6	3.04e+01	59	27	0	669515776	44	6157
2026-01-16 04:33:12.33	305.35	11.15	-34.8	-36.1	28.6	3.04e+01	62	27	0	671612928	44	6144
2026-01-16 04:33:13.34	305.55	11.11	-34.8	-36.1	28.6	3.04e+01	46	27	0	673185792	44	6143
2026-01-16 04:33:14.35	305.75	11.07	-34.9	-36.2	28.5	3.04e+01	57	27	0	675282944	44	6207
2026-01-16 04:33:15.36	305.95	11.04	-34.7	-36.0	28.6	3.04e+01	60	27	0	677380096	44	6110
2026-01-16 04:33:16.37	306.15	11.00	-34.8	-36.1	28.6	3.04e+01	60	27	0	678952960	44	6139
2026-01-16 04:33:17.38	306.35	10.96	-34.8	-36.1	28.5	3.04e+01	60	27	0	681050112	44	6156
2026-01-16 04:33:18.38	306.54	10.92	-34.8	-36.1	28.5	3.04e+01	54	27	0	682622976	44	6186
2026-01-16 04:33:19.39	306.74	10.88	-34.7	-36.0	28.5	3.04e+01	61	27	0	684720128	44	6124
2026-01-16 04:33:20.40	306.93	10.84	-34.7	-36.0	28.5	3.04e+01	58	27	0	686817280	44	6122
2026-01-16 04:33:21.41	307.13	10.81	-34.9	-36.1	28.5	3.04e+01	50	27	0	688390144	44	6202
2026-01-16 04:33:22.42	307.32	10.77	-34.9	-36.2	28.4	3.04e+01	58	27	0	690487296	44	6218
2026-01-16 04:33:23.42	307.52	10.73	-34.8	-36.1	28.5	3.04e+01	61	27	0	692584448	44	6142
2026-01-16 04:33:24.43	307.71	10.69	-34.9	-36.2	28.4	3.04e+01	59	27	0	694157312	44	6228
2026-01-16 04:33:25.44	307.90	10.65	-34.9	-36.2	28.5	3.04e+01	59	27	0	696254464	44	6207
2026-01-16 04:33:26.45	308.10	10.61	-34.8	-36.1	28.5	3.04e+01	54	27	0	697827328	44	6177
2026-01-16 04:33:27.45	308.29	10.57	-34.9	-36.1	28.5	3.04e+01	54	27	0	699924480	44	6194
2026-01-16 04:33:28.47	308.48	10.53	-34.9	-36.2	28.5	3.04e+01	58	27	0	702021632	44	6207
2026-01-16 04:33:29.48	308.67	10.49	-34.9	-36.1	28.4	3.04e+01	56	27	0	703594496	44	6200
2026-01-16 04:33:30.48	308.86	10.45	-35.0	-36.2	28.3	3.04e+01	60	27	0	705691648	44	6273
2026-01-16 04:33:31.49	309.05	10.40	-34.9	-36.1	28.4	3.04e+01	58	27	0	707264512	44	6204
2026-01-16 04:33:32.50	309.24	10.36	-34.9	-36.2	28.4	3.04e+01	58	27	0	709361664	44	6215
2026-01-16 04:33:33.51	309.43	10.32	-34.9	-36.1	28.5	3.04e+01	57	27	0	711458816	44	6199
2026-01-16 04:33:34.52	309.62	10.28	-34.9	-36.1	28.4	3.04e+01	53	27	0	713031680	44	6201
2026-01-16 04:33:35.53	309.80	10.24	-34.9	-36.2	28.4	3.04e+01	59	27	0	715128832	44	6214
2026-01-16 04:33:36.54	309.99	10.20	-34.9	-36.2	28.4	3.04e+01	60	27	0	716701696	44	6207
2026-01-16 04:33:37.55	310.18	10.15	-35.0	-36.2	28.4	3.04e+01	61	27	0	718798848	44	6272
2026-01-16 04:33:38.56	310.36	10.11	-35.0	-36.2	28.4	3.04e+01	57	27	0	720896000	44	6270
2026-01-16 04:33:39.57	310.55	10.07	-35.0	-36.3	28.3	3.04e+01	55	27	0	722468864	44	6295
2026-01-16 04:33:40.58	310.73	10.03	-35.1	-36.4	28.2	3.04e+01	59	27	0	724566016	44	6399
2026-01-16 04:33:41.58	310.92	9.99	-35.3	-36.5	28.1	3.04e+01	58	27	0	726138880	44	6485
2026-01-16 04:33:42.59	311.10	9.94	-35.6	-36.9	27.7	3.04e+01	48	27	0	728236032	44	6766
2026-01-16 04:33:43.61	311.29	9.90	-35.8	-37.1	27.7	3.04e+01	60	27	0	730333184	44	6917
2026-01-16 04:33:44.61	311.47	9.86	-35.3	-36.6	28.0	3.04e+01	59	27	0	731906048	44	6500
2026-01-16 04:33:45.62	311.65	9.81	-35.3	-36.6	28.0	3.04e+01	59	27	0	734003200	44	6563
2026-01-16 04:33:46.63	311.83	9.77	-35.1	-36.4	28.3	3.04e+01	62	27	0	736100352	44	6363
2026-01-16 04:33:47.64	312.01	9.73	-35.1	-36.4	28.2	3.04e+01	56	27	0	737673216	44	6421
2026-01-16 04:33:48.65	312.19	9.68	-35.1	-36.3	28.2	3.04e+01	60	27	0	739770368	44	6350
2026-01-16 04:33:49.66	312.37	9.64	-35.1	-36.3	28.2	3.04e+01	54	27	0	741343232	44	6342
2026-01-16 04:33:50.67	312.55	9.59	-35.1	-36.3	28.2	3.04e+01	51	27	0	743440384	44	6347
2026-01-16 04:33:51.68	312.73	9.55	-35.0	-36.3	28.3	3.04e+01	62	27	0	745537536	44	6287
2026-01-16 04:33:52.69	312.91	9.50	-35.0	-36.3	28.3	3.04e+01	57	27	0	747110400	44	6285
2026-01-16 04:33:53.69	313.08	9.46	-35.1	-36.4	28.2	3.04e+01	58	27	0	749207552	44	6379
2026-01-16 04:33:54.70	313.26	9.42	-35.2	-36.5	28.1	3.04e+01	58	27	0	750780416	44	6427
2026-01-16 04:33:55.71	313.44	9.37	-35.2	-36.5	28.1	3.04e+01	57	27	0	752877568	44	6432
2026-01-16 04:33:56.72	313.61	9.33	-35.1	-36.3	28.2	3.04e+01	57	27	0	754974720	44	6348
2026-01-16 04:33:57.72	313.79	9.28	-35.1	-36.4	28.2	3.04e+01	62	27	0	756547584	44	6379
2026-01-16 04:33:58.73	313.96	9.24	-35.2	-36.6	28.0	3.04e+01	47	27	0	758644736	44	6499
2026-01-16 04:33:59.74	314.13	9.19	-35.2	-36.5	28.0	3.04e+01	59	27	0	760217600	44	6486
2026-01-16 04:34:00.74	314.31	9.15	-35.2	-36.5	28.1	3.04e+01	60	27	0	762314752	44	6439
2026-01-16 04:34:01.75	314.48	9.10	-35.4	-36.7	27.9	3.04e+01	60	27	0	764411904	44	6617
2026-01-16 04:34:02.76	314.65	9.05	-35.3	-36.6	28.0	3.04e+01	59	27	0	765984768	44	6520
2026-01-16 04:34:03.77	314.82	9.01	-35.3	-36.6	27.9	3.04e+01	58	27	0	768081920	44	6564
2026-01-16 04:34:04.77	314.99	8.96	-35.4	-36.7	27.8	3.04e+01	60	27	0	769654784	44	6648
2026-01-16 04:34:05.78	315.16	8.92	-35.5	-36.8	27.8	3.04e+01	60	27	0	771751936	44	6725
2026-01-16 04:34:06.79	315.33	8.87	-35.4	-36.8	27.8	3.04e+01	46	27	0	773849088	44	6654
2026-01-16 04:34:07.80	315.50	8.83	-35.4	-36.8	27.8	3.04e+01	60	27	0	775421952	44	6658
2026-01-16 04:34:08.81	315.67	8.78	-35.4	-36.7	27.8	3.04e+01	39	27	0	777519104	44	6639
2026-01-16 04:34:09.82	315.84	8.73	-35.4	-36.7	27.8	3.04e+01	56	27	0	779091968	44	6600
2026-01-16 04:34:10.82	316.01	8.69	-35.2	-36.5	28.0	3.04e+01	58	27	0	781189120	44	6488
2026-01-16 04:34:11.83	316.17	8.64	-35.3	-36.6	28.0	3.04e+01	48	27	0	783286272	44	6513
2026-01-16 04:34:12.84	316.34	8.59	-35.2	-36.5	28.0	3.04e+01	58	27	0	784859136	44	6472
2026-01-16 04:34:13.85	316.51	8.55	-35.3	-36.6	27.9	3.04e+01	59	27	0	786956288	44	6528
2026-01-16 04:34:14.86	316.67	8.50	-35.4	-36.7	27.8	3.04e+01	59	27	0	789053440	44	6586
2026-01-16 04:34:15.87	316.84	8.45	-35.4	-36.7	27.8	3.04e+01	58	27	0	790626304	44	6643
2026-01-16 04:34:16.88	317.00	8.40	-35.6	-36.9	27.6	3.04e+01	46	27	0	792723456	44	6752
2026-01-16 04:34:17.89	317.16	8.36	-35.5	-36.8	27.8	3.04e+01	58	27	0	794296320	44	6683
2026-01-16 04:34:18.90	317.33	8.31	-35.5	-36.8	27.7	3.04e+01	59	27	0	796393472	44	6714
2026-01-16 04:34:19.90	317.49	8.26	-35.5	-36.8	27.7	3.04e+01	46	27	0	798490624	44	6708
2026-01-16 04:34:20.91	317.65	8.22	-35.5	-36.8	27.7	3.04e+01	57	27	0	800063488	44	6722
2026-01-16 04:34:21.92	317.81	8.17	-35.5	-36.9	27.7	3.04e+01	61	27	0	802160640	44	6734
2026-01-16 04:34:22.93	317.97	8.12	-35.5	-36.9	27.7	3.04e+01	59	27	0	803733504	44	6758
2026-01-16 04:34:23.94	318.13	8.07	-35.6	-37.0	27.6	3.04e+01	61	27	0	805830656	44	6809
2026-01-16 04:34:24.95	318.29	8.02	-35.4	-36.8	27.8	3.04e+01	52	27	0	807927808	44	6660
2026-01-16 04:34:25.96	318.45	7.98	-35.4	-36.7	27.8	3.04e+01	55	27	0	809500672	44	6629
2026-01-16 04:34:26.97	318.61	7.93	-35.5	-36.8	27.8	3.04e+01	62	27	0	811597824	44	6680
2026-01-16 04:34:27.98	318.77	7.88	-35.5	-36.8	27.7	3.04e+01	49	27	0	813170688	44	6683
2026-01-16 04:34:28.99	318.93	7.83	-35.5	-36.8	27.7	3.04e+01	60	27	0	815267840	44	6725
2026-01-16 04:34:30.00	319.09	7.78	-35.8	-37.2	27.5	3.04e+01	61	27	0	817364992	44	7007
2026-01-16 04:34:31.01	319.24	7.74	-35.7	-37.0	27.5	3.04e+01	57	27	0	818937856	44	6863
2026-01-16 04:34:32.01	319.40	7.69	-36.0	-37.4	27.3	3.04e+01	60	27	0	821035008	44	7130
2026-01-16 04:34:33.02	319.55	7.64	-35.8	-37.2	27.4	3.04e+01	55	27	0	822607872	46	6233
2026-01-16 04:34:34.03	319.71	7.59	-35.8	-37.2	27.3	3.04e+01	61	27	0	824705024	46	6210
2026-01-16 04:34:35.04	319.86	7.54	-35.6	-36.9	27.6	3.04e+01	60	27	0	826802176	46	6013
2026-01-16 04:34:36.05	320.02	7.49	-35.7	-37.1	27.5	3.04e+01	45	27	0	828375040	46	6140
2026-01-16 04:34:37.05	320.17	7.45	-35.8	-37.1	27.5	3.04e+01	57	27	0	830472192	46	6190
2026-01-16 04:34:38.06	320.32	7.40	-35.8	-37.1	27.4	3.04e+01	58	27	0	832569344	46	6201
2026-01-16 04:34:39.07	320.47	7.35	-35.9	-37.3	27.3	3.04e+01	60	27	0	834142208	46	6301
2026-01-16 04:34:40.08	320.63	7.30	-35.8	-37.1	27.4	3.04e+01	60	27	0	836239360	46	6198
2026-01-16 04:34:41.09	320.78	7.25	-35.8	-37.1	27.4	3.04e+01	56	27	0	837812224	46	6200
2026-01-16 04:34:42.10	320.93	7.20	-35.9	-37.2	27.3	3.04e+01	58	27	0	839909376	46	6266
2026-01-16 04:34:43.10	321.08	7.15	-35.8	-37.1	27.4	3.04e+01	60	27	0	842006528	46	6197
2026-01-16 04:34:44.11	321.23	7.11	-35.9	-37.3	27.3	3.04e+01	60	27	0	843579392	46	6279
2026-01-16 04:34:45.12	321.37	7.06	-35.8	-37.1	27.4	3.04e+01	58	27	0	845676544	46	6188
2026-01-16 04:34:46.13	321.52	7.01	-35.9	-37.2	27.4	3.04e+01	59	27	0	847249408	46	6226
2026-01-16 04:34:47.14	321.67	6.96	-35.6	-37.0	27.5	3.04e+01	57	27	0	849346560	46	6065
2026-01-16 04:34:48.15	321.82	6.91	-35.7	-37.0	27.4	3.04e+01	58	27	0	851443712	46	6122
2026-01-16 04:34:49.16	321.97	6.86	-35.7	-37.1	27.4	3.04e+01	50	28	0	853016576	46	6137
2026-01-16 04:34:50.17	322.11	6.81	-35.9	-37.2	27.3	3.04e+01	56	27	0	855113728	46	6272
2026-01-16 04:34:51.18	322.26	6.76	-36.0	-37.4	27.1	3.04e+01	57	27	0	856686592	46	6359
2026-01-16 04:34:52.19	322.40	6.71	-36.1	-37.4	27.0	3.04e+01	59	27	0	858783744	46	6421
2026-01-16 04:34:53.20	322.55	6.66	-36.0	-37.3	27.2	3.04e+01	58	27	0	860880896	46	6323
2026-01-16 04:34:54.21	322.69	6.61	-36.1	-37.4	27.1	3.04e+01	45	27	0	862453760	46	6394
2026-01-16 04:34:55.21	322.84	6.56	-36.2	-37.6	26.9	3.04e+01	58	27	0	864550912	46	6516
2026-01-16 04:34:56.22	322.98	6.51	-36.2	-37.6	27.0	3.04e+01	60	28	0	866123776	46	6507
2026-01-16 04:34:57.23	323.12	6.46	-36.2	-37.6	26.9	3.04e+01	48	28	0	868220928	46	6557
2026-01-16 04:34:58.24	323.26	6.41	-36.3	-37.7	26.7	3.04e+01	59	28	0	870318080	46	6648
2026-01-16 04:34:59.25	323.41	6.37	-36.3	-37.7	26.8	3.04e+01	60	28	0	871890944	46	6577
2026-01-16 04:35:00.26	323.55	6.32	-36.3	-37.7	26.8	3.04e+01	59	28	0	873988096	46	6619
2026-01-16 04:35:01.27	323.69	6.27	-36.2	-37.6	26.9	3.04e+01	59	28	0	875560960	46	6539
2026-01-16 04:35:02.28	323.83	6.22	-36.3	-37.7	26.8	3.04e+01	57	28	0	877658112	46	6631
2026-01-16 04:35:03.29	323.97	6.17	-36.3	-37.7	26.6	3.04e+01	60	28	0	879755264	46	6616
2026-01-16 04:35:04.30	324.11	6.12	-36.3	-37.7	26.7	3.04e+01	57	28	0	881328128	46	6624
2026-01-16 04:35:05.30	324.25	6.07	-36.2	-37.6	26.8	3.04e+01	46	27	0	883425280	46	6534
2026-01-16 04:35:06.31	324.38	6.02	-36.3	-37.7	26.8	3.04e+01	60	28	0	885522432	46	6578
2026-01-16 04:35:07.32	324.52	5.97	-36.3	-37.7	26.8	3.04e+01	60	28	0	887095296	46	6622
2026-01-16 04:35:08.34	324.66	5.92	-36.1	-37.5	26.9	3.04e+01	62	28	0	889192448	46	6449
2026-01-16 04:35:09.34	324.80	5.87	-36.1	-37.5	26.9	3.04e+01	60	28	0	890765312	46	6480
2026-01-16 04:35:10.35	324.93	5.82	-36.7	-47.1	3.5	3.04e+01	0	28	104	892338176	46	19412
2026-01-16 04:35:11.36	325.07	5.77	-36.7	-46.9	3.5	3.04e+01	0	28	104	892338176	46	19172
2026-01-16 04:35:12.37	325.20	5.72	-36.7	-47.0	3.6	3.04e+01	0	28	104	892338176	46	19399
2026-01-16 04:35:13.38	325.34	5.67	-36.8	-47.1	3.6	3.04e+01	0	28	104	892338176	46	19579
2026-01-16 04:35:14.39	325.47	5.62	-36.7	-47.1	3.6	3.04e+01	0	28	104	892338176	46	19439
2026-01-16 04:35:15.40	325.61	5.57	-37.4	-47.9	3.6	3.04e+01	0	28	104	892338176	52	15101
2026-01-16 04:35:16.41	325.74	5.52	-46.3	-61.4	3.5	3.04e+01	0	28	104	892338176	60	45426
2026-01-16 04:35:17.42	325.87	5.47	-38.4	-49.1	3.6	3.04e+01	0	28	104	892338176	54	15433
2026-01-16 04:35:18.42	326.01	5.42	-42.0	-53.3	3.6	3.04e+01	0	28	104	892338176	60	17700
2026-01-16 04:35:19.43	326.14	5.37	-38.7	-49.2	3.6	3.04e+01	0	28	104	892338176	52	17551
2026-01-16 04:35:20.44	326.27	5.32	-38.2	-48.6	3.6	3.04e+01	0	28	104	892338176	52	16493
2026-01-16 04:35:21.45	326.40	5.27	-37.4	-47.7	3.6	3.04e+01	0	28	104	892338176	50	16683
2026-01-16 04:35:22.46	326.53	5.22	-37.0	-47.3	3.5	3.04e+01	0	28	104	892338176	50	15935
2026-01-16 04:35:23.47	326.66	5.17	-38.8	-49.3	3.6	3.04e+01	0	28	104	892338176	50	19890
2026-01-16 04:35:24.48	326.79	5.12	-37.4	-47.8	3.6	3.04e+01	0	28	104	892338176	50	16801
2026-01-16 04:35:25.49	326.92	5.07	-46.1	-61.0	3.5	3.04e+01	0	28	104	892338176	60	42994
2026-01-16 04:35:26.49	327.05	5.02	-38.4	-48.9	3.8	3.04e+01	0	28	104	892338176	52	16942
2026-01-16 04:35:27.50	327.18	4.97	-41.7	-52.9	3.4	3.04e+01	0	28	104	892338176	60	16943
2026-01-16 04:35:28.51	327.30	4.92	-39.0	-49.5	4.1	3.04e+01	0	28	104	892338176	54	16310
2026-01-16 04:35:29.52	327.43	4.87	-39.3	-49.9	4.0	3.04e+01	0	28	104	892338176	52	18972
2026-01-16 04:35:30.53	327.56	4.82	-39.2	-49.7	4.0	3.04e+01	0	28	104	892338176	52	18731
2026-01-16 04:35:31.54	327.68	4.77	-38.8	-49.4	4.1	3.04e+01	0	28	104	892338176	52	17946
2026-01-16 04:35:32.55	327.81	4.72	-39.6	-50.3	3.5	3.04e+01	0	28	104	892338176	52	20077
2026-01-16 04:35:33.56	327.94	4.67	-39.5	-50.3	3.5	3.04e+01	0	28	104	892338176	52	19866
2026-01-16 04:35:34.57	328.06	4.62	-46.3	-62.5	3.5	3.04e+01	0	28	104	892338176	60	51262
2026-01-16 04:35:35.57	328.18	4.57	-37.9	-48.4	3.2	3.04e+01	0	28	104	892338176	56	12781
2026-01-16 04:35:36.58	328.31	4.52	-39.4	-50.2	3.5	3.04e+01	0	28	104	892338176	54	17504
2026-01-16 04:35:37.60	328.43	4.47	-38.4	-49.0	3.5	3.04e+01	0	28	104	892338176	52	17284
2026-01-16 04:35:38.60	328.56	4.42	-38.3	-48.9	3.5	3.04e+01	0	28	104	892338176	52	17001
2026-01-16 04:35:39.61	328.68	4.37	-38.3	-48.9	3.5	3.04e+01	0	28	104	892338176	52	16983
2026-01-16 04:35:40.62	328.80	4.32	-38.3	-48.9	3.5	3.04e+01	0	28	104	892338176	52	16938
2026-01-16 04:35:41.63	328.92	4.27	-38.7	-49.3	3.5	3.04e+01	0	28	104	892338176	52	17778
2026-01-16 04:35:42.64	329.04	4.22	-44.0	-56.4	3.5	3.04e+01	0	28	104	892338176	54	35999
2026-01-16 04:35:43.65	329.17	4.17	-45.2	-58.8	3.5	3.04e+01	0	28	104	892338176	60	33622
2026-01-16 04:35:44.66	329.29	4.12	-39.6	-50.3	3.5	3.04e+01	0	28	104	892338176	52	20077
2026-01-16 04:35:45.67	329.41	4.07	-40.3	-51.2	3.6	3.04e+01	0	28	104	892338176	56	17532
2026-01-16 04:35:46.67	329.52	4.02	-38.8	-49.4	3.5	3.04e+01	0	28	104	892338176	54	16122
2026-01-16 04:35:47.68	329.64	3.97	-38.6	-49.1	3.5	3.04e+01	0	28	104	892338176	52	17483
2026-01-16 04:35:48.69	329.76	3.92	-38.4	-48.9	3.5	3.04e+01	0	28	104	892338176	52	17065
2026-01-16 04:35:49.70	329.88	3.87	-37.6	-48.1	3.5	3.04e+01	0	28	104	892338176	50	17379
2026-01-16 04:35:50.71	330.00	3.82	-39.5	-50.3	3.5	3.04e+01	0	28	104	892338176	52	20016
2026-01-16 04:35:51.72	330.12	3.77	-44.0	-57.0	3.5	3.04e+01	0	28	104	892338176	56	34415
2026-01-16 04:35:52.73	330.23	3.72	-43.3	-56.1	3.5	3.04e+01	0	28	104	892338176	60	24608
2026-01-16 04:35:53.74	330.35	3.67	-40.2	-51.3	3.5	3.04e+01	0	28	104	892338176	52	22375
2026-01-16 04:35:54.75	330.47	3.62	-40.4	-51.6	3.5	3.04e+01	0	28	104	892338176	56	18405
2026-01-16 04:35:55.75	330.58	3.57	-40.0	-51.1	3.5	3.04e+01	0	28	104	892338176	56	17398
2026-01-16 04:35:56.76	330.70	3.52	-39.2	-50.1	3.5	3.04e+01	0	28	104	892338176	54	17475
2026-01-16 04:35:57.77	330.81	3.47	-39.9	-51.1	3.5	3.04e+01	0	28	104	892338176	54	19439
2026-01-16 04:35:58.78	330.93	3.42	-39.2	-50.0	3.5	3.04e+01	0	28	104	892338176	54	17259
2026-01-16 04:35:59.79	331.04	3.37	-42.8	-55.3	3.7	3.04e+01	0	28	104	892338176	56	28240
2026-01-16 04:36:00.80	331.16	3.32	-42.0	-54.8	3.6	3.04e+01	0	28	104	892338176	56	26648
2026-01-16 04:36:01.78	331.27	3.27	-43.4	-59.9	3.5	3.04e+01	0	28	104	892338176	60	37918
2026-01-16 04:36:02.79	331.38	3.22	-42.3	-55.1	3.5	3.04e+01	0	28	104	892338176	58	24491
2026-01-16 04:36:03.80	331.49	3.17	-42.4	-55.8	3.5	3.04e+01	0	28	104	892338176	60	23620
2026-01-16 04:36:04.81	331.61	3.12	-42.7	-56.8	3.5	3.04e+01	0	28	104	892338176	60	26679
2026-01-16 04:36:05.82	331.72	3.07	-42.9	-57.8	3.5	3.04e+01	0	28	104	892338176	60	29759
2026-01-16 04:36:06.83	331.83	3.02	-43.1	-58.7	3.5	3.04e+01	0	28	104	892338176	60	32955
2026-01-16 04:36:07.84	331.94	2.97	-47.0	-64.9	3.5	3.04e+01	0	28	104	892338176	60	67589
2026-01-16 04:36:08.85	332.05	2.92	-47.4	-65.5	3.5	3.04e+01	0	28	104	892338176	60	72333
2026-01-16 04:36:09.86	332.16	2.87	-47.6	-65.8	3.5	3.04e+01	0	28	104	892338176	60	75049
2026-01-16 04:36:10.87	332.27	2.82	-48.0	-66.0	3.5	3.04e+01	0	28	104	892338176	60	76467
2026-01-16 04:36:11.88	332.38	2.77	-47.9	-66.2	3.5	3.04e+01	0	28	104	892338176	60	78371
2026-01-16 04:36:12.89	332.49	2.72	-47.8	-66.2	3.5	3.04e+01	0	28	104	892338176	60	79006
2026-01-16 04:36:13.90	332.60	2.67	-48.2	-66.3	3.5	3.04e+01	0	28	104	892338176	60	79599
2026-01-16 04:36:14.90	332.71	2.63	-48.3	-66.3	3.5	3.04e+01	0	28	104	892338176	60	79572
2026-01-16 04:36:15.91	332.82	2.58	-48.4	-66.4	3.5	3.04e+01	0	28	104	892338176	60	80613
2026-01-16 04:36:16.92	332.92	2.53	-48.4	-66.4	3.5	3.04e+01	0	28	104	892338176	60	80775
2026-01-16 04:36:17.93	333.03	2.48	-48.3	-66.3	3.5	3.04e+01	0	28	104	892338176	60	79943
2026-01-16 04:36:18.94	333.14	2.43	-48.3	-66.3	3.5	3.04e+01	0	28	104	892338176	60	79606
2026-01-16 04:36:19.95	333.24	2.38	-48.3	-66.2	3.5	3.04e+01	0	28	104	892338176	60	78499
2026-01-16 04:36:20.96	333.35	2.33	-48.3	-66.1	3.5	3.04e+01	0	28	104	892338176	60	78074
2026-01-16 04:36:21.97	333.46	2.28	-48.3	-66.1	3.5	3.04e+01	0	28	104	892338176	60	77804
2026-01-16 04:36:22.98	333.56	2.23	-48.2	-66.2	3.5	3.04e+01	0	28	104	892338176	60	78149
2026-01-16 04:36:23.99	333.67	2.18	-48.3	-66.2	3.5	3.04e+01	0	28	104	892338176	60	78336
2026-01-16 04:36:25.00	333.77	2.13	-48.4	-66.2	3.5	3.04e+01	0	28	104	892338176	60	78818
2026-01-16 04:36:26.01	333.88	2.08	-48.3	-66.2	3.5	3.04e+01	0	28	104	892338176	60	78150
2026-01-16 04:36:27.02	333.98	2.03	-48.3	-66.2	3.5	3.04e+01	0	28	104	892338176	60	78338
2026-01-16 04:36:28.03	334.08	1.98	-48.2	-66.1	3.5	3.04e+01	0	28	104	892338176	60	77833
2026-01-16 04:36:29.04	334.19	1.93	-48.3	-66.1	3.5	3.04e+01	0	28	104	892338176	60	78050
2026-01-16 04:36:30.05	334.29	1.88	-48.3	-66.2	3.5	3.04e+01	0	28	104	892338176	60	78155
2026-01-16 04:36:31.06	334.39	1.83	-48.3	-66.2	3.4	3.04e+01	0	28	104	892338176	60	78246
2026-01-16 04:36:32.07	334.49	1.79	-48.2	-66.1	3.5	3.04e+01	0	28	104	892338176	60	77839
2026-01-16 04:36:33.08	334.60	1.74	-48.3	-66.2	3.5	3.04e+01	0	28	104	892338176	60	78630
2026-01-16 04:36:34.08	334.70	1.69	-48.4	-66.3	3.5	3.04e+01	0	28	104	892338176	60	79757
2026-01-16 04:36:35.09	334.80	1.64	-48.4	-66.3	3.5	3.04e+01	0	28	104	892338176	60	79336
2026-01-16 04:36:36.10	334.90	1.59	-48.4	-66.3	3.5	3.04e+01	0	28	104	892338176	60	79189
2026-01-16 04:36:37.11	335.00	1.54	-48.4	-66.3	3.5	3.04e+01	0	28	104	892338176	60	79055
2026-01-16 04:36:38.12	335.10	1.49	-48.3	-66.2	3.5	3.04e+01	0	28	104	892338176	60	78249
2026-01-16 04:36:39.13	335.20	1.44	-48.4	-66.3	3.5	3.04e+01	0	28	104	892338176	60	79353
2026-01-16 04:36:40.13	335.30	1.39	-48.4	-66.3	3.5	3.04e+01	0	29	104	892338176	60	79086
2026-01-16 04:36:41.14	335.40	1.34	-48.4	-66.2	3.5	3.04e+01	0	28	104	892338176	60	78644
2026-01-16 04:36:42.15	335.50	1.30	-48.3	-66.1	3.5	3.04e+01	0	28	104	892338176	60	77520
2026-01-16 04:36:43.16	335.59	1.25	-48.4	-66.3	3.5	3.04e+01	0	29	104	892338176	60	79219
2026-01-16 04:36:44.17	335.69	1.20	-48.4	-66.3	3.5	3.04e+01	0	29	104	892338176	60	79055
2026-01-16 04:36:45.18	335.79	1.15	-48.5	-66.3	3.5	3.04e+01	0	29	104	892338176	60	79842
2026-01-16 04:36:46.19	335.89	1.10	-48.4	-66.3	3.5	3.04e+01	0	29	104	892338176	60	79415
2026-01-16 04:36:47.19	335.98	1.05	-48.4	-66.3	3.5	3.04e+01	0	29	104	892338176	60	79368
2026-01-16 04:36:48.21	336.08	1.00	-48.5	-66.4	3.5	3.04e+01	0	29	104	892338176	60	80333
2026-01-16 04:36:49.21	336.18	0.96	-48.3	-66.2	3.5	3.04e+01	0	29	104	892338176	60	78352
2026-01-16 04:36:50.22	336.27	0.91	-48.3	-66.2	3.5	3.04e+01	0	29	104	892338176	60	78569
2026-01-16 04:36:51.23	336.37	0.86	-48.5	-66.4	3.5	3.04e+01	0	29	104	892338176	60	80208
2026-01-16 04:36:52.24	336.46	0.81	-48.4	-66.3	3.5	3.04e+01	0	29	104	892338176	60	79459
2026-01-16 04:36:53.25	336.56	0.76	-48.3	-66.2	3.5	3.04e+01	0	29	104	892338176	60	78858
2026-01-16 04:36:54.26	336.65	0.71	-48.4	-66.3	3.5	3.04e+01	0	29	104	892338176	60	79401
2026-01-16 04:36:55.27	336.75	0.66	-48.4	-66.3	3.5	3.04e+01	0	29	104	892338176	60	79319
2026-01-16 04:36:56.28	336.84	0.62	-48.4	-66.3	3.5	3.04e+01	0	29	104	892338176	60	79321
2026-01-16 04:36:57.29	336.94	0.57	-48.5	-66.4	3.5	3.04e+01	0	29	104	892338176	60	80540
2026-01-16 04:36:58.30	337.03	0.52	-48.4	-66.3	3.5	3.04e+01	0	29	104	892338176	60	79476
2026-01-16 04:36:59.31	337.12	0.47	-48.8	-66.7	3.5	3.04e+01	0	29	104	892338176	60	83032
2026-01-16 04:37:00.32	337.22	0.42	-48.5	-66.3	3.5	3.04e+01	0	29	104	892338176	60	79880
2026-01-16 04:37:01.33	337.31	0.37	-48.5	-66.4	3.5	3.04e+01	0	29	104	892338176	60	80161
2026-01-16 04:37:02.34	337.40	0.32	-48.4	-66.3	3.5	3.04e+01	0	29	104	892338176	60	79115
2026-01-16 04:37:03.35	337.49	0.28	-48.5	-66.4	3.5	3.04e+01	0	29	104	892338176	60	80026
2026-01-16 04:37:04.36	337.58	0.23	-48.6	-66.4	3.5	3.04e+01	0	29	104	892338176	60	80656
2026-01-16 04:37:05.37	337.68	0.18	-48.6	-66.5	3.5	3.04e+01	0	29	104	892338176	60	81085
2026-01-16 04:37:06.38	337.77	0.13	-48.5	-66.4	3.5	3.04e+01	0	29	104	892338176	60	80647
2026-01-16 04:37:07.39	337.86	0.08	-48.4	-66.3	3.5	3.04e+01	0	29	104	892338176	60	79387
2026-01-16 04:37:08.40	337.95	0.04	-48.5	-66.4	3.5	3.04e+01	0	29	104	892338176	60	80484
2026-01-16 04:37:09.41	338.04	-0.01	-48.6	-66.5	3.5	3.04e+01	0	29	104	892338176	60	81190
2026-01-16 04:37:10.42	338.13	-0.06	-48.6	-66.5	3.5	3.04e+01	0	29	104	892338176	60	80880
2026-01-16 04:37:11.43	338.22	-0.11	-48.4	-66.2	3.5	3.04e+01	0	29	104	892338176	60	78779

#Closed at: 2026-01-16 04:37:11
#Recorded file [892 MB]: D:/lorett/data/35029_260116_162544.dat