passes_logs/2026/01/16/R4.6S_Anadyr/R4.6S_Anadyr__20260116_031926_FENGYUN_3D_rec.log

#Pass ID: 20260116_031926_FENGYUN 3D
#Satellite: FENGYUN 3D
#Configuration: FENGYUN 3D
#almurnet v.1.7.20251203
#Start time: 2026-01-16 03:19:28

#Version: 2.2.20231116
#Station: R4.6S_Anadyr
#Location: 177.4865 lon 64.73178 lat
#TLE: 1 43010U 17072A   26014.65117763 -.00000217  00000+0 -80772-4 0  9993
#TLE: 2 43010  98.9933 346.4618 0002330 108.4699 251.6730 14.19694700423204

#Time	Az	El	Level	Level2	SNR	BER	BlckErr	Temp	State	Recorded	gain1	gain2
2026-01-16 03:19:28.77	183.11	0.15	-48.6	-66.4	3.5	3.02e+01	0	26	0	0	60	79952
2026-01-16 03:19:29.77	183.15	0.21	-48.5	-60.6	3.6	8.45e-01	0	27	104	0	60	38941
2026-01-16 03:19:30.78	183.18	0.27	-48.4	-60.5	3.6	8.45e-01	0	27	104	0	60	38221
2026-01-16 03:19:31.79	183.22	0.33	-48.1	-60.2	3.6	8.45e-01	0	27	104	0	60	37035
2026-01-16 03:19:32.80	183.26	0.38	-48.2	-60.3	3.6	8.45e-01	0	27	104	0	60	37452
2026-01-16 03:19:33.81	183.29	0.44	-48.1	-60.3	3.6	8.46e-01	0	27	104	0	60	37605
2026-01-16 03:19:34.82	183.33	0.50	-48.0	-60.4	3.6	8.46e-01	0	27	104	0	60	37700
2026-01-16 03:19:35.83	183.37	0.56	-48.1	-60.4	3.6	8.45e-01	0	27	104	0	60	37905
2026-01-16 03:19:36.84	183.40	0.62	-47.9	-60.3	3.6	8.45e-01	0	27	104	0	60	37447
2026-01-16 03:19:37.85	183.44	0.68	-48.3	-60.4	3.6	8.45e-01	0	27	104	0	60	37867
2026-01-16 03:19:38.86	183.48	0.74	-48.1	-60.2	3.6	8.45e-01	0	27	104	0	60	37140
2026-01-16 03:19:39.87	183.51	0.80	-47.7	-60.1	3.6	8.45e-01	0	27	104	0	60	36720
2026-01-16 03:19:40.88	183.55	0.86	-47.5	-59.9	3.6	8.46e-01	0	27	104	0	60	35704
2026-01-16 03:19:41.88	183.59	0.92	-47.3	-59.5	3.6	8.45e-01	0	27	104	0	60	34261
2026-01-16 03:19:42.89	183.63	0.98	-47.1	-59.2	3.6	8.45e-01	0	27	104	0	60	32857
2026-01-16 03:19:43.90	183.67	1.04	-46.7	-58.7	3.6	8.45e-01	0	27	104	0	60	31276
2026-01-16 03:19:44.91	183.70	1.10	-46.7	-58.6	3.6	8.44e-01	0	28	104	0	60	30903
2026-01-16 03:19:45.92	183.74	1.16	-46.7	-58.7	3.6	8.44e-01	0	28	104	0	60	31039
2026-01-16 03:19:46.93	183.78	1.22	-46.7	-58.6	3.6	8.45e-01	0	28	104	0	60	30902
2026-01-16 03:19:47.94	183.82	1.28	-46.7	-58.7	3.6	8.46e-01	0	28	104	0	60	31115
2026-01-16 03:19:48.95	183.86	1.34	-46.7	-58.7	3.6	8.45e-01	0	28	104	0	60	31101
2026-01-16 03:19:49.96	183.90	1.40	-46.7	-58.6	3.6	8.45e-01	0	28	104	0	60	30808
2026-01-16 03:19:50.97	183.94	1.46	-46.7	-58.7	3.6	8.46e-01	0	28	104	0	60	31058
2026-01-16 03:19:51.98	183.98	1.53	-46.7	-58.5	3.6	8.45e-01	0	28	104	0	60	30524
2026-01-16 03:19:52.99	184.02	1.59	-46.7	-58.6	3.6	8.45e-01	0	28	104	0	60	30677
2026-01-16 03:19:54.00	184.05	1.65	-46.7	-58.5	3.6	8.46e-01	0	28	104	0	60	30420
2026-01-16 03:19:55.01	184.09	1.71	-46.6	-58.4	3.6	8.45e-01	0	28	104	0	60	30166
2026-01-16 03:19:56.02	184.13	1.77	-46.6	-58.4	3.6	8.45e-01	0	28	104	0	60	30123
2026-01-16 03:19:57.03	184.17	1.83	-46.6	-58.4	3.6	8.45e-01	0	28	104	0	60	30174
2026-01-16 03:19:58.04	184.21	1.90	-46.6	-58.6	3.6	8.45e-01	0	28	104	0	60	30639
2026-01-16 03:19:59.05	184.25	1.96	-46.6	-58.6	3.6	8.45e-01	0	28	104	0	60	30688
2026-01-16 03:20:00.06	184.29	2.02	-46.7	-58.6	3.6	8.44e-01	0	28	104	0	60	30756
2026-01-16 03:20:01.07	184.34	2.08	-46.6	-58.5	3.6	8.44e-01	0	28	104	0	60	30559
2026-01-16 03:20:02.08	184.38	2.14	-46.6	-58.5	3.6	8.47e-01	0	28	104	0	60	30321
2026-01-16 03:20:03.09	184.42	2.21	-46.6	-58.5	3.6	8.46e-01	0	28	104	0	60	30327
2026-01-16 03:20:04.10	184.46	2.27	-46.6	-58.6	3.6	8.45e-01	0	28	104	0	60	30840
2026-01-16 03:20:05.10	184.50	2.33	-46.7	-58.8	3.6	8.45e-01	0	28	104	0	60	31340
2026-01-16 03:20:06.11	184.54	2.39	-46.6	-58.6	3.6	8.46e-01	0	28	104	0	60	30750
2026-01-16 03:20:07.12	184.58	2.46	-46.6	-58.2	3.6	8.45e-01	0	28	104	0	60	29322
2026-01-16 03:20:08.13	184.62	2.52	-46.5	-57.2	3.6	8.45e-01	0	28	104	0	60	26098
2026-01-16 03:20:09.14	184.67	2.58	-46.4	-56.1	3.6	8.44e-01	0	28	104	0	60	23161
2026-01-16 03:20:10.15	184.71	2.65	-46.4	-55.9	3.7	8.40e-01	0	28	104	0	60	22623
2026-01-16 03:20:11.16	184.75	2.71	-46.4	-56.4	3.6	8.43e-01	0	28	104	0	60	23836
2026-01-16 03:20:12.17	184.79	2.77	-46.5	-57.3	3.6	8.45e-01	0	28	104	0	60	26609
2026-01-16 03:20:13.18	184.83	2.84	-46.5	-56.8	3.6	8.44e-01	0	28	104	0	60	25002
2026-01-16 03:20:14.19	184.88	2.90	-45.8	-52.5	5.5	7.96e-01	0	28	104	0	60	15327
2026-01-16 03:20:15.20	184.92	2.97	-44.5	-48.0	9.2	5.58e-02	0	28	0	2097152	60	9101
2026-01-16 03:20:16.20	184.96	3.03	-42.5	-44.7	13.0	2.08e-04	0	28	0	8388608	58	6967
2026-01-16 03:20:17.21	185.01	3.09	-40.8	-42.4	15.4	1.10e-06	0	28	0	13631488	56	5979
2026-01-16 03:20:18.22	185.05	3.16	-38.6	-39.8	17.9	0.00e+00	0	28	0	18874368	52	5610
2026-01-16 03:20:19.23	185.09	3.22	-37.3	-38.3	19.5	0.00e+00	0	28	0	25165824	48	5946
2026-01-16 03:20:20.24	185.14	3.29	-36.7	-37.6	20.2	0.00e+00	0	28	0	30408704	46	6150
2026-01-16 03:20:21.25	185.18	3.35	-36.1	-37.0	20.7	0.00e+00	0	28	0	36700160	46	5722
2026-01-16 03:20:22.26	185.23	3.42	-35.8	-36.7	21.0	0.00e+00	0	28	0	41943040	44	6174
2026-01-16 03:20:23.27	185.27	3.48	-35.7	-36.6	21.0	0.00e+00	0	28	0	48234496	44	6132
2026-01-16 03:20:24.28	185.31	3.55	-35.9	-36.8	20.7	0.00e+00	0	28	0	53477376	44	6268
2026-01-16 03:20:25.29	185.36	3.61	-37.0	-38.0	19.7	0.00e+00	0	28	0	59768832	46	6394
2026-01-16 03:20:26.30	185.40	3.68	-37.9	-38.9	19.4	0.00e+00	0	28	0	65011712	48	6384
2026-01-16 03:20:27.31	185.45	3.75	-36.5	-37.4	21.0	0.00e+00	0	28	0	70254592	46	5999
2026-01-16 03:20:28.32	185.49	3.81	-45.9	-53.1	4.9	7.83e-01	0	28	104	73400320	60	16305
2026-01-16 03:20:29.33	185.54	3.88	-40.3	-41.7	16.2	0.00e+00	0	28	0	73400320	52	6972
2026-01-16 03:20:30.34	185.58	3.94	-39.0	-40.2	18.2	1.10e-06	0	28	0	79691776	54	5233
2026-01-16 03:20:31.35	185.63	4.01	-45.6	-50.3	7.1	7.47e-01	0	28	0	83886080	60	11872
2026-01-16 03:20:32.36	185.68	4.08	-37.9	-39.0	18.9	0.00e+00	0	28	0	89128960	48	6414
2026-01-16 03:20:33.37	185.72	4.14	-37.8	-38.9	19.0	0.00e+00	0	28	0	95420416	48	6321
2026-01-16 03:20:34.37	185.77	4.21	-38.2	-39.3	18.7	0.00e+00	0	28	0	100663296	48	6688
2026-01-16 03:20:35.38	185.82	4.28	-37.4	-38.5	19.5	0.00e+00	0	28	0	105906176	48	6076
2026-01-16 03:20:36.39	185.86	4.34	-36.4	-37.4	20.5	0.00e+00	0	28	0	112197632	46	5972
2026-01-16 03:20:37.40	185.91	4.41	-36.1	-37.0	20.7	0.00e+00	0	28	0	117440512	46	5738
2026-01-16 03:20:38.41	185.96	4.48	-35.7	-36.5	21.4	0.00e+00	0	28	0	123731968	44	6096
2026-01-16 03:20:39.42	186.00	4.55	-35.5	-36.3	21.5	0.00e+00	0	28	0	128974848	44	5946
2026-01-16 03:20:40.43	186.05	4.61	-35.2	-36.1	21.8	0.00e+00	0	28	0	134217728	44	5786
2026-01-16 03:20:41.43	186.10	4.68	-34.7	-35.6	22.2	0.00e+00	0	28	0	140509184	44	5455
2026-01-16 03:20:42.44	186.15	4.75	-34.7	-35.5	22.3	0.00e+00	0	28	0	145752064	42	6102
2026-01-16 03:20:43.45	186.19	4.82	-34.5	-35.2	22.5	0.00e+00	0	28	0	152043520	42	5895
2026-01-16 03:20:44.46	186.24	4.88	-34.6	-35.4	22.4	0.00e+00	0	28	0	157286400	42	5969
2026-01-16 03:20:45.47	186.29	4.95	-34.8	-35.6	22.1	0.00e+00	0	28	0	162529280	42	6104
2026-01-16 03:20:46.48	186.34	5.02	-34.7	-35.5	22.3	0.00e+00	0	29	0	168820736	42	6040
2026-01-16 03:20:47.48	186.39	5.09	-34.6	-35.4	22.4	0.00e+00	0	28	0	174063616	42	5973
2026-01-16 03:20:48.50	186.44	5.16	-34.6	-35.4	22.5	0.00e+00	0	28	0	180355072	42	5971
2026-01-16 03:20:49.50	186.49	5.23	-34.4	-35.2	22.6	0.00e+00	0	28	0	185597952	42	5831
2026-01-16 03:20:50.51	186.54	5.30	-34.5	-35.2	22.6	0.00e+00	0	28	0	191889408	42	5890
2026-01-16 03:20:51.52	186.59	5.37	-34.4	-35.1	22.6	0.00e+00	0	28	0	197132288	42	5816
2026-01-16 03:20:52.53	186.64	5.44	-34.2	-35.0	22.9	0.00e+00	0	28	0	202375168	42	5699
2026-01-16 03:20:53.54	186.69	5.51	-34.2	-35.0	22.9	0.00e+00	0	28	0	208666624	42	5717
2026-01-16 03:20:54.55	186.74	5.58	-34.5	-35.2	22.6	0.00e+00	0	29	0	213909504	42	5866
2026-01-16 03:20:55.56	186.79	5.65	-34.5	-35.2	22.7	0.00e+00	0	29	0	220200960	42	5893
2026-01-16 03:20:56.57	186.84	5.72	-34.2	-34.9	23.0	0.00e+00	0	29	0	225443840	42	5680
2026-01-16 03:20:57.58	186.89	5.79	-34.1	-34.9	23.0	0.00e+00	0	28	0	231735296	42	5654
2026-01-16 03:20:58.59	186.94	5.86	-34.3	-35.1	22.9	0.00e+00	0	29	0	236978176	42	5776
2026-01-16 03:20:59.59	186.99	5.93	-34.1	-34.9	23.1	0.00e+00	0	29	0	242221056	42	5639
2026-01-16 03:21:00.60	187.05	6.00	-34.0	-34.7	23.2	0.00e+00	0	29	0	248512512	42	5539
2026-01-16 03:21:01.61	187.10	6.07	-34.1	-34.9	23.1	0.00e+00	0	29	0	253755392	42	5636
2026-01-16 03:21:02.62	187.15	6.14	-34.0	-34.8	23.2	0.00e+00	0	29	0	258998272	42	5593
2026-01-16 03:21:03.63	187.20	6.21	-34.2	-34.9	23.0	0.00e+00	0	29	0	265289728	42	5653
2026-01-16 03:21:04.64	187.26	6.29	-34.3	-35.0	22.9	0.00e+00	0	29	0	270532608	42	5752
2026-01-16 03:21:05.65	187.31	6.36	-34.5	-35.3	22.8	0.00e+00	0	29	0	276824064	42	5906
2026-01-16 03:21:06.66	187.36	6.43	-33.9	-34.6	23.4	0.00e+00	0	29	0	282066944	42	5500
2026-01-16 03:21:07.67	187.42	6.50	-34.0	-34.7	23.2	0.00e+00	0	29	0	288358400	42	5532
2026-01-16 03:21:08.67	187.47	6.57	-34.0	-34.8	23.2	0.00e+00	0	29	0	293601280	42	5570
2026-01-16 03:21:09.69	187.52	6.65	-34.0	-34.7	23.2	0.00e+00	0	29	0	299892736	42	5550
2026-01-16 03:21:10.70	187.58	6.72	-34.1	-34.8	23.2	0.00e+00	0	29	0	305135616	42	5607
2026-01-16 03:21:11.70	187.63	6.79	-34.0	-34.8	23.2	0.00e+00	0	29	0	310378496	42	5605
2026-01-16 03:21:12.71	187.69	6.87	-33.9	-34.7	23.3	0.00e+00	0	29	0	316669952	42	5518
2026-01-16 03:21:13.72	187.74	6.94	-33.8	-34.6	23.4	0.00e+00	0	29	0	321912832	42	5471
2026-01-16 03:21:14.73	187.80	7.01	-33.8	-34.5	23.6	0.00e+00	0	29	0	328204288	42	5411
2026-01-16 03:21:15.74	187.85	7.09	-33.7	-34.4	23.6	0.00e+00	0	29	0	333447168	40	6008
2026-01-16 03:21:16.75	187.91	7.16	-33.7	-34.5	23.6	0.00e+00	0	29	0	338690048	40	6044
2026-01-16 03:21:17.76	187.97	7.23	-33.8	-34.5	23.5	0.00e+00	0	29	0	344981504	40	6080
2026-01-16 03:21:18.77	188.02	7.31	-33.7	-34.5	23.5	0.00e+00	0	29	0	350224384	40	6055
2026-01-16 03:21:19.78	188.08	7.38	-33.7	-34.4	23.6	0.00e+00	0	29	0	356515840	40	6028
2026-01-16 03:21:20.79	188.14	7.46	-33.6	-34.4	23.7	0.00e+00	0	29	0	361758720	40	5972
2026-01-16 03:21:21.80	188.19	7.53	-33.7	-34.4	23.6	0.00e+00	0	29	0	367001600	40	5992
2026-01-16 03:21:22.81	188.25	7.61	-33.7	-34.4	23.7	0.00e+00	0	29	0	373293056	40	6028
2026-01-16 03:21:23.82	188.31	7.68	-33.6	-34.3	23.7	0.00e+00	0	29	0	378535936	40	5927
2026-01-16 03:21:24.83	188.37	7.76	-33.5	-34.3	23.8	0.00e+00	0	29	0	384827392	40	5920
2026-01-16 03:21:25.83	188.43	7.83	-33.5	-34.2	23.9	0.00e+00	0	29	0	390070272	40	5867
2026-01-16 03:21:26.84	188.49	7.91	-33.5	-34.2	23.8	0.00e+00	0	29	0	396361728	40	5882
2026-01-16 03:21:27.85	188.54	7.99	-33.5	-34.3	23.8	0.00e+00	0	29	0	401604608	40	5901
2026-01-16 03:21:28.86	188.60	8.06	-33.5	-34.2	23.9	0.00e+00	0	29	0	406847488	40	5864
2026-01-16 03:21:29.87	188.66	8.14	-33.5	-34.2	23.9	0.00e+00	0	29	0	413138944	40	5843
2026-01-16 03:21:30.88	188.72	8.22	-33.4	-34.1	24.0	0.00e+00	0	29	0	418381824	40	5803
2026-01-16 03:21:31.89	188.78	8.29	-33.5	-34.2	23.9	0.00e+00	0	29	0	424673280	40	5863
2026-01-16 03:21:32.90	188.84	8.37	-33.4	-34.1	24.1	0.00e+00	0	29	0	429916160	40	5787
2026-01-16 03:21:33.91	188.90	8.45	-33.6	-34.3	23.8	0.00e+00	0	29	0	435159040	40	5964
2026-01-16 03:21:34.92	188.97	8.53	-33.5	-34.2	23.9	0.00e+00	0	29	0	441450496	40	5870
2026-01-16 03:21:35.93	189.03	8.60	-33.2	-33.9	24.2	0.00e+00	0	29	0	446693376	40	5641
2026-01-16 03:21:36.94	189.09	8.68	-33.2	-33.9	24.3	0.00e+00	0	29	0	452984832	40	5657
2026-01-16 03:21:37.95	189.15	8.76	-33.2	-33.9	24.2	0.00e+00	0	29	0	458227712	40	5681
2026-01-16 03:21:38.96	189.21	8.84	-33.1	-33.8	24.3	0.00e+00	0	29	0	463470592	40	5609
2026-01-16 03:21:39.97	189.28	8.92	-33.2	-33.9	24.3	0.00e+00	0	29	0	469762048	40	5653
2026-01-16 03:21:40.98	189.34	9.00	-33.0	-33.7	24.4	0.00e+00	0	29	0	475004928	40	5531
2026-01-16 03:21:41.99	189.40	9.07	-33.1	-33.8	24.3	0.00e+00	0	29	0	481296384	40	5587
2026-01-16 03:21:42.99	189.47	9.15	-32.9	-33.6	24.5	0.00e+00	0	29	0	486539264	40	5484
2026-01-16 03:21:44.00	189.53	9.23	-33.0	-33.7	24.5	0.00e+00	0	29	0	492830720	40	5554
2026-01-16 03:21:45.01	189.59	9.31	-32.9	-33.6	24.5	0.00e+00	0	29	0	498073600	40	5442
2026-01-16 03:21:46.02	189.66	9.39	-32.9	-33.6	24.7	0.00e+00	0	29	0	503316480	40	5448
2026-01-16 03:21:47.03	189.72	9.47	-32.9	-33.6	24.6	0.00e+00	0	29	0	509607936	40	5482
2026-01-16 03:21:48.04	189.79	9.55	-33.1	-33.8	24.4	0.00e+00	0	29	0	514850816	40	5576
2026-01-16 03:21:49.05	189.85	9.63	-32.9	-33.5	24.6	0.00e+00	0	29	0	521142272	40	5423
2026-01-16 03:21:50.06	189.92	9.72	-32.7	-33.4	24.7	0.00e+00	0	29	0	526385152	40	5361
2026-01-16 03:21:51.07	189.99	9.80	-32.9	-33.5	24.7	0.00e+00	0	29	0	531628032	38	6099
2026-01-16 03:21:52.07	190.05	9.88	-32.8	-33.4	24.8	0.00e+00	0	29	0	537919488	38	6033
2026-01-16 03:21:53.09	190.12	9.96	-32.8	-33.5	24.6	0.00e+00	0	29	0	543162368	38	6079
2026-01-16 03:21:54.09	190.19	10.04	-32.7	-33.4	24.8	0.00e+00	0	29	0	549453824	38	6009
2026-01-16 03:21:55.10	190.25	10.12	-32.8	-33.5	24.8	0.00e+00	0	29	0	554696704	38	6043
2026-01-16 03:21:56.11	190.32	10.21	-32.6	-33.3	24.9	0.00e+00	0	29	0	559939584	38	5906
2026-01-16 03:21:57.12	190.39	10.29	-32.6	-33.3	24.9	0.00e+00	0	29	0	566231040	38	5950
2026-01-16 03:21:58.13	190.46	10.37	-32.8	-33.5	24.7	0.00e+00	0	29	0	571473920	38	6038
2026-01-16 03:21:59.14	190.53	10.45	-32.6	-33.3	24.8	0.00e+00	0	29	0	577765376	38	5956
2026-01-16 03:22:00.15	190.60	10.54	-32.6	-33.2	25.0	0.00e+00	0	29	0	583008256	38	5892
2026-01-16 03:22:01.15	190.67	10.62	-32.5	-33.2	24.9	0.00e+00	0	29	0	589299712	38	5889
2026-01-16 03:22:02.16	190.74	10.70	-32.4	-33.1	25.0	0.00e+00	0	29	0	594542592	38	5822
2026-01-16 03:22:03.17	190.81	10.79	-32.5	-33.2	25.0	0.00e+00	0	29	0	599785472	38	5848
2026-01-16 03:22:04.18	190.88	10.87	-32.5	-33.2	25.0	0.00e+00	0	29	0	606076928	38	5839
2026-01-16 03:22:05.19	190.95	10.96	-32.4	-33.1	25.1	0.00e+00	0	29	0	611319808	38	5788
2026-01-16 03:22:06.20	191.02	11.04	-32.5	-33.2	25.1	0.00e+00	0	29	0	617611264	38	5841
2026-01-16 03:22:07.21	191.10	11.13	-32.3	-33.0	25.2	0.00e+00	0	29	0	622854144	38	5740
2026-01-16 03:22:08.22	191.17	11.21	-32.4	-33.1	25.2	0.00e+00	0	29	0	628097024	38	5780
2026-01-16 03:22:09.23	191.24	11.30	-32.3	-33.0	25.2	0.00e+00	0	29	0	634388480	38	5731
2026-01-16 03:22:10.24	191.32	11.38	-32.4	-33.1	25.1	0.00e+00	0	29	0	639631360	38	5765
2026-01-16 03:22:11.25	191.39	11.47	-32.4	-33.0	25.2	0.00e+00	0	29	0	645922816	38	5747
2026-01-16 03:22:12.26	191.46	11.56	-32.4	-33.1	25.2	0.00e+00	0	29	0	651165696	38	5784
2026-01-16 03:22:13.27	191.54	11.64	-32.3	-33.0	25.2	0.00e+00	0	29	0	656408576	38	5699
2026-01-16 03:22:14.28	191.61	11.73	-32.4	-33.1	25.1	0.00e+00	0	29	0	662700032	38	5819
2026-01-16 03:22:15.28	191.69	11.82	-32.4	-33.0	25.2	0.00e+00	0	29	0	667942912	38	5748
2026-01-16 03:22:16.29	191.76	11.91	-32.5	-33.2	25.1	0.00e+00	0	29	0	674234368	38	5876
2026-01-16 03:22:17.30	191.84	11.99	-32.4	-33.1	25.2	0.00e+00	0	29	0	679477248	38	5790
2026-01-16 03:22:18.31	191.92	12.08	-32.5	-33.1	25.1	0.00e+00	0	29	0	685768704	38	5820
2026-01-16 03:22:19.31	191.99	12.17	-32.4	-33.1	25.2	0.00e+00	0	29	0	691011584	38	5791
2026-01-16 03:22:20.32	192.07	12.26	-32.5	-33.2	25.1	0.00e+00	0	29	0	696254464	38	5875
2026-01-16 03:22:21.33	192.15	12.35	-32.6	-33.3	25.0	0.00e+00	0	29	0	702545920	38	5947
2026-01-16 03:22:22.34	192.23	12.44	-32.4	-33.1	25.1	0.00e+00	0	29	0	707788800	38	5819
2026-01-16 03:22:23.35	192.31	12.52	-32.2	-32.9	25.3	0.00e+00	0	29	0	714080256	38	5688
2026-01-16 03:22:24.35	192.39	12.61	-32.3	-33.0	25.3	0.00e+00	0	29	0	719323136	38	5738
2026-01-16 03:22:25.37	192.47	12.70	-32.2	-32.9	25.3	0.00e+00	0	29	0	724566016	38	5679
2026-01-16 03:22:26.37	192.55	12.79	-32.1	-32.8	25.5	0.00e+00	0	29	0	730857472	38	5568
2026-01-16 03:22:27.39	192.63	12.89	-32.2	-32.9	25.4	0.00e+00	0	29	0	736100352	38	5641
2026-01-16 03:22:28.39	192.71	12.98	-32.1	-32.8	25.4	0.00e+00	0	29	0	742391808	38	5622
2026-01-16 03:22:29.41	192.79	13.07	-32.0	-32.7	25.5	0.00e+00	0	29	0	747634688	38	5508
2026-01-16 03:22:30.42	192.88	13.16	-32.1	-32.8	25.5	0.00e+00	0	29	0	752877568	38	5592
2026-01-16 03:22:31.43	192.96	13.25	-32.0	-32.7	25.5	0.00e+00	0	29	0	759169024	38	5548
2026-01-16 03:22:32.43	193.04	13.34	-31.8	-32.5	25.7	0.00e+00	0	29	0	764411904	38	5406
2026-01-16 03:22:33.44	193.12	13.43	-31.9	-32.6	25.6	0.00e+00	0	29	0	770703360	38	5479
2026-01-16 03:22:34.45	193.21	13.53	-32.0	-32.7	25.6	0.00e+00	0	29	0	775946240	38	5518
2026-01-16 03:22:35.46	193.29	13.62	-31.9	-32.5	25.7	0.00e+00	0	29	0	782237696	38	5413
2026-01-16 03:22:36.47	193.38	13.71	-31.8	-32.5	25.8	0.00e+00	0	29	0	787480576	38	5413
2026-01-16 03:22:37.48	193.47	13.81	-31.9	-32.5	25.8	0.00e+00	0	29	0	792723456	38	5428
2026-01-16 03:22:38.49	193.55	13.90	-31.7	-32.3	25.8	0.00e+00	0	29	0	799014912	36	5964
2026-01-16 03:22:39.50	193.64	13.99	-31.7	-32.4	25.8	0.00e+00	0	29	0	804257792	36	5989
2026-01-16 03:22:40.51	193.73	14.09	-31.6	-32.2	25.9	0.00e+00	0	29	0	810549248	36	5873
2026-01-16 03:22:41.51	193.81	14.18	-31.6	-32.3	25.9	0.00e+00	0	29	0	815792128	36	5913
2026-01-16 03:22:42.52	193.90	14.28	-31.6	-32.3	26.0	0.00e+00	0	29	0	821035008	36	5922
2026-01-16 03:22:43.53	193.99	14.37	-31.5	-32.1	26.0	0.00e+00	0	29	0	827326464	36	5793
2026-01-16 03:22:44.54	194.08	14.47	-31.6	-32.3	26.0	0.00e+00	0	29	0	832569344	36	5901
2026-01-16 03:22:45.55	194.17	14.57	-31.5	-32.2	25.9	0.00e+00	0	29	0	838860800	36	5879
2026-01-16 03:22:46.56	194.26	14.66	-31.6	-32.2	25.9	0.00e+00	0	29	0	844103680	36	5886
2026-01-16 03:22:47.57	194.35	14.76	-31.4	-32.1	26.1	0.00e+00	0	29	0	849346560	36	5771
2026-01-16 03:22:48.58	194.44	14.86	-31.4	-32.1	26.1	0.00e+00	0	29	0	855638016	36	5765
2026-01-16 03:22:49.59	194.54	14.95	-31.5	-32.1	26.0	0.00e+00	0	29	0	860880896	36	5818
2026-01-16 03:22:50.60	194.63	15.05	-31.3	-32.0	26.2	0.00e+00	0	29	0	867172352	36	5727
2026-01-16 03:22:51.61	194.72	15.15	-31.5	-32.2	26.1	0.00e+00	0	29	0	872415232	36	5836
2026-01-16 03:22:52.62	194.82	15.25	-31.5	-32.2	26.0	0.00e+00	0	29	0	878706688	36	5857
2026-01-16 03:22:53.63	194.91	15.35	-31.3	-32.0	26.3	0.00e+00	0	29	0	883949568	36	5707
2026-01-16 03:22:54.64	195.01	15.44	-31.3	-32.0	26.2	0.00e+00	0	30	0	890241024	36	5703
2026-01-16 03:22:55.65	195.10	15.54	-31.3	-31.9	26.2	0.00e+00	0	30	0	895483904	36	5677
2026-01-16 03:22:56.65	195.20	15.64	-31.3	-31.9	26.3	0.00e+00	0	29	0	900726784	36	5648
2026-01-16 03:22:57.66	195.30	15.74	-31.3	-31.9	26.2	0.00e+00	0	30	0	907018240	36	5694
2026-01-16 03:22:58.67	195.40	15.84	-31.1	-31.8	26.3	0.00e+00	0	30	0	912261120	36	5574
2026-01-16 03:22:59.68	195.49	15.94	-31.2	-31.8	26.4	0.00e+00	0	30	0	918552576	36	5612
2026-01-16 03:23:00.69	195.59	16.04	-31.1	-31.8	26.4	0.00e+00	0	30	0	923795456	36	5617
2026-01-16 03:23:01.70	195.69	16.15	-31.3	-31.9	26.3	0.00e+00	0	29	0	929038336	36	5695
2026-01-16 03:23:02.71	195.79	16.25	-31.1	-31.7	26.4	0.00e+00	0	30	0	935329792	36	5565
2026-01-16 03:23:03.72	195.89	16.35	-31.1	-31.8	26.4	0.00e+00	0	29	0	940572672	36	5569
2026-01-16 03:23:04.73	196.00	16.45	-31.1	-31.7	26.5	0.00e+00	0	29	0	946864128	36	5556
2026-01-16 03:23:05.74	196.10	16.55	-31.1	-31.7	26.5	0.00e+00	0	29	0	952107008	36	5550
2026-01-16 03:23:06.75	196.20	16.66	-31.0	-31.6	26.5	0.00e+00	0	30	0	957349888	36	5490
2026-01-16 03:23:07.75	196.30	16.76	-31.1	-31.8	26.4	0.00e+00	0	29	0	963641344	36	5598
2026-01-16 03:23:08.76	196.41	16.86	-30.8	-31.4	26.7	0.00e+00	0	29	0	968884224	36	5351
2026-01-16 03:23:09.77	196.51	16.97	-30.7	-31.3	26.8	0.00e+00	0	29	0	975175680	34	5960
2026-01-16 03:23:10.78	196.62	17.07	-30.7	-31.4	26.7	0.00e+00	0	30	0	980418560	34	5972
2026-01-16 03:23:11.79	196.73	17.18	-30.6	-31.2	26.8	0.00e+00	0	30	0	986710016	34	5871
2026-01-16 03:23:12.80	196.83	17.28	-30.5	-31.2	27.0	0.00e+00	0	30	0	991952896	34	5840
2026-01-16 03:23:13.81	196.94	17.39	-30.4	-31.1	27.0	0.00e+00	0	30	0	997195776	34	5776
2026-01-16 03:23:14.82	197.05	17.49	-30.5	-31.1	27.0	0.00e+00	0	29	0	1003487232	34	5820
2026-01-16 03:23:15.83	197.16	17.60	-30.6	-31.2	26.9	0.00e+00	0	29	0	1008730112	34	5864
2026-01-16 03:23:16.83	197.27	17.71	-30.5	-31.2	26.9	0.00e+00	0	29	0	1015021568	34	5831
2026-01-16 03:23:17.84	197.38	17.81	-30.6	-31.3	26.8	0.00e+00	0	29	0	1020264448	34	5903
2026-01-16 03:23:18.85	197.49	17.92	-30.6	-31.2	26.9	0.00e+00	0	29	0	1025507328	34	5883
2026-01-16 03:23:19.86	197.60	18.03	-30.6	-31.3	26.9	0.00e+00	0	30	0	1031798784	34	5904
2026-01-16 03:23:20.87	197.72	18.14	-30.6	-31.2	26.9	0.00e+00	0	30	0	1037041664	34	5874
2026-01-16 03:23:21.88	197.83	18.24	-30.7	-31.3	26.9	0.00e+00	0	30	0	1043333120	34	5938
2026-01-16 03:23:22.89	197.95	18.35	-30.4	-31.0	27.0	0.00e+00	0	29	0	1048576000	34	5761
2026-01-16 03:23:23.90	198.06	18.46	-30.4	-31.0	27.0	0.00e+00	0	30	0	1053818880	34	5746
2026-01-16 03:23:24.91	198.18	18.57	-30.5	-31.1	27.0	0.00e+00	0	29	0	1060110336	34	5785
2026-01-16 03:23:25.92	198.30	18.68	-30.4	-31.1	27.0	0.00e+00	0	30	0	1065353216	34	5786
2026-01-16 03:23:26.92	198.41	18.79	-30.3	-30.9	27.1	0.00e+00	0	30	0	1071644672	34	5691
2026-01-16 03:23:27.94	198.53	18.90	-30.4	-31.1	27.1	0.00e+00	0	30	0	1076887552	34	5781
2026-01-16 03:23:28.94	198.65	19.01	-30.3	-31.0	27.1	0.00e+00	0	30	0	1083179008	34	5703
2026-01-16 03:23:29.95	198.77	19.12	-30.4	-31.0	27.1	0.00e+00	0	30	0	1088421888	34	5756
2026-01-16 03:23:30.96	198.89	19.24	-30.4	-31.0	27.1	0.00e+00	0	30	0	1093664768	34	5739
2026-01-16 03:23:31.97	199.02	19.35	-30.3	-31.0	27.1	0.00e+00	0	30	0	1099956224	34	5705
2026-01-16 03:23:32.98	199.14	19.46	-30.4	-31.0	27.1	0.00e+00	0	30	0	1105199104	34	5730
2026-01-16 03:23:33.99	199.26	19.57	-30.3	-30.9	27.1	0.00e+00	0	30	0	1111490560	34	5693
2026-01-16 03:23:35.00	199.39	19.69	-30.3	-31.0	27.1	0.00e+00	0	30	0	1116733440	34	5734
2026-01-16 03:23:36.01	199.51	19.80	-30.3	-31.0	27.1	0.00e+00	0	30	0	1121976320	34	5720
2026-01-16 03:23:37.02	199.64	19.92	-30.4	-31.1	27.0	0.00e+00	0	30	0	1128267776	34	5775
2026-01-16 03:23:38.03	199.77	20.03	-30.4	-31.1	27.1	0.00e+00	0	30	0	1133510656	34	5770
2026-01-16 03:23:39.04	199.90	20.15	-30.5	-31.2	26.9	0.00e+00	0	30	0	1139802112	34	5858
2026-01-16 03:23:40.05	200.03	20.26	-30.3	-31.0	27.2	0.00e+00	0	30	0	1145044992	34	5727
2026-01-16 03:23:41.06	200.16	20.38	-30.4	-31.0	27.1	0.00e+00	0	30	0	1150287872	34	5748
2026-01-16 03:23:42.07	200.29	20.49	-30.3	-30.9	27.3	0.00e+00	0	30	0	1156579328	34	5684
2026-01-16 03:23:43.08	200.42	20.61	-30.3	-30.9	27.2	0.00e+00	0	30	0	1161822208	34	5680
2026-01-16 03:23:44.09	200.55	20.73	-30.5	-31.2	27.0	0.00e+00	0	30	0	1168113664	34	5845
2026-01-16 03:23:45.09	200.69	20.84	-30.3	-30.9	27.1	0.00e+00	0	30	0	1173356544	34	5685
2026-01-16 03:23:46.10	200.82	20.96	-30.4	-31.0	27.2	0.00e+00	0	30	0	1179648000	34	5714
2026-01-16 03:23:47.11	200.96	21.08	-30.3	-31.0	27.1	0.00e+00	0	30	0	1184890880	34	5722
2026-01-16 03:23:48.12	201.10	21.20	-30.3	-30.9	27.3	0.00e+00	0	30	0	1190133760	34	5692
2026-01-16 03:23:49.13	201.23	21.32	-30.3	-30.9	27.2	0.00e+00	0	30	0	1196425216	34	5691
2026-01-16 03:23:50.14	201.37	21.43	-30.1	-30.7	27.4	0.00e+00	0	30	0	1201668096	34	5533
2026-01-16 03:23:51.15	201.51	21.55	-30.0	-30.7	27.4	0.00e+00	0	30	0	1207959552	34	5520
2026-01-16 03:23:52.16	201.65	21.67	-30.1	-30.8	27.3	0.00e+00	0	30	0	1213202432	34	5570
2026-01-16 03:23:53.17	201.80	21.79	-30.0	-30.7	27.5	0.00e+00	0	30	0	1218445312	34	5503
2026-01-16 03:23:54.18	201.94	21.92	-30.0	-30.6	27.4	0.00e+00	0	30	0	1224736768	34	5482
2026-01-16 03:23:55.19	202.09	22.04	-30.1	-30.7	27.4	0.00e+00	0	30	0	1229979648	34	5531
2026-01-16 03:23:56.20	202.23	22.16	-30.1	-30.7	27.4	0.00e+00	0	30	0	1236271104	34	5530
2026-01-16 03:23:57.21	202.38	22.28	-30.2	-30.8	27.4	0.00e+00	0	30	0	1241513984	34	5604
2026-01-16 03:23:58.21	202.53	22.40	-30.1	-30.8	27.3	0.00e+00	0	30	0	1246756864	34	5597
2026-01-16 03:23:59.22	202.67	22.52	-30.1	-30.7	27.5	0.00e+00	0	30	0	1253048320	34	5536
2026-01-16 03:24:00.23	202.82	22.65	-30.1	-30.8	27.4	0.00e+00	0	30	0	1258291200	34	5569
2026-01-16 03:24:01.24	202.98	22.77	-30.1	-30.8	27.4	0.00e+00	0	30	0	1264582656	34	5577
2026-01-16 03:24:02.25	203.13	22.90	-29.9	-30.5	27.6	0.00e+00	0	30	0	1269825536	34	5422
2026-01-16 03:24:03.26	203.28	23.02	-29.9	-30.5	27.7	0.00e+00	0	30	0	1276116992	34	5402
2026-01-16 03:24:04.27	203.44	23.15	-29.7	-30.3	27.7	0.00e+00	0	30	0	1281359872	32	5956
2026-01-16 03:24:05.28	203.59	23.27	-29.7	-30.3	27.8	0.00e+00	0	30	0	1286602752	32	5912
2026-01-16 03:24:06.28	203.75	23.39	-29.5	-30.1	27.9	0.00e+00	0	30	0	1292894208	32	5824
2026-01-16 03:24:07.29	203.91	23.52	-29.5	-30.1	27.9	0.00e+00	0	30	0	1298137088	32	5787
2026-01-16 03:24:08.30	204.07	23.65	-29.5	-30.1	27.9	0.00e+00	0	30	0	1304428544	32	5797
2026-01-16 03:24:09.31	204.23	23.77	-29.4	-30.0	27.9	0.00e+00	0	30	0	1309671424	32	5733
2026-01-16 03:24:10.32	204.39	23.90	-29.4	-30.1	27.9	0.00e+00	0	30	0	1314914304	32	5772
2026-01-16 03:24:11.33	204.56	24.03	-29.5	-30.2	27.9	0.00e+00	0	30	0	1321205760	32	5858
2026-01-16 03:24:12.34	204.72	24.16	-29.5	-30.1	27.9	0.00e+00	0	30	0	1326448640	32	5793
2026-01-16 03:24:13.35	204.89	24.29	-29.3	-29.9	28.0	0.00e+00	0	30	0	1332740096	32	5695
2026-01-16 03:24:14.36	205.06	24.41	-29.2	-29.9	28.1	0.00e+00	0	30	0	1337982976	32	5632
2026-01-16 03:24:15.37	205.22	24.54	-29.3	-30.0	28.0	0.00e+00	0	30	0	1343225856	32	5711
2026-01-16 03:24:16.38	205.39	24.67	-29.3	-29.9	28.1	0.00e+00	0	30	0	1349517312	32	5663
2026-01-16 03:24:17.39	205.57	24.80	-29.3	-29.9	28.0	0.00e+00	0	30	0	1354760192	32	5671
2026-01-16 03:24:18.39	205.74	24.93	-29.3	-30.0	28.0	0.00e+00	0	30	0	1361051648	32	5706
2026-01-16 03:24:19.40	205.91	25.06	-29.2	-29.8	28.1	0.00e+00	0	30	0	1366294528	32	5623
2026-01-16 03:24:20.41	206.09	25.19	-29.1	-29.7	28.2	0.00e+00	0	30	0	1372585984	32	5535
2026-01-16 03:24:21.42	206.27	25.33	-29.2	-29.8	28.2	0.00e+00	0	30	0	1377828864	32	5592
2026-01-16 03:24:22.43	206.44	25.46	-29.1	-29.7	28.3	0.00e+00	0	30	0	1384120320	32	5533
2026-01-16 03:24:23.44	206.62	25.59	-29.2	-29.8	28.2	0.00e+00	0	30	0	1389363200	32	5578
2026-01-16 03:24:24.45	206.81	25.72	-29.2	-29.8	28.1	0.00e+00	0	30	0	1394606080	32	5601
2026-01-16 03:24:25.46	206.99	25.85	-29.4	-30.0	28.0	0.00e+00	0	30	0	1400897536	32	5752
2026-01-16 03:24:26.47	207.17	25.99	-29.3	-29.9	28.2	0.00e+00	0	30	0	1406140416	32	5685
2026-01-16 03:24:27.48	207.36	26.12	-29.2	-29.8	28.2	0.00e+00	0	30	0	1412431872	32	5570
2026-01-16 03:24:28.49	207.55	26.26	-29.1	-29.7	28.3	0.00e+00	0	30	0	1417674752	32	5533
2026-01-16 03:24:29.50	207.74	26.39	-29.1	-29.7	28.3	0.00e+00	0	30	0	1422917632	32	5525
2026-01-16 03:24:30.51	207.93	26.52	-29.1	-29.7	28.2	0.00e+00	0	30	0	1429209088	32	5513
2026-01-16 03:24:31.52	208.12	26.66	-29.1	-29.7	28.2	0.00e+00	0	30	0	1434451968	32	5566
2026-01-16 03:24:32.53	208.32	26.79	-29.2	-29.8	28.1	0.00e+00	0	30	0	1439694848	32	5624
2026-01-16 03:24:33.54	208.51	26.93	-29.2	-29.8	28.2	0.00e+00	0	30	0	1445986304	32	5613
2026-01-16 03:24:34.54	208.71	27.06	-29.3	-29.9	28.1	0.00e+00	0	30	0	1451229184	32	5677
2026-01-16 03:24:35.55	208.91	27.20	-29.1	-29.7	28.3	0.00e+00	0	30	0	1457520640	32	5560
2026-01-16 03:24:36.56	209.11	27.34	-29.1	-29.8	28.2	0.00e+00	0	30	0	1462763520	32	5575
2026-01-16 03:24:37.57	209.31	27.47	-29.1	-29.7	28.3	0.00e+00	0	30	0	1469054976	32	5566
2026-01-16 03:24:38.57	209.51	27.61	-29.1	-29.7	28.3	0.00e+00	0	30	0	1474297856	32	5543
2026-01-16 03:24:39.58	209.72	27.75	-29.1	-29.7	28.2	0.00e+00	0	30	0	1480589312	32	5550
2026-01-16 03:24:40.60	209.93	27.89	-29.3	-29.9	28.2	0.00e+00	0	30	0	1485832192	32	5644
2026-01-16 03:24:41.61	210.13	28.03	-29.2	-29.8	28.3	0.00e+00	0	30	0	1491075072	32	5628
2026-01-16 03:24:42.61	210.34	28.16	-29.0	-29.6	28.3	0.00e+00	0	30	0	1497366528	32	5480
2026-01-16 03:24:43.62	210.56	28.30	-28.8	-29.4	28.4	0.00e+00	0	30	0	1502609408	32	5347
2026-01-16 03:24:44.63	210.77	28.44	-28.9	-29.5	28.4	0.00e+00	0	30	0	1508900864	32	5426
2026-01-16 03:24:45.64	210.99	28.58	-29.1	-29.7	28.3	0.00e+00	0	30	0	1514143744	32	5549
2026-01-16 03:24:46.65	211.21	28.72	-29.2	-29.8	28.2	0.00e+00	0	30	0	1519386624	32	5582
2026-01-16 03:24:47.66	211.43	28.86	-29.2	-29.8	28.1	0.00e+00	0	30	0	1525678080	32	5603
2026-01-16 03:24:48.67	211.65	29.00	-29.3	-29.9	28.2	0.00e+00	0	30	0	1530920960	32	5635
2026-01-16 03:24:49.68	211.87	29.14	-29.3	-29.9	28.3	0.00e+00	0	30	0	1537212416	32	5655
2026-01-16 03:24:50.69	212.10	29.28	-29.1	-29.6	28.5	0.00e+00	0	30	0	1542455296	32	5498
2026-01-16 03:24:51.70	212.33	29.42	-29.0	-29.7	28.3	0.00e+00	0	30	0	1547698176	32	5511
2026-01-16 03:24:52.71	212.56	29.56	-29.0	-29.6	28.3	0.00e+00	0	30	0	1553989632	32	5497
2026-01-16 03:24:53.71	212.78	29.70	-29.1	-29.7	28.3	0.00e+00	0	30	0	1559232512	32	5514
2026-01-16 03:24:54.72	213.02	29.84	-29.1	-29.7	28.3	0.00e+00	0	30	0	1565523968	32	5531
2026-01-16 03:24:55.73	213.25	29.98	-29.0	-29.6	28.2	0.00e+00	0	30	0	1570766848	32	5484
2026-01-16 03:24:56.74	213.49	30.13	-28.8	-29.4	28.3	0.00e+00	0	30	0	1577058304	32	5364
2026-01-16 03:24:57.75	213.73	30.27	-28.8	-29.5	28.4	0.00e+00	0	30	0	1582301184	32	5384
2026-01-16 03:24:58.76	213.97	30.41	-28.8	-29.4	28.5	0.00e+00	0	30	0	1587544064	30	5996
2026-01-16 03:24:59.77	214.22	30.55	-29.0	-29.6	28.4	0.00e+00	0	30	0	1593835520	30	6156
2026-01-16 03:25:00.78	214.46	30.69	-28.9	-29.5	28.5	0.00e+00	0	30	0	1599078400	30	6051
2026-01-16 03:25:01.79	214.71	30.84	-29.1	-29.7	28.3	0.00e+00	0	30	0	1605369856	30	6176
2026-01-16 03:25:02.80	214.96	30.98	-28.8	-29.4	28.5	0.00e+00	0	30	0	1610612736	30	5997
2026-01-16 03:25:03.81	215.21	31.12	-28.9	-29.5	28.4	0.00e+00	0	30	0	1615855616	30	6071
2026-01-16 03:25:04.82	215.47	31.26	-29.0	-29.6	28.4	0.00e+00	0	30	0	1622147072	30	6117
2026-01-16 03:25:05.83	215.73	31.41	-29.3	-29.9	28.1	0.00e+00	0	30	0	1627389952	30	6378
2026-01-16 03:25:06.83	215.98	31.55	-29.1	-29.8	28.3	0.00e+00	0	30	0	1633681408	30	6248
2026-01-16 03:25:07.84	216.24	31.69	-29.0	-29.6	28.4	0.00e+00	0	30	0	1638924288	30	6173
2026-01-16 03:25:08.85	216.51	31.83	-29.0	-29.6	28.3	0.00e+00	0	30	0	1644167168	30	6137
2026-01-16 03:25:09.86	216.77	31.98	-28.9	-29.5	28.4	0.00e+00	0	30	0	1650458624	30	6099
2026-01-16 03:25:10.87	217.04	32.12	-28.8	-29.5	28.5	0.00e+00	0	30	0	1655701504	30	6047
2026-01-16 03:25:11.88	217.31	32.26	-28.8	-29.3	28.6	0.00e+00	0	30	0	1661992960	30	5960
2026-01-16 03:25:12.89	217.58	32.41	-28.8	-29.4	28.6	0.00e+00	0	30	0	1667235840	30	5991
2026-01-16 03:25:13.90	217.86	32.55	-28.8	-29.4	28.6	0.00e+00	0	30	0	1673527296	30	6003
2026-01-16 03:25:14.91	218.14	32.69	-28.9	-29.6	28.4	0.00e+00	0	30	0	1678770176	30	6125
2026-01-16 03:25:15.92	218.42	32.84	-29.0	-29.7	28.4	0.00e+00	0	30	0	1684013056	30	6177
2026-01-16 03:25:16.93	218.70	32.98	-29.0	-29.6	28.3	0.00e+00	0	30	0	1690304512	30	6171
2026-01-16 03:25:17.93	218.98	33.12	-28.9	-29.6	28.4	0.00e+00	0	30	0	1695547392	30	6122
2026-01-16 03:25:18.94	219.27	33.26	-28.9	-29.5	28.5	0.00e+00	0	30	0	1701838848	30	6049
2026-01-16 03:25:19.95	219.56	33.41	-28.8	-29.4	28.5	0.00e+00	0	30	0	1707081728	30	6020
2026-01-16 03:25:20.96	219.85	33.55	-28.9	-29.5	28.4	0.00e+00	0	30	0	1712324608	30	6040
2026-01-16 03:25:21.97	220.15	33.69	-29.0	-29.6	28.4	0.00e+00	0	30	0	1718616064	30	6145
2026-01-16 03:25:22.98	220.44	33.83	-29.1	-29.8	28.3	0.00e+00	0	30	0	1723858944	30	6248
2026-01-16 03:25:23.99	220.74	33.97	-29.2	-29.8	28.3	0.00e+00	0	30	0	1730150400	30	6308
2026-01-16 03:25:25.00	221.05	34.12	-28.9	-29.5	28.4	0.00e+00	0	30	0	1735393280	30	6096
2026-01-16 03:25:26.01	221.35	34.26	-28.8	-29.4	28.4	0.00e+00	0	30	0	1740636160	30	6028
2026-01-16 03:25:27.02	221.66	34.40	-28.9	-29.5	28.5	0.00e+00	0	30	0	1746927616	30	6043
2026-01-16 03:25:28.03	221.97	34.54	-29.0	-29.6	28.3	0.00e+00	0	30	0	1752170496	30	6138
2026-01-16 03:25:29.04	222.28	34.68	-28.8	-29.4	28.4	0.00e+00	0	30	0	1758461952	30	6017
2026-01-16 03:25:30.05	222.60	34.82	-28.9	-29.6	28.4	0.00e+00	0	30	0	1763704832	30	6108
2026-01-16 03:25:31.06	222.92	34.96	-28.8	-29.4	28.4	0.00e+00	0	30	0	1769996288	30	6008
2026-01-16 03:25:32.07	223.24	35.10	-28.9	-29.5	28.4	0.00e+00	0	30	0	1775239168	30	6062
2026-01-16 03:25:33.08	223.56	35.24	-29.0	-29.7	28.4	0.00e+00	0	30	0	1780482048	30	6175
2026-01-16 03:25:34.08	223.88	35.38	-29.1	-29.7	28.4	0.00e+00	0	30	0	1786773504	30	6186
2026-01-16 03:25:35.10	224.22	35.52	-29.2	-29.8	28.3	0.00e+00	0	30	0	1792016384	30	6257
2026-01-16 03:25:36.11	224.55	35.65	-29.1	-29.8	28.5	0.00e+00	0	30	0	1798307840	30	6251
2026-01-16 03:25:37.11	224.88	35.79	-28.7	-29.3	28.5	0.00e+00	0	30	0	1803550720	30	5947
2026-01-16 03:25:38.13	225.22	35.93	-28.9	-29.6	28.6	0.00e+00	0	30	0	1808793600	30	6108
2026-01-16 03:25:39.13	225.56	36.06	-28.8	-29.5	28.5	0.00e+00	0	30	0	1815085056	30	6043
2026-01-16 03:25:40.14	225.90	36.20	-28.8	-29.4	28.5	0.00e+00	0	30	0	1820327936	30	6013
2026-01-16 03:25:41.15	226.25	36.34	-29.0	-29.6	28.4	0.00e+00	0	30	0	1826619392	30	6152
2026-01-16 03:25:42.16	226.60	36.47	-28.8	-29.4	28.5	0.00e+00	0	30	0	1831862272	30	6006
2026-01-16 03:25:43.17	226.95	36.61	-28.7	-29.3	28.3	0.00e+00	0	30	0	1837105152	30	5962
2026-01-16 03:25:44.18	227.30	36.74	-28.7	-29.3	28.6	0.00e+00	0	30	0	1843396608	30	5908
2026-01-16 03:25:45.19	227.66	36.87	-28.6	-29.2	28.6	0.00e+00	0	30	0	1848639488	30	5879
2026-01-16 03:25:46.20	228.02	37.00	-28.6	-29.2	28.7	0.00e+00	0	30	0	1854930944	30	5854
2026-01-16 03:25:47.21	228.38	37.14	-28.5	-29.1	28.7	0.00e+00	0	30	0	1860173824	30	5772
2026-01-16 03:25:48.22	228.75	37.27	-28.6	-29.2	28.7	0.00e+00	0	30	0	1866465280	30	5887
2026-01-16 03:25:49.23	229.12	37.40	-28.7	-29.3	28.6	0.00e+00	0	30	0	1871708160	30	5930
2026-01-16 03:25:50.23	229.48	37.52	-28.8	-29.5	28.5	0.00e+00	0	30	0	1877999616	30	6038
2026-01-16 03:25:51.24	229.86	37.65	-28.6	-29.3	28.6	0.00e+00	0	30	0	1883242496	30	5899
2026-01-16 03:25:52.25	230.24	37.78	-28.6	-29.3	28.7	0.00e+00	0	30	0	1888485376	30	5905
2026-01-16 03:25:53.26	230.62	37.91	-28.7	-29.4	28.6	0.00e+00	0	30	0	1894776832	30	5969
2026-01-16 03:25:54.27	231.00	38.03	-28.8	-29.4	28.6	0.00e+00	0	30	0	1900019712	30	5976
2026-01-16 03:25:55.28	231.39	38.16	-28.8	-29.4	28.5	0.00e+00	0	30	0	1906311168	30	6005
2026-01-16 03:25:56.29	231.78	38.28	-29.0	-29.6	28.5	0.00e+00	0	30	0	1911554048	30	6127
2026-01-16 03:25:57.29	232.16	38.40	-29.1	-29.7	28.5	0.00e+00	0	30	0	1916796928	30	6220
2026-01-16 03:25:58.30	232.56	38.52	-28.8	-29.4	28.6	0.00e+00	0	30	0	1923088384	30	5972
2026-01-16 03:25:59.31	232.96	38.64	-28.6	-29.2	28.7	0.00e+00	0	30	0	1928331264	30	5879
2026-01-16 03:26:00.32	233.36	38.76	-28.7	-29.3	28.6	0.00e+00	0	30	0	1933574144	30	5930
2026-01-16 03:26:01.33	233.76	38.88	-28.7	-29.4	28.5	0.00e+00	0	30	0	1939865600	30	5983
2026-01-16 03:26:02.34	234.17	39.00	-28.7	-29.3	28.5	0.00e+00	0	30	0	1945108480	30	5922
2026-01-16 03:26:03.35	234.58	39.12	-28.5	-29.1	28.8	0.00e+00	0	30	0	1951399936	30	5786
2026-01-16 03:26:04.36	234.99	39.23	-28.5	-29.1	28.8	0.00e+00	0	30	0	1956642816	30	5795
2026-01-16 03:26:05.37	235.40	39.34	-28.6	-29.2	28.7	0.00e+00	0	30	0	1961885696	30	5835
2026-01-16 03:26:06.38	235.82	39.46	-28.8	-29.4	28.5	0.00e+00	0	30	0	1968177152	30	6008
2026-01-16 03:26:07.39	236.24	39.57	-28.7	-29.3	28.5	0.00e+00	0	30	0	1974468608	30	5920
2026-01-16 03:26:08.40	236.67	39.68	-28.7	-29.3	28.6	0.00e+00	0	30	0	1979711488	30	5953
2026-01-16 03:26:09.41	237.09	39.78	-28.7	-29.3	28.7	0.00e+00	0	30	0	1984954368	30	5929
2026-01-16 03:26:10.41	237.52	39.89	-28.6	-29.3	28.8	0.00e+00	0	30	0	1991245824	30	5912
2026-01-16 03:26:11.42	237.95	39.99	-28.8	-29.4	28.6	0.00e+00	0	30	0	1996488704	30	6018
2026-01-16 03:26:12.43	238.38	40.10	-28.7	-29.3	28.6	0.00e+00	0	30	0	2002780160	30	5955
2026-01-16 03:26:13.44	238.82	40.20	-29.0	-29.6	28.5	0.00e+00	0	30	0	2008023040	30	6128
2026-01-16 03:26:14.45	239.26	40.30	-28.8	-29.5	28.5	0.00e+00	0	30	0	2013265920	30	6036
2026-01-16 03:26:15.46	239.70	40.40	-28.8	-29.4	28.6	0.00e+00	0	30	0	2019557376	30	5997
2026-01-16 03:26:16.47	240.15	40.50	-28.5	-29.1	28.7	0.00e+00	0	30	0	2024800256	30	5803
2026-01-16 03:26:17.48	240.60	40.59	-28.3	-29.0	28.8	0.00e+00	0	30	0	2031091712	30	5699
2026-01-16 03:26:18.49	241.05	40.69	-28.4	-29.0	28.8	0.00e+00	0	30	0	2036334592	30	5696
2026-01-16 03:26:19.50	241.50	40.78	-28.4	-29.0	28.8	0.00e+00	0	30	0	2041577472	30	5703
2026-01-16 03:26:20.51	241.96	40.87	-28.5	-29.1	28.8	0.00e+00	0	30	0	2047868928	30	5780
2026-01-16 03:26:21.51	242.41	40.96	-28.7	-29.3	28.7	0.00e+00	0	30	0	2053111808	30	5904
2026-01-16 03:26:22.52	242.87	41.05	-28.7	-29.3	28.6	0.00e+00	0	30	0	2059403264	30	5943
2026-01-16 03:26:23.53	243.33	41.13	-28.8	-29.5	28.4	0.00e+00	0	30	0	2064646144	30	6036
2026-01-16 03:26:24.54	243.80	41.21	-28.8	-29.4	28.5	0.00e+00	0	30	0	2070937600	30	6023
2026-01-16 03:26:25.55	244.27	41.30	-28.6	-29.2	28.7	0.00e+00	0	30	0	2076180480	30	5851
2026-01-16 03:26:26.55	244.73	41.37	-28.7	-29.3	28.6	0.00e+00	0	30	0	2081423360	30	5940
2026-01-16 03:26:27.56	245.20	41.45	-28.6	-29.2	28.7	0.00e+00	0	30	0	2087714816	30	5871
2026-01-16 03:26:28.57	245.68	41.53	-28.6	-29.2	28.6	0.00e+00	0	30	0	2092957696	30	5887
2026-01-16 03:26:29.58	246.16	41.60	-28.6	-29.2	28.6	0.00e+00	0	30	0	2099249152	30	5847
2026-01-16 03:26:30.59	246.63	41.67	-28.6	-29.1	28.5	0.00e+00	0	30	0	2104492032	30	5813
2026-01-16 03:26:31.60	247.11	41.74	-28.6	-29.3	28.6	0.00e+00	0	30	0	2109734912	30	5908
2026-01-16 03:26:32.61	247.60	41.81	-28.6	-29.2	28.6	0.00e+00	0	30	0	2116026368	30	5859
2026-01-16 03:26:33.62	248.08	41.87	-28.6	-29.2	28.7	0.00e+00	0	30	0	2121269248	30	5862
2026-01-16 03:26:34.63	248.57	41.94	-28.6	-29.2	28.7	0.00e+00	0	30	0	2127560704	30	5831
2026-01-16 03:26:35.64	249.06	42.00	-28.7	-29.3	28.5	0.00e+00	0	30	0	2132803584	30	5919
2026-01-16 03:26:36.65	249.55	42.06	-28.7	-29.3	28.6	0.00e+00	0	30	0	2138046464	30	5943
2026-01-16 03:26:37.66	250.04	42.11	-28.8	-29.5	28.5	0.00e+00	0	30	0	2144337920	30	6056
2026-01-16 03:26:38.67	250.53	42.17	-28.5	-29.2	28.7	0.00e+00	0	30	0	2149580800	30	5837
2026-01-16 03:26:39.68	251.03	42.22	-28.6	-29.1	28.7	0.00e+00	0	30	0	2155872256	30	5827
2026-01-16 03:26:40.69	251.53	42.27	-28.9	-29.5	28.4	0.00e+00	0	30	0	2161115136	30	6047
2026-01-16 03:26:41.70	252.02	42.32	-29.1	-29.6	28.3	0.00e+00	0	30	0	2167406592	30	6168
2026-01-16 03:26:42.71	252.52	42.36	-29.2	-29.7	28.3	0.00e+00	0	30	0	2172649472	30	6242
2026-01-16 03:26:43.72	253.03	42.41	-29.0	-29.6	28.3	0.00e+00	0	30	0	2177892352	30	6141
2026-01-16 03:26:44.73	253.53	42.45	-28.8	-29.4	28.5	0.00e+00	0	30	0	2184183808	30	6018
2026-01-16 03:26:45.74	254.03	42.48	-28.9	-29.5	28.4	0.00e+00	0	30	0	2189426688	30	6065
2026-01-16 03:26:46.75	254.54	42.52	-28.9	-29.4	28.5	0.00e+00	0	30	0	2195718144	30	6031
2026-01-16 03:26:47.76	255.04	42.55	-28.9	-29.5	28.5	0.00e+00	0	30	0	2200961024	30	6036
2026-01-16 03:26:48.77	255.55	42.58	-28.7	-29.4	28.5	0.00e+00	0	30	0	2206203904	30	5988
2026-01-16 03:26:49.78	256.06	42.61	-28.8	-29.4	28.5	0.00e+00	0	30	0	2212495360	30	5972
2026-01-16 03:26:50.79	256.56	42.64	-28.8	-29.3	28.5	0.00e+00	0	30	0	2217738240	30	5949
2026-01-16 03:26:51.79	257.07	42.66	-28.7	-29.3	28.6	0.00e+00	0	30	0	2224029696	30	5941
2026-01-16 03:26:52.80	257.58	42.68	-28.9	-29.5	28.4	0.00e+00	0	30	0	2229272576	30	6036
2026-01-16 03:26:53.81	258.09	42.70	-28.8	-29.4	28.4	0.00e+00	0	30	0	2234515456	30	5992
2026-01-16 03:26:54.82	258.60	42.72	-28.9	-29.6	28.3	0.00e+00	0	30	0	2240806912	30	6109
2026-01-16 03:26:55.83	259.11	42.73	-29.1	-29.7	28.3	0.00e+00	0	30	0	2246049792	30	6191
2026-01-16 03:26:56.84	259.62	42.74	-28.8	-29.4	28.5	0.00e+00	0	30	0	2252341248	30	6007
2026-01-16 03:26:57.85	260.14	42.75	-28.7	-29.3	28.5	0.00e+00	0	30	0	2257584128	30	5925
2026-01-16 03:26:58.86	260.65	42.76	-28.7	-29.4	28.4	0.00e+00	0	30	0	2263875584	30	5967
2026-01-16 03:26:59.87	261.16	42.76	-28.8	-29.5	28.4	0.00e+00	0	30	0	2269118464	30	6093
2026-01-16 03:27:00.88	261.67	42.76	-29.0	-29.6	28.4	0.00e+00	0	30	0	2275409920	30	6159
2026-01-16 03:27:01.89	262.19	42.76	-29.0	-29.6	28.4	0.00e+00	0	30	0	2280652800	30	6160
2026-01-16 03:27:02.90	262.70	42.76	-28.8	-29.4	28.5	0.00e+00	0	30	0	2285895680	30	5995
2026-01-16 03:27:03.91	263.21	42.75	-28.8	-29.5	28.3	0.00e+00	0	30	0	2292187136	30	6043
2026-01-16 03:27:04.92	263.72	42.74	-28.9	-29.5	28.4	0.00e+00	0	30	0	2297430016	30	6066
2026-01-16 03:27:05.93	264.23	42.73	-29.0	-29.6	28.4	0.00e+00	0	30	0	2303721472	30	6133
2026-01-16 03:27:06.94	264.75	42.72	-29.2	-29.8	28.1	0.00e+00	0	30	0	2308964352	30	6257
2026-01-16 03:27:07.95	265.26	42.70	-28.8	-29.5	28.4	0.00e+00	0	30	0	2314207232	30	6052
2026-01-16 03:27:08.95	265.76	42.68	-28.9	-29.5	28.2	0.00e+00	0	30	0	2320498688	30	6086
2026-01-16 03:27:09.96	266.27	42.66	-28.7	-29.3	28.6	0.00e+00	0	30	0	2325741568	30	5915
2026-01-16 03:27:10.97	266.78	42.64	-29.0	-29.6	28.2	0.00e+00	0	30	0	2330984448	30	6130
2026-01-16 03:27:11.98	267.29	42.61	-29.2	-29.8	27.9	0.00e+00	0	30	0	2337275904	30	6294
2026-01-16 03:27:12.99	267.80	42.58	-29.0	-29.6	28.3	0.00e+00	0	30	0	2342518784	30	6171
2026-01-16 03:27:14.00	268.30	42.55	-29.0	-29.6	28.3	0.00e+00	0	30	0	2348810240	30	6168
2026-01-16 03:27:15.01	268.81	42.52	-29.0	-29.6	28.4	0.00e+00	0	30	0	2354053120	30	6152
2026-01-16 03:27:16.02	269.31	42.48	-28.9	-29.4	28.4	0.00e+00	0	30	0	2360344576	30	6028
2026-01-16 03:27:17.02	269.81	42.44	-28.9	-29.4	28.4	0.00e+00	0	30	0	2365587456	30	6029
2026-01-16 03:27:18.04	270.32	42.40	-28.9	-29.5	28.4	0.00e+00	0	30	0	2371878912	30	6052
2026-01-16 03:27:19.05	270.82	42.36	-29.0	-29.6	28.3	0.00e+00	0	30	0	2377121792	30	6158
2026-01-16 03:27:20.06	271.32	42.31	-29.0	-29.6	28.3	0.00e+00	0	30	0	2382364672	30	6134
2026-01-16 03:27:21.07	271.81	42.27	-29.1	-29.8	28.2	0.00e+00	0	30	0	2388656128	30	6247
2026-01-16 03:27:22.08	272.31	42.22	-28.9	-29.5	28.4	0.00e+00	0	30	0	2393899008	30	6075
2026-01-16 03:27:23.09	272.80	42.16	-28.9	-29.4	28.4	0.00e+00	0	30	0	2400190464	30	6032
2026-01-16 03:27:24.10	273.30	42.11	-29.0	-29.6	28.4	0.00e+00	0	30	0	2405433344	30	6126
2026-01-16 03:27:25.11	273.79	42.05	-29.1	-29.7	28.3	0.00e+00	0	30	0	2410676224	30	6239
2026-01-16 03:27:26.11	274.27	41.99	-29.0	-29.7	28.3	0.00e+00	0	30	0	2416967680	30	6180
2026-01-16 03:27:27.12	274.76	41.93	-29.1	-29.7	28.3	0.00e+00	0	30	0	2422210560	30	6221
2026-01-16 03:27:28.13	275.25	41.87	-28.8	-29.4	28.6	0.00e+00	0	30	0	2428502016	30	6012
2026-01-16 03:27:29.14	275.73	41.80	-28.8	-29.4	28.4	0.00e+00	0	30	0	2433744896	30	5987
2026-01-16 03:27:30.15	276.21	41.74	-28.8	-29.5	28.4	0.00e+00	0	30	0	2438987776	30	6035
2026-01-16 03:27:31.16	276.69	41.67	-28.9	-29.6	28.3	0.00e+00	0	30	0	2445279232	30	6124
2026-01-16 03:27:32.18	277.18	41.60	-28.8	-29.5	28.5	0.00e+00	0	30	0	2450522112	30	6052
2026-01-16 03:27:33.18	277.65	41.52	-28.6	-29.3	28.6	0.00e+00	0	30	0	2456813568	30	5937
2026-01-16 03:27:34.19	278.12	41.45	-28.7	-29.4	28.5	0.00e+00	0	30	0	2462056448	30	5982
2026-01-16 03:27:35.20	278.59	41.37	-28.9	-29.6	28.4	0.00e+00	0	30	0	2468347904	30	6106
2026-01-16 03:27:36.21	279.06	41.29	-28.9	-29.4	28.4	0.00e+00	0	30	0	2473590784	30	6023
2026-01-16 03:27:37.22	279.53	41.21	-28.9	-29.5	28.4	0.00e+00	0	30	0	2478833664	30	6050
2026-01-16 03:27:38.23	279.99	41.12	-28.8	-29.5	28.4	0.00e+00	0	30	0	2485125120	30	6058
2026-01-16 03:27:39.24	280.45	41.04	-28.7	-29.4	28.5	0.00e+00	0	30	0	2490368000	30	5981
2026-01-16 03:27:40.25	280.91	40.95	-28.6	-29.1	28.6	0.00e+00	0	30	0	2496659456	30	5822
2026-01-16 03:27:41.26	281.37	40.86	-28.6	-29.2	28.6	0.00e+00	0	30	0	2501902336	30	5841
2026-01-16 03:27:42.27	281.83	40.77	-28.7	-29.3	28.5	0.00e+00	0	30	0	2507145216	30	5921
2026-01-16 03:27:43.28	282.28	40.68	-28.8	-29.5	28.4	0.00e+00	0	30	0	2513436672	30	6060
2026-01-16 03:27:44.29	282.73	40.59	-28.7	-29.2	28.5	0.00e+00	0	30	0	2518679552	30	5895
2026-01-16 03:27:45.30	283.17	40.49	-28.7	-29.4	28.6	0.00e+00	0	29	0	2524971008	30	5972
2026-01-16 03:27:46.31	283.62	40.39	-28.7	-29.2	28.6	0.00e+00	0	30	0	2530213888	30	5880
2026-01-16 03:27:47.32	284.06	40.30	-28.7	-29.3	28.5	0.00e+00	0	30	0	2535456768	30	5961
2026-01-16 03:27:48.32	284.49	40.20	-28.6	-29.2	28.5	0.00e+00	0	30	0	2541748224	30	5878
2026-01-16 03:27:49.34	284.94	40.09	-28.6	-29.2	28.6	0.00e+00	0	29	0	2546991104	30	5852
2026-01-16 03:27:50.35	285.37	39.99	-28.5	-29.1	28.6	0.00e+00	0	29	0	2553282560	30	5804
2026-01-16 03:27:51.35	285.80	39.89	-28.6	-29.1	28.6	0.00e+00	0	29	0	2558525440	30	5828
2026-01-16 03:27:52.36	286.22	39.78	-28.7	-29.4	28.4	0.00e+00	0	30	0	2564816896	30	5989
2026-01-16 03:27:53.37	286.65	39.67	-28.7	-29.3	28.5	0.00e+00	0	30	0	2570059776	30	5930
2026-01-16 03:27:54.38	287.07	39.56	-28.5	-29.0	28.6	0.00e+00	0	30	0	2576351232	30	5761
2026-01-16 03:27:55.39	287.49	39.45	-28.4	-29.0	28.8	0.00e+00	0	30	0	2581594112	30	5760
2026-01-16 03:27:56.40	287.91	39.34	-28.5	-29.2	28.6	0.00e+00	0	30	0	2586836992	30	5836
2026-01-16 03:27:57.41	288.32	39.23	-28.6	-29.2	28.6	0.00e+00	0	30	0	2593128448	30	5829
2026-01-16 03:27:58.42	288.73	39.11	-28.5	-29.2	28.6	0.00e+00	0	30	0	2598371328	30	5840
2026-01-16 03:27:59.43	289.14	39.00	-28.6	-29.1	28.6	0.00e+00	0	30	0	2604662784	30	5808
2026-01-16 03:28:00.44	289.55	38.88	-28.6	-29.3	28.5	0.00e+00	0	29	0	2609905664	30	5946
2026-01-16 03:28:01.45	289.95	38.76	-28.6	-29.3	28.5	0.00e+00	0	30	0	2615148544	30	5908
2026-01-16 03:28:02.46	290.35	38.64	-28.7	-29.3	28.4	0.00e+00	0	30	0	2621440000	30	5950
2026-01-16 03:28:03.47	290.74	38.52	-28.7	-29.3	28.4	0.00e+00	0	30	0	2626682880	30	5914
2026-01-16 03:28:04.47	291.13	38.40	-28.8	-29.5	28.4	0.00e+00	0	29	0	2631925760	30	6066
2026-01-16 03:28:05.48	291.52	38.28	-28.8	-29.3	28.5	0.00e+00	0	30	0	2638217216	30	5958
2026-01-16 03:28:06.49	291.91	38.16	-28.7	-29.2	28.4	0.00e+00	0	30	0	2643460096	30	5878
2026-01-16 03:28:07.50	292.30	38.03	-28.8	-29.5	28.5	0.00e+00	0	29	0	2649751552	30	6037
2026-01-16 03:28:08.51	292.68	37.91	-28.6	-29.1	28.5	0.00e+00	0	30	0	2654994432	30	5807
2026-01-16 03:28:09.51	293.06	37.78	-28.6	-29.1	28.6	0.00e+00	0	30	0	2661285888	30	5822
2026-01-16 03:28:10.52	293.43	37.65	-28.6	-29.2	28.5	0.00e+00	0	30	0	2666528768	30	5859
2026-01-16 03:28:11.53	293.80	37.53	-28.4	-29.1	28.7	0.00e+00	0	30	0	2672820224	30	5762
2026-01-16 03:28:12.54	294.18	37.40	-28.2	-28.8	28.8	0.00e+00	0	30	0	2678063104	30	5584
2026-01-16 03:28:13.55	294.54	37.27	-28.1	-28.7	28.9	0.00e+00	0	30	0	2683305984	30	5514
2026-01-16 03:28:14.55	294.90	37.14	-28.1	-28.7	29.0	0.00e+00	0	30	0	2689597440	30	5543
2026-01-16 03:28:15.56	295.27	37.01	-28.4	-29.0	28.6	0.00e+00	0	30	0	2694840320	30	5706
2026-01-16 03:28:16.57	295.63	36.88	-28.6	-29.2	28.5	0.00e+00	0	29	0	2700083200	30	5841
2026-01-16 03:28:17.57	295.98	36.75	-28.8	-29.4	28.4	0.00e+00	0	30	0	2706374656	30	6009
2026-01-16 03:28:18.58	296.33	36.61	-28.9	-29.5	28.3	0.00e+00	0	29	0	2711617536	30	6039
2026-01-16 03:28:19.59	296.68	36.48	-28.5	-29.2	28.5	0.00e+00	0	29	0	2717908992	30	5882
2026-01-16 03:28:20.60	297.03	36.34	-28.4	-29.0	28.6	0.00e+00	0	29	0	2723151872	30	5711
2026-01-16 03:28:21.61	297.37	36.21	-28.4	-28.9	28.6	0.00e+00	0	29	0	2728394752	30	5691
2026-01-16 03:28:22.62	297.72	36.07	-28.4	-29.0	28.6	0.00e+00	0	29	0	2734686208	30	5715
2026-01-16 03:28:23.63	298.06	35.94	-28.5	-29.2	28.6	0.00e+00	0	29	0	2739929088	30	5831
2026-01-16 03:28:24.64	298.39	35.80	-28.4	-29.1	28.6	0.00e+00	0	30	0	2746220544	30	5805
2026-01-16 03:28:25.65	298.73	35.66	-28.4	-29.0	28.7	0.00e+00	0	29	0	2751463424	30	5738
2026-01-16 03:28:26.66	299.06	35.53	-28.3	-29.0	28.6	0.00e+00	0	29	0	2757754880	30	5747
2026-01-16 03:28:27.66	299.38	35.39	-28.5	-29.0	28.6	0.00e+00	0	29	0	2762997760	30	5750
2026-01-16 03:28:28.67	299.71	35.25	-28.5	-29.2	28.6	0.00e+00	0	29	0	2768240640	30	5837
2026-01-16 03:28:29.68	300.03	35.11	-28.5	-29.2	28.5	0.00e+00	0	29	0	2774532096	30	5881
2026-01-16 03:28:30.69	300.35	34.97	-28.8	-29.5	28.4	0.00e+00	0	29	0	2779774976	30	6061
2026-01-16 03:28:31.70	300.67	34.84	-29.0	-29.6	28.2	0.00e+00	0	29	0	2786066432	30	6111
2026-01-16 03:28:32.71	300.98	34.70	-29.0	-29.6	28.1	0.00e+00	0	29	0	2791309312	30	6128
2026-01-16 03:28:33.72	301.29	34.56	-29.3	-30.0	28.0	0.00e+00	0	29	0	2796552192	30	6405
2026-01-16 03:28:34.73	301.60	34.42	-29.0	-29.7	28.2	0.00e+00	0	29	0	2802843648	30	6195
2026-01-16 03:28:35.74	301.91	34.27	-28.8	-29.5	28.4	0.00e+00	0	29	0	2808086528	30	6066
2026-01-16 03:28:36.75	302.21	34.13	-28.7	-29.3	28.4	0.00e+00	0	29	0	2814377984	30	5963
2026-01-16 03:28:37.76	302.52	33.99	-28.7	-29.4	28.5	0.00e+00	0	29	0	2819620864	30	5988
2026-01-16 03:28:38.76	302.81	33.85	-28.6	-29.1	28.4	0.00e+00	0	29	0	2824863744	30	5825
2026-01-16 03:28:39.77	303.11	33.71	-28.6	-29.3	28.5	0.00e+00	0	29	0	2831155200	30	5948
2026-01-16 03:28:40.78	303.40	33.57	-28.7	-29.2	28.1	0.00e+00	0	29	0	2836398080	30	5866
2026-01-16 03:28:41.78	303.69	33.43	-28.6	-29.3	28.3	0.00e+00	0	29	0	2842689536	30	5935
2026-01-16 03:28:42.79	303.98	33.29	-28.7	-29.2	28.3	0.00e+00	0	29	0	2847932416	30	5884
2026-01-16 03:28:43.80	304.27	33.15	-28.7	-29.4	28.1	0.00e+00	0	29	0	2854223872	30	5998
2026-01-16 03:28:44.81	304.55	33.00	-28.7	-29.4	28.1	0.00e+00	0	29	0	2859466752	30	6016
2026-01-16 03:28:45.82	304.83	32.86	-28.8	-29.3	28.0	0.00e+00	0	29	0	2864709632	30	5932
2026-01-16 03:28:46.83	305.11	32.72	-28.8	-29.4	28.0	0.00e+00	0	29	0	2871001088	30	6027
2026-01-16 03:28:47.84	305.39	32.58	-28.8	-29.5	28.2	0.00e+00	0	29	0	2876243968	30	6061
2026-01-16 03:28:48.85	305.66	32.43	-28.8	-29.5	28.1	0.00e+00	0	29	0	2882535424	30	6090
2026-01-16 03:28:49.87	305.94	32.29	-29.0	-29.6	28.2	0.00e+00	0	29	0	2887778304	30	6108
2026-01-16 03:28:50.87	306.21	32.15	-29.1	-29.7	27.9	0.00e+00	0	29	0	2893021184	30	6178
2026-01-16 03:28:51.88	306.47	32.01	-29.2	-29.7	28.1	0.00e+00	0	29	0	2899312640	30	6229
2026-01-16 03:28:52.89	306.74	31.87	-29.2	-29.9	28.1	0.00e+00	0	29	0	2904555520	30	6319
2026-01-16 03:28:53.90	307.00	31.72	-29.1	-29.7	28.2	0.00e+00	0	29	0	2910846976	30	6227
2026-01-16 03:28:54.90	307.26	31.58	-29.1	-29.6	28.2	0.00e+00	0	29	0	2916089856	30	6166
2026-01-16 03:28:55.91	307.52	31.44	-29.0	-29.5	28.1	0.00e+00	0	29	0	2921332736	30	6085
2026-01-16 03:28:56.92	307.77	31.30	-28.9	-29.4	28.4	0.00e+00	0	29	0	2927624192	30	6011
2026-01-16 03:28:57.93	308.03	31.16	-28.9	-29.4	28.2	0.00e+00	0	29	0	2932867072	30	6016
2026-01-16 03:28:58.94	308.28	31.01	-29.1	-29.7	28.2	0.00e+00	0	29	0	2939158528	30	6203
2026-01-16 03:28:59.95	308.53	30.87	-29.4	-29.9	28.0	0.00e+00	0	29	0	2944401408	30	6372
2026-01-16 03:29:00.95	308.77	30.73	-29.5	-30.2	27.9	0.00e+00	0	29	0	2950692864	30	6560
2026-01-16 03:29:01.96	309.02	30.59	-29.5	-30.1	27.8	0.00e+00	0	29	0	2955935744	30	6487
2026-01-16 03:29:02.97	309.26	30.45	-29.6	-30.1	27.7	0.00e+00	0	29	0	2961178624	30	6519
2026-01-16 03:29:03.98	309.50	30.31	-29.6	-30.2	27.8	0.00e+00	0	29	0	2967470080	30	6542
2026-01-16 03:29:04.99	309.74	30.17	-29.4	-30.0	27.9	0.00e+00	0	29	0	2972712960	30	6403
2026-01-16 03:29:05.99	309.98	30.03	-29.6	-30.1	27.9	0.00e+00	0	29	0	2979004416	30	6524
2026-01-16 03:29:07.00	310.21	29.89	-29.4	-30.0	27.9	0.00e+00	0	29	0	2984247296	30	6451
2026-01-16 03:29:08.01	310.45	29.75	-29.2	-29.8	28.0	0.00e+00	0	29	0	2989490176	30	6262
2026-01-16 03:29:09.02	310.68	29.61	-29.3	-29.8	28.0	0.00e+00	0	29	0	2995781632	30	6315
2026-01-16 03:29:10.03	310.91	29.47	-29.3	-30.0	28.0	0.00e+00	0	29	0	3001024512	30	6458
2026-01-16 03:29:11.04	311.13	29.33	-29.6	-30.2	27.9	0.00e+00	0	29	0	3007315968	30	6549
2026-01-16 03:29:12.05	311.36	29.19	-29.5	-30.1	27.9	0.00e+00	0	29	0	3012558848	30	6482
2026-01-16 03:29:13.06	311.58	29.05	-29.5	-30.0	27.9	0.00e+00	0	29	0	3017801728	30	6458
2026-01-16 03:29:14.07	311.80	28.91	-29.5	-30.1	27.9	0.00e+00	0	29	0	3024093184	30	6475
2026-01-16 03:29:15.08	312.02	28.77	-29.4	-30.1	27.9	0.00e+00	0	29	0	3029336064	30	6482
2026-01-16 03:29:16.09	312.24	28.63	-29.4	-30.0	28.0	0.00e+00	0	29	0	3035627520	30	6456
2026-01-16 03:29:17.10	312.46	28.49	-29.2	-30.0	28.0	0.00e+00	0	29	0	3040870400	30	6391
2026-01-16 03:29:18.10	312.67	28.35	-29.2	-29.7	28.0	0.00e+00	0	29	0	3047161856	30	6243
2026-01-16 03:29:19.11	312.88	28.22	-29.3	-29.9	28.0	0.00e+00	0	29	0	3052404736	30	6343
2026-01-16 03:29:20.12	313.09	28.08	-29.2	-29.9	28.1	0.00e+00	0	29	0	3057647616	30	6340
2026-01-16 03:29:21.13	313.30	27.94	-29.2	-29.9	28.1	0.00e+00	0	29	0	3063939072	30	6382
2026-01-16 03:29:22.14	313.51	27.80	-29.3	-30.0	28.0	0.00e+00	0	29	0	3069181952	30	6420
2026-01-16 03:29:23.15	313.71	27.67	-29.3	-30.0	28.0	0.00e+00	0	29	0	3075473408	30	6409
2026-01-16 03:29:24.16	313.92	27.53	-29.3	-30.0	28.0	0.00e+00	0	29	0	3080716288	30	6419
2026-01-16 03:29:25.17	314.12	27.39	-29.3	-29.9	28.0	0.00e+00	0	29	0	3085959168	30	6326
2026-01-16 03:29:26.18	314.32	27.26	-29.3	-29.9	27.9	0.00e+00	0	29	0	3092250624	30	6345
2026-01-16 03:29:27.19	314.52	27.12	-29.3	-29.9	27.9	0.00e+00	0	29	0	3097493504	30	6330
2026-01-16 03:29:28.19	314.71	26.99	-29.2	-29.9	28.0	0.00e+00	0	29	0	3103784960	30	6335
2026-01-16 03:29:29.20	314.91	26.85	-29.3	-29.9	28.0	0.00e+00	0	29	0	3109027840	30	6345
2026-01-16 03:29:30.21	315.10	26.72	-29.4	-29.9	27.9	0.00e+00	0	29	0	3114270720	30	6376
2026-01-16 03:29:31.22	315.30	26.59	-29.1	-29.8	28.1	0.00e+00	0	29	0	3120562176	30	6312
2026-01-16 03:29:32.23	315.49	26.45	-29.1	-29.8	28.1	0.00e+00	0	29	0	3125805056	30	6284
2026-01-16 03:29:33.24	315.68	26.32	-29.2	-29.8	28.1	0.00e+00	0	29	0	3132096512	30	6308
2026-01-16 03:29:34.25	315.86	26.18	-29.2	-29.9	28.0	0.00e+00	0	29	0	3137339392	30	6376
2026-01-16 03:29:35.26	316.05	26.05	-29.5	-30.0	27.8	0.00e+00	0	29	0	3142582272	30	6446
2026-01-16 03:29:36.27	316.23	25.92	-29.6	-30.1	27.7	0.00e+00	0	29	0	3148873728	30	6529
2026-01-16 03:29:37.28	316.42	25.79	-29.5	-30.1	27.8	0.00e+00	0	29	0	3154116608	30	6502
2026-01-16 03:29:38.28	316.60	25.66	-29.6	-30.3	27.7	0.00e+00	0	29	0	3160408064	30	6661
2026-01-16 03:29:39.29	316.78	25.52	-29.7	-30.3	27.6	0.00e+00	0	29	0	3165650944	30	6647
2026-01-16 03:29:40.30	316.95	25.39	-29.6	-30.3	27.7	0.00e+00	0	29	0	3171942400	32	5951
2026-01-16 03:29:41.31	317.13	25.26	-29.7	-30.2	27.7	0.00e+00	0	29	0	3177185280	32	5885
2026-01-16 03:29:42.32	317.31	25.13	-29.4	-30.0	27.9	0.00e+00	0	29	0	3182428160	32	5718
2026-01-16 03:29:43.33	317.48	25.00	-29.4	-30.0	27.8	0.00e+00	0	29	0	3188719616	32	5696
2026-01-16 03:29:44.34	317.66	24.87	-29.6	-30.2	27.7	0.00e+00	0	29	0	3193962496	32	5840
2026-01-16 03:29:45.34	317.82	24.75	-29.5	-30.1	27.8	0.00e+00	0	29	0	3200253952	32	5776
2026-01-16 03:29:46.35	318.00	24.62	-29.6	-30.1	27.7	0.00e+00	0	29	0	3205496832	32	5801
2026-01-16 03:29:47.36	318.16	24.49	-29.6	-30.3	27.7	0.00e+00	0	29	0	3210739712	32	5919
2026-01-16 03:29:48.37	318.33	24.36	-29.5	-30.2	27.8	0.00e+00	0	29	0	3217031168	32	5861
2026-01-16 03:29:49.38	318.50	24.23	-29.6	-30.3	27.8	0.00e+00	0	29	0	3222274048	32	5939
2026-01-16 03:29:50.39	318.66	24.10	-29.6	-30.3	27.7	0.00e+00	0	29	0	3228565504	32	5938
2026-01-16 03:29:51.40	318.83	23.98	-29.5	-30.2	27.8	0.00e+00	0	29	0	3233808384	32	5862
2026-01-16 03:29:52.41	318.99	23.85	-29.6	-30.1	27.8	0.00e+00	0	29	0	3239051264	32	5788
2026-01-16 03:29:53.42	319.15	23.73	-29.6	-30.1	27.7	0.00e+00	0	29	0	3245342720	32	5811
2026-01-16 03:29:54.43	319.31	23.60	-29.6	-30.1	27.7	0.00e+00	0	29	0	3250585600	32	5813
2026-01-16 03:29:55.44	319.47	23.47	-29.6	-30.3	27.7	0.00e+00	0	29	0	3256877056	32	5934
2026-01-16 03:29:56.45	319.63	23.35	-29.8	-30.3	27.5	0.00e+00	0	29	0	3262119936	32	5940
2026-01-16 03:29:57.46	319.78	23.22	-29.7	-30.3	27.6	0.00e+00	0	29	0	3268411392	32	5922
2026-01-16 03:29:58.47	319.94	23.10	-29.8	-30.4	27.5	0.00e+00	0	29	0	3273654272	32	5992
2026-01-16 03:29:59.47	320.09	22.98	-29.8	-30.5	27.5	0.00e+00	0	29	0	3278897152	32	6095
2026-01-16 03:30:00.49	320.24	22.85	-29.9	-30.5	27.4	0.00e+00	0	29	0	3285188608	32	6038
2026-01-16 03:30:01.49	320.39	22.73	-29.9	-30.6	27.4	0.00e+00	0	29	0	3290431488	32	6163
2026-01-16 03:30:02.50	320.54	22.61	-30.0	-30.7	27.4	0.00e+00	0	29	0	3296722944	32	6186
2026-01-16 03:30:03.51	320.69	22.49	-30.1	-30.8	27.3	0.00e+00	0	29	0	3301965824	32	6248
2026-01-16 03:30:04.52	320.84	22.36	-29.9	-30.6	27.5	0.00e+00	0	29	0	3307208704	32	6166
2026-01-16 03:30:05.53	320.99	22.24	-29.9	-30.6	27.5	0.00e+00	0	29	0	3313500160	32	6127
2026-01-16 03:30:06.54	321.13	22.12	-30.0	-30.7	27.4	0.00e+00	0	29	0	3318743040	32	6181
2026-01-16 03:30:07.55	321.28	22.00	-29.9	-30.5	27.4	0.00e+00	0	29	0	3325034496	32	6054
2026-01-16 03:30:08.56	321.42	21.88	-30.0	-30.6	27.3	0.00e+00	0	29	0	3330277376	32	6118
2026-01-16 03:30:09.57	321.56	21.76	-30.1	-30.7	27.3	0.00e+00	0	29	0	3335520256	32	6174
2026-01-16 03:30:10.58	321.71	21.64	-30.0	-30.8	27.3	0.00e+00	0	29	0	3341811712	32	6255
2026-01-16 03:30:11.59	321.85	21.52	-30.2	-30.9	27.2	0.00e+00	0	29	0	3347054592	32	6352
2026-01-16 03:30:12.60	321.99	21.40	-30.3	-31.0	27.1	0.00e+00	0	29	0	3353346048	32	6438
2026-01-16 03:30:13.61	322.12	21.29	-30.5	-31.0	27.0	0.00e+00	0	29	0	3358588928	32	6436
2026-01-16 03:30:14.62	322.26	21.17	-30.4	-30.9	27.0	0.00e+00	0	29	0	3364880384	32	6370
2026-01-16 03:30:15.63	322.40	21.05	-30.4	-31.1	27.0	0.00e+00	0	29	0	3370123264	32	6480
2026-01-16 03:30:16.64	322.53	20.93	-30.6	-31.1	26.9	0.00e+00	0	29	0	3376414720	32	6522
2026-01-16 03:30:17.65	322.67	20.82	-30.3	-30.9	27.1	0.00e+00	0	29	0	3381657600	32	6351
2026-01-16 03:30:18.66	322.80	20.70	-30.5	-31.0	26.9	0.00e+00	0	29	0	3386900480	32	6451
2026-01-16 03:30:19.67	322.93	20.58	-30.5	-31.0	26.9	0.00e+00	0	29	0	3393191936	32	6453
2026-01-16 03:30:20.67	323.06	20.47	-30.5	-31.0	26.9	0.00e+00	0	29	0	3398434816	32	6447
2026-01-16 03:30:21.68	323.19	20.36	-30.5	-31.2	27.0	0.00e+00	0	29	0	3404726272	32	6557
2026-01-16 03:30:22.69	323.32	20.24	-30.6	-31.2	26.8	0.00e+00	0	29	0	3409969152	32	6556
2026-01-16 03:30:23.70	323.45	20.13	-30.6	-31.2	26.8	0.00e+00	0	29	0	3415212032	32	6543
2026-01-16 03:30:24.71	323.58	20.01	-30.7	-31.3	26.7	0.00e+00	0	29	0	3421503488	32	6627
2026-01-16 03:30:25.72	323.71	19.90	-30.8	-31.4	26.5	0.00e+00	0	29	0	3426746368	34	5978
2026-01-16 03:30:26.73	323.83	19.79	-30.9	-31.5	26.5	0.00e+00	0	29	0	3433037824	34	6088
2026-01-16 03:30:27.74	323.96	19.67	-30.9	-31.4	26.6	0.00e+00	0	29	0	3438280704	34	6031
2026-01-16 03:30:28.75	324.08	19.56	-31.0	-31.6	26.5	0.00e+00	0	29	0	3443523584	34	6114
2026-01-16 03:30:29.76	324.21	19.45	-31.1	-31.8	26.4	0.00e+00	0	29	0	3449815040	34	6277
2026-01-16 03:30:30.76	324.33	19.34	-31.2	-31.8	26.2	0.00e+00	0	29	0	3455057920	34	6280
2026-01-16 03:30:31.77	324.45	19.23	-31.0	-31.6	26.5	0.00e+00	0	29	0	3461349376	34	6127
2026-01-16 03:30:32.78	324.57	19.12	-31.1	-31.8	26.4	0.00e+00	0	29	0	3466592256	34	6298
2026-01-16 03:30:33.79	324.69	19.00	-30.9	-31.5	26.5	0.00e+00	0	29	0	3472883712	34	6098
2026-01-16 03:30:34.80	324.81	18.89	-30.9	-31.5	26.5	0.00e+00	0	29	0	3478126592	34	6090
2026-01-16 03:30:35.81	324.93	18.79	-31.0	-31.6	26.5	0.00e+00	0	29	0	3483369472	34	6136
2026-01-16 03:30:36.82	325.04	18.68	-31.0	-31.6	26.5	0.00e+00	0	29	0	3489660928	34	6126
2026-01-16 03:30:37.83	325.16	18.57	-30.9	-31.5	26.6	0.00e+00	0	29	0	3494903808	34	6052
2026-01-16 03:30:38.84	325.28	18.46	-30.9	-31.4	26.5	0.00e+00	0	29	0	3501195264	34	6021
2026-01-16 03:30:39.85	325.39	18.35	-30.8	-31.4	26.5	0.00e+00	0	29	0	3506438144	34	5978
2026-01-16 03:30:40.86	325.51	18.24	-30.8	-31.6	26.6	0.00e+00	0	29	0	3511681024	34	6110
2026-01-16 03:30:41.87	325.62	18.13	-30.8	-31.4	26.6	0.00e+00	0	29	0	3517972480	34	5985
2026-01-16 03:30:42.87	325.73	18.03	-30.8	-31.4	26.6	0.00e+00	0	29	0	3523215360	34	5999
2026-01-16 03:30:43.88	325.84	17.92	-30.8	-31.4	26.6	0.00e+00	0	29	0	3529506816	34	5986
2026-01-16 03:30:44.89	325.95	17.81	-31.0	-31.6	26.5	0.00e+00	0	29	0	3534749696	34	6106
2026-01-16 03:30:45.90	326.06	17.71	-30.9	-31.5	26.5	0.00e+00	0	29	0	3539992576	34	6049
2026-01-16 03:30:46.91	326.17	17.60	-30.9	-31.5	26.5	0.00e+00	0	29	0	3546284032	34	6076
2026-01-16 03:30:47.92	326.28	17.50	-31.0	-31.8	26.4	0.00e+00	0	29	0	3551526912	34	6248
2026-01-16 03:30:48.93	326.39	17.39	-31.1	-31.9	26.3	0.00e+00	0	29	0	3557818368	34	6322
2026-01-16 03:30:49.94	326.50	17.29	-31.2	-31.9	26.2	0.00e+00	0	29	0	3563061248	34	6383
2026-01-16 03:30:50.95	326.61	17.18	-31.2	-31.7	26.3	0.00e+00	0	29	0	3569352704	34	6228
2026-01-16 03:30:51.96	326.71	17.08	-31.3	-31.9	26.2	0.00e+00	0	29	0	3574595584	34	6352
2026-01-16 03:30:52.97	326.82	16.98	-31.3	-31.9	26.1	0.00e+00	0	29	0	3579838464	34	6366
2026-01-16 03:30:53.98	326.92	16.87	-31.4	-32.0	26.1	0.00e+00	0	29	0	3586129920	34	6440
2026-01-16 03:30:54.99	327.03	16.77	-31.4	-31.9	26.1	0.00e+00	0	29	0	3591372800	34	6381
2026-01-16 03:30:56.00	327.13	16.67	-31.5	-32.0	26.0	0.00e+00	0	29	0	3597664256	34	6457
2026-01-16 03:30:57.01	327.23	16.57	-31.6	-32.4	25.9	0.00e+00	0	29	0	3602907136	34	6694
2026-01-16 03:30:58.01	327.33	16.46	-31.6	-32.2	25.9	0.00e+00	0	29	0	3608150016	34	6600
