passes_logs/2026/01/16/R4.6S_Anadyr/R4.6S_Anadyr__20260116_130558_NOAA_20_JPSS-1_rec.log

#Pass ID: 20260116_130558_NOAA 20 (JPSS-1)
#Satellite: NOAA 20 (JPSS-1)
#Configuration: NOAA 20
#almurnet v.1.7.20251203
#Start time: 2026-01-16 13:06:00

#Version: 2.2.20231116
#Station: R4.6S_Anadyr
#Location: 177.4865 lon 64.73178 lat
#TLE: 1 43013U 17073A   26015.89389188  .00000026  00000+0  33113-4 0  9999
#TLE: 2 43013  98.7636 316.8238 0001460  37.8997 322.2282 14.19536128422860

#Time	Az	El	Level	Level2	SNR	BER	BlckErr	Temp	State	Recorded	gain1	gain2
2026-01-16 13:06:00.44	18.81	0.12	-48.1	-63.0	3.5	1.51e+00	0	26	0	0	60	51210
2026-01-16 13:06:01.45	18.86	0.17	-48.5	-63.7	3.6	1.51e+00	0	27	104	0	60	55414
2026-01-16 13:06:02.46	18.92	0.23	-48.2	-63.4	3.6	1.51e+00	0	27	104	0	60	53494
2026-01-16 13:06:03.47	18.97	0.28	-48.3	-63.5	3.6	1.51e+00	0	27	104	0	60	54029
2026-01-16 13:06:04.47	19.03	0.34	-48.0	-63.2	3.6	1.51e+00	0	27	104	0	60	52107
2026-01-16 13:06:05.48	19.08	0.39	-48.0	-63.2	3.6	1.51e+00	0	27	104	0	60	52468
2026-01-16 13:06:06.49	19.13	0.45	-48.0	-63.2	3.6	1.51e+00	0	28	104	0	60	52189
2026-01-16 13:06:07.50	19.19	0.50	-48.0	-63.2	3.6	1.51e+00	0	27	104	0	60	52239
2026-01-16 13:06:08.51	19.24	0.56	-47.9	-63.2	3.5	1.51e+00	0	28	104	0	60	52108
2026-01-16 13:06:09.52	19.30	0.61	-47.9	-63.1	3.6	1.51e+00	0	27	104	0	60	51601
2026-01-16 13:06:10.53	19.35	0.67	-47.8	-63.0	3.6	1.51e+00	0	27	104	0	60	51050
2026-01-16 13:06:11.54	19.41	0.73	-47.7	-62.9	3.5	1.51e+00	0	28	104	0	60	50308
2026-01-16 13:06:12.55	19.46	0.78	-47.4	-62.6	3.6	1.51e+00	0	28	104	0	60	48876
2026-01-16 13:06:13.56	19.52	0.84	-47.2	-62.5	3.6	1.51e+00	0	28	104	0	60	48008
2026-01-16 13:06:14.57	19.57	0.89	-47.1	-62.3	3.6	1.51e+00	0	28	104	0	60	47075
2026-01-16 13:06:15.58	19.63	0.95	-46.9	-62.0	3.6	1.51e+00	0	28	104	0	60	45697
2026-01-16 13:06:16.59	19.69	1.01	-46.5	-61.7	3.6	1.51e+00	0	28	104	0	60	43858
2026-01-16 13:06:17.60	19.74	1.06	-46.4	-61.4	3.6	1.51e+00	0	28	104	0	60	42655
2026-01-16 13:06:18.61	19.80	1.12	-46.3	-61.4	3.6	1.51e+00	0	28	104	0	60	42659
2026-01-16 13:06:19.62	19.86	1.18	-46.3	-61.5	3.6	1.51e+00	0	28	104	0	60	42760
2026-01-16 13:06:20.63	19.91	1.23	-46.3	-61.5	3.6	1.51e+00	0	28	104	0	60	42784
2026-01-16 13:06:21.64	19.97	1.29	-46.3	-61.5	3.6	1.51e+00	0	28	104	0	60	43066
2026-01-16 13:06:22.65	20.03	1.35	-46.3	-61.5	3.6	1.51e+00	0	28	104	0	60	42945
2026-01-16 13:06:23.66	20.09	1.40	-46.3	-61.5	3.6	1.51e+00	0	28	104	0	60	43139
2026-01-16 13:06:24.67	20.14	1.46	-46.3	-61.5	3.6	1.51e+00	0	28	104	0	60	42954
2026-01-16 13:06:25.68	20.20	1.52	-46.3	-61.5	3.6	1.51e+00	0	28	104	0	60	42953
2026-01-16 13:06:26.69	20.26	1.57	-46.3	-61.5	3.6	1.51e+00	0	28	104	0	60	42756
2026-01-16 13:06:27.70	20.32	1.63	-46.3	-61.5	3.6	1.51e+00	0	28	104	0	60	42753
2026-01-16 13:06:28.71	20.38	1.69	-46.3	-61.4	3.6	1.51e+00	0	28	104	0	60	42560
2026-01-16 13:06:29.72	20.43	1.75	-46.3	-61.4	3.6	1.51e+00	0	28	104	0	60	42458
2026-01-16 13:06:30.73	20.49	1.80	-46.3	-61.4	3.6	1.51e+00	0	28	104	0	60	42544
2026-01-16 13:06:31.74	20.55	1.86	-46.3	-61.4	3.6	1.51e+00	0	28	104	0	60	42425
2026-01-16 13:06:32.75	20.61	1.92	-46.3	-61.4	3.6	1.51e+00	0	28	104	0	60	42514
2026-01-16 13:06:33.76	20.67	1.98	-46.3	-61.4	3.6	1.51e+00	0	28	104	0	60	42512
2026-01-16 13:06:34.77	20.73	2.04	-46.3	-61.4	3.6	1.51e+00	0	28	104	0	60	42461
2026-01-16 13:06:35.78	20.79	2.09	-46.3	-61.5	3.6	1.51e+00	0	28	104	0	60	42805
2026-01-16 13:06:36.79	20.85	2.15	-46.3	-61.5	3.6	1.51e+00	0	28	104	0	60	42820
2026-01-16 13:06:37.80	20.91	2.21	-46.3	-61.5	3.6	1.51e+00	0	28	104	0	60	42867
2026-01-16 13:06:38.81	20.97	2.27	-46.3	-61.4	3.6	1.51e+00	0	28	104	0	60	42674
2026-01-16 13:06:39.82	21.03	2.33	-46.3	-61.1	3.6	1.51e+00	0	28	104	0	60	40926
2026-01-16 13:06:40.83	21.09	2.39	-46.3	-60.8	3.6	1.51e+00	0	28	104	0	60	39462
2026-01-16 13:06:41.83	21.16	2.44	-46.3	-60.3	3.6	1.51e+00	0	28	104	0	60	37506
2026-01-16 13:06:42.84	21.22	2.50	-46.2	-59.9	3.6	1.51e+00	0	28	104	0	60	35599
2026-01-16 13:06:43.86	21.28	2.56	-46.3	-60.5	3.6	1.51e+00	0	28	104	0	60	38454
2026-01-16 13:06:44.87	21.34	2.62	-46.2	-60.4	3.6	1.51e+00	0	28	104	0	60	37798
2026-01-16 13:06:45.88	21.40	2.68	-46.2	-58.9	3.7	1.51e+00	0	28	104	0	60	31777
2026-01-16 13:06:46.88	21.47	2.74	-45.8	-54.2	5.6	8.59e-01	0	28	0	0	60	18630
2026-01-16 13:06:47.89	21.53	2.80	-45.1	-50.6	9.3	2.08e-01	0	28	0	2097152	60	12220
2026-01-16 13:06:48.90	21.59	2.86	-44.3	-48.6	11.6	4.41e-03	0	28	0	3145728	60	9769
2026-01-16 13:06:49.91	21.65	2.92	-43.1	-46.2	14.3	2.20e-06	0	28	0	5242880	60	7387
2026-01-16 13:06:50.92	21.72	2.98	-41.9	-44.2	16.3	0.00e+00	92	28	0	7340032	58	6577
2026-01-16 13:06:51.93	21.78	3.04	-41.0	-42.9	17.8	0.00e+00	82	28	0	9437184	56	6332
2026-01-16 13:06:52.94	21.85	3.10	-40.9	-42.8	17.6	0.00e+00	92	28	0	11534336	54	7070
2026-01-16 13:06:53.95	21.91	3.16	-40.8	-42.7	17.8	0.00e+00	0	28	0	13631488	54	6973
2026-01-16 13:06:54.96	21.97	3.22	-40.9	-42.9	17.4	0.00e+00	82	28	0	14680064	54	7102
2026-01-16 13:06:55.97	22.04	3.28	-41.3	-43.3	17.1	0.00e+00	0	28	0	16777216	54	7487
2026-01-16 13:06:56.98	22.10	3.34	-42.5	-45.2	15.3	0.00e+00	0	28	0	18874368	56	8275
2026-01-16 13:06:57.99	22.17	3.40	-43.3	-46.7	13.2	6.10e-06	84	28	0	20971520	58	8728
2026-01-16 13:06:59.00	22.23	3.46	-40.8	-42.6	18.0	0.00e+00	0	28	0	23068672	56	6123
2026-01-16 13:07:00.01	22.30	3.52	-46.1	-60.1	3.6	1.59e-01	0	28	104	24117248	60	36441
2026-01-16 13:07:01.02	22.37	3.58	-45.2	-51.1	9.1	1.29e+00	73	28	104	24117248	60	13044
2026-01-16 13:07:02.03	22.43	3.64	-44.3	-48.2	12.4	7.93e-05	32	28	0	24117248	60	9312
2026-01-16 13:07:03.04	22.50	3.70	-46.4	-60.3	3.6	4.29e-01	0	28	104	25165824	60	37373
2026-01-16 13:07:04.05	22.56	3.76	-44.0	-48.0	12.4	1.35e+00	0	28	104	25165824	60	9078
2026-01-16 13:07:05.06	22.63	3.82	-43.5	-46.7	13.9	8.30e-06	0	28	0	25165824	60	7797
2026-01-16 13:07:06.07	22.70	3.88	-42.6	-45.2	15.7	0.00e+00	0	28	0	27262976	58	7365
2026-01-16 13:07:07.07	22.77	3.94	-42.2	-44.5	16.2	0.00e+00	90	28	0	29360128	58	6837
2026-01-16 13:07:08.08	22.83	4.00	-41.9	-44.1	16.4	0.00e+00	1	28	0	31457280	56	7336
2026-01-16 13:07:09.09	22.90	4.07	-42.0	-44.3	16.6	0.00e+00	0	28	0	32505856	56	7454
2026-01-16 13:07:10.10	22.97	4.13	-41.4	-43.3	17.4	0.00e+00	0	28	0	34603008	56	6671
2026-01-16 13:07:11.11	23.04	4.19	-41.4	-43.4	17.2	0.00e+00	82	28	0	36700160	56	6702
2026-01-16 13:07:12.12	23.11	4.25	-41.7	-43.9	17.0	0.00e+00	0	28	0	38797312	56	7101
2026-01-16 13:07:13.13	23.18	4.31	-41.6	-43.6	17.3	0.00e+00	81	28	0	40894464	56	6863
2026-01-16 13:07:14.14	23.24	4.37	-40.4	-42.1	18.6	0.00e+00	92	28	0	41943040	54	6477
2026-01-16 13:07:15.15	23.31	4.44	-39.9	-41.4	19.3	0.00e+00	0	28	0	44040192	54	6031
2026-01-16 13:07:16.16	23.38	4.50	-39.6	-41.1	19.4	0.00e+00	90	28	0	46137344	52	6501
2026-01-16 13:07:17.17	23.45	4.56	-39.7	-41.1	19.6	0.00e+00	0	28	0	48234496	52	6538
2026-01-16 13:07:18.18	23.52	4.62	-39.5	-41.0	19.7	0.00e+00	0	28	0	50331648	52	6396
2026-01-16 13:07:19.19	23.59	4.69	-39.5	-40.9	19.8	0.00e+00	81	28	0	51380224	52	6374
2026-01-16 13:07:20.20	23.67	4.75	-39.7	-41.1	19.7	0.00e+00	81	28	0	53477376	52	6487
2026-01-16 13:07:21.21	23.74	4.81	-39.3	-40.7	20.0	0.00e+00	89	28	0	55574528	52	6203
2026-01-16 13:07:22.22	23.81	4.87	-39.5	-40.9	19.9	0.00e+00	2	28	0	57671680	52	6344
2026-01-16 13:07:23.23	23.88	4.94	-39.4	-40.8	19.9	0.00e+00	92	28	0	59768832	52	6280
2026-01-16 13:07:24.24	23.95	5.00	-39.8	-41.2	19.7	0.00e+00	0	28	0	61865984	52	6610
2026-01-16 13:07:25.25	24.02	5.06	-39.6	-41.0	19.9	0.00e+00	23	28	0	62914560	52	6421
2026-01-16 13:07:26.26	24.10	5.13	-39.5	-40.9	20.0	0.00e+00	0	28	0	65011712	52	6352
2026-01-16 13:07:27.27	24.17	5.19	-39.5	-40.9	19.8	0.00e+00	0	28	0	67108864	52	6360
2026-01-16 13:07:28.28	24.24	5.25	-39.5	-40.9	19.9	0.00e+00	13	28	0	69206016	52	6375
2026-01-16 13:07:29.29	24.32	5.32	-39.5	-40.8	20.1	0.00e+00	2	28	0	71303168	52	6295
2026-01-16 13:07:30.30	24.39	5.38	-39.5	-40.8	20.1	0.00e+00	92	28	0	72351744	52	6296
2026-01-16 13:07:31.31	24.46	5.45	-39.4	-40.8	20.1	0.00e+00	0	28	0	74448896	52	6268
2026-01-16 13:07:32.32	24.54	5.51	-39.1	-40.4	20.5	0.00e+00	69	28	0	76546048	52	5986
2026-01-16 13:07:33.33	24.61	5.57	-38.9	-40.2	20.6	0.00e+00	81	28	0	78643200	50	6561
2026-01-16 13:07:34.34	24.69	5.64	-39.0	-40.3	20.5	0.00e+00	0	28	0	80740352	50	6648
2026-01-16 13:07:35.35	24.76	5.70	-39.1	-40.4	20.4	0.00e+00	0	28	0	81788928	50	6713
2026-01-16 13:07:36.36	24.84	5.77	-39.1	-40.4	20.3	0.00e+00	0	28	0	83886080	50	6767
2026-01-16 13:07:37.37	24.92	5.83	-39.1	-40.4	20.4	0.00e+00	92	28	0	85983232	50	6737
2026-01-16 13:07:38.38	24.99	5.90	-38.9	-40.1	20.6	0.00e+00	0	28	0	88080384	50	6521
2026-01-16 13:07:39.39	25.07	5.96	-39.2	-40.5	20.3	0.00e+00	0	28	0	90177536	50	6821
2026-01-16 13:07:40.40	25.15	6.03	-38.9	-40.2	20.4	0.00e+00	0	27	0	91226112	50	6579
2026-01-16 13:07:41.41	25.22	6.09	-39.0	-40.2	20.5	0.00e+00	5	28	0	93323264	50	6596
2026-01-16 13:07:42.42	25.30	6.16	-38.9	-40.2	20.5	0.00e+00	0	28	0	95420416	50	6560
2026-01-16 13:07:43.43	25.38	6.22	-38.8	-40.1	20.7	0.00e+00	6	28	0	97517568	50	6488
2026-01-16 13:07:44.44	25.46	6.29	-38.9	-40.1	20.8	0.00e+00	79	28	0	99614720	50	6533
2026-01-16 13:07:45.45	25.54	6.35	-39.0	-40.3	20.6	0.00e+00	6	28	0	100663296	50	6642
2026-01-16 13:07:46.46	25.61	6.42	-38.7	-40.0	20.9	0.00e+00	91	28	0	102760448	50	6392
2026-01-16 13:07:47.47	25.69	6.49	-38.6	-39.8	21.1	0.00e+00	0	28	0	104857600	50	6272
2026-01-16 13:07:48.48	25.77	6.55	-38.6	-39.8	21.1	0.00e+00	37	28	0	106954752	50	6265
2026-01-16 13:07:49.49	25.85	6.62	-38.6	-39.8	21.1	0.00e+00	0	28	0	109051904	50	6287
2026-01-16 13:07:50.50	25.93	6.68	-38.7	-39.9	21.0	0.00e+00	8	28	0	110100480	50	6318
2026-01-16 13:07:51.51	26.01	6.75	-38.7	-39.9	21.0	0.00e+00	6	28	0	112197632	50	6379
2026-01-16 13:07:52.52	26.09	6.82	-38.8	-40.0	20.9	0.00e+00	86	28	0	114294784	50	6404
2026-01-16 13:07:53.53	26.18	6.88	-38.9	-40.1	20.9	0.00e+00	91	28	0	116391936	50	6511
2026-01-16 13:07:54.54	26.26	6.95	-38.5	-39.7	21.3	0.00e+00	0	28	0	118489088	50	6199
2026-01-16 13:07:55.55	26.34	7.02	-38.6	-39.8	21.1	0.00e+00	0	28	0	119537664	50	6286
2026-01-16 13:07:56.56	26.42	7.08	-38.5	-39.7	21.1	0.00e+00	0	28	0	121634816	50	6203
2026-01-16 13:07:57.57	26.50	7.15	-38.4	-39.5	21.4	0.00e+00	85	28	0	123731968	50	6073
2026-01-16 13:07:58.58	26.59	7.22	-38.6	-39.8	21.2	0.00e+00	10	28	0	125829120	50	6252
2026-01-16 13:07:59.59	26.67	7.29	-38.7	-39.8	21.1	0.00e+00	0	28	0	127926272	50	6306
2026-01-16 13:08:00.60	26.75	7.35	-38.6	-39.8	21.1	0.00e+00	92	28	0	130023424	50	6287
2026-01-16 13:08:01.61	26.84	7.42	-38.8	-40.0	21.0	0.00e+00	8	28	0	131072000	50	6413
2026-01-16 13:08:02.62	26.92	7.49	-38.7	-39.8	21.1	0.00e+00	6	28	0	133169152	50	6311
2026-01-16 13:08:03.63	27.01	7.56	-38.8	-40.0	21.0	0.00e+00	1	28	0	135266304	50	6464
2026-01-16 13:08:04.63	27.09	7.63	-38.8	-40.1	21.0	0.00e+00	0	28	0	137363456	50	6470
2026-01-16 13:08:05.64	27.18	7.69	-38.8	-40.0	20.9	0.00e+00	0	28	0	139460608	50	6445
2026-01-16 13:08:06.65	27.26	7.76	-39.0	-40.2	20.8	0.00e+00	1	28	0	140509184	50	6593
2026-01-16 13:08:07.66	27.35	7.83	-38.6	-39.8	21.3	0.00e+00	92	28	0	142606336	50	6252
2026-01-16 13:08:08.67	27.44	7.90	-38.6	-39.7	21.3	0.00e+00	6	28	0	144703488	50	6223
2026-01-16 13:08:09.68	27.53	7.97	-38.7	-39.9	21.1	0.00e+00	92	28	0	146800640	50	6371
2026-01-16 13:08:10.69	27.61	8.04	-38.7	-39.8	21.2	0.00e+00	0	28	0	148897792	50	6312
2026-01-16 13:08:11.70	27.70	8.11	-38.5	-39.7	21.4	0.00e+00	0	28	0	149946368	50	6189
2026-01-16 13:08:12.71	27.79	8.18	-38.4	-39.5	21.5	0.00e+00	1	27	0	152043520	50	6085
2026-01-16 13:08:13.72	27.88	8.24	-38.6	-39.7	21.3	0.00e+00	1	28	0	154140672	50	6218
2026-01-16 13:08:14.73	27.97	8.31	-38.2	-39.4	21.6	0.00e+00	0	28	0	156237824	50	5967
2026-01-16 13:08:15.74	28.06	8.38	-38.2	-39.3	21.7	0.00e+00	1	28	0	158334976	50	5944
2026-01-16 13:08:16.75	28.15	8.45	-38.2	-39.3	21.7	0.00e+00	92	28	0	159383552	50	5944
2026-01-16 13:08:17.76	28.24	8.52	-38.3	-39.4	21.7	0.00e+00	81	28	0	161480704	50	5987
2026-01-16 13:08:18.77	28.33	8.59	-38.1	-39.2	21.8	0.00e+00	81	28	0	163577856	50	5891
2026-01-16 13:08:19.78	28.42	8.66	-38.3	-39.4	21.7	0.00e+00	82	28	0	165675008	50	6018
2026-01-16 13:08:20.78	28.51	8.73	-38.3	-39.5	21.6	0.00e+00	80	28	0	167772160	50	6040
2026-01-16 13:08:21.79	28.60	8.80	-38.5	-39.7	21.5	0.00e+00	81	28	0	168820736	50	6192
2026-01-16 13:08:22.80	28.69	8.87	-38.2	-39.3	21.8	0.00e+00	0	28	0	170917888	50	5899
2026-01-16 13:08:23.81	28.79	8.94	-38.1	-39.2	21.8	0.00e+00	92	28	0	173015040	50	5846
2026-01-16 13:08:24.82	28.88	9.01	-38.1	-39.2	21.8	0.00e+00	0	28	0	175112192	50	5879
2026-01-16 13:08:25.83	28.97	9.09	-37.8	-38.9	22.1	0.00e+00	92	27	0	177209344	50	5641
2026-01-16 13:08:26.84	29.07	9.16	-37.8	-38.9	22.2	0.00e+00	0	28	0	178257920	50	5650
2026-01-16 13:08:27.85	29.16	9.23	-37.9	-39.0	22.1	0.00e+00	2	28	0	180355072	48	6406
2026-01-16 13:08:28.86	29.26	9.30	-37.8	-38.9	22.2	0.00e+00	0	28	0	182452224	48	6319
2026-01-16 13:08:29.87	29.35	9.37	-37.9	-38.9	22.0	0.00e+00	0	28	0	184549376	48	6364
2026-01-16 13:08:30.88	29.45	9.44	-37.7	-38.8	22.3	0.00e+00	92	28	0	186646528	48	6248
2026-01-16 13:08:31.89	29.55	9.51	-37.8	-38.8	22.2	0.00e+00	2	28	0	187695104	48	6310
2026-01-16 13:08:32.90	29.64	9.59	-37.9	-38.9	22.2	0.00e+00	92	28	0	189792256	48	6351
2026-01-16 13:08:33.91	29.74	9.66	-37.8	-38.8	22.2	0.00e+00	0	28	0	191889408	48	6292
2026-01-16 13:08:34.92	29.84	9.73	-37.7	-38.7	22.2	0.00e+00	4	28	0	193986560	48	6204
2026-01-16 13:08:35.93	29.94	9.80	-37.7	-38.7	22.1	0.00e+00	0	28	0	196083712	48	6222
2026-01-16 13:08:36.94	30.03	9.88	-37.8	-38.8	22.3	0.00e+00	1	28	0	198180864	48	6277
2026-01-16 13:08:37.95	30.13	9.95	-37.8	-38.8	22.3	0.00e+00	0	28	0	199229440	48	6311
2026-01-16 13:08:38.96	30.23	10.02	-37.9	-38.9	22.2	0.00e+00	0	28	0	201326592	48	6384
2026-01-16 13:08:39.97	30.33	10.09	-38.0	-39.1	22.0	0.00e+00	90	28	0	203423744	48	6487
2026-01-16 13:08:40.98	30.43	10.17	-37.9	-39.0	22.1	0.00e+00	0	28	0	205520896	48	6427
2026-01-16 13:08:41.99	30.53	10.24	-37.8	-38.9	22.2	0.00e+00	92	28	0	207618048	48	6335
2026-01-16 13:08:43.00	30.64	10.31	-37.9	-39.0	22.1	0.00e+00	4	27	0	208666624	48	6417
2026-01-16 13:08:44.01	30.74	10.39	-37.9	-39.0	22.1	0.00e+00	0	28	0	210763776	48	6424
2026-01-16 13:08:45.02	30.84	10.46	-37.9	-38.9	22.2	0.00e+00	0	28	0	212860928	48	6378
2026-01-16 13:08:46.03	30.94	10.53	-38.0	-39.0	22.1	0.00e+00	0	28	0	214958080	48	6457
2026-01-16 13:08:47.04	31.05	10.61	-38.0	-39.0	22.2	0.00e+00	92	28	0	217055232	48	6445
2026-01-16 13:08:48.05	31.15	10.68	-37.9	-39.0	22.2	0.00e+00	0	28	0	218103808	48	6420
2026-01-16 13:08:49.05	31.25	10.76	-38.0	-39.1	22.0	0.00e+00	92	28	0	220200960	48	6515
2026-01-16 13:08:50.06	31.36	10.83	-38.1	-39.1	21.9	0.00e+00	2	28	0	222298112	48	6524
2026-01-16 13:08:51.07	31.46	10.90	-38.0	-39.1	22.1	0.00e+00	0	28	0	224395264	48	6465
2026-01-16 13:08:52.08	31.57	10.98	-38.1	-39.2	22.0	0.00e+00	0	28	0	226492416	48	6562
2026-01-16 13:08:53.09	31.68	11.05	-38.0	-39.0	22.1	0.00e+00	2	28	0	227540992	48	6431
2026-01-16 13:08:54.10	31.78	11.13	-38.0	-39.1	22.1	0.00e+00	92	28	0	229638144	48	6465
2026-01-16 13:08:55.12	31.89	11.20	-37.9	-39.0	22.2	0.00e+00	1	28	0	231735296	48	6416
2026-01-16 13:08:56.12	32.00	11.28	-37.9	-38.9	22.3	0.00e+00	92	28	0	233832448	48	6383
2026-01-16 13:08:57.13	32.11	11.35	-37.8	-38.8	22.3	0.00e+00	1	28	0	235929600	48	6269
2026-01-16 13:08:58.14	32.22	11.43	-37.8	-38.8	22.3	0.00e+00	0	28	0	236978176	48	6311
2026-01-16 13:08:59.15	32.33	11.51	-37.7	-38.7	22.5	0.00e+00	0	28	0	239075328	48	6213
2026-01-16 13:09:00.16	32.44	11.58	-37.9	-38.9	22.3	0.00e+00	79	27	0	241172480	48	6382
2026-01-16 13:09:01.18	32.55	11.66	-37.9	-38.9	22.3	0.00e+00	0	28	0	243269632	48	6375
2026-01-16 13:09:02.19	32.66	11.73	-37.8	-38.8	22.4	0.00e+00	78	27	0	245366784	48	6301
2026-01-16 13:09:03.20	32.77	11.81	-37.5	-38.5	22.6	0.00e+00	92	28	0	246415360	48	6094
2026-01-16 13:09:04.21	32.88	11.89	-37.6	-38.6	22.6	0.00e+00	0	28	0	248512512	48	6117
2026-01-16 13:09:05.22	33.00	11.96	-37.7	-38.7	22.3	0.00e+00	90	28	0	250609664	48	6242
2026-01-16 13:09:06.23	33.11	12.04	-37.9	-38.9	22.3	0.00e+00	0	28	0	252706816	48	6343
2026-01-16 13:09:07.24	33.23	12.12	-37.8	-38.8	22.3	0.00e+00	0	27	0	254803968	48	6291
2026-01-16 13:09:08.25	33.34	12.19	-37.7	-38.7	22.6	0.00e+00	0	28	0	255852544	48	6191
2026-01-16 13:09:09.26	33.46	12.27	-37.7	-38.7	22.4	0.00e+00	0	28	0	257949696	48	6227
2026-01-16 13:09:10.27	33.57	12.35	-37.8	-38.9	22.4	0.00e+00	89	27	0	260046848	48	6322
2026-01-16 13:09:11.28	33.69	12.43	-37.7	-38.7	22.5	0.00e+00	0	28	0	262144000	48	6201
2026-01-16 13:09:12.29	33.80	12.50	-37.5	-38.4	22.7	0.00e+00	92	27	0	264241152	48	6032
2026-01-16 13:09:13.30	33.92	12.58	-37.5	-38.5	22.4	0.00e+00	0	28	0	266338304	48	6047
2026-01-16 13:09:14.31	34.04	12.66	-37.5	-38.5	22.5	0.00e+00	0	27	0	267386880	48	6037
2026-01-16 13:09:15.32	34.16	12.74	-37.4	-38.4	22.8	0.00e+00	0	28	0	269484032	48	5966
2026-01-16 13:09:16.33	34.28	12.81	-37.5	-38.4	22.8	0.00e+00	79	28	0	271581184	48	6032
2026-01-16 13:09:17.34	34.40	12.89	-37.5	-38.5	22.7	0.00e+00	92	28	0	273678336	48	6068
2026-01-16 13:09:18.35	34.52	12.97	-37.5	-38.5	22.7	0.00e+00	0	28	0	275775488	48	6062
2026-01-16 13:09:19.36	34.64	13.05	-37.7	-38.7	22.5	0.00e+00	92	28	0	276824064	48	6203
2026-01-16 13:09:20.37	34.76	13.13	-37.7	-38.7	22.6	0.00e+00	0	28	0	278921216	48	6210
2026-01-16 13:09:21.38	34.88	13.21	-37.8	-38.8	22.5	0.00e+00	0	28	0	281018368	48	6297
2026-01-16 13:09:22.39	35.01	13.29	-37.8	-38.9	22.5	0.00e+00	0	28	0	283115520	48	6328
2026-01-16 13:09:23.40	35.13	13.36	-38.0	-39.1	22.4	0.00e+00	0	28	0	285212672	48	6484
2026-01-16 13:09:24.41	35.26	13.44	-37.9	-38.9	22.5	0.00e+00	81	28	0	286261248	48	6369
2026-01-16 13:09:25.42	35.38	13.52	-38.0	-39.0	22.4	0.00e+00	0	28	0	288358400	48	6421
2026-01-16 13:09:26.43	35.51	13.60	-37.8	-38.8	22.4	0.00e+00	92	28	0	290455552	48	6283
2026-01-16 13:09:27.44	35.63	13.68	-37.9	-39.0	22.4	0.00e+00	0	28	0	292552704	48	6392
2026-01-16 13:09:28.45	35.76	13.76	-37.8	-38.8	22.5	0.00e+00	57	28	0	294649856	48	6303
2026-01-16 13:09:29.46	35.89	13.84	-37.9	-38.9	22.5	0.00e+00	0	28	0	295698432	48	6372
2026-01-16 13:09:30.47	36.02	13.92	-37.6	-38.6	22.6	0.00e+00	7	28	0	297795584	48	6163
2026-01-16 13:09:31.48	36.14	14.00	-37.6	-38.6	22.7	0.00e+00	5	27	0	299892736	48	6154
2026-01-16 13:09:32.49	36.27	14.08	-37.6	-38.6	22.7	0.00e+00	3	28	0	301989888	48	6161
2026-01-16 13:09:33.49	36.40	14.16	-37.6	-38.5	22.8	0.00e+00	92	28	0	304087040	48	6092
2026-01-16 13:09:34.50	36.53	14.24	-37.5	-38.5	22.8	0.00e+00	2	28	0	306184192	48	6077
2026-01-16 13:09:35.51	36.67	14.32	-37.7	-38.7	22.6	0.00e+00	91	28	0	307232768	48	6226
2026-01-16 13:09:36.52	36.80	14.40	-37.9	-38.9	22.5	0.00e+00	3	28	0	309329920	48	6346
2026-01-16 13:09:37.53	36.93	14.48	-37.6	-38.6	22.7	0.00e+00	0	28	0	311427072	48	6158
2026-01-16 13:09:38.54	37.07	14.57	-37.6	-38.6	22.7	0.00e+00	0	28	0	313524224	48	6120
2026-01-16 13:09:39.55	37.20	14.65	-37.6	-38.6	22.8	0.00e+00	86	28	0	315621376	48	6115
2026-01-16 13:09:40.56	37.33	14.73	-37.7	-38.7	22.7	0.00e+00	92	28	0	316669952	48	6175
2026-01-16 13:09:41.57	37.47	14.81	-37.5	-38.5	22.8	0.00e+00	0	27	0	318767104	48	6049
2026-01-16 13:09:42.58	37.61	14.89	-37.5	-38.5	22.9	0.00e+00	92	28	0	320864256	48	6060
2026-01-16 13:09:43.59	37.74	14.97	-37.5	-38.4	22.7	0.00e+00	88	28	0	322961408	48	6030
2026-01-16 13:09:44.60	37.88	15.06	-37.4	-38.3	22.9	0.00e+00	6	28	0	325058560	48	5952
2026-01-16 13:09:45.61	38.02	15.14	-37.4	-38.4	23.0	0.00e+00	6	27	0	326107136	48	5967
2026-01-16 13:09:46.62	38.16	15.22	-37.4	-38.4	23.0	0.00e+00	6	28	0	328204288	48	5979
2026-01-16 13:09:47.63	38.30	15.30	-37.4	-38.3	23.1	0.00e+00	0	28	0	330301440	48	5948
2026-01-16 13:09:48.64	38.44	15.38	-37.5	-38.4	23.0	0.00e+00	0	28	0	332398592	48	6024
2026-01-16 13:09:49.65	38.58	15.47	-37.4	-38.4	22.9	0.00e+00	90	27	0	334495744	48	5995
2026-01-16 13:09:50.66	38.73	15.55	-37.6	-38.5	22.8	0.00e+00	3	28	0	335544320	48	6087
2026-01-16 13:09:51.67	38.87	15.63	-37.5	-38.5	22.9	0.00e+00	2	28	0	337641472	48	6035
2026-01-16 13:09:52.68	39.01	15.71	-37.4	-38.4	22.9	0.00e+00	3	27	0	339738624	48	5998
2026-01-16 13:09:53.69	39.16	15.80	-37.5	-38.5	22.9	0.00e+00	7	27	0	341835776	48	6041
2026-01-16 13:09:54.70	39.30	15.88	-37.3	-38.3	23.0	0.00e+00	5	28	0	343932928	48	5931
2026-01-16 13:09:55.71	39.45	15.96	-37.5	-38.5	23.0	0.00e+00	3	28	0	344981504	48	6040
2026-01-16 13:09:56.72	39.60	16.05	-37.4	-38.4	23.1	0.00e+00	90	28	0	347078656	48	5983
2026-01-16 13:09:57.73	39.75	16.13	-37.3	-38.2	23.2	0.00e+00	77	28	0	349175808	48	5877
2026-01-16 13:09:58.74	39.90	16.21	-37.3	-38.3	23.1	0.00e+00	90	28	0	351272960	48	5921
2026-01-16 13:09:59.75	40.04	16.30	-37.0	-37.9	23.4	0.00e+00	4	28	0	353370112	48	5661
2026-01-16 13:10:00.76	40.20	16.38	-37.0	-38.0	23.4	0.00e+00	76	28	0	354418688	48	5704
2026-01-16 13:10:01.77	40.35	16.47	-37.0	-37.9	23.5	0.00e+00	79	28	0	356515840	48	5638
2026-01-16 13:10:02.78	40.50	16.55	-36.9	-37.8	23.5	0.00e+00	77	28	0	358612992	48	5591
2026-01-16 13:10:03.79	40.65	16.63	-37.0	-37.9	23.5	0.00e+00	92	28	0	360710144	48	5652
2026-01-16 13:10:04.80	40.80	16.72	-36.9	-37.8	23.4	0.00e+00	2	28	0	362807296	48	5587
2026-01-16 13:10:05.81	40.96	16.80	-36.9	-37.8	23.5	0.00e+00	92	28	0	363855872	48	5572
2026-01-16 13:10:06.82	41.11	16.89	-36.7	-37.6	22.6	0.00e+00	2	28	0	365953024	46	6128
2026-01-16 13:10:07.83	41.27	16.97	-36.8	-37.7	23.1	0.00e+00	0	28	0	368050176	46	6188
2026-01-16 13:10:08.85	41.43	17.06	-36.8	-37.7	23.4	0.00e+00	0	28	0	370147328	46	6197
2026-01-16 13:10:09.86	41.59	17.14	-36.7	-37.6	23.7	0.00e+00	0	28	0	372244480	46	6154
2026-01-16 13:10:10.86	41.74	17.22	-36.8	-37.7	23.5	0.00e+00	0	28	0	374341632	46	6227
2026-01-16 13:10:11.87	41.90	17.31	-36.8	-37.6	23.6	0.00e+00	2	28	0	375390208	46	6173
2026-01-16 13:10:12.88	42.06	17.39	-36.8	-37.7	23.5	0.00e+00	90	28	0	377487360	46	6243
2026-01-16 13:10:13.89	42.23	17.48	-36.8	-37.7	23.7	0.00e+00	4	28	0	379584512	46	6205
2026-01-16 13:10:14.90	42.39	17.56	-36.7	-37.6	23.8	0.00e+00	81	28	0	381681664	46	6148
2026-01-16 13:10:15.91	42.55	17.65	-36.8	-37.7	23.7	0.00e+00	4	28	0	383778816	46	6235
2026-01-16 13:10:16.93	42.72	17.73	-36.6	-37.4	23.9	0.00e+00	2	28	0	384827392	46	6023
2026-01-16 13:10:17.94	42.88	17.82	-36.6	-37.5	23.9	0.00e+00	0	28	0	386924544	46	6064
2026-01-16 13:10:18.95	43.05	17.91	-36.6	-37.5	23.9	0.00e+00	0	28	0	389021696	46	6046
2026-01-16 13:10:19.96	43.21	17.99	-36.6	-37.5	23.9	0.00e+00	90	28	0	391118848	46	6063
2026-01-16 13:10:20.97	43.38	18.08	-36.6	-37.4	24.0	0.00e+00	80	28	0	393216000	46	6011
2026-01-16 13:10:21.98	43.55	18.16	-36.7	-37.6	23.8	0.00e+00	90	28	0	394264576	46	6109
2026-01-16 13:10:22.99	43.72	18.25	-36.9	-37.8	23.6	0.00e+00	78	28	0	396361728	46	6250
2026-01-16 13:10:24.00	43.89	18.33	-36.9	-37.7	23.7	0.00e+00	0	28	0	398458880	46	6243
2026-01-16 13:10:25.01	44.06	18.42	-36.9	-37.7	23.7	0.00e+00	2	28	0	400556032	46	6242
2026-01-16 13:10:26.02	44.24	18.50	-36.4	-37.3	24.1	0.00e+00	0	28	0	402653184	46	5935
2026-01-16 13:10:27.03	44.41	18.59	-36.4	-37.3	24.1	0.00e+00	92	28	0	403701760	46	5912
2026-01-16 13:10:28.04	44.58	18.68	-36.4	-37.2	24.1	0.00e+00	0	28	0	405798912	46	5889
2026-01-16 13:10:29.05	44.76	18.76	-36.4	-37.2	24.0	0.00e+00	90	28	0	407896064	46	5878
2026-01-16 13:10:30.06	44.93	18.85	-36.6	-37.5	24.0	0.00e+00	0	28	0	409993216	46	6048
2026-01-16 13:10:31.07	45.11	18.93	-36.6	-37.5	23.8	0.00e+00	0	28	0	412090368	46	6035
2026-01-16 13:10:32.08	45.29	19.02	-36.5	-37.3	24.0	0.00e+00	0	28	0	413138944	46	5942
2026-01-16 13:10:33.09	45.47	19.11	-36.2	-37.0	24.3	0.00e+00	0	28	0	415236096	46	5735
2026-01-16 13:10:34.10	45.65	19.19	-36.1	-36.9	24.3	0.00e+00	0	28	0	417333248	46	5693
2026-01-16 13:10:35.11	45.83	19.28	-36.0	-36.9	24.4	0.00e+00	0	28	0	419430400	46	5643
2026-01-16 13:10:36.12	46.01	19.36	-36.2	-37.0	24.2	0.00e+00	90	28	0	421527552	46	5755
2026-01-16 13:10:37.13	46.19	19.45	-36.4	-37.2	24.1	0.00e+00	77	28	0	422576128	46	5880
2026-01-16 13:10:38.14	46.38	19.54	-36.2	-37.1	24.3	0.00e+00	84	28	0	424673280	46	5770
2026-01-16 13:10:39.15	46.56	19.62	-36.3	-37.1	24.3	0.00e+00	1	28	0	426770432	46	5803
2026-01-16 13:10:40.16	46.75	19.71	-36.4	-37.3	24.2	0.00e+00	0	28	0	428867584	46	5904
2026-01-16 13:10:41.17	46.94	19.80	-36.2	-37.1	24.2	0.00e+00	2	28	0	430964736	46	5792
2026-01-16 13:10:42.18	47.13	19.88	-36.2	-37.1	24.3	0.00e+00	0	28	0	432013312	46	5789
2026-01-16 13:10:43.19	47.31	19.97	-36.3	-37.1	24.4	0.00e+00	92	28	0	434110464	46	5792
2026-01-16 13:10:44.20	47.50	20.05	-36.2	-37.0	24.4	0.00e+00	78	28	0	436207616	46	5727
2026-01-16 13:10:45.21	47.70	20.14	-35.9	-36.7	24.6	0.00e+00	70	28	0	438304768	46	5535
2026-01-16 13:10:46.22	47.89	20.23	-36.0	-36.9	24.5	0.00e+00	0	28	0	440401920	46	5631
2026-01-16 13:10:47.23	48.08	20.31	-35.9	-36.7	24.7	0.00e+00	2	28	0	442499072	46	5547
2026-01-16 13:10:48.24	48.28	20.40	-35.9	-36.7	24.7	0.00e+00	0	28	0	443547648	46	5563
2026-01-16 13:10:49.25	48.47	20.48	-36.0	-36.8	24.5	0.00e+00	0	28	0	445644800	46	5614
2026-01-16 13:10:50.26	48.67	20.57	-36.0	-36.9	24.5	0.00e+00	92	28	0	447741952	46	5644
2026-01-16 13:10:51.27	48.87	20.66	-35.9	-36.7	24.6	0.00e+00	0	28	0	449839104	46	5544
2026-01-16 13:10:52.28	49.06	20.74	-36.1	-36.9	24.3	0.00e+00	92	28	0	451936256	46	5682
2026-01-16 13:10:53.29	49.26	20.83	-36.0	-36.8	24.4	0.00e+00	2	28	0	452984832	46	5595
2026-01-16 13:10:54.29	49.46	20.91	-36.0	-36.8	24.4	0.00e+00	48	28	0	455081984	46	5601
2026-01-16 13:10:55.31	49.67	21.00	-36.0	-36.8	24.5	0.00e+00	79	28	0	457179136	46	5616
2026-01-16 13:10:56.32	49.87	21.09	-36.1	-37.0	24.4	0.00e+00	4	28	0	459276288	46	5717
2026-01-16 13:10:57.32	50.07	21.17	-36.1	-37.0	24.4	0.00e+00	0	28	0	461373440	46	5700
2026-01-16 13:10:58.33	50.28	21.26	-36.0	-36.8	24.5	0.00e+00	0	28	0	462422016	46	5611
2026-01-16 13:10:59.35	50.49	21.34	-36.1	-36.9	24.4	0.00e+00	92	28	0	464519168	46	5659
2026-01-16 13:11:00.36	50.69	21.43	-36.0	-36.8	24.3	0.00e+00	0	28	0	466616320	46	5621
2026-01-16 13:11:01.36	50.90	21.51	-36.0	-36.8	24.2	0.00e+00	47	28	0	468713472	46	5582
2026-01-16 13:11:02.37	51.11	21.60	-36.0	-36.8	24.5	0.00e+00	82	28	0	470810624	46	5601
2026-01-16 13:11:03.38	51.32	21.68	-36.2	-37.0	24.4	0.00e+00	0	28	0	471859200	46	5718
2026-01-16 13:11:04.39	51.53	21.77	-36.2	-37.0	24.4	0.00e+00	1	28	0	473956352	46	5743
2026-01-16 13:11:05.40	51.75	21.85	-36.1	-36.9	24.5	0.00e+00	82	28	0	476053504	46	5655
2026-01-16 13:11:06.41	51.96	21.94	-36.1	-36.9	24.6	0.00e+00	92	28	0	478150656	46	5653
2026-01-16 13:11:07.42	52.18	22.02	-36.1	-37.0	24.4	0.00e+00	0	28	0	480247808	46	5718
2026-01-16 13:11:08.43	52.39	22.11	-36.1	-37.0	24.4	0.00e+00	76	28	0	481296384	46	5706
2026-01-16 13:11:09.44	52.61	22.19	-36.2	-37.1	24.3	0.00e+00	6	28	0	483393536	46	5769
2026-01-16 13:11:10.45	52.83	22.28	-36.0	-36.8	24.6	0.00e+00	6	28	0	485490688	46	5618
2026-01-16 13:11:11.45	53.05	22.36	-35.9	-36.7	24.6	0.00e+00	0	28	0	487587840	46	5563
2026-01-16 13:11:12.46	53.27	22.44	-35.9	-36.7	24.6	0.00e+00	5	28	0	489684992	46	5558
2026-01-16 13:11:13.47	53.49	22.53	-35.7	-36.6	24.8	0.00e+00	92	28	0	490733568	44	6104
2026-01-16 13:11:14.48	53.72	22.61	-35.7	-36.5	24.9	0.00e+00	6	28	0	492830720	44	6047
2026-01-16 13:11:15.49	53.94	22.70	-35.6	-36.4	24.9	0.00e+00	92	28	0	494927872	44	6019
2026-01-16 13:11:16.50	54.17	22.78	-35.7	-36.5	24.7	0.00e+00	7	28	0	497025024	44	6069
2026-01-16 13:11:17.51	54.39	22.86	-35.7	-36.5	24.8	0.00e+00	82	28	0	499122176	44	6055
2026-01-16 13:11:18.52	54.62	22.95	-35.9	-36.7	24.6	0.00e+00	84	28	0	500170752	44	6239
2026-01-16 13:11:19.53	54.85	23.03	-36.1	-36.9	24.5	0.00e+00	84	28	0	502267904	44	6387
2026-01-16 13:11:20.54	55.08	23.11	-36.2	-37.1	24.3	0.00e+00	0	28	0	504365056	44	6468
2026-01-16 13:11:21.55	55.31	23.19	-36.3	-37.1	24.3	0.00e+00	3	28	0	506462208	44	6500
2026-01-16 13:11:22.56	55.55	23.28	-36.2	-37.0	24.4	0.00e+00	90	28	0	508559360	44	6461
2026-01-16 13:11:23.57	55.78	23.36	-36.2	-37.0	24.5	0.00e+00	0	28	0	510656512	44	6447
2026-01-16 13:11:24.58	56.02	23.44	-36.3	-37.1	24.3	0.00e+00	56	28	0	511705088	44	6513
2026-01-16 13:11:25.59	56.25	23.52	-36.4	-37.2	24.3	0.00e+00	82	28	0	513802240	44	6578
2026-01-16 13:11:26.60	56.49	23.60	-36.5	-37.3	24.2	0.00e+00	0	28	0	515899392	44	6689
2026-01-16 13:11:27.61	56.73	23.68	-36.6	-37.5	24.2	0.00e+00	1	28	0	517996544	44	6800
2026-01-16 13:11:28.62	56.97	23.76	-36.7	-37.5	23.9	0.00e+00	0	28	0	520093696	44	6847
2026-01-16 13:11:29.63	57.21	23.85	-36.7	-37.5	23.9	0.00e+00	90	28	0	521142272	46	6092
2026-01-16 13:11:30.64	57.46	23.93	-36.8	-37.6	24.0	0.00e+00	6	28	0	523239424	46	6159
2026-01-16 13:11:31.65	57.70	24.01	-36.7	-37.6	23.9	0.00e+00	92	28	0	525336576	46	6109
2026-01-16 13:11:32.66	57.95	24.09	-36.8	-37.7	23.8	0.00e+00	6	28	0	527433728	46	6231
2026-01-16 13:11:33.67	58.19	24.16	-36.9	-37.8	23.8	0.00e+00	0	28	0	529530880	46	6301
2026-01-16 13:11:34.68	58.44	24.24	-36.9	-37.8	23.8	0.00e+00	5	28	0	530579456	46	6285
2026-01-16 13:11:35.69	58.69	24.32	-36.8	-37.7	23.9	0.00e+00	0	28	0	532676608	46	6210
2026-01-16 13:11:36.70	58.94	24.40	-36.8	-37.7	23.9	0.00e+00	90	28	0	534773760	46	6222
2026-01-16 13:11:37.71	59.19	24.48	-36.7	-37.5	24.0	0.00e+00	4	28	0	536870912	46	6076
2026-01-16 13:11:38.72	59.44	24.56	-36.8	-37.7	23.8	0.00e+00	92	28	0	538968064	46	6193
2026-01-16 13:11:39.73	59.70	24.64	-36.9	-37.8	23.7	0.00e+00	78	28	0	540016640	46	6301
2026-01-16 13:11:40.74	59.95	24.71	-36.8	-37.7	23.1	0.00e+00	4	28	0	542113792	46	6226
2026-01-16 13:11:41.75	60.21	24.79	-37.0	-37.9	23.5	0.00e+00	4	28	0	544210944	46	6337
2026-01-16 13:11:42.76	60.47	24.87	-37.0	-38.0	23.5	0.00e+00	76	28	0	546308096	46	6393
2026-01-16 13:11:43.76	60.72	24.94	-37.2	-38.1	23.5	0.00e+00	80	28	0	548405248	46	6497
2026-01-16 13:11:44.77	60.98	25.02	-37.1	-38.0	23.5	0.00e+00	0	28	0	549453824	46	6452
2026-01-16 13:11:45.78	61.24	25.09	-37.3	-38.2	23.3	0.00e+00	90	28	0	551550976	46	6599
2026-01-16 13:11:46.79	61.51	25.17	-37.6	-38.5	23.1	0.00e+00	76	28	0	553648128	46	6810
2026-01-16 13:11:47.80	61.77	25.24	-37.6	-38.6	23.1	0.00e+00	2	28	0	555745280	46	6860
2026-01-16 13:11:48.81	62.03	25.32	-37.8	-38.8	22.9	0.00e+00	0	28	0	557842432	48	6251
2026-01-16 13:11:49.82	62.30	25.39	-37.7	-38.7	23.0	0.00e+00	0	28	0	558891008	48	6208
2026-01-16 13:11:50.83	62.57	25.46	-37.9	-38.8	22.9	0.00e+00	0	29	0	560988160	48	6311
2026-01-16 13:11:51.84	62.84	25.54	-37.7	-38.7	22.9	0.00e+00	0	28	0	563085312	48	6179
2026-01-16 13:11:52.85	63.11	25.61	-37.6	-38.5	23.1	0.00e+00	92	28	0	565182464	48	6101
2026-01-16 13:11:53.86	63.38	25.68	-37.7	-38.7	23.0	0.00e+00	4	28	0	567279616	48	6179
2026-01-16 13:11:54.87	63.65	25.75	-37.9	-38.9	22.9	0.00e+00	90	29	0	568328192	48	6336
2026-01-16 13:11:55.88	63.92	25.82	-38.1	-39.0	22.7	0.00e+00	5	28	0	570425344	48	6457
2026-01-16 13:11:56.90	64.20	25.89	-38.2	-39.2	22.5	0.00e+00	0	28	0	572522496	48	6608
2026-01-16 13:11:57.91	64.48	25.96	-38.4	-39.4	22.4	0.00e+00	0	28	0	574619648	48	6749
2026-01-16 13:11:58.92	64.75	26.03	-38.8	-39.8	22.2	0.00e+00	81	28	0	576716800	50	6289
2026-01-16 13:11:59.93	65.03	26.10	-38.8	-39.8	22.1	0.00e+00	78	28	0	578813952	50	6282
2026-01-16 13:12:00.94	65.31	26.17	-38.6	-39.7	22.2	0.00e+00	81	29	0	579862528	50	6174
2026-01-16 13:12:01.95	65.59	26.24	-38.5	-39.6	22.3	0.00e+00	92	28	0	581959680	50	6115
2026-01-16 13:12:02.96	65.87	26.30	-38.6	-39.7	21.9	0.00e+00	4	28	0	584056832	50	6199
2026-01-16 13:12:03.97	66.16	26.37	-38.7	-39.7	22.1	0.00e+00	0	28	0	586153984	50	6226
2026-01-16 13:12:04.98	66.44	26.44	-38.6	-39.7	22.2	0.00e+00	82	28	0	588251136	50	6175
2026-01-16 13:12:05.99	66.73	26.50	-38.6	-39.6	22.1	0.00e+00	77	28	0	589299712	50	6144
2026-01-16 13:12:07.00	67.01	26.57	-38.7	-39.7	22.0	0.00e+00	65	28	0	591396864	50	6222
2026-01-16 13:12:08.01	67.30	26.63	-38.7	-39.8	22.0	0.00e+00	2	29	0	593494016	50	6247
2026-01-16 13:12:09.02	67.59	26.70	-38.6	-39.7	22.0	0.00e+00	92	29	0	595591168	50	6198
2026-01-16 13:12:10.03	67.88	26.76	-38.7	-39.8	21.9	0.00e+00	2	29	0	597688320	50	6273
2026-01-16 13:12:11.04	68.17	26.82	-38.8	-39.8	21.9	0.00e+00	92	29	0	598736896	50	6308
2026-01-16 13:12:12.05	68.46	26.88	-38.8	-39.8	21.9	0.00e+00	2	29	0	600834048	50	6317
2026-01-16 13:12:13.06	68.75	26.94	-38.7	-39.8	21.9	0.00e+00	0	29	0	602931200	50	6285
2026-01-16 13:12:14.07	69.05	27.00	-38.8	-39.8	21.7	0.00e+00	2	29	0	605028352	50	6314
2026-01-16 13:12:15.08	69.34	27.06	-38.7	-39.8	21.9	0.00e+00	2	29	0	607125504	50	6310
2026-01-16 13:12:16.09	69.64	27.12	-38.8	-39.9	21.8	0.00e+00	92	29	0	608174080	50	6359
2026-01-16 13:12:17.10	69.94	27.18	-38.9	-40.0	21.7	0.00e+00	77	29	0	610271232	50	6419
2026-01-16 13:12:18.11	70.24	27.24	-38.9	-40.0	21.7	0.00e+00	91	29	0	612368384	50	6408
2026-01-16 13:12:19.12	70.54	27.30	-38.7	-39.8	22.0	0.00e+00	0	29	0	614465536	50	6296
2026-01-16 13:12:20.13	70.84	27.35	-38.7	-39.7	21.9	0.00e+00	75	29	0	616562688	50	6234
2026-01-16 13:12:21.14	71.14	27.41	-38.6	-39.6	22.2	0.00e+00	4	29	0	617611264	50	6143
2026-01-16 13:12:22.15	71.44	27.46	-38.5	-39.6	22.2	0.00e+00	74	29	0	619708416	50	6130
2026-01-16 13:12:23.16	71.75	27.52	-38.7	-39.7	22.0	0.00e+00	92	29	0	621805568	50	6232
2026-01-16 13:12:24.17	72.05	27.57	-39.0	-40.1	21.6	0.00e+00	0	29	0	623902720	50	6515
2026-01-16 13:12:25.18	72.36	27.63	-39.6	-40.8	21.1	0.00e+00	92	29	0	625999872	50	7021
2026-01-16 13:12:26.19	72.66	27.68	-39.7	-40.9	20.9	0.00e+00	0	29	0	627048448	50	7168
2026-01-16 13:12:27.20	72.97	27.73	-39.9	-41.2	20.7	0.00e+00	0	29	0	629145600	52	6573
2026-01-16 13:12:28.21	73.28	27.78	-40.1	-41.4	20.5	0.00e+00	0	29	0	631242752	52	6748
2026-01-16 13:12:29.22	73.59	27.83	-40.2	-41.5	20.3	0.00e+00	0	29	0	633339904	52	6838
2026-01-16 13:12:30.23	73.90	27.88	-40.3	-41.6	20.3	0.00e+00	81	29	0	635437056	52	6913
2026-01-16 13:12:31.24	74.21	27.93	-40.2	-41.5	20.4	0.00e+00	0	29	0	636485632	52	6820
2026-01-16 13:12:32.25	74.53	27.97	-40.0	-41.3	20.6	0.00e+00	91	29	0	638582784	52	6659
2026-01-16 13:12:33.26	74.84	28.02	-40.1	-41.4	20.5	0.00e+00	0	29	0	640679936	52	6707
2026-01-16 13:12:34.26	75.15	28.06	-39.7	-40.9	21.0	0.00e+00	0	29	0	642777088	52	6370
2026-01-16 13:12:35.27	75.47	28.11	-39.4	-40.6	21.3	0.00e+00	0	29	0	644874240	52	6151
2026-01-16 13:12:36.28	75.78	28.15	-39.3	-40.5	21.3	0.00e+00	3	29	0	646971392	52	6063
2026-01-16 13:12:37.29	76.10	28.20	-39.4	-40.6	21.3	0.00e+00	0	29	0	648019968	52	6129
2026-01-16 13:12:38.30	76.42	28.24	-39.0	-40.1	21.7	0.00e+00	3	29	0	650117120	52	5810
2026-01-16 13:12:39.31	76.74	28.28	-39.0	-40.2	21.6	0.00e+00	92	29	0	652214272	52	5841
2026-01-16 13:12:40.32	77.05	28.32	-39.0	-40.1	21.7	0.00e+00	5	29	0	654311424	52	5819
2026-01-16 13:12:41.33	77.38	28.36	-39.1	-40.2	21.6	0.00e+00	92	29	0	656408576	52	5873
2026-01-16 13:12:42.34	77.70	28.40	-39.0	-40.1	21.5	0.00e+00	0	29	0	657457152	52	5808
2026-01-16 13:12:43.35	78.02	28.44	-39.2	-40.3	21.4	0.00e+00	0	29	0	659554304	52	5939
2026-01-16 13:12:44.36	78.34	28.47	-39.2	-40.4	21.5	0.00e+00	79	29	0	661651456	52	5975
2026-01-16 13:12:45.37	78.66	28.51	-39.4	-40.6	21.2	0.00e+00	78	29	0	663748608	52	6123
2026-01-16 13:12:46.38	78.99	28.54	-39.8	-41.0	20.8	0.00e+00	92	29	0	665845760	52	6454
2026-01-16 13:12:47.39	79.31	28.58	-39.8	-41.1	20.8	0.00e+00	77	29	0	666894336	52	6500
2026-01-16 13:12:48.40	79.64	28.61	-40.0	-41.2	20.5	0.00e+00	91	29	0	668991488	52	6613
2026-01-16 13:12:49.41	79.96	28.64	-39.9	-41.2	20.7	0.00e+00	1	29	0	671088640	52	6565
2026-01-16 13:12:50.41	80.29	28.67	-39.8	-41.1	20.7	0.00e+00	0	29	0	673185792	52	6467
2026-01-16 13:12:51.42	80.61	28.70	-39.9	-41.2	20.6	0.00e+00	6	29	0	675282944	52	6575
2026-01-16 13:12:52.43	80.94	28.73	-39.5	-40.7	21.1	0.00e+00	0	29	0	676331520	52	6229
2026-01-16 13:12:53.44	81.27	28.76	-39.4	-40.6	21.2	0.00e+00	0	29	0	678428672	52	6136
2026-01-16 13:12:54.45	81.60	28.79	-39.5	-40.7	21.1	0.00e+00	7	29	0	680525824	52	6217
2026-01-16 13:12:55.46	81.93	28.82	-39.2	-40.4	21.4	0.00e+00	92	29	0	682622976	52	5983
2026-01-16 13:12:56.47	82.26	28.84	-39.2	-40.4	21.5	0.00e+00	3	29	0	684720128	52	5991
2026-01-16 13:12:57.48	82.59	28.87	-38.8	-39.9	21.8	0.00e+00	8	29	0	685768704	52	5694
2026-01-16 13:12:58.49	82.92	28.89	-38.8	-40.0	21.8	0.00e+00	5	29	0	687865856	52	5698
2026-01-16 13:12:59.50	83.25	28.91	-38.9	-40.0	21.6	0.00e+00	0	29	0	689963008	52	5718
2026-01-16 13:13:00.51	83.58	28.93	-38.9	-40.0	21.8	0.00e+00	0	29	0	692060160	52	5705
2026-01-16 13:13:01.52	83.92	28.95	-39.1	-40.3	21.5	0.00e+00	86	29	0	694157312	52	5909
2026-01-16 13:13:02.53	84.25	28.97	-39.1	-40.2	21.6	0.00e+00	90	29	0	695205888	52	5869
2026-01-16 13:13:03.54	84.58	28.99	-39.0	-40.1	21.6	0.00e+00	1	29	0	697303040	52	5798
2026-01-16 13:13:04.55	84.92	29.01	-38.8	-39.9	21.9	0.00e+00	92	29	0	699400192	52	5690
2026-01-16 13:13:05.56	85.25	29.02	-38.3	-39.4	22.3	0.00e+00	5	29	0	701497344	50	5979
2026-01-16 13:13:06.57	85.59	29.04	-38.6	-39.7	22.1	0.00e+00	0	29	0	703594496	50	6188
2026-01-16 13:13:07.58	85.92	29.05	-38.1	-39.1	22.5	0.00e+00	0	29	0	704643072	50	5822
2026-01-16 13:13:08.59	86.25	29.07	-38.3	-39.3	22.3	0.00e+00	83	29	0	706740224	50	5924
2026-01-16 13:13:09.60	86.59	29.08	-38.9	-40.0	21.7	0.00e+00	92	29	0	708837376	50	6419
2026-01-16 13:13:10.61	86.93	29.09	-39.2	-40.4	21.3	0.00e+00	7	29	0	710934528	50	6697
2026-01-16 13:13:11.62	87.26	29.10	-39.6	-40.8	20.9	0.00e+00	92	29	0	713031680	50	7027
2026-01-16 13:13:12.63	87.60	29.11	-39.6	-40.8	21.0	0.00e+00	7	29	0	715128832	50	7028
2026-01-16 13:13:13.64	87.93	29.12	-39.3	-40.4	21.3	0.00e+00	0	29	0	716177408	50	6754
2026-01-16 13:13:14.65	88.27	29.12	-39.0	-40.2	21.6	0.00e+00	3	29	0	718274560	50	6542
2026-01-16 13:13:15.66	88.61	29.13	-39.1	-40.2	21.5	0.00e+00	5	29	0	720371712	50	6570
2026-01-16 13:13:16.67	88.94	29.14	-38.6	-39.6	22.2	0.00e+00	55	29	0	722468864	50	6159
2026-01-16 13:13:17.68	89.28	29.14	-37.9	-38.9	22.7	0.00e+00	5	29	0	724566016	50	5654
2026-01-16 13:13:18.69	89.62	29.14	-37.6	-38.5	23.0	0.00e+00	92	29	0	725614592	48	6094
2026-01-16 13:13:19.70	89.95	29.14	-37.5	-38.5	23.1	0.00e+00	5	29	0	727711744	48	6038
2026-01-16 13:13:20.71	90.29	29.14	-37.8	-38.7	22.8	0.00e+00	92	29	0	729808896	48	6229
2026-01-16 13:13:21.72	90.63	29.14	-37.9	-38.9	22.7	0.00e+00	76	29	0	731906048	48	6320
2026-01-16 13:13:22.73	90.96	29.14	-38.0	-39.0	22.7	0.00e+00	77	29	0	734003200	48	6440
2026-01-16 13:13:23.74	91.30	29.14	-38.2	-39.2	22.5	0.00e+00	0	29	0	735051776	48	6562
2026-01-16 13:13:24.75	91.64	29.14	-38.4	-39.4	22.2	0.00e+00	0	29	0	737148928	48	6758
2026-01-16 13:13:25.76	91.97	29.13	-38.2	-39.2	22.3	0.00e+00	92	29	0	739246080	48	6596
2026-01-16 13:13:26.77	92.31	29.13	-38.0	-39.1	22.5	0.00e+00	76	29	0	741343232	48	6468
2026-01-16 13:13:27.78	92.64	29.12	-37.7	-38.7	22.8	0.00e+00	92	29	0	743440384	48	6226
2026-01-16 13:13:28.79	92.98	29.11	-37.8	-38.8	22.8	0.00e+00	81	29	0	744488960	48	6270
2026-01-16 13:13:29.80	93.32	29.10	-37.7	-38.7	22.8	0.00e+00	2	29	0	746586112	48	6212
2026-01-16 13:13:30.81	93.65	29.09	-38.1	-39.1	22.4	0.00e+00	0	29	0	748683264	48	6504
2026-01-16 13:13:31.82	93.99	29.08	-38.6	-39.6	22.0	0.00e+00	0	29	0	750780416	48	6924
2026-01-16 13:13:32.84	94.33	29.07	-39.1	-40.3	21.5	0.00e+00	92	29	0	752877568	50	6631
2026-01-16 13:13:33.85	94.66	29.06	-39.5	-40.7	21.1	0.00e+00	0	29	0	753926144	50	6948
2026-01-16 13:13:34.86	95.00	29.04	-39.5	-40.8	20.9	0.00e+00	92	29	0	756023296	50	7028
2026-01-16 13:13:35.86	95.33	29.03	-39.6	-40.8	20.9	0.00e+00	0	29	0	758120448	50	7065
2026-01-16 13:13:36.88	95.67	29.01	-39.2	-40.3	21.4	0.00e+00	3	29	0	760217600	50	6678
2026-01-16 13:13:37.88	96.00	28.99	-38.5	-39.6	22.1	0.00e+00	0	29	0	762314752	50	6113
2026-01-16 13:13:38.89	96.33	28.98	-38.2	-39.2	22.5	0.00e+00	3	29	0	763363328	50	5885
2026-01-16 13:13:39.90	96.66	28.96	-38.2	-39.3	22.4	0.00e+00	91	29	0	765460480	50	5901
2026-01-16 13:13:40.91	97.00	28.94	-38.4	-39.4	22.2	0.00e+00	78	29	0	767557632	50	6018
2026-01-16 13:13:41.92	97.33	28.91	-39.2	-40.3	21.4	0.00e+00	92	29	0	769654784	50	6672
2026-01-16 13:13:42.93	97.66	28.89	-39.9	-41.2	20.5	0.00e+00	78	29	0	771751936	52	6587
2026-01-16 13:13:43.94	97.99	28.87	-40.6	-42.0	19.8	0.00e+00	92	29	0	772800512	52	7206
2026-01-16 13:13:44.95	98.32	28.84	-40.6	-42.0	19.8	0.00e+00	79	29	0	774897664	54	6407
2026-01-16 13:13:45.96	98.65	28.82	-40.1	-41.5	20.4	0.00e+00	2	29	0	776994816	54	6057
2026-01-16 13:13:46.97	98.98	28.79	-39.9	-41.2	20.6	0.00e+00	5	29	0	779091968	54	5846
2026-01-16 13:13:47.98	99.31	28.77	-39.2	-40.3	21.5	0.00e+00	78	29	0	781189120	52	5958
2026-01-16 13:13:48.99	99.64	28.74	-39.0	-40.1	21.6	0.00e+00	92	29	0	783286272	52	5795
2026-01-16 13:13:50.00	99.97	28.71	-39.0	-40.2	21.5	0.00e+00	0	29	0	784334848	52	5843
2026-01-16 13:13:51.01	100.30	28.68	-39.2	-40.4	21.4	0.00e+00	92	29	0	786432000	52	5998
2026-01-16 13:13:52.02	100.63	28.65	-39.2	-40.4	21.2	0.00e+00	0	29	0	788529152	52	5984
2026-01-16 13:13:53.03	100.95	28.61	-39.4	-40.6	21.3	0.00e+00	0	29	0	790626304	52	6125
2026-01-16 13:13:54.04	101.28	28.58	-38.5	-39.6	22.1	0.00e+00	0	29	0	792723456	50	6146
2026-01-16 13:13:55.05	101.60	28.55	-38.6	-39.7	21.9	0.00e+00	0	29	0	793772032	50	6204
2026-01-16 13:13:56.06	101.93	28.51	-38.4	-39.5	22.2	0.00e+00	90	29	0	795869184	50	6041
2026-01-16 13:13:57.07	102.25	28.48	-38.7	-39.8	22.0	0.00e+00	0	29	0	797966336	50	6249
2026-01-16 13:13:58.08	102.57	28.44	-38.9	-40.0	21.7	0.00e+00	90	29	0	800063488	50	6459
2026-01-16 13:13:59.09	102.90	28.40	-39.0	-40.2	21.6	0.00e+00	2	29	0	802160640	50	6554
2026-01-16 13:14:00.10	103.22	28.36	-39.1	-40.3	21.4	0.00e+00	22	29	0	803209216	50	6659
2026-01-16 13:14:01.11	103.54	28.32	-38.9	-40.1	21.5	0.00e+00	82	29	0	805306368	50	6475
2026-01-16 13:14:02.12	103.86	28.28	-38.7	-39.8	21.9	0.00e+00	2	29	0	807403520	50	6263
2026-01-16 13:14:03.13	104.18	28.24	-38.4	-39.4	22.2	0.00e+00	1	29	0	809500672	50	6031
2026-01-16 13:14:04.15	104.50	28.20	-38.0	-39.0	22.6	0.00e+00	0	29	0	811597824	50	5751
2026-01-16 13:14:05.15	104.82	28.16	-37.7	-38.6	23.0	0.00e+00	90	29	0	812646400	48	6152
2026-01-16 13:14:06.17	105.14	28.11	-37.5	-38.5	23.1	0.00e+00	0	29	0	814743552	48	6051
2026-01-16 13:14:07.17	105.45	28.07	-37.5	-38.5	23.1	0.00e+00	87	29	0	816840704	48	6059
2026-01-16 13:14:08.18	105.76	28.02	-37.4	-38.3	23.2	0.00e+00	0	29	0	818937856	48	5946
2026-01-16 13:14:09.19	106.08	27.98	-37.4	-38.4	23.2	0.00e+00	0	29	0	821035008	48	5977
2026-01-16 13:14:10.20	106.39	27.93	-37.1	-38.0	23.3	0.00e+00	0	29	0	822083584	48	5758
2026-01-16 13:14:11.21	106.70	27.88	-37.2	-38.1	23.3	0.00e+00	0	29	0	824180736	48	5821
2026-01-16 13:14:12.22	107.01	27.83	-37.3	-38.3	23.4	0.00e+00	91	29	0	826277888	48	5898
2026-01-16 13:14:13.23	107.33	27.78	-37.5	-38.4	23.0	0.00e+00	0	29	0	828375040	48	6033
2026-01-16 13:14:14.24	107.64	27.73	-37.6	-38.6	22.9	0.00e+00	92	29	0	830472192	48	6141
2026-01-16 13:14:15.25	107.94	27.68	-37.7	-38.7	22.8	0.00e+00	0	29	0	831520768	48	6232
2026-01-16 13:14:16.26	108.25	27.63	-37.6	-38.6	22.9	0.00e+00	3	29	0	833617920	48	6117
2026-01-16 13:14:17.27	108.56	27.58	-37.5	-38.4	23.2	0.00e+00	0	29	0	835715072	48	6019
2026-01-16 13:14:18.28	108.86	27.52	-37.4	-38.3	23.2	0.00e+00	0	29	0	837812224	48	5952
2026-01-16 13:14:19.29	109.17	27.47	-37.1	-38.0	23.5	0.00e+00	92	29	0	839909376	48	5718
2026-01-16 13:14:20.30	109.47	27.41	-36.9	-37.8	23.7	0.00e+00	0	29	0	840957952	48	5573
2026-01-16 13:14:21.31	109.78	27.36	-36.9	-37.8	23.6	0.00e+00	92	29	0	843055104	48	5591
2026-01-16 13:14:22.32	110.08	27.30	-36.7	-37.6	23.8	0.00e+00	1	29	0	845152256	46	6153
2026-01-16 13:14:23.33	110.38	27.24	-36.8	-37.7	23.7	0.00e+00	33	29	0	847249408	46	6233
2026-01-16 13:14:24.34	110.68	27.18	-37.2	-38.1	23.5	0.00e+00	79	29	0	849346560	46	6495
2026-01-16 13:14:25.35	110.98	27.13	-37.5	-38.5	23.1	0.00e+00	2	29	0	851443712	46	6774
2026-01-16 13:14:26.36	111.27	27.07	-37.7	-38.7	22.9	0.00e+00	61	29	0	852492288	46	6983
2026-01-16 13:14:27.37	111.57	27.01	-37.8	-38.7	22.8	0.00e+00	0	29	0	854589440	48	6234
2026-01-16 13:14:28.38	111.86	26.95	-37.8	-38.8	22.8	0.00e+00	92	29	0	856686592	48	6282
2026-01-16 13:14:29.39	112.16	26.88	-37.9	-38.9	22.5	0.00e+00	82	29	0	858783744	48	6345
2026-01-16 13:14:30.40	112.45	26.82	-38.1	-39.1	22.4	0.00e+00	90	29	0	860880896	48	6496
2026-01-16 13:14:31.41	112.74	26.76	-38.2	-39.2	22.4	0.00e+00	5	29	0	861929472	48	6609
2026-01-16 13:14:32.42	113.03	26.70	-38.0	-39.0	22.4	0.00e+00	5	29	0	864026624	48	6444
2026-01-16 13:14:33.43	113.32	26.63	-38.1	-39.1	22.6	0.00e+00	0	29	0	866123776	48	6507
2026-01-16 13:14:34.44	113.61	26.57	-37.7	-38.7	22.9	0.00e+00	5	29	0	868220928	48	6174
2026-01-16 13:14:35.45	113.90	26.50	-37.5	-38.5	23.0	0.00e+00	92	29	0	870318080	48	6039
2026-01-16 13:14:36.46	114.19	26.44	-37.4	-38.4	23.2	0.00e+00	5	29	0	871366656	48	5984
2026-01-16 13:14:37.47	114.47	26.37	-37.2	-38.1	23.3	0.00e+00	92	29	0	873463808	48	5811
2026-01-16 13:14:38.48	114.75	26.30	-37.2	-38.1	23.4	0.00e+00	1	29	0	875560960	48	5825
2026-01-16 13:14:39.49	115.04	26.24	-37.3	-38.2	23.3	0.00e+00	2	29	0	877658112	48	5892
2026-01-16 13:14:40.50	115.32	26.17	-37.5	-38.5	23.0	0.00e+00	69	29	0	879755264	48	6034
2026-01-16 13:14:41.51	115.60	26.10	-37.7	-38.7	22.8	0.00e+00	2	29	0	880803840	48	6221
2026-01-16 13:14:42.52	115.88	26.03	-38.0	-39.0	22.6	0.00e+00	92	29	0	882900992	48	6426
2026-01-16 13:14:43.53	116.16	25.96	-38.2	-39.3	22.3	0.00e+00	86	29	0	884998144	48	6635
2026-01-16 13:14:44.54	116.43	25.89	-38.2	-39.3	22.3	0.00e+00	90	29	0	887095296	48	6642
2026-01-16 13:14:45.55	116.71	25.82	-38.4	-39.4	22.2	0.00e+00	2	29	0	889192448	48	6764
2026-01-16 13:14:46.56	116.98	25.75	-38.3	-39.3	22.3	0.00e+00	0	29	0	891289600	48	6683
2026-01-16 13:14:47.57	117.26	25.68	-38.1	-39.2	22.5	0.00e+00	85	29	0	892338176	48	6542
2026-01-16 13:14:48.58	117.53	25.60	-38.1	-39.1	22.5	0.00e+00	84	29	0	894435328	48	6533
2026-01-16 13:14:49.59	117.80	25.53	-37.8	-38.8	22.8	0.00e+00	35	29	0	896532480	48	6274
2026-01-16 13:14:50.60	118.07	25.46	-37.5	-38.5	23.1	0.00e+00	0	29	0	898629632	48	6071
2026-01-16 13:14:51.61	118.34	25.38	-37.5	-38.4	23.1	0.00e+00	91	29	0	900726784	48	5991
2026-01-16 13:14:52.62	118.60	25.31	-37.3	-38.2	23.3	0.00e+00	0	29	0	901775360	48	5868
2026-01-16 13:14:53.63	118.87	25.24	-37.2	-38.2	23.3	0.00e+00	91	29	0	903872512	48	5840
2026-01-16 13:14:54.63	119.13	25.16	-37.2	-38.1	23.4	0.00e+00	0	29	0	905969664	48	5791
2026-01-16 13:14:55.65	119.40	25.09	-36.9	-37.8	23.6	0.00e+00	7	29	0	908066816	48	5598
2026-01-16 13:14:56.66	119.66	25.01	-36.9	-37.8	23.6	0.00e+00	0	30	0	910163968	48	5600
2026-01-16 13:14:57.67	119.92	24.93	-36.7	-37.5	23.8	0.00e+00	0	29	0	911212544	46	6097
2026-01-16 13:14:58.68	120.18	24.86	-36.7	-37.6	23.8	0.00e+00	91	29	0	913309696	46	6123
2026-01-16 13:14:59.69	120.44	24.78	-37.0	-37.9	23.5	0.00e+00	0	29	0	915406848	46	6352
2026-01-16 13:15:00.70	120.70	24.70	-37.3	-38.3	23.2	0.00e+00	92	30	0	917504000	46	6632
2026-01-16 13:15:01.71	120.95	24.63	-37.5	-38.5	23.0	0.00e+00	0	29	0	919601152	46	6816
2026-01-16 13:15:02.72	121.21	24.55	-37.5	-38.5	23.1	0.00e+00	81	29	0	920649728	46	6816
2026-01-16 13:15:03.73	121.46	24.47	-37.2	-38.1	23.4	0.00e+00	0	30	0	922746880	46	6501
2026-01-16 13:15:04.74	121.71	24.39	-36.9	-37.8	23.6	0.00e+00	81	29	0	924844032	46	6283
2026-01-16 13:15:05.75	121.96	24.31	-36.9	-37.8	23.7	0.00e+00	92	30	0	926941184	46	6248
2026-01-16 13:15:06.76	122.21	24.23	-37.1	-38.0	23.6	0.00e+00	1	29	0	929038336	46	6400
2026-01-16 13:15:07.77	122.46	24.15	-37.1	-38.0	23.4	0.00e+00	90	29	0	930086912	46	6456
2026-01-16 13:15:08.78	122.71	24.07	-37.3	-38.2	23.3	0.00e+00	0	30	0	932184064	46	6592
2026-01-16 13:15:09.79	122.96	23.99	-37.3	-38.2	23.3	0.00e+00	79	29	0	934281216	46	6580
2026-01-16 13:15:10.80	123.20	23.91	-37.4	-38.3	23.2	0.00e+00	79	30	0	936378368	46	6672
2026-01-16 13:15:11.81	123.44	23.83	-36.9	-37.8	23.7	0.00e+00	0	29	0	938475520	46	6265
2026-01-16 13:15:12.82	123.69	23.75	-37.0	-37.9	23.6	0.00e+00	79	29	0	939524096	46	6325
2026-01-16 13:15:13.83	123.93	23.67	-37.1	-38.1	23.3	0.00e+00	2	29	0	941621248	46	6480
2026-01-16 13:15:14.84	124.17	23.59	-37.3	-38.3	23.2	0.00e+00	92	29	0	943718400	46	6652
2026-01-16 13:15:15.85	124.41	23.51	-37.8	-38.8	22.8	0.00e+00	0	30	0	945815552	46	7028
2026-01-16 13:15:16.86	124.64	23.42	-37.7	-38.6	22.8	0.00e+00	92	29	0	947912704	48	6173
2026-01-16 13:15:17.87	124.88	23.34	-37.5	-38.5	22.9	0.00e+00	0	30	0	948961280	48	6065
2026-01-16 13:15:18.88	125.12	23.26	-37.2	-38.1	23.4	0.00e+00	1	30	0	951058432	48	5820
2026-01-16 13:15:19.89	125.35	23.18	-37.1	-38.0	23.4	0.00e+00	0	30	0	953155584	48	5723
2026-01-16 13:15:20.90	125.58	23.09	-37.3	-38.2	23.3	0.00e+00	0	30	0	955252736	48	5876
2026-01-16 13:15:21.91	125.81	23.01	-37.7	-38.7	22.8	0.00e+00	92	30	0	957349888	48	6232
2026-01-16 13:15:22.92	126.05	22.93	-38.4	-39.5	22.1	0.00e+00	2	30	0	959447040	48	6817
2026-01-16 13:15:23.93	126.27	22.84	-38.8	-39.9	21.7	0.00e+00	91	30	0	960495616	50	6367
2026-01-16 13:15:24.94	126.50	22.76	-38.7	-39.9	21.8	0.00e+00	81	30	0	962592768	50	6324
2026-01-16 13:15:25.95	126.73	22.68	-38.5	-39.6	22.0	0.00e+00	79	30	0	964689920	50	6148
2026-01-16 13:15:26.96	126.95	22.59	-38.1	-39.1	22.4	0.00e+00	0	30	0	966787072	50	5825
2026-01-16 13:15:27.97	127.18	22.51	-38.2	-39.2	22.4	0.00e+00	0	30	0	968884224	50	5855
2026-01-16 13:15:28.97	127.40	22.42	-37.8	-38.8	22.8	0.00e+00	92	29	0	969932800	50	5604
2026-01-16 13:15:29.98	127.62	22.34	-37.8	-38.8	22.7	0.00e+00	0	29	0	972029952	50	5595
2026-01-16 13:15:30.99	127.84	22.25	-38.2	-39.2	22.4	0.00e+00	91	30	0	974127104	50	5863
2026-01-16 13:15:32.00	128.06	22.17	-38.3	-39.3	22.2	0.00e+00	2	30	0	976224256	50	5943
2026-01-16 13:15:33.01	128.28	22.08	-38.1	-39.1	22.5	0.00e+00	92	30	0	978321408	50	5793
2026-01-16 13:15:34.02	128.50	22.00	-37.9	-38.9	22.7	0.00e+00	0	30	0	979369984	50	5658
2026-01-16 13:15:35.04	128.72	21.91	-37.6	-38.6	22.9	0.00e+00	3	30	0	981467136	48	6132
2026-01-16 13:15:36.04	128.93	21.83	-37.1	-38.1	23.4	0.00e+00	82	30	0	983564288	48	5770
2026-01-16 13:15:37.05	129.14	21.74	-36.8	-37.7	23.6	0.00e+00	2	30	0	985661440	48	5543
2026-01-16 13:15:38.06	129.36	21.66	-37.0	-38.0	23.3	0.00e+00	92	30	0	987758592	48	5701
2026-01-16 13:15:39.07	129.57	21.57	-37.6	-38.6	22.9	0.00e+00	0	30	0	988807168	48	6133
2026-01-16 13:15:40.08	129.78	21.48	-38.2	-39.2	22.3	0.00e+00	91	30	0	990904320	48	6597
2026-01-16 13:15:41.09	129.99	21.40	-38.2	-39.2	22.3	0.00e+00	0	30	0	993001472	48	6566
2026-01-16 13:15:42.10	130.20	21.31	-38.2	-39.2	22.3	0.00e+00	2	30	0	995098624	48	6604
2026-01-16 13:15:43.11	130.40	21.23	-38.1	-39.1	22.4	0.00e+00	0	30	0	997195776	48	6495
2026-01-16 13:15:44.12	130.61	21.14	-37.5	-38.5	23.0	0.00e+00	3	30	0	998244352	48	6047
2026-01-16 13:15:45.13	130.82	21.05	-37.5	-38.5	22.9	0.00e+00	92	30	0	1000341504	48	6066
2026-01-16 13:15:46.14	131.02	20.97	-37.5	-38.4	23.0	0.00e+00	0	30	0	1002438656	48	6003
2026-01-16 13:15:47.15	131.22	20.88	-37.7	-38.7	22.8	0.00e+00	92	30	0	1004535808	48	6223
2026-01-16 13:15:48.16	131.42	20.80	-38.1	-39.1	22.4	0.00e+00	80	30	0	1006632960	48	6511
2026-01-16 13:15:49.17	131.62	20.71	-38.4	-39.4	22.2	0.00e+00	80	30	0	1007681536	48	6768
2026-01-16 13:15:50.18	131.82	20.62	-38.3	-39.4	22.2	0.00e+00	0	30	0	1009778688	48	6712
2026-01-16 13:15:51.19	132.02	20.54	-37.9	-39.0	22.6	0.00e+00	80	30	0	1011875840	48	6407
2026-01-16 13:15:52.20	132.22	20.45	-37.9	-38.9	22.6	0.00e+00	92	30	0	1013972992	48	6390
2026-01-16 13:15:53.21	132.41	20.36	-37.7	-38.7	22.7	0.00e+00	0	30	0	1016070144	48	6206
2026-01-16 13:15:54.22	132.61	20.28	-37.2	-38.1	23.4	0.00e+00	90	30	0	1017118720	48	5813
2026-01-16 13:15:55.23	132.80	20.19	-37.0	-37.9	23.5	0.00e+00	0	30	0	1019215872	48	5662
2026-01-16 13:15:56.24	133.00	20.10	-37.1	-38.0	23.4	0.00e+00	74	30	0	1021313024	48	5746
2026-01-16 13:15:57.25	133.19	20.02	-37.2	-38.2	23.2	0.00e+00	0	30	0	1023410176	48	5848
2026-01-16 13:15:58.26	133.38	19.93	-37.4	-38.4	23.0	0.00e+00	0	30	0	1025507328	48	5967
2026-01-16 13:15:59.27	133.57	19.84	-37.4	-38.4	23.0	0.00e+00	0	30	0	1027604480	48	5995
2026-01-16 13:16:00.28	133.76	19.75	-37.3	-38.3	23.1	0.00e+00	0	30	0	1028653056	48	5913
2026-01-16 13:16:01.29	133.95	19.67	-37.3	-38.2	23.2	0.00e+00	92	30	0	1030750208	48	5859
2026-01-16 13:16:02.30	134.13	19.58	-37.0	-37.9	23.4	0.00e+00	2	30	0	1032847360	48	5664
2026-01-16 13:16:03.31	134.32	19.49	-37.0	-37.9	23.5	0.00e+00	0	30	0	1034944512	48	5659
2026-01-16 13:16:04.32	134.50	19.41	-37.0	-38.0	23.5	0.00e+00	81	30	0	1037041664	48	5696
2026-01-16 13:16:05.33	134.69	19.32	-37.1	-38.1	23.3	0.00e+00	0	30	0	1038090240	48	5763
2026-01-16 13:16:06.34	134.87	19.23	-37.3	-38.3	23.1	0.00e+00	0	30	0	1040187392	48	5927
2026-01-16 13:16:07.35	135.05	19.15	-37.3	-38.2	23.1	0.00e+00	0	30	0	1042284544	48	5889
2026-01-16 13:16:08.36	135.23	19.06	-37.4	-38.4	23.0	0.00e+00	92	30	0	1044381696	48	5973
2026-01-16 13:16:09.37	135.41	18.97	-37.3	-38.3	23.1	0.00e+00	80	30	0	1046478848	48	5900
2026-01-16 13:16:10.38	135.59	18.89	-37.2	-38.1	23.3	0.00e+00	92	30	0	1047527424	48	5815
2026-01-16 13:16:11.39	135.77	18.80	-37.0	-37.9	23.5	0.00e+00	0	30	0	1049624576	48	5663
2026-01-16 13:16:12.40	135.94	18.71	-37.0	-37.9	23.5	0.00e+00	81	30	0	1051721728	48	5657
2026-01-16 13:16:13.41	136.12	18.63	-36.8	-37.7	23.6	0.00e+00	5	30	0	1053818880	48	5553
2026-01-16 13:16:14.42	136.29	18.54	-36.7	-37.6	23.4	0.00e+00	5	30	0	1055916032	46	6167
2026-01-16 13:16:15.43	136.47	18.46	-36.6	-37.5	23.8	0.00e+00	92	30	0	1056964608	46	6075
2026-01-16 13:16:16.44	136.64	18.37	-36.5	-37.4	23.8	0.00e+00	0	30	0	1059061760	46	6000
2026-01-16 13:16:17.45	136.81	18.28	-36.5	-37.3	23.9	0.00e+00	92	30	0	1061158912	46	5949
2026-01-16 13:16:18.46	136.98	18.20	-36.3	-37.2	24.0	0.00e+00	0	30	0	1063256064	46	5857
2026-01-16 13:16:19.47	137.15	18.11	-36.4	-37.3	24.0	0.00e+00	6	30	0	1065353216	46	5911
2026-01-16 13:16:20.48	137.32	18.02	-36.5	-37.3	24.0	0.00e+00	0	30	0	1066401792	46	5959
2026-01-16 13:16:21.49	137.49	17.94	-36.2	-37.0	24.2	0.00e+00	6	30	0	1068498944	46	5761
2026-01-16 13:16:22.50	137.66	17.85	-36.3	-37.1	24.1	0.00e+00	0	30	0	1070596096	46	5828
2026-01-16 13:16:23.51	137.82	17.77	-36.2	-37.0	24.1	0.00e+00	0	30	0	1072693248	46	5755
2026-01-16 13:16:24.52	137.99	17.68	-36.3	-37.1	24.1	0.00e+00	90	30	0	1074790400	46	5817
2026-01-16 13:16:25.53	138.15	17.59	-36.2	-37.1	24.1	0.00e+00	5	30	0	1075838976	46	5807
2026-01-16 13:16:26.54	138.32	17.51	-36.4	-37.2	24.0	0.00e+00	85	30	0	1077936128	46	5885
2026-01-16 13:16:27.55	138.48	17.42	-36.4	-37.2	24.0	0.00e+00	0	30	0	1080033280	46	5893
2026-01-16 13:16:28.56	138.64	17.34	-36.6	-37.5	23.8	0.00e+00	3	30	0	1082130432	46	6079
2026-01-16 13:16:29.57	138.80	17.25	-36.7	-37.6	23.7	0.00e+00	0	30	0	1084227584	46	6162
2026-01-16 13:16:30.58	138.96	17.17	-36.8	-37.7	23.7	0.00e+00	84	30	0	1085276160	46	6184
2026-01-16 13:16:31.59	139.12	17.08	-36.9	-37.8	23.4	0.00e+00	92	30	0	1087373312	46	6305
2026-01-16 13:16:32.60	139.28	17.00	-36.9	-37.8	23.6	0.00e+00	0	30	0	1089470464	46	6258
2026-01-16 13:16:33.60	139.44	16.91	-36.9	-37.8	23.5	0.00e+00	65	30	0	1091567616	46	6251
2026-01-16 13:16:34.61	139.59	16.83	-37.0	-37.9	23.4	0.00e+00	1	30	0	1093664768	46	6390
2026-01-16 13:16:35.62	139.75	16.74	-36.7	-37.7	23.6	0.00e+00	2	30	0	1095761920	46	6174
2026-01-16 13:16:36.63	139.90	16.66	-36.6	-37.5	23.8	0.00e+00	7	30	0	1096810496	46	6087
2026-01-16 13:16:37.64	140.06	16.57	-36.6	-37.5	23.7	0.00e+00	6	30	0	1098907648	46	6100
2026-01-16 13:16:38.65	140.21	16.49	-36.5	-37.4	23.8	0.00e+00	92	30	0	1101004800	46	5979
2026-01-16 13:16:39.66	140.36	16.40	-36.6	-37.5	23.7	0.00e+00	0	30	0	1103101952	46	6050
2026-01-16 13:16:40.67	140.51	16.32	-36.6	-37.5	23.7	0.00e+00	92	30	0	1105199104	46	6067
2026-01-16 13:16:41.68	140.66	16.23	-36.6	-37.4	23.8	0.00e+00	0	30	0	1106247680	46	6032
2026-01-16 13:16:42.69	140.81	16.15	-36.6	-37.5	23.7	0.00e+00	6	30	0	1108344832	46	6074
2026-01-16 13:16:43.70	140.96	16.07	-36.7	-37.6	23.6	0.00e+00	7	30	0	1110441984	46	6146
2026-01-16 13:16:44.71	141.11	15.98	-36.8	-37.7	23.6	0.00e+00	82	30	0	1112539136	46	6237
2026-01-16 13:16:45.72	141.26	15.90	-36.9	-37.9	23.4	0.00e+00	6	30	0	1114636288	46	6324
2026-01-16 13:16:46.73	141.41	15.81	-37.0	-37.9	23.4	0.00e+00	0	30	0	1115684864	46	6348
2026-01-16 13:16:47.74	141.55	15.73	-37.0	-37.9	23.3	0.00e+00	92	30	0	1117782016	46	6370
2026-01-16 13:16:48.75	141.70	15.65	-37.0	-37.9	23.4	0.00e+00	0	30	0	1119879168	46	6346
2026-01-16 13:16:49.76	141.84	15.56	-37.0	-38.0	23.3	0.00e+00	27	30	0	1121976320	46	6405
2026-01-16 13:16:50.77	141.98	15.48	-37.0	-38.0	23.3	0.00e+00	0	30	0	1124073472	46	6403
2026-01-16 13:16:51.78	142.13	15.40	-37.3	-38.3	23.0	0.00e+00	0	30	0	1125122048	46	6624
2026-01-16 13:16:52.78	142.27	15.31	-37.3	-38.3	22.9	0.00e+00	14	30	0	1127219200	46	6651
2026-01-16 13:16:53.80	142.41	15.23	-37.4	-38.4	22.8	0.00e+00	81	30	0	1129316352	46	6755
2026-01-16 13:16:54.81	142.55	15.15	-37.7	-38.7	22.6	0.00e+00	92	30	0	1131413504	46	6956
2026-01-16 13:16:55.82	142.69	15.07	-37.8	-38.8	22.5	0.00e+00	0	30	0	1133510656	48	6288
2026-01-16 13:16:56.83	142.83	14.98	-37.8	-38.8	22.4	0.00e+00	91	30	0	1134559232	48	6298
2026-01-16 13:16:57.84	142.97	14.90	-37.8	-38.8	22.4	0.00e+00	0	30	0	1136656384	48	6311
2026-01-16 13:16:58.85	143.10	14.82	-37.8	-38.9	22.3	0.00e+00	2	30	0	1138753536	48	6322
2026-01-16 13:16:59.86	143.24	14.74	-37.9	-38.9	22.3	0.00e+00	0	30	0	1140850688	48	6351
2026-01-16 13:17:00.87	143.38	14.65	-37.8	-38.9	22.3	0.00e+00	0	30	0	1142947840	48	6334
2026-01-16 13:17:01.88	143.51	14.57	-37.8	-38.8	22.4	0.00e+00	92	30	0	1143996416	48	6302
2026-01-16 13:17:02.89	143.65	14.49	-37.8	-38.9	22.3	0.00e+00	0	30	0	1146093568	48	6327
2026-01-16 13:17:03.90	143.78	14.41	-37.9	-39.0	22.1	0.00e+00	92	30	0	1148190720	48	6416
2026-01-16 13:17:04.91	143.91	14.33	-37.9	-39.0	22.3	0.00e+00	0	30	0	1150287872	48	6401
2026-01-16 13:17:05.92	144.05	14.25	-38.1	-39.1	22.1	0.00e+00	4	30	0	1152385024	48	6513
2026-01-16 13:17:06.93	144.18	14.16	-37.9	-39.0	22.3	0.00e+00	0	30	0	1153433600	48	6407
2026-01-16 13:17:07.94	144.31	14.08	-38.1	-39.2	22.2	0.00e+00	82	30	0	1155530752	48	6542
2026-01-16 13:17:08.95	144.44	14.00	-38.2	-39.3	21.9	0.00e+00	0	30	0	1157627904	48	6669
2026-01-16 13:17:09.96	144.57	13.92	-38.2	-39.3	22.0	0.00e+00	81	30	0	1159725056	48	6637
2026-01-16 13:17:10.97	144.70	13.84	-38.4	-39.5	21.8	0.00e+00	92	30	0	1161822208	48	6771
2026-01-16 13:17:11.98	144.83	13.76	-38.4	-39.5	21.7	0.00e+00	0	30	0	1163919360	48	6813
2026-01-16 13:17:12.99	144.95	13.68	-38.5	-39.6	21.7	0.00e+00	92	30	0	1164967936	48	6908
2026-01-16 13:17:14.00	145.08	13.60	-38.5	-39.7	21.6	0.00e+00	2	30	0	1167065088	48	6951
2026-01-16 13:17:15.01	145.21	13.52	-38.4	-39.5	21.7	0.00e+00	0	30	0	1169162240	48	6819
2026-01-16 13:17:16.02	145.33	13.44	-38.5	-39.6	21.7	0.00e+00	0	30	0	1171259392	48	6892
2026-01-16 13:17:17.03	145.46	13.36	-38.5	-39.6	21.7	0.00e+00	0	30	0	1173356544	48	6892
2026-01-16 13:17:18.04	145.58	13.28	-38.4	-39.5	21.7	0.00e+00	91	30	0	1174405120	48	6786
2026-01-16 13:17:19.05	145.71	13.20	-38.2	-39.3	22.0	0.00e+00	2	30	0	1176502272	48	6647
2026-01-16 13:17:20.06	145.83	13.12	-38.2	-39.3	22.0	0.00e+00	92	30	0	1178599424	48	6645
2026-01-16 13:17:21.07	145.95	13.04	-38.3	-39.3	21.9	0.00e+00	0	30	0	1180696576	48	6680
2026-01-16 13:17:22.08	146.07	12.96	-38.2	-39.2	22.1	0.00e+00	0	30	0	1182793728	48	6591
2026-01-16 13:17:23.09	146.20	12.88	-37.8	-38.8	22.5	0.00e+00	0	30	0	1183842304	48	6262
2026-01-16 13:17:24.10	146.32	12.80	-37.8	-38.8	22.4	0.00e+00	2	30	0	1185939456	48	6301
2026-01-16 13:17:25.11	146.44	12.72	-37.9	-38.9	22.3	0.00e+00	92	30	0	1188036608	48	6330
2026-01-16 13:17:26.12	146.56	12.65	-37.9	-38.9	22.3	0.00e+00	81	30	0	1190133760	48	6383
2026-01-16 13:17:27.13	146.67	12.57	-37.8	-38.8	22.3	0.00e+00	92	30	0	1192230912	48	6314
2026-01-16 13:17:28.14	146.79	12.49	-38.0	-39.0	22.2	0.00e+00	0	30	0	1193279488	48	6441
2026-01-16 13:17:29.15	146.91	12.41	-38.1	-39.1	22.1	0.00e+00	0	30	0	1195376640	48	6537
2026-01-16 13:17:30.17	147.03	12.33	-38.3	-39.3	22.0	0.00e+00	2	30	0	1197473792	48	6685
2026-01-16 13:17:31.17	147.14	12.26	-38.1	-39.2	22.0	0.00e+00	0	30	0	1199570944	48	6597
2026-01-16 13:17:32.19	147.26	12.18	-38.4	-39.5	21.8	0.00e+00	70	30	0	1201668096	48	6827
2026-01-16 13:17:33.20	147.38	12.10	-38.4	-39.5	21.8	0.00e+00	80	30	0	1202716672	48	6786
2026-01-16 13:17:34.21	147.49	12.02	-38.4	-39.6	21.6	0.00e+00	92	30	0	1204813824	48	6857
2026-01-16 13:17:35.22	147.60	11.94	-38.2	-39.2	21.9	0.00e+00	0	30	0	1206910976	48	6600
2026-01-16 13:17:36.23	147.72	11.87	-38.0	-39.1	22.0	0.00e+00	9	30	0	1209008128	48	6469
2026-01-16 13:17:37.24	147.83	11.79	-37.8	-38.8	22.3	0.00e+00	2	30	0	1211105280	48	6297
