passes_logs/2026/01/16/R4.6S_Anadyr/R4.6S_Anadyr__20260116_180628_NOAA_20_JPSS-1_rec.log

#Pass ID: 20260116_180628_NOAA 20 (JPSS-1)
#Satellite: NOAA 20 (JPSS-1)
#Configuration: NOAA 20
#almurnet v.1.7.20251203
#Start time: 2026-01-16 18:06:30

#Version: 2.2.20231116
#Station: R4.6S_Anadyr
#Location: 177.4865 lon 64.73178 lat
#TLE: 1 43013U 17073A   26015.89389188  .00000026  00000+0  33113-4 0  9999
#TLE: 2 43013  98.7636 316.8238 0001460  37.8997 322.2282 14.19536128422860

#Time	Az	El	Level	Level2	SNR	BER	BlckErr	Temp	State	Recorded	gain1	gain2
2026-01-16 18:06:30.32	37.35	0.08	-48.5	-66.2	3.5	3.02e+01	0	27	0	0	60	78256
2026-01-16 18:06:31.32	37.29	0.13	-48.1	-63.4	3.6	1.51e+00	0	28	104	0	60	53342
2026-01-16 18:06:32.33	37.22	0.18	-48.1	-63.3	3.6	1.51e+00	0	28	104	0	60	52904
2026-01-16 18:06:33.34	37.15	0.23	-48.1	-63.4	3.6	1.51e+00	0	28	104	0	60	53275
2026-01-16 18:06:34.35	37.08	0.28	-48.1	-63.3	3.6	1.51e+00	0	28	104	0	60	52752
2026-01-16 18:06:35.36	37.01	0.33	-48.3	-63.5	3.6	1.51e+00	0	28	104	0	60	53942
2026-01-16 18:06:36.37	36.94	0.38	-48.1	-63.3	3.6	1.51e+00	0	28	104	0	60	52698
2026-01-16 18:06:37.38	36.87	0.43	-48.0	-63.2	3.6	1.51e+00	0	28	104	0	60	52521
2026-01-16 18:06:38.39	36.80	0.49	-48.0	-63.3	3.6	1.51e+00	0	28	104	0	60	52601
2026-01-16 18:06:39.40	36.73	0.54	-47.9	-63.1	3.6	1.51e+00	0	28	104	0	60	51644
2026-01-16 18:06:40.41	36.66	0.59	-47.9	-63.1	3.6	1.51e+00	0	28	104	0	60	51567
2026-01-16 18:06:41.42	36.59	0.64	-47.8	-63.0	3.6	1.51e+00	0	28	104	0	60	50928
2026-01-16 18:06:42.43	36.52	0.69	-47.7	-62.9	3.6	1.51e+00	0	28	104	0	60	50600
2026-01-16 18:06:43.43	36.45	0.75	-47.6	-62.8	3.6	1.51e+00	0	28	104	0	60	50082
2026-01-16 18:06:44.44	36.38	0.80	-47.5	-62.7	3.6	1.51e+00	0	28	104	0	60	49247
2026-01-16 18:06:45.45	36.30	0.85	-47.3	-62.6	3.6	1.51e+00	0	28	104	0	60	48590
2026-01-16 18:06:46.46	36.23	0.90	-46.9	-62.1	3.6	1.51e+00	0	28	104	0	60	45847
2026-01-16 18:06:47.47	36.16	0.95	-46.3	-61.5	3.6	1.51e+00	0	28	104	0	60	42995
2026-01-16 18:06:48.48	36.09	1.01	-46.3	-61.5	3.6	1.51e+00	0	28	104	0	60	42761
2026-01-16 18:06:49.49	36.01	1.06	-46.3	-61.5	3.6	1.51e+00	0	28	104	0	60	42802
2026-01-16 18:06:50.50	35.94	1.11	-46.3	-61.5	3.6	1.51e+00	0	28	104	0	60	42798
2026-01-16 18:06:51.51	35.87	1.16	-46.3	-61.4	3.6	1.51e+00	0	28	104	0	60	42642
2026-01-16 18:06:52.52	35.79	1.21	-46.3	-61.5	3.6	1.51e+00	0	28	104	0	60	42803
2026-01-16 18:06:53.53	35.72	1.27	-46.3	-61.5	3.6	1.51e+00	0	28	104	0	60	42962
2026-01-16 18:06:54.54	35.65	1.32	-46.3	-61.5	3.6	1.51e+00	0	28	104	0	60	43075
2026-01-16 18:06:55.55	35.57	1.37	-46.3	-61.4	3.6	1.51e+00	0	28	104	0	60	42492
2026-01-16 18:06:56.56	35.50	1.42	-46.3	-61.4	3.6	1.51e+00	0	28	104	0	60	42652
2026-01-16 18:06:57.56	35.42	1.48	-46.3	-61.4	3.6	1.51e+00	0	28	104	0	60	42336
2026-01-16 18:06:58.58	35.35	1.53	-46.3	-61.4	3.6	1.51e+00	0	28	104	0	60	42562
2026-01-16 18:06:59.59	35.27	1.58	-46.3	-61.4	3.6	1.51e+00	0	28	104	0	60	42459
2026-01-16 18:07:00.60	35.19	1.64	-46.3	-61.4	3.6	1.51e+00	0	28	104	0	60	42652
2026-01-16 18:07:01.60	35.12	1.69	-46.3	-61.5	3.6	1.51e+00	0	28	104	0	60	42855
2026-01-16 18:07:02.61	35.04	1.74	-46.3	-61.5	3.6	1.51e+00	0	28	104	0	60	43085
2026-01-16 18:07:03.62	34.97	1.79	-46.3	-61.5	3.6	1.51e+00	0	28	104	0	60	42854
2026-01-16 18:07:04.63	34.89	1.85	-46.3	-61.5	3.6	1.51e+00	0	28	104	0	60	42798
2026-01-16 18:07:05.64	34.81	1.90	-46.3	-61.4	3.6	1.51e+00	0	28	104	0	60	42541
2026-01-16 18:07:06.65	34.73	1.95	-46.3	-61.2	3.6	1.51e+00	0	28	104	0	60	41648
2026-01-16 18:07:07.66	34.66	2.01	-46.3	-61.2	3.6	1.51e+00	0	28	104	0	60	41404
2026-01-16 18:07:08.67	34.58	2.06	-46.3	-61.1	3.6	1.51e+00	0	28	104	0	60	41085
2026-01-16 18:07:09.68	34.50	2.11	-46.3	-61.2	3.6	1.51e+00	0	28	104	0	60	41402
2026-01-16 18:07:10.69	34.42	2.17	-46.3	-61.3	3.6	1.51e+00	0	28	104	0	60	41888
2026-01-16 18:07:11.70	34.34	2.22	-46.3	-61.4	3.6	1.51e+00	0	28	104	0	60	42646
2026-01-16 18:07:12.71	34.26	2.27	-46.3	-61.4	3.6	1.51e+00	0	29	104	0	60	42599
2026-01-16 18:07:13.72	34.18	2.33	-46.3	-61.4	3.6	1.51e+00	0	28	104	0	60	42489
2026-01-16 18:07:14.73	34.10	2.38	-46.3	-61.4	3.6	1.51e+00	0	28	104	0	60	42620
2026-01-16 18:07:15.75	34.02	2.43	-46.3	-61.5	3.6	1.51e+00	0	28	104	0	60	42788
2026-01-16 18:07:16.75	33.94	2.49	-46.3	-61.4	3.6	1.51e+00	0	28	104	0	60	42552
2026-01-16 18:07:17.77	33.86	2.54	-46.3	-61.1	3.6	1.51e+00	0	28	104	0	60	40948
2026-01-16 18:07:18.78	33.78	2.59	-46.3	-60.8	3.6	1.51e+00	0	28	104	0	60	39453
2026-01-16 18:07:19.79	33.70	2.65	-46.3	-60.6	3.6	1.51e+00	0	29	104	0	60	38620
2026-01-16 18:07:20.80	33.61	2.70	-46.3	-60.7	3.6	1.51e+00	0	28	104	0	60	39021
2026-01-16 18:07:21.81	33.53	2.75	-46.3	-61.2	3.6	1.51e+00	0	28	104	0	60	41531
2026-01-16 18:07:22.82	33.45	2.81	-46.2	-60.1	3.6	1.51e+00	0	28	104	0	60	36728
2026-01-16 18:07:23.83	33.37	2.86	-45.8	-55.4	5.3	1.33e+00	0	29	104	0	60	21192
2026-01-16 18:07:24.84	33.28	2.92	-45.4	-52.2	7.3	3.25e-01	92	28	0	1048576	60	14644
2026-01-16 18:07:25.85	33.20	2.97	-44.8	-49.9	10.0	1.71e-02	81	29	0	2097152	60	11270
2026-01-16 18:07:26.86	33.12	3.02	-44.3	-48.6	11.6	1.04e-03	92	28	0	4194304	60	9751
2026-01-16 18:07:27.87	33.03	3.08	-44.0	-47.9	12.7	2.46e-04	0	28	0	6291456	60	8963
2026-01-16 18:07:28.88	32.95	3.13	-44.5	-49.1	10.9	1.02e-04	0	28	0	8388608	60	10330
2026-01-16 18:07:29.89	32.86	3.19	-42.9	-45.7	14.8	5.03e-05	2	29	0	10485760	60	6992
2026-01-16 18:07:30.90	32.78	3.24	-46.2	-61.1	3.6	2.13e-05	0	28	104	11534336	60	41158
2026-01-16 18:07:31.91	32.69	3.29	-46.1	-55.7	4.2	1.51e+00	0	28	104	11534336	60	21951
2026-01-16 18:07:32.92	32.61	3.35	-44.6	-49.4	10.3	2.56e-04	0	28	0	11534336	60	10720
2026-01-16 18:07:33.92	32.52	3.40	-44.0	-47.8	12.6	1.56e-02	91	29	0	13631488	60	8915
2026-01-16 18:07:34.93	32.43	3.46	-44.0	-47.8	12.7	8.54e-05	0	28	0	15728640	60	8857
2026-01-16 18:07:35.94	32.35	3.51	-43.1	-46.0	14.9	2.20e-06	2	28	0	16777216	60	7237
2026-01-16 18:07:36.95	32.26	3.57	-42.0	-44.2	16.2	0.00e+00	0	28	0	18874368	58	6605
2026-01-16 18:07:37.96	32.17	3.62	-42.0	-44.4	16.4	0.00e+00	0	28	0	20971520	58	6715
2026-01-16 18:07:38.97	32.08	3.68	-41.6	-43.7	17.0	0.00e+00	13	28	0	23068672	56	7005
2026-01-16 18:07:39.98	32.00	3.73	-41.3	-43.2	17.5	0.00e+00	82	28	0	25165824	56	6606
2026-01-16 18:07:40.99	31.91	3.78	-41.3	-43.2	17.5	0.00e+00	92	29	0	26214400	56	6572
2026-01-16 18:07:42.00	31.82	3.84	-41.3	-43.3	17.3	0.00e+00	0	28	0	28311552	54	7462
2026-01-16 18:07:43.01	31.73	3.89	-41.1	-43.0	17.7	0.00e+00	92	28	0	30408704	54	7204
2026-01-16 18:07:44.02	31.64	3.95	-40.5	-42.2	18.4	0.00e+00	81	28	0	32505856	54	6577
2026-01-16 18:07:45.03	31.55	4.00	-41.1	-42.9	17.7	0.00e+00	81	28	0	34603008	54	7170
2026-01-16 18:07:46.04	31.46	4.06	-40.9	-42.7	18.1	0.00e+00	0	28	0	35651584	54	6928
2026-01-16 18:07:47.05	31.37	4.11	-41.1	-43.0	17.8	0.00e+00	0	28	0	37748736	54	7179
2026-01-16 18:07:48.06	31.28	4.17	-41.1	-43.0	17.7	0.00e+00	92	28	0	39845888	54	7186
2026-01-16 18:07:49.07	31.19	4.22	-41.1	-43.0	17.6	0.00e+00	82	28	0	41943040	54	7203
2026-01-16 18:07:50.08	31.10	4.28	-40.9	-42.6	18.1	0.00e+00	92	28	0	44040192	54	6921
2026-01-16 18:07:51.08	31.01	4.33	-40.8	-42.6	17.9	0.00e+00	0	28	0	45088768	54	6906
2026-01-16 18:07:52.09	30.91	4.39	-40.8	-42.5	18.0	0.00e+00	2	28	0	47185920	54	6847
2026-01-16 18:07:53.10	30.82	4.44	-41.2	-43.1	17.6	0.00e+00	2	28	0	49283072	54	7334
2026-01-16 18:07:54.11	30.73	4.50	-41.5	-43.4	17.5	0.00e+00	2	28	0	51380224	54	7564
2026-01-16 18:07:55.12	30.63	4.55	-41.0	-42.8	18.1	0.00e+00	87	28	0	53477376	54	7056
2026-01-16 18:07:56.13	30.54	4.61	-41.1	-43.0	17.8	0.00e+00	0	28	0	54525952	54	7184
2026-01-16 18:07:57.14	30.45	4.66	-41.2	-43.1	17.7	0.00e+00	92	28	0	56623104	54	7281
2026-01-16 18:07:58.15	30.35	4.72	-41.3	-43.2	17.5	0.00e+00	0	28	0	58720256	54	7339
2026-01-16 18:07:59.16	30.26	4.78	-41.1	-42.9	18.0	0.00e+00	0	28	0	60817408	54	7142
2026-01-16 18:08:00.17	30.16	4.83	-40.9	-42.6	18.1	0.00e+00	0	28	0	62914560	54	6927
2026-01-16 18:08:01.18	30.07	4.89	-41.0	-42.8	18.0	0.00e+00	0	28	0	65011712	54	7044
2026-01-16 18:08:02.19	29.97	4.94	-40.9	-42.6	18.3	0.00e+00	87	28	0	66060288	54	6893
2026-01-16 18:08:03.20	29.87	5.00	-41.0	-42.7	18.2	0.00e+00	0	28	0	68157440	54	6981
2026-01-16 18:08:04.21	29.78	5.05	-40.9	-42.6	18.2	0.00e+00	92	28	0	70254592	54	6875
2026-01-16 18:08:05.22	29.68	5.11	-40.8	-42.5	18.2	0.00e+00	81	28	0	72351744	54	6844
2026-01-16 18:08:06.23	29.58	5.16	-41.0	-42.7	18.2	0.00e+00	92	28	0	74448896	54	6972
2026-01-16 18:08:07.24	29.48	5.22	-40.9	-42.6	18.2	0.00e+00	81	28	0	75497472	54	6921
2026-01-16 18:08:08.25	29.39	5.28	-41.0	-42.7	18.1	0.00e+00	0	28	0	77594624	54	6991
2026-01-16 18:08:09.26	29.29	5.33	-41.0	-42.8	18.1	0.00e+00	72	28	0	79691776	54	7024
2026-01-16 18:08:10.27	29.19	5.39	-41.2	-43.0	18.0	0.00e+00	2	28	0	81788928	54	7190
2026-01-16 18:08:11.28	29.09	5.44	-41.2	-43.0	17.9	0.00e+00	92	28	0	82837504	54	7242
2026-01-16 18:08:12.29	28.99	5.50	-41.0	-42.7	18.3	0.00e+00	0	28	0	84934656	54	6952
2026-01-16 18:08:13.30	28.89	5.55	-41.1	-42.9	18.1	0.00e+00	91	28	0	87031808	54	7104
2026-01-16 18:08:14.31	28.79	5.61	-41.1	-42.8	18.3	0.00e+00	0	29	0	89128960	54	7057
2026-01-16 18:08:15.31	28.69	5.67	-40.9	-42.6	18.3	0.00e+00	2	29	0	91226112	54	6881
2026-01-16 18:08:16.32	28.59	5.72	-41.0	-42.7	18.3	0.00e+00	0	28	0	93323264	54	6974
2026-01-16 18:08:17.33	28.48	5.78	-40.9	-42.7	18.3	0.00e+00	0	28	0	94371840	54	6931
2026-01-16 18:08:18.34	28.38	5.83	-41.0	-42.7	18.2	0.00e+00	88	28	0	96468992	54	6967
2026-01-16 18:08:19.35	28.28	5.89	-41.0	-42.7	18.3	0.00e+00	0	28	0	98566144	54	6972
2026-01-16 18:08:20.36	28.18	5.95	-40.9	-42.6	18.3	0.00e+00	92	28	0	100663296	54	6912
2026-01-16 18:08:21.37	28.07	6.00	-40.9	-42.7	18.3	0.00e+00	0	28	0	102760448	54	6944
2026-01-16 18:08:22.38	27.97	6.06	-40.8	-42.4	18.6	0.00e+00	81	28	0	103809024	54	6757
2026-01-16 18:08:23.39	27.86	6.12	-40.7	-42.4	18.6	0.00e+00	0	28	0	105906176	54	6712
2026-01-16 18:08:24.40	27.76	6.17	-40.9	-42.5	18.5	0.00e+00	0	28	0	108003328	54	6846
2026-01-16 18:08:25.41	27.65	6.23	-40.7	-42.3	18.8	0.00e+00	3	28	0	110100480	54	6681
2026-01-16 18:08:26.42	27.55	6.28	-40.8	-42.4	18.7	0.00e+00	0	28	0	112197632	54	6734
2026-01-16 18:08:27.43	27.44	6.34	-40.7	-42.4	18.6	0.00e+00	90	28	0	113246208	54	6698
2026-01-16 18:08:28.44	27.34	6.40	-40.7	-42.4	18.6	0.00e+00	0	28	0	115343360	54	6704
2026-01-16 18:08:29.45	27.23	6.45	-40.6	-42.2	18.8	0.00e+00	92	28	0	117440512	54	6566
2026-01-16 18:08:30.46	27.12	6.51	-40.6	-42.2	18.9	0.00e+00	0	28	0	119537664	54	6575
2026-01-16 18:08:31.47	27.01	6.57	-40.7	-42.2	18.8	0.00e+00	81	28	0	121634816	54	6603
2026-01-16 18:08:32.48	26.90	6.62	-40.8	-42.4	18.7	0.00e+00	0	28	0	122683392	54	6717
2026-01-16 18:08:33.49	26.80	6.68	-40.7	-42.3	18.8	0.00e+00	0	28	0	124780544	54	6651
2026-01-16 18:08:34.50	26.69	6.74	-40.5	-42.1	19.0	0.00e+00	92	28	0	126877696	54	6493
2026-01-16 18:08:35.51	26.58	6.79	-40.6	-42.2	18.8	0.00e+00	0	28	0	128974848	54	6571
2026-01-16 18:08:36.52	26.47	6.85	-40.5	-42.1	19.0	0.00e+00	92	28	0	131072000	54	6527
2026-01-16 18:08:37.53	26.36	6.91	-40.5	-42.0	19.0	0.00e+00	0	28	0	133169152	54	6439
2026-01-16 18:08:38.54	26.25	6.96	-40.5	-42.1	19.0	0.00e+00	6	28	0	134217728	54	6487
2026-01-16 18:08:39.55	26.14	7.02	-40.5	-42.0	19.1	0.00e+00	0	28	0	136314880	54	6453
2026-01-16 18:08:40.56	26.02	7.08	-40.5	-42.1	19.0	0.00e+00	0	28	0	138412032	54	6495
2026-01-16 18:08:41.57	25.91	7.13	-40.5	-42.0	19.0	0.00e+00	92	28	0	140509184	54	6459
2026-01-16 18:08:42.58	25.80	7.19	-40.5	-42.1	19.0	0.00e+00	0	28	0	142606336	54	6476
2026-01-16 18:08:43.59	25.69	7.25	-40.4	-42.0	19.1	0.00e+00	92	28	0	143654912	54	6414
2026-01-16 18:08:44.60	25.57	7.30	-40.4	-42.0	19.2	0.00e+00	0	28	0	145752064	54	6424
2026-01-16 18:08:45.61	25.46	7.36	-40.4	-41.9	19.1	0.00e+00	86	28	0	147849216	54	6374
2026-01-16 18:08:46.62	25.34	7.42	-40.5	-42.1	19.0	0.00e+00	0	28	0	149946368	54	6515
2026-01-16 18:08:47.63	25.23	7.47	-40.2	-41.7	19.4	0.00e+00	84	28	0	152043520	54	6206
2026-01-16 18:08:48.64	25.11	7.53	-40.2	-41.7	19.4	0.00e+00	0	28	0	153092096	54	6233
2026-01-16 18:08:49.65	25.00	7.59	-40.3	-41.8	19.4	0.00e+00	0	28	0	155189248	54	6290
2026-01-16 18:08:50.66	24.88	7.64	-40.2	-41.6	19.5	0.00e+00	92	28	0	157286400	54	6165
2026-01-16 18:08:51.67	24.76	7.70	-39.9	-41.3	19.9	0.00e+00	1	28	0	159383552	54	5911
2026-01-16 18:08:52.68	24.65	7.76	-39.8	-41.2	20.0	0.00e+00	91	28	0	161480704	54	5868
2026-01-16 18:08:53.69	24.53	7.82	-39.9	-41.4	19.7	0.00e+00	0	28	0	162529280	54	5966
2026-01-16 18:08:54.70	24.41	7.87	-39.8	-41.1	20.0	0.00e+00	0	28	0	164626432	54	5812
2026-01-16 18:08:55.71	24.29	7.93	-39.9	-41.4	19.6	0.00e+00	0	28	0	166723584	54	5966
2026-01-16 18:08:56.72	24.17	7.99	-39.8	-41.2	19.5	0.00e+00	0	28	0	168820736	54	5836
2026-01-16 18:08:57.73	24.05	8.04	-39.8	-41.1	20.0	0.00e+00	92	28	0	170917888	54	5825
2026-01-16 18:08:58.74	23.93	8.10	-39.7	-41.0	20.2	0.00e+00	6	28	0	171966464	52	6427
2026-01-16 18:08:59.75	23.81	8.16	-39.7	-41.0	20.2	0.00e+00	91	28	0	174063616	52	6428
2026-01-16 18:09:00.76	23.69	8.21	-39.6	-41.0	20.2	0.00e+00	0	28	0	176160768	52	6398
2026-01-16 18:09:01.77	23.57	8.27	-39.8	-41.1	20.0	0.00e+00	0	28	0	178257920	52	6535
2026-01-16 18:09:02.78	23.45	8.33	-39.6	-41.0	20.3	0.00e+00	0	28	0	180355072	52	6396
2026-01-16 18:09:03.79	23.33	8.39	-39.6	-41.0	20.3	0.00e+00	0	28	0	181403648	52	6393
2026-01-16 18:09:04.79	23.20	8.44	-39.7	-41.0	20.3	0.00e+00	77	28	0	183500800	52	6458
2026-01-16 18:09:05.80	23.08	8.50	-39.6	-40.9	20.4	0.00e+00	81	28	0	185597952	52	6358
2026-01-16 18:09:06.81	22.96	8.56	-39.6	-41.0	20.1	0.00e+00	90	28	0	187695104	52	6396
2026-01-16 18:09:07.82	22.83	8.61	-39.6	-40.9	20.3	0.00e+00	0	28	0	189792256	52	6368
2026-01-16 18:09:08.83	22.71	8.67	-39.7	-41.0	20.1	0.00e+00	0	28	0	190840832	52	6460
2026-01-16 18:09:09.84	22.58	8.73	-39.8	-41.2	20.1	0.00e+00	0	28	0	192937984	52	6550
2026-01-16 18:09:10.85	22.46	8.78	-39.6	-40.9	20.3	0.00e+00	81	28	0	195035136	52	6366
2026-01-16 18:09:11.86	22.33	8.84	-39.6	-40.9	20.3	0.00e+00	72	28	0	197132288	52	6336
2026-01-16 18:09:12.87	22.20	8.90	-39.5	-40.8	20.5	0.00e+00	81	28	0	199229440	52	6265
2026-01-16 18:09:13.87	22.08	8.95	-39.2	-40.5	20.7	0.00e+00	92	28	0	200278016	52	6048
2026-01-16 18:09:14.88	21.95	9.01	-39.4	-40.7	20.6	0.00e+00	0	28	0	202375168	52	6181
2026-01-16 18:09:15.89	21.82	9.07	-39.2	-40.4	20.7	0.00e+00	34	28	0	204472320	52	6023
2026-01-16 18:09:16.90	21.69	9.13	-39.2	-40.4	20.8	0.00e+00	0	28	0	206569472	52	5990
2026-01-16 18:09:17.91	21.56	9.18	-39.3	-40.5	20.7	0.00e+00	0	28	0	208666624	52	6095
2026-01-16 18:09:18.92	21.43	9.24	-39.3	-40.6	20.7	0.00e+00	0	28	0	209715200	52	6112
2026-01-16 18:09:19.93	21.30	9.30	-39.4	-40.7	20.5	0.00e+00	0	28	0	211812352	52	6192
2026-01-16 18:09:20.94	21.17	9.35	-39.4	-40.7	20.5	0.00e+00	92	28	0	213909504	52	6221
2026-01-16 18:09:21.95	21.04	9.41	-39.4	-40.7	20.6	0.00e+00	0	28	0	216006656	52	6220
2026-01-16 18:09:22.96	20.91	9.47	-39.3	-40.5	20.7	0.00e+00	92	28	0	218103808	52	6091
2026-01-16 18:09:23.97	20.77	9.52	-39.3	-40.6	20.7	0.00e+00	0	28	0	219152384	52	6149
2026-01-16 18:09:24.98	20.64	9.58	-39.3	-40.6	20.7	0.00e+00	82	28	0	221249536	52	6136
2026-01-16 18:09:25.99	20.51	9.64	-39.4	-40.6	20.6	0.00e+00	81	28	0	223346688	52	6159
2026-01-16 18:09:27.00	20.37	9.69	-39.4	-40.6	20.7	0.00e+00	0	28	0	225443840	52	6150
2026-01-16 18:09:28.00	20.24	9.75	-39.4	-40.7	20.6	0.00e+00	59	28	0	227540992	52	6185
2026-01-16 18:09:29.01	20.10	9.81	-39.3	-40.5	20.7	0.00e+00	81	28	0	229638144	52	6090
2026-01-16 18:09:30.02	19.97	9.86	-39.2	-40.4	20.9	0.00e+00	90	28	0	230686720	52	5998
2026-01-16 18:09:31.03	19.83	9.92	-39.2	-40.4	20.9	0.00e+00	4	28	0	232783872	52	6029
2026-01-16 18:09:32.04	19.69	9.98	-39.1	-40.3	20.9	0.00e+00	81	28	0	234881024	52	5955
2026-01-16 18:09:33.05	19.56	10.03	-39.1	-40.4	20.9	0.00e+00	82	28	0	236978176	52	5979
2026-01-16 18:09:34.05	19.42	10.09	-39.1	-40.3	20.9	0.00e+00	0	28	0	239075328	52	5933
2026-01-16 18:09:35.06	19.28	10.15	-39.1	-40.3	20.9	0.00e+00	0	28	0	240123904	52	5956
2026-01-16 18:09:36.07	19.14	10.20	-39.1	-40.4	20.9	0.00e+00	81	28	0	242221056	52	5972
2026-01-16 18:09:37.08	19.00	10.26	-39.1	-40.4	20.9	0.00e+00	92	28	0	244318208	52	5998
2026-01-16 18:09:38.10	18.86	10.32	-39.1	-40.4	20.8	0.00e+00	0	28	0	246415360	52	6007
2026-01-16 18:09:39.11	18.72	10.37	-39.2	-40.5	20.7	0.00e+00	11	28	0	248512512	52	6084
2026-01-16 18:09:40.12	18.58	10.43	-39.3	-40.5	20.7	0.00e+00	2	28	0	249561088	52	6096
2026-01-16 18:09:41.13	18.44	10.49	-39.4	-40.6	20.8	0.00e+00	2	28	0	251658240	52	6160
2026-01-16 18:09:42.14	18.29	10.54	-39.0	-40.2	21.0	0.00e+00	0	28	0	253755392	52	5888
2026-01-16 18:09:43.15	18.15	10.60	-39.0	-40.2	21.0	0.00e+00	0	28	0	255852544	52	5891
2026-01-16 18:09:44.16	18.01	10.65	-39.0	-40.2	21.1	0.00e+00	91	28	0	257949696	52	5846
2026-01-16 18:09:45.16	17.86	10.71	-39.1	-40.3	21.0	0.00e+00	2	28	0	258998272	52	5918
2026-01-16 18:09:46.17	17.72	10.77	-39.2	-40.4	20.9	0.00e+00	92	28	0	261095424	52	5988
2026-01-16 18:09:47.18	17.57	10.82	-39.1	-40.4	20.9	0.00e+00	0	28	0	263192576	52	5971
2026-01-16 18:09:48.19	17.43	10.88	-39.2	-40.5	20.8	0.00e+00	0	28	0	265289728	52	6035
2026-01-16 18:09:49.20	17.28	10.93	-39.2	-40.4	20.9	0.00e+00	0	28	0	267386880	52	5980
2026-01-16 18:09:50.21	17.13	10.99	-39.2	-40.5	20.9	0.00e+00	0	28	0	268435456	52	6034
2026-01-16 18:09:51.22	16.99	11.05	-39.2	-40.5	20.8	0.00e+00	89	28	0	270532608	52	6062
2026-01-16 18:09:52.23	16.84	11.10	-39.3	-40.5	20.8	0.00e+00	0	28	0	272629760	52	6067
2026-01-16 18:09:53.24	16.69	11.16	-39.3	-40.5	20.7	0.00e+00	92	28	0	274726912	52	6100
2026-01-16 18:09:54.25	16.54	11.21	-39.4	-40.7	20.6	0.00e+00	0	28	0	276824064	52	6194
2026-01-16 18:09:55.25	16.39	11.27	-39.4	-40.6	20.7	0.00e+00	0	28	0	277872640	52	6165
2026-01-16 18:09:56.27	16.24	11.32	-39.3	-40.5	20.9	0.00e+00	0	28	0	279969792	52	6073
2026-01-16 18:09:57.28	16.09	11.38	-39.3	-40.5	20.9	0.00e+00	0	28	0	282066944	52	6073
2026-01-16 18:09:58.29	15.94	11.43	-39.3	-40.5	20.9	0.00e+00	80	28	0	284164096	52	6090
2026-01-16 18:09:59.29	15.79	11.49	-39.2	-40.5	20.9	0.00e+00	2	28	0	286261248	52	6051
2026-01-16 18:10:00.30	15.63	11.54	-39.1	-40.3	21.0	0.00e+00	92	28	0	287309824	52	5932
2026-01-16 18:10:01.31	15.48	11.60	-39.3	-40.5	21.0	0.00e+00	0	28	0	289406976	52	6062
2026-01-16 18:10:02.32	15.32	11.65	-39.1	-40.3	21.0	0.00e+00	87	28	0	291504128	52	5941
2026-01-16 18:10:03.33	15.17	11.71	-39.2	-40.4	20.9	0.00e+00	0	28	0	293601280	52	6010
2026-01-16 18:10:04.34	15.02	11.76	-39.3	-40.5	20.7	0.00e+00	0	28	0	295698432	52	6092
2026-01-16 18:10:05.35	14.86	11.82	-39.3	-40.6	20.8	0.00e+00	0	28	0	297795584	52	6121
2026-01-16 18:10:06.36	14.70	11.87	-39.3	-40.5	20.9	0.00e+00	0	28	0	298844160	52	6082
2026-01-16 18:10:07.37	14.55	11.93	-39.3	-40.6	20.8	0.00e+00	92	28	0	300941312	52	6119
2026-01-16 18:10:08.38	14.39	11.98	-39.3	-40.6	20.8	0.00e+00	0	28	0	303038464	52	6111
2026-01-16 18:10:09.38	14.23	12.04	-39.2	-40.4	21.0	0.00e+00	92	28	0	305135616	52	5999
2026-01-16 18:10:10.39	14.07	12.09	-39.2	-40.5	21.0	0.00e+00	0	28	0	307232768	52	6049
2026-01-16 18:10:11.40	13.91	12.14	-39.2	-40.4	21.0	0.00e+00	2	28	0	308281344	52	6032
2026-01-16 18:10:12.41	13.75	12.20	-39.1	-40.3	21.1	0.00e+00	0	28	0	310378496	52	5955
2026-01-16 18:10:13.42	13.59	12.25	-39.1	-40.3	21.0	0.00e+00	81	28	0	312475648	52	5951
2026-01-16 18:10:14.43	13.43	12.31	-39.0	-40.2	21.2	0.00e+00	90	28	0	314572800	52	5840
2026-01-16 18:10:15.44	13.27	12.36	-39.0	-40.2	21.3	0.00e+00	82	28	0	316669952	52	5837
2026-01-16 18:10:16.45	13.11	12.41	-38.9	-40.0	21.3	0.00e+00	92	28	0	317718528	52	5728
2026-01-16 18:10:17.46	12.94	12.47	-38.8	-39.9	21.5	0.00e+00	81	28	0	319815680	52	5673
2026-01-16 18:10:18.47	12.78	12.52	-38.7	-39.8	21.5	0.00e+00	0	28	0	321912832	50	6296
2026-01-16 18:10:19.48	12.62	12.58	-38.7	-39.8	21.5	0.00e+00	0	28	0	324009984	50	6298
2026-01-16 18:10:20.48	12.45	12.63	-38.7	-39.8	21.5	0.00e+00	0	28	0	326107136	50	6281
2026-01-16 18:10:21.50	12.29	12.68	-38.6	-39.7	21.6	0.00e+00	0	28	0	327155712	50	6241
2026-01-16 18:10:22.51	12.12	12.73	-38.6	-39.7	21.5	0.00e+00	5	28	0	329252864	50	6207
2026-01-16 18:10:23.52	11.95	12.79	-38.5	-39.6	21.7	0.00e+00	92	28	0	331350016	50	6139
2026-01-16 18:10:24.52	11.79	12.84	-38.5	-39.6	21.7	0.00e+00	6	28	0	333447168	50	6126
2026-01-16 18:10:25.53	11.62	12.89	-38.2	-39.3	22.0	0.00e+00	0	28	0	335544320	50	5946
2026-01-16 18:10:26.54	11.45	12.94	-38.0	-39.0	22.3	0.00e+00	0	28	0	336592896	50	5753
2026-01-16 18:10:27.55	11.28	13.00	-38.1	-39.1	22.2	0.00e+00	5	28	0	338690048	50	5815
2026-01-16 18:10:28.56	11.11	13.05	-37.8	-38.8	22.5	0.00e+00	7	28	0	340787200	50	5628
2026-01-16 18:10:29.57	10.94	13.10	-37.8	-38.9	22.4	0.00e+00	5	28	0	342884352	50	5641
2026-01-16 18:10:30.58	10.77	13.15	-37.8	-38.8	22.5	0.00e+00	92	28	0	344981504	50	5627
2026-01-16 18:10:31.59	10.60	13.21	-37.8	-38.8	22.6	0.00e+00	83	28	0	346030080	48	6283
2026-01-16 18:10:32.60	10.43	13.26	-37.8	-38.8	22.4	0.00e+00	89	28	0	348127232	48	6290
2026-01-16 18:10:33.61	10.26	13.31	-37.9	-38.9	22.5	0.00e+00	6	28	0	350224384	48	6368
2026-01-16 18:10:34.62	10.08	13.36	-37.7	-38.7	22.6	0.00e+00	82	28	0	352321536	48	6188
2026-01-16 18:10:35.63	9.91	13.41	-37.5	-38.5	22.8	0.00e+00	4	28	0	354418688	48	6085
2026-01-16 18:10:36.64	9.73	13.46	-37.7	-38.7	22.6	0.00e+00	0	28	0	355467264	48	6210
2026-01-16 18:10:37.65	9.56	13.51	-37.6	-38.6	22.7	0.00e+00	79	28	0	357564416	48	6126
2026-01-16 18:10:38.66	9.38	13.56	-37.5	-38.5	22.7	0.00e+00	87	28	0	359661568	48	6072
2026-01-16 18:10:39.67	9.21	13.61	-37.5	-38.5	22.8	0.00e+00	92	28	0	361758720	48	6070
2026-01-16 18:10:40.68	9.03	13.66	-37.5	-38.5	22.7	0.00e+00	85	28	0	363855872	48	6092
2026-01-16 18:10:41.68	8.85	13.71	-37.4	-38.4	22.9	0.00e+00	0	28	0	365953024	48	5992
2026-01-16 18:10:42.69	8.68	13.76	-37.5	-38.5	22.8	0.00e+00	6	28	0	367001600	48	6042
2026-01-16 18:10:43.70	8.50	13.81	-37.5	-38.5	22.8	0.00e+00	7	28	0	369098752	48	6083
2026-01-16 18:10:44.71	8.32	13.86	-37.4	-38.3	22.9	0.00e+00	0	28	0	371195904	48	5960
2026-01-16 18:10:45.72	8.14	13.91	-37.4	-38.3	22.9	0.00e+00	0	28	0	373293056	48	5949
2026-01-16 18:10:46.73	7.96	13.96	-37.2	-38.2	23.1	0.00e+00	92	28	0	375390208	48	5836
2026-01-16 18:10:47.74	7.78	14.01	-37.0	-38.0	23.3	0.00e+00	7	28	0	376438784	48	5703
2026-01-16 18:10:48.75	7.59	14.06	-36.9	-37.8	23.3	0.00e+00	91	28	0	378535936	48	5624
2026-01-16 18:10:49.76	7.41	14.11	-36.9	-37.9	23.4	0.00e+00	0	28	0	380633088	48	5632
2026-01-16 18:10:50.77	7.23	14.16	-36.8	-37.8	23.4	0.00e+00	6	28	0	382730240	48	5568
2026-01-16 18:10:51.78	7.04	14.21	-36.7	-37.7	23.6	0.00e+00	2	28	0	384827392	48	5504
2026-01-16 18:10:52.79	6.86	14.26	-36.7	-37.6	23.5	0.00e+00	0	28	0	385875968	46	6164
2026-01-16 18:10:53.80	6.67	14.30	-36.8	-37.7	23.6	0.00e+00	92	28	0	387973120	46	6178
2026-01-16 18:10:54.81	6.49	14.35	-36.8	-37.7	23.2	0.00e+00	82	28	0	390070272	46	6224
2026-01-16 18:10:55.82	6.30	14.40	-36.9	-37.8	23.5	0.00e+00	92	28	0	392167424	46	6284
2026-01-16 18:10:56.83	6.12	14.45	-36.7	-37.7	23.6	0.00e+00	81	28	0	394264576	46	6174
2026-01-16 18:10:57.84	5.93	14.49	-36.7	-37.6	23.6	0.00e+00	81	28	0	395313152	46	6119
2026-01-16 18:10:58.85	5.74	14.54	-36.6	-37.5	23.8	0.00e+00	0	28	0	397410304	46	6052
2026-01-16 18:10:59.86	5.55	14.59	-36.7	-37.6	23.6	0.00e+00	82	28	0	399507456	46	6159
2026-01-16 18:11:00.87	5.36	14.63	-36.7	-37.6	23.6	0.00e+00	0	28	0	401604608	46	6113
2026-01-16 18:11:01.88	5.17	14.68	-36.9	-37.9	23.4	0.00e+00	0	28	0	403701760	46	6327
2026-01-16 18:11:02.89	4.98	14.73	-37.1	-38.0	23.4	0.00e+00	91	28	0	404750336	46	6442
2026-01-16 18:11:03.90	4.79	14.77	-37.1	-38.0	23.3	0.00e+00	0	28	0	406847488	46	6426
2026-01-16 18:11:04.90	4.60	14.82	-37.0	-37.9	23.4	0.00e+00	63	28	0	408944640	46	6384
2026-01-16 18:11:05.92	4.41	14.86	-37.1	-38.1	23.2	0.00e+00	2	28	0	411041792	46	6467
2026-01-16 18:11:06.92	4.22	14.91	-37.0	-38.0	23.3	0.00e+00	0	28	0	413138944	46	6413
2026-01-16 18:11:07.93	4.02	14.95	-37.2	-38.2	23.2	0.00e+00	0	28	0	414187520	46	6602
2026-01-16 18:11:08.94	3.83	15.00	-37.2	-38.2	23.1	0.00e+00	2	28	0	416284672	46	6577
2026-01-16 18:11:09.95	3.64	15.04	-37.2	-38.2	23.1	0.00e+00	91	28	0	418381824	46	6571
2026-01-16 18:11:10.96	3.44	15.08	-37.2	-38.2	23.1	0.00e+00	2	28	0	420478976	46	6547
2026-01-16 18:11:11.97	3.25	15.13	-37.1	-38.0	23.3	0.00e+00	90	28	0	422576128	46	6450
2026-01-16 18:11:12.98	3.05	15.17	-37.1	-38.1	23.2	0.00e+00	0	28	0	423624704	46	6491
2026-01-16 18:11:13.99	2.85	15.22	-37.2	-38.2	23.2	0.00e+00	0	28	0	425721856	46	6561
2026-01-16 18:11:15.00	2.65	15.26	-37.1	-38.1	23.3	0.00e+00	0	28	0	427819008	46	6488
2026-01-16 18:11:16.01	2.46	15.30	-37.1	-38.0	23.3	0.00e+00	80	28	0	429916160	46	6450
2026-01-16 18:11:17.02	2.26	15.34	-37.1	-38.0	23.3	0.00e+00	69	28	0	432013312	46	6461
2026-01-16 18:11:18.03	2.06	15.39	-37.0	-38.0	23.4	0.00e+00	82	28	0	434110464	46	6417
2026-01-16 18:11:19.04	1.86	15.43	-37.0	-38.0	23.4	0.00e+00	91	28	0	435159040	46	6398
2026-01-16 18:11:20.04	1.66	15.47	-37.1	-38.0	23.4	0.00e+00	82	28	0	437256192	46	6434
2026-01-16 18:11:21.05	1.46	15.51	-37.1	-38.1	23.3	0.00e+00	0	28	0	439353344	46	6489
2026-01-16 18:11:22.06	1.26	15.55	-37.1	-38.0	22.9	0.00e+00	0	28	0	441450496	46	6457
2026-01-16 18:11:23.07	1.06	15.59	-37.1	-38.0	23.3	0.00e+00	3	28	0	442499072	46	6412
2026-01-16 18:11:24.08	0.85	15.63	-37.2	-38.1	23.2	0.00e+00	56	28	0	444596224	46	6519
2026-01-16 18:11:25.09	0.65	15.67	-37.1	-38.1	23.1	0.00e+00	0	28	0	446693376	46	6487
2026-01-16 18:11:26.10	0.45	15.71	-37.1	-38.1	23.4	0.00e+00	92	28	0	448790528	46	6476
2026-01-16 18:11:27.11	0.24	15.75	-37.0	-37.9	23.4	0.00e+00	0	28	0	450887680	46	6337
2026-01-16 18:11:28.12	0.04	15.79	-37.0	-37.9	23.6	0.00e+00	92	28	0	451936256	46	6375
2026-01-16 18:11:29.13	359.83	15.83	-36.7	-37.6	23.7	0.00e+00	0	28	0	454033408	46	6155
2026-01-16 18:11:30.14	359.63	15.87	-36.4	-37.3	23.9	0.00e+00	0	28	0	456130560	46	5927
2026-01-16 18:11:31.15	359.42	15.91	-36.6	-37.5	23.8	0.00e+00	0	28	0	458227712	46	6056
2026-01-16 18:11:32.16	359.21	15.95	-36.5	-37.4	23.9	0.00e+00	0	28	0	460324864	46	5997
2026-01-16 18:11:33.17	359.01	15.98	-36.6	-37.5	23.7	0.00e+00	92	28	0	462422016	46	6060
2026-01-16 18:11:34.18	358.80	16.02	-36.6	-37.5	23.6	0.00e+00	0	28	0	463470592	46	6066
2026-01-16 18:11:35.19	358.59	16.06	-36.5	-37.4	23.9	0.00e+00	92	28	0	465567744	46	5968
2026-01-16 18:11:36.20	358.38	16.09	-36.4	-37.3	23.8	0.00e+00	81	28	0	467664896	46	5956
2026-01-16 18:11:37.20	358.17	16.13	-36.5	-37.4	23.8	0.00e+00	0	28	0	469762048	46	6010
2026-01-16 18:11:38.21	357.96	16.17	-36.6	-37.5	23.8	0.00e+00	2	28	0	471859200	46	6049
2026-01-16 18:11:39.22	357.75	16.20	-36.5	-37.4	23.9	0.00e+00	0	28	0	472907776	46	6003
2026-01-16 18:11:40.23	357.54	16.24	-36.5	-37.4	23.8	0.00e+00	92	28	0	475004928	46	5993
2026-01-16 18:11:41.24	357.33	16.27	-36.6	-37.5	23.7	0.00e+00	82	28	0	477102080	46	6095
2026-01-16 18:11:42.25	357.12	16.31	-36.6	-37.5	23.8	0.00e+00	92	28	0	479199232	46	6040
2026-01-16 18:11:43.26	356.91	16.34	-36.6	-37.4	24.0	0.00e+00	82	28	0	481296384	46	6028
2026-01-16 18:11:44.27	356.69	16.38	-36.4	-37.3	23.9	0.00e+00	0	28	0	482344960	46	5948
2026-01-16 18:11:45.28	356.48	16.41	-36.4	-37.3	24.0	0.00e+00	0	28	0	484442112	46	5916
2026-01-16 18:11:46.29	356.27	16.44	-36.5	-37.4	23.9	0.00e+00	0	28	0	486539264	46	6007
2026-01-16 18:11:47.30	356.05	16.48	-36.6	-37.5	23.8	0.00e+00	90	28	0	488636416	46	6051
2026-01-16 18:11:48.31	355.84	16.51	-36.7	-37.6	23.7	0.00e+00	0	28	0	490733568	46	6158
2026-01-16 18:11:49.32	355.62	16.54	-36.5	-37.4	23.9	0.00e+00	92	28	0	491782144	46	5995
2026-01-16 18:11:50.33	355.40	16.57	-36.5	-37.4	23.8	0.00e+00	0	28	0	493879296	46	5996
2026-01-16 18:11:51.34	355.19	16.60	-36.4	-37.3	24.0	0.00e+00	0	28	0	495976448	46	5955
2026-01-16 18:11:52.35	354.97	16.63	-36.4	-37.3	24.0	0.00e+00	0	28	0	498073600	46	5933
2026-01-16 18:11:53.36	354.75	16.67	-36.5	-37.4	23.8	0.00e+00	0	28	0	500170752	46	6007
2026-01-16 18:11:54.37	354.54	16.70	-36.6	-37.6	23.8	0.00e+00	0	28	0	501219328	46	6108
2026-01-16 18:11:55.38	354.32	16.73	-36.8	-37.7	23.5	0.00e+00	0	28	0	503316480	46	6219
2026-01-16 18:11:56.39	354.10	16.75	-36.9	-37.8	23.5	0.00e+00	90	28	0	505413632	46	6309
2026-01-16 18:11:57.40	353.88	16.78	-36.8	-37.7	23.7	0.00e+00	0	28	0	507510784	46	6206
2026-01-16 18:11:58.41	353.66	16.81	-36.6	-37.5	23.8	0.00e+00	90	28	0	509607936	46	6096
2026-01-16 18:11:59.42	353.44	16.84	-36.6	-37.5	23.4	0.00e+00	81	28	0	510656512	46	6043
2026-01-16 18:12:00.43	353.22	16.87	-36.5	-37.5	23.8	0.00e+00	80	28	0	512753664	46	6041
2026-01-16 18:12:01.44	353.00	16.90	-36.5	-37.4	23.9	0.00e+00	0	28	0	514850816	46	5999
2026-01-16 18:12:02.45	352.78	16.92	-36.6	-37.5	23.8	0.00e+00	2	28	0	516947968	46	6084
2026-01-16 18:12:03.46	352.56	16.95	-36.6	-37.6	23.7	0.00e+00	86	28	0	519045120	46	6107
2026-01-16 18:12:04.47	352.34	16.98	-36.6	-37.5	23.8	0.00e+00	81	28	0	520093696	46	6063
2026-01-16 18:12:05.48	352.11	17.00	-36.8	-37.7	23.7	0.00e+00	92	28	0	522190848	46	6193
2026-01-16 18:12:06.49	351.89	17.03	-36.5	-37.4	24.0	0.00e+00	0	28	0	524288000	46	5977
2026-01-16 18:12:07.50	351.67	17.05	-36.4	-37.3	24.1	0.00e+00	0	28	0	526385152	46	5921
2026-01-16 18:12:08.51	351.45	17.08	-36.5	-37.3	24.0	0.00e+00	5	28	0	528482304	46	5937
2026-01-16 18:12:09.52	351.22	17.10	-36.5	-37.4	24.0	0.00e+00	5	28	0	530579456	46	5967
2026-01-16 18:12:10.53	351.00	17.13	-36.7	-37.6	23.8	0.00e+00	0	28	0	531628032	46	6148
2026-01-16 18:12:11.54	350.77	17.15	-36.8	-37.7	23.6	0.00e+00	5	28	0	533725184	46	6185
2026-01-16 18:12:12.55	350.55	17.17	-36.9	-37.8	23.5	0.00e+00	92	28	0	535822336	46	6250
2026-01-16 18:12:13.56	350.32	17.19	-36.9	-37.9	23.6	0.00e+00	0	28	0	537919488	46	6323
2026-01-16 18:12:14.57	350.10	17.22	-37.1	-38.0	23.4	0.00e+00	81	28	0	540016640	46	6447
2026-01-16 18:12:15.58	349.87	17.24	-37.1	-38.0	23.4	0.00e+00	80	28	0	541065216	46	6418
2026-01-16 18:12:16.59	349.65	17.26	-37.1	-38.1	23.4	0.00e+00	0	28	0	543162368	46	6485
2026-01-16 18:12:17.60	349.42	17.28	-37.3	-38.2	23.3	0.00e+00	0	28	0	545259520	46	6606
2026-01-16 18:12:18.61	349.19	17.30	-37.4	-38.3	23.2	0.00e+00	0	28	0	547356672	46	6667
2026-01-16 18:12:19.62	348.96	17.32	-37.6	-38.6	22.8	0.00e+00	92	28	0	549453824	46	6884
2026-01-16 18:12:20.63	348.74	17.34	-37.6	-38.6	23.0	0.00e+00	86	28	0	550502400	46	6887
2026-01-16 18:12:21.64	348.51	17.36	-37.4	-38.4	23.1	0.00e+00	90	28	0	552599552	46	6695
2026-01-16 18:12:22.64	348.28	17.38	-37.4	-38.3	22.9	0.00e+00	0	28	0	554696704	46	6676
2026-01-16 18:12:23.65	348.06	17.39	-37.2	-38.1	23.3	0.00e+00	84	28	0	556793856	46	6516
2026-01-16 18:12:24.66	347.83	17.41	-37.2	-38.1	23.3	0.00e+00	84	28	0	558891008	46	6508
2026-01-16 18:12:25.67	347.60	17.43	-37.3	-38.2	23.2	0.00e+00	0	28	0	559939584	46	6586
2026-01-16 18:12:26.68	347.37	17.45	-37.1	-38.0	23.4	0.00e+00	92	28	0	562036736	46	6449
2026-01-16 18:12:27.69	347.14	17.46	-37.3	-38.2	23.2	0.00e+00	0	28	0	564133888	46	6581
2026-01-16 18:12:28.70	346.91	17.48	-37.4	-38.4	23.0	0.00e+00	92	28	0	566231040	46	6712
2026-01-16 18:12:29.71	346.68	17.49	-37.6	-38.5	23.0	0.00e+00	0	28	0	568328192	46	6837
2026-01-16 18:12:30.72	346.45	17.51	-37.4	-38.4	23.2	0.00e+00	6	28	0	569376768	46	6707
2026-01-16 18:12:31.73	346.22	17.52	-37.3	-38.3	23.2	0.00e+00	6	28	0	571473920	46	6644
2026-01-16 18:12:32.74	345.99	17.54	-37.4	-38.4	23.1	0.00e+00	0	28	0	573571072	46	6717
2026-01-16 18:12:33.75	345.76	17.55	-37.4	-38.3	23.1	0.00e+00	46	28	0	575668224	46	6681
2026-01-16 18:12:34.75	345.53	17.56	-37.5	-38.4	23.1	0.00e+00	0	28	0	577765376	46	6751
2026-01-16 18:12:35.76	345.30	17.57	-37.5	-38.4	23.1	0.00e+00	92	28	0	578813952	46	6744
2026-01-16 18:12:36.77	345.07	17.59	-37.6	-38.6	22.8	0.00e+00	0	28	0	580911104	46	6876
2026-01-16 18:12:37.78	344.84	17.60	-37.7	-38.7	22.8	0.00e+00	81	28	0	583008256	46	6960
2026-01-16 18:12:38.79	344.60	17.61	-37.7	-38.7	22.9	0.00e+00	0	28	0	585105408	48	6176
2026-01-16 18:12:39.80	344.37	17.62	-37.7	-38.7	22.8	0.00e+00	0	28	0	587202560	48	6200
2026-01-16 18:12:40.81	344.14	17.63	-37.7	-38.7	22.7	0.00e+00	0	28	0	588251136	48	6225
2026-01-16 18:12:41.82	343.91	17.64	-37.5	-38.5	23.0	0.00e+00	77	28	0	590348288	48	6070
2026-01-16 18:12:42.83	343.68	17.65	-37.5	-38.4	23.0	0.00e+00	92	28	0	592445440	48	6012
2026-01-16 18:12:43.84	343.44	17.66	-37.4	-38.4	23.0	0.00e+00	0	28	0	594542592	48	5988
2026-01-16 18:12:44.85	343.21	17.67	-37.5	-38.5	22.9	0.00e+00	92	28	0	596639744	48	6057
2026-01-16 18:12:45.85	342.98	17.67	-37.5	-38.5	22.9	0.00e+00	82	28	0	598736896	48	6082
2026-01-16 18:12:46.86	342.75	17.68	-37.7	-38.6	22.8	0.00e+00	0	28	0	599785472	48	6164
2026-01-16 18:12:47.87	342.52	17.69	-37.6	-38.6	22.8	0.00e+00	81	28	0	601882624	48	6146
2026-01-16 18:12:48.88	342.28	17.69	-37.7	-38.7	22.8	0.00e+00	0	28	0	603979776	48	6191
2026-01-16 18:12:49.89	342.05	17.70	-37.7	-38.7	22.7	0.00e+00	92	28	0	606076928	48	6221
2026-01-16 18:12:50.90	341.82	17.70	-37.6	-38.6	22.8	0.00e+00	0	28	0	608174080	48	6161
2026-01-16 18:12:51.92	341.58	17.71	-37.5	-38.5	22.8	0.00e+00	92	28	0	609222656	48	6065
2026-01-16 18:12:52.93	341.35	17.71	-37.6	-38.6	22.9	0.00e+00	0	28	0	611319808	48	6115
2026-01-16 18:12:53.93	341.12	17.72	-37.3	-38.3	23.1	0.00e+00	0	28	0	613416960	48	5944
2026-01-16 18:12:54.94	340.88	17.72	-37.3	-38.3	23.0	0.00e+00	0	28	0	615514112	48	5950
2026-01-16 18:12:55.95	340.65	17.72	-37.3	-38.3	23.0	0.00e+00	0	28	0	617611264	48	5964
2026-01-16 18:12:56.96	340.42	17.73	-37.4	-38.5	22.9	0.00e+00	0	28	0	618659840	48	6050
2026-01-16 18:12:57.97	340.18	17.73	-37.4	-38.5	23.0	0.00e+00	0	28	0	620756992	48	6055
2026-01-16 18:12:58.98	339.95	17.73	-37.4	-38.4	22.9	0.00e+00	92	28	0	622854144	48	6027
2026-01-16 18:12:59.99	339.71	17.73	-37.4	-38.5	22.9	0.00e+00	0	28	0	624951296	48	6050
2026-01-16 18:13:01.00	339.48	17.73	-37.5	-38.5	22.8	0.00e+00	91	28	0	627048448	48	6083
2026-01-16 18:13:02.01	339.25	17.73	-37.5	-38.6	22.8	0.00e+00	81	28	0	628097024	48	6112
2026-01-16 18:13:03.02	339.01	17.73	-37.6	-38.7	22.7	0.00e+00	81	28	0	630194176	48	6181
2026-01-16 18:13:04.03	338.78	17.73	-37.7	-38.8	22.6	0.00e+00	0	28	0	632291328	48	6307
2026-01-16 18:13:05.04	338.55	17.73	-37.6	-38.7	22.7	0.00e+00	0	28	0	634388480	48	6206
2026-01-16 18:13:06.05	338.31	17.72	-37.6	-38.7	22.7	0.00e+00	91	28	0	636485632	48	6195
2026-01-16 18:13:07.06	338.08	17.72	-37.5	-38.6	21.9	0.00e+00	4	28	0	637534208	48	6144
2026-01-16 18:13:08.07	337.85	17.72	-37.4	-38.4	23.0	0.00e+00	90	27	0	639631360	48	5988
2026-01-16 18:13:09.07	337.62	17.71	-37.2	-38.2	23.0	0.00e+00	81	28	0	641728512	48	5888
2026-01-16 18:13:10.09	337.38	17.71	-37.3	-38.3	23.0	0.00e+00	0	28	0	643825664	48	5940
2026-01-16 18:13:11.09	337.15	17.71	-37.3	-38.3	23.0	0.00e+00	0	28	0	645922816	48	5938
2026-01-16 18:13:12.10	336.92	17.70	-37.3	-38.3	23.1	0.00e+00	0	28	0	646971392	48	5935
2026-01-16 18:13:13.11	336.68	17.70	-37.2	-38.2	23.1	0.00e+00	67	28	0	649068544	48	5867
2026-01-16 18:13:14.12	336.45	17.69	-37.2	-38.2	23.2	0.00e+00	0	28	0	651165696	48	5858
2026-01-16 18:13:15.13	336.22	17.68	-37.2	-38.2	23.2	0.00e+00	90	27	0	653262848	48	5836
2026-01-16 18:13:16.14	335.98	17.68	-37.3	-38.3	23.1	0.00e+00	0	27	0	655360000	48	5915
2026-01-16 18:13:17.15	335.75	17.67	-37.3	-38.3	23.1	0.00e+00	82	27	0	656408576	48	5907
2026-01-16 18:13:18.16	335.52	17.66	-37.4	-38.4	23.0	0.00e+00	0	28	0	658505728	48	5998
2026-01-16 18:13:19.17	335.29	17.65	-37.4	-38.4	23.1	0.00e+00	0	28	0	660602880	48	5979
2026-01-16 18:13:20.18	335.05	17.64	-37.4	-38.4	23.0	0.00e+00	84	28	0	662700032	48	5980
2026-01-16 18:13:21.19	334.82	17.63	-37.4	-38.3	23.0	0.00e+00	0	28	0	664797184	48	5959
2026-01-16 18:13:22.20	334.59	17.62	-37.4	-38.3	23.0	0.00e+00	92	28	0	666894336	48	5960
2026-01-16 18:13:23.21	334.36	17.61	-37.3	-38.3	23.2	0.00e+00	0	28	0	667942912	48	5928
2026-01-16 18:13:24.22	334.12	17.60	-37.2	-38.1	23.2	0.00e+00	92	28	0	670040064	48	5822
2026-01-16 18:13:25.23	333.89	17.59	-37.2	-38.1	23.3	0.00e+00	0	28	0	672137216	48	5824
2026-01-16 18:13:26.24	333.66	17.58	-36.9	-37.9	23.5	0.00e+00	0	28	0	674234368	48	5647
2026-01-16 18:13:27.25	333.43	17.57	-36.8	-37.8	23.6	0.00e+00	6	27	0	676331520	48	5569
2026-01-16 18:13:28.26	333.20	17.55	-36.8	-37.7	23.6	0.00e+00	0	28	0	677380096	48	5521
2026-01-16 18:13:29.27	332.97	17.54	-37.0	-37.9	23.5	0.00e+00	90	27	0	679477248	48	5668
2026-01-16 18:13:30.28	332.74	17.53	-37.0	-37.9	23.6	0.00e+00	2	28	0	681574400	48	5648
2026-01-16 18:13:31.29	332.51	17.51	-36.8	-37.8	23.6	0.00e+00	0	28	0	683671552	48	5571
2026-01-16 18:13:32.30	332.28	17.50	-36.9	-37.8	23.6	0.00e+00	2	28	0	685768704	48	5572
2026-01-16 18:13:33.31	332.05	17.48	-36.9	-37.8	23.6	0.00e+00	0	28	0	686817280	48	5616
2026-01-16 18:13:34.32	331.82	17.47	-36.9	-37.8	23.6	0.00e+00	0	28	0	688914432	48	5581
2026-01-16 18:13:35.33	331.59	17.45	-36.8	-37.7	23.7	0.00e+00	1	27	0	691011584	48	5565
2026-01-16 18:13:36.33	331.36	17.44	-36.8	-37.7	23.7	0.00e+00	78	28	0	693108736	46	6185
2026-01-16 18:13:37.34	331.13	17.42	-36.7	-37.6	23.7	0.00e+00	0	28	0	695205888	46	6151
2026-01-16 18:13:38.36	330.90	17.40	-36.7	-37.5	23.8	0.00e+00	92	27	0	696254464	46	6102
2026-01-16 18:13:39.37	330.67	17.38	-36.5	-37.4	24.0	0.00e+00	0	28	0	698351616	46	5966
2026-01-16 18:13:40.37	330.45	17.37	-36.4	-37.3	24.0	0.00e+00	0	28	0	700448768	46	5914
2026-01-16 18:13:41.38	330.22	17.35	-36.5	-37.3	24.0	0.00e+00	82	27	0	702545920	46	5954
2026-01-16 18:13:42.39	329.99	17.33	-36.4	-37.2	24.1	0.00e+00	0	27	0	704643072	46	5896
2026-01-16 18:13:43.41	329.76	17.31	-36.5	-37.3	24.0	0.00e+00	0	27	0	705691648	46	5951
2026-01-16 18:13:44.41	329.54	17.29	-36.4	-37.3	24.1	0.00e+00	0	28	0	707788800	46	5915
2026-01-16 18:13:45.42	329.31	17.27	-36.4	-37.3	24.0	0.00e+00	92	28	0	709885952	46	5908
2026-01-16 18:13:46.43	329.08	17.25	-36.4	-37.3	24.1	0.00e+00	0	28	0	711983104	46	5934
2026-01-16 18:13:47.44	328.86	17.23	-36.4	-37.3	24.1	0.00e+00	0	28	0	714080256	46	5915
2026-01-16 18:13:48.45	328.63	17.20	-36.5	-37.4	24.0	0.00e+00	0	28	0	715128832	46	6013
2026-01-16 18:13:49.46	328.41	17.18	-36.5	-37.4	24.0	0.00e+00	0	27	0	717225984	46	6014
2026-01-16 18:13:50.47	328.18	17.16	-36.7	-37.6	23.9	0.00e+00	0	27	0	719323136	46	6113
2026-01-16 18:13:51.48	327.96	17.14	-36.7	-37.6	23.5	0.00e+00	0	28	0	721420288	46	6166
2026-01-16 18:13:52.49	327.73	17.11	-36.8	-37.7	23.8	0.00e+00	93	27	0	723517440	46	6179
2026-01-16 18:13:53.50	327.51	17.09	-36.6	-37.5	23.9	0.00e+00	0	27	0	724566016	46	6083
2026-01-16 18:13:54.51	327.28	17.06	-36.7	-37.6	23.8	0.00e+00	92	28	0	726663168	46	6123
2026-01-16 18:13:55.52	327.06	17.04	-36.8	-37.7	23.7	0.00e+00	0	27	0	728760320	46	6218
2026-01-16 18:13:56.53	326.84	17.01	-36.8	-37.7	23.7	0.00e+00	0	27	0	730857472	46	6230
2026-01-16 18:13:57.54	326.61	16.99	-36.9	-37.8	23.7	0.00e+00	0	27	0	732954624	46	6266
2026-01-16 18:13:58.55	326.39	16.96	-36.9	-37.8	23.6	0.00e+00	5	27	0	735051776	46	6287
2026-01-16 18:13:59.56	326.17	16.93	-36.9	-37.8	23.6	0.00e+00	70	27	0	736100352	46	6307
2026-01-16 18:14:00.57	325.95	16.91	-36.9	-37.8	23.6	0.00e+00	6	27	0	738197504	46	6288
2026-01-16 18:14:01.58	325.73	16.88	-37.0	-37.9	23.5	0.00e+00	92	27	0	740294656	46	6333
2026-01-16 18:14:02.59	325.51	16.85	-37.0	-37.9	23.5	0.00e+00	0	27	0	742391808	46	6381
2026-01-16 18:14:03.60	325.29	16.82	-37.0	-37.9	23.4	0.00e+00	85	27	0	744488960	46	6369
2026-01-16 18:14:04.61	325.07	16.80	-37.0	-37.9	23.5	0.00e+00	85	27	0	745537536	46	6386
2026-01-16 18:14:05.62	324.85	16.77	-37.0	-37.9	23.6	0.00e+00	86	27	0	747634688	46	6359
2026-01-16 18:14:06.62	324.63	16.74	-37.2	-38.1	23.4	0.00e+00	0	27	0	749731840	46	6473
2026-01-16 18:14:07.63	324.41	16.71	-37.3	-38.2	23.3	0.00e+00	11	28	0	751828992	46	6596
2026-01-16 18:14:08.64	324.20	16.68	-37.3	-38.2	23.2	0.00e+00	92	27	0	753926144	46	6591
2026-01-16 18:14:09.65	323.98	16.65	-37.4	-38.4	23.2	0.00e+00	0	27	0	754974720	46	6706
2026-01-16 18:14:10.66	323.76	16.62	-37.6	-38.6	22.9	0.00e+00	1	27	0	757071872	46	6880
2026-01-16 18:14:11.67	323.54	16.59	-37.6	-38.6	23.0	0.00e+00	1	27	0	759169024	46	6880
2026-01-16 18:14:12.68	323.33	16.55	-37.5	-38.5	23.0	0.00e+00	0	27	0	761266176	46	6809
2026-01-16 18:14:13.69	323.11	16.52	-37.7	-38.6	22.9	0.00e+00	0	27	0	763363328	46	6918
2026-01-16 18:14:14.70	322.90	16.49	-37.7	-38.7	23.0	0.00e+00	8	27	0	764411904	46	6953
2026-01-16 18:14:15.71	322.68	16.46	-37.7	-38.7	22.9	0.00e+00	92	27	0	766509056	48	6183
2026-01-16 18:14:16.72	322.47	16.42	-37.8	-38.8	22.8	0.00e+00	6	27	0	768606208	48	6268
2026-01-16 18:14:17.73	322.25	16.39	-37.7	-38.7	22.8	0.00e+00	73	27	0	770703360	48	6224
2026-01-16 18:14:18.74	322.04	16.36	-37.8	-38.8	22.7	0.00e+00	0	27	0	772800512	48	6289
2026-01-16 18:14:19.75	321.83	16.32	-37.7	-38.6	22.9	0.00e+00	7	27	0	773849088	48	6159
2026-01-16 18:14:20.76	321.61	16.29	-37.7	-38.7	22.8	0.00e+00	5	27	0	775946240	48	6229
2026-01-16 18:14:21.77	321.40	16.25	-37.7	-38.6	22.9	0.00e+00	6	27	0	778043392	48	6162
2026-01-16 18:14:22.77	321.19	16.22	-37.4	-38.4	23.1	0.00e+00	66	27	0	780140544	48	5988
2026-01-16 18:14:23.78	320.98	16.18	-37.4	-38.3	23.2	0.00e+00	0	27	0	782237696	48	5934
2026-01-16 18:14:24.79	320.77	16.15	-37.3	-38.3	23.2	0.00e+00	92	27	0	783286272	48	5903
2026-01-16 18:14:25.80	320.56	16.11	-37.1	-38.0	23.4	0.00e+00	81	27	0	785383424	48	5755
2026-01-16 18:14:26.82	320.35	16.07	-37.1	-38.0	23.5	0.00e+00	81	27	0	787480576	48	5715
2026-01-16 18:14:27.82	320.14	16.04	-37.1	-38.0	23.2	0.00e+00	0	27	0	789577728	48	5708
2026-01-16 18:14:28.84	319.93	16.00	-37.1	-38.0	23.4	0.00e+00	0	27	0	791674880	48	5713
2026-01-16 18:14:29.84	319.73	15.96	-37.2	-38.1	23.3	0.00e+00	0	27	0	792723456	48	5774
2026-01-16 18:14:30.85	319.52	15.92	-37.1	-38.1	23.0	0.00e+00	82	27	0	794820608	48	5771
2026-01-16 18:14:31.86	319.31	15.89	-37.2	-38.1	23.3	0.00e+00	90	27	0	796917760	48	5815
2026-01-16 18:14:32.87	319.11	15.85	-37.3	-38.2	23.2	0.00e+00	0	27	0	799014912	48	5864
2026-01-16 18:14:33.88	318.90	15.81	-37.3	-38.3	23.1	0.00e+00	92	27	0	801112064	48	5901
2026-01-16 18:14:34.88	318.70	15.77	-37.2	-38.2	23.3	0.00e+00	0	27	0	803209216	48	5840
2026-01-16 18:14:35.89	318.49	15.73	-37.2	-38.2	23.2	0.00e+00	2	27	0	804257792	48	5839
2026-01-16 18:14:36.90	318.29	15.69	-37.3	-38.2	23.3	0.00e+00	0	27	0	806354944	48	5879
2026-01-16 18:14:37.91	318.09	15.65	-37.2	-38.2	23.3	0.00e+00	0	27	0	808452096	48	5853
2026-01-16 18:14:38.92	317.88	15.61	-37.2	-38.2	23.2	0.00e+00	92	27	0	810549248	48	5836
2026-01-16 18:14:39.93	317.68	15.57	-37.3	-38.3	23.2	0.00e+00	2	27	0	812646400	48	5900
2026-01-16 18:14:40.94	317.48	15.53	-37.2	-38.2	23.3	0.00e+00	92	27	0	813694976	48	5841
2026-01-16 18:14:41.95	317.28	15.49	-37.3	-38.2	23.3	0.00e+00	0	27	0	815792128	48	5868
2026-01-16 18:14:42.96	317.08	15.44	-37.1	-38.0	23.4	0.00e+00	0	27	0	817889280	48	5757
2026-01-16 18:14:43.97	316.88	15.40	-37.1	-38.0	23.3	0.00e+00	2	27	0	819986432	48	5754
2026-01-16 18:14:44.98	316.68	15.36	-37.2	-38.1	23.3	0.00e+00	0	27	0	822083584	48	5819
2026-01-16 18:14:45.99	316.48	15.32	-37.3	-38.3	23.2	0.00e+00	48	27	0	823132160	48	5900
2026-01-16 18:14:47.00	316.28	15.28	-37.4	-38.3	23.1	0.00e+00	0	27	0	825229312	48	5931
2026-01-16 18:14:48.01	316.08	15.23	-37.6	-38.5	22.9	0.00e+00	92	27	0	827326464	48	6086
2026-01-16 18:14:49.02	315.88	15.19	-37.6	-38.5	23.0	0.00e+00	0	27	0	829423616	48	6090
2026-01-16 18:14:50.03	315.69	15.15	-37.7	-38.7	22.9	0.00e+00	0	27	0	831520768	48	6180
2026-01-16 18:14:51.04	315.49	15.10	-37.6	-38.6	22.9	0.00e+00	4	27	0	832569344	48	6134
2026-01-16 18:14:52.05	315.29	15.06	-37.6	-38.6	22.9	0.00e+00	0	27	0	834666496	48	6147
2026-01-16 18:14:53.06	315.10	15.01	-37.7	-38.7	22.8	0.00e+00	70	27	0	836763648	48	6224
2026-01-16 18:14:54.07	314.91	14.97	-37.6	-38.6	23.0	0.00e+00	0	27	0	838860800	48	6125
2026-01-16 18:14:55.08	314.71	14.92	-37.6	-38.5	22.9	0.00e+00	92	27	0	840957952	48	6081
2026-01-16 18:14:56.08	314.52	14.88	-37.5	-38.5	23.0	0.00e+00	0	27	0	842006528	48	6039
2026-01-16 18:14:57.10	314.33	14.83	-37.5	-38.4	23.1	0.00e+00	92	27	0	844103680	48	6027
2026-01-16 18:14:58.10	314.14	14.79	-37.5	-38.4	23.1	0.00e+00	2	27	0	846200832	48	6027
2026-01-16 18:14:59.11	313.94	14.74	-37.6	-38.5	23.0	0.00e+00	0	27	0	848297984	48	6100
2026-01-16 18:15:00.12	313.75	14.70	-37.7	-38.7	22.9	0.00e+00	0	27	0	850395136	48	6177
2026-01-16 18:15:01.13	313.56	14.65	-37.8	-38.8	22.7	0.00e+00	0	27	0	851443712	48	6281
2026-01-16 18:15:02.14	313.37	14.60	-38.0	-39.1	22.4	0.00e+00	92	27	0	853540864	48	6475
2026-01-16 18:15:03.15	313.18	14.56	-38.1	-39.2	22.4	0.00e+00	2	27	0	855638016	48	6543
2026-01-16 18:15:04.16	313.00	14.51	-38.1	-39.1	22.4	0.00e+00	90	27	0	857735168	48	6514
2026-01-16 18:15:05.17	312.81	14.46	-38.1	-39.1	22.4	0.00e+00	2	27	0	859832320	48	6528
2026-01-16 18:15:06.18	312.62	14.42	-38.1	-39.2	22.4	0.00e+00	0	27	0	860880896	48	6542
2026-01-16 18:15:07.18	312.44	14.37	-38.0	-39.0	22.5	0.00e+00	2	27	0	862978048	48	6420
2026-01-16 18:15:08.20	312.25	14.32	-38.0	-39.1	22.4	0.00e+00	80	27	0	865075200	48	6471
2026-01-16 18:15:09.20	312.06	14.27	-38.1	-39.2	22.4	0.00e+00	0	27	0	867172352	48	6548
2026-01-16 18:15:10.21	311.88	14.23	-38.0	-39.0	22.5	0.00e+00	81	27	0	869269504	48	6424
2026-01-16 18:15:11.22	311.69	14.18	-38.2	-39.2	22.3	0.00e+00	92	27	0	870318080	48	6581
2026-01-16 18:15:12.23	311.51	14.13	-38.2	-39.3	22.1	0.00e+00	81	28	0	872415232	48	6621
2026-01-16 18:15:13.24	311.33	14.08	-38.3	-39.4	22.2	0.00e+00	92	27	0	874512384	48	6706
2026-01-16 18:15:14.25	311.15	14.03	-38.3	-39.4	22.1	0.00e+00	0	27	0	876609536	48	6725
2026-01-16 18:15:15.26	310.96	13.98	-38.4	-39.5	22.1	0.00e+00	0	27	0	878706688	48	6787
2026-01-16 18:15:16.27	310.78	13.93	-38.5	-39.6	22.0	0.00e+00	66	28	0	879755264	48	6887
2026-01-16 18:15:17.28	310.60	13.88	-38.7	-39.9	21.8	0.00e+00	2	27	0	881852416	48	7091
2026-01-16 18:15:18.29	310.42	13.83	-38.6	-39.7	21.8	0.00e+00	91	27	0	883949568	48	6952
2026-01-16 18:15:19.30	310.24	13.78	-38.7	-39.9	21.7	0.00e+00	0	27	0	886046720	50	6318
2026-01-16 18:15:20.31	310.06	13.73	-38.8	-39.9	21.7	0.00e+00	89	27	0	888143872	50	6376
2026-01-16 18:15:21.32	309.89	13.68	-38.9	-40.0	21.5	0.00e+00	0	27	0	889192448	50	6452
2026-01-16 18:15:22.33	309.71	13.63	-38.9	-40.1	21.5	0.00e+00	2	28	0	891289600	50	6485
2026-01-16 18:15:23.34	309.53	13.58	-38.9	-40.1	21.4	0.00e+00	0	28	0	893386752	50	6484
2026-01-16 18:15:24.34	309.36	13.53	-39.0	-40.2	21.4	0.00e+00	2	27	0	895483904	50	6567
2026-01-16 18:15:25.35	309.18	13.48	-39.0	-40.2	21.5	0.00e+00	90	27	0	897581056	50	6561
2026-01-16 18:15:26.36	309.01	13.43	-38.9	-40.0	21.5	0.00e+00	0	27	0	899678208	50	6449
2026-01-16 18:15:27.37	308.83	13.38	-39.0	-40.1	21.5	0.00e+00	90	28	0	900726784	50	6516
2026-01-16 18:15:28.38	308.66	13.33	-38.9	-40.0	21.5	0.00e+00	0	28	0	902823936	50	6431
2026-01-16 18:15:29.39	308.48	13.28	-38.7	-39.8	21.7	0.00e+00	0	27	0	904921088	50	6287
2026-01-16 18:15:30.40	308.31	13.22	-38.7	-39.8	21.8	0.00e+00	0	28	0	907018240	50	6258
2026-01-16 18:15:31.41	308.14	13.17	-38.7	-39.8	21.7	0.00e+00	0	28	0	909115392	50	6303
2026-01-16 18:15:32.42	307.97	13.12	-38.8	-39.9	21.5	0.00e+00	79	28	0	910163968	50	6388
2026-01-16 18:15:33.43	307.80	13.07	-39.1	-40.2	21.4	0.00e+00	74	27	0	912261120	50	6596
2026-01-16 18:15:34.44	307.63	13.02	-39.2	-40.4	21.2	0.00e+00	92	27	0	914358272	50	6736
2026-01-16 18:15:35.45	307.46	12.96	-39.5	-40.7	21.0	0.00e+00	2	28	0	916455424	50	6945
2026-01-16 18:15:36.46	307.29	12.91	-39.5	-40.8	20.8	0.00e+00	92	28	0	918552576	50	7022
2026-01-16 18:15:37.47	307.12	12.86	-39.5	-40.7	20.9	0.00e+00	81	28	0	919601152	50	6993
2026-01-16 18:15:38.48	306.95	12.81	-39.5	-40.7	20.9	0.00e+00	0	28	0	921698304	50	6962
2026-01-16 18:15:39.49	306.78	12.75	-39.6	-40.8	20.9	0.00e+00	0	27	0	923795456	50	7053
2026-01-16 18:15:40.49	306.62	12.70	-39.5	-40.8	20.8	0.00e+00	7	28	0	925892608	50	7008
2026-01-16 18:15:41.50	306.45	12.65	-39.3	-40.5	21.0	0.00e+00	91	28	0	927989760	50	6828
2026-01-16 18:15:42.51	306.29	12.59	-39.4	-40.6	21.0	0.00e+00	0	27	0	929038336	50	6884
2026-01-16 18:15:43.52	306.12	12.54	-39.5	-40.7	20.9	0.00e+00	91	28	0	931135488	50	6968
2026-01-16 18:15:44.53	305.96	12.49	-39.4	-40.6	20.9	0.00e+00	0	27	0	933232640	50	6884
2026-01-16 18:15:45.54	305.80	12.43	-39.4	-40.7	20.9	0.00e+00	7	28	0	935329792	50	6946
2026-01-16 18:15:46.55	305.63	12.38	-39.4	-40.6	21.0	0.00e+00	5	28	0	937426944	50	6924
2026-01-16 18:15:47.56	305.47	12.33	-39.5	-40.7	20.8	0.00e+00	0	28	0	938475520	50	6971
2026-01-16 18:15:48.57	305.31	12.27	-39.5	-40.7	20.9	0.00e+00	83	28	0	940572672	50	7003
2026-01-16 18:15:49.58	305.15	12.22	-39.5	-40.7	20.9	0.00e+00	84	28	0	942669824	50	6964
2026-01-16 18:15:50.59	304.99	12.16	-39.5	-40.7	20.8	0.00e+00	90	28	0	944766976	50	6970
2026-01-16 18:15:51.60	304.83	12.11	-39.5	-40.7	20.9	0.00e+00	84	27	0	946864128	50	6982
2026-01-16 18:15:52.61	304.67	12.06	-39.5	-40.7	21.0	0.00e+00	26	28	0	947912704	50	6939
2026-01-16 18:15:53.61	304.51	12.00	-39.5	-40.7	20.9	0.00e+00	0	28	0	950009856	50	6940
2026-01-16 18:15:54.63	304.35	11.95	-39.4	-40.6	20.9	0.00e+00	0	28	0	952107008	50	6887
2026-01-16 18:15:55.64	304.19	11.89	-39.3	-40.5	21.0	0.00e+00	0	27	0	954204160	50	6842
2026-01-16 18:15:56.64	304.04	11.84	-39.6	-40.8	20.8	0.00e+00	85	28	0	956301312	50	7036
2026-01-16 18:15:57.65	303.88	11.78	-39.4	-40.6	21.0	0.00e+00	91	28	0	957349888	50	6849
2026-01-16 18:15:58.66	303.73	11.73	-39.4	-40.7	20.9	0.00e+00	7	28	0	959447040	50	6929
2026-01-16 18:15:59.67	303.57	11.67	-39.6	-40.8	20.8	0.00e+00	91	28	0	961544192	50	7054
2026-01-16 18:16:00.68	303.42	11.62	-39.5	-40.7	20.8	0.00e+00	6	28	0	963641344	50	6967
2026-01-16 18:16:01.69	303.26	11.56	-39.4	-40.7	20.9	0.00e+00	7	28	0	965738496	50	6940
2026-01-16 18:16:02.70	303.11	11.51	-39.5	-40.8	20.8	0.00e+00	0	28	0	967835648	50	7032
2026-01-16 18:16:03.71	302.96	11.45	-39.5	-40.7	20.9	0.00e+00	4	28	0	968884224	50	6969
2026-01-16 18:16:04.71	302.81	11.40	-39.3	-40.5	21.1	0.00e+00	90	28	0	970981376	50	6828
2026-01-16 18:16:05.73	302.65	11.34	-39.2	-40.4	21.1	0.00e+00	6	28	0	973078528	50	6726
2026-01-16 18:16:06.74	302.50	11.29	-39.0	-40.2	21.3	0.00e+00	90	28	0	975175680	50	6572
2026-01-16 18:16:07.74	302.35	11.23	-39.0	-40.2	21.3	0.00e+00	0	28	0	977272832	50	6544
2026-01-16 18:16:08.76	302.20	11.18	-39.0	-40.2	21.4	0.00e+00	6	28	0	978321408	50	6561
2026-01-16 18:16:09.77	302.05	11.12	-39.0	-40.1	21.4	0.00e+00	0	28	0	980418560	50	6510
2026-01-16 18:16:10.78	301.90	11.06	-38.9	-40.0	21.6	0.00e+00	0	28	0	982515712	50	6411
2026-01-16 18:16:11.79	301.75	11.01	-38.8	-39.9	21.6	0.00e+00	90	28	0	984612864	50	6376
2026-01-16 18:16:12.80	301.61	10.95	-38.8	-39.9	21.6	0.00e+00	0	28	0	986710016	50	6325
2026-01-16 18:16:13.80	301.46	10.90	-38.9	-40.0	21.5	0.00e+00	92	28	0	987758592	50	6421
2026-01-16 18:16:14.81	301.31	10.84	-38.7	-39.8	21.8	0.00e+00	81	28	0	989855744	50	6258
2026-01-16 18:16:15.82	301.17	10.78	-38.6	-39.6	21.9	0.00e+00	81	28	0	991952896	50	6173
2026-01-16 18:16:16.83	301.02	10.73	-38.7	-39.8	21.7	0.00e+00	0	28	0	994050048	50	6251
2026-01-16 18:16:17.84	300.88	10.67	-38.8	-39.9	21.5	0.00e+00	0	28	0	996147200	50	6387
2026-01-16 18:16:18.85	300.73	10.62	-38.8	-39.9	21.5	0.00e+00	0	28	0	997195776	50	6348
2026-01-16 18:16:19.86	300.59	10.56	-38.7	-39.8	21.7	0.00e+00	82	28	0	999292928	50	6283
2026-01-16 18:16:20.87	300.45	10.50	-38.8	-39.9	21.6	0.00e+00	92	28	0	1001390080	50	6342
2026-01-16 18:16:21.88	300.30	10.45	-38.7	-39.8	21.7	0.00e+00	0	28	0	1003487232	50	6304
2026-01-16 18:16:22.88	300.16	10.39	-38.7	-39.8	21.6	0.00e+00	92	28	0	1005584384	50	6274
2026-01-16 18:16:23.90	300.02	10.33	-38.6	-39.7	21.8	0.00e+00	0	28	0	1006632960	50	6227
2026-01-16 18:16:24.91	299.88	10.28	-38.4	-39.5	21.9	0.00e+00	0	28	0	1008730112	50	6069
2026-01-16 18:16:25.92	299.74	10.22	-38.5	-39.6	21.8	0.00e+00	0	28	0	1010827264	50	6128
2026-01-16 18:16:26.93	299.60	10.16	-38.4	-39.4	22.1	0.00e+00	0	28	0	1012924416	50	6017
2026-01-16 18:16:27.93	299.46	10.11	-38.2	-39.3	22.1	0.00e+00	92	28	0	1015021568	50	5926
2026-01-16 18:16:28.94	299.32	10.05	-38.4	-39.5	21.9	0.00e+00	0	28	0	1016070144	50	6051
2026-01-16 18:16:29.95	299.19	10.00	-38.1	-39.1	22.3	0.00e+00	92	28	0	1018167296	50	5792
2026-01-16 18:16:30.96	299.05	9.94	-38.3	-39.3	22.1	0.00e+00	0	28	0	1020264448	50	5959
2026-01-16 18:16:31.97	298.91	9.88	-38.0	-39.0	22.4	0.00e+00	0	28	0	1022361600	50	5719
2026-01-16 18:16:32.98	298.77	9.83	-38.0	-39.0	22.3	0.00e+00	69	28	0	1024458752	50	5752
2026-01-16 18:16:33.99	298.64	9.77	-38.0	-39.0	22.4	0.00e+00	77	28	0	1025507328	50	5747
2026-01-16 18:16:35.00	298.50	9.71	-38.1	-39.1	22.3	0.00e+00	65	28	0	1027604480	50	5796
2026-01-16 18:16:36.01	298.37	9.65	-37.9	-38.9	22.4	0.00e+00	81	28	0	1029701632	50	5684
2026-01-16 18:16:37.02	298.23	9.60	-37.9	-38.9	22.4	0.00e+00	92	28	0	1031798784	50	5676
2026-01-16 18:16:38.03	298.10	9.54	-38.0	-39.0	22.4	0.00e+00	81	28	0	1033895936	50	5720
2026-01-16 18:16:39.04	297.97	9.48	-37.8	-38.8	22.4	0.00e+00	0	28	0	1035993088	50	5613
2026-01-16 18:16:40.05	297.83	9.43	-37.7	-38.7	22.2	0.00e+00	0	28	0	1037041664	48	6210
2026-01-16 18:16:41.06	297.70	9.37	-37.7	-38.7	22.4	0.00e+00	0	28	0	1039138816	48	6200
2026-01-16 18:16:42.07	297.57	9.31	-37.6	-38.6	22.7	0.00e+00	0	28	0	1041235968	48	6134
2026-01-16 18:16:43.08	297.44	9.26	-37.6	-38.6	22.7	0.00e+00	0	28	0	1043333120	48	6108
2026-01-16 18:16:44.08	297.31	9.20	-37.6	-38.6	22.7	0.00e+00	92	28	0	1045430272	48	6138
2026-01-16 18:16:45.10	297.18	9.14	-37.6	-38.6	22.5	0.00e+00	0	28	0	1046478848	48	6119
2026-01-16 18:16:46.11	297.05	9.09	-37.4	-38.4	22.9	0.00e+00	92	28	0	1048576000	48	5979
2026-01-16 18:16:47.12	296.92	9.03	-37.5	-38.5	22.4	0.00e+00	0	28	0	1050673152	48	6074
2026-01-16 18:16:48.12	296.79	8.97	-37.4	-38.3	22.8	0.00e+00	0	28	0	1052770304	48	5961
2026-01-16 18:16:49.13	296.66	8.91	-37.5	-38.4	22.8	0.00e+00	0	28	0	1054867456	48	6033
2026-01-16 18:16:50.14	296.54	8.86	-37.5	-38.5	22.7	0.00e+00	0	28	0	1055916032	48	6051
2026-01-16 18:16:51.15	296.41	8.80	-37.6	-38.6	22.7	0.00e+00	92	28	0	1058013184	48	6148
2026-01-16 18:16:52.16	296.28	8.74	-37.5	-38.5	22.6	0.00e+00	0	28	0	1060110336	48	6099
2026-01-16 18:16:53.17	296.16	8.69	-37.7	-38.7	22.6	0.00e+00	92	28	0	1062207488	48	6237
2026-01-16 18:16:54.18	296.03	8.63	-37.8	-38.8	22.4	0.00e+00	81	28	0	1064304640	48	6287
2026-01-16 18:16:55.19	295.91	8.57	-37.8	-38.8	22.5	0.00e+00	80	28	0	1065353216	48	6278
2026-01-16 18:16:56.20	295.78	8.52	-37.9	-38.9	22.5	0.00e+00	0	28	0	1067450368	48	6358
2026-01-16 18:16:57.21	295.66	8.46	-37.7	-38.7	22.6	0.00e+00	0	28	0	1069547520	48	6200
2026-01-16 18:16:58.22	295.53	8.40	-37.7	-38.7	22.5	0.00e+00	12	28	0	1071644672	48	6220
2026-01-16 18:16:59.23	295.41	8.34	-37.7	-38.7	22.6	0.00e+00	0	28	0	1073741824	48	6237
2026-01-16 18:17:00.24	295.29	8.29	-37.7	-38.7	22.5	0.00e+00	92	28	0	1074790400	48	6197
2026-01-16 18:17:01.24	295.17	8.23	-37.8	-38.8	22.4	0.00e+00	3	28	0	1076887552	48	6314
2026-01-16 18:17:02.25	295.05	8.17	-37.9	-39.0	22.3	0.00e+00	16	28	0	1078984704	48	6415
2026-01-16 18:17:03.26	294.93	8.12	-38.0	-39.0	22.3	0.00e+00	3	28	0	1081081856	48	6431
2026-01-16 18:17:04.27	294.80	8.06	-38.0	-39.0	22.3	0.00e+00	3	28	0	1083179008	48	6436
2026-01-16 18:17:05.28	294.68	8.00	-37.8	-38.9	22.2	0.00e+00	75	28	0	1084227584	48	6332
2026-01-16 18:17:06.29	294.56	7.95	-38.1	-39.2	22.0	0.00e+00	0	28	0	1086324736	48	6577
2026-01-16 18:17:07.30	294.45	7.89	-38.3	-39.4	21.8	0.00e+00	92	28	0	1088421888	48	6699
2026-01-16 18:17:08.31	294.33	7.83	-38.4	-39.6	21.7	0.00e+00	0	28	0	1090519040	48	6849
2026-01-16 18:17:09.32	294.21	7.77	-38.2	-39.3	21.9	0.00e+00	92	28	0	1092616192	48	6676
2026-01-16 18:17:10.33	294.09	7.72	-38.3	-39.4	21.8	0.00e+00	0	28	0	1093664768	48	6739
2026-01-16 18:17:11.34	293.97	7.66	-38.3	-39.4	21.8	0.00e+00	0	28	0	1095761920	48	6761
2026-01-16 18:17:12.35	293.86	7.60	-38.4	-39.6	21.8	0.00e+00	0	28	0	1097859072	48	6865
2026-01-16 18:17:13.36	293.74	7.55	-38.1	-39.2	21.9	0.00e+00	0	28	0	1099956224	48	6584
2026-01-16 18:17:14.37	293.62	7.49	-38.3	-39.4	21.9	0.00e+00	85	28	0	1102053376	48	6707
2026-01-16 18:17:15.38	293.51	7.43	-38.2	-39.3	21.9	0.00e+00	2	28	0	1103101952	48	6660
2026-01-16 18:17:16.39	293.39	7.38	-38.0	-39.1	22.0	0.00e+00	92	28	0	1105199104	48	6516
2026-01-16 18:17:17.39	293.28	7.32	-38.0	-39.1	22.0	0.00e+00	0	28	0	1107296256	48	6497
2026-01-16 18:17:18.40	293.17	7.26	-38.2	-39.3	21.9	0.00e+00	81	28	0	1109393408	48	6663
2026-01-16 18:17:19.42	293.05	7.21	-38.3	-39.4	21.8	0.00e+00	0	28	0	1111490560	48	6707
2026-01-16 18:17:20.43	292.94	7.15	-38.4	-39.5	21.7	0.00e+00	0	28	0	1112539136	48	6837
2026-01-16 18:17:21.44	292.83	7.09	-38.6	-39.7	21.3	0.00e+00	81	28	0	1114636288	48	7003
2026-01-16 18:17:22.45	292.71	7.04	-38.5	-39.6	21.7	0.00e+00	3	28	0	1116733440	50	6160
2026-01-16 18:17:23.45	292.60	6.98	-38.6	-39.8	21.3	0.00e+00	92	28	0	1118830592	50	6275
2026-01-16 18:17:24.47	292.49	6.92	-38.5	-39.6	21.6	0.00e+00	1	28	0	1120927744	50	6124
2026-01-16 18:17:25.48	292.38	6.87	-38.6	-39.7	21.4	0.00e+00	49	28	0	1121976320	50	6239
2026-01-16 18:17:26.49	292.27	6.81	-38.8	-40.0	21.3	0.00e+00	6	28	0	1124073472	50	6451
2026-01-16 18:17:27.49	292.16	6.75	-38.8	-40.0	21.2	0.00e+00	5	28	0	1126170624	50	6418
2026-01-16 18:17:28.50	292.05	6.70	-38.9	-40.1	21.0	0.00e+00	21	28	0	1128267776	50	6527
2026-01-16 18:17:29.52	291.94	6.64	-39.1	-40.3	20.8	0.00e+00	5	28	0	1130364928	50	6684
2026-01-16 18:17:30.52	291.83	6.58	-38.9	-40.1	21.1	0.00e+00	90	28	0	1132462080	50	6466
2026-01-16 18:17:31.53	291.72	6.53	-39.0	-40.2	21.1	0.00e+00	0	28	0	1133510656	50	6562
2026-01-16 18:17:32.54	291.62	6.47	-38.8	-39.9	21.2	0.00e+00	90	28	0	1135607808	50	6372
2026-01-16 18:17:33.55	291.51	6.41	-38.7	-39.9	21.2	0.00e+00	5	28	0	1137704960	50	6369
2026-01-16 18:17:34.56	291.40	6.36	-38.8	-39.9	21.2	0.00e+00	0	28	0	1139802112	50	6374
2026-01-16 18:17:35.57	291.30	6.30	-39.0	-40.2	20.9	0.00e+00	0	28	0	1141899264	50	6581
2026-01-16 18:17:36.58	291.19	6.24	-39.1	-40.4	20.8	0.00e+00	80	28	0	1142947840	50	6719
2026-01-16 18:17:37.59	291.08	6.19	-39.1	-40.4	20.8	0.00e+00	90	28	0	1145044992	50	6706
2026-01-16 18:17:38.60	290.98	6.13	-39.2	-40.4	20.7	0.00e+00	0	28	0	1147142144	50	6769
2026-01-16 18:17:39.60	290.87	6.07	-39.0	-40.2	20.9	0.00e+00	92	28	0	1149239296	50	6596
2026-01-16 18:17:40.61	290.77	6.02	-39.2	-40.4	20.7	0.00e+00	79	28	0	1151336448	50	6732
2026-01-16 18:17:41.62	290.67	5.96	-39.0	-40.2	20.9	0.00e+00	0	28	0	1152385024	50	6582
2026-01-16 18:17:42.63	290.56	5.91	-39.2	-40.5	20.7	0.00e+00	7	29	0	1154482176	50	6805
2026-01-16 18:17:43.64	290.46	5.85	-39.2	-40.4	20.7	0.00e+00	79	29	0	1156579328	50	6748
2026-01-16 18:17:44.65	290.36	5.79	-39.4	-40.7	20.5	0.00e+00	80	28	0	1158676480	50	6971
2026-01-16 18:17:45.66	290.25	5.74	-39.4	-40.7	20.6	0.00e+00	0	28	0	1160773632	50	6931
2026-01-16 18:17:46.67	290.15	5.68	-39.6	-40.9	20.1	0.00e+00	92	29	0	1161822208	50	7140
2026-01-16 18:17:47.68	290.05	5.63	-39.6	-40.9	20.3	0.00e+00	7	29	0	1163919360	50	7156
2026-01-16 18:17:48.68	289.95	5.57	-39.6	-41.0	20.1	0.00e+00	67	28	0	1166016512	52	6409
2026-01-16 18:17:49.69	289.85	5.51	-39.9	-41.3	19.9	0.00e+00	6	28	0	1168113664	52	6640
2026-01-16 18:17:50.71	289.75	5.46	-39.8	-41.2	19.8	0.00e+00	6	29	0	1170210816	52	6585
2026-01-16 18:17:51.72	289.65	5.40	-39.7	-41.1	20.0	0.00e+00	11	29	0	1171259392	52	6521
2026-01-16 18:17:52.72	289.55	5.35	-40.0	-41.5	19.6	0.00e+00	7	29	0	1173356544	52	6807
2026-01-16 18:17:53.73	289.45	5.29	-39.9	-41.3	19.8	0.00e+00	92	29	0	1175453696	52	6664
2026-01-16 18:17:54.74	289.35	5.23	-39.8	-41.2	19.9	0.00e+00	8	29	0	1177550848	52	6607
2026-01-16 18:17:55.76	289.25	5.18	-39.9	-41.3	19.8	0.00e+00	32	29	0	1179648000	52	6661
2026-01-16 18:17:56.77	289.15	5.12	-39.9	-41.3	19.8	0.00e+00	0	29	0	1180696576	52	6666
2026-01-16 18:17:57.77	289.06	5.07	-40.2	-41.7	19.4	0.00e+00	6	29	0	1182793728	52	6963
2026-01-16 18:17:58.78	288.96	5.01	-40.0	-41.5	19.7	0.00e+00	0	29	0	1184890880	52	6774
2026-01-16 18:17:59.79	288.86	4.96	-39.9	-41.3	19.7	0.00e+00	74	29	0	1186988032	52	6690
2026-01-16 18:18:00.80	288.77	4.90	-40.1	-41.6	19.5	0.00e+00	92	29	0	1189085184	52	6881
2026-01-16 18:18:01.81	288.67	4.84	-39.8	-41.2	19.8	0.00e+00	0	29	0	1190133760	52	6599
2026-01-16 18:18:02.82	288.57	4.79	-40.1	-41.6	19.4	0.00e+00	91	29	0	1192230912	52	6886
2026-01-16 18:18:03.83	288.48	4.73	-40.2	-41.7	19.4	0.00e+00	8	29	0	1194328064	52	6981
2026-01-16 18:18:04.84	288.38	4.68	-40.2	-41.6	19.4	0.00e+00	8	29	0	1196425216	52	6924
2026-01-16 18:18:05.85	288.29	4.62	-40.2	-41.8	19.3	0.00e+00	6	29	0	1198522368	52	7019
2026-01-16 18:18:06.86	288.19	4.57	-40.1	-41.6	19.4	0.00e+00	1	29	0	1200619520	52	6909
