passes_logs/2026/01/16/R4.6S_Anadyr/R4.6S_Anadyr__20260116_194518_NOAA_20_JPSS-1_rec.log

#Pass ID: 20260116_194518_NOAA 20 (JPSS-1)
#Satellite: NOAA 20 (JPSS-1)
#Configuration: NOAA 20
#almurnet v.1.7.20251203
#Start time: 2026-01-16 19:45:18

#Version: 2.2.20231116
#Station: R4.6S_Anadyr
#Location: 177.4865 lon 64.73178 lat
#TLE: 1 43013U 17073A   26015.89389188  .00000026  00000+0  33113-4 0  9999
#TLE: 2 43013  98.7636 316.8238 0001460  37.8997 322.2282 14.19536128422860

#Time	Az	El	Level	Level2	SNR	BER	BlckErr	Temp	State	Recorded	gain1	gain2
2026-01-16 19:45:18.71	58.16	0.03	-48.3	-66.0	3.5	3.03e+01	0	26	0	0	60	77165
2026-01-16 19:45:19.72	58.09	0.08	-48.2	-63.3	3.6	1.51e+00	0	27	104	0	60	53082
2026-01-16 19:45:20.73	58.01	0.13	-48.1	-63.3	3.5	1.51e+00	0	28	104	0	60	52976
2026-01-16 19:45:21.74	57.94	0.18	-48.3	-63.5	3.6	1.51e+00	0	27	104	0	60	53971
2026-01-16 19:45:22.75	57.86	0.23	-48.1	-63.3	3.6	1.51e+00	0	28	104	0	60	52857
2026-01-16 19:45:23.76	57.78	0.27	-48.1	-63.3	3.6	1.51e+00	0	28	104	0	60	53013
2026-01-16 19:45:24.77	57.70	0.32	-48.1	-63.3	3.6	1.51e+00	0	28	104	0	60	52808
2026-01-16 19:45:25.78	57.63	0.37	-48.1	-63.3	3.6	1.51e+00	0	27	104	0	60	52591
2026-01-16 19:45:26.79	57.55	0.42	-48.2	-63.4	3.6	1.51e+00	0	28	104	0	60	53463
2026-01-16 19:45:27.80	57.47	0.47	-48.1	-63.3	3.6	1.51e+00	0	28	104	0	60	52674
2026-01-16 19:45:28.81	57.39	0.52	-48.1	-63.3	3.5	1.51e+00	0	28	104	0	60	53001
2026-01-16 19:45:29.82	57.31	0.57	-48.0	-63.3	3.6	1.51e+00	0	28	104	0	60	52966
2026-01-16 19:45:30.83	57.24	0.62	-48.0	-63.2	3.6	1.51e+00	0	28	104	0	60	52338
2026-01-16 19:45:31.84	57.16	0.67	-47.9	-63.1	3.6	1.51e+00	0	28	104	0	60	51792
2026-01-16 19:45:32.85	57.08	0.72	-47.7	-62.9	3.6	1.51e+00	0	28	104	0	60	50562
2026-01-16 19:45:33.86	57.00	0.77	-47.6	-62.8	3.6	1.51e+00	0	28	104	0	60	49612
2026-01-16 19:45:34.87	56.92	0.82	-47.0	-62.2	3.6	1.51e+00	0	28	104	0	60	46804
2026-01-16 19:45:35.88	56.84	0.87	-46.5	-61.7	3.6	1.51e+00	0	28	104	0	60	43742
2026-01-16 19:45:36.89	56.76	0.92	-46.4	-61.5	3.6	1.51e+00	0	28	104	0	60	43062
2026-01-16 19:45:37.90	56.68	0.96	-46.4	-61.6	3.6	1.51e+00	0	28	104	0	60	43484
2026-01-16 19:45:38.91	56.60	1.01	-46.4	-61.5	3.6	1.51e+00	0	28	104	0	60	43168
2026-01-16 19:45:39.92	56.51	1.06	-46.4	-61.6	3.6	1.51e+00	0	28	104	0	60	43280
2026-01-16 19:45:40.93	56.43	1.11	-46.3	-61.4	3.6	1.51e+00	0	28	104	0	60	42672
2026-01-16 19:45:41.94	56.35	1.16	-46.3	-61.5	3.6	1.51e+00	0	28	104	0	60	42864
2026-01-16 19:45:42.95	56.27	1.21	-46.3	-61.5	3.6	1.51e+00	0	28	104	0	60	42746
2026-01-16 19:45:43.96	56.19	1.26	-46.4	-61.6	3.6	1.51e+00	0	28	104	0	60	43318
2026-01-16 19:45:44.97	56.10	1.31	-46.4	-61.6	3.6	1.51e+00	0	28	104	0	60	43384
2026-01-16 19:45:45.98	56.02	1.36	-46.3	-61.5	3.6	1.51e+00	0	28	104	0	60	42754
2026-01-16 19:45:46.99	55.94	1.41	-46.3	-61.5	3.6	1.51e+00	0	28	104	0	60	43093
2026-01-16 19:45:48.00	55.85	1.46	-46.3	-61.5	3.6	1.51e+00	0	28	104	0	60	42923
2026-01-16 19:45:49.01	55.77	1.51	-46.4	-61.5	3.6	1.51e+00	0	28	104	0	60	43082
2026-01-16 19:45:50.02	55.69	1.56	-46.4	-61.6	3.6	1.51e+00	0	28	104	0	60	43320
2026-01-16 19:45:51.03	55.60	1.61	-46.4	-61.6	3.6	1.51e+00	0	28	104	0	60	43235
2026-01-16 19:45:52.04	55.52	1.66	-46.4	-61.5	3.6	1.51e+00	0	28	104	0	60	43158
2026-01-16 19:45:53.05	55.43	1.71	-46.4	-61.5	3.6	1.51e+00	0	28	104	0	60	43148
2026-01-16 19:45:54.06	55.35	1.76	-46.4	-61.5	3.6	1.51e+00	0	28	104	0	60	43162
2026-01-16 19:45:55.07	55.26	1.81	-46.4	-61.5	3.6	1.51e+00	0	28	104	0	60	43083
2026-01-16 19:45:56.08	55.17	1.86	-46.4	-61.4	3.6	1.51e+00	0	28	104	0	60	42643
2026-01-16 19:45:57.09	55.09	1.91	-46.4	-61.4	3.6	1.51e+00	0	28	104	0	60	42685
2026-01-16 19:45:58.10	55.00	1.96	-46.3	-61.4	3.6	1.51e+00	0	28	104	0	60	42346
2026-01-16 19:45:59.11	54.91	2.01	-46.5	-61.4	3.6	1.51e+00	0	28	104	0	60	42422
2026-01-16 19:46:00.12	54.83	2.06	-46.4	-61.2	3.6	1.51e+00	0	28	104	0	60	41510
2026-01-16 19:46:01.13	54.74	2.11	-46.3	-61.1	3.6	1.51e+00	0	28	104	0	60	40923
2026-01-16 19:46:02.14	54.65	2.16	-46.5	-61.3	3.6	1.51e+00	0	28	104	0	60	42078
2026-01-16 19:46:03.15	54.56	2.21	-46.4	-61.5	3.6	1.51e+00	0	28	104	0	60	42724
2026-01-16 19:46:04.16	54.48	2.26	-46.4	-61.6	3.6	1.51e+00	0	28	104	0	60	43298
2026-01-16 19:46:05.16	54.39	2.31	-46.4	-61.6	3.6	1.51e+00	0	28	104	0	60	43332
2026-01-16 19:46:06.17	54.30	2.36	-46.5	-61.6	3.6	1.51e+00	0	28	104	0	60	43409
2026-01-16 19:46:07.18	54.21	2.41	-46.4	-61.5	3.6	1.51e+00	0	28	104	0	60	43170
2026-01-16 19:46:08.20	54.12	2.46	-46.4	-61.6	3.6	1.51e+00	0	28	104	0	60	43252
2026-01-16 19:46:09.21	54.03	2.51	-46.4	-61.4	3.6	1.51e+00	0	28	104	0	60	42687
2026-01-16 19:46:10.22	53.94	2.56	-46.3	-60.9	3.6	1.51e+00	0	28	104	0	60	40037
2026-01-16 19:46:11.23	53.85	2.61	-46.4	-60.8	3.6	1.51e+00	0	28	104	0	60	39640
2026-01-16 19:46:12.24	53.76	2.67	-46.4	-60.8	3.6	1.51e+00	0	28	104	0	60	39486
2026-01-16 19:46:13.25	53.67	2.72	-46.4	-61.3	3.6	1.51e+00	0	28	104	0	60	42012
2026-01-16 19:46:14.26	53.57	2.77	-46.4	-60.2	3.6	1.51e+00	0	28	104	0	60	37011
2026-01-16 19:46:15.26	53.48	2.82	-46.1	-56.3	4.7	1.47e+00	0	28	0	0	60	23684
2026-01-16 19:46:16.27	53.39	2.87	-45.7	-52.6	7.4	2.18e-01	92	28	0	2097152	60	15384
2026-01-16 19:46:17.29	53.30	2.92	-45.0	-50.1	10.2	2.47e-02	47	28	0	3145728	60	11527
2026-01-16 19:46:18.30	53.20	2.97	-44.2	-48.3	12.0	1.47e-03	92	28	0	5242880	60	9439
2026-01-16 19:46:19.31	53.11	3.02	-43.7	-47.2	13.5	1.55e-04	0	28	0	7340032	60	8247
2026-01-16 19:46:20.31	53.02	3.07	-46.2	-55.1	4.8	1.03e+00	90	28	0	8388608	60	20611
2026-01-16 19:46:21.32	52.92	3.12	-45.4	-50.7	9.7	1.14e+00	0	28	0	10485760	60	12430
2026-01-16 19:46:22.33	52.83	3.17	-43.9	-47.6	14.4	2.08e-03	47	28	0	12582912	60	8669
2026-01-16 19:46:23.34	52.74	3.22	-42.4	-44.9	14.8	7.00e-07	92	28	0	14680064	58	7169
2026-01-16 19:46:24.35	52.64	3.27	-46.3	-60.5	3.6	1.51e+00	0	28	104	14680064	60	38396
2026-01-16 19:46:25.36	52.55	3.32	-42.8	-45.6	14.9	9.44e-01	92	28	104	14680064	60	6852
2026-01-16 19:46:26.37	52.45	3.37	-42.1	-44.5	16.1	0.00e+00	0	28	0	15728640	58	6792
2026-01-16 19:46:27.38	52.35	3.42	-42.5	-44.9	15.9	0.00e+00	90	28	0	17825792	58	7166
2026-01-16 19:46:28.38	52.26	3.47	-41.9	-44.1	16.4	0.00e+00	35	28	0	19922944	58	6523
2026-01-16 19:46:29.39	52.16	3.53	-42.0	-44.3	16.7	0.00e+00	92	28	0	20971520	58	6641
2026-01-16 19:46:30.41	52.06	3.58	-42.0	-44.2	16.7	0.00e+00	2	28	0	23068672	56	7407
2026-01-16 19:46:31.41	51.97	3.63	-41.9	-44.1	16.6	0.00e+00	7	28	0	25165824	56	7274
2026-01-16 19:46:32.42	51.87	3.68	-41.8	-43.9	16.9	0.00e+00	92	28	0	27262976	56	7150
2026-01-16 19:46:33.44	51.77	3.73	-42.2	-44.4	16.6	0.00e+00	0	28	0	29360128	56	7528
2026-01-16 19:46:34.44	51.67	3.78	-42.1	-44.2	16.7	0.00e+00	92	28	0	30408704	56	7391
2026-01-16 19:46:35.45	51.57	3.83	-42.0	-44.2	16.9	0.00e+00	5	28	0	32505856	56	7338
2026-01-16 19:46:36.45	51.48	3.88	-41.7	-43.8	17.2	0.00e+00	92	28	0	34603008	56	7009
2026-01-16 19:46:37.46	51.38	3.93	-41.7	-43.8	17.0	0.00e+00	0	28	0	36700160	56	7025
2026-01-16 19:46:38.47	51.28	3.98	-41.7	-43.7	17.2	0.00e+00	32	28	0	38797312	56	6971
2026-01-16 19:46:39.48	51.18	4.03	-42.0	-44.2	16.7	0.00e+00	92	28	0	39845888	56	7412
2026-01-16 19:46:40.49	51.08	4.08	-42.0	-44.1	16.7	0.00e+00	0	28	0	41943040	56	7318
2026-01-16 19:46:41.50	50.98	4.14	-41.5	-43.5	17.5	0.00e+00	92	28	0	44040192	56	6815
2026-01-16 19:46:42.51	50.87	4.19	-41.3	-43.1	17.7	0.00e+00	49	28	0	46137344	56	6525
2026-01-16 19:46:43.52	50.77	4.24	-41.5	-43.4	17.4	0.00e+00	92	28	0	48234496	56	6763
2026-01-16 19:46:44.53	50.67	4.29	-41.3	-43.2	17.7	0.00e+00	32	28	0	49283072	56	6558
2026-01-16 19:46:45.54	50.57	4.34	-41.4	-43.3	17.6	0.00e+00	72	28	0	51380224	56	6625
2026-01-16 19:46:46.54	50.47	4.39	-41.3	-43.2	17.8	0.00e+00	90	28	0	53477376	56	6556
2026-01-16 19:46:47.55	50.36	4.44	-41.3	-43.1	17.9	0.00e+00	38	28	0	55574528	56	6496
2026-01-16 19:46:48.57	50.26	4.49	-41.3	-43.1	17.8	0.00e+00	90	28	0	57671680	56	6484
2026-01-16 19:46:49.58	50.16	4.54	-41.0	-42.8	18.2	0.00e+00	0	28	0	58720256	56	6258
2026-01-16 19:46:50.58	50.05	4.59	-41.2	-42.9	18.1	0.00e+00	92	28	0	60817408	56	6388
2026-01-16 19:46:51.59	49.95	4.65	-41.5	-43.3	17.7	0.00e+00	6	28	0	62914560	56	6687
2026-01-16 19:46:52.60	49.84	4.70	-41.0	-42.7	18.2	0.00e+00	92	28	0	65011712	56	6223
2026-01-16 19:46:53.61	49.74	4.75	-41.1	-42.9	18.2	0.00e+00	92	28	0	67108864	56	6334
2026-01-16 19:46:54.62	49.63	4.80	-40.9	-42.6	18.4	0.00e+00	7	28	0	68157440	56	6163
2026-01-16 19:46:55.63	49.53	4.85	-41.1	-42.8	18.4	0.00e+00	92	28	0	70254592	56	6312
2026-01-16 19:46:56.64	49.42	4.90	-40.9	-42.6	18.4	0.00e+00	6	28	0	72351744	54	6895
2026-01-16 19:46:57.65	49.31	4.95	-41.0	-42.7	18.3	0.00e+00	91	28	0	74448896	54	6947
2026-01-16 19:46:58.66	49.21	5.00	-41.0	-42.7	18.3	0.00e+00	6	28	0	76546048	54	7006
2026-01-16 19:46:59.67	49.10	5.05	-40.8	-42.5	18.4	0.00e+00	92	28	0	77594624	54	6817
2026-01-16 19:47:00.68	48.99	5.11	-40.7	-42.4	18.5	0.00e+00	0	28	0	79691776	54	6703
2026-01-16 19:47:01.68	48.88	5.16	-40.9	-42.6	18.4	0.00e+00	7	28	0	81788928	54	6875
2026-01-16 19:47:02.69	48.77	5.21	-40.7	-42.3	18.7	0.00e+00	92	28	0	83886080	54	6692
2026-01-16 19:47:03.70	48.66	5.26	-40.7	-42.3	18.7	0.00e+00	0	28	0	85983232	54	6668
2026-01-16 19:47:04.71	48.56	5.31	-40.5	-42.1	19.0	0.00e+00	92	28	0	87031808	54	6494
2026-01-16 19:47:05.72	48.45	5.36	-40.6	-42.2	18.9	0.00e+00	48	28	0	89128960	54	6550
2026-01-16 19:47:06.73	48.33	5.41	-40.6	-42.2	18.8	0.00e+00	92	28	0	91226112	54	6580
2026-01-16 19:47:07.74	48.22	5.46	-40.4	-41.9	19.1	0.00e+00	35	28	0	93323264	54	6388
2026-01-16 19:47:08.75	48.11	5.51	-40.6	-42.2	19.0	0.00e+00	92	28	0	95420416	54	6566
2026-01-16 19:47:09.76	48.00	5.57	-40.6	-42.1	19.1	0.00e+00	92	28	0	96468992	54	6497
2026-01-16 19:47:10.77	47.89	5.62	-40.4	-41.9	19.3	0.00e+00	48	28	0	98566144	54	6390
2026-01-16 19:47:11.78	47.78	5.67	-40.5	-42.0	19.1	0.00e+00	92	28	0	100663296	54	6453
2026-01-16 19:47:12.79	47.66	5.72	-40.5	-42.0	19.1	0.00e+00	32	28	0	102760448	54	6449
2026-01-16 19:47:13.80	47.55	5.77	-40.5	-42.0	19.2	0.00e+00	92	28	0	104857600	54	6442
2026-01-16 19:47:14.81	47.44	5.82	-40.3	-41.8	19.2	0.00e+00	33	28	0	106954752	54	6293
2026-01-16 19:47:15.82	47.32	5.87	-40.3	-41.8	19.3	0.00e+00	2	28	0	108003328	54	6306
2026-01-16 19:47:16.83	47.21	5.92	-40.5	-42.1	19.1	0.00e+00	75	28	0	110100480	54	6490
2026-01-16 19:47:17.84	47.09	5.97	-40.4	-42.0	19.1	0.00e+00	2	28	0	112197632	54	6415
2026-01-16 19:47:18.85	46.98	6.03	-40.6	-42.2	18.9	0.00e+00	92	28	0	114294784	54	6567
2026-01-16 19:47:19.86	46.86	6.08	-40.6	-42.1	19.0	0.00e+00	0	28	0	116391936	54	6513
2026-01-16 19:47:20.87	46.75	6.13	-40.4	-41.9	19.3	0.00e+00	90	28	0	117440512	54	6326
2026-01-16 19:47:21.88	46.63	6.18	-40.4	-41.9	19.1	0.00e+00	0	28	0	119537664	54	6386
2026-01-16 19:47:22.89	46.51	6.23	-40.3	-41.8	19.3	0.00e+00	91	28	0	121634816	54	6290
2026-01-16 19:47:23.90	46.40	6.28	-40.5	-42.1	19.1	0.00e+00	0	28	0	123731968	54	6500
2026-01-16 19:47:24.91	46.28	6.33	-40.3	-41.8	19.2	0.00e+00	8	28	0	125829120	54	6297
2026-01-16 19:47:25.92	46.16	6.38	-40.4	-42.0	19.1	0.00e+00	91	28	0	126877696	54	6393
2026-01-16 19:47:26.93	46.04	6.43	-40.5	-42.0	19.0	0.00e+00	33	28	0	128974848	54	6456
2026-01-16 19:47:27.93	45.92	6.48	-40.7	-42.3	18.9	0.00e+00	92	28	0	131072000	54	6689
2026-01-16 19:47:28.94	45.81	6.54	-40.6	-42.2	19.0	0.00e+00	48	28	0	133169152	54	6558
2026-01-16 19:47:29.95	45.69	6.59	-40.6	-42.2	19.1	0.00e+00	90	28	0	135266304	54	6543
2026-01-16 19:47:30.96	45.56	6.64	-40.5	-42.0	19.2	0.00e+00	0	28	0	136314880	54	6444
2026-01-16 19:47:31.97	45.44	6.69	-40.4	-41.9	19.3	0.00e+00	34	28	0	138412032	54	6377
2026-01-16 19:47:32.98	45.32	6.74	-40.5	-42.1	19.0	0.00e+00	92	28	0	140509184	54	6483
2026-01-16 19:47:33.99	45.20	6.79	-40.4	-41.9	19.2	0.00e+00	32	28	0	142606336	54	6385
2026-01-16 19:47:35.00	45.08	6.84	-40.5	-42.0	19.2	0.00e+00	90	28	0	144703488	54	6434
2026-01-16 19:47:36.01	44.96	6.89	-40.3	-41.8	19.4	0.00e+00	32	28	0	145752064	54	6270
2026-01-16 19:47:37.02	44.83	6.94	-40.6	-42.1	18.9	0.00e+00	90	28	0	147849216	54	6524
2026-01-16 19:47:38.03	44.71	6.99	-40.2	-41.7	19.5	0.00e+00	0	28	0	149946368	54	6185
2026-01-16 19:47:39.03	44.59	7.04	-40.1	-41.6	19.6	0.00e+00	0	28	0	152043520	54	6116
2026-01-16 19:47:40.04	44.46	7.09	-40.2	-41.6	19.5	0.00e+00	2	28	0	154140672	54	6158
2026-01-16 19:47:41.05	44.34	7.14	-40.3	-41.8	19.5	0.00e+00	0	28	0	155189248	54	6250
2026-01-16 19:47:42.06	44.21	7.20	-40.3	-41.8	19.5	0.00e+00	91	28	0	157286400	54	6283
2026-01-16 19:47:43.07	44.09	7.25	-40.1	-41.5	19.6	0.00e+00	2	28	0	159383552	54	6056
2026-01-16 19:47:44.08	43.96	7.30	-40.2	-41.6	19.6	0.00e+00	92	28	0	161480704	54	6158
2026-01-16 19:47:45.08	43.84	7.35	-40.1	-41.5	19.7	0.00e+00	48	28	0	163577856	54	6098
2026-01-16 19:47:46.09	43.71	7.40	-40.1	-41.5	19.7	0.00e+00	92	28	0	164626432	54	6064
2026-01-16 19:47:47.10	43.58	7.45	-40.1	-41.5	19.7	0.00e+00	0	28	0	166723584	54	6071
2026-01-16 19:47:48.11	43.46	7.50	-39.9	-41.3	19.9	0.00e+00	0	28	0	168820736	54	5953
2026-01-16 19:47:49.12	43.33	7.55	-40.0	-41.5	19.8	0.00e+00	92	28	0	170917888	54	6036
2026-01-16 19:47:50.13	43.20	7.60	-40.0	-41.4	19.9	0.00e+00	31	28	0	173015040	54	6012
2026-01-16 19:47:51.14	43.07	7.65	-40.1	-41.5	19.8	0.00e+00	92	28	0	175112192	54	6092
2026-01-16 19:47:52.14	42.94	7.70	-40.1	-41.5	19.7	0.00e+00	51	28	0	176160768	54	6088
2026-01-16 19:47:53.15	42.81	7.75	-39.9	-41.3	19.9	0.00e+00	90	28	0	178257920	54	5948
2026-01-16 19:47:54.16	42.68	7.80	-40.0	-41.4	20.0	0.00e+00	0	28	0	180355072	54	5968
2026-01-16 19:47:55.17	42.55	7.85	-39.8	-41.2	19.9	0.00e+00	0	28	0	182452224	54	5863
2026-01-16 19:47:56.18	42.42	7.90	-39.8	-41.2	20.1	0.00e+00	90	28	0	184549376	54	5851
2026-01-16 19:47:57.19	42.29	7.95	-39.7	-41.1	20.1	0.00e+00	31	28	0	185597952	52	6505
2026-01-16 19:47:58.20	42.15	8.00	-39.8	-41.1	20.2	0.00e+00	92	28	0	187695104	52	6495
2026-01-16 19:47:59.21	42.02	8.05	-39.7	-41.0	20.4	0.00e+00	2	28	0	189792256	52	6413
2026-01-16 19:48:00.22	41.89	8.10	-39.7	-41.1	20.2	0.00e+00	91	28	0	191889408	52	6481
2026-01-16 19:48:01.22	41.76	8.15	-39.9	-41.3	20.1	0.00e+00	2	28	0	193986560	52	6643
2026-01-16 19:48:02.23	41.62	8.20	-39.9	-41.2	20.1	0.00e+00	0	28	0	195035136	52	6605
2026-01-16 19:48:03.23	41.49	8.25	-39.8	-41.1	20.2	0.00e+00	7	28	0	197132288	52	6534
2026-01-16 19:48:04.24	41.35	8.30	-39.8	-41.1	20.2	0.00e+00	2	28	0	199229440	52	6513
2026-01-16 19:48:05.25	41.22	8.35	-39.8	-41.1	20.1	0.00e+00	91	28	0	201326592	52	6521
2026-01-16 19:48:06.26	41.08	8.40	-39.8	-41.2	20.3	0.00e+00	0	28	0	203423744	52	6544
2026-01-16 19:48:07.27	40.94	8.45	-39.7	-41.0	20.3	0.00e+00	92	28	0	204472320	52	6416
2026-01-16 19:48:08.28	40.81	8.50	-39.7	-41.0	20.2	0.00e+00	0	28	0	206569472	52	6463
2026-01-16 19:48:09.29	40.67	8.55	-39.8	-41.1	20.2	0.00e+00	92	28	0	208666624	52	6487
2026-01-16 19:48:10.29	40.53	8.59	-39.6	-40.9	20.4	0.00e+00	0	28	0	210763776	52	6369
2026-01-16 19:48:11.30	40.39	8.64	-39.6	-40.9	20.4	0.00e+00	0	28	0	212860928	52	6350
2026-01-16 19:48:12.31	40.26	8.69	-39.8	-41.1	20.3	0.00e+00	91	28	0	213909504	52	6482
2026-01-16 19:48:13.32	40.12	8.74	-39.6	-40.9	20.4	0.00e+00	49	28	0	216006656	52	6374
2026-01-16 19:48:14.33	39.98	8.79	-39.6	-40.9	20.5	0.00e+00	91	28	0	218103808	52	6377
2026-01-16 19:48:15.34	39.84	8.84	-39.7	-41.0	20.4	0.00e+00	37	28	0	220200960	52	6444
2026-01-16 19:48:16.35	39.69	8.89	-39.8	-41.2	20.4	0.00e+00	31	28	0	222298112	52	6550
2026-01-16 19:48:17.36	39.55	8.94	-39.7	-41.0	20.3	0.00e+00	33	28	0	223346688	52	6430
2026-01-16 19:48:18.37	39.41	8.99	-39.7	-41.0	20.2	0.00e+00	0	28	0	225443840	52	6458
2026-01-16 19:48:19.38	39.27	9.04	-39.7	-40.9	20.4	0.00e+00	45	28	0	227540992	52	6365
2026-01-16 19:48:20.38	39.13	9.08	-39.8	-41.1	20.3	0.00e+00	6	28	0	229638144	52	6498
2026-01-16 19:48:21.39	38.98	9.13	-39.6	-40.9	20.4	0.00e+00	92	28	0	231735296	52	6383
2026-01-16 19:48:22.40	38.84	9.18	-39.7	-41.0	20.4	0.00e+00	32	28	0	232783872	52	6464
2026-01-16 19:48:23.41	38.70	9.23	-39.6	-40.9	20.5	0.00e+00	91	28	0	234881024	52	6353
2026-01-16 19:48:24.42	38.55	9.28	-39.6	-40.9	20.4	0.00e+00	31	28	0	236978176	52	6320
2026-01-16 19:48:25.43	38.41	9.33	-39.4	-40.7	20.7	0.00e+00	0	28	0	239075328	52	6214
2026-01-16 19:48:26.44	38.26	9.38	-39.4	-40.7	20.7	0.00e+00	0	28	0	241172480	52	6202
2026-01-16 19:48:27.45	38.11	9.42	-39.4	-40.6	20.7	0.00e+00	5	28	0	242221056	52	6150
2026-01-16 19:48:28.46	37.97	9.47	-39.3	-40.6	20.8	0.00e+00	90	28	0	244318208	52	6113
2026-01-16 19:48:29.47	37.82	9.52	-39.4	-40.6	20.8	0.00e+00	0	28	0	246415360	52	6120
2026-01-16 19:48:30.48	37.67	9.57	-39.3	-40.6	20.8	0.00e+00	91	28	0	248512512	52	6123
2026-01-16 19:48:31.49	37.52	9.61	-39.3	-40.5	20.8	0.00e+00	49	28	0	250609664	52	6088
2026-01-16 19:48:32.50	37.38	9.66	-39.1	-40.3	21.1	0.00e+00	50	28	0	251658240	52	5908
2026-01-16 19:48:33.51	37.23	9.71	-39.1	-40.3	21.0	0.00e+00	0	28	0	253755392	52	5952
2026-01-16 19:48:34.52	37.08	9.76	-39.0	-40.1	21.2	0.00e+00	51	28	0	255852544	52	5812
2026-01-16 19:48:35.53	36.93	9.81	-39.3	-40.5	21.0	0.00e+00	92	28	0	257949696	52	6043
2026-01-16 19:48:36.53	36.78	9.85	-39.0	-40.1	21.4	0.00e+00	36	28	0	260046848	52	5811
2026-01-16 19:48:37.54	36.63	9.90	-39.0	-40.1	21.4	0.00e+00	92	28	0	262144000	52	5811
2026-01-16 19:48:38.55	36.47	9.95	-39.0	-40.1	21.3	0.00e+00	50	28	0	263192576	52	5805
2026-01-16 19:48:39.56	36.32	9.99	-38.7	-39.8	21.6	0.00e+00	36	28	0	265289728	50	6261
2026-01-16 19:48:40.57	36.17	10.04	-38.6	-39.7	21.6	0.00e+00	49	28	0	267386880	50	6226
2026-01-16 19:48:41.58	36.02	10.09	-38.3	-39.4	21.9	0.00e+00	0	28	0	269484032	50	5969
2026-01-16 19:48:42.59	35.86	10.13	-38.4	-39.4	21.7	0.00e+00	92	28	0	271581184	50	6027
2026-01-16 19:48:43.60	35.71	10.18	-38.4	-39.4	21.8	0.00e+00	6	28	0	272629760	50	6024
2026-01-16 19:48:44.61	35.55	10.23	-38.2	-39.2	22.1	0.00e+00	92	28	0	274726912	50	5880
2026-01-16 19:48:45.62	35.40	10.27	-38.1	-39.2	22.1	0.00e+00	6	28	0	276824064	50	5856
2026-01-16 19:48:46.63	35.24	10.32	-38.0	-39.1	22.2	0.00e+00	92	28	0	278921216	50	5789
2026-01-16 19:48:47.64	35.09	10.36	-38.1	-39.1	22.1	0.00e+00	7	28	0	281018368	50	5807
2026-01-16 19:48:48.64	34.93	10.41	-38.0	-39.1	22.2	0.00e+00	0	28	0	282066944	50	5783
2026-01-16 19:48:49.65	34.77	10.46	-38.0	-39.0	22.1	0.00e+00	6	28	0	284164096	50	5753
2026-01-16 19:48:50.66	34.62	10.50	-38.1	-39.2	22.1	0.00e+00	6	28	0	286261248	50	5848
2026-01-16 19:48:51.67	34.46	10.55	-38.1	-39.1	22.1	0.00e+00	92	28	0	288358400	50	5801
2026-01-16 19:48:52.68	34.30	10.59	-38.1	-39.2	22.0	0.00e+00	0	28	0	290455552	50	5873
2026-01-16 19:48:53.69	34.14	10.64	-38.2	-39.3	22.0	0.00e+00	91	28	0	291504128	50	5910
2026-01-16 19:48:54.70	33.98	10.68	-37.8	-38.9	22.4	0.00e+00	0	28	0	293601280	50	5631
2026-01-16 19:48:55.71	33.82	10.73	-37.9	-38.9	22.4	0.00e+00	0	28	0	295698432	50	5671
2026-01-16 19:48:56.72	33.66	10.77	-37.8	-38.8	22.5	0.00e+00	0	28	0	297795584	50	5609
2026-01-16 19:48:57.73	33.50	10.82	-37.7	-38.7	22.5	0.00e+00	32	28	0	299892736	48	6235
2026-01-16 19:48:58.74	33.34	10.86	-37.6	-38.7	22.5	0.00e+00	92	28	0	300941312	48	6176
2026-01-16 19:48:59.74	33.18	10.91	-37.6	-38.6	22.6	0.00e+00	32	28	0	303038464	48	6144
2026-01-16 19:49:00.75	33.01	10.95	-37.7	-38.7	22.6	0.00e+00	92	28	0	305135616	48	6183
2026-01-16 19:49:01.76	32.85	11.00	-37.6	-38.5	22.7	0.00e+00	50	28	0	307232768	48	6101
2026-01-16 19:49:02.77	32.69	11.04	-37.5	-38.5	22.7	0.00e+00	51	28	0	309329920	48	6072
2026-01-16 19:49:03.77	32.52	11.08	-37.5	-38.5	22.7	0.00e+00	32	28	0	310378496	48	6093
2026-01-16 19:49:04.78	32.36	11.13	-37.6	-38.6	22.6	0.00e+00	30	28	0	312475648	48	6142
2026-01-16 19:49:05.79	32.20	11.17	-37.7	-38.7	22.5	0.00e+00	92	28	0	314572800	48	6198
2026-01-16 19:49:06.80	32.03	11.21	-37.5	-38.5	22.7	0.00e+00	2	28	0	316669952	48	6056
2026-01-16 19:49:07.81	31.86	11.26	-37.5	-38.5	22.8	0.00e+00	91	28	0	318767104	48	6063
2026-01-16 19:49:08.82	31.70	11.30	-37.3	-38.3	22.9	0.00e+00	0	28	0	319815680	48	5931
2026-01-16 19:49:09.83	31.53	11.34	-37.4	-38.3	22.9	0.00e+00	31	28	0	321912832	48	5956
2026-01-16 19:49:10.84	31.36	11.39	-37.3	-38.2	23.0	0.00e+00	0	28	0	324009984	48	5893
2026-01-16 19:49:11.85	31.19	11.43	-37.1	-38.1	23.0	0.00e+00	0	28	0	326107136	48	5767
2026-01-16 19:49:12.86	31.02	11.47	-37.1	-38.1	22.9	0.00e+00	0	28	0	328204288	48	5765
2026-01-16 19:49:13.87	30.86	11.51	-37.2	-38.2	22.7	0.00e+00	0	28	0	329252864	48	5842
2026-01-16 19:49:14.88	30.69	11.56	-37.1	-38.1	23.1	0.00e+00	92	28	0	331350016	48	5766
2026-01-16 19:49:15.89	30.52	11.60	-37.2	-38.2	23.1	0.00e+00	52	28	0	333447168	48	5834
2026-01-16 19:49:16.90	30.35	11.64	-37.3	-38.3	22.9	0.00e+00	92	28	0	335544320	48	5897
2026-01-16 19:49:17.90	30.18	11.68	-37.0	-38.0	23.2	0.00e+00	0	28	0	337641472	48	5711
2026-01-16 19:49:18.91	30.00	11.72	-37.2	-38.2	23.0	0.00e+00	51	28	0	338690048	48	5846
2026-01-16 19:49:19.92	29.83	11.76	-37.2	-38.2	23.0	0.00e+00	45	28	0	340787200	48	5839
2026-01-16 19:49:20.93	29.66	11.80	-37.3	-38.2	23.0	0.00e+00	32	28	0	342884352	48	5884
2026-01-16 19:49:21.94	29.49	11.84	-37.3	-38.3	22.9	0.00e+00	92	28	0	344981504	48	5931
2026-01-16 19:49:22.95	29.31	11.89	-37.3	-38.3	22.9	0.00e+00	3	28	0	347078656	48	5941
2026-01-16 19:49:23.96	29.14	11.93	-37.4	-38.3	22.9	0.00e+00	90	28	0	348127232	48	5950
2026-01-16 19:49:24.96	28.97	11.97	-37.3	-38.2	23.0	0.00e+00	49	28	0	350224384	48	5896
2026-01-16 19:49:25.97	28.79	12.01	-37.4	-38.3	22.9	0.00e+00	31	28	0	352321536	48	5947
2026-01-16 19:49:26.98	28.62	12.05	-37.3	-38.3	22.9	0.00e+00	33	28	0	354418688	48	5923
2026-01-16 19:49:27.99	28.44	12.09	-37.5	-38.5	22.8	0.00e+00	0	28	0	356515840	48	6042
2026-01-16 19:49:29.00	28.26	12.12	-37.5	-38.5	22.8	0.00e+00	89	28	0	358612992	48	6044
2026-01-16 19:49:30.01	28.09	12.16	-37.6	-38.6	22.6	0.00e+00	32	28	0	359661568	48	6120
2026-01-16 19:49:31.02	27.91	12.20	-37.4	-38.4	22.9	0.00e+00	91	28	0	361758720	48	5990
2026-01-16 19:49:32.02	27.73	12.24	-37.5	-38.5	22.7	0.00e+00	34	28	0	363855872	48	6055
2026-01-16 19:49:33.03	27.55	12.28	-37.6	-38.6	22.6	0.00e+00	62	28	0	365953024	48	6110
2026-01-16 19:49:34.04	27.38	12.32	-37.7	-38.7	22.6	0.00e+00	0	28	0	368050176	48	6206
2026-01-16 19:49:35.05	27.20	12.36	-37.7	-38.7	22.6	0.00e+00	2	28	0	369098752	48	6237
2026-01-16 19:49:36.05	27.02	12.39	-37.8	-38.8	22.5	0.00e+00	0	28	0	371195904	48	6254
2026-01-16 19:49:37.06	26.84	12.43	-37.6	-38.6	22.6	0.00e+00	0	28	0	373293056	48	6147
2026-01-16 19:49:38.07	26.66	12.47	-37.7	-38.7	22.6	0.00e+00	91	28	0	375390208	48	6184
2026-01-16 19:49:39.08	26.48	12.51	-37.4	-38.4	22.8	0.00e+00	0	28	0	377487360	48	6014
2026-01-16 19:49:40.09	26.29	12.54	-37.6	-38.6	22.7	0.00e+00	92	28	0	378535936	48	6150
2026-01-16 19:49:41.10	26.11	12.58	-37.4	-38.4	22.8	0.00e+00	51	28	0	380633088	48	6009
2026-01-16 19:49:42.11	25.93	12.62	-37.5	-38.5	22.7	0.00e+00	52	28	0	382730240	48	6069
2026-01-16 19:49:43.12	25.75	12.65	-37.8	-38.8	22.5	0.00e+00	0	28	0	384827392	48	6292
2026-01-16 19:49:44.13	25.56	12.69	-37.5	-38.5	22.4	0.00e+00	53	28	0	386924544	48	6092
2026-01-16 19:49:45.14	25.38	12.73	-37.7	-38.7	22.6	0.00e+00	58	28	0	387973120	48	6190
2026-01-16 19:49:46.15	25.20	12.76	-37.5	-38.5	22.8	0.00e+00	0	28	0	390070272	48	6056
2026-01-16 19:49:47.15	25.01	12.80	-37.6	-38.6	22.7	0.00e+00	92	28	0	392167424	48	6105
2026-01-16 19:49:48.16	24.83	12.83	-37.6	-38.6	22.7	0.00e+00	51	28	0	394264576	48	6111
2026-01-16 19:49:49.17	24.64	12.87	-37.6	-38.6	22.8	0.00e+00	58	28	0	396361728	48	6111
2026-01-16 19:49:50.18	24.46	12.90	-37.6	-38.5	22.7	0.00e+00	0	28	0	397410304	48	6095
2026-01-16 19:49:51.18	24.27	12.94	-37.6	-38.6	22.7	0.00e+00	0	28	0	399507456	48	6117
2026-01-16 19:49:52.19	24.08	12.97	-37.3	-38.2	22.9	0.00e+00	58	28	0	401604608	48	5875
2026-01-16 19:49:53.20	23.90	13.00	-37.2	-38.2	23.0	0.00e+00	2	28	0	403701760	48	5852
2026-01-16 19:49:54.21	23.71	13.04	-37.4	-38.4	22.8	0.00e+00	92	28	0	405798912	48	5989
2026-01-16 19:49:55.22	23.52	13.07	-37.3	-38.2	23.0	0.00e+00	0	28	0	406847488	48	5878
2026-01-16 19:49:56.23	23.33	13.11	-37.3	-38.3	23.0	0.00e+00	39	28	0	408944640	48	5905
2026-01-16 19:49:57.24	23.14	13.14	-37.2	-38.2	22.8	0.00e+00	2	28	0	411041792	48	5856
2026-01-16 19:49:58.25	22.95	13.17	-37.2	-38.2	22.1	0.00e+00	0	28	0	413138944	48	5843
2026-01-16 19:49:59.26	22.76	13.20	-37.2	-38.2	23.0	0.00e+00	0	28	0	415236096	48	5829
2026-01-16 19:50:00.26	22.57	13.24	-37.4	-38.4	22.9	0.00e+00	0	28	0	416284672	48	5974
2026-01-16 19:50:01.27	22.38	13.27	-37.3	-38.2	23.0	0.00e+00	92	28	0	418381824	48	5886
2026-01-16 19:50:02.28	22.19	13.30	-37.3	-38.3	23.0	0.00e+00	2	28	0	420478976	48	5902
2026-01-16 19:50:03.29	22.00	13.33	-37.2	-38.1	23.1	0.00e+00	91	28	0	422576128	48	5823
2026-01-16 19:50:04.30	21.81	13.36	-37.2	-38.1	23.1	0.00e+00	0	28	0	424673280	48	5802
2026-01-16 19:50:05.31	21.61	13.39	-37.1	-38.0	23.1	0.00e+00	15	28	0	425721856	48	5741
2026-01-16 19:50:06.32	21.42	13.42	-36.9	-37.9	23.4	0.00e+00	49	28	0	427819008	48	5632
2026-01-16 19:50:07.33	21.23	13.45	-37.0	-37.9	23.3	0.00e+00	50	28	0	429916160	48	5663
2026-01-16 19:50:08.34	21.03	13.48	-37.1	-38.0	23.1	0.00e+00	89	28	0	432013312	48	5730
2026-01-16 19:50:09.34	20.84	13.51	-37.0	-38.0	23.3	0.00e+00	44	28	0	434110464	48	5702
2026-01-16 19:50:10.35	20.65	13.54	-37.1	-38.1	23.1	0.00e+00	92	28	0	435159040	48	5775
2026-01-16 19:50:11.36	20.45	13.57	-37.2	-38.2	23.1	0.00e+00	0	28	0	437256192	48	5833
2026-01-16 19:50:12.37	20.26	13.60	-37.3	-38.2	23.0	0.00e+00	87	28	0	439353344	48	5871
2026-01-16 19:50:13.38	20.06	13.63	-37.2	-38.1	23.2	0.00e+00	31	28	0	441450496	48	5823
2026-01-16 19:50:14.39	19.87	13.66	-37.2	-38.2	23.1	0.00e+00	32	28	0	443547648	48	5840
2026-01-16 19:50:15.40	19.67	13.68	-37.1	-38.1	23.1	0.00e+00	50	28	0	444596224	48	5794
2026-01-16 19:50:16.41	19.47	13.71	-37.2	-38.1	23.2	0.00e+00	5	28	0	446693376	48	5798
2026-01-16 19:50:17.42	19.28	13.74	-37.2	-38.1	23.1	0.00e+00	92	28	0	448790528	48	5803
2026-01-16 19:50:18.42	19.08	13.76	-37.1	-38.0	23.3	0.00e+00	0	28	0	450887680	48	5722
2026-01-16 19:50:19.43	18.88	13.79	-37.0	-37.9	23.3	0.00e+00	7	28	0	452984832	48	5677
2026-01-16 19:50:20.44	18.68	13.82	-36.9	-37.9	23.4	0.00e+00	0	27	0	455081984	48	5633
2026-01-16 19:50:21.45	18.49	13.84	-37.0	-37.9	23.3	0.00e+00	6	28	0	456130560	48	5671
2026-01-16 19:50:22.46	18.29	13.87	-37.1	-38.1	23.2	0.00e+00	0	28	0	458227712	48	5783
2026-01-16 19:50:23.47	18.09	13.89	-37.3	-38.3	23.0	0.00e+00	0	28	0	460324864	48	5899
2026-01-16 19:50:24.48	17.89	13.92	-37.6	-38.6	22.7	0.00e+00	90	28	0	462422016	48	6107
2026-01-16 19:50:25.49	17.69	13.94	-37.4	-38.3	22.8	0.00e+00	0	28	0	464519168	48	5961
2026-01-16 19:50:26.50	17.49	13.97	-37.3	-38.3	23.0	0.00e+00	90	28	0	465567744	48	5931
2026-01-16 19:50:27.51	17.29	13.99	-37.3	-38.2	23.0	0.00e+00	42	28	0	467664896	48	5859
2026-01-16 19:50:28.52	17.09	14.02	-37.3	-38.2	23.0	0.00e+00	29	28	0	469762048	48	5873
2026-01-16 19:50:29.53	16.88	14.04	-37.4	-38.4	22.9	0.00e+00	45	28	0	471859200	48	5990
2026-01-16 19:50:30.54	16.68	14.06	-37.5	-38.5	22.8	0.00e+00	41	28	0	473956352	48	6054
2026-01-16 19:50:31.55	16.48	14.09	-37.7	-38.7	22.7	0.00e+00	0	28	0	475004928	48	6182
2026-01-16 19:50:32.56	16.28	14.11	-37.6	-38.6	22.8	0.00e+00	44	28	0	477102080	48	6142
2026-01-16 19:50:33.57	16.08	14.13	-37.8	-38.8	22.5	0.00e+00	90	28	0	479199232	48	6295
2026-01-16 19:50:34.58	15.87	14.15	-37.6	-38.6	22.8	0.00e+00	40	28	0	481296384	48	6117
2026-01-16 19:50:35.59	15.67	14.17	-37.6	-38.6	22.7	0.00e+00	42	28	0	483393536	48	6128
2026-01-16 19:50:36.59	15.47	14.19	-37.7	-38.7	22.6	0.00e+00	6	28	0	484442112	48	6207
2026-01-16 19:50:37.60	15.26	14.21	-37.9	-38.9	22.2	0.00e+00	37	27	0	486539264	48	6339
2026-01-16 19:50:38.61	15.06	14.24	-38.1	-39.1	22.2	0.00e+00	36	28	0	488636416	48	6516
2026-01-16 19:50:39.62	14.86	14.26	-38.2	-39.3	22.1	0.00e+00	38	28	0	490733568	48	6636
2026-01-16 19:50:40.63	14.65	14.27	-38.2	-39.3	22.1	0.00e+00	92	28	0	492830720	48	6658
2026-01-16 19:50:41.64	14.45	14.29	-38.2	-39.3	22.1	0.00e+00	7	28	0	493879296	48	6644
2026-01-16 19:50:42.65	14.24	14.31	-38.1	-39.2	22.2	0.00e+00	85	27	0	495976448	48	6571
2026-01-16 19:50:43.66	14.04	14.33	-38.2	-39.2	22.2	0.00e+00	0	28	0	498073600	48	6602
2026-01-16 19:50:44.66	13.83	14.35	-38.0	-39.1	22.3	0.00e+00	7	28	0	500170752	48	6491
2026-01-16 19:50:45.67	13.63	14.37	-38.0	-39.1	22.3	0.00e+00	0	28	0	502267904	48	6481
2026-01-16 19:50:46.68	13.42	14.39	-37.9	-38.9	22.4	0.00e+00	51	28	0	503316480	48	6361
2026-01-16 19:50:47.69	13.21	14.40	-37.9	-38.9	22.4	0.00e+00	92	28	0	505413632	48	6342
2026-01-16 19:50:48.70	13.01	14.42	-37.8	-38.8	22.5	0.00e+00	52	28	0	507510784	48	6297
2026-01-16 19:50:49.71	12.80	14.44	-37.6	-38.6	22.6	0.00e+00	90	28	0	509607936	48	6140
2026-01-16 19:50:50.72	12.59	14.45	-37.7	-38.7	22.7	0.00e+00	51	28	0	511705088	48	6188
2026-01-16 19:50:51.73	12.39	14.47	-37.4	-38.4	22.9	0.00e+00	31	28	0	512753664	48	5966
2026-01-16 19:50:52.74	12.18	14.48	-37.5	-38.5	23.0	0.00e+00	30	28	0	514850816	48	6035
2026-01-16 19:50:53.75	11.97	14.50	-37.6	-38.5	22.8	0.00e+00	31	28	0	516947968	48	6086
2026-01-16 19:50:54.76	11.76	14.51	-37.7	-38.7	22.8	0.00e+00	34	28	0	519045120	48	6224
2026-01-16 19:50:55.77	11.56	14.53	-37.5	-38.4	22.9	0.00e+00	49	27	0	521142272	48	6023
2026-01-16 19:50:56.78	11.35	14.54	-37.6	-38.5	22.8	0.00e+00	92	28	0	523239424	48	6102
2026-01-16 19:50:57.78	11.14	14.55	-37.3	-38.2	23.1	0.00e+00	37	28	0	524288000	48	5872
2026-01-16 19:50:58.79	10.93	14.57	-37.3	-38.3	23.1	0.00e+00	92	27	0	526385152	48	5904
2026-01-16 19:50:59.80	10.72	14.58	-37.4	-38.3	23.0	0.00e+00	0	28	0	528482304	48	5943
2026-01-16 19:51:00.81	10.51	14.59	-37.4	-38.4	22.9	0.00e+00	0	28	0	530579456	48	5986
2026-01-16 19:51:01.82	10.30	14.60	-37.6	-38.5	22.8	0.00e+00	0	28	0	531628032	48	6089
2026-01-16 19:51:02.83	10.09	14.62	-37.7	-38.7	22.5	0.00e+00	0	27	0	533725184	48	6208
2026-01-16 19:51:03.84	9.89	14.63	-37.8	-38.8	22.6	0.00e+00	92	27	0	535822336	48	6259
2026-01-16 19:51:04.85	9.68	14.64	-37.5	-38.5	22.8	0.00e+00	0	27	0	537919488	48	6079
2026-01-16 19:51:05.86	9.47	14.65	-37.5	-38.5	22.9	0.00e+00	92	27	0	540016640	48	6073
2026-01-16 19:51:06.87	9.26	14.66	-37.6	-38.6	22.8	0.00e+00	2	27	0	541065216	48	6132
2026-01-16 19:51:07.88	9.05	14.67	-37.4	-38.3	23.0	0.00e+00	0	27	0	543162368	48	5963
2026-01-16 19:51:08.89	8.84	14.68	-37.4	-38.3	22.9	0.00e+00	0	27	0	545259520	48	5941
2026-01-16 19:51:09.90	8.62	14.69	-37.4	-38.4	22.8	0.00e+00	52	27	0	547356672	48	5979
2026-01-16 19:51:10.90	8.42	14.70	-37.4	-38.4	22.9	0.00e+00	92	27	0	549453824	48	6004
2026-01-16 19:51:11.91	8.21	14.70	-37.5	-38.4	22.9	0.00e+00	0	27	0	551550976	48	6025
2026-01-16 19:51:12.92	7.99	14.71	-37.5	-38.5	22.7	0.00e+00	90	27	0	552599552	48	6090
2026-01-16 19:51:13.93	7.78	14.72	-37.5	-38.5	22.9	0.00e+00	32	27	0	554696704	48	6045
2026-01-16 19:51:14.94	7.57	14.73	-37.4	-38.4	22.9	0.00e+00	0	27	0	556793856	48	5987
2026-01-16 19:51:15.95	7.36	14.73	-37.3	-38.3	23.0	0.00e+00	50	28	0	558891008	48	5915
2026-01-16 19:51:16.96	7.15	14.74	-37.4	-38.4	23.0	0.00e+00	51	27	0	560988160	48	5975
2026-01-16 19:51:17.97	6.94	14.75	-37.3	-38.2	23.0	0.00e+00	25	28	0	562036736	48	5868
2026-01-16 19:51:18.98	6.73	14.75	-37.3	-38.3	23.1	0.00e+00	33	27	0	564133888	48	5928
2026-01-16 19:51:19.99	6.52	14.76	-37.4	-38.4	23.0	0.00e+00	90	27	0	566231040	48	5970
2026-01-16 19:51:21.00	6.30	14.76	-37.4	-38.4	23.0	0.00e+00	2	27	0	568328192	48	6000
2026-01-16 19:51:22.01	6.09	14.76	-37.5	-38.4	23.0	0.00e+00	65	27	0	570425344	48	6030
2026-01-16 19:51:23.02	5.88	14.77	-37.4	-38.3	23.0	0.00e+00	0	27	0	571473920	48	5939
2026-01-16 19:51:24.03	5.67	14.77	-37.2	-38.2	23.1	0.00e+00	0	27	0	573571072	48	5837
2026-01-16 19:51:25.04	5.46	14.78	-37.3	-38.2	23.0	0.00e+00	0	27	0	575668224	48	5883
2026-01-16 19:51:26.05	5.25	14.78	-37.1	-38.1	23.2	0.00e+00	0	27	0	577765376	48	5766
2026-01-16 19:51:27.06	5.03	14.78	-37.2	-38.2	23.1	0.00e+00	90	27	0	579862528	48	5832
2026-01-16 19:51:28.06	4.82	14.78	-37.2	-38.1	23.1	0.00e+00	0	27	0	580911104	48	5818
2026-01-16 19:51:29.07	4.61	14.78	-37.4	-38.3	23.0	0.00e+00	92	27	0	583008256	48	5945
2026-01-16 19:51:30.08	4.40	14.79	-37.5	-38.5	22.9	0.00e+00	0	27	0	585105408	48	6086
2026-01-16 19:51:31.09	4.19	14.79	-37.6	-38.6	22.8	0.00e+00	0	27	0	587202560	48	6139
2026-01-16 19:51:32.10	3.98	14.79	-37.5	-38.5	22.8	0.00e+00	44	27	0	589299712	48	6065
2026-01-16 19:51:33.11	3.77	14.79	-37.5	-38.5	22.8	0.00e+00	44	27	0	590348288	48	6044
2026-01-16 19:51:34.12	3.55	14.79	-37.4	-38.4	22.8	0.00e+00	86	27	0	592445440	48	5988
2026-01-16 19:51:35.13	3.34	14.79	-37.2	-38.2	23.1	0.00e+00	41	27	0	594542592	48	5849
2026-01-16 19:51:36.14	3.13	14.78	-37.2	-38.2	23.1	0.00e+00	92	27	0	596639744	48	5856
2026-01-16 19:51:37.15	2.92	14.78	-37.2	-38.1	23.1	0.00e+00	51	27	0	598736896	48	5806
2026-01-16 19:51:38.16	2.71	14.78	-37.2	-38.2	22.5	0.00e+00	0	27	0	599785472	48	5845
2026-01-16 19:51:39.17	2.49	14.78	-37.4	-38.4	22.7	0.00e+00	0	27	0	601882624	48	5988
2026-01-16 19:51:40.18	2.28	14.78	-37.4	-38.4	22.9	0.00e+00	30	27	0	603979776	48	5975
2026-01-16 19:51:41.19	2.07	14.77	-37.3	-38.3	23.0	0.00e+00	87	27	0	606076928	48	5908
2026-01-16 19:51:42.20	1.86	14.77	-37.4	-38.3	23.0	0.00e+00	0	27	0	608174080	48	5950
2026-01-16 19:51:43.21	1.65	14.77	-37.3	-38.2	23.1	0.00e+00	92	27	0	609222656	48	5869
2026-01-16 19:51:44.22	1.44	14.76	-37.4	-38.3	23.0	0.00e+00	28	27	0	611319808	48	5955
2026-01-16 19:51:45.23	1.22	14.76	-37.4	-38.3	23.0	0.00e+00	92	27	0	613416960	48	5947
2026-01-16 19:51:46.23	1.01	14.75	-37.5	-38.5	22.9	0.00e+00	0	27	0	615514112	48	6066
2026-01-16 19:51:47.24	0.80	14.75	-37.5	-38.5	22.9	0.00e+00	0	27	0	617611264	48	6055
2026-01-16 19:51:48.25	0.59	14.74	-37.6	-38.6	22.7	0.00e+00	0	27	0	619708416	48	6110
2026-01-16 19:51:49.25	0.38	14.73	-37.9	-38.9	22.6	0.00e+00	0	27	0	620756992	48	6357
2026-01-16 19:51:50.26	0.17	14.73	-38.0	-39.0	22.4	0.00e+00	92	27	0	622854144	48	6422
2026-01-16 19:51:51.27	359.96	14.72	-38.1	-39.1	22.3	0.00e+00	0	27	0	624951296	48	6520
2026-01-16 19:51:52.28	359.75	14.71	-38.0	-39.0	22.4	0.00e+00	92	27	0	627048448	48	6451
2026-01-16 19:51:53.29	359.54	14.70	-37.8	-38.8	22.5	0.00e+00	48	27	0	629145600	48	6312
2026-01-16 19:51:54.29	359.33	14.70	-37.8	-38.7	22.7	0.00e+00	0	27	0	630194176	48	6242
2026-01-16 19:51:55.30	359.12	14.69	-37.5	-38.5	22.9	0.00e+00	2	27	0	632291328	48	6081
2026-01-16 19:51:56.31	358.91	14.68	-37.6	-38.5	22.8	0.00e+00	49	27	0	634388480	48	6088
2026-01-16 19:51:57.32	358.70	14.67	-37.5	-38.4	22.9	0.00e+00	44	27	0	636485632	48	6011
2026-01-16 19:51:58.33	358.49	14.66	-37.5	-38.5	22.9	0.00e+00	40	27	0	638582784	48	6065
2026-01-16 19:51:59.33	358.28	14.65	-37.6	-38.6	22.7	0.00e+00	91	27	0	639631360	48	6134
2026-01-16 19:52:00.34	358.07	14.64	-37.5	-38.5	22.8	0.00e+00	44	27	0	641728512	48	6087
2026-01-16 19:52:01.35	357.86	14.63	-37.7	-38.7	22.7	0.00e+00	45	27	0	643825664	48	6217
2026-01-16 19:52:02.36	357.65	14.62	-37.8	-38.8	22.4	0.00e+00	0	27	0	645922816	48	6300
2026-01-16 19:52:03.37	357.44	14.61	-38.1	-39.1	22.3	0.00e+00	0	27	0	648019968	48	6519
2026-01-16 19:52:04.38	357.23	14.59	-38.1	-39.2	22.3	0.00e+00	66	27	0	649068544	48	6580
2026-01-16 19:52:05.39	357.02	14.58	-38.1	-39.1	22.3	0.00e+00	38	27	0	651165696	48	6499
2026-01-16 19:52:06.40	356.82	14.57	-38.0	-39.1	22.3	0.00e+00	92	27	0	653262848	48	6480
2026-01-16 19:52:07.41	356.61	14.56	-37.9	-38.9	22.5	0.00e+00	5	27	0	655360000	48	6386
2026-01-16 19:52:08.42	356.40	14.54	-38.0	-39.1	22.5	0.00e+00	92	27	0	657457152	48	6467
2026-01-16 19:52:09.43	356.19	14.53	-37.6	-38.6	22.8	0.00e+00	0	27	0	658505728	48	6145
2026-01-16 19:52:10.44	355.98	14.51	-37.3	-38.2	23.1	0.00e+00	7	27	0	660602880	48	5865
2026-01-16 19:52:11.45	355.77	14.50	-37.4	-38.3	22.9	0.00e+00	0	27	0	662700032	48	5956
2026-01-16 19:52:12.45	355.57	14.48	-37.4	-38.4	22.9	0.00e+00	0	27	0	664797184	48	5986
2026-01-16 19:52:13.46	355.36	14.47	-37.5	-38.4	22.9	0.00e+00	92	27	0	666894336	48	6029
2026-01-16 19:52:14.47	355.15	14.45	-37.6	-38.6	22.6	0.00e+00	0	27	0	667942912	48	6157
2026-01-16 19:52:15.48	354.95	14.44	-37.7	-38.7	22.7	0.00e+00	91	27	0	670040064	48	6244
2026-01-16 19:52:16.49	354.74	14.42	-37.6	-38.7	22.7	0.00e+00	49	27	0	672137216	48	6183
2026-01-16 19:52:17.50	354.53	14.40	-37.6	-38.6	22.8	0.00e+00	16	27	0	674234368	48	6126
2026-01-16 19:52:18.51	354.33	14.39	-37.4	-38.4	22.9	0.00e+00	0	27	0	676331520	48	6013
2026-01-16 19:52:19.52	354.12	14.37	-37.5	-38.4	22.9	0.00e+00	0	27	0	677380096	48	6032
2026-01-16 19:52:20.53	353.91	14.35	-37.2	-38.1	23.2	0.00e+00	90	27	0	679477248	48	5824
2026-01-16 19:52:21.53	353.71	14.33	-37.3	-38.2	23.1	0.00e+00	38	27	0	681574400	48	5878
2026-01-16 19:52:22.54	353.51	14.32	-37.2	-38.2	23.1	0.00e+00	92	27	0	683671552	48	5837
2026-01-16 19:52:23.55	353.30	14.30	-37.3	-38.2	23.1	0.00e+00	48	27	0	685768704	48	5861
2026-01-16 19:52:24.56	353.10	14.28	-37.3	-38.2	23.1	0.00e+00	92	27	0	686817280	48	5880
2026-01-16 19:52:25.57	352.89	14.26	-37.3	-38.2	23.1	0.00e+00	6	27	0	688914432	48	5891
2026-01-16 19:52:26.58	352.69	14.24	-37.2	-38.2	23.2	0.00e+00	37	27	0	691011584	48	5834
2026-01-16 19:52:27.59	352.48	14.22	-37.2	-38.2	22.9	0.00e+00	52	27	0	693108736	48	5853
2026-01-16 19:52:28.60	352.28	14.20	-37.3	-38.3	23.1	0.00e+00	43	27	0	695205888	48	5901
2026-01-16 19:52:29.61	352.08	14.18	-37.3	-38.3	23.0	0.00e+00	92	27	0	696254464	48	5911
2026-01-16 19:52:30.62	351.87	14.15	-37.4	-38.3	23.0	0.00e+00	7	27	0	698351616	48	5957
2026-01-16 19:52:31.63	351.67	14.13	-37.3	-38.3	23.0	0.00e+00	92	27	0	700448768	48	5928
2026-01-16 19:52:32.64	351.47	14.11	-37.5	-38.4	23.0	0.00e+00	6	27	0	702545920	48	6012
2026-01-16 19:52:33.65	351.27	14.09	-37.5	-38.4	23.0	0.00e+00	7	27	0	704643072	48	6012
2026-01-16 19:52:34.65	351.07	14.07	-37.4	-38.4	23.0	0.00e+00	4	27	0	705691648	48	5994
2026-01-16 19:52:35.66	350.86	14.04	-37.4	-38.4	23.0	0.00e+00	0	27	0	707788800	48	5988
2026-01-16 19:52:36.67	350.66	14.02	-37.5	-38.5	22.9	0.00e+00	90	27	0	709885952	48	6037
2026-01-16 19:52:37.68	350.46	14.00	-37.6	-38.6	22.8	0.00e+00	0	27	0	711983104	48	6131
2026-01-16 19:52:38.69	350.26	13.97	-37.5	-38.5	22.9	0.00e+00	90	27	0	714080256	48	6040
2026-01-16 19:52:39.70	350.06	13.95	-37.5	-38.5	22.8	0.00e+00	50	27	0	716177408	48	6079
2026-01-16 19:52:40.71	349.86	13.92	-37.5	-38.4	22.9	0.00e+00	27	27	0	717225984	48	6015
2026-01-16 19:52:41.72	349.66	13.90	-37.5	-38.5	22.8	0.00e+00	0	27	0	719323136	48	6081
2026-01-16 19:52:42.73	349.46	13.87	-37.4	-38.3	22.9	0.00e+00	33	27	0	721420288	48	5964
2026-01-16 19:52:43.74	349.26	13.85	-37.4	-38.4	23.0	0.00e+00	45	27	0	723517440	48	5994
2026-01-16 19:52:44.74	349.07	13.82	-37.5	-38.5	22.8	0.00e+00	32	27	0	725614592	48	6047
2026-01-16 19:52:45.75	348.87	13.79	-37.5	-38.5	22.8	0.00e+00	92	27	0	726663168	48	6035
2026-01-16 19:52:46.76	348.67	13.77	-37.6	-38.6	22.8	0.00e+00	49	27	0	728760320	48	6130
2026-01-16 19:52:47.77	348.47	13.74	-37.6	-38.6	22.8	0.00e+00	92	27	0	730857472	48	6116
2026-01-16 19:52:48.78	348.28	13.71	-37.6	-38.6	22.8	0.00e+00	0	27	0	732954624	48	6104
2026-01-16 19:52:49.79	348.08	13.69	-37.6	-38.6	22.8	0.00e+00	0	27	0	735051776	48	6135
2026-01-16 19:52:50.80	347.88	13.66	-37.6	-38.6	22.7	0.00e+00	33	27	0	736100352	48	6162
2026-01-16 19:52:51.81	347.69	13.63	-37.6	-38.5	22.8	0.00e+00	0	27	0	738197504	48	6094
2026-01-16 19:52:52.81	347.49	13.60	-37.7	-38.7	22.7	0.00e+00	92	27	0	740294656	48	6187
2026-01-16 19:52:53.82	347.30	13.57	-37.8	-38.8	22.7	0.00e+00	32	27	0	742391808	48	6248
2026-01-16 19:52:54.83	347.10	13.54	-38.0	-39.0	22.4	0.00e+00	91	27	0	744488960	48	6443
2026-01-16 19:52:55.84	346.91	13.52	-38.0	-39.0	22.4	0.00e+00	0	27	0	745537536	48	6417
2026-01-16 19:52:56.85	346.71	13.49	-37.9	-38.9	22.5	0.00e+00	0	27	0	747634688	48	6367
2026-01-16 19:52:57.86	346.52	13.46	-37.9	-38.9	22.5	0.00e+00	0	27	0	749731840	48	6379
2026-01-16 19:52:58.87	346.33	13.43	-37.7	-38.7	22.7	0.00e+00	0	27	0	751828992	48	6191
2026-01-16 19:52:59.88	346.13	13.40	-37.5	-38.5	22.8	0.00e+00	92	27	0	753926144	48	6083
2026-01-16 19:53:00.89	345.94	13.36	-37.5	-38.5	22.8	0.00e+00	0	27	0	754974720	48	6075
2026-01-16 19:53:01.90	345.75	13.33	-37.4	-38.3	23.0	0.00e+00	92	27	0	757071872	48	5941
2026-01-16 19:53:02.91	345.56	13.30	-37.5	-38.4	22.9	0.00e+00	50	27	0	759169024	48	6016
2026-01-16 19:53:03.91	345.37	13.27	-37.5	-38.4	22.9	0.00e+00	31	27	0	761266176	48	6033
2026-01-16 19:53:04.92	345.18	13.24	-37.3	-38.3	23.0	0.00e+00	48	27	0	763363328	48	5899
2026-01-16 19:53:05.93	344.99	13.21	-37.2	-38.2	23.1	0.00e+00	39	27	0	764411904	48	5837
2026-01-16 19:53:06.94	344.80	13.18	-37.2	-38.2	22.9	0.00e+00	28	28	0	766509056	48	5835
2026-01-16 19:53:07.95	344.61	13.14	-37.2	-38.2	23.1	0.00e+00	35	27	0	768606208	48	5843
2026-01-16 19:53:08.96	344.42	13.11	-37.3	-38.2	23.0	0.00e+00	92	27	0	770703360	48	5895
2026-01-16 19:53:09.97	344.23	13.08	-37.3	-38.2	22.8	0.00e+00	33	28	0	772800512	48	5881
2026-01-16 19:53:10.98	344.04	13.04	-37.2	-38.2	23.1	0.00e+00	92	28	0	773849088	48	5863
2026-01-16 19:53:11.99	343.85	13.01	-37.2	-38.2	23.0	0.00e+00	34	28	0	775946240	48	5852
2026-01-16 19:53:13.00	343.67	12.98	-37.1	-38.1	23.1	0.00e+00	40	28	0	778043392	48	5771
2026-01-16 19:53:14.01	343.48	12.94	-37.2	-38.2	23.0	0.00e+00	0	28	0	780140544	48	5861
2026-01-16 19:53:15.02	343.29	12.91	-37.2	-38.2	23.0	0.00e+00	0	28	0	782237696	48	5848
2026-01-16 19:53:16.03	343.11	12.87	-37.3	-38.2	23.0	0.00e+00	92	27	0	784334848	48	5887
2026-01-16 19:53:17.04	342.92	12.84	-37.3	-38.3	23.0	0.00e+00	0	27	0	785383424	48	5935
2026-01-16 19:53:18.05	342.74	12.80	-37.5	-38.4	22.8	0.00e+00	92	28	0	787480576	48	6025
2026-01-16 19:53:19.06	342.55	12.77	-37.5	-38.5	22.8	0.00e+00	0	28	0	789577728	48	6050
2026-01-16 19:53:20.07	342.37	12.73	-37.4	-38.4	22.9	0.00e+00	2	28	0	791674880	48	5999
2026-01-16 19:53:21.08	342.18	12.69	-37.4	-38.3	22.9	0.00e+00	0	28	0	793772032	48	5961
2026-01-16 19:53:22.09	342.00	12.66	-37.5	-38.4	22.8	0.00e+00	0	28	0	794820608	48	6022
2026-01-16 19:53:23.10	341.82	12.62	-37.3	-38.2	22.9	0.00e+00	72	28	0	796917760	48	5887
2026-01-16 19:53:24.11	341.63	12.59	-37.2	-38.1	23.1	0.00e+00	48	28	0	799014912	48	5813
2026-01-16 19:53:25.12	341.45	12.55	-37.2	-38.2	23.1	0.00e+00	92	28	0	801112064	48	5836
2026-01-16 19:53:26.13	341.27	12.51	-37.3	-38.2	23.0	0.00e+00	49	28	0	803209216	48	5892
2026-01-16 19:53:27.13	341.09	12.47	-37.3	-38.3	22.9	0.00e+00	49	28	0	804257792	48	5935
2026-01-16 19:53:28.14	340.91	12.44	-37.5	-38.5	22.8	0.00e+00	32	28	0	806354944	48	6050
2026-01-16 19:53:29.15	340.73	12.40	-37.4	-38.4	22.9	0.00e+00	48	28	0	808452096	48	5973
2026-01-16 19:53:30.16	340.55	12.36	-37.4	-38.3	22.9	0.00e+00	0	28	0	810549248	48	5948
2026-01-16 19:53:31.17	340.37	12.32	-37.5	-38.4	22.8	0.00e+00	2	28	0	812646400	48	6025
2026-01-16 19:53:32.18	340.19	12.28	-37.5	-38.5	22.7	0.00e+00	92	28	0	813694976	48	6076
2026-01-16 19:53:33.19	340.01	12.25	-37.5	-38.5	22.8	0.00e+00	0	28	0	815792128	48	6064
2026-01-16 19:53:34.20	339.84	12.21	-37.4	-38.4	22.9	0.00e+00	92	28	0	817889280	48	5998
2026-01-16 19:53:35.21	339.66	12.17	-37.4	-38.4	22.9	0.00e+00	33	28	0	819986432	48	5981
2026-01-16 19:53:36.21	339.48	12.13	-37.5	-38.5	22.8	0.00e+00	0	28	0	822083584	48	6038
2026-01-16 19:53:37.23	339.31	12.09	-37.6	-38.6	22.7	0.00e+00	0	28	0	823132160	48	6117
2026-01-16 19:53:38.23	339.13	12.05	-37.6	-38.6	22.6	0.00e+00	0	28	0	825229312	48	6119
2026-01-16 19:53:39.24	338.96	12.01	-37.6	-38.6	22.6	0.00e+00	92	28	0	827326464	48	6163
2026-01-16 19:53:40.25	338.78	11.97	-37.7	-38.7	22.5	0.00e+00	0	28	0	829423616	48	6212
2026-01-16 19:53:41.26	338.61	11.93	-37.7	-38.8	22.5	0.00e+00	90	28	0	831520768	48	6251
2026-01-16 19:53:42.27	338.43	11.89	-37.9	-38.9	22.3	0.00e+00	0	28	0	832569344	48	6389
2026-01-16 19:53:43.28	338.26	11.85	-38.0	-39.0	22.2	0.00e+00	0	28	0	834666496	48	6461
2026-01-16 19:53:44.29	338.09	11.81	-38.0	-39.0	22.3	0.00e+00	0	28	0	836763648	48	6443
2026-01-16 19:53:45.30	337.91	11.77	-38.1	-39.1	22.2	0.00e+00	39	28	0	838860800	48	6509
2026-01-16 19:53:46.30	337.74	11.73	-38.2	-39.2	22.0	0.00e+00	12	28	0	840957952	48	6596
2026-01-16 19:53:47.31	337.57	11.69	-38.2	-39.3	22.0	0.00e+00	0	28	0	842006528	48	6644
2026-01-16 19:53:48.32	337.40	11.64	-38.4	-39.5	21.8	0.00e+00	92	28	0	844103680	48	6778
2026-01-16 19:53:49.33	337.23	11.60	-38.4	-39.5	21.8	0.00e+00	33	28	0	846200832	48	6833
2026-01-16 19:53:50.34	337.06	11.56	-38.3	-39.4	21.9	0.00e+00	38	28	0	848297984	48	6730
2026-01-16 19:53:51.35	336.89	11.52	-38.4	-39.5	21.7	0.00e+00	47	28	0	850395136	48	6818
2026-01-16 19:53:52.36	336.72	11.48	-38.6	-39.7	21.6	0.00e+00	47	28	0	851443712	48	6973
2026-01-16 19:53:53.37	336.55	11.43	-38.6	-39.7	21.6	0.00e+00	0	28	0	853540864	48	6945
2026-01-16 19:53:54.38	336.39	11.39	-38.6	-39.8	21.5	0.00e+00	7	28	0	855638016	48	7016
2026-01-16 19:53:55.39	336.22	11.35	-38.6	-39.7	21.6	0.00e+00	92	28	0	857735168	48	6986
2026-01-16 19:53:56.40	336.05	11.30	-38.7	-39.8	21.5	0.00e+00	7	28	0	859832320	48	7032
2026-01-16 19:53:57.41	335.88	11.26	-38.8	-39.9	21.4	0.00e+00	92	28	0	860880896	50	6361
2026-01-16 19:53:58.41	335.72	11.22	-38.9	-40.0	21.2	0.00e+00	7	28	0	862978048	50	6445
2026-01-16 19:53:59.43	335.55	11.18	-39.0	-40.2	21.1	0.00e+00	0	28	0	865075200	50	6545
2026-01-16 19:54:00.44	335.39	11.13	-39.1	-40.3	21.1	0.00e+00	0	28	0	867172352	50	6628
2026-01-16 19:54:01.45	335.22	11.09	-39.2	-40.4	21.0	0.00e+00	0	28	0	869269504	50	6721
2026-01-16 19:54:02.45	335.06	11.04	-39.2	-40.4	21.0	0.00e+00	52	28	0	870318080	50	6750
2026-01-16 19:54:03.46	334.90	11.00	-39.3	-40.5	20.9	0.00e+00	5	28	0	872415232	50	6806
2026-01-16 19:54:04.47	334.73	10.96	-39.4	-40.7	20.7	0.00e+00	92	28	0	874512384	50	6973
2026-01-16 19:54:05.48	334.57	10.91	-39.4	-40.7	20.7	0.00e+00	0	28	0	876609536	50	6971
2026-01-16 19:54:06.49	334.41	10.87	-39.5	-40.7	20.6	0.00e+00	0	28	0	878706688	50	6975
2026-01-16 19:54:07.50	334.25	10.82	-39.5	-40.8	20.6	0.00e+00	0	28	0	880803840	50	7023
2026-01-16 19:54:08.51	334.09	10.78	-39.7	-41.0	20.3	0.00e+00	46	28	0	881852416	50	7197
2026-01-16 19:54:09.52	333.93	10.73	-39.5	-40.8	20.6	0.00e+00	38	28	0	883949568	52	6291
2026-01-16 19:54:10.53	333.77	10.69	-39.5	-40.8	20.6	0.00e+00	41	28	0	886046720	52	6261
2026-01-16 19:54:11.54	333.61	10.64	-39.6	-40.8	20.5	0.00e+00	91	28	0	888143872	52	6310
2026-01-16 19:54:12.55	333.45	10.60	-39.6	-40.9	20.3	0.00e+00	40	28	0	890241024	52	6386
2026-01-16 19:54:13.56	333.29	10.55	-39.9	-41.2	20.3	0.00e+00	68	28	0	891289600	52	6581
2026-01-16 19:54:14.57	333.13	10.51	-40.0	-41.3	20.1	0.00e+00	40	28	0	893386752	52	6683
2026-01-16 19:54:15.58	332.97	10.46	-40.1	-41.5	19.9	0.00e+00	40	28	0	895483904	52	6835
2026-01-16 19:54:16.58	332.82	10.42	-40.2	-41.6	19.7	0.00e+00	0	28	0	897581056	52	6899
2026-01-16 19:54:17.59	332.66	10.37	-40.3	-41.8	19.6	0.00e+00	0	28	0	899678208	52	7016
2026-01-16 19:54:18.60	332.50	10.32	-40.3	-41.8	19.6	0.00e+00	90	28	0	900726784	52	7027
2026-01-16 19:54:19.61	332.35	10.28	-40.3	-41.7	19.7	0.00e+00	6	28	0	902823936	52	6947
2026-01-16 19:54:20.62	332.19	10.23	-40.4	-41.8	19.6	0.00e+00	92	28	0	904921088	52	7076
2026-01-16 19:54:21.63	332.04	10.19	-40.4	-41.8	19.7	0.00e+00	6	28	0	907018240	52	7039
2026-01-16 19:54:22.64	331.89	10.14	-40.5	-42.0	19.5	0.00e+00	6	28	0	909115392	52	7200
2026-01-16 19:54:23.65	331.73	10.09	-40.2	-41.6	19.9	0.00e+00	5	28	0	910163968	52	6893
2026-01-16 19:54:24.66	331.58	10.05	-40.4	-41.9	19.6	0.00e+00	6	28	0	912261120	52	7116
2026-01-16 19:54:25.67	331.43	10.00	-40.4	-41.9	19.6	0.00e+00	92	28	0	914358272	52	7097
2026-01-16 19:54:26.67	331.28	9.95	-40.5	-41.9	19.5	0.00e+00	0	28	0	916455424	52	7153
2026-01-16 19:54:27.68	331.12	9.91	-40.5	-42.0	19.4	0.00e+00	91	28	0	918552576	52	7218
2026-01-16 19:54:28.70	330.97	9.86	-40.5	-42.0	19.4	0.00e+00	0	28	0	919601152	52	7222
2026-01-16 19:54:29.70	330.82	9.81	-40.5	-42.0	19.5	0.00e+00	46	28	0	921698304	52	7198
2026-01-16 19:54:30.72	330.67	9.76	-40.5	-42.0	19.4	0.00e+00	0	28	0	923795456	52	7213
2026-01-16 19:54:31.73	330.52	9.72	-40.5	-42.0	19.4	0.00e+00	37	28	0	925892608	52	7232
2026-01-16 19:54:32.73	330.37	9.67	-40.5	-42.0	19.4	0.00e+00	92	28	0	927989760	52	7193
2026-01-16 19:54:33.75	330.22	9.62	-40.5	-42.0	19.4	0.00e+00	41	28	0	929038336	52	7232
2026-01-16 19:54:34.76	330.08	9.57	-40.6	-42.1	19.3	0.00e+00	90	28	0	931135488	52	7281
2026-01-16 19:54:35.76	329.93	9.53	-40.3	-41.7	19.6	0.00e+00	42	28	0	933232640	52	6991
2026-01-16 19:54:36.77	329.78	9.48	-40.3	-41.7	19.7	0.00e+00	91	28	0	935329792	52	6993
2026-01-16 19:54:37.78	329.64	9.43	-40.4	-41.9	19.6	0.00e+00	0	28	0	937426944	52	7101
2026-01-16 19:54:38.79	329.49	9.38	-40.3	-41.8	19.6	0.00e+00	34	28	0	938475520	52	7030
2026-01-16 19:54:39.80	329.34	9.33	-40.4	-41.9	19.5	0.00e+00	43	28	0	940572672	52	7109
2026-01-16 19:54:40.81	329.20	9.28	-40.5	-42.0	19.5	0.00e+00	35	28	0	942669824	52	7195
2026-01-16 19:54:41.82	329.05	9.24	-40.5	-42.0	19.3	0.00e+00	92	28	0	944766976	52	7250
2026-01-16 19:54:42.83	328.91	9.19	-40.6	-42.2	19.2	0.00e+00	0	28	0	946864128	52	7343
2026-01-16 19:54:43.84	328.77	9.14	-40.6	-42.1	19.3	0.00e+00	92	28	0	948961280	52	7288
2026-01-16 19:54:44.85	328.62	9.09	-40.5	-41.9	19.4	0.00e+00	0	28	0	950009856	52	7158
2026-01-16 19:54:45.85	328.48	9.04	-40.5	-41.9	19.3	0.00e+00	0	28	0	952107008	52	7166
2026-01-16 19:54:46.86	328.34	8.99	-40.2	-41.7	19.7	0.00e+00	0	28	0	954204160	52	6952
2026-01-16 19:54:47.87	328.20	8.95	-40.2	-41.6	19.7	0.00e+00	0	28	0	956301312	52	6904
2026-01-16 19:54:48.88	328.06	8.90	-40.1	-41.5	19.9	0.00e+00	92	28	0	958398464	52	6787
2026-01-16 19:54:49.89	327.92	8.85	-40.1	-41.5	19.9	0.00e+00	0	28	0	959447040	52	6780
2026-01-16 19:54:50.90	327.78	8.80	-39.9	-41.3	20.0	0.00e+00	92	28	0	961544192	52	6649
2026-01-16 19:54:51.91	327.64	8.75	-39.9	-41.3	20.0	0.00e+00	0	28	0	963641344	52	6621
2026-01-16 19:54:52.92	327.50	8.70	-40.0	-41.4	20.0	0.00e+00	45	28	0	965738496	52	6760
2026-01-16 19:54:53.93	327.36	8.65	-39.9	-41.2	20.2	0.00e+00	45	28	0	967835648	52	6594
2026-01-16 19:54:54.94	327.22	8.60	-40.0	-41.4	20.0	0.00e+00	35	28	0	968884224	52	6705
2026-01-16 19:54:55.95	327.08	8.55	-40.0	-41.3	20.0	0.00e+00	0	28	0	970981376	52	6669
2026-01-16 19:54:56.96	326.94	8.50	-40.1	-41.5	19.8	0.00e+00	46	28	0	973078528	52	6799
2026-01-16 19:54:57.97	326.81	8.45	-39.8	-41.2	20.2	0.00e+00	92	28	0	975175680	52	6563
2026-01-16 19:54:58.98	326.67	8.40	-39.8	-41.1	20.2	0.00e+00	0	28	0	977272832	52	6525
2026-01-16 19:54:59.99	326.53	8.35	-39.8	-41.1	20.2	0.00e+00	28	28	0	978321408	52	6499
2026-01-16 19:55:01.00	326.40	8.30	-39.8	-41.1	20.2	0.00e+00	2	28	0	980418560	52	6530
2026-01-16 19:55:02.01	326.26	8.26	-39.8	-41.1	20.3	0.00e+00	0	28	0	982515712	52	6522
2026-01-16 19:55:03.01	326.13	8.21	-39.7	-41.0	20.3	0.00e+00	36	28	0	984612864	52	6447
2026-01-16 19:55:04.02	326.00	8.16	-39.7	-41.0	20.3	0.00e+00	0	28	0	986710016	52	6459
2026-01-16 19:55:05.03	325.86	8.11	-39.6	-40.9	20.4	0.00e+00	92	28	0	987758592	52	6345
2026-01-16 19:55:06.04	325.73	8.06	-39.5	-40.8	20.5	0.00e+00	2	28	0	989855744	52	6304
2026-01-16 19:55:07.05	325.60	8.01	-39.5	-40.8	20.5	0.00e+00	90	28	0	991952896	52	6270
2026-01-16 19:55:08.06	325.46	7.96	-39.4	-40.7	20.6	0.00e+00	0	28	0	994050048	52	6199
2026-01-16 19:55:09.07	325.33	7.91	-39.4	-40.6	20.7	0.00e+00	0	28	0	996147200	52	6154
2026-01-16 19:55:10.08	325.20	7.86	-39.4	-40.6	20.7	0.00e+00	25	28	0	997195776	52	6149
2026-01-16 19:55:11.09	325.07	7.81	-39.1	-40.3	21.0	0.00e+00	47	28	0	999292928	52	5900
2026-01-16 19:55:12.09	324.94	7.76	-39.1	-40.3	20.9	0.00e+00	90	28	0	1001390080	52	5963
2026-01-16 19:55:13.11	324.81	7.71	-39.2	-40.4	20.8	0.00e+00	0	28	0	1003487232	52	6004
2026-01-16 19:55:14.11	324.68	7.66	-39.0	-40.1	21.0	0.00e+00	90	28	0	1005584384	52	5827
2026-01-16 19:55:15.12	324.55	7.61	-39.0	-40.2	21.0	0.00e+00	0	28	0	1006632960	52	5853
2026-01-16 19:55:16.13	324.42	7.56	-39.0	-40.2	21.1	0.00e+00	37	28	0	1008730112	52	5854
2026-01-16 19:55:17.14	324.30	7.50	-38.8	-40.0	21.3	0.00e+00	45	29	0	1010827264	52	5710
2026-01-16 19:55:18.15	324.17	7.45	-38.9	-40.1	21.2	0.00e+00	45	29	0	1012924416	52	5778
2026-01-16 19:55:19.16	324.04	7.40	-38.6	-39.7	21.4	0.00e+00	12	29	0	1015021568	50	6234
2026-01-16 19:55:20.17	323.91	7.35	-38.6	-39.8	21.4	0.00e+00	36	29	0	1016070144	50	6277
2026-01-16 19:55:21.18	323.79	7.30	-38.5	-39.7	21.5	0.00e+00	91	29	0	1018167296	50	6188
2026-01-16 19:55:22.19	323.66	7.25	-38.6	-39.7	21.4	0.00e+00	2	29	0	1020264448	50	6236
2026-01-16 19:55:23.20	323.54	7.20	-38.7	-39.9	21.2	0.00e+00	0	29	0	1022361600	50	6344
2026-01-16 19:55:24.21	323.41	7.15	-38.6	-39.7	21.4	0.00e+00	0	28	0	1024458752	50	6237
2026-01-16 19:55:25.22	323.29	7.10	-38.5	-39.7	21.5	0.00e+00	2	29	0	1025507328	50	6178
2026-01-16 19:55:26.22	323.16	7.05	-38.5	-39.6	21.5	0.00e+00	43	29	0	1027604480	50	6169
2026-01-16 19:55:27.23	323.04	7.00	-38.5	-39.6	21.5	0.00e+00	0	29	0	1029701632	50	6148
2026-01-16 19:55:28.24	322.92	6.95	-38.5	-39.7	21.4	0.00e+00	92	29	0	1031798784	50	6188
2026-01-16 19:55:29.25	322.79	6.90	-38.3	-39.4	21.7	0.00e+00	0	29	0	1033895936	50	6004
2026-01-16 19:55:30.26	322.67	6.85	-38.2	-39.3	21.7	0.00e+00	92	29	0	1034944512	50	5948
2026-01-16 19:55:31.27	322.55	6.80	-38.2	-39.3	21.6	0.00e+00	0	29	0	1037041664	50	5936
2026-01-16 19:55:32.28	322.43	6.75	-38.3	-39.4	21.7	0.00e+00	44	29	0	1039138816	50	6003
2026-01-16 19:55:33.29	322.31	6.70	-38.2	-39.3	21.7	0.00e+00	38	29	0	1041235968	50	5952
2026-01-16 19:55:34.30	322.19	6.64	-38.4	-39.5	21.6	0.00e+00	42	29	0	1043333120	50	6083
2026-01-16 19:55:35.30	322.07	6.59	-38.3	-39.4	21.7	0.00e+00	83	29	0	1045430272	50	5972
2026-01-16 19:55:36.31	321.95	6.54	-38.2	-39.3	21.7	0.00e+00	0	29	0	1046478848	50	5953
2026-01-16 19:55:37.32	321.83	6.49	-38.2	-39.4	21.6	0.00e+00	92	29	0	1048576000	50	5969
2026-01-16 19:55:38.33	321.71	6.44	-38.4	-39.6	21.0	0.00e+00	0	29	0	1050673152	50	6108
2026-01-16 19:55:39.34	321.59	6.39	-38.4	-39.5	21.2	0.00e+00	0	29	0	1052770304	50	6098
2026-01-16 19:55:40.35	321.47	6.34	-38.5	-39.6	21.4	0.00e+00	41	29	0	1054867456	50	6144
2026-01-16 19:55:41.36	321.36	6.29	-38.4	-39.6	21.4	0.00e+00	43	29	0	1055916032	50	6116
2026-01-16 19:55:42.37	321.24	6.24	-38.5	-39.6	21.4	0.00e+00	0	29	0	1058013184	50	6171
2026-01-16 19:55:43.38	321.12	6.19	-38.4	-39.5	21.5	0.00e+00	40	29	0	1060110336	50	6098
2026-01-16 19:55:44.39	321.01	6.14	-38.4	-39.5	21.4	0.00e+00	92	29	0	1062207488	50	6077
2026-01-16 19:55:45.40	320.89	6.08	-38.5	-39.7	21.3	0.00e+00	42	29	0	1064304640	50	6193
2026-01-16 19:55:46.41	320.77	6.03	-38.5	-39.7	21.3	0.00e+00	83	29	0	1065353216	50	6222
2026-01-16 19:55:47.41	320.66	5.98	-38.6	-39.8	21.3	0.00e+00	5	29	0	1067450368	50	6257
2026-01-16 19:55:48.43	320.54	5.93	-38.6	-39.8	21.3	0.00e+00	6	29	0	1069547520	50	6246
2026-01-16 19:55:49.43	320.43	5.88	-38.3	-39.5	21.6	0.00e+00	0	29	0	1071644672	50	6037
2026-01-16 19:55:50.44	320.32	5.83	-38.4	-39.5	21.4	0.00e+00	5	29	0	1073741824	50	6084
2026-01-16 19:55:51.45	320.20	5.78	-38.6	-39.7	21.2	0.00e+00	91	29	0	1074790400	50	6214
2026-01-16 19:55:52.46	320.09	5.73	-38.4	-39.5	21.5	0.00e+00	0	29	0	1076887552	50	6098
2026-01-16 19:55:53.47	319.98	5.68	-38.6	-39.8	21.2	0.00e+00	92	29	0	1078984704	50	6247
2026-01-16 19:55:54.48	319.87	5.62	-38.6	-39.7	21.2	0.00e+00	42	29	0	1081081856	50	6232
2026-01-16 19:55:55.49	319.75	5.57	-38.9	-40.1	21.0	0.00e+00	0	29	0	1083179008	50	6481
2026-01-16 19:55:56.50	319.64	5.52	-38.8	-40.0	20.9	0.00e+00	42	29	0	1084227584	50	6457
2026-01-16 19:55:57.51	319.53	5.47	-39.1	-40.3	20.6	0.00e+00	43	29	0	1086324736	50	6691
2026-01-16 19:55:58.52	319.42	5.42	-39.2	-40.5	20.6	3.00e-06	59	29	0	1088421888	50	6773
2026-01-16 19:55:59.53	319.31	5.37	-39.2	-40.5	20.4	0.00e+00	42	29	0	1090519040	50	6804
2026-01-16 19:56:00.54	319.20	5.32	-38.8	-40.0	20.8	0.00e+00	92	29	0	1092616192	50	6459
2026-01-16 19:56:01.55	319.09	5.27	-39.0	-40.3	20.7	0.00e+00	0	29	0	1093664768	50	6616
2026-01-16 19:56:02.56	318.98	5.22	-39.2	-40.5	20.7	0.00e+00	44	29	0	1095761920	50	6770
2026-01-16 19:56:03.57	318.87	5.16	-39.0	-40.3	20.7	0.00e+00	40	29	0	1097859072	50	6664
2026-01-16 19:56:04.58	318.76	5.11	-39.0	-40.3	20.7	0.00e+00	6	29	0	1099956224	50	6665
2026-01-16 19:56:05.58	318.66	5.06	-38.9	-40.2	20.9	0.00e+00	36	29	0	1102053376	50	6568
2026-01-16 19:56:06.59	318.55	5.01	-39.2	-40.5	20.6	0.00e+00	45	29	0	1103101952	50	6838
2026-01-16 19:56:07.60	318.44	4.96	-38.8	-40.1	20.9	0.00e+00	92	29	0	1105199104	50	6472
2026-01-16 19:56:08.61	318.34	4.91	-38.8	-40.0	20.9	0.00e+00	6	29	0	1107296256	50	6428
2026-01-16 19:56:09.62	318.23	4.86	-38.8	-40.1	20.9	0.00e+00	49	29	0	1109393408	50	6478
2026-01-16 19:56:10.63	318.12	4.81	-39.1	-40.3	20.6	0.00e+00	0	29	0	1111490560	50	6665
2026-01-16 19:56:11.64	318.02	4.76	-38.8	-40.0	20.8	0.00e+00	7	29	0	1112539136	50	6439
2026-01-16 19:56:12.65	317.91	4.71	-39.0	-40.3	20.6	0.00e+00	6	29	0	1114636288	50	6649
2026-01-16 19:56:13.66	317.81	4.65	-39.0	-40.2	20.7	0.00e+00	0	29	0	1116733440	50	6603
2026-01-16 19:56:14.67	317.70	4.60	-39.1	-40.4	20.5	0.00e+00	90	29	0	1118830592	50	6722
2026-01-16 19:56:15.68	317.60	4.55	-38.9	-40.1	20.7	0.00e+00	0	29	0	1120927744	50	6535
2026-01-16 19:56:16.69	317.50	4.50	-39.1	-40.3	20.5	0.00e+00	92	29	0	1123024896	50	6681
2026-01-16 19:56:17.70	317.39	4.45	-39.3	-40.7	20.2	0.00e+00	42	29	0	1124073472	50	6933
2026-01-16 19:56:18.70	317.29	4.40	-39.5	-40.9	20.0	0.00e+00	42	29	0	1126170624	50	7142
2026-01-16 19:56:19.71	317.19	4.35	-39.6	-41.0	19.9	0.00e+00	0	29	0	1128267776	50	7220
2026-01-16 19:56:20.72	317.09	4.30	-39.8	-41.2	19.7	0.00e+00	0	29	0	1130364928	50	7421
2026-01-16 19:56:21.73	316.98	4.25	-39.7	-41.1	19.8	0.00e+00	92	29	0	1132462080	52	6491
2026-01-16 19:56:22.74	316.88	4.20	-39.9	-41.3	19.6	0.00e+00	40	29	0	1133510656	52	6685
2026-01-16 19:56:23.75	316.78	4.14	-39.9	-41.4	19.5	0.00e+00	92	29	0	1135607808	52	6721
2026-01-16 19:56:24.76	316.68	4.09	-39.8	-41.2	19.5	0.00e+00	38	29	0	1137704960	52	6589
2026-01-16 19:56:25.77	316.58	4.04	-39.6	-41.0	19.8	0.00e+00	73	29	0	1139802112	52	6410
2026-01-16 19:56:26.78	316.48	3.99	-39.7	-41.2	19.7	0.00e+00	0	29	0	1141899264	52	6558
2026-01-16 19:56:27.79	316.38	3.94	-39.6	-41.1	19.8	0.00e+00	45	29	0	1142947840	52	6476
2026-01-16 19:56:28.80	316.28	3.89	-39.8	-41.2	19.7	0.00e+00	60	29	0	1145044992	52	6567
2026-01-16 19:56:29.81	316.18	3.84	-39.9	-41.4	19.4	0.00e+00	0	29	0	1147142144	52	6736
2026-01-16 19:56:30.82	316.08	3.79	-39.9	-41.3	19.3	0.00e+00	92	29	0	1149239296	52	6678
2026-01-16 19:56:31.83	315.99	3.74	-40.0	-41.5	19.4	0.00e+00	0	29	0	1151336448	52	6784
2026-01-16 19:56:32.84	315.89	3.69	-40.0	-41.5	19.3	0.00e+00	48	29	0	1152385024	52	6797
2026-01-16 19:56:33.85	315.79	3.64	-39.9	-41.4	19.3	0.00e+00	0	29	0	1154482176	52	6742
2026-01-16 19:56:34.86	315.69	3.59	-40.0	-41.5	19.3	0.00e+00	2	29	0	1156579328	52	6822
2026-01-16 19:56:35.87	315.60	3.53	-40.1	-41.7	19.0	0.00e+00	2	29	0	1158676480	52	6935
2026-01-16 19:56:36.88	315.50	3.48	-40.4	-42.1	18.7	0.00e+00	41	29	0	1160773632	52	7263
2026-01-16 19:56:37.89	315.40	3.43	-40.8	-42.6	18.3	0.00e+00	92	29	0	1161822208	52	7744
2026-01-16 19:56:38.89	315.31	3.38	-41.1	-42.9	17.9	0.00e+00	0	29	0	1163919360	54	7151
2026-01-16 19:56:39.90	315.21	3.33	-40.8	-42.5	18.2	0.00e+00	92	29	0	1166016512	54	6839
2026-01-16 19:56:40.91	315.12	3.28	-41.0	-42.9	18.0	0.00e+00	42	29	0	1168113664	54	7101
2026-01-16 19:56:41.92	315.02	3.23	-40.9	-42.7	17.9	0.00e+00	40	29	0	1170210816	54	6986
2026-01-16 19:56:42.93	314.93	3.18	-40.7	-42.4	18.3	0.00e+00	0	29	0	1171259392	54	6721
2026-01-16 19:56:43.94	314.84	3.13	-40.9	-42.7	18.1	0.00e+00	41	29	0	1173356544	54	6993
2026-01-16 19:56:44.95	314.74	3.08	-40.8	-42.5	17.7	0.00e+00	41	29	0	1175453696	54	6827
2026-01-16 19:56:45.96	314.65	3.03	-41.0	-42.9	17.8	0.00e+00	41	29	0	1177550848	54	7108
2026-01-16 19:56:46.97	314.55	2.98	-47.1	-62.1	3.6	4.00e-01	0	29	104	1178599424	60	45981
2026-01-16 19:56:47.98	314.46	2.93	-47.6	-62.8	3.6	1.51e+00	0	29	104	1178599424	60	49703
2026-01-16 19:56:48.99	314.37	2.88	-47.9	-63.0	3.6	1.51e+00	0	29	104	1178599424	60	51164
2026-01-16 19:56:50.00	314.28	2.83	-48.0	-63.2	3.6	1.51e+00	0	29	104	1178599424	60	52320
2026-01-16 19:56:51.01	314.19	2.78	-48.1	-63.3	3.6	1.51e+00	0	29	104	1178599424	60	52676
2026-01-16 19:56:52.02	314.09	2.72	-48.1	-63.3	3.6	1.51e+00	0	29	104	1178599424	60	52758
2026-01-16 19:56:53.03	314.00	2.67	-48.2	-63.3	3.6	1.51e+00	0	29	104	1178599424	60	53032
2026-01-16 19:56:54.04	313.91	2.62	-48.2	-63.4	3.6	1.51e+00	0	29	104	1178599424	60	53742
2026-01-16 19:56:55.05	313.82	2.57	-48.2	-63.4	3.6	1.51e+00	0	29	104	1178599424	60	53394
2026-01-16 19:56:56.06	313.73	2.52	-47.9	-63.4	3.6	1.51e+00	0	29	104	1178599424	60	53310
