passes_logs/2026/01/16/R4.6S_Anadyr/R4.6S_Anadyr__20260116_121537_NOAA_21_JPSS-2_rec.log

#Pass ID: 20260116_121537_NOAA 21 (JPSS-2)
#Satellite: NOAA 21 (JPSS-2)
#Configuration: NOAA-21
#almurnet v.1.7.20251203
#Start time: 2026-01-16 12:15:40

#Version: 2.2.20231116
#Station: R4.6S_Anadyr
#Location: 177.4865 lon 64.73178 lat
#TLE: 1 54234U 22150A   26015.92901934  .00000025  00000+0  32700-4 0  9991
#TLE: 2 54234  98.7499 316.8175 0000634 284.8145  75.2961 14.19534841164946

#Time	Az	El	Level	Level2	SNR	BER	BlckErr	Temp	State	Recorded	gain1	gain2
2026-01-16 12:15:40.10	19.26	0.12	-47.9	-62.8	3.5	1.51e+00	0	26	0	0	60	49671
2026-01-16 12:15:41.11	19.34	0.17	-48.8	-61.8	3.5	1.52e+00	0	28	104	0	60	42952
2026-01-16 12:15:42.12	19.42	0.21	-47.9	-61.0	3.5	1.51e+00	0	28	104	0	60	39535
2026-01-16 12:15:43.13	19.50	0.26	-48.3	-61.3	3.5	1.52e+00	0	28	104	0	60	40533
2026-01-16 12:15:44.14	19.57	0.31	-48.2	-61.0	3.5	1.52e+00	0	28	104	0	60	39585
2026-01-16 12:15:45.15	19.65	0.36	-48.1	-61.0	3.5	1.52e+00	0	28	104	0	60	39219
2026-01-16 12:15:46.16	19.73	0.41	-48.1	-60.9	3.5	1.51e+00	0	28	104	0	60	39053
2026-01-16 12:15:47.17	19.81	0.46	-47.9	-60.9	3.5	1.52e+00	0	28	104	0	60	38830
2026-01-16 12:15:48.18	19.89	0.50	-47.9	-60.8	3.5	1.52e+00	0	28	104	0	60	38264
2026-01-16 12:15:49.18	19.97	0.55	-47.9	-60.7	3.5	1.52e+00	0	28	104	0	60	38024
2026-01-16 12:15:50.19	20.05	0.60	-47.7	-60.5	3.5	1.52e+00	0	28	104	0	60	37366
2026-01-16 12:15:51.20	20.13	0.65	-47.6	-60.5	3.5	1.51e+00	0	28	104	0	60	36966
2026-01-16 12:15:52.21	20.21	0.70	-47.4	-60.3	3.5	1.52e+00	0	28	104	0	60	36258
2026-01-16 12:15:53.22	20.29	0.75	-47.3	-60.1	3.5	1.51e+00	0	28	104	0	60	35640
2026-01-16 12:15:54.23	20.37	0.79	-47.1	-59.9	3.5	1.52e+00	0	28	104	0	60	34868
2026-01-16 12:15:55.24	20.45	0.84	-46.7	-59.6	3.4	1.52e+00	0	28	104	0	60	33402
2026-01-16 12:15:56.25	20.53	0.89	-46.2	-59.0	3.5	1.51e+00	0	28	104	0	60	31420
2026-01-16 12:15:57.26	20.62	0.94	-46.2	-59.1	3.5	1.52e+00	0	28	104	0	60	31477
2026-01-16 12:15:58.27	20.70	0.99	-46.2	-59.0	3.5	1.52e+00	0	28	104	0	60	31446
2026-01-16 12:15:59.28	20.78	1.04	-46.3	-59.1	3.5	1.52e+00	0	28	104	0	60	31619
2026-01-16 12:16:00.29	20.86	1.09	-46.2	-59.1	3.5	1.52e+00	0	28	104	0	60	31541
2026-01-16 12:16:01.30	20.95	1.14	-46.2	-59.0	3.5	1.52e+00	0	28	104	0	60	31359
2026-01-16 12:16:02.30	21.03	1.19	-46.2	-59.0	3.5	1.52e+00	0	28	104	0	60	31393
2026-01-16 12:16:03.31	21.11	1.23	-46.2	-59.0	3.5	1.52e+00	0	28	104	0	60	31379
2026-01-16 12:16:04.32	21.19	1.28	-46.2	-59.0	3.5	1.52e+00	0	28	104	0	60	31173
2026-01-16 12:16:05.33	21.28	1.33	-46.2	-59.0	3.5	1.51e+00	0	28	104	0	60	31262
2026-01-16 12:16:06.34	21.36	1.38	-46.2	-59.0	3.5	1.52e+00	0	28	104	0	60	31406
2026-01-16 12:16:07.35	21.45	1.43	-46.2	-59.0	3.5	1.52e+00	0	28	104	0	60	31397
2026-01-16 12:16:08.36	21.53	1.48	-46.2	-59.0	3.5	1.51e+00	0	28	104	0	60	31425
2026-01-16 12:16:09.37	21.62	1.53	-46.2	-59.0	3.5	1.51e+00	0	29	104	0	60	31390
2026-01-16 12:16:10.38	21.70	1.58	-46.2	-59.1	3.5	1.51e+00	0	28	104	0	60	31465
2026-01-16 12:16:11.39	21.79	1.63	-46.2	-59.1	3.5	1.52e+00	0	28	104	0	60	31556
2026-01-16 12:16:12.40	21.87	1.68	-46.2	-59.1	3.5	1.51e+00	0	28	104	0	60	31541
2026-01-16 12:16:13.41	21.96	1.73	-46.2	-59.1	3.5	1.51e+00	0	29	104	0	60	31493
2026-01-16 12:16:14.42	22.04	1.78	-46.2	-59.0	3.5	1.52e+00	0	28	104	0	60	31280
2026-01-16 12:16:15.43	22.13	1.83	-46.2	-59.0	3.5	1.52e+00	0	29	104	0	60	31306
2026-01-16 12:16:16.44	22.22	1.87	-46.2	-59.0	3.5	1.52e+00	0	28	104	0	60	31376
2026-01-16 12:16:17.45	22.30	1.92	-46.2	-59.0	3.5	1.52e+00	0	28	104	0	60	31215
2026-01-16 12:16:18.46	22.39	1.97	-46.2	-59.0	3.5	1.51e+00	0	29	104	0	60	31144
2026-01-16 12:16:19.47	22.48	2.02	-46.2	-59.0	3.5	1.52e+00	0	29	104	0	60	31206
2026-01-16 12:16:20.48	22.57	2.07	-46.3	-59.1	3.5	1.52e+00	0	28	104	0	60	31563
2026-01-16 12:16:21.49	22.65	2.12	-46.2	-59.0	3.5	1.52e+00	0	29	104	0	60	31222
2026-01-16 12:16:22.50	22.74	2.17	-46.3	-59.0	3.5	1.52e+00	0	29	104	0	60	31277
2026-01-16 12:16:23.50	22.83	2.22	-46.3	-59.0	3.5	1.52e+00	0	29	104	0	60	31453
2026-01-16 12:16:24.52	22.92	2.27	-46.2	-59.1	3.5	1.52e+00	0	29	104	0	60	31559
2026-01-16 12:16:25.53	23.01	2.32	-46.2	-58.8	3.5	1.52e+00	0	29	104	0	60	30490
2026-01-16 12:16:26.54	23.10	2.37	-46.2	-58.2	3.5	1.52e+00	0	29	104	0	60	28383
2026-01-16 12:16:27.55	23.19	2.42	-46.1	-57.6	3.5	1.51e+00	0	29	104	0	60	26495
2026-01-16 12:16:28.56	23.28	2.47	-46.1	-57.2	3.5	1.51e+00	0	29	104	0	60	25297
2026-01-16 12:16:29.56	23.37	2.52	-46.0	-57.1	3.5	1.51e+00	0	29	104	0	60	25155
2026-01-16 12:16:30.58	23.46	2.57	-45.7	-54.4	3.8	1.37e+00	1	29	104	0	60	18481
2026-01-16 12:16:31.59	23.55	2.62	-44.7	-49.7	8.4	1.20e-01	0	29	0	0	60	10676
2026-01-16 12:16:32.60	23.64	2.67	-43.2	-46.4	12.1	1.41e-03	0	29	0	3145728	60	7356
2026-01-16 12:16:33.61	23.73	2.72	-41.2	-43.4	15.0	0.00e+00	0	29	0	6291456	56	6502
2026-01-16 12:16:34.62	23.82	2.77	-39.8	-41.5	16.8	0.00e+00	0	29	0	9437184	54	5881
2026-01-16 12:16:35.63	23.92	2.82	-38.5	-40.0	18.2	0.00e+00	0	29	0	12582912	50	6223
2026-01-16 12:16:36.64	24.01	2.87	-38.4	-39.8	18.3	0.00e+00	0	29	0	15728640	50	6087
2026-01-16 12:16:37.65	24.10	2.92	-39.0	-40.6	17.6	0.00e+00	0	29	0	18874368	50	6658
2026-01-16 12:16:38.66	24.19	2.97	-39.6	-41.3	16.7	0.00e+00	0	29	0	22020096	50	7283
2026-01-16 12:16:39.67	24.29	3.02	-40.9	-42.9	15.2	0.00e+00	0	29	0	25165824	54	6962
2026-01-16 12:16:40.68	24.38	3.07	-39.1	-40.7	17.4	0.00e+00	0	29	0	28311552	52	6015
2026-01-16 12:16:41.69	24.47	3.12	-45.7	-56.1	3.6	2.97e-05	0	29	104	31457280	60	22306
2026-01-16 12:16:42.70	24.57	3.17	-40.3	-42.5	5.1	1.47e+00	0	29	104	31457280	54	6606
2026-01-16 12:16:43.71	24.66	3.22	-40.6	-42.4	16.1	1.83e-05	0	29	0	31457280	54	6570
2026-01-16 12:16:44.72	24.76	3.27	-45.0	-50.5	4.6	4.42e-05	0	29	0	34603008	58	13119
2026-01-16 12:16:45.73	24.85	3.33	-41.2	-43.7	5.1	1.40e+00	0	28	104	34603008	58	6046
2026-01-16 12:16:46.74	24.95	3.38	-39.9	-41.7	17.0	0.00e+00	0	29	0	34603008	54	5997
2026-01-16 12:16:47.74	25.04	3.43	-39.8	-41.4	16.7	0.00e+00	0	29	0	37748736	52	6561
2026-01-16 12:16:48.75	25.14	3.48	-39.8	-41.5	17.0	0.00e+00	0	29	0	40894464	52	6611
2026-01-16 12:16:49.76	25.23	3.53	-39.8	-41.5	16.9	0.00e+00	0	28	0	44040192	52	6588
2026-01-16 12:16:50.77	25.33	3.58	-40.0	-41.7	16.8	0.00e+00	0	29	0	47185920	52	6802
2026-01-16 12:16:51.78	25.43	3.63	-40.6	-42.4	15.9	0.00e+00	0	28	0	50331648	54	6540
2026-01-16 12:16:52.79	25.53	3.68	-40.8	-42.8	15.5	0.00e+00	0	28	0	53477376	54	6822
2026-01-16 12:16:53.80	25.62	3.73	-41.0	-43.0	16.2	0.00e+00	0	29	0	56623104	54	7028
2026-01-16 12:16:54.81	25.72	3.78	-41.4	-43.5	14.9	0.00e+00	0	29	0	59768832	54	7434
2026-01-16 12:16:55.82	25.82	3.83	-41.8	-44.0	14.6	0.00e+00	0	28	0	62914560	54	7890
2026-01-16 12:16:56.83	25.92	3.88	-42.6	-45.2	13.2	2.20e-06	0	29	0	66060288	56	8079
2026-01-16 12:16:57.84	26.02	3.93	-43.0	-45.9	12.6	1.14e-05	0	29	0	69206016	58	7726
2026-01-16 12:16:58.85	26.12	3.98	-42.5	-45.0	13.5	7.32e-05	0	29	0	72351744	58	6975
2026-01-16 12:16:59.86	26.21	4.03	-43.2	-46.1	12.3	2.82e-05	0	29	0	75497472	58	7973
2026-01-16 12:17:00.87	26.31	4.09	-43.6	-46.8	11.8	1.22e-03	0	29	0	78643200	60	7676
2026-01-16 12:17:01.88	26.41	4.14	-44.3	-48.1	10.0	4.32e-03	0	29	0	81788928	60	8910
2026-01-16 12:17:02.89	26.52	4.19	-44.9	-49.3	10.1	7.72e-03	0	29	0	84934656	60	10278
2026-01-16 12:17:03.90	26.62	4.24	-43.9	-47.3	11.6	2.89e-03	0	29	0	88080384	60	8093
2026-01-16 12:17:04.92	26.72	4.29	-43.7	-47.1	11.1	1.23e-03	0	28	0	91226112	60	7918
2026-01-16 12:17:05.93	26.82	4.34	-43.7	-47.0	12.9	4.26e-04	0	29	0	94371840	60	7846
2026-01-16 12:17:06.94	26.92	4.39	-43.6	-46.7	12.1	3.30e-04	0	29	0	97517568	60	7624
2026-01-16 12:17:07.95	27.02	4.44	-43.9	-47.3	10.2	1.85e-03	0	29	0	100663296	60	8120
2026-01-16 12:17:08.96	27.13	4.49	-43.8	-47.2	11.5	2.16e-03	0	29	0	103809024	60	7995
2026-01-16 12:17:09.97	27.23	4.55	-44.1	-47.7	11.1	3.49e-03	0	29	0	106954752	60	8515
2026-01-16 12:17:10.98	27.33	4.60	-42.2	-44.6	14.1	6.40e-05	0	29	0	110100480	58	6703
2026-01-16 12:17:11.99	27.44	4.65	-40.8	-42.6	16.2	0.00e+00	0	29	0	113246208	56	5958
2026-01-16 12:17:13.01	27.54	4.70	-40.3	-42.0	16.7	0.00e+00	0	29	0	116391936	54	6236
2026-01-16 12:17:14.02	27.64	4.75	-39.5	-41.0	17.5	0.00e+00	0	29	0	119537664	52	6270
2026-01-16 12:17:15.02	27.75	4.80	-39.7	-41.3	17.8	0.00e+00	0	29	0	122683392	52	6490
2026-01-16 12:17:16.03	27.85	4.85	-39.7	-41.2	17.2	0.00e+00	0	29	0	125829120	52	6419
2026-01-16 12:17:17.04	27.96	4.90	-39.2	-40.7	18.1	0.00e+00	0	29	0	128974848	52	6041
2026-01-16 12:17:18.05	28.06	4.96	-38.9	-40.3	18.2	0.00e+00	0	29	0	132120576	52	5734
2026-01-16 12:17:19.06	28.17	5.01	-39.5	-41.1	18.0	0.00e+00	0	29	0	135266304	52	6292
2026-01-16 12:17:20.07	28.28	5.06	-38.9	-40.3	18.5	0.00e+00	0	29	0	138412032	52	5742
2026-01-16 12:17:21.08	28.38	5.11	-38.3	-39.6	19.0	0.00e+00	0	29	0	141557760	50	5966
2026-01-16 12:17:22.09	28.49	5.16	-38.4	-39.8	19.0	0.00e+00	0	29	0	144703488	50	6077
2026-01-16 12:17:23.10	28.60	5.21	-37.5	-38.8	19.9	0.00e+00	0	28	0	147849216	48	6068
2026-01-16 12:17:24.12	28.71	5.26	-37.4	-38.7	20.0	0.00e+00	0	29	0	150994944	48	6012
2026-01-16 12:17:25.12	28.81	5.32	-37.3	-38.6	20.0	0.00e+00	0	28	0	154140672	48	5941
2026-01-16 12:17:26.14	28.92	5.37	-37.1	-38.3	20.3	0.00e+00	0	29	0	157286400	48	5747
2026-01-16 12:17:27.14	29.03	5.42	-37.3	-38.6	20.0	0.00e+00	0	29	0	160432128	48	5933
2026-01-16 12:17:28.15	29.14	5.47	-37.4	-38.6	20.0	0.00e+00	0	29	0	163577856	48	5957
2026-01-16 12:17:29.17	29.25	5.52	-37.3	-38.5	20.2	0.00e+00	0	29	0	166723584	48	5924
2026-01-16 12:17:30.18	29.36	5.57	-37.0	-38.1	20.4	0.00e+00	0	29	0	169869312	48	5646
2026-01-16 12:17:31.19	29.47	5.63	-36.9	-38.1	20.5	0.00e+00	0	28	0	173015040	48	5639
2026-01-16 12:17:32.20	29.58	5.68	-36.7	-37.8	20.7	0.00e+00	0	28	0	176160768	48	5467
2026-01-16 12:17:33.21	29.69	5.73	-36.9	-38.0	20.6	0.00e+00	0	29	0	179306496	46	6251
2026-01-16 12:17:34.22	29.80	5.78	-36.4	-37.6	21.0	0.00e+00	0	29	0	182452224	46	5932
2026-01-16 12:17:35.22	29.91	5.83	-36.5	-37.6	20.9	0.00e+00	0	28	0	185597952	46	5985
2026-01-16 12:17:36.24	30.03	5.88	-36.6	-37.7	20.8	0.00e+00	0	29	0	188743680	46	6064
2026-01-16 12:17:37.25	30.14	5.94	-36.5	-37.6	20.9	0.00e+00	0	28	0	191889408	46	5967
2026-01-16 12:17:38.25	30.25	5.99	-36.7	-37.8	20.8	0.00e+00	0	28	0	195035136	46	6106
2026-01-16 12:17:39.26	30.37	6.04	-36.4	-37.5	21.0	0.00e+00	0	28	0	198180864	46	5904
2026-01-16 12:17:40.27	30.48	6.09	-36.6	-37.8	20.8	0.00e+00	0	28	0	201326592	46	6088
2026-01-16 12:17:41.28	30.59	6.14	-36.6	-37.7	20.9	0.00e+00	0	29	0	204472320	46	6056
2026-01-16 12:17:42.29	30.71	6.19	-36.5	-37.6	21.0	0.00e+00	0	29	0	207618048	46	5962
2026-01-16 12:17:43.30	30.82	6.25	-36.6	-37.7	20.9	0.00e+00	0	28	0	210763776	46	6019
2026-01-16 12:17:44.31	30.94	6.30	-36.7	-37.8	20.8	0.00e+00	0	28	0	213909504	46	6130
2026-01-16 12:17:45.32	31.05	6.35	-36.4	-37.6	21.0	0.00e+00	0	29	0	217055232	46	5936
2026-01-16 12:17:46.33	31.17	6.40	-36.2	-37.3	21.2	0.00e+00	0	28	0	220200960	46	5738
2026-01-16 12:17:47.34	31.29	6.45	-36.3	-37.4	21.1	0.00e+00	0	28	0	223346688	46	5842
2026-01-16 12:17:48.35	31.40	6.50	-36.2	-37.3	21.3	0.00e+00	0	28	0	226492416	46	5752
2026-01-16 12:17:49.36	31.52	6.56	-36.2	-37.3	21.2	0.00e+00	0	28	0	229638144	46	5791
2026-01-16 12:17:50.37	31.64	6.61	-36.2	-37.2	21.3	0.00e+00	0	28	0	232783872	46	5704
2026-01-16 12:17:51.38	31.76	6.66	-35.9	-37.0	21.5	0.00e+00	0	28	0	235929600	46	5568
2026-01-16 12:17:52.39	31.87	6.71	-36.1	-37.2	21.4	0.00e+00	0	29	0	239075328	46	5690
2026-01-16 12:17:53.40	31.99	6.76	-36.1	-37.2	21.4	0.00e+00	0	28	0	242221056	46	5690
2026-01-16 12:17:54.41	32.11	6.81	-35.9	-37.0	21.5	0.00e+00	0	28	0	245366784	46	5559
2026-01-16 12:17:55.42	32.23	6.87	-35.8	-36.9	21.7	0.00e+00	0	28	0	248512512	46	5502
2026-01-16 12:17:56.43	32.35	6.92	-36.1	-37.2	21.4	0.00e+00	0	29	0	251658240	46	5707
2026-01-16 12:17:57.44	32.47	6.97	-35.8	-36.9	21.7	0.00e+00	0	29	0	254803968	46	5490
2026-01-16 12:17:58.45	32.59	7.02	-35.9	-36.9	21.7	0.00e+00	0	29	0	257949696	46	5523
2026-01-16 12:17:59.46	32.72	7.07	-35.7	-36.8	21.8	0.00e+00	0	29	0	261095424	46	5421
2026-01-16 12:18:00.47	32.84	7.13	-36.0	-37.1	21.6	0.00e+00	0	29	0	265289728	44	6291
2026-01-16 12:18:01.48	32.96	7.18	-35.7	-36.8	21.7	0.00e+00	0	29	0	268435456	44	6075
2026-01-16 12:18:02.49	33.08	7.23	-35.7	-36.8	21.8	0.00e+00	0	28	0	270532608	44	6083
2026-01-16 12:18:03.50	33.20	7.28	-35.7	-36.8	21.8	0.00e+00	0	28	0	273678336	44	6093
2026-01-16 12:18:04.51	33.33	7.33	-35.6	-36.6	21.9	0.00e+00	0	29	0	276824064	44	5992
2026-01-16 12:18:05.52	33.45	7.38	-35.6	-36.7	21.9	0.00e+00	0	29	0	281018368	44	6012
2026-01-16 12:18:06.53	33.58	7.44	-35.5	-36.6	21.9	0.00e+00	0	29	0	284164096	44	5934
2026-01-16 12:18:07.54	33.70	7.49	-35.4	-36.4	22.2	0.00e+00	0	28	0	287309824	44	5828
2026-01-16 12:18:08.55	33.83	7.54	-35.4	-36.4	22.3	0.00e+00	0	28	0	290455552	44	5814
2026-01-16 12:18:09.56	33.95	7.59	-35.6	-36.7	22.0	0.00e+00	0	28	0	292552704	44	5997
2026-01-16 12:18:10.57	34.08	7.64	-35.6	-36.7	21.9	0.00e+00	0	28	0	296747008	44	6009
2026-01-16 12:18:11.58	34.20	7.70	-35.7	-36.8	21.8	0.00e+00	0	28	0	299892736	44	6086
2026-01-16 12:18:12.59	34.33	7.75	-35.7	-36.8	21.7	0.00e+00	0	28	0	303038464	44	6067
2026-01-16 12:18:13.60	34.46	7.80	-36.1	-37.1	21.7	0.00e+00	0	28	0	306184192	44	6337
2026-01-16 12:18:14.61	34.59	7.85	-35.9	-37.0	21.8	0.00e+00	0	28	0	309329920	44	6227
2026-01-16 12:18:15.62	34.71	7.90	-36.1	-37.2	21.5	0.00e+00	0	29	0	312475648	44	6389
2026-01-16 12:18:16.63	34.84	7.95	-36.3	-37.4	21.3	0.00e+00	0	28	0	315621376	44	6557
2026-01-16 12:18:17.64	34.97	8.01	-36.1	-37.2	21.6	0.00e+00	0	28	0	318767104	44	6353
2026-01-16 12:18:18.65	35.10	8.06	-35.7	-36.7	21.9	0.00e+00	0	29	0	321912832	44	6037
2026-01-16 12:18:19.66	35.23	8.11	-35.7	-36.7	21.9	0.00e+00	0	28	0	325058560	44	6043
2026-01-16 12:18:20.67	35.36	8.16	-35.6	-36.7	22.0	0.00e+00	0	28	0	328204288	44	6008
2026-01-16 12:18:21.68	35.49	8.21	-35.7	-36.8	21.8	0.00e+00	0	28	0	331350016	44	6067
2026-01-16 12:18:22.69	35.62	8.26	-35.8	-36.8	21.9	0.00e+00	0	28	0	334495744	44	6104
2026-01-16 12:18:23.70	35.75	8.32	-35.9	-37.0	21.9	0.00e+00	0	28	0	337641472	44	6223
2026-01-16 12:18:24.71	35.89	8.37	-35.9	-37.0	21.8	0.00e+00	0	28	0	340787200	44	6226
2026-01-16 12:18:25.72	36.02	8.42	-35.9	-37.0	21.8	0.00e+00	0	28	0	343932928	44	6235
2026-01-16 12:18:26.73	36.15	8.47	-36.0	-37.1	21.8	0.00e+00	0	28	0	347078656	44	6343
2026-01-16 12:18:27.74	36.29	8.52	-35.6	-36.7	22.1	0.00e+00	0	28	0	350224384	44	6015
2026-01-16 12:18:28.75	36.42	8.57	-35.7	-36.7	22.0	0.00e+00	0	28	0	353370112	44	6041
2026-01-16 12:18:29.76	36.55	8.62	-35.6	-36.7	22.0	0.00e+00	0	28	0	356515840	44	6011
2026-01-16 12:18:30.77	36.69	8.68	-35.5	-36.6	22.2	0.00e+00	0	28	0	359661568	44	5929
2026-01-16 12:18:31.78	36.82	8.73	-35.4	-36.4	22.3	0.00e+00	0	28	0	362807296	44	5847
2026-01-16 12:18:32.79	36.96	8.78	-35.3	-36.3	22.3	0.00e+00	0	28	0	365953024	44	5760
2026-01-16 12:18:33.80	37.10	8.83	-35.1	-36.1	22.6	0.00e+00	0	28	0	369098752	44	5601
2026-01-16 12:18:34.81	37.23	8.88	-35.0	-36.0	22.7	0.00e+00	0	28	0	372244480	44	5580
2026-01-16 12:18:35.82	37.37	8.93	-35.0	-36.0	22.6	0.00e+00	0	28	0	375390208	44	5567
2026-01-16 12:18:36.83	37.51	8.98	-35.1	-36.1	22.5	0.00e+00	0	28	0	378535936	44	5616
2026-01-16 12:18:37.84	37.65	9.03	-35.3	-36.3	22.4	0.00e+00	0	28	0	381681664	44	5775
2026-01-16 12:18:38.85	37.78	9.09	-35.2	-36.2	22.5	0.00e+00	0	28	0	384827392	44	5667
2026-01-16 12:18:39.86	37.92	9.14	-35.3	-36.3	22.4	0.00e+00	0	28	0	387973120	44	5759
2026-01-16 12:18:40.87	38.06	9.19	-35.5	-36.5	22.2	0.00e+00	0	28	0	391118848	44	5901
2026-01-16 12:18:41.88	38.20	9.24	-34.9	-35.9	22.6	0.00e+00	0	28	0	394264576	44	5504
2026-01-16 12:18:42.89	38.34	9.29	-35.0	-36.0	22.7	0.00e+00	0	28	0	397410304	44	5550
2026-01-16 12:18:43.90	38.48	9.34	-35.0	-36.0	22.6	0.00e+00	0	28	0	400556032	44	5547
2026-01-16 12:18:44.91	38.62	9.39	-35.1	-36.1	22.6	0.00e+00	0	28	0	403701760	44	5636
2026-01-16 12:18:45.92	38.77	9.44	-35.1	-36.1	22.5	0.00e+00	0	28	0	406847488	44	5610
2026-01-16 12:18:46.93	38.91	9.49	-35.0	-36.0	22.5	0.00e+00	0	28	0	409993216	44	5559
2026-01-16 12:18:47.93	39.05	9.54	-35.0	-36.0	22.6	0.00e+00	0	28	0	413138944	44	5581
2026-01-16 12:18:48.94	39.19	9.59	-35.0	-36.0	22.6	0.00e+00	0	28	0	416284672	44	5549
2026-01-16 12:18:49.95	39.34	9.64	-35.1	-36.1	22.5	0.00e+00	0	28	0	419430400	44	5632
2026-01-16 12:18:50.96	39.48	9.70	-35.2	-36.2	22.5	0.00e+00	0	28	0	422576128	44	5691
2026-01-16 12:18:51.97	39.63	9.75	-35.0	-36.0	22.7	0.00e+00	0	28	0	425721856	44	5576
2026-01-16 12:18:52.98	39.77	9.80	-34.9	-35.9	22.8	0.00e+00	0	28	0	428867584	44	5498
2026-01-16 12:18:53.99	39.92	9.85	-34.9	-35.8	22.8	0.00e+00	0	28	0	432013312	44	5464
2026-01-16 12:18:55.00	40.06	9.90	-35.0	-36.0	22.7	0.00e+00	0	28	0	435159040	44	5533
2026-01-16 12:18:56.01	40.21	9.95	-35.0	-36.0	22.6	0.00e+00	0	28	0	438304768	44	5573
2026-01-16 12:18:57.02	40.36	10.00	-34.9	-35.9	22.7	0.00e+00	0	28	0	441450496	44	5518
2026-01-16 12:18:58.03	40.50	10.05	-34.9	-35.8	22.9	0.00e+00	0	28	0	444596224	44	5460
2026-01-16 12:18:59.04	40.65	10.10	-34.8	-35.8	22.9	0.00e+00	0	28	0	447741952	44	5446
2026-01-16 12:19:00.05	40.80	10.15	-34.8	-35.8	22.9	0.00e+00	0	28	0	450887680	42	6106
2026-01-16 12:19:01.06	40.95	10.20	-34.9	-35.9	22.9	0.00e+00	0	28	0	454033408	42	6169
2026-01-16 12:19:02.07	41.10	10.25	-34.9	-35.8	23.1	0.00e+00	0	28	0	457179136	42	6134
2026-01-16 12:19:03.08	41.25	10.30	-34.8	-35.8	22.9	0.00e+00	0	28	0	460324864	42	6104
2026-01-16 12:19:04.09	41.40	10.35	-35.0	-36.0	22.7	0.00e+00	0	28	0	463470592	42	6236
2026-01-16 12:19:05.10	41.55	10.40	-34.9	-35.8	22.9	0.00e+00	0	28	0	466616320	42	6129
2026-01-16 12:19:06.11	41.70	10.45	-34.9	-35.8	22.9	0.00e+00	0	28	0	469762048	42	6113
2026-01-16 12:19:07.12	41.86	10.50	-34.9	-35.8	23.0	0.00e+00	0	28	0	472907776	42	6132
2026-01-16 12:19:08.13	42.01	10.55	-34.9	-35.9	22.8	0.00e+00	0	28	0	476053504	42	6174
2026-01-16 12:19:09.14	42.16	10.60	-34.8	-35.8	22.9	0.00e+00	0	28	0	479199232	42	6087
2026-01-16 12:19:10.15	42.31	10.64	-34.9	-35.8	22.8	0.00e+00	0	28	0	482344960	42	6134
2026-01-16 12:19:11.16	42.47	10.69	-34.7	-35.6	23.0	0.00e+00	0	28	0	485490688	42	5972
2026-01-16 12:19:12.17	42.62	10.74	-34.6	-35.6	23.0	0.00e+00	0	28	0	488636416	42	5949
2026-01-16 12:19:13.18	42.78	10.79	-35.0	-36.0	22.8	0.00e+00	0	28	0	491782144	42	6244
2026-01-16 12:19:14.19	42.93	10.84	-34.7	-35.6	23.1	0.00e+00	0	28	0	494927872	42	5981
2026-01-16 12:19:15.20	43.09	10.89	-34.8	-35.8	22.9	0.00e+00	0	28	0	498073600	42	6095
2026-01-16 12:19:16.21	43.25	10.94	-34.8	-35.8	23.1	0.00e+00	0	28	0	501219328	42	6097
2026-01-16 12:19:17.22	43.40	10.99	-34.7	-35.7	23.1	0.00e+00	0	28	0	504365056	42	6027
2026-01-16 12:19:18.23	43.56	11.04	-34.9	-35.9	22.9	0.00e+00	0	28	0	507510784	42	6183
2026-01-16 12:19:19.24	43.72	11.08	-34.9	-35.8	22.9	0.00e+00	0	28	0	510656512	42	6123
2026-01-16 12:19:20.25	43.88	11.13	-34.6	-35.6	23.1	0.00e+00	0	28	0	513802240	42	5961
2026-01-16 12:19:21.26	44.04	11.18	-34.6	-35.5	23.2	0.00e+00	0	28	0	516947968	42	5908
2026-01-16 12:19:22.27	44.20	11.23	-34.6	-35.6	23.2	0.00e+00	0	28	0	520093696	42	5950
2026-01-16 12:19:23.28	44.36	11.28	-34.6	-35.6	23.2	0.00e+00	0	28	0	523239424	42	5963
2026-01-16 12:19:24.29	44.52	11.33	-34.7	-35.7	23.2	0.00e+00	0	28	0	526385152	42	6023
2026-01-16 12:19:25.30	44.68	11.37	-34.6	-35.6	23.2	0.00e+00	0	28	0	529530880	42	5969
2026-01-16 12:19:26.31	44.84	11.42	-34.9	-35.9	23.2	0.00e+00	0	28	0	532676608	42	6167
2026-01-16 12:19:27.33	45.00	11.47	-34.7	-35.7	23.1	0.00e+00	0	28	0	535822336	42	6036
2026-01-16 12:19:28.34	45.17	11.52	-34.8	-35.8	23.0	0.00e+00	0	28	0	538968064	42	6091
2026-01-16 12:19:29.35	45.33	11.56	-34.8	-35.8	23.1	0.00e+00	0	28	0	542113792	42	6085
2026-01-16 12:19:30.36	45.49	11.61	-34.8	-35.8	23.0	0.00e+00	0	28	0	545259520	42	6094
2026-01-16 12:19:31.37	45.66	11.66	-35.0	-36.0	22.8	0.00e+00	0	28	0	548405248	42	6268
2026-01-16 12:19:32.38	45.82	11.71	-35.1	-36.1	22.7	0.00e+00	0	28	0	551550976	42	6339
2026-01-16 12:19:33.38	45.99	11.75	-35.1	-36.1	22.8	0.00e+00	0	28	0	554696704	42	6345
2026-01-16 12:19:34.39	46.15	11.80	-35.0	-36.0	22.8	0.00e+00	0	28	0	557842432	42	6222
2026-01-16 12:19:35.41	46.32	11.85	-35.2	-36.2	22.7	0.00e+00	0	28	0	560988160	42	6420
2026-01-16 12:19:36.42	46.49	11.89	-35.2	-36.2	22.8	0.00e+00	0	28	0	564133888	42	6390
2026-01-16 12:19:37.43	46.65	11.94	-35.2	-36.2	22.7	0.00e+00	0	28	0	567279616	42	6407
2026-01-16 12:19:38.44	46.82	11.99	-35.1	-36.1	22.9	0.00e+00	0	28	0	570425344	42	6295
2026-01-16 12:19:39.45	46.99	12.03	-35.6	-36.6	22.9	0.00e+00	0	28	0	573571072	42	6676
2026-01-16 12:19:40.46	47.16	12.08	-35.2	-36.2	23.0	0.00e+00	0	28	0	576716800	42	6401
2026-01-16 12:19:41.47	47.33	12.13	-34.9	-35.9	22.9	0.00e+00	0	28	0	580911104	42	6176
2026-01-16 12:19:42.48	47.50	12.17	-35.0	-36.0	22.9	0.00e+00	0	28	0	584056832	42	6223
2026-01-16 12:19:43.49	47.67	12.22	-35.1	-36.1	23.0	0.00e+00	0	28	0	586153984	42	6301
2026-01-16 12:19:44.50	47.84	12.26	-35.0	-35.9	23.0	0.00e+00	0	28	0	589299712	42	6202
2026-01-16 12:19:45.52	48.01	12.31	-34.9	-35.9	23.0	0.00e+00	0	28	0	593494016	42	6186
2026-01-16 12:19:46.53	48.18	12.35	-34.7	-35.7	23.2	0.00e+00	0	28	0	596639744	42	6030
2026-01-16 12:19:47.54	48.36	12.40	-34.7	-35.7	23.3	0.00e+00	0	28	0	599785472	42	6014
2026-01-16 12:19:48.54	48.53	12.44	-34.7	-35.7	23.2	0.00e+00	0	28	0	602931200	42	6039
2026-01-16 12:19:49.55	48.70	12.49	-34.8	-35.8	23.2	0.00e+00	0	28	0	606076928	42	6084
2026-01-16 12:19:50.57	48.88	12.53	-34.7	-35.7	23.2	0.00e+00	0	28	0	609222656	42	6001
2026-01-16 12:19:51.58	49.05	12.58	-34.9	-35.9	23.0	0.00e+00	0	28	0	612368384	42	6181
2026-01-16 12:19:52.59	49.23	12.62	-34.9	-35.9	23.0	0.00e+00	0	28	0	615514112	42	6180
2026-01-16 12:19:53.60	49.40	12.67	-34.9	-35.9	23.0	0.00e+00	0	28	0	618659840	42	6166
2026-01-16 12:19:54.61	49.58	12.71	-35.3	-36.3	22.8	0.00e+00	0	28	0	621805568	42	6464
2026-01-16 12:19:55.62	49.76	12.76	-35.0	-36.0	23.0	0.00e+00	0	28	0	624951296	42	6264
2026-01-16 12:19:56.63	49.93	12.80	-35.1	-36.0	23.0	0.00e+00	0	28	0	628097024	42	6270
2026-01-16 12:19:57.64	50.11	12.84	-34.9	-35.9	23.0	0.00e+00	0	28	0	631242752	42	6159
2026-01-16 12:19:58.65	50.29	12.89	-34.8	-35.8	23.1	0.00e+00	0	28	0	634388480	42	6073
2026-01-16 12:19:59.66	50.47	12.93	-34.9	-35.9	23.0	0.00e+00	0	28	0	637534208	42	6146
2026-01-16 12:20:00.67	50.65	12.97	-34.9	-35.8	23.1	0.00e+00	0	28	0	640679936	42	6120
2026-01-16 12:20:01.68	50.83	13.02	-35.2	-36.1	23.0	0.00e+00	0	28	0	643825664	42	6348
2026-01-16 12:20:02.69	51.01	13.06	-34.9	-35.8	23.0	0.00e+00	0	28	0	646971392	42	6124
2026-01-16 12:20:03.70	51.19	13.10	-35.0	-36.0	22.9	0.00e+00	0	28	0	650117120	42	6222
2026-01-16 12:20:04.71	51.37	13.14	-34.8	-35.7	23.1	0.00e+00	0	28	0	653262848	42	6048
2026-01-16 12:20:05.72	51.55	13.18	-34.9	-35.9	22.9	0.00e+00	0	28	0	656408576	42	6168
2026-01-16 12:20:06.73	51.73	13.23	-34.7	-35.7	23.1	0.00e+00	0	28	0	659554304	42	6022
2026-01-16 12:20:07.74	51.91	13.27	-34.7	-35.7	23.1	0.00e+00	0	28	0	662700032	42	5997
2026-01-16 12:20:08.75	52.10	13.31	-34.7	-35.6	23.2	0.00e+00	0	28	0	665845760	42	5987
2026-01-16 12:20:09.77	52.28	13.35	-34.6	-35.6	23.2	0.00e+00	0	28	0	668991488	42	5949
2026-01-16 12:20:10.78	52.47	13.39	-34.6	-35.6	23.1	0.00e+00	0	28	0	672137216	42	5946
2026-01-16 12:20:11.79	52.65	13.43	-34.7	-35.6	23.1	0.00e+00	0	28	0	675282944	42	5967
2026-01-16 12:20:12.79	52.84	13.47	-34.7	-35.7	23.2	0.00e+00	0	28	0	678428672	42	6012
2026-01-16 12:20:13.80	53.02	13.52	-34.6	-35.6	23.3	0.00e+00	0	28	0	681574400	42	5933
2026-01-16 12:20:14.81	53.21	13.56	-34.6	-35.5	23.4	0.00e+00	0	28	0	684720128	42	5911
2026-01-16 12:20:15.82	53.39	13.60	-34.7	-35.7	23.3	0.00e+00	0	28	0	687865856	42	6029
2026-01-16 12:20:16.84	53.58	13.64	-34.6	-35.6	23.4	0.00e+00	0	28	0	691011584	42	5956
2026-01-16 12:20:17.85	53.77	13.68	-34.6	-35.6	23.3	0.00e+00	0	28	0	694157312	42	5946
2026-01-16 12:20:18.86	53.96	13.72	-34.4	-35.4	23.3	0.00e+00	0	28	0	697303040	42	5815
2026-01-16 12:20:19.87	54.15	13.75	-34.6	-35.5	23.3	0.00e+00	0	28	0	700448768	42	5905
2026-01-16 12:20:20.88	54.34	13.79	-34.6	-35.5	23.4	0.00e+00	0	28	0	703594496	42	5905
2026-01-16 12:20:21.89	54.53	13.83	-34.6	-35.5	23.4	0.00e+00	0	28	0	706740224	42	5899
2026-01-16 12:20:22.90	54.72	13.87	-34.8	-35.8	23.2	0.00e+00	0	28	0	709885952	42	6091
2026-01-16 12:20:23.91	54.91	13.91	-34.6	-35.6	23.2	0.00e+00	0	28	0	713031680	42	5957
2026-01-16 12:20:24.92	55.10	13.95	-34.6	-35.6	23.4	0.00e+00	0	28	0	716177408	42	5944
2026-01-16 12:20:25.93	55.29	13.99	-34.6	-35.5	23.4	0.00e+00	0	28	0	719323136	42	5919
2026-01-16 12:20:26.94	55.48	14.02	-34.5	-35.4	23.4	0.00e+00	0	28	0	722468864	42	5845
2026-01-16 12:20:27.95	55.67	14.06	-34.5	-35.5	23.5	0.00e+00	0	28	0	725614592	42	5871
2026-01-16 12:20:28.96	55.87	14.10	-34.5	-35.4	23.6	0.00e+00	0	28	0	728760320	42	5808
2026-01-16 12:20:29.97	56.06	14.14	-34.8	-35.7	23.4	0.00e+00	0	28	0	731906048	42	6033
2026-01-16 12:20:30.98	56.25	14.17	-34.6	-35.6	23.1	0.00e+00	0	28	0	735051776	42	5960
2026-01-16 12:20:31.99	56.45	14.21	-34.5	-35.4	23.3	0.00e+00	0	28	0	738197504	42	5852
2026-01-16 12:20:33.00	56.64	14.24	-34.7	-35.7	23.1	0.00e+00	0	28	0	741343232	42	6039
2026-01-16 12:20:34.01	56.84	14.28	-34.7	-35.7	23.1	0.00e+00	0	28	0	744488960	42	6028
2026-01-16 12:20:35.02	57.03	14.32	-35.2	-36.2	23.1	0.00e+00	0	28	0	747634688	42	6391
2026-01-16 12:20:36.03	57.23	14.35	-35.0	-35.9	23.0	0.00e+00	0	28	0	750780416	42	6198
2026-01-16 12:20:37.04	57.43	14.39	-35.1	-36.1	23.0	0.00e+00	0	28	0	753926144	42	6283
2026-01-16 12:20:38.05	57.63	14.42	-35.3	-36.3	22.8	0.00e+00	0	28	0	757071872	42	6441
2026-01-16 12:20:39.06	57.82	14.46	-34.6	-35.5	23.3	0.00e+00	0	28	0	760217600	42	5917
2026-01-16 12:20:40.07	58.02	14.49	-34.6	-35.6	23.4	0.00e+00	0	28	0	763363328	42	5937
2026-01-16 12:20:41.08	58.22	14.53	-35.1	-36.1	23.3	0.00e+00	0	28	0	766509056	42	6315
2026-01-16 12:20:42.09	58.42	14.56	-34.9	-35.9	23.3	0.00e+00	0	28	0	769654784	42	6152
2026-01-16 12:20:43.10	58.62	14.59	-34.6	-35.5	23.3	0.00e+00	0	28	0	772800512	42	5924
2026-01-16 12:20:44.11	58.82	14.63	-34.7	-35.7	23.4	0.00e+00	0	28	0	775946240	42	6009
2026-01-16 12:20:45.12	59.02	14.66	-34.8	-35.8	23.5	0.00e+00	0	28	0	779091968	42	6095
2026-01-16 12:20:46.13	59.22	14.69	-34.7	-35.6	23.5	0.00e+00	0	28	0	782237696	42	5984
2026-01-16 12:20:47.14	59.42	14.73	-34.4	-35.4	23.5	0.00e+00	0	28	0	785383424	42	5803
2026-01-16 12:20:48.15	59.62	14.76	-34.2	-35.2	23.6	0.00e+00	0	28	0	788529152	42	5678
2026-01-16 12:20:49.16	59.82	14.79	-34.0	-34.9	23.8	0.00e+00	0	28	0	791674880	42	5522
2026-01-16 12:20:50.17	60.03	14.82	-34.3	-35.2	23.7	0.00e+00	0	28	0	794820608	42	5685
2026-01-16 12:20:51.18	60.23	14.85	-34.3	-35.2	23.8	0.00e+00	0	28	0	797966336	42	5716
2026-01-16 12:20:52.19	60.43	14.88	-34.2	-35.1	23.7	0.00e+00	0	28	0	801112064	42	5621
2026-01-16 12:20:53.20	60.64	14.91	-34.3	-35.2	23.6	0.00e+00	0	28	0	804257792	42	5703
2026-01-16 12:20:54.21	60.84	14.94	-34.0	-34.9	23.8	0.00e+00	0	28	0	807403520	42	5528
2026-01-16 12:20:55.22	61.04	14.97	-34.3	-35.3	23.6	0.00e+00	0	28	0	810549248	42	5748
2026-01-16 12:20:56.23	61.25	15.00	-34.4	-35.3	23.5	0.00e+00	0	28	0	813694976	42	5790
2026-01-16 12:20:57.25	61.46	15.03	-34.4	-35.3	23.5	0.00e+00	0	28	0	816840704	42	5784
2026-01-16 12:20:58.26	61.66	15.06	-34.4	-35.3	23.5	0.00e+00	0	28	0	819986432	42	5779
2026-01-16 12:20:59.27	61.87	15.09	-34.3	-35.2	23.5	0.00e+00	0	28	0	823132160	42	5719
2026-01-16 12:21:00.28	62.07	15.12	-34.5	-35.5	23.6	0.00e+00	0	28	0	826277888	42	5875
2026-01-16 12:21:01.28	62.28	15.15	-34.2	-35.1	23.6	0.00e+00	0	28	0	829423616	42	5653
2026-01-16 12:21:02.30	62.49	15.18	-34.2	-35.1	23.7	0.00e+00	0	28	0	832569344	42	5640
2026-01-16 12:21:03.31	62.70	15.21	-34.2	-35.1	23.9	0.00e+00	0	28	0	835715072	42	5605
2026-01-16 12:21:04.32	62.90	15.23	-34.1	-35.0	23.8	0.00e+00	0	28	0	838860800	42	5536
2026-01-16 12:21:05.33	63.11	15.26	-34.2	-35.1	23.8	0.00e+00	0	28	0	842006528	42	5654
2026-01-16 12:21:06.34	63.32	15.29	-34.3	-35.2	23.7	0.00e+00	0	28	0	845152256	42	5696
2026-01-16 12:21:07.35	63.53	15.31	-34.3	-35.3	23.8	0.00e+00	0	28	0	848297984	42	5732
2026-01-16 12:21:08.36	63.74	15.34	-34.2	-35.1	23.7	0.00e+00	0	28	0	851443712	42	5630
2026-01-16 12:21:09.37	63.95	15.37	-34.1	-35.1	23.7	0.00e+00	0	28	0	854589440	42	5598
2026-01-16 12:21:10.38	64.16	15.39	-34.1	-35.0	23.7	0.00e+00	0	28	0	857735168	42	5590
2026-01-16 12:21:11.39	64.37	15.42	-34.2	-35.1	23.8	0.00e+00	0	28	0	860880896	42	5629
2026-01-16 12:21:12.41	64.58	15.44	-34.4	-35.3	23.6	0.00e+00	0	28	0	864026624	42	5775
2026-01-16 12:21:13.42	64.80	15.47	-34.1	-35.0	23.6	0.00e+00	0	28	0	868220928	42	5570
2026-01-16 12:21:14.43	65.01	15.49	-34.2	-35.1	23.7	0.00e+00	0	28	0	871366656	42	5655
2026-01-16 12:21:15.44	65.22	15.51	-34.1	-35.0	23.8	0.00e+00	0	28	0	874512384	42	5592
2026-01-16 12:21:16.45	65.43	15.54	-34.2	-35.1	23.8	0.00e+00	0	28	0	877658112	42	5629
2026-01-16 12:21:17.46	65.64	15.56	-34.1	-35.0	23.7	0.00e+00	0	28	0	879755264	42	5558
2026-01-16 12:21:18.47	65.86	15.58	-34.2	-35.1	23.7	0.00e+00	0	28	0	883949568	42	5621
2026-01-16 12:21:19.48	66.07	15.60	-34.1	-35.1	23.7	0.00e+00	0	28	0	887095296	42	5604
2026-01-16 12:21:20.49	66.28	15.63	-34.2	-35.2	23.9	0.00e+00	0	28	0	890241024	42	5672
2026-01-16 12:21:21.50	66.50	15.65	-34.2	-35.2	23.7	0.00e+00	0	28	0	893386752	42	5668
2026-01-16 12:21:22.51	66.71	15.67	-34.0	-35.0	24.0	0.00e+00	0	28	0	896532480	42	5545
2026-01-16 12:21:23.52	66.93	15.69	-33.9	-34.9	23.8	0.00e+00	0	28	0	899678208	42	5469
2026-01-16 12:21:24.53	67.14	15.71	-33.8	-34.8	23.8	0.00e+00	0	28	0	902823936	42	5433
2026-01-16 12:21:25.54	67.36	15.73	-34.1	-35.1	23.7	0.00e+00	0	28	0	905969664	42	5617
2026-01-16 12:21:26.55	67.57	15.75	-34.1	-35.0	23.7	0.00e+00	0	28	0	909115392	42	5592
2026-01-16 12:21:27.56	67.79	15.77	-34.3	-35.3	23.7	0.00e+00	0	28	0	912261120	42	5756
2026-01-16 12:21:28.57	68.00	15.79	-34.2	-35.2	23.8	0.00e+00	0	28	0	915406848	42	5698
2026-01-16 12:21:29.58	68.22	15.81	-34.2	-35.2	23.8	0.00e+00	0	28	0	918552576	42	5684
2026-01-16 12:21:30.59	68.44	15.83	-34.2	-35.1	23.8	0.00e+00	0	28	0	921698304	42	5649
2026-01-16 12:21:31.60	68.65	15.85	-33.7	-34.7	24.0	0.00e+00	0	28	0	924844032	40	6000
2026-01-16 12:21:32.61	68.87	15.86	-33.9	-34.9	23.9	0.00e+00	0	28	0	927989760	40	6147
2026-01-16 12:21:33.62	69.09	15.88	-33.9	-34.8	23.8	0.00e+00	0	28	0	931135488	40	6125
2026-01-16 12:21:34.63	69.30	15.90	-33.8	-34.7	23.8	0.00e+00	0	28	0	934281216	40	6049
2026-01-16 12:21:35.64	69.52	15.91	-34.1	-35.1	23.6	0.00e+00	0	28	0	937426944	40	6278
2026-01-16 12:21:36.65	69.74	15.93	-34.1	-35.1	23.6	0.00e+00	0	28	0	940572672	40	6304
2026-01-16 12:21:37.66	69.96	15.95	-34.2	-35.2	23.8	0.00e+00	0	28	0	943718400	40	6379
2026-01-16 12:21:38.67	70.18	15.96	-34.0	-35.0	23.9	0.00e+00	0	28	0	946864128	40	6217
2026-01-16 12:21:39.68	70.39	15.98	-33.9	-34.9	23.9	0.00e+00	0	28	0	950009856	40	6138
2026-01-16 12:21:40.69	70.61	15.99	-33.9	-34.8	24.0	0.00e+00	0	28	0	953155584	40	6081
2026-01-16 12:21:41.70	70.83	16.00	-33.9	-34.8	24.0	0.00e+00	0	28	0	956301312	40	6100
2026-01-16 12:21:42.72	71.05	16.02	-33.8	-34.7	23.8	0.00e+00	0	28	0	959447040	40	6062
2026-01-16 12:21:43.73	71.27	16.03	-34.0	-34.9	23.6	0.00e+00	0	28	0	962592768	40	6161
2026-01-16 12:21:44.74	71.49	16.05	-34.1	-35.0	23.5	0.00e+00	0	28	0	965738496	40	6254
2026-01-16 12:21:45.75	71.71	16.06	-34.1	-35.0	23.5	0.00e+00	0	28	0	968884224	40	6241
2026-01-16 12:21:46.76	71.93	16.07	-34.2	-35.2	23.4	0.00e+00	0	28	0	972029952	40	6359
2026-01-16 12:21:47.77	72.15	16.08	-34.5	-35.4	23.5	0.00e+00	0	28	0	975175680	40	6542
2026-01-16 12:21:48.78	72.37	16.09	-34.4	-35.4	23.3	0.00e+00	0	28	0	978321408	40	6504
2026-01-16 12:21:49.79	72.59	16.11	-34.0	-34.9	23.6	0.00e+00	0	28	0	981467136	40	6165
2026-01-16 12:21:50.80	72.81	16.12	-34.1	-35.0	23.6	0.00e+00	0	28	0	984612864	40	6234
2026-01-16 12:21:51.81	73.03	16.13	-33.9	-34.9	23.6	0.00e+00	0	28	0	987758592	40	6136
2026-01-16 12:21:52.82	73.26	16.14	-34.0	-34.9	23.6	0.00e+00	0	28	0	990904320	40	6154
2026-01-16 12:21:53.83	73.48	16.15	-34.0	-34.9	23.6	0.00e+00	0	28	0	994050048	40	6170
2026-01-16 12:21:54.84	73.70	16.15	-34.1	-35.0	23.6	0.00e+00	0	28	0	997195776	40	6262
2026-01-16 12:21:55.85	73.92	16.16	-33.9	-34.9	23.7	0.00e+00	0	28	0	1000341504	40	6145
2026-01-16 12:21:56.86	74.14	16.17	-34.2	-35.2	23.5	0.00e+00	0	28	0	1003487232	40	6378
2026-01-16 12:21:57.87	74.36	16.18	-34.1	-35.0	23.6	0.00e+00	0	28	0	1006632960	40	6246
2026-01-16 12:21:58.88	74.58	16.19	-34.0	-35.0	23.6	0.00e+00	0	28	0	1009778688	40	6210
2026-01-16 12:21:59.89	74.81	16.19	-34.0	-34.9	23.7	0.00e+00	0	28	0	1012924416	40	6188
2026-01-16 12:22:00.90	75.03	16.20	-34.1	-35.0	23.6	0.00e+00	0	28	0	1016070144	40	6255
2026-01-16 12:22:01.91	75.25	16.21	-34.0	-34.9	23.8	0.00e+00	0	28	0	1019215872	40	6187
2026-01-16 12:22:02.92	75.47	16.21	-34.0	-35.0	23.7	0.00e+00	0	28	0	1022361600	40	6222
2026-01-16 12:22:03.93	75.69	16.22	-33.9	-34.9	23.7	0.00e+00	0	28	0	1025507328	40	6140
2026-01-16 12:22:04.94	75.92	16.22	-34.0	-34.9	23.8	0.00e+00	0	28	0	1028653056	40	6172
2026-01-16 12:22:05.95	76.14	16.23	-34.0	-35.0	23.7	0.00e+00	0	28	0	1031798784	40	6227
2026-01-16 12:22:06.96	76.36	16.23	-34.2	-35.1	23.8	0.00e+00	0	28	0	1034944512	40	6348
2026-01-16 12:22:07.97	76.58	16.24	-34.1	-35.1	23.7	0.00e+00	0	28	0	1038090240	40	6297
2026-01-16 12:22:08.98	76.81	16.24	-34.1	-35.1	23.7	0.00e+00	0	28	0	1041235968	40	6299
2026-01-16 12:22:09.99	77.03	16.24	-34.3	-35.3	23.4	0.00e+00	0	28	0	1044381696	40	6446
2026-01-16 12:22:11.00	77.25	16.25	-34.0	-35.0	23.6	0.00e+00	0	28	0	1047527424	40	6246
2026-01-16 12:22:12.01	77.48	16.25	-34.0	-35.0	23.6	0.00e+00	0	28	0	1050673152	40	6264
2026-01-16 12:22:13.02	77.70	16.25	-34.0	-35.0	23.6	0.00e+00	0	28	0	1053818880	40	6214
2026-01-16 12:22:14.03	77.92	16.25	-33.9	-34.8	23.7	0.00e+00	0	28	0	1056964608	40	6126
2026-01-16 12:22:15.05	78.15	16.25	-33.8	-34.8	23.6	0.00e+00	0	28	0	1060110336	40	6110
2026-01-16 12:22:16.05	78.37	16.25	-33.9	-34.9	23.7	0.00e+00	0	28	0	1063256064	40	6171
2026-01-16 12:22:17.07	78.59	16.25	-34.0	-35.0	23.6	0.00e+00	0	28	0	1066401792	40	6237
2026-01-16 12:22:18.08	78.81	16.25	-33.9	-34.9	23.6	0.00e+00	0	28	0	1069547520	40	6178
2026-01-16 12:22:19.09	79.04	16.25	-33.8	-34.8	23.8	0.00e+00	0	28	0	1072693248	40	6090
2026-01-16 12:22:20.10	79.26	16.25	-33.8	-34.7	23.9	0.00e+00	0	28	0	1075838976	40	6061
2026-01-16 12:22:21.11	79.48	16.25	-33.8	-34.8	23.8	0.00e+00	0	28	0	1078984704	40	6074
2026-01-16 12:22:22.12	79.71	16.25	-33.9	-34.8	23.8	0.00e+00	0	28	0	1082130432	40	6131
2026-01-16 12:22:23.13	79.93	16.25	-33.8	-34.7	24.0	0.00e+00	0	28	0	1085276160	40	6041
2026-01-16 12:22:24.14	80.15	16.24	-33.8	-34.7	24.0	0.00e+00	0	28	0	1088421888	40	6037
2026-01-16 12:22:25.14	80.37	16.24	-33.9	-34.8	24.0	0.00e+00	0	28	0	1091567616	40	6099
2026-01-16 12:22:26.16	80.60	16.24	-34.0	-34.9	23.9	0.00e+00	0	28	0	1094713344	40	6156
2026-01-16 12:22:27.17	80.82	16.23	-34.2	-35.1	23.7	0.00e+00	0	28	0	1097859072	40	6342
2026-01-16 12:22:28.18	81.04	16.23	-34.3	-35.2	23.7	0.00e+00	0	28	0	1101004800	40	6371
2026-01-16 12:22:29.19	81.26	16.22	-34.3	-35.3	23.5	0.00e+00	0	28	0	1104150528	40	6441
2026-01-16 12:22:30.20	81.49	16.22	-34.2	-35.1	23.6	0.00e+00	0	28	0	1107296256	40	6342
2026-01-16 12:22:31.21	81.71	16.21	-34.0	-34.9	23.8	0.00e+00	0	28	0	1110441984	40	6162
2026-01-16 12:22:32.22	81.93	16.21	-34.0	-35.0	23.6	0.00e+00	0	28	0	1113587712	40	6212
2026-01-16 12:22:33.23	82.15	16.20	-34.1	-35.1	23.8	0.00e+00	0	28	0	1116733440	40	6294
2026-01-16 12:22:34.24	82.38	16.19	-34.1	-35.1	23.5	0.00e+00	0	28	0	1119879168	40	6284
2026-01-16 12:22:35.25	82.60	16.19	-34.0	-35.0	23.7	0.00e+00	0	29	0	1123024896	40	6208
2026-01-16 12:22:36.26	82.82	16.18	-33.9	-34.9	23.7	0.00e+00	0	28	0	1126170624	40	6157
2026-01-16 12:22:37.27	83.04	16.17	-34.0	-34.9	23.7	0.00e+00	0	28	0	1129316352	40	6171
2026-01-16 12:22:38.28	83.26	16.16	-33.9	-34.8	23.9	0.00e+00	0	28	0	1132462080	40	6134
2026-01-16 12:22:39.29	83.49	16.15	-33.8	-34.7	23.8	0.00e+00	0	28	0	1135607808	40	6047
2026-01-16 12:22:40.31	83.71	16.15	-33.7	-34.7	23.8	0.00e+00	0	28	0	1138753536	40	6052
2026-01-16 12:22:41.32	83.93	16.14	-33.8	-34.8	23.8	0.00e+00	0	28	0	1142947840	40	6099
2026-01-16 12:22:42.33	84.15	16.13	-34.0	-35.0	23.7	0.00e+00	0	28	0	1146093568	40	6261
2026-01-16 12:22:43.34	84.37	16.12	-34.1	-35.1	23.6	0.00e+00	0	28	0	1148190720	40	6328
2026-01-16 12:22:44.35	84.59	16.10	-34.1	-35.2	23.4	0.00e+00	0	29	0	1151336448	40	6367
2026-01-16 12:22:45.36	84.81	16.09	-34.3	-35.3	23.4	0.00e+00	0	28	0	1154482176	40	6460
2026-01-16 12:22:46.37	85.03	16.08	-34.4	-35.4	23.3	0.00e+00	0	28	0	1158676480	40	6543
2026-01-16 12:22:47.38	85.26	16.07	-34.4	-35.4	23.2	0.00e+00	0	28	0	1161822208	40	6555
2026-01-16 12:22:48.39	85.48	16.06	-33.9	-34.9	23.7	0.00e+00	0	28	0	1164967936	40	6176
2026-01-16 12:22:49.40	85.70	16.05	-33.8	-34.8	23.7	0.00e+00	0	28	0	1168113664	40	6099
2026-01-16 12:22:50.41	85.92	16.03	-33.9	-34.8	23.6	0.00e+00	0	28	0	1171259392	40	6116
2026-01-16 12:22:51.42	86.14	16.02	-33.9	-34.9	23.6	0.00e+00	0	28	0	1174405120	40	6166
2026-01-16 12:22:52.43	86.35	16.00	-34.0	-34.9	23.6	0.00e+00	0	28	0	1177550848	40	6176
2026-01-16 12:22:53.44	86.57	15.99	-33.8	-34.8	23.8	0.00e+00	0	29	0	1180696576	40	6085
2026-01-16 12:22:54.46	86.80	15.98	-33.9	-34.8	23.8	0.00e+00	0	29	0	1183842304	40	6114
2026-01-16 12:22:55.47	87.01	15.96	-34.0	-34.9	23.7	0.00e+00	0	28	0	1186988032	40	6158
2026-01-16 12:22:56.48	87.23	15.95	-33.9	-34.8	23.7	0.00e+00	0	28	0	1190133760	40	6134
2026-01-16 12:22:57.49	87.45	15.93	-34.2	-35.2	23.4	0.00e+00	0	28	0	1193279488	40	6361
2026-01-16 12:22:58.50	87.67	15.91	-34.1	-35.1	23.4	0.00e+00	0	28	0	1196425216	40	6290
2026-01-16 12:22:59.51	87.89	15.90	-34.3	-35.3	23.3	0.00e+00	0	29	0	1199570944	40	6451
2026-01-16 12:23:00.52	88.11	15.88	-34.4	-35.4	23.1	0.00e+00	0	29	0	1202716672	40	6510
2026-01-16 12:23:01.53	88.32	15.86	-34.6	-35.6	23.3	0.00e+00	0	28	0	1205862400	40	6674
2026-01-16 12:23:02.54	88.54	15.84	-34.6	-35.6	22.9	0.00e+00	0	29	0	1209008128	42	5944
2026-01-16 12:23:03.55	88.76	15.83	-35.0	-36.0	23.2	0.00e+00	0	29	0	1212153856	42	6242
2026-01-16 12:23:04.57	88.98	15.81	-34.8	-35.8	23.1	0.00e+00	0	29	0	1215299584	42	6114
2026-01-16 12:23:05.58	89.19	15.79	-34.4	-35.3	23.5	0.00e+00	0	29	0	1218445312	42	5777
2026-01-16 12:23:06.59	89.41	15.77	-34.3	-35.2	23.4	0.00e+00	0	29	0	1221591040	42	5725
2026-01-16 12:23:07.60	89.63	15.75	-33.9	-34.8	23.7	0.00e+00	0	29	0	1224736768	42	5440
2026-01-16 12:23:08.61	89.84	15.73	-33.9	-34.8	23.7	0.00e+00	0	29	0	1227882496	42	5457
2026-01-16 12:23:09.62	90.06	15.71	-33.8	-34.8	23.7	0.00e+00	0	29	0	1231028224	42	5433
2026-01-16 12:23:10.63	90.27	15.69	-33.8	-34.8	23.8	0.00e+00	0	29	0	1234173952	42	5427
2026-01-16 12:23:11.64	90.49	15.67	-33.9	-34.8	23.8	0.00e+00	0	29	0	1237319680	42	5466
2026-01-16 12:23:12.65	90.70	15.65	-33.8	-34.7	23.8	0.00e+00	0	29	0	1240465408	40	6061
2026-01-16 12:23:13.66	90.92	15.63	-33.7	-34.7	23.9	0.00e+00	0	29	0	1243611136	40	6051
2026-01-16 12:23:14.67	91.13	15.60	-33.9	-34.9	23.8	0.00e+00	0	29	0	1246756864	40	6143
2026-01-16 12:23:15.68	91.34	15.58	-33.9	-34.9	23.7	0.00e+00	0	29	0	1249902592	40	6149
2026-01-16 12:23:16.69	91.56	15.56	-34.0	-34.9	23.7	0.00e+00	0	29	0	1253048320	40	6166
2026-01-16 12:23:17.70	91.77	15.53	-33.8	-34.7	23.8	0.00e+00	0	29	0	1256194048	40	6051
2026-01-16 12:23:18.72	91.99	15.51	-33.7	-34.7	23.9	0.00e+00	0	29	0	1259339776	40	6031
2026-01-16 12:23:19.73	92.20	15.49	-33.6	-34.5	24.0	0.00e+00	0	29	0	1262485504	40	5915
2026-01-16 12:23:20.74	92.41	15.46	-33.6	-34.6	24.0	0.00e+00	0	29	0	1265631232	40	5932
2026-01-16 12:23:21.75	92.62	15.44	-33.6	-34.5	24.0	0.00e+00	0	29	0	1268776960	40	5901
2026-01-16 12:23:22.76	92.83	15.41	-33.6	-34.6	23.9	0.00e+00	0	29	0	1271922688	40	5940
2026-01-16 12:23:23.77	93.04	15.39	-33.8	-34.7	23.8	0.00e+00	0	29	0	1275068416	40	6021
2026-01-16 12:23:24.78	93.25	15.36	-33.7	-34.6	24.0	0.00e+00	0	29	0	1278214144	40	5941
2026-01-16 12:23:25.79	93.47	15.34	-33.8	-34.8	23.8	0.00e+00	0	29	0	1281359872	40	6086
2026-01-16 12:23:26.80	93.68	15.31	-33.7	-34.6	23.8	0.00e+00	0	29	0	1284505600	40	5951
2026-01-16 12:23:27.81	93.89	15.28	-33.9	-34.8	23.7	0.00e+00	0	29	0	1287651328	40	6076
2026-01-16 12:23:28.82	94.09	15.26	-33.6	-34.5	23.8	0.00e+00	0	29	0	1290797056	40	5900
2026-01-16 12:23:29.83	94.30	15.23	-33.6	-34.5	23.8	0.00e+00	0	29	0	1293942784	40	5922
2026-01-16 12:23:30.84	94.51	15.20	-33.5	-34.4	23.9	0.00e+00	0	29	0	1297088512	40	5831
2026-01-16 12:23:31.85	94.72	15.17	-33.6	-34.5	23.8	0.00e+00	0	29	0	1300234240	40	5914
2026-01-16 12:23:32.86	94.93	15.15	-33.6	-34.5	23.9	0.00e+00	0	29	0	1303379968	40	5900
2026-01-16 12:23:33.87	95.14	15.12	-33.7	-34.6	23.9	0.00e+00	0	29	0	1306525696	40	5973
2026-01-16 12:23:34.88	95.34	15.09	-33.6	-34.6	23.9	0.00e+00	0	29	0	1309671424	40	5951
2026-01-16 12:23:35.89	95.55	15.06	-33.9	-34.8	23.7	0.00e+00	0	29	0	1312817152	40	6114
2026-01-16 12:23:36.90	95.76	15.03	-33.8	-34.7	23.8	0.00e+00	0	29	0	1315962880	40	6044
2026-01-16 12:23:37.91	95.96	15.00	-33.8	-34.8	23.8	0.00e+00	0	29	0	1319108608	40	6092
2026-01-16 12:23:38.92	96.17	14.97	-33.8	-34.7	23.9	0.00e+00	0	29	0	1322254336	40	6009
2026-01-16 12:23:39.93	96.37	14.94	-33.8	-34.7	23.8	0.00e+00	0	29	0	1325400064	40	6044
2026-01-16 12:23:40.94	96.58	14.91	-33.8	-34.8	23.9	0.00e+00	0	29	0	1328545792	40	6084
2026-01-16 12:23:41.95	96.78	14.88	-33.6	-34.6	23.9	0.00e+00	0	29	0	1331691520	40	5935
2026-01-16 12:23:42.96	96.99	14.85	-33.6	-34.6	23.9	0.00e+00	0	29	0	1334837248	40	5970
2026-01-16 12:23:43.97	97.19	14.82	-33.6	-34.7	23.9	0.00e+00	0	29	0	1337982976	40	6022
2026-01-16 12:23:44.98	97.39	14.78	-33.7	-34.8	23.8	0.00e+00	0	29	0	1341128704	40	6077
2026-01-16 12:23:45.99	97.59	14.75	-33.5	-34.6	23.8	0.00e+00	0	29	0	1344274432	40	5955
2026-01-16 12:23:47.00	97.80	14.72	-33.6	-34.6	23.9	0.00e+00	0	29	0	1347420160	40	5947
2026-01-16 12:23:48.01	98.00	14.69	-33.7	-34.7	23.9	0.00e+00	0	29	0	1350565888	40	5997
2026-01-16 12:23:49.02	98.20	14.65	-33.6	-34.6	23.9	0.00e+00	0	29	0	1353711616	40	5949
2026-01-16 12:23:50.03	98.40	14.62	-33.7	-34.6	24.0	0.00e+00	0	29	0	1356857344	40	5965
2026-01-16 12:23:51.04	98.60	14.59	-33.8	-34.7	23.9	0.00e+00	0	29	0	1360003072	40	6029
2026-01-16 12:23:52.05	98.80	14.55	-34.0	-34.9	23.6	0.00e+00	0	29	0	1363148800	40	6202
2026-01-16 12:23:53.06	99.00	14.52	-33.9	-34.8	23.6	0.00e+00	0	29	0	1366294528	40	6102
2026-01-16 12:23:54.07	99.20	14.48	-33.8	-34.7	23.8	0.00e+00	0	29	0	1369440256	40	6040
2026-01-16 12:23:55.08	99.40	14.45	-33.6	-34.5	24.0	0.00e+00	0	29	0	1372585984	40	5889
2026-01-16 12:23:56.09	99.60	14.41	-33.7	-34.6	24.0	0.00e+00	0	29	0	1375731712	40	5938
2026-01-16 12:23:57.10	99.80	14.38	-33.6	-34.5	23.9	0.00e+00	0	29	0	1378877440	40	5920
2026-01-16 12:23:58.11	99.99	14.34	-33.4	-34.3	24.0	0.00e+00	0	29	0	1382023168	40	5776
2026-01-16 12:23:59.12	100.19	14.31	-33.6	-34.5	23.8	0.00e+00	0	29	0	1385168896	40	5883
2026-01-16 12:24:00.14	100.39	14.27	-33.6	-34.5	23.9	0.00e+00	0	29	0	1388314624	40	5875
2026-01-16 12:24:01.15	100.58	14.24	-33.6	-34.5	23.8	0.00e+00	0	29	0	1391460352	40	5897
2026-01-16 12:24:02.16	100.78	14.20	-33.7	-34.6	23.8	0.00e+00	0	29	0	1394606080	40	5976
2026-01-16 12:24:03.17	100.97	14.16	-33.7	-34.6	23.8	0.00e+00	0	29	0	1397751808	40	5969
2026-01-16 12:24:04.18	101.17	14.13	-33.8	-34.7	23.7	0.00e+00	0	29	0	1400897536	40	6057
2026-01-16 12:24:05.19	101.36	14.09	-33.9	-34.9	23.5	0.00e+00	0	29	0	1404043264	40	6139
2026-01-16 12:24:06.20	101.56	14.05	-33.9	-34.9	23.6	0.00e+00	0	29	0	1407188992	40	6159
2026-01-16 12:24:07.21	101.75	14.01	-33.9	-34.9	23.5	0.00e+00	0	29	0	1410334720	40	6141
2026-01-16 12:24:08.22	101.94	13.97	-34.0	-35.0	23.6	0.00e+00	0	29	0	1414529024	40	6225
2026-01-16 12:24:09.23	102.14	13.94	-33.9	-34.8	23.6	0.00e+00	0	29	0	1416626176	40	6123
2026-01-16 12:24:10.24	102.33	13.90	-34.0	-34.9	23.6	0.00e+00	0	29	0	1419771904	40	6196
2026-01-16 12:24:11.25	102.52	13.86	-34.1	-35.1	23.5	0.00e+00	0	29	0	1422917632	40	6288
2026-01-16 12:24:12.26	102.71	13.82	-34.0	-35.0	23.5	0.00e+00	0	29	0	1426063360	40	6246
2026-01-16 12:24:13.27	102.90	13.78	-34.0	-35.0	23.6	0.00e+00	0	29	0	1430257664	40	6259
2026-01-16 12:24:14.28	103.09	13.74	-33.8	-34.8	23.7	0.00e+00	0	29	0	1433403392	40	6115
2026-01-16 12:24:15.29	103.28	13.70	-33.9	-34.8	23.7	0.00e+00	0	29	0	1436549120	40	6134
2026-01-16 12:24:16.30	103.47	13.66	-34.0	-35.0	23.7	0.00e+00	0	29	0	1439694848	40	6243
2026-01-16 12:24:17.31	103.66	13.62	-34.2	-35.2	23.5	0.00e+00	0	29	0	1441792000	40	6409
2026-01-16 12:24:18.32	103.84	13.58	-34.2	-35.2	23.4	0.00e+00	0	29	0	1445986304	40	6377
2026-01-16 12:24:19.33	104.03	13.54	-34.3	-35.3	23.4	0.00e+00	0	29	0	1449132032	40	6440
2026-01-16 12:24:20.34	104.22	13.50	-34.4	-35.4	23.2	0.00e+00	0	29	0	1452277760	40	6551
2026-01-16 12:24:21.35	104.40	13.46	-34.4	-35.4	23.3	0.00e+00	0	29	0	1455423488	40	6547
2026-01-16 12:24:22.36	104.59	13.42	-34.4	-35.5	23.2	0.00e+00	0	29	0	1458569216	40	6588
2026-01-16 12:24:23.37	104.78	13.38	-34.4	-35.4	23.1	0.00e+00	0	29	0	1461714944	40	6572
2026-01-16 12:24:24.38	104.96	13.34	-34.4	-35.5	23.1	0.00e+00	0	29	0	1464860672	40	6591
2026-01-16 12:24:25.39	105.15	13.29	-34.5	-35.5	23.0	0.00e+00	0	29	0	1468006400	40	6643
2026-01-16 12:24:26.41	105.33	13.25	-34.3	-35.2	23.2	0.00e+00	0	29	0	1471152128	40	6393
2026-01-16 12:24:27.41	105.51	13.21	-34.5	-35.5	23.0	0.00e+00	0	29	0	1474297856	40	6593
2026-01-16 12:24:28.42	105.70	13.17	-34.1	-35.1	23.3	0.00e+00	0	29	0	1477443584	40	6323
2026-01-16 12:24:29.43	105.88	13.13	-34.1	-35.1	23.4	0.00e+00	0	29	0	1480589312	40	6317
2026-01-16 12:24:30.45	106.06	13.08	-34.0	-35.0	23.4	0.00e+00	0	29	0	1483735040	40	6212
2026-01-16 12:24:31.46	106.24	13.04	-34.0	-35.0	23.4	0.00e+00	0	29	0	1486880768	40	6256
2026-01-16 12:24:32.47	106.42	13.00	-34.2	-35.1	23.4	0.00e+00	0	29	0	1490026496	40	6340
2026-01-16 12:24:33.48	106.60	12.95	-34.2	-35.2	23.3	0.00e+00	0	29	0	1493172224	40	6397
2026-01-16 12:24:34.48	106.78	12.91	-34.4	-35.4	23.2	0.00e+00	0	29	0	1496317952	40	6546
2026-01-16 12:24:35.49	106.96	12.87	-34.7	-35.7	23.0	0.00e+00	0	29	0	1499463680	42	6020
2026-01-16 12:24:36.50	107.14	12.82	-34.7	-35.8	23.0	0.00e+00	0	29	0	1502609408	42	6068
2026-01-16 12:24:37.52	107.32	12.78	-34.7	-35.7	22.9	0.00e+00	0	29	0	1505755136	42	6037
2026-01-16 12:24:38.52	107.50	12.74	-34.8	-35.7	22.9	0.00e+00	0	29	0	1508900864	42	6063
2026-01-16 12:24:39.53	107.67	12.69	-34.4	-35.4	23.1	0.00e+00	0	29	0	1512046592	42	5842
2026-01-16 12:24:40.54	107.85	12.65	-34.5	-35.5	23.0	0.00e+00	0	29	0	1515192320	42	5912
2026-01-16 12:24:41.55	108.03	12.60	-34.4	-35.4	23.1	0.00e+00	0	29	0	1518338048	42	5845
2026-01-16 12:24:42.56	108.20	12.56	-34.4	-35.3	23.1	0.00e+00	0	29	0	1521483776	42	5780
2026-01-16 12:24:43.57	108.38	12.51	-34.5	-35.4	22.9	0.00e+00	0	29	0	1524629504	42	5852
2026-01-16 12:24:44.58	108.55	12.47	-34.5	-35.5	23.0	0.00e+00	0	29	0	1527775232	42	5898
2026-01-16 12:24:45.59	108.73	12.42	-34.4	-35.4	23.1	0.00e+00	0	29	0	1530920960	42	5829
2026-01-16 12:24:46.60	108.90	12.38	-34.5	-35.5	23.0	0.00e+00	0	29	0	1534066688	42	5911
2026-01-16 12:24:47.61	109.07	12.33	-34.5	-35.5	23.0	0.00e+00	0	29	0	1537212416	42	5863
2026-01-16 12:24:48.62	109.25	12.29	-34.6	-35.6	22.9	0.00e+00	0	29	0	1540358144	42	5980
2026-01-16 12:24:49.63	109.42	12.24	-34.5	-35.5	23.0	0.00e+00	0	29	0	1543503872	42	5879
2026-01-16 12:24:50.64	109.59	12.19	-34.6	-35.6	23.0	0.00e+00	0	29	0	1546649600	42	5931
2026-01-16 12:24:51.66	109.76	12.15	-34.7	-35.7	22.8	0.00e+00	0	29	0	1549795328	42	6055
2026-01-16 12:24:52.67	109.93	12.10	-34.7	-35.7	22.9	0.00e+00	0	29	0	1552941056	42	6033
2026-01-16 12:24:53.67	110.10	12.06	-34.9	-36.0	22.8	0.00e+00	0	29	0	1556086784	42	6209
2026-01-16 12:24:54.68	110.27	12.01	-34.9	-35.9	22.8	0.00e+00	0	29	0	1559232512	42	6196
2026-01-16 12:24:55.70	110.44	11.96	-34.6	-35.8	22.9	0.00e+00	0	29	0	1562378240	42	6074
2026-01-16 12:24:56.71	110.61	11.91	-34.6	-35.8	22.8	0.00e+00	0	29	0	1565523968	42	6083
2026-01-16 12:24:57.72	110.78	11.87	-34.5	-35.7	22.9	0.00e+00	0	29	0	1568669696	42	6033
2026-01-16 12:24:58.73	110.95	11.82	-34.5	-35.7	22.8	0.00e+00	0	29	0	1571815424	42	6040
2026-01-16 12:24:59.74	111.11	11.77	-34.6	-35.7	22.8	0.00e+00	0	29	0	1574961152	42	6027
2026-01-16 12:25:00.75	111.28	11.73	-34.7	-35.8	22.7	0.00e+00	0	29	0	1578106880	42	6101
2026-01-16 12:25:01.76	111.45	11.68	-34.6	-35.6	22.8	0.00e+00	0	29	0	1581252608	42	5987
2026-01-16 12:25:02.77	111.61	11.63	-34.5	-35.6	22.8	0.00e+00	0	29	0	1584398336	42	5977
2026-01-16 12:25:03.78	111.78	11.58	-34.5	-35.5	22.9	0.00e+00	0	29	0	1587544064	42	5884
2026-01-16 12:25:04.79	111.94	11.54	-34.6	-35.6	22.9	0.00e+00	0	29	0	1590689792	42	5935
2026-01-16 12:25:05.80	112.10	11.49	-34.6	-35.6	22.9	0.00e+00	0	29	0	1593835520	42	5943
2026-01-16 12:25:06.81	112.27	11.44	-34.5	-35.6	22.9	0.00e+00	0	29	0	1596981248	42	5936
2026-01-16 12:25:07.82	112.43	11.39	-34.6	-35.7	22.8	0.00e+00	0	29	0	1600126976	42	6035
2026-01-16 12:25:08.83	112.59	11.34	-34.6	-35.7	22.8	0.00e+00	0	29	0	1603272704	42	6015
2026-01-16 12:25:09.84	112.75	11.29	-34.8	-35.8	22.8	0.00e+00	0	30	0	1606418432	42	6130
2026-01-16 12:25:10.85	112.92	11.25	-34.8	-35.8	22.7	0.00e+00	0	29	0	1609564160	42	6110
2026-01-16 12:25:11.86	113.08	11.20	-34.8	-35.8	22.8	0.00e+00	0	29	0	1612709888	42	6101
2026-01-16 12:25:12.87	113.24	11.15	-34.8	-35.8	22.8	0.00e+00	0	29	0	1615855616	42	6072
2026-01-16 12:25:13.88	113.40	11.10	-35.0	-35.9	22.6	0.00e+00	0	29	0	1619001344	42	6205
2026-01-16 12:25:14.89	113.56	11.05	-34.7	-35.7	22.8	0.00e+00	0	29	0	1622147072	42	6055
2026-01-16 12:25:15.90	113.71	11.00	-34.9	-35.9	22.7	0.00e+00	0	29	0	1625292800	42	6173
2026-01-16 12:25:16.91	113.87	10.95	-34.7	-35.7	22.8	0.00e+00	0	29	0	1628438528	42	6054
2026-01-16 12:25:17.92	114.03	10.90	-34.7	-35.7	22.8	0.00e+00	0	29	0	1631584256	42	6026
2026-01-16 12:25:18.93	114.19	10.85	-34.8	-35.9	22.7	0.00e+00	0	29	0	1634729984	42	6141
2026-01-16 12:25:19.94	114.34	10.81	-34.7	-35.7	22.8	0.00e+00	0	29	0	1637875712	42	6011
2026-01-16 12:25:20.95	114.50	10.76	-34.7	-35.8	22.8	0.00e+00	0	29	0	1641021440	42	6067
2026-01-16 12:25:21.97	114.66	10.71	-34.9	-36.0	22.6	0.00e+00	0	29	0	1644167168	42	6206
2026-01-16 12:25:22.97	114.81	10.66	-34.8	-35.8	22.8	0.00e+00	0	29	0	1647312896	42	6108
2026-01-16 12:25:23.98	114.97	10.61	-34.7	-35.7	22.8	0.00e+00	0	29	0	1650458624	42	6049
2026-01-16 12:25:24.99	115.12	10.56	-34.8	-35.8	22.8	0.00e+00	0	29	0	1653604352	42	6118
2026-01-16 12:25:26.01	115.27	10.51	-34.9	-35.9	22.6	0.00e+00	0	29	0	1656750080	42	6169
2026-01-16 12:25:27.02	115.43	10.46	-34.9	-36.0	22.5	0.00e+00	0	29	0	1659895808	42	6221
2026-01-16 12:25:28.03	115.58	10.41	-34.9	-35.9	22.6	0.00e+00	0	29	0	1663041536	42	6157
2026-01-16 12:25:29.04	115.73	10.36	-35.1	-36.1	22.5	0.00e+00	0	29	0	1666187264	42	6322
2026-01-16 12:25:30.05	115.88	10.31	-34.8	-35.8	22.8	0.00e+00	0	29	0	1669332992	42	6100
2026-01-16 12:25:31.06	116.04	10.26	-34.8	-35.8	22.6	0.00e+00	0	29	0	1672478720	42	6098
2026-01-16 12:25:32.07	116.19	10.21	-35.0	-36.0	22.5	0.00e+00	0	30	0	1675624448	42	6246
2026-01-16 12:25:33.08	116.34	10.16	-35.0	-36.0	22.5	0.00e+00	0	29	0	1678770176	42	6252
2026-01-16 12:25:34.09	116.49	10.11	-35.1	-36.1	22.5	0.00e+00	0	29	0	1681915904	42	6348
2026-01-16 12:25:35.10	116.63	10.05	-34.9	-35.9	22.6	0.00e+00	0	29	0	1685061632	42	6156
2026-01-16 12:25:36.11	116.78	10.00	-35.0	-36.0	22.5	0.00e+00	0	29	0	1688207360	42	6218
2026-01-16 12:25:37.12	116.93	9.95	-34.9	-35.9	22.5	0.00e+00	0	30	0	1691353088	42	6174
2026-01-16 12:25:38.13	117.08	9.90	-35.0	-36.0	22.6	0.00e+00	0	30	0	1694498816	42	6227
2026-01-16 12:25:39.14	117.23	9.85	-34.7	-35.7	22.8	0.00e+00	0	30	0	1697644544	42	6017
2026-01-16 12:25:40.15	117.37	9.80	-34.8	-35.8	22.7	0.00e+00	0	30	0	1700790272	42	6109
2026-01-16 12:25:41.16	117.52	9.75	-35.0	-36.0	22.5	0.00e+00	0	30	0	1703936000	42	6245
2026-01-16 12:25:42.17	117.66	9.70	-34.9	-36.0	22.6	0.00e+00	0	30	0	1708130304	42	6239
2026-01-16 12:25:43.18	117.81	9.65	-34.9	-35.9	22.7	0.00e+00	0	30	0	1710227456	42	6194
2026-01-16 12:25:44.19	117.95	9.60	-35.0	-36.0	22.6	0.00e+00	0	30	0	1713373184	42	6244
2026-01-16 12:25:45.20	118.10	9.55	-35.0	-36.0	22.5	0.00e+00	0	30	0	1716518912	42	6247
2026-01-16 12:25:46.21	118.24	9.50	-35.0	-36.0	22.6	0.00e+00	0	30	0	1720713216	42	6249
2026-01-16 12:25:47.23	118.39	9.44	-35.0	-36.0	22.5	0.00e+00	0	30	0	1723858944	42	6235
2026-01-16 12:25:48.24	118.53	9.39	-35.1	-36.1	22.5	0.00e+00	0	29	0	1727004672	42	6324
2026-01-16 12:25:49.25	118.67	9.34	-35.1	-36.1	22.5	0.00e+00	0	30	0	1730150400	42	6320
2026-01-16 12:25:50.26	118.81	9.29	-35.3	-36.3	22.3	0.00e+00	0	30	0	1732247552	42	6454
2026-01-16 12:25:51.27	118.96	9.24	-35.1	-36.1	22.5	0.00e+00	0	30	0	1736441856	42	6317
2026-01-16 12:25:52.27	119.09	9.19	-35.1	-36.1	22.5	0.00e+00	0	30	0	1739587584	42	6348
2026-01-16 12:25:53.29	119.24	9.14	-35.3	-36.4	22.3	0.00e+00	0	30	0	1742733312	42	6512
2026-01-16 12:25:54.30	119.38	9.08	-35.3	-36.4	22.3	0.00e+00	0	30	0	1745879040	42	6503
2026-01-16 12:25:55.31	119.52	9.03	-35.2	-36.2	22.4	0.00e+00	0	30	0	1749024768	42	6420
2026-01-16 12:25:56.32	119.65	8.98	-35.2	-36.3	22.4	0.00e+00	0	30	0	1752170496	42	6436
2026-01-16 12:25:57.33	119.79	8.93	-35.2	-36.2	22.5	0.00e+00	0	30	0	1755316224	42	6355
2026-01-16 12:25:58.34	119.93	8.88	-35.4	-36.4	22.2	0.00e+00	0	30	0	1758461952	42	6523
2026-01-16 12:25:59.35	120.07	8.83	-35.6	-36.7	21.9	0.00e+00	0	30	0	1761607680	42	6743
2026-01-16 12:26:00.36	120.21	8.77	-36.1	-37.2	21.5	0.00e+00	0	30	0	1764753408	44	6407
2026-01-16 12:26:01.37	120.34	8.72	-35.9	-36.9	21.8	0.00e+00	0	30	0	1767899136	44	6202
2026-01-16 12:26:02.38	120.48	8.67	-35.4	-36.5	22.1	0.00e+00	0	30	0	1771044864	44	5864
2026-01-16 12:26:03.39	120.61	8.62	-35.5	-36.6	22.0	0.00e+00	0	30	0	1774190592	44	5941
2026-01-16 12:26:04.40	120.75	8.57	-35.5	-36.6	21.9	0.00e+00	0	30	0	1777336320	44	5937
2026-01-16 12:26:05.41	120.88	8.51	-35.7	-36.7	21.8	0.00e+00	0	30	0	1780482048	44	6042
2026-01-16 12:26:06.42	121.02	8.46	-35.8	-36.9	21.7	0.00e+00	0	30	0	1783627776	44	6150
2026-01-16 12:26:07.42	121.15	8.41	-36.1	-37.2	21.4	0.00e+00	0	30	0	1786773504	44	6423
2026-01-16 12:26:08.43	121.28	8.36	-35.9	-36.9	21.6	0.00e+00	0	30	0	1789919232	44	6202
2026-01-16 12:26:09.44	121.42	8.31	-35.9	-37.0	21.5	0.00e+00	0	30	0	1793064960	44	6258
2026-01-16 12:26:10.45	121.55	8.25	-36.1	-37.2	21.4	0.00e+00	0	30	0	1796210688	44	6359
2026-01-16 12:26:11.46	121.68	8.20	-35.9	-37.0	21.5	0.00e+00	0	30	0	1799356416	44	6276
2026-01-16 12:26:12.47	121.81	8.15	-36.1	-37.2	21.4	0.00e+00	0	30	0	1802502144	44	6386
2026-01-16 12:26:13.48	121.94	8.10	-36.0	-37.2	21.4	0.00e+00	0	30	0	1805647872	44	6351
2026-01-16 12:26:14.49	122.07	8.05	-36.0	-37.1	21.4	0.00e+00	0	30	0	1808793600	44	6299
2026-01-16 12:26:15.50	122.20	7.99	-36.2	-37.3	21.3	0.00e+00	0	30	0	1811939328	44	6454
2026-01-16 12:26:16.51	122.33	7.94	-36.0	-37.1	21.6	0.00e+00	0	30	0	1815085056	44	6295
2026-01-16 12:26:17.52	122.46	7.89	-35.9	-37.0	21.6	0.00e+00	0	30	0	1818230784	44	6207
2026-01-16 12:26:18.53	122.59	7.84	-35.9	-37.0	21.6	0.00e+00	0	30	0	1821376512	44	6252
2026-01-16 12:26:19.54	122.72	7.79	-36.0	-37.1	21.5	0.00e+00	0	30	0	1824522240	44	6296
2026-01-16 12:26:20.55	122.85	7.73	-35.7	-36.8	21.7	0.00e+00	0	30	0	1827667968	44	6069
2026-01-16 12:26:21.56	122.98	7.68	-35.8	-36.9	21.6	0.00e+00	0	30	0	1830813696	44	6171
2026-01-16 12:26:22.57	123.10	7.63	-35.8	-36.9	21.6	0.00e+00	0	30	0	1833959424	44	6177
2026-01-16 12:26:23.58	123.23	7.58	-35.9	-37.0	21.5	0.00e+00	0	30	0	1837105152	44	6218
2026-01-16 12:26:24.59	123.36	7.52	-36.0	-37.1	21.4	0.00e+00	0	30	0	1840250880	44	6297
2026-01-16 12:26:25.60	123.48	7.47	-35.9	-37.0	21.5	0.00e+00	0	30	0	1843396608	44	6274
2026-01-16 12:26:26.61	123.61	7.42	-36.0	-37.1	21.4	0.00e+00	0	30	0	1846542336	44	6343
2026-01-16 12:26:27.62	123.73	7.37	-35.9	-37.0	21.5	0.00e+00	0	30	0	1849688064	44	6238
2026-01-16 12:26:28.63	123.86	7.32	-35.9	-37.0	21.5	0.00e+00	0	30	0	1852833792	44	6206
2026-01-16 12:26:29.64	123.98	7.26	-35.8	-36.9	21.5	0.00e+00	0	30	0	1855979520	44	6161
2026-01-16 12:26:30.65	124.10	7.21	-35.8	-36.9	21.6	0.00e+00	0	30	0	1859125248	44	6161
2026-01-16 12:26:31.66	124.23	7.16	-35.7	-36.8	21.5	0.00e+00	0	30	0	1862270976	44	6095
2026-01-16 12:26:32.67	124.35	7.11	-35.8	-36.9	21.5	0.00e+00	0	30	0	1865416704	44	6142
2026-01-16 12:26:33.68	124.47	7.05	-35.9	-37.0	21.4	0.00e+00	0	30	0	1868562432	44	6234
2026-01-16 12:26:34.70	124.60	7.00	-36.1	-37.2	21.3	0.00e+00	0	30	0	1871708160	44	6359
2026-01-16 12:26:35.71	124.72	6.95	-36.1	-37.2	21.3	0.00e+00	0	30	0	1874853888	44	6396
2026-01-16 12:26:36.72	124.84	6.90	-36.1	-37.2	21.3	0.00e+00	0	30	0	1877999616	44	6406
2026-01-16 12:26:37.73	124.96	6.84	-36.1	-37.3	21.2	0.00e+00	0	30	0	1881145344	44	6456
2026-01-16 12:26:38.74	125.08	6.79	-36.1	-37.2	21.3	0.00e+00	0	30	0	1884291072	44	6416
2026-01-16 12:26:39.75	125.20	6.74	-36.2	-37.3	21.2	0.00e+00	0	30	0	1887436800	44	6475
2026-01-16 12:26:40.76	125.32	6.69	-36.1	-37.3	21.2	0.00e+00	0	30	0	1890582528	44	6452
2026-01-16 12:26:41.77	125.44	6.63	-36.1	-37.3	21.2	0.00e+00	0	30	0	1893728256	44	6429
2026-01-16 12:26:42.78	125.56	6.58	-36.2	-37.3	21.1	0.00e+00	0	30	0	1896873984	44	6485
2026-01-16 12:26:43.79	125.67	6.53	-36.1	-37.3	21.1	0.00e+00	0	30	0	1900019712	44	6446
2026-01-16 12:26:44.80	125.79	6.48	-36.0	-37.2	21.1	0.00e+00	0	30	0	1903165440	44	6376
2026-01-16 12:26:45.81	125.91	6.43	-36.0	-37.1	21.2	0.00e+00	0	30	0	1906311168	44	6335
2026-01-16 12:26:46.82	126.03	6.37	-36.0	-37.2	21.2	0.00e+00	0	30	0	1909456896	44	6360
2026-01-16 12:26:47.83	126.14	6.32	-36.0	-37.1	21.2	0.00e+00	0	30	0	1912602624	44	6317
2026-01-16 12:26:48.84	126.26	6.27	-36.0	-37.1	21.1	0.00e+00	0	30	0	1915748352	44	6347
2026-01-16 12:26:49.85	126.38	6.22	-36.1	-37.3	21.0	0.00e+00	0	30	0	1918894080	44	6448
2026-01-16 12:26:50.86	126.49	6.16	-36.1	-37.3	21.0	0.00e+00	0	30	0	1922039808	44	6459
2026-01-16 12:26:51.87	126.61	6.11	-36.2	-37.3	21.1	0.00e+00	0	30	0	1925185536	44	6453
2026-01-16 12:26:52.88	126.72	6.06	-36.2	-37.4	21.0	0.00e+00	0	30	0	1928331264	44	6502
2026-01-16 12:26:53.89	126.83	6.01	-36.4	-37.5	20.8	0.00e+00	0	30	0	1931476992	44	6638
2026-01-16 12:26:54.90	126.95	5.95	-36.4	-37.5	20.7	0.00e+00	0	30	0	1934622720	44	6648
2026-01-16 12:26:55.91	127.06	5.90	-36.4	-37.5	20.9	0.00e+00	0	30	0	1937768448	44	6610
2026-01-16 12:26:56.92	127.18	5.85	-36.5	-37.6	20.8	0.00e+00	0	30	0	1940914176	44	6689
2026-01-16 12:26:57.93	127.29	5.80	-36.3	-37.5	20.9	0.00e+00	0	30	0	1944059904	44	6585
2026-01-16 12:26:58.94	127.40	5.75	-36.0	-37.1	21.2	0.00e+00	0	30	0	1947205632	44	6324
2026-01-16 12:26:59.95	127.51	5.69	-36.2	-37.4	21.0	0.00e+00	0	30	0	1950351360	44	6509
2026-01-16 12:27:00.96	127.62	5.64	-36.2	-37.3	21.0	0.00e+00	0	30	0	1953497088	44	6481
2026-01-16 12:27:01.97	127.73	5.59	-36.3	-37.4	21.0	0.00e+00	0	30	0	1956642816	44	6571
2026-01-16 12:27:02.98	127.85	5.54	-36.3	-37.4	21.0	0.00e+00	0	30	0	1959788544	44	6557
2026-01-16 12:27:03.99	127.96	5.49	-36.3	-37.4	21.0	0.00e+00	0	30	0	1962934272	44	6566
2026-01-16 12:27:05.00	128.07	5.43	-36.4	-37.6	20.8	0.00e+00	0	30	0	1966080000	44	6655
2026-01-16 12:27:06.01	128.18	5.38	-36.6	-37.8	20.5	0.00e+00	0	30	0	1969225728	44	6807
2026-01-16 12:27:07.02	128.28	5.33	-36.4	-37.6	20.8	0.00e+00	0	30	0	1972371456	44	6656
2026-01-16 12:27:08.03	128.39	5.28	-36.5	-37.7	20.6	0.00e+00	0	30	0	1975517184	44	6764
2026-01-16 12:27:09.04	128.50	5.23	-36.7	-37.9	20.5	0.00e+00	0	30	0	1978662912	44	6914
2026-01-16 12:27:10.05	128.61	5.17	-36.6	-37.7	20.7	0.00e+00	0	30	0	1981808640	46	6047
2026-01-16 12:27:11.06	128.72	5.12	-36.6	-37.8	20.5	0.00e+00	0	30	0	1984954368	46	6075
2026-01-16 12:27:12.06	128.82	5.07	-37.0	-38.2	20.3	0.00e+00	0	30	0	1988100096	46	6382
2026-01-16 12:27:13.08	128.93	5.02	-36.8	-38.1	20.4	0.00e+00	0	30	0	1991245824	46	6278
2026-01-16 12:27:14.09	129.04	4.97	-36.8	-38.0	20.4	0.00e+00	0	30	0	1994391552	46	6245
2026-01-16 12:27:15.10	129.15	4.91	-37.0	-38.3	20.1	0.00e+00	0	30	0	1997537280	46	6442
2026-01-16 12:27:16.11	129.25	4.86	-37.2	-38.4	20.0	0.00e+00	0	30	0	2000683008	46	6529
2026-01-16 12:27:17.12	129.36	4.81	-37.0	-38.2	20.2	0.00e+00	0	30	0	2003828736	46	6374
2026-01-16 12:27:18.13	129.46	4.76	-36.9	-38.1	20.3	0.00e+00	0	30	0	2006974464	46	6278
2026-01-16 12:27:19.14	129.57	4.71	-37.3	-38.5	19.9	0.00e+00	0	30	0	2010120192	46	6606
