passes_logs/2026/01/16/R4.6S_Anadyr/R4.6S_Anadyr__20260116_024558_AQUA_rec.log

#Pass ID: 20260116_024558_AQUA
#Satellite: AQUA
#Configuration: AQUA
#almurnet v.1.7.20251203
#Start time: 2026-01-16 02:46:00

#Version: 2.2.20231116
#Station: R4.6S_Anadyr
#Location: 177.4865 lon 64.73178 lat
#TLE: 1 27424U 02022A   26014.61231444  .00000653  00000+0  14070-3 0  9991
#TLE: 2 27424  98.4080 341.0332 0002042  78.9336 335.9961 14.61820174260839

#Time	Az	El	Level	Level2	SNR	BER	BlckErr	Temp	State	Recorded	gain1	gain2
2026-01-16 02:46:00.37	178.00	0.10	-48.2	-63.1	3.5	1.51e+00	0	25	0	0	60	51461
2026-01-16 02:46:01.37	178.03	0.16	-48.3	-66.5	3.5	3.02e+01	0	26	104	0	60	81437
2026-01-16 02:46:02.39	178.06	0.22	-48.8	-66.7	3.5	3.02e+01	0	26	104	0	60	83699
2026-01-16 02:46:03.40	178.09	0.28	-48.4	-66.6	3.5	3.02e+01	0	26	104	0	60	82120
2026-01-16 02:46:04.40	178.13	0.35	-48.6	-66.5	3.5	3.02e+01	0	27	104	0	60	81306
2026-01-16 02:46:05.41	178.16	0.41	-48.5	-66.6	3.5	3.02e+01	0	26	104	0	60	82007
2026-01-16 02:46:06.42	178.19	0.47	-48.4	-66.5	3.5	3.02e+01	0	27	104	0	60	81362
2026-01-16 02:46:07.43	178.22	0.53	-48.6	-66.5	3.5	3.02e+01	0	26	104	0	60	81522
2026-01-16 02:46:08.44	178.26	0.59	-48.5	-66.5	3.5	3.02e+01	0	27	104	0	60	81338
2026-01-16 02:46:09.45	178.29	0.66	-48.6	-66.5	3.5	3.02e+01	0	27	104	0	60	81305
2026-01-16 02:46:10.46	178.32	0.72	-48.6	-66.5	3.5	3.02e+01	0	27	104	0	60	81286
2026-01-16 02:46:11.47	178.36	0.78	-48.4	-66.3	3.5	3.02e+01	0	27	104	0	60	79157
2026-01-16 02:46:12.48	178.39	0.84	-48.2	-66.2	3.5	3.02e+01	0	27	104	0	60	78552
2026-01-16 02:46:13.49	178.42	0.91	-48.1	-66.1	3.5	3.02e+01	0	27	104	0	60	77476
2026-01-16 02:46:14.50	178.46	0.97	-47.7	-66.0	3.4	3.02e+01	0	27	104	0	60	76381
2026-01-16 02:46:15.51	178.49	1.03	-47.3	-65.7	3.5	3.02e+01	0	27	104	0	60	74206
2026-01-16 02:46:16.52	178.52	1.10	-46.4	-65.1	3.5	3.02e+01	0	27	104	0	60	69055
2026-01-16 02:46:17.52	178.56	1.16	-46.7	-64.8	3.5	3.02e+01	0	27	104	0	60	67242
2026-01-16 02:46:18.53	178.59	1.22	-46.7	-65.0	3.5	3.02e+01	0	27	104	0	60	68125
2026-01-16 02:46:19.54	178.63	1.29	-46.7	-65.0	3.5	3.02e+01	0	27	104	0	60	68377
2026-01-16 02:46:20.56	178.66	1.35	-46.7	-65.1	3.5	3.02e+01	0	27	104	0	60	68869
2026-01-16 02:46:21.57	178.70	1.41	-46.7	-65.0	3.5	3.02e+01	0	27	104	0	60	68711
2026-01-16 02:46:22.57	178.73	1.48	-46.8	-65.2	3.5	3.02e+01	0	27	104	0	60	69639
2026-01-16 02:46:23.59	178.77	1.54	-46.7	-65.1	3.5	3.02e+01	0	27	104	0	60	69225
2026-01-16 02:46:24.59	178.80	1.61	-46.7	-65.0	3.5	3.02e+01	0	27	104	0	60	68727
2026-01-16 02:46:25.60	178.84	1.67	-46.8	-65.1	3.5	3.02e+01	0	27	104	0	60	69359
2026-01-16 02:46:26.61	178.87	1.74	-46.7	-65.0	3.5	3.02e+01	0	27	104	0	60	68671
2026-01-16 02:46:27.62	178.91	1.80	-46.7	-65.0	3.5	3.02e+01	0	27	104	0	60	68109
2026-01-16 02:46:28.63	178.94	1.87	-46.7	-65.0	3.5	3.02e+01	0	27	104	0	60	68502
2026-01-16 02:46:29.64	178.98	1.93	-46.8	-64.8	3.5	3.02e+01	0	27	104	0	60	67003
2026-01-16 02:46:30.65	179.01	2.00	-46.7	-64.8	3.5	3.02e+01	0	27	104	0	60	66757
2026-01-16 02:46:31.66	179.05	2.06	-46.7	-65.0	3.5	3.02e+01	0	27	104	0	60	68060
2026-01-16 02:46:32.67	179.09	2.13	-46.7	-65.0	3.5	3.02e+01	0	27	104	0	60	68519
2026-01-16 02:46:33.68	179.12	2.19	-46.7	-65.0	3.5	3.02e+01	0	27	104	0	60	68244
2026-01-16 02:46:34.69	179.16	2.26	-46.7	-64.7	3.5	3.02e+01	0	27	104	0	60	66362
2026-01-16 02:46:35.70	179.20	2.33	-46.6	-64.7	3.5	3.02e+01	0	27	104	0	60	66461
2026-01-16 02:46:36.71	179.23	2.39	-46.7	-64.9	3.5	3.02e+01	0	27	104	0	60	67545
2026-01-16 02:46:37.72	179.27	2.46	-46.7	-65.0	3.5	3.02e+01	0	27	104	0	60	68296
2026-01-16 02:46:38.72	179.31	2.52	-46.6	-64.9	3.5	3.02e+01	0	27	104	0	60	67910
2026-01-16 02:46:39.73	179.35	2.59	-46.6	-64.3	3.5	3.02e+01	0	27	104	0	60	63409
2026-01-16 02:46:40.74	179.38	2.66	-46.7	-62.6	3.5	3.02e+01	0	27	104	0	60	51837
2026-01-16 02:46:41.75	179.42	2.73	-46.4	-60.4	4.8	3.02e+01	0	27	104	0	60	40314
2026-01-16 02:46:42.76	179.46	2.79	-46.5	-59.7	3.9	3.02e+01	0	27	104	0	60	37214
2026-01-16 02:46:43.77	179.50	2.86	-46.6	-59.7	3.8	3.02e+01	0	27	104	0	60	37383
2026-01-16 02:46:44.78	179.54	2.93	-46.7	-62.0	4.0	3.02e+01	0	27	104	0	60	48561
2026-01-16 02:46:45.79	179.58	3.00	-46.7	-63.0	3.7	3.02e+01	0	27	104	0	60	54116
2026-01-16 02:46:46.80	179.61	3.06	-46.4	-57.5	6.6	3.02e+01	92	27	0	0	60	28782
2026-01-16 02:46:47.81	179.65	3.13	-45.4	-52.0	12.2	3.02e+01	92	27	0	2097152	60	15252
2026-01-16 02:46:48.82	179.69	3.20	-44.0	-48.1	16.5	3.02e+01	92	27	0	3670016	60	9802
2026-01-16 02:46:49.83	179.73	3.27	-42.2	-45.0	19.7	3.02e+01	91	27	0	5767168	60	6870
2026-01-16 02:46:50.84	179.77	3.34	-41.1	-43.5	21.5	3.02e+01	90	27	0	7340032	58	6445
2026-01-16 02:46:51.85	179.81	3.41	-39.2	-41.1	23.6	3.02e+01	92	28	0	9437184	54	6140
2026-01-16 02:46:52.86	179.85	3.48	-38.3	-40.0	24.6	3.02e+01	90	27	0	11534336	52	6078
2026-01-16 02:46:53.87	179.89	3.55	-37.5	-39.0	25.3	3.02e+01	92	27	0	13107200	50	6134
2026-01-16 02:46:54.88	179.93	3.62	-37.4	-39.0	25.4	3.02e+01	92	27	0	15204352	50	6102
2026-01-16 02:46:55.89	179.97	3.68	-37.7	-39.3	25.1	3.02e+01	89	27	0	16777216	50	6295
2026-01-16 02:46:56.89	180.01	3.75	-38.0	-39.7	24.7	3.02e+01	91	27	0	18874368	50	6592
2026-01-16 02:46:57.90	180.05	3.82	-38.7	-40.5	23.8	3.02e+01	89	27	0	20971520	50	7220
2026-01-16 02:46:58.91	180.09	3.89	-37.6	-39.2	25.0	3.02e+01	91	28	0	22544384	50	6217
2026-01-16 02:46:59.92	180.13	3.96	-45.7	-52.6	8.7	3.02e+01	89	28	0	24641536	60	16472
2026-01-16 02:47:00.93	180.18	4.04	-42.0	-44.5	19.0	3.02e+01	92	28	0	26738688	56	8134
2026-01-16 02:47:01.94	180.22	4.11	-43.7	-47.2	17.9	3.02e+01	89	28	0	28311552	58	9856
2026-01-16 02:47:02.95	180.26	4.18	-46.7	-56.4	6.8	3.02e+01	90	28	0	30408704	60	25308
2026-01-16 02:47:03.96	180.30	4.25	-39.3	-41.1	23.5	3.02e+01	92	28	0	31981568	54	6177
2026-01-16 02:47:04.97	180.34	4.32	-39.1	-40.8	23.7	3.02e+01	85	28	0	33554432	54	5982
2026-01-16 02:47:05.98	180.39	4.39	-38.8	-40.4	24.2	3.02e+01	90	28	0	35651584	52	6423
2026-01-16 02:47:06.99	180.43	4.46	-38.9	-40.6	24.0	3.02e+01	92	28	0	37748736	52	6499
2026-01-16 02:47:08.00	180.47	4.54	-39.1	-40.9	24.1	3.02e+01	91	28	0	39321600	52	6760
2026-01-16 02:47:09.01	180.52	4.61	-38.9	-40.6	24.3	3.02e+01	90	28	0	41418752	52	6529
2026-01-16 02:47:10.02	180.56	4.68	-38.8	-40.4	24.1	3.02e+01	92	28	0	42991616	52	6417
2026-01-16 02:47:11.03	180.60	4.75	-38.8	-40.5	24.2	3.02e+01	91	28	0	45088768	52	6433
2026-01-16 02:47:12.03	180.65	4.83	-38.7	-40.4	24.4	3.02e+01	89	28	0	47185920	52	6371
2026-01-16 02:47:13.04	180.69	4.90	-38.7	-40.4	24.6	3.02e+01	91	28	0	48758784	52	6368
2026-01-16 02:47:14.05	180.73	4.97	-38.6	-40.2	24.6	3.02e+01	92	28	0	50855936	52	6237
2026-01-16 02:47:15.06	180.78	5.05	-38.5	-40.1	24.6	3.02e+01	91	28	0	52953088	52	6143
2026-01-16 02:47:16.07	180.82	5.12	-38.2	-39.8	24.9	3.02e+01	92	28	0	54525952	52	5975
2026-01-16 02:47:17.08	180.87	5.19	-38.2	-39.8	25.0	3.02e+01	92	28	0	56623104	52	5930
2026-01-16 02:47:18.09	180.91	5.27	-38.0	-39.6	25.1	3.02e+01	90	28	0	58195968	52	5817
2026-01-16 02:47:19.10	180.96	5.34	-37.9	-39.4	25.4	3.02e+01	91	28	0	60293120	50	6387
2026-01-16 02:47:20.11	181.00	5.42	-37.8	-39.3	25.3	3.02e+01	92	28	0	62390272	50	6349
2026-01-16 02:47:21.11	181.05	5.49	-37.8	-39.3	25.3	3.02e+01	90	28	0	63963136	50	6306
2026-01-16 02:47:22.12	181.09	5.57	-37.5	-39.0	25.7	3.02e+01	92	28	0	66060288	50	6105
2026-01-16 02:47:23.13	181.14	5.64	-37.3	-38.7	25.9	3.02e+01	92	28	0	67633152	50	5926
2026-01-16 02:47:24.14	181.19	5.72	-37.3	-38.7	25.9	3.02e+01	86	28	0	69730304	50	5913
2026-01-16 02:47:25.15	181.23	5.79	-37.1	-38.5	26.3	3.02e+01	92	28	0	71827456	50	5751
2026-01-16 02:47:26.16	181.28	5.87	-36.7	-38.1	26.5	3.02e+01	91	28	0	73400320	48	6144
2026-01-16 02:47:27.17	181.33	5.94	-36.5	-37.9	26.7	3.02e+01	90	28	0	75497472	48	5996
2026-01-16 02:47:28.18	181.38	6.02	-36.5	-37.9	26.7	3.02e+01	92	28	0	77070336	48	6032
2026-01-16 02:47:29.19	181.42	6.10	-36.5	-37.8	26.9	3.02e+01	90	28	0	79167488	48	5984
2026-01-16 02:47:30.20	181.47	6.17	-36.4	-37.8	26.9	3.02e+01	92	28	0	81264640	48	5952
2026-01-16 02:47:31.21	181.52	6.25	-36.4	-37.8	26.9	3.02e+01	92	28	0	82837504	48	5980
2026-01-16 02:47:32.21	181.57	6.33	-36.3	-37.7	27.0	3.02e+01	92	28	0	84934656	48	5898
2026-01-16 02:47:33.22	181.62	6.41	-36.2	-37.6	27.1	3.02e+01	92	28	0	86507520	48	5810
2026-01-16 02:47:34.23	181.67	6.48	-36.2	-37.6	27.1	3.02e+01	92	28	0	88604672	48	5814
2026-01-16 02:47:35.24	181.72	6.56	-36.2	-37.6	27.1	3.02e+01	90	28	0	90701824	48	5827
2026-01-16 02:47:36.25	181.76	6.64	-36.2	-37.6	27.1	3.02e+01	90	28	0	92274688	48	5799
2026-01-16 02:47:37.26	181.81	6.72	-36.2	-37.6	27.0	3.02e+01	92	28	0	94371840	48	5797
2026-01-16 02:47:38.27	181.86	6.80	-36.2	-37.6	27.2	3.02e+01	92	28	0	95944704	48	5804
2026-01-16 02:47:39.28	181.92	6.88	-36.1	-37.4	27.2	3.02e+01	91	28	0	98041856	48	5722
2026-01-16 02:47:40.29	181.97	6.96	-36.1	-37.5	27.2	3.02e+01	91	28	0	100139008	48	5745
2026-01-16 02:47:41.30	182.02	7.04	-36.0	-37.4	27.3	3.02e+01	91	28	0	101711872	48	5684
2026-01-16 02:47:42.31	182.07	7.12	-36.1	-37.4	27.3	3.02e+01	92	28	0	103809024	48	5723
2026-01-16 02:47:43.32	182.12	7.20	-36.1	-37.4	27.3	3.02e+01	88	28	0	105906176	48	5696
2026-01-16 02:47:44.33	182.17	7.28	-36.3	-37.6	27.1	3.02e+01	92	28	0	107479040	48	5846
2026-01-16 02:47:45.34	182.22	7.36	-36.1	-37.5	27.2	3.02e+01	92	28	0	109576192	48	5748
2026-01-16 02:47:46.35	182.28	7.44	-36.3	-37.6	27.3	3.02e+01	92	28	0	111149056	48	5853
2026-01-16 02:47:47.35	182.33	7.52	-36.2	-37.5	27.3	3.02e+01	92	28	0	113246208	48	5783
2026-01-16 02:47:48.36	182.38	7.60	-36.1	-37.5	27.3	3.02e+01	92	28	0	115343360	48	5734
2026-01-16 02:47:49.37	182.43	7.68	-36.2	-37.6	27.3	3.02e+01	90	28	0	116916224	48	5804
2026-01-16 02:47:50.38	182.49	7.76	-36.1	-37.4	27.4	3.02e+01	92	28	0	119013376	48	5720
2026-01-16 02:47:51.39	182.54	7.85	-36.0	-37.3	27.4	3.02e+01	91	28	0	121110528	48	5651
2026-01-16 02:47:52.40	182.60	7.93	-36.0	-37.4	27.3	3.02e+01	91	28	0	122683392	48	5682
2026-01-16 02:47:53.41	182.65	8.01	-36.1	-37.5	27.4	3.02e+01	91	28	0	124780544	48	5734
2026-01-16 02:47:54.42	182.71	8.10	-36.1	-37.4	27.4	3.02e+01	91	28	0	126353408	46	6408
2026-01-16 02:47:55.43	182.76	8.18	-35.9	-37.2	27.6	3.02e+01	92	28	0	128450560	46	6267
2026-01-16 02:47:56.43	182.82	8.26	-35.9	-37.3	27.5	3.02e+01	92	28	0	130547712	46	6279
2026-01-16 02:47:57.44	182.87	8.35	-36.1	-37.4	27.4	3.02e+01	90	28	0	132120576	46	6380
2026-01-16 02:47:58.45	182.93	8.43	-36.0	-37.4	27.5	3.02e+01	92	28	0	134217728	46	6366
2026-01-16 02:47:59.46	182.98	8.52	-35.9	-37.3	27.6	3.02e+01	92	28	0	135790592	46	6291
2026-01-16 02:48:00.47	183.04	8.60	-36.1	-37.4	27.4	3.02e+01	92	28	0	137887744	46	6413
2026-01-16 02:48:01.48	183.10	8.69	-36.2	-37.6	27.3	3.02e+01	92	28	0	139460608	46	6502
2026-01-16 02:48:02.49	183.16	8.77	-35.8	-37.1	27.7	3.02e+01	87	28	0	141557760	46	6186
2026-01-16 02:48:03.50	183.21	8.86	-35.7	-37.0	27.8	3.02e+01	92	28	0	143654912	46	6129
2026-01-16 02:48:04.51	183.27	8.94	-35.7	-37.0	27.8	3.02e+01	92	28	0	145227776	46	6128
2026-01-16 02:48:05.52	183.33	9.03	-35.8	-37.1	27.8	3.02e+01	90	28	0	147324928	46	6175
2026-01-16 02:48:06.52	183.39	9.12	-35.6	-37.0	27.8	3.02e+01	90	28	0	149422080	46	6099
2026-01-16 02:48:07.53	183.45	9.20	-35.8	-37.2	27.7	3.02e+01	91	28	0	150994944	46	6217
2026-01-16 02:48:08.54	183.51	9.29	-35.7	-37.1	27.7	3.02e+01	92	28	0	153092096	46	6160
2026-01-16 02:48:09.55	183.57	9.38	-35.6	-37.0	27.8	3.02e+01	92	28	0	154664960	46	6080
2026-01-16 02:48:10.56	183.63	9.47	-35.7	-37.1	27.9	3.02e+01	92	28	0	156762112	46	6139
2026-01-16 02:48:11.57	183.69	9.55	-35.6	-37.0	27.9	3.02e+01	92	28	0	158859264	46	6088
2026-01-16 02:48:12.58	183.75	9.64	-35.7	-37.0	27.9	3.02e+01	92	28	0	160432128	46	6102
2026-01-16 02:48:13.59	183.81	9.73	-35.4	-36.7	28.1	3.02e+01	90	28	0	162529280	46	5916
2026-01-16 02:48:14.60	183.87	9.82	-35.5	-36.8	28.0	3.02e+01	92	28	0	164102144	46	5949
2026-01-16 02:48:15.61	183.93	9.91	-35.3	-36.6	28.1	3.02e+01	92	28	0	166199296	46	5846
2026-01-16 02:48:16.61	184.00	10.00	-35.4	-36.7	28.0	3.02e+01	90	28	0	168296448	46	5923
2026-01-16 02:48:17.62	184.06	10.09	-35.4	-36.7	28.2	3.02e+01	92	28	0	169869312	46	5875
2026-01-16 02:48:18.63	184.12	10.18	-35.4	-36.7	28.1	3.02e+01	92	28	0	171966464	46	5908
2026-01-16 02:48:19.64	184.19	10.27	-35.3	-36.6	28.2	3.02e+01	92	28	0	174063616	46	5858
2026-01-16 02:48:20.65	184.25	10.36	-35.4	-36.7	28.1	3.02e+01	92	28	0	175636480	46	5897
2026-01-16 02:48:21.66	184.32	10.46	-35.4	-36.8	28.1	3.02e+01	91	28	0	177733632	46	5932
2026-01-16 02:48:22.67	184.38	10.55	-35.6	-36.9	28.0	3.02e+01	92	28	0	179306496	46	6030
2026-01-16 02:48:23.68	184.45	10.64	-35.6	-36.9	28.0	3.02e+01	92	28	0	181403648	46	6032
2026-01-16 02:48:24.69	184.51	10.73	-35.5	-36.8	28.1	3.02e+01	88	28	0	183500800	46	5964
2026-01-16 02:48:25.70	184.58	10.83	-35.5	-36.7	28.1	3.02e+01	92	28	0	185073664	46	5923
2026-01-16 02:48:26.71	184.65	10.92	-35.4	-36.7	28.2	3.02e+01	92	28	0	187170816	46	5894
2026-01-16 02:48:27.72	184.71	11.01	-35.3	-36.6	28.3	3.02e+01	91	28	0	188743680	46	5849
2026-01-16 02:48:28.72	184.78	11.11	-35.3	-36.7	28.3	3.02e+01	90	28	0	190840832	46	5861
2026-01-16 02:48:29.73	184.85	11.20	-35.3	-36.6	28.3	3.02e+01	92	28	0	192937984	46	5827
2026-01-16 02:48:30.74	184.92	11.30	-35.3	-36.6	28.2	3.02e+01	92	28	0	194510848	46	5850
2026-01-16 02:48:31.75	184.99	11.39	-35.3	-36.7	28.3	3.02e+01	92	28	0	196608000	46	5861
2026-01-16 02:48:32.76	185.05	11.49	-35.1	-36.5	28.4	3.02e+01	90	28	0	198180864	46	5727
2026-01-16 02:48:33.77	185.12	11.59	-35.2	-36.5	28.3	3.02e+01	90	28	0	200278016	46	5780
2026-01-16 02:48:34.78	185.19	11.68	-35.3	-36.6	28.3	3.02e+01	92	28	0	202375168	46	5856
2026-01-16 02:48:35.79	185.27	11.78	-35.2	-36.5	28.4	3.02e+01	92	28	0	203948032	46	5782
2026-01-16 02:48:36.79	185.34	11.88	-35.2	-36.5	28.5	3.02e+01	90	28	0	206045184	46	5748
2026-01-16 02:48:37.80	185.41	11.97	-35.2	-36.5	28.4	3.02e+01	91	29	0	207618048	46	5772
2026-01-16 02:48:38.81	185.48	12.07	-35.1	-36.4	28.5	3.02e+01	91	29	0	209715200	46	5715
2026-01-16 02:48:39.82	185.55	12.17	-35.1	-36.4	28.5	3.02e+01	91	29	0	211812352	46	5705
2026-01-16 02:48:40.83	185.63	12.27	-35.1	-36.4	28.4	3.02e+01	91	29	0	213385216	46	5715
2026-01-16 02:48:41.84	185.70	12.37	-35.2	-36.5	28.4	3.02e+01	91	28	0	215482368	46	5735
2026-01-16 02:48:42.85	185.77	12.47	-35.2	-36.5	28.4	3.02e+01	91	28	0	217579520	46	5777
2026-01-16 02:48:43.86	185.85	12.57	-35.1	-36.4	28.6	3.02e+01	88	29	0	219152384	46	5696
2026-01-16 02:48:44.87	185.92	12.67	-35.1	-36.4	28.5	3.02e+01	92	29	0	221249536	46	5699
2026-01-16 02:48:45.88	186.00	12.77	-35.0	-36.3	28.6	3.02e+01	88	29	0	222822400	46	5615
2026-01-16 02:48:46.89	186.08	12.87	-34.9	-36.2	28.7	3.02e+01	91	29	0	224919552	44	6250
2026-01-16 02:48:47.90	186.15	12.97	-35.0	-36.3	28.7	3.02e+01	92	29	0	227016704	44	6336
2026-01-16 02:48:48.91	186.23	13.08	-34.8	-36.1	28.8	3.02e+01	92	29	0	228589568	44	6154
2026-01-16 02:48:49.92	186.31	13.18	-34.9	-36.2	28.7	3.02e+01	90	29	0	230686720	44	6243
2026-01-16 02:48:50.93	186.39	13.28	-34.9	-36.2	28.7	3.02e+01	90	29	0	232259584	44	6223
2026-01-16 02:48:51.94	186.47	13.39	-34.7	-36.0	28.9	3.02e+01	92	28	0	234356736	44	6071
2026-01-16 02:48:52.95	186.55	13.49	-34.8	-36.1	28.9	3.02e+01	91	29	0	236453888	44	6164
2026-01-16 02:48:53.96	186.63	13.60	-34.6	-35.8	29.0	3.02e+01	88	29	0	238026752	44	5988
2026-01-16 02:48:54.97	186.71	13.70	-34.8	-36.1	28.9	3.02e+01	90	29	0	240123904	44	6135
2026-01-16 02:48:55.98	186.79	13.81	-34.7	-36.0	29.0	3.02e+01	92	29	0	242221056	44	6090
2026-01-16 02:48:56.99	186.87	13.91	-34.7	-36.0	28.9	3.02e+01	92	29	0	243793920	44	6091
2026-01-16 02:48:58.00	186.95	14.02	-34.9	-36.1	28.8	3.02e+01	92	29	0	245891072	44	6188
2026-01-16 02:48:59.01	187.04	14.13	-34.9	-36.1	28.8	3.02e+01	92	29	0	247463936	44	6195
2026-01-16 02:49:00.02	187.12	14.23	-34.8	-36.1	28.9	3.02e+01	91	29	0	249561088	44	6140
2026-01-16 02:49:01.03	187.21	14.34	-34.8	-36.0	28.8	3.02e+01	92	29	0	251133952	44	6120
2026-01-16 02:49:02.03	187.29	14.45	-34.7	-36.0	28.9	3.02e+01	90	29	0	253231104	44	6083
2026-01-16 02:49:03.04	187.38	14.56	-34.8	-36.0	28.9	3.02e+01	88	29	0	255328256	44	6130
2026-01-16 02:49:04.05	187.46	14.67	-34.7	-35.9	29.0	3.02e+01	92	29	0	256901120	44	6046
2026-01-16 02:49:05.06	187.55	14.78	-34.8	-36.0	28.9	3.02e+01	92	29	0	258998272	44	6125
2026-01-16 02:49:06.07	187.64	14.89	-34.6	-35.8	29.0	3.02e+01	88	29	0	260571136	44	5992
2026-01-16 02:49:07.08	187.73	15.00	-34.6	-35.9	29.0	3.02e+01	92	29	0	262668288	44	6019
2026-01-16 02:49:08.09	187.81	15.11	-34.7	-35.9	29.0	3.02e+01	90	29	0	264765440	44	6059
2026-01-16 02:49:09.10	187.90	15.22	-34.5	-35.7	29.2	3.02e+01	91	29	0	266338304	44	5910
2026-01-16 02:49:10.11	187.99	15.33	-34.6	-35.9	29.0	3.02e+01	90	29	0	268435456	44	6002
2026-01-16 02:49:11.11	188.08	15.44	-34.5	-35.7	29.2	3.02e+01	92	29	0	270532608	44	5907
2026-01-16 02:49:12.12	188.18	15.56	-34.5	-35.8	29.1	3.02e+01	91	29	0	272105472	44	5941
2026-01-16 02:49:13.13	188.27	15.67	-34.6	-35.8	29.1	3.02e+01	92	29	0	274202624	44	5981
2026-01-16 02:49:14.14	188.36	15.79	-34.4	-35.7	29.2	3.02e+01	92	29	0	275775488	44	5864
2026-01-16 02:49:15.15	188.46	15.90	-34.5	-35.8	29.2	3.02e+01	90	29	0	277872640	44	5931
2026-01-16 02:49:16.16	188.55	16.02	-34.5	-35.7	29.2	3.02e+01	92	29	0	279969792	44	5882
2026-01-16 02:49:17.17	188.65	16.13	-34.4	-35.6	29.3	3.02e+01	92	29	0	281542656	44	5836
2026-01-16 02:49:18.18	188.74	16.25	-34.4	-35.6	29.3	3.02e+01	91	29	0	283639808	44	5847
2026-01-16 02:49:19.19	188.84	16.37	-34.4	-35.6	29.2	3.02e+01	90	29	0	285736960	44	5856
2026-01-16 02:49:20.20	188.94	16.48	-34.4	-35.7	29.3	3.02e+01	92	29	0	287309824	44	5881
2026-01-16 02:49:21.21	189.04	16.60	-34.6	-35.9	29.2	3.02e+01	90	29	0	289406976	44	6000
2026-01-16 02:49:22.22	189.14	16.72	-34.4	-35.6	29.3	3.02e+01	90	29	0	290979840	44	5843
2026-01-16 02:49:23.23	189.24	16.84	-34.4	-35.7	29.3	3.02e+01	92	29	0	293076992	44	5874
2026-01-16 02:49:24.24	189.34	16.96	-34.5	-35.8	29.2	3.02e+01	92	29	0	295174144	44	5947
2026-01-16 02:49:25.25	189.44	17.08	-34.6	-35.8	29.2	3.02e+01	89	29	0	296747008	44	5983
2026-01-16 02:49:26.25	189.54	17.20	-34.6	-35.9	29.1	3.02e+01	92	29	0	298844160	44	6030
2026-01-16 02:49:27.26	189.64	17.32	-34.5	-35.8	29.1	3.02e+01	90	29	0	300417024	44	5972
2026-01-16 02:49:28.27	189.75	17.44	-34.7	-36.0	29.0	3.02e+01	92	29	0	302514176	44	6105
2026-01-16 02:49:29.28	189.85	17.57	-34.6	-35.9	29.2	3.02e+01	90	29	0	304087040	44	6005
2026-01-16 02:49:30.29	189.96	17.69	-34.8	-36.1	29.0	3.02e+01	92	29	0	306184192	44	6137
2026-01-16 02:49:31.30	190.07	17.81	-34.8	-36.1	28.9	3.02e+01	92	29	0	308281344	44	6178
2026-01-16 02:49:32.30	190.17	17.94	-34.4	-35.6	29.4	3.02e+01	92	29	0	309854208	44	5818
2026-01-16 02:49:33.31	190.28	18.06	-34.4	-35.7	29.3	3.02e+01	92	29	0	311951360	44	5876
2026-01-16 02:49:34.31	190.39	18.19	-34.3	-35.5	29.4	3.02e+01	90	29	0	314048512	44	5787
2026-01-16 02:49:35.32	190.50	18.31	-34.4	-35.6	29.4	3.02e+01	92	29	0	315621376	44	5819
2026-01-16 02:49:36.33	190.61	18.44	-34.4	-35.6	29.4	3.02e+01	94	29	0	317718528	44	5834
2026-01-16 02:49:37.34	190.72	18.57	-34.5	-35.8	29.2	3.02e+01	91	29	0	319291392	44	5933
2026-01-16 02:49:38.35	190.84	18.70	-34.3	-35.6	29.4	3.02e+01	92	29	0	321388544	44	5806
2026-01-16 02:49:39.36	190.95	18.83	-34.4	-35.7	29.3	3.02e+01	92	29	0	323485696	44	5871
2026-01-16 02:49:40.36	191.07	18.95	-34.4	-35.6	29.4	3.02e+01	92	29	0	325058560	44	5831
2026-01-16 02:49:41.37	191.18	19.08	-34.3	-35.5	29.6	3.02e+01	92	29	0	327155712	44	5755
2026-01-16 02:49:42.38	191.30	19.22	-34.2	-35.4	29.5	3.02e+01	92	29	0	329252864	44	5710
2026-01-16 02:49:43.39	191.42	19.35	-34.2	-35.4	29.5	3.02e+01	91	29	0	330825728	44	5719
2026-01-16 02:49:44.40	191.54	19.48	-34.3	-35.5	29.5	3.02e+01	92	29	0	332922880	44	5748
2026-01-16 02:49:45.41	191.66	19.61	-34.3	-35.6	29.4	3.02e+01	91	29	0	334495744	44	5801
2026-01-16 02:49:46.42	191.78	19.75	-34.5	-35.7	29.3	3.02e+01	91	29	0	336592896	44	5923
2026-01-16 02:49:47.43	191.90	19.88	-34.5	-35.7	29.3	3.02e+01	87	29	0	338165760	44	5922
2026-01-16 02:49:48.44	192.03	20.01	-34.6	-35.8	29.3	3.02e+01	92	29	0	340262912	44	5975
2026-01-16 02:49:49.45	192.15	20.15	-34.6	-35.8	29.2	3.02e+01	92	29	0	342360064	44	5970
2026-01-16 02:49:50.46	192.28	20.29	-34.5	-35.8	29.3	3.02e+01	90	29	0	343932928	44	5930
2026-01-16 02:49:51.47	192.40	20.42	-34.5	-35.7	29.3	3.02e+01	92	29	0	346030080	44	5913
2026-01-16 02:49:52.47	192.53	20.56	-34.4	-35.7	29.4	3.02e+01	91	29	0	347602944	44	5869
2026-01-16 02:49:53.48	192.66	20.70	-34.6	-35.9	29.2	3.02e+01	92	29	0	349700096	44	6029
2026-01-16 02:49:54.49	192.79	20.84	-34.6	-35.9	29.2	3.02e+01	92	29	0	351797248	44	6001
2026-01-16 02:49:55.50	192.92	20.98	-34.8	-36.0	29.1	3.02e+01	91	29	0	353370112	44	6125
2026-01-16 02:49:56.51	193.06	21.12	-34.8	-36.1	29.0	3.02e+01	90	29	0	355467264	44	6153
2026-01-16 02:49:57.52	193.19	21.26	-34.5	-35.7	29.3	3.02e+01	92	29	0	357564416	44	5881
2026-01-16 02:49:58.53	193.33	21.40	-34.6	-35.8	29.2	3.02e+01	92	29	0	359137280	44	5978
2026-01-16 02:49:59.54	193.46	21.54	-34.6	-35.8	29.2	3.02e+01	91	29	0	361234432	44	5981
2026-01-16 02:50:00.55	193.60	21.69	-34.6	-35.8	29.2	3.02e+01	92	29	0	362807296	44	5987
2026-01-16 02:50:01.56	193.74	21.83	-34.8	-36.0	29.2	3.02e+01	92	29	0	364904448	44	6103
2026-01-16 02:50:02.57	193.88	21.97	-34.8	-36.0	29.1	3.02e+01	92	29	0	367001600	44	6107
2026-01-16 02:50:03.58	194.02	22.12	-34.8	-36.0	29.1	3.02e+01	92	29	0	368574464	44	6107
2026-01-16 02:50:04.59	194.17	22.27	-34.9	-36.1	29.0	3.02e+01	90	29	0	370671616	44	6205
2026-01-16 02:50:05.59	194.31	22.41	-34.5	-35.7	29.4	3.02e+01	91	29	0	372244480	44	5913
2026-01-16 02:50:06.60	194.46	22.56	-34.7	-35.9	29.2	3.02e+01	84	29	0	374341632	44	6020
2026-01-16 02:50:07.61	194.61	22.71	-34.7	-35.9	29.3	3.02e+01	91	29	0	376438784	44	6033
2026-01-16 02:50:08.62	194.75	22.86	-34.8	-36.0	29.0	3.02e+01	90	29	0	378011648	44	6130
2026-01-16 02:50:09.63	194.91	23.01	-35.0	-36.3	29.0	3.02e+01	91	29	0	380108800	44	6302
2026-01-16 02:50:10.64	195.06	23.16	-35.0	-36.2	28.9	3.02e+01	92	29	0	382205952	44	6269
2026-01-16 02:50:11.65	195.21	23.31	-35.0	-36.2	29.0	3.02e+01	91	29	0	383778816	44	6260
2026-01-16 02:50:12.66	195.37	23.46	-34.9	-36.1	29.1	3.02e+01	92	29	0	385875968	44	6164
2026-01-16 02:50:13.67	195.52	23.61	-34.8	-36.0	29.2	3.02e+01	91	29	0	387448832	44	6120
2026-01-16 02:50:14.68	195.68	23.77	-34.9	-36.1	29.1	3.02e+01	91	29	0	389545984	44	6185
2026-01-16 02:50:15.69	195.84	23.92	-35.2	-36.5	28.8	3.02e+01	91	29	0	391643136	44	6455
2026-01-16 02:50:16.70	196.00	24.08	-35.1	-36.3	28.9	3.02e+01	92	29	0	393216000	44	6338
2026-01-16 02:50:17.70	196.16	24.23	-35.0	-36.3	29.0	3.02e+01	91	29	0	395313152	44	6284
2026-01-16 02:50:18.72	196.33	24.39	-35.1	-36.4	28.9	3.02e+01	91	29	0	396886016	44	6358
2026-01-16 02:50:19.72	196.50	24.55	-34.8	-36.0	29.2	3.02e+01	92	29	0	398983168	44	6113
2026-01-16 02:50:20.73	196.66	24.70	-34.9	-36.1	29.1	3.02e+01	92	29	0	401080320	44	6201
2026-01-16 02:50:21.74	196.83	24.86	-34.9	-36.1	29.2	3.02e+01	92	29	0	402653184	44	6200
2026-01-16 02:50:22.75	197.00	25.02	-35.1	-36.4	29.0	3.02e+01	92	29	0	404750336	44	6352
2026-01-16 02:50:23.76	197.18	25.18	-35.1	-36.4	28.9	3.02e+01	92	29	0	406323200	44	6378
2026-01-16 02:50:24.77	197.35	25.35	-34.9	-36.2	29.1	3.02e+01	92	29	0	408420352	44	6215
2026-01-16 02:50:25.78	197.53	25.51	-34.9	-36.1	29.1	3.02e+01	88	29	0	410517504	44	6166
2026-01-16 02:50:26.79	197.71	25.67	-34.9	-36.1	29.1	3.02e+01	92	29	0	412090368	44	6180
2026-01-16 02:50:27.80	197.89	25.84	-35.1	-36.3	28.9	3.02e+01	92	29	0	414187520	44	6318
2026-01-16 02:50:28.81	198.07	26.00	-35.4	-36.6	28.7	3.02e+01	93	29	0	415760384	44	6571
2026-01-16 02:50:29.82	198.26	26.17	-35.0	-36.2	29.0	3.02e+01	91	29	0	417857536	44	6258
2026-01-16 02:50:30.83	198.44	26.33	-34.8	-36.1	29.2	3.02e+01	92	29	0	419954688	44	6141
2026-01-16 02:50:31.84	198.63	26.50	-34.7	-35.9	29.2	3.02e+01	92	29	0	421527552	44	6043
2026-01-16 02:50:32.85	198.82	26.67	-34.8	-36.0	29.2	3.02e+01	90	29	0	423624704	44	6082
2026-01-16 02:50:33.86	199.01	26.84	-34.6	-35.8	29.4	3.02e+01	92	29	0	425721856	44	5952
2026-01-16 02:50:34.87	199.21	27.01	-34.6	-35.8	29.3	3.02e+01	92	29	0	427294720	44	5983
2026-01-16 02:50:35.88	199.41	27.18	-34.7	-36.0	29.2	3.02e+01	92	29	0	429391872	44	6075
2026-01-16 02:50:36.89	199.61	27.35	-34.7	-35.9	29.3	3.02e+01	92	29	0	430964736	44	6013
2026-01-16 02:50:37.89	199.80	27.52	-34.5	-35.8	29.4	3.02e+01	92	29	0	433061888	44	5939
2026-01-16 02:50:38.91	200.01	27.69	-34.6	-35.9	29.3	3.02e+01	92	29	0	435159040	44	6000
2026-01-16 02:50:39.92	200.22	27.87	-34.7	-36.0	29.2	3.02e+01	91	29	0	436731904	44	6089
2026-01-16 02:50:40.93	200.42	28.04	-34.6	-35.8	29.4	3.02e+01	92	29	0	438829056	44	5953
2026-01-16 02:50:41.94	200.63	28.22	-34.6	-35.8	29.4	3.02e+01	91	29	0	440401920	44	5957
2026-01-16 02:50:42.94	200.84	28.39	-34.5	-35.8	29.4	3.02e+01	90	29	0	442499072	44	5934
2026-01-16 02:50:43.95	201.06	28.57	-34.6	-35.9	29.4	3.02e+01	89	29	0	444596224	44	6007
2026-01-16 02:50:44.96	201.28	28.75	-34.7	-35.9	29.3	3.02e+01	92	29	0	446169088	44	6056
2026-01-16 02:50:45.97	201.50	28.92	-34.7	-35.9	29.3	3.02e+01	90	29	0	448266240	44	6012
2026-01-16 02:50:46.98	201.72	29.10	-34.7	-35.9	29.3	3.02e+01	92	29	0	450363392	44	6063
2026-01-16 02:50:47.99	201.94	29.28	-34.9	-36.1	29.1	3.02e+01	92	29	0	451936256	44	6179
2026-01-16 02:50:49.00	202.17	29.46	-34.5	-35.7	29.5	3.02e+01	92	29	0	454033408	44	5875
2026-01-16 02:50:50.01	202.40	29.65	-34.4	-35.6	29.5	3.02e+01	92	29	0	455606272	44	5814
2026-01-16 02:50:51.02	202.63	29.83	-34.5	-35.7	29.5	3.02e+01	92	29	0	457703424	44	5913
2026-01-16 02:50:52.03	202.87	30.01	-34.7	-35.9	29.3	3.02e+01	92	29	0	459276288	44	6017
2026-01-16 02:50:53.04	203.11	30.20	-34.7	-36.0	29.2	3.02e+01	91	29	0	461373440	44	6076
2026-01-16 02:50:54.05	203.35	30.38	-35.0	-36.2	29.1	3.02e+01	90	30	0	463470592	44	6231
2026-01-16 02:50:55.05	203.59	30.56	-34.7	-35.9	29.2	3.02e+01	91	29	0	465043456	44	6044
2026-01-16 02:50:56.06	203.83	30.75	-34.7	-35.9	29.3	3.02e+01	92	29	0	467140608	44	6030
2026-01-16 02:50:57.07	204.08	30.94	-34.7	-35.9	29.3	3.02e+01	90	29	0	468713472	44	6027
2026-01-16 02:50:58.08	204.33	31.12	-34.6	-35.9	29.3	3.02e+01	90	29	0	470810624	44	5998
2026-01-16 02:50:59.09	204.59	31.31	-34.8	-36.1	29.2	3.02e+01	92	29	0	472907776	44	6138
2026-01-16 02:51:00.10	204.85	31.50	-34.6	-35.9	29.3	3.02e+01	91	29	0	474480640	44	6000
2026-01-16 02:51:01.11	205.11	31.69	-34.8	-36.0	29.2	3.02e+01	91	29	0	476577792	44	6081
2026-01-16 02:51:02.12	205.37	31.88	-34.7	-35.9	29.2	3.02e+01	91	29	0	478674944	44	6042
2026-01-16 02:51:03.12	205.64	32.07	-34.9	-36.1	29.2	3.02e+01	92	29	0	480247808	44	6180
2026-01-16 02:51:04.13	205.91	32.26	-35.1	-36.3	29.0	3.02e+01	92	29	0	482344960	44	6329
2026-01-16 02:51:05.14	206.18	32.45	-35.0	-36.2	29.0	3.02e+01	92	30	0	483917824	44	6275
2026-01-16 02:51:06.15	206.46	32.65	-34.9	-36.1	29.1	3.02e+01	92	30	0	486014976	44	6171
2026-01-16 02:51:07.16	206.74	32.84	-35.0	-36.2	29.0	3.02e+01	89	30	0	488112128	44	6261
2026-01-16 02:51:08.17	207.02	33.03	-35.4	-36.6	28.8	3.02e+01	92	30	0	489684992	44	6535
2026-01-16 02:51:09.18	207.31	33.23	-35.7	-36.9	28.5	3.02e+01	90	30	0	491782144	44	6784
2026-01-16 02:51:10.19	207.60	33.42	-35.2	-36.4	28.9	3.02e+01	91	29	0	493879296	44	6399
2026-01-16 02:51:11.20	207.90	33.62	-35.3	-36.5	28.7	3.02e+01	92	30	0	495452160	44	6469
2026-01-16 02:51:12.21	208.19	33.82	-35.5	-36.8	28.5	3.02e+01	91	30	0	497549312	44	6663
2026-01-16 02:51:13.22	208.50	34.01	-35.5	-36.8	28.6	3.02e+01	91	30	0	499122176	44	6657
2026-01-16 02:51:14.23	208.80	34.21	-35.3	-36.5	28.8	3.02e+01	92	30	0	501219328	44	6469
2026-01-16 02:51:15.24	209.11	34.41	-35.2	-36.4	28.8	3.02e+01	90	30	0	503316480	44	6390
2026-01-16 02:51:16.25	209.42	34.61	-35.4	-36.6	28.7	3.02e+01	92	29	0	504889344	44	6570
2026-01-16 02:51:17.26	209.74	34.80	-35.6	-36.8	28.6	3.02e+01	90	29	0	506986496	44	6695
2026-01-16 02:51:18.27	210.06	35.00	-35.5	-36.8	28.6	3.02e+01	92	30	0	508559360	44	6694
2026-01-16 02:51:19.28	210.39	35.20	-35.5	-36.7	28.5	3.02e+01	91	30	0	510656512	44	6642
2026-01-16 02:51:20.28	210.71	35.40	-35.6	-36.9	28.5	3.02e+01	92	30	0	512753664	44	6747
2026-01-16 02:51:21.29	211.04	35.60	-35.4	-36.7	28.6	3.02e+01	91	30	0	514326528	44	6595
2026-01-16 02:51:22.30	211.38	35.80	-35.5	-36.8	28.5	3.02e+01	92	30	0	516423680	44	6667
2026-01-16 02:51:23.31	211.72	36.00	-35.8	-37.1	28.3	3.02e+01	93	30	0	517996544	44	6935
2026-01-16 02:51:24.32	212.07	36.20	-35.4	-36.6	28.7	3.02e+01	92	30	0	520093696	44	6565
2026-01-16 02:51:25.33	212.42	36.40	-35.6	-36.8	28.5	3.02e+01	90	30	0	522190848	44	6722
2026-01-16 02:51:26.34	212.77	36.60	-35.8	-37.1	28.5	3.02e+01	92	30	0	523763712	44	6907
2026-01-16 02:51:27.35	213.13	36.80	-35.9	-37.2	28.3	3.02e+01	92	30	0	525860864	46	6208
2026-01-16 02:51:28.36	213.49	37.00	-35.8	-37.1	28.4	3.02e+01	92	30	0	527433728	46	6158
2026-01-16 02:51:29.37	213.86	37.21	-35.9	-37.1	28.4	3.02e+01	92	30	0	529530880	46	6183
2026-01-16 02:51:30.37	214.23	37.40	-35.8	-37.1	28.4	3.02e+01	92	30	0	531628032	46	6137
2026-01-16 02:51:31.38	214.60	37.61	-35.8	-37.0	28.3	3.02e+01	92	30	0	533200896	46	6132
2026-01-16 02:51:32.39	214.98	37.81	-35.9	-37.2	28.3	3.02e+01	92	30	0	535298048	46	6229
2026-01-16 02:51:33.40	215.37	38.01	-35.8	-37.1	28.4	3.02e+01	92	30	0	536870912	46	6174
2026-01-16 02:51:34.41	215.76	38.21	-35.8	-37.0	28.4	3.02e+01	92	30	0	538968064	46	6112
2026-01-16 02:51:35.42	216.16	38.41	-35.9	-37.2	28.3	3.02e+01	92	30	0	541065216	46	6221
2026-01-16 02:51:36.43	216.56	38.61	-35.8	-37.0	28.3	3.02e+01	92	30	0	542638080	46	6113
2026-01-16 02:51:37.44	216.96	38.81	-35.8	-37.0	28.4	3.02e+01	92	30	0	544735232	46	6110
2026-01-16 02:51:38.45	217.37	39.01	-35.6	-36.9	28.5	3.02e+01	91	30	0	546832384	46	6020
2026-01-16 02:51:39.46	217.79	39.21	-35.7	-36.9	28.5	3.02e+01	87	30	0	548405248	46	6057
2026-01-16 02:51:40.47	218.21	39.41	-35.5	-36.7	28.6	3.02e+01	91	30	0	550502400	46	5921
2026-01-16 02:51:41.48	218.64	39.61	-35.5	-36.8	28.6	3.02e+01	90	30	0	552075264	46	5943
2026-01-16 02:51:42.49	219.07	39.80	-35.4	-36.6	28.7	3.02e+01	92	30	0	554172416	46	5841
2026-01-16 02:51:43.50	219.51	40.00	-35.2	-36.5	28.8	3.02e+01	92	30	0	556269568	46	5745
2026-01-16 02:51:44.51	219.95	40.20	-34.7	-35.9	29.3	3.02e+01	92	30	0	557842432	44	6028
2026-01-16 02:51:45.52	220.40	40.39	-34.7	-36.0	29.2	3.02e+01	92	30	0	559939584	44	6071
2026-01-16 02:51:46.53	220.85	40.59	-34.7	-35.9	29.2	3.02e+01	92	30	0	561512448	44	6041
2026-01-16 02:51:47.54	221.31	40.78	-34.6	-35.9	29.3	3.02e+01	92	30	0	563609600	44	6012
2026-01-16 02:51:48.55	221.77	40.98	-34.6	-35.8	29.4	3.02e+01	91	30	0	565706752	44	5986
2026-01-16 02:51:49.56	222.24	41.17	-34.7	-36.0	29.3	3.02e+01	92	30	0	567279616	44	6085
2026-01-16 02:51:50.56	222.71	41.36	-34.5	-35.7	29.4	3.02e+01	91	30	0	569376768	44	5923
2026-01-16 02:51:51.57	223.19	41.55	-34.3	-35.5	29.6	3.02e+01	92	30	0	570949632	44	5760
2026-01-16 02:51:52.58	223.68	41.74	-34.6	-35.9	29.3	3.02e+01	92	30	0	573046784	44	6011
2026-01-16 02:51:53.59	224.17	41.92	-34.5	-35.7	29.6	3.02e+01	90	30	0	575143936	44	5904
2026-01-16 02:51:54.60	224.67	42.11	-34.3	-35.5	29.7	3.02e+01	92	30	0	576716800	44	5749
2026-01-16 02:51:55.61	225.17	42.30	-34.5	-35.7	29.6	3.02e+01	91	30	0	578813952	44	5900
2026-01-16 02:51:56.61	225.68	42.48	-34.2	-35.3	29.8	3.02e+01	90	30	0	580386816	44	5659
2026-01-16 02:51:57.62	226.19	42.66	-34.2	-35.4	29.7	3.02e+01	92	30	0	582483968	44	5706
2026-01-16 02:51:58.63	226.71	42.84	-34.1	-35.3	29.9	3.02e+01	92	30	0	584581120	44	5601
2026-01-16 02:51:59.64	227.24	43.02	-34.1	-35.3	29.9	3.02e+01	90	30	0	586153984	44	5602
2026-01-16 02:52:00.65	227.77	43.19	-34.1	-35.3	29.8	3.02e+01	92	30	0	588251136	44	5640
2026-01-16 02:52:01.66	228.31	43.37	-33.9	-35.1	30.0	3.02e+01	92	30	0	590348288	42	6191
2026-01-16 02:52:02.67	228.86	43.54	-34.0	-35.2	30.0	3.02e+01	92	30	0	591921152	42	6243
2026-01-16 02:52:03.68	229.41	43.71	-33.8	-35.0	30.1	3.02e+01	92	30	0	594018304	42	6109
2026-01-16 02:52:04.69	229.96	43.88	-33.8	-34.9	30.1	3.02e+01	92	30	0	595591168	42	6064
2026-01-16 02:52:05.69	230.52	44.05	-33.9	-35.0	30.1	3.02e+01	92	30	0	597688320	42	6131
2026-01-16 02:52:06.70	231.09	44.21	-34.0	-35.2	30.1	3.02e+01	92	30	0	599785472	42	6210
2026-01-16 02:52:07.71	231.66	44.38	-33.8	-35.0	30.1	3.02e+01	85	30	0	601358336	42	6094
2026-01-16 02:52:08.72	232.24	44.54	-33.8	-35.0	30.1	3.02e+01	92	30	0	603455488	42	6108
2026-01-16 02:52:09.73	232.83	44.69	-33.9	-35.1	30.1	3.02e+01	92	30	0	605028352	42	6184
2026-01-16 02:52:10.74	233.42	44.85	-34.2	-35.4	29.8	3.02e+01	92	30	0	607125504	42	6421
2026-01-16 02:52:11.75	234.02	45.00	-34.2	-35.4	30.0	3.02e+01	92	30	0	609222656	42	6359
2026-01-16 02:52:12.76	234.62	45.15	-33.8	-35.0	30.1	3.02e+01	91	30	0	610795520	42	6125
2026-01-16 02:52:13.77	235.23	45.30	-33.9	-35.1	30.1	3.02e+01	92	30	0	612892672	42	6180
2026-01-16 02:52:14.77	235.84	45.44	-34.0	-35.2	29.9	3.02e+01	92	30	0	614465536	42	6256
2026-01-16 02:52:15.78	236.46	45.58	-34.1	-35.3	29.9	3.02e+01	92	30	0	616562688	42	6342
2026-01-16 02:52:16.79	237.09	45.72	-33.8	-35.0	30.1	3.02e+01	92	30	0	618659840	42	6091
2026-01-16 02:52:17.80	237.72	45.85	-33.9	-35.1	30.0	3.02e+01	92	30	0	620232704	42	6191
2026-01-16 02:52:18.80	238.35	45.98	-34.1	-35.3	29.9	3.02e+01	92	30	0	622329856	42	6294
2026-01-16 02:52:19.81	238.99	46.11	-34.1	-35.3	29.8	3.02e+01	92	30	0	623902720	42	6332
2026-01-16 02:52:20.82	239.64	46.23	-34.3	-35.5	29.8	3.02e+01	92	30	0	625999872	42	6439
2026-01-16 02:52:21.83	240.29	46.35	-34.3	-35.5	29.6	3.02e+01	91	30	0	628097024	42	6453
2026-01-16 02:52:22.84	240.94	46.47	-34.5	-35.7	29.4	3.02e+01	91	30	0	629669888	42	6601
2026-01-16 02:52:23.84	241.60	46.58	-34.1	-35.3	29.7	3.02e+01	90	30	0	631767040	42	6322
2026-01-16 02:52:24.85	242.26	46.69	-34.1	-35.3	29.9	3.02e+01	92	30	0	633339904	42	6289
2026-01-16 02:52:25.86	242.94	46.79	-34.4	-35.6	29.5	3.02e+01	90	30	0	635437056	42	6537
2026-01-16 02:52:26.87	243.61	46.90	-34.6	-35.8	29.5	3.02e+01	91	30	0	637534208	42	6656
2026-01-16 02:52:27.88	244.29	46.99	-34.0	-35.2	29.9	3.02e+01	92	30	0	639107072	42	6238
2026-01-16 02:52:28.89	244.97	47.09	-34.3	-35.5	29.7	3.02e+01	89	30	0	641204224	42	6431
2026-01-16 02:52:29.90	245.66	47.18	-34.2	-35.4	29.8	3.02e+01	88	30	0	643301376	42	6413
2026-01-16 02:52:30.91	246.35	47.26	-34.5	-35.7	29.6	3.02e+01	91	30	0	644874240	42	6605
2026-01-16 02:52:31.91	247.04	47.34	-34.3	-35.5	29.7	3.02e+01	92	30	0	646971392	42	6469
2026-01-16 02:52:32.93	247.75	47.42	-34.4	-35.6	29.7	3.02e+01	92	30	0	648544256	42	6507
2026-01-16 02:52:33.94	248.45	47.49	-34.6	-35.8	29.6	3.02e+01	92	30	0	650641408	42	6656
2026-01-16 02:52:34.95	249.15	47.56	-34.5	-35.7	29.6	3.02e+01	92	30	0	652738560	42	6611
2026-01-16 02:52:35.95	249.86	47.62	-34.4	-35.6	29.6	3.02e+01	91	30	0	654311424	42	6527
2026-01-16 02:52:36.96	250.57	47.68	-34.6	-35.8	29.4	3.02e+01	92	30	0	656408576	42	6665
2026-01-16 02:52:37.97	251.28	47.74	-34.5	-35.7	29.5	3.02e+01	92	30	0	657981440	42	6582
2026-01-16 02:52:38.98	252.00	47.79	-34.6	-35.8	29.4	3.02e+01	92	30	0	660078592	42	6699
2026-01-16 02:52:39.99	252.71	47.83	-34.4	-35.6	29.6	3.02e+01	92	30	0	662175744	42	6507
2026-01-16 02:52:41.00	253.43	47.87	-34.9	-36.2	29.3	3.02e+01	92	30	0	663748608	42	6985
2026-01-16 02:52:42.01	254.16	47.91	-35.0	-36.2	29.1	3.02e+01	92	30	0	665845760	44	6251
2026-01-16 02:52:43.02	254.88	47.94	-34.8	-36.0	29.4	3.02e+01	92	30	0	667418624	44	6082
2026-01-16 02:52:44.03	255.60	47.96	-34.6	-35.8	29.4	3.02e+01	92	30	0	669515776	44	5983
2026-01-16 02:52:45.04	256.33	47.98	-34.6	-35.8	29.4	3.02e+01	91	30	0	671612928	44	5976
2026-01-16 02:52:46.05	257.06	48.00	-34.6	-35.8	29.4	3.02e+01	92	30	0	673185792	44	5984
2026-01-16 02:52:47.05	257.78	48.01	-34.4	-35.6	29.5	3.02e+01	92	30	0	675282944	44	5828
2026-01-16 02:52:48.06	258.50	48.02	-35.0	-36.2	29.0	3.02e+01	90	30	0	676855808	44	6271
2026-01-16 02:52:49.07	259.23	48.02	-34.5	-35.7	29.5	3.02e+01	83	30	0	678952960	44	5896
2026-01-16 02:52:50.08	259.96	48.02	-34.9	-36.1	29.1	3.02e+01	92	30	0	681050112	44	6178
2026-01-16 02:52:51.09	260.69	48.01	-34.6	-35.8	29.4	3.02e+01	90	30	0	682622976	44	5975
2026-01-16 02:52:52.10	261.41	48.00	-35.2	-36.4	28.9	3.02e+01	90	30	0	684720128	44	6403
2026-01-16 02:52:53.11	262.14	47.98	-34.6	-35.8	29.5	3.02e+01	91	30	0	686817280	44	5968
2026-01-16 02:52:54.12	262.86	47.96	-35.0	-36.3	29.1	3.02e+01	89	30	0	688390144	44	6278
2026-01-16 02:52:55.13	263.59	47.93	-34.6	-35.8	29.4	3.02e+01	91	30	0	690487296	44	5954
2026-01-16 02:52:56.14	264.31	47.90	-34.9	-36.2	29.1	3.02e+01	92	30	0	692060160	44	6214
2026-01-16 02:52:57.15	265.03	47.86	-34.8	-36.0	29.2	3.02e+01	89	30	0	694157312	44	6127
2026-01-16 02:52:58.16	265.75	47.82	-35.0	-36.3	29.1	3.02e+01	90	30	0	696254464	44	6284
2026-01-16 02:52:59.17	266.47	47.77	-34.6	-35.7	29.3	3.02e+01	92	30	0	697827328	44	5921
2026-01-16 02:53:00.18	267.18	47.72	-35.1	-36.4	28.9	3.02e+01	92	30	0	699924480	44	6371
2026-01-16 02:53:01.19	267.89	47.66	-34.9	-36.2	29.2	3.02e+01	92	30	0	701497344	44	6207
2026-01-16 02:53:02.20	268.60	47.60	-35.0	-36.2	29.1	3.02e+01	90	30	0	703594496	44	6239
2026-01-16 02:53:03.20	269.30	47.54	-34.6	-35.7	29.4	3.02e+01	92	30	0	705691648	44	5919
2026-01-16 02:53:04.21	270.01	47.47	-34.9	-36.1	29.1	3.02e+01	92	30	0	707264512	44	6177
2026-01-16 02:53:05.22	270.71	47.40	-35.2	-36.5	28.8	3.02e+01	92	30	0	709361664	44	6450
2026-01-16 02:53:06.23	271.40	47.32	-35.3	-36.5	28.9	3.02e+01	92	30	0	711458816	44	6483
2026-01-16 02:53:07.24	272.10	47.24	-34.8	-36.0	29.3	3.02e+01	92	30	0	713031680	44	6097
2026-01-16 02:53:08.25	272.79	47.15	-35.3	-36.5	29.1	3.02e+01	89	30	0	715128832	44	6454
2026-01-16 02:53:09.26	273.47	47.06	-35.2	-36.5	29.0	3.02e+01	90	30	0	716701696	44	6447
2026-01-16 02:53:10.27	274.16	46.97	-35.3	-36.6	28.8	3.02e+01	92	30	0	718798848	44	6515
2026-01-16 02:53:11.28	274.83	46.87	-35.2	-36.5	28.9	3.02e+01	92	30	0	720896000	44	6428
2026-01-16 02:53:12.29	275.51	46.76	-34.7	-35.9	29.3	3.02e+01	92	30	0	722468864	44	6041
2026-01-16 02:53:13.30	276.17	46.66	-34.7	-35.9	29.4	3.02e+01	90	30	0	724566016	44	6063
2026-01-16 02:53:14.31	276.84	46.55	-34.9	-36.2	29.1	3.02e+01	92	30	0	726138880	44	6220
2026-01-16 02:53:15.32	277.50	46.43	-35.0	-36.2	29.0	3.02e+01	94	30	0	728236032	44	6250
2026-01-16 02:53:16.33	278.15	46.32	-35.0	-36.3	29.0	3.02e+01	91	30	0	729808896	44	6299
2026-01-16 02:53:17.34	278.80	46.19	-34.4	-35.6	29.6	3.02e+01	92	30	0	731906048	44	5827
2026-01-16 02:53:18.35	279.44	46.07	-35.0	-36.2	29.1	3.02e+01	92	30	0	734003200	44	6250
2026-01-16 02:53:19.36	280.08	45.94	-34.9	-36.1	29.1	3.02e+01	92	30	0	735576064	44	6167
2026-01-16 02:53:20.37	280.72	45.81	-34.8	-36.0	29.3	3.02e+01	91	30	0	737673216	44	6085
2026-01-16 02:53:21.37	281.34	45.68	-34.7	-35.9	29.5	3.02e+01	91	30	0	739770368	44	6024
2026-01-16 02:53:22.38	281.96	45.54	-34.8	-36.0	29.3	3.02e+01	92	30	0	741343232	44	6087
2026-01-16 02:53:23.39	282.58	45.40	-34.8	-36.1	29.2	3.02e+01	91	30	0	743440384	44	6144
2026-01-16 02:53:24.40	283.19	45.25	-34.9	-36.2	29.1	3.02e+01	92	30	0	745013248	44	6238
2026-01-16 02:53:25.41	283.80	45.11	-34.7	-36.0	29.3	3.02e+01	90	30	0	747110400	44	6066
2026-01-16 02:53:26.42	284.40	44.96	-34.8	-36.0	29.3	3.02e+01	92	30	0	749207552	44	6089
2026-01-16 02:53:27.43	284.99	44.80	-34.7	-35.9	29.3	3.02e+01	91	30	0	750780416	44	6038
2026-01-16 02:53:28.44	285.58	44.65	-34.9	-36.1	29.1	3.02e+01	92	30	0	752877568	44	6193
2026-01-16 02:53:29.44	286.16	44.49	-34.7	-35.9	29.4	3.02e+01	91	30	0	754974720	44	6026
2026-01-16 02:53:30.45	286.73	44.33	-34.7	-35.9	29.3	3.02e+01	89	30	0	756547584	44	6018
2026-01-16 02:53:31.46	287.30	44.17	-34.7	-35.9	29.3	3.02e+01	92	30	0	758644736	44	6025
2026-01-16 02:53:32.47	287.87	44.01	-34.7	-35.9	29.3	3.02e+01	92	30	0	760217600	44	6032
2026-01-16 02:53:33.48	288.43	43.84	-34.8	-36.0	29.3	3.02e+01	90	30	0	762314752	44	6110
2026-01-16 02:53:34.49	288.98	43.67	-34.8	-36.0	29.3	3.02e+01	90	30	0	764411904	44	6105
2026-01-16 02:53:35.50	289.53	43.50	-34.8	-36.0	29.3	3.02e+01	92	30	0	765984768	44	6094
2026-01-16 02:53:36.51	290.07	43.33	-34.6	-35.8	29.4	3.02e+01	92	30	0	768081920	44	5969
2026-01-16 02:53:37.52	290.61	43.15	-34.6	-35.9	29.4	3.02e+01	92	30	0	769654784	44	6005
2026-01-16 02:53:38.53	291.14	42.97	-35.0	-36.2	29.1	3.02e+01	92	30	0	771751936	44	6259
2026-01-16 02:53:39.54	291.66	42.79	-34.9	-36.2	29.0	3.02e+01	92	30	0	773849088	44	6216
2026-01-16 02:53:40.55	292.18	42.61	-34.8	-36.1	29.1	3.02e+01	91	30	0	775421952	44	6153
2026-01-16 02:53:41.56	292.69	42.43	-34.9	-36.1	29.2	3.02e+01	92	30	0	777519104	44	6160
2026-01-16 02:53:42.57	293.20	42.25	-34.8	-36.1	29.2	3.02e+01	92	30	0	779091968	44	6155
2026-01-16 02:53:43.58	293.70	42.06	-34.9	-36.1	29.1	3.02e+01	92	30	0	781189120	44	6200
2026-01-16 02:53:44.59	294.20	41.88	-35.3	-36.6	28.9	3.02e+01	92	30	0	783286272	44	6506
2026-01-16 02:53:45.59	294.68	41.69	-35.0	-36.2	29.1	3.02e+01	92	30	0	784859136	44	6277
2026-01-16 02:53:46.60	295.16	41.50	-35.1	-36.3	28.9	3.02e+01	91	30	0	786956288	44	6328
2026-01-16 02:53:47.61	295.64	41.32	-35.0	-36.3	29.0	3.02e+01	92	30	0	788529152	44	6313
2026-01-16 02:53:48.62	296.11	41.12	-35.3	-36.6	28.7	3.02e+01	90	30	0	790626304	44	6503
2026-01-16 02:53:49.63	296.58	40.93	-35.1	-36.3	28.9	3.02e+01	92	30	0	792723456	44	6349
2026-01-16 02:53:50.64	297.04	40.74	-35.1	-36.4	28.9	3.02e+01	92	30	0	794296320	44	6395
2026-01-16 02:53:51.64	297.49	40.55	-35.1	-36.3	29.0	3.02e+01	90	30	0	796393472	44	6342
2026-01-16 02:53:52.65	297.94	40.35	-34.9	-36.2	29.1	3.02e+01	92	30	0	797966336	44	6216
2026-01-16 02:53:53.66	298.39	40.16	-35.1	-36.4	28.9	3.02e+01	90	30	0	800063488	44	6370
2026-01-16 02:53:54.67	298.83	39.96	-35.1	-36.3	28.9	3.02e+01	92	30	0	802160640	44	6345
2026-01-16 02:53:55.68	299.26	39.77	-35.1	-36.4	28.9	3.02e+01	92	30	0	803733504	44	6371
2026-01-16 02:53:56.69	299.69	39.57	-35.2	-36.4	28.9	3.02e+01	92	30	0	805830656	44	6411
2026-01-16 02:53:57.70	300.11	39.37	-35.1	-36.4	28.9	3.02e+01	92	30	0	807927808	44	6372
2026-01-16 02:53:58.71	300.53	39.17	-35.3	-36.6	28.8	3.02e+01	92	30	0	809500672	44	6499
2026-01-16 02:53:59.72	300.94	38.97	-35.3	-36.5	28.8	3.02e+01	92	30	0	811597824	44	6496
2026-01-16 02:54:00.73	301.35	38.78	-35.4	-36.7	28.8	3.02e+01	92	30	0	813170688	44	6596
2026-01-16 02:54:01.73	301.75	38.58	-35.3	-36.6	28.7	3.02e+01	92	30	0	815267840	44	6531
2026-01-16 02:54:02.74	302.15	38.38	-35.1	-36.3	29.0	3.02e+01	92	30	0	817364992	44	6350
2026-01-16 02:54:03.76	302.55	38.18	-34.9	-36.1	29.1	3.02e+01	90	30	0	818937856	44	6161
2026-01-16 02:54:04.76	302.93	37.98	-34.9	-36.2	29.2	3.02e+01	59	30	0	821035008	44	6223
2026-01-16 02:54:05.77	303.31	37.78	-34.9	-36.1	29.2	3.02e+01	58	30	0	822607872	44	6165
2026-01-16 02:54:06.78	303.69	37.58	-34.9	-36.1	29.2	3.02e+01	48	30	0	824705024	44	6195
2026-01-16 02:54:07.79	304.07	37.38	-34.5	-35.6	29.5	3.02e+01	61	30	0	826802176	44	5856
2026-01-16 02:54:08.80	304.44	37.18	-34.7	-35.9	29.4	3.02e+01	58	30	0	828375040	44	6023
2026-01-16 02:54:09.81	304.80	36.98	-34.7	-36.0	29.3	3.02e+01	58	30	0	830472192	44	6073
2026-01-16 02:54:10.82	305.16	36.78	-34.5	-35.8	29.4	3.02e+01	58	30	0	832045056	44	5928
2026-01-16 02:54:11.83	305.52	36.58	-34.4	-35.6	29.6	3.02e+01	47	30	0	834142208	44	5844
2026-01-16 02:54:12.84	305.87	36.38	-34.6	-35.8	29.5	3.02e+01	61	30	0	836239360	44	5938
2026-01-16 02:54:13.85	306.22	36.18	-34.4	-35.7	29.6	3.02e+01	60	30	0	837812224	44	5861
2026-01-16 02:54:14.86	306.56	35.98	-34.2	-35.4	29.8	3.02e+01	63	30	0	839909376	44	5701
2026-01-16 02:54:15.87	306.90	35.78	-34.0	-35.2	29.9	3.02e+01	59	30	0	841482240	44	5589
2026-01-16 02:54:16.88	307.24	35.58	-34.1	-35.2	29.9	3.02e+01	61	30	0	843579392	44	5586
2026-01-16 02:54:17.88	307.56	35.38	-34.0	-35.2	30.0	3.02e+01	59	30	0	845676544	42	6220
2026-01-16 02:54:18.89	307.89	35.19	-34.0	-35.2	30.0	3.02e+01	62	30	0	847249408	42	6253
2026-01-16 02:54:19.90	308.21	34.99	-33.9	-35.1	30.1	3.02e+01	51	30	0	849346560	42	6162
2026-01-16 02:54:20.91	308.53	34.79	-33.7	-34.9	30.2	3.02e+01	61	30	0	850919424	42	6020
2026-01-16 02:54:21.92	308.85	34.59	-33.5	-34.6	30.5	3.02e+01	58	30	0	853016576	42	5845
2026-01-16 02:54:22.93	309.16	34.40	-33.6	-34.8	30.4	3.02e+01	60	30	0	855113728	42	5945
2026-01-16 02:54:23.94	309.46	34.20	-33.7	-34.8	30.4	3.02e+01	59	30	0	856686592	42	5988
2026-01-16 02:54:24.95	309.77	34.00	-33.6	-34.8	30.3	3.02e+01	56	30	0	858783744	42	5982
2026-01-16 02:54:25.96	310.07	33.81	-33.6	-34.8	30.4	3.02e+01	56	30	0	860880896	42	5950
2026-01-16 02:54:26.97	310.36	33.61	-33.5	-34.7	30.4	3.02e+01	60	30	0	862453760	42	5900
2026-01-16 02:54:27.98	310.66	33.42	-33.3	-34.5	30.6	3.02e+01	45	30	0	864550912	42	5757
2026-01-16 02:54:28.99	310.95	33.22	-33.2	-34.4	30.7	3.02e+01	60	30	0	866123776	42	5691
2026-01-16 02:54:30.00	311.23	33.03	-33.1	-34.3	30.8	3.02e+01	57	30	0	868220928	42	5617
2026-01-16 02:54:31.01	311.51	32.84	-33.1	-34.2	30.7	3.02e+01	58	30	0	870318080	42	5591
2026-01-16 02:54:32.02	311.79	32.65	-33.1	-34.3	30.8	3.02e+01	60	30	0	871890944	42	5623
2026-01-16 02:54:33.02	312.07	32.46	-33.2	-34.3	30.7	3.02e+01	53	30	0	873988096	42	5656
2026-01-16 02:54:34.03	312.34	32.27	-33.2	-34.4	30.6	3.02e+01	60	30	0	876085248	42	5666
2026-01-16 02:54:35.04	312.61	32.08	-33.1	-34.3	30.6	3.02e+01	57	30	0	877658112	42	5629
2026-01-16 02:54:36.05	312.87	31.89	-33.1	-34.3	30.6	3.02e+01	51	30	0	879755264	42	5632
2026-01-16 02:54:37.06	313.14	31.70	-33.3	-34.4	30.5	3.02e+01	60	30	0	881328128	42	5717
2026-01-16 02:54:38.07	313.40	31.51	-33.3	-34.5	30.6	3.02e+01	60	30	0	883425280	42	5736
2026-01-16 02:54:39.08	313.65	31.32	-33.4	-34.5	30.5	3.02e+01	60	30	0	884998144	42	5776
2026-01-16 02:54:40.09	313.91	31.13	-33.1	-34.2	30.8	3.02e+01	60	30	0	887095296	42	5592
2026-01-16 02:54:41.10	314.16	30.95	-33.1	-34.3	30.6	3.02e+01	48	30	0	889192448	42	5620
2026-01-16 02:54:42.11	314.41	30.76	-33.1	-34.3	30.6	3.02e+01	61	30	0	890765312	42	5609
2026-01-16 02:54:43.12	314.65	30.58	-33.1	-34.3	30.6	3.02e+01	59	30	0	892862464	42	5631
2026-01-16 02:54:44.13	314.89	30.39	-33.3	-34.4	30.6	3.02e+01	47	30	0	894435328	42	5725
2026-01-16 02:54:45.13	315.13	30.21	-33.2	-34.4	30.5	3.02e+01	59	30	0	896532480	42	5682
2026-01-16 02:54:46.14	315.37	30.03	-33.2	-34.4	30.6	3.02e+01	55	29	0	898629632	42	5686
2026-01-16 02:54:47.15	315.60	29.85	-33.2	-34.3	30.6	3.02e+01	58	30	0	900202496	42	5655
2026-01-16 02:54:48.16	315.83	29.66	-33.2	-34.4	30.6	3.02e+01	63	30	0	902299648	42	5690
2026-01-16 02:54:49.17	316.06	29.48	-33.2	-34.4	30.6	3.02e+01	52	30	0	904396800	42	5665
2026-01-16 02:54:50.18	316.29	29.30	-33.2	-34.3	30.6	3.02e+01	58	30	0	905969664	42	5640
2026-01-16 02:54:51.18	316.51	29.13	-33.2	-34.3	30.6	3.02e+01	59	30	0	908066816	42	5638
2026-01-16 02:54:52.19	316.73	28.95	-33.1	-34.3	30.6	3.02e+01	53	30	0	909639680	42	5627
2026-01-16 02:54:53.20	316.95	28.77	-33.3	-34.5	30.5	3.02e+01	53	30	0	911736832	42	5728
2026-01-16 02:54:54.21	317.16	28.60	-33.5	-34.7	30.3	3.02e+01	46	30	0	913833984	42	5900
2026-01-16 02:54:55.22	317.38	28.42	-33.7	-34.8	30.3	3.02e+01	61	30	0	915406848	42	5990
2026-01-16 02:54:56.23	317.59	28.24	-33.8	-35.0	30.0	3.02e+01	60	30	0	917504000	42	6125
2026-01-16 02:54:57.23	317.80	28.07	-33.8	-35.0	30.0	3.02e+01	44	30	0	919076864	42	6116
2026-01-16 02:54:58.24	318.00	27.90	-34.1	-35.3	29.9	3.02e+01	59	29	0	921174016	42	6320
2026-01-16 02:54:59.25	318.21	27.73	-33.9	-35.1	29.9	3.02e+01	60	30	0	923271168	42	6197
2026-01-16 02:55:00.26	318.41	27.55	-33.8	-35.0	29.9	3.02e+01	59	30	0	924844032	42	6118
2026-01-16 02:55:01.27	318.61	27.38	-33.6	-34.8	30.2	3.02e+01	61	30	0	926941184	42	5927
2026-01-16 02:55:02.28	318.81	27.21	-33.6	-34.7	30.2	3.02e+01	44	30	0	929038336	42	5920
2026-01-16 02:55:03.29	319.01	27.04	-33.5	-34.7	30.2	3.02e+01	58	30	0	930611200	42	5910
2026-01-16 02:55:04.30	319.20	26.88	-33.6	-34.7	30.2	3.02e+01	60	30	0	932708352	42	5921
2026-01-16 02:55:05.31	319.39	26.71	-33.7	-34.9	30.0	3.02e+01	46	30	0	934281216	42	6009
2026-01-16 02:55:06.32	319.58	26.54	-33.6	-34.7	30.2	3.02e+01	59	30	0	936378368	42	5922
2026-01-16 02:55:07.33	319.77	26.37	-33.5	-34.7	30.2	3.02e+01	59	29	0	937951232	42	5888
2026-01-16 02:55:08.34	319.96	26.21	-33.6	-34.8	30.2	3.02e+01	60	30	0	940048384	42	5965
2026-01-16 02:55:09.34	320.14	26.05	-33.7	-34.9	30.1	3.02e+01	59	30	0	942145536	42	6029
2026-01-16 02:55:10.35	320.32	25.88	-33.9	-35.0	30.0	3.02e+01	58	30	0	943718400	42	6129
2026-01-16 02:55:11.36	320.50	25.72	-33.9	-35.1	29.9	3.02e+01	58	30	0	945815552	42	6195
2026-01-16 02:55:12.38	320.68	25.56	-34.1	-35.3	29.8	3.02e+01	57	30	0	947388416	42	6338
2026-01-16 02:55:13.38	320.85	25.40	-34.1	-35.3	29.9	3.02e+01	51	30	0	949485568	42	6306
2026-01-16 02:55:14.39	321.03	25.24	-33.9	-35.0	30.0	3.02e+01	59	30	0	951582720	42	6134
2026-01-16 02:55:15.40	321.20	25.08	-33.9	-35.0	30.0	3.02e+01	61	29	0	953155584	42	6126
2026-01-16 02:55:16.41	321.37	24.92	-34.0	-35.2	29.9	3.02e+01	58	30	0	955252736	42	6252
2026-01-16 02:55:17.42	321.54	24.76	-34.1	-35.3	29.8	3.02e+01	61	29	0	957349888	42	6295
2026-01-16 02:55:18.43	321.71	24.60	-34.0	-35.2	29.8	3.02e+01	55	30	0	958922752	42	6269
2026-01-16 02:55:19.43	321.87	24.45	-34.1	-35.3	29.8	3.02e+01	59	30	0	961019904	42	6284
2026-01-16 02:55:20.44	322.04	24.29	-34.1	-35.3	29.7	3.02e+01	57	29	0	962592768	42	6280
2026-01-16 02:55:21.45	322.20	24.13	-34.2	-35.4	29.7	3.02e+01	44	29	0	964689920	42	6358
2026-01-16 02:55:22.46	322.36	23.98	-34.2	-35.4	29.6	3.02e+01	60	29	0	966787072	42	6411
2026-01-16 02:55:23.47	322.52	23.83	-34.2	-35.4	29.7	3.02e+01	61	29	0	968359936	42	6388
2026-01-16 02:55:24.48	322.68	23.67	-34.2	-35.5	29.5	3.02e+01	60	29	0	970457088	42	6425
2026-01-16 02:55:25.49	322.83	23.52	-34.2	-35.5	29.5	3.02e+01	60	30	0	972554240	42	6424
2026-01-16 02:55:26.50	322.99	23.37	-34.3	-35.5	29.4	3.02e+01	50	30	0	974127104	42	6489
2026-01-16 02:55:27.51	323.14	23.22	-34.1	-35.3	29.7	3.02e+01	61	29	0	976224256	42	6321
2026-01-16 02:55:28.52	323.29	23.07	-34.2	-35.4	29.6	3.02e+01	59	30	0	977797120	42	6409
2026-01-16 02:55:29.53	323.44	22.92	-34.0	-35.2	29.7	3.02e+01	58	29	0	979894272	42	6249
2026-01-16 02:55:30.54	323.59	22.77	-34.0	-35.2	29.8	3.02e+01	60	30	0	981991424	42	6217
2026-01-16 02:55:31.55	323.74	22.63	-33.8	-35.0	29.9	3.02e+01	52	30	0	983564288	42	6116
2026-01-16 02:55:32.56	323.89	22.48	-33.9	-35.0	29.9	3.02e+01	59	30	0	985661440	42	6124
2026-01-16 02:55:33.56	324.03	22.33	-33.9	-35.1	29.9	3.02e+01	59	29	0	987234304	42	6162
2026-01-16 02:55:34.57	324.17	22.19	-34.0	-35.2	29.8	3.02e+01	47	29	0	989331456	42	6258
2026-01-16 02:55:35.58	324.31	22.04	-34.0	-35.2	29.7	3.02e+01	60	29	0	991428608	42	6221
2026-01-16 02:55:36.59	324.46	21.90	-34.2	-35.4	29.7	3.02e+01	57	30	0	993001472	42	6365
2026-01-16 02:55:37.60	324.59	21.76	-34.3	-35.5	29.7	3.02e+01	58	29	0	995098624	42	6434
2026-01-16 02:55:38.60	324.73	21.62	-34.1	-35.3	29.8	3.02e+01	58	29	0	996671488	42	6299
2026-01-16 02:55:39.61	324.87	21.48	-34.1	-35.3	29.7	3.02e+01	46	30	0	998768640	42	6343
2026-01-16 02:55:40.62	325.00	21.33	-34.0	-35.2	29.8	3.02e+01	59	29	0	1000865792	42	6242
2026-01-16 02:55:41.63	325.14	21.19	-34.1	-35.3	29.7	3.02e+01	59	30	0	1002438656	42	6304
2026-01-16 02:55:42.64	325.27	21.05	-34.0	-35.2	29.8	3.02e+01	46	30	0	1004535808	42	6250
2026-01-16 02:55:43.65	325.40	20.92	-34.1	-35.3	29.7	3.02e+01	61	29	0	1006108672	42	6346
2026-01-16 02:55:44.66	325.53	20.78	-34.0	-35.2	29.7	3.02e+01	58	29	0	1008205824	42	6232
2026-01-16 02:55:45.67	325.66	20.64	-34.0	-35.2	29.8	3.02e+01	58	29	0	1010302976	42	6215
2026-01-16 02:55:46.68	325.79	20.50	-34.1	-35.3	29.7	3.02e+01	58	29	0	1011875840	42	6288
2026-01-16 02:55:47.68	325.92	20.37	-33.9	-35.1	29.8	3.02e+01	52	29	0	1013972992	42	6198
2026-01-16 02:55:48.69	326.04	20.23	-34.0	-35.2	29.9	3.02e+01	58	29	0	1015545856	42	6218
2026-01-16 02:55:49.70	326.17	20.10	-33.9	-35.1	29.8	3.02e+01	58	29	0	1017643008	42	6200
2026-01-16 02:55:50.71	326.29	19.97	-33.7	-34.9	30.0	3.02e+01	47	29	0	1019740160	42	6004
2026-01-16 02:55:51.72	326.41	19.83	-33.9	-35.1	29.8	3.02e+01	59	29	0	1021313024	42	6150
2026-01-16 02:55:52.73	326.53	19.70	-33.6	-34.8	30.1	3.02e+01	56	29	0	1023410176	42	5960
2026-01-16 02:55:53.74	326.65	19.57	-33.7	-34.9	30.0	3.02e+01	50	29	0	1025507328	42	5999
2026-01-16 02:55:54.75	326.77	19.44	-33.7	-34.9	29.9	3.02e+01	60	29	0	1027080192	42	6062
2026-01-16 02:55:55.76	326.89	19.30	-33.7	-34.9	30.0	3.02e+01	48	29	0	1029177344	42	6041
2026-01-16 02:55:56.76	327.01	19.18	-33.9	-35.1	29.9	3.02e+01	60	29	0	1030750208	42	6159
2026-01-16 02:55:57.77	327.13	19.05	-33.7	-34.9	30.0	3.02e+01	61	29	0	1032847360	42	6006
2026-01-16 02:55:58.78	327.24	18.92	-33.7	-34.9	30.0	3.02e+01	48	29	0	1034944512	42	6037
2026-01-16 02:55:59.79	327.36	18.79	-33.7	-35.0	29.9	3.02e+01	62	29	0	1036517376	42	6068
2026-01-16 02:56:00.80	327.47	18.66	-33.6	-34.8	30.0	3.02e+01	60	29	0	1038614528	42	5953
2026-01-16 02:56:01.81	327.58	18.54	-33.7	-34.9	30.0	3.02e+01	64	29	0	1040187392	42	6030
2026-01-16 02:56:02.82	327.69	18.41	-33.7	-34.9	30.0	3.02e+01	59	29	0	1042284544	42	6041
2026-01-16 02:56:03.83	327.80	18.28	-33.7	-34.9	30.0	3.02e+01	57	29	0	1043857408	42	6010
2026-01-16 02:56:04.83	327.91	18.16	-33.8	-35.0	29.8	3.02e+01	60	29	0	1045954560	42	6105
2026-01-16 02:56:05.84	328.02	18.03	-33.7	-34.9	29.9	3.02e+01	61	29	0	1048051712	42	6042
2026-01-16 02:56:06.85	328.13	17.91	-33.9	-35.1	29.8	3.02e+01	60	29	0	1049624576	42	6150
2026-01-16 02:56:07.86	328.24	17.79	-33.7	-34.9	30.0	3.02e+01	59	29	0	1051721728	42	6034
2026-01-16 02:56:08.86	328.34	17.67	-33.9	-35.1	29.8	3.02e+01	59	29	0	1053818880	42	6185
2026-01-16 02:56:09.87	328.45	17.54	-33.6	-34.8	30.1	3.02e+01	59	29	0	1055391744	42	5976
2026-01-16 02:56:10.88	328.55	17.42	-33.7	-34.9	30.0	3.02e+01	59	29	0	1057488896	42	6040
2026-01-16 02:56:11.88	328.65	17.30	-33.7	-34.9	29.9	3.02e+01	46	29	0	1059061760	42	6025
2026-01-16 02:56:12.89	328.76	17.18	-33.8	-35.0	29.9	3.02e+01	51	29	0	1061158912	42	6065
2026-01-16 02:56:13.90	328.86	17.06	-33.7	-34.8	30.1	3.02e+01	58	29	0	1063256064	42	5992
2026-01-16 02:56:14.91	328.96	16.94	-33.7	-34.9	30.0	3.02e+01	58	29	0	1064828928	42	6000
2026-01-16 02:56:15.92	329.06	16.82	-33.8	-35.0	30.0	3.02e+01	55	29	0	1066926080	42	6066
2026-01-16 02:56:16.93	329.16	16.71	-33.8	-35.0	29.9	3.02e+01	54	29	0	1069023232	42	6124
2026-01-16 02:56:17.94	329.26	16.59	-33.6	-34.8	30.0	3.02e+01	56	29	0	1070596096	42	5940
2026-01-16 02:56:18.95	329.35	16.47	-33.5	-34.7	30.0	3.02e+01	59	29	0	1072693248	42	5872
2026-01-16 02:56:19.96	329.45	16.36	-33.7	-34.9	29.9	3.02e+01	47	29	0	1074266112	42	6008
2026-01-16 02:56:20.97	329.55	16.24	-33.7	-34.9	29.9	3.02e+01	58	29	0	1076363264	42	6007
2026-01-16 02:56:21.98	329.64	16.12	-33.6	-34.8	29.9	3.02e+01	62	29	0	1077936128	42	5988
2026-01-16 02:56:22.99	329.74	16.01	-33.6	-34.7	29.9	3.02e+01	58	29	0	1080033280	42	5926
2026-01-16 02:56:24.00	329.83	15.89	-33.6	-34.8	29.9	3.02e+01	62	29	0	1082130432	42	5972
2026-01-16 02:56:25.01	329.93	15.78	-33.8	-35.0	29.8	3.02e+01	58	29	0	1083703296	42	6118
2026-01-16 02:56:26.01	330.02	15.67	-33.7	-34.9	29.9	3.02e+01	58	29	0	1085800448	42	6036
2026-01-16 02:56:27.02	330.11	15.56	-33.8	-34.9	29.9	3.02e+01	60	29	0	1087373312	42	6058
2026-01-16 02:56:28.03	330.20	15.44	-33.7	-34.9	29.9	3.02e+01	50	29	0	1089470464	42	6015
2026-01-16 02:56:29.04	330.29	15.33	-33.7	-34.9	29.9	3.02e+01	59	29	0	1091567616	42	6019
2026-01-16 02:56:30.04	330.38	15.22	-33.8	-35.0	29.8	3.02e+01	58	29	0	1093140480	42	6119
2026-01-16 02:56:31.05	330.47	15.11	-33.8	-35.0	29.8	3.02e+01	62	29	0	1095237632	42	6132
2026-01-16 02:56:32.06	330.56	15.00	-33.9	-35.1	29.7	3.02e+01	57	29	0	1097334784	42	6168
2026-01-16 02:56:33.07	330.65	14.89	-33.9	-35.1	29.8	3.02e+01	60	29	0	1098907648	42	6150
2026-01-16 02:56:34.08	330.73	14.78	-33.9	-35.1	29.6	3.02e+01	60	29	0	1101004800	42	6160
2026-01-16 02:56:35.09	330.82	14.67	-34.0	-35.3	29.6	3.02e+01	56	29	0	1102577664	42	6279
2026-01-16 02:56:36.09	330.91	14.57	-34.0	-35.2	29.6	3.02e+01	45	29	0	1104674816	42	6250
2026-01-16 02:56:37.10	330.99	14.46	-33.8	-35.0	29.7	3.02e+01	61	29	0	1106771968	42	6092
2026-01-16 02:56:38.11	331.08	14.35	-33.8	-35.1	29.7	3.02e+01	59	29	0	1108344832	42	6135
2026-01-16 02:56:39.13	331.16	14.24	-33.8	-35.1	29.7	3.02e+01	57	29	0	1110441984	42	6139
2026-01-16 02:56:40.13	331.24	14.14	-33.9	-35.1	29.6	3.02e+01	62	29	0	1112014848	42	6167
2026-01-16 02:56:41.14	331.33	14.03	-34.0	-35.2	29.6	3.02e+01	52	29	0	1114112000	42	6237
2026-01-16 02:56:42.15	331.41	13.93	-34.1	-35.3	29.5	3.02e+01	57	29	0	1116209152	42	6302
2026-01-16 02:56:43.16	331.49	13.82	-34.0	-35.3	29.5	3.02e+01	57	29	0	1117782016	42	6294
2026-01-16 02:56:44.17	331.57	13.72	-34.0	-35.2	29.5	3.02e+01	44	29	0	1119879168	42	6269
2026-01-16 02:56:45.18	331.65	13.61	-34.0	-35.2	29.5	3.02e+01	60	29	0	1121452032	42	6270
2026-01-16 02:56:46.19	331.73	13.51	-34.0	-35.2	29.5	3.02e+01	58	29	0	1123549184	42	6250
2026-01-16 02:56:47.20	331.81	13.41	-34.1	-35.3	29.4	3.02e+01	57	29	0	1125646336	42	6296
2026-01-16 02:56:48.21	331.89	13.30	-34.1	-35.3	29.5	3.02e+01	58	29	0	1127219200	42	6299
2026-01-16 02:56:49.22	331.97	13.20	-34.2	-35.4	29.3	3.02e+01	52	29	0	1129316352	42	6410
2026-01-16 02:56:50.23	332.05	13.10	-34.3	-35.5	29.2	3.02e+01	59	29	0	1130889216	42	6459
2026-01-16 02:56:51.24	332.12	13.00	-34.1	-35.3	29.4	3.02e+01	57	29	0	1132986368	42	6301
2026-01-16 02:56:52.24	332.20	12.90	-34.1	-35.3	29.4	3.02e+01	60	29	0	1135083520	42	6291
2026-01-16 02:56:53.25	332.28	12.80	-34.0	-35.3	29.4	3.02e+01	60	29	0	1136656384	42	6284
2026-01-16 02:56:54.26	332.35	12.70	-34.1	-35.3	29.4	3.02e+01	46	29	0	1138753536	42	6321
2026-01-16 02:56:55.27	332.43	12.60	-34.1	-35.3	29.4	3.02e+01	61	29	0	1140326400	42	6291
2026-01-16 02:56:56.28	332.50	12.50	-34.1	-35.3	29.4	3.02e+01	58	29	0	1142423552	42	6330
2026-01-16 02:56:57.29	332.58	12.40	-34.1	-35.3	29.4	3.02e+01	45	29	0	1144520704	42	6309
2026-01-16 02:56:58.30	332.65	12.30	-34.2	-35.4	29.4	3.02e+01	60	29	0	1146093568	42	6398
2026-01-16 02:56:59.31	332.72	12.20	-34.2	-35.4	29.3	3.02e+01	56	29	0	1148190720	42	6382
2026-01-16 02:57:00.32	332.80	12.10	-34.1	-35.4	29.4	3.02e+01	58	29	0	1150287872	42	6352
2026-01-16 02:57:01.33	332.87	12.01	-34.2	-35.5	29.2	3.02e+01	58	29	0	1151860736	42	6427
2026-01-16 02:57:02.34	332.94	11.91	-34.2	-35.4	29.3	3.02e+01	59	29	0	1153957888	42	6379
2026-01-16 02:57:03.34	333.01	11.81	-34.2	-35.4	29.2	3.02e+01	57	29	0	1155530752	42	6395
2026-01-16 02:57:04.35	333.08	11.72	-34.3	-35.5	29.2	3.02e+01	61	29	0	1157627904	42	6490
2026-01-16 02:57:05.36	333.15	11.62	-34.2	-35.5	29.2	3.02e+01	50	29	0	1159725056	42	6442
2026-01-16 02:57:06.37	333.22	11.53	-34.3	-35.5	29.2	3.02e+01	59	29	0	1161297920	42	6483
2026-01-16 02:57:07.38	333.29	11.43	-34.3	-35.5	29.2	3.02e+01	64	29	0	1163395072	42	6479
2026-01-16 02:57:08.39	333.36	11.34	-34.4	-35.7	29.0	3.02e+01	60	29	0	1165492224	42	6587
2026-01-16 02:57:09.40	333.43	11.24	-34.3	-35.6	29.1	3.02e+01	60	29	0	1167065088	42	6509
2026-01-16 02:57:10.41	333.50	11.15	-34.8	-45.0	3.4	3.02e+01	0	29	104	1168637952	42	19375
2026-01-16 02:57:11.42	333.56	11.06	-34.8	-45.0	3.4	3.02e+01	0	29	104	1168637952	42	19311
2026-01-16 02:57:12.43	333.63	10.96	-34.8	-45.0	3.6	3.02e+01	0	29	104	1168637952	42	19322
2026-01-16 02:57:13.44	333.70	10.87	-35.0	-45.1	3.6	3.02e+01	0	29	104	1168637952	44	17318
2026-01-16 02:57:14.45	333.76	10.78	-35.0	-45.2	3.6	3.02e+01	0	29	104	1168637952	44	17518
2026-01-16 02:57:15.46	333.83	10.68	-35.1	-45.2	3.6	3.02e+01	0	29	104	1168637952	46	15735
2026-01-16 02:57:16.46	333.89	10.59	-46.1	-59.6	3.5	3.02e+01	0	29	104	1168637952	60	36867
2026-01-16 02:57:17.47	333.96	10.50	-39.3	-49.9	3.5	3.02e+01	0	29	104	1168637952	60	11995
2026-01-16 02:57:18.48	334.02	10.41	-40.2	-50.9	3.6	3.02e+01	0	29	104	1168637952	58	15125
2026-01-16 02:57:19.49	334.09	10.32	-36.7	-47.0	3.6	3.02e+01	0	29	104	1168637952	48	17139
2026-01-16 02:57:20.50	334.15	10.23	-37.2	-47.5	3.6	3.02e+01	0	29	104	1168637952	48	18246
2026-01-16 02:57:21.51	334.22	10.14	-36.3	-46.5	3.6	3.02e+01	0	29	104	1168637952	48	16317
2026-01-16 02:57:22.52	334.28	10.05	-35.6	-45.9	3.4	3.02e+01	0	29	104	1168637952	46	17010
2026-01-16 02:57:23.53	334.34	9.96	-35.7	-46.0	3.6	3.02e+01	0	29	104	1168637952	48	15258
2026-01-16 02:57:24.54	334.40	9.87	-36.1	-46.4	3.6	3.02e+01	0	29	104	1168637952	46	18000
2026-01-16 02:57:25.54	334.47	9.78	-46.5	-61.3	3.5	3.02e+01	0	29	104	1168637952	60	44628
2026-01-16 02:57:26.55	334.53	9.70	-38.2	-48.7	2.9	3.02e+01	0	29	104	1168637952	58	11815
