passes_logs/2026/01/16/R4.6S_Anadyr/R4.6S_Anadyr__20260116_210319_SUOMI_NPP_rec.log

#Pass ID: 20260116_210319_SUOMI NPP
#Satellite: SUOMI NPP
#Configuration: NPP
#almurnet v.1.7.20251203
#Start time: 2026-01-16 21:03:19

#Version: 2.2.20231116
#Station: R4.6S_Anadyr
#Location: 177.4865 lon 64.73178 lat
#TLE: 1 37849U 11061A   26016.58419598  .00000058  00000+0  48257-4 0  9996
#TLE: 2 37849  98.7812 318.6192 0002422  60.8544 299.2874 14.19525580736934

#Time	Az	El	Level	Level2	SNR	BER	BlckErr	Temp	State	Recorded	gain1	gain2
2026-01-16 21:03:19.80	80.83	0.03	-47.9	-59.5	3.5	8.45e-01	0	25	0	0	60	34319
2026-01-16 21:03:20.80	80.76	0.09	-48.3	-63.6	3.6	1.51e+00	0	26	104	0	60	54555
2026-01-16 21:03:21.81	80.69	0.14	-48.4	-63.8	3.6	1.51e+00	0	26	104	0	60	55851
2026-01-16 21:03:22.82	80.62	0.19	-48.6	-63.9	3.6	1.51e+00	0	26	104	0	60	56362
2026-01-16 21:03:23.83	80.56	0.24	-48.4	-63.6	3.6	1.51e+00	0	26	104	0	60	54994
2026-01-16 21:03:24.84	80.49	0.29	-48.2	-63.4	3.6	1.51e+00	0	26	104	0	60	53577
2026-01-16 21:03:25.85	80.42	0.35	-48.2	-63.4	3.6	1.51e+00	0	26	104	0	60	53412
2026-01-16 21:03:26.86	80.35	0.40	-48.2	-63.4	3.6	1.51e+00	0	26	104	0	60	53394
2026-01-16 21:03:27.87	80.28	0.45	-48.2	-63.4	3.6	1.51e+00	0	26	104	0	60	53413
2026-01-16 21:03:28.88	80.21	0.50	-48.2	-63.4	3.6	1.51e+00	0	26	104	0	60	53375
2026-01-16 21:03:29.89	80.14	0.55	-48.1	-63.3	3.6	1.51e+00	0	27	104	0	60	52792
2026-01-16 21:03:30.90	80.07	0.61	-48.0	-63.3	3.6	1.51e+00	0	27	104	0	60	52774
2026-01-16 21:03:31.91	80.00	0.66	-47.9	-63.2	3.6	1.51e+00	0	27	104	0	60	52091
2026-01-16 21:03:32.92	79.93	0.71	-47.7	-63.0	3.6	1.51e+00	0	27	104	0	60	50927
2026-01-16 21:03:33.93	79.86	0.76	-47.6	-62.8	3.6	1.51e+00	0	27	104	0	60	50018
2026-01-16 21:03:34.94	79.79	0.82	-46.7	-62.7	3.6	1.51e+00	0	27	104	0	60	49224
2026-01-16 21:03:35.95	79.72	0.87	-47.0	-62.2	3.6	1.51e+00	0	27	104	0	60	46432
2026-01-16 21:03:36.96	79.65	0.92	-46.4	-61.6	3.6	1.51e+00	0	27	104	0	60	43310
2026-01-16 21:03:37.97	79.57	0.97	-46.4	-61.5	3.6	1.51e+00	0	27	104	0	60	43020
2026-01-16 21:03:38.98	79.50	1.03	-46.4	-61.5	3.6	1.51e+00	0	27	104	0	60	42834
2026-01-16 21:03:39.99	79.43	1.08	-46.3	-61.5	3.6	1.51e+00	0	27	104	0	60	42747
2026-01-16 21:03:41.00	79.36	1.13	-46.3	-61.4	3.6	1.51e+00	0	27	104	0	60	42674
2026-01-16 21:03:42.01	79.28	1.18	-46.3	-61.4	3.6	1.51e+00	0	27	104	0	60	42572
2026-01-16 21:03:43.02	79.21	1.24	-46.3	-61.5	3.6	1.51e+00	0	27	104	0	60	42783
2026-01-16 21:03:44.03	79.14	1.29	-46.3	-61.5	3.6	1.51e+00	0	27	104	0	60	42847
2026-01-16 21:03:45.04	79.06	1.34	-46.3	-61.5	3.6	1.51e+00	0	27	104	0	60	42772
2026-01-16 21:03:46.05	78.99	1.40	-46.3	-61.5	3.6	1.51e+00	0	27	104	0	60	43103
2026-01-16 21:03:47.06	78.92	1.45	-46.3	-61.4	3.6	1.51e+00	0	27	104	0	60	42688
2026-01-16 21:03:48.07	78.84	1.50	-46.3	-61.5	3.6	1.51e+00	0	27	104	0	60	43001
2026-01-16 21:03:49.08	78.77	1.56	-46.3	-61.5	3.6	1.51e+00	0	27	104	0	60	42747
2026-01-16 21:03:50.09	78.69	1.61	-46.3	-61.5	3.6	1.51e+00	0	27	104	0	60	42801
2026-01-16 21:03:51.10	78.62	1.66	-46.3	-61.5	3.6	1.51e+00	0	27	104	0	60	42811
2026-01-16 21:03:52.11	78.54	1.72	-46.3	-61.5	3.6	1.51e+00	0	27	104	0	60	42924
2026-01-16 21:03:53.12	78.47	1.77	-46.3	-61.4	3.6	1.51e+00	0	27	104	0	60	42653
2026-01-16 21:03:54.13	78.39	1.82	-46.3	-61.5	3.6	1.51e+00	0	27	104	0	60	42957
2026-01-16 21:03:55.14	78.31	1.88	-46.3	-61.3	3.6	1.51e+00	0	27	104	0	60	42101
2026-01-16 21:03:56.15	78.24	1.93	-46.3	-61.2	3.6	1.51e+00	0	27	104	0	60	41297
2026-01-16 21:03:57.16	78.16	1.98	-46.3	-61.1	3.6	1.51e+00	0	27	104	0	60	41047
2026-01-16 21:03:58.17	78.08	2.04	-46.3	-61.0	3.6	1.51e+00	0	27	104	0	60	40479
2026-01-16 21:03:59.18	78.00	2.09	-46.3	-61.1	3.6	1.51e+00	0	27	104	0	60	41094
2026-01-16 21:04:00.19	77.93	2.14	-46.3	-61.0	3.6	1.51e+00	0	27	104	0	60	40784
2026-01-16 21:04:01.20	77.85	2.20	-46.3	-61.3	3.6	1.51e+00	0	27	104	0	60	42040
2026-01-16 21:04:02.21	77.77	2.25	-46.3	-61.5	3.6	1.51e+00	0	27	104	0	60	42795
2026-01-16 21:04:03.22	77.69	2.31	-46.3	-61.5	3.6	1.51e+00	0	27	104	0	60	43140
2026-01-16 21:04:04.23	77.61	2.36	-46.3	-61.5	3.6	1.51e+00	0	27	104	0	60	42736
2026-01-16 21:04:05.24	77.53	2.41	-46.3	-61.5	3.6	1.51e+00	0	27	104	0	60	42854
2026-01-16 21:04:06.25	77.45	2.47	-46.3	-61.5	3.6	1.51e+00	0	27	104	0	60	42919
2026-01-16 21:04:07.26	77.37	2.52	-46.3	-61.2	3.6	1.51e+00	0	27	104	0	60	41701
2026-01-16 21:04:08.27	77.29	2.58	-46.3	-60.8	3.6	1.51e+00	0	27	104	0	60	39413
2026-01-16 21:04:09.28	77.21	2.63	-46.3	-60.4	3.6	1.51e+00	0	27	104	0	60	37653
2026-01-16 21:04:10.29	77.13	2.69	-46.3	-60.6	3.6	1.51e+00	0	27	104	0	60	38701
2026-01-16 21:04:11.30	77.05	2.74	-46.3	-61.1	3.6	1.51e+00	0	27	104	0	60	40836
2026-01-16 21:04:12.31	76.97	2.79	-46.3	-60.7	3.6	1.51e+00	0	27	104	0	60	39359
2026-01-16 21:04:13.31	76.89	2.85	-46.0	-56.8	4.5	1.50e+00	90	27	104	0	60	24902
2026-01-16 21:04:14.33	76.80	2.90	-45.6	-52.7	6.9	3.18e-01	0	27	0	0	60	15624
2026-01-16 21:04:15.33	76.72	2.96	-44.7	-49.7	10.4	2.63e-02	60	27	0	2097152	60	10984
2026-01-16 21:04:16.34	76.64	3.01	-43.8	-47.5	12.8	1.05e-03	0	27	0	4194304	60	8557
2026-01-16 21:04:17.35	76.56	3.07	-43.3	-46.5	14.1	2.36e-05	92	27	0	5242880	60	7654
2026-01-16 21:04:18.36	76.47	3.12	-42.2	-44.7	15.8	0.00e+00	0	27	0	7340032	58	6997
2026-01-16 21:04:19.37	76.39	3.18	-46.3	-58.0	4.0	1.48e+00	0	27	104	8388608	60	28705
2026-01-16 21:04:20.38	76.31	3.23	-41.0	-42.9	16.5	1.34e+00	92	27	104	8388608	56	6388
2026-01-16 21:04:21.39	76.22	3.29	-46.0	-58.8	3.8	1.51e+00	0	27	104	8388608	60	31609
2026-01-16 21:04:22.40	76.14	3.34	-43.4	-46.8	14.1	8.96e-01	86	27	104	8388608	60	7946
2026-01-16 21:04:23.41	76.05	3.40	-43.7	-47.2	13.5	4.11e-05	0	27	0	9437184	60	8297
2026-01-16 21:04:24.42	75.97	3.45	-42.0	-44.3	16.1	0.00e+00	89	27	0	11534336	58	6681
2026-01-16 21:04:25.43	75.88	3.51	-42.6	-45.4	15.6	0.00e+00	0	27	0	12582912	58	7521
2026-01-16 21:04:26.44	75.79	3.56	-42.1	-44.5	16.0	0.00e+00	92	27	0	14680064	56	7671
2026-01-16 21:04:27.44	75.71	3.62	-41.4	-43.5	16.8	0.00e+00	90	27	0	16777216	56	6801
2026-01-16 21:04:28.45	75.62	3.67	-41.3	-43.3	17.5	0.00e+00	0	27	0	18874368	56	6666
2026-01-16 21:04:29.46	75.53	3.73	-41.0	-42.9	17.6	0.00e+00	92	27	0	20971520	56	6372
2026-01-16 21:04:30.46	75.45	3.78	-40.5	-42.2	18.2	0.00e+00	0	27	0	22020096	54	6610
2026-01-16 21:04:31.48	75.36	3.84	-40.6	-42.3	18.1	0.00e+00	87	27	0	24117248	54	6672
2026-01-16 21:04:32.49	75.27	3.89	-40.2	-41.8	18.6	0.00e+00	0	27	0	26214400	54	6290
2026-01-16 21:04:33.49	75.18	3.95	-40.1	-41.6	18.6	0.00e+00	90	27	0	28311552	54	6156
2026-01-16 21:04:34.50	75.09	4.00	-40.2	-41.8	18.8	0.00e+00	75	27	0	30408704	54	6257
2026-01-16 21:04:35.51	75.01	4.06	-40.5	-42.2	18.2	0.00e+00	0	27	0	32505856	54	6615
2026-01-16 21:04:36.52	74.92	4.11	-40.5	-42.2	18.4	0.00e+00	92	27	0	33554432	54	6589
2026-01-16 21:04:37.53	74.83	4.17	-40.4	-42.0	18.5	0.00e+00	0	27	0	35651584	54	6432
2026-01-16 21:04:38.54	74.74	4.22	-40.9	-42.7	17.9	0.00e+00	79	27	0	37748736	54	6995
2026-01-16 21:04:39.55	74.65	4.28	-40.8	-42.6	17.8	0.00e+00	0	27	0	39845888	54	6914
2026-01-16 21:04:40.56	74.55	4.34	-40.7	-42.4	18.2	0.00e+00	90	27	0	41943040	54	6764
2026-01-16 21:04:41.57	74.46	4.39	-40.9	-42.7	18.0	0.00e+00	37	27	0	42991616	54	6936
2026-01-16 21:04:42.58	74.37	4.45	-41.0	-42.8	18.0	0.00e+00	11	27	0	45088768	54	7070
2026-01-16 21:04:43.59	74.28	4.50	-41.1	-43.0	17.5	0.00e+00	92	27	0	47185920	54	7205
2026-01-16 21:04:44.60	74.19	4.56	-41.0	-42.9	17.7	0.00e+00	0	27	0	49283072	54	7118
2026-01-16 21:04:45.61	74.09	4.62	-41.3	-43.2	17.4	0.00e+00	70	27	0	51380224	54	7387
2026-01-16 21:04:46.62	74.00	4.67	-41.0	-42.9	17.6	0.00e+00	0	27	0	52428800	54	7138
2026-01-16 21:04:47.63	73.91	4.73	-41.3	-43.3	17.2	0.00e+00	92	27	0	54525952	54	7480
2026-01-16 21:04:48.63	73.82	4.78	-41.3	-43.2	17.7	0.00e+00	0	27	0	56623104	54	7376
2026-01-16 21:04:49.64	73.72	4.84	-41.1	-43.0	17.7	0.00e+00	0	27	0	58720256	54	7194
2026-01-16 21:04:50.65	73.63	4.90	-41.0	-42.8	17.9	0.00e+00	92	27	0	60817408	54	7047
2026-01-16 21:04:51.66	73.53	4.95	-41.2	-43.1	17.8	0.00e+00	0	27	0	61865984	54	7258
2026-01-16 21:04:52.67	73.44	5.01	-40.9	-42.7	18.0	0.00e+00	82	27	0	63963136	54	6943
2026-01-16 21:04:53.68	73.34	5.07	-40.7	-42.4	18.3	0.00e+00	0	27	0	66060288	54	6731
2026-01-16 21:04:54.69	73.24	5.12	-40.6	-42.2	18.5	0.00e+00	92	27	0	68157440	54	6588
2026-01-16 21:04:55.70	73.15	5.18	-40.7	-42.3	18.4	0.00e+00	0	27	0	70254592	54	6692
2026-01-16 21:04:56.71	73.05	5.23	-40.1	-41.7	19.0	0.00e+00	92	27	0	71303168	54	6203
2026-01-16 21:04:57.71	72.95	5.29	-40.3	-41.9	18.7	0.00e+00	92	27	0	73400320	54	6350
2026-01-16 21:04:58.72	72.86	5.35	-40.2	-41.7	18.9	0.00e+00	0	27	0	75497472	54	6238
2026-01-16 21:04:59.73	72.76	5.40	-40.4	-42.0	18.8	0.00e+00	82	27	0	77594624	54	6398
2026-01-16 21:05:00.75	72.66	5.46	-40.4	-41.9	18.9	0.00e+00	0	27	0	79691776	54	6369
2026-01-16 21:05:01.76	72.56	5.52	-40.4	-42.0	18.7	0.00e+00	84	27	0	80740352	54	6410
2026-01-16 21:05:02.77	72.46	5.58	-40.0	-41.5	19.3	0.00e+00	0	27	0	82837504	54	6082
2026-01-16 21:05:03.77	72.36	5.63	-40.7	-42.3	18.5	0.00e+00	90	27	0	84934656	54	6668
2026-01-16 21:05:04.78	72.26	5.69	-40.3	-41.9	18.9	0.00e+00	92	27	0	87031808	54	6347
2026-01-16 21:05:05.79	72.16	5.75	-40.4	-42.0	18.7	0.00e+00	0	27	0	89128960	54	6406
2026-01-16 21:05:06.80	72.06	5.80	-40.5	-42.1	18.6	0.00e+00	92	27	0	90177536	54	6489
2026-01-16 21:05:07.81	71.96	5.86	-40.6	-42.3	18.6	0.00e+00	0	27	0	92274688	54	6623
2026-01-16 21:05:08.82	71.86	5.92	-40.5	-42.1	18.6	0.00e+00	80	27	0	94371840	54	6510
2026-01-16 21:05:09.83	71.76	5.97	-40.7	-42.4	18.5	0.00e+00	0	27	0	96468992	54	6694
2026-01-16 21:05:10.83	71.66	6.03	-40.5	-42.2	18.6	0.00e+00	90	27	0	98566144	54	6578
2026-01-16 21:05:11.84	71.55	6.09	-40.9	-42.7	18.1	0.00e+00	0	27	0	99614720	54	7000
2026-01-16 21:05:12.85	71.45	6.14	-40.7	-42.4	18.4	0.00e+00	0	27	0	101711872	54	6728
2026-01-16 21:05:13.86	71.35	6.20	-40.6	-42.3	18.4	0.00e+00	92	27	0	103809024	54	6669
2026-01-16 21:05:14.87	71.24	6.26	-40.8	-42.6	18.2	0.00e+00	0	27	0	105906176	54	6862
2026-01-16 21:05:15.88	71.14	6.32	-40.6	-42.3	18.6	0.00e+00	92	27	0	108003328	54	6621
2026-01-16 21:05:16.88	71.03	6.37	-41.1	-43.0	18.0	0.00e+00	0	27	0	109051904	54	7196
2026-01-16 21:05:17.89	70.93	6.43	-40.7	-42.4	18.4	0.00e+00	92	27	0	111149056	54	6729
2026-01-16 21:05:18.90	70.82	6.49	-40.8	-42.6	18.3	0.00e+00	0	27	0	113246208	54	6858
2026-01-16 21:05:19.91	70.72	6.54	-40.7	-42.4	18.4	0.00e+00	0	27	0	115343360	54	6720
2026-01-16 21:05:20.91	70.61	6.60	-41.0	-42.8	18.1	0.00e+00	92	27	0	117440512	54	7040
2026-01-16 21:05:21.92	70.50	6.66	-40.9	-42.6	18.1	0.00e+00	0	27	0	118489088	54	6868
2026-01-16 21:05:22.93	70.40	6.72	-40.6	-42.2	18.7	0.00e+00	65	27	0	120586240	54	6595
2026-01-16 21:05:23.94	70.29	6.77	-40.4	-42.0	18.9	0.00e+00	0	27	0	122683392	54	6455
2026-01-16 21:05:24.95	70.18	6.83	-40.5	-42.1	18.8	0.00e+00	90	27	0	124780544	54	6525
2026-01-16 21:05:25.96	70.07	6.89	-40.5	-42.1	18.9	0.00e+00	0	27	0	126877696	54	6511
2026-01-16 21:05:26.97	69.96	6.95	-40.3	-41.9	19.1	0.00e+00	0	27	0	128974848	54	6330
2026-01-16 21:05:27.98	69.85	7.00	-40.2	-41.8	19.0	0.00e+00	92	27	0	130023424	54	6270
2026-01-16 21:05:28.99	69.74	7.06	-40.4	-42.0	18.9	0.00e+00	0	27	0	132120576	54	6425
2026-01-16 21:05:30.00	69.63	7.12	-40.1	-41.7	19.3	0.00e+00	81	27	0	134217728	54	6190
2026-01-16 21:05:31.01	69.52	7.18	-40.2	-41.8	19.1	0.00e+00	0	27	0	136314880	54	6275
2026-01-16 21:05:32.02	69.41	7.24	-40.1	-41.6	19.3	0.00e+00	48	27	0	138412032	54	6134
2026-01-16 21:05:33.03	69.30	7.29	-40.1	-41.6	19.4	0.00e+00	0	27	0	139460608	54	6128
2026-01-16 21:05:34.04	69.18	7.35	-39.9	-41.4	19.5	0.00e+00	34	27	0	141557760	54	5975
2026-01-16 21:05:35.05	69.07	7.41	-40.2	-41.8	19.2	0.00e+00	92	27	0	143654912	54	6254
2026-01-16 21:05:36.06	68.96	7.47	-40.4	-42.0	19.0	0.00e+00	0	27	0	145752064	54	6438
2026-01-16 21:05:37.07	68.84	7.53	-40.3	-41.8	19.1	0.00e+00	75	27	0	147849216	54	6314
2026-01-16 21:05:38.08	68.73	7.58	-40.3	-41.9	19.1	0.00e+00	0	27	0	148897792	54	6368
2026-01-16 21:05:39.08	68.62	7.64	-40.4	-42.0	19.0	0.00e+00	60	27	0	150994944	54	6410
2026-01-16 21:05:40.09	68.50	7.70	-39.9	-41.4	19.6	0.00e+00	0	27	0	153092096	54	5990
2026-01-16 21:05:41.10	68.38	7.76	-40.0	-41.5	19.5	0.00e+00	92	27	0	155189248	54	6059
2026-01-16 21:05:42.11	68.27	7.81	-39.7	-41.1	19.8	0.00e+00	92	27	0	157286400	52	6507
2026-01-16 21:05:43.12	68.15	7.87	-39.6	-41.0	19.9	0.00e+00	0	27	0	158334976	52	6392
2026-01-16 21:05:44.13	68.03	7.93	-39.8	-41.3	19.6	0.00e+00	78	27	0	160432128	52	6653
2026-01-16 21:05:45.14	67.92	7.99	-39.8	-41.2	19.6	0.00e+00	33	27	0	162529280	52	6596
2026-01-16 21:05:46.15	67.80	8.05	-39.9	-41.4	19.4	0.00e+00	90	27	0	164626432	52	6704
2026-01-16 21:05:47.16	67.68	8.11	-40.1	-41.7	19.3	0.00e+00	0	27	0	166723584	52	6955
2026-01-16 21:05:48.17	67.56	8.16	-39.9	-41.4	19.6	0.00e+00	92	27	0	167772160	52	6722
2026-01-16 21:05:49.18	67.44	8.22	-39.9	-41.3	19.6	0.00e+00	79	27	0	169869312	52	6678
2026-01-16 21:05:50.18	67.32	8.28	-40.0	-41.5	19.5	0.00e+00	0	27	0	171966464	52	6817
2026-01-16 21:05:51.19	67.20	8.34	-40.1	-41.6	19.5	0.00e+00	92	27	0	174063616	52	6867
2026-01-16 21:05:52.20	67.08	8.40	-40.1	-41.7	19.4	0.00e+00	0	27	0	176160768	52	6928
2026-01-16 21:05:53.21	66.96	8.45	-40.2	-41.7	19.3	0.00e+00	90	27	0	177209344	52	6983
2026-01-16 21:05:54.22	66.84	8.51	-40.2	-41.7	19.2	0.00e+00	0	27	0	179306496	52	6964
2026-01-16 21:05:55.23	66.71	8.57	-39.9	-41.4	19.7	0.00e+00	92	27	0	181403648	52	6717
2026-01-16 21:05:56.24	66.59	8.63	-40.0	-41.5	19.5	0.00e+00	0	27	0	183500800	52	6812
2026-01-16 21:05:57.25	66.47	8.69	-39.8	-41.2	19.8	0.00e+00	48	27	0	185597952	52	6602
2026-01-16 21:05:58.26	66.34	8.74	-39.6	-40.9	20.2	0.00e+00	92	27	0	186646528	52	6386
2026-01-16 21:05:59.27	66.22	8.80	-39.7	-41.0	20.0	0.00e+00	0	27	0	188743680	52	6452
2026-01-16 21:06:00.28	66.09	8.86	-39.4	-40.7	20.4	0.00e+00	82	27	0	190840832	52	6236
2026-01-16 21:06:01.29	65.97	8.92	-39.2	-40.5	20.5	0.00e+00	0	27	0	192937984	52	6038
2026-01-16 21:06:02.30	65.84	8.98	-39.4	-40.7	20.3	0.00e+00	92	27	0	195035136	52	6207
2026-01-16 21:06:03.31	65.72	9.04	-39.3	-40.6	20.4	0.00e+00	0	27	0	196083712	52	6141
2026-01-16 21:06:04.31	65.59	9.09	-39.2	-40.5	20.4	0.00e+00	6	27	0	198180864	52	6080
2026-01-16 21:06:05.33	65.46	9.15	-39.3	-40.7	20.3	0.00e+00	92	27	0	200278016	52	6180
2026-01-16 21:06:06.33	65.34	9.21	-39.5	-40.8	20.3	0.00e+00	0	27	0	202375168	52	6260
2026-01-16 21:06:07.35	65.21	9.27	-39.4	-40.8	20.2	0.00e+00	81	27	0	204472320	52	6272
2026-01-16 21:06:08.35	65.08	9.33	-39.4	-40.7	20.3	0.00e+00	0	27	0	205520896	52	6186
2026-01-16 21:06:09.36	64.95	9.39	-39.6	-40.9	20.1	0.00e+00	92	27	0	207618048	52	6381
2026-01-16 21:06:10.37	64.82	9.44	-39.7	-41.0	20.0	0.00e+00	0	27	0	209715200	52	6450
2026-01-16 21:06:11.38	64.69	9.50	-39.6	-41.0	20.1	0.00e+00	83	27	0	211812352	52	6427
2026-01-16 21:06:12.39	64.56	9.56	-39.3	-40.7	20.3	0.00e+00	83	27	0	213909504	52	6184
2026-01-16 21:06:13.40	64.42	9.62	-39.4	-40.8	20.3	0.00e+00	0	27	0	214958080	52	6263
2026-01-16 21:06:14.41	64.29	9.68	-39.7	-41.1	19.9	0.00e+00	31	27	0	217055232	52	6506
2026-01-16 21:06:15.42	64.16	9.73	-39.8	-41.3	19.6	0.00e+00	0	27	0	219152384	52	6636
2026-01-16 21:06:16.43	64.02	9.79	-39.8	-41.3	19.8	0.00e+00	75	27	0	221249536	52	6627
2026-01-16 21:06:17.44	63.89	9.85	-40.0	-41.5	19.7	0.00e+00	0	27	0	223346688	52	6775
2026-01-16 21:06:18.45	63.76	9.91	-40.0	-41.5	19.9	0.00e+00	92	27	0	225443840	52	6781
2026-01-16 21:06:19.46	63.62	9.97	-39.8	-41.1	20.0	0.00e+00	76	27	0	226492416	52	6535
2026-01-16 21:06:20.47	63.49	10.03	-39.4	-40.7	20.4	0.00e+00	0	27	0	228589568	52	6236
2026-01-16 21:06:21.47	63.35	10.08	-39.5	-40.8	20.2	0.00e+00	91	27	0	230686720	52	6272
2026-01-16 21:06:22.49	63.21	10.14	-39.3	-40.6	20.5	0.00e+00	0	27	0	232783872	52	6107
2026-01-16 21:06:23.50	63.08	10.20	-39.7	-41.0	20.1	0.00e+00	76	27	0	234881024	52	6448
2026-01-16 21:06:24.51	62.94	10.26	-39.7	-41.0	20.1	0.00e+00	0	27	0	235929600	52	6448
2026-01-16 21:06:25.51	62.80	10.32	-39.3	-40.6	20.5	0.00e+00	77	27	0	238026752	52	6118
2026-01-16 21:06:26.52	62.66	10.37	-39.1	-40.3	20.7	0.00e+00	0	27	0	240123904	52	5932
2026-01-16 21:06:27.53	62.52	10.43	-39.0	-40.2	20.8	0.00e+00	0	27	0	242221056	52	5836
2026-01-16 21:06:28.54	62.38	10.49	-39.1	-40.3	20.8	0.00e+00	90	27	0	244318208	52	5942
2026-01-16 21:06:29.55	62.24	10.55	-39.1	-40.3	20.7	0.00e+00	0	27	0	245366784	52	5946
2026-01-16 21:06:30.56	62.10	10.61	-39.3	-40.5	20.6	0.00e+00	76	27	0	247463936	52	6101
2026-01-16 21:06:31.57	61.96	10.66	-39.2	-40.4	20.8	0.00e+00	0	27	0	249561088	52	6008
2026-01-16 21:06:32.57	61.82	10.72	-39.1	-40.3	20.7	0.00e+00	92	27	0	251658240	52	5958
2026-01-16 21:06:33.58	61.67	10.78	-39.1	-40.4	20.7	0.00e+00	33	27	0	253755392	52	5965
2026-01-16 21:06:34.59	61.53	10.84	-39.0	-40.2	20.8	0.00e+00	0	27	0	254803968	52	5869
2026-01-16 21:06:35.60	61.39	10.89	-39.1	-40.3	20.7	0.00e+00	83	27	0	256901120	52	5956
2026-01-16 21:06:36.61	61.24	10.95	-39.1	-40.3	20.9	0.00e+00	0	27	0	258998272	52	5936
2026-01-16 21:06:37.62	61.10	11.01	-39.1	-40.3	20.8	0.00e+00	79	27	0	261095424	52	5931
2026-01-16 21:06:38.63	60.95	11.07	-39.2	-40.4	20.7	0.00e+00	0	27	0	263192576	52	6015
2026-01-16 21:06:39.64	60.80	11.12	-39.5	-40.8	20.3	0.00e+00	92	27	0	264241152	52	6308
2026-01-16 21:06:40.65	60.66	11.18	-39.5	-40.7	20.5	0.00e+00	0	27	0	266338304	52	6245
2026-01-16 21:06:41.66	60.51	11.24	-39.3	-40.6	20.6	0.00e+00	0	27	0	268435456	52	6136
2026-01-16 21:06:42.67	60.36	11.30	-39.5	-40.7	20.5	0.00e+00	90	27	0	270532608	52	6231
2026-01-16 21:06:43.68	60.21	11.35	-39.6	-40.9	20.3	0.00e+00	0	27	0	272629760	52	6379
2026-01-16 21:06:44.68	60.07	11.41	-39.7	-41.0	20.2	0.00e+00	81	27	0	273678336	52	6434
2026-01-16 21:06:45.69	59.92	11.47	-40.0	-41.4	19.9	0.00e+00	0	27	0	275775488	52	6729
2026-01-16 21:06:46.70	59.76	11.52	-39.9	-41.3	19.9	0.00e+00	80	27	0	277872640	52	6689
2026-01-16 21:06:47.71	59.61	11.58	-40.3	-41.8	19.6	0.00e+00	0	27	0	279969792	52	7030
2026-01-16 21:06:48.72	59.46	11.64	-40.0	-41.4	20.1	0.00e+00	0	27	0	282066944	52	6735
2026-01-16 21:06:49.73	59.31	11.70	-39.8	-41.2	20.2	0.00e+00	81	27	0	283115520	52	6547
2026-01-16 21:06:50.74	59.16	11.75	-39.8	-41.2	20.2	0.00e+00	0	27	0	285212672	52	6562
2026-01-16 21:06:51.74	59.00	11.81	-39.9	-41.3	20.1	0.00e+00	20	27	0	287309824	52	6627
2026-01-16 21:06:52.75	58.85	11.86	-39.8	-41.1	20.2	0.00e+00	0	27	0	289406976	52	6531
2026-01-16 21:06:53.76	58.70	11.92	-39.7	-41.1	20.5	0.00e+00	91	27	0	291504128	52	6468
2026-01-16 21:06:54.77	58.54	11.98	-39.6	-40.9	20.5	0.00e+00	0	27	0	293601280	52	6362
2026-01-16 21:06:55.78	58.38	12.03	-39.5	-40.7	20.8	0.00e+00	80	27	0	294649856	52	6200
2026-01-16 21:06:56.79	58.23	12.09	-39.2	-40.4	21.0	0.00e+00	73	27	0	296747008	52	5988
2026-01-16 21:06:57.80	58.07	12.15	-39.2	-40.5	20.7	0.00e+00	0	27	0	298844160	52	6062
2026-01-16 21:06:58.81	57.91	12.20	-39.1	-40.4	20.9	0.00e+00	91	27	0	300941312	52	5974
2026-01-16 21:06:59.82	57.75	12.26	-39.6	-40.9	20.5	0.00e+00	0	27	0	303038464	52	6343
2026-01-16 21:07:00.83	57.60	12.32	-39.0	-40.2	21.0	0.00e+00	92	27	0	304087040	52	5845
2026-01-16 21:07:01.83	57.44	12.37	-39.1	-40.3	20.9	0.00e+00	0	27	0	306184192	52	5962
2026-01-16 21:07:02.84	57.28	12.43	-39.1	-40.3	21.1	0.00e+00	82	27	0	308281344	52	5912
2026-01-16 21:07:03.85	57.12	12.48	-38.9	-40.1	21.1	0.00e+00	0	27	0	310378496	52	5815
2026-01-16 21:07:04.86	56.96	12.54	-38.9	-40.1	21.1	0.00e+00	0	27	0	311427072	52	5775
2026-01-16 21:07:05.87	56.79	12.59	-38.9	-40.1	21.2	0.00e+00	92	27	0	313524224	50	6470
2026-01-16 21:07:06.87	56.63	12.65	-38.6	-39.8	21.3	0.00e+00	0	27	0	315621376	50	6291
2026-01-16 21:07:07.88	56.47	12.70	-38.6	-39.7	21.5	0.00e+00	82	27	0	317718528	50	6239
2026-01-16 21:07:08.89	56.30	12.76	-38.5	-39.6	21.7	0.00e+00	0	27	0	319815680	50	6127
2026-01-16 21:07:09.90	56.14	12.82	-38.2	-39.3	21.7	0.00e+00	92	27	0	321912832	50	5945
2026-01-16 21:07:10.91	55.97	12.87	-38.3	-39.4	21.8	0.00e+00	0	27	0	322961408	50	5967
2026-01-16 21:07:11.92	55.81	12.93	-38.2	-39.3	21.9	0.00e+00	0	27	0	325058560	50	5954
2026-01-16 21:07:12.93	55.64	12.98	-38.1	-39.2	22.0	0.00e+00	90	27	0	327155712	50	5855
2026-01-16 21:07:13.94	55.48	13.03	-38.2	-39.2	21.9	0.00e+00	0	27	0	329252864	50	5886
2026-01-16 21:07:14.95	55.31	13.09	-38.1	-39.2	22.0	0.00e+00	8	27	0	331350016	50	5848
2026-01-16 21:07:15.96	55.14	13.14	-37.6	-38.6	22.4	0.00e+00	0	27	0	332398592	48	6152
2026-01-16 21:07:16.97	54.97	13.20	-37.5	-38.5	22.5	0.00e+00	92	27	0	334495744	48	6088
2026-01-16 21:07:17.98	54.80	13.25	-37.6	-38.5	22.4	0.00e+00	0	27	0	336592896	48	6101
2026-01-16 21:07:18.99	54.63	13.31	-37.7	-38.7	22.3	0.00e+00	0	27	0	338690048	48	6204
2026-01-16 21:07:20.00	54.46	13.36	-37.8	-38.8	22.3	0.00e+00	83	27	0	340787200	48	6305
2026-01-16 21:07:21.00	54.29	13.41	-37.6	-38.6	22.4	0.00e+00	0	27	0	341835776	48	6167
2026-01-16 21:07:22.01	54.12	13.47	-37.5	-38.5	22.5	0.00e+00	53	27	0	343932928	48	6053
2026-01-16 21:07:23.02	53.95	13.52	-37.5	-38.5	22.5	0.00e+00	0	27	0	346030080	48	6086
2026-01-16 21:07:24.03	53.77	13.57	-37.5	-38.5	22.6	0.00e+00	50	27	0	348127232	48	6061
2026-01-16 21:07:25.04	53.60	13.63	-37.6	-38.6	22.6	0.00e+00	0	27	0	350224384	48	6158
2026-01-16 21:07:26.05	53.42	13.68	-37.5	-38.5	22.6	0.00e+00	65	27	0	351272960	48	6046
2026-01-16 21:07:27.06	53.25	13.73	-37.6	-38.6	22.7	0.00e+00	57	27	0	353370112	48	6130
2026-01-16 21:07:28.07	53.07	13.79	-37.4	-38.4	22.7	0.00e+00	0	27	0	355467264	48	5965
2026-01-16 21:07:29.08	52.90	13.84	-37.4	-38.4	22.7	0.00e+00	24	27	0	357564416	48	5978
2026-01-16 21:07:30.09	52.72	13.89	-37.6	-38.6	22.7	0.00e+00	0	27	0	359661568	48	6134
2026-01-16 21:07:31.10	52.54	13.94	-37.6	-38.6	22.6	0.00e+00	92	27	0	360710144	48	6121
2026-01-16 21:07:32.11	52.36	14.00	-37.5	-38.5	22.7	0.00e+00	0	27	0	362807296	48	6078
2026-01-16 21:07:33.11	52.18	14.05	-37.8	-38.9	22.5	0.00e+00	91	27	0	364904448	48	6321
2026-01-16 21:07:34.12	52.00	14.10	-37.7	-38.8	22.3	0.00e+00	0	28	0	367001600	48	6269
2026-01-16 21:07:35.13	51.82	14.15	-38.0	-39.0	22.1	0.00e+00	33	27	0	369098752	48	6448
2026-01-16 21:07:36.14	51.64	14.20	-37.8	-38.9	22.2	0.00e+00	91	27	0	370147328	48	6328
2026-01-16 21:07:37.15	51.46	14.25	-38.0	-39.0	22.1	0.00e+00	0	27	0	372244480	48	6456
2026-01-16 21:07:38.16	51.28	14.31	-38.3	-39.4	22.0	0.00e+00	81	27	0	374341632	48	6723
2026-01-16 21:07:39.17	51.10	14.36	-38.2	-39.3	21.8	0.00e+00	0	27	0	376438784	48	6647
2026-01-16 21:07:40.18	50.91	14.41	-38.2	-39.3	21.9	0.00e+00	92	27	0	378535936	48	6666
2026-01-16 21:07:41.19	50.73	14.46	-38.2	-39.4	21.9	0.00e+00	0	28	0	379584512	48	6709
2026-01-16 21:07:42.20	50.54	14.51	-37.8	-38.9	22.3	0.00e+00	0	27	0	381681664	48	6348
2026-01-16 21:07:43.21	50.36	14.56	-37.5	-38.5	22.6	0.00e+00	92	27	0	383778816	48	6092
2026-01-16 21:07:44.22	50.17	14.61	-37.2	-38.2	22.8	0.00e+00	0	27	0	385875968	48	5894
2026-01-16 21:07:45.23	49.99	14.66	-37.1	-38.1	22.9	0.00e+00	76	27	0	387973120	48	5785
2026-01-16 21:07:46.24	49.80	14.71	-36.7	-37.6	23.2	0.00e+00	0	27	0	390070272	46	6134
2026-01-16 21:07:47.25	49.61	14.76	-36.6	-37.5	23.4	0.00e+00	92	28	0	391118848	46	6100
2026-01-16 21:07:48.26	49.42	14.81	-36.7	-37.7	23.3	0.00e+00	0	27	0	393216000	46	6175
2026-01-16 21:07:49.27	49.23	14.86	-36.7	-37.6	23.4	0.00e+00	0	27	0	395313152	46	6131
2026-01-16 21:07:50.27	49.04	14.90	-36.7	-37.6	23.3	0.00e+00	84	28	0	397410304	46	6159
2026-01-16 21:07:51.28	48.85	14.95	-36.9	-37.8	23.4	0.00e+00	0	28	0	399507456	46	6269
2026-01-16 21:07:52.29	48.66	15.00	-36.8	-37.7	23.3	0.00e+00	38	28	0	400556032	46	6214
2026-01-16 21:07:53.30	48.47	15.05	-37.0	-38.0	23.1	0.00e+00	0	28	0	402653184	46	6397
2026-01-16 21:07:54.31	48.28	15.10	-37.1	-38.1	23.0	0.00e+00	92	28	0	404750336	46	6513
2026-01-16 21:07:55.32	48.09	15.14	-37.0	-38.0	23.0	0.00e+00	0	27	0	406847488	46	6428
2026-01-16 21:07:56.33	47.89	15.19	-37.2	-38.2	22.9	0.00e+00	38	28	0	408944640	46	6580
2026-01-16 21:07:57.34	47.70	15.24	-37.6	-38.6	22.7	0.00e+00	29	28	0	409993216	48	6113
2026-01-16 21:07:58.35	47.50	15.29	-37.5	-38.5	22.7	0.00e+00	0	28	0	412090368	48	6080
2026-01-16 21:07:59.35	47.31	15.33	-37.6	-38.6	22.8	0.00e+00	1	27	0	414187520	48	6132
2026-01-16 21:08:00.36	47.11	15.38	-37.3	-38.3	22.6	0.00e+00	0	28	0	416284672	48	5928
2026-01-16 21:08:01.37	46.92	15.42	-37.1	-38.1	23.0	0.00e+00	84	28	0	418381824	48	5763
2026-01-16 21:08:02.38	46.72	15.47	-37.2	-38.2	22.8	0.00e+00	0	28	0	419430400	48	5871
2026-01-16 21:08:03.38	46.52	15.52	-37.1	-38.1	23.1	0.00e+00	84	28	0	421527552	48	5768
2026-01-16 21:08:04.39	46.33	15.56	-36.8	-37.8	23.2	0.00e+00	0	28	0	423624704	48	5576
2026-01-16 21:08:05.40	46.13	15.61	-36.8	-37.7	23.3	0.00e+00	0	28	0	425721856	48	5548
2026-01-16 21:08:06.41	45.93	15.65	-36.8	-37.8	23.2	0.00e+00	14	28	0	427819008	46	6260
2026-01-16 21:08:07.41	45.73	15.69	-37.0	-37.9	23.1	0.00e+00	0	28	0	428867584	46	6383
2026-01-16 21:08:08.42	45.53	15.74	-37.0	-38.0	23.0	0.00e+00	77	28	0	430964736	46	6454
2026-01-16 21:08:09.43	45.33	15.78	-37.2	-38.2	22.9	0.00e+00	0	28	0	433061888	46	6548
2026-01-16 21:08:10.44	45.12	15.83	-37.1	-38.1	23.0	0.00e+00	78	27	0	435159040	46	6478
2026-01-16 21:08:11.45	44.92	15.87	-37.2	-38.2	23.0	0.00e+00	0	28	0	437256192	46	6542
2026-01-16 21:08:12.46	44.72	15.91	-36.9	-37.8	23.2	0.00e+00	0	28	0	438304768	46	6304
2026-01-16 21:08:13.47	44.51	15.96	-36.9	-37.9	23.1	0.00e+00	38	28	0	440401920	46	6322
2026-01-16 21:08:14.48	44.31	16.00	-37.0	-37.9	23.0	0.00e+00	0	28	0	442499072	46	6381
2026-01-16 21:08:15.49	44.10	16.04	-37.0	-37.9	23.1	0.00e+00	77	28	0	444596224	46	6358
2026-01-16 21:08:16.50	43.90	16.08	-36.6	-37.6	23.4	0.00e+00	0	28	0	446693376	46	6115
2026-01-16 21:08:17.51	43.69	16.12	-36.8	-37.7	23.3	0.00e+00	86	28	0	447741952	46	6197
2026-01-16 21:08:18.51	43.49	16.17	-37.1	-38.0	23.0	0.00e+00	0	28	0	449839104	46	6424
2026-01-16 21:08:19.52	43.28	16.21	-36.7	-37.7	23.2	0.00e+00	0	28	0	451936256	46	6176
2026-01-16 21:08:20.53	43.07	16.25	-37.1	-38.1	22.9	0.00e+00	92	28	0	454033408	46	6491
2026-01-16 21:08:21.54	42.86	16.29	-37.5	-38.5	22.7	0.00e+00	0	28	0	456130560	46	6795
2026-01-16 21:08:22.55	42.66	16.33	-37.5	-38.5	22.6	0.00e+00	80	28	0	457179136	46	6833
2026-01-16 21:08:23.56	42.45	16.37	-37.2	-38.2	22.9	0.00e+00	0	28	0	459276288	46	6567
2026-01-16 21:08:24.57	42.24	16.41	-37.0	-37.9	23.1	0.00e+00	90	28	0	461373440	46	6360
2026-01-16 21:08:25.58	42.02	16.45	-36.9	-37.8	23.1	0.00e+00	0	28	0	463470592	46	6292
2026-01-16 21:08:26.59	41.81	16.48	-36.7	-37.6	23.3	0.00e+00	0	28	0	465567744	46	6130
2026-01-16 21:08:27.60	41.60	16.52	-36.8	-37.7	23.3	0.00e+00	92	28	0	466616320	46	6183
2026-01-16 21:08:28.61	41.39	16.56	-36.5	-37.3	23.6	0.00e+00	0	28	0	468713472	46	5963
2026-01-16 21:08:29.62	41.18	16.60	-36.2	-37.1	23.7	0.00e+00	80	28	0	470810624	46	5795
2026-01-16 21:08:30.63	40.96	16.64	-36.2	-37.1	23.7	0.00e+00	0	28	0	472907776	46	5764
2026-01-16 21:08:31.64	40.75	16.67	-36.3	-37.2	23.5	0.00e+00	90	28	0	475004928	46	5832
2026-01-16 21:08:32.65	40.53	16.71	-35.9	-36.8	24.0	0.00e+00	0	28	0	476053504	46	5569
2026-01-16 21:08:33.66	40.32	16.75	-36.0	-36.9	23.9	0.00e+00	66	28	0	478150656	46	5646
2026-01-16 21:08:34.67	40.10	16.78	-35.9	-36.7	23.9	0.00e+00	77	28	0	480247808	46	5549
2026-01-16 21:08:35.67	39.89	16.82	-35.6	-36.5	24.2	0.00e+00	0	28	0	482344960	44	6039
2026-01-16 21:08:36.68	39.67	16.85	-35.7	-36.6	24.0	0.00e+00	65	28	0	484442112	44	6131
2026-01-16 21:08:37.69	39.46	16.89	-35.9	-36.8	23.8	0.00e+00	0	28	0	486539264	44	6268
2026-01-16 21:08:38.70	39.24	16.92	-36.1	-36.9	23.6	0.00e+00	81	28	0	487587840	44	6365
2026-01-16 21:08:39.71	39.02	16.96	-36.1	-37.0	23.4	0.00e+00	0	28	0	489684992	44	6407
2026-01-16 21:08:40.71	38.80	16.99	-36.3	-37.2	23.6	0.00e+00	82	28	0	491782144	44	6581
2026-01-16 21:08:41.72	38.58	17.02	-36.4	-37.3	23.5	0.00e+00	83	28	0	493879296	44	6618
2026-01-16 21:08:42.73	38.36	17.06	-36.6	-37.5	23.3	0.00e+00	0	28	0	495976448	44	6831
2026-01-16 21:08:43.74	38.14	17.09	-36.9	-37.8	23.3	0.00e+00	57	28	0	497025024	46	6284
2026-01-16 21:08:44.75	37.92	17.12	-36.9	-37.8	23.1	0.00e+00	0	28	0	499122176	46	6275
2026-01-16 21:08:45.75	37.71	17.15	-37.0	-37.9	23.0	0.00e+00	82	28	0	501219328	46	6374
2026-01-16 21:08:46.76	37.48	17.18	-37.0	-37.9	23.1	0.00e+00	0	28	0	503316480	46	6376
2026-01-16 21:08:47.77	37.26	17.22	-37.0	-37.9	23.1	0.00e+00	83	28	0	505413632	46	6368
2026-01-16 21:08:48.78	37.04	17.25	-37.0	-37.9	23.1	0.00e+00	0	28	0	506462208	46	6354
2026-01-16 21:08:49.79	36.82	17.28	-37.2	-38.1	22.9	0.00e+00	0	28	0	508559360	46	6526
2026-01-16 21:08:50.80	36.59	17.31	-37.3	-38.3	22.8	0.00e+00	82	28	0	510656512	46	6617
2026-01-16 21:08:51.81	36.37	17.34	-37.2	-38.2	22.7	0.00e+00	0	28	0	512753664	46	6551
2026-01-16 21:08:52.82	36.15	17.36	-37.1	-38.0	22.9	0.00e+00	83	28	0	514850816	46	6428
2026-01-16 21:08:53.83	35.92	17.39	-37.1	-38.1	23.0	0.00e+00	0	28	0	515899392	46	6491
2026-01-16 21:08:54.84	35.70	17.42	-37.2	-38.2	22.9	0.00e+00	84	28	0	517996544	46	6567
2026-01-16 21:08:55.85	35.47	17.45	-37.2	-38.2	22.8	0.00e+00	0	28	0	520093696	46	6543
2026-01-16 21:08:56.86	35.24	17.48	-37.5	-38.5	22.6	0.00e+00	0	28	0	522190848	46	6771
2026-01-16 21:08:57.87	35.02	17.50	-37.4	-38.4	22.8	0.00e+00	83	28	0	524288000	46	6699
2026-01-16 21:08:58.87	34.79	17.53	-37.5	-38.4	22.8	0.00e+00	0	28	0	525336576	46	6760
2026-01-16 21:08:59.88	34.57	17.56	-37.2	-38.1	22.9	0.00e+00	85	28	0	527433728	46	6493
2026-01-16 21:09:00.89	34.34	17.58	-37.2	-38.1	22.9	0.00e+00	0	28	0	529530880	46	6509
2026-01-16 21:09:01.90	34.11	17.61	-37.1	-38.1	22.9	0.00e+00	0	28	0	531628032	46	6475
2026-01-16 21:09:02.91	33.88	17.63	-37.4	-38.3	22.6	0.00e+00	0	28	0	533725184	46	6656
2026-01-16 21:09:03.92	33.65	17.65	-37.3	-38.3	22.8	0.00e+00	0	28	0	534773760	46	6644
2026-01-16 21:09:04.93	33.43	17.68	-37.2	-38.1	22.9	0.00e+00	7	28	0	536870912	46	6507
2026-01-16 21:09:05.94	33.20	17.70	-36.7	-37.6	23.3	0.00e+00	0	28	0	538968064	46	6115
2026-01-16 21:09:06.94	32.97	17.72	-36.8	-37.7	23.3	0.00e+00	84	28	0	541065216	46	6195
2026-01-16 21:09:07.95	32.74	17.75	-36.9	-37.9	23.2	0.00e+00	0	28	0	543162368	46	6326
2026-01-16 21:09:08.97	32.51	17.77	-37.1	-38.1	22.9	0.00e+00	0	28	0	544210944	46	6476
2026-01-16 21:09:09.97	32.28	17.79	-37.5	-38.5	22.7	0.00e+00	0	28	0	546308096	46	6831
2026-01-16 21:09:10.98	32.05	17.81	-37.4	-38.3	22.7	0.00e+00	0	28	0	548405248	46	6685
2026-01-16 21:09:11.99	31.82	17.83	-37.3	-38.2	22.8	0.00e+00	73	28	0	550502400	46	6580
2026-01-16 21:09:13.00	31.58	17.85	-37.1	-38.0	23.0	0.00e+00	0	28	0	552599552	46	6428
2026-01-16 21:09:14.00	31.35	17.87	-37.0	-37.9	23.1	0.00e+00	71	28	0	553648128	46	6374
2026-01-16 21:09:15.01	31.12	17.89	-37.0	-38.0	23.0	0.00e+00	0	28	0	555745280	46	6406
2026-01-16 21:09:16.02	30.89	17.91	-37.4	-38.4	22.7	0.00e+00	0	28	0	557842432	46	6722
2026-01-16 21:09:17.03	30.66	17.93	-37.7	-38.7	22.5	0.00e+00	0	28	0	559939584	46	6954
2026-01-16 21:09:18.04	30.42	17.95	-37.9	-38.9	22.3	0.00e+00	0	28	0	562036736	46	7132
2026-01-16 21:09:19.05	30.19	17.96	-37.9	-38.9	22.2	0.00e+00	65	28	0	563085312	48	6390
2026-01-16 21:09:20.06	29.96	17.98	-38.2	-39.3	21.9	0.00e+00	0	28	0	565182464	48	6691
2026-01-16 21:09:21.07	29.72	18.00	-38.4	-39.6	21.6	0.00e+00	54	28	0	567279616	48	6888
2026-01-16 21:09:22.08	29.49	18.01	-38.6	-39.8	21.4	0.00e+00	0	28	0	569376768	48	7068
2026-01-16 21:09:23.09	29.25	18.03	-38.7	-39.9	21.4	0.00e+00	52	28	0	571473920	48	7089
2026-01-16 21:09:24.09	29.02	18.04	-38.4	-39.6	21.7	0.00e+00	0	28	0	572522496	48	6865
2026-01-16 21:09:25.10	28.79	18.06	-38.1	-39.1	22.0	0.00e+00	0	28	0	574619648	48	6538
2026-01-16 21:09:26.11	28.55	18.07	-38.0	-39.1	22.2	0.00e+00	67	28	0	576716800	48	6472
2026-01-16 21:09:27.12	28.32	18.08	-37.9	-39.0	22.2	0.00e+00	0	28	0	578813952	48	6394
2026-01-16 21:09:28.13	28.08	18.10	-37.7	-38.7	22.3	0.00e+00	77	28	0	580911104	48	6243
2026-01-16 21:09:29.14	27.85	18.11	-37.7	-38.7	22.4	0.00e+00	0	28	0	583008256	48	6208
2026-01-16 21:09:30.15	27.61	18.12	-37.7	-38.8	22.4	0.00e+00	70	28	0	584056832	48	6257
2026-01-16 21:09:31.16	27.37	18.13	-37.6	-38.6	22.5	0.00e+00	0	28	0	586153984	48	6164
2026-01-16 21:09:32.16	27.14	18.14	-37.4	-38.4	22.6	0.00e+00	33	28	0	588251136	48	6024
2026-01-16 21:09:33.18	26.90	18.15	-37.7	-38.7	22.4	0.00e+00	0	28	0	590348288	48	6223
2026-01-16 21:09:34.19	26.67	18.16	-37.4	-38.4	22.7	0.00e+00	0	28	0	592445440	48	6019
2026-01-16 21:09:35.19	26.43	18.17	-37.4	-38.4	22.7	0.00e+00	68	28	0	593494016	48	5998
2026-01-16 21:09:36.20	26.19	18.18	-37.5	-38.5	22.5	0.00e+00	0	28	0	595591168	48	6058
2026-01-16 21:09:37.21	25.96	18.19	-37.6	-38.7	22.5	0.00e+00	85	28	0	597688320	48	6176
2026-01-16 21:09:38.22	25.72	18.20	-37.7	-38.7	22.5	0.00e+00	0	28	0	599785472	48	6194
2026-01-16 21:09:39.23	25.48	18.21	-37.3	-38.3	22.8	0.00e+00	0	28	0	601882624	48	5897
2026-01-16 21:09:40.24	25.25	18.21	-37.0	-37.9	23.2	0.00e+00	0	28	0	602931200	48	5677
2026-01-16 21:09:41.25	25.01	18.22	-37.0	-37.9	23.0	0.00e+00	0	28	0	605028352	48	5688
2026-01-16 21:09:42.26	24.77	18.23	-36.9	-37.9	23.1	0.00e+00	0	28	0	607125504	48	5631
2026-01-16 21:09:43.27	24.53	18.23	-37.1	-38.0	22.9	0.00e+00	0	28	0	609222656	48	5751
2026-01-16 21:09:44.28	24.30	18.24	-37.4	-38.4	22.6	0.00e+00	84	28	0	611319808	48	5984
2026-01-16 21:09:45.29	24.06	18.24	-37.5	-38.5	22.6	0.00e+00	0	28	0	612368384	48	6044
2026-01-16 21:09:46.30	23.82	18.24	-37.7	-38.7	22.4	0.00e+00	0	28	0	614465536	48	6214
2026-01-16 21:09:47.30	23.58	18.25	-37.8	-38.8	22.3	0.00e+00	0	28	0	616562688	48	6301
2026-01-16 21:09:48.31	23.35	18.25	-37.6	-38.6	22.4	0.00e+00	0	28	0	618659840	48	6167
2026-01-16 21:09:49.32	23.11	18.25	-37.6	-38.6	22.5	0.00e+00	0	28	0	620756992	48	6152
2026-01-16 21:09:50.33	22.87	18.25	-37.7	-38.7	22.5	0.00e+00	0	28	0	621805568	48	6243
2026-01-16 21:09:51.34	22.63	18.26	-37.7	-38.7	22.5	0.00e+00	83	29	0	623902720	48	6176
2026-01-16 21:09:52.35	22.39	18.26	-37.6	-38.5	22.6	0.00e+00	0	28	0	625999872	48	6101
2026-01-16 21:09:53.36	22.16	18.26	-37.5	-38.4	22.6	0.00e+00	0	28	0	628097024	48	6028
2026-01-16 21:09:54.37	21.92	18.26	-37.2	-38.2	22.8	0.00e+00	0	28	0	630194176	48	5861
2026-01-16 21:09:55.38	21.68	18.26	-37.1	-38.1	22.9	0.00e+00	0	28	0	631242752	48	5785
2026-01-16 21:09:56.39	21.44	18.26	-37.0	-38.0	23.0	0.00e+00	0	29	0	633339904	48	5703
2026-01-16 21:09:57.39	21.21	18.25	-37.0	-38.0	22.8	0.00e+00	0	28	0	635437056	48	5733
2026-01-16 21:09:58.40	20.97	18.25	-37.4	-38.3	22.6	0.00e+00	85	29	0	637534208	48	5964
2026-01-16 21:09:59.41	20.73	18.25	-37.8	-38.8	22.4	0.00e+00	0	29	0	639631360	48	6307
2026-01-16 21:10:00.42	20.49	18.25	-37.8	-38.9	22.2	0.00e+00	41	29	0	640679936	48	6355
2026-01-16 21:10:01.43	20.26	18.24	-38.4	-39.6	21.7	0.00e+00	0	29	0	642777088	48	6865
2026-01-16 21:10:02.44	20.02	18.24	-38.4	-39.6	21.6	0.00e+00	0	29	0	644874240	48	6859
2026-01-16 21:10:03.45	19.78	18.23	-38.9	-40.1	21.2	0.00e+00	0	29	0	646971392	50	6499
2026-01-16 21:10:04.46	19.54	18.23	-38.7	-39.9	21.6	0.00e+00	0	29	0	649068544	50	6320
2026-01-16 21:10:05.47	19.31	18.22	-38.0	-39.1	22.0	0.00e+00	67	29	0	651165696	50	5816
2026-01-16 21:10:06.48	19.07	18.22	-37.7	-38.7	22.3	0.00e+00	0	29	0	652214272	48	6216
2026-01-16 21:10:07.49	18.83	18.21	-37.6	-38.6	22.5	0.00e+00	78	29	0	654311424	48	6135
2026-01-16 21:10:08.50	18.59	18.20	-37.2	-38.1	22.0	0.00e+00	0	29	0	656408576	48	5827
2026-01-16 21:10:09.51	18.36	18.19	-36.8	-37.8	23.0	0.00e+00	0	29	0	658505728	48	5568
2026-01-16 21:10:10.51	18.12	18.18	-36.8	-37.7	23.1	0.00e+00	0	29	0	660602880	46	6206
2026-01-16 21:10:11.52	17.88	18.18	-36.8	-37.7	23.0	0.00e+00	0	29	0	661651456	46	6216
2026-01-16 21:10:12.53	17.65	18.17	-36.8	-37.8	23.1	0.00e+00	12	29	0	663748608	46	6259
2026-01-16 21:10:13.54	17.41	18.16	-36.9	-37.9	23.0	0.00e+00	0	29	0	665845760	46	6337
2026-01-16 21:10:14.55	17.18	18.15	-36.9	-37.9	23.0	0.00e+00	78	29	0	667942912	46	6347
2026-01-16 21:10:15.56	16.94	18.14	-36.8	-37.7	23.2	0.00e+00	0	29	0	670040064	46	6240
2026-01-16 21:10:16.57	16.70	18.12	-36.7	-37.7	23.2	0.00e+00	0	29	0	671088640	46	6175
2026-01-16 21:10:17.59	16.47	18.11	-36.7	-37.7	23.3	0.00e+00	0	29	0	673185792	46	6184
2026-01-16 21:10:18.59	16.23	18.10	-36.8	-37.7	23.2	0.00e+00	0	29	0	675282944	46	6216
2026-01-16 21:10:19.60	16.00	18.09	-36.8	-37.8	23.1	0.00e+00	73	29	0	677380096	46	6279
2026-01-16 21:10:20.61	15.76	18.07	-36.9	-37.9	23.0	0.00e+00	0	29	0	679477248	46	6320
2026-01-16 21:10:21.62	15.53	18.06	-37.0	-38.0	23.0	0.00e+00	80	29	0	680525824	46	6410
2026-01-16 21:10:22.63	15.29	18.05	-36.8	-37.8	23.1	0.00e+00	33	29	0	682622976	46	6281
2026-01-16 21:10:23.64	15.06	18.03	-36.6	-37.5	23.4	0.00e+00	9	29	0	684720128	46	6061
2026-01-16 21:10:24.65	14.82	18.02	-36.5	-37.4	23.5	0.00e+00	0	29	0	686817280	46	5983
2026-01-16 21:10:25.66	14.59	18.00	-36.2	-37.1	23.6	0.00e+00	0	29	0	688914432	46	5803
2026-01-16 21:10:26.67	14.36	17.98	-36.1	-37.0	23.8	0.00e+00	74	29	0	689963008	46	5720
2026-01-16 21:10:27.67	14.12	17.97	-36.1	-36.9	23.9	0.00e+00	0	29	0	692060160	46	5679
2026-01-16 21:10:28.68	13.89	17.95	-36.0	-36.9	23.8	0.00e+00	78	29	0	694157312	46	5649
2026-01-16 21:10:29.69	13.66	17.93	-35.8	-36.7	23.9	0.00e+00	0	29	0	696254464	44	6187
2026-01-16 21:10:30.70	13.42	17.91	-35.9	-36.7	23.8	0.00e+00	33	29	0	698351616	44	6242
2026-01-16 21:10:31.71	13.19	17.90	-36.0	-36.8	23.8	0.00e+00	0	29	0	699400192	44	6306
2026-01-16 21:10:32.72	12.96	17.88	-36.0	-36.8	23.8	0.00e+00	0	29	0	701497344	44	6296
2026-01-16 21:10:33.73	12.73	17.86	-35.9	-36.7	23.9	0.00e+00	0	29	0	703594496	44	6227
2026-01-16 21:10:34.74	12.50	17.84	-36.0	-36.9	23.8	0.00e+00	0	29	0	705691648	44	6338
2026-01-16 21:10:35.75	12.27	17.82	-36.1	-37.0	23.7	0.00e+00	80	29	0	707788800	44	6441
2026-01-16 21:10:36.76	12.04	17.80	-36.1	-36.9	23.7	0.00e+00	0	29	0	708837376	44	6379
2026-01-16 21:10:37.77	11.80	17.77	-36.3	-37.3	23.5	0.00e+00	64	29	0	710934528	44	6616
2026-01-16 21:10:38.78	11.57	17.75	-36.6	-37.5	23.2	0.00e+00	0	29	0	713031680	44	6804
2026-01-16 21:10:39.78	11.35	17.73	-36.6	-37.5	23.2	0.00e+00	0	29	0	715128832	44	6816
2026-01-16 21:10:40.79	11.12	17.71	-36.8	-37.8	23.1	0.00e+00	0	29	0	717225984	44	7008
2026-01-16 21:10:41.79	10.89	17.68	-36.8	-37.8	23.0	0.00e+00	0	29	0	718274560	46	6264
2026-01-16 21:10:42.80	10.66	17.66	-36.7	-37.6	23.3	0.00e+00	81	29	0	720371712	46	6134
2026-01-16 21:10:43.81	10.43	17.64	-36.8	-37.8	23.1	0.00e+00	0	29	0	722468864	46	6282
2026-01-16 21:10:44.82	10.20	17.61	-36.5	-37.4	23.4	0.00e+00	65	29	0	724566016	46	6026
2026-01-16 21:10:45.83	9.98	17.59	-36.5	-37.4	23.5	0.00e+00	0	29	0	726663168	46	6026
2026-01-16 21:10:46.84	9.75	17.56	-36.7	-37.6	23.4	0.00e+00	0	29	0	727711744	46	6165
2026-01-16 21:10:47.85	9.52	17.54	-36.9	-37.8	23.1	0.00e+00	0	29	0	729808896	46	6272
2026-01-16 21:10:48.86	9.30	17.51	-37.0	-38.0	23.0	0.00e+00	0	29	0	731906048	46	6405
2026-01-16 21:10:49.86	9.07	17.48	-37.4	-38.4	22.7	0.00e+00	0	29	0	734003200	46	6754
2026-01-16 21:10:50.87	8.85	17.46	-37.5	-38.5	22.6	0.00e+00	0	29	0	736100352	46	6836
2026-01-16 21:10:51.88	8.62	17.43	-37.6	-38.6	22.5	0.00e+00	81	29	0	737148928	46	6923
2026-01-16 21:10:52.89	8.40	17.40	-37.7	-38.7	22.3	0.00e+00	0	29	0	739246080	48	6214
2026-01-16 21:10:53.90	8.17	17.37	-37.6	-38.6	22.4	0.00e+00	0	29	0	741343232	48	6118
2026-01-16 21:10:54.91	7.95	17.34	-37.7	-38.7	22.4	0.00e+00	0	29	0	743440384	48	6224
2026-01-16 21:10:55.92	7.72	17.31	-37.8	-38.8	22.3	0.00e+00	0	29	0	745537536	48	6296
2026-01-16 21:10:56.93	7.50	17.28	-37.7	-38.7	22.4	0.00e+00	0	29	0	747634688	48	6230
2026-01-16 21:10:57.94	7.28	17.25	-37.7	-38.7	22.4	0.00e+00	0	29	0	748683264	48	6227
2026-01-16 21:10:58.95	7.06	17.22	-37.7	-38.7	22.4	0.00e+00	81	29	0	750780416	48	6226
2026-01-16 21:10:59.95	6.84	17.19	-37.8	-38.9	22.3	0.00e+00	0	29	0	752877568	48	6319
2026-01-16 21:11:00.96	6.62	17.16	-37.8	-38.8	22.3	0.00e+00	0	29	0	754974720	48	6281
2026-01-16 21:11:01.97	6.39	17.13	-37.5	-38.5	22.6	0.00e+00	0	29	0	757071872	48	6086
2026-01-16 21:11:02.98	6.17	17.10	-37.7	-38.8	22.3	0.00e+00	0	29	0	758120448	48	6267
2026-01-16 21:11:03.99	5.95	17.07	-38.0	-39.1	22.2	0.00e+00	0	29	0	760217600	48	6508
2026-01-16 21:11:05.00	5.74	17.03	-38.1	-39.2	21.9	0.00e+00	0	29	0	762314752	48	6573
2026-01-16 21:11:06.01	5.52	17.00	-38.4	-39.5	21.8	0.00e+00	39	29	0	764411904	48	6820
2026-01-16 21:11:07.02	5.30	16.97	-38.3	-39.4	22.0	0.00e+00	0	29	0	766509056	48	6740
2026-01-16 21:11:08.02	5.08	16.93	-38.2	-39.3	22.0	0.00e+00	51	29	0	767557632	48	6635
2026-01-16 21:11:09.03	4.86	16.90	-38.0	-39.0	22.2	0.00e+00	0	29	0	769654784	48	6464
2026-01-16 21:11:10.04	4.65	16.86	-37.8	-38.8	22.4	0.00e+00	0	29	0	771751936	48	6317
2026-01-16 21:11:11.05	4.43	16.83	-37.7	-38.7	22.4	0.00e+00	0	29	0	773849088	48	6230
2026-01-16 21:11:12.06	4.22	16.79	-37.8	-38.8	22.3	0.00e+00	0	29	0	775946240	48	6315
2026-01-16 21:11:13.07	4.00	16.76	-37.6	-38.6	22.5	0.00e+00	68	29	0	776994816	48	6166
2026-01-16 21:11:14.08	3.79	16.72	-37.4	-38.4	22.6	0.00e+00	0	29	0	779091968	48	6006
2026-01-16 21:11:15.09	3.57	16.68	-37.5	-38.5	22.7	0.00e+00	90	29	0	781189120	48	6052
2026-01-16 21:11:16.10	3.36	16.65	-37.4	-38.3	22.7	0.00e+00	0	29	0	783286272	48	5964
2026-01-16 21:11:17.11	3.14	16.61	-37.4	-38.3	22.6	0.00e+00	0	29	0	785383424	48	5956
2026-01-16 21:11:18.12	2.93	16.57	-37.2	-38.2	22.8	0.00e+00	0	29	0	786432000	48	5850
2026-01-16 21:11:19.13	2.72	16.53	-37.3	-38.3	22.7	0.00e+00	33	29	0	788529152	48	5955
2026-01-16 21:11:20.14	2.51	16.50	-37.4	-38.4	22.7	0.00e+00	24	29	0	790626304	48	6013
2026-01-16 21:11:21.15	2.30	16.46	-37.3	-38.3	22.8	0.00e+00	0	29	0	792723456	48	5904
2026-01-16 21:11:22.16	2.09	16.42	-37.1	-38.1	22.8	0.00e+00	87	29	0	794820608	48	5769
2026-01-16 21:11:23.17	1.88	16.38	-36.8	-37.8	23.3	0.00e+00	0	29	0	795869184	48	5570
2026-01-16 21:11:24.18	1.67	16.34	-36.7	-37.6	23.3	0.00e+00	0	29	0	797966336	46	6123
2026-01-16 21:11:25.19	1.46	16.30	-36.5	-37.4	23.5	0.00e+00	33	29	0	800063488	46	6019
2026-01-16 21:11:26.20	1.25	16.26	-36.5	-37.4	23.4	0.00e+00	0	29	0	802160640	46	5966
2026-01-16 21:11:27.21	1.04	16.22	-36.7	-37.7	23.3	0.00e+00	0	29	0	804257792	46	6194
2026-01-16 21:11:28.22	0.83	16.18	-36.7	-37.6	23.3	0.00e+00	0	29	0	805306368	46	6168
2026-01-16 21:11:29.23	0.63	16.14	-36.4	-37.4	23.6	0.00e+00	92	29	0	807403520	46	5967
2026-01-16 21:11:30.24	0.42	16.09	-36.6	-37.5	23.1	0.00e+00	0	29	0	809500672	46	6053
2026-01-16 21:11:31.25	0.22	16.05	-36.7	-37.6	23.3	0.00e+00	0	29	0	811597824	46	6135
2026-01-16 21:11:32.26	0.01	16.01	-36.8	-37.7	23.1	0.00e+00	0	29	0	813694976	46	6232
2026-01-16 21:11:33.27	359.81	15.97	-37.3	-38.3	22.6	0.00e+00	0	29	0	815792128	46	6621
2026-01-16 21:11:34.28	359.60	15.93	-37.6	-38.6	22.5	0.00e+00	41	29	0	816840704	46	6925
2026-01-16 21:11:35.29	359.40	15.88	-38.0	-39.1	22.0	0.00e+00	0	29	0	818937856	48	6475
2026-01-16 21:11:36.30	359.20	15.84	-38.3	-39.4	21.8	0.00e+00	78	29	0	821035008	48	6740
2026-01-16 21:11:37.30	359.00	15.80	-38.6	-39.8	21.5	0.00e+00	0	29	0	823132160	48	7028
2026-01-16 21:11:38.31	358.80	15.75	-38.3	-39.4	21.8	0.00e+00	0	29	0	825229312	48	6756
2026-01-16 21:11:39.32	358.60	15.71	-38.5	-39.6	21.6	0.00e+00	0	29	0	826277888	48	6919
2026-01-16 21:11:40.33	358.40	15.66	-38.2	-39.4	21.8	0.00e+00	0	29	0	828375040	48	6704
2026-01-16 21:11:41.34	358.20	15.62	-38.5	-39.6	21.6	0.00e+00	17	29	0	830472192	48	6919
2026-01-16 21:11:42.35	358.00	15.57	-38.0	-39.1	22.1	0.00e+00	0	29	0	832569344	48	6491
2026-01-16 21:11:43.36	357.80	15.53	-38.0	-39.1	22.2	0.00e+00	0	29	0	833617920	48	6485
2026-01-16 21:11:44.37	357.60	15.48	-38.2	-39.3	21.9	0.00e+00	0	29	0	835715072	48	6632
2026-01-16 21:11:45.38	357.40	15.44	-38.2	-39.4	21.8	0.00e+00	89	29	0	837812224	48	6697
2026-01-16 21:11:46.39	357.21	15.39	-38.5	-39.6	21.4	0.00e+00	0	29	0	839909376	48	6927
2026-01-16 21:11:47.40	357.01	15.34	-38.5	-39.7	21.6	0.00e+00	0	29	0	842006528	48	6938
2026-01-16 21:11:48.41	356.82	15.30	-38.6	-39.8	21.5	0.00e+00	0	29	0	844103680	48	7032
2026-01-16 21:11:49.42	356.62	15.25	-38.3	-39.4	21.9	0.00e+00	0	29	0	845152256	48	6706
2026-01-16 21:11:50.42	356.43	15.21	-38.2	-39.3	21.9	0.00e+00	7	29	0	847249408	48	6617
2026-01-16 21:11:51.43	356.24	15.16	-38.0	-39.1	22.2	0.00e+00	0	29	0	849346560	48	6481
2026-01-16 21:11:52.44	356.04	15.11	-37.6	-38.6	22.4	0.00e+00	64	29	0	851443712	48	6120
2026-01-16 21:11:53.45	355.85	15.06	-37.5	-38.5	22.6	0.00e+00	0	29	0	853540864	48	6048
2026-01-16 21:11:54.46	355.66	15.01	-37.5	-38.5	22.6	0.00e+00	0	29	0	854589440	48	6059
2026-01-16 21:11:55.47	355.47	14.97	-37.6	-38.7	22.4	0.00e+00	0	29	0	856686592	48	6184
2026-01-16 21:11:56.48	355.28	14.92	-37.3	-38.3	22.8	0.00e+00	0	29	0	858783744	48	5900
2026-01-16 21:11:57.49	355.09	14.87	-37.2	-38.1	22.7	0.00e+00	75	29	0	860880896	48	5823
2026-01-16 21:11:58.50	354.90	14.82	-37.2	-38.2	22.9	0.00e+00	0	29	0	862978048	48	5870
2026-01-16 21:11:59.51	354.71	14.77	-37.0	-37.9	22.9	0.00e+00	67	29	0	864026624	48	5686
2026-01-16 21:12:00.52	354.53	14.72	-37.1	-38.1	22.9	0.00e+00	0	29	0	866123776	48	5768
2026-01-16 21:12:01.53	354.34	14.67	-37.1	-38.0	22.9	0.00e+00	0	29	0	868220928	48	5752
2026-01-16 21:12:02.54	354.15	14.62	-37.5	-38.5	22.6	0.00e+00	0	29	0	870318080	48	6085
2026-01-16 21:12:03.54	353.97	14.57	-37.7	-38.7	22.4	0.00e+00	0	29	0	872415232	48	6223
2026-01-16 21:12:04.56	353.78	14.52	-37.8	-38.9	22.2	0.00e+00	73	29	0	873463808	48	6334
2026-01-16 21:12:05.56	353.60	14.47	-37.7	-38.8	22.4	0.00e+00	0	29	0	875560960	48	6250
2026-01-16 21:12:06.57	353.41	14.42	-37.7	-38.7	22.3	0.00e+00	74	29	0	877658112	48	6209
2026-01-16 21:12:07.58	353.23	14.37	-37.6	-38.6	22.5	0.00e+00	0	29	0	879755264	48	6121
2026-01-16 21:12:08.59	353.05	14.32	-37.4	-38.4	22.6	0.00e+00	0	29	0	881852416	48	6005
2026-01-16 21:12:09.60	352.87	14.27	-37.2	-38.1	22.9	0.00e+00	0	29	0	882900992	48	5808
2026-01-16 21:12:10.61	352.69	14.22	-37.8	-38.8	22.5	0.00e+00	0	29	0	884998144	48	6310
2026-01-16 21:12:11.62	352.50	14.17	-37.5	-38.5	22.4	0.00e+00	65	29	0	887095296	48	6056
2026-01-16 21:12:12.63	352.32	14.12	-37.6	-38.5	22.5	0.00e+00	0	29	0	889192448	48	6087
2026-01-16 21:12:13.64	352.15	14.06	-37.8	-38.8	22.3	0.00e+00	72	29	0	891289600	48	6287
2026-01-16 21:12:14.65	351.97	14.01	-38.2	-39.3	21.8	0.00e+00	0	29	0	892338176	48	6631
2026-01-16 21:12:15.66	351.79	13.96	-38.6	-39.7	21.5	0.00e+00	84	29	0	894435328	48	6948
2026-01-16 21:12:16.67	351.61	13.91	-39.3	-40.6	20.6	0.00e+00	0	29	0	896532480	50	6861
2026-01-16 21:12:17.68	351.43	13.86	-39.9	-41.3	20.1	0.00e+00	0	29	0	898629632	52	6635
2026-01-16 21:12:18.69	351.26	13.80	-40.4	-41.9	19.5	0.00e+00	0	29	0	900726784	52	7137
2026-01-16 21:12:19.70	351.08	13.75	-40.9	-42.6	18.9	0.00e+00	0	29	0	901775360	54	6866
2026-01-16 21:12:20.71	350.91	13.70	-40.9	-42.6	19.1	0.00e+00	75	29	0	903872512	54	6873
2026-01-16 21:12:21.71	350.73	13.65	-40.7	-42.3	19.3	0.00e+00	0	29	0	905969664	54	6650
2026-01-16 21:12:22.72	350.56	13.59	-40.3	-41.8	19.6	0.00e+00	88	29	0	908066816	54	6278
2026-01-16 21:12:23.73	350.39	13.54	-40.0	-41.4	20.1	0.00e+00	0	29	0	910163968	54	5993
2026-01-16 21:12:24.74	350.22	13.49	-39.7	-41.0	20.3	0.00e+00	0	29	0	912261120	52	6445
2026-01-16 21:12:25.75	350.04	13.43	-39.6	-41.0	20.4	0.00e+00	0	29	0	913309696	52	6422
2026-01-16 21:12:26.76	349.87	13.38	-39.6	-40.9	20.5	0.00e+00	0	29	0	915406848	52	6358
2026-01-16 21:12:27.77	349.70	13.32	-39.4	-40.7	20.6	0.00e+00	18	29	0	917504000	52	6217
2026-01-16 21:12:28.77	349.53	13.27	-39.4	-40.7	20.7	0.00e+00	0	29	0	919601152	52	6216
2026-01-16 21:12:29.78	349.36	13.22	-39.1	-40.3	21.0	0.00e+00	74	29	0	921698304	52	5943
2026-01-16 21:12:30.79	349.20	13.16	-39.0	-40.2	21.1	0.00e+00	0	29	0	922746880	52	5877
2026-01-16 21:12:31.80	349.03	13.11	-38.8	-39.9	21.3	0.00e+00	0	29	0	924844032	50	6373
2026-01-16 21:12:32.81	348.86	13.05	-38.5	-39.6	21.5	0.00e+00	0	29	0	926941184	50	6118
2026-01-16 21:12:33.82	348.69	13.00	-38.4	-39.5	21.8	0.00e+00	0	29	0	929038336	50	6068
2026-01-16 21:12:34.83	348.53	12.94	-38.2	-39.3	21.9	0.00e+00	78	29	0	931135488	50	5945
2026-01-16 21:12:35.84	348.36	12.89	-38.4	-39.5	21.6	0.00e+00	0	30	0	932184064	50	6057
2026-01-16 21:12:36.85	348.20	12.83	-38.9	-40.1	21.1	0.00e+00	82	29	0	934281216	50	6514
2026-01-16 21:12:37.86	348.03	12.78	-38.8	-40.0	21.2	0.00e+00	0	29	0	936378368	50	6423
2026-01-16 21:12:38.87	347.87	12.72	-38.9	-40.1	21.2	0.00e+00	0	29	0	938475520	50	6517
2026-01-16 21:12:39.88	347.71	12.67	-38.9	-40.1	21.2	0.00e+00	0	30	0	940572672	50	6531
2026-01-16 21:12:40.89	347.54	12.61	-38.9	-40.0	21.2	0.00e+00	0	29	0	941621248	50	6453
2026-01-16 21:12:41.90	347.38	12.56	-38.6	-39.8	21.4	0.00e+00	33	29	0	943718400	50	6265
2026-01-16 21:12:42.91	347.22	12.50	-38.6	-39.7	21.6	0.00e+00	0	29	0	945815552	50	6207
2026-01-16 21:12:43.92	347.06	12.45	-38.2	-39.3	21.9	0.00e+00	86	29	0	947912704	50	5898
2026-01-16 21:12:44.93	346.90	12.39	-37.9	-39.0	22.0	0.00e+00	0	30	0	950009856	50	5698
2026-01-16 21:12:45.94	346.74	12.34	-37.9	-39.0	22.1	0.00e+00	0	29	0	951058432	50	5727
2026-01-16 21:12:46.95	346.58	12.28	-37.9	-39.0	22.1	0.00e+00	0	29	0	953155584	50	5751
2026-01-16 21:12:47.96	346.42	12.22	-37.9	-39.0	22.1	0.00e+00	0	29	0	955252736	50	5702
2026-01-16 21:12:48.97	346.27	12.17	-38.2	-39.3	21.7	0.00e+00	17	29	0	957349888	50	5920
2026-01-16 21:12:49.98	346.11	12.11	-38.1	-39.2	21.8	0.00e+00	0	29	0	959447040	50	5859
2026-01-16 21:12:50.99	345.95	12.05	-38.1	-39.2	21.9	0.00e+00	77	30	0	960495616	50	5888
2026-01-16 21:12:52.00	345.80	12.00	-38.4	-39.5	21.7	0.00e+00	0	30	0	962592768	50	6064
2026-01-16 21:12:53.01	345.64	11.94	-38.6	-39.7	21.6	0.00e+00	79	30	0	964689920	50	6227
2026-01-16 21:12:54.02	345.49	11.89	-38.7	-39.9	21.3	0.00e+00	0	30	0	966787072	50	6379
2026-01-16 21:12:55.02	345.34	11.83	-38.7	-39.9	21.3	0.00e+00	0	30	0	968884224	50	6322
2026-01-16 21:12:56.03	345.18	11.77	-38.9	-40.1	21.1	0.00e+00	0	30	0	969932800	50	6519
2026-01-16 21:12:57.04	345.03	11.72	-39.0	-40.2	21.2	0.00e+00	0	30	0	972029952	50	6582
2026-01-16 21:12:58.05	344.88	11.66	-38.6	-39.8	21.4	0.00e+00	43	30	0	974127104	50	6279
2026-01-16 21:12:59.06	344.73	11.60	-38.5	-39.7	21.4	0.00e+00	0	30	0	976224256	50	6239
2026-01-16 21:13:00.07	344.58	11.55	-38.6	-39.8	21.3	0.00e+00	47	30	0	978321408	50	6312
2026-01-16 21:13:01.08	344.43	11.49	-38.4	-39.5	21.5	0.00e+00	0	30	0	980418560	50	6095
2026-01-16 21:13:02.09	344.28	11.43	-38.4	-39.6	21.6	0.00e+00	0	30	0	981467136	50	6113
2026-01-16 21:13:03.10	344.13	11.37	-38.2	-39.3	21.8	0.00e+00	0	30	0	983564288	50	5925
2026-01-16 21:13:04.11	343.98	11.32	-38.1	-39.2	21.7	0.00e+00	0	30	0	985661440	50	5891
2026-01-16 21:13:05.12	343.83	11.26	-38.0	-39.1	22.1	0.00e+00	30	30	0	987758592	50	5771
2026-01-16 21:13:06.13	343.68	11.20	-37.7	-38.7	22.3	0.00e+00	33	30	0	989855744	48	6227
2026-01-16 21:13:07.14	343.54	11.15	-37.4	-38.5	22.4	0.00e+00	92	30	0	990904320	48	6043
2026-01-16 21:13:08.15	343.39	11.09	-37.3	-38.3	22.6	0.00e+00	0	30	0	993001472	48	5907
2026-01-16 21:13:09.16	343.25	11.03	-37.0	-38.0	22.8	0.00e+00	0	30	0	995098624	48	5728
2026-01-16 21:13:10.17	343.10	10.97	-36.8	-37.8	22.9	0.00e+00	0	30	0	997195776	48	5587
2026-01-16 21:13:11.18	342.96	10.92	-37.0	-38.0	22.9	0.00e+00	0	30	0	999292928	48	5740
2026-01-16 21:13:12.19	342.81	10.86	-37.0	-38.0	22.7	0.00e+00	46	30	0	1000341504	48	5750
2026-01-16 21:13:13.20	342.67	10.80	-36.9	-37.9	23.0	0.00e+00	0	30	0	1002438656	48	5631
2026-01-16 21:13:14.21	342.53	10.74	-36.9	-37.8	22.9	0.00e+00	79	30	0	1004535808	46	6307
2026-01-16 21:13:15.22	342.39	10.69	-37.1	-38.1	22.8	0.00e+00	0	30	0	1006632960	46	6494
2026-01-16 21:13:16.23	342.24	10.63	-37.1	-38.1	22.7	0.00e+00	0	30	0	1008730112	46	6518
2026-01-16 21:13:17.24	342.10	10.57	-37.4	-38.5	22.5	0.00e+00	0	30	0	1009778688	46	6771
2026-01-16 21:13:18.25	341.96	10.51	-37.6	-38.6	22.4	0.00e+00	0	30	0	1011875840	46	6921
2026-01-16 21:13:19.26	341.82	10.45	-37.9	-39.0	22.1	0.00e+00	65	30	0	1013972992	48	6403
2026-01-16 21:13:20.27	341.68	10.40	-37.7	-38.8	22.1	0.00e+00	0	30	0	1016070144	48	6314
2026-01-16 21:13:21.27	341.55	10.34	-37.8	-38.9	22.1	0.00e+00	92	30	0	1018167296	48	6388
2026-01-16 21:13:22.28	341.41	10.28	-37.9	-39.0	22.1	0.00e+00	0	30	0	1019215872	48	6404
2026-01-16 21:13:23.29	341.27	10.22	-37.7	-38.8	22.1	0.00e+00	49	30	0	1021313024	48	6283
2026-01-16 21:13:24.30	341.13	10.17	-37.6	-38.7	22.4	0.00e+00	0	30	0	1023410176	48	6203
2026-01-16 21:13:25.31	341.00	10.11	-37.4	-38.4	22.3	0.00e+00	0	30	0	1025507328	48	6030
2026-01-16 21:13:26.32	340.86	10.05	-37.6	-38.7	22.3	0.00e+00	0	30	0	1027604480	48	6204
2026-01-16 21:13:27.32	340.73	9.99	-37.6	-38.7	22.2	0.00e+00	0	30	0	1028653056	48	6187
2026-01-16 21:13:28.33	340.59	9.93	-37.8	-38.8	22.1	0.00e+00	74	30	0	1030750208	48	6311
2026-01-16 21:13:29.34	340.46	9.88	-37.8	-38.9	22.0	0.00e+00	0	30	0	1032847360	48	6333
2026-01-16 21:13:30.35	340.33	9.82	-37.9	-39.0	21.9	0.00e+00	79	30	0	1034944512	48	6396
2026-01-16 21:13:31.36	340.19	9.76	-37.9	-39.0	21.9	7.00e-07	0	30	0	1037041664	48	6455
2026-01-16 21:13:32.37	340.06	9.70	-38.0	-39.1	21.9	0.00e+00	0	30	0	1038090240	48	6468
2026-01-16 21:13:33.38	339.93	9.64	-37.9	-39.0	22.0	0.00e+00	0	30	0	1040187392	48	6426
2026-01-16 21:13:34.39	339.80	9.59	-37.9	-39.0	21.8	0.00e+00	33	30	0	1042284544	48	6436
2026-01-16 21:13:35.40	339.67	9.53	-38.2	-39.4	21.6	0.00e+00	11	30	0	1044381696	48	6707
2026-01-16 21:13:36.41	339.54	9.47	-38.0	-39.0	21.9	0.00e+00	0	30	0	1046478848	48	6462
2026-01-16 21:13:37.42	339.41	9.41	-38.1	-39.2	21.7	0.00e+00	92	30	0	1048576000	48	6556
2026-01-16 21:13:38.43	339.28	9.35	-38.3	-39.5	21.5	0.00e+00	0	30	0	1049624576	48	6784
2026-01-16 21:13:39.44	339.15	9.29	-38.6	-39.8	21.3	0.00e+00	0	30	0	1051721728	50	6255
2026-01-16 21:13:40.44	339.02	9.24	-38.4	-39.5	21.5	0.00e+00	0	30	0	1053818880	50	6098
2026-01-16 21:13:41.45	338.89	9.18	-38.4	-39.5	21.5	0.00e+00	0	30	0	1055916032	50	6073
2026-01-16 21:13:42.46	338.77	9.12	-38.7	-39.9	21.2	0.00e+00	24	30	0	1058013184	50	6323
2026-01-16 21:13:43.47	338.64	9.06	-38.8	-40.0	20.8	0.00e+00	0	30	0	1059061760	50	6413
2026-01-16 21:13:44.48	338.51	9.00	-38.6	-39.8	21.3	0.00e+00	92	30	0	1061158912	50	6302
2026-01-16 21:13:45.49	338.39	8.95	-38.6	-39.8	21.3	0.00e+00	0	30	0	1063256064	50	6255
2026-01-16 21:13:46.50	338.26	8.89	-38.3	-39.5	21.4	0.00e+00	0	30	0	1065353216	50	6068
2026-01-16 21:13:47.51	338.14	8.83	-38.2	-39.3	21.5	0.00e+00	0	30	0	1066401792	50	5929
2026-01-16 21:13:48.52	338.01	8.77	-38.0	-39.1	21.7	0.00e+00	0	30	0	1068498944	50	5808
2026-01-16 21:13:49.53	337.89	8.71	-37.9	-39.0	21.8	0.00e+00	71	30	0	1070596096	50	5732
2026-01-16 21:13:50.54	337.77	8.66	-37.6	-38.6	21.8	0.00e+00	0	30	0	1072693248	48	6166
2026-01-16 21:13:51.55	337.64	8.60	-37.6	-38.7	22.1	0.00e+00	90	30	0	1074790400	48	6190
2026-01-16 21:13:52.56	337.52	8.54	-37.3	-38.3	22.2	0.00e+00	0	30	0	1076887552	48	5960
2026-01-16 21:13:53.56	337.40	8.48	-37.2	-38.2	22.4	0.00e+00	0	30	0	1077936128	48	5867
2026-01-16 21:13:54.57	337.28	8.42	-37.3	-38.4	22.3	0.00e+00	0	30	0	1080033280	48	5968
2026-01-16 21:13:55.58	337.16	8.37	-37.5	-38.5	22.1	0.00e+00	0	30	0	1082130432	48	6084
2026-01-16 21:13:56.59	337.04	8.31	-37.7	-38.7	21.7	0.00e+00	0	30	0	1084227584	48	6220
2026-01-16 21:13:57.60	336.92	8.25	-37.6	-38.6	21.6	0.00e+00	0	30	0	1086324736	48	6157
2026-01-16 21:13:58.61	336.80	8.19	-38.0	-39.2	21.7	0.00e+00	75	30	0	1087373312	48	6548
2026-01-16 21:13:59.62	336.68	8.13	-38.0	-39.1	21.6	0.00e+00	0	30	0	1089470464	48	6498
2026-01-16 21:14:00.63	336.56	8.07	-38.3	-39.5	21.3	0.00e+00	92	30	0	1091567616	48	6803
2026-01-16 21:14:01.64	336.45	8.02	-38.7	-39.9	20.9	0.00e+00	0	30	0	1093664768	48	7136
2026-01-16 21:14:02.65	336.33	7.96	-38.7	-39.9	21.0	0.00e+00	0	30	0	1095761920	50	6328
2026-01-16 21:14:03.66	336.21	7.90	-38.9	-40.1	20.8	0.00e+00	0	30	0	1096810496	50	6485
2026-01-16 21:14:04.67	336.09	7.84	-38.7	-39.9	21.0	0.00e+00	0	30	0	1098907648	50	6362
2026-01-16 21:14:05.68	335.98	7.78	-38.8	-40.0	20.9	0.00e+00	66	30	0	1101004800	50	6408
2026-01-16 21:14:06.69	335.86	7.73	-38.6	-39.7	21.1	0.00e+00	0	30	0	1103101952	50	6235
2026-01-16 21:14:07.69	335.75	7.67	-38.6	-39.8	21.0	0.00e+00	91	30	0	1105199104	50	6248
2026-01-16 21:14:08.70	335.64	7.61	-38.2	-39.3	21.5	0.00e+00	0	30	0	1106247680	50	5951
2026-01-16 21:14:09.71	335.52	7.55	-38.3	-39.5	21.3	0.00e+00	0	30	0	1108344832	50	6045
2026-01-16 21:14:10.72	335.41	7.50	-38.3	-39.4	21.4	0.00e+00	0	30	0	1110441984	50	6022
2026-01-16 21:14:11.73	335.30	7.44	-38.1	-39.2	21.6	0.00e+00	0	30	0	1112539136	50	5869
2026-01-16 21:14:12.74	335.18	7.38	-38.0	-39.1	21.5	0.00e+00	1	30	0	1114636288	50	5806
2026-01-16 21:14:13.75	335.07	7.32	-38.0	-39.1	21.7	0.00e+00	0	30	0	1115684864	50	5779
2026-01-16 21:14:14.76	334.96	7.27	-38.2	-39.3	21.5	0.00e+00	90	30	0	1117782016	50	5935
2026-01-16 21:14:15.77	334.85	7.21	-38.1	-39.2	21.6	0.00e+00	0	30	0	1119879168	50	5866
2026-01-16 21:14:16.78	334.74	7.15	-38.2	-39.4	21.4	0.00e+00	0	30	0	1121976320	50	5969
2026-01-16 21:14:17.79	334.63	7.09	-38.4	-39.6	21.2	0.00e+00	0	30	0	1124073472	50	6135
2026-01-16 21:14:18.80	334.52	7.03	-38.4	-39.5	21.2	0.00e+00	0	30	0	1125122048	50	6087
2026-01-16 21:14:19.81	334.41	6.98	-38.7	-39.9	20.9	0.00e+00	0	30	0	1127219200	50	6359
2026-01-16 21:14:20.81	334.30	6.92	-38.7	-39.9	21.1	0.00e+00	33	30	0	1129316352	50	6337
2026-01-16 21:14:21.82	334.19	6.86	-39.0	-40.3	20.5	0.00e+00	92	30	0	1131413504	50	6673
2026-01-16 21:14:22.83	334.08	6.80	-39.0	-40.3	20.5	0.00e+00	0	30	0	1133510656	50	6653
2026-01-16 21:14:23.84	333.98	6.75	-38.9	-40.1	20.6	0.00e+00	0	30	0	1134559232	50	6513
2026-01-16 21:14:24.85	333.87	6.69	-39.2	-40.5	20.2	0.00e+00	0	30	0	1136656384	50	6839
2026-01-16 21:14:25.86	333.76	6.63	-39.3	-40.7	20.1	0.00e+00	0	30	0	1138753536	50	6955
2026-01-16 21:14:26.87	333.66	6.58	-39.6	-41.0	19.7	0.00e+00	0	30	0	1140850688	50	7221
2026-01-16 21:14:27.88	333.55	6.52	-39.4	-40.8	20.0	0.00e+00	0	30	0	1142947840	50	7036
2026-01-16 21:14:28.89	333.44	6.46	-39.5	-40.9	19.9	0.00e+00	72	30	0	1145044992	50	7154
2026-01-16 21:14:29.90	333.34	6.40	-39.6	-41.0	19.9	0.00e+00	0	30	0	1146093568	50	7206
2026-01-16 21:14:30.91	333.23	6.35	-39.5	-40.9	20.0	0.00e+00	92	30	0	1148190720	50	7096
2026-01-16 21:14:31.92	333.13	6.29	-39.5	-40.9	20.0	0.00e+00	0	30	0	1150287872	50	7105
2026-01-16 21:14:32.93	333.03	6.23	-39.6	-41.0	19.8	0.00e+00	0	30	0	1152385024	50	7188
2026-01-16 21:14:33.94	332.92	6.17	-39.7	-41.2	19.7	0.00e+00	0	30	0	1154482176	52	6540
2026-01-16 21:14:34.95	332.82	6.12	-39.8	-41.2	19.7	0.00e+00	0	30	0	1155530752	52	6561
2026-01-16 21:14:35.96	332.72	6.06	-39.5	-40.8	20.0	0.00e+00	24	30	0	1157627904	52	6277
2026-01-16 21:14:36.96	332.62	6.00	-39.5	-40.9	19.8	0.00e+00	0	30	0	1159725056	52	6360
2026-01-16 21:14:37.97	332.52	5.95	-39.5	-40.9	19.9	0.00e+00	90	30	0	1161822208	52	6342
2026-01-16 21:14:38.98	332.41	5.89	-39.5	-40.9	19.9	0.00e+00	0	30	0	1163919360	52	6344
2026-01-16 21:14:39.99	332.31	5.83	-39.5	-40.9	19.9	0.00e+00	0	30	0	1164967936	52	6362
2026-01-16 21:14:41.00	332.21	5.78	-39.9	-41.3	19.5	0.00e+00	0	30	0	1167065088	52	6686
2026-01-16 21:14:42.01	332.11	5.72	-39.8	-41.2	19.6	0.00e+00	0	30	0	1169162240	52	6609
2026-01-16 21:14:43.02	332.01	5.66	-40.2	-41.7	19.1	0.00e+00	39	30	0	1171259392	52	7000
2026-01-16 21:14:44.03	331.91	5.61	-40.3	-41.8	19.1	0.00e+00	0	30	0	1173356544	52	7054
2026-01-16 21:14:45.04	331.82	5.55	-40.3	-41.9	19.0	0.00e+00	45	30	0	1174405120	52	7138
2026-01-16 21:14:46.05	331.72	5.49	-40.3	-41.9	18.9	0.00e+00	0	30	0	1176502272	52	7124
2026-01-16 21:14:47.06	331.62	5.44	-40.6	-42.2	18.6	0.00e+00	0	30	0	1178599424	52	7386
2026-01-16 21:14:48.06	331.52	5.38	-40.8	-42.5	18.4	0.00e+00	0	30	0	1180696576	52	7603
2026-01-16 21:14:49.07	331.42	5.32	-40.6	-42.2	18.7	0.00e+00	0	30	0	1182793728	54	6555
2026-01-16 21:14:50.08	331.33	5.27	-40.5	-42.1	18.6	0.00e+00	44	30	0	1183842304	54	6505
2026-01-16 21:14:51.09	331.23	5.21	-40.6	-42.2	18.8	0.00e+00	0	30	0	1185939456	54	6569
2026-01-16 21:14:52.10	331.14	5.15	-40.1	-41.7	19.1	0.00e+00	87	30	0	1188036608	54	6182
2026-01-16 21:14:53.11	331.04	5.10	-40.3	-41.9	18.9	0.00e+00	33	30	0	1190133760	54	6322
2026-01-16 21:14:54.12	330.94	5.04	-40.1	-41.6	19.1	0.00e+00	0	30	0	1192230912	54	6132
2026-01-16 21:14:55.13	330.85	4.98	-40.1	-41.6	19.2	0.00e+00	0	30	0	1193279488	54	6105
2026-01-16 21:14:56.14	330.75	4.93	-40.0	-41.4	19.4	0.00e+00	0	30	0	1195376640	54	6030
2026-01-16 21:14:57.15	330.66	4.87	-40.0	-41.5	19.2	0.00e+00	76	30	0	1197473792	54	6083
2026-01-16 21:14:58.16	330.57	4.82	-40.1	-41.7	19.1	0.00e+00	0	30	0	1199570944	54	6204
2026-01-16 21:14:59.17	330.47	4.76	-40.0	-41.5	19.2	0.00e+00	72	30	0	1201668096	54	6069
