passes_logs/2026/01/16/R4.6S_Anadyr/R4.6S_Anadyr__20260116_184506_FENGYUN_3D_rec.log

#Pass ID: 20260116_184506_FENGYUN 3D
#Satellite: FENGYUN 3D
#Configuration: FENGYUN 3D
#almurnet v.1.7.20251203
#Start time: 2026-01-16 18:45:08

#Version: 2.2.20231116
#Station: R4.6S_Anadyr
#Location: 177.4865 lon 64.73178 lat
#TLE: 1 43010U 17072A   26015.99024095 -.00000189  00000+0 -67463-4 0  9996
#TLE: 2 43010  98.9932 347.8215 0002366 106.5594 253.5841 14.19694691423396

#Time	Az	El	Level	Level2	SNR	BER	BlckErr	Temp	State	Recorded	gain1	gain2
2026-01-16 18:45:08.75	27.79	0.12	-48.0	-62.9	3.5	1.51e+00	0	27	0	0	60	50517
2026-01-16 18:45:09.76	27.74	0.18	-48.2	-60.3	3.6	8.46e-01	0	28	104	0	60	37466
2026-01-16 18:45:10.76	27.70	0.23	-48.0	-60.1	3.6	8.45e-01	0	28	104	0	60	36666
2026-01-16 18:45:11.77	27.66	0.29	-48.0	-60.1	3.6	8.46e-01	0	28	104	0	60	36723
2026-01-16 18:45:12.78	27.61	0.35	-47.9	-60.1	3.6	8.45e-01	0	28	104	0	60	36486
2026-01-16 18:45:13.79	27.57	0.40	-48.0	-60.1	3.6	8.46e-01	0	28	104	0	60	36577
2026-01-16 18:45:14.80	27.52	0.46	-48.0	-60.1	3.6	8.44e-01	0	28	104	0	60	36631
2026-01-16 18:45:15.81	27.47	0.52	-48.0	-60.2	3.6	8.45e-01	0	28	104	0	60	36948
2026-01-16 18:45:16.83	27.43	0.58	-48.0	-60.2	3.6	8.44e-01	0	28	104	0	60	36932
2026-01-16 18:45:17.83	27.38	0.63	-47.7	-60.1	3.6	8.46e-01	0	28	104	0	60	36749
2026-01-16 18:45:18.84	27.34	0.69	-48.0	-60.1	3.6	8.46e-01	0	28	104	0	60	36355
2026-01-16 18:45:19.85	27.29	0.75	-47.8	-59.9	3.6	8.45e-01	0	28	104	0	60	35730
2026-01-16 18:45:20.86	27.24	0.81	-47.7	-59.8	3.6	8.44e-01	0	28	104	0	60	35178
2026-01-16 18:45:21.87	27.20	0.87	-47.5	-59.6	3.6	8.46e-01	0	28	104	0	60	34640
2026-01-16 18:45:22.88	27.15	0.92	-47.3	-59.4	3.6	8.45e-01	0	28	104	0	60	33641
2026-01-16 18:45:23.89	27.10	0.98	-47.2	-59.3	3.6	8.45e-01	0	28	104	0	60	33196
2026-01-16 18:45:24.90	27.05	1.04	-46.9	-58.9	3.6	8.45e-01	0	28	104	0	60	31936
2026-01-16 18:45:25.91	27.01	1.10	-46.5	-58.3	3.6	8.46e-01	0	28	104	0	60	29768
2026-01-16 18:45:26.92	26.96	1.16	-46.4	-58.4	3.6	8.44e-01	0	28	104	0	60	30160
2026-01-16 18:45:27.93	26.91	1.22	-46.4	-58.4	3.6	8.45e-01	0	28	104	0	60	30004
2026-01-16 18:45:28.94	26.86	1.27	-46.4	-58.4	3.6	8.46e-01	0	28	104	0	60	30116
2026-01-16 18:45:29.95	26.81	1.33	-46.3	-58.4	3.6	8.46e-01	0	28	104	0	60	30046
2026-01-16 18:45:30.96	26.77	1.39	-46.4	-58.5	3.6	8.46e-01	0	28	104	0	60	30358
2026-01-16 18:45:31.97	26.72	1.45	-46.3	-58.4	3.6	8.46e-01	0	28	104	0	60	30106
2026-01-16 18:45:32.98	26.67	1.51	-46.3	-58.3	3.6	8.45e-01	0	28	104	0	60	29835
2026-01-16 18:45:33.99	26.62	1.57	-46.3	-58.3	3.6	8.46e-01	0	28	104	0	60	29874
2026-01-16 18:45:35.00	26.57	1.63	-46.3	-58.3	3.6	8.46e-01	0	28	104	0	60	29786
2026-01-16 18:45:36.01	26.52	1.69	-46.3	-58.4	3.6	8.46e-01	0	29	104	0	60	30083
2026-01-16 18:45:37.02	26.47	1.75	-46.4	-58.4	3.6	8.44e-01	0	29	104	0	60	30183
2026-01-16 18:45:38.03	26.42	1.81	-46.3	-58.4	3.6	8.45e-01	0	28	104	0	60	30130
2026-01-16 18:45:39.04	26.37	1.87	-46.3	-58.4	3.6	8.45e-01	0	29	104	0	60	29966
2026-01-16 18:45:40.06	26.32	1.93	-46.3	-58.1	3.6	8.46e-01	0	29	104	0	60	29020
2026-01-16 18:45:41.06	26.27	1.99	-46.3	-57.9	3.6	8.46e-01	0	29	104	0	60	28448
2026-01-16 18:45:42.07	26.22	2.05	-46.3	-57.9	3.6	8.46e-01	0	29	104	0	60	28257
2026-01-16 18:45:43.08	26.16	2.11	-46.3	-57.8	3.6	8.45e-01	0	29	104	0	60	28013
2026-01-16 18:45:44.09	26.11	2.17	-46.3	-57.9	3.6	8.45e-01	0	29	104	0	60	28381
2026-01-16 18:45:45.10	26.06	2.23	-46.3	-58.2	3.6	8.45e-01	0	29	104	0	60	29496
2026-01-16 18:45:46.11	26.01	2.29	-46.3	-58.4	3.5	8.45e-01	0	29	104	0	60	29911
2026-01-16 18:45:47.12	25.96	2.35	-46.3	-58.4	3.6	8.45e-01	0	29	104	0	60	30050
2026-01-16 18:45:48.13	25.91	2.41	-46.3	-58.3	3.6	8.44e-01	0	29	104	0	60	29878
2026-01-16 18:45:49.14	25.85	2.47	-46.3	-58.3	3.6	8.45e-01	0	29	104	0	60	29661
2026-01-16 18:45:50.15	25.80	2.53	-46.3	-58.1	3.6	8.44e-01	0	29	104	0	60	29174
2026-01-16 18:45:51.16	25.75	2.59	-46.3	-58.2	3.6	8.46e-01	0	29	104	0	60	29261
2026-01-16 18:45:52.17	25.69	2.65	-46.3	-57.8	3.6	8.46e-01	0	29	104	0	60	28089
2026-01-16 18:45:53.18	25.64	2.71	-46.2	-57.5	3.6	8.46e-01	0	29	104	0	60	27088
2026-01-16 18:45:54.18	25.59	2.77	-46.2	-57.3	3.6	8.45e-01	0	29	104	0	60	26620
2026-01-16 18:45:55.19	25.53	2.83	-46.2	-57.2	3.6	8.45e-01	0	29	104	0	60	26195
2026-01-16 18:45:56.20	25.48	2.89	-46.3	-58.1	3.6	8.46e-01	0	29	104	0	60	29085
2026-01-16 18:45:57.21	25.42	2.96	-46.3	-58.2	3.6	8.45e-01	0	29	104	0	60	29271
2026-01-16 18:45:58.22	25.37	3.02	-46.1	-55.7	3.7	8.45e-01	0	29	104	0	60	22126
2026-01-16 18:45:59.23	25.31	3.08	-45.4	-51.6	6.1	6.56e-01	0	29	0	0	60	13695
2026-01-16 18:46:00.24	25.26	3.14	-44.6	-48.6	8.3	1.06e-01	0	29	0	5242880	60	9773
2026-01-16 18:46:01.25	25.20	3.20	-43.0	-45.6	11.8	1.80e-03	0	29	0	10485760	60	6920
2026-01-16 18:46:02.26	25.15	3.27	-41.6	-43.7	13.7	1.60e-05	0	29	0	16777216	56	6942
2026-01-16 18:46:03.27	25.09	3.33	-40.1	-41.6	15.6	0.00e+00	0	29	0	22020096	54	6133
2026-01-16 18:46:04.27	25.04	3.39	-40.0	-41.5	15.8	0.00e+00	0	29	0	28311552	54	6079
2026-01-16 18:46:05.28	24.98	3.45	-40.1	-41.6	15.8	0.00e+00	0	29	0	33554432	52	6921
2026-01-16 18:46:06.30	24.92	3.52	-40.6	-42.3	14.6	0.00e+00	0	29	0	38797312	52	7481
2026-01-16 18:46:07.31	24.86	3.58	-42.4	-44.7	14.6	1.03e-02	0	29	0	45088768	60	6178
2026-01-16 18:46:08.31	24.81	3.64	-35.9	-36.8	20.6	0.00e+00	0	29	0	50331648	46	5599
2026-01-16 18:46:09.32	24.75	3.70	-46.3	-57.7	3.7	8.45e-01	0	29	104	52428800	60	27831
2026-01-16 18:46:10.33	24.69	3.77	-38.7	-39.8	17.9	2.55e-04	0	29	104	52428800	54	5008
2026-01-16 18:46:11.34	24.63	3.83	-41.4	-43.3	14.5	5.37e-05	0	29	0	55574528	58	5936
2026-01-16 18:46:12.35	24.58	3.89	-37.8	-39.0	18.6	0.00e+00	0	29	0	61865984	50	5696
2026-01-16 18:46:13.36	24.52	3.96	-36.6	-37.6	19.9	0.00e+00	0	29	0	67108864	46	6146
2026-01-16 18:46:14.37	24.46	4.02	-36.0	-36.9	20.8	0.00e+00	0	29	0	73400320	46	5648
2026-01-16 18:46:15.38	24.40	4.08	-36.0	-36.9	20.7	0.00e+00	0	29	0	78643200	44	6343
2026-01-16 18:46:16.39	24.34	4.15	-35.2	-36.1	21.6	0.00e+00	0	29	0	83886080	44	5776
2026-01-16 18:46:17.40	24.28	4.21	-34.7	-35.5	21.9	0.00e+00	0	29	0	90177536	44	5431
2026-01-16 18:46:18.41	24.22	4.27	-35.2	-36.0	21.7	0.00e+00	0	29	0	95420416	42	6415
2026-01-16 18:46:19.42	24.16	4.34	-35.2	-36.0	21.8	0.00e+00	0	29	0	101711872	42	6410
2026-01-16 18:46:20.43	24.10	4.40	-34.9	-35.7	21.9	0.00e+00	0	29	0	106954752	42	6196
2026-01-16 18:46:21.44	24.04	4.47	-35.2	-36.1	21.5	0.00e+00	0	29	0	113246208	42	6497
2026-01-16 18:46:22.45	23.98	4.53	-35.2	-36.0	21.6	0.00e+00	0	29	0	118489088	42	6436
2026-01-16 18:46:23.46	23.92	4.60	-35.2	-36.0	21.6	0.00e+00	0	29	0	123731968	42	6454
2026-01-16 18:46:24.47	23.85	4.66	-35.2	-36.0	21.6	0.00e+00	0	29	0	130023424	42	6459
2026-01-16 18:46:25.48	23.79	4.73	-34.6	-35.4	22.3	0.00e+00	0	29	0	135266304	42	5996
2026-01-16 18:46:26.49	23.73	4.79	-34.8	-35.7	22.0	0.00e+00	0	29	0	141557760	42	6175
2026-01-16 18:46:27.50	23.67	4.85	-34.8	-35.7	22.0	0.00e+00	0	29	0	146800640	42	6196
2026-01-16 18:46:28.51	23.60	4.92	-34.5	-35.3	22.4	0.00e+00	0	29	0	152043520	42	5927
2026-01-16 18:46:29.52	23.54	4.99	-34.8	-35.5	22.2	0.00e+00	0	29	0	158334976	42	6102
2026-01-16 18:46:30.53	23.48	5.05	-34.5	-35.3	22.4	0.00e+00	0	29	0	163577856	42	5898
2026-01-16 18:46:31.54	23.41	5.12	-34.7	-35.5	22.3	0.00e+00	0	29	0	169869312	42	6052
2026-01-16 18:46:32.55	23.35	5.18	-34.5	-35.2	22.4	0.00e+00	0	29	0	175112192	42	5894
2026-01-16 18:46:33.56	23.28	5.25	-34.5	-35.3	22.4	0.00e+00	0	29	0	181403648	42	5954
2026-01-16 18:46:34.57	23.22	5.31	-34.4	-35.2	22.3	0.00e+00	0	29	0	186646528	42	5863
2026-01-16 18:46:35.58	23.15	5.38	-34.6	-35.4	22.3	0.00e+00	0	29	0	191889408	42	5976
2026-01-16 18:46:36.59	23.09	5.45	-34.7	-35.5	22.3	0.00e+00	0	29	0	198180864	42	6057
2026-01-16 18:46:37.60	23.02	5.51	-34.2	-35.0	22.7	0.00e+00	0	29	0	203423744	42	5721
2026-01-16 18:46:38.61	22.96	5.58	-34.3	-35.1	22.6	0.00e+00	0	29	0	209715200	42	5796
2026-01-16 18:46:39.62	22.89	5.65	-34.4	-35.2	22.6	0.00e+00	0	29	0	214958080	42	5831
2026-01-16 18:46:40.63	22.82	5.71	-34.5	-35.3	22.5	0.00e+00	0	29	0	221249536	42	5952
2026-01-16 18:46:41.64	22.76	5.78	-34.3	-35.0	22.8	0.00e+00	0	29	0	226492416	42	5753
2026-01-16 18:46:42.65	22.69	5.85	-34.3	-35.1	22.7	0.00e+00	0	29	0	231735296	42	5782
2026-01-16 18:46:43.66	22.62	5.91	-34.2	-35.0	22.8	0.00e+00	0	29	0	238026752	42	5715
2026-01-16 18:46:44.67	22.55	5.98	-34.4	-35.2	22.6	0.00e+00	0	29	0	243269632	42	5870
2026-01-16 18:46:45.68	22.49	6.05	-34.4	-35.1	22.7	0.00e+00	0	29	0	249561088	42	5826
2026-01-16 18:46:46.69	22.42	6.12	-34.5	-35.3	22.5	0.00e+00	0	29	0	254803968	42	5924
2026-01-16 18:46:47.70	22.35	6.18	-34.4	-35.2	22.7	0.00e+00	0	29	0	260046848	42	5869
2026-01-16 18:46:48.71	22.28	6.25	-34.2	-35.0	22.9	0.00e+00	0	29	0	266338304	42	5707
2026-01-16 18:46:49.71	22.21	6.32	-34.2	-35.0	22.9	0.00e+00	0	29	0	271581184	42	5699
2026-01-16 18:46:50.72	22.14	6.39	-34.2	-35.0	22.9	0.00e+00	0	29	0	277872640	42	5722
2026-01-16 18:46:51.73	22.07	6.45	-34.2	-34.9	22.9	0.00e+00	0	29	0	283115520	42	5691
2026-01-16 18:46:52.74	22.00	6.52	-34.2	-35.0	22.8	0.00e+00	0	29	0	288358400	42	5704
2026-01-16 18:46:53.75	21.93	6.59	-34.3	-35.0	22.8	0.00e+00	0	29	0	294649856	42	5754
2026-01-16 18:46:54.76	21.86	6.66	-34.4	-35.1	22.8	0.00e+00	0	29	0	299892736	42	5816
2026-01-16 18:46:55.77	21.79	6.73	-34.2	-34.9	23.0	0.00e+00	0	29	0	306184192	42	5688
2026-01-16 18:46:56.78	21.71	6.80	-34.1	-34.9	23.0	0.00e+00	0	29	0	311427072	42	5647
2026-01-16 18:46:57.79	21.64	6.87	-34.0	-34.8	23.1	0.00e+00	0	29	0	317718528	42	5604
2026-01-16 18:46:58.80	21.57	6.94	-33.8	-34.5	23.3	0.00e+00	0	29	0	322961408	42	5384
2026-01-16 18:46:59.81	21.49	7.00	-33.8	-34.5	23.2	0.00e+00	0	29	0	328204288	40	6099
2026-01-16 18:47:00.82	21.42	7.07	-33.9	-34.7	23.2	0.00e+00	0	29	0	334495744	40	6191
2026-01-16 18:47:01.83	21.35	7.14	-33.9	-34.6	23.3	0.00e+00	0	29	0	339738624	40	6154
2026-01-16 18:47:02.84	21.27	7.21	-33.8	-34.5	23.3	0.00e+00	0	29	0	346030080	40	6093
2026-01-16 18:47:03.85	21.20	7.28	-34.0	-34.7	23.1	0.00e+00	0	29	0	351272960	40	6215
2026-01-16 18:47:04.86	21.12	7.35	-33.8	-34.6	23.3	0.00e+00	0	29	0	356515840	40	6116
2026-01-16 18:47:05.87	21.05	7.42	-34.0	-34.7	23.2	0.00e+00	0	29	0	362807296	40	6211
2026-01-16 18:47:06.88	20.97	7.49	-33.7	-34.4	23.5	0.00e+00	0	29	0	368050176	40	6018
2026-01-16 18:47:07.89	20.90	7.56	-33.7	-34.4	23.5	0.00e+00	0	29	0	374341632	40	5994
2026-01-16 18:47:08.90	20.82	7.63	-33.7	-34.5	23.5	0.00e+00	0	29	0	379584512	40	6038
2026-01-16 18:47:09.91	20.74	7.71	-33.8	-34.5	23.4	0.00e+00	0	29	0	385875968	40	6070
2026-01-16 18:47:10.92	20.66	7.78	-33.7	-34.5	23.5	0.00e+00	0	29	0	391118848	40	6051
2026-01-16 18:47:11.93	20.59	7.85	-33.5	-34.2	23.7	0.00e+00	0	29	0	397410304	40	5878
2026-01-16 18:47:12.94	20.51	7.92	-33.6	-34.3	23.6	0.00e+00	0	30	0	402653184	40	5928
2026-01-16 18:47:13.95	20.43	7.99	-33.7	-34.4	23.4	0.00e+00	0	30	0	407896064	40	6027
2026-01-16 18:47:14.96	20.35	8.06	-33.7	-34.5	23.4	0.00e+00	0	29	0	414187520	40	6036
2026-01-16 18:47:15.97	20.27	8.13	-33.5	-34.2	23.7	0.00e+00	0	30	0	419430400	40	5866
2026-01-16 18:47:16.98	20.19	8.20	-33.6	-34.3	23.6	0.00e+00	0	30	0	425721856	40	5942
2026-01-16 18:47:17.99	20.11	8.28	-33.4	-34.1	23.8	0.00e+00	0	29	0	430964736	40	5762
2026-01-16 18:47:19.00	20.03	8.35	-33.5	-34.2	23.7	0.00e+00	0	30	0	436207616	40	5848
2026-01-16 18:47:20.01	19.95	8.42	-33.5	-34.2	23.7	0.00e+00	0	30	0	442499072	40	5868
2026-01-16 18:47:21.02	19.87	8.49	-33.6	-34.3	23.7	0.00e+00	0	30	0	447741952	40	5911
2026-01-16 18:47:22.03	19.79	8.57	-33.6	-34.3	23.6	0.00e+00	0	30	0	454033408	40	5956
2026-01-16 18:47:23.04	19.70	8.64	-33.5	-34.2	23.8	0.00e+00	0	30	0	459276288	40	5832
2026-01-16 18:47:24.05	19.62	8.71	-33.4	-34.1	23.8	0.00e+00	0	29	0	464519168	40	5827
2026-01-16 18:47:25.06	19.54	8.78	-33.4	-34.1	23.9	0.00e+00	0	30	0	470810624	40	5803
2026-01-16 18:47:26.07	19.45	8.86	-33.3	-34.0	23.9	0.00e+00	0	30	0	476053504	40	5737
2026-01-16 18:47:27.08	19.37	8.93	-33.3	-34.0	24.0	0.00e+00	0	30	0	482344960	40	5758
2026-01-16 18:47:28.09	19.29	9.00	-33.4	-34.1	23.9	0.00e+00	0	30	0	487587840	40	5775
2026-01-16 18:47:29.10	19.20	9.08	-33.3	-34.0	23.9	0.00e+00	0	30	0	492830720	40	5761
2026-01-16 18:47:30.11	19.12	9.15	-33.3	-34.0	24.0	0.00e+00	0	30	0	499122176	40	5723
2026-01-16 18:47:31.12	19.03	9.22	-33.3	-34.0	24.0	0.00e+00	0	30	0	504365056	40	5759
2026-01-16 18:47:32.13	18.94	9.30	-33.2	-34.0	24.1	0.00e+00	0	30	0	510656512	40	5696
2026-01-16 18:47:33.14	18.86	9.37	-33.3	-34.0	24.0	0.00e+00	0	30	0	515899392	40	5715
2026-01-16 18:47:34.15	18.77	9.45	-33.3	-34.0	24.0	0.00e+00	0	30	0	522190848	40	5735
2026-01-16 18:47:35.16	18.68	9.52	-33.1	-33.9	24.1	0.00e+00	0	30	0	527433728	40	5636
2026-01-16 18:47:36.16	18.59	9.60	-33.3	-34.0	24.0	0.00e+00	0	30	0	532676608	40	5733
2026-01-16 18:47:37.17	18.51	9.67	-33.2	-33.9	24.1	0.00e+00	0	30	0	538968064	40	5676
2026-01-16 18:47:38.18	18.42	9.75	-33.3	-34.0	24.0	0.00e+00	0	30	0	544210944	40	5718
2026-01-16 18:47:39.19	18.33	9.82	-33.3	-34.1	24.0	0.00e+00	0	30	0	550502400	40	5771
2026-01-16 18:47:40.20	18.24	9.90	-33.3	-34.1	23.9	0.00e+00	0	30	0	555745280	40	5766
2026-01-16 18:47:41.21	18.15	9.97	-33.1	-33.8	24.1	0.00e+00	0	30	0	560988160	40	5623
2026-01-16 18:47:42.22	18.06	10.05	-33.3	-34.0	24.0	0.00e+00	0	30	0	567279616	40	5722
2026-01-16 18:47:43.23	17.96	10.12	-33.2	-33.9	24.1	0.00e+00	0	30	0	572522496	40	5686
2026-01-16 18:47:44.24	17.87	10.20	-33.3	-34.0	24.1	0.00e+00	0	30	0	578813952	40	5744
2026-01-16 18:47:45.25	17.78	10.27	-33.2	-33.9	24.1	0.00e+00	0	30	0	584056832	40	5646
2026-01-16 18:47:46.26	17.69	10.35	-33.3	-34.0	24.1	0.00e+00	0	30	0	589299712	40	5735
2026-01-16 18:47:47.27	17.59	10.43	-33.0	-33.8	24.3	0.00e+00	0	30	0	595591168	40	5580
2026-01-16 18:47:48.28	17.50	10.50	-33.0	-33.7	24.3	0.00e+00	0	30	0	600834048	40	5565
2026-01-16 18:47:49.29	17.40	10.58	-33.0	-33.7	24.4	0.00e+00	0	30	0	607125504	40	5508
2026-01-16 18:47:50.30	17.31	10.66	-33.1	-33.8	24.3	0.00e+00	0	29	0	612368384	40	5609
2026-01-16 18:47:51.31	17.21	10.73	-32.9	-33.7	24.4	0.00e+00	0	30	0	618659840	40	5512
2026-01-16 18:47:52.32	17.12	10.81	-33.0	-33.7	24.3	0.00e+00	0	30	0	623902720	40	5511
2026-01-16 18:47:53.32	17.02	10.89	-32.8	-33.5	24.5	0.00e+00	0	30	0	630194176	40	5416
2026-01-16 18:47:54.33	16.92	10.97	-32.9	-33.6	24.5	0.00e+00	0	30	0	635437056	38	6146
2026-01-16 18:47:55.34	16.83	11.04	-32.6	-33.3	24.7	0.00e+00	0	30	0	640679936	38	5941
2026-01-16 18:47:56.35	16.73	11.12	-32.6	-33.3	24.7	0.00e+00	0	30	0	646971392	38	5934
2026-01-16 18:47:57.36	16.63	11.20	-32.6	-33.3	24.7	0.00e+00	0	30	0	652214272	38	5939
2026-01-16 18:47:58.37	16.53	11.28	-32.7	-33.3	24.7	0.00e+00	0	30	0	658505728	38	5954
2026-01-16 18:47:59.38	16.43	11.36	-32.8	-33.5	24.5	0.00e+00	0	30	0	663748608	38	6044
2026-01-16 18:48:00.39	16.33	11.43	-32.8	-33.5	24.4	0.00e+00	0	30	0	668991488	38	6099
2026-01-16 18:48:01.40	16.23	11.51	-32.6	-33.3	24.7	0.00e+00	0	30	0	675282944	38	5957
2026-01-16 18:48:02.41	16.13	11.59	-32.8	-33.4	24.6	0.00e+00	0	30	0	680525824	38	6026
2026-01-16 18:48:03.42	16.02	11.67	-32.8	-33.5	24.6	0.00e+00	0	30	0	686817280	38	6039
2026-01-16 18:48:04.43	15.92	11.75	-32.5	-33.2	24.9	0.00e+00	0	30	0	692060160	38	5844
2026-01-16 18:48:05.44	15.82	11.83	-32.5	-33.2	24.9	0.00e+00	0	30	0	698351616	38	5832
2026-01-16 18:48:06.45	15.71	11.91	-32.4	-33.1	25.0	0.00e+00	0	30	0	703594496	38	5771
2026-01-16 18:48:07.45	15.61	11.99	-32.5	-33.2	24.9	0.00e+00	0	30	0	708837376	38	5838
2026-01-16 18:48:08.46	15.51	12.07	-32.5	-33.2	24.9	0.00e+00	0	30	0	715128832	38	5846
2026-01-16 18:48:09.47	15.40	12.15	-32.4	-33.1	24.9	0.00e+00	0	30	0	720371712	38	5805
2026-01-16 18:48:10.48	15.29	12.23	-32.4	-33.1	24.9	0.00e+00	0	30	0	726663168	38	5816
2026-01-16 18:48:11.49	15.19	12.31	-32.4	-33.1	25.0	0.00e+00	0	30	0	731906048	38	5778
2026-01-16 18:48:12.50	15.08	12.39	-32.2	-32.9	25.1	0.00e+00	0	30	0	737148928	38	5693
2026-01-16 18:48:13.51	14.97	12.47	-32.3	-33.0	25.0	0.00e+00	0	30	0	743440384	38	5736
2026-01-16 18:48:14.52	14.86	12.55	-32.2	-32.9	25.1	0.00e+00	0	30	0	748683264	38	5668
2026-01-16 18:48:15.53	14.75	12.63	-32.2	-32.9	25.2	0.00e+00	0	30	0	754974720	38	5675
2026-01-16 18:48:16.54	14.64	12.71	-32.3	-33.0	25.0	0.00e+00	0	30	0	760217600	38	5710
2026-01-16 18:48:17.55	14.53	12.79	-32.2	-32.9	25.1	0.00e+00	0	30	0	765460480	38	5687
2026-01-16 18:48:18.56	14.42	12.88	-32.2	-32.9	25.2	0.00e+00	0	30	0	771751936	38	5671
2026-01-16 18:48:19.56	14.31	12.96	-32.2	-32.9	25.2	0.00e+00	0	30	0	776994816	38	5645
2026-01-16 18:48:20.57	14.20	13.04	-32.3	-33.0	25.1	0.00e+00	0	30	0	783286272	38	5711
2026-01-16 18:48:21.58	14.09	13.12	-32.3	-33.0	25.1	0.00e+00	0	30	0	788529152	38	5753
2026-01-16 18:48:22.60	13.97	13.20	-32.4	-33.0	25.1	0.00e+00	0	30	0	794820608	38	5743
2026-01-16 18:48:23.61	13.86	13.28	-32.3	-33.0	25.1	0.00e+00	0	30	0	800063488	38	5704
2026-01-16 18:48:24.62	13.74	13.37	-32.1	-32.7	25.3	0.00e+00	0	30	0	806354944	38	5565
2026-01-16 18:48:25.63	13.63	13.45	-32.0	-32.7	25.3	0.00e+00	0	30	0	811597824	38	5532
2026-01-16 18:48:26.64	13.51	13.53	-31.9	-32.6	25.4	0.00e+00	0	30	0	816840704	38	5473
2026-01-16 18:48:27.65	13.39	13.62	-32.0	-32.7	25.3	0.00e+00	0	30	0	823132160	38	5543
2026-01-16 18:48:28.66	13.28	13.70	-31.9	-32.6	25.5	0.00e+00	0	30	0	828375040	38	5477
2026-01-16 18:48:29.67	13.16	13.78	-32.0	-32.7	25.4	0.00e+00	0	30	0	834666496	38	5521
2026-01-16 18:48:30.68	13.04	13.87	-32.0	-32.6	25.4	0.00e+00	0	30	0	839909376	38	5481
2026-01-16 18:48:31.69	12.92	13.95	-31.9	-32.6	25.4	0.00e+00	0	30	0	845152256	38	5474
2026-01-16 18:48:32.70	12.80	14.03	-31.9	-32.6	25.4	0.00e+00	0	30	0	851443712	38	5457
2026-01-16 18:48:33.71	12.68	14.12	-32.0	-32.7	25.4	0.00e+00	0	30	0	856686592	38	5506
2026-01-16 18:48:34.72	12.55	14.20	-32.0	-32.7	25.4	0.00e+00	0	30	0	862978048	38	5515
2026-01-16 18:48:35.73	12.43	14.28	-32.1	-32.8	25.3	0.00e+00	0	30	0	868220928	38	5602
2026-01-16 18:48:36.74	12.31	14.37	-32.0	-32.7	25.4	0.00e+00	0	30	0	873463808	38	5546
2026-01-16 18:48:37.74	12.19	14.45	-31.9	-32.5	25.5	0.00e+00	0	30	0	879755264	38	5423
2026-01-16 18:48:38.76	12.06	14.54	-32.0	-32.7	25.4	0.00e+00	0	30	0	884998144	38	5511
2026-01-16 18:48:39.77	11.93	14.62	-31.9	-32.6	25.4	0.00e+00	0	30	0	891289600	38	5476
2026-01-16 18:48:40.78	11.81	14.71	-31.8	-32.5	25.5	0.00e+00	0	30	0	896532480	38	5417
2026-01-16 18:48:41.78	11.68	14.79	-31.8	-32.5	25.6	0.00e+00	0	30	0	901775360	38	5383
2026-01-16 18:48:42.79	11.55	14.88	-31.9	-32.6	25.5	0.00e+00	0	30	0	908066816	38	5461
2026-01-16 18:48:43.80	11.43	14.96	-31.7	-32.3	25.7	0.00e+00	0	30	0	913309696	36	5964
2026-01-16 18:48:44.81	11.30	15.05	-31.7	-32.3	25.7	0.00e+00	0	30	0	919601152	36	5957
2026-01-16 18:48:45.82	11.17	15.13	-31.7	-32.4	25.6	0.00e+00	0	30	0	924844032	36	5973
2026-01-16 18:48:46.83	11.04	15.22	-31.5	-32.1	25.9	0.00e+00	0	30	0	931135488	36	5822
2026-01-16 18:48:47.84	10.90	15.31	-31.4	-32.0	26.0	0.00e+00	0	30	0	936378368	36	5750
2026-01-16 18:48:48.85	10.77	15.39	-31.5	-32.2	25.8	0.00e+00	0	30	0	941621248	36	5838
2026-01-16 18:48:49.86	10.64	15.48	-31.4	-32.1	25.9	0.00e+00	0	30	0	947912704	36	5786
2026-01-16 18:48:50.87	10.50	15.57	-31.6	-32.2	25.9	0.00e+00	0	30	0	953155584	36	5875
2026-01-16 18:48:51.88	10.37	15.65	-31.5	-32.1	26.0	0.00e+00	0	30	0	959447040	36	5775
2026-01-16 18:48:52.89	10.23	15.74	-31.5	-32.1	25.9	0.00e+00	0	30	0	964689920	36	5791
2026-01-16 18:48:53.90	10.10	15.83	-31.4	-32.0	25.9	0.00e+00	0	30	0	969932800	36	5750
2026-01-16 18:48:54.91	9.96	15.91	-31.4	-32.1	26.0	0.00e+00	0	30	0	976224256	36	5778
2026-01-16 18:48:55.92	9.82	16.00	-31.7	-32.3	25.8	0.00e+00	0	30	0	981467136	36	5950
2026-01-16 18:48:56.93	9.68	16.09	-31.4	-32.1	26.0	0.00e+00	0	30	0	987758592	36	5780
2026-01-16 18:48:57.94	9.54	16.17	-31.5	-32.2	25.9	0.00e+00	0	30	0	993001472	36	5858
2026-01-16 18:48:58.95	9.40	16.26	-31.4	-32.1	26.0	0.00e+00	0	30	0	998244352	36	5819
2026-01-16 18:48:59.96	9.26	16.35	-31.5	-32.1	25.9	0.00e+00	0	30	0	1004535808	36	5808
2026-01-16 18:49:00.97	9.12	16.44	-31.5	-32.2	25.9	0.00e+00	0	30	0	1009778688	36	5851
2026-01-16 18:49:01.98	8.98	16.53	-31.3	-32.0	26.1	0.00e+00	0	30	0	1016070144	36	5697
2026-01-16 18:49:02.99	8.83	16.61	-31.3	-31.9	26.0	0.00e+00	0	30	0	1021313024	36	5692
2026-01-16 18:49:04.00	8.69	16.70	-31.1	-31.7	26.3	0.00e+00	0	30	0	1027604480	36	5527
2026-01-16 18:49:05.01	8.54	16.79	-31.1	-31.8	26.2	0.00e+00	0	30	0	1032847360	36	5570
2026-01-16 18:49:06.02	8.40	16.88	-31.2	-31.9	26.1	0.00e+00	0	30	0	1039138816	36	5658
2026-01-16 18:49:07.03	8.25	16.97	-30.9	-31.6	26.4	0.00e+00	0	30	0	1044381696	36	5450
2026-01-16 18:49:08.04	8.10	17.06	-30.9	-31.6	26.4	0.00e+00	0	30	0	1049624576	36	5454
2026-01-16 18:49:09.05	7.95	17.15	-31.0	-31.7	26.4	0.00e+00	0	30	0	1055916032	36	5511
2026-01-16 18:49:10.06	7.80	17.23	-30.9	-31.6	26.4	0.00e+00	0	30	0	1061158912	36	5483
2026-01-16 18:49:11.07	7.65	17.32	-30.9	-31.6	26.4	0.00e+00	0	30	0	1067450368	36	5453
2026-01-16 18:49:12.08	7.50	17.41	-30.9	-31.5	26.5	0.00e+00	0	30	0	1072693248	36	5428
2026-01-16 18:49:13.09	7.35	17.50	-30.9	-31.5	26.5	0.00e+00	0	30	0	1077936128	36	5417
2026-01-16 18:49:14.10	7.19	17.59	-30.7	-31.3	26.7	0.00e+00	0	30	0	1084227584	34	5959
2026-01-16 18:49:15.11	7.04	17.68	-30.7	-31.3	26.7	0.00e+00	0	30	0	1089470464	34	5935
2026-01-16 18:49:16.12	6.88	17.77	-30.8	-31.4	26.6	0.00e+00	0	30	0	1095761920	34	5998
2026-01-16 18:49:17.13	6.72	17.86	-30.9	-31.6	26.4	0.00e+00	0	30	0	1101004800	34	6135
2026-01-16 18:49:18.14	6.57	17.95	-31.1	-31.8	26.3	0.00e+00	0	30	0	1106247680	34	6252
2026-01-16 18:49:19.14	6.41	18.04	-30.9	-31.6	26.5	0.00e+00	0	30	0	1112539136	34	6106
2026-01-16 18:49:20.15	6.25	18.13	-31.1	-31.7	26.4	0.00e+00	0	30	0	1117782016	34	6219
2026-01-16 18:49:21.16	6.09	18.22	-30.8	-31.4	26.6	0.00e+00	0	30	0	1124073472	34	5995
2026-01-16 18:49:22.17	5.93	18.31	-30.7	-31.3	26.6	0.00e+00	0	30	0	1129316352	34	5957
2026-01-16 18:49:23.18	5.77	18.40	-30.7	-31.4	26.5	0.00e+00	0	30	0	1135607808	34	5992
2026-01-16 18:49:24.19	5.60	18.49	-30.6	-31.2	26.8	0.00e+00	0	30	0	1140850688	34	5890
2026-01-16 18:49:25.21	5.44	18.58	-30.5	-31.1	26.9	0.00e+00	0	30	0	1146093568	34	5828
2026-01-16 18:49:26.21	5.27	18.67	-30.6	-31.2	26.8	0.00e+00	0	30	0	1152385024	34	5862
2026-01-16 18:49:27.22	5.11	18.76	-30.5	-31.1	26.8	0.00e+00	0	30	0	1157627904	34	5792
2026-01-16 18:49:28.23	4.94	18.85	-30.4	-31.0	26.9	0.00e+00	0	30	0	1163919360	34	5760
2026-01-16 18:49:29.24	4.77	18.95	-30.4	-31.0	26.9	0.00e+00	0	30	0	1169162240	34	5747
2026-01-16 18:49:30.25	4.60	19.04	-30.4	-31.0	26.9	0.00e+00	0	30	0	1174405120	34	5744
2026-01-16 18:49:31.26	4.43	19.13	-30.4	-31.0	27.0	0.00e+00	0	30	0	1180696576	34	5740
2026-01-16 18:49:32.27	4.26	19.22	-30.5	-31.1	26.8	0.00e+00	0	30	0	1185939456	34	5809
2026-01-16 18:49:33.28	4.09	19.31	-30.3	-30.9	27.0	0.00e+00	0	30	0	1192230912	34	5692
2026-01-16 18:49:34.28	3.91	19.40	-30.4	-31.0	26.9	0.00e+00	0	30	0	1197473792	34	5742
2026-01-16 18:49:35.30	3.74	19.49	-30.3	-30.9	27.0	0.00e+00	0	30	0	1203765248	34	5695
2026-01-16 18:49:36.31	3.56	19.58	-30.2	-30.8	27.1	0.00e+00	0	30	0	1209008128	34	5597
2026-01-16 18:49:37.32	3.39	19.68	-30.1	-30.8	27.2	0.00e+00	0	30	0	1214251008	34	5602
2026-01-16 18:49:38.33	3.21	19.77	-30.3	-30.9	27.0	0.00e+00	0	30	0	1220542464	34	5679
2026-01-16 18:49:39.34	3.03	19.86	-30.2	-30.9	27.1	0.00e+00	0	30	0	1225785344	34	5645
2026-01-16 18:49:40.35	2.85	19.95	-30.2	-30.8	27.1	0.00e+00	0	30	0	1232076800	34	5612
2026-01-16 18:49:41.36	2.67	20.04	-30.4	-31.0	27.0	0.00e+00	0	30	0	1237319680	34	5740
2026-01-16 18:49:42.37	2.49	20.13	-30.3	-31.0	27.1	0.00e+00	0	30	0	1243611136	34	5706
2026-01-16 18:49:43.38	2.30	20.22	-30.5	-31.2	26.9	0.00e+00	0	30	0	1248854016	34	5833
2026-01-16 18:49:44.39	2.12	20.32	-30.5	-31.2	26.9	0.00e+00	0	30	0	1254096896	34	5874
2026-01-16 18:49:45.39	1.93	20.41	-30.6	-31.2	26.7	0.00e+00	0	30	0	1260388352	34	5881
2026-01-16 18:49:46.40	1.75	20.50	-30.7	-31.4	26.6	0.00e+00	0	30	0	1265631232	34	6004
2026-01-16 18:49:47.41	1.56	20.59	-30.6	-31.2	26.7	0.00e+00	0	30	0	1270874112	34	5889
2026-01-16 18:49:48.43	1.37	20.68	-30.6	-31.3	26.8	0.00e+00	0	30	0	1277165568	34	5918
2026-01-16 18:49:49.44	1.18	20.77	-30.4	-31.1	26.9	0.00e+00	0	30	0	1282408448	34	5776
2026-01-16 18:49:50.45	0.99	20.87	-30.5	-31.2	26.8	0.00e+00	0	30	0	1288699904	34	5837
2026-01-16 18:49:51.46	0.79	20.96	-30.5	-31.1	26.9	0.00e+00	0	30	0	1293942784	34	5828
2026-01-16 18:49:52.47	0.60	21.05	-30.4	-31.0	27.0	0.00e+00	0	30	0	1300234240	34	5712
2026-01-16 18:49:53.48	0.41	21.14	-30.2	-30.9	27.1	0.00e+00	0	30	0	1305477120	34	5632
2026-01-16 18:49:54.49	0.21	21.23	-30.2	-30.8	27.1	0.00e+00	0	30	0	1310720000	34	5629
2026-01-16 18:49:55.50	0.01	21.32	-30.2	-30.8	27.2	0.00e+00	0	30	0	1317011456	34	5619
2026-01-16 18:49:56.51	359.81	21.42	-30.1	-30.8	27.1	0.00e+00	0	30	0	1322254336	34	5592
2026-01-16 18:49:57.52	359.61	21.51	-30.2	-30.8	27.1	0.00e+00	0	30	0	1328545792	34	5621
2026-01-16 18:49:58.53	359.41	21.60	-30.4	-31.0	27.0	0.00e+00	0	30	0	1333788672	34	5723
2026-01-16 18:49:59.54	359.21	21.69	-30.2	-30.8	27.2	0.00e+00	0	30	0	1340080128	34	5593
2026-01-16 18:50:00.55	359.01	21.78	-30.4	-31.0	27.0	0.00e+00	0	30	0	1345323008	34	5725
2026-01-16 18:50:01.56	358.80	21.87	-30.2	-30.8	27.2	0.00e+00	0	30	0	1350565888	34	5604
2026-01-16 18:50:02.57	358.60	21.96	-30.1	-30.7	27.2	0.00e+00	0	30	0	1356857344	34	5555
2026-01-16 18:50:03.58	358.39	22.05	-30.1	-30.7	27.3	0.00e+00	0	30	0	1362100224	34	5531
2026-01-16 18:50:04.58	358.18	22.15	-30.0	-30.7	27.3	0.00e+00	0	30	0	1368391680	34	5503
2026-01-16 18:50:05.60	357.97	22.24	-30.1	-30.7	27.2	0.00e+00	0	30	0	1373634560	34	5537
2026-01-16 18:50:06.61	357.76	22.33	-29.9	-30.6	27.4	0.00e+00	0	30	0	1378877440	34	5447
2026-01-16 18:50:07.62	357.55	22.42	-29.9	-30.5	27.3	0.00e+00	0	31	0	1385168896	34	5410
2026-01-16 18:50:08.63	357.34	22.51	-29.9	-30.5	27.4	0.00e+00	0	30	0	1390411776	34	5386
2026-01-16 18:50:09.64	357.12	22.60	-29.9	-30.5	27.4	0.00e+00	0	30	0	1396703232	34	5402
2026-01-16 18:50:10.65	356.91	22.69	-29.7	-30.4	27.5	0.00e+00	0	30	0	1401946112	32	5976
2026-01-16 18:50:11.66	356.69	22.78	-29.6	-30.2	27.7	0.00e+00	0	30	0	1408237568	32	5894
2026-01-16 18:50:12.67	356.47	22.87	-29.6	-30.2	27.6	0.00e+00	0	30	0	1413480448	32	5895
2026-01-16 18:50:13.68	356.25	22.96	-29.7	-30.3	27.5	0.00e+00	0	30	0	1418723328	32	5956
2026-01-16 18:50:14.69	356.03	23.05	-29.8	-30.4	27.5	0.00e+00	0	30	0	1425014784	32	5992
2026-01-16 18:50:15.70	355.81	23.14	-29.9	-30.5	27.4	0.00e+00	0	31	0	1430257664	32	6080
2026-01-16 18:50:16.70	355.59	23.23	-29.9	-30.5	27.4	0.00e+00	0	31	0	1436549120	32	6100
2026-01-16 18:50:17.71	355.36	23.32	-29.8	-30.4	27.5	0.00e+00	0	31	0	1441792000	32	6010
2026-01-16 18:50:18.72	355.14	23.41	-29.8	-30.4	27.5	0.00e+00	0	31	0	1448083456	32	6022
2026-01-16 18:50:19.73	354.91	23.50	-29.9	-30.5	27.3	0.00e+00	0	30	0	1453326336	32	6103
2026-01-16 18:50:20.74	354.68	23.59	-29.7	-30.3	27.5	0.00e+00	0	30	0	1458569216	32	5959
2026-01-16 18:50:21.75	354.45	23.68	-29.6	-30.2	27.6	0.00e+00	0	30	0	1464860672	32	5891
2026-01-16 18:50:22.76	354.22	23.76	-29.5	-30.1	27.7	0.00e+00	0	30	0	1470103552	32	5820
2026-01-16 18:50:23.77	353.99	23.85	-29.3	-29.9	27.8	0.00e+00	0	30	0	1476395008	32	5685
2026-01-16 18:50:24.78	353.75	23.94	-29.4	-30.0	27.9	0.00e+00	0	30	0	1481637888	32	5709
2026-01-16 18:50:25.79	353.52	24.03	-29.4	-30.0	27.8	0.00e+00	0	30	0	1486880768	32	5722
2026-01-16 18:50:26.80	353.28	24.12	-29.4	-30.0	27.8	0.00e+00	0	30	0	1493172224	32	5738
2026-01-16 18:50:27.81	353.04	24.20	-29.5	-30.1	27.8	0.00e+00	0	30	0	1498415104	32	5795
2026-01-16 18:50:28.82	352.80	24.29	-29.6	-30.2	27.7	0.00e+00	0	30	0	1504706560	32	5864
2026-01-16 18:50:29.83	352.56	24.38	-29.4	-30.0	27.8	0.00e+00	0	30	0	1509949440	32	5707
2026-01-16 18:50:30.84	352.32	24.46	-29.4	-30.1	27.8	0.00e+00	0	30	0	1515192320	32	5770
2026-01-16 18:50:31.85	352.08	24.55	-29.3	-29.9	27.9	0.00e+00	0	30	0	1521483776	32	5690
2026-01-16 18:50:32.86	351.83	24.64	-29.1	-29.8	28.0	0.00e+00	0	31	0	1526726656	32	5571
2026-01-16 18:50:33.87	351.59	24.72	-29.1	-29.7	28.0	0.00e+00	0	30	0	1533018112	32	5566
2026-01-16 18:50:34.88	351.34	24.81	-29.1	-29.7	28.1	0.00e+00	0	30	0	1538260992	32	5520
2026-01-16 18:50:35.89	351.09	24.89	-29.2	-29.8	28.0	0.00e+00	0	30	0	1544552448	32	5624
2026-01-16 18:50:36.90	350.84	24.98	-29.3	-29.9	27.9	0.00e+00	0	31	0	1549795328	32	5641
2026-01-16 18:50:37.90	350.59	25.06	-29.5	-30.0	27.8	0.00e+00	0	30	0	1555038208	32	5756
2026-01-16 18:50:38.91	350.34	25.15	-29.5	-30.1	27.8	0.00e+00	0	30	0	1561329664	32	5766
2026-01-16 18:50:39.92	350.08	25.23	-29.6	-30.2	27.6	0.00e+00	0	30	0	1566572544	32	5890
2026-01-16 18:50:40.93	349.83	25.31	-29.7	-30.3	27.6	0.00e+00	0	30	0	1572864000	32	5912
2026-01-16 18:50:41.94	349.57	25.40	-29.6	-30.3	27.5	0.00e+00	0	30	0	1578106880	32	5906
2026-01-16 18:50:42.95	349.31	25.48	-29.5	-30.2	27.6	0.00e+00	0	30	0	1583349760	32	5832
2026-01-16 18:50:43.96	349.05	25.56	-29.5	-30.1	27.7	0.00e+00	0	30	0	1589641216	32	5820
2026-01-16 18:50:44.97	348.79	25.64	-29.5	-30.1	27.7	0.00e+00	0	30	0	1594884096	32	5792
2026-01-16 18:50:45.98	348.53	25.73	-29.2	-29.9	27.9	0.00e+00	0	30	0	1601175552	32	5643
2026-01-16 18:50:46.99	348.27	25.81	-29.3	-29.9	27.9	0.00e+00	0	30	0	1606418432	32	5638
2026-01-16 18:50:48.00	348.00	25.89	-29.3	-30.0	27.8	0.00e+00	0	30	0	1611661312	32	5713
2026-01-16 18:50:49.01	347.74	25.97	-29.5	-30.1	27.7	0.00e+00	0	31	0	1617952768	32	5806
2026-01-16 18:50:50.02	347.47	26.05	-29.6	-30.2	27.6	0.00e+00	0	31	0	1623195648	32	5869
2026-01-16 18:50:51.03	347.20	26.13	-29.6	-30.2	27.7	0.00e+00	0	30	0	1629487104	32	5873
2026-01-16 18:50:52.04	346.93	26.21	-29.4	-30.0	27.8	0.00e+00	0	31	0	1634729984	32	5741
2026-01-16 18:50:53.05	346.66	26.28	-29.3	-29.9	27.9	0.00e+00	0	30	0	1641021440	32	5684
2026-01-16 18:50:54.06	346.38	26.36	-29.3	-29.9	28.0	0.00e+00	0	31	0	1646264320	32	5671
2026-01-16 18:50:55.07	346.11	26.44	-29.2	-29.9	27.9	0.00e+00	0	30	0	1652555776	32	5648
2026-01-16 18:50:56.08	345.83	26.52	-29.1	-29.7	28.0	0.00e+00	0	30	0	1657798656	32	5547
2026-01-16 18:50:57.09	345.55	26.59	-29.1	-29.7	28.0	0.00e+00	0	30	0	1663041536	32	5557
2026-01-16 18:50:58.10	345.27	26.67	-29.0	-29.6	28.2	0.00e+00	0	31	0	1669332992	32	5464
2026-01-16 18:50:59.11	344.99	26.74	-28.9	-29.5	28.1	0.00e+00	0	31	0	1674575872	32	5411
2026-01-16 18:51:00.12	344.71	26.82	-29.0	-29.6	28.1	0.00e+00	0	31	0	1680867328	32	5500
2026-01-16 18:51:01.13	344.43	26.89	-29.0	-29.5	28.2	0.00e+00	0	31	0	1686110208	32	5439
2026-01-16 18:51:02.14	344.15	26.97	-29.0	-29.6	28.2	0.00e+00	0	31	0	1691353088	32	5444
2026-01-16 18:51:03.15	343.86	27.04	-29.1	-29.7	28.1	0.00e+00	0	31	0	1697644544	32	5544
2026-01-16 18:51:04.16	343.57	27.11	-29.2	-29.8	28.0	0.00e+00	0	31	0	1702887424	32	5582
2026-01-16 18:51:05.17	343.29	27.18	-29.3	-29.9	27.9	0.00e+00	0	31	0	1709178880	32	5663
2026-01-16 18:51:06.18	343.00	27.25	-29.3	-29.9	27.9	0.00e+00	0	30	0	1714421760	32	5688
2026-01-16 18:51:07.19	342.71	27.33	-29.3	-29.9	27.9	0.00e+00	0	31	0	1719664640	32	5653
2026-01-16 18:51:08.20	342.41	27.40	-29.2	-29.8	28.0	0.00e+00	0	31	0	1725956096	32	5601
2026-01-16 18:51:09.21	342.12	27.46	-29.2	-29.8	28.0	0.00e+00	0	31	0	1731198976	32	5614
2026-01-16 18:51:10.22	341.83	27.53	-29.1	-29.7	28.1	0.00e+00	0	31	0	1737490432	32	5534
2026-01-16 18:51:11.23	341.53	27.60	-29.0	-29.6	28.1	0.00e+00	0	31	0	1742733312	32	5500
2026-01-16 18:51:12.24	341.23	27.67	-29.0	-29.6	28.1	0.00e+00	0	31	0	1749024768	32	5472
2026-01-16 18:51:13.25	340.93	27.74	-29.2	-29.8	28.0	0.00e+00	0	31	0	1754267648	32	5587
2026-01-16 18:51:14.26	340.63	27.80	-29.1	-29.8	28.0	0.00e+00	0	31	0	1759510528	32	5579
2026-01-16 18:51:15.27	340.33	27.87	-29.1	-29.7	28.0	0.00e+00	0	31	0	1765801984	32	5539
2026-01-16 18:51:16.28	340.03	27.93	-29.1	-29.7	28.1	0.00e+00	0	31	0	1771044864	32	5556
2026-01-16 18:51:17.29	339.73	27.99	-29.0	-29.5	28.1	0.00e+00	0	31	0	1777336320	32	5417
2026-01-16 18:51:18.30	339.42	28.06	-29.1	-29.7	28.1	0.00e+00	0	31	0	1782579200	32	5555
2026-01-16 18:51:19.31	339.12	28.12	-29.2	-29.8	28.1	0.00e+00	0	31	0	1787822080	32	5569
2026-01-16 18:51:20.32	338.81	28.18	-29.0	-29.7	28.2	0.00e+00	0	31	0	1794113536	32	5505
2026-01-16 18:51:21.33	338.50	28.24	-29.1	-29.6	28.2	0.00e+00	0	31	0	1799356416	32	5485
2026-01-16 18:51:22.34	338.19	28.30	-28.9	-29.5	28.2	0.00e+00	0	31	0	1805647872	32	5379
2026-01-16 18:51:23.35	337.88	28.36	-28.8	-29.4	28.2	0.00e+00	0	31	0	1810890752	32	5370
2026-01-16 18:51:24.36	337.57	28.42	-28.8	-29.4	28.4	0.00e+00	0	31	0	1816133632	32	5375
2026-01-16 18:51:25.36	337.26	28.48	-28.8	-29.4	28.4	0.00e+00	0	31	0	1822425088	30	5984
2026-01-16 18:51:26.38	336.94	28.53	-28.8	-29.4	28.3	0.00e+00	0	31	0	1827667968	30	6022
2026-01-16 18:51:27.39	336.63	28.59	-29.0	-29.6	28.2	0.00e+00	0	31	0	1833959424	30	6173
2026-01-16 18:51:28.39	336.32	28.64	-29.0	-29.6	28.2	0.00e+00	0	31	0	1839202304	30	6133
2026-01-16 18:51:29.40	336.00	28.70	-29.1	-29.7	28.1	0.00e+00	0	31	0	1845493760	30	6201
2026-01-16 18:51:30.41	335.68	28.75	-29.0	-29.7	28.1	0.00e+00	0	31	0	1850736640	30	6205
2026-01-16 18:51:31.42	335.36	28.80	-28.8	-29.5	28.3	0.00e+00	0	31	0	1857028096	30	6054
2026-01-16 18:51:32.43	335.04	28.85	-28.7	-29.4	28.3	0.00e+00	0	31	0	1862270976	30	5992
2026-01-16 18:51:33.44	334.72	28.90	-28.7	-29.3	28.4	0.00e+00	0	31	0	1867513856	30	5898
2026-01-16 18:51:34.45	334.40	28.95	-28.9	-29.5	28.3	0.00e+00	0	31	0	1873805312	30	6046
2026-01-16 18:51:35.46	334.07	29.00	-28.9	-29.5	28.2	0.00e+00	0	31	0	1879048192	30	6070
2026-01-16 18:51:36.47	333.75	29.05	-28.9	-29.6	28.2	0.00e+00	0	31	0	1885339648	30	6116
2026-01-16 18:51:37.48	333.42	29.10	-28.9	-29.6	28.3	0.00e+00	0	31	0	1890582528	30	6128
2026-01-16 18:51:38.49	333.10	29.14	-29.0	-29.6	28.3	0.00e+00	0	30	0	1895825408	30	6113
2026-01-16 18:51:39.50	332.77	29.19	-28.9	-29.5	28.2	0.00e+00	0	31	0	1902116864	30	6056
2026-01-16 18:51:40.51	332.44	29.23	-28.9	-29.5	28.2	0.00e+00	0	31	0	1907359744	30	6064
2026-01-16 18:51:41.52	332.11	29.27	-28.8	-29.4	28.3	0.00e+00	0	31	0	1912602624	30	5991
2026-01-16 18:51:42.52	331.79	29.31	-28.8	-29.3	28.3	0.00e+00	0	31	0	1918894080	30	5949
2026-01-16 18:51:43.53	331.46	29.35	-28.9	-29.5	28.3	0.00e+00	0	31	0	1924136960	30	6085
2026-01-16 18:51:44.54	331.12	29.39	-28.7	-29.4	28.3	0.00e+00	0	31	0	1930428416	30	5965
2026-01-16 18:51:45.55	330.79	29.43	-28.8	-29.5	28.3	0.00e+00	0	31	0	1935671296	30	6039
2026-01-16 18:51:46.56	330.46	29.47	-28.5	-29.1	28.6	0.00e+00	0	31	0	1941962752	30	5797
2026-01-16 18:51:47.57	330.12	29.51	-28.5	-29.1	28.6	0.00e+00	0	30	0	1947205632	30	5779
2026-01-16 18:51:48.57	329.79	29.54	-28.6	-29.2	28.4	0.00e+00	0	31	0	1953497088	30	5850
2026-01-16 18:51:49.58	329.46	29.58	-28.7	-29.3	28.5	0.00e+00	0	31	0	1958739968	30	5939
2026-01-16 18:51:50.59	329.12	29.61	-28.9	-29.5	28.3	0.00e+00	0	31	0	1963982848	30	6101
2026-01-16 18:51:51.60	328.78	29.64	-28.7	-29.3	28.4	0.00e+00	0	31	0	1970274304	30	5919
2026-01-16 18:51:52.61	328.45	29.67	-28.7	-29.3	28.5	0.00e+00	0	31	0	1975517184	30	5899
2026-01-16 18:51:53.62	328.11	29.70	-28.6	-29.3	28.5	0.00e+00	0	31	0	1981808640	30	5898
2026-01-16 18:51:54.63	327.77	29.73	-28.9	-29.5	28.3	0.00e+00	0	31	0	1987051520	30	6071
2026-01-16 18:51:55.64	327.43	29.76	-29.0	-29.7	28.1	0.00e+00	0	31	0	1992294400	30	6180
2026-01-16 18:51:56.65	327.09	29.79	-29.1	-29.7	28.1	0.00e+00	0	31	0	1998585856	30	6235
2026-01-16 18:51:57.66	326.75	29.81	-28.9	-29.5	28.2	0.00e+00	0	31	0	2003828736	30	6101
2026-01-16 18:51:58.67	326.41	29.84	-28.9	-29.5	28.3	0.00e+00	0	31	0	2010120192	30	6079
2026-01-16 18:51:59.68	326.07	29.86	-28.7	-29.3	28.4	0.00e+00	0	31	0	2015363072	30	5943
2026-01-16 18:52:00.69	325.72	29.88	-28.5	-29.1	28.5	0.00e+00	0	31	0	2020605952	30	5804
2026-01-16 18:52:01.70	325.38	29.91	-28.6	-29.2	28.6	0.00e+00	0	30	0	2026897408	30	5877
2026-01-16 18:52:02.70	325.04	29.93	-28.7	-29.3	28.4	0.00e+00	0	30	0	2032140288	30	5901
2026-01-16 18:52:03.71	324.70	29.94	-28.7	-29.3	28.3	0.00e+00	0	30	0	2038431744	30	5948
2026-01-16 18:52:04.72	324.35	29.96	-28.8	-29.5	28.3	0.00e+00	0	31	0	2043674624	30	6039
2026-01-16 18:52:05.72	324.01	29.98	-28.8	-29.4	28.4	0.00e+00	0	31	0	2049966080	30	6007
2026-01-16 18:52:06.73	323.67	29.99	-28.6	-29.3	28.5	0.00e+00	0	31	0	2055208960	30	5919
2026-01-16 18:52:07.75	323.32	30.01	-28.6	-29.2	28.5	0.00e+00	0	30	0	2060451840	30	5875
2026-01-16 18:52:08.76	322.97	30.02	-28.5	-29.1	28.5	0.00e+00	0	30	0	2066743296	30	5791
2026-01-16 18:52:09.76	322.63	30.03	-28.5	-29.0	28.7	0.00e+00	0	30	0	2071986176	30	5743
2026-01-16 18:52:10.77	322.29	30.05	-28.6	-29.3	28.4	0.00e+00	0	30	0	2078277632	30	5897
2026-01-16 18:52:11.78	321.94	30.06	-28.6	-29.2	28.4	0.00e+00	0	30	0	2083520512	30	5874
2026-01-16 18:52:12.79	321.59	30.06	-28.8	-29.4	28.3	0.00e+00	0	30	0	2088763392	30	5999
2026-01-16 18:52:13.80	321.25	30.07	-28.6	-29.3	28.4	0.00e+00	0	30	0	2095054848	30	5932
2026-01-16 18:52:14.81	320.90	30.08	-28.7	-29.3	28.4	0.00e+00	0	30	0	2100297728	30	5919
2026-01-16 18:52:15.82	320.55	30.08	-28.7	-29.3	28.5	0.00e+00	0	30	0	2106589184	30	5910
2026-01-16 18:52:16.83	320.21	30.09	-28.6	-29.2	28.5	0.00e+00	0	31	0	2111832064	30	5874
2026-01-16 18:52:17.84	319.86	30.09	-28.6	-29.3	28.4	0.00e+00	0	30	0	2117074944	30	5932
2026-01-16 18:52:18.85	319.51	30.09	-28.7	-29.4	28.3	0.00e+00	0	30	0	2123366400	30	5980
2026-01-16 18:52:19.86	319.17	30.09	-28.6	-29.2	28.5	0.00e+00	0	30	0	2128609280	30	5845
2026-01-16 18:52:20.87	318.82	30.09	-28.5	-29.1	28.6	0.00e+00	0	31	0	2134900736	30	5795
2026-01-16 18:52:21.88	318.47	30.09	-28.5	-29.1	28.5	0.00e+00	0	30	0	2140143616	30	5811
2026-01-16 18:52:22.89	318.13	30.09	-28.6	-29.2	28.6	0.00e+00	0	30	0	2146435072	30	5850
2026-01-16 18:52:23.90	317.78	30.08	-28.5	-29.1	28.5	0.00e+00	0	30	0	2151677952	30	5800
2026-01-16 18:52:24.91	317.43	30.08	-28.5	-29.2	28.5	0.00e+00	0	30	0	2156920832	30	5835
2026-01-16 18:52:25.92	317.09	30.07	-28.5	-29.2	28.6	0.00e+00	0	30	0	2163212288	30	5843
2026-01-16 18:52:26.93	316.74	30.06	-28.6	-29.1	28.4	0.00e+00	0	30	0	2168455168	30	5825
2026-01-16 18:52:27.93	316.40	30.05	-28.6	-29.2	28.3	0.00e+00	0	30	0	2174746624	30	5853
2026-01-16 18:52:28.94	316.05	30.04	-28.6	-29.2	28.5	0.00e+00	0	30	0	2179989504	30	5894
2026-01-16 18:52:29.95	315.70	30.03	-28.6	-29.2	28.3	0.00e+00	0	30	0	2185232384	30	5848
2026-01-16 18:52:30.96	315.36	30.02	-28.4	-29.0	28.3	0.00e+00	0	30	0	2191523840	30	5726
2026-01-16 18:52:31.97	315.01	30.00	-28.4	-28.9	28.5	0.00e+00	0	30	0	2196766720	30	5690
2026-01-16 18:52:32.98	314.67	29.99	-28.4	-29.1	28.5	0.00e+00	0	30	0	2203058176	30	5774
2026-01-16 18:52:33.99	314.32	29.97	-28.6	-29.2	28.5	0.00e+00	0	30	0	2208301056	30	5894
2026-01-16 18:52:35.00	313.98	29.96	-28.6	-29.2	28.5	0.00e+00	0	30	0	2213543936	30	5876
2026-01-16 18:52:36.01	313.63	29.94	-28.7	-29.3	28.4	0.00e+00	0	30	0	2219835392	30	5908
2026-01-16 18:52:37.02	313.29	29.92	-28.6	-29.2	28.4	0.00e+00	0	30	0	2225078272	30	5846
2026-01-16 18:52:38.03	312.95	29.90	-28.7	-29.3	28.4	0.00e+00	0	30	0	2231369728	30	5944
2026-01-16 18:52:39.04	312.61	29.88	-28.6	-29.2	28.5	0.00e+00	0	30	0	2236612608	30	5870
2026-01-16 18:52:40.05	312.26	29.85	-28.5	-29.1	28.6	0.00e+00	0	30	0	2242904064	30	5778
2026-01-16 18:52:41.06	311.92	29.83	-28.5	-29.2	28.6	0.00e+00	0	30	0	2248146944	30	5857
2026-01-16 18:52:42.07	311.58	29.80	-28.7	-29.3	28.5	0.00e+00	0	30	0	2254438400	30	5911
2026-01-16 18:52:43.08	311.24	29.78	-28.6	-29.2	28.5	0.00e+00	0	30	0	2259681280	30	5865
2026-01-16 18:52:44.09	310.90	29.75	-28.7	-29.3	28.5	0.00e+00	0	30	0	2264924160	30	5928
2026-01-16 18:52:45.10	310.56	29.72	-28.5	-29.1	28.5	0.00e+00	0	30	0	2271215616	30	5822
2026-01-16 18:52:46.11	310.22	29.69	-28.5	-29.1	28.6	0.00e+00	0	30	0	2276458496	30	5783
2026-01-16 18:52:47.12	309.88	29.66	-28.3	-28.8	28.6	0.00e+00	0	30	0	2282749952	30	5608
2026-01-16 18:52:48.13	309.55	29.63	-28.3	-28.8	28.7	0.00e+00	0	30	0	2287992832	30	5610
2026-01-16 18:52:49.14	309.21	29.60	-28.2	-28.8	28.7	0.00e+00	0	30	0	2293235712	30	5597
2026-01-16 18:52:50.15	308.87	29.56	-28.3	-28.9	28.7	0.00e+00	0	30	0	2299527168	30	5686
2026-01-16 18:52:51.15	308.54	29.53	-28.5	-29.0	28.5	0.00e+00	0	30	0	2304770048	30	5734
2026-01-16 18:52:52.16	308.20	29.49	-28.6	-29.2	28.4	0.00e+00	0	30	0	2310012928	30	5896
2026-01-16 18:52:53.17	307.87	29.45	-28.7	-29.3	28.4	0.00e+00	0	30	0	2316304384	30	5951
2026-01-16 18:52:54.18	307.54	29.42	-28.7	-29.3	28.5	0.00e+00	0	30	0	2321547264	30	5905
2026-01-16 18:52:55.19	307.20	29.38	-28.6	-29.2	28.4	0.00e+00	0	30	0	2327838720	30	5849
2026-01-16 18:52:56.20	306.87	29.34	-28.7	-29.3	28.4	0.00e+00	0	30	0	2333081600	30	5923
2026-01-16 18:52:57.21	306.54	29.30	-28.6	-29.2	28.5	0.00e+00	0	30	0	2339373056	30	5869
2026-01-16 18:52:58.22	306.21	29.25	-28.6	-29.2	28.4	0.00e+00	0	30	0	2344615936	30	5889
2026-01-16 18:52:59.23	305.88	29.21	-28.7	-29.3	28.4	0.00e+00	0	30	0	2350907392	30	5917
2026-01-16 18:53:00.24	305.56	29.17	-28.7	-29.4	28.5	0.00e+00	0	30	0	2356150272	30	5968
2026-01-16 18:53:01.25	305.23	29.12	-28.7	-29.3	28.4	0.00e+00	0	30	0	2361393152	30	5923
2026-01-16 18:53:02.26	304.90	29.08	-28.7	-29.4	28.4	0.00e+00	0	30	0	2367684608	30	5991
2026-01-16 18:53:03.28	304.57	29.03	-28.8	-29.4	28.3	0.00e+00	0	30	0	2372927488	30	5995
2026-01-16 18:53:04.28	304.25	28.98	-28.8	-29.4	28.2	0.00e+00	0	30	0	2379218944	30	5988
2026-01-16 18:53:05.29	303.93	28.93	-28.9	-29.5	28.3	0.00e+00	0	30	0	2384461824	30	6090
2026-01-16 18:53:06.30	303.61	28.88	-29.0	-29.5	28.1	0.00e+00	0	30	0	2389704704	30	6079
2026-01-16 18:53:07.31	303.28	28.83	-29.0	-29.5	28.1	0.00e+00	0	30	0	2395996160	30	6075
2026-01-16 18:53:08.32	302.96	28.78	-28.9	-29.5	28.2	0.00e+00	0	30	0	2401239040	30	6063
2026-01-16 18:53:09.33	302.64	28.73	-29.2	-29.7	28.0	0.00e+00	0	30	0	2407530496	30	6202
2026-01-16 18:53:10.34	302.33	28.67	-29.1	-29.8	28.0	0.00e+00	0	30	0	2412773376	30	6268
2026-01-16 18:53:11.35	302.01	28.62	-29.2	-29.9	28.0	0.00e+00	0	30	0	2418016256	30	6334
2026-01-16 18:53:12.36	301.69	28.56	-29.0	-29.7	28.1	0.00e+00	0	30	0	2424307712	30	6225
2026-01-16 18:53:13.37	301.38	28.51	-29.0	-29.6	28.1	0.00e+00	0	30	0	2429550592	30	6133
2026-01-16 18:53:14.38	301.06	28.45	-29.0	-29.5	28.1	0.00e+00	0	30	0	2435842048	30	6098
2026-01-16 18:53:15.39	300.75	28.39	-28.9	-29.5	28.2	0.00e+00	0	30	0	2441084928	30	6065
2026-01-16 18:53:16.39	300.44	28.33	-28.7	-29.4	28.3	0.00e+00	0	30	0	2447376384	30	5999
2026-01-16 18:53:17.41	300.13	28.27	-28.6	-29.3	28.5	0.00e+00	0	30	0	2452619264	30	5918
2026-01-16 18:53:18.41	299.82	28.21	-28.6	-29.2	28.3	0.00e+00	0	30	0	2457862144	30	5847
2026-01-16 18:53:19.42	299.51	28.15	-28.8	-29.4	28.3	0.00e+00	0	30	0	2464153600	30	5998
2026-01-16 18:53:20.43	299.21	28.09	-28.9	-29.6	28.2	0.00e+00	0	30	0	2469396480	30	6105
2026-01-16 18:53:21.44	298.90	28.03	-29.0	-29.5	28.2	0.00e+00	0	30	0	2475687936	30	6060
2026-01-16 18:53:22.45	298.60	27.97	-28.9	-29.4	28.3	0.00e+00	0	30	0	2480930816	30	5994
2026-01-16 18:53:23.46	298.29	27.90	-29.0	-29.6	28.3	0.00e+00	0	30	0	2486173696	30	6130
2026-01-16 18:53:24.47	297.99	27.84	-28.8	-29.3	28.3	0.00e+00	0	30	0	2492465152	30	5955
2026-01-16 18:53:25.48	297.69	27.77	-28.8	-29.4	28.2	0.00e+00	0	30	0	2497708032	30	5990
2026-01-16 18:53:26.49	297.39	27.71	-28.9	-29.4	28.2	0.00e+00	0	30	0	2503999488	30	6031
2026-01-16 18:53:27.50	297.09	27.64	-28.9	-29.6	28.1	0.00e+00	0	30	0	2509242368	30	6131
2026-01-16 18:53:28.51	296.79	27.57	-28.9	-29.6	28.3	0.00e+00	0	30	0	2514485248	30	6111
2026-01-16 18:53:29.52	296.50	27.50	-28.8	-29.5	28.3	0.00e+00	0	30	0	2520776704	30	6074
2026-01-16 18:53:30.53	296.20	27.43	-28.8	-29.4	28.3	0.00e+00	0	30	0	2526019584	30	6001
2026-01-16 18:53:31.54	295.91	27.36	-28.6	-29.2	28.5	0.00e+00	0	30	0	2532311040	30	5829
2026-01-16 18:53:32.55	295.62	27.29	-28.7	-29.4	28.4	0.00e+00	0	30	0	2537553920	30	5984
2026-01-16 18:53:33.56	295.33	27.22	-28.8	-29.4	28.3	0.00e+00	0	30	0	2543845376	30	6003
2026-01-16 18:53:34.57	295.04	27.15	-28.8	-29.3	28.3	0.00e+00	0	30	0	2549088256	30	5960
2026-01-16 18:53:35.58	294.75	27.08	-28.9	-29.4	28.2	0.00e+00	0	30	0	2555379712	30	6025
2026-01-16 18:53:36.59	294.46	27.01	-28.9	-29.5	28.3	0.00e+00	0	30	0	2560622592	30	6046
2026-01-16 18:53:37.60	294.18	26.93	-29.0	-29.6	28.2	0.00e+00	0	30	0	2565865472	30	6170
2026-01-16 18:53:38.61	293.89	26.86	-29.0	-29.6	28.1	0.00e+00	0	30	0	2572156928	30	6165
2026-01-16 18:53:39.62	293.61	26.78	-29.0	-29.6	28.1	0.00e+00	0	30	0	2577399808	30	6122
2026-01-16 18:53:40.63	293.33	26.71	-29.0	-29.5	28.2	0.00e+00	0	30	0	2583691264	30	6061
2026-01-16 18:53:41.63	293.05	26.63	-29.0	-29.6	28.2	0.00e+00	0	30	0	2588934144	30	6172
2026-01-16 18:53:42.64	292.77	26.56	-28.9	-29.4	28.2	0.00e+00	0	30	0	2594177024	30	6020
2026-01-16 18:53:43.66	292.49	26.48	-28.9	-29.4	28.1	0.00e+00	0	30	0	2600468480	30	6019
2026-01-16 18:53:44.67	292.21	26.40	-29.0	-29.7	28.1	0.00e+00	0	30	0	2605711360	30	6202
2026-01-16 18:53:45.68	291.94	26.32	-29.1	-29.7	28.0	0.00e+00	0	30	0	2612002816	30	6191
2026-01-16 18:53:46.68	291.67	26.25	-29.2	-29.9	28.1	0.00e+00	0	30	0	2617245696	30	6338
2026-01-16 18:53:47.69	291.40	26.17	-29.3	-29.8	28.0	0.00e+00	0	30	0	2622488576	30	6311
2026-01-16 18:53:48.70	291.13	26.09	-29.3	-29.8	27.9	0.00e+00	0	30	0	2628780032	30	6311
2026-01-16 18:53:49.71	290.86	26.01	-29.4	-30.0	27.8	0.00e+00	0	30	0	2634022912	30	6418
2026-01-16 18:53:50.72	290.59	25.93	-29.4	-30.0	27.8	0.00e+00	0	30	0	2640314368	30	6399
2026-01-16 18:53:51.73	290.32	25.85	-29.5	-30.0	27.8	0.00e+00	0	30	0	2645557248	30	6452
2026-01-16 18:53:52.74	290.06	25.77	-29.4	-30.0	27.8	0.00e+00	0	30	0	2651848704	30	6413
2026-01-16 18:53:53.75	289.79	25.68	-29.5	-30.1	27.9	0.00e+00	0	30	0	2657091584	30	6498
2026-01-16 18:53:54.76	289.53	25.60	-29.4	-29.9	27.8	0.00e+00	0	30	0	2662334464	30	6389
2026-01-16 18:53:55.77	289.27	25.52	-29.3	-30.0	28.0	0.00e+00	0	30	0	2668625920	30	6436
2026-01-16 18:53:56.78	289.01	25.44	-29.3	-30.0	27.8	0.00e+00	0	30	0	2673868800	30	6432
2026-01-16 18:53:57.78	288.75	25.36	-29.3	-29.9	27.8	0.00e+00	0	30	0	2680160256	30	6323
2026-01-16 18:53:58.79	288.50	25.27	-29.1	-29.6	28.1	0.00e+00	0	30	0	2685403136	30	6164
2026-01-16 18:53:59.80	288.24	25.19	-29.1	-29.7	28.1	0.00e+00	0	30	0	2690646016	30	6204
2026-01-16 18:54:00.81	287.99	25.10	-28.9	-29.5	28.2	0.00e+00	0	30	0	2696937472	30	6042
2026-01-16 18:54:01.82	287.73	25.02	-29.1	-29.7	28.0	0.00e+00	0	30	0	2702180352	30	6232
2026-01-16 18:54:02.83	287.48	24.93	-29.2	-29.7	28.0	0.00e+00	0	30	0	2708471808	30	6239
2026-01-16 18:54:03.84	287.23	24.85	-29.3	-30.0	27.6	0.00e+00	0	30	0	2713714688	30	6393
2026-01-16 18:54:04.85	286.98	24.76	-29.3	-30.0	27.6	0.00e+00	0	30	0	2718957568	30	6459
2026-01-16 18:54:05.86	286.73	24.68	-29.3	-29.8	27.7	0.00e+00	0	30	0	2725249024	30	6290
2026-01-16 18:54:06.87	286.49	24.59	-29.1	-29.8	27.8	0.00e+00	0	30	0	2730491904	30	6288
2026-01-16 18:54:07.88	286.24	24.51	-29.1	-29.6	27.9	0.00e+00	0	30	0	2736783360	30	6125
2026-01-16 18:54:08.89	286.00	24.42	-29.1	-29.7	27.9	0.00e+00	0	30	0	2742026240	30	6243
2026-01-16 18:54:09.90	285.76	24.33	-29.1	-29.8	27.8	0.00e+00	0	30	0	2748317696	30	6278
2026-01-16 18:54:10.91	285.52	24.24	-29.3	-29.8	27.7	0.00e+00	0	30	0	2753560576	30	6309
2026-01-16 18:54:11.92	285.28	24.16	-29.1	-29.7	27.8	0.00e+00	0	30	0	2759852032	30	6188
2026-01-16 18:54:12.93	285.04	24.07	-29.2	-29.7	27.8	0.00e+00	0	30	0	2765094912	30	6209
2026-01-16 18:54:13.94	284.80	23.98	-29.3	-30.0	27.7	0.00e+00	0	30	0	2770337792	30	6442
2026-01-16 18:54:14.95	284.57	23.89	-29.3	-29.8	27.7	0.00e+00	0	30	0	2776629248	30	6301
2026-01-16 18:54:15.96	284.33	23.80	-29.3	-30.0	27.6	0.00e+00	0	30	0	2781872128	30	6435
2026-01-16 18:54:16.97	284.10	23.72	-29.3	-29.9	27.8	0.00e+00	0	30	0	2787115008	30	6390
2026-01-16 18:54:17.98	283.87	23.63	-29.2	-29.9	27.8	0.00e+00	0	30	0	2793406464	30	6341
2026-01-16 18:54:18.98	283.64	23.54	-29.2	-29.8	27.6	0.00e+00	0	30	0	2798649344	30	6271
2026-01-16 18:54:19.99	283.41	23.45	-29.3	-30.0	27.6	0.00e+00	0	30	0	2804940800	30	6403
2026-01-16 18:54:21.00	283.18	23.36	-29.6	-30.2	27.5	0.00e+00	0	30	0	2810183680	30	6546
2026-01-16 18:54:22.01	282.96	23.27	-29.5	-30.0	27.6	0.00e+00	0	30	0	2815426560	30	6421
2026-01-16 18:54:23.02	282.73	23.18	-29.7	-30.4	27.2	0.00e+00	0	30	0	2821718016	30	6750
2026-01-16 18:54:24.03	282.51	23.09	-29.8	-30.4	27.3	0.00e+00	0	30	0	2826960896	32	5970
2026-01-16 18:54:25.04	282.29	23.00	-29.7	-30.3	27.2	0.00e+00	0	30	0	2833252352	32	5916
2026-01-16 18:54:26.05	282.07	22.91	-29.7	-30.4	27.2	0.00e+00	0	30	0	2838495232	32	5966
2026-01-16 18:54:27.06	281.85	22.82	-29.7	-30.4	27.2	0.00e+00	0	30	0	2844786688	32	6029
2026-01-16 18:54:28.07	281.63	22.73	-29.7	-30.3	26.9	0.00e+00	0	30	0	2850029568	32	5924
2026-01-16 18:54:29.08	281.41	22.64	-29.7	-30.4	27.2	0.00e+00	0	30	0	2856321024	32	5995
2026-01-16 18:54:30.09	281.19	22.55	-29.6	-30.2	27.0	0.00e+00	0	30	0	2861563904	32	5840
2026-01-16 18:54:31.09	280.98	22.46	-29.6	-30.3	27.2	0.00e+00	0	30	0	2866806784	32	5937
2026-01-16 18:54:32.10	280.77	22.37	-29.7	-30.3	27.3	0.00e+00	0	30	0	2873098240	32	5909
2026-01-16 18:54:33.11	280.56	22.27	-29.9	-30.5	27.1	0.00e+00	0	29	0	2878341120	32	6053
2026-01-16 18:54:34.13	280.34	22.18	-29.8	-30.5	27.1	0.00e+00	0	30	0	2884632576	32	6063
2026-01-16 18:54:35.13	280.14	22.09	-29.8	-30.5	27.3	0.00e+00	0	30	0	2889875456	32	6101
2026-01-16 18:54:36.14	279.93	22.00	-29.8	-30.4	27.2	0.00e+00	0	30	0	2895118336	32	6027
2026-01-16 18:54:37.15	279.72	21.91	-29.9	-30.4	27.2	0.00e+00	0	29	0	2901409792	32	6027
2026-01-16 18:54:38.16	279.51	21.82	-30.0	-30.7	27.1	0.00e+00	0	29	0	2906652672	32	6191
2026-01-16 18:54:39.17	279.31	21.73	-29.9	-30.5	27.3	0.00e+00	0	30	0	2912944128	32	6054
2026-01-16 18:54:40.18	279.11	21.63	-29.9	-30.4	27.2	0.00e+00	0	30	0	2918187008	32	6014
2026-01-16 18:54:41.19	278.90	21.54	-30.1	-30.8	27.1	0.00e+00	0	29	0	2923429888	32	6262
2026-01-16 18:54:42.20	278.70	21.45	-29.9	-30.5	27.2	0.00e+00	0	30	0	2929721344	32	6059
2026-01-16 18:54:43.20	278.50	21.36	-29.8	-30.4	27.3	0.00e+00	0	30	0	2934964224	32	5977
2026-01-16 18:54:44.21	278.31	21.27	-29.8	-30.5	27.2	0.00e+00	0	30	0	2941255680	32	6082
2026-01-16 18:54:45.22	278.11	21.18	-29.9	-30.4	27.1	0.00e+00	0	30	0	2946498560	32	6031
2026-01-16 18:54:46.23	277.91	21.08	-30.0	-30.6	27.1	0.00e+00	0	30	0	2952790016	32	6133
2026-01-16 18:54:47.24	277.72	20.99	-30.0	-30.7	27.1	0.00e+00	0	30	0	2958032896	32	6179
2026-01-16 18:54:48.25	277.52	20.90	-30.1	-30.7	27.0	0.00e+00	0	30	0	2963275776	32	6205
2026-01-16 18:54:49.26	277.33	20.81	-30.0	-30.6	27.1	0.00e+00	0	29	0	2969567232	32	6135
2026-01-16 18:54:50.27	277.14	20.72	-30.0	-30.5	27.2	0.00e+00	0	30	0	2974810112	32	6095
2026-01-16 18:54:51.28	276.95	20.62	-29.9	-30.6	27.2	0.00e+00	0	30	0	2981101568	32	6105
2026-01-16 18:54:52.29	276.76	20.53	-29.7	-30.4	27.4	0.00e+00	0	30	0	2986344448	32	6000
2026-01-16 18:54:53.30	276.57	20.44	-29.8	-30.5	27.2	0.00e+00	0	30	0	2991587328	32	6052
2026-01-16 18:54:54.31	276.38	20.35	-30.2	-30.8	26.9	0.00e+00	0	29	0	2997878784	32	6257
2026-01-16 18:54:55.31	276.20	20.26	-30.0	-30.6	27.1	0.00e+00	0	29	0	3003121664	32	6160
2026-01-16 18:54:56.32	276.01	20.17	-30.0	-30.6	27.1	0.00e+00	0	29	0	3009413120	32	6114
2026-01-16 18:54:57.33	275.83	20.07	-30.1	-30.8	27.0	0.00e+00	0	29	0	3014656000	32	6289
2026-01-16 18:54:58.34	275.65	19.98	-30.0	-30.7	27.1	0.00e+00	0	30	0	3019898880	32	6175
2026-01-16 18:54:59.35	275.47	19.89	-30.0	-30.7	27.2	0.00e+00	0	29	0	3026190336	32	6183
2026-01-16 18:55:00.36	275.29	19.80	-30.2	-30.7	26.9	0.00e+00	0	29	0	3031433216	32	6234
2026-01-16 18:55:01.37	275.11	19.71	-30.1	-30.8	27.1	0.00e+00	0	30	0	3037724672	32	6265
2026-01-16 18:55:02.38	274.93	19.62	-30.1	-30.8	27.0	0.00e+00	0	29	0	3042967552	32	6269
2026-01-16 18:55:03.39	274.75	19.52	-30.2	-30.8	27.0	0.00e+00	0	29	0	3049259008	32	6284
2026-01-16 18:55:04.40	274.58	19.43	-30.2	-30.8	26.9	0.00e+00	0	29	0	3054501888	32	6259
2026-01-16 18:55:05.41	274.40	19.34	-30.2	-30.9	26.9	0.00e+00	0	29	0	3059744768	32	6340
2026-01-16 18:55:06.42	274.23	19.25	-30.4	-30.9	26.8	0.00e+00	0	30	0	3066036224	32	6354
2026-01-16 18:55:07.43	274.05	19.16	-30.3	-30.9	26.9	0.00e+00	0	29	0	3071279104	32	6334
2026-01-16 18:55:08.44	273.88	19.07	-30.5	-31.0	26.7	0.00e+00	0	29	0	3077570560	32	6452
2026-01-16 18:55:09.45	273.71	18.97	-30.3	-30.9	26.8	0.00e+00	0	29	0	3082813440	32	6351
2026-01-16 18:55:10.46	273.54	18.88	-30.4	-30.9	26.9	0.00e+00	0	29	0	3088056320	32	6369
2026-01-16 18:55:11.47	273.37	18.79	-30.4	-31.0	26.7	0.00e+00	0	29	0	3094347776	32	6404
2026-01-16 18:55:12.47	273.21	18.70	-30.5	-31.1	26.7	0.00e+00	0	29	0	3099590656	32	6504
2026-01-16 18:55:13.48	273.04	18.61	-30.4	-31.1	26.8	0.00e+00	0	29	0	3105882112	32	6493
2026-01-16 18:55:14.49	272.87	18.52	-30.4	-30.9	26.7	0.00e+00	0	29	0	3111124992	32	6389
2026-01-16 18:55:15.50	272.71	18.43	-30.3	-30.9	26.9	0.00e+00	0	29	0	3116367872	32	6340
2026-01-16 18:55:16.50	272.55	18.34	-30.3	-30.9	26.9	0.00e+00	0	29	0	3122659328	32	6340
2026-01-16 18:55:17.51	272.38	18.25	-30.3	-31.0	26.8	0.00e+00	0	29	0	3127902208	32	6448
2026-01-16 18:55:18.52	272.22	18.16	-30.4	-31.0	26.8	0.00e+00	0	29	0	3134193664	32	6395
2026-01-16 18:55:19.53	272.06	18.07	-30.4	-31.0	26.8	0.00e+00	0	29	0	3139436544	32	6419
2026-01-16 18:55:20.54	271.90	17.98	-30.5	-31.1	26.7	0.00e+00	0	29	0	3145728000	32	6499
2026-01-16 18:55:21.55	271.74	17.89	-30.5	-31.1	26.6	0.00e+00	0	29	0	3150970880	32	6480
2026-01-16 18:55:22.56	271.59	17.80	-30.7	-31.4	26.6	0.00e+00	0	29	0	3156213760	32	6712
2026-01-16 18:55:23.57	271.43	17.71	-30.7	-31.4	26.5	0.00e+00	0	29	0	3162505216	32	6706
2026-01-16 18:55:24.58	271.27	17.62	-30.8	-31.4	26.5	0.00e+00	0	29	0	3167748096	34	5986
2026-01-16 18:55:25.59	271.12	17.53	-30.8	-31.4	26.4	0.00e+00	0	29	0	3174039552	34	6018
2026-01-16 18:55:26.60	270.96	17.44	-30.9	-31.6	26.4	0.00e+00	0	29	0	3179282432	34	6116
2026-01-16 18:55:27.61	270.81	17.35	-30.9	-31.6	26.3	0.00e+00	0	29	0	3184525312	34	6160
2026-01-16 18:55:28.62	270.66	17.26	-30.9	-31.4	26.4	0.00e+00	0	29	0	3190816768	34	6011
2026-01-16 18:55:29.63	270.51	17.17	-30.9	-31.4	26.4	0.00e+00	0	29	0	3196059648	34	6015
2026-01-16 18:55:30.63	270.36	17.08	-30.8	-31.4	26.4	0.00e+00	0	29	0	3202351104	34	6004
2026-01-16 18:55:31.64	270.21	16.99	-30.9	-31.5	26.4	0.00e+00	0	29	0	3207593984	34	6036
2026-01-16 18:55:32.65	270.06	16.90	-30.9	-31.5	26.3	0.00e+00	0	29	0	3212836864	34	6047
2026-01-16 18:55:33.66	269.91	16.81	-30.9	-31.5	26.3	0.00e+00	0	29	0	3219128320	34	6072
2026-01-16 18:55:34.66	269.77	16.73	-31.0	-31.6	26.2	0.00e+00	0	29	0	3224371200	34	6109
2026-01-16 18:55:35.67	269.62	16.64	-31.2	-31.8	26.1	0.00e+00	0	29	0	3230662656	34	6275
2026-01-16 18:55:36.68	269.47	16.55	-31.0	-31.6	26.3	0.00e+00	0	29	0	3235905536	34	6123
2026-01-16 18:55:37.69	269.33	16.46	-31.1	-31.7	26.2	0.00e+00	0	29	0	3242196992	34	6195
2026-01-16 18:55:38.70	269.19	16.37	-31.0	-31.6	26.2	0.00e+00	0	29	0	3247439872	34	6144
2026-01-16 18:55:39.71	269.04	16.28	-31.0	-31.6	26.2	0.00e+00	0	29	0	3252682752	34	6127
2026-01-16 18:55:40.72	268.90	16.20	-31.1	-31.8	26.2	0.00e+00	0	29	0	3258974208	34	6304
2026-01-16 18:55:41.73	268.76	16.11	-31.3	-32.1	26.0	0.00e+00	0	29	0	3264217088	34	6478
2026-01-16 18:55:42.74	268.62	16.02	-31.3	-31.9	26.0	0.00e+00	0	29	0	3270508544	34	6320
2026-01-16 18:55:43.74	268.48	15.93	-31.4	-32.1	26.0	0.00e+00	0	29	0	3275751424	34	6492
2026-01-16 18:55:44.76	268.34	15.85	-31.5	-32.0	25.9	0.00e+00	0	29	0	3280994304	34	6461
2026-01-16 18:55:45.76	268.21	15.76	-31.4	-32.0	25.8	0.00e+00	0	29	0	3287285760	34	6462
2026-01-16 18:55:46.77	268.07	15.67	-31.4	-32.1	25.9	0.00e+00	0	29	0	3292528640	34	6512
2026-01-16 18:55:47.78	267.94	15.58	-31.4	-32.0	25.9	0.00e+00	0	29	0	3298820096	34	6398
2026-01-16 18:55:48.79	267.80	15.50	-31.3	-31.9	25.9	0.00e+00	0	29	0	3304062976	34	6365
2026-01-16 18:55:49.80	267.67	15.41	-31.3	-31.9	26.0	0.00e+00	0	29	0	3309305856	34	6375
2026-01-16 18:55:50.81	267.53	15.32	-31.2	-31.9	26.0	0.00e+00	0	29	0	3315597312	34	6381
2026-01-16 18:55:51.82	267.40	15.24	-31.4	-32.2	25.9	0.00e+00	0	29	0	3320840192	34	6540
2026-01-16 18:55:52.83	267.27	15.15	-31.3	-31.9	26.0	0.00e+00	0	29	0	3327131648	34	6331
2026-01-16 18:55:53.84	267.14	15.07	-31.4	-32.0	25.9	0.00e+00	0	29	0	3332374528	34	6393
2026-01-16 18:55:54.85	267.01	14.98	-31.5	-32.1	25.8	0.00e+00	0	29	0	3338665984	34	6475
2026-01-16 18:55:55.86	266.88	14.89	-31.5	-32.1	25.8	0.00e+00	0	29	0	3343908864	34	6530
2026-01-16 18:55:56.87	266.75	14.81	-31.7	-32.3	25.7	0.00e+00	0	29	0	3350200320	36	5927
2026-01-16 18:55:57.88	266.62	14.72	-31.7	-32.5	25.7	0.00e+00	0	29	0	3355443200	36	6052
2026-01-16 18:55:58.89	266.49	14.64	-31.5	-32.2	25.8	0.00e+00	0	29	0	3360686080	36	5864
2026-01-16 18:55:59.90	266.37	14.55	-31.5	-32.1	25.8	0.00e+00	0	29	0	3366977536	36	5790
2026-01-16 18:56:00.91	266.24	14.47	-31.5	-32.2	25.8	0.00e+00	0	29	0	3372220416	36	5860
2026-01-16 18:56:01.92	266.11	14.38	-31.5	-32.2	25.9	0.00e+00	0	29	0	3378511872	36	5865
2026-01-16 18:56:02.92	265.99	14.30	-31.4	-32.1	25.9	0.00e+00	0	29	0	3383754752	36	5796
2026-01-16 18:56:03.93	265.87	14.21	-31.5	-32.0	25.9	0.00e+00	0	29	0	3388997632	36	5735
2026-01-16 18:56:04.94	265.74	14.13	-31.5	-32.1	25.8	0.00e+00	0	29	0	3395289088	36	5788
2026-01-16 18:56:05.95	265.62	14.05	-31.7	-32.2	25.6	0.00e+00	0	29	0	3400531968	36	5890
2026-01-16 18:56:06.96	265.50	13.96	-31.9	-32.6	25.4	0.00e+00	0	29	0	3405774848	36	6123
2026-01-16 18:56:07.97	265.38	13.88	-32.1	-32.7	25.3	0.00e+00	0	29	0	3412066304	36	6236
2026-01-16 18:56:08.98	265.26	13.79	-32.1	-32.7	25.3	0.00e+00	0	29	0	3417309184	36	6191
2026-01-16 18:56:09.99	265.14	13.71	-31.9	-32.5	25.4	0.00e+00	0	29	0	3423600640	36	6072
2026-01-16 18:56:11.00	265.02	13.63	-32.0	-32.7	25.3	0.00e+00	0	29	0	3428843520	36	6229
2026-01-16 18:56:12.01	264.90	13.54	-32.0	-32.7	25.3	0.00e+00	0	29	0	3435134976	36	6232
2026-01-16 18:56:13.02	264.78	13.46	-31.9	-32.5	25.4	0.00e+00	0	29	0	3440377856	36	6077
2026-01-16 18:56:14.03	264.67	13.38	-32.1	-32.7	25.2	0.00e+00	0	29	0	3446669312	36	6237
2026-01-16 18:56:15.04	264.55	13.29	-32.2	-32.9	25.1	0.00e+00	0	29	0	3451912192	36	6351
2026-01-16 18:56:16.05	264.44	13.21	-32.1	-32.9	25.3	0.00e+00	0	29	0	3457155072	36	6323
2026-01-16 18:56:17.06	264.32	13.13	-32.1	-32.7	24.8	0.00e+00	0	29	0	3463446528	36	6233
2026-01-16 18:56:18.07	264.21	13.05	-32.6	-33.4	25.1	0.00e+00	0	29	0	3468689408	36	6698
2026-01-16 18:56:19.08	264.09	12.97	-32.5	-33.3	24.9	0.00e+00	0	29	0	3474980864	36	6652
2026-01-16 18:56:20.08	263.98	12.88	-32.4	-33.0	25.1	0.00e+00	0	29	0	3480223744	36	6421
2026-01-16 18:56:21.09	263.87	12.80	-32.5	-33.2	24.9	0.00e+00	0	29	0	3485466624	36	6603
2026-01-16 18:56:22.10	263.76	12.72	-32.2	-32.9	25.1	0.00e+00	0	29	0	3491758080	36	6388
2026-01-16 18:56:23.11	263.65	12.64	-32.2	-32.8	25.2	0.00e+00	0	29	0	3497000960	36	6298
2026-01-16 18:56:24.12	263.54	12.56	-32.3	-32.9	25.0	0.00e+00	0	29	0	3503292416	36	6365
2026-01-16 18:56:25.13	263.43	12.48	-32.2	-32.8	25.1	0.00e+00	0	29	0	3508535296	36	6285
2026-01-16 18:56:26.14	263.32	12.40	-32.3	-32.9	25.0	0.00e+00	0	29	0	3513778176	36	6319
2026-01-16 18:56:27.15	263.21	12.32	-32.4	-33.0	25.0	0.00e+00	0	29	0	3520069632	36	6400
2026-01-16 18:56:28.16	263.10	12.23	-32.2	-33.0	25.1	0.00e+00	0	29	0	3525312512	36	6406
2026-01-16 18:56:29.17	262.99	12.15	-32.2	-32.8	25.1	0.00e+00	0	29	0	3531603968	36	6275
2026-01-16 18:56:30.18	262.89	12.07	-32.3	-33.0	25.0	0.00e+00	0	29	0	3536846848	36	6448
2026-01-16 18:56:31.18	262.78	11.99	-32.3	-33.0	25.0	0.00e+00	0	29	0	3543138304	36	6433
2026-01-16 18:56:32.19	262.68	11.91	-32.4	-33.0	24.9	0.00e+00	0	29	0	3548381184	36	6448
2026-01-16 18:56:33.20	262.57	11.83	-32.5	-33.2	24.9	0.00e+00	0	29	0	3553624064	36	6593
2026-01-16 18:56:34.21	262.47	11.75	-32.5	-33.1	24.8	0.00e+00	0	29	0	3559915520	36	6468
2026-01-16 18:56:35.22	262.36	11.68	-32.4	-33.1	24.9	0.00e+00	0	29	0	3565158400	36	6471
2026-01-16 18:56:36.23	262.26	11.60	-32.5	-33.1	24.8	0.00e+00	0	29	0	3571449856	36	6530
2026-01-16 18:56:37.24	262.16	11.52	-32.5	-33.1	24.8	0.00e+00	0	29	0	3576692736	36	6532
2026-01-16 18:56:38.25	262.06	11.44	-32.6	-33.4	24.7	0.00e+00	0	29	0	3581935616	36	6716
2026-01-16 18:56:39.26	261.95	11.36	-32.8	-33.4	24.6	0.00e+00	0	29	0	3588227072	38	5999
2026-01-16 18:56:40.27	261.85	11.28	-32.7	-33.3	24.7	0.00e+00	0	29	0	3593469952	38	5907
2026-01-16 18:56:41.28	261.75	11.20	-32.8	-33.5	24.5	0.00e+00	0	29	0	3599761408	38	6098
2026-01-16 18:56:42.28	261.65	11.12	-32.8	-33.6	24.5	0.00e+00	0	29	0	3605004288	38	6113
