passes_logs/2026/01/16/R4.6S_Anadyr/R4.6S_Anadyr__20260116_124518_SUOMI_NPP_rec.log

#Pass ID: 20260116_124518_SUOMI NPP
#Satellite: SUOMI NPP
#Configuration: NPP
#almurnet v.1.7.20251203
#Start time: 2026-01-16 12:45:19

#Version: 2.2.20231116
#Station: R4.6S_Anadyr
#Location: 177.4865 lon 64.73178 lat
#TLE: 1 37849U 11061A   26015.94982489  .00000054  00000+0  46705-4 0  9991
#TLE: 2 37849  98.7812 317.9902 0002438  62.0366 298.1057 14.19525452736847

#Time	Az	El	Level	Level2	SNR	BER	BlckErr	Temp	State	Recorded	gain1	gain2
2026-01-16 12:45:19.62	18.94	0.08	-48.3	-60.8	3.4	1.51e+00	0	25	0	0	60	38693
2026-01-16 12:45:20.63	19.01	0.13	-48.1	-63.4	3.6	1.51e+00	0	26	104	0	60	53307
2026-01-16 12:45:21.64	19.07	0.19	-48.5	-63.7	3.6	1.51e+00	0	26	104	0	60	55414
2026-01-16 12:45:22.65	19.14	0.24	-48.2	-63.4	3.6	1.51e+00	0	26	104	0	60	53481
2026-01-16 12:45:23.66	19.20	0.29	-48.1	-63.3	3.6	1.51e+00	0	26	104	0	60	52907
2026-01-16 12:45:24.67	19.27	0.34	-48.1	-63.3	3.6	1.51e+00	0	26	104	0	60	53101
2026-01-16 12:45:25.68	19.34	0.40	-48.2	-63.5	3.6	1.51e+00	0	26	104	0	60	53864
2026-01-16 12:45:26.69	19.41	0.45	-48.1	-63.3	3.5	1.51e+00	0	26	104	0	60	53018
2026-01-16 12:45:27.70	19.47	0.50	-48.0	-63.2	3.6	1.51e+00	0	26	104	0	60	52231
2026-01-16 12:45:28.71	19.54	0.55	-47.9	-63.1	3.6	1.51e+00	0	26	104	0	60	51657
2026-01-16 12:45:29.72	19.61	0.61	-47.9	-63.1	3.6	1.51e+00	0	26	104	0	60	51433
2026-01-16 12:45:30.73	19.68	0.66	-47.7	-62.9	3.6	1.51e+00	0	27	104	0	60	50204
2026-01-16 12:45:31.74	19.74	0.71	-47.5	-62.7	3.6	1.51e+00	0	27	104	0	60	49175
2026-01-16 12:45:32.75	19.81	0.76	-47.3	-62.5	3.6	1.51e+00	0	26	104	0	60	48262
2026-01-16 12:45:33.76	19.88	0.82	-47.1	-62.3	3.6	1.51e+00	0	27	104	0	60	47206
2026-01-16 12:45:34.77	19.95	0.87	-46.8	-61.9	3.6	1.51e+00	0	27	104	0	60	45085
2026-01-16 12:45:35.78	20.02	0.92	-46.4	-61.4	3.6	1.51e+00	0	26	104	0	60	42399
2026-01-16 12:45:36.79	20.09	0.97	-46.3	-61.5	3.6	1.51e+00	0	26	104	0	60	42778
2026-01-16 12:45:37.79	20.16	1.03	-46.3	-61.4	3.6	1.51e+00	0	27	104	0	60	42315
2026-01-16 12:45:38.80	20.23	1.08	-46.3	-61.3	3.6	1.51e+00	0	27	104	0	60	41847
2026-01-16 12:45:39.81	20.30	1.13	-46.3	-61.3	3.6	1.51e+00	0	27	104	0	60	42160
2026-01-16 12:45:40.82	20.37	1.19	-46.3	-61.3	3.6	1.51e+00	0	27	104	0	60	42116
2026-01-16 12:45:41.83	20.44	1.24	-46.3	-61.4	3.6	1.51e+00	0	27	104	0	60	42416
2026-01-16 12:45:42.84	20.51	1.29	-46.3	-61.4	3.6	1.51e+00	0	27	104	0	60	42431
2026-01-16 12:45:43.85	20.58	1.35	-46.3	-61.4	3.6	1.51e+00	0	27	104	0	60	42625
2026-01-16 12:45:44.86	20.65	1.40	-46.3	-61.5	3.6	1.51e+00	0	27	104	0	60	42746
2026-01-16 12:45:45.87	20.72	1.45	-46.3	-61.4	3.6	1.51e+00	0	27	104	0	60	42388
2026-01-16 12:45:46.88	20.79	1.51	-46.3	-61.4	3.6	1.51e+00	0	27	104	0	60	42655
2026-01-16 12:45:47.89	20.87	1.56	-46.3	-61.4	3.6	1.51e+00	0	27	104	0	60	42652
2026-01-16 12:45:48.90	20.94	1.61	-46.3	-61.4	3.6	1.51e+00	0	27	104	0	60	42611
2026-01-16 12:45:49.91	21.01	1.67	-46.3	-61.4	3.6	1.51e+00	0	27	104	0	60	42452
2026-01-16 12:45:50.92	21.08	1.72	-46.3	-61.3	3.6	1.51e+00	0	27	104	0	60	42076
2026-01-16 12:45:51.93	21.16	1.78	-46.3	-61.3	3.6	1.51e+00	0	27	104	0	60	42214
2026-01-16 12:45:52.94	21.23	1.83	-46.3	-61.3	3.6	1.51e+00	0	27	104	0	60	42125
2026-01-16 12:45:53.95	21.30	1.88	-46.3	-61.3	3.6	1.51e+00	0	27	104	0	60	42048
2026-01-16 12:45:54.96	21.38	1.94	-46.3	-61.4	3.6	1.51e+00	0	27	104	0	60	42338
2026-01-16 12:45:55.97	21.45	1.99	-46.3	-61.4	3.6	1.51e+00	0	27	104	0	60	42328
2026-01-16 12:45:56.98	21.53	2.05	-46.3	-61.3	3.6	1.51e+00	0	27	104	0	60	41812
2026-01-16 12:45:57.99	21.60	2.10	-46.3	-61.4	3.6	1.51e+00	0	27	104	0	60	42418
2026-01-16 12:45:59.00	21.67	2.16	-46.3	-61.5	3.6	1.51e+00	0	27	104	0	60	42879
2026-01-16 12:46:00.01	21.75	2.21	-46.3	-61.2	3.6	1.51e+00	0	27	104	0	60	41657
2026-01-16 12:46:01.01	21.82	2.26	-46.3	-60.8	3.6	1.51e+00	0	27	104	0	60	39531
2026-01-16 12:46:02.02	21.90	2.32	-46.2	-59.9	3.6	1.51e+00	0	27	104	0	60	35926
2026-01-16 12:46:03.03	21.98	2.37	-46.2	-59.2	3.6	1.51e+00	0	27	104	0	60	33046
2026-01-16 12:46:04.04	22.05	2.43	-46.2	-59.4	3.7	1.49e+00	0	27	104	0	60	33761
2026-01-16 12:46:05.05	22.13	2.48	-46.2	-59.2	3.6	1.51e+00	0	27	104	0	60	33062
2026-01-16 12:46:06.06	22.20	2.54	-46.0	-57.1	4.2	1.44e+00	63	27	0	0	60	25741
2026-01-16 12:46:07.07	22.28	2.59	-45.6	-52.7	6.6	3.31e-01	82	27	0	1048576	60	15524
2026-01-16 12:46:08.08	22.36	2.65	-44.4	-48.9	11.4	1.36e-02	0	27	0	3145728	60	10080
2026-01-16 12:46:09.09	22.43	2.70	-43.3	-46.6	13.8	9.53e-05	0	27	0	5242880	60	7691
2026-01-16 12:46:10.10	22.51	2.76	-42.0	-44.4	16.0	3.00e-06	0	27	0	7340032	58	6720
2026-01-16 12:46:11.11	22.59	2.81	-40.6	-42.4	17.8	0.00e+00	0	27	0	9437184	54	6738
2026-01-16 12:46:12.12	22.67	2.87	-40.5	-42.3	17.9	0.00e+00	78	27	0	10485760	54	6637
2026-01-16 12:46:13.13	22.75	2.92	-40.3	-42.0	18.2	0.00e+00	33	27	0	12582912	54	6424
2026-01-16 12:46:14.14	22.83	2.98	-40.3	-42.1	18.1	0.00e+00	91	27	0	14680064	54	6478
2026-01-16 12:46:15.15	22.90	3.04	-41.4	-43.6	16.5	0.00e+00	0	27	0	16777216	54	7713
2026-01-16 12:46:16.16	22.98	3.09	-42.2	-44.7	15.4	0.00e+00	33	27	0	18874368	56	7836
2026-01-16 12:46:17.17	23.06	3.15	-43.5	-47.0	14.0	9.90e-06	0	27	0	19922944	58	9092
2026-01-16 12:46:18.18	23.14	3.20	-40.6	-42.4	18.1	0.00e+00	0	27	0	22020096	54	6701
2026-01-16 12:46:19.19	23.22	3.26	-39.7	-41.2	19.0	0.00e+00	45	27	0	24117248	52	6565
2026-01-16 12:46:20.19	23.30	3.31	-46.2	-61.0	3.6	1.51e+00	0	27	104	25165824	60	40599
2026-01-16 12:46:21.21	23.38	3.37	-45.1	-51.0	10.4	1.37e+00	92	27	104	25165824	60	12879
2026-01-16 12:46:22.21	23.46	3.43	-44.1	-47.9	12.8	2.59e-05	0	27	0	25165824	60	9011
2026-01-16 12:46:23.23	23.55	3.48	-39.8	-41.4	19.0	0.00e+00	0	27	0	27262976	54	5987
2026-01-16 12:46:24.23	23.63	3.54	-40.0	-41.6	18.7	0.00e+00	0	27	0	29360128	54	6160
2026-01-16 12:46:25.24	23.71	3.59	-39.9	-41.5	18.9	0.00e+00	0	27	0	31457280	52	6817
2026-01-16 12:46:26.25	23.79	3.65	-39.9	-41.5	19.0	0.00e+00	48	27	0	33554432	52	6770
2026-01-16 12:46:27.26	23.87	3.71	-40.0	-41.6	18.7	0.00e+00	0	27	0	34603008	52	6894
2026-01-16 12:46:28.27	23.96	3.76	-39.7	-41.1	19.3	0.00e+00	81	28	0	36700160	52	6532
2026-01-16 12:46:29.28	24.04	3.82	-40.1	-41.7	18.6	0.00e+00	0	27	0	38797312	52	6979
2026-01-16 12:46:30.29	24.12	3.88	-39.8	-41.3	19.2	0.00e+00	0	27	0	40894464	52	6682
2026-01-16 12:46:31.30	24.21	3.93	-39.7	-41.1	19.2	0.00e+00	0	27	0	42991616	52	6527
2026-01-16 12:46:32.31	24.29	3.99	-40.0	-41.5	18.9	0.00e+00	0	27	0	45088768	52	6835
2026-01-16 12:46:33.32	24.37	4.05	-40.0	-41.6	18.8	0.00e+00	47	28	0	46137344	52	6903
2026-01-16 12:46:34.33	24.46	4.10	-39.7	-41.2	19.2	0.00e+00	0	28	0	48234496	52	6610
2026-01-16 12:46:35.34	24.54	4.16	-40.1	-41.8	18.8	0.00e+00	73	28	0	50331648	52	7011
2026-01-16 12:46:36.35	24.63	4.22	-39.9	-41.5	18.9	0.00e+00	33	27	0	52428800	52	6788
2026-01-16 12:46:37.36	24.71	4.27	-40.0	-41.5	19.0	0.00e+00	0	27	0	54525952	52	6829
2026-01-16 12:46:38.37	24.80	4.33	-39.6	-41.1	19.4	0.00e+00	0	27	0	55574528	52	6479
2026-01-16 12:46:39.37	24.89	4.39	-39.6	-41.1	19.4	0.00e+00	0	28	0	57671680	52	6513
2026-01-16 12:46:40.38	24.97	4.45	-40.0	-41.6	19.0	0.00e+00	42	27	0	59768832	52	6876
2026-01-16 12:46:41.39	25.06	4.50	-39.5	-41.0	19.6	0.00e+00	0	27	0	61865984	52	6421
2026-01-16 12:46:42.40	25.15	4.56	-39.4	-40.9	19.6	0.00e+00	39	27	0	63963136	52	6327
2026-01-16 12:46:43.41	25.23	4.62	-39.4	-40.9	19.7	0.00e+00	0	28	0	65011712	52	6321
2026-01-16 12:46:44.42	25.32	4.68	-39.3	-40.7	19.7	0.00e+00	65	27	0	67108864	52	6235
2026-01-16 12:46:45.43	25.41	4.73	-39.5	-40.9	19.7	0.00e+00	0	27	0	69206016	52	6342
2026-01-16 12:46:46.44	25.50	4.79	-39.4	-40.8	19.5	0.00e+00	0	27	0	71303168	52	6291
2026-01-16 12:46:47.45	25.59	4.85	-39.2	-40.6	19.9	0.00e+00	0	28	0	73400320	52	6115
2026-01-16 12:46:48.46	25.67	4.91	-39.2	-40.5	20.1	0.00e+00	0	28	0	74448896	52	6074
2026-01-16 12:46:49.47	25.76	4.96	-39.2	-40.6	20.0	0.00e+00	43	27	0	76546048	52	6120
2026-01-16 12:46:50.48	25.85	5.02	-39.4	-40.7	19.8	0.00e+00	0	28	0	78643200	52	6228
2026-01-16 12:46:51.49	25.94	5.08	-39.2	-40.5	20.0	0.00e+00	92	28	0	80740352	52	6071
2026-01-16 12:46:52.50	26.03	5.14	-39.7	-41.2	19.5	0.00e+00	0	28	0	82837504	52	6561
2026-01-16 12:46:53.51	26.12	5.20	-39.6	-41.0	19.6	0.00e+00	0	28	0	83886080	52	6424
2026-01-16 12:46:54.52	26.22	5.26	-39.4	-40.7	19.9	0.00e+00	0	28	0	85983232	52	6232
2026-01-16 12:46:55.53	26.31	5.31	-40.1	-41.6	19.1	0.00e+00	0	28	0	88080384	52	6882
2026-01-16 12:46:56.54	26.40	5.37	-39.8	-41.2	19.4	0.00e+00	43	28	0	90177536	52	6608
2026-01-16 12:46:57.55	26.49	5.43	-39.6	-41.0	19.7	0.00e+00	0	28	0	92274688	52	6433
2026-01-16 12:46:58.56	26.58	5.49	-39.7	-41.1	19.5	0.00e+00	92	28	0	93323264	52	6503
2026-01-16 12:46:59.57	26.68	5.55	-40.0	-41.5	19.2	0.00e+00	0	28	0	95420416	52	6794
2026-01-16 12:47:00.58	26.77	5.61	-39.9	-41.4	19.4	0.00e+00	0	28	0	97517568	52	6717
2026-01-16 12:47:01.59	26.86	5.67	-40.0	-41.5	19.1	0.00e+00	0	28	0	99614720	52	6827
2026-01-16 12:47:02.60	26.96	5.72	-40.1	-41.6	19.0	0.00e+00	0	28	0	101711872	52	6925
2026-01-16 12:47:03.61	27.05	5.78	-40.3	-41.9	18.8	0.00e+00	46	28	0	102760448	52	7118
2026-01-16 12:47:04.62	27.15	5.84	-40.2	-41.7	19.1	0.00e+00	0	28	0	104857600	52	6997
2026-01-16 12:47:05.63	27.24	5.90	-40.2	-41.8	18.9	0.00e+00	65	28	0	106954752	52	7017
2026-01-16 12:47:06.64	27.34	5.96	-40.1	-41.7	19.1	0.00e+00	0	28	0	109051904	52	6955
2026-01-16 12:47:07.65	27.43	6.02	-40.5	-42.1	18.7	0.00e+00	0	28	0	111149056	52	7283
2026-01-16 12:47:08.66	27.53	6.08	-40.5	-42.1	18.7	0.00e+00	0	28	0	113246208	52	7337
2026-01-16 12:47:09.67	27.62	6.14	-40.5	-42.1	18.8	0.00e+00	0	28	0	114294784	52	7291
2026-01-16 12:47:10.68	27.72	6.20	-40.4	-41.9	19.0	0.00e+00	49	28	0	116391936	52	7161
2026-01-16 12:47:11.69	27.82	6.26	-40.4	-41.9	18.7	0.00e+00	0	28	0	118489088	52	7165
2026-01-16 12:47:12.70	27.92	6.32	-40.3	-41.9	18.8	0.00e+00	90	28	0	120586240	52	7152
2026-01-16 12:47:13.71	28.01	6.38	-40.2	-41.8	19.0	0.00e+00	0	28	0	122683392	52	7014
2026-01-16 12:47:14.72	28.11	6.44	-40.1	-41.6	19.2	0.00e+00	57	28	0	123731968	52	6896
2026-01-16 12:47:15.73	28.21	6.50	-40.2	-41.7	19.1	0.00e+00	0	28	0	125829120	52	6966
2026-01-16 12:47:16.74	28.31	6.56	-39.7	-41.1	19.6	0.00e+00	0	28	0	127926272	52	6502
2026-01-16 12:47:17.75	28.41	6.62	-39.8	-41.2	19.6	0.00e+00	9	28	0	130023424	52	6577
2026-01-16 12:47:18.76	28.51	6.68	-39.7	-41.1	19.8	0.00e+00	0	28	0	132120576	52	6479
2026-01-16 12:47:19.77	28.61	6.74	-39.6	-41.0	20.0	0.00e+00	90	28	0	133169152	52	6398
2026-01-16 12:47:20.78	28.71	6.80	-39.4	-40.8	20.0	0.00e+00	0	28	0	135266304	52	6248
2026-01-16 12:47:21.79	28.81	6.86	-39.3	-40.6	20.2	0.00e+00	1	28	0	137363456	52	6158
2026-01-16 12:47:22.80	28.91	6.92	-39.5	-40.8	20.0	0.00e+00	0	28	0	139460608	52	6289
2026-01-16 12:47:23.81	29.01	6.98	-39.3	-40.7	20.2	0.00e+00	0	28	0	141557760	52	6175
2026-01-16 12:47:24.82	29.12	7.04	-39.3	-40.6	20.3	0.00e+00	0	28	0	142606336	52	6116
2026-01-16 12:47:25.83	29.22	7.10	-39.3	-40.6	20.2	0.00e+00	0	28	0	144703488	52	6154
2026-01-16 12:47:26.84	29.32	7.16	-39.2	-40.5	20.3	0.00e+00	92	28	0	146800640	52	6077
2026-01-16 12:47:27.85	29.42	7.22	-39.1	-40.5	20.3	0.00e+00	0	28	0	148897792	52	6034
2026-01-16 12:47:28.86	29.53	7.28	-39.2	-40.4	20.4	0.00e+00	92	28	0	150994944	52	6031
2026-01-16 12:47:29.87	29.63	7.34	-39.0	-40.3	20.5	0.00e+00	0	28	0	152043520	52	5917
2026-01-16 12:47:30.88	29.74	7.40	-38.9	-40.1	20.6	0.00e+00	0	28	0	154140672	52	5794
2026-01-16 12:47:31.89	29.84	7.46	-39.0	-40.3	20.6	0.00e+00	0	28	0	156237824	52	5945
2026-01-16 12:47:32.90	29.95	7.52	-39.0	-40.3	20.5	0.00e+00	0	28	0	158334976	52	5898
2026-01-16 12:47:33.91	30.05	7.58	-38.8	-40.0	20.8	0.00e+00	40	28	0	160432128	52	5721
2026-01-16 12:47:34.92	30.16	7.65	-38.8	-40.0	20.7	0.00e+00	0	28	0	161480704	50	6425
2026-01-16 12:47:35.93	30.27	7.71	-38.6	-39.8	20.9	0.00e+00	63	28	0	163577856	50	6287
2026-01-16 12:47:36.94	30.37	7.77	-38.6	-39.8	21.0	0.00e+00	0	28	0	165675008	50	6267
2026-01-16 12:47:37.95	30.48	7.83	-38.5	-39.7	21.1	0.00e+00	0	28	0	167772160	50	6179
2026-01-16 12:47:38.96	30.59	7.89	-38.4	-39.6	21.3	0.00e+00	0	28	0	169869312	50	6108
2026-01-16 12:47:39.97	30.70	7.95	-38.3	-39.5	21.3	0.00e+00	0	28	0	170917888	50	6051
2026-01-16 12:47:40.98	30.81	8.01	-38.6	-39.8	21.1	0.00e+00	49	28	0	173015040	50	6284
2026-01-16 12:47:41.99	30.92	8.08	-38.4	-39.6	21.2	0.00e+00	0	28	0	175112192	50	6104
2026-01-16 12:47:43.00	31.03	8.14	-38.4	-39.6	21.2	0.00e+00	29	28	0	177209344	50	6120
2026-01-16 12:47:44.01	31.14	8.20	-38.5	-39.7	21.2	0.00e+00	0	28	0	179306496	50	6186
2026-01-16 12:47:45.02	31.25	8.26	-38.6	-39.8	21.1	0.00e+00	0	28	0	181403648	50	6255
2026-01-16 12:47:46.03	31.36	8.32	-38.5	-39.7	21.1	0.00e+00	0	28	0	182452224	50	6196
2026-01-16 12:47:47.04	31.47	8.38	-38.7	-39.9	20.9	0.00e+00	0	28	0	184549376	50	6318
2026-01-16 12:47:48.05	31.58	8.45	-38.5	-39.6	21.1	0.00e+00	22	28	0	186646528	50	6165
2026-01-16 12:47:49.06	31.70	8.51	-38.7	-39.9	20.8	0.00e+00	0	28	0	188743680	50	6370
2026-01-16 12:47:50.07	31.81	8.57	-38.6	-39.8	21.1	0.00e+00	20	28	0	190840832	50	6261
2026-01-16 12:47:51.08	31.92	8.63	-38.7	-39.9	20.6	0.00e+00	0	28	0	191889408	50	6370
2026-01-16 12:47:52.09	32.04	8.69	-38.5	-39.7	20.6	0.00e+00	0	28	0	193986560	50	6219
2026-01-16 12:47:53.10	32.15	8.76	-38.8	-40.0	20.7	0.00e+00	0	28	0	196083712	50	6419
2026-01-16 12:47:54.11	32.26	8.82	-38.7	-39.8	20.8	0.00e+00	33	28	0	198180864	50	6315
2026-01-16 12:47:55.11	32.38	8.88	-38.8	-40.0	21.0	0.00e+00	48	28	0	200278016	50	6397
2026-01-16 12:47:56.12	32.49	8.94	-39.0	-40.2	20.8	0.00e+00	0	28	0	201326592	50	6555
2026-01-16 12:47:57.13	32.61	9.01	-38.6	-39.7	21.1	0.00e+00	45	28	0	203423744	50	6231
2026-01-16 12:47:58.15	32.73	9.07	-38.6	-39.7	21.1	0.00e+00	0	28	0	205520896	50	6234
2026-01-16 12:47:59.15	32.85	9.13	-38.6	-39.8	21.1	0.00e+00	51	28	0	207618048	50	6295
2026-01-16 12:48:00.16	32.96	9.19	-38.5	-39.6	21.3	0.00e+00	0	28	0	209715200	50	6157
2026-01-16 12:48:01.17	33.08	9.26	-38.3	-39.5	21.4	0.00e+00	0	28	0	210763776	50	6040
2026-01-16 12:48:02.18	33.20	9.32	-38.3	-39.4	21.4	0.00e+00	0	28	0	212860928	50	6033
2026-01-16 12:48:03.19	33.32	9.38	-38.0	-39.1	21.6	0.00e+00	0	28	0	214958080	50	5784
2026-01-16 12:48:04.20	33.44	9.44	-38.1	-39.2	21.6	0.00e+00	47	28	0	217055232	50	5865
2026-01-16 12:48:05.21	33.56	9.51	-38.0	-39.1	21.7	0.00e+00	0	28	0	219152384	50	5802
2026-01-16 12:48:06.22	33.68	9.57	-37.9	-38.9	21.9	0.00e+00	90	28	0	220200960	50	5691
2026-01-16 12:48:07.23	33.80	9.63	-37.8	-38.9	21.9	0.00e+00	0	28	0	222298112	48	6328
2026-01-16 12:48:08.24	33.92	9.70	-37.7	-38.7	21.9	0.00e+00	0	28	0	224395264	48	6232
2026-01-16 12:48:09.25	34.04	9.76	-37.6	-38.6	22.1	0.00e+00	0	28	0	226492416	48	6151
2026-01-16 12:48:10.26	34.17	9.82	-37.8	-38.8	22.0	0.00e+00	0	28	0	228589568	48	6289
2026-01-16 12:48:11.27	34.29	9.89	-37.7	-38.8	22.0	0.00e+00	51	28	0	229638144	48	6255
2026-01-16 12:48:12.28	34.41	9.95	-37.7	-38.8	22.0	0.00e+00	0	28	0	231735296	48	6276
2026-01-16 12:48:13.29	34.54	10.01	-37.8	-38.8	21.9	0.00e+00	76	28	0	233832448	48	6295
2026-01-16 12:48:14.30	34.66	10.08	-38.2	-39.3	21.6	0.00e+00	0	28	0	235929600	48	6664
2026-01-16 12:48:15.31	34.79	10.14	-37.9	-39.0	21.8	0.00e+00	0	28	0	238026752	48	6419
2026-01-16 12:48:16.32	34.91	10.20	-38.0	-39.1	21.8	0.00e+00	0	28	0	239075328	48	6503
2026-01-16 12:48:17.33	35.04	10.27	-37.9	-38.9	22.0	0.00e+00	0	28	0	241172480	48	6374
2026-01-16 12:48:18.34	35.17	10.33	-37.9	-38.9	21.9	0.00e+00	23	28	0	243269632	48	6377
2026-01-16 12:48:19.35	35.29	10.39	-37.8	-38.9	22.1	0.00e+00	0	28	0	245366784	48	6320
2026-01-16 12:48:20.36	35.42	10.46	-37.8	-38.9	22.0	0.00e+00	92	28	0	247463936	48	6319
2026-01-16 12:48:21.37	35.55	10.52	-37.9	-38.9	22.0	0.00e+00	0	28	0	249561088	48	6388
2026-01-16 12:48:22.38	35.68	10.59	-37.9	-39.0	21.9	0.00e+00	0	28	0	250609664	48	6399
2026-01-16 12:48:23.39	35.81	10.65	-37.8	-38.8	21.9	0.00e+00	0	28	0	252706816	48	6313
2026-01-16 12:48:24.40	35.94	10.71	-37.7	-38.8	22.0	0.00e+00	0	29	0	254803968	48	6283
2026-01-16 12:48:25.41	36.07	10.78	-37.6	-38.6	22.1	0.00e+00	44	28	0	256901120	48	6167
2026-01-16 12:48:26.42	36.20	10.84	-37.7	-38.7	22.1	0.00e+00	0	28	0	258998272	48	6232
2026-01-16 12:48:27.43	36.33	10.90	-37.5	-38.6	22.2	0.00e+00	92	28	0	260046848	48	6106
2026-01-16 12:48:28.44	36.46	10.97	-37.7	-38.7	22.1	0.00e+00	0	28	0	262144000	48	6236
2026-01-16 12:48:29.45	36.60	11.03	-37.7	-38.7	22.1	0.00e+00	18	29	0	264241152	48	6244
2026-01-16 12:48:30.45	36.73	11.10	-37.8	-38.8	22.1	0.00e+00	0	28	0	266338304	48	6303
2026-01-16 12:48:31.46	36.86	11.16	-38.1	-39.2	21.8	0.00e+00	0	28	0	268435456	48	6554
2026-01-16 12:48:32.47	37.00	11.22	-38.1	-39.3	21.7	0.00e+00	0	28	0	269484032	48	6620
2026-01-16 12:48:33.48	37.13	11.29	-37.9	-39.0	22.0	0.00e+00	0	28	0	271581184	48	6409
2026-01-16 12:48:34.49	37.27	11.35	-37.9	-39.0	21.9	0.00e+00	67	29	0	273678336	48	6399
2026-01-16 12:48:35.50	37.40	11.42	-38.0	-39.0	21.8	0.00e+00	0	29	0	275775488	48	6447
2026-01-16 12:48:36.52	37.54	11.48	-38.0	-39.1	21.8	0.00e+00	92	29	0	277872640	48	6493
2026-01-16 12:48:37.53	37.68	11.55	-37.9	-38.9	22.0	0.00e+00	0	29	0	278921216	48	6373
2026-01-16 12:48:38.53	37.82	11.61	-38.1	-39.2	21.8	0.00e+00	0	29	0	281018368	48	6540
2026-01-16 12:48:39.55	37.96	11.67	-38.1	-39.2	21.7	0.00e+00	0	29	0	283115520	48	6558
2026-01-16 12:48:40.56	38.10	11.74	-37.8	-38.9	22.1	0.00e+00	0	28	0	285212672	48	6318
2026-01-16 12:48:41.57	38.24	11.80	-38.1	-39.2	21.9	0.00e+00	48	28	0	287309824	48	6582
2026-01-16 12:48:42.58	38.38	11.87	-37.8	-38.8	22.0	0.00e+00	0	29	0	288358400	48	6283
2026-01-16 12:48:43.59	38.52	11.93	-37.8	-38.9	22.0	0.00e+00	92	29	0	290455552	48	6339
2026-01-16 12:48:44.60	38.66	12.00	-37.9	-38.9	22.0	0.00e+00	0	29	0	292552704	48	6363
2026-01-16 12:48:45.61	38.80	12.06	-37.8	-38.9	21.9	0.00e+00	0	29	0	294649856	48	6332
2026-01-16 12:48:46.62	38.94	12.12	-38.0	-39.0	21.8	0.00e+00	0	29	0	296747008	48	6456
2026-01-16 12:48:47.63	39.09	12.19	-37.7	-38.8	21.9	0.00e+00	0	29	0	297795584	48	6271
2026-01-16 12:48:48.64	39.23	12.25	-37.9	-39.0	21.3	0.00e+00	54	29	0	299892736	48	6427
2026-01-16 12:48:49.65	39.37	12.32	-38.0	-39.1	21.7	0.00e+00	0	29	0	301989888	48	6486
2026-01-16 12:48:50.66	39.52	12.38	-37.9	-39.0	22.0	0.00e+00	90	29	0	304087040	48	6416
2026-01-16 12:48:51.67	39.67	12.45	-37.8	-38.9	22.1	0.00e+00	0	29	0	306184192	48	6325
2026-01-16 12:48:52.68	39.81	12.51	-37.7	-38.7	22.2	0.00e+00	0	29	0	307232768	48	6221
2026-01-16 12:48:53.69	39.96	12.58	-37.5	-38.5	22.4	0.00e+00	0	29	0	309329920	48	6061
2026-01-16 12:48:54.70	40.11	12.64	-37.3	-38.3	22.5	0.00e+00	0	29	0	311427072	48	5926
2026-01-16 12:48:55.71	40.25	12.70	-37.3	-38.2	22.7	0.00e+00	48	29	0	313524224	48	5889
2026-01-16 12:48:56.72	40.40	12.77	-37.1	-38.0	22.7	0.00e+00	0	29	0	315621376	48	5755
2026-01-16 12:48:57.73	40.55	12.83	-37.1	-38.0	22.7	0.00e+00	92	29	0	317718528	48	5754
2026-01-16 12:48:58.74	40.70	12.90	-37.2	-38.2	22.7	0.00e+00	0	29	0	318767104	48	5852
2026-01-16 12:48:59.75	40.85	12.96	-37.1	-38.1	22.8	0.00e+00	0	29	0	320864256	48	5764
2026-01-16 12:49:00.75	41.00	13.03	-37.2	-38.2	22.6	0.00e+00	0	29	0	322961408	48	5837
2026-01-16 12:49:01.76	41.16	13.09	-37.2	-38.2	22.6	0.00e+00	0	29	0	325058560	48	5866
2026-01-16 12:49:02.78	41.31	13.16	-37.3	-38.3	22.6	0.00e+00	49	29	0	327155712	48	5919
2026-01-16 12:49:03.79	41.46	13.22	-36.9	-37.9	22.9	0.00e+00	0	29	0	328204288	48	5644
2026-01-16 12:49:04.79	41.62	13.28	-37.1	-38.1	22.7	0.00e+00	90	29	0	330301440	48	5811
2026-01-16 12:49:05.80	41.77	13.35	-37.2	-38.1	22.8	0.00e+00	0	29	0	332398592	48	5823
2026-01-16 12:49:06.81	41.93	13.41	-37.2	-38.2	22.6	0.00e+00	0	29	0	334495744	48	5866
2026-01-16 12:49:07.83	42.08	13.48	-37.3	-38.3	22.6	0.00e+00	0	29	0	336592896	48	5903
2026-01-16 12:49:08.84	42.24	13.54	-37.4	-38.4	22.7	0.00e+00	0	29	0	337641472	48	6008
2026-01-16 12:49:09.85	42.40	13.61	-37.2	-38.2	22.7	0.00e+00	0	29	0	339738624	48	5838
2026-01-16 12:49:10.86	42.55	13.67	-37.5	-38.5	22.5	0.00e+00	0	29	0	341835776	48	6038
2026-01-16 12:49:11.87	42.71	13.74	-37.4	-38.4	22.6	0.00e+00	49	29	0	343932928	48	5976
2026-01-16 12:49:12.88	42.87	13.80	-37.3	-38.2	22.7	0.00e+00	0	29	0	346030080	48	5890
2026-01-16 12:49:13.89	43.03	13.86	-37.4	-38.4	22.4	0.00e+00	92	29	0	347078656	48	5985
2026-01-16 12:49:14.90	43.19	13.93	-37.2	-38.1	22.8	0.00e+00	0	29	0	349175808	48	5828
2026-01-16 12:49:15.91	43.35	13.99	-37.4	-38.4	22.6	0.00e+00	0	29	0	351272960	48	5991
2026-01-16 12:49:16.92	43.52	14.06	-37.5	-38.5	22.6	0.00e+00	17	29	0	353370112	48	6091
2026-01-16 12:49:17.93	43.68	14.12	-37.5	-38.6	22.4	0.00e+00	0	29	0	355467264	48	6104
2026-01-16 12:49:18.94	43.84	14.18	-37.6	-38.6	22.3	0.00e+00	92	29	0	357564416	48	6151
2026-01-16 12:49:19.95	44.01	14.25	-37.8	-38.8	22.3	0.00e+00	0	29	0	358612992	48	6300
2026-01-16 12:49:20.96	44.17	14.31	-37.9	-39.0	22.1	0.00e+00	92	29	0	360710144	48	6427
2026-01-16 12:49:21.97	44.34	14.38	-37.8	-38.8	22.2	0.00e+00	0	29	0	362807296	48	6297
2026-01-16 12:49:22.98	44.50	14.44	-38.2	-39.2	22.0	0.00e+00	0	29	0	364904448	48	6612
2026-01-16 12:49:23.99	44.67	14.50	-37.7	-38.7	22.5	0.00e+00	0	29	0	367001600	48	6225
2026-01-16 12:49:25.00	44.84	14.57	-37.5	-38.5	22.5	0.00e+00	0	29	0	368050176	48	6075
2026-01-16 12:49:26.01	45.00	14.63	-37.3	-38.3	22.7	0.00e+00	30	29	0	370147328	48	5905
2026-01-16 12:49:27.02	45.17	14.69	-37.1	-38.0	22.9	0.00e+00	0	29	0	372244480	48	5749
2026-01-16 12:49:28.03	45.34	14.76	-37.2	-38.2	22.8	0.00e+00	63	29	0	374341632	48	5836
2026-01-16 12:49:29.04	45.51	14.82	-37.0	-37.9	22.9	0.00e+00	0	29	0	376438784	48	5677
2026-01-16 12:49:30.05	45.68	14.89	-37.0	-38.0	22.8	0.00e+00	0	29	0	377487360	48	5720
2026-01-16 12:49:31.06	45.86	14.95	-37.1	-38.0	22.7	0.00e+00	0	29	0	379584512	48	5746
2026-01-16 12:49:32.06	46.03	15.01	-37.3	-38.3	22.6	0.00e+00	0	29	0	381681664	48	5936
2026-01-16 12:49:33.07	46.20	15.07	-37.6	-38.6	22.6	0.00e+00	16	29	0	383778816	48	6134
2026-01-16 12:49:34.09	46.37	15.14	-37.4	-38.4	22.6	0.00e+00	0	29	0	385875968	48	6030
2026-01-16 12:49:35.10	46.55	15.20	-37.6	-38.6	22.5	0.00e+00	83	29	0	386924544	48	6140
2026-01-16 12:49:36.11	46.72	15.26	-37.1	-38.0	22.9	0.00e+00	0	29	0	389021696	48	5748
2026-01-16 12:49:37.12	46.90	15.33	-37.0	-38.0	23.0	0.00e+00	33	29	0	391118848	48	5714
2026-01-16 12:49:38.13	47.08	15.39	-36.8	-37.8	23.1	0.00e+00	0	29	0	393216000	48	5587
2026-01-16 12:49:39.13	47.25	15.45	-36.8	-37.8	23.1	0.00e+00	0	29	0	395313152	48	5570
2026-01-16 12:49:40.14	47.43	15.51	-36.8	-37.7	23.2	0.00e+00	50	29	0	396361728	48	5533
2026-01-16 12:49:41.15	47.61	15.58	-36.8	-37.7	23.2	0.00e+00	0	29	0	398458880	46	6200
2026-01-16 12:49:42.16	47.79	15.64	-36.9	-37.8	23.1	0.00e+00	91	29	0	400556032	46	6314
2026-01-16 12:49:43.17	47.97	15.70	-36.7	-37.6	23.3	0.00e+00	0	29	0	402653184	46	6152
2026-01-16 12:49:44.18	48.15	15.76	-36.8	-37.8	23.2	0.00e+00	92	29	0	404750336	46	6257
2026-01-16 12:49:45.19	48.33	15.83	-36.7	-37.6	23.3	0.00e+00	0	29	0	405798912	46	6172
2026-01-16 12:49:46.20	48.51	15.89	-36.8	-37.7	23.2	0.00e+00	0	29	0	407896064	46	6228
2026-01-16 12:49:47.21	48.70	15.95	-37.0	-38.0	23.0	0.00e+00	52	29	0	409993216	46	6393
2026-01-16 12:49:48.22	48.88	16.01	-36.7	-37.7	22.9	0.00e+00	0	29	0	412090368	46	6174
2026-01-16 12:49:49.24	49.07	16.07	-36.7	-37.7	23.2	0.00e+00	50	29	0	414187520	46	6181
2026-01-16 12:49:50.25	49.25	16.14	-36.9	-37.9	23.0	0.00e+00	0	29	0	415236096	46	6332
2026-01-16 12:49:51.26	49.44	16.20	-37.1	-38.0	23.0	0.00e+00	82	29	0	417333248	46	6459
2026-01-16 12:49:52.26	49.63	16.26	-37.1	-38.1	23.0	0.00e+00	0	29	0	419430400	46	6513
2026-01-16 12:49:53.28	49.81	16.32	-37.0	-38.0	23.0	0.00e+00	0	29	0	421527552	46	6431
2026-01-16 12:49:54.28	50.00	16.38	-37.0	-38.0	23.0	0.00e+00	0	29	0	423624704	46	6391
2026-01-16 12:49:55.29	50.19	16.44	-37.0	-38.0	23.1	0.00e+00	0	29	0	424673280	46	6424
2026-01-16 12:49:56.30	50.38	16.50	-36.9	-37.9	23.0	0.00e+00	48	29	0	426770432	46	6320
2026-01-16 12:49:57.31	50.57	16.56	-37.0	-37.9	23.0	0.00e+00	0	29	0	428867584	46	6359
2026-01-16 12:49:58.32	50.76	16.62	-37.0	-37.9	23.2	0.00e+00	92	29	0	430964736	46	6353
2026-01-16 12:49:59.33	50.95	16.68	-37.0	-37.9	23.1	0.00e+00	0	29	0	433061888	46	6386
2026-01-16 12:50:00.34	51.15	16.74	-37.3	-38.3	23.1	0.00e+00	0	29	0	435159040	46	6622
2026-01-16 12:50:01.35	51.34	16.80	-36.9	-37.9	23.0	0.00e+00	0	29	0	436207616	46	6320
2026-01-16 12:50:02.36	51.54	16.86	-37.3	-38.2	22.9	0.00e+00	0	29	0	438304768	46	6598
2026-01-16 12:50:03.37	51.73	16.92	-38.0	-39.0	22.7	0.00e+00	37	29	0	440401920	48	6448
2026-01-16 12:50:04.38	51.93	16.98	-37.6	-38.6	22.6	0.00e+00	0	29	0	442499072	48	6113
2026-01-16 12:50:05.39	52.12	17.04	-37.7	-38.7	22.6	0.00e+00	92	29	0	444596224	48	6194
2026-01-16 12:50:06.40	52.32	17.10	-37.5	-38.5	22.7	0.00e+00	0	29	0	445644800	48	6086
2026-01-16 12:50:07.42	52.52	17.16	-37.5	-38.5	22.7	0.00e+00	0	29	0	447741952	48	6077
2026-01-16 12:50:08.43	52.72	17.22	-37.2	-38.2	22.9	0.00e+00	0	29	0	449839104	48	5860
2026-01-16 12:50:09.44	52.92	17.28	-37.4	-38.4	22.9	0.00e+00	0	29	0	451936256	48	5986
2026-01-16 12:50:10.45	53.12	17.34	-37.6	-38.6	22.8	0.00e+00	46	29	0	454033408	48	6153
2026-01-16 12:50:11.46	53.32	17.39	-37.6	-38.6	22.8	0.00e+00	0	29	0	455081984	48	6147
2026-01-16 12:50:12.47	53.52	17.45	-37.5	-38.5	22.6	0.00e+00	74	29	0	457179136	48	6048
2026-01-16 12:50:13.48	53.73	17.51	-37.9	-39.0	22.3	0.00e+00	0	29	0	459276288	48	6408
2026-01-16 12:50:14.49	53.93	17.57	-38.2	-39.3	22.1	0.00e+00	0	29	0	461373440	48	6623
2026-01-16 12:50:15.50	54.13	17.62	-38.3	-39.4	22.0	0.00e+00	0	29	0	463470592	48	6728
2026-01-16 12:50:16.51	54.34	17.68	-38.4	-39.5	21.9	0.00e+00	0	29	0	464519168	48	6804
2026-01-16 12:50:17.52	54.54	17.74	-38.2	-39.3	21.9	0.00e+00	0	29	0	466616320	50	5940
2026-01-16 12:50:18.53	54.75	17.80	-38.4	-39.4	22.0	0.00e+00	0	29	0	468713472	50	6019
2026-01-16 12:50:19.54	54.96	17.85	-38.5	-39.5	21.9	0.00e+00	91	29	0	470810624	50	6088
2026-01-16 12:50:20.55	55.17	17.91	-38.2	-39.3	22.1	0.00e+00	0	29	0	472907776	50	5931
2026-01-16 12:50:21.56	55.38	17.96	-38.4	-39.4	22.0	0.00e+00	0	29	0	473956352	50	6008
2026-01-16 12:50:22.57	55.59	18.02	-38.6	-39.7	21.6	0.00e+00	0	29	0	476053504	50	6217
2026-01-16 12:50:23.58	55.80	18.08	-38.7	-39.8	21.4	0.00e+00	0	29	0	478150656	50	6287
2026-01-16 12:50:24.59	56.01	18.13	-38.5	-39.6	21.8	0.00e+00	0	29	0	480247808	50	6121
2026-01-16 12:50:25.60	56.22	18.19	-38.6	-39.7	21.6	0.00e+00	0	29	0	482344960	50	6245
2026-01-16 12:50:26.61	56.43	18.24	-38.8	-40.0	21.6	0.00e+00	62	29	0	483393536	50	6419
2026-01-16 12:50:27.62	56.64	18.30	-39.0	-40.1	21.4	0.00e+00	0	29	0	485490688	50	6528
2026-01-16 12:50:28.63	56.86	18.35	-39.3	-40.5	21.1	0.00e+00	92	29	0	487587840	50	6835
2026-01-16 12:50:29.64	57.07	18.40	-39.1	-40.3	21.2	0.00e+00	0	29	0	489684992	52	5946
2026-01-16 12:50:30.65	57.29	18.46	-39.3	-40.5	21.1	0.00e+00	0	29	0	491782144	52	6047
2026-01-16 12:50:31.66	57.51	18.51	-39.3	-40.5	21.1	0.00e+00	0	29	0	492830720	52	6088
2026-01-16 12:50:32.67	57.72	18.56	-39.6	-40.8	21.1	0.00e+00	0	29	0	494927872	52	6312
2026-01-16 12:50:33.68	57.94	18.62	-39.2	-40.4	20.7	0.00e+00	92	29	0	497025024	52	6014
2026-01-16 12:50:34.69	58.16	18.67	-39.5	-40.8	20.7	0.00e+00	0	29	0	499122176	52	6264
2026-01-16 12:50:35.70	58.38	18.72	-39.1	-40.3	21.2	0.00e+00	68	29	0	501219328	52	5932
2026-01-16 12:50:36.71	58.60	18.77	-39.5	-40.7	20.9	0.00e+00	0	29	0	503316480	52	6184
2026-01-16 12:50:37.72	58.82	18.83	-39.3	-40.5	21.2	0.00e+00	0	29	0	504365056	52	6044
2026-01-16 12:50:38.73	59.04	18.88	-39.5	-40.7	20.9	0.00e+00	0	29	0	506462208	52	6195
2026-01-16 12:50:39.74	59.26	18.93	-39.4	-40.6	21.0	0.00e+00	0	29	0	508559360	52	6154
2026-01-16 12:50:40.75	59.49	18.98	-39.0	-40.2	21.4	0.00e+00	77	29	0	510656512	52	5841
2026-01-16 12:50:41.76	59.71	19.03	-39.0	-40.1	21.4	0.00e+00	0	29	0	512753664	52	5800
2026-01-16 12:50:42.77	59.93	19.08	-38.7	-39.8	21.6	0.00e+00	92	29	0	513802240	50	6314
2026-01-16 12:50:43.78	60.16	19.13	-39.3	-40.4	21.6	0.00e+00	0	29	0	515899392	50	6713
2026-01-16 12:50:44.79	60.38	19.18	-38.9	-40.1	21.5	0.00e+00	0	29	0	517996544	50	6468
2026-01-16 12:50:45.80	60.61	19.23	-39.1	-40.2	21.5	0.00e+00	0	29	0	520093696	50	6574
2026-01-16 12:50:46.80	60.84	19.28	-38.9	-40.0	21.5	0.00e+00	0	29	0	522190848	50	6456
2026-01-16 12:50:47.81	61.06	19.33	-38.9	-40.1	21.5	0.00e+00	7	29	0	523239424	50	6466
2026-01-16 12:50:48.82	61.29	19.37	-38.4	-39.4	22.1	0.00e+00	0	29	0	525336576	50	6011
2026-01-16 12:50:49.83	61.52	19.42	-38.3	-39.4	22.2	0.00e+00	92	29	0	527433728	50	6011
2026-01-16 12:50:50.85	61.75	19.47	-37.8	-38.9	22.0	0.00e+00	0	29	0	529530880	50	5643
2026-01-16 12:50:51.85	61.98	19.52	-37.7	-38.7	22.6	0.00e+00	0	29	0	531628032	48	6205
2026-01-16 12:50:52.86	62.21	19.56	-37.7	-38.8	22.5	0.00e+00	0	29	0	532676608	48	6275
2026-01-16 12:50:53.87	62.45	19.61	-38.1	-39.2	22.1	0.00e+00	0	29	0	534773760	48	6614
2026-01-16 12:50:54.88	62.68	19.65	-38.0	-39.2	22.2	0.00e+00	12	29	0	536870912	48	6552
2026-01-16 12:50:55.89	62.91	19.70	-38.0	-39.1	22.1	0.00e+00	0	29	0	538968064	48	6531
2026-01-16 12:50:56.90	63.15	19.75	-37.9	-39.0	22.4	0.00e+00	64	29	0	541065216	48	6391
2026-01-16 12:50:57.91	63.38	19.79	-37.8	-38.8	22.5	0.00e+00	0	29	0	542113792	48	6265
2026-01-16 12:50:58.92	63.62	19.84	-37.7	-38.7	22.5	0.00e+00	0	29	0	544210944	48	6179
2026-01-16 12:50:59.93	63.85	19.88	-37.9	-38.9	22.6	0.00e+00	0	29	0	546308096	48	6343
2026-01-16 12:51:00.94	64.09	19.92	-37.7	-38.7	22.6	0.00e+00	0	29	0	548405248	48	6194
2026-01-16 12:51:01.95	64.33	19.97	-38.3	-39.4	22.1	0.00e+00	4	29	0	550502400	48	6696
2026-01-16 12:51:02.96	64.57	20.01	-37.9	-38.9	22.5	0.00e+00	0	29	0	551550976	48	6348
2026-01-16 12:51:03.97	64.81	20.05	-37.7	-38.7	22.6	0.00e+00	90	29	0	553648128	48	6221
2026-01-16 12:51:04.98	65.05	20.09	-37.4	-38.4	22.9	0.00e+00	0	29	0	555745280	48	5992
2026-01-16 12:51:05.99	65.29	20.13	-36.9	-37.9	23.3	0.00e+00	0	29	0	557842432	48	5641
2026-01-16 12:51:07.00	65.53	20.18	-36.9	-37.9	23.1	0.00e+00	0	29	0	559939584	46	6325
2026-01-16 12:51:08.01	65.77	20.22	-36.8	-37.7	23.6	0.00e+00	0	29	0	560988160	46	6194
2026-01-16 12:51:09.02	66.01	20.26	-37.1	-38.0	23.5	0.00e+00	0	29	0	563085312	46	6420
2026-01-16 12:51:10.03	66.25	20.30	-37.1	-38.0	23.3	0.00e+00	0	29	0	565182464	46	6460
2026-01-16 12:51:11.04	66.50	20.34	-37.0	-38.0	23.2	0.00e+00	29	29	0	567279616	46	6393
2026-01-16 12:51:12.05	66.74	20.37	-37.2	-38.1	23.3	0.00e+00	0	29	0	569376768	46	6533
2026-01-16 12:51:13.06	66.99	20.41	-37.6	-38.6	23.4	0.00e+00	43	29	0	571473920	46	6864
2026-01-16 12:51:14.07	67.23	20.45	-37.3	-38.2	23.4	0.00e+00	0	29	0	572522496	46	6579
2026-01-16 12:51:15.08	67.48	20.49	-37.3	-38.2	23.3	0.00e+00	0	29	0	574619648	46	6580
2026-01-16 12:51:16.09	67.72	20.53	-37.7	-38.6	23.1	0.00e+00	0	29	0	576716800	46	6901
2026-01-16 12:51:17.10	67.97	20.56	-37.7	-38.7	22.8	0.00e+00	0	29	0	578813952	48	6189
2026-01-16 12:51:18.11	68.22	20.60	-37.8	-38.8	22.7	0.00e+00	53	30	0	580911104	48	6285
2026-01-16 12:51:19.12	68.47	20.63	-37.8	-38.8	22.7	0.00e+00	0	30	0	581959680	48	6305
2026-01-16 12:51:20.13	68.71	20.67	-37.8	-38.8	22.7	0.00e+00	95	30	0	584056832	48	6290
2026-01-16 12:51:21.14	68.96	20.70	-37.1	-38.0	23.2	0.00e+00	0	30	0	586153984	48	5759
2026-01-16 12:51:22.15	69.21	20.74	-37.1	-38.1	23.1	0.00e+00	0	30	0	588251136	48	5776
2026-01-16 12:51:23.16	69.46	20.77	-37.4	-38.3	23.1	0.00e+00	0	29	0	590348288	48	5959
2026-01-16 12:51:24.17	69.71	20.81	-37.4	-38.4	23.2	0.00e+00	0	29	0	591396864	48	5995
2026-01-16 12:51:25.18	69.97	20.84	-37.5	-38.4	23.0	0.00e+00	52	30	0	593494016	48	6029
2026-01-16 12:51:26.18	70.21	20.87	-37.0	-37.9	23.3	0.00e+00	0	30	0	595591168	48	5679
2026-01-16 12:51:27.20	70.47	20.90	-36.9	-37.8	23.5	0.00e+00	53	30	0	597688320	48	5606
2026-01-16 12:51:28.21	70.72	20.93	-36.7	-37.6	23.5	0.00e+00	0	30	0	599785472	46	6137
2026-01-16 12:51:29.21	70.97	20.96	-37.0	-37.9	23.4	0.00e+00	25	30	0	600834048	46	6330
2026-01-16 12:51:30.22	71.23	20.99	-36.8	-37.8	23.3	0.00e+00	0	30	0	602931200	46	6252
2026-01-16 12:51:31.23	71.48	21.02	-37.4	-38.4	22.8	0.00e+00	0	30	0	605028352	46	6737
2026-01-16 12:51:32.24	71.74	21.05	-37.7	-38.7	22.9	0.00e+00	53	30	0	607125504	48	6185
2026-01-16 12:51:33.26	71.99	21.08	-37.4	-38.3	22.8	0.00e+00	0	30	0	609222656	48	5948
2026-01-16 12:51:34.27	72.25	21.11	-37.0	-38.0	23.3	0.00e+00	92	30	0	610271232	48	5709
2026-01-16 12:51:35.28	72.51	21.14	-36.9	-37.8	23.3	0.00e+00	0	30	0	612368384	48	5588
2026-01-16 12:51:36.29	72.76	21.16	-36.8	-37.6	23.3	0.00e+00	18	30	0	614465536	46	6170
2026-01-16 12:51:37.30	73.02	21.19	-37.2	-38.1	23.1	0.00e+00	0	30	0	616562688	46	6507
2026-01-16 12:51:38.31	73.28	21.22	-37.6	-38.6	22.7	0.00e+00	0	30	0	618659840	46	6905
2026-01-16 12:51:39.32	73.54	21.24	-38.4	-39.4	22.3	0.00e+00	53	30	0	619708416	48	6725
2026-01-16 12:51:40.33	73.79	21.27	-38.0	-39.0	22.4	0.00e+00	0	29	0	621805568	48	6418
2026-01-16 12:51:41.34	74.05	21.29	-37.5	-38.5	22.7	0.00e+00	92	29	0	623902720	48	6035
2026-01-16 12:51:42.35	74.31	21.31	-37.3	-38.2	23.0	0.00e+00	0	30	0	625999872	48	5894
2026-01-16 12:51:43.36	74.57	21.34	-37.2	-38.1	23.2	0.00e+00	92	30	0	628097024	48	5809
2026-01-16 12:51:44.37	74.83	21.36	-37.2	-38.2	22.9	0.00e+00	0	30	0	629145600	48	5835
2026-01-16 12:51:45.38	75.09	21.38	-37.4	-38.4	22.9	0.00e+00	0	30	0	631242752	48	5987
2026-01-16 12:51:46.39	75.35	21.40	-37.4	-38.4	22.7	0.00e+00	48	30	0	633339904	48	6024
2026-01-16 12:51:47.40	75.61	21.42	-37.8	-38.8	22.5	0.00e+00	0	30	0	635437056	48	6293
2026-01-16 12:51:48.41	75.88	21.44	-37.7	-38.7	22.6	0.00e+00	44	30	0	637534208	48	6181
2026-01-16 12:51:49.42	76.14	21.46	-37.5	-38.5	22.7	0.00e+00	0	30	0	639631360	48	6086
2026-01-16 12:51:50.43	76.40	21.48	-37.0	-37.9	23.1	0.00e+00	92	29	0	640679936	48	5655
2026-01-16 12:51:51.44	76.66	21.50	-36.8	-37.7	23.2	0.00e+00	0	30	0	642777088	48	5562
2026-01-16 12:51:52.45	76.92	21.52	-36.9	-37.8	23.2	0.00e+00	0	30	0	644874240	48	5623
2026-01-16 12:51:53.46	77.19	21.54	-37.2	-38.2	22.9	0.00e+00	0	30	0	646971392	48	5858
2026-01-16 12:51:54.47	77.45	21.55	-37.3	-38.2	22.9	0.00e+00	0	30	0	649068544	48	5864
2026-01-16 12:51:55.48	77.71	21.57	-37.3	-38.3	22.7	0.00e+00	45	30	0	650117120	48	5929
2026-01-16 12:51:56.49	77.98	21.58	-37.1	-38.0	23.1	0.00e+00	0	30	0	652214272	48	5748
2026-01-16 12:51:57.50	78.24	21.60	-36.9	-37.9	23.0	0.00e+00	92	30	0	654311424	48	5640
2026-01-16 12:51:58.51	78.51	21.61	-37.2	-38.1	23.0	0.00e+00	0	30	0	656408576	48	5821
2026-01-16 12:51:59.52	78.77	21.63	-37.5	-38.5	22.6	0.00e+00	0	30	0	658505728	48	6097
2026-01-16 12:52:00.53	79.04	21.64	-37.9	-39.0	22.3	0.00e+00	0	30	0	659554304	48	6408
2026-01-16 12:52:01.54	79.30	21.65	-37.8	-38.8	22.4	0.00e+00	0	30	0	661651456	48	6303
2026-01-16 12:52:02.55	79.57	21.66	-38.0	-39.1	22.2	0.00e+00	27	30	0	663748608	48	6531
2026-01-16 12:52:03.56	79.83	21.67	-37.5	-38.5	22.6	0.00e+00	0	30	0	665845760	48	6088
2026-01-16 12:52:04.57	80.10	21.69	-37.3	-38.3	22.7	0.00e+00	63	30	0	667942912	48	5919
2026-01-16 12:52:05.58	80.36	21.70	-37.4	-38.4	22.7	0.00e+00	0	30	0	668991488	48	5972
2026-01-16 12:52:06.59	80.63	21.70	-37.5	-38.5	22.6	0.00e+00	0	30	0	671088640	48	6076
2026-01-16 12:52:07.60	80.89	21.71	-37.8	-38.8	22.3	0.00e+00	0	30	0	673185792	48	6312
2026-01-16 12:52:08.61	81.16	21.72	-38.4	-39.5	21.9	0.00e+00	0	30	0	675282944	48	6771
2026-01-16 12:52:09.61	81.42	21.73	-38.6	-39.7	21.8	0.00e+00	0	30	0	677380096	48	6944
2026-01-16 12:52:10.62	81.69	21.74	-38.5	-39.6	21.8	0.00e+00	0	30	0	678428672	48	6858
2026-01-16 12:52:11.63	81.96	21.74	-38.2	-39.3	21.9	0.00e+00	81	30	0	680525824	48	6622
2026-01-16 12:52:12.64	82.22	21.75	-38.2	-39.2	22.0	0.00e+00	0	30	0	682622976	48	6609
2026-01-16 12:52:13.65	82.49	21.75	-37.9	-39.0	22.2	0.00e+00	40	30	0	684720128	48	6415
2026-01-16 12:52:14.66	82.76	21.76	-37.6	-38.6	22.5	0.00e+00	0	30	0	686817280	48	6128
2026-01-16 12:52:15.67	83.03	21.76	-37.4	-38.4	22.7	0.00e+00	0	30	0	687865856	48	5972
2026-01-16 12:52:16.68	83.29	21.76	-37.3	-38.3	22.7	0.00e+00	0	30	0	689963008	48	5927
2026-01-16 12:52:17.69	83.56	21.77	-37.2	-38.2	22.8	0.00e+00	0	30	0	692060160	48	5844
2026-01-16 12:52:18.70	83.83	21.77	-37.1	-38.1	22.8	0.00e+00	92	30	0	694157312	48	5823
2026-01-16 12:52:19.70	84.09	21.77	-37.2	-38.2	22.8	0.00e+00	0	30	0	696254464	48	5840
2026-01-16 12:52:20.72	84.36	21.77	-37.3	-38.3	22.7	0.00e+00	67	30	0	697303040	48	5957
2026-01-16 12:52:21.73	84.63	21.77	-37.6	-38.7	22.4	0.00e+00	0	30	0	699400192	48	6175
2026-01-16 12:52:22.74	84.90	21.77	-37.6	-38.6	22.5	0.00e+00	0	30	0	701497344	48	6169
2026-01-16 12:52:23.75	85.16	21.77	-37.6	-38.6	22.5	0.00e+00	0	30	0	703594496	48	6120
2026-01-16 12:52:24.75	85.43	21.77	-37.3	-38.3	22.8	0.00e+00	0	30	0	705691648	48	5926
2026-01-16 12:52:25.77	85.70	21.77	-37.3	-38.3	22.6	0.00e+00	87	30	0	707788800	48	5904
2026-01-16 12:52:26.78	85.96	21.76	-37.3	-38.2	22.7	0.00e+00	0	30	0	708837376	48	5881
2026-01-16 12:52:27.79	86.23	21.76	-37.4	-38.3	22.7	0.00e+00	90	30	0	710934528	48	5956
2026-01-16 12:52:28.80	86.50	21.75	-37.3	-38.2	22.7	0.00e+00	0	30	0	713031680	48	5880
2026-01-16 12:52:29.81	86.76	21.75	-37.3	-38.3	22.5	0.00e+00	0	30	0	715128832	48	5934
2026-01-16 12:52:30.82	87.03	21.74	-37.1	-38.0	23.0	0.00e+00	0	30	0	717225984	48	5751
2026-01-16 12:52:31.83	87.30	21.74	-36.7	-37.6	23.3	0.00e+00	0	30	0	718274560	46	6128
2026-01-16 12:52:32.84	87.57	21.73	-36.5	-37.4	23.3	0.00e+00	78	30	0	720371712	46	6017
2026-01-16 12:52:33.85	87.83	21.72	-36.7	-37.6	23.3	0.00e+00	0	30	0	722468864	46	6115
2026-01-16 12:52:34.85	88.10	21.72	-36.8	-37.8	23.1	0.00e+00	92	30	0	724566016	46	6250
2026-01-16 12:52:35.86	88.36	21.71	-36.8	-37.7	23.1	0.00e+00	0	30	0	726663168	46	6199
2026-01-16 12:52:36.87	88.63	21.70	-36.9	-37.9	22.2	0.00e+00	0	30	0	727711744	46	6348
2026-01-16 12:52:37.89	88.90	21.69	-36.9	-37.8	22.9	0.00e+00	0	30	0	729808896	46	6302
2026-01-16 12:52:38.90	89.16	21.68	-37.0	-37.9	22.9	0.00e+00	0	30	0	731906048	46	6383
2026-01-16 12:52:39.91	89.43	21.67	-36.8	-37.7	23.1	0.00e+00	13	30	0	734003200	46	6235
2026-01-16 12:52:40.92	89.69	21.65	-36.6	-37.5	23.3	0.00e+00	0	30	0	736100352	46	6059
2026-01-16 12:52:41.93	89.96	21.64	-36.7	-37.6	23.1	0.00e+00	72	30	0	737148928	46	6167
2026-01-16 12:52:42.94	90.22	21.63	-36.8	-37.7	23.2	0.00e+00	0	30	0	739246080	46	6212
2026-01-16 12:52:43.95	90.49	21.61	-36.8	-37.8	23.1	0.00e+00	0	30	0	741343232	46	6272
2026-01-16 12:52:44.95	90.75	21.60	-37.0	-37.9	22.9	0.00e+00	0	30	0	743440384	46	6356
2026-01-16 12:52:45.96	91.02	21.59	-37.2	-38.2	22.7	0.00e+00	0	30	0	745537536	46	6571
2026-01-16 12:52:46.97	91.28	21.57	-37.2	-38.2	22.8	0.00e+00	50	30	0	746586112	46	6546
2026-01-16 12:52:47.98	91.54	21.55	-37.0	-38.0	22.9	0.00e+00	0	30	0	748683264	46	6425
2026-01-16 12:52:48.99	91.81	21.54	-37.0	-37.9	23.0	0.00e+00	92	30	0	750780416	46	6359
2026-01-16 12:52:50.00	92.07	21.52	-37.0	-37.9	23.0	0.00e+00	0	30	0	752877568	46	6366
2026-01-16 12:52:51.01	92.33	21.50	-37.1	-38.1	22.8	0.00e+00	44	30	0	754974720	46	6516
2026-01-16 12:52:52.02	92.60	21.49	-37.2	-38.1	22.7	0.00e+00	0	30	0	756023296	46	6534
2026-01-16 12:52:53.03	92.86	21.47	-37.5	-38.6	22.4	0.00e+00	0	30	0	758120448	46	6855
2026-01-16 12:52:54.04	93.12	21.45	-37.5	-38.5	22.4	0.00e+00	27	30	0	760217600	46	6803
2026-01-16 12:52:55.05	93.38	21.43	-37.3	-38.3	22.5	0.00e+00	0	30	0	762314752	46	6681
2026-01-16 12:52:56.06	93.64	21.41	-37.2	-38.2	22.8	0.00e+00	92	30	0	764411904	46	6603
2026-01-16 12:52:57.07	93.90	21.38	-36.8	-37.8	23.1	0.00e+00	0	30	0	765460480	46	6289
2026-01-16 12:52:58.08	94.17	21.36	-36.7	-37.7	23.0	0.00e+00	17	30	0	767557632	46	6213
2026-01-16 12:52:59.09	94.43	21.34	-36.6	-37.5	23.2	0.00e+00	0	30	0	769654784	46	6088
2026-01-16 12:53:00.10	94.69	21.32	-36.7	-37.6	23.2	0.00e+00	0	30	0	771751936	46	6153
2026-01-16 12:53:01.11	94.95	21.29	-36.7	-37.6	23.0	0.00e+00	0	30	0	773849088	46	6153
2026-01-16 12:53:02.12	95.21	21.27	-36.8	-37.8	23.1	0.00e+00	33	30	0	775946240	46	6262
2026-01-16 12:53:03.14	95.47	21.24	-36.8	-37.9	23.0	0.00e+00	92	30	0	776994816	46	6335
2026-01-16 12:53:04.15	95.72	21.22	-36.8	-37.9	23.0	0.00e+00	0	30	0	779091968	46	6329
2026-01-16 12:53:05.16	95.98	21.19	-36.5	-37.6	23.2	0.00e+00	67	30	0	781189120	46	6116
2026-01-16 12:53:06.17	96.24	21.17	-36.4	-37.4	23.2	0.00e+00	0	30	0	783286272	46	6016
2026-01-16 12:53:07.18	96.50	21.14	-36.4	-37.4	23.3	0.00e+00	0	30	0	785383424	46	6003
2026-01-16 12:53:08.19	96.75	21.11	-36.4	-37.3	23.3	0.00e+00	0	30	0	786432000	46	5962
2026-01-16 12:53:09.20	97.01	21.08	-36.4	-37.3	23.1	0.00e+00	0	30	0	788529152	46	5935
2026-01-16 12:53:10.21	97.27	21.06	-36.4	-37.3	23.5	0.00e+00	47	30	0	790626304	46	5939
2026-01-16 12:53:11.22	97.52	21.03	-36.7	-37.6	23.2	0.00e+00	0	30	0	792723456	46	6138
2026-01-16 12:53:12.23	97.78	21.00	-36.6	-37.6	23.3	0.00e+00	92	30	0	794820608	46	6112
2026-01-16 12:53:13.24	98.03	20.97	-36.3	-37.2	23.7	0.00e+00	0	30	0	795869184	46	5891
2026-01-16 12:53:14.25	98.29	20.94	-36.2	-37.1	23.7	0.00e+00	0	30	0	797966336	46	5786
2026-01-16 12:53:15.26	98.54	20.91	-36.1	-37.0	23.8	0.00e+00	0	30	0	800063488	46	5729
2026-01-16 12:53:16.27	98.79	20.87	-36.1	-37.1	23.7	0.00e+00	0	30	0	802160640	46	5769
2026-01-16 12:53:17.28	99.04	20.84	-36.4	-37.3	23.4	0.00e+00	50	30	0	804257792	46	5923
2026-01-16 12:53:18.29	99.30	20.81	-36.6	-37.5	23.3	0.00e+00	0	30	0	805306368	46	6072
2026-01-16 12:53:19.30	99.55	20.78	-36.7	-37.7	23.2	0.00e+00	53	30	0	807403520	46	6180
2026-01-16 12:53:20.31	99.80	20.74	-37.0	-38.0	22.7	0.00e+00	0	30	0	809500672	46	6405
2026-01-16 12:53:21.32	100.05	20.71	-37.0	-38.0	23.0	0.00e+00	0	30	0	811597824	46	6457
2026-01-16 12:53:22.32	100.30	20.67	-36.6	-37.6	23.2	0.00e+00	0	30	0	813694976	46	6147
2026-01-16 12:53:23.34	100.55	20.64	-36.3	-37.2	23.5	0.00e+00	0	30	0	815792128	46	5883
2026-01-16 12:53:24.35	100.80	20.60	-36.2	-37.2	23.6	0.00e+00	38	30	0	816840704	46	5839
2026-01-16 12:53:25.35	101.04	20.57	-36.0	-36.9	23.7	0.00e+00	0	30	0	818937856	46	5690
2026-01-16 12:53:26.36	101.29	20.53	-36.0	-36.9	23.8	0.00e+00	59	30	0	821035008	46	5639
2026-01-16 12:53:27.37	101.54	20.49	-35.9	-36.8	23.8	0.00e+00	0	30	0	823132160	46	5590
2026-01-16 12:53:28.38	101.78	20.46	-36.1	-37.0	23.6	0.00e+00	16	30	0	824180736	46	5713
2026-01-16 12:53:29.39	102.03	20.42	-35.9	-36.8	23.7	0.00e+00	0	30	0	826277888	46	5608
2026-01-16 12:53:30.40	102.28	20.38	-35.9	-36.8	23.7	0.00e+00	0	30	0	828375040	46	5605
2026-01-16 12:53:31.41	102.52	20.34	-35.9	-36.8	23.7	0.00e+00	0	30	0	830472192	46	5580
2026-01-16 12:53:32.42	102.76	20.30	-36.1	-37.0	23.6	0.00e+00	0	30	0	832569344	46	5737
2026-01-16 12:53:33.43	103.01	20.26	-36.2	-37.1	23.5	0.00e+00	44	30	0	833617920	46	5797
2026-01-16 12:53:34.44	103.25	20.22	-36.2	-37.1	23.5	0.00e+00	0	30	0	835715072	46	5819
2026-01-16 12:53:35.45	103.49	20.18	-36.4	-37.3	23.4	0.00e+00	36	30	0	837812224	46	5929
2026-01-16 12:53:36.46	103.73	20.14	-36.0	-36.9	23.8	0.00e+00	0	30	0	839909376	46	5638
2026-01-16 12:53:37.47	103.98	20.10	-36.1	-36.9	23.7	0.00e+00	0	30	0	842006528	46	5695
2026-01-16 12:53:38.48	104.22	20.05	-36.1	-37.0	23.7	0.00e+00	0	30	0	844103680	46	5698
2026-01-16 12:53:39.49	104.46	20.01	-36.1	-37.0	23.7	0.00e+00	0	30	0	845152256	46	5726
2026-01-16 12:53:40.50	104.69	19.97	-36.3	-37.3	23.4	0.00e+00	92	30	0	847249408	46	5913
2026-01-16 12:53:41.51	104.93	19.93	-36.4	-37.3	23.4	0.00e+00	0	30	0	849346560	46	5945
2026-01-16 12:53:42.52	105.17	19.88	-36.6	-37.6	23.3	0.00e+00	79	30	0	851443712	46	6119
2026-01-16 12:53:43.53	105.41	19.84	-36.8	-37.8	23.1	0.00e+00	0	30	0	853540864	46	6264
2026-01-16 12:53:44.54	105.64	19.79	-36.7	-37.7	23.2	0.00e+00	0	30	0	854589440	46	6194
2026-01-16 12:53:45.55	105.88	19.75	-36.5	-37.4	23.3	0.00e+00	0	30	0	856686592	46	6032
2026-01-16 12:53:46.56	106.11	19.70	-36.4	-37.4	23.4	0.00e+00	0	30	0	858783744	46	5977
2026-01-16 12:53:47.57	106.35	19.66	-36.3	-37.2	23.5	0.00e+00	45	30	0	860880896	46	5852
2026-01-16 12:53:48.57	106.58	19.61	-36.0	-36.9	23.8	0.00e+00	0	30	0	862978048	46	5641
2026-01-16 12:53:49.58	106.81	19.56	-36.1	-37.0	23.7	0.00e+00	92	30	0	864026624	46	5696
2026-01-16 12:53:50.59	107.05	19.52	-36.1	-37.0	23.7	0.00e+00	0	30	0	866123776	46	5702
2026-01-16 12:53:51.60	107.28	19.47	-36.2	-37.1	23.6	0.00e+00	0	30	0	868220928	46	5824
2026-01-16 12:53:52.61	107.51	19.42	-36.2	-37.1	23.4	0.00e+00	0	30	0	870318080	46	5828
2026-01-16 12:53:53.62	107.74	19.37	-36.5	-37.4	23.3	0.00e+00	0	30	0	872415232	46	6023
2026-01-16 12:53:54.63	107.97	19.33	-36.7	-37.6	23.2	0.00e+00	39	30	0	873463808	46	6130
2026-01-16 12:53:55.64	108.20	19.28	-37.2	-38.2	22.2	0.00e+00	0	30	0	875560960	46	6588
2026-01-16 12:53:56.65	108.42	19.23	-37.5	-38.6	22.3	0.00e+00	91	30	0	877658112	46	6879
2026-01-16 12:53:57.66	108.65	19.18	-37.9	-39.1	21.8	0.00e+00	0	30	0	879755264	48	6467
2026-01-16 12:53:58.67	108.88	19.13	-38.2	-39.4	21.5	0.00e+00	0	30	0	881852416	48	6733
2026-01-16 12:53:59.68	109.11	19.08	-37.9	-39.0	21.9	0.00e+00	0	30	0	882900992	48	6441
2026-01-16 12:54:00.69	109.33	19.03	-37.9	-39.0	22.0	0.00e+00	0	30	0	884998144	48	6419
2026-01-16 12:54:01.70	109.55	18.98	-37.4	-38.5	22.3	0.00e+00	10	30	0	887095296	48	6048
2026-01-16 12:54:02.71	109.78	18.93	-37.7	-38.7	22.2	0.00e+00	0	30	0	889192448	48	6220
2026-01-16 12:54:03.72	110.00	18.88	-37.6	-38.7	22.1	0.00e+00	90	30	0	891289600	48	6220
2026-01-16 12:54:04.73	110.22	18.82	-37.4	-38.5	22.4	0.00e+00	0	30	0	892338176	48	6086
2026-01-16 12:54:05.74	110.45	18.77	-37.7	-38.9	22.2	0.00e+00	62	30	0	894435328	48	6320
2026-01-16 12:54:06.74	110.66	18.72	-37.5	-38.6	22.4	0.00e+00	0	30	0	896532480	48	6129
2026-01-16 12:54:07.75	110.88	18.67	-37.4	-38.5	22.4	0.00e+00	0	30	0	898629632	48	6071
2026-01-16 12:54:08.77	111.11	18.61	-37.2	-38.3	22.4	0.00e+00	17	30	0	900726784	48	5943
2026-01-16 12:54:09.77	111.32	18.56	-37.1	-38.3	22.5	0.00e+00	0	30	0	901775360	48	5914
2026-01-16 12:54:10.79	111.54	18.51	-37.2	-38.4	22.6	0.00e+00	92	30	0	903872512	48	5987
2026-01-16 12:54:11.79	111.76	18.46	-37.2	-38.3	22.3	0.00e+00	0	30	0	905969664	48	5947
2026-01-16 12:54:12.80	111.97	18.40	-37.2	-38.3	22.6	0.00e+00	90	30	0	908066816	48	5905
2026-01-16 12:54:13.81	112.19	18.35	-37.0	-38.0	22.8	0.00e+00	0	30	0	910163968	48	5750
2026-01-16 12:54:14.82	112.40	18.29	-37.1	-38.1	22.8	0.00e+00	0	30	0	912261120	48	5787
2026-01-16 12:54:15.83	112.62	18.24	-37.2	-38.2	22.6	0.00e+00	0	30	0	913309696	48	5866
2026-01-16 12:54:16.84	112.83	18.18	-37.2	-38.2	22.7	0.00e+00	0	30	0	915406848	48	5895
2026-01-16 12:54:17.85	113.04	18.13	-37.6	-38.7	22.3	0.00e+00	92	30	0	917504000	48	6194
2026-01-16 12:54:18.86	113.26	18.07	-38.0	-39.1	22.0	0.00e+00	0	30	0	919601152	48	6526
2026-01-16 12:54:19.87	113.47	18.02	-38.4	-39.6	21.5	0.00e+00	56	30	0	921698304	48	6860
2026-01-16 12:54:20.88	113.68	17.96	-38.7	-39.9	21.3	0.00e+00	0	30	0	922746880	48	7140
2026-01-16 12:54:21.89	113.89	17.90	-38.9	-40.1	21.1	0.00e+00	0	30	0	924844032	50	6498
2026-01-16 12:54:22.90	114.10	17.85	-38.9	-40.2	21.1	0.00e+00	0	30	0	926941184	50	6561
2026-01-16 12:54:23.91	114.30	17.79	-38.8	-40.0	21.3	0.00e+00	0	30	0	929038336	50	6407
2026-01-16 12:54:24.92	114.51	17.73	-38.4	-39.5	21.7	0.00e+00	32	30	0	931135488	50	6103
2026-01-16 12:54:25.93	114.72	17.68	-38.0	-39.1	22.0	0.00e+00	0	30	0	932184064	50	5764
2026-01-16 12:54:26.94	114.92	17.62	-37.7	-38.8	22.1	0.00e+00	92	30	0	934281216	50	5584
2026-01-16 12:54:27.95	115.13	17.56	-37.4	-38.4	22.5	0.00e+00	0	30	0	936378368	48	5991
2026-01-16 12:54:28.96	115.33	17.50	-37.5	-38.5	22.3	0.00e+00	0	30	0	938475520	48	6064
2026-01-16 12:54:29.97	115.54	17.44	-37.8	-38.9	22.1	0.00e+00	0	30	0	940572672	48	6318
2026-01-16 12:54:30.98	115.74	17.39	-38.0	-39.1	21.9	0.00e+00	0	30	0	941621248	48	6487
2026-01-16 12:54:32.00	115.94	17.33	-38.2	-39.3	21.7	0.00e+00	9	30	0	943718400	48	6638
2026-01-16 12:54:33.01	116.15	17.27	-38.1	-39.2	21.8	0.00e+00	0	30	0	945815552	48	6596
2026-01-16 12:54:34.01	116.34	17.21	-38.0	-39.1	21.9	0.00e+00	62	30	0	947912704	48	6539
2026-01-16 12:54:35.02	116.54	17.15	-37.7	-38.8	22.1	0.00e+00	0	30	0	950009856	48	6317
2026-01-16 12:54:36.03	116.74	17.09	-37.4	-38.5	22.5	0.00e+00	0	30	0	952107008	48	6064
2026-01-16 12:54:37.05	116.94	17.03	-37.3	-38.3	22.5	0.00e+00	0	30	0	953155584	48	5954
2026-01-16 12:54:38.05	117.14	16.97	-37.6	-38.7	22.4	0.00e+00	0	30	0	955252736	48	6202
2026-01-16 12:54:39.06	117.34	16.91	-37.3	-38.4	22.5	0.00e+00	22	30	0	957349888	48	6008
2026-01-16 12:54:40.07	117.53	16.85	-37.4	-38.5	22.4	0.00e+00	0	30	0	959447040	48	6068
2026-01-16 12:54:41.08	117.73	16.79	-37.4	-38.4	22.5	0.00e+00	21	30	0	960495616	48	6025
2026-01-16 12:54:42.09	117.92	16.73	-37.5	-38.5	22.5	0.00e+00	33	30	0	962592768	48	6072
2026-01-16 12:54:43.10	118.11	16.67	-37.4	-38.5	22.5	0.00e+00	12	30	0	964689920	48	6073
2026-01-16 12:54:44.11	118.31	16.61	-37.2	-38.2	22.5	0.00e+00	0	30	0	966787072	48	5887
2026-01-16 12:54:45.12	118.50	16.55	-37.2	-38.3	22.6	0.00e+00	0	30	0	968884224	48	5898
2026-01-16 12:54:46.13	118.69	16.49	-37.3	-38.3	22.6	0.00e+00	0	30	0	969932800	48	5913
2026-01-16 12:54:47.14	118.88	16.43	-37.4	-38.4	22.5	0.00e+00	0	30	0	972029952	48	5997
2026-01-16 12:54:48.15	119.07	16.37	-37.7	-38.8	22.2	0.00e+00	92	30	0	974127104	48	6261
2026-01-16 12:54:49.16	119.26	16.30	-37.9	-39.0	22.0	0.00e+00	0	30	0	976224256	48	6456
2026-01-16 12:54:50.17	119.45	16.24	-38.1	-39.2	21.7	0.00e+00	92	30	0	978321408	48	6584
2026-01-16 12:54:51.18	119.64	16.18	-37.9	-39.0	22.0	0.00e+00	0	30	0	980418560	48	6430
2026-01-16 12:54:52.19	119.82	16.12	-37.8	-38.9	22.1	0.00e+00	0	30	0	981467136	48	6329
2026-01-16 12:54:53.20	120.01	16.06	-37.5	-38.6	22.2	0.00e+00	25	30	0	983564288	48	6116
2026-01-16 12:54:54.21	120.20	16.00	-37.2	-38.3	22.5	0.00e+00	0	30	0	985661440	48	5924
2026-01-16 12:54:55.22	120.38	15.93	-36.8	-37.8	22.8	0.00e+00	61	30	0	987758592	48	5614
2026-01-16 12:54:56.23	120.56	15.87	-36.7	-37.7	22.9	0.00e+00	0	30	0	989855744	46	6212
2026-01-16 12:54:57.24	120.75	15.81	-36.8	-37.8	22.8	0.00e+00	90	30	0	990904320	46	6277
2026-01-16 12:54:58.25	120.93	15.75	-36.9	-37.9	22.8	0.00e+00	0	30	0	993001472	46	6366
2026-01-16 12:54:59.26	121.11	15.68	-37.2	-38.2	22.6	0.00e+00	0	30	0	995098624	46	6582
2026-01-16 12:55:00.27	121.29	15.62	-37.6	-38.6	22.3	0.00e+00	0	30	0	997195776	46	6926
2026-01-16 12:55:01.28	121.47	15.56	-37.6	-38.8	22.2	0.00e+00	0	30	0	999292928	46	7023
2026-01-16 12:55:02.29	121.65	15.49	-37.5	-38.7	22.2	0.00e+00	41	30	0	1000341504	46	6955
2026-01-16 12:55:03.30	121.83	15.43	-37.5	-38.6	22.3	0.00e+00	0	30	0	1002438656	46	6919
2026-01-16 12:55:04.31	122.01	15.37	-37.4	-38.5	22.4	0.00e+00	92	30	0	1004535808	46	6794
2026-01-16 12:55:05.32	122.19	15.30	-37.5	-38.5	22.4	0.00e+00	0	30	0	1006632960	46	6847
2026-01-16 12:55:06.33	122.36	15.24	-37.4	-38.4	22.5	0.00e+00	0	30	0	1008730112	46	6721
2026-01-16 12:55:07.34	122.54	15.18	-37.5	-38.5	22.3	0.00e+00	0	30	0	1009778688	46	6834
2026-01-16 12:55:08.35	122.71	15.11	-37.9	-39.0	22.0	0.00e+00	0	30	0	1011875840	46	7186
2026-01-16 12:55:09.36	122.89	15.05	-38.0	-39.1	21.9	0.00e+00	48	30	0	1013972992	48	6531
2026-01-16 12:55:10.37	123.06	14.99	-38.2	-39.4	21.6	0.00e+00	0	30	0	1016070144	48	6709
2026-01-16 12:55:11.38	123.24	14.92	-38.1	-39.2	21.7	0.00e+00	91	30	0	1018167296	48	6588
2026-01-16 12:55:12.39	123.41	14.86	-37.8	-38.9	22.1	0.00e+00	0	30	0	1020264448	48	6331
2026-01-16 12:55:13.40	123.58	14.80	-37.4	-38.5	22.4	0.00e+00	0	30	0	1021313024	48	6038
2026-01-16 12:55:14.41	123.75	14.73	-37.0	-38.0	22.6	0.00e+00	0	30	0	1023410176	48	5729
2026-01-16 12:55:15.42	123.92	14.67	-36.6	-37.6	23.0	0.00e+00	0	30	0	1025507328	46	6123
2026-01-16 12:55:16.43	124.09	14.60	-36.4	-37.4	23.3	0.00e+00	41	30	0	1027604480	46	5980
2026-01-16 12:55:17.44	124.26	14.54	-36.5	-37.5	23.1	0.00e+00	0	30	0	1029701632	46	6041
2026-01-16 12:55:18.45	124.43	14.48	-36.6	-37.6	23.1	0.00e+00	91	30	0	1030750208	46	6107
2026-01-16 12:55:19.46	124.59	14.41	-36.7	-37.7	23.1	0.00e+00	0	30	0	1032847360	46	6203
2026-01-16 12:55:20.47	124.76	14.35	-36.9	-37.9	22.9	0.00e+00	92	30	0	1034944512	46	6349
2026-01-16 12:55:21.48	124.93	14.28	-37.0	-38.0	22.8	0.00e+00	0	30	0	1037041664	46	6463
2026-01-16 12:55:22.49	125.09	14.22	-37.0	-38.1	22.6	0.00e+00	0	30	0	1039138816	46	6467
2026-01-16 12:55:23.50	125.26	14.15	-36.7	-37.7	23.0	0.00e+00	42	30	0	1040187392	46	6197
2026-01-16 12:55:24.51	125.42	14.09	-36.5	-37.4	23.2	0.00e+00	0	30	0	1042284544	46	5988
2026-01-16 12:55:25.52	125.58	14.02	-36.3	-37.2	23.4	0.00e+00	92	30	0	1044381696	46	5892
2026-01-16 12:55:26.53	125.75	13.96	-36.2	-37.1	23.5	0.00e+00	0	30	0	1046478848	46	5780
2026-01-16 12:55:27.54	125.91	13.90	-36.2	-37.1	23.3	0.00e+00	87	30	0	1048576000	46	5799
2026-01-16 12:55:28.55	126.07	13.83	-36.4	-37.3	23.2	0.00e+00	0	30	0	1049624576	46	5906
2026-01-16 12:55:29.56	126.23	13.77	-36.3	-37.2	22.9	0.00e+00	0	30	0	1051721728	46	5894
2026-01-16 12:55:30.57	126.39	13.70	-36.6	-37.5	23.0	0.00e+00	0	30	0	1053818880	46	6093
2026-01-16 12:55:31.58	126.55	13.64	-37.0	-38.0	22.7	0.00e+00	0	30	0	1055916032	46	6422
2026-01-16 12:55:32.59	126.71	13.57	-37.1	-38.1	22.8	0.00e+00	92	30	0	1058013184	46	6498
2026-01-16 12:55:33.60	126.86	13.51	-37.3	-38.3	22.5	0.00e+00	0	30	0	1059061760	46	6691
2026-01-16 12:55:34.61	127.02	13.44	-37.5	-38.6	22.4	0.00e+00	70	30	0	1061158912	46	6853
2026-01-16 12:55:35.62	127.18	13.38	-37.5	-38.6	22.3	0.00e+00	0	30	0	1063256064	48	6136
2026-01-16 12:55:36.63	127.33	13.31	-37.4	-38.4	22.4	0.00e+00	0	30	0	1065353216	48	6019
2026-01-16 12:55:37.64	127.49	13.25	-37.5	-38.5	22.4	0.00e+00	0	30	0	1067450368	48	6100
2026-01-16 12:55:38.65	127.64	13.18	-37.6	-38.7	22.2	0.00e+00	0	30	0	1068498944	48	6197
2026-01-16 12:55:39.66	127.80	13.12	-37.7	-38.8	22.2	0.00e+00	69	30	0	1070596096	48	6291
2026-01-16 12:55:40.67	127.95	13.05	-38.1	-39.2	21.7	0.00e+00	0	30	0	1072693248	48	6582
2026-01-16 12:55:41.68	128.10	12.99	-38.3	-39.4	21.6	0.00e+00	92	30	0	1074790400	48	6740
2026-01-16 12:55:42.69	128.25	12.92	-38.5	-39.7	21.4	0.00e+00	0	30	0	1076887552	48	6967
2026-01-16 12:55:43.70	128.41	12.86	-38.7	-39.9	21.3	0.00e+00	0	30	0	1077936128	50	6328
2026-01-16 12:55:44.71	128.56	12.79	-38.3	-39.4	21.5	0.00e+00	0	30	0	1080033280	50	6027
2026-01-16 12:55:45.72	128.71	12.73	-38.0	-39.1	21.8	0.00e+00	0	30	0	1082130432	50	5828
2026-01-16 12:55:46.73	128.86	12.66	-37.6	-38.6	22.2	0.00e+00	21	30	0	1084227584	48	6161
2026-01-16 12:55:47.74	129.00	12.60	-37.5	-38.5	22.2	0.00e+00	0	30	0	1086324736	48	6088
2026-01-16 12:55:48.75	129.15	12.53	-37.0	-38.0	22.7	0.00e+00	90	30	0	1088421888	48	5711
2026-01-16 12:55:49.76	129.30	12.47	-37.1	-38.0	22.6	0.00e+00	0	30	0	1089470464	48	5752
2026-01-16 12:55:50.77	129.45	12.40	-36.9	-37.9	22.9	0.00e+00	0	30	0	1091567616	48	5638
2026-01-16 12:55:51.78	129.59	12.34	-36.9	-37.8	22.8	0.00e+00	0	30	0	1093664768	48	5608
2026-01-16 12:55:52.79	129.74	12.27	-37.1	-38.1	22.7	0.00e+00	0	30	0	1095761920	48	5809
2026-01-16 12:55:53.80	129.88	12.21	-37.1	-38.1	22.6	0.00e+00	46	30	0	1097859072	48	5815
2026-01-16 12:55:54.81	130.03	12.14	-37.5	-38.5	22.3	0.00e+00	0	30	0	1098907648	48	6086
2026-01-16 12:55:55.82	130.17	12.08	-37.6	-38.7	22.1	0.00e+00	73	30	0	1101004800	48	6193
2026-01-16 12:55:56.83	130.31	12.01	-37.9	-39.0	21.9	0.00e+00	0	30	0	1103101952	48	6392
2026-01-16 12:55:57.84	130.46	11.95	-37.9	-39.0	21.9	0.00e+00	0	30	0	1105199104	48	6392
2026-01-16 12:55:58.85	130.60	11.88	-38.0	-39.1	21.8	0.00e+00	0	30	0	1107296256	48	6496
2026-01-16 12:55:59.86	130.74	11.82	-37.9	-39.0	21.9	0.00e+00	0	30	0	1108344832	48	6405
2026-01-16 12:56:00.87	130.88	11.75	-38.0	-39.1	21.9	0.00e+00	0	30	0	1110441984	48	6510
2026-01-16 12:56:01.88	131.02	11.69	-38.0	-39.1	21.8	0.00e+00	0	30	0	1112539136	48	6480
2026-01-16 12:56:02.89	131.16	11.62	-38.2	-39.4	21.3	0.00e+00	92	30	0	1114636288	48	6723
2026-01-16 12:56:03.90	131.30	11.56	-38.3	-39.5	21.4	0.00e+00	0	30	0	1116733440	48	6796
2026-01-16 12:56:04.91	131.44	11.49	-38.6	-39.8	21.2	0.00e+00	91	30	0	1117782016	48	7015
2026-01-16 12:56:05.92	131.57	11.43	-38.7	-39.9	21.2	0.00e+00	0	30	0	1119879168	48	7092
2026-01-16 12:56:06.93	131.71	11.36	-38.7	-39.9	21.2	0.00e+00	0	30	0	1121976320	48	7124
2026-01-16 12:56:07.94	131.85	11.30	-38.7	-39.9	21.1	0.00e+00	0	30	0	1124073472	50	6390
2026-01-16 12:56:08.95	131.98	11.24	-38.2	-39.4	21.5	0.00e+00	0	30	0	1126170624	50	5967
2026-01-16 12:56:09.96	132.12	11.17	-38.3	-39.4	21.5	0.00e+00	92	30	0	1127219200	50	6015
2026-01-16 12:56:10.97	132.25	11.11	-37.9	-38.9	21.9	0.00e+00	0	30	0	1129316352	50	5687
2026-01-16 12:56:11.98	132.39	11.04	-37.5	-38.5	22.2	0.00e+00	92	30	0	1131413504	48	6099
2026-01-16 12:56:12.99	132.52	10.98	-37.4	-38.4	22.3	0.00e+00	0	30	0	1133510656	48	5975
2026-01-16 12:56:14.00	132.65	10.91	-37.2	-38.2	22.4	0.00e+00	0	30	0	1135607808	48	5839
2026-01-16 12:56:15.00	132.79	10.85	-37.0	-38.0	22.5	0.00e+00	0	30	0	1136656384	48	5757
2026-01-16 12:56:16.01	132.92	10.78	-37.0	-37.9	22.4	0.00e+00	0	30	0	1138753536	48	5683
2026-01-16 12:56:17.02	133.05	10.72	-36.8	-37.8	22.8	0.00e+00	28	30	0	1140850688	48	5607
2026-01-16 12:56:18.03	133.18	10.66	-37.1	-38.1	22.5	0.00e+00	0	30	0	1142947840	48	5762
2026-01-16 12:56:19.04	133.31	10.59	-37.2	-38.2	22.4	0.00e+00	90	31	0	1145044992	48	5856
2026-01-16 12:56:20.05	133.44	10.53	-37.3	-38.3	22.3	0.00e+00	0	31	0	1146093568	48	5912
2026-01-16 12:56:21.06	133.57	10.46	-37.6	-38.6	22.0	0.00e+00	0	30	0	1148190720	48	6163
2026-01-16 12:56:22.07	133.70	10.40	-37.8	-38.8	21.7	0.00e+00	0	30	0	1150287872	48	6304
2026-01-16 12:56:23.08	133.82	10.33	-37.9	-38.9	21.3	0.00e+00	0	31	0	1152385024	48	6389
2026-01-16 12:56:24.09	133.95	10.27	-37.7	-38.8	21.9	0.00e+00	60	31	0	1154482176	48	6274
2026-01-16 12:56:25.10	134.08	10.21	-37.8	-38.9	21.8	0.00e+00	0	30	0	1156579328	48	6333
2026-01-16 12:56:26.11	134.21	10.14	-37.8	-38.8	21.9	0.00e+00	92	31	0	1157627904	48	6311
2026-01-16 12:56:27.12	134.33	10.08	-38.0	-39.1	21.7	0.00e+00	0	30	0	1159725056	48	6466
2026-01-16 12:56:28.13	134.46	10.01	-37.9	-39.0	21.8	0.00e+00	76	30	0	1161822208	48	6391
2026-01-16 12:56:29.14	134.58	9.95	-38.0	-39.1	21.6	0.00e+00	0	31	0	1163919360	48	6482
2026-01-16 12:56:30.15	134.71	9.89	-38.1	-39.2	21.5	0.00e+00	0	30	0	1166016512	48	6560
2026-01-16 12:56:31.16	134.83	9.82	-38.2	-39.4	21.4	0.00e+00	24	30	0	1167065088	48	6724
2026-01-16 12:56:32.17	134.95	9.76	-38.6	-39.7	21.1	0.00e+00	0	30	0	1169162240	48	7002
2026-01-16 12:56:33.18	135.08	9.69	-38.6	-39.8	21.0	0.00e+00	92	30	0	1171259392	48	7029
2026-01-16 12:56:34.19	135.20	9.63	-38.8	-40.0	20.8	0.00e+00	0	30	0	1173356544	50	6431
2026-01-16 12:56:35.20	135.32	9.57	-38.9	-40.1	20.7	0.00e+00	0	30	0	1175453696	50	6520
2026-01-16 12:56:36.21	135.44	9.50	-38.8	-40.1	20.8	0.00e+00	0	31	0	1176502272	50	6495
2026-01-16 12:56:37.22	135.56	9.44	-39.0	-40.3	20.5	0.00e+00	0	31	0	1178599424	50	6674
2026-01-16 12:56:38.23	135.68	9.38	-38.7	-39.9	21.0	0.00e+00	0	31	0	1180696576	50	6351
2026-01-16 12:56:39.24	135.80	9.31	-38.6	-39.7	21.1	0.00e+00	0	31	0	1182793728	50	6240
2026-01-16 12:56:40.25	135.92	9.25	-38.4	-39.5	21.3	0.00e+00	91	31	0	1184890880	50	6098
2026-01-16 12:56:41.26	136.04	9.19	-38.2	-39.3	21.5	0.00e+00	0	31	0	1185939456	50	5962
2026-01-16 12:56:42.27	136.16	9.12	-38.1	-39.2	21.5	0.00e+00	91	31	0	1188036608	50	5886
2026-01-16 12:56:43.28	136.28	9.06	-38.3	-39.4	21.3	0.00e+00	0	31	0	1190133760	50	6006
2026-01-16 12:56:44.29	136.39	9.00	-38.0	-39.1	21.5	0.00e+00	0	31	0	1192230912	50	5799
2026-01-16 12:56:45.30	136.51	8.93	-38.1	-39.3	21.4	0.00e+00	44	31	0	1194328064	50	5903
2026-01-16 12:56:46.31	136.63	8.87	-38.2	-39.3	21.4	0.00e+00	0	31	0	1195376640	50	5953
2026-01-16 12:56:47.32	136.74	8.81	-38.0	-39.1	21.6	0.00e+00	53	31	0	1197473792	50	5786
2026-01-16 12:56:48.33	136.86	8.75	-38.2	-39.3	21.5	0.00e+00	0	31	0	1199570944	50	5946
2026-01-16 12:56:49.34	136.97	8.68	-38.2	-39.3	21.4	0.00e+00	86	30	0	1201668096	50	5930
2026-01-16 12:56:50.35	137.09	8.62	-38.2	-39.4	21.4	0.00e+00	0	31	0	1203765248	50	5984
2026-01-16 12:56:51.36	137.20	8.56	-38.4	-39.6	21.2	0.00e+00	0	31	0	1204813824	50	6116
2026-01-16 12:56:52.37	137.31	8.49	-38.4	-39.6	21.1	0.00e+00	0	31	0	1206910976	50	6111
2026-01-16 12:56:53.37	137.43	8.43	-38.5	-39.7	20.9	0.00e+00	0	31	0	1209008128	50	6187
2026-01-16 12:56:54.39	137.54	8.37	-38.2	-39.3	21.3	0.00e+00	46	31	0	1211105280	50	5956
2026-01-16 12:56:55.39	137.65	8.31	-38.3	-39.5	21.2	0.00e+00	0	30	0	1213202432	50	6038
2026-01-16 12:56:56.40	137.76	8.25	-38.5	-39.7	20.9	0.00e+00	92	31	0	1214251008	50	6222
2026-01-16 12:56:57.41	137.87	8.18	-38.3	-39.4	21.3	0.00e+00	0	31	0	1216348160	50	6027
