passes_logs/2026/01/16/R4.6S_Anadyr/R4.6S_Anadyr__20260116_142544_SUOMI_NPP_rec.log

#Pass ID: 20260116_142544_SUOMI NPP
#Satellite: SUOMI NPP
#Configuration: NPP
#almurnet v.1.7.20251203
#Start time: 2026-01-16 14:25:46

#Version: 2.2.20231116
#Station: R4.6S_Anadyr
#Location: 177.4865 lon 64.73178 lat
#TLE: 1 37849U 11061A   26015.94982489  .00000054  00000+0  46705-4 0  9991
#TLE: 2 37849  98.7812 317.9902 0002438  62.0366 298.1057 14.19525452736847

#Time	Az	El	Level	Level2	SNR	BER	BlckErr	Temp	State	Recorded	gain1	gain2
2026-01-16 14:25:46.21	19.88	0.08	-48.0	-60.6	3.4	1.52e+00	0	27	0	0	60	37552
2026-01-16 14:25:47.22	19.90	0.14	-48.2	-63.6	3.6	1.51e+00	0	28	104	0	60	54464
2026-01-16 14:25:48.23	19.91	0.20	-48.2	-63.5	3.6	1.51e+00	0	28	104	0	60	54358
2026-01-16 14:25:49.24	19.93	0.26	-48.0	-63.3	3.6	1.51e+00	0	28	104	0	60	52796
2026-01-16 14:25:50.25	19.95	0.32	-48.2	-63.5	3.6	1.51e+00	0	28	104	0	60	53785
2026-01-16 14:25:51.26	19.96	0.38	-48.1	-63.4	3.6	1.51e+00	0	28	104	0	60	53240
2026-01-16 14:25:52.27	19.98	0.44	-48.0	-63.2	3.6	1.51e+00	0	28	104	0	60	52504
2026-01-16 14:25:53.28	19.99	0.50	-48.1	-63.3	3.6	1.51e+00	0	28	104	0	60	52616
2026-01-16 14:25:54.29	20.01	0.56	-48.0	-63.2	3.6	1.51e+00	0	28	104	0	60	52219
2026-01-16 14:25:55.30	20.03	0.62	-47.9	-63.1	3.6	1.51e+00	0	28	104	0	60	51580
2026-01-16 14:25:56.31	20.04	0.68	-47.9	-63.1	3.6	1.51e+00	0	28	104	0	60	51436
2026-01-16 14:25:57.32	20.06	0.75	-47.8	-63.0	3.6	1.51e+00	0	28	104	0	60	50841
2026-01-16 14:25:58.33	20.07	0.81	-47.6	-62.8	3.6	1.51e+00	0	28	104	0	60	49843
2026-01-16 14:25:59.34	20.09	0.87	-47.2	-62.5	3.6	1.51e+00	0	28	104	0	60	48346
2026-01-16 14:26:00.35	20.11	0.93	-47.2	-62.4	3.6	1.51e+00	0	28	104	0	60	47481
2026-01-16 14:26:01.35	20.12	0.99	-47.0	-62.1	3.6	1.51e+00	0	28	104	0	60	46029
2026-01-16 14:26:02.36	20.14	1.05	-46.6	-61.8	3.6	1.51e+00	0	28	104	0	60	44432
2026-01-16 14:26:03.37	20.15	1.11	-46.5	-61.6	3.6	1.51e+00	0	28	104	0	60	43261
2026-01-16 14:26:04.38	20.17	1.18	-46.5	-61.5	3.6	1.51e+00	0	28	104	0	60	43055
2026-01-16 14:26:05.39	20.19	1.24	-46.5	-61.6	3.6	1.51e+00	0	28	104	0	60	43319
2026-01-16 14:26:06.40	20.20	1.30	-46.4	-61.5	3.6	1.51e+00	0	29	104	0	60	43181
2026-01-16 14:26:07.41	20.22	1.36	-46.4	-61.5	3.6	1.51e+00	0	28	104	0	60	42795
2026-01-16 14:26:08.42	20.24	1.43	-46.4	-61.6	3.6	1.51e+00	0	29	104	0	60	43248
2026-01-16 14:26:09.43	20.25	1.49	-46.5	-61.6	3.6	1.51e+00	0	28	104	0	60	43238
2026-01-16 14:26:10.44	20.27	1.55	-46.4	-61.6	3.6	1.51e+00	0	29	104	0	60	43602
2026-01-16 14:26:11.45	20.29	1.61	-46.4	-61.6	3.6	1.51e+00	0	29	104	0	60	43411
2026-01-16 14:26:12.46	20.30	1.68	-46.4	-61.6	3.6	1.51e+00	0	29	104	0	60	43362
2026-01-16 14:26:13.47	20.32	1.74	-46.4	-61.7	3.6	1.51e+00	0	28	104	0	60	43718
2026-01-16 14:26:14.48	20.34	1.80	-46.4	-61.7	3.6	1.51e+00	0	29	104	0	60	43765
2026-01-16 14:26:15.49	20.35	1.87	-46.4	-61.6	3.6	1.51e+00	0	28	104	0	60	43405
2026-01-16 14:26:16.50	20.37	1.93	-46.4	-61.6	3.6	1.51e+00	0	29	104	0	60	43549
2026-01-16 14:26:17.51	20.39	2.00	-46.4	-61.6	3.6	1.51e+00	0	29	104	0	60	43571
2026-01-16 14:26:18.52	20.40	2.06	-46.4	-61.6	3.6	1.51e+00	0	29	104	0	60	43695
2026-01-16 14:26:19.52	20.42	2.12	-46.4	-61.6	3.6	1.51e+00	0	29	104	0	60	43552
2026-01-16 14:26:20.53	20.44	2.19	-46.4	-61.4	3.6	1.51e+00	0	29	104	0	60	42441
2026-01-16 14:26:21.54	20.46	2.25	-46.4	-60.9	3.6	1.51e+00	0	29	104	0	60	40101
2026-01-16 14:26:22.55	20.47	2.32	-46.4	-60.6	3.6	1.51e+00	0	29	104	0	60	38916
2026-01-16 14:26:23.56	20.49	2.38	-46.4	-59.7	3.7	1.51e+00	0	29	104	0	60	35042
2026-01-16 14:26:24.57	20.51	2.45	-46.3	-59.4	3.7	1.49e+00	0	29	104	0	60	33544
2026-01-16 14:26:25.59	20.53	2.51	-46.3	-59.0	3.8	1.50e+00	0	29	104	0	60	32120
2026-01-16 14:26:26.60	20.54	2.58	-46.3	-59.5	3.7	1.50e+00	0	29	104	0	60	34244
2026-01-16 14:26:27.60	20.56	2.64	-46.3	-59.5	3.6	1.51e+00	0	29	104	0	60	34142
2026-01-16 14:26:28.61	20.58	2.71	-46.2	-58.2	4.0	1.48e+00	0	29	104	0	60	29376
2026-01-16 14:26:29.62	20.60	2.77	-46.1	-55.1	4.7	1.16e+00	12	29	0	1048576	60	20549
2026-01-16 14:26:30.64	20.61	2.84	-45.7	-52.8	6.8	2.13e-01	0	29	0	3145728	60	15815
2026-01-16 14:26:31.65	20.63	2.90	-45.0	-50.2	9.9	5.96e-02	81	29	0	4194304	60	11746
2026-01-16 14:26:32.66	20.65	2.97	-44.2	-48.3	12.2	2.48e-03	0	29	0	6291456	60	9395
2026-01-16 14:26:33.67	20.67	3.04	-43.3	-46.5	14.1	2.67e-05	0	29	0	8388608	60	7638
2026-01-16 14:26:34.67	20.68	3.10	-42.7	-45.4	15.2	0.00e+00	0	29	0	10485760	60	6711
2026-01-16 14:26:35.68	20.70	3.17	-42.2	-44.7	16.0	0.00e+00	0	29	0	12582912	58	6999
2026-01-16 14:26:36.69	20.72	3.24	-41.8	-44.1	16.5	0.00e+00	81	29	0	13631488	56	7273
2026-01-16 14:26:37.70	20.74	3.30	-40.8	-42.7	17.6	0.00e+00	0	29	0	15728640	54	6942
2026-01-16 14:26:38.71	20.76	3.37	-41.0	-42.9	17.6	0.00e+00	89	29	0	17825792	54	7164
2026-01-16 14:26:39.72	20.78	3.44	-41.1	-43.0	17.4	0.00e+00	0	29	0	19922944	54	7252
2026-01-16 14:26:40.73	20.79	3.50	-41.2	-43.2	17.1	0.00e+00	0	29	0	22020096	54	7420
2026-01-16 14:26:41.74	20.81	3.57	-41.5	-43.7	16.7	0.00e+00	0	29	0	23068672	54	7779
2026-01-16 14:26:42.75	20.83	3.64	-42.5	-45.1	15.4	0.00e+00	0	29	0	25165824	56	8201
2026-01-16 14:26:43.76	20.85	3.71	-43.1	-46.2	13.9	1.50e-06	0	29	0	27262976	58	8251
2026-01-16 14:26:44.78	20.87	3.78	-41.6	-43.7	17.0	0.00e+00	0	29	0	29360128	56	6966
2026-01-16 14:26:45.78	20.89	3.84	-44.6	-49.4	10.3	0.00e+00	56	29	0	31457280	60	10700
2026-01-16 14:26:46.79	20.90	3.91	-45.7	-52.7	6.2	9.04e-03	0	29	0	32505856	60	15628
2026-01-16 14:26:47.80	20.92	3.98	-43.4	-46.4	14.3	6.60e-02	0	29	0	34603008	60	7567
2026-01-16 14:26:48.82	20.94	4.05	-46.4	-61.5	3.6	1.50e-06	0	29	104	36700160	60	43050
2026-01-16 14:26:49.83	20.96	4.12	-42.7	-45.4	6.0	1.46e+00	0	29	104	36700160	60	6708
2026-01-16 14:26:50.84	20.98	4.19	-41.9	-44.2	16.7	0.00e+00	81	29	0	36700160	58	6540
2026-01-16 14:26:51.85	21.00	4.26	-41.6	-43.6	17.3	0.00e+00	0	29	0	38797312	56	6908
2026-01-16 14:26:52.86	21.02	4.33	-41.7	-43.8	17.0	0.00e+00	92	29	0	39845888	56	7029
2026-01-16 14:26:53.87	21.04	4.40	-40.8	-42.6	18.0	0.00e+00	0	29	0	41943040	56	6130
2026-01-16 14:26:54.88	21.06	4.47	-40.7	-42.5	18.3	0.00e+00	0	29	0	44040192	56	6052
2026-01-16 14:26:55.89	21.08	4.54	-40.6	-42.3	18.3	0.00e+00	0	29	0	46137344	54	6666
2026-01-16 14:26:56.89	21.10	4.61	-40.3	-41.9	18.7	0.00e+00	0	29	0	48234496	54	6338
2026-01-16 14:26:57.90	21.11	4.68	-40.5	-42.1	18.4	0.00e+00	0	29	0	50331648	54	6539
2026-01-16 14:26:58.91	21.13	4.75	-40.4	-42.1	18.6	0.00e+00	0	29	0	51380224	54	6490
2026-01-16 14:26:59.92	21.15	4.82	-40.2	-41.8	18.9	0.00e+00	61	29	0	53477376	54	6265
2026-01-16 14:27:00.93	21.17	4.89	-39.9	-41.4	19.3	0.00e+00	0	29	0	55574528	54	5986
2026-01-16 14:27:01.94	21.19	4.96	-39.8	-41.3	19.4	0.00e+00	14	29	0	57671680	52	6617
2026-01-16 14:27:02.95	21.21	5.03	-39.6	-41.0	19.6	0.00e+00	0	29	0	59768832	52	6419
2026-01-16 14:27:03.96	21.23	5.10	-39.5	-40.9	19.7	0.00e+00	0	29	0	60817408	52	6365
2026-01-16 14:27:04.97	21.25	5.17	-40.0	-41.6	19.1	0.00e+00	0	29	0	62914560	52	6886
2026-01-16 14:27:05.98	21.27	5.24	-39.8	-41.3	19.1	0.00e+00	0	29	0	65011712	52	6644
2026-01-16 14:27:06.99	21.29	5.32	-39.9	-41.4	19.3	0.00e+00	92	29	0	67108864	52	6728
2026-01-16 14:27:08.00	21.31	5.39	-40.1	-41.7	19.0	0.00e+00	0	29	0	69206016	52	6984
2026-01-16 14:27:09.01	21.33	5.46	-40.1	-41.7	19.0	0.00e+00	75	29	0	70254592	52	6961
2026-01-16 14:27:10.02	21.35	5.53	-40.0	-41.6	19.2	0.00e+00	0	29	0	72351744	52	6850
2026-01-16 14:27:11.02	21.37	5.61	-39.5	-40.9	20.0	0.00e+00	0	29	0	74448896	52	6322
2026-01-16 14:27:12.03	21.39	5.68	-39.0	-40.2	20.3	0.00e+00	0	29	0	76546048	52	5892
2026-01-16 14:27:13.04	21.42	5.75	-39.1	-40.5	20.1	0.00e+00	0	29	0	78643200	52	6043
2026-01-16 14:27:14.05	21.44	5.83	-39.0	-40.3	20.4	0.00e+00	60	29	0	79691776	52	5924
2026-01-16 14:27:15.06	21.46	5.90	-38.8	-40.1	20.5	0.00e+00	0	29	0	81788928	52	5799
2026-01-16 14:27:16.07	21.48	5.97	-39.2	-40.5	20.2	0.00e+00	92	29	0	83886080	52	6059
2026-01-16 14:27:17.08	21.50	6.05	-39.2	-40.5	20.3	0.00e+00	0	29	0	85983232	52	6067
2026-01-16 14:27:18.10	21.52	6.12	-39.4	-40.7	20.0	0.00e+00	0	29	0	88080384	52	6243
2026-01-16 14:27:19.10	21.54	6.20	-38.7	-40.0	20.6	0.00e+00	0	29	0	89128960	50	6414
2026-01-16 14:27:20.11	21.56	6.27	-38.8	-40.1	20.5	0.00e+00	0	29	0	91226112	50	6475
2026-01-16 14:27:21.12	21.58	6.35	-39.0	-40.3	20.4	0.00e+00	89	29	0	93323264	50	6641
2026-01-16 14:27:22.13	21.60	6.42	-38.8	-40.0	20.8	0.00e+00	0	29	0	95420416	50	6449
2026-01-16 14:27:23.14	21.63	6.50	-38.7	-39.9	20.8	0.00e+00	92	29	0	97517568	50	6341
2026-01-16 14:27:24.16	21.65	6.57	-38.8	-40.0	20.7	0.00e+00	0	29	0	98566144	50	6423
2026-01-16 14:27:25.16	21.67	6.65	-38.6	-39.8	20.8	0.00e+00	0	29	0	100663296	50	6289
2026-01-16 14:27:26.17	21.69	6.72	-38.4	-39.6	21.1	0.00e+00	0	29	0	102760448	50	6123
2026-01-16 14:27:27.18	21.71	6.80	-38.7	-39.9	20.7	0.00e+00	0	29	0	104857600	50	6375
2026-01-16 14:27:28.19	21.73	6.88	-38.5	-39.7	20.9	0.00e+00	87	29	0	106954752	50	6232
2026-01-16 14:27:29.20	21.76	6.95	-38.6	-39.8	20.9	0.00e+00	0	29	0	108003328	50	6302
2026-01-16 14:27:30.21	21.78	7.03	-38.6	-39.8	21.0	0.00e+00	74	29	0	110100480	50	6310
2026-01-16 14:27:31.22	21.80	7.11	-38.4	-39.6	21.1	0.00e+00	0	29	0	112197632	50	6125
2026-01-16 14:27:32.23	21.82	7.18	-38.3	-39.5	21.2	0.00e+00	30	29	0	114294784	50	6045
2026-01-16 14:27:33.24	21.84	7.26	-38.4	-39.6	21.2	0.00e+00	1	29	0	116391936	50	6113
2026-01-16 14:27:34.25	21.87	7.34	-38.5	-39.7	21.0	0.00e+00	0	29	0	118489088	50	6221
2026-01-16 14:27:35.26	21.89	7.42	-38.4	-39.6	21.2	0.00e+00	0	29	0	119537664	50	6158
2026-01-16 14:27:36.27	21.91	7.49	-38.3	-39.4	21.3	0.00e+00	0	29	0	121634816	50	6021
2026-01-16 14:27:37.28	21.93	7.57	-38.3	-39.4	21.3	0.00e+00	89	29	0	123731968	50	6008
2026-01-16 14:27:38.29	21.96	7.65	-38.2	-39.4	21.3	0.00e+00	0	29	0	125829120	50	5992
2026-01-16 14:27:39.30	21.98	7.73	-38.3	-39.5	21.3	0.00e+00	37	29	0	127926272	50	6056
2026-01-16 14:27:40.31	22.00	7.81	-38.3	-39.5	21.3	0.00e+00	0	29	0	128974848	50	6068
2026-01-16 14:27:41.32	22.03	7.89	-38.1	-39.2	21.5	0.00e+00	0	29	0	131072000	50	5891
2026-01-16 14:27:42.33	22.05	7.97	-38.3	-39.4	21.4	0.00e+00	3	29	0	133169152	50	6021
2026-01-16 14:27:43.34	22.07	8.05	-38.2	-39.4	21.4	0.00e+00	0	29	0	135266304	50	5982
2026-01-16 14:27:44.34	22.10	8.13	-38.3	-39.4	21.4	0.00e+00	91	29	0	137363456	50	5999
2026-01-16 14:27:45.35	22.12	8.21	-38.0	-39.1	21.5	0.00e+00	0	29	0	138412032	50	5811
2026-01-16 14:27:46.36	22.14	8.29	-38.2	-39.3	21.4	0.00e+00	92	29	0	140509184	50	5940
2026-01-16 14:27:47.37	22.17	8.37	-38.4	-39.6	21.3	0.00e+00	0	29	0	142606336	50	6129
2026-01-16 14:27:48.38	22.19	8.45	-38.0	-39.1	21.7	0.00e+00	0	29	0	144703488	50	5776
2026-01-16 14:27:49.39	22.22	8.53	-38.0	-39.1	21.7	0.00e+00	0	29	0	146800640	50	5778
2026-01-16 14:27:50.40	22.24	8.62	-37.9	-39.0	21.7	0.00e+00	0	29	0	147849216	50	5718
2026-01-16 14:27:51.41	22.26	8.70	-37.8	-38.9	21.8	0.00e+00	92	29	0	149946368	50	5674
2026-01-16 14:27:52.42	22.29	8.78	-38.0	-39.1	21.7	0.00e+00	0	29	0	152043520	50	5778
2026-01-16 14:27:53.43	22.31	8.86	-38.1	-39.2	21.5	0.00e+00	68	29	0	154140672	50	5856
2026-01-16 14:27:54.44	22.34	8.94	-37.8	-38.9	21.8	0.00e+00	0	29	0	156237824	50	5671
2026-01-16 14:27:55.45	22.36	9.03	-37.9	-39.0	21.8	0.00e+00	0	29	0	157286400	48	6416
2026-01-16 14:27:56.46	22.39	9.11	-37.8	-38.9	21.8	0.00e+00	0	29	0	159383552	48	6330
2026-01-16 14:27:57.47	22.41	9.19	-37.8	-38.9	21.8	0.00e+00	0	29	0	161480704	48	6373
2026-01-16 14:27:58.48	22.44	9.28	-37.6	-38.6	22.0	0.00e+00	8	29	0	163577856	48	6135
2026-01-16 14:27:59.49	22.46	9.36	-38.0	-39.1	21.7	0.00e+00	0	29	0	165675008	48	6478
2026-01-16 14:28:00.50	22.49	9.45	-38.0	-39.1	21.6	0.00e+00	51	29	0	166723584	48	6538
2026-01-16 14:28:01.51	22.51	9.53	-37.8	-38.9	21.9	0.00e+00	0	29	0	168820736	48	6364
2026-01-16 14:28:02.52	22.54	9.62	-37.9	-39.0	21.8	0.00e+00	0	29	0	170917888	48	6425
2026-01-16 14:28:03.53	22.56	9.70	-37.9	-39.0	21.8	0.00e+00	0	29	0	173015040	48	6433
2026-01-16 14:28:04.54	22.59	9.79	-37.9	-38.9	21.8	0.00e+00	5	29	0	175112192	48	6374
2026-01-16 14:28:05.55	22.61	9.87	-37.9	-39.0	21.8	0.00e+00	80	29	0	176160768	48	6403
2026-01-16 14:28:06.56	22.64	9.96	-37.8	-38.9	21.9	0.00e+00	0	29	0	178257920	48	6334
2026-01-16 14:28:07.57	22.67	10.05	-37.5	-38.5	22.2	0.00e+00	67	29	0	180355072	48	6070
2026-01-16 14:28:08.58	22.69	10.13	-37.5	-38.5	22.1	0.00e+00	0	29	0	182452224	48	6082
2026-01-16 14:28:09.59	22.72	10.22	-37.4	-38.4	22.3	0.00e+00	57	30	0	184549376	48	5983
2026-01-16 14:28:10.60	22.74	10.31	-37.5	-38.5	22.1	0.00e+00	0	29	0	186646528	48	6098
2026-01-16 14:28:11.61	22.77	10.40	-37.2	-38.2	22.5	0.00e+00	0	29	0	187695104	48	5835
2026-01-16 14:28:12.62	22.80	10.48	-37.3	-38.4	22.3	0.00e+00	0	29	0	189792256	48	5974
2026-01-16 14:28:13.63	22.82	10.57	-37.4	-38.4	22.3	0.00e+00	0	29	0	191889408	48	6024
2026-01-16 14:28:14.64	22.85	10.66	-37.2	-38.3	22.4	0.00e+00	88	29	0	193986560	48	5899
2026-01-16 14:28:15.65	22.88	10.75	-37.2	-38.2	22.5	0.00e+00	0	29	0	196083712	48	5894
2026-01-16 14:28:16.66	22.91	10.84	-37.3	-38.3	22.4	0.00e+00	73	29	0	197132288	48	5929
2026-01-16 14:28:17.67	22.93	10.93	-37.3	-38.4	22.5	0.00e+00	27	30	0	199229440	48	5968
2026-01-16 14:28:18.68	22.96	11.02	-37.4	-38.4	22.3	0.00e+00	0	30	0	201326592	48	6013
2026-01-16 14:28:19.69	22.99	11.11	-37.2	-38.3	22.4	0.00e+00	0	30	0	203423744	48	5903
2026-01-16 14:28:20.70	23.02	11.20	-37.0	-38.0	22.7	0.00e+00	0	30	0	205520896	48	5735
2026-01-16 14:28:21.71	23.04	11.29	-37.2	-38.2	22.5	0.00e+00	13	30	0	206569472	48	5832
2026-01-16 14:28:22.72	23.07	11.38	-37.1	-38.1	22.6	0.00e+00	0	30	0	208666624	48	5805
2026-01-16 14:28:23.73	23.10	11.47	-37.1	-38.0	22.6	0.00e+00	78	30	0	210763776	48	5747
2026-01-16 14:28:24.74	23.13	11.57	-37.0	-37.9	22.8	0.00e+00	0	29	0	212860928	48	5690
2026-01-16 14:28:25.75	23.16	11.66	-37.1	-38.1	22.6	0.00e+00	0	30	0	214958080	48	5811
2026-01-16 14:28:26.76	23.19	11.75	-37.4	-38.4	22.4	0.00e+00	0	30	0	216006656	48	5985
2026-01-16 14:28:27.77	23.22	11.84	-37.2	-38.2	22.6	0.00e+00	0	30	0	218103808	48	5891
2026-01-16 14:28:28.78	23.24	11.94	-37.1	-38.1	22.6	0.00e+00	89	30	0	220200960	48	5781
2026-01-16 14:28:29.79	23.27	12.03	-36.9	-37.9	22.7	0.00e+00	0	30	0	222298112	48	5656
2026-01-16 14:28:30.80	23.30	12.12	-37.0	-38.0	22.7	0.00e+00	80	29	0	224395264	48	5734
2026-01-16 14:28:31.81	23.33	12.22	-36.9	-37.9	22.8	0.00e+00	0	29	0	225443840	46	6353
2026-01-16 14:28:32.82	23.36	12.31	-37.0	-38.0	22.7	0.00e+00	0	29	0	227540992	46	6428
2026-01-16 14:28:33.83	23.39	12.41	-36.9	-37.9	22.7	0.00e+00	0	30	0	229638144	46	6368
2026-01-16 14:28:34.84	23.42	12.50	-36.9	-37.9	22.8	0.00e+00	0	30	0	231735296	46	6329
2026-01-16 14:28:35.85	23.45	12.60	-36.9	-37.8	22.8	0.00e+00	5	30	0	233832448	46	6315
2026-01-16 14:28:36.86	23.48	12.70	-36.9	-37.9	22.8	0.00e+00	0	30	0	234881024	46	6359
2026-01-16 14:28:37.87	23.51	12.79	-37.0	-38.0	22.8	0.00e+00	74	30	0	236978176	46	6419
2026-01-16 14:28:38.88	23.54	12.89	-37.0	-38.0	22.7	0.00e+00	0	30	0	239075328	46	6403
2026-01-16 14:28:39.89	23.57	12.99	-37.0	-38.0	22.8	0.00e+00	0	30	0	241172480	46	6438
2026-01-16 14:28:40.90	23.60	13.09	-36.8	-37.7	22.9	0.00e+00	0	30	0	243269632	46	6236
2026-01-16 14:28:41.91	23.64	13.18	-36.8	-37.7	23.0	0.00e+00	0	30	0	244318208	46	6218
2026-01-16 14:28:42.92	23.67	13.28	-36.9	-37.9	22.8	0.00e+00	2	30	0	246415360	46	6327
2026-01-16 14:28:43.93	23.70	13.38	-36.7	-37.7	23.0	0.00e+00	0	30	0	248512512	46	6200
2026-01-16 14:28:44.94	23.73	13.48	-36.8	-37.8	23.0	0.00e+00	79	30	0	250609664	46	6254
2026-01-16 14:28:45.95	23.76	13.58	-36.8	-37.7	23.0	0.00e+00	0	30	0	252706816	46	6225
2026-01-16 14:28:46.96	23.79	13.68	-36.6	-37.5	23.1	0.00e+00	56	30	0	254803968	46	6103
2026-01-16 14:28:47.97	23.83	13.78	-36.5	-37.4	23.2	0.00e+00	0	30	0	255852544	46	6027
2026-01-16 14:28:48.98	23.86	13.88	-36.7	-37.6	23.0	0.00e+00	0	30	0	257949696	46	6160
2026-01-16 14:28:49.99	23.89	13.98	-36.7	-37.7	23.0	0.00e+00	4	30	0	260046848	46	6196
2026-01-16 14:28:51.00	23.92	14.09	-36.9	-37.8	22.8	0.00e+00	0	30	0	262144000	46	6292
2026-01-16 14:28:52.01	23.96	14.19	-36.9	-37.9	22.7	0.00e+00	92	30	0	264241152	46	6339
2026-01-16 14:28:53.02	23.99	14.29	-36.9	-37.9	22.8	0.00e+00	0	30	0	265289728	46	6335
2026-01-16 14:28:54.03	24.02	14.39	-36.8	-37.8	22.9	0.00e+00	0	30	0	267386880	46	6285
2026-01-16 14:28:55.04	24.06	14.50	-36.9	-37.8	22.8	0.00e+00	0	30	0	269484032	46	6314
2026-01-16 14:28:56.05	24.09	14.60	-36.9	-37.9	22.5	0.00e+00	0	30	0	271581184	46	6360
2026-01-16 14:28:57.06	24.13	14.71	-37.1	-38.0	22.4	0.00e+00	0	30	0	273678336	46	6452
2026-01-16 14:28:58.07	24.16	14.81	-37.4	-38.4	22.0	0.00e+00	0	30	0	274726912	46	6731
2026-01-16 14:28:59.08	24.19	14.92	-36.9	-37.9	22.9	0.00e+00	76	30	0	276824064	46	6350
2026-01-16 14:29:00.09	24.23	15.02	-36.9	-37.9	22.6	0.00e+00	0	30	0	278921216	46	6331
2026-01-16 14:29:01.10	24.26	15.13	-37.1	-38.1	22.8	0.00e+00	65	30	0	281018368	46	6498
2026-01-16 14:29:02.11	24.30	15.23	-37.0	-38.0	22.8	0.00e+00	5	30	0	283115520	46	6428
2026-01-16 14:29:03.12	24.33	15.34	-37.2	-38.2	22.6	0.00e+00	0	30	0	284164096	46	6564
2026-01-16 14:29:04.12	24.37	15.45	-37.0	-38.0	22.9	0.00e+00	0	30	0	286261248	46	6412
2026-01-16 14:29:05.14	24.41	15.56	-36.9	-37.9	22.9	0.00e+00	29	30	0	288358400	46	6344
2026-01-16 14:29:06.15	24.44	15.67	-36.9	-37.9	22.8	0.00e+00	92	30	0	290455552	46	6355
2026-01-16 14:29:07.15	24.48	15.77	-37.3	-38.3	22.6	0.00e+00	0	30	0	292552704	46	6629
2026-01-16 14:29:08.16	24.51	15.88	-37.1	-38.1	22.8	0.00e+00	92	30	0	293601280	46	6486
2026-01-16 14:29:09.17	24.55	15.99	-37.2	-38.2	22.7	0.00e+00	0	30	0	295698432	46	6595
2026-01-16 14:29:10.18	24.59	16.10	-37.2	-38.2	22.8	0.00e+00	0	30	0	297795584	46	6582
2026-01-16 14:29:11.19	24.63	16.21	-37.3	-38.3	22.7	0.00e+00	0	30	0	299892736	46	6623
2026-01-16 14:29:12.20	24.66	16.33	-37.2	-38.1	22.8	0.00e+00	27	30	0	301989888	46	6535
2026-01-16 14:29:13.21	24.70	16.44	-36.9	-37.8	23.0	0.00e+00	59	30	0	303038464	46	6299
2026-01-16 14:29:14.22	24.74	16.55	-37.0	-38.0	22.8	0.00e+00	0	30	0	305135616	46	6407
2026-01-16 14:29:15.23	24.78	16.66	-37.0	-37.9	23.0	0.00e+00	90	30	0	307232768	46	6360
2026-01-16 14:29:16.24	24.82	16.78	-37.1	-38.1	22.8	0.00e+00	0	30	0	309329920	46	6466
2026-01-16 14:29:17.24	24.85	16.89	-37.2	-38.1	22.8	0.00e+00	0	30	0	311427072	46	6526
2026-01-16 14:29:18.25	24.89	17.00	-37.1	-38.0	22.9	0.00e+00	0	30	0	312475648	46	6451
2026-01-16 14:29:19.27	24.93	17.12	-37.2	-38.2	22.8	0.00e+00	0	30	0	314572800	46	6577
2026-01-16 14:29:20.28	24.97	17.24	-37.1	-38.1	22.7	0.00e+00	61	30	0	316669952	46	6503
2026-01-16 14:29:21.29	25.01	17.35	-37.1	-38.0	22.9	0.00e+00	0	30	0	318767104	46	6449
2026-01-16 14:29:22.29	25.05	17.47	-37.3	-38.3	22.7	0.00e+00	90	30	0	320864256	46	6638
2026-01-16 14:29:23.30	25.09	17.59	-37.2	-38.2	22.8	0.00e+00	0	30	0	322961408	46	6560
2026-01-16 14:29:24.31	25.13	17.70	-37.5	-38.5	22.5	0.00e+00	83	30	0	324009984	46	6811
2026-01-16 14:29:25.32	25.17	17.82	-37.3	-38.3	22.7	0.00e+00	0	30	0	326107136	46	6663
2026-01-16 14:29:26.33	25.21	17.94	-37.3	-38.3	22.7	0.00e+00	0	30	0	328204288	46	6672
2026-01-16 14:29:27.34	25.26	18.06	-37.4	-38.4	22.7	0.00e+00	51	30	0	330301440	46	6697
2026-01-16 14:29:28.35	25.30	18.18	-37.6	-38.6	22.5	0.00e+00	0	30	0	332398592	46	6875
2026-01-16 14:29:29.36	25.34	18.30	-37.7	-38.7	22.4	0.00e+00	3	30	0	333447168	48	6203
2026-01-16 14:29:30.37	25.38	18.42	-37.5	-38.6	22.5	0.00e+00	0	30	0	335544320	48	6122
2026-01-16 14:29:31.38	25.42	18.54	-37.6	-38.6	22.5	0.00e+00	92	30	0	337641472	48	6127
2026-01-16 14:29:32.39	25.47	18.67	-37.5	-38.5	22.6	0.00e+00	0	30	0	339738624	48	6048
2026-01-16 14:29:33.40	25.51	18.79	-37.5	-38.5	22.5	0.00e+00	0	30	0	341835776	48	6091
2026-01-16 14:29:34.41	25.55	18.91	-37.5	-38.6	22.5	0.00e+00	0	30	0	342884352	48	6113
2026-01-16 14:29:35.42	25.60	19.04	-37.6	-38.6	22.4	0.00e+00	0	30	0	344981504	48	6165
2026-01-16 14:29:36.43	25.64	19.16	-37.6	-38.6	22.4	0.00e+00	86	30	0	347078656	48	6150
2026-01-16 14:29:37.44	25.69	19.29	-37.8	-38.9	22.3	0.00e+00	0	30	0	349175808	48	6321
2026-01-16 14:29:38.45	25.73	19.41	-37.5	-38.5	22.4	0.00e+00	92	30	0	351272960	48	6094
2026-01-16 14:29:39.46	25.78	19.54	-37.6	-38.6	22.5	0.00e+00	0	30	0	352321536	48	6148
2026-01-16 14:29:40.47	25.82	19.67	-37.8	-38.8	22.3	0.00e+00	0	30	0	354418688	48	6309
2026-01-16 14:29:41.49	25.87	19.80	-37.9	-39.0	22.1	0.00e+00	0	30	0	356515840	48	6456
2026-01-16 14:29:42.50	25.91	19.93	-38.1	-39.2	22.0	0.00e+00	0	30	0	358612992	48	6541
2026-01-16 14:29:43.50	25.96	20.05	-38.1	-39.2	22.0	0.00e+00	0	30	0	360710144	48	6585
2026-01-16 14:29:44.51	26.01	20.18	-38.2	-39.4	21.7	0.00e+00	0	30	0	361758720	48	6695
2026-01-16 14:29:45.53	26.06	20.32	-38.0	-39.1	22.0	0.00e+00	70	30	0	363855872	48	6504
2026-01-16 14:29:46.54	26.10	20.45	-38.1	-39.2	22.0	0.00e+00	0	30	0	365953024	48	6605
2026-01-16 14:29:47.55	26.15	20.58	-38.1	-39.2	21.9	0.00e+00	0	30	0	368050176	48	6576
2026-01-16 14:29:48.56	26.20	20.71	-38.2	-39.3	21.9	0.00e+00	0	30	0	370147328	48	6657
2026-01-16 14:29:49.57	26.25	20.85	-38.1	-39.1	22.0	0.00e+00	0	30	0	371195904	48	6529
2026-01-16 14:29:50.58	26.30	20.98	-37.7	-38.8	22.4	0.00e+00	8	30	0	373293056	48	6263
2026-01-16 14:29:51.58	26.35	21.11	-37.7	-38.7	22.4	0.00e+00	0	30	0	375390208	48	6205
2026-01-16 14:29:52.59	26.40	21.25	-37.6	-38.6	22.6	0.00e+00	92	30	0	377487360	48	6114
2026-01-16 14:29:53.60	26.45	21.38	-37.4	-38.4	22.5	0.00e+00	0	30	0	379584512	48	6018
2026-01-16 14:29:54.61	26.50	21.52	-37.4	-38.4	22.7	0.00e+00	0	30	0	380633088	48	5992
2026-01-16 14:29:55.62	26.55	21.66	-37.3	-38.3	22.7	0.00e+00	0	30	0	382730240	48	5902
2026-01-16 14:29:56.63	26.60	21.80	-37.2	-38.1	22.8	0.00e+00	0	30	0	384827392	48	5828
2026-01-16 14:29:57.64	26.65	21.94	-37.3	-38.3	22.7	0.00e+00	2	30	0	386924544	48	5937
2026-01-16 14:29:58.65	26.71	22.08	-37.5	-38.4	22.6	0.00e+00	0	30	0	389021696	48	6030
2026-01-16 14:29:59.66	26.76	22.22	-37.4	-38.3	22.6	0.00e+00	61	30	0	391118848	48	5951
2026-01-16 14:30:00.67	26.81	22.36	-37.4	-38.4	22.6	0.00e+00	0	30	0	392167424	48	5976
2026-01-16 14:30:01.68	26.87	22.50	-37.2	-38.2	22.9	0.00e+00	37	30	0	394264576	48	5838
2026-01-16 14:30:02.69	26.92	22.64	-37.1	-38.0	23.0	0.00e+00	0	30	0	396361728	48	5739
2026-01-16 14:30:03.70	26.97	22.79	-37.1	-38.0	23.1	0.00e+00	0	30	0	398458880	48	5747
2026-01-16 14:30:04.71	27.03	22.93	-37.2	-38.1	22.9	0.00e+00	2	30	0	400556032	48	5823
2026-01-16 14:30:05.72	27.09	23.08	-37.2	-38.1	22.9	0.00e+00	0	30	0	401604608	48	5817
2026-01-16 14:30:06.73	27.14	23.22	-36.9	-37.8	23.1	0.00e+00	92	30	0	403701760	48	5594
2026-01-16 14:30:07.74	27.20	23.37	-36.9	-37.9	23.2	0.00e+00	0	30	0	405798912	48	5645
2026-01-16 14:30:08.75	27.26	23.52	-36.9	-37.8	23.2	0.00e+00	62	30	0	407896064	46	6263
2026-01-16 14:30:09.76	27.31	23.67	-36.9	-37.9	23.2	0.00e+00	0	30	0	409993216	46	6331
2026-01-16 14:30:10.77	27.37	23.81	-36.8	-37.8	23.2	0.00e+00	0	30	0	411041792	46	6248
2026-01-16 14:30:11.78	27.43	23.97	-36.9	-37.8	23.1	0.00e+00	7	30	0	413138944	46	6307
2026-01-16 14:30:12.79	27.49	24.12	-36.9	-37.9	23.1	0.00e+00	0	30	0	415236096	46	6339
2026-01-16 14:30:13.80	27.55	24.27	-37.1	-38.1	23.0	0.00e+00	90	30	0	417333248	46	6484
2026-01-16 14:30:14.81	27.61	24.42	-37.3	-38.3	22.8	0.00e+00	0	30	0	419430400	46	6618
2026-01-16 14:30:15.82	27.67	24.57	-37.2	-38.1	22.9	0.00e+00	80	30	0	420478976	46	6539
2026-01-16 14:30:16.82	27.73	24.73	-37.3	-38.3	22.9	0.00e+00	0	30	0	422576128	46	6669
2026-01-16 14:30:17.83	27.79	24.88	-37.3	-38.3	22.8	0.00e+00	0	30	0	424673280	46	6661
2026-01-16 14:30:18.84	27.85	25.04	-37.5	-38.5	22.7	0.00e+00	0	30	0	426770432	46	6810
2026-01-16 14:30:19.85	27.92	25.20	-37.1	-38.1	23.0	0.00e+00	0	30	0	428867584	46	6513
2026-01-16 14:30:20.86	27.98	25.35	-37.0	-38.0	23.0	0.00e+00	7	30	0	429916160	46	6410
2026-01-16 14:30:21.87	28.05	25.51	-37.3	-38.3	22.8	0.00e+00	0	30	0	432013312	46	6640
2026-01-16 14:30:22.88	28.11	25.67	-37.2	-38.2	22.9	0.00e+00	77	30	0	434110464	46	6571
2026-01-16 14:30:23.89	28.18	25.83	-37.2	-38.2	22.9	0.00e+00	0	30	0	436207616	46	6611
2026-01-16 14:30:24.90	28.24	26.00	-36.9	-37.9	23.0	0.00e+00	0	30	0	438304768	46	6340
2026-01-16 14:30:25.91	28.31	26.16	-37.0	-38.0	23.0	0.00e+00	0	30	0	439353344	46	6445
2026-01-16 14:30:26.92	28.38	26.32	-37.5	-38.5	22.7	0.00e+00	0	30	0	441450496	46	6796
2026-01-16 14:30:27.93	28.44	26.49	-37.1	-38.1	23.0	0.00e+00	58	30	0	443547648	46	6498
2026-01-16 14:30:28.94	28.51	26.65	-37.0	-38.0	23.0	0.00e+00	0	30	0	445644800	46	6399
2026-01-16 14:30:29.95	28.58	26.82	-36.9	-37.9	23.3	0.00e+00	92	30	0	447741952	46	6343
2026-01-16 14:30:30.96	28.65	26.99	-36.6	-37.5	23.4	0.00e+00	0	30	0	448790528	46	6073
2026-01-16 14:30:31.97	28.72	27.16	-36.5	-37.5	23.5	0.00e+00	22	30	0	450887680	46	6036
2026-01-16 14:30:32.98	28.79	27.32	-36.4	-37.3	23.6	0.00e+00	0	30	0	452984832	46	5901
2026-01-16 14:30:33.99	28.87	27.50	-36.2	-37.1	23.7	0.00e+00	0	30	0	455081984	46	5806
2026-01-16 14:30:35.00	28.94	27.67	-36.1	-37.0	23.8	0.00e+00	40	30	0	457179136	46	5723
2026-01-16 14:30:36.01	29.01	27.84	-36.1	-36.9	23.9	0.00e+00	0	30	0	459276288	46	5681
2026-01-16 14:30:37.02	29.09	28.01	-36.1	-37.0	23.8	0.00e+00	92	30	0	460324864	46	5734
2026-01-16 14:30:38.03	29.16	28.19	-36.2	-37.0	23.9	0.00e+00	0	30	0	462422016	46	5748
2026-01-16 14:30:39.04	29.24	28.36	-36.2	-37.1	23.7	0.00e+00	62	30	0	464519168	46	5766
2026-01-16 14:30:40.05	29.32	28.54	-35.7	-36.6	24.2	0.00e+00	0	30	0	466616320	46	5449
2026-01-16 14:30:41.06	29.39	28.72	-36.1	-36.9	23.9	0.00e+00	0	30	0	468713472	44	6363
2026-01-16 14:30:42.07	29.47	28.90	-36.1	-37.0	23.9	0.00e+00	17	30	0	469762048	44	6447
2026-01-16 14:30:43.08	29.55	29.08	-35.9	-36.7	23.9	0.00e+00	0	30	0	471859200	44	6224
2026-01-16 14:30:44.09	29.63	29.26	-36.5	-37.4	23.5	0.00e+00	90	30	0	473956352	44	6725
2026-01-16 14:30:45.10	29.71	29.44	-36.5	-37.5	23.6	0.00e+00	0	30	0	476053504	44	6771
2026-01-16 14:30:46.11	29.79	29.63	-36.7	-37.6	23.4	0.00e+00	91	30	0	478150656	46	6128
2026-01-16 14:30:47.12	29.88	29.81	-37.0	-38.0	23.1	0.00e+00	0	30	0	479199232	46	6402
2026-01-16 14:30:48.13	29.96	30.00	-37.2	-38.2	23.0	0.00e+00	0	30	0	481296384	46	6576
2026-01-16 14:30:49.14	30.04	30.18	-37.6	-38.6	22.6	0.00e+00	10	30	0	483393536	46	6879
2026-01-16 14:30:50.15	30.13	30.37	-37.8	-38.8	22.4	0.00e+00	0	30	0	485490688	48	6295
2026-01-16 14:30:51.16	30.22	30.56	-38.3	-39.4	21.9	0.00e+00	91	30	0	487587840	48	6739
2026-01-16 14:30:52.17	30.30	30.75	-38.5	-39.7	21.7	0.00e+00	25	30	0	488636416	48	6956
2026-01-16 14:30:53.18	30.39	30.94	-38.7	-39.9	21.6	0.00e+00	91	30	0	490733568	48	7092
2026-01-16 14:30:54.19	30.48	31.14	-38.7	-39.8	21.5	0.00e+00	0	30	0	492830720	50	6268
2026-01-16 14:30:55.20	30.57	31.33	-38.6	-39.7	21.6	0.00e+00	24	30	0	494927872	50	6185
2026-01-16 14:30:56.21	30.66	31.53	-38.8	-39.9	21.4	0.00e+00	0	30	0	497025024	50	6372
2026-01-16 14:30:57.22	30.76	31.72	-38.4	-39.5	21.9	0.00e+00	0	30	0	498073600	50	6075
2026-01-16 14:30:58.23	30.85	31.92	-38.8	-40.0	21.3	0.00e+00	90	30	0	500170752	50	6415
2026-01-16 14:30:59.24	30.94	32.12	-39.0	-40.2	21.2	0.00e+00	0	30	0	502267904	50	6601
2026-01-16 14:31:00.25	31.04	32.32	-39.1	-40.3	21.0	0.00e+00	92	30	0	504365056	50	6677
2026-01-16 14:31:01.26	31.14	32.52	-39.5	-40.7	21.0	0.00e+00	0	30	0	506462208	50	6998
2026-01-16 14:31:02.26	31.23	32.72	-38.9	-40.1	21.3	0.00e+00	15	30	0	507510784	50	6516
2026-01-16 14:31:03.27	31.33	32.93	-39.4	-40.6	21.0	0.00e+00	0	30	0	509607936	50	6905
2026-01-16 14:31:04.28	31.43	33.13	-39.0	-40.1	21.3	0.00e+00	0	30	0	511705088	50	6536
2026-01-16 14:31:05.29	31.53	33.34	-39.1	-40.3	21.2	0.00e+00	58	30	0	513802240	50	6648
2026-01-16 14:31:06.30	31.64	33.55	-39.1	-40.3	21.1	0.00e+00	0	30	0	515899392	50	6692
2026-01-16 14:31:07.31	31.74	33.76	-39.3	-40.6	21.0	0.00e+00	89	30	0	516947968	50	6907
2026-01-16 14:31:08.32	31.85	33.97	-39.5	-40.8	20.8	0.00e+00	0	30	0	519045120	50	7046
2026-01-16 14:31:09.33	31.95	34.18	-39.3	-40.6	21.0	0.00e+00	0	30	0	521142272	50	6856
2026-01-16 14:31:10.34	32.06	34.39	-39.1	-40.3	21.2	0.00e+00	0	30	0	523239424	50	6666
2026-01-16 14:31:11.35	32.17	34.61	-39.4	-40.6	21.1	0.00e+00	0	30	0	525336576	50	6909
2026-01-16 14:31:12.35	32.28	34.82	-39.2	-40.4	21.1	0.00e+00	57	30	0	527433728	50	6710
2026-01-16 14:31:13.36	32.39	35.04	-39.3	-40.5	21.2	0.00e+00	0	30	0	528482304	52	6043
2026-01-16 14:31:14.37	32.51	35.26	-40.0	-41.3	20.4	0.00e+00	74	30	0	530579456	52	6649
2026-01-16 14:31:15.38	32.62	35.48	-39.6	-40.9	20.9	0.00e+00	0	30	0	532676608	52	6329
2026-01-16 14:31:16.39	32.74	35.70	-39.6	-40.9	20.9	0.00e+00	0	30	0	534773760	52	6337
2026-01-16 14:31:17.40	32.86	35.93	-40.0	-41.4	20.3	0.00e+00	0	30	0	536870912	52	6706
2026-01-16 14:31:18.41	32.98	36.15	-40.0	-41.3	20.5	0.00e+00	25	30	0	537919488	52	6665
2026-01-16 14:31:19.42	33.10	36.38	-39.6	-40.9	20.3	0.00e+00	0	30	0	540016640	52	6345
2026-01-16 14:31:20.43	33.22	36.61	-40.0	-41.3	20.5	0.00e+00	0	30	0	542113792	52	6622
2026-01-16 14:31:21.44	33.35	36.84	-39.7	-41.0	20.7	0.00e+00	11	30	0	544210944	52	6394
2026-01-16 14:31:22.45	33.47	37.07	-39.8	-41.1	20.8	0.00e+00	0	30	0	546308096	52	6529
2026-01-16 14:31:23.46	33.60	37.30	-39.8	-41.1	20.6	0.00e+00	89	30	0	547356672	52	6475
2026-01-16 14:31:24.47	33.73	37.53	-40.4	-41.9	19.8	0.00e+00	0	30	0	549453824	52	7109
2026-01-16 14:31:25.47	33.86	37.76	-40.7	-42.1	19.5	0.00e+00	0	30	0	551550976	52	7334
2026-01-16 14:31:26.48	34.00	38.00	-41.2	-42.8	18.9	0.00e+00	0	30	0	553648128	54	7049
2026-01-16 14:31:27.50	34.13	38.24	-41.1	-42.7	19.0	0.00e+00	0	30	0	555745280	54	6930
2026-01-16 14:31:28.51	34.27	38.48	-40.9	-42.4	19.3	0.00e+00	0	30	0	556793856	54	6769
2026-01-16 14:31:29.51	34.41	38.72	-40.6	-42.1	19.4	0.00e+00	0	30	0	558891008	54	6468
2026-01-16 14:31:30.52	34.55	38.96	-40.2	-41.6	20.2	0.00e+00	92	30	0	560988160	54	6126
2026-01-16 14:31:31.53	34.70	39.21	-40.3	-41.7	20.0	0.00e+00	0	30	0	563085312	54	6239
2026-01-16 14:31:32.54	34.84	39.45	-40.7	-42.2	19.8	0.00e+00	0	30	0	565182464	54	6548
2026-01-16 14:31:33.55	34.99	39.70	-40.9	-42.5	19.1	0.00e+00	0	30	0	566231040	54	6831
2026-01-16 14:31:34.56	35.14	39.95	-40.9	-42.5	19.3	0.00e+00	0	31	0	568328192	54	6832
2026-01-16 14:31:35.57	35.29	40.20	-40.9	-42.5	18.9	0.00e+00	3	30	0	570425344	54	6786
2026-01-16 14:31:36.58	35.45	40.45	-41.6	-43.4	18.5	0.00e+00	0	30	0	572522496	56	6769
2026-01-16 14:31:37.59	35.60	40.71	-41.3	-43.0	18.7	0.00e+00	91	30	0	574619648	56	6420
2026-01-16 14:31:38.60	35.76	40.96	-41.8	-43.7	18.5	0.00e+00	0	30	0	575668224	56	6962
2026-01-16 14:31:39.61	35.93	41.22	-40.7	-42.2	19.5	0.00e+00	0	30	0	577765376	54	6556
2026-01-16 14:31:40.62	36.09	41.48	-40.9	-42.5	19.5	0.00e+00	0	30	0	579862528	54	6772
2026-01-16 14:31:41.63	36.26	41.74	-40.2	-41.6	20.1	0.00e+00	0	30	0	581959680	54	6150
2026-01-16 14:31:42.64	36.43	42.00	-40.5	-42.0	19.8	0.00e+00	85	30	0	584056832	54	6451
2026-01-16 14:31:43.65	36.60	42.26	-40.4	-41.9	19.6	0.00e+00	0	30	0	585105408	54	6388
2026-01-16 14:31:44.66	36.77	42.53	-40.6	-42.1	19.6	0.00e+00	91	30	0	587202560	54	6515
2026-01-16 14:31:45.67	36.95	42.79	-40.2	-41.6	19.9	0.00e+00	0	30	0	589299712	54	6155
2026-01-16 14:31:46.68	37.13	43.06	-40.5	-42.1	19.9	0.00e+00	2	30	0	591396864	54	6472
2026-01-16 14:31:47.69	37.32	43.33	-40.0	-41.3	20.4	0.00e+00	0	31	0	593494016	54	5959
2026-01-16 14:31:48.70	37.50	43.60	-39.3	-40.5	21.4	0.00e+00	0	31	0	595591168	52	6049
2026-01-16 14:31:49.71	37.70	43.88	-39.2	-40.4	21.3	0.00e+00	6	31	0	596639744	52	5966
2026-01-16 14:31:50.72	37.89	44.15	-37.9	-38.9	22.3	0.00e+00	0	30	0	598736896	50	5651
2026-01-16 14:31:51.73	38.09	44.43	-37.3	-38.3	22.8	0.00e+00	92	30	0	600834048	48	5925
2026-01-16 14:31:52.74	38.29	44.71	-37.7	-38.7	22.4	0.00e+00	0	30	0	602931200	48	6216
2026-01-16 14:31:53.75	38.49	44.98	-37.4	-38.3	22.4	0.00e+00	92	30	0	605028352	48	5954
2026-01-16 14:31:54.76	38.70	45.27	-37.3	-38.2	22.9	0.00e+00	0	30	0	606076928	48	5859
2026-01-16 14:31:55.77	38.91	45.55	-37.3	-38.2	22.9	0.00e+00	0	30	0	608174080	48	5872
2026-01-16 14:31:56.78	39.12	45.83	-37.4	-38.3	22.8	0.00e+00	0	30	0	610271232	48	5941
2026-01-16 14:31:57.79	39.34	46.12	-37.4	-38.3	22.9	0.00e+00	0	30	0	612368384	48	5949
2026-01-16 14:31:58.80	39.56	46.41	-37.4	-38.3	22.8	0.00e+00	91	31	0	614465536	48	5964
2026-01-16 14:31:59.81	39.79	46.69	-37.7	-38.8	22.6	0.00e+00	0	31	0	615514112	48	6250
2026-01-16 14:32:00.82	40.02	46.98	-38.4	-39.5	21.9	0.00e+00	88	31	0	617611264	48	6793
2026-01-16 14:32:01.84	40.26	47.28	-38.8	-39.9	21.6	0.00e+00	0	30	0	619708416	50	6358
2026-01-16 14:32:02.84	40.49	47.57	-39.3	-40.5	21.0	0.00e+00	0	31	0	621805568	50	6838
2026-01-16 14:32:03.86	40.74	47.87	-39.3	-40.5	21.1	0.00e+00	0	30	0	623902720	50	6835
2026-01-16 14:32:04.87	40.99	48.16	-39.0	-40.2	21.4	0.00e+00	0	30	0	624951296	50	6564
2026-01-16 14:32:05.87	41.24	48.46	-39.3	-40.5	20.9	0.00e+00	20	31	0	627048448	50	6822
2026-01-16 14:32:06.88	41.50	48.76	-38.4	-39.5	22.0	0.00e+00	0	30	0	629145600	50	6035
2026-01-16 14:32:07.89	41.76	49.06	-38.3	-39.3	21.9	0.00e+00	62	30	0	631242752	50	5952
2026-01-16 14:32:08.90	42.03	49.36	-38.0	-39.0	22.4	0.00e+00	0	31	0	633339904	48	6438
2026-01-16 14:32:09.91	42.30	49.67	-37.9	-39.0	22.4	0.00e+00	0	31	0	634388480	48	6431
2026-01-16 14:32:10.92	42.58	49.97	-37.5	-38.5	22.8	0.00e+00	0	30	0	636485632	48	6045
2026-01-16 14:32:11.93	42.86	50.28	-37.8	-38.9	22.3	0.00e+00	0	30	0	638582784	48	6329
2026-01-16 14:32:12.94	43.15	50.58	-38.1	-39.1	22.3	0.00e+00	88	31	0	640679936	48	6529
2026-01-16 14:32:13.96	43.45	50.90	-38.2	-39.3	22.1	0.00e+00	0	31	0	642777088	48	6664
2026-01-16 14:32:14.96	43.75	51.20	-38.7	-39.9	21.4	0.00e+00	71	31	0	643825664	48	7113
2026-01-16 14:32:15.97	44.06	51.52	-38.1	-39.3	21.9	0.00e+00	0	30	0	645922816	50	5923
2026-01-16 14:32:16.98	44.37	51.83	-37.4	-38.5	22.6	0.00e+00	0	30	0	648019968	48	6052
2026-01-16 14:32:17.99	44.69	52.14	-36.8	-37.8	23.3	0.00e+00	0	31	0	650117120	48	5625
2026-01-16 14:32:19.00	45.02	52.46	-36.4	-37.4	23.6	0.00e+00	0	31	0	652214272	46	5976
2026-01-16 14:32:20.01	45.36	52.77	-36.0	-36.9	23.8	0.00e+00	0	30	0	653262848	46	5672
2026-01-16 14:32:21.02	45.70	53.09	-35.9	-36.8	24.0	0.00e+00	0	31	0	655360000	46	5588
2026-01-16 14:32:22.03	46.05	53.41	-35.9	-36.8	24.0	0.00e+00	79	31	0	657457152	44	6278
2026-01-16 14:32:23.04	46.41	53.73	-35.7	-36.6	24.2	0.00e+00	0	31	0	659554304	44	6157
2026-01-16 14:32:24.05	46.77	54.05	-35.6	-36.5	24.3	0.00e+00	0	31	0	661651456	44	6080
2026-01-16 14:32:25.06	47.14	54.37	-35.3	-36.2	24.5	0.00e+00	0	31	0	663748608	44	5843
2026-01-16 14:32:26.07	47.53	54.69	-35.1	-36.0	24.7	0.00e+00	8	30	0	664797184	44	5722
2026-01-16 14:32:27.08	47.92	55.01	-35.1	-35.9	24.7	0.00e+00	32	31	0	666894336	44	5657
2026-01-16 14:32:28.09	48.32	55.34	-35.0	-35.8	24.6	0.00e+00	0	31	0	668991488	44	5615
2026-01-16 14:32:29.10	48.72	55.66	-34.5	-35.3	24.9	0.00e+00	79	31	0	671088640	42	5934
2026-01-16 14:32:30.11	49.14	55.98	-34.8	-35.6	24.8	0.00e+00	0	31	0	673185792	42	6143
2026-01-16 14:32:31.12	49.57	56.31	-35.1	-35.9	24.7	0.00e+00	83	31	0	674234368	42	6373
2026-01-16 14:32:32.13	50.01	56.63	-35.1	-35.9	24.6	0.00e+00	0	30	0	676331520	42	6360
2026-01-16 14:32:33.14	50.45	56.96	-34.7	-35.5	24.9	0.00e+00	19	30	0	678428672	42	6083
2026-01-16 14:32:34.14	50.91	57.28	-34.6	-35.3	25.1	0.00e+00	0	31	0	680525824	42	5942
2026-01-16 14:32:35.15	51.38	57.61	-34.8	-35.5	25.0	0.00e+00	0	31	0	682622976	42	6096
2026-01-16 14:32:36.16	51.86	57.93	-35.0	-35.8	24.7	0.00e+00	90	31	0	683671552	42	6260
2026-01-16 14:32:37.17	52.35	58.26	-35.1	-36.0	24.6	0.00e+00	0	31	0	685768704	42	6397
2026-01-16 14:32:38.18	52.86	58.58	-35.1	-35.9	24.8	0.00e+00	84	31	0	687865856	42	6385
2026-01-16 14:32:39.19	53.37	58.91	-35.0	-35.8	25.0	0.00e+00	20	31	0	689963008	42	6256
2026-01-16 14:32:40.20	53.90	59.23	-35.4	-36.2	24.3	0.00e+00	0	31	0	692060160	42	6595
2026-01-16 14:32:41.21	54.45	59.56	-36.1	-37.0	23.4	0.00e+00	0	31	0	693108736	44	6398
2026-01-16 14:32:42.22	55.00	59.88	-36.7	-37.6	23.3	0.00e+00	0	31	0	695205888	44	6870
2026-01-16 14:32:43.23	55.57	60.20	-36.9	-37.8	23.3	0.00e+00	92	30	0	697303040	46	6295
2026-01-16 14:32:44.24	56.16	60.52	-37.2	-38.2	23.1	0.00e+00	0	30	0	699400192	46	6550
2026-01-16 14:32:45.25	56.76	60.84	-37.0	-37.9	23.1	0.00e+00	92	30	0	701497344	46	6384
2026-01-16 14:32:46.26	57.37	61.16	-37.5	-38.5	22.6	0.00e+00	0	30	0	702545920	46	6825
2026-01-16 14:32:47.27	58.00	61.48	-37.4	-38.4	22.6	0.00e+00	0	30	0	704643072	48	6018
2026-01-16 14:32:48.28	58.65	61.80	-37.0	-38.0	23.2	0.00e+00	0	30	0	706740224	48	5718
2026-01-16 14:32:49.28	59.31	62.11	-35.8	-36.7	24.2	0.00e+00	0	30	0	708837376	46	5555
2026-01-16 14:32:50.29	59.99	62.42	-35.2	-36.0	24.5	0.00e+00	89	30	0	710934528	44	5717
2026-01-16 14:32:51.30	60.69	62.73	-34.8	-35.6	24.9	0.00e+00	0	31	0	711983104	42	6138
2026-01-16 14:32:52.31	61.40	63.04	-35.1	-35.9	24.5	0.00e+00	92	30	0	714080256	42	6371
2026-01-16 14:32:53.32	62.14	63.35	-35.5	-36.3	24.1	0.00e+00	0	30	0	716177408	42	6679
2026-01-16 14:32:54.33	62.89	63.65	-35.4	-36.2	24.4	0.00e+00	0	30	0	718274560	44	5887
2026-01-16 14:32:55.34	63.67	63.95	-34.7	-35.5	24.9	0.00e+00	0	30	0	720371712	44	5404
2026-01-16 14:32:56.36	64.47	64.25	-34.5	-35.3	25.0	0.00e+00	0	30	0	721420288	42	5928
2026-01-16 14:32:57.36	65.28	64.55	-34.7	-35.4	24.9	0.00e+00	10	30	0	723517440	42	6026
2026-01-16 14:32:58.37	66.11	64.84	-34.8	-35.5	24.5	0.00e+00	0	30	0	725614592	42	6085
2026-01-16 14:32:59.38	66.97	65.12	-34.8	-35.5	24.8	0.00e+00	59	30	0	727711744	42	6079
2026-01-16 14:33:00.39	67.85	65.41	-35.0	-35.7	24.7	0.00e+00	0	30	0	729808896	42	6243
2026-01-16 14:33:01.40	68.75	65.69	-35.5	-36.3	24.5	0.00e+00	70	30	0	731906048	42	6628
2026-01-16 14:33:02.41	69.68	65.96	-35.2	-36.0	24.5	0.00e+00	0	30	0	732954624	44	5716
2026-01-16 14:33:03.42	70.63	66.23	-35.8	-36.6	24.1	0.00e+00	0	30	0	735051776	44	6167
2026-01-16 14:33:04.43	71.60	66.50	-37.1	-38.1	23.2	0.00e+00	5	30	0	737148928	46	6484
2026-01-16 14:33:05.44	72.59	66.75	-37.9	-39.0	22.2	0.00e+00	0	30	0	739246080	48	6420
2026-01-16 14:33:06.45	73.61	67.01	-38.3	-39.4	22.1	0.00e+00	90	30	0	741343232	48	6699
2026-01-16 14:33:07.47	74.67	67.26	-39.6	-40.9	20.7	0.00e+00	0	30	0	742391808	50	7105
2026-01-16 14:33:08.48	75.74	67.50	-39.0	-40.1	21.2	0.00e+00	0	30	0	744488960	52	5828
2026-01-16 14:33:09.48	76.82	67.73	-38.0	-39.0	22.0	0.00e+00	0	30	0	746586112	50	5710
2026-01-16 14:33:10.49	77.94	67.96	-38.3	-39.4	21.9	0.00e+00	0	30	0	748683264	48	6701
2026-01-16 14:33:11.51	79.10	68.18	-39.5	-40.8	20.3	0.00e+00	0	30	0	750780416	50	7015
2026-01-16 14:33:12.52	80.27	68.39	-40.6	-42.0	19.9	0.00e+00	0	30	0	751828992	52	7245
2026-01-16 14:33:13.52	81.45	68.60	-40.8	-42.4	19.7	0.00e+00	10	30	0	753926144	54	6696
2026-01-16 14:33:14.53	82.67	68.79	-40.0	-41.3	19.5	0.00e+00	0	30	0	756023296	54	5962
2026-01-16 14:33:15.54	83.91	68.98	-40.2	-41.6	20.1	0.00e+00	92	30	0	758120448	54	6143
2026-01-16 14:33:16.55	85.17	69.16	-40.7	-42.2	19.8	0.00e+00	0	30	0	760217600	54	6575
2026-01-16 14:33:17.56	86.46	69.33	-40.6	-42.1	19.7	0.00e+00	0	30	0	761266176	54	6505
2026-01-16 14:33:18.57	87.77	69.49	-38.9	-40.1	21.6	0.00e+00	0	30	0	763363328	52	5767
2026-01-16 14:33:19.58	89.11	69.64	-38.9	-40.0	21.6	0.00e+00	0	30	0	765460480	50	6421
2026-01-16 14:33:20.59	90.46	69.78	-39.4	-40.6	21.0	0.00e+00	58	30	0	767557632	50	6882
2026-01-16 14:33:21.60	91.83	69.91	-39.6	-40.8	21.0	0.00e+00	0	30	0	769654784	52	6263
2026-01-16 14:33:22.61	93.22	70.03	-38.5	-39.5	22.0	0.00e+00	49	30	0	770703360	50	6089
2026-01-16 14:33:23.63	94.64	70.14	-37.9	-38.8	22.5	0.00e+00	0	30	0	772800512	50	5618
2026-01-16 14:33:24.63	96.05	70.23	-37.8	-38.8	22.5	0.00e+00	0	30	0	774897664	48	6253
2026-01-16 14:33:25.65	97.50	70.32	-37.1	-38.0	23.4	0.00e+00	0	30	0	776994816	48	5700
2026-01-16 14:33:26.66	98.95	70.40	-36.2	-37.0	23.9	0.00e+00	0	30	0	779091968	46	5759
2026-01-16 14:33:27.67	100.41	70.46	-36.1	-37.0	24.0	0.00e+00	8	30	0	780140544	46	5700
2026-01-16 14:33:28.68	101.88	70.51	-37.2	-38.1	22.7	0.00e+00	0	30	0	782237696	46	6532
2026-01-16 14:33:29.68	103.35	70.55	-38.1	-39.1	22.2	0.00e+00	90	30	0	784334848	48	6493
2026-01-16 14:33:30.69	104.83	70.57	-37.6	-38.6	22.7	0.00e+00	0	30	0	786432000	48	6146
2026-01-16 14:33:31.70	106.31	70.59	-37.6	-38.5	22.8	0.00e+00	0	30	0	788529152	48	6101
2026-01-16 14:33:32.71	107.80	70.59	-38.9	-40.0	21.6	0.00e+00	0	30	0	789577728	48	7244
2026-01-16 14:33:33.72	109.29	70.58	-39.6	-40.9	21.0	0.00e+00	27	30	0	791674880	50	7113
2026-01-16 14:33:34.73	110.77	70.56	-38.6	-39.7	21.7	0.00e+00	6	30	0	793772032	50	6187
2026-01-16 14:33:35.74	112.25	70.52	-38.1	-39.0	22.4	0.00e+00	0	30	0	795869184	50	5750
2026-01-16 14:33:36.75	113.72	70.48	-38.6	-39.7	21.8	0.00e+00	91	30	0	797966336	50	6193
2026-01-16 14:33:37.76	115.19	70.42	-39.5	-40.7	20.6	0.00e+00	0	30	0	800063488	50	6970
2026-01-16 14:33:38.78	116.66	70.35	-40.7	-42.2	19.6	0.00e+00	25	30	0	801112064	52	7368
2026-01-16 14:33:39.78	118.09	70.27	-41.5	-43.3	18.5	0.00e+00	0	30	0	803209216	54	7466
2026-01-16 14:33:40.79	119.51	70.17	-42.3	-44.3	17.5	0.00e+00	0	30	0	805306368	56	7496
2026-01-16 14:33:41.80	120.93	70.07	-41.5	-43.1	18.8	0.00e+00	0	30	0	807403520	56	6529
2026-01-16 14:33:42.81	122.33	69.95	-41.5	-43.1	19.1	0.00e+00	0	30	0	809500672	56	6529
2026-01-16 14:33:43.82	123.71	69.83	-41.7	-43.5	17.9	0.00e+00	92	30	0	810549248	56	6811
2026-01-16 14:33:44.84	125.08	69.69	-41.3	-43.0	19.2	0.00e+00	0	30	0	812646400	56	6414
2026-01-16 14:33:45.84	126.41	69.55	-40.1	-41.4	20.8	0.00e+00	43	30	0	814743552	54	5971
2026-01-16 14:33:46.86	127.74	69.39	-40.0	-41.2	20.4	0.00e+00	0	30	0	816840704	52	6608
2026-01-16 14:33:47.87	129.04	69.22	-41.4	-43.0	19.0	0.00e+00	0	30	0	818937856	54	7226
2026-01-16 14:33:48.88	130.31	69.04	-40.0	-41.2	20.7	0.00e+00	7	30	0	819986432	54	5852
2026-01-16 14:33:49.89	131.56	68.86	-39.3	-40.4	21.1	0.00e+00	0	30	0	822083584	52	6023
2026-01-16 14:33:50.90	132.79	68.67	-38.5	-39.6	21.8	0.00e+00	90	30	0	824180736	50	6139
2026-01-16 14:33:51.91	133.99	68.46	-38.7	-39.7	21.7	0.00e+00	0	30	0	826277888	50	6245
2026-01-16 14:33:52.92	135.17	68.25	-39.0	-40.2	21.3	0.00e+00	92	30	0	828375040	50	6581
2026-01-16 14:33:53.93	136.33	68.04	-39.5	-40.8	20.9	0.00e+00	0	30	0	829423616	50	7017
2026-01-16 14:33:54.94	137.45	67.81	-39.6	-40.9	20.7	0.00e+00	0	30	0	831520768	50	7141
2026-01-16 14:33:55.95	138.56	67.58	-39.6	-40.9	20.8	0.00e+00	0	30	0	833617920	52	6329
2026-01-16 14:33:56.96	139.64	67.34	-37.8	-38.9	22.5	0.00e+00	0	30	0	835715072	50	5648
2026-01-16 14:33:57.97	140.69	67.09	-35.7	-36.5	24.2	0.00e+00	9	30	0	837812224	46	5438
2026-01-16 14:33:58.97	141.71	66.84	-35.0	-35.8	24.7	0.00e+00	0	30	0	839909376	44	5598
2026-01-16 14:33:59.99	142.73	66.58	-36.2	-37.2	23.6	0.00e+00	81	30	0	840957952	44	6542
2026-01-16 14:34:00.98	143.69	66.33	-37.6	-38.7	22.7	0.00e+00	0	30	0	843055104	48	6199
2026-01-16 14:34:01.98	144.64	66.06	-36.5	-37.4	23.7	0.00e+00	0	30	0	845152256	48	5346
2026-01-16 14:34:02.99	145.57	65.79	-35.0	-35.8	24.6	0.00e+00	0	30	0	847249408	44	5611
2026-01-16 14:34:04.00	146.49	65.51	-34.3	-35.0	25.3	0.00e+00	0	30	0	848297984	42	5753
2026-01-16 14:34:05.01	147.37	65.23	-34.4	-35.2	25.2	0.00e+00	0	30	0	850395136	42	5832
2026-01-16 14:34:06.02	148.24	64.94	-34.0	-34.8	25.5	0.00e+00	0	30	0	852492288	42	5587
2026-01-16 14:34:07.03	149.09	64.65	-34.1	-34.9	25.3	0.00e+00	73	30	0	854589440	42	5679
2026-01-16 14:34:08.04	149.91	64.36	-34.3	-35.1	25.3	0.00e+00	0	30	0	856686592	42	5767
2026-01-16 14:34:09.05	150.71	64.06	-34.4	-35.2	25.1	0.00e+00	0	30	0	857735168	42	5889
2026-01-16 14:34:10.06	151.50	63.76	-34.9	-35.7	24.8	0.00e+00	0	30	0	859832320	42	6202
2026-01-16 14:34:11.07	152.26	63.46	-34.4	-35.2	25.3	0.00e+00	0	30	0	861929472	42	5853
2026-01-16 14:34:12.08	153.00	63.15	-33.5	-34.2	25.7	0.00e+00	9	30	0	864026624	42	5242
2026-01-16 14:34:13.09	153.73	62.84	-33.4	-34.2	25.8	0.00e+00	0	30	0	866123776	40	5840
2026-01-16 14:34:14.10	154.43	62.53	-34.2	-35.0	25.3	0.00e+00	70	30	0	868220928	40	6393
2026-01-16 14:34:15.11	155.12	62.22	-34.9	-35.7	24.9	0.00e+00	0	30	0	869269504	42	6212
2026-01-16 14:34:16.12	155.79	61.90	-34.4	-35.2	25.3	0.00e+00	92	30	0	871366656	42	5859
2026-01-16 14:34:17.13	156.44	61.59	-33.4	-34.1	25.0	0.00e+00	26	30	0	873463808	40	5826
2026-01-16 14:34:18.14	157.08	61.27	-33.3	-34.0	25.8	0.00e+00	0	30	0	875560960	40	5739
2026-01-16 14:34:19.15	157.70	60.95	-34.0	-34.7	25.3	0.00e+00	3	30	0	877658112	40	6224
2026-01-16 14:34:20.16	158.31	60.63	-35.2	-36.0	24.6	0.00e+00	8	30	0	878706688	42	6432
2026-01-16 14:34:21.17	158.90	60.31	-35.5	-36.3	24.4	0.00e+00	33	30	0	880803840	42	6691
2026-01-16 14:34:22.18	159.48	59.98	-33.9	-34.6	25.7	0.00e+00	0	30	0	882900992	42	5484
2026-01-16 14:34:23.19	160.04	59.66	-33.7	-34.4	25.5	0.00e+00	91	30	0	884998144	40	6033
2026-01-16 14:34:24.19	160.58	59.34	-34.0	-34.7	25.2	0.00e+00	0	30	0	887095296	40	6229
2026-01-16 14:34:25.21	161.12	59.01	-34.4	-35.2	25.1	0.00e+00	0	30	0	888143872	40	6545
2026-01-16 14:34:26.22	161.64	58.68	-34.7	-35.5	24.7	0.00e+00	5	30	0	890241024	42	6068
2026-01-16 14:34:27.23	162.15	58.36	-36.3	-37.2	23.7	0.00e+00	0	30	0	892338176	44	6606
2026-01-16 14:34:28.24	162.65	58.03	-36.1	-37.0	23.8	0.00e+00	92	30	0	894435328	44	6446
2026-01-16 14:34:29.25	163.14	57.70	-35.0	-35.8	24.7	0.00e+00	0	30	0	896532480	44	5600
2026-01-16 14:34:30.26	163.61	57.38	-35.3	-36.1	24.5	0.00e+00	92	30	0	897581056	44	5814
2026-01-16 14:34:31.27	164.07	57.05	-36.3	-37.3	23.7	0.00e+00	0	30	0	899678208	44	6622
2026-01-16 14:34:32.27	164.52	56.73	-37.2	-38.3	23.1	0.00e+00	0	30	0	901775360	46	6627
2026-01-16 14:34:33.28	164.96	56.40	-36.3	-37.2	23.8	0.00e+00	9	30	0	903872512	46	5890
2026-01-16 14:34:34.29	165.39	56.08	-35.2	-36.0	24.8	0.00e+00	0	30	0	905969664	44	5746
2026-01-16 14:34:35.30	165.82	55.75	-34.1	-34.8	25.3	0.00e+00	5	30	0	907018240	42	5613
2026-01-16 14:34:36.31	166.23	55.43	-34.7	-35.4	25.0	0.00e+00	0	30	0	909115392	42	6020
2026-01-16 14:34:37.32	166.63	55.10	-35.6	-36.5	24.3	0.00e+00	49	30	0	911212544	42	6800
2026-01-16 14:34:38.33	167.02	54.78	-35.4	-36.3	24.4	0.00e+00	0	30	0	913309696	42	6616
2026-01-16 14:34:39.34	167.41	54.46	-34.1	-35.0	25.3	0.00e+00	0	30	0	915406848	42	5698
2026-01-16 14:34:40.35	167.79	54.13	-33.3	-34.0	25.9	0.00e+00	0	30	0	916455424	40	5739
2026-01-16 14:34:41.36	168.15	53.81	-33.4	-34.2	25.7	0.00e+00	0	30	0	918552576	40	5837
2026-01-16 14:34:42.37	168.51	53.49	-33.4	-34.1	25.7	0.00e+00	7	30	0	920649728	40	5816
2026-01-16 14:34:43.38	168.87	53.17	-34.2	-35.0	25.2	0.00e+00	0	30	0	922746880	40	6438
2026-01-16 14:34:44.38	169.21	52.86	-35.1	-36.0	24.6	0.00e+00	51	30	0	924844032	42	6408
2026-01-16 14:34:45.39	169.55	52.54	-35.1	-35.9	24.6	0.00e+00	0	30	0	925892608	42	6363
2026-01-16 14:34:46.40	169.88	52.22	-34.5	-35.3	25.1	0.00e+00	91	30	0	927989760	42	5919
2026-01-16 14:34:47.42	170.20	51.91	-33.9	-34.6	25.6	0.00e+00	0	30	0	930086912	42	5483
2026-01-16 14:34:48.43	170.52	51.59	-33.5	-34.2	25.8	0.00e+00	0	30	0	932184064	40	5841
2026-01-16 14:34:49.43	170.83	51.28	-34.5	-35.3	25.0	0.00e+00	73	30	0	934281216	40	6684
2026-01-16 14:34:50.44	171.13	50.97	-36.3	-37.2	23.6	0.00e+00	0	30	0	936378368	44	6580
2026-01-16 14:34:51.45	171.43	50.66	-37.2	-38.2	23.0	0.00e+00	70	30	0	937426944	46	6595
2026-01-16 14:34:52.46	171.72	50.35	-36.7	-37.7	23.5	0.00e+00	0	30	0	939524096	46	6193
2026-01-16 14:34:53.48	172.01	50.04	-35.3	-36.1	24.4	0.00e+00	75	30	0	941621248	44	5812
2026-01-16 14:34:54.49	172.29	49.73	-34.8	-35.6	24.9	0.00e+00	0	29	0	943718400	44	5493
2026-01-16 14:34:55.50	172.57	49.43	-35.9	-36.9	23.8	0.00e+00	0	29	0	945815552	42	7089
2026-01-16 14:34:56.51	172.84	49.12	-36.9	-37.9	23.2	0.00e+00	0	30	0	946864128	44	7122
2026-01-16 14:34:57.52	173.10	48.82	-37.3	-38.3	23.0	0.00e+00	0	30	0	948961280	46	6664
2026-01-16 14:34:58.53	173.36	48.52	-38.1	-39.2	22.1	0.00e+00	29	30	0	951058432	48	6600
2026-01-16 14:34:59.54	173.62	48.22	-39.2	-40.5	20.9	0.00e+00	0	30	0	953155584	50	6803
2026-01-16 14:35:00.55	173.87	47.92	-40.1	-41.6	20.1	0.00e+00	91	29	0	955252736	52	6878
2026-01-16 14:35:01.56	174.11	47.63	-40.6	-42.1	19.7	0.00e+00	0	30	0	956301312	52	7291
2026-01-16 14:35:02.57	174.35	47.33	-40.4	-42.0	19.2	0.00e+00	0	30	0	958398464	54	6433
2026-01-16 14:35:03.58	174.59	47.04	-39.8	-41.1	20.6	0.00e+00	32	30	0	960495616	54	5807
2026-01-16 14:35:04.58	174.82	46.75	-39.1	-40.3	21.3	0.00e+00	0	30	0	962592768	52	5954
2026-01-16 14:35:05.59	175.05	46.46	-38.2	-39.3	22.2	0.00e+00	25	30	0	964689920	50	5899
2026-01-16 14:35:06.60	175.27	46.17	-38.0	-39.0	22.4	0.00e+00	0	30	0	965738496	50	5746
2026-01-16 14:35:07.61	175.49	45.88	-38.4	-39.4	21.9	0.00e+00	92	30	0	967835648	48	6750
2026-01-16 14:35:08.62	175.71	45.60	-39.3	-40.6	20.6	0.00e+00	0	29	0	969932800	50	6903
2026-01-16 14:35:09.63	175.92	45.31	-39.9	-41.4	20.2	0.00e+00	0	30	0	972029952	52	6753
2026-01-16 14:35:10.64	176.13	45.03	-39.3	-40.7	21.2	0.00e+00	0	30	0	974127104	52	6225
2026-01-16 14:35:11.65	176.33	44.75	-38.6	-39.8	21.8	0.00e+00	0	29	0	975175680	50	6298
2026-01-16 14:35:12.66	176.53	44.47	-37.6	-38.7	22.6	0.00e+00	3	30	0	977272832	48	6195
2026-01-16 14:35:13.67	176.73	44.19	-37.1	-38.1	23.2	0.00e+00	0	29	0	979369984	48	5789
2026-01-16 14:35:14.68	176.93	43.92	-36.8	-37.7	23.4	0.00e+00	91	29	0	981467136	46	6222
2026-01-16 14:35:15.69	177.12	43.64	-36.9	-37.8	23.1	0.00e+00	0	29	0	983564288	46	6282
2026-01-16 14:35:16.70	177.31	43.37	-37.5	-38.6	22.6	0.00e+00	0	29	0	984612864	46	6849
2026-01-16 14:35:17.71	177.49	43.10	-38.1	-39.2	22.3	0.00e+00	0	29	0	986710016	48	6567
2026-01-16 14:35:18.72	177.67	42.83	-38.9	-40.1	21.4	0.00e+00	0	29	0	988807168	50	6509
2026-01-16 14:35:19.73	177.85	42.56	-38.3	-39.4	22.1	0.00e+00	4	29	0	990904320	50	6003
2026-01-16 14:35:20.74	178.03	42.30	-37.6	-38.6	22.5	0.00e+00	0	30	0	993001472	48	6151
2026-01-16 14:35:21.75	178.20	42.03	-36.1	-37.0	24.0	0.00e+00	92	29	0	994050048	46	5706
2026-01-16 14:35:22.77	178.38	41.76	-34.5	-35.3	25.1	0.00e+00	0	29	0	996147200	42	5913
2026-01-16 14:35:23.78	178.54	41.50	-34.1	-34.8	24.5	0.00e+00	0	29	0	998244352	42	5620
2026-01-16 14:35:24.79	178.71	41.24	-34.3	-35.0	25.0	0.00e+00	0	29	0	1000341504	42	5752
2026-01-16 14:35:25.80	178.87	40.98	-35.2	-36.0	24.6	0.00e+00	0	29	0	1002438656	42	6445
2026-01-16 14:35:26.81	179.03	40.73	-35.7	-36.6	24.1	0.00e+00	11	29	0	1004535808	42	6880
2026-01-16 14:35:27.82	179.19	40.47	-36.6	-37.6	23.5	0.00e+00	0	29	0	1005584384	46	6108
2026-01-16 14:35:28.83	179.35	40.22	-37.0	-38.0	23.1	0.00e+00	92	29	0	1007681536	46	6432
2026-01-16 14:35:29.84	179.50	39.97	-36.9	-37.9	23.4	0.00e+00	0	29	0	1009778688	46	6345
2026-01-16 14:35:30.85	179.65	39.72	-35.9	-36.8	24.1	0.00e+00	22	29	0	1011875840	46	5608
2026-01-16 14:35:31.86	179.80	39.47	-34.9	-35.7	24.8	0.00e+00	0	29	0	1013972992	44	5552
2026-01-16 14:35:32.87	179.94	39.22	-34.9	-35.7	24.9	0.00e+00	0	29	0	1015021568	44	5512
2026-01-16 14:35:33.88	180.09	38.98	-35.2	-36.0	24.5	0.00e+00	3	29	0	1017118720	44	5725
2026-01-16 14:35:34.89	180.23	38.73	-36.7	-37.6	23.4	0.00e+00	0	29	0	1019215872	44	6888
2026-01-16 14:35:35.90	180.37	38.49	-37.5	-38.5	22.7	0.00e+00	85	29	0	1021313024	46	6829
2026-01-16 14:35:36.91	180.51	38.25	-38.5	-39.7	21.8	0.00e+00	0	29	0	1023410176	48	6981
2026-01-16 14:35:37.92	180.64	38.01	-38.6	-39.8	21.7	0.00e+00	91	29	0	1024458752	48	7043
2026-01-16 14:35:38.93	180.78	37.77	-37.9	-38.9	22.4	0.00e+00	0	29	0	1026555904	48	6384
2026-01-16 14:35:39.94	180.91	37.53	-37.1	-38.1	23.1	0.00e+00	0	29	0	1028653056	48	5774
2026-01-16 14:35:40.95	181.04	37.30	-36.7	-37.7	23.4	0.00e+00	0	29	0	1030750208	46	6218
2026-01-16 14:35:41.96	181.17	37.06	-36.7	-37.6	23.5	0.00e+00	0	29	0	1032847360	46	6145
2026-01-16 14:35:42.97	181.30	36.83	-36.6	-37.5	23.5	0.00e+00	5	29	0	1033895936	46	6103
2026-01-16 14:35:43.98	181.42	36.60	-36.6	-37.5	23.6	0.00e+00	0	29	0	1035993088	46	6065
2026-01-16 14:35:44.99	181.55	36.37	-37.0	-38.0	23.2	0.00e+00	92	29	0	1038090240	46	6421
2026-01-16 14:35:45.99	181.67	36.15	-37.0	-37.9	23.2	0.00e+00	0	29	0	1040187392	46	6389
2026-01-16 14:35:47.01	181.79	35.92	-37.6	-38.6	22.7	0.00e+00	0	29	0	1042284544	46	6860
2026-01-16 14:35:48.02	181.91	35.69	-37.2	-38.2	23.2	0.00e+00	0	29	0	1043333120	46	6546
2026-01-16 14:35:49.03	182.02	35.47	-37.5	-38.4	22.7	0.00e+00	0	29	0	1045430272	46	6766
2026-01-16 14:35:50.03	182.14	35.25	-37.9	-39.0	22.4	0.00e+00	0	29	0	1047527424	48	6399
2026-01-16 14:35:51.04	182.25	35.03	-38.2	-39.3	22.1	0.00e+00	0	29	0	1049624576	48	6632
2026-01-16 14:35:52.05	182.37	34.81	-38.6	-39.7	21.7	0.00e+00	51	29	0	1051721728	48	6980
2026-01-16 14:35:53.06	182.48	34.60	-39.3	-40.5	21.1	0.00e+00	0	29	0	1052770304	50	6803
2026-01-16 14:35:54.07	182.59	34.38	-39.9	-41.3	20.3	0.00e+00	2	29	0	1054867456	52	6648
2026-01-16 14:35:55.08	182.69	34.16	-40.2	-41.6	20.2	0.00e+00	0	29	0	1056964608	52	6852
2026-01-16 14:35:56.09	182.80	33.95	-41.0	-42.5	19.5	0.00e+00	0	29	0	1059061760	54	6845
2026-01-16 14:35:57.10	182.91	33.74	-40.1	-41.5	20.3	0.00e+00	57	29	0	1061158912	54	6040
2026-01-16 14:35:58.11	183.01	33.53	-40.0	-41.3	20.3	0.00e+00	0	29	0	1062207488	54	5926
2026-01-16 14:35:59.12	183.11	33.32	-39.8	-41.1	20.6	0.00e+00	68	29	0	1064304640	52	6468
2026-01-16 14:36:00.13	183.22	33.11	-38.9	-40.1	21.4	0.00e+00	0	29	0	1066401792	52	5764
2026-01-16 14:36:01.14	183.32	32.90	-38.2	-39.3	22.2	0.00e+00	17	29	0	1068498944	50	5949
2026-01-16 14:36:02.15	183.42	32.70	-37.9	-39.0	22.2	0.00e+00	0	29	0	1070596096	50	5720
2026-01-16 14:36:03.40	183.54	32.45	-37.7	-38.8	22.7	0.00e+00	0	29	0	1072693248	48	6270
2026-01-16 14:36:04.13	183.61	32.30	-37.6	-38.6	22.7	0.00e+00	0	29	0	1073741824	48	6123
2026-01-16 14:36:05.43	183.73	32.04	-37.6	-38.6	22.7	0.00e+00	0	29	0	1075838976	48	6149
2026-01-16 14:36:06.15	183.80	31.90	-37.6	-38.6	22.6	0.00e+00	0	29	0	1076887552	48	6127
2026-01-16 14:36:07.45	183.92	31.64	-37.7	-38.7	22.6	0.00e+00	27	29	0	1080033280	48	6182
2026-01-16 14:36:08.17	183.98	31.50	-38.4	-39.4	22.1	0.00e+00	92	29	0	1081081856	48	6716
2026-01-16 14:36:09.47	184.10	31.25	-38.4	-39.4	22.0	0.00e+00	0	29	0	1083179008	48	6728
2026-01-16 14:36:10.19	184.17	31.11	-38.7	-39.7	21.8	0.00e+00	91	29	0	1085276160	50	6222
2026-01-16 14:36:11.49	184.28	30.86	-38.7	-39.8	21.7	0.00e+00	4	29	0	1087373312	50	6274
2026-01-16 14:36:12.21	184.34	30.72	-38.7	-39.8	21.7	0.00e+00	0	29	0	1088421888	50	6274
2026-01-16 14:36:13.51	184.46	30.48	-39.1	-40.3	21.5	0.00e+00	92	29	0	1091567616	50	6647
2026-01-16 14:36:14.23	184.52	30.34	-38.6	-39.7	21.8	0.00e+00	0	29	0	1092616192	50	6193
2026-01-16 14:36:15.53	184.63	30.10	-38.0	-39.1	22.3	0.00e+00	90	29	0	1094713344	50	5789
2026-01-16 14:36:16.25	184.69	29.96	-38.0	-39.1	22.2	0.00e+00	0	29	0	1095761920	50	5790
2026-01-16 14:36:17.55	184.80	29.72	-38.2	-39.3	22.2	0.00e+00	0	29	0	1098907648	50	5937
2026-01-16 14:36:18.27	184.85	29.59	-38.1	-39.2	22.2	0.00e+00	0	29	0	1099956224	50	5841
2026-01-16 14:36:19.57	184.96	29.35	-38.0	-39.1	22.2	0.00e+00	0	29	0	1102053376	50	5807
2026-01-16 14:36:20.29	185.02	29.22	-38.1	-39.2	22.2	0.00e+00	0	29	0	1104150528	50	5831
2026-01-16 14:36:21.59	185.12	28.99	-38.0	-39.0	22.3	0.00e+00	0	29	0	1106247680	48	6464
2026-01-16 14:36:22.31	185.18	28.86	-37.8	-38.9	22.3	0.00e+00	71	29	0	1107296256	48	6368
2026-01-16 14:36:23.61	185.28	28.63	-37.5	-38.5	22.7	0.00e+00	0	29	0	1110441984	48	6083
2026-01-16 14:36:24.33	185.33	28.50	-37.2	-38.2	22.9	0.00e+00	92	29	0	1111490560	48	5853
2026-01-16 14:36:25.63	185.43	28.27	-37.4	-38.4	22.7	0.00e+00	0	29	0	1113587712	48	5995
2026-01-16 14:36:26.35	185.48	28.15	-37.6	-38.6	22.7	0.00e+00	2	29	0	1115684864	48	6113
2026-01-16 14:36:27.65	185.58	27.92	-37.7	-38.6	22.6	0.00e+00	92	29	0	1117782016	48	6171
2026-01-16 14:36:28.37	185.63	27.79	-37.8	-38.8	22.5	0.00e+00	0	29	0	1118830592	48	6308
2026-01-16 14:36:29.66	185.73	27.57	-36.8	-37.7	23.2	0.00e+00	79	29	0	1121976320	46	6207
2026-01-16 14:36:30.38	185.78	27.45	-36.7	-37.6	23.3	0.00e+00	27	29	0	1123024896	46	6142
2026-01-16 14:36:31.68	185.87	27.23	-36.5	-37.4	23.6	0.00e+00	0	29	0	1125122048	46	5999
2026-01-16 14:36:32.40	185.92	27.11	-36.5	-37.4	23.7	0.00e+00	0	29	0	1126170624	46	6013
2026-01-16 14:36:33.70	186.01	26.89	-36.1	-37.0	23.8	0.00e+00	0	29	0	1129316352	46	5743
2026-01-16 14:36:34.43	186.06	26.77	-36.4	-37.3	23.6	0.00e+00	0	29	0	1130364928	46	5963
2026-01-16 14:36:35.72	186.15	26.55	-36.3	-37.2	23.6	0.00e+00	0	29	0	1132462080	46	5859
2026-01-16 14:36:36.44	186.20	26.44	-36.6	-37.5	23.5	0.00e+00	70	29	0	1134559232	46	6069
2026-01-16 14:36:37.74	186.29	26.22	-36.8	-37.8	23.2	0.00e+00	0	29	0	1136656384	46	6265
2026-01-16 14:36:38.46	186.34	26.11	-36.8	-37.7	23.3	0.00e+00	92	29	0	1137704960	46	6228
2026-01-16 14:36:39.76	186.42	25.90	-36.9	-37.9	23.2	0.00e+00	0	29	0	1139802112	46	6361
2026-01-16 14:36:40.48	186.47	25.78	-37.1	-38.1	23.1	0.00e+00	39	29	0	1141899264	46	6514
2026-01-16 14:36:41.78	186.55	25.57	-37.0	-38.0	23.1	0.00e+00	72	29	0	1143996416	46	6439
2026-01-16 14:36:42.50	186.60	25.46	-37.2	-38.2	22.8	0.00e+00	0	29	0	1145044992	46	6565
2026-01-16 14:36:43.80	186.68	25.25	-36.5	-37.5	23.5	0.00e+00	85	29	0	1148190720	46	6085
2026-01-16 14:36:44.52	186.73	25.14	-36.3	-37.3	23.6	0.00e+00	0	29	0	1149239296	46	5922
2026-01-16 14:36:45.81	186.81	24.94	-36.1	-37.1	23.8	0.00e+00	90	29	0	1151336448	46	5786
2026-01-16 14:36:46.53	186.85	24.83	-36.0	-36.9	23.9	0.00e+00	0	29	0	1153433600	46	5691
2026-01-16 14:36:47.83	186.93	24.62	-35.4	-36.3	24.3	0.00e+00	0	29	0	1155530752	44	5947
2026-01-16 14:36:48.55	186.97	24.51	-35.3	-36.3	24.3	0.00e+00	0	29	0	1156579328	44	5915
2026-01-16 14:36:49.85	187.05	24.32	-35.6	-36.6	24.2	0.00e+00	0	29	0	1159725056	44	6108
2026-01-16 14:36:50.57	187.09	24.21	-35.4	-36.3	24.4	0.00e+00	0	29	0	1160773632	44	5941
2026-01-16 14:36:51.87	187.17	24.01	-35.2	-36.1	24.6	0.00e+00	0	29	0	1162870784	44	5772
2026-01-16 14:36:52.59	187.21	23.90	-35.1	-36.1	24.5	0.00e+00	2	29	0	1163919360	44	5768
2026-01-16 14:36:53.89	187.29	23.71	-35.3	-36.2	24.4	0.00e+00	0	29	0	1167065088	44	5841
2026-01-16 14:36:54.61	187.33	23.60	-35.0	-35.9	24.5	0.00e+00	92	29	0	1168113664	44	5644
2026-01-16 14:36:55.91	187.40	23.41	-35.0	-35.8	24.6	0.00e+00	0	29	0	1170210816	44	5624
2026-01-16 14:36:56.63	187.44	23.30	-35.0	-35.8	24.6	0.00e+00	0	29	0	1172307968	44	5612
2026-01-16 14:36:57.93	187.52	23.11	-35.0	-35.8	24.6	0.00e+00	88	29	0	1174405120	44	5609
2026-01-16 14:36:58.65	187.56	23.01	-35.0	-35.7	24.7	0.00e+00	0	29	0	1175453696	44	5564
2026-01-16 14:36:59.95	187.63	22.82	-35.1	-35.9	24.5	0.00e+00	89	29	0	1178599424	44	5666
2026-01-16 14:37:00.67	187.67	22.72	-35.2	-36.1	24.6	0.00e+00	0	29	0	1179648000	44	5774
2026-01-16 14:37:01.97	187.74	22.53	-35.4	-36.2	24.3	0.00e+00	0	29	0	1181745152	44	5880
2026-01-16 14:37:02.69	187.77	22.43	-35.4	-36.3	24.3	0.00e+00	0	29	0	1183842304	44	5903
2026-01-16 14:37:03.99	187.84	22.25	-35.4	-36.2	24.3	0.00e+00	0	29	0	1185939456	44	5872
2026-01-16 14:37:04.71	187.88	22.14	-35.8	-36.6	24.1	0.00e+00	0	29	0	1186988032	44	6141
2026-01-16 14:37:06.01	187.95	21.96	-35.9	-36.7	23.9	0.00e+00	0	29	0	1190133760	44	6243
2026-01-16 14:37:06.73	187.99	21.86	-35.9	-36.7	24.0	0.00e+00	0	29	0	1191182336	44	6217
2026-01-16 14:37:08.03	188.05	21.68	-36.6	-37.5	23.5	0.00e+00	0	29	0	1193279488	44	6806
2026-01-16 14:37:08.75	188.09	21.58	-36.3	-37.2	23.7	0.00e+00	92	29	0	1194328064	44	6547
2026-01-16 14:37:10.04	188.15	21.41	-36.4	-37.3	23.6	0.00e+00	0	29	0	1197473792	44	6636
2026-01-16 14:37:10.77	188.19	21.31	-36.5	-37.5	23.4	0.00e+00	0	29	0	1198522368	44	6790
2026-01-16 14:37:12.06	188.25	21.13	-36.3	-37.2	23.6	0.00e+00	2	29	0	1200619520	44	6593
2026-01-16 14:37:12.79	188.29	21.04	-36.5	-37.4	23.4	0.00e+00	0	29	0	1202716672	44	6742
2026-01-16 14:37:14.08	188.35	20.86	-36.7	-37.7	23.3	0.00e+00	92	29	0	1204813824	46	6192
2026-01-16 14:37:14.80	188.39	20.77	-36.8	-37.7	23.3	0.00e+00	0	29	0	1205862400	46	6236
2026-01-16 14:37:16.10	188.45	20.59	-36.5	-37.4	23.6	0.00e+00	27	29	0	1207959552	46	6009
2026-01-16 14:37:16.82	188.48	20.50	-36.2	-37.1	23.7	0.00e+00	0	29	0	1210056704	46	5823
2026-01-16 14:37:18.12	188.55	20.33	-35.8	-36.7	24.0	0.00e+00	0	29	0	1212153856	46	5525
2026-01-16 14:37:18.84	188.58	20.23	-35.8	-36.7	24.1	0.00e+00	1	29	0	1213202432	44	6191
2026-01-16 14:37:20.14	188.64	20.07	-35.7	-36.5	24.1	0.00e+00	0	29	0	1216348160	44	6095
2026-01-16 14:37:20.86	188.67	19.97	-35.9	-36.8	24.0	0.00e+00	48	29	0	1217396736	44	6249
2026-01-16 14:37:22.16	188.73	19.81	-35.7	-36.5	24.1	0.00e+00	0	29	0	1219493888	44	6100
2026-01-16 14:37:22.88	188.76	19.71	-35.4	-36.2	24.3	0.00e+00	79	29	0	1221591040	44	5894
