passes_logs/2026/01/16/R4.6S_Anadyr/R4.6S_Anadyr__20260116_003952_SUOMI_NPP_rec.log

#Pass ID: 20260116_003952_SUOMI NPP
#Satellite: SUOMI NPP
#Configuration: NPP
#almurnet v.1.7.20251203
#Start time: 2026-01-16 00:39:55

#Version: 2.2.20231116
#Station: R4.6S_Anadyr
#Location: 177.4865 lon 64.73178 lat
#TLE: 1 37849U 11061A   26014.61059675  .00000037  00000+0  38639-4 0  9994
#TLE: 2 37849  98.7810 316.6625 0002460  64.3781 295.7649 14.19525105736658

#Time	Az	El	Level	Level2	SNR	BER	BlckErr	Temp	State	Recorded	gain1	gain2
2026-01-16 00:39:55.23	165.61	0.16	-48.1	-60.6	3.5	1.51e+00	0	26	0	0	60	37733
2026-01-16 00:39:56.23	165.62	0.22	-48.1	-63.4	3.6	1.51e+00	0	27	104	0	60	53255
2026-01-16 00:39:57.24	165.64	0.28	-48.2	-63.4	3.6	1.51e+00	0	28	104	0	60	53567
2026-01-16 00:39:58.25	165.65	0.34	-48.4	-63.7	3.6	1.51e+00	0	27	104	0	60	55542
2026-01-16 00:39:59.26	165.67	0.40	-48.4	-63.6	3.6	1.51e+00	0	28	104	0	60	54459
2026-01-16 00:40:00.27	165.68	0.46	-48.3	-63.5	3.6	1.51e+00	0	28	104	0	60	53834
2026-01-16 00:40:01.28	165.70	0.52	-48.3	-63.5	3.6	1.51e+00	0	28	104	0	60	53969
2026-01-16 00:40:02.29	165.71	0.58	-48.2	-63.4	3.6	1.51e+00	0	28	104	0	60	53752
2026-01-16 00:40:03.30	165.73	0.64	-48.3	-63.6	3.6	1.51e+00	0	28	104	0	60	54706
2026-01-16 00:40:04.31	165.74	0.71	-48.2	-63.4	3.6	1.51e+00	0	28	104	0	60	53690
2026-01-16 00:40:05.32	165.76	0.77	-48.3	-63.5	3.6	1.51e+00	0	28	104	0	60	53920
2026-01-16 00:40:06.33	165.78	0.83	-48.2	-63.4	3.5	1.51e+00	0	28	104	0	60	53284
2026-01-16 00:40:07.33	165.79	0.89	-47.7	-63.3	3.6	1.51e+00	0	28	104	0	60	52694
2026-01-16 00:40:08.35	165.81	0.95	-47.8	-63.2	3.6	1.51e+00	0	28	104	0	60	52049
2026-01-16 00:40:09.36	165.82	1.02	-47.8	-63.0	3.6	1.51e+00	0	28	104	0	60	51193
2026-01-16 00:40:10.36	165.84	1.08	-47.6	-62.7	3.6	1.51e+00	0	28	104	0	60	49278
2026-01-16 00:40:11.37	165.85	1.14	-46.4	-61.5	3.5	1.51e+00	0	28	104	0	60	43019
2026-01-16 00:40:12.39	165.87	1.20	-47.1	-62.3	3.6	1.51e+00	0	28	104	0	60	47010
2026-01-16 00:40:13.40	165.88	1.27	-46.8	-61.9	3.6	1.51e+00	0	28	104	0	60	45062
2026-01-16 00:40:14.41	165.90	1.33	-46.6	-61.7	3.6	1.51e+00	0	28	104	0	60	44059
2026-01-16 00:40:15.42	165.91	1.39	-46.6	-61.7	3.6	1.51e+00	0	28	104	0	60	44055
2026-01-16 00:40:16.43	165.93	1.46	-46.6	-61.7	3.6	1.51e+00	0	28	104	0	60	44010
2026-01-16 00:40:17.44	165.95	1.52	-46.6	-61.7	3.6	1.51e+00	0	28	104	0	60	43821
2026-01-16 00:40:18.45	165.96	1.58	-46.6	-61.7	3.6	1.51e+00	0	28	104	0	60	43769
2026-01-16 00:40:19.46	165.98	1.65	-46.6	-61.7	3.6	1.51e+00	0	28	104	0	60	44017
2026-01-16 00:40:20.47	165.99	1.71	-46.6	-61.8	3.6	1.51e+00	0	28	104	0	60	44273
2026-01-16 00:40:21.47	166.01	1.77	-46.6	-61.7	3.6	1.51e+00	0	28	104	0	60	44124
2026-01-16 00:40:22.49	166.03	1.84	-46.6	-61.7	3.6	1.51e+00	0	28	104	0	60	44172
2026-01-16 00:40:23.49	166.04	1.90	-46.6	-61.8	3.6	1.51e+00	0	28	104	0	60	44246
2026-01-16 00:40:24.50	166.06	1.97	-46.6	-61.7	3.6	1.51e+00	0	28	104	0	60	44141
2026-01-16 00:40:25.51	166.08	2.03	-46.6	-61.7	3.6	1.51e+00	0	28	104	0	60	43744
2026-01-16 00:40:26.52	166.09	2.09	-46.6	-61.7	3.6	1.51e+00	0	28	104	0	60	43745
2026-01-16 00:40:27.53	166.11	2.16	-46.6	-61.6	3.6	1.51e+00	0	28	104	0	60	43356
2026-01-16 00:40:28.54	166.12	2.22	-46.6	-61.5	3.6	1.51e+00	0	28	104	0	60	43127
2026-01-16 00:40:29.55	166.14	2.29	-46.6	-61.5	3.6	1.51e+00	0	28	104	0	60	42862
2026-01-16 00:40:30.56	166.16	2.35	-46.6	-61.4	3.6	1.51e+00	0	28	104	0	60	42577
2026-01-16 00:40:31.57	166.17	2.42	-46.5	-61.2	3.6	1.51e+00	0	28	104	0	60	41449
2026-01-16 00:40:32.58	166.19	2.49	-46.5	-61.0	3.6	1.51e+00	0	28	104	0	60	40482
2026-01-16 00:40:33.59	166.21	2.55	-46.5	-60.7	3.5	1.51e+00	0	28	104	0	60	39393
2026-01-16 00:40:34.60	166.22	2.62	-46.5	-60.4	3.6	1.51e+00	0	28	104	0	60	37969
2026-01-16 00:40:35.61	166.24	2.68	-46.5	-60.3	3.6	1.51e+00	0	28	104	0	60	37488
2026-01-16 00:40:36.61	166.26	2.75	-46.5	-60.3	3.6	1.51e+00	0	28	104	0	60	37228
2026-01-16 00:40:37.62	166.28	2.82	-46.5	-60.7	3.6	1.51e+00	0	28	104	0	60	39095
2026-01-16 00:40:38.63	166.29	2.88	-46.5	-60.6	3.6	1.51e+00	0	28	104	0	60	38640
2026-01-16 00:40:39.64	166.31	2.95	-46.4	-59.2	3.6	1.51e+00	0	28	104	0	60	33135
2026-01-16 00:40:40.65	166.33	3.01	-46.2	-56.2	4.8	1.03e+00	0	28	0	0	60	23297
2026-01-16 00:40:41.66	166.34	3.08	-45.9	-53.2	6.5	4.02e-01	90	28	0	1048576	60	16458
2026-01-16 00:40:42.67	166.36	3.15	-45.4	-51.3	8.8	8.96e-02	90	28	0	3145728	60	13223
2026-01-16 00:40:43.68	166.38	3.22	-44.7	-49.2	11.2	1.47e-02	0	28	0	5242880	60	10417
2026-01-16 00:40:44.69	166.40	3.28	-43.9	-47.4	13.2	1.07e-04	90	28	0	7340032	60	8499
2026-01-16 00:40:45.70	166.41	3.35	-43.1	-46.0	14.7	3.00e-06	0	28	0	9437184	60	7210
2026-01-16 00:40:46.71	166.43	3.42	-42.3	-44.7	15.9	0.00e+00	91	28	0	10485760	58	6997
2026-01-16 00:40:47.72	166.45	3.49	-41.6	-43.7	16.9	0.00e+00	0	28	0	12582912	56	6985
2026-01-16 00:40:48.73	166.47	3.56	-41.4	-43.4	17.1	0.00e+00	92	28	0	14680064	56	6728
2026-01-16 00:40:49.74	166.48	3.62	-41.3	-43.3	17.3	0.00e+00	92	28	0	16777216	56	6623
2026-01-16 00:40:50.75	166.50	3.69	-41.3	-43.3	17.3	0.00e+00	0	28	0	18874368	56	6657
2026-01-16 00:40:51.76	166.52	3.76	-41.5	-43.6	17.0	0.00e+00	66	28	0	19922944	56	6894
2026-01-16 00:40:52.77	166.54	3.83	-42.1	-44.5	15.9	0.00e+00	0	28	0	22020096	56	7610
2026-01-16 00:40:53.78	166.56	3.90	-44.4	-48.7	8.4	0.00e+00	85	28	0	24117248	58	10981
2026-01-16 00:40:54.79	166.57	3.97	-44.8	-49.7	5.9	1.50e+00	0	28	104	24117248	60	11019
2026-01-16 00:40:55.80	166.59	4.04	-42.7	-45.5	14.2	3.38e-01	92	28	104	24117248	58	7626
2026-01-16 00:40:56.80	166.61	4.11	-44.7	-48.6	11.8	3.07e-01	90	28	0	25165824	60	9785
2026-01-16 00:40:57.81	166.63	4.17	-44.3	-48.3	11.0	1.04e-04	72	28	0	27262976	60	9416
2026-01-16 00:40:58.82	166.65	4.24	-45.4	-51.3	5.5	1.51e+00	0	28	104	27262976	60	13334
2026-01-16 00:40:59.83	166.67	4.31	-42.8	-45.5	14.9	8.48e-01	0	28	104	27262976	58	7635
2026-01-16 00:41:00.84	166.68	4.38	-42.5	-44.9	15.9	0.00e+00	90	28	0	28311552	58	7152
2026-01-16 00:41:01.84	166.70	4.45	-42.8	-45.5	15.9	0.00e+00	0	28	0	30408704	58	7611
2026-01-16 00:41:02.85	166.72	4.53	-42.6	-45.0	16.2	0.00e+00	92	28	0	32505856	58	7229
2026-01-16 00:41:03.86	166.74	4.60	-42.0	-44.1	16.3	0.00e+00	82	28	0	33554432	58	6491
2026-01-16 00:41:04.87	166.76	4.67	-42.3	-44.7	16.0	0.00e+00	92	28	0	35651584	58	6933
2026-01-16 00:41:05.87	166.78	4.74	-42.6	-45.1	16.0	0.00e+00	92	28	0	37748736	58	7330
2026-01-16 00:41:06.88	166.80	4.81	-42.0	-44.1	16.7	0.00e+00	0	28	0	39845888	56	7305
2026-01-16 00:41:07.89	166.82	4.88	-41.9	-44.0	16.7	0.00e+00	92	28	0	41943040	56	7176
2026-01-16 00:41:08.90	166.84	4.95	-41.7	-43.6	17.2	0.00e+00	0	28	0	42991616	56	6906
2026-01-16 00:41:09.91	166.85	5.02	-41.6	-43.6	17.8	0.00e+00	92	28	0	45088768	56	6884
2026-01-16 00:41:10.92	166.87	5.10	-41.1	-42.9	17.7	0.00e+00	0	28	0	47185920	56	6333
2026-01-16 00:41:11.93	166.89	5.17	-41.4	-43.2	17.8	0.00e+00	90	28	0	49283072	56	6610
2026-01-16 00:41:12.94	166.91	5.24	-41.2	-43.0	18.2	0.00e+00	92	28	0	51380224	56	6454
2026-01-16 00:41:13.94	166.93	5.31	-41.1	-42.8	18.2	0.00e+00	0	28	0	52428800	56	6267
2026-01-16 00:41:14.95	166.95	5.38	-40.5	-42.1	18.6	0.00e+00	86	28	0	54525952	54	6486
2026-01-16 00:41:15.96	166.97	5.46	-40.8	-42.5	18.3	7.00e-07	0	28	0	56623104	54	6820
2026-01-16 00:41:16.97	166.99	5.53	-40.7	-42.4	18.5	0.00e+00	92	28	0	58720256	54	6696
2026-01-16 00:41:17.98	167.01	5.60	-40.8	-42.4	18.5	0.00e+00	0	28	0	60817408	54	6754
2026-01-16 00:41:18.99	167.03	5.68	-40.8	-42.5	18.3	0.00e+00	92	28	0	61865984	54	6824
2026-01-16 00:41:19.99	167.05	5.75	-40.8	-42.5	18.4	0.00e+00	92	28	0	63963136	54	6791
2026-01-16 00:41:21.00	167.07	5.83	-40.7	-42.4	18.4	0.00e+00	0	28	0	66060288	54	6712
2026-01-16 00:41:22.01	167.09	5.90	-40.8	-42.5	18.3	0.00e+00	63	28	0	68157440	54	6805
2026-01-16 00:41:23.02	167.11	5.97	-40.7	-42.3	18.6	0.00e+00	0	28	0	70254592	54	6643
2026-01-16 00:41:24.02	167.13	6.05	-40.5	-42.1	18.8	0.00e+00	92	28	0	71303168	54	6507
2026-01-16 00:41:25.03	167.15	6.12	-40.3	-41.8	19.0	0.00e+00	0	28	0	73400320	54	6289
2026-01-16 00:41:26.04	167.17	6.20	-39.8	-41.2	19.6	0.00e+00	92	28	0	75497472	54	5873
2026-01-16 00:41:27.04	167.19	6.27	-39.8	-41.2	19.7	0.00e+00	92	28	0	77594624	52	6575
2026-01-16 00:41:28.05	167.21	6.35	-39.6	-41.0	19.9	0.00e+00	41	28	0	79691776	52	6408
2026-01-16 00:41:29.06	167.24	6.42	-39.6	-40.9	20.0	0.00e+00	92	28	0	80740352	52	6384
2026-01-16 00:41:30.07	167.26	6.50	-39.5	-40.8	20.1	0.00e+00	0	28	0	82837504	52	6284
2026-01-16 00:41:31.09	167.28	6.58	-39.3	-40.6	20.3	0.00e+00	92	28	0	84934656	52	6160
2026-01-16 00:41:32.09	167.30	6.65	-39.5	-40.8	20.1	0.00e+00	0	28	0	87031808	52	6278
2026-01-16 00:41:33.10	167.32	6.73	-39.2	-40.5	20.4	0.00e+00	92	28	0	89128960	52	6086
2026-01-16 00:41:34.11	167.34	6.81	-39.2	-40.5	20.4	0.00e+00	87	28	0	91226112	52	6083
2026-01-16 00:41:35.12	167.36	6.88	-39.1	-40.4	20.5	0.00e+00	92	28	0	92274688	52	5983
2026-01-16 00:41:36.13	167.38	6.96	-39.2	-40.5	20.2	0.00e+00	90	28	0	94371840	52	6081
2026-01-16 00:41:37.14	167.41	7.04	-39.2	-40.4	20.4	0.00e+00	0	28	0	96468992	52	6017
2026-01-16 00:41:38.15	167.43	7.12	-39.0	-40.2	20.7	0.00e+00	92	28	0	98566144	52	5868
2026-01-16 00:41:39.16	167.45	7.19	-38.9	-40.1	20.8	0.00e+00	0	28	0	100663296	52	5812
2026-01-16 00:41:40.17	167.47	7.27	-39.2	-40.4	20.5	0.00e+00	92	28	0	101711872	52	5997
2026-01-16 00:41:41.18	167.49	7.35	-39.0	-40.2	20.8	0.00e+00	0	28	0	103809024	52	5851
2026-01-16 00:41:42.19	167.52	7.43	-39.1	-40.4	20.6	0.00e+00	90	28	0	105906176	52	5972
2026-01-16 00:41:43.20	167.54	7.51	-39.2	-40.4	20.4	0.00e+00	92	28	0	108003328	52	6015
2026-01-16 00:41:44.21	167.56	7.59	-39.0	-40.3	20.7	0.00e+00	0	28	0	110100480	52	5902
2026-01-16 00:41:45.22	167.58	7.67	-39.1	-40.3	20.5	0.00e+00	78	28	0	111149056	52	5947
2026-01-16 00:41:46.23	167.61	7.75	-39.1	-40.3	20.7	0.00e+00	0	28	0	113246208	52	5948
2026-01-16 00:41:47.24	167.63	7.83	-38.9	-40.1	20.8	0.00e+00	92	28	0	115343360	52	5794
2026-01-16 00:41:48.25	167.65	7.91	-39.0	-40.3	20.7	0.00e+00	0	28	0	117440512	52	5903
2026-01-16 00:41:49.26	167.67	7.99	-38.9	-40.1	20.8	0.00e+00	92	28	0	119537664	52	5823
2026-01-16 00:41:50.27	167.70	8.07	-38.8	-40.0	21.0	0.00e+00	90	28	0	120586240	50	6404
2026-01-16 00:41:51.28	167.72	8.15	-38.8	-40.0	20.9	0.00e+00	0	28	0	122683392	50	6457
2026-01-16 00:41:52.29	167.74	8.23	-38.5	-39.7	21.2	0.00e+00	91	28	0	124780544	50	6186
2026-01-16 00:41:53.30	167.77	8.31	-38.5	-39.7	21.2	0.00e+00	0	28	0	126877696	50	6201
2026-01-16 00:41:54.31	167.79	8.39	-38.6	-39.7	21.2	0.00e+00	90	28	0	128974848	50	6244
2026-01-16 00:41:55.32	167.81	8.48	-38.5	-39.7	21.3	0.00e+00	0	28	0	130023424	50	6196
2026-01-16 00:41:56.32	167.84	8.56	-38.4	-39.5	21.4	0.00e+00	91	28	0	132120576	50	6059
2026-01-16 00:41:57.33	167.86	8.64	-38.2	-39.3	21.5	0.00e+00	59	28	0	134217728	50	5951
2026-01-16 00:41:58.34	167.88	8.72	-38.2	-39.3	21.5	0.00e+00	0	28	0	136314880	50	5964
2026-01-16 00:41:59.35	167.91	8.81	-38.3	-39.4	21.5	0.00e+00	47	28	0	138412032	50	5966
2026-01-16 00:42:00.36	167.93	8.89	-38.0	-39.0	21.8	0.00e+00	0	28	0	139460608	50	5742
2026-01-16 00:42:01.37	167.96	8.97	-38.1	-39.2	21.8	0.00e+00	75	28	0	141557760	50	5829
2026-01-16 00:42:02.38	167.98	9.06	-37.9	-39.0	21.8	0.00e+00	0	28	0	143654912	50	5703
2026-01-16 00:42:03.39	168.01	9.14	-37.9	-38.9	21.9	0.00e+00	92	28	0	145752064	50	5691
2026-01-16 00:42:04.40	168.03	9.23	-38.0	-39.1	21.7	0.00e+00	82	28	0	147849216	50	5776
2026-01-16 00:42:05.41	168.05	9.31	-38.1	-39.2	21.8	0.00e+00	62	28	0	148897792	50	5858
2026-01-16 00:42:06.41	168.08	9.40	-38.0	-39.0	21.9	0.00e+00	90	28	0	150994944	50	5759
2026-01-16 00:42:07.42	168.10	9.48	-37.9	-39.0	21.9	0.00e+00	0	28	0	153092096	50	5715
2026-01-16 00:42:08.43	168.13	9.57	-37.9	-38.9	21.9	0.00e+00	89	28	0	155189248	50	5690
2026-01-16 00:42:09.44	168.15	9.65	-38.0	-39.0	21.8	0.00e+00	0	28	0	157286400	50	5736
2026-01-16 00:42:10.45	168.18	9.74	-37.9	-39.0	21.9	0.00e+00	92	28	0	159383552	50	5725
2026-01-16 00:42:11.46	168.21	9.83	-38.0	-39.1	21.8	0.00e+00	62	28	0	160432128	50	5763
2026-01-16 00:42:12.47	168.23	9.91	-38.1	-39.2	21.7	0.00e+00	77	28	0	162529280	50	5846
2026-01-16 00:42:13.48	168.26	10.00	-37.9	-39.0	21.9	0.00e+00	90	28	0	164626432	50	5711
2026-01-16 00:42:14.49	168.28	10.09	-38.0	-39.1	21.8	0.00e+00	32	28	0	166723584	50	5818
2026-01-16 00:42:15.49	168.31	10.17	-37.8	-38.9	22.0	0.00e+00	92	28	0	168820736	50	5639
2026-01-16 00:42:16.51	168.33	10.26	-37.9	-39.0	22.0	0.00e+00	0	28	0	169869312	50	5734
2026-01-16 00:42:17.51	168.36	10.35	-37.7	-38.7	22.2	0.00e+00	92	28	0	171966464	48	6243
2026-01-16 00:42:18.52	168.39	10.44	-37.6	-38.6	22.3	0.00e+00	65	28	0	174063616	48	6162
2026-01-16 00:42:19.53	168.41	10.53	-37.6	-38.6	22.3	0.00e+00	92	28	0	176160768	48	6152
2026-01-16 00:42:20.54	168.44	10.62	-37.4	-38.4	22.4	0.00e+00	92	28	0	178257920	48	6027
2026-01-16 00:42:21.55	168.47	10.71	-37.4	-38.4	22.3	0.00e+00	0	28	0	179306496	48	6010
2026-01-16 00:42:22.56	168.49	10.80	-37.5	-38.5	22.5	0.00e+00	73	28	0	181403648	48	6034
2026-01-16 00:42:23.57	168.52	10.89	-37.5	-38.5	22.4	0.00e+00	0	28	0	183500800	48	6079
2026-01-16 00:42:24.58	168.55	10.98	-37.4	-38.3	22.5	0.00e+00	90	28	0	185597952	48	5954
2026-01-16 00:42:25.59	168.58	11.07	-37.4	-38.4	22.5	0.00e+00	0	28	0	187695104	48	6000
2026-01-16 00:42:26.60	168.60	11.16	-37.3	-38.2	22.6	0.00e+00	60	28	0	188743680	48	5891
2026-01-16 00:42:27.60	168.63	11.25	-37.5	-38.5	22.5	0.00e+00	91	28	0	190840832	48	6038
2026-01-16 00:42:28.61	168.66	11.34	-37.2	-38.2	22.7	0.00e+00	0	28	0	192937984	48	5866
2026-01-16 00:42:29.62	168.69	11.44	-37.3	-38.3	22.6	0.00e+00	43	28	0	195035136	48	5947
2026-01-16 00:42:30.63	168.72	11.53	-37.2	-38.2	22.8	0.00e+00	0	28	0	197132288	48	5851
2026-01-16 00:42:31.64	168.74	11.62	-37.2	-38.2	22.6	0.00e+00	92	28	0	198180864	48	5845
2026-01-16 00:42:32.65	168.77	11.71	-37.1	-38.0	22.9	0.00e+00	0	28	0	200278016	48	5746
2026-01-16 00:42:33.66	168.80	11.81	-37.0	-38.0	22.9	0.00e+00	92	28	0	202375168	48	5699
2026-01-16 00:42:34.67	168.83	11.90	-37.2	-38.1	22.8	0.00e+00	90	28	0	204472320	48	5805
2026-01-16 00:42:35.68	168.86	12.00	-37.4	-38.4	22.5	0.00e+00	0	28	0	206569472	48	6003
2026-01-16 00:42:36.69	168.89	12.09	-37.3	-38.2	22.8	0.00e+00	24	28	0	207618048	48	5876
2026-01-16 00:42:37.70	168.92	12.19	-36.9	-37.8	23.1	0.00e+00	0	28	0	209715200	48	5595
2026-01-16 00:42:38.71	168.95	12.28	-36.7	-37.6	23.2	0.00e+00	90	28	0	211812352	46	6155
2026-01-16 00:42:39.72	168.98	12.38	-36.6	-37.5	23.3	0.00e+00	0	28	0	213909504	46	6083
2026-01-16 00:42:40.73	169.01	12.47	-36.7	-37.6	23.2	0.00e+00	92	28	0	216006656	46	6111
2026-01-16 00:42:41.74	169.04	12.57	-36.6	-37.5	23.2	0.00e+00	0	28	0	217055232	46	6087
2026-01-16 00:42:42.74	169.07	12.67	-36.5	-37.4	23.2	0.00e+00	0	28	0	219152384	46	6012
2026-01-16 00:42:43.75	169.10	12.76	-36.4	-37.3	23.4	0.00e+00	18	28	0	221249536	46	5949
2026-01-16 00:42:44.76	169.13	12.86	-36.4	-37.3	23.4	0.00e+00	0	28	0	223346688	46	5935
2026-01-16 00:42:45.77	169.16	12.96	-36.5	-37.4	23.4	0.00e+00	92	28	0	225443840	46	5994
2026-01-16 00:42:46.78	169.19	13.06	-36.3	-37.2	23.5	0.00e+00	0	28	0	226492416	46	5874
2026-01-16 00:42:47.79	169.22	13.16	-36.3	-37.1	23.6	0.00e+00	91	28	0	228589568	46	5823
2026-01-16 00:42:48.80	169.25	13.26	-36.3	-37.1	23.6	0.00e+00	84	28	0	230686720	46	5811
2026-01-16 00:42:49.81	169.28	13.36	-36.3	-37.2	23.6	0.00e+00	0	28	0	232783872	46	5833
2026-01-16 00:42:50.82	169.31	13.46	-36.5	-37.4	23.3	0.00e+00	90	28	0	234881024	46	6003
2026-01-16 00:42:51.82	169.35	13.56	-36.4	-37.2	23.5	0.00e+00	0	28	0	235929600	46	5884
2026-01-16 00:42:52.84	169.38	13.66	-36.2	-37.1	23.5	0.00e+00	86	28	0	238026752	46	5784
2026-01-16 00:42:53.85	169.41	13.76	-36.3	-37.2	23.4	0.00e+00	0	28	0	240123904	46	5859
2026-01-16 00:42:54.86	169.44	13.86	-36.3	-37.2	23.4	0.00e+00	92	28	0	242221056	46	5885
2026-01-16 00:42:55.86	169.48	13.96	-36.4	-37.3	23.3	0.00e+00	0	28	0	244318208	46	5927
2026-01-16 00:42:56.87	169.51	14.07	-36.2	-37.1	23.5	0.00e+00	92	28	0	245366784	46	5812
2026-01-16 00:42:57.88	169.54	14.17	-36.2	-37.1	23.5	0.00e+00	92	28	0	247463936	46	5809
2026-01-16 00:42:58.89	169.57	14.27	-36.2	-37.1	23.5	0.00e+00	0	28	0	249561088	46	5775
2026-01-16 00:42:59.90	169.61	14.38	-36.2	-37.1	23.5	0.00e+00	85	28	0	251658240	46	5783
2026-01-16 00:43:00.91	169.64	14.48	-36.2	-37.0	23.3	0.00e+00	0	28	0	253755392	46	5760
2026-01-16 00:43:01.92	169.68	14.59	-36.0	-36.9	23.7	0.00e+00	90	28	0	255852544	46	5663
2026-01-16 00:43:02.93	169.71	14.69	-36.1	-37.0	23.2	0.00e+00	0	28	0	256901120	46	5748
2026-01-16 00:43:03.94	169.74	14.80	-36.1	-37.0	23.7	0.00e+00	92	28	0	258998272	46	5712
2026-01-16 00:43:04.95	169.78	14.90	-36.1	-37.0	23.7	0.00e+00	92	28	0	261095424	46	5697
2026-01-16 00:43:05.96	169.81	15.01	-36.0	-36.9	23.5	0.00e+00	0	28	0	263192576	46	5631
2026-01-16 00:43:06.96	169.85	15.12	-36.0	-36.9	23.7	0.00e+00	59	28	0	265289728	46	5650
2026-01-16 00:43:07.97	169.88	15.22	-36.0	-36.8	23.6	0.00e+00	0	28	0	266338304	46	5628
2026-01-16 00:43:08.98	169.92	15.33	-36.0	-36.9	23.8	0.00e+00	89	28	0	268435456	46	5666
2026-01-16 00:43:09.99	169.95	15.44	-36.1	-37.0	23.6	0.00e+00	0	28	0	270532608	46	5710
2026-01-16 00:43:11.00	169.99	15.55	-36.1	-37.0	23.7	0.00e+00	91	28	0	272629760	46	5699
2026-01-16 00:43:12.01	170.03	15.66	-36.2	-37.0	23.7	0.00e+00	90	28	0	274726912	46	5744
2026-01-16 00:43:13.02	170.06	15.77	-36.0	-36.9	23.7	0.00e+00	0	28	0	275775488	46	5650
2026-01-16 00:43:14.03	170.10	15.88	-36.1	-37.0	23.7	0.00e+00	90	28	0	277872640	46	5716
2026-01-16 00:43:15.04	170.14	15.99	-36.1	-37.0	23.7	0.00e+00	0	28	0	279969792	46	5724
2026-01-16 00:43:16.05	170.17	16.10	-36.2	-37.1	23.5	0.00e+00	87	28	0	282066944	46	5803
2026-01-16 00:43:17.06	170.21	16.21	-36.3	-37.2	23.5	0.00e+00	0	28	0	284164096	46	5887
2026-01-16 00:43:18.06	170.25	16.33	-36.4	-37.3	23.5	0.00e+00	92	28	0	285212672	46	5911
2026-01-16 00:43:19.07	170.29	16.44	-36.5	-37.4	23.4	0.00e+00	49	28	0	287309824	46	5973
2026-01-16 00:43:20.08	170.32	16.55	-36.6	-37.5	23.3	0.00e+00	92	28	0	289406976	46	6102
2026-01-16 00:43:21.09	170.36	16.67	-36.6	-37.5	23.4	0.00e+00	92	28	0	291504128	46	6068
2026-01-16 00:43:22.10	170.40	16.78	-36.7	-37.6	23.4	0.00e+00	0	28	0	293601280	46	6167
2026-01-16 00:43:23.11	170.44	16.90	-36.8	-37.8	23.1	0.00e+00	92	28	0	294649856	46	6257
2026-01-16 00:43:24.12	170.48	17.01	-36.8	-37.8	23.1	0.00e+00	0	28	0	296747008	46	6265
2026-01-16 00:43:25.13	170.52	17.13	-36.9	-37.9	22.9	0.00e+00	92	28	0	298844160	46	6322
2026-01-16 00:43:26.14	170.56	17.24	-36.9	-37.8	23.1	0.00e+00	25	28	0	300941312	46	6303
2026-01-16 00:43:27.15	170.60	17.36	-37.0	-38.0	22.8	0.00e+00	91	28	0	303038464	46	6426
2026-01-16 00:43:28.15	170.64	17.48	-37.1	-38.0	22.9	0.00e+00	92	28	0	304087040	46	6436
2026-01-16 00:43:29.16	170.68	17.60	-37.0	-38.0	23.0	0.00e+00	0	28	0	306184192	46	6410
2026-01-16 00:43:30.17	170.72	17.71	-37.0	-37.9	23.0	0.00e+00	92	28	0	308281344	46	6379
2026-01-16 00:43:31.18	170.76	17.83	-37.0	-38.0	23.0	0.00e+00	0	28	0	310378496	46	6428
2026-01-16 00:43:32.19	170.80	17.95	-37.1	-38.1	22.8	0.00e+00	92	28	0	312475648	46	6505
2026-01-16 00:43:33.20	170.84	18.08	-37.2	-38.2	22.9	0.00e+00	0	28	0	313524224	46	6550
2026-01-16 00:43:34.21	170.89	18.20	-37.4	-38.4	22.8	0.00e+00	90	28	0	315621376	46	6698
2026-01-16 00:43:35.22	170.93	18.32	-37.3	-38.2	22.7	0.00e+00	92	28	0	317718528	46	6601
2026-01-16 00:43:36.23	170.97	18.44	-37.5	-38.5	22.6	0.00e+00	69	28	0	319815680	46	6801
2026-01-16 00:43:37.23	171.01	18.56	-37.6	-38.7	22.4	0.00e+00	91	28	0	321912832	48	6186
2026-01-16 00:43:38.24	171.06	18.69	-37.7	-38.7	22.4	0.00e+00	0	28	0	324009984	48	6209
2026-01-16 00:43:39.25	171.10	18.81	-37.7	-38.7	22.4	0.00e+00	92	28	0	325058560	48	6237
2026-01-16 00:43:40.26	171.14	18.93	-38.0	-39.1	22.1	0.00e+00	0	28	0	327155712	48	6479
2026-01-16 00:43:41.27	171.19	19.06	-37.8	-38.8	22.2	0.00e+00	90	28	0	329252864	48	6316
2026-01-16 00:43:42.28	171.23	19.19	-37.9	-38.9	22.2	0.00e+00	90	28	0	331350016	48	6371
2026-01-16 00:43:43.29	171.28	19.31	-38.1	-39.2	22.0	0.00e+00	92	28	0	333447168	48	6564
2026-01-16 00:43:44.30	171.32	19.44	-38.2	-39.3	21.9	0.00e+00	92	28	0	334495744	48	6664
2026-01-16 00:43:45.31	171.37	19.57	-38.4	-39.5	21.8	0.00e+00	0	28	0	336592896	48	6815
2026-01-16 00:43:46.32	171.42	19.70	-38.3	-39.3	21.9	0.00e+00	58	28	0	338690048	48	6689
2026-01-16 00:43:47.33	171.46	19.83	-38.3	-39.4	22.0	0.00e+00	0	28	0	340787200	48	6696
2026-01-16 00:43:48.34	171.51	19.96	-38.4	-39.5	21.9	0.00e+00	88	28	0	341835776	48	6832
2026-01-16 00:43:49.35	171.56	20.09	-38.5	-39.6	21.7	0.00e+00	92	28	0	343932928	48	6920
2026-01-16 00:43:50.36	171.60	20.22	-38.5	-39.6	21.7	0.00e+00	90	28	0	346030080	48	6874
2026-01-16 00:43:51.36	171.65	20.35	-38.2	-39.2	21.9	0.00e+00	91	28	0	348127232	48	6613
2026-01-16 00:43:52.37	171.70	20.48	-38.1	-39.1	22.0	0.00e+00	0	28	0	350224384	48	6536
2026-01-16 00:43:53.38	171.75	20.61	-37.9	-39.0	22.2	0.00e+00	91	28	0	352321536	48	6405
2026-01-16 00:43:54.39	171.80	20.75	-37.9	-39.0	22.2	0.00e+00	0	28	0	353370112	48	6419
2026-01-16 00:43:55.40	171.85	20.88	-37.9	-38.9	22.4	0.00e+00	92	28	0	355467264	48	6376
2026-01-16 00:43:56.41	171.90	21.02	-37.8	-38.9	22.1	0.00e+00	0	28	0	357564416	48	6346
2026-01-16 00:43:57.42	171.95	21.15	-38.1	-39.1	22.2	0.00e+00	92	28	0	359661568	48	6539
2026-01-16 00:43:58.43	172.00	21.29	-37.8	-38.9	22.2	0.00e+00	89	28	0	361758720	48	6340
2026-01-16 00:43:59.43	172.05	21.43	-37.8	-38.8	22.4	0.00e+00	0	28	0	362807296	48	6308
2026-01-16 00:44:00.44	172.10	21.57	-37.9	-38.9	22.3	0.00e+00	90	28	0	364904448	48	6369
2026-01-16 00:44:01.45	172.15	21.71	-38.2	-39.3	22.1	0.00e+00	0	28	0	367001600	48	6656
2026-01-16 00:44:02.46	172.20	21.84	-38.3	-39.4	22.0	0.00e+00	92	28	0	369098752	48	6699
2026-01-16 00:44:03.47	172.26	21.99	-38.2	-39.3	22.1	0.00e+00	0	28	0	371195904	48	6616
2026-01-16 00:44:04.48	172.31	22.13	-38.0	-39.0	22.1	0.00e+00	92	28	0	372244480	48	6425
2026-01-16 00:44:05.49	172.36	22.27	-38.1	-39.1	22.2	0.00e+00	92	28	0	374341632	48	6529
2026-01-16 00:44:06.50	172.42	22.41	-38.1	-39.1	22.2	0.00e+00	0	28	0	376438784	48	6525
2026-01-16 00:44:07.51	172.47	22.56	-37.9	-39.0	22.3	0.00e+00	82	28	0	378535936	48	6399
2026-01-16 00:44:08.52	172.53	22.70	-37.8	-38.8	22.4	0.00e+00	0	28	0	380633088	48	6274
2026-01-16 00:44:09.53	172.58	22.84	-38.0	-39.0	22.2	0.00e+00	92	28	0	381681664	48	6419
2026-01-16 00:44:10.54	172.64	22.99	-37.8	-38.9	22.4	0.00e+00	0	28	0	383778816	48	6321
2026-01-16 00:44:11.55	172.70	23.14	-38.0	-39.0	22.1	0.00e+00	92	28	0	385875968	48	6432
2026-01-16 00:44:12.56	172.75	23.28	-37.8	-38.8	22.4	0.00e+00	89	28	0	387973120	48	6285
2026-01-16 00:44:13.57	172.81	23.43	-37.7	-38.7	22.6	0.00e+00	90	28	0	390070272	48	6196
2026-01-16 00:44:14.58	172.87	23.58	-37.8	-38.8	22.4	0.00e+00	92	28	0	391118848	48	6291
2026-01-16 00:44:15.58	172.93	23.73	-38.0	-39.1	22.1	0.00e+00	0	28	0	393216000	48	6496
2026-01-16 00:44:16.59	172.98	23.88	-38.0	-39.1	22.1	0.00e+00	92	28	0	395313152	48	6465
2026-01-16 00:44:17.60	173.04	24.03	-38.1	-39.2	22.0	0.00e+00	0	28	0	397410304	48	6581
2026-01-16 00:44:18.61	173.10	24.19	-37.9	-39.0	22.2	0.00e+00	92	28	0	399507456	48	6432
2026-01-16 00:44:19.62	173.17	24.34	-38.1	-39.2	22.2	0.00e+00	0	28	0	400556032	48	6596
2026-01-16 00:44:20.63	173.23	24.49	-38.1	-39.2	22.2	0.00e+00	91	28	0	402653184	48	6602
2026-01-16 00:44:21.64	173.29	24.65	-37.6	-38.6	22.5	0.00e+00	92	28	0	404750336	48	6147
2026-01-16 00:44:22.65	173.35	24.81	-37.8	-38.9	22.4	0.00e+00	0	28	0	406847488	48	6325
2026-01-16 00:44:23.66	173.41	24.96	-37.7	-38.7	22.6	0.00e+00	92	28	0	408944640	48	6240
2026-01-16 00:44:24.67	173.48	25.12	-37.8	-38.9	22.4	0.00e+00	0	28	0	409993216	48	6318
2026-01-16 00:44:25.68	173.54	25.28	-37.8	-38.8	22.4	0.00e+00	90	28	0	412090368	48	6298
2026-01-16 00:44:26.69	173.61	25.44	-37.7	-38.6	22.4	0.00e+00	0	28	0	414187520	48	6168
2026-01-16 00:44:27.69	173.67	25.60	-37.5	-38.5	22.8	0.00e+00	90	28	0	416284672	48	6067
2026-01-16 00:44:28.70	173.74	25.76	-37.7	-38.7	22.6	0.00e+00	92	28	0	418381824	48	6179
2026-01-16 00:44:29.71	173.80	25.92	-37.8	-38.8	22.5	0.00e+00	0	28	0	420478976	48	6267
2026-01-16 00:44:30.72	173.87	26.09	-37.9	-38.9	22.4	0.00e+00	92	28	0	421527552	48	6324
2026-01-16 00:44:31.73	173.94	26.25	-37.7	-38.7	22.6	0.00e+00	0	28	0	423624704	48	6186
2026-01-16 00:44:32.74	174.01	26.42	-37.5	-38.5	22.7	0.00e+00	90	28	0	425721856	48	6055
2026-01-16 00:44:33.75	174.08	26.58	-37.5	-38.4	22.7	0.00e+00	0	28	0	427819008	48	6025
2026-01-16 00:44:34.76	174.15	26.75	-38.1	-39.1	22.3	0.00e+00	92	28	0	429916160	48	6495
2026-01-16 00:44:35.77	174.22	26.92	-37.3	-38.3	23.0	0.00e+00	92	28	0	430964736	48	5901
2026-01-16 00:44:36.78	174.29	27.09	-37.5	-38.4	22.9	0.00e+00	0	28	0	433061888	48	5998
2026-01-16 00:44:37.79	174.36	27.26	-37.6	-38.5	22.8	0.00e+00	92	28	0	435159040	48	6082
2026-01-16 00:44:38.80	174.44	27.43	-37.2	-38.1	23.1	0.00e+00	0	28	0	437256192	48	5799
2026-01-16 00:44:39.81	174.51	27.60	-37.3	-38.2	22.8	0.00e+00	90	28	0	439353344	48	5890
2026-01-16 00:44:40.81	174.58	27.77	-37.7	-38.6	22.8	0.00e+00	0	28	0	440401920	48	6142
2026-01-16 00:44:41.83	174.66	27.95	-37.4	-38.4	22.8	0.00e+00	92	28	0	442499072	48	5982
2026-01-16 00:44:42.83	174.73	28.13	-37.5	-38.4	22.8	0.00e+00	90	28	0	444596224	48	6030
2026-01-16 00:44:43.85	174.81	28.30	-37.5	-38.5	22.9	0.00e+00	0	28	0	446693376	48	6061
2026-01-16 00:44:44.85	174.89	28.48	-37.6	-38.6	22.6	0.00e+00	92	28	0	448790528	48	6126
2026-01-16 00:44:45.86	174.97	28.66	-37.4	-38.3	22.9	0.00e+00	0	28	0	449839104	48	5935
2026-01-16 00:44:46.87	175.05	28.84	-37.3	-38.3	23.0	0.00e+00	92	28	0	451936256	48	5907
2026-01-16 00:44:47.88	175.13	29.02	-37.1	-38.0	23.1	0.00e+00	0	28	0	454033408	48	5707
2026-01-16 00:44:48.89	175.21	29.20	-37.2	-38.1	23.0	0.00e+00	92	28	0	456130560	46	6485
2026-01-16 00:44:49.90	175.29	29.39	-37.2	-38.2	22.9	0.00e+00	92	28	0	458227712	46	6542
2026-01-16 00:44:50.91	175.37	29.57	-37.3	-38.2	23.1	0.00e+00	80	28	0	459276288	46	6601
2026-01-16 00:44:51.92	175.46	29.76	-37.7	-38.7	22.7	0.00e+00	92	28	0	461373440	46	6953
2026-01-16 00:44:52.93	175.54	29.94	-37.8	-38.8	22.7	0.00e+00	0	28	0	463470592	46	7019
2026-01-16 00:44:53.94	175.63	30.13	-38.0	-39.0	22.4	0.00e+00	92	28	0	465567744	48	6415
2026-01-16 00:44:54.95	175.71	30.32	-38.0	-39.1	22.2	0.00e+00	0	28	0	467664896	48	6480
2026-01-16 00:44:55.96	175.80	30.51	-38.0	-39.1	22.3	0.00e+00	92	28	0	468713472	48	6466
2026-01-16 00:44:56.97	175.89	30.70	-38.4	-39.5	22.0	0.00e+00	56	28	0	470810624	48	6825
2026-01-16 00:44:57.97	175.98	30.89	-38.5	-39.6	22.1	0.00e+00	92	28	0	472907776	48	6853
2026-01-16 00:44:58.98	176.07	31.09	-38.8	-39.9	21.6	0.00e+00	90	28	0	475004928	48	7115
2026-01-16 00:44:59.99	176.16	31.28	-38.9	-40.0	21.4	0.00e+00	0	28	0	477102080	50	6450
2026-01-16 00:45:01.00	176.25	31.48	-39.1	-40.3	21.4	0.00e+00	92	28	0	478150656	50	6664
2026-01-16 00:45:02.01	176.35	31.68	-39.8	-41.0	20.7	0.00e+00	0	28	0	480247808	52	6450
2026-01-16 00:45:03.02	176.44	31.88	-39.6	-40.8	20.8	0.00e+00	92	28	0	482344960	52	6283
2026-01-16 00:45:04.03	176.54	32.08	-39.8	-41.1	20.6	0.00e+00	0	28	0	484442112	52	6510
2026-01-16 00:45:05.04	176.63	32.28	-40.1	-41.5	20.3	0.00e+00	91	28	0	486539264	52	6792
2026-01-16 00:45:06.04	176.73	32.48	-40.2	-41.6	20.2	0.00e+00	92	28	0	488636416	52	6851
2026-01-16 00:45:07.06	176.83	32.68	-40.2	-41.6	20.2	0.00e+00	0	28	0	489684992	52	6924
2026-01-16 00:45:08.06	176.93	32.89	-40.3	-41.7	19.9	0.00e+00	91	28	0	491782144	52	6952
2026-01-16 00:45:09.07	177.03	33.09	-40.2	-41.6	20.2	0.00e+00	0	28	0	493879296	52	6897
2026-01-16 00:45:10.08	177.14	33.30	-40.3	-41.6	20.0	0.00e+00	92	28	0	495976448	52	6922
2026-01-16 00:45:11.09	177.24	33.51	-40.2	-41.6	20.2	0.00e+00	63	28	0	498073600	52	6894
2026-01-16 00:45:12.10	177.35	33.72	-40.0	-41.4	20.5	0.00e+00	92	28	0	499122176	52	6703
2026-01-16 00:45:13.11	177.45	33.93	-39.8	-41.1	20.7	0.00e+00	92	28	0	501219328	52	6530
2026-01-16 00:45:14.12	177.56	34.15	-39.2	-40.3	21.1	0.00e+00	0	28	0	503316480	52	5959
2026-01-16 00:45:15.13	177.67	34.36	-38.3	-39.4	22.1	0.00e+00	92	28	0	505413632	50	5981
2026-01-16 00:45:16.14	177.78	34.58	-38.6	-39.7	21.9	0.00e+00	0	28	0	507510784	50	6203
2026-01-16 00:45:17.14	177.89	34.79	-38.3	-39.3	22.2	0.00e+00	92	28	0	508559360	50	5916
2026-01-16 00:45:18.15	178.01	35.01	-38.0	-39.0	22.5	0.00e+00	0	28	0	510656512	50	5696
2026-01-16 00:45:19.16	178.12	35.23	-38.0	-39.0	22.4	0.00e+00	90	28	0	512753664	50	5736
2026-01-16 00:45:20.17	178.24	35.45	-38.0	-39.0	22.2	0.00e+00	92	28	0	514850816	50	5718
2026-01-16 00:45:21.18	178.36	35.68	-39.0	-40.1	21.8	0.00e+00	92	28	0	516947968	50	6519
2026-01-16 00:45:22.19	178.48	35.90	-39.0	-40.2	21.3	0.00e+00	92	28	0	517996544	50	6589
2026-01-16 00:45:23.20	178.60	36.13	-39.5	-40.8	20.9	0.00e+00	0	28	0	520093696	50	7027
2026-01-16 00:45:24.21	178.72	36.36	-39.8	-41.2	20.4	0.00e+00	92	28	0	522190848	52	6550
2026-01-16 00:45:25.22	178.85	36.58	-40.1	-41.6	20.2	0.00e+00	0	28	0	524288000	52	6851
2026-01-16 00:45:26.23	178.98	36.81	-40.3	-41.8	20.0	0.00e+00	92	28	0	526385152	54	6275
2026-01-16 00:45:27.23	179.10	37.04	-40.7	-42.3	19.4	0.00e+00	1	28	0	527433728	54	6677
2026-01-16 00:45:28.24	179.23	37.28	-41.0	-42.6	19.1	0.00e+00	92	28	0	529530880	54	6924
2026-01-16 00:45:29.24	179.36	37.51	-41.2	-42.8	18.9	0.00e+00	92	28	0	531628032	54	7077
2026-01-16 00:45:30.25	179.50	37.75	-41.3	-43.0	19.0	0.00e+00	0	28	0	533725184	54	7221
2026-01-16 00:45:31.26	179.63	37.98	-40.7	-42.2	19.5	0.00e+00	92	28	0	535822336	54	6588
2026-01-16 00:45:32.27	179.77	38.22	-40.9	-42.4	19.4	0.00e+00	0	28	0	536870912	54	6765
2026-01-16 00:45:33.28	179.91	38.46	-40.7	-42.2	19.6	0.00e+00	92	28	0	538968064	54	6571
2026-01-16 00:45:34.29	180.05	38.71	-39.8	-41.1	20.4	0.00e+00	0	28	0	541065216	52	6502
2026-01-16 00:45:35.30	180.20	38.95	-40.5	-41.9	19.7	0.00e+00	92	28	0	543162368	52	7147
2026-01-16 00:45:36.31	180.34	39.20	-40.6	-42.0	19.7	0.00e+00	92	28	0	545259520	54	6419
2026-01-16 00:45:37.32	180.49	39.44	-41.1	-42.6	19.4	0.00e+00	0	28	0	546308096	54	6876
2026-01-16 00:45:38.33	180.64	39.69	-41.0	-42.6	19.3	0.00e+00	92	28	0	548405248	54	6867
2026-01-16 00:45:39.34	180.79	39.94	-41.1	-42.7	19.3	0.00e+00	0	28	0	550502400	54	6974
2026-01-16 00:45:40.34	180.95	40.19	-41.2	-42.8	19.3	0.00e+00	83	28	0	552599552	54	7032
2026-01-16 00:45:41.35	181.11	40.44	-41.2	-42.8	19.1	0.00e+00	0	28	0	554696704	54	7069
2026-01-16 00:45:42.36	181.27	40.70	-40.8	-42.3	19.4	0.00e+00	92	28	0	555745280	54	6677
2026-01-16 00:45:43.37	181.43	40.96	-40.7	-42.2	19.7	0.00e+00	92	28	0	557842432	54	6551
2026-01-16 00:45:44.38	181.59	41.21	-40.9	-42.4	19.5	0.00e+00	18	28	0	559939584	54	6736
2026-01-16 00:45:45.39	181.76	41.47	-40.1	-41.4	20.2	0.00e+00	92	28	0	562036736	54	6007
2026-01-16 00:45:46.40	181.93	41.74	-40.2	-41.6	20.1	0.00e+00	0	28	0	564133888	54	6123
2026-01-16 00:45:47.41	182.10	42.00	-40.0	-41.3	20.4	0.00e+00	92	28	0	565182464	52	6657
2026-01-16 00:45:48.42	182.28	42.26	-39.7	-41.0	20.8	0.00e+00	0	28	0	567279616	52	6398
2026-01-16 00:45:49.43	182.46	42.53	-39.5	-40.7	21.0	0.00e+00	92	28	0	569376768	52	6230
2026-01-16 00:45:50.44	182.64	42.80	-38.7	-39.8	21.6	0.00e+00	92	28	0	571473920	50	6255
2026-01-16 00:45:51.45	182.82	43.07	-38.9	-40.0	21.6	0.00e+00	68	28	0	573571072	50	6417
2026-01-16 00:45:52.46	183.01	43.34	-39.3	-40.5	21.0	0.00e+00	92	28	0	574619648	50	6782
2026-01-16 00:45:53.47	183.20	43.61	-39.0	-40.2	21.6	0.00e+00	0	28	0	576716800	50	6556
2026-01-16 00:45:54.48	183.39	43.88	-39.7	-41.0	20.9	0.00e+00	92	28	0	578813952	52	6462
2026-01-16 00:45:55.49	183.59	44.16	-40.2	-41.7	20.1	0.00e+00	32	28	0	580911104	52	6956
2026-01-16 00:45:56.50	183.79	44.44	-40.4	-41.9	19.9	0.00e+00	91	28	0	583008256	52	7120
2026-01-16 00:45:57.50	183.99	44.71	-40.2	-41.7	20.1	0.00e+00	90	28	0	585105408	52	6959
2026-01-16 00:45:58.52	184.20	45.00	-39.7	-41.0	20.6	0.00e+00	92	28	0	586153984	52	6463
2026-01-16 00:45:59.52	184.41	45.27	-39.2	-40.4	21.2	0.00e+00	92	28	0	588251136	52	6004
2026-01-16 00:46:00.53	184.62	45.56	-39.3	-40.5	20.9	0.00e+00	29	28	0	590348288	52	6095
2026-01-16 00:46:01.54	184.84	45.84	-39.3	-40.6	21.0	0.00e+00	91	28	0	592445440	52	6140
2026-01-16 00:46:02.55	185.07	46.13	-40.0	-41.4	20.2	0.00e+00	0	28	0	594542592	52	6759
2026-01-16 00:46:03.56	185.29	46.42	-39.8	-41.1	20.5	0.00e+00	91	28	0	595591168	52	6504
2026-01-16 00:46:04.57	185.52	46.71	-39.7	-41.0	20.8	0.00e+00	92	28	0	597688320	52	6452
2026-01-16 00:46:05.58	185.76	47.00	-39.1	-40.4	20.7	0.00e+00	92	28	0	599785472	52	5969
2026-01-16 00:46:06.59	186.00	47.29	-39.2	-40.4	21.2	0.00e+00	92	28	0	601882624	52	6031
2026-01-16 00:46:07.60	186.24	47.59	-39.3	-40.6	21.1	0.00e+00	0	28	0	603979776	52	6112
2026-01-16 00:46:08.61	186.49	47.88	-39.0	-40.2	21.3	0.00e+00	92	28	0	605028352	50	6548
2026-01-16 00:46:09.61	186.74	48.18	-38.8	-40.0	21.5	0.00e+00	0	28	0	607125504	50	6421
2026-01-16 00:46:10.62	186.99	48.48	-38.0	-39.0	22.2	0.00e+00	92	28	0	609222656	50	5748
2026-01-16 00:46:11.63	187.26	48.78	-38.0	-39.0	22.3	0.00e+00	88	28	0	611319808	50	5751
2026-01-16 00:46:12.64	187.52	49.08	-38.0	-39.0	22.3	0.00e+00	92	28	0	613416960	50	5729
2026-01-16 00:46:13.65	187.80	49.38	-37.6	-38.7	22.5	0.00e+00	91	28	0	614465536	48	6177
2026-01-16 00:46:14.66	188.08	49.69	-38.1	-39.2	22.3	0.00e+00	0	28	0	616562688	48	6548
2026-01-16 00:46:15.67	188.36	49.99	-37.8	-38.8	22.5	0.00e+00	92	28	0	618659840	48	6265
2026-01-16 00:46:16.68	188.65	50.30	-37.8	-38.8	22.4	0.00e+00	0	28	0	620756992	48	6309
2026-01-16 00:46:17.69	188.94	50.61	-37.3	-38.3	22.8	0.00e+00	90	28	0	622854144	48	5920
2026-01-16 00:46:18.70	189.25	50.92	-37.1	-38.2	23.1	0.00e+00	57	28	0	623902720	48	5839
2026-01-16 00:46:19.71	189.55	51.23	-37.2	-38.2	22.9	0.00e+00	92	28	0	625999872	48	5833
2026-01-16 00:46:20.72	189.87	51.54	-37.1	-38.1	22.9	0.00e+00	92	28	0	628097024	48	5775
2026-01-16 00:46:21.72	190.18	51.85	-37.0	-38.0	23.1	0.00e+00	0	28	0	630194176	48	5732
2026-01-16 00:46:22.73	190.51	52.16	-37.1	-38.1	23.1	0.00e+00	92	28	0	632291328	48	5763
2026-01-16 00:46:23.74	190.84	52.48	-37.1	-38.1	23.0	0.00e+00	0	28	0	633339904	48	5763
2026-01-16 00:46:24.75	191.19	52.79	-37.1	-38.1	22.9	0.00e+00	90	28	0	635437056	46	6485
2026-01-16 00:46:25.76	191.53	53.11	-37.0	-38.0	23.1	0.00e+00	0	28	0	637534208	46	6405
2026-01-16 00:46:26.77	191.89	53.43	-37.7	-38.8	22.6	0.00e+00	91	28	0	639631360	46	7010
2026-01-16 00:46:27.78	192.25	53.75	-36.5	-37.5	23.5	0.00e+00	91	28	0	641728512	46	6076
2026-01-16 00:46:28.79	192.63	54.07	-35.7	-36.6	24.2	0.00e+00	0	28	0	642777088	46	5448
2026-01-16 00:46:29.80	193.01	54.39	-35.5	-36.4	24.3	0.00e+00	92	28	0	644874240	44	5994
2026-01-16 00:46:30.81	193.39	54.71	-34.9	-35.7	24.7	0.00e+00	0	28	0	646971392	44	5549
2026-01-16 00:46:31.82	193.79	55.03	-34.8	-35.7	24.8	0.00e+00	91	28	0	649068544	42	6174
2026-01-16 00:46:32.83	194.20	55.36	-34.8	-35.6	24.7	0.00e+00	0	28	0	651165696	42	6158
2026-01-16 00:46:33.84	194.61	55.68	-34.2	-35.0	25.1	0.00e+00	90	28	0	653262848	42	5730
2026-01-16 00:46:34.85	195.04	56.00	-34.2	-34.9	25.4	0.00e+00	92	28	0	654311424	42	5677
2026-01-16 00:46:35.86	195.47	56.33	-34.2	-35.0	25.2	0.00e+00	92	28	0	656408576	42	5736
2026-01-16 00:46:36.86	195.92	56.65	-34.0	-34.8	25.4	0.00e+00	92	28	0	658505728	42	5586
2026-01-16 00:46:37.87	196.37	56.97	-34.1	-34.8	25.4	0.00e+00	0	28	0	660602880	42	5627
2026-01-16 00:46:38.88	196.84	57.30	-33.8	-34.6	25.6	0.00e+00	92	28	0	661651456	42	5464
2026-01-16 00:46:39.89	197.32	57.62	-33.9	-34.7	25.5	0.00e+00	0	28	0	663748608	42	5508
2026-01-16 00:46:40.90	197.80	57.95	-34.2	-34.9	25.3	0.00e+00	92	28	0	665845760	42	5692
2026-01-16 00:46:41.91	198.31	58.27	-34.7	-35.4	25.0	0.00e+00	0	28	0	667942912	42	6031
2026-01-16 00:46:42.91	198.81	58.59	-34.9	-35.6	24.9	0.00e+00	91	28	0	670040064	42	6163
2026-01-16 00:46:43.93	199.35	58.92	-35.4	-36.3	24.4	0.00e+00	92	28	0	671088640	42	6622
2026-01-16 00:46:44.94	199.88	59.25	-35.6	-36.4	23.7	0.00e+00	0	28	0	673185792	44	6031
2026-01-16 00:46:45.94	200.43	59.56	-35.2	-36.1	24.6	0.00e+00	91	28	0	675282944	44	5780
2026-01-16 00:46:46.95	201.00	59.89	-34.9	-35.7	24.8	0.00e+00	0	28	0	677380096	44	5559
2026-01-16 00:46:47.96	201.58	60.21	-35.0	-35.8	24.7	0.00e+00	91	28	0	679477248	44	5617
2026-01-16 00:46:48.97	202.17	60.53	-35.8	-36.7	24.1	0.00e+00	0	28	0	681574400	44	6198
2026-01-16 00:46:49.98	202.78	60.85	-36.3	-37.3	23.6	0.00e+00	90	28	0	682622976	44	6655
2026-01-16 00:46:50.98	203.40	61.16	-36.7	-37.7	23.5	0.00e+00	91	28	0	684720128	46	6192
2026-01-16 00:46:51.99	204.04	61.48	-36.6	-37.6	23.4	0.00e+00	0	28	0	686817280	46	6152
2026-01-16 00:46:53.00	204.70	61.79	-36.5	-37.4	23.6	0.00e+00	62	28	0	688914432	46	6024
2026-01-16 00:46:54.01	205.37	62.10	-36.0	-36.9	24.0	0.00e+00	0	28	0	691011584	46	5671
2026-01-16 00:46:55.02	206.06	62.42	-36.1	-36.9	24.0	0.00e+00	87	28	0	692060160	46	5695
2026-01-16 00:46:56.03	206.77	62.72	-35.5	-36.4	24.4	0.00e+00	0	28	0	694157312	44	5971
2026-01-16 00:46:57.04	207.50	63.03	-35.2	-36.1	24.6	0.00e+00	92	28	0	696254464	44	5773
2026-01-16 00:46:58.05	208.24	63.33	-34.5	-35.2	25.1	0.00e+00	86	28	0	698351616	42	5890
2026-01-16 00:46:59.06	209.01	63.63	-33.8	-34.5	25.7	0.00e+00	0	28	0	700448768	42	5406
2026-01-16 00:47:00.06	209.79	63.93	-34.0	-34.8	25.4	0.00e+00	92	28	0	701497344	40	6250
2026-01-16 00:47:01.08	210.60	64.23	-35.0	-35.7	24.8	0.00e+00	0	28	0	703594496	42	6235
2026-01-16 00:47:02.08	211.42	64.52	-35.5	-36.3	24.3	0.00e+00	78	28	0	705691648	42	6686
2026-01-16 00:47:03.09	212.26	64.80	-35.5	-36.3	24.3	0.00e+00	0	28	0	707788800	42	6651
2026-01-16 00:47:04.10	213.13	65.09	-35.9	-36.7	24.2	0.00e+00	90	28	0	709885952	42	6987
2026-01-16 00:47:05.11	214.02	65.37	-35.7	-36.5	24.2	0.00e+00	92	28	0	710934528	44	6081
2026-01-16 00:47:06.12	214.93	65.64	-36.2	-37.0	23.9	0.00e+00	0	28	0	713031680	44	6452
2026-01-16 00:47:07.13	215.87	65.91	-36.6	-37.5	23.4	0.00e+00	91	28	0	715128832	44	6805
2026-01-16 00:47:08.14	216.83	66.18	-36.7	-37.6	23.2	0.00e+00	0	28	0	717225984	46	6163
2026-01-16 00:47:09.15	217.81	66.44	-36.5	-37.4	23.6	0.00e+00	92	28	0	719323136	46	5981
2026-01-16 00:47:10.16	218.81	66.69	-36.0	-36.8	24.1	0.00e+00	0	28	0	720371712	46	5590
2026-01-16 00:47:11.16	219.83	66.94	-36.9	-37.8	23.1	0.00e+00	92	28	0	722468864	46	6294
2026-01-16 00:47:12.17	220.88	67.18	-38.3	-39.4	21.9	0.00e+00	14	28	0	724566016	48	6705
2026-01-16 00:47:13.18	221.96	67.41	-39.3	-40.6	21.1	0.00e+00	92	28	0	726663168	50	6874
2026-01-16 00:47:14.19	223.06	67.64	-39.9	-41.3	20.4	0.00e+00	92	28	0	728760320	52	6617
2026-01-16 00:47:15.20	224.19	67.86	-39.4	-40.6	21.2	0.00e+00	0	28	0	729808896	52	6128
2026-01-16 00:47:16.21	225.34	68.08	-37.7	-38.7	22.5	0.00e+00	91	28	0	731906048	50	5522
2026-01-16 00:47:17.22	226.51	68.29	-37.5	-38.5	22.8	0.00e+00	0	28	0	734003200	48	6064
2026-01-16 00:47:18.23	227.71	68.48	-39.2	-40.5	21.1	0.00e+00	91	28	0	736100352	50	6791
2026-01-16 00:47:19.24	228.93	68.67	-39.6	-41.0	20.6	0.00e+00	71	28	0	738197504	52	6398
2026-01-16 00:47:20.25	230.18	68.86	-39.1	-40.2	21.2	0.00e+00	10	28	0	739246080	52	5892
2026-01-16 00:47:21.27	231.46	69.03	-39.3	-40.6	21.0	0.00e+00	92	28	0	741343232	52	6125
2026-01-16 00:47:22.27	232.73	69.19	-39.3	-40.6	21.1	0.00e+00	0	28	0	743440384	52	6128
2026-01-16 00:47:23.28	234.04	69.35	-39.8	-41.1	20.6	0.00e+00	92	28	0	745537536	52	6495
2026-01-16 00:47:24.29	235.37	69.49	-40.0	-41.3	20.7	0.00e+00	0	28	0	747634688	52	6692
2026-01-16 00:47:25.30	236.73	69.62	-38.5	-39.6	21.9	0.00e+00	92	28	0	749731840	52	5451
2026-01-16 00:47:26.31	238.09	69.75	-37.7	-38.7	22.6	0.00e+00	0	28	0	750780416	48	6206
2026-01-16 00:47:27.32	239.48	69.86	-38.2	-39.3	22.1	0.00e+00	92	28	0	752877568	48	6646
2026-01-16 00:47:28.33	240.88	69.96	-38.8	-39.9	21.5	0.00e+00	90	28	0	754974720	50	6388
2026-01-16 00:47:29.34	242.30	70.05	-38.2	-39.2	22.2	0.00e+00	0	28	0	757071872	50	5891
2026-01-16 00:47:30.35	243.72	70.13	-37.8	-38.7	22.6	0.00e+00	63	28	0	759169024	48	6243
2026-01-16 00:47:31.36	245.16	70.20	-37.2	-38.2	23.2	0.00e+00	0	28	0	760217600	48	5849
2026-01-16 00:47:32.37	246.61	70.25	-36.7	-37.5	23.5	0.00e+00	90	28	0	762314752	46	6099
2026-01-16 00:47:33.38	248.07	70.30	-35.9	-36.7	24.1	0.00e+00	0	28	0	764411904	46	5565
2026-01-16 00:47:34.39	249.53	70.33	-36.2	-37.1	23.7	0.00e+00	90	28	0	766509056	46	5787
2026-01-16 00:47:35.39	250.99	70.35	-36.9	-37.8	23.4	0.00e+00	90	28	0	768606208	46	6266
2026-01-16 00:47:36.40	252.45	70.36	-37.3	-38.3	22.9	0.00e+00	0	28	0	769654784	46	6663
2026-01-16 00:47:37.41	253.92	70.35	-36.9	-37.8	23.3	0.00e+00	12	28	0	771751936	46	6316
2026-01-16 00:47:38.42	255.39	70.34	-37.3	-38.2	23.2	0.00e+00	0	28	0	773849088	46	6601
2026-01-16 00:47:39.43	256.86	70.31	-37.6	-38.6	22.8	0.00e+00	92	28	0	775946240	48	6153
2026-01-16 00:47:40.44	258.32	70.27	-37.4	-38.3	23.1	0.00e+00	0	28	0	778043392	48	5943
2026-01-16 00:47:41.45	259.77	70.22	-37.2	-38.1	23.0	0.00e+00	92	28	0	779091968	48	5788
2026-01-16 00:47:42.45	261.20	70.16	-37.9	-38.9	22.4	0.00e+00	85	28	0	781189120	48	6389
2026-01-16 00:47:43.46	262.63	70.08	-38.3	-39.4	21.8	0.00e+00	0	28	0	783286272	48	6732
2026-01-16 00:47:44.48	264.06	69.99	-38.3	-39.3	22.0	0.00e+00	22	28	0	785383424	48	6687
2026-01-16 00:47:45.48	265.45	69.90	-39.1	-40.3	21.1	0.00e+00	64	28	0	787480576	50	6647
2026-01-16 00:47:46.49	266.85	69.79	-42.0	-44.0	18.0	0.00e+00	89	28	0	788529152	56	7213
2026-01-16 00:47:47.50	268.22	69.67	-42.5	-44.6	17.6	0.00e+00	0	28	0	790626304	56	7712
2026-01-16 00:47:48.51	269.58	69.54	-41.2	-42.8	19.4	0.00e+00	92	28	0	792723456	56	6250
2026-01-16 00:47:49.52	270.91	69.40	-41.0	-42.5	19.2	0.00e+00	3	28	0	794820608	54	6802
2026-01-16 00:47:50.53	272.23	69.25	-43.4	-45.9	15.9	0.00e+00	0	28	0	796917760	58	7978
2026-01-16 00:47:51.54	273.53	69.09	-43.2	-45.6	17.1	0.00e+00	92	28	0	797966336	60	6856
2026-01-16 00:47:52.55	274.80	68.92	-39.3	-40.5	21.1	0.00e+00	29	28	0	800063488	52	6072
2026-01-16 00:47:53.55	276.04	68.75	-39.5	-40.7	21.0	0.00e+00	90	28	0	802160640	52	6222
2026-01-16 00:47:54.56	277.27	68.56	-39.0	-40.2	21.5	0.00e+00	0	28	0	804257792	52	5868
2026-01-16 00:47:55.57	278.48	68.37	-38.4	-39.4	22.0	0.00e+00	90	28	0	806354944	50	6026
2026-01-16 00:47:56.58	279.66	68.16	-37.9	-39.0	22.5	0.00e+00	1	28	0	807403520	50	5696
2026-01-16 00:47:57.59	280.82	67.95	-36.5	-37.4	23.6	0.00e+00	0	28	0	809500672	46	5992
2026-01-16 00:47:58.60	281.95	67.73	-36.0	-36.8	24.2	0.00e+00	90	28	0	811597824	46	5609
2026-01-16 00:47:59.61	283.06	67.51	-37.0	-37.9	23.3	0.00e+00	0	28	0	813694976	46	6381
2026-01-16 00:48:00.62	284.15	67.27	-37.6	-38.6	22.6	0.00e+00	38	28	0	815792128	46	6862
2026-01-16 00:48:01.63	285.21	67.03	-36.8	-37.8	23.3	0.00e+00	0	28	0	816840704	46	6271
2026-01-16 00:48:02.64	286.25	66.79	-36.1	-37.0	24.0	0.00e+00	81	28	0	818937856	46	5724
2026-01-16 00:48:03.65	287.26	66.54	-35.1	-35.9	24.6	0.00e+00	0	28	0	821035008	44	5657
2026-01-16 00:48:04.66	288.25	66.28	-34.8	-35.6	24.9	0.00e+00	56	28	0	823132160	44	5474
2026-01-16 00:48:05.67	289.22	66.02	-34.4	-35.2	25.3	0.00e+00	92	28	0	825229312	42	5833
2026-01-16 00:48:06.68	290.16	65.75	-34.1	-34.9	25.3	0.00e+00	0	28	0	826277888	42	5635
2026-01-16 00:48:07.69	291.08	65.48	-34.7	-35.5	25.0	0.00e+00	92	28	0	828375040	42	6055
2026-01-16 00:48:08.70	291.98	65.20	-35.7	-36.5	24.4	0.00e+00	0	28	0	830472192	44	6078
2026-01-16 00:48:09.70	292.84	64.92	-35.1	-36.0	24.6	0.00e+00	87	28	0	832569344	44	5701
2026-01-16 00:48:10.71	293.70	64.64	-34.3	-35.0	25.4	0.00e+00	0	28	0	834666496	42	5756
2026-01-16 00:48:11.72	294.53	64.35	-34.6	-35.4	25.0	0.00e+00	90	28	0	835715072	42	6025
2026-01-16 00:48:12.73	295.34	64.06	-35.5	-36.4	24.3	0.00e+00	84	28	0	837812224	42	6744
2026-01-16 00:48:13.74	296.13	63.76	-36.5	-37.5	23.5	0.00e+00	0	28	0	839909376	44	6774
2026-01-16 00:48:14.75	296.91	63.46	-36.6	-37.5	23.5	0.00e+00	26	28	0	842006528	46	6101
2026-01-16 00:48:15.76	297.66	63.16	-35.2	-36.0	24.7	0.00e+00	0	28	0	844103680	44	5722
2026-01-16 00:48:16.77	298.39	62.85	-34.1	-34.8	25.3	0.00e+00	60	28	0	846200832	42	5615
2026-01-16 00:48:17.78	299.11	62.55	-34.8	-35.6	24.9	0.00e+00	0	28	0	847249408	42	6139
2026-01-16 00:48:18.79	299.80	62.24	-35.0	-35.9	24.6	0.00e+00	90	28	0	849346560	42	6348
2026-01-16 00:48:19.79	300.48	61.93	-34.9	-35.7	24.8	0.00e+00	26	28	0	851443712	42	6239
2026-01-16 00:48:20.80	301.14	61.62	-35.0	-35.8	24.5	0.00e+00	0	28	0	853540864	42	6288
2026-01-16 00:48:21.81	301.79	61.30	-35.5	-36.4	24.1	0.00e+00	90	28	0	855638016	42	6712
2026-01-16 00:48:22.82	302.42	60.99	-35.1	-35.9	24.5	0.00e+00	0	28	0	856686592	42	6371
2026-01-16 00:48:23.82	303.03	60.67	-35.5	-36.4	24.3	0.00e+00	89	27	0	858783744	42	6718
2026-01-16 00:48:24.83	303.63	60.35	-35.4	-36.2	24.6	0.00e+00	0	27	0	860880896	42	6606
2026-01-16 00:48:25.84	304.21	60.03	-34.7	-35.5	24.8	0.00e+00	91	28	0	862978048	42	6082
2026-01-16 00:48:26.85	304.78	59.71	-34.2	-35.1	25.2	0.00e+00	8	28	0	865075200	42	5766
2026-01-16 00:48:27.86	305.34	59.39	-34.9	-35.7	24.8	0.00e+00	0	28	0	866123776	42	6217
2026-01-16 00:48:28.87	305.88	59.07	-35.1	-36.0	24.4	0.00e+00	92	28	0	868220928	42	6454
2026-01-16 00:48:29.88	306.41	58.75	-35.2	-36.1	24.6	0.00e+00	0	28	0	870318080	42	6531
2026-01-16 00:48:30.88	306.93	58.43	-33.6	-34.4	25.7	0.00e+00	90	27	0	872415232	42	5341
2026-01-16 00:48:31.89	307.43	58.10	-33.0	-33.7	26.0	0.00e+00	0	27	0	874512384	40	5564
2026-01-16 00:48:32.90	307.92	57.78	-34.5	-35.4	24.9	0.00e+00	92	28	0	875560960	40	6702
2026-01-16 00:48:33.90	308.40	57.46	-35.2	-36.1	24.6	0.00e+00	64	28	0	877658112	42	6473
2026-01-16 00:48:34.91	308.87	57.13	-34.8	-35.6	24.8	0.00e+00	0	27	0	879755264	42	6163
2026-01-16 00:48:35.92	309.33	56.81	-35.0	-35.9	24.5	0.00e+00	91	28	0	881852416	42	6336
2026-01-16 00:48:36.93	309.78	56.49	-34.3	-35.1	25.2	0.00e+00	0	28	0	883949568	42	5818
2026-01-16 00:48:37.94	310.22	56.16	-33.5	-34.3	25.5	0.00e+00	72	27	0	884998144	40	5920
2026-01-16 00:48:38.95	310.65	55.84	-33.4	-34.2	25.6	0.00e+00	0	28	0	887095296	40	5839
2026-01-16 00:48:39.96	311.07	55.52	-34.4	-35.3	24.9	0.00e+00	90	28	0	889192448	40	6656
2026-01-16 00:48:40.97	311.48	55.20	-35.3	-36.3	24.3	0.00e+00	0	28	0	891289600	42	6667
2026-01-16 00:48:41.98	311.88	54.88	-34.1	-34.9	25.2	0.00e+00	64	28	0	893386752	42	5682
2026-01-16 00:48:42.99	312.27	54.55	-32.9	-33.6	26.0	0.00e+00	83	28	0	894435328	40	5502
2026-01-16 00:48:43.99	312.65	54.24	-32.7	-33.5	26.2	0.00e+00	0	28	0	896532480	38	6094
2026-01-16 00:48:45.00	313.02	53.92	-33.3	-34.2	25.6	0.00e+00	9	28	0	898629632	38	6540
2026-01-16 00:48:46.01	313.39	53.60	-33.6	-34.5	25.6	0.00e+00	0	28	0	900726784	38	6815
2026-01-16 00:48:47.02	313.75	53.28	-33.8	-34.7	25.4	0.00e+00	92	28	0	902823936	40	6183
2026-01-16 00:48:48.03	314.10	52.97	-33.9	-34.8	25.1	0.00e+00	0	28	0	903872512	40	6309
2026-01-16 00:48:49.04	314.45	52.65	-34.5	-35.4	25.0	0.00e+00	48	28	0	905969664	40	6719
2026-01-16 00:48:50.05	314.78	52.33	-34.8	-35.7	24.6	0.00e+00	92	28	0	908066816	42	6219
2026-01-16 00:48:51.06	315.11	52.02	-34.5	-35.4	25.0	0.00e+00	0	28	0	910163968	42	5979
2026-01-16 00:48:52.07	315.43	51.71	-35.0	-35.9	24.6	0.00e+00	81	28	0	912261120	42	6337
2026-01-16 00:48:53.08	315.75	51.40	-35.8	-36.8	24.1	0.00e+00	0	28	0	913309696	44	6307
2026-01-16 00:48:54.09	316.06	51.09	-37.3	-38.5	22.6	0.00e+00	90	28	0	915406848	46	6821
2026-01-16 00:48:55.10	316.36	50.78	-37.3	-38.7	22.5	0.00e+00	31	28	0	917504000	46	6943
2026-01-16 00:48:56.10	316.66	50.47	-36.9	-38.2	23.0	0.00e+00	48	28	0	919601152	46	6554
2026-01-16 00:48:57.11	316.95	50.17	-36.1	-37.1	23.6	0.00e+00	1	28	0	921698304	46	5821
2026-01-16 00:48:58.12	317.24	49.86	-35.9	-36.9	23.9	0.00e+00	0	28	0	922746880	46	5673
2026-01-16 00:48:59.13	317.52	49.56	-36.9	-38.0	23.1	0.00e+00	92	28	0	924844032	46	6447
2026-01-16 00:49:00.14	317.79	49.26	-39.0	-40.5	20.7	0.00e+00	0	28	0	926941184	50	6818
2026-01-16 00:49:01.15	318.06	48.95	-40.3	-42.1	19.2	0.00e+00	70	28	0	929038336	52	7290
2026-01-16 00:49:02.16	318.33	48.65	-40.0	-41.8	19.6	0.00e+00	0	28	0	931135488	52	7060
2026-01-16 00:49:03.17	318.59	48.36	-39.4	-41.0	20.7	0.00e+00	92	28	0	932184064	52	6452
2026-01-16 00:49:04.18	318.84	48.06	-38.2	-39.6	22.1	0.00e+00	1	28	0	934281216	50	6105
2026-01-16 00:49:05.19	319.09	47.76	-36.7	-37.7	23.2	0.00e+00	0	28	0	936378368	48	5564
2026-01-16 00:49:06.20	319.33	47.47	-35.7	-36.7	24.1	0.00e+00	58	28	0	938475520	44	6195
2026-01-16 00:49:07.20	319.57	47.18	-35.0	-35.9	24.7	0.00e+00	0	28	0	940572672	44	5651
2026-01-16 00:49:08.22	319.81	46.89	-35.2	-36.0	24.6	0.00e+00	92	28	0	942669824	42	6461
2026-01-16 00:49:09.23	320.04	46.60	-35.8	-36.7	23.9	0.00e+00	0	28	0	943718400	42	6980
2026-01-16 00:49:10.23	320.27	46.31	-36.9	-38.0	23.0	0.00e+00	90	28	0	945815552	46	6404
2026-01-16 00:49:11.24	320.49	46.03	-37.8	-38.9	22.4	0.00e+00	0	28	0	947912704	48	6340
2026-01-16 00:49:12.25	320.71	45.74	-37.8	-38.9	22.4	0.00e+00	0	28	0	950009856	48	6373
2026-01-16 00:49:13.26	320.93	45.46	-36.9	-37.9	23.3	0.00e+00	88	28	0	952107008	48	5681
2026-01-16 00:49:14.27	321.14	45.18	-36.7	-37.7	23.3	0.00e+00	0	28	0	953155584	46	6207
2026-01-16 00:49:15.27	321.35	44.90	-35.9	-36.8	24.1	0.00e+00	46	28	0	955252736	46	5568
2026-01-16 00:49:16.28	321.55	44.62	-36.4	-37.4	23.7	0.00e+00	0	28	0	957349888	46	5969
2026-01-16 00:49:17.29	321.76	44.34	-37.0	-38.0	23.1	0.00e+00	68	28	0	959447040	46	6411
2026-01-16 00:49:18.30	321.95	44.07	-37.4	-38.4	23.1	0.00e+00	0	28	0	961544192	46	6764
2026-01-16 00:49:19.31	322.15	43.79	-38.3	-39.5	21.9	0.00e+00	0	28	0	962592768	48	6826
2026-01-16 00:49:20.32	322.34	43.52	-39.7	-41.3	20.4	0.00e+00	44	28	0	964689920	50	7462
2026-01-16 00:49:21.32	322.53	43.25	-39.3	-40.8	20.9	0.00e+00	0	28	0	966787072	52	6314
2026-01-16 00:49:22.33	322.71	42.99	-38.1	-39.3	22.3	0.00e+00	0	28	0	968884224	50	5943
2026-01-16 00:49:23.34	322.90	42.72	-36.4	-37.4	23.8	0.00e+00	0	28	0	970981376	46	5976
2026-01-16 00:49:24.35	323.08	42.45	-36.0	-36.8	24.4	0.00e+00	93	28	0	972029952	46	5610
2026-01-16 00:49:25.36	323.25	42.19	-35.3	-36.1	24.0	0.00e+00	0	28	0	974127104	44	5808
2026-01-16 00:49:26.37	323.43	41.93	-35.0	-35.8	24.7	0.00e+00	19	28	0	976224256	44	5610
2026-01-16 00:49:27.38	323.60	41.66	-35.8	-36.7	23.9	0.00e+00	59	28	0	978321408	44	6232
2026-01-16 00:49:28.39	323.77	41.41	-36.7	-37.7	22.8	0.00e+00	0	28	0	980418560	46	6188
2026-01-16 00:49:29.40	323.93	41.15	-37.6	-38.8	22.6	0.00e+00	15	28	0	981467136	46	7012
2026-01-16 00:49:30.40	324.09	40.89	-37.9	-39.1	22.4	0.00e+00	0	28	0	983564288	48	6465
2026-01-16 00:49:31.41	324.25	40.64	-37.3	-38.4	22.8	0.00e+00	92	28	0	985661440	48	6029
2026-01-16 00:49:32.42	324.41	40.39	-36.9	-38.0	23.2	0.00e+00	0	27	0	987758592	48	5716
2026-01-16 00:49:33.43	324.57	40.13	-36.1	-37.0	23.8	0.00e+00	92	28	0	989855744	46	5753
2026-01-16 00:49:34.44	324.72	39.88	-35.4	-36.2	24.5	0.00e+00	3	27	0	990904320	44	5874
2026-01-16 00:49:35.45	324.87	39.64	-35.2	-36.0	24.7	0.00e+00	0	28	0	993001472	44	5732
2026-01-16 00:49:36.46	325.02	39.39	-34.7	-35.4	25.0	0.00e+00	48	27	0	995098624	44	5355
2026-01-16 00:49:37.47	325.17	39.14	-35.1	-35.9	24.7	0.00e+00	0	28	0	997195776	42	6380
2026-01-16 00:49:38.48	325.32	38.90	-36.0	-36.8	23.9	0.00e+00	79	28	0	999292928	44	6296
2026-01-16 00:49:39.49	325.46	38.66	-36.8	-37.7	23.4	0.00e+00	33	28	0	1000341504	44	7003
2026-01-16 00:49:40.50	325.60	38.42	-37.9	-38.9	22.3	0.00e+00	91	28	0	1002438656	48	6375
2026-01-16 00:49:41.50	325.74	38.18	-38.9	-40.2	21.4	0.00e+00	73	28	0	1004535808	50	6541
2026-01-16 00:49:42.51	325.87	37.94	-38.4	-39.6	21.9	0.00e+00	0	28	0	1006632960	50	6128
2026-01-16 00:49:43.52	326.01	37.71	-37.9	-39.0	22.3	0.00e+00	90	28	0	1008730112	50	5707
2026-01-16 00:49:44.53	326.14	37.47	-36.4	-37.3	23.9	0.00e+00	0	28	0	1009778688	46	5920
2026-01-16 00:49:45.54	326.27	37.24	-35.7	-36.5	24.3	0.00e+00	47	28	0	1011875840	44	6059
2026-01-16 00:49:46.55	326.40	37.01	-35.3	-36.1	24.6	0.00e+00	0	28	0	1013972992	44	5772
2026-01-16 00:49:47.56	326.53	36.78	-34.9	-35.7	24.8	0.00e+00	92	28	0	1016070144	44	5522
2026-01-16 00:49:48.56	326.66	36.55	-35.2	-36.0	24.5	0.00e+00	0	28	0	1018167296	44	5731
2026-01-16 00:49:49.57	326.78	36.32	-35.8	-36.6	24.0	0.00e+00	0	28	0	1019215872	44	6164
2026-01-16 00:49:50.58	326.90	36.10	-35.5	-36.3	24.2	0.00e+00	85	27	0	1021313024	44	5944
2026-01-16 00:49:51.59	327.02	35.87	-36.2	-37.1	23.9	0.00e+00	0	28	0	1023410176	44	6507
2026-01-16 00:49:52.60	327.14	35.65	-36.0	-36.9	24.1	0.00e+00	7	28	0	1025507328	44	6322
2026-01-16 00:49:53.61	327.26	35.43	-36.2	-37.0	23.9	0.00e+00	0	28	0	1027604480	44	6459
2026-01-16 00:49:54.61	327.38	35.21	-36.6	-37.5	23.6	0.00e+00	90	28	0	1028653056	46	6080
2026-01-16 00:49:55.62	327.49	34.99	-36.9	-37.9	23.2	0.00e+00	0	28	0	1030750208	46	6345
2026-01-16 00:49:56.63	327.61	34.78	-36.9	-37.9	23.4	0.00e+00	0	28	0	1032847360	46	6322
2026-01-16 00:49:57.64	327.72	34.56	-37.3	-38.2	23.0	0.00e+00	89	28	0	1034944512	46	6605
2026-01-16 00:49:58.65	327.83	34.35	-37.6	-38.6	22.8	0.00e+00	0	28	0	1037041664	46	6874
2026-01-16 00:49:59.66	327.94	34.13	-37.9	-38.9	22.4	0.00e+00	89	28	0	1039138816	48	6378
2026-01-16 00:50:00.67	328.04	33.92	-38.9	-40.1	21.4	0.00e+00	0	27	0	1040187392	50	6475
2026-01-16 00:50:01.68	328.15	33.71	-39.1	-40.3	21.4	0.00e+00	92	27	0	1042284544	50	6646
2026-01-16 00:50:02.69	328.26	33.50	-39.6	-41.0	20.7	0.00e+00	0	28	0	1044381696	50	7171
2026-01-16 00:50:03.70	328.36	33.29	-40.2	-41.6	19.9	0.00e+00	41	28	0	1046478848	52	6911
2026-01-16 00:50:04.70	328.46	33.09	-40.2	-41.6	20.3	0.00e+00	86	28	0	1048576000	52	6876
2026-01-16 00:50:05.71	328.56	32.88	-39.4	-40.7	21.2	0.00e+00	0	28	0	1049624576	52	6209
2026-01-16 00:50:06.72	328.66	32.68	-38.9	-40.0	21.6	0.00e+00	73	28	0	1051721728	52	5752
2026-01-16 00:50:07.73	328.76	32.48	-38.4	-39.5	21.9	0.00e+00	0	28	0	1053818880	50	6075
2026-01-16 00:50:08.74	328.86	32.28	-37.1	-38.0	23.1	0.00e+00	86	27	0	1055916032	48	5733
2026-01-16 00:50:09.75	328.96	32.08	-37.2	-38.2	23.1	0.00e+00	0	28	0	1058013184	48	5833
2026-01-16 00:50:10.76	329.05	31.88	-37.0	-38.0	23.2	0.00e+00	52	27	0	1059061760	48	5699
2026-01-16 00:50:11.77	329.15	31.68	-37.3	-38.2	23.0	0.00e+00	0	28	0	1061158912	48	5888
2026-01-16 00:50:12.78	329.24	31.48	-37.7	-38.7	22.6	0.00e+00	0	28	0	1063256064	48	6189
2026-01-16 00:50:13.79	329.33	31.29	-37.8	-38.8	22.5	0.00e+00	92	28	0	1065353216	48	6310
2026-01-16 00:50:14.80	329.42	31.09	-38.1	-39.1	22.3	0.00e+00	0	28	0	1067450368	48	6525
2026-01-16 00:50:15.81	329.51	30.90	-38.5	-39.6	22.0	0.00e+00	85	27	0	1068498944	48	6876
2026-01-16 00:50:16.82	329.60	30.71	-38.2	-39.3	22.1	0.00e+00	0	28	0	1070596096	48	6676
2026-01-16 00:50:17.82	329.69	30.52	-38.4	-39.5	22.0	0.00e+00	78	28	0	1072693248	48	6785
2026-01-16 00:50:18.83	329.78	30.33	-38.5	-39.6	21.9	0.00e+00	0	28	0	1074790400	48	6907
2026-01-16 00:50:19.84	329.86	30.14	-38.2	-39.2	22.1	0.00e+00	0	28	0	1076887552	48	6592
2026-01-16 00:50:20.85	329.95	29.96	-38.1	-39.2	22.3	0.00e+00	85	28	0	1077936128	48	6540
2026-01-16 00:50:21.86	330.03	29.77	-38.5	-39.5	21.8	0.00e+00	0	28	0	1080033280	48	6832
2026-01-16 00:50:22.87	330.12	29.59	-37.7	-38.7	22.5	0.00e+00	77	28	0	1082130432	48	6226
2026-01-16 00:50:23.88	330.20	29.40	-38.0	-39.0	22.3	0.00e+00	0	28	0	1084227584	48	6453
2026-01-16 00:50:24.89	330.28	29.22	-38.5	-39.5	22.0	0.00e+00	83	28	0	1086324736	48	6815
2026-01-16 00:50:25.90	330.36	29.04	-37.9	-38.9	22.4	0.00e+00	0	28	0	1087373312	48	6374
2026-01-16 00:50:26.91	330.44	28.86	-38.1	-39.1	22.2	0.00e+00	0	28	0	1089470464	48	6529
2026-01-16 00:50:27.92	330.52	28.68	-38.3	-39.4	22.0	0.00e+00	55	28	0	1091567616	48	6720
2026-01-16 00:50:28.92	330.60	28.51	-37.8	-38.8	22.6	0.00e+00	0	28	0	1093664768	48	6298
2026-01-16 00:50:29.94	330.68	28.33	-37.5	-38.5	22.6	0.00e+00	0	28	0	1095761920	48	6054
2026-01-16 00:50:30.94	330.75	28.15	-36.8	-37.7	23.3	0.00e+00	0	28	0	1096810496	48	5557
2026-01-16 00:50:31.95	330.83	27.98	-36.8	-37.7	23.4	0.00e+00	86	28	0	1098907648	46	6200
2026-01-16 00:50:32.96	330.91	27.81	-36.3	-37.2	23.8	0.00e+00	0	28	0	1101004800	46	5861
2026-01-16 00:50:33.97	330.98	27.63	-35.9	-36.7	24.0	0.00e+00	0	28	0	1103101952	46	5524
2026-01-16 00:50:34.98	331.05	27.46	-35.7	-36.5	24.2	0.00e+00	78	28	0	1105199104	44	6083
2026-01-16 00:50:35.99	331.13	27.29	-36.0	-36.8	23.9	0.00e+00	0	28	0	1106247680	44	6292
2026-01-16 00:50:37.00	331.20	27.12	-35.8	-36.6	24.0	0.00e+00	86	28	0	1108344832	44	6164
2026-01-16 00:50:38.01	331.27	26.95	-35.7	-36.6	24.1	0.00e+00	0	28	0	1110441984	44	6114
2026-01-16 00:50:39.02	331.34	26.79	-35.9	-36.8	24.0	0.00e+00	88	28	0	1112539136	44	6247
2026-01-16 00:50:40.03	331.41	26.62	-35.7	-36.6	24.2	0.00e+00	0	28	0	1114636288	44	6115
2026-01-16 00:50:41.04	331.48	26.46	-35.8	-36.6	24.0	0.00e+00	71	28	0	1115684864	44	6163
2026-01-16 00:50:42.04	331.55	26.29	-35.9	-36.8	23.9	0.00e+00	3	28	0	1117782016	44	6304
2026-01-16 00:50:43.05	331.62	26.13	-36.0	-36.9	23.8	0.00e+00	0	28	0	1119879168	44	6348
2026-01-16 00:50:44.06	331.68	25.97	-36.0	-37.0	23.9	0.00e+00	13	28	0	1121976320	44	6395
2026-01-16 00:50:45.07	331.75	25.81	-36.3	-37.2	23.7	0.00e+00	0	28	0	1124073472	44	6567
2026-01-16 00:50:46.08	331.82	25.64	-36.3	-37.3	23.6	0.00e+00	81	28	0	1125122048	44	6616
2026-01-16 00:50:47.09	331.88	25.49	-36.6	-37.6	23.5	0.00e+00	0	28	0	1127219200	44	6849
2026-01-16 00:50:48.10	331.95	25.33	-36.9	-37.8	23.3	0.00e+00	90	28	0	1129316352	44	7088
2026-01-16 00:50:49.11	332.01	25.17	-36.9	-37.9	23.2	0.00e+00	0	27	0	1131413504	46	6375
2026-01-16 00:50:50.12	332.07	25.01	-37.4	-38.4	22.9	0.00e+00	0	28	0	1133510656	46	6728
2026-01-16 00:50:51.13	332.14	24.86	-37.6	-38.7	22.5	0.00e+00	86	28	0	1135607808	46	6948
2026-01-16 00:50:52.14	332.20	24.70	-37.2	-38.2	23.0	0.00e+00	0	28	0	1136656384	46	6585
2026-01-16 00:50:53.15	332.26	24.55	-37.1	-38.1	22.9	0.00e+00	9	28	0	1138753536	46	6531
2026-01-16 00:50:54.16	332.32	24.39	-37.2	-38.3	22.9	0.00e+00	0	28	0	1140850688	46	6627
2026-01-16 00:50:55.16	332.38	24.24	-36.8	-37.8	23.3	0.00e+00	0	27	0	1142947840	46	6282
2026-01-16 00:50:56.17	332.44	24.09	-36.9	-37.9	23.2	0.00e+00	0	28	0	1145044992	46	6373
2026-01-16 00:50:57.18	332.50	23.94	-36.5	-37.5	23.5	0.00e+00	0	28	0	1146093568	46	6063
2026-01-16 00:50:58.19	332.56	23.79	-36.4	-37.4	23.6	0.00e+00	15	27	0	1148190720	46	5995
2026-01-16 00:50:59.20	332.62	23.64	-36.2	-37.1	23.7	0.00e+00	0	27	0	1150287872	46	5811
2026-01-16 00:51:00.21	332.68	23.49	-36.1	-37.1	23.7	0.00e+00	72	28	0	1152385024	46	5782
2026-01-16 00:51:01.22	332.74	23.34	-36.2	-37.1	23.8	0.00e+00	0	27	0	1154482176	46	5828
2026-01-16 00:51:02.23	332.80	23.20	-36.0	-37.0	23.8	0.00e+00	0	27	0	1155530752	46	5725
2026-01-16 00:51:03.24	332.85	23.05	-35.7	-36.6	24.2	0.00e+00	0	27	0	1157627904	44	6171
2026-01-16 00:51:04.25	332.91	22.91	-35.5	-36.4	24.2	0.00e+00	0	28	0	1159725056	44	6019
2026-01-16 00:51:05.26	332.96	22.76	-35.5	-36.4	24.2	0.00e+00	3	28	0	1161822208	44	6008
2026-01-16 00:51:06.27	333.02	22.62	-35.3	-36.2	24.3	0.00e+00	0	28	0	1163919360	44	5855
2026-01-16 00:51:07.28	333.07	22.48	-35.1	-35.9	24.5	0.00e+00	75	28	0	1164967936	44	5660
2026-01-16 00:51:08.29	333.13	22.33	-35.3	-36.2	24.4	0.00e+00	0	28	0	1167065088	44	5836
2026-01-16 00:51:09.30	333.18	22.19	-35.1	-35.9	24.6	0.00e+00	0	27	0	1169162240	44	5659
2026-01-16 00:51:10.30	333.24	22.05	-34.7	-35.5	24.8	0.00e+00	0	27	0	1171259392	42	6071
2026-01-16 00:51:11.31	333.29	21.91	-34.7	-35.5	25.0	0.00e+00	0	27	0	1173356544	42	6059
2026-01-16 00:51:12.32	333.34	21.78	-34.7	-35.5	24.9	0.00e+00	50	28	0	1174405120	42	6063
2026-01-16 00:51:13.33	333.39	21.64	-34.8	-35.6	24.8	0.00e+00	0	28	0	1176502272	42	6128
2026-01-16 00:51:14.34	333.45	21.50	-34.8	-35.6	24.5	0.00e+00	58	27	0	1178599424	42	6125
2026-01-16 00:51:15.35	333.50	21.36	-35.2	-36.0	24.6	0.00e+00	0	28	0	1180696576	42	6426
2026-01-16 00:51:16.36	333.55	21.23	-35.3	-36.1	24.4	0.00e+00	0	27	0	1182793728	42	6539
2026-01-16 00:51:17.37	333.60	21.09	-35.7	-36.6	24.0	0.00e+00	0	27	0	1183842304	42	6849
2026-01-16 00:51:18.38	333.65	20.96	-36.0	-36.9	23.9	0.00e+00	0	28	0	1185939456	44	6367
2026-01-16 00:51:19.39	333.70	20.82	-35.6	-36.4	24.1	0.00e+00	84	28	0	1188036608	44	6022
2026-01-16 00:51:20.40	333.75	20.69	-35.5	-36.3	24.3	0.00e+00	0	28	0	1190133760	44	5946
2026-01-16 00:51:21.41	333.80	20.56	-35.4	-36.3	24.2	0.00e+00	92	28	0	1192230912	44	5932
2026-01-16 00:51:22.42	333.84	20.43	-35.7	-36.6	24.0	0.00e+00	0	27	0	1193279488	44	6121
2026-01-16 00:51:23.43	333.89	20.30	-35.6	-36.5	24.2	0.00e+00	76	27	0	1195376640	44	6060
2026-01-16 00:51:24.44	333.94	20.16	-35.7	-36.5	24.1	0.00e+00	0	27	0	1197473792	44	6095
