passes_logs/2026/01/16/R4.6S_Anadyr/R4.6S_Anadyr__20260116_153627_NOAA_21_JPSS-2_rec.log

#Pass ID: 20260116_153627_NOAA 21 (JPSS-2)
#Satellite: NOAA 21 (JPSS-2)
#Configuration: NOAA-21
#almurnet v.1.7.20251203
#Start time: 2026-01-16 15:36:31

#Version: 2.2.20231116
#Station: R4.6S_Anadyr
#Location: 177.4865 lon 64.73178 lat
#TLE: 1 54234U 22150A   26015.92901934  .00000025  00000+0  32700-4 0  9991
#TLE: 2 54234  98.7499 316.8175 0000634 284.8145  75.2961 14.19534841164946

#Time	Az	El	Level	Level2	SNR	BER	BlckErr	Temp	State	Recorded	gain1	gain2
2026-01-16 15:36:31.04	22.77	0.20	-48.2	-59.5	3.3	1.54e+00	0	29	0	0	60	33196
2026-01-16 15:36:32.05	22.75	0.26	-48.2	-61.0	3.5	1.52e+00	0	29	104	0	60	39530
2026-01-16 15:36:33.06	22.73	0.32	-48.2	-61.0	3.5	1.52e+00	0	29	104	0	60	39592
2026-01-16 15:36:34.07	22.71	0.38	-48.1	-61.0	3.5	1.52e+00	0	29	104	0	60	39207
2026-01-16 15:36:35.08	22.68	0.44	-48.1	-61.0	3.5	1.52e+00	0	29	104	0	60	39167
2026-01-16 15:36:36.09	22.66	0.50	-48.0	-60.9	3.5	1.52e+00	0	29	104	0	60	38995
2026-01-16 15:36:37.09	22.64	0.56	-48.0	-60.8	3.5	1.52e+00	0	29	104	0	60	38618
2026-01-16 15:36:38.10	22.62	0.62	-47.9	-60.7	3.5	1.52e+00	0	29	104	0	60	38011
2026-01-16 15:36:39.12	22.60	0.68	-47.6	-60.4	3.5	1.52e+00	0	29	104	0	60	36932
2026-01-16 15:36:40.13	22.58	0.74	-47.5	-60.3	3.5	1.52e+00	0	29	104	0	60	36293
2026-01-16 15:36:41.13	22.56	0.80	-47.3	-60.2	3.5	1.52e+00	0	29	104	0	60	35775
2026-01-16 15:36:42.14	22.54	0.86	-47.1	-59.9	3.5	1.52e+00	0	29	104	0	60	34858
2026-01-16 15:36:43.15	22.52	0.93	-46.8	-59.6	3.5	1.52e+00	0	29	104	0	60	33602
2026-01-16 15:36:44.16	22.50	0.99	-46.5	-59.3	3.5	1.51e+00	0	29	104	0	60	32329
2026-01-16 15:36:45.17	22.48	1.05	-46.5	-59.3	3.5	1.52e+00	0	29	104	0	60	32231
2026-01-16 15:36:46.18	22.45	1.11	-46.5	-59.2	3.5	1.51e+00	0	29	104	0	60	32048
2026-01-16 15:36:47.19	22.43	1.17	-46.5	-59.3	3.5	1.52e+00	0	29	104	0	60	32319
2026-01-16 15:36:48.20	22.41	1.23	-46.5	-59.2	3.5	1.52e+00	0	29	104	0	60	32150
2026-01-16 15:36:49.22	22.39	1.30	-46.5	-59.3	3.5	1.52e+00	0	29	104	0	60	32302
2026-01-16 15:36:50.23	22.37	1.36	-46.5	-59.3	3.5	1.52e+00	0	29	104	0	60	32305
2026-01-16 15:36:51.24	22.34	1.42	-46.5	-59.2	3.5	1.52e+00	0	29	104	0	60	32169
2026-01-16 15:36:52.25	22.32	1.48	-46.5	-59.1	3.5	1.52e+00	0	29	104	0	60	31676
2026-01-16 15:36:53.26	22.30	1.55	-46.4	-59.0	3.5	1.52e+00	0	29	104	0	60	31444
2026-01-16 15:36:54.27	22.28	1.61	-46.4	-59.1	3.5	1.52e+00	0	29	104	0	60	31468
2026-01-16 15:36:55.27	22.26	1.67	-46.4	-59.1	3.5	1.52e+00	0	29	104	0	60	31513
2026-01-16 15:36:56.28	22.23	1.73	-46.4	-58.9	3.5	1.52e+00	0	29	104	0	60	30960
2026-01-16 15:36:57.29	22.21	1.80	-46.4	-58.9	3.5	1.52e+00	0	29	104	0	60	31052
2026-01-16 15:36:58.30	22.19	1.86	-46.5	-59.1	3.5	1.52e+00	0	30	104	0	60	31759
2026-01-16 15:36:59.31	22.16	1.92	-46.5	-59.2	3.5	1.52e+00	0	30	104	0	60	32163
2026-01-16 15:37:00.32	22.14	1.99	-46.5	-59.2	3.5	1.52e+00	0	30	104	0	60	32125
2026-01-16 15:37:01.32	22.12	2.05	-46.5	-59.3	3.5	1.52e+00	0	30	104	0	60	32429
2026-01-16 15:37:02.33	22.09	2.11	-46.5	-59.3	3.5	1.52e+00	0	30	104	0	60	32226
2026-01-16 15:37:03.34	22.07	2.18	-46.4	-59.1	3.5	1.52e+00	0	30	104	0	60	31748
2026-01-16 15:37:04.35	22.05	2.24	-46.4	-59.1	3.5	1.52e+00	0	30	104	0	60	31496
2026-01-16 15:37:05.36	22.02	2.30	-46.5	-58.9	3.5	1.52e+00	0	30	104	0	60	30910
2026-01-16 15:37:06.37	22.00	2.37	-46.4	-58.3	3.5	1.52e+00	0	30	104	0	60	29017
2026-01-16 15:37:07.38	21.98	2.43	-46.4	-58.5	3.5	1.52e+00	0	30	104	0	60	29374
2026-01-16 15:37:08.39	21.95	2.50	-46.4	-58.1	3.5	1.51e+00	0	30	104	0	60	28285
2026-01-16 15:37:09.40	21.93	2.56	-46.4	-58.1	3.5	1.51e+00	0	30	104	0	60	28244
2026-01-16 15:37:10.41	21.90	2.63	-46.3	-57.6	3.6	1.51e+00	0	30	104	0	60	26631
2026-01-16 15:37:11.42	21.88	2.69	-46.4	-58.1	3.5	1.51e+00	0	30	104	0	60	28336
2026-01-16 15:37:12.43	21.85	2.76	-46.4	-58.3	3.5	1.51e+00	0	30	104	0	60	28700
2026-01-16 15:37:13.44	21.83	2.82	-46.4	-58.3	3.5	1.51e+00	0	30	104	0	60	28894
2026-01-16 15:37:14.45	21.81	2.89	-46.2	-56.9	3.6	1.51e+00	0	30	104	0	60	24621
2026-01-16 15:37:15.46	21.78	2.95	-45.9	-54.5	4.9	8.44e-01	123	30	104	0	60	18679
2026-01-16 15:37:16.47	21.75	3.02	-45.3	-51.9	6.9	2.90e-01	122	30	104	0	60	13831
2026-01-16 15:37:17.48	21.73	3.08	-44.5	-48.7	9.4	3.24e-02	118	30	0	2097152	60	9503
2026-01-16 15:37:18.49	21.70	3.15	-43.4	-46.6	11.8	1.13e-03	123	30	0	5242880	60	7530
2026-01-16 15:37:19.50	21.68	3.22	-42.5	-45.1	13.5	7.40e-05	123	30	0	8388608	58	7073
2026-01-16 15:37:20.51	21.65	3.28	-41.6	-43.7	15.0	0.00e+00	120	30	0	11534336	56	6788
2026-01-16 15:37:21.52	21.63	3.35	-41.0	-43.0	15.5	0.00e+00	123	30	0	14680064	56	6272
2026-01-16 15:37:22.53	21.60	3.42	-40.8	-42.7	15.7	0.00e+00	122	30	0	17825792	54	6763
2026-01-16 15:37:23.53	21.58	3.48	-40.4	-42.2	16.3	0.00e+00	123	30	0	20971520	54	6422
2026-01-16 15:37:24.55	21.55	3.55	-40.5	-42.4	16.1	0.00e+00	122	30	0	24117248	54	6512
2026-01-16 15:37:25.55	21.52	3.61	-41.3	-43.4	15.0	0.00e+00	122	30	0	27262976	54	7301
2026-01-16 15:37:26.56	21.50	3.68	-41.7	-44.0	14.6	7.00e-07	123	30	0	30408704	56	6971
2026-01-16 15:37:27.57	21.47	3.75	-39.1	-40.6	19.2	3.82e-04	122	30	0	33554432	54	5310
2026-01-16 15:37:28.58	21.44	3.82	-39.3	-40.9	13.3	0.00e+00	122	30	0	36700160	48	7753
2026-01-16 15:37:29.59	21.42	3.88	-44.6	-49.5	4.9	1.50e+00	0	30	104	36700160	60	10530
2026-01-16 15:37:30.60	21.39	3.95	-38.0	-39.7	17.4	0.00e+00	123	30	104	36700160	50	6016
2026-01-16 15:37:31.61	21.36	4.02	-42.6	-45.6	14.2	3.43e-01	120	30	104	37748736	60	6721
2026-01-16 15:37:32.62	21.34	4.09	-39.5	-41.0	17.4	0.00e+00	123	30	0	38797312	52	6247
2026-01-16 15:37:33.63	21.31	4.16	-39.2	-40.7	17.9	0.00e+00	122	30	0	41943040	52	6003
2026-01-16 15:37:34.64	21.28	4.23	-38.9	-40.4	18.3	0.00e+00	122	30	0	45088768	52	5801
2026-01-16 15:37:35.65	21.25	4.29	-38.8	-40.2	18.3	0.00e+00	123	30	0	48234496	50	6391
2026-01-16 15:37:36.66	21.22	4.36	-38.5	-39.9	18.7	0.00e+00	122	30	0	51380224	50	6165
2026-01-16 15:37:37.67	21.20	4.43	-38.2	-39.6	19.0	0.00e+00	122	30	0	54525952	50	5950
2026-01-16 15:37:38.69	21.17	4.50	-38.5	-39.9	18.7	0.00e+00	120	30	0	57671680	50	6157
2026-01-16 15:37:39.70	21.14	4.57	-38.4	-39.7	18.9	0.00e+00	123	30	0	60817408	50	6064
2026-01-16 15:37:40.70	21.11	4.64	-36.7	-37.9	20.6	0.00e+00	123	30	0	63963136	48	5485
2026-01-16 15:37:41.72	21.08	4.71	-37.1	-38.3	20.2	0.00e+00	122	30	0	67108864	46	6444
2026-01-16 15:37:42.73	21.05	4.78	-36.9	-38.0	20.5	0.00e+00	122	30	0	70254592	46	6263
2026-01-16 15:37:43.74	21.02	4.85	-36.7	-37.9	20.6	0.00e+00	123	30	0	73400320	46	6148
2026-01-16 15:37:44.75	21.00	4.92	-36.8	-38.0	20.5	0.00e+00	123	30	0	76546048	46	6236
2026-01-16 15:37:45.76	20.97	4.99	-37.0	-38.2	20.3	0.00e+00	123	30	0	79691776	46	6401
2026-01-16 15:37:46.77	20.94	5.06	-36.8	-38.0	20.4	0.00e+00	123	30	0	82837504	46	6238
2026-01-16 15:37:47.78	20.91	5.13	-36.7	-37.8	20.7	0.00e+00	122	30	0	85983232	46	6131
2026-01-16 15:37:48.79	20.88	5.20	-36.7	-37.9	20.7	0.00e+00	122	30	0	89128960	46	6159
2026-01-16 15:37:49.80	20.85	5.27	-36.8	-38.0	20.6	0.00e+00	123	30	0	92274688	46	6207
2026-01-16 15:37:50.81	20.82	5.34	-36.5	-37.6	21.0	0.00e+00	122	30	0	95420416	46	5981
2026-01-16 15:37:51.82	20.79	5.42	-36.5	-37.6	20.9	0.00e+00	122	30	0	98566144	46	5957
2026-01-16 15:37:52.83	20.76	5.49	-36.5	-37.6	21.0	0.00e+00	123	30	0	101711872	46	5951
2026-01-16 15:37:53.85	20.73	5.56	-36.3	-37.5	21.0	0.00e+00	123	30	0	104857600	46	5866
2026-01-16 15:37:54.86	20.69	5.63	-36.5	-37.7	20.9	0.00e+00	122	30	0	109051904	46	5996
2026-01-16 15:37:55.86	20.66	5.70	-36.6	-37.7	21.0	0.00e+00	123	30	0	112197632	46	6016
2026-01-16 15:37:56.87	20.63	5.78	-36.2	-37.3	21.1	0.00e+00	123	30	0	114294784	46	5784
2026-01-16 15:37:57.88	20.60	5.85	-36.3	-37.4	21.1	0.00e+00	123	30	0	117440512	46	5842
2026-01-16 15:37:58.89	20.57	5.92	-36.3	-37.4	21.2	0.00e+00	122	30	0	120586240	46	5820
2026-01-16 15:37:59.91	20.54	5.99	-36.3	-37.4	21.2	0.00e+00	120	30	0	124780544	46	5850
2026-01-16 15:38:00.92	20.51	6.07	-36.3	-37.4	21.1	0.00e+00	123	30	0	127926272	46	5837
2026-01-16 15:38:01.93	20.47	6.14	-36.4	-37.5	21.0	0.00e+00	122	30	0	131072000	46	5885
2026-01-16 15:38:02.94	20.44	6.21	-36.6	-37.8	20.9	0.00e+00	120	30	0	134217728	46	6079
2026-01-16 15:38:03.94	20.41	6.29	-36.8	-37.9	20.8	0.00e+00	122	30	0	137363456	46	6187
2026-01-16 15:38:04.96	20.38	6.36	-36.4	-37.5	21.1	0.00e+00	120	30	0	140509184	46	5886
2026-01-16 15:38:05.96	20.34	6.44	-36.2	-37.3	21.3	0.00e+00	123	30	0	143654912	46	5780
2026-01-16 15:38:06.97	20.31	6.51	-36.1	-37.2	21.4	0.00e+00	121	30	0	146800640	46	5700
2026-01-16 15:38:07.98	20.28	6.58	-35.8	-36.9	21.7	0.00e+00	122	30	0	149946368	46	5470
2026-01-16 15:38:08.99	20.24	6.66	-36.0	-37.0	21.6	0.00e+00	120	30	0	153092096	46	5584
2026-01-16 15:38:10.00	20.21	6.73	-36.0	-37.1	21.6	0.00e+00	123	30	0	156237824	46	5637
2026-01-16 15:38:11.01	20.18	6.81	-36.3	-37.4	21.4	0.00e+00	123	30	0	159383552	46	5842
2026-01-16 15:38:12.02	20.14	6.88	-35.8	-36.8	21.6	0.00e+00	123	30	0	162529280	44	6120
2026-01-16 15:38:13.03	20.11	6.96	-36.0	-37.0	21.5	0.00e+00	122	30	0	165675008	44	6270
2026-01-16 15:38:14.04	20.08	7.04	-35.9	-37.0	21.6	0.00e+00	123	30	0	168820736	44	6225
2026-01-16 15:38:15.05	20.04	7.11	-35.8	-36.8	21.8	0.00e+00	120	30	0	171966464	44	6121
2026-01-16 15:38:16.06	20.01	7.19	-36.0	-37.0	21.7	0.00e+00	127	30	0	175112192	44	6258
2026-01-16 15:38:17.07	19.97	7.26	-35.7	-36.8	21.8	0.00e+00	123	30	0	178257920	44	6077
2026-01-16 15:38:18.08	19.94	7.34	-35.8	-36.9	21.8	0.00e+00	123	30	0	181403648	44	6160
2026-01-16 15:38:19.09	19.90	7.42	-35.7	-36.8	21.8	0.00e+00	124	30	0	184549376	44	6106
2026-01-16 15:38:20.10	19.86	7.49	-35.8	-36.9	21.8	0.00e+00	123	30	0	187695104	44	6159
2026-01-16 15:38:21.11	19.83	7.57	-35.8	-36.8	21.8	0.00e+00	123	30	0	190840832	44	6127
2026-01-16 15:38:22.12	19.79	7.65	-35.6	-36.6	22.0	0.00e+00	122	30	0	193986560	44	5967
2026-01-16 15:38:23.13	19.76	7.73	-35.5	-36.6	22.0	0.00e+00	123	30	0	197132288	44	5937
2026-01-16 15:38:24.14	19.72	7.81	-35.5	-36.5	22.1	0.00e+00	120	31	0	200278016	44	5874
2026-01-16 15:38:25.15	19.68	7.88	-35.6	-36.6	22.0	0.00e+00	123	30	0	203423744	44	5951
2026-01-16 15:38:26.16	19.65	7.96	-35.4	-36.4	22.2	0.00e+00	123	30	0	206569472	44	5823
2026-01-16 15:38:27.17	19.61	8.04	-35.5	-36.5	22.1	0.00e+00	122	30	0	209715200	44	5910
2026-01-16 15:38:28.18	19.57	8.12	-35.4	-36.5	22.2	0.00e+00	123	30	0	212860928	44	5873
2026-01-16 15:38:29.19	19.54	8.20	-35.7	-36.7	21.9	0.00e+00	123	30	0	216006656	44	6020
2026-01-16 15:38:30.20	19.50	8.28	-35.8	-36.9	21.9	0.00e+00	122	30	0	219152384	44	6151
2026-01-16 15:38:31.21	19.46	8.36	-35.8	-36.9	21.9	0.00e+00	122	30	0	222298112	44	6156
2026-01-16 15:38:32.22	19.42	8.44	-35.6	-36.6	22.0	0.00e+00	122	30	0	225443840	44	5976
2026-01-16 15:38:33.23	19.38	8.52	-35.6	-36.7	22.0	0.00e+00	122	30	0	228589568	44	6011
2026-01-16 15:38:34.24	19.34	8.60	-35.5	-36.6	22.1	0.00e+00	122	30	0	231735296	44	5947
2026-01-16 15:38:35.25	19.30	8.68	-35.7	-36.7	22.0	0.00e+00	123	30	0	234881024	44	6039
2026-01-16 15:38:36.26	19.27	8.76	-35.6	-36.6	22.1	0.00e+00	123	30	0	238026752	44	5947
2026-01-16 15:38:37.27	19.23	8.84	-35.8	-36.8	22.0	0.00e+00	123	30	0	241172480	44	6108
2026-01-16 15:38:38.28	19.19	8.92	-35.6	-36.6	22.2	0.00e+00	123	30	0	244318208	44	5968
2026-01-16 15:38:39.29	19.15	9.00	-35.6	-36.6	22.1	0.00e+00	122	30	0	247463936	44	5974
2026-01-16 15:38:40.30	19.11	9.08	-35.3	-36.3	22.4	0.00e+00	123	30	0	250609664	44	5773
2026-01-16 15:38:41.30	19.07	9.17	-35.1	-36.1	22.5	0.00e+00	123	30	0	253755392	44	5633
2026-01-16 15:38:42.31	19.03	9.25	-35.1	-36.1	22.5	0.00e+00	123	30	0	256901120	44	5654
2026-01-16 15:38:43.32	18.99	9.33	-35.1	-36.1	22.6	0.00e+00	123	30	0	260046848	44	5622
2026-01-16 15:38:44.33	18.94	9.41	-35.3	-36.3	22.4	0.00e+00	123	30	0	263192576	44	5767
2026-01-16 15:38:45.34	18.90	9.50	-35.1	-36.1	22.5	0.00e+00	123	30	0	266338304	44	5609
2026-01-16 15:38:46.35	18.86	9.58	-35.1	-36.1	22.6	0.00e+00	123	30	0	269484032	44	5647
2026-01-16 15:38:47.37	18.82	9.66	-35.1	-36.1	22.6	0.00e+00	120	30	0	272629760	44	5634
2026-01-16 15:38:48.37	18.78	9.75	-35.0	-36.0	22.6	0.00e+00	123	30	0	275775488	44	5576
2026-01-16 15:38:49.38	18.73	9.83	-34.9	-35.9	22.8	0.00e+00	122	30	0	278921216	44	5493
2026-01-16 15:38:50.39	18.69	9.92	-35.0	-36.0	22.7	0.00e+00	123	30	0	282066944	44	5541
2026-01-16 15:38:51.40	18.65	10.00	-35.0	-35.9	22.8	0.00e+00	123	31	0	285212672	44	5528
2026-01-16 15:38:52.41	18.61	10.09	-34.9	-35.9	22.8	0.00e+00	123	30	0	288358400	44	5480
2026-01-16 15:38:53.42	18.56	10.17	-34.9	-35.9	22.8	0.00e+00	120	30	0	291504128	44	5492
2026-01-16 15:38:54.43	18.52	10.26	-34.8	-35.8	22.8	0.00e+00	122	30	0	294649856	44	5450
2026-01-16 15:38:55.44	18.47	10.34	-34.7	-35.7	23.0	0.00e+00	122	30	0	297795584	42	6046
2026-01-16 15:38:56.45	18.43	10.43	-34.8	-35.8	23.0	0.00e+00	123	30	0	300941312	42	6084
2026-01-16 15:38:57.46	18.38	10.51	-34.8	-35.8	22.9	0.00e+00	122	31	0	304087040	42	6097
2026-01-16 15:38:58.47	18.34	10.60	-34.8	-35.8	22.9	0.00e+00	122	30	0	307232768	42	6108
2026-01-16 15:38:59.48	18.29	10.69	-34.7	-35.7	23.1	0.00e+00	122	31	0	310378496	42	6008
2026-01-16 15:39:00.49	18.25	10.78	-34.6	-35.5	23.2	0.00e+00	123	31	0	313524224	42	5908
2026-01-16 15:39:01.50	18.20	10.86	-34.7	-35.7	23.1	0.00e+00	123	30	0	316669952	42	5998
2026-01-16 15:39:02.51	18.16	10.95	-34.6	-35.5	23.2	0.00e+00	123	30	0	319815680	42	5924
2026-01-16 15:39:03.52	18.11	11.04	-34.6	-35.5	23.2	0.00e+00	122	30	0	322961408	42	5903
2026-01-16 15:39:04.53	18.06	11.13	-34.6	-35.5	23.1	0.00e+00	122	30	0	326107136	42	5904
2026-01-16 15:39:05.54	18.02	11.22	-34.7	-35.6	23.2	0.00e+00	123	31	0	329252864	42	5981
2026-01-16 15:39:06.56	17.97	11.31	-34.4	-35.4	23.3	0.00e+00	121	31	0	332398592	42	5798
2026-01-16 15:39:07.56	17.92	11.39	-34.4	-35.3	23.4	0.00e+00	120	31	0	335544320	42	5754
2026-01-16 15:39:08.57	17.87	11.48	-34.4	-35.3	23.4	0.00e+00	122	31	0	338690048	42	5760
2026-01-16 15:39:09.59	17.82	11.57	-34.4	-35.4	23.4	0.00e+00	120	31	0	341835776	42	5819
2026-01-16 15:39:10.60	17.78	11.66	-34.3	-35.2	23.5	0.00e+00	123	31	0	344981504	42	5724
2026-01-16 15:39:11.61	17.73	11.75	-34.4	-35.4	23.4	0.00e+00	121	31	0	348127232	42	5803
2026-01-16 15:39:12.62	17.68	11.85	-34.3	-35.2	23.5	0.00e+00	122	31	0	351272960	42	5697
2026-01-16 15:39:13.63	17.63	11.94	-34.2	-35.1	23.5	0.00e+00	123	31	0	354418688	42	5649
2026-01-16 15:39:14.64	17.58	12.03	-34.2	-35.1	23.6	0.00e+00	120	30	0	357564416	42	5620
2026-01-16 15:39:15.65	17.53	12.12	-34.1	-35.1	23.6	0.00e+00	122	31	0	360710144	42	5615
2026-01-16 15:39:16.66	17.48	12.21	-34.1	-35.1	23.6	0.00e+00	120	30	0	363855872	42	5595
2026-01-16 15:39:17.67	17.43	12.30	-34.2	-35.1	23.5	0.00e+00	122	31	0	367001600	42	5627
2026-01-16 15:39:18.68	17.38	12.40	-34.2	-35.1	23.6	0.00e+00	122	31	0	370147328	42	5650
2026-01-16 15:39:19.69	17.32	12.49	-34.0	-34.9	23.8	0.00e+00	122	31	0	373293056	42	5501
2026-01-16 15:39:20.70	17.27	12.58	-34.2	-35.1	23.6	0.00e+00	123	31	0	376438784	42	5622
2026-01-16 15:39:21.71	17.22	12.68	-34.0	-34.9	23.8	0.00e+00	120	31	0	379584512	42	5496
2026-01-16 15:39:22.72	17.17	12.77	-34.2	-35.1	23.6	0.00e+00	122	31	0	382730240	42	5615
2026-01-16 15:39:23.73	17.11	12.87	-34.0	-34.9	23.7	0.00e+00	123	31	0	385875968	42	5496
2026-01-16 15:39:24.74	17.06	12.96	-33.9	-34.8	23.8	0.00e+00	122	31	0	389021696	42	5439
2026-01-16 15:39:25.75	17.01	13.06	-33.9	-34.8	23.8	0.00e+00	120	31	0	392167424	42	5442
2026-01-16 15:39:26.76	16.95	13.15	-34.0	-34.9	23.6	0.00e+00	123	30	0	395313152	42	5530
2026-01-16 15:39:27.77	16.90	13.25	-34.0	-34.9	23.8	0.00e+00	121	31	0	398458880	42	5484
2026-01-16 15:39:28.78	16.84	13.34	-34.2	-35.1	23.5	0.00e+00	120	31	0	401604608	42	5658
2026-01-16 15:39:29.79	16.79	13.44	-34.1	-35.0	23.7	0.00e+00	122	31	0	404750336	42	5577
2026-01-16 15:39:30.80	16.73	13.54	-34.0	-34.9	23.7	0.00e+00	122	31	0	407896064	42	5507
2026-01-16 15:39:31.81	16.67	13.63	-34.1	-35.0	23.6	0.00e+00	123	31	0	411041792	42	5589
2026-01-16 15:39:32.82	16.62	13.73	-34.1	-35.1	23.6	0.00e+00	123	31	0	414187520	42	5613
2026-01-16 15:39:33.83	16.56	13.83	-33.9	-34.8	23.8	0.00e+00	123	31	0	417333248	42	5437
2026-01-16 15:39:34.84	16.50	13.93	-34.0	-35.0	23.7	0.00e+00	123	31	0	420478976	42	5545
2026-01-16 15:39:35.85	16.45	14.03	-34.0	-34.9	23.8	0.00e+00	123	31	0	423624704	42	5515
2026-01-16 15:39:36.86	16.39	14.12	-34.0	-34.9	23.7	0.00e+00	123	31	0	427819008	42	5499
2026-01-16 15:39:37.87	16.33	14.22	-33.9	-34.8	23.8	0.00e+00	123	31	0	430964736	42	5437
2026-01-16 15:39:38.88	16.27	14.32	-34.1	-35.0	23.7	0.00e+00	123	31	0	433061888	42	5570
2026-01-16 15:39:39.89	16.21	14.42	-33.9	-34.8	23.8	0.00e+00	122	31	0	436207616	42	5422
2026-01-16 15:39:40.90	16.15	14.52	-34.0	-34.9	23.7	0.00e+00	123	31	0	439353344	42	5528
2026-01-16 15:39:41.91	16.09	14.63	-34.0	-34.9	23.8	0.00e+00	122	31	0	443547648	42	5497
2026-01-16 15:39:42.92	16.03	14.73	-34.0	-34.9	23.8	0.00e+00	123	31	0	446693376	42	5524
2026-01-16 15:39:43.93	15.97	14.83	-33.9	-34.9	23.8	0.00e+00	120	31	0	449839104	42	5475
2026-01-16 15:39:44.94	15.91	14.93	-34.0	-35.0	23.6	0.00e+00	123	31	0	452984832	42	5539
2026-01-16 15:39:45.95	15.85	15.03	-34.0	-35.0	23.7	0.00e+00	120	31	0	455081984	42	5545
2026-01-16 15:39:46.96	15.78	15.14	-34.2	-35.1	23.6	0.00e+00	122	31	0	459276288	42	5655
2026-01-16 15:39:47.97	15.72	15.24	-34.1	-35.0	23.8	0.00e+00	122	31	0	462422016	42	5559
2026-01-16 15:39:48.98	15.66	15.34	-34.1	-35.0	23.7	0.00e+00	123	31	0	465567744	42	5580
2026-01-16 15:39:49.99	15.59	15.45	-34.1	-35.1	23.7	0.00e+00	122	31	0	468713472	42	5596
2026-01-16 15:39:51.00	15.53	15.55	-34.1	-35.0	23.7	0.00e+00	122	31	0	471859200	42	5566
2026-01-16 15:39:52.01	15.46	15.66	-34.1	-35.0	23.8	0.00e+00	120	31	0	475004928	42	5571
2026-01-16 15:39:53.02	15.40	15.76	-34.2	-35.2	23.7	0.00e+00	122	30	0	478150656	42	5663
2026-01-16 15:39:54.03	15.33	15.87	-34.0	-35.0	23.7	0.00e+00	123	31	0	481296384	42	5553
2026-01-16 15:39:55.04	15.27	15.97	-34.1	-35.1	23.6	0.00e+00	123	31	0	484442112	42	5603
2026-01-16 15:39:56.05	15.20	16.08	-34.2	-35.2	23.6	0.00e+00	122	30	0	487587840	42	5661
2026-01-16 15:39:57.06	15.13	16.19	-34.4	-35.3	23.5	0.00e+00	122	30	0	490733568	42	5789
2026-01-16 15:39:58.07	15.06	16.29	-34.2	-35.1	23.7	0.00e+00	123	31	0	493879296	42	5658
2026-01-16 15:39:59.08	15.00	16.40	-34.0	-35.0	23.8	0.00e+00	123	31	0	497025024	42	5550
2026-01-16 15:40:00.09	14.93	16.51	-34.2	-35.1	23.8	0.00e+00	123	31	0	500170752	42	5630
2026-01-16 15:40:01.10	14.86	16.62	-34.2	-35.1	23.7	0.00e+00	120	31	0	503316480	42	5643
2026-01-16 15:40:02.11	14.79	16.73	-34.0	-34.9	23.9	0.00e+00	122	31	0	506462208	42	5526
2026-01-16 15:40:03.12	14.72	16.84	-34.1	-35.0	23.8	0.00e+00	123	31	0	509607936	42	5594
2026-01-16 15:40:04.13	14.65	16.95	-34.2	-35.1	23.8	0.00e+00	123	30	0	512753664	42	5618
2026-01-16 15:40:05.14	14.57	17.06	-34.0	-34.9	23.9	0.00e+00	123	30	0	515899392	42	5509
2026-01-16 15:40:06.15	14.50	17.17	-34.0	-34.9	23.9	0.00e+00	123	30	0	519045120	42	5485
2026-01-16 15:40:07.16	14.43	17.28	-34.0	-34.9	23.9	0.00e+00	123	30	0	522190848	42	5527
2026-01-16 15:40:08.17	14.36	17.39	-34.0	-34.9	23.9	0.00e+00	122	30	0	525336576	42	5527
2026-01-16 15:40:09.18	14.28	17.50	-34.1	-35.0	23.8	0.00e+00	123	31	0	528482304	42	5584
2026-01-16 15:40:10.19	14.21	17.62	-34.1	-35.1	23.8	0.00e+00	123	30	0	531628032	42	5597
2026-01-16 15:40:11.20	14.13	17.73	-34.1	-35.0	23.8	0.00e+00	122	30	0	534773760	42	5560
2026-01-16 15:40:12.21	14.06	17.84	-34.1	-35.1	23.8	0.00e+00	122	30	0	537919488	42	5597
2026-01-16 15:40:13.22	13.98	17.96	-34.1	-35.1	23.7	0.00e+00	123	30	0	541065216	42	5601
2026-01-16 15:40:14.23	13.90	18.07	-34.3	-35.2	23.7	0.00e+00	123	31	0	544210944	42	5694
2026-01-16 15:40:15.24	13.83	18.19	-34.2	-35.1	23.8	0.00e+00	123	30	0	547356672	42	5628
2026-01-16 15:40:16.25	13.75	18.30	-34.1	-35.1	23.7	0.00e+00	122	30	0	550502400	42	5597
2026-01-16 15:40:17.26	13.67	18.42	-34.2	-35.2	23.7	0.00e+00	122	30	0	553648128	42	5691
2026-01-16 15:40:18.27	13.59	18.54	-34.1	-35.1	23.7	0.00e+00	120	30	0	556793856	42	5602
2026-01-16 15:40:19.28	13.51	18.65	-34.3	-35.2	23.7	0.00e+00	122	30	0	559939584	42	5694
2026-01-16 15:40:20.29	13.43	18.77	-34.1	-35.0	23.8	0.00e+00	123	30	0	563085312	42	5561
2026-01-16 15:40:21.30	13.35	18.89	-34.1	-35.0	23.8	0.00e+00	122	30	0	566231040	42	5566
2026-01-16 15:40:22.31	13.27	19.01	-34.0	-34.9	23.9	0.00e+00	122	30	0	569376768	42	5489
2026-01-16 15:40:23.32	13.18	19.13	-34.1	-35.0	23.9	0.00e+00	123	30	0	572522496	42	5565
2026-01-16 15:40:24.33	13.10	19.25	-33.9	-34.9	24.0	0.00e+00	123	30	0	575668224	42	5473
2026-01-16 15:40:25.34	13.02	19.37	-34.0	-34.9	23.9	0.00e+00	122	30	0	578813952	42	5492
2026-01-16 15:40:26.35	12.93	19.49	-34.0	-34.9	24.0	0.00e+00	123	30	0	581959680	42	5494
2026-01-16 15:40:27.36	12.85	19.61	-33.9	-34.8	24.0	0.00e+00	120	30	0	585105408	42	5433
2026-01-16 15:40:28.37	12.76	19.73	-33.8	-34.7	24.1	0.00e+00	122	30	0	588251136	42	5403
2026-01-16 15:40:29.38	12.67	19.85	-33.7	-34.6	24.1	0.00e+00	122	30	0	591396864	42	5326
2026-01-16 15:40:30.39	12.59	19.98	-33.6	-34.5	24.2	0.00e+00	122	30	0	594542592	40	5913
2026-01-16 15:40:31.40	12.50	20.10	-33.4	-34.3	24.3	0.00e+00	123	30	0	597688320	40	5749
2026-01-16 15:40:32.41	12.41	20.22	-33.4	-34.3	24.3	0.00e+00	123	30	0	600834048	40	5748
2026-01-16 15:40:33.42	12.32	20.35	-33.5	-34.4	24.2	0.00e+00	122	30	0	603979776	40	5807
2026-01-16 15:40:34.43	12.23	20.47	-33.5	-34.4	24.3	0.00e+00	122	30	0	607125504	40	5807
2026-01-16 15:40:35.43	12.14	20.60	-33.3	-34.2	24.3	0.00e+00	122	30	0	610271232	40	5713
2026-01-16 15:40:36.44	12.05	20.72	-33.2	-34.1	24.4	0.00e+00	122	30	0	613416960	40	5647
2026-01-16 15:40:37.45	11.95	20.85	-33.1	-34.0	24.5	0.00e+00	123	30	0	616562688	40	5535
2026-01-16 15:40:38.46	11.86	20.98	-33.0	-33.9	24.5	0.00e+00	120	30	0	619708416	40	5506
2026-01-16 15:40:39.47	11.77	21.10	-33.1	-34.0	24.4	0.00e+00	120	30	0	622854144	40	5538
2026-01-16 15:40:40.48	11.67	21.23	-32.9	-33.8	24.5	0.00e+00	122	30	0	625999872	40	5407
2026-01-16 15:40:41.49	11.58	21.36	-32.8	-33.7	24.7	0.00e+00	123	30	0	629145600	40	5361
2026-01-16 15:40:42.50	11.48	21.49	-33.0	-33.9	24.5	0.00e+00	123	30	0	632291328	40	5490
2026-01-16 15:40:43.51	11.38	21.62	-32.8	-33.6	24.8	0.00e+00	120	30	0	635437056	38	5980
2026-01-16 15:40:44.52	11.28	21.75	-32.6	-33.5	24.8	0.00e+00	122	30	0	638582784	38	5909
2026-01-16 15:40:45.53	11.18	21.88	-32.7	-33.6	24.8	0.00e+00	121	30	0	641728512	38	5940
2026-01-16 15:40:46.54	11.08	22.01	-32.5	-33.4	25.0	0.00e+00	123	30	0	644874240	38	5815
2026-01-16 15:40:47.55	10.98	22.14	-32.7	-33.5	24.9	0.00e+00	123	30	0	648019968	38	5903
2026-01-16 15:40:48.56	10.88	22.28	-32.4	-33.3	25.1	0.00e+00	122	30	0	651165696	38	5768
2026-01-16 15:40:49.57	10.78	22.41	-32.6	-33.4	25.0	0.00e+00	120	30	0	654311424	38	5850
2026-01-16 15:40:50.58	10.67	22.55	-32.6	-33.4	25.1	0.00e+00	123	30	0	657457152	38	5842
2026-01-16 15:40:51.59	10.57	22.68	-32.4	-33.3	25.2	0.00e+00	123	30	0	660602880	38	5744
2026-01-16 15:40:52.60	10.46	22.81	-32.4	-33.2	25.1	0.00e+00	122	30	0	663748608	38	5717
2026-01-16 15:40:53.61	10.35	22.95	-32.5	-33.3	25.1	0.00e+00	123	30	0	666894336	38	5783
2026-01-16 15:40:54.62	10.25	23.09	-32.3	-33.1	25.2	0.00e+00	122	30	0	670040064	38	5640
2026-01-16 15:40:55.64	10.14	23.23	-32.4	-33.2	25.0	0.00e+00	122	30	0	673185792	38	5714
2026-01-16 15:40:56.65	10.03	23.36	-32.3	-33.2	25.1	0.00e+00	120	30	0	676331520	38	5681
2026-01-16 15:40:57.65	9.92	23.50	-32.3	-33.2	25.2	0.00e+00	123	30	0	679477248	38	5693
2026-01-16 15:40:58.66	9.81	23.64	-32.4	-33.3	25.2	0.00e+00	123	30	0	682622976	38	5732
2026-01-16 15:40:59.68	9.69	23.78	-32.4	-33.2	25.0	0.00e+00	122	30	0	685768704	38	5709
2026-01-16 15:41:00.68	9.58	23.92	-32.4	-33.3	25.2	0.00e+00	120	30	0	688914432	38	5752
2026-01-16 15:41:01.69	9.46	24.06	-32.5	-33.3	25.1	0.00e+00	120	30	0	692060160	38	5766
2026-01-16 15:41:02.70	9.35	24.20	-32.7	-33.6	24.9	0.00e+00	122	30	0	695205888	38	5943
2026-01-16 15:41:03.71	9.23	24.34	-32.8	-33.6	25.0	0.00e+00	123	30	0	698351616	38	5989
2026-01-16 15:41:04.72	9.11	24.49	-32.6	-33.5	25.1	0.00e+00	123	30	0	701497344	38	5890
2026-01-16 15:41:05.73	8.99	24.63	-32.6	-33.5	25.1	0.00e+00	124	30	0	704643072	38	5880
2026-01-16 15:41:06.74	8.87	24.77	-32.7	-33.5	25.0	0.00e+00	123	30	0	707788800	38	5920
2026-01-16 15:41:07.75	8.75	24.92	-32.6	-33.5	25.0	0.00e+00	123	30	0	710934528	38	5893
2026-01-16 15:41:08.76	8.63	25.06	-32.7	-33.6	25.0	0.00e+00	123	30	0	714080256	38	5942
2026-01-16 15:41:09.78	8.50	25.21	-32.8	-33.7	24.9	0.00e+00	120	30	0	717225984	38	6022
2026-01-16 15:41:10.79	8.38	25.36	-32.9	-33.8	24.9	0.00e+00	122	30	0	720371712	38	6071
2026-01-16 15:41:11.80	8.25	25.50	-32.8	-33.7	24.9	0.00e+00	122	30	0	723517440	38	6030
2026-01-16 15:41:12.81	8.13	25.65	-33.0	-33.9	24.7	0.00e+00	123	30	0	726663168	38	6143
2026-01-16 15:41:13.82	8.00	25.80	-32.9	-33.8	24.7	0.00e+00	122	30	0	729808896	38	6120
2026-01-16 15:41:14.83	7.87	25.95	-33.1	-34.0	24.6	0.00e+00	123	30	0	732954624	38	6228
2026-01-16 15:41:15.83	7.74	26.10	-33.2	-34.1	24.4	0.00e+00	122	30	0	736100352	38	6301
2026-01-16 15:41:16.84	7.60	26.25	-33.2	-34.1	24.4	0.00e+00	122	30	0	739246080	38	6309
2026-01-16 15:41:17.85	7.47	26.40	-33.3	-34.2	24.3	0.00e+00	122	30	0	742391808	38	6412
2026-01-16 15:41:18.86	7.34	26.55	-33.3	-34.2	24.3	0.00e+00	123	30	0	746586112	38	6421
2026-01-16 15:41:19.87	7.20	26.70	-33.6	-34.5	24.2	0.00e+00	122	30	0	748683264	38	6611
2026-01-16 15:41:20.88	7.06	26.86	-33.6	-34.5	24.1	0.00e+00	123	30	0	751828992	38	6635
2026-01-16 15:41:21.89	6.92	27.01	-33.5	-34.4	24.3	0.00e+00	123	30	0	754974720	38	6573
2026-01-16 15:41:22.91	6.78	27.17	-33.7	-34.6	24.2	0.00e+00	123	30	0	759169024	40	5994
2026-01-16 15:41:23.92	6.64	27.32	-33.9	-34.8	24.1	0.00e+00	122	30	0	762314752	40	6077
2026-01-16 15:41:24.93	6.50	27.48	-33.9	-34.8	24.0	0.00e+00	123	30	0	765460480	40	6131
2026-01-16 15:41:25.94	6.35	27.64	-34.1	-35.0	24.0	0.00e+00	122	30	0	768606208	40	6266
2026-01-16 15:41:26.95	6.20	27.79	-34.0	-34.9	24.0	0.00e+00	123	30	0	771751936	40	6179
2026-01-16 15:41:27.96	6.06	27.95	-34.2	-35.1	23.8	0.00e+00	123	30	0	774897664	40	6317
2026-01-16 15:41:28.97	5.91	28.11	-34.0	-35.0	23.8	0.00e+00	122	30	0	778043392	40	6218
2026-01-16 15:41:29.98	5.76	28.27	-34.1	-35.0	23.6	0.00e+00	122	30	0	781189120	40	6251
2026-01-16 15:41:30.99	5.60	28.43	-34.2	-35.2	23.5	0.00e+00	122	30	0	784334848	40	6384
2026-01-16 15:41:32.00	5.45	28.59	-34.1	-35.1	23.7	0.00e+00	123	30	0	787480576	40	6285
2026-01-16 15:41:33.01	5.30	28.75	-34.2	-35.1	23.7	0.00e+00	122	30	0	790626304	40	6336
2026-01-16 15:41:34.02	5.14	28.91	-34.2	-35.2	23.6	0.00e+00	120	30	0	793772032	40	6377
2026-01-16 15:41:35.03	4.98	29.08	-34.2	-35.1	23.6	0.00e+00	123	30	0	796917760	40	6332
2026-01-16 15:41:36.04	4.82	29.24	-34.1	-35.1	23.7	0.00e+00	123	30	0	800063488	40	6301
2026-01-16 15:41:37.05	4.66	29.41	-34.1	-35.1	23.7	0.00e+00	122	30	0	803209216	40	6300
2026-01-16 15:41:38.05	4.50	29.57	-33.9	-34.8	23.9	0.00e+00	125	30	0	806354944	40	6085
2026-01-16 15:41:39.07	4.33	29.74	-34.0	-35.0	23.9	0.00e+00	122	30	0	809500672	40	6222
2026-01-16 15:41:40.08	4.16	29.90	-33.6	-34.5	24.2	0.00e+00	123	30	0	812646400	40	5926
2026-01-16 15:41:41.09	3.99	30.07	-33.6	-34.5	24.3	0.00e+00	122	30	0	815792128	40	5924
2026-01-16 15:41:42.10	3.82	30.24	-33.7	-34.7	24.2	0.00e+00	123	30	0	818937856	40	6008
2026-01-16 15:41:43.11	3.65	30.41	-33.4	-34.3	24.4	0.00e+00	122	30	0	822083584	40	5753
2026-01-16 15:41:44.12	3.47	30.57	-33.6	-34.5	24.1	0.00e+00	120	30	0	825229312	40	5881
2026-01-16 15:41:45.13	3.30	30.74	-33.6	-34.5	24.0	0.00e+00	123	30	0	828375040	40	5888
2026-01-16 15:41:46.14	3.12	30.92	-33.8	-34.7	23.8	0.00e+00	122	30	0	831520768	40	6023
2026-01-16 15:41:47.15	2.94	31.09	-33.6	-34.6	24.0	0.00e+00	123	30	0	834666496	40	5953
2026-01-16 15:41:48.16	2.76	31.26	-33.7	-34.6	24.1	0.00e+00	123	30	0	837812224	40	5987
2026-01-16 15:41:49.17	2.57	31.43	-33.7	-34.6	24.2	0.00e+00	120	30	0	840957952	40	5977
2026-01-16 15:41:50.17	2.39	31.60	-33.8	-34.7	24.2	0.00e+00	123	30	0	844103680	40	6057
2026-01-16 15:41:51.18	2.20	31.78	-33.6	-34.5	24.5	0.00e+00	122	30	0	847249408	40	5894
2026-01-16 15:41:52.19	2.01	31.95	-33.5	-34.5	24.5	0.00e+00	123	30	0	850395136	40	5859
2026-01-16 15:41:53.20	1.82	32.13	-33.6	-34.5	24.5	0.00e+00	120	30	0	853540864	40	5895
2026-01-16 15:41:54.22	1.62	32.30	-33.3	-34.2	24.6	0.00e+00	122	30	0	856686592	40	5689
2026-01-16 15:41:55.23	1.43	32.48	-33.3	-34.2	24.7	0.00e+00	120	30	0	859832320	40	5704
2026-01-16 15:41:56.24	1.23	32.66	-33.2	-34.1	24.6	0.00e+00	123	30	0	862978048	40	5616
2026-01-16 15:41:57.25	1.03	32.84	-33.4	-34.3	24.4	0.00e+00	123	30	0	866123776	40	5755
2026-01-16 15:41:58.26	0.82	33.01	-33.3	-34.2	24.2	0.00e+00	123	30	0	869269504	40	5723
2026-01-16 15:41:59.27	0.62	33.19	-33.5	-34.5	23.9	0.00e+00	122	30	0	872415232	40	5864
2026-01-16 15:42:00.28	0.41	33.37	-33.7	-34.7	23.9	0.00e+00	122	30	0	875560960	40	6007
2026-01-16 15:42:01.29	0.20	33.55	-34.0	-34.9	23.9	0.00e+00	123	30	0	878706688	40	6164
2026-01-16 15:42:02.30	359.99	33.73	-34.0	-35.0	23.9	0.00e+00	123	30	0	881852416	40	6208
2026-01-16 15:42:03.31	359.77	33.92	-34.2	-35.2	23.9	0.00e+00	122	30	0	884998144	40	6355
2026-01-16 15:42:04.32	359.55	34.10	-34.3	-35.3	23.8	0.00e+00	123	30	0	888143872	40	6426
2026-01-16 15:42:05.33	359.33	34.28	-34.4	-35.3	23.8	0.00e+00	123	30	0	891289600	40	6488
2026-01-16 15:42:06.34	359.11	34.47	-34.5	-35.5	23.6	0.00e+00	120	30	0	894435328	40	6580
2026-01-16 15:42:07.35	358.89	34.65	-34.7	-35.6	23.4	0.00e+00	123	30	0	897581056	40	6714
2026-01-16 15:42:08.36	358.66	34.83	-34.9	-35.9	23.2	0.00e+00	122	30	0	900726784	42	6170
2026-01-16 15:42:09.37	358.43	35.02	-35.1	-36.1	23.1	0.00e+00	123	30	0	903872512	42	6293
2026-01-16 15:42:10.38	358.19	35.20	-35.3	-36.3	23.1	0.00e+00	120	30	0	907018240	42	6439
2026-01-16 15:42:11.39	357.96	35.39	-35.3	-36.3	23.0	0.00e+00	123	30	0	910163968	42	6482
2026-01-16 15:42:12.40	357.72	35.58	-35.3	-36.3	23.1	0.00e+00	123	30	0	913309696	42	6479
2026-01-16 15:42:13.41	357.48	35.76	-35.3	-36.2	23.1	0.00e+00	120	30	0	916455424	42	6420
2026-01-16 15:42:14.42	357.23	35.95	-35.2	-36.2	23.1	0.00e+00	123	30	0	919601152	42	6417
2026-01-16 15:42:15.43	356.99	36.14	-35.2	-36.1	23.2	0.00e+00	120	30	0	922746880	42	6350
2026-01-16 15:42:16.44	356.74	36.33	-35.1	-36.1	23.2	0.00e+00	123	30	0	925892608	42	6284
2026-01-16 15:42:17.45	356.49	36.52	-35.2	-36.1	23.2	0.00e+00	120	30	0	929038336	42	6350
2026-01-16 15:42:18.46	356.23	36.71	-35.2	-36.2	23.2	0.00e+00	120	30	0	932184064	42	6374
2026-01-16 15:42:19.47	355.97	36.90	-35.4	-36.4	23.0	0.00e+00	123	30	0	935329792	42	6511
2026-01-16 15:42:20.48	355.71	37.09	-35.5	-36.5	22.9	0.00e+00	120	30	0	938475520	42	6577
2026-01-16 15:42:21.49	355.44	37.28	-35.6	-36.5	22.8	0.00e+00	122	30	0	941621248	42	6646
2026-01-16 15:42:22.50	355.18	37.47	-35.5	-36.5	22.9	0.00e+00	123	30	0	944766976	42	6624
2026-01-16 15:42:23.51	354.90	37.66	-35.6	-36.6	22.8	0.00e+00	122	30	0	947912704	42	6675
2026-01-16 15:42:24.52	354.63	37.86	-35.5	-36.5	22.8	0.00e+00	120	30	0	951058432	42	6604
2026-01-16 15:42:25.53	354.35	38.05	-35.7	-36.8	22.5	0.00e+00	122	30	0	954204160	44	6082
2026-01-16 15:42:26.54	354.07	38.24	-35.8	-36.9	22.5	0.00e+00	123	30	0	957349888	44	6143
2026-01-16 15:42:27.55	353.79	38.43	-35.8	-36.9	22.5	0.00e+00	122	30	0	960495616	44	6152
2026-01-16 15:42:28.56	353.50	38.63	-35.8	-36.8	22.6	0.00e+00	123	30	0	963641344	44	6099
2026-01-16 15:42:29.57	353.21	38.82	-35.8	-36.8	22.6	0.00e+00	122	30	0	966787072	44	6100
2026-01-16 15:42:30.59	352.91	39.02	-35.8	-36.8	22.6	0.00e+00	120	30	0	969932800	44	6090
2026-01-16 15:42:31.60	352.61	39.21	-35.7	-36.7	22.7	0.00e+00	122	30	0	973078528	44	6018
2026-01-16 15:42:32.61	352.31	39.41	-35.8	-36.8	22.6	0.00e+00	122	30	0	976224256	44	6089
2026-01-16 15:42:33.62	352.00	39.60	-35.9	-36.9	22.6	0.00e+00	122	30	0	979369984	44	6177
2026-01-16 15:42:34.63	351.69	39.79	-36.2	-37.3	22.1	0.00e+00	123	30	0	982515712	44	6435
2026-01-16 15:42:35.64	351.38	39.99	-36.1	-37.1	22.2	0.00e+00	122	30	0	985661440	44	6347
2026-01-16 15:42:36.65	351.06	40.18	-36.1	-37.2	22.4	0.00e+00	120	30	0	988807168	44	6386
2026-01-16 15:42:37.66	350.74	40.38	-36.3	-37.4	22.2	0.00e+00	123	30	0	991952896	44	6511
2026-01-16 15:42:38.67	350.41	40.57	-35.7	-36.7	22.7	0.00e+00	123	30	0	995098624	44	6016
2026-01-16 15:42:39.68	350.08	40.77	-35.7	-36.8	22.6	0.00e+00	123	30	0	998244352	44	6075
2026-01-16 15:42:40.69	349.75	40.96	-35.8	-36.8	22.4	0.00e+00	123	30	0	1001390080	44	6110
2026-01-16 15:42:41.70	349.41	41.16	-35.7	-36.8	22.5	0.00e+00	122	30	0	1004535808	44	6109
2026-01-16 15:42:42.71	349.07	41.35	-36.0	-37.1	22.4	0.00e+00	122	30	0	1007681536	44	6298
2026-01-16 15:42:43.72	348.73	41.55	-36.0	-37.0	22.4	0.00e+00	122	30	0	1010827264	44	6264
2026-01-16 15:42:44.73	348.38	41.74	-36.1	-37.1	22.3	0.00e+00	122	30	0	1013972992	44	6350
2026-01-16 15:42:45.74	348.02	41.94	-36.1	-37.2	22.2	0.00e+00	122	30	0	1017118720	44	6368
2026-01-16 15:42:46.75	347.66	42.13	-36.0	-37.0	22.4	0.00e+00	122	30	0	1020264448	44	6244
2026-01-16 15:42:47.76	347.30	42.32	-35.9	-36.9	22.2	0.00e+00	122	30	0	1023410176	44	6193
2026-01-16 15:42:48.77	346.93	42.52	-36.0	-37.1	21.7	0.00e+00	123	29	0	1026555904	44	6295
2026-01-16 15:42:49.78	346.56	42.71	-36.3	-37.4	21.3	0.00e+00	122	30	0	1029701632	44	6563
2026-01-16 15:42:50.79	346.18	42.90	-36.5	-37.6	21.7	0.00e+00	123	30	0	1032847360	44	6651
2026-01-16 15:42:51.80	345.80	43.09	-36.6	-37.7	21.7	0.00e+00	123	30	0	1035993088	44	6788
2026-01-16 15:42:52.81	345.42	43.29	-36.7	-37.8	21.7	0.00e+00	120	30	0	1040187392	46	6108
2026-01-16 15:42:53.82	345.03	43.48	-36.6	-37.7	21.7	0.00e+00	123	30	0	1042284544	46	6052
2026-01-16 15:42:54.83	344.63	43.67	-36.5	-37.6	21.9	0.00e+00	122	30	0	1045430272	46	5944
2026-01-16 15:42:55.84	344.23	43.86	-36.5	-37.6	21.8	0.00e+00	122	30	0	1048576000	46	5935
2026-01-16 15:42:56.85	343.83	44.05	-36.4	-37.4	21.7	0.00e+00	122	30	0	1051721728	46	5855
2026-01-16 15:42:57.86	343.42	44.24	-36.5	-37.6	21.7	0.00e+00	123	30	0	1055916032	46	5978
2026-01-16 15:42:58.87	343.01	44.42	-36.6	-37.7	21.8	0.00e+00	116	30	0	1059061760	46	6005
2026-01-16 15:42:59.88	342.59	44.61	-36.6	-37.8	21.8	0.00e+00	123	29	0	1062207488	46	6070
2026-01-16 15:43:00.89	342.16	44.80	-36.6	-37.7	21.9	0.00e+00	123	30	0	1065353216	46	6057
2026-01-16 15:43:01.90	341.73	44.98	-36.3	-37.4	22.1	0.00e+00	122	30	0	1067450368	46	5815
2026-01-16 15:43:02.91	341.30	45.17	-36.2	-37.3	21.9	0.00e+00	123	29	0	1071644672	46	5780
2026-01-16 15:43:03.92	340.86	45.35	-36.2	-37.3	21.9	0.00e+00	122	29	0	1074790400	46	5768
2026-01-16 15:43:04.93	340.42	45.53	-36.1	-37.2	22.1	0.00e+00	123	29	0	1077936128	46	5700
2026-01-16 15:43:05.94	339.97	45.71	-36.0	-37.1	22.2	0.00e+00	122	29	0	1081081856	46	5637
2026-01-16 15:43:06.95	339.51	45.89	-36.0	-37.1	22.1	0.00e+00	120	29	0	1084227584	46	5642
2026-01-16 15:43:07.96	339.05	46.07	-35.9	-36.9	22.0	0.00e+00	123	29	0	1087373312	46	5518
2026-01-16 15:43:08.97	338.58	46.25	-35.8	-36.8	22.2	0.00e+00	120	30	0	1090519040	46	5438
2026-01-16 15:43:09.98	338.11	46.43	-35.8	-36.8	22.4	0.00e+00	122	29	0	1093664768	44	6097
2026-01-16 15:43:10.99	337.64	46.60	-35.5	-36.5	22.5	0.00e+00	120	29	0	1096810496	44	5915
2026-01-16 15:43:12.00	337.16	46.77	-35.6	-36.6	22.5	0.00e+00	120	29	0	1099956224	44	5982
2026-01-16 15:43:13.01	336.67	46.95	-35.5	-36.5	22.8	0.00e+00	123	29	0	1103101952	44	5867
2026-01-16 15:43:14.02	336.18	47.12	-35.6	-36.6	22.7	0.00e+00	122	29	0	1106247680	44	5966
2026-01-16 15:43:15.03	335.68	47.29	-35.6	-36.5	22.7	0.00e+00	122	29	0	1109393408	44	5926
2026-01-16 15:43:16.04	335.18	47.45	-35.5	-36.5	22.9	0.00e+00	123	29	0	1112539136	44	5876
2026-01-16 15:43:17.05	334.67	47.62	-35.5	-36.5	22.8	0.00e+00	120	29	0	1115684864	44	5923
2026-01-16 15:43:18.06	334.15	47.78	-35.8	-36.9	22.5	0.00e+00	123	29	0	1118830592	44	6145
2026-01-16 15:43:19.07	333.64	47.94	-35.9	-36.9	22.4	0.00e+00	123	29	0	1121976320	44	6183
2026-01-16 15:43:20.08	333.11	48.10	-36.1	-37.2	22.3	0.00e+00	123	29	0	1125122048	44	6383
2026-01-16 15:43:21.09	332.58	48.26	-36.1	-37.2	22.2	0.00e+00	122	29	0	1128267776	44	6393
2026-01-16 15:43:22.10	332.04	48.41	-36.1	-37.2	22.3	0.00e+00	123	29	0	1131413504	44	6406
2026-01-16 15:43:23.11	331.50	48.56	-35.9	-37.0	22.3	0.00e+00	123	29	0	1134559232	44	6221
2026-01-16 15:43:24.12	330.96	48.72	-35.7	-36.8	22.3	0.00e+00	122	29	0	1137704960	44	6104
2026-01-16 15:43:25.13	330.41	48.86	-35.8	-36.9	22.3	0.00e+00	123	29	0	1140850688	44	6194
2026-01-16 15:43:26.14	329.85	49.01	-35.9	-37.0	22.4	0.00e+00	120	29	0	1143996416	44	6239
2026-01-16 15:43:27.15	329.29	49.15	-35.7	-36.8	22.6	0.00e+00	122	29	0	1147142144	44	6093
2026-01-16 15:43:28.16	328.72	49.29	-35.6	-36.6	22.7	0.00e+00	122	29	0	1150287872	44	5978
2026-01-16 15:43:29.17	328.15	49.43	-35.6	-36.6	22.6	0.00e+00	123	29	0	1153433600	44	5994
2026-01-16 15:43:30.19	327.56	49.57	-35.9	-37.0	22.4	0.00e+00	122	29	0	1156579328	44	6252
2026-01-16 15:43:31.20	326.98	49.70	-35.8	-36.9	22.5	0.00e+00	123	29	0	1159725056	44	6147
2026-01-16 15:43:32.21	326.39	49.83	-35.7	-36.8	22.5	0.00e+00	123	29	0	1162870784	44	6121
2026-01-16 15:43:33.22	325.80	49.96	-35.7	-36.7	22.6	0.00e+00	122	29	0	1166016512	44	6056
2026-01-16 15:43:34.23	325.20	50.08	-35.2	-36.2	22.9	0.00e+00	122	29	0	1169162240	44	5674
2026-01-16 15:43:35.24	324.60	50.20	-35.0	-36.0	23.1	0.00e+00	123	29	0	1172307968	44	5570
2026-01-16 15:43:36.25	323.99	50.32	-35.3	-36.4	22.7	0.00e+00	122	29	0	1175453696	44	5838
2026-01-16 15:43:37.26	323.37	50.44	-35.7	-36.8	22.4	0.00e+00	123	29	0	1178599424	44	6118
2026-01-16 15:43:38.27	322.76	50.55	-36.0	-37.1	22.3	0.00e+00	123	29	0	1181745152	44	6316
2026-01-16 15:43:39.28	322.14	50.65	-35.6	-36.7	22.5	0.00e+00	122	29	0	1184890880	44	6029
2026-01-16 15:43:40.29	321.51	50.76	-35.6	-36.7	22.4	0.00e+00	122	29	0	1188036608	44	6044
2026-01-16 15:43:41.30	320.88	50.86	-35.6	-36.7	22.2	0.00e+00	120	29	0	1191182336	44	6020
2026-01-16 15:43:42.30	320.25	50.96	-35.7	-36.8	22.3	0.00e+00	123	29	0	1194328064	44	6134
2026-01-16 15:43:43.31	319.61	51.05	-35.6	-36.7	22.6	0.00e+00	123	29	0	1197473792	44	6008
2026-01-16 15:43:44.32	318.97	51.14	-35.6	-36.7	22.6	0.00e+00	123	29	0	1200619520	44	6054
2026-01-16 15:43:45.33	318.32	51.23	-36.0	-37.2	22.3	0.00e+00	123	29	0	1203765248	44	6381
2026-01-16 15:43:46.34	317.67	51.31	-36.2	-37.3	22.1	0.00e+00	123	29	0	1206910976	44	6477
2026-01-16 15:43:47.35	317.02	51.39	-36.5	-37.7	21.6	0.00e+00	123	29	0	1210056704	44	6750
2026-01-16 15:43:48.36	316.36	51.47	-36.0	-37.2	22.0	0.00e+00	120	29	0	1213202432	44	6386
2026-01-16 15:43:49.37	315.70	51.54	-35.7	-36.8	22.6	0.00e+00	123	29	0	1216348160	44	6079
2026-01-16 15:43:50.38	315.03	51.61	-35.4	-36.5	22.6	0.00e+00	122	29	0	1219493888	44	5900
2026-01-16 15:43:51.39	314.37	51.67	-35.6	-36.8	22.3	0.00e+00	122	29	0	1222639616	44	6079
2026-01-16 15:43:52.40	313.70	51.73	-35.7	-36.8	22.2	0.00e+00	123	29	0	1225785344	44	6092
2026-01-16 15:43:53.41	313.02	51.79	-35.7	-36.8	22.2	0.00e+00	120	29	0	1228931072	44	6100
2026-01-16 15:43:54.43	312.34	51.84	-35.6	-36.7	22.2	0.00e+00	123	29	0	1232076800	44	6009
2026-01-16 15:43:55.44	311.67	51.89	-35.8	-36.9	21.9	0.00e+00	120	29	0	1235222528	44	6172
2026-01-16 15:43:56.45	310.99	51.93	-35.9	-37.1	21.8	0.00e+00	123	29	0	1238368256	44	6296
2026-01-16 15:43:57.46	310.30	51.97	-35.9	-37.0	22.0	0.00e+00	120	29	0	1241513984	44	6273
2026-01-16 15:43:58.47	309.62	52.01	-35.4	-36.5	22.7	0.00e+00	122	29	0	1244659712	44	5878
2026-01-16 15:43:59.48	308.94	52.04	-35.0	-36.0	23.1	0.00e+00	123	29	0	1247805440	44	5588
2026-01-16 15:44:00.49	308.25	52.07	-35.0	-36.1	22.8	0.00e+00	121	29	0	1250951168	44	5600
2026-01-16 15:44:01.50	307.56	52.09	-35.3	-36.3	22.8	0.00e+00	123	29	0	1254096896	44	5751
2026-01-16 15:44:02.51	306.88	52.11	-35.4	-36.4	22.8	0.00e+00	120	29	0	1257242624	44	5839
2026-01-16 15:44:03.52	306.19	52.12	-35.2	-36.2	23.0	0.00e+00	122	29	0	1260388352	44	5713
2026-01-16 15:44:04.53	305.50	52.13	-35.0	-35.9	23.3	0.00e+00	120	29	0	1263534080	44	5524
2026-01-16 15:44:05.54	304.81	52.14	-35.0	-36.0	22.8	0.00e+00	123	29	0	1266679808	44	5564
2026-01-16 15:44:06.56	304.11	52.14	-35.0	-36.0	22.9	0.00e+00	121	29	0	1269825536	44	5592
2026-01-16 15:44:07.57	303.42	52.14	-34.8	-35.8	23.2	0.00e+00	123	29	0	1272971264	44	5457
2026-01-16 15:44:08.58	302.73	52.13	-34.9	-35.9	22.8	0.00e+00	120	29	0	1276116992	44	5512
2026-01-16 15:44:09.59	302.04	52.12	-34.9	-35.9	22.8	0.00e+00	123	29	0	1279262720	42	6196
2026-01-16 15:44:10.60	301.35	52.10	-34.9	-35.9	23.0	0.00e+00	120	29	0	1282408448	42	6161
2026-01-16 15:44:11.61	300.66	52.08	-34.7	-35.6	23.3	0.00e+00	123	29	0	1285554176	42	5986
2026-01-16 15:44:12.62	299.98	52.06	-34.7	-35.7	23.3	0.00e+00	121	29	0	1288699904	42	6013
2026-01-16 15:44:13.63	299.29	52.03	-35.2	-36.2	23.0	0.00e+00	123	29	0	1291845632	42	6357
2026-01-16 15:44:14.64	298.61	51.99	-35.1	-36.1	22.7	0.00e+00	123	29	0	1294991360	42	6302
2026-01-16 15:44:15.65	297.93	51.96	-35.1	-36.2	22.4	0.00e+00	120	29	0	1298137088	42	6365
2026-01-16 15:44:16.66	297.24	51.92	-35.1	-36.1	22.7	0.00e+00	123	29	0	1301282816	42	6343
2026-01-16 15:44:17.67	296.57	51.87	-34.9	-35.9	22.9	0.00e+00	122	29	0	1304428544	42	6154
2026-01-16 15:44:18.68	295.89	51.82	-34.9	-35.9	23.0	0.00e+00	123	29	0	1307574272	42	6164
2026-01-16 15:44:19.69	295.21	51.77	-35.0	-36.0	22.7	0.00e+00	120	29	0	1310720000	42	6223
2026-01-16 15:44:20.70	294.54	51.71	-35.3	-36.3	22.2	0.00e+00	122	29	0	1313865728	42	6466
2026-01-16 15:44:21.71	293.87	51.65	-35.7	-36.7	22.2	0.00e+00	123	29	0	1317011456	42	6795
2026-01-16 15:44:22.72	293.21	51.58	-35.7	-36.7	22.5	0.00e+00	123	29	0	1320157184	44	6059
2026-01-16 15:44:23.73	292.54	51.51	-35.2	-36.2	23.1	0.00e+00	122	29	0	1323302912	44	5706
2026-01-16 15:44:24.74	291.88	51.44	-34.9	-35.8	23.3	0.00e+00	123	29	0	1326448640	44	5461
2026-01-16 15:44:25.76	291.22	51.36	-34.8	-35.7	23.4	0.00e+00	122	29	0	1330642944	44	5386
2026-01-16 15:44:26.77	290.57	51.28	-35.0	-35.9	23.3	0.00e+00	123	29	0	1333788672	42	6175
2026-01-16 15:44:27.78	289.92	51.19	-35.3	-36.3	22.9	0.00e+00	123	29	0	1335885824	42	6478
2026-01-16 15:44:28.79	289.27	51.10	-35.9	-37.0	22.4	0.00e+00	123	29	0	1339031552	44	6227
2026-01-16 15:44:29.80	288.63	51.01	-36.2	-37.2	22.4	0.00e+00	123	29	0	1342177280	44	6391
2026-01-16 15:44:30.81	287.99	50.91	-36.0	-37.0	22.4	0.00e+00	122	29	0	1346371584	44	6233
2026-01-16 15:44:31.82	287.36	50.81	-35.7	-36.7	22.8	0.00e+00	123	29	0	1349517312	44	6020
2026-01-16 15:44:32.83	286.73	50.71	-35.3	-36.3	23.0	0.00e+00	123	29	0	1352663040	44	5749
2026-01-16 15:44:33.84	286.11	50.60	-35.2	-36.1	23.3	0.00e+00	123	29	0	1355808768	44	5641
2026-01-16 15:44:34.85	285.49	50.49	-35.4	-36.4	23.0	0.00e+00	123	29	0	1357905920	44	5793
2026-01-16 15:44:35.86	284.87	50.38	-35.9	-36.9	22.5	0.00e+00	123	29	0	1362100224	44	6182
2026-01-16 15:44:36.87	284.26	50.26	-36.2	-37.3	22.3	0.00e+00	123	29	0	1365245952	44	6446
2026-01-16 15:44:37.88	283.65	50.14	-35.8	-36.8	22.7	0.00e+00	123	29	0	1368391680	44	6107
2026-01-16 15:44:38.89	283.05	50.02	-35.3	-36.2	23.0	0.00e+00	123	29	0	1371537408	44	5724
2026-01-16 15:44:39.91	282.45	49.89	-34.8	-35.7	23.4	0.00e+00	123	29	0	1374683136	44	5392
2026-01-16 15:44:40.92	281.86	49.77	-35.0	-36.0	23.3	0.00e+00	123	29	0	1377828864	44	5568
2026-01-16 15:44:41.93	281.27	49.63	-35.6	-36.6	22.7	0.00e+00	122	29	0	1380974592	44	5961
2026-01-16 15:44:42.93	280.69	49.50	-36.7	-37.7	21.8	0.00e+00	123	29	0	1384120320	44	6798
2026-01-16 15:44:43.94	280.12	49.36	-37.4	-38.5	21.2	0.00e+00	122	29	0	1387266048	46	6624
2026-01-16 15:44:44.95	279.55	49.23	-36.9	-38.1	21.2	0.00e+00	122	29	0	1390411776	46	6279
2026-01-16 15:44:45.96	278.98	49.08	-35.7	-36.7	22.6	0.00e+00	123	29	0	1393557504	46	5356
2026-01-16 15:44:46.97	278.42	48.94	-34.5	-35.4	23.7	0.00e+00	123	29	0	1396703232	42	5804
2026-01-16 15:44:47.98	277.86	48.79	-34.4	-35.2	23.9	0.00e+00	123	29	0	1399848960	42	5724
2026-01-16 15:44:48.99	277.31	48.64	-34.9	-35.8	23.5	0.00e+00	120	29	0	1402994688	42	6124
2026-01-16 15:44:50.00	276.77	48.49	-35.9	-36.9	22.5	0.00e+00	122	29	0	1406140416	44	6171
2026-01-16 15:44:51.01	276.23	48.34	-36.5	-37.6	21.8	0.00e+00	123	29	0	1409286144	44	6658
2026-01-16 15:44:52.02	275.69	48.18	-36.3	-37.4	21.4	0.00e+00	123	29	0	1412431872	44	6530
2026-01-16 15:44:53.03	275.17	48.02	-35.9	-37.0	21.5	0.00e+00	120	29	0	1415577600	44	6272
2026-01-16 15:44:54.04	274.64	47.86	-35.2	-36.2	22.3	0.00e+00	123	29	0	1418723328	44	5717
2026-01-16 15:44:55.05	274.12	47.70	-35.2	-36.2	22.8	0.00e+00	121	29	0	1421869056	44	5682
2026-01-16 15:44:56.06	273.61	47.53	-35.6	-36.6	22.7	0.00e+00	122	29	0	1425014784	44	5980
2026-01-16 15:44:57.07	273.11	47.37	-36.6	-37.6	21.9	0.00e+00	122	29	0	1428160512	44	6717
2026-01-16 15:44:58.08	272.60	47.20	-37.6	-38.7	20.9	0.00e+00	123	29	0	1431306240	46	6764
2026-01-16 15:44:59.09	272.11	47.03	-37.4	-38.5	21.2	0.00e+00	123	29	0	1434451968	48	5899
2026-01-16 15:45:00.10	271.62	46.86	-37.2	-38.3	21.3	0.00e+00	119	29	0	1437597696	48	5767
2026-01-16 15:45:01.11	271.13	46.69	-35.5	-36.5	22.7	0.00e+00	122	29	0	1440743424	44	5891
2026-01-16 15:45:02.12	270.65	46.51	-34.9	-35.9	23.4	0.00e+00	123	29	0	1443889152	44	5474
2026-01-16 15:45:03.13	270.18	46.34	-35.1	-36.0	23.2	0.00e+00	122	29	0	1447034880	44	5562
2026-01-16 15:45:04.14	269.71	46.16	-35.7	-36.7	22.7	0.00e+00	122	29	0	1450180608	44	6035
2026-01-16 15:45:05.15	269.24	45.98	-36.5	-37.5	22.0	0.00e+00	122	29	0	1453326336	44	6611
2026-01-16 15:45:06.16	268.79	45.80	-36.7	-37.7	21.9	0.00e+00	123	29	0	1456472064	46	6037
2026-01-16 15:45:07.17	268.33	45.62	-36.2	-37.2	22.3	0.00e+00	122	29	0	1459617792	46	5674
2026-01-16 15:45:08.18	267.88	45.44	-35.8	-36.8	22.4	0.00e+00	122	29	0	1462763520	46	5427
2026-01-16 15:45:09.19	267.44	45.25	-35.4	-36.3	22.8	0.00e+00	122	29	0	1465909248	44	5784
2026-01-16 15:45:10.20	267.00	45.07	-35.4	-36.4	22.9	0.00e+00	120	29	0	1469054976	44	5813
2026-01-16 15:45:11.21	266.57	44.88	-36.3	-37.3	22.1	0.00e+00	123	29	0	1472200704	44	6466
2026-01-16 15:45:12.23	266.14	44.69	-37.4	-38.5	20.6	0.00e+00	122	29	0	1475346432	46	6622
2026-01-16 15:45:13.23	265.72	44.51	-38.5	-39.9	19.7	0.00e+00	122	29	0	1478492160	48	6884
2026-01-16 15:45:14.25	265.30	44.32	-38.7	-40.0	20.0	0.00e+00	120	29	0	1481637888	50	6250
2026-01-16 15:45:15.25	264.89	44.13	-37.5	-38.6	20.6	0.00e+00	123	29	0	1484783616	48	5981
2026-01-16 15:45:16.26	264.48	43.94	-36.5	-37.6	21.2	0.00e+00	122	29	0	1487929344	46	5993
2026-01-16 15:45:17.28	264.07	43.75	-35.8	-36.8	21.4	0.00e+00	123	29	0	1491075072	46	5453
2026-01-16 15:45:18.29	263.68	43.56	-35.1	-36.1	23.0	0.00e+00	123	29	0	1494220800	44	5637
2026-01-16 15:45:19.30	263.28	43.37	-35.2	-36.2	23.1	0.00e+00	120	29	0	1497366528	44	5696
2026-01-16 15:45:20.31	262.89	43.18	-35.7	-36.6	22.7	0.00e+00	123	29	0	1500512256	44	5987
2026-01-16 15:45:21.31	262.51	42.99	-36.5	-37.5	21.8	0.00e+00	122	29	0	1503657984	44	6614
2026-01-16 15:45:22.32	262.13	42.79	-37.8	-38.9	20.9	0.00e+00	123	29	0	1506803712	46	6931
2026-01-16 15:45:23.33	261.76	42.60	-38.4	-39.6	20.1	0.00e+00	123	29	0	1509949440	48	6712
2026-01-16 15:45:24.34	261.39	42.41	-38.0	-39.2	20.5	0.00e+00	123	29	0	1513095168	48	6410
2026-01-16 15:45:25.35	261.02	42.21	-37.3	-38.4	21.3	0.00e+00	123	29	0	1516240896	48	5822
2026-01-16 15:45:26.36	260.66	42.02	-37.0	-38.0	21.7	0.00e+00	123	29	0	1519386624	48	5594
2026-01-16 15:45:27.37	260.30	41.82	-35.9	-36.9	22.8	0.00e+00	123	29	0	1522532352	46	5490
2026-01-16 15:45:28.38	259.95	41.63	-35.6	-36.6	22.9	0.00e+00	123	29	0	1525678080	44	5957
2026-01-16 15:45:29.39	259.60	41.43	-35.9	-36.9	22.5	0.00e+00	123	29	0	1528823808	44	6185
2026-01-16 15:45:30.40	259.26	41.24	-36.4	-37.4	22.1	0.00e+00	122	29	0	1531969536	44	6553
2026-01-16 15:45:31.42	258.91	41.04	-37.1	-38.2	21.5	0.00e+00	120	29	0	1535115264	46	6371
2026-01-16 15:45:32.42	258.58	40.85	-37.5	-38.7	20.9	0.00e+00	123	29	0	1538260992	46	6728
2026-01-16 15:45:33.43	258.25	40.65	-37.6	-38.8	21.0	0.00e+00	120	29	0	1541406720	46	6850
2026-01-16 15:45:34.44	257.92	40.45	-37.2	-38.3	21.4	0.00e+00	122	29	0	1544552448	46	6461
2026-01-16 15:45:35.46	257.59	40.26	-36.5	-37.5	22.0	0.00e+00	120	29	0	1547698176	46	5889
2026-01-16 15:45:36.46	257.28	40.06	-36.1	-37.1	22.6	0.00e+00	122	29	0	1550843904	46	5626
2026-01-16 15:45:37.48	256.96	39.87	-35.0	-35.9	23.4	0.00e+00	123	29	0	1553989632	44	5505
2026-01-16 15:45:38.49	256.64	39.67	-35.1	-36.0	23.1	0.00e+00	122	29	0	1557135360	44	5590
2026-01-16 15:45:39.49	256.34	39.48	-35.6	-36.6	22.5	0.00e+00	123	29	0	1560281088	44	5955
2026-01-16 15:45:40.50	256.03	39.28	-36.1	-37.2	22.1	0.00e+00	123	29	0	1563426816	44	6376
2026-01-16 15:45:41.51	255.73	39.09	-36.4	-37.5	22.1	0.00e+00	123	29	0	1566572544	44	6600
2026-01-16 15:45:42.53	255.43	38.89	-36.6	-37.7	21.9	0.00e+00	122	29	0	1569718272	44	6786
2026-01-16 15:45:43.54	255.14	38.70	-36.1	-37.1	22.4	0.00e+00	123	29	0	1572864000	44	6345
2026-01-16 15:45:44.55	254.85	38.50	-35.6	-36.5	22.9	0.00e+00	120	29	0	1576009728	44	5923
2026-01-16 15:45:45.56	254.56	38.31	-35.2	-36.2	23.3	0.00e+00	123	29	0	1579155456	44	5663
2026-01-16 15:45:46.57	254.27	38.12	-34.8	-35.8	23.5	0.00e+00	123	29	0	1582301184	44	5427
2026-01-16 15:45:47.57	254.00	37.92	-34.7	-35.6	23.6	0.00e+00	123	29	0	1585446912	42	5941
2026-01-16 15:45:48.59	253.72	37.73	-34.4	-35.3	23.8	0.00e+00	122	29	0	1588592640	42	5791
2026-01-16 15:45:49.60	253.44	37.54	-34.6	-35.6	23.8	0.00e+00	123	29	0	1591738368	42	5927
2026-01-16 15:45:50.60	253.17	37.35	-34.8	-35.7	23.6	0.00e+00	120	29	0	1594884096	42	6042
2026-01-16 15:45:51.61	252.91	37.15	-35.1	-36.1	23.3	0.00e+00	123	29	0	1598029824	42	6297
2026-01-16 15:45:52.62	252.64	36.96	-35.4	-36.3	23.1	0.00e+00	122	29	0	1601175552	42	6489
2026-01-16 15:45:53.63	252.38	36.77	-35.3	-36.3	23.0	0.00e+00	123	29	0	1604321280	42	6440
2026-01-16 15:45:54.64	252.12	36.58	-35.1	-36.1	23.1	0.00e+00	120	29	0	1607467008	42	6322
2026-01-16 15:45:55.65	251.87	36.39	-34.6	-35.5	23.6	0.00e+00	123	29	0	1610612736	42	5912
2026-01-16 15:45:56.66	251.62	36.20	-34.4	-35.3	23.8	0.00e+00	123	29	0	1613758464	42	5791
2026-01-16 15:45:57.67	251.37	36.01	-34.3	-35.1	24.0	0.00e+00	123	29	0	1616904192	42	5658
2026-01-16 15:45:58.68	251.12	35.82	-34.2	-35.1	24.0	0.00e+00	123	29	0	1620049920	42	5640
2026-01-16 15:45:59.69	250.88	35.63	-34.8	-35.7	23.5	0.00e+00	122	29	0	1623195648	42	6054
2026-01-16 15:46:00.69	250.64	35.45	-35.2	-36.2	23.2	0.00e+00	123	28	0	1626341376	42	6366
2026-01-16 15:46:01.70	250.40	35.26	-34.9	-35.9	23.4	0.00e+00	123	29	0	1629487104	42	6164
2026-01-16 15:46:02.71	250.17	35.07	-34.6	-35.5	23.6	0.00e+00	120	28	0	1632632832	42	5917
2026-01-16 15:46:03.72	249.93	34.89	-34.6	-35.5	23.7	0.00e+00	123	29	0	1635778560	42	5925
2026-01-16 15:46:04.73	249.70	34.70	-34.3	-35.2	23.9	0.00e+00	123	28	0	1638924288	42	5719
2026-01-16 15:46:05.74	249.48	34.52	-34.4	-35.3	23.8	0.00e+00	123	29	0	1642070016	42	5741
2026-01-16 15:46:06.76	249.25	34.33	-34.5	-35.4	23.7	0.00e+00	122	29	0	1646264320	42	5815
2026-01-16 15:46:07.77	249.03	34.15	-34.5	-35.5	23.6	0.00e+00	123	29	0	1649410048	42	5875
2026-01-16 15:46:08.77	248.81	33.97	-34.6	-35.6	23.4	0.00e+00	123	29	0	1651507200	42	5936
2026-01-16 15:46:09.78	248.59	33.78	-34.6	-35.5	23.3	0.00e+00	123	29	0	1654652928	42	5891
2026-01-16 15:46:10.79	248.38	33.60	-34.6	-35.5	23.3	0.00e+00	122	29	0	1657798656	42	5907
2026-01-16 15:46:11.80	248.17	33.42	-34.4	-35.3	23.5	0.00e+00	122	29	0	1660944384	42	5754
2026-01-16 15:46:12.81	247.96	33.24	-34.3	-35.3	23.7	0.00e+00	120	29	0	1665138688	42	5731
2026-01-16 15:46:13.82	247.75	33.06	-34.3	-35.3	23.8	0.00e+00	122	29	0	1668284416	42	5728
2026-01-16 15:46:14.83	247.54	32.88	-34.4	-35.3	23.7	0.00e+00	123	29	0	1671430144	42	5781
2026-01-16 15:46:15.84	247.34	32.70	-34.7	-35.6	23.5	0.00e+00	122	29	0	1673527296	42	5961
2026-01-16 15:46:16.85	247.14	32.52	-34.7	-35.6	23.4	0.00e+00	122	29	0	1676673024	42	5989
2026-01-16 15:46:17.86	246.94	32.35	-34.6	-35.6	23.3	0.00e+00	123	28	0	1680867328	42	5962
2026-01-16 15:46:18.87	246.75	32.17	-34.5	-35.4	23.4	0.00e+00	120	29	0	1684013056	42	5858
2026-01-16 15:46:19.88	246.55	31.99	-34.4	-35.3	23.4	0.00e+00	120	29	0	1687158784	42	5767
2026-01-16 15:46:20.89	246.36	31.82	-34.3	-35.2	23.8	0.00e+00	120	29	0	1690304512	42	5697
2026-01-16 15:46:21.90	246.17	31.64	-34.1	-35.0	24.0	0.00e+00	122	29	0	1693450240	42	5584
2026-01-16 15:46:22.91	245.98	31.47	-34.0	-34.8	24.1	0.00e+00	123	29	0	1696595968	42	5459
2026-01-16 15:46:23.92	245.80	31.29	-34.0	-34.9	24.2	0.00e+00	122	29	0	1699741696	42	5496
2026-01-16 15:46:24.93	245.61	31.12	-34.0	-34.9	24.2	0.00e+00	120	28	0	1702887424	42	5480
2026-01-16 15:46:25.94	245.43	30.95	-34.0	-34.9	24.2	0.00e+00	123	28	0	1706033152	42	5493
2026-01-16 15:46:26.95	245.25	30.78	-34.1	-35.0	24.1	0.00e+00	122	29	0	1709178880	42	5569
2026-01-16 15:46:27.96	245.07	30.61	-34.0	-34.9	24.2	0.00e+00	123	29	0	1712324608	42	5529
2026-01-16 15:46:28.97	244.90	30.44	-34.0	-34.9	24.1	0.00e+00	120	29	0	1715470336	42	5480
2026-01-16 15:46:29.98	244.72	30.27	-34.0	-34.9	24.1	0.00e+00	123	28	0	1718616064	42	5507
2026-01-16 15:46:30.99	244.55	30.10	-34.0	-34.9	24.0	0.00e+00	120	28	0	1721761792	42	5503
2026-01-16 15:46:32.00	244.38	29.93	-34.0	-34.9	24.0	0.00e+00	121	28	0	1724907520	42	5517
2026-01-16 15:46:33.01	244.21	29.76	-34.1	-35.0	23.9	0.00e+00	123	28	0	1728053248	42	5578
2026-01-16 15:46:34.02	244.04	29.60	-34.3	-35.2	23.8	0.00e+00	123	28	0	1731198976	42	5687
2026-01-16 15:46:35.03	243.88	29.43	-34.3	-35.2	23.8	0.00e+00	120	29	0	1734344704	42	5685
2026-01-16 15:46:36.04	243.71	29.26	-34.2	-35.2	23.9	0.00e+00	123	29	0	1737490432	42	5669
2026-01-16 15:46:37.05	243.55	29.10	-34.2	-35.1	23.9	0.00e+00	122	28	0	1740636160	42	5648
2026-01-16 15:46:38.06	243.39	28.94	-34.0	-34.9	24.0	0.00e+00	122	28	0	1743781888	42	5512
2026-01-16 15:46:39.07	243.23	28.77	-33.8	-34.7	24.2	0.00e+00	123	28	0	1746927616	42	5355
2026-01-16 15:46:40.08	243.08	28.61	-33.7	-34.6	24.3	0.00e+00	123	28	0	1750073344	40	5963
2026-01-16 15:46:41.09	242.92	28.45	-33.6	-34.5	24.4	0.00e+00	122	28	0	1753219072	40	5896
2026-01-16 15:46:42.10	242.77	28.29	-33.5	-34.4	24.4	0.00e+00	123	28	0	1756364800	40	5798
2026-01-16 15:46:43.11	242.62	28.13	-33.4	-34.3	24.5	0.00e+00	120	28	0	1759510528	40	5756
2026-01-16 15:46:44.12	242.47	27.97	-33.3	-34.2	24.4	0.00e+00	122	28	0	1762656256	40	5702
2026-01-16 15:46:45.13	242.32	27.81	-33.3	-34.2	24.5	0.00e+00	122	28	0	1765801984	40	5687
2026-01-16 15:46:46.14	242.17	27.65	-33.5	-34.4	24.4	0.00e+00	122	28	0	1768947712	40	5803
2026-01-16 15:46:47.15	242.02	27.49	-33.4	-34.3	24.5	0.00e+00	120	28	0	1772093440	40	5744
2026-01-16 15:46:48.16	241.88	27.34	-33.4	-34.3	24.4	0.00e+00	122	28	0	1775239168	40	5775
2026-01-16 15:46:49.17	241.73	27.18	-33.4	-34.3	24.5	0.00e+00	123	28	0	1778384896	40	5782
2026-01-16 15:46:50.18	241.59	27.02	-33.4	-34.2	24.6	0.00e+00	123	28	0	1781530624	40	5714
2026-01-16 15:46:51.19	241.45	26.87	-33.3	-34.2	24.6	0.00e+00	123	29	0	1784676352	40	5678
2026-01-16 15:46:52.20	241.31	26.71	-33.4	-34.3	24.6	0.00e+00	122	28	0	1787822080	40	5737
2026-01-16 15:46:53.21	241.18	26.56	-33.3	-34.1	24.6	0.00e+00	120	28	0	1790967808	40	5652
2026-01-16 15:46:54.22	241.04	26.41	-33.1	-34.0	24.7	0.00e+00	122	28	0	1794113536	40	5561
2026-01-16 15:46:55.23	240.90	26.26	-33.2	-34.1	24.6	0.00e+00	123	28	0	1797259264	40	5607
2026-01-16 15:46:56.24	240.77	26.10	-33.1	-34.0	24.7	0.00e+00	122	28	0	1800404992	40	5547
2026-01-16 15:46:57.25	240.64	25.95	-33.1	-34.0	24.7	0.00e+00	123	28	0	1803550720	40	5541
2026-01-16 15:46:58.27	240.51	25.80	-33.1	-34.0	24.6	0.00e+00	123	28	0	1806696448	40	5559
2026-01-16 15:46:59.28	240.38	25.65	-33.2	-34.1	24.7	0.00e+00	120	28	0	1809842176	40	5603
2026-01-16 15:47:00.29	240.25	25.50	-33.1	-34.0	24.8	0.00e+00	123	28	0	1812987904	40	5557
2026-01-16 15:47:01.30	240.12	25.36	-33.1	-33.9	24.8	0.00e+00	121	28	0	1816133632	40	5528
2026-01-16 15:47:02.31	239.99	25.21	-33.2	-34.1	24.7	0.00e+00	122	28	0	1819279360	40	5612
2026-01-16 15:47:03.32	239.87	25.06	-33.1	-34.0	24.6	0.00e+00	123	28	0	1822425088	40	5580
2026-01-16 15:47:04.33	239.74	24.92	-33.3	-34.2	24.5	0.00e+00	120	28	0	1825570816	40	5690
2026-01-16 15:47:05.34	239.62	24.77	-33.5	-34.4	24.3	0.00e+00	122	28	0	1828716544	40	5816
2026-01-16 15:47:06.35	239.50	24.63	-33.6	-34.6	24.2	0.00e+00	123	28	0	1831862272	40	5935
2026-01-16 15:47:07.36	239.38	24.48	-33.8	-34.7	24.1	0.00e+00	122	28	0	1835008000	40	6024
2026-01-16 15:47:08.37	239.26	24.34	-33.9	-34.8	24.1	0.00e+00	123	28	0	1838153728	40	6094
2026-01-16 15:47:09.38	239.14	24.20	-33.9	-34.9	24.1	0.00e+00	120	28	0	1841299456	40	6142
2026-01-16 15:47:10.39	239.03	24.05	-34.0	-35.0	24.1	0.00e+00	123	28	0	1844445184	40	6215
2026-01-16 15:47:11.40	238.91	23.91	-34.1	-35.0	24.0	0.00e+00	122	28	0	1847590912	40	6239
2026-01-16 15:47:12.41	238.79	23.77	-33.8	-34.8	24.2	0.00e+00	123	28	0	1850736640	40	6073
2026-01-16 15:47:13.42	238.68	23.63	-33.9	-34.9	24.1	0.00e+00	123	28	0	1853882368	40	6145
2026-01-16 15:47:14.43	238.57	23.49	-34.0	-34.9	24.1	0.00e+00	120	28	0	1857028096	40	6195
2026-01-16 15:47:15.44	238.46	23.35	-34.0	-34.9	24.1	0.00e+00	122	28	0	1860173824	40	6170
2026-01-16 15:47:16.45	238.34	23.21	-34.1	-35.0	24.0	0.00e+00	123	28	0	1863319552	40	6227
2026-01-16 15:47:17.46	238.24	23.08	-34.1	-35.0	24.0	0.00e+00	123	28	0	1866465280	40	6265
2026-01-16 15:47:18.47	238.13	22.94	-34.3	-35.2	23.9	0.00e+00	120	28	0	1869611008	40	6389
2026-01-16 15:47:19.48	238.02	22.80	-34.0	-35.0	24.0	0.00e+00	123	28	0	1872756736	40	6221
2026-01-16 15:47:20.49	237.91	22.67	-34.1	-35.0	23.9	0.00e+00	120	28	0	1875902464	40	6231
2026-01-16 15:47:21.49	237.81	22.53	-34.0	-34.9	24.0	0.00e+00	122	28	0	1879048192	40	6184
2026-01-16 15:47:22.51	237.70	22.40	-33.8	-34.7	24.1	0.00e+00	123	28	0	1882193920	40	6059
2026-01-16 15:47:23.51	237.60	22.26	-33.5	-34.4	24.2	0.00e+00	123	28	0	1885339648	40	5853
2026-01-16 15:47:24.52	237.49	22.13	-33.5	-34.4	24.2	0.00e+00	123	28	0	1888485376	40	5855
2026-01-16 15:47:25.53	237.39	22.00	-33.5	-34.4	24.2	0.00e+00	123	28	0	1891631104	40	5811
2026-01-16 15:47:26.55	237.29	21.86	-33.3	-34.2	24.4	0.00e+00	122	28	0	1894776832	40	5701
2026-01-16 15:47:27.56	237.19	21.73	-33.3	-34.2	24.5	0.00e+00	123	28	0	1897922560	40	5679
2026-01-16 15:47:28.57	237.09	21.60	-33.3	-34.1	24.5	0.00e+00	122	28	0	1901068288	40	5659
2026-01-16 15:47:29.58	236.99	21.47	-33.1	-34.0	24.6	0.00e+00	123	28	0	1904214016	40	5552
2026-01-16 15:47:30.59	236.89	21.34	-32.9	-33.8	24.8	0.00e+00	120	28	0	1907359744	40	5425
2026-01-16 15:47:31.60	236.80	21.21	-33.1	-34.0	24.7	0.00e+00	123	28	0	1910505472	40	5541
2026-01-16 15:47:32.61	236.70	21.08	-33.1	-33.9	24.7	0.00e+00	123	28	0	1913651200	40	5516
2026-01-16 15:47:33.62	236.60	20.95	-33.0	-33.9	24.8	0.00e+00	122	28	0	1916796928	40	5509
2026-01-16 15:47:34.63	236.51	20.82	-33.1	-34.0	24.7	0.00e+00	122	28	0	1919942656	40	5574
2026-01-16 15:47:35.64	236.42	20.70	-33.1	-34.0	24.7	0.00e+00	123	28	0	1923088384	40	5574
2026-01-16 15:47:36.65	236.32	20.57	-33.3	-34.2	24.5	0.00e+00	123	28	0	1926234112	40	5677
2026-01-16 15:47:37.66	236.23	20.44	-33.2	-34.0	24.7	0.00e+00	123	28	0	1929379840	40	5588
2026-01-16 15:47:38.67	236.14	20.32	-33.3	-34.2	24.5	0.00e+00	123	28	0	1932525568	40	5674
2026-01-16 15:47:39.68	236.05	20.19	-33.4	-34.3	24.5	0.00e+00	122	28	0	1935671296	40	5748
2026-01-16 15:47:40.69	235.96	20.07	-33.3	-34.2	24.4	0.00e+00	123	28	0	1938817024	40	5699
2026-01-16 15:47:41.70	235.87	19.95	-33.5	-34.4	24.3	0.00e+00	123	28	0	1941962752	40	5795
2026-01-16 15:47:42.71	235.78	19.82	-33.5	-34.4	24.3	0.00e+00	123	28	0	1945108480	40	5815
2026-01-16 15:47:43.72	235.69	19.70	-33.6	-34.5	24.2	0.00e+00	122	28	0	1948254208	40	5874
2026-01-16 15:47:44.72	235.61	19.58	-33.5	-34.4	24.2	0.00e+00	123	28	0	1951399936	40	5849
2026-01-16 15:47:45.73	235.52	19.46	-33.7	-34.6	24.1	0.00e+00	123	28	0	1954545664	40	5942
2026-01-16 15:47:46.74	235.44	19.33	-33.6	-34.5	24.1	0.00e+00	120	28	0	1957691392	40	5892
2026-01-16 15:47:47.75	235.35	19.21	-33.7	-34.6	24.0	0.00e+00	120	28	0	1960837120	40	5991
2026-01-16 15:47:48.76	235.27	19.09	-33.7	-34.6	23.9	0.00e+00	122	28	0	1965031424	40	5963
2026-01-16 15:47:49.77	235.18	18.97	-33.9	-34.8	23.8	0.00e+00	123	28	0	1967128576	40	6107
2026-01-16 15:47:50.78	235.10	18.85	-33.8	-34.7	24.0	0.00e+00	122	28	0	1970274304	40	6018
2026-01-16 15:47:51.79	235.02	18.74	-33.8	-34.7	23.9	0.00e+00	123	28	0	1973420032	40	6061
