passes_logs/2026/01/16/R4.6S_Anadyr/R4.6S_Anadyr__20260116_202443_FENGYUN_3D_rec.log

#Pass ID: 20260116_202443_FENGYUN 3D
#Satellite: FENGYUN 3D
#Configuration: FENGYUN 3D
#almurnet v.1.7.20251203
#Start time: 2026-01-16 20:24:45

#Version: 2.2.20231116
#Station: R4.6S_Anadyr
#Location: 177.4865 lon 64.73178 lat
#TLE: 1 43010U 17072A   26015.99024095 -.00000189  00000+0 -67463-4 0  9996
#TLE: 2 43010  98.9932 347.8215 0002366 106.5594 253.5841 14.19694691423396

#Time	Az	El	Level	Level2	SNR	BER	BlckErr	Temp	State	Recorded	gain1	gain2
2026-01-16 20:24:45.09	40.22	0.10	-48.2	-63.1	3.5	1.51e+00	0	27	0	0	60	51892
2026-01-16 20:24:46.10	40.15	0.15	-48.3	-60.4	3.6	8.45e-01	0	28	104	0	60	37975
2026-01-16 20:24:47.11	40.08	0.20	-48.1	-60.2	3.6	8.47e-01	0	28	104	0	60	37101
2026-01-16 20:24:48.12	40.01	0.25	-48.2	-60.2	3.6	8.45e-01	0	29	104	0	60	37172
2026-01-16 20:24:49.13	39.94	0.30	-48.1	-60.3	3.6	8.45e-01	0	29	104	0	60	37321
2026-01-16 20:24:50.14	39.87	0.35	-48.0	-60.2	3.6	8.46e-01	0	29	104	0	60	37076
2026-01-16 20:24:51.15	39.80	0.40	-48.0	-60.2	3.5	8.43e-01	0	29	104	0	60	36958
2026-01-16 20:24:52.16	39.73	0.45	-48.1	-60.2	3.6	8.44e-01	0	29	104	0	60	36904
2026-01-16 20:24:53.17	39.66	0.51	-48.0	-60.2	3.6	8.46e-01	0	29	104	0	60	36927
2026-01-16 20:24:54.18	39.59	0.56	-48.0	-60.1	3.6	8.45e-01	0	29	104	0	60	36557
2026-01-16 20:24:55.19	39.51	0.61	-47.9	-60.1	3.6	8.45e-01	0	29	104	0	60	36368
2026-01-16 20:24:56.20	39.44	0.66	-47.8	-59.9	3.6	8.45e-01	0	29	104	0	60	35852
2026-01-16 20:24:57.21	39.37	0.71	-47.8	-59.9	3.6	8.45e-01	0	29	104	0	60	35758
2026-01-16 20:24:58.22	39.30	0.76	-47.7	-59.8	3.6	8.46e-01	0	29	104	0	60	35458
2026-01-16 20:24:59.23	39.22	0.81	-47.7	-59.8	3.6	8.46e-01	0	29	104	0	60	35511
2026-01-16 20:25:00.24	39.15	0.87	-47.4	-59.4	3.6	8.45e-01	0	29	104	0	60	33845
2026-01-16 20:25:01.25	39.07	0.92	-47.1	-59.2	3.6	8.45e-01	0	29	104	0	60	33036
2026-01-16 20:25:02.26	39.00	0.97	-46.4	-58.5	3.6	8.45e-01	0	29	104	0	60	30401
2026-01-16 20:25:03.27	38.93	1.02	-46.3	-58.4	3.6	8.45e-01	0	29	104	0	60	30137
2026-01-16 20:25:04.28	38.85	1.07	-46.4	-58.4	3.5	8.47e-01	0	29	104	0	60	30105
2026-01-16 20:25:05.29	38.78	1.12	-46.3	-58.4	3.6	8.46e-01	0	29	104	0	60	30048
2026-01-16 20:25:06.30	38.70	1.18	-46.4	-58.4	3.6	8.45e-01	0	29	104	0	60	30219
2026-01-16 20:25:07.31	38.63	1.23	-46.4	-58.5	3.6	8.45e-01	0	29	104	0	60	30295
2026-01-16 20:25:08.32	38.55	1.28	-46.3	-58.3	3.6	8.45e-01	0	29	104	0	60	29795
2026-01-16 20:25:09.33	38.47	1.33	-46.4	-58.4	3.6	8.45e-01	0	29	104	0	60	30166
2026-01-16 20:25:10.34	38.40	1.38	-46.3	-58.3	3.6	8.45e-01	0	29	104	0	60	29784
2026-01-16 20:25:11.35	38.32	1.44	-46.3	-58.4	3.6	8.46e-01	0	29	104	0	60	29897
2026-01-16 20:25:12.36	38.24	1.49	-46.3	-58.3	3.6	8.45e-01	0	29	104	0	60	29754
2026-01-16 20:25:13.37	38.17	1.54	-46.3	-58.3	3.6	8.44e-01	0	29	104	0	60	29754
2026-01-16 20:25:14.38	38.09	1.59	-46.4	-58.4	3.6	8.45e-01	0	29	104	0	60	29898
2026-01-16 20:25:15.38	38.01	1.64	-46.3	-58.3	3.6	8.45e-01	0	29	104	0	60	29695
2026-01-16 20:25:16.39	37.93	1.70	-46.4	-58.4	3.6	8.45e-01	0	29	104	0	60	30184
2026-01-16 20:25:17.40	37.86	1.75	-46.4	-58.5	3.6	8.44e-01	0	29	104	0	60	30356
2026-01-16 20:25:18.41	37.78	1.80	-46.4	-58.5	3.6	8.44e-01	0	29	104	0	60	30356
2026-01-16 20:25:19.42	37.70	1.85	-46.3	-58.3	3.6	8.44e-01	0	29	104	0	60	29807
2026-01-16 20:25:20.43	37.62	1.91	-46.3	-58.2	3.6	8.46e-01	0	29	104	0	60	29399
2026-01-16 20:25:21.44	37.54	1.96	-46.3	-57.8	3.6	8.46e-01	0	29	104	0	60	28209
2026-01-16 20:25:22.45	37.46	2.01	-46.2	-57.5	3.6	8.44e-01	0	29	104	0	60	27073
2026-01-16 20:25:23.46	37.38	2.06	-46.3	-57.5	3.6	8.46e-01	0	29	104	0	60	26997
2026-01-16 20:25:24.46	37.30	2.12	-46.3	-57.5	3.6	8.46e-01	0	29	104	0	60	27201
2026-01-16 20:25:25.47	37.22	2.17	-46.3	-57.9	3.6	8.46e-01	0	30	104	0	60	28488
2026-01-16 20:25:26.48	37.14	2.22	-46.3	-58.2	3.6	8.45e-01	0	30	104	0	60	29350
2026-01-16 20:25:27.49	37.06	2.27	-46.4	-58.4	3.6	8.45e-01	0	30	104	0	60	30228
2026-01-16 20:25:28.50	36.98	2.33	-46.4	-58.5	3.6	8.45e-01	0	29	104	0	60	30262
2026-01-16 20:25:29.51	36.89	2.38	-46.4	-58.5	3.6	8.46e-01	0	29	104	0	60	30244
2026-01-16 20:25:30.52	36.81	2.43	-46.4	-58.5	3.6	8.46e-01	0	29	104	0	60	30288
2026-01-16 20:25:31.53	36.73	2.49	-46.3	-58.4	3.6	8.47e-01	0	30	104	0	60	30007
2026-01-16 20:25:32.54	36.65	2.54	-46.3	-57.9	3.6	8.45e-01	0	30	104	0	60	28386
2026-01-16 20:25:33.55	36.56	2.59	-46.2	-56.8	3.6	8.44e-01	0	30	104	0	60	25092
2026-01-16 20:25:34.56	36.48	2.65	-46.2	-56.4	3.6	8.44e-01	0	30	104	0	60	23924
2026-01-16 20:25:35.57	36.40	2.70	-46.3	-56.8	3.6	8.44e-01	0	30	104	0	60	24940
2026-01-16 20:25:36.58	36.31	2.75	-46.3	-57.8	3.6	8.45e-01	0	30	104	0	60	27972
2026-01-16 20:25:37.59	36.23	2.80	-46.0	-55.5	3.7	8.46e-01	0	29	104	0	60	21591
2026-01-16 20:25:38.60	36.14	2.86	-45.1	-50.5	6.7	3.60e-01	0	30	0	0	60	12120
2026-01-16 20:25:39.61	36.06	2.91	-43.6	-46.5	10.6	2.71e-02	0	30	0	5242880	60	7677
2026-01-16 20:25:40.62	35.97	2.96	-42.1	-44.2	13.4	1.97e-04	0	30	0	11534336	58	6551
2026-01-16 20:25:41.63	35.89	3.02	-41.1	-42.8	14.8	0.00e+00	0	30	0	16777216	56	6315
2026-01-16 20:25:42.64	35.80	3.07	-40.5	-42.1	15.3	0.00e+00	0	30	0	22020096	54	6513
2026-01-16 20:25:43.64	35.72	3.12	-38.4	-39.6	17.3	0.00e+00	0	30	0	27262976	50	6163
2026-01-16 20:25:44.65	35.63	3.18	-42.5	-44.9	11.1	0.00e+00	0	30	0	32505856	56	7960
2026-01-16 20:25:45.66	35.54	3.23	-40.3	-41.9	14.8	3.34e-04	0	29	0	38797312	52	7115
2026-01-16 20:25:46.67	35.45	3.29	-36.7	-37.7	19.9	0.00e+00	0	30	0	44040192	48	5540
2026-01-16 20:25:47.68	35.37	3.34	-46.0	-54.1	3.6	0.00e+00	0	30	0	50331648	60	18403
2026-01-16 20:25:48.69	35.28	3.39	-40.1	-41.6	15.9	2.21e-01	0	30	104	50331648	58	4877
2026-01-16 20:25:49.70	35.19	3.45	-36.9	-37.9	19.7	0.00e+00	0	30	0	54525952	48	5640
2026-01-16 20:25:50.71	35.10	3.50	-36.3	-37.2	20.5	0.00e+00	0	30	0	60817408	46	5849
2026-01-16 20:25:51.72	35.01	3.55	-36.2	-37.1	20.7	0.00e+00	0	30	0	66060288	46	5812
2026-01-16 20:25:52.73	34.92	3.61	-36.2	-37.2	20.4	0.00e+00	0	30	0	72351744	46	5837
2026-01-16 20:25:53.74	34.83	3.66	-35.7	-36.6	20.8	0.00e+00	0	30	0	77594624	44	6152
2026-01-16 20:25:54.75	34.74	3.72	-35.7	-36.5	21.1	0.00e+00	0	30	0	82837504	44	6091
2026-01-16 20:25:55.76	34.65	3.77	-35.6	-36.5	21.1	0.00e+00	0	30	0	89128960	44	6071
2026-01-16 20:25:56.77	34.56	3.82	-35.4	-36.2	21.4	0.00e+00	0	30	0	94371840	44	5885
2026-01-16 20:25:57.78	34.47	3.88	-35.6	-36.4	21.2	0.00e+00	0	30	0	100663296	44	6000
2026-01-16 20:25:58.78	34.38	3.93	-35.6	-36.5	21.2	0.00e+00	0	30	0	105906176	44	6050
2026-01-16 20:25:59.79	34.29	3.99	-35.4	-36.2	21.4	0.00e+00	0	30	0	111149056	44	5884
2026-01-16 20:26:00.80	34.20	4.04	-35.3	-36.2	21.4	0.00e+00	0	30	0	117440512	44	5848
2026-01-16 20:26:01.81	34.11	4.09	-35.6	-36.5	21.3	0.00e+00	0	29	0	122683392	44	6053
2026-01-16 20:26:02.83	34.01	4.15	-35.5	-36.3	21.5	0.00e+00	0	30	0	128974848	44	5938
2026-01-16 20:26:03.84	33.92	4.20	-35.3	-36.2	21.5	0.00e+00	0	30	0	134217728	44	5838
2026-01-16 20:26:04.85	33.82	4.26	-35.5	-36.3	21.2	0.00e+00	0	30	0	139460608	44	5955
2026-01-16 20:26:05.86	33.73	4.31	-35.6	-36.5	21.3	0.00e+00	0	30	0	145752064	44	6045
2026-01-16 20:26:06.87	33.64	4.37	-35.4	-36.2	21.4	0.00e+00	0	30	0	150994944	44	5894
2026-01-16 20:26:07.88	33.54	4.42	-35.4	-36.2	21.5	0.00e+00	0	30	0	157286400	44	5860
2026-01-16 20:26:08.89	33.45	4.47	-35.2	-36.1	21.7	0.00e+00	0	30	0	162529280	44	5787
2026-01-16 20:26:09.89	33.35	4.53	-35.5	-36.4	21.4	0.00e+00	0	30	0	168820736	44	6003
2026-01-16 20:26:10.91	33.26	4.58	-35.1	-35.9	21.9	0.00e+00	0	30	0	174063616	44	5694
2026-01-16 20:26:11.92	33.16	4.64	-34.9	-35.8	22.1	0.00e+00	0	30	0	180355072	44	5571
2026-01-16 20:26:12.92	33.06	4.69	-35.2	-36.0	21.9	0.00e+00	0	30	0	185597952	44	5697
2026-01-16 20:26:13.94	32.97	4.75	-34.9	-35.7	22.0	0.00e+00	0	30	0	190840832	44	5528
2026-01-16 20:26:14.94	32.87	4.80	-35.2	-36.1	21.7	0.00e+00	0	30	0	197132288	44	5784
2026-01-16 20:26:15.95	32.77	4.86	-35.1	-36.0	21.8	0.00e+00	0	30	0	202375168	44	5698
2026-01-16 20:26:16.96	32.67	4.91	-35.1	-35.9	21.8	0.00e+00	0	30	0	208666624	44	5680
2026-01-16 20:26:17.97	32.58	4.97	-35.1	-35.8	22.0	0.00e+00	0	30	0	213909504	44	5630
2026-01-16 20:26:18.98	32.48	5.02	-35.1	-35.9	21.8	0.00e+00	0	30	0	219152384	44	5676
2026-01-16 20:26:19.99	32.38	5.08	-34.9	-35.7	22.0	0.00e+00	0	30	0	225443840	44	5562
2026-01-16 20:26:21.00	32.28	5.13	-35.3	-36.1	21.7	0.00e+00	0	30	0	230686720	44	5782
2026-01-16 20:26:22.01	32.18	5.19	-35.3	-36.2	21.8	0.00e+00	0	30	0	236978176	44	5830
2026-01-16 20:26:23.02	32.08	5.24	-35.1	-35.9	22.0	0.00e+00	0	30	0	242221056	44	5670
2026-01-16 20:26:24.02	31.98	5.29	-35.1	-35.9	22.0	0.00e+00	0	30	0	247463936	44	5667
2026-01-16 20:26:25.03	31.88	5.35	-35.1	-35.9	22.0	0.00e+00	0	30	0	253755392	44	5669
2026-01-16 20:26:26.04	31.78	5.40	-34.9	-35.7	22.0	0.00e+00	0	30	0	258998272	44	5507
2026-01-16 20:26:27.05	31.67	5.46	-35.3	-36.1	21.9	0.00e+00	0	30	0	265289728	44	5818
2026-01-16 20:26:28.06	31.57	5.52	-34.9	-35.7	22.1	0.00e+00	0	30	0	270532608	44	5527
2026-01-16 20:26:29.07	31.47	5.57	-34.9	-35.7	22.1	0.00e+00	0	30	0	276824064	44	5519
2026-01-16 20:26:30.08	31.37	5.63	-34.8	-35.6	22.4	0.00e+00	0	30	0	282066944	44	5487
2026-01-16 20:26:31.09	31.26	5.68	-34.7	-35.5	22.2	0.00e+00	0	30	0	287309824	42	6079
2026-01-16 20:26:32.10	31.16	5.74	-34.8	-35.6	22.3	0.00e+00	0	30	0	293601280	42	6111
2026-01-16 20:26:33.10	31.06	5.79	-34.4	-35.3	22.6	0.00e+00	0	30	0	298844160	42	5899
2026-01-16 20:26:34.10	30.95	5.85	-34.8	-35.6	22.3	0.00e+00	0	30	0	304087040	42	6119
2026-01-16 20:26:35.11	30.85	5.90	-34.7	-35.5	22.3	0.00e+00	0	30	0	310378496	42	6096
2026-01-16 20:26:36.12	30.74	5.96	-34.9	-35.7	22.2	0.00e+00	0	30	0	315621376	42	6195
2026-01-16 20:26:37.13	30.64	6.01	-34.7	-35.5	22.5	0.00e+00	0	30	0	321912832	42	6085
2026-01-16 20:26:38.14	30.53	6.07	-34.5	-35.2	22.5	0.00e+00	0	30	0	327155712	42	5893
2026-01-16 20:26:39.15	30.42	6.12	-34.5	-35.3	22.6	0.00e+00	0	30	0	332398592	42	5940
2026-01-16 20:26:40.16	30.32	6.18	-34.4	-35.2	22.7	0.00e+00	0	30	0	338690048	42	5865
2026-01-16 20:26:41.17	30.21	6.23	-34.0	-34.7	23.1	0.00e+00	0	30	0	343932928	42	5563
2026-01-16 20:26:42.18	30.10	6.29	-34.2	-35.0	22.8	0.00e+00	0	30	0	350224384	42	5707
2026-01-16 20:26:43.19	29.99	6.34	-34.6	-35.3	22.6	0.00e+00	0	30	0	355467264	42	5940
2026-01-16 20:26:44.20	29.88	6.40	-34.3	-35.1	22.8	0.00e+00	0	30	0	361758720	42	5773
2026-01-16 20:26:45.21	29.77	6.45	-34.2	-35.0	22.9	0.00e+00	0	30	0	367001600	42	5739
2026-01-16 20:26:46.22	29.66	6.51	-34.2	-34.9	22.9	0.00e+00	0	30	0	373293056	42	5669
2026-01-16 20:26:47.23	29.55	6.57	-34.1	-34.9	23.1	0.00e+00	0	30	0	378535936	42	5631
2026-01-16 20:26:48.24	29.44	6.62	-33.9	-34.6	23.3	0.00e+00	0	30	0	383778816	42	5471
2026-01-16 20:26:49.25	29.33	6.68	-34.0	-34.8	23.3	0.00e+00	0	30	0	390070272	42	5594
2026-01-16 20:26:50.26	29.22	6.73	-34.0	-34.7	23.2	0.00e+00	0	30	0	395313152	42	5532
2026-01-16 20:26:51.27	29.11	6.79	-34.0	-34.8	23.2	0.00e+00	0	30	0	401604608	42	5576
2026-01-16 20:26:52.28	29.00	6.84	-34.3	-35.0	23.0	0.00e+00	0	30	0	406847488	42	5732
2026-01-16 20:26:53.29	28.88	6.90	-34.4	-35.2	23.0	0.00e+00	0	30	0	412090368	42	5875
2026-01-16 20:26:54.30	28.77	6.95	-34.2	-35.0	23.1	0.00e+00	0	30	0	418381824	42	5709
2026-01-16 20:26:55.31	28.66	7.01	-34.3	-35.0	23.0	0.00e+00	0	30	0	423624704	42	5758
2026-01-16 20:26:56.32	28.54	7.07	-34.4	-35.1	23.0	0.00e+00	0	30	0	429916160	42	5802
2026-01-16 20:26:57.32	28.43	7.12	-34.3	-35.0	23.0	0.00e+00	0	30	0	435159040	42	5755
2026-01-16 20:26:58.34	28.31	7.18	-34.1	-34.9	23.1	0.00e+00	0	30	0	440401920	42	5636
2026-01-16 20:26:59.34	28.20	7.23	-34.1	-34.9	23.1	0.00e+00	0	30	0	446693376	42	5632
2026-01-16 20:27:00.35	28.08	7.29	-34.1	-34.9	23.1	0.00e+00	0	30	0	451936256	42	5667
2026-01-16 20:27:01.36	27.97	7.34	-34.1	-34.9	23.2	0.00e+00	0	30	0	458227712	42	5643
2026-01-16 20:27:02.37	27.85	7.40	-34.0	-34.7	23.3	0.00e+00	0	30	0	463470592	42	5540
2026-01-16 20:27:03.37	27.73	7.46	-34.0	-34.8	23.3	0.00e+00	0	30	0	469762048	42	5584
2026-01-16 20:27:04.38	27.61	7.51	-34.1	-34.8	23.2	0.00e+00	0	30	0	475004928	42	5618
2026-01-16 20:27:05.39	27.50	7.57	-33.9	-34.7	23.3	0.00e+00	0	30	0	480247808	42	5519
2026-01-16 20:27:06.40	27.38	7.62	-34.1	-34.8	23.1	0.00e+00	0	30	0	486539264	42	5625
2026-01-16 20:27:07.41	27.26	7.68	-34.1	-34.8	23.2	0.00e+00	0	30	0	491782144	42	5600
2026-01-16 20:27:08.42	27.14	7.73	-34.1	-34.8	23.2	0.00e+00	0	30	0	498073600	42	5577
2026-01-16 20:27:09.43	27.02	7.79	-33.9	-34.7	23.4	0.00e+00	0	30	0	503316480	42	5524
2026-01-16 20:27:10.44	26.90	7.85	-34.0	-34.8	23.3	0.00e+00	0	30	0	508559360	42	5568
2026-01-16 20:27:11.45	26.78	7.90	-34.0	-34.8	23.3	0.00e+00	0	30	0	514850816	42	5572
2026-01-16 20:27:12.46	26.66	7.96	-34.0	-34.7	23.3	0.00e+00	0	30	0	520093696	42	5546
2026-01-16 20:27:13.47	26.53	8.01	-34.0	-34.7	23.4	0.00e+00	0	30	0	526385152	42	5522
2026-01-16 20:27:14.48	26.41	8.07	-33.7	-34.4	23.6	0.00e+00	0	30	0	531628032	40	6030
2026-01-16 20:27:15.49	26.29	8.12	-33.9	-34.6	23.5	0.00e+00	0	30	0	536870912	40	6118
2026-01-16 20:27:16.50	26.16	8.18	-33.9	-34.6	23.4	0.00e+00	0	30	0	543162368	40	6164
2026-01-16 20:27:17.51	26.04	8.24	-33.6	-34.3	23.8	0.00e+00	0	30	0	548405248	40	5953
2026-01-16 20:27:18.52	25.92	8.29	-33.5	-34.2	23.8	0.00e+00	0	30	0	554696704	40	5870
2026-01-16 20:27:19.53	25.79	8.35	-33.4	-34.2	23.9	0.00e+00	0	30	0	559939584	40	5833
2026-01-16 20:27:20.54	25.67	8.40	-33.5	-34.3	23.8	0.00e+00	0	30	0	566231040	40	5910
2026-01-16 20:27:21.54	25.54	8.46	-33.4	-34.1	23.9	0.00e+00	0	30	0	571473920	40	5824
2026-01-16 20:27:22.56	25.41	8.51	-33.4	-34.1	23.9	0.00e+00	0	30	0	577765376	40	5789
2026-01-16 20:27:23.56	25.29	8.57	-33.5	-34.3	23.8	0.00e+00	0	30	0	583008256	40	5900
2026-01-16 20:27:24.57	25.16	8.63	-33.3	-34.0	24.0	0.00e+00	0	30	0	588251136	40	5757
2026-01-16 20:27:25.58	25.03	8.68	-33.4	-34.0	24.0	0.00e+00	0	30	0	594542592	40	5759
2026-01-16 20:27:26.59	24.90	8.74	-33.4	-34.1	23.9	0.00e+00	0	30	0	599785472	40	5824
2026-01-16 20:27:27.60	24.77	8.79	-33.2	-33.9	24.0	0.00e+00	0	30	0	605028352	40	5692
2026-01-16 20:27:28.61	24.64	8.85	-33.2	-33.9	24.1	0.00e+00	0	30	0	611319808	40	5685
2026-01-16 20:27:29.62	24.51	8.90	-33.3	-33.9	24.1	0.00e+00	0	30	0	616562688	40	5695
2026-01-16 20:27:30.63	24.38	8.96	-33.2	-33.9	24.2	0.00e+00	0	30	0	622854144	40	5668
2026-01-16 20:27:31.64	24.25	9.02	-33.1	-33.8	24.2	0.00e+00	0	30	0	628097024	40	5587
2026-01-16 20:27:32.65	24.12	9.07	-33.2	-33.9	24.2	0.00e+00	0	30	0	633339904	40	5656
2026-01-16 20:27:33.66	23.99	9.13	-33.2	-34.0	24.1	0.00e+00	0	30	0	639631360	40	5699
2026-01-16 20:27:34.67	23.86	9.18	-33.3	-34.0	24.1	0.00e+00	0	30	0	644874240	40	5722
2026-01-16 20:27:35.68	23.72	9.24	-33.2	-33.9	24.1	0.00e+00	0	30	0	651165696	40	5676
2026-01-16 20:27:36.69	23.59	9.29	-33.3	-34.0	24.0	0.00e+00	0	30	0	656408576	40	5741
2026-01-16 20:27:37.70	23.46	9.35	-33.4	-34.1	23.9	0.00e+00	0	30	0	662700032	40	5795
2026-01-16 20:27:38.71	23.32	9.40	-33.4	-34.2	23.9	0.00e+00	0	30	0	667942912	40	5836
2026-01-16 20:27:39.71	23.19	9.46	-33.4	-34.1	23.9	0.00e+00	0	30	0	674234368	40	5786
2026-01-16 20:27:40.73	23.05	9.51	-33.4	-34.2	23.9	0.00e+00	0	30	0	679477248	40	5831
2026-01-16 20:27:41.73	22.92	9.57	-33.5	-34.2	23.9	0.00e+00	0	30	0	684720128	40	5859
2026-01-16 20:27:42.74	22.78	9.62	-33.4	-34.1	24.0	0.00e+00	0	30	0	691011584	40	5805
2026-01-16 20:27:43.75	22.64	9.68	-33.5	-34.2	23.9	0.00e+00	0	30	0	696254464	40	5874
2026-01-16 20:27:44.76	22.50	9.73	-33.4	-34.1	24.0	0.00e+00	0	30	0	702545920	40	5781
2026-01-16 20:27:45.77	22.37	9.79	-33.4	-34.2	23.9	0.00e+00	0	30	0	707788800	40	5831
2026-01-16 20:27:46.78	22.23	9.84	-33.4	-34.2	24.0	0.00e+00	0	30	0	713031680	40	5839
2026-01-16 20:27:47.79	22.09	9.90	-33.4	-34.1	23.9	0.00e+00	0	30	0	719323136	40	5811
2026-01-16 20:27:48.80	21.95	9.96	-33.2	-34.0	24.1	0.00e+00	0	30	0	724566016	40	5698
2026-01-16 20:27:49.81	21.81	10.01	-33.2	-33.9	24.1	0.00e+00	0	30	0	730857472	40	5664
2026-01-16 20:27:50.82	21.67	10.07	-33.4	-34.2	23.9	0.00e+00	0	30	0	736100352	40	5852
2026-01-16 20:27:51.83	21.53	10.12	-33.4	-34.1	23.9	0.00e+00	0	30	0	741343232	40	5787
2026-01-16 20:27:52.84	21.38	10.17	-33.2	-33.9	24.2	0.00e+00	0	30	0	747634688	40	5668
2026-01-16 20:27:53.85	21.24	10.23	-33.1	-33.8	24.3	0.00e+00	0	30	0	752877568	40	5583
2026-01-16 20:27:54.86	21.10	10.28	-33.1	-33.8	24.2	0.00e+00	0	30	0	759169024	40	5630
2026-01-16 20:27:55.87	20.95	10.34	-33.2	-33.9	24.2	0.00e+00	0	30	0	764411904	40	5676
2026-01-16 20:27:56.88	20.81	10.39	-33.1	-33.8	24.3	0.00e+00	0	30	0	770703360	40	5587
2026-01-16 20:27:57.89	20.66	10.45	-33.0	-33.7	24.4	0.00e+00	0	30	0	775946240	40	5536
2026-01-16 20:27:58.90	20.52	10.50	-32.9	-33.6	24.4	0.00e+00	0	30	0	781189120	40	5487
2026-01-16 20:27:59.91	20.37	10.56	-33.0	-33.7	24.4	0.00e+00	0	30	0	787480576	40	5509
2026-01-16 20:28:00.92	20.23	10.61	-32.8	-33.5	24.4	0.00e+00	0	30	0	792723456	38	6079
2026-01-16 20:28:01.93	20.08	10.67	-33.0	-33.7	24.4	0.00e+00	0	30	0	799014912	38	6193
2026-01-16 20:28:02.94	19.93	10.72	-33.1	-33.8	24.4	0.00e+00	0	30	0	804257792	38	6277
2026-01-16 20:28:03.95	19.78	10.77	-33.2	-33.9	24.1	0.00e+00	0	30	0	809500672	38	6364
2026-01-16 20:28:04.96	19.64	10.83	-32.9	-33.6	24.4	0.00e+00	0	30	0	815792128	38	6166
2026-01-16 20:28:05.97	19.49	10.88	-32.9	-33.6	24.4	0.00e+00	0	30	0	821035008	38	6155
2026-01-16 20:28:06.98	19.34	10.94	-32.8	-33.5	24.6	0.00e+00	0	30	0	827326464	38	6067
2026-01-16 20:28:07.99	19.19	10.99	-32.8	-33.5	24.6	0.00e+00	0	30	0	832569344	38	6076
2026-01-16 20:28:09.00	19.03	11.04	-32.7	-33.4	24.7	0.00e+00	0	30	0	837812224	38	6027
2026-01-16 20:28:10.01	18.88	11.10	-32.7	-33.4	24.8	0.00e+00	0	30	0	844103680	38	5984
2026-01-16 20:28:11.02	18.73	11.15	-32.7	-33.4	24.6	0.00e+00	0	31	0	849346560	38	5996
2026-01-16 20:28:12.03	18.58	11.21	-32.7	-33.4	24.7	0.00e+00	0	30	0	855638016	38	6011
2026-01-16 20:28:13.04	18.42	11.26	-32.8	-33.5	24.7	0.00e+00	0	30	0	860880896	38	6056
2026-01-16 20:28:14.05	18.27	11.31	-32.8	-33.5	24.6	0.00e+00	0	30	0	867172352	38	6077
2026-01-16 20:28:15.06	18.12	11.37	-32.8	-33.5	24.7	0.00e+00	0	30	0	872415232	38	6082
2026-01-16 20:28:16.07	17.96	11.42	-32.9	-33.6	24.7	0.00e+00	0	30	0	878706688	38	6141
2026-01-16 20:28:17.08	17.81	11.47	-32.7	-33.5	24.7	0.00e+00	0	30	0	883949568	38	6041
2026-01-16 20:28:18.09	17.65	11.53	-32.7	-33.4	24.8	0.00e+00	0	30	0	889192448	38	5987
2026-01-16 20:28:19.10	17.49	11.58	-32.6	-33.4	24.7	0.00e+00	0	30	0	895483904	38	5968
2026-01-16 20:28:20.11	17.34	11.63	-32.6	-33.3	24.8	0.00e+00	0	30	0	900726784	38	5898
2026-01-16 20:28:21.12	17.18	11.68	-32.6	-33.3	24.9	0.00e+00	0	30	0	907018240	38	5915
2026-01-16 20:28:22.13	17.02	11.74	-32.6	-33.2	24.9	0.00e+00	0	30	0	912261120	38	5893
2026-01-16 20:28:23.14	16.86	11.79	-32.5	-33.1	24.9	0.00e+00	0	30	0	917504000	38	5821
2026-01-16 20:28:24.15	16.70	11.84	-32.6	-33.3	24.8	0.00e+00	0	30	0	923795456	38	5947
2026-01-16 20:28:25.16	16.54	11.89	-32.8	-33.5	24.7	0.00e+00	0	30	0	929038336	38	6048
2026-01-16 20:28:26.16	16.38	11.95	-32.6	-33.3	24.8	0.00e+00	0	31	0	935329792	38	5931
2026-01-16 20:28:27.17	16.22	12.00	-32.6	-33.2	24.9	0.00e+00	0	30	0	940572672	38	5887
2026-01-16 20:28:28.18	16.06	12.05	-32.5	-33.2	24.9	0.00e+00	0	31	0	945815552	38	5868
2026-01-16 20:28:29.19	15.90	12.10	-32.6	-33.3	24.9	0.00e+00	0	31	0	952107008	38	5928
2026-01-16 20:28:30.20	15.73	12.15	-32.5	-33.2	24.9	0.00e+00	0	31	0	957349888	38	5867
2026-01-16 20:28:31.21	15.57	12.21	-32.4	-33.1	25.0	0.00e+00	0	30	0	963641344	38	5827
2026-01-16 20:28:32.22	15.40	12.26	-32.5	-33.2	25.0	0.00e+00	0	31	0	968884224	38	5857
2026-01-16 20:28:33.23	15.24	12.31	-32.4	-33.1	25.0	0.00e+00	0	31	0	975175680	38	5810
2026-01-16 20:28:34.24	15.07	12.36	-32.4	-33.0	25.1	0.00e+00	0	31	0	980418560	38	5755
2026-01-16 20:28:35.25	14.91	12.41	-32.3	-33.0	25.0	0.00e+00	0	31	0	985661440	38	5731
2026-01-16 20:28:36.26	14.74	12.46	-32.3	-32.9	25.2	0.00e+00	0	31	0	991952896	38	5694
2026-01-16 20:28:37.27	14.57	12.51	-32.1	-32.7	25.3	0.00e+00	0	30	0	997195776	38	5545
2026-01-16 20:28:38.28	14.41	12.56	-32.0	-32.7	25.5	0.00e+00	0	31	0	1003487232	38	5503
2026-01-16 20:28:39.29	14.24	12.61	-32.1	-32.8	25.3	0.00e+00	0	30	0	1008730112	38	5568
2026-01-16 20:28:40.30	14.07	12.67	-32.1	-32.7	25.3	0.00e+00	0	31	0	1013972992	38	5560
2026-01-16 20:28:41.31	13.90	12.72	-32.0	-32.7	25.4	0.00e+00	0	31	0	1020264448	38	5512
2026-01-16 20:28:42.32	13.73	12.77	-32.0	-32.7	25.3	0.00e+00	0	31	0	1025507328	38	5547
2026-01-16 20:28:43.33	13.56	12.82	-32.0	-32.7	25.4	0.00e+00	0	31	0	1031798784	38	5531
2026-01-16 20:28:44.34	13.39	12.87	-32.1	-32.8	25.4	0.00e+00	0	31	0	1037041664	38	5571
2026-01-16 20:28:45.35	13.22	12.92	-32.1	-32.8	25.3	0.00e+00	0	31	0	1042284544	38	5623
2026-01-16 20:28:46.36	13.04	12.97	-32.2	-32.9	25.3	0.00e+00	0	31	0	1048576000	38	5646
2026-01-16 20:28:47.37	12.87	13.01	-32.3	-33.0	25.1	0.00e+00	0	31	0	1053818880	38	5732
2026-01-16 20:28:48.38	12.70	13.06	-32.3	-33.0	25.1	0.00e+00	0	31	0	1060110336	38	5748
2026-01-16 20:28:49.39	12.52	13.11	-32.2	-33.0	25.1	0.00e+00	0	31	0	1065353216	38	5715
2026-01-16 20:28:50.39	12.35	13.16	-32.2	-32.9	25.3	0.00e+00	0	30	0	1071644672	38	5645
2026-01-16 20:28:51.40	12.17	13.21	-32.0	-32.7	25.4	0.00e+00	0	31	0	1076887552	38	5508
2026-01-16 20:28:52.41	12.00	13.26	-32.0	-32.7	25.3	0.00e+00	0	31	0	1083179008	38	5515
2026-01-16 20:28:53.42	11.82	13.31	-31.8	-32.5	25.5	0.00e+00	0	31	0	1088421888	38	5392
2026-01-16 20:28:54.43	11.64	13.36	-31.8	-32.5	25.6	0.00e+00	0	30	0	1093664768	38	5396
2026-01-16 20:28:55.44	11.47	13.40	-31.9	-32.6	25.4	0.00e+00	0	30	0	1099956224	38	5443
2026-01-16 20:28:56.45	11.29	13.45	-32.1	-32.7	25.3	0.00e+00	0	30	0	1105199104	38	5553
2026-01-16 20:28:57.46	11.11	13.50	-32.2	-32.9	25.1	0.00e+00	0	31	0	1111490560	38	5678
2026-01-16 20:28:58.47	10.93	13.55	-32.3	-33.0	25.1	0.00e+00	0	31	0	1116733440	38	5720
2026-01-16 20:28:59.48	10.75	13.59	-32.4	-33.0	25.0	0.00e+00	0	31	0	1121976320	38	5739
2026-01-16 20:29:00.48	10.57	13.64	-32.2	-32.9	25.1	0.00e+00	0	31	0	1128267776	38	5662
2026-01-16 20:29:01.49	10.39	13.69	-32.3	-33.0	24.9	0.00e+00	0	30	0	1133510656	38	5705
2026-01-16 20:29:02.50	10.21	13.74	-32.2	-32.8	25.2	0.00e+00	0	31	0	1138753536	38	5611
2026-01-16 20:29:03.51	10.02	13.78	-32.0	-32.7	25.3	0.00e+00	0	31	0	1145044992	38	5527
2026-01-16 20:29:04.52	9.84	13.83	-32.2	-32.9	25.3	0.00e+00	0	31	0	1150287872	38	5650
2026-01-16 20:29:05.53	9.66	13.87	-32.1	-32.7	25.4	0.00e+00	0	30	0	1156579328	38	5548
2026-01-16 20:29:06.54	9.47	13.92	-32.1	-32.8	25.4	0.00e+00	0	31	0	1161822208	38	5596
2026-01-16 20:29:07.55	9.29	13.97	-32.2	-32.9	25.2	0.00e+00	0	31	0	1168113664	38	5663
2026-01-16 20:29:08.56	9.10	14.01	-32.1	-32.7	25.5	0.00e+00	0	31	0	1173356544	38	5551
2026-01-16 20:29:09.57	8.92	14.06	-32.1	-32.7	25.4	0.00e+00	0	31	0	1179648000	38	5544
2026-01-16 20:29:10.58	8.73	14.10	-32.3	-33.0	25.2	0.00e+00	0	31	0	1184890880	38	5715
2026-01-16 20:29:11.59	8.54	14.15	-32.2	-32.9	25.2	0.00e+00	0	31	0	1190133760	38	5679
2026-01-16 20:29:12.60	8.35	14.19	-32.3	-33.0	25.1	0.00e+00	0	31	0	1196425216	38	5760
2026-01-16 20:29:13.61	8.17	14.24	-32.2	-32.9	25.4	0.00e+00	0	31	0	1201668096	38	5635
2026-01-16 20:29:14.62	7.98	14.28	-32.2	-32.8	25.3	0.00e+00	0	31	0	1207959552	38	5619
2026-01-16 20:29:15.63	7.79	14.32	-32.1	-32.8	25.3	0.00e+00	0	31	0	1213202432	38	5609
2026-01-16 20:29:16.64	7.60	14.37	-32.0	-32.7	25.4	0.00e+00	0	31	0	1218445312	38	5552
2026-01-16 20:29:17.65	7.41	14.41	-32.0	-32.7	25.4	0.00e+00	0	31	0	1224736768	38	5504
2026-01-16 20:29:18.66	7.22	14.45	-31.7	-32.4	25.7	0.00e+00	0	31	0	1229979648	38	5325
2026-01-16 20:29:19.67	7.02	14.50	-31.8	-32.5	25.6	0.00e+00	0	31	0	1236271104	36	6050
2026-01-16 20:29:20.68	6.83	14.54	-31.7	-32.3	25.7	0.00e+00	0	31	0	1241513984	36	5954
2026-01-16 20:29:21.69	6.64	14.58	-31.7	-32.3	25.8	0.00e+00	0	31	0	1246756864	36	5914
2026-01-16 20:29:22.70	6.45	14.63	-31.8	-32.4	25.7	0.00e+00	0	31	0	1253048320	36	6015
2026-01-16 20:29:23.71	6.25	14.67	-31.6	-32.2	25.9	0.00e+00	0	31	0	1258291200	36	5854
2026-01-16 20:29:24.72	6.06	14.71	-31.6	-32.2	25.8	0.00e+00	0	31	0	1264582656	36	5881
2026-01-16 20:29:25.73	5.86	14.75	-31.6	-32.3	25.9	0.00e+00	0	31	0	1269825536	36	5924
2026-01-16 20:29:26.74	5.67	14.79	-31.6	-32.2	25.8	0.00e+00	0	31	0	1276116992	36	5888
2026-01-16 20:29:27.75	5.47	14.83	-31.6	-32.3	25.8	0.00e+00	0	31	0	1281359872	36	5921
2026-01-16 20:29:28.75	5.28	14.87	-31.5	-32.2	25.9	0.00e+00	0	31	0	1287651328	36	5850
2026-01-16 20:29:29.76	5.08	14.91	-31.5	-32.2	25.9	0.00e+00	0	31	0	1292894208	36	5863
2026-01-16 20:29:30.77	4.88	14.95	-31.5	-32.1	26.0	0.00e+00	0	31	0	1298137088	36	5825
2026-01-16 20:29:31.78	4.68	14.99	-31.4	-32.0	26.1	0.00e+00	0	31	0	1304428544	36	5737
2026-01-16 20:29:32.79	4.48	15.03	-31.3	-31.9	26.2	0.00e+00	0	31	0	1309671424	36	5667
2026-01-16 20:29:33.80	4.28	15.07	-31.2	-31.9	26.1	0.00e+00	0	31	0	1314914304	36	5673
2026-01-16 20:29:34.81	4.08	15.11	-31.3	-31.9	26.1	0.00e+00	0	31	0	1321205760	36	5692
2026-01-16 20:29:35.82	3.88	15.15	-31.0	-31.7	26.3	0.00e+00	0	31	0	1326448640	36	5525
2026-01-16 20:29:36.83	3.68	15.19	-31.1	-31.7	26.3	0.00e+00	0	31	0	1332740096	36	5537
2026-01-16 20:29:37.84	3.48	15.23	-31.0	-31.6	26.4	0.00e+00	0	31	0	1337982976	36	5500
2026-01-16 20:29:38.85	3.28	15.26	-31.1	-31.8	26.3	0.00e+00	0	31	0	1343225856	36	5584
2026-01-16 20:29:39.86	3.08	15.30	-31.1	-31.8	26.3	0.00e+00	0	31	0	1349517312	36	5572
2026-01-16 20:29:40.87	2.87	15.34	-31.1	-31.7	26.3	0.00e+00	0	31	0	1354760192	36	5542
2026-01-16 20:29:41.88	2.67	15.38	-31.0	-31.6	26.4	0.00e+00	0	31	0	1361051648	36	5494
2026-01-16 20:29:42.89	2.47	15.41	-30.9	-31.5	26.5	0.00e+00	0	31	0	1366294528	36	5432
2026-01-16 20:29:43.90	2.26	15.45	-31.0	-31.7	26.4	0.00e+00	0	31	0	1372585984	36	5526
2026-01-16 20:29:44.90	2.06	15.48	-31.0	-31.6	26.4	0.00e+00	0	31	0	1377828864	36	5480
2026-01-16 20:29:45.91	1.85	15.52	-31.1	-31.8	26.4	0.00e+00	0	31	0	1384120320	36	5579
2026-01-16 20:29:46.92	1.65	15.56	-31.3	-31.9	26.2	0.00e+00	0	31	0	1389363200	36	5686
2026-01-16 20:29:47.93	1.44	15.59	-31.3	-31.9	26.2	0.00e+00	0	31	0	1394606080	36	5671
2026-01-16 20:29:48.94	1.23	15.63	-31.1	-31.8	26.3	0.00e+00	0	31	0	1400897536	36	5611
2026-01-16 20:29:49.95	1.02	15.66	-31.2	-31.8	26.1	0.00e+00	0	31	0	1406140416	36	5630
2026-01-16 20:29:50.96	0.82	15.69	-30.9	-31.5	26.5	0.00e+00	0	31	0	1412431872	36	5412
2026-01-16 20:29:51.97	0.61	15.73	-30.9	-31.5	26.5	0.00e+00	0	31	0	1417674752	36	5434
2026-01-16 20:29:52.98	0.40	15.76	-30.7	-31.3	26.6	0.00e+00	0	31	0	1422917632	36	5308
2026-01-16 20:29:53.99	0.19	15.79	-30.7	-31.4	26.6	0.00e+00	0	31	0	1429209088	34	5965
2026-01-16 20:29:55.00	359.98	15.83	-30.7	-31.4	26.6	0.00e+00	0	31	0	1434451968	34	5997
2026-01-16 20:29:56.01	359.77	15.86	-30.9	-31.5	26.4	0.00e+00	0	31	0	1440743424	34	6092
2026-01-16 20:29:57.02	359.56	15.89	-30.8	-31.5	26.6	0.00e+00	0	31	0	1445986304	34	6052
2026-01-16 20:29:58.03	359.35	15.92	-30.9	-31.6	26.4	0.00e+00	0	31	0	1451229184	34	6111
2026-01-16 20:29:59.04	359.14	15.95	-30.9	-31.6	26.4	0.00e+00	0	31	0	1457520640	34	6123
2026-01-16 20:30:00.05	358.92	15.98	-31.2	-31.8	26.4	0.00e+00	0	31	0	1462763520	34	6290
2026-01-16 20:30:01.06	358.71	16.02	-31.1	-31.7	26.3	0.00e+00	0	31	0	1469054976	34	6243
2026-01-16 20:30:02.07	358.50	16.05	-31.2	-31.8	26.2	0.00e+00	0	31	0	1474297856	34	6313
2026-01-16 20:30:03.08	358.28	16.08	-31.3	-31.9	26.2	0.00e+00	0	31	0	1480589312	34	6367
2026-01-16 20:30:04.09	358.07	16.10	-31.3	-31.9	26.2	0.00e+00	0	31	0	1485832192	34	6334
2026-01-16 20:30:05.10	357.86	16.13	-31.3	-31.9	26.2	0.00e+00	0	31	0	1491075072	34	6383
2026-01-16 20:30:06.11	357.64	16.16	-31.2	-31.8	26.2	0.00e+00	0	31	0	1497366528	34	6303
2026-01-16 20:30:07.12	357.42	16.19	-31.4	-32.0	26.1	0.00e+00	0	31	0	1502609408	34	6450
2026-01-16 20:30:08.13	357.21	16.22	-31.1	-31.7	26.3	0.00e+00	0	31	0	1508900864	34	6238
2026-01-16 20:30:09.14	356.99	16.25	-31.0	-31.6	26.3	0.00e+00	0	31	0	1514143744	34	6172
2026-01-16 20:30:10.15	356.78	16.27	-30.9	-31.6	26.5	0.00e+00	0	31	0	1519386624	34	6127
2026-01-16 20:30:11.16	356.56	16.30	-31.0	-31.6	26.4	0.00e+00	0	31	0	1525678080	34	6154
2026-01-16 20:30:12.16	356.34	16.33	-31.1	-31.8	26.3	0.00e+00	0	31	0	1530920960	34	6248
2026-01-16 20:30:13.17	356.13	16.35	-31.2	-31.8	26.2	0.00e+00	0	30	0	1537212416	34	6267
2026-01-16 20:30:14.18	355.91	16.38	-31.2	-31.8	26.3	0.00e+00	0	31	0	1542455296	34	6299
2026-01-16 20:30:15.19	355.69	16.40	-31.2	-31.8	26.2	0.00e+00	0	31	0	1547698176	34	6302
2026-01-16 20:30:16.20	355.47	16.43	-31.2	-31.8	26.3	0.00e+00	0	31	0	1553989632	34	6267
2026-01-16 20:30:17.21	355.25	16.45	-31.3	-31.9	26.2	0.00e+00	0	30	0	1559232512	34	6362
2026-01-16 20:30:18.22	355.03	16.48	-31.4	-32.1	26.0	0.00e+00	0	31	0	1565523968	34	6480
2026-01-16 20:30:19.23	354.81	16.50	-31.3	-32.0	26.1	0.00e+00	0	31	0	1570766848	34	6392
2026-01-16 20:30:20.24	354.59	16.52	-31.2	-31.8	26.3	0.00e+00	0	30	0	1577058304	34	6285
2026-01-16 20:30:21.25	354.37	16.55	-31.2	-31.9	26.3	0.00e+00	0	30	0	1582301184	34	6322
2026-01-16 20:30:22.26	354.15	16.57	-31.1	-31.7	26.4	0.00e+00	0	30	0	1588592640	34	6189
2026-01-16 20:30:23.27	353.93	16.59	-31.0	-31.7	26.4	0.00e+00	0	30	0	1593835520	34	6178
2026-01-16 20:30:24.28	353.71	16.61	-30.9	-31.5	26.5	0.00e+00	0	30	0	1599078400	34	6064
2026-01-16 20:30:25.28	353.49	16.63	-30.9	-31.5	26.5	0.00e+00	0	30	0	1605369856	34	6084
2026-01-16 20:30:26.29	353.27	16.65	-30.8	-31.5	26.5	0.00e+00	0	30	0	1610612736	34	6036
2026-01-16 20:30:27.30	353.05	16.67	-31.0	-31.6	26.4	0.00e+00	0	30	0	1616904192	34	6114
2026-01-16 20:30:28.32	352.82	16.69	-31.0	-31.6	26.4	0.00e+00	0	30	0	1622147072	34	6168
2026-01-16 20:30:29.32	352.60	16.71	-31.1	-31.7	26.4	0.00e+00	0	30	0	1627389952	34	6237
2026-01-16 20:30:30.33	352.38	16.73	-31.1	-31.8	26.4	0.00e+00	0	30	0	1633681408	34	6253
2026-01-16 20:30:31.34	352.15	16.75	-31.1	-31.8	26.4	0.00e+00	0	30	0	1638924288	34	6251
2026-01-16 20:30:32.35	351.93	16.77	-31.0	-31.7	26.5	0.00e+00	0	30	0	1644167168	34	6182
2026-01-16 20:30:33.36	351.70	16.79	-30.9	-31.6	26.5	0.00e+00	0	30	0	1650458624	34	6105
2026-01-16 20:30:34.37	351.48	16.80	-30.8	-31.5	26.6	0.00e+00	0	30	0	1655701504	34	6083
2026-01-16 20:30:35.38	351.26	16.82	-30.9	-31.5	26.6	0.00e+00	0	30	0	1661992960	34	6043
2026-01-16 20:30:36.39	351.03	16.84	-30.9	-31.5	26.6	0.00e+00	0	31	0	1667235840	34	6099
2026-01-16 20:30:37.40	350.81	16.85	-30.9	-31.6	26.5	0.00e+00	0	30	0	1673527296	34	6144
2026-01-16 20:30:38.41	350.58	16.87	-30.9	-31.6	26.5	0.00e+00	0	30	0	1678770176	34	6104
2026-01-16 20:30:39.42	350.35	16.88	-30.7	-31.4	26.8	0.00e+00	0	30	0	1685061632	34	5984
2026-01-16 20:30:40.42	350.13	16.90	-30.6	-31.2	26.9	0.00e+00	0	30	0	1690304512	34	5850
2026-01-16 20:30:41.44	349.90	16.91	-30.6	-31.2	26.8	0.00e+00	0	30	0	1695547392	34	5858
2026-01-16 20:30:42.44	349.68	16.93	-30.6	-31.2	26.8	0.00e+00	0	30	0	1701838848	34	5845
2026-01-16 20:30:43.45	349.45	16.94	-30.6	-31.3	26.8	0.00e+00	0	30	0	1707081728	34	5901
2026-01-16 20:30:44.47	349.22	16.95	-30.7	-31.3	26.7	0.00e+00	0	30	0	1713373184	34	5946
2026-01-16 20:30:45.47	349.00	16.96	-30.7	-31.4	26.6	0.00e+00	0	30	0	1718616064	34	5966
2026-01-16 20:30:46.48	348.77	16.98	-30.8	-31.4	26.6	0.00e+00	0	30	0	1723858944	34	5972
2026-01-16 20:30:47.49	348.54	16.99	-30.9	-31.6	26.5	0.00e+00	0	30	0	1730150400	34	6148
2026-01-16 20:30:48.50	348.32	17.00	-31.0	-31.6	26.5	0.00e+00	0	30	0	1735393280	34	6141
2026-01-16 20:30:49.51	348.09	17.01	-30.8	-31.5	26.5	0.00e+00	0	30	0	1741684736	34	6054
2026-01-16 20:30:50.52	347.86	17.02	-30.8	-31.4	26.7	0.00e+00	0	30	0	1746927616	34	6003
2026-01-16 20:30:51.53	347.63	17.03	-30.9	-31.5	26.5	0.00e+00	0	30	0	1752170496	34	6102
2026-01-16 20:30:52.54	347.40	17.04	-31.0	-31.6	26.5	0.00e+00	0	30	0	1758461952	34	6167
2026-01-16 20:30:53.55	347.18	17.05	-31.0	-31.6	26.5	0.00e+00	0	30	0	1763704832	34	6151
2026-01-16 20:30:54.56	346.95	17.06	-31.0	-31.6	26.5	0.00e+00	0	30	0	1769996288	34	6161
2026-01-16 20:30:55.57	346.72	17.06	-31.0	-31.7	26.5	0.00e+00	0	30	0	1775239168	34	6186
2026-01-16 20:30:56.58	346.49	17.07	-30.8	-31.4	26.6	0.00e+00	0	30	0	1781530624	34	6009
2026-01-16 20:30:57.59	346.26	17.08	-30.8	-31.4	26.7	0.00e+00	0	30	0	1786773504	34	5981
2026-01-16 20:30:58.60	346.03	17.08	-30.8	-31.4	26.7	0.00e+00	0	30	0	1792016384	34	5983
2026-01-16 20:30:59.61	345.80	17.09	-30.8	-31.4	26.7	0.00e+00	0	30	0	1798307840	34	5994
2026-01-16 20:31:00.62	345.58	17.09	-30.8	-31.4	26.7	0.00e+00	0	30	0	1803550720	34	6002
2026-01-16 20:31:01.63	345.35	17.10	-30.7	-31.3	26.7	0.00e+00	0	30	0	1809842176	34	5930
2026-01-16 20:31:02.64	345.12	17.10	-30.7	-31.4	26.7	0.00e+00	0	30	0	1815085056	34	5966
2026-01-16 20:31:03.65	344.89	17.11	-30.5	-31.1	26.9	0.00e+00	0	30	0	1820327936	34	5821
2026-01-16 20:31:04.66	344.66	17.11	-30.4	-31.0	26.9	0.00e+00	0	30	0	1826619392	34	5750
2026-01-16 20:31:05.68	344.43	17.11	-30.5	-31.1	27.0	0.00e+00	0	30	0	1831862272	34	5763
2026-01-16 20:31:06.68	344.20	17.12	-30.4	-31.0	27.0	0.00e+00	0	30	0	1838153728	34	5713
2026-01-16 20:31:07.69	343.97	17.12	-30.4	-31.1	26.9	0.00e+00	0	30	0	1843396608	34	5773
2026-01-16 20:31:08.70	343.74	17.12	-30.5	-31.1	26.8	0.00e+00	0	30	0	1848639488	34	5809
2026-01-16 20:31:09.71	343.51	17.12	-30.6	-31.2	26.7	0.00e+00	0	30	0	1854930944	34	5855
2026-01-16 20:31:10.72	343.28	17.12	-30.6	-31.2	26.8	0.00e+00	0	30	0	1860173824	34	5892
2026-01-16 20:31:11.73	343.05	17.12	-30.7	-31.4	26.7	0.00e+00	0	30	0	1866465280	34	5968
2026-01-16 20:31:12.74	342.82	17.12	-30.8	-31.4	26.6	0.00e+00	0	30	0	1871708160	34	5975
2026-01-16 20:31:13.75	342.59	17.12	-30.9	-31.5	26.5	0.00e+00	0	30	0	1877999616	34	6095
2026-01-16 20:31:14.76	342.36	17.12	-31.1	-31.8	26.3	0.00e+00	0	30	0	1883242496	34	6258
2026-01-16 20:31:15.77	342.13	17.12	-30.9	-31.6	26.5	0.00e+00	0	30	0	1889533952	34	6143
2026-01-16 20:31:16.78	341.91	17.12	-30.9	-31.5	26.5	0.00e+00	0	30	0	1894776832	34	6090
2026-01-16 20:31:17.79	341.68	17.12	-30.9	-31.6	26.5	0.00e+00	0	30	0	1900019712	34	6131
2026-01-16 20:31:18.80	341.45	17.11	-31.0	-31.6	26.4	0.00e+00	0	30	0	1906311168	34	6150
2026-01-16 20:31:19.81	341.22	17.11	-31.1	-31.7	26.4	0.00e+00	0	30	0	1911554048	34	6232
2026-01-16 20:31:20.82	340.99	17.11	-31.2	-31.9	26.2	0.00e+00	0	30	0	1917845504	34	6333
2026-01-16 20:31:21.83	340.76	17.10	-31.1	-31.7	26.3	0.00e+00	0	30	0	1923088384	34	6233
2026-01-16 20:31:22.84	340.53	17.10	-31.2	-31.9	26.2	0.00e+00	0	30	0	1928331264	34	6360
2026-01-16 20:31:23.85	340.30	17.09	-31.1	-31.7	26.3	0.00e+00	0	30	0	1934622720	34	6202
2026-01-16 20:31:24.86	340.07	17.08	-31.1	-31.8	26.2	0.00e+00	0	30	0	1939865600	34	6262
2026-01-16 20:31:25.87	339.84	17.08	-31.1	-31.7	26.2	0.00e+00	0	30	0	1946157056	34	6213
2026-01-16 20:31:26.88	339.61	17.07	-31.1	-31.8	26.3	0.00e+00	0	30	0	1951399936	34	6270
2026-01-16 20:31:27.89	339.39	17.06	-31.0	-31.6	26.3	0.00e+00	0	30	0	1956642816	34	6139
2026-01-16 20:31:28.90	339.16	17.06	-31.0	-31.6	26.3	0.00e+00	0	30	0	1962934272	34	6150
2026-01-16 20:31:29.91	338.93	17.05	-30.9	-31.5	26.5	0.00e+00	0	30	0	1968177152	34	6098
2026-01-16 20:31:30.92	338.70	17.04	-30.7	-31.4	26.3	0.00e+00	0	30	0	1974468608	34	5983
2026-01-16 20:31:31.93	338.47	17.03	-30.7	-31.3	26.5	0.00e+00	0	30	0	1979711488	34	5950
2026-01-16 20:31:32.94	338.24	17.02	-30.8	-31.4	26.5	0.00e+00	0	30	0	1986002944	34	6020
2026-01-16 20:31:33.95	338.02	17.01	-30.9	-31.5	26.5	0.00e+00	0	30	0	1991245824	34	6073
2026-01-16 20:31:34.96	337.79	17.00	-30.8	-31.5	26.6	0.00e+00	0	30	0	1997537280	34	6044
2026-01-16 20:31:35.97	337.56	16.99	-30.9	-31.6	26.5	0.00e+00	0	30	0	2002780160	34	6131
2026-01-16 20:31:36.98	337.33	16.98	-30.9	-31.5	26.5	0.00e+00	0	30	0	2008023040	34	6050
2026-01-16 20:31:37.99	337.11	16.97	-31.0	-31.6	26.4	0.00e+00	0	30	0	2014314496	34	6164
2026-01-16 20:31:39.00	336.88	16.95	-31.0	-31.6	26.5	0.00e+00	0	30	0	2019557376	34	6147
2026-01-16 20:31:40.01	336.65	16.94	-31.0	-31.6	26.5	0.00e+00	0	30	0	2025848832	34	6163
2026-01-16 20:31:41.02	336.43	16.93	-31.1	-31.7	26.3	0.00e+00	0	30	0	2031091712	34	6229
2026-01-16 20:31:42.03	336.20	16.91	-31.2	-31.9	26.3	0.00e+00	0	30	0	2036334592	34	6333
2026-01-16 20:31:43.04	335.97	16.90	-31.3	-32.0	26.1	0.00e+00	0	30	0	2042626048	34	6412
2026-01-16 20:31:44.04	335.75	16.89	-31.2	-31.8	26.3	0.00e+00	0	30	0	2047868928	34	6315
2026-01-16 20:31:45.05	335.52	16.87	-31.0	-31.7	26.4	0.00e+00	0	30	0	2053111808	34	6182
2026-01-16 20:31:46.06	335.30	16.86	-31.0	-31.7	26.5	0.00e+00	0	30	0	2059403264	34	6186
2026-01-16 20:31:47.08	335.07	16.84	-31.0	-31.7	26.4	0.00e+00	0	30	0	2064646144	34	6180
2026-01-16 20:31:48.08	334.85	16.82	-31.1	-31.7	26.4	0.00e+00	0	30	0	2070937600	34	6231
2026-01-16 20:31:49.10	334.62	16.81	-31.1	-31.7	26.4	0.00e+00	0	30	0	2076180480	34	6206
2026-01-16 20:31:50.10	334.40	16.79	-31.1	-31.8	26.3	0.00e+00	0	30	0	2082471936	34	6278
2026-01-16 20:31:51.11	334.17	16.77	-31.1	-31.7	26.3	0.00e+00	0	30	0	2087714816	34	6211
2026-01-16 20:31:52.12	333.95	16.75	-31.1	-31.8	26.4	0.00e+00	0	30	0	2094006272	34	6262
2026-01-16 20:31:53.13	333.73	16.74	-31.0	-31.6	26.4	0.00e+00	0	30	0	2099249152	34	6121
2026-01-16 20:31:54.14	333.50	16.72	-31.0	-31.6	26.5	0.00e+00	0	30	0	2104492032	34	6133
2026-01-16 20:31:55.15	333.28	16.70	-31.0	-31.7	26.5	0.00e+00	0	30	0	2110783488	34	6189
2026-01-16 20:31:56.16	333.06	16.68	-31.0	-31.6	26.5	0.00e+00	0	30	0	2116026368	34	6123
2026-01-16 20:31:57.17	332.83	16.66	-31.0	-31.6	26.5	0.00e+00	0	30	0	2122317824	34	6141
2026-01-16 20:31:58.18	332.61	16.64	-31.1	-31.8	26.4	0.00e+00	0	30	0	2127560704	34	6258
2026-01-16 20:31:59.19	332.39	16.62	-31.1	-31.8	26.3	0.00e+00	0	30	0	2132803584	34	6266
2026-01-16 20:32:00.20	332.17	16.59	-31.2	-31.8	26.2	0.00e+00	0	30	0	2139095040	34	6309
2026-01-16 20:32:01.21	331.95	16.57	-31.2	-31.8	26.3	0.00e+00	0	30	0	2144337920	34	6289
2026-01-16 20:32:02.22	331.72	16.55	-31.1	-31.8	26.3	0.00e+00	0	30	0	2150629376	34	6275
2026-01-16 20:32:03.23	331.50	16.53	-31.2	-31.8	26.4	0.00e+00	0	30	0	2155872256	34	6300
2026-01-16 20:32:04.24	331.28	16.50	-31.1	-31.8	26.3	0.00e+00	0	30	0	2161115136	34	6268
2026-01-16 20:32:05.24	331.07	16.48	-31.1	-31.8	26.4	0.00e+00	0	30	0	2167406592	34	6247
2026-01-16 20:32:06.25	330.85	16.46	-31.1	-31.7	26.3	0.00e+00	0	30	0	2172649472	34	6198
2026-01-16 20:32:07.26	330.63	16.43	-31.2	-32.0	26.3	0.00e+00	0	30	0	2178940928	34	6395
2026-01-16 20:32:08.27	330.41	16.41	-31.4	-32.0	26.2	0.00e+00	0	30	0	2184183808	34	6451
2026-01-16 20:32:09.28	330.19	16.38	-31.4	-32.1	26.1	0.00e+00	0	30	0	2190475264	34	6532
2026-01-16 20:32:10.29	329.97	16.36	-31.5	-32.1	26.1	0.00e+00	0	30	0	2195718144	36	5802
2026-01-16 20:32:11.30	329.75	16.33	-31.5	-32.1	26.0	0.00e+00	0	30	0	2200961024	36	5788
2026-01-16 20:32:12.31	329.54	16.30	-31.7	-32.3	25.9	0.00e+00	0	30	0	2207252480	36	5942
2026-01-16 20:32:13.32	329.32	16.28	-31.9	-32.6	25.6	0.00e+00	0	30	0	2212495360	36	6108
2026-01-16 20:32:14.33	329.10	16.25	-31.9	-32.6	25.7	0.00e+00	0	30	0	2218786816	36	6152
2026-01-16 20:32:15.34	328.89	16.22	-31.7	-32.3	26.0	0.00e+00	0	30	0	2224029696	36	5940
2026-01-16 20:32:16.35	328.67	16.20	-31.4	-32.1	26.0	0.00e+00	0	30	0	2229272576	36	5780
2026-01-16 20:32:17.36	328.45	16.17	-31.3	-32.0	26.2	0.00e+00	0	30	0	2235564032	36	5751
2026-01-16 20:32:18.37	328.24	16.14	-31.2	-31.8	26.3	0.00e+00	0	30	0	2240806912	36	5584
2026-01-16 20:32:19.38	328.02	16.11	-31.1	-31.7	26.3	0.00e+00	0	30	0	2247098368	36	5505
2026-01-16 20:32:20.38	327.81	16.08	-31.2	-31.7	26.4	0.00e+00	0	30	0	2252341248	36	5548
2026-01-16 20:32:21.40	327.60	16.05	-31.2	-31.8	26.3	0.00e+00	0	30	0	2257584128	36	5608
2026-01-16 20:32:22.41	327.38	16.02	-31.2	-31.8	26.3	0.00e+00	0	30	0	2263875584	36	5609
2026-01-16 20:32:23.42	327.17	15.99	-31.2	-32.0	26.3	0.00e+00	0	30	0	2269118464	36	5701
2026-01-16 20:32:24.43	326.96	15.96	-31.2	-31.8	26.3	0.00e+00	0	30	0	2275409920	36	5630
2026-01-16 20:32:25.44	326.74	15.93	-31.2	-31.9	26.2	0.00e+00	0	30	0	2280652800	36	5670
2026-01-16 20:32:26.45	326.53	15.90	-31.3	-31.9	26.2	0.00e+00	0	30	0	2286944256	36	5671
2026-01-16 20:32:27.46	326.32	15.86	-31.4	-32.1	26.2	0.00e+00	0	30	0	2292187136	36	5763
2026-01-16 20:32:28.47	326.11	15.83	-31.5	-32.1	26.1	0.00e+00	0	30	0	2298478592	36	5813
2026-01-16 20:32:29.48	325.90	15.80	-31.5	-32.2	26.1	0.00e+00	0	30	0	2303721472	36	5847
2026-01-16 20:32:30.49	325.69	15.77	-31.5	-32.1	25.9	0.00e+00	0	30	0	2308964352	36	5823
2026-01-16 20:32:31.50	325.48	15.73	-31.4	-32.2	26.0	0.00e+00	0	30	0	2315255808	36	5834
2026-01-16 20:32:32.51	325.27	15.70	-31.4	-32.0	26.0	0.00e+00	0	30	0	2320498688	36	5739
2026-01-16 20:32:33.53	325.06	15.67	-31.5	-32.2	26.0	0.00e+00	0	30	0	2326790144	36	5878
2026-01-16 20:32:34.54	324.85	15.63	-31.6	-32.2	25.9	0.00e+00	0	30	0	2332033024	36	5851
2026-01-16 20:32:35.54	324.65	15.60	-31.5	-32.1	26.0	0.00e+00	0	29	0	2337275904	36	5805
2026-01-16 20:32:36.55	324.44	15.56	-31.4	-32.1	26.2	0.00e+00	0	30	0	2343567360	36	5788
2026-01-16 20:32:37.56	324.24	15.53	-31.1	-31.7	26.3	0.00e+00	0	30	0	2348810240	36	5537
2026-01-16 20:32:38.57	324.03	15.49	-31.2	-31.9	26.4	0.00e+00	0	29	0	2355101696	36	5633
2026-01-16 20:32:39.58	323.82	15.45	-31.3	-31.9	26.3	0.00e+00	0	30	0	2360344576	36	5683
2026-01-16 20:32:40.59	323.62	15.42	-31.3	-32.0	26.2	0.00e+00	0	30	0	2365587456	36	5709
2026-01-16 20:32:41.60	323.42	15.38	-31.4	-32.1	26.1	0.00e+00	0	29	0	2371878912	36	5823
2026-01-16 20:32:42.61	323.21	15.34	-31.5	-32.1	26.0	0.00e+00	0	30	0	2377121792	36	5818
2026-01-16 20:32:43.62	323.01	15.31	-31.5	-32.1	26.0	0.00e+00	0	29	0	2383413248	36	5804
2026-01-16 20:32:44.63	322.80	15.27	-31.5	-32.1	26.0	0.00e+00	0	30	0	2388656128	36	5821
2026-01-16 20:32:45.64	322.60	15.23	-31.6	-32.3	26.0	0.00e+00	0	29	0	2394947584	36	5898
2026-01-16 20:32:46.65	322.40	15.19	-31.6	-32.2	25.9	0.00e+00	0	29	0	2400190464	36	5884
2026-01-16 20:32:47.66	322.20	15.16	-31.7	-32.4	25.9	0.00e+00	0	29	0	2406481920	36	5991
2026-01-16 20:32:48.67	322.00	15.12	-31.7	-32.4	25.8	0.00e+00	0	29	0	2411724800	36	5991
2026-01-16 20:32:49.68	321.80	15.08	-31.7	-32.3	25.9	0.00e+00	0	29	0	2416967680	36	5955
2026-01-16 20:32:50.69	321.60	15.04	-31.6	-32.4	25.9	0.00e+00	0	29	0	2423259136	36	5965
2026-01-16 20:32:51.69	321.40	15.00	-31.7	-32.4	25.8	0.00e+00	0	30	0	2428502016	36	6007
2026-01-16 20:32:52.71	321.20	14.96	-31.6	-32.3	25.9	0.00e+00	0	29	0	2434793472	36	5901
2026-01-16 20:32:53.72	321.00	14.92	-31.7	-32.3	25.9	0.00e+00	0	30	0	2440036352	36	5940
2026-01-16 20:32:54.73	320.80	14.88	-31.8	-32.5	25.8	0.00e+00	0	30	0	2445279232	36	6053
2026-01-16 20:32:55.74	320.61	14.84	-31.8	-32.4	25.8	0.00e+00	0	30	0	2451570688	36	5991
2026-01-16 20:32:56.75	320.41	14.80	-31.7	-32.5	25.8	0.00e+00	0	30	0	2456813568	36	6035
2026-01-16 20:32:57.76	320.21	14.76	-31.9	-32.5	25.7	0.00e+00	0	30	0	2463105024	36	6062
2026-01-16 20:32:58.77	320.02	14.71	-31.7	-32.3	25.9	0.00e+00	0	30	0	2468347904	36	5915
2026-01-16 20:32:59.78	319.82	14.67	-31.6	-32.3	25.9	0.00e+00	0	29	0	2473590784	36	5918
2026-01-16 20:33:00.79	319.63	14.63	-31.7	-32.4	25.8	0.00e+00	0	30	0	2479882240	36	5996
2026-01-16 20:33:01.80	319.44	14.59	-31.8	-32.4	25.8	0.00e+00	0	30	0	2485125120	36	6028
2026-01-16 20:33:02.81	319.24	14.55	-31.8	-32.4	25.8	0.00e+00	0	29	0	2491416576	36	5983
2026-01-16 20:33:03.82	319.05	14.50	-31.9	-32.6	25.7	0.00e+00	0	30	0	2496659456	36	6128
2026-01-16 20:33:04.83	318.86	14.46	-31.8	-32.5	25.7	0.00e+00	0	29	0	2502950912	36	6039
2026-01-16 20:33:05.84	318.67	14.42	-32.0	-32.5	25.6	0.00e+00	0	29	0	2508193792	36	6103
2026-01-16 20:33:06.85	318.48	14.37	-31.7	-32.4	25.8	0.00e+00	0	29	0	2513436672	36	5973
2026-01-16 20:33:07.86	318.29	14.33	-31.7	-32.5	25.7	0.00e+00	0	29	0	2519728128	36	6044
2026-01-16 20:33:08.87	318.10	14.29	-31.8	-32.4	25.8	0.00e+00	0	29	0	2524971008	36	6004
2026-01-16 20:33:09.88	317.91	14.24	-31.7	-32.4	25.8	0.00e+00	0	29	0	2531262464	36	6013
2026-01-16 20:33:10.89	317.72	14.20	-31.8	-32.5	25.8	0.00e+00	0	30	0	2536505344	36	6055
2026-01-16 20:33:11.90	317.53	14.15	-31.7	-32.4	25.8	0.00e+00	0	29	0	2541748224	36	6008
2026-01-16 20:33:12.91	317.34	14.11	-31.8	-32.5	25.7	0.00e+00	0	29	0	2548039680	36	6052
2026-01-16 20:33:13.92	317.16	14.06	-31.8	-32.4	25.8	0.00e+00	0	29	0	2553282560	36	6016
2026-01-16 20:33:14.93	316.97	14.02	-31.8	-32.5	25.6	0.00e+00	0	29	0	2559574016	36	6068
2026-01-16 20:33:15.94	316.78	13.97	-31.8	-32.5	25.7	0.00e+00	0	29	0	2564816896	36	6085
2026-01-16 20:33:16.95	316.60	13.93	-31.9	-32.5	25.8	0.00e+00	0	30	0	2570059776	36	6058
2026-01-16 20:33:17.96	316.41	13.88	-31.9	-32.5	25.6	0.00e+00	0	29	0	2576351232	36	6103
2026-01-16 20:33:18.97	316.23	13.83	-31.9	-32.5	25.7	0.00e+00	0	29	0	2581594112	36	6097
2026-01-16 20:33:19.98	316.05	13.79	-31.9	-32.6	25.7	0.00e+00	0	29	0	2587885568	36	6139
2026-01-16 20:33:20.99	315.86	13.74	-31.8	-32.4	25.7	0.00e+00	0	29	0	2593128448	36	5980
2026-01-16 20:33:22.00	315.68	13.69	-31.9	-32.5	25.7	0.00e+00	0	29	0	2599419904	36	6095
2026-01-16 20:33:23.01	315.50	13.65	-32.0	-32.7	25.6	0.00e+00	0	29	0	2604662784	36	6216
2026-01-16 20:33:24.02	315.32	13.60	-32.1	-32.7	25.5	0.00e+00	0	29	0	2610954240	36	6190
2026-01-16 20:33:25.03	315.14	13.55	-32.2	-32.8	25.3	0.00e+00	0	29	0	2616197120	36	6258
2026-01-16 20:33:26.04	314.96	13.50	-32.2	-32.9	25.3	0.00e+00	0	29	0	2621440000	36	6376
2026-01-16 20:33:27.05	314.78	13.46	-32.3	-33.0	25.3	0.00e+00	0	29	0	2627731456	36	6455
2026-01-16 20:33:28.06	314.60	13.41	-32.1	-32.8	25.4	0.00e+00	0	29	0	2632974336	36	6264
2026-01-16 20:33:29.07	314.42	13.36	-32.1	-32.7	25.3	0.00e+00	0	29	0	2639265792	36	6234
2026-01-16 20:33:30.08	314.24	13.31	-32.1	-32.8	25.5	0.00e+00	0	29	0	2644508672	36	6251
2026-01-16 20:33:31.09	314.07	13.26	-32.0	-32.7	25.5	0.00e+00	0	29	0	2649751552	36	6214
2026-01-16 20:33:32.10	313.89	13.21	-32.1	-32.8	25.4	0.00e+00	0	29	0	2656043008	36	6272
2026-01-16 20:33:33.11	313.71	13.17	-32.3	-33.0	25.3	0.00e+00	0	29	0	2661285888	36	6410
2026-01-16 20:33:34.12	313.54	13.12	-32.2	-32.8	25.3	0.00e+00	0	29	0	2667577344	36	6314
2026-01-16 20:33:35.13	313.36	13.07	-32.1	-32.8	25.4	1.10e-06	0	29	0	2672820224	36	6305
2026-01-16 20:33:36.14	313.19	13.02	-32.2	-32.8	25.4	0.00e+00	0	29	0	2678063104	36	6315
2026-01-16 20:33:37.14	313.02	12.97	-32.3	-32.9	25.3	0.00e+00	0	29	0	2684354560	36	6382
2026-01-16 20:33:38.15	312.84	12.92	-32.4	-33.0	25.2	0.00e+00	0	29	0	2689597440	36	6401
2026-01-16 20:33:39.16	312.67	12.87	-32.4	-33.2	25.1	0.00e+00	0	29	0	2695888896	36	6569
2026-01-16 20:33:40.17	312.50	12.82	-32.6	-33.2	25.0	0.00e+00	0	29	0	2701131776	36	6607
2026-01-16 20:33:41.18	312.33	12.77	-32.5	-33.2	25.0	0.00e+00	0	29	0	2707423232	36	6568
2026-01-16 20:33:42.19	312.16	12.72	-32.7	-33.4	24.8	0.00e+00	0	29	0	2712666112	38	6017
2026-01-16 20:33:43.20	311.99	12.67	-32.7	-33.3	24.9	0.00e+00	0	29	0	2717908992	38	5924
2026-01-16 20:33:44.21	311.82	12.62	-32.3	-33.0	25.2	0.00e+00	0	29	0	2724200448	38	5760
2026-01-16 20:33:45.22	311.65	12.57	-32.3	-32.9	25.2	0.00e+00	0	29	0	2729443328	38	5693
2026-01-16 20:33:46.23	311.48	12.52	-32.2	-33.0	25.2	0.00e+00	0	29	0	2735734784	38	5709
2026-01-16 20:33:47.24	311.31	12.47	-32.3	-33.0	25.2	0.00e+00	0	29	0	2740977664	38	5749
2026-01-16 20:33:48.25	311.15	12.41	-32.3	-32.9	25.2	0.00e+00	0	29	0	2746220544	38	5680
2026-01-16 20:33:49.26	310.98	12.36	-32.5	-33.2	25.0	0.00e+00	0	29	0	2752512000	38	5863
2026-01-16 20:33:50.27	310.82	12.31	-32.3	-32.9	25.2	0.00e+00	0	29	0	2757754880	38	5689
2026-01-16 20:33:51.28	310.65	12.26	-32.3	-32.9	25.2	0.00e+00	0	29	0	2764046336	38	5647
2026-01-16 20:33:52.29	310.49	12.21	-32.2	-32.8	25.4	0.00e+00	0	29	0	2769289216	38	5603
2026-01-16 20:33:53.30	310.32	12.16	-32.1	-32.8	25.4	0.00e+00	0	29	0	2774532096	38	5596
2026-01-16 20:33:54.31	310.16	12.11	-32.1	-32.6	25.4	0.00e+00	0	29	0	2780823552	38	5496
2026-01-16 20:33:55.32	309.99	12.05	-32.2	-32.9	25.2	0.00e+00	0	29	0	2786066432	38	5694
2026-01-16 20:33:56.33	309.83	12.00	-32.3	-32.9	25.2	0.00e+00	0	29	0	2792357888	38	5654
2026-01-16 20:33:57.34	309.67	11.95	-32.4	-33.1	25.2	0.00e+00	0	29	0	2797600768	38	5802
2026-01-16 20:33:58.35	309.51	11.90	-32.6	-33.2	24.8	0.00e+00	0	29	0	2803892224	38	5891
2026-01-16 20:33:59.36	309.35	11.84	-32.9	-33.6	24.7	0.00e+00	0	29	0	2809135104	38	6141
2026-01-16 20:34:00.37	309.19	11.79	-32.4	-33.0	25.0	0.00e+00	0	29	0	2815426560	38	5761
2026-01-16 20:34:01.38	309.03	11.74	-32.2	-32.9	25.0	0.00e+00	0	29	0	2820669440	38	5631
2026-01-16 20:34:02.39	308.87	11.69	-32.4	-33.2	25.0	0.00e+00	0	29	0	2825912320	38	5833
2026-01-16 20:34:03.40	308.71	11.63	-32.6	-33.2	24.7	0.00e+00	0	29	0	2832203776	38	5876
2026-01-16 20:34:04.41	308.55	11.58	-32.6	-33.3	24.9	0.00e+00	0	29	0	2837446656	38	5911
2026-01-16 20:34:05.42	308.40	11.53	-32.7	-33.5	24.5	0.00e+00	0	29	0	2843738112	38	6040
2026-01-16 20:34:06.43	308.24	11.47	-32.8	-33.5	24.4	0.00e+00	0	29	0	2848980992	38	6050
2026-01-16 20:34:07.44	308.08	11.42	-32.9	-33.6	24.4	0.00e+00	0	29	0	2854223872	38	6162
2026-01-16 20:34:08.44	307.93	11.37	-32.8	-33.4	24.5	0.00e+00	0	29	0	2860515328	38	6021
2026-01-16 20:34:09.45	307.78	11.32	-32.9	-33.5	24.4	0.00e+00	0	29	0	2865758208	38	6092
2026-01-16 20:34:10.46	307.62	11.26	-32.8	-33.6	24.5	0.00e+00	0	29	0	2872049664	38	6124
2026-01-16 20:34:11.47	307.47	11.21	-32.8	-33.5	24.5	0.00e+00	0	29	0	2877292544	38	6097
2026-01-16 20:34:12.48	307.31	11.15	-33.1	-33.7	24.2	0.00e+00	0	29	0	2882535424	38	6188
2026-01-16 20:34:13.49	307.16	11.10	-33.2	-33.9	24.2	0.00e+00	0	29	0	2888826880	38	6330
2026-01-16 20:34:14.50	307.01	11.05	-33.1	-33.8	24.4	0.00e+00	0	29	0	2894069760	38	6309
2026-01-16 20:34:15.51	306.86	10.99	-33.2	-33.8	24.3	0.00e+00	0	29	0	2900361216	38	6264
2026-01-16 20:34:16.52	306.71	10.94	-33.2	-34.0	24.2	0.00e+00	0	29	0	2905604096	38	6392
2026-01-16 20:34:17.53	306.56	10.88	-33.1	-33.7	24.3	0.00e+00	0	29	0	2911895552	38	6235
2026-01-16 20:34:18.54	306.41	10.83	-33.1	-33.7	24.3	0.00e+00	0	29	0	2917138432	38	6238
2026-01-16 20:34:19.55	306.26	10.78	-33.0	-33.7	24.5	0.00e+00	0	29	0	2922381312	38	6231
2026-01-16 20:34:20.56	306.11	10.72	-33.0	-33.7	24.5	0.00e+00	0	29	0	2928672768	38	6223
2026-01-16 20:34:21.57	305.96	10.67	-33.1	-33.8	24.5	0.00e+00	0	29	0	2933915648	38	6266
2026-01-16 20:34:22.58	305.81	10.61	-33.1	-33.7	24.4	0.00e+00	0	29	0	2940207104	38	6218
2026-01-16 20:34:23.59	305.67	10.56	-33.1	-33.9	24.3	0.00e+00	0	29	0	2945449984	38	6359
2026-01-16 20:34:24.60	305.52	10.50	-33.2	-33.8	24.3	0.00e+00	0	29	0	2950692864	38	6275
2026-01-16 20:34:25.61	305.38	10.45	-33.2	-33.9	24.3	0.00e+00	0	29	0	2956984320	38	6337
2026-01-16 20:34:26.62	305.23	10.40	-33.2	-33.9	24.3	0.00e+00	0	29	0	2962227200	38	6372
2026-01-16 20:34:27.63	305.09	10.34	-33.2	-33.8	24.4	0.00e+00	0	29	0	2968518656	38	6309
2026-01-16 20:34:28.64	304.94	10.29	-33.2	-33.9	24.3	0.00e+00	0	29	0	2973761536	38	6374
2026-01-16 20:34:29.64	304.80	10.23	-33.1	-33.7	24.4	0.00e+00	0	29	0	2979004416	38	6239
2026-01-16 20:34:30.65	304.66	10.18	-33.1	-33.9	24.5	0.00e+00	0	29	0	2985295872	38	6333
2026-01-16 20:34:31.66	304.51	10.12	-33.1	-33.8	24.4	0.00e+00	0	29	0	2990538752	38	6253
2026-01-16 20:34:32.67	304.37	10.07	-33.1	-33.7	24.4	0.00e+00	0	29	0	2996830208	38	6222
2026-01-16 20:34:33.68	304.23	10.01	-33.2	-33.8	24.3	0.00e+00	0	29	0	3002073088	38	6288
2026-01-16 20:34:34.69	304.09	9.96	-33.1	-33.8	24.4	0.00e+00	0	29	0	3008364544	38	6295
2026-01-16 20:34:35.70	303.95	9.90	-33.3	-33.9	24.2	0.00e+00	0	29	0	3013607424	38	6372
2026-01-16 20:34:36.71	303.81	9.85	-33.4	-34.2	24.1	0.00e+00	0	29	0	3019898880	38	6593
2026-01-16 20:34:37.72	303.67	9.79	-33.3	-34.1	24.2	0.00e+00	0	29	0	3025141760	38	6507
2026-01-16 20:34:38.73	303.53	9.74	-33.3	-34.1	24.1	0.00e+00	0	29	0	3030384640	38	6518
2026-01-16 20:34:39.74	303.39	9.68	-33.4	-34.0	24.1	0.00e+00	0	29	0	3036676096	38	6440
2026-01-16 20:34:40.75	303.26	9.63	-33.3	-33.9	24.2	0.00e+00	0	29	0	3041918976	38	6377
2026-01-16 20:34:41.76	303.12	9.57	-33.4	-34.1	24.1	0.00e+00	0	29	0	3048210432	38	6483
2026-01-16 20:34:42.77	302.98	9.51	-33.4	-34.2	24.1	0.00e+00	0	29	0	3053453312	38	6602
2026-01-16 20:34:43.78	302.85	9.46	-33.6	-34.3	24.0	0.00e+00	0	29	0	3058696192	38	6639
2026-01-16 20:34:44.79	302.71	9.40	-33.6	-34.3	23.9	0.00e+00	0	29	0	3064987648	38	6626
2026-01-16 20:34:45.79	302.58	9.35	-33.5	-34.3	24.0	0.00e+00	0	29	0	3070230528	38	6658
2026-01-16 20:34:46.80	302.44	9.29	-33.5	-34.2	24.0	0.00e+00	0	29	0	3075473408	38	6548
2026-01-16 20:34:47.81	302.31	9.24	-33.5	-34.2	23.9	0.00e+00	0	29	0	3081764864	38	6607
2026-01-16 20:34:48.82	302.17	9.18	-33.5	-34.2	23.9	0.00e+00	0	29	0	3087007744	38	6557
2026-01-16 20:34:49.84	302.04	9.13	-33.4	-34.1	24.0	0.00e+00	0	29	0	3093299200	38	6469
2026-01-16 20:34:50.84	301.91	9.07	-33.4	-34.2	24.0	0.00e+00	0	29	0	3098542080	38	6591
2026-01-16 20:34:51.85	301.78	9.02	-33.7	-34.3	23.9	0.00e+00	0	29	0	3104833536	38	6649
2026-01-16 20:34:52.86	301.65	8.96	-33.6	-34.2	23.8	0.00e+00	0	29	0	3110076416	38	6586
2026-01-16 20:34:53.87	301.52	8.90	-33.6	-34.3	23.8	0.00e+00	0	29	0	3116367872	38	6689
2026-01-16 20:34:54.88	301.38	8.85	-33.5	-34.2	23.9	0.00e+00	0	29	0	3121610752	38	6557
2026-01-16 20:34:55.89	301.25	8.79	-33.6	-34.4	23.9	0.00e+00	0	29	0	3126853632	38	6724
2026-01-16 20:34:56.90	301.13	8.74	-33.5	-34.3	23.9	0.00e+00	0	29	0	3133145088	38	6642
2026-01-16 20:34:57.91	301.00	8.68	-33.4	-34.2	23.9	0.00e+00	0	29	0	3138387968	38	6567
2026-01-16 20:34:58.92	300.87	8.63	-33.5	-34.1	23.9	0.00e+00	0	29	0	3144679424	38	6535
2026-01-16 20:34:59.93	300.74	8.57	-33.5	-34.2	23.9	0.00e+00	0	29	0	3149922304	38	6583
2026-01-16 20:35:00.91	300.62	8.52	-33.6	-34.3	23.8	0.00e+00	0	29	0	3155165184	38	6639
2026-01-16 20:35:01.91	300.49	8.46	-33.5	-34.3	23.9	0.00e+00	0	29	0	3161456640	38	6629
2026-01-16 20:35:02.92	300.36	8.40	-33.6	-34.2	23.8	0.00e+00	0	29	0	3166699520	38	6615
2026-01-16 20:35:03.93	300.24	8.35	-33.6	-34.4	23.8	0.00e+00	0	29	0	3171942400	38	6723
2026-01-16 20:35:04.94	300.11	8.29	-33.9	-34.5	23.5	0.00e+00	0	29	0	3178233856	40	6075
2026-01-16 20:35:05.95	299.99	8.24	-33.9	-34.6	23.5	0.00e+00	0	29	0	3183476736	40	6136
2026-01-16 20:35:06.96	299.86	8.18	-33.7	-34.3	23.6	0.00e+00	0	29	0	3189768192	40	5959
2026-01-16 20:35:07.97	299.74	8.13	-33.8	-34.5	23.5	0.00e+00	0	29	0	3195011072	40	6048
2026-01-16 20:35:08.98	299.62	8.07	-34.0	-34.7	23.4	0.00e+00	0	29	0	3201302528	40	6197
2026-01-16 20:35:09.98	299.50	8.01	-33.9	-34.6	23.4	0.00e+00	0	29	0	3206545408	40	6169
2026-01-16 20:35:10.99	299.37	7.96	-33.9	-34.7	23.4	0.00e+00	0	29	0	3211788288	40	6212
2026-01-16 20:35:12.00	299.25	7.90	-33.9	-34.7	23.4	0.00e+00	0	29	0	3218079744	40	6203
2026-01-16 20:35:13.01	299.13	7.85	-33.8	-34.6	23.5	0.00e+00	0	29	0	3223322624	40	6121
2026-01-16 20:35:14.02	299.01	7.79	-33.9	-34.7	23.5	0.00e+00	0	29	0	3229614080	40	6233
2026-01-16 20:35:15.03	298.89	7.74	-34.1	-34.8	23.2	0.00e+00	0	29	0	3234856960	40	6298
2026-01-16 20:35:16.04	298.77	7.68	-34.2	-34.9	23.1	0.00e+00	0	29	0	3240099840	40	6365
2026-01-16 20:35:17.05	298.65	7.62	-34.2	-34.9	23.1	0.00e+00	0	29	0	3246391296	40	6388
2026-01-16 20:35:18.06	298.53	7.57	-34.1	-35.0	23.2	0.00e+00	0	29	0	3251634176	40	6391
2026-01-16 20:35:19.07	298.41	7.51	-34.3	-35.0	23.1	0.00e+00	0	29	0	3257925632	40	6405
2026-01-16 20:35:20.08	298.29	7.46	-34.4	-35.2	23.0	0.00e+00	0	29	0	3263168512	40	6599
2026-01-16 20:35:21.09	298.17	7.40	-34.3	-35.1	23.0	0.00e+00	0	29	0	3268411392	40	6513
2026-01-16 20:35:22.10	298.06	7.34	-34.3	-35.0	23.0	0.00e+00	0	29	0	3274702848	40	6456
2026-01-16 20:35:23.11	297.94	7.29	-34.3	-35.0	23.1	0.00e+00	0	29	0	3279945728	40	6462
2026-01-16 20:35:24.11	297.82	7.23	-34.3	-35.0	23.0	0.00e+00	0	29	0	3286237184	40	6418
2026-01-16 20:35:25.12	297.71	7.18	-34.3	-35.1	23.0	0.00e+00	0	29	0	3291480064	40	6520
2026-01-16 20:35:26.13	297.59	7.12	-34.4	-35.2	22.9	0.00e+00	0	29	0	3297771520	40	6600
2026-01-16 20:35:27.14	297.48	7.07	-34.5	-35.2	22.8	0.00e+00	0	29	0	3303014400	40	6570
2026-01-16 20:35:28.15	297.36	7.01	-34.2	-35.0	23.0	0.00e+00	0	29	0	3308257280	40	6417
2026-01-16 20:35:29.16	297.25	6.95	-34.3	-35.0	23.1	0.00e+00	0	29	0	3314548736	40	6454
2026-01-16 20:35:30.17	297.14	6.90	-34.2	-34.9	23.1	0.00e+00	0	29	0	3319791616	40	6332
2026-01-16 20:35:31.18	297.02	6.84	-34.3	-35.1	23.0	0.00e+00	0	29	0	3326083072	40	6512
2026-01-16 20:35:32.19	296.91	6.79	-34.1	-34.9	23.2	0.00e+00	0	29	0	3331325952	40	6363
2026-01-16 20:35:33.20	296.80	6.73	-34.4	-35.1	22.8	0.00e+00	0	29	0	3336568832	40	6469
2026-01-16 20:35:34.21	296.69	6.68	-34.1	-34.9	23.2	0.00e+00	0	29	0	3342860288	40	6361
2026-01-16 20:35:35.22	296.57	6.62	-34.3	-35.1	23.0	0.00e+00	0	29	0	3348103168	40	6487
2026-01-16 20:35:36.23	296.46	6.56	-34.1	-34.9	23.1	0.00e+00	0	29	0	3354394624	40	6382
2026-01-16 20:35:37.24	296.35	6.51	-34.2	-35.0	23.1	0.00e+00	0	29	0	3359637504	40	6424
2026-01-16 20:35:38.25	296.24	6.45	-34.3	-35.0	22.9	0.00e+00	0	29	0	3364880384	40	6400
2026-01-16 20:35:39.26	296.13	6.40	-34.2	-35.0	23.0	0.00e+00	0	29	0	3371171840	40	6452
2026-01-16 20:35:40.27	296.02	6.34	-34.4	-35.1	22.8	0.00e+00	0	29	0	3376414720	40	6539
2026-01-16 20:35:41.27	295.91	6.29	-34.5	-35.2	22.7	0.00e+00	0	29	0	3382706176	40	6552
2026-01-16 20:35:42.28	295.81	6.23	-34.5	-35.2	22.8	0.00e+00	0	29	0	3387949056	40	6572
2026-01-16 20:35:43.29	295.70	6.18	-34.4	-35.1	22.9	0.00e+00	0	29	0	3394240512	40	6506
2026-01-16 20:35:44.30	295.59	6.12	-34.4	-35.2	22.8	0.00e+00	0	29	0	3399483392	40	6547
2026-01-16 20:35:45.32	295.48	6.06	-34.6	-35.4	22.5	0.00e+00	0	29	0	3405774848	40	6743
2026-01-16 20:35:46.32	295.38	6.01	-34.8	-35.6	22.4	0.00e+00	0	29	0	3411017728	42	6162
2026-01-16 20:35:47.33	295.27	5.95	-34.7	-35.5	22.5	0.00e+00	0	29	0	3416260608	42	6046
2026-01-16 20:35:48.34	295.16	5.90	-34.7	-35.5	22.4	0.00e+00	0	29	0	3422552064	42	6048
2026-01-16 20:35:49.35	295.06	5.84	-34.4	-35.3	22.7	0.00e+00	0	29	0	3427794944	42	5904
2026-01-16 20:35:50.37	294.95	5.79	-34.6	-35.4	22.5	0.00e+00	0	29	0	3434086400	42	6027
2026-01-16 20:35:51.37	294.85	5.73	-34.8	-35.6	22.4	0.00e+00	0	29	0	3439329280	42	6110
2026-01-16 20:35:52.38	294.74	5.68	-34.8	-35.6	22.3	0.00e+00	0	29	0	3444572160	42	6167
2026-01-16 20:35:53.39	294.64	5.62	-35.0	-35.8	22.1	0.00e+00	0	29	0	3450863616	42	6292
2026-01-16 20:35:54.40	294.54	5.57	-35.0	-35.8	22.2	0.00e+00	0	29	0	3456106496	42	6278
2026-01-16 20:35:55.41	294.43	5.51	-35.0	-35.8	22.1	0.00e+00	0	29	0	3462397952	42	6259
2026-01-16 20:35:56.42	294.33	5.46	-35.1	-35.8	22.1	0.00e+00	0	29	0	3467640832	42	6305
2026-01-16 20:35:57.43	294.23	5.40	-35.1	-36.0	22.1	0.00e+00	0	29	0	3472883712	42	6398
2026-01-16 20:35:58.44	294.13	5.35	-35.1	-35.8	22.1	0.00e+00	0	29	0	3479175168	42	6296
2026-01-16 20:35:59.45	294.03	5.29	-34.9	-35.7	22.2	0.00e+00	0	29	0	3484418048	42	6176
2026-01-16 20:36:00.45	293.93	5.24	-35.1	-36.0	22.0	0.00e+00	0	29	0	3490709504	42	6419
2026-01-16 20:36:01.46	293.83	5.18	-35.1	-35.8	22.2	0.00e+00	0	29	0	3495952384	42	6283
2026-01-16 20:36:02.47	293.72	5.13	-35.1	-36.0	22.0	0.00e+00	0	29	0	3502243840	42	6413
2026-01-16 20:36:03.49	293.62	5.07	-35.1	-36.0	21.9	0.00e+00	0	29	0	3507486720	42	6399
2026-01-16 20:36:04.48	293.53	5.02	-35.5	-36.3	21.6	0.00e+00	0	29	0	3512729600	42	6684
2026-01-16 20:36:05.49	293.43	4.96	-35.1	-35.9	22.0	0.00e+00	0	29	0	3519021056	42	6332
2026-01-16 20:36:06.50	293.33	4.91	-35.2	-36.1	21.9	0.00e+00	0	29	0	3524263936	42	6486
2026-01-16 20:36:07.50	293.23	4.85	-35.1	-36.0	21.9	0.00e+00	0	29	0	3530555392	42	6413
2026-01-16 20:36:08.51	293.13	4.80	-35.2	-36.1	21.9	0.00e+00	0	29	0	3535798272	42	6481
2026-01-16 20:36:09.52	293.04	4.74	-35.3	-36.0	21.8	0.00e+00	0	29	0	3541041152	42	6454
2026-01-16 20:36:10.53	292.94	4.69	-35.6	-36.4	21.5	0.00e+00	0	28	0	3547332608	42	6768
2026-01-16 20:36:11.54	292.84	4.63	-35.3	-36.2	21.7	0.00e+00	0	29	0	3552575488	42	6540
2026-01-16 20:36:12.55	292.74	4.58	-35.3	-36.0	21.7	0.00e+00	0	29	0	3558866944	42	6447
2026-01-16 20:36:13.56	292.65	4.53	-35.0	-35.8	21.9	0.00e+00	0	29	0	3564109824	42	6265
2026-01-16 20:36:14.57	292.55	4.47	-35.2	-36.1	21.7	0.00e+00	0	29	0	3569352704	42	6524
2026-01-16 20:36:15.58	292.46	4.42	-35.3	-36.0	21.7	0.00e+00	0	29	0	3575644160	42	6461
2026-01-16 20:36:16.59	292.36	4.36	-35.4	-36.3	21.6	0.00e+00	0	28	0	3580887040	42	6685
2026-01-16 20:36:17.60	292.27	4.31	-35.3	-36.2	21.7	0.00e+00	0	29	0	3587178496	42	6585
2026-01-16 20:36:18.61	292.17	4.25	-35.7	-36.5	21.2	0.00e+00	0	29	0	3592421376	42	6837
2026-01-16 20:36:19.62	292.08	4.20	-34.9	-35.6	21.9	0.00e+00	0	29	0	3598712832	44	5481
2026-01-16 20:36:20.63	291.99	4.14	-35.3	-36.2	21.7	0.00e+00	0	29	0	3603955712	44	5840
