passes_logs/2026/01/16/R4.6S_Anadyr/R4.6S_Anadyr__20260116_162643_NOAA_20_JPSS-1_rec.log

#Pass ID: 20260116_162643_NOAA 20 (JPSS-1)
#Satellite: NOAA 20 (JPSS-1)
#Configuration: NOAA 20
#almurnet v.1.7.20251203
#Start time: 2026-01-16 16:26:44

#Version: 2.2.20231116
#Station: R4.6S_Anadyr
#Location: 177.4865 lon 64.73178 lat
#TLE: 1 43013U 17073A   26015.89389188  .00000026  00000+0  33113-4 0  9999
#TLE: 2 43013  98.7636 316.8238 0001460  37.8997 322.2282 14.19536128422860

#Time	Az	El	Level	Level2	SNR	BER	BlckErr	Temp	State	Recorded	gain1	gain2
2026-01-16 16:26:44.48	26.13	0.05	-34.3	-35.5	29.2	7.15e-01	0	27	0	0	44	5757
2026-01-16 16:26:45.48	26.09	0.11	-48.1	-63.3	3.6	1.51e+00	0	28	104	0	60	52960
2026-01-16 16:26:46.49	26.05	0.16	-48.0	-63.3	3.6	1.51e+00	0	28	104	0	60	52795
2026-01-16 16:26:47.50	26.01	0.22	-48.1	-63.2	3.6	1.51e+00	0	28	104	0	60	52419
2026-01-16 16:26:48.51	25.97	0.28	-48.0	-63.3	3.6	1.51e+00	0	28	104	0	60	52693
2026-01-16 16:26:49.51	25.93	0.34	-48.0	-63.3	3.6	1.51e+00	0	29	104	0	60	52732
2026-01-16 16:26:50.52	25.89	0.39	-48.1	-63.3	3.6	1.51e+00	0	29	104	0	60	52706
2026-01-16 16:26:51.53	25.85	0.45	-48.0	-63.2	3.6	1.51e+00	0	29	104	0	60	52462
2026-01-16 16:26:52.54	25.81	0.51	-48.0	-63.2	3.6	1.51e+00	0	29	104	0	60	52439
2026-01-16 16:26:53.55	25.76	0.57	-47.9	-63.1	3.6	1.51e+00	0	29	104	0	60	51895
2026-01-16 16:26:54.56	25.72	0.63	-47.9	-63.1	3.6	1.51e+00	0	29	104	0	60	51475
2026-01-16 16:26:55.56	25.68	0.68	-47.7	-62.9	3.6	1.51e+00	0	29	104	0	60	50579
2026-01-16 16:26:56.57	25.64	0.74	-47.6	-62.8	3.6	1.51e+00	0	29	104	0	60	49775
2026-01-16 16:26:57.58	25.60	0.80	-47.3	-62.6	3.6	1.51e+00	0	29	104	0	60	48948
2026-01-16 16:26:58.59	25.56	0.86	-47.3	-62.5	3.6	1.51e+00	0	29	104	0	60	47987
2026-01-16 16:26:59.60	25.51	0.92	-47.0	-62.2	3.6	1.51e+00	0	29	104	0	60	46323
2026-01-16 16:27:00.61	25.47	0.98	-46.6	-61.6	3.6	1.51e+00	0	29	104	0	60	43678
2026-01-16 16:27:01.62	25.43	1.04	-46.4	-61.6	3.6	1.51e+00	0	29	104	0	60	43327
2026-01-16 16:27:02.62	25.39	1.09	-46.4	-61.6	3.6	1.51e+00	0	29	104	0	60	43487
2026-01-16 16:27:03.63	25.34	1.15	-46.4	-61.6	3.6	1.51e+00	0	29	104	0	60	43688
2026-01-16 16:27:04.64	25.30	1.21	-46.4	-61.6	3.6	1.51e+00	0	29	104	0	60	43377
2026-01-16 16:27:05.65	25.25	1.27	-46.4	-61.6	3.6	1.51e+00	0	29	104	0	60	43286
2026-01-16 16:27:06.66	25.21	1.33	-46.4	-61.6	3.6	1.51e+00	0	29	104	0	60	43411
2026-01-16 16:27:07.67	25.17	1.39	-46.4	-61.5	3.6	1.51e+00	0	29	104	0	60	43168
2026-01-16 16:27:08.68	25.12	1.45	-46.4	-61.5	3.6	1.51e+00	0	29	104	0	60	42982
2026-01-16 16:27:09.69	25.08	1.51	-46.4	-61.5	3.6	1.51e+00	0	29	104	0	60	43159
2026-01-16 16:27:10.69	25.03	1.57	-46.4	-61.5	3.6	1.51e+00	0	29	104	0	60	43123
2026-01-16 16:27:11.70	24.99	1.63	-46.4	-61.6	3.6	1.51e+00	0	29	104	0	60	43267
2026-01-16 16:27:12.71	24.94	1.69	-46.4	-61.6	3.6	1.51e+00	0	29	104	0	60	43499
2026-01-16 16:27:13.72	24.90	1.75	-46.4	-61.6	3.6	1.51e+00	0	29	104	0	60	43444
2026-01-16 16:27:14.73	24.85	1.81	-46.4	-61.6	3.6	1.51e+00	0	29	104	0	60	43431
2026-01-16 16:27:15.74	24.81	1.87	-46.4	-61.4	3.6	1.51e+00	0	29	104	0	60	42654
2026-01-16 16:27:16.75	24.76	1.93	-46.4	-61.4	3.6	1.51e+00	0	29	104	0	60	42273
2026-01-16 16:27:17.76	24.72	1.99	-46.4	-61.4	3.6	1.51e+00	0	29	104	0	60	42408
2026-01-16 16:27:18.76	24.67	2.05	-46.4	-61.4	3.6	1.51e+00	0	29	104	0	60	42327
2026-01-16 16:27:19.77	24.62	2.11	-46.4	-61.5	3.6	1.51e+00	0	29	104	0	60	43061
2026-01-16 16:27:20.78	24.58	2.17	-46.4	-61.5	3.6	1.51e+00	0	29	104	0	60	42991
2026-01-16 16:27:21.79	24.53	2.24	-46.4	-61.6	3.6	1.51e+00	0	29	104	0	60	43288
2026-01-16 16:27:22.80	24.48	2.30	-46.4	-61.5	3.6	1.51e+00	0	29	104	0	60	43152
2026-01-16 16:27:23.81	24.44	2.36	-46.4	-61.5	3.6	1.51e+00	0	29	104	0	60	42984
2026-01-16 16:27:24.82	24.39	2.42	-46.4	-61.4	3.6	1.51e+00	0	29	104	0	60	42378
2026-01-16 16:27:25.83	24.34	2.48	-46.4	-61.4	3.6	1.51e+00	0	29	104	0	60	42367
2026-01-16 16:27:26.84	24.29	2.54	-46.4	-61.3	3.6	1.51e+00	0	29	104	0	60	42118
2026-01-16 16:27:27.84	24.25	2.60	-46.4	-61.1	3.6	1.51e+00	0	29	104	0	60	41150
2026-01-16 16:27:28.85	24.20	2.67	-46.4	-61.1	3.6	1.51e+00	0	29	104	0	60	41019
2026-01-16 16:27:29.86	24.15	2.73	-46.4	-60.9	3.6	1.51e+00	0	29	104	0	60	39909
2026-01-16 16:27:30.87	24.10	2.79	-46.4	-61.0	3.6	1.51e+00	0	29	104	0	60	40723
2026-01-16 16:27:31.88	24.05	2.85	-46.4	-61.5	3.6	1.51e+00	0	29	104	0	60	42894
2026-01-16 16:27:32.89	24.00	2.91	-46.4	-61.5	3.6	1.51e+00	0	29	104	0	60	42834
2026-01-16 16:27:33.90	23.95	2.98	-46.3	-60.1	3.6	1.51e+00	0	29	104	0	60	36389
2026-01-16 16:27:34.91	23.90	3.04	-46.1	-57.1	4.4	1.33e+00	6	29	104	0	60	25968
2026-01-16 16:27:35.92	23.85	3.10	-45.8	-53.2	6.2	4.78e-01	0	29	0	1048576	60	16458
2026-01-16 16:27:36.93	23.80	3.17	-45.4	-51.7	8.1	9.29e-02	0	29	0	3145728	60	13873
2026-01-16 16:27:37.94	23.75	3.23	-44.7	-49.5	10.7	2.70e-02	0	29	0	5242880	60	10827
2026-01-16 16:27:38.94	23.70	3.29	-44.2	-48.2	12.1	5.17e-04	0	29	0	7340032	60	9308
2026-01-16 16:27:39.95	23.65	3.35	-44.0	-47.8	12.9	2.83e-04	0	29	0	8388608	60	8825
2026-01-16 16:27:40.96	23.60	3.42	-43.7	-47.3	13.1	2.44e-05	0	29	0	10485760	60	8368
2026-01-16 16:27:41.97	23.55	3.48	-43.9	-47.7	12.7	1.13e-04	0	29	0	12582912	60	8797
2026-01-16 16:27:42.98	23.50	3.54	-46.4	-60.4	3.6	6.28e-01	0	29	104	13631488	60	37871
2026-01-16 16:27:43.99	23.45	3.61	-41.3	-43.3	16.9	1.39e+00	1	29	104	13631488	56	6653
2026-01-16 16:27:45.00	23.40	3.67	-46.3	-61.3	3.6	9.39e-01	0	29	104	13631488	60	42014
2026-01-16 16:27:46.00	23.34	3.74	-45.5	-52.0	8.4	1.48e+00	26	29	104	13631488	60	14392
2026-01-16 16:27:47.01	23.29	3.80	-44.9	-50.1	9.1	7.60e-06	0	29	0	13631488	60	11544
2026-01-16 16:27:48.02	23.24	3.86	-41.7	-43.9	16.8	1.03e-02	0	29	0	15728640	58	6325
2026-01-16 16:27:49.03	23.19	3.93	-41.8	-44.0	16.8	0.00e+00	0	29	0	17825792	56	7208
2026-01-16 16:27:50.04	23.13	3.99	-41.8	-43.9	16.6	0.00e+00	0	29	0	18874368	56	7117
2026-01-16 16:27:51.04	23.08	4.06	-41.5	-43.5	17.2	0.00e+00	0	29	0	20971520	56	6839
2026-01-16 16:27:52.05	23.03	4.12	-41.0	-42.8	18.0	0.00e+00	0	29	0	23068672	56	6294
2026-01-16 16:27:53.06	22.97	4.19	-40.5	-42.2	18.6	0.00e+00	0	29	0	25165824	54	6559
2026-01-16 16:27:54.07	22.92	4.25	-40.5	-42.1	18.5	0.00e+00	0	29	0	27262976	54	6531
2026-01-16 16:27:55.08	22.86	4.32	-40.6	-42.3	18.6	0.00e+00	0	29	0	28311552	54	6617
2026-01-16 16:27:56.09	22.81	4.38	-40.4	-42.0	18.7	0.00e+00	0	29	0	30408704	54	6411
2026-01-16 16:27:57.09	22.75	4.45	-40.9	-42.7	18.0	0.00e+00	0	29	0	32505856	54	6964
2026-01-16 16:27:58.10	22.70	4.51	-40.6	-42.2	18.7	0.00e+00	0	29	0	34603008	54	6595
2026-01-16 16:27:59.11	22.64	4.58	-40.6	-42.3	18.6	0.00e+00	0	29	0	36700160	54	6624
2026-01-16 16:28:00.12	22.59	4.64	-40.6	-42.3	18.5	0.00e+00	0	29	0	38797312	54	6654
2026-01-16 16:28:01.13	22.53	4.71	-40.8	-42.5	18.4	0.00e+00	0	29	0	39845888	54	6790
2026-01-16 16:28:02.14	22.47	4.77	-40.6	-42.3	18.7	0.00e+00	0	29	0	41943040	54	6662
2026-01-16 16:28:03.15	22.42	4.84	-40.2	-41.8	19.1	0.00e+00	0	29	0	44040192	54	6268
2026-01-16 16:28:04.16	22.36	4.91	-40.1	-41.6	19.3	0.00e+00	0	29	0	46137344	54	6139
2026-01-16 16:28:05.16	22.30	4.97	-40.1	-41.6	19.2	0.00e+00	0	29	0	48234496	54	6162
2026-01-16 16:28:06.17	22.25	5.04	-40.2	-41.7	19.1	0.00e+00	0	29	0	49283072	54	6242
2026-01-16 16:28:07.18	22.19	5.11	-40.3	-41.8	19.1	0.00e+00	0	29	0	51380224	54	6296
2026-01-16 16:28:08.19	22.13	5.17	-40.1	-41.6	19.3	0.00e+00	0	29	0	53477376	54	6115
2026-01-16 16:28:09.19	22.07	5.24	-40.0	-41.5	19.4	0.00e+00	0	29	0	55574528	54	6100
2026-01-16 16:28:10.20	22.01	5.31	-39.9	-41.4	19.5	0.00e+00	0	29	0	57671680	54	6002
2026-01-16 16:28:11.21	21.96	5.37	-40.0	-41.4	19.4	0.00e+00	0	29	0	58720256	54	6028
2026-01-16 16:28:12.22	21.90	5.44	-40.2	-41.8	19.2	0.00e+00	0	29	0	60817408	54	6253
2026-01-16 16:28:13.23	21.84	5.51	-39.7	-41.1	19.9	0.00e+00	0	29	0	62914560	54	5824
2026-01-16 16:28:14.24	21.78	5.58	-39.8	-41.2	19.7	0.00e+00	0	29	0	65011712	52	6605
2026-01-16 16:28:15.25	21.72	5.64	-39.9	-41.3	19.7	0.00e+00	0	29	0	67108864	52	6672
2026-01-16 16:28:16.25	21.66	5.71	-39.7	-41.1	19.8	0.00e+00	0	29	0	68157440	52	6516
2026-01-16 16:28:17.26	21.60	5.78	-39.8	-41.2	19.8	0.00e+00	0	29	0	70254592	52	6571
2026-01-16 16:28:18.27	21.54	5.85	-39.9	-41.3	19.7	0.00e+00	0	29	0	72351744	52	6646
2026-01-16 16:28:19.28	21.47	5.92	-39.6	-41.0	20.0	0.00e+00	0	29	0	74448896	52	6432
2026-01-16 16:28:20.28	21.41	5.98	-39.7	-41.1	19.9	0.00e+00	0	29	0	76546048	52	6491
2026-01-16 16:28:21.29	21.35	6.05	-39.7	-41.1	20.0	0.00e+00	0	29	0	77594624	52	6478
2026-01-16 16:28:22.30	21.29	6.12	-39.7	-41.1	19.9	0.00e+00	0	29	0	79691776	52	6498
2026-01-16 16:28:23.31	21.23	6.19	-39.6	-40.9	20.1	0.00e+00	0	29	0	81788928	52	6376
2026-01-16 16:28:24.32	21.16	6.26	-39.5	-40.8	20.2	0.00e+00	0	29	0	83886080	52	6292
2026-01-16 16:28:25.32	21.10	6.33	-39.6	-40.9	20.1	0.00e+00	0	29	0	85983232	52	6357
2026-01-16 16:28:26.33	21.04	6.40	-39.6	-40.9	20.1	0.00e+00	0	29	0	87031808	52	6383
2026-01-16 16:28:27.34	20.97	6.47	-39.5	-40.8	20.2	0.00e+00	0	29	0	89128960	52	6279
2026-01-16 16:28:28.35	20.91	6.54	-39.6	-41.0	20.2	0.00e+00	0	29	0	91226112	52	6415
2026-01-16 16:28:29.36	20.85	6.61	-39.7	-41.0	20.0	0.00e+00	0	29	0	93323264	52	6459
2026-01-16 16:28:30.36	20.78	6.68	-39.6	-40.9	20.1	0.00e+00	0	29	0	95420416	52	6380
2026-01-16 16:28:31.37	20.72	6.75	-39.5	-40.9	20.2	0.00e+00	0	29	0	96468992	52	6339
2026-01-16 16:28:32.38	20.65	6.82	-39.5	-40.9	20.2	0.00e+00	0	29	0	98566144	52	6327
2026-01-16 16:28:33.39	20.58	6.89	-39.4	-40.7	20.4	0.00e+00	0	29	0	100663296	52	6218
2026-01-16 16:28:34.40	20.52	6.96	-39.5	-40.8	20.3	0.00e+00	0	29	0	102760448	52	6259
2026-01-16 16:28:35.41	20.45	7.03	-39.4	-40.7	20.4	0.00e+00	0	29	0	104857600	52	6235
2026-01-16 16:28:36.42	20.39	7.10	-39.5	-40.8	20.3	0.00e+00	0	29	0	105906176	52	6259
2026-01-16 16:28:37.43	20.32	7.17	-39.3	-40.6	20.6	0.00e+00	0	29	0	108003328	52	6146
2026-01-16 16:28:38.44	20.25	7.24	-39.3	-40.6	20.5	0.00e+00	0	29	0	110100480	52	6121
2026-01-16 16:28:39.45	20.18	7.31	-39.3	-40.6	20.5	0.00e+00	0	29	0	112197632	52	6132
2026-01-16 16:28:40.46	20.11	7.39	-39.3	-40.5	20.6	0.00e+00	0	29	0	114294784	52	6084
2026-01-16 16:28:41.47	20.05	7.46	-39.2	-40.5	20.7	0.00e+00	0	29	0	115343360	52	6063
2026-01-16 16:28:42.48	19.98	7.53	-39.0	-40.2	21.0	0.00e+00	0	29	0	117440512	52	5857
2026-01-16 16:28:43.49	19.91	7.60	-39.3	-40.6	20.5	0.00e+00	0	29	0	119537664	52	6108
2026-01-16 16:28:44.50	19.84	7.67	-39.2	-40.5	20.7	0.00e+00	0	29	0	121634816	52	6035
2026-01-16 16:28:45.51	19.77	7.75	-39.2	-40.4	20.7	0.00e+00	0	29	0	123731968	52	6029
2026-01-16 16:28:46.51	19.70	7.82	-39.1	-40.4	20.8	0.00e+00	0	29	0	124780544	52	5979
2026-01-16 16:28:47.53	19.63	7.89	-39.1	-40.3	20.8	0.00e+00	0	29	0	126877696	52	5962
2026-01-16 16:28:48.53	19.56	7.96	-39.1	-40.3	20.9	0.00e+00	0	29	0	128974848	52	5925
2026-01-16 16:28:49.54	19.49	8.04	-39.1	-40.4	20.7	0.00e+00	0	29	0	131072000	52	5985
2026-01-16 16:28:50.55	19.41	8.11	-39.2	-40.4	20.8	0.00e+00	0	29	0	133169152	52	5984
2026-01-16 16:28:51.56	19.34	8.18	-39.2	-40.4	20.7	0.00e+00	0	29	0	135266304	52	6017
2026-01-16 16:28:52.57	19.27	8.26	-39.1	-40.4	20.8	0.00e+00	0	29	0	136314880	52	5980
2026-01-16 16:28:53.58	19.20	8.33	-39.0	-40.2	21.0	0.00e+00	0	29	0	138412032	52	5837
2026-01-16 16:28:54.59	19.12	8.40	-38.9	-40.1	21.1	0.00e+00	0	29	0	140509184	52	5791
2026-01-16 16:28:55.60	19.05	8.48	-39.1	-40.4	20.9	0.00e+00	0	29	0	142606336	52	5974
2026-01-16 16:28:56.61	18.97	8.55	-39.3	-40.5	20.7	0.00e+00	0	29	0	144703488	52	6088
2026-01-16 16:28:57.62	18.90	8.63	-39.2	-40.4	20.8	0.00e+00	0	29	0	145752064	52	5981
2026-01-16 16:28:58.63	18.82	8.70	-39.0	-40.2	21.1	0.00e+00	0	29	0	147849216	52	5851
2026-01-16 16:28:59.64	18.75	8.78	-39.1	-40.2	21.0	0.00e+00	0	29	0	149946368	52	5894
2026-01-16 16:29:00.65	18.67	8.85	-39.1	-40.3	21.0	0.00e+00	0	29	0	152043520	52	5912
2026-01-16 16:29:01.66	18.60	8.93	-38.9	-40.1	21.2	0.00e+00	0	29	0	154140672	52	5793
2026-01-16 16:29:02.67	18.52	9.00	-39.1	-40.3	21.0	0.00e+00	0	29	0	155189248	52	5901
2026-01-16 16:29:03.68	18.44	9.08	-39.0	-40.2	21.1	0.00e+00	0	29	0	157286400	52	5870
2026-01-16 16:29:04.69	18.37	9.15	-39.0	-40.2	21.0	0.00e+00	0	29	0	159383552	52	5885
2026-01-16 16:29:05.70	18.29	9.23	-39.1	-40.3	21.0	0.00e+00	0	29	0	161480704	52	5936
2026-01-16 16:29:06.71	18.21	9.30	-39.0	-40.2	21.1	0.00e+00	0	29	0	163577856	52	5854
2026-01-16 16:29:07.71	18.13	9.38	-39.1	-40.3	21.0	0.00e+00	0	29	0	164626432	52	5951
2026-01-16 16:29:08.72	18.05	9.46	-39.1	-40.3	21.0	0.00e+00	0	29	0	166723584	52	5924
2026-01-16 16:29:09.73	17.97	9.53	-39.1	-40.3	21.1	0.00e+00	0	29	0	168820736	52	5920
2026-01-16 16:29:10.74	17.89	9.61	-39.2	-40.5	20.8	0.00e+00	0	29	0	170917888	52	6035
2026-01-16 16:29:11.75	17.81	9.69	-39.0	-40.2	21.0	0.00e+00	0	29	0	173015040	52	5889
2026-01-16 16:29:12.76	17.73	9.76	-39.1	-40.3	21.0	0.00e+00	0	29	0	174063616	52	5921
2026-01-16 16:29:13.77	17.65	9.84	-39.0	-40.2	21.1	0.00e+00	0	29	0	176160768	52	5860
2026-01-16 16:29:14.78	17.57	9.92	-39.1	-40.3	20.9	0.00e+00	0	29	0	178257920	52	5949
2026-01-16 16:29:15.79	17.49	10.00	-39.0	-40.2	21.1	0.00e+00	0	29	0	180355072	52	5873
2026-01-16 16:29:16.80	17.40	10.07	-39.0	-40.2	21.1	0.00e+00	0	29	0	182452224	52	5875
2026-01-16 16:29:17.81	17.32	10.15	-39.1	-40.3	21.1	0.00e+00	0	29	0	183500800	52	5909
2026-01-16 16:29:18.82	17.24	10.23	-39.2	-40.4	20.9	0.00e+00	0	29	0	185597952	52	5978
2026-01-16 16:29:19.84	17.15	10.31	-39.3	-40.5	20.9	0.00e+00	0	29	0	187695104	52	6059
2026-01-16 16:29:20.84	17.07	10.39	-39.1	-40.3	20.9	0.00e+00	0	29	0	189792256	52	5950
2026-01-16 16:29:21.85	16.98	10.47	-39.0	-40.2	21.1	0.00e+00	0	29	0	191889408	52	5830
2026-01-16 16:29:22.86	16.90	10.54	-38.9	-40.1	21.2	0.00e+00	0	29	0	192937984	52	5783
2026-01-16 16:29:23.87	16.81	10.62	-39.1	-40.2	21.0	0.00e+00	0	29	0	195035136	52	5895
2026-01-16 16:29:24.88	16.72	10.70	-39.2	-40.4	20.8	0.00e+00	0	29	0	197132288	52	5975
2026-01-16 16:29:25.89	16.64	10.78	-38.7	-39.8	21.3	0.00e+00	0	29	0	199229440	50	6284
2026-01-16 16:29:26.90	16.55	10.86	-38.8	-40.0	21.4	0.00e+00	0	29	0	201326592	50	6405
2026-01-16 16:29:27.91	16.46	10.94	-38.6	-39.8	21.5	0.00e+00	0	29	0	203423744	50	6261
2026-01-16 16:29:28.92	16.37	11.02	-38.6	-39.8	21.5	0.00e+00	0	29	0	204472320	50	6259
2026-01-16 16:29:29.93	16.28	11.10	-38.6	-39.7	21.6	0.00e+00	0	29	0	206569472	50	6188
2026-01-16 16:29:30.93	16.20	11.18	-38.5	-39.6	21.6	0.00e+00	0	29	0	208666624	50	6157
2026-01-16 16:29:31.94	16.11	11.26	-38.4	-39.5	21.8	0.00e+00	0	28	0	210763776	50	6099
2026-01-16 16:29:32.95	16.01	11.34	-38.6	-39.7	21.6	0.00e+00	0	29	0	212860928	50	6214
2026-01-16 16:29:33.96	15.92	11.42	-38.6	-39.7	21.6	0.00e+00	0	29	0	213909504	50	6179
2026-01-16 16:29:34.97	15.83	11.51	-38.4	-39.4	21.8	0.00e+00	0	29	0	216006656	50	6021
2026-01-16 16:29:35.98	15.74	11.59	-38.3	-39.3	21.9	0.00e+00	0	29	0	218103808	50	5963
2026-01-16 16:29:36.99	15.65	11.67	-38.2	-39.3	22.0	0.00e+00	0	29	0	220200960	50	5898
2026-01-16 16:29:38.00	15.55	11.75	-38.4	-39.5	21.9	0.00e+00	0	29	0	222298112	50	6036
2026-01-16 16:29:39.01	15.46	11.83	-38.1	-39.2	22.2	0.00e+00	0	29	0	223346688	50	5832
2026-01-16 16:29:40.02	15.37	11.91	-38.3	-39.3	22.1	0.00e+00	0	29	0	225443840	50	5943
2026-01-16 16:29:41.03	15.27	12.00	-38.0	-39.0	22.3	0.00e+00	0	28	0	227540992	50	5740
2026-01-16 16:29:42.04	15.18	12.08	-38.1	-39.2	22.2	0.00e+00	0	29	0	229638144	50	5838
2026-01-16 16:29:43.05	15.08	12.16	-38.0	-39.1	22.2	0.00e+00	0	29	0	231735296	50	5774
2026-01-16 16:29:44.06	14.98	12.25	-38.2	-39.2	22.1	0.00e+00	0	29	0	232783872	50	5887
2026-01-16 16:29:45.07	14.89	12.33	-38.0	-39.0	22.3	0.00e+00	0	29	0	234881024	50	5740
2026-01-16 16:29:46.08	14.79	12.41	-38.0	-39.0	22.3	0.00e+00	0	29	0	236978176	50	5752
2026-01-16 16:29:47.09	14.69	12.50	-38.1	-39.1	22.2	0.00e+00	0	29	0	239075328	50	5812
2026-01-16 16:29:48.10	14.59	12.58	-38.0	-39.1	22.3	0.00e+00	0	29	0	241172480	50	5768
2026-01-16 16:29:49.11	14.49	12.66	-38.1	-39.2	22.2	0.00e+00	0	29	0	242221056	50	5853
2026-01-16 16:29:50.11	14.39	12.75	-38.0	-39.1	22.2	0.00e+00	0	29	0	244318208	50	5777
2026-01-16 16:29:51.12	14.29	12.83	-38.0	-39.0	22.3	0.00e+00	0	29	0	246415360	50	5755
2026-01-16 16:29:52.13	14.19	12.92	-38.1	-39.1	22.2	0.00e+00	0	29	0	248512512	50	5801
2026-01-16 16:29:53.14	14.09	13.00	-38.2	-39.2	22.2	0.00e+00	0	29	0	250609664	50	5891
2026-01-16 16:29:54.15	13.99	13.09	-38.1	-39.2	22.2	0.00e+00	0	29	0	251658240	50	5852
2026-01-16 16:29:55.16	13.88	13.17	-38.2	-39.3	22.1	0.00e+00	0	29	0	253755392	50	5922
2026-01-16 16:29:56.17	13.78	13.26	-38.0	-39.0	22.3	0.00e+00	0	29	0	255852544	50	5760
2026-01-16 16:29:57.18	13.68	13.34	-38.0	-39.1	22.3	0.00e+00	0	29	0	257949696	50	5782
2026-01-16 16:29:58.19	13.57	13.43	-38.0	-39.1	22.3	0.00e+00	0	29	0	260046848	50	5777
2026-01-16 16:29:59.20	13.47	13.51	-38.0	-39.1	22.3	0.00e+00	0	29	0	261095424	50	5784
2026-01-16 16:30:00.21	13.36	13.60	-38.0	-39.0	22.4	0.00e+00	0	29	0	263192576	50	5707
2026-01-16 16:30:01.22	13.25	13.69	-38.0	-39.1	22.3	0.00e+00	0	28	0	265289728	50	5774
2026-01-16 16:30:02.23	13.15	13.77	-38.1	-39.1	22.1	0.00e+00	0	29	0	267386880	50	5791
2026-01-16 16:30:03.23	13.04	13.86	-38.1	-39.2	22.1	0.00e+00	0	29	0	269484032	50	5855
2026-01-16 16:30:04.25	12.93	13.95	-37.9	-38.9	22.4	0.00e+00	0	29	0	271581184	50	5690
2026-01-16 16:30:05.25	12.82	14.03	-37.9	-39.0	22.4	0.00e+00	0	28	0	272629760	50	5698
2026-01-16 16:30:06.26	12.71	14.12	-37.8	-38.8	22.5	0.00e+00	0	29	0	274726912	50	5624
2026-01-16 16:30:07.27	12.60	14.21	-37.8	-38.8	22.6	0.00e+00	0	29	0	276824064	50	5599
2026-01-16 16:30:08.28	12.49	14.30	-37.8	-38.8	22.6	0.00e+00	0	29	0	278921216	50	5578
2026-01-16 16:30:09.29	12.38	14.38	-37.7	-38.6	22.7	0.00e+00	0	29	0	281018368	48	6169
2026-01-16 16:30:10.31	12.26	14.47	-37.7	-38.7	22.8	0.00e+00	0	28	0	282066944	48	6176
2026-01-16 16:30:11.32	12.15	14.56	-37.8	-38.8	22.6	0.00e+00	0	28	0	284164096	48	6251
2026-01-16 16:30:12.33	12.03	14.65	-37.6	-38.6	22.7	0.00e+00	0	28	0	286261248	48	6127
2026-01-16 16:30:13.33	11.92	14.74	-37.7	-38.6	22.7	0.00e+00	0	28	0	288358400	48	6173
2026-01-16 16:30:14.34	11.80	14.83	-37.7	-38.6	22.6	0.00e+00	0	29	0	290455552	48	6163
2026-01-16 16:30:15.35	11.69	14.92	-37.7	-38.7	22.6	0.00e+00	0	28	0	291504128	48	6194
2026-01-16 16:30:16.36	11.57	15.01	-37.8	-38.8	22.6	0.00e+00	0	28	0	293601280	48	6260
2026-01-16 16:30:17.37	11.45	15.10	-37.7	-38.7	22.7	0.00e+00	0	29	0	295698432	48	6198
2026-01-16 16:30:18.38	11.34	15.19	-37.8	-38.8	22.6	0.00e+00	0	28	0	297795584	48	6283
2026-01-16 16:30:19.39	11.22	15.28	-37.8	-38.8	22.6	0.00e+00	0	28	0	299892736	48	6283
2026-01-16 16:30:20.40	11.10	15.37	-37.8	-38.8	22.5	0.00e+00	0	28	0	300941312	48	6316
2026-01-16 16:30:21.42	10.97	15.46	-37.9	-38.9	22.5	0.00e+00	0	28	0	303038464	48	6343
2026-01-16 16:30:22.42	10.85	15.55	-37.9	-38.9	22.5	0.00e+00	0	29	0	305135616	48	6330
2026-01-16 16:30:23.43	10.73	15.64	-37.9	-38.9	22.6	0.00e+00	0	28	0	307232768	48	6326
2026-01-16 16:30:24.44	10.61	15.73	-37.9	-38.9	22.5	0.00e+00	0	28	0	309329920	48	6374
2026-01-16 16:30:25.45	10.48	15.82	-38.1	-39.1	22.4	0.00e+00	0	28	0	310378496	48	6510
2026-01-16 16:30:26.46	10.36	15.91	-38.1	-39.1	22.4	0.00e+00	0	29	0	312475648	48	6481
2026-01-16 16:30:27.47	10.23	16.01	-38.0	-39.0	22.4	0.00e+00	0	28	0	314572800	48	6444
2026-01-16 16:30:28.48	10.11	16.10	-38.1	-39.1	22.4	0.00e+00	0	28	0	316669952	48	6489
2026-01-16 16:30:29.49	9.98	16.19	-38.0	-39.1	22.4	0.00e+00	0	28	0	318767104	48	6479
2026-01-16 16:30:30.50	9.85	16.28	-38.1	-39.1	22.3	0.00e+00	0	28	0	319815680	48	6491
2026-01-16 16:30:31.51	9.73	16.37	-38.0	-39.0	22.2	0.00e+00	0	28	0	321912832	48	6443
2026-01-16 16:30:32.52	9.60	16.47	-38.1	-39.1	22.1	0.00e+00	0	28	0	324009984	48	6530
2026-01-16 16:30:33.53	9.47	16.56	-38.0	-39.0	22.4	0.00e+00	0	28	0	326107136	48	6393
2026-01-16 16:30:34.54	9.33	16.65	-37.9	-38.9	22.5	0.00e+00	0	28	0	328204288	48	6389
2026-01-16 16:30:35.55	9.20	16.75	-37.9	-38.9	22.6	0.00e+00	0	28	0	329252864	48	6351
2026-01-16 16:30:36.56	9.07	16.84	-38.0	-39.0	22.4	0.00e+00	0	28	0	331350016	48	6455
2026-01-16 16:30:37.57	8.94	16.93	-37.8	-38.8	22.6	0.00e+00	0	28	0	333447168	48	6299
2026-01-16 16:30:38.58	8.80	17.03	-38.1	-39.1	22.4	0.00e+00	0	28	0	335544320	48	6498
2026-01-16 16:30:39.59	8.67	17.12	-37.9	-38.9	22.6	0.00e+00	0	28	0	337641472	48	6321
2026-01-16 16:30:40.60	8.53	17.22	-37.9	-38.9	22.6	0.00e+00	0	28	0	339738624	48	6369
2026-01-16 16:30:41.61	8.39	17.31	-38.0	-39.0	22.5	0.00e+00	0	28	0	340787200	48	6442
2026-01-16 16:30:42.62	8.26	17.41	-38.0	-39.0	22.5	0.00e+00	0	28	0	342884352	48	6461
2026-01-16 16:30:43.63	8.12	17.50	-38.2	-39.3	22.2	0.00e+00	0	28	0	344981504	48	6648
2026-01-16 16:30:44.64	7.98	17.60	-38.2	-39.3	22.3	0.00e+00	0	28	0	347078656	48	6636
2026-01-16 16:30:45.65	7.84	17.69	-38.3	-39.3	22.2	0.00e+00	0	28	0	349175808	48	6672
2026-01-16 16:30:46.66	7.70	17.79	-38.3	-39.4	22.1	0.00e+00	0	28	0	350224384	48	6709
2026-01-16 16:30:47.67	7.55	17.88	-38.4	-39.4	22.1	0.00e+00	0	28	0	352321536	48	6764
2026-01-16 16:30:48.67	7.41	17.98	-38.3	-39.4	22.3	0.00e+00	0	28	0	354418688	48	6736
2026-01-16 16:30:49.68	7.27	18.07	-38.4	-39.5	22.1	0.00e+00	0	28	0	356515840	48	6776
2026-01-16 16:30:50.70	7.12	18.17	-38.2	-39.3	22.3	0.00e+00	0	28	0	358612992	48	6637
2026-01-16 16:30:51.71	6.97	18.27	-38.2	-39.2	22.4	0.00e+00	0	28	0	359661568	48	6566
2026-01-16 16:30:52.71	6.83	18.36	-38.2	-39.3	22.2	0.00e+00	0	28	0	361758720	48	6630
2026-01-16 16:30:53.72	6.68	18.46	-38.2	-39.2	22.3	0.00e+00	0	28	0	363855872	48	6594
2026-01-16 16:30:54.73	6.53	18.56	-38.1	-39.1	22.5	0.00e+00	0	28	0	365953024	48	6483
2026-01-16 16:30:55.74	6.38	18.65	-38.1	-39.1	22.5	0.00e+00	0	28	0	368050176	48	6476
2026-01-16 16:30:56.75	6.23	18.75	-38.1	-39.1	22.3	0.00e+00	0	28	0	369098752	48	6497
2026-01-16 16:30:57.76	6.08	18.85	-37.9	-38.9	22.6	0.00e+00	0	28	0	371195904	48	6366
2026-01-16 16:30:58.77	5.92	18.95	-38.1	-39.1	22.5	0.00e+00	0	28	0	373293056	48	6484
2026-01-16 16:30:59.78	5.77	19.04	-37.9	-38.9	22.6	0.00e+00	0	28	0	375390208	48	6375
2026-01-16 16:31:00.79	5.62	19.14	-37.8	-38.9	22.6	0.00e+00	0	28	0	377487360	48	6323
2026-01-16 16:31:01.80	5.46	19.24	-38.0	-39.0	22.5	0.00e+00	0	28	0	378535936	48	6431
2026-01-16 16:31:02.80	5.30	19.34	-37.9	-38.9	22.7	0.00e+00	0	28	0	380633088	48	6379
2026-01-16 16:31:03.82	5.14	19.44	-37.8	-38.9	22.7	0.00e+00	0	28	0	382730240	48	6318
2026-01-16 16:31:04.82	4.99	19.54	-37.8	-38.8	22.7	0.00e+00	0	28	0	384827392	48	6298
2026-01-16 16:31:05.83	4.83	19.63	-37.8	-38.8	22.8	0.00e+00	0	28	0	386924544	48	6315
2026-01-16 16:31:06.84	4.67	19.73	-37.9	-38.9	22.6	0.00e+00	0	28	0	387973120	48	6352
2026-01-16 16:31:07.86	4.50	19.83	-37.8	-38.8	22.8	0.00e+00	0	28	0	390070272	48	6266
2026-01-16 16:31:08.86	4.34	19.93	-37.8	-38.7	22.8	0.00e+00	0	28	0	392167424	48	6243
2026-01-16 16:31:09.87	4.18	20.03	-37.8	-38.8	22.7	0.00e+00	0	28	0	394264576	48	6277
2026-01-16 16:31:10.88	4.01	20.13	-37.7	-38.7	22.9	0.00e+00	0	28	0	396361728	48	6185
2026-01-16 16:31:11.89	3.84	20.23	-37.6	-38.6	22.9	0.00e+00	0	28	0	397410304	48	6133
2026-01-16 16:31:12.90	3.68	20.33	-37.8	-38.7	22.8	0.00e+00	0	28	0	399507456	48	6238
2026-01-16 16:31:13.91	3.51	20.43	-37.6	-38.6	22.8	0.00e+00	0	28	0	401604608	48	6117
2026-01-16 16:31:14.92	3.34	20.53	-37.7	-38.7	22.0	0.00e+00	0	28	0	403701760	48	6203
2026-01-16 16:31:15.93	3.17	20.63	-37.5	-38.4	23.1	0.00e+00	0	28	0	405798912	48	6033
2026-01-16 16:31:16.93	2.99	20.73	-37.5	-38.5	23.0	0.00e+00	0	28	0	406847488	48	6067
2026-01-16 16:31:17.94	2.82	20.83	-37.4	-38.3	23.2	0.00e+00	0	28	0	408944640	48	5963
2026-01-16 16:31:18.95	2.65	20.93	-37.5	-38.4	23.1	0.00e+00	0	28	0	411041792	48	5995
2026-01-16 16:31:19.96	2.47	21.03	-37.3	-38.2	23.3	0.00e+00	0	28	0	413138944	48	5867
2026-01-16 16:31:20.97	2.29	21.13	-37.3	-38.2	23.3	0.00e+00	0	28	0	415236096	48	5843
2026-01-16 16:31:21.98	2.12	21.23	-37.3	-38.2	23.3	0.00e+00	0	28	0	416284672	48	5852
2026-01-16 16:31:22.99	1.94	21.33	-37.3	-38.2	23.3	0.00e+00	0	28	0	418381824	48	5875
2026-01-16 16:31:24.00	1.76	21.44	-37.4	-38.3	23.3	0.00e+00	0	28	0	420478976	48	5940
2026-01-16 16:31:25.01	1.57	21.54	-37.4	-38.4	23.2	0.00e+00	0	28	0	422576128	48	5976
2026-01-16 16:31:26.02	1.39	21.64	-37.5	-38.4	23.2	0.00e+00	0	28	0	424673280	48	6005
2026-01-16 16:31:27.03	1.21	21.74	-37.4	-38.4	23.2	0.00e+00	0	28	0	425721856	48	5974
2026-01-16 16:31:28.04	1.02	21.84	-37.3	-38.3	23.2	0.00e+00	0	28	0	427819008	48	5927
2026-01-16 16:31:29.04	0.84	21.94	-37.5	-38.5	23.1	0.00e+00	0	28	0	429916160	48	6067
2026-01-16 16:31:30.05	0.65	22.04	-37.4	-38.4	23.1	0.00e+00	0	28	0	432013312	48	5966
2026-01-16 16:31:31.06	0.46	22.14	-37.7	-38.7	23.0	0.00e+00	0	28	0	434110464	48	6188
2026-01-16 16:31:32.07	0.27	22.25	-37.6	-38.6	22.9	0.00e+00	0	28	0	436207616	48	6150
2026-01-16 16:31:33.08	0.08	22.35	-37.7	-38.7	22.9	0.00e+00	0	28	0	437256192	48	6209
2026-01-16 16:31:34.09	359.89	22.45	-37.7	-38.7	22.9	0.00e+00	0	28	0	439353344	48	6181
2026-01-16 16:31:35.11	359.69	22.55	-37.8	-38.8	22.8	0.00e+00	0	28	0	441450496	48	6254
2026-01-16 16:31:36.12	359.49	22.66	-37.9	-38.9	22.6	0.00e+00	0	28	0	443547648	48	6337
2026-01-16 16:31:37.12	359.30	22.76	-38.0	-39.0	22.6	0.00e+00	0	28	0	445644800	48	6417
2026-01-16 16:31:38.14	359.10	22.86	-38.1	-39.1	22.5	0.00e+00	0	28	0	446693376	48	6510
2026-01-16 16:31:39.15	358.90	22.96	-38.2	-39.2	22.4	0.00e+00	0	28	0	448790528	48	6602
2026-01-16 16:31:40.16	358.70	23.06	-38.1	-39.1	22.5	0.00e+00	0	28	0	450887680	48	6481
2026-01-16 16:31:41.17	358.50	23.17	-38.1	-39.1	22.5	0.00e+00	0	28	0	452984832	48	6525
2026-01-16 16:31:42.18	358.29	23.27	-38.1	-39.1	22.5	0.00e+00	0	28	0	455081984	48	6483
2026-01-16 16:31:43.19	358.09	23.37	-38.1	-39.1	22.5	0.00e+00	0	28	0	456130560	48	6526
2026-01-16 16:31:44.20	357.88	23.47	-38.1	-39.2	22.5	0.00e+00	0	28	0	458227712	48	6546
2026-01-16 16:31:45.21	357.67	23.57	-38.1	-39.1	22.6	0.00e+00	0	28	0	460324864	48	6538
2026-01-16 16:31:46.22	357.47	23.68	-38.2	-39.2	22.4	0.00e+00	0	28	0	462422016	48	6603
2026-01-16 16:31:47.23	357.26	23.78	-38.3	-39.3	22.4	0.00e+00	0	28	0	464519168	48	6678
2026-01-16 16:31:48.24	357.04	23.88	-38.3	-39.4	22.2	0.00e+00	0	28	0	465567744	48	6758
2026-01-16 16:31:49.25	356.83	23.98	-38.0	-39.1	22.6	0.00e+00	0	28	0	467664896	48	6488
2026-01-16 16:31:50.26	356.62	24.09	-38.0	-39.1	22.5	0.00e+00	0	28	0	469762048	48	6484
2026-01-16 16:31:51.27	356.40	24.19	-38.1	-39.1	22.6	0.00e+00	0	28	0	471859200	48	6486
2026-01-16 16:31:52.28	356.18	24.29	-38.0	-39.0	22.7	0.00e+00	0	28	0	473956352	48	6415
2026-01-16 16:31:53.29	355.96	24.39	-38.0	-39.0	22.6	0.00e+00	0	28	0	475004928	48	6450
2026-01-16 16:31:54.29	355.75	24.49	-38.0	-39.0	22.7	0.00e+00	0	28	0	477102080	48	6429
2026-01-16 16:31:55.30	355.52	24.59	-38.0	-39.0	22.8	0.00e+00	0	28	0	479199232	48	6424
2026-01-16 16:31:56.31	355.30	24.70	-38.0	-39.0	22.7	0.00e+00	0	28	0	481296384	48	6420
2026-01-16 16:31:57.32	355.08	24.80	-37.9	-38.9	22.7	0.00e+00	0	28	0	483393536	48	6376
2026-01-16 16:31:58.33	354.85	24.90	-38.0	-39.0	22.7	0.00e+00	0	28	0	484442112	48	6414
2026-01-16 16:31:59.34	354.62	25.00	-37.8	-38.9	22.8	0.00e+00	0	28	0	486539264	48	6324
2026-01-16 16:32:00.35	354.39	25.10	-37.7	-38.8	22.5	0.00e+00	0	28	0	488636416	48	6286
2026-01-16 16:32:01.36	354.16	25.20	-37.6	-38.6	23.0	0.00e+00	0	28	0	490733568	48	6161
2026-01-16 16:32:02.37	353.93	25.30	-37.4	-38.4	23.2	0.00e+00	0	28	0	492830720	48	6009
2026-01-16 16:32:03.37	353.70	25.40	-37.6	-38.6	23.1	0.00e+00	0	28	0	493879296	48	6141
2026-01-16 16:32:04.39	353.46	25.51	-37.3	-38.3	23.3	0.00e+00	0	28	0	495976448	48	5919
2026-01-16 16:32:05.40	353.23	25.61	-37.5	-38.4	23.2	0.00e+00	0	28	0	498073600	48	6021
2026-01-16 16:32:06.41	352.99	25.71	-37.6	-38.5	23.1	0.00e+00	0	28	0	500170752	48	6100
2026-01-16 16:32:07.42	352.75	25.81	-37.4	-38.3	23.3	0.00e+00	0	28	0	502267904	48	5925
2026-01-16 16:32:08.43	352.51	25.91	-37.4	-38.3	23.3	0.00e+00	0	28	0	504365056	48	5952
2026-01-16 16:32:09.44	352.26	26.01	-37.4	-38.3	23.3	0.00e+00	0	28	0	505413632	48	5926
2026-01-16 16:32:10.45	352.02	26.11	-37.5	-38.4	23.2	0.00e+00	0	28	0	507510784	48	5994
2026-01-16 16:32:11.45	351.78	26.21	-37.6	-38.5	23.1	0.00e+00	0	28	0	509607936	48	6099
2026-01-16 16:32:12.46	351.53	26.30	-37.5	-38.5	23.1	0.00e+00	0	28	0	511705088	48	6044
2026-01-16 16:32:13.47	351.28	26.40	-37.5	-38.6	23.2	0.00e+00	0	28	0	513802240	48	6104
2026-01-16 16:32:14.48	351.03	26.50	-37.4	-38.4	23.2	0.00e+00	0	28	0	514850816	48	6008
2026-01-16 16:32:15.49	350.78	26.60	-37.2	-38.1	23.5	0.00e+00	0	28	0	516947968	48	5816
2026-01-16 16:32:16.50	350.52	26.70	-37.2	-38.2	23.5	0.00e+00	0	28	0	519045120	48	5843
2026-01-16 16:32:17.51	350.27	26.80	-37.3	-38.3	23.4	0.00e+00	0	28	0	521142272	48	5938
2026-01-16 16:32:18.52	350.01	26.90	-37.5	-38.5	23.2	0.00e+00	0	28	0	523239424	48	6036
2026-01-16 16:32:19.53	349.75	26.99	-37.6	-38.6	23.1	0.00e+00	0	28	0	524288000	48	6128
2026-01-16 16:32:20.54	349.49	27.09	-37.8	-38.8	22.9	0.00e+00	0	28	0	526385152	48	6285
2026-01-16 16:32:21.55	349.23	27.19	-37.7	-38.6	23.1	0.00e+00	0	28	0	528482304	48	6143
2026-01-16 16:32:22.56	348.97	27.28	-37.8	-38.8	22.9	0.00e+00	0	28	0	530579456	48	6279
2026-01-16 16:32:23.57	348.70	27.38	-37.4	-38.3	23.3	0.00e+00	0	28	0	532676608	48	5933
2026-01-16 16:32:24.58	348.44	27.48	-37.5	-38.5	23.2	0.00e+00	0	28	0	533725184	48	6040
2026-01-16 16:32:25.59	348.17	27.57	-37.6	-38.6	23.1	0.00e+00	0	28	0	535822336	48	6105
2026-01-16 16:32:26.60	347.90	27.67	-37.8	-38.7	23.0	0.00e+00	0	28	0	537919488	48	6223
2026-01-16 16:32:27.61	347.63	27.76	-38.1	-39.1	22.6	0.00e+00	0	28	0	540016640	48	6496
2026-01-16 16:32:28.62	347.35	27.86	-38.3	-39.3	22.5	0.00e+00	0	28	0	542113792	48	6638
2026-01-16 16:32:29.63	347.08	27.95	-38.4	-39.4	22.4	0.00e+00	0	28	0	543162368	48	6769
2026-01-16 16:32:30.64	346.80	28.04	-38.6	-39.6	22.2	0.00e+00	0	28	0	545259520	48	6927
2026-01-16 16:32:31.65	346.53	28.14	-38.8	-39.9	22.0	0.00e+00	0	28	0	547356672	48	7107
2026-01-16 16:32:32.66	346.25	28.23	-39.0	-40.1	21.8	0.00e+00	0	28	0	549453824	50	6516
2026-01-16 16:32:33.67	345.96	28.32	-39.0	-40.1	21.7	0.00e+00	0	28	0	551550976	50	6498
2026-01-16 16:32:34.68	345.68	28.41	-39.1	-40.2	21.6	0.00e+00	0	28	0	552599552	50	6614
2026-01-16 16:32:35.69	345.40	28.50	-39.1	-40.2	21.6	0.00e+00	0	28	0	554696704	50	6564
2026-01-16 16:32:36.70	345.11	28.59	-39.1	-40.2	21.6	0.00e+00	0	28	0	556793856	50	6610
2026-01-16 16:32:37.71	344.82	28.68	-39.5	-40.7	21.2	0.00e+00	0	28	0	558891008	50	6947
2026-01-16 16:32:38.72	344.53	28.77	-39.7	-40.9	20.9	0.00e+00	0	28	0	560988160	50	7145
2026-01-16 16:32:39.73	344.24	28.86	-39.8	-41.0	21.0	0.00e+00	0	28	0	562036736	52	6434
2026-01-16 16:32:40.74	343.95	28.95	-39.6	-40.8	21.1	0.00e+00	0	28	0	564133888	52	6284
2026-01-16 16:32:41.75	343.66	29.04	-39.7	-40.9	21.0	0.00e+00	0	28	0	566231040	52	6344
2026-01-16 16:32:42.76	343.36	29.13	-39.7	-40.9	20.9	0.00e+00	0	28	0	568328192	52	6382
2026-01-16 16:32:43.77	343.06	29.21	-39.9	-41.2	20.8	0.00e+00	0	28	0	570425344	52	6543
2026-01-16 16:32:44.78	342.76	29.30	-40.0	-41.3	20.7	0.00e+00	0	28	0	572522496	52	6633
2026-01-16 16:32:45.79	342.46	29.39	-40.0	-41.2	20.7	0.00e+00	0	28	0	573571072	52	6599
2026-01-16 16:32:46.80	342.16	29.47	-40.1	-41.3	20.6	0.00e+00	0	28	0	575668224	52	6674
2026-01-16 16:32:47.80	341.86	29.55	-40.2	-41.5	20.5	0.00e+00	0	28	0	577765376	52	6806
2026-01-16 16:32:48.82	341.55	29.64	-40.5	-41.9	20.1	0.00e+00	0	28	0	579862528	52	7104
2026-01-16 16:32:49.83	341.24	29.72	-40.6	-41.9	20.1	0.00e+00	0	28	0	581959680	52	7145
2026-01-16 16:32:50.84	340.93	29.80	-40.6	-41.9	20.1	0.00e+00	0	28	0	583008256	52	7155
2026-01-16 16:32:51.85	340.62	29.89	-40.4	-41.8	20.2	0.00e+00	0	28	0	585105408	52	7027
2026-01-16 16:32:52.85	340.32	29.97	-40.3	-41.6	20.3	0.00e+00	0	28	0	587202560	52	6905
2026-01-16 16:32:53.86	340.00	30.05	-40.0	-41.3	20.5	0.00e+00	0	28	0	589299712	52	6665
2026-01-16 16:32:54.87	339.69	30.13	-39.8	-41.0	20.9	0.00e+00	0	28	0	591396864	52	6417
2026-01-16 16:32:55.88	339.37	30.20	-39.8	-41.0	21.0	0.00e+00	0	28	0	592445440	52	6400
2026-01-16 16:32:56.89	339.05	30.28	-39.6	-40.7	21.3	0.00e+00	0	28	0	594542592	52	6220
2026-01-16 16:32:57.90	338.73	30.36	-39.4	-40.5	21.3	0.00e+00	0	28	0	596639744	52	6101
2026-01-16 16:32:58.92	338.41	30.44	-39.3	-40.4	21.5	0.00e+00	0	28	0	598736896	52	6020
2026-01-16 16:32:59.93	338.08	30.51	-39.3	-40.5	21.5	0.00e+00	0	28	0	600834048	52	6065
2026-01-16 16:33:00.93	337.76	30.59	-39.5	-40.7	21.2	0.00e+00	0	28	0	601882624	52	6195
2026-01-16 16:33:01.95	337.43	30.66	-39.6	-40.8	21.1	0.00e+00	0	28	0	603979776	52	6260
2026-01-16 16:33:02.95	337.11	30.73	-39.6	-40.8	21.2	0.00e+00	0	28	0	606076928	52	6292
2026-01-16 16:33:03.96	336.78	30.80	-39.4	-40.6	21.3	0.00e+00	0	28	0	608174080	52	6131
2026-01-16 16:33:04.97	336.45	30.88	-39.5	-40.7	21.2	0.00e+00	0	28	0	610271232	52	6211
2026-01-16 16:33:05.98	336.12	30.95	-39.5	-40.7	21.2	0.00e+00	0	28	0	611319808	52	6205
2026-01-16 16:33:06.99	335.79	31.02	-39.4	-40.6	21.3	0.00e+00	0	28	0	613416960	52	6135
2026-01-16 16:33:08.00	335.45	31.08	-39.3	-40.5	21.4	0.00e+00	0	28	0	615514112	52	6066
2026-01-16 16:33:09.01	335.11	31.15	-39.3	-40.4	21.5	0.00e+00	0	28	0	617611264	52	5995
2026-01-16 16:33:10.01	334.78	31.22	-39.3	-40.5	21.4	0.00e+00	0	28	0	619708416	52	6043
2026-01-16 16:33:11.02	334.44	31.28	-39.2	-40.3	21.7	0.00e+00	0	28	0	620756992	52	5919
2026-01-16 16:33:12.04	334.10	31.35	-39.1	-40.2	21.7	0.00e+00	0	28	0	622854144	52	5843
2026-01-16 16:33:13.05	333.76	31.41	-39.2	-40.3	21.6	0.00e+00	0	28	0	624951296	52	5945
2026-01-16 16:33:14.06	333.41	31.47	-39.3	-40.4	21.5	0.00e+00	0	28	0	627048448	52	6008
2026-01-16 16:33:15.07	333.07	31.53	-39.3	-40.4	21.5	0.00e+00	0	28	0	629145600	52	6012
2026-01-16 16:33:16.07	332.73	31.59	-39.2	-40.4	21.5	0.00e+00	0	28	0	630194176	52	5969
2026-01-16 16:33:17.08	332.38	31.65	-39.2	-40.3	21.6	0.00e+00	0	28	0	632291328	52	5919
2026-01-16 16:33:18.09	332.03	31.71	-39.2	-40.3	21.5	0.00e+00	0	28	0	634388480	52	5932
2026-01-16 16:33:19.10	331.68	31.77	-39.3	-40.5	21.5	0.00e+00	0	28	0	636485632	52	6044
2026-01-16 16:33:20.11	331.33	31.83	-39.4	-40.5	21.2	0.00e+00	0	28	0	638582784	52	6090
2026-01-16 16:33:21.12	330.98	31.88	-39.4	-40.6	21.3	0.00e+00	0	28	0	640679936	52	6105
2026-01-16 16:33:22.13	330.63	31.93	-39.4	-40.6	21.3	0.00e+00	0	28	0	641728512	52	6105
2026-01-16 16:33:23.14	330.27	31.99	-39.4	-40.5	21.4	0.00e+00	0	28	0	643825664	52	6094
2026-01-16 16:33:24.15	329.92	32.04	-39.1	-40.2	21.6	0.00e+00	0	28	0	645922816	52	5889
2026-01-16 16:33:25.16	329.56	32.09	-39.1	-40.2	21.7	0.00e+00	0	28	0	648019968	52	5886
2026-01-16 16:33:26.17	329.20	32.14	-38.9	-40.0	21.9	0.00e+00	0	28	0	650117120	52	5741
2026-01-16 16:33:27.18	328.84	32.19	-38.9	-39.9	21.9	0.00e+00	0	28	0	651165696	52	5679
2026-01-16 16:33:28.19	328.48	32.23	-38.9	-40.0	21.8	0.00e+00	0	28	0	653262848	52	5738
2026-01-16 16:33:29.20	328.12	32.28	-39.1	-40.2	21.8	0.00e+00	0	28	0	655360000	52	5846
2026-01-16 16:33:30.20	327.77	32.32	-38.4	-39.5	22.3	0.00e+00	0	28	0	657457152	50	6046
2026-01-16 16:33:31.21	327.40	32.37	-38.6	-39.6	22.2	0.00e+00	0	28	0	659554304	50	6173
2026-01-16 16:33:32.22	327.04	32.41	-38.7	-39.8	22.1	0.00e+00	0	28	0	660602880	50	6287
2026-01-16 16:33:33.23	326.67	32.45	-38.6	-39.6	22.3	0.00e+00	0	28	0	662700032	50	6133
2026-01-16 16:33:34.24	326.31	32.49	-38.7	-39.7	22.2	0.00e+00	0	28	0	664797184	50	6219
2026-01-16 16:33:35.25	325.94	32.53	-38.4	-39.4	22.4	0.00e+00	0	28	0	666894336	50	6033
2026-01-16 16:33:36.26	325.57	32.56	-38.4	-39.4	22.2	0.00e+00	0	28	0	668991488	50	6031
2026-01-16 16:33:37.27	325.21	32.60	-38.1	-39.1	22.7	0.00e+00	0	28	0	670040064	50	5795
2026-01-16 16:33:38.28	324.84	32.63	-37.7	-38.7	23.1	0.00e+00	0	28	0	672137216	48	6179
2026-01-16 16:33:39.29	324.47	32.66	-37.7	-38.7	23.0	0.00e+00	0	28	0	674234368	48	6185
2026-01-16 16:33:40.30	324.10	32.70	-37.6	-38.5	23.2	0.00e+00	0	28	0	676331520	48	6076
2026-01-16 16:33:41.31	323.73	32.73	-37.6	-38.5	23.2	0.00e+00	0	28	0	678428672	48	6089
2026-01-16 16:33:42.32	323.35	32.76	-37.7	-38.6	23.1	0.00e+00	0	28	0	679477248	48	6141
2026-01-16 16:33:43.32	322.99	32.78	-37.7	-38.7	23.1	0.00e+00	0	28	0	681574400	48	6199
2026-01-16 16:33:44.33	322.61	32.81	-37.9	-38.8	22.9	0.00e+00	0	28	0	683671552	48	6309
2026-01-16 16:33:45.34	322.24	32.83	-38.1	-39.1	22.7	0.00e+00	0	28	0	685768704	48	6465
2026-01-16 16:33:46.35	321.86	32.86	-38.2	-39.2	22.6	0.00e+00	0	28	0	687865856	48	6594
2026-01-16 16:33:47.36	321.49	32.88	-38.3	-39.4	22.4	0.00e+00	0	28	0	688914432	48	6707
2026-01-16 16:33:48.37	321.11	32.90	-38.3	-39.3	22.4	0.00e+00	0	28	0	691011584	48	6691
2026-01-16 16:33:49.38	320.74	32.92	-38.5	-39.6	22.3	0.00e+00	0	28	0	693108736	48	6857
2026-01-16 16:33:50.39	320.36	32.94	-38.3	-39.3	22.5	0.00e+00	0	28	0	695205888	48	6659
2026-01-16 16:33:51.40	319.98	32.95	-38.5	-39.5	22.4	0.00e+00	0	28	0	697303040	48	6796
2026-01-16 16:33:52.41	319.61	32.97	-38.6	-39.6	22.2	0.00e+00	0	28	0	698351616	48	6897
2026-01-16 16:33:53.42	319.23	32.98	-38.7	-39.8	22.0	0.00e+00	0	28	0	700448768	50	6279
2026-01-16 16:33:54.43	318.85	33.00	-39.0	-40.1	21.8	0.00e+00	0	28	0	702545920	50	6520
2026-01-16 16:33:55.44	318.47	33.01	-39.1	-40.2	21.7	0.00e+00	0	28	0	704643072	50	6572
2026-01-16 16:33:56.44	318.10	33.02	-39.3	-40.4	21.6	0.00e+00	0	28	0	706740224	50	6753
2026-01-16 16:33:57.46	317.72	33.02	-39.2	-40.2	21.7	0.00e+00	0	28	0	708837376	50	6613
2026-01-16 16:33:58.47	317.34	33.03	-39.1	-40.2	21.6	0.00e+00	0	28	0	709885952	50	6574
2026-01-16 16:33:59.47	316.96	33.04	-39.3	-40.4	21.6	0.00e+00	0	27	0	711983104	50	6703
2026-01-16 16:34:00.48	316.59	33.04	-39.0	-40.1	21.8	0.00e+00	0	28	0	714080256	50	6486
2026-01-16 16:34:01.49	316.21	33.04	-39.0	-40.1	21.8	0.00e+00	0	28	0	716177408	50	6499
2026-01-16 16:34:02.50	315.83	33.04	-39.1	-40.2	21.7	0.00e+00	0	28	0	718274560	50	6611
2026-01-16 16:34:03.51	315.45	33.04	-39.2	-40.3	21.6	0.00e+00	0	28	0	719323136	50	6692
2026-01-16 16:34:04.52	315.07	33.04	-39.4	-40.5	21.4	0.00e+00	0	28	0	721420288	50	6799
2026-01-16 16:34:05.53	314.69	33.04	-39.3	-40.4	21.4	0.00e+00	0	28	0	723517440	50	6766
2026-01-16 16:34:06.54	314.31	33.03	-39.1	-40.2	21.7	0.00e+00	0	28	0	725614592	50	6613
2026-01-16 16:34:07.55	313.93	33.03	-39.1	-40.3	21.6	0.00e+00	0	28	0	727711744	50	6624
2026-01-16 16:34:08.56	313.55	33.02	-38.8	-39.9	22.0	0.00e+00	0	28	0	728760320	50	6350
2026-01-16 16:34:09.57	313.18	33.01	-38.7	-39.7	22.2	0.00e+00	0	28	0	730857472	50	6201
2026-01-16 16:34:10.58	312.80	33.00	-38.7	-39.7	22.1	0.00e+00	0	28	0	732954624	50	6225
2026-01-16 16:34:11.59	312.42	32.99	-38.7	-39.7	22.2	0.00e+00	0	28	0	735051776	50	6204
2026-01-16 16:34:12.60	312.04	32.98	-38.8	-39.9	21.9	0.00e+00	0	28	0	737148928	50	6354
2026-01-16 16:34:13.61	311.66	32.96	-39.1	-40.2	21.8	0.00e+00	0	28	0	738197504	50	6578
2026-01-16 16:34:14.62	311.29	32.94	-39.2	-40.4	21.6	0.00e+00	0	28	0	740294656	50	6708
2026-01-16 16:34:15.62	310.91	32.93	-39.1	-40.2	21.8	0.00e+00	0	28	0	742391808	50	6550
2026-01-16 16:34:16.64	310.53	32.91	-39.2	-40.3	21.6	0.00e+00	0	27	0	744488960	50	6645
2026-01-16 16:34:17.64	310.16	32.89	-39.2	-40.3	21.6	0.00e+00	0	28	0	746586112	50	6688
2026-01-16 16:34:18.65	309.79	32.87	-39.3	-40.4	21.5	0.00e+00	0	28	0	747634688	50	6723
2026-01-16 16:34:19.66	309.41	32.84	-39.4	-40.6	21.3	0.00e+00	0	28	0	749731840	50	6863
2026-01-16 16:34:20.67	309.04	32.82	-39.4	-40.6	21.5	0.00e+00	0	28	0	751828992	50	6854
2026-01-16 16:34:21.68	308.66	32.79	-39.3	-40.4	21.5	0.00e+00	0	28	0	753926144	50	6758
2026-01-16 16:34:22.69	308.29	32.77	-39.5	-40.6	21.3	0.00e+00	0	27	0	756023296	50	6899
2026-01-16 16:34:23.71	307.92	32.74	-39.5	-40.7	21.2	0.00e+00	0	27	0	757071872	50	6959
2026-01-16 16:34:24.71	307.55	32.71	-39.6	-40.7	21.3	0.00e+00	0	28	0	759169024	50	6976
2026-01-16 16:34:25.72	307.18	32.68	-39.5	-40.6	21.3	0.00e+00	0	28	0	761266176	50	6917
2026-01-16 16:34:26.73	306.81	32.65	-39.3	-40.4	21.5	0.00e+00	0	28	0	763363328	50	6732
2026-01-16 16:34:27.74	306.44	32.61	-39.2	-40.3	21.7	0.00e+00	0	28	0	765460480	50	6675
2026-01-16 16:34:28.75	306.07	32.58	-39.0	-40.0	21.9	0.00e+00	0	28	0	766509056	50	6454
2026-01-16 16:34:29.76	305.70	32.54	-38.9	-39.9	21.9	0.00e+00	0	28	0	768606208	50	6378
2026-01-16 16:34:30.77	305.33	32.50	-38.7	-39.8	22.1	0.00e+00	0	28	0	770703360	50	6253
2026-01-16 16:34:31.78	304.97	32.46	-38.9	-39.9	22.0	0.00e+00	0	28	0	772800512	50	6378
2026-01-16 16:34:32.79	304.60	32.42	-38.9	-39.9	22.0	0.00e+00	0	28	0	774897664	50	6371
2026-01-16 16:34:33.80	304.24	32.38	-39.0	-40.1	21.8	0.00e+00	0	28	0	776994816	50	6493
2026-01-16 16:34:34.81	303.87	32.34	-39.2	-40.3	21.7	0.00e+00	0	28	0	778043392	50	6638
2026-01-16 16:34:35.82	303.51	32.30	-39.5	-40.6	21.3	0.00e+00	0	28	0	780140544	50	6921
2026-01-16 16:34:36.83	303.15	32.25	-39.6	-40.8	21.2	0.00e+00	0	28	0	782237696	50	7065
2026-01-16 16:34:37.84	302.79	32.21	-39.8	-41.0	20.9	0.00e+00	0	28	0	784334848	52	6432
2026-01-16 16:34:38.85	302.43	32.16	-39.7	-40.9	21.1	0.00e+00	0	28	0	786432000	52	6370
2026-01-16 16:34:39.86	302.07	32.11	-39.7	-40.9	21.2	0.00e+00	0	28	0	787480576	52	6323
2026-01-16 16:34:40.87	301.71	32.06	-39.5	-40.6	21.4	0.00e+00	0	28	0	789577728	52	6132
2026-01-16 16:34:41.87	301.36	32.01	-39.5	-40.6	21.4	0.00e+00	0	27	0	791674880	52	6158
2026-01-16 16:34:42.88	301.00	31.96	-39.1	-40.2	21.8	0.00e+00	0	27	0	793772032	52	5843
2026-01-16 16:34:43.89	300.65	31.90	-39.1	-40.2	21.7	0.00e+00	0	27	0	795869184	52	5884
2026-01-16 16:34:44.90	300.30	31.85	-39.3	-40.4	21.6	0.00e+00	0	28	0	796917760	52	5998
2026-01-16 16:34:45.91	299.95	31.79	-39.6	-40.8	21.2	0.00e+00	0	28	0	799014912	52	6267
2026-01-16 16:34:46.92	299.59	31.74	-39.8	-41.0	21.0	0.00e+00	0	28	0	801112064	52	6447
2026-01-16 16:34:47.93	299.25	31.68	-40.0	-41.3	20.7	0.00e+00	0	27	0	803209216	52	6634
2026-01-16 16:34:48.94	298.90	31.62	-40.0	-41.2	20.8	0.00e+00	0	28	0	805306368	52	6576
2026-01-16 16:34:49.95	298.55	31.56	-39.9	-41.1	20.9	0.00e+00	0	28	0	806354944	52	6495
2026-01-16 16:34:50.96	298.21	31.50	-39.8	-41.0	21.0	0.00e+00	0	27	0	808452096	52	6409
2026-01-16 16:34:51.97	297.86	31.44	-39.4	-40.5	21.4	0.00e+00	0	27	0	810549248	52	6091
2026-01-16 16:34:52.98	297.52	31.37	-39.2	-40.3	21.7	0.00e+00	0	27	0	812646400	52	5916
2026-01-16 16:34:53.99	297.18	31.31	-39.1	-40.2	21.7	0.00e+00	0	28	0	814743552	52	5838
2026-01-16 16:34:55.00	296.84	31.24	-39.2	-40.3	21.6	0.00e+00	0	27	0	815792128	52	5931
2026-01-16 16:34:56.01	296.50	31.18	-39.5	-40.7	21.3	0.00e+00	0	27	0	817889280	52	6200
2026-01-16 16:34:57.02	296.16	31.11	-39.9	-41.1	20.9	0.00e+00	0	28	0	819986432	52	6493
2026-01-16 16:34:58.03	295.83	31.04	-39.9	-41.1	20.9	0.00e+00	0	28	0	822083584	52	6492
2026-01-16 16:34:59.03	295.50	30.97	-39.9	-41.1	20.9	0.00e+00	0	27	0	824180736	52	6496
2026-01-16 16:35:00.04	295.16	30.90	-39.8	-41.0	21.1	0.00e+00	0	27	0	825229312	52	6411
2026-01-16 16:35:01.03	294.84	30.83	-39.8	-41.0	20.9	0.00e+00	0	28	0	827326464	52	6451
2026-01-16 16:35:02.04	294.51	30.76	-39.5	-40.7	21.2	0.00e+00	0	27	0	829423616	52	6190
2026-01-16 16:35:03.05	294.18	30.69	-39.5	-40.6	21.3	0.00e+00	0	28	0	831520768	52	6131
2026-01-16 16:35:04.06	293.85	30.62	-39.4	-40.6	21.3	0.00e+00	0	27	0	833617920	52	6128
2026-01-16 16:35:05.07	293.53	30.54	-39.7	-40.9	21.0	0.00e+00	0	28	0	834666496	52	6348
2026-01-16 16:35:06.08	293.20	30.47	-39.7	-40.9	21.1	0.00e+00	0	27	0	836763648	52	6340
2026-01-16 16:35:07.09	292.88	30.39	-39.6	-40.8	21.2	0.00e+00	0	27	0	838860800	52	6291
2026-01-16 16:35:08.11	292.55	30.31	-39.5	-40.7	21.3	0.00e+00	0	27	0	840957952	52	6199
2026-01-16 16:35:09.12	292.24	30.23	-39.6	-40.8	21.2	0.00e+00	0	27	0	843055104	52	6279
2026-01-16 16:35:10.13	291.92	30.16	-39.5	-40.7	21.3	0.00e+00	0	28	0	844103680	52	6200
2026-01-16 16:35:11.14	291.60	30.08	-39.6	-40.8	21.2	0.00e+00	0	28	0	846200832	52	6264
2026-01-16 16:35:12.15	291.29	30.00	-39.7	-40.9	21.0	0.00e+00	0	28	0	848297984	52	6343
2026-01-16 16:35:13.15	290.98	29.92	-39.5	-40.6	21.3	0.00e+00	0	27	0	850395136	52	6168
2026-01-16 16:35:14.16	290.66	29.84	-39.3	-40.4	21.5	0.00e+00	0	27	0	852492288	52	6032
2026-01-16 16:35:15.18	290.35	29.75	-39.2	-40.3	21.6	0.00e+00	0	27	0	853540864	52	5958
2026-01-16 16:35:16.19	290.04	29.67	-39.0	-40.1	21.8	0.00e+00	0	27	0	855638016	52	5813
2026-01-16 16:35:17.20	289.74	29.59	-39.1	-40.2	21.7	0.00e+00	0	27	0	857735168	52	5846
2026-01-16 16:35:18.21	289.43	29.50	-39.2	-40.3	21.6	0.00e+00	0	27	0	859832320	52	5934
2026-01-16 16:35:19.22	289.13	29.42	-39.2	-40.3	21.6	0.00e+00	0	28	0	861929472	52	5926
2026-01-16 16:35:20.23	288.82	29.33	-39.3	-40.4	21.5	0.00e+00	0	27	0	862978048	52	5974
2026-01-16 16:35:21.24	288.52	29.25	-39.2	-40.3	21.7	0.00e+00	0	27	0	865075200	52	5904
2026-01-16 16:35:22.25	288.22	29.16	-39.1	-40.2	21.7	0.00e+00	0	27	0	867172352	52	5886
2026-01-16 16:35:23.26	287.93	29.07	-39.0	-40.1	21.8	0.00e+00	0	27	0	869269504	52	5798
2026-01-16 16:35:24.27	287.63	28.98	-39.1	-40.2	21.7	0.00e+00	0	27	0	871366656	52	5893
2026-01-16 16:35:25.28	287.34	28.89	-38.9	-40.0	22.0	0.00e+00	0	27	0	873463808	52	5752
2026-01-16 16:35:26.29	287.05	28.81	-39.1	-40.2	21.7	0.00e+00	0	27	0	874512384	52	5853
2026-01-16 16:35:27.29	286.76	28.72	-39.2	-40.3	21.6	0.00e+00	0	27	0	876609536	52	5930
2026-01-16 16:35:28.30	286.47	28.63	-39.2	-40.3	21.7	0.00e+00	0	27	0	878706688	52	5948
2026-01-16 16:35:29.32	286.18	28.53	-39.3	-40.4	21.4	0.00e+00	0	27	0	880803840	52	6028
2026-01-16 16:35:30.32	285.90	28.44	-39.2	-40.3	21.6	0.00e+00	0	27	0	882900992	52	5916
2026-01-16 16:35:31.33	285.61	28.35	-39.1	-40.2	21.6	0.00e+00	0	27	0	883949568	52	5892
2026-01-16 16:35:32.34	285.33	28.26	-38.9	-40.0	21.9	0.00e+00	0	27	0	886046720	52	5707
2026-01-16 16:35:33.35	285.05	28.17	-38.7	-39.8	22.1	0.00e+00	0	27	0	888143872	52	5592
2026-01-16 16:35:34.36	284.77	28.07	-38.5	-39.6	22.2	0.00e+00	0	27	0	890241024	50	6105
2026-01-16 16:35:35.37	284.49	27.98	-38.5	-39.5	22.2	0.00e+00	0	27	0	892338176	50	6097
2026-01-16 16:35:36.38	284.21	27.89	-38.6	-39.6	22.1	0.00e+00	0	27	0	893386752	50	6153
2026-01-16 16:35:37.39	283.94	27.79	-38.3	-39.3	22.5	0.00e+00	0	27	0	895483904	50	5945
2026-01-16 16:35:38.40	283.67	27.70	-38.2	-39.2	22.5	0.00e+00	0	27	0	897581056	50	5872
2026-01-16 16:35:39.41	283.40	27.60	-38.2	-39.2	22.5	0.00e+00	0	27	0	899678208	50	5878
2026-01-16 16:35:40.42	283.13	27.51	-38.5	-39.6	22.3	0.00e+00	0	27	0	901775360	50	6110
2026-01-16 16:35:41.42	282.86	27.41	-38.6	-39.6	22.1	0.00e+00	0	27	0	902823936	50	6162
2026-01-16 16:35:42.43	282.60	27.32	-38.4	-39.4	22.4	0.00e+00	0	27	0	904921088	50	6020
2026-01-16 16:35:43.44	282.33	27.22	-38.3	-39.3	22.4	0.00e+00	0	27	0	907018240	50	5937
2026-01-16 16:35:44.45	282.07	27.12	-38.4	-39.5	22.3	0.00e+00	0	27	0	909115392	50	6050
2026-01-16 16:35:45.46	281.81	27.03	-38.1	-39.1	22.6	0.00e+00	0	27	0	911212544	50	5779
2026-01-16 16:35:46.47	281.55	26.93	-38.1	-39.1	22.7	0.00e+00	0	27	0	912261120	50	5812
2026-01-16 16:35:47.48	281.29	26.83	-38.1	-39.1	22.7	0.00e+00	0	27	0	914358272	50	5780
2026-01-16 16:35:48.49	281.03	26.73	-38.1	-39.1	22.7	0.00e+00	0	27	0	916455424	50	5774
2026-01-16 16:35:49.50	280.78	26.63	-37.8	-38.7	22.9	0.00e+00	0	27	0	918552576	50	5555
2026-01-16 16:35:50.51	280.52	26.53	-37.7	-38.6	23.0	0.00e+00	0	27	0	920649728	48	6154
2026-01-16 16:35:51.52	280.27	26.44	-37.5	-38.5	23.2	0.00e+00	0	27	0	921698304	48	6041
2026-01-16 16:35:52.53	280.02	26.34	-37.3	-38.2	23.4	0.00e+00	0	27	0	923795456	48	5882
2026-01-16 16:35:53.54	279.77	26.24	-37.2	-38.1	23.4	0.00e+00	0	27	0	925892608	48	5816
2026-01-16 16:35:54.55	279.52	26.14	-37.0	-37.9	23.7	0.00e+00	0	27	0	927989760	48	5664
2026-01-16 16:35:55.56	279.28	26.04	-36.9	-37.8	23.8	0.00e+00	0	27	0	930086912	48	5611
2026-01-16 16:35:56.57	279.03	25.94	-36.8	-37.7	23.8	0.00e+00	0	27	0	931135488	48	5552
2026-01-16 16:35:57.58	278.79	25.84	-36.8	-37.7	23.9	0.00e+00	0	27	0	933232640	46	6218
2026-01-16 16:35:58.59	278.55	25.74	-36.5	-37.4	24.2	0.00e+00	0	27	0	935329792	46	5993
2026-01-16 16:35:59.60	278.31	25.64	-36.4	-37.3	24.2	0.00e+00	0	27	0	937426944	46	5906
2026-01-16 16:36:00.61	278.07	25.53	-36.5	-37.4	24.2	0.00e+00	0	27	0	939524096	46	5976
2026-01-16 16:36:01.62	277.84	25.43	-36.1	-36.9	24.6	0.00e+00	0	27	0	941621248	46	5665
2026-01-16 16:36:02.63	277.60	25.33	-36.1	-36.9	24.6	0.00e+00	0	27	0	942669824	46	5659
2026-01-16 16:36:03.62	277.37	25.23	-36.1	-36.9	24.5	0.00e+00	0	27	0	944766976	46	5638
2026-01-16 16:36:04.63	277.14	25.13	-36.1	-36.9	24.5	0.00e+00	0	27	0	946864128	46	5648
2026-01-16 16:36:05.64	276.91	25.03	-35.8	-36.6	24.8	0.00e+00	0	27	0	948961280	46	5463
2026-01-16 16:36:06.65	276.68	24.93	-35.7	-36.5	24.8	0.00e+00	0	27	0	951058432	44	6090
2026-01-16 16:36:07.66	276.45	24.83	-35.7	-36.5	24.8	0.00e+00	0	27	0	952107008	44	6050
2026-01-16 16:36:08.67	276.23	24.72	-35.7	-36.5	24.7	0.00e+00	0	27	0	954204160	44	6053
2026-01-16 16:36:09.68	276.00	24.62	-35.9	-36.7	24.8	0.00e+00	0	27	0	956301312	44	6189
2026-01-16 16:36:10.69	275.78	24.52	-35.6	-36.4	24.9	0.00e+00	0	27	0	958398464	44	5967
2026-01-16 16:36:11.70	275.56	24.42	-35.7	-36.5	24.8	0.00e+00	0	27	0	960495616	44	6085
2026-01-16 16:36:12.71	275.34	24.32	-35.7	-36.5	24.8	0.00e+00	0	27	0	961544192	44	6103
2026-01-16 16:36:13.72	275.12	24.21	-35.5	-36.3	24.9	0.00e+00	0	27	0	963641344	44	5945
2026-01-16 16:36:14.73	274.90	24.11	-35.5	-36.3	24.9	0.00e+00	0	27	0	965738496	44	5931
2026-01-16 16:36:15.74	274.69	24.01	-35.4	-36.2	25.1	0.00e+00	0	27	0	967835648	44	5841
2026-01-16 16:36:16.75	274.47	23.91	-35.2	-36.0	25.2	0.00e+00	0	27	0	969932800	44	5733
2026-01-16 16:36:17.76	274.26	23.80	-35.2	-35.9	25.3	0.00e+00	0	27	0	970981376	44	5679
2026-01-16 16:36:18.77	274.05	23.70	-35.1	-35.9	25.3	0.00e+00	0	27	0	973078528	44	5633
2026-01-16 16:36:19.78	273.84	23.60	-35.0	-35.8	25.4	0.00e+00	0	27	0	975175680	44	5583
2026-01-16 16:36:20.79	273.63	23.50	-35.1	-35.8	25.4	0.00e+00	0	27	0	977272832	44	5623
2026-01-16 16:36:21.80	273.42	23.39	-35.0	-35.8	25.5	0.00e+00	0	27	0	979369984	44	5580
2026-01-16 16:36:22.81	273.22	23.29	-35.1	-35.9	25.2	0.00e+00	0	27	0	980418560	44	5661
2026-01-16 16:36:23.82	273.01	23.19	-35.1	-35.8	25.4	0.00e+00	0	27	0	982515712	44	5630
2026-01-16 16:36:24.82	272.81	23.09	-35.1	-35.8	25.3	0.00e+00	0	27	0	984612864	44	5616
2026-01-16 16:36:25.83	272.61	22.99	-35.1	-35.8	25.4	0.00e+00	0	27	0	986710016	44	5628
2026-01-16 16:36:26.84	272.41	22.88	-35.2	-36.0	25.1	0.00e+00	0	27	0	988807168	44	5724
2026-01-16 16:36:27.85	272.21	22.78	-35.1	-35.8	25.4	0.00e+00	0	27	0	989855744	44	5630
2026-01-16 16:36:28.86	272.01	22.68	-35.3	-36.1	25.1	0.00e+00	0	27	0	991952896	44	5803
2026-01-16 16:36:29.87	271.81	22.58	-35.3	-36.1	25.2	0.00e+00	0	27	0	994050048	44	5772
2026-01-16 16:36:30.88	271.62	22.47	-35.5	-36.3	25.0	0.00e+00	0	27	0	996147200	44	5915
2026-01-16 16:36:31.89	271.42	22.37	-35.6	-36.4	24.9	0.00e+00	0	27	0	998244352	44	5978
2026-01-16 16:36:32.89	271.23	22.27	-35.6	-36.4	24.8	0.00e+00	0	27	0	999292928	44	6032
2026-01-16 16:36:33.90	271.04	22.17	-35.7	-36.6	24.7	0.00e+00	0	27	0	1001390080	44	6107
2026-01-16 16:36:34.91	270.85	22.07	-35.8	-36.6	24.6	0.00e+00	0	27	0	1003487232	44	6124
2026-01-16 16:36:35.92	270.66	21.96	-35.9	-36.7	24.6	0.00e+00	0	27	0	1005584384	44	6222
2026-01-16 16:36:36.93	270.47	21.86	-35.7	-36.5	24.8	0.00e+00	0	27	0	1007681536	44	6068
2026-01-16 16:36:37.94	270.29	21.76	-35.7	-36.5	24.7	0.00e+00	0	27	0	1009778688	44	6101
2026-01-16 16:36:38.95	270.10	21.66	-35.6	-36.4	24.9	0.00e+00	0	27	0	1010827264	44	5974
2026-01-16 16:36:39.96	269.92	21.56	-35.6	-36.4	24.8	0.00e+00	0	27	0	1012924416	44	6001
2026-01-16 16:36:40.97	269.73	21.46	-35.6	-36.4	24.8	0.00e+00	0	27	0	1015021568	44	6015
2026-01-16 16:36:41.98	269.55	21.35	-35.8	-36.6	24.6	0.00e+00	0	27	0	1017118720	44	6171
2026-01-16 16:36:42.99	269.37	21.25	-36.1	-36.9	24.5	0.00e+00	0	27	0	1019215872	44	6359
2026-01-16 16:36:44.00	269.19	21.15	-36.0	-36.9	24.5	0.00e+00	0	27	0	1020264448	44	6326
2026-01-16 16:36:45.01	269.01	21.05	-36.1	-36.9	24.5	0.00e+00	0	27	0	1022361600	44	6358
2026-01-16 16:36:46.02	268.84	20.95	-36.2	-37.0	24.4	0.00e+00	0	27	0	1024458752	44	6438
2026-01-16 16:36:47.03	268.66	20.85	-36.2	-37.1	24.3	0.00e+00	0	27	0	1026555904	44	6491
2026-01-16 16:36:48.03	268.49	20.75	-36.3	-37.1	24.3	0.00e+00	0	27	0	1028653056	44	6524
2026-01-16 16:36:49.04	268.32	20.65	-36.4	-37.3	24.2	0.00e+00	0	27	0	1029701632	44	6645
2026-01-16 16:36:50.05	268.14	20.55	-36.3	-37.2	24.2	0.00e+00	0	27	0	1031798784	44	6564
2026-01-16 16:36:51.06	267.97	20.45	-36.4	-37.2	24.1	0.00e+00	0	27	0	1033895936	44	6581
2026-01-16 16:36:52.07	267.80	20.35	-36.2	-37.1	24.3	0.00e+00	0	27	0	1035993088	44	6484
2026-01-16 16:36:53.08	267.63	20.25	-36.4	-37.3	24.2	0.00e+00	0	27	0	1038090240	44	6640
2026-01-16 16:36:54.09	267.47	20.15	-36.5	-37.3	24.1	0.00e+00	0	27	0	1039138816	44	6668
2026-01-16 16:36:55.10	267.30	20.05	-36.4	-37.3	24.1	0.00e+00	0	27	0	1041235968	44	6655
2026-01-16 16:36:56.11	267.13	19.95	-36.6	-37.4	23.9	0.00e+00	0	27	0	1043333120	44	6743
2026-01-16 16:36:57.12	266.97	19.85	-36.7	-37.6	23.8	0.00e+00	0	27	0	1045430272	44	6876
2026-01-16 16:36:58.13	266.80	19.75	-36.6	-37.5	24.0	0.00e+00	0	27	0	1047527424	46	6071
2026-01-16 16:36:59.14	266.64	19.65	-36.7	-37.6	23.9	0.00e+00	0	27	0	1048576000	46	6110
2026-01-16 16:37:00.15	266.48	19.55	-36.6	-37.5	23.9	0.00e+00	0	27	0	1050673152	46	6055
2026-01-16 16:37:01.15	266.32	19.45	-36.7	-37.6	23.9	0.00e+00	0	27	0	1052770304	46	6114
2026-01-16 16:37:02.16	266.16	19.35	-36.7	-37.6	23.9	0.00e+00	0	27	0	1054867456	46	6108
2026-01-16 16:37:03.17	266.01	19.25	-36.6	-37.5	24.0	0.00e+00	0	27	0	1056964608	46	6063
2026-01-16 16:37:04.18	265.85	19.15	-36.7	-37.6	23.8	0.00e+00	0	27	0	1058013184	46	6138
2026-01-16 16:37:05.19	265.69	19.06	-36.7	-37.6	23.8	0.00e+00	0	27	0	1060110336	46	6156
2026-01-16 16:37:06.20	265.54	18.96	-36.8	-37.7	23.7	0.00e+00	0	27	0	1062207488	46	6226
2026-01-16 16:37:07.21	265.38	18.86	-36.9	-37.8	23.7	0.00e+00	0	27	0	1064304640	46	6269
2026-01-16 16:37:08.22	265.23	18.76	-36.9	-37.8	23.7	0.00e+00	0	27	0	1066401792	46	6271
2026-01-16 16:37:09.23	265.08	18.66	-36.9	-37.8	23.7	0.00e+00	0	27	0	1067450368	46	6273
2026-01-16 16:37:10.24	264.93	18.57	-37.1	-38.0	23.4	0.00e+00	0	27	0	1069547520	46	6408
2026-01-16 16:37:11.25	264.78	18.47	-37.0	-37.9	23.5	0.00e+00	0	27	0	1071644672	46	6383
2026-01-16 16:37:12.26	264.63	18.37	-37.1	-37.9	23.5	0.00e+00	0	27	0	1073741824	46	6389
2026-01-16 16:37:13.26	264.48	18.28	-37.2	-38.1	23.2	0.00e+00	0	27	0	1075838976	46	6532
2026-01-16 16:37:14.27	264.33	18.18	-37.3	-38.2	23.4	0.00e+00	0	27	0	1077936128	46	6547
2026-01-16 16:37:15.28	264.19	18.08	-37.3	-38.2	23.3	0.00e+00	0	27	0	1078984704	46	6565
2026-01-16 16:37:16.29	264.04	17.99	-37.5	-38.4	23.1	0.00e+00	0	27	0	1081081856	46	6728
2026-01-16 16:37:17.30	263.90	17.89	-37.3	-38.3	23.3	0.00e+00	0	27	0	1083179008	46	6633
2026-01-16 16:37:18.31	263.75	17.79	-37.5	-38.4	23.2	0.00e+00	0	27	0	1085276160	46	6749
2026-01-16 16:37:19.32	263.61	17.70	-37.5	-38.4	23.1	0.00e+00	0	27	0	1087373312	46	6732
2026-01-16 16:37:20.33	263.47	17.60	-37.5	-38.5	23.0	0.00e+00	0	27	0	1088421888	46	6798
2026-01-16 16:37:21.35	263.33	17.51	-37.8	-38.7	22.8	0.00e+00	0	27	0	1090519040	46	6998
2026-01-16 16:37:22.35	263.19	17.41	-37.7	-38.7	22.9	0.00e+00	0	27	0	1092616192	48	6176
2026-01-16 16:37:23.36	263.05	17.32	-37.8	-38.8	22.8	0.00e+00	0	27	0	1094713344	48	6266
2026-01-16 16:37:24.37	262.91	17.22	-37.7	-38.7	22.8	0.00e+00	0	27	0	1096810496	48	6208
2026-01-16 16:37:25.38	262.77	17.13	-37.9	-38.9	22.7	0.00e+00	0	27	0	1097859072	48	6327
2026-01-16 16:37:26.39	262.64	17.03	-38.0	-39.0	22.6	0.00e+00	0	27	0	1099956224	48	6419
2026-01-16 16:37:27.40	262.50	16.94	-38.0	-39.0	22.6	0.00e+00	0	27	0	1102053376	48	6395
2026-01-16 16:37:28.41	262.37	16.84	-37.9	-38.9	22.6	0.00e+00	0	27	0	1104150528	48	6358
2026-01-16 16:37:29.42	262.23	16.75	-38.1	-39.1	22.4	0.00e+00	0	27	0	1106247680	48	6536
2026-01-16 16:37:30.43	262.10	16.66	-37.9	-38.9	22.6	0.00e+00	0	27	0	1107296256	48	6358
2026-01-16 16:37:31.44	261.97	16.56	-37.9	-38.9	22.6	0.00e+00	0	27	0	1109393408	48	6364
2026-01-16 16:37:32.45	261.84	16.47	-38.0	-39.0	22.6	0.00e+00	0	27	0	1111490560	48	6398
2026-01-16 16:37:33.46	261.71	16.38	-38.1	-39.1	22.3	0.00e+00	0	27	0	1113587712	48	6514
2026-01-16 16:37:34.47	261.58	16.28	-38.0	-39.0	22.5	0.00e+00	0	27	0	1115684864	48	6402
2026-01-16 16:37:35.48	261.45	16.19	-38.1	-39.1	22.4	0.00e+00	0	27	0	1116733440	48	6528
2026-01-16 16:37:36.49	261.32	16.10	-37.8	-38.8	22.6	0.00e+00	0	27	0	1118830592	48	6304
2026-01-16 16:37:37.50	261.19	16.01	-37.9	-38.9	22.6	0.00e+00	0	27	0	1120927744	48	6337
2026-01-16 16:37:38.51	261.07	15.91	-37.9	-38.9	22.6	0.00e+00	0	27	0	1123024896	48	6341
2026-01-16 16:37:39.52	260.94	15.82	-38.0	-39.1	22.4	0.00e+00	0	27	0	1125122048	48	6480
2026-01-16 16:37:40.53	260.82	15.73	-38.0	-39.0	22.4	0.00e+00	0	27	0	1126170624	48	6450
2026-01-16 16:37:41.54	260.69	15.64	-38.0	-39.0	22.4	0.00e+00	0	27	0	1128267776	48	6427
2026-01-16 16:37:42.54	260.57	15.55	-38.1	-39.1	22.3	0.00e+00	0	27	0	1130364928	48	6520
2026-01-16 16:37:43.55	260.45	15.46	-38.3	-39.3	22.2	0.00e+00	0	27	0	1132462080	48	6678
2026-01-16 16:37:44.56	260.33	15.37	-38.2	-39.2	22.2	0.00e+00	0	27	0	1134559232	48	6588
2026-01-16 16:37:45.57	260.21	15.28	-38.2	-39.3	22.3	0.00e+00	0	27	0	1135607808	48	6628
2026-01-16 16:37:46.58	260.09	15.19	-38.4	-39.4	22.2	0.00e+00	0	27	0	1137704960	48	6740
2026-01-16 16:37:47.59	259.97	15.10	-38.2	-39.3	22.3	0.00e+00	0	27	0	1139802112	48	6628
2026-01-16 16:37:48.61	259.85	15.00	-38.4	-39.4	22.1	0.00e+00	0	27	0	1141899264	48	6731
2026-01-16 16:37:49.62	259.73	14.91	-38.2	-39.2	22.3	0.00e+00	0	27	0	1143996416	48	6612
2026-01-16 16:37:50.63	259.61	14.82	-38.2	-39.2	22.3	0.00e+00	0	27	0	1146093568	48	6610
2026-01-16 16:37:51.64	259.50	14.74	-38.2	-39.3	22.2	0.00e+00	0	27	0	1147142144	48	6627
2026-01-16 16:37:52.65	259.38	14.65	-38.1	-39.2	22.3	0.00e+00	0	27	0	1149239296	48	6549
2026-01-16 16:37:53.66	259.26	14.56	-38.0	-39.0	22.5	0.00e+00	0	27	0	1151336448	48	6406
2026-01-16 16:37:54.67	259.15	14.47	-38.0	-39.0	22.5	0.00e+00	0	27	0	1153433600	48	6392
2026-01-16 16:37:55.68	259.04	14.38	-38.0	-39.0	22.4	0.00e+00	0	27	0	1155530752	48	6399
2026-01-16 16:37:56.69	258.92	14.29	-38.0	-39.0	22.4	0.00e+00	0	27	0	1156579328	48	6409
2026-01-16 16:37:57.70	258.81	14.20	-37.9	-38.9	22.5	0.00e+00	0	27	0	1158676480	48	6383
2026-01-16 16:37:58.71	258.70	14.11	-38.0	-39.0	22.4	0.00e+00	0	27	0	1160773632	48	6413
2026-01-16 16:37:59.72	258.59	14.03	-38.1	-39.2	22.3	0.00e+00	0	27	0	1162870784	48	6540
2026-01-16 16:38:00.73	258.48	13.94	-38.1	-39.1	22.4	0.00e+00	0	27	0	1164967936	48	6494
2026-01-16 16:38:01.74	258.37	13.85	-38.3	-39.3	22.1	0.00e+00	0	27	0	1166016512	48	6663
2026-01-16 16:38:02.75	258.26	13.76	-38.3	-39.4	22.1	0.00e+00	0	27	0	1168113664	48	6699
2026-01-16 16:38:03.76	258.15	13.68	-38.2	-39.2	22.1	0.00e+00	0	27	0	1170210816	48	6600
2026-01-16 16:38:04.77	258.04	13.59	-38.4	-39.5	21.9	0.00e+00	0	27	0	1172307968	48	6804
2026-01-16 16:38:05.78	257.94	13.50	-38.4	-39.4	22.0	0.00e+00	0	27	0	1174405120	48	6765
2026-01-16 16:38:06.79	257.83	13.42	-38.4	-39.4	22.1	0.00e+00	0	27	0	1175453696	48	6751
2026-01-16 16:38:07.80	257.72	13.33	-38.5	-39.5	21.9	0.00e+00	0	27	0	1177550848	48	6835
2026-01-16 16:38:08.81	257.62	13.25	-38.6	-39.7	21.7	0.00e+00	0	28	0	1179648000	48	6985
2026-01-16 16:38:09.82	257.51	13.16	-38.5	-39.5	21.9	0.00e+00	0	28	0	1181745152	48	6844
2026-01-16 16:38:10.83	257.41	13.08	-38.5	-39.5	21.8	0.00e+00	0	28	0	1183842304	48	6847
2026-01-16 16:38:11.84	257.31	12.99	-38.5	-39.6	21.8	0.00e+00	0	28	0	1184890880	48	6876
2026-01-16 16:38:12.85	257.20	12.90	-38.6	-39.7	21.7	0.00e+00	0	27	0	1186988032	48	6976
2026-01-16 16:38:13.86	257.10	12.82	-38.7	-39.8	21.5	0.00e+00	0	28	0	1189085184	48	7062
2026-01-16 16:38:14.87	257.00	12.74	-38.7	-39.8	21.7	0.00e+00	0	27	0	1191182336	48	7049
2026-01-16 16:38:15.88	256.90	12.65	-38.6	-39.6	21.7	0.00e+00	0	28	0	1193279488	48	6921
2026-01-16 16:38:16.88	256.80	12.57	-38.6	-39.7	21.7	0.00e+00	0	27	0	1194328064	48	7005
2026-01-16 16:38:17.89	256.70	12.48	-38.7	-39.8	21.5	0.00e+00	0	27	0	1196425216	48	7078
2026-01-16 16:38:18.90	256.60	12.40	-38.7	-39.8	21.6	0.00e+00	0	28	0	1198522368	50	6293
2026-01-16 16:38:19.92	256.50	12.31	-38.7	-39.9	21.6	0.00e+00	0	28	0	1200619520	50	6322
2026-01-16 16:38:20.93	256.40	12.23	-38.8	-39.9	21.5	0.00e+00	0	28	0	1202716672	50	6354
2026-01-16 16:38:21.93	256.31	12.15	-38.8	-40.0	21.5	0.00e+00	0	27	0	1203765248	50	6396
