passes_logs/2026/01/16/R4.6S_Anadyr/R4.6S_Anadyr__20260116_104351_JILIN-1_GAOFEN_03D18_rec.log

#Pass ID: 20260116_104351_JILIN-1 GAOFEN 03D18
#Satellite: JILIN-1 GAOFEN 03D18
#Configuration: 03D_900M
#almurnet v.1.7.20251203
#Start time: 2026-01-16 10:43:56

#Version: 2.2.20231116
#Station: R4.6S_Anadyr
#Location: 177.4865 lon 64.73178 lat
#TLE: 1 51844U 22019W   26015.99084038  .00057806  00000+0  63512-3 0  9996
#TLE: 2 51844  97.3774 105.5255 0006093 305.4524  54.6166 15.62998352216080

#Time	Az	El	Level	Level2	SNR	BER	BlckErr	Temp	State	Recorded	gain1	gain2
2026-01-16 10:43:56.36	171.35	0.43	-48.3	-60.0	3.5	8.45e-01	0	26	0	0	60	35985
2026-01-16 10:43:57.36	171.38	0.50	-46.6	-49.0	6.1	0.00e+00	0	27	104	0	60	34584
2026-01-16 10:43:58.37	171.41	0.57	-45.7	-48.1	6.1	0.00e+00	0	27	104	0	60	31203
2026-01-16 10:43:59.38	171.43	0.64	-45.1	-47.5	6.1	0.00e+00	0	27	104	0	60	28959
2026-01-16 10:44:00.39	171.46	0.70	-44.7	-47.0	6.1	0.00e+00	0	28	104	0	60	27555
2026-01-16 10:44:01.40	171.49	0.77	-44.6	-46.9	6.1	0.00e+00	0	28	104	0	60	27197
2026-01-16 10:44:02.41	171.52	0.84	-44.5	-46.8	6.1	0.00e+00	0	28	104	0	60	26898
2026-01-16 10:44:03.42	171.55	0.91	-44.4	-46.8	6.1	0.00e+00	0	28	104	0	60	26736
2026-01-16 10:44:04.43	171.58	0.98	-44.3	-46.6	6.1	0.00e+00	0	28	104	0	60	26335
2026-01-16 10:44:05.44	171.60	1.05	-44.2	-46.6	6.1	0.00e+00	0	28	104	0	60	26159
2026-01-16 10:44:06.45	171.63	1.12	-44.1	-46.5	6.1	0.00e+00	0	28	104	0	60	25917
2026-01-16 10:44:07.46	171.66	1.19	-44.0	-46.4	6.1	0.00e+00	0	28	104	0	60	25603
2026-01-16 10:44:08.47	171.69	1.26	-43.5	-46.0	6.1	0.00e+00	0	28	104	0	60	24351
2026-01-16 10:44:09.48	171.72	1.33	-43.0	-45.4	6.1	0.00e+00	0	28	104	0	60	22810
2026-01-16 10:44:10.49	171.75	1.40	-43.0	-45.4	6.1	0.00e+00	0	28	104	0	60	22785
2026-01-16 10:44:11.50	171.78	1.47	-43.0	-45.4	6.1	0.00e+00	0	28	104	0	60	22815
2026-01-16 10:44:12.51	171.81	1.54	-43.0	-45.4	6.1	0.00e+00	0	28	104	0	60	22868
2026-01-16 10:44:13.52	171.84	1.61	-43.0	-45.3	6.1	0.00e+00	0	28	104	0	60	22653
2026-01-16 10:44:14.53	171.87	1.69	-43.0	-45.4	6.1	0.00e+00	0	28	104	0	60	22707
2026-01-16 10:44:15.54	171.90	1.76	-43.0	-45.4	6.1	0.00e+00	0	28	104	0	60	22734
2026-01-16 10:44:16.55	171.94	1.83	-43.0	-45.4	6.1	0.00e+00	0	28	104	0	60	22687
2026-01-16 10:44:17.56	171.97	1.90	-43.0	-45.4	6.1	0.00e+00	0	28	104	0	60	22848
2026-01-16 10:44:18.57	172.00	1.98	-43.0	-45.3	6.1	0.00e+00	0	28	104	0	60	22616
2026-01-16 10:44:19.58	172.03	2.05	-43.0	-45.4	6.1	0.00e+00	0	28	104	0	60	22724
2026-01-16 10:44:20.59	172.06	2.12	-43.0	-45.3	6.1	0.00e+00	0	28	104	0	60	22629
2026-01-16 10:44:21.60	172.09	2.20	-43.0	-45.4	6.1	0.00e+00	0	28	104	0	60	22809
2026-01-16 10:44:22.61	172.13	2.27	-42.9	-45.3	6.1	0.00e+00	0	28	104	0	60	22587
2026-01-16 10:44:23.62	172.16	2.35	-42.9	-45.3	6.1	0.00e+00	0	28	104	0	60	22554
2026-01-16 10:44:24.63	172.19	2.42	-43.0	-45.3	6.1	0.00e+00	0	28	104	0	60	22667
2026-01-16 10:44:25.64	172.22	2.50	-43.0	-45.4	6.1	0.00e+00	0	28	104	0	60	22744
2026-01-16 10:44:26.65	172.26	2.57	-43.0	-45.3	6.1	0.00e+00	0	28	104	0	60	22637
2026-01-16 10:44:27.66	172.29	2.65	-43.0	-45.3	6.1	0.00e+00	0	28	104	0	60	22570
2026-01-16 10:44:28.66	172.32	2.72	-42.9	-45.3	6.1	0.00e+00	0	28	104	0	60	22629
2026-01-16 10:44:29.67	172.36	2.80	-42.9	-45.4	6.1	0.00e+00	0	28	104	0	60	22710
2026-01-16 10:44:30.68	172.39	2.88	-42.9	-45.4	6.1	0.00e+00	0	28	104	0	60	22710
2026-01-16 10:44:31.69	172.43	2.95	-42.9	-45.3	6.1	0.00e+00	0	28	104	0	60	22628
2026-01-16 10:44:32.70	172.46	3.03	-43.0	-45.4	6.1	0.00e+00	0	28	104	0	60	22689
2026-01-16 10:44:33.71	172.50	3.11	-43.0	-45.3	6.1	0.00e+00	0	28	104	0	60	22659
2026-01-16 10:44:34.72	172.53	3.19	-42.9	-45.3	6.1	0.00e+00	0	28	104	0	60	22531
2026-01-16 10:44:35.73	172.57	3.26	-43.0	-45.4	6.1	0.00e+00	0	28	104	0	60	22722
2026-01-16 10:44:36.74	172.60	3.34	-42.9	-45.3	6.1	0.00e+00	0	28	104	0	60	22610
2026-01-16 10:44:37.75	172.64	3.42	-42.9	-45.3	6.1	0.00e+00	0	28	104	0	60	22580
2026-01-16 10:44:38.76	172.67	3.50	-42.9	-45.3	6.1	0.00e+00	0	28	104	0	60	22674
2026-01-16 10:44:39.77	172.71	3.58	-42.9	-45.3	6.1	0.00e+00	0	28	104	0	60	22521
2026-01-16 10:44:40.78	172.75	3.66	-42.9	-45.4	6.0	0.00e+00	0	28	104	0	60	22682
2026-01-16 10:44:41.79	172.78	3.74	-42.9	-45.3	6.1	0.00e+00	0	28	104	0	60	22593
2026-01-16 10:44:42.80	172.82	3.82	-42.9	-45.4	6.1	0.00e+00	0	28	104	0	60	22677
2026-01-16 10:44:43.81	172.86	3.90	-42.9	-45.3	6.1	0.00e+00	0	28	104	0	60	22535
2026-01-16 10:44:44.82	172.89	3.98	-42.9	-45.3	6.1	0.00e+00	0	29	104	0	60	22531
2026-01-16 10:44:45.82	172.93	4.06	-42.9	-45.3	6.1	0.00e+00	0	28	104	0	60	22575
2026-01-16 10:44:46.83	172.97	4.15	-42.9	-45.3	6.1	0.00e+00	0	28	104	0	60	22571
2026-01-16 10:44:47.84	173.01	4.23	-42.9	-45.3	6.1	0.00e+00	0	28	104	0	60	22486
2026-01-16 10:44:48.85	173.05	4.31	-42.9	-45.3	6.1	0.00e+00	0	28	104	0	60	22594
2026-01-16 10:44:49.86	173.09	4.40	-42.9	-45.3	6.1	0.00e+00	0	28	104	0	60	22534
2026-01-16 10:44:50.87	173.13	4.48	-42.9	-45.3	6.1	0.00e+00	0	29	104	0	60	22546
2026-01-16 10:44:51.88	173.17	4.56	-43.0	-45.5	6.1	0.00e+00	0	28	104	0	60	22999
2026-01-16 10:44:52.89	173.21	4.65	-43.3	-45.7	6.1	0.00e+00	0	29	104	0	60	23496
2026-01-16 10:44:53.90	173.25	4.73	-43.1	-45.5	6.1	0.00e+00	0	28	104	0	60	23001
2026-01-16 10:44:54.91	173.29	4.82	-43.3	-45.7	6.1	0.00e+00	0	28	104	0	60	23648
2026-01-16 10:44:55.92	173.33	4.90	-43.3	-45.8	6.1	0.00e+00	0	29	104	0	60	23786
2026-01-16 10:44:56.93	173.37	4.99	-43.4	-45.8	6.1	0.00e+00	0	29	104	0	60	23851
2026-01-16 10:44:57.94	173.41	5.08	-43.4	-45.8	6.1	0.00e+00	0	29	104	0	60	23749
2026-01-16 10:44:58.95	173.45	5.16	-43.5	-45.8	6.1	0.00e+00	0	29	104	0	60	23989
2026-01-16 10:44:59.96	173.49	5.25	-43.4	-45.8	6.1	0.00e+00	0	29	104	0	60	23897
2026-01-16 10:45:00.96	173.54	5.34	-43.6	-45.9	6.1	0.00e+00	0	29	104	0	60	24242
2026-01-16 10:45:01.97	173.58	5.43	-43.5	-45.9	6.1	0.00e+00	0	29	104	0	60	24179
2026-01-16 10:45:02.98	173.62	5.52	-43.5	-45.9	6.1	0.00e+00	0	29	104	0	60	24257
2026-01-16 10:45:04.00	173.67	5.61	-43.6	-46.0	6.1	0.00e+00	0	29	104	0	60	24379
2026-01-16 10:45:05.01	173.71	5.70	-43.4	-45.8	6.1	0.00e+00	0	29	104	0	60	23830
2026-01-16 10:45:06.02	173.75	5.79	-43.5	-45.8	6.1	0.00e+00	0	29	104	0	60	23972
2026-01-16 10:45:07.03	173.80	5.88	-43.5	-45.9	6.1	0.00e+00	0	29	104	0	60	24195
2026-01-16 10:45:08.04	173.84	5.97	-43.5	-45.9	6.1	0.00e+00	0	29	104	0	60	24116
2026-01-16 10:45:09.04	173.89	6.06	-43.6	-46.0	6.1	0.00e+00	0	29	104	0	60	24565
2026-01-16 10:45:10.05	173.93	6.15	-43.5	-45.8	6.1	0.00e+00	0	29	104	0	60	23961
2026-01-16 10:45:11.06	173.98	6.25	-43.4	-45.8	6.1	0.00e+00	0	29	104	0	60	23936
2026-01-16 10:45:12.07	174.03	6.34	-43.6	-46.0	6.1	0.00e+00	0	29	104	0	60	24520
2026-01-16 10:45:13.08	174.07	6.43	-43.6	-46.0	6.1	0.00e+00	0	29	104	0	60	24498
2026-01-16 10:45:14.09	174.12	6.53	-43.5	-45.9	6.1	0.00e+00	0	29	104	0	60	24064
2026-01-16 10:45:15.10	174.17	6.62	-43.5	-46.0	6.1	0.00e+00	0	29	104	0	60	24359
2026-01-16 10:45:16.11	174.22	6.72	-43.7	-46.1	6.1	0.00e+00	0	29	104	0	60	24783
2026-01-16 10:45:17.12	174.26	6.81	-43.7	-46.1	6.1	0.00e+00	0	29	104	0	60	24733
2026-01-16 10:45:18.13	174.31	6.91	-43.6	-46.0	6.1	0.00e+00	0	29	104	0	60	24370
2026-01-16 10:45:19.14	174.36	7.01	-43.5	-45.9	6.1	0.00e+00	0	29	104	0	60	24239
2026-01-16 10:45:20.15	174.41	7.10	-43.8	-46.1	6.1	0.00e+00	0	29	104	0	60	24828
2026-01-16 10:45:21.16	174.46	7.20	-43.7	-46.0	6.1	0.00e+00	0	29	104	0	60	24473
2026-01-16 10:45:22.17	174.51	7.30	-43.6	-45.9	6.1	0.00e+00	0	29	104	0	60	24283
2026-01-16 10:45:23.18	174.56	7.40	-43.5	-45.9	6.1	0.00e+00	0	29	104	0	60	24155
2026-01-16 10:45:24.18	174.61	7.50	-43.7	-46.1	6.1	0.00e+00	0	29	104	0	60	24675
2026-01-16 10:45:25.19	174.67	7.60	-43.6	-46.0	6.1	0.00e+00	0	29	104	0	60	24572
2026-01-16 10:45:26.21	174.72	7.70	-43.5	-45.9	6.1	0.00e+00	0	29	104	0	60	24256
2026-01-16 10:45:27.22	174.77	7.80	-43.5	-45.9	6.1	0.00e+00	0	29	104	0	60	24261
2026-01-16 10:45:28.22	174.83	7.91	-43.8	-46.2	6.1	0.00e+00	0	29	104	0	60	24892
2026-01-16 10:45:29.23	174.88	8.01	-43.7	-46.1	6.1	0.00e+00	0	29	104	0	60	24733
2026-01-16 10:45:30.24	174.93	8.11	-43.7	-46.1	6.1	0.00e+00	0	29	104	0	60	24581
2026-01-16 10:45:31.25	174.99	8.22	-43.7	-46.1	6.1	0.00e+00	0	29	104	0	60	24670
2026-01-16 10:45:32.26	175.04	8.32	-43.7	-46.1	6.1	0.00e+00	0	29	104	0	60	24585
2026-01-16 10:45:33.27	175.10	8.43	-43.6	-46.0	6.1	0.00e+00	0	29	104	0	60	24332
2026-01-16 10:45:34.28	175.16	8.53	-43.7	-46.1	6.1	0.00e+00	0	29	104	0	60	24640
2026-01-16 10:45:35.29	175.21	8.64	-43.6	-45.9	6.1	0.00e+00	0	29	104	0	60	24273
2026-01-16 10:45:36.30	175.27	8.75	-43.7	-46.0	6.1	0.00e+00	0	29	104	0	60	24546
2026-01-16 10:45:37.31	175.33	8.86	-43.7	-46.1	6.1	0.00e+00	0	29	104	0	60	24786
2026-01-16 10:45:38.32	175.39	8.97	-43.5	-45.9	6.1	0.00e+00	0	29	104	0	60	24285
2026-01-16 10:45:39.33	175.45	9.08	-43.7	-46.0	6.1	0.00e+00	0	29	104	0	60	24566
2026-01-16 10:45:40.34	175.51	9.19	-43.7	-46.1	6.1	0.00e+00	0	29	104	0	60	24664
2026-01-16 10:45:41.35	175.57	9.30	-43.7	-46.1	6.1	0.00e+00	0	29	104	0	60	24765
2026-01-16 10:45:42.36	175.63	9.41	-43.6	-46.0	6.1	0.00e+00	0	29	104	0	60	24318
2026-01-16 10:45:43.37	175.69	9.52	-43.7	-46.2	6.1	0.00e+00	0	29	104	0	60	24880
2026-01-16 10:45:44.38	175.75	9.64	-44.0	-46.4	6.1	0.00e+00	0	29	104	0	60	25538
2026-01-16 10:45:45.39	175.81	9.75	-43.8	-46.2	6.1	0.00e+00	0	29	104	0	60	25048
2026-01-16 10:45:46.40	175.88	9.87	-43.7	-46.1	6.1	0.00e+00	0	29	104	0	60	24713
2026-01-16 10:45:47.41	175.94	9.98	-43.8	-46.2	6.1	0.00e+00	0	29	104	0	60	25003
2026-01-16 10:45:48.42	176.01	10.10	-43.9	-46.3	6.1	0.00e+00	0	29	104	0	60	25415
2026-01-16 10:45:49.43	176.07	10.22	-43.7	-46.2	6.1	0.00e+00	0	29	104	0	60	24946
2026-01-16 10:45:50.44	176.14	10.33	-43.7	-46.1	6.1	0.00e+00	0	29	104	0	60	24767
2026-01-16 10:45:51.45	176.21	10.45	-43.9	-46.2	6.1	0.00e+00	0	29	104	0	60	25139
2026-01-16 10:45:52.45	176.27	10.57	-43.9	-46.3	6.1	0.00e+00	0	29	104	0	60	25265
2026-01-16 10:45:53.46	176.34	10.69	-43.8	-46.2	6.1	0.00e+00	0	29	104	0	60	25062
2026-01-16 10:45:54.47	176.41	10.82	-43.8	-46.2	6.1	0.00e+00	0	29	104	0	60	25086
2026-01-16 10:45:55.48	176.48	10.94	-43.8	-46.2	6.1	0.00e+00	0	29	104	0	60	25046
2026-01-16 10:45:56.49	176.55	11.06	-43.9	-46.3	6.1	0.00e+00	0	29	104	0	60	25337
2026-01-16 10:45:57.50	176.62	11.19	-43.8	-46.3	6.1	0.00e+00	0	29	104	0	60	25178
2026-01-16 10:45:58.51	176.69	11.31	-43.8	-46.2	6.1	0.00e+00	0	29	104	0	60	25063
2026-01-16 10:45:59.52	176.77	11.44	-44.0	-46.4	6.1	0.00e+00	0	29	104	0	60	25602
2026-01-16 10:46:00.53	176.84	11.57	-44.0	-46.4	6.1	0.00e+00	0	29	104	0	60	25591
2026-01-16 10:46:01.54	176.91	11.70	-43.9	-46.2	6.1	0.00e+00	0	29	104	0	60	25125
2026-01-16 10:46:02.55	176.99	11.83	-43.8	-46.2	6.1	0.00e+00	0	29	104	0	60	25057
2026-01-16 10:46:03.56	177.07	11.96	-43.9	-46.3	6.1	0.00e+00	0	29	104	0	60	25284
2026-01-16 10:46:04.58	177.14	12.09	-44.0	-46.4	6.1	0.00e+00	0	29	104	0	60	25716
2026-01-16 10:46:05.59	177.22	12.22	-43.8	-46.2	6.1	0.00e+00	0	29	104	0	60	24980
2026-01-16 10:46:06.59	177.30	12.36	-43.8	-46.2	6.1	0.00e+00	0	29	104	0	60	25115
2026-01-16 10:46:07.60	177.38	12.49	-44.0	-46.4	6.1	0.00e+00	0	29	104	0	60	25606
2026-01-16 10:46:08.61	177.46	12.63	-44.0	-46.5	6.1	0.00e+00	0	29	104	0	60	25781
2026-01-16 10:46:09.63	177.54	12.77	-43.9	-46.3	6.1	0.00e+00	0	29	104	0	60	25339
2026-01-16 10:46:10.63	177.62	12.90	-43.8	-46.2	6.1	0.00e+00	0	29	104	0	60	25071
2026-01-16 10:46:11.65	177.71	13.04	-43.9	-46.3	6.1	0.00e+00	0	29	104	0	60	25358
2026-01-16 10:46:12.66	177.79	13.18	-43.9	-46.3	6.1	0.00e+00	0	29	104	0	60	25351
2026-01-16 10:46:13.67	177.88	13.33	-43.9	-46.4	6.1	0.00e+00	0	29	104	0	60	25460
2026-01-16 10:46:14.67	177.96	13.47	-43.8	-46.2	6.1	0.00e+00	0	29	104	0	60	25003
2026-01-16 10:46:15.68	178.05	13.61	-43.8	-46.3	6.1	0.00e+00	0	29	104	0	60	25347
2026-01-16 10:46:16.70	178.14	13.76	-44.0	-46.4	6.1	0.00e+00	0	29	104	0	60	25479
2026-01-16 10:46:17.70	178.23	13.90	-44.0	-46.3	6.1	0.00e+00	0	29	104	0	60	25387
2026-01-16 10:46:18.71	178.32	14.05	-43.8	-46.3	6.1	0.00e+00	0	29	104	0	60	25223
2026-01-16 10:46:19.72	178.41	14.20	-43.8	-46.2	6.1	0.00e+00	0	29	104	0	60	25123
2026-01-16 10:46:20.73	178.50	14.35	-43.9	-46.3	6.1	0.00e+00	0	29	104	0	60	25243
2026-01-16 10:46:21.74	178.60	14.50	-43.8	-46.2	6.1	0.00e+00	0	29	104	0	60	24979
2026-01-16 10:46:22.75	178.69	14.66	-44.0	-46.4	6.1	0.00e+00	0	29	104	0	60	25633
2026-01-16 10:46:23.76	178.79	14.81	-44.0	-46.4	6.1	0.00e+00	0	29	104	0	60	25677
2026-01-16 10:46:24.77	178.89	14.97	-44.0	-46.4	6.1	0.00e+00	0	29	104	0	60	25599
2026-01-16 10:46:25.78	178.99	15.13	-43.9	-46.3	6.1	0.00e+00	0	29	104	0	60	25226
2026-01-16 10:46:26.79	179.09	15.29	-43.9	-46.3	6.1	0.00e+00	0	29	104	0	60	25191
2026-01-16 10:46:27.80	179.19	15.45	-44.0	-46.4	6.1	0.00e+00	0	29	104	0	60	25658
2026-01-16 10:46:28.81	179.29	15.61	-43.9	-46.3	6.1	0.00e+00	0	29	104	0	60	25291
2026-01-16 10:46:29.82	179.40	15.77	-44.0	-46.3	6.1	0.00e+00	0	29	104	0	60	25403
2026-01-16 10:46:30.83	179.51	15.94	-44.1	-46.5	6.1	0.00e+00	0	29	104	0	60	25805
2026-01-16 10:46:31.84	179.61	16.10	-44.0	-46.4	6.1	0.00e+00	0	29	104	0	60	25663
2026-01-16 10:46:32.85	179.72	16.27	-44.2	-46.5	6.1	0.00e+00	0	29	104	0	60	25992
2026-01-16 10:46:33.86	179.83	16.44	-44.0	-46.4	6.1	0.00e+00	0	29	104	0	60	25559
2026-01-16 10:46:34.87	179.94	16.61	-44.0	-46.4	6.1	0.00e+00	0	29	104	0	60	25620
2026-01-16 10:46:35.88	180.06	16.79	-44.1	-46.5	6.1	0.00e+00	0	29	104	0	60	25794
2026-01-16 10:46:36.89	180.17	16.96	-44.2	-46.5	6.1	0.00e+00	0	29	104	0	60	25977
2026-01-16 10:46:37.90	180.29	17.14	-44.0	-46.4	6.1	0.00e+00	0	29	104	0	60	25627
2026-01-16 10:46:38.91	180.41	17.32	-44.0	-46.5	6.1	0.00e+00	0	29	104	0	60	25801
2026-01-16 10:46:39.92	180.53	17.50	-44.0	-46.5	6.1	0.00e+00	0	29	104	0	60	25760
2026-01-16 10:46:40.93	180.65	17.68	-44.1	-46.5	6.1	0.00e+00	0	29	104	0	60	25835
2026-01-16 10:46:41.94	180.77	17.86	-44.1	-46.5	6.1	0.00e+00	0	29	104	0	60	25972
2026-01-16 10:46:42.95	180.90	18.05	-44.1	-46.5	6.1	0.00e+00	0	29	104	0	60	25778
2026-01-16 10:46:43.96	181.03	18.24	-44.2	-46.6	6.1	0.00e+00	0	29	104	0	60	26187
2026-01-16 10:46:44.97	181.16	18.43	-44.1	-46.5	6.1	0.00e+00	0	29	104	0	60	25854
2026-01-16 10:46:45.98	181.29	18.62	-44.1	-46.4	6.1	0.00e+00	0	29	104	0	60	25721
2026-01-16 10:46:46.99	181.42	18.81	-44.1	-46.4	6.1	0.00e+00	0	29	104	0	60	25735
2026-01-16 10:46:48.00	181.56	19.01	-44.1	-46.5	6.1	0.00e+00	0	29	104	0	60	25875
2026-01-16 10:46:49.01	181.69	19.20	-44.1	-46.5	6.1	0.00e+00	0	29	104	0	60	25968
2026-01-16 10:46:50.02	181.83	19.40	-44.1	-46.4	6.0	0.00e+00	0	29	104	0	60	25693
2026-01-16 10:46:51.03	181.98	19.61	-44.1	-46.5	6.1	0.00e+00	0	29	104	0	60	25849
2026-01-16 10:46:52.04	182.12	19.81	-44.2	-46.6	6.0	0.00e+00	0	29	104	0	60	26156
2026-01-16 10:46:53.06	182.27	20.02	-44.1	-46.5	6.1	0.00e+00	0	29	104	0	60	25938
2026-01-16 10:46:54.07	182.42	20.23	-44.0	-46.5	6.1	0.00e+00	0	29	104	0	60	25815
2026-01-16 10:46:55.08	182.57	20.44	-44.2	-46.5	6.1	0.00e+00	0	29	104	0	60	25984
2026-01-16 10:46:56.09	182.72	20.65	-44.1	-46.5	6.1	0.00e+00	0	29	104	0	60	25999
2026-01-16 10:46:57.10	182.88	20.87	-44.1	-46.5	6.1	0.00e+00	0	29	104	0	60	25995
2026-01-16 10:46:58.11	183.04	21.09	-44.0	-46.4	6.1	0.00e+00	0	29	104	0	60	25616
2026-01-16 10:46:59.12	183.20	21.31	-44.1	-46.4	6.1	0.00e+00	0	29	104	0	60	25718
2026-01-16 10:47:00.13	183.36	21.53	-44.2	-46.5	6.1	0.00e+00	0	29	104	0	60	26009
2026-01-16 10:47:01.14	183.53	21.76	-44.2	-46.6	6.1	0.00e+00	0	29	104	0	60	26245
2026-01-16 10:47:02.15	183.70	21.98	-44.1	-46.5	6.1	0.00e+00	0	29	104	0	60	25869
2026-01-16 10:47:03.16	183.87	22.22	-44.2	-46.5	6.1	0.00e+00	0	29	104	0	60	26018
2026-01-16 10:47:04.16	184.05	22.45	-44.2	-46.5	6.1	0.00e+00	0	29	104	0	60	25965
2026-01-16 10:47:05.17	184.22	22.68	-44.2	-46.5	6.1	0.00e+00	0	29	104	0	60	26025
2026-01-16 10:47:06.18	184.41	22.92	-44.2	-46.5	6.1	0.00e+00	0	29	104	0	60	26011
2026-01-16 10:47:07.19	184.59	23.16	-44.1	-46.5	6.1	0.00e+00	0	29	104	0	60	25929
2026-01-16 10:47:08.20	184.78	23.41	-44.2	-46.6	6.1	0.00e+00	0	29	104	0	60	26077
2026-01-16 10:47:09.21	184.97	23.66	-44.2	-46.6	6.1	0.00e+00	0	29	104	0	60	26068
2026-01-16 10:47:10.22	185.17	23.91	-44.1	-46.5	6.1	0.00e+00	0	29	104	0	60	25941
2026-01-16 10:47:11.23	185.37	24.16	-44.1	-46.5	6.1	0.00e+00	0	29	104	0	60	25783
2026-01-16 10:47:12.24	185.57	24.42	-44.2	-46.6	6.1	0.00e+00	0	29	104	0	60	26240
2026-01-16 10:47:13.25	185.78	24.67	-44.1	-46.5	6.1	0.00e+00	0	29	104	0	60	26005
2026-01-16 10:47:14.26	185.99	24.94	-44.1	-46.5	6.1	0.00e+00	0	29	104	0	60	25868
2026-01-16 10:47:15.27	186.20	25.20	-44.1	-46.5	6.1	0.00e+00	0	29	104	0	60	25925
2026-01-16 10:47:16.28	186.42	25.47	-44.1	-46.6	6.1	0.00e+00	0	29	104	0	60	26199
2026-01-16 10:47:17.29	186.65	25.74	-44.2	-46.6	6.1	0.00e+00	0	29	104	0	60	26159
2026-01-16 10:47:18.30	186.87	26.02	-44.1	-46.5	6.1	0.00e+00	0	29	104	0	60	25805
2026-01-16 10:47:19.31	187.11	26.30	-44.1	-46.5	6.1	0.00e+00	0	29	104	0	60	25797
2026-01-16 10:47:20.32	187.34	26.58	-44.1	-46.5	6.1	0.00e+00	0	29	104	0	60	25955
2026-01-16 10:47:21.33	187.58	26.87	-44.0	-46.5	6.1	0.00e+00	0	29	104	0	60	25924
2026-01-16 10:47:22.34	187.83	27.15	-44.1	-46.5	6.1	0.00e+00	0	29	104	0	60	25739
2026-01-16 10:47:23.35	188.08	27.45	-44.0	-46.5	6.1	0.00e+00	0	29	104	0	60	25777
2026-01-16 10:47:24.36	188.34	27.74	-44.1	-46.5	6.1	0.00e+00	0	29	104	0	60	25985
2026-01-16 10:47:25.37	188.60	28.04	-44.1	-46.6	6.1	0.00e+00	0	29	104	0	60	26124
2026-01-16 10:47:26.38	188.87	28.35	-44.1	-46.5	6.1	0.00e+00	0	29	104	0	60	25800
2026-01-16 10:47:27.39	189.14	28.65	-44.1	-46.5	6.1	0.00e+00	0	29	104	0	60	25928
2026-01-16 10:47:28.40	189.42	28.97	-44.1	-46.5	6.1	0.00e+00	0	29	104	0	60	25824
2026-01-16 10:47:29.41	189.71	29.28	-44.1	-46.5	6.1	0.00e+00	0	29	104	0	60	25860
2026-01-16 10:47:30.42	190.00	29.60	-44.1	-46.5	6.1	0.00e+00	0	29	104	0	60	25809
2026-01-16 10:47:31.43	190.30	29.92	-44.0	-46.5	6.1	0.00e+00	0	29	104	0	60	25898
2026-01-16 10:47:32.44	190.60	30.25	-44.1	-46.6	6.1	0.00e+00	0	29	104	0	60	26120
2026-01-16 10:47:33.45	190.92	30.58	-44.1	-46.6	6.1	0.00e+00	0	30	104	0	60	26172
2026-01-16 10:47:34.46	191.24	30.91	-44.1	-46.6	6.1	0.00e+00	0	29	104	0	60	26111
2026-01-16 10:47:35.47	191.56	31.25	-44.0	-46.5	6.1	0.00e+00	0	29	104	0	60	25796
2026-01-16 10:47:36.48	191.90	31.59	-44.0	-46.5	6.1	0.00e+00	0	29	104	0	60	25820
2026-01-16 10:47:37.49	192.24	31.94	-44.1	-46.6	6.1	0.00e+00	0	29	104	0	60	26122
2026-01-16 10:47:38.50	192.59	32.29	-44.1	-46.5	6.1	0.00e+00	0	29	104	0	60	25770
2026-01-16 10:47:39.51	192.95	32.65	-44.1	-46.5	6.1	0.00e+00	0	29	104	0	60	26026
2026-01-16 10:47:40.52	193.32	33.00	-44.1	-46.5	6.1	0.00e+00	0	29	104	0	60	25923
2026-01-16 10:47:41.53	193.69	33.37	-44.1	-46.5	6.1	0.00e+00	0	29	104	0	60	26011
2026-01-16 10:47:42.54	194.08	33.73	-44.1	-46.5	6.1	0.00e+00	0	29	104	0	60	25885
2026-01-16 10:47:43.55	194.47	34.11	-44.2	-46.6	6.1	0.00e+00	0	29	104	0	60	26229
2026-01-16 10:47:44.56	194.88	34.48	-44.2	-46.6	6.0	0.00e+00	0	29	104	0	60	26180
2026-01-16 10:47:45.57	195.29	34.86	-44.1	-46.6	6.1	0.00e+00	0	29	104	0	60	26103
2026-01-16 10:47:46.58	195.72	35.24	-44.2	-46.6	6.1	0.00e+00	0	29	104	0	60	26096
2026-01-16 10:47:47.59	196.15	35.63	-44.2	-46.6	6.1	0.00e+00	0	29	104	0	60	26224
2026-01-16 10:47:48.60	196.60	36.02	-44.3	-46.7	6.1	0.00e+00	0	29	104	0	60	26411
2026-01-16 10:47:49.61	197.06	36.42	-44.1	-46.6	6.1	0.00e+00	0	29	104	0	60	26297
2026-01-16 10:47:50.62	197.54	36.82	-44.2	-46.6	6.1	0.00e+00	0	29	104	0	60	26242
2026-01-16 10:47:51.63	198.02	37.22	-44.2	-46.6	6.1	0.00e+00	0	30	104	0	60	26293
2026-01-16 10:47:52.64	198.52	37.63	-44.3	-46.7	6.1	0.00e+00	0	30	104	0	60	26499
2026-01-16 10:47:53.65	199.03	38.04	-44.3	-46.7	6.1	0.00e+00	0	30	104	0	60	26413
2026-01-16 10:47:54.66	199.55	38.46	-44.3	-46.7	6.1	0.00e+00	0	30	104	0	60	26468
2026-01-16 10:47:55.67	200.09	38.88	-44.2	-46.7	6.1	0.00e+00	0	29	104	0	60	26388
2026-01-16 10:47:56.68	200.65	39.30	-44.3	-46.7	6.1	0.00e+00	0	30	104	0	60	26475
2026-01-16 10:47:57.69	201.22	39.73	-44.3	-46.7	6.1	0.00e+00	0	30	104	0	60	26629
2026-01-16 10:47:58.70	201.81	40.15	-44.4	-46.7	6.1	0.00e+00	0	30	104	0	60	26600
2026-01-16 10:47:59.71	202.41	40.59	-44.3	-46.7	6.1	0.00e+00	0	30	104	0	60	26600
2026-01-16 10:48:00.72	203.03	41.02	-44.3	-46.8	6.1	0.00e+00	0	30	104	0	60	26642
2026-01-16 10:48:01.73	203.67	41.46	-44.3	-46.8	6.1	0.00e+00	0	30	104	0	60	26682
2026-01-16 10:48:02.73	204.32	41.89	-44.5	-46.9	6.1	0.00e+00	0	30	104	0	60	26986
2026-01-16 10:48:03.74	204.99	42.34	-44.5	-47.0	6.1	0.00e+00	0	30	104	0	60	27272
2026-01-16 10:48:04.75	205.69	42.78	-44.5	-46.9	6.1	0.00e+00	0	30	104	0	60	27238
2026-01-16 10:48:05.76	206.40	43.23	-44.2	-46.7	6.1	0.00e+00	0	30	104	0	60	26568
2026-01-16 10:48:06.77	207.14	43.67	-44.4	-46.9	6.1	0.00e+00	0	30	104	0	60	27044
2026-01-16 10:48:07.78	207.90	44.12	-44.3	-46.8	6.1	0.00e+00	0	30	104	0	60	26665
2026-01-16 10:48:08.79	208.68	44.57	-44.3	-46.7	6.1	0.00e+00	0	30	104	0	60	26544
2026-01-16 10:48:09.80	209.49	45.02	-44.3	-46.8	6.1	0.00e+00	0	30	104	0	60	26814
2026-01-16 10:48:10.81	210.31	45.47	-44.5	-46.9	6.1	0.00e+00	0	30	104	0	60	27002
2026-01-16 10:48:11.82	211.17	45.92	-44.3	-46.8	6.1	0.00e+00	0	30	104	0	60	26738
2026-01-16 10:48:12.83	212.05	46.36	-44.5	-46.9	6.1	0.00e+00	0	30	104	0	60	27177
2026-01-16 10:48:13.84	212.95	46.81	-44.4	-46.8	6.1	0.00e+00	0	30	104	0	60	26941
2026-01-16 10:48:14.85	213.88	47.25	-44.6	-47.0	6.1	0.00e+00	0	30	104	0	60	27270
2026-01-16 10:48:15.86	214.84	47.69	-44.2	-46.7	6.1	0.00e+00	0	30	104	0	60	26580
2026-01-16 10:48:16.87	215.83	48.13	-44.2	-46.7	6.1	0.00e+00	0	30	104	0	60	26501
2026-01-16 10:48:17.88	216.85	48.56	-44.4	-46.8	6.1	0.00e+00	0	30	104	0	60	26768
2026-01-16 10:48:18.89	217.90	48.99	-44.5	-46.9	6.1	0.00e+00	0	30	104	0	60	27142
2026-01-16 10:48:19.90	218.98	49.41	-44.3	-46.9	6.1	0.00e+00	0	30	104	0	60	26958
2026-01-16 10:48:20.91	220.08	49.83	-44.4	-46.9	6.0	0.00e+00	0	30	104	0	60	27016
2026-01-16 10:48:21.93	221.24	50.24	-44.4	-46.8	6.1	0.00e+00	0	30	104	0	60	26930
2026-01-16 10:48:22.93	222.40	50.64	-44.6	-47.1	6.1	0.00e+00	0	30	104	0	60	27584
2026-01-16 10:48:23.94	223.60	51.04	-44.4	-46.9	6.1	0.00e+00	0	30	104	0	60	27058
2026-01-16 10:48:24.95	224.84	51.42	-44.5	-46.9	6.1	0.00e+00	0	30	104	0	60	27170
2026-01-16 10:48:25.96	226.11	51.80	-44.4	-46.9	6.0	0.00e+00	0	30	104	0	60	27094
2026-01-16 10:48:26.97	227.41	52.16	-44.5	-46.8	6.1	0.00e+00	0	30	104	0	60	26907
2026-01-16 10:48:27.98	228.74	52.51	-44.6	-46.9	6.1	0.00e+00	0	30	104	0	60	27238
2026-01-16 10:48:28.99	230.11	52.85	-44.4	-47.0	6.1	0.00e+00	0	30	104	0	60	27325
2026-01-16 10:48:30.00	231.51	53.17	-44.8	-47.3	6.1	0.00e+00	0	30	104	0	60	28395
2026-01-16 10:48:31.01	232.94	53.48	-44.6	-47.0	6.1	0.00e+00	0	30	104	0	60	27471
2026-01-16 10:48:32.02	234.40	53.77	-44.3	-46.7	6.1	0.00e+00	0	30	104	0	60	26627
2026-01-16 10:48:33.03	235.89	54.05	-44.3	-46.8	6.1	0.00e+00	0	30	104	0	60	26895
2026-01-16 10:48:34.04	237.41	54.31	-44.4	-46.9	6.1	0.00e+00	0	30	104	0	60	27016
2026-01-16 10:48:35.05	238.96	54.55	-44.0	-46.8	6.1	0.00e+00	0	30	104	0	60	26691
2026-01-16 10:48:36.06	240.53	54.77	-44.2	-46.8	6.1	0.00e+00	0	30	104	0	60	26924
2026-01-16 10:48:37.07	242.13	54.97	-44.6	-47.0	6.1	0.00e+00	0	30	104	0	60	27531
2026-01-16 10:48:38.08	243.75	55.15	-44.5	-47.1	6.1	0.00e+00	0	30	104	0	60	27668
2026-01-16 10:48:39.09	245.38	55.31	-44.7	-47.1	6.0	0.00e+00	0	30	104	0	60	27834
2026-01-16 10:48:40.10	247.04	55.44	-44.3	-46.8	6.1	0.00e+00	0	30	104	0	60	26752
2026-01-16 10:48:41.11	248.71	55.56	-44.4	-46.8	6.1	0.00e+00	0	30	104	0	60	26794
2026-01-16 10:48:42.12	250.39	55.65	-43.7	-46.7	6.1	0.00e+00	0	30	104	0	60	26605
2026-01-16 10:48:43.12	252.07	55.71	-44.1	-46.6	6.1	0.00e+00	0	30	104	0	60	26304
2026-01-16 10:48:44.14	253.78	55.76	-44.0	-46.6	6.1	0.00e+00	0	30	104	0	60	26247
2026-01-16 10:48:45.14	255.47	55.78	-44.1	-46.7	6.1	0.00e+00	0	30	104	0	60	26617
2026-01-16 10:48:46.15	257.17	55.77	-44.3	-46.7	6.1	0.00e+00	0	30	104	0	60	26561
2026-01-16 10:48:47.16	258.87	55.74	-44.2	-46.6	6.1	0.00e+00	0	30	104	0	60	26194
2026-01-16 10:48:48.17	260.56	55.69	-43.9	-46.5	6.1	0.00e+00	0	30	104	0	60	26026
2026-01-16 10:48:49.18	262.25	55.62	-44.1	-46.7	6.1	0.00e+00	0	30	104	0	60	26483
2026-01-16 10:48:50.19	263.93	55.52	-44.2	-46.7	6.0	0.00e+00	0	30	104	0	60	26337
2026-01-16 10:48:51.20	265.59	55.39	-44.2	-46.6	6.1	0.00e+00	0	30	104	0	60	26050
2026-01-16 10:48:52.21	267.24	55.25	-43.7	-46.5	6.1	0.00e+00	0	30	104	0	60	25781
2026-01-16 10:48:53.22	268.87	55.08	-43.8	-46.4	6.1	0.00e+00	0	30	104	0	60	25600
2026-01-16 10:48:54.23	270.47	54.89	-44.0	-46.4	6.1	0.00e+00	0	30	104	0	60	25687
2026-01-16 10:48:55.24	272.06	54.69	-44.1	-46.5	6.1	0.00e+00	0	30	104	0	60	26027
2026-01-16 10:48:56.25	273.62	54.46	-43.5	-46.4	6.1	0.00e+00	0	30	104	0	60	25556
2026-01-16 10:48:57.26	275.15	54.21	-43.7	-46.4	6.1	0.00e+00	0	30	104	0	60	25674
2026-01-16 10:48:58.27	276.66	53.94	-44.0	-46.4	6.1	0.00e+00	0	30	104	0	60	25671
2026-01-16 10:48:59.28	278.13	53.66	-44.0	-46.4	6.1	0.00e+00	0	30	104	0	60	25482
2026-01-16 10:49:00.29	279.58	53.36	-43.4	-46.2	6.1	0.00e+00	0	30	104	0	60	25130
2026-01-16 10:49:01.30	280.99	53.05	-43.8	-46.4	6.1	0.00e+00	0	30	104	0	60	25600
2026-01-16 10:49:02.31	282.38	52.72	-44.0	-46.4	6.1	0.00e+00	0	30	104	0	60	25650
2026-01-16 10:49:03.31	283.72	52.38	-43.7	-46.2	6.1	0.00e+00	0	30	104	0	60	24998
2026-01-16 10:49:04.32	285.03	52.03	-43.5	-46.4	6.1	0.00e+00	0	30	104	0	60	25544
2026-01-16 10:49:05.33	286.32	51.66	-43.7	-46.3	6.0	0.00e+00	0	30	104	0	60	25416
2026-01-16 10:49:06.34	287.57	51.29	-43.8	-46.3	6.1	0.00e+00	0	30	104	0	60	25366
2026-01-16 10:49:07.35	288.80	50.90	-44.0	-46.5	6.1	0.00e+00	0	30	104	0	60	25805
2026-01-16 10:49:08.37	290.00	50.50	-43.5	-46.4	6.1	0.00e+00	0	30	104	0	60	25470
2026-01-16 10:49:09.38	291.15	50.10	-43.7	-46.4	6.1	0.00e+00	0	30	104	0	60	25709
2026-01-16 10:49:10.38	292.27	49.69	-43.9	-46.5	6.1	0.00e+00	0	30	104	0	60	25752
2026-01-16 10:49:11.39	293.36	49.27	-44.0	-46.4	6.1	0.00e+00	0	30	104	0	60	25711
2026-01-16 10:49:12.40	294.42	48.85	-43.1	-46.2	6.1	0.00e+00	0	30	104	0	60	24935
2026-01-16 10:49:13.41	295.46	48.42	-43.5	-46.2	6.1	0.00e+00	0	30	104	0	60	25006
2026-01-16 10:49:14.42	296.46	47.99	-43.8	-46.3	6.1	0.00e+00	0	30	104	0	60	25413
2026-01-16 10:49:15.43	297.43	47.55	-43.8	-46.3	6.1	0.00e+00	0	30	104	0	60	25303
2026-01-16 10:49:16.44	298.38	47.11	-43.5	-46.3	6.1	0.00e+00	0	30	104	0	60	25278
2026-01-16 10:49:17.45	299.30	46.67	-43.8	-46.4	6.1	0.00e+00	0	30	104	0	60	25534
2026-01-16 10:49:18.46	300.19	46.23	-43.8	-46.4	6.1	0.00e+00	0	30	104	0	60	25507
2026-01-16 10:49:19.47	301.06	45.78	-43.6	-46.4	6.1	0.00e+00	0	30	104	0	60	25618
2026-01-16 10:49:20.48	301.90	45.34	-43.6	-46.5	6.1	0.00e+00	0	30	104	0	60	25892
2026-01-16 10:49:21.49	302.72	44.89	-43.7	-46.5	6.1	0.00e+00	0	30	104	0	60	25834
2026-01-16 10:49:22.50	303.51	44.44	-44.2	-46.6	6.1	0.00e+00	0	30	104	0	60	26231
2026-01-16 10:49:23.51	304.28	44.00	-44.0	-46.6	6.1	0.00e+00	0	30	104	0	60	26231
2026-01-16 10:49:24.52	305.03	43.55	-43.9	-46.6	6.1	0.00e+00	0	30	104	0	60	26175
2026-01-16 10:49:25.53	305.76	43.11	-43.9	-46.5	6.1	0.00e+00	0	30	104	0	60	25959
2026-01-16 10:49:26.54	306.46	42.67	-44.1	-46.6	6.1	0.00e+00	0	30	104	0	60	26122
2026-01-16 10:49:27.54	307.14	42.23	-44.0	-46.6	6.1	0.00e+00	0	30	104	0	60	26136
2026-01-16 10:49:28.55	307.81	41.79	-44.1	-46.6	6.1	0.00e+00	0	30	104	0	60	26218
2026-01-16 10:49:29.57	308.46	41.35	-43.9	-46.6	6.1	0.00e+00	0	30	104	0	60	26066
2026-01-16 10:49:30.57	309.09	40.92	-44.2	-46.6	6.1	0.00e+00	0	30	104	0	60	26197
2026-01-16 10:49:31.58	309.70	40.49	-44.1	-46.7	6.1	0.00e+00	0	30	104	0	60	26607
2026-01-16 10:49:32.59	310.29	40.06	-44.2	-46.7	6.1	0.00e+00	0	30	104	0	60	26460
2026-01-16 10:49:33.61	310.88	39.63	-44.1	-46.7	6.1	0.00e+00	0	30	104	0	60	26450
2026-01-16 10:49:34.62	311.44	39.21	-44.4	-46.7	6.1	0.00e+00	0	30	104	0	60	26626
2026-01-16 10:49:35.63	311.99	38.79	-43.9	-46.6	6.1	0.00e+00	0	30	104	0	60	26172
2026-01-16 10:49:36.64	312.52	38.38	-44.2	-46.6	6.1	0.00e+00	0	30	104	0	60	26237
2026-01-16 10:49:37.65	313.04	37.97	-44.1	-46.7	6.1	0.00e+00	0	30	104	0	60	26387
2026-01-16 10:49:38.66	313.54	37.56	-44.3	-46.8	6.1	0.00e+00	0	30	104	0	60	26689
2026-01-16 10:49:39.67	314.03	37.15	-44.3	-46.8	6.1	0.00e+00	0	30	104	0	60	26914
2026-01-16 10:49:40.68	314.51	36.75	-44.4	-46.8	6.1	0.00e+00	0	30	104	0	60	26700
2026-01-16 10:49:41.69	314.98	36.36	-44.2	-46.7	6.1	0.00e+00	0	31	104	0	60	26578
2026-01-16 10:49:42.70	315.43	35.97	-44.4	-46.7	6.1	0.00e+00	0	31	104	0	60	26593
2026-01-16 10:49:43.71	315.88	35.58	-44.2	-46.8	6.1	0.00e+00	0	30	104	0	60	26654
2026-01-16 10:49:44.72	316.31	35.19	-44.4	-46.8	6.1	0.00e+00	0	30	104	0	60	26716
2026-01-16 10:49:45.73	316.73	34.81	-44.3	-46.8	6.1	0.00e+00	0	30	104	0	60	26717
2026-01-16 10:49:46.74	317.14	34.44	-44.5	-46.9	6.1	0.00e+00	0	30	104	0	60	27052
2026-01-16 10:49:47.75	317.54	34.07	-44.1	-46.7	6.1	0.00e+00	0	30	104	0	60	26610
2026-01-16 10:49:48.76	317.93	33.70	-44.5	-46.8	6.1	0.00e+00	0	31	104	0	60	26924
2026-01-16 10:49:49.77	318.31	33.34	-44.2	-46.7	6.1	0.00e+00	0	31	104	0	60	26467
2026-01-16 10:49:50.78	318.68	32.98	-44.3	-46.7	6.1	0.00e+00	0	31	104	0	60	26503
2026-01-16 10:49:51.79	319.05	32.62	-44.1	-46.7	6.1	0.00e+00	0	31	104	0	60	26416
2026-01-16 10:49:52.80	319.40	32.27	-44.5	-46.9	6.1	0.00e+00	0	31	104	0	60	27104
2026-01-16 10:49:53.81	319.75	31.92	-44.4	-46.9	6.1	0.00e+00	0	31	104	0	60	27023
2026-01-16 10:49:54.81	320.08	31.58	-44.4	-46.8	6.1	0.00e+00	0	30	104	0	60	26920
2026-01-16 10:49:55.82	320.41	31.25	-44.6	-47.1	6.1	0.00e+00	0	31	104	0	60	27753
2026-01-16 10:49:56.83	320.74	30.91	-44.6	-47.0	6.1	0.00e+00	0	30	104	0	60	27513
2026-01-16 10:49:57.84	321.05	30.58	-44.6	-47.0	6.1	0.00e+00	0	31	104	0	60	27395
2026-01-16 10:49:58.85	321.36	30.25	-44.6	-47.0	6.1	0.00e+00	0	31	104	0	60	27313
2026-01-16 10:49:59.86	321.66	29.93	-44.5	-47.0	6.1	0.00e+00	0	31	104	0	60	27382
2026-01-16 10:50:00.87	321.96	29.61	-44.6	-47.0	6.1	0.00e+00	0	31	104	0	60	27558
2026-01-16 10:50:01.87	322.24	29.30	-44.6	-47.0	6.1	0.00e+00	0	31	104	0	60	27411
2026-01-16 10:50:02.88	322.53	28.99	-44.5	-46.8	6.1	0.00e+00	0	31	104	0	60	26906
2026-01-16 10:50:03.89	322.80	28.68	-44.5	-47.0	6.1	0.00e+00	0	31	104	0	60	27290
2026-01-16 10:50:04.90	323.08	28.38	-44.7	-47.1	6.1	0.00e+00	0	31	104	0	60	27588
2026-01-16 10:50:05.91	323.34	28.07	-44.4	-46.8	6.1	0.00e+00	0	31	104	0	60	26944
2026-01-16 10:50:06.92	323.60	27.78	-44.5	-46.9	6.1	0.00e+00	0	31	104	0	60	27098
2026-01-16 10:50:07.93	323.86	27.48	-44.5	-47.0	6.1	0.00e+00	0	31	104	0	60	27413
2026-01-16 10:50:08.94	324.11	27.20	-44.5	-46.9	6.1	0.00e+00	0	31	104	0	60	27024
2026-01-16 10:50:09.95	324.35	26.91	-44.3	-46.7	6.1	0.00e+00	0	31	104	0	60	26610
2026-01-16 10:50:10.96	324.59	26.63	-44.4	-46.7	6.1	0.00e+00	0	31	104	0	60	26560
2026-01-16 10:50:11.97	324.82	26.35	-44.4	-46.8	6.1	0.00e+00	0	31	104	0	60	26864
2026-01-16 10:50:12.98	325.05	26.07	-44.6	-46.9	6.1	0.00e+00	0	31	104	0	60	27198
2026-01-16 10:50:13.99	325.28	25.80	-44.4	-46.8	6.1	0.00e+00	0	31	104	0	60	26762
2026-01-16 10:50:15.00	325.50	25.53	-44.5	-46.9	6.1	0.00e+00	0	31	104	0	60	27113
2026-01-16 10:50:16.01	325.72	25.26	-44.5	-46.9	6.1	0.00e+00	0	30	104	0	60	27180
2026-01-16 10:50:17.02	325.93	25.00	-44.5	-46.8	6.1	0.00e+00	0	31	104	0	60	26802
2026-01-16 10:50:18.03	326.14	24.74	-44.4	-46.8	6.0	0.00e+00	0	31	104	0	60	26876
2026-01-16 10:50:19.04	326.35	24.48	-44.4	-46.8	6.1	0.00e+00	0	31	104	0	60	26747
2026-01-16 10:50:20.05	326.55	24.23	-44.5	-46.9	6.1	0.00e+00	0	31	104	0	60	26958
2026-01-16 10:50:21.06	326.75	23.98	-44.5	-46.8	6.1	0.00e+00	0	31	104	0	60	26944
2026-01-16 10:50:22.07	326.94	23.73	-44.3	-46.7	6.1	0.00e+00	0	31	104	0	60	26474
2026-01-16 10:50:23.07	327.13	23.49	-44.4	-46.8	6.1	0.00e+00	0	31	104	0	60	26769
2026-01-16 10:50:24.08	327.32	23.24	-44.4	-46.8	6.1	0.00e+00	0	31	104	0	60	26818
2026-01-16 10:50:25.09	327.50	23.01	-44.5	-46.8	6.1	0.00e+00	0	31	104	0	60	26881
2026-01-16 10:50:26.10	327.68	22.77	-44.4	-46.8	6.1	0.00e+00	0	31	104	0	60	26720
2026-01-16 10:50:27.11	327.86	22.53	-44.4	-46.8	6.1	0.00e+00	0	31	104	0	60	26829
2026-01-16 10:50:28.12	328.03	22.30	-44.4	-46.8	6.1	0.00e+00	0	31	104	0	60	26891
2026-01-16 10:50:29.13	328.21	22.07	-44.3	-46.7	6.1	0.00e+00	0	31	104	0	60	26480
2026-01-16 10:50:30.14	328.37	21.85	-44.4	-46.8	6.1	0.00e+00	0	31	104	0	60	26712
2026-01-16 10:50:31.15	328.54	21.62	-44.5	-46.9	6.1	0.00e+00	0	31	104	0	60	27091
2026-01-16 10:50:32.16	328.70	21.40	-44.4	-46.8	6.1	0.00e+00	0	31	104	0	60	26680
2026-01-16 10:50:33.17	328.86	21.19	-44.3	-46.7	6.0	0.00e+00	0	31	104	0	60	26468
2026-01-16 10:50:34.18	329.02	20.97	-44.3	-46.7	6.1	0.00e+00	0	31	104	0	60	26407
2026-01-16 10:50:35.19	329.18	20.75	-44.5	-46.9	6.1	0.00e+00	0	31	104	0	60	27092
2026-01-16 10:50:36.20	329.33	20.54	-44.4	-46.8	6.1	0.00e+00	0	31	104	0	60	26922
2026-01-16 10:50:37.21	329.48	20.33	-44.3	-46.7	6.1	0.00e+00	0	31	104	0	60	26433
2026-01-16 10:50:38.22	329.63	20.13	-44.3	-46.7	6.1	0.00e+00	0	31	104	0	60	26512
2026-01-16 10:50:39.23	329.77	19.92	-44.3	-46.7	6.1	0.00e+00	0	31	104	0	60	26363
2026-01-16 10:50:40.24	329.92	19.72	-44.4	-46.8	6.1	0.00e+00	0	31	104	0	60	26928
2026-01-16 10:50:41.25	330.06	19.52	-44.4	-46.7	6.1	0.00e+00	0	31	104	0	60	26637
2026-01-16 10:50:42.26	330.20	19.32	-44.2	-46.6	6.1	0.00e+00	0	31	104	0	60	26274
2026-01-16 10:50:43.27	330.33	19.13	-44.2	-46.6	6.1	0.00e+00	0	31	104	0	60	26283
2026-01-16 10:50:44.28	330.47	18.93	-44.3	-46.7	6.1	0.00e+00	0	31	104	0	60	26580
2026-01-16 10:50:45.29	330.60	18.74	-44.3	-46.8	6.1	0.00e+00	0	31	104	0	60	26665
2026-01-16 10:50:46.30	330.73	18.55	-44.3	-46.7	6.1	0.00e+00	0	31	104	0	60	26476
2026-01-16 10:50:47.31	330.86	18.36	-44.3	-46.6	6.1	0.00e+00	0	31	104	0	60	26247
2026-01-16 10:50:48.32	330.99	18.17	-44.3	-46.7	6.1	0.00e+00	0	31	104	0	60	26470
2026-01-16 10:50:49.33	331.11	17.99	-44.2	-46.6	6.1	0.00e+00	0	31	104	0	60	26255
2026-01-16 10:50:50.34	331.24	17.81	-44.2	-46.6	6.1	0.00e+00	0	31	104	0	60	26272
2026-01-16 10:50:51.35	331.36	17.63	-44.3	-46.6	6.1	0.00e+00	0	31	104	0	60	26266
2026-01-16 10:50:52.35	331.48	17.45	-44.2	-46.7	6.1	0.00e+00	0	31	104	0	60	26434
2026-01-16 10:50:53.36	331.59	17.27	-44.2	-46.6	6.1	0.00e+00	0	31	104	0	60	26207
2026-01-16 10:50:54.37	331.71	17.10	-44.2	-46.6	6.1	0.00e+00	0	31	104	0	60	26095
2026-01-16 10:50:55.38	331.83	16.92	-44.3	-46.7	6.1	0.00e+00	0	31	104	0	60	26340
2026-01-16 10:50:56.39	331.94	16.75	-44.2	-46.6	6.0	0.00e+00	0	31	104	0	60	26251
2026-01-16 10:50:57.40	332.05	16.58	-44.2	-46.6	6.1	0.00e+00	0	31	104	0	60	26038
2026-01-16 10:50:58.41	332.16	16.41	-44.2	-46.6	6.1	0.00e+00	0	31	104	0	60	26199
2026-01-16 10:50:59.42	332.27	16.25	-44.2	-46.6	6.1	0.00e+00	0	31	104	0	60	26185
2026-01-16 10:51:00.43	332.38	16.08	-44.2	-46.6	6.1	0.00e+00	0	31	104	0	60	26081
2026-01-16 10:51:01.44	332.48	15.92	-44.2	-46.5	6.1	0.00e+00	0	31	104	0	60	25949
2026-01-16 10:51:02.45	332.59	15.75	-44.1	-46.5	6.1	0.00e+00	0	31	104	0	60	25975
2026-01-16 10:51:03.46	332.69	15.59	-44.2	-46.6	6.1	0.00e+00	0	31	104	0	60	26129
2026-01-16 10:51:04.47	332.79	15.43	-44.1	-46.5	6.1	0.00e+00	0	31	104	0	60	25973
2026-01-16 10:51:05.48	332.89	15.28	-44.1	-46.5	6.1	0.00e+00	0	31	104	0	60	26006
2026-01-16 10:51:06.49	332.99	15.12	-44.2	-46.6	6.1	0.00e+00	0	31	104	0	60	26121
2026-01-16 10:51:07.50	333.09	14.96	-44.1	-46.6	6.0	0.00e+00	0	31	104	0	60	26064
2026-01-16 10:51:08.51	333.19	14.81	-44.2	-46.6	6.1	0.00e+00	0	31	104	0	60	26139
2026-01-16 10:51:09.51	333.28	14.66	-44.1	-46.6	6.1	0.00e+00	0	31	104	0	60	26055
2026-01-16 10:51:10.52	333.37	14.51	-44.1	-46.5	6.1	0.00e+00	0	31	104	0	60	25775
2026-01-16 10:51:11.53	333.47	14.36	-44.2	-46.5	6.1	0.00e+00	0	31	104	0	60	26032
2026-01-16 10:51:12.54	333.56	14.21	-44.2	-46.6	6.1	0.00e+00	0	31	104	0	60	26170
2026-01-16 10:51:13.55	333.65	14.06	-44.1	-46.5	6.1	0.00e+00	0	31	104	0	60	26022
2026-01-16 10:51:14.56	333.74	13.92	-44.2	-46.6	6.1	0.00e+00	0	31	104	0	60	26077
2026-01-16 10:51:15.57	333.83	13.77	-44.2	-46.6	6.1	0.00e+00	0	31	104	0	60	26117
2026-01-16 10:51:16.58	333.92	13.63	-44.2	-46.6	6.1	0.00e+00	0	31	104	0	60	26177
2026-01-16 10:51:17.59	334.00	13.49	-44.2	-46.6	6.1	0.00e+00	0	31	104	0	60	26054
2026-01-16 10:51:18.60	334.09	13.35	-44.0	-46.5	6.1	0.00e+00	0	31	104	0	60	25771
2026-01-16 10:51:19.61	334.17	13.21	-44.1	-46.5	6.1	0.00e+00	0	31	104	0	60	25946
2026-01-16 10:51:20.62	334.25	13.07	-44.1	-46.5	6.1	0.00e+00	0	31	104	0	60	25901
2026-01-16 10:51:21.63	334.34	12.93	-44.0	-46.5	6.1	0.00e+00	0	31	104	0	60	25741
2026-01-16 10:51:22.64	334.42	12.80	-44.1	-46.5	6.1	0.00e+00	0	31	104	0	60	25892
2026-01-16 10:51:23.65	334.50	12.66	-44.1	-46.5	6.1	0.00e+00	0	31	104	0	60	25771
2026-01-16 10:51:24.66	334.58	12.53	-44.1	-46.5	6.1	0.00e+00	0	31	104	0	60	25932
2026-01-16 10:51:25.67	334.66	12.39	-44.1	-46.4	6.1	0.00e+00	0	31	104	0	60	25667
2026-01-16 10:51:26.68	334.74	12.26	-44.1	-46.4	6.1	0.00e+00	0	31	104	0	60	25697
2026-01-16 10:51:27.69	334.81	12.13	-44.1	-46.5	6.1	0.00e+00	0	31	104	0	60	25869
2026-01-16 10:51:28.70	334.89	12.00	-44.0	-46.4	6.1	0.00e+00	0	31	104	0	60	25647
2026-01-16 10:51:29.71	334.96	11.87	-44.0	-46.4	6.1	0.00e+00	0	31	104	0	60	25557
2026-01-16 10:51:30.72	335.04	11.74	-44.0	-46.4	6.1	0.00e+00	0	31	104	0	60	25522
2026-01-16 10:51:31.73	335.11	11.62	-44.0	-46.4	6.1	0.00e+00	0	31	104	0	60	25484
2026-01-16 10:51:32.74	335.19	11.49	-44.0	-46.5	6.1	0.00e+00	0	31	104	0	60	25750
2026-01-16 10:51:33.75	335.26	11.37	-44.0	-46.4	6.1	0.00e+00	0	31	104	0	60	25545
2026-01-16 10:51:34.76	335.33	11.24	-44.0	-46.4	6.1	0.00e+00	0	31	104	0	60	25516
2026-01-16 10:51:35.77	335.40	11.12	-44.0	-46.4	6.1	0.00e+00	0	31	104	0	60	25611
2026-01-16 10:51:36.78	335.47	11.00	-43.9	-46.3	6.1	0.00e+00	0	31	104	0	60	25285
2026-01-16 10:51:37.79	335.54	10.87	-44.0	-46.4	6.1	0.00e+00	0	31	104	0	60	25513
2026-01-16 10:51:38.80	335.61	10.75	-44.0	-46.3	6.1	0.00e+00	0	31	104	0	60	25377
2026-01-16 10:51:39.81	335.67	10.63	-44.0	-46.4	6.1	0.00e+00	0	31	104	0	60	25521
2026-01-16 10:51:40.82	335.74	10.52	-44.0	-46.3	6.0	0.00e+00	0	31	104	0	60	25441
2026-01-16 10:51:41.82	335.81	10.40	-43.9	-46.3	6.1	0.00e+00	0	31	104	0	60	25314
2026-01-16 10:51:42.83	335.87	10.28	-43.9	-46.3	6.1	0.00e+00	0	31	104	0	60	25365
2026-01-16 10:51:43.84	335.94	10.17	-44.0	-46.4	6.1	0.00e+00	0	31	104	0	60	25472
2026-01-16 10:51:44.85	336.00	10.05	-43.9	-46.3	6.1	0.00e+00	0	31	104	0	60	25277
2026-01-16 10:51:45.86	336.07	9.94	-44.0	-46.4	6.1	0.00e+00	0	31	104	0	60	25476
2026-01-16 10:51:46.87	336.13	9.82	-43.9	-46.3	6.1	0.00e+00	0	31	104	0	60	25247
2026-01-16 10:51:47.88	336.19	9.71	-44.0	-46.3	6.1	0.00e+00	0	31	104	0	60	25419
2026-01-16 10:51:48.89	336.25	9.60	-43.9	-46.3	6.1	0.00e+00	0	31	104	0	60	25160
2026-01-16 10:51:49.90	336.31	9.49	-43.9	-46.3	6.1	0.00e+00	0	31	104	0	60	25435
2026-01-16 10:51:50.91	336.37	9.37	-43.9	-46.3	6.1	0.00e+00	0	31	104	0	60	25419
2026-01-16 10:51:51.92	336.43	9.26	-44.0	-46.4	6.1	0.00e+00	0	31	104	0	60	25666
2026-01-16 10:51:52.93	336.49	9.16	-43.9	-46.3	6.1	0.00e+00	0	31	104	0	60	25207
2026-01-16 10:51:53.94	336.55	9.05	-43.9	-46.3	6.1	0.00e+00	0	31	104	0	60	25269
2026-01-16 10:51:54.95	336.61	8.94	-43.8	-46.2	6.1	0.00e+00	0	31	104	0	60	24928
2026-01-16 10:51:55.96	336.67	8.83	-43.9	-46.3	6.1	0.00e+00	0	31	104	0	60	25367
2026-01-16 10:51:56.97	336.73	8.73	-43.8	-46.2	6.1	0.00e+00	0	31	104	0	60	24950
2026-01-16 10:51:57.98	336.78	8.62	-43.9	-46.3	6.1	0.00e+00	0	31	104	0	60	25282
2026-01-16 10:51:58.99	336.84	8.51	-43.8	-46.2	6.1	0.00e+00	0	31	104	0	60	24965
2026-01-16 10:52:00.00	336.90	8.41	-43.9	-46.3	6.1	0.00e+00	0	31	104	0	60	25237
2026-01-16 10:52:01.01	336.95	8.31	-43.8	-46.1	6.1	0.00e+00	0	31	104	0	60	24833
2026-01-16 10:52:02.01	337.00	8.20	-43.9	-46.3	6.1	0.00e+00	0	31	104	0	60	25210
2026-01-16 10:52:03.02	337.06	8.10	-43.8	-46.2	6.1	0.00e+00	0	31	104	0	60	24896
2026-01-16 10:52:04.03	337.11	8.00	-43.9	-46.3	6.1	0.00e+00	0	31	104	0	60	25238
2026-01-16 10:52:05.04	337.17	7.90	-43.8	-46.2	6.1	0.00e+00	0	31	104	0	60	24892
2026-01-16 10:52:06.05	337.22	7.80	-43.8	-46.2	6.1	0.00e+00	0	31	104	0	60	25048
2026-01-16 10:52:07.06	337.27	7.70	-43.7	-46.1	6.1	0.00e+00	0	31	104	0	60	24683
2026-01-16 10:52:08.07	337.32	7.60	-43.8	-46.1	6.1	0.00e+00	0	31	104	0	60	24860
2026-01-16 10:52:09.08	337.37	7.50	-43.6	-46.0	6.1	0.00e+00	0	31	104	0	60	24482
2026-01-16 10:52:10.09	337.42	7.40	-43.7	-46.1	6.1	0.00e+00	0	31	104	0	60	24842
2026-01-16 10:52:11.10	337.48	7.30	-43.7	-46.0	6.1	0.00e+00	0	31	104	0	60	24489
2026-01-16 10:52:12.11	337.53	7.21	-43.8	-46.3	6.1	0.00e+00	0	31	104	0	60	25170
2026-01-16 10:52:13.12	337.57	7.11	-43.6	-46.0	6.1	0.00e+00	0	31	104	0	60	24447
2026-01-16 10:52:14.13	337.62	7.01	-43.8	-46.2	6.1	0.00e+00	0	31	104	0	60	24903
2026-01-16 10:52:15.14	337.67	6.92	-43.6	-45.9	6.1	0.00e+00	0	31	104	0	60	24240
2026-01-16 10:52:16.15	337.72	6.82	-43.7	-46.1	6.1	0.00e+00	0	31	104	0	60	24805
2026-01-16 10:52:17.16	337.77	6.73	-43.5	-45.9	6.1	0.00e+00	0	31	104	0	60	24074
2026-01-16 10:52:18.17	337.82	6.63	-43.6	-46.0	6.1	0.00e+00	0	31	104	0	60	24458
2026-01-16 10:52:19.18	337.86	6.54	-43.4	-45.8	6.1	0.00e+00	0	31	104	0	60	24019
2026-01-16 10:52:20.19	337.91	6.45	-43.6	-46.0	6.1	0.00e+00	0	31	104	0	60	24414
2026-01-16 10:52:21.20	337.96	6.36	-43.3	-45.7	6.1	0.00e+00	0	31	104	0	60	23731
2026-01-16 10:52:22.21	338.00	6.26	-43.6	-46.0	6.1	0.00e+00	0	31	104	0	60	24438
2026-01-16 10:52:23.22	338.05	6.17	-43.2	-45.6	6.1	0.00e+00	0	31	104	0	60	23346
2026-01-16 10:52:24.23	338.09	6.08	-43.6	-46.0	6.1	0.00e+00	0	31	104	0	60	24384
2026-01-16 10:52:25.24	338.14	5.99	-43.0	-45.4	6.1	0.00e+00	0	31	104	0	60	22936
2026-01-16 10:52:26.25	338.18	5.90	-43.5	-45.9	6.1	0.00e+00	0	31	104	0	60	24108
2026-01-16 10:52:27.26	338.23	5.81	-42.8	-45.2	6.1	0.00e+00	0	31	104	0	60	22294
2026-01-16 10:52:28.27	338.27	5.72	-42.3	-44.7	6.1	0.00e+00	0	31	104	0	60	21097
2026-01-16 10:52:29.27	338.32	5.64	-41.8	-44.1	6.1	0.00e+00	0	31	104	0	60	19737
2026-01-16 10:52:30.28	338.36	5.55	-41.3	-43.6	6.1	0.00e+00	0	31	104	0	58	20894
2026-01-16 10:52:31.30	338.40	5.46	-40.8	-43.2	6.1	0.00e+00	0	31	104	0	56	22365
2026-01-16 10:52:32.30	338.44	5.37	-42.1	-44.5	6.1	0.00e+00	0	31	104	0	58	23204
2026-01-16 10:52:33.32	338.49	5.29	-43.1	-45.5	6.0	0.00e+00	0	31	104	0	60	23033
2026-01-16 10:52:34.32	338.53	5.20	-41.1	-43.5	6.1	0.00e+00	0	31	104	0	58	20541
2026-01-16 10:52:35.34	338.57	5.11	-41.7	-44.1	6.1	0.00e+00	0	31	104	0	58	22098
2026-01-16 10:52:36.34	338.61	5.03	-40.7	-43.2	6.1	0.00e+00	0	31	104	0	56	22169
2026-01-16 10:52:37.35	338.65	4.94	-40.5	-43.0	6.1	0.00e+00	0	31	104	0	56	21704
2026-01-16 10:52:38.36	338.69	4.86	-40.5	-42.9	6.1	0.00e+00	0	31	104	0	56	21425
2026-01-16 10:52:39.38	338.73	4.77	-40.4	-42.8	6.1	0.00e+00	0	31	104	0	56	21384
2026-01-16 10:52:40.39	338.77	4.69	-40.4	-42.9	6.0	0.00e+00	0	31	104	0	56	21454
2026-01-16 10:52:41.39	338.81	4.61	-40.9	-43.3	6.1	0.00e+00	0	31	104	0	56	22550
2026-01-16 10:52:42.40	338.85	4.52	-41.7	-44.0	6.1	0.00e+00	0	31	104	0	58	21822
2026-01-16 10:52:43.42	338.89	4.44	-40.6	-43.0	6.1	0.00e+00	0	31	104	0	56	21732
2026-01-16 10:52:44.43	338.93	4.36	-40.7	-43.2	6.1	0.00e+00	0	31	104	0	56	22182
2026-01-16 10:52:45.44	338.97	4.28	-40.5	-42.9	6.1	0.00e+00	0	31	104	0	56	21507
2026-01-16 10:52:46.45	339.01	4.20	-40.4	-42.9	6.1	0.00e+00	0	31	104	0	56	21410
2026-01-16 10:52:47.46	339.05	4.11	-40.4	-42.8	6.1	0.00e+00	0	31	104	0	56	21334
2026-01-16 10:52:48.47	339.08	4.03	-40.4	-42.7	6.1	0.00e+00	0	31	104	0	56	21135
2026-01-16 10:52:49.47	339.12	3.95	-40.4	-42.8	6.1	0.00e+00	0	31	104	0	56	21395
2026-01-16 10:52:50.48	339.16	3.87	-40.5	-42.9	6.1	0.00e+00	0	31	104	0	56	21444
2026-01-16 10:52:51.49	339.20	3.79	-40.5	-43.0	6.1	0.00e+00	0	31	104	0	56	21659
2026-01-16 10:52:52.50	339.23	3.71	-40.5	-42.9	6.1	0.00e+00	0	31	104	0	56	21545
2026-01-16 10:52:53.51	339.27	3.64	-40.6	-43.0	6.1	0.00e+00	0	31	104	0	56	21883
2026-01-16 10:52:54.52	339.31	3.56	-40.6	-43.0	6.1	0.00e+00	0	31	104	0	56	21681
2026-01-16 10:52:55.53	339.34	3.48	-40.5	-43.0	6.1	0.00e+00	0	31	104	0	56	21660
2026-01-16 10:52:56.54	339.38	3.40	-40.6	-43.0	6.1	0.00e+00	0	31	104	0	56	21820
2026-01-16 10:52:57.55	339.41	3.32	-40.6	-43.1	6.1	0.00e+00	0	31	104	0	56	21952
2026-01-16 10:52:58.56	339.45	3.25	-40.7	-43.1	6.1	0.00e+00	0	31	104	0	56	22140
2026-01-16 10:52:59.57	339.48	3.17	-40.7	-43.1	6.1	0.00e+00	0	31	104	0	56	21951
2026-01-16 10:53:00.57	339.52	3.09	-40.8	-43.1	6.1	0.00e+00	0	31	104	0	56	22127
2026-01-16 10:53:01.59	339.55	3.02	-40.7	-43.1	6.1	0.00e+00	0	32	104	0	56	22123
2026-01-16 10:53:02.60	339.59	2.94	-43.8	-46.2	6.1	0.00e+00	0	31	104	0	60	24884
2026-01-16 10:53:03.61	339.62	2.86	-44.4	-46.8	6.1	0.00e+00	0	31	104	0	60	26658
2026-01-16 10:53:04.62	339.66	2.79	-44.6	-47.0	6.1	0.00e+00	0	31	104	0	60	27360
2026-01-16 10:53:05.63	339.69	2.71	-44.8	-47.2	6.1	0.00e+00	0	31	104	0	60	28048
2026-01-16 10:53:06.64	339.72	2.64	-44.7	-47.2	6.1	0.00e+00	0	31	104	0	60	27952
2026-01-16 10:53:07.65	339.76	2.57	-44.9	-47.3	6.1	0.00e+00	0	31	104	0	60	28230
2026-01-16 10:53:08.66	339.79	2.49	-44.8	-47.2	6.1	0.00e+00	0	32	104	0	60	28026
2026-01-16 10:53:09.67	339.82	2.42	-44.7	-47.1	6.1	0.00e+00	0	32	104	0	60	27860
2026-01-16 10:53:10.68	339.86	2.34	-44.5	-46.9	6.1	0.00e+00	0	31	104	0	60	27190
2026-01-16 10:53:11.69	339.89	2.27	-44.5	-46.9	6.1	0.00e+00	0	31	104	0	60	27188
2026-01-16 10:53:12.70	339.92	2.20	-44.6	-47.0	6.1	0.00e+00	0	32	104	0	60	27482
2026-01-16 10:53:13.71	339.95	2.12	-44.6	-46.9	6.1	0.00e+00	0	32	104	0	60	27252
2026-01-16 10:53:14.72	339.98	2.05	-44.5	-46.9	6.1	0.00e+00	0	32	104	0	60	27049
2026-01-16 10:53:15.73	340.02	1.98	-44.4	-46.8	6.1	0.00e+00	0	32	104	0	60	26941
2026-01-16 10:53:16.74	340.05	1.91	-44.5	-46.9	6.1	0.00e+00	0	32	104	0	60	27121
2026-01-16 10:53:17.75	340.08	1.84	-44.6	-47.0	6.1	0.00e+00	0	31	104	0	60	27369
2026-01-16 10:53:18.76	340.11	1.76	-44.7	-47.1	6.1	0.00e+00	0	31	104	0	60	27631
2026-01-16 10:53:19.77	340.14	1.69	-44.5	-46.9	6.1	0.00e+00	0	32	104	0	60	27125
2026-01-16 10:53:20.78	340.17	1.62	-44.6	-46.9	6.1	0.00e+00	0	32	104	0	60	27180
2026-01-16 10:53:21.79	340.20	1.55	-44.7	-47.1	6.1	0.00e+00	0	32	104	0	60	27680
2026-01-16 10:53:22.80	340.23	1.48	-44.9	-47.2	6.1	0.00e+00	0	32	104	0	60	28190
2026-01-16 10:53:23.81	340.26	1.41	-44.8	-47.1	6.1	0.00e+00	0	32	104	0	60	27717
2026-01-16 10:53:24.82	340.29	1.34	-44.6	-47.0	6.1	0.00e+00	0	32	104	0	60	27553
2026-01-16 10:53:25.83	340.32	1.27	-44.7	-47.0	6.1	0.00e+00	0	32	104	0	60	27554
2026-01-16 10:53:26.84	340.35	1.20	-44.8	-47.2	6.1	0.00e+00	0	31	104	0	60	28001
2026-01-16 10:53:27.85	340.38	1.13	-44.7	-47.1	6.1	0.00e+00	0	32	104	0	60	27774
2026-01-16 10:53:28.86	340.41	1.07	-44.6	-47.0	6.1	0.00e+00	0	32	104	0	60	27369
2026-01-16 10:53:29.87	340.44	1.00	-44.7	-47.1	6.1	0.00e+00	0	31	104	0	60	27667
2026-01-16 10:53:30.88	340.47	0.93	-44.8	-47.2	6.1	0.00e+00	0	32	104	0	60	28003
2026-01-16 10:53:31.89	340.50	0.86	-44.6	-47.0	6.1	0.00e+00	0	32	104	0	60	27424
2026-01-16 10:53:32.90	340.53	0.79	-45.2	-47.5	6.1	0.00e+00	0	32	104	0	60	29205
2026-01-16 10:53:33.91	340.55	0.72	-44.9	-47.2	6.1	0.00e+00	0	32	104	0	60	28148
2026-01-16 10:53:34.91	340.58	0.66	-45.0	-47.4	6.1	0.00e+00	0	32	104	0	60	28600
2026-01-16 10:53:35.92	340.61	0.59	-44.7	-47.1	6.1	0.00e+00	0	32	104	0	60	27681
2026-01-16 10:53:36.93	340.64	0.52	-44.7	-47.1	6.1	0.00e+00	0	32	104	0	60	27745
2026-01-16 10:53:37.94	340.67	0.46	-45.0	-47.4	6.1	0.00e+00	0	31	104	0	60	28654
2026-01-16 10:53:38.95	340.69	0.39	-44.8	-47.1	6.1	0.00e+00	0	31	104	0	60	27891
2026-01-16 10:53:39.96	340.72	0.32	-45.1	-47.5	6.1	0.00e+00	0	32	104	0	60	28984
2026-01-16 10:53:40.97	340.75	0.26	-45.1	-47.4	6.1	0.00e+00	0	32	104	0	60	28730
2026-01-16 10:53:41.98	340.78	0.19	-45.1	-47.5	6.1	0.00e+00	0	32	104	0	60	29040
2026-01-16 10:53:42.99	340.80	0.13	-45.0	-47.3	6.1	0.00e+00	0	31	104	0	60	28515
2026-01-16 10:53:44.00	340.83	0.06	-45.3	-47.7	6.1	0.00e+00	0	32	104	0	60	29720
2026-01-16 10:53:45.01	340.86	-0.01	-45.2	-47.6	6.1	0.00e+00	0	32	104	0	60	29321
2026-01-16 10:53:46.02	340.88	-0.07	-45.1	-47.5	6.1	0.00e+00	0	32	104	0	60	29070
2026-01-16 10:53:47.03	340.91	-0.14	-44.9	-47.3	6.1	0.00e+00	0	32	104	0	60	28305

#Closed at: 2026-01-16 10:53:47
#Recorded file [0 MB]: D:/lorett/data/35029_260116_224356.dat