passes_logs/2026/01/16/R4.6S_Anadyr/R4.6S_Anadyr__20260116_135602_NOAA_21_JPSS-2_rec.log

#Pass ID: 20260116_135602_NOAA 21 (JPSS-2)
#Satellite: NOAA 21 (JPSS-2)
#Configuration: NOAA-21
#almurnet v.1.7.20251203
#Start time: 2026-01-16 13:56:05

#Version: 2.2.20231116
#Station: R4.6S_Anadyr
#Location: 177.4865 lon 64.73178 lat
#TLE: 1 54234U 22150A   26015.92901934  .00000025  00000+0  32700-4 0  9991
#TLE: 2 54234  98.7499 316.8175 0000634 284.8145  75.2961 14.19534841164946

#Time	Az	El	Level	Level2	SNR	BER	BlckErr	Temp	State	Recorded	gain1	gain2
2026-01-16 13:56:05.65	19.29	0.19	-48.7	-60.1	3.3	1.54e+00	0	26	0	0	60	35437
2026-01-16 13:56:06.66	19.32	0.25	-48.2	-61.1	3.5	1.52e+00	0	26	104	0	60	39919
2026-01-16 13:56:07.67	19.35	0.30	-48.0	-61.0	3.5	1.52e+00	0	26	104	0	60	39449
2026-01-16 13:56:08.68	19.38	0.36	-48.0	-61.0	3.5	1.52e+00	0	26	104	0	60	39184
2026-01-16 13:56:09.68	19.40	0.42	-48.1	-61.0	3.5	1.51e+00	0	26	104	0	60	39164
2026-01-16 13:56:10.69	19.43	0.48	-48.0	-60.9	3.5	1.52e+00	0	26	104	0	60	39042
2026-01-16 13:56:11.70	19.46	0.54	-48.0	-60.9	3.5	1.52e+00	0	26	104	0	60	38916
2026-01-16 13:56:12.72	19.49	0.60	-47.9	-60.8	3.5	1.52e+00	0	27	104	0	60	38361
2026-01-16 13:56:13.72	19.52	0.66	-47.8	-60.6	3.5	1.52e+00	0	26	104	0	60	37623
2026-01-16 13:56:14.73	19.55	0.72	-47.7	-60.5	3.5	1.52e+00	0	27	104	0	60	37092
2026-01-16 13:56:15.74	19.58	0.78	-47.5	-60.3	3.4	1.52e+00	0	27	104	0	60	36456
2026-01-16 13:56:16.75	19.60	0.84	-47.3	-60.1	3.5	1.52e+00	0	27	104	0	60	35557
2026-01-16 13:56:17.76	19.63	0.90	-47.1	-59.9	3.5	1.52e+00	0	27	104	0	60	34821
2026-01-16 13:56:18.77	19.66	0.96	-46.8	-59.7	3.5	1.52e+00	0	27	104	0	60	33877
2026-01-16 13:56:19.79	19.69	1.02	-46.4	-59.3	3.5	1.52e+00	0	27	104	0	60	32265
2026-01-16 13:56:20.80	19.72	1.09	-46.4	-59.2	3.5	1.52e+00	0	26	104	0	60	32031
2026-01-16 13:56:21.80	19.75	1.15	-46.4	-59.2	3.5	1.52e+00	0	27	104	0	60	32047
2026-01-16 13:56:22.81	19.78	1.21	-46.4	-59.2	3.5	1.52e+00	0	27	104	0	60	32033
2026-01-16 13:56:23.82	19.81	1.27	-46.4	-59.2	3.5	1.52e+00	0	27	104	0	60	31931
2026-01-16 13:56:24.83	19.84	1.33	-46.4	-59.1	3.5	1.51e+00	0	26	104	0	60	31822
2026-01-16 13:56:25.84	19.87	1.39	-46.3	-59.1	3.5	1.52e+00	0	27	104	0	60	31538
2026-01-16 13:56:26.85	19.90	1.45	-46.3	-59.1	3.5	1.52e+00	0	27	104	0	60	31658
2026-01-16 13:56:27.86	19.93	1.51	-46.3	-59.1	3.5	1.52e+00	0	27	104	0	60	31786
2026-01-16 13:56:28.87	19.96	1.58	-46.3	-59.2	3.5	1.52e+00	0	27	104	0	60	32113
2026-01-16 13:56:29.88	19.99	1.64	-46.3	-59.2	3.5	1.52e+00	0	27	104	0	60	31957
2026-01-16 13:56:30.89	20.02	1.70	-46.3	-59.1	3.5	1.52e+00	0	27	104	0	60	31776
2026-01-16 13:56:31.90	20.05	1.76	-46.3	-59.1	3.5	1.52e+00	0	27	104	0	60	31807
2026-01-16 13:56:32.91	20.08	1.82	-46.3	-59.1	3.5	1.52e+00	0	27	104	0	60	31792
2026-01-16 13:56:33.92	20.11	1.89	-46.3	-59.2	3.5	1.52e+00	0	27	104	0	60	31842
2026-01-16 13:56:34.93	20.14	1.95	-46.3	-59.1	3.5	1.52e+00	0	27	104	0	60	31735
2026-01-16 13:56:35.94	20.18	2.01	-46.3	-59.1	3.5	1.52e+00	0	27	104	0	60	31685
2026-01-16 13:56:36.94	20.21	2.07	-46.3	-58.9	3.5	1.52e+00	0	27	104	0	60	30951
2026-01-16 13:56:37.96	20.24	2.14	-46.3	-58.7	3.5	1.52e+00	0	27	104	0	60	30136
2026-01-16 13:56:38.96	20.27	2.20	-46.2	-57.8	3.5	1.51e+00	0	27	104	0	60	27334
2026-01-16 13:56:39.98	20.30	2.26	-46.2	-57.4	3.5	1.51e+00	0	27	104	0	60	25911
2026-01-16 13:56:40.98	20.33	2.33	-46.1	-56.9	3.7	1.50e+00	0	27	104	0	60	24651
2026-01-16 13:56:41.99	20.36	2.39	-46.2	-57.3	3.5	1.51e+00	0	27	104	0	60	25593
2026-01-16 13:56:43.00	20.39	2.45	-46.2	-57.8	3.5	1.51e+00	0	27	104	0	60	27263
2026-01-16 13:56:44.01	20.43	2.52	-46.3	-58.5	3.5	1.51e+00	0	27	104	0	60	29463
2026-01-16 13:56:45.02	20.46	2.58	-46.1	-56.8	3.5	1.51e+00	0	27	104	0	60	24409
2026-01-16 13:56:46.03	20.49	2.64	-45.7	-54.2	3.9	1.05e+00	0	27	104	0	60	18057
2026-01-16 13:56:47.04	20.52	2.71	-44.7	-49.6	8.2	9.37e-02	123	27	0	0	60	10552
2026-01-16 13:56:48.06	20.56	2.77	-43.2	-46.3	12.0	2.05e-03	123	27	0	3145728	60	7259
2026-01-16 13:56:49.07	20.59	2.84	-42.3	-44.9	13.5	2.28e-05	122	27	0	6291456	58	6933
2026-01-16 13:56:50.08	20.62	2.90	-40.5	-42.3	16.2	0.00e+00	123	27	0	9437184	56	5781
2026-01-16 13:56:51.08	20.65	2.97	-39.8	-41.6	16.8	0.00e+00	123	27	0	12582912	54	5945
2026-01-16 13:56:52.10	20.69	3.03	-38.7	-40.1	18.1	0.00e+00	123	27	0	15728640	50	6322
2026-01-16 13:56:53.10	20.72	3.10	-38.0	-39.3	19.0	0.00e+00	122	27	0	18874368	50	5759
2026-01-16 13:56:54.11	20.75	3.16	-37.7	-39.0	19.2	0.00e+00	122	27	0	22020096	48	6249
2026-01-16 13:56:55.12	20.79	3.23	-37.1	-38.4	19.7	0.00e+00	122	27	0	25165824	48	5816
2026-01-16 13:56:56.14	20.82	3.29	-37.9	-39.3	19.0	0.00e+00	123	27	0	28311552	48	6425
2026-01-16 13:56:57.15	20.85	3.36	-38.3	-39.7	18.4	0.00e+00	123	27	0	31457280	48	6797
2026-01-16 13:56:58.16	20.89	3.42	-39.2	-40.8	17.7	0.00e+00	122	27	0	34603008	50	6836
2026-01-16 13:56:59.17	20.92	3.49	-40.6	-42.5	15.9	0.00e+00	123	27	0	38797312	52	7415
2026-01-16 13:57:00.18	20.95	3.56	-41.1	-43.1	15.4	0.00e+00	123	27	0	41943040	54	7084
2026-01-16 13:57:01.19	20.99	3.62	-37.4	-38.7	19.6	0.00e+00	120	27	0	45088768	48	6039
2026-01-16 13:57:02.20	21.02	3.69	-38.0	-39.3	19.6	0.00e+00	120	27	0	47185920	48	6435
2026-01-16 13:57:03.21	21.06	3.76	-46.2	-58.3	3.5	1.51e+00	0	27	104	49283072	60	28888
2026-01-16 13:57:04.22	21.09	3.82	-41.4	-43.9	15.5	3.55e-01	123	27	104	49283072	60	5518
2026-01-16 13:57:05.23	21.12	3.89	-44.5	-48.5	10.1	2.23e-02	123	27	0	51380224	60	9286
2026-01-16 13:57:06.24	21.16	3.96	-40.6	-42.5	15.9	0.00e+00	122	27	0	54525952	54	6602
2026-01-16 13:57:07.25	21.19	4.02	-40.5	-42.3	16.4	0.00e+00	120	27	0	56623104	54	6433
2026-01-16 13:57:08.26	21.23	4.09	-41.0	-42.9	15.5	0.00e+00	120	27	0	59768832	54	6942
2026-01-16 13:57:09.27	21.26	4.16	-40.8	-42.7	16.3	0.00e+00	123	27	0	63963136	54	6741
2026-01-16 13:57:10.28	21.30	4.23	-40.5	-42.3	16.4	0.00e+00	122	27	0	67108864	54	6429
2026-01-16 13:57:11.29	21.33	4.29	-39.4	-41.0	17.7	0.00e+00	123	27	0	70254592	52	6209
2026-01-16 13:57:12.30	21.37	4.36	-38.3	-39.7	18.8	0.00e+00	123	27	0	73400320	50	6023
2026-01-16 13:57:13.31	21.41	4.43	-38.3	-39.7	19.0	0.00e+00	123	27	0	76546048	50	6017
2026-01-16 13:57:14.32	21.44	4.50	-38.2	-39.5	19.0	0.00e+00	122	27	0	79691776	50	5926
2026-01-16 13:57:15.33	21.48	4.57	-38.4	-39.8	18.8	0.00e+00	123	27	0	82837504	50	6079
2026-01-16 13:57:16.34	21.51	4.64	-38.5	-39.9	19.0	0.00e+00	123	27	0	85983232	50	6150
2026-01-16 13:57:17.35	21.55	4.70	-38.4	-39.8	18.6	0.00e+00	122	27	0	89128960	50	6102
2026-01-16 13:57:18.36	21.59	4.77	-38.8	-40.2	18.4	0.00e+00	122	27	0	92274688	50	6411
2026-01-16 13:57:19.37	21.62	4.84	-38.6	-39.9	18.7	0.00e+00	120	28	0	95420416	50	6194
2026-01-16 13:57:20.38	21.66	4.91	-38.4	-39.7	18.9	0.00e+00	120	27	0	98566144	50	6062
2026-01-16 13:57:21.39	21.70	4.98	-38.4	-39.8	18.9	0.00e+00	120	28	0	101711872	50	6101
2026-01-16 13:57:22.40	21.73	5.05	-38.4	-39.8	18.7	0.00e+00	123	27	0	104857600	50	6117
2026-01-16 13:57:23.41	21.77	5.12	-38.1	-39.4	19.3	0.00e+00	123	27	0	108003328	50	5804
2026-01-16 13:57:24.42	21.81	5.19	-37.2	-38.4	20.2	0.00e+00	123	28	0	111149056	48	5837
2026-01-16 13:57:25.43	21.84	5.26	-36.5	-37.6	20.9	0.00e+00	123	27	0	114294784	46	5965
2026-01-16 13:57:26.44	21.88	5.33	-36.5	-37.7	20.9	0.00e+00	122	27	0	117440512	46	5997
2026-01-16 13:57:27.45	21.92	5.40	-36.5	-37.6	21.0	0.00e+00	123	27	0	120586240	46	5955
2026-01-16 13:57:28.47	21.96	5.47	-36.5	-37.7	20.9	0.00e+00	122	28	0	123731968	46	6011
2026-01-16 13:57:29.48	22.00	5.54	-36.3	-37.4	21.2	0.00e+00	123	27	0	126877696	46	5793
2026-01-16 13:57:30.49	22.03	5.62	-36.3	-37.5	21.0	0.00e+00	120	27	0	130023424	46	5861
2026-01-16 13:57:31.49	22.07	5.69	-36.3	-37.4	21.2	0.00e+00	123	28	0	133169152	46	5825
2026-01-16 13:57:32.51	22.11	5.76	-36.3	-37.4	21.2	0.00e+00	123	28	0	136314880	46	5804
2026-01-16 13:57:33.52	22.15	5.83	-36.4	-37.5	21.1	0.00e+00	123	28	0	139460608	46	5877
2026-01-16 13:57:34.52	22.19	5.90	-36.2	-37.3	21.2	0.00e+00	122	28	0	142606336	46	5736
2026-01-16 13:57:35.53	22.23	5.97	-36.2	-37.3	21.3	0.00e+00	122	28	0	145752064	46	5740
2026-01-16 13:57:36.54	22.27	6.04	-36.4	-37.5	21.2	0.00e+00	123	28	0	148897792	46	5867
2026-01-16 13:57:37.55	22.31	6.12	-36.3	-37.4	21.2	0.00e+00	123	28	0	152043520	46	5804
2026-01-16 13:57:38.56	22.35	6.19	-36.1	-37.2	21.4	0.00e+00	122	28	0	155189248	46	5667
2026-01-16 13:57:39.57	22.39	6.26	-36.3	-37.4	21.3	0.00e+00	123	28	0	158334976	46	5843
2026-01-16 13:57:40.59	22.43	6.34	-36.1	-37.1	21.4	0.00e+00	123	28	0	161480704	46	5657
2026-01-16 13:57:41.59	22.47	6.41	-36.0	-37.1	21.6	0.00e+00	122	28	0	164626432	46	5603
2026-01-16 13:57:42.60	22.51	6.48	-35.8	-36.9	21.7	0.00e+00	123	28	0	167772160	46	5489
2026-01-16 13:57:43.61	22.55	6.56	-36.0	-37.1	21.5	0.00e+00	123	28	0	170917888	46	5595
2026-01-16 13:57:44.62	22.59	6.63	-36.1	-37.2	21.4	0.00e+00	123	28	0	174063616	46	5692
2026-01-16 13:57:45.63	22.63	6.70	-36.1	-37.2	21.4	0.00e+00	123	28	0	177209344	46	5680
2026-01-16 13:57:46.64	22.67	6.78	-36.3	-37.4	21.3	0.00e+00	123	28	0	180355072	46	5793
2026-01-16 13:57:47.65	22.71	6.85	-35.9	-37.0	21.6	0.00e+00	122	28	0	183500800	46	5570
2026-01-16 13:57:48.66	22.75	6.93	-36.2	-37.2	21.4	0.00e+00	123	28	0	186646528	46	5716
2026-01-16 13:57:49.67	22.79	7.00	-35.9	-36.9	21.6	0.00e+00	122	28	0	189792256	46	5521
2026-01-16 13:57:50.68	22.84	7.08	-35.9	-37.0	21.7	0.00e+00	121	28	0	192937984	46	5550
2026-01-16 13:57:51.69	22.88	7.15	-35.9	-36.9	21.7	0.00e+00	123	28	0	196083712	46	5521
2026-01-16 13:57:52.70	22.92	7.23	-35.8	-36.8	21.8	0.00e+00	120	28	0	199229440	46	5452
2026-01-16 13:57:53.71	22.96	7.30	-35.8	-36.8	21.8	0.00e+00	122	28	0	202375168	44	6106
2026-01-16 13:57:54.72	23.00	7.38	-35.8	-36.8	21.7	0.00e+00	123	28	0	205520896	44	6129
2026-01-16 13:57:55.74	23.05	7.46	-35.6	-36.7	21.9	0.00e+00	123	28	0	208666624	44	5998
2026-01-16 13:57:56.75	23.09	7.53	-35.9	-37.0	21.6	0.00e+00	123	28	0	211812352	44	6250
2026-01-16 13:57:57.76	23.13	7.61	-36.0	-37.1	21.5	0.00e+00	122	28	0	214958080	44	6310
2026-01-16 13:57:58.77	23.18	7.69	-35.9	-37.0	21.7	0.00e+00	120	28	0	218103808	44	6216
2026-01-16 13:57:59.78	23.22	7.76	-35.5	-36.6	22.1	0.00e+00	123	28	0	221249536	44	5943
2026-01-16 13:58:00.79	23.26	7.84	-35.5	-36.5	22.0	0.00e+00	120	28	0	224395264	44	5911
2026-01-16 13:58:01.80	23.31	7.92	-35.7	-36.7	21.8	0.00e+00	122	28	0	227540992	44	6044
2026-01-16 13:58:02.81	23.35	7.99	-35.6	-36.6	22.0	0.00e+00	120	28	0	230686720	44	5991
2026-01-16 13:58:03.82	23.40	8.07	-35.6	-36.6	22.0	0.00e+00	122	28	0	233832448	44	5982
2026-01-16 13:58:04.83	23.44	8.15	-35.3	-36.4	22.2	0.00e+00	122	28	0	236978176	44	5812
2026-01-16 13:58:05.84	23.49	8.23	-35.5	-36.5	22.0	0.00e+00	123	28	0	240123904	44	5917
2026-01-16 13:58:06.85	23.53	8.31	-35.4	-36.5	22.2	0.00e+00	123	28	0	243269632	44	5865
2026-01-16 13:58:07.86	23.58	8.39	-35.5	-36.6	22.1	0.00e+00	122	28	0	246415360	44	5932
2026-01-16 13:58:08.87	23.62	8.47	-35.3	-36.3	22.3	0.00e+00	123	28	0	249561088	44	5785
2026-01-16 13:58:09.87	23.67	8.54	-35.3	-36.3	22.3	0.00e+00	120	28	0	252706816	44	5758
2026-01-16 13:58:10.88	23.71	8.62	-35.2	-36.2	22.3	0.00e+00	123	28	0	255852544	44	5695
2026-01-16 13:58:11.90	23.76	8.70	-35.4	-36.5	22.2	0.00e+00	123	28	0	258998272	44	5868
2026-01-16 13:58:12.91	23.81	8.78	-35.2	-36.2	22.4	0.00e+00	123	28	0	262144000	44	5696
2026-01-16 13:58:13.92	23.85	8.86	-35.4	-36.4	22.2	0.00e+00	122	28	0	265289728	44	5851
2026-01-16 13:58:14.93	23.90	8.94	-35.2	-36.2	22.4	0.00e+00	123	28	0	268435456	44	5723
2026-01-16 13:58:15.94	23.95	9.02	-35.3	-36.4	22.2	0.00e+00	120	28	0	271581184	44	5806
2026-01-16 13:58:16.95	23.99	9.11	-35.2	-36.2	22.5	0.00e+00	123	28	0	274726912	44	5664
2026-01-16 13:58:17.96	24.04	9.19	-35.0	-36.0	22.6	0.00e+00	123	28	0	277872640	44	5554
2026-01-16 13:58:18.97	24.09	9.27	-35.3	-36.3	22.4	0.00e+00	121	28	0	281018368	44	5738
2026-01-16 13:58:19.98	24.14	9.35	-35.2	-36.2	22.4	0.00e+00	120	28	0	284164096	44	5693
2026-01-16 13:58:20.99	24.19	9.43	-35.0	-36.0	22.6	0.00e+00	123	28	0	287309824	44	5546
2026-01-16 13:58:22.00	24.23	9.51	-35.0	-36.0	22.6	0.00e+00	123	28	0	290455552	44	5584
2026-01-16 13:58:23.01	24.28	9.60	-35.1	-36.2	22.5	0.00e+00	123	28	0	293601280	44	5667
2026-01-16 13:58:24.02	24.33	9.68	-35.0	-36.0	22.6	0.00e+00	123	28	0	296747008	44	5554
2026-01-16 13:58:25.03	24.38	9.76	-34.9	-35.9	22.7	0.00e+00	123	28	0	299892736	44	5515
2026-01-16 13:58:26.04	24.43	9.85	-35.1	-36.2	22.5	0.00e+00	123	28	0	303038464	44	5672
2026-01-16 13:58:27.05	24.48	9.93	-35.0	-36.0	22.7	0.00e+00	122	28	0	306184192	44	5545
2026-01-16 13:58:28.06	24.53	10.01	-35.0	-36.0	22.7	0.00e+00	122	28	0	309329920	44	5539
2026-01-16 13:58:29.08	24.58	10.10	-34.9	-35.9	22.8	0.00e+00	123	28	0	312475648	44	5487
2026-01-16 13:58:30.09	24.63	10.18	-35.1	-36.0	22.7	0.00e+00	122	28	0	315621376	44	5593
2026-01-16 13:58:31.10	24.68	10.27	-34.7	-35.7	22.9	0.00e+00	122	28	0	318767104	44	5385
2026-01-16 13:58:32.11	24.73	10.35	-34.8	-35.8	22.8	0.00e+00	123	28	0	321912832	42	6111
2026-01-16 13:58:33.11	24.78	10.44	-34.9	-35.8	22.9	0.00e+00	122	28	0	325058560	42	6133
2026-01-16 13:58:34.12	24.84	10.52	-34.9	-35.8	22.9	0.00e+00	123	28	0	328204288	42	6132
2026-01-16 13:58:35.13	24.89	10.61	-34.8	-35.8	22.9	0.00e+00	120	28	0	331350016	42	6106
2026-01-16 13:58:36.14	24.94	10.69	-34.6	-35.6	23.1	0.00e+00	123	28	0	334495744	42	5974
2026-01-16 13:58:37.15	24.99	10.78	-34.6	-35.6	23.0	0.00e+00	123	28	0	337641472	42	5948
2026-01-16 13:58:38.16	25.04	10.87	-34.6	-35.6	23.1	0.00e+00	122	28	0	341835776	42	5958
2026-01-16 13:58:39.17	25.10	10.95	-34.5	-35.4	23.2	0.00e+00	123	28	0	344981504	42	5856
2026-01-16 13:58:40.19	25.15	11.04	-34.6	-35.6	23.1	0.00e+00	120	28	0	348127232	42	5945
2026-01-16 13:58:41.19	25.20	11.13	-34.5	-35.5	23.1	0.00e+00	123	28	0	350224384	42	5901
2026-01-16 13:58:42.20	25.26	11.21	-34.6	-35.6	23.1	0.00e+00	123	28	0	353370112	42	5976
2026-01-16 13:58:43.21	25.31	11.30	-34.8	-35.8	23.0	0.00e+00	122	28	0	357564416	42	6072
2026-01-16 13:58:44.22	25.37	11.39	-34.6	-35.6	23.1	0.00e+00	123	28	0	360710144	42	5948
2026-01-16 13:58:45.24	25.42	11.48	-34.5	-35.5	23.2	0.00e+00	120	28	0	363855872	42	5865
2026-01-16 13:58:46.24	25.48	11.57	-34.6	-35.6	23.2	0.00e+00	123	28	0	367001600	42	5928
2026-01-16 13:58:47.25	25.53	11.66	-34.4	-35.3	23.3	0.00e+00	121	28	0	370147328	42	5786
2026-01-16 13:58:48.26	25.59	11.75	-34.3	-35.3	23.4	0.00e+00	120	28	0	372244480	42	5739
2026-01-16 13:58:49.27	25.64	11.84	-34.3	-35.3	23.3	0.00e+00	122	28	0	376438784	42	5763
2026-01-16 13:58:50.28	25.70	11.93	-34.3	-35.2	23.5	0.00e+00	120	28	0	379584512	42	5706
2026-01-16 13:58:51.29	25.76	12.02	-34.2	-35.2	23.4	0.00e+00	122	28	0	382730240	42	5691
2026-01-16 13:58:52.30	25.81	12.11	-34.3	-35.3	23.3	0.00e+00	120	28	0	385875968	42	5750
2026-01-16 13:58:53.31	25.87	12.20	-34.3	-35.2	23.4	0.00e+00	122	28	0	389021696	42	5723
2026-01-16 13:58:54.32	25.93	12.29	-34.3	-35.3	23.4	0.00e+00	123	28	0	392167424	42	5738
2026-01-16 13:58:55.33	25.99	12.38	-34.2	-35.1	23.6	0.00e+00	123	28	0	395313152	42	5654
2026-01-16 13:58:56.34	26.04	12.47	-34.3	-35.2	23.4	0.00e+00	123	28	0	398458880	42	5707
2026-01-16 13:58:57.35	26.10	12.57	-34.1	-35.0	23.6	0.00e+00	122	28	0	401604608	42	5571
2026-01-16 13:58:58.36	26.16	12.66	-34.2	-35.1	23.5	0.00e+00	120	28	0	404750336	42	5648
2026-01-16 13:58:59.37	26.22	12.75	-34.2	-35.1	23.5	0.00e+00	121	28	0	407896064	42	5648
2026-01-16 13:59:00.38	26.28	12.85	-34.1	-35.1	23.5	0.00e+00	123	28	0	411041792	42	5611
2026-01-16 13:59:01.39	26.34	12.94	-34.2	-35.1	23.6	0.00e+00	123	28	0	414187520	42	5645
2026-01-16 13:59:02.40	26.40	13.03	-34.3	-35.2	23.5	0.00e+00	122	28	0	417333248	42	5703
2026-01-16 13:59:03.41	26.46	13.13	-34.1	-35.0	23.7	0.00e+00	120	28	0	420478976	42	5571
2026-01-16 13:59:04.42	26.52	13.22	-34.1	-35.1	23.7	0.00e+00	123	28	0	423624704	42	5599
2026-01-16 13:59:05.43	26.58	13.32	-34.3	-35.2	23.4	0.00e+00	123	28	0	426770432	42	5703
2026-01-16 13:59:06.44	26.65	13.41	-34.1	-35.1	23.7	0.00e+00	120	28	0	429916160	42	5599
2026-01-16 13:59:07.45	26.71	13.51	-34.1	-35.0	23.7	0.00e+00	123	28	0	433061888	42	5579
2026-01-16 13:59:08.46	26.77	13.60	-34.3	-35.2	23.5	0.00e+00	122	29	0	436207616	42	5690
2026-01-16 13:59:09.47	26.83	13.70	-34.2	-35.2	23.5	0.00e+00	123	28	0	439353344	42	5660
2026-01-16 13:59:10.48	26.90	13.80	-34.1	-35.0	23.6	0.00e+00	120	28	0	442499072	42	5585
2026-01-16 13:59:11.49	26.96	13.90	-34.2	-35.1	23.6	0.00e+00	119	28	0	445644800	42	5632
2026-01-16 13:59:12.50	27.03	13.99	-34.1	-35.1	23.6	0.00e+00	123	28	0	448790528	42	5603
2026-01-16 13:59:13.51	27.09	14.09	-34.1	-35.1	23.6	0.00e+00	123	28	0	451936256	42	5611
2026-01-16 13:59:14.52	27.15	14.19	-34.2	-35.2	23.5	0.00e+00	122	28	0	455081984	42	5665
2026-01-16 13:59:15.53	27.22	14.29	-34.2	-35.2	23.6	0.00e+00	123	28	0	458227712	42	5663
2026-01-16 13:59:16.54	27.29	14.39	-34.3	-35.3	23.5	0.00e+00	122	29	0	461373440	42	5746
2026-01-16 13:59:17.55	27.35	14.49	-34.3	-35.2	23.5	0.00e+00	122	28	0	464519168	42	5693
2026-01-16 13:59:18.56	27.42	14.59	-34.3	-35.3	23.4	0.00e+00	123	29	0	467664896	42	5739
2026-01-16 13:59:19.57	27.48	14.69	-34.2	-35.2	23.5	0.00e+00	123	28	0	470810624	42	5681
2026-01-16 13:59:20.58	27.55	14.79	-34.3	-35.3	23.5	0.00e+00	123	28	0	473956352	42	5731
2026-01-16 13:59:21.59	27.62	14.89	-34.4	-35.4	23.4	0.00e+00	123	28	0	477102080	42	5793
2026-01-16 13:59:22.60	27.69	14.99	-34.4	-35.3	23.4	0.00e+00	123	29	0	480247808	42	5783
2026-01-16 13:59:23.61	27.76	15.09	-34.5	-35.4	23.3	0.00e+00	122	28	0	483393536	42	5853
2026-01-16 13:59:24.62	27.83	15.19	-34.3	-35.3	23.5	0.00e+00	122	28	0	486539264	42	5742
2026-01-16 13:59:25.63	27.90	15.29	-34.4	-35.3	23.5	0.00e+00	123	29	0	489684992	42	5763
2026-01-16 13:59:26.64	27.97	15.40	-34.3	-35.2	23.5	0.00e+00	123	29	0	492830720	42	5715
2026-01-16 13:59:27.65	28.04	15.50	-34.3	-35.3	23.5	0.00e+00	122	29	0	495976448	42	5734
2026-01-16 13:59:28.66	28.11	15.60	-34.4	-35.4	23.4	0.00e+00	123	29	0	499122176	42	5792
2026-01-16 13:59:29.68	28.18	15.71	-34.4	-35.3	23.5	0.00e+00	122	29	0	502267904	42	5777
2026-01-16 13:59:30.69	28.25	15.81	-34.5	-35.4	23.5	0.00e+00	122	29	0	505413632	42	5839
2026-01-16 13:59:31.70	28.32	15.92	-34.5	-35.5	23.4	0.00e+00	123	28	0	508559360	42	5890
2026-01-16 13:59:32.71	28.40	16.02	-34.7	-35.6	23.3	0.00e+00	122	28	0	511705088	42	5993
2026-01-16 13:59:33.72	28.47	16.13	-34.5	-35.5	23.4	0.00e+00	123	29	0	514850816	42	5892
2026-01-16 13:59:34.73	28.54	16.24	-34.5	-35.4	23.5	0.00e+00	123	29	0	517996544	42	5832
2026-01-16 13:59:35.74	28.62	16.34	-34.4	-35.3	23.5	0.00e+00	123	29	0	521142272	42	5779
2026-01-16 13:59:36.75	28.69	16.45	-34.3	-35.3	23.5	0.00e+00	124	29	0	524288000	42	5747
2026-01-16 13:59:37.76	28.77	16.56	-34.4	-35.3	23.5	0.00e+00	123	29	0	527433728	42	5791
2026-01-16 13:59:38.77	28.84	16.66	-34.6	-35.5	23.4	0.00e+00	123	29	0	530579456	42	5901
2026-01-16 13:59:39.78	28.92	16.77	-34.3	-35.2	23.5	0.00e+00	122	29	0	533725184	42	5710
2026-01-16 13:59:40.79	28.99	16.88	-34.4	-35.3	23.5	0.00e+00	121	29	0	536870912	42	5752
2026-01-16 13:59:41.80	29.07	16.99	-34.5	-35.5	23.5	0.00e+00	120	29	0	540016640	42	5863
2026-01-16 13:59:42.81	29.15	17.10	-34.5	-35.5	23.5	0.00e+00	123	29	0	543162368	42	5866
2026-01-16 13:59:43.82	29.23	17.21	-34.3	-35.2	23.7	0.00e+00	120	29	0	546308096	42	5685
2026-01-16 13:59:44.83	29.31	17.32	-34.4	-35.4	23.5	0.00e+00	123	29	0	549453824	42	5800
2026-01-16 13:59:45.84	29.39	17.43	-34.3	-35.2	23.6	0.00e+00	123	29	0	552599552	42	5698
2026-01-16 13:59:46.85	29.47	17.54	-34.1	-35.1	23.8	0.00e+00	123	29	0	555745280	42	5598
2026-01-16 13:59:47.86	29.55	17.65	-34.2	-35.2	23.7	0.00e+00	122	29	0	558891008	42	5660
2026-01-16 13:59:48.87	29.63	17.77	-34.2	-35.1	23.8	0.00e+00	120	29	0	562036736	42	5658
2026-01-16 13:59:49.88	29.71	17.88	-34.2	-35.2	23.8	0.00e+00	123	29	0	565182464	42	5676
2026-01-16 13:59:50.89	29.79	17.99	-34.1	-35.0	23.8	0.00e+00	123	29	0	568328192	42	5568
2026-01-16 13:59:51.90	29.87	18.11	-34.0	-34.9	23.9	0.00e+00	120	29	0	571473920	42	5490
2026-01-16 13:59:52.91	29.96	18.22	-34.1	-35.0	23.9	0.00e+00	122	29	0	574619648	42	5560
2026-01-16 13:59:53.92	30.04	18.34	-34.1	-35.1	23.8	0.00e+00	120	29	0	577765376	42	5599
2026-01-16 13:59:54.93	30.13	18.45	-34.2	-35.1	23.8	0.00e+00	123	29	0	580911104	42	5642
2026-01-16 13:59:55.94	30.21	18.57	-34.0	-34.9	23.9	0.00e+00	122	29	0	584056832	42	5517
2026-01-16 13:59:56.95	30.30	18.68	-34.3	-35.2	23.7	0.00e+00	120	29	0	587202560	42	5677
2026-01-16 13:59:57.96	30.38	18.80	-33.9	-34.8	24.0	0.00e+00	122	29	0	590348288	42	5455
2026-01-16 13:59:58.97	30.47	18.92	-33.9	-34.8	24.0	0.00e+00	120	29	0	593494016	42	5447
2026-01-16 13:59:59.98	30.56	19.03	-33.9	-34.8	24.0	0.00e+00	123	29	0	596639744	42	5457
2026-01-16 14:00:00.99	30.65	19.15	-34.0	-34.9	24.0	0.00e+00	120	29	0	599785472	42	5490
2026-01-16 14:00:02.00	30.74	19.27	-34.0	-34.9	23.9	0.00e+00	122	29	0	602931200	42	5505
2026-01-16 14:00:03.01	30.82	19.39	-33.9	-34.9	24.0	0.00e+00	120	29	0	606076928	42	5474
2026-01-16 14:00:04.02	30.92	19.51	-33.9	-34.8	24.0	0.00e+00	123	29	0	609222656	42	5429
2026-01-16 14:00:05.03	31.01	19.63	-33.9	-34.8	24.0	0.00e+00	123	29	0	612368384	42	5443
2026-01-16 14:00:06.04	31.10	19.75	-33.9	-34.8	24.0	0.00e+00	122	29	0	615514112	42	5425
2026-01-16 14:00:07.05	31.19	19.87	-33.7	-34.6	24.2	0.00e+00	123	29	0	618659840	40	5954
2026-01-16 14:00:08.06	31.28	19.99	-33.6	-34.5	24.2	0.00e+00	123	29	0	621805568	40	5896
2026-01-16 14:00:09.07	31.38	20.11	-33.6	-34.5	24.3	0.00e+00	122	29	0	624951296	40	5884
2026-01-16 14:00:10.08	31.47	20.24	-33.4	-34.3	24.4	0.00e+00	123	29	0	628097024	40	5769
2026-01-16 14:00:11.09	31.57	20.36	-33.5	-34.4	24.4	0.00e+00	127	29	0	631242752	40	5825
2026-01-16 14:00:12.10	31.66	20.48	-33.3	-34.2	24.5	0.00e+00	122	29	0	634388480	40	5704
2026-01-16 14:00:13.11	31.76	20.61	-33.4	-34.3	24.4	0.00e+00	122	29	0	638582784	40	5776
2026-01-16 14:00:14.12	31.86	20.73	-33.3	-34.2	24.5	0.00e+00	123	29	0	641728512	40	5705
2026-01-16 14:00:15.13	31.95	20.86	-33.2	-34.1	24.5	0.00e+00	123	29	0	643825664	40	5618
2026-01-16 14:00:16.14	32.05	20.99	-33.3	-34.2	24.5	0.00e+00	123	29	0	646971392	40	5690
2026-01-16 14:00:17.15	32.15	21.11	-33.1	-34.0	24.6	0.00e+00	123	29	0	650117120	40	5589
2026-01-16 14:00:18.17	32.25	21.24	-33.2	-34.1	24.6	0.00e+00	122	29	0	654311424	40	5613
2026-01-16 14:00:19.18	32.36	21.37	-33.3	-34.1	24.6	0.00e+00	123	29	0	657457152	40	5659
2026-01-16 14:00:20.19	32.46	21.50	-33.0	-33.9	24.6	0.00e+00	122	29	0	660602880	40	5512
2026-01-16 14:00:21.19	32.56	21.62	-33.1	-34.0	24.8	0.00e+00	120	29	0	663748608	40	5564
2026-01-16 14:00:22.20	32.66	21.75	-33.0	-33.9	24.7	0.00e+00	123	29	0	665845760	40	5481
2026-01-16 14:00:23.22	32.77	21.88	-33.0	-33.9	24.8	0.00e+00	122	29	0	670040064	40	5495
2026-01-16 14:00:24.23	32.87	22.01	-33.1	-33.9	24.7	0.00e+00	123	29	0	673185792	40	5529
2026-01-16 14:00:25.24	32.98	22.15	-32.7	-33.6	25.0	0.00e+00	123	29	0	676331520	38	5959
2026-01-16 14:00:26.25	33.09	22.28	-32.7	-33.6	24.9	0.00e+00	120	29	0	679477248	38	5964
2026-01-16 14:00:27.26	33.20	22.41	-32.7	-33.6	25.0	0.00e+00	123	29	0	682622976	38	5944
2026-01-16 14:00:28.27	33.30	22.54	-32.9	-33.7	24.9	0.00e+00	122	29	0	685768704	38	6045
2026-01-16 14:00:29.28	33.41	22.68	-32.8	-33.7	24.9	0.00e+00	122	29	0	688914432	38	6006
2026-01-16 14:00:30.29	33.53	22.81	-32.9	-33.8	24.9	0.00e+00	123	29	0	692060160	38	6103
2026-01-16 14:00:31.30	33.64	22.95	-32.9	-33.8	24.9	0.00e+00	120	29	0	695205888	38	6079
2026-01-16 14:00:32.30	33.75	23.08	-32.9	-33.8	24.9	0.00e+00	122	29	0	698351616	38	6080
2026-01-16 14:00:33.31	33.86	23.21	-32.8	-33.7	24.9	0.00e+00	123	29	0	701497344	38	6012
2026-01-16 14:00:34.32	33.98	23.35	-32.7	-33.6	24.9	0.00e+00	123	29	0	704643072	38	5975
2026-01-16 14:00:35.34	34.09	23.49	-32.7	-33.6	25.0	0.00e+00	123	29	0	707788800	38	5983
2026-01-16 14:00:36.34	34.21	23.63	-32.8	-33.7	24.8	0.00e+00	123	29	0	710934528	38	6011
2026-01-16 14:00:37.36	34.33	23.77	-32.8	-33.6	25.0	0.00e+00	121	29	0	714080256	38	5993
2026-01-16 14:00:38.37	34.44	23.91	-32.8	-33.7	25.0	0.00e+00	123	29	0	717225984	38	6042
2026-01-16 14:00:39.38	34.56	24.04	-32.8	-33.7	25.0	0.00e+00	123	29	0	720371712	38	6018
2026-01-16 14:00:40.39	34.68	24.18	-32.9	-33.8	24.8	0.00e+00	122	29	0	723517440	38	6086
2026-01-16 14:00:41.40	34.81	24.33	-32.9	-33.8	24.8	0.00e+00	123	29	0	726663168	38	6113
2026-01-16 14:00:42.40	34.93	24.47	-33.0	-33.8	24.7	0.00e+00	123	29	0	729808896	38	6132
2026-01-16 14:00:43.41	35.05	24.61	-33.0	-33.9	24.9	0.00e+00	122	29	0	732954624	38	6159
2026-01-16 14:00:44.43	35.18	24.75	-33.0	-33.9	24.8	0.00e+00	123	29	0	736100352	38	6157
2026-01-16 14:00:45.43	35.30	24.89	-32.9	-33.8	24.8	0.00e+00	120	29	0	739246080	38	6097
2026-01-16 14:00:46.44	35.43	25.04	-33.0	-33.9	24.8	0.00e+00	123	29	0	742391808	38	6139
2026-01-16 14:00:47.46	35.56	25.18	-32.9	-33.7	24.8	0.00e+00	123	29	0	745537536	38	6060
2026-01-16 14:00:48.47	35.69	25.33	-33.0	-33.9	24.7	0.00e+00	122	29	0	748683264	38	6147
2026-01-16 14:00:49.48	35.82	25.48	-33.0	-33.9	24.8	0.00e+00	123	29	0	751828992	38	6175
2026-01-16 14:00:50.49	35.95	25.62	-33.2	-34.1	24.6	0.00e+00	123	29	0	754974720	38	6304
2026-01-16 14:00:51.50	36.08	25.77	-33.3	-34.2	24.6	0.00e+00	123	29	0	758120448	38	6364
2026-01-16 14:00:52.51	36.21	25.92	-33.2	-34.1	24.6	0.00e+00	122	29	0	761266176	38	6310
2026-01-16 14:00:53.52	36.35	26.07	-33.3	-34.2	24.6	0.00e+00	122	29	0	764411904	38	6411
2026-01-16 14:00:54.52	36.48	26.21	-33.4	-34.3	24.5	0.00e+00	123	29	0	767557632	38	6461
2026-01-16 14:00:55.54	36.62	26.37	-33.5	-34.3	24.4	0.00e+00	122	29	0	770703360	38	6494
2026-01-16 14:00:56.55	36.76	26.52	-33.5	-34.4	24.5	0.00e+00	122	29	0	773849088	38	6556
2026-01-16 14:00:57.56	36.90	26.67	-33.5	-34.4	24.4	0.00e+00	123	29	0	776994816	38	6563
2026-01-16 14:00:58.57	37.04	26.82	-33.6	-34.5	24.4	0.00e+00	122	29	0	780140544	38	6640
2026-01-16 14:00:59.57	37.18	26.97	-33.6	-34.5	24.3	0.00e+00	123	29	0	783286272	38	6586
2026-01-16 14:01:00.58	37.33	27.12	-33.6	-34.5	24.4	0.00e+00	122	29	0	786432000	40	5889
2026-01-16 14:01:01.59	37.47	27.28	-33.7	-34.6	24.2	0.00e+00	123	29	0	789577728	40	5979
2026-01-16 14:01:02.60	37.62	27.43	-33.7	-34.6	24.3	0.00e+00	120	29	0	792723456	40	5935
2026-01-16 14:01:03.61	37.77	27.59	-33.8	-34.7	24.2	0.00e+00	122	29	0	795869184	40	6033
2026-01-16 14:01:04.62	37.92	27.75	-34.0	-34.9	24.1	0.00e+00	123	29	0	799014912	40	6142
2026-01-16 14:01:05.63	38.07	27.90	-33.8	-34.7	24.2	0.00e+00	123	29	0	802160640	40	6041
2026-01-16 14:01:06.64	38.22	28.06	-33.9	-34.8	24.3	0.00e+00	123	29	0	805306368	40	6092
2026-01-16 14:01:07.65	38.37	28.22	-33.9	-34.8	24.1	0.00e+00	123	29	0	808452096	40	6113
2026-01-16 14:01:08.66	38.53	28.38	-33.8	-34.7	24.2	0.00e+00	122	29	0	811597824	40	6046
2026-01-16 14:01:09.67	38.69	28.54	-33.9	-34.8	24.1	0.00e+00	122	29	0	814743552	40	6132
2026-01-16 14:01:10.68	38.85	28.70	-34.0	-34.9	24.0	0.00e+00	123	29	0	817889280	40	6195
2026-01-16 14:01:11.69	39.01	28.86	-33.9	-34.8	24.0	0.00e+00	123	29	0	821035008	40	6132
2026-01-16 14:01:12.70	39.17	29.02	-34.0	-34.9	24.1	0.00e+00	122	29	0	824180736	40	6152
2026-01-16 14:01:13.72	39.33	29.18	-34.0	-34.9	24.0	0.00e+00	123	29	0	827326464	40	6172
2026-01-16 14:01:14.73	39.50	29.35	-34.1	-35.0	24.0	0.00e+00	120	29	0	830472192	40	6244
2026-01-16 14:01:15.74	39.66	29.51	-34.2	-35.1	23.8	0.00e+00	123	29	0	833617920	40	6293
2026-01-16 14:01:16.75	39.83	29.68	-34.2	-35.1	23.8	0.00e+00	123	29	0	836763648	40	6307
2026-01-16 14:01:17.76	40.00	29.84	-34.1	-35.1	23.8	0.00e+00	120	29	0	839909376	40	6294
2026-01-16 14:01:18.77	40.17	30.01	-34.2	-35.1	23.8	0.00e+00	122	29	0	843055104	40	6332
2026-01-16 14:01:19.78	40.34	30.17	-34.2	-35.1	23.9	0.00e+00	122	29	0	846200832	40	6303
2026-01-16 14:01:20.79	40.52	30.34	-34.1	-35.0	24.1	0.00e+00	120	29	0	849346560	40	6253
2026-01-16 14:01:21.80	40.70	30.51	-34.1	-35.1	23.9	0.00e+00	123	29	0	852492288	40	6288
2026-01-16 14:01:22.81	40.87	30.68	-34.1	-35.1	24.0	0.00e+00	123	29	0	855638016	40	6285
2026-01-16 14:01:23.82	41.05	30.85	-34.2	-35.1	24.1	0.00e+00	122	29	0	858783744	40	6319
2026-01-16 14:01:24.83	41.24	31.02	-34.2	-35.1	24.0	0.00e+00	123	29	0	861929472	40	6349
2026-01-16 14:01:25.84	41.42	31.19	-34.0	-35.0	24.1	0.00e+00	122	29	0	865075200	40	6222
2026-01-16 14:01:26.85	41.61	31.36	-34.0	-34.9	24.2	0.00e+00	122	29	0	868220928	40	6174
2026-01-16 14:01:27.86	41.79	31.53	-33.9	-34.8	24.3	0.00e+00	122	29	0	871366656	40	6112
2026-01-16 14:01:28.87	41.98	31.70	-33.8	-34.7	24.4	0.00e+00	123	29	0	874512384	40	6020
2026-01-16 14:01:29.88	42.18	31.88	-33.8	-34.7	24.3	0.00e+00	123	29	0	877658112	40	6010
2026-01-16 14:01:30.89	42.37	32.05	-33.6	-34.5	24.4	0.00e+00	123	29	0	880803840	40	5925
2026-01-16 14:01:31.90	42.56	32.23	-33.8	-34.7	24.5	0.00e+00	122	29	0	883949568	40	6025
2026-01-16 14:01:32.91	42.76	32.40	-34.0	-34.9	24.1	0.00e+00	122	29	0	887095296	40	6153
2026-01-16 14:01:33.92	42.96	32.58	-33.8	-34.8	24.2	0.00e+00	123	29	0	890241024	40	6067
2026-01-16 14:01:34.93	43.16	32.76	-33.9	-34.9	24.1	0.00e+00	123	29	0	893386752	40	6138
2026-01-16 14:01:35.94	43.37	32.93	-33.9	-34.8	24.1	0.00e+00	122	29	0	896532480	40	6080
2026-01-16 14:01:36.95	43.58	33.11	-33.9	-34.9	24.0	0.00e+00	122	29	0	899678208	40	6140
2026-01-16 14:01:37.96	43.78	33.29	-34.0	-34.9	24.0	0.00e+00	122	29	0	902823936	40	6195
2026-01-16 14:01:38.97	43.99	33.47	-34.1	-35.1	23.9	0.00e+00	122	29	0	905969664	40	6303
2026-01-16 14:01:39.98	44.21	33.65	-34.1	-35.1	23.9	0.00e+00	123	30	0	909115392	40	6287
2026-01-16 14:01:40.99	44.42	33.83	-34.5	-35.4	23.7	0.00e+00	122	30	0	912261120	40	6557
2026-01-16 14:01:42.00	44.64	34.01	-34.5	-35.4	23.8	0.00e+00	120	30	0	915406848	40	6541
2026-01-16 14:01:43.01	44.86	34.19	-34.6	-35.5	23.7	0.00e+00	122	29	0	918552576	42	5900
2026-01-16 14:01:44.02	45.08	34.38	-34.7	-35.7	23.6	0.00e+00	122	30	0	921698304	42	5998
2026-01-16 14:01:45.03	45.31	34.56	-34.5	-35.5	23.7	0.00e+00	122	30	0	924844032	42	5878
2026-01-16 14:01:46.04	45.54	34.74	-34.6	-35.6	23.8	0.00e+00	122	30	0	927989760	42	5944
2026-01-16 14:01:47.05	45.77	34.93	-34.9	-35.8	23.6	0.00e+00	122	30	0	931135488	42	6121
2026-01-16 14:01:48.06	46.00	35.11	-34.9	-35.9	23.4	0.00e+00	122	29	0	934281216	42	6145
2026-01-16 14:01:49.08	46.24	35.30	-35.0	-35.9	23.3	0.00e+00	122	30	0	937426944	42	6194
2026-01-16 14:01:50.09	46.48	35.49	-35.3	-36.2	23.2	0.00e+00	123	30	0	940572672	42	6402
2026-01-16 14:01:51.10	46.72	35.68	-35.4	-36.3	23.0	0.00e+00	122	30	0	943718400	42	6490
2026-01-16 14:01:52.11	46.96	35.86	-35.3	-36.2	23.2	0.00e+00	123	30	0	946864128	42	6414
2026-01-16 14:01:53.12	47.21	36.05	-35.2	-36.2	23.2	0.00e+00	123	30	0	951058432	42	6354
2026-01-16 14:01:54.13	47.46	36.24	-35.1	-36.0	23.2	0.00e+00	123	30	0	954204160	42	6261
2026-01-16 14:01:55.14	47.71	36.43	-35.2	-36.1	23.3	0.00e+00	120	30	0	957349888	42	6324
2026-01-16 14:01:56.15	47.96	36.62	-35.1	-36.0	23.2	0.00e+00	123	30	0	959447040	42	6277
2026-01-16 14:01:57.16	48.22	36.81	-35.1	-36.1	23.2	0.00e+00	121	30	0	962592768	42	6300
2026-01-16 14:01:58.17	48.48	37.00	-35.4	-36.4	23.0	0.00e+00	123	30	0	966787072	42	6514
2026-01-16 14:01:59.18	48.75	37.19	-35.3	-36.3	23.0	0.00e+00	123	30	0	969932800	42	6446
2026-01-16 14:02:00.19	49.01	37.38	-35.4	-36.4	23.0	0.00e+00	123	30	0	973078528	42	6549
2026-01-16 14:02:01.20	49.28	37.57	-35.5	-36.5	23.1	0.00e+00	123	30	0	976224256	42	6587
2026-01-16 14:02:02.21	49.56	37.76	-35.6	-36.6	22.8	0.00e+00	122	30	0	979369984	42	6661
2026-01-16 14:02:03.22	49.83	37.96	-35.7	-36.6	22.8	0.00e+00	122	30	0	982515712	42	6720
2026-01-16 14:02:04.23	50.11	38.15	-35.7	-36.7	22.8	0.00e+00	123	30	0	985661440	44	6010
2026-01-16 14:02:05.24	50.39	38.34	-35.6	-36.6	22.7	0.00e+00	122	30	0	988807168	44	5959
2026-01-16 14:02:06.25	50.68	38.54	-35.6	-36.6	22.8	0.00e+00	123	30	0	991952896	44	5946
2026-01-16 14:02:07.26	50.97	38.73	-35.3	-36.3	23.0	0.00e+00	123	30	0	995098624	44	5739
2026-01-16 14:02:08.27	51.26	38.92	-35.1	-36.1	23.1	0.00e+00	122	30	0	998244352	44	5632
2026-01-16 14:02:09.28	51.56	39.12	-35.2	-36.2	23.0	0.00e+00	120	30	0	1001390080	44	5684
2026-01-16 14:02:10.29	51.86	39.31	-35.4	-36.3	23.0	0.00e+00	122	30	0	1004535808	44	5785
2026-01-16 14:02:11.30	52.16	39.51	-35.6	-36.6	22.9	0.00e+00	122	30	0	1007681536	44	5936
2026-01-16 14:02:12.31	52.47	39.70	-35.9	-36.9	22.5	0.00e+00	123	30	0	1010827264	44	6143
2026-01-16 14:02:13.32	52.78	39.90	-35.8	-36.9	22.6	0.00e+00	122	30	0	1013972992	44	6136
2026-01-16 14:02:14.33	53.09	40.09	-35.8	-36.8	22.6	0.00e+00	122	30	0	1017118720	44	6094
2026-01-16 14:02:15.34	53.41	40.29	-35.7	-36.7	22.7	0.00e+00	123	30	0	1020264448	44	6042
2026-01-16 14:02:16.35	53.73	40.49	-35.6	-36.5	22.9	0.00e+00	122	30	0	1023410176	44	5905
2026-01-16 14:02:17.36	54.06	40.68	-35.7	-36.6	22.7	0.00e+00	122	30	0	1026555904	44	5990
2026-01-16 14:02:18.37	54.39	40.88	-35.8	-36.8	22.6	0.00e+00	121	30	0	1029701632	44	6118
2026-01-16 14:02:19.38	54.72	41.07	-36.0	-37.0	22.6	0.00e+00	123	30	0	1032847360	44	6209
2026-01-16 14:02:20.39	55.06	41.27	-36.1	-37.1	22.4	0.00e+00	122	30	0	1035993088	44	6279
2026-01-16 14:02:21.40	55.40	41.47	-36.3	-37.3	22.2	0.00e+00	123	30	0	1039138816	44	6453
2026-01-16 14:02:22.41	55.75	41.66	-36.6	-37.6	21.8	0.00e+00	123	30	0	1042284544	44	6706
2026-01-16 14:02:23.42	56.10	41.86	-36.8	-37.9	21.7	0.00e+00	120	30	0	1045430272	46	6174
2026-01-16 14:02:24.43	56.45	42.05	-37.1	-38.1	21.5	0.00e+00	123	30	0	1048576000	46	6333
2026-01-16 14:02:25.44	56.81	42.25	-37.1	-38.2	21.4	0.00e+00	120	30	0	1051721728	46	6391
2026-01-16 14:02:26.45	57.17	42.44	-37.2	-38.3	21.4	0.00e+00	123	30	0	1054867456	46	6442
2026-01-16 14:02:27.46	57.54	42.64	-37.2	-38.3	21.3	0.00e+00	121	30	0	1058013184	46	6492
2026-01-16 14:02:28.47	57.91	42.83	-37.7	-38.8	21.0	0.00e+00	123	30	0	1061158912	46	6858
2026-01-16 14:02:29.48	58.29	43.03	-38.1	-39.3	20.7	0.00e+00	120	30	0	1064304640	48	6435
2026-01-16 14:02:30.49	58.67	43.22	-37.8	-39.0	20.8	0.00e+00	120	30	0	1067450368	48	6210
2026-01-16 14:02:31.50	59.06	43.42	-37.5	-38.7	21.0	0.00e+00	123	30	0	1070596096	48	6023
2026-01-16 14:02:32.51	59.45	43.61	-37.4	-38.5	21.1	0.00e+00	123	30	0	1073741824	48	5925
2026-01-16 14:02:33.52	59.84	43.80	-37.5	-38.6	21.1	0.00e+00	122	30	0	1076887552	48	5958
2026-01-16 14:02:34.53	60.24	43.99	-37.1	-38.2	21.5	0.00e+00	122	30	0	1080033280	48	5709
2026-01-16 14:02:35.54	60.64	44.19	-36.7	-37.8	21.9	0.00e+00	122	30	0	1083179008	48	5418
2026-01-16 14:02:36.55	61.05	44.38	-36.9	-37.9	21.7	0.00e+00	123	30	0	1086324736	46	6183
2026-01-16 14:02:37.56	61.47	44.57	-36.8	-37.9	21.7	0.00e+00	120	30	0	1089470464	46	6160
2026-01-16 14:02:38.57	61.89	44.76	-37.1	-38.2	21.5	0.00e+00	123	30	0	1092616192	46	6367
2026-01-16 14:02:39.58	62.31	44.95	-37.2	-38.3	21.3	0.00e+00	122	30	0	1095761920	46	6454
2026-01-16 14:02:40.60	62.74	45.14	-37.0	-38.1	21.4	0.00e+00	122	30	0	1098907648	46	6333
2026-01-16 14:02:41.61	63.18	45.32	-36.8	-37.9	21.5	0.00e+00	123	30	0	1102053376	46	6176
2026-01-16 14:02:42.62	63.61	45.51	-36.8	-37.8	21.9	0.00e+00	123	30	0	1105199104	46	6122
2026-01-16 14:02:43.63	64.06	45.70	-36.9	-37.9	21.9	0.00e+00	120	30	0	1108344832	46	6191
2026-01-16 14:02:44.64	64.51	45.88	-36.6	-37.7	22.1	0.00e+00	123	30	0	1111490560	46	5996
2026-01-16 14:02:45.65	64.96	46.06	-36.7	-37.8	21.9	0.00e+00	122	30	0	1114636288	46	6082
2026-01-16 14:02:46.66	65.42	46.25	-36.8	-37.9	21.8	0.00e+00	122	30	0	1117782016	46	6151
2026-01-16 14:02:47.67	65.89	46.43	-36.9	-38.0	21.7	0.00e+00	120	30	0	1120927744	46	6219
2026-01-16 14:02:48.68	66.36	46.61	-36.7	-37.8	21.8	0.00e+00	123	30	0	1124073472	46	6075
2026-01-16 14:02:49.69	66.83	46.78	-36.7	-37.8	22.1	0.00e+00	123	30	0	1127219200	46	6087
2026-01-16 14:02:50.70	67.31	46.96	-36.5	-37.5	22.3	0.00e+00	122	30	0	1130364928	46	5897
2026-01-16 14:02:51.71	67.80	47.14	-35.9	-36.9	22.6	0.00e+00	123	30	0	1133510656	46	5492
2026-01-16 14:02:52.72	68.29	47.31	-36.1	-37.1	22.6	0.00e+00	123	30	0	1136656384	46	5639
2026-01-16 14:02:53.73	68.79	47.48	-35.9	-36.9	22.7	0.00e+00	123	30	0	1139802112	46	5492
2026-01-16 14:02:54.74	69.29	47.65	-36.1	-37.2	22.4	0.00e+00	123	30	0	1142947840	46	5672
2026-01-16 14:02:55.75	69.80	47.82	-36.4	-37.5	22.2	0.00e+00	123	30	0	1146093568	46	5863
2026-01-16 14:02:56.76	70.32	47.99	-36.6	-37.6	22.1	0.00e+00	120	30	0	1149239296	46	5948
2026-01-16 14:02:57.77	70.83	48.16	-36.3	-37.3	22.4	0.00e+00	121	30	0	1152385024	46	5760
2026-01-16 14:02:58.78	71.36	48.32	-35.9	-36.9	22.4	0.00e+00	123	30	0	1155530752	46	5507
2026-01-16 14:02:59.79	71.89	48.48	-36.0	-37.0	22.3	0.00e+00	122	30	0	1158676480	46	5559
2026-01-16 14:03:00.80	72.43	48.64	-36.0	-37.0	22.4	0.00e+00	123	30	0	1161822208	46	5574
2026-01-16 14:03:01.81	72.97	48.80	-36.1	-37.0	22.6	0.00e+00	123	30	0	1164967936	46	5592
2026-01-16 14:03:02.81	73.51	48.95	-35.8	-36.8	22.8	0.00e+00	122	30	0	1168113664	46	5415
2026-01-16 14:03:03.82	74.06	49.11	-35.9	-36.9	22.6	0.00e+00	123	30	0	1171259392	46	5488
2026-01-16 14:03:04.83	74.62	49.26	-36.5	-37.5	22.1	0.00e+00	123	30	0	1174405120	46	5899
2026-01-16 14:03:05.84	75.18	49.41	-36.6	-37.7	22.1	0.00e+00	123	30	0	1177550848	46	6001
2026-01-16 14:03:06.85	75.75	49.55	-36.4	-37.5	22.1	0.00e+00	120	30	0	1180696576	46	5869
2026-01-16 14:03:07.86	76.33	49.70	-36.2	-37.2	22.4	0.00e+00	122	30	0	1183842304	46	5721
2026-01-16 14:03:08.87	76.90	49.84	-36.0	-37.0	22.6	0.00e+00	123	30	0	1186988032	46	5585
2026-01-16 14:03:09.89	77.50	49.98	-35.5	-36.5	22.8	0.00e+00	123	30	0	1190133760	44	5907
2026-01-16 14:03:10.90	78.09	50.12	-35.7	-36.7	22.6	0.00e+00	121	30	0	1193279488	44	6014
2026-01-16 14:03:11.91	78.68	50.25	-35.5	-36.5	22.9	0.00e+00	122	30	0	1196425216	44	5916
2026-01-16 14:03:12.91	79.28	50.38	-35.5	-36.5	23.0	0.00e+00	120	30	0	1199570944	44	5859
2026-01-16 14:03:13.93	79.89	50.51	-35.1	-36.1	23.3	0.00e+00	123	30	0	1202716672	44	5625
2026-01-16 14:03:14.94	80.50	50.63	-35.3	-36.3	23.1	0.00e+00	120	30	0	1205862400	44	5758
2026-01-16 14:03:15.95	81.11	50.75	-35.6	-36.6	23.0	0.00e+00	123	30	0	1209008128	44	5928
2026-01-16 14:03:16.96	81.73	50.87	-35.4	-36.4	23.0	0.00e+00	121	30	0	1212153856	44	5794
2026-01-16 14:03:17.97	82.36	50.98	-35.1	-36.0	23.3	0.00e+00	123	30	0	1215299584	44	5590
2026-01-16 14:03:18.98	82.99	51.10	-34.9	-35.8	23.2	0.00e+00	123	30	0	1218445312	44	5437
2026-01-16 14:03:19.99	83.62	51.20	-34.9	-35.9	23.1	0.00e+00	123	30	0	1221591040	44	5502
2026-01-16 14:03:21.00	84.26	51.31	-35.3	-36.3	22.8	0.00e+00	123	30	0	1224736768	44	5787
2026-01-16 14:03:22.01	84.91	51.41	-35.4	-36.4	22.9	0.00e+00	123	30	0	1227882496	44	5855
2026-01-16 14:03:23.02	85.55	51.51	-35.1	-36.0	23.3	0.00e+00	121	30	0	1231028224	44	5581
2026-01-16 14:03:24.03	86.21	51.60	-34.9	-35.9	23.1	0.00e+00	122	30	0	1234173952	42	6146
2026-01-16 14:03:25.04	86.86	51.69	-34.9	-35.9	22.8	0.00e+00	123	30	0	1237319680	42	6200
2026-01-16 14:03:26.05	87.52	51.78	-35.3	-36.4	22.7	0.00e+00	123	30	0	1240465408	42	6528
2026-01-16 14:03:27.06	88.19	51.86	-35.3	-36.3	23.0	0.00e+00	123	30	0	1243611136	42	6473
2026-01-16 14:03:28.07	88.85	51.94	-34.8	-35.8	23.4	0.00e+00	123	30	0	1247805440	42	6074
2026-01-16 14:03:29.08	89.53	52.02	-34.4	-35.3	23.5	0.00e+00	122	30	0	1250951168	42	5763
2026-01-16 14:03:30.09	90.20	52.09	-34.8	-35.8	22.9	0.00e+00	122	30	0	1253048320	42	6084
2026-01-16 14:03:31.10	90.88	52.16	-35.5	-36.5	22.7	0.00e+00	120	30	0	1256194048	42	6606
2026-01-16 14:03:32.11	91.56	52.22	-35.6	-36.6	22.8	0.00e+00	122	30	0	1259339776	42	6686
2026-01-16 14:03:33.12	92.24	52.28	-35.7	-36.7	22.9	0.00e+00	127	30	0	1263534080	42	6727
2026-01-16 14:03:34.13	92.93	52.34	-35.4	-36.4	23.0	0.00e+00	123	30	0	1266679808	42	6506
2026-01-16 14:03:35.14	93.62	52.39	-35.5	-36.5	23.1	0.00e+00	123	30	0	1269825536	42	6620
2026-01-16 14:03:36.15	94.31	52.44	-35.4	-36.4	23.1	0.00e+00	123	30	0	1272971264	42	6518
2026-01-16 14:03:37.16	95.00	52.48	-35.3	-36.3	23.2	0.00e+00	123	30	0	1275068416	42	6450
2026-01-16 14:03:38.17	95.69	52.52	-34.9	-35.8	23.6	0.00e+00	123	30	0	1279262720	42	6127
2026-01-16 14:03:39.18	96.39	52.55	-35.0	-36.0	23.3	0.00e+00	123	30	0	1282408448	42	6214
2026-01-16 14:03:40.19	97.09	52.59	-34.7	-35.6	23.5	0.00e+00	122	30	0	1285554176	42	5969
2026-01-16 14:03:41.20	97.79	52.61	-34.6	-35.6	23.5	0.00e+00	122	30	0	1288699904	42	5937
2026-01-16 14:03:42.21	98.49	52.63	-34.3	-35.2	24.0	0.00e+00	123	30	0	1291845632	42	5719
2026-01-16 14:03:43.22	99.19	52.65	-34.2	-35.1	24.0	0.00e+00	123	30	0	1294991360	42	5602
2026-01-16 14:03:44.23	99.89	52.66	-34.5	-35.4	23.6	0.00e+00	120	30	0	1298137088	42	5826
2026-01-16 14:03:45.25	100.60	52.67	-34.7	-35.6	23.5	0.00e+00	122	30	0	1301282816	42	5982
2026-01-16 14:03:46.26	101.31	52.68	-34.6	-35.5	23.5	0.00e+00	122	30	0	1304428544	42	5879
2026-01-16 14:03:47.26	102.00	52.68	-34.3	-35.2	23.8	0.00e+00	123	30	0	1307574272	42	5713
2026-01-16 14:03:48.28	102.71	52.67	-34.1	-35.1	23.8	0.00e+00	122	30	0	1310720000	42	5609
2026-01-16 14:03:49.29	103.42	52.67	-34.3	-35.2	23.8	0.00e+00	122	30	0	1313865728	42	5711
2026-01-16 14:03:50.30	104.12	52.65	-34.2	-35.2	24.0	0.00e+00	123	30	0	1317011456	42	5675
2026-01-16 14:03:51.31	104.82	52.64	-34.1	-34.9	24.1	0.00e+00	123	30	0	1320157184	42	5527
2026-01-16 14:03:52.31	105.52	52.61	-34.4	-35.3	23.8	0.00e+00	120	30	0	1323302912	42	5757
2026-01-16 14:03:53.33	106.22	52.59	-34.9	-35.8	23.4	0.00e+00	123	30	0	1326448640	42	6110
2026-01-16 14:03:54.34	106.92	52.56	-34.6	-35.6	23.6	0.00e+00	121	30	0	1329594368	42	5954
2026-01-16 14:03:55.35	107.62	52.52	-34.5	-35.5	23.5	0.00e+00	122	30	0	1332740096	42	5892
2026-01-16 14:03:56.36	108.31	52.48	-34.5	-35.5	23.5	0.00e+00	123	30	0	1335885824	42	5877
2026-01-16 14:03:57.37	109.01	52.44	-35.5	-36.6	22.3	0.00e+00	122	30	0	1339031552	42	6672
2026-01-16 14:03:58.38	109.70	52.39	-36.4	-37.6	21.8	0.00e+00	123	30	0	1342177280	44	6680
2026-01-16 14:03:59.39	110.39	52.34	-36.0	-37.1	22.4	0.00e+00	122	30	0	1345323008	44	6310
2026-01-16 14:04:00.40	111.07	52.29	-35.4	-36.4	22.9	0.00e+00	123	30	0	1348468736	44	5823
2026-01-16 14:04:01.41	111.76	52.23	-35.3	-36.3	22.8	0.00e+00	123	30	0	1351614464	44	5789
2026-01-16 14:04:02.42	112.44	52.16	-35.2	-36.2	22.7	0.00e+00	123	30	0	1354760192	44	5715
2026-01-16 14:04:03.43	113.12	52.10	-35.2	-36.3	23.1	0.00e+00	120	30	0	1357905920	44	5729
2026-01-16 14:04:04.44	113.79	52.03	-35.3	-36.3	22.9	0.00e+00	122	30	0	1361051648	44	5758
2026-01-16 14:04:05.45	114.46	51.95	-35.2	-36.2	22.9	0.00e+00	120	30	0	1364197376	44	5666
2026-01-16 14:04:06.46	115.13	51.87	-35.4	-36.4	22.7	0.00e+00	123	30	0	1367343104	44	5792
2026-01-16 14:04:07.47	115.80	51.79	-35.0	-36.0	23.2	0.00e+00	120	30	0	1370488832	44	5577
2026-01-16 14:04:08.48	116.46	51.70	-34.7	-35.7	23.6	0.00e+00	122	30	0	1373634560	42	6017
2026-01-16 14:04:09.49	117.12	51.61	-34.4	-35.4	23.7	0.00e+00	120	30	0	1376780288	42	5812
2026-01-16 14:04:10.50	117.77	51.52	-34.6	-35.5	23.6	0.00e+00	122	30	0	1379926016	42	5913
2026-01-16 14:04:11.51	118.42	51.42	-34.9	-35.9	23.4	0.00e+00	123	30	0	1383071744	42	6143
2026-01-16 14:04:12.52	119.06	51.32	-34.9	-35.8	23.5	0.00e+00	122	30	0	1386217472	42	6128
2026-01-16 14:04:13.53	119.70	51.21	-34.8	-35.7	23.4	0.00e+00	122	30	0	1389363200	42	6056
2026-01-16 14:04:14.54	120.34	51.10	-35.1	-36.1	22.9	0.00e+00	123	30	0	1392508928	42	6335
2026-01-16 14:04:15.55	120.97	50.99	-35.1	-36.1	22.7	0.00e+00	122	30	0	1395654656	42	6291
2026-01-16 14:04:16.56	121.60	50.88	-35.3	-36.3	22.9	0.00e+00	123	30	0	1398800384	42	6496
2026-01-16 14:04:17.57	122.22	50.76	-35.3	-36.3	23.1	0.00e+00	123	30	0	1401946112	42	6436
2026-01-16 14:04:18.58	122.84	50.64	-35.6	-36.6	22.7	0.00e+00	122	30	0	1405091840	42	6680
2026-01-16 14:04:19.59	123.45	50.51	-35.8	-36.8	22.5	0.00e+00	123	30	0	1408237568	44	6104
2026-01-16 14:04:20.60	124.06	50.39	-35.8	-36.8	22.4	0.00e+00	122	30	0	1411383296	44	6109
2026-01-16 14:04:21.61	124.66	50.26	-35.9	-37.0	22.3	0.00e+00	123	30	0	1414529024	44	6228
2026-01-16 14:04:22.62	125.25	50.12	-35.9	-36.9	22.4	0.00e+00	122	30	0	1417674752	44	6178
2026-01-16 14:04:23.63	125.85	49.99	-35.7	-36.7	22.7	0.00e+00	123	30	0	1420820480	44	6049
2026-01-16 14:04:24.64	126.43	49.85	-35.3	-36.3	23.0	0.00e+00	122	30	0	1423966208	44	5759
2026-01-16 14:04:25.65	127.01	49.71	-35.1	-36.0	23.3	0.00e+00	122	30	0	1427111936	44	5567
2026-01-16 14:04:26.67	127.59	49.56	-35.2	-36.1	23.1	0.00e+00	120	30	0	1430257664	44	5647
2026-01-16 14:04:27.67	128.16	49.42	-35.5	-36.5	22.9	0.00e+00	120	30	0	1433403392	44	5894
2026-01-16 14:04:28.68	128.72	49.27	-35.5	-36.5	22.9	0.00e+00	123	30	0	1436549120	44	5878
2026-01-16 14:04:29.69	129.28	49.12	-35.3	-36.3	23.0	0.00e+00	121	30	0	1439694848	44	5761
2026-01-16 14:04:30.71	129.84	48.96	-35.4	-36.4	22.9	0.00e+00	122	30	0	1442840576	44	5801
2026-01-16 14:04:31.72	130.39	48.80	-35.2	-36.2	23.2	0.00e+00	123	30	0	1445986304	44	5672
2026-01-16 14:04:32.73	130.93	48.65	-35.2	-36.1	23.2	0.00e+00	123	30	0	1449132032	44	5634
2026-01-16 14:04:33.74	131.47	48.49	-35.1	-36.1	23.1	0.00e+00	121	30	0	1452277760	44	5618
2026-01-16 14:04:34.75	132.00	48.32	-35.5	-36.5	22.8	0.00e+00	123	30	0	1455423488	44	5868
2026-01-16 14:04:35.76	132.53	48.16	-36.0	-37.0	22.4	0.00e+00	122	30	0	1458569216	44	6243
2026-01-16 14:04:36.77	133.05	47.99	-36.0	-37.1	22.3	0.00e+00	123	30	0	1461714944	44	6287
2026-01-16 14:04:37.78	133.56	47.83	-36.4	-37.5	21.7	0.00e+00	123	30	0	1464860672	44	6609
2026-01-16 14:04:38.79	134.07	47.66	-36.5	-37.6	21.7	0.00e+00	122	30	0	1468006400	44	6694
2026-01-16 14:04:39.80	134.58	47.48	-36.2	-37.3	22.2	0.00e+00	123	30	0	1471152128	44	6439
2026-01-16 14:04:40.82	135.08	47.31	-35.9	-36.8	22.7	0.00e+00	122	30	0	1474297856	44	6117
2026-01-16 14:04:41.82	135.57	47.14	-35.5	-36.5	22.8	0.00e+00	122	30	0	1477443584	44	5887
2026-01-16 14:04:42.83	136.06	46.96	-35.6	-36.5	22.8	0.00e+00	120	30	0	1480589312	44	5921
2026-01-16 14:04:43.84	136.54	46.78	-36.0	-37.0	22.5	0.00e+00	122	30	0	1483735040	44	6255
2026-01-16 14:04:44.86	137.02	46.60	-36.3	-37.4	22.1	0.00e+00	123	30	0	1486880768	44	6538
2026-01-16 14:04:45.87	137.49	46.42	-36.0	-37.1	22.4	0.00e+00	122	30	0	1490026496	44	6309
2026-01-16 14:04:46.88	137.96	46.24	-36.0	-37.0	22.3	0.00e+00	123	30	0	1493172224	44	6249
2026-01-16 14:04:47.88	138.42	46.06	-35.9	-36.9	22.6	0.00e+00	120	30	0	1496317952	44	6192
2026-01-16 14:04:48.90	138.88	45.87	-35.6	-36.6	22.8	0.00e+00	122	30	0	1499463680	44	5985
2026-01-16 14:04:49.91	139.33	45.69	-35.4	-36.3	23.1	0.00e+00	122	30	0	1502609408	44	5765
2026-01-16 14:04:50.92	139.77	45.50	-35.6	-36.6	22.8	0.00e+00	122	30	0	1505755136	44	5956
2026-01-16 14:04:51.92	140.21	45.32	-36.0	-37.0	22.6	0.00e+00	123	30	0	1508900864	44	6250
2026-01-16 14:04:52.93	140.64	45.13	-36.2	-37.2	22.4	0.00e+00	122	30	0	1512046592	44	6405
2026-01-16 14:04:53.95	141.08	44.94	-36.2	-37.3	22.2	0.00e+00	123	30	0	1515192320	44	6424
2026-01-16 14:04:54.95	141.50	44.75	-36.1	-37.1	22.3	0.00e+00	123	30	0	1518338048	44	6336
2026-01-16 14:04:55.96	141.92	44.56	-36.1	-37.1	22.4	0.00e+00	123	30	0	1521483776	44	6324
2026-01-16 14:04:56.97	142.33	44.37	-36.4	-37.4	22.0	0.00e+00	123	31	0	1524629504	44	6549
2026-01-16 14:04:57.99	142.75	44.17	-37.0	-38.0	21.5	0.00e+00	122	30	0	1527775232	46	6269
2026-01-16 14:04:59.00	143.15	43.98	-37.3	-38.5	21.2	0.00e+00	122	30	0	1530920960	46	6581
2026-01-16 14:05:00.00	143.55	43.79	-37.5	-38.6	20.9	0.00e+00	123	31	0	1534066688	46	6687
2026-01-16 14:05:01.02	143.95	43.60	-37.0	-38.1	21.5	0.00e+00	120	30	0	1538260992	46	6346
2026-01-16 14:05:02.03	144.34	43.40	-36.4	-37.4	22.2	0.00e+00	123	30	0	1541406720	46	5846
2026-01-16 14:05:03.04	144.73	43.21	-36.1	-37.1	22.5	0.00e+00	122	31	0	1543503872	46	5600
2026-01-16 14:05:04.05	145.11	43.01	-35.6	-36.6	22.8	0.00e+00	123	30	0	1546649600	44	5958
2026-01-16 14:05:05.06	145.49	42.82	-35.3	-36.2	23.1	0.00e+00	123	30	0	1549795328	44	5708
2026-01-16 14:05:06.07	145.86	42.62	-35.2	-36.2	23.1	0.00e+00	122	31	0	1553989632	44	5677
2026-01-16 14:05:07.08	146.23	42.43	-35.5	-36.5	22.7	0.00e+00	120	31	0	1557135360	44	5917
2026-01-16 14:05:08.09	146.59	42.23	-36.0	-37.0	22.5	0.00e+00	124	31	0	1560281088	44	6219
2026-01-16 14:05:09.10	146.95	42.03	-35.8	-36.8	22.6	0.00e+00	123	30	0	1563426816	44	6133
2026-01-16 14:05:10.11	147.31	41.84	-35.9	-36.9	22.6	0.00e+00	123	31	0	1566572544	44	6137
2026-01-16 14:05:11.12	147.66	41.64	-35.5	-36.4	22.8	0.00e+00	123	30	0	1569718272	44	5858
2026-01-16 14:05:12.13	148.00	41.44	-35.4	-36.4	22.7	0.00e+00	122	31	0	1572864000	44	5805
2026-01-16 14:05:13.14	148.35	41.25	-35.5	-36.4	22.5	0.00e+00	123	30	0	1576009728	44	5855
2026-01-16 14:05:14.15	148.68	41.05	-35.8	-36.8	22.4	0.00e+00	123	31	0	1579155456	44	6113
2026-01-16 14:05:15.16	149.02	40.85	-36.3	-37.3	22.1	0.00e+00	122	30	0	1582301184	44	6462
2026-01-16 14:05:16.17	149.35	40.66	-36.3	-37.4	22.2	0.00e+00	122	30	0	1585446912	44	6518
2026-01-16 14:05:17.18	149.68	40.46	-36.3	-37.3	22.1	0.00e+00	122	30	0	1588592640	44	6454
2026-01-16 14:05:18.19	150.00	40.26	-36.2	-37.2	22.2	0.00e+00	123	31	0	1591738368	44	6406
2026-01-16 14:05:19.20	150.32	40.06	-36.2	-37.3	22.0	0.00e+00	123	31	0	1594884096	44	6449
2026-01-16 14:05:20.21	150.63	39.87	-36.2	-37.2	22.2	0.00e+00	123	30	0	1598029824	44	6389
2026-01-16 14:05:21.22	150.95	39.67	-36.1	-37.1	22.4	0.00e+00	120	30	0	1601175552	44	6314
2026-01-16 14:05:22.23	151.25	39.48	-35.6	-36.6	22.7	0.00e+00	120	30	0	1604321280	44	5952
2026-01-16 14:05:23.24	151.56	39.28	-35.5	-36.5	22.9	0.00e+00	123	30	0	1607467008	44	5886
2026-01-16 14:05:24.25	151.86	39.08	-35.3	-36.2	23.0	0.00e+00	122	31	0	1610612736	44	5709
2026-01-16 14:05:25.26	152.15	38.89	-34.7	-35.7	23.5	0.00e+00	120	30	0	1613758464	44	5345
2026-01-16 14:05:26.27	152.45	38.69	-34.7	-35.6	23.6	0.00e+00	123	30	0	1616904192	42	5955
2026-01-16 14:05:27.28	152.74	38.50	-34.6	-35.5	23.7	0.00e+00	123	31	0	1620049920	42	5861
2026-01-16 14:05:28.30	153.03	38.30	-34.9	-35.9	23.1	0.00e+00	123	31	0	1623195648	42	6139
2026-01-16 14:05:29.31	153.31	38.11	-35.4	-36.4	22.7	0.00e+00	123	31	0	1626341376	42	6501
2026-01-16 14:05:30.32	153.59	37.91	-35.7	-36.7	22.6	0.00e+00	122	31	0	1629487104	42	6774
2026-01-16 14:05:31.33	153.87	37.72	-35.7	-36.7	22.7	0.00e+00	122	31	0	1632632832	44	6036
2026-01-16 14:05:32.34	154.14	37.53	-35.7	-36.7	22.7	0.00e+00	123	31	0	1635778560	44	6022
2026-01-16 14:05:33.35	154.41	37.33	-35.4	-36.4	23.0	0.00e+00	120	31	0	1638924288	44	5827
2026-01-16 14:05:34.36	154.68	37.14	-35.1	-36.0	23.3	0.00e+00	123	30	0	1642070016	44	5574
2026-01-16 14:05:35.37	154.94	36.95	-35.1	-36.0	23.3	0.00e+00	123	31	0	1645215744	44	5572
2026-01-16 14:05:36.38	155.21	36.76	-35.0	-36.0	23.3	0.00e+00	123	31	0	1648361472	44	5570
2026-01-16 14:05:37.39	155.46	36.57	-35.0	-36.0	23.3	0.00e+00	123	31	0	1651507200	44	5535
2026-01-16 14:05:38.40	155.72	36.38	-34.9	-35.9	23.4	0.00e+00	120	31	0	1654652928	44	5473
2026-01-16 14:05:39.41	155.97	36.19	-34.8	-35.7	23.4	0.00e+00	122	31	0	1657798656	44	5402
2026-01-16 14:05:40.42	156.22	36.00	-34.6	-35.6	23.6	0.00e+00	120	31	0	1660944384	42	5928
2026-01-16 14:05:41.43	156.47	35.81	-34.5	-35.5	23.6	0.00e+00	122	31	0	1664090112	42	5876
2026-01-16 14:05:42.44	156.71	35.62	-34.4	-35.3	23.8	0.00e+00	120	31	0	1667235840	42	5783
2026-01-16 14:05:43.45	156.95	35.43	-34.3	-35.2	23.9	0.00e+00	123	31	0	1670381568	42	5701
2026-01-16 14:05:44.46	157.19	35.25	-34.0	-34.9	24.0	0.00e+00	123	31	0	1673527296	42	5501
2026-01-16 14:05:45.47	157.43	35.06	-34.1	-35.0	23.9	0.00e+00	123	31	0	1676673024	42	5582
2026-01-16 14:05:46.48	157.66	34.87	-34.2	-35.1	23.9	0.00e+00	123	31	0	1679818752	42	5620
2026-01-16 14:05:47.49	157.89	34.69	-34.4	-35.3	23.8	0.00e+00	120	31	0	1682964480	42	5785
2026-01-16 14:05:48.50	158.12	34.50	-34.6	-35.5	23.7	0.00e+00	123	31	0	1686110208	42	5911
2026-01-16 14:05:49.51	158.35	34.32	-34.6	-35.6	23.6	0.00e+00	123	31	0	1689255936	42	5952
2026-01-16 14:05:50.52	158.57	34.14	-34.7	-35.7	23.6	0.00e+00	123	31	0	1692401664	42	6006
2026-01-16 14:05:51.53	158.79	33.95	-34.2	-35.1	24.0	0.00e+00	122	31	0	1695547392	42	5612
2026-01-16 14:05:52.54	159.01	33.77	-34.1	-35.0	24.0	0.00e+00	123	31	0	1698693120	42	5574
2026-01-16 14:05:53.55	159.22	33.59	-34.3	-35.2	23.9	0.00e+00	122	31	0	1701838848	42	5714
2026-01-16 14:05:54.56	159.44	33.41	-34.3	-35.2	23.8	0.00e+00	123	30	0	1704984576	42	5670
2026-01-16 14:05:55.57	159.65	33.23	-34.5	-35.4	23.7	0.00e+00	123	31	0	1708130304	42	5836
2026-01-16 14:05:56.58	159.86	33.05	-34.0	-34.9	24.2	0.00e+00	123	31	0	1711276032	42	5495
2026-01-16 14:05:57.59	160.06	32.87	-33.9	-34.8	24.2	0.00e+00	123	31	0	1714421760	42	5432
2026-01-16 14:05:58.60	160.27	32.69	-33.4	-34.2	24.6	0.00e+00	123	31	0	1717567488	40	5718
2026-01-16 14:05:59.61	160.47	32.51	-32.9	-33.8	25.0	0.00e+00	123	31	0	1720713216	40	5407
2026-01-16 14:06:00.63	160.67	32.33	-33.0	-33.8	24.8	0.00e+00	123	31	0	1723858944	40	5449
2026-01-16 14:06:01.64	160.87	32.16	-33.0	-33.9	24.8	0.00e+00	122	31	0	1727004672	40	5483
2026-01-16 14:06:02.65	161.07	31.98	-33.2	-34.0	24.7	0.00e+00	122	31	0	1730150400	40	5578
2026-01-16 14:06:03.66	161.26	31.80	-33.5	-34.4	24.4	0.00e+00	123	31	0	1733296128	40	5837
2026-01-16 14:06:04.66	161.45	31.63	-33.8	-34.7	24.3	0.00e+00	120	31	0	1736441856	40	6005
2026-01-16 14:06:05.68	161.64	31.46	-33.8	-34.7	24.1	0.00e+00	123	31	0	1739587584	40	6028
2026-01-16 14:06:06.69	161.83	31.28	-33.8	-34.7	24.0	0.00e+00	123	31	0	1742733312	40	6064
2026-01-16 14:06:07.70	162.02	31.11	-33.9	-34.9	23.9	0.00e+00	123	31	0	1745879040	40	6138
2026-01-16 14:06:08.70	162.20	30.94	-33.8	-34.7	24.0	0.00e+00	121	31	0	1749024768	40	6028
2026-01-16 14:06:09.71	162.38	30.77	-33.5	-34.4	24.1	0.00e+00	123	31	0	1752170496	40	5844
2026-01-16 14:06:10.72	162.56	30.60	-33.3	-34.3	24.3	0.00e+00	122	31	0	1755316224	40	5732
2026-01-16 14:06:11.73	162.74	30.43	-33.4	-34.3	24.4	0.00e+00	122	31	0	1758461952	40	5789
2026-01-16 14:06:12.74	162.92	30.26	-33.5	-34.4	24.4	0.00e+00	122	31	0	1761607680	40	5805
2026-01-16 14:06:13.75	163.09	30.09	-33.0	-33.9	24.8	0.00e+00	123	31	0	1764753408	40	5495
2026-01-16 14:06:14.76	163.27	29.93	-32.9	-33.7	24.9	0.00e+00	122	31	0	1767899136	40	5394
2026-01-16 14:06:15.77	163.44	29.76	-32.9	-33.7	25.0	0.00e+00	123	31	0	1771044864	40	5395
2026-01-16 14:06:16.78	163.61	29.59	-32.9	-33.8	24.9	0.00e+00	122	31	0	1774190592	40	5419
2026-01-16 14:06:17.80	163.78	29.43	-33.2	-34.0	24.6	0.00e+00	123	31	0	1777336320	40	5583
2026-01-16 14:06:18.81	163.94	29.26	-33.4	-34.3	24.5	0.00e+00	123	31	0	1780482048	40	5746
2026-01-16 14:06:19.82	164.11	29.10	-33.5	-34.4	24.5	0.00e+00	122	31	0	1783627776	40	5842
2026-01-16 14:06:20.83	164.27	28.93	-33.5	-34.4	24.5	0.00e+00	123	31	0	1786773504	40	5823
2026-01-16 14:06:21.83	164.43	28.77	-33.6	-34.5	24.5	0.00e+00	123	31	0	1789919232	40	5864
2026-01-16 14:06:22.84	164.59	28.61	-33.6	-34.5	24.4	0.00e+00	122	31	0	1793064960	40	5873
2026-01-16 14:06:23.85	164.75	28.45	-33.5	-34.4	24.4	0.00e+00	123	31	0	1796210688	40	5842
2026-01-16 14:06:24.86	164.91	28.29	-33.6	-34.5	24.3	0.00e+00	123	31	0	1799356416	40	5859
2026-01-16 14:06:25.87	165.06	28.13	-33.7	-34.6	24.2	0.00e+00	122	31	0	1802502144	40	5974
2026-01-16 14:06:26.88	165.21	27.97	-33.8	-34.7	24.0	0.00e+00	122	31	0	1805647872	40	6048
2026-01-16 14:06:27.89	165.37	27.81	-33.8	-34.7	24.1	0.00e+00	123	31	0	1808793600	40	6057
2026-01-16 14:06:28.90	165.52	27.65	-33.7	-34.6	24.2	0.00e+00	123	31	0	1811939328	40	5936
2026-01-16 14:06:29.91	165.67	27.50	-33.6	-34.5	24.2	0.00e+00	123	31	0	1815085056	40	5870
2026-01-16 14:06:30.92	165.82	27.34	-33.4	-34.3	24.4	0.00e+00	120	31	0	1818230784	40	5778
2026-01-16 14:06:31.93	165.96	27.19	-33.4	-34.3	24.4	0.00e+00	123	31	0	1821376512	40	5726
2026-01-16 14:06:32.94	166.11	27.03	-33.2	-34.1	24.5	0.00e+00	122	31	0	1824522240	40	5616
2026-01-16 14:06:33.95	166.25	26.88	-33.2	-34.1	24.6	0.00e+00	120	31	0	1827667968	40	5647
2026-01-16 14:06:34.96	166.39	26.72	-33.2	-34.1	24.5	0.00e+00	123	31	0	1830813696	40	5614
2026-01-16 14:06:35.97	166.54	26.57	-33.3	-34.2	24.4	0.00e+00	120	31	0	1835008000	40	5710
2026-01-16 14:06:36.98	166.67	26.42	-33.3	-34.2	24.3	0.00e+00	123	31	0	1837105152	40	5707
2026-01-16 14:06:38.00	166.82	26.26	-33.5	-34.4	24.1	0.00e+00	122	31	0	1840250880	40	5818
2026-01-16 14:06:39.01	166.95	26.11	-33.3	-34.2	24.4	0.00e+00	123	31	0	1843396608	40	5666
2026-01-16 14:06:40.02	167.09	25.96	-33.1	-34.0	24.4	0.00e+00	122	31	0	1847590912	40	5577
2026-01-16 14:06:41.03	167.22	25.81	-33.1	-34.0	24.4	0.00e+00	122	31	0	1850736640	40	5592
2026-01-16 14:06:42.04	167.36	25.67	-33.0	-33.9	24.5	0.00e+00	120	31	0	1853882368	40	5505
2026-01-16 14:06:43.05	167.49	25.52	-33.1	-34.0	24.6	0.00e+00	120	31	0	1857028096	40	5542
2026-01-16 14:06:44.06	167.62	25.37	-33.1	-33.9	24.6	0.00e+00	123	31	0	1859125248	40	5522
2026-01-16 14:06:45.07	167.75	25.22	-33.0	-33.9	24.6	0.00e+00	122	31	0	1863319552	40	5517
2026-01-16 14:06:46.08	167.88	25.08	-33.0	-33.9	24.7	0.00e+00	123	31	0	1866465280	40	5524
2026-01-16 14:06:47.09	168.01	24.93	-32.8	-33.7	24.9	0.00e+00	123	31	0	1869611008	40	5363
2026-01-16 14:06:48.10	168.13	24.79	-32.8	-33.6	25.0	0.00e+00	120	31	0	1872756736	38	5991
2026-01-16 14:06:49.11	168.26	24.64	-32.7	-33.6	25.0	0.00e+00	123	31	0	1875902464	38	5947
2026-01-16 14:06:50.12	168.38	24.50	-32.9	-33.7	25.0	0.00e+00	122	31	0	1879048192	38	6050
2026-01-16 14:06:51.13	168.51	24.36	-32.7	-33.6	25.0	0.00e+00	121	31	0	1882193920	38	5960
2026-01-16 14:06:52.14	168.63	24.21	-32.8	-33.7	24.9	0.00e+00	123	31	0	1885339648	38	6039
2026-01-16 14:06:53.15	168.75	24.07	-32.8	-33.7	24.8	0.00e+00	122	31	0	1888485376	38	6036
2026-01-16 14:06:54.16	168.87	23.93	-32.9	-33.8	24.8	0.00e+00	120	31	0	1891631104	38	6106
2026-01-16 14:06:55.17	168.99	23.79	-33.0	-33.8	24.8	0.00e+00	123	31	0	1894776832	38	6131
2026-01-16 14:06:56.18	169.11	23.65	-33.0	-33.9	24.8	0.00e+00	122	31	0	1897922560	38	6148
2026-01-16 14:06:57.19	169.23	23.51	-33.0	-33.9	24.8	0.00e+00	120	31	0	1901068288	38	6155
2026-01-16 14:06:58.20	169.34	23.37	-33.1	-33.9	24.7	0.00e+00	123	31	0	1904214016	38	6196
2026-01-16 14:06:59.21	169.46	23.24	-33.0	-33.9	24.9	0.00e+00	123	31	0	1907359744	38	6170
2026-01-16 14:07:00.22	169.57	23.10	-33.1	-34.0	24.7	0.00e+00	123	31	0	1910505472	38	6210
2026-01-16 14:07:01.23	169.68	22.96	-33.2	-34.1	24.7	0.00e+00	122	31	0	1913651200	38	6334
2026-01-16 14:07:02.24	169.80	22.83	-33.3	-34.2	24.6	0.00e+00	122	31	0	1916796928	38	6379
2026-01-16 14:07:03.25	169.91	22.69	-33.3	-34.2	24.6	0.00e+00	122	31	0	1919942656	38	6365
2026-01-16 14:07:04.26	170.02	22.56	-33.2	-34.1	24.5	0.00e+00	123	31	0	1923088384	38	6326
2026-01-16 14:07:05.27	170.13	22.42	-33.2	-34.1	24.6	0.00e+00	120	31	0	1926234112	38	6332
2026-01-16 14:07:06.28	170.24	22.29	-33.2	-34.1	24.6	0.00e+00	122	31	0	1929379840	38	6283
2026-01-16 14:07:07.29	170.34	22.16	-33.2	-34.1	24.6	0.00e+00	123	31	0	1932525568	38	6291
2026-01-16 14:07:08.30	170.45	22.02	-33.2	-34.1	24.7	0.00e+00	120	31	0	1935671296	38	6286
2026-01-16 14:07:09.31	170.56	21.89	-33.0	-33.9	24.7	0.00e+00	122	31	0	1938817024	38	6189
2026-01-16 14:07:10.32	170.66	21.76	-33.0	-33.9	24.7	0.00e+00	122	31	0	1941962752	38	6153
2026-01-16 14:07:11.34	170.77	21.63	-33.1	-34.0	24.6	0.00e+00	123	31	0	1945108480	38	6235
2026-01-16 14:07:12.34	170.87	21.50	-33.0	-33.9	24.6	0.00e+00	121	31	0	1948254208	38	6149
2026-01-16 14:07:13.35	170.97	21.37	-32.9	-33.8	24.7	0.00e+00	120	31	0	1951399936	38	6088
2026-01-16 14:07:14.37	171.08	21.24	-32.9	-33.8	24.7	0.00e+00	122	31	0	1954545664	38	6114
2026-01-16 14:07:15.37	171.18	21.11	-32.8	-33.7	24.8	0.00e+00	123	31	0	1957691392	38	6045
2026-01-16 14:07:16.38	171.28	20.99	-32.8	-33.7	24.8	0.00e+00	122	31	0	1960837120	38	6049
2026-01-16 14:07:17.39	171.38	20.86	-32.8	-33.7	24.8	0.00e+00	123	31	0	1963982848	38	6040
2026-01-16 14:07:18.40	171.47	20.73	-32.9	-33.8	24.8	0.00e+00	123	31	0	1967128576	38	6076
2026-01-16 14:07:19.41	171.57	20.61	-32.9	-33.8	24.8	0.00e+00	121	31	0	1970274304	38	6087
2026-01-16 14:07:20.42	171.67	20.48	-33.0	-33.9	24.7	0.00e+00	123	31	0	1973420032	38	6156
2026-01-16 14:07:21.43	171.77	20.36	-33.0	-33.9	24.7	0.00e+00	122	31	0	1976565760	38	6184
2026-01-16 14:07:22.44	171.86	20.23	-33.0	-33.9	24.7	0.00e+00	123	31	0	1979711488	38	6139
2026-01-16 14:07:23.45	171.96	20.11	-33.0	-33.8	24.8	0.00e+00	123	31	0	1982857216	38	6130
2026-01-16 14:07:24.46	172.05	19.98	-33.1	-34.0	24.7	0.00e+00	122	31	0	1986002944	38	6230
2026-01-16 14:07:25.47	172.14	19.86	-33.1	-33.9	24.7	0.00e+00	122	31	0	1989148672	38	6194
2026-01-16 14:07:26.48	172.24	19.74	-33.0	-33.9	24.7	0.00e+00	123	31	0	1992294400	38	6184
2026-01-16 14:07:27.49	172.33	19.62	-33.3	-34.1	24.6	0.00e+00	120	31	0	1995440128	38	6340
