passes_logs/2026/01/16/R4.6S_Anadyr/R4.6S_Anadyr__20260116_001009_NOAA_21_JPSS-2_rec.log

#Pass ID: 20260116_001009_NOAA 21 (JPSS-2)
#Satellite: NOAA 21 (JPSS-2)
#Configuration: NOAA-21
#almurnet v.1.7.20251203
#Start time: 2026-01-16 00:10:11

#Version: 2.2.20231116
#Station: R4.6S_Anadyr
#Location: 177.4865 lon 64.73178 lat
#TLE: 1 54234U 22150A   26014.58979933  .00000039  00000+0  39403-4 0  9998
#TLE: 2 54234  98.7497 315.4945 0000653 294.6373  65.4735 14.19534652164756

#Time	Az	El	Level	Level2	SNR	BER	BlckErr	Temp	State	Recorded	gain1	gain2
2026-01-16 00:10:11.25	155.08	0.08	-48.5	-66.2	3.5	3.02e+01	0	25	0	0	60	78846
2026-01-16 00:10:12.26	155.08	0.14	-48.3	-61.1	3.5	1.52e+00	0	27	104	0	60	39765
2026-01-16 00:10:13.27	155.08	0.20	-48.1	-61.2	3.5	1.52e+00	0	27	104	0	60	40262
2026-01-16 00:10:14.28	155.09	0.26	-48.2	-61.1	3.5	1.51e+00	0	27	104	0	60	39892
2026-01-16 00:10:15.29	155.09	0.32	-48.2	-61.1	3.5	1.52e+00	0	27	104	0	60	39747
2026-01-16 00:10:16.30	155.09	0.38	-48.4	-61.2	3.5	1.52e+00	0	27	104	0	60	40231
2026-01-16 00:10:17.31	155.09	0.44	-48.1	-61.1	3.5	1.52e+00	0	27	104	0	60	39987
2026-01-16 00:10:18.32	155.09	0.51	-48.1	-61.1	3.5	1.52e+00	0	27	104	0	60	39715
2026-01-16 00:10:19.33	155.10	0.57	-48.2	-61.1	3.5	1.52e+00	0	27	104	0	60	39628
2026-01-16 00:10:20.34	155.10	0.63	-48.1	-61.0	3.5	1.52e+00	0	27	104	0	60	39162
2026-01-16 00:10:21.35	155.10	0.69	-48.0	-60.9	3.5	1.52e+00	0	27	104	0	60	38740
2026-01-16 00:10:22.36	155.10	0.75	-47.6	-60.7	3.5	1.52e+00	0	27	104	0	60	38108
2026-01-16 00:10:23.37	155.11	0.82	-47.7	-60.5	3.5	1.52e+00	0	27	104	0	60	37275
2026-01-16 00:10:24.38	155.11	0.88	-47.4	-60.3	3.5	1.52e+00	0	27	104	0	60	36205
2026-01-16 00:10:25.38	155.11	0.94	-46.4	-59.2	3.5	1.52e+00	0	27	104	0	60	32133
2026-01-16 00:10:26.39	155.11	1.00	-45.6	-58.2	3.5	1.52e+00	0	27	104	0	60	28675
2026-01-16 00:10:27.40	155.11	1.07	-45.5	-58.4	3.5	1.52e+00	0	27	104	0	60	29105
2026-01-16 00:10:28.41	155.12	1.13	-45.5	-58.3	3.5	1.52e+00	0	27	104	0	60	29012
2026-01-16 00:10:29.42	155.12	1.19	-45.5	-58.3	3.5	1.52e+00	0	27	104	0	60	28800
2026-01-16 00:10:30.43	155.12	1.25	-45.4	-58.3	3.5	1.52e+00	0	27	104	0	60	28987
2026-01-16 00:10:31.44	155.12	1.32	-45.5	-58.4	3.5	1.52e+00	0	27	104	0	60	29062
2026-01-16 00:10:32.45	155.12	1.38	-45.5	-58.4	3.5	1.52e+00	0	27	104	0	60	29293
2026-01-16 00:10:33.46	155.13	1.45	-45.5	-58.4	3.5	1.52e+00	0	27	104	0	60	29061
2026-01-16 00:10:34.47	155.13	1.51	-45.4	-58.3	3.5	1.52e+00	0	27	104	0	60	28746
2026-01-16 00:10:35.48	155.13	1.57	-45.4	-58.2	3.5	1.52e+00	0	27	104	0	60	28617
2026-01-16 00:10:36.49	155.13	1.64	-45.5	-58.3	3.5	1.52e+00	0	27	104	0	60	28942
2026-01-16 00:10:37.49	155.13	1.70	-45.4	-58.3	3.5	1.52e+00	0	27	104	0	60	28905
2026-01-16 00:10:38.50	155.14	1.76	-45.4	-58.4	3.5	1.52e+00	0	27	104	0	60	29138
2026-01-16 00:10:39.51	155.14	1.83	-45.4	-58.3	3.5	1.52e+00	0	27	104	0	60	28968
2026-01-16 00:10:40.52	155.14	1.89	-45.4	-58.3	3.5	1.52e+00	0	27	104	0	60	28807
2026-01-16 00:10:41.53	155.14	1.96	-45.4	-58.2	3.5	1.52e+00	0	27	104	0	60	28488
2026-01-16 00:10:42.54	155.15	2.02	-45.4	-58.2	3.5	1.51e+00	0	27	104	0	60	28662
2026-01-16 00:10:43.55	155.15	2.09	-45.4	-58.3	3.5	1.52e+00	0	27	104	0	60	28747
2026-01-16 00:10:44.56	155.15	2.15	-45.4	-58.3	3.5	1.52e+00	0	28	104	0	60	28901
2026-01-16 00:10:45.57	155.15	2.22	-45.4	-58.3	3.5	1.52e+00	0	28	104	0	60	28749
2026-01-16 00:10:46.58	155.15	2.28	-45.4	-58.2	3.5	1.51e+00	0	28	104	0	60	28516
2026-01-16 00:10:47.59	155.16	2.35	-45.4	-58.2	3.5	1.52e+00	0	28	104	0	60	28673
2026-01-16 00:10:48.60	155.16	2.42	-45.4	-58.4	3.5	1.52e+00	0	27	104	0	60	29106
2026-01-16 00:10:49.61	155.16	2.48	-45.4	-58.4	3.5	1.52e+00	0	28	104	0	60	29028
2026-01-16 00:10:50.62	155.16	2.55	-45.4	-58.0	3.5	1.52e+00	0	28	104	0	60	27899
2026-01-16 00:10:51.63	155.16	2.61	-45.3	-57.5	3.5	1.52e+00	0	28	104	0	60	26223
2026-01-16 00:10:52.64	155.17	2.68	-45.3	-57.0	3.5	1.51e+00	0	28	104	0	60	24861
2026-01-16 00:10:53.65	155.17	2.75	-45.3	-56.7	3.6	1.51e+00	0	28	104	0	60	24084
2026-01-16 00:10:54.66	155.17	2.81	-45.3	-57.3	3.5	1.51e+00	0	28	104	0	60	25661
2026-01-16 00:10:55.67	155.17	2.88	-45.4	-57.9	3.5	1.52e+00	0	27	104	0	60	27668
2026-01-16 00:10:56.68	155.17	2.95	-45.4	-57.8	3.5	1.52e+00	0	28	104	0	60	27349
2026-01-16 00:10:57.69	155.18	3.02	-45.2	-56.2	3.7	1.51e+00	0	28	104	0	60	22541
2026-01-16 00:10:58.70	155.18	3.08	-45.0	-54.1	4.5	1.20e+00	123	28	104	0	60	17835
2026-01-16 00:10:59.71	155.18	3.15	-44.6	-51.9	6.1	1.38e+00	111	28	104	0	60	13867
2026-01-16 00:11:00.72	155.18	3.22	-44.0	-49.1	7.8	1.39e-01	121	28	0	1048576	60	10047
2026-01-16 00:11:01.73	155.18	3.29	-43.5	-47.8	9.6	2.49e-02	120	28	0	4194304	60	8585
2026-01-16 00:11:02.74	155.19	3.35	-43.0	-46.8	10.6	6.17e-03	122	28	0	7340032	60	7675
2026-01-16 00:11:03.75	155.19	3.42	-43.0	-46.7	10.7	4.76e-03	120	28	0	10485760	60	7600
2026-01-16 00:11:04.76	155.19	3.49	-42.8	-46.3	10.9	1.97e-03	123	28	0	13631488	58	8160
2026-01-16 00:11:05.77	155.19	3.56	-42.5	-45.9	11.4	1.49e-03	122	28	0	16777216	58	7774
2026-01-16 00:11:06.78	155.19	3.63	-42.5	-45.9	11.3	1.30e-03	123	28	0	19922944	58	7763
2026-01-16 00:11:07.79	155.20	3.70	-42.8	-46.4	10.8	1.83e-03	120	28	0	23068672	58	8187
2026-01-16 00:11:08.80	155.20	3.77	-43.1	-46.9	10.4	5.52e-03	122	28	0	26214400	58	8706
2026-01-16 00:11:09.81	155.20	3.83	-44.2	-49.9	6.5	7.46e-02	122	28	0	29360128	60	10915
2026-01-16 00:11:10.81	155.20	3.90	-41.9	-44.6	12.8	4.19e-05	122	28	0	32505856	58	6719
2026-01-16 00:11:11.82	155.20	3.97	-45.3	-58.2	3.5	8.64e-01	0	28	104	34603008	60	28395
2026-01-16 00:11:12.83	155.21	4.04	-44.4	-51.4	4.1	1.45e+00	0	28	104	34603008	60	13022
2026-01-16 00:11:13.84	155.21	4.11	-45.4	-57.2	3.5	3.54e-02	0	28	104	34603008	60	25517
2026-01-16 00:11:14.85	155.21	4.18	-44.2	-50.2	4.3	1.50e+00	0	28	104	34603008	60	11344
2026-01-16 00:11:15.86	155.21	4.25	-43.8	-48.3	8.6	4.68e-02	123	28	0	34603008	60	9140
2026-01-16 00:11:16.87	155.21	4.32	-43.7	-47.8	9.4	4.08e-02	123	28	0	37748736	60	8636
2026-01-16 00:11:17.88	155.22	4.39	-43.5	-47.4	9.7	1.30e-02	122	28	0	40894464	60	8268
2026-01-16 00:11:18.89	155.22	4.47	-43.3	-47.3	10.0	9.47e-03	123	28	0	44040192	60	8128
2026-01-16 00:11:19.89	155.22	4.54	-42.9	-46.5	10.9	5.48e-03	122	28	0	47185920	60	7399
2026-01-16 00:11:20.90	155.22	4.61	-42.8	-46.3	11.0	1.18e-03	120	28	0	50331648	58	8179
2026-01-16 00:11:21.91	155.22	4.68	-42.4	-45.6	12.0	5.40e-04	123	28	0	53477376	58	7472
2026-01-16 00:11:22.92	155.23	4.75	-42.3	-45.5	12.2	3.80e-04	122	28	0	56623104	58	7381
2026-01-16 00:11:23.93	155.23	4.82	-42.1	-45.0	12.5	1.27e-04	123	28	0	59768832	58	6991
2026-01-16 00:11:24.94	155.23	4.89	-41.9	-44.7	12.8	4.19e-05	122	28	0	62914560	58	6736
2026-01-16 00:11:25.95	155.23	4.97	-41.7	-44.3	13.4	2.21e-05	123	28	0	66060288	56	7279
2026-01-16 00:11:26.96	155.23	5.04	-41.5	-44.1	13.8	7.60e-06	123	28	0	69206016	56	7057
2026-01-16 00:11:27.97	155.23	5.11	-41.6	-44.2	13.6	1.60e-05	123	28	0	72351744	56	7179
2026-01-16 00:11:28.98	155.24	5.18	-41.7	-44.3	13.5	5.30e-06	121	28	0	75497472	56	7263
2026-01-16 00:11:29.99	155.24	5.26	-41.8	-44.5	13.4	1.22e-05	123	28	0	78643200	56	7394
2026-01-16 00:11:31.00	155.24	5.33	-41.6	-44.0	13.8	6.10e-06	120	28	0	81788928	56	7040
2026-01-16 00:11:32.01	155.24	5.40	-41.6	-44.0	14.0	7.60e-06	123	28	0	84934656	56	7025
2026-01-16 00:11:33.02	155.24	5.48	-41.4	-43.7	14.2	3.00e-06	123	28	0	88080384	56	6787
2026-01-16 00:11:34.02	155.25	5.55	-41.4	-43.7	14.3	7.00e-07	123	28	0	91226112	56	6739
2026-01-16 00:11:35.03	155.25	5.62	-41.3	-43.5	14.5	2.20e-06	123	28	0	94371840	56	6636
2026-01-16 00:11:36.04	155.25	5.70	-41.4	-43.7	14.3	0.00e+00	120	28	0	97517568	56	6780
2026-01-16 00:11:37.05	155.25	5.77	-41.1	-43.3	14.8	7.00e-07	123	28	0	100663296	56	6470
2026-01-16 00:11:38.06	155.25	5.85	-40.9	-43.0	15.0	0.00e+00	122	28	0	103809024	56	6274
2026-01-16 00:11:39.07	155.25	5.92	-41.0	-43.1	15.0	0.00e+00	123	28	0	106954752	56	6349
2026-01-16 00:11:40.08	155.26	6.00	-40.8	-42.9	15.2	0.00e+00	122	28	0	110100480	56	6184
2026-01-16 00:11:41.09	155.26	6.07	-40.8	-42.9	15.4	0.00e+00	123	28	0	113246208	56	6142
2026-01-16 00:11:42.10	155.26	6.15	-40.8	-42.8	15.2	0.00e+00	123	28	0	116391936	54	6883
2026-01-16 00:11:43.11	155.26	6.22	-40.6	-42.6	15.6	0.00e+00	122	28	0	119537664	54	6670
2026-01-16 00:11:44.11	155.26	6.30	-40.4	-42.3	15.9	0.00e+00	123	28	0	122683392	54	6458
2026-01-16 00:11:45.12	155.27	6.38	-40.5	-42.5	15.7	0.00e+00	122	28	0	125829120	54	6581
2026-01-16 00:11:46.13	155.27	6.45	-40.2	-42.1	16.0	0.00e+00	123	28	0	128974848	54	6302
2026-01-16 00:11:47.14	155.27	6.53	-40.3	-42.2	16.0	0.00e+00	123	28	0	132120576	54	6363
2026-01-16 00:11:48.15	155.27	6.61	-40.2	-42.0	16.2	0.00e+00	123	28	0	135266304	54	6267
2026-01-16 00:11:49.15	155.27	6.68	-40.1	-42.0	16.2	0.00e+00	123	28	0	138412032	54	6249
2026-01-16 00:11:50.16	155.27	6.76	-40.0	-41.8	16.4	0.00e+00	123	28	0	141557760	54	6127
2026-01-16 00:11:51.17	155.28	6.84	-40.0	-41.8	16.5	0.00e+00	123	28	0	145752064	54	6068
2026-01-16 00:11:52.18	155.28	6.92	-39.9	-41.6	16.6	0.00e+00	120	28	0	148897792	52	6700
2026-01-16 00:11:53.19	155.28	6.99	-39.7	-41.5	16.8	0.00e+00	120	28	0	150994944	52	6575
2026-01-16 00:11:54.19	155.28	7.07	-39.7	-41.4	16.9	0.00e+00	123	28	0	154140672	52	6525
2026-01-16 00:11:55.20	155.28	7.15	-39.8	-41.5	16.7	0.00e+00	120	28	0	157286400	52	6623
2026-01-16 00:11:56.21	155.28	7.23	-39.8	-41.6	16.7	0.00e+00	123	28	0	160432128	52	6668
2026-01-16 00:11:57.22	155.29	7.31	-39.7	-41.4	16.9	0.00e+00	123	28	0	164626432	52	6532
2026-01-16 00:11:58.23	155.29	7.39	-39.7	-41.4	16.9	0.00e+00	122	28	0	167772160	52	6563
2026-01-16 00:11:59.24	155.29	7.47	-39.7	-41.3	17.0	0.00e+00	122	28	0	170917888	52	6497
2026-01-16 00:12:00.24	155.29	7.54	-39.6	-41.3	17.1	0.00e+00	122	28	0	174063616	52	6425
2026-01-16 00:12:01.25	155.29	7.62	-39.6	-41.3	17.0	0.00e+00	123	28	0	176160768	52	6447
2026-01-16 00:12:02.26	155.29	7.70	-39.6	-41.3	17.0	0.00e+00	120	28	0	179306496	52	6450
2026-01-16 00:12:03.27	155.30	7.79	-39.5	-41.2	17.2	0.00e+00	122	28	0	183500800	52	6392
2026-01-16 00:12:04.28	155.30	7.87	-39.6	-41.3	17.0	0.00e+00	123	28	0	186646528	52	6455
2026-01-16 00:12:05.29	155.30	7.95	-39.6	-41.3	17.0	0.00e+00	122	28	0	189792256	52	6464
2026-01-16 00:12:06.29	155.30	8.03	-39.7	-41.4	16.8	0.00e+00	123	28	0	192937984	52	6567
2026-01-16 00:12:07.30	155.30	8.11	-39.7	-41.4	16.8	0.00e+00	123	28	0	196083712	52	6562
2026-01-16 00:12:08.31	155.30	8.19	-39.7	-41.4	16.8	0.00e+00	123	28	0	198180864	52	6561
2026-01-16 00:12:09.32	155.30	8.27	-39.8	-41.5	16.7	0.00e+00	122	28	0	202375168	52	6641
2026-01-16 00:12:10.33	155.31	8.36	-39.7	-41.4	16.8	0.00e+00	123	28	0	205520896	52	6562
2026-01-16 00:12:11.34	155.31	8.44	-39.7	-41.5	16.8	0.00e+00	122	28	0	208666624	52	6576
2026-01-16 00:12:12.35	155.31	8.52	-39.9	-41.7	16.6	0.00e+00	122	28	0	211812352	52	6727
2026-01-16 00:12:13.36	155.31	8.60	-39.7	-41.4	16.8	0.00e+00	123	28	0	214958080	52	6555
2026-01-16 00:12:14.37	155.31	8.69	-39.8	-41.5	16.8	0.00e+00	122	28	0	218103808	52	6610
2026-01-16 00:12:15.38	155.31	8.77	-39.8	-41.5	16.7	0.00e+00	123	28	0	221249536	52	6613
2026-01-16 00:12:16.39	155.32	8.86	-39.9	-41.6	16.6	0.00e+00	121	28	0	224395264	52	6694
2026-01-16 00:12:17.40	155.32	8.94	-39.8	-41.6	16.6	0.00e+00	123	28	0	227540992	52	6661
2026-01-16 00:12:18.41	155.32	9.02	-39.8	-41.5	16.7	0.00e+00	123	28	0	230686720	52	6638
2026-01-16 00:12:19.42	155.32	9.11	-39.8	-41.5	16.7	0.00e+00	120	28	0	233832448	52	6645
2026-01-16 00:12:20.43	155.32	9.19	-39.8	-41.6	16.6	0.00e+00	122	28	0	236978176	52	6672
2026-01-16 00:12:21.44	155.32	9.28	-39.9	-41.7	16.5	0.00e+00	123	28	0	240123904	52	6744
2026-01-16 00:12:22.45	155.32	9.37	-39.9	-41.6	16.6	0.00e+00	122	28	0	243269632	52	6697
2026-01-16 00:12:23.45	155.33	9.45	-40.1	-41.8	16.5	0.00e+00	122	28	0	246415360	52	6869
2026-01-16 00:12:24.46	155.33	9.54	-39.9	-41.6	16.7	0.00e+00	122	28	0	249561088	52	6693
2026-01-16 00:12:25.47	155.33	9.62	-39.9	-41.6	16.7	0.00e+00	120	28	0	252706816	52	6719
2026-01-16 00:12:26.48	155.33	9.71	-39.6	-41.2	17.1	0.00e+00	123	28	0	255852544	52	6416
2026-01-16 00:12:27.48	155.33	9.80	-39.4	-41.1	17.3	0.00e+00	120	28	0	258998272	52	6278
2026-01-16 00:12:28.49	155.33	9.88	-39.4	-41.0	17.4	0.00e+00	122	28	0	262144000	52	6227
2026-01-16 00:12:29.50	155.33	9.97	-39.3	-40.9	17.6	0.00e+00	123	28	0	265289728	52	6165
2026-01-16 00:12:30.51	155.33	10.06	-39.2	-40.8	17.7	0.00e+00	123	28	0	268435456	52	6072
2026-01-16 00:12:31.52	155.34	10.15	-39.2	-40.7	17.7	0.00e+00	123	28	0	271581184	52	6045
2026-01-16 00:12:32.53	155.34	10.24	-39.1	-40.6	17.8	0.00e+00	122	28	0	274726912	52	5972
2026-01-16 00:12:33.54	155.34	10.33	-39.0	-40.5	18.1	0.00e+00	123	28	0	277872640	52	5870
2026-01-16 00:12:34.55	155.34	10.42	-38.6	-40.0	18.5	0.00e+00	123	28	0	281018368	50	6273
2026-01-16 00:12:35.56	155.34	10.51	-38.6	-40.0	18.5	0.00e+00	123	28	0	284164096	50	6264
2026-01-16 00:12:36.57	155.34	10.60	-38.5	-39.9	18.6	0.00e+00	123	28	0	287309824	50	6191
2026-01-16 00:12:37.57	155.34	10.69	-38.5	-39.9	18.5	0.00e+00	120	28	0	290455552	50	6196
2026-01-16 00:12:38.58	155.35	10.78	-38.5	-39.9	18.6	0.00e+00	123	28	0	293601280	50	6203
2026-01-16 00:12:39.59	155.35	10.87	-38.3	-39.8	18.7	0.00e+00	123	28	0	296747008	50	6092
2026-01-16 00:12:40.60	155.35	10.96	-38.3	-39.8	18.8	0.00e+00	123	28	0	299892736	50	6082
2026-01-16 00:12:41.61	155.35	11.05	-38.3	-39.7	18.9	0.00e+00	123	28	0	303038464	50	6042
2026-01-16 00:12:42.62	155.35	11.14	-38.3	-39.7	18.7	0.00e+00	122	28	0	306184192	50	6061
2026-01-16 00:12:43.63	155.35	11.24	-38.5	-39.9	18.7	0.00e+00	120	28	0	309329920	50	6151
2026-01-16 00:12:44.64	155.35	11.33	-38.1	-39.5	19.1	0.00e+00	122	28	0	312475648	50	5899
2026-01-16 00:12:45.65	155.35	11.42	-38.1	-39.4	19.1	0.00e+00	123	28	0	315621376	50	5841
2026-01-16 00:12:46.66	155.35	11.51	-38.1	-39.5	19.1	0.00e+00	122	28	0	318767104	50	5886
2026-01-16 00:12:47.67	155.36	11.61	-38.1	-39.4	19.2	0.00e+00	123	28	0	321912832	50	5815
2026-01-16 00:12:48.68	155.36	11.70	-37.9	-39.2	19.4	0.00e+00	123	28	0	325058560	50	5701
2026-01-16 00:12:49.69	155.36	11.80	-37.9	-39.2	19.4	0.00e+00	123	28	0	328204288	50	5677
2026-01-16 00:12:50.70	155.36	11.89	-38.0	-39.3	19.3	0.00e+00	120	28	0	331350016	50	5738
2026-01-16 00:12:51.71	155.36	11.99	-37.9	-39.2	19.3	0.00e+00	123	28	0	334495744	50	5692
2026-01-16 00:12:52.72	155.36	12.08	-37.9	-39.2	19.2	0.00e+00	122	28	0	337641472	50	5721
2026-01-16 00:12:53.73	155.36	12.18	-38.0	-39.3	19.3	0.00e+00	123	28	0	340787200	50	5771
2026-01-16 00:12:54.74	155.36	12.28	-38.0	-39.3	19.2	0.00e+00	123	28	0	343932928	50	5766
2026-01-16 00:12:55.75	155.36	12.37	-38.1	-39.4	19.1	0.00e+00	127	28	0	347078656	50	5833
2026-01-16 00:12:56.76	155.37	12.47	-38.1	-39.4	19.0	0.00e+00	123	28	0	350224384	50	5807
2026-01-16 00:12:57.77	155.37	12.57	-38.1	-39.4	19.1	0.00e+00	123	28	0	353370112	50	5815
2026-01-16 00:12:58.77	155.37	12.67	-38.1	-39.4	19.1	0.00e+00	122	28	0	356515840	50	5837
2026-01-16 00:12:59.78	155.37	12.76	-38.2	-39.5	19.0	0.00e+00	123	28	0	359661568	50	5888
2026-01-16 00:13:00.79	155.37	12.86	-38.0	-39.3	19.1	0.00e+00	120	28	0	362807296	50	5783
2026-01-16 00:13:01.80	155.37	12.96	-38.0	-39.4	19.1	0.00e+00	122	28	0	365953024	50	5802
2026-01-16 00:13:02.81	155.37	13.06	-38.0	-39.3	19.1	0.00e+00	122	28	0	369098752	50	5746
2026-01-16 00:13:03.82	155.37	13.16	-38.0	-39.4	19.1	0.00e+00	123	28	0	372244480	50	5797
2026-01-16 00:13:04.83	155.37	13.26	-37.9	-39.3	19.1	0.00e+00	120	28	0	375390208	50	5742
2026-01-16 00:13:05.84	155.37	13.36	-38.0	-39.3	19.1	0.00e+00	122	28	0	378535936	50	5789
2026-01-16 00:13:06.85	155.37	13.46	-38.0	-39.3	19.0	0.00e+00	123	28	0	381681664	50	5789
2026-01-16 00:13:07.85	155.38	13.56	-38.0	-39.3	19.1	0.00e+00	120	28	0	384827392	50	5765
2026-01-16 00:13:08.86	155.38	13.67	-37.9	-39.2	19.3	0.00e+00	123	28	0	387973120	50	5705
2026-01-16 00:13:09.87	155.38	13.77	-38.0	-39.3	19.3	0.00e+00	123	28	0	391118848	50	5759
2026-01-16 00:13:10.88	155.38	13.87	-37.9	-39.2	19.3	0.00e+00	122	28	0	394264576	50	5699
2026-01-16 00:13:11.89	155.38	13.98	-37.9	-39.2	19.4	0.00e+00	122	28	0	397410304	50	5705
2026-01-16 00:13:12.90	155.38	14.08	-37.9	-39.2	19.5	0.00e+00	123	28	0	400556032	50	5679
2026-01-16 00:13:13.91	155.38	14.18	-37.8	-39.0	19.5	0.00e+00	123	28	0	403701760	50	5583
2026-01-16 00:13:14.92	155.38	14.29	-37.7	-39.0	19.5	0.00e+00	123	28	0	406847488	48	6255
2026-01-16 00:13:15.93	155.38	14.39	-37.7	-38.9	19.7	0.00e+00	123	28	0	409993216	48	6188
2026-01-16 00:13:16.94	155.38	14.50	-37.7	-38.9	19.8	0.00e+00	123	28	0	413138944	48	6173
2026-01-16 00:13:17.95	155.38	14.61	-37.7	-38.9	19.8	0.00e+00	120	28	0	416284672	48	6189
2026-01-16 00:13:18.96	155.38	14.71	-37.5	-38.8	19.8	0.00e+00	122	28	0	419430400	48	6075
2026-01-16 00:13:19.96	155.38	14.82	-37.7	-38.9	19.7	0.00e+00	123	28	0	422576128	48	6186
2026-01-16 00:13:20.97	155.38	14.93	-37.6	-38.8	19.8	0.00e+00	123	28	0	425721856	48	6115
2026-01-16 00:13:21.98	155.39	15.03	-37.5	-38.7	19.9	0.00e+00	122	28	0	428867584	48	6051
2026-01-16 00:13:22.99	155.39	15.14	-37.5	-38.8	19.8	0.00e+00	123	28	0	432013312	48	6075
2026-01-16 00:13:24.00	155.39	15.25	-37.5	-38.8	19.8	0.00e+00	122	28	0	435159040	48	6068
2026-01-16 00:13:25.01	155.39	15.36	-37.6	-38.9	19.7	0.00e+00	123	28	0	438304768	48	6140
2026-01-16 00:13:26.02	155.39	15.47	-37.5	-38.8	19.8	0.00e+00	123	28	0	441450496	48	6078
2026-01-16 00:13:27.03	155.39	15.58	-37.6	-38.9	19.6	0.00e+00	122	28	0	444596224	48	6171
2026-01-16 00:13:28.04	155.39	15.69	-37.6	-38.9	19.7	0.00e+00	122	28	0	447741952	48	6168
2026-01-16 00:13:29.04	155.39	15.80	-37.5	-38.8	19.8	0.00e+00	123	28	0	450887680	48	6099
2026-01-16 00:13:30.05	155.39	15.92	-37.6	-38.8	19.8	0.00e+00	123	28	0	454033408	48	6116
2026-01-16 00:13:31.06	155.39	16.03	-37.6	-38.8	19.8	0.00e+00	120	28	0	457179136	48	6113
2026-01-16 00:13:32.07	155.39	16.14	-37.7	-38.9	19.7	0.00e+00	122	28	0	460324864	48	6182
2026-01-16 00:13:33.08	155.39	16.25	-37.7	-38.9	19.7	0.00e+00	122	28	0	463470592	48	6193
2026-01-16 00:13:34.09	155.39	16.37	-37.7	-39.0	19.6	0.00e+00	122	28	0	466616320	48	6252
2026-01-16 00:13:35.10	155.39	16.48	-37.8	-39.1	19.6	0.00e+00	123	28	0	469762048	48	6312
2026-01-16 00:13:36.11	155.39	16.60	-37.7	-39.0	19.6	0.00e+00	123	28	0	472907776	48	6256
2026-01-16 00:13:37.12	155.39	16.71	-37.6	-38.8	19.7	0.00e+00	123	28	0	476053504	48	6116
2026-01-16 00:13:38.13	155.39	16.83	-37.6	-38.9	19.7	0.00e+00	123	28	0	479199232	48	6143
2026-01-16 00:13:39.14	155.39	16.95	-37.7	-38.9	19.5	0.00e+00	123	28	0	482344960	48	6191
2026-01-16 00:13:40.15	155.39	17.06	-37.5	-38.8	19.7	0.00e+00	122	28	0	485490688	48	6087
2026-01-16 00:13:41.16	155.39	17.18	-37.5	-38.7	19.8	0.00e+00	123	28	0	488636416	48	6039
2026-01-16 00:13:42.17	155.39	17.30	-37.5	-38.7	19.7	0.00e+00	121	28	0	491782144	48	6046
2026-01-16 00:13:43.17	155.39	17.42	-37.3	-38.6	19.7	0.00e+00	122	28	0	494927872	48	5963
2026-01-16 00:13:44.18	155.39	17.54	-37.3	-38.6	19.7	0.00e+00	121	28	0	498073600	48	5963
2026-01-16 00:13:45.19	155.39	17.66	-37.4	-38.6	19.8	0.00e+00	122	28	0	501219328	48	5979
2026-01-16 00:13:46.20	155.39	17.78	-37.2	-38.4	19.9	0.00e+00	120	28	0	504365056	48	5833
2026-01-16 00:13:47.21	155.39	17.90	-37.2	-38.5	19.8	0.00e+00	122	28	0	507510784	48	5861
2026-01-16 00:13:48.22	155.39	18.02	-37.0	-38.3	20.2	0.00e+00	122	28	0	510656512	48	5731
2026-01-16 00:13:49.23	155.39	18.15	-36.9	-38.1	20.2	0.00e+00	122	28	0	513802240	48	5641
2026-01-16 00:13:50.24	155.39	18.27	-36.8	-37.9	20.6	0.00e+00	123	28	0	516947968	48	5505
2026-01-16 00:13:51.25	155.39	18.39	-36.3	-37.4	21.2	0.00e+00	122	28	0	520093696	46	5839
2026-01-16 00:13:52.25	155.39	18.52	-36.3	-37.4	21.3	0.00e+00	123	28	0	523239424	46	5803
2026-01-16 00:13:53.26	155.39	18.64	-35.9	-37.0	21.7	0.00e+00	123	28	0	526385152	46	5547
2026-01-16 00:13:54.27	155.39	18.77	-35.7	-36.7	22.0	0.00e+00	121	28	0	529530880	44	6039
2026-01-16 00:13:55.28	155.39	18.89	-35.5	-36.6	22.2	0.00e+00	123	28	0	532676608	44	5936
2026-01-16 00:13:56.29	155.39	19.02	-35.5	-36.4	22.4	0.00e+00	123	28	0	535822336	44	5851
2026-01-16 00:13:57.30	155.39	19.15	-35.1	-36.0	22.8	0.00e+00	123	28	0	538968064	44	5585
2026-01-16 00:13:58.31	155.39	19.28	-34.8	-35.8	23.1	0.00e+00	123	28	0	542113792	42	6066
2026-01-16 00:13:59.32	155.39	19.41	-34.5	-35.4	23.4	0.00e+00	122	28	0	545259520	42	5828
2026-01-16 00:14:00.33	155.39	19.54	-34.5	-35.5	23.3	0.00e+00	120	28	0	548405248	42	5865
2026-01-16 00:14:01.34	155.39	19.67	-34.3	-35.3	23.5	0.00e+00	123	28	0	551550976	42	5755
2026-01-16 00:14:02.35	155.39	19.80	-34.3	-35.2	23.6	0.00e+00	123	28	0	554696704	42	5702
2026-01-16 00:14:03.36	155.39	19.93	-34.1	-35.0	23.7	0.00e+00	122	28	0	557842432	42	5545
2026-01-16 00:14:04.37	155.39	20.06	-34.0	-34.9	23.9	0.00e+00	122	28	0	562036736	42	5522
2026-01-16 00:14:05.38	155.39	20.20	-33.8	-34.7	24.0	0.00e+00	123	28	0	564133888	42	5377
2026-01-16 00:14:06.39	155.39	20.33	-33.6	-34.5	24.2	0.00e+00	122	28	0	567279616	40	5873
2026-01-16 00:14:07.40	155.39	20.46	-33.6	-34.5	24.2	0.00e+00	123	28	0	570425344	40	5880
2026-01-16 00:14:08.41	155.39	20.60	-33.4	-34.3	24.3	0.00e+00	122	28	0	573571072	40	5734
2026-01-16 00:14:09.42	155.38	20.74	-33.3	-34.2	24.4	0.00e+00	122	28	0	577765376	40	5676
2026-01-16 00:14:10.43	155.38	20.87	-33.0	-33.9	24.6	0.00e+00	122	28	0	580911104	40	5510
2026-01-16 00:14:11.44	155.38	21.01	-33.1	-34.0	24.5	0.00e+00	123	28	0	584056832	40	5554
2026-01-16 00:14:12.45	155.38	21.15	-33.1	-34.0	24.6	0.00e+00	124	28	0	587202560	40	5552
2026-01-16 00:14:13.46	155.38	21.29	-33.3	-34.2	24.5	0.00e+00	123	28	0	589299712	40	5661
2026-01-16 00:14:14.47	155.38	21.43	-32.9	-33.7	24.7	0.00e+00	120	28	0	593494016	40	5403
2026-01-16 00:14:15.48	155.38	21.57	-32.9	-33.7	24.8	0.00e+00	122	28	0	596639744	40	5385
2026-01-16 00:14:16.49	155.38	21.71	-32.9	-33.8	24.8	0.00e+00	122	28	0	599785472	40	5443
2026-01-16 00:14:17.49	155.38	21.85	-32.9	-33.7	24.8	0.00e+00	122	28	0	602931200	38	6046
2026-01-16 00:14:18.50	155.38	21.99	-32.7	-33.5	25.0	0.00e+00	120	28	0	606076928	38	5920
2026-01-16 00:14:19.51	155.38	22.14	-32.7	-33.5	24.9	0.00e+00	122	28	0	609222656	38	5914
2026-01-16 00:14:20.52	155.37	22.28	-32.6	-33.4	25.1	0.00e+00	124	28	0	612368384	38	5839
2026-01-16 00:14:21.53	155.37	22.43	-32.6	-33.5	25.0	0.00e+00	123	28	0	615514112	38	5868
2026-01-16 00:14:22.54	155.37	22.57	-32.6	-33.5	25.1	0.00e+00	121	28	0	618659840	38	5885
2026-01-16 00:14:23.55	155.37	22.72	-32.4	-33.3	25.1	0.00e+00	123	28	0	621805568	38	5739
2026-01-16 00:14:24.56	155.37	22.87	-32.6	-33.4	25.1	0.00e+00	120	28	0	624951296	38	5845
2026-01-16 00:14:25.57	155.37	23.02	-32.3	-33.1	25.2	0.00e+00	122	28	0	628097024	38	5640
2026-01-16 00:14:26.58	155.37	23.17	-32.3	-33.1	25.3	0.00e+00	123	28	0	631242752	38	5627
2026-01-16 00:14:27.59	155.37	23.32	-32.2	-33.0	25.3	0.00e+00	123	28	0	634388480	38	5593
2026-01-16 00:14:28.60	155.36	23.47	-32.1	-33.0	25.4	0.00e+00	120	28	0	637534208	38	5543
2026-01-16 00:14:29.61	155.36	23.62	-32.3	-33.1	25.2	0.00e+00	122	28	0	640679936	38	5621
2026-01-16 00:14:30.62	155.36	23.78	-32.2	-33.1	25.2	0.00e+00	123	28	0	643825664	38	5617
2026-01-16 00:14:31.63	155.36	23.93	-32.3	-33.2	25.2	0.00e+00	123	28	0	646971392	38	5673
2026-01-16 00:14:32.64	155.36	24.08	-32.1	-33.0	25.4	0.00e+00	123	28	0	650117120	38	5544
2026-01-16 00:14:33.65	155.36	24.24	-32.2	-33.1	25.3	0.00e+00	122	28	0	653262848	38	5617
2026-01-16 00:14:34.65	155.35	24.40	-32.2	-33.0	25.3	0.00e+00	123	28	0	656408576	38	5578
2026-01-16 00:14:35.66	155.35	24.55	-32.1	-32.9	25.4	0.00e+00	120	28	0	659554304	38	5510
2026-01-16 00:14:36.67	155.35	24.71	-32.3	-33.1	25.3	0.00e+00	123	28	0	662700032	38	5631
2026-01-16 00:14:37.68	155.35	24.87	-32.1	-32.9	25.3	0.00e+00	122	28	0	665845760	38	5506
2026-01-16 00:14:38.69	155.35	25.03	-32.2	-33.1	25.3	0.00e+00	122	28	0	668991488	38	5597
2026-01-16 00:14:39.70	155.34	25.20	-32.3	-33.1	25.3	0.00e+00	123	28	0	672137216	38	5626
2026-01-16 00:14:40.71	155.34	25.36	-32.4	-33.3	25.2	0.00e+00	123	28	0	675282944	38	5744
2026-01-16 00:14:41.72	155.34	25.52	-32.6	-33.5	25.0	0.00e+00	123	28	0	678428672	38	5860
2026-01-16 00:14:42.73	155.34	25.69	-32.6	-33.4	25.0	0.00e+00	122	28	0	681574400	38	5843
2026-01-16 00:14:43.73	155.34	25.85	-32.8	-33.7	24.8	0.00e+00	123	28	0	684720128	38	6014
2026-01-16 00:14:44.74	155.33	26.02	-32.8	-33.7	25.0	0.00e+00	120	28	0	687865856	38	5996
2026-01-16 00:14:45.75	155.33	26.19	-32.9	-33.8	24.8	0.00e+00	123	28	0	691011584	38	6096
2026-01-16 00:14:46.76	155.33	26.36	-33.2	-34.0	24.7	0.00e+00	123	28	0	694157312	38	6277
2026-01-16 00:14:47.77	155.33	26.53	-33.2	-34.1	24.6	0.00e+00	121	28	0	697303040	38	6308
2026-01-16 00:14:48.78	155.32	26.70	-33.3	-34.2	24.5	0.00e+00	123	28	0	700448768	38	6406
2026-01-16 00:14:49.79	155.32	26.87	-33.6	-34.5	24.3	0.00e+00	120	28	0	703594496	38	6596
2026-01-16 00:14:50.80	155.32	27.04	-33.6	-34.6	24.2	0.00e+00	123	28	0	706740224	38	6656
2026-01-16 00:14:51.81	155.32	27.22	-33.8	-34.7	24.1	0.00e+00	122	28	0	709885952	40	6020
2026-01-16 00:14:52.82	155.31	27.39	-33.9	-34.8	24.1	0.00e+00	122	28	0	713031680	40	6080
2026-01-16 00:14:53.83	155.31	27.57	-34.0	-34.9	24.0	0.00e+00	122	28	0	716177408	40	6202
2026-01-16 00:14:54.84	155.31	27.75	-34.0	-35.0	24.0	0.00e+00	122	28	0	719323136	40	6224
2026-01-16 00:14:55.85	155.30	27.93	-34.1	-35.1	23.8	0.00e+00	123	28	0	722468864	40	6291
2026-01-16 00:14:56.86	155.30	28.11	-34.1	-35.0	23.9	0.00e+00	122	28	0	725614592	40	6267
2026-01-16 00:14:57.86	155.30	28.28	-34.2	-35.2	23.8	0.00e+00	122	28	0	728760320	40	6370
2026-01-16 00:14:58.87	155.29	28.47	-34.3	-35.2	23.7	0.00e+00	122	28	0	731906048	40	6399
2026-01-16 00:14:59.88	155.29	28.65	-34.3	-35.2	23.7	0.00e+00	123	28	0	735051776	40	6391
2026-01-16 00:15:00.89	155.29	28.84	-34.2	-35.2	23.8	0.00e+00	123	28	0	738197504	40	6355
2026-01-16 00:15:01.90	155.28	29.02	-34.0	-35.0	24.0	0.00e+00	123	28	0	741343232	40	6213
2026-01-16 00:15:02.91	155.28	29.21	-34.0	-34.9	23.9	0.00e+00	124	28	0	744488960	40	6202
2026-01-16 00:15:03.92	155.28	29.40	-33.8	-34.8	24.1	0.00e+00	122	28	0	747634688	40	6090
2026-01-16 00:15:04.93	155.27	29.59	-33.9	-34.8	24.1	0.00e+00	123	28	0	750780416	40	6122
2026-01-16 00:15:05.93	155.27	29.78	-33.8	-34.7	24.2	0.00e+00	123	28	0	753926144	40	6043
2026-01-16 00:15:06.95	155.26	29.97	-33.8	-34.7	24.3	0.00e+00	120	28	0	757071872	40	6045
2026-01-16 00:15:07.95	155.26	30.16	-33.7	-34.6	24.3	0.00e+00	123	28	0	760217600	40	5946
2026-01-16 00:15:08.96	155.26	30.36	-33.6	-34.5	24.4	0.00e+00	122	28	0	763363328	40	5883
2026-01-16 00:15:09.97	155.25	30.55	-33.3	-34.2	24.6	0.00e+00	123	28	0	766509056	40	5714
2026-01-16 00:15:10.98	155.25	30.75	-33.4	-34.3	24.6	0.00e+00	123	28	0	769654784	40	5762
2026-01-16 00:15:11.99	155.24	30.95	-33.3	-34.1	24.8	0.00e+00	122	28	0	772800512	40	5641
2026-01-16 00:15:13.00	155.24	31.15	-33.1	-34.0	24.8	0.00e+00	122	28	0	775946240	40	5563
2026-01-16 00:15:14.01	155.23	31.35	-33.1	-34.0	24.9	0.00e+00	122	28	0	779091968	40	5557
2026-01-16 00:15:15.01	155.23	31.55	-33.0	-33.9	24.9	0.00e+00	123	28	0	782237696	40	5489
2026-01-16 00:15:16.02	155.22	31.76	-33.0	-33.8	25.0	0.00e+00	123	28	0	785383424	40	5458
2026-01-16 00:15:17.03	155.22	31.97	-33.0	-33.9	24.9	0.00e+00	123	28	0	788529152	40	5512
2026-01-16 00:15:18.04	155.21	32.17	-33.0	-33.9	24.9	0.00e+00	120	28	0	791674880	40	5504
2026-01-16 00:15:19.05	155.21	32.38	-33.1	-34.0	24.8	0.00e+00	122	28	0	794820608	40	5562
2026-01-16 00:15:20.06	155.20	32.59	-33.2	-34.1	24.8	0.00e+00	122	28	0	797966336	40	5637
2026-01-16 00:15:21.07	155.20	32.80	-33.4	-34.3	24.7	0.00e+00	123	28	0	801112064	40	5755
2026-01-16 00:15:22.08	155.19	33.02	-33.6	-34.5	24.5	0.00e+00	122	28	0	804257792	40	5872
2026-01-16 00:15:23.09	155.19	33.23	-33.9	-34.8	24.3	0.00e+00	122	28	0	807403520	40	6095
2026-01-16 00:15:24.10	155.18	33.45	-33.9	-34.8	24.2	0.00e+00	123	28	0	810549248	40	6108
2026-01-16 00:15:25.11	155.18	33.67	-34.0	-34.9	24.0	0.00e+00	122	28	0	813694976	40	6199
2026-01-16 00:15:26.12	155.17	33.89	-34.1	-35.0	24.1	0.00e+00	122	28	0	816840704	40	6235
2026-01-16 00:15:27.13	155.16	34.11	-34.2	-35.1	23.9	0.00e+00	122	28	0	819986432	40	6344
2026-01-16 00:15:28.14	155.16	34.33	-34.4	-35.3	23.7	0.00e+00	123	28	0	823132160	40	6447
2026-01-16 00:15:29.15	155.15	34.55	-34.6	-35.5	23.6	0.00e+00	123	28	0	826277888	40	6616
2026-01-16 00:15:30.15	155.15	34.78	-35.0	-35.9	23.2	0.00e+00	123	28	0	829423616	42	6196
2026-01-16 00:15:31.16	155.14	35.01	-35.4	-36.4	22.8	0.00e+00	122	28	0	832569344	42	6553
2026-01-16 00:15:32.17	155.13	35.23	-35.4	-36.4	22.8	0.00e+00	122	28	0	835715072	42	6543
2026-01-16 00:15:33.18	155.12	35.47	-35.6	-36.6	22.7	0.00e+00	123	28	0	838860800	42	6708
2026-01-16 00:15:34.18	155.12	35.70	-35.7	-36.7	22.5	0.00e+00	120	28	0	842006528	42	6757
2026-01-16 00:15:35.19	155.11	35.93	-35.7	-36.7	22.5	0.00e+00	120	28	0	845152256	44	6012
2026-01-16 00:15:36.20	155.10	36.17	-35.9	-36.9	22.4	0.00e+00	123	28	0	848297984	44	6198
2026-01-16 00:15:37.20	155.10	36.40	-35.7	-36.7	22.6	0.00e+00	122	28	0	851443712	44	6050
2026-01-16 00:15:38.21	155.09	36.64	-35.9	-36.9	22.6	0.00e+00	122	28	0	854589440	44	6152
2026-01-16 00:15:39.22	155.08	36.88	-36.1	-37.2	22.4	0.00e+00	123	28	0	857735168	44	6378
2026-01-16 00:15:40.23	155.07	37.12	-35.8	-36.7	22.7	0.00e+00	123	28	0	860880896	44	6063
2026-01-16 00:15:41.24	155.06	37.37	-36.0	-37.0	22.5	0.00e+00	122	28	0	864026624	44	6258
2026-01-16 00:15:42.25	155.06	37.62	-35.6	-36.5	22.9	0.00e+00	122	28	0	867172352	44	5907
2026-01-16 00:15:43.26	155.05	37.86	-35.5	-36.5	23.0	0.00e+00	120	28	0	870318080	44	5869
2026-01-16 00:15:44.26	155.04	38.11	-35.3	-36.3	23.1	0.00e+00	122	28	0	873463808	44	5741
2026-01-16 00:15:45.27	155.03	38.36	-35.3	-36.2	23.1	0.00e+00	122	28	0	876609536	44	5722
2026-01-16 00:15:46.28	155.02	38.62	-35.4	-36.3	23.1	0.00e+00	120	28	0	879755264	44	5790
2026-01-16 00:15:47.29	155.01	38.87	-35.5	-36.5	23.0	0.00e+00	122	28	0	882900992	44	5878
2026-01-16 00:15:48.30	155.00	39.13	-35.5	-36.4	23.0	0.00e+00	120	28	0	886046720	44	5840
2026-01-16 00:15:49.31	154.99	39.39	-35.3	-36.2	23.1	0.00e+00	123	28	0	889192448	44	5716
2026-01-16 00:15:50.32	154.98	39.65	-35.1	-36.0	23.2	0.00e+00	121	28	0	892338176	44	5563
2026-01-16 00:15:51.33	154.97	39.92	-35.0	-35.9	23.3	0.00e+00	123	28	0	895483904	44	5519
2026-01-16 00:15:52.33	154.96	40.18	-35.1	-36.1	23.1	0.00e+00	122	28	0	898629632	44	5625
2026-01-16 00:15:53.34	154.95	40.45	-35.2	-36.2	22.9	0.00e+00	122	28	0	901775360	44	5681
2026-01-16 00:15:54.35	154.94	40.72	-35.5	-36.4	22.7	0.00e+00	122	28	0	904921088	44	5855
2026-01-16 00:15:55.36	154.93	40.99	-36.0	-37.1	22.2	0.00e+00	122	28	0	908066816	44	6286
2026-01-16 00:15:56.37	154.92	41.26	-36.3	-37.3	22.1	0.00e+00	123	28	0	911212544	44	6496
2026-01-16 00:15:57.37	154.91	41.54	-36.4	-37.5	22.1	0.00e+00	123	28	0	914358272	44	6590
2026-01-16 00:15:58.38	154.89	41.81	-36.6	-37.7	21.9	0.00e+00	122	28	0	917504000	44	6765
2026-01-16 00:15:59.39	154.88	42.09	-36.6	-37.7	22.0	0.00e+00	123	28	0	920649728	44	6746
2026-01-16 00:16:00.40	154.87	42.38	-36.8	-37.8	21.9	0.00e+00	123	28	0	923795456	46	6112
2026-01-16 00:16:01.41	154.86	42.66	-36.6	-37.7	22.1	0.00e+00	122	28	0	926941184	46	6012
2026-01-16 00:16:02.42	154.84	42.95	-36.5	-37.5	22.2	0.00e+00	122	28	0	930086912	46	5886
2026-01-16 00:16:03.43	154.83	43.23	-36.5	-37.5	22.1	0.00e+00	122	28	0	933232640	46	5884
2026-01-16 00:16:04.44	154.82	43.53	-36.3	-37.3	22.2	0.00e+00	123	28	0	936378368	46	5748
2026-01-16 00:16:05.45	154.80	43.82	-36.4	-37.4	22.2	0.00e+00	123	28	0	939524096	46	5804
2026-01-16 00:16:06.46	154.79	44.11	-36.2	-37.2	22.4	0.00e+00	122	28	0	942669824	46	5685
2026-01-16 00:16:07.47	154.77	44.41	-36.0	-37.1	22.4	0.00e+00	120	28	0	945815552	46	5599
2026-01-16 00:16:08.48	154.76	44.71	-36.4	-37.5	22.2	0.00e+00	121	28	0	948961280	46	5878
2026-01-16 00:16:09.49	154.74	45.01	-36.5	-37.6	21.9	0.00e+00	123	28	0	952107008	46	5947
2026-01-16 00:16:10.49	154.73	45.31	-36.8	-37.9	21.8	0.00e+00	122	28	0	955252736	46	6148
2026-01-16 00:16:11.50	154.71	45.62	-36.9	-38.0	21.4	0.00e+00	123	28	0	958398464	46	6238
2026-01-16 00:16:12.51	154.70	45.93	-37.1	-38.2	21.4	0.00e+00	123	28	0	961544192	46	6388
2026-01-16 00:16:13.52	154.68	46.24	-36.5	-37.6	21.9	0.00e+00	123	28	0	964689920	46	5966
2026-01-16 00:16:14.53	154.66	46.56	-36.5	-37.6	21.9	0.00e+00	123	28	0	967835648	46	5978
2026-01-16 00:16:15.54	154.64	46.87	-36.1	-37.1	22.5	0.00e+00	120	28	0	970981376	46	5639
2026-01-16 00:16:16.55	154.63	47.19	-35.8	-36.8	22.6	0.00e+00	123	28	0	974127104	46	5463
2026-01-16 00:16:17.56	154.61	47.51	-35.9	-36.9	22.7	0.00e+00	123	28	0	977272832	46	5486
2026-01-16 00:16:18.57	154.59	47.83	-35.3	-36.2	23.2	0.00e+00	120	28	0	980418560	44	5704
2026-01-16 00:16:19.58	154.57	48.16	-35.4	-36.4	23.0	0.00e+00	122	28	0	983564288	44	5798
2026-01-16 00:16:20.58	154.55	48.49	-35.3	-36.2	23.1	0.00e+00	123	28	0	986710016	44	5708
2026-01-16 00:16:21.59	154.53	48.82	-35.3	-36.2	23.0	0.00e+00	123	28	0	989855744	44	5722
2026-01-16 00:16:22.60	154.51	49.15	-35.3	-36.3	23.1	0.00e+00	122	28	0	993001472	44	5763
2026-01-16 00:16:23.61	154.49	49.49	-35.2	-36.2	23.2	0.00e+00	123	28	0	996147200	44	5696
2026-01-16 00:16:24.62	154.46	49.82	-35.3	-36.2	23.0	0.00e+00	120	28	0	999292928	44	5716
2026-01-16 00:16:25.63	154.44	50.16	-35.4	-36.4	22.9	0.00e+00	122	28	0	1002438656	44	5821
2026-01-16 00:16:26.64	154.42	50.51	-35.5	-36.5	22.9	0.00e+00	122	28	0	1005584384	44	5863
2026-01-16 00:16:27.65	154.39	50.85	-35.4	-36.4	22.9	0.00e+00	122	28	0	1008730112	44	5830
2026-01-16 00:16:28.66	154.37	51.20	-35.4	-36.4	23.1	0.00e+00	123	28	0	1011875840	44	5797
2026-01-16 00:16:29.67	154.34	51.55	-35.1	-36.1	23.3	0.00e+00	123	28	0	1015021568	44	5617
2026-01-16 00:16:30.68	154.32	51.91	-35.2	-36.2	23.2	0.00e+00	123	28	0	1019215872	44	5686
2026-01-16 00:16:31.68	154.29	52.26	-35.2	-36.1	23.2	0.00e+00	122	28	0	1022361600	44	5630
2026-01-16 00:16:32.69	154.26	52.62	-35.2	-36.2	23.0	0.00e+00	123	28	0	1024458752	44	5687
2026-01-16 00:16:33.70	154.24	52.98	-35.1	-36.0	23.2	0.00e+00	120	28	0	1027604480	44	5569
2026-01-16 00:16:34.71	154.21	53.34	-35.1	-36.1	23.2	0.00e+00	122	28	0	1030750208	44	5605
2026-01-16 00:16:35.72	154.18	53.71	-35.0	-35.9	23.4	0.00e+00	120	28	0	1034944512	44	5523
2026-01-16 00:16:36.73	154.15	54.08	-34.5	-35.5	23.7	0.00e+00	120	28	0	1038090240	42	5894
2026-01-16 00:16:37.74	154.12	54.45	-34.5	-35.4	23.7	0.00e+00	122	28	0	1041235968	42	5848
2026-01-16 00:16:38.75	154.08	54.83	-34.1	-35.1	24.1	0.00e+00	122	28	0	1044381696	42	5596
2026-01-16 00:16:39.76	154.05	55.20	-34.1	-35.1	24.2	0.00e+00	123	28	0	1046478848	42	5613
2026-01-16 00:16:40.77	154.02	55.58	-33.7	-34.6	24.5	0.00e+00	123	28	0	1050673152	40	5966
2026-01-16 00:16:41.78	153.98	55.97	-33.5	-34.4	24.6	0.00e+00	120	28	0	1053818880	40	5801
2026-01-16 00:16:42.78	153.94	56.35	-33.5	-34.4	24.6	0.00e+00	123	28	0	1056964608	40	5812
2026-01-16 00:16:43.79	153.91	56.74	-33.4	-34.3	24.6	0.00e+00	122	28	0	1060110336	40	5744
2026-01-16 00:16:44.80	153.87	57.13	-33.5	-34.4	24.5	0.00e+00	120	28	0	1063256064	40	5852
2026-01-16 00:16:45.81	153.83	57.52	-33.5	-34.4	24.5	0.00e+00	123	28	0	1066401792	40	5795
2026-01-16 00:16:46.82	153.79	57.92	-33.4	-34.4	24.5	0.00e+00	120	28	0	1069547520	40	5796
2026-01-16 00:16:47.83	153.74	58.31	-33.4	-34.3	24.6	0.00e+00	123	28	0	1072693248	40	5786
2026-01-16 00:16:48.84	153.70	58.72	-33.1	-34.0	24.9	0.00e+00	122	28	0	1075838976	40	5559
2026-01-16 00:16:49.85	153.65	59.12	-33.0	-33.9	24.9	0.00e+00	123	28	0	1078984704	40	5480
2026-01-16 00:16:50.85	153.61	59.52	-32.9	-33.8	24.9	0.00e+00	122	28	0	1082130432	40	5411
2026-01-16 00:16:51.86	153.56	59.93	-32.8	-33.7	24.8	0.00e+00	123	28	0	1085276160	40	5389
2026-01-16 00:16:52.87	153.51	60.34	-32.9	-33.8	24.8	0.00e+00	122	28	0	1088421888	40	5446
2026-01-16 00:16:53.88	153.46	60.76	-33.1	-34.0	24.8	0.00e+00	120	28	0	1091567616	40	5584
2026-01-16 00:16:54.89	153.40	61.18	-33.1	-33.9	24.8	0.00e+00	123	28	0	1094713344	40	5515
2026-01-16 00:16:55.90	153.35	61.59	-32.8	-33.6	25.0	0.00e+00	122	28	0	1097859072	40	5333
2026-01-16 00:16:56.91	153.29	62.02	-32.9	-33.7	25.0	0.00e+00	123	28	0	1101004800	38	6050
2026-01-16 00:16:57.92	153.23	62.44	-32.5	-33.4	25.2	0.00e+00	123	28	0	1104150528	38	5802
2026-01-16 00:16:58.93	153.17	62.87	-32.4	-33.3	25.1	0.00e+00	122	28	0	1107296256	38	5754
2026-01-16 00:16:59.94	153.10	63.30	-32.4	-33.3	25.0	0.00e+00	123	28	0	1110441984	38	5759
2026-01-16 00:17:00.95	153.03	63.73	-32.5	-33.4	25.1	0.00e+00	120	28	0	1113587712	38	5814
2026-01-16 00:17:01.96	152.96	64.17	-32.5	-33.4	25.2	0.00e+00	122	28	0	1116733440	38	5805
2026-01-16 00:17:02.96	152.89	64.60	-32.0	-32.8	25.4	0.00e+00	122	28	0	1119879168	38	5434
2026-01-16 00:17:03.97	152.82	65.04	-31.8	-32.6	25.5	0.00e+00	120	28	0	1123024896	38	5315
2026-01-16 00:17:04.98	152.74	65.49	-31.7	-32.6	25.7	0.00e+00	123	28	0	1126170624	36	5931
2026-01-16 00:17:05.99	152.65	65.93	-31.7	-32.5	25.7	0.00e+00	120	28	0	1129316352	36	5906
2026-01-16 00:17:07.01	152.57	66.38	-31.6	-32.5	25.7	0.00e+00	122	28	0	1132462080	36	5872
2026-01-16 00:17:08.01	152.48	66.83	-32.1	-33.0	25.4	0.00e+00	123	28	0	1135607808	36	6223
2026-01-16 00:17:09.02	152.38	67.28	-32.3	-33.2	25.3	0.00e+00	121	28	0	1138753536	36	6360
2026-01-16 00:17:10.03	152.28	67.74	-32.0	-32.8	25.6	0.00e+00	123	28	0	1141899264	36	6105
2026-01-16 00:17:11.04	152.18	68.20	-31.9	-32.7	25.4	0.00e+00	122	28	0	1145044992	36	6062
2026-01-16 00:17:12.05	152.07	68.66	-31.8	-32.6	25.7	0.00e+00	123	28	0	1148190720	36	5966
2026-01-16 00:17:13.06	151.96	69.12	-31.7	-32.6	25.8	0.00e+00	123	28	0	1151336448	36	5941
2026-01-16 00:17:14.07	151.84	69.58	-31.9	-32.7	25.7	0.00e+00	120	28	0	1154482176	36	6051
2026-01-16 00:17:15.08	151.72	70.05	-31.7	-32.6	25.8	0.00e+00	122	28	0	1157627904	36	5936
2026-01-16 00:17:16.09	151.58	70.52	-31.6	-32.4	25.9	0.00e+00	122	28	0	1160773632	36	5798
2026-01-16 00:17:17.10	151.44	70.99	-31.7	-32.5	25.6	0.00e+00	123	28	0	1163919360	36	5913
2026-01-16 00:17:18.10	151.30	71.46	-31.7	-32.6	25.6	0.00e+00	122	28	0	1167065088	36	5939
2026-01-16 00:17:19.11	151.14	71.93	-31.7	-32.5	25.8	0.00e+00	122	28	0	1170210816	36	5914
2026-01-16 00:17:20.12	150.98	72.41	-31.5	-32.3	25.9	0.00e+00	121	28	0	1173356544	36	5763
2026-01-16 00:17:21.13	150.81	72.89	-31.5	-32.3	25.6	0.00e+00	123	28	0	1176502272	36	5736
2026-01-16 00:17:22.14	150.62	73.37	-31.7	-32.6	25.1	0.00e+00	122	28	0	1179648000	36	5945
2026-01-16 00:17:23.14	150.43	73.84	-32.2	-33.0	25.1	0.00e+00	122	28	0	1182793728	36	6261
2026-01-16 00:17:24.15	150.22	74.33	-32.2	-33.0	25.4	0.00e+00	123	28	0	1185939456	36	6265
2026-01-16 00:17:25.16	149.99	74.81	-31.7	-32.5	25.8	0.00e+00	122	28	0	1189085184	36	5912
2026-01-16 00:17:26.17	149.75	75.30	-31.7	-32.5	25.6	0.00e+00	123	28	0	1192230912	36	5911
2026-01-16 00:17:27.18	149.50	75.79	-31.9	-32.7	25.5	0.00e+00	123	28	0	1195376640	36	6042
2026-01-16 00:17:28.19	149.22	76.28	-32.3	-33.1	25.4	0.00e+00	123	28	0	1198522368	36	6328
2026-01-16 00:17:29.20	148.92	76.77	-32.1	-32.9	25.5	0.00e+00	123	28	0	1201668096	36	6176
2026-01-16 00:17:30.21	148.60	77.26	-32.1	-32.9	25.1	0.00e+00	123	28	0	1204813824	36	6197
2026-01-16 00:17:31.22	148.26	77.76	-31.8	-32.7	25.3	0.00e+00	122	28	0	1207959552	36	6026
2026-01-16 00:17:32.23	147.88	78.25	-32.1	-32.9	25.4	0.00e+00	120	28	0	1211105280	36	6165
2026-01-16 00:17:33.23	147.47	78.74	-32.3	-33.2	25.4	0.00e+00	123	28	0	1214251008	36	6370
2026-01-16 00:17:34.25	147.01	79.24	-32.4	-33.2	25.5	0.00e+00	123	28	0	1217396736	36	6395
2026-01-16 00:17:35.26	146.51	79.74	-32.3	-33.1	25.5	0.00e+00	123	28	0	1220542464	36	6316
2026-01-16 00:17:36.27	145.96	80.24	-32.5	-33.3	25.2	0.00e+00	122	28	0	1223688192	36	6496
2026-01-16 00:17:37.27	145.36	80.73	-32.7	-33.6	25.2	0.00e+00	122	28	0	1226833920	38	5952
2026-01-16 00:17:38.28	144.68	81.23	-32.8	-33.7	25.1	0.00e+00	122	28	0	1229979648	38	6030
2026-01-16 00:17:39.29	143.92	81.73	-32.6	-33.5	25.2	0.00e+00	121	28	0	1233125376	38	5886
2026-01-16 00:17:40.30	143.06	82.22	-32.7	-33.6	25.0	0.00e+00	122	28	0	1236271104	38	5969
2026-01-16 00:17:41.31	142.07	82.72	-32.8	-33.7	25.1	0.00e+00	122	28	0	1239416832	38	6035
2026-01-16 00:17:42.32	140.95	83.21	-32.6	-33.4	25.3	0.00e+00	123	28	0	1242562560	38	5836
2026-01-16 00:17:43.32	139.66	83.70	-32.5	-33.4	25.0	0.00e+00	123	28	0	1245708288	38	5798
2026-01-16 00:17:44.33	138.13	84.19	-32.6	-33.5	24.8	0.00e+00	123	28	0	1248854016	38	5880
2026-01-16 00:17:45.34	136.32	84.67	-32.6	-33.5	24.7	0.00e+00	122	28	0	1251999744	38	5862
2026-01-16 00:17:46.35	134.16	85.15	-32.8	-33.7	24.6	0.00e+00	122	28	0	1255145472	38	6014
2026-01-16 00:17:47.36	131.51	85.62	-32.9	-33.8	24.8	0.00e+00	123	28	0	1258291200	38	6067
2026-01-16 00:17:48.37	128.24	86.08	-32.9	-33.8	24.9	0.00e+00	120	28	0	1261436928	38	6096
2026-01-16 00:17:49.38	124.10	86.53	-32.6	-33.5	25.4	0.00e+00	123	28	0	1264582656	38	5865
2026-01-16 00:17:50.39	118.79	86.95	-32.5	-33.4	25.1	0.00e+00	123	28	0	1267728384	38	5814
2026-01-16 00:17:51.40	111.85	87.34	-32.8	-33.6	25.1	0.00e+00	120	28	0	1270874112	38	5986
2026-01-16 00:17:52.41	102.74	87.67	-33.0	-33.9	25.0	0.00e+00	122	28	0	1274019840	38	6155
2026-01-16 00:17:53.42	90.97	87.93	-32.6	-33.4	25.3	0.00e+00	123	28	0	1277165568	38	5833
2026-01-16 00:17:54.43	76.65	88.08	-32.3	-33.1	25.4	0.00e+00	123	28	0	1280311296	38	5625
2026-01-16 00:17:55.43	61.19	88.10	-32.2	-33.0	25.5	0.00e+00	122	28	0	1283457024	38	5553
2026-01-16 00:17:56.44	46.41	87.98	-32.4	-33.3	25.3	0.00e+00	123	28	0	1286602752	38	5726
2026-01-16 00:17:57.45	34.00	87.74	-32.8	-33.7	24.9	0.00e+00	123	28	0	1289748480	38	6030
2026-01-16 00:17:58.46	24.30	87.42	-32.6	-33.5	25.2	0.00e+00	123	28	0	1292894208	38	5873
2026-01-16 00:17:59.47	16.91	87.04	-32.5	-33.4	25.1	0.00e+00	120	28	0	1296039936	38	5802
2026-01-16 00:18:00.48	11.26	86.63	-32.6	-33.4	25.3	0.00e+00	123	28	0	1299185664	38	5846
2026-01-16 00:18:01.49	6.89	86.19	-32.3	-33.1	25.5	0.00e+00	122	28	0	1302331392	38	5628
2026-01-16 00:18:02.49	3.46	85.74	-32.7	-33.5	25.0	0.00e+00	123	28	0	1305477120	38	5903
2026-01-16 00:18:03.50	0.69	85.27	-32.7	-33.5	25.1	0.00e+00	122	28	0	1308622848	38	5908
2026-01-16 00:18:04.51	358.41	84.79	-32.4	-33.3	24.9	0.00e+00	122	28	0	1311768576	38	5733
2026-01-16 00:18:05.52	356.53	84.31	-32.4	-33.3	25.4	0.00e+00	123	28	0	1314914304	38	5745
2026-01-16 00:18:06.53	354.94	83.82	-32.1	-33.0	25.5	0.00e+00	123	28	0	1318060032	38	5549
2026-01-16 00:18:07.54	353.59	83.33	-32.6	-33.4	25.3	0.00e+00	122	28	0	1321205760	38	5849
2026-01-16 00:18:08.55	352.42	82.84	-32.9	-33.8	25.0	0.00e+00	122	28	0	1324351488	38	6067
2026-01-16 00:18:09.56	351.41	82.34	-32.9	-33.8	24.9	0.00e+00	122	28	0	1327497216	38	6065
2026-01-16 00:18:10.57	350.52	81.84	-32.5	-33.4	25.2	0.00e+00	120	28	0	1330642944	38	5819
2026-01-16 00:18:11.58	349.74	81.35	-32.2	-33.1	25.4	0.00e+00	123	28	0	1333788672	38	5604
2026-01-16 00:18:12.59	349.04	80.85	-31.9	-32.7	25.6	0.00e+00	122	28	0	1336934400	38	5400
2026-01-16 00:18:13.60	348.41	80.35	-32.2	-33.1	25.5	0.00e+00	123	28	0	1340080128	38	5602
2026-01-16 00:18:14.60	347.86	79.86	-32.6	-33.4	25.3	0.00e+00	123	28	0	1343225856	38	5845
2026-01-16 00:18:15.62	347.34	79.36	-32.6	-33.5	25.2	0.00e+00	121	28	0	1346371584	38	5888
2026-01-16 00:18:16.63	346.88	78.86	-32.5	-33.3	25.3	0.00e+00	123	28	0	1349517312	38	5784
2026-01-16 00:18:17.64	346.46	78.37	-32.3	-33.2	25.3	0.00e+00	123	28	0	1352663040	38	5710
2026-01-16 00:18:18.65	346.07	77.87	-32.3	-33.2	25.4	0.00e+00	123	28	0	1355808768	38	5675
2026-01-16 00:18:19.66	345.72	77.38	-32.3	-33.2	25.4	0.00e+00	122	28	0	1358954496	38	5679
2026-01-16 00:18:20.67	345.39	76.89	-32.7	-33.6	25.2	0.00e+00	123	28	0	1362100224	38	5935
2026-01-16 00:18:21.68	345.09	76.40	-33.2	-34.1	24.5	0.00e+00	123	28	0	1365245952	38	6339
2026-01-16 00:18:22.69	344.81	75.91	-32.8	-33.7	25.0	0.00e+00	122	28	0	1368391680	38	6013
2026-01-16 00:18:23.70	344.55	75.42	-31.6	-32.5	25.8	0.00e+00	122	28	0	1371537408	36	5862
2026-01-16 00:18:24.71	344.31	74.93	-31.4	-32.2	25.9	0.00e+00	123	28	0	1374683136	36	5715
2026-01-16 00:18:25.72	344.08	74.45	-32.0	-32.8	25.4	0.00e+00	123	28	0	1377828864	36	6124
2026-01-16 00:18:26.73	343.87	73.96	-32.6	-33.5	25.1	0.00e+00	123	28	0	1380974592	36	6598
2026-01-16 00:18:27.74	343.67	73.48	-32.9	-33.8	24.7	0.00e+00	123	28	0	1384120320	38	6093
2026-01-16 00:18:28.75	343.48	73.00	-33.1	-34.1	24.2	0.00e+00	123	28	0	1387266048	38	6284
2026-01-16 00:18:29.75	343.31	72.53	-32.7	-33.7	24.0	0.00e+00	120	28	0	1390411776	38	6005
2026-01-16 00:18:30.76	343.14	72.05	-32.2	-33.0	24.8	0.00e+00	122	28	0	1393557504	38	5594
2026-01-16 00:18:31.77	342.98	71.58	-31.6	-32.4	25.7	0.00e+00	123	28	0	1396703232	36	5857
2026-01-16 00:18:32.78	342.84	71.11	-32.1	-32.9	25.5	0.00e+00	122	28	0	1399848960	36	6203
2026-01-16 00:18:33.79	342.69	70.64	-32.9	-33.8	24.9	0.00e+00	123	28	0	1402994688	38	6096
2026-01-16 00:18:34.80	342.56	70.17	-33.0	-33.9	25.0	0.00e+00	123	28	0	1406140416	38	6177
2026-01-16 00:18:35.81	342.43	69.70	-32.6	-33.5	24.9	0.00e+00	123	28	0	1409286144	38	5867
2026-01-16 00:18:36.82	342.31	69.24	-32.6	-33.5	24.6	0.00e+00	122	28	0	1412431872	38	5902
2026-01-16 00:18:37.83	342.20	68.78	-31.8	-32.7	25.5	0.00e+00	120	28	0	1415577600	38	5374
2026-01-16 00:18:38.84	342.09	68.32	-31.3	-32.1	26.1	0.00e+00	122	28	0	1418723328	36	5646
2026-01-16 00:18:39.85	341.99	67.86	-31.4	-32.2	26.1	0.00e+00	123	28	0	1421869056	36	5660
2026-01-16 00:18:40.86	341.89	67.40	-32.3	-33.2	25.2	0.00e+00	120	28	0	1425014784	36	6361
2026-01-16 00:18:41.87	341.79	66.95	-33.7	-34.7	24.1	0.00e+00	123	28	0	1429209088	38	6731
2026-01-16 00:18:42.88	341.70	66.50	-33.9	-34.9	23.3	0.00e+00	122	28	0	1432354816	40	6174
2026-01-16 00:18:43.89	341.62	66.05	-33.7	-34.7	23.5	0.00e+00	122	28	0	1434451968	40	6009
2026-01-16 00:18:44.89	341.53	65.61	-32.5	-33.4	24.3	0.00e+00	122	28	0	1437597696	38	5812
2026-01-16 00:18:45.91	341.45	65.17	-32.2	-33.0	25.2	0.00e+00	123	28	0	1440743424	38	5581
2026-01-16 00:18:46.92	341.38	64.73	-31.6	-32.4	25.8	0.00e+00	122	28	0	1443889152	36	5813
2026-01-16 00:18:47.92	341.30	64.29	-32.0	-32.8	25.6	0.00e+00	123	28	0	1448083456	36	6129
2026-01-16 00:18:48.94	341.23	63.85	-32.9	-33.8	24.8	0.00e+00	123	28	0	1451229184	38	6075
2026-01-16 00:18:49.94	341.16	63.43	-34.4	-35.4	23.5	0.00e+00	121	28	0	1454374912	40	6556
2026-01-16 00:18:50.95	341.10	63.00	-34.7	-35.8	22.6	0.00e+00	123	28	0	1457520640	42	6107
2026-01-16 00:18:51.96	341.04	62.57	-33.8	-34.8	22.0	0.00e+00	120	28	0	1459617792	42	5465
2026-01-16 00:18:52.97	340.98	62.14	-34.0	-35.0	22.1	0.00e+00	121	28	0	1463812096	40	6258
2026-01-16 00:18:53.98	340.92	61.72	-33.8	-34.7	23.3	0.00e+00	123	28	0	1466957824	40	6049
2026-01-16 00:18:54.99	340.86	61.30	-33.0	-33.8	24.7	0.00e+00	122	28	0	1470103552	40	5463
2026-01-16 00:18:56.00	340.81	60.89	-32.5	-33.3	25.2	0.00e+00	122	28	0	1473249280	38	5780
2026-01-16 00:18:57.01	340.75	60.47	-32.7	-33.6	25.1	0.00e+00	123	28	0	1476395008	38	5937
2026-01-16 00:18:58.02	340.70	60.06	-32.7	-33.6	25.1	0.00e+00	123	28	0	1479540736	38	5934
2026-01-16 00:18:59.03	340.65	59.65	-33.7	-34.6	24.3	0.00e+00	123	28	0	1482686464	38	6708
2026-01-16 00:19:00.03	340.61	59.25	-34.8	-35.8	23.3	0.00e+00	120	28	0	1485832192	40	6859
2026-01-16 00:19:01.05	340.56	58.84	-34.6	-35.7	22.5	0.00e+00	123	28	0	1488977920	42	6020
2026-01-16 00:19:02.06	340.52	58.44	-33.7	-34.7	22.5	0.00e+00	122	28	0	1492123648	42	5379
2026-01-16 00:19:03.07	340.47	58.04	-33.0	-34.0	23.4	0.00e+00	122	28	0	1495269376	40	5548
2026-01-16 00:19:04.08	340.43	57.65	-32.5	-33.4	24.3	0.00e+00	122	28	0	1498415104	38	5838
2026-01-16 00:19:05.08	340.39	57.26	-33.5	-34.4	23.9	0.00e+00	123	28	0	1501560832	38	6542
2026-01-16 00:19:06.09	340.35	56.87	-34.3	-35.2	23.8	0.00e+00	122	28	0	1504706560	40	6394
2026-01-16 00:19:07.10	340.32	56.48	-34.7	-35.7	23.6	0.00e+00	122	28	0	1507852288	40	6771
2026-01-16 00:19:08.11	340.28	56.10	-34.9	-35.9	23.4	0.00e+00	122	28	0	1510998016	42	6171
2026-01-16 00:19:09.12	340.25	55.71	-35.2	-36.2	23.1	0.00e+00	120	28	0	1514143744	42	6409
2026-01-16 00:19:10.13	340.21	55.33	-35.8	-36.9	22.7	0.00e+00	120	28	0	1517289472	42	6889
2026-01-16 00:19:11.14	340.18	54.96	-36.0	-37.1	22.5	0.00e+00	122	28	0	1520435200	44	6319
2026-01-16 00:19:12.15	340.15	54.58	-35.4	-36.4	22.8	0.00e+00	120	28	0	1523580928	44	5839
2026-01-16 00:19:13.16	340.11	54.21	-34.8	-35.8	23.1	0.00e+00	123	28	0	1526726656	42	6086
2026-01-16 00:19:14.17	340.08	53.84	-34.0	-35.0	23.5	0.00e+00	123	28	0	1529872384	42	5570
2026-01-16 00:19:15.18	340.05	53.48	-34.0	-35.0	23.8	0.00e+00	123	28	0	1533018112	42	5547
2026-01-16 00:19:16.19	340.02	53.11	-34.8	-35.7	23.3	0.00e+00	123	28	0	1536163840	42	6061
2026-01-16 00:19:17.20	340.00	52.75	-35.3	-36.3	22.9	0.00e+00	120	28	0	1539309568	42	6456
2026-01-16 00:19:18.20	339.97	52.40	-36.0	-37.0	22.4	0.00e+00	123	28	0	1542455296	44	6258
2026-01-16 00:19:19.21	339.94	52.04	-36.8	-37.9	21.9	0.00e+00	123	28	0	1545601024	44	6926
2026-01-16 00:19:20.22	339.92	51.69	-36.3	-37.4	22.1	0.00e+00	123	28	0	1548746752	46	5830
2026-01-16 00:19:21.23	339.89	51.34	-34.8	-35.8	23.5	0.00e+00	123	28	0	1551892480	44	5420
2026-01-16 00:19:22.24	339.87	50.99	-34.6	-35.5	23.6	0.00e+00	122	28	0	1555038208	42	5898
2026-01-16 00:19:23.25	339.84	50.65	-35.3	-36.3	22.8	0.00e+00	123	28	0	1558183936	42	6476
2026-01-16 00:19:24.26	339.82	50.30	-35.9	-37.1	22.1	0.00e+00	123	28	0	1561329664	44	6304
2026-01-16 00:19:25.27	339.80	49.96	-36.2	-37.3	21.7	0.00e+00	123	28	0	1564475392	44	6481
2026-01-16 00:19:26.28	339.78	49.62	-36.1	-37.3	21.6	0.00e+00	123	28	0	1567621120	44	6458
2026-01-16 00:19:27.28	339.75	49.29	-36.0	-37.1	22.0	0.00e+00	123	28	0	1570766848	44	6344
2026-01-16 00:19:28.29	339.73	48.96	-35.6	-36.6	22.7	0.00e+00	122	28	0	1573912576	44	5984
2026-01-16 00:19:29.30	339.71	48.63	-35.3	-36.3	23.1	0.00e+00	123	28	0	1577058304	44	5742
2026-01-16 00:19:30.31	339.69	48.30	-35.1	-36.1	23.1	0.00e+00	123	28	0	1580204032	44	5655
2026-01-16 00:19:31.32	339.67	47.98	-35.4	-36.5	22.8	0.00e+00	122	28	0	1583349760	44	5859
2026-01-16 00:19:32.33	339.66	47.65	-36.0	-37.1	22.3	0.00e+00	120	28	0	1586495488	44	6328
2026-01-16 00:19:33.34	339.64	47.33	-36.5	-37.7	21.9	0.00e+00	121	28	0	1589641216	44	6790
2026-01-16 00:19:34.35	339.62	47.02	-36.8	-38.0	21.8	0.00e+00	123	28	0	1592786944	46	6215
2026-01-16 00:19:35.36	339.60	46.70	-36.7	-37.9	21.8	0.00e+00	123	28	0	1595932672	46	6180
2026-01-16 00:19:36.37	339.58	46.39	-36.5	-37.6	22.1	0.00e+00	120	28	0	1599078400	46	5950
2026-01-16 00:19:37.38	339.57	46.08	-36.2	-37.3	22.4	0.00e+00	122	28	0	1602224128	46	5736
2026-01-16 00:19:38.39	339.55	45.77	-36.2	-37.2	22.2	0.00e+00	122	28	0	1605369856	46	5707
2026-01-16 00:19:39.40	339.54	45.46	-36.3	-37.4	22.1	0.00e+00	123	28	0	1608515584	46	5809
2026-01-16 00:19:40.40	339.52	45.16	-36.9	-38.0	21.7	0.00e+00	123	28	0	1611661312	46	6254
2026-01-16 00:19:41.41	339.51	44.86	-37.0	-38.1	21.3	0.00e+00	123	28	0	1614807040	46	6333
2026-01-16 00:19:42.42	339.49	44.56	-36.4	-37.5	21.5	0.00e+00	122	28	0	1617952768	46	5913
2026-01-16 00:19:43.43	339.48	44.26	-35.7	-36.8	21.7	0.00e+00	120	28	0	1621098496	46	5444
2026-01-16 00:19:44.44	339.46	43.97	-35.5	-36.6	21.7	0.00e+00	123	28	0	1624244224	44	5939
2026-01-16 00:19:45.45	339.45	43.67	-35.6	-36.7	21.9	0.00e+00	123	28	0	1627389952	44	6005
2026-01-16 00:19:46.46	339.43	43.38	-35.9	-37.0	22.1	0.00e+00	123	28	0	1630535680	44	6230
2026-01-16 00:19:47.47	339.42	43.10	-36.1	-37.2	22.3	0.00e+00	123	28	0	1633681408	44	6357
2026-01-16 00:19:48.48	339.41	42.81	-35.8	-36.9	22.4	0.00e+00	122	28	0	1636827136	44	6162
2026-01-16 00:19:49.49	339.40	42.53	-36.0	-37.0	22.3	0.00e+00	123	28	0	1639972864	44	6276
2026-01-16 00:19:50.50	339.38	42.24	-36.3	-37.5	21.8	0.00e+00	120	28	0	1643118592	44	6577
2026-01-16 00:19:51.51	339.37	41.96	-36.7	-37.9	21.6	0.00e+00	122	28	0	1646264320	44	6894
2026-01-16 00:19:52.52	339.36	41.69	-36.6	-37.8	21.8	0.00e+00	123	28	0	1649410048	44	6810
2026-01-16 00:19:53.53	339.35	41.41	-36.5	-37.6	22.1	0.00e+00	121	28	0	1652555776	44	6688
2026-01-16 00:19:54.54	339.34	41.14	-36.4	-37.5	21.9	0.00e+00	123	28	0	1655701504	44	6622
2026-01-16 00:19:55.55	339.33	40.87	-36.2	-37.3	22.1	0.00e+00	120	28	0	1658847232	44	6448
2026-01-16 00:19:56.56	339.32	40.60	-36.4	-37.4	22.0	0.00e+00	122	28	0	1661992960	44	6558
2026-01-16 00:19:57.56	339.31	40.33	-36.3	-37.3	22.2	0.00e+00	122	28	0	1665138688	44	6495
2026-01-16 00:19:58.57	339.30	40.07	-36.3	-37.4	22.2	0.00e+00	123	28	0	1668284416	44	6512
2026-01-16 00:19:59.58	339.29	39.80	-36.1	-37.1	22.4	0.00e+00	123	28	0	1671430144	44	6345
2026-01-16 00:20:00.59	339.28	39.54	-36.1	-37.1	22.4	0.00e+00	122	28	0	1674575872	44	6319
2026-01-16 00:20:01.60	339.27	39.28	-36.0	-37.0	22.5	0.00e+00	123	28	0	1677721600	44	6220
2026-01-16 00:20:02.61	339.26	39.03	-35.9	-36.9	22.7	0.00e+00	122	28	0	1680867328	44	6178
2026-01-16 00:20:03.62	339.25	38.77	-35.5	-36.5	22.9	0.00e+00	123	28	0	1684013056	44	5900
2026-01-16 00:20:04.63	339.24	38.52	-35.5	-36.5	22.9	0.00e+00	122	28	0	1687158784	44	5863
2026-01-16 00:20:05.64	339.23	38.27	-35.1	-36.0	23.2	0.00e+00	123	28	0	1690304512	44	5575
2026-01-16 00:20:06.64	339.22	38.02	-35.0	-36.0	23.2	0.00e+00	123	28	0	1693450240	44	5560
2026-01-16 00:20:07.65	339.21	37.77	-35.0	-35.9	23.3	0.00e+00	122	28	0	1696595968	44	5525
2026-01-16 00:20:08.66	339.21	37.52	-34.9	-35.9	23.2	0.00e+00	121	28	0	1699741696	44	5503
2026-01-16 00:20:09.67	339.20	37.28	-34.9	-35.9	23.3	0.00e+00	123	28	0	1702887424	44	5488
2026-01-16 00:20:10.68	339.19	37.04	-35.0	-35.9	23.3	0.00e+00	123	28	0	1706033152	44	5527
2026-01-16 00:20:11.69	339.18	36.80	-34.9	-35.9	23.4	0.00e+00	123	28	0	1709178880	44	5472
2026-01-16 00:20:12.70	339.17	36.56	-34.9	-35.8	23.4	0.00e+00	122	28	0	1712324608	44	5462
2026-01-16 00:20:13.71	339.17	36.32	-34.8	-35.8	23.3	0.00e+00	123	28	0	1715470336	44	5407
2026-01-16 00:20:14.72	339.16	36.08	-35.1	-36.1	23.1	0.00e+00	123	28	0	1718616064	44	5599
2026-01-16 00:20:15.73	339.15	35.85	-35.2	-36.2	22.7	0.00e+00	122	28	0	1721761792	44	5676
2026-01-16 00:20:16.74	339.15	35.62	-35.1	-36.2	22.5	0.00e+00	120	28	0	1724907520	44	5672
2026-01-16 00:20:17.75	339.14	35.39	-35.3	-36.3	22.2	0.00e+00	122	28	0	1728053248	44	5761
2026-01-16 00:20:18.76	339.13	35.16	-35.3	-36.4	22.1	0.00e+00	123	28	0	1731198976	44	5799
2026-01-16 00:20:19.77	339.13	34.93	-35.4	-36.4	22.0	0.00e+00	122	28	0	1734344704	44	5847
2026-01-16 00:20:20.78	339.12	34.71	-35.4	-36.5	22.3	0.00e+00	123	28	0	1737490432	44	5879
2026-01-16 00:20:21.79	339.12	34.48	-35.4	-36.4	22.5	0.00e+00	120	28	0	1740636160	44	5849
2026-01-16 00:20:22.79	339.11	34.26	-35.3	-36.3	22.9	0.00e+00	122	28	0	1743781888	44	5764
2026-01-16 00:20:23.80	339.10	34.04	-35.3	-36.3	23.0	0.00e+00	122	28	0	1746927616	44	5753
2026-01-16 00:20:24.81	339.10	33.82	-35.0	-36.0	23.3	0.00e+00	123	28	0	1750073344	44	5535
2026-01-16 00:20:25.82	339.09	33.61	-34.6	-35.5	23.8	0.00e+00	124	28	0	1753219072	42	5913
2026-01-16 00:20:26.83	339.09	33.39	-34.5	-35.5	23.8	0.00e+00	122	28	0	1756364800	42	5862
2026-01-16 00:20:27.84	339.08	33.17	-34.3	-35.2	24.0	0.00e+00	123	28	0	1759510528	42	5692
2026-01-16 00:20:28.85	339.08	32.96	-34.1	-35.0	24.1	0.00e+00	122	28	0	1762656256	42	5551
2026-01-16 00:20:29.86	339.07	32.75	-34.1	-35.0	24.1	0.00e+00	122	28	0	1765801984	42	5562
2026-01-16 00:20:30.87	339.07	32.54	-33.8	-34.7	24.4	0.00e+00	122	28	0	1768947712	42	5348
2026-01-16 00:20:31.88	339.06	32.33	-33.8	-34.7	24.4	0.00e+00	122	28	0	1772093440	40	6006
2026-01-16 00:20:32.89	339.06	32.12	-33.6	-34.5	24.5	0.00e+00	123	28	0	1775239168	40	5865
2026-01-16 00:20:33.90	339.05	31.92	-33.7	-34.6	24.4	0.00e+00	122	28	0	1778384896	40	5928
2026-01-16 00:20:34.91	339.05	31.71	-33.8	-34.7	24.2	0.00e+00	123	28	0	1781530624	40	6046
2026-01-16 00:20:35.92	339.04	31.51	-33.9	-34.8	24.3	0.00e+00	120	28	0	1784676352	40	6116
2026-01-16 00:20:36.93	339.04	31.31	-34.0	-34.9	24.1	0.00e+00	122	28	0	1787822080	40	6205
2026-01-16 00:20:37.94	339.04	31.11	-34.2	-35.1	24.0	0.00e+00	122	28	0	1790967808	40	6339
2026-01-16 00:20:38.95	339.03	30.91	-34.2	-35.1	24.0	0.00e+00	121	28	0	1794113536	40	6308
2026-01-16 00:20:39.96	339.03	30.71	-34.2	-35.2	23.9	0.00e+00	122	28	0	1797259264	40	6368
2026-01-16 00:20:40.96	339.02	30.52	-34.4	-35.4	23.8	0.00e+00	120	28	0	1800404992	40	6511
2026-01-16 00:20:41.97	339.02	30.33	-34.4	-35.3	23.8	0.00e+00	123	28	0	1803550720	40	6456
2026-01-16 00:20:42.98	339.02	30.13	-34.4	-35.3	23.8	0.00e+00	122	28	0	1806696448	40	6457
2026-01-16 00:20:43.99	339.01	29.94	-34.2	-35.2	23.8	0.00e+00	123	28	0	1809842176	40	6366
2026-01-16 00:20:45.00	339.01	29.75	-34.4	-35.4	23.6	0.00e+00	120	28	0	1812987904	40	6520
2026-01-16 00:20:46.01	339.01	29.56	-34.2	-35.1	23.7	0.00e+00	122	28	0	1816133632	40	6313
2026-01-16 00:20:47.02	339.00	29.37	-34.4	-35.3	23.5	0.00e+00	120	28	0	1820327936	40	6479
2026-01-16 00:20:48.03	339.00	29.18	-34.1	-35.1	23.6	0.00e+00	123	28	0	1822425088	40	6283
2026-01-16 00:20:49.04	339.00	29.00	-34.2	-35.2	23.6	0.00e+00	120	28	0	1825570816	40	6366
2026-01-16 00:20:50.05	338.99	28.81	-34.1	-35.1	23.6	0.00e+00	123	28	0	1828716544	40	6299
2026-01-16 00:20:51.05	338.99	28.63	-34.0	-35.0	23.7	0.00e+00	123	28	0	1831862272	40	6213
2026-01-16 00:20:52.06	338.99	28.45	-34.0	-34.9	23.9	0.00e+00	123	28	0	1835008000	40	6162
2026-01-16 00:20:53.07	338.98	28.27	-33.6	-34.6	24.0	0.00e+00	123	28	0	1839202304	40	5936
2026-01-16 00:20:54.08	338.98	28.09	-33.6	-34.5	24.0	0.00e+00	123	28	0	1842348032	40	5910
2026-01-16 00:20:55.09	338.98	27.91	-33.6	-34.5	24.0	0.00e+00	122	28	0	1844445184	40	5877
2026-01-16 00:20:56.10	338.98	27.73	-33.3	-34.2	24.2	0.00e+00	120	28	0	1847590912	40	5705
2026-01-16 00:20:57.11	338.97	27.56	-33.4	-34.4	24.1	0.00e+00	123	28	0	1850736640	40	5801
2026-01-16 00:20:58.12	338.97	27.38	-33.3	-34.2	24.3	0.00e+00	123	28	0	1854930944	40	5684
2026-01-16 00:20:59.13	338.97	27.21	-33.4	-34.3	24.2	0.00e+00	123	28	0	1858076672	40	5790
2026-01-16 00:21:00.14	338.97	27.03	-33.2	-34.1	24.4	0.00e+00	121	28	0	1861222400	40	5654
2026-01-16 00:21:01.15	338.96	26.86	-33.3	-34.3	24.4	0.00e+00	122	28	0	1864368128	40	5730
2026-01-16 00:21:02.16	338.96	26.69	-33.0	-33.9	24.7	0.00e+00	123	28	0	1867513856	40	5502
2026-01-16 00:21:03.17	338.96	26.52	-32.8	-33.7	24.8	0.00e+00	123	28	0	1869611008	40	5367
2026-01-16 00:21:04.17	338.96	26.35	-32.9	-33.8	24.7	0.00e+00	123	28	0	1873805312	40	5431
2026-01-16 00:21:05.18	338.96	26.19	-32.8	-33.7	24.9	0.00e+00	122	28	0	1876951040	40	5390
2026-01-16 00:21:06.19	338.95	26.02	-32.8	-33.7	24.9	0.00e+00	122	28	0	1880096768	40	5361
2026-01-16 00:21:07.20	338.95	25.85	-33.0	-33.9	24.7	0.00e+00	123	28	0	1883242496	40	5469
2026-01-16 00:21:08.21	338.95	25.69	-32.7	-33.5	25.0	0.00e+00	123	28	0	1886388224	38	5926
2026-01-16 00:21:09.22	338.95	25.53	-32.8	-33.7	24.9	0.00e+00	122	28	0	1889533952	38	6039
2026-01-16 00:21:10.23	338.95	25.36	-32.7	-33.6	25.1	0.00e+00	122	28	0	1892679680	38	5927
2026-01-16 00:21:11.23	338.95	25.20	-32.7	-33.6	25.0	0.00e+00	123	28	0	1895825408	38	5949
2026-01-16 00:21:12.24	338.94	25.04	-32.7	-33.5	25.1	0.00e+00	122	28	0	1898971136	38	5909
2026-01-16 00:21:13.25	338.94	24.88	-32.6	-33.5	25.1	0.00e+00	122	28	0	1902116864	38	5866
2026-01-16 00:21:14.26	338.94	24.73	-32.6	-33.4	25.2	0.00e+00	120	27	0	1905262592	38	5855
2026-01-16 00:21:15.27	338.94	24.57	-32.5	-33.4	25.2	0.00e+00	123	27	0	1908408320	38	5823
2026-01-16 00:21:16.27	338.94	24.41	-32.7	-33.6	25.0	0.00e+00	120	28	0	1911554048	38	5953
2026-01-16 00:21:17.28	338.94	24.26	-32.7	-33.6	25.1	0.00e+00	122	28	0	1914699776	38	5965
2026-01-16 00:21:18.29	338.94	24.10	-32.7	-33.6	25.0	0.00e+00	123	28	0	1917845504	38	5942
2026-01-16 00:21:19.30	338.93	23.95	-32.7	-33.5	25.1	0.00e+00	122	28	0	1920991232	38	5918
2026-01-16 00:21:20.31	338.93	23.79	-32.8	-33.7	25.0	0.00e+00	122	27	0	1924136960	38	6000
2026-01-16 00:21:21.32	338.93	23.64	-32.9	-33.8	24.9	0.00e+00	122	28	0	1927282688	38	6082
2026-01-16 00:21:22.33	338.93	23.49	-33.0	-33.9	24.9	0.00e+00	122	28	0	1930428416	38	6160
2026-01-16 00:21:23.34	338.93	23.34	-33.1	-34.0	24.7	0.00e+00	123	28	0	1933574144	38	6265
2026-01-16 00:21:24.35	338.93	23.19	-33.2	-34.1	24.7	0.00e+00	120	28	0	1936719872	38	6315
2026-01-16 00:21:25.36	338.93	23.04	-33.3	-34.2	24.6	0.00e+00	120	27	0	1939865600	38	6405
2026-01-16 00:21:26.36	338.93	22.90	-33.5	-34.4	24.5	0.00e+00	123	28	0	1943011328	38	6570
2026-01-16 00:21:27.37	338.93	22.75	-33.4	-34.3	24.5	0.00e+00	122	28	0	1946157056	38	6478
2026-01-16 00:21:28.38	338.93	22.60	-33.4	-34.3	24.5	0.00e+00	122	28	0	1949302784	38	6476
