passes_logs/2026/01/29/PlanumMoscow/PlanumMoscow__20260129_013406_METEOR-M2_4_rec.log

#Pass ID: 20260129_013406_METEOR-M2 4
#Satellite: METEOR-M2 4
#Configuration: METEOR-M2 4
#Start time: 2026-01-29 01:34:11.396502

#LorettStation: 1.0.0 05.05.2024
#Station: PlanumMoscow
#Location: 37.6253844 lon 55.6713361 lat
#TLE: 1 59051U 24039A   25293.94737965  .00000087  00000+0  58459-4 0  9998
#TLE: 2 59051  98.6671 251.7071 0007726 135.4772 224.7028 14.22388966 85257

#Time	Az	El	Level	SNR
2026-01-29 01:37:49.822511	359.8	28.0	-51.9	0.0
2026-01-29 01:37:50.945270	359.7	28.2	-52.2	0.0
2026-01-29 01:37:52.067027	359.5	28.3	-52.0	0.0
2026-01-29 01:37:53.189785	359.4	28.5	-52.1	0.0
2026-01-29 01:37:54.312048	359.2	28.7	-52.3	0.0
2026-01-29 01:37:55.438816	359.1	28.9	-52.4	0.0
2026-01-29 01:37:56.560078	358.9	29.1	-52.6	0.0
2026-01-29 01:37:57.681341	358.8	29.3	-52.8	0.0
2026-01-29 01:37:58.803099	358.6	29.5	-52.9	0.0
2026-01-29 01:37:59.925353	358.4	29.7	-52.7	0.0
2026-01-29 01:38:01.046120	358.3	29.9	-52.6	0.0
2026-01-29 01:38:02.168374	358.1	30.1	-52.6	0.0
2026-01-29 01:38:03.291650	357.9	30.2	-52.6	0.0
2026-01-29 01:38:04.413890	357.8	30.4	-52.7	0.0
2026-01-29 01:38:05.536144	357.6	30.6	-52.5	0.0
2026-01-29 01:38:06.657901	357.4	30.8	-52.8	0.0
2026-01-29 01:38:07.779667	357.2	31.0	-52.7	0.0
2026-01-29 01:38:08.901921	357.1	31.2	-52.7	0.0
2026-01-29 01:38:10.024174	356.9	31.4	-52.9	0.0
2026-01-29 01:38:11.148428	356.7	31.6	-52.9	0.0
2026-01-29 01:38:12.271208	356.5	31.9	-52.8	0.0
2026-01-29 01:38:13.393954	356.3	32.1	-52.7	0.0
2026-01-29 01:38:14.515712	356.1	32.3	-52.7	0.0
2026-01-29 01:38:15.637974	355.9	32.5	-52.7	0.0
2026-01-29 01:38:16.759732	355.7	32.7	-52.6	0.0
2026-01-29 01:38:17.881986	355.5	32.9	-52.8	0.0
2026-01-29 01:38:19.006248	355.3	33.1	-53.2	0.0
2026-01-29 01:38:20.127511	355.1	33.3	-53.5	0.0
2026-01-29 01:38:21.249765	354.9	33.5	-53.4	0.0
2026-01-29 01:38:22.371523	354.7	33.7	-53.6	0.0
2026-01-29 01:38:23.493280	354.5	33.9	-53.6	0.0
2026-01-29 01:38:24.615534	354.3	34.2	-53.7	0.0
2026-01-29 01:38:25.737787	354.1	34.4	-53.6	0.0
2026-01-29 01:38:26.859545	353.9	34.6	-53.5	0.0
2026-01-29 01:38:27.983808	353.6	34.8	-53.6	0.0
2026-01-29 01:38:29.106061	353.4	35.0	-53.7	0.0
2026-01-29 01:38:30.228315	353.2	35.3	-53.9	0.0
2026-01-29 01:38:31.349084	352.9	35.5	-53.8	0.0
2026-01-29 01:38:32.471337	352.7	35.7	-53.8	0.0
2026-01-29 01:38:33.593095	352.5	35.9	-53.8	0.0
2026-01-29 01:38:34.715348	352.2	36.1	-54.1	0.0
2026-01-29 01:38:35.836611	352.0	36.4	-54.4	0.0
2026-01-29 01:38:36.958865	351.7	36.6	-54.7	0.0
2026-01-29 01:38:38.080127	351.5	36.8	-54.9	0.0
2026-01-29 01:38:39.201885	351.2	37.1	-54.8	0.0
2026-01-29 01:38:40.324138	351.0	37.3	-54.8	0.0
2026-01-29 01:38:41.446392	350.7	37.5	-54.7	0.0
2026-01-29 01:38:42.568654	350.4	37.7	-54.7	0.0
2026-01-29 01:38:43.689916	350.1	38.0	-54.8	0.0
2026-01-29 01:38:44.811179	349.9	38.2	-54.9	0.0
2026-01-29 01:38:45.932441	349.6	38.4	-55.0	0.0
2026-01-29 01:38:47.054695	349.3	38.7	-55.1	0.0
2026-01-29 01:38:48.176453	349.0	38.9	-55.4	0.0
2026-01-29 01:38:49.298211	348.7	39.2	-55.5	0.0
2026-01-29 01:38:50.420464	348.4	39.4	-55.6	0.0
2026-01-29 01:38:51.542222	348.1	39.6	-55.4	0.0
2026-01-29 01:38:52.663483	347.8	39.9	-55.5	0.0
2026-01-29 01:38:53.785242	347.5	40.1	-55.8	0.0
2026-01-29 01:38:54.906999	347.2	40.3	-55.9	0.0
2026-01-29 01:38:56.028758	346.9	40.6	-56.1	0.0
2026-01-29 01:38:57.151011	346.5	40.8	-56.2	0.0
2026-01-29 01:38:58.272769	346.2	41.1	-56.5	0.0
2026-01-29 01:38:59.394527	345.9	41.3	-56.4	0.0
2026-01-29 01:39:00.515788	345.5	41.6	-56.3	0.0
2026-01-29 01:39:01.637051	345.2	41.8	-56.5	0.0
2026-01-29 01:39:02.758809	344.8	42.0	-56.5	0.0
2026-01-29 01:39:03.880567	344.5	42.3	-56.6	0.3
2026-01-29 01:39:05.002820	344.1	42.5	-56.7	0.3
2026-01-29 01:39:06.125073	343.8	42.8	-56.7	0.0
2026-01-29 01:39:07.247832	343.4	43.0	-56.9	0.0
2026-01-29 01:39:08.369589	343.0	43.3	-57.1	0.1
2026-01-29 01:39:09.496348	342.6	43.5	-57.1	0.0
2026-01-29 01:39:10.618116	342.2	43.8	-57.2	1.2
2026-01-29 01:39:11.739873	341.8	44.0	-57.3	0.7
2026-01-29 01:39:12.861631	341.4	44.2	-57.3	1.1
2026-01-29 01:39:13.982894	341.0	44.5	-57.3	1.2
2026-01-29 01:39:15.103661	340.6	44.7	-57.3	0.7
2026-01-29 01:39:16.224444	340.2	45.0	-57.4	0.9
2026-01-29 01:39:17.349698	339.7	45.2	-57.7	0.3
2026-01-29 01:39:18.471456	339.3	45.5	-58.1	1.3
2026-01-29 01:39:19.593215	338.9	45.7	-58.2	0.7
2026-01-29 01:39:20.715468	338.4	46.0	-58.3	2.0
2026-01-29 01:39:21.836730	338.0	46.2	-58.5	1.1
2026-01-29 01:39:22.958501	337.5	46.4	-58.6	1.4
2026-01-29 01:39:24.080259	337.0	46.7	-58.6	1.1
2026-01-29 01:39:25.203522	336.5	46.9	-58.5	1.8
2026-01-29 01:39:26.324784	336.1	47.2	-58.6	2.0
2026-01-29 01:39:27.447038	335.6	47.4	-58.7	2.0
2026-01-29 01:39:28.569291	335.1	47.7	-58.7	2.1
2026-01-29 01:39:29.691049	334.5	47.9	-59.1	2.0
2026-01-29 01:39:30.813303	334.0	48.1	-58.8	2.4
2026-01-29 01:39:31.935060	333.5	48.4	-59.0	1.5
2026-01-29 01:39:33.061819	333.0	48.6	-59.1	2.4
2026-01-29 01:39:34.184072	332.4	48.8	-59.4	2.4
2026-01-29 01:39:35.306335	331.9	49.1	-59.7	2.9
2026-01-29 01:39:36.428589	331.3	49.3	-59.9	2.9
2026-01-29 01:39:37.549355	330.8	49.5	-59.9	3.2
2026-01-29 01:39:38.671609	330.2	49.7	-59.9	2.9
2026-01-29 01:39:39.793862	329.6	50.0	-59.8	3.1
2026-01-29 01:39:40.915620	329.0	50.2	-59.6	2.8
2026-01-29 01:39:42.036883	328.4	50.4	-59.7	2.8
2026-01-29 01:39:43.158642	327.8	50.6	-59.9	2.7
2026-01-29 01:39:44.279912	327.2	50.8	-59.9	2.6
2026-01-29 01:39:45.401671	326.5	51.0	-59.8	2.7
2026-01-29 01:39:46.523429	325.9	51.2	-60.1	2.5
2026-01-29 01:39:47.645682	325.3	51.5	-60.2	2.2
2026-01-29 01:39:48.769955	324.6	51.7	-60.1	2.5
2026-01-29 01:39:49.893209	323.9	51.9	-60.1	2.6
2026-01-29 01:39:51.015462	323.3	52.1	-60.0	3.2
2026-01-29 01:39:52.137221	322.6	52.2	-60.0	2.7
2026-01-29 01:39:53.258483	321.9	52.4	-60.1	2.6
2026-01-29 01:39:54.380746	321.2	52.6	-60.3	2.1
2026-01-29 01:39:55.502999	320.5	52.8	-60.3	2.1
2026-01-29 01:39:56.624262	319.8	53.0	-60.4	2.3
2026-01-29 01:39:57.746020	319.0	53.2	-60.2	2.5
2026-01-29 01:39:58.867778	318.3	53.3	-60.1	2.5
2026-01-29 01:39:59.989536	317.6	53.5	-60.1	1.7
2026-01-29 01:40:01.111789	316.8	53.6	-60.0	2.1
2026-01-29 01:40:02.233051	316.0	53.8	-59.9	2.1
2026-01-29 01:40:03.354809	315.3	54.0	-59.9	2.2
2026-01-29 01:40:04.477076	314.5	54.1	-60.0	0.9
2026-01-29 01:40:05.601834	313.7	54.2	-59.9	1.8
2026-01-29 01:40:06.722601	312.9	54.4	-59.9	1.6
2026-01-29 01:40:07.843877	312.1	54.5	-60.0	1.4
2026-01-29 01:40:08.965130	311.3	54.6	-59.9	1.1
2026-01-29 01:40:10.086888	310.5	54.8	-59.9	0.5
2026-01-29 01:40:11.210141	309.7	54.9	-59.8	0.6
2026-01-29 01:40:12.332395	308.8	55.0	-59.8	1.2
2026-01-29 01:40:13.454648	308.0	55.1	-59.7	0.8
2026-01-29 01:40:14.576406	307.2	55.2	-59.6	0.2
2026-01-29 01:40:15.698669	306.3	55.3	-59.6	0.6
2026-01-29 01:40:16.820427	305.5	55.4	-59.9	0.0
2026-01-29 01:40:17.942184	304.6	55.4	-60.0	0.0
2026-01-29 01:40:19.063942	303.8	55.5	-60.0	0.0
2026-01-29 01:40:20.186700	302.9	55.6	-60.1	0.0
2026-01-29 01:40:21.308458	302.0	55.6	-60.0	0.1
2026-01-29 01:40:22.430216	301.2	55.7	-60.1	0.0
2026-01-29 01:40:23.551973	300.3	55.8	-59.9	0.0
2026-01-29 01:40:24.674227	299.4	55.8	-59.9	0.1
2026-01-29 01:40:25.796997	298.5	55.8	-59.8	0.6
2026-01-29 01:40:26.917764	297.6	55.9	-59.8	0.6
2026-01-29 01:40:28.039026	296.7	55.9	-59.9	0.0
2026-01-29 01:40:29.164785	295.9	55.9	-59.9	0.0
2026-01-29 01:40:30.286543	295.0	55.9	-59.8	0.0
2026-01-29 01:40:31.408305	294.1	55.9	-59.9	0.0
2026-01-29 01:40:32.530559	293.2	55.9	-60.1	0.0
2026-01-29 01:40:33.652812	292.3	55.9	-60.3	0.0
2026-01-29 01:40:34.775065	291.4	55.9	-60.6	0.0
2026-01-29 01:40:35.897824	290.5	55.8	-60.9	0.0
2026-01-29 01:40:37.019096	289.7	55.8	-60.7	0.0
2026-01-29 01:40:38.141349	288.8	55.8	-60.7	0.0
2026-01-29 01:40:39.263108	287.9	55.7	-60.7	0.0
2026-01-29 01:40:40.384370	287.0	55.7	-60.4	0.0
2026-01-29 01:40:41.505137	286.1	55.6	-60.6	0.0
2026-01-29 01:40:42.625903	285.3	55.5	-60.5	0.0
2026-01-29 01:40:43.747661	284.4	55.5	-60.6	0.0
2026-01-29 01:40:44.869420	283.6	55.4	-60.6	0.0
2026-01-29 01:40:45.991672	282.7	55.3	-60.8	0.0
2026-01-29 01:40:47.113925	281.9	55.2	-61.0	0.0
2026-01-29 01:40:48.236179	281.0	55.1	-60.7	0.0
2026-01-29 01:40:49.357441	280.2	55.0	-60.7	0.0
2026-01-29 01:40:50.478702	279.3	54.9	-60.8	0.8
2026-01-29 01:40:51.600460	278.5	54.8	-60.9	0.3
2026-01-29 01:40:52.722245	277.7	54.7	-61.1	0.6
2026-01-29 01:40:53.844480	276.9	54.6	-61.4	0.0
2026-01-29 01:40:54.966734	276.1	54.4	-61.5	0.4
2026-01-29 01:40:56.088987	275.3	54.3	-61.8	0.0
2026-01-29 01:40:57.210745	274.5	54.2	-61.6	0.0
2026-01-29 01:40:58.332998	273.7	54.0	-61.6	0.0
2026-01-29 01:40:59.454755	272.9	53.9	-61.7	0.1
2026-01-29 01:41:00.575031	272.2	53.7	-61.9	0.0
2026-01-29 01:41:01.697285	271.4	53.5	-62.1	0.0
2026-01-29 01:41:02.818547	270.7	53.4	-62.1	0.8
2026-01-29 01:41:03.939809	269.9	53.2	-62.3	0.9
2026-01-29 01:41:05.059574	269.2	53.0	-62.3	1.8
2026-01-29 01:41:06.180836	268.5	52.9	-62.2	2.1
2026-01-29 01:41:07.303089	267.8	52.7	-62.2	2.9
2026-01-29 01:41:08.424359	267.1	52.5	-62.3	4.0
2026-01-29 01:41:09.546117	266.4	52.3	-62.4	3.8
2026-01-29 01:41:10.668370	265.7	52.1	-62.3	3.5
2026-01-29 01:41:11.788137	265.0	51.9	-62.1	3.2
2026-01-29 01:41:12.910390	264.3	51.7	-62.3	4.3
2026-01-29 01:41:14.031148	263.7	51.5	-62.3	4.8
2026-01-29 01:41:15.153401	263.0	51.3	-62.5	4.3
2026-01-29 01:41:16.275159	262.4	51.1	-62.6	4.4
2026-01-29 01:41:17.397412	261.7	50.9	-62.5	4.0
2026-01-29 01:41:18.518673	261.1	50.7	-62.9	3.2
2026-01-29 01:41:19.640927	260.5	50.5	-63.1	2.3
2026-01-29 01:41:20.762685	259.9	50.2	-63.2	2.6
2026-01-29 01:41:21.884442	259.3	50.0	-63.2	2.7
2026-01-29 01:41:23.006200	258.7	49.8	-62.9	3.0
2026-01-29 01:41:24.133455	258.1	49.6	-62.9	3.3
2026-01-29 01:41:25.255212	257.6	49.3	-62.3	2.7
2026-01-29 01:41:26.376969	257.0	49.1	-63.0	3.2
2026-01-29 01:41:27.499222	256.4	48.9	-63.1	3.7
2026-01-29 01:41:28.620485	255.9	48.7	-63.1	3.4
2026-01-29 01:41:29.742243	255.3	48.4	-62.7	3.8
2026-01-29 01:41:30.863506	254.8	48.2	-62.9	4.5
2026-01-29 01:41:31.985759	254.3	47.9	-63.0	4.3
2026-01-29 01:41:33.108012	253.8	47.7	-62.7	4.7
2026-01-29 01:41:34.229275	253.3	47.5	-63.1	6.1
2026-01-29 01:41:35.351032	252.8	47.2	-63.0	5.7
2026-01-29 01:41:36.473286	252.3	47.0	-63.6	5.6
2026-01-29 01:41:37.595539	251.8	46.7	-63.2	5.2
2026-01-29 01:41:38.722298	251.3	46.5	-63.4	5.9
2026-01-29 01:41:39.844560	250.9	46.3	-63.2	5.3
2026-01-29 01:41:40.966813	250.4	46.0	-63.4	6.0
2026-01-29 01:41:42.088076	249.9	45.8	-63.3	6.7
2026-01-29 01:41:43.207841	249.5	45.5	-63.8	6.8
2026-01-29 01:41:44.330095	249.1	45.3	-63.3	5.9
2026-01-29 01:41:45.451357	248.6	45.0	-63.5	6.4
2026-01-29 01:41:46.572115	248.2	44.8	-63.5	6.5
2026-01-29 01:41:47.693378	247.8	44.5	-63.8	7.0
2026-01-29 01:41:48.814144	247.4	44.3	-64.3	7.0
2026-01-29 01:41:49.935406	247.0	44.0	-63.7	6.7
2026-01-29 01:41:51.057164	246.5	43.8	-64.2	7.3
2026-01-29 01:41:52.179417	246.2	43.5	-64.1	7.7
2026-01-29 01:41:53.302671	245.8	43.3	-62.0	5.2
2026-01-29 01:41:54.426429	245.4	43.1	-63.8	7.9
2026-01-29 01:41:55.548682	245.0	42.8	-64.2	8.3
2026-01-29 01:41:56.669458	244.6	42.6	-63.7	7.2
2026-01-29 01:41:57.791711	244.3	42.3	-64.0	7.6
2026-01-29 01:41:58.913479	243.9	42.1	-63.9	6.9
2026-01-29 01:42:00.035733	243.6	41.8	-63.3	7.7
2026-01-29 01:42:01.158491	243.2	41.6	-63.8	8.7
2026-01-29 01:42:02.280249	242.9	41.3	-64.5	7.4
2026-01-29 01:42:03.402503	242.5	41.1	-63.6	7.2
2026-01-29 01:42:04.524756	242.2	40.8	-63.9	7.9
2026-01-29 01:42:05.647009	241.9	40.6	-64.4	8.0
2026-01-29 01:42:06.768768	241.5	40.4	-64.1	9.6
2026-01-29 01:42:07.890526	241.2	40.1	-65.0	9.9
2026-01-29 01:42:09.011789	240.9	39.9	-65.2	9.8
2026-01-29 01:42:10.139556	240.6	39.6	-65.5	9.9
2026-01-29 01:42:11.261313	240.3	39.4	-65.7	10.1
2026-01-29 01:42:12.381576	240.0	39.2	-64.7	10.9
2026-01-29 01:42:13.503829	239.7	38.9	-65.8	9.7
2026-01-29 01:42:14.626082	239.4	38.7	-65.7	9.3
2026-01-29 01:42:15.746848	239.1	38.4	-65.9	10.1
2026-01-29 01:42:16.868109	238.8	38.2	-66.3	9.4
2026-01-29 01:42:17.988876	238.5	38.0	-64.5	7.2
2026-01-29 01:42:19.110634	238.3	37.7	-65.7	9.1
2026-01-29 01:42:20.232392	238.0	37.5	-65.1	9.2
2026-01-29 01:42:21.354150	237.7	37.3	-63.0	10.2
2026-01-29 01:42:22.475907	237.5	37.0	-65.5	10.8
2026-01-29 01:42:23.597665	237.2	36.8	-65.8	11.1
2026-01-29 01:42:24.720423	237.0	36.6	-65.2	10.3
2026-01-29 01:42:25.846184	236.7	36.4	-65.9	11.5
2026-01-29 01:42:26.968435	236.5	36.1	-63.4	7.5
2026-01-29 01:42:28.090193	236.2	35.9	-63.2	8.4
2026-01-29 01:42:29.212446	236.0	35.7	-63.7	8.0
2026-01-29 01:42:30.334204	235.7	35.5	-64.3	10.3
2026-01-29 01:42:31.454972	235.5	35.2	-65.0	11.3
2026-01-29 01:42:32.577226	235.3	35.0	-64.9	12.0
2026-01-29 01:42:33.697983	235.0	34.8	-64.7	12.1
2026-01-29 01:42:34.819741	234.8	34.6	-65.1	11.6
2026-01-29 01:42:35.940507	234.6	34.3	-64.1	10.5
2026-01-29 01:42:37.061760	234.4	34.1	-65.2	11.0
2026-01-29 01:42:38.184013	234.1	33.9	-65.7	12.6
2026-01-29 01:42:39.305267	233.9	33.7	-65.3	12.7
2026-01-29 01:42:40.427024	233.7	33.5	-65.1	11.2
2026-01-29 01:42:41.549278	233.5	33.3	-64.7	10.6
2026-01-29 01:42:42.670037	233.3	33.1	-65.0	10.5
2026-01-29 01:42:43.792290	233.1	32.8	-65.2	12.1
2026-01-29 01:42:44.912553	232.9	32.6	-65.9	11.3
2026-01-29 01:42:46.034311	232.7	32.4	-66.1	12.9
2026-01-29 01:42:47.156069	232.5	32.2	-66.1	12.4
2026-01-29 01:42:48.277826	232.3	32.0	-64.4	9.4
2026-01-29 01:42:49.399088	232.1	31.8	-64.9	11.4
2026-01-29 01:42:50.520846	231.9	31.6	-65.2	12.5
2026-01-29 01:42:51.642602	231.8	31.4	-65.4	12.4
2026-01-29 01:42:52.763361	231.6	31.2	-65.0	12.0
2026-01-29 01:42:53.885614	231.4	31.0	-65.0	12.7
2026-01-29 01:42:55.006876	231.2	30.8	-64.5	10.4
2026-01-29 01:42:56.128634	231.0	30.6	-64.0	10.0
2026-01-29 01:42:57.249896	230.9	30.4	-63.9	9.7
2026-01-29 01:42:58.371158	230.7	30.2	-64.9	11.9
2026-01-29 01:42:59.493411	230.5	30.0	-65.0	11.5
2026-01-29 01:43:00.615170	230.4	29.8	-64.5	11.3
2026-01-29 01:43:01.737423	230.2	29.6	-64.5	8.5
2026-01-29 01:43:02.859676	230.0	29.4	-64.1	10.0
2026-01-29 01:43:03.981434	229.9	29.2	-65.3	11.6
2026-01-29 01:43:05.107697	229.7	29.0	-65.1	10.6
2026-01-29 01:43:06.230951	229.5	28.8	-65.1	9.8
2026-01-29 01:43:07.353214	229.4	28.6	-65.2	11.7
2026-01-29 01:43:08.473467	229.2	28.4	-64.6	10.4
2026-01-29 01:43:09.595225	229.1	28.3	-65.0	11.5
2026-01-29 01:43:10.717478	228.9	28.1	-64.7	11.2
2026-01-29 01:43:11.838740	228.8	27.9	-64.8	10.9
2026-01-29 01:43:12.960499	228.6	27.7	-64.0	10.5
2026-01-29 01:43:14.080752	228.5	27.5	-65.1	11.4
2026-01-29 01:43:15.202015	228.4	27.3	-63.3	8.3
2026-01-29 01:43:16.323268	228.2	27.2	-65.0	11.4
2026-01-29 01:43:17.445521	228.1	27.0	-64.6	10.7
2026-01-29 01:43:18.567774	227.9	26.8	-64.2	9.9
2026-01-29 01:43:19.689532	227.8	26.6	-64.6	9.3
2026-01-29 01:43:20.813290	227.7	26.4	-64.1	10.3
2026-01-29 01:43:21.935553	227.5	26.3	-64.6	10.0
2026-01-29 01:43:23.057807	227.4	26.1	-64.6	10.1
2026-01-29 01:43:24.179564	227.3	25.9	-63.4	9.1
2026-01-29 01:43:25.300826	227.1	25.7	-63.7	10.1
2026-01-29 01:43:26.420593	227.0	25.6	-64.2	10.0
2026-01-29 01:43:27.542351	226.9	25.4	-63.9	10.0
2026-01-29 01:43:28.664110	226.8	25.2	-63.8	9.7
2026-01-29 01:43:29.785868	226.6	25.1	-64.0	9.8
2026-01-29 01:43:30.907626	226.5	24.9	-64.0	9.3
2026-01-29 01:43:32.028888	226.4	24.7	-63.8	9.1
2026-01-29 01:43:33.149645	226.3	24.6	-63.9	9.3
2026-01-29 01:43:34.271404	226.1	24.4	-64.1	9.3
2026-01-29 01:43:35.391168	226.0	24.2	-63.5	8.9
2026-01-29 01:43:36.512430	225.9	24.1	-64.4	10.6
2026-01-29 01:43:37.634683	225.8	23.9	-64.2	10.2
2026-01-29 01:43:38.755945	225.7	23.7	-63.2	7.7
2026-01-29 01:43:39.877703	225.6	23.6	-63.9	9.9
2026-01-29 01:43:40.998460	225.5	23.4	-63.8	7.8
2026-01-29 01:43:42.118731	225.4	23.3	-63.8	8.7
2026-01-29 01:43:43.239992	225.2	23.1	-64.2	10.0
2026-01-29 01:43:44.362246	225.1	22.9	-64.6	10.1
2026-01-29 01:43:45.483003	225.0	22.8	-64.6	10.0
2026-01-29 01:43:46.604257	224.9	22.6	-64.7	9.8
2026-01-29 01:43:47.725510	224.8	22.5	-64.4	10.0
2026-01-29 01:43:48.846763	224.7	22.3	-64.2	9.9
2026-01-29 01:43:49.968016	224.6	22.2	-63.6	8.3
2026-01-29 01:43:51.090269	224.5	22.0	-64.4	9.9
2026-01-29 01:43:52.214028	224.4	21.9	-64.3	10.3
2026-01-29 01:43:53.335281	224.3	21.7	-64.6	10.1
2026-01-29 01:43:54.458543	224.2	21.6	-64.9	11.2
2026-01-29 01:43:55.580796	224.1	21.4	-64.6	10.9
2026-01-29 01:43:56.703555	224.0	21.3	-64.8	11.7
2026-01-29 01:43:57.825313	223.9	21.1	-65.0	11.2
2026-01-29 01:43:58.951576	223.8	21.0	-64.5	11.0
2026-01-29 01:44:00.073334	223.7	20.8	-64.1	9.2
2026-01-29 01:44:01.195092	223.6	20.7	-64.4	11.4
2026-01-29 01:44:02.317345	223.5	20.5	-64.4	10.4
2026-01-29 01:44:03.439103	223.5	20.4	-64.9	10.5
2026-01-29 01:44:04.561356	223.4	20.2	-64.8	10.5
2026-01-29 01:44:05.683115	223.3	20.1	-64.8	10.8
2026-01-29 01:44:06.804378	223.2	20.0	-64.8	10.8
2026-01-29 01:44:07.925641	223.1	19.8	-64.4	11.1
2026-01-29 01:44:09.047903	223.0	19.7	-64.5	9.6
2026-01-29 01:44:10.169165	222.9	19.5	-64.3	9.9
2026-01-29 01:44:11.289418	222.8	19.4	-64.3	9.3
2026-01-29 01:44:12.411176	222.8	19.3	-64.4	9.6
2026-01-29 01:44:13.532933	222.7	19.1	-64.1	8.6
2026-01-29 01:44:14.654691	222.6	19.0	-63.6	9.0
2026-01-29 01:44:15.776945	222.5	18.9	-63.9	9.3
2026-01-29 01:44:16.899198	222.4	18.7	-63.9	8.5
2026-01-29 01:44:18.021451	222.4	18.6	-63.9	8.2
2026-01-29 01:44:19.142209	222.3	18.4	-63.6	7.1
2026-01-29 01:44:20.263967	222.2	18.3	-63.3	7.3
2026-01-29 01:44:21.386220	222.1	18.2	-63.3	7.7
2026-01-29 01:44:22.507483	222.0	18.0	-63.3	7.0
2026-01-29 01:44:23.628745	222.0	17.9	-63.2	7.0
2026-01-29 01:44:24.751503	221.9	17.8	-62.8	7.2
2026-01-29 01:44:25.873260	221.8	17.7	-62.6	6.8
2026-01-29 01:44:26.995032	221.7	17.5	-62.9	6.1
2026-01-29 01:44:28.116789	221.7	17.4	-62.7	6.3
2026-01-29 01:44:29.238052	221.6	17.3	-62.6	6.7
2026-01-29 01:44:30.359810	221.5	17.1	-63.3	6.8
2026-01-29 01:44:31.481568	221.4	17.0	-62.9	6.0
2026-01-29 01:44:32.603822	221.4	16.9	-63.1	6.4
2026-01-29 01:44:33.724587	221.3	16.8	-62.9	5.9
2026-01-29 01:44:34.846841	221.2	16.6	-62.7	6.0
2026-01-29 01:44:35.968598	221.2	16.5	-62.5	6.1
2026-01-29 01:44:37.089860	221.1	16.4	-63.0	6.3
2026-01-29 01:44:38.212113	221.0	16.3	-62.8	6.3
2026-01-29 01:44:39.333874	221.0	16.1	-63.0	5.6
2026-01-29 01:44:40.455629	220.9	16.0	-63.2	6.4
2026-01-29 01:44:41.576396	220.8	15.9	-63.0	6.7
2026-01-29 01:44:42.698154	220.8	15.8	-63.5	6.0
2026-01-29 01:44:43.819417	220.7	15.7	-63.3	6.2
2026-01-29 01:44:44.942689	220.6	15.5	-63.2	6.7
2026-01-29 01:44:46.065447	220.6	15.4	-63.3	5.6
2026-01-29 01:44:47.185708	220.5	15.3	-63.2	6.3
2026-01-29 01:44:48.306475	220.4	15.2	-63.4	6.6
2026-01-29 01:44:49.427738	220.4	15.1	-63.3	6.4
2026-01-29 01:44:50.549001	220.3	14.9	-63.5	6.6
2026-01-29 01:44:51.669758	220.2	14.8	-63.6	7.2
2026-01-29 01:44:52.791021	220.2	14.7	-63.4	6.9
2026-01-29 01:44:53.912283	220.1	14.6	-63.6	7.5
2026-01-29 01:44:55.034041	220.1	14.5	-63.9	6.7
2026-01-29 01:44:56.155303	220.0	14.4	-63.4	7.0
2026-01-29 01:44:57.277061	219.9	14.3	-64.0	7.1
2026-01-29 01:44:58.399314	219.9	14.1	-64.1	7.9
2026-01-29 01:44:59.521072	219.8	14.0	-64.3	7.3
2026-01-29 01:45:00.642830	219.8	13.9	-64.2	7.8
2026-01-29 01:45:01.765588	219.7	13.8	-64.3	8.1
2026-01-29 01:45:02.887842	219.6	13.7	-64.3	7.9
2026-01-29 01:45:04.014096	219.6	13.6	-64.1	7.5
2026-01-29 01:45:05.135854	219.5	13.5	-64.3	7.7
2026-01-29 01:45:06.257611	219.5	13.4	-64.5	8.0
2026-01-29 01:45:07.379865	219.4	13.2	-64.6	8.3
2026-01-29 01:45:08.501623	219.4	13.1	-64.6	8.8
2026-01-29 01:45:09.624877	219.3	13.0	-64.6	8.9
2026-01-29 01:45:10.749130	219.3	12.9	-64.8	9.0
2026-01-29 01:45:11.870888	219.2	12.8	-65.0	8.9
2026-01-29 01:45:12.993646	219.2	12.7	-65.3	9.3
2026-01-29 01:45:14.115404	219.1	12.6	-65.1	9.0
2026-01-29 01:45:15.237658	219.0	12.5	-65.8	9.2
2026-01-29 01:45:16.358920	219.0	12.4	-65.7	9.6
2026-01-29 01:45:17.480181	218.9	12.3	-65.9	9.4
2026-01-29 01:45:18.601939	218.9	12.2	-65.9	10.2
2026-01-29 01:45:19.723696	218.8	12.1	-66.1	10.3
2026-01-29 01:45:20.845949	218.8	12.0	-66.0	10.1
2026-01-29 01:45:21.968203	218.7	11.9	-66.3	10.5
2026-01-29 01:45:23.090961	218.7	11.8	-66.2	11.1
2026-01-29 01:45:24.213214	218.6	11.7	-66.3	10.3
2026-01-29 01:45:25.334477	218.6	11.6	-66.3	10.7
2026-01-29 01:45:26.455244	218.5	11.5	-66.7	11.1
2026-01-29 01:45:27.577001	218.5	11.3	-66.5	10.7
2026-01-29 01:45:28.698759	218.4	11.2	-66.7	11.1
2026-01-29 01:45:29.821013	218.4	11.1	-66.9	10.5
2026-01-29 01:45:30.941779	218.4	11.0	-66.9	11.3
2026-01-29 01:45:32.064032	218.3	10.9	-65.6	9.7
2026-01-29 01:45:33.187302	218.3	10.8	-66.7	10.8
2026-01-29 01:45:34.309556	218.2	10.7	-66.6	11.4
2026-01-29 01:45:35.431809	218.2	10.6	-66.6	10.7
2026-01-29 01:45:36.553567	218.1	10.5	-66.5	11.2
2026-01-29 01:45:37.674829	218.1	10.5	-66.3	10.4
2026-01-29 01:45:38.797083	218.0	10.4	-66.5	10.1
2026-01-29 01:45:39.919336	218.0	10.3	-65.1	8.4
2026-01-29 01:45:41.040598	217.9	10.2	-66.4	10.3
2026-01-29 01:45:42.161861	217.9	10.1	-66.5	10.2
2026-01-29 01:45:43.283618	217.9	10.0	-66.2	10.1
2026-01-29 01:45:44.405871	217.8	9.9	-66.1	10.1
2026-01-29 01:45:45.527134	217.8	9.8	-66.2	10.1
2026-01-29 01:45:46.648892	217.7	9.7	-66.1	9.5
2026-01-29 01:45:47.770649	217.7	9.6	-66.3	9.8
2026-01-29 01:45:48.891416	217.6	9.5	-66.3	9.6
2026-01-29 01:45:50.013173	217.6	9.4	-66.5	9.6
2026-01-29 01:45:51.134931	217.6	9.3	-66.6	9.6
2026-01-29 01:45:52.256193	217.5	9.2	-66.6	10.6
2026-01-29 01:45:53.377952	217.5	9.1	-66.4	9.6
2026-01-29 01:45:54.499213	217.4	9.0	-65.5	8.0
2026-01-29 01:45:55.620476	217.4	8.9	-65.8	7.7
2026-01-29 01:45:56.742729	217.4	8.8	-65.9	9.1
2026-01-29 01:45:57.868992	217.3	8.7	-66.0	8.8
2026-01-29 01:45:58.991246	217.3	8.7	-67.2	10.1
2026-01-29 01:46:00.113004	217.2	8.6	-66.7	10.7
2026-01-29 01:46:01.234761	217.2	8.5	-67.3	10.3
2026-01-29 01:46:02.357015	217.2	8.4	-67.0	10.5
2026-01-29 01:46:03.479268	217.1	8.3	-67.0	11.2
2026-01-29 01:46:04.601026	217.1	8.2	-67.6	9.8
2026-01-29 01:46:05.725785	217.0	8.1	-67.4	10.5
2026-01-29 01:46:06.848543	217.0	8.0	-67.2	10.5
2026-01-29 01:46:07.970796	217.0	7.9	-66.1	8.7
2026-01-29 01:46:09.093059	216.9	7.8	-67.0	9.5
2026-01-29 01:46:10.214321	216.9	7.8	-66.7	10.0
2026-01-29 01:46:11.335584	216.9	7.7	-66.6	9.7
2026-01-29 01:46:12.457342	216.8	7.6	-66.7	9.2
2026-01-29 01:46:13.580109	216.8	7.5	-66.7	9.2
2026-01-29 01:46:14.701867	216.7	7.4	-66.4	9.8
2026-01-29 01:46:15.823625	216.7	7.3	-65.7	5.1
2026-01-29 01:46:16.945878	216.7	7.2	-66.2	8.4
2026-01-29 01:46:18.067636	216.6	7.1	-66.3	7.4
2026-01-29 01:46:19.189889	216.6	7.1	-65.9	7.0
2026-01-29 01:46:20.310656	216.6	7.0	-66.0	7.0
2026-01-29 01:46:21.435414	216.5	6.9	-65.5	7.9
2026-01-29 01:46:22.557677	216.5	6.8	-65.9	5.9
2026-01-29 01:46:23.678446	216.5	6.7	-65.0	6.9
2026-01-29 01:46:24.800700	216.4	6.6	-65.2	5.8
2026-01-29 01:46:25.921962	216.4	6.5	-65.0	5.4
2026-01-29 01:46:27.043721	216.4	6.5	-65.0	5.2
2026-01-29 01:46:28.164488	216.3	6.4	-65.0	4.9
2026-01-29 01:46:29.286246	216.3	6.3	-64.7	5.1
2026-01-29 01:46:30.410500	216.3	6.2	-64.7	4.5
2026-01-29 01:46:31.532258	216.2	6.1	-64.2	4.3
2026-01-29 01:46:32.653519	216.2	6.0	-65.1	5.8
2026-01-29 01:46:33.775277	216.2	6.0	-67.7	7.4
2026-01-29 01:46:34.898035	216.1	5.9	-69.1	0.0
2026-01-29 01:46:36.019297	216.1	5.8	-66.6	0.0
2026-01-29 01:46:37.140560	216.1	5.7	-66.6	0.0
2026-01-29 01:46:38.261823	216.0	5.6	-68.3	0.0
2026-01-29 01:46:39.383581	216.0	5.5	-69.6	0.0
2026-01-29 01:46:40.505339	216.0	5.5	-70.6	0.0
2026-01-29 01:46:41.627593	215.9	5.4	-70.8	0.0
2026-01-29 01:46:42.749846	215.9	5.3	-68.3	0.0
2026-01-29 01:46:43.871116	215.9	5.2	-67.2	0.0
2026-01-29 01:46:44.993370	215.8	5.1	-66.5	0.0
2026-01-29 01:46:46.115127	215.8	5.1	-66.1	0.0
2026-01-29 01:46:47.236886	215.8	5.0	-66.0	0.0
#Closed at: 2026-01-29 01:34:06.397545