passes_logs/2026/01/28/T1/T1__20260128_163656_FENGYUN_3G_rec.log

#Pass ID: 20260128_163656_FENGYUN 3G
#Satellite: FENGYUN 3G
#Configuration: FENGYUN 3G
#almurnet v.1.7.20251203
#Start time: 2026-01-28 16:36:56

#Version: 2.0.20230620
#Station: T1
#Location: 37.570604 lon 55.790049 lat
#TLE: 1 56232U 23055A   26027.33093889  .00044881  00000+0  67100-3 0  9994
#TLE: 2 56232  49.9947 352.2708 0004101  93.7831 266.3606 15.54500775158110

#Time	Az	El	Level	Level2	SNR	BER	BlckErr	Temp	State	Recorded	gain1	gain2
2026-01-28 16:36:56.55	227.15	5.05	-49.9	-69.1	3.8	8.48e-01	0	40	0	0	71	32806
2026-01-28 16:36:57.54	227.04	5.12	-50.3	-69.2	3.8	8.37e-01	0	40	104	0	72	31093
2026-01-28 16:36:58.54	226.94	5.19	-50.3	-69.2	3.8	8.48e-01	0	40	104	0	72	31243
2026-01-28 16:36:59.53	226.83	5.27	-50.1	-69.2	3.8	8.46e-01	0	40	104	0	72	31220
2026-01-28 16:37:00.52	226.72	5.34	-50.2	-69.2	3.8	8.46e-01	0	41	104	0	72	31294
2026-01-28 16:37:01.51	226.62	5.41	-50.3	-69.2	3.8	8.47e-01	0	40	104	0	72	31231
2026-01-28 16:37:02.51	226.51	5.49	-50.1	-69.2	3.8	8.47e-01	0	40	104	0	72	31175
2026-01-28 16:37:03.50	226.40	5.56	-50.2	-69.1	3.8	8.47e-01	0	41	104	0	72	31046
2026-01-28 16:37:04.49	226.29	5.63	-50.2	-69.1	3.8	8.47e-01	0	40	104	0	72	31062
2026-01-28 16:37:05.49	226.18	5.71	-50.0	-69.1	3.8	8.48e-01	0	40	104	0	72	30922
2026-01-28 16:37:06.48	226.07	5.78	-50.1	-69.1	3.8	8.48e-01	0	41	104	0	72	30764
2026-01-28 16:37:07.47	225.95	5.86	-50.1	-69.1	3.8	8.47e-01	0	41	104	0	72	30772
2026-01-28 16:37:08.47	225.84	5.93	-50.1	-69.0	3.8	8.47e-01	0	40	104	0	72	30562
2026-01-28 16:37:09.46	225.72	6.01	-50.0	-69.1	3.8	8.47e-01	0	41	104	0	71	32590
2026-01-28 16:37:10.45	225.61	6.08	-50.0	-69.0	3.8	8.47e-01	0	41	104	0	71	32210
2026-01-28 16:37:11.44	225.49	6.16	-49.9	-69.0	3.8	8.46e-01	0	41	104	0	71	32324
2026-01-28 16:37:12.44	225.38	6.23	-49.9	-68.9	3.8	8.46e-01	0	41	104	0	71	31850
2026-01-28 16:37:13.43	225.26	6.31	-49.8	-68.8	3.8	8.47e-01	0	41	104	0	71	31682
2026-01-28 16:37:14.42	225.14	6.39	-48.5	-68.7	3.8	8.47e-01	0	41	104	0	69	34922
2026-01-28 16:37:15.42	225.02	6.46	-45.8	-68.3	3.8	8.46e-01	0	41	104	0	63	47515
2026-01-28 16:37:16.41	224.90	6.54	-45.8	-68.3	3.8	8.46e-01	0	41	104	0	63	47360
2026-01-28 16:37:17.40	224.78	6.62	-45.9	-68.3	3.8	8.47e-01	0	41	104	0	63	47554
2026-01-28 16:37:18.39	224.66	6.70	-46.0	-68.3	3.8	8.46e-01	0	41	104	0	63	47351
2026-01-28 16:37:19.39	224.53	6.77	-46.1	-68.3	3.8	8.46e-01	0	41	104	0	63	47209
2026-01-28 16:37:20.38	224.41	6.85	-46.1	-68.3	3.8	8.46e-01	0	41	104	0	63	47451
2026-01-28 16:37:21.37	224.28	6.93	-46.1	-68.3	3.8	8.46e-01	0	41	104	0	63	47375
2026-01-28 16:37:22.37	224.16	7.01	-46.0	-68.3	3.8	8.46e-01	0	41	104	0	63	47294
2026-01-28 16:37:23.36	224.03	7.09	-46.0	-68.3	3.8	8.47e-01	0	41	104	0	63	47338
2026-01-28 16:37:24.35	223.90	7.17	-46.0	-68.3	3.8	8.47e-01	0	41	104	0	63	47344
2026-01-28 16:37:25.35	223.77	7.25	-46.0	-68.3	3.8	8.47e-01	0	41	104	0	63	47321
2026-01-28 16:37:26.34	223.64	7.33	-46.0	-68.3	3.8	8.47e-01	0	41	104	0	63	47352
2026-01-28 16:37:27.33	223.51	7.41	-46.0	-68.3	3.8	8.46e-01	0	41	104	0	63	47326
2026-01-28 16:37:28.33	223.38	7.49	-46.1	-68.3	3.8	8.46e-01	0	41	104	0	63	47262
2026-01-28 16:37:29.32	223.25	7.57	-46.1	-68.3	3.8	8.47e-01	0	41	104	0	63	47266
2026-01-28 16:37:30.31	223.11	7.65	-46.2	-68.3	3.8	8.47e-01	0	41	104	0	63	47367
2026-01-28 16:37:31.31	222.98	7.73	-46.1	-68.3	3.8	8.47e-01	0	41	104	0	63	47262
2026-01-28 16:37:32.30	222.84	7.81	-46.0	-68.3	3.8	8.46e-01	0	41	104	0	63	47373
2026-01-28 16:37:33.29	222.70	7.89	-45.9	-68.3	3.8	8.46e-01	0	41	104	0	63	47382
2026-01-28 16:37:34.28	222.57	7.97	-45.9	-68.3	3.8	8.46e-01	0	41	104	0	63	47257
2026-01-28 16:37:35.28	222.42	8.06	-46.0	-68.3	3.8	8.46e-01	0	41	104	0	63	47198
2026-01-28 16:37:36.27	222.28	8.14	-46.1	-68.3	3.8	8.47e-01	0	41	104	0	63	47196
2026-01-28 16:37:37.26	222.14	8.22	-46.1	-68.3	3.8	8.47e-01	0	41	104	0	63	47207
2026-01-28 16:37:38.26	222.00	8.30	-46.0	-68.3	3.8	8.47e-01	0	41	104	0	63	47224
2026-01-28 16:37:39.25	221.86	8.39	-46.0	-68.3	3.8	8.46e-01	0	41	104	0	63	47279
2026-01-28 16:37:40.24	221.71	8.47	-45.8	-68.3	3.8	8.48e-01	0	41	104	0	63	47390
2026-01-28 16:37:41.23	221.57	8.55	-45.9	-68.3	3.8	8.48e-01	0	41	104	0	63	47398
2026-01-28 16:37:42.23	221.42	8.64	-46.0	-68.3	3.8	8.47e-01	0	42	104	0	63	47335
2026-01-28 16:37:43.22	221.27	8.72	-46.1	-68.3	3.8	8.46e-01	0	41	104	0	63	47233
2026-01-28 16:37:44.21	221.12	8.81	-46.0	-68.3	3.8	8.46e-01	0	41	104	0	63	47339
2026-01-28 16:37:45.21	220.97	8.89	-45.9	-68.3	3.8	8.48e-01	0	42	104	0	63	47210
2026-01-28 16:37:46.20	220.82	8.98	-46.0	-68.3	3.8	8.47e-01	0	42	104	0	63	47222
2026-01-28 16:37:47.19	220.66	9.06	-45.9	-68.3	3.8	8.47e-01	0	42	104	0	63	47181
2026-01-28 16:37:48.19	220.51	9.15	-47.0	-68.2	3.8	8.47e-01	0	41	104	0	64	44218
2026-01-28 16:37:49.18	220.35	9.24	-46.9	-68.3	3.8	8.47e-01	0	42	104	0	64	44629
2026-01-28 16:37:50.17	220.19	9.32	-46.1	-68.3	3.8	8.47e-01	0	42	104	0	63	47196
2026-01-28 16:37:51.17	220.03	9.41	-47.6	-68.4	3.8	8.46e-01	0	41	104	0	66	40081
2026-01-28 16:37:52.16	219.87	9.50	-48.1	-68.3	3.8	8.47e-01	0	42	104	0	66	39667
2026-01-28 16:37:53.15	219.71	9.58	-49.1	-68.5	3.8	8.47e-01	0	42	104	0	68	36403
2026-01-28 16:37:54.14	219.55	9.67	-47.4	-68.3	3.8	8.47e-01	0	42	104	0	66	39633
2026-01-28 16:37:55.14	219.39	9.76	-49.2	-68.5	3.8	8.47e-01	0	42	104	0	69	34299
2026-01-28 16:37:56.13	219.22	9.85	-49.3	-68.4	3.8	8.47e-01	0	42	104	0	69	34016
2026-01-28 16:37:57.12	219.06	9.94	-49.3	-68.5	3.8	8.47e-01	0	42	104	0	69	34262
2026-01-28 16:37:58.12	218.89	10.03	-49.3	-68.4	3.8	8.46e-01	0	42	104	0	69	34050
2026-01-28 16:37:59.11	218.72	10.11	-49.3	-68.5	3.8	8.47e-01	0	42	104	0	69	34372
2026-01-28 16:38:00.10	218.55	10.20	-49.3	-68.5	3.8	8.47e-01	0	42	104	0	69	34175
2026-01-28 16:38:01.10	218.37	10.29	-49.2	-68.5	3.8	8.47e-01	0	42	104	0	69	34241
2026-01-28 16:38:02.09	218.20	10.38	-49.3	-68.5	3.8	8.46e-01	0	42	104	0	69	34202
2026-01-28 16:38:03.08	218.03	10.47	-49.3	-68.5	3.8	8.46e-01	0	42	104	0	69	34280
2026-01-28 16:38:04.07	217.85	10.56	-49.1	-68.5	3.8	8.46e-01	0	42	104	0	69	34116
2026-01-28 16:38:05.07	217.67	10.66	-49.3	-68.5	3.8	8.48e-01	0	42	104	0	69	34326
2026-01-28 16:38:06.06	217.49	10.75	-49.2	-68.5	3.8	8.48e-01	0	42	104	0	69	34254
2026-01-28 16:38:07.05	217.31	10.84	-49.4	-68.5	3.8	8.46e-01	0	42	104	0	69	34440
2026-01-28 16:38:08.05	217.13	10.93	-49.4	-68.5	3.8	8.48e-01	0	42	104	0	69	34247
2026-01-28 16:38:09.04	216.94	11.02	-49.3	-68.5	3.8	8.48e-01	0	42	104	0	69	34362
2026-01-28 16:38:10.03	216.76	11.12	-49.4	-68.5	3.8	8.47e-01	0	42	104	0	69	34210
2026-01-28 16:38:11.02	216.57	11.21	-49.3	-68.5	3.8	8.47e-01	0	42	104	0	69	34456
2026-01-28 16:38:12.02	216.38	11.30	-49.3	-68.5	3.8	8.47e-01	0	42	104	0	69	34303
2026-01-28 16:38:13.01	216.19	11.39	-49.5	-68.5	3.8	8.47e-01	0	42	104	0	69	34463
2026-01-28 16:38:14.00	216.00	11.49	-49.2	-68.5	3.8	8.47e-01	0	42	104	0	69	34289
2026-01-28 16:38:14.99	215.80	11.58	-49.6	-68.6	3.8	8.47e-01	0	42	104	0	69	34509
2026-01-28 16:38:15.99	215.61	11.68	-49.5	-68.5	3.8	8.47e-01	0	42	104	0	69	34233
2026-01-28 16:38:16.98	215.41	11.77	-49.6	-68.5	3.8	8.47e-01	0	42	104	0	69	34438
2026-01-28 16:38:17.97	215.21	11.87	-49.6	-68.5	3.8	8.47e-01	0	42	104	0	69	34198
2026-01-28 16:38:18.97	215.01	11.96	-49.5	-68.6	3.8	8.46e-01	0	42	104	0	69	34615
2026-01-28 16:38:19.96	214.81	12.06	-49.4	-68.5	3.8	8.48e-01	0	42	104	0	69	34303
2026-01-28 16:38:20.95	214.60	12.15	-49.4	-68.5	3.8	8.48e-01	0	42	104	0	69	34469
2026-01-28 16:38:21.95	214.40	12.25	-49.5	-68.5	3.8	8.46e-01	0	42	104	0	69	34381
2026-01-28 16:38:22.94	214.19	12.34	-49.5	-68.6	3.8	8.46e-01	0	42	104	0	69	34585
2026-01-28 16:38:23.93	213.98	12.44	-49.2	-68.5	3.8	8.47e-01	0	42	104	0	69	34341
2026-01-28 16:38:24.92	213.77	12.54	-49.4	-68.6	3.8	8.47e-01	0	42	104	0	69	34617
2026-01-28 16:38:25.92	213.56	12.63	-49.4	-68.5	3.8	8.47e-01	0	42	104	0	69	34431
2026-01-28 16:38:26.91	213.34	12.73	-49.5	-68.6	3.8	8.46e-01	0	42	104	0	69	34609
2026-01-28 16:38:27.90	213.13	12.83	-49.3	-68.6	3.8	8.46e-01	0	42	104	0	69	34601
2026-01-28 16:38:28.90	212.90	12.93	-49.6	-68.6	3.8	8.47e-01	0	42	104	0	69	34661
2026-01-28 16:38:29.89	212.68	13.02	-49.5	-68.6	3.8	8.46e-01	0	42	104	0	69	34618
2026-01-28 16:38:30.88	212.46	13.12	-49.6	-68.7	3.8	8.46e-01	0	42	104	0	69	34899
2026-01-28 16:38:31.87	212.24	13.22	-49.5	-68.6	3.8	8.46e-01	0	42	104	0	69	34585
2026-01-28 16:38:32.87	212.01	13.32	-49.6	-68.6	3.8	8.48e-01	0	42	104	0	69	34655
2026-01-28 16:38:33.86	211.78	13.42	-49.6	-68.6	3.8	8.48e-01	0	42	104	0	69	34593
2026-01-28 16:38:34.85	211.55	13.52	-49.6	-68.6	3.8	8.46e-01	0	42	104	0	69	34805
2026-01-28 16:38:35.85	211.32	13.62	-49.5	-68.6	3.8	8.47e-01	0	42	104	0	69	34666
2026-01-28 16:38:36.84	211.08	13.72	-49.5	-68.6	3.8	8.47e-01	0	42	104	0	69	34753
2026-01-28 16:38:37.83	210.85	13.82	-49.5	-68.6	3.8	8.47e-01	0	42	104	0	69	34686
2026-01-28 16:38:38.82	210.61	13.92	-49.6	-68.6	3.8	8.47e-01	0	42	104	0	69	34822
2026-01-28 16:38:39.82	210.37	14.02	-49.5	-68.6	3.8	8.47e-01	0	42	104	0	70	32878
2026-01-28 16:38:40.81	210.12	14.12	-49.6	-68.6	3.8	8.48e-01	0	42	104	0	70	32872
2026-01-28 16:38:41.80	209.88	14.22	-49.6	-68.6	3.8	8.47e-01	0	42	104	0	70	32820
2026-01-28 16:38:42.79	209.63	14.32	-49.6	-68.7	3.8	8.47e-01	0	42	104	0	70	33039
2026-01-28 16:38:43.79	209.38	14.42	-49.6	-68.6	3.8	8.47e-01	0	42	104	0	70	32775
2026-01-28 16:38:44.78	209.13	14.52	-49.6	-68.6	3.8	8.47e-01	0	42	104	0	70	32851
2026-01-28 16:38:45.77	208.88	14.62	-49.6	-68.6	3.8	8.47e-01	0	42	104	0	70	32924
2026-01-28 16:38:46.77	208.62	14.72	-49.7	-68.7	3.8	8.47e-01	0	42	104	0	70	33027
2026-01-28 16:38:47.76	208.36	14.83	-49.7	-68.7	3.8	8.47e-01	0	42	104	0	70	33006
2026-01-28 16:38:48.75	208.10	14.93	-49.7	-68.7	3.8	8.48e-01	0	42	104	0	70	33064
2026-01-28 16:38:49.75	207.84	15.03	-49.6	-68.7	3.8	8.48e-01	0	42	104	0	70	32955
2026-01-28 16:38:50.74	207.57	15.13	-49.7	-68.7	3.8	8.48e-01	0	42	104	0	70	33131
2026-01-28 16:38:51.73	207.31	15.23	-49.7	-68.7	3.8	8.47e-01	0	42	104	0	70	33000
2026-01-28 16:38:52.72	207.04	15.34	-49.7	-68.7	3.8	8.47e-01	0	42	104	0	70	33066
2026-01-28 16:38:53.72	206.76	15.44	-49.6	-68.7	3.8	8.47e-01	0	42	104	0	70	33033
2026-01-28 16:38:54.71	206.49	15.54	-49.8	-68.7	3.8	8.47e-01	0	42	104	0	70	33140
2026-01-28 16:38:55.70	206.21	15.64	-49.7	-68.7	3.8	8.47e-01	0	42	104	0	70	33145
2026-01-28 16:38:56.70	205.93	15.75	-49.6	-68.7	3.8	8.45e-01	0	42	104	0	70	33093
2026-01-28 16:38:57.69	205.65	15.85	-49.7	-68.7	3.8	8.48e-01	0	42	104	0	70	33085
2026-01-28 16:38:58.68	205.36	15.95	-49.6	-68.7	3.8	8.48e-01	0	42	104	0	70	33166
2026-01-28 16:38:59.68	205.08	16.05	-49.5	-68.7	3.8	8.46e-01	0	42	104	0	70	33124
2026-01-28 16:39:00.67	204.79	16.16	-49.6	-68.7	3.8	8.46e-01	0	42	104	0	70	33137
2026-01-28 16:39:01.66	204.50	16.26	-49.6	-68.7	3.8	8.46e-01	0	42	104	0	70	33021
2026-01-28 16:39:02.65	204.20	16.36	-49.6	-68.7	3.8	8.47e-01	0	42	104	0	70	33271
2026-01-28 16:39:03.65	203.90	16.47	-49.6	-68.7	3.8	8.48e-01	0	42	104	0	70	33048
2026-01-28 16:39:04.64	203.60	16.57	-49.6	-68.7	3.8	8.48e-01	0	42	104	0	70	33173
2026-01-28 16:39:05.63	203.30	16.67	-49.6	-68.7	3.8	8.46e-01	0	42	104	0	70	33191
2026-01-28 16:39:06.63	203.00	16.77	-49.6	-68.7	3.8	8.47e-01	0	42	104	0	70	33200
2026-01-28 16:39:07.62	202.69	16.88	-49.5	-68.7	3.8	8.46e-01	0	42	104	0	70	33166
2026-01-28 16:39:08.61	202.38	16.98	-49.5	-68.7	3.8	8.46e-01	0	42	104	0	70	33267
2026-01-28 16:39:09.60	202.07	17.08	-49.5	-68.7	3.8	8.47e-01	0	42	104	0	70	33166
2026-01-28 16:39:10.60	201.75	17.18	-49.5	-68.7	3.8	8.46e-01	0	42	104	0	70	33240
2026-01-28 16:39:11.59	201.43	17.28	-49.5	-68.7	3.8	8.46e-01	0	42	104	0	70	33258
2026-01-28 16:39:12.58	201.11	17.39	-49.6	-68.7	3.8	8.46e-01	0	42	104	0	70	33268
2026-01-28 16:39:13.58	200.79	17.49	-49.6	-68.7	3.8	8.47e-01	0	42	104	0	70	33118
2026-01-28 16:39:14.57	200.46	17.59	-49.6	-68.7	3.8	8.47e-01	0	42	104	0	70	33214
2026-01-28 16:39:15.56	200.13	17.69	-49.7	-68.7	3.8	8.47e-01	0	42	104	0	70	33152
2026-01-28 16:39:16.55	199.80	17.79	-49.8	-68.7	3.8	8.46e-01	0	42	104	0	70	33195
2026-01-28 16:39:17.55	199.47	17.89	-49.7	-68.7	3.8	8.46e-01	0	42	104	0	70	33179
2026-01-28 16:39:18.54	199.13	17.99	-49.7	-68.8	3.8	8.47e-01	0	42	104	0	70	33319
2026-01-28 16:39:19.53	198.79	18.09	-49.8	-68.7	3.8	8.47e-01	0	42	104	0	70	33152
2026-01-28 16:39:20.53	198.44	18.19	-49.6	-68.8	3.8	8.47e-01	0	42	104	0	70	33313
2026-01-28 16:39:21.52	198.10	18.29	-49.7	-68.8	3.8	8.47e-01	0	42	104	0	70	33375
2026-01-28 16:39:22.51	197.75	18.39	-49.7	-68.7	3.8	8.47e-01	0	42	104	0	70	33300
2026-01-28 16:39:23.50	197.40	18.49	-49.4	-68.7	3.8	8.47e-01	0	42	104	0	70	33239
2026-01-28 16:39:24.50	197.05	18.59	-49.3	-68.8	3.8	8.47e-01	0	42	104	0	70	33346
2026-01-28 16:39:25.49	196.69	18.69	-49.3	-68.8	3.8	8.47e-01	0	42	104	0	70	33365
2026-01-28 16:39:26.49	196.33	18.79	-49.3	-68.8	3.8	8.47e-01	0	42	104	0	70	33350
2026-01-28 16:39:27.48	195.97	18.89	-49.4	-68.7	3.8	8.48e-01	0	42	104	0	70	33307
2026-01-28 16:39:28.47	195.60	18.98	-49.4	-68.8	3.8	8.48e-01	0	42	104	0	70	33364
2026-01-28 16:39:29.46	195.23	19.08	-49.4	-68.8	3.8	8.49e-01	0	42	104	0	70	33404
2026-01-28 16:39:30.46	194.86	19.17	-49.5	-68.8	3.8	8.49e-01	0	42	104	0	70	33430
2026-01-28 16:39:31.45	194.49	19.27	-49.4	-68.8	3.8	8.47e-01	0	42	104	0	70	33397
2026-01-28 16:39:32.44	194.11	19.36	-49.4	-68.7	3.8	8.48e-01	0	42	104	0	70	33257
2026-01-28 16:39:33.43	193.73	19.46	-49.5	-68.8	3.8	8.48e-01	0	42	104	0	70	33479
2026-01-28 16:39:34.43	193.35	19.55	-49.4	-68.8	3.8	8.47e-01	0	42	104	0	70	33316
2026-01-28 16:39:35.42	192.96	19.65	-49.6	-68.8	3.8	8.47e-01	0	42	104	0	70	33533
2026-01-28 16:39:36.41	192.58	19.74	-49.5	-68.7	3.8	8.47e-01	0	42	104	0	70	33266
2026-01-28 16:39:37.41	192.18	19.83	-49.5	-68.8	3.8	8.46e-01	0	42	104	0	70	33454
2026-01-28 16:39:38.40	191.79	19.92	-49.6	-68.8	3.8	8.47e-01	0	42	104	0	70	33410
2026-01-28 16:39:39.39	191.39	20.01	-49.5	-68.8	3.8	8.47e-01	0	42	104	0	70	33474
2026-01-28 16:39:40.38	190.99	20.10	-49.4	-68.8	3.8	8.47e-01	0	42	104	0	70	33424
2026-01-28 16:39:41.38	190.59	20.19	-49.4	-68.8	3.8	8.46e-01	0	42	104	0	70	33598
2026-01-28 16:39:42.37	190.18	20.28	-49.4	-68.8	3.8	8.46e-01	0	42	104	0	70	33499
2026-01-28 16:39:43.36	189.78	20.36	-49.4	-68.8	3.8	8.48e-01	0	42	104	0	70	33468
2026-01-28 16:39:44.36	189.36	20.45	-49.5	-68.8	3.8	8.47e-01	0	42	104	0	70	33453
2026-01-28 16:39:45.35	188.95	20.53	-49.5	-68.8	3.8	8.47e-01	0	42	104	0	70	33535
2026-01-28 16:39:46.34	188.54	20.62	-49.5	-68.8	3.8	8.47e-01	0	42	104	0	70	33483
2026-01-28 16:39:47.33	188.12	20.70	-49.5	-68.8	3.8	8.46e-01	0	42	104	0	70	33662
2026-01-28 16:39:48.33	187.69	20.78	-49.5	-68.8	3.8	8.46e-01	0	42	104	0	70	33453
2026-01-28 16:39:49.32	187.27	20.86	-49.6	-68.8	3.8	8.47e-01	0	42	104	0	70	33551
2026-01-28 16:39:50.31	186.84	20.94	-49.5	-68.8	3.8	8.47e-01	0	42	104	0	70	33498
2026-01-28 16:39:51.31	186.41	21.02	-49.6	-68.8	3.8	8.46e-01	0	42	104	0	70	33569
2026-01-28 16:39:52.30	185.98	21.10	-49.5	-68.8	3.8	8.46e-01	0	42	104	0	70	33440
2026-01-28 16:39:53.29	185.55	21.18	-49.6	-68.8	3.8	8.47e-01	0	42	104	0	70	33527
2026-01-28 16:39:54.28	185.11	21.25	-49.6	-68.8	3.8	8.47e-01	0	42	104	0	70	33495
2026-01-28 16:39:55.28	184.67	21.33	-49.5	-68.8	3.8	8.47e-01	0	42	104	0	70	33596
2026-01-28 16:39:56.27	184.23	21.40	-49.4	-68.8	3.8	8.45e-01	0	42	104	0	70	33525
2026-01-28 16:39:57.26	183.78	21.47	-49.6	-68.8	3.8	8.48e-01	0	42	104	0	70	33624
2026-01-28 16:39:58.26	183.33	21.54	-49.6	-68.8	3.8	8.48e-01	0	42	104	0	70	33534
2026-01-28 16:39:59.25	182.88	21.61	-49.6	-68.8	3.8	8.46e-01	0	42	104	0	70	33612
2026-01-28 16:40:00.24	182.43	21.68	-49.5	-68.8	3.8	8.46e-01	0	42	104	0	70	33594
2026-01-28 16:40:01.23	181.98	21.74	-49.5	-68.9	3.8	8.46e-01	0	42	104	0	70	33704
2026-01-28 16:40:02.23	181.52	21.81	-49.5	-68.8	3.8	8.48e-01	0	42	104	0	70	33595
2026-01-28 16:40:03.22	181.06	21.87	-49.6	-68.8	3.8	8.47e-01	0	42	104	0	70	33658
2026-01-28 16:40:04.21	180.60	21.93	-49.5	-68.8	3.8	8.47e-01	0	42	104	0	70	33517
2026-01-28 16:40:05.21	180.13	21.99	-49.8	-68.8	3.8	8.47e-01	0	42	104	0	70	33654
2026-01-28 16:40:06.20	179.67	22.05	-49.7	-68.8	3.8	8.47e-01	0	42	104	0	70	33693
2026-01-28 16:40:07.19	179.20	22.11	-49.7	-68.9	3.8	8.47e-01	0	42	104	0	70	33737
2026-01-28 16:40:08.18	178.73	22.17	-49.5	-68.8	3.8	8.46e-01	0	42	104	0	70	33653
2026-01-28 16:40:09.18	178.26	22.22	-49.7	-68.9	3.8	8.46e-01	0	42	104	0	70	33728
2026-01-28 16:40:10.17	177.79	22.27	-49.7	-68.8	3.8	8.46e-01	0	42	104	0	70	33599
2026-01-28 16:40:11.16	177.31	22.32	-49.8	-68.8	3.8	8.47e-01	0	42	104	0	70	33661
2026-01-28 16:40:12.16	176.83	22.37	-49.6	-68.8	3.8	8.47e-01	0	42	104	0	70	33553
2026-01-28 16:40:13.15	176.35	22.42	-49.7	-68.8	3.8	8.47e-01	0	42	104	0	70	33608
2026-01-28 16:40:14.14	175.87	22.47	-49.6	-68.8	3.8	8.48e-01	0	42	104	0	70	33664
2026-01-28 16:40:15.13	175.39	22.51	-49.8	-68.8	3.8	8.46e-01	0	42	104	0	70	33661
2026-01-28 16:40:16.13	174.90	22.55	-49.6	-68.8	3.8	8.47e-01	0	42	104	0	70	33606
2026-01-28 16:40:17.12	174.42	22.59	-49.6	-68.8	3.8	8.47e-01	0	42	104	0	70	33607
2026-01-28 16:40:18.11	173.93	22.63	-49.6	-68.8	3.8	8.46e-01	0	42	104	0	70	33633
2026-01-28 16:40:19.11	173.44	22.67	-49.8	-68.9	3.8	8.47e-01	0	42	104	0	70	33700
2026-01-28 16:40:20.10	172.95	22.70	-49.7	-68.8	3.8	8.47e-01	0	42	104	0	70	33528
2026-01-28 16:40:21.09	172.46	22.74	-49.6	-68.9	3.8	8.47e-01	0	42	104	0	70	33728
2026-01-28 16:40:22.08	171.97	22.77	-49.6	-68.8	3.8	8.47e-01	0	42	104	0	70	33611
2026-01-28 16:40:23.08	171.48	22.80	-49.8	-68.8	3.8	8.47e-01	0	42	104	0	70	33624
2026-01-28 16:40:24.07	170.98	22.82	-49.5	-68.8	3.8	8.47e-01	0	42	104	0	70	33620
2026-01-28 16:40:25.06	170.49	22.85	-49.7	-68.8	3.8	8.47e-01	0	42	104	0	70	33574
2026-01-28 16:40:26.06	169.99	22.87	-49.7	-68.8	3.8	8.47e-01	0	42	104	0	70	33543
2026-01-28 16:40:27.05	169.49	22.89	-49.6	-68.8	3.8	8.47e-01	0	42	104	0	70	33676
2026-01-28 16:40:28.04	169.00	22.91	-49.6	-68.8	3.8	8.46e-01	0	42	104	0	70	33581
2026-01-28 16:40:29.04	168.50	22.93	-49.8	-68.8	3.8	8.46e-01	0	42	104	0	70	33642
2026-01-28 16:40:30.03	168.00	22.95	-49.8	-68.8	3.8	8.47e-01	0	42	104	0	70	33566
2026-01-28 16:40:31.02	167.50	22.96	-49.8	-68.8	3.8	8.46e-01	0	42	104	0	70	33626
2026-01-28 16:40:32.01	167.00	22.97	-49.8	-68.8	3.8	8.46e-01	0	42	104	0	70	33538
2026-01-28 16:40:33.01	166.50	22.98	-49.8	-68.8	3.8	8.47e-01	0	42	104	0	70	33606
2026-01-28 16:40:34.00	166.00	22.99	-49.6	-68.8	3.8	8.48e-01	0	42	104	0	70	33635
2026-01-28 16:40:34.99	165.50	22.99	-49.9	-68.8	3.8	8.48e-01	0	42	104	0	70	33483
2026-01-28 16:40:35.99	164.99	23.00	-49.7	-68.8	3.8	8.45e-01	0	42	104	0	70	33569
2026-01-28 16:40:36.98	164.49	23.00	-49.9	-68.8	3.8	8.46e-01	0	42	104	0	70	33645
2026-01-28 16:40:37.97	163.99	23.00	-49.9	-68.8	3.8	8.47e-01	0	42	104	0	70	33492
2026-01-28 16:40:38.97	163.49	22.99	-49.8	-68.8	3.8	8.47e-01	0	42	104	0	70	33534
2026-01-28 16:40:39.96	162.99	22.99	-50.0	-68.8	3.8	8.46e-01	0	42	104	0	70	33467
2026-01-28 16:40:40.95	162.49	22.98	-49.8	-68.8	3.8	8.48e-01	0	42	104	0	70	33544
2026-01-28 16:40:41.94	161.99	22.97	-49.9	-68.8	3.8	8.48e-01	0	42	104	0	70	33628
2026-01-28 16:40:42.94	161.49	22.96	-49.7	-68.8	3.8	8.47e-01	0	42	104	0	70	33630
2026-01-28 16:40:43.93	160.99	22.95	-49.8	-68.8	3.8	8.47e-01	0	42	104	0	70	33538
2026-01-28 16:40:44.92	160.49	22.93	-49.8	-68.8	3.8	8.47e-01	0	42	104	0	70	33617
2026-01-28 16:40:45.92	159.99	22.92	-49.8	-68.8	3.8	8.47e-01	0	42	104	0	70	33517
2026-01-28 16:40:46.91	159.49	22.90	-49.9	-68.8	3.8	8.46e-01	0	42	104	0	70	33635
2026-01-28 16:40:47.90	159.00	22.88	-49.9	-68.8	3.8	8.46e-01	0	42	104	0	70	33681
2026-01-28 16:40:48.90	158.50	22.85	-49.9	-68.8	3.8	8.47e-01	0	42	104	0	70	33594
2026-01-28 16:40:49.89	158.00	22.83	-49.9	-68.8	3.8	8.47e-01	0	42	104	0	70	33517
2026-01-28 16:40:50.88	157.51	22.80	-49.9	-68.8	3.8	8.47e-01	0	42	104	0	70	33584
2026-01-28 16:40:51.87	157.02	22.77	-49.9	-68.8	3.8	8.47e-01	0	42	104	0	70	33627
2026-01-28 16:40:52.87	156.52	22.74	-49.8	-68.8	3.8	8.49e-01	0	42	104	0	70	33677
2026-01-28 16:40:53.86	156.03	22.71	-49.8	-68.8	3.8	8.49e-01	0	42	104	0	70	33597
2026-01-28 16:40:54.85	155.54	22.68	-49.8	-68.8	3.8	8.47e-01	0	42	104	0	70	33603
2026-01-28 16:40:55.85	155.05	22.64	-49.8	-68.8	3.8	8.46e-01	0	42	104	0	70	33610
2026-01-28 16:40:56.84	154.56	22.60	-49.8	-68.8	3.8	8.46e-01	0	42	104	0	70	33609
2026-01-28 16:40:57.83	154.08	22.56	-49.7	-68.8	3.8	8.47e-01	0	42	104	0	70	33574
2026-01-28 16:40:58.82	153.60	22.52	-49.8	-68.8	3.8	8.47e-01	0	42	104	0	70	33540
2026-01-28 16:40:59.82	153.11	22.48	-49.8	-68.8	3.8	8.48e-01	0	42	104	0	70	33640
2026-01-28 16:41:00.81	152.63	22.43	-49.8	-68.8	3.8	8.48e-01	0	42	104	0	70	33685
2026-01-28 16:41:01.80	152.15	22.38	-49.8	-68.8	3.8	8.46e-01	0	42	104	0	70	33617
2026-01-28 16:41:02.80	151.67	22.34	-49.7	-68.8	3.8	8.48e-01	0	42	104	0	70	33609
2026-01-28 16:41:03.79	151.20	22.29	-49.6	-68.8	3.8	8.48e-01	0	42	104	0	70	33642
2026-01-28 16:41:04.78	150.73	22.23	-49.7	-68.8	3.8	8.47e-01	0	42	104	0	70	33583
2026-01-28 16:41:05.78	150.25	22.18	-49.7	-68.8	3.8	8.46e-01	0	42	104	0	70	33575
2026-01-28 16:41:06.77	149.78	22.12	-49.7	-68.8	3.8	8.46e-01	0	42	104	0	70	33603
2026-01-28 16:41:07.76	149.32	22.07	-49.7	-68.8	3.8	8.47e-01	0	42	104	0	70	33664
2026-01-28 16:41:08.76	148.85	22.01	-49.7	-68.8	3.8	8.45e-01	0	42	104	0	70	33577
2026-01-28 16:41:09.75	148.38	21.95	-49.7	-68.8	3.8	8.45e-01	0	42	104	0	70	33496
2026-01-28 16:41:10.74	147.92	21.89	-49.7	-68.8	3.8	8.47e-01	0	42	104	0	70	33612
2026-01-28 16:41:11.73	147.47	21.82	-49.8	-68.8	3.8	8.46e-01	0	42	104	0	70	33600
2026-01-28 16:41:12.73	147.00	21.76	-49.7	-68.8	3.8	8.46e-01	0	42	104	0	70	33569
2026-01-28 16:41:13.72	146.55	21.69	-49.7	-68.8	3.8	8.47e-01	0	42	104	0	70	33434
2026-01-28 16:41:14.71	146.10	21.63	-49.4	-68.8	3.8	8.46e-01	0	42	104	0	70	33519
2026-01-28 16:41:15.71	145.65	21.56	-49.5	-68.8	3.8	8.46e-01	0	42	104	0	70	33538
2026-01-28 16:41:16.70	145.20	21.49	-49.5	-68.8	3.8	8.47e-01	0	42	104	0	70	33593
2026-01-28 16:41:17.69	144.76	21.42	-49.5	-68.8	3.8	8.46e-01	0	42	104	0	70	33537
2026-01-28 16:41:18.68	144.31	21.34	-49.7	-68.8	3.8	8.46e-01	0	42	104	0	70	33487
2026-01-28 16:41:19.68	143.87	21.27	-49.6	-68.8	3.8	8.46e-01	0	42	104	0	70	33444
2026-01-28 16:41:20.67	143.43	21.20	-49.7	-68.8	3.8	8.47e-01	0	42	104	0	70	33440
2026-01-28 16:41:21.67	143.00	21.12	-49.7	-68.8	3.8	8.46e-01	0	42	104	0	70	33457
2026-01-28 16:41:22.66	142.56	21.04	-49.9	-68.8	3.8	8.46e-01	0	42	104	0	70	33464
2026-01-28 16:41:23.65	142.14	20.96	-49.9	-68.8	3.8	8.46e-01	0	42	104	0	70	33512
2026-01-28 16:41:24.64	141.71	20.88	-49.9	-68.8	3.8	8.46e-01	0	42	104	0	70	33449
2026-01-28 16:41:25.64	141.28	20.80	-49.9	-68.8	3.8	8.46e-01	0	42	104	0	70	33354
2026-01-28 16:41:26.63	140.86	20.72	-49.9	-68.8	3.8	8.47e-01	0	42	104	0	70	33424
2026-01-28 16:41:27.62	140.44	20.64	-49.8	-68.8	3.8	8.47e-01	0	42	104	0	70	33452
2026-01-28 16:41:28.61	140.03	20.55	-49.8	-68.8	3.8	8.47e-01	0	42	104	0	70	33454
2026-01-28 16:41:29.61	139.61	20.47	-49.8	-68.8	3.8	8.48e-01	0	42	104	0	70	33364
2026-01-28 16:41:30.60	139.20	20.38	-49.7	-68.8	3.8	8.48e-01	0	42	104	0	70	33434
2026-01-28 16:41:31.59	138.79	20.30	-49.8	-68.8	3.8	8.48e-01	0	42	104	0	70	33427
2026-01-28 16:41:32.59	138.39	20.21	-49.7	-68.8	3.8	8.46e-01	0	42	104	0	70	33466
2026-01-28 16:41:33.58	137.98	20.12	-49.7	-68.8	3.8	8.47e-01	0	42	104	0	70	33379
2026-01-28 16:41:34.57	137.59	20.03	-49.8	-68.8	3.8	8.47e-01	0	42	104	0	70	33359
2026-01-28 16:41:35.56	137.19	19.94	-49.8	-68.8	3.8	8.48e-01	0	42	104	0	70	33325
2026-01-28 16:41:36.56	136.79	19.85	-49.8	-68.8	3.8	8.47e-01	0	42	104	0	70	33418
2026-01-28 16:41:37.55	136.40	19.76	-49.8	-68.8	3.8	8.47e-01	0	42	104	0	70	33323
2026-01-28 16:41:38.54	136.02	19.67	-49.9	-68.8	3.8	8.47e-01	0	42	104	0	70	33406
2026-01-28 16:41:39.54	135.63	19.58	-49.8	-68.8	3.8	8.48e-01	0	42	104	0	70	33378
2026-01-28 16:41:40.53	135.25	19.48	-49.8	-68.8	3.8	8.48e-01	0	42	104	0	70	33334
2026-01-28 16:41:41.52	134.87	19.39	-49.8	-68.8	3.8	8.47e-01	0	42	104	0	70	33311
2026-01-28 16:41:42.52	134.49	19.29	-49.8	-68.7	3.8	8.46e-01	0	42	104	0	70	33231
2026-01-28 16:41:43.51	134.11	19.20	-49.9	-68.8	3.8	8.46e-01	0	42	104	0	70	33361
2026-01-28 16:41:44.50	133.74	19.10	-49.8	-68.7	3.8	8.48e-01	0	42	104	0	70	33290
2026-01-28 16:41:45.49	133.38	19.01	-49.8	-68.7	3.8	8.46e-01	0	42	104	0	70	33277
2026-01-28 16:41:46.49	133.01	18.91	-49.9	-68.7	3.8	8.47e-01	0	42	104	0	70	33231
2026-01-28 16:41:47.48	132.65	18.81	-49.9	-68.7	3.8	8.47e-01	0	42	104	0	70	33232
2026-01-28 16:41:48.47	132.29	18.72	-49.8	-68.7	3.8	8.46e-01	0	42	104	0	70	33275
2026-01-28 16:41:49.46	131.93	18.62	-49.8	-68.7	3.8	8.46e-01	0	42	104	0	70	33227
2026-01-28 16:41:50.46	131.57	18.52	-49.8	-68.7	3.8	8.46e-01	0	42	104	0	70	33247
2026-01-28 16:41:51.45	131.22	18.42	-49.8	-68.7	3.8	8.47e-01	0	42	104	0	70	33273
2026-01-28 16:41:52.44	130.88	18.32	-49.8	-68.7	3.8	8.46e-01	0	42	104	0	70	33254
2026-01-28 16:41:53.44	130.53	18.22	-49.8	-68.7	3.8	8.46e-01	0	42	104	0	70	33235
2026-01-28 16:41:54.43	130.18	18.12	-49.8	-68.7	3.8	8.46e-01	0	42	104	0	70	33140
2026-01-28 16:41:55.42	129.85	18.02	-49.8	-68.7	3.8	8.48e-01	0	42	104	0	70	33143
2026-01-28 16:41:56.42	129.51	17.92	-49.8	-68.7	3.8	8.48e-01	0	42	104	0	70	33164
2026-01-28 16:41:57.41	129.17	17.82	-49.7	-68.7	3.8	8.47e-01	0	42	104	0	70	33142
2026-01-28 16:41:58.40	128.84	17.72	-49.8	-68.7	3.8	8.47e-01	0	42	104	0	70	33175
2026-01-28 16:41:59.40	128.51	17.62	-49.7	-68.7	3.8	8.47e-01	0	42	104	0	70	33201
2026-01-28 16:42:00.39	128.18	17.52	-49.8	-68.7	3.8	8.46e-01	0	42	104	0	70	33211
2026-01-28 16:42:01.38	127.86	17.42	-49.8	-68.7	3.8	8.46e-01	0	42	104	0	70	33131
2026-01-28 16:42:02.37	127.54	17.31	-49.8	-68.7	3.8	8.46e-01	0	42	104	0	70	33126
2026-01-28 16:42:03.36	127.22	17.21	-49.8	-68.7	3.8	8.46e-01	0	42	104	0	70	33128
2026-01-28 16:42:04.36	126.91	17.11	-49.9	-68.7	3.8	8.48e-01	0	42	104	0	70	33227
2026-01-28 16:42:05.35	126.59	17.01	-49.8	-68.7	3.8	8.48e-01	0	42	104	0	70	33054
2026-01-28 16:42:06.34	126.28	16.91	-49.8	-68.7	3.8	8.46e-01	0	42	104	0	70	33058
2026-01-28 16:42:07.33	125.98	16.80	-49.8	-68.7	3.8	8.47e-01	0	42	104	0	70	33086
2026-01-28 16:42:08.33	125.67	16.70	-49.8	-68.7	3.8	8.47e-01	0	42	104	0	70	33059
2026-01-28 16:42:09.32	125.37	16.60	-49.8	-68.7	3.8	8.47e-01	0	42	104	0	70	33106
2026-01-28 16:42:10.31	125.07	16.50	-49.8	-68.7	3.8	8.46e-01	0	42	104	0	70	33149
2026-01-28 16:42:11.31	124.77	16.39	-49.8	-68.7	3.8	8.47e-01	0	42	104	0	70	32974
2026-01-28 16:42:12.30	124.48	16.29	-49.8	-68.6	3.8	8.47e-01	0	42	104	0	70	32912
2026-01-28 16:42:13.29	124.19	16.19	-49.8	-68.7	3.8	8.46e-01	0	42	104	0	70	32957
2026-01-28 16:42:14.29	123.89	16.09	-49.8	-68.7	3.8	8.47e-01	0	42	104	0	70	33047
2026-01-28 16:42:15.28	123.61	15.98	-49.8	-68.7	3.8	8.47e-01	0	42	104	0	70	32953
2026-01-28 16:42:16.27	123.32	15.88	-49.8	-68.7	3.8	8.47e-01	0	42	104	0	70	33047
2026-01-28 16:42:17.27	123.04	15.78	-49.8	-68.7	3.8	8.47e-01	0	42	104	0	70	32965
2026-01-28 16:42:18.26	122.76	15.68	-49.8	-68.7	3.8	8.47e-01	0	42	104	0	70	32938
2026-01-28 16:42:19.25	122.48	15.57	-49.7	-68.7	3.8	8.47e-01	0	42	104	0	70	32972
2026-01-28 16:42:20.24	122.21	15.47	-49.8	-68.6	3.8	8.48e-01	0	42	104	0	70	32855
2026-01-28 16:42:21.24	121.93	15.37	-49.7	-68.7	3.8	8.48e-01	0	42	104	0	70	32996
2026-01-28 16:42:22.23	121.67	15.27	-49.8	-68.7	3.8	8.47e-01	0	42	104	0	70	32966
2026-01-28 16:42:23.22	121.40	15.16	-49.7	-68.7	3.8	8.47e-01	0	42	104	0	70	33012
2026-01-28 16:42:24.21	121.13	15.06	-49.7	-68.6	3.8	8.47e-01	0	42	104	0	70	32895
2026-01-28 16:42:25.21	120.87	14.96	-49.7	-68.6	3.8	8.47e-01	0	42	104	0	70	32852
2026-01-28 16:42:26.20	120.61	14.86	-49.7	-68.7	3.8	8.47e-01	0	42	104	0	70	32930
2026-01-28 16:42:27.19	120.35	14.76	-49.8	-68.6	3.8	8.47e-01	0	42	104	0	70	32820
2026-01-28 16:42:28.19	120.09	14.66	-49.7	-68.6	3.8	8.46e-01	0	42	104	0	70	32667
2026-01-28 16:42:29.18	119.84	14.55	-49.7	-68.6	3.8	8.46e-01	0	42	104	0	70	32836
2026-01-28 16:42:30.17	119.59	14.45	-49.7	-68.6	3.8	8.47e-01	0	42	104	0	70	32829
2026-01-28 16:42:31.16	119.34	14.35	-49.7	-68.6	3.8	8.47e-01	0	42	104	0	70	32784
2026-01-28 16:42:32.16	119.09	14.25	-49.7	-68.6	3.8	8.47e-01	0	42	104	0	70	32712
2026-01-28 16:42:33.15	118.85	14.15	-49.7	-68.6	3.8	8.48e-01	0	42	104	0	70	32774
2026-01-28 16:42:34.14	118.60	14.05	-49.7	-68.6	3.8	8.48e-01	0	42	104	0	70	32772
2026-01-28 16:42:35.14	118.36	13.95	-49.7	-68.6	3.8	8.47e-01	0	42	104	0	70	32820
2026-01-28 16:42:36.13	118.12	13.85	-49.6	-68.6	3.8	8.45e-01	0	42	104	0	70	32626
2026-01-28 16:42:37.12	117.89	13.75	-49.6	-68.6	3.8	8.45e-01	0	42	104	0	70	32683
2026-01-28 16:42:38.11	117.65	13.65	-49.7	-68.6	3.8	8.47e-01	0	42	104	0	70	32702
2026-01-28 16:42:39.11	117.42	13.55	-49.7	-68.6	3.8	8.47e-01	0	42	104	0	70	32741
2026-01-28 16:42:40.10	117.19	13.45	-49.6	-68.5	3.8	8.47e-01	0	42	104	0	70	32544
2026-01-28 16:42:41.09	116.96	13.36	-49.7	-68.6	3.8	8.46e-01	0	42	104	0	70	32602
2026-01-28 16:42:42.09	116.73	13.26	-49.6	-68.6	3.8	8.46e-01	0	42	104	0	70	32672
2026-01-28 16:42:43.08	116.51	13.16	-49.7	-68.6	3.8	8.46e-01	0	42	104	0	70	32686
2026-01-28 16:42:44.07	116.28	13.06	-49.6	-68.5	3.8	8.48e-01	0	42	104	0	70	32542
2026-01-28 16:42:45.06	116.06	12.96	-49.6	-68.6	3.8	8.48e-01	0	42	104	0	70	32618
2026-01-28 16:42:46.05	115.85	12.87	-49.7	-68.6	3.8	8.48e-01	0	42	104	0	70	32638
2026-01-28 16:42:47.05	115.63	12.77	-49.7	-68.6	3.8	8.47e-01	0	42	104	0	70	32616
2026-01-28 16:42:48.04	115.41	12.67	-49.7	-68.5	3.8	8.46e-01	0	42	104	0	70	32463
2026-01-28 16:42:49.03	115.20	12.57	-49.6	-68.5	3.8	8.46e-01	0	42	104	0	70	32547
2026-01-28 16:42:50.03	114.99	12.48	-49.7	-68.5	3.8	8.48e-01	0	42	104	0	70	32430
2026-01-28 16:42:51.02	114.78	12.38	-49.6	-68.5	3.8	8.46e-01	0	42	104	0	70	32496
2026-01-28 16:42:52.01	114.57	12.28	-49.6	-68.5	3.8	8.46e-01	0	42	104	0	70	32367
2026-01-28 16:42:53.01	114.36	12.19	-49.6	-68.5	3.8	8.46e-01	0	42	104	0	70	32306
2026-01-28 16:42:54.00	114.16	12.09	-49.6	-68.5	3.8	8.47e-01	0	42	104	0	70	32450
2026-01-28 16:42:54.99	113.96	12.00	-49.6	-68.5	3.8	8.47e-01	0	42	104	0	70	32375
2026-01-28 16:42:55.98	113.76	11.90	-49.5	-68.5	3.8	8.47e-01	0	42	104	0	70	32343
2026-01-28 16:42:56.98	113.56	11.81	-49.6	-68.5	3.8	8.47e-01	0	42	104	0	70	32314
2026-01-28 16:42:57.97	113.36	11.71	-49.6	-68.5	3.8	8.47e-01	0	42	104	0	70	32288
2026-01-28 16:42:58.96	113.17	11.62	-49.6	-68.5	3.8	8.47e-01	0	42	104	0	70	32353
2026-01-28 16:42:59.96	112.97	11.53	-49.6	-68.4	3.8	8.48e-01	0	42	104	0	70	32109
2026-01-28 16:43:00.95	112.78	11.43	-49.5	-68.5	3.8	8.48e-01	0	42	104	0	70	32183
2026-01-28 16:43:01.94	112.59	11.34	-49.6	-68.5	3.8	8.48e-01	0	42	104	0	70	32187
2026-01-28 16:43:02.94	112.40	11.25	-49.5	-68.5	3.8	8.47e-01	0	42	104	0	70	32327
2026-01-28 16:43:03.93	112.21	11.15	-49.5	-68.4	3.8	8.47e-01	0	42	104	0	70	32124
2026-01-28 16:43:04.92	112.03	11.06	-49.5	-68.4	3.8	8.47e-01	0	42	104	0	70	32093
2026-01-28 16:43:05.91	111.84	10.97	-49.5	-68.5	3.8	8.47e-01	0	42	104	0	70	32198
2026-01-28 16:43:06.91	111.66	10.88	-49.5	-68.5	3.8	8.46e-01	0	42	104	0	70	32239
2026-01-28 16:43:07.90	111.48	10.78	-49.5	-68.4	3.8	8.46e-01	0	42	104	0	70	32131
2026-01-28 16:43:08.89	111.30	10.69	-49.5	-68.4	3.8	8.47e-01	0	42	104	0	70	32148
2026-01-28 16:43:09.88	111.12	10.60	-49.5	-68.4	3.8	8.46e-01	0	42	104	0	70	31967
2026-01-28 16:43:10.88	110.94	10.51	-49.5	-68.4	3.8	8.46e-01	0	42	104	0	70	32118
2026-01-28 16:43:11.87	110.77	10.42	-49.4	-68.4	3.8	8.47e-01	0	42	104	0	70	31874
2026-01-28 16:43:12.86	110.60	10.33	-49.4	-68.4	3.8	8.46e-01	0	42	104	0	70	32028
2026-01-28 16:43:13.85	110.42	10.24	-49.5	-68.4	3.8	8.46e-01	0	42	104	0	70	32009
2026-01-28 16:43:14.85	110.25	10.15	-49.4	-68.4	3.8	8.47e-01	0	42	104	0	70	32056
2026-01-28 16:43:15.84	110.08	10.06	-49.4	-68.3	3.8	8.46e-01	0	42	104	0	70	31764
2026-01-28 16:43:16.83	109.92	9.98	-49.5	-68.4	3.8	8.45e-01	0	42	104	0	70	31863
2026-01-28 16:43:17.83	109.75	9.89	-49.4	-68.4	3.8	8.45e-01	0	42	104	0	70	31891
2026-01-28 16:43:18.82	109.58	9.80	-49.4	-68.4	3.8	8.47e-01	0	42	104	0	70	31999
2026-01-28 16:43:19.81	109.42	9.71	-49.4	-68.3	3.8	8.47e-01	0	42	104	0	70	31796
2026-01-28 16:43:20.80	109.26	9.62	-49.3	-68.3	3.8	8.47e-01	0	42	104	0	70	31733
2026-01-28 16:43:21.80	109.09	9.53	-49.4	-68.4	3.8	8.47e-01	0	42	104	0	70	31842
2026-01-28 16:43:22.79	108.94	9.45	-49.4	-68.4	3.8	8.46e-01	0	42	104	0	70	31855
2026-01-28 16:43:23.78	108.78	9.36	-49.3	-68.3	3.8	8.46e-01	0	42	104	0	70	31746
2026-01-28 16:43:24.78	108.62	9.27	-49.4	-68.3	3.8	8.47e-01	0	42	104	0	70	31561
2026-01-28 16:43:25.77	108.46	9.19	-49.3	-68.3	3.8	8.46e-01	0	42	104	0	70	31637
2026-01-28 16:43:26.76	108.31	9.10	-49.4	-68.3	3.8	8.46e-01	0	42	104	0	70	31748
2026-01-28 16:43:27.76	108.15	9.02	-49.6	-68.4	3.8	8.47e-01	0	42	104	0	70	32066
2026-01-28 16:43:28.75	108.00	8.93	-49.7	-68.6	3.8	8.46e-01	0	42	104	0	70	32805
2026-01-28 16:43:29.74	107.85	8.85	-49.9	-68.8	3.8	8.46e-01	0	42	104	0	70	33337
2026-01-28 16:43:30.73	107.70	8.76	-49.9	-68.8	3.8	8.47e-01	0	42	104	0	70	33606
2026-01-28 16:43:31.73	107.55	8.68	-50.0	-68.9	3.8	8.47e-01	0	42	104	0	70	33769
2026-01-28 16:43:32.72	107.41	8.59	-50.1	-68.9	3.8	8.47e-01	0	42	104	0	70	34012
2026-01-28 16:43:33.71	107.26	8.51	-50.0	-69.0	3.8	8.46e-01	0	42	104	0	70	34238
2026-01-28 16:43:34.70	107.12	8.43	-49.9	-69.0	3.8	8.47e-01	0	42	104	0	70	34251
2026-01-28 16:43:35.70	106.97	8.34	-49.6	-69.1	3.8	8.47e-01	0	42	104	0	70	34510
2026-01-28 16:43:36.69	106.83	8.26	-49.9	-69.1	3.8	8.47e-01	0	42	104	0	70	34552
2026-01-28 16:43:37.68	106.69	8.18	-50.2	-69.1	3.8	8.47e-01	0	42	104	0	71	32685
2026-01-28 16:43:38.68	106.55	8.09	-50.2	-69.1	3.8	8.47e-01	0	42	104	0	71	32836
2026-01-28 16:43:39.67	106.41	8.01	-50.3	-69.1	3.8	8.47e-01	0	42	104	0	71	32841
2026-01-28 16:43:40.66	106.27	7.93	-50.3	-69.1	3.8	8.47e-01	0	42	104	0	71	32873
2026-01-28 16:43:41.66	106.13	7.85	-50.3	-69.1	3.8	8.47e-01	0	42	104	0	71	32884
2026-01-28 16:43:42.65	105.99	7.77	-50.3	-69.2	3.8	8.47e-01	0	42	104	0	71	33031
2026-01-28 16:43:43.64	105.86	7.69	-50.3	-69.1	3.8	8.48e-01	0	42	104	0	71	32904
2026-01-28 16:43:44.63	105.73	7.61	-50.3	-69.2	3.8	8.46e-01	0	42	104	0	71	33080
2026-01-28 16:43:45.63	105.59	7.53	-50.3	-69.2	3.8	8.46e-01	0	42	104	0	71	33042
2026-01-28 16:43:46.62	105.46	7.45	-50.3	-69.2	3.8	8.46e-01	0	42	104	0	71	33176
2026-01-28 16:43:47.61	105.33	7.37	-50.3	-69.2	3.8	8.47e-01	0	42	104	0	71	33169
2026-01-28 16:43:48.61	105.20	7.29	-50.3	-69.2	3.8	8.47e-01	0	42	104	0	71	33199
2026-01-28 16:43:49.60	105.07	7.21	-50.3	-69.2	3.8	8.47e-01	0	42	104	0	71	33286
2026-01-28 16:43:50.59	104.94	7.13	-50.3	-69.3	3.8	8.47e-01	0	42	104	0	71	33343
2026-01-28 16:43:51.58	104.82	7.05	-50.3	-69.2	3.8	8.47e-01	0	42	104	0	71	33146
2026-01-28 16:43:52.58	104.69	6.97	-50.3	-69.3	3.8	8.47e-01	0	42	104	0	71	33321
2026-01-28 16:43:53.57	104.56	6.89	-50.2	-69.2	3.8	8.48e-01	0	42	104	0	71	33282
2026-01-28 16:43:54.56	104.44	6.81	-50.3	-69.3	3.8	8.48e-01	0	42	104	0	71	33331
2026-01-28 16:43:55.56	104.32	6.74	-50.3	-69.3	3.8	8.48e-01	0	42	104	0	71	33466
2026-01-28 16:43:56.55	104.19	6.66	-50.2	-69.3	3.8	8.48e-01	0	42	104	0	71	33312
2026-01-28 16:43:57.54	104.07	6.58	-50.3	-69.3	3.8	8.48e-01	0	42	104	0	71	33414
2026-01-28 16:43:58.54	103.95	6.50	-50.2	-69.3	3.8	8.47e-01	0	42	104	0	71	33406
2026-01-28 16:43:59.53	103.83	6.43	-50.3	-69.3	3.8	8.46e-01	0	42	104	0	71	33318
2026-01-28 16:44:00.52	103.72	6.35	-50.2	-69.2	3.8	8.48e-01	0	42	104	0	71	33241
2026-01-28 16:44:01.51	103.60	6.28	-50.2	-69.2	3.8	8.48e-01	0	42	104	0	71	33229
2026-01-28 16:44:02.51	103.48	6.20	-50.2	-69.2	3.8	8.46e-01	0	42	104	0	71	33254
2026-01-28 16:44:03.50	103.36	6.12	-50.2	-69.2	3.8	8.48e-01	0	42	104	0	71	33110
2026-01-28 16:44:04.49	103.25	6.05	-50.1	-69.2	3.8	8.48e-01	0	42	104	0	71	33032
2026-01-28 16:44:05.49	103.13	5.97	-49.9	-69.1	3.8	8.47e-01	0	42	104	0	71	32881
2026-01-28 16:44:06.48	103.02	5.90	-50.1	-69.1	3.8	8.47e-01	0	42	104	0	71	32794
2026-01-28 16:44:07.47	102.91	5.82	-50.0	-69.0	3.8	8.47e-01	0	42	104	0	71	32488
2026-01-28 16:44:08.47	102.80	5.75	-50.0	-69.0	3.8	8.46e-01	0	42	104	0	71	32221
2026-01-28 16:44:09.46	102.69	5.67	-49.8	-68.8	3.8	8.47e-01	0	42	104	0	71	31671
2026-01-28 16:44:10.45	102.58	5.60	-49.5	-68.6	3.8	8.47e-01	0	42	104	0	71	30968
2026-01-28 16:44:11.45	102.47	5.53	-49.5	-68.6	3.8	8.46e-01	0	42	104	0	71	30908
2026-01-28 16:44:12.44	102.36	5.45	-49.5	-68.6	3.8	8.46e-01	0	42	104	0	71	30788
2026-01-28 16:44:13.43	102.25	5.38	-49.5	-68.5	3.8	8.46e-01	0	42	104	0	70	32287
2026-01-28 16:44:14.42	102.14	5.31	-49.5	-68.6	3.8	8.47e-01	0	42	104	0	70	32693
2026-01-28 16:44:15.42	102.04	5.23	-49.5	-68.6	3.8	8.47e-01	0	42	104	0	70	32720
2026-01-28 16:44:16.41	101.93	5.16	-49.5	-68.6	3.8	8.47e-01	0	42	104	0	70	32660
2026-01-28 16:44:17.40	101.83	5.09	-49.5	-68.6	3.8	8.46e-01	0	42	104	0	70	32609
2026-01-28 16:44:18.40	101.72	5.02	-49.5	-68.6	3.8	8.46e-01	0	42	104	0	70	32616
2026-01-28 16:44:19.39	101.62	4.95	-49.5	-68.6	3.8	8.46e-01	0	42	104	0	70	32619

#Closed at: 2026-01-28 16:44:20
#Recorded file [0 MB]: D:/Data/31040_260128_193656.dat