passes_logs/2026/01/28/T1/T1__20260128_090306_NOAA_20_JPSS-1_rec.log

#Pass ID: 20260128_090306_NOAA 20 (JPSS-1)
#Satellite: NOAA 20 (JPSS-1)
#Configuration: NOAA 20
#almurnet v.1.7.20251203
#Start time: 2026-01-28 09:03:08

#Version: 2.0.20230620
#Station: T1
#Location: 37.570604 lon 55.790049 lat
#TLE: 1 43013U 17073A   26027.80586608  .00000156  00000+0  94940-4 0  9998
#TLE: 2 43013  98.7647 328.6108 0000947  21.3465 338.7750 14.19541216424550

#Time	Az	El	Level	Level2	SNR	BER	BlckErr	Temp	State	Recorded	gain1	gain2
2026-01-28 09:03:08.98	132.58	5.15	-49.6	-65.1	3.8	1.49e+00	0	41	0	0	70	21787
2026-01-28 09:03:09.97	132.54	5.21	-50.0	-65.1	3.8	1.49e+00	0	41	104	0	71	20663
2026-01-28 09:03:10.97	132.49	5.28	-49.9	-65.1	3.8	1.49e+00	0	41	104	0	71	20630
2026-01-28 09:03:11.96	132.45	5.35	-49.7	-65.1	3.8	1.49e+00	0	41	104	0	71	20633
2026-01-28 09:03:12.96	132.40	5.42	-49.9	-65.1	3.8	1.49e+00	0	41	104	0	70	21862
2026-01-28 09:03:13.95	132.35	5.49	-49.8	-65.1	3.8	1.49e+00	0	41	104	0	70	21838
2026-01-28 09:03:14.95	132.31	5.56	-49.7	-65.0	3.8	1.49e+00	0	41	104	0	70	21751
2026-01-28 09:03:15.94	132.26	5.63	-49.8	-65.0	3.8	1.49e+00	0	41	104	0	70	21741
2026-01-28 09:03:16.94	132.21	5.70	-49.7	-65.0	3.8	1.49e+00	0	41	104	0	70	21563
2026-01-28 09:03:17.93	132.17	5.77	-49.5	-64.9	3.8	1.49e+00	0	41	104	0	70	21465
2026-01-28 09:03:18.93	132.12	5.84	-49.6	-64.9	3.8	1.49e+00	0	41	104	0	70	21506
2026-01-28 09:03:19.92	132.07	5.91	-49.7	-64.9	3.8	1.49e+00	0	41	104	0	70	21262
2026-01-28 09:03:20.92	132.02	5.98	-49.6	-64.8	3.8	1.49e+00	0	41	104	0	70	21187
2026-01-28 09:03:21.91	131.97	6.05	-49.5	-64.8	3.8	1.49e+00	0	41	104	0	70	21163
2026-01-28 09:03:22.91	131.93	6.12	-49.5	-64.7	3.8	1.49e+00	0	41	104	0	70	20945
2026-01-28 09:03:23.90	131.88	6.19	-49.4	-64.6	3.8	1.49e+00	0	42	104	0	70	20620
2026-01-28 09:03:24.90	131.83	6.26	-49.1	-63.9	3.8	1.49e+00	0	41	104	0	70	19108
2026-01-28 09:03:25.89	131.78	6.33	-49.0	-64.0	3.8	1.49e+00	0	41	104	0	70	19229
2026-01-28 09:03:26.88	131.73	6.40	-49.0	-64.0	3.8	1.49e+00	0	42	104	0	70	19288
2026-01-28 09:03:27.88	131.68	6.48	-49.0	-64.1	3.8	1.49e+00	0	42	104	0	70	19416
2026-01-28 09:03:28.87	131.63	6.55	-49.0	-64.1	3.8	1.49e+00	0	42	104	0	70	19529
2026-01-28 09:03:29.86	131.58	6.62	-49.0	-64.2	3.8	1.49e+00	0	42	104	0	70	19709
2026-01-28 09:03:30.86	131.53	6.69	-49.0	-64.2	3.8	1.49e+00	0	42	104	0	70	19732
2026-01-28 09:03:31.85	131.48	6.76	-49.0	-64.2	3.8	1.49e+00	0	42	104	0	70	19768
2026-01-28 09:03:32.85	131.43	6.84	-49.0	-64.2	3.8	1.49e+00	0	42	104	0	70	19683
2026-01-28 09:03:33.84	131.38	6.91	-49.0	-64.1	3.8	1.49e+00	0	42	104	0	70	19459
2026-01-28 09:03:34.84	131.32	6.98	-49.0	-64.0	3.8	1.49e+00	0	42	104	0	70	19207
2026-01-28 09:03:35.84	131.27	7.06	-48.9	-63.9	3.8	1.49e+00	0	42	104	0	69	20075
2026-01-28 09:03:36.83	131.22	7.13	-49.0	-63.8	3.8	1.49e+00	0	42	104	0	69	19957
2026-01-28 09:03:37.82	131.17	7.20	-49.0	-63.7	3.8	1.49e+00	0	42	104	0	69	19804
2026-01-28 09:03:38.82	131.11	7.28	-48.9	-63.6	3.8	1.49e+00	0	42	104	0	69	19434
2026-01-28 09:03:39.81	131.06	7.35	-48.9	-63.1	3.8	1.49e+00	0	42	104	0	69	18373
2026-01-28 09:03:40.81	131.01	7.42	-48.8	-62.1	3.8	1.49e+00	0	42	104	0	69	16370
2026-01-28 09:03:41.80	130.95	7.50	-48.7	-60.4	4.3	1.40e+00	0	42	0	0	69	13489
2026-01-28 09:03:42.80	130.90	7.57	-48.5	-58.4	5.1	8.57e-01	0	42	0	1048576	69	10755
2026-01-28 09:03:43.79	130.85	7.65	-48.2	-56.4	6.6	3.95e-01	0	42	0	3145728	68	9057
2026-01-28 09:03:44.79	130.79	7.72	-47.6	-54.6	8.2	1.45e-01	0	42	0	5242880	67	7742
2026-01-28 09:03:45.78	130.74	7.80	-47.1	-53.1	9.7	1.89e-02	0	42	0	6291456	66	6936
2026-01-28 09:03:46.78	130.68	7.87	-46.5	-51.6	11.3	2.81e-03	0	42	0	8388608	65	6136
2026-01-28 09:03:47.77	130.63	7.95	-46.0	-50.3	12.7	3.86e-04	0	42	0	10485760	63	5977
2026-01-28 09:03:48.77	130.57	8.02	-45.5	-49.5	13.6	1.22e-05	0	42	0	12582912	63	5423
2026-01-28 09:03:49.76	130.51	8.10	-45.1	-48.7	14.3	2.20e-06	0	42	0	14680064	62	5272
2026-01-28 09:03:50.76	130.46	8.18	-44.8	-48.3	14.7	0.00e+00	0	42	0	15728640	61	5330
2026-01-28 09:03:51.75	130.40	8.25	-44.6	-48.0	15.0	0.00e+00	0	42	0	17825792	61	5141
2026-01-28 09:03:52.75	130.34	8.33	-44.5	-47.9	15.2	0.00e+00	0	42	0	19922944	61	5057
2026-01-28 09:03:53.74	130.29	8.41	-44.8	-48.3	14.8	0.00e+00	0	42	0	22020096	61	5305
2026-01-28 09:03:54.73	130.23	8.48	-45.0	-48.6	14.4	0.00e+00	0	42	0	23068672	61	5520
2026-01-28 09:03:55.73	130.17	8.56	-45.4	-49.3	13.8	7.00e-07	0	42	0	25165824	61	5942
2026-01-28 09:03:56.72	130.11	8.64	-46.0	-50.4	12.7	3.58e-05	0	42	0	27262976	62	6369
2026-01-28 09:03:57.72	130.06	8.71	-46.6	-51.6	11.4	3.87e-04	0	42	0	29360128	63	6953
2026-01-28 09:03:58.72	130.00	8.79	-47.1	-53.1	9.7	3.62e-03	0	42	0	31457280	64	7803
2026-01-28 09:03:59.72	129.94	8.87	-47.7	-54.9	7.9	5.30e-02	0	42	0	32505856	65	9060
2026-01-28 09:04:00.71	129.88	8.95	-48.1	-57.0	6.1	2.10e-01	0	42	0	34603008	66	10803
2026-01-28 09:04:01.70	129.82	9.03	-48.5	-59.1	4.7	5.54e-01	0	42	0	36700160	67	13084
2026-01-28 09:04:02.69	129.76	9.10	-46.2	-50.8	11.9	1.13e+00	0	42	0	38797312	64	5981
2026-01-28 09:04:03.69	129.70	9.18	-48.0	-55.8	7.3	5.55e-03	0	43	0	39845888	66	9478
2026-01-28 09:04:04.68	129.64	9.26	-48.6	-59.7	4.5	8.45e-01	0	42	0	41943040	67	13967
2026-01-28 09:04:05.68	129.58	9.34	-47.0	-52.4	10.3	1.35e+00	0	42	0	41943040	66	6419
2026-01-28 09:04:06.67	129.52	9.42	-48.9	-61.3	4.2	2.17e-03	0	42	0	42991616	68	15933
2026-01-28 09:04:07.67	129.45	9.50	-48.0	-55.2	7.5	1.39e+00	0	43	104	42991616	68	7895
2026-01-28 09:04:08.66	129.39	9.58	-46.8	-52.1	10.9	1.76e-03	0	43	0	44040192	65	6505
2026-01-28 09:04:09.65	129.33	9.66	-46.7	-51.9	11.2	2.02e-03	0	43	0	46137344	65	6381
2026-01-28 09:04:10.65	129.27	9.74	-46.5	-51.4	11.7	8.98e-04	0	43	0	48234496	64	6348
2026-01-28 09:04:11.64	129.20	9.82	-46.2	-50.8	12.3	3.32e-04	0	43	0	50331648	64	5941
2026-01-28 09:04:12.64	129.14	9.90	-46.1	-50.5	12.6	1.23e-04	0	43	0	51380224	64	5753
2026-01-28 09:04:13.63	129.08	9.98	-46.0	-50.4	12.7	1.04e-04	0	43	0	53477376	64	5658
2026-01-28 09:04:14.62	129.01	10.06	-46.0	-50.3	12.7	1.16e-04	0	43	0	55574528	64	5655
2026-01-28 09:04:15.62	128.95	10.14	-46.1	-50.5	12.7	2.97e-05	0	43	0	57671680	63	6070
2026-01-28 09:04:16.61	128.88	10.23	-46.2	-50.6	12.6	6.40e-05	0	43	0	58720256	63	6152
2026-01-28 09:04:17.61	128.82	10.31	-46.1	-50.5	12.7	5.18e-05	0	43	0	60817408	63	6092
2026-01-28 09:04:18.61	128.75	10.39	-46.1	-50.6	12.6	7.24e-05	0	43	0	62914560	63	6139
2026-01-28 09:04:19.61	128.68	10.47	-45.6	-49.7	13.5	2.13e-05	0	43	0	65011712	63	5569
2026-01-28 09:04:20.60	128.62	10.56	-45.2	-48.9	14.4	2.20e-06	0	43	0	67108864	62	5365
2026-01-28 09:04:21.60	128.55	10.64	-44.7	-48.2	15.1	7.00e-07	0	43	0	68157440	61	5235
2026-01-28 09:04:22.59	128.48	10.72	-44.4	-47.6	15.6	0.00e+00	0	43	0	70254592	60	5214
2026-01-28 09:04:23.59	128.41	10.81	-44.3	-47.5	15.8	0.00e+00	0	43	0	72351744	60	5131
2026-01-28 09:04:24.58	128.35	10.89	-44.2	-47.4	15.9	0.00e+00	0	43	0	74448896	60	5054
2026-01-28 09:04:25.57	128.28	10.97	-44.0	-47.2	16.1	0.00e+00	0	43	0	75497472	60	4943
2026-01-28 09:04:26.57	128.21	11.06	-44.1	-47.3	15.9	0.00e+00	0	43	0	77594624	60	5020
2026-01-28 09:04:27.56	128.14	11.14	-44.2	-47.4	15.9	0.00e+00	0	43	0	79691776	60	5058
2026-01-28 09:04:28.56	128.07	11.23	-44.2	-47.4	15.8	0.00e+00	0	43	0	81788928	60	5093
2026-01-28 09:04:29.55	128.00	11.31	-44.2	-47.4	15.9	0.00e+00	0	43	0	83886080	60	5073
2026-01-28 09:04:30.55	127.93	11.40	-44.2	-47.3	16.0	0.00e+00	0	43	0	84934656	60	4998
2026-01-28 09:04:31.54	127.86	11.48	-43.9	-46.8	16.4	0.00e+00	0	43	0	87031808	59	5038
2026-01-28 09:04:32.54	127.79	11.57	-43.8	-46.7	16.5	0.00e+00	0	43	0	89128960	59	4977
2026-01-28 09:04:33.53	127.71	11.65	-43.8	-46.7	16.6	0.00e+00	0	43	0	91226112	59	4972
2026-01-28 09:04:34.52	127.64	11.74	-43.8	-46.7	16.6	0.00e+00	0	43	0	92274688	59	4937
2026-01-28 09:04:35.52	127.57	11.82	-43.7	-46.5	16.7	0.00e+00	0	43	0	94371840	59	4862
2026-01-28 09:04:36.51	127.50	11.91	-43.9	-46.7	16.6	0.00e+00	0	43	0	96468992	59	4965
2026-01-28 09:04:37.51	127.42	12.00	-43.8	-46.7	16.6	0.00e+00	0	43	0	98566144	59	4949
2026-01-28 09:04:38.50	127.35	12.08	-43.9	-46.8	16.5	0.00e+00	0	43	0	100663296	59	5029
2026-01-28 09:04:39.49	127.27	12.17	-44.0	-46.9	16.4	0.00e+00	0	43	0	101711872	59	5050
2026-01-28 09:04:40.49	127.20	12.26	-44.0	-47.0	16.4	0.00e+00	0	43	0	103809024	59	5106
2026-01-28 09:04:41.49	127.12	12.35	-44.0	-46.9	16.4	0.00e+00	0	43	0	105906176	59	5083
2026-01-28 09:04:42.48	127.05	12.44	-43.8	-46.7	16.6	0.00e+00	0	43	0	108003328	59	4943
2026-01-28 09:04:43.47	126.97	12.52	-43.8	-46.7	16.6	0.00e+00	0	43	0	109051904	59	4929
2026-01-28 09:04:44.47	126.89	12.61	-43.6	-46.3	17.0	0.00e+00	0	43	0	111149056	59	4733
2026-01-28 09:04:45.46	126.82	12.70	-43.5	-46.1	17.2	0.00e+00	0	43	0	113246208	59	4632
2026-01-28 09:04:46.46	126.74	12.79	-43.4	-46.0	17.3	0.00e+00	0	43	0	115343360	58	4846
2026-01-28 09:04:47.45	126.66	12.88	-43.3	-45.9	17.4	0.00e+00	0	43	0	117440512	58	4813
2026-01-28 09:04:48.45	126.58	12.97	-43.4	-46.1	17.2	0.00e+00	0	43	0	118489088	58	4872
2026-01-28 09:04:49.44	126.50	13.06	-43.7	-46.5	16.8	0.00e+00	0	43	0	120586240	58	5143
2026-01-28 09:04:50.43	126.42	13.15	-43.8	-46.7	16.7	0.00e+00	0	43	0	122683392	58	5228
2026-01-28 09:04:51.43	126.34	13.24	-43.9	-46.8	16.5	0.00e+00	0	43	0	124780544	58	5327
2026-01-28 09:04:52.42	126.26	13.33	-44.0	-46.9	16.5	0.00e+00	0	43	0	125829120	58	5350
2026-01-28 09:04:53.42	126.18	13.42	-43.9	-46.8	16.6	0.00e+00	0	43	0	127926272	58	5293
2026-01-28 09:04:54.41	126.10	13.51	-43.7	-46.5	16.9	0.00e+00	0	43	0	130023424	58	5124
2026-01-28 09:04:55.41	126.01	13.61	-43.5	-46.2	17.1	0.00e+00	0	43	0	132120576	58	4973
2026-01-28 09:04:56.41	125.93	13.70	-43.4	-46.0	17.3	0.00e+00	0	43	0	134217728	58	4851
2026-01-28 09:04:57.40	125.85	13.79	-43.3	-45.9	17.5	0.00e+00	0	43	0	135266304	58	4768
2026-01-28 09:04:58.39	125.76	13.88	-43.2	-45.8	17.6	0.00e+00	0	43	0	137363456	58	4707
2026-01-28 09:04:59.38	125.68	13.98	-43.3	-45.9	17.4	0.00e+00	0	43	0	139460608	58	4814
2026-01-28 09:05:00.38	125.59	14.07	-43.5	-46.3	17.1	0.00e+00	0	43	0	141557760	58	4991
2026-01-28 09:05:01.37	125.51	14.16	-43.7	-46.5	16.8	0.00e+00	0	43	0	142606336	58	5148
2026-01-28 09:05:02.37	125.42	14.26	-43.8	-46.7	16.7	0.00e+00	0	43	0	144703488	58	5258
2026-01-28 09:05:03.37	125.34	14.35	-43.9	-46.8	16.6	0.00e+00	0	43	0	146800640	58	5292
2026-01-28 09:05:04.36	125.25	14.45	-43.7	-46.6	16.8	0.00e+00	0	43	0	148897792	58	5162
2026-01-28 09:05:05.36	125.16	14.54	-43.6	-46.3	17.1	0.00e+00	0	43	0	150994944	58	5014
2026-01-28 09:05:06.35	125.07	14.64	-43.2	-45.8	17.5	0.00e+00	0	43	0	152043520	58	4747
2026-01-28 09:05:07.34	124.98	14.73	-43.2	-45.8	17.6	0.00e+00	0	43	0	154140672	58	4725
2026-01-28 09:05:08.34	124.89	14.83	-43.2	-45.8	17.6	0.00e+00	0	43	0	156237824	58	4707
2026-01-28 09:05:09.33	124.80	14.92	-43.3	-46.0	17.4	0.00e+00	0	43	0	158334976	58	4854
2026-01-28 09:05:10.33	124.71	15.02	-43.6	-46.4	17.0	0.00e+00	0	43	0	159383552	58	5059
2026-01-28 09:05:11.32	124.62	15.12	-43.5	-46.3	17.1	0.00e+00	0	43	0	161480704	58	4997
2026-01-28 09:05:12.32	124.53	15.21	-43.5	-46.2	17.2	0.00e+00	0	43	0	163577856	58	4974
2026-01-28 09:05:13.32	124.44	15.31	-43.4	-46.1	17.3	0.00e+00	0	43	0	165675008	58	4875
2026-01-28 09:05:14.32	124.34	15.41	-43.2	-45.8	17.6	0.00e+00	0	43	0	167772160	58	4724
2026-01-28 09:05:15.31	124.25	15.51	-43.0	-45.5	17.9	0.00e+00	0	43	0	168820736	58	4594
2026-01-28 09:05:16.31	124.15	15.60	-42.8	-45.3	18.1	0.00e+00	0	43	0	170917888	57	4721
2026-01-28 09:05:17.30	124.06	15.70	-42.8	-45.3	18.1	0.00e+00	0	43	0	173015040	57	4743
2026-01-28 09:05:18.29	123.96	15.80	-42.9	-45.5	17.9	0.00e+00	0	43	0	175112192	57	4825
2026-01-28 09:05:19.28	123.87	15.90	-43.1	-45.7	17.7	0.00e+00	0	43	0	176160768	57	4960
2026-01-28 09:05:20.28	123.77	16.00	-43.2	-45.8	17.6	0.00e+00	0	43	0	178257920	57	5023
2026-01-28 09:05:21.28	123.67	16.10	-43.3	-46.0	17.4	0.00e+00	0	43	0	180355072	57	5131
2026-01-28 09:05:22.27	123.57	16.20	-43.4	-46.0	17.3	0.00e+00	0	43	0	182452224	57	5159
2026-01-28 09:05:23.27	123.47	16.30	-43.2	-45.8	17.6	0.00e+00	0	43	0	184549376	57	5022
2026-01-28 09:05:24.26	123.37	16.40	-43.1	-45.6	17.8	0.00e+00	0	43	0	185597952	57	4914
2026-01-28 09:05:25.26	123.27	16.50	-43.0	-45.5	17.9	0.00e+00	0	43	0	187695104	57	4859
2026-01-28 09:05:26.25	123.17	16.60	-43.1	-45.6	17.8	0.00e+00	0	43	0	189792256	57	4896
2026-01-28 09:05:27.25	123.07	16.70	-43.1	-45.6	17.8	0.00e+00	0	43	0	191889408	57	4892
2026-01-28 09:05:28.25	122.97	16.81	-43.1	-45.7	17.7	0.00e+00	0	43	0	193986560	57	4947
2026-01-28 09:05:29.25	122.86	16.91	-43.2	-45.8	17.6	0.00e+00	0	43	0	195035136	57	4996
2026-01-28 09:05:30.24	122.76	17.01	-43.2	-45.8	17.7	0.00e+00	0	43	0	197132288	57	4992
2026-01-28 09:05:31.24	122.65	17.12	-43.1	-45.7	17.8	0.00e+00	0	43	0	199229440	57	4938
2026-01-28 09:05:32.23	122.55	17.22	-43.0	-45.5	17.9	0.00e+00	0	43	0	201326592	57	4868
2026-01-28 09:05:33.23	122.44	17.32	-43.1	-45.6	17.8	0.00e+00	0	43	0	202375168	57	4903
2026-01-28 09:05:34.22	122.33	17.43	-43.0	-45.6	17.8	0.00e+00	0	43	0	204472320	57	4893
2026-01-28 09:05:35.21	122.23	17.53	-43.2	-45.8	17.7	0.00e+00	0	43	0	206569472	57	4989
2026-01-28 09:05:36.20	122.12	17.63	-43.1	-45.6	17.8	0.00e+00	0	43	0	208666624	57	4921
2026-01-28 09:05:37.19	122.01	17.74	-43.1	-45.6	17.8	0.00e+00	0	43	0	210763776	57	4915
2026-01-28 09:05:38.19	121.90	17.84	-43.0	-45.6	17.9	0.00e+00	0	43	0	211812352	57	4876
2026-01-28 09:05:39.18	121.79	17.95	-43.0	-45.6	17.9	0.00e+00	0	43	0	213909504	57	4886
2026-01-28 09:05:40.17	121.68	18.05	-43.1	-45.7	17.8	0.00e+00	0	43	0	216006656	57	4948
2026-01-28 09:05:41.16	121.57	18.16	-43.2	-45.9	17.6	0.00e+00	0	43	0	218103808	57	5042
2026-01-28 09:05:42.16	121.45	18.27	-43.2	-45.9	17.6	0.00e+00	0	43	0	219152384	57	5048
2026-01-28 09:05:43.15	121.34	18.37	-43.2	-45.8	17.7	0.00e+00	0	43	0	221249536	57	4992
2026-01-28 09:05:44.14	121.22	18.48	-43.1	-45.7	17.8	0.00e+00	0	43	0	223346688	57	4936
2026-01-28 09:05:45.13	121.11	18.59	-43.1	-45.6	17.9	0.00e+00	0	43	0	225443840	57	4912
2026-01-28 09:05:46.13	120.99	18.70	-42.9	-45.5	18.0	0.00e+00	0	43	0	226492416	57	4815
2026-01-28 09:05:47.12	120.88	18.81	-43.1	-45.6	17.9	0.00e+00	0	43	0	228589568	57	4894
2026-01-28 09:05:48.12	120.76	18.91	-43.1	-45.6	17.8	0.00e+00	0	43	0	230686720	57	4905
2026-01-28 09:05:49.11	120.64	19.02	-43.1	-45.6	17.8	0.00e+00	0	43	0	232783872	57	4924
2026-01-28 09:05:50.10	120.52	19.13	-43.1	-45.7	17.8	0.00e+00	0	44	0	234881024	57	4929
2026-01-28 09:05:51.10	120.40	19.24	-43.1	-45.6	17.9	0.00e+00	0	43	0	235929600	57	4922
2026-01-28 09:05:52.09	120.28	19.35	-43.1	-45.6	17.9	0.00e+00	0	43	0	238026752	57	4922
2026-01-28 09:05:53.08	120.15	19.46	-43.1	-45.6	17.9	0.00e+00	0	43	0	240123904	57	4906
2026-01-28 09:05:54.08	120.03	19.57	-43.2	-45.8	17.7	0.00e+00	0	43	0	242221056	57	4992
2026-01-28 09:05:55.08	119.90	19.69	-43.2	-45.8	17.7	0.00e+00	0	43	0	243269632	57	5021
2026-01-28 09:05:56.07	119.78	19.80	-43.3	-46.0	17.5	0.00e+00	0	43	0	245366784	57	5106
2026-01-28 09:05:57.07	119.65	19.91	-43.3	-45.8	17.6	0.00e+00	0	43	0	247463936	57	5041
2026-01-28 09:05:58.06	119.53	20.02	-43.1	-45.6	17.9	0.00e+00	0	43	0	249561088	57	4896
2026-01-28 09:05:59.05	119.40	20.13	-43.0	-45.5	17.9	0.00e+00	0	43	0	251658240	57	4860
2026-01-28 09:06:00.04	119.27	20.25	-43.0	-45.5	17.9	0.00e+00	0	43	0	252706816	57	4869
2026-01-28 09:06:01.04	119.14	20.36	-43.1	-45.6	17.9	0.00e+00	0	43	0	254803968	57	4909
2026-01-28 09:06:02.03	119.01	20.47	-43.2	-45.8	17.7	0.00e+00	0	43	0	256901120	57	5036
2026-01-28 09:06:03.03	118.88	20.59	-43.3	-45.9	17.6	0.00e+00	0	43	0	258998272	57	5084
2026-01-28 09:06:04.02	118.74	20.70	-43.3	-45.9	17.6	0.00e+00	0	43	0	260046848	57	5081
2026-01-28 09:06:05.01	118.61	20.82	-43.3	-45.9	17.6	0.00e+00	0	43	0	262144000	57	5091
2026-01-28 09:06:06.01	118.47	20.93	-43.3	-45.9	17.6	0.00e+00	0	43	0	264241152	57	5094
2026-01-28 09:06:07.00	118.34	21.05	-43.3	-45.9	17.6	0.00e+00	0	43	0	266338304	57	5083
2026-01-28 09:06:07.99	118.20	21.16	-43.4	-46.0	17.5	0.00e+00	0	43	0	268435456	57	5157
2026-01-28 09:06:08.99	118.06	21.28	-43.5	-46.2	17.3	0.00e+00	0	43	0	269484032	57	5248
2026-01-28 09:06:09.98	117.92	21.39	-43.5	-46.3	17.3	0.00e+00	0	43	0	271581184	57	5284
2026-01-28 09:06:10.98	117.78	21.51	-43.4	-46.0	17.5	0.00e+00	0	43	0	273678336	57	5148
2026-01-28 09:06:11.97	117.64	21.63	-43.4	-46.1	17.4	0.00e+00	0	43	0	275775488	57	5164
2026-01-28 09:06:12.97	117.50	21.75	-43.4	-46.1	17.5	0.00e+00	0	43	0	276824064	57	5172
2026-01-28 09:06:13.97	117.35	21.87	-43.5	-46.2	17.3	0.00e+00	0	43	0	278921216	57	5273
2026-01-28 09:06:14.97	117.21	21.98	-43.6	-46.4	17.2	0.00e+00	0	43	0	281018368	57	5358
2026-01-28 09:06:15.96	117.06	22.10	-43.7	-46.4	17.1	0.00e+00	0	43	0	283115520	58	5092
2026-01-28 09:06:16.96	116.92	22.22	-43.5	-46.1	17.4	0.00e+00	0	43	0	285212672	58	4923
2026-01-28 09:06:17.96	116.77	22.34	-43.4	-46.0	17.5	0.00e+00	0	43	0	286261248	58	4849
2026-01-28 09:06:18.96	116.62	22.46	-43.5	-46.1	17.4	0.00e+00	0	43	0	288358400	58	4919
2026-01-28 09:06:19.95	116.47	22.58	-43.6	-46.3	17.3	0.00e+00	0	43	0	290455552	58	5011
2026-01-28 09:06:20.95	116.31	22.70	-43.7	-46.4	17.2	0.00e+00	0	43	0	292552704	58	5057
2026-01-28 09:06:21.95	116.16	22.83	-43.6	-46.3	17.3	0.00e+00	0	43	0	294649856	58	4993
2026-01-28 09:06:22.95	116.00	22.95	-43.5	-46.2	17.4	0.00e+00	0	43	0	295698432	58	4939
2026-01-28 09:06:23.95	115.85	23.07	-43.5	-46.2	17.4	0.00e+00	0	43	0	297795584	58	4944
2026-01-28 09:06:24.95	115.69	23.19	-43.5	-46.2	17.4	0.00e+00	0	43	0	299892736	58	4928
2026-01-28 09:06:25.94	115.53	23.31	-43.6	-46.2	17.4	0.00e+00	0	43	0	301989888	58	4945
2026-01-28 09:06:26.94	115.37	23.44	-43.6	-46.3	17.3	0.00e+00	0	43	0	303038464	58	5013
2026-01-28 09:06:27.94	115.21	23.56	-43.4	-46.0	17.5	0.00e+00	0	43	0	305135616	58	4867
2026-01-28 09:06:28.94	115.05	23.68	-43.4	-46.0	17.6	0.00e+00	0	43	0	307232768	58	4851
2026-01-28 09:06:29.94	114.89	23.81	-43.5	-46.1	17.4	0.00e+00	0	43	0	309329920	58	4903
2026-01-28 09:06:30.93	114.72	23.93	-43.5	-46.2	17.4	0.00e+00	0	43	0	311427072	58	4933
2026-01-28 09:06:31.92	114.56	24.06	-43.5	-46.2	17.4	0.00e+00	0	43	0	312475648	58	4957
2026-01-28 09:06:32.92	114.39	24.18	-43.5	-46.1	17.5	0.00e+00	0	43	0	314572800	58	4898
2026-01-28 09:06:33.91	114.22	24.30	-43.5	-46.1	17.5	0.00e+00	0	43	0	316669952	58	4889
2026-01-28 09:06:34.91	114.05	24.43	-43.4	-46.0	17.6	0.00e+00	0	43	0	318767104	58	4841
2026-01-28 09:06:35.91	113.88	24.56	-43.2	-45.8	17.7	0.00e+00	0	43	0	319815680	58	4759
2026-01-28 09:06:36.90	113.71	24.68	-43.2	-45.8	17.8	0.00e+00	0	43	0	321912832	58	4754
2026-01-28 09:06:37.90	113.53	24.81	-43.3	-46.0	17.6	0.00e+00	0	43	0	324009984	58	4838
2026-01-28 09:06:38.90	113.36	24.94	-43.4	-46.1	17.5	0.00e+00	0	43	0	326107136	58	4904
2026-01-28 09:06:39.90	113.18	25.06	-43.4	-46.1	17.5	0.00e+00	0	43	0	328204288	58	4916
2026-01-28 09:06:40.90	113.00	25.19	-43.4	-46.1	17.5	0.00e+00	0	43	0	329252864	58	4882
2026-01-28 09:06:41.90	112.82	25.32	-43.4	-46.1	17.5	0.00e+00	0	43	0	331350016	58	4877
2026-01-28 09:06:42.89	112.64	25.45	-43.4	-46.1	17.5	0.00e+00	0	43	0	333447168	58	4901
2026-01-28 09:06:43.89	112.46	25.57	-43.6	-46.4	17.3	0.00e+00	0	43	0	335544320	58	5053
2026-01-28 09:06:44.88	112.27	25.70	-43.8	-46.5	17.1	0.00e+00	0	43	0	336592896	58	5132
2026-01-28 09:06:45.88	112.09	25.83	-43.8	-46.6	17.1	0.00e+00	0	43	0	338690048	58	5160
2026-01-28 09:06:46.88	111.90	25.96	-43.8	-46.6	17.1	0.00e+00	0	43	0	340787200	58	5168
2026-01-28 09:06:47.88	111.71	26.09	-43.8	-46.5	17.1	0.00e+00	0	43	0	342884352	58	5151
2026-01-28 09:06:48.87	111.52	26.22	-43.8	-46.5	17.1	0.00e+00	0	43	0	344981504	58	5145
2026-01-28 09:06:49.87	111.33	26.35	-43.9	-46.7	17.0	0.00e+00	0	43	0	346030080	58	5229
2026-01-28 09:06:50.86	111.14	26.48	-44.1	-47.0	16.6	0.00e+00	0	43	0	348127232	58	5426
2026-01-28 09:06:51.86	110.94	26.61	-44.2	-47.1	16.5	0.00e+00	0	43	0	350224384	59	5181
2026-01-28 09:06:52.85	110.74	26.74	-44.2	-47.0	16.5	0.00e+00	0	43	0	352321536	59	5154
2026-01-28 09:06:53.86	110.54	26.87	-44.2	-47.0	16.6	0.00e+00	0	43	0	354418688	59	5129
2026-01-28 09:06:54.85	110.34	27.00	-44.4	-47.3	16.4	0.00e+00	0	43	0	355467264	59	5309
2026-01-28 09:06:55.85	110.14	27.14	-44.5	-47.5	16.1	0.00e+00	0	43	0	357564416	59	5448
2026-01-28 09:06:56.85	109.94	27.27	-44.6	-47.6	16.0	0.00e+00	0	43	0	359661568	59	5503
2026-01-28 09:06:57.84	109.73	27.40	-44.7	-47.8	15.9	0.00e+00	0	44	0	361758720	60	5289
2026-01-28 09:06:58.84	109.53	27.53	-44.8	-47.9	15.7	0.00e+00	0	43	0	363855872	60	5389
2026-01-28 09:06:59.84	109.32	27.66	-45.0	-48.2	15.5	0.00e+00	0	43	0	364904448	60	5562
2026-01-28 09:07:00.84	109.10	27.80	-45.1	-48.4	15.3	0.00e+00	0	43	0	367001600	61	5351
2026-01-28 09:07:01.84	108.89	27.93	-45.2	-48.5	15.2	0.00e+00	0	43	0	369098752	61	5420
2026-01-28 09:07:02.83	108.68	28.06	-45.1	-48.4	15.3	0.00e+00	0	43	0	371195904	61	5379
2026-01-28 09:07:03.83	108.46	28.20	-45.1	-48.4	15.3	0.00e+00	0	43	0	372244480	61	5371
2026-01-28 09:07:04.82	108.25	28.33	-45.1	-48.4	15.2	0.00e+00	0	43	0	374341632	61	5386
2026-01-28 09:07:05.82	108.03	28.46	-45.1	-48.5	15.1	0.00e+00	0	43	0	376438784	61	5434
2026-01-28 09:07:06.82	107.80	28.60	-45.2	-48.6	15.1	0.00e+00	0	43	0	378535936	61	5493
2026-01-28 09:07:07.81	107.58	28.73	-45.3	-48.7	15.0	7.00e-07	0	44	0	380633088	61	5550
2026-01-28 09:07:08.81	107.36	28.86	-45.2	-48.5	15.2	0.00e+00	0	44	0	381681664	61	5434
2026-01-28 09:07:09.80	107.13	29.00	-45.3	-48.6	15.1	7.00e-07	0	43	0	383778816	61	5493
2026-01-28 09:07:10.80	106.90	29.13	-45.2	-48.6	15.2	0.00e+00	0	44	0	385875968	61	5477
2026-01-28 09:07:11.80	106.67	29.27	-45.3	-48.7	15.1	0.00e+00	0	43	0	387973120	61	5530
2026-01-28 09:07:12.79	106.44	29.40	-45.3	-48.7	15.0	0.00e+00	0	43	0	389021696	61	5565
2026-01-28 09:07:13.79	106.20	29.54	-45.2	-48.5	15.2	0.00e+00	0	43	0	391118848	61	5443
2026-01-28 09:07:14.78	105.97	29.67	-45.2	-48.6	15.1	0.00e+00	0	43	0	393216000	61	5477
2026-01-28 09:07:15.78	105.73	29.80	-45.3	-48.6	15.1	0.00e+00	0	43	0	395313152	61	5496
2026-01-28 09:07:16.78	105.49	29.94	-45.3	-48.7	15.0	0.00e+00	0	43	0	397410304	61	5560
2026-01-28 09:07:17.78	105.24	30.08	-45.2	-48.6	15.1	0.00e+00	0	43	0	398458880	61	5487
2026-01-28 09:07:18.78	105.00	30.21	-45.1	-48.4	15.3	0.00e+00	0	43	0	400556032	61	5402
2026-01-28 09:07:19.77	104.75	30.34	-45.3	-48.7	15.1	0.00e+00	0	43	0	402653184	61	5540
2026-01-28 09:07:20.77	104.50	30.48	-45.3	-48.8	14.9	0.00e+00	0	43	0	404750336	61	5610
2026-01-28 09:07:21.77	104.25	30.62	-45.7	-49.4	14.3	0.00e+00	0	43	0	405798912	62	5665
2026-01-28 09:07:22.77	104.00	30.75	-45.8	-49.5	14.3	2.20e-06	0	43	0	407896064	62	5739
2026-01-28 09:07:23.77	103.74	30.89	-46.0	-49.7	14.0	7.00e-07	0	43	0	409993216	62	5885
2026-01-28 09:07:24.76	103.48	31.02	-46.0	-49.7	14.0	2.20e-06	0	43	0	412090368	62	5903
2026-01-28 09:07:25.76	103.22	31.16	-46.2	-50.0	13.7	2.20e-06	0	43	0	414187520	62	6121
2026-01-28 09:07:26.76	102.96	31.29	-45.9	-49.6	14.1	7.00e-07	0	43	0	415236096	62	5853
2026-01-28 09:07:27.75	102.70	31.43	-45.7	-49.3	14.4	1.50e-06	0	43	0	417333248	62	5636
2026-01-28 09:07:28.75	102.43	31.56	-45.6	-49.1	14.6	1.50e-06	0	44	0	419430400	62	5493
2026-01-28 09:07:29.75	102.16	31.70	-45.4	-48.9	14.9	0.00e+00	0	43	0	421527552	62	5345
2026-01-28 09:07:30.75	101.89	31.83	-45.3	-48.7	15.0	0.00e+00	0	43	0	423624704	62	5254
2026-01-28 09:07:31.74	101.62	31.96	-45.2	-48.5	15.2	0.00e+00	0	43	0	424673280	62	5121
2026-01-28 09:07:32.75	101.34	32.10	-45.1	-48.4	15.3	0.00e+00	0	43	0	426770432	62	5081
2026-01-28 09:07:33.75	101.06	32.24	-44.9	-48.0	15.7	0.00e+00	0	43	0	428867584	61	5150
2026-01-28 09:07:34.75	100.78	32.37	-44.7	-47.8	16.0	0.00e+00	0	43	0	430964736	61	5030
2026-01-28 09:07:35.74	100.50	32.50	-44.7	-47.8	16.0	0.00e+00	0	44	0	433061888	61	5021
2026-01-28 09:07:36.74	100.22	32.64	-44.8	-48.0	15.8	0.00e+00	0	43	0	434110464	61	5104
2026-01-28 09:07:37.74	99.93	32.77	-44.9	-48.0	15.7	0.00e+00	0	43	0	436207616	61	5159
2026-01-28 09:07:38.74	99.64	32.90	-45.0	-48.1	15.7	0.00e+00	0	43	0	438304768	61	5216
2026-01-28 09:07:39.74	99.34	33.04	-45.0	-48.2	15.6	0.00e+00	0	43	0	440401920	61	5224
2026-01-28 09:07:40.73	99.05	33.17	-44.8	-47.9	15.8	0.00e+00	0	43	0	441450496	61	5082
2026-01-28 09:07:41.73	98.75	33.30	-44.9	-48.0	15.7	0.00e+00	0	43	0	443547648	61	5139
2026-01-28 09:07:42.73	98.45	33.43	-45.1	-48.4	15.4	0.00e+00	0	44	0	445644800	61	5349
2026-01-28 09:07:43.73	98.15	33.57	-45.2	-48.6	15.2	0.00e+00	0	44	0	447741952	61	5476
2026-01-28 09:07:44.73	97.85	33.70	-45.2	-48.5	15.2	7.00e-07	0	44	0	449839104	61	5440
2026-01-28 09:07:45.73	97.54	33.83	-45.0	-48.2	15.5	0.00e+00	0	44	0	450887680	61	5258
2026-01-28 09:07:46.72	97.23	33.96	-45.1	-48.3	15.5	0.00e+00	0	44	0	452984832	61	5325
2026-01-28 09:07:47.72	96.92	34.09	-45.1	-48.4	15.4	0.00e+00	0	43	0	455081984	61	5347
2026-01-28 09:07:48.72	96.61	34.22	-45.3	-48.8	15.0	0.00e+00	0	44	0	457179136	61	5594
2026-01-28 09:07:49.72	96.29	34.35	-45.5	-49.0	14.7	0.00e+00	0	43	0	458227712	61	5767
2026-01-28 09:07:50.71	95.97	34.48	-45.8	-49.4	14.3	0.00e+00	0	43	0	460324864	62	5678
2026-01-28 09:07:51.71	95.65	34.61	-45.5	-49.0	14.8	0.00e+00	0	44	0	462422016	62	5444
2026-01-28 09:07:52.70	95.33	34.73	-45.3	-48.6	15.1	0.00e+00	0	43	0	464519168	62	5216
2026-01-28 09:07:53.71	95.00	34.86	-45.3	-48.6	15.2	0.00e+00	0	43	0	466616320	62	5197
2026-01-28 09:07:54.71	94.67	34.99	-45.4	-48.9	14.9	0.00e+00	0	43	0	467664896	62	5358
2026-01-28 09:07:55.70	94.34	35.12	-45.7	-49.4	14.4	0.00e+00	0	43	0	469762048	62	5678
2026-01-28 09:07:56.70	94.00	35.24	-45.9	-49.7	14.1	0.00e+00	0	43	0	471859200	62	5857
2026-01-28 09:07:57.70	93.66	35.37	-46.1	-49.9	13.9	1.50e-06	0	43	0	473956352	62	6019
2026-01-28 09:07:58.69	93.33	35.49	-46.1	-49.9	13.8	2.20e-06	0	43	0	476053504	62	6034
2026-01-28 09:07:59.69	92.98	35.61	-46.1	-50.0	13.8	1.06e-05	0	44	0	477102080	63	5757
2026-01-28 09:08:00.69	92.64	35.74	-46.1	-50.0	13.7	3.80e-06	0	43	0	479199232	63	5784
2026-01-28 09:08:01.69	92.29	35.86	-46.1	-50.1	13.6	6.80e-06	0	43	0	481296384	63	5844
2026-01-28 09:08:02.69	91.94	35.98	-45.8	-49.6	14.1	3.80e-06	0	43	0	483393536	63	5484
2026-01-28 09:08:03.68	91.59	36.10	-45.6	-49.1	14.6	7.00e-07	0	43	0	484442112	63	5218
2026-01-28 09:08:04.68	91.23	36.22	-45.5	-49.0	14.8	7.00e-07	0	43	0	486539264	62	5421
2026-01-28 09:08:05.68	90.87	36.34	-45.4	-48.9	14.9	0.00e+00	0	43	0	488636416	62	5362
2026-01-28 09:08:06.68	90.51	36.46	-45.4	-48.8	15.0	0.00e+00	0	43	0	490733568	62	5309
2026-01-28 09:08:07.68	90.15	36.58	-45.4	-48.8	15.0	0.00e+00	0	43	0	492830720	62	5302
2026-01-28 09:08:08.68	89.78	36.70	-45.1	-48.3	15.4	0.00e+00	0	43	0	493879296	62	5033
2026-01-28 09:08:09.68	89.41	36.81	-45.0	-48.3	15.5	0.00e+00	0	43	0	495976448	61	5300
2026-01-28 09:08:10.68	89.04	36.93	-45.1	-48.6	15.2	0.00e+00	0	44	0	498073600	61	5465
2026-01-28 09:08:11.68	88.66	37.04	-45.2	-48.8	15.0	0.00e+00	0	44	0	500170752	61	5636
2026-01-28 09:08:12.68	88.28	37.15	-45.3	-48.9	14.9	0.00e+00	0	43	0	501219328	61	5711
2026-01-28 09:08:13.67	87.91	37.26	-45.2	-48.8	14.9	0.00e+00	0	44	0	503316480	61	5637
2026-01-28 09:08:14.67	87.53	37.37	-45.1	-48.6	15.2	0.00e+00	0	43	0	505413632	61	5515
2026-01-28 09:08:15.67	87.14	37.48	-45.0	-48.5	15.3	0.00e+00	0	44	0	507510784	61	5413
2026-01-28 09:08:16.67	86.75	37.59	-44.8	-48.2	15.6	0.00e+00	0	44	0	509607936	61	5255
2026-01-28 09:08:17.67	86.36	37.70	-44.5	-47.8	16.0	0.00e+00	0	44	0	510656512	61	5010
2026-01-28 09:08:18.67	85.97	37.81	-44.3	-47.5	16.3	0.00e+00	0	44	0	512753664	60	5102
2026-01-28 09:08:19.67	85.57	37.91	-44.0	-47.0	16.8	0.00e+00	0	44	0	514850816	60	4850
2026-01-28 09:08:20.67	85.18	38.02	-43.9	-46.8	16.8	0.00e+00	0	44	0	516947968	59	5021
2026-01-28 09:08:21.67	84.78	38.12	-43.8	-46.6	17.2	0.00e+00	0	44	0	519045120	59	4878
2026-01-28 09:08:22.67	84.37	38.22	-43.7	-46.4	17.3	0.00e+00	0	44	0	520093696	59	4802
2026-01-28 09:08:23.67	83.97	38.32	-43.5	-46.2	17.5	0.00e+00	0	44	0	522190848	59	4693
2026-01-28 09:08:24.66	83.56	38.42	-43.6	-46.5	17.3	0.00e+00	0	43	0	524288000	59	4818
2026-01-28 09:08:25.66	83.15	38.51	-43.6	-46.4	17.3	0.00e+00	0	43	0	526385152	59	4801
2026-01-28 09:08:26.66	82.74	38.61	-43.4	-46.2	17.6	0.00e+00	0	43	0	528482304	58	4927
2026-01-28 09:08:27.66	82.32	38.70	-43.4	-46.1	17.6	0.00e+00	0	43	0	529530880	58	4896
2026-01-28 09:08:28.65	81.91	38.80	-43.5	-46.2	17.6	0.00e+00	0	44	0	531628032	58	4942
2026-01-28 09:08:29.65	81.49	38.89	-43.4	-46.1	17.7	0.00e+00	0	43	0	533725184	58	4881
2026-01-28 09:08:30.65	81.07	38.98	-43.3	-45.8	17.9	0.00e+00	0	43	0	535822336	58	4753
2026-01-28 09:08:31.65	80.64	39.06	-43.2	-45.7	18.0	0.00e+00	0	43	0	536870912	58	4690
2026-01-28 09:08:32.65	80.22	39.15	-43.0	-45.5	18.1	0.00e+00	0	43	0	538968064	58	4588
2026-01-28 09:08:33.65	79.79	39.24	-43.0	-45.4	18.3	0.00e+00	0	43	0	541065216	57	4811
2026-01-28 09:08:34.65	79.36	39.32	-43.0	-45.5	18.3	0.00e+00	0	44	0	543162368	57	4815
2026-01-28 09:08:35.65	78.92	39.40	-42.8	-45.2	18.5	0.00e+00	0	43	0	545259520	57	4665
2026-01-28 09:08:36.65	78.49	39.48	-42.7	-45.1	18.6	0.00e+00	0	44	0	546308096	57	4644
2026-01-28 09:08:37.65	78.05	39.56	-42.7	-45.1	18.5	0.00e+00	0	43	0	548405248	57	4637
2026-01-28 09:08:38.65	77.61	39.64	-42.7	-45.1	18.6	0.00e+00	0	43	0	550502400	57	4638
2026-01-28 09:08:39.65	77.17	39.71	-42.8	-45.2	18.5	0.00e+00	0	43	0	552599552	57	4683
2026-01-28 09:08:40.64	76.73	39.78	-42.8	-45.2	18.5	0.00e+00	0	43	0	554696704	57	4672
2026-01-28 09:08:41.64	76.28	39.85	-42.7	-45.1	18.6	0.00e+00	0	43	0	555745280	57	4607
2026-01-28 09:08:42.64	75.83	39.92	-42.7	-45.1	18.6	0.00e+00	0	43	0	557842432	57	4632
2026-01-28 09:08:43.64	75.38	39.99	-42.8	-45.3	18.4	0.00e+00	0	44	0	559939584	57	4706
2026-01-28 09:08:44.64	74.93	40.06	-42.8	-45.2	18.5	0.00e+00	0	44	0	562036736	57	4675
2026-01-28 09:08:45.64	74.48	40.12	-42.7	-45.2	18.5	0.00e+00	0	43	0	563085312	57	4674
2026-01-28 09:08:46.64	74.02	40.18	-42.5	-44.8	18.8	0.00e+00	0	43	0	565182464	57	4481
2026-01-28 09:08:47.64	73.57	40.24	-42.2	-44.5	19.1	0.00e+00	0	44	0	567279616	56	4594
2026-01-28 09:08:48.64	73.11	40.30	-42.2	-44.5	19.1	0.00e+00	0	43	0	569376768	56	4595
2026-01-28 09:08:49.63	72.65	40.36	-42.2	-44.5	19.2	0.00e+00	0	44	0	571473920	56	4546
2026-01-28 09:08:50.63	72.19	40.41	-42.3	-44.5	19.1	0.00e+00	0	43	0	572522496	56	4586
2026-01-28 09:08:51.63	71.73	40.46	-42.4	-44.7	19.0	0.00e+00	0	43	0	574619648	56	4680
2026-01-28 09:08:52.63	71.26	40.51	-42.5	-44.8	18.9	0.00e+00	0	43	0	576716800	56	4743
2026-01-28 09:08:53.63	70.80	40.56	-42.4	-44.8	18.9	0.00e+00	0	43	0	578813952	56	4730
2026-01-28 09:08:54.63	70.33	40.60	-42.4	-44.8	18.9	0.00e+00	0	43	0	580911104	56	4706
2026-01-28 09:08:55.63	69.86	40.65	-42.4	-44.8	18.9	0.00e+00	0	43	0	581959680	56	4712
2026-01-28 09:08:56.62	69.39	40.69	-42.5	-44.8	18.9	0.00e+00	0	43	0	584056832	56	4730
2026-01-28 09:08:57.63	68.92	40.73	-42.7	-45.0	18.7	0.00e+00	0	43	0	586153984	56	4843
2026-01-28 09:08:58.62	68.45	40.77	-42.5	-44.8	18.9	0.00e+00	0	43	0	588251136	56	4756
2026-01-28 09:08:59.62	67.98	40.80	-42.6	-45.0	18.8	0.00e+00	0	44	0	589299712	56	4829
2026-01-28 09:09:00.62	67.50	40.83	-42.7	-45.1	18.6	0.00e+00	0	43	0	591396864	56	4878
2026-01-28 09:09:01.62	67.03	40.86	-42.7	-45.1	18.7	0.00e+00	0	44	0	593494016	56	4899
2026-01-28 09:09:02.61	66.56	40.89	-42.7	-45.0	18.7	0.00e+00	0	44	0	595591168	56	4857
2026-01-28 09:09:03.61	66.08	40.92	-42.7	-45.0	18.7	0.00e+00	0	43	0	597688320	56	4847
2026-01-28 09:09:04.61	65.60	40.94	-42.7	-45.1	18.6	0.00e+00	0	43	0	598736896	56	4906
2026-01-28 09:09:05.61	65.12	40.96	-43.0	-45.4	18.3	0.00e+00	0	43	0	600834048	56	5096
2026-01-28 09:09:06.60	64.65	40.98	-43.3	-45.8	18.0	0.00e+00	0	43	0	602931200	57	5006
2026-01-28 09:09:07.60	64.17	41.00	-43.6	-46.2	17.5	0.00e+00	0	44	0	605028352	57	5269
2026-01-28 09:09:08.59	63.70	41.01	-43.6	-46.2	17.5	0.00e+00	0	43	0	607125504	57	5278
2026-01-28 09:09:09.59	63.22	41.03	-43.7	-46.3	17.5	0.00e+00	0	43	0	608174080	57	5314
2026-01-28 09:09:10.58	62.74	41.04	-43.7	-46.3	17.5	0.00e+00	0	43	0	610271232	57	5309
2026-01-28 09:09:11.58	62.26	41.05	-43.8	-46.5	17.3	0.00e+00	0	44	0	612368384	58	5129
2026-01-28 09:09:12.57	61.78	41.05	-44.0	-46.7	17.1	0.00e+00	0	43	0	614465536	58	5255
2026-01-28 09:09:13.57	61.30	41.05	-44.2	-47.0	16.8	0.00e+00	0	43	0	615514112	59	5118
2026-01-28 09:09:14.56	60.83	41.06	-44.2	-47.1	16.7	0.00e+00	0	43	0	617611264	59	5169
2026-01-28 09:09:15.56	60.34	41.05	-44.3	-47.1	16.7	0.00e+00	0	43	0	619708416	59	5191
2026-01-28 09:09:16.56	59.86	41.05	-44.3	-47.2	16.6	0.00e+00	0	43	0	621805568	59	5260
2026-01-28 09:09:17.55	59.39	41.05	-44.5	-47.4	16.3	0.00e+00	0	43	0	623902720	59	5398
2026-01-28 09:09:18.55	58.91	41.04	-45.0	-48.1	15.8	0.00e+00	0	43	0	624951296	60	5526
2026-01-28 09:09:19.55	58.43	41.03	-45.3	-48.6	15.3	0.00e+00	0	43	0	627048448	61	5492
2026-01-28 09:09:20.54	57.95	41.02	-45.1	-48.3	15.6	0.00e+00	0	43	0	629145600	61	5308
2026-01-28 09:09:21.54	57.47	41.00	-44.9	-47.9	15.9	0.00e+00	0	44	0	631242752	61	5089
2026-01-28 09:09:22.54	56.99	40.98	-44.7	-47.8	16.0	0.00e+00	0	43	0	632291328	61	5002
2026-01-28 09:09:23.54	56.51	40.97	-45.0	-48.2	15.6	0.00e+00	0	44	0	634388480	61	5264
2026-01-28 09:09:24.54	56.03	40.94	-45.5	-48.9	15.0	0.00e+00	0	44	0	636485632	61	5674
2026-01-28 09:09:25.53	55.56	40.92	-45.9	-49.6	14.3	1.50e-06	0	43	0	638582784	62	5817
2026-01-28 09:09:26.53	55.09	40.89	-46.3	-50.2	13.6	5.30e-06	0	43	0	640679936	63	5868
2026-01-28 09:09:27.53	54.61	40.87	-46.5	-50.5	13.2	9.90e-06	0	43	0	641728512	63	6102
2026-01-28 09:09:28.52	54.14	40.84	-46.4	-50.4	13.4	1.44e-05	0	43	0	643825664	63	6060
2026-01-28 09:09:29.52	53.67	40.80	-46.2	-50.2	13.7	9.10e-06	0	44	0	645922816	63	5876
2026-01-28 09:09:30.52	53.19	40.77	-46.1	-50.0	13.7	1.06e-05	0	44	0	648019968	63	5775
2026-01-28 09:09:31.52	52.72	40.73	-46.5	-50.8	13.1	1.14e-05	0	44	0	649068544	63	6294
2026-01-28 09:09:32.52	52.25	40.69	-46.4	-50.7	13.1	1.83e-05	0	43	0	651165696	63	6212
2026-01-28 09:09:33.52	51.78	40.65	-46.5	-50.7	13.1	2.21e-05	0	44	0	653262848	63	6251
2026-01-28 09:09:34.52	51.31	40.61	-46.6	-50.9	12.9	2.59e-05	0	44	0	655360000	63	6360
2026-01-28 09:09:35.52	50.85	40.56	-46.4	-50.5	13.4	1.98e-05	0	44	0	657457152	63	6067
2026-01-28 09:09:36.52	50.38	40.52	-46.3	-50.3	13.5	1.06e-05	0	44	0	658505728	63	5975
2026-01-28 09:09:37.51	49.92	40.47	-46.1	-49.9	13.8	3.80e-06	0	44	0	660602880	63	5692
2026-01-28 09:09:38.51	49.46	40.42	-45.8	-49.4	14.4	7.00e-07	0	44	0	662700032	63	5382
2026-01-28 09:09:39.51	49.00	40.36	-45.6	-49.1	14.7	0.00e+00	0	44	0	664797184	63	5211
2026-01-28 09:09:40.50	48.54	40.31	-45.4	-48.8	15.0	0.00e+00	0	44	0	666894336	62	5335
2026-01-28 09:09:41.50	48.08	40.25	-44.7	-47.8	16.0	0.00e+00	0	43	0	667942912	61	5011
2026-01-28 09:09:42.50	47.63	40.19	-44.2	-47.1	16.7	0.00e+00	0	43	0	670040064	60	4898
2026-01-28 09:09:43.50	47.17	40.13	-43.8	-46.5	17.2	0.00e+00	0	43	0	672137216	59	4827
2026-01-28 09:09:44.49	46.72	40.07	-43.9	-46.6	17.2	0.00e+00	0	44	0	674234368	59	4881
2026-01-28 09:09:45.49	46.27	40.00	-43.7	-46.4	17.4	0.00e+00	0	43	0	676331520	59	4780
2026-01-28 09:09:46.49	45.82	39.93	-43.7	-46.4	17.4	0.00e+00	0	44	0	677380096	59	4777
2026-01-28 09:09:47.49	45.37	39.86	-43.5	-46.1	17.7	0.00e+00	0	43	0	679477248	58	4877
2026-01-28 09:09:48.49	44.93	39.79	-42.9	-45.3	18.4	0.00e+00	0	44	0	681574400	57	4755
2026-01-28 09:09:49.48	44.49	39.72	-42.6	-45.0	18.7	0.00e+00	0	43	0	683671552	57	4567
2026-01-28 09:09:50.48	44.05	39.65	-42.6	-44.9	18.8	0.00e+00	0	44	0	684720128	57	4540
2026-01-28 09:09:51.48	43.61	39.57	-42.3	-44.6	19.1	0.00e+00	0	43	0	686817280	56	4622
2026-01-28 09:09:52.48	43.17	39.49	-42.2	-44.5	19.2	0.00e+00	0	44	0	688914432	56	4577
2026-01-28 09:09:53.48	42.74	39.41	-42.3	-44.6	19.1	0.00e+00	0	43	0	691011584	56	4617
2026-01-28 09:09:54.48	42.30	39.33	-42.3	-44.6	19.1	0.00e+00	0	43	0	693108736	56	4629
2026-01-28 09:09:55.48	41.87	39.25	-42.2	-44.5	19.1	0.00e+00	0	44	0	694157312	56	4594
2026-01-28 09:09:56.48	41.44	39.16	-41.7	-43.9	19.5	0.00e+00	0	43	0	696254464	55	4541
2026-01-28 09:09:57.47	41.02	39.08	-41.5	-43.7	19.7	0.00e+00	0	43	0	698351616	55	4425
2026-01-28 09:09:58.47	40.60	38.99	-41.5	-43.7	19.8	0.00e+00	0	44	0	700448768	54	4689
2026-01-28 09:09:59.47	40.18	38.90	-41.5	-43.6	19.8	0.00e+00	0	44	0	701497344	54	4648
2026-01-28 09:10:00.47	39.76	38.81	-41.3	-43.4	20.1	0.00e+00	0	44	0	703594496	54	4510
2026-01-28 09:10:01.47	39.34	38.72	-41.4	-43.6	19.9	0.00e+00	0	44	0	705691648	54	4614
2026-01-28 09:10:02.47	38.93	38.62	-41.5	-43.7	19.8	0.00e+00	0	43	0	707788800	54	4685
2026-01-28 09:10:03.46	38.52	38.53	-41.6	-43.8	19.7	0.00e+00	0	43	0	709885952	54	4743
2026-01-28 09:10:04.46	38.11	38.43	-41.5	-43.7	19.8	0.00e+00	0	44	0	710934528	54	4675
2026-01-28 09:10:05.46	37.70	38.33	-41.6	-43.8	19.7	0.00e+00	0	43	0	713031680	54	4720
2026-01-28 09:10:06.46	37.30	38.24	-41.4	-43.5	19.9	0.00e+00	0	43	0	715128832	54	4595
2026-01-28 09:10:07.46	36.89	38.13	-41.5	-43.7	19.8	0.00e+00	0	44	0	717225984	54	4663
2026-01-28 09:10:08.46	36.49	38.03	-41.5	-43.6	19.8	0.00e+00	0	43	0	719323136	54	4638
2026-01-28 09:10:09.46	36.10	37.93	-41.5	-43.7	19.7	0.00e+00	0	43	0	720371712	54	4684
2026-01-28 09:10:10.46	35.70	37.82	-41.7	-43.9	19.6	0.00e+00	0	43	0	722468864	54	4773
2026-01-28 09:10:11.46	35.31	37.72	-41.8	-44.1	19.4	0.00e+00	0	43	0	724566016	54	4877
2026-01-28 09:10:12.46	34.92	37.61	-41.9	-44.2	19.3	0.00e+00	0	43	0	726663168	54	4930
2026-01-28 09:10:13.45	34.54	37.51	-42.0	-44.3	19.2	0.00e+00	0	43	0	728760320	54	4991
2026-01-28 09:10:14.45	34.15	37.40	-42.1	-44.4	19.1	0.00e+00	0	43	0	729808896	54	5054
2026-01-28 09:10:15.45	33.77	37.29	-42.1	-44.4	19.1	0.00e+00	0	43	0	731906048	54	5085
2026-01-28 09:10:16.44	33.40	37.18	-42.0	-44.4	19.1	0.00e+00	0	44	0	734003200	54	5066
2026-01-28 09:10:17.45	33.02	37.06	-42.0	-44.4	19.1	0.00e+00	0	43	0	736100352	54	5048
2026-01-28 09:10:18.44	32.65	36.95	-42.1	-44.4	19.0	0.00e+00	0	44	0	737148928	54	5094
2026-01-28 09:10:19.44	32.27	36.84	-42.0	-44.4	19.1	0.00e+00	0	43	0	739246080	55	4761
2026-01-28 09:10:20.44	31.91	36.72	-41.9	-44.1	19.4	0.00e+00	0	43	0	741343232	55	4633
2026-01-28 09:10:21.44	31.54	36.60	-41.9	-44.2	19.2	0.00e+00	0	43	0	743440384	55	4681
2026-01-28 09:10:22.44	31.18	36.49	-42.1	-44.4	19.0	0.00e+00	0	44	0	745537536	55	4793
2026-01-28 09:10:23.44	30.82	36.37	-42.3	-44.6	18.8	0.00e+00	0	44	0	746586112	55	4918
2026-01-28 09:10:24.44	30.46	36.25	-42.3	-44.6	18.8	0.00e+00	0	43	0	748683264	55	4923
2026-01-28 09:10:25.43	30.11	36.13	-42.3	-44.7	18.8	0.00e+00	0	44	0	750780416	55	4959
2026-01-28 09:10:26.43	29.75	36.01	-42.4	-44.7	18.7	0.00e+00	0	43	0	752877568	55	4981
2026-01-28 09:10:27.43	29.40	35.89	-42.4	-44.8	18.7	0.00e+00	0	43	0	753926144	55	4998
2026-01-28 09:10:28.43	29.05	35.77	-42.3	-44.7	18.8	0.00e+00	0	44	0	756023296	55	4962
2026-01-28 09:10:29.43	28.71	35.64	-42.5	-44.9	18.7	0.00e+00	0	44	0	758120448	55	5047
2026-01-28 09:10:30.43	28.37	35.52	-42.4	-44.8	18.6	0.00e+00	0	43	0	760217600	55	5036
2026-01-28 09:10:31.43	28.03	35.40	-42.6	-45.1	18.4	0.00e+00	0	43	0	762314752	55	5171
2026-01-28 09:10:32.42	27.69	35.27	-42.9	-45.3	18.3	0.00e+00	0	43	0	763363328	56	5029
2026-01-28 09:10:33.42	27.36	35.15	-42.9	-45.4	18.2	0.00e+00	0	43	0	765460480	56	5086
2026-01-28 09:10:34.43	27.02	35.02	-43.0	-45.6	18.1	0.00e+00	0	43	0	767557632	56	5164
2026-01-28 09:10:35.42	26.70	34.90	-43.3	-45.9	17.7	0.00e+00	0	43	0	769654784	57	5083
2026-01-28 09:10:36.42	26.37	34.77	-43.6	-46.4	17.3	0.00e+00	0	43	0	771751936	57	5350
2026-01-28 09:10:37.42	26.05	34.64	-43.8	-46.7	17.0	0.00e+00	0	44	0	772800512	58	5246
2026-01-28 09:10:38.42	25.73	34.51	-43.7	-46.6	17.0	0.00e+00	0	44	0	774897664	58	5213
2026-01-28 09:10:39.42	25.41	34.38	-43.8	-46.7	17.0	0.00e+00	0	43	0	776994816	58	5255
2026-01-28 09:10:40.42	25.09	34.25	-43.7	-46.6	17.1	0.00e+00	0	44	0	779091968	58	5166
2026-01-28 09:10:41.42	24.78	34.13	-43.8	-46.6	17.0	0.00e+00	0	43	0	780140544	58	5177
2026-01-28 09:10:42.42	24.46	34.00	-43.8	-46.6	17.0	0.00e+00	0	44	0	782237696	58	5168
2026-01-28 09:10:43.42	24.16	33.86	-44.0	-46.9	16.8	0.00e+00	0	44	0	784334848	58	5380
2026-01-28 09:10:44.42	23.85	33.73	-44.2	-47.2	16.5	0.00e+00	0	44	0	786432000	59	5238
2026-01-28 09:10:45.41	23.55	33.60	-44.4	-47.5	16.1	0.00e+00	0	43	0	788529152	59	5446
2026-01-28 09:10:46.42	23.24	33.47	-44.4	-47.5	16.2	0.00e+00	0	44	0	789577728	59	5439
2026-01-28 09:10:47.41	22.95	33.34	-44.5	-47.6	16.1	0.00e+00	0	44	0	791674880	59	5509
2026-01-28 09:10:48.41	22.65	33.21	-44.6	-47.7	15.9	0.00e+00	0	44	0	793772032	59	5579
2026-01-28 09:10:49.41	22.36	33.08	-44.7	-47.9	15.8	0.00e+00	0	43	0	795869184	60	5382
2026-01-28 09:10:50.41	22.06	32.94	-44.9	-48.1	15.5	0.00e+00	0	44	0	797966336	60	5526
2026-01-28 09:10:51.41	21.77	32.81	-45.0	-48.4	15.4	0.00e+00	0	43	0	799014912	60	5690
2026-01-28 09:10:52.41	21.49	32.68	-45.1	-48.5	15.2	0.00e+00	0	44	0	801112064	60	5751
2026-01-28 09:10:53.41	21.20	32.54	-45.1	-48.6	15.1	0.00e+00	0	44	0	803209216	60	5802
2026-01-28 09:10:54.41	20.92	32.41	-44.9	-48.3	15.4	0.00e+00	0	43	0	805306368	60	5608
2026-01-28 09:10:55.41	20.64	32.28	-44.9	-48.2	15.5	0.00e+00	0	44	0	807403520	60	5550
2026-01-28 09:10:56.41	20.36	32.14	-45.1	-48.4	15.4	0.00e+00	0	43	0	808452096	60	5664
2026-01-28 09:10:57.40	20.09	32.01	-45.2	-48.6	15.1	0.00e+00	0	44	0	810549248	61	5517
2026-01-28 09:10:58.40	19.82	31.88	-45.4	-48.9	14.8	7.00e-07	0	43	0	812646400	61	5686
2026-01-28 09:10:59.40	19.55	31.74	-45.4	-48.9	14.8	0.00e+00	0	43	0	814743552	61	5722
2026-01-28 09:11:00.39	19.28	31.61	-45.4	-48.9	14.8	0.00e+00	0	44	0	815792128	61	5667
2026-01-28 09:11:01.39	19.01	31.47	-45.2	-48.6	15.1	0.00e+00	0	43	0	817889280	61	5483
2026-01-28 09:11:02.39	18.75	31.34	-45.2	-48.6	15.1	0.00e+00	0	44	0	819986432	61	5481
2026-01-28 09:11:03.39	18.49	31.20	-45.2	-48.6	15.1	0.00e+00	0	44	0	822083584	61	5472
2026-01-28 09:11:04.39	18.23	31.07	-45.3	-48.8	15.0	7.00e-07	0	43	0	824180736	61	5603
2026-01-28 09:11:05.38	17.97	30.94	-45.2	-48.7	15.0	0.00e+00	0	44	0	825229312	61	5587
2026-01-28 09:11:06.38	17.72	30.80	-45.0	-48.4	15.2	0.00e+00	0	44	0	827326464	61	5402
2026-01-28 09:11:07.38	17.47	30.67	-44.8	-48.2	15.5	0.00e+00	0	44	0	829423616	61	5230
2026-01-28 09:11:08.38	17.21	30.53	-44.8	-48.2	15.5	0.00e+00	0	43	0	831520768	61	5267
2026-01-28 09:11:09.38	16.97	30.40	-44.8	-48.1	15.6	0.00e+00	0	44	0	832569344	61	5203
2026-01-28 09:11:10.38	16.72	30.26	-44.8	-48.1	15.6	0.00e+00	0	43	0	834666496	61	5196
2026-01-28 09:11:11.38	16.47	30.13	-44.5	-47.7	16.0	0.00e+00	0	44	0	836763648	61	4965
2026-01-28 09:11:12.37	16.23	29.99	-44.6	-47.8	15.8	0.00e+00	0	43	0	838860800	60	5332
2026-01-28 09:11:13.36	16.00	29.86	-44.3	-47.5	16.2	0.00e+00	0	44	0	840957952	60	5117
2026-01-28 09:11:14.36	15.76	29.73	-44.2	-47.3	16.4	0.00e+00	0	44	0	842006528	60	5038
2026-01-28 09:11:15.36	15.52	29.59	-44.0	-47.2	16.6	0.00e+00	0	44	0	844103680	60	4938
2026-01-28 09:11:16.36	15.29	29.46	-44.0	-47.2	16.5	0.00e+00	0	43	0	846200832	60	4949
2026-01-28 09:11:17.36	15.05	29.32	-44.1	-47.2	16.5	0.00e+00	0	43	0	848297984	60	4968
2026-01-28 09:11:18.36	14.82	29.19	-44.1	-47.2	16.4	0.00e+00	0	43	0	850395136	59	5272
2026-01-28 09:11:19.36	14.59	29.05	-44.0	-47.0	16.6	0.00e+00	0	44	0	851443712	59	5157
2026-01-28 09:11:20.35	14.37	28.92	-44.0	-47.0	16.7	0.00e+00	0	43	0	853540864	59	5113
2026-01-28 09:11:21.35	14.14	28.79	-43.8	-46.6	17.0	0.00e+00	0	44	0	855638016	59	4922
2026-01-28 09:11:22.35	13.92	28.65	-43.8	-46.5	17.1	0.00e+00	0	44	0	857735168	59	4860
2026-01-28 09:11:23.35	13.70	28.52	-44.0	-46.8	16.9	0.00e+00	0	44	0	858783744	59	5002
2026-01-28 09:11:24.35	13.48	28.39	-43.9	-46.7	16.9	0.00e+00	0	44	0	860880896	59	4951
2026-01-28 09:11:25.35	13.26	28.25	-43.8	-46.6	17.0	0.00e+00	0	44	0	862978048	59	4905
2026-01-28 09:11:26.34	13.05	28.12	-43.8	-46.6	17.0	0.00e+00	0	44	0	865075200	59	4891
2026-01-28 09:11:27.34	12.84	27.99	-43.9	-46.8	16.9	0.00e+00	0	44	0	867172352	59	4999
2026-01-28 09:11:28.34	12.62	27.86	-43.6	-46.5	17.1	0.00e+00	0	43	0	868220928	59	4840
2026-01-28 09:11:29.34	12.41	27.72	-43.6	-46.5	17.1	0.00e+00	0	43	0	870318080	59	4856
2026-01-28 09:11:30.34	12.21	27.59	-43.5	-46.4	17.2	0.00e+00	0	43	0	872415232	59	4780
2026-01-28 09:11:31.34	12.00	27.46	-43.5	-46.4	17.3	0.00e+00	0	43	0	874512384	58	5057
2026-01-28 09:11:32.33	11.80	27.33	-43.4	-46.2	17.4	0.00e+00	0	44	0	875560960	58	4963
2026-01-28 09:11:33.33	11.59	27.20	-43.4	-46.1	17.5	0.00e+00	0	43	0	877658112	58	4889
2026-01-28 09:11:34.33	11.39	27.07	-43.4	-46.1	17.5	0.00e+00	0	44	0	879755264	58	4902
2026-01-28 09:11:35.32	11.19	26.94	-43.5	-46.3	17.4	0.00e+00	0	44	0	881852416	58	4994
2026-01-28 09:11:36.32	10.99	26.81	-43.6	-46.3	17.3	0.00e+00	0	43	0	883949568	58	5009
2026-01-28 09:11:37.32	10.80	26.68	-43.7	-46.5	17.1	0.00e+00	0	44	0	884998144	58	5141
2026-01-28 09:11:38.32	10.60	26.55	-43.8	-46.7	17.0	0.00e+00	0	44	0	887095296	58	5220
2026-01-28 09:11:39.32	10.41	26.42	-43.9	-46.8	16.8	0.00e+00	0	43	0	889192448	58	5318
2026-01-28 09:11:40.32	10.22	26.29	-43.8	-46.7	16.9	0.00e+00	0	43	0	891289600	58	5246
2026-01-28 09:11:41.31	10.03	26.16	-43.8	-46.7	16.9	0.00e+00	0	43	0	893386752	58	5249
2026-01-28 09:11:42.31	9.84	26.03	-43.8	-46.7	16.9	0.00e+00	0	44	0	894435328	58	5231
2026-01-28 09:11:43.31	9.65	25.90	-43.6	-46.4	17.2	0.00e+00	0	43	0	896532480	58	5079
2026-01-28 09:11:44.31	9.47	25.77	-43.7	-46.5	17.1	0.00e+00	0	44	0	898629632	58	5129
2026-01-28 09:11:45.31	9.28	25.64	-43.6	-46.3	17.3	0.00e+00	0	44	0	900726784	58	5001
2026-01-28 09:11:46.31	9.10	25.51	-43.6	-46.3	17.3	0.00e+00	0	43	0	902823936	58	5027
2026-01-28 09:11:47.31	8.92	25.39	-43.7	-46.4	17.3	0.00e+00	0	44	0	903872512	58	5060
2026-01-28 09:11:48.31	8.74	25.26	-43.8	-46.5	17.1	0.00e+00	0	43	0	905969664	58	5145
2026-01-28 09:11:49.30	8.56	25.13	-44.0	-46.7	16.9	0.00e+00	0	44	0	908066816	58	5274
2026-01-28 09:11:50.30	8.39	25.01	-44.0	-46.9	16.8	0.00e+00	0	43	0	910163968	58	5344
2026-01-28 09:11:51.30	8.21	24.88	-44.1	-46.9	16.7	0.00e+00	0	44	0	911212544	58	5397
2026-01-28 09:11:52.30	8.04	24.75	-44.2	-47.1	16.5	0.00e+00	0	44	0	913309696	59	5173
2026-01-28 09:11:53.30	7.87	24.63	-44.3	-47.2	16.4	0.00e+00	0	44	0	915406848	59	5235
2026-01-28 09:11:54.30	7.69	24.50	-44.1	-47.1	16.6	0.00e+00	0	44	0	917504000	59	5166
2026-01-28 09:11:55.30	7.52	24.38	-44.1	-47.1	16.5	0.00e+00	0	44	0	919601152	59	5196
2026-01-28 09:11:56.29	7.36	24.25	-44.1	-47.0	16.6	0.00e+00	0	43	0	920649728	59	5145
2026-01-28 09:11:57.29	7.19	24.13	-43.8	-46.7	16.9	0.00e+00	0	44	0	922746880	59	4973
2026-01-28 09:11:58.29	7.03	24.00	-43.8	-46.7	16.8	0.00e+00	0	43	0	924844032	59	4977
2026-01-28 09:11:59.29	6.86	23.88	-43.8	-46.7	16.9	0.00e+00	0	44	0	926941184	59	4957
2026-01-28 09:12:00.29	6.70	23.76	-43.7	-46.6	17.0	0.00e+00	0	44	0	929038336	59	4888
2026-01-28 09:12:01.29	6.54	23.63	-43.8	-46.7	16.9	0.00e+00	0	44	0	930086912	59	4957
2026-01-28 09:12:02.28	6.38	23.51	-43.9	-46.8	16.8	0.00e+00	0	44	0	932184064	59	4992
2026-01-28 09:12:03.28	6.22	23.39	-43.8	-46.6	17.0	0.00e+00	0	44	0	934281216	59	4925
2026-01-28 09:12:04.28	6.06	23.27	-43.7	-46.6	17.0	0.00e+00	0	44	0	936378368	59	4883
2026-01-28 09:12:05.28	5.91	23.14	-43.6	-46.4	17.1	0.00e+00	0	43	0	937426944	59	4813
2026-01-28 09:12:06.28	5.75	23.02	-43.5	-46.3	17.2	0.00e+00	0	44	0	939524096	59	4757
2026-01-28 09:12:07.27	5.60	22.90	-43.5	-46.3	17.3	0.00e+00	0	44	0	941621248	58	5007
2026-01-28 09:12:08.27	5.44	22.78	-43.6	-46.5	17.1	0.00e+00	0	43	0	943718400	58	5128
2026-01-28 09:12:09.27	5.29	22.66	-43.7	-46.5	17.1	0.00e+00	0	43	0	945815552	58	5132
2026-01-28 09:12:10.26	5.14	22.54	-43.8	-46.7	16.9	0.00e+00	0	44	0	946864128	58	5242
2026-01-28 09:12:11.26	4.99	22.42	-43.9	-46.8	16.8	0.00e+00	0	44	0	948961280	58	5300
2026-01-28 09:12:12.26	4.85	22.30	-44.1	-47.0	16.6	0.00e+00	0	44	0	951058432	58	5433
2026-01-28 09:12:13.25	4.70	22.19	-44.1	-47.1	16.5	0.00e+00	0	44	0	953155584	59	5197
2026-01-28 09:12:14.25	4.56	22.07	-44.2	-47.2	16.4	0.00e+00	0	43	0	955252736	59	5273
2026-01-28 09:12:15.25	4.41	21.95	-44.1	-47.2	16.4	0.00e+00	0	44	0	956301312	59	5236
2026-01-28 09:12:16.25	4.27	21.83	-44.0	-47.2	16.4	0.00e+00	0	44	0	958398464	59	5254
2026-01-28 09:12:17.25	4.12	21.71	-43.9	-47.2	16.4	0.00e+00	0	44	0	960495616	59	5240
2026-01-28 09:12:18.24	3.98	21.60	-43.9	-47.2	16.3	0.00e+00	0	44	0	962592768	59	5277
2026-01-28 09:12:19.24	3.84	21.48	-43.9	-47.2	16.4	0.00e+00	0	43	0	963641344	59	5244
2026-01-28 09:12:20.24	3.71	21.36	-43.9	-47.1	16.5	0.00e+00	0	43	0	965738496	59	5188
2026-01-28 09:12:21.24	3.57	21.25	-43.9	-47.0	16.6	0.00e+00	0	43	0	967835648	59	5132
2026-01-28 09:12:22.24	3.43	21.13	-43.9	-46.9	16.7	0.00e+00	0	44	0	969932800	59	5063
2026-01-28 09:12:23.24	3.29	21.01	-43.9	-46.8	16.8	0.00e+00	0	43	0	972029952	59	5020
2026-01-28 09:12:24.23	3.16	20.90	-43.8	-46.7	16.9	0.00e+00	0	43	0	973078528	59	4941
2026-01-28 09:12:25.23	3.03	20.79	-43.7	-46.6	17.0	0.00e+00	0	43	0	975175680	59	4886
2026-01-28 09:12:26.22	2.90	20.67	-43.7	-46.5	17.0	0.00e+00	0	43	0	977272832	59	4870
2026-01-28 09:12:27.22	2.76	20.56	-43.7	-46.6	17.0	0.00e+00	0	44	0	979369984	59	4894
2026-01-28 09:12:28.22	2.63	20.44	-43.7	-46.6	17.0	0.00e+00	0	43	0	980418560	59	4895
2026-01-28 09:12:29.21	2.50	20.33	-43.7	-46.7	16.9	0.00e+00	0	44	0	982515712	59	4960
2026-01-28 09:12:30.21	2.37	20.22	-43.8	-46.9	16.7	0.00e+00	0	43	0	984612864	59	5046
2026-01-28 09:12:31.21	2.25	20.11	-43.8	-46.8	16.8	0.00e+00	0	43	0	986710016	59	4997
2026-01-28 09:12:32.20	2.12	20.00	-44.0	-46.9	16.7	0.00e+00	0	44	0	988807168	59	5096
2026-01-28 09:12:33.20	1.99	19.88	-43.9	-46.8	16.7	0.00e+00	0	44	0	989855744	59	5003
2026-01-28 09:12:34.20	1.87	19.77	-43.9	-46.8	16.7	0.00e+00	0	44	0	991952896	59	5006
2026-01-28 09:12:35.19	1.75	19.66	-44.0	-46.9	16.7	0.00e+00	0	43	0	994050048	59	5052
2026-01-28 09:12:36.19	1.62	19.55	-44.0	-46.9	16.7	0.00e+00	0	44	0	996147200	59	5058
2026-01-28 09:12:37.19	1.50	19.44	-43.8	-46.8	16.7	0.00e+00	0	44	0	998244352	59	5005
2026-01-28 09:12:38.18	1.38	19.33	-43.7	-46.7	16.8	0.00e+00	0	43	0	999292928	59	4943
2026-01-28 09:12:39.17	1.26	19.22	-43.7	-46.8	16.7	0.00e+00	0	44	0	1001390080	59	4991
2026-01-28 09:12:40.17	1.14	19.11	-43.7	-46.6	16.8	0.00e+00	0	44	0	1003487232	59	4915
2026-01-28 09:12:41.17	1.02	19.00	-43.7	-46.6	16.9	0.00e+00	0	44	0	1005584384	59	4908
2026-01-28 09:12:42.17	0.90	18.89	-43.7	-46.6	16.9	0.00e+00	0	44	0	1006632960	59	4883
2026-01-28 09:12:43.17	0.79	18.79	-43.6	-46.4	17.0	0.00e+00	0	44	0	1008730112	59	4812
2026-01-28 09:12:44.16	0.67	18.68	-43.7	-46.5	16.9	0.00e+00	0	44	0	1010827264	59	4842
2026-01-28 09:12:45.15	0.56	18.57	-43.8	-46.6	16.8	0.00e+00	0	44	0	1012924416	59	4888
2026-01-28 09:12:46.15	0.44	18.46	-43.8	-46.7	16.7	0.00e+00	0	43	0	1015021568	59	4975
2026-01-28 09:12:47.15	0.33	18.36	-43.6	-46.5	17.0	0.00e+00	0	44	0	1016070144	59	4825
2026-01-28 09:12:48.14	0.22	18.25	-43.6	-46.6	16.9	0.00e+00	0	43	0	1018167296	59	4871
2026-01-28 09:12:49.14	0.11	18.14	-43.5	-46.5	17.0	0.00e+00	0	44	0	1020264448	59	4865
2026-01-28 09:12:50.14	360.00	18.04	-43.6	-46.7	16.8	0.00e+00	0	43	0	1022361600	59	4931
2026-01-28 09:12:51.13	359.89	17.93	-43.6	-46.8	16.6	0.00e+00	0	43	0	1023410176	59	5032
2026-01-28 09:12:52.13	359.78	17.83	-43.7	-46.9	16.4	0.00e+00	0	43	0	1025507328	59	5060
2026-01-28 09:12:53.13	359.67	17.72	-43.9	-47.1	16.0	0.00e+00	0	44	0	1027604480	59	5191
2026-01-28 09:12:54.13	359.56	17.62	-43.9	-47.1	15.9	0.00e+00	0	44	0	1029701632	59	5188
2026-01-28 09:12:55.12	359.45	17.52	-44.0	-47.2	15.6	0.00e+00	0	44	0	1031798784	59	5276
2026-01-28 09:12:56.12	359.35	17.41	-44.0	-47.1	15.5	0.00e+00	0	43	0	1032847360	59	5211
2026-01-28 09:12:57.12	359.24	17.31	-44.0	-47.2	15.4	0.00e+00	0	44	0	1034944512	59	5230
2026-01-28 09:12:58.12	359.13	17.20	-44.0	-47.2	15.4	0.00e+00	0	44	0	1037041664	59	5246
2026-01-28 09:12:59.11	359.03	17.10	-43.9	-47.1	15.5	0.00e+00	0	43	0	1039138816	59	5191
2026-01-28 09:13:00.11	358.93	17.00	-43.8	-46.9	15.9	0.00e+00	0	43	0	1040187392	59	5095
2026-01-28 09:13:01.11	358.83	16.90	-43.7	-46.9	16.1	0.00e+00	0	43	0	1042284544	59	5093
2026-01-28 09:13:02.11	358.72	16.79	-43.7	-46.9	16.3	0.00e+00	0	44	0	1044381696	59	5089
2026-01-28 09:13:03.11	358.62	16.69	-43.6	-46.8	16.4	0.00e+00	0	44	0	1046478848	59	5018
2026-01-28 09:13:04.11	358.52	16.59	-43.7	-46.9	16.4	0.00e+00	0	43	0	1048576000	59	5060
2026-01-28 09:13:05.10	358.42	16.49	-43.8	-47.0	16.5	0.00e+00	0	43	0	1049624576	59	5101
2026-01-28 09:13:06.10	358.32	16.39	-43.8	-46.9	16.5	0.00e+00	0	43	0	1051721728	59	5081
2026-01-28 09:13:07.10	358.22	16.29	-44.0	-47.1	16.2	0.00e+00	0	44	0	1053818880	59	5185
2026-01-28 09:13:08.10	358.13	16.19	-44.0	-47.1	16.1	0.00e+00	0	43	0	1055916032	59	5183
2026-01-28 09:13:09.10	358.03	16.09	-44.0	-47.0	16.1	0.00e+00	0	44	0	1058013184	59	5135
2026-01-28 09:13:10.09	357.93	15.99	-44.1	-47.1	15.9	0.00e+00	0	44	0	1059061760	59	5190
2026-01-28 09:13:11.09	357.84	15.89	-44.1	-47.1	15.8	0.00e+00	0	44	0	1061158912	59	5211
2026-01-28 09:13:12.08	357.74	15.80	-44.2	-47.2	15.7	0.00e+00	0	44	0	1063256064	59	5270
2026-01-28 09:13:13.08	357.65	15.70	-44.1	-47.2	15.8	0.00e+00	0	43	0	1065353216	59	5276
2026-01-28 09:13:14.07	357.55	15.60	-44.1	-47.2	15.6	0.00e+00	0	44	0	1066401792	59	5264
2026-01-28 09:13:15.07	357.46	15.50	-44.0	-47.2	15.5	0.00e+00	0	43	0	1068498944	59	5226
2026-01-28 09:13:16.07	357.37	15.40	-44.0	-47.2	15.3	0.00e+00	0	44	0	1070596096	59	5269
2026-01-28 09:13:17.06	357.28	15.31	-44.1	-47.4	15.3	0.00e+00	0	44	0	1072693248	59	5362
2026-01-28 09:13:18.06	357.18	15.21	-44.1	-47.3	15.4	0.00e+00	0	43	0	1074790400	59	5321
2026-01-28 09:13:19.05	357.09	15.12	-44.2	-47.3	15.8	0.00e+00	0	44	0	1075838976	59	5327
2026-01-28 09:13:20.05	357.00	15.02	-44.2	-47.4	15.7	0.00e+00	0	44	0	1077936128	59	5346
2026-01-28 09:13:21.05	356.91	14.92	-44.2	-47.4	15.4	0.00e+00	0	44	0	1080033280	59	5390
2026-01-28 09:13:22.05	356.83	14.83	-44.1	-47.4	14.2	0.00e+00	0	44	0	1082130432	59	5397
2026-01-28 09:13:23.05	356.74	14.73	-43.9	-47.5	12.6	1.14e-05	0	44	0	1084227584	59	5409
2026-01-28 09:13:24.05	356.65	14.64	-43.6	-47.5	10.9	6.10e-04	0	44	0	1085276160	59	5423
2026-01-28 09:13:25.04	356.56	14.54	-43.3	-47.3	10.1	4.08e-03	0	43	0	1087373312	58	5594
2026-01-28 09:13:26.04	356.48	14.45	-43.2	-47.3	9.8	4.70e-03	0	43	0	1089470464	58	5622
2026-01-28 09:13:27.04	356.39	14.35	-43.3	-47.2	10.6	2.90e-03	0	43	0	1091567616	58	5562
2026-01-28 09:13:28.04	356.30	14.26	-43.7	-47.3	12.1	3.84e-04	0	43	0	1092616192	58	5603
2026-01-28 09:13:29.04	356.22	14.17	-43.9	-47.3	13.4	2.36e-05	0	44	0	1094713344	58	5625
2026-01-28 09:13:30.03	356.14	14.07	-44.1	-47.4	14.4	3.00e-06	0	44	0	1096810496	58	5695
2026-01-28 09:13:31.03	356.05	13.98	-44.2	-47.4	14.8	0.00e+00	0	44	0	1098907648	59	5362
2026-01-28 09:13:32.03	355.97	13.89	-44.2	-47.5	14.3	0.00e+00	0	44	0	1101004800	59	5419
2026-01-28 09:13:33.03	355.88	13.80	-44.2	-47.6	13.9	7.00e-07	0	44	0	1102053376	59	5480
2026-01-28 09:13:34.02	355.80	13.70	-44.2	-47.6	14.1	2.20e-06	0	43	0	1104150528	59	5478
2026-01-28 09:13:35.02	355.72	13.61	-44.2	-47.7	14.1	3.80e-06	0	44	0	1106247680	59	5548
2026-01-28 09:13:36.01	355.64	13.52	-44.3	-47.7	14.8	0.00e+00	0	44	0	1108344832	59	5559
2026-01-28 09:13:37.01	355.56	13.43	-44.3	-47.7	15.0	0.00e+00	0	44	0	1109393408	59	5545
2026-01-28 09:13:38.01	355.48	13.34	-44.3	-47.6	15.3	0.00e+00	0	44	0	1111490560	59	5525
2026-01-28 09:13:39.01	355.40	13.25	-44.4	-47.8	15.3	0.00e+00	0	44	0	1113587712	59	5617
2026-01-28 09:13:40.01	355.32	13.16	-44.3	-47.8	15.4	0.00e+00	0	44	0	1115684864	59	5595
2026-01-28 09:13:41.01	355.24	13.07	-44.1	-47.6	15.7	0.00e+00	0	44	0	1117782016	59	5502
2026-01-28 09:13:42.00	355.16	12.98	-43.9	-47.5	15.6	0.00e+00	0	44	0	1118830592	59	5449
2026-01-28 09:13:43.00	355.09	12.89	-43.8	-47.4	15.6	0.00e+00	0	44	0	1120927744	59	5397
2026-01-28 09:13:44.00	355.01	12.80	-43.6	-47.4	15.7	0.00e+00	0	44	0	1123024896	59	5355
2026-01-28 09:13:44.99	354.93	12.71	-43.5	-47.4	15.9	0.00e+00	0	44	0	1125122048	59	5376
2026-01-28 09:13:45.99	354.86	12.62	-43.4	-47.3	15.8	0.00e+00	0	44	0	1127219200	58	5647
2026-01-28 09:13:46.98	354.78	12.54	-43.5	-47.6	15.2	0.00e+00	0	44	0	1128267776	58	5799
2026-01-28 09:13:47.98	354.71	12.45	-43.5	-47.5	15.1	0.00e+00	0	44	0	1130364928	58	5778
2026-01-28 09:13:48.98	354.63	12.36	-43.6	-47.6	15.3	0.00e+00	0	44	0	1132462080	58	5817
2026-01-28 09:13:49.98	354.56	12.27	-43.8	-47.7	15.5	0.00e+00	0	44	0	1134559232	58	5860
2026-01-28 09:13:50.97	354.48	12.19	-44.0	-47.8	15.5	0.00e+00	0	44	0	1135607808	58	5977
2026-01-28 09:13:51.97	354.41	12.10	-43.9	-47.7	15.6	0.00e+00	0	44	0	1137704960	58	5886
2026-01-28 09:13:52.97	354.34	12.01	-43.9	-47.7	15.6	0.00e+00	0	44	0	1139802112	58	5881
2026-01-28 09:13:53.97	354.27	11.92	-44.0	-47.8	15.5	0.00e+00	0	44	0	1141899264	58	5958
2026-01-28 09:13:54.96	354.19	11.84	-44.1	-47.9	15.4	0.00e+00	0	44	0	1143996416	58	6044
2026-01-28 09:13:55.96	354.12	11.75	-44.1	-47.9	15.4	0.00e+00	0	44	0	1145044992	58	6056
2026-01-28 09:13:56.96	354.05	11.67	-44.2	-48.2	15.2	0.00e+00	0	43	0	1147142144	59	5858
2026-01-28 09:13:57.95	353.98	11.58	-44.2	-48.0	15.2	0.00e+00	0	44	0	1149239296	59	5780
2026-01-28 09:13:58.95	353.91	11.50	-44.3	-48.3	15.0	0.00e+00	0	44	0	1151336448	59	5932
2026-01-28 09:13:59.94	353.84	11.41	-44.4	-48.3	15.0	0.00e+00	0	43	0	1153433600	59	5927
2026-01-28 09:14:00.94	353.77	11.33	-44.2	-48.2	15.1	0.00e+00	0	44	0	1154482176	59	5888
2026-01-28 09:14:01.94	353.70	11.24	-44.2	-48.3	15.0	7.00e-07	0	44	0	1156579328	59	5939
2026-01-28 09:14:02.94	353.63	11.16	-43.9	-48.2	15.1	0.00e+00	0	43	0	1158676480	59	5900
2026-01-28 09:14:03.93	353.57	11.07	-43.7	-48.3	15.0	0.00e+00	0	44	0	1160773632	59	5961
2026-01-28 09:14:04.93	353.50	10.99	-43.5	-48.4	14.8	7.00e-07	0	44	0	1161822208	58	6394
2026-01-28 09:14:05.93	353.43	10.91	-43.4	-48.3	14.9	0.00e+00	0	44	0	1163919360	58	6328
2026-01-28 09:14:06.92	353.36	10.82	-43.2	-48.2	15.1	7.00e-07	0	43	0	1166016512	58	6224
2026-01-28 09:14:07.92	353.30	10.74	-43.3	-48.2	15.1	0.00e+00	0	44	0	1168113664	58	6238
2026-01-28 09:14:08.92	353.23	10.66	-43.6	-48.3	15.0	0.00e+00	0	44	0	1170210816	58	6306
2026-01-28 09:14:09.92	353.17	10.58	-43.5	-48.2	15.0	0.00e+00	0	44	0	1171259392	58	6249
2026-01-28 09:14:10.91	353.10	10.49	-43.7	-48.2	15.0	0.00e+00	0	44	0	1173356544	58	6243
2026-01-28 09:14:11.91	353.04	10.41	-44.0	-48.3	14.9	0.00e+00	0	44	0	1175453696	58	6340
2026-01-28 09:14:12.91	352.97	10.33	-44.0	-48.1	15.1	7.00e-07	0	44	0	1177550848	58	6185
2026-01-28 09:14:13.90	352.91	10.25	-44.0	-48.1	15.1	0.00e+00	0	43	0	1178599424	58	6196
2026-01-28 09:14:14.90	352.84	10.17	-44.1	-48.2	15.1	0.00e+00	0	44	0	1180696576	58	6208
2026-01-28 09:14:15.90	352.78	10.09	-44.0	-48.2	15.1	0.00e+00	0	44	0	1182793728	58	6214
2026-01-28 09:14:16.89	352.72	10.01	-43.9	-48.2	15.1	0.00e+00	0	44	0	1184890880	58	6234
2026-01-28 09:14:17.89	352.65	9.92	-44.0	-48.3	14.9	0.00e+00	0	43	0	1186988032	58	6293
2026-01-28 09:14:18.89	352.59	9.84	-43.6	-48.3	15.0	0.00e+00	0	44	0	1188036608	58	6286
2026-01-28 09:14:19.89	352.53	9.76	-43.4	-48.3	15.0	0.00e+00	0	44	0	1190133760	58	6284
2026-01-28 09:14:20.88	352.47	9.68	-43.5	-48.4	14.8	0.00e+00	0	43	0	1192230912	58	6380
2026-01-28 09:14:21.88	352.41	9.60	-43.4	-48.5	14.7	0.00e+00	0	44	0	1194328064	58	6441
2026-01-28 09:14:22.88	352.35	9.52	-43.4	-48.5	14.7	7.00e-07	0	44	0	1195376640	58	6456
2026-01-28 09:14:23.88	352.29	9.45	-43.3	-48.5	14.7	0.00e+00	0	44	0	1197473792	58	6436
2026-01-28 09:14:24.87	352.23	9.37	-43.3	-48.5	14.7	7.00e-07	0	43	0	1199570944	58	6455
2026-01-28 09:14:25.87	352.17	9.29	-43.2	-48.6	14.6	0.00e+00	0	44	0	1201668096	58	6521
2026-01-28 09:14:26.87	352.11	9.21	-43.2	-48.6	14.6	1.50e-06	0	44	0	1203765248	58	6511
2026-01-28 09:14:27.86	352.05	9.13	-43.2	-48.7	14.5	7.00e-07	0	44	0	1204813824	58	6623
2026-01-28 09:14:28.86	351.99	9.05	-43.2	-48.7	14.5	7.00e-07	0	44	0	1206910976	58	6610
2026-01-28 09:14:29.86	351.93	8.97	-45.1	-54.3	9.2	7.00e-07	0	44	0	1209008128	60	11233
2026-01-28 09:14:30.86	351.87	8.90	-46.7	-64.2	3.8	1.45e+00	0	44	104	1209008128	64	27902
2026-01-28 09:14:31.86	351.81	8.82	-47.8	-64.4	3.8	1.49e+00	0	44	104	1209008128	67	24014
2026-01-28 09:14:32.86	351.76	8.74	-48.4	-64.5	3.8	1.49e+00	0	44	104	1209008128	67	24199
2026-01-28 09:14:33.85	351.70	8.66	-48.5	-64.4	3.8	1.49e+00	0	44	104	1209008128	68	22652
2026-01-28 09:14:34.85	351.64	8.59	-49.1	-64.5	3.8	1.49e+00	0	44	104	1209008128	69	21684
2026-01-28 09:14:35.84	351.59	8.51	-48.5	-64.6	3.7	1.49e+00	0	44	104	1209008128	68	23259
2026-01-28 09:14:36.84	351.53	8.43	-49.2	-64.9	3.8	1.49e+00	0	44	104	1209008128	69	22568
