passes_logs/2026/01/28/T1/T1__20260128_234313_NOAA_21_JPSS-2_rec.log

#Pass ID: 20260128_234313_NOAA 21 (JPSS-2)
#Satellite: NOAA 21 (JPSS-2)
#Configuration: NOAA 21
#almurnet v.1.7.20251203
#Start time: 2026-01-28 23:43:13

#Version: 2.0.20230620
#Station: T1
#Location: 37.570604 lon 55.790049 lat
#TLE: 1 54234U 22150A   26027.77052245  .00000166  00000+0  99439-4 0  9997
#TLE: 2 54234  98.7510 328.5165 0000872 203.6403 156.4733 14.19540252166628

#Time	Az	El	Level	Level2	SNR	BER	BlckErr	Temp	State	Recorded	gain1	gain2
2026-01-28 23:43:13.91	16.12	5.03	-49.8	-63.0	3.8	1.49e+00	0	39	0	0	70	17264
2026-01-28 23:43:14.90	16.12	5.10	-50.1	-63.1	3.8	1.49e+00	0	40	104	0	71	16410
2026-01-28 23:43:15.89	16.12	5.17	-50.1	-63.1	3.8	1.49e+00	0	40	104	0	71	16419
2026-01-28 23:43:16.88	16.13	5.24	-50.2	-63.1	3.8	1.49e+00	0	40	104	0	71	16483
2026-01-28 23:43:17.88	16.13	5.31	-50.2	-63.1	3.8	1.49e+00	0	40	104	0	71	16422
2026-01-28 23:43:18.87	16.13	5.39	-50.2	-63.1	3.8	1.49e+00	0	40	104	0	71	16424
2026-01-28 23:43:19.86	16.13	5.46	-50.2	-63.1	3.8	1.49e+00	0	40	104	0	71	16453
2026-01-28 23:43:20.86	16.14	5.53	-50.1	-63.1	3.8	1.49e+00	0	40	104	0	71	16357
2026-01-28 23:43:21.85	16.14	5.60	-50.0	-63.1	3.8	1.49e+00	0	40	104	0	71	16401
2026-01-28 23:43:22.84	16.14	5.67	-50.1	-63.0	3.8	1.49e+00	0	40	104	0	71	16260
2026-01-28 23:43:23.84	16.14	5.75	-50.0	-63.1	3.8	1.49e+00	0	40	104	0	71	16324
2026-01-28 23:43:24.83	16.14	5.82	-50.0	-63.0	3.8	1.49e+00	0	40	104	0	71	16195
2026-01-28 23:43:25.82	16.15	5.89	-50.0	-63.0	3.8	1.49e+00	0	40	104	0	71	16167
2026-01-28 23:43:26.82	16.15	5.96	-49.8	-62.9	3.8	1.49e+00	0	40	104	0	71	16009
2026-01-28 23:43:27.81	16.15	6.04	-49.8	-62.9	3.8	1.49e+00	0	40	104	0	71	15982
2026-01-28 23:43:28.81	16.15	6.11	-49.6	-62.8	3.8	1.49e+00	0	40	104	0	71	15887
2026-01-28 23:43:29.80	16.15	6.19	-49.7	-62.8	3.8	1.49e+00	0	40	104	0	70	16733
2026-01-28 23:43:30.79	16.16	6.26	-49.5	-62.7	3.8	1.49e+00	0	40	104	0	70	16665
2026-01-28 23:43:31.79	16.16	6.33	-49.1	-62.7	3.8	1.49e+00	0	40	104	0	69	17521
2026-01-28 23:43:32.78	16.16	6.41	-49.1	-62.7	3.8	1.49e+00	0	41	104	0	69	17537
2026-01-28 23:43:33.78	16.16	6.48	-48.5	-62.5	3.8	1.49e+00	0	40	104	0	69	17247
2026-01-28 23:43:34.77	16.16	6.56	-48.5	-62.0	3.8	1.49e+00	0	40	104	0	67	18227
2026-01-28 23:43:35.76	16.17	6.63	-48.4	-62.4	3.8	1.49e+00	0	40	104	0	68	17912
2026-01-28 23:43:36.76	16.17	6.71	-48.2	-62.2	3.8	1.49e+00	0	40	104	0	68	17525
2026-01-28 23:43:37.75	16.17	6.78	-48.2	-62.0	3.8	1.49e+00	0	41	104	0	68	17118
2026-01-28 23:43:38.74	16.17	6.86	-48.2	-61.8	3.8	1.49e+00	0	41	104	0	68	16748
2026-01-28 23:43:39.73	16.17	6.93	-48.1	-61.5	3.8	1.49e+00	0	41	104	0	68	16192
2026-01-28 23:43:40.73	16.18	7.01	-48.1	-61.2	3.8	1.49e+00	0	41	104	0	68	15726
2026-01-28 23:43:41.72	16.18	7.09	-48.1	-60.8	3.8	1.49e+00	0	41	104	0	68	14971
2026-01-28 23:43:42.71	16.18	7.16	-48.0	-60.3	3.9	1.49e+00	0	41	104	0	68	14162
2026-01-28 23:43:43.71	16.18	7.24	-48.0	-60.2	3.9	1.48e+00	0	41	104	0	68	13985
2026-01-28 23:43:44.70	16.18	7.32	-48.0	-59.4	4.1	1.48e+00	0	41	104	0	68	12708
2026-01-28 23:43:45.69	16.18	7.39	-47.8	-58.9	4.2	1.47e+00	0	41	104	0	67	12721
2026-01-28 23:43:46.69	16.19	7.47	-47.7	-58.5	4.3	1.47e+00	0	41	104	0	67	12227
2026-01-28 23:43:47.68	16.19	7.55	-47.7	-58.2	4.4	1.46e+00	0	41	104	0	67	11734
2026-01-28 23:43:48.67	16.19	7.63	-47.6	-57.7	4.2	1.39e+00	0	41	104	0	67	11149
2026-01-28 23:43:49.67	16.19	7.71	-47.6	-58.0	4.0	1.20e+00	0	41	104	0	67	11484
2026-01-28 23:43:50.66	16.19	7.78	-47.6	-57.7	4.0	1.13e+00	0	41	104	0	67	11064
2026-01-28 23:43:51.65	16.19	7.86	-47.5	-56.6	5.1	6.88e-01	0	41	0	0	67	9770
2026-01-28 23:43:52.65	16.20	7.94	-47.4	-56.2	5.3	5.73e-01	0	41	0	0	66	9875
2026-01-28 23:43:53.64	16.20	8.02	-47.3	-55.6	5.7	4.67e-01	0	41	0	0	66	9218
2026-01-28 23:43:54.63	16.20	8.10	-47.3	-55.2	6.0	3.50e-01	0	41	0	0	66	8861
2026-01-28 23:43:55.63	16.20	8.18	-47.1	-54.5	6.6	2.30e-01	0	41	0	0	66	8102
2026-01-28 23:43:56.62	16.20	8.26	-46.9	-53.9	7.0	1.65e-01	0	41	0	0	65	8065
2026-01-28 23:43:57.61	16.21	8.34	-46.8	-53.3	7.6	9.76e-02	0	41	0	0	65	7501
2026-01-28 23:43:58.61	16.21	8.42	-46.7	-52.9	8.0	7.26e-02	0	41	0	0	65	7175
2026-01-28 23:43:59.60	16.21	8.50	-46.4	-52.3	8.6	3.84e-02	0	41	0	0	64	7058
2026-01-28 23:44:00.59	16.21	8.58	-46.2	-51.8	9.1	2.34e-02	0	41	0	0	64	6679
2026-01-28 23:44:01.59	16.21	8.66	-46.1	-51.4	9.5	1.49e-02	0	41	0	0	64	6406
2026-01-28 23:44:02.58	16.21	8.75	-46.0	-51.1	10.0	9.69e-03	0	41	0	0	63	6542
2026-01-28 23:44:03.57	16.21	8.83	-45.9	-51.0	10.1	6.96e-03	0	41	0	0	63	6444
2026-01-28 23:44:04.57	16.22	8.91	-45.9	-50.8	10.2	6.00e-03	0	41	0	0	63	6346
2026-01-28 23:44:05.56	16.22	8.99	-45.8	-50.7	10.4	4.55e-03	0	41	0	0	63	6257
2026-01-28 23:44:06.55	16.22	9.07	-46.2	-51.5	9.5	6.35e-03	0	41	0	0	63	6879
2026-01-28 23:44:07.55	16.22	9.16	-46.4	-51.7	9.4	2.62e-02	0	41	0	0	63	7011
2026-01-28 23:44:08.54	16.22	9.24	-46.0	-50.9	10.3	1.24e-02	0	41	0	0	63	6379
2026-01-28 23:44:09.56	16.22	9.33	-47.7	-57.2	4.8	3.83e-01	0	41	0	0	65	11749
2026-01-28 23:44:10.55	16.23	9.41	-46.1	-51.2	9.4	7.51e-01	0	42	0	0	64	6246
2026-01-28 23:44:11.54	16.23	9.49	-42.5	-45.0	16.1	0.00e+00	0	41	0	0	56	4861
2026-01-28 23:44:12.54	16.23	9.58	-42.0	-44.4	16.7	0.00e+00	0	41	0	0	56	4519
2026-01-28 23:44:13.53	16.23	9.66	-41.7	-44.1	16.9	0.00e+00	0	41	0	0	55	4622
2026-01-28 23:44:14.53	16.23	9.75	-41.4	-43.8	17.2	0.00e+00	0	41	0	0	54	4714
2026-01-28 23:44:15.52	16.23	9.83	-41.0	-43.3	17.6	0.00e+00	0	41	0	0	54	4460
2026-01-28 23:44:16.52	16.23	9.92	-40.8	-43.0	17.9	0.00e+00	0	42	0	0	53	4563
2026-01-28 23:44:17.51	16.24	10.00	-40.9	-43.1	17.9	0.00e+00	0	41	0	0	53	4606
2026-01-28 23:44:18.51	16.24	10.09	-40.9	-43.1	17.8	0.00e+00	0	42	0	0	53	4636
2026-01-28 23:44:19.50	16.24	10.18	-40.8	-43.0	17.9	0.00e+00	0	42	0	0	53	4585
2026-01-28 23:44:20.50	16.24	10.26	-40.6	-42.8	18.1	0.00e+00	0	41	0	0	53	4451
2026-01-28 23:44:21.49	16.24	10.35	-40.7	-42.8	18.1	0.00e+00	0	42	0	0	53	4477
2026-01-28 23:44:22.49	16.24	10.44	-40.6	-42.7	18.2	0.00e+00	0	42	0	0	53	4425
2026-01-28 23:44:23.48	16.24	10.53	-40.6	-42.8	18.2	0.00e+00	0	42	0	0	53	4447
2026-01-28 23:44:24.48	16.24	10.62	-40.6	-42.7	18.2	0.00e+00	0	41	0	0	53	4411
2026-01-28 23:44:25.55	16.25	10.71	-40.5	-42.6	18.3	0.00e+00	0	41	0	0	53	4359
2026-01-28 23:44:26.41	16.25	10.79	-40.6	-42.6	18.3	0.00e+00	0	42	0	0	53	4391
2026-01-28 23:44:27.55	16.25	10.89	-40.5	-42.6	18.4	0.00e+00	0	42	0	0	53	4357
2026-01-28 23:44:28.40	16.25	10.97	-40.5	-42.6	18.3	0.00e+00	0	41	0	0	52	4635
2026-01-28 23:44:29.54	16.25	11.07	-40.3	-42.4	18.5	0.00e+00	0	42	0	0	52	4521
2026-01-28 23:44:30.39	16.25	11.14	-40.4	-42.5	18.5	0.00e+00	0	42	0	0	52	4555
2026-01-28 23:44:31.53	16.25	11.25	-40.3	-42.4	18.6	0.00e+00	0	42	0	0	52	4507
2026-01-28 23:44:32.38	16.25	11.33	-40.3	-42.3	18.6	0.00e+00	0	42	0	0	52	4489
2026-01-28 23:44:33.52	16.25	11.43	-40.4	-42.4	18.6	0.00e+00	0	42	0	0	52	4526
2026-01-28 23:44:34.37	16.26	11.51	-40.3	-42.3	18.6	0.00e+00	0	42	0	0	52	4472
2026-01-28 23:44:35.51	16.26	11.61	-40.2	-42.3	18.7	0.00e+00	0	42	0	0	52	4443
2026-01-28 23:44:36.36	16.26	11.69	-40.1	-42.2	18.8	0.00e+00	0	42	0	0	52	4409
2026-01-28 23:44:37.50	16.26	11.80	-40.2	-42.3	18.7	0.00e+00	0	42	0	0	52	4448
2026-01-28 23:44:38.36	16.26	11.88	-40.1	-42.1	18.8	0.00e+00	0	42	0	0	52	4378
2026-01-28 23:44:39.49	16.26	11.98	-40.2	-42.2	18.8	0.00e+00	0	42	0	0	52	4408
2026-01-28 23:44:40.34	16.26	12.06	-40.3	-42.3	18.7	0.00e+00	0	42	0	0	52	4471
2026-01-28 23:44:41.48	16.26	12.17	-40.3	-42.3	18.7	0.00e+00	0	42	0	0	52	4455
2026-01-28 23:44:42.33	16.26	12.25	-40.2	-42.2	18.7	0.00e+00	0	42	0	0	52	4415
2026-01-28 23:44:43.47	16.26	12.36	-40.2	-42.3	18.7	0.00e+00	0	42	0	0	52	4447
2026-01-28 23:44:44.33	16.26	12.44	-40.2	-42.2	18.8	0.00e+00	0	42	0	0	52	4410
2026-01-28 23:44:45.46	16.27	12.55	-40.3	-42.3	18.7	0.00e+00	0	42	0	0	52	4459
2026-01-28 23:44:46.31	16.27	12.63	-40.2	-42.2	18.7	0.00e+00	0	42	0	0	52	4434
2026-01-28 23:44:47.45	16.27	12.74	-40.1	-42.1	18.9	0.00e+00	0	42	0	0	52	4362
2026-01-28 23:44:48.30	16.27	12.82	-40.2	-42.1	18.8	0.00e+00	0	42	0	0	52	4389
2026-01-28 23:44:49.44	16.27	12.93	-40.2	-42.2	18.8	0.00e+00	0	42	0	0	52	4421
2026-01-28 23:44:50.30	16.27	13.02	-40.2	-42.1	18.8	0.00e+00	0	42	0	0	52	4386
2026-01-28 23:44:51.43	16.27	13.13	-40.2	-42.2	18.8	0.00e+00	0	42	0	0	52	4408
2026-01-28 23:44:52.29	16.27	13.21	-40.2	-42.2	18.8	0.00e+00	0	42	0	0	52	4409
2026-01-28 23:44:53.60	16.27	13.34	-40.1	-42.1	18.8	0.00e+00	0	42	0	0	52	4365
2026-01-28 23:44:54.31	16.27	13.41	-40.2	-42.2	18.8	0.00e+00	0	42	0	0	52	4392
2026-01-28 23:44:55.59	16.27	13.54	-40.3	-42.2	18.8	0.00e+00	0	42	0	0	52	4427
2026-01-28 23:44:56.31	16.27	13.61	-40.3	-42.3	18.8	0.00e+00	0	42	0	0	52	4447
2026-01-28 23:44:57.60	16.27	13.74	-40.4	-42.4	18.6	0.00e+00	0	42	0	0	52	4526
2026-01-28 23:44:58.31	16.27	13.81	-40.4	-42.4	18.6	0.00e+00	0	42	0	0	52	4495
2026-01-28 23:44:59.59	16.27	13.94	-40.3	-42.3	18.8	0.00e+00	0	42	0	0	52	4448
2026-01-28 23:45:00.30	16.27	14.02	-40.4	-42.3	18.7	0.00e+00	0	42	0	0	52	4477
2026-01-28 23:45:01.58	16.28	14.15	-40.4	-42.3	18.7	0.00e+00	0	42	0	0	52	4455
2026-01-28 23:45:02.30	16.28	14.22	-40.2	-42.1	18.9	0.00e+00	0	42	0	0	52	4374
2026-01-28 23:45:03.58	16.28	14.35	-40.1	-42.0	19.0	0.00e+00	0	42	0	0	52	4319
2026-01-28 23:45:04.48	16.28	14.45	-40.2	-42.1	18.9	0.00e+00	0	42	0	0	52	4366
2026-01-28 23:45:05.58	16.28	14.56	-40.2	-42.1	18.9	0.00e+00	0	42	0	0	52	4366
2026-01-28 23:45:06.44	16.28	14.65	-40.2	-42.1	18.9	0.00e+00	0	42	0	0	52	4363
2026-01-28 23:45:07.57	16.28	14.77	-40.1	-42.0	19.0	0.00e+00	0	42	0	0	52	4300
2026-01-28 23:45:08.42	16.28	14.86	-40.2	-42.0	18.9	0.00e+00	0	42	0	0	52	4339
2026-01-28 23:45:09.56	16.28	14.98	-40.2	-42.0	19.0	0.00e+00	0	42	0	0	52	4317
2026-01-28 23:45:10.42	16.28	15.07	-40.1	-42.0	19.0	0.00e+00	0	42	0	0	52	4300
2026-01-28 23:45:11.57	16.28	15.19	-40.1	-41.9	19.0	0.00e+00	0	42	0	0	52	4290
2026-01-28 23:45:12.42	16.28	15.29	-40.1	-42.0	19.0	0.00e+00	0	42	0	0	52	4301
2026-01-28 23:45:13.56	16.28	15.41	-40.2	-42.0	19.0	0.00e+00	0	42	0	0	52	4325
2026-01-28 23:45:14.41	16.28	15.50	-40.1	-41.9	19.0	0.00e+00	0	42	0	0	52	4290
2026-01-28 23:45:15.55	16.28	15.62	-40.1	-42.0	19.0	0.00e+00	0	42	0	0	52	4302
2026-01-28 23:45:16.40	16.28	15.72	-40.1	-41.9	19.1	0.00e+00	0	42	0	0	52	4254
2026-01-28 23:45:17.54	16.28	15.84	-40.2	-42.0	19.0	0.00e+00	0	42	0	0	52	4307
2026-01-28 23:45:18.39	16.28	15.94	-40.2	-42.0	18.9	0.00e+00	0	42	0	0	52	4335
2026-01-28 23:45:19.53	16.28	16.06	-40.2	-42.0	19.0	0.00e+00	0	42	0	0	52	4305
2026-01-28 23:45:20.39	16.28	16.16	-40.2	-42.0	19.0	0.00e+00	0	42	0	0	52	4327
2026-01-28 23:45:21.52	16.28	16.28	-40.2	-42.1	18.9	0.00e+00	0	42	0	0	52	4344
2026-01-28 23:45:22.38	16.28	16.38	-40.1	-41.9	19.0	0.00e+00	0	42	0	0	52	4280
2026-01-28 23:45:23.51	16.28	16.51	-40.2	-42.0	19.0	0.00e+00	0	42	0	0	52	4324
2026-01-28 23:45:24.36	16.28	16.60	-40.2	-42.0	19.0	0.00e+00	0	42	0	0	52	4319
2026-01-28 23:45:25.50	16.28	16.73	-40.1	-41.9	19.0	0.00e+00	0	42	0	0	52	4275
2026-01-28 23:45:26.35	16.28	16.83	-40.1	-41.9	19.0	0.00e+00	0	42	0	0	52	4285
2026-01-28 23:45:27.57	16.28	16.97	-40.1	-41.9	19.1	0.00e+00	0	42	0	0	52	4255
2026-01-28 23:45:28.42	16.28	17.07	-40.1	-41.9	19.1	0.00e+00	0	42	0	0	52	4273
2026-01-28 23:45:29.60	16.28	17.20	-40.1	-41.9	19.1	0.00e+00	0	42	0	0	52	4268
2026-01-28 23:45:30.46	16.28	17.30	-40.1	-41.9	19.1	0.00e+00	0	42	0	0	52	4263
2026-01-28 23:45:31.59	16.28	17.44	-40.2	-42.0	19.0	0.00e+00	0	42	0	0	52	4299
2026-01-28 23:45:32.44	16.28	17.54	-40.1	-41.9	19.1	0.00e+00	0	42	0	0	52	4265
2026-01-28 23:45:33.58	16.27	17.67	-40.1	-41.9	19.0	0.00e+00	0	42	0	0	52	4289
2026-01-28 23:45:34.44	16.27	17.77	-40.1	-41.9	19.1	0.00e+00	0	42	0	0	52	4246
2026-01-28 23:45:35.57	16.27	17.91	-40.1	-41.9	19.1	0.00e+00	0	42	0	0	52	4251
2026-01-28 23:45:36.42	16.27	18.01	-40.0	-41.8	19.1	0.00e+00	0	42	0	0	52	4235
2026-01-28 23:45:37.56	16.27	18.15	-40.1	-41.9	19.1	0.00e+00	0	42	0	0	52	4258
2026-01-28 23:45:38.42	16.27	18.25	-40.1	-41.9	19.1	0.00e+00	0	42	0	0	52	4257
2026-01-28 23:45:39.55	16.27	18.39	-40.1	-41.9	19.1	0.00e+00	0	42	0	0	52	4290
2026-01-28 23:45:40.41	16.27	18.49	-40.1	-41.9	19.1	0.00e+00	0	42	0	0	52	4252
2026-01-28 23:45:41.55	16.27	18.63	-40.0	-41.8	19.2	0.00e+00	0	42	0	0	52	4211
2026-01-28 23:45:42.40	16.27	18.74	-40.0	-41.8	19.2	0.00e+00	0	42	0	0	52	4238
2026-01-28 23:45:43.54	16.27	18.88	-40.0	-41.8	19.2	0.00e+00	0	42	0	0	52	4220
2026-01-28 23:45:44.39	16.27	18.99	-40.0	-41.8	19.2	0.00e+00	0	42	0	0	52	4237
2026-01-28 23:45:45.53	16.27	19.13	-40.1	-41.9	19.1	0.00e+00	0	42	0	0	52	4252
2026-01-28 23:45:46.38	16.26	19.24	-40.0	-41.8	19.2	0.00e+00	0	42	0	0	52	4236
2026-01-28 23:45:47.63	16.26	19.40	-40.0	-41.8	19.3	0.00e+00	0	42	0	0	51	4477
2026-01-28 23:45:48.48	16.26	19.50	-39.9	-41.7	19.3	0.00e+00	0	42	0	0	51	4441
2026-01-28 23:45:49.70	16.26	19.66	-39.9	-41.7	19.4	0.00e+00	0	42	0	0	51	4425
2026-01-28 23:45:50.55	16.26	19.77	-39.8	-41.7	19.4	0.00e+00	0	42	0	0	51	4394
2026-01-28 23:45:51.69	16.26	19.92	-39.8	-41.6	19.4	0.00e+00	0	42	0	0	51	4377
2026-01-28 23:45:52.54	16.26	20.03	-39.8	-41.6	19.4	0.00e+00	0	42	0	0	51	4382
2026-01-28 23:45:53.68	16.26	20.18	-39.8	-41.6	19.5	0.00e+00	0	42	0	0	51	4344
2026-01-28 23:45:54.60	16.26	20.30	-39.7	-41.5	19.6	0.00e+00	0	42	0	0	51	4301
2026-01-28 23:45:55.76	16.25	20.45	-39.7	-41.5	19.6	0.00e+00	0	42	0	0	51	4309
2026-01-28 23:45:56.62	16.25	20.57	-39.6	-41.4	19.6	0.00e+00	0	42	0	0	51	4270
2026-01-28 23:45:57.97	16.25	20.75	-39.6	-41.3	19.7	0.00e+00	0	42	0	0	51	4225
2026-01-28 23:45:58.69	16.25	20.84	-39.5	-41.2	19.8	0.00e+00	0	42	0	0	51	4183
2026-01-28 23:45:59.96	16.25	21.01	-39.5	-41.2	19.8	0.00e+00	0	42	0	0	50	4419
2026-01-28 23:46:00.68	16.25	21.11	-39.5	-41.2	19.8	0.00e+00	0	42	0	0	50	4421
2026-01-28 23:46:02.25	16.24	21.33	-39.3	-41.0	20.0	0.00e+00	0	42	0	0	50	4321
2026-01-28 23:46:02.93	16.24	21.42	-39.3	-41.0	19.9	0.00e+00	0	42	0	0	50	4319
2026-01-28 23:46:04.35	16.24	21.62	-39.3	-41.0	20.0	0.00e+00	0	42	0	0	50	4321
2026-01-28 23:46:05.25	16.24	21.74	-39.2	-40.9	20.1	0.00e+00	0	42	0	0	50	4252
2026-01-28 23:46:06.28	16.24	21.89	-39.1	-40.8	20.1	0.00e+00	0	42	0	0	50	4223
2026-01-28 23:46:07.27	16.23	22.03	-39.1	-40.7	20.2	0.00e+00	0	42	0	0	50	4184
2026-01-28 23:46:08.27	16.23	22.17	-39.0	-40.7	20.2	0.00e+00	0	42	0	0	50	4159
2026-01-28 23:46:09.26	16.23	22.31	-38.9	-40.5	20.4	0.00e+00	0	42	0	0	49	4337
2026-01-28 23:46:10.25	16.23	22.45	-38.8	-40.4	20.5	0.00e+00	0	42	0	0	49	4280
2026-01-28 23:46:11.25	16.23	22.59	-38.8	-40.5	20.4	0.00e+00	0	42	0	0	49	4306
2026-01-28 23:46:12.24	16.22	22.74	-38.7	-40.4	20.6	0.00e+00	0	43	0	0	49	4258
2026-01-28 23:46:13.24	16.22	22.88	-38.8	-40.5	20.5	0.00e+00	0	42	0	0	49	4292
2026-01-28 23:46:14.23	16.22	23.03	-38.6	-40.3	20.7	0.00e+00	0	42	0	0	49	4195
2026-01-28 23:46:15.28	16.22	23.18	-38.6	-40.3	20.7	0.00e+00	0	42	0	0	49	4207
2026-01-28 23:46:16.22	16.21	23.32	-38.7	-40.3	20.6	0.00e+00	0	42	0	0	49	4234
2026-01-28 23:46:17.34	16.21	23.49	-38.6	-40.2	20.7	0.00e+00	0	43	0	0	49	4193
2026-01-28 23:46:18.23	16.21	23.62	-38.6	-40.2	20.7	0.00e+00	0	43	0	0	49	4189
2026-01-28 23:46:19.37	16.20	23.79	-38.7	-40.3	20.7	0.00e+00	0	42	0	0	49	4224
2026-01-28 23:46:20.22	16.20	23.92	-38.6	-40.2	20.7	0.00e+00	0	42	0	0	49	4182
2026-01-28 23:46:21.59	16.20	24.13	-38.6	-40.3	20.7	0.00e+00	0	42	0	0	49	4212
2026-01-28 23:46:22.31	16.20	24.24	-38.6	-40.2	20.8	0.00e+00	0	42	0	0	49	4181
2026-01-28 23:46:23.59	16.19	24.44	-38.6	-40.2	20.8	0.00e+00	0	42	0	0	49	4173
2026-01-28 23:46:24.31	16.19	24.55	-38.6	-40.3	20.7	0.00e+00	0	42	0	0	49	4205
2026-01-28 23:46:25.59	16.19	24.75	-38.7	-40.4	20.7	0.00e+00	0	42	0	0	49	4246
2026-01-28 23:46:26.32	16.18	24.87	-38.7	-40.4	20.6	0.00e+00	0	42	0	0	49	4250
2026-01-28 23:46:27.59	16.18	25.07	-38.8	-40.5	20.6	0.00e+00	0	42	0	0	49	4312
2026-01-28 23:46:28.31	16.18	25.18	-38.7	-40.4	20.6	0.00e+00	0	42	0	0	49	4269
2026-01-28 23:46:29.59	16.17	25.39	-38.8	-40.5	20.6	0.00e+00	0	42	0	0	49	4307
2026-01-28 23:46:30.48	16.17	25.53	-38.8	-40.5	20.5	0.00e+00	0	42	0	0	49	4322
2026-01-28 23:46:31.57	16.17	25.71	-38.9	-40.6	20.4	0.00e+00	0	42	0	0	49	4371
2026-01-28 23:46:32.42	16.16	25.85	-39.0	-40.7	20.4	0.00e+00	0	42	0	0	49	4402
2026-01-28 23:46:33.56	16.16	26.03	-39.1	-40.8	20.3	0.00e+00	0	42	0	0	49	4460
2026-01-28 23:46:34.41	16.16	26.17	-39.1	-40.8	20.2	0.00e+00	0	42	0	0	49	4470
2026-01-28 23:46:35.55	16.15	26.36	-39.3	-41.0	20.1	0.00e+00	0	42	0	0	49	4570
2026-01-28 23:46:36.40	16.15	26.51	-39.3	-41.0	20.1	0.00e+00	0	42	0	0	49	4569
2026-01-28 23:46:37.60	16.14	26.71	-39.4	-41.1	20.0	0.00e+00	0	42	0	0	49	4617
2026-01-28 23:46:38.46	16.14	26.85	-39.5	-41.1	19.9	0.00e+00	0	42	0	0	49	4651
2026-01-28 23:46:39.60	16.14	27.05	-39.5	-41.2	19.8	0.00e+00	0	42	0	0	49	4698
2026-01-28 23:46:40.45	16.13	27.19	-39.6	-41.3	19.7	0.00e+00	0	42	0	0	49	4754
2026-01-28 23:46:41.59	16.13	27.39	-39.9	-41.6	19.5	0.00e+00	0	42	0	0	50	4624
2026-01-28 23:46:42.44	16.12	27.54	-39.8	-41.6	19.5	0.00e+00	0	42	0	0	50	4618
2026-01-28 23:46:43.58	16.12	27.74	-40.1	-41.9	19.3	0.00e+00	0	43	0	0	50	4774
2026-01-28 23:46:44.43	16.11	27.89	-40.0	-41.8	19.3	0.00e+00	0	42	0	0	50	4720
2026-01-28 23:46:45.57	16.11	28.09	-40.1	-41.9	19.2	0.00e+00	0	42	0	0	50	4784
2026-01-28 23:46:46.42	16.10	28.24	-40.2	-42.0	19.2	0.00e+00	0	42	0	0	51	4565
2026-01-28 23:46:47.56	16.10	28.45	-40.1	-41.9	19.2	0.00e+00	0	43	0	0	51	4538
2026-01-28 23:46:48.41	16.09	28.60	-40.2	-42.0	19.1	0.00e+00	0	42	0	0	51	4588
2026-01-28 23:46:49.55	16.09	28.81	-40.3	-42.2	19.0	0.00e+00	0	42	0	0	51	4657
2026-01-28 23:46:50.40	16.08	28.96	-40.3	-42.1	19.1	0.00e+00	0	42	0	0	51	4630
2026-01-28 23:46:51.54	16.08	29.17	-40.4	-42.3	18.9	0.00e+00	0	42	0	0	51	4740
2026-01-28 23:46:52.39	16.07	29.33	-40.3	-42.2	19.1	0.00e+00	0	42	0	0	51	4659
2026-01-28 23:46:53.53	16.07	29.54	-40.3	-42.2	19.1	0.00e+00	0	42	0	0	51	4656
2026-01-28 23:46:54.38	16.06	29.70	-40.2	-42.0	19.2	0.00e+00	0	43	0	0	51	4591
2026-01-28 23:46:55.52	16.06	29.92	-40.1	-41.9	19.3	0.00e+00	0	42	0	0	51	4539
2026-01-28 23:46:56.39	16.05	30.08	-40.1	-41.9	19.3	0.00e+00	0	43	0	0	51	4523
2026-01-28 23:46:57.70	16.04	30.33	-40.1	-41.9	19.3	0.00e+00	0	42	0	0	51	4521
2026-01-28 23:46:58.41	16.04	30.47	-39.9	-41.7	19.6	0.00e+00	0	43	0	0	51	4411
2026-01-28 23:46:59.69	16.03	30.72	-39.9	-41.7	19.6	0.00e+00	0	43	0	0	51	4418
2026-01-28 23:47:00.42	16.03	30.86	-39.7	-41.4	19.8	0.00e+00	0	42	0	0	51	4286
2026-01-28 23:47:01.70	16.02	31.11	-39.6	-41.4	19.8	0.00e+00	0	42	0	0	51	4260
2026-01-28 23:47:02.41	16.01	31.25	-39.5	-41.3	19.9	0.00e+00	0	43	0	0	51	4212
2026-01-28 23:47:03.70	16.00	31.51	-39.4	-41.2	20.1	0.00e+00	0	43	0	0	50	4401
2026-01-28 23:47:04.41	16.00	31.65	-39.3	-41.1	20.2	0.00e+00	0	43	0	0	50	4341
2026-01-28 23:47:05.69	15.99	31.91	-39.4	-41.1	20.2	0.00e+00	0	42	0	0	50	4351
2026-01-28 23:47:06.60	15.98	32.10	-39.3	-41.0	20.2	0.00e+00	0	42	0	0	50	4299
2026-01-28 23:47:07.60	15.98	32.30	-39.5	-41.2	20.0	0.00e+00	0	43	0	0	50	4435
2026-01-28 23:47:08.59	15.97	32.51	-39.4	-41.1	20.2	0.00e+00	0	42	0	0	50	4355
2026-01-28 23:47:09.59	15.96	32.72	-39.6	-41.3	20.0	0.00e+00	0	42	0	0	50	4449
2026-01-28 23:47:10.58	15.95	32.92	-39.7	-41.4	19.9	0.00e+00	0	43	0	0	50	4509
2026-01-28 23:47:11.58	15.95	33.14	-39.8	-41.5	19.7	0.00e+00	0	42	0	0	50	4584
2026-01-28 23:47:12.57	15.94	33.35	-40.0	-41.7	19.5	0.00e+00	0	42	0	0	50	4680
2026-01-28 23:47:13.57	15.93	33.56	-40.1	-41.9	19.4	0.00e+00	0	42	0	0	50	4780
2026-01-28 23:47:14.56	15.92	33.77	-40.2	-42.0	19.3	0.00e+00	0	43	0	0	51	4563
2026-01-28 23:47:15.56	15.91	33.99	-40.5	-42.3	18.9	0.00e+00	0	42	0	0	51	4755
2026-01-28 23:47:16.55	15.90	34.21	-40.5	-42.3	19.0	0.00e+00	0	43	0	0	51	4715
2026-01-28 23:47:17.55	15.90	34.43	-40.6	-42.5	18.8	0.00e+00	0	43	0	0	51	4816
2026-01-28 23:47:18.54	15.89	34.65	-40.7	-42.6	18.6	0.00e+00	0	42	0	0	52	4632
2026-01-28 23:47:19.54	15.88	34.87	-40.8	-42.7	18.5	0.00e+00	0	43	0	0	52	4658
2026-01-28 23:47:20.53	15.87	35.09	-40.9	-42.8	18.4	0.00e+00	0	42	0	0	52	4743
2026-01-28 23:47:21.52	15.86	35.32	-41.1	-43.0	18.3	0.00e+00	0	43	0	0	52	4848
2026-01-28 23:47:22.52	15.85	35.54	-41.2	-43.1	18.1	0.00e+00	0	43	0	0	53	4640
2026-01-28 23:47:23.52	15.84	35.77	-41.5	-43.5	17.8	0.00e+00	0	42	0	0	53	4863
2026-01-28 23:47:24.51	15.83	36.00	-41.5	-43.5	17.9	0.00e+00	0	42	0	0	53	4858
2026-01-28 23:47:25.51	15.82	36.24	-41.7	-43.7	17.7	0.00e+00	0	43	0	0	53	4969
2026-01-28 23:47:26.50	15.81	36.47	-41.9	-44.0	17.5	0.00e+00	0	42	0	0	54	4815
2026-01-28 23:47:27.50	15.80	36.70	-41.9	-44.0	17.4	0.00e+00	0	42	0	0	54	4844
2026-01-28 23:47:28.49	15.79	36.94	-41.9	-44.0	17.4	0.00e+00	0	42	0	0	54	4834
2026-01-28 23:47:29.49	15.78	37.18	-41.8	-43.9	17.5	0.00e+00	0	43	0	0	54	4786
2026-01-28 23:47:30.48	15.77	37.42	-41.7	-43.8	17.6	0.00e+00	0	43	0	0	54	4725
2026-01-28 23:47:31.48	15.75	37.66	-41.7	-43.7	17.7	0.00e+00	0	43	0	0	54	4695
2026-01-28 23:47:32.47	15.74	37.90	-41.4	-43.3	18.1	0.00e+00	0	43	0	0	54	4486
2026-01-28 23:47:33.53	15.73	38.17	-41.3	-43.3	18.1	0.00e+00	0	42	0	0	54	4448
2026-01-28 23:47:34.38	15.72	38.38	-41.1	-43.0	18.3	0.00e+00	0	42	0	0	54	4312
2026-01-28 23:47:35.52	15.70	38.66	-41.1	-43.0	18.3	0.00e+00	0	42	0	0	54	4314
2026-01-28 23:47:36.37	15.69	38.88	-41.0	-42.9	18.4	0.00e+00	0	42	0	0	54	4247
2026-01-28 23:47:37.51	15.68	39.17	-40.9	-42.7	18.5	0.00e+00	0	42	0	0	53	4438
2026-01-28 23:47:38.37	15.67	39.39	-40.9	-42.7	18.5	0.00e+00	0	42	0	0	53	4423
2026-01-28 23:47:39.50	15.65	39.68	-41.0	-42.8	18.4	0.00e+00	0	42	0	0	53	4482
2026-01-28 23:47:40.35	15.64	39.90	-40.9	-42.8	18.5	0.00e+00	0	42	0	0	53	4449
2026-01-28 23:47:41.49	15.62	40.20	-41.0	-42.9	18.3	0.00e+00	0	43	0	0	53	4497
2026-01-28 23:47:42.34	15.61	40.42	-41.1	-43.0	18.2	0.00e+00	0	42	0	0	53	4584
2026-01-28 23:47:43.48	15.60	40.73	-41.1	-43.1	18.1	0.00e+00	0	42	0	0	53	4610
2026-01-28 23:47:44.33	15.58	40.96	-41.2	-43.1	18.2	0.00e+00	0	42	0	0	53	4635
2026-01-28 23:47:45.47	15.56	41.26	-41.2	-43.2	18.1	0.00e+00	0	42	0	0	53	4684
2026-01-28 23:47:46.32	15.55	41.49	-41.5	-43.5	17.9	0.00e+00	0	42	0	0	53	4831
2026-01-28 23:47:47.46	15.53	41.81	-41.9	-44.0	17.5	0.00e+00	0	42	0	0	54	4835
2026-01-28 23:47:48.31	15.52	42.04	-42.0	-44.0	17.4	0.00e+00	0	43	0	0	54	4868
2026-01-28 23:47:49.45	15.50	42.36	-42.1	-44.1	17.3	0.00e+00	0	42	0	0	54	4920
2026-01-28 23:47:50.30	15.49	42.60	-42.2	-44.2	17.3	0.00e+00	0	42	0	0	54	4959
2026-01-28 23:47:51.44	15.47	42.92	-42.2	-44.3	17.1	0.00e+00	0	42	0	0	55	4746
2026-01-28 23:47:52.29	15.45	43.16	-42.2	-44.3	17.2	0.00e+00	0	42	0	0	55	4708
2026-01-28 23:47:53.43	15.43	43.49	-42.1	-44.1	17.3	0.00e+00	0	42	0	0	55	4612
2026-01-28 23:47:54.28	15.41	43.73	-42.2	-44.2	17.2	0.00e+00	0	42	0	0	55	4685
2026-01-28 23:47:55.42	15.39	44.06	-42.3	-44.4	17.0	0.00e+00	0	42	0	0	55	4803
2026-01-28 23:47:56.27	15.38	44.31	-42.4	-44.5	16.9	0.00e+00	0	43	0	0	55	4852
2026-01-28 23:47:57.41	15.35	44.65	-42.4	-44.6	16.8	0.00e+00	0	42	0	0	55	4886
2026-01-28 23:47:58.26	15.34	44.90	-42.5	-44.6	16.7	0.00e+00	0	42	0	0	55	4914
2026-01-28 23:47:59.40	15.31	45.24	-42.6	-44.8	16.5	0.00e+00	0	42	0	0	55	5035
2026-01-28 23:48:00.24	15.30	45.50	-42.6	-44.8	16.6	0.00e+00	0	43	0	0	55	5013
2026-01-28 23:48:01.36	15.27	45.84	-42.8	-45.0	16.5	0.00e+00	0	43	0	0	56	4841
2026-01-28 23:48:02.22	15.25	46.10	-42.9	-45.2	16.4	0.00e+00	0	42	0	0	56	4927
2026-01-28 23:48:03.57	15.22	46.52	-42.8	-45.0	16.6	0.00e+00	0	43	0	0	56	4845
2026-01-28 23:48:04.29	15.21	46.74	-42.5	-44.7	16.9	0.00e+00	0	43	0	0	56	4669
2026-01-28 23:48:05.56	15.18	47.14	-42.0	-44.1	17.4	0.00e+00	0	42	0	0	56	4348
2026-01-28 23:48:06.27	15.16	47.37	-41.7	-43.7	17.6	0.00e+00	0	42	0	0	55	4434
2026-01-28 23:48:07.55	15.13	47.77	-41.5	-43.5	17.8	0.00e+00	0	42	0	0	55	4312
2026-01-28 23:48:08.27	15.11	48.01	-41.5	-43.4	17.9	0.00e+00	0	43	0	0	55	4268
2026-01-28 23:48:09.55	15.07	48.42	-41.3	-43.2	18.1	0.00e+00	0	42	0	0	54	4415
2026-01-28 23:48:10.26	15.06	48.65	-41.3	-43.3	18.1	0.00e+00	0	42	0	0	54	4447
2026-01-28 23:48:11.54	15.02	49.07	-41.5	-43.4	18.0	0.00e+00	0	43	0	0	54	4529
2026-01-28 23:48:12.26	15.00	49.31	-41.4	-43.3	18.1	0.00e+00	0	42	0	0	54	4475
2026-01-28 23:48:13.56	14.96	49.74	-41.0	-42.9	18.5	0.00e+00	0	43	0	0	54	4278
2026-01-28 23:48:14.27	14.94	49.98	-40.9	-42.8	18.6	0.00e+00	0	42	0	0	53	4465
2026-01-28 23:48:15.55	14.90	50.41	-41.1	-42.9	18.5	0.00e+00	0	43	0	0	53	4535
2026-01-28 23:48:16.26	14.88	50.65	-41.0	-42.9	18.5	0.00e+00	0	42	0	0	53	4503
2026-01-28 23:48:17.65	14.84	51.13	-41.3	-43.2	18.2	0.00e+00	0	43	0	0	53	4693
2026-01-28 23:48:18.36	14.82	51.38	-41.4	-43.4	18.1	0.00e+00	0	42	0	0	53	4775
2026-01-28 23:48:19.72	14.77	51.85	-41.5	-43.5	18.0	0.00e+00	0	42	0	0	53	4819
2026-01-28 23:48:20.43	14.75	52.10	-41.4	-43.4	18.0	0.00e+00	0	43	0	0	53	4775
2026-01-28 23:48:21.78	14.70	52.58	-41.1	-43.0	18.4	0.00e+00	0	43	0	0	53	4552
2026-01-28 23:48:22.50	14.67	52.83	-40.9	-42.7	18.7	0.00e+00	0	43	0	0	53	4415
2026-01-28 23:48:23.78	14.62	53.29	-40.6	-42.4	19.0	0.00e+00	0	43	0	0	53	4246
2026-01-28 23:48:24.49	14.60	53.55	-40.5	-42.2	19.1	0.00e+00	0	42	0	0	52	4438
2026-01-28 23:48:25.77	14.55	54.02	-40.3	-42.1	19.2	0.00e+00	0	42	0	0	52	4356
2026-01-28 23:48:26.49	14.52	54.28	-40.4	-42.2	19.1	0.00e+00	0	43	0	0	52	4431
2026-01-28 23:48:27.77	14.46	54.75	-40.3	-42.1	19.2	0.00e+00	0	43	0	0	52	4366
2026-01-28 23:48:28.51	14.43	55.03	-40.4	-42.1	19.2	0.00e+00	0	43	0	0	52	4386
2026-01-28 23:48:29.79	14.38	55.51	-39.9	-41.6	19.7	0.00e+00	0	43	0	0	51	4376
2026-01-28 23:48:30.50	14.34	55.78	-39.7	-41.3	19.9	0.00e+00	0	42	0	0	51	4240
2026-01-28 23:48:31.78	14.28	56.26	-39.8	-41.5	19.7	0.00e+00	0	43	0	0	51	4338
2026-01-28 23:48:32.49	14.25	56.53	-39.8	-41.6	19.6	0.00e+00	0	43	0	0	51	4347
2026-01-28 23:48:33.77	14.19	57.03	-40.0	-41.7	19.6	0.00e+00	0	43	0	0	51	4418
2026-01-28 23:48:34.48	14.15	57.30	-40.0	-41.7	19.6	0.00e+00	0	42	0	0	51	4414
2026-01-28 23:48:35.76	14.08	57.80	-39.8	-41.5	19.7	0.00e+00	0	43	0	0	51	4327
2026-01-28 23:48:36.68	14.03	58.16	-39.7	-41.4	19.8	0.00e+00	0	42	0	0	51	4283
2026-01-28 23:48:37.96	13.96	58.67	-39.3	-41.0	20.2	0.00e+00	0	42	0	0	50	4296
2026-01-28 23:48:38.67	13.92	58.95	-39.2	-40.9	20.3	0.00e+00	0	43	0	0	50	4257
2026-01-28 23:48:39.95	13.84	59.47	-39.1	-40.7	20.5	0.00e+00	0	43	0	0	50	4178
2026-01-28 23:48:40.66	13.80	59.75	-39.1	-40.7	20.5	0.00e+00	0	42	0	0	50	4188
2026-01-28 23:48:41.94	13.72	60.27	-38.8	-40.5	20.7	0.00e+00	0	42	0	0	49	4296
2026-01-28 23:48:42.65	13.67	60.56	-38.8	-40.4	20.8	0.00e+00	0	43	0	0	49	4255
2026-01-28 23:48:43.93	13.58	61.09	-39.0	-40.6	20.4	0.00e+00	0	43	0	0	49	4368
2026-01-28 23:48:44.65	13.53	61.39	-38.9	-40.6	20.4	0.00e+00	0	42	0	0	49	4353
2026-01-28 23:48:45.98	13.43	61.94	-38.8	-40.5	20.5	0.00e+00	0	42	0	0	49	4293
2026-01-28 23:48:46.69	13.38	62.24	-38.8	-40.5	20.6	0.00e+00	0	42	0	0	49	4297
2026-01-28 23:48:48.03	13.27	62.81	-38.7	-40.3	20.7	0.00e+00	0	43	0	0	49	4239
2026-01-28 23:48:48.74	13.21	63.11	-38.5	-40.1	20.8	0.00e+00	0	42	0	0	49	4132
2026-01-28 23:48:50.10	13.10	63.69	-38.3	-39.9	20.9	0.00e+00	0	42	0	0	48	4277
2026-01-28 23:48:50.81	13.03	64.00	-38.5	-40.1	20.8	0.00e+00	0	42	0	0	48	4366
2026-01-28 23:48:52.09	12.91	64.55	-38.3	-39.9	21.0	0.00e+00	0	42	0	0	48	4254
2026-01-28 23:48:52.80	12.85	64.86	-38.3	-39.9	20.9	0.00e+00	0	42	0	0	48	4281
2026-01-28 23:48:54.20	12.71	65.47	-38.1	-39.7	21.2	0.00e+00	0	42	0	0	48	4176
2026-01-28 23:48:54.92	12.63	65.79	-37.8	-39.4	21.4	0.00e+00	0	42	0	0	47	4254
2026-01-28 23:48:56.19	12.49	66.35	-37.8	-39.4	21.4	0.00e+00	0	42	0	0	47	4262
2026-01-28 23:48:56.91	12.41	66.67	-37.9	-39.5	21.4	0.00e+00	0	43	0	0	47	4323
2026-01-28 23:48:58.19	12.26	67.24	-38.3	-39.9	21.0	0.00e+00	0	43	0	0	47	4523
2026-01-28 23:48:58.91	12.17	67.56	-38.5	-40.2	20.8	0.00e+00	0	42	0	0	47	4661
2026-01-28 23:49:00.19	12.00	68.14	-38.2	-39.8	21.1	0.00e+00	0	43	0	0	47	4492
2026-01-28 23:49:00.93	11.90	68.48	-38.0	-39.6	21.3	0.00e+00	0	42	0	0	47	4368
2026-01-28 23:49:02.21	11.72	69.06	-37.8	-39.4	21.3	0.00e+00	0	43	0	0	47	4255
2026-01-28 23:49:02.93	11.61	69.39	-37.7	-39.3	21.3	0.00e+00	0	43	0	0	47	4225
2026-01-28 23:49:04.21	11.41	69.98	-38.1	-39.7	21.0	0.00e+00	0	43	0	0	47	4437
2026-01-28 23:49:04.92	11.29	70.31	-38.1	-39.7	21.2	0.00e+00	0	43	0	0	47	4406
2026-01-28 23:49:06.20	11.07	70.90	-37.8	-39.4	21.4	0.00e+00	0	43	0	0	47	4244
2026-01-28 23:49:06.97	10.92	71.26	-37.8	-39.4	21.3	0.00e+00	0	43	0	0	47	4250
2026-01-28 23:49:08.25	10.68	71.86	-38.1	-39.7	21.0	0.00e+00	0	42	0	0	47	4422
2026-01-28 23:49:08.96	10.53	72.20	-38.3	-40.0	20.9	0.00e+00	0	42	0	0	47	4546
2026-01-28 23:49:10.24	10.25	72.80	-37.9	-39.4	21.4	0.00e+00	0	43	0	0	47	4288
2026-01-28 23:49:11.11	10.05	73.21	-37.7	-39.2	21.5	0.00e+00	0	42	0	0	47	4192
2026-01-28 23:49:12.25	9.77	73.76	-37.9	-39.5	21.1	0.00e+00	0	42	0	0	47	4330
2026-01-28 23:49:13.28	9.50	74.25	-38.1	-39.7	21.0	0.00e+00	0	43	0	0	47	4414
2026-01-28 23:49:14.45	9.17	74.81	-37.9	-39.4	21.2	0.00e+00	0	43	0	0	47	4288
2026-01-28 23:49:15.30	8.91	75.22	-37.7	-39.3	21.4	0.00e+00	0	43	0	0	47	4218
2026-01-28 23:49:16.66	8.46	75.87	-37.6	-39.2	21.5	0.00e+00	0	43	0	0	47	4155
2026-01-28 23:49:17.37	8.22	76.22	-37.9	-39.4	21.3	0.00e+00	0	43	0	0	47	4289
2026-01-28 23:49:18.65	7.73	76.84	-37.9	-39.4	21.3	0.00e+00	0	42	0	0	47	4285
2026-01-28 23:49:19.38	7.43	77.19	-37.9	-39.5	21.2	0.00e+00	0	43	0	0	47	4318
2026-01-28 23:49:20.66	6.87	77.81	-37.6	-39.2	21.4	0.00e+00	0	42	0	0	47	4162
2026-01-28 23:49:21.45	6.49	78.20	-37.8	-39.4	21.3	0.00e+00	0	43	0	0	47	4248
2026-01-28 23:49:22.63	5.87	78.77	-38.1	-39.7	21.1	0.00e+00	0	43	0	0	47	4418
2026-01-28 23:49:23.48	5.38	79.19	-38.3	-39.9	21.0	0.00e+00	0	43	0	0	47	4513
2026-01-28 23:49:24.62	4.67	79.74	-38.2	-39.8	21.1	0.00e+00	0	43	0	0	47	4471
2026-01-28 23:49:25.47	4.08	80.16	-38.4	-40.0	20.8	0.00e+00	0	43	0	0	47	4585
2026-01-28 23:49:26.61	3.21	80.72	-38.6	-40.2	20.7	0.00e+00	0	43	0	0	47	4693
2026-01-28 23:49:27.47	2.47	81.13	-38.4	-40.0	20.9	0.00e+00	0	42	0	0	47	4561
2026-01-28 23:49:28.60	1.40	81.68	-38.5	-40.1	20.8	0.00e+00	0	42	0	0	47	4642
2026-01-28 23:49:29.45	0.49	82.09	-38.8	-40.5	20.7	0.00e+00	0	42	0	0	48	4547
2026-01-28 23:49:30.61	359.08	82.65	-38.7	-40.3	20.8	0.00e+00	0	43	0	0	48	4478
2026-01-28 23:49:31.46	357.90	83.06	-38.4	-40.0	21.1	0.00e+00	0	43	0	0	48	4330
2026-01-28 23:49:32.60	356.09	83.60	-38.4	-40.0	21.0	0.00e+00	0	43	0	0	48	4324
2026-01-28 23:49:33.46	354.50	84.01	-38.6	-40.2	20.7	0.00e+00	0	43	0	0	48	4414
2026-01-28 23:49:34.59	352.05	84.53	-38.8	-40.4	20.4	0.00e+00	0	42	0	0	48	4541
2026-01-28 23:49:35.44	349.88	84.92	-39.1	-40.8	20.1	0.00e+00	0	43	0	0	48	4721
2026-01-28 23:49:36.58	346.39	85.43	-39.1	-40.8	20.1	0.00e+00	0	42	0	0	49	4470
2026-01-28 23:49:37.50	342.97	85.82	-39.0	-40.6	20.4	0.00e+00	0	42	0	0	49	4386
2026-01-28 23:49:38.49	338.51	86.22	-38.7	-40.3	20.7	0.00e+00	0	43	0	0	49	4208
2026-01-28 23:49:39.49	332.95	86.60	-38.4	-40.0	20.9	0.00e+00	0	43	0	0	48	4332
2026-01-28 23:49:40.48	326.15	86.94	-38.4	-40.0	21.1	0.00e+00	0	43	0	0	48	4292
2026-01-28 23:49:41.48	317.72	87.23	-38.4	-40.0	21.0	0.00e+00	0	43	0	0	48	4326
2026-01-28 23:49:42.47	307.74	87.44	-38.2	-39.8	21.2	0.00e+00	0	43	0	0	48	4211
2026-01-28 23:49:43.47	296.25	87.56	-37.9	-39.5	21.2	0.00e+00	0	43	0	0	47	4301
2026-01-28 23:49:44.46	284.20	87.58	-37.9	-39.4	21.2	0.00e+00	0	43	0	0	47	4287
2026-01-28 23:49:45.46	272.39	87.49	-38.1	-39.7	20.9	0.00e+00	0	43	0	0	47	4423
2026-01-28 23:49:46.45	261.89	87.31	-38.5	-40.1	20.7	0.00e+00	0	43	0	0	47	4623
2026-01-28 23:49:47.45	252.91	87.04	-38.9	-40.5	20.6	0.00e+00	0	43	0	0	48	4590
2026-01-28 23:49:48.44	245.63	86.72	-38.6	-40.3	20.8	0.00e+00	0	42	0	0	48	4442
2026-01-28 23:49:49.44	239.67	86.35	-38.3	-39.9	21.1	0.00e+00	0	43	0	0	48	4269
2026-01-28 23:49:50.43	234.88	85.96	-38.1	-39.7	21.3	0.00e+00	0	43	0	0	48	4147
2026-01-28 23:49:51.43	230.94	85.53	-38.3	-39.9	21.1	0.00e+00	0	43	0	0	48	4275
2026-01-28 23:49:52.42	227.73	85.10	-38.7	-40.3	20.8	0.00e+00	0	43	0	0	48	4478
2026-01-28 23:49:53.42	225.02	84.64	-38.4	-40.0	21.0	0.00e+00	0	43	0	0	48	4337
2026-01-28 23:49:54.41	222.76	84.19	-37.9	-39.5	21.5	0.00e+00	0	42	0	0	47	4296
2026-01-28 23:49:55.41	220.82	83.72	-37.6	-39.1	21.5	0.00e+00	0	43	0	0	46	4381
2026-01-28 23:49:56.40	219.17	83.25	-38.0	-39.6	21.1	0.00e+00	0	43	0	0	46	4622
2026-01-28 23:49:57.40	217.72	82.77	-38.4	-40.0	20.8	0.00e+00	0	42	0	0	47	4583
2026-01-28 23:49:58.39	216.46	82.29	-38.5	-40.2	20.7	0.00e+00	0	42	0	0	47	4670
2026-01-28 23:49:59.39	215.35	81.81	-38.3	-39.9	20.9	0.00e+00	0	43	0	0	47	4530
2026-01-28 23:50:00.39	214.36	81.32	-38.3	-39.9	20.7	0.00e+00	0	43	0	0	47	4516
2026-01-28 23:50:01.38	213.48	80.84	-38.0	-39.6	21.1	0.00e+00	0	42	0	0	47	4378
2026-01-28 23:50:02.38	212.69	80.35	-38.1	-39.7	21.2	0.00e+00	0	43	0	0	47	4413
2026-01-28 23:50:03.37	211.98	79.87	-38.1	-39.7	21.2	0.00e+00	0	43	0	0	47	4405
2026-01-28 23:50:04.43	211.29	79.35	-38.0	-39.6	21.3	0.00e+00	0	42	0	0	47	4370
2026-01-28 23:50:05.33	210.76	78.91	-37.9	-39.4	21.4	0.00e+00	0	43	0	0	47	4279
2026-01-28 23:50:06.36	210.21	78.41	-38.1	-39.7	20.9	0.00e+00	0	43	0	0	47	4439
2026-01-28 23:50:07.53	209.63	77.84	-38.2	-39.9	20.8	0.00e+00	0	42	0	0	47	4502
2026-01-28 23:50:08.38	209.25	77.42	-38.2	-39.8	21.0	0.00e+00	0	43	0	0	47	4450
2026-01-28 23:50:09.52	208.77	76.87	-38.0	-39.5	21.3	0.00e+00	0	42	0	0	47	4329
2026-01-28 23:50:10.37	208.44	76.46	-38.3	-39.9	20.9	0.00e+00	0	43	0	0	47	4534
2026-01-28 23:50:11.51	208.03	75.90	-38.3	-39.9	20.6	0.00e+00	0	43	0	0	47	4545
2026-01-28 23:50:12.36	207.75	75.49	-38.1	-39.7	20.4	0.00e+00	0	42	0	0	47	4425
2026-01-28 23:50:13.50	207.39	74.94	-38.2	-39.8	20.2	0.00e+00	0	43	0	0	47	4459
2026-01-28 23:50:14.35	207.14	74.54	-38.3	-39.9	20.3	0.00e+00	0	43	0	0	47	4540
2026-01-28 23:50:15.49	206.83	73.99	-38.2	-39.8	20.6	0.00e+00	0	43	0	0	47	4479
2026-01-28 23:50:16.34	206.61	73.58	-38.1	-39.7	20.9	0.00e+00	0	43	0	0	47	4431
2026-01-28 23:50:17.48	206.34	73.04	-38.8	-40.5	20.6	0.00e+00	0	43	0	0	48	4582
2026-01-28 23:50:18.33	206.15	72.64	-39.0	-40.7	20.5	0.00e+00	0	42	0	0	48	4679
2026-01-28 23:50:19.47	205.90	72.10	-38.7	-40.4	20.6	0.00e+00	0	43	0	0	48	4498
2026-01-28 23:50:20.32	205.73	71.70	-38.2	-39.8	21.1	0.00e+00	0	43	0	0	48	4239
2026-01-28 23:50:21.46	205.51	71.16	-37.7	-39.3	21.5	0.00e+00	0	42	0	0	47	4199
2026-01-28 23:50:22.31	205.35	70.77	-38.0	-39.5	21.3	0.00e+00	0	43	0	0	47	4340
2026-01-28 23:50:23.56	205.14	70.18	-38.1	-39.7	21.2	0.00e+00	0	43	0	0	47	4398
2026-01-28 23:50:24.41	205.00	69.79	-38.2	-39.8	21.1	0.00e+00	0	42	0	0	47	4468
2026-01-28 23:50:25.55	204.82	69.27	-38.5	-40.1	20.7	0.00e+00	0	43	0	0	47	4639
2026-01-28 23:50:26.41	204.70	68.87	-38.3	-39.9	20.7	0.00e+00	0	43	0	0	47	4526
2026-01-28 23:50:27.55	204.53	68.35	-37.7	-39.2	21.1	0.00e+00	0	43	0	0	47	4184
2026-01-28 23:50:28.40	204.42	67.96	-37.6	-39.1	21.2	0.00e+00	0	43	0	0	47	4130
2026-01-28 23:50:29.54	204.27	67.45	-37.5	-39.0	21.6	0.00e+00	0	43	0	0	47	4081
2026-01-28 23:50:30.39	204.17	67.07	-37.8	-39.3	21.4	0.00e+00	0	43	0	0	46	4481
2026-01-28 23:50:31.52	204.04	66.56	-38.4	-40.0	20.8	0.00e+00	0	43	0	0	47	4587
2026-01-28 23:50:32.37	203.94	66.18	-38.9	-40.5	20.6	0.00e+00	0	43	0	0	48	4597
2026-01-28 23:50:33.51	203.82	65.68	-38.9	-40.6	20.5	0.00e+00	0	43	0	0	48	4627
2026-01-28 23:50:34.37	203.73	65.30	-38.3	-39.8	21.0	0.00e+00	0	43	0	0	48	4238
2026-01-28 23:50:35.50	203.61	64.80	-37.8	-39.3	21.0	0.00e+00	0	43	0	0	47	4238
2026-01-28 23:50:36.35	203.53	64.43	-37.9	-39.4	20.8	0.00e+00	0	43	0	0	47	4291
2026-01-28 23:50:37.49	203.43	63.94	-38.2	-39.8	20.8	0.00e+00	0	43	0	0	47	4480
2026-01-28 23:50:38.35	203.35	63.57	-38.6	-40.2	20.7	0.00e+00	0	43	0	0	47	4687
2026-01-28 23:50:39.48	203.25	63.08	-39.7	-41.5	19.8	0.00e+00	0	43	0	0	50	4563
2026-01-28 23:50:40.33	203.18	62.72	-40.4	-42.3	19.1	0.00e+00	0	43	0	0	51	4711
2026-01-28 23:50:41.47	203.09	62.24	-39.7	-41.5	19.3	0.00e+00	0	43	0	0	51	4330
2026-01-28 23:50:42.32	203.03	61.88	-39.4	-41.1	19.6	0.00e+00	0	43	0	0	50	4375
2026-01-28 23:50:43.46	202.94	61.40	-38.5	-40.1	20.4	0.00e+00	0	43	0	0	49	4140
2026-01-28 23:50:44.31	202.88	61.05	-38.5	-40.1	20.6	0.00e+00	0	43	0	0	48	4360
2026-01-28 23:50:45.45	202.80	60.58	-38.1	-39.6	21.2	0.00e+00	0	43	0	0	48	4140
2026-01-28 23:50:46.30	202.75	60.23	-37.9	-39.5	21.3	0.00e+00	0	43	0	0	47	4297
2026-01-28 23:50:47.43	202.67	59.77	-38.3	-39.9	21.0	0.00e+00	0	43	0	0	47	4524
2026-01-28 23:50:48.29	202.62	59.42	-39.1	-40.8	20.3	0.00e+00	0	43	0	0	48	4720
2026-01-28 23:50:49.42	202.55	58.97	-40.1	-41.8	19.4	0.00e+00	0	42	0	0	50	4754
2026-01-28 23:50:50.28	202.50	58.62	-40.4	-42.3	18.9	0.00e+00	0	43	0	0	51	4716
2026-01-28 23:50:51.41	202.44	58.17	-39.4	-41.1	19.7	0.00e+00	0	42	0	0	50	4350
2026-01-28 23:50:52.27	202.39	57.83	-38.8	-40.4	20.1	0.00e+00	0	42	0	0	49	4290
2026-01-28 23:50:53.40	202.33	57.39	-38.3	-39.9	20.6	0.00e+00	0	43	0	0	48	4262
2026-01-28 23:50:54.26	202.29	57.05	-38.4	-40.0	20.6	0.00e+00	0	42	0	0	48	4319
2026-01-28 23:50:55.40	202.23	56.61	-39.3	-41.0	19.8	0.00e+00	0	43	0	0	49	4572
2026-01-28 23:50:56.25	202.19	56.29	-40.1	-41.9	19.2	0.00e+00	0	43	0	0	50	4770
2026-01-28 23:50:57.46	202.13	55.82	-40.7	-42.5	18.7	0.00e+00	0	42	0	0	52	4590
2026-01-28 23:50:58.32	202.09	55.50	-40.8	-42.7	18.4	0.00e+00	0	42	0	0	52	4681
2026-01-28 23:50:59.46	202.04	55.07	-41.3	-43.2	17.8	0.00e+00	0	42	0	0	53	4690
2026-01-28 23:51:00.31	202.00	54.75	-41.5	-43.5	17.5	0.00e+00	0	42	0	0	53	4851
2026-01-28 23:51:01.59	201.95	54.28	-41.9	-44.0	17.1	0.00e+00	0	42	0	0	54	4839
2026-01-28 23:51:02.30	201.92	54.01	-41.8	-43.9	17.3	0.00e+00	0	43	0	0	54	4761
2026-01-28 23:51:03.58	201.87	53.55	-40.3	-42.1	19.0	0.00e+00	0	42	0	0	52	4364
2026-01-28 23:51:04.29	201.84	53.29	-39.8	-41.4	19.7	0.00e+00	0	42	0	0	51	4284
2026-01-28 23:51:05.57	201.79	52.83	-39.7	-41.3	19.8	0.00e+00	0	43	0	0	51	4230
2026-01-28 23:51:06.28	201.77	52.57	-40.1	-41.8	19.4	0.00e+00	0	43	0	0	51	4472
2026-01-28 23:51:07.56	201.72	52.12	-41.1	-43.0	18.3	0.00e+00	0	43	0	0	52	4815
2026-01-28 23:51:08.27	201.70	51.87	-41.4	-43.3	17.9	0.00e+00	0	42	0	0	53	4747
2026-01-28 23:51:09.55	201.65	51.42	-41.4	-43.3	17.8	0.00e+00	0	43	0	0	53	4719
2026-01-28 23:51:10.28	201.63	51.16	-41.8	-43.8	17.1	0.00e+00	0	42	0	0	54	4724
2026-01-28 23:51:11.56	201.59	50.72	-42.4	-44.5	16.5	0.00e+00	0	43	0	0	55	4839
2026-01-28 23:51:12.30	201.56	50.47	-42.3	-44.4	16.6	0.00e+00	0	43	0	0	55	4807
2026-01-28 23:51:13.58	201.52	50.03	-42.4	-44.5	16.6	0.00e+00	0	43	0	0	55	4861
2026-01-28 23:51:14.29	201.50	49.79	-42.4	-44.6	16.5	0.00e+00	0	43	0	0	55	4911
2026-01-28 23:51:15.64	201.46	49.34	-42.2	-44.4	16.7	0.00e+00	0	43	0	0	55	4791
2026-01-28 23:51:16.36	201.44	49.10	-42.1	-44.2	16.9	0.00e+00	0	43	0	0	55	4688
2026-01-28 23:51:17.71	201.41	48.65	-41.2	-43.2	17.9	0.00e+00	0	43	0	0	54	4432
2026-01-28 23:51:18.42	201.39	48.42	-41.0	-42.9	18.2	0.00e+00	0	42	0	0	54	4280
2026-01-28 23:51:19.70	201.35	48.01	-41.1	-43.0	18.2	0.00e+00	0	43	0	0	53	4563
2026-01-28 23:51:20.44	201.33	47.77	-41.5	-43.5	17.8	0.00e+00	0	43	0	0	53	4827
2026-01-28 23:51:21.72	201.30	47.36	-42.3	-44.5	16.9	0.00e+00	0	43	0	0	55	4832
2026-01-28 23:51:22.43	201.28	47.13	-42.9	-45.2	16.4	0.00e+00	0	43	0	0	56	4949
2026-01-28 23:51:23.71	201.25	46.73	-43.5	-45.9	15.7	0.00e+00	0	42	0	0	57	5064
2026-01-28 23:51:24.42	201.24	46.50	-43.5	-45.9	15.7	0.00e+00	0	42	0	0	57	5064
2026-01-28 23:51:25.70	201.21	46.11	-43.3	-45.7	15.9	0.00e+00	0	43	0	0	57	4955
2026-01-28 23:51:26.41	201.19	45.89	-43.3	-45.6	15.9	0.00e+00	0	43	0	0	57	4909
2026-01-28 23:51:27.69	201.16	45.50	-42.9	-45.1	16.4	0.00e+00	0	43	0	0	57	4632
2026-01-28 23:51:28.40	201.15	45.28	-42.8	-45.0	16.5	0.00e+00	0	43	0	0	57	4567
2026-01-28 23:51:29.69	201.12	44.89	-42.7	-44.9	16.6	0.00e+00	0	43	0	0	57	4523
2026-01-28 23:51:30.55	201.10	44.63	-43.1	-45.4	16.1	0.00e+00	0	43	0	0	57	4767
2026-01-28 23:51:31.69	201.08	44.29	-43.1	-45.4	16.0	0.00e+00	0	42	0	0	57	4765
2026-01-28 23:51:32.54	201.06	44.04	-42.8	-45.0	16.1	0.00e+00	0	43	0	0	57	4561
2026-01-28 23:51:33.68	201.04	43.71	-42.2	-44.3	16.9	0.00e+00	0	43	0	0	56	4461
2026-01-28 23:51:34.80	201.02	43.39	-41.5	-43.4	17.6	0.00e+00	0	43	0	0	54	4532
2026-01-28 23:51:35.66	201.00	43.14	-41.3	-43.3	17.9	0.00e+00	0	43	0	0	54	4446
2026-01-28 23:51:36.79	200.98	42.81	-41.2	-43.0	18.1	0.00e+00	0	43	0	0	54	4334
2026-01-28 23:51:37.65	200.97	42.57	-41.2	-43.2	18.1	0.00e+00	0	43	0	0	54	4397
2026-01-28 23:51:38.78	200.95	42.25	-41.3	-43.3	18.0	0.00e+00	0	43	0	0	54	4442
2026-01-28 23:51:39.63	200.93	42.01	-41.5	-43.5	17.8	0.00e+00	0	43	0	0	54	4559
2026-01-28 23:51:40.77	200.91	41.70	-41.9	-44.0	17.4	0.00e+00	0	42	0	0	54	4847
2026-01-28 23:51:41.63	200.90	41.46	-42.4	-44.5	16.8	0.00e+00	0	43	0	0	55	4870
2026-01-28 23:51:42.89	200.88	41.12	-43.0	-45.3	16.3	0.00e+00	0	42	0	0	56	5004
2026-01-28 23:51:43.68	200.87	40.90	-43.2	-45.5	16.0	0.00e+00	0	43	0	0	57	4870
2026-01-28 23:51:44.92	200.85	40.57	-43.2	-45.5	16.0	0.00e+00	0	43	0	0	57	4855
2026-01-28 23:51:45.78	200.83	40.34	-43.3	-45.6	16.0	0.00e+00	0	43	0	0	57	4875
2026-01-28 23:51:46.99	200.82	40.02	-43.3	-45.6	15.9	0.00e+00	0	43	0	0	57	4882
2026-01-28 23:51:47.85	200.80	39.79	-43.2	-45.5	16.1	0.00e+00	0	43	0	0	57	4834
2026-01-28 23:51:48.98	200.79	39.50	-42.5	-44.6	16.8	0.00e+00	0	43	0	0	57	4384
2026-01-28 23:51:49.84	200.78	39.28	-42.2	-44.3	17.2	0.00e+00	0	43	0	0	56	4469
2026-01-28 23:51:50.97	200.76	38.99	-42.2	-44.3	17.2	0.00e+00	0	43	0	0	56	4465
2026-01-28 23:51:51.82	200.75	38.77	-42.2	-44.3	17.2	0.00e+00	0	43	0	0	56	4455
2026-01-28 23:51:52.96	200.73	38.48	-42.3	-44.3	17.1	0.00e+00	0	43	0	0	56	4489
2026-01-28 23:51:53.81	200.72	38.27	-42.3	-44.4	17.1	0.00e+00	0	43	0	0	56	4499
2026-01-28 23:51:54.95	200.71	37.98	-42.3	-44.4	17.1	0.00e+00	0	43	0	0	56	4511
2026-01-28 23:51:55.80	200.70	37.77	-42.0	-44.0	17.4	0.00e+00	0	43	0	0	56	4334
2026-01-28 23:51:56.94	200.69	37.49	-41.4	-43.4	17.9	0.00e+00	0	43	0	0	54	4497
2026-01-28 23:51:57.79	200.67	37.28	-41.2	-43.1	18.2	0.00e+00	0	43	0	0	54	4366
2026-01-28 23:51:59.01	200.66	36.99	-40.8	-42.6	18.4	0.00e+00	0	43	0	0	53	4389
2026-01-28 23:51:59.86	200.65	36.78	-40.8	-42.7	18.4	0.00e+00	0	43	0	0	53	4406
2026-01-28 23:52:01.08	200.64	36.49	-40.8	-42.7	18.5	0.00e+00	0	43	0	0	53	4398
2026-01-28 23:52:01.93	200.63	36.29	-40.7	-42.6	18.6	0.00e+00	0	43	0	0	53	4346
2026-01-28 23:52:03.07	200.62	36.02	-40.6	-42.4	18.8	0.00e+00	0	43	0	0	53	4263
2026-01-28 23:52:03.92	200.61	35.83	-40.4	-42.2	19.0	0.00e+00	0	42	0	0	52	4405
2026-01-28 23:52:05.06	200.59	35.56	-40.5	-42.3	18.8	0.00e+00	0	43	0	0	52	4448
2026-01-28 23:52:05.91	200.59	35.37	-40.6	-42.4	18.6	0.00e+00	0	43	0	0	52	4510
2026-01-28 23:52:07.05	200.57	35.10	-40.6	-42.5	18.6	0.00e+00	0	43	0	0	52	4549
2026-01-28 23:52:08.04	200.56	34.88	-40.5	-42.3	18.7	0.00e+00	0	43	0	0	52	4492
2026-01-28 23:52:09.04	200.55	34.66	-40.5	-42.3	18.9	0.00e+00	0	43	0	0	52	4443
2026-01-28 23:52:10.03	200.54	34.43	-40.1	-41.8	19.2	0.00e+00	0	43	0	0	52	4228
2026-01-28 23:52:11.03	200.54	34.21	-40.0	-41.7	19.2	0.00e+00	0	43	0	0	52	4187
2026-01-28 23:52:12.02	200.53	33.99	-40.1	-41.8	19.3	0.00e+00	0	43	0	0	51	4469
2026-01-28 23:52:13.01	200.52	33.78	-40.0	-41.8	19.3	0.00e+00	0	43	0	0	51	4448
2026-01-28 23:52:14.01	200.51	33.56	-40.1	-41.8	19.3	0.00e+00	0	43	0	0	51	4470
2026-01-28 23:52:15.00	200.50	33.35	-40.0	-41.8	19.4	0.00e+00	0	43	0	0	51	4446
2026-01-28 23:52:16.00	200.49	33.13	-39.8	-41.5	19.6	0.00e+00	0	43	0	0	51	4325
2026-01-28 23:52:16.99	200.48	32.92	-39.8	-41.5	19.6	0.00e+00	0	43	0	0	51	4320
2026-01-28 23:52:17.99	200.47	32.71	-39.9	-41.7	19.5	0.00e+00	0	43	0	0	51	4403
2026-01-28 23:52:18.98	200.47	32.50	-40.1	-41.9	19.3	0.00e+00	0	43	0	0	51	4521
2026-01-28 23:52:19.98	200.46	32.29	-40.1	-41.8	19.4	0.00e+00	0	43	0	0	51	4474
2026-01-28 23:52:20.98	200.45	32.09	-40.0	-41.8	19.4	0.00e+00	0	43	0	0	51	4466
2026-01-28 23:52:21.97	200.44	31.88	-40.0	-41.7	19.5	0.00e+00	0	43	0	0	51	4415
2026-01-28 23:52:22.96	200.44	31.68	-40.0	-41.8	19.4	0.00e+00	0	43	0	0	51	4443
2026-01-28 23:52:23.96	200.43	31.48	-40.0	-41.7	19.4	0.00e+00	0	43	0	0	51	4433
2026-01-28 23:52:24.95	200.42	31.28	-40.0	-41.8	19.4	0.00e+00	0	43	0	0	51	4444
2026-01-28 23:52:25.95	200.41	31.08	-40.1	-41.9	19.3	0.00e+00	0	43	0	0	51	4516
2026-01-28 23:52:26.94	200.41	30.88	-40.2	-42.0	19.1	0.00e+00	0	43	0	0	51	4588
2026-01-28 23:52:27.94	200.40	30.69	-40.3	-42.1	19.0	0.00e+00	0	43	0	0	51	4638
2026-01-28 23:52:28.93	200.39	30.49	-40.4	-42.2	18.9	0.00e+00	0	42	0	0	51	4679
2026-01-28 23:52:29.94	200.39	30.30	-40.4	-42.3	18.9	0.00e+00	0	43	0	0	51	4717
2026-01-28 23:52:30.97	200.38	30.10	-40.6	-42.4	18.8	0.00e+00	0	43	0	0	51	4792
2026-01-28 23:52:31.98	200.37	29.90	-40.4	-42.2	18.9	0.00e+00	0	43	0	0	51	4690
2026-01-28 23:52:32.98	200.37	29.71	-40.3	-42.2	18.9	0.00e+00	0	43	0	0	51	4652
2026-01-28 23:52:33.97	200.36	29.52	-40.2	-42.0	19.0	0.00e+00	0	43	0	0	51	4590
2026-01-28 23:52:34.97	200.35	29.34	-40.2	-42.1	19.0	0.00e+00	0	43	0	0	51	4599
2026-01-28 23:52:35.96	200.35	29.15	-40.0	-41.8	19.1	0.00e+00	0	43	0	0	51	4489
2026-01-28 23:52:36.95	200.34	28.97	-39.9	-41.7	19.2	0.00e+00	0	43	0	0	51	4437
2026-01-28 23:52:37.95	200.34	28.78	-39.9	-41.7	19.2	0.00e+00	0	43	0	0	51	4431
2026-01-28 23:52:38.94	200.33	28.60	-39.9	-41.7	19.1	0.00e+00	0	43	0	0	51	4428
2026-01-28 23:52:39.94	200.33	28.42	-39.7	-41.5	19.3	0.00e+00	0	43	0	0	51	4317
2026-01-28 23:52:40.93	200.32	28.24	-39.8	-41.6	19.2	0.00e+00	0	43	0	0	51	4358
2026-01-28 23:52:41.93	200.31	28.06	-39.8	-41.6	19.1	0.00e+00	0	43	0	0	51	4364
2026-01-28 23:52:42.92	200.31	27.88	-39.9	-41.6	19.2	0.00e+00	0	43	0	0	51	4386
2026-01-28 23:52:43.92	200.30	27.71	-39.7	-41.5	19.3	0.00e+00	0	43	0	0	51	4312
2026-01-28 23:52:44.91	200.30	27.53	-39.8	-41.6	19.3	0.00e+00	0	43	0	0	51	4366
2026-01-28 23:52:45.97	200.29	27.35	-39.6	-41.4	19.5	0.00e+00	0	43	0	0	51	4249
2026-01-28 23:52:46.85	200.29	27.19	-39.6	-41.3	19.6	0.00e+00	0	43	0	0	51	4223
2026-01-28 23:52:47.99	200.28	27.00	-39.7	-41.4	19.5	0.00e+00	0	43	0	0	51	4281
2026-01-28 23:52:48.84	200.28	26.85	-39.7	-41.4	19.5	0.00e+00	0	43	0	0	51	4288
2026-01-28 23:52:49.98	200.27	26.65	-39.6	-41.3	19.6	0.00e+00	0	43	0	0	51	4242
2026-01-28 23:52:50.83	200.27	26.51	-39.5	-41.2	19.8	0.00e+00	0	43	0	0	51	4175
2026-01-28 23:52:51.97	200.26	26.32	-39.4	-41.1	19.9	0.00e+00	0	43	0	0	50	4381
2026-01-28 23:52:52.82	200.26	26.18	-39.3	-41.0	20.0	0.00e+00	0	43	0	0	50	4327
2026-01-28 23:52:53.96	200.26	25.99	-39.4	-41.1	19.9	0.00e+00	0	43	0	0	50	4356
2026-01-28 23:52:54.81	200.25	25.84	-39.3	-41.0	20.0	0.00e+00	0	43	0	0	50	4295
2026-01-28 23:52:55.99	200.25	25.65	-39.2	-40.9	20.1	0.00e+00	0	43	0	0	50	4279
2026-01-28 23:52:56.85	200.24	25.51	-39.2	-40.9	20.1	0.00e+00	0	43	0	0	50	4290
2026-01-28 23:52:57.98	200.24	25.33	-39.2	-40.9	20.1	0.00e+00	0	43	0	0	50	4277
2026-01-28 23:52:58.84	200.23	25.19	-39.3	-41.0	20.0	0.00e+00	0	43	0	0	50	4310
2026-01-28 23:53:00.10	200.23	24.98	-39.2	-40.8	20.2	0.00e+00	0	43	0	0	50	4234
2026-01-28 23:53:00.87	200.23	24.86	-39.1	-40.8	20.2	0.00e+00	0	43	0	0	50	4198
2026-01-28 23:53:02.15	200.22	24.66	-39.1	-40.8	20.2	0.00e+00	0	43	0	0	50	4203
2026-01-28 23:53:02.86	200.22	24.55	-39.1	-40.7	20.2	0.00e+00	0	43	0	0	50	4184
2026-01-28 23:53:04.14	200.21	24.35	-39.0	-40.6	20.3	0.00e+00	0	43	0	0	50	4137
2026-01-28 23:53:04.85	200.21	24.24	-39.0	-40.6	20.3	0.00e+00	0	43	0	0	49	4391
2026-01-28 23:53:06.13	200.21	24.04	-38.9	-40.6	20.3	0.00e+00	0	43	0	0	49	4367
2026-01-28 23:53:06.87	200.20	23.92	-39.1	-40.7	20.2	0.00e+00	0	43	0	0	49	4422
2026-01-28 23:53:08.15	200.20	23.73	-38.9	-40.5	20.4	0.00e+00	0	43	0	0	49	4338
2026-01-28 23:53:08.86	200.20	23.62	-38.9	-40.5	20.4	0.00e+00	0	43	0	0	49	4312
2026-01-28 23:53:10.14	200.19	23.43	-38.9	-40.6	20.3	0.00e+00	0	43	0	0	49	4357
2026-01-28 23:53:10.85	200.19	23.32	-39.0	-40.7	20.2	0.00e+00	0	42	0	0	49	4413
2026-01-28 23:53:12.13	200.19	23.13	-39.0	-40.6	20.3	0.00e+00	0	43	0	0	49	4383
2026-01-28 23:53:12.84	200.19	23.02	-39.0	-40.7	20.2	0.00e+00	0	43	0	0	49	4398
2026-01-28 23:53:14.14	200.18	22.83	-38.9	-40.6	20.4	0.00e+00	0	43	0	0	49	4345
2026-01-28 23:53:14.85	200.18	22.73	-39.0	-40.6	20.3	0.00e+00	0	43	0	0	49	4367
2026-01-28 23:53:16.27	200.17	22.52	-39.0	-40.7	20.3	0.00e+00	0	43	0	0	49	4392
2026-01-28 23:53:16.98	200.17	22.42	-38.9	-40.6	20.4	0.00e+00	0	43	0	0	49	4357
2026-01-28 23:53:18.26	200.17	22.23	-38.9	-40.6	20.4	0.00e+00	0	43	0	0	49	4341
2026-01-28 23:53:18.97	200.17	22.13	-39.0	-40.6	20.3	0.00e+00	0	43	0	0	49	4381
2026-01-28 23:53:20.25	200.16	21.95	-38.9	-40.6	20.4	0.00e+00	0	43	0	0	49	4357
2026-01-28 23:53:20.96	200.16	21.85	-38.9	-40.6	20.4	0.00e+00	0	43	0	0	49	4349
2026-01-28 23:53:22.24	200.16	21.67	-39.0	-40.7	20.3	0.00e+00	0	43	0	0	49	4401
2026-01-28 23:53:22.95	200.16	21.57	-39.1	-40.8	20.2	0.00e+00	0	43	0	0	49	4445
2026-01-28 23:53:24.22	200.15	21.39	-39.0	-40.7	20.2	0.00e+00	0	43	0	0	49	4419
2026-01-28 23:53:24.94	200.15	21.29	-39.1	-40.8	20.2	0.00e+00	0	43	0	0	49	4450
2026-01-28 23:53:26.22	200.15	21.11	-39.1	-40.7	20.2	0.00e+00	0	43	0	0	49	4434
2026-01-28 23:53:26.94	200.15	21.01	-39.1	-40.8	20.2	0.00e+00	0	43	0	0	49	4449
2026-01-28 23:53:28.22	200.14	20.84	-38.9	-40.6	20.4	0.00e+00	0	43	0	0	49	4359
2026-01-28 23:53:28.93	200.14	20.74	-39.1	-40.7	20.2	0.00e+00	0	43	0	0	49	4431
2026-01-28 23:53:30.21	200.14	20.57	-39.1	-40.7	20.2	0.00e+00	0	43	0	0	49	4426
2026-01-28 23:53:30.92	200.14	20.47	-39.1	-40.7	20.2	0.00e+00	0	43	0	0	49	4423
2026-01-28 23:53:32.20	200.13	20.30	-39.2	-40.9	20.1	0.00e+00	0	43	0	0	49	4497
2026-01-28 23:53:32.92	200.13	20.21	-39.2	-40.8	20.1	0.00e+00	0	43	0	0	49	4491
2026-01-28 23:53:34.20	200.13	20.04	-39.3	-41.0	20.0	0.00e+00	0	43	0	0	49	4549
2026-01-28 23:53:34.91	200.13	19.94	-39.3	-41.0	20.0	0.00e+00	0	43	0	0	49	4556
2026-01-28 23:53:36.20	200.13	19.78	-39.4	-41.1	19.9	0.00e+00	0	43	0	0	49	4614
2026-01-28 23:53:36.91	200.12	19.68	-39.4	-41.1	19.8	0.00e+00	0	42	0	0	49	4634
2026-01-28 23:53:38.19	200.12	19.52	-39.5	-41.3	19.7	0.00e+00	0	43	0	0	49	4721
2026-01-28 23:53:38.90	200.12	19.43	-39.5	-41.2	19.8	0.00e+00	0	43	0	0	49	4673
2026-01-28 23:53:40.17	200.12	19.26	-39.5	-41.3	19.7	0.00e+00	0	43	0	0	49	4714
2026-01-28 23:53:40.89	200.12	19.17	-39.6	-41.3	19.7	0.00e+00	0	43	0	0	49	4732
2026-01-28 23:53:42.17	200.11	19.01	-39.6	-41.4	19.6	0.00e+00	0	43	0	0	49	4773
2026-01-28 23:53:42.89	200.11	18.92	-39.6	-41.3	19.7	0.00e+00	0	43	0	0	49	4743
2026-01-28 23:53:44.17	200.11	18.76	-39.7	-41.4	19.6	0.00e+00	0	43	0	0	49	4789
2026-01-28 23:53:44.88	200.11	18.67	-39.8	-41.5	19.5	0.00e+00	0	43	0	0	50	4578
2026-01-28 23:53:46.20	200.11	18.50	-39.8	-41.6	19.4	0.00e+00	0	43	0	0	50	4603
2026-01-28 23:53:46.91	200.11	18.42	-39.9	-41.6	19.3	0.00e+00	0	43	0	0	50	4646
2026-01-28 23:53:48.26	200.10	18.25	-39.9	-41.7	19.3	0.00e+00	0	43	0	0	50	4679
2026-01-28 23:53:49.25	200.10	18.13	-40.0	-41.8	19.2	0.00e+00	0	43	0	0	50	4716
2026-01-28 23:53:50.25	200.10	18.01	-39.9	-41.7	19.2	0.00e+00	0	43	0	0	50	4698
2026-01-28 23:53:51.24	200.10	17.89	-40.0	-41.9	19.1	0.00e+00	0	43	0	0	50	4760
2026-01-28 23:53:52.23	200.10	17.77	-40.1	-41.9	19.1	0.00e+00	0	43	0	0	50	4794
2026-01-28 23:53:53.23	200.10	17.65	-40.1	-42.0	19.0	0.00e+00	0	43	0	0	50	4821
2026-01-28 23:53:54.23	200.10	17.53	-40.1	-41.9	19.1	0.00e+00	0	43	0	0	50	4812
2026-01-28 23:53:55.22	200.10	17.41	-40.2	-42.1	18.9	0.00e+00	0	43	0	0	51	4606
2026-01-28 23:53:56.22	200.09	17.29	-40.2	-42.0	19.0	0.00e+00	0	43	0	0	51	4577
2026-01-28 23:53:57.21	200.09	17.18	-40.2	-42.1	18.9	0.00e+00	0	43	0	0	51	4617
2026-01-28 23:53:58.21	200.09	17.06	-40.2	-42.0	19.0	0.00e+00	0	43	0	0	51	4585
2026-01-28 23:53:59.20	200.09	16.94	-40.2	-42.1	18.9	0.00e+00	0	43	0	0	51	4606
2026-01-28 23:54:00.19	200.09	16.83	-40.2	-42.0	18.9	0.00e+00	0	43	0	0	51	4595
2026-01-28 23:54:01.18	200.09	16.71	-40.1	-41.9	19.0	0.00e+00	0	43	0	0	51	4528
2026-01-28 23:54:02.18	200.09	16.60	-40.1	-41.9	19.0	0.00e+00	0	43	0	0	51	4505
2026-01-28 23:54:03.43	200.09	16.46	-40.2	-42.0	18.9	0.00e+00	0	43	0	0	51	4562
2026-01-28 23:54:04.31	200.08	16.36	-40.2	-42.0	18.9	0.00e+00	0	43	0	0	51	4575
2026-01-28 23:54:05.62	200.08	16.21	-40.2	-42.0	18.9	0.00e+00	0	43	0	0	51	4597
2026-01-28 23:54:06.33	200.08	16.13	-40.1	-42.0	19.0	0.00e+00	0	43	0	0	51	4553
2026-01-28 23:54:07.82	200.08	15.96	-40.1	-42.0	19.0	0.00e+00	0	42	0	0	51	4547
2026-01-28 23:54:08.53	200.08	15.88	-40.1	-41.9	19.0	0.00e+00	0	43	0	0	51	4510
2026-01-28 23:54:09.81	200.08	15.74	-40.1	-41.9	19.0	0.00e+00	0	43	0	0	51	4521
2026-01-28 23:54:10.53	200.08	15.66	-40.2	-42.0	18.9	0.00e+00	0	43	0	0	51	4562
2026-01-28 23:54:11.81	200.08	15.52	-40.3	-42.1	18.8	0.00e+00	0	42	0	0	51	4616
2026-01-28 23:54:12.52	200.08	15.44	-40.2	-42.1	18.8	0.00e+00	0	43	0	0	51	4605
2026-01-28 23:54:13.80	200.08	15.30	-40.3	-42.1	18.8	0.00e+00	0	43	0	0	51	4625
2026-01-28 23:54:14.51	200.08	15.23	-40.3	-42.2	18.7	0.00e+00	0	43	0	0	51	4677
2026-01-28 23:54:15.79	200.07	15.09	-40.5	-42.3	18.6	0.00e+00	0	43	0	0	51	4755
2026-01-28 23:54:16.51	200.07	15.01	-40.4	-42.3	18.6	0.00e+00	0	43	0	0	51	4740
2026-01-28 23:54:17.79	200.07	14.87	-40.3	-42.1	18.7	0.00e+00	0	43	0	0	51	4644
2026-01-28 23:54:18.50	200.07	14.80	-40.3	-42.1	18.7	0.00e+00	0	43	0	0	51	4644
2026-01-28 23:54:19.78	200.07	14.66	-40.4	-42.3	18.6	0.00e+00	0	43	0	0	51	4710
2026-01-28 23:54:20.59	200.07	14.58	-40.4	-42.3	18.6	0.00e+00	0	43	0	0	51	4724
2026-01-28 23:54:21.99	200.07	14.43	-40.4	-42.3	18.6	0.00e+00	0	43	0	0	51	4706
2026-01-28 23:54:22.70	200.07	14.35	-40.4	-42.3	18.5	0.00e+00	0	43	0	0	51	4731
2026-01-28 23:54:23.98	200.07	14.22	-40.4	-42.3	18.6	0.00e+00	0	43	0	0	51	4712
2026-01-28 23:54:24.71	200.07	14.15	-40.4	-42.3	18.5	0.00e+00	0	43	0	0	51	4722
2026-01-28 23:54:26.25	200.07	13.99	-40.4	-42.2	18.6	0.00e+00	0	43	0	0	51	4700
2026-01-28 23:54:27.21	200.07	13.89	-40.5	-42.3	18.5	0.00e+00	0	43	0	0	51	4759
2026-01-28 23:54:28.54	200.07	13.75	-40.5	-42.4	18.4	0.00e+00	0	43	0	0	51	4781
2026-01-28 23:54:29.25	200.07	13.68	-40.6	-42.4	18.4	0.00e+00	0	43	0	0	51	4813
2026-01-28 23:54:30.53	200.07	13.55	-40.6	-42.5	18.3	0.00e+00	0	43	0	0	51	4825
2026-01-28 23:54:31.24	200.07	13.48	-40.5	-42.4	18.4	0.00e+00	0	43	0	0	51	4771
2026-01-28 23:54:32.52	200.07	13.35	-40.6	-42.5	18.3	0.00e+00	0	43	0	0	51	4820
2026-01-28 23:54:33.25	200.07	13.28	-40.5	-42.4	18.4	0.00e+00	0	43	0	0	51	4772
2026-01-28 23:54:34.52	200.07	13.15	-40.4	-42.3	18.5	0.00e+00	0	43	0	0	51	4737
2026-01-28 23:54:35.24	200.07	13.08	-40.5	-42.4	18.4	0.00e+00	0	43	0	0	51	4773
2026-01-28 23:54:36.52	200.07	12.95	-40.5	-42.3	18.4	0.00e+00	0	43	0	0	51	4752
2026-01-28 23:54:37.24	200.06	12.88	-40.5	-42.4	18.4	0.00e+00	0	43	0	0	51	4760
2026-01-28 23:54:38.52	200.06	12.76	-40.5	-42.4	18.4	0.00e+00	0	43	0	0	51	4761
2026-01-28 23:54:39.24	200.06	12.68	-40.5	-42.4	18.3	0.00e+00	0	43	0	0	51	4795
2026-01-28 23:54:40.52	200.06	12.56	-40.4	-42.3	18.4	0.00e+00	0	43	0	0	51	4748
2026-01-28 23:54:41.26	200.06	12.49	-40.5	-42.4	18.4	0.00e+00	0	43	0	0	51	4786
2026-01-28 23:54:42.54	200.06	12.36	-40.5	-42.4	18.3	0.00e+00	0	43	0	0	51	4809
2026-01-28 23:54:43.27	200.06	12.29	-40.5	-42.4	18.3	0.00e+00	0	43	0	0	51	4802
2026-01-28 23:54:44.55	200.06	12.17	-40.6	-42.5	18.2	0.00e+00	0	43	0	0	52	4587
2026-01-28 23:54:45.26	200.06	12.10	-40.6	-42.5	18.2	0.00e+00	0	43	0	0	52	4563
2026-01-28 23:54:46.53	200.06	11.98	-40.4	-42.3	18.3	0.00e+00	0	43	0	0	52	4474
2026-01-28 23:54:47.25	200.06	11.92	-40.5	-42.4	18.2	0.00e+00	0	43	0	0	52	4529
2026-01-28 23:54:48.52	200.06	11.80	-40.4	-42.4	18.3	0.00e+00	0	43	0	0	52	4498
2026-01-28 23:54:49.23	200.06	11.73	-40.5	-42.4	18.2	0.00e+00	0	43	0	0	52	4522
2026-01-28 23:54:50.51	200.06	11.61	-40.6	-42.5	18.1	0.00e+00	0	43	0	0	52	4586
2026-01-28 23:54:51.22	200.06	11.54	-40.5	-42.5	18.2	0.00e+00	0	43	0	0	52	4556
2026-01-28 23:54:52.50	200.06	11.42	-40.6	-42.6	18.1	0.00e+00	0	43	0	0	52	4614
2026-01-28 23:54:53.23	200.06	11.36	-40.6	-42.5	18.1	0.00e+00	0	43	0	0	52	4588
2026-01-28 23:54:54.56	200.06	11.23	-40.6	-42.6	18.0	0.00e+00	0	43	0	0	52	4631
2026-01-28 23:54:55.27	200.06	11.17	-40.7	-42.6	18.0	0.00e+00	0	42	0	0	52	4644
2026-01-28 23:54:56.61	200.06	11.05	-40.6	-42.6	18.1	0.00e+00	0	43	0	0	52	4622
2026-01-28 23:54:57.32	200.06	10.98	-40.7	-42.7	17.9	0.00e+00	0	43	0	0	52	4693
2026-01-28 23:54:58.60	200.06	10.87	-40.7	-42.7	18.0	0.00e+00	0	43	0	0	52	4673
2026-01-28 23:54:59.32	200.06	10.80	-40.7	-42.7	18.0	0.00e+00	0	43	0	0	52	4676
2026-01-28 23:55:00.59	200.06	10.69	-40.9	-42.9	17.7	0.00e+00	0	43	0	0	52	4783
2026-01-28 23:55:01.32	200.06	10.62	-40.8	-42.8	17.9	0.00e+00	0	43	0	0	52	4719
2026-01-28 23:55:02.60	200.06	10.51	-40.8	-42.8	17.8	0.00e+00	0	43	0	0	52	4757
2026-01-28 23:55:03.31	200.07	10.44	-40.8	-42.8	17.8	0.00e+00	0	43	0	0	52	4755
2026-01-28 23:55:04.59	200.07	10.33	-40.8	-42.8	17.8	0.00e+00	0	43	0	0	52	4736
2026-01-28 23:55:05.32	200.07	10.26	-40.9	-43.0	17.7	0.00e+00	0	43	0	0	52	4819
2026-01-28 23:55:06.59	200.07	10.15	-40.9	-42.9	17.7	0.00e+00	0	43	0	0	52	4814
2026-01-28 23:55:07.32	200.07	10.09	-40.9	-42.9	17.7	0.00e+00	0	43	0	0	52	4780
2026-01-28 23:55:08.60	200.07	9.98	-41.0	-43.1	17.6	0.00e+00	0	43	0	0	52	4879
2026-01-28 23:55:09.47	200.07	9.90	-40.9	-43.0	17.6	0.00e+00	0	43	0	0	52	4829
2026-01-28 23:55:10.61	200.07	9.80	-41.0	-43.0	17.6	0.00e+00	0	43	0	0	52	4851
2026-01-28 23:55:11.46	200.07	9.73	-41.0	-43.1	17.5	0.00e+00	0	43	0	0	52	4893
2026-01-28 23:55:12.60	200.07	9.63	-41.1	-43.1	17.5	0.00e+00	0	43	0	0	52	4922
2026-01-28 23:55:13.45	200.07	9.56	-41.1	-43.2	17.5	0.00e+00	0	43	0	0	52	4938
2026-01-28 23:55:14.59	200.07	9.46	-41.1	-43.2	17.5	0.00e+00	0	43	0	0	52	4948
2026-01-28 23:55:15.44	200.07	9.39	-41.1	-43.2	17.4	0.00e+00	0	43	0	0	53	4674
2026-01-28 23:55:16.57	200.07	9.29	-41.1	-43.2	17.5	0.00e+00	0	43	0	0	53	4654
2026-01-28 23:55:17.43	200.07	9.22	-41.1	-43.2	17.4	0.00e+00	0	43	0	0	53	4682
2026-01-28 23:55:18.63	200.07	9.12	-41.1	-43.2	17.4	0.00e+00	0	43	0	0	53	4678
2026-01-28 23:55:19.48	200.07	9.04	-41.5	-43.7	17.0	0.00e+00	0	43	0	0	53	4938
2026-01-28 23:55:20.61	200.07	8.95	-48.7	-61.9	3.8	1.49e+00	0	43	104	0	68	16897
2026-01-28 23:55:21.46	200.07	8.88	-48.6	-62.1	3.8	1.49e+00	0	43	104	0	68	17442
2026-01-28 23:55:22.60	200.07	8.78	-48.4	-61.8	3.8	1.49e+00	0	43	104	0	68	16857
2026-01-28 23:55:23.45	200.07	8.71	-46.6	-61.4	3.8	1.49e+00	0	43	104	0	65	19040
2026-01-28 23:55:24.59	200.07	8.62	-47.1	-60.7	3.8	1.49e+00	0	43	104	0	65	17532
2026-01-28 23:55:25.44	200.07	8.55	-48.2	-61.8	3.8	1.49e+00	0	43	104	0	67	17754
2026-01-28 23:55:26.57	200.07	8.45	-44.5	-61.0	3.8	1.49e+00	0	43	104	0	60	24361
2026-01-28 23:55:27.43	200.07	8.38	-46.6	-60.7	3.8	1.49e+00	0	43	104	0	63	19657
2026-01-28 23:55:28.56	200.07	8.29	-49.0	-62.2	3.8	1.49e+00	0	43	104	0	68	17632
2026-01-28 23:55:29.41	200.08	8.22	-49.3	-62.3	3.8	1.49e+00	0	43	104	0	69	16882
2026-01-28 23:55:30.55	200.08	8.13	-49.3	-62.4	3.8	1.49e+00	0	43	104	0	69	16985
2026-01-28 23:55:31.40	200.08	8.06	-49.3	-62.4	3.8	1.49e+00	0	43	104	0	69	16944
2026-01-28 23:55:32.54	200.08	7.97	-49.4	-62.3	3.8	1.49e+00	0	43	104	0	69	16854
2026-01-28 23:55:33.39	200.08	7.90	-49.5	-62.4	3.8	1.49e+00	0	43	104	0	69	17024
2026-01-28 23:55:34.54	200.08	7.81	-49.4	-62.4	3.8	1.49e+00	0	43	104	0	69	17069
2026-01-28 23:55:35.39	200.08	7.74	-49.5	-62.4	3.8	1.49e+00	0	43	104	0	69	17078
2026-01-28 23:55:36.59	200.08	7.64	-49.4	-62.5	3.8	1.49e+00	0	43	104	0	69	17112
2026-01-28 23:55:37.44	200.08	7.58	-49.3	-62.5	3.8	1.49e+00	0	43	104	0	69	17111
2026-01-28 23:55:38.64	200.08	7.48	-49.3	-62.5	3.8	1.49e+00	0	43	104	0	69	17123
2026-01-28 23:55:39.49	200.08	7.41	-49.4	-62.5	3.8	1.49e+00	0	43	104	0	69	17139
2026-01-28 23:55:40.69	200.08	7.32	-49.3	-62.4	3.8	1.49e+00	0	43	104	0	69	17063
2026-01-28 23:55:41.54	200.08	7.25	-49.2	-62.5	3.8	1.49e+00	0	43	104	0	69	17122
2026-01-28 23:55:42.68	200.08	7.16	-49.3	-62.4	3.8	1.49e+00	0	43	104	0	69	17054
2026-01-28 23:55:43.53	200.08	7.10	-49.3	-62.5	3.8	1.49e+00	0	43	104	0	69	17085
2026-01-28 23:55:44.66	200.09	7.01	-48.7	-62.5	3.8	1.49e+00	0	43	104	0	69	17086
2026-01-28 23:55:45.51	200.09	6.94	-49.1	-62.5	3.8	1.49e+00	0	43	104	0	69	17142
2026-01-28 23:55:46.65	200.09	6.86	-49.3	-62.4	3.8	1.49e+00	0	43	104	0	69	17048
2026-01-28 23:55:47.50	200.09	6.79	-49.4	-62.4	3.8	1.49e+00	0	43	104	0	69	16957
2026-01-28 23:55:48.63	200.09	6.70	-49.3	-62.4	3.8	1.49e+00	0	43	104	0	69	16929
2026-01-28 23:55:49.49	200.09	6.64	-49.3	-62.4	3.8	1.49e+00	0	43	104	0	69	16926
2026-01-28 23:55:50.62	200.09	6.55	-49.2	-62.3	3.8	1.49e+00	0	43	104	0	69	16792
2026-01-28 23:55:51.47	200.09	6.49	-49.2	-62.3	3.8	1.49e+00	0	43	104	0	69	16804
2026-01-28 23:55:52.61	200.09	6.40	-49.2	-62.3	3.8	1.49e+00	0	43	104	0	69	16794
2026-01-28 23:55:53.46	200.09	6.34	-49.2	-62.3	3.8	1.49e+00	0	43	104	0	69	16785
2026-01-28 23:55:54.60	200.09	6.25	-49.2	-62.3	3.8	1.49e+00	0	43	104	0	69	16752
