passes_logs/2026/01/28/T1/T1__20260128_162525_FENGYUN_3E_rec.log

#Pass ID: 20260128_162525_FENGYUN 3E
#Satellite: FENGYUN 3E
#Configuration: FENGYUN 3E
#almurnet v.1.7.20251203
#Start time: 2026-01-28 16:25:25

#Version: 2.0.20230620
#Station: T1
#Location: 37.570604 lon 55.790049 lat
#TLE: 1 49008U 21062A   26027.83084825  .00000170  00000+0  10081-3 0  9997
#TLE: 2 49008  98.7501  32.8098 0002509 114.2687 245.8752 14.19888158236667

#Time	Az	El	Level	Level2	SNR	BER	BlckErr	Temp	State	Recorded	gain1	gain2
2026-01-28 16:25:25.81	237.34	4.99	-50.1	-61.2	3.8	8.48e-01	0	41	0	0	70	13073
2026-01-28 16:25:26.80	237.46	5.03	-50.6	-61.3	3.8	8.47e-01	0	42	104	0	71	12485
2026-01-28 16:25:27.79	237.58	5.08	-50.6	-61.4	3.8	8.49e-01	0	41	104	0	71	12586
2026-01-28 16:25:28.79	237.70	5.12	-50.7	-61.4	3.8	8.46e-01	0	42	104	0	71	12556
2026-01-28 16:25:29.78	237.83	5.16	-50.3	-61.3	3.8	8.47e-01	0	41	104	0	71	12510
2026-01-28 16:25:30.77	237.95	5.21	-50.4	-61.4	3.8	8.48e-01	0	42	104	0	71	12547
2026-01-28 16:25:31.77	238.07	5.25	-50.4	-61.4	3.8	8.46e-01	0	42	104	0	71	12601
2026-01-28 16:25:32.76	238.19	5.29	-50.5	-61.4	3.8	8.47e-01	0	42	104	0	71	12658
2026-01-28 16:25:33.75	238.31	5.34	-50.5	-61.4	3.8	8.47e-01	0	42	104	0	71	12569
2026-01-28 16:25:34.75	238.44	5.38	-50.7	-61.4	3.8	8.46e-01	0	42	104	0	71	12616
2026-01-28 16:25:35.74	238.56	5.42	-50.5	-61.3	3.8	8.46e-01	0	42	104	0	71	12417
2026-01-28 16:25:36.73	238.68	5.47	-50.4	-61.4	3.8	8.46e-01	0	42	104	0	71	12530
2026-01-28 16:25:37.72	238.80	5.51	-50.4	-61.3	3.8	8.47e-01	0	42	104	0	71	12467
2026-01-28 16:25:38.72	238.93	5.55	-50.3	-61.3	3.8	8.47e-01	0	42	104	0	71	12401
2026-01-28 16:25:39.71	239.05	5.60	-50.2	-61.2	3.8	8.46e-01	0	42	104	0	71	12371
2026-01-28 16:25:40.70	239.18	5.64	-50.2	-61.3	3.8	8.46e-01	0	42	104	0	71	12394
2026-01-28 16:25:41.70	239.30	5.68	-50.3	-61.2	3.8	8.46e-01	0	42	104	0	71	12318
2026-01-28 16:25:42.69	239.43	5.72	-50.2	-61.1	3.8	8.48e-01	0	42	104	0	71	12198
2026-01-28 16:25:43.68	239.55	5.77	-50.0	-61.0	3.8	8.47e-01	0	42	104	0	70	12807
2026-01-28 16:25:44.68	239.68	5.81	-49.9	-60.9	3.8	8.47e-01	0	42	104	0	70	12643
2026-01-28 16:25:45.67	239.81	5.85	-49.9	-60.8	3.8	8.46e-01	0	43	104	0	70	12465
2026-01-28 16:25:46.66	239.93	5.90	-49.5	-60.7	3.8	8.48e-01	0	42	104	0	69	13011
2026-01-28 16:25:47.65	240.06	5.94	-49.5	-60.7	3.8	8.47e-01	0	42	104	0	69	12986
2026-01-28 16:25:48.65	240.19	5.98	-49.5	-60.6	3.8	8.47e-01	0	42	104	0	69	12926
2026-01-28 16:25:49.64	240.32	6.02	-49.5	-60.6	3.8	8.45e-01	0	43	104	0	69	12928
2026-01-28 16:25:50.63	240.44	6.07	-49.4	-60.6	3.8	8.46e-01	0	43	104	0	69	12930
2026-01-28 16:25:51.63	240.57	6.11	-49.5	-60.6	3.8	8.46e-01	0	42	104	0	69	12950
2026-01-28 16:25:52.62	240.70	6.15	-49.4	-60.6	3.8	8.47e-01	0	42	104	0	69	12820
2026-01-28 16:25:53.61	240.83	6.19	-49.4	-60.5	3.8	8.47e-01	0	43	104	0	69	12802
2026-01-28 16:25:54.61	240.96	6.23	-49.4	-60.6	3.8	8.47e-01	0	42	104	0	69	12841
2026-01-28 16:25:55.60	241.09	6.28	-49.4	-60.6	3.8	8.47e-01	0	43	104	0	69	12833
2026-01-28 16:25:56.59	241.22	6.32	-49.4	-60.6	3.8	8.48e-01	0	43	104	0	69	12840
2026-01-28 16:25:57.59	241.35	6.36	-49.4	-60.6	3.8	8.48e-01	0	43	104	0	69	12881
2026-01-28 16:25:58.58	241.48	6.40	-49.4	-60.6	3.8	8.47e-01	0	43	104	0	69	12830
2026-01-28 16:25:59.57	241.62	6.45	-49.4	-60.6	3.8	8.46e-01	0	43	104	0	69	12850
2026-01-28 16:26:00.56	241.75	6.49	-49.4	-60.6	3.8	8.48e-01	0	43	104	0	69	12896
2026-01-28 16:26:01.56	241.88	6.53	-49.4	-60.6	3.8	8.47e-01	0	43	104	0	69	12955
2026-01-28 16:26:02.55	242.01	6.57	-49.4	-60.6	3.8	8.47e-01	0	43	104	0	69	12911
2026-01-28 16:26:03.54	242.15	6.61	-49.4	-60.6	3.8	8.48e-01	0	43	104	0	69	12857
2026-01-28 16:26:04.54	242.28	6.65	-49.4	-60.6	3.8	8.46e-01	0	43	104	0	69	12910
2026-01-28 16:26:05.53	242.41	6.70	-49.4	-60.6	3.8	8.47e-01	0	43	104	0	69	12851
2026-01-28 16:26:06.52	242.55	6.74	-49.4	-60.6	3.8	8.46e-01	0	43	104	0	69	12812
2026-01-28 16:26:07.52	242.68	6.78	-49.4	-60.6	3.8	8.46e-01	0	43	104	0	69	12827
2026-01-28 16:26:08.51	242.82	6.82	-49.4	-60.5	3.8	8.47e-01	0	43	104	0	69	12781
2026-01-28 16:26:09.50	242.95	6.86	-49.4	-60.5	3.8	8.46e-01	0	43	104	0	69	12684
2026-01-28 16:26:10.49	243.09	6.90	-49.4	-60.3	3.8	8.47e-01	0	43	104	0	69	12486
2026-01-28 16:26:11.49	243.22	6.94	-49.4	-60.3	3.8	8.47e-01	0	43	104	0	69	12450
2026-01-28 16:26:12.48	243.36	6.99	-49.4	-60.2	3.8	8.46e-01	0	43	104	0	69	12342
2026-01-28 16:26:13.47	243.50	7.03	-49.4	-60.2	3.8	8.48e-01	0	43	104	0	69	12326
2026-01-28 16:26:14.47	243.63	7.07	-49.4	-60.1	3.8	8.48e-01	0	43	104	0	69	12193
2026-01-28 16:26:15.46	243.77	7.11	-49.4	-60.2	3.8	8.47e-01	0	43	104	0	69	12272
2026-01-28 16:26:16.45	243.91	7.15	-49.4	-60.2	3.8	8.47e-01	0	43	104	0	69	12327
2026-01-28 16:26:17.45	244.05	7.19	-49.3	-60.2	3.8	8.46e-01	0	43	104	0	69	12367
2026-01-28 16:26:18.44	244.19	7.23	-49.3	-60.3	3.8	8.46e-01	0	43	104	0	69	12479
2026-01-28 16:26:19.43	244.33	7.27	-49.3	-60.3	3.8	8.48e-01	0	43	104	0	69	12493
2026-01-28 16:26:20.42	244.46	7.31	-49.4	-60.4	3.8	8.47e-01	0	43	104	0	69	12531
2026-01-28 16:26:21.42	244.61	7.35	-49.4	-60.4	3.8	8.47e-01	0	43	104	0	69	12570
2026-01-28 16:26:22.41	244.74	7.39	-49.4	-60.5	3.8	8.47e-01	0	43	104	0	69	12680
2026-01-28 16:26:23.40	244.88	7.43	-49.3	-60.5	3.8	8.47e-01	0	43	104	0	69	12701
2026-01-28 16:26:24.40	245.03	7.47	-49.4	-60.5	3.8	8.47e-01	0	43	104	0	69	12696
2026-01-28 16:26:25.39	245.17	7.51	-49.3	-60.4	3.8	8.47e-01	0	43	104	0	69	12629
2026-01-28 16:26:26.38	245.31	7.55	-49.4	-60.5	3.8	8.48e-01	0	43	104	0	69	12787
2026-01-28 16:26:27.37	245.45	7.59	-49.3	-60.6	3.8	8.46e-01	0	43	104	0	69	12857
2026-01-28 16:26:28.37	245.59	7.63	-49.3	-60.6	3.8	8.47e-01	0	43	104	0	69	12886
2026-01-28 16:26:29.36	245.74	7.67	-49.4	-60.6	3.8	8.46e-01	0	43	104	0	69	12812
2026-01-28 16:26:30.35	245.88	7.71	-49.3	-60.4	3.8	8.46e-01	0	43	104	0	69	12648
2026-01-28 16:26:31.35	246.02	7.75	-49.3	-60.3	3.8	8.46e-01	0	43	104	0	69	12455
2026-01-28 16:26:32.34	246.17	7.79	-49.3	-60.3	3.8	8.47e-01	0	43	104	0	69	12386
2026-01-28 16:26:33.33	246.31	7.83	-49.3	-60.3	3.8	8.46e-01	0	43	104	0	69	12508
2026-01-28 16:26:34.32	246.45	7.87	-49.3	-60.5	3.8	8.47e-01	0	43	104	0	69	12667
2026-01-28 16:26:35.32	246.60	7.91	-49.4	-60.6	3.8	8.47e-01	0	44	104	0	69	12840
2026-01-28 16:26:36.31	246.75	7.95	-49.3	-60.4	3.8	8.47e-01	0	44	104	0	69	12642
2026-01-28 16:26:37.30	246.89	7.99	-49.3	-60.2	3.8	8.47e-01	0	43	104	0	69	12266
2026-01-28 16:26:38.29	247.04	8.03	-49.3	-59.9	3.8	8.46e-01	0	43	104	0	69	11819
2026-01-28 16:26:39.29	247.18	8.07	-49.2	-59.6	3.8	8.47e-01	0	43	104	0	69	11526
2026-01-28 16:26:40.28	247.33	8.10	-49.2	-59.6	3.8	8.46e-01	0	43	104	0	69	11509
2026-01-28 16:26:41.27	247.48	8.14	-49.3	-59.7	3.8	8.47e-01	0	43	104	0	69	11587
2026-01-28 16:26:42.27	247.63	8.18	-49.2	-59.8	3.8	8.46e-01	0	43	104	0	69	11759
2026-01-28 16:26:43.26	247.77	8.22	-49.3	-59.8	3.8	8.46e-01	0	44	104	0	69	11772
2026-01-28 16:26:44.25	247.92	8.26	-49.2	-59.7	3.8	8.46e-01	0	43	104	0	69	11674
2026-01-28 16:26:45.25	248.07	8.30	-49.3	-59.8	3.8	8.47e-01	0	43	104	0	69	11785
2026-01-28 16:26:46.24	248.22	8.33	-49.2	-60.0	3.8	8.46e-01	0	44	104	0	69	11982
2026-01-28 16:26:47.23	248.37	8.37	-49.3	-60.3	3.8	8.47e-01	0	44	104	0	69	12447
2026-01-28 16:26:48.22	248.52	8.41	-49.3	-60.0	3.8	8.48e-01	0	44	104	0	69	12057
2026-01-28 16:26:49.22	248.67	8.45	-49.1	-58.8	3.8	8.46e-01	0	44	104	0	69	10440
2026-01-28 16:26:50.21	248.82	8.49	-48.9	-57.2	4.1	8.42e-01	0	44	0	0	68	9278
2026-01-28 16:26:51.20	248.97	8.52	-48.8	-56.6	4.3	8.32e-01	0	43	0	0	68	8622
2026-01-28 16:26:52.20	249.12	8.56	-48.9	-57.1	4.2	8.37e-01	0	44	0	0	68	9105
2026-01-28 16:26:53.19	249.27	8.60	-49.0	-57.7	4.1	8.44e-01	0	44	104	0	68	9718
2026-01-28 16:26:54.18	249.43	8.63	-48.1	-54.2	5.4	8.10e-01	0	44	0	0	67	6885
2026-01-28 16:26:55.18	249.58	8.67	-46.5	-50.0	9.2	4.52e-02	0	44	0	6291456	63	5363
2026-01-28 16:26:56.17	249.73	8.71	-44.2	-46.3	13.0	2.54e-04	0	44	0	13631488	59	4403
2026-01-28 16:26:57.16	249.89	8.75	-42.3	-43.9	15.3	0.00e+00	0	44	0	19922944	55	4214
2026-01-28 16:26:58.15	250.04	8.78	-40.9	-42.2	17.0	0.00e+00	0	44	0	27262976	52	4116
2026-01-28 16:26:59.15	250.19	8.82	-40.1	-41.3	17.9	0.00e+00	0	44	0	34603008	51	3953
2026-01-28 16:27:00.14	250.35	8.85	-40.1	-41.2	18.0	0.00e+00	0	44	0	41943040	50	4139
2026-01-28 16:27:01.13	250.50	8.89	-40.3	-41.6	17.7	0.00e+00	0	44	0	49283072	50	4295
2026-01-28 16:27:02.12	250.66	8.93	-41.3	-42.6	16.7	0.00e+00	0	44	0	56623104	51	4580
2026-01-28 16:27:03.12	250.81	8.96	-42.4	-44.0	15.2	0.00e+00	0	44	0	62914560	54	4508
2026-01-28 16:27:04.11	250.97	9.00	-44.0	-46.0	13.3	4.50e-06	0	44	0	70254592	57	4791
2026-01-28 16:27:05.10	251.12	9.04	-45.4	-48.1	11.2	4.77e-04	0	44	0	77594624	60	5158
2026-01-28 16:27:06.09	251.28	9.07	-45.7	-48.5	10.9	1.67e-03	0	44	0	84934656	60	5364
2026-01-28 16:27:07.09	251.44	9.11	-48.2	-53.8	5.7	2.24e-01	0	44	0	92274688	65	7408
2026-01-28 16:27:08.08	251.60	9.14	-46.2	-49.3	10.1	4.07e-03	0	44	0	98566144	61	5541
2026-01-28 16:27:09.07	251.75	9.18	-41.1	-42.4	16.9	0.00e+00	0	44	0	105906176	52	4233
2026-01-28 16:27:10.07	251.91	9.21	-47.9	-52.9	6.4	5.86e-02	0	44	0	113246208	65	6688
2026-01-28 16:27:11.06	252.07	9.25	-41.4	-42.8	16.5	0.00e+00	0	44	0	120586240	53	4163
2026-01-28 16:27:12.05	252.23	9.28	-40.3	-41.5	17.9	0.00e+00	0	44	0	127926272	51	4005
2026-01-28 16:27:13.04	252.39	9.32	-39.3	-40.4	18.9	0.00e+00	0	44	0	134217728	49	3994
2026-01-28 16:27:14.04	252.55	9.35	-38.9	-40.0	19.3	0.00e+00	0	44	0	141557760	48	4011
2026-01-28 16:27:15.03	252.71	9.39	-38.9	-40.0	19.3	0.00e+00	0	44	0	148897792	48	4024
2026-01-28 16:27:16.02	252.87	9.42	-38.9	-39.9	19.4	0.00e+00	0	44	0	156237824	48	3983
2026-01-28 16:27:17.02	253.03	9.45	-38.8	-39.8	19.5	0.00e+00	0	44	0	163577856	48	3950
2026-01-28 16:27:18.01	253.19	9.49	-38.9	-39.9	19.4	0.00e+00	0	44	0	170917888	48	3983
2026-01-28 16:27:19.00	253.35	9.52	-38.8	-39.8	19.5	0.00e+00	0	44	0	177209344	48	3942
2026-01-28 16:27:19.99	253.51	9.55	-38.8	-39.8	19.5	0.00e+00	0	44	0	184549376	48	3934
2026-01-28 16:27:20.99	253.68	9.59	-38.7	-39.7	19.6	0.00e+00	0	44	0	191889408	48	3913
2026-01-28 16:27:21.98	253.84	9.62	-38.7	-39.8	19.6	0.00e+00	0	44	0	199229440	48	3914
2026-01-28 16:27:22.97	254.00	9.65	-38.7	-39.7	19.6	0.00e+00	0	44	0	206569472	48	3903
2026-01-28 16:27:23.97	254.16	9.69	-38.8	-39.8	19.5	0.00e+00	0	44	0	213909504	48	3947
2026-01-28 16:27:24.96	254.33	9.72	-38.9	-39.9	19.4	0.00e+00	0	44	0	220200960	48	3988
2026-01-28 16:27:25.95	254.49	9.75	-38.8	-39.9	19.4	0.00e+00	0	44	0	227540992	48	3961
2026-01-28 16:27:26.95	254.66	9.79	-38.9	-40.0	19.4	0.00e+00	0	44	0	234881024	48	4011
2026-01-28 16:27:27.94	254.82	9.82	-39.0	-40.1	19.3	0.00e+00	0	44	0	242221056	48	4062
2026-01-28 16:27:28.93	254.98	9.85	-39.0	-40.1	19.2	0.00e+00	0	44	0	249561088	48	4071
2026-01-28 16:27:29.92	255.15	9.88	-38.9	-39.9	19.4	0.00e+00	0	44	0	256901120	48	3994
2026-01-28 16:27:30.92	255.32	9.91	-38.8	-39.9	19.4	0.00e+00	0	44	0	264241152	48	3970
2026-01-28 16:27:31.91	255.48	9.95	-38.8	-39.8	19.5	0.00e+00	0	44	0	270532608	48	3951
2026-01-28 16:27:32.90	255.65	9.98	-38.7	-39.7	19.6	0.00e+00	0	44	0	277872640	48	3888
2026-01-28 16:27:33.89	255.81	10.01	-38.6	-39.7	19.6	0.00e+00	0	44	0	285212672	48	3874
2026-01-28 16:27:34.89	255.98	10.04	-38.5	-39.5	19.5	0.00e+00	0	44	0	292552704	47	4049
2026-01-28 16:27:35.88	256.15	10.07	-38.5	-39.5	19.5	0.00e+00	0	44	0	299892736	47	4047
2026-01-28 16:27:36.87	256.32	10.10	-38.5	-39.5	19.5	0.00e+00	0	44	0	307232768	47	4043
2026-01-28 16:27:37.87	256.49	10.13	-38.5	-39.6	19.5	0.00e+00	0	44	0	314572800	47	4052
2026-01-28 16:27:38.86	256.65	10.16	-38.5	-39.5	19.6	0.00e+00	0	44	0	320864256	47	4026
2026-01-28 16:27:39.85	256.82	10.19	-38.5	-39.6	19.5	0.00e+00	0	44	0	328204288	47	4064
2026-01-28 16:27:40.85	256.99	10.22	-38.6	-39.6	19.5	0.00e+00	0	44	0	335544320	47	4077
2026-01-28 16:27:41.84	257.16	10.25	-38.6	-39.7	19.4	0.00e+00	0	44	0	342884352	47	4107
2026-01-28 16:27:42.83	257.33	10.28	-38.5	-39.5	19.5	0.00e+00	0	44	0	350224384	47	4046
2026-01-28 16:27:43.82	257.50	10.31	-38.4	-39.5	19.5	0.00e+00	0	44	0	356515840	47	4024
2026-01-28 16:27:44.82	257.67	10.34	-38.4	-39.4	19.6	0.00e+00	0	44	0	363855872	47	4002
2026-01-28 16:27:45.81	257.84	10.37	-38.4	-39.4	19.6	0.00e+00	0	44	0	371195904	47	3973
2026-01-28 16:27:46.80	258.01	10.40	-38.2	-39.2	19.8	0.00e+00	0	44	0	378535936	47	3880
2026-01-28 16:27:47.79	258.18	10.43	-38.2	-39.2	19.8	0.00e+00	0	44	0	385875968	47	3878
2026-01-28 16:27:48.79	258.36	10.46	-38.1	-39.1	19.9	0.00e+00	0	44	0	393216000	47	3847
2026-01-28 16:27:49.78	258.53	10.49	-38.1	-39.1	19.9	0.00e+00	0	44	0	399507456	46	4070
2026-01-28 16:27:50.77	258.70	10.51	-38.2	-39.2	19.8	0.00e+00	0	44	0	406847488	46	4113
2026-01-28 16:27:51.77	258.87	10.54	-38.1	-39.1	19.9	0.00e+00	0	44	0	414187520	46	4094
2026-01-28 16:27:52.76	259.05	10.57	-38.2	-39.2	19.8	0.00e+00	0	44	0	421527552	46	4127
2026-01-28 16:27:53.75	259.22	10.60	-38.3	-39.3	19.7	0.00e+00	0	44	0	428867584	46	4182
2026-01-28 16:27:54.74	259.39	10.62	-38.4	-39.4	19.6	0.00e+00	0	44	0	436207616	46	4225
2026-01-28 16:27:55.74	259.57	10.65	-38.4	-39.4	19.7	0.00e+00	0	44	0	442499072	46	4216
2026-01-28 16:27:56.73	259.74	10.68	-38.4	-39.5	19.6	0.00e+00	0	44	0	449839104	46	4261
2026-01-28 16:27:57.72	259.91	10.71	-38.5	-39.5	19.5	0.00e+00	0	44	0	457179136	46	4280
2026-01-28 16:27:58.72	260.09	10.73	-38.6	-39.6	19.4	0.00e+00	0	44	0	464519168	46	4327
2026-01-28 16:27:59.71	260.27	10.76	-38.5	-39.5	19.5	0.00e+00	0	44	0	471859200	46	4275
2026-01-28 16:28:00.70	260.44	10.78	-38.5	-39.6	19.5	0.00e+00	0	44	0	478150656	46	4292
2026-01-28 16:28:01.69	260.62	10.81	-38.3	-39.3	19.8	0.00e+00	0	44	0	485490688	46	4153
2026-01-28 16:28:02.69	260.79	10.84	-38.3	-39.3	19.8	0.00e+00	0	44	0	492830720	46	4157
2026-01-28 16:28:03.68	260.97	10.86	-38.2	-39.2	19.9	0.00e+00	0	44	0	500170752	46	4108
2026-01-28 16:28:04.67	261.14	10.89	-38.2	-39.2	19.9	0.00e+00	0	44	0	507510784	46	4127
2026-01-28 16:28:05.67	261.32	10.91	-38.2	-39.2	19.8	0.00e+00	0	44	0	514850816	46	4128
2026-01-28 16:28:06.66	261.50	10.94	-38.3	-39.3	19.8	0.00e+00	0	44	0	521142272	46	4156
2026-01-28 16:28:07.65	261.68	10.96	-38.4	-39.4	19.6	0.00e+00	0	44	0	528482304	46	4237
2026-01-28 16:28:08.65	261.86	10.99	-38.5	-39.5	19.6	0.00e+00	0	44	0	535822336	46	4287
2026-01-28 16:28:09.64	262.03	11.01	-38.6	-39.6	19.5	0.00e+00	0	44	0	543162368	46	4333
2026-01-28 16:28:10.63	262.21	11.03	-38.5	-39.5	19.5	0.00e+00	0	44	0	550502400	46	4281
2026-01-28 16:28:11.62	262.39	11.06	-38.6	-39.6	19.5	0.00e+00	0	44	0	557842432	46	4333
2026-01-28 16:28:12.62	262.57	11.08	-38.4	-39.5	19.6	0.00e+00	0	44	0	565182464	46	4246
2026-01-28 16:28:13.61	262.75	11.10	-38.3	-39.3	19.7	0.00e+00	0	44	0	571473920	46	4181
2026-01-28 16:28:14.60	262.93	11.13	-38.3	-39.3	19.7	0.00e+00	0	44	0	578813952	46	4187
2026-01-28 16:28:15.59	263.11	11.15	-38.3	-39.3	19.7	0.00e+00	0	44	0	586153984	46	4182
2026-01-28 16:28:16.59	263.29	11.17	-38.3	-39.4	19.7	0.00e+00	0	44	0	593494016	46	4206
2026-01-28 16:28:17.58	263.47	11.20	-38.4	-39.4	19.6	0.00e+00	0	44	0	600834048	46	4227
2026-01-28 16:28:18.57	263.65	11.22	-38.4	-39.4	19.6	0.00e+00	0	44	0	608174080	46	4242
2026-01-28 16:28:19.57	263.83	11.24	-38.3	-39.4	19.7	0.00e+00	0	44	0	615514112	46	4202
2026-01-28 16:28:20.56	264.01	11.26	-38.4	-39.4	19.7	0.00e+00	0	44	0	621805568	46	4232
2026-01-28 16:28:21.55	264.19	11.28	-38.4	-39.4	19.7	0.00e+00	0	44	0	629145600	46	4211
2026-01-28 16:28:22.55	264.37	11.30	-38.4	-39.4	19.7	0.00e+00	0	44	0	636485632	46	4212
2026-01-28 16:28:23.54	264.56	11.32	-38.3	-39.3	19.8	0.00e+00	0	44	0	643825664	46	4163
2026-01-28 16:28:24.53	264.74	11.35	-38.3	-39.3	19.8	0.00e+00	0	44	0	651165696	46	4162
2026-01-28 16:28:25.52	264.92	11.37	-38.1	-39.1	19.9	0.00e+00	0	44	0	658505728	46	4098
2026-01-28 16:28:26.52	265.10	11.39	-38.1	-39.1	19.9	0.00e+00	0	44	0	664797184	46	4097
2026-01-28 16:28:27.51	265.28	11.41	-38.1	-39.1	20.0	0.00e+00	0	44	0	672137216	46	4077
2026-01-28 16:28:28.50	265.47	11.43	-38.8	-39.9	19.3	0.00e+00	0	44	0	679477248	47	4201
2026-01-28 16:28:29.50	265.65	11.45	-38.2	-39.2	20.0	0.00e+00	0	44	0	686817280	46	4114
2026-01-28 16:28:30.49	265.83	11.46	-38.0	-39.0	20.1	0.00e+00	0	44	0	694157312	46	4020
2026-01-28 16:28:31.48	266.02	11.48	-38.0	-39.0	20.1	0.00e+00	0	44	0	701497344	46	4034
2026-01-28 16:28:32.48	266.20	11.50	-38.0	-39.0	20.1	0.00e+00	0	44	0	707788800	46	4005
2026-01-28 16:28:33.47	266.39	11.52	-38.1	-39.1	20.0	0.00e+00	0	44	0	715128832	46	4058
2026-01-28 16:28:34.46	266.57	11.54	-38.0	-39.0	20.1	0.00e+00	0	44	0	722468864	46	4020
2026-01-28 16:28:35.45	266.76	11.56	-38.1	-39.1	20.0	0.00e+00	0	44	0	729808896	46	4059
2026-01-28 16:28:36.45	266.94	11.58	-38.1	-39.1	19.9	0.00e+00	0	44	0	737148928	46	4087
2026-01-28 16:28:37.44	267.13	11.59	-38.1	-39.1	20.0	0.00e+00	0	44	0	743440384	46	4056
2026-01-28 16:28:38.43	267.31	11.61	-38.1	-39.1	20.0	0.00e+00	0	44	0	750780416	46	4053
2026-01-28 16:28:39.42	267.50	11.63	-38.1	-39.0	20.0	0.00e+00	0	44	0	758120448	46	4044
2026-01-28 16:28:40.42	267.68	11.64	-38.2	-39.2	19.9	0.00e+00	0	44	0	765460480	46	4103
2026-01-28 16:28:41.41	267.87	11.66	-38.0	-39.0	20.0	0.00e+00	0	44	0	772800512	46	4034
2026-01-28 16:28:42.40	268.05	11.68	-37.9	-38.9	20.2	0.00e+00	0	44	0	780140544	46	3967
2026-01-28 16:28:43.40	268.24	11.69	-37.8	-38.8	20.3	0.00e+00	0	44	0	786432000	46	3922
2026-01-28 16:28:44.39	268.43	11.71	-37.7	-38.7	20.3	0.00e+00	0	44	0	793772032	46	3883
2026-01-28 16:28:45.38	268.61	11.72	-37.7	-38.7	20.4	0.00e+00	0	44	0	801112064	46	3880
2026-01-28 16:28:46.38	268.80	11.74	-37.8	-38.8	20.3	0.00e+00	0	44	0	808452096	46	3931
2026-01-28 16:28:47.37	268.99	11.75	-37.8	-38.8	20.3	0.00e+00	0	44	0	815792128	46	3921
2026-01-28 16:28:48.36	269.17	11.77	-37.9	-38.8	20.2	0.00e+00	0	44	0	823132160	46	3949
2026-01-28 16:28:49.35	269.36	11.78	-37.8	-38.7	20.3	0.00e+00	0	44	0	829423616	46	3900
2026-01-28 16:28:50.35	269.55	11.80	-37.8	-38.8	20.3	0.00e+00	0	44	0	836763648	46	3924
2026-01-28 16:28:51.34	269.74	11.81	-37.9	-38.9	20.2	0.00e+00	0	44	0	844103680	46	3988
2026-01-28 16:28:52.33	269.92	11.82	-37.8	-38.8	20.2	0.00e+00	0	44	0	851443712	46	3942
2026-01-28 16:28:53.33	270.11	11.84	-37.9	-38.9	20.2	0.00e+00	0	44	0	858783744	46	3988
2026-01-28 16:28:54.32	270.30	11.85	-37.9	-38.8	20.2	0.00e+00	0	44	0	866123776	46	3953
2026-01-28 16:28:55.31	270.49	11.86	-37.9	-38.8	20.2	0.00e+00	0	44	0	873463808	46	3954
2026-01-28 16:28:56.30	270.68	11.88	-37.8	-38.8	20.3	0.00e+00	0	44	0	879755264	46	3939
2026-01-28 16:28:57.30	270.87	11.89	-37.9	-38.8	20.2	0.00e+00	0	44	0	887095296	46	3957
2026-01-28 16:28:58.29	271.06	11.90	-37.9	-38.9	20.2	0.00e+00	0	44	0	894435328	46	3984
2026-01-28 16:28:59.28	271.24	11.91	-38.0	-38.9	20.1	0.00e+00	0	44	0	901775360	46	4003
2026-01-28 16:29:00.28	271.43	11.92	-37.9	-38.9	20.2	0.00e+00	0	44	0	909115392	46	3968
2026-01-28 16:29:01.27	271.62	11.93	-37.9	-38.9	20.2	0.00e+00	0	44	0	916455424	46	3971
2026-01-28 16:29:02.26	271.81	11.94	-37.9	-38.9	20.2	0.00e+00	0	44	0	923795456	46	3980
2026-01-28 16:29:03.26	272.00	11.96	-37.8	-38.8	20.3	0.00e+00	0	44	0	930086912	46	3920
2026-01-28 16:29:04.25	272.19	11.97	-37.8	-38.8	20.3	0.00e+00	0	44	0	937426944	46	3931
2026-01-28 16:29:05.24	272.38	11.98	-37.9	-38.9	20.2	0.00e+00	0	44	0	944766976	46	3971
2026-01-28 16:29:06.24	272.57	11.99	-38.0	-39.0	20.1	0.00e+00	0	44	0	952107008	46	4011
2026-01-28 16:29:07.23	272.76	11.99	-38.0	-38.9	20.1	0.00e+00	0	44	0	959447040	46	4003
2026-01-28 16:29:08.22	272.95	12.00	-38.0	-39.0	20.1	0.00e+00	0	44	0	966787072	46	4030
2026-01-28 16:29:09.22	273.14	12.01	-38.0	-39.0	20.1	0.00e+00	0	44	0	973078528	46	4037
2026-01-28 16:29:10.21	273.33	12.02	-38.1	-39.1	20.0	0.00e+00	0	44	0	980418560	46	4053
2026-01-28 16:29:11.20	273.52	12.03	-38.2	-39.1	20.0	0.00e+00	0	44	0	987758592	46	4094
2026-01-28 16:29:12.20	273.72	12.04	-38.0	-39.0	20.1	0.00e+00	0	44	0	995098624	46	4043
2026-01-28 16:29:13.19	273.91	12.05	-38.1	-39.1	20.0	0.00e+00	0	44	0	1002438656	46	4058
2026-01-28 16:29:14.18	274.10	12.05	-37.9	-38.9	20.2	0.00e+00	0	44	0	1008730112	46	3988
2026-01-28 16:29:15.17	274.29	12.06	-37.9	-38.9	20.2	0.00e+00	0	44	0	1016070144	46	3984
2026-01-28 16:29:16.17	274.48	12.07	-38.0	-39.0	20.1	0.00e+00	0	44	0	1023410176	46	4010
2026-01-28 16:29:17.16	274.67	12.07	-37.9	-38.9	20.1	0.00e+00	0	44	0	1030750208	46	3998
2026-01-28 16:29:18.15	274.86	12.08	-37.9	-38.9	20.2	0.00e+00	0	44	0	1038090240	46	3971
2026-01-28 16:29:19.15	275.05	12.09	-37.9	-38.9	20.2	0.00e+00	0	44	0	1045430272	46	3981
2026-01-28 16:29:20.14	275.24	12.09	-38.0	-39.0	20.1	0.00e+00	0	44	0	1051721728	46	4006
2026-01-28 16:29:21.13	275.43	12.10	-38.0	-39.0	20.1	0.00e+00	0	44	0	1059061760	46	4025
2026-01-28 16:29:22.13	275.63	12.10	-38.2	-39.2	19.9	0.00e+00	0	44	0	1066401792	46	4108
2026-01-28 16:29:23.12	275.82	12.11	-38.2	-39.2	19.9	0.00e+00	0	44	0	1073741824	46	4109
2026-01-28 16:29:24.11	276.01	12.11	-38.4	-39.4	19.7	0.00e+00	0	44	0	1081081856	46	4224
2026-01-28 16:29:25.11	276.20	12.12	-38.3	-39.3	19.8	0.00e+00	0	44	0	1088421888	46	4184
2026-01-28 16:29:26.10	276.39	12.12	-38.3	-39.3	19.8	0.00e+00	0	44	0	1094713344	46	4161
2026-01-28 16:29:27.09	276.58	12.12	-38.2	-39.2	19.9	0.00e+00	0	44	0	1102053376	46	4130
2026-01-28 16:29:28.08	276.77	12.13	-38.2	-39.2	19.9	0.00e+00	0	44	0	1109393408	46	4139
2026-01-28 16:29:29.08	276.97	12.13	-38.1	-39.1	20.0	0.00e+00	0	44	0	1116733440	46	4083
2026-01-28 16:29:30.07	277.16	12.13	-37.9	-38.9	20.2	0.00e+00	0	44	0	1124073472	46	3981
2026-01-28 16:29:31.06	277.35	12.14	-37.9	-38.9	20.2	0.00e+00	0	44	0	1131413504	46	3975
2026-01-28 16:29:32.06	277.54	12.14	-37.8	-38.8	20.2	0.00e+00	0	44	0	1137704960	46	3951
2026-01-28 16:29:33.05	277.73	12.14	-38.0	-39.0	20.1	0.00e+00	0	44	0	1145044992	46	4017
2026-01-28 16:29:34.04	277.92	12.14	-37.9	-38.9	20.2	0.00e+00	0	44	0	1152385024	46	3994
2026-01-28 16:29:35.04	278.12	12.14	-38.1	-39.1	20.0	0.00e+00	0	44	0	1159725056	46	4064
2026-01-28 16:29:36.03	278.31	12.14	-38.1	-39.1	20.0	0.00e+00	0	44	0	1167065088	46	4084
2026-01-28 16:29:37.02	278.50	12.15	-37.9	-38.9	20.2	0.00e+00	0	44	0	1174405120	46	3973
2026-01-28 16:29:38.01	278.69	12.15	-38.0	-39.0	20.1	0.00e+00	0	44	0	1181745152	46	4019
2026-01-28 16:29:39.01	278.88	12.15	-37.9	-38.9	20.1	0.00e+00	0	44	0	1188036608	46	3998
2026-01-28 16:29:40.00	279.08	12.15	-37.9	-38.9	20.1	0.00e+00	0	44	0	1195376640	46	3997
2026-01-28 16:29:40.99	279.27	12.15	-37.9	-38.9	20.2	0.00e+00	0	44	0	1202716672	46	3975
2026-01-28 16:29:41.99	279.46	12.15	-38.0	-39.0	20.1	0.00e+00	0	44	0	1210056704	46	4029
2026-01-28 16:29:42.98	279.65	12.14	-38.0	-39.0	20.1	0.00e+00	0	44	0	1217396736	46	4026
2026-01-28 16:29:43.97	279.84	12.14	-37.9	-38.9	20.2	0.00e+00	0	44	0	1224736768	46	3966
2026-01-28 16:29:44.97	280.04	12.14	-37.9	-38.9	20.2	0.00e+00	0	44	0	1232076800	46	3971
2026-01-28 16:29:45.96	280.23	12.14	-38.0	-39.0	20.1	0.00e+00	0	44	0	1238368256	46	4009
2026-01-28 16:29:46.95	280.42	12.14	-38.0	-38.9	20.1	0.00e+00	0	44	0	1245708288	46	3994
2026-01-28 16:29:47.94	280.61	12.14	-38.0	-39.0	20.1	0.00e+00	0	44	0	1253048320	46	4032
2026-01-28 16:29:48.94	280.80	12.13	-38.1	-39.0	20.0	0.00e+00	0	44	0	1260388352	46	4051
2026-01-28 16:29:49.93	280.99	12.13	-38.0	-39.0	20.1	0.00e+00	0	44	0	1267728384	46	4035
2026-01-28 16:29:50.92	281.18	12.13	-38.0	-39.0	20.1	0.00e+00	0	44	0	1274019840	46	4041
2026-01-28 16:29:51.92	281.38	12.12	-38.1	-39.1	20.0	0.00e+00	0	44	0	1281359872	46	4087
2026-01-28 16:29:52.91	281.57	12.12	-38.0	-39.0	20.1	0.00e+00	0	44	0	1288699904	46	4006
2026-01-28 16:29:53.90	281.76	12.12	-38.0	-39.0	20.1	0.00e+00	0	44	0	1296039936	46	4018
2026-01-28 16:29:54.90	281.95	12.11	-38.1	-39.0	20.0	0.00e+00	0	44	0	1303379968	46	4049
2026-01-28 16:29:55.89	282.14	12.11	-38.2	-39.2	19.9	0.00e+00	0	44	0	1310720000	46	4114
2026-01-28 16:29:56.88	282.33	12.10	-38.0	-39.0	20.1	0.00e+00	0	44	0	1317011456	46	4030
2026-01-28 16:29:57.87	282.52	12.10	-37.9	-38.9	20.2	0.00e+00	0	44	0	1324351488	46	3978
2026-01-28 16:29:58.87	282.72	12.09	-38.0	-39.0	20.1	0.00e+00	0	44	0	1331691520	46	4020
2026-01-28 16:29:59.86	282.91	12.09	-38.0	-39.0	20.1	0.00e+00	0	44	0	1339031552	46	4025
2026-01-28 16:30:00.85	283.10	12.08	-38.0	-39.0	20.1	0.00e+00	0	44	0	1346371584	46	4013
2026-01-28 16:30:01.84	283.29	12.07	-38.1	-39.1	20.0	0.00e+00	0	44	0	1353711616	46	4079
2026-01-28 16:30:02.84	283.48	12.07	-38.3	-39.3	19.8	0.00e+00	0	44	0	1360003072	46	4153
2026-01-28 16:30:03.83	283.67	12.06	-38.2	-39.2	19.9	0.00e+00	0	44	0	1367343104	46	4115
2026-01-28 16:30:04.82	283.86	12.05	-38.2	-39.2	19.9	0.00e+00	0	44	0	1374683136	46	4139
2026-01-28 16:30:05.82	284.05	12.05	-38.2	-39.2	19.9	0.00e+00	0	44	0	1382023168	46	4105
2026-01-28 16:30:06.81	284.24	12.04	-38.2	-39.2	19.9	0.00e+00	0	44	0	1389363200	46	4139
2026-01-28 16:30:07.80	284.43	12.03	-38.2	-39.2	19.9	0.00e+00	0	44	0	1395654656	46	4103
2026-01-28 16:30:08.80	284.62	12.02	-38.1	-39.2	19.9	0.00e+00	0	44	0	1402994688	46	4099
2026-01-28 16:30:09.79	284.81	12.01	-38.2	-39.2	19.9	0.00e+00	0	44	0	1410334720	46	4133
2026-01-28 16:30:10.78	285.00	12.00	-38.2	-39.2	19.9	0.00e+00	0	44	0	1417674752	46	4113
2026-01-28 16:30:11.77	285.19	11.99	-38.2	-39.2	19.9	0.00e+00	0	44	0	1425014784	46	4126
2026-01-28 16:30:12.77	285.38	11.98	-38.1	-39.1	19.8	0.00e+00	0	44	0	1432354816	46	4070
2026-01-28 16:30:13.76	285.57	11.98	-38.1	-39.1	19.9	0.00e+00	0	44	0	1438646272	46	4079
2026-01-28 16:30:14.75	285.76	11.97	-38.1	-39.1	19.9	0.00e+00	0	44	0	1445986304	46	4077
2026-01-28 16:30:15.75	285.95	11.96	-38.2	-39.2	19.9	0.00e+00	0	44	0	1453326336	46	4116
2026-01-28 16:30:16.74	286.14	11.94	-38.2	-39.2	19.8	0.00e+00	0	44	0	1460666368	46	4138
2026-01-28 16:30:17.73	286.33	11.93	-38.2	-39.2	19.9	0.00e+00	0	44	0	1468006400	46	4117
2026-01-28 16:30:18.73	286.52	11.92	-38.3	-39.3	19.8	0.00e+00	0	44	0	1475346432	46	4162
2026-01-28 16:30:19.72	286.71	11.91	-38.4	-39.3	19.7	0.00e+00	0	44	0	1482686464	46	4192
2026-01-28 16:30:20.71	286.90	11.90	-38.3	-39.3	19.8	0.00e+00	0	44	0	1488977920	46	4158
2026-01-28 16:30:21.71	287.09	11.89	-38.2	-39.2	19.9	0.00e+00	0	44	0	1496317952	46	4129
2026-01-28 16:30:22.70	287.27	11.88	-38.3	-39.2	19.8	0.00e+00	0	44	0	1503657984	46	4141
2026-01-28 16:30:23.69	287.46	11.86	-38.2	-39.2	19.9	0.00e+00	0	44	0	1510998016	46	4099
2026-01-28 16:30:24.68	287.65	11.85	-38.2	-39.1	19.9	0.00e+00	0	44	0	1518338048	46	4093
2026-01-28 16:30:25.68	287.84	11.84	-38.2	-39.2	19.9	0.00e+00	0	44	0	1525678080	46	4125
2026-01-28 16:30:26.67	288.03	11.82	-38.3	-39.3	19.8	0.00e+00	0	44	0	1533018112	46	4160
2026-01-28 16:30:27.66	288.21	11.81	-38.3	-39.3	19.8	0.00e+00	0	44	0	1539309568	46	4155
2026-01-28 16:30:28.66	288.40	11.80	-38.2	-39.2	19.8	0.00e+00	0	44	0	1546649600	46	4133
2026-01-28 16:30:29.65	288.59	11.78	-38.2	-39.2	19.8	0.00e+00	0	44	0	1553989632	46	4122
2026-01-28 16:30:30.64	288.77	11.77	-38.2	-39.2	19.8	0.00e+00	0	44	0	1561329664	46	4118
2026-01-28 16:30:31.63	288.96	11.75	-38.3	-39.3	19.7	0.00e+00	0	44	0	1568669696	46	4167
2026-01-28 16:30:32.63	289.15	11.74	-38.3	-39.3	19.7	0.00e+00	0	44	0	1576009728	46	4160
2026-01-28 16:30:33.62	289.33	11.72	-38.3	-39.3	19.6	0.00e+00	0	44	0	1582301184	46	4178
2026-01-28 16:30:34.61	289.52	11.71	-38.3	-39.3	19.6	0.00e+00	0	44	0	1589641216	46	4168
2026-01-28 16:30:35.61	289.71	11.69	-38.3	-39.3	19.7	0.00e+00	0	44	0	1596981248	46	4156
2026-01-28 16:30:36.60	289.89	11.68	-38.3	-39.3	19.7	0.00e+00	0	44	0	1604321280	46	4178
2026-01-28 16:30:37.59	290.08	11.66	-38.3	-39.4	19.6	0.00e+00	0	44	0	1611661312	46	4194
2026-01-28 16:30:38.58	290.26	11.64	-38.3	-39.3	19.6	0.00e+00	0	44	0	1619001344	46	4190
2026-01-28 16:30:39.58	290.45	11.63	-38.4	-39.4	19.7	0.00e+00	0	44	0	1625292800	46	4197
2026-01-28 16:30:40.57	290.63	11.61	-38.5	-39.5	19.5	0.00e+00	0	44	0	1632632832	46	4281
2026-01-28 16:30:41.56	290.82	11.59	-38.5	-39.5	19.5	0.00e+00	0	44	0	1639972864	46	4263
2026-01-28 16:30:42.56	291.00	11.58	-38.6	-39.6	19.4	0.00e+00	0	44	0	1647312896	46	4316
2026-01-28 16:30:43.55	291.19	11.56	-38.7	-39.8	19.3	0.00e+00	0	44	0	1654652928	46	4399
2026-01-28 16:30:44.54	291.37	11.54	-38.8	-39.8	19.2	0.00e+00	0	44	0	1660944384	47	4177
2026-01-28 16:30:45.53	291.55	11.52	-38.8	-39.8	19.2	0.00e+00	0	44	0	1668284416	47	4189
2026-01-28 16:30:46.53	291.74	11.50	-38.8	-39.9	19.2	0.00e+00	0	44	0	1675624448	47	4208
2026-01-28 16:30:47.52	291.92	11.49	-38.9	-39.9	19.1	0.00e+00	0	44	0	1682964480	47	4241
2026-01-28 16:30:48.51	292.11	11.47	-38.8	-39.9	19.2	0.00e+00	0	44	0	1690304512	47	4201
2026-01-28 16:30:49.50	292.29	11.45	-38.9	-39.9	19.1	0.00e+00	0	44	0	1697644544	47	4232
2026-01-28 16:30:50.50	292.47	11.43	-38.8	-39.9	19.2	0.00e+00	0	44	0	1703936000	47	4200
2026-01-28 16:30:51.49	292.65	11.41	-38.7	-39.8	19.3	0.00e+00	0	44	0	1711276032	47	4156
2026-01-28 16:30:52.48	292.84	11.39	-38.8	-39.8	19.2	0.00e+00	0	44	0	1718616064	47	4190
2026-01-28 16:30:53.48	293.02	11.37	-38.8	-39.8	19.2	0.00e+00	0	44	0	1725956096	47	4175
2026-01-28 16:30:54.47	293.20	11.35	-38.8	-39.8	19.2	0.00e+00	0	44	0	1733296128	47	4170
2026-01-28 16:30:55.46	293.38	11.33	-38.7	-39.7	19.3	0.00e+00	0	44	0	1740636160	47	4140
2026-01-28 16:30:56.45	293.56	11.31	-38.7	-39.7	19.3	0.00e+00	0	44	0	1746927616	47	4121
2026-01-28 16:30:57.45	293.74	11.28	-38.7	-39.8	19.2	0.00e+00	0	44	0	1754267648	47	4162
2026-01-28 16:30:58.44	293.93	11.26	-38.8	-39.8	19.2	0.00e+00	0	44	0	1761607680	47	4168
2026-01-28 16:30:59.43	294.11	11.24	-38.8	-39.9	19.1	0.00e+00	0	44	0	1768947712	47	4217
2026-01-28 16:31:00.42	294.28	11.22	-38.8	-39.9	19.2	0.00e+00	0	44	0	1776287744	47	4197
2026-01-28 16:31:01.42	294.47	11.20	-38.9	-40.0	19.0	0.00e+00	0	44	0	1783627776	47	4270
2026-01-28 16:31:02.41	294.65	11.18	-38.9	-39.9	19.1	0.00e+00	0	44	0	1789919232	47	4234
2026-01-28 16:31:03.40	294.82	11.15	-39.0	-40.0	19.0	0.00e+00	0	44	0	1797259264	47	4288
2026-01-28 16:31:04.39	295.00	11.13	-39.1	-40.1	18.9	0.00e+00	0	44	0	1804599296	47	4335
2026-01-28 16:31:05.39	295.18	11.11	-39.1	-40.3	18.7	0.00e+00	0	44	0	1811939328	47	4396
2026-01-28 16:31:06.38	295.36	11.08	-39.1	-40.2	18.9	0.00e+00	0	44	0	1819279360	47	4350
2026-01-28 16:31:07.37	295.54	11.06	-39.1	-40.2	18.8	0.00e+00	0	44	0	1826619392	47	4359
2026-01-28 16:31:08.37	295.72	11.04	-39.2	-40.3	18.8	0.00e+00	0	44	0	1833959424	47	4402
2026-01-28 16:31:09.36	295.90	11.01	-39.1	-40.2	18.8	0.00e+00	0	44	0	1840250880	47	4371
2026-01-28 16:31:10.35	296.07	10.99	-39.1	-40.1	18.9	0.00e+00	0	44	0	1847590912	47	4340
2026-01-28 16:31:11.34	296.25	10.97	-39.0	-40.1	18.9	0.00e+00	0	44	0	1854930944	47	4309
2026-01-28 16:31:12.34	296.43	10.94	-39.0	-40.1	19.0	0.00e+00	0	44	0	1862270976	47	4295
2026-01-28 16:31:13.33	296.60	10.92	-39.1	-40.1	18.9	0.00e+00	0	44	0	1869611008	47	4334
2026-01-28 16:31:14.32	296.78	10.89	-39.2	-40.2	18.8	0.00e+00	0	44	0	1876951040	47	4386
2026-01-28 16:31:15.31	296.96	10.87	-39.1	-40.1	18.9	0.00e+00	0	44	0	1884291072	47	4334
2026-01-28 16:31:16.31	297.13	10.84	-39.2	-40.3	18.8	0.00e+00	0	44	0	1890582528	47	4392
2026-01-28 16:31:17.30	297.31	10.82	-39.2	-40.3	18.7	0.00e+00	0	44	0	1897922560	47	4429
2026-01-28 16:31:18.29	297.48	10.79	-39.4	-40.4	18.8	0.00e+00	0	44	0	1905262592	48	4236
2026-01-28 16:31:19.29	297.66	10.76	-39.5	-40.6	18.7	0.00e+00	0	44	0	1912602624	48	4313
2026-01-28 16:31:20.28	297.83	10.74	-39.6	-40.6	18.6	0.00e+00	0	44	0	1919942656	48	4339
2026-01-28 16:31:21.27	298.01	10.71	-39.6	-40.7	18.6	0.00e+00	0	44	0	1926234112	48	4383
2026-01-28 16:31:22.26	298.18	10.68	-39.7	-40.8	18.5	0.00e+00	0	44	0	1933574144	48	4423
2026-01-28 16:31:23.26	298.35	10.66	-39.7	-40.8	18.4	0.00e+00	0	44	0	1940914176	48	4413
2026-01-28 16:31:24.25	298.53	10.63	-39.8	-40.9	18.4	0.00e+00	0	44	0	1948254208	49	4213
2026-01-28 16:31:25.24	298.70	10.60	-39.7	-40.8	18.5	0.00e+00	0	44	0	1955594240	49	4168
2026-01-28 16:31:26.23	298.87	10.58	-39.7	-40.8	18.4	0.00e+00	0	44	0	1962934272	49	4150
2026-01-28 16:31:27.23	299.05	10.55	-39.6	-40.7	18.5	0.00e+00	0	44	0	1969225728	49	4135
2026-01-28 16:31:28.22	299.22	10.52	-39.6	-40.7	18.6	0.00e+00	0	44	0	1976565760	49	4099
2026-01-28 16:31:29.21	299.39	10.49	-39.7	-40.8	18.5	0.00e+00	0	44	0	1983905792	49	4149
2026-01-28 16:31:30.21	299.56	10.46	-39.6	-40.7	18.5	0.00e+00	0	44	0	1991245824	49	4133
2026-01-28 16:31:31.20	299.73	10.44	-39.6	-40.6	18.6	0.00e+00	0	44	0	1998585856	49	4091
2026-01-28 16:31:32.19	299.90	10.41	-39.5	-40.6	18.7	0.00e+00	0	44	0	2005925888	49	4052
2026-01-28 16:31:33.19	300.07	10.38	-39.5	-40.6	18.6	0.00e+00	0	44	0	2012217344	49	4072
2026-01-28 16:31:34.18	300.24	10.35	-39.5	-40.6	18.7	0.00e+00	0	44	0	2019557376	49	4066
2026-01-28 16:31:35.17	300.41	10.32	-39.6	-40.7	18.5	0.00e+00	0	44	0	2026897408	49	4136
2026-01-28 16:31:36.17	300.58	10.29	-39.6	-40.6	18.6	0.00e+00	0	44	0	2034237440	49	4095
2026-01-28 16:31:37.16	300.75	10.26	-39.4	-40.5	18.7	0.00e+00	0	44	0	2041577472	49	4029
2026-01-28 16:31:38.15	300.92	10.23	-39.5	-40.6	18.6	0.00e+00	0	44	0	2047868928	49	4076
2026-01-28 16:31:39.14	301.09	10.20	-39.6	-40.7	18.5	0.00e+00	0	44	0	2055208960	49	4110
2026-01-28 16:31:40.14	301.26	10.17	-39.7	-40.8	18.4	0.00e+00	0	44	0	2062548992	49	4166
2026-01-28 16:31:41.13	301.42	10.14	-39.6	-40.7	18.5	0.00e+00	0	44	0	2069889024	49	4124
2026-01-28 16:31:42.12	301.59	10.11	-39.7	-40.8	18.4	0.00e+00	0	44	0	2077229056	49	4173
2026-01-28 16:31:43.11	301.76	10.08	-39.8	-40.9	18.4	0.00e+00	0	44	0	2084569088	49	4196
2026-01-28 16:31:44.11	301.93	10.05	-39.8	-40.9	18.3	0.00e+00	0	44	0	2090860544	49	4236
2026-01-28 16:31:45.10	302.09	10.02	-39.9	-41.0	18.2	0.00e+00	0	44	0	2098200576	49	4264
2026-01-28 16:31:46.09	302.26	9.99	-39.9	-41.1	18.2	0.00e+00	0	44	0	2105540608	49	4293
2026-01-28 16:31:47.09	302.42	9.96	-39.9	-41.0	18.2	0.00e+00	0	44	0	2112880640	49	4269
2026-01-28 16:31:48.08	302.59	9.93	-39.8	-40.9	18.3	0.00e+00	0	44	0	2120220672	49	4240
2026-01-28 16:31:49.07	302.75	9.89	-39.9	-41.0	18.2	0.00e+00	0	44	0	2127560704	49	4277
2026-01-28 16:31:50.07	302.92	9.86	-39.9	-41.0	18.2	0.00e+00	0	44	0	2134900736	49	4275
2026-01-28 16:31:51.06	303.08	9.83	-40.0	-41.1	18.1	0.00e+00	0	44	0	2141192192	49	4311
2026-01-28 16:31:52.05	303.25	9.80	-40.0	-41.1	18.1	0.00e+00	0	44	0	2148532224	49	4302
2026-01-28 16:31:53.04	303.41	9.77	-40.0	-41.2	18.0	0.00e+00	0	44	0	2155872256	49	4344
2026-01-28 16:31:54.04	303.57	9.73	-40.0	-41.1	18.1	0.00e+00	0	44	0	2163212288	49	4322
2026-01-28 16:31:55.03	303.74	9.70	-40.0	-41.1	18.1	0.00e+00	0	44	0	2170552320	49	4316
2026-01-28 16:31:56.02	303.90	9.67	-39.9	-41.1	18.1	0.00e+00	0	44	0	2177892352	49	4300
2026-01-28 16:31:57.02	304.06	9.64	-40.0	-41.1	18.1	0.00e+00	0	44	0	2185232384	49	4324
2026-01-28 16:31:58.01	304.22	9.60	-39.9	-41.1	18.1	0.00e+00	0	44	0	2191523840	49	4300
2026-01-28 16:31:59.00	304.38	9.57	-39.9	-41.1	18.1	0.00e+00	0	44	0	2198863872	49	4296
2026-01-28 16:32:00.00	304.55	9.54	-39.8	-40.9	18.2	0.00e+00	0	44	0	2206203904	49	4236
2026-01-28 16:32:00.99	304.71	9.50	-39.8	-40.9	18.2	0.00e+00	0	44	0	2213543936	49	4231
2026-01-28 16:32:01.98	304.87	9.47	-39.9	-40.9	18.2	0.00e+00	0	44	0	2220883968	49	4241
2026-01-28 16:32:02.97	305.03	9.44	-39.9	-41.0	18.2	0.00e+00	0	44	0	2228224000	49	4250
2026-01-28 16:32:03.97	305.19	9.40	-39.8	-40.9	18.3	0.00e+00	0	44	0	2234515456	49	4234
2026-01-28 16:32:04.96	305.35	9.37	-39.9	-41.0	18.2	0.00e+00	0	44	0	2241855488	49	4278
2026-01-28 16:32:05.95	305.50	9.33	-39.9	-41.1	18.1	0.00e+00	0	44	0	2249195520	49	4306
2026-01-28 16:32:06.95	305.66	9.30	-39.9	-41.1	18.1	0.00e+00	0	44	0	2256535552	49	4308
2026-01-28 16:32:07.94	305.82	9.26	-40.0	-41.2	18.1	0.00e+00	0	44	0	2263875584	49	4343
2026-01-28 16:32:08.93	305.98	9.23	-40.0	-41.1	18.0	0.00e+00	0	44	0	2270167040	49	4334
2026-01-28 16:32:09.93	306.14	9.19	-40.1	-41.3	18.0	0.00e+00	0	44	0	2277507072	49	4392
2026-01-28 16:32:10.92	306.29	9.16	-40.2	-41.3	17.9	0.00e+00	0	44	0	2284847104	49	4440
2026-01-28 16:32:11.91	306.45	9.12	-40.1	-41.3	17.8	0.00e+00	0	44	0	2292187136	49	4431
2026-01-28 16:32:12.90	306.61	9.09	-40.3	-41.5	17.7	0.00e+00	0	44	0	2299527168	49	4507
2026-01-28 16:32:13.90	306.76	9.05	-40.3	-41.5	17.7	0.00e+00	0	44	0	2306867200	50	4270
2026-01-28 16:32:14.89	306.92	9.02	-40.3	-41.5	17.7	0.00e+00	0	44	0	2313158656	50	4279
2026-01-28 16:32:15.88	307.07	8.98	-47.5	-51.9	7.5	8.23e-05	0	44	0	2320498688	64	6285
2026-01-28 16:32:16.88	307.23	8.95	-49.4	-60.2	3.8	8.47e-01	0	44	104	2321547264	68	13083
2026-01-28 16:32:17.87	307.38	8.91	-49.7	-60.4	3.8	8.46e-01	0	44	104	2321547264	68	13298
2026-01-28 16:32:18.86	307.54	8.88	-49.7	-60.4	3.8	8.47e-01	0	44	104	2321547264	68	13390
2026-01-28 16:32:19.86	307.69	8.84	-49.6	-60.4	3.8	8.46e-01	0	44	104	2321547264	68	13373
2026-01-28 16:32:20.85	307.84	8.80	-49.7	-60.5	3.8	8.46e-01	0	44	104	2321547264	68	13443
2026-01-28 16:32:21.84	308.00	8.77	-49.8	-60.5	3.8	8.47e-01	0	44	104	2321547264	69	12772
2026-01-28 16:32:22.84	308.15	8.73	-49.5	-60.5	3.8	8.46e-01	0	44	104	2321547264	69	12755
2026-01-28 16:32:23.83	308.30	8.69	-49.5	-60.5	3.8	8.48e-01	0	44	104	2321547264	69	12665
2026-01-28 16:32:24.82	308.45	8.66	-49.5	-60.5	3.8	8.47e-01	0	44	104	2321547264	69	12714
2026-01-28 16:32:25.81	308.61	8.62	-49.5	-60.4	3.8	8.47e-01	0	44	104	2321547264	69	12625
2026-01-28 16:32:26.81	308.76	8.58	-49.5	-60.4	3.8	8.47e-01	0	44	104	2321547264	69	12590
2026-01-28 16:32:27.80	308.91	8.55	-49.5	-60.4	3.8	8.47e-01	0	44	104	2321547264	69	12635
2026-01-28 16:32:28.79	309.06	8.51	-49.5	-60.5	3.8	8.46e-01	0	44	104	2321547264	69	12675
2026-01-28 16:32:29.78	309.21	8.47	-49.5	-60.4	3.8	8.47e-01	0	44	104	2321547264	69	12663
2026-01-28 16:32:30.78	309.36	8.44	-49.5	-60.5	3.8	8.46e-01	0	44	104	2321547264	69	12667
2026-01-28 16:32:31.77	309.51	8.40	-49.5	-60.5	3.8	8.47e-01	0	44	104	2321547264	69	12758
2026-01-28 16:32:32.76	309.66	8.36	-49.5	-60.4	3.8	8.47e-01	0	44	104	2321547264	69	12644
2026-01-28 16:32:33.76	309.81	8.32	-49.5	-60.4	3.8	8.46e-01	0	44	104	2321547264	69	12602
2026-01-28 16:32:34.75	309.95	8.28	-49.5	-60.4	3.8	8.48e-01	0	44	104	2321547264	69	12655
2026-01-28 16:32:35.74	310.10	8.25	-49.5	-60.4	3.8	8.46e-01	0	44	104	2321547264	69	12644
2026-01-28 16:32:36.74	310.25	8.21	-49.5	-60.4	3.8	8.48e-01	0	44	104	2321547264	69	12602
2026-01-28 16:32:37.73	310.40	8.17	-49.5	-60.5	3.8	8.46e-01	0	44	104	2321547264	69	12711
2026-01-28 16:32:38.72	310.54	8.13	-49.5	-60.4	3.8	8.46e-01	0	44	104	2321547264	69	12619
2026-01-28 16:32:39.72	310.69	8.09	-49.5	-60.5	3.8	8.47e-01	0	44	104	2321547264	69	12678
2026-01-28 16:32:40.71	310.83	8.06	-49.5	-60.5	3.8	8.46e-01	0	44	104	2321547264	69	12687
2026-01-28 16:32:41.70	310.98	8.02	-49.5	-60.4	3.8	8.46e-01	0	44	104	2321547264	69	12653
2026-01-28 16:32:42.70	311.13	7.98	-49.5	-60.4	3.8	8.46e-01	0	44	104	2321547264	69	12662
2026-01-28 16:32:43.69	311.27	7.94	-49.5	-60.4	3.8	8.47e-01	0	44	104	2321547264	69	12661
2026-01-28 16:32:44.68	311.41	7.90	-49.5	-60.4	3.8	8.47e-01	0	44	104	2321547264	69	12627
2026-01-28 16:32:45.67	311.56	7.86	-49.5	-60.4	3.8	8.46e-01	0	44	104	2321547264	69	12658
2026-01-28 16:32:46.67	311.70	7.82	-49.5	-60.4	3.8	8.47e-01	0	44	104	2321547264	69	12659
2026-01-28 16:32:47.66	311.85	7.78	-49.5	-60.5	3.8	8.46e-01	0	44	104	2321547264	69	12678
2026-01-28 16:32:48.65	311.99	7.74	-49.5	-60.4	3.8	8.46e-01	0	44	104	2321547264	69	12623
2026-01-28 16:32:49.65	312.13	7.71	-49.5	-60.5	3.8	8.48e-01	0	44	104	2321547264	69	12685
2026-01-28 16:32:50.64	312.27	7.67	-49.5	-60.4	3.8	8.46e-01	0	44	104	2321547264	69	12617
2026-01-28 16:32:51.63	312.41	7.63	-49.5	-60.5	3.8	8.46e-01	0	44	104	2321547264	69	12666
2026-01-28 16:32:52.62	312.56	7.59	-49.5	-60.4	3.8	8.47e-01	0	44	104	2321547264	69	12662
2026-01-28 16:32:53.62	312.70	7.55	-49.5	-60.4	3.8	8.48e-01	0	44	104	2321547264	69	12609
2026-01-28 16:32:54.61	312.84	7.51	-49.5	-60.4	3.8	8.46e-01	0	44	104	2321547264	69	12590
2026-01-28 16:32:55.60	312.98	7.47	-49.5	-60.4	3.8	8.47e-01	0	44	104	2321547264	69	12618
2026-01-28 16:32:56.60	313.12	7.43	-49.5	-60.4	3.8	8.47e-01	0	44	104	2321547264	69	12647
2026-01-28 16:32:57.59	313.26	7.39	-49.5	-60.4	3.8	8.47e-01	0	44	104	2321547264	69	12628
2026-01-28 16:32:58.58	313.40	7.35	-49.4	-60.4	3.8	8.45e-01	0	44	104	2321547264	69	12659
2026-01-28 16:32:59.58	313.54	7.31	-49.5	-60.5	3.8	8.48e-01	0	44	104	2321547264	69	12691
2026-01-28 16:33:00.57	313.68	7.27	-49.5	-60.4	3.8	8.47e-01	0	44	104	2321547264	69	12642
2026-01-28 16:33:01.56	313.81	7.23	-49.5	-60.4	3.8	8.47e-01	0	44	104	2321547264	69	12597
2026-01-28 16:33:02.55	313.95	7.19	-49.5	-60.5	3.8	8.46e-01	0	44	104	2321547264	69	12689
2026-01-28 16:33:03.55	314.09	7.15	-49.5	-60.4	3.8	8.48e-01	0	44	104	2321547264	69	12653
2026-01-28 16:33:04.54	314.23	7.11	-49.5	-60.4	3.8	8.46e-01	0	44	104	2321547264	69	12633
2026-01-28 16:33:05.53	314.36	7.07	-49.5	-60.5	3.8	8.46e-01	0	44	104	2321547264	69	12713
2026-01-28 16:33:06.53	314.50	7.03	-49.5	-60.4	3.8	8.46e-01	0	44	104	2321547264	69	12591
2026-01-28 16:33:07.52	314.63	6.98	-49.5	-60.4	3.8	8.46e-01	0	44	104	2321547264	69	12600
2026-01-28 16:33:08.51	314.77	6.94	-49.5	-60.4	3.8	8.47e-01	0	44	104	2321547264	69	12625
2026-01-28 16:33:09.50	314.90	6.90	-49.5	-60.4	3.8	8.47e-01	0	44	104	2321547264	69	12658
2026-01-28 16:33:10.50	315.04	6.86	-49.5	-60.5	3.8	8.47e-01	0	44	104	2321547264	69	12665
2026-01-28 16:33:11.49	315.17	6.82	-49.5	-60.5	3.8	8.46e-01	0	44	104	2321547264	69	12669
2026-01-28 16:33:12.48	315.31	6.78	-49.5	-60.4	3.8	8.47e-01	0	44	104	2321547264	69	12641
2026-01-28 16:33:13.48	315.44	6.74	-49.5	-60.4	3.8	8.45e-01	0	44	104	2321547264	69	12622
2026-01-28 16:33:14.47	315.58	6.70	-49.5	-60.4	3.8	8.47e-01	0	44	104	2321547264	69	12579
2026-01-28 16:33:15.46	315.71	6.66	-49.5	-60.4	3.8	8.46e-01	0	44	104	2321547264	69	12622
2026-01-28 16:33:16.45	315.84	6.62	-49.5	-60.4	3.8	8.46e-01	0	44	104	2321547264	69	12564
2026-01-28 16:33:17.45	315.97	6.57	-49.5	-60.4	3.8	8.47e-01	0	44	104	2321547264	69	12641
2026-01-28 16:33:18.44	316.10	6.53	-49.5	-60.5	3.8	8.46e-01	0	44	104	2321547264	69	12724
2026-01-28 16:33:19.43	316.24	6.49	-49.5	-60.4	3.8	8.47e-01	0	44	104	2321547264	69	12653
2026-01-28 16:33:20.43	316.37	6.45	-49.5	-60.4	3.8	8.47e-01	0	44	104	2321547264	69	12639
2026-01-28 16:33:21.42	316.50	6.41	-49.5	-60.4	3.8	8.46e-01	0	44	104	2321547264	69	12648
2026-01-28 16:33:22.41	316.63	6.37	-49.5	-60.4	3.8	8.46e-01	0	44	104	2321547264	69	12657
2026-01-28 16:33:23.41	316.76	6.33	-49.5	-60.4	3.8	8.46e-01	0	44	104	2321547264	69	12632
2026-01-28 16:33:24.40	316.89	6.28	-49.5	-60.5	3.8	8.46e-01	0	44	104	2321547264	69	12753
2026-01-28 16:33:25.39	317.02	6.24	-49.5	-60.4	3.8	8.48e-01	0	44	104	2321547264	69	12641
2026-01-28 16:33:26.39	317.15	6.20	-49.5	-60.5	3.8	8.46e-01	0	44	104	2321547264	69	12693
2026-01-28 16:33:27.38	317.28	6.16	-49.5	-60.5	3.8	8.47e-01	0	44	104	2321547264	69	12668
2026-01-28 16:33:28.37	317.40	6.12	-49.5	-60.4	3.8	8.47e-01	0	44	104	2321547264	69	12604
2026-01-28 16:33:29.36	317.53	6.07	-49.5	-60.4	3.8	8.46e-01	0	44	104	2321547264	69	12633
2026-01-28 16:33:30.36	317.66	6.03	-49.5	-60.4	3.8	8.46e-01	0	44	104	2321547264	69	12629
2026-01-28 16:33:31.35	317.79	5.99	-49.5	-60.4	3.8	8.46e-01	0	44	104	2321547264	69	12656
2026-01-28 16:33:32.34	317.91	5.95	-49.5	-60.5	3.8	8.47e-01	0	44	104	2321547264	69	12670
2026-01-28 16:33:33.33	318.04	5.91	-49.5	-60.4	3.8	8.46e-01	0	44	104	2321547264	69	12648
2026-01-28 16:33:34.33	318.17	5.86	-49.5	-60.4	3.8	8.47e-01	0	44	104	2321547264	69	12602
2026-01-28 16:33:35.32	318.29	5.82	-49.5	-60.4	3.8	8.47e-01	0	44	104	2321547264	69	12646
2026-01-28 16:33:36.31	318.42	5.78	-49.5	-60.5	3.8	8.48e-01	0	44	104	2321547264	69	12759
2026-01-28 16:33:37.31	318.54	5.74	-49.5	-60.5	3.8	8.47e-01	0	44	104	2321547264	69	12692
2026-01-28 16:33:38.30	318.67	5.69	-49.5	-60.4	3.8	8.47e-01	0	44	104	2321547264	69	12623
2026-01-28 16:33:39.29	318.79	5.65	-49.5	-60.4	3.8	8.46e-01	0	44	104	2321547264	69	12642
2026-01-28 16:33:40.29	318.92	5.61	-49.5	-60.5	3.8	8.47e-01	0	44	104	2321547264	69	12676
2026-01-28 16:33:41.28	319.04	5.57	-49.5	-60.5	3.8	8.47e-01	0	44	104	2321547264	69	12725
2026-01-28 16:33:42.27	319.16	5.52	-49.5	-60.4	3.8	8.47e-01	0	44	104	2321547264	69	12650
2026-01-28 16:33:43.27	319.29	5.48	-49.5	-60.4	3.8	8.46e-01	0	44	104	2321547264	69	12649
2026-01-28 16:33:44.26	319.41	5.44	-49.5	-60.4	3.8	8.47e-01	0	44	104	2321547264	69	12606
2026-01-28 16:33:45.25	319.53	5.40	-49.5	-60.4	3.8	8.46e-01	0	44	104	2321547264	69	12600
2026-01-28 16:33:46.25	319.65	5.35	-49.5	-60.4	3.8	8.48e-01	0	44	104	2321547264	69	12640
2026-01-28 16:33:47.24	319.78	5.31	-49.5	-60.4	3.8	8.47e-01	0	44	104	2321547264	69	12617
2026-01-28 16:33:48.23	319.90	5.27	-49.5	-60.4	3.8	8.46e-01	0	44	104	2321547264	69	12663
2026-01-28 16:33:49.22	320.02	5.23	-49.5	-60.4	3.8	8.47e-01	0	44	104	2321547264	69	12621
2026-01-28 16:33:50.22	320.14	5.18	-49.5	-60.4	3.8	8.46e-01	0	44	104	2321547264	69	12562
2026-01-28 16:33:51.21	320.26	5.14	-49.5	-60.5	3.8	8.48e-01	0	44	104	2321547264	69	12669
2026-01-28 16:33:52.20	320.38	5.10	-49.5	-60.4	3.8	8.47e-01	0	44	104	2321547264	69	12570
2026-01-28 16:33:53.19	320.50	5.05	-49.5	-60.5	3.8	8.47e-01	0	44	104	2321547264	69	12707
2026-01-28 16:33:54.19	320.62	5.01	-49.5	-60.5	3.8	8.46e-01	0	44	104	2321547264	69	12665
2026-01-28 16:33:55.18	320.74	4.97	-49.5	-60.4	3.8	8.46e-01	0	44	104	2321547264	69	12625

#Closed at: 2026-01-28 16:33:56
#Recorded file [2321 MB]: D:/Data/31040_260128_192525.dat