passes_logs/2026/01/28/T1/T1__20260128_225316_NOAA_20_JPSS-1_rec.log

#Pass ID: 20260128_225316_NOAA 20 (JPSS-1)
#Satellite: NOAA 20 (JPSS-1)
#Configuration: NOAA 20
#almurnet v.1.7.20251203
#Start time: 2026-01-28 22:53:18

#Version: 2.0.20230620
#Station: T1
#Location: 37.570604 lon 55.790049 lat
#TLE: 1 43013U 17073A   26027.80586608  .00000156  00000+0  94940-4 0  9998
#TLE: 2 43013  98.7647 328.6108 0000947  21.3465 338.7750 14.19541216424550

#Time	Az	El	Level	Level2	SNR	BER	BlckErr	Temp	State	Recorded	gain1	gain2
2026-01-28 22:53:18.61	22.47	5.12	-50.1	-65.2	3.8	1.49e+00	0	37	0	0	70	22232
2026-01-28 22:53:19.60	22.52	5.18	-50.1	-65.2	3.8	1.49e+00	0	37	104	0	72	19828
2026-01-28 22:53:20.59	22.56	5.25	-50.1	-65.2	3.8	1.49e+00	0	37	104	0	72	19816
2026-01-28 22:53:21.59	22.61	5.32	-50.0	-65.2	3.8	1.49e+00	0	36	104	0	72	19774
2026-01-28 22:53:22.58	22.66	5.39	-50.0	-65.3	3.8	1.49e+00	0	36	104	0	71	21038
2026-01-28 22:53:23.57	22.71	5.45	-49.9	-65.2	3.8	1.49e+00	0	37	104	0	71	20966
2026-01-28 22:53:24.57	22.76	5.52	-50.1	-65.2	3.8	1.49e+00	0	37	104	0	71	20976
2026-01-28 22:53:25.56	22.81	5.59	-49.9	-65.2	3.8	1.49e+00	0	37	104	0	71	20981
2026-01-28 22:53:26.56	22.86	5.66	-50.0	-65.1	3.8	1.49e+00	0	37	104	0	71	20747
2026-01-28 22:53:27.55	22.91	5.73	-50.0	-65.2	3.8	1.49e+00	0	37	104	0	71	20805
2026-01-28 22:53:28.54	22.96	5.80	-49.9	-65.1	3.8	1.49e+00	0	37	104	0	71	20661
2026-01-28 22:53:29.53	23.01	5.86	-49.8	-65.1	3.8	1.49e+00	0	37	104	0	71	20559
2026-01-28 22:53:30.53	23.06	5.93	-49.8	-65.0	3.8	1.49e+00	0	37	104	0	71	20335
2026-01-28 22:53:31.52	23.11	6.00	-49.7	-64.9	3.8	1.49e+00	0	37	104	0	70	21274
2026-01-28 22:53:32.52	23.16	6.07	-49.1	-64.8	3.8	1.49e+00	0	37	104	0	69	22281
2026-01-28 22:53:33.51	23.21	6.14	-49.1	-64.7	3.8	1.49e+00	0	37	104	0	69	22019
2026-01-28 22:53:34.50	23.26	6.21	-48.8	-64.4	3.8	1.49e+00	0	37	104	0	69	21379
2026-01-28 22:53:35.50	23.32	6.28	-48.5	-64.4	3.8	1.49e+00	0	37	104	0	69	21494
2026-01-28 22:53:36.49	23.37	6.35	-48.5	-64.4	3.8	1.49e+00	0	37	104	0	68	22651
2026-01-28 22:53:37.48	23.42	6.42	-48.5	-64.4	3.8	1.49e+00	0	37	104	0	68	22634
2026-01-28 22:53:38.48	23.47	6.49	-48.5	-64.4	3.8	1.49e+00	0	37	104	0	68	22688
2026-01-28 22:53:39.47	23.52	6.56	-48.5	-64.3	3.8	1.49e+00	0	37	104	0	68	22448
2026-01-28 22:53:40.46	23.58	6.63	-48.5	-64.3	3.8	1.49e+00	0	37	104	0	68	22300
2026-01-28 22:53:41.46	23.63	6.70	-48.5	-64.3	3.8	1.49e+00	0	37	104	0	68	22379
2026-01-28 22:53:42.45	23.68	6.78	-48.5	-64.2	3.8	1.49e+00	0	37	104	0	68	22203
2026-01-28 22:53:43.44	23.74	6.85	-48.5	-64.2	3.8	1.49e+00	0	37	104	0	68	22156
2026-01-28 22:53:44.44	23.79	6.92	-48.5	-64.2	3.8	1.49e+00	0	37	104	0	68	22196
2026-01-28 22:53:45.43	23.84	6.99	-48.5	-64.3	3.8	1.49e+00	0	37	104	0	68	22349
2026-01-28 22:53:46.42	23.90	7.06	-48.5	-64.3	3.8	1.49e+00	0	37	104	0	68	22439
2026-01-28 22:53:47.42	23.95	7.13	-48.5	-64.4	3.8	1.49e+00	0	38	104	0	68	22568
2026-01-28 22:53:48.41	24.01	7.21	-48.5	-64.4	3.8	1.49e+00	0	38	104	0	68	22682
2026-01-28 22:53:49.41	24.06	7.28	-48.5	-64.4	3.8	1.49e+00	0	37	104	0	68	22639
2026-01-28 22:53:50.40	24.12	7.35	-48.4	-64.4	3.8	1.49e+00	0	38	104	0	68	22542
2026-01-28 22:53:51.39	24.17	7.42	-48.4	-64.3	3.8	1.49e+00	0	37	104	0	68	22329
2026-01-28 22:53:52.39	24.23	7.50	-48.4	-64.3	3.8	1.49e+00	0	38	104	0	68	22282
2026-01-28 22:53:53.38	24.29	7.57	-48.4	-64.1	3.8	1.49e+00	0	38	104	0	68	21788
2026-01-28 22:53:54.37	24.34	7.64	-48.4	-64.0	3.8	1.49e+00	0	38	104	0	68	21509
2026-01-28 22:53:55.37	24.40	7.72	-48.4	-63.7	3.8	1.49e+00	0	38	104	0	68	20951
2026-01-28 22:53:56.36	24.45	7.79	-48.4	-63.7	3.8	1.49e+00	0	38	104	0	68	20797
2026-01-28 22:53:57.35	24.51	7.86	-48.4	-63.5	3.8	1.49e+00	0	38	104	0	68	20515
2026-01-28 22:53:58.35	24.57	7.94	-48.4	-63.5	3.8	1.49e+00	0	38	104	0	68	20351
2026-01-28 22:53:59.34	24.63	8.01	-48.4	-63.4	3.8	1.49e+00	0	38	104	0	68	20278
2026-01-28 22:54:00.34	24.68	8.09	-48.4	-63.5	3.8	1.49e+00	0	38	104	0	68	20348
2026-01-28 22:54:01.33	24.74	8.16	-48.4	-63.5	3.8	1.49e+00	0	38	104	0	68	20466
2026-01-28 22:54:02.32	24.80	8.24	-48.4	-63.5	3.8	1.49e+00	0	38	104	0	68	20432
2026-01-28 22:54:03.32	24.86	8.31	-48.4	-63.4	3.8	1.49e+00	0	38	104	0	68	20268
2026-01-28 22:54:04.31	24.92	8.39	-48.4	-63.4	3.8	1.49e+00	0	38	104	0	68	20073
2026-01-28 22:54:05.30	24.98	8.46	-48.4	-63.2	3.8	1.49e+00	0	38	104	0	68	19644
2026-01-28 22:54:06.30	25.04	8.54	-48.4	-62.9	3.8	1.49e+00	0	38	104	0	68	19015
2026-01-28 22:54:07.29	25.10	8.61	-48.3	-62.5	3.8	1.49e+00	0	38	104	0	68	18269
2026-01-28 22:54:08.28	25.16	8.69	-48.3	-61.8	4.0	1.48e+00	0	38	104	0	68	16794
2026-01-28 22:54:09.27	25.22	8.77	-48.2	-60.9	4.2	1.46e+00	0	38	0	0	68	15133
2026-01-28 22:54:10.27	25.28	8.84	-48.2	-59.9	4.6	1.17e+00	0	38	0	1048576	68	13507
2026-01-28 22:54:11.26	25.34	8.92	-48.1	-58.9	5.1	7.88e-01	0	38	0	2097152	68	12018
2026-01-28 22:54:12.25	25.40	9.00	-47.8	-57.5	5.8	5.09e-01	0	38	0	4194304	67	10891
2026-01-28 22:54:13.25	25.46	9.07	-47.6	-56.6	6.5	3.05e-01	0	38	0	6291456	67	9794
2026-01-28 22:54:14.51	25.54	9.17	-47.8	-58.3	5.5	2.84e-01	0	38	0	8388608	67	11933
2026-01-28 22:54:15.31	25.59	9.24	-48.2	-59.5	4.6	1.17e+00	0	38	0	9437184	67	13573
2026-01-28 22:54:16.45	25.66	9.32	-47.7	-57.6	6.0	6.13e-02	0	38	0	11534336	66	11570
2026-01-28 22:54:17.30	25.72	9.39	-48.1	-61.4	3.9	1.49e+00	0	38	104	11534336	67	16906
2026-01-28 22:54:18.44	25.79	9.48	-44.9	-48.8	14.5	1.20e-04	0	38	0	12582912	61	5630
2026-01-28 22:54:19.29	25.84	9.55	-44.9	-48.9	14.5	7.00e-07	0	38	0	13631488	61	5677
2026-01-28 22:54:20.43	25.92	9.64	-44.5	-48.1	15.3	0.00e+00	0	38	0	15728640	60	5481
2026-01-28 22:54:21.28	25.97	9.71	-44.3	-47.9	15.5	0.00e+00	0	38	0	17825792	60	5347
2026-01-28 22:54:22.42	26.04	9.80	-44.2	-47.7	15.7	0.00e+00	0	38	0	19922944	60	5250
2026-01-28 22:54:23.27	26.10	9.86	-44.2	-47.6	15.7	0.00e+00	0	38	0	20971520	60	5194
2026-01-28 22:54:24.47	26.18	9.96	-44.1	-47.6	15.9	0.00e+00	0	38	0	24117248	60	5165
2026-01-28 22:54:25.32	26.23	10.03	-44.1	-47.5	15.9	0.00e+00	0	38	0	25165824	60	5128
2026-01-28 22:54:26.52	26.31	10.13	-44.2	-47.6	15.8	0.00e+00	0	38	0	27262976	60	5164
2026-01-28 22:54:27.37	26.37	10.19	-44.2	-47.5	15.9	0.00e+00	0	38	0	29360128	60	5151
2026-01-28 22:54:28.57	26.45	10.29	-44.2	-47.5	15.9	0.00e+00	0	38	0	31457280	60	5120
2026-01-28 22:54:29.43	26.51	10.36	-44.3	-47.5	15.9	0.00e+00	0	38	0	32505856	60	5128
2026-01-28 22:54:30.56	26.58	10.45	-44.2	-47.4	16.1	0.00e+00	0	38	0	35651584	60	5066
2026-01-28 22:54:31.42	26.64	10.52	-44.2	-47.3	16.2	0.00e+00	0	38	0	36700160	60	5002
2026-01-28 22:54:32.68	26.73	10.63	-44.0	-47.1	16.3	0.00e+00	0	38	0	38797312	60	4891
2026-01-28 22:54:33.47	26.78	10.69	-44.0	-47.0	16.4	0.00e+00	0	38	0	40894464	60	4854
2026-01-28 22:54:34.67	26.87	10.79	-43.9	-46.9	16.5	0.00e+00	0	38	0	42991616	59	5074
2026-01-28 22:54:35.52	26.92	10.86	-43.9	-46.9	16.5	0.00e+00	0	38	0	44040192	59	5081
2026-01-28 22:54:36.66	27.00	10.96	-43.9	-46.8	16.6	0.00e+00	0	38	0	46137344	59	5025
2026-01-28 22:54:37.51	27.06	11.03	-43.8	-46.7	16.7	0.00e+00	0	38	0	48234496	59	4946
2026-01-28 22:54:38.65	27.14	11.12	-43.7	-46.6	16.8	0.00e+00	0	38	0	50331648	59	4896
2026-01-28 22:54:39.50	27.20	11.19	-43.8	-46.6	16.8	0.00e+00	0	38	0	51380224	59	4923
2026-01-28 22:54:40.64	27.29	11.29	-43.8	-46.7	16.8	0.00e+00	0	38	0	54525952	59	4940
2026-01-28 22:54:41.50	27.35	11.36	-43.7	-46.6	16.8	0.00e+00	0	38	0	55574528	59	4899
2026-01-28 22:54:42.64	27.43	11.46	-43.6	-46.4	17.0	0.00e+00	0	38	0	57671680	59	4810
2026-01-28 22:54:43.71	27.51	11.55	-43.6	-46.5	16.9	0.00e+00	0	39	0	59768832	59	4831
2026-01-28 22:54:44.57	27.57	11.62	-43.7	-46.6	16.9	0.00e+00	0	38	0	61865984	59	4891
2026-01-28 22:54:45.70	27.65	11.72	-43.5	-46.3	17.1	0.00e+00	0	38	0	63963136	59	4727
2026-01-28 22:54:46.56	27.72	11.79	-43.5	-46.2	17.1	0.00e+00	0	39	0	65011712	58	4973
2026-01-28 22:54:47.69	27.80	11.89	-43.5	-46.3	17.2	0.00e+00	0	38	0	67108864	58	5012
2026-01-28 22:54:48.86	27.89	11.99	-43.5	-46.3	17.1	0.00e+00	0	39	0	69206016	58	5031
2026-01-28 22:54:49.89	27.96	12.08	-43.3	-46.1	17.3	0.00e+00	0	39	0	71303168	58	4912
2026-01-28 22:54:50.88	28.04	12.17	-43.3	-46.2	17.3	0.00e+00	0	39	0	73400320	58	4932
2026-01-28 22:54:51.88	28.11	12.25	-43.4	-46.2	17.3	0.00e+00	0	39	0	75497472	58	4975
2026-01-28 22:54:52.87	28.19	12.34	-43.4	-46.3	17.2	0.00e+00	0	39	0	76546048	58	4991
2026-01-28 22:54:53.87	28.27	12.43	-43.5	-46.3	17.1	0.00e+00	0	39	0	78643200	58	5041
2026-01-28 22:54:54.86	28.34	12.51	-43.5	-46.3	17.2	0.00e+00	0	39	0	80740352	58	5024
2026-01-28 22:54:55.86	28.42	12.60	-43.5	-46.3	17.1	0.00e+00	0	38	0	82837504	58	5027
2026-01-28 22:54:56.85	28.50	12.69	-43.5	-46.4	17.1	0.00e+00	0	39	0	83886080	58	5042
2026-01-28 22:54:57.85	28.58	12.78	-43.4	-46.2	17.2	0.00e+00	0	39	0	85983232	58	4973
2026-01-28 22:54:58.84	28.65	12.87	-43.4	-46.2	17.3	0.00e+00	0	39	0	88080384	58	4947
2026-01-28 22:54:59.83	28.73	12.95	-43.4	-46.3	17.2	0.00e+00	0	39	0	90177536	58	5009
2026-01-28 22:55:00.88	28.82	13.05	-43.5	-46.4	17.1	0.00e+00	0	38	0	92274688	58	5081
2026-01-28 22:55:01.84	28.89	13.13	-43.4	-46.3	17.2	0.00e+00	0	39	0	93323264	58	4997
2026-01-28 22:55:02.83	28.97	13.22	-43.4	-46.3	17.2	0.00e+00	0	39	0	95420416	58	4990
2026-01-28 22:55:03.83	29.05	13.31	-43.2	-46.0	17.5	0.00e+00	0	39	0	97517568	58	4841
2026-01-28 22:55:04.82	29.14	13.40	-43.2	-46.0	17.5	0.00e+00	0	39	0	99614720	58	4821
2026-01-28 22:55:05.82	29.22	13.50	-43.2	-46.0	17.5	0.00e+00	0	39	0	101711872	58	4819
2026-01-28 22:55:06.81	29.30	13.59	-43.2	-45.9	17.6	0.00e+00	0	39	0	102760448	58	4812
2026-01-28 22:55:07.81	29.38	13.68	-43.2	-46.0	17.5	0.00e+00	0	39	0	104857600	58	4821
2026-01-28 22:55:08.80	29.46	13.77	-43.3	-46.1	17.4	0.00e+00	0	39	0	106954752	58	4882
2026-01-28 22:55:09.80	29.55	13.86	-43.3	-46.0	17.5	0.00e+00	0	39	0	109051904	58	4834
2026-01-28 22:55:10.79	29.63	13.95	-43.3	-45.9	17.6	0.00e+00	0	39	0	110100480	58	4783
2026-01-28 22:55:11.79	29.72	14.04	-43.3	-45.9	17.6	0.00e+00	0	39	0	112197632	58	4783
2026-01-28 22:55:12.78	29.80	14.14	-43.4	-46.1	17.5	0.00e+00	0	39	0	114294784	58	4878
2026-01-28 22:55:13.77	29.89	14.23	-43.4	-46.1	17.4	0.00e+00	0	39	0	116391936	58	4886
2026-01-28 22:55:14.77	29.97	14.32	-43.3	-46.0	17.6	0.00e+00	0	39	0	118489088	58	4828
2026-01-28 22:55:15.78	30.06	14.42	-43.3	-45.9	17.6	0.00e+00	0	39	0	119537664	58	4810
2026-01-28 22:55:16.78	30.15	14.51	-43.3	-46.0	17.5	0.00e+00	0	39	0	121634816	58	4818
2026-01-28 22:55:17.85	30.24	14.61	-43.3	-45.9	17.6	0.00e+00	0	39	0	123731968	58	4795
2026-01-28 22:55:18.73	30.32	14.70	-43.3	-45.9	17.6	0.00e+00	0	39	0	125829120	58	4794
2026-01-28 22:55:20.04	30.44	14.82	-43.3	-45.9	17.6	0.00e+00	0	39	0	127926272	58	4794
2026-01-28 22:55:20.75	30.50	14.89	-43.3	-45.9	17.6	0.00e+00	0	39	0	128974848	58	4784
2026-01-28 22:55:22.26	30.64	15.03	-43.1	-45.7	17.8	0.00e+00	0	39	0	132120576	58	4690
2026-01-28 22:55:23.22	30.73	15.13	-43.1	-45.7	17.8	0.00e+00	0	39	0	134217728	58	4682
2026-01-28 22:55:24.21	30.82	15.22	-43.0	-45.5	18.0	0.00e+00	0	39	0	135266304	58	4582
2026-01-28 22:55:25.21	30.91	15.32	-43.0	-45.6	17.9	0.00e+00	0	39	0	137363456	57	4911
2026-01-28 22:55:26.20	31.00	15.41	-43.0	-45.6	17.9	0.00e+00	0	39	0	139460608	57	4897
2026-01-28 22:55:27.20	31.09	15.51	-42.9	-45.4	18.1	0.00e+00	0	39	0	141557760	57	4788
2026-01-28 22:55:28.20	31.19	15.61	-42.9	-45.4	18.1	0.00e+00	0	39	0	143654912	57	4785
2026-01-28 22:55:29.19	31.28	15.71	-42.9	-45.4	18.1	0.00e+00	0	39	0	144703488	57	4800
2026-01-28 22:55:30.19	31.38	15.80	-42.8	-45.4	18.1	0.00e+00	0	39	0	146800640	57	4769
2026-01-28 22:55:31.18	31.47	15.90	-42.8	-45.4	18.2	0.00e+00	0	39	0	148897792	57	4760
2026-01-28 22:55:32.22	31.57	16.01	-42.8	-45.3	18.3	0.00e+00	0	39	0	150994944	57	4736
2026-01-28 22:55:33.25	31.67	16.11	-42.9	-45.4	18.1	0.00e+00	0	39	0	153092096	57	4806
2026-01-28 22:55:34.28	31.77	16.21	-42.9	-45.5	18.0	0.00e+00	0	39	0	154140672	57	4845
2026-01-28 22:55:35.27	31.87	16.31	-42.9	-45.5	18.1	0.00e+00	0	39	0	156237824	57	4823
2026-01-28 22:55:36.27	31.97	16.41	-43.0	-45.5	17.9	0.00e+00	0	39	0	158334976	57	4868
2026-01-28 22:55:37.34	32.07	16.52	-43.0	-45.5	18.0	0.00e+00	0	39	0	160432128	57	4855
2026-01-28 22:55:38.22	32.16	16.61	-43.0	-45.6	18.0	0.00e+00	0	39	0	162529280	57	4886
2026-01-28 22:55:39.36	32.28	16.72	-43.1	-45.6	17.9	0.00e+00	0	39	0	163577856	57	4917
2026-01-28 22:55:40.21	32.36	16.81	-43.1	-45.7	17.9	0.00e+00	0	39	0	165675008	57	4935
2026-01-28 22:55:41.35	32.48	16.93	-43.2	-45.7	17.8	0.00e+00	0	39	0	167772160	57	4966
2026-01-28 22:55:42.20	32.57	17.01	-43.2	-45.7	17.8	0.00e+00	0	39	0	169869312	57	4968
2026-01-28 22:55:43.34	32.68	17.13	-43.2	-45.7	17.8	0.00e+00	0	39	0	171966464	57	4957
2026-01-28 22:55:44.19	32.77	17.22	-43.2	-45.8	17.7	0.00e+00	0	39	0	173015040	57	5007
2026-01-28 22:55:45.33	32.89	17.34	-43.2	-45.8	17.8	0.00e+00	0	39	0	175112192	57	5009
2026-01-28 22:55:46.18	32.98	17.42	-43.3	-45.9	17.7	0.00e+00	0	39	0	177209344	57	5065
2026-01-28 22:55:47.32	33.10	17.54	-43.3	-45.9	17.7	0.00e+00	0	39	0	179306496	57	5056
2026-01-28 22:55:48.17	33.19	17.63	-43.3	-45.9	17.7	0.00e+00	0	39	0	180355072	57	5068
2026-01-28 22:55:49.34	33.32	17.76	-43.3	-45.9	17.6	0.00e+00	0	39	0	182452224	57	5073
2026-01-28 22:55:50.19	33.41	17.85	-43.2	-45.8	17.7	0.00e+00	0	39	0	184549376	57	5025
2026-01-28 22:55:51.33	33.54	17.97	-43.3	-45.9	17.7	0.00e+00	0	39	0	186646528	57	5072
2026-01-28 22:55:52.18	33.63	18.06	-43.3	-46.0	17.6	0.00e+00	0	39	0	187695104	57	5132
2026-01-28 22:55:53.45	33.77	18.19	-43.3	-46.0	17.6	0.00e+00	0	39	0	190840832	57	5123
2026-01-28 22:55:54.17	33.85	18.27	-43.4	-46.1	17.5	0.00e+00	0	39	0	191889408	57	5171
2026-01-28 22:55:55.45	33.99	18.41	-43.4	-46.1	17.5	0.00e+00	0	39	0	193986560	57	5196
2026-01-28 22:55:56.18	34.08	18.48	-43.3	-46.1	17.6	0.00e+00	0	39	0	196083712	57	5160
2026-01-28 22:55:57.46	34.22	18.62	-43.4	-46.2	17.5	0.00e+00	0	39	0	198180864	57	5228
2026-01-28 22:55:58.24	34.31	18.71	-43.4	-46.1	17.5	0.00e+00	0	39	0	199229440	57	5214
2026-01-28 22:55:59.51	34.46	18.84	-43.4	-46.1	17.5	0.00e+00	0	39	0	202375168	57	5207
2026-01-28 22:56:00.22	34.54	18.92	-43.5	-46.1	17.5	0.00e+00	0	39	0	203423744	57	5215
2026-01-28 22:56:01.50	34.69	19.06	-43.4	-46.0	17.6	0.00e+00	0	39	0	205520896	57	5139
2026-01-28 22:56:02.21	34.77	19.14	-43.5	-46.1	17.5	0.00e+00	0	39	0	206569472	57	5184
2026-01-28 22:56:03.51	34.93	19.28	-43.4	-45.9	17.6	0.00e+00	0	39	0	209715200	57	5100
2026-01-28 22:56:04.22	35.01	19.36	-43.4	-46.0	17.7	0.00e+00	0	39	0	210763776	57	5105
2026-01-28 22:56:05.51	35.17	19.51	-43.3	-45.9	17.7	0.00e+00	0	39	0	212860928	57	5073
2026-01-28 22:56:06.22	35.25	19.58	-43.4	-46.1	17.6	0.00e+00	0	39	0	214958080	57	5178
2026-01-28 22:56:07.56	35.41	19.73	-43.4	-46.0	17.6	0.00e+00	0	39	0	217055232	57	5155
2026-01-28 22:56:08.27	35.50	19.81	-43.4	-46.0	17.6	0.00e+00	0	39	0	218103808	57	5143
2026-01-28 22:56:09.62	35.67	19.97	-43.5	-46.1	17.5	0.00e+00	0	39	0	221249536	57	5217
2026-01-28 22:56:10.33	35.76	20.05	-43.5	-46.2	17.4	0.00e+00	0	39	0	222298112	57	5256
2026-01-28 22:56:11.61	35.92	20.19	-43.5	-46.2	17.4	0.00e+00	0	39	0	224395264	57	5245
2026-01-28 22:56:12.66	36.05	20.31	-43.6	-46.3	17.3	0.00e+00	0	39	0	226492416	57	5328
2026-01-28 22:56:13.85	36.20	20.45	-43.6	-46.3	17.3	0.00e+00	0	39	0	228589568	57	5327
2026-01-28 22:56:14.84	36.33	20.56	-43.7	-46.3	17.3	0.00e+00	0	39	0	230686720	57	5325
2026-01-28 22:56:15.84	36.46	20.67	-43.8	-46.5	17.2	0.00e+00	0	39	0	232783872	58	5124
2026-01-28 22:56:16.83	36.59	20.79	-43.6	-46.3	17.4	0.00e+00	0	39	0	234881024	58	4993
2026-01-28 22:56:17.83	36.72	20.90	-43.6	-46.2	17.4	0.00e+00	0	39	0	235929600	58	4963
2026-01-28 22:56:18.82	36.85	21.02	-43.6	-46.2	17.4	0.00e+00	0	39	0	238026752	58	4978
2026-01-28 22:56:19.81	36.98	21.14	-43.6	-46.3	17.4	0.00e+00	0	39	0	240123904	58	4987
2026-01-28 22:56:20.81	37.11	21.25	-43.7	-46.3	17.3	0.00e+00	0	39	0	242221056	58	5032
2026-01-28 22:56:21.80	37.25	21.37	-43.7	-46.4	17.3	0.00e+00	0	39	0	243269632	58	5056
2026-01-28 22:56:22.80	37.38	21.49	-43.7	-46.4	17.3	0.00e+00	0	39	0	245366784	58	5070
2026-01-28 22:56:23.79	37.52	21.60	-43.8	-46.5	17.1	0.00e+00	0	39	0	247463936	58	5150
2026-01-28 22:56:24.87	37.67	21.73	-43.9	-46.6	17.1	0.00e+00	0	39	0	249561088	58	5171
2026-01-28 22:56:25.72	37.79	21.83	-43.9	-46.7	17.0	0.00e+00	0	39	0	250609664	58	5229
2026-01-28 22:56:26.86	37.95	21.97	-43.9	-46.6	17.0	0.00e+00	0	39	0	252706816	58	5195
2026-01-28 22:56:27.71	38.07	22.07	-43.9	-46.6	17.0	0.00e+00	0	39	0	254803968	58	5187
2026-01-28 22:56:29.07	38.26	22.23	-43.9	-46.6	17.0	0.00e+00	0	39	0	256901120	58	5193
2026-01-28 22:56:29.78	38.36	22.32	-43.7	-46.4	17.2	0.00e+00	0	39	0	258998272	58	5076
2026-01-28 22:56:31.06	38.55	22.47	-43.7	-46.3	17.3	0.00e+00	0	39	0	261095424	58	5039
2026-01-28 22:56:31.77	38.65	22.56	-43.7	-46.4	17.3	0.00e+00	0	39	0	262144000	58	5091
2026-01-28 22:56:33.05	38.84	22.72	-43.6	-46.3	17.4	0.00e+00	0	39	0	265289728	58	5019
2026-01-28 22:56:33.77	38.95	22.80	-43.6	-46.2	17.4	0.00e+00	0	39	0	266338304	58	4967
2026-01-28 22:56:35.05	39.14	22.96	-43.6	-46.2	17.4	0.00e+00	0	39	0	268435456	58	4983
2026-01-28 22:56:35.76	39.24	23.05	-43.6	-46.2	17.5	0.00e+00	0	39	0	269484032	58	4954
2026-01-28 22:56:37.04	39.44	23.21	-43.6	-46.2	17.5	0.00e+00	0	39	0	272629760	58	4964
2026-01-28 22:56:37.76	39.55	23.29	-43.6	-46.3	17.4	0.00e+00	0	39	0	273678336	58	4984
2026-01-28 22:56:39.04	39.74	23.45	-43.5	-46.2	17.5	0.00e+00	0	39	0	275775488	58	4937
2026-01-28 22:56:39.75	39.85	23.54	-43.4	-46.0	17.6	0.00e+00	0	39	0	276824064	58	4850
2026-01-28 22:56:41.14	40.07	23.72	-43.4	-46.0	17.7	0.00e+00	0	39	0	279969792	58	4825
2026-01-28 22:56:41.85	40.18	23.80	-43.5	-46.1	17.6	0.00e+00	0	39	0	281018368	58	4874
2026-01-28 22:56:43.13	40.38	23.96	-43.5	-46.0	17.6	0.00e+00	0	39	0	284164096	58	4861
2026-01-28 22:56:43.86	40.50	24.06	-43.4	-45.9	17.7	0.00e+00	0	39	0	285212672	58	4812
2026-01-28 22:56:45.25	40.73	24.23	-43.4	-46.0	17.7	0.00e+00	0	39	0	287309824	58	4826
2026-01-28 22:56:45.96	40.84	24.32	-43.4	-46.0	17.7	0.00e+00	0	39	0	289406976	58	4821
2026-01-28 22:56:47.24	41.05	24.49	-43.4	-45.9	17.7	0.00e+00	0	39	0	291504128	58	4812
2026-01-28 22:56:47.95	41.17	24.58	-43.4	-46.0	17.7	0.00e+00	0	39	0	292552704	58	4819
2026-01-28 22:56:49.22	41.38	24.74	-43.5	-46.1	17.6	0.00e+00	0	39	0	294649856	58	4886
2026-01-28 22:56:49.96	41.50	24.83	-43.5	-46.1	17.6	0.00e+00	0	39	0	296747008	58	4880
2026-01-28 22:56:51.24	41.72	25.00	-43.5	-46.0	17.7	0.00e+00	0	39	0	298844160	58	4860
2026-01-28 22:56:51.95	41.84	25.09	-43.4	-45.9	17.8	0.00e+00	0	39	0	299892736	58	4788
2026-01-28 22:56:53.23	42.06	25.26	-43.4	-45.9	17.8	0.00e+00	0	39	0	303038464	58	4775
2026-01-28 22:56:53.94	42.18	25.35	-43.4	-45.9	17.7	0.00e+00	0	39	0	304087040	58	4810
2026-01-28 22:56:55.22	42.41	25.52	-43.5	-46.0	17.7	0.00e+00	0	39	0	306184192	58	4856
2026-01-28 22:56:55.95	42.53	25.61	-43.5	-46.0	17.6	0.00e+00	0	39	0	307232768	58	4868
2026-01-28 22:56:57.23	42.76	25.78	-43.6	-46.2	17.5	0.00e+00	0	39	0	310378496	58	4976
2026-01-28 22:56:57.94	42.89	25.87	-43.7	-46.3	17.4	0.00e+00	0	39	0	311427072	58	5030
2026-01-28 22:56:59.22	43.12	26.04	-43.7	-46.3	17.4	0.00e+00	0	39	0	313524224	58	5019
2026-01-28 22:56:59.93	43.25	26.13	-43.7	-46.4	17.3	0.00e+00	0	39	0	315621376	58	5076
2026-01-28 22:57:01.21	43.48	26.30	-43.7	-46.4	17.4	0.00e+00	0	39	0	317718528	58	5047
2026-01-28 22:57:01.93	43.62	26.40	-43.8	-46.5	17.2	0.00e+00	0	39	0	318767104	58	5138
2026-01-28 22:57:03.21	43.85	26.57	-43.8	-46.4	17.3	0.00e+00	0	39	0	320864256	58	5083
2026-01-28 22:57:03.92	43.99	26.67	-43.8	-46.5	17.2	0.00e+00	0	39	0	322961408	58	5118
2026-01-28 22:57:05.20	44.23	26.84	-43.7	-46.4	17.4	0.00e+00	0	39	0	325058560	58	5050
2026-01-28 22:57:05.91	44.37	26.93	-43.7	-46.4	17.4	0.00e+00	0	39	0	326107136	58	5045
2026-01-28 22:57:07.19	44.61	27.10	-43.7	-46.4	17.3	0.00e+00	0	39	0	329252864	58	5047
2026-01-28 22:57:08.01	44.77	27.21	-43.8	-46.4	17.3	0.00e+00	0	39	0	330301440	58	5094
2026-01-28 22:57:09.15	44.99	27.37	-43.7	-46.4	17.3	0.00e+00	0	39	0	332398592	58	5070
2026-01-28 22:57:10.00	45.16	27.48	-43.8	-46.5	17.3	0.00e+00	0	40	0	334495744	58	5109
2026-01-28 22:57:11.13	45.39	27.64	-43.9	-46.6	17.2	0.00e+00	0	39	0	336592896	58	5198
2026-01-28 22:57:11.99	45.56	27.75	-44.0	-46.7	17.1	0.00e+00	0	39	0	337641472	58	5237
2026-01-28 22:57:13.13	45.79	27.91	-44.1	-46.9	16.8	0.00e+00	0	39	0	339738624	58	5386
2026-01-28 22:57:13.98	45.96	28.03	-44.1	-46.8	16.9	0.00e+00	0	39	0	341835776	58	5325
2026-01-28 22:57:15.12	46.20	28.18	-44.1	-46.9	16.8	0.00e+00	0	39	0	343932928	58	5377
2026-01-28 22:57:15.97	46.37	28.30	-44.1	-46.9	16.9	0.00e+00	0	39	0	344981504	58	5367
2026-01-28 22:57:17.11	46.61	28.46	-44.2	-46.9	16.8	0.00e+00	0	39	0	347078656	59	5095
2026-01-28 22:57:18.04	46.81	28.58	-44.1	-46.9	16.8	0.00e+00	0	39	0	349175808	59	5061
2026-01-28 22:57:19.04	47.02	28.72	-44.2	-47.0	16.7	0.00e+00	0	39	0	351272960	59	5147
2026-01-28 22:57:20.03	47.23	28.86	-44.2	-47.0	16.7	0.00e+00	0	39	0	353370112	59	5139
2026-01-28 22:57:21.03	47.45	29.00	-44.2	-47.0	16.7	0.00e+00	0	39	0	354418688	59	5147
2026-01-28 22:57:22.02	47.66	29.14	-44.1	-46.9	16.9	0.00e+00	0	39	0	356515840	59	5067
2026-01-28 22:57:23.02	47.88	29.28	-44.2	-47.0	16.7	0.00e+00	0	39	0	358612992	59	5146
2026-01-28 22:57:24.01	48.10	29.41	-44.3	-47.1	16.7	0.00e+00	0	39	0	360710144	59	5168
2026-01-28 22:57:25.00	48.33	29.55	-44.2	-47.0	16.7	0.00e+00	0	39	0	361758720	59	5146
2026-01-28 22:57:26.00	48.55	29.69	-44.2	-47.0	16.7	0.00e+00	0	39	0	363855872	59	5133
2026-01-28 22:57:26.99	48.78	29.83	-44.2	-46.9	16.9	0.00e+00	0	39	0	365953024	59	5075
2026-01-28 22:57:27.99	49.01	29.97	-44.2	-46.9	16.8	0.00e+00	0	39	0	368050176	59	5100
2026-01-28 22:57:28.98	49.24	30.11	-44.3	-47.1	16.7	0.00e+00	0	39	0	370147328	59	5170
2026-01-28 22:57:29.98	49.47	30.25	-44.4	-47.2	16.6	0.00e+00	0	39	0	371195904	59	5249
2026-01-28 22:57:30.97	49.70	30.39	-44.5	-47.4	16.3	0.00e+00	0	39	0	373293056	59	5382
2026-01-28 22:57:31.97	49.94	30.53	-44.7	-47.7	16.1	0.00e+00	0	39	0	375390208	60	5222
2026-01-28 22:57:32.96	50.18	30.67	-44.6	-47.6	16.2	0.00e+00	0	39	0	377487360	60	5203
2026-01-28 22:57:33.96	50.42	30.81	-44.5	-47.5	16.3	0.00e+00	0	39	0	378535936	60	5116
2026-01-28 22:57:34.95	50.66	30.95	-44.5	-47.4	16.3	0.00e+00	0	39	0	380633088	60	5100
2026-01-28 22:57:35.95	50.90	31.10	-44.3	-47.2	16.6	0.00e+00	0	39	0	382730240	60	4972
2026-01-28 22:57:36.94	51.15	31.24	-44.3	-47.2	16.6	0.00e+00	0	39	0	384827392	60	4948
2026-01-28 22:57:37.94	51.40	31.38	-44.4	-47.3	16.5	0.00e+00	0	39	0	386924544	60	5028
2026-01-28 22:57:38.94	51.65	31.52	-44.3	-47.3	16.5	0.00e+00	0	39	0	387973120	60	4987
2026-01-28 22:57:39.93	51.90	31.66	-44.6	-47.7	16.2	0.00e+00	0	39	0	390070272	60	5229
2026-01-28 22:57:40.92	52.16	31.80	-44.8	-47.9	15.9	0.00e+00	0	40	0	392167424	60	5380
2026-01-28 22:57:41.92	52.42	31.94	-45.0	-48.2	15.7	0.00e+00	0	39	0	394264576	60	5541
2026-01-28 22:57:42.92	52.68	32.09	-45.1	-48.4	15.5	0.00e+00	0	39	0	396361728	60	5665
2026-01-28 22:57:43.91	52.94	32.23	-45.1	-48.3	15.6	0.00e+00	0	39	0	397410304	60	5594
2026-01-28 22:57:44.97	53.22	32.38	-44.8	-47.9	15.9	0.00e+00	0	39	0	399507456	60	5369
2026-01-28 22:57:45.83	53.45	32.50	-44.8	-47.8	16.0	0.00e+00	0	39	0	401604608	60	5307
2026-01-28 22:57:46.96	53.75	32.66	-44.7	-47.7	16.1	0.00e+00	0	39	0	403701760	60	5269
2026-01-28 22:57:47.82	53.99	32.78	-44.9	-47.9	15.9	0.00e+00	0	39	0	404750336	60	5396
2026-01-28 22:57:48.95	54.30	32.95	-45.1	-48.3	15.6	0.00e+00	0	39	0	406847488	60	5606
2026-01-28 22:57:49.81	54.54	33.07	-45.3	-48.5	15.3	0.00e+00	0	39	0	408944640	61	5450
2026-01-28 22:57:50.94	54.85	33.23	-45.3	-48.7	15.2	0.00e+00	0	39	0	411041792	61	5531
2026-01-28 22:57:51.79	55.09	33.35	-45.4	-48.7	15.1	0.00e+00	0	39	0	412090368	61	5567
2026-01-28 22:57:52.93	55.42	33.51	-45.3	-48.7	15.2	0.00e+00	0	39	0	414187520	61	5539
2026-01-28 22:57:53.78	55.66	33.63	-45.4	-48.7	15.1	0.00e+00	0	39	0	416284672	61	5548
2026-01-28 22:57:54.92	55.99	33.79	-45.2	-48.5	15.4	0.00e+00	0	39	0	418381824	61	5409
2026-01-28 22:57:55.78	56.24	33.92	-45.1	-48.3	15.5	0.00e+00	0	39	0	419430400	61	5335
2026-01-28 22:57:56.91	56.57	34.08	-45.1	-48.3	15.5	0.00e+00	0	39	0	422576128	61	5295
2026-01-28 22:57:57.77	56.83	34.20	-45.0	-48.1	15.7	0.00e+00	0	39	0	423624704	61	5178
2026-01-28 22:57:59.03	57.21	34.38	-44.7	-47.7	16.1	0.00e+00	0	39	0	425721856	61	4943
2026-01-28 22:57:59.82	57.44	34.49	-44.7	-47.7	16.1	0.00e+00	0	39	0	427819008	61	4934
2026-01-28 22:58:01.16	57.85	34.68	-44.8	-47.8	15.9	0.00e+00	0	39	0	429916160	61	5039
2026-01-28 22:58:01.87	58.07	34.78	-44.9	-48.1	15.8	0.00e+00	0	39	0	430964736	61	5161
2026-01-28 22:58:03.15	58.47	34.95	-45.3	-48.6	15.2	0.00e+00	0	39	0	434110464	61	5514
2026-01-28 22:58:04.27	58.82	35.11	-45.8	-49.3	14.6	0.00e+00	0	39	0	436207616	62	5650
2026-01-28 22:58:05.12	59.09	35.23	-45.9	-49.5	14.4	7.00e-07	0	39	0	437256192	62	5727
2026-01-28 22:58:06.70	59.59	35.45	-45.5	-48.9	15.0	0.00e+00	0	39	0	440401920	62	5358
2026-01-28 22:58:07.32	59.79	35.54	-45.4	-48.7	15.1	0.00e+00	0	39	0	441450496	62	5236
2026-01-28 22:58:08.88	60.30	35.75	-44.8	-47.9	16.0	0.00e+00	0	39	0	444596224	61	5042
2026-01-28 22:58:09.53	60.51	35.84	-44.7	-47.7	16.2	0.00e+00	0	39	0	445644800	61	4930
2026-01-28 22:58:10.95	60.98	36.04	-44.8	-47.9	16.0	0.00e+00	0	39	0	448790528	61	5069
2026-01-28 22:58:11.66	61.22	36.13	-45.0	-48.1	15.7	0.00e+00	0	39	0	449839104	61	5212
2026-01-28 22:58:13.02	61.68	36.32	-45.4	-48.7	15.2	0.00e+00	0	39	0	451936256	61	5555
2026-01-28 22:58:13.73	61.92	36.42	-45.6	-49.0	14.8	0.00e+00	0	40	0	454033408	61	5764
2026-01-28 22:58:15.01	62.36	36.59	-45.8	-49.3	14.6	1.50e-06	0	39	0	456130560	62	5638
2026-01-28 22:58:15.73	62.60	36.69	-45.8	-49.3	14.6	7.00e-07	0	39	0	457179136	62	5598
2026-01-28 22:58:17.15	63.10	36.88	-45.6	-49.0	14.9	0.00e+00	0	39	0	460324864	62	5409
2026-01-28 22:58:17.87	63.35	36.97	-45.4	-48.7	15.1	0.00e+00	0	39	0	461373440	62	5278
2026-01-28 22:58:19.14	63.80	37.14	-45.2	-48.3	15.6	0.00e+00	0	39	0	463470592	62	5035
2026-01-28 22:58:19.85	64.06	37.23	-45.2	-48.4	15.5	0.00e+00	0	39	0	464519168	62	5077
2026-01-28 22:58:21.26	64.56	37.42	-45.0	-48.2	15.7	0.00e+00	0	39	0	467664896	61	5231
2026-01-28 22:58:21.97	64.82	37.51	-45.1	-48.3	15.6	0.00e+00	0	39	0	468713472	61	5287
2026-01-28 22:58:23.25	65.29	37.68	-45.2	-48.4	15.4	0.00e+00	0	39	0	471859200	61	5381
2026-01-28 22:58:23.96	65.55	37.77	-45.3	-48.6	15.3	0.00e+00	0	40	0	472907776	61	5503
2026-01-28 22:58:25.24	66.03	37.93	-45.5	-48.9	15.0	0.00e+00	0	39	0	475004928	61	5673
2026-01-28 22:58:25.96	66.30	38.03	-45.6	-49.0	14.8	0.00e+00	0	39	0	476053504	61	5763
2026-01-28 22:58:27.24	66.78	38.19	-45.4	-48.7	15.2	0.00e+00	0	39	0	479199232	61	5537
2026-01-28 22:58:27.97	67.06	38.28	-45.2	-48.5	15.4	0.00e+00	0	39	0	480247808	61	5420
2026-01-28 22:58:29.24	67.54	38.44	-44.9	-48.0	15.8	0.00e+00	0	39	0	482344960	61	5133
2026-01-28 22:58:29.96	67.82	38.53	-44.6	-47.6	16.3	0.00e+00	0	39	0	484442112	61	4884
2026-01-28 22:58:31.24	68.32	38.68	-44.3	-47.1	16.7	0.00e+00	0	39	0	486539264	60	4916
2026-01-28 22:58:31.96	68.60	38.77	-44.4	-47.3	16.6	0.00e+00	0	39	0	487587840	60	5020
2026-01-28 22:58:33.24	69.11	38.93	-44.8	-47.8	16.1	0.00e+00	0	39	0	489684992	60	5293
2026-01-28 22:58:33.95	69.39	39.01	-45.1	-48.3	15.5	0.00e+00	0	39	0	491782144	60	5593
2026-01-28 22:58:35.29	69.93	39.17	-45.7	-49.2	14.7	0.00e+00	0	39	0	493879296	62	5550
2026-01-28 22:58:36.00	70.21	39.25	-46.0	-49.8	14.1	2.20e-06	0	39	0	494927872	62	5950
2026-01-28 22:58:37.28	70.73	39.40	-46.2	-50.1	13.7	4.50e-06	0	39	0	498073600	63	5842
2026-01-28 22:58:38.00	71.03	39.49	-46.1	-50.0	13.9	3.00e-06	0	39	0	499122176	63	5729
2026-01-28 22:58:39.29	71.56	39.63	-45.9	-49.4	14.4	2.20e-06	0	40	0	501219328	63	5386
2026-01-28 22:58:40.02	71.86	39.71	-45.8	-49.3	14.6	7.00e-07	0	39	0	503316480	63	5280
2026-01-28 22:58:41.30	72.40	39.86	-45.7	-49.2	14.7	0.00e+00	0	39	0	505413632	63	5240
2026-01-28 22:58:42.01	72.70	39.93	-45.5	-48.9	15.0	0.00e+00	0	39	0	506462208	63	5075
2026-01-28 22:58:43.30	73.25	40.07	-45.2	-48.5	15.4	0.00e+00	0	39	0	508559360	62	5108
2026-01-28 22:58:44.02	73.55	40.15	-45.2	-48.4	15.5	0.00e+00	0	39	0	510656512	62	5047
2026-01-28 22:58:45.30	74.10	40.29	-45.1	-48.3	15.5	0.00e+00	0	39	0	512753664	62	5040
2026-01-28 22:58:46.14	74.47	40.37	-45.3	-48.5	15.3	0.00e+00	0	39	0	514850816	62	5156
2026-01-28 22:58:47.27	74.96	40.49	-45.3	-48.5	15.3	0.00e+00	0	39	0	516947968	62	5142
2026-01-28 22:58:48.32	75.42	40.59	-45.1	-48.2	15.6	0.00e+00	0	39	0	517996544	62	4971
2026-01-28 22:58:49.26	75.83	40.69	-44.8	-47.9	16.0	0.00e+00	0	40	0	520093696	61	5072
2026-01-28 22:58:50.26	76.27	40.79	-44.5	-47.5	16.4	0.00e+00	0	40	0	522190848	60	5108
2026-01-28 22:58:51.25	76.72	40.88	-44.1	-46.9	17.0	0.00e+00	0	39	0	524288000	60	4782
2026-01-28 22:58:52.25	77.16	40.98	-44.2	-47.0	16.9	0.00e+00	0	40	0	525336576	60	4857
2026-01-28 22:58:53.24	77.61	41.07	-44.1	-46.8	17.0	0.00e+00	0	39	0	527433728	60	4753
2026-01-28 22:58:54.24	78.06	41.16	-44.1	-46.9	17.0	0.00e+00	0	39	0	529530880	60	4774
2026-01-28 22:58:55.24	78.52	41.25	-44.2	-47.0	16.8	0.00e+00	0	39	0	531628032	60	4851
2026-01-28 22:58:56.23	78.97	41.33	-44.4	-47.2	16.6	0.00e+00	0	39	0	533725184	60	4973
2026-01-28 22:58:57.22	79.43	41.42	-44.7	-47.7	16.2	0.00e+00	0	39	0	534773760	60	5226
2026-01-28 22:58:58.29	79.93	41.51	-45.0	-48.1	15.7	0.00e+00	0	39	0	536870912	60	5511
2026-01-28 22:58:59.16	80.33	41.58	-45.1	-48.3	15.6	0.00e+00	0	39	0	538968064	60	5614
2026-01-28 22:59:00.30	80.86	41.67	-45.3	-48.7	15.2	0.00e+00	0	39	0	541065216	61	5541
2026-01-28 22:59:01.15	81.26	41.74	-45.3	-48.7	15.2	0.00e+00	0	39	0	542113792	61	5545
2026-01-28 22:59:02.29	81.80	41.82	-45.1	-48.3	15.5	0.00e+00	0	39	0	544210944	61	5338
2026-01-28 22:59:03.14	82.21	41.89	-45.0	-48.2	15.6	0.00e+00	0	39	0	546308096	61	5262
2026-01-28 22:59:04.28	82.75	41.97	-44.9	-48.1	15.8	0.00e+00	0	40	0	548405248	61	5193
2026-01-28 22:59:05.40	83.29	42.05	-45.0	-48.4	15.5	0.00e+00	0	40	0	550502400	61	5352
2026-01-28 22:59:06.25	83.70	42.11	-45.2	-48.6	15.2	0.00e+00	0	40	0	551550976	61	5522
2026-01-28 22:59:07.39	84.25	42.18	-45.2	-48.8	15.1	0.00e+00	0	40	0	554696704	61	5602
2026-01-28 22:59:08.24	84.66	42.23	-45.0	-48.4	15.4	0.00e+00	0	39	0	555745280	61	5384
2026-01-28 22:59:09.38	85.22	42.30	-44.7	-47.9	16.0	0.00e+00	0	39	0	557842432	61	5056
2026-01-28 22:59:10.23	85.63	42.36	-44.2	-47.1	16.7	0.00e+00	0	39	0	559939584	60	4919
2026-01-28 22:59:11.37	86.19	42.42	-44.0	-46.9	16.9	0.00e+00	0	39	0	562036736	60	4784
2026-01-28 22:59:12.22	86.61	42.47	-44.0	-46.9	17.0	0.00e+00	0	39	0	563085312	60	4765
2026-01-28 22:59:13.44	87.21	42.53	-44.4	-47.4	16.5	0.00e+00	0	40	0	565182464	60	5047
2026-01-28 22:59:14.29	87.63	42.57	-44.3	-47.4	16.5	0.00e+00	0	39	0	567279616	60	5045
2026-01-28 22:59:15.47	88.22	42.63	-44.1	-47.1	16.8	0.00e+00	0	40	0	569376768	60	4887
2026-01-28 22:59:16.33	88.65	42.67	-43.7	-46.5	17.3	0.00e+00	0	39	0	571473920	59	4832
2026-01-28 22:59:17.47	89.22	42.72	-43.7	-46.4	17.4	0.00e+00	0	40	0	573571072	59	4810
2026-01-28 22:59:18.32	89.65	42.75	-43.7	-46.4	17.4	0.00e+00	0	39	0	574619648	59	4784
2026-01-28 22:59:19.45	90.21	42.80	-44.0	-46.8	17.0	0.00e+00	0	40	0	576716800	59	5017
2026-01-28 22:59:20.31	90.65	42.83	-44.3	-47.1	16.7	0.00e+00	0	40	0	578813952	59	5187
2026-01-28 22:59:21.65	91.32	42.87	-44.3	-47.2	16.7	0.00e+00	0	40	0	580911104	59	5219
2026-01-28 22:59:22.36	91.68	42.90	-44.2	-47.0	16.8	0.00e+00	0	39	0	581959680	59	5151
2026-01-28 22:59:23.85	92.44	42.94	-43.8	-46.5	17.3	0.00e+00	0	40	0	585105408	59	4864
2026-01-28 22:59:24.56	92.80	42.96	-44.0	-46.7	17.1	0.00e+00	0	40	0	586153984	59	4957
2026-01-28 22:59:25.84	93.45	42.99	-44.4	-47.3	16.6	0.00e+00	0	40	0	589299712	59	5284
2026-01-28 22:59:26.56	93.82	43.00	-44.7	-47.8	16.1	0.00e+00	0	39	0	590348288	60	5301
2026-01-28 22:59:27.84	94.47	43.02	-44.3	-47.1	16.7	0.00e+00	0	40	0	592445440	60	4924
2026-01-28 22:59:28.55	94.83	43.04	-43.8	-46.5	17.2	0.00e+00	0	39	0	593494016	59	4867
2026-01-28 22:59:29.83	95.49	43.05	-43.2	-45.7	18.1	0.00e+00	0	39	0	596639744	58	4678
2026-01-28 22:59:30.54	95.85	43.06	-43.2	-45.7	18.1	0.00e+00	0	40	0	597688320	58	4675
2026-01-28 22:59:31.82	96.51	43.07	-43.5	-46.0	17.8	0.00e+00	0	40	0	599785472	58	4868
2026-01-28 22:59:32.58	96.90	43.08	-43.7	-46.3	17.5	0.00e+00	0	40	0	601882624	58	4996
2026-01-28 22:59:33.86	97.55	43.08	-43.4	-45.9	17.9	0.00e+00	0	40	0	603979776	58	4787
2026-01-28 22:59:34.60	97.93	43.08	-43.2	-45.6	18.1	0.00e+00	0	40	0	605028352	58	4651
2026-01-28 22:59:35.88	98.59	43.08	-42.8	-45.3	18.5	0.00e+00	0	39	0	607125504	57	4706
2026-01-28 22:59:36.67	98.99	43.07	-43.0	-45.4	18.4	0.00e+00	0	40	0	609222656	57	4775
2026-01-28 22:59:38.17	99.76	43.06	-43.0	-45.5	18.3	0.00e+00	0	40	0	612368384	57	4828
2026-01-28 22:59:38.88	100.12	43.06	-43.0	-45.5	18.3	0.00e+00	0	40	0	613416960	57	4825
2026-01-28 22:59:40.16	100.78	43.04	-42.8	-45.2	18.5	0.00e+00	0	39	0	615514112	57	4700
2026-01-28 22:59:40.87	101.14	43.03	-43.0	-45.5	18.3	0.00e+00	0	40	0	616562688	57	4818
2026-01-28 22:59:42.15	101.79	43.01	-43.5	-46.1	17.7	0.00e+00	0	39	0	619708416	57	5189
2026-01-28 22:59:42.88	102.17	42.99	-43.9	-46.7	17.2	0.00e+00	0	40	0	620756992	58	5219
2026-01-28 22:59:44.16	102.82	42.97	-44.2	-47.0	16.9	0.00e+00	0	40	0	622854144	59	5148
2026-01-28 22:59:44.88	103.18	42.95	-43.8	-46.5	17.3	0.00e+00	0	39	0	624951296	59	4864
2026-01-28 22:59:46.16	103.83	42.91	-43.5	-46.1	17.7	0.00e+00	0	40	0	627048448	58	4883
2026-01-28 22:59:46.98	104.25	42.89	-43.3	-45.9	17.9	0.00e+00	0	40	0	628097024	58	4794
2026-01-28 22:59:48.12	104.83	42.85	-43.9	-46.8	17.1	0.00e+00	0	39	0	630194176	58	5294
2026-01-28 22:59:48.97	105.26	42.82	-44.5	-47.6	16.2	0.00e+00	0	40	0	632291328	59	5468
2026-01-28 22:59:50.11	105.83	42.78	-44.6	-47.7	16.1	0.00e+00	0	40	0	634388480	60	5263
2026-01-28 22:59:50.96	106.26	42.75	-44.1	-46.9	16.9	0.00e+00	0	39	0	635437056	60	4806
2026-01-28 22:59:52.10	106.83	42.70	-43.6	-46.2	17.6	0.00e+00	0	39	0	637534208	59	4702
2026-01-28 22:59:52.95	107.26	42.66	-43.8	-46.4	17.4	0.00e+00	0	40	0	639631360	59	4784
2026-01-28 22:59:54.09	107.82	42.61	-44.1	-46.8	17.0	0.00e+00	0	39	0	641728512	59	5039
2026-01-28 22:59:54.94	108.25	42.57	-44.2	-47.0	16.8	0.00e+00	0	40	0	643825664	59	5145
2026-01-28 22:59:56.08	108.81	42.51	-43.8	-46.5	17.3	0.00e+00	0	39	0	645922816	59	4845
2026-01-28 22:59:56.94	109.24	42.46	-43.9	-46.5	17.3	0.00e+00	0	39	0	646971392	59	4860
2026-01-28 22:59:58.07	109.79	42.40	-44.1	-46.8	17.0	0.00e+00	0	40	0	649068544	59	5041
2026-01-28 22:59:58.93	110.22	42.35	-44.7	-47.6	16.2	0.00e+00	0	40	0	651165696	59	5498
2026-01-28 23:00:00.07	110.77	42.28	-44.7	-47.8	16.1	0.00e+00	0	40	0	653262848	60	5288
2026-01-28 23:00:00.92	111.19	42.23	-44.5	-47.4	16.5	0.00e+00	0	40	0	654311424	60	5076
2026-01-28 23:00:02.06	111.74	42.16	-44.4	-47.2	16.6	0.00e+00	0	40	0	656408576	60	4983
2026-01-28 23:00:02.91	112.15	42.10	-44.6	-47.5	16.4	0.00e+00	0	40	0	658505728	60	5154
2026-01-28 23:00:04.05	112.70	42.02	-44.5	-47.4	16.4	0.00e+00	0	40	0	660602880	60	5091
2026-01-28 23:00:04.90	113.11	41.96	-44.5	-47.4	16.4	0.00e+00	0	40	0	661651456	60	5061
2026-01-28 23:00:06.04	113.65	41.88	-44.3	-47.1	16.8	0.00e+00	0	40	0	663748608	60	4921
2026-01-28 23:00:06.89	114.06	41.82	-44.1	-46.8	17.0	0.00e+00	0	40	0	665845760	60	4754
2026-01-28 23:00:08.03	114.60	41.73	-43.9	-46.5	17.3	0.00e+00	0	40	0	667942912	59	4865
2026-01-28 23:00:08.89	115.00	41.66	-43.9	-46.5	17.3	0.00e+00	0	40	0	668991488	59	4847
2026-01-28 23:00:10.02	115.53	41.57	-44.4	-47.2	16.7	0.00e+00	0	40	0	672137216	59	5246
2026-01-28 23:00:10.87	115.93	41.50	-44.7	-47.8	16.1	0.00e+00	0	40	0	673185792	60	5290
2026-01-28 23:00:12.01	116.46	41.41	-44.4	-47.3	16.6	0.00e+00	0	40	0	675282944	60	4986
2026-01-28 23:00:12.86	116.85	41.33	-44.1	-46.9	17.0	0.00e+00	0	40	0	677380096	60	4796
2026-01-28 23:00:14.00	117.38	41.23	-43.5	-46.1	17.7	0.00e+00	0	40	0	679477248	59	4651
2026-01-28 23:00:14.85	117.76	41.16	-43.9	-46.6	17.3	0.00e+00	0	40	0	680525824	58	5198
2026-01-28 23:00:15.99	118.28	41.05	-44.0	-46.7	17.1	0.00e+00	0	40	0	682622976	58	5241
2026-01-28 23:00:16.84	118.67	40.97	-43.3	-45.8	18.0	0.00e+00	0	40	0	684720128	58	4739
2026-01-28 23:00:17.98	119.18	40.86	-42.3	-44.6	19.2	0.00e+00	0	40	0	686817280	56	4603
2026-01-28 23:00:18.83	119.56	40.78	-42.1	-44.4	19.3	0.00e+00	0	40	0	687865856	56	4498
2026-01-28 23:00:19.97	120.06	40.67	-42.5	-44.9	18.9	0.00e+00	0	40	0	689963008	56	4771
2026-01-28 23:00:20.82	120.44	40.59	-43.1	-45.5	18.2	0.00e+00	0	39	0	692060160	56	5154
2026-01-28 23:00:22.02	120.97	40.46	-43.2	-45.7	18.1	0.00e+00	0	40	0	694157312	57	4941
2026-01-28 23:00:22.87	121.34	40.38	-42.5	-44.9	18.8	0.00e+00	0	40	0	696254464	57	4512
2026-01-28 23:00:24.07	121.86	40.25	-41.6	-43.8	19.7	0.00e+00	0	40	0	698351616	55	4450
2026-01-28 23:00:24.93	122.23	40.16	-41.5	-43.7	19.8	0.00e+00	0	40	0	699400192	55	4401
2026-01-28 23:00:26.06	122.71	40.04	-41.8	-44.1	19.5	0.00e+00	0	40	0	701497344	55	4606
2026-01-28 23:00:26.92	123.07	39.95	-42.4	-44.7	18.9	0.00e+00	0	39	0	703594496	55	4959
2026-01-28 23:00:28.06	123.55	39.82	-42.0	-44.3	19.2	0.00e+00	0	40	0	705691648	55	4749
2026-01-28 23:00:28.91	123.91	39.72	-41.5	-43.7	19.7	0.00e+00	0	40	0	706740224	55	4430
2026-01-28 23:00:30.05	124.39	39.60	-41.4	-43.6	19.9	0.00e+00	0	39	0	708837376	54	4647
2026-01-28 23:00:30.90	124.74	39.50	-41.5	-43.7	19.9	0.00e+00	0	40	0	710934528	54	4652
2026-01-28 23:00:32.04	125.20	39.37	-41.9	-44.2	19.4	0.00e+00	0	40	0	713031680	54	4943
2026-01-28 23:00:32.89	125.55	39.27	-42.4	-44.8	18.9	0.00e+00	0	40	0	714080256	55	4989
2026-01-28 23:00:34.03	126.01	39.13	-42.4	-44.7	18.8	0.00e+00	0	40	0	716177408	55	4978
2026-01-28 23:00:34.88	126.35	39.03	-42.1	-44.4	19.1	0.00e+00	0	40	0	718274560	55	4788
2026-01-28 23:00:36.01	126.81	38.90	-42.1	-44.4	19.0	0.00e+00	0	40	0	720371712	55	4764
2026-01-28 23:00:36.87	127.15	38.79	-42.2	-44.5	19.0	0.00e+00	0	40	0	722468864	55	4862
2026-01-28 23:00:38.08	127.62	38.64	-42.9	-45.4	18.4	0.00e+00	0	40	0	724566016	56	5051
2026-01-28 23:00:38.93	127.95	38.54	-42.9	-45.3	18.4	0.00e+00	0	40	0	725614592	56	5037
2026-01-28 23:00:40.07	128.39	38.40	-42.3	-44.6	19.1	0.00e+00	0	40	0	727711744	56	4629
2026-01-28 23:00:40.92	128.72	38.29	-42.0	-44.3	19.4	0.00e+00	0	40	0	729808896	56	4448
2026-01-28 23:00:42.06	129.16	38.15	-42.3	-44.6	19.2	0.00e+00	0	40	0	731906048	56	4604
2026-01-28 23:00:42.91	129.48	38.04	-42.5	-44.8	18.9	0.00e+00	0	40	0	732954624	56	4746
2026-01-28 23:00:44.05	129.91	37.89	-42.6	-45.0	18.7	0.00e+00	0	40	0	735051776	56	4852
2026-01-28 23:00:44.91	130.23	37.78	-42.6	-45.0	18.8	0.00e+00	0	40	0	737148928	56	4822
2026-01-28 23:00:46.04	130.65	37.64	-42.2	-44.4	19.3	0.00e+00	0	39	0	739246080	56	4527
2026-01-28 23:00:46.89	130.96	37.53	-42.4	-44.7	19.1	0.00e+00	0	40	0	740294656	56	4662
2026-01-28 23:00:48.03	131.37	37.38	-42.7	-45.1	18.7	0.00e+00	0	40	0	742391808	56	4888
2026-01-28 23:00:48.88	131.68	37.26	-42.9	-45.3	18.4	0.00e+00	0	40	0	744488960	56	5014
2026-01-28 23:00:50.02	132.09	37.11	-43.0	-45.5	18.3	0.00e+00	0	40	0	746586112	56	5131
2026-01-28 23:00:50.88	132.39	37.00	-42.9	-45.4	18.4	0.00e+00	0	40	0	748683264	56	5049
2026-01-28 23:00:52.01	132.79	36.85	-42.8	-45.2	18.5	0.00e+00	0	40	0	750780416	56	4956
2026-01-28 23:00:52.87	133.09	36.73	-42.5	-44.8	18.7	0.00e+00	0	40	0	751828992	56	4759
2026-01-28 23:00:54.00	133.49	36.58	-42.4	-44.7	19.0	0.00e+00	0	40	0	753926144	56	4660
2026-01-28 23:00:54.86	133.78	36.46	-42.1	-44.4	19.3	0.00e+00	0	40	0	756023296	56	4506
2026-01-28 23:00:56.00	134.17	36.30	-41.5	-43.7	19.8	0.00e+00	0	40	0	758120448	55	4411
2026-01-28 23:00:56.91	134.48	36.18	-41.3	-43.4	20.1	0.00e+00	0	40	0	759169024	54	4511
2026-01-28 23:00:57.91	134.81	36.04	-41.3	-43.4	20.1	0.00e+00	0	40	0	761266176	54	4527
2026-01-28 23:00:58.90	135.14	35.91	-41.8	-44.0	19.5	0.00e+00	0	40	0	763363328	54	4855
2026-01-28 23:00:59.89	135.47	35.77	-42.6	-45.0	18.6	0.00e+00	0	40	0	765460480	55	5105
2026-01-28 23:01:00.89	135.80	35.63	-43.4	-46.0	17.8	0.00e+00	0	40	0	766509056	57	5102
2026-01-28 23:01:01.89	136.12	35.49	-42.9	-45.4	18.3	0.00e+00	0	40	0	768606208	57	4792
2026-01-28 23:01:02.88	136.44	35.35	-42.5	-44.9	18.8	0.00e+00	0	40	0	770703360	57	4515
2026-01-28 23:01:03.88	136.76	35.21	-42.2	-44.5	19.2	0.00e+00	0	40	0	772800512	56	4584
2026-01-28 23:01:04.87	137.08	35.07	-42.7	-45.0	18.7	0.00e+00	0	40	0	774897664	56	4845
2026-01-28 23:01:05.87	137.39	34.93	-43.4	-46.0	17.8	0.00e+00	0	40	0	775946240	57	5118
2026-01-28 23:01:06.86	137.70	34.79	-43.8	-46.5	17.2	0.00e+00	0	40	0	778043392	58	5138
2026-01-28 23:01:07.86	138.01	34.65	-43.8	-46.5	17.2	0.00e+00	0	40	0	780140544	58	5143
2026-01-28 23:01:08.85	138.31	34.51	-43.1	-45.6	18.1	0.00e+00	0	40	0	782237696	58	4605
2026-01-28 23:01:09.85	138.61	34.37	-43.1	-45.5	18.2	0.00e+00	0	40	0	783286272	58	4591
2026-01-28 23:01:10.84	138.91	34.23	-43.1	-45.5	18.2	0.00e+00	0	40	0	785383424	57	4862
2026-01-28 23:01:11.84	139.21	34.09	-43.2	-45.7	18.1	0.00e+00	0	40	0	787480576	57	4940
2026-01-28 23:01:12.83	139.50	33.95	-44.0	-46.7	17.1	0.00e+00	0	40	0	789577728	58	5243
2026-01-28 23:01:13.83	139.80	33.80	-44.7	-47.7	16.1	0.00e+00	0	40	0	791674880	59	5568
2026-01-28 23:01:14.82	140.09	33.66	-44.1	-46.9	16.8	0.00e+00	0	40	0	792723456	60	4814
2026-01-28 23:01:15.82	140.37	33.52	-42.8	-45.2	18.4	0.00e+00	0	40	0	794820608	57	4695
2026-01-28 23:01:16.81	140.66	33.38	-42.1	-44.3	19.4	0.00e+00	0	40	0	796917760	56	4463
2026-01-28 23:01:17.84	140.95	33.23	-41.7	-43.9	19.6	0.00e+00	0	40	0	799014912	55	4502
2026-01-28 23:01:18.87	141.24	33.08	-42.3	-44.6	18.9	0.00e+00	0	40	0	801112064	55	4923
2026-01-28 23:01:19.86	141.52	32.94	-43.8	-46.4	17.3	0.00e+00	0	40	0	802160640	58	5084
2026-01-28 23:01:20.86	141.79	32.80	-44.9	-48.0	15.8	0.00e+00	0	40	0	804257792	60	5435
2026-01-28 23:01:21.95	142.09	32.64	-44.8	-47.9	15.9	0.00e+00	0	40	0	806354944	60	5351
2026-01-28 23:01:22.85	142.33	32.51	-43.8	-46.4	17.3	0.00e+00	0	40	0	808452096	59	4806
2026-01-28 23:01:23.89	142.61	32.36	-42.7	-45.0	18.7	0.00e+00	0	40	0	810549248	57	4575
2026-01-28 23:01:24.88	142.88	32.22	-42.4	-44.6	19.1	0.00e+00	0	40	0	811597824	56	4646
2026-01-28 23:01:25.87	143.14	32.08	-42.6	-44.9	18.8	0.00e+00	0	40	0	813694976	56	4808
2026-01-28 23:01:26.87	143.40	31.94	-43.4	-46.0	17.7	0.00e+00	0	40	0	815792128	57	5132
2026-01-28 23:01:27.87	143.66	31.79	-44.6	-47.6	16.2	0.00e+00	0	40	0	817889280	59	5514
2026-01-28 23:01:28.86	143.92	31.65	-45.4	-48.8	15.0	0.00e+00	0	40	0	818937856	61	5616
2026-01-28 23:01:29.85	144.17	31.51	-45.2	-48.5	15.3	0.00e+00	0	40	0	821035008	61	5445
2026-01-28 23:01:30.85	144.42	31.37	-44.0	-46.9	16.8	0.00e+00	0	40	0	823132160	60	4760
2026-01-28 23:01:31.84	144.67	31.22	-42.9	-45.3	18.3	0.00e+00	0	40	0	825229312	57	4737
2026-01-28 23:01:32.84	144.92	31.08	-42.3	-44.6	19.0	0.00e+00	0	40	0	827326464	56	4639
2026-01-28 23:01:33.83	145.17	30.94	-42.2	-44.5	19.2	0.00e+00	0	40	0	828375040	56	4556
2026-01-28 23:01:34.86	145.42	30.79	-42.6	-44.9	18.8	0.00e+00	0	40	0	830472192	56	4805
2026-01-28 23:01:35.88	145.67	30.65	-43.6	-46.2	17.5	0.00e+00	0	40	0	832569344	57	5260
2026-01-28 23:01:36.88	145.91	30.51	-44.5	-47.5	16.3	0.00e+00	0	40	0	834666496	59	5447
2026-01-28 23:01:37.94	146.16	30.36	-44.7	-47.8	16.0	0.00e+00	0	40	0	836763648	60	5285
2026-01-28 23:01:38.85	146.37	30.23	-44.2	-47.0	16.7	0.00e+00	0	40	0	837812224	60	4862
2026-01-28 23:01:39.85	146.61	30.08	-43.4	-46.0	17.7	0.00e+00	0	40	0	839909376	58	4837
2026-01-28 23:01:40.84	146.84	29.94	-42.9	-45.4	18.3	0.00e+00	0	40	0	842006528	57	4764
2026-01-28 23:01:41.84	147.07	29.80	-42.5	-44.9	18.8	0.00e+00	0	40	0	844103680	57	4495
2026-01-28 23:01:42.83	147.29	29.66	-42.4	-44.7	19.0	0.00e+00	0	40	0	845152256	56	4671
2026-01-28 23:01:43.83	147.52	29.52	-42.9	-45.4	18.3	0.00e+00	0	40	0	847249408	56	5074
2026-01-28 23:01:44.82	147.74	29.38	-44.0	-46.7	17.1	0.00e+00	0	40	0	849346560	58	5255
2026-01-28 23:01:45.82	147.97	29.24	-44.8	-48.0	15.9	0.00e+00	0	40	0	851443712	60	5434
2026-01-28 23:01:46.81	148.18	29.10	-45.1	-48.5	15.3	0.00e+00	0	40	0	853540864	60	5775
2026-01-28 23:01:47.81	148.40	28.96	-44.6	-47.7	16.1	0.00e+00	0	40	0	854589440	60	5227
2026-01-28 23:01:48.84	148.63	28.82	-43.6	-46.3	17.3	0.00e+00	0	40	0	856686592	59	4736
2026-01-28 23:01:49.86	148.85	28.68	-43.1	-45.6	18.1	0.00e+00	0	40	0	858783744	58	4612
2026-01-28 23:01:50.86	149.06	28.54	-43.1	-45.6	18.1	0.00e+00	0	40	0	860880896	58	4613
2026-01-28 23:01:51.85	149.27	28.40	-43.0	-45.5	18.2	0.00e+00	0	40	0	862978048	57	4821
2026-01-28 23:01:52.94	149.50	28.25	-42.9	-45.3	18.4	0.00e+00	0	40	0	865075200	57	4735
2026-01-28 23:01:53.82	149.68	28.13	-43.1	-45.6	18.0	0.00e+00	0	40	0	866123776	57	4916
2026-01-28 23:01:55.14	149.95	27.95	-43.8	-46.6	17.1	0.00e+00	0	40	0	868220928	58	5198
2026-01-28 23:01:55.85	150.10	27.85	-44.2	-47.1	16.6	0.00e+00	0	40	0	870318080	59	5213
2026-01-28 23:01:57.13	150.36	27.67	-44.3	-47.2	16.5	0.00e+00	0	40	0	872415232	59	5265
2026-01-28 23:01:57.84	150.50	27.57	-44.0	-46.8	16.9	0.00e+00	0	40	0	873463808	59	5022
2026-01-28 23:01:59.12	150.76	27.40	-43.4	-46.1	17.6	0.00e+00	0	40	0	876609536	58	4902
2026-01-28 23:01:59.85	150.90	27.30	-43.3	-45.9	17.8	0.00e+00	0	40	0	877658112	58	4803
2026-01-28 23:02:01.13	151.15	27.13	-43.2	-45.8	17.9	0.00e+00	0	40	0	879755264	58	4716
2026-01-28 23:02:01.86	151.29	27.03	-42.8	-45.3	18.4	0.00e+00	0	40	0	880803840	57	4723
2026-01-28 23:02:03.13	151.54	26.85	-42.5	-44.9	18.8	0.00e+00	0	40	0	883949568	56	4785
2026-01-28 23:02:03.84	151.67	26.76	-42.4	-44.8	18.8	0.00e+00	0	40	0	884998144	56	4756
2026-01-28 23:02:05.12	151.92	26.59	-42.8	-45.3	18.4	0.00e+00	0	40	0	887095296	56	5002
2026-01-28 23:02:05.84	152.05	26.49	-42.9	-45.5	18.2	0.00e+00	0	40	0	889192448	56	5106
2026-01-28 23:02:07.18	152.30	26.31	-43.2	-45.8	17.9	0.00e+00	0	40	0	891289600	57	4993
2026-01-28 23:02:08.16	152.48	26.18	-43.4	-46.1	17.6	0.00e+00	0	40	0	893386752	57	5180
2026-01-28 23:02:09.47	152.72	26.00	-43.3	-45.9	17.8	0.00e+00	0	40	0	895483904	57	5051
2026-01-28 23:02:10.21	152.86	25.91	-43.3	-45.9	17.8	0.00e+00	0	40	0	896532480	57	5045
2026-01-28 23:02:11.84	153.15	25.69	-42.9	-45.4	18.2	0.00e+00	0	40	0	899678208	57	4796
2026-01-28 23:02:12.41	153.25	25.61	-43.0	-45.5	18.1	0.00e+00	0	40	0	900726784	57	4849
2026-01-28 23:02:14.10	153.55	25.39	-42.7	-45.1	18.5	0.00e+00	0	40	0	903872512	57	4634
2026-01-28 23:02:14.67	153.65	25.32	-42.6	-45.0	18.6	0.00e+00	0	40	0	904921088	57	4590
2026-01-28 23:02:16.37	153.94	25.09	-42.8	-45.3	18.4	0.00e+00	0	40	0	908066816	57	4734
2026-01-28 23:02:16.94	154.04	25.02	-42.7	-45.2	18.5	0.00e+00	0	40	0	909115392	57	4675
2026-01-28 23:02:18.65	154.33	24.80	-42.8	-45.3	18.4	0.00e+00	0	40	0	912261120	57	4726
2026-01-28 23:02:19.46	154.47	24.69	-42.9	-45.5	18.2	0.00e+00	0	40	0	914358272	57	4818
2026-01-28 23:02:20.59	154.66	24.55	-42.9	-45.3	18.3	0.00e+00	0	40	0	916455424	57	4756
2026-01-28 23:02:21.44	154.80	24.44	-42.9	-45.3	18.3	0.00e+00	0	40	0	917504000	57	4747
2026-01-28 23:02:22.58	154.98	24.29	-42.8	-45.2	18.4	0.00e+00	0	40	0	920649728	57	4703
2026-01-28 23:02:23.44	155.12	24.18	-42.7	-45.2	18.4	0.00e+00	0	40	0	921698304	57	4658
2026-01-28 23:02:24.58	155.31	24.04	-42.8	-45.2	18.4	0.00e+00	0	40	0	923795456	57	4703
2026-01-28 23:02:25.43	155.45	23.93	-42.8	-45.2	18.4	0.00e+00	0	40	0	925892608	57	4683
2026-01-28 23:02:26.57	155.63	23.78	-42.7	-45.1	18.5	0.00e+00	0	40	0	927989760	57	4612
2026-01-28 23:02:27.42	155.76	23.68	-42.8	-45.3	18.3	0.00e+00	0	40	0	929038336	57	4732
2026-01-28 23:02:28.56	155.94	23.53	-42.8	-45.2	18.4	0.00e+00	0	40	0	931135488	57	4688
2026-01-28 23:02:29.41	156.07	23.43	-42.8	-45.2	18.4	0.00e+00	0	40	0	933232640	57	4694
2026-01-28 23:02:30.55	156.25	23.28	-42.8	-45.3	18.3	0.00e+00	0	40	0	935329792	57	4739
2026-01-28 23:02:31.40	156.38	23.18	-42.6	-45.1	18.5	0.00e+00	0	40	0	936378368	57	4606
2026-01-28 23:02:32.54	156.55	23.04	-42.7	-45.2	18.5	0.00e+00	0	40	0	938475520	57	4664
2026-01-28 23:02:33.39	156.68	22.93	-43.0	-45.4	18.2	0.00e+00	0	40	0	940572672	57	4806
2026-01-28 23:02:34.53	156.85	22.79	-42.9	-45.4	18.2	0.00e+00	0	40	0	942669824	57	4790
2026-01-28 23:02:35.38	156.98	22.68	-43.1	-45.7	17.9	0.00e+00	0	40	0	943718400	57	4939
2026-01-28 23:02:36.52	157.15	22.54	-43.3	-45.9	17.7	0.00e+00	0	40	0	945815552	57	5085
2026-01-28 23:02:37.37	157.27	22.44	-43.4	-46.0	17.6	0.00e+00	0	40	0	947912704	57	5122
2026-01-28 23:02:38.51	157.44	22.30	-43.6	-46.3	17.3	0.00e+00	0	40	0	950009856	57	5329
2026-01-28 23:02:39.36	157.56	22.20	-43.6	-46.2	17.4	0.00e+00	0	40	0	952107008	57	5268
2026-01-28 23:02:40.61	157.74	22.05	-43.5	-46.2	17.4	0.00e+00	0	40	0	954204160	57	5225
2026-01-28 23:02:41.46	157.86	21.94	-43.5	-46.1	17.5	0.00e+00	0	40	0	955252736	57	5170
2026-01-28 23:02:42.60	158.02	21.81	-43.1	-45.7	17.9	0.00e+00	0	40	0	957349888	57	4939
2026-01-28 23:02:43.45	158.14	21.70	-43.2	-45.7	17.9	0.00e+00	0	40	0	959447040	57	4970
2026-01-28 23:02:44.59	158.29	21.57	-43.0	-45.5	18.0	0.00e+00	0	40	0	961544192	57	4866
2026-01-28 23:02:45.44	158.41	21.47	-43.0	-45.5	18.0	0.00e+00	0	40	0	962592768	57	4870
2026-01-28 23:02:46.58	158.57	21.33	-43.0	-45.5	18.0	0.00e+00	0	40	0	964689920	57	4859
2026-01-28 23:02:47.43	158.68	21.23	-43.0	-45.6	18.0	0.00e+00	0	40	0	966787072	57	4889
2026-01-28 23:02:48.57	158.84	21.10	-43.1	-45.6	17.9	0.00e+00	0	40	0	968884224	57	4900
2026-01-28 23:02:49.42	158.95	21.00	-43.2	-45.8	17.8	0.00e+00	0	40	0	970981376	57	5011
2026-01-28 23:02:50.56	159.10	20.86	-43.3	-45.9	17.6	0.00e+00	0	40	0	973078528	57	5100
2026-01-28 23:02:51.41	159.21	20.76	-43.2	-45.8	17.7	0.00e+00	0	40	0	974127104	57	5027
2026-01-28 23:02:52.55	159.36	20.63	-43.3	-46.0	17.6	0.00e+00	0	40	0	976224256	57	5108
2026-01-28 23:02:53.40	159.47	20.53	-43.4	-46.0	17.6	0.00e+00	0	40	0	978321408	57	5131
2026-01-28 23:02:54.54	159.62	20.40	-43.3	-45.9	17.7	0.00e+00	0	40	0	980418560	57	5067
2026-01-28 23:02:55.39	159.73	20.30	-43.2	-45.8	17.8	0.00e+00	0	40	0	981467136	57	5003
2026-01-28 23:02:56.60	159.88	20.16	-43.2	-45.7	17.8	0.00e+00	0	40	0	983564288	57	4974
2026-01-28 23:02:57.46	159.99	20.07	-43.1	-45.7	17.9	0.00e+00	0	40	0	985661440	57	4943
2026-01-28 23:02:58.60	160.13	19.94	-43.2	-45.7	17.8	0.00e+00	0	40	0	987758592	57	4961
2026-01-28 23:02:59.45	160.24	19.84	-43.1	-45.7	17.9	0.00e+00	0	40	0	988807168	57	4940
2026-01-28 23:03:00.58	160.38	19.71	-43.1	-45.7	17.8	0.00e+00	0	40	0	991952896	57	4959
2026-01-28 23:03:01.44	160.48	19.61	-43.3	-45.8	17.7	0.00e+00	0	40	0	993001472	57	5035
2026-01-28 23:03:02.58	160.62	19.49	-43.3	-45.8	17.7	0.00e+00	0	40	0	995098624	57	5041
2026-01-28 23:03:03.43	160.73	19.39	-43.3	-46.0	17.6	0.00e+00	0	40	0	997195776	57	5113
2026-01-28 23:03:04.57	160.86	19.26	-43.3	-45.9	17.6	0.00e+00	0	40	0	999292928	57	5072
2026-01-28 23:03:05.42	160.96	19.17	-43.3	-45.9	17.6	0.00e+00	0	40	0	1000341504	57	5097
2026-01-28 23:03:06.55	161.10	19.04	-43.4	-46.0	17.5	0.00e+00	0	40	0	1002438656	57	5146
2026-01-28 23:03:07.41	161.20	18.95	-43.4	-46.0	17.5	0.00e+00	0	40	0	1004535808	57	5122
2026-01-28 23:03:08.55	161.33	18.82	-43.5	-46.2	17.3	0.00e+00	0	40	0	1006632960	57	5252
2026-01-28 23:03:09.40	161.43	18.73	-43.6	-46.3	17.3	0.00e+00	0	40	0	1007681536	57	5299
2026-01-28 23:03:10.54	161.56	18.60	-43.6	-46.3	17.3	0.00e+00	0	40	0	1009778688	57	5302
2026-01-28 23:03:11.39	161.66	18.51	-43.6	-46.4	17.2	0.00e+00	0	40	0	1011875840	57	5352
2026-01-28 23:03:12.53	161.79	18.39	-43.6	-46.3	17.2	0.00e+00	0	40	0	1013972992	57	5325
2026-01-28 23:03:13.38	161.88	18.29	-43.7	-46.5	17.1	0.00e+00	0	40	0	1015021568	58	5117
2026-01-28 23:03:14.51	162.01	18.17	-43.8	-46.5	17.0	0.00e+00	0	40	0	1017118720	58	5140
2026-01-28 23:03:15.37	162.10	18.08	-43.8	-46.6	17.0	0.00e+00	0	40	0	1019215872	58	5169
2026-01-28 23:03:16.51	162.23	17.96	-43.9	-46.7	16.9	0.00e+00	0	40	0	1021313024	58	5229
2026-01-28 23:03:17.36	162.32	17.87	-43.9	-46.6	16.9	0.00e+00	0	40	0	1022361600	58	5218
2026-01-28 23:03:18.50	162.45	17.75	-43.8	-46.5	16.8	0.00e+00	0	40	0	1025507328	58	5147
2026-01-28 23:03:19.42	162.55	17.65	-43.9	-46.6	16.9	0.00e+00	0	40	0	1026555904	58	5204
2026-01-28 23:03:20.41	162.65	17.54	-43.7	-46.5	17.1	0.00e+00	0	40	0	1028653056	58	5106
2026-01-28 23:03:21.40	162.76	17.44	-43.7	-46.5	17.1	0.00e+00	0	40	0	1030750208	58	5105
2026-01-28 23:03:22.40	162.87	17.33	-43.7	-46.4	17.1	0.00e+00	0	40	0	1031798784	58	5070
2026-01-28 23:03:23.40	162.97	17.23	-43.5	-46.2	17.3	0.00e+00	0	40	0	1033895936	58	4978
2026-01-28 23:03:24.39	163.07	17.13	-43.6	-46.3	17.2	0.00e+00	0	40	0	1035993088	58	5018
2026-01-28 23:03:25.38	163.18	17.02	-43.6	-46.3	17.3	0.00e+00	0	40	0	1038090240	58	5006
2026-01-28 23:03:26.38	163.28	16.92	-43.6	-46.4	17.2	0.00e+00	0	40	0	1040187392	58	5045
2026-01-28 23:03:27.37	163.38	16.82	-43.8	-46.6	17.0	0.00e+00	0	40	0	1041235968	58	5165
2026-01-28 23:03:28.37	163.48	16.71	-43.5	-46.3	17.3	0.00e+00	0	40	0	1043333120	58	4989
2026-01-28 23:03:29.36	163.58	16.61	-43.6	-46.3	17.2	0.00e+00	0	40	0	1045430272	58	4998
2026-01-28 23:03:30.36	163.68	16.51	-43.6	-46.3	17.2	0.00e+00	0	40	0	1047527424	58	5024
2026-01-28 23:03:31.35	163.78	16.41	-43.5	-46.2	17.3	0.00e+00	0	40	0	1048576000	58	4951
2026-01-28 23:03:32.35	163.88	16.31	-43.5	-46.2	17.3	0.00e+00	0	40	0	1050673152	58	4977
2026-01-28 23:03:33.34	163.98	16.21	-43.5	-46.2	17.3	0.00e+00	0	40	0	1052770304	58	4928
2026-01-28 23:03:34.34	164.08	16.11	-43.5	-46.2	17.3	0.00e+00	0	40	0	1054867456	58	4965
2026-01-28 23:03:35.33	164.17	16.01	-43.5	-46.2	17.4	0.00e+00	0	40	0	1056964608	58	4941
2026-01-28 23:03:36.32	164.27	15.91	-43.5	-46.3	17.2	0.00e+00	0	40	0	1058013184	58	5006
2026-01-28 23:03:37.32	164.37	15.81	-43.5	-46.2	17.3	0.00e+00	0	40	0	1060110336	58	4979
2026-01-28 23:03:38.31	164.46	15.71	-43.4	-46.1	17.4	0.00e+00	0	40	0	1062207488	58	4915
2026-01-28 23:03:39.31	164.56	15.61	-43.3	-46.0	17.5	0.00e+00	0	40	0	1064304640	58	4860
2026-01-28 23:03:40.30	164.65	15.51	-43.4	-46.1	17.4	0.00e+00	0	40	0	1065353216	58	4873
2026-01-28 23:03:41.30	164.74	15.41	-43.4	-46.1	17.4	0.00e+00	0	40	0	1067450368	58	4914
2026-01-28 23:03:42.36	164.84	15.31	-43.5	-46.2	17.3	0.00e+00	0	40	0	1069547520	58	4949
2026-01-28 23:03:43.24	164.92	15.22	-43.4	-46.1	17.4	0.00e+00	0	40	0	1071644672	58	4906
2026-01-28 23:03:44.38	165.03	15.11	-43.4	-46.1	17.4	0.00e+00	0	40	0	1073741824	58	4893
2026-01-28 23:03:45.31	165.11	15.02	-43.5	-46.1	17.3	0.00e+00	0	40	0	1074790400	58	4917
2026-01-28 23:03:46.48	165.22	14.91	-43.6	-46.3	17.2	0.00e+00	0	40	0	1077936128	58	4993
2026-01-28 23:03:47.33	165.30	14.83	-43.6	-46.3	17.1	0.00e+00	0	40	0	1078984704	58	5032
2026-01-28 23:03:48.47	165.40	14.72	-43.7	-46.5	17.0	0.00e+00	0	40	0	1081081856	58	5139
2026-01-28 23:03:49.32	165.47	14.63	-43.8	-46.6	16.9	0.00e+00	0	40	0	1083179008	58	5177
2026-01-28 23:03:50.46	165.58	14.52	-43.9	-46.7	16.8	0.00e+00	0	40	0	1085276160	58	5265
2026-01-28 23:03:51.31	165.65	14.44	-43.9	-46.8	16.7	0.00e+00	0	40	0	1086324736	58	5280
2026-01-28 23:03:52.45	165.75	14.34	-43.9	-46.9	16.6	0.00e+00	0	40	0	1088421888	58	5342
2026-01-28 23:03:53.30	165.82	14.25	-44.0	-47.0	16.5	0.00e+00	0	40	0	1090519040	58	5423
2026-01-28 23:03:54.44	165.92	14.15	-44.1	-47.1	16.4	0.00e+00	0	40	0	1092616192	58	5501
2026-01-28 23:03:55.29	165.99	14.07	-44.1	-47.1	16.3	0.00e+00	0	40	0	1093664768	58	5525
2026-01-28 23:03:56.43	166.09	13.96	-44.1	-47.1	16.3	0.00e+00	0	40	0	1095761920	59	5202
2026-01-28 23:03:57.28	166.16	13.88	-44.2	-47.2	16.3	0.00e+00	0	40	0	1097859072	59	5251
2026-01-28 23:03:58.42	166.26	13.77	-44.2	-47.3	16.2	0.00e+00	0	40	0	1099956224	59	5296
2026-01-28 23:03:59.27	166.33	13.70	-44.0	-47.0	16.4	0.00e+00	0	40	0	1101004800	59	5139
2026-01-28 23:04:00.41	166.43	13.59	-44.0	-47.0	16.5	0.00e+00	0	40	0	1103101952	59	5103
2026-01-28 23:04:01.27	166.50	13.51	-43.9	-46.8	16.6	0.00e+00	0	40	0	1105199104	59	5014
2026-01-28 23:04:02.63	166.61	13.39	-43.7	-46.6	16.8	0.00e+00	0	40	0	1107296256	59	4914
2026-01-28 23:04:03.34	166.67	13.32	-43.8	-46.7	16.7	0.00e+00	0	40	0	1109393408	59	4962
2026-01-28 23:04:04.62	166.77	13.20	-43.5	-46.3	17.1	0.00e+00	0	40	0	1111490560	59	4752
2026-01-28 23:04:05.34	166.83	13.14	-43.3	-46.1	17.3	0.00e+00	0	40	0	1112539136	58	4886
2026-01-28 23:04:06.62	166.93	13.02	-43.2	-46.0	17.4	0.00e+00	0	40	0	1115684864	58	4859
2026-01-28 23:04:07.35	166.99	12.96	-43.2	-46.0	17.3	0.00e+00	0	40	0	1116733440	58	4831
2026-01-28 23:04:08.62	167.09	12.84	-43.2	-46.0	17.5	0.00e+00	0	40	0	1118830592	58	4815
2026-01-28 23:04:09.34	167.15	12.78	-43.2	-45.9	17.5	0.00e+00	0	40	0	1119879168	58	4789
2026-01-28 23:04:10.62	167.25	12.66	-43.1	-45.8	17.5	0.00e+00	0	40	0	1123024896	58	4750
2026-01-28 23:04:11.58	167.32	12.58	-43.2	-45.9	17.5	0.00e+00	0	40	0	1124073472	58	4767
2026-01-28 23:04:12.57	167.40	12.49	-43.2	-45.9	17.5	0.00e+00	0	40	0	1126170624	58	4798
2026-01-28 23:04:13.57	167.48	12.40	-43.4	-46.1	17.3	0.00e+00	0	40	0	1128267776	58	4898
2026-01-28 23:04:14.56	167.55	12.31	-43.4	-46.1	17.2	0.00e+00	0	40	0	1130364928	58	4918
2026-01-28 23:04:15.56	167.63	12.22	-43.5	-46.2	17.2	0.00e+00	0	40	0	1132462080	58	4968
2026-01-28 23:04:16.55	167.71	12.14	-43.6	-46.4	17.0	0.00e+00	0	40	0	1133510656	58	5063
2026-01-28 23:04:17.54	167.78	12.05	-43.7	-46.6	16.8	0.00e+00	0	40	0	1135607808	58	5183
2026-01-28 23:04:18.54	167.86	11.96	-43.7	-46.7	16.7	0.00e+00	0	40	0	1137704960	58	5221
2026-01-28 23:04:19.55	167.93	11.87	-43.8	-46.8	16.6	0.00e+00	0	40	0	1139802112	58	5309
2026-01-28 23:04:20.58	168.01	11.78	-43.9	-47.0	16.4	0.00e+00	0	40	0	1141899264	58	5416
2026-01-28 23:04:21.57	168.08	11.70	-44.0	-47.1	16.3	0.00e+00	0	40	0	1142947840	58	5508
2026-01-28 23:04:22.57	168.15	11.61	-44.2	-47.4	16.0	0.00e+00	0	40	0	1145044992	58	5702
2026-01-28 23:04:23.56	168.23	11.53	-44.2	-47.5	15.9	0.00e+00	0	40	0	1147142144	59	5418
2026-01-28 23:04:24.56	168.30	11.44	-44.2	-47.6	15.7	0.00e+00	0	40	0	1149239296	59	5523
2026-01-28 23:04:25.55	168.37	11.36	-44.3	-47.8	15.5	0.00e+00	0	40	0	1150287872	59	5654
2026-01-28 23:04:26.54	168.44	11.27	-44.3	-48.0	15.4	0.00e+00	0	40	0	1152385024	59	5738
2026-01-28 23:04:27.54	168.51	11.19	-44.3	-47.9	15.4	0.00e+00	0	40	0	1154482176	59	5721
2026-01-28 23:04:28.54	168.58	11.10	-44.2	-47.9	15.4	0.00e+00	0	40	0	1156579328	59	5712
2026-01-28 23:04:29.53	168.65	11.02	-44.3	-48.1	15.3	0.00e+00	0	40	0	1158676480	59	5824
2026-01-28 23:04:30.53	168.72	10.93	-44.2	-48.2	15.1	7.00e-07	0	40	0	1159725056	59	5878
2026-01-28 23:04:31.52	168.79	10.85	-44.1	-48.0	15.3	0.00e+00	0	40	0	1161822208	59	5751
2026-01-28 23:04:32.51	168.86	10.77	-43.9	-47.9	15.4	0.00e+00	0	40	0	1163919360	59	5681
2026-01-28 23:04:33.51	168.93	10.68	-43.8	-47.9	15.4	0.00e+00	0	40	0	1166016512	59	5692
2026-01-28 23:04:34.50	169.00	10.60	-43.8	-47.8	15.5	0.00e+00	0	40	0	1167065088	59	5600
2026-01-28 23:04:35.50	169.06	10.52	-43.8	-47.8	15.5	0.00e+00	0	40	0	1169162240	59	5612
2026-01-28 23:04:36.49	169.13	10.44	-43.7	-47.6	15.7	0.00e+00	0	40	0	1171259392	59	5489
2026-01-28 23:04:37.49	169.20	10.35	-43.7	-47.5	15.7	0.00e+00	0	40	0	1173356544	59	5450
2026-01-28 23:04:38.48	169.27	10.27	-43.5	-47.3	15.9	0.00e+00	0	40	0	1175453696	59	5337
2026-01-28 23:04:39.48	169.33	10.19	-43.6	-47.3	15.9	0.00e+00	0	40	0	1176502272	59	5338
2026-01-28 23:04:40.48	169.40	10.11	-43.5	-47.2	16.0	0.00e+00	0	40	0	1178599424	59	5278
2026-01-28 23:04:41.47	169.46	10.03	-43.5	-47.2	16.1	0.00e+00	0	40	0	1180696576	59	5271
2026-01-28 23:04:42.46	169.53	9.95	-43.5	-47.2	16.1	0.00e+00	0	40	0	1182793728	59	5244
2026-01-28 23:04:43.46	169.59	9.87	-43.4	-47.2	16.1	0.00e+00	0	40	0	1183842304	58	5530
2026-01-28 23:04:44.45	169.66	9.79	-43.4	-47.1	16.1	0.00e+00	0	40	0	1185939456	58	5520
2026-01-28 23:04:45.45	169.72	9.71	-43.4	-47.1	16.2	0.00e+00	0	40	0	1188036608	58	5506
2026-01-28 23:04:46.44	169.79	9.63	-43.3	-47.0	16.3	0.00e+00	0	40	0	1190133760	58	5431
2026-01-28 23:04:47.44	169.85	9.55	-43.2	-47.0	16.3	0.00e+00	0	40	0	1192230912	58	5415
2026-01-28 23:04:48.43	169.91	9.47	-43.2	-47.0	16.3	0.00e+00	0	40	0	1193279488	58	5435
2026-01-28 23:04:49.43	169.98	9.39	-43.2	-47.0	16.3	0.00e+00	0	40	0	1195376640	58	5415
2026-01-28 23:04:50.42	170.04	9.31	-43.2	-47.0	16.2	0.00e+00	0	40	0	1197473792	58	5450
2026-01-28 23:04:51.42	170.10	9.23	-43.3	-47.1	16.1	0.00e+00	0	40	0	1199570944	58	5498
2026-01-28 23:04:52.41	170.17	9.15	-43.2	-47.1	16.1	0.00e+00	0	40	0	1201668096	58	5487
2026-01-28 23:04:53.41	170.23	9.07	-43.3	-47.1	15.9	0.00e+00	0	40	0	1202716672	58	5481
2026-01-28 23:04:54.40	170.29	8.99	-43.3	-47.2	16.1	0.00e+00	0	40	0	1204813824	58	5585
