passes_logs/2026/01/28/T1/T1__20260128_072611_NOAA_20_JPSS-1_rec.log

#Pass ID: 20260128_072611_NOAA 20 (JPSS-1)
#Satellite: NOAA 20 (JPSS-1)
#Configuration: NOAA 20
#almurnet v.1.7.20251203
#Start time: 2026-01-28 07:26:12

#Version: 2.0.20230620
#Station: T1
#Location: 37.570604 lon 55.790049 lat
#TLE: 1 43013U 17073A   26027.80586608  .00000156  00000+0  94940-4 0  9998
#TLE: 2 43013  98.7647 328.6108 0000947  21.3465 338.7750 14.19541216424550

#Time	Az	El	Level	Level2	SNR	BER	BlckErr	Temp	State	Recorded	gain1	gain2
2026-01-28 07:26:12.31	78.68	5.03	-49.7	-65.3	3.8	1.49e+00	0	37	0	0	70	22440
2026-01-28 07:26:13.31	78.57	5.08	-50.1	-65.4	3.8	1.49e+00	0	37	104	0	71	21368
2026-01-28 07:26:14.31	78.45	5.12	-50.2	-65.3	3.8	1.49e+00	0	37	104	0	71	21258
2026-01-28 07:26:15.31	78.33	5.17	-50.1	-65.4	3.8	1.49e+00	0	37	104	0	71	21429
2026-01-28 07:26:16.31	78.21	5.21	-50.1	-65.4	3.8	1.49e+00	0	37	104	0	71	21330
2026-01-28 07:26:17.30	78.09	5.26	-50.2	-65.4	3.8	1.49e+00	0	37	104	0	71	21335
2026-01-28 07:26:18.31	77.97	5.30	-50.2	-65.3	3.8	1.49e+00	0	37	104	0	71	21251
2026-01-28 07:26:19.30	77.86	5.35	-50.1	-65.4	3.8	1.49e+00	0	37	104	0	71	21278
2026-01-28 07:26:20.30	77.73	5.39	-50.1	-65.4	3.8	1.49e+00	0	37	104	0	71	21305
2026-01-28 07:26:21.30	77.61	5.44	-50.1	-65.3	3.8	1.49e+00	0	37	104	0	71	21187
2026-01-28 07:26:22.30	77.49	5.48	-49.9	-65.4	3.8	1.49e+00	0	38	104	0	71	21295
2026-01-28 07:26:23.29	77.37	5.53	-50.1	-65.3	3.8	1.49e+00	0	37	104	0	71	21197
2026-01-28 07:26:24.29	77.25	5.57	-50.1	-65.3	3.8	1.49e+00	0	37	104	0	71	21140
2026-01-28 07:26:25.29	77.13	5.62	-50.1	-65.3	3.8	1.49e+00	0	37	104	0	71	21077
2026-01-28 07:26:26.29	77.01	5.66	-50.1	-65.3	3.8	1.49e+00	0	38	104	0	71	21036
2026-01-28 07:26:27.29	76.88	5.71	-50.1	-65.2	3.8	1.49e+00	0	38	104	0	71	20910
2026-01-28 07:26:28.28	76.76	5.75	-49.9	-65.1	3.8	1.49e+00	0	38	104	0	71	20774
2026-01-28 07:26:29.28	76.64	5.80	-49.8	-65.0	3.8	1.49e+00	0	38	104	0	71	20507
2026-01-28 07:26:30.28	76.52	5.84	-49.7	-65.0	3.8	1.49e+00	0	37	104	0	71	20394
2026-01-28 07:26:31.28	76.39	5.89	-49.5	-64.8	3.8	1.49e+00	0	38	104	0	71	20047
2026-01-28 07:26:32.28	76.27	5.93	-49.4	-64.6	3.8	1.49e+00	0	38	104	0	70	20747
2026-01-28 07:26:33.28	76.14	5.98	-49.4	-64.6	3.8	1.49e+00	0	38	104	0	70	20655
2026-01-28 07:26:34.28	76.02	6.02	-49.4	-64.6	3.8	1.49e+00	0	38	104	0	70	20654
2026-01-28 07:26:35.28	75.89	6.06	-49.4	-64.6	3.8	1.49e+00	0	38	104	0	70	20653
2026-01-28 07:26:36.28	75.76	6.11	-49.4	-64.6	3.8	1.49e+00	0	38	104	0	70	20736
2026-01-28 07:26:37.28	75.64	6.15	-49.4	-64.6	3.8	1.49e+00	0	38	104	0	70	20716
2026-01-28 07:26:38.27	75.51	6.20	-49.4	-64.6	3.8	1.49e+00	0	38	104	0	70	20621
2026-01-28 07:26:39.27	75.38	6.24	-49.3	-64.6	3.8	1.49e+00	0	38	104	0	70	20606
2026-01-28 07:26:40.27	75.26	6.29	-49.4	-64.6	3.8	1.49e+00	0	38	104	0	70	20645
2026-01-28 07:26:41.26	75.13	6.33	-49.3	-64.6	3.8	1.49e+00	0	38	104	0	70	20673
2026-01-28 07:26:42.26	75.00	6.37	-49.3	-64.6	3.8	1.49e+00	0	38	104	0	70	20615
2026-01-28 07:26:43.26	74.87	6.42	-49.3	-64.6	3.8	1.49e+00	0	38	104	0	70	20567
2026-01-28 07:26:44.26	74.74	6.46	-49.3	-64.6	3.8	1.49e+00	0	38	104	0	70	20574
2026-01-28 07:26:45.26	74.61	6.50	-49.3	-64.5	3.8	1.49e+00	0	38	104	0	70	20445
2026-01-28 07:26:46.26	74.48	6.55	-49.3	-64.6	3.8	1.49e+00	0	38	104	0	70	20594
2026-01-28 07:26:47.26	74.35	6.59	-49.3	-64.5	3.8	1.49e+00	0	38	104	0	70	20470
2026-01-28 07:26:48.26	74.22	6.64	-49.3	-64.6	3.8	1.49e+00	0	38	104	0	70	20603
2026-01-28 07:26:49.26	74.09	6.68	-49.3	-64.5	3.8	1.49e+00	0	38	104	0	70	20488
2026-01-28 07:26:50.26	73.96	6.72	-49.3	-64.5	3.8	1.49e+00	0	38	104	0	70	20529
2026-01-28 07:26:51.26	73.82	6.77	-49.3	-64.5	3.8	1.49e+00	0	38	104	0	70	20395
2026-01-28 07:26:52.25	73.69	6.81	-49.3	-64.5	3.8	1.49e+00	0	39	104	0	70	20414
2026-01-28 07:26:53.25	73.56	6.85	-49.3	-64.5	3.8	1.49e+00	0	38	104	0	70	20469
2026-01-28 07:26:54.25	73.43	6.90	-49.3	-64.5	3.8	1.49e+00	0	38	104	0	70	20504
2026-01-28 07:26:55.24	73.29	6.94	-49.3	-64.5	3.8	1.49e+00	0	38	104	0	70	20485
2026-01-28 07:26:56.24	73.16	6.98	-49.3	-64.5	3.8	1.49e+00	0	38	104	0	70	20500
2026-01-28 07:26:57.24	73.03	7.02	-49.3	-64.5	3.8	1.49e+00	0	38	104	0	70	20445
2026-01-28 07:26:58.23	72.89	7.07	-49.3	-64.5	3.8	1.49e+00	0	38	104	0	70	20429
2026-01-28 07:26:59.23	72.76	7.11	-49.3	-64.4	3.8	1.49e+00	0	39	104	0	70	20300
2026-01-28 07:27:00.23	72.62	7.15	-49.3	-64.5	3.8	1.49e+00	0	39	104	0	70	20332
2026-01-28 07:27:01.22	72.49	7.20	-49.3	-64.4	3.8	1.49e+00	0	38	104	0	70	20285
2026-01-28 07:27:02.22	72.35	7.24	-49.3	-64.4	3.8	1.49e+00	0	39	104	0	70	20277
2026-01-28 07:27:03.22	72.21	7.28	-49.3	-64.5	3.8	1.49e+00	0	39	104	0	70	20350
2026-01-28 07:27:04.22	72.07	7.32	-49.3	-64.5	3.8	1.49e+00	0	39	104	0	70	20366
2026-01-28 07:27:05.22	71.94	7.37	-49.3	-64.5	3.8	1.49e+00	0	39	104	0	70	20338
2026-01-28 07:27:06.22	71.80	7.41	-49.3	-64.4	3.8	1.49e+00	0	39	104	0	70	20289
2026-01-28 07:27:07.21	71.66	7.45	-49.3	-64.5	3.8	1.49e+00	0	39	104	0	70	20394
2026-01-28 07:27:08.20	71.52	7.49	-49.3	-64.4	3.8	1.49e+00	0	39	104	0	70	20274
2026-01-28 07:27:09.20	71.38	7.53	-49.3	-64.4	3.8	1.49e+00	0	39	104	0	70	20120
2026-01-28 07:27:10.20	71.24	7.57	-49.3	-64.3	3.8	1.49e+00	0	39	104	0	70	20033
2026-01-28 07:27:11.20	71.10	7.62	-49.3	-64.3	3.8	1.49e+00	0	39	104	0	70	19984
2026-01-28 07:27:12.20	70.96	7.66	-49.3	-64.3	3.8	1.49e+00	0	39	104	0	70	19909
2026-01-28 07:27:13.20	70.82	7.70	-49.3	-64.3	3.8	1.49e+00	0	39	104	0	70	20024
2026-01-28 07:27:14.20	70.68	7.74	-49.3	-64.4	3.8	1.49e+00	0	39	104	0	70	20116
2026-01-28 07:27:15.20	70.54	7.78	-49.3	-64.4	3.8	1.49e+00	0	39	104	0	70	20270
2026-01-28 07:27:16.20	70.40	7.82	-49.3	-64.4	3.8	1.49e+00	0	39	104	0	70	20237
2026-01-28 07:27:17.20	70.25	7.87	-49.3	-64.5	3.8	1.49e+00	0	39	104	0	70	20374
2026-01-28 07:27:18.19	70.11	7.91	-49.3	-64.4	3.8	1.49e+00	0	39	104	0	70	20191
2026-01-28 07:27:19.19	69.97	7.95	-49.3	-64.3	3.8	1.49e+00	0	39	104	0	70	19892
2026-01-28 07:27:20.19	69.82	7.99	-49.3	-64.0	3.8	1.49e+00	0	39	104	0	70	19352
2026-01-28 07:27:21.19	69.68	8.03	-49.2	-63.8	3.8	1.49e+00	0	39	104	0	70	18920
2026-01-28 07:27:22.19	69.54	8.07	-49.2	-63.8	3.8	1.49e+00	0	39	104	0	70	18792
2026-01-28 07:27:23.19	69.39	8.11	-49.3	-63.8	3.8	1.49e+00	0	39	104	0	70	18880
2026-01-28 07:27:24.19	69.24	8.15	-49.3	-63.9	3.8	1.49e+00	0	39	104	0	70	19072
2026-01-28 07:27:25.18	69.10	8.19	-49.3	-64.1	3.8	1.49e+00	0	39	104	0	70	19429
2026-01-28 07:27:26.18	68.95	8.23	-49.3	-64.1	3.8	1.49e+00	0	39	104	0	70	19472
2026-01-28 07:27:27.18	68.81	8.27	-49.3	-64.2	3.8	1.49e+00	0	39	104	0	70	19641
2026-01-28 07:27:28.18	68.66	8.31	-49.3	-64.0	3.8	1.49e+00	0	39	104	0	70	19346
2026-01-28 07:27:29.18	68.51	8.35	-49.2	-63.7	3.8	1.49e+00	0	39	104	0	70	18597
2026-01-28 07:27:30.18	68.36	8.39	-49.2	-62.9	3.8	1.49e+00	0	39	104	0	70	16911
2026-01-28 07:27:31.18	68.22	8.43	-49.1	-62.0	3.8	1.48e+00	0	39	104	0	70	15386
2026-01-28 07:27:32.18	68.07	8.47	-49.1	-61.8	4.0	1.47e+00	0	39	104	0	70	14894
2026-01-28 07:27:33.18	67.92	8.51	-49.1	-62.4	3.9	1.48e+00	0	39	104	0	70	16083
2026-01-28 07:27:34.18	67.77	8.55	-49.2	-62.7	3.8	1.49e+00	0	39	104	0	70	16573
2026-01-28 07:27:35.18	67.62	8.59	-48.9	-59.3	4.8	1.44e+00	0	39	0	0	69	11939
2026-01-28 07:27:36.18	67.47	8.63	-48.1	-55.4	7.7	4.21e-01	0	39	0	2097152	68	8039
2026-01-28 07:27:37.18	67.32	8.67	-46.9	-52.0	11.1	7.48e-03	0	39	0	3145728	65	6491
2026-01-28 07:27:38.18	67.16	8.71	-45.9	-49.9	13.3	1.36e-04	0	39	0	5242880	63	5698
2026-01-28 07:27:39.18	67.01	8.75	-45.0	-48.4	14.9	2.20e-06	0	39	0	7340032	62	5071
2026-01-28 07:27:40.18	66.86	8.78	-44.5	-47.7	15.6	0.00e+00	0	39	0	9437184	61	4976
2026-01-28 07:27:41.18	66.71	8.82	-44.6	-47.9	15.4	0.00e+00	0	39	0	11534336	60	5375
2026-01-28 07:27:42.17	66.56	8.86	-45.2	-48.8	14.5	0.00e+00	0	39	0	12582912	61	5603
2026-01-28 07:27:43.17	66.40	8.90	-46.1	-50.3	13.1	2.20e-06	0	39	0	14680064	62	6292
2026-01-28 07:27:44.17	66.25	8.94	-47.0	-52.4	10.7	9.08e-04	0	39	0	16777216	64	7201
2026-01-28 07:27:45.17	66.10	8.97	-48.0	-55.5	7.5	2.74e-02	0	39	0	18874368	66	9137
2026-01-28 07:27:46.17	65.94	9.01	-48.9	-59.4	4.8	3.05e-01	0	39	0	20971520	68	12723
2026-01-28 07:27:47.17	65.79	9.05	-47.6	-54.0	9.0	2.66e-02	0	39	0	22020096	67	7258
2026-01-28 07:27:48.17	65.63	9.09	-47.0	-52.1	11.2	3.81e-04	0	39	0	24117248	65	6497
2026-01-28 07:27:49.17	65.47	9.12	-49.3	-64.3	3.8	1.20e+00	0	39	104	25165824	69	21070
2026-01-28 07:27:50.17	65.32	9.16	-46.3	-50.7	12.6	5.15e-01	0	39	0	25165824	64	5917
2026-01-28 07:27:51.17	65.16	9.20	-48.9	-60.2	4.3	8.14e-01	0	39	0	27262976	68	14040
2026-01-28 07:27:52.17	65.00	9.24	-46.1	-50.4	13.0	2.70e-04	0	39	0	29360128	63	5993
2026-01-28 07:27:53.17	64.85	9.27	-45.6	-49.4	14.0	1.90e-05	0	39	0	30408704	63	5363
2026-01-28 07:27:54.17	64.69	9.31	-45.2	-48.8	14.6	7.00e-07	0	39	0	32505856	62	5289
2026-01-28 07:27:55.17	64.53	9.35	-44.9	-48.3	15.1	0.00e+00	0	39	0	34603008	61	5298
2026-01-28 07:27:56.17	64.37	9.38	-44.5	-47.7	15.7	0.00e+00	0	39	0	36700160	61	4937
2026-01-28 07:27:57.17	64.21	9.42	-44.3	-47.4	16.0	0.00e+00	0	39	0	38797312	60	5045
2026-01-28 07:27:58.16	64.06	9.45	-44.4	-47.4	15.9	0.00e+00	0	39	0	39845888	60	5095
2026-01-28 07:27:59.16	63.90	9.49	-44.4	-47.5	15.9	0.00e+00	0	39	0	41943040	60	5129
2026-01-28 07:28:00.14	63.74	9.52	-44.3	-47.4	16.0	0.00e+00	0	39	0	44040192	60	5053
2026-01-28 07:28:01.14	63.58	9.56	-44.2	-47.3	16.1	0.00e+00	0	39	0	46137344	60	5000
2026-01-28 07:28:02.14	63.42	9.60	-44.1	-47.2	16.2	0.00e+00	0	39	0	47185920	60	4939
2026-01-28 07:28:03.14	63.26	9.63	-44.2	-47.2	16.2	0.00e+00	0	39	0	49283072	60	4970
2026-01-28 07:28:04.13	63.10	9.67	-44.2	-47.2	16.2	0.00e+00	0	39	0	51380224	60	4970
2026-01-28 07:28:05.13	62.93	9.70	-44.2	-47.3	16.1	0.00e+00	0	39	0	53477376	60	4992
2026-01-28 07:28:06.13	62.77	9.74	-44.3	-47.4	16.0	0.00e+00	0	39	0	55574528	60	5045
2026-01-28 07:28:07.13	62.61	9.77	-44.1	-47.1	16.3	0.00e+00	0	39	0	56623104	60	4888
2026-01-28 07:28:08.12	62.45	9.80	-44.0	-47.0	16.4	0.00e+00	0	39	0	58720256	60	4843
2026-01-28 07:28:09.12	62.28	9.84	-44.0	-47.0	16.4	0.00e+00	0	39	0	60817408	60	4824
2026-01-28 07:28:10.12	62.12	9.87	-44.1	-47.1	16.3	0.00e+00	0	39	0	62914560	60	4895
2026-01-28 07:28:11.12	61.95	9.91	-44.1	-47.0	16.4	0.00e+00	0	39	0	63963136	60	4860
2026-01-28 07:28:12.11	61.79	9.94	-44.1	-47.0	16.4	0.00e+00	0	40	0	66060288	60	4856
2026-01-28 07:28:13.11	61.63	9.97	-44.1	-47.1	16.3	0.00e+00	0	39	0	68157440	60	4904
2026-01-28 07:28:14.11	61.46	10.01	-44.0	-47.0	16.4	0.00e+00	0	39	0	70254592	60	4839
2026-01-28 07:28:15.11	61.29	10.04	-44.0	-47.0	16.4	0.00e+00	0	39	0	72351744	60	4836
2026-01-28 07:28:16.10	61.13	10.07	-44.0	-47.0	16.4	0.00e+00	0	39	0	73400320	59	5113
2026-01-28 07:28:17.10	60.96	10.10	-44.1	-47.1	16.3	0.00e+00	0	39	0	75497472	59	5173
2026-01-28 07:28:18.09	60.80	10.14	-44.1	-47.1	16.3	0.00e+00	0	39	0	77594624	59	5180
2026-01-28 07:28:19.09	60.63	10.17	-44.2	-47.2	16.2	0.00e+00	0	39	0	79691776	59	5222
2026-01-28 07:28:20.09	60.46	10.20	-44.0	-46.9	16.4	0.00e+00	0	39	0	80740352	59	5083
2026-01-28 07:28:21.08	60.30	10.23	-44.1	-47.0	16.4	0.00e+00	0	39	0	82837504	59	5122
2026-01-28 07:28:22.08	60.13	10.26	-44.2	-47.2	16.2	0.00e+00	0	40	0	84934656	59	5236
2026-01-28 07:28:23.07	59.96	10.30	-44.1	-47.0	16.3	0.00e+00	0	39	0	87031808	59	5150
2026-01-28 07:28:24.06	59.79	10.33	-44.2	-47.1	16.3	0.00e+00	0	40	0	89128960	59	5191
2026-01-28 07:28:25.06	59.62	10.36	-44.2	-47.1	16.3	0.00e+00	0	39	0	90177536	59	5176
2026-01-28 07:28:26.06	59.45	10.39	-44.3	-47.2	16.1	0.00e+00	0	40	0	92274688	59	5277
2026-01-28 07:28:27.06	59.28	10.42	-44.3	-47.2	16.1	0.00e+00	0	40	0	94371840	59	5260
2026-01-28 07:28:28.06	59.11	10.45	-44.1	-47.0	16.4	0.00e+00	0	40	0	96468992	59	5109
2026-01-28 07:28:29.06	58.94	10.48	-44.1	-47.1	16.3	0.00e+00	0	40	0	97517568	59	5167
2026-01-28 07:28:30.05	58.77	10.51	-44.1	-47.1	16.3	0.00e+00	0	40	0	99614720	59	5160
2026-01-28 07:28:31.05	58.60	10.54	-44.1	-47.0	16.4	0.00e+00	0	39	0	101711872	59	5144
2026-01-28 07:28:32.05	58.43	10.57	-44.1	-47.0	16.4	0.00e+00	0	40	0	103809024	59	5142
2026-01-28 07:28:33.04	58.26	10.60	-44.0	-46.9	16.5	0.00e+00	0	40	0	105906176	59	5080
2026-01-28 07:28:34.03	58.09	10.63	-44.1	-47.0	16.4	0.00e+00	0	40	0	106954752	59	5114
2026-01-28 07:28:35.03	57.91	10.66	-44.1	-47.1	16.3	0.00e+00	0	40	0	109051904	59	5168
2026-01-28 07:28:36.02	57.74	10.68	-44.1	-47.0	16.4	0.00e+00	0	40	0	111149056	59	5123
2026-01-28 07:28:37.02	57.57	10.71	-44.1	-47.1	16.3	0.00e+00	0	40	0	113246208	59	5171
2026-01-28 07:28:38.02	57.39	10.74	-44.2	-47.1	16.3	0.00e+00	0	40	0	115343360	59	5181
2026-01-28 07:28:39.01	57.22	10.77	-44.1	-47.1	16.3	0.00e+00	0	40	0	116391936	59	5161
2026-01-28 07:28:40.00	57.05	10.80	-44.1	-47.0	16.4	0.00e+00	0	40	0	118489088	59	5145
2026-01-28 07:28:41.00	56.87	10.83	-44.1	-47.0	16.4	0.00e+00	0	40	0	120586240	59	5113
2026-01-28 07:28:42.00	56.70	10.85	-44.0	-46.9	16.5	0.00e+00	0	40	0	122683392	59	5081
2026-01-28 07:28:43.01	56.52	10.88	-44.0	-46.9	16.5	0.00e+00	0	40	0	123731968	59	5074
2026-01-28 07:28:44.00	56.34	10.91	-44.0	-46.9	16.5	0.00e+00	0	39	0	125829120	59	5090
2026-01-28 07:28:45.01	56.17	10.93	-44.1	-47.0	16.5	0.00e+00	0	40	0	127926272	59	5109
2026-01-28 07:28:46.00	55.99	10.96	-43.9	-46.8	16.6	0.00e+00	0	40	0	130023424	59	5022
2026-01-28 07:28:47.00	55.81	10.99	-43.9	-46.8	16.6	0.00e+00	0	40	0	132120576	59	5007
2026-01-28 07:28:47.99	55.64	11.01	-44.0	-46.8	16.6	0.00e+00	0	40	0	133169152	59	5018
2026-01-28 07:28:48.99	55.46	11.04	-43.9	-46.8	16.6	0.00e+00	0	40	0	135266304	59	5013
2026-01-28 07:28:50.00	55.28	11.06	-43.9	-46.8	16.7	0.00e+00	0	40	0	137363456	59	4987
2026-01-28 07:28:50.99	55.10	11.09	-43.9	-46.8	16.6	0.00e+00	0	40	0	139460608	59	4992
2026-01-28 07:28:52.00	54.92	11.11	-44.1	-47.0	16.4	0.00e+00	0	40	0	141557760	59	5147
2026-01-28 07:28:52.99	54.74	11.14	-44.1	-47.0	16.4	0.00e+00	0	40	0	142606336	59	5147
2026-01-28 07:28:53.99	54.57	11.16	-44.1	-47.0	16.4	0.00e+00	0	40	0	144703488	59	5137
2026-01-28 07:28:54.99	54.39	11.19	-44.0	-46.9	16.5	0.00e+00	0	40	0	146800640	59	5085
2026-01-28 07:28:55.99	54.21	11.21	-44.1	-47.0	16.4	0.00e+00	0	40	0	148897792	59	5154
2026-01-28 07:28:56.99	54.03	11.24	-44.1	-47.1	16.4	0.00e+00	0	40	0	149946368	59	5160
2026-01-28 07:28:57.99	53.85	11.26	-44.2	-47.2	16.3	0.00e+00	0	40	0	152043520	59	5227
2026-01-28 07:28:58.99	53.66	11.28	-44.2	-47.2	16.2	0.00e+00	0	40	0	154140672	59	5244
2026-01-28 07:28:59.98	53.48	11.31	-44.3	-47.3	16.1	0.00e+00	0	40	0	156237824	59	5316
2026-01-28 07:29:00.98	53.30	11.33	-44.3	-47.3	16.1	0.00e+00	0	40	0	158334976	59	5329
2026-01-28 07:29:01.98	53.12	11.35	-44.3	-47.4	16.1	0.00e+00	0	40	0	159383552	59	5353
2026-01-28 07:29:02.98	52.94	11.37	-44.3	-47.4	16.1	0.00e+00	0	40	0	161480704	59	5350
2026-01-28 07:29:03.97	52.76	11.40	-44.4	-47.4	16.0	0.00e+00	0	40	0	163577856	59	5384
2026-01-28 07:29:04.97	52.58	11.42	-44.4	-47.5	16.0	0.00e+00	0	40	0	165675008	59	5412
2026-01-28 07:29:05.97	52.39	11.44	-44.4	-47.4	16.0	0.00e+00	0	40	0	167772160	59	5385
2026-01-28 07:29:06.96	52.21	11.46	-44.4	-47.4	16.1	0.00e+00	0	40	0	168820736	59	5372
2026-01-28 07:29:07.96	52.03	11.48	-44.3	-47.3	16.2	0.00e+00	0	40	0	170917888	59	5296
2026-01-28 07:29:08.96	51.85	11.50	-44.2	-47.2	16.2	0.00e+00	0	40	0	173015040	59	5254
2026-01-28 07:29:09.96	51.66	11.52	-44.2	-47.2	16.3	0.00e+00	0	40	0	175112192	59	5225
2026-01-28 07:29:10.95	51.48	11.54	-44.2	-47.2	16.3	0.00e+00	0	40	0	176160768	59	5234
2026-01-28 07:29:11.95	51.30	11.56	-44.3	-47.3	16.2	0.00e+00	0	40	0	178257920	59	5298
2026-01-28 07:29:12.95	51.11	11.58	-44.3	-47.3	16.2	0.00e+00	0	40	0	180355072	59	5293
2026-01-28 07:29:13.94	50.93	11.60	-44.1	-47.1	16.4	0.00e+00	0	40	0	182452224	59	5179
2026-01-28 07:29:14.94	50.74	11.62	-44.3	-47.3	16.2	0.00e+00	0	40	0	184549376	59	5293
2026-01-28 07:29:15.94	50.56	11.64	-44.3	-47.3	16.2	0.00e+00	0	40	0	185597952	59	5310
2026-01-28 07:29:16.94	50.37	11.66	-44.3	-47.3	16.1	0.00e+00	0	40	0	187695104	59	5338
2026-01-28 07:29:17.94	50.19	11.68	-44.2	-47.2	16.3	0.00e+00	0	40	0	189792256	59	5246
2026-01-28 07:29:18.94	50.00	11.70	-44.1	-47.0	16.4	0.00e+00	0	40	0	191889408	59	5154
2026-01-28 07:29:19.94	49.81	11.71	-44.0	-47.0	16.5	0.00e+00	0	40	0	193986560	59	5112
2026-01-28 07:29:20.94	49.63	11.73	-44.0	-47.0	16.5	0.00e+00	0	40	0	195035136	59	5122
2026-01-28 07:29:21.94	49.44	11.75	-44.0	-46.9	16.5	0.00e+00	0	40	0	197132288	59	5088
2026-01-28 07:29:22.94	49.25	11.76	-44.0	-47.0	16.5	0.00e+00	0	40	0	199229440	59	5103
2026-01-28 07:29:23.94	49.07	11.78	-44.1	-47.1	16.4	0.00e+00	0	40	0	201326592	59	5166
2026-01-28 07:29:24.94	48.88	11.80	-44.0	-46.9	16.5	0.00e+00	0	40	0	202375168	59	5083
2026-01-28 07:29:25.94	48.69	11.81	-43.9	-46.7	16.7	0.00e+00	0	40	0	204472320	59	4966
2026-01-28 07:29:26.94	48.50	11.83	-43.9	-46.8	16.6	0.00e+00	0	40	0	206569472	59	5034
2026-01-28 07:29:27.94	48.32	11.84	-43.9	-46.8	16.7	0.00e+00	0	40	0	208666624	59	4985
2026-01-28 07:29:28.93	48.13	11.86	-43.8	-46.7	16.7	0.00e+00	0	40	0	210763776	59	4972
2026-01-28 07:29:29.93	47.94	11.87	-44.0	-46.9	16.6	0.00e+00	0	40	0	211812352	59	5050
2026-01-28 07:29:30.93	47.75	11.89	-43.9	-46.7	16.8	0.00e+00	0	40	0	213909504	59	4964
2026-01-28 07:29:31.93	47.56	11.90	-43.8	-46.6	16.9	0.00e+00	0	40	0	216006656	59	4888
2026-01-28 07:29:32.92	47.38	11.92	-43.8	-46.7	16.8	0.00e+00	0	40	0	218103808	59	4932
2026-01-28 07:29:33.92	47.19	11.93	-43.8	-46.6	16.9	0.00e+00	0	40	0	220200960	59	4884
2026-01-28 07:29:34.92	47.00	11.94	-43.6	-46.4	17.1	0.00e+00	0	40	0	221249536	59	4780
2026-01-28 07:29:35.91	46.81	11.96	-43.7	-46.5	17.0	0.00e+00	0	40	0	223346688	59	4824
2026-01-28 07:29:36.91	46.62	11.97	-43.7	-46.5	17.0	0.00e+00	0	40	0	225443840	59	4824
2026-01-28 07:29:37.91	46.43	11.98	-43.7	-46.4	17.1	0.00e+00	0	40	0	227540992	59	4796
2026-01-28 07:29:38.91	46.24	12.00	-43.6	-46.3	17.1	0.00e+00	0	40	0	228589568	59	4753
2026-01-28 07:29:39.91	46.05	12.01	-43.7	-46.4	17.0	0.00e+00	0	40	0	230686720	59	4813
2026-01-28 07:29:40.91	45.86	12.02	-43.6	-46.3	17.2	0.00e+00	0	40	0	232783872	59	4752
2026-01-28 07:29:41.90	45.67	12.03	-43.7	-46.4	17.1	0.00e+00	0	40	0	234881024	59	4778
2026-01-28 07:29:42.90	45.48	12.04	-43.7	-46.5	17.0	0.00e+00	0	40	0	236978176	59	4827
2026-01-28 07:29:43.91	45.29	12.05	-43.7	-46.4	17.1	0.00e+00	0	40	0	238026752	59	4783
2026-01-28 07:29:44.91	45.10	12.06	-43.7	-46.4	17.1	0.00e+00	0	40	0	240123904	59	4802
2026-01-28 07:29:45.91	44.91	12.07	-43.7	-46.4	17.1	0.00e+00	0	40	0	242221056	59	4790
2026-01-28 07:29:46.91	44.72	12.08	-43.7	-46.4	17.1	0.00e+00	0	40	0	244318208	59	4803
2026-01-28 07:29:47.91	44.53	12.09	-43.6	-46.3	17.2	0.00e+00	0	40	0	245366784	59	4735
2026-01-28 07:29:48.90	44.34	12.10	-43.6	-46.3	17.1	0.00e+00	0	40	0	247463936	59	4753
2026-01-28 07:29:49.90	44.15	12.11	-43.7	-46.5	17.0	0.00e+00	0	40	0	249561088	59	4833
2026-01-28 07:29:50.91	43.95	12.12	-43.7	-46.4	17.1	0.00e+00	0	40	0	251658240	59	4798
2026-01-28 07:29:51.91	43.76	12.13	-43.7	-46.4	17.1	0.00e+00	0	40	0	253755392	59	4789
2026-01-28 07:29:52.91	43.57	12.13	-43.6	-46.3	17.2	0.00e+00	0	40	0	254803968	59	4717
2026-01-28 07:29:53.90	43.38	12.14	-43.5	-46.2	17.3	0.00e+00	0	40	0	256901120	58	4929
2026-01-28 07:29:54.90	43.19	12.15	-43.6	-46.3	17.2	0.00e+00	0	40	0	258998272	58	5038
2026-01-28 07:29:55.90	43.00	12.16	-43.4	-46.1	17.4	0.00e+00	0	40	0	261095424	58	4897
2026-01-28 07:29:56.89	42.81	12.16	-43.5	-46.2	17.3	0.00e+00	0	40	0	263192576	58	4942
2026-01-28 07:29:57.89	42.61	12.17	-43.5	-46.2	17.2	0.00e+00	0	40	0	264241152	58	4974
2026-01-28 07:29:58.88	42.42	12.18	-43.5	-46.2	17.3	0.00e+00	0	40	0	266338304	58	4956
2026-01-28 07:29:59.88	42.23	12.18	-43.6	-46.3	17.2	0.00e+00	0	40	0	268435456	58	5009
2026-01-28 07:30:00.88	42.04	12.19	-43.5	-46.2	17.3	0.00e+00	0	40	0	270532608	58	4962
2026-01-28 07:30:01.88	41.85	12.19	-43.4	-46.1	17.4	0.00e+00	0	40	0	272629760	58	4893
2026-01-28 07:30:02.88	41.65	12.20	-43.3	-45.9	17.6	0.00e+00	0	40	0	273678336	58	4767
2026-01-28 07:30:03.89	41.46	12.20	-43.3	-45.9	17.6	0.00e+00	0	40	0	275775488	58	4787
2026-01-28 07:30:04.89	41.27	12.21	-43.4	-46.0	17.5	0.00e+00	0	40	0	277872640	58	4821
2026-01-28 07:30:05.89	41.07	12.21	-43.3	-45.9	17.5	0.00e+00	0	40	0	279969792	58	4807
2026-01-28 07:30:06.89	40.88	12.21	-43.4	-46.0	17.4	0.00e+00	0	40	0	281018368	58	4859
2026-01-28 07:30:07.88	40.69	12.22	-43.4	-46.0	17.5	0.00e+00	0	40	0	283115520	58	4862
2026-01-28 07:30:08.88	40.50	12.22	-43.4	-46.0	17.5	0.00e+00	0	40	0	285212672	58	4831
2026-01-28 07:30:09.88	40.30	12.22	-43.4	-46.0	17.5	0.00e+00	0	40	0	287309824	58	4838
2026-01-28 07:30:10.88	40.11	12.22	-43.4	-46.1	17.4	0.00e+00	0	40	0	289406976	58	4885
2026-01-28 07:30:11.87	39.92	12.23	-43.5	-46.1	17.4	0.00e+00	0	40	0	290455552	58	4925
2026-01-28 07:30:12.87	39.73	12.23	-43.5	-46.2	17.3	0.00e+00	0	40	0	292552704	58	4956
2026-01-28 07:30:13.87	39.53	12.23	-43.6	-46.2	17.3	0.00e+00	0	40	0	294649856	58	4979
2026-01-28 07:30:14.86	39.34	12.23	-43.5	-46.1	17.4	0.00e+00	0	40	0	296747008	58	4906
2026-01-28 07:30:15.86	39.15	12.23	-43.5	-46.1	17.3	0.00e+00	0	40	0	297795584	58	4922
2026-01-28 07:30:16.86	38.96	12.23	-43.4	-46.0	17.5	0.00e+00	0	40	0	299892736	58	4840
2026-01-28 07:30:17.86	38.76	12.23	-43.3	-45.9	17.6	0.00e+00	0	40	0	301989888	58	4783
2026-01-28 07:30:18.86	38.57	12.23	-43.4	-46.0	17.5	0.00e+00	0	40	0	304087040	58	4843
2026-01-28 07:30:19.86	38.38	12.23	-43.3	-46.0	17.5	0.00e+00	0	40	0	306184192	58	4826
2026-01-28 07:30:20.86	38.19	12.23	-43.4	-46.1	17.3	0.00e+00	0	40	0	307232768	58	4914
2026-01-28 07:30:21.86	37.99	12.23	-43.4	-46.1	17.3	0.00e+00	0	40	0	309329920	58	4911
2026-01-28 07:30:22.86	37.80	12.23	-43.5	-46.2	17.3	0.00e+00	0	40	0	311427072	58	4936
2026-01-28 07:30:23.86	37.61	12.23	-43.6	-46.4	17.2	0.00e+00	0	40	0	313524224	58	5047
2026-01-28 07:30:24.86	37.41	12.22	-43.7	-46.5	17.0	0.00e+00	0	40	0	315621376	58	5132
2026-01-28 07:30:25.86	37.22	12.22	-43.8	-46.7	16.8	0.00e+00	0	40	0	316669952	58	5219
2026-01-28 07:30:26.86	37.03	12.22	-44.0	-46.8	16.7	0.00e+00	0	40	0	318767104	58	5336
2026-01-28 07:30:27.86	36.84	12.22	-43.9	-46.8	16.7	0.00e+00	0	40	0	320864256	58	5304
2026-01-28 07:30:28.86	36.64	12.21	-44.1	-47.0	16.5	0.00e+00	0	40	0	322961408	58	5463
2026-01-28 07:30:29.86	36.45	12.21	-44.0	-47.0	16.5	0.00e+00	0	40	0	324009984	58	5447
2026-01-28 07:30:30.86	36.26	12.20	-44.0	-47.0	16.5	0.00e+00	0	40	0	326107136	58	5431
2026-01-28 07:30:31.86	36.06	12.20	-44.0	-47.1	16.4	0.00e+00	0	40	0	328204288	58	5509
2026-01-28 07:30:32.86	35.87	12.20	-43.9	-47.0	16.5	0.00e+00	0	40	0	330301440	58	5424
2026-01-28 07:30:33.85	35.68	12.19	-44.0	-47.1	16.4	0.00e+00	0	40	0	332398592	58	5506
2026-01-28 07:30:34.86	35.49	12.19	-43.9	-46.9	16.6	0.00e+00	0	40	0	333447168	58	5342
2026-01-28 07:30:35.86	35.30	12.18	-44.1	-47.0	16.5	0.00e+00	0	41	0	335544320	58	5448
2026-01-28 07:30:36.85	35.11	12.17	-44.1	-47.0	16.5	0.00e+00	0	40	0	337641472	58	5462
2026-01-28 07:30:37.85	34.91	12.17	-44.2	-47.1	16.4	0.00e+00	0	40	0	339738624	59	5185
2026-01-28 07:30:38.84	34.72	12.16	-44.3	-47.3	16.2	0.00e+00	0	40	0	341835776	59	5309
2026-01-28 07:30:39.84	34.53	12.15	-44.3	-47.3	16.2	0.00e+00	0	40	0	342884352	59	5330
2026-01-28 07:30:40.85	34.34	12.15	-44.4	-47.4	16.1	0.00e+00	0	40	0	344981504	59	5350
2026-01-28 07:30:41.85	34.15	12.14	-44.3	-47.3	16.2	0.00e+00	0	40	0	347078656	59	5318
2026-01-28 07:30:42.85	33.95	12.13	-44.4	-47.5	16.0	0.00e+00	0	40	0	349175808	59	5405
2026-01-28 07:30:43.85	33.76	12.12	-44.3	-47.3	16.2	0.00e+00	0	40	0	351272960	59	5305
2026-01-28 07:30:44.85	33.57	12.12	-44.2	-47.1	16.4	0.00e+00	0	40	0	352321536	59	5190
2026-01-28 07:30:45.85	33.38	12.11	-44.0	-46.9	16.6	0.00e+00	0	40	0	354418688	59	5089
2026-01-28 07:30:46.84	33.19	12.10	-44.0	-46.9	16.6	0.00e+00	0	40	0	356515840	59	5052
2026-01-28 07:30:47.84	33.00	12.09	-43.9	-46.9	16.6	0.00e+00	0	40	0	358612992	59	5052
2026-01-28 07:30:48.84	32.81	12.08	-43.9	-47.0	16.5	0.00e+00	0	40	0	359661568	59	5116
2026-01-28 07:30:49.84	32.62	12.07	-44.0	-47.1	16.4	0.00e+00	0	40	0	361758720	59	5181
2026-01-28 07:30:50.83	32.43	12.06	-44.0	-47.1	16.4	0.00e+00	0	40	0	363855872	59	5190
2026-01-28 07:30:51.84	32.24	12.05	-44.0	-47.0	16.4	0.00e+00	0	40	0	365953024	59	5158
2026-01-28 07:30:52.83	32.05	12.04	-44.0	-47.1	16.4	0.00e+00	0	40	0	368050176	59	5184
2026-01-28 07:30:53.84	31.86	12.03	-44.1	-47.1	16.4	0.00e+00	0	40	0	369098752	59	5208
2026-01-28 07:30:54.84	31.67	12.02	-44.1	-47.0	16.4	0.00e+00	0	40	0	371195904	59	5152
2026-01-28 07:30:55.83	31.48	12.00	-44.1	-47.1	16.4	0.00e+00	0	40	0	373293056	59	5205
2026-01-28 07:30:56.83	31.29	11.99	-44.1	-47.1	16.4	0.00e+00	0	40	0	375390208	59	5173
2026-01-28 07:30:57.83	31.10	11.98	-44.1	-47.0	16.5	0.00e+00	0	40	0	377487360	59	5136
2026-01-28 07:30:58.83	30.91	11.97	-44.0	-46.9	16.6	0.00e+00	0	40	0	378535936	59	5064
2026-01-28 07:30:59.83	30.72	11.95	-44.1	-47.0	16.5	0.00e+00	0	40	0	380633088	59	5113
2026-01-28 07:31:00.83	30.53	11.94	-44.1	-47.0	16.5	0.00e+00	0	40	0	382730240	59	5125
2026-01-28 07:31:01.83	30.34	11.93	-44.0	-46.9	16.5	0.00e+00	0	40	0	384827392	59	5091
2026-01-28 07:31:02.83	30.15	11.91	-43.9	-46.8	16.6	0.00e+00	0	40	0	386924544	59	5025
2026-01-28 07:31:03.83	29.96	11.90	-44.0	-46.9	16.5	0.00e+00	0	40	0	387973120	59	5093
2026-01-28 07:31:04.83	29.78	11.88	-44.0	-46.9	16.5	0.00e+00	0	40	0	390070272	59	5071
2026-01-28 07:31:05.82	29.59	11.87	-43.9	-46.8	16.6	0.00e+00	0	40	0	392167424	59	5023
2026-01-28 07:31:06.82	29.40	11.86	-43.8	-46.7	16.7	0.00e+00	0	40	0	394264576	59	4982
2026-01-28 07:31:07.82	29.21	11.84	-43.9	-46.9	16.6	0.00e+00	0	40	0	395313152	59	5075
2026-01-28 07:31:08.82	29.03	11.82	-43.9	-46.9	16.6	0.00e+00	0	40	0	397410304	59	5081
2026-01-28 07:31:09.82	28.84	11.81	-44.0	-47.0	16.5	0.00e+00	0	40	0	399507456	59	5115
2026-01-28 07:31:10.81	28.65	11.79	-43.9	-46.9	16.5	0.00e+00	0	40	0	401604608	59	5090
2026-01-28 07:31:11.81	28.47	11.78	-43.8	-46.8	16.6	0.00e+00	0	40	0	403701760	59	5016
2026-01-28 07:31:12.81	28.28	11.76	-43.9	-47.0	16.5	0.00e+00	0	40	0	404750336	59	5107
2026-01-28 07:31:13.80	28.10	11.74	-44.0	-47.0	16.4	0.00e+00	0	40	0	406847488	59	5158
2026-01-28 07:31:14.80	27.91	11.73	-44.1	-47.2	16.3	0.00e+00	0	40	0	408944640	59	5236
2026-01-28 07:31:15.79	27.72	11.71	-44.2	-47.3	16.2	0.00e+00	0	40	0	411041792	59	5290
2026-01-28 07:31:16.79	27.54	11.69	-44.0	-47.0	16.5	0.00e+00	0	40	0	412090368	59	5110
2026-01-28 07:31:17.79	27.35	11.67	-44.0	-47.0	16.4	0.00e+00	0	40	0	414187520	59	5147
2026-01-28 07:31:18.79	27.17	11.65	-44.0	-47.0	16.5	0.00e+00	0	40	0	416284672	59	5111
2026-01-28 07:31:19.78	26.98	11.63	-44.0	-47.0	16.5	0.00e+00	0	40	0	418381824	59	5126
2026-01-28 07:31:20.78	26.80	11.62	-44.1	-47.1	16.3	0.00e+00	0	40	0	420478976	59	5218
2026-01-28 07:31:21.79	26.61	11.60	-44.0	-47.0	16.5	0.00e+00	0	40	0	421527552	59	5134
2026-01-28 07:31:22.78	26.43	11.58	-44.0	-47.0	16.4	0.00e+00	0	40	0	423624704	59	5126
2026-01-28 07:31:23.78	26.25	11.56	-43.9	-46.9	16.5	0.00e+00	0	40	0	425721856	59	5097
2026-01-28 07:31:24.77	26.06	11.54	-43.8	-46.8	16.5	0.00e+00	0	40	0	427819008	59	5028
2026-01-28 07:31:25.76	25.88	11.52	-43.8	-47.0	16.4	0.00e+00	0	40	0	429916160	59	5115
2026-01-28 07:31:26.76	25.70	11.50	-43.8	-47.0	16.4	0.00e+00	0	40	0	430964736	59	5122
2026-01-28 07:31:27.77	25.51	11.48	-43.9	-47.1	16.3	0.00e+00	0	40	0	433061888	59	5206
2026-01-28 07:31:28.77	25.33	11.45	-43.9	-47.2	16.2	0.00e+00	0	40	0	435159040	59	5238
2026-01-28 07:31:29.77	25.15	11.43	-44.0	-47.3	16.1	0.00e+00	0	40	0	437256192	59	5291
2026-01-28 07:31:30.77	24.97	11.41	-44.1	-47.3	16.1	0.00e+00	0	40	0	438304768	59	5296
2026-01-28 07:31:31.77	24.78	11.39	-43.9	-47.0	16.4	0.00e+00	0	40	0	440401920	59	5116
2026-01-28 07:31:32.76	24.61	11.37	-43.9	-46.9	16.5	0.00e+00	0	40	0	442499072	59	5079
2026-01-28 07:31:33.76	24.42	11.35	-43.9	-46.8	16.5	0.00e+00	0	40	0	444596224	59	5038
2026-01-28 07:31:34.75	24.24	11.32	-43.8	-46.7	16.5	0.00e+00	0	40	0	446693376	59	4967
2026-01-28 07:31:35.74	24.07	11.30	-43.8	-46.7	16.4	0.00e+00	0	40	0	447741952	59	4939
2026-01-28 07:31:36.74	23.88	11.28	-43.7	-46.6	16.2	0.00e+00	0	40	0	449839104	59	4916
2026-01-28 07:31:37.74	23.70	11.25	-43.7	-46.6	16.2	0.00e+00	0	40	0	451936256	59	4903
2026-01-28 07:31:38.74	23.52	11.23	-43.8	-46.7	16.2	0.00e+00	0	40	0	454033408	59	4942
2026-01-28 07:31:39.74	23.34	11.21	-43.9	-46.8	16.1	0.00e+00	0	40	0	455081984	59	5032
2026-01-28 07:31:40.73	23.17	11.18	-44.0	-46.9	16.5	0.00e+00	0	40	0	457179136	59	5056
2026-01-28 07:31:41.73	22.99	11.16	-44.1	-47.0	16.5	0.00e+00	0	40	0	459276288	59	5129
2026-01-28 07:31:42.72	22.81	11.13	-43.9	-46.9	16.4	0.00e+00	0	40	0	461373440	59	5086
2026-01-28 07:31:43.71	22.63	11.11	-43.9	-47.0	16.1	0.00e+00	0	40	0	463470592	59	5130
2026-01-28 07:31:44.71	22.46	11.08	-43.7	-46.9	15.6	0.00e+00	0	40	0	464519168	59	5079
2026-01-28 07:31:45.70	22.28	11.06	-43.6	-46.9	15.5	0.00e+00	0	40	0	466616320	59	5068
2026-01-28 07:31:46.69	22.10	11.03	-43.5	-46.8	15.7	0.00e+00	0	40	0	468713472	59	5010
2026-01-28 07:31:47.69	21.93	11.01	-43.5	-46.7	16.1	0.00e+00	0	40	0	470810624	59	4962
2026-01-28 07:31:48.68	21.75	10.98	-43.3	-46.5	16.7	0.00e+00	0	40	0	471859200	58	5142
2026-01-28 07:31:49.68	21.58	10.96	-43.3	-46.5	16.8	0.00e+00	0	40	0	473956352	58	5148
2026-01-28 07:31:50.67	21.40	10.93	-43.3	-46.5	16.9	0.00e+00	0	40	0	476053504	58	5122
2026-01-28 07:31:51.66	21.23	10.90	-43.4	-46.5	16.9	0.00e+00	0	40	0	478150656	58	5153
2026-01-28 07:31:52.66	21.05	10.88	-43.2	-46.4	16.9	0.00e+00	0	40	0	480247808	58	5058
2026-01-28 07:31:53.66	20.88	10.85	-43.1	-46.3	16.1	0.00e+00	0	40	0	481296384	58	4988
2026-01-28 07:31:54.65	20.70	10.82	-42.9	-46.2	13.6	0.00e+00	0	40	0	483393536	57	5267
2026-01-28 07:31:55.65	20.53	10.79	-41.3	-45.6	8.2	2.88e-03	0	40	0	485490688	54	5840
2026-01-28 07:31:56.65	20.35	10.76	-38.2	-44.5	4.4	3.66e-01	0	40	0	487587840	48	7285
2026-01-28 07:31:57.65	20.18	10.74	-35.4	-43.1	3.8	1.48e+00	0	40	104	487587840	42	8724
2026-01-28 07:31:58.64	20.01	10.71	-34.6	-42.7	3.9	1.49e+00	0	40	104	487587840	41	8801
2026-01-28 07:31:59.64	19.83	10.68	-37.5	-44.5	3.9	1.49e+00	0	40	104	487587840	45	8592
2026-01-28 07:32:00.64	19.66	10.65	-45.4	-54.9	4.2	1.07e+00	0	40	0	488636416	61	11417
2026-01-28 07:32:01.64	19.49	10.62	-37.1	-45.9	3.8	1.49e+00	0	40	104	488636416	46	9599
2026-01-28 07:32:02.63	19.32	10.59	-45.1	-50.1	8.7	1.49e+00	0	40	104	488636416	60	6909
2026-01-28 07:32:03.63	19.15	10.56	-42.4	-47.3	7.1	1.19e+00	0	40	0	489684992	57	5987
2026-01-28 07:32:04.62	18.98	10.53	-41.3	-47.5	4.5	1.31e+00	0	40	104	489684992	53	7645
2026-01-28 07:32:05.62	18.81	10.50	-44.2	-48.6	9.0	1.45e-01	0	40	0	490733568	59	6137
2026-01-28 07:32:06.63	18.63	10.47	-44.1	-48.3	9.5	8.19e-03	0	40	0	492830720	59	5945
2026-01-28 07:32:07.62	18.46	10.44	-44.2	-48.1	10.4	1.18e-02	0	40	0	494927872	59	5834
2026-01-28 07:32:08.62	18.29	10.41	-44.4	-47.7	14.4	3.05e-05	0	40	0	497025024	59	5560
2026-01-28 07:32:09.62	18.12	10.38	-44.3	-47.3	16.0	0.00e+00	0	40	0	498073600	59	5334
2026-01-28 07:32:10.61	17.96	10.35	-44.2	-47.2	16.0	0.00e+00	0	40	0	500170752	59	5267
2026-01-28 07:32:11.61	17.79	10.32	-43.9	-46.9	16.3	0.00e+00	0	40	0	502267904	59	5070
2026-01-28 07:32:12.61	17.62	10.29	-43.6	-46.6	16.1	0.00e+00	0	40	0	504365056	59	4877
2026-01-28 07:32:13.60	17.45	10.26	-43.4	-46.4	16.0	0.00e+00	0	40	0	505413632	58	5081
2026-01-28 07:32:14.60	17.29	10.23	-43.3	-46.4	16.3	0.00e+00	0	40	0	507510784	58	5069
2026-01-28 07:32:15.59	17.12	10.20	-43.1	-46.2	17.1	0.00e+00	0	40	0	509607936	58	4928
2026-01-28 07:32:16.59	16.95	10.16	-43.2	-46.3	16.9	0.00e+00	0	40	0	511705088	58	4999
2026-01-28 07:32:17.59	16.79	10.13	-43.0	-46.2	16.4	0.00e+00	0	40	0	513802240	58	4947
2026-01-28 07:32:18.59	16.62	10.10	-42.9	-46.2	16.2	0.00e+00	0	40	0	514850816	57	5270
2026-01-28 07:32:19.59	16.45	10.07	-43.0	-46.3	16.7	0.00e+00	0	40	0	516947968	57	5315
2026-01-28 07:32:20.59	16.29	10.03	-43.1	-46.5	16.8	0.00e+00	0	40	0	519045120	57	5449
2026-01-28 07:32:21.59	16.12	10.00	-42.9	-46.3	17.1	0.00e+00	0	40	0	521142272	57	5282
2026-01-28 07:32:22.59	15.96	9.97	-43.0	-46.4	16.9	0.00e+00	0	40	0	522190848	57	5363
2026-01-28 07:32:23.58	15.79	9.93	-43.1	-46.5	16.8	0.00e+00	0	40	0	524288000	57	5455
2026-01-28 07:32:24.58	15.63	9.90	-43.1	-46.5	16.9	0.00e+00	0	41	0	526385152	57	5438
2026-01-28 07:32:25.58	15.47	9.87	-43.3	-46.7	16.6	0.00e+00	0	40	0	528482304	57	5549
2026-01-28 07:32:26.57	15.31	9.83	-43.4	-46.8	16.3	0.00e+00	0	41	0	530579456	57	5644
2026-01-28 07:32:27.57	15.14	9.80	-43.4	-46.7	16.2	0.00e+00	0	40	0	531628032	57	5564
2026-01-28 07:32:28.56	14.98	9.76	-43.6	-46.8	16.0	0.00e+00	0	40	0	533725184	57	5636
2026-01-28 07:32:29.56	14.82	9.73	-43.7	-46.9	16.0	0.00e+00	0	41	0	535822336	57	5689
2026-01-28 07:32:30.56	14.66	9.70	-43.7	-46.9	16.1	0.00e+00	0	40	0	537919488	58	5358
2026-01-28 07:32:31.56	14.50	9.66	-43.7	-46.7	16.3	0.00e+00	0	40	0	538968064	58	5276
2026-01-28 07:32:32.55	14.34	9.63	-43.9	-47.0	16.3	0.00e+00	0	40	0	541065216	58	5418
2026-01-28 07:32:33.55	14.18	9.59	-43.9	-47.0	16.3	0.00e+00	0	40	0	543162368	58	5440
2026-01-28 07:32:34.55	14.02	9.56	-44.0	-47.1	16.2	0.00e+00	0	40	0	545259520	58	5527
2026-01-28 07:32:35.54	13.86	9.52	-44.0	-47.1	16.2	0.00e+00	0	40	0	547356672	58	5513
2026-01-28 07:32:36.54	13.70	9.48	-44.1	-47.3	16.1	0.00e+00	0	40	0	548405248	59	5312
2026-01-28 07:32:37.54	13.54	9.45	-44.2	-47.4	16.0	0.00e+00	0	41	0	550502400	59	5368
2026-01-28 07:32:38.53	13.38	9.41	-44.2	-47.3	16.1	0.00e+00	0	41	0	552599552	59	5321
2026-01-28 07:32:39.53	13.22	9.38	-44.3	-47.6	15.8	0.00e+00	0	40	0	554696704	59	5468
2026-01-28 07:32:40.53	13.07	9.34	-44.3	-47.6	15.8	0.00e+00	0	41	0	556793856	59	5503
2026-01-28 07:32:41.53	12.91	9.30	-44.2	-47.6	15.8	0.00e+00	0	41	0	557842432	59	5491
2026-01-28 07:32:42.53	12.75	9.27	-44.3	-47.8	15.6	0.00e+00	0	40	0	559939584	59	5609
2026-01-28 07:32:43.52	12.60	9.23	-44.4	-48.0	15.4	0.00e+00	0	41	0	562036736	59	5730
2026-01-28 07:32:44.51	12.44	9.19	-44.5	-48.1	15.3	0.00e+00	0	40	0	564133888	59	5831
2026-01-28 07:32:45.51	12.29	9.16	-44.4	-48.1	15.3	0.00e+00	0	41	0	565182464	59	5802
2026-01-28 07:32:46.50	12.13	9.12	-44.5	-48.2	15.1	0.00e+00	0	40	0	567279616	59	5919
2026-01-28 07:32:47.50	11.98	9.08	-44.5	-48.3	15.1	0.00e+00	0	41	0	569376768	59	5972
2026-01-28 07:32:48.50	11.82	9.05	-44.4	-48.4	15.0	0.00e+00	0	40	0	571473920	59	6020
2026-01-28 07:32:49.49	11.67	9.01	-44.7	-48.8	14.7	0.00e+00	0	40	0	573571072	59	6334
2026-01-28 07:32:50.48	11.52	8.97	-49.0	-64.7	3.8	3.75e-01	0	40	104	574619648	68	23421
2026-01-28 07:32:51.48	11.36	8.93	-48.2	-64.6	3.8	1.49e+00	0	41	104	574619648	68	23250
2026-01-28 07:32:52.49	11.21	8.90	-49.5	-64.5	3.8	1.49e+00	0	41	104	574619648	69	21540
2026-01-28 07:32:53.48	11.06	8.86	-49.3	-64.9	3.8	1.49e+00	0	40	104	574619648	70	21505
2026-01-28 07:32:54.49	10.91	8.82	-49.3	-64.7	3.8	1.49e+00	0	41	104	574619648	70	21000
2026-01-28 07:32:55.48	10.76	8.78	-49.4	-65.2	3.8	1.49e+00	0	40	104	574619648	70	22184
2026-01-28 07:32:56.47	10.61	8.74	-49.8	-65.3	3.8	1.49e+00	0	40	104	574619648	70	22290
2026-01-28 07:32:57.47	10.45	8.70	-49.9	-65.4	3.8	1.49e+00	0	40	104	574619648	70	22563
2026-01-28 07:32:58.47	10.30	8.67	-49.6	-65.4	3.8	1.49e+00	0	40	104	574619648	70	22571
2026-01-28 07:32:59.47	10.15	8.63	-49.8	-65.4	3.8	1.49e+00	0	40	104	574619648	70	22749
2026-01-28 07:33:00.47	10.00	8.59	-50.1	-65.4	3.8	1.49e+00	0	40	104	574619648	70	22606
2026-01-28 07:33:01.47	9.86	8.55	-50.0	-65.4	3.8	1.49e+00	0	40	104	574619648	71	21415
2026-01-28 07:33:02.46	9.71	8.51	-50.1	-65.4	3.8	1.49e+00	0	40	104	574619648	71	21369
2026-01-28 07:33:03.46	9.56	8.47	-49.9	-65.4	3.8	1.49e+00	0	40	104	574619648	71	21458
2026-01-28 07:33:04.46	9.41	8.43	-50.0	-65.5	3.8	1.49e+00	0	40	104	574619648	71	21570
2026-01-28 07:33:05.46	9.26	8.39	-50.1	-65.5	3.8	1.49e+00	0	40	104	574619648	71	21552
2026-01-28 07:33:06.46	9.12	8.35	-50.1	-65.4	3.8	1.49e+00	0	41	104	574619648	71	21506
2026-01-28 07:33:07.46	8.97	8.31	-50.1	-65.4	3.8	1.49e+00	0	40	104	574619648	71	21465
2026-01-28 07:33:08.46	8.82	8.27	-50.1	-65.4	3.8	1.49e+00	0	41	104	574619648	71	21431
2026-01-28 07:33:09.46	8.68	8.23	-50.2	-65.4	3.8	1.49e+00	0	41	104	574619648	71	21441
2026-01-28 07:33:10.46	8.53	8.19	-50.1	-65.4	3.8	1.49e+00	0	41	104	574619648	71	21430
2026-01-28 07:33:11.46	8.39	8.15	-50.0	-65.4	3.8	1.49e+00	0	40	104	574619648	71	21457
2026-01-28 07:33:12.46	8.24	8.11	-50.1	-65.4	3.8	1.49e+00	0	40	104	574619648	71	21454
2026-01-28 07:33:13.46	8.10	8.07	-50.0	-65.4	3.8	1.49e+00	0	41	104	574619648	71	21464
2026-01-28 07:33:14.46	7.95	8.03	-50.0	-65.4	3.8	1.49e+00	0	41	104	574619648	71	21480
2026-01-28 07:33:15.46	7.81	7.99	-50.2	-65.4	3.8	1.49e+00	0	41	104	574619648	71	21479
2026-01-28 07:33:16.46	7.67	7.95	-50.1	-65.4	3.8	1.49e+00	0	41	104	574619648	71	21406
2026-01-28 07:33:17.46	7.52	7.91	-50.1	-65.4	3.8	1.49e+00	0	40	104	574619648	71	21369
2026-01-28 07:33:18.46	7.38	7.86	-50.0	-65.4	3.8	1.49e+00	0	40	104	574619648	71	21312
2026-01-28 07:33:19.46	7.24	7.82	-50.1	-65.3	3.8	1.49e+00	0	41	104	574619648	71	21216
2026-01-28 07:33:20.45	7.10	7.78	-49.9	-65.3	3.8	1.49e+00	0	41	104	574619648	71	21158
2026-01-28 07:33:21.45	6.96	7.74	-49.9	-65.3	3.8	1.49e+00	0	41	104	574619648	71	21102
2026-01-28 07:33:22.45	6.82	7.70	-49.9	-65.3	3.8	1.49e+00	0	41	104	574619648	71	21045
2026-01-28 07:33:23.45	6.68	7.66	-49.8	-65.2	3.8	1.49e+00	0	41	104	574619648	71	20871
2026-01-28 07:33:24.45	6.54	7.62	-49.8	-65.1	3.8	1.49e+00	0	41	104	574619648	71	20679
2026-01-28 07:33:25.45	6.40	7.57	-49.6	-64.9	3.8	1.49e+00	0	41	104	574619648	71	20181
2026-01-28 07:33:26.45	6.26	7.53	-49.4	-64.7	3.8	1.49e+00	0	40	104	574619648	70	20977
2026-01-28 07:33:27.44	6.12	7.49	-49.3	-64.7	3.8	1.49e+00	0	41	104	574619648	70	20915
2026-01-28 07:33:28.44	5.98	7.45	-49.3	-64.6	3.8	1.49e+00	0	41	104	574619648	70	20736
2026-01-28 07:33:29.44	5.85	7.41	-49.3	-64.7	3.8	1.49e+00	0	40	104	574619648	70	20780
2026-01-28 07:33:30.44	5.71	7.36	-49.3	-64.7	3.8	1.49e+00	0	40	104	574619648	70	20789
2026-01-28 07:33:31.44	5.57	7.32	-49.3	-64.7	3.8	1.49e+00	0	40	104	574619648	70	20919
2026-01-28 07:33:32.44	5.44	7.28	-49.3	-64.7	3.8	1.49e+00	0	41	104	574619648	70	20837
2026-01-28 07:33:33.43	5.30	7.24	-49.3	-64.6	3.8	1.49e+00	0	41	104	574619648	70	20729
2026-01-28 07:33:34.43	5.17	7.20	-49.3	-64.7	3.8	1.49e+00	0	41	104	574619648	70	20816
2026-01-28 07:33:35.43	5.03	7.15	-49.3	-64.7	3.8	1.49e+00	0	41	104	574619648	70	20808
2026-01-28 07:33:36.42	4.90	7.11	-49.3	-64.6	3.8	1.49e+00	0	40	104	574619648	70	20688
2026-01-28 07:33:37.42	4.76	7.07	-49.3	-64.7	3.8	1.49e+00	0	41	104	574619648	70	20791
2026-01-28 07:33:38.41	4.63	7.03	-49.3	-64.7	3.8	1.49e+00	0	41	104	574619648	70	20794
2026-01-28 07:33:39.41	4.50	6.98	-49.3	-64.7	3.8	1.49e+00	0	41	104	574619648	70	20848
2026-01-28 07:33:40.41	4.36	6.94	-49.3	-64.6	3.8	1.49e+00	0	40	104	574619648	70	20760
2026-01-28 07:33:41.41	4.23	6.90	-49.3	-64.7	3.8	1.49e+00	0	40	104	574619648	70	20836
2026-01-28 07:33:42.41	4.10	6.85	-49.3	-64.7	3.8	1.49e+00	0	41	104	574619648	70	20842
2026-01-28 07:33:43.41	3.97	6.81	-49.3	-64.7	3.8	1.49e+00	0	41	104	574619648	70	20780
2026-01-28 07:33:44.40	3.83	6.77	-49.3	-64.6	3.8	1.49e+00	0	41	104	574619648	70	20684
2026-01-28 07:33:45.40	3.70	6.72	-49.3	-64.6	3.8	1.49e+00	0	41	104	574619648	70	20706
2026-01-28 07:33:46.41	3.57	6.68	-49.3	-64.6	3.8	1.49e+00	0	40	104	574619648	70	20763
2026-01-28 07:33:47.40	3.44	6.64	-49.3	-64.6	3.8	1.49e+00	0	41	104	574619648	70	20654
2026-01-28 07:33:48.40	3.31	6.59	-49.3	-64.6	3.8	1.49e+00	0	40	104	574619648	70	20745
2026-01-28 07:33:49.39	3.18	6.55	-49.3	-64.6	3.8	1.49e+00	0	40	104	574619648	70	20740
2026-01-28 07:33:50.39	3.05	6.51	-49.3	-64.7	3.8	1.49e+00	0	41	104	574619648	70	20789
2026-01-28 07:33:51.39	2.93	6.46	-49.3	-64.6	3.8	1.49e+00	0	41	104	574619648	70	20721
2026-01-28 07:33:52.39	2.80	6.42	-49.3	-64.6	3.8	1.49e+00	0	41	104	574619648	70	20756
2026-01-28 07:33:53.38	2.67	6.38	-49.3	-64.6	3.8	1.49e+00	0	40	104	574619648	70	20733
2026-01-28 07:33:54.38	2.54	6.33	-49.3	-64.7	3.8	1.49e+00	0	41	104	574619648	70	20792
2026-01-28 07:33:55.39	2.41	6.29	-49.3	-64.6	3.8	1.49e+00	0	40	104	574619648	70	20746
2026-01-28 07:33:56.38	2.29	6.24	-49.3	-64.6	3.8	1.49e+00	0	41	104	574619648	70	20671
2026-01-28 07:33:57.38	2.16	6.20	-49.3	-64.6	3.8	1.49e+00	0	40	104	574619648	70	20743
2026-01-28 07:33:58.37	2.04	6.16	-49.3	-64.6	3.8	1.49e+00	0	41	104	574619648	70	20710
2026-01-28 07:33:59.37	1.91	6.11	-49.3	-64.6	3.8	1.49e+00	0	41	104	574619648	70	20725
2026-01-28 07:34:00.37	1.79	6.07	-49.3	-64.6	3.8	1.49e+00	0	41	104	574619648	70	20701
2026-01-28 07:34:01.37	1.66	6.02	-49.3	-64.6	3.8	1.49e+00	0	41	104	574619648	70	20740
2026-01-28 07:34:02.37	1.54	5.98	-49.2	-64.6	3.8	1.49e+00	0	40	104	574619648	70	20690
2026-01-28 07:34:03.38	1.41	5.93	-49.2	-64.6	3.8	1.49e+00	0	41	104	574619648	70	20674
2026-01-28 07:34:04.38	1.29	5.89	-49.2	-64.6	3.8	1.49e+00	0	41	104	574619648	70	20647
2026-01-28 07:34:05.37	1.16	5.84	-49.2	-64.7	3.8	1.49e+00	0	40	104	574619648	70	20821
2026-01-28 07:34:06.38	1.04	5.80	-49.2	-64.6	3.8	1.49e+00	0	41	104	574619648	70	20667
2026-01-28 07:34:07.38	0.92	5.75	-49.3	-64.6	3.8	1.49e+00	0	41	104	574619648	70	20602
2026-01-28 07:34:08.37	0.80	5.71	-49.2	-64.6	3.8	1.49e+00	0	41	104	574619648	70	20652
2026-01-28 07:34:09.38	0.67	5.67	-49.2	-64.6	3.8	1.49e+00	0	41	104	574619648	70	20589
2026-01-28 07:34:10.37	0.55	5.62	-49.2	-64.6	3.8	1.49e+00	0	41	104	574619648	70	20652
2026-01-28 07:34:11.37	0.43	5.58	-49.2	-64.6	3.8	1.49e+00	0	40	104	574619648	70	20637
2026-01-28 07:34:12.37	0.31	5.53	-49.2	-64.6	3.8	1.49e+00	0	41	104	574619648	70	20627
2026-01-28 07:34:13.37	0.19	5.49	-49.2	-64.6	3.8	1.49e+00	0	41	104	574619648	70	20658
2026-01-28 07:34:14.37	0.07	5.44	-49.2	-64.6	3.8	1.49e+00	0	41	104	574619648	70	20625
2026-01-28 07:34:15.37	359.95	5.40	-49.2	-64.6	3.8	1.49e+00	0	41	104	574619648	70	20679
2026-01-28 07:34:16.37	359.83	5.35	-49.2	-64.6	3.8	1.49e+00	0	41	104	574619648	70	20638
2026-01-28 07:34:17.37	359.71	5.31	-49.2	-64.6	3.8	1.49e+00	0	41	104	574619648	70	20655
2026-01-28 07:34:18.37	359.60	5.26	-49.2	-64.6	3.8	1.49e+00	0	41	104	574619648	70	20662
2026-01-28 07:34:19.37	359.48	5.22	-49.2	-64.5	3.8	1.49e+00	0	41	104	574619648	70	20521
2026-01-28 07:34:20.37	359.36	5.17	-49.2	-64.6	3.8	1.49e+00	0	40	104	574619648	70	20555
2026-01-28 07:34:21.37	359.24	5.13	-49.2	-64.6	3.8	1.49e+00	0	41	104	574619648	70	20638
2026-01-28 07:34:22.36	359.13	5.08	-49.2	-64.6	3.8	1.49e+00	0	41	104	574619648	70	20597
2026-01-28 07:34:23.36	359.01	5.04	-49.2	-64.6	3.8	1.49e+00	0	41	104	574619648	70	20566
2026-01-28 07:34:24.36	358.89	4.99	-49.2	-64.5	3.8	1.49e+00	0	41	104	574619648	70	20508

#Closed at: 2026-01-28 07:34:25
#Recorded file [574 MB]: D:/Data/31040_260128_102612.dat