passes_logs/2026/01/28/T1/T1__20260128_021249_SUOMI_NPP_rec.log

#Pass ID: 20260128_021249_SUOMI NPP
#Satellite: SUOMI NPP
#Configuration: NPP
#almurnet v.1.7.20251203
#Start time: 2026-01-28 02:12:51

#Version: 2.0.20230620
#Station: T1
#Location: 37.570604 lon 55.790049 lat
#TLE: 1 37849U 11061A   26027.50945616  .00000185  00000+0  10897-3 0  9994
#TLE: 2 37849  98.7823 329.4511 0002105  42.1421 317.9917 14.19530771738482

#Time	Az	El	Level	Level2	SNR	BER	BlckErr	Temp	State	Recorded	gain1	gain2
2026-01-28 02:12:51.67	1.85	5.11	-50.1	-65.5	3.8	1.49e+00	0	37	0	0	71	21644
2026-01-28 02:12:52.66	1.74	5.16	-50.3	-65.5	3.8	1.49e+00	0	38	104	0	72	20351
2026-01-28 02:12:53.65	1.63	5.21	-50.2	-65.5	3.8	1.49e+00	0	38	104	0	72	20453
2026-01-28 02:12:54.64	1.52	5.25	-50.1	-65.4	3.8	1.49e+00	0	38	104	0	72	20297
2026-01-28 02:12:55.64	1.40	5.30	-50.0	-65.5	3.8	1.49e+00	0	38	104	0	71	21686
2026-01-28 02:12:56.63	1.29	5.35	-50.1	-65.5	3.8	1.49e+00	0	38	104	0	71	21667
2026-01-28 02:12:57.62	1.18	5.40	-49.9	-65.5	3.8	1.49e+00	0	38	104	0	71	21577
2026-01-28 02:12:58.62	1.07	5.45	-50.2	-65.5	3.8	1.49e+00	0	38	104	0	71	21568
2026-01-28 02:12:59.61	0.95	5.49	-50.1	-65.5	3.8	1.49e+00	0	38	104	0	71	21566
2026-01-28 02:13:00.60	0.84	5.54	-49.9	-65.5	3.8	1.49e+00	0	38	104	0	71	21597
2026-01-28 02:13:01.60	0.72	5.59	-49.8	-65.5	3.8	1.49e+00	0	38	104	0	71	21522
2026-01-28 02:13:02.59	0.61	5.64	-49.6	-65.5	3.8	1.49e+00	0	38	104	0	70	22815
2026-01-28 02:13:03.58	0.49	5.68	-50.0	-65.4	3.8	1.49e+00	0	38	104	0	70	22764
2026-01-28 02:13:04.57	0.38	5.73	-49.5	-65.4	3.8	1.49e+00	0	38	104	0	70	22745
2026-01-28 02:13:05.57	0.26	5.78	-50.0	-65.4	3.8	1.49e+00	0	38	104	0	70	22695
2026-01-28 02:13:06.56	0.15	5.83	-49.6	-65.4	3.8	1.49e+00	0	38	104	0	69	23956
2026-01-28 02:13:07.55	0.03	5.87	-49.2	-65.4	3.8	1.49e+00	0	38	104	0	70	22705
2026-01-28 02:13:08.54	359.91	5.92	-49.6	-65.4	3.8	1.49e+00	0	38	104	0	70	22596
2026-01-28 02:13:09.54	359.79	5.97	-49.5	-65.3	3.8	1.49e+00	0	38	104	0	70	22498
2026-01-28 02:13:10.53	359.68	6.02	-49.3	-65.3	3.8	1.49e+00	0	38	104	0	70	22433
2026-01-28 02:13:11.52	359.56	6.06	-49.2	-65.3	3.8	1.49e+00	0	38	104	0	70	22286
2026-01-28 02:13:12.52	359.44	6.11	-48.5	-65.2	3.8	1.49e+00	0	39	104	0	69	23450
2026-01-28 02:13:13.51	359.32	6.16	-48.9	-65.1	3.8	1.49e+00	0	38	104	0	69	23264
2026-01-28 02:13:14.50	359.20	6.21	-45.6	-65.0	3.8	1.49e+00	0	38	104	0	63	32187
2026-01-28 02:13:15.50	359.08	6.25	-47.0	-64.8	3.8	1.49e+00	0	38	104	0	65	28129
2026-01-28 02:13:16.49	358.96	6.30	-47.0	-64.8	3.8	1.49e+00	0	39	104	0	65	28117
2026-01-28 02:13:17.48	358.84	6.35	-47.0	-64.8	3.8	1.49e+00	0	39	104	0	65	28126
2026-01-28 02:13:18.47	358.72	6.40	-47.0	-64.8	3.8	1.49e+00	0	39	104	0	65	28139
2026-01-28 02:13:19.47	358.60	6.44	-46.9	-64.8	3.8	1.49e+00	0	39	104	0	65	28084
2026-01-28 02:13:20.46	358.48	6.49	-46.9	-64.7	3.8	1.49e+00	0	38	104	0	65	28012
2026-01-28 02:13:21.45	358.35	6.54	-46.9	-64.8	3.8	1.49e+00	0	39	104	0	65	28107
2026-01-28 02:13:22.44	358.23	6.59	-47.0	-64.8	3.8	1.49e+00	0	38	104	0	65	28134
2026-01-28 02:13:23.44	358.11	6.63	-46.9	-64.8	3.8	1.49e+00	0	39	104	0	65	28069
2026-01-28 02:13:24.43	357.98	6.68	-46.9	-64.7	3.8	1.49e+00	0	39	104	0	65	28004
2026-01-28 02:13:25.42	357.86	6.73	-46.9	-64.7	3.8	1.49e+00	0	39	104	0	65	27910
2026-01-28 02:13:26.42	357.74	6.77	-47.0	-64.7	3.8	1.49e+00	0	39	104	0	65	28006
2026-01-28 02:13:27.41	357.61	6.82	-47.0	-64.7	3.8	1.49e+00	0	39	104	0	65	27964
2026-01-28 02:13:28.40	357.49	6.87	-47.0	-64.7	3.8	1.49e+00	0	39	104	0	65	27993
2026-01-28 02:13:29.40	357.36	6.91	-47.0	-64.7	3.8	1.49e+00	0	39	104	0	65	27994
2026-01-28 02:13:30.39	357.23	6.96	-47.0	-64.7	3.8	1.49e+00	0	39	104	0	65	28026
2026-01-28 02:13:31.38	357.11	7.01	-46.9	-64.7	3.8	1.49e+00	0	39	104	0	65	27829
2026-01-28 02:13:32.38	356.98	7.05	-47.0	-64.7	3.8	1.49e+00	0	39	104	0	65	27968
2026-01-28 02:13:33.37	356.85	7.10	-46.9	-64.7	3.8	1.49e+00	0	39	104	0	65	27811
2026-01-28 02:13:34.36	356.73	7.15	-46.9	-64.7	3.8	1.49e+00	0	39	104	0	65	27908
2026-01-28 02:13:35.36	356.60	7.19	-47.0	-64.7	3.8	1.49e+00	0	39	104	0	65	27885
2026-01-28 02:13:36.35	356.47	7.24	-47.0	-64.7	3.8	1.49e+00	0	39	104	0	65	27908
2026-01-28 02:13:37.34	356.34	7.29	-47.0	-64.8	3.8	1.49e+00	0	39	104	0	65	28038
2026-01-28 02:13:38.33	356.21	7.33	-47.0	-64.7	3.8	1.49e+00	0	39	104	0	65	27909
2026-01-28 02:13:39.33	356.08	7.38	-47.0	-64.7	3.8	1.49e+00	0	39	104	0	65	28024
2026-01-28 02:13:40.32	355.95	7.43	-46.9	-64.7	3.8	1.49e+00	0	39	104	0	65	27979
2026-01-28 02:13:41.31	355.82	7.47	-46.9	-64.7	3.8	1.49e+00	0	39	104	0	65	27888
2026-01-28 02:13:42.31	355.69	7.52	-46.9	-64.7	3.8	1.49e+00	0	39	104	0	65	27994
2026-01-28 02:13:43.30	355.56	7.57	-46.9	-64.7	3.8	1.49e+00	0	39	104	0	65	27919
2026-01-28 02:13:44.29	355.43	7.61	-47.0	-64.7	3.8	1.49e+00	0	39	104	0	65	27870
2026-01-28 02:13:45.28	355.29	7.66	-46.9	-64.7	3.8	1.49e+00	0	39	104	0	65	27890
2026-01-28 02:13:46.28	355.16	7.70	-46.9	-64.7	3.8	1.49e+00	0	39	104	0	65	27780
2026-01-28 02:13:47.27	355.03	7.75	-47.0	-64.6	3.8	1.49e+00	0	39	104	0	65	27582
2026-01-28 02:13:48.26	354.89	7.79	-46.9	-64.5	3.8	1.49e+00	0	39	104	0	65	27349
2026-01-28 02:13:49.26	354.76	7.84	-46.9	-64.5	3.8	1.49e+00	0	39	104	0	65	27111
2026-01-28 02:13:50.25	354.63	7.89	-47.0	-64.5	3.8	1.49e+00	0	39	104	0	65	27088
2026-01-28 02:13:51.24	354.49	7.93	-47.0	-64.5	3.8	1.49e+00	0	39	104	0	65	27230
2026-01-28 02:13:52.24	354.35	7.98	-47.0	-64.5	3.8	1.49e+00	0	39	104	0	65	27343
2026-01-28 02:13:53.23	354.22	8.02	-46.9	-64.6	3.8	1.49e+00	0	39	104	0	65	27395
2026-01-28 02:13:54.22	354.08	8.07	-46.9	-64.6	3.8	1.49e+00	0	39	104	0	65	27675
2026-01-28 02:13:55.21	353.95	8.11	-46.9	-64.6	3.8	1.49e+00	0	39	104	0	65	27701
2026-01-28 02:13:56.21	353.81	8.16	-46.9	-64.7	3.8	1.49e+00	0	39	104	0	65	27832
2026-01-28 02:13:57.20	353.67	8.20	-46.9	-64.7	3.8	1.49e+00	0	39	104	0	65	27836
2026-01-28 02:13:58.19	353.53	8.25	-47.0	-64.6	3.8	1.49e+00	0	40	104	0	65	27581
2026-01-28 02:13:59.19	353.39	8.29	-46.9	-64.4	3.8	1.49e+00	0	39	104	0	65	26821
2026-01-28 02:14:00.18	353.26	8.34	-46.9	-64.0	3.8	1.49e+00	0	40	104	0	65	25644
2026-01-28 02:14:01.17	353.12	8.38	-46.9	-63.5	3.8	1.49e+00	0	40	104	0	65	24143
2026-01-28 02:14:02.17	352.98	8.43	-46.8	-63.2	3.8	1.49e+00	0	39	104	0	65	23353
2026-01-28 02:14:03.16	352.84	8.47	-46.8	-62.9	3.8	1.49e+00	0	39	104	0	65	22523
2026-01-28 02:14:04.15	352.70	8.52	-46.8	-62.8	3.8	1.48e+00	0	40	104	0	65	22331
2026-01-28 02:14:05.15	352.55	8.56	-46.8	-62.5	3.9	1.49e+00	0	40	104	0	65	21697
2026-01-28 02:14:06.14	352.41	8.61	-46.8	-62.4	3.8	1.48e+00	0	40	104	0	65	21504
2026-01-28 02:14:07.13	352.27	8.65	-46.8	-62.1	3.9	1.49e+00	0	40	104	0	65	20687
2026-01-28 02:14:08.13	352.13	8.70	-46.8	-61.3	4.1	1.45e+00	0	40	0	0	65	18901
2026-01-28 02:14:09.12	351.99	8.74	-46.7	-60.2	4.5	1.30e+00	0	40	0	0	65	16649
2026-01-28 02:14:10.11	351.84	8.78	-46.7	-59.0	5.1	8.29e-01	0	40	0	2097152	65	14422
2026-01-28 02:14:11.10	351.70	8.83	-46.4	-57.1	6.3	4.22e-01	0	40	0	4194304	64	12288
2026-01-28 02:14:12.10	351.55	8.87	-46.2	-55.3	7.9	9.71e-02	0	40	0	5242880	64	10026
2026-01-28 02:14:13.09	351.41	8.92	-45.9	-53.6	9.7	2.50e-02	0	40	0	7340032	63	8741
2026-01-28 02:14:14.08	351.27	8.96	-45.5	-52.2	11.2	3.26e-03	0	40	0	9437184	63	7444
2026-01-28 02:14:15.07	351.12	9.00	-45.1	-51.2	12.3	6.64e-04	0	40	0	11534336	62	6979
2026-01-28 02:14:16.07	350.97	9.05	-45.8	-52.6	10.9	2.01e-03	0	40	0	12582912	62	8197
2026-01-28 02:14:17.06	350.83	9.09	-46.8	-55.2	8.2	3.22e-02	0	40	0	14680064	64	9832
2026-01-28 02:14:18.05	350.68	9.13	-44.7	-49.8	13.6	9.12e-04	0	40	0	16777216	61	6313
2026-01-28 02:14:19.05	350.53	9.18	-46.7	-59.4	4.9	1.13e-02	0	40	0	18874368	64	16119
2026-01-28 02:14:20.04	350.39	9.22	-42.9	-47.2	16.2	0.00e+00	0	40	0	20971520	57	5870
2026-01-28 02:14:21.03	350.24	9.26	-42.9	-46.6	16.8	0.00e+00	0	40	0	22020096	57	5515
2026-01-28 02:14:22.03	350.09	9.31	-43.1	-46.6	16.8	0.00e+00	0	40	0	24117248	57	5483
2026-01-28 02:14:23.02	349.94	9.35	-43.2	-46.7	16.7	0.00e+00	0	40	0	26214400	57	5547
2026-01-28 02:14:24.01	349.79	9.39	-43.3	-46.8	16.6	0.00e+00	0	40	0	28311552	57	5650
2026-01-28 02:14:25.01	349.64	9.43	-43.4	-47.0	16.5	0.00e+00	0	40	0	29360128	57	5725
2026-01-28 02:14:26.00	349.49	9.48	-43.7	-47.3	16.2	0.00e+00	0	40	0	31457280	57	5961
2026-01-28 02:14:26.99	349.34	9.52	-43.8	-47.6	15.9	0.00e+00	0	40	0	33554432	58	5791
2026-01-28 02:14:27.98	349.19	9.56	-43.8	-47.7	15.8	0.00e+00	0	40	0	35651584	58	5862
2026-01-28 02:14:28.98	349.03	9.60	-43.7	-47.7	15.7	0.00e+00	0	40	0	37748736	58	5908
2026-01-28 02:14:29.97	348.88	9.64	-43.6	-47.8	15.7	0.00e+00	0	40	0	38797312	58	5943
2026-01-28 02:14:30.96	348.73	9.69	-43.4	-47.5	15.9	0.00e+00	0	40	0	40894464	58	5783
2026-01-28 02:14:31.95	348.58	9.73	-43.5	-47.6	15.9	0.00e+00	0	40	0	42991616	58	5810
2026-01-28 02:14:32.95	348.42	9.77	-43.3	-47.5	16.0	0.00e+00	0	40	0	45088768	58	5728
2026-01-28 02:14:33.94	348.27	9.81	-43.3	-47.5	16.0	0.00e+00	0	40	0	46137344	58	5740
2026-01-28 02:14:34.93	348.12	9.85	-43.5	-47.8	15.8	0.00e+00	0	40	0	48234496	58	5929
2026-01-28 02:14:35.93	347.96	9.89	-43.4	-47.7	15.8	0.00e+00	0	40	0	50331648	58	5859
2026-01-28 02:14:36.92	347.81	9.93	-43.3	-47.5	16.0	0.00e+00	0	40	0	52428800	58	5782
2026-01-28 02:14:37.91	347.65	9.97	-43.2	-47.5	16.0	0.00e+00	0	40	0	54525952	58	5731
2026-01-28 02:14:38.90	347.49	10.02	-43.0	-47.0	16.4	0.00e+00	0	40	0	55574528	58	5447
2026-01-28 02:14:39.90	347.34	10.06	-42.7	-46.6	16.8	0.00e+00	0	40	0	57671680	57	5497
2026-01-28 02:14:40.89	347.18	10.10	-42.5	-46.3	17.1	0.00e+00	0	40	0	59768832	57	5334
2026-01-28 02:14:41.88	347.02	10.14	-42.4	-46.2	17.2	0.00e+00	0	40	0	61865984	56	5562
2026-01-28 02:14:42.88	346.86	10.18	-42.1	-45.8	17.5	0.00e+00	0	40	0	62914560	56	5328
2026-01-28 02:14:43.87	346.71	10.22	-42.1	-45.9	17.4	0.00e+00	0	40	0	65011712	56	5371
2026-01-28 02:14:44.86	346.55	10.26	-41.8	-45.5	17.6	0.00e+00	0	40	0	67108864	55	5460
2026-01-28 02:14:45.85	346.39	10.30	-42.1	-46.1	17.1	0.00e+00	0	40	0	69206016	55	5824
2026-01-28 02:14:46.85	346.23	10.34	-42.2	-46.2	17.0	0.00e+00	0	40	0	71303168	55	5883
2026-01-28 02:14:47.84	346.07	10.38	-42.3	-46.3	16.9	0.00e+00	0	40	0	72351744	55	5972
2026-01-28 02:14:48.83	345.91	10.41	-42.3	-46.4	16.9	0.00e+00	0	40	0	74448896	55	6012
2026-01-28 02:14:49.82	345.75	10.45	-42.2	-46.2	17.1	0.00e+00	0	40	0	76546048	55	5862
2026-01-28 02:14:50.82	345.58	10.49	-42.0	-46.0	17.2	0.00e+00	0	40	0	78643200	55	5788
2026-01-28 02:14:51.81	345.42	10.53	-41.8	-45.8	17.4	0.00e+00	0	40	0	79691776	55	5627
2026-01-28 02:14:52.80	345.26	10.57	-41.8	-46.0	17.2	0.00e+00	0	40	0	81788928	55	5761
2026-01-28 02:14:53.80	345.10	10.61	-41.7	-45.9	17.3	0.00e+00	0	40	0	83886080	55	5697
2026-01-28 02:14:54.79	344.93	10.65	-41.8	-45.9	17.4	0.00e+00	0	40	0	85983232	55	5663
2026-01-28 02:14:55.78	344.77	10.69	-41.9	-45.8	17.4	0.00e+00	0	40	0	88080384	55	5599
2026-01-28 02:14:56.78	344.60	10.72	-42.1	-45.9	17.3	0.00e+00	0	40	0	89128960	55	5672
2026-01-28 02:14:57.77	344.44	10.76	-42.2	-45.9	17.2	0.00e+00	0	40	0	91226112	55	5721
2026-01-28 02:14:58.76	344.28	10.80	-42.4	-45.9	17.4	0.00e+00	0	40	0	93323264	55	5677
2026-01-28 02:14:59.75	344.11	10.84	-42.5	-45.7	17.5	0.00e+00	0	40	0	95420416	55	5570
2026-01-28 02:15:00.75	343.94	10.87	-42.5	-45.8	17.5	0.00e+00	0	40	0	96468992	55	5597
2026-01-28 02:15:01.74	343.78	10.91	-42.8	-46.0	17.4	0.00e+00	0	40	0	98566144	56	5431
2026-01-28 02:15:02.73	343.61	10.95	-43.0	-46.3	17.1	0.00e+00	0	40	0	100663296	56	5633
2026-01-28 02:15:03.72	343.45	10.98	-43.1	-46.4	17.1	0.00e+00	0	40	0	102760448	56	5706
2026-01-28 02:15:04.72	343.28	11.02	-43.4	-46.9	16.6	0.00e+00	0	40	0	104857600	57	5660
2026-01-28 02:15:05.71	343.11	11.06	-43.5	-47.0	16.4	0.00e+00	0	40	0	105906176	57	5781
2026-01-28 02:15:06.70	342.94	11.09	-43.5	-47.1	16.4	0.00e+00	0	40	0	108003328	57	5810
2026-01-28 02:15:07.70	342.77	11.13	-43.6	-47.2	16.3	0.00e+00	0	40	0	110100480	57	5861
2026-01-28 02:15:08.69	342.60	11.17	-43.5	-47.0	16.5	0.00e+00	0	40	0	112197632	57	5776
2026-01-28 02:15:09.68	342.43	11.20	-43.3	-46.7	16.7	0.00e+00	0	40	0	113246208	57	5571
2026-01-28 02:15:10.68	342.26	11.24	-43.2	-46.5	17.0	0.00e+00	0	40	0	115343360	57	5418
2026-01-28 02:15:11.67	342.09	11.27	-43.2	-46.4	17.1	0.00e+00	0	40	0	117440512	57	5356
2026-01-28 02:15:12.66	341.92	11.31	-43.1	-46.1	17.3	0.00e+00	0	40	0	119537664	57	5217
2026-01-28 02:15:13.65	341.75	11.34	-43.1	-46.2	17.2	0.00e+00	0	40	0	120586240	57	5260
2026-01-28 02:15:14.65	341.58	11.38	-43.2	-46.4	17.1	0.00e+00	0	40	0	122683392	57	5366
2026-01-28 02:15:15.64	341.41	11.41	-43.2	-46.4	17.1	0.00e+00	0	40	0	124780544	57	5396
2026-01-28 02:15:16.63	341.23	11.44	-43.3	-46.6	16.9	0.00e+00	0	40	0	126877696	57	5484
2026-01-28 02:15:17.62	341.06	11.48	-43.4	-46.7	16.7	0.00e+00	0	40	0	128974848	57	5579
2026-01-28 02:15:18.62	340.89	11.51	-43.5	-46.8	16.8	0.00e+00	0	40	0	130023424	57	5595
2026-01-28 02:15:19.61	340.71	11.55	-43.4	-46.6	16.9	0.00e+00	0	40	0	132120576	57	5468
2026-01-28 02:15:20.60	340.54	11.58	-43.4	-46.6	16.9	0.00e+00	0	40	0	134217728	57	5485
2026-01-28 02:15:21.60	340.36	11.61	-43.3	-46.5	16.9	0.00e+00	0	40	0	136314880	57	5453
2026-01-28 02:15:22.59	340.19	11.65	-43.2	-46.6	16.9	0.00e+00	0	40	0	137363456	57	5491
2026-01-28 02:15:23.58	340.01	11.68	-43.1	-46.7	16.7	0.00e+00	0	40	0	139460608	57	5551
2026-01-28 02:15:24.58	339.84	11.71	-43.0	-46.6	16.9	0.00e+00	0	40	0	141557760	57	5490
2026-01-28 02:15:25.57	339.66	11.74	-43.0	-46.5	17.0	0.00e+00	0	40	0	143654912	57	5426
2026-01-28 02:15:26.56	339.48	11.78	-43.0	-46.4	17.1	0.00e+00	0	40	0	145752064	57	5356
2026-01-28 02:15:27.55	339.31	11.81	-42.9	-46.0	17.4	0.00e+00	0	40	0	146800640	57	5136
2026-01-28 02:15:28.55	339.13	11.84	-43.0	-46.0	17.4	0.00e+00	0	40	0	148897792	57	5116
2026-01-28 02:15:29.54	338.95	11.87	-43.1	-45.9	17.5	0.00e+00	0	40	0	150994944	57	5087
2026-01-28 02:15:30.53	338.77	11.90	-43.2	-46.1	17.4	0.00e+00	0	40	0	153092096	57	5188
2026-01-28 02:15:31.52	338.60	11.93	-43.4	-46.4	17.1	0.00e+00	0	40	0	154140672	57	5366
2026-01-28 02:15:32.52	338.42	11.96	-43.4	-46.5	17.0	0.00e+00	0	40	0	156237824	57	5450
2026-01-28 02:15:33.51	338.24	11.99	-43.4	-46.8	16.7	0.00e+00	0	40	0	158334976	57	5599
2026-01-28 02:15:34.50	338.06	12.02	-43.5	-47.0	16.5	0.00e+00	0	40	0	160432128	57	5748
2026-01-28 02:15:35.50	337.88	12.05	-43.4	-46.9	16.6	0.00e+00	0	40	0	162529280	57	5710
2026-01-28 02:15:36.49	337.70	12.08	-43.3	-46.8	16.7	0.00e+00	0	40	0	163577856	57	5623
2026-01-28 02:15:37.48	337.52	12.11	-43.3	-46.6	16.9	0.00e+00	0	40	0	165675008	57	5525
2026-01-28 02:15:38.47	337.34	12.14	-43.0	-46.1	17.3	0.00e+00	0	40	0	167772160	57	5216
2026-01-28 02:15:39.47	337.15	12.17	-42.9	-45.9	17.5	0.00e+00	0	40	0	169869312	57	5079
2026-01-28 02:15:40.46	336.97	12.20	-42.9	-45.9	17.6	0.00e+00	0	40	0	170917888	57	5053
2026-01-28 02:15:41.45	336.79	12.23	-43.0	-46.1	17.3	0.00e+00	0	40	0	173015040	57	5176
2026-01-28 02:15:42.45	336.60	12.26	-43.3	-46.5	17.0	0.00e+00	0	40	0	175112192	57	5445
2026-01-28 02:15:43.44	336.42	12.29	-43.5	-46.8	16.7	0.00e+00	0	40	0	177209344	57	5607
2026-01-28 02:15:44.43	336.24	12.31	-43.8	-47.3	16.3	0.00e+00	0	40	0	179306496	58	5615
2026-01-28 02:15:45.42	336.06	12.34	-44.2	-47.8	15.7	0.00e+00	0	40	0	180355072	59	5636
2026-01-28 02:15:46.42	335.87	12.37	-44.2	-47.7	15.9	0.00e+00	0	40	0	182452224	59	5564
2026-01-28 02:15:47.41	335.69	12.39	-44.2	-47.7	15.9	0.00e+00	0	40	0	184549376	59	5546
2026-01-28 02:15:48.40	335.50	12.42	-44.2	-47.5	16.1	0.00e+00	0	40	0	186646528	59	5420
2026-01-28 02:15:49.40	335.32	12.45	-43.7	-46.7	16.8	0.00e+00	0	40	0	187695104	59	4939
2026-01-28 02:15:50.39	335.13	12.47	-43.4	-46.3	17.2	0.00e+00	0	40	0	189792256	58	5005
2026-01-28 02:15:51.38	334.95	12.50	-43.2	-46.0	17.5	0.00e+00	0	40	0	191889408	58	4851
2026-01-28 02:15:52.37	334.76	12.53	-43.0	-45.8	17.7	0.00e+00	0	40	0	193986560	57	4995
2026-01-28 02:15:53.37	334.57	12.55	-43.0	-45.8	17.7	0.00e+00	0	40	0	195035136	57	4985
2026-01-28 02:15:54.36	334.39	12.58	-43.2	-46.1	17.4	0.00e+00	0	40	0	197132288	57	5161
2026-01-28 02:15:55.35	334.20	12.60	-42.9	-45.6	17.9	0.00e+00	0	40	0	199229440	57	4901
2026-01-28 02:15:56.35	334.01	12.63	-42.8	-45.5	17.9	0.00e+00	0	40	0	201326592	57	4840
2026-01-28 02:15:57.34	333.82	12.65	-43.0	-45.8	17.7	0.00e+00	0	40	0	203423744	57	4987
2026-01-28 02:15:58.33	333.64	12.67	-42.9	-45.5	18.0	0.00e+00	0	40	0	204472320	57	4841
2026-01-28 02:15:59.32	333.45	12.70	-42.8	-45.5	18.0	0.00e+00	0	40	0	206569472	57	4835
2026-01-28 02:16:00.32	333.26	12.72	-42.9	-45.5	17.9	0.00e+00	0	40	0	208666624	57	4858
2026-01-28 02:16:01.31	333.07	12.74	-42.8	-45.5	18.0	0.00e+00	0	40	0	210763776	57	4815
2026-01-28 02:16:02.30	332.88	12.77	-42.8	-45.5	18.0	0.00e+00	0	40	0	211812352	57	4860
2026-01-28 02:16:03.30	332.69	12.79	-42.9	-45.6	17.9	0.00e+00	0	40	0	213909504	57	4893
2026-01-28 02:16:04.29	332.50	12.81	-42.9	-45.6	17.9	0.00e+00	0	40	0	216006656	57	4895
2026-01-28 02:16:05.28	332.31	12.83	-42.8	-45.4	18.1	0.00e+00	0	40	0	218103808	57	4778
2026-01-28 02:16:06.27	332.12	12.86	-42.9	-45.6	18.0	0.00e+00	0	40	0	220200960	57	4875
2026-01-28 02:16:07.27	331.93	12.88	-43.0	-45.6	18.0	0.00e+00	0	40	0	221249536	57	4884
2026-01-28 02:16:08.26	331.74	12.90	-43.1	-45.8	17.7	0.00e+00	0	40	0	223346688	57	4996
2026-01-28 02:16:09.25	331.55	12.92	-43.3	-46.0	17.5	0.00e+00	0	40	0	225443840	57	5117
2026-01-28 02:16:10.25	331.36	12.94	-43.2	-46.0	17.5	0.00e+00	0	40	0	227540992	57	5115
2026-01-28 02:16:11.24	331.16	12.96	-43.4	-46.2	17.4	0.00e+00	0	40	0	228589568	57	5269
2026-01-28 02:16:12.23	330.97	12.98	-43.4	-46.3	17.2	0.00e+00	0	40	0	230686720	57	5309
2026-01-28 02:16:13.23	330.78	13.00	-43.5	-46.6	17.0	0.00e+00	0	40	0	232783872	57	5471
2026-01-28 02:16:14.22	330.59	13.02	-43.7	-46.8	16.7	0.00e+00	0	40	0	234881024	58	5340
2026-01-28 02:16:15.21	330.39	13.04	-43.8	-46.8	16.7	0.00e+00	0	40	0	236978176	58	5340
2026-01-28 02:16:16.20	330.20	13.06	-43.9	-47.0	16.5	0.00e+00	0	40	0	238026752	58	5457
2026-01-28 02:16:17.20	330.01	13.08	-44.1	-47.2	16.3	0.00e+00	0	40	0	240123904	58	5583
2026-01-28 02:16:18.19	329.81	13.09	-44.1	-47.3	16.2	0.00e+00	0	40	0	242221056	59	5302
2026-01-28 02:16:19.18	329.62	13.11	-43.9	-47.1	16.5	0.00e+00	0	40	0	244318208	59	5165
2026-01-28 02:16:20.18	329.42	13.13	-43.9	-47.0	16.6	0.00e+00	0	40	0	245366784	59	5128
2026-01-28 02:16:21.17	329.23	13.15	-43.6	-46.7	16.8	0.00e+00	0	40	0	247463936	59	4968
2026-01-28 02:16:22.16	329.04	13.16	-43.7	-46.9	16.7	0.00e+00	0	40	0	249561088	59	5045
2026-01-28 02:16:23.15	328.84	13.18	-43.8	-47.0	16.4	0.00e+00	0	40	0	251658240	59	5154
2026-01-28 02:16:24.15	328.65	13.20	-43.8	-47.0	16.6	0.00e+00	0	40	0	253755392	59	5113
2026-01-28 02:16:25.14	328.45	13.21	-43.8	-47.0	16.6	0.00e+00	0	40	0	254803968	59	5118
2026-01-28 02:16:26.13	328.26	13.23	-43.9	-47.0	16.5	0.00e+00	0	40	0	256901120	59	5139
2026-01-28 02:16:27.13	328.06	13.24	-44.0	-47.1	16.5	0.00e+00	0	40	0	258998272	59	5178
2026-01-28 02:16:28.12	327.86	13.26	-44.0	-47.0	16.5	0.00e+00	0	40	0	261095424	59	5135
2026-01-28 02:16:29.11	327.67	13.27	-44.1	-47.2	16.3	0.00e+00	0	40	0	262144000	59	5259
2026-01-28 02:16:30.10	327.47	13.29	-43.7	-46.6	16.9	0.00e+00	0	40	0	264241152	59	4921
2026-01-28 02:16:31.09	327.28	13.30	-43.2	-46.1	17.3	0.00e+00	0	40	0	266338304	58	4921
2026-01-28 02:16:32.09	327.08	13.31	-43.2	-46.1	17.5	0.00e+00	0	40	0	268435456	58	4877
2026-01-28 02:16:33.08	326.88	13.33	-43.0	-45.9	17.6	0.00e+00	0	40	0	270532608	57	5050
2026-01-28 02:16:34.07	326.69	13.34	-42.9	-45.8	17.7	0.00e+00	0	40	0	271581184	57	5025
2026-01-28 02:16:35.07	326.49	13.35	-42.8	-45.7	17.8	0.00e+00	0	40	0	273678336	57	4929
2026-01-28 02:16:36.06	326.29	13.37	-42.9	-45.8	17.7	0.00e+00	0	40	0	275775488	57	5023
2026-01-28 02:16:37.05	326.09	13.38	-42.9	-45.9	17.5	0.00e+00	0	40	0	277872640	57	5054
2026-01-28 02:16:38.05	325.89	13.39	-43.1	-46.3	17.2	0.00e+00	0	40	0	278921216	57	5303
2026-01-28 02:16:39.04	325.70	13.40	-43.2	-46.4	17.0	0.00e+00	0	40	0	281018368	57	5392
2026-01-28 02:16:40.03	325.50	13.41	-43.3	-46.6	16.8	0.00e+00	0	40	0	283115520	57	5526
2026-01-28 02:16:41.02	325.30	13.42	-43.4	-46.8	16.8	0.00e+00	0	40	0	285212672	57	5616
2026-01-28 02:16:42.02	325.10	13.43	-43.3	-46.8	16.7	0.00e+00	0	40	0	286261248	57	5604
2026-01-28 02:16:43.01	324.90	13.44	-43.2	-46.6	16.9	0.00e+00	0	40	0	288358400	57	5488
2026-01-28 02:16:44.00	324.71	13.45	-43.1	-46.4	17.1	0.00e+00	0	40	0	290455552	57	5362
2026-01-28 02:16:44.99	324.51	13.46	-43.1	-46.4	17.1	0.00e+00	0	40	0	292552704	57	5388
2026-01-28 02:16:45.99	324.31	13.47	-42.7	-45.7	17.8	0.00e+00	0	40	0	294649856	57	4947
2026-01-28 02:16:46.98	324.11	13.48	-42.6	-45.6	17.8	0.00e+00	0	40	0	295698432	57	4905
2026-01-28 02:16:47.97	323.91	13.49	-42.8	-45.8	17.7	0.00e+00	0	40	0	297795584	57	4993
2026-01-28 02:16:48.96	323.71	13.50	-42.9	-45.8	17.6	0.00e+00	0	40	0	299892736	57	5023
2026-01-28 02:16:49.96	323.51	13.50	-43.2	-46.1	17.4	0.00e+00	0	40	0	301989888	57	5165
2026-01-28 02:16:50.95	323.31	13.51	-43.3	-46.2	17.2	0.00e+00	0	40	0	303038464	57	5262
2026-01-28 02:16:51.94	323.11	13.52	-43.6	-46.4	17.1	0.00e+00	0	40	0	305135616	57	5399
2026-01-28 02:16:52.94	322.91	13.52	-43.6	-46.5	17.1	0.00e+00	0	40	0	307232768	58	5105
2026-01-28 02:16:53.93	322.71	13.53	-43.8	-46.7	16.9	0.00e+00	0	40	0	309329920	58	5255
2026-01-28 02:16:54.92	322.51	13.54	-43.8	-46.7	16.9	0.00e+00	0	40	0	311427072	58	5250
2026-01-28 02:16:55.91	322.32	13.54	-43.8	-46.8	16.7	0.00e+00	0	40	0	312475648	58	5324
2026-01-28 02:16:56.91	322.11	13.55	-43.8	-46.8	16.8	0.00e+00	0	40	0	314572800	58	5295
2026-01-28 02:16:57.90	321.91	13.55	-43.7	-46.7	16.9	0.00e+00	0	40	0	316669952	58	5260
2026-01-28 02:16:58.89	321.71	13.56	-43.4	-46.4	17.2	0.00e+00	0	40	0	318767104	58	5045
2026-01-28 02:16:59.88	321.52	13.56	-43.4	-46.3	17.2	0.00e+00	0	40	0	319815680	58	5023
2026-01-28 02:17:00.88	321.31	13.57	-43.3	-46.2	17.4	0.00e+00	0	40	0	321912832	58	4978
2026-01-28 02:17:01.87	321.11	13.57	-43.3	-46.3	17.3	0.00e+00	0	40	0	324009984	58	4994
2026-01-28 02:17:02.86	320.91	13.57	-43.3	-46.2	17.3	0.00e+00	0	40	0	326107136	58	4981
2026-01-28 02:17:03.86	320.71	13.58	-43.3	-46.3	17.2	0.00e+00	0	40	0	328204288	58	5036
2026-01-28 02:17:04.85	320.51	13.58	-43.4	-46.3	17.2	0.00e+00	0	40	0	329252864	58	5032
2026-01-28 02:17:05.84	320.31	13.58	-43.3	-46.2	17.3	0.00e+00	0	40	0	331350016	58	4955
2026-01-28 02:17:06.84	320.11	13.58	-43.3	-46.2	17.3	0.00e+00	0	40	0	333447168	58	4971
2026-01-28 02:17:07.83	319.91	13.58	-43.1	-46.0	17.4	0.00e+00	0	40	0	335544320	58	4861
2026-01-28 02:17:08.82	319.71	13.58	-43.0	-45.9	17.6	0.00e+00	0	40	0	336592896	57	5078
2026-01-28 02:17:09.81	319.51	13.59	-43.0	-45.9	17.6	0.00e+00	0	40	0	338690048	57	5086
2026-01-28 02:17:10.81	319.31	13.59	-43.0	-45.9	17.6	0.00e+00	0	40	0	340787200	57	5049
2026-01-28 02:17:11.80	319.11	13.59	-43.0	-45.9	17.6	0.00e+00	0	40	0	342884352	57	5063
2026-01-28 02:17:12.79	318.91	13.59	-43.1	-45.9	17.5	0.00e+00	0	40	0	344981504	57	5094
2026-01-28 02:17:13.79	318.71	13.59	-43.1	-46.0	17.5	0.00e+00	0	40	0	346030080	57	5103
2026-01-28 02:17:14.78	318.51	13.58	-43.1	-46.0	17.5	0.00e+00	0	40	0	348127232	57	5103
2026-01-28 02:17:15.77	318.31	13.58	-43.4	-46.2	17.3	0.00e+00	0	40	0	350224384	57	5268
2026-01-28 02:17:16.76	318.11	13.58	-43.4	-46.3	17.2	0.00e+00	0	40	0	352321536	57	5290
2026-01-28 02:17:17.76	317.91	13.58	-43.4	-46.2	17.3	0.00e+00	0	40	0	353370112	57	5250
2026-01-28 02:17:18.75	317.71	13.58	-43.3	-46.1	17.4	0.00e+00	0	40	0	355467264	57	5200
2026-01-28 02:17:19.74	317.51	13.57	-43.3	-46.0	17.4	0.00e+00	0	40	0	357564416	57	5138
2026-01-28 02:17:20.73	317.31	13.57	-43.4	-46.1	17.4	0.00e+00	0	40	0	359661568	57	5218
2026-01-28 02:17:21.73	317.10	13.57	-43.2	-45.9	17.6	0.00e+00	0	40	0	361758720	57	5053
2026-01-28 02:17:22.72	316.90	13.56	-43.1	-45.9	17.6	0.00e+00	0	40	0	362807296	57	5055
2026-01-28 02:17:23.71	316.70	13.56	-43.1	-45.9	17.6	0.00e+00	0	40	0	364904448	57	5052
2026-01-28 02:17:24.71	316.50	13.56	-43.1	-46.0	17.5	0.00e+00	0	40	0	367001600	57	5132
2026-01-28 02:17:25.70	316.30	13.55	-43.1	-46.1	17.4	0.00e+00	0	40	0	369098752	57	5164
2026-01-28 02:17:26.69	316.10	13.55	-43.3	-46.3	17.2	0.00e+00	0	40	0	370147328	57	5283
2026-01-28 02:17:27.69	315.90	13.54	-43.2	-46.1	17.3	0.00e+00	0	40	0	372244480	57	5218
2026-01-28 02:17:28.68	315.70	13.53	-43.3	-46.2	17.3	0.00e+00	0	40	0	374341632	57	5252
2026-01-28 02:17:29.67	315.50	13.53	-43.4	-46.3	17.2	0.00e+00	0	40	0	376438784	57	5305
2026-01-28 02:17:30.66	315.30	13.52	-43.5	-46.4	17.1	0.00e+00	0	40	0	377487360	57	5374
2026-01-28 02:17:31.66	315.10	13.52	-43.5	-46.4	17.0	0.00e+00	0	40	0	379584512	57	5378
2026-01-28 02:17:32.65	314.90	13.51	-43.6	-46.5	17.0	0.00e+00	0	40	0	381681664	57	5433
2026-01-28 02:17:33.64	314.71	13.50	-43.7	-46.6	16.9	0.00e+00	0	40	0	383778816	58	5202
2026-01-28 02:17:34.63	314.51	13.49	-43.8	-46.9	16.6	0.00e+00	0	40	0	385875968	58	5349
2026-01-28 02:17:35.63	314.31	13.48	-44.0	-47.1	16.4	0.00e+00	0	40	0	386924544	58	5501
2026-01-28 02:17:36.62	314.11	13.48	-44.2	-47.4	16.2	0.00e+00	0	40	0	389021696	58	5673
2026-01-28 02:17:37.61	313.91	13.47	-44.3	-47.5	16.0	0.00e+00	0	40	0	391118848	59	5450
2026-01-28 02:17:38.61	313.71	13.46	-44.2	-47.5	16.0	0.00e+00	0	40	0	393216000	59	5412
2026-01-28 02:17:39.60	313.51	13.45	-44.2	-47.4	16.1	0.00e+00	0	40	0	394264576	59	5347
2026-01-28 02:17:40.59	313.31	13.44	-44.0	-47.2	16.3	0.00e+00	0	40	0	396361728	59	5232
2026-01-28 02:17:41.59	313.11	13.43	-43.9	-46.9	16.6	0.00e+00	0	40	0	398458880	59	5069
2026-01-28 02:17:42.58	312.91	13.42	-43.6	-46.5	17.0	0.00e+00	0	40	0	400556032	59	4817
2026-01-28 02:17:43.57	312.72	13.41	-43.5	-46.4	17.2	0.00e+00	0	40	0	402653184	58	5061
2026-01-28 02:17:44.56	312.52	13.40	-43.3	-46.0	17.4	0.00e+00	0	40	0	403701760	58	4868
2026-01-28 02:17:45.56	312.32	13.38	-43.3	-46.1	17.4	0.00e+00	0	40	0	405798912	58	4909
2026-01-28 02:17:46.55	312.12	13.37	-43.2	-46.0	17.5	0.00e+00	0	40	0	407896064	58	4834
2026-01-28 02:17:47.54	311.92	13.36	-43.3	-46.1	17.4	0.00e+00	0	40	0	409993216	58	4900
2026-01-28 02:17:48.54	311.73	13.35	-43.4	-46.2	17.3	0.00e+00	0	40	0	411041792	58	4956
2026-01-28 02:17:49.53	311.53	13.33	-43.4	-46.3	17.2	0.00e+00	0	40	0	413138944	58	5007
2026-01-28 02:17:50.52	311.33	13.32	-43.6	-46.5	17.0	0.00e+00	0	40	0	415236096	58	5133
2026-01-28 02:17:51.51	311.14	13.31	-43.6	-46.5	17.0	0.00e+00	0	40	0	417333248	58	5134
2026-01-28 02:17:52.51	310.94	13.29	-43.7	-46.6	16.9	0.00e+00	0	40	0	419430400	58	5188
2026-01-28 02:17:53.50	310.74	13.28	-43.8	-46.7	16.8	0.00e+00	0	40	0	420478976	58	5275
2026-01-28 02:17:54.49	310.55	13.27	-44.0	-47.0	16.6	0.00e+00	0	40	0	422576128	58	5405
2026-01-28 02:17:55.48	310.35	13.25	-43.8	-46.8	16.8	0.00e+00	0	40	0	424673280	58	5285
2026-01-28 02:17:56.48	310.15	13.24	-43.8	-46.8	16.7	0.00e+00	0	40	0	426770432	58	5292
2026-01-28 02:17:57.47	309.96	13.22	-43.8	-46.7	16.8	0.00e+00	0	40	0	427819008	58	5276
2026-01-28 02:17:58.46	309.76	13.20	-43.7	-46.6	16.9	0.00e+00	0	40	0	429916160	58	5198
2026-01-28 02:17:59.46	309.57	13.19	-43.8	-46.8	16.8	0.00e+00	0	40	0	432013312	58	5281
2026-01-28 02:18:00.45	309.37	13.17	-43.7	-46.7	16.8	0.00e+00	0	40	0	434110464	58	5233
2026-01-28 02:18:01.44	309.18	13.16	-43.9	-46.9	16.7	0.00e+00	0	41	0	436207616	58	5350
2026-01-28 02:18:02.43	308.98	13.14	-44.0	-47.0	16.5	0.00e+00	0	40	0	437256192	58	5450
2026-01-28 02:18:03.43	308.79	13.12	-44.0	-47.0	16.5	0.00e+00	0	40	0	439353344	58	5460
2026-01-28 02:18:04.42	308.59	13.10	-44.0	-47.1	16.5	0.00e+00	0	40	0	441450496	58	5491
2026-01-28 02:18:05.41	308.40	13.09	-44.0	-47.1	16.5	0.00e+00	0	40	0	443547648	58	5482
2026-01-28 02:18:06.41	308.20	13.07	-43.8	-46.8	16.8	0.00e+00	0	40	0	444596224	58	5287
2026-01-28 02:18:07.40	308.01	13.05	-43.9	-46.8	16.7	0.00e+00	0	40	0	446693376	58	5308
2026-01-28 02:18:08.39	307.82	13.03	-43.9	-46.8	16.7	0.00e+00	0	40	0	448790528	58	5331
2026-01-28 02:18:09.39	307.62	13.01	-43.9	-46.8	16.7	0.00e+00	0	40	0	450887680	58	5305
2026-01-28 02:18:10.38	307.43	12.99	-44.0	-47.0	16.6	0.00e+00	0	40	0	452984832	58	5404
2026-01-28 02:18:11.37	307.24	12.97	-44.2	-47.1	16.4	0.00e+00	0	40	0	454033408	58	5519
2026-01-28 02:18:12.36	307.05	12.95	-44.2	-47.0	16.5	0.00e+00	0	40	0	456130560	59	5148
2026-01-28 02:18:13.36	306.85	12.93	-44.1	-47.0	16.6	0.00e+00	0	40	0	458227712	59	5117
2026-01-28 02:18:14.35	306.66	12.91	-44.1	-46.9	16.7	0.00e+00	0	40	0	460324864	59	5086
2026-01-28 02:18:15.34	306.47	12.89	-44.0	-46.7	16.8	0.00e+00	0	40	0	461373440	59	4979
2026-01-28 02:18:16.33	306.28	12.87	-44.2	-47.0	16.5	0.00e+00	0	40	0	463470592	59	5143
2026-01-28 02:18:17.33	306.09	12.85	-44.1	-46.9	16.6	0.00e+00	0	40	0	465567744	59	5074
2026-01-28 02:18:18.32	305.90	12.82	-44.3	-47.2	16.4	0.00e+00	0	40	0	467664896	59	5247
2026-01-28 02:18:19.31	305.71	12.80	-44.2	-47.1	16.5	0.00e+00	0	40	0	468713472	59	5172
2026-01-28 02:18:20.31	305.52	12.78	-44.0	-46.8	16.7	0.00e+00	0	40	0	470810624	59	5036
2026-01-28 02:18:21.30	305.33	12.76	-43.9	-46.7	16.9	0.00e+00	0	40	0	472907776	59	4940
2026-01-28 02:18:22.29	305.14	12.73	-43.7	-46.4	17.1	0.00e+00	0	40	0	475004928	59	4801
2026-01-28 02:18:23.29	304.95	12.71	-43.7	-46.3	17.2	0.00e+00	0	40	0	477102080	59	4747
2026-01-28 02:18:24.28	304.76	12.69	-43.5	-46.2	17.4	0.00e+00	0	40	0	478150656	59	4660
2026-01-28 02:18:25.27	304.57	12.66	-43.7	-46.4	17.1	0.00e+00	0	40	0	480247808	59	4811
2026-01-28 02:18:26.26	304.38	12.64	-43.7	-46.4	17.0	0.00e+00	0	40	0	482344960	59	4814
2026-01-28 02:18:27.26	304.20	12.61	-43.9	-46.7	16.8	0.00e+00	0	40	0	484442112	59	4978
2026-01-28 02:18:28.26	304.01	12.59	-44.1	-46.9	16.6	0.00e+00	0	40	0	485490688	59	5096
2026-01-28 02:18:29.25	303.82	12.56	-44.0	-46.8	16.7	0.00e+00	0	40	0	487587840	59	5030
2026-01-28 02:18:30.24	303.63	12.54	-43.9	-46.7	16.8	0.00e+00	0	40	0	489684992	59	4938
2026-01-28 02:18:31.23	303.45	12.51	-43.7	-46.5	17.0	0.00e+00	0	40	0	491782144	59	4824
2026-01-28 02:18:32.23	303.26	12.49	-43.7	-46.4	17.1	0.00e+00	0	40	0	493879296	59	4802
2026-01-28 02:18:33.22	303.07	12.46	-43.7	-46.4	17.1	0.00e+00	0	40	0	494927872	59	4789
2026-01-28 02:18:34.21	302.89	12.44	-43.9	-46.6	16.8	0.00e+00	0	40	0	497025024	59	4923
2026-01-28 02:18:35.21	302.70	12.41	-43.9	-46.7	16.8	0.00e+00	0	40	0	499122176	59	4950
2026-01-28 02:18:36.20	302.52	12.38	-44.2	-47.0	16.5	0.00e+00	0	40	0	501219328	59	5140
2026-01-28 02:18:37.19	302.33	12.35	-44.3	-47.2	16.3	0.00e+00	0	40	0	502267904	59	5232
2026-01-28 02:18:38.19	302.15	12.33	-44.5	-47.4	16.1	0.00e+00	0	40	0	504365056	59	5376
2026-01-28 02:18:39.18	301.96	12.30	-44.5	-47.5	16.0	0.00e+00	0	40	0	506462208	59	5430
2026-01-28 02:18:40.17	301.78	12.27	-44.4	-47.3	16.1	0.00e+00	0	40	0	508559360	59	5326
2026-01-28 02:18:41.16	301.60	12.24	-44.4	-47.4	16.1	0.00e+00	0	40	0	510656512	59	5382
2026-01-28 02:18:42.16	301.41	12.21	-44.3	-47.3	16.2	0.00e+00	0	40	0	511705088	59	5285
2026-01-28 02:18:43.15	301.23	12.19	-44.3	-47.3	16.2	0.00e+00	0	40	0	513802240	59	5306
2026-01-28 02:18:44.14	301.05	12.16	-44.2	-47.1	16.3	0.00e+00	0	40	0	515899392	59	5196
2026-01-28 02:18:45.13	300.87	12.13	-44.2	-47.1	16.3	0.00e+00	0	40	0	517996544	59	5213
2026-01-28 02:18:46.13	300.69	12.10	-44.3	-47.2	16.2	0.00e+00	0	40	0	519045120	59	5277
2026-01-28 02:18:47.12	300.50	12.07	-44.2	-47.1	16.3	0.00e+00	0	40	0	521142272	59	5203
2026-01-28 02:18:48.11	300.32	12.04	-44.3	-47.2	16.2	0.00e+00	0	40	0	523239424	59	5256
2026-01-28 02:18:49.11	300.14	12.01	-44.3	-47.2	16.2	0.00e+00	0	40	0	525336576	59	5279
2026-01-28 02:18:50.10	299.96	11.98	-44.4	-47.3	16.2	0.00e+00	0	40	0	527433728	59	5332
2026-01-28 02:18:51.09	299.78	11.95	-44.3	-47.3	16.2	0.00e+00	0	40	0	528482304	59	5302
2026-01-28 02:18:52.08	299.61	11.92	-44.2	-47.1	16.3	0.00e+00	0	40	0	530579456	59	5192
2026-01-28 02:18:53.08	299.43	11.89	-44.0	-46.8	16.6	0.00e+00	0	40	0	532676608	59	5038
2026-01-28 02:18:54.07	299.25	11.85	-44.0	-46.8	16.6	0.00e+00	0	40	0	534773760	59	5031
2026-01-28 02:18:55.06	299.07	11.82	-43.8	-46.5	16.9	0.00e+00	0	40	0	535822336	59	4865
2026-01-28 02:18:56.06	298.89	11.79	-43.8	-46.5	16.9	0.00e+00	0	40	0	537919488	59	4842
2026-01-28 02:18:57.05	298.71	11.76	-44.0	-46.8	16.7	0.00e+00	0	40	0	540016640	59	4989
2026-01-28 02:18:58.04	298.54	11.73	-43.9	-46.6	16.8	0.00e+00	0	40	0	542113792	59	4922
2026-01-28 02:18:59.03	298.36	11.69	-43.9	-46.6	16.8	0.00e+00	0	40	0	544210944	59	4924
2026-01-28 02:19:00.03	298.18	11.66	-44.0	-46.8	16.6	0.00e+00	0	40	0	545259520	59	5006
2026-01-28 02:19:01.02	298.01	11.63	-43.9	-46.6	16.8	0.00e+00	0	40	0	547356672	59	4916
2026-01-28 02:19:02.01	297.83	11.60	-44.0	-46.8	16.6	0.00e+00	0	40	0	549453824	59	5012
2026-01-28 02:19:03.01	297.66	11.56	-44.1	-46.9	16.5	0.00e+00	0	40	0	551550976	59	5076
2026-01-28 02:19:04.00	297.48	11.53	-44.1	-46.9	16.5	0.00e+00	0	40	0	552599552	59	5090
2026-01-28 02:19:04.99	297.31	11.50	-44.1	-46.9	16.6	0.00e+00	0	40	0	554696704	59	5078
2026-01-28 02:19:05.99	297.13	11.46	-44.2	-47.0	16.4	0.00e+00	0	40	0	556793856	59	5156
2026-01-28 02:19:06.98	296.96	11.43	-44.0	-46.8	16.7	0.00e+00	0	40	0	558891008	59	5010
2026-01-28 02:19:07.97	296.79	11.39	-43.8	-46.5	16.9	0.00e+00	0	40	0	559939584	59	4822
2026-01-28 02:19:08.97	296.62	11.36	-43.7	-46.3	17.1	0.00e+00	0	40	0	562036736	59	4744
2026-01-28 02:19:09.96	296.44	11.32	-43.8	-46.5	16.9	0.00e+00	0	40	0	564133888	59	4834
2026-01-28 02:19:10.95	296.27	11.29	-43.8	-46.6	16.8	0.00e+00	0	40	0	566231040	59	4888
2026-01-28 02:19:11.94	296.10	11.25	-43.8	-46.6	16.8	0.00e+00	0	40	0	568328192	59	4888
2026-01-28 02:19:12.94	295.93	11.22	-44.0	-46.8	16.5	0.00e+00	0	40	0	569376768	59	5039
2026-01-28 02:19:13.93	295.76	11.18	-44.2	-47.1	16.3	0.00e+00	0	40	0	571473920	59	5197
2026-01-28 02:19:14.92	295.59	11.15	-44.0	-46.8	16.6	0.00e+00	0	40	0	573571072	59	5029
2026-01-28 02:19:15.92	295.42	11.11	-44.1	-47.0	16.4	0.00e+00	0	40	0	575668224	59	5126
2026-01-28 02:19:16.91	295.25	11.07	-44.2	-47.1	16.2	0.00e+00	0	40	0	576716800	59	5176
2026-01-28 02:19:17.90	295.08	11.04	-44.3	-47.2	16.2	0.00e+00	0	40	0	578813952	59	5238
2026-01-28 02:19:18.90	294.91	11.00	-44.4	-47.4	16.0	0.00e+00	0	40	0	580911104	59	5400
2026-01-28 02:19:19.89	294.74	10.96	-44.4	-47.5	16.0	0.00e+00	0	40	0	583008256	59	5414
2026-01-28 02:19:20.88	294.58	10.93	-44.5	-47.5	16.0	0.00e+00	0	40	0	585105408	59	5431
2026-01-28 02:19:21.87	294.41	10.89	-44.5	-47.5	15.9	0.00e+00	0	40	0	586153984	59	5448
2026-01-28 02:19:22.87	294.24	10.85	-44.4	-47.4	16.1	0.00e+00	0	40	0	588251136	59	5359
2026-01-28 02:19:23.86	294.08	10.82	-44.4	-47.4	16.1	0.00e+00	0	40	0	590348288	59	5342
2026-01-28 02:19:24.85	293.91	10.78	-44.4	-47.4	16.0	0.00e+00	0	40	0	592445440	59	5392
2026-01-28 02:19:25.84	293.75	10.74	-44.5	-47.5	15.9	0.00e+00	0	40	0	593494016	59	5436
2026-01-28 02:19:26.84	293.58	10.70	-44.5	-47.5	15.8	0.00e+00	0	40	0	595591168	59	5464
2026-01-28 02:19:27.83	293.42	10.67	-44.6	-47.7	15.8	0.00e+00	0	40	0	597688320	59	5536
2026-01-28 02:19:28.82	293.25	10.63	-44.4	-47.4	16.0	0.00e+00	0	40	0	599785472	59	5356
2026-01-28 02:19:29.82	293.09	10.59	-44.3	-47.3	16.1	0.00e+00	0	40	0	601882624	59	5309
2026-01-28 02:19:30.81	292.93	10.55	-44.5	-47.5	15.9	0.00e+00	0	40	0	602931200	59	5433
2026-01-28 02:19:31.80	292.76	10.51	-44.6	-47.6	15.8	0.00e+00	0	40	0	605028352	59	5503
2026-01-28 02:19:32.79	292.60	10.47	-44.3	-47.3	15.9	0.00e+00	0	40	0	607125504	59	5320
2026-01-28 02:19:33.79	292.44	10.43	-44.6	-47.7	15.7	0.00e+00	0	40	0	609222656	59	5551
2026-01-28 02:19:34.78	292.28	10.39	-44.6	-47.7	15.7	0.00e+00	0	40	0	610271232	59	5560
2026-01-28 02:19:35.77	292.12	10.35	-44.5	-47.6	15.7	0.00e+00	0	40	0	612368384	60	5203
2026-01-28 02:19:36.76	291.96	10.31	-44.6	-47.6	15.8	0.00e+00	0	40	0	614465536	60	5207
2026-01-28 02:19:37.76	291.79	10.27	-44.6	-47.8	15.7	0.00e+00	0	40	0	616562688	60	5287
2026-01-28 02:19:38.75	291.64	10.24	-44.4	-47.5	16.0	0.00e+00	0	40	0	618659840	60	5114
2026-01-28 02:19:39.74	291.48	10.20	-44.5	-47.5	15.9	0.00e+00	0	40	0	619708416	60	5129
2026-01-28 02:19:40.74	291.32	10.15	-44.5	-47.6	15.8	0.00e+00	0	40	0	621805568	60	5196
2026-01-28 02:19:41.73	291.16	10.11	-44.6	-47.7	15.7	0.00e+00	0	40	0	623902720	60	5271
2026-01-28 02:19:42.72	291.00	10.07	-44.9	-48.2	15.2	0.00e+00	0	40	0	625999872	60	5534
2026-01-28 02:19:43.71	290.84	10.03	-44.8	-48.0	15.5	0.00e+00	0	40	0	627048448	60	5425
2026-01-28 02:19:44.71	290.69	9.99	-45.2	-48.6	14.8	0.00e+00	0	40	0	629145600	61	5517
2026-01-28 02:19:45.70	290.53	9.95	-45.1	-48.5	14.9	0.00e+00	0	40	0	631242752	61	5453
2026-01-28 02:19:46.69	290.37	9.91	-45.1	-48.4	15.0	0.00e+00	0	40	0	633339904	61	5400
2026-01-28 02:19:47.69	290.22	9.87	-45.2	-48.6	14.9	7.00e-07	0	40	0	635437056	61	5476
2026-01-28 02:19:48.68	290.06	9.83	-44.9	-48.1	15.2	0.00e+00	0	40	0	636485632	61	5213
2026-01-28 02:19:49.67	289.91	9.79	-44.7	-47.8	15.6	0.00e+00	0	40	0	638582784	61	5013
2026-01-28 02:19:50.67	289.75	9.75	-44.7	-47.8	15.6	0.00e+00	0	40	0	640679936	61	4993
2026-01-28 02:19:51.66	289.60	9.70	-44.8	-47.9	15.5	0.00e+00	0	40	0	642777088	61	5075
2026-01-28 02:19:52.65	289.45	9.66	-44.6	-47.7	15.6	0.00e+00	0	40	0	643825664	61	4980
2026-01-28 02:19:53.64	289.29	9.62	-44.8	-47.9	15.4	0.00e+00	0	40	0	645922816	61	5093
2026-01-28 02:19:54.64	289.14	9.58	-45.1	-48.4	15.0	0.00e+00	0	40	0	648019968	61	5363
2026-01-28 02:19:55.63	288.99	9.54	-45.1	-48.4	15.0	7.00e-07	0	40	0	650117120	61	5391
2026-01-28 02:19:56.62	288.84	9.49	-45.3	-48.9	14.5	0.00e+00	0	40	0	651165696	61	5665
2026-01-28 02:19:57.62	288.68	9.45	-45.5	-49.2	14.2	1.50e-06	0	40	0	653262848	61	5892
2026-01-28 02:19:58.61	288.53	9.41	-45.8	-49.8	13.7	1.50e-06	0	40	0	655360000	62	5933
2026-01-28 02:19:59.60	288.38	9.37	-45.7	-49.7	13.8	8.30e-06	0	40	0	657457152	62	5871
2026-01-28 02:20:00.60	288.23	9.32	-46.0	-50.2	13.2	1.44e-05	0	40	0	659554304	62	6260
2026-01-28 02:20:01.59	288.08	9.28	-45.9	-50.1	13.4	1.29e-05	0	40	0	660602880	62	6147
2026-01-28 02:20:02.58	287.93	9.24	-45.9	-49.9	13.5	9.90e-06	0	40	0	662700032	62	6052
2026-01-28 02:20:03.57	287.79	9.19	-45.9	-49.9	13.5	5.30e-06	0	40	0	664797184	62	6061
2026-01-28 02:20:04.57	287.64	9.15	-45.7	-49.7	13.8	9.10e-06	0	41	0	666894336	62	5857
2026-01-28 02:20:05.56	287.49	9.11	-45.5	-49.3	14.1	3.00e-06	0	40	0	667942912	62	5600
2026-01-28 02:20:06.55	287.34	9.06	-45.3	-48.8	14.7	0.00e+00	0	40	0	670040064	62	5298
2026-01-28 02:20:07.55	287.19	9.02	-45.3	-48.8	14.5	1.50e-06	0	40	0	672137216	62	5327
2026-01-28 02:20:08.54	287.05	8.98	-45.5	-49.1	14.4	7.00e-07	0	40	0	674234368	62	5494
2026-01-28 02:20:09.53	286.90	8.93	-49.3	-63.1	3.8	1.02e+00	0	40	104	675282944	69	18373
2026-01-28 02:20:10.52	286.76	8.89	-49.3	-63.8	3.8	1.49e+00	0	40	104	675282944	69	19879
2026-01-28 02:20:11.52	286.61	8.85	-49.3	-64.4	3.8	1.49e+00	0	40	104	675282944	69	21322
2026-01-28 02:20:12.51	286.47	8.80	-49.3	-64.6	3.8	1.49e+00	0	40	104	675282944	69	21982
2026-01-28 02:20:13.50	286.32	8.76	-49.3	-64.7	3.8	1.49e+00	0	40	104	675282944	69	22024
2026-01-28 02:20:14.50	286.18	8.71	-49.3	-64.6	3.8	1.49e+00	0	40	104	675282944	69	21897
2026-01-28 02:20:15.49	286.04	8.67	-49.3	-64.6	3.8	1.49e+00	0	40	104	675282944	69	21870
2026-01-28 02:20:16.48	285.89	8.63	-49.3	-64.6	3.8	1.49e+00	0	40	104	675282944	69	21854
2026-01-28 02:20:17.48	285.75	8.58	-49.3	-64.7	3.8	1.49e+00	0	40	104	675282944	69	22025
2026-01-28 02:20:18.47	285.61	8.54	-49.3	-64.6	3.8	1.49e+00	0	40	104	675282944	69	21870
2026-01-28 02:20:19.46	285.47	8.49	-49.3	-64.6	3.8	1.49e+00	0	40	104	675282944	69	21840
2026-01-28 02:20:20.46	285.32	8.45	-49.3	-64.5	3.8	1.49e+00	0	40	104	675282944	69	21626
2026-01-28 02:20:21.45	285.18	8.40	-49.3	-64.5	3.8	1.49e+00	0	40	104	675282944	69	21723
2026-01-28 02:20:22.44	285.04	8.36	-49.3	-64.5	3.8	1.49e+00	0	40	104	675282944	69	21576
2026-01-28 02:20:23.43	284.91	8.31	-49.3	-64.6	3.8	1.49e+00	0	40	104	675282944	69	21868
2026-01-28 02:20:24.43	284.76	8.27	-49.3	-64.6	3.8	1.49e+00	0	40	104	675282944	69	21977
2026-01-28 02:20:25.42	284.63	8.22	-49.3	-64.7	3.8	1.49e+00	0	40	104	675282944	69	22038
2026-01-28 02:20:26.41	284.49	8.18	-49.3	-64.6	3.8	1.49e+00	0	40	104	675282944	69	21983
2026-01-28 02:20:27.40	284.35	8.13	-49.3	-64.6	3.8	1.49e+00	0	40	104	675282944	69	21897
2026-01-28 02:20:28.40	284.21	8.09	-49.3	-64.6	3.8	1.49e+00	0	40	104	675282944	69	21892
2026-01-28 02:20:29.39	284.07	8.04	-49.3	-64.6	3.8	1.49e+00	0	40	104	675282944	69	21819
2026-01-28 02:20:30.38	283.94	8.00	-49.3	-64.6	3.8	1.49e+00	0	40	104	675282944	69	21867
2026-01-28 02:20:31.38	283.80	7.95	-49.3	-64.7	3.8	1.49e+00	0	40	104	675282944	69	22051
2026-01-28 02:20:32.37	283.67	7.90	-49.3	-64.7	3.8	1.49e+00	0	40	104	675282944	69	22122
2026-01-28 02:20:33.36	283.53	7.86	-49.3	-64.7	3.8	1.49e+00	0	40	104	675282944	69	22043
2026-01-28 02:20:34.36	283.39	7.81	-49.3	-64.7	3.8	1.49e+00	0	40	104	675282944	69	22036
2026-01-28 02:20:35.35	283.26	7.77	-49.3	-64.6	3.8	1.49e+00	0	40	104	675282944	69	21927
2026-01-28 02:20:36.34	283.13	7.72	-49.3	-64.6	3.8	1.49e+00	0	40	104	675282944	69	21926
2026-01-28 02:20:37.33	282.99	7.67	-49.3	-64.7	3.8	1.49e+00	0	40	104	675282944	69	22084
2026-01-28 02:20:38.33	282.86	7.63	-49.3	-64.6	3.8	1.49e+00	0	40	104	675282944	69	21972
2026-01-28 02:20:39.32	282.73	7.58	-49.3	-64.7	3.8	1.49e+00	0	40	104	675282944	69	22046
2026-01-28 02:20:40.31	282.59	7.54	-49.3	-64.6	3.8	1.49e+00	0	40	104	675282944	69	22001
2026-01-28 02:20:41.31	282.46	7.49	-49.3	-64.6	3.8	1.49e+00	0	40	104	675282944	69	21980
2026-01-28 02:20:42.30	282.33	7.44	-49.3	-64.6	3.8	1.49e+00	0	40	104	675282944	69	21945
2026-01-28 02:20:43.29	282.20	7.40	-49.3	-64.6	3.8	1.49e+00	0	40	104	675282944	69	21894
2026-01-28 02:20:44.29	282.07	7.35	-49.3	-64.7	3.8	1.49e+00	0	40	104	675282944	69	22033
2026-01-28 02:20:45.28	281.94	7.30	-49.3	-64.7	3.8	1.49e+00	0	40	104	675282944	69	22060
2026-01-28 02:20:46.27	281.81	7.26	-49.3	-64.7	3.8	1.49e+00	0	40	104	675282944	69	22107
2026-01-28 02:20:47.26	281.68	7.21	-49.3	-64.7	3.8	1.49e+00	0	40	104	675282944	69	22114
2026-01-28 02:20:48.26	281.55	7.16	-49.3	-64.6	3.8	1.49e+00	0	40	104	675282944	69	21983
2026-01-28 02:20:49.25	281.42	7.12	-49.3	-64.7	3.8	1.49e+00	0	40	104	675282944	69	22080
2026-01-28 02:20:50.24	281.29	7.07	-49.3	-64.7	3.8	1.49e+00	0	40	104	675282944	69	22096
2026-01-28 02:20:51.24	281.16	7.02	-49.3	-64.7	3.8	1.49e+00	0	40	104	675282944	69	22085
2026-01-28 02:20:52.23	281.04	6.98	-49.3	-64.7	3.8	1.49e+00	0	40	104	675282944	69	22035
2026-01-28 02:20:53.22	280.91	6.93	-49.3	-64.7	3.8	1.49e+00	0	40	104	675282944	69	22066
2026-01-28 02:20:54.22	280.78	6.88	-49.3	-64.7	3.8	1.49e+00	0	40	104	675282944	69	22040
2026-01-28 02:20:55.21	280.66	6.84	-49.3	-64.6	3.8	1.49e+00	0	40	104	675282944	69	21947
2026-01-28 02:20:56.20	280.53	6.79	-49.3	-64.7	3.8	1.49e+00	0	40	104	675282944	69	22019
2026-01-28 02:20:57.19	280.41	6.74	-49.3	-64.7	3.8	1.49e+00	0	40	104	675282944	69	22061
2026-01-28 02:20:58.19	280.28	6.70	-49.3	-64.6	3.8	1.49e+00	0	40	104	675282944	69	21962
2026-01-28 02:20:59.18	280.16	6.65	-49.3	-64.7	3.8	1.49e+00	0	40	104	675282944	69	22008
2026-01-28 02:21:00.17	280.03	6.60	-49.3	-64.6	3.8	1.49e+00	0	40	104	675282944	69	21992
2026-01-28 02:21:01.17	279.91	6.55	-49.3	-64.6	3.8	1.49e+00	0	40	104	675282944	69	21991
2026-01-28 02:21:02.16	279.78	6.51	-49.3	-64.7	3.8	1.49e+00	0	41	104	675282944	69	22038
2026-01-28 02:21:03.15	279.66	6.46	-49.3	-64.6	3.8	1.49e+00	0	40	104	675282944	69	21990
2026-01-28 02:21:04.15	279.54	6.41	-49.3	-64.6	3.8	1.49e+00	0	40	104	675282944	69	22007
2026-01-28 02:21:05.14	279.42	6.36	-49.3	-64.7	3.8	1.49e+00	0	40	104	675282944	69	22058
2026-01-28 02:21:06.13	279.30	6.32	-49.3	-64.7	3.8	1.49e+00	0	40	104	675282944	69	22051
2026-01-28 02:21:07.13	279.17	6.27	-49.3	-64.7	3.8	1.49e+00	0	40	104	675282944	69	22018
2026-01-28 02:21:08.12	279.05	6.22	-49.3	-64.7	3.8	1.49e+00	0	40	104	675282944	69	22080
2026-01-28 02:21:09.11	278.93	6.18	-49.3	-64.7	3.8	1.49e+00	0	40	104	675282944	69	22036
2026-01-28 02:21:10.10	278.81	6.13	-49.3	-64.7	3.8	1.49e+00	0	40	104	675282944	69	22015
2026-01-28 02:21:11.10	278.69	6.08	-49.3	-64.7	3.8	1.49e+00	0	40	104	675282944	69	22031
2026-01-28 02:21:12.09	278.57	6.03	-49.3	-64.6	3.8	1.49e+00	0	40	104	675282944	69	21988
2026-01-28 02:21:13.08	278.46	5.98	-49.3	-64.6	3.8	1.49e+00	0	40	104	675282944	69	21989
2026-01-28 02:21:14.08	278.34	5.94	-49.3	-64.6	3.8	1.49e+00	0	40	104	675282944	69	21997
2026-01-28 02:21:15.07	278.22	5.89	-49.3	-64.7	3.8	1.49e+00	0	40	104	675282944	69	22069
2026-01-28 02:21:16.06	278.10	5.84	-49.3	-64.7	3.8	1.49e+00	0	40	104	675282944	69	22018
2026-01-28 02:21:17.06	277.98	5.79	-49.3	-64.7	3.8	1.49e+00	0	40	104	675282944	69	22052
2026-01-28 02:21:18.05	277.87	5.75	-49.3	-64.7	3.8	1.49e+00	0	40	104	675282944	69	22067
2026-01-28 02:21:19.04	277.75	5.70	-49.3	-64.7	3.8	1.49e+00	0	40	104	675282944	69	22027
2026-01-28 02:21:20.03	277.63	5.65	-49.3	-64.7	3.8	1.49e+00	0	40	104	675282944	69	22018
2026-01-28 02:21:21.03	277.52	5.60	-49.3	-64.7	3.8	1.49e+00	0	40	104	675282944	69	22036
2026-01-28 02:21:22.02	277.40	5.56	-49.3	-64.7	3.8	1.49e+00	0	40	104	675282944	69	22014
2026-01-28 02:21:23.01	277.29	5.51	-49.3	-64.6	3.8	1.49e+00	0	41	104	675282944	69	21981
2026-01-28 02:21:24.01	277.17	5.46	-49.3	-64.7	3.8	1.49e+00	0	40	104	675282944	69	22025
2026-01-28 02:21:25.00	277.06	5.41	-49.1	-64.5	3.8	1.49e+00	0	40	104	675282944	69	21639
2026-01-28 02:21:25.99	276.94	5.36	-49.1	-64.6	3.8	1.49e+00	0	40	104	675282944	69	21806
2026-01-28 02:21:26.99	276.83	5.32	-49.1	-64.5	3.9	1.49e+00	0	40	104	675282944	69	21644
2026-01-28 02:21:27.98	276.72	5.27	-49.2	-64.5	3.9	1.49e+00	0	40	104	675282944	69	21607
2026-01-28 02:21:28.97	276.61	5.22	-49.1	-64.6	3.8	1.49e+00	0	40	104	675282944	69	21808
2026-01-28 02:21:29.97	276.49	5.17	-49.1	-64.6	3.8	1.49e+00	0	40	104	675282944	69	21855
2026-01-28 02:21:30.96	276.38	5.12	-49.1	-64.6	3.8	1.49e+00	0	40	104	675282944	69	21784
2026-01-28 02:21:31.95	276.27	5.08	-49.2	-64.5	3.8	1.49e+00	0	40	104	675282944	69	21716
2026-01-28 02:21:32.94	276.16	5.03	-49.1	-64.5	3.8	1.49e+00	0	40	104	675282944	69	21625
2026-01-28 02:21:33.94	276.05	4.98	-49.1	-64.6	3.8	1.49e+00	0	40	104	675282944	69	21790

#Closed at: 2026-01-28 02:21:34
#Recorded file [675 MB]: D:/Data/31040_260128_051251.dat