passes_logs/2026/01/28/T1/T1__20260128_005339_AQUA_rec.log

#Pass ID: 20260128_005339_AQUA
#Satellite: AQUA
#Configuration: AQUA
#almurnet v.1.7.20251203
#Start time: 2026-01-28 00:53:40

#Version: 2.0.20230620
#Station: T1
#Location: 37.570604 lon 55.790049 lat
#TLE: 1 27424U 02022A   26027.49103455  .00001862  00000+0  38220-3 0  9997
#TLE: 2 27424  98.4102 354.1298 0001846  63.8060  46.9979 14.61867034262711

#Time	Az	El	Level	Level2	SNR	BER	BlckErr	Temp	State	Recorded	gain1	gain2
2026-01-28 00:53:40.83	20.58	5.09	-51.8	-72.0	3.8	7.48e-01	0	41	0	0	74	38650
2026-01-28 00:53:41.82	20.61	5.16	-52.1	-72.1	3.8	7.45e-01	0	41	104	0	75	36768
2026-01-28 00:53:42.81	20.65	5.23	-52.1	-72.1	3.8	7.45e-01	0	41	104	0	75	36775
2026-01-28 00:53:43.80	20.69	5.31	-52.1	-72.1	3.8	7.41e-01	0	41	104	0	75	36705
2026-01-28 00:53:44.80	20.73	5.38	-51.8	-72.1	3.8	7.47e-01	0	41	104	0	75	36659
2026-01-28 00:53:45.79	20.77	5.45	-51.7	-72.0	3.8	7.44e-01	0	41	104	0	75	36477
2026-01-28 00:53:46.78	20.81	5.53	-51.9	-72.0	3.8	7.46e-01	0	41	104	0	75	36358
2026-01-28 00:53:47.78	20.85	5.60	-51.8	-72.0	3.8	7.47e-01	0	41	104	0	75	36328
2026-01-28 00:53:48.77	20.88	5.68	-51.7	-72.0	3.8	7.48e-01	0	42	104	0	75	36335
2026-01-28 00:53:49.76	20.92	5.75	-51.8	-72.0	3.8	7.45e-01	0	41	104	0	75	36140
2026-01-28 00:53:50.76	20.96	5.83	-50.7	-71.9	3.7	7.44e-01	0	41	104	0	73	40314
2026-01-28 00:53:51.75	21.00	5.90	-50.6	-71.8	3.8	7.46e-01	0	42	104	0	73	39900
2026-01-28 00:53:52.74	21.04	5.97	-50.0	-71.7	3.8	7.46e-01	0	41	104	0	72	41682
2026-01-28 00:53:53.74	21.08	6.05	-51.4	-71.7	3.8	7.49e-01	0	42	104	0	73	39178
2026-01-28 00:53:54.73	21.12	6.13	-50.9	-71.5	3.9	7.48e-01	0	42	104	0	72	40853
2026-01-28 00:53:55.72	21.16	6.20	-50.5	-71.4	3.8	7.44e-01	0	42	104	0	72	40482
2026-01-28 00:53:56.72	21.20	6.28	-49.4	-71.1	3.7	7.47e-01	0	42	104	0	70	43845
2026-01-28 00:53:57.71	21.25	6.35	-50.0	-70.7	3.8	7.47e-01	0	42	104	0	70	41931
2026-01-28 00:53:58.70	21.29	6.43	-50.0	-71.0	3.8	7.45e-01	0	42	104	0	70	42936
2026-01-28 00:53:59.69	21.33	6.51	-50.0	-71.0	3.8	7.43e-01	0	42	104	0	70	42975
2026-01-28 00:54:00.69	21.37	6.58	-50.0	-71.0	3.8	7.49e-01	0	42	104	0	70	43053
2026-01-28 00:54:01.68	21.41	6.66	-50.0	-71.0	3.8	7.46e-01	0	42	104	0	70	43209
2026-01-28 00:54:02.67	21.45	6.74	-50.0	-71.0	3.8	7.47e-01	0	42	104	0	70	43262
2026-01-28 00:54:03.67	21.50	6.82	-50.0	-70.9	3.8	7.48e-01	0	42	104	0	70	42673
2026-01-28 00:54:04.66	21.54	6.89	-50.0	-70.7	3.8	7.50e-01	0	42	104	0	70	41467
2026-01-28 00:54:05.65	21.58	6.97	-50.0	-70.2	3.8	7.46e-01	0	42	104	0	70	39447
2026-01-28 00:54:06.65	21.62	7.05	-50.0	-69.6	3.8	7.42e-01	0	42	104	0	70	36538
2026-01-28 00:54:07.64	21.67	7.13	-50.0	-68.9	3.8	7.40e-01	0	42	104	0	70	33834
2026-01-28 00:54:08.63	21.71	7.21	-50.0	-67.7	4.2	7.33e-01	0	42	104	0	70	29579
2026-01-28 00:54:09.62	21.75	7.29	-49.9	-66.9	4.5	7.24e-01	0	42	104	0	70	26923
2026-01-28 00:54:10.62	21.80	7.37	-49.9	-66.3	4.6	7.15e-01	0	42	104	0	70	25072
2026-01-28 00:54:11.61	21.84	7.45	-49.9	-66.6	4.0	7.39e-01	0	42	104	0	70	26023
2026-01-28 00:54:12.60	21.89	7.53	-49.9	-65.6	5.1	7.06e-01	0	42	0	0	70	23094
2026-01-28 00:54:13.60	21.93	7.61	-49.9	-65.5	5.1	7.02e-01	0	42	0	0	70	22960
2026-01-28 00:54:14.59	21.97	7.69	-49.9	-65.5	5.2	7.10e-01	0	42	104	0	70	22868
2026-01-28 00:54:15.58	22.02	7.77	-49.9	-65.4	5.2	7.05e-01	0	42	0	0	70	22719
2026-01-28 00:54:16.58	22.07	7.85	-49.9	-65.4	5.2	7.01e-01	0	42	0	0	70	22771
2026-01-28 00:54:17.57	22.11	7.93	-49.9	-65.7	5.1	7.08e-01	0	42	0	0	70	23415
2026-01-28 00:54:18.56	22.16	8.01	-49.9	-65.9	4.9	7.13e-01	0	42	0	524288	70	23974
2026-01-28 00:54:19.56	22.20	8.09	-49.9	-66.6	4.0	7.41e-01	0	42	104	524288	70	26063
2026-01-28 00:54:20.55	22.25	8.18	-49.9	-66.6	4.5	7.44e-01	0	42	104	524288	70	25940
2026-01-28 00:54:21.54	22.29	8.26	-49.9	-65.9	4.8	7.10e-01	0	42	104	524288	70	24080
2026-01-28 00:54:22.53	22.34	8.34	-49.9	-65.5	5.1	7.09e-01	0	43	0	524288	70	22934
2026-01-28 00:54:23.53	22.39	8.43	-49.9	-65.0	5.4	6.95e-01	0	43	0	524288	70	21616
2026-01-28 00:54:24.52	22.44	8.51	-49.8	-64.2	6.0	6.84e-01	0	43	0	2097152	70	19643
2026-01-28 00:54:25.51	22.48	8.59	-49.8	-63.2	6.8	6.68e-01	0	43	0	3670016	70	17557
2026-01-28 00:54:26.51	22.53	8.68	-49.7	-61.9	8.0	6.48e-01	0	43	0	5767168	70	15205
2026-01-28 00:54:27.50	22.58	8.76	-49.6	-61.2	8.8	6.34e-01	0	43	0	7340032	70	13887
2026-01-28 00:54:28.49	22.63	8.85	-49.5	-60.2	9.9	6.24e-01	0	43	0	9437184	70	12418
2026-01-28 00:54:29.49	22.68	8.93	-49.3	-59.2	11.0	6.17e-01	0	43	0	11534336	70	11031
2026-01-28 00:54:30.48	22.73	9.02	-49.2	-58.3	11.8	6.11e-01	0	43	0	13107200	70	9962
2026-01-28 00:54:31.47	22.77	9.10	-49.0	-57.2	12.8	6.06e-01	0	43	0	15204352	70	8859
2026-01-28 00:54:32.46	22.82	9.19	-49.5	-60.3	10.4	6.20e-01	0	43	0	16777216	69	13362
2026-01-28 00:54:33.46	22.87	9.27	-49.5	-60.6	8.0	6.34e-01	0	43	104	17301504	70	13022
2026-01-28 00:54:34.45	22.92	9.36	-47.8	-52.5	18.0	6.05e-01	0	43	0	18350080	66	6443
2026-01-28 00:54:35.44	22.97	9.45	-47.7	-52.4	17.6	6.06e-01	0	43	0	20447232	67	6061
2026-01-28 00:54:36.44	23.03	9.53	-45.8	-49.5	20.6	6.02e-01	0	43	0	22544384	63	5441
2026-01-28 00:54:37.43	23.08	9.62	-45.7	-49.3	20.7	6.04e-01	0	43	0	24117248	63	5307
2026-01-28 00:54:38.42	23.13	9.71	-45.6	-49.0	21.1	6.03e-01	0	43	0	26214400	63	5101
2026-01-28 00:54:39.41	23.18	9.80	-45.0	-48.1	22.0	6.03e-01	0	43	0	27787264	62	4905
2026-01-28 00:54:40.41	23.23	9.89	-45.0	-48.1	22.0	6.04e-01	0	43	0	29884416	62	4898
2026-01-28 00:54:41.40	23.28	9.97	-44.7	-47.7	22.4	6.04e-01	0	43	0	31457280	61	4978
2026-01-28 00:54:42.39	23.34	10.06	-44.7	-47.7	22.5	6.03e-01	0	43	0	33554432	61	4946
2026-01-28 00:54:43.38	23.39	10.15	-44.7	-47.7	22.5	6.05e-01	0	43	0	35651584	61	4952
2026-01-28 00:54:44.38	23.44	10.24	-44.7	-47.6	22.5	6.05e-01	0	43	0	37224448	61	4918
2026-01-28 00:54:45.37	23.49	10.33	-44.5	-47.4	22.7	6.05e-01	0	43	0	38797312	61	4797
2026-01-28 00:54:46.36	23.55	10.42	-44.4	-47.3	22.8	6.03e-01	0	43	0	40894464	60	5037
2026-01-28 00:54:47.35	23.60	10.51	-44.3	-47.2	22.9	6.03e-01	0	43	0	42991616	60	4951
2026-01-28 00:54:48.35	23.66	10.61	-44.3	-47.1	23.0	6.02e-01	0	43	0	44564480	60	4900
2026-01-28 00:54:49.34	23.71	10.70	-44.3	-47.1	23.0	6.04e-01	0	43	0	46661632	60	4906
2026-01-28 00:54:50.33	23.77	10.79	-44.4	-47.2	22.9	6.02e-01	0	43	0	48234496	60	4972
2026-01-28 00:54:51.33	23.82	10.88	-44.3	-47.2	23.0	6.02e-01	0	43	0	50331648	60	4927
2026-01-28 00:54:52.32	23.88	10.97	-44.2	-47.0	23.2	6.03e-01	0	43	0	51904512	60	4844
2026-01-28 00:54:53.31	23.93	11.07	-44.2	-47.0	23.1	6.03e-01	0	43	0	54001664	60	4831
2026-01-28 00:54:54.31	23.99	11.16	-44.1	-46.9	23.2	6.04e-01	0	43	0	55574528	60	4787
2026-01-28 00:54:55.30	24.05	11.25	-44.1	-47.0	23.2	6.02e-01	0	43	0	57671680	60	4830
2026-01-28 00:54:56.29	24.11	11.35	-44.3	-47.2	23.0	6.03e-01	0	43	0	59768832	60	4953
2026-01-28 00:54:57.28	24.16	11.44	-44.2	-47.0	23.2	6.02e-01	0	43	0	61341696	60	4847
2026-01-28 00:54:58.28	24.22	11.54	-44.2	-47.0	23.1	6.03e-01	0	43	0	63438848	60	4858
2026-01-28 00:54:59.27	24.28	11.63	-44.3	-47.2	23.0	6.03e-01	0	43	0	65011712	60	4927
2026-01-28 00:55:00.26	24.34	11.73	-44.2	-47.1	23.1	6.03e-01	0	43	0	67108864	60	4879
2026-01-28 00:55:01.25	24.40	11.82	-44.3	-47.1	23.0	6.01e-01	0	43	0	68681728	60	4908
2026-01-28 00:55:02.25	24.46	11.92	-44.2	-47.1	23.1	6.00e-01	0	43	0	70778880	60	4890
2026-01-28 00:55:03.24	24.52	12.02	-44.2	-47.1	23.1	6.04e-01	0	43	0	72351744	60	4887
2026-01-28 00:55:04.23	24.58	12.11	-44.1	-47.1	23.1	6.06e-01	0	43	0	74448896	60	4883
2026-01-28 00:55:05.22	24.64	12.21	-44.0	-47.0	23.2	6.05e-01	0	43	0	76021760	60	4824
2026-01-28 00:55:06.22	24.70	12.31	-44.0	-47.0	23.2	6.03e-01	0	43	0	78118912	60	4817
2026-01-28 00:55:07.21	24.76	12.41	-44.0	-47.0	23.1	6.02e-01	0	43	0	80216064	60	4838
2026-01-28 00:55:08.20	24.82	12.51	-44.0	-47.0	23.2	6.04e-01	0	43	0	81788928	60	4823
2026-01-28 00:55:09.20	24.89	12.61	-44.1	-47.1	23.2	6.04e-01	0	43	0	83886080	59	5208
2026-01-28 00:55:10.19	24.95	12.71	-44.0	-47.1	23.2	6.04e-01	0	43	0	85458944	59	5164
2026-01-28 00:55:11.18	25.01	12.81	-43.9	-47.0	23.3	6.02e-01	0	43	0	87556096	59	5113
2026-01-28 00:55:12.18	25.08	12.91	-43.9	-47.0	23.3	6.04e-01	0	43	0	89128960	59	5112
2026-01-28 00:55:13.17	25.14	13.01	-43.9	-46.8	23.4	6.05e-01	0	43	0	91226112	59	5033
2026-01-28 00:55:14.16	25.20	13.11	-43.9	-46.9	23.4	6.06e-01	0	43	0	92798976	59	5063
2026-01-28 00:55:15.15	25.27	13.21	-43.8	-46.9	23.4	6.03e-01	0	43	0	94896128	59	5047
2026-01-28 00:55:16.15	25.33	13.32	-43.8	-46.8	23.3	6.05e-01	0	43	0	96993280	59	5040
2026-01-28 00:55:17.14	25.40	13.42	-43.8	-46.9	23.4	6.06e-01	0	43	0	98566144	59	5043
2026-01-28 00:55:18.13	25.47	13.52	-43.7	-46.7	23.6	6.02e-01	0	43	0	100663296	59	4942
2026-01-28 00:55:19.13	25.53	13.63	-43.8	-46.7	23.5	6.03e-01	0	43	0	102236160	59	4977
2026-01-28 00:55:20.12	25.60	13.73	-43.8	-46.7	23.5	6.04e-01	0	43	0	104333312	59	4982
2026-01-28 00:55:21.11	25.67	13.84	-43.9	-46.8	23.5	6.03e-01	0	43	0	105906176	59	4999
2026-01-28 00:55:22.10	25.74	13.94	-43.9	-46.7	23.6	6.01e-01	0	43	0	108003328	59	4945
2026-01-28 00:55:23.10	25.81	14.05	-44.0	-46.8	23.5	6.01e-01	0	43	0	109576192	59	4995
2026-01-28 00:55:24.09	25.87	14.15	-44.0	-46.8	23.5	6.04e-01	0	43	0	111673344	59	4993
2026-01-28 00:55:25.08	25.94	14.26	-43.9	-46.7	23.5	6.02e-01	0	43	0	113246208	59	4971
2026-01-28 00:55:26.07	26.01	14.37	-43.9	-46.6	23.6	6.03e-01	0	43	0	115343360	59	4925
2026-01-28 00:55:27.07	26.09	14.47	-43.8	-46.5	23.7	6.02e-01	0	43	0	117440512	59	4850
2026-01-28 00:55:28.06	26.16	14.58	-43.8	-46.5	23.8	6.03e-01	0	43	0	119013376	59	4867
2026-01-28 00:55:29.05	26.23	14.69	-43.8	-46.6	23.7	6.03e-01	0	43	0	121110528	59	4873
2026-01-28 00:55:30.05	26.30	14.80	-43.9	-46.6	23.7	6.05e-01	0	43	0	122683392	59	4911
2026-01-28 00:55:31.04	26.37	14.91	-43.8	-46.5	23.8	6.04e-01	0	43	0	124780544	59	4859
2026-01-28 00:55:32.03	26.45	15.02	-43.7	-46.4	23.9	6.02e-01	0	43	0	126353408	59	4809
2026-01-28 00:55:33.03	26.52	15.13	-43.7	-46.5	23.8	6.03e-01	0	43	0	128450560	59	4843
2026-01-28 00:55:34.02	26.60	15.24	-43.7	-46.4	23.9	6.06e-01	0	43	0	130023424	59	4811
2026-01-28 00:55:35.01	26.67	15.35	-43.7	-46.5	23.9	6.03e-01	0	43	0	132120576	59	4837
2026-01-28 00:55:36.00	26.75	15.47	-43.7	-46.6	23.8	6.03e-01	0	43	0	134217728	59	4875
2026-01-28 00:55:37.00	26.82	15.58	-43.6	-46.4	23.9	6.04e-01	0	43	0	135790592	59	4783
2026-01-28 00:55:37.99	26.90	15.69	-43.6	-46.4	23.9	6.02e-01	0	43	0	137887744	59	4803
2026-01-28 00:55:38.98	26.98	15.81	-43.5	-46.4	23.9	6.02e-01	0	43	0	139460608	59	4793
2026-01-28 00:55:39.98	27.06	15.92	-43.4	-46.3	24.0	6.04e-01	0	43	0	141557760	58	5016
2026-01-28 00:55:40.97	27.13	16.04	-43.4	-46.3	24.0	6.03e-01	0	43	0	143130624	58	5040
2026-01-28 00:55:41.96	27.21	16.15	-43.4	-46.3	24.1	6.04e-01	0	43	0	145227776	58	5001
2026-01-28 00:55:42.95	27.29	16.27	-43.4	-46.2	24.1	6.03e-01	0	43	0	146800640	58	4983
2026-01-28 00:55:43.95	27.37	16.38	-43.4	-46.3	24.1	6.04e-01	0	43	0	148897792	58	4993
2026-01-28 00:55:44.94	27.46	16.50	-43.4	-46.3	24.1	6.02e-01	0	43	0	150994944	58	4996
2026-01-28 00:55:45.93	27.54	16.62	-43.6	-46.5	23.9	6.03e-01	0	43	0	152567808	58	5125
2026-01-28 00:55:46.93	27.62	16.74	-43.4	-46.2	24.1	6.02e-01	0	43	0	154664960	58	4977
2026-01-28 00:55:47.92	27.70	16.86	-43.5	-46.3	24.0	6.01e-01	0	43	0	156237824	58	5028
2026-01-28 00:55:48.91	27.79	16.98	-43.5	-46.3	24.1	6.05e-01	0	44	0	158334976	58	4995
2026-01-28 00:55:49.91	27.87	17.10	-43.6	-46.4	22.2	6.03e-01	0	44	0	159907840	58	5060
2026-01-28 00:55:50.90	27.96	17.22	-43.5	-46.3	24.0	6.04e-01	0	43	0	162004992	58	4998
2026-01-28 00:55:51.89	28.04	17.34	-43.6	-46.4	23.9	6.05e-01	0	43	0	163577856	58	5064
2026-01-28 00:55:52.88	28.13	17.46	-43.6	-46.4	24.0	6.02e-01	0	43	0	165675008	58	5050
2026-01-28 00:55:53.88	28.22	17.58	-43.6	-46.4	24.0	6.02e-01	0	43	0	167247872	58	5043
2026-01-28 00:55:54.87	28.30	17.71	-43.6	-46.4	24.0	6.02e-01	0	44	0	169345024	58	5045
2026-01-28 00:55:55.86	28.39	17.83	-43.6	-46.3	24.0	6.03e-01	0	44	0	171442176	58	5001
2026-01-28 00:55:56.85	28.48	17.95	-43.6	-46.2	24.1	6.08e-01	0	43	0	173015040	58	4935
2026-01-28 00:55:57.85	28.57	18.08	-43.6	-46.1	24.2	6.02e-01	0	43	0	175112192	58	4909
2026-01-28 00:55:58.84	28.66	18.21	-43.6	-46.1	24.2	6.04e-01	0	43	0	176685056	58	4881
2026-01-28 00:55:59.83	28.75	18.33	-43.7	-46.2	24.1	6.05e-01	0	43	0	178782208	58	4982
2026-01-28 00:56:00.83	28.85	18.46	-43.8	-46.3	24.1	6.06e-01	0	43	0	180355072	58	4998
2026-01-28 00:56:01.82	28.94	18.59	-43.9	-46.4	23.9	6.02e-01	0	43	0	182452224	58	5094
2026-01-28 00:56:02.81	29.03	18.72	-43.9	-46.4	23.9	6.03e-01	0	43	0	184025088	58	5071
2026-01-28 00:56:03.81	29.13	18.85	-43.7	-46.3	24.1	6.03e-01	0	43	0	186122240	58	4987
2026-01-28 00:56:04.80	29.22	18.98	-43.8	-46.4	24.0	6.04e-01	0	44	0	188219392	58	5045
2026-01-28 00:56:05.79	29.32	19.11	-43.7	-46.2	23.3	6.04e-01	0	43	0	189792256	58	4973
2026-01-28 00:56:06.79	29.42	19.24	-43.8	-46.4	24.0	6.03e-01	0	43	0	191889408	58	5047
2026-01-28 00:56:07.78	29.52	19.37	-43.6	-46.2	24.1	6.02e-01	0	43	0	193462272	58	4961
2026-01-28 00:56:08.77	29.62	19.50	-43.5	-46.1	24.2	6.00e-01	0	44	0	195559424	58	4892
2026-01-28 00:56:09.77	29.72	19.64	-43.5	-46.0	24.3	6.01e-01	0	43	0	197132288	58	4860
2026-01-28 00:56:10.76	29.82	19.77	-43.5	-46.1	24.3	6.04e-01	0	43	0	199229440	58	4881
2026-01-28 00:56:11.75	29.92	19.90	-43.6	-46.2	24.2	6.06e-01	0	43	0	200802304	58	4972
2026-01-28 00:56:12.74	30.02	20.04	-43.6	-46.3	24.1	6.03e-01	0	43	0	202899456	58	5015
2026-01-28 00:56:13.74	30.13	20.18	-43.6	-46.2	24.2	6.05e-01	0	43	0	204996608	58	4971
2026-01-28 00:56:14.73	30.23	20.31	-43.7	-46.3	24.1	6.03e-01	0	44	0	206569472	58	5021
2026-01-28 00:56:15.72	30.33	20.45	-43.7	-46.4	24.0	6.02e-01	0	43	0	208666624	58	5051
2026-01-28 00:56:16.71	30.44	20.59	-43.8	-46.5	24.0	6.01e-01	0	44	0	210239488	58	5106
2026-01-28 00:56:17.71	30.55	20.73	-43.7	-46.3	24.1	6.05e-01	0	44	0	212336640	58	5002
2026-01-28 00:56:18.70	30.66	20.87	-43.7	-46.3	24.1	6.03e-01	0	43	0	213909504	58	5030
2026-01-28 00:56:19.69	30.77	21.01	-43.7	-46.3	24.2	6.04e-01	0	43	0	216006656	58	4985
2026-01-28 00:56:20.68	30.88	21.15	-43.7	-46.3	24.2	6.03e-01	0	43	0	217579520	58	4996
2026-01-28 00:56:21.68	30.99	21.29	-43.7	-46.3	24.1	6.03e-01	0	43	0	219676672	58	5002
2026-01-28 00:56:22.67	31.10	21.43	-43.8	-46.4	24.0	6.01e-01	0	43	0	221249536	58	5059
2026-01-28 00:56:23.66	31.21	21.58	-43.8	-46.4	24.0	6.05e-01	0	44	0	223346688	58	5094
2026-01-28 00:56:24.66	31.33	21.72	-43.8	-46.4	24.1	6.04e-01	0	44	0	225443840	58	5052
2026-01-28 00:56:25.65	31.44	21.87	-43.8	-46.4	24.0	6.04e-01	0	43	0	227016704	58	5096
2026-01-28 00:56:26.64	31.56	22.01	-43.8	-46.4	24.1	6.05e-01	0	43	0	229113856	58	5044
2026-01-28 00:56:27.64	31.68	22.16	-43.9	-46.5	24.0	6.01e-01	0	43	0	230686720	58	5101
2026-01-28 00:56:28.63	31.80	22.31	-43.9	-46.5	23.9	6.05e-01	0	43	0	232783872	58	5110
2026-01-28 00:56:29.62	31.92	22.46	-44.0	-46.7	23.8	6.06e-01	0	43	0	234356736	58	5230
2026-01-28 00:56:30.62	32.04	22.61	-44.0	-46.7	23.8	6.00e-01	0	44	0	236453888	58	5246
2026-01-28 00:56:31.61	32.16	22.76	-44.0	-46.7	23.7	6.07e-01	0	43	0	238026752	58	5265
2026-01-28 00:56:32.60	32.29	22.91	-43.9	-46.6	23.8	6.03e-01	0	43	0	240123904	58	5177
2026-01-28 00:56:33.59	32.41	23.06	-43.9	-46.6	23.8	6.02e-01	0	44	0	242221056	58	5160
2026-01-28 00:56:34.59	32.54	23.21	-43.9	-46.5	23.9	6.05e-01	0	44	0	243793920	58	5154
2026-01-28 00:56:35.58	32.66	23.37	-43.8	-46.4	24.0	6.02e-01	0	44	0	245891072	58	5069
2026-01-28 00:56:36.57	32.79	23.52	-44.0	-46.6	23.9	6.03e-01	0	43	0	247463936	58	5169
2026-01-28 00:56:37.57	32.92	23.68	-44.0	-46.6	23.9	6.04e-01	0	43	0	249561088	58	5180
2026-01-28 00:56:38.56	33.06	23.83	-44.1	-46.7	23.8	6.03e-01	0	44	0	251133952	58	5277
2026-01-28 00:56:39.55	33.19	23.99	-44.0	-46.7	23.8	6.07e-01	0	44	0	253231104	58	5248
2026-01-28 00:56:40.55	33.32	24.15	-44.0	-46.8	23.7	6.04e-01	0	44	0	254803968	58	5288
2026-01-28 00:56:41.54	33.46	24.31	-43.9	-46.5	23.9	6.02e-01	0	43	0	256901120	58	5149
2026-01-28 00:56:42.53	33.59	24.47	-43.8	-46.4	24.0	6.05e-01	0	43	0	258473984	58	5098
2026-01-28 00:56:43.52	33.73	24.63	-43.8	-46.4	24.0	6.04e-01	0	43	0	260571136	58	5098
2026-01-28 00:56:44.52	33.87	24.79	-43.8	-46.4	24.0	5.99e-01	0	44	0	262668288	58	5098
2026-01-28 00:56:45.51	34.01	24.95	-43.9	-46.5	23.9	6.05e-01	0	43	0	264241152	58	5155
2026-01-28 00:56:46.50	34.16	25.12	-44.0	-46.6	23.9	6.04e-01	0	44	0	266338304	58	5175
2026-01-28 00:56:47.49	34.30	25.28	-44.1	-46.7	23.8	6.02e-01	0	44	0	267911168	58	5232
2026-01-28 00:56:48.49	34.45	25.45	-44.0	-46.6	23.8	6.02e-01	0	44	0	270008320	58	5187
2026-01-28 00:56:49.48	34.59	25.61	-43.9	-46.5	24.0	6.04e-01	0	44	0	271581184	58	5104
2026-01-28 00:56:50.47	34.74	25.78	-43.9	-46.4	24.0	6.05e-01	0	44	0	273678336	58	5092
2026-01-28 00:56:51.46	34.89	25.95	-43.8	-46.3	24.2	6.05e-01	0	44	0	275251200	58	5021
2026-01-28 00:56:52.46	35.04	26.12	-43.9	-46.5	24.0	6.00e-01	0	43	0	277348352	58	5111
2026-01-28 00:56:53.45	35.20	26.29	-43.9	-46.5	23.9	6.02e-01	0	44	0	279445504	58	5127
2026-01-28 00:56:54.44	35.35	26.46	-43.9	-46.5	24.0	6.05e-01	0	43	0	281018368	58	5152
2026-01-28 00:56:55.44	35.51	26.63	-43.8	-46.3	24.2	6.03e-01	0	43	0	283115520	58	5037
2026-01-28 00:56:56.43	35.67	26.80	-43.8	-46.3	24.1	6.03e-01	0	43	0	284688384	58	5030
2026-01-28 00:56:57.42	35.83	26.98	-43.8	-46.3	24.2	6.02e-01	0	43	0	286785536	58	5009
2026-01-28 00:56:58.41	35.99	27.15	-43.8	-46.3	24.2	6.03e-01	0	44	0	288358400	58	5025
2026-01-28 00:56:59.41	36.16	27.33	-43.9	-46.5	24.0	6.00e-01	0	43	0	290455552	58	5148
2026-01-28 00:57:00.40	36.32	27.51	-43.9	-46.5	24.0	6.04e-01	0	43	0	292028416	58	5105
2026-01-28 00:57:01.39	36.49	27.68	-43.7	-46.2	24.3	6.03e-01	0	43	0	294125568	58	4970
2026-01-28 00:57:02.39	36.66	27.86	-43.5	-46.0	24.4	6.02e-01	0	43	0	296222720	58	4854
2026-01-28 00:57:03.38	36.83	28.04	-43.5	-46.1	24.4	6.02e-01	0	44	0	297795584	58	4885
2026-01-28 00:57:04.37	37.01	28.22	-43.5	-46.2	24.3	6.06e-01	0	43	0	299892736	58	4954
2026-01-28 00:57:05.36	37.18	28.41	-43.6	-46.2	24.2	6.02e-01	0	44	0	301465600	58	4978
2026-01-28 00:57:06.36	37.36	28.59	-43.5	-46.1	24.3	6.07e-01	0	44	0	303562752	58	4926
2026-01-28 00:57:07.35	37.54	28.77	-43.5	-46.1	24.4	6.04e-01	0	44	0	305135616	58	4889
2026-01-28 00:57:08.34	37.72	28.96	-43.6	-46.2	24.3	6.05e-01	0	44	0	307232768	58	4929
2026-01-28 00:57:09.34	37.91	29.15	-43.7	-46.2	24.2	6.03e-01	0	43	0	308805632	58	4977
2026-01-28 00:57:10.33	38.09	29.33	-43.7	-46.2	23.4	6.02e-01	0	43	0	310902784	58	4955
2026-01-28 00:57:11.32	38.28	29.52	-43.8	-46.2	24.3	6.03e-01	0	43	0	312475648	58	4966
2026-01-28 00:57:12.31	38.47	29.71	-43.8	-46.3	24.2	6.04e-01	0	44	0	314572800	58	4991
2026-01-28 00:57:13.31	38.67	29.90	-43.7	-46.2	24.3	6.03e-01	0	44	0	316669952	58	4982
2026-01-28 00:57:14.30	38.86	30.09	-43.8	-46.3	24.2	6.05e-01	0	44	0	318242816	58	5009
2026-01-28 00:57:15.29	39.06	30.28	-43.7	-46.1	24.4	6.01e-01	0	44	0	320339968	58	4917
2026-01-28 00:57:16.29	39.26	30.48	-43.7	-46.2	24.4	6.04e-01	0	44	0	321912832	58	4937
2026-01-28 00:57:17.28	39.46	30.67	-43.7	-46.1	24.4	6.05e-01	0	44	0	324009984	58	4924
2026-01-28 00:57:18.27	39.67	30.87	-43.7	-46.2	24.4	6.03e-01	0	43	0	325582848	58	4938
2026-01-28 00:57:19.27	39.87	31.07	-43.8	-46.3	24.2	6.03e-01	0	43	0	327680000	58	4993
2026-01-28 00:57:20.26	40.08	31.26	-43.9	-46.4	24.1	6.03e-01	0	43	0	329252864	58	5067
2026-01-28 00:57:21.25	40.30	31.46	-43.9	-46.4	24.1	6.02e-01	0	43	0	331350016	58	5070
2026-01-28 00:57:22.24	40.51	31.66	-43.9	-46.4	24.2	6.03e-01	0	43	0	333447168	58	5046
2026-01-28 00:57:23.24	40.73	31.86	-43.7	-46.2	24.3	6.02e-01	0	44	0	335020032	58	4949
2026-01-28 00:57:24.23	40.95	32.06	-43.8	-46.3	24.2	6.05e-01	0	44	0	337117184	58	5037
2026-01-28 00:57:25.22	41.17	32.26	-43.8	-46.3	24.3	6.03e-01	0	43	0	338690048	58	5018
2026-01-28 00:57:26.22	41.40	32.47	-43.9	-46.4	24.2	6.01e-01	0	43	0	340787200	58	5043
2026-01-28 00:57:27.21	41.63	32.67	-44.0	-46.5	24.1	6.03e-01	0	43	0	342360064	58	5102
2026-01-28 00:57:28.20	41.86	32.88	-44.1	-46.6	24.0	6.03e-01	0	43	0	344457216	58	5194
2026-01-28 00:57:29.20	42.10	33.09	-44.1	-46.6	24.0	6.04e-01	0	43	0	346030080	58	5198
2026-01-28 00:57:30.19	42.34	33.29	-44.1	-46.6	23.9	6.03e-01	0	44	0	348127232	58	5203
2026-01-28 00:57:31.18	42.58	33.50	-44.1	-46.6	23.9	6.05e-01	0	43	0	349700096	58	5210
2026-01-28 00:57:32.17	42.82	33.71	-44.3	-46.8	23.8	6.02e-01	0	43	0	351797248	59	5016
2026-01-28 00:57:33.17	43.07	33.92	-44.2	-46.7	23.9	6.03e-01	0	44	0	353894400	59	4959
2026-01-28 00:57:34.16	43.32	34.14	-44.3	-46.8	23.8	6.02e-01	0	44	0	355467264	59	5015
2026-01-28 00:57:35.15	43.58	34.35	-44.4	-47.1	23.5	6.05e-01	0	44	0	357564416	59	5170
2026-01-28 00:57:36.14	43.83	34.56	-44.3	-46.9	23.7	6.03e-01	0	43	0	359137280	59	5064
2026-01-28 00:57:37.14	44.10	34.78	-44.5	-47.1	23.6	6.05e-01	0	44	0	361234432	59	5184
2026-01-28 00:57:38.13	44.36	34.99	-44.7	-47.3	23.3	6.03e-01	0	44	0	362807296	59	5338
2026-01-28 00:57:39.12	44.63	35.21	-44.4	-47.0	23.5	6.04e-01	0	44	0	364904448	60	4858
2026-01-28 00:57:40.12	44.90	35.43	-44.2	-46.8	23.7	6.03e-01	0	43	0	366477312	60	4743
2026-01-28 00:57:41.11	45.18	35.64	-44.3	-47.0	23.5	6.06e-01	0	44	0	368574464	60	4832
2026-01-28 00:57:42.10	45.46	35.86	-44.5	-47.2	23.4	6.03e-01	0	43	0	370671616	60	4940
2026-01-28 00:57:43.10	45.74	36.08	-44.4	-47.1	23.4	6.03e-01	0	44	0	372244480	60	4908
2026-01-28 00:57:44.09	46.03	36.30	-44.5	-47.2	23.3	6.02e-01	0	44	0	374341632	60	4979
2026-01-28 00:57:45.08	46.32	36.53	-44.5	-47.2	23.3	6.02e-01	0	44	0	375914496	60	4955
2026-01-28 00:57:46.07	46.61	36.75	-44.4	-47.1	23.4	6.07e-01	0	44	0	378011648	60	4905
2026-01-28 00:57:47.07	46.92	36.97	-44.6	-47.4	23.2	6.01e-01	0	44	0	379584512	60	5055
2026-01-28 00:57:48.06	47.22	37.20	-44.6	-47.4	23.1	6.02e-01	0	44	0	381681664	60	5050
2026-01-28 00:57:49.05	47.53	37.42	-44.4	-47.1	23.4	6.02e-01	0	44	0	383254528	60	4894
2026-01-28 00:57:50.05	47.84	37.65	-44.5	-47.1	23.3	6.03e-01	0	44	0	385351680	60	4925
2026-01-28 00:57:51.04	48.16	37.87	-44.6	-47.3	23.3	6.03e-01	0	44	0	387448832	60	5019
2026-01-28 00:57:52.03	48.48	38.10	-44.6	-47.3	23.3	6.02e-01	0	44	0	389021696	60	4997
2026-01-28 00:57:53.02	48.80	38.33	-44.4	-47.1	23.4	6.03e-01	0	44	0	391118848	60	4903
2026-01-28 00:57:54.02	49.13	38.56	-44.5	-47.2	23.3	6.06e-01	0	43	0	392691712	60	4941
2026-01-28 00:57:55.01	49.47	38.78	-44.6	-47.3	23.3	6.03e-01	0	44	0	394788864	60	4985
2026-01-28 00:57:56.00	49.81	39.01	-44.7	-47.3	23.2	6.03e-01	0	44	0	396361728	60	5037
2026-01-28 00:57:56.99	50.15	39.24	-44.8	-47.5	23.0	6.03e-01	0	43	0	398458880	60	5142
2026-01-28 00:57:57.99	50.50	39.47	-44.3	-46.9	23.6	6.03e-01	0	44	0	400031744	60	4791
2026-01-28 00:57:58.98	50.86	39.70	-44.4	-47.0	23.6	6.07e-01	0	44	0	402128896	60	4822
2026-01-28 00:57:59.97	51.21	39.93	-44.4	-47.1	23.4	6.05e-01	0	44	0	403701760	60	4879
2026-01-28 00:58:00.97	51.58	40.17	-44.5	-47.1	23.4	6.06e-01	0	44	0	405798912	60	4908
2026-01-28 00:58:01.96	51.95	40.40	-44.4	-47.1	23.4	6.03e-01	0	44	0	407896064	60	4899
2026-01-28 00:58:02.95	52.32	40.63	-44.3	-46.9	23.6	6.03e-01	0	44	0	409468928	60	4786
2026-01-28 00:58:03.94	52.70	40.86	-44.1	-46.7	23.9	6.04e-01	0	44	0	411566080	59	4929
2026-01-28 00:58:04.94	53.09	41.10	-44.3	-46.8	23.7	6.04e-01	0	44	0	413138944	59	5038
2026-01-28 00:58:05.93	53.49	41.33	-43.9	-46.3	24.2	6.02e-01	0	44	0	415236096	59	4742
2026-01-28 00:58:06.92	53.88	41.56	-44.1	-46.6	24.0	6.04e-01	0	44	0	416808960	59	4875
2026-01-28 00:58:07.92	54.29	41.79	-44.0	-46.5	24.0	6.02e-01	0	44	0	418906112	59	4859
2026-01-28 00:58:08.91	54.70	42.03	-43.8	-46.3	24.3	6.06e-01	0	44	0	420478976	59	4711
2026-01-28 00:58:09.90	55.11	42.26	-43.5	-45.9	24.6	6.02e-01	0	44	0	422576128	59	4545
2026-01-28 00:58:10.90	55.54	42.49	-43.5	-45.9	24.6	6.04e-01	0	44	0	424673280	59	4521
2026-01-28 00:58:11.89	55.96	42.73	-43.5	-45.9	24.6	6.03e-01	0	43	0	426246144	58	4808
2026-01-28 00:58:12.88	56.40	42.96	-43.2	-45.6	24.9	6.02e-01	0	44	0	428343296	58	4619
2026-01-28 00:58:13.88	56.84	43.19	-43.3	-45.7	24.7	6.05e-01	0	44	0	429916160	58	4678
2026-01-28 00:58:14.87	57.29	43.42	-43.4	-45.8	24.7	6.05e-01	0	43	0	432013312	58	4711
2026-01-28 00:58:15.86	57.74	43.65	-43.3	-45.7	24.8	6.04e-01	0	44	0	433586176	58	4665
2026-01-28 00:58:16.85	58.20	43.88	-43.1	-45.4	25.0	6.03e-01	0	43	0	435683328	58	4530
2026-01-28 00:58:17.85	58.67	44.12	-43.1	-45.4	25.1	6.05e-01	0	43	0	437256192	58	4518
2026-01-28 00:58:18.84	59.14	44.34	-43.2	-45.5	25.0	6.06e-01	0	44	0	439353344	58	4575
2026-01-28 00:58:19.83	59.62	44.57	-43.2	-45.5	24.9	6.04e-01	0	43	0	441450496	58	4594
2026-01-28 00:58:20.83	60.11	44.80	-43.1	-45.4	25.0	6.01e-01	0	44	0	443023360	58	4505
2026-01-28 00:58:21.82	60.61	45.03	-43.1	-45.4	25.1	6.03e-01	0	44	0	445120512	58	4511
2026-01-28 00:58:22.81	61.11	45.26	-43.2	-45.5	25.0	6.06e-01	0	44	0	446693376	58	4579
2026-01-28 00:58:23.81	61.62	45.48	-43.2	-45.5	25.0	6.06e-01	0	43	0	448790528	58	4588
2026-01-28 00:58:24.80	62.14	45.71	-43.1	-45.5	25.0	6.01e-01	0	44	0	450363392	58	4559
2026-01-28 00:58:25.79	62.66	45.93	-43.0	-45.4	25.1	6.02e-01	0	44	0	452460544	58	4500
2026-01-28 00:58:26.79	63.19	46.15	-43.3	-45.7	24.7	6.06e-01	0	43	0	454033408	58	4664
2026-01-28 00:58:27.78	63.73	46.37	-42.9	-45.2	25.2	6.04e-01	0	43	0	456130560	57	4663
2026-01-28 00:58:28.77	64.28	46.59	-43.1	-45.4	25.1	6.03e-01	0	43	0	457703424	57	4798
2026-01-28 00:58:29.76	64.83	46.81	-43.2	-45.5	25.0	6.04e-01	0	43	0	459800576	57	4848
2026-01-28 00:58:30.76	65.40	47.02	-43.0	-45.3	25.2	6.04e-01	0	44	0	461897728	57	4719
2026-01-28 00:58:31.75	65.97	47.24	-43.1	-45.4	25.1	6.06e-01	0	44	0	463470592	57	4781
2026-01-28 00:58:32.74	66.54	47.45	-43.1	-45.5	25.0	6.03e-01	0	43	0	465567744	57	4817
2026-01-28 00:58:33.74	67.13	47.66	-43.0	-45.3	25.2	6.05e-01	0	44	0	467140608	57	4713
2026-01-28 00:58:34.73	67.72	47.86	-43.2	-45.6	24.9	6.06e-01	0	44	0	469237760	57	4874
2026-01-28 00:58:35.72	68.32	48.07	-43.2	-45.6	24.9	6.02e-01	0	44	0	470810624	57	4876
2026-01-28 00:58:36.72	68.94	48.27	-43.4	-45.8	24.7	6.03e-01	0	44	0	472907776	57	5012
2026-01-28 00:58:37.71	69.56	48.47	-43.1	-45.5	24.9	6.04e-01	0	44	0	474480640	57	4815
2026-01-28 00:58:38.70	70.18	48.67	-43.3	-45.7	24.8	6.02e-01	0	43	0	476577792	57	4940
2026-01-28 00:58:39.69	70.81	48.87	-43.4	-45.7	24.8	6.05e-01	0	44	0	478674944	57	4966
2026-01-28 00:58:40.69	71.46	49.06	-43.5	-45.9	24.7	6.04e-01	0	43	0	480247808	57	5061
2026-01-28 00:58:41.68	72.11	49.25	-43.4	-45.7	24.8	6.04e-01	0	44	0	482344960	57	4980
2026-01-28 00:58:42.67	72.77	49.43	-43.4	-45.8	24.7	6.04e-01	0	43	0	483917824	57	5029
2026-01-28 00:58:43.67	73.44	49.62	-43.4	-45.8	24.7	6.01e-01	0	43	0	486014976	57	5027
2026-01-28 00:58:44.66	74.11	49.80	-43.4	-45.8	24.8	6.03e-01	0	44	0	487587840	57	4988
2026-01-28 00:58:45.65	74.79	49.97	-43.4	-45.8	24.7	6.05e-01	0	44	0	489684992	57	5026
2026-01-28 00:58:46.64	75.48	50.15	-43.5	-45.9	24.6	6.05e-01	0	43	0	491257856	57	5086
2026-01-28 00:58:47.64	76.18	50.32	-43.7	-46.1	24.4	6.04e-01	0	44	0	493355008	58	4922
2026-01-28 00:58:48.63	76.89	50.48	-43.3	-45.6	24.9	6.02e-01	0	43	0	494927872	58	4627
2026-01-28 00:58:49.62	77.60	50.64	-43.3	-45.7	24.8	6.04e-01	0	44	0	497025024	58	4670
2026-01-28 00:58:50.62	78.33	50.80	-43.4	-45.8	24.7	6.03e-01	0	44	0	499122176	58	4738
2026-01-28 00:58:51.61	79.05	50.95	-43.5	-45.9	24.6	6.03e-01	0	44	0	500695040	58	4802
2026-01-28 00:58:52.60	79.79	51.10	-43.4	-45.8	24.8	6.05e-01	0	44	0	502792192	58	4718
2026-01-28 00:58:53.60	80.54	51.25	-43.6	-46.0	24.5	6.04e-01	0	44	0	504365056	58	4866
2026-01-28 00:58:54.59	81.29	51.39	-43.6	-46.0	24.5	6.04e-01	0	44	0	506462208	58	4870
2026-01-28 00:58:55.58	82.04	51.52	-43.5	-46.0	24.5	6.05e-01	0	43	0	508035072	58	4870
2026-01-28 00:58:56.57	82.81	51.65	-43.4	-45.9	24.6	6.03e-01	0	44	0	510132224	58	4785
2026-01-28 00:58:57.56	83.58	51.78	-43.8	-46.4	24.1	6.03e-01	0	43	0	511705088	58	5086
2026-01-28 00:58:58.56	84.36	51.90	-43.7	-46.2	24.4	6.06e-01	0	44	0	513802240	58	4968
2026-01-28 00:58:59.55	85.14	52.02	-43.7	-46.2	24.3	6.03e-01	0	44	0	515899392	58	4981
2026-01-28 00:59:00.54	85.93	52.13	-43.9	-46.7	24.0	6.03e-01	0	44	0	517472256	58	5221
2026-01-28 00:59:01.54	86.73	52.23	-43.6	-46.3	24.3	6.03e-01	0	44	0	519569408	58	4988
2026-01-28 00:59:02.53	87.53	52.33	-43.6	-46.2	24.3	6.03e-01	0	43	0	521142272	58	4941
2026-01-28 00:59:03.52	88.34	52.43	-43.6	-46.1	24.5	6.04e-01	0	44	0	523239424	58	4872
2026-01-28 00:59:04.51	89.15	52.52	-43.7	-46.3	24.3	6.02e-01	0	44	0	524812288	58	4992
2026-01-28 00:59:05.51	89.97	52.60	-43.7	-46.2	24.3	6.04e-01	0	44	0	526909440	58	4974
2026-01-28 00:59:06.50	90.79	52.68	-43.6	-46.2	24.3	6.03e-01	0	44	0	528482304	58	4951
2026-01-28 00:59:07.49	91.61	52.75	-43.9	-46.5	24.2	6.04e-01	0	44	0	530579456	58	5107
2026-01-28 00:59:08.49	92.45	52.81	-44.0	-46.5	24.1	6.04e-01	0	43	0	532676608	58	5133
2026-01-28 00:59:09.48	93.28	52.87	-43.9	-46.3	24.3	6.05e-01	0	43	0	534249472	58	5017
2026-01-28 00:59:10.47	94.12	52.93	-43.9	-46.5	24.1	6.00e-01	0	43	0	536346624	58	5127
2026-01-28 00:59:11.46	94.95	52.97	-43.8	-46.5	24.1	6.01e-01	0	44	0	537919488	58	5120
2026-01-28 00:59:12.46	95.80	53.02	-43.7	-46.2	24.4	6.02e-01	0	43	0	540016640	58	4961
2026-01-28 00:59:13.45	96.64	53.05	-44.1	-46.6	24.1	6.03e-01	0	44	0	541589504	58	5160
2026-01-28 00:59:14.44	97.49	53.08	-44.0	-46.4	24.2	6.04e-01	0	44	0	543686656	58	5090
2026-01-28 00:59:15.43	98.33	53.10	-44.0	-46.5	24.0	6.06e-01	0	44	0	545259520	58	5145
2026-01-28 00:59:16.43	99.19	53.12	-44.0	-46.5	24.1	6.05e-01	0	44	0	547356672	58	5129
2026-01-28 00:59:17.42	100.04	53.13	-44.0	-46.5	24.1	6.03e-01	0	44	0	548929536	58	5112
2026-01-28 00:59:18.41	100.88	53.13	-43.9	-46.4	24.2	6.02e-01	0	44	0	551026688	58	5077
2026-01-28 00:59:19.41	101.74	53.13	-43.8	-46.3	24.3	6.04e-01	0	43	0	553123840	58	5006
2026-01-28 00:59:20.40	102.59	53.12	-43.9	-46.4	24.2	6.05e-01	0	44	0	554696704	58	5047
2026-01-28 00:59:21.39	103.44	53.11	-43.8	-46.2	24.3	6.06e-01	0	44	0	556793856	58	4976
2026-01-28 00:59:22.38	104.28	53.09	-43.8	-46.2	24.4	6.05e-01	0	44	0	558366720	58	4956
2026-01-28 00:59:23.38	105.13	53.06	-44.1	-46.6	24.0	6.04e-01	0	44	0	560463872	58	5165
2026-01-28 00:59:24.37	105.98	53.02	-43.8	-46.3	24.2	6.05e-01	0	43	0	562036736	58	5025
2026-01-28 00:59:25.36	106.82	52.99	-43.9	-46.4	24.1	6.03e-01	0	44	0	564133888	58	5091
2026-01-28 00:59:26.36	107.67	52.94	-43.7	-46.2	24.4	6.05e-01	0	44	0	565706752	58	4929
2026-01-28 00:59:27.35	108.50	52.89	-43.8	-46.4	24.2	6.04e-01	0	43	0	567803904	58	5059
2026-01-28 00:59:28.34	109.33	52.83	-43.9	-46.6	24.0	6.03e-01	0	44	0	569901056	58	5178
2026-01-28 00:59:29.34	110.17	52.76	-43.6	-46.2	24.3	6.03e-01	0	43	0	571473920	58	4957
2026-01-28 00:59:30.33	111.00	52.69	-43.8	-46.3	24.3	6.04e-01	0	43	0	573571072	58	4995
2026-01-28 00:59:31.32	111.82	52.62	-43.9	-46.3	24.3	6.06e-01	0	43	0	575143936	58	5009
2026-01-28 00:59:32.31	112.63	52.54	-44.2	-46.7	24.0	6.03e-01	0	44	0	577241088	58	5230
2026-01-28 00:59:33.31	113.45	52.45	-44.1	-46.7	24.0	6.04e-01	0	44	0	578813952	59	4933
2026-01-28 00:59:34.30	114.26	52.36	-43.9	-46.3	24.2	6.02e-01	0	43	0	580911104	59	4744
2026-01-28 00:59:35.29	115.06	52.26	-44.0	-46.5	24.1	6.01e-01	0	44	0	582483968	59	4848
2026-01-28 00:59:36.29	115.87	52.15	-44.1	-46.6	24.0	6.05e-01	0	44	0	584581120	59	4897
2026-01-28 00:59:37.28	116.66	52.04	-44.1	-46.5	24.0	6.03e-01	0	44	0	586153984	59	4868
2026-01-28 00:59:38.27	117.44	51.93	-43.9	-46.3	24.2	6.06e-01	0	44	0	588251136	59	4756
2026-01-28 00:59:39.26	118.22	51.81	-43.7	-46.2	24.4	6.05e-01	0	43	0	590348288	59	4656
2026-01-28 00:59:40.26	119.00	51.68	-44.1	-46.6	24.0	6.05e-01	0	44	0	591921152	59	4900
2026-01-28 00:59:41.25	119.77	51.55	-44.1	-46.6	23.9	6.03e-01	0	44	0	594018304	59	4923
2026-01-28 00:59:42.24	120.53	51.42	-44.1	-46.6	24.1	6.05e-01	0	43	0	595591168	59	4875
2026-01-28 00:59:43.23	121.28	51.28	-43.9	-46.3	24.3	6.07e-01	0	43	0	597688320	59	4740
2026-01-28 00:59:44.23	122.03	51.14	-44.1	-46.7	23.9	6.05e-01	0	43	0	599261184	59	4953
2026-01-28 00:59:45.22	122.77	50.99	-44.1	-46.7	24.0	6.04e-01	0	44	0	601358336	59	4944
2026-01-28 00:59:46.21	123.50	50.84	-44.4	-47.1	23.6	6.04e-01	0	44	0	602931200	59	5169
2026-01-28 00:59:47.21	124.23	50.68	-44.0	-46.6	24.0	6.04e-01	0	44	0	605028352	59	4905
2026-01-28 00:59:48.20	124.94	50.52	-44.2	-46.9	23.8	6.02e-01	0	43	0	607125504	59	5047
2026-01-28 00:59:49.19	125.65	50.35	-44.5	-47.2	23.5	6.02e-01	0	44	0	608698368	59	5253
2026-01-28 00:59:50.18	126.35	50.18	-44.3	-46.8	23.8	6.03e-01	0	43	0	610795520	59	5030
2026-01-28 00:59:51.18	127.05	50.01	-44.3	-46.8	23.8	6.02e-01	0	44	0	612368384	59	4994
2026-01-28 00:59:52.17	127.74	49.83	-44.1	-46.6	24.0	6.03e-01	0	44	0	614465536	59	4922
2026-01-28 00:59:53.16	128.41	49.65	-44.4	-46.9	23.7	6.04e-01	0	44	0	616038400	59	5090
2026-01-28 00:59:54.16	129.09	49.47	-44.4	-46.9	23.8	6.01e-01	0	44	0	618135552	59	5069
2026-01-28 00:59:55.15	129.75	49.28	-44.4	-47.0	23.6	6.00e-01	0	44	0	619708416	59	5132
2026-01-28 00:59:56.14	130.40	49.10	-44.2	-46.8	23.9	6.03e-01	0	44	0	621805568	59	4993
2026-01-28 00:59:57.14	131.05	48.90	-44.3	-46.9	23.7	6.05e-01	0	44	0	623902720	59	5069
2026-01-28 00:59:58.13	131.68	48.71	-44.5	-47.1	23.5	6.04e-01	0	43	0	625475584	59	5199
2026-01-28 00:59:59.12	132.31	48.51	-44.2	-46.7	23.9	6.03e-01	0	44	0	627572736	59	4973
2026-01-28 01:00:00.11	132.93	48.31	-44.5	-47.0	23.7	6.03e-01	0	44	0	629145600	59	5148
2026-01-28 01:00:01.11	133.55	48.11	-44.5	-47.2	23.4	6.05e-01	0	44	0	631242752	60	4942
2026-01-28 01:00:02.10	134.15	47.90	-44.1	-46.7	23.8	6.03e-01	0	44	0	632815616	60	4701
2026-01-28 01:00:03.09	134.75	47.69	-44.1	-46.7	23.8	6.06e-01	0	44	0	634912768	60	4699
2026-01-28 01:00:04.09	135.34	47.48	-44.1	-46.7	23.8	6.02e-01	0	44	0	636485632	60	4684
2026-01-28 01:00:05.08	135.92	47.27	-44.1	-46.7	23.8	6.03e-01	0	43	0	638582784	60	4661
2026-01-28 01:00:06.07	136.49	47.06	-44.1	-46.6	23.9	6.06e-01	0	44	0	640155648	60	4639
2026-01-28 01:00:07.06	137.06	46.84	-44.0	-46.6	24.0	6.05e-01	0	43	0	642252800	59	4884
2026-01-28 01:00:08.06	137.62	46.62	-43.9	-46.4	24.2	6.02e-01	0	44	0	644349952	59	4764
2026-01-28 01:00:09.05	138.17	46.40	-44.2	-46.7	23.9	6.05e-01	0	44	0	645922816	59	4960
2026-01-28 01:00:10.04	138.71	46.18	-44.2	-46.7	23.9	6.03e-01	0	44	0	648019968	59	4952
2026-01-28 01:00:11.04	139.25	45.96	-44.1	-46.6	24.0	6.05e-01	0	44	0	649592832	59	4918
2026-01-28 01:00:12.03	139.77	45.74	-44.0	-46.5	24.1	6.04e-01	0	44	0	651689984	59	4838
2026-01-28 01:00:13.02	140.29	45.51	-43.9	-46.4	24.2	5.99e-01	0	44	0	653262848	59	4795
2026-01-28 01:00:14.02	140.81	45.28	-44.0	-46.5	24.1	6.02e-01	0	44	0	655360000	59	4832
2026-01-28 01:00:15.01	141.31	45.06	-44.1	-46.6	24.0	6.06e-01	0	43	0	656932864	59	4902
2026-01-28 01:00:16.00	141.81	44.83	-44.0	-46.5	24.1	6.03e-01	0	43	0	659030016	59	4824
2026-01-28 01:00:16.99	142.30	44.60	-44.1	-46.5	24.0	6.03e-01	0	44	0	661127168	59	4867
2026-01-28 01:00:17.99	142.78	44.37	-43.9	-46.4	24.2	6.02e-01	0	44	0	662700032	59	4789
2026-01-28 01:00:18.98	143.26	44.14	-44.0	-46.6	24.0	6.04e-01	0	44	0	664797184	59	4884
2026-01-28 01:00:19.97	143.73	43.91	-43.8	-46.3	24.2	6.03e-01	0	44	0	666370048	59	4741
2026-01-28 01:00:20.96	144.19	43.68	-43.9	-46.4	24.2	6.05e-01	0	44	0	668467200	59	4762
2026-01-28 01:00:21.96	144.65	43.45	-44.1	-46.6	23.8	6.03e-01	0	44	0	670040064	59	4884
2026-01-28 01:00:22.95	145.10	43.21	-44.2	-46.6	23.9	6.03e-01	0	44	0	672137216	59	4926
2026-01-28 01:00:23.94	145.54	42.98	-44.3	-46.8	23.8	6.01e-01	0	44	0	673710080	59	4993
2026-01-28 01:00:24.94	145.98	42.75	-44.2	-46.8	23.8	6.04e-01	0	44	0	675807232	59	4986
2026-01-28 01:00:25.93	146.41	42.51	-44.1	-46.6	24.0	6.02e-01	0	44	0	677380096	59	4915
2026-01-28 01:00:26.92	146.83	42.28	-44.2	-46.7	23.8	6.04e-01	0	44	0	679477248	59	4958
2026-01-28 01:00:27.92	147.25	42.04	-44.4	-46.9	23.6	6.02e-01	0	44	0	681574400	59	5097
2026-01-28 01:00:28.91	147.66	41.81	-44.4	-47.0	23.6	6.05e-01	0	44	0	683147264	59	5120
2026-01-28 01:00:29.90	148.07	41.58	-44.2	-46.8	23.8	6.08e-01	0	44	0	685244416	59	4997
2026-01-28 01:00:30.89	148.47	41.34	-44.6	-47.2	23.4	6.05e-01	0	44	0	686817280	59	5271
2026-01-28 01:00:31.89	148.86	41.11	-44.7	-47.4	23.2	6.06e-01	0	44	0	688914432	60	5056
2026-01-28 01:00:32.88	149.25	40.87	-44.4	-47.1	23.4	6.04e-01	0	44	0	690487296	60	4909
2026-01-28 01:00:33.87	149.63	40.64	-44.3	-46.9	23.6	6.06e-01	0	44	0	692584448	60	4768
2026-01-28 01:00:34.87	150.01	40.41	-44.0	-46.5	23.9	6.07e-01	0	44	0	694157312	60	4562
2026-01-28 01:00:35.86	150.38	40.17	-44.0	-46.5	23.9	6.03e-01	0	44	0	696254464	60	4590
2026-01-28 01:00:36.85	150.75	39.94	-44.0	-46.5	24.0	6.03e-01	0	44	0	698351616	60	4585
2026-01-28 01:00:37.84	151.11	39.71	-44.2	-46.7	23.8	6.02e-01	0	44	0	699924480	60	4683
2026-01-28 01:00:38.84	151.47	39.48	-44.3	-46.9	23.6	6.03e-01	0	44	0	702021632	60	4768
2026-01-28 01:00:39.83	151.82	39.24	-44.3	-46.9	23.6	6.02e-01	0	44	0	703594496	60	4771
2026-01-28 01:00:40.82	152.17	39.01	-44.4	-47.0	23.5	6.03e-01	0	44	0	705691648	60	4821
2026-01-28 01:00:41.81	152.51	38.78	-44.5	-47.1	23.4	6.03e-01	0	44	0	707264512	60	4872
2026-01-28 01:00:42.81	152.84	38.55	-44.4	-47.0	23.4	6.03e-01	0	44	0	709361664	60	4850
2026-01-28 01:00:43.80	153.18	38.32	-44.4	-47.0	23.5	6.04e-01	0	44	0	710934528	60	4820
2026-01-28 01:00:44.79	153.50	38.10	-44.3	-46.8	23.7	6.03e-01	0	44	0	713031680	60	4746
2026-01-28 01:00:45.79	153.83	37.87	-44.2	-46.8	23.7	6.03e-01	0	44	0	715128832	60	4726
2026-01-28 01:00:46.78	154.14	37.64	-44.2	-46.8	23.6	6.03e-01	0	44	0	716701696	60	4743
2026-01-28 01:00:47.77	154.46	37.41	-44.1	-46.7	23.9	6.01e-01	0	44	0	718798848	59	4933
2026-01-28 01:00:48.77	154.77	37.19	-43.9	-46.4	24.1	6.03e-01	0	44	0	720371712	59	4806
2026-01-28 01:00:49.76	155.07	36.96	-43.8	-46.3	24.2	6.06e-01	0	44	0	722468864	59	4739
2026-01-28 01:00:50.75	155.37	36.74	-43.8	-46.2	24.3	6.04e-01	0	44	0	724041728	59	4705
2026-01-28 01:00:51.74	155.67	36.51	-43.9	-46.4	24.1	6.05e-01	0	44	0	726138880	59	4796
2026-01-28 01:00:52.74	155.96	36.29	-44.0	-46.6	24.0	6.04e-01	0	44	0	727711744	59	4871
2026-01-28 01:00:53.73	156.25	36.07	-43.9	-46.4	24.2	6.04e-01	0	44	0	729808896	59	4769
2026-01-28 01:00:54.72	156.53	35.85	-43.9	-46.4	24.2	6.03e-01	0	44	0	731381760	59	4777
2026-01-28 01:00:55.72	156.82	35.62	-43.7	-46.1	24.4	6.00e-01	0	44	0	733478912	59	4647
2026-01-28 01:00:56.71	157.09	35.41	-43.5	-46.0	24.5	6.06e-01	0	44	0	735576064	59	4546
2026-01-28 01:00:57.70	157.37	35.19	-43.3	-45.8	24.6	6.04e-01	0	44	0	737148928	58	4719
2026-01-28 01:00:58.70	157.64	34.97	-43.2	-45.6	24.9	6.02e-01	0	44	0	739246080	58	4613
2026-01-28 01:00:59.69	157.90	34.75	-43.1	-45.5	24.9	6.03e-01	0	44	0	740818944	58	4576
2026-01-28 01:01:00.68	158.17	34.54	-43.2	-45.7	24.8	6.05e-01	0	43	0	742916096	58	4652
2026-01-28 01:01:01.68	158.43	34.32	-43.2	-45.6	24.8	6.04e-01	0	44	0	744488960	58	4630
2026-01-28 01:01:02.67	158.68	34.11	-43.1	-45.5	24.9	6.03e-01	0	44	0	746586112	58	4588
2026-01-28 01:01:03.66	158.93	33.89	-43.1	-45.4	25.0	6.06e-01	0	44	0	748158976	58	4523
2026-01-28 01:01:04.66	159.18	33.68	-43.0	-45.3	25.1	6.04e-01	0	44	0	750256128	58	4484
2026-01-28 01:01:05.65	159.43	33.47	-43.0	-45.3	25.1	6.06e-01	0	44	0	752353280	58	4462
2026-01-28 01:01:06.64	159.67	33.26	-42.9	-45.2	25.2	6.04e-01	0	44	0	753926144	57	4669
2026-01-28 01:01:07.63	159.91	33.05	-42.9	-45.2	25.2	6.01e-01	0	44	0	756023296	57	4667
2026-01-28 01:01:08.63	160.15	32.84	-42.6	-44.9	25.4	6.04e-01	0	44	0	757596160	57	4545
2026-01-28 01:01:09.62	160.38	32.64	-42.6	-44.9	25.4	6.06e-01	0	44	0	759693312	57	4536
2026-01-28 01:01:10.61	160.61	32.43	-42.6	-45.0	25.3	6.02e-01	0	44	0	761266176	57	4553
2026-01-28 01:01:11.60	160.84	32.23	-42.5	-44.8	25.5	6.01e-01	0	44	0	763363328	57	4474
2026-01-28 01:01:12.60	161.06	32.02	-42.5	-44.8	25.4	6.04e-01	0	44	0	764936192	57	4472
2026-01-28 01:01:13.59	161.28	31.82	-42.5	-44.8	25.5	6.05e-01	0	44	0	767033344	56	4722
2026-01-28 01:01:14.58	161.50	31.62	-42.5	-44.8	25.5	6.02e-01	0	44	0	769130496	56	4706
2026-01-28 01:01:15.58	161.72	31.41	-42.6	-44.8	25.5	6.05e-01	0	44	0	770703360	56	4742
2026-01-28 01:01:16.57	161.93	31.21	-42.6	-44.8	25.5	6.00e-01	0	44	0	772800512	56	4746
2026-01-28 01:01:17.56	162.14	31.02	-42.6	-44.8	25.5	6.02e-01	0	44	0	774373376	56	4756
2026-01-28 01:01:18.56	162.35	30.82	-42.5	-44.8	25.5	6.05e-01	0	43	0	776470528	56	4742
2026-01-28 01:01:19.55	162.56	30.62	-42.6	-44.9	25.5	6.03e-01	0	44	0	778043392	56	4761
2026-01-28 01:01:20.54	162.76	30.43	-42.6	-44.9	25.5	6.03e-01	0	44	0	780140544	56	4770
2026-01-28 01:01:21.53	162.96	30.23	-42.6	-45.0	25.4	6.01e-01	0	43	0	781713408	56	4821
2026-01-28 01:01:22.53	163.16	30.04	-42.7	-45.0	25.2	6.05e-01	0	43	0	783810560	56	4851
2026-01-28 01:01:23.52	163.36	29.84	-42.7	-45.1	25.2	6.01e-01	0	44	0	785383424	56	4872
2026-01-28 01:01:24.51	163.55	29.65	-42.8	-45.1	25.2	6.07e-01	0	44	0	787480576	56	4906
2026-01-28 01:01:25.51	163.74	29.46	-42.7	-45.0	25.4	6.03e-01	0	44	0	789577728	56	4817
2026-01-28 01:01:26.50	163.93	29.27	-42.7	-45.1	25.3	6.01e-01	0	44	0	791150592	56	4877
2026-01-28 01:01:27.49	164.12	29.09	-42.8	-45.2	25.2	6.05e-01	0	44	0	793247744	56	4956
2026-01-28 01:01:28.48	164.30	28.90	-43.0	-45.4	25.0	6.05e-01	0	44	0	794820608	56	5044
2026-01-28 01:01:29.48	164.48	28.71	-42.9	-45.3	25.0	6.03e-01	0	44	0	796917760	56	5010
2026-01-28 01:01:30.47	164.66	28.53	-43.0	-45.4	25.0	6.04e-01	0	44	0	798490624	56	5048
2026-01-28 01:01:31.46	164.84	28.34	-43.0	-45.3	25.0	6.02e-01	0	44	0	800587776	56	5019
2026-01-28 01:01:32.46	165.02	28.16	-42.9	-45.2	25.1	6.05e-01	0	43	0	802160640	56	4955
2026-01-28 01:01:33.45	165.19	27.98	-42.8	-45.1	25.2	6.05e-01	0	44	0	804257792	56	4895
2026-01-28 01:01:34.44	165.36	27.80	-42.8	-45.2	25.1	6.03e-01	0	44	0	806354944	56	4935
2026-01-28 01:01:35.44	165.54	27.61	-43.0	-45.4	24.9	6.00e-01	0	44	0	807927808	56	5053
2026-01-28 01:01:36.43	165.70	27.44	-43.1	-45.5	24.9	6.04e-01	0	44	0	810024960	56	5102
2026-01-28 01:01:37.42	165.87	27.26	-43.2	-45.6	24.8	5.99e-01	0	44	0	811597824	57	4895
2026-01-28 01:01:38.41	166.03	27.08	-43.2	-45.6	24.7	6.04e-01	0	44	0	813694976	57	4915
2026-01-28 01:01:39.41	166.20	26.90	-43.2	-45.6	24.8	6.03e-01	0	44	0	815267840	57	4892
2026-01-28 01:01:40.40	166.36	26.73	-43.3	-45.7	24.7	6.04e-01	0	44	0	817364992	57	4978
2026-01-28 01:01:41.39	166.52	26.55	-43.3	-45.7	24.7	6.02e-01	0	44	0	818937856	57	4975
2026-01-28 01:01:42.39	166.68	26.38	-43.4	-45.8	24.5	6.02e-01	0	44	0	821035008	57	5041
2026-01-28 01:01:43.38	166.83	26.21	-43.4	-45.8	24.6	6.05e-01	0	44	0	822607872	57	5030
2026-01-28 01:01:44.37	166.98	26.04	-43.5	-45.9	24.5	6.04e-01	0	44	0	824705024	57	5060
2026-01-28 01:01:45.36	167.14	25.87	-43.6	-46.0	24.4	6.03e-01	0	43	0	826802176	57	5156
2026-01-28 01:01:46.36	167.29	25.70	-43.4	-45.9	24.5	6.04e-01	0	44	0	828375040	57	5050
2026-01-28 01:01:47.35	167.44	25.53	-43.3	-45.8	24.6	6.04e-01	0	44	0	830472192	57	4993
2026-01-28 01:01:48.34	167.58	25.36	-43.4	-45.8	24.6	6.02e-01	0	43	0	832045056	57	5016
2026-01-28 01:01:49.34	167.73	25.20	-43.4	-45.9	24.5	6.02e-01	0	44	0	834142208	57	5044
2026-01-28 01:01:50.33	167.87	25.03	-43.4	-45.9	24.5	6.04e-01	0	44	0	835715072	57	5051
2026-01-28 01:01:51.32	168.02	24.87	-43.5	-46.0	24.5	6.05e-01	0	44	0	837812224	57	5116
2026-01-28 01:01:52.32	168.16	24.70	-43.5	-46.0	24.4	6.06e-01	0	44	0	839385088	57	5146
2026-01-28 01:01:53.31	168.30	24.54	-43.5	-46.0	24.4	6.02e-01	0	44	0	841482240	57	5103
2026-01-28 01:01:54.30	168.44	24.38	-43.5	-46.0	24.5	6.01e-01	0	44	0	843579392	57	5112
2026-01-28 01:01:55.29	168.57	24.22	-43.5	-46.0	24.4	6.04e-01	0	44	0	845152256	57	5118
2026-01-28 01:01:56.29	168.71	24.06	-43.6	-46.1	24.3	6.02e-01	0	44	0	847249408	57	5189
2026-01-28 01:01:57.28	168.84	23.90	-43.6	-46.1	24.3	6.02e-01	0	44	0	848822272	58	4920
2026-01-28 01:01:58.27	168.98	23.74	-43.6	-46.1	24.3	6.03e-01	0	44	0	850919424	58	4893
2026-01-28 01:01:59.27	169.11	23.58	-43.6	-46.1	24.3	6.00e-01	0	44	0	852492288	58	4878
2026-01-28 01:02:00.26	169.24	23.43	-43.6	-46.1	24.3	6.06e-01	0	43	0	854589440	58	4895
2026-01-28 01:02:01.25	169.37	23.27	-43.5	-46.0	24.4	6.03e-01	0	44	0	856162304	58	4824
2026-01-28 01:02:02.24	169.49	23.12	-43.5	-46.0	24.4	6.05e-01	0	44	0	858259456	58	4821
2026-01-28 01:02:03.24	169.62	22.96	-43.3	-45.8	24.4	6.05e-01	0	44	0	860356608	58	4718
2026-01-28 01:02:04.23	169.74	22.81	-43.3	-45.8	24.6	6.02e-01	0	44	0	861929472	58	4715
2026-01-28 01:02:05.22	169.87	22.66	-43.3	-45.8	24.5	6.04e-01	0	44	0	864026624	58	4751
2026-01-28 01:02:06.22	169.99	22.51	-43.3	-45.9	24.5	6.06e-01	0	44	0	865599488	58	4763
2026-01-28 01:02:07.21	170.11	22.36	-43.3	-45.8	24.6	6.03e-01	0	44	0	867696640	58	4728
2026-01-28 01:02:08.20	170.23	22.21	-43.4	-45.9	24.5	6.05e-01	0	44	0	869269504	58	4789
2026-01-28 01:02:09.20	170.35	22.06	-43.4	-45.9	24.4	6.02e-01	0	43	0	871366656	58	4791
2026-01-28 01:02:10.19	170.47	21.91	-43.3	-45.8	24.6	6.03e-01	0	44	0	872939520	58	4741
2026-01-28 01:02:11.18	170.59	21.76	-43.4	-45.9	24.4	6.05e-01	0	44	0	875036672	58	4808
2026-01-28 01:02:12.17	170.70	21.62	-43.3	-45.8	24.6	6.03e-01	0	44	0	876609536	58	4743
2026-01-28 01:02:13.17	170.82	21.47	-43.2	-45.7	24.6	6.02e-01	0	44	0	878706688	58	4696
2026-01-28 01:02:14.16	170.93	21.33	-43.3	-45.9	24.5	6.03e-01	0	44	0	880803840	58	4783
2026-01-28 01:02:15.15	171.04	21.18	-43.3	-45.9	24.5	6.02e-01	0	43	0	882376704	58	4774
2026-01-28 01:02:16.15	171.15	21.04	-43.3	-45.9	24.5	6.04e-01	0	44	0	884473856	58	4801
2026-01-28 01:02:17.14	171.26	20.90	-43.3	-45.8	24.5	6.00e-01	0	44	0	886046720	58	4752
2026-01-28 01:02:18.13	171.37	20.76	-43.3	-45.8	24.5	6.07e-01	0	44	0	888143872	58	4759
2026-01-28 01:02:19.12	171.48	20.62	-43.4	-45.9	24.5	6.05e-01	0	44	0	889716736	58	4768
2026-01-28 01:02:20.12	171.59	20.47	-43.4	-46.0	24.4	6.03e-01	0	44	0	891813888	58	4816
2026-01-28 01:02:21.11	171.69	20.34	-43.5	-46.0	24.3	6.03e-01	0	44	0	893386752	58	4845
2026-01-28 01:02:22.10	171.80	20.20	-43.6	-46.2	24.2	6.02e-01	0	44	0	895483904	58	4928
2026-01-28 01:02:23.10	171.90	20.06	-43.6	-46.2	24.1	6.04e-01	0	44	0	897581056	58	4937
2026-01-28 01:02:24.09	172.01	19.92	-43.5	-46.1	24.2	6.03e-01	0	44	0	899153920	58	4911
2026-01-28 01:02:25.08	172.11	19.79	-43.5	-46.1	24.3	6.02e-01	0	44	0	901251072	58	4873
2026-01-28 01:02:26.08	172.21	19.65	-43.5	-46.0	24.3	6.03e-01	0	44	0	902823936	58	4846
2026-01-28 01:02:27.07	172.31	19.52	-43.4	-46.0	24.3	6.07e-01	0	44	0	904921088	58	4830
2026-01-28 01:02:28.06	172.41	19.38	-43.5	-46.0	24.3	6.03e-01	0	44	0	906493952	58	4839
2026-01-28 01:02:29.05	172.51	19.25	-43.4	-45.9	24.4	6.03e-01	0	44	0	908591104	58	4794
2026-01-28 01:02:30.05	172.61	19.12	-43.4	-45.8	24.5	6.03e-01	0	44	0	910163968	58	4757
2026-01-28 01:02:31.04	172.70	18.98	-43.4	-45.8	24.4	6.05e-01	0	44	0	912261120	58	4758
2026-01-28 01:02:32.03	172.80	18.85	-43.4	-45.9	24.3	6.04e-01	0	44	0	913833984	58	4789
2026-01-28 01:02:33.02	172.90	18.72	-43.4	-45.8	24.4	6.05e-01	0	44	0	915931136	58	4757
2026-01-28 01:02:34.02	172.99	18.59	-43.4	-45.8	24.5	6.04e-01	0	44	0	917504000	58	4737
2026-01-28 01:02:35.01	173.08	18.46	-43.4	-45.8	24.5	6.04e-01	0	44	0	919601152	58	4756
2026-01-28 01:02:36.00	173.18	18.34	-43.4	-45.8	24.5	6.02e-01	0	44	0	921698304	58	4734
2026-01-28 01:02:37.00	173.27	18.21	-43.2	-45.7	24.7	6.02e-01	0	44	0	923271168	58	4655
2026-01-28 01:02:37.99	173.36	18.08	-43.2	-45.6	24.7	6.04e-01	0	44	0	925368320	58	4603
2026-01-28 01:02:38.98	173.45	17.95	-43.3	-45.7	24.6	6.04e-01	0	43	0	926941184	58	4687
2026-01-28 01:02:39.97	173.54	17.83	-43.2	-45.7	24.6	6.03e-01	0	43	0	929038336	58	4662
2026-01-28 01:02:40.97	173.63	17.70	-43.3	-45.7	24.6	6.05e-01	0	44	0	930611200	58	4687
2026-01-28 01:02:41.96	173.72	17.58	-43.4	-45.8	24.5	6.04e-01	0	44	0	932708352	58	4739
2026-01-28 01:02:42.95	173.81	17.45	-43.3	-45.7	24.5	6.06e-01	0	44	0	934805504	58	4695
2026-01-28 01:02:43.95	173.89	17.33	-43.2	-45.6	24.7	6.06e-01	0	44	0	936378368	58	4632
2026-01-28 01:02:44.94	173.98	17.21	-43.2	-45.6	24.6	6.03e-01	0	44	0	938475520	58	4644
2026-01-28 01:02:45.93	174.06	17.09	-43.3	-45.7	24.5	6.03e-01	0	44	0	940048384	58	4694
2026-01-28 01:02:46.92	174.15	16.96	-43.1	-45.6	24.7	6.06e-01	0	44	0	942145536	58	4606
2026-01-28 01:02:47.92	174.23	16.84	-43.1	-45.6	24.6	6.04e-01	0	44	0	943718400	58	4640
2026-01-28 01:02:48.91	174.32	16.72	-43.1	-45.6	24.6	6.00e-01	0	44	0	945815552	58	4616
2026-01-28 01:02:49.90	174.40	16.60	-43.1	-45.6	24.6	6.04e-01	0	44	0	947388416	58	4648
2026-01-28 01:02:50.89	174.48	16.49	-43.1	-45.7	24.5	6.04e-01	0	44	0	949485568	58	4677
2026-01-28 01:02:51.89	174.56	16.37	-43.2	-45.8	24.4	6.03e-01	0	44	0	951582720	58	4713
2026-01-28 01:02:52.88	174.64	16.25	-43.2	-45.8	24.4	6.06e-01	0	44	0	953155584	58	4755
2026-01-28 01:02:53.87	174.72	16.13	-43.2	-45.8	24.4	6.04e-01	0	44	0	954728448	58	4750
2026-01-28 01:02:54.87	174.80	16.01	-43.2	-45.8	24.4	6.04e-01	0	44	0	956825600	58	4751
2026-01-28 01:02:55.86	174.88	15.90	-43.2	-45.9	24.3	6.05e-01	0	44	0	958922752	58	4797
2026-01-28 01:02:56.85	174.96	15.78	-43.2	-45.8	24.5	6.04e-01	0	44	0	960495616	58	4735
2026-01-28 01:02:57.85	175.04	15.67	-43.2	-45.8	24.4	6.03e-01	0	44	0	962592768	58	4741
2026-01-28 01:02:58.84	175.11	15.55	-43.3	-45.9	24.3	6.02e-01	0	44	0	964165632	58	4787
2026-01-28 01:02:59.83	175.19	15.44	-43.2	-45.8	24.4	6.01e-01	0	44	0	966262784	58	4743
2026-01-28 01:03:00.82	175.27	15.33	-43.2	-45.8	24.3	6.04e-01	0	44	0	967835648	58	4713
2026-01-28 01:03:01.82	175.34	15.21	-43.1	-45.7	22.6	6.05e-01	0	44	0	969932800	58	4680
2026-01-28 01:03:02.81	175.42	15.10	-43.1	-45.7	24.5	6.02e-01	0	44	0	971505664	58	4666
2026-01-28 01:03:03.80	175.49	14.99	-43.1	-45.7	24.5	6.04e-01	0	44	0	973602816	58	4680
2026-01-28 01:03:04.80	175.56	14.88	-43.1	-45.8	24.4	6.04e-01	0	44	0	975699968	58	4713
2026-01-28 01:03:05.79	175.64	14.77	-43.1	-45.8	24.4	6.03e-01	0	44	0	977272832	58	4729
2026-01-28 01:03:06.78	175.71	14.66	-43.1	-45.9	24.4	6.00e-01	0	44	0	979369984	58	4767
2026-01-28 01:03:07.78	175.78	14.55	-43.2	-45.9	24.3	6.02e-01	0	44	0	980942848	58	4792
2026-01-28 01:03:08.77	175.85	14.44	-43.2	-46.0	24.2	6.05e-01	0	44	0	983040000	58	4822
2026-01-28 01:03:09.76	175.92	14.33	-43.1	-45.8	24.4	6.07e-01	0	44	0	984612864	58	4735
2026-01-28 01:03:10.75	175.99	14.22	-43.1	-45.8	24.4	6.03e-01	0	44	0	986710016	58	4727
2026-01-28 01:03:11.75	176.06	14.11	-43.1	-45.8	24.4	6.03e-01	0	44	0	988282880	58	4729
2026-01-28 01:03:12.74	176.13	14.00	-43.1	-45.8	24.4	6.03e-01	0	44	0	990380032	58	4757
2026-01-28 01:03:13.73	176.20	13.90	-43.1	-45.8	24.4	6.04e-01	0	44	0	991952896	58	4749
2026-01-28 01:03:14.72	176.27	13.79	-43.2	-45.9	24.3	6.03e-01	0	43	0	994050048	58	4798
2026-01-28 01:03:15.72	176.34	13.69	-43.3	-46.0	24.2	6.04e-01	0	44	0	996147200	58	4845
2026-01-28 01:03:16.71	176.40	13.58	-43.2	-46.0	24.2	6.05e-01	0	44	0	997720064	58	4831
2026-01-28 01:03:17.70	176.47	13.48	-43.2	-46.0	24.2	6.04e-01	0	44	0	999817216	58	4822
2026-01-28 01:03:18.70	176.54	13.37	-43.2	-45.9	24.2	6.02e-01	0	44	0	1001390080	58	4814
2026-01-28 01:03:19.69	176.60	13.27	-43.2	-45.8	24.3	6.03e-01	0	44	0	1003487232	58	4759
2026-01-28 01:03:20.68	176.67	13.16	-43.4	-46.1	24.1	6.04e-01	0	44	0	1005584384	58	4883
2026-01-28 01:03:21.68	176.73	13.06	-43.5	-46.2	24.0	6.04e-01	0	44	0	1007157248	58	4949
2026-01-28 01:03:22.67	176.80	12.96	-43.5	-46.1	24.0	6.02e-01	0	44	0	1008730112	58	4922
2026-01-28 01:03:23.66	176.86	12.86	-43.6	-46.2	24.0	6.01e-01	0	44	0	1010827264	58	4959
2026-01-28 01:03:24.66	176.93	12.75	-43.5	-46.1	24.0	6.02e-01	0	44	0	1012924416	58	4910
2026-01-28 01:03:25.65	176.99	12.65	-43.6	-46.2	24.0	6.04e-01	0	44	0	1014497280	58	4950
2026-01-28 01:03:26.64	177.05	12.55	-43.6	-46.3	23.7	6.06e-01	0	44	0	1016594432	58	4994
2026-01-28 01:03:27.63	177.11	12.45	-43.5	-46.1	24.0	6.03e-01	0	44	0	1018167296	58	4915
2026-01-28 01:03:28.63	177.18	12.35	-43.7	-46.3	23.9	6.04e-01	0	44	0	1020264448	58	5011
2026-01-28 01:03:29.62	177.24	12.25	-43.6	-46.2	23.9	6.05e-01	0	44	0	1021837312	58	4979
2026-01-28 01:03:30.61	177.30	12.15	-43.6	-46.2	24.0	6.03e-01	0	44	0	1023934464	58	4955
2026-01-28 01:03:31.61	177.36	12.06	-43.7	-46.3	23.9	6.03e-01	0	44	0	1025507328	58	5018
2026-01-28 01:03:32.60	177.42	11.96	-43.6	-46.3	23.9	6.04e-01	0	44	0	1027604480	58	4985
2026-01-28 01:03:33.59	177.48	11.86	-43.7	-46.4	23.8	6.04e-01	0	44	0	1029701632	58	5054
2026-01-28 01:03:34.59	177.54	11.76	-43.7	-46.4	23.8	6.02e-01	0	44	0	1031274496	58	5066
2026-01-28 01:03:35.58	177.60	11.67	-43.7	-46.5	23.7	6.03e-01	0	44	0	1033371648	58	5137
2026-01-28 01:03:36.57	177.65	11.57	-43.7	-46.4	23.7	6.03e-01	0	44	0	1034944512	58	5058
2026-01-28 01:03:37.57	177.71	11.47	-43.6	-46.4	23.7	6.04e-01	0	44	0	1037041664	58	5061
2026-01-28 01:03:38.56	177.77	11.38	-43.6	-46.5	23.7	6.04e-01	0	44	0	1038614528	58	5110
2026-01-28 01:03:39.55	177.83	11.28	-43.6	-46.5	23.7	6.04e-01	0	44	0	1040711680	58	5128
2026-01-28 01:03:40.54	177.88	11.19	-43.5	-46.4	23.7	6.02e-01	0	44	0	1042284544	58	5078
2026-01-28 01:03:41.54	177.94	11.09	-43.4	-46.5	23.7	6.03e-01	0	44	0	1044381696	58	5106
2026-01-28 01:03:42.53	178.00	11.00	-43.3	-46.4	23.7	6.05e-01	0	44	0	1045954560	58	5076
2026-01-28 01:03:43.52	178.05	10.90	-43.3	-46.4	23.8	6.05e-01	0	44	0	1048051712	58	5047
2026-01-28 01:03:44.51	178.11	10.81	-43.3	-46.4	23.7	6.06e-01	0	44	0	1050148864	58	5063
2026-01-28 01:03:45.51	178.16	10.72	-43.3	-46.4	23.7	6.06e-01	0	44	0	1051721728	58	5076
2026-01-28 01:03:46.50	178.22	10.62	-43.4	-46.5	23.6	6.04e-01	0	44	0	1053818880	58	5158
2026-01-28 01:03:47.49	178.27	10.53	-43.3	-46.5	23.5	6.01e-01	0	43	0	1055391744	58	5149
2026-01-28 01:03:48.49	178.33	10.44	-43.4	-46.6	23.5	6.03e-01	0	44	0	1057488896	58	5184
2026-01-28 01:03:49.48	178.38	10.35	-43.3	-46.6	23.5	6.00e-01	0	44	0	1059061760	58	5182
2026-01-28 01:03:50.47	178.43	10.26	-43.4	-46.6	23.4	6.07e-01	0	44	0	1061158912	58	5204
2026-01-28 01:03:51.47	178.49	10.17	-43.4	-46.7	23.4	6.04e-01	0	44	0	1062731776	58	5228
2026-01-28 01:03:52.46	178.54	10.08	-43.5	-46.8	23.3	6.04e-01	0	44	0	1064828928	58	5286
2026-01-28 01:03:53.45	178.59	9.99	-43.4	-46.6	23.5	6.03e-01	0	44	0	1066926080	58	5180
2026-01-28 01:03:54.44	178.64	9.90	-43.3	-46.5	23.5	6.04e-01	0	44	0	1068498944	58	5141
2026-01-28 01:03:55.44	178.70	9.81	-43.4	-46.6	17.8	6.07e-01	0	44	0	1070596096	58	5203
2026-01-28 01:03:56.43	178.75	9.72	-43.3	-46.5	23.4	6.05e-01	0	44	0	1072168960	58	5156
2026-01-28 01:03:57.42	178.80	9.63	-43.3	-46.5	23.4	6.04e-01	0	44	0	1074266112	58	5153
2026-01-28 01:03:58.42	178.85	9.54	-43.5	-46.8	23.2	6.03e-01	0	44	0	1075838976	58	5326
2026-01-28 01:03:59.41	178.90	9.45	-43.4	-46.6	23.4	6.04e-01	0	44	0	1077936128	58	5195
2026-01-28 01:04:00.40	178.95	9.36	-43.4	-46.7	23.3	6.03e-01	0	43	0	1079508992	58	5229
2026-01-28 01:04:01.39	179.00	9.28	-43.4	-46.7	23.3	6.04e-01	0	44	0	1081606144	58	5242
2026-01-28 01:04:02.38	179.05	9.19	-43.4	-46.7	23.3	6.06e-01	0	44	0	1083703296	58	5254
2026-01-28 01:04:03.38	179.10	9.10	-43.6	-46.9	23.1	6.02e-01	0	44	0	1085276160	58	5345
2026-01-28 01:04:04.37	179.15	9.02	-43.7	-47.0	23.0	6.02e-01	0	44	0	1087373312	58	5438
2026-01-28 01:04:05.36	179.20	8.93	-50.7	-69.9	3.7	7.45e-01	0	44	104	1088946176	72	34075
2026-01-28 01:04:06.36	179.25	8.84	-50.2	-70.8	3.8	7.47e-01	0	44	104	1088946176	71	39981
2026-01-28 01:04:07.35	179.29	8.76	-50.8	-71.3	3.8	7.42e-01	0	44	104	1088946176	72	40031
2026-01-28 01:04:08.34	179.34	8.67	-49.8	-71.6	3.8	7.45e-01	0	43	104	1088946176	71	43631
2026-01-28 01:04:09.34	179.39	8.59	-50.4	-71.7	3.8	7.47e-01	0	44	104	1088946176	72	41496
2026-01-28 01:04:10.33	179.44	8.50	-50.8	-71.7	3.8	7.48e-01	0	44	104	1088946176	72	41535
2026-01-28 01:04:11.32	179.48	8.42	-51.3	-71.7	3.8	7.49e-01	0	44	104	1088946176	73	39447
2026-01-28 01:04:12.32	179.53	8.33	-51.4	-71.7	3.8	7.46e-01	0	44	104	1088946176	73	39299
2026-01-28 01:04:13.31	179.58	8.25	-51.3	-71.7	3.8	7.47e-01	0	44	104	1088946176	73	39394
2026-01-28 01:04:14.30	179.62	8.17	-51.3	-71.4	3.8	7.44e-01	0	44	104	1088946176	73	38236
2026-01-28 01:04:15.29	179.67	8.08	-51.3	-71.4	3.8	7.50e-01	0	44	104	1088946176	73	38131
2026-01-28 01:04:16.29	179.71	8.00	-51.0	-71.6	3.8	7.47e-01	0	44	104	1088946176	72	41383
2026-01-28 01:04:17.28	179.76	7.92	-51.3	-71.7	3.8	7.45e-01	0	44	104	1088946176	73	39176
2026-01-28 01:04:18.27	179.80	7.84	-51.5	-71.5	3.8	7.44e-01	0	44	104	1088946176	73	38504
2026-01-28 01:04:19.27	179.85	7.75	-51.3	-71.6	3.8	7.46e-01	0	44	104	1088946176	73	38691
2026-01-28 01:04:20.26	179.89	7.67	-51.2	-71.4	3.8	7.43e-01	0	44	104	1088946176	73	38058
2026-01-28 01:04:21.25	179.94	7.59	-51.3	-71.3	3.8	7.47e-01	0	44	104	1088946176	73	37577
2026-01-28 01:04:22.24	179.98	7.51	-50.7	-71.3	3.8	7.46e-01	0	44	104	1088946176	73	37628
2026-01-28 01:04:23.24	180.03	7.43	-51.2	-71.3	3.8	7.47e-01	0	44	104	1088946176	73	37671
2026-01-28 01:04:24.23	180.07	7.35	-50.8	-71.3	3.8	7.43e-01	0	44	104	1088946176	73	37667
2026-01-28 01:04:25.22	180.11	7.27	-50.7	-71.4	3.8	7.44e-01	0	44	104	1088946176	73	37808
2026-01-28 01:04:26.21	180.16	7.19	-50.7	-71.4	3.8	7.49e-01	0	44	104	1088946176	73	37912
2026-01-28 01:04:27.21	180.20	7.11	-51.3	-71.4	3.8	7.48e-01	0	44	104	1088946176	73	37981
2026-01-28 01:04:28.20	180.24	7.03	-50.9	-71.4	3.8	7.48e-01	0	44	104	1088946176	73	38035
2026-01-28 01:04:29.20	180.28	6.95	-50.9	-71.4	3.8	7.48e-01	0	44	104	1088946176	73	38030
2026-01-28 01:04:30.19	180.33	6.87	-51.0	-71.4	3.8	7.46e-01	0	44	104	1088946176	73	38039
2026-01-28 01:04:31.18	180.37	6.79	-50.7	-71.4	3.8	7.46e-01	0	44	104	1088946176	73	38076
2026-01-28 01:04:32.17	180.41	6.71	-50.7	-71.4	3.8	7.47e-01	0	44	104	1088946176	73	38032
2026-01-28 01:04:33.16	180.45	6.64	-51.0	-71.4	3.8	7.44e-01	0	44	104	1088946176	73	37976
2026-01-28 01:04:34.16	180.49	6.56	-51.0	-71.4	3.8	7.42e-01	0	44	104	1088946176	73	37954
2026-01-28 01:04:35.15	180.53	6.48	-50.1	-71.4	3.8	7.48e-01	0	44	104	1088946176	72	40063
2026-01-28 01:04:36.15	180.57	6.40	-50.6	-71.3	3.8	7.48e-01	0	44	104	1088946176	72	39999
2026-01-28 01:04:37.14	180.61	6.32	-50.6	-71.3	3.8	7.45e-01	0	44	104	1088946176	72	39982
2026-01-28 01:04:38.13	180.65	6.25	-50.8	-71.3	3.8	7.42e-01	0	44	104	1088946176	72	40006
2026-01-28 01:04:39.12	180.69	6.17	-50.9	-71.3	3.8	7.48e-01	0	44	104	1088946176	73	37742
2026-01-28 01:04:40.12	180.73	6.09	-50.7	-71.3	3.8	7.48e-01	0	44	104	1088946176	73	37601
2026-01-28 01:04:41.11	180.77	6.02	-50.3	-71.3	3.8	7.44e-01	0	44	104	1088946176	72	39686
2026-01-28 01:04:42.10	180.81	5.94	-50.3	-71.3	3.8	7.45e-01	0	44	104	1088946176	72	39724
2026-01-28 01:04:43.10	180.85	5.87	-50.3	-71.3	3.8	7.44e-01	0	44	104	1088946176	72	39652
2026-01-28 01:04:44.09	180.89	5.79	-50.3	-71.3	3.8	7.47e-01	0	44	104	1088946176	72	39636
2026-01-28 01:04:45.08	180.93	5.72	-50.3	-71.3	3.8	7.49e-01	0	44	104	1088946176	72	39636
2026-01-28 01:04:46.08	180.97	5.64	-50.3	-71.3	3.8	7.46e-01	0	44	104	1088946176	72	39679
2026-01-28 01:04:47.07	181.01	5.56	-50.3	-71.3	3.8	7.49e-01	0	44	104	1088946176	72	39602
2026-01-28 01:04:48.06	181.05	5.49	-50.3	-71.3	3.8	7.46e-01	0	44	104	1088946176	72	39682
2026-01-28 01:04:49.06	181.09	5.42	-50.3	-71.3	3.8	7.47e-01	0	44	104	1088946176	72	39598
2026-01-28 01:04:50.05	181.12	5.34	-50.3	-71.3	3.8	7.48e-01	0	44	104	1088946176	72	39631
2026-01-28 01:04:51.04	181.16	5.27	-50.3	-71.3	3.8	7.47e-01	0	44	104	1088946176	72	39602
2026-01-28 01:04:52.04	181.20	5.19	-50.3	-71.3	3.8	7.43e-01	0	44	104	1088946176	72	39595
2026-01-28 01:04:53.03	181.24	5.12	-50.3	-71.2	3.8	7.47e-01	0	44	104	1088946176	72	39563
2026-01-28 01:04:54.02	181.27	5.05	-50.3	-71.2	3.8	7.43e-01	0	44	104	1088946176	72	39566
2026-01-28 01:04:55.01	181.31	4.97	-50.3	-71.2	3.8	7.43e-01	0	44	104	1088946176	72	39564

#Closed at: 2026-01-28 01:04:56
#Recorded file [1088 MB]: D:/Data/31040_260128_035340.dat