passes_logs/2026/01/28/T1/T1__20260128_113434_NOAA_21_JPSS-2_rec.log

#Pass ID: 20260128_113434_NOAA 21 (JPSS-2)
#Satellite: NOAA 21 (JPSS-2)
#Configuration: NOAA 21
#almurnet v.1.7.20251203
#Start time: 2026-01-28 11:34:35

#Version: 2.0.20230620
#Station: T1
#Location: 37.570604 lon 55.790049 lat
#TLE: 1 54234U 22150A   26027.55906748  .00000170  00000+0  10132-3 0  9996
#TLE: 2 54234  98.7510 328.3076 0000860 204.4692 155.6443 14.19540154166599

#Time	Az	El	Level	Level2	SNR	BER	BlckErr	Temp	State	Recorded	gain1	gain2
2026-01-28 11:34:35.31	214.88	5.07	-49.7	-63.0	3.8	1.49e+00	0	38	0	0	70	17222
2026-01-28 11:34:36.30	214.97	5.13	-50.0	-63.1	3.8	1.49e+00	0	38	104	0	71	16349
2026-01-28 11:34:37.30	215.06	5.18	-50.2	-63.1	3.8	1.49e+00	0	38	104	0	71	16340
2026-01-28 11:34:38.29	215.15	5.24	-50.1	-63.1	3.8	1.49e+00	0	38	104	0	71	16386
2026-01-28 11:34:39.28	215.25	5.30	-50.0	-63.1	3.8	1.49e+00	0	38	104	0	71	16315
2026-01-28 11:34:40.27	215.34	5.36	-50.0	-63.0	3.8	1.49e+00	0	38	104	0	71	16253
2026-01-28 11:34:41.27	215.43	5.41	-49.9	-63.0	3.8	1.49e+00	0	38	104	0	71	16239
2026-01-28 11:34:42.26	215.53	5.47	-50.0	-63.0	3.8	1.49e+00	0	38	104	0	71	16236
2026-01-28 11:34:43.25	215.62	5.53	-50.0	-63.0	3.8	1.49e+00	0	38	104	0	71	16135
2026-01-28 11:34:44.25	215.71	5.59	-49.9	-62.9	3.8	1.49e+00	0	38	104	0	71	16107
2026-01-28 11:34:45.24	215.81	5.64	-49.7	-62.9	3.8	1.49e+00	0	38	104	0	71	15979
2026-01-28 11:34:46.23	215.90	5.70	-49.7	-62.8	3.8	1.49e+00	0	38	104	0	71	15853
2026-01-28 11:34:47.23	216.00	5.76	-49.7	-62.8	3.8	1.49e+00	0	38	104	0	71	15860
2026-01-28 11:34:48.22	216.09	5.82	-49.7	-62.7	3.8	1.49e+00	0	38	104	0	71	15698
2026-01-28 11:34:49.21	216.19	5.87	-49.6	-62.7	3.8	1.49e+00	0	39	104	0	70	16554
2026-01-28 11:34:50.21	216.29	5.93	-49.4	-62.5	3.8	1.49e+00	0	38	104	0	70	16231
2026-01-28 11:34:51.20	216.38	5.99	-47.2	-62.1	3.8	1.49e+00	0	38	104	0	66	19554
2026-01-28 11:34:52.19	216.48	6.05	-47.2	-62.0	3.8	1.49e+00	0	38	104	0	66	19280
2026-01-28 11:34:53.18	216.58	6.11	-47.2	-62.0	3.8	1.49e+00	0	38	104	0	66	19329
2026-01-28 11:34:54.18	216.68	6.17	-47.2	-62.0	3.8	1.49e+00	0	38	104	0	66	19261
2026-01-28 11:34:55.17	216.78	6.22	-47.2	-62.0	3.8	1.49e+00	0	38	104	0	66	19182
2026-01-28 11:34:56.16	216.87	6.28	-47.2	-61.9	3.8	1.49e+00	0	39	104	0	66	19024
2026-01-28 11:34:57.16	216.97	6.34	-47.2	-61.8	3.8	1.49e+00	0	39	104	0	66	18901
2026-01-28 11:34:58.15	217.07	6.40	-47.2	-61.8	3.8	1.49e+00	0	39	104	0	66	18798
2026-01-28 11:34:59.14	217.17	6.46	-47.2	-61.8	3.8	1.49e+00	0	39	104	0	66	18835
2026-01-28 11:35:00.13	217.27	6.51	-47.2	-61.9	3.8	1.49e+00	0	39	104	0	66	19007
2026-01-28 11:35:01.13	217.37	6.57	-47.2	-61.9	3.8	1.49e+00	0	39	104	0	66	19166
2026-01-28 11:35:02.12	217.47	6.63	-47.3	-62.0	3.8	1.49e+00	0	38	104	0	66	19192
2026-01-28 11:35:03.11	217.58	6.69	-47.3	-61.9	3.8	1.49e+00	0	39	104	0	66	19149
2026-01-28 11:35:04.11	217.68	6.75	-47.2	-61.9	3.8	1.49e+00	0	39	104	0	66	18972
2026-01-28 11:35:05.10	217.78	6.81	-47.1	-61.8	3.8	1.49e+00	0	39	104	0	66	18782
2026-01-28 11:35:06.09	217.88	6.87	-47.2	-61.7	3.8	1.49e+00	0	39	104	0	66	18640
2026-01-28 11:35:07.08	217.99	6.93	-47.1	-61.6	3.8	1.49e+00	0	39	104	0	66	18353
2026-01-28 11:35:08.08	218.09	6.99	-47.1	-61.4	3.8	1.49e+00	0	39	104	0	66	18066
2026-01-28 11:35:09.07	218.19	7.04	-47.2	-61.4	3.8	1.49e+00	0	39	104	0	66	17896
2026-01-28 11:35:10.06	218.30	7.10	-47.2	-61.3	3.8	1.49e+00	0	39	104	0	66	17859
2026-01-28 11:35:11.06	218.40	7.16	-47.1	-61.4	3.8	1.49e+00	0	39	104	0	66	18026
2026-01-28 11:35:12.05	218.51	7.22	-47.2	-61.5	3.8	1.49e+00	0	39	104	0	66	18252
2026-01-28 11:35:13.04	218.61	7.28	-47.2	-61.7	3.8	1.49e+00	0	39	104	0	66	18674
2026-01-28 11:35:14.04	218.72	7.34	-47.2	-61.8	3.8	1.49e+00	0	39	104	0	66	18908
2026-01-28 11:35:15.03	218.83	7.40	-47.2	-61.9	3.8	1.49e+00	0	39	104	0	66	19141
2026-01-28 11:35:16.02	218.93	7.46	-47.3	-62.0	3.8	1.49e+00	0	39	104	0	66	19245
2026-01-28 11:35:17.01	219.04	7.52	-47.2	-62.0	3.8	1.49e+00	0	39	104	0	66	19187
2026-01-28 11:35:18.01	219.15	7.58	-47.2	-62.0	3.8	1.49e+00	0	39	104	0	66	19206
2026-01-28 11:35:19.00	219.25	7.64	-47.1	-62.0	3.8	1.49e+00	0	39	104	0	66	19224
2026-01-28 11:35:19.99	219.36	7.70	-47.1	-61.8	3.8	1.49e+00	0	39	104	0	66	18846
2026-01-28 11:35:20.99	219.47	7.76	-47.2	-61.2	3.8	1.49e+00	0	39	104	0	66	17615
2026-01-28 11:35:21.98	219.58	7.82	-47.1	-60.3	3.8	1.49e+00	0	39	104	0	66	15910
2026-01-28 11:35:22.97	219.69	7.88	-47.1	-58.9	4.0	1.48e+00	0	39	104	0	66	13469
2026-01-28 11:35:23.96	219.80	7.94	-47.0	-58.7	3.9	1.47e+00	0	39	104	0	65	13890
2026-01-28 11:35:24.96	219.91	8.00	-46.9	-58.0	4.3	1.46e+00	0	39	104	0	65	12901
2026-01-28 11:35:25.95	220.02	8.06	-46.9	-58.4	4.2	1.47e+00	0	39	104	0	65	13540
2026-01-28 11:35:26.94	220.13	8.12	-46.9	-58.7	4.1	1.47e+00	0	39	104	0	65	13911
2026-01-28 11:35:27.94	220.25	8.18	-46.8	-57.0	4.7	1.43e+00	0	39	104	0	65	11456
2026-01-28 11:35:28.93	220.36	8.24	-46.3	-53.8	6.9	3.42e-01	0	39	0	0	64	8397
2026-01-28 11:35:29.92	220.47	8.30	-45.5	-50.9	9.8	2.69e-02	0	39	0	0	63	6405
2026-01-28 11:35:30.92	220.58	8.36	-44.3	-48.4	12.4	5.02e-04	0	39	0	0	60	5714
2026-01-28 11:35:31.91	220.70	8.42	-43.4	-46.6	14.1	3.00e-06	0	39	0	0	58	5215
2026-01-28 11:35:32.90	220.81	8.48	-42.6	-45.5	15.3	0.00e+00	0	39	0	0	57	4824
2026-01-28 11:35:33.90	220.93	8.54	-42.0	-44.6	16.1	0.00e+00	0	39	0	0	56	4637
2026-01-28 11:35:34.89	221.04	8.60	-41.6	-44.2	16.4	0.00e+00	0	39	0	0	55	4687
2026-01-28 11:35:35.88	221.16	8.66	-41.7	-44.3	16.3	0.00e+00	0	39	0	0	55	4712
2026-01-28 11:35:36.87	221.27	8.72	-42.0	-44.7	15.9	0.00e+00	0	39	0	0	55	4954
2026-01-28 11:35:37.87	221.39	8.78	-42.7	-45.6	15.0	0.00e+00	0	39	0	0	55	5520
2026-01-28 11:35:38.86	221.51	8.84	-43.6	-46.9	13.9	7.00e-07	0	39	0	0	57	5711
2026-01-28 11:35:39.85	221.62	8.90	-44.4	-48.4	12.4	7.32e-05	0	39	0	0	59	6033
2026-01-28 11:35:40.84	221.74	8.96	-45.1	-50.0	10.8	1.89e-03	0	39	0	0	60	6827
2026-01-28 11:35:41.84	221.86	9.02	-45.8	-51.8	8.9	1.29e-02	0	39	0	0	62	7523
2026-01-28 11:35:42.83	221.98	9.08	-46.0	-52.5	8.2	4.91e-02	0	39	0	0	62	8156
2026-01-28 11:35:43.82	222.10	9.14	-47.1	-55.1	5.7	1.46e-01	0	39	0	0	64	9829
2026-01-28 11:35:44.82	222.22	9.20	-46.6	-52.8	8.0	3.87e-02	0	40	0	0	64	7486
2026-01-28 11:35:45.81	222.34	9.27	-44.2	-47.4	13.6	3.46e-04	0	39	0	0	60	5061
2026-01-28 11:35:46.80	222.46	9.33	-47.2	-55.3	5.8	6.99e-03	0	39	0	0	65	9434
2026-01-28 11:35:47.80	222.58	9.39	-44.6	-47.8	13.1	1.08e-01	0	39	0	0	61	5021
2026-01-28 11:35:48.79	222.70	9.45	-44.1	-46.9	14.0	1.50e-06	0	39	0	0	59	5078
2026-01-28 11:35:49.78	222.82	9.51	-43.9	-46.6	14.2	7.00e-07	0	39	0	0	59	4926
2026-01-28 11:35:50.77	222.95	9.57	-43.4	-45.9	15.0	0.00e+00	0	39	0	0	58	4772
2026-01-28 11:35:51.77	223.07	9.63	-42.6	-44.9	16.0	0.00e+00	0	39	0	0	57	4512
2026-01-28 11:35:52.76	223.19	9.69	-42.6	-44.9	16.1	0.00e+00	0	39	0	0	56	4765
2026-01-28 11:35:53.75	223.32	9.75	-42.3	-44.5	16.5	0.00e+00	0	39	0	0	56	4567
2026-01-28 11:35:54.75	223.44	9.81	-42.0	-44.2	16.8	0.00e+00	0	39	0	0	56	4393
2026-01-28 11:35:55.74	223.57	9.88	-41.4	-43.5	17.3	0.00e+00	0	40	0	0	54	4566
2026-01-28 11:35:56.73	223.69	9.94	-41.2	-43.2	17.6	0.00e+00	0	40	0	0	54	4400
2026-01-28 11:35:57.73	223.82	10.00	-41.2	-43.2	17.6	0.00e+00	0	39	0	0	54	4403
2026-01-28 11:35:58.72	223.95	10.06	-41.1	-43.1	17.6	0.00e+00	0	39	0	0	54	4376
2026-01-28 11:35:59.71	224.07	10.12	-41.0	-43.0	17.8	0.00e+00	0	39	0	0	54	4308
2026-01-28 11:36:00.70	224.20	10.18	-40.9	-42.9	17.8	0.00e+00	0	39	0	0	53	4530
2026-01-28 11:36:01.70	224.33	10.24	-40.9	-42.9	17.8	0.00e+00	0	40	0	0	53	4525
2026-01-28 11:36:02.69	224.46	10.31	-40.8	-42.8	17.9	0.00e+00	0	40	0	0	53	4467
2026-01-28 11:36:03.68	224.59	10.37	-40.8	-42.7	18.0	0.00e+00	0	39	0	0	53	4427
2026-01-28 11:36:04.68	224.72	10.43	-40.8	-42.8	18.0	0.00e+00	0	40	0	0	53	4446
2026-01-28 11:36:05.67	224.85	10.49	-40.7	-42.7	18.1	0.00e+00	0	40	0	0	53	4412
2026-01-28 11:36:06.66	224.98	10.55	-40.8	-42.8	18.0	0.00e+00	0	39	0	0	53	4454
2026-01-28 11:36:07.65	225.11	10.61	-40.9	-42.9	17.9	0.00e+00	0	39	0	0	53	4508
2026-01-28 11:36:08.65	225.24	10.67	-40.9	-42.8	18.0	0.00e+00	0	40	0	0	53	4483
2026-01-28 11:36:09.64	225.38	10.74	-40.7	-42.7	18.1	0.00e+00	0	40	0	0	53	4404
2026-01-28 11:36:10.63	225.51	10.80	-40.6	-42.5	18.3	0.00e+00	0	40	0	0	53	4323
2026-01-28 11:36:11.63	225.64	10.86	-40.6	-42.5	18.4	0.00e+00	0	40	0	0	53	4292
2026-01-28 11:36:12.62	225.78	10.92	-40.5	-42.4	18.4	0.00e+00	0	40	0	0	52	4531
2026-01-28 11:36:13.61	225.91	10.98	-40.5	-42.3	18.5	0.00e+00	0	40	0	0	52	4490
2026-01-28 11:36:14.60	226.05	11.04	-40.5	-42.4	18.4	0.00e+00	0	40	0	0	52	4511
2026-01-28 11:36:15.60	226.18	11.11	-40.5	-42.4	18.4	0.00e+00	0	40	0	0	52	4505
2026-01-28 11:36:16.59	226.32	11.17	-40.4	-42.3	18.6	0.00e+00	0	40	0	0	52	4448
2026-01-28 11:36:17.58	226.46	11.23	-40.3	-42.1	18.7	0.00e+00	0	40	0	0	52	4389
2026-01-28 11:36:18.58	226.59	11.29	-40.3	-42.1	18.7	0.00e+00	0	40	0	0	52	4384
2026-01-28 11:36:19.57	226.73	11.35	-40.2	-42.1	18.7	0.00e+00	0	40	0	0	52	4347
2026-01-28 11:36:20.56	226.87	11.41	-40.2	-42.0	18.8	0.00e+00	0	40	0	0	52	4322
2026-01-28 11:36:21.55	227.01	11.48	-40.1	-41.9	18.9	0.00e+00	0	40	0	0	52	4277
2026-01-28 11:36:22.55	227.15	11.54	-40.1	-41.9	18.9	0.00e+00	0	40	0	0	52	4284
2026-01-28 11:36:23.54	227.29	11.60	-40.1	-42.0	18.8	0.00e+00	0	40	0	0	52	4299
2026-01-28 11:36:24.53	227.43	11.66	-40.2	-42.0	18.7	0.00e+00	0	40	0	0	52	4325
2026-01-28 11:36:25.52	227.57	11.72	-40.2	-42.0	18.8	0.00e+00	0	40	0	0	52	4323
2026-01-28 11:36:26.52	227.71	11.78	-40.2	-42.0	18.7	0.00e+00	0	40	0	0	52	4330
2026-01-28 11:36:27.51	227.86	11.85	-40.2	-42.0	18.8	0.00e+00	0	40	0	0	52	4315
2026-01-28 11:36:28.50	228.00	11.91	-40.3	-42.1	18.7	0.00e+00	0	40	0	0	52	4383
2026-01-28 11:36:29.50	228.14	11.97	-40.2	-42.1	18.7	0.00e+00	0	40	0	0	52	4351
2026-01-28 11:36:30.49	228.29	12.03	-40.2	-42.1	18.7	0.00e+00	0	40	0	0	52	4341
2026-01-28 11:36:31.48	228.43	12.09	-40.2	-42.0	18.8	0.00e+00	0	40	0	0	52	4320
2026-01-28 11:36:32.47	228.58	12.15	-40.3	-42.1	18.7	0.00e+00	0	40	0	0	52	4368
2026-01-28 11:36:33.47	228.73	12.22	-40.3	-42.1	18.7	0.00e+00	0	40	0	0	52	4387
2026-01-28 11:36:34.46	228.87	12.28	-40.3	-42.1	18.7	0.00e+00	0	40	0	0	52	4385
2026-01-28 11:36:35.45	229.02	12.34	-40.3	-42.1	18.7	0.00e+00	0	40	0	0	52	4383
2026-01-28 11:36:36.45	229.17	12.40	-40.3	-42.1	18.7	0.00e+00	0	40	0	0	52	4364
2026-01-28 11:36:37.44	229.32	12.46	-40.4	-42.2	18.6	0.00e+00	0	40	0	0	52	4418
2026-01-28 11:36:38.43	229.46	12.52	-40.4	-42.3	18.6	0.00e+00	0	40	0	0	52	4448
2026-01-28 11:36:39.42	229.61	12.59	-40.5	-42.3	18.5	0.00e+00	0	40	0	0	52	4479
2026-01-28 11:36:40.42	229.77	12.65	-40.5	-42.3	18.5	0.00e+00	0	40	0	0	52	4484
2026-01-28 11:36:41.41	229.92	12.71	-40.4	-42.3	18.6	0.00e+00	0	40	0	0	52	4445
2026-01-28 11:36:42.40	230.07	12.77	-40.4	-42.2	18.7	0.00e+00	0	39	0	0	52	4418
2026-01-28 11:36:43.40	230.22	12.83	-40.3	-42.2	18.7	0.00e+00	0	40	0	0	52	4410
2026-01-28 11:36:44.39	230.37	12.89	-40.4	-42.3	18.6	0.00e+00	0	39	0	0	52	4464
2026-01-28 11:36:45.38	230.53	12.96	-40.4	-42.3	18.6	0.00e+00	0	40	0	0	52	4455
2026-01-28 11:36:46.37	230.68	13.02	-40.4	-42.2	18.7	0.00e+00	0	40	0	0	52	4419
2026-01-28 11:36:47.37	230.83	13.08	-40.4	-42.2	18.7	0.00e+00	0	40	0	0	52	4422
2026-01-28 11:36:48.36	230.99	13.14	-40.3	-42.1	18.8	0.00e+00	0	40	0	0	52	4382
2026-01-28 11:36:49.35	231.15	13.20	-40.2	-42.1	18.8	0.00e+00	0	40	0	0	52	4353
2026-01-28 11:36:50.35	231.30	13.26	-40.2	-42.0	18.8	0.00e+00	0	40	0	0	52	4340
2026-01-28 11:36:51.34	231.46	13.32	-40.2	-42.0	18.8	0.00e+00	0	40	0	0	52	4338
2026-01-28 11:36:52.33	231.62	13.38	-40.1	-41.9	18.9	0.00e+00	0	40	0	0	52	4286
2026-01-28 11:36:53.32	231.77	13.45	-40.1	-41.9	18.9	0.00e+00	0	40	0	0	52	4273
2026-01-28 11:36:54.32	231.94	13.51	-40.1	-41.9	18.9	0.00e+00	0	40	0	0	52	4275
2026-01-28 11:36:55.31	232.09	13.57	-40.0	-41.8	19.0	0.00e+00	0	40	0	0	52	4240
2026-01-28 11:36:56.30	232.25	13.63	-40.1	-41.9	18.9	0.00e+00	0	40	0	0	52	4278
2026-01-28 11:36:57.30	232.42	13.69	-40.1	-41.9	18.9	0.00e+00	0	40	0	0	52	4273
2026-01-28 11:36:58.29	232.58	13.75	-40.1	-41.9	18.9	0.00e+00	0	40	0	0	52	4286
2026-01-28 11:36:59.28	232.74	13.81	-40.1	-41.9	18.9	0.00e+00	0	40	0	0	52	4286
2026-01-28 11:37:00.27	232.90	13.87	-40.1	-41.9	19.1	0.00e+00	0	40	0	0	51	4509
2026-01-28 11:37:01.27	233.07	13.93	-40.1	-42.0	19.0	0.00e+00	0	40	0	0	51	4552
2026-01-28 11:37:02.26	233.23	13.99	-40.3	-42.1	18.9	0.00e+00	0	40	0	0	51	4626
2026-01-28 11:37:03.25	233.39	14.05	-40.1	-41.9	19.1	0.00e+00	0	40	0	0	51	4512
2026-01-28 11:37:04.25	233.56	14.11	-40.1	-41.9	19.1	0.00e+00	0	40	0	0	51	4517
2026-01-28 11:37:05.24	233.73	14.18	-40.1	-42.0	19.0	0.00e+00	0	40	0	0	51	4555
2026-01-28 11:37:06.23	233.89	14.24	-40.1	-41.9	19.0	0.00e+00	0	39	0	0	51	4529
2026-01-28 11:37:07.22	234.06	14.30	-40.1	-41.9	19.0	0.00e+00	0	40	0	0	51	4518
2026-01-28 11:37:08.22	234.23	14.36	-40.2	-42.0	19.0	0.00e+00	0	40	0	0	51	4552
2026-01-28 11:37:09.21	234.40	14.42	-40.1	-41.9	19.0	0.00e+00	0	40	0	0	51	4542
2026-01-28 11:37:10.20	234.57	14.48	-40.1	-41.9	19.0	0.00e+00	0	40	0	0	51	4545
2026-01-28 11:37:11.20	234.74	14.54	-40.2	-42.0	18.9	0.00e+00	0	40	0	0	51	4577
2026-01-28 11:37:12.19	234.91	14.60	-40.1	-41.9	19.0	0.00e+00	0	40	0	0	51	4520
2026-01-28 11:37:13.18	235.08	14.66	-40.0	-41.8	19.1	0.00e+00	0	40	0	0	51	4470
2026-01-28 11:37:14.18	235.25	14.72	-40.0	-41.8	19.1	0.00e+00	0	40	0	0	51	4454
2026-01-28 11:37:15.17	235.43	14.77	-40.0	-41.8	19.0	0.00e+00	0	40	0	0	51	4458
2026-01-28 11:37:16.16	235.60	14.83	-40.1	-41.9	19.0	0.00e+00	0	40	0	0	51	4506
2026-01-28 11:37:17.15	235.77	14.89	-40.1	-41.9	19.0	0.00e+00	0	40	0	0	51	4510
2026-01-28 11:37:18.15	235.95	14.95	-40.1	-41.9	19.0	0.00e+00	0	40	0	0	51	4509
2026-01-28 11:37:19.14	236.12	15.01	-40.1	-41.9	18.9	0.00e+00	0	40	0	0	51	4545
2026-01-28 11:37:20.13	236.30	15.07	-40.3	-42.1	18.8	0.00e+00	0	40	0	0	51	4629
2026-01-28 11:37:21.13	236.48	15.13	-40.2	-42.0	18.9	0.00e+00	0	40	0	0	51	4598
2026-01-28 11:37:22.12	236.65	15.19	-40.2	-42.0	19.0	0.00e+00	0	40	0	0	51	4562
2026-01-28 11:37:23.11	236.83	15.25	-40.2	-42.1	18.9	0.00e+00	0	40	0	0	51	4617
2026-01-28 11:37:24.10	237.01	15.31	-40.1	-41.9	19.0	0.00e+00	0	40	0	0	51	4539
2026-01-28 11:37:25.10	237.19	15.36	-40.1	-42.0	19.0	0.00e+00	0	40	0	0	51	4547
2026-01-28 11:37:26.09	237.37	15.42	-40.2	-42.0	18.9	0.00e+00	0	40	0	0	51	4573
2026-01-28 11:37:27.08	237.55	15.48	-40.3	-42.1	18.9	0.00e+00	0	40	0	0	51	4622
2026-01-28 11:37:28.08	237.73	15.54	-40.2	-42.0	19.0	0.00e+00	0	40	0	0	51	4565
2026-01-28 11:37:29.07	237.92	15.60	-40.1	-41.9	19.1	0.00e+00	0	40	0	0	51	4530
2026-01-28 11:37:30.06	238.10	15.66	-40.2	-42.0	19.0	0.00e+00	0	40	0	0	51	4578
2026-01-28 11:37:31.05	238.28	15.71	-40.1	-41.9	19.1	0.00e+00	0	40	0	0	51	4539
2026-01-28 11:37:32.05	238.47	15.77	-40.2	-42.0	19.0	0.00e+00	0	40	0	0	51	4570
2026-01-28 11:37:33.04	238.65	15.83	-40.2	-42.1	18.9	0.00e+00	0	40	0	0	51	4610
2026-01-28 11:37:34.03	238.84	15.89	-40.2	-42.0	19.0	0.00e+00	0	40	0	0	51	4583
2026-01-28 11:37:35.03	239.03	15.94	-40.2	-42.0	19.0	0.00e+00	0	40	0	0	51	4583
2026-01-28 11:37:36.02	239.21	16.00	-40.2	-42.1	18.9	0.00e+00	0	40	0	0	51	4607
2026-01-28 11:37:37.01	239.40	16.06	-40.2	-42.0	18.9	0.00e+00	0	40	0	0	51	4581
2026-01-28 11:37:38.01	239.59	16.11	-40.3	-42.1	18.9	0.00e+00	0	40	0	0	51	4632
2026-01-28 11:37:39.00	239.78	16.17	-40.3	-42.1	18.9	0.00e+00	0	40	0	0	51	4624
2026-01-28 11:37:39.99	239.97	16.23	-40.4	-42.2	18.8	0.00e+00	0	40	0	0	51	4685
2026-01-28 11:37:40.99	240.16	16.28	-40.4	-42.3	18.8	0.00e+00	0	40	0	0	51	4714
2026-01-28 11:37:41.98	240.35	16.34	-40.3	-42.1	19.0	0.00e+00	0	40	0	0	51	4604
2026-01-28 11:37:42.97	240.54	16.39	-40.3	-42.1	19.0	0.00e+00	0	40	0	0	51	4629
2026-01-28 11:37:43.96	240.73	16.45	-40.3	-42.1	19.0	0.00e+00	0	40	0	0	51	4610
2026-01-28 11:37:44.96	240.93	16.50	-40.3	-42.1	19.0	0.00e+00	0	40	0	0	51	4629
2026-01-28 11:37:45.95	241.12	16.56	-40.3	-42.1	19.0	0.00e+00	0	40	0	0	51	4599
2026-01-28 11:37:46.94	241.32	16.61	-40.1	-41.9	19.2	0.00e+00	0	39	0	0	51	4494
2026-01-28 11:37:47.94	241.51	16.67	-40.2	-41.9	19.1	0.00e+00	0	40	0	0	51	4543
2026-01-28 11:37:48.93	241.71	16.72	-40.2	-41.9	19.1	0.00e+00	0	40	0	0	51	4542
2026-01-28 11:37:49.92	241.90	16.78	-40.1	-41.9	19.2	0.00e+00	0	40	0	0	51	4509
2026-01-28 11:37:50.91	242.10	16.83	-40.0	-41.8	19.2	0.00e+00	0	40	0	0	51	4483
2026-01-28 11:37:51.91	242.30	16.89	-40.1	-42.0	19.1	0.00e+00	0	40	0	0	51	4546
2026-01-28 11:37:52.90	242.50	16.94	-40.0	-41.8	19.2	0.00e+00	0	40	0	0	51	4458
2026-01-28 11:37:53.89	242.70	16.99	-40.0	-41.8	19.1	0.00e+00	0	40	0	0	51	4489
2026-01-28 11:37:54.89	242.90	17.05	-40.0	-41.9	19.1	0.00e+00	0	40	0	0	51	4497
2026-01-28 11:37:55.88	243.10	17.10	-40.1	-41.9	19.0	0.00e+00	0	40	0	0	51	4540
2026-01-28 11:37:56.87	243.30	17.15	-40.2	-42.0	19.0	0.00e+00	0	40	0	0	51	4587
2026-01-28 11:37:57.86	243.50	17.21	-40.3	-42.2	18.9	0.00e+00	0	40	0	0	51	4658
2026-01-28 11:37:58.86	243.71	17.26	-40.2	-42.0	19.1	0.00e+00	0	40	0	0	51	4558
2026-01-28 11:37:59.85	243.91	17.31	-40.2	-42.0	19.0	0.00e+00	0	40	0	0	51	4596
2026-01-28 11:38:00.84	244.12	17.36	-40.2	-42.0	19.0	0.00e+00	0	40	0	0	51	4584
2026-01-28 11:38:01.83	244.32	17.42	-40.1	-41.9	19.2	0.00e+00	0	40	0	0	51	4497
2026-01-28 11:38:02.83	244.53	17.47	-40.0	-41.7	19.2	0.00e+00	0	40	0	0	51	4439
2026-01-28 11:38:03.82	244.73	17.52	-40.0	-41.7	19.3	0.00e+00	0	40	0	0	51	4431
2026-01-28 11:38:04.81	244.94	17.57	-39.9	-41.7	19.3	0.00e+00	0	40	0	0	51	4407
2026-01-28 11:38:05.81	245.15	17.62	-39.9	-41.6	19.4	0.00e+00	0	40	0	0	51	4365
2026-01-28 11:38:06.80	245.36	17.67	-39.9	-41.7	19.3	0.00e+00	0	40	0	0	51	4393
2026-01-28 11:38:07.79	245.57	17.72	-39.9	-41.6	19.3	0.00e+00	0	40	0	0	51	4383
2026-01-28 11:38:08.78	245.77	17.77	-40.0	-41.8	19.1	0.00e+00	0	40	0	0	51	4449
2026-01-28 11:38:09.78	245.99	17.82	-39.9	-41.7	19.2	0.00e+00	0	40	0	0	51	4431
2026-01-28 11:38:10.77	246.20	17.87	-40.0	-41.8	19.2	0.00e+00	0	40	0	0	51	4443
2026-01-28 11:38:11.76	246.41	17.92	-39.9	-41.7	19.3	0.00e+00	0	40	0	0	51	4429
2026-01-28 11:38:12.75	246.62	17.97	-39.9	-41.7	19.3	0.00e+00	0	40	0	0	51	4413
2026-01-28 11:38:13.74	246.83	18.02	-39.9	-41.7	19.3	0.00e+00	0	39	0	0	51	4429
2026-01-28 11:38:14.74	247.05	18.07	-39.9	-41.7	19.4	0.00e+00	0	40	0	0	51	4418
2026-01-28 11:38:15.73	247.26	18.11	-40.0	-41.7	19.3	0.00e+00	0	40	0	0	51	4433
2026-01-28 11:38:16.72	247.48	18.16	-39.9	-41.6	19.4	0.00e+00	0	40	0	0	51	4391
2026-01-28 11:38:17.72	247.69	18.21	-39.8	-41.6	19.5	0.00e+00	0	40	0	0	51	4349
2026-01-28 11:38:18.71	247.91	18.26	-39.9	-41.7	19.4	0.00e+00	0	40	0	0	51	4392
2026-01-28 11:38:19.70	248.13	18.30	-39.8	-41.6	19.4	0.00e+00	0	40	0	0	51	4377
2026-01-28 11:38:20.69	248.34	18.35	-39.8	-41.6	19.4	0.00e+00	0	40	0	0	51	4386
2026-01-28 11:38:21.69	248.56	18.40	-39.8	-41.6	19.4	0.00e+00	0	40	0	0	51	4371
2026-01-28 11:38:22.68	248.78	18.44	-39.8	-41.5	19.4	0.00e+00	0	40	0	0	51	4340
2026-01-28 11:38:23.67	249.00	18.49	-39.8	-41.6	19.4	0.00e+00	0	40	0	0	51	4379
2026-01-28 11:38:24.66	249.22	18.53	-39.9	-41.7	19.4	0.00e+00	0	40	0	0	51	4393
2026-01-28 11:38:25.66	249.44	18.58	-39.7	-41.5	19.6	0.00e+00	0	40	0	0	51	4317
2026-01-28 11:38:26.65	249.67	18.62	-39.7	-41.4	19.6	0.00e+00	0	40	0	0	51	4278
2026-01-28 11:38:27.64	249.89	18.67	-39.6	-41.4	19.7	0.00e+00	0	40	0	0	51	4247
2026-01-28 11:38:28.64	250.11	18.71	-39.6	-41.4	19.7	0.00e+00	0	40	0	0	51	4243
2026-01-28 11:38:29.63	250.33	18.75	-39.5	-41.3	19.8	0.00e+00	0	40	0	0	51	4204
2026-01-28 11:38:30.62	250.56	18.80	-39.6	-41.4	19.6	0.00e+00	0	40	0	0	51	4254
2026-01-28 11:38:31.61	250.78	18.84	-39.6	-41.3	19.7	0.00e+00	0	40	0	0	51	4230
2026-01-28 11:38:32.61	251.01	18.88	-39.7	-41.5	19.5	0.00e+00	0	40	0	0	51	4292
2026-01-28 11:38:33.60	251.23	18.92	-39.7	-41.5	19.5	0.00e+00	0	40	0	0	51	4297
2026-01-28 11:38:34.59	251.46	18.96	-39.7	-41.4	19.5	0.00e+00	0	40	0	0	51	4281
2026-01-28 11:38:35.58	251.69	19.01	-39.6	-41.4	19.6	0.00e+00	0	40	0	0	51	4256
2026-01-28 11:38:36.58	251.92	19.05	-39.6	-41.4	19.6	0.00e+00	0	40	0	0	51	4276
2026-01-28 11:38:37.57	252.14	19.09	-39.6	-41.3	19.7	0.00e+00	0	40	0	0	51	4231
2026-01-28 11:38:38.56	252.37	19.13	-39.4	-41.2	19.9	0.00e+00	0	40	0	0	50	4403
2026-01-28 11:38:39.56	252.60	19.17	-39.4	-41.1	19.9	0.00e+00	0	40	0	0	50	4377
2026-01-28 11:38:40.55	252.83	19.21	-39.5	-41.2	19.8	0.00e+00	0	40	0	0	50	4425
2026-01-28 11:38:41.54	253.06	19.25	-39.6	-41.3	19.7	0.00e+00	0	40	0	0	50	4467
2026-01-28 11:38:42.53	253.29	19.29	-39.6	-41.3	19.7	0.00e+00	0	39	0	0	50	4471
2026-01-28 11:38:43.53	253.53	19.32	-39.4	-41.2	19.8	0.00e+00	0	40	0	0	50	4395
2026-01-28 11:38:44.52	253.76	19.36	-39.5	-41.3	19.8	0.00e+00	0	40	0	0	50	4444
2026-01-28 11:38:45.51	253.99	19.40	-39.5	-41.3	19.7	0.00e+00	0	40	0	0	50	4457
2026-01-28 11:38:46.51	254.23	19.44	-39.3	-41.1	19.9	0.00e+00	0	40	0	0	50	4354
2026-01-28 11:38:47.50	254.46	19.47	-39.3	-41.0	19.9	0.00e+00	0	40	0	0	50	4327
2026-01-28 11:38:48.49	254.69	19.51	-39.3	-41.1	19.9	0.00e+00	0	40	0	0	50	4347
2026-01-28 11:38:49.48	254.93	19.54	-39.3	-41.0	20.0	0.00e+00	0	40	0	0	50	4302
2026-01-28 11:38:50.48	255.16	19.58	-39.3	-41.1	19.9	0.00e+00	0	40	0	0	50	4343
2026-01-28 11:38:51.47	255.40	19.61	-39.4	-41.1	19.9	0.00e+00	0	40	0	0	50	4349
2026-01-28 11:38:52.46	255.64	19.65	-39.3	-41.0	19.9	0.00e+00	0	40	0	0	50	4333
2026-01-28 11:38:53.46	255.87	19.68	-39.4	-41.1	19.9	0.00e+00	0	40	0	0	50	4386
2026-01-28 11:38:54.45	256.11	19.72	-39.4	-41.1	20.0	0.00e+00	0	40	0	0	50	4352
2026-01-28 11:38:55.44	256.35	19.75	-39.4	-41.1	20.0	0.00e+00	0	40	0	0	50	4351
2026-01-28 11:38:56.43	256.59	19.78	-39.3	-41.0	20.1	0.00e+00	0	40	0	0	50	4303
2026-01-28 11:38:57.43	256.83	19.82	-39.2	-41.0	20.1	0.00e+00	0	40	0	0	50	4295
2026-01-28 11:38:58.42	257.07	19.85	-39.2	-40.9	20.1	0.00e+00	0	40	0	0	50	4274
2026-01-28 11:38:59.41	257.31	19.88	-39.2	-40.9	20.1	0.00e+00	0	40	0	0	50	4256
2026-01-28 11:39:00.41	257.55	19.91	-39.1	-40.8	20.1	0.00e+00	0	40	0	0	50	4229
2026-01-28 11:39:01.40	257.79	19.94	-39.2	-40.9	20.0	0.00e+00	0	40	0	0	50	4278
2026-01-28 11:39:02.39	258.03	19.97	-39.2	-40.9	20.1	0.00e+00	0	40	0	0	50	4268
2026-01-28 11:39:03.39	258.27	20.00	-39.3	-41.0	20.0	0.00e+00	0	40	0	0	50	4312
2026-01-28 11:39:04.38	258.52	20.03	-39.2	-40.9	20.2	0.00e+00	0	40	0	0	50	4247
2026-01-28 11:39:05.37	258.76	20.06	-39.1	-40.8	20.2	0.00e+00	0	40	0	0	50	4223
2026-01-28 11:39:06.37	259.00	20.09	-39.2	-40.9	20.1	0.00e+00	0	40	0	0	50	4284
2026-01-28 11:39:07.36	259.25	20.11	-39.1	-40.7	20.3	0.00e+00	0	40	0	0	50	4188
2026-01-28 11:39:08.35	259.49	20.14	-39.2	-40.9	20.2	0.00e+00	0	40	0	0	50	4246
2026-01-28 11:39:09.34	259.73	20.17	-39.3	-41.0	20.0	0.00e+00	0	40	0	0	50	4294
2026-01-28 11:39:10.34	259.98	20.19	-39.2	-40.9	20.1	0.00e+00	0	40	0	0	50	4281
2026-01-28 11:39:11.33	260.23	20.22	-39.3	-41.0	20.0	0.00e+00	0	40	0	0	50	4306
2026-01-28 11:39:12.32	260.47	20.24	-39.3	-41.1	19.9	0.00e+00	0	40	0	0	50	4345
2026-01-28 11:39:13.31	260.72	20.27	-39.3	-41.0	20.0	0.00e+00	0	40	0	0	50	4332
2026-01-28 11:39:14.31	260.96	20.29	-39.3	-41.0	20.0	0.00e+00	0	40	0	0	50	4317
2026-01-28 11:39:15.30	261.21	20.32	-39.3	-41.0	20.0	0.00e+00	0	40	0	0	50	4300
2026-01-28 11:39:16.29	261.46	20.34	-39.1	-40.8	20.1	0.00e+00	0	40	0	0	50	4229
2026-01-28 11:39:17.29	261.71	20.36	-39.2	-40.9	20.1	0.00e+00	0	40	0	0	50	4248
2026-01-28 11:39:18.28	261.95	20.38	-39.2	-40.9	20.0	0.00e+00	0	39	0	0	50	4248
2026-01-28 11:39:19.27	262.20	20.41	-39.3	-41.0	20.0	0.00e+00	0	40	0	0	50	4311
2026-01-28 11:39:20.26	262.45	20.43	-39.3	-41.0	20.0	0.00e+00	0	40	0	0	50	4326
2026-01-28 11:39:21.26	262.70	20.45	-39.3	-41.0	20.1	0.00e+00	0	40	0	0	50	4293
2026-01-28 11:39:22.25	262.95	20.47	-39.2	-40.9	20.2	0.00e+00	0	40	0	0	50	4259
2026-01-28 11:39:23.24	263.20	20.49	-39.2	-40.8	20.2	0.00e+00	0	40	0	0	50	4241
2026-01-28 11:39:24.24	263.45	20.51	-39.2	-40.9	20.1	0.00e+00	0	40	0	0	50	4276
2026-01-28 11:39:25.23	263.70	20.52	-39.2	-40.9	20.2	0.00e+00	0	40	0	0	50	4243
2026-01-28 11:39:26.22	263.95	20.54	-39.2	-40.9	20.2	0.00e+00	0	40	0	0	50	4266
2026-01-28 11:39:27.21	264.20	20.56	-39.3	-41.0	20.1	0.00e+00	0	40	0	0	50	4324
2026-01-28 11:39:28.21	264.45	20.58	-39.4	-41.1	20.0	0.00e+00	0	40	0	0	50	4372
2026-01-28 11:39:29.20	264.70	20.59	-39.4	-41.2	19.9	0.00e+00	0	40	0	0	50	4399
2026-01-28 11:39:30.19	264.95	20.61	-39.6	-41.3	19.7	0.00e+00	0	40	0	0	50	4485
2026-01-28 11:39:31.18	265.20	20.62	-39.6	-41.4	19.7	0.00e+00	0	40	0	0	50	4511
2026-01-28 11:39:32.18	265.46	20.64	-39.4	-41.1	19.9	0.00e+00	0	40	0	0	50	4370
2026-01-28 11:39:33.17	265.71	20.65	-39.4	-41.1	19.8	0.00e+00	0	40	0	0	50	4378
2026-01-28 11:39:34.16	265.96	20.67	-39.2	-40.9	20.0	0.00e+00	0	40	0	0	50	4261
2026-01-28 11:39:35.16	266.22	20.68	-39.2	-40.9	20.0	0.00e+00	0	40	0	0	50	4253
2026-01-28 11:39:36.15	266.47	20.69	-39.2	-40.9	20.0	0.00e+00	0	40	0	0	50	4260
2026-01-28 11:39:37.14	266.72	20.70	-39.2	-40.9	20.0	0.00e+00	0	40	0	0	50	4283
2026-01-28 11:39:38.14	266.97	20.72	-39.3	-41.0	20.0	0.00e+00	0	40	0	0	50	4316
2026-01-28 11:39:39.13	267.23	20.73	-39.4	-41.1	19.9	0.00e+00	0	40	0	0	50	4369
2026-01-28 11:39:40.12	267.48	20.74	-39.3	-41.0	20.1	0.00e+00	0	40	0	0	50	4299
2026-01-28 11:39:41.11	267.73	20.75	-39.3	-41.0	20.0	0.00e+00	0	40	0	0	50	4324
2026-01-28 11:39:42.11	267.99	20.76	-39.3	-41.0	20.1	0.00e+00	0	40	0	0	50	4297
2026-01-28 11:39:43.10	268.24	20.77	-39.4	-41.1	19.9	0.00e+00	0	39	0	0	50	4372
2026-01-28 11:39:44.09	268.50	20.77	-39.3	-41.0	20.0	0.00e+00	0	40	0	0	50	4338
2026-01-28 11:39:45.08	268.75	20.78	-39.3	-41.0	20.0	0.00e+00	0	40	0	0	50	4309
2026-01-28 11:39:46.08	269.01	20.79	-39.3	-41.0	20.0	0.00e+00	0	40	0	0	50	4326
2026-01-28 11:39:47.07	269.26	20.79	-39.3	-41.0	20.0	0.00e+00	0	40	0	0	50	4337
2026-01-28 11:39:48.06	269.51	20.80	-39.3	-41.0	19.9	0.00e+00	0	40	0	0	50	4327
2026-01-28 11:39:49.06	269.77	20.81	-39.3	-41.0	19.9	0.00e+00	0	40	0	0	50	4329
2026-01-28 11:39:50.05	270.02	20.81	-39.3	-41.0	19.9	0.00e+00	0	40	0	0	50	4306
2026-01-28 11:39:51.04	270.28	20.81	-39.2	-40.9	20.0	0.00e+00	0	39	0	0	50	4279
2026-01-28 11:39:52.04	270.53	20.82	-39.2	-40.9	19.9	0.00e+00	0	40	0	0	50	4291
2026-01-28 11:39:53.03	270.79	20.82	-39.2	-40.9	20.0	0.00e+00	0	40	0	0	50	4257
2026-01-28 11:39:54.02	271.04	20.82	-39.2	-40.9	20.0	0.00e+00	0	40	0	0	50	4281
2026-01-28 11:39:55.02	271.30	20.83	-39.2	-40.9	20.0	0.00e+00	0	40	0	0	50	4278
2026-01-28 11:39:56.01	271.55	20.83	-39.2	-40.9	20.0	0.00e+00	0	40	0	0	50	4273
2026-01-28 11:39:57.00	271.81	20.83	-39.3	-41.0	19.9	0.00e+00	0	40	0	0	50	4334
2026-01-28 11:39:58.00	272.07	20.83	-39.2	-40.9	20.0	0.00e+00	0	40	0	0	50	4262
2026-01-28 11:39:58.99	272.32	20.83	-39.2	-40.9	20.0	0.00e+00	0	40	0	0	50	4288
2026-01-28 11:39:59.98	272.57	20.83	-39.2	-40.9	20.0	0.00e+00	0	40	0	0	50	4276
2026-01-28 11:40:00.97	272.83	20.83	-39.3	-41.0	20.0	0.00e+00	0	40	0	0	50	4302
2026-01-28 11:40:01.97	273.08	20.82	-39.2	-40.9	20.0	0.00e+00	0	39	0	0	50	4278
2026-01-28 11:40:02.96	273.34	20.82	-39.2	-40.9	20.1	0.00e+00	0	40	0	0	50	4281
2026-01-28 11:40:03.95	273.59	20.82	-39.3	-41.0	20.0	0.00e+00	0	40	0	0	50	4324
2026-01-28 11:40:04.95	273.85	20.81	-39.2	-40.9	20.0	0.00e+00	0	40	0	0	50	4260
2026-01-28 11:40:05.94	274.10	20.81	-39.2	-40.9	20.0	0.00e+00	0	40	0	0	50	4286
2026-01-28 11:40:06.93	274.36	20.80	-39.2	-40.9	20.0	0.00e+00	0	40	0	0	50	4288
2026-01-28 11:40:07.92	274.61	20.80	-39.3	-41.0	19.9	0.00e+00	0	40	0	0	50	4329
2026-01-28 11:40:08.92	274.87	20.79	-39.3	-41.0	20.0	0.00e+00	0	40	0	0	50	4308
2026-01-28 11:40:09.91	275.12	20.79	-39.3	-41.0	19.9	0.00e+00	0	40	0	0	50	4322
2026-01-28 11:40:10.90	275.37	20.78	-39.4	-41.1	19.9	0.00e+00	0	40	0	0	50	4373
2026-01-28 11:40:11.90	275.63	20.77	-39.4	-41.1	19.8	0.00e+00	0	40	0	0	50	4391
2026-01-28 11:40:12.89	275.88	20.76	-39.4	-41.1	19.8	0.00e+00	0	40	0	0	50	4374
2026-01-28 11:40:13.88	276.14	20.75	-39.5	-41.2	19.7	0.00e+00	0	40	0	0	50	4403
2026-01-28 11:40:14.87	276.39	20.75	-39.5	-41.2	19.8	0.00e+00	0	40	0	0	50	4419
2026-01-28 11:40:15.87	276.64	20.74	-39.4	-41.1	19.8	0.00e+00	0	40	0	0	50	4370
2026-01-28 11:40:16.86	276.90	20.73	-39.4	-41.1	19.9	0.00e+00	0	40	0	0	50	4357
2026-01-28 11:40:17.85	277.15	20.71	-39.3	-40.9	20.0	0.00e+00	0	40	0	0	50	4283
2026-01-28 11:40:18.85	277.40	20.70	-39.2	-40.8	20.0	0.00e+00	0	40	0	0	50	4233
2026-01-28 11:40:19.84	277.66	20.69	-39.3	-41.0	19.9	0.00e+00	0	40	0	0	50	4324
2026-01-28 11:40:20.83	277.91	20.68	-39.4	-41.1	19.8	0.00e+00	0	40	0	0	50	4357
2026-01-28 11:40:21.82	278.16	20.66	-39.4	-41.2	19.8	0.00e+00	0	40	0	0	50	4392
2026-01-28 11:40:22.82	278.41	20.65	-39.3	-41.1	19.9	0.00e+00	0	40	0	0	50	4346
2026-01-28 11:40:23.81	278.66	20.64	-39.3	-41.0	19.9	0.00e+00	0	40	0	0	50	4314
2026-01-28 11:40:24.80	278.92	20.62	-39.4	-41.1	19.9	0.00e+00	0	40	0	0	50	4342
2026-01-28 11:40:25.80	279.17	20.61	-39.2	-40.9	20.0	0.00e+00	0	40	0	0	50	4274
2026-01-28 11:40:26.79	279.42	20.59	-39.2	-40.8	20.1	0.00e+00	0	40	0	0	50	4226
2026-01-28 11:40:27.78	279.67	20.57	-39.1	-40.8	20.1	0.00e+00	0	40	0	0	50	4222
2026-01-28 11:40:28.78	279.92	20.56	-39.2	-40.9	20.0	0.00e+00	0	40	0	0	50	4285
2026-01-28 11:40:29.77	280.17	20.54	-39.2	-40.9	20.1	0.00e+00	0	40	0	0	50	4274
2026-01-28 11:40:30.76	280.42	20.52	-39.3	-41.0	20.0	0.00e+00	0	40	0	0	50	4297
2026-01-28 11:40:31.75	280.67	20.50	-39.2	-40.9	20.1	0.00e+00	0	40	0	0	50	4275
2026-01-28 11:40:32.75	280.92	20.48	-39.3	-41.0	20.0	0.00e+00	0	40	0	0	50	4314
2026-01-28 11:40:33.74	281.17	20.46	-39.3	-41.0	20.0	0.00e+00	0	40	0	0	50	4316
2026-01-28 11:40:34.73	281.42	20.44	-39.3	-41.0	19.9	0.00e+00	0	40	0	0	50	4339
2026-01-28 11:40:35.73	281.67	20.42	-39.4	-41.1	19.9	0.00e+00	0	40	0	0	50	4370
2026-01-28 11:40:36.72	281.92	20.40	-39.4	-41.1	19.9	0.00e+00	0	40	0	0	50	4376
2026-01-28 11:40:37.71	282.16	20.38	-39.3	-41.0	20.0	0.00e+00	0	40	0	0	50	4332
2026-01-28 11:40:38.70	282.41	20.36	-39.3	-41.0	20.1	0.00e+00	0	40	0	0	50	4314
2026-01-28 11:40:39.70	282.66	20.34	-39.2	-40.9	20.1	0.00e+00	0	40	0	0	50	4276
2026-01-28 11:40:40.69	282.90	20.31	-39.2	-40.9	20.1	0.00e+00	0	40	0	0	50	4256
2026-01-28 11:40:41.68	283.15	20.29	-39.1	-40.8	20.1	0.00e+00	0	40	0	0	50	4211
2026-01-28 11:40:42.67	283.39	20.27	-39.2	-40.9	20.1	0.00e+00	0	39	0	0	50	4259
2026-01-28 11:40:43.67	283.64	20.24	-39.2	-40.9	20.1	0.00e+00	0	40	0	0	50	4275
2026-01-28 11:40:44.66	283.89	20.22	-39.3	-41.0	20.0	0.00e+00	0	40	0	0	50	4306
2026-01-28 11:40:45.65	284.13	20.19	-39.2	-41.0	20.1	0.00e+00	0	40	0	0	50	4293
2026-01-28 11:40:46.65	284.38	20.16	-39.2	-40.9	20.1	0.00e+00	0	40	0	0	50	4267
2026-01-28 11:40:47.64	284.62	20.14	-39.2	-40.9	20.1	0.00e+00	0	40	0	0	50	4257
2026-01-28 11:40:48.63	284.86	20.11	-39.2	-40.9	20.0	0.00e+00	0	40	0	0	50	4281
2026-01-28 11:40:49.63	285.11	20.08	-39.2	-40.9	20.0	0.00e+00	0	40	0	0	50	4288
2026-01-28 11:40:50.62	285.35	20.05	-39.3	-41.0	20.0	0.00e+00	0	39	0	0	50	4317
2026-01-28 11:40:51.61	285.59	20.03	-39.2	-40.9	20.1	0.00e+00	0	40	0	0	50	4266
2026-01-28 11:40:52.61	285.83	20.00	-39.2	-40.8	20.1	0.00e+00	0	40	0	0	50	4236
2026-01-28 11:40:53.60	286.07	19.97	-39.2	-40.9	20.1	0.00e+00	0	40	0	0	50	4245
2026-01-28 11:40:54.59	286.31	19.94	-39.1	-40.8	20.2	0.00e+00	0	40	0	0	50	4218
2026-01-28 11:40:55.59	286.56	19.91	-39.1	-40.8	20.2	0.00e+00	0	40	0	0	50	4200
2026-01-28 11:40:56.58	286.80	19.88	-39.2	-40.9	20.1	0.00e+00	0	40	0	0	50	4272
2026-01-28 11:40:57.57	287.03	19.84	-39.2	-40.9	20.1	0.00e+00	0	40	0	0	50	4270
2026-01-28 11:40:58.56	287.27	19.81	-39.2	-40.9	20.1	0.00e+00	0	40	0	0	50	4274
2026-01-28 11:40:59.56	287.51	19.78	-39.3	-40.9	20.0	0.00e+00	0	40	0	0	50	4290
2026-01-28 11:41:00.55	287.75	19.75	-39.1	-40.8	20.2	0.00e+00	0	39	0	0	50	4204
2026-01-28 11:41:01.54	287.99	19.71	-39.1	-40.8	20.1	0.00e+00	0	40	0	0	50	4197
2026-01-28 11:41:02.54	288.23	19.68	-39.2	-40.9	20.0	0.00e+00	0	40	0	0	50	4246
2026-01-28 11:41:03.53	288.46	19.65	-39.2	-40.9	19.9	0.00e+00	0	40	0	0	50	4282
2026-01-28 11:41:04.52	288.70	19.61	-39.4	-41.1	19.8	0.00e+00	0	40	0	0	50	4367
2026-01-28 11:41:05.51	288.93	19.58	-39.4	-41.0	19.8	0.00e+00	0	40	0	0	50	4340
2026-01-28 11:41:06.51	289.17	19.54	-39.4	-41.1	19.9	0.00e+00	0	40	0	0	50	4350
2026-01-28 11:41:07.50	289.40	19.51	-39.4	-41.2	19.8	0.00e+00	0	40	0	0	50	4395
2026-01-28 11:41:08.49	289.63	19.47	-39.3	-41.0	19.9	0.00e+00	0	40	0	0	50	4329
2026-01-28 11:41:09.49	289.87	19.43	-39.3	-41.0	20.0	0.00e+00	0	40	0	0	50	4300
2026-01-28 11:41:10.48	290.10	19.40	-39.3	-40.9	20.0	0.00e+00	0	40	0	0	50	4287
2026-01-28 11:41:11.47	290.33	19.36	-39.2	-40.9	20.0	0.00e+00	0	40	0	0	50	4274
2026-01-28 11:41:12.46	290.56	19.32	-39.3	-41.0	19.9	0.00e+00	0	40	0	0	50	4294
2026-01-28 11:41:13.46	290.80	19.28	-39.3	-41.0	19.9	0.00e+00	0	40	0	0	50	4329
2026-01-28 11:41:14.45	291.03	19.25	-39.2	-40.9	20.0	0.00e+00	0	40	0	0	50	4281
2026-01-28 11:41:15.44	291.25	19.21	-39.2	-40.9	20.1	0.00e+00	0	40	0	0	50	4263
2026-01-28 11:41:16.44	291.49	19.17	-39.3	-41.0	20.0	0.00e+00	0	40	0	0	50	4305
2026-01-28 11:41:17.43	291.71	19.13	-39.2	-40.8	20.1	0.00e+00	0	40	0	0	50	4226
2026-01-28 11:41:18.42	291.94	19.09	-39.3	-40.9	20.0	0.00e+00	0	40	0	0	50	4287
2026-01-28 11:41:19.42	292.17	19.05	-39.3	-41.0	19.9	0.00e+00	0	40	0	0	50	4315
2026-01-28 11:41:20.41	292.40	19.01	-39.3	-40.9	20.0	0.00e+00	0	40	0	0	50	4285
2026-01-28 11:41:21.40	292.62	18.96	-39.2	-40.9	20.0	0.00e+00	0	40	0	0	50	4283
2026-01-28 11:41:22.39	292.85	18.92	-39.2	-40.9	20.1	0.00e+00	0	40	0	0	50	4251
2026-01-28 11:41:23.39	293.07	18.88	-39.2	-40.8	20.1	0.00e+00	0	40	0	0	50	4228
2026-01-28 11:41:24.38	293.30	18.84	-39.2	-40.9	20.0	0.00e+00	0	40	0	0	50	4259
2026-01-28 11:41:25.37	293.52	18.80	-39.3	-40.9	20.0	0.00e+00	0	40	0	0	50	4288
2026-01-28 11:41:26.37	293.74	18.75	-39.3	-41.0	20.0	0.00e+00	0	40	0	0	50	4308
2026-01-28 11:41:27.36	293.97	18.71	-39.3	-41.0	19.9	0.00e+00	0	40	0	0	50	4339
2026-01-28 11:41:28.35	294.19	18.67	-39.2	-40.9	20.0	0.00e+00	0	40	0	0	50	4256
2026-01-28 11:41:29.34	294.41	18.62	-39.2	-40.9	20.1	0.00e+00	0	40	0	0	50	4245
2026-01-28 11:41:30.34	294.63	18.58	-39.2	-40.9	20.0	0.00e+00	0	40	0	0	50	4277
2026-01-28 11:41:31.33	294.85	18.53	-39.2	-40.9	20.0	0.00e+00	0	40	0	0	50	4281
2026-01-28 11:41:32.32	295.07	18.49	-39.2	-40.9	20.1	0.00e+00	0	40	0	0	50	4260
2026-01-28 11:41:33.32	295.29	18.44	-39.4	-41.1	19.8	0.00e+00	0	40	0	0	50	4351
2026-01-28 11:41:34.31	295.51	18.40	-39.4	-41.1	19.8	0.00e+00	0	40	0	0	50	4361
2026-01-28 11:41:35.30	295.72	18.35	-39.4	-41.2	19.8	0.00e+00	0	40	0	0	50	4396
2026-01-28 11:41:36.29	295.94	18.31	-39.4	-41.1	19.8	0.00e+00	0	40	0	0	50	4366
2026-01-28 11:41:37.29	296.16	18.26	-39.3	-41.0	19.9	0.00e+00	0	40	0	0	50	4332
2026-01-28 11:41:38.28	296.37	18.21	-39.3	-41.0	19.9	0.00e+00	0	40	0	0	50	4327
2026-01-28 11:41:39.27	296.59	18.16	-39.4	-41.1	19.8	0.00e+00	0	40	0	0	50	4380
2026-01-28 11:41:40.26	296.80	18.12	-39.5	-41.2	19.7	0.00e+00	0	40	0	0	50	4413
2026-01-28 11:41:41.26	297.02	18.07	-39.5	-41.3	19.7	0.00e+00	0	40	0	0	50	4450
2026-01-28 11:41:42.25	297.23	18.02	-39.5	-41.2	19.8	0.00e+00	0	40	0	0	50	4421
2026-01-28 11:41:43.24	297.44	17.97	-39.5	-41.2	19.7	0.00e+00	0	40	0	0	50	4435
2026-01-28 11:41:44.24	297.65	17.92	-39.6	-41.3	19.6	0.00e+00	0	40	0	0	50	4470
2026-01-28 11:41:45.23	297.86	17.88	-39.7	-41.5	19.4	0.00e+00	0	40	0	0	50	4561
2026-01-28 11:41:46.22	298.07	17.83	-39.8	-41.6	19.4	0.00e+00	0	40	0	0	50	4610
2026-01-28 11:41:47.22	298.28	17.78	-39.9	-41.7	19.3	0.00e+00	0	40	0	0	50	4653
2026-01-28 11:41:48.21	298.49	17.73	-39.9	-41.7	19.3	0.00e+00	0	40	0	0	50	4683
2026-01-28 11:41:49.20	298.70	17.68	-39.9	-41.6	19.4	0.00e+00	0	40	0	0	50	4635
2026-01-28 11:41:50.20	298.91	17.63	-39.8	-41.6	19.4	0.00e+00	0	40	0	0	50	4619
2026-01-28 11:41:51.19	299.11	17.58	-39.8	-41.6	19.3	0.00e+00	0	40	0	0	50	4622
2026-01-28 11:41:52.18	299.32	17.53	-39.9	-41.7	19.3	0.00e+00	0	40	0	0	50	4665
2026-01-28 11:41:53.18	299.53	17.48	-39.9	-41.6	19.4	0.00e+00	0	40	0	0	50	4639
2026-01-28 11:41:54.17	299.73	17.42	-40.0	-41.7	19.3	0.00e+00	0	40	0	0	50	4695
2026-01-28 11:41:55.16	299.93	17.37	-40.0	-41.8	19.2	0.00e+00	0	40	0	0	50	4741
2026-01-28 11:41:56.15	300.14	17.32	-40.0	-41.7	19.3	0.00e+00	0	40	0	0	50	4701
2026-01-28 11:41:57.15	300.34	17.27	-40.0	-41.7	19.3	0.00e+00	0	40	0	0	50	4691
2026-01-28 11:41:58.14	300.54	17.22	-40.1	-41.9	19.1	0.00e+00	0	40	0	0	50	4771
2026-01-28 11:41:59.13	300.74	17.16	-40.1	-41.9	19.1	0.00e+00	0	40	0	0	50	4789
2026-01-28 11:42:00.13	300.95	17.11	-40.1	-42.0	18.9	0.00e+00	0	40	0	0	50	4818
2026-01-28 11:42:01.12	301.15	17.06	-40.2	-42.0	18.9	0.00e+00	0	40	0	0	51	4559
2026-01-28 11:42:02.11	301.34	17.01	-40.3	-42.1	18.8	0.00e+00	0	40	0	0	51	4621
2026-01-28 11:42:03.10	301.54	16.95	-40.2	-42.0	18.9	0.00e+00	0	40	0	0	51	4587
2026-01-28 11:42:04.10	301.74	16.90	-39.9	-41.7	19.2	0.00e+00	0	40	0	0	51	4421
2026-01-28 11:42:05.09	301.94	16.85	-39.8	-41.5	19.3	0.00e+00	0	40	0	0	51	4329
2026-01-28 11:42:06.08	302.13	16.79	-39.8	-41.6	19.3	0.00e+00	0	40	0	0	51	4351
2026-01-28 11:42:07.07	302.33	16.74	-39.9	-41.6	19.2	0.00e+00	0	40	0	0	51	4390
2026-01-28 11:42:08.07	302.53	16.68	-39.8	-41.5	19.3	0.00e+00	0	40	0	0	51	4336
2026-01-28 11:42:09.06	302.72	16.63	-39.9	-41.6	19.3	0.00e+00	0	40	0	0	51	4382
2026-01-28 11:42:10.05	302.91	16.58	-40.0	-41.8	19.2	0.00e+00	0	40	0	0	51	4454
2026-01-28 11:42:11.05	303.11	16.52	-40.1	-41.9	19.1	0.00e+00	0	40	0	0	51	4526
2026-01-28 11:42:12.04	303.30	16.47	-40.2	-42.0	19.0	0.00e+00	0	40	0	0	51	4551
2026-01-28 11:42:13.03	303.49	16.41	-40.3	-42.1	18.8	0.00e+00	0	40	0	0	51	4612
2026-01-28 11:42:14.03	303.68	16.35	-40.3	-42.1	18.8	0.00e+00	0	40	0	0	51	4633
2026-01-28 11:42:15.02	303.87	16.30	-40.4	-42.2	18.8	0.00e+00	0	40	0	0	51	4667
2026-01-28 11:42:16.01	304.06	16.24	-40.4	-42.2	18.8	0.00e+00	0	40	0	0	51	4668
2026-01-28 11:42:17.00	304.25	16.19	-40.3	-42.1	18.9	0.00e+00	0	40	0	0	51	4611
2026-01-28 11:42:18.00	304.44	16.13	-40.2	-42.0	18.9	0.00e+00	0	40	0	0	51	4574
2026-01-28 11:42:18.99	304.63	16.08	-40.2	-42.0	19.0	0.00e+00	0	40	0	0	51	4551
2026-01-28 11:42:19.98	304.81	16.02	-40.1	-41.9	19.0	0.00e+00	0	40	0	0	51	4503
2026-01-28 11:42:20.98	305.00	15.96	-40.1	-41.9	19.0	0.00e+00	0	40	0	0	51	4520
2026-01-28 11:42:21.97	305.19	15.91	-40.1	-41.9	19.1	0.00e+00	0	40	0	0	51	4507
2026-01-28 11:42:22.96	305.37	15.85	-40.2	-42.0	19.0	0.00e+00	0	40	0	0	51	4556
2026-01-28 11:42:23.96	305.56	15.79	-40.0	-41.8	19.2	0.00e+00	0	40	0	0	51	4471
2026-01-28 11:42:24.95	305.74	15.74	-40.1	-41.9	19.1	0.00e+00	0	40	0	0	51	4507
2026-01-28 11:42:25.94	305.92	15.68	-40.1	-41.8	19.2	0.00e+00	0	40	0	0	51	4483
2026-01-28 11:42:26.93	306.10	15.62	-40.2	-42.0	19.0	0.00e+00	0	40	0	0	51	4565
2026-01-28 11:42:27.93	306.29	15.56	-40.4	-42.2	18.8	0.00e+00	0	40	0	0	51	4696
2026-01-28 11:42:28.92	306.47	15.51	-40.5	-42.3	18.7	0.00e+00	0	40	0	0	51	4748
2026-01-28 11:42:29.91	306.65	15.45	-40.5	-42.4	18.7	0.00e+00	0	40	0	0	51	4783
2026-01-28 11:42:30.91	306.83	15.39	-40.6	-42.4	18.6	0.00e+00	0	40	0	0	51	4810
2026-01-28 11:42:31.90	307.00	15.33	-40.7	-42.5	18.5	0.00e+00	0	40	0	0	51	4860
2026-01-28 11:42:32.89	307.18	15.27	-40.6	-42.4	18.5	0.00e+00	0	39	0	0	52	4527
2026-01-28 11:42:33.88	307.36	15.22	-40.4	-42.3	18.6	0.00e+00	0	40	0	0	52	4448
2026-01-28 11:42:34.88	307.54	15.16	-40.4	-42.2	18.6	0.00e+00	0	40	0	0	52	4431
2026-01-28 11:42:35.87	307.71	15.10	-40.4	-42.2	18.6	0.00e+00	0	40	0	0	52	4425
2026-01-28 11:42:36.86	307.89	15.04	-40.4	-42.2	18.6	0.00e+00	0	40	0	0	52	4439
2026-01-28 11:42:37.85	308.06	14.98	-40.3	-42.1	18.8	0.00e+00	0	40	0	0	52	4374
2026-01-28 11:42:38.85	308.24	14.92	-40.3	-42.1	18.8	0.00e+00	0	40	0	0	52	4362
2026-01-28 11:42:39.84	308.41	14.86	-40.3	-42.2	18.8	0.00e+00	0	40	0	0	52	4398
2026-01-28 11:42:40.83	308.58	14.81	-40.3	-42.2	18.8	0.00e+00	0	40	0	0	52	4402
2026-01-28 11:42:41.83	308.75	14.75	-40.4	-42.2	18.7	0.00e+00	0	40	0	0	52	4430
2026-01-28 11:42:42.82	308.93	14.69	-40.4	-42.3	18.7	0.00e+00	0	40	0	0	52	4448
2026-01-28 11:42:43.81	309.10	14.63	-40.5	-42.3	18.6	0.00e+00	0	40	0	0	52	4490
2026-01-28 11:42:44.81	309.27	14.57	-40.4	-42.3	18.7	0.00e+00	0	40	0	0	52	4476
2026-01-28 11:42:45.80	309.44	14.51	-40.5	-42.4	18.6	0.00e+00	0	40	0	0	52	4502
2026-01-28 11:42:46.79	309.60	14.45	-40.6	-42.5	18.5	0.00e+00	0	40	0	0	52	4558
2026-01-28 11:42:47.78	309.77	14.39	-40.5	-42.5	18.5	0.00e+00	0	40	0	0	52	4551
2026-01-28 11:42:48.78	309.94	14.33	-40.7	-42.6	18.4	0.00e+00	0	40	0	0	52	4617
2026-01-28 11:42:49.77	310.11	14.27	-40.6	-42.6	18.4	0.00e+00	0	40	0	0	52	4607
2026-01-28 11:42:50.76	310.27	14.21	-40.8	-42.7	18.3	0.00e+00	0	40	0	0	52	4693
2026-01-28 11:42:51.75	310.44	14.15	-40.7	-42.6	18.4	0.00e+00	0	39	0	0	52	4614
2026-01-28 11:42:52.75	310.60	14.09	-40.4	-42.3	18.6	0.00e+00	0	40	0	0	52	4469
2026-01-28 11:42:53.74	310.77	14.03	-40.5	-42.4	18.6	0.00e+00	0	40	0	0	52	4503
2026-01-28 11:42:54.73	310.93	13.97	-40.4	-42.3	18.6	0.00e+00	0	40	0	0	52	4479
2026-01-28 11:42:55.72	311.09	13.91	-40.4	-42.3	18.6	0.00e+00	0	40	0	0	52	4464
2026-01-28 11:42:56.72	311.26	13.85	-40.4	-42.3	18.7	0.00e+00	0	40	0	0	52	4463
2026-01-28 11:42:57.71	311.42	13.79	-40.3	-42.1	18.8	0.00e+00	0	40	0	0	52	4389
2026-01-28 11:42:58.70	311.58	13.73	-40.3	-42.2	18.8	0.00e+00	0	40	0	0	52	4392
2026-01-28 11:42:59.69	311.74	13.67	-40.2	-42.0	18.9	0.00e+00	0	40	0	0	52	4328
2026-01-28 11:43:00.69	311.90	13.61	-40.2	-42.0	18.9	0.00e+00	0	40	0	0	52	4325
2026-01-28 11:43:01.68	312.06	13.55	-40.2	-42.0	18.9	0.00e+00	0	40	0	0	52	4329
2026-01-28 11:43:02.67	312.21	13.49	-40.3	-42.2	18.7	0.00e+00	0	40	0	0	52	4403
2026-01-28 11:43:03.66	312.37	13.43	-40.3	-42.1	18.8	0.00e+00	0	40	0	0	52	4367
2026-01-28 11:43:04.66	312.53	13.37	-40.2	-42.0	18.9	0.00e+00	0	40	0	0	52	4312
2026-01-28 11:43:05.65	312.69	13.31	-40.2	-42.1	18.8	0.00e+00	0	40	0	0	52	4348
2026-01-28 11:43:06.64	312.84	13.25	-40.3	-42.2	18.7	0.00e+00	0	40	0	0	52	4404
2026-01-28 11:43:07.64	313.00	13.19	-40.3	-42.1	18.8	0.00e+00	0	40	0	0	52	4375
2026-01-28 11:43:08.63	313.15	13.13	-40.3	-42.1	18.7	0.00e+00	0	40	0	0	52	4385
2026-01-28 11:43:09.62	313.31	13.07	-40.3	-42.1	18.8	0.00e+00	0	40	0	0	52	4388
2026-01-28 11:43:10.62	313.46	13.00	-40.3	-42.1	18.7	0.00e+00	0	40	0	0	52	4379
2026-01-28 11:43:11.61	313.61	12.94	-40.3	-42.2	18.7	0.00e+00	0	40	0	0	52	4396
2026-01-28 11:43:12.60	313.76	12.88	-40.2	-42.1	18.8	0.00e+00	0	40	0	0	52	4369
2026-01-28 11:43:13.59	313.92	12.82	-40.3	-42.1	18.7	0.00e+00	0	40	0	0	52	4383
2026-01-28 11:43:14.59	314.07	12.76	-40.3	-42.1	18.7	0.00e+00	0	40	0	0	52	4386
2026-01-28 11:43:15.58	314.22	12.70	-40.3	-42.1	18.8	0.00e+00	0	40	0	0	52	4391
2026-01-28 11:43:16.57	314.37	12.64	-40.4	-42.3	18.7	0.00e+00	0	40	0	0	52	4450
2026-01-28 11:43:17.57	314.52	12.58	-40.3	-42.2	18.8	0.00e+00	0	40	0	0	52	4393
2026-01-28 11:43:18.56	314.67	12.52	-40.2	-42.1	18.8	0.00e+00	0	40	0	0	52	4362
2026-01-28 11:43:19.55	314.81	12.46	-40.3	-42.2	18.8	0.00e+00	0	40	0	0	52	4395
2026-01-28 11:43:20.54	314.96	12.40	-40.2	-42.1	18.8	0.00e+00	0	40	0	0	52	4353
2026-01-28 11:43:21.54	315.11	12.33	-40.2	-42.0	18.9	0.00e+00	0	40	0	0	52	4328
2026-01-28 11:43:22.53	315.25	12.27	-40.3	-42.2	18.7	0.00e+00	0	40	0	0	52	4403
2026-01-28 11:43:23.52	315.40	12.21	-40.2	-42.1	18.8	0.00e+00	0	40	0	0	52	4370
2026-01-28 11:43:24.52	315.54	12.15	-40.3	-42.2	18.7	0.00e+00	0	40	0	0	52	4414
2026-01-28 11:43:25.51	315.69	12.09	-40.2	-42.1	18.7	0.00e+00	0	40	0	0	52	4388
2026-01-28 11:43:26.50	315.83	12.03	-40.2	-42.1	18.8	0.00e+00	0	40	0	0	52	4378
2026-01-28 11:43:27.50	315.98	11.97	-40.2	-42.2	18.8	0.00e+00	0	40	0	0	52	4392
2026-01-28 11:43:28.49	316.12	11.91	-40.2	-42.1	18.8	0.00e+00	0	40	0	0	52	4361
2026-01-28 11:43:29.48	316.26	11.85	-40.3	-42.3	18.6	0.00e+00	0	40	0	0	52	4448
2026-01-28 11:43:30.48	316.40	11.78	-40.4	-42.3	18.6	0.00e+00	0	40	0	0	52	4454
2026-01-28 11:43:31.47	316.54	11.72	-40.4	-42.3	18.6	0.00e+00	0	40	0	0	52	4457
2026-01-28 11:43:32.46	316.68	11.66	-40.5	-42.4	18.5	0.00e+00	0	40	0	0	52	4523
2026-01-28 11:43:33.45	316.82	11.60	-40.6	-42.5	18.5	0.00e+00	0	40	0	0	52	4548
2026-01-28 11:43:34.44	316.96	11.54	-40.5	-42.4	18.5	0.00e+00	0	40	0	0	52	4518
2026-01-28 11:43:35.44	317.10	11.48	-40.5	-42.4	18.5	0.00e+00	0	40	0	0	52	4535
2026-01-28 11:43:36.43	317.24	11.42	-40.5	-42.4	18.5	0.00e+00	0	40	0	0	52	4502
2026-01-28 11:43:37.42	317.38	11.36	-40.7	-42.6	18.3	0.00e+00	0	40	0	0	52	4602
2026-01-28 11:43:38.42	317.52	11.30	-40.6	-42.5	18.3	0.00e+00	0	40	0	0	52	4583
2026-01-28 11:43:39.41	317.65	11.24	-40.7	-42.6	18.3	0.00e+00	0	40	0	0	52	4620
2026-01-28 11:43:40.40	317.79	11.17	-40.8	-42.7	18.2	0.00e+00	0	40	0	0	52	4662
2026-01-28 11:43:41.39	317.92	11.11	-40.8	-42.7	18.1	0.00e+00	0	40	0	0	52	4690
2026-01-28 11:43:42.39	318.06	11.05	-40.9	-42.8	18.0	0.00e+00	0	40	0	0	52	4734
2026-01-28 11:43:43.38	318.19	10.99	-40.8	-42.8	18.0	0.00e+00	0	40	0	0	52	4731
2026-01-28 11:43:44.37	318.33	10.93	-40.9	-42.9	17.9	0.00e+00	0	40	0	0	52	4788
2026-01-28 11:43:45.36	318.46	10.87	-40.9	-42.9	17.9	0.00e+00	0	40	0	0	52	4799
2026-01-28 11:43:46.36	318.59	10.81	-41.0	-43.1	17.7	0.00e+00	0	40	0	0	52	4897
2026-01-28 11:43:47.35	318.72	10.75	-41.0	-43.1	17.7	0.00e+00	0	40	0	0	52	4915
2026-01-28 11:43:48.34	318.86	10.69	-41.1	-43.2	17.6	0.00e+00	0	40	0	0	52	4953
2026-01-28 11:43:49.34	318.99	10.63	-41.2	-43.4	17.4	0.00e+00	0	40	0	0	53	4764
2026-01-28 11:43:50.33	319.12	10.56	-41.2	-43.4	17.4	0.00e+00	0	40	0	0	53	4787
2026-01-28 11:43:51.32	319.25	10.50	-41.2	-43.4	17.4	0.00e+00	0	40	0	0	53	4786
2026-01-28 11:43:52.32	319.38	10.44	-41.2	-43.3	17.5	0.00e+00	0	39	0	0	53	4749
2026-01-28 11:43:53.31	319.51	10.38	-41.1	-43.3	17.6	0.00e+00	0	40	0	0	53	4735
2026-01-28 11:43:54.30	319.63	10.32	-41.1	-43.3	17.6	0.00e+00	0	40	0	0	53	4715
2026-01-28 11:43:55.29	319.76	10.26	-41.0	-43.2	17.7	0.00e+00	0	40	0	0	53	4673
2026-01-28 11:43:56.29	319.89	10.20	-41.0	-43.1	17.7	0.00e+00	0	40	0	0	53	4637
2026-01-28 11:43:57.28	320.02	10.14	-41.0	-43.1	17.7	0.00e+00	0	40	0	0	53	4632
2026-01-28 11:43:58.27	320.14	10.08	-40.9	-43.0	17.8	0.00e+00	0	40	0	0	53	4595
2026-01-28 11:43:59.27	320.27	10.02	-40.9	-42.9	17.9	0.00e+00	0	40	0	0	53	4543
2026-01-28 11:44:00.26	320.40	9.96	-41.0	-43.1	17.8	0.00e+00	0	40	0	0	53	4609
2026-01-28 11:44:01.25	320.52	9.90	-40.9	-43.0	17.8	0.00e+00	0	40	0	0	53	4559
2026-01-28 11:44:02.25	320.65	9.84	-41.0	-43.1	17.7	0.00e+00	0	40	0	0	53	4611
2026-01-28 11:44:03.24	320.77	9.78	-41.1	-43.1	17.7	0.00e+00	0	40	0	0	53	4640
2026-01-28 11:44:04.23	320.89	9.72	-41.0	-43.0	17.8	0.00e+00	0	40	0	0	53	4590
2026-01-28 11:44:05.22	321.02	9.66	-41.0	-43.0	17.8	0.00e+00	0	40	0	0	53	4593
2026-01-28 11:44:06.22	321.14	9.59	-41.1	-43.1	17.7	0.00e+00	0	40	0	0	53	4644
2026-01-28 11:44:07.21	321.26	9.53	-41.1	-43.2	17.7	0.00e+00	0	40	0	0	53	4655
2026-01-28 11:44:08.20	321.38	9.47	-41.3	-43.3	17.5	0.00e+00	0	40	0	0	53	4740
2026-01-28 11:44:09.20	321.50	9.41	-41.3	-43.4	17.5	0.00e+00	0	40	0	0	53	4766
2026-01-28 11:44:10.19	321.62	9.35	-41.3	-43.4	17.5	0.00e+00	0	40	0	0	53	4765
2026-01-28 11:44:11.18	321.74	9.29	-41.4	-43.5	17.3	0.00e+00	0	40	0	0	53	4829
2026-01-28 11:44:12.17	321.86	9.23	-41.4	-43.5	17.4	0.00e+00	0	40	0	0	53	4828
2026-01-28 11:44:13.17	321.98	9.17	-41.4	-43.5	17.3	0.00e+00	0	40	0	0	53	4853
2026-01-28 11:44:14.16	322.10	9.11	-41.4	-43.6	17.3	0.00e+00	0	40	0	0	53	4884
2026-01-28 11:44:15.15	322.22	9.05	-41.4	-43.6	17.3	0.00e+00	0	40	0	0	53	4883
2026-01-28 11:44:16.15	322.34	8.99	-41.4	-43.6	17.3	0.00e+00	0	40	0	0	53	4873
2026-01-28 11:44:17.14	322.45	8.93	-47.9	-59.7	3.9	6.28e-02	0	40	104	0	66	14793
2026-01-28 11:44:18.13	322.57	8.87	-48.9	-62.2	3.8	1.49e+00	0	40	104	0	68	17539
2026-01-28 11:44:19.13	322.69	8.81	-48.5	-62.1	3.8	1.49e+00	0	40	104	0	68	17405
2026-01-28 11:44:20.12	322.80	8.75	-48.8	-62.1	3.8	1.49e+00	0	39	104	0	68	17442
2026-01-28 11:44:21.11	322.92	8.69	-49.1	-62.2	3.8	1.49e+00	0	40	104	0	68	17578
2026-01-28 11:44:22.10	323.03	8.63	-49.0	-62.2	3.8	1.49e+00	0	40	104	0	68	17578
2026-01-28 11:44:23.10	323.15	8.57	-49.1	-62.2	3.8	1.49e+00	0	40	104	0	69	16569
2026-01-28 11:44:24.09	323.26	8.51	-49.2	-62.2	3.8	1.49e+00	0	40	104	0	69	16651
2026-01-28 11:44:25.08	323.38	8.45	-49.2	-62.2	3.8	1.49e+00	0	40	104	0	69	16544
2026-01-28 11:44:26.08	323.49	8.39	-49.1	-62.3	3.8	1.49e+00	0	40	104	0	69	16724
2026-01-28 11:44:27.07	323.60	8.34	-49.3	-62.3	3.8	1.49e+00	0	40	104	0	69	16768
2026-01-28 11:44:28.06	323.71	8.28	-49.3	-62.3	3.8	1.49e+00	0	40	104	0	69	16804
2026-01-28 11:44:29.05	323.83	8.22	-49.1	-62.4	3.8	1.49e+00	0	40	104	0	69	16899
2026-01-28 11:44:30.05	323.94	8.16	-49.1	-62.3	3.8	1.49e+00	0	40	104	0	69	16821
2026-01-28 11:44:31.04	324.05	8.10	-49.1	-62.3	3.8	1.49e+00	0	40	104	0	69	16848
2026-01-28 11:44:32.03	324.16	8.04	-49.1	-62.3	3.8	1.49e+00	0	40	104	0	69	16831
2026-01-28 11:44:33.03	324.27	7.98	-49.1	-62.3	3.8	1.49e+00	0	40	104	0	69	16845
2026-01-28 11:44:34.02	324.38	7.92	-49.1	-62.3	3.8	1.49e+00	0	40	104	0	69	16860
2026-01-28 11:44:35.01	324.49	7.86	-49.1	-62.4	3.8	1.49e+00	0	40	104	0	69	16897
2026-01-28 11:44:36.01	324.60	7.80	-49.1	-62.3	3.8	1.49e+00	0	40	104	0	69	16824
2026-01-28 11:44:37.00	324.71	7.74	-49.1	-62.3	3.8	1.49e+00	0	40	104	0	69	16803
2026-01-28 11:44:37.99	324.81	7.68	-49.1	-62.3	3.8	1.49e+00	0	40	104	0	69	16836
2026-01-28 11:44:38.99	324.92	7.63	-49.1	-62.3	3.8	1.49e+00	0	40	104	0	69	16844
2026-01-28 11:44:39.98	325.03	7.57	-49.1	-62.4	3.8	1.49e+00	0	40	104	0	69	16915
2026-01-28 11:44:40.97	325.14	7.51	-49.1	-62.3	3.8	1.49e+00	0	40	104	0	69	16860
2026-01-28 11:44:41.96	325.24	7.45	-49.1	-62.3	3.8	1.49e+00	0	40	104	0	69	16835
2026-01-28 11:44:42.96	325.35	7.39	-49.1	-62.3	3.8	1.49e+00	0	40	104	0	69	16868
2026-01-28 11:44:43.95	325.45	7.33	-49.1	-62.3	3.8	1.49e+00	0	40	104	0	69	16860
2026-01-28 11:44:44.94	325.56	7.27	-49.1	-62.3	3.8	1.49e+00	0	40	104	0	69	16886
2026-01-28 11:44:45.94	325.67	7.21	-49.1	-62.3	3.8	1.49e+00	0	40	104	0	69	16811
2026-01-28 11:44:46.93	325.77	7.16	-49.1	-62.3	3.8	1.49e+00	0	40	104	0	69	16860
2026-01-28 11:44:47.92	325.87	7.10	-49.1	-62.3	3.8	1.49e+00	0	40	104	0	69	16887
2026-01-28 11:44:48.91	325.98	7.04	-49.1	-62.3	3.8	1.49e+00	0	40	104	0	69	16875
2026-01-28 11:44:49.91	326.08	6.98	-49.1	-62.3	3.8	1.49e+00	0	40	104	0	69	16854
2026-01-28 11:44:50.90	326.18	6.92	-49.1	-62.3	3.8	1.49e+00	0	40	104	0	69	16830
2026-01-28 11:44:51.89	326.28	6.86	-49.1	-62.3	3.8	1.49e+00	0	40	104	0	69	16849
2026-01-28 11:44:52.89	326.39	6.81	-49.1	-62.3	3.8	1.49e+00	0	40	104	0	69	16778
2026-01-28 11:44:53.88	326.49	6.75	-49.1	-62.3	3.8	1.49e+00	0	40	104	0	69	16867
2026-01-28 11:44:54.87	326.59	6.69	-49.1	-62.3	3.8	1.49e+00	0	40	104	0	69	16873
2026-01-28 11:44:55.87	326.69	6.63	-49.1	-62.3	3.8	1.49e+00	0	40	104	0	69	16800
2026-01-28 11:44:56.86	326.79	6.57	-49.1	-62.3	3.8	1.49e+00	0	40	104	0	69	16748
2026-01-28 11:44:57.85	326.89	6.52	-49.1	-62.3	3.8	1.49e+00	0	40	104	0	69	16836
2026-01-28 11:44:58.84	326.99	6.46	-49.1	-62.4	3.8	1.49e+00	0	40	104	0	69	16899
2026-01-28 11:44:59.84	327.09	6.40	-49.1	-62.3	3.8	1.49e+00	0	40	104	0	69	16848
2026-01-28 11:45:00.83	327.19	6.34	-49.1	-62.3	3.8	1.49e+00	0	40	104	0	69	16756
2026-01-28 11:45:01.82	327.29	6.29	-49.1	-62.3	3.8	1.49e+00	0	40	104	0	69	16826
2026-01-28 11:45:02.82	327.39	6.23	-49.1	-62.3	3.8	1.49e+00	0	40	104	0	69	16858
2026-01-28 11:45:03.81	327.48	6.17	-49.1	-62.3	3.8	1.49e+00	0	40	104	0	69	16867
2026-01-28 11:45:04.80	327.58	6.11	-49.1	-62.3	3.8	1.49e+00	0	40	104	0	69	16797
2026-01-28 11:45:05.79	327.68	6.06	-49.1	-62.3	3.8	1.49e+00	0	40	104	0	69	16855
2026-01-28 11:45:06.79	327.78	6.00	-49.1	-62.3	3.8	1.49e+00	0	40	104	0	69	16770
2026-01-28 11:45:07.78	327.87	5.94	-49.1	-62.3	3.8	1.49e+00	0	40	104	0	69	16847
2026-01-28 11:45:08.77	327.97	5.89	-49.1	-62.3	3.8	1.49e+00	0	40	104	0	69	16843
2026-01-28 11:45:09.77	328.06	5.83	-49.1	-62.3	3.8	1.49e+00	0	40	104	0	69	16809
2026-01-28 11:45:10.76	328.16	5.77	-49.1	-62.3	3.8	1.49e+00	0	40	104	0	69	16868
2026-01-28 11:45:11.75	328.25	5.71	-49.1	-62.3	3.8	1.49e+00	0	40	104	0	69	16810
2026-01-28 11:45:12.75	328.35	5.66	-49.1	-62.3	3.8	1.49e+00	0	40	104	0	69	16792
2026-01-28 11:45:13.74	328.44	5.60	-49.1	-62.3	3.8	1.49e+00	0	40	104	0	69	16817
2026-01-28 11:45:14.73	328.54	5.54	-49.1	-62.3	3.8	1.49e+00	0	40	104	0	69	16779
2026-01-28 11:45:15.73	328.63	5.49	-49.1	-62.3	3.8	1.49e+00	0	40	104	0	69	16835
2026-01-28 11:45:16.72	328.72	5.43	-49.1	-62.3	3.8	1.49e+00	0	40	104	0	69	16855
2026-01-28 11:45:17.71	328.82	5.37	-49.1	-62.3	3.8	1.49e+00	0	40	104	0	69	16843
2026-01-28 11:45:18.71	328.91	5.32	-49.1	-62.3	3.8	1.49e+00	0	40	104	0	69	16825
2026-01-28 11:45:19.70	329.00	5.26	-49.1	-62.3	3.8	1.49e+00	0	40	104	0	69	16781
2026-01-28 11:45:20.69	329.09	5.20	-49.1	-62.3	3.8	1.49e+00	0	40	104	0	69	16803
2026-01-28 11:45:21.69	329.19	5.15	-49.1	-62.3	3.8	1.49e+00	0	40	104	0	69	16789
2026-01-28 11:45:22.68	329.28	5.09	-49.1	-62.3	3.8	1.49e+00	0	40	104	0	69	16754
2026-01-28 11:45:23.67	329.37	5.03	-49.1	-62.3	3.8	1.49e+00	0	40	104	0	69	16826
2026-01-28 11:45:24.66	329.46	4.98	-49.1	-62.3	3.8	1.49e+00	0	40	104	0	69	16768

#Closed at: 2026-01-28 11:45:25
#Recorded file [0 MB]: D:/Data/31040_260128_143435.dat