passes_logs/2026/01/28/T1/T1__20260128_084308_SUOMI_NPP_rec.log

#Pass ID: 20260128_084308_SUOMI NPP
#Satellite: SUOMI NPP
#Configuration: NPP
#almurnet v.1.7.20251203
#Start time: 2026-01-28 08:43:10

#Version: 2.0.20230620
#Station: T1
#Location: 37.570604 lon 55.790049 lat
#TLE: 1 37849U 11061A   26027.86188320  .00000172  00000+0  10275-3 0  9990
#TLE: 2 37849  98.7823 329.8005 0002088  41.4184 318.7150 14.19530883738530

#Time	Az	El	Level	Level2	SNR	BER	BlckErr	Temp	State	Recorded	gain1	gain2
2026-01-28 08:43:10.63	119.54	5.13	-48.9	-64.0	3.8	1.49e+00	0	41	0	0	69	20361
2026-01-28 08:43:11.62	119.47	5.19	-48.9	-64.0	3.8	1.49e+00	0	41	104	0	69	20499
2026-01-28 08:43:12.62	119.41	5.26	-48.9	-64.0	3.8	1.49e+00	0	40	104	0	69	20414
2026-01-28 08:43:13.62	119.34	5.33	-48.9	-64.0	3.8	1.49e+00	0	41	104	0	69	20448
2026-01-28 08:43:14.61	119.27	5.39	-48.9	-64.0	3.8	1.49e+00	0	41	104	0	69	20499
2026-01-28 08:43:15.62	119.20	5.46	-48.9	-64.0	3.8	1.49e+00	0	41	104	0	69	20332
2026-01-28 08:43:16.62	119.14	5.52	-48.9	-64.0	3.8	1.49e+00	0	41	104	0	69	20370
2026-01-28 08:43:17.62	119.07	5.59	-48.9	-64.0	3.8	1.49e+00	0	41	104	0	69	20386
2026-01-28 08:43:18.61	119.00	5.65	-48.9	-64.0	3.8	1.49e+00	0	41	104	0	69	20350
2026-01-28 08:43:19.61	118.93	5.72	-48.9	-64.0	3.8	1.49e+00	0	41	104	0	69	20420
2026-01-28 08:43:20.61	118.86	5.79	-48.9	-64.0	3.8	1.49e+00	0	41	104	0	69	20400
2026-01-28 08:43:21.61	118.79	5.85	-48.9	-64.0	3.8	1.49e+00	0	41	104	0	69	20407
2026-01-28 08:43:22.61	118.72	5.92	-48.9	-64.0	3.8	1.49e+00	0	41	104	0	69	20350
2026-01-28 08:43:23.61	118.65	5.99	-48.9	-64.0	3.8	1.49e+00	0	41	104	0	69	20347
2026-01-28 08:43:24.60	118.58	6.05	-48.9	-64.0	3.8	1.49e+00	0	41	104	0	69	20466
2026-01-28 08:43:25.60	118.51	6.12	-48.9	-63.9	3.8	1.49e+00	0	41	104	0	69	20284
2026-01-28 08:43:26.59	118.44	6.18	-48.9	-63.9	3.8	1.49e+00	0	42	104	0	69	20248
2026-01-28 08:43:27.58	118.37	6.25	-48.9	-63.9	3.8	1.49e+00	0	41	104	0	69	20245
2026-01-28 08:43:28.57	118.30	6.32	-48.8	-63.8	3.8	1.49e+00	0	41	104	0	69	19963
2026-01-28 08:43:29.55	118.23	6.38	-48.9	-63.7	3.8	1.49e+00	0	41	104	0	69	19692
2026-01-28 08:43:30.55	118.16	6.45	-48.8	-63.5	3.8	1.49e+00	0	41	104	0	69	19185
2026-01-28 08:43:31.54	118.09	6.52	-48.8	-63.2	3.8	1.49e+00	0	41	104	0	69	18643
2026-01-28 08:43:32.52	118.02	6.58	-48.8	-63.1	3.8	1.49e+00	0	41	104	0	69	18370
2026-01-28 08:43:33.52	117.94	6.65	-48.8	-63.0	3.8	1.49e+00	0	41	104	0	69	18279
2026-01-28 08:43:34.51	117.87	6.72	-48.8	-63.1	3.8	1.49e+00	0	42	104	0	69	18396
2026-01-28 08:43:35.51	117.80	6.79	-48.8	-63.3	3.8	1.49e+00	0	42	104	0	69	18818
2026-01-28 08:43:36.51	117.72	6.86	-48.8	-63.5	3.8	1.49e+00	0	42	104	0	69	19348
2026-01-28 08:43:37.50	117.65	6.92	-48.8	-63.6	3.8	1.49e+00	0	42	104	0	69	19604
2026-01-28 08:43:38.49	117.57	6.99	-48.8	-63.8	3.8	1.49e+00	0	42	104	0	69	19911
2026-01-28 08:43:39.49	117.50	7.06	-48.8	-63.8	3.8	1.49e+00	0	42	104	0	69	20055
2026-01-28 08:43:40.48	117.42	7.13	-48.9	-63.7	3.8	1.49e+00	0	42	104	0	69	19832
2026-01-28 08:43:41.48	117.35	7.20	-48.8	-63.7	3.8	1.49e+00	0	42	104	0	69	19617
2026-01-28 08:43:42.48	117.27	7.27	-48.8	-63.5	3.8	1.49e+00	0	42	104	0	69	19247
2026-01-28 08:43:43.47	117.19	7.34	-48.8	-63.3	3.8	1.49e+00	0	42	104	0	69	18819
2026-01-28 08:43:44.47	117.12	7.41	-48.8	-63.3	3.8	1.49e+00	0	42	104	0	69	18825
2026-01-28 08:43:45.48	117.04	7.48	-48.8	-63.6	3.8	1.49e+00	0	42	104	0	69	19529
2026-01-28 08:43:46.47	116.96	7.54	-48.9	-64.0	3.8	1.49e+00	0	42	104	0	69	20337
2026-01-28 08:43:47.47	116.88	7.61	-48.8	-63.7	3.8	1.49e+00	0	42	104	0	69	19713
2026-01-28 08:43:48.46	116.80	7.68	-48.8	-62.5	3.8	1.49e+00	0	42	104	0	69	17268
2026-01-28 08:43:49.45	116.72	7.75	-48.7	-60.8	4.1	1.49e+00	0	42	0	0	69	14171
2026-01-28 08:43:50.45	116.64	7.82	-48.4	-58.8	4.8	9.94e-01	0	42	0	1048576	68	11905
2026-01-28 08:43:51.45	116.56	7.89	-48.1	-56.9	6.0	4.88e-01	0	42	0	2097152	68	9535
2026-01-28 08:43:52.44	116.48	7.96	-47.4	-54.2	8.2	1.60e-01	0	42	0	4194304	66	7884
2026-01-28 08:43:53.43	116.40	8.03	-46.3	-51.2	11.3	1.90e-02	0	42	0	6291456	64	6235
2026-01-28 08:43:54.43	116.32	8.10	-45.3	-49.1	13.5	4.11e-05	0	42	0	8388608	62	5476
2026-01-28 08:43:55.42	116.24	8.17	-44.2	-47.4	15.2	0.00e+00	0	42	0	9437184	60	5058
2026-01-28 08:43:56.42	116.16	8.25	-43.7	-46.5	16.1	0.00e+00	0	42	0	11534336	59	4861
2026-01-28 08:43:57.42	116.08	8.32	-43.7	-46.7	15.9	0.00e+00	0	42	0	13631488	59	4958
2026-01-28 08:43:58.41	116.00	8.39	-44.1	-47.3	15.3	0.00e+00	0	42	0	15728640	59	5320
2026-01-28 08:43:59.40	115.91	8.46	-45.1	-49.0	13.7	1.50e-06	0	42	0	17825792	60	6083
2026-01-28 08:44:00.41	115.83	8.53	-45.8	-50.3	12.3	4.42e-05	0	42	0	18874368	62	6335
2026-01-28 08:44:01.40	115.75	8.60	-46.3	-51.4	11.3	7.38e-04	0	42	0	20971520	63	6781
2026-01-28 08:44:02.40	115.66	8.67	-46.5	-51.7	10.9	2.09e-03	0	42	0	23068672	63	6979
2026-01-28 08:44:03.40	115.58	8.75	-46.6	-52.0	10.5	3.73e-03	0	42	0	25165824	64	6818
2026-01-28 08:44:04.39	115.49	8.82	-46.9	-52.8	9.7	9.64e-03	0	42	0	27262976	64	7464
2026-01-28 08:44:05.39	115.41	8.89	-47.5	-54.6	7.9	4.03e-02	0	42	0	28311552	65	8717
2026-01-28 08:44:06.39	115.32	8.96	-48.1	-57.0	5.8	1.75e-01	0	42	0	30408704	66	10866
2026-01-28 08:44:07.39	115.23	9.04	-48.2	-57.5	5.3	7.23e-01	0	42	0	32505856	67	10825
2026-01-28 08:44:08.39	115.14	9.11	-47.2	-53.4	9.1	8.73e-03	0	43	0	34603008	65	7616
2026-01-28 08:44:09.39	115.06	9.18	-48.4	-59.7	4.4	5.21e-01	0	42	0	35651584	67	14014
2026-01-28 08:44:10.38	114.97	9.25	-48.5	-61.3	3.9	1.49e+00	0	42	104	36700160	67	16762
2026-01-28 08:44:11.38	114.88	9.33	-47.6	-55.1	7.8	5.87e-01	0	42	0	36700160	66	8680
2026-01-28 08:44:12.38	114.79	9.40	-48.8	-62.8	3.8	1.49e+00	0	42	104	37748736	68	18940
2026-01-28 08:44:13.38	114.70	9.47	-46.7	-52.2	10.4	2.37e-02	0	42	0	37748736	65	6577
2026-01-28 08:44:14.37	114.61	9.55	-46.2	-50.9	11.7	2.48e-03	0	43	0	39845888	64	6047
2026-01-28 08:44:15.37	114.52	9.62	-45.6	-49.8	13.0	7.47e-05	0	43	0	41943040	63	5596
2026-01-28 08:44:16.37	114.43	9.70	-45.4	-49.3	13.5	2.13e-05	0	43	0	44040192	62	5635
2026-01-28 08:44:17.37	114.34	9.77	-45.4	-49.3	13.5	6.80e-06	0	42	0	45088768	62	5630
2026-01-28 08:44:18.36	114.25	9.84	-45.5	-49.6	13.2	9.90e-06	0	42	0	47185920	62	5833
2026-01-28 08:44:19.36	114.16	9.92	-46.0	-50.5	12.3	8.62e-05	0	42	0	49283072	62	6466
2026-01-28 08:44:20.36	114.06	9.99	-46.4	-51.5	11.3	4.85e-04	0	42	0	51380224	63	6817
2026-01-28 08:44:21.36	113.97	10.07	-46.5	-51.5	11.3	9.23e-04	0	43	0	53477376	63	6879
2026-01-28 08:44:22.35	113.88	10.14	-46.1	-50.7	12.1	4.07e-04	0	43	0	54525952	63	6220
2026-01-28 08:44:23.35	113.78	10.22	-45.2	-49.0	13.8	3.81e-05	0	42	0	56623104	62	5456
2026-01-28 08:44:24.35	113.69	10.29	-44.7	-48.1	14.8	7.00e-07	0	42	0	58720256	61	5174
2026-01-28 08:44:25.35	113.59	10.37	-44.3	-47.5	15.3	0.00e+00	0	43	0	60817408	60	5146
2026-01-28 08:44:26.35	113.50	10.44	-44.2	-47.3	15.5	0.00e+00	0	43	0	62914560	60	5035
2026-01-28 08:44:27.35	113.40	10.52	-44.7	-48.2	14.7	0.00e+00	0	43	0	63963136	60	5563
2026-01-28 08:44:28.35	113.31	10.59	-45.1	-48.9	14.0	3.00e-06	0	43	0	66060288	60	6054
2026-01-28 08:44:29.35	113.21	10.67	-45.7	-49.9	12.9	1.83e-05	0	43	0	68157440	61	6419
2026-01-28 08:44:30.35	113.11	10.75	-45.7	-49.9	13.0	3.66e-05	0	43	0	70254592	62	6013
2026-01-28 08:44:31.35	113.01	10.82	-45.3	-49.3	13.6	9.90e-06	0	43	0	71303168	62	5640
2026-01-28 08:44:32.35	112.91	10.90	-44.8	-48.4	14.5	3.00e-06	0	42	0	73400320	61	5349
2026-01-28 08:44:33.35	112.81	10.98	-44.1	-47.4	15.5	0.00e+00	0	42	0	75497472	60	5060
2026-01-28 08:44:34.34	112.71	11.05	-43.8	-46.8	16.0	0.00e+00	0	42	0	77594624	59	5031
2026-01-28 08:44:35.34	112.61	11.13	-44.0	-47.1	15.7	0.00e+00	0	43	0	79691776	59	5211
2026-01-28 08:44:36.34	112.51	11.21	-44.0	-47.1	15.7	0.00e+00	0	42	0	80740352	59	5206
2026-01-28 08:44:37.33	112.41	11.28	-44.4	-47.7	15.2	0.00e+00	0	43	0	82837504	59	5551
2026-01-28 08:44:38.33	112.31	11.36	-44.5	-47.9	14.9	0.00e+00	0	43	0	84934656	59	5718
2026-01-28 08:44:39.33	112.21	11.44	-44.5	-47.9	15.0	0.00e+00	0	43	0	87031808	59	5686
2026-01-28 08:44:40.33	112.10	11.52	-44.2	-47.4	15.4	0.00e+00	0	43	0	88080384	59	5396
2026-01-28 08:44:41.33	112.00	11.59	-44.0	-47.1	15.8	0.00e+00	0	43	0	90177536	59	5166
2026-01-28 08:44:42.33	111.90	11.67	-43.7	-46.6	16.2	0.00e+00	0	43	0	92274688	59	4926
2026-01-28 08:44:43.33	111.79	11.75	-43.7	-46.7	16.2	0.00e+00	0	43	0	94371840	59	4949
2026-01-28 08:44:44.32	111.69	11.83	-43.9	-47.0	15.9	0.00e+00	0	43	0	96468992	59	5134
2026-01-28 08:44:45.33	111.58	11.91	-44.3	-47.5	15.4	0.00e+00	0	43	0	97517568	59	5421
2026-01-28 08:44:46.32	111.47	11.99	-44.4	-47.6	15.3	0.00e+00	0	43	0	99614720	59	5502
2026-01-28 08:44:47.32	111.37	12.06	-44.5	-47.8	15.1	0.00e+00	0	43	0	101711872	59	5625
2026-01-28 08:44:48.32	111.26	12.14	-44.3	-47.4	15.4	0.00e+00	0	43	0	103809024	59	5394
2026-01-28 08:44:49.31	111.15	12.22	-44.0	-47.0	15.9	0.00e+00	0	43	0	105906176	59	5159
2026-01-28 08:44:50.31	111.04	12.30	-43.8	-46.8	16.1	0.00e+00	0	43	0	106954752	59	5004
2026-01-28 08:44:51.31	110.93	12.38	-43.8	-46.8	16.2	0.00e+00	0	43	0	109051904	59	4987
2026-01-28 08:44:52.31	110.82	12.46	-44.0	-47.1	15.8	0.00e+00	0	43	0	111149056	59	5196
2026-01-28 08:44:53.31	110.71	12.54	-43.8	-46.8	16.2	0.00e+00	0	43	0	113246208	59	5006
2026-01-28 08:44:54.31	110.60	12.62	-43.9	-46.9	16.0	0.00e+00	0	43	0	115343360	59	5090
2026-01-28 08:44:55.30	110.49	12.70	-43.8	-46.8	16.1	0.00e+00	0	43	0	116391936	59	5016
2026-01-28 08:44:56.30	110.38	12.78	-43.6	-46.5	16.4	0.00e+00	0	43	0	118489088	59	4859
2026-01-28 08:44:57.30	110.26	12.86	-43.4	-46.2	16.7	0.00e+00	0	43	0	120586240	58	4942
2026-01-28 08:44:58.29	110.15	12.94	-43.1	-45.7	17.1	0.00e+00	0	43	0	122683392	58	4694
2026-01-28 08:44:59.29	110.04	13.02	-43.2	-45.9	16.9	0.00e+00	0	43	0	123731968	58	4811
2026-01-28 08:45:00.29	109.92	13.10	-43.4	-46.2	16.7	0.00e+00	0	43	0	125829120	58	4955
2026-01-28 08:45:01.29	109.81	13.18	-43.6	-46.5	16.4	0.00e+00	0	43	0	127926272	58	5134
2026-01-28 08:45:02.29	109.69	13.26	-43.8	-46.7	16.2	0.00e+00	0	43	0	130023424	58	5261
2026-01-28 08:45:03.28	109.57	13.34	-43.9	-46.9	16.1	0.00e+00	0	43	0	132120576	58	5365
2026-01-28 08:45:04.28	109.45	13.43	-43.7	-46.7	16.3	0.00e+00	0	43	0	133169152	58	5228
2026-01-28 08:45:05.28	109.34	13.51	-43.7	-46.6	16.4	0.00e+00	0	43	0	135266304	58	5182
2026-01-28 08:45:06.28	109.22	13.59	-43.5	-46.4	16.6	0.00e+00	0	43	0	137363456	58	5045
2026-01-28 08:45:07.28	109.10	13.67	-43.7	-46.6	16.4	0.00e+00	0	43	0	139460608	58	5182
2026-01-28 08:45:08.28	108.98	13.75	-44.0	-47.0	16.0	0.00e+00	0	43	0	140509184	58	5425
2026-01-28 08:45:09.27	108.86	13.83	-44.2	-47.3	15.7	0.00e+00	0	43	0	142606336	58	5608
2026-01-28 08:45:10.28	108.73	13.92	-44.4	-47.7	15.3	0.00e+00	0	43	0	144703488	59	5543
2026-01-28 08:45:11.27	108.61	14.00	-44.3	-47.4	15.6	0.00e+00	0	43	0	146800640	59	5361
2026-01-28 08:45:12.28	108.49	14.08	-44.1	-47.1	15.9	0.00e+00	0	43	0	148897792	59	5204
2026-01-28 08:45:13.28	108.36	14.17	-44.2	-47.2	15.7	0.00e+00	0	43	0	149946368	59	5268
2026-01-28 08:45:14.28	108.24	14.25	-44.1	-47.2	15.7	0.00e+00	0	43	0	152043520	59	5266
2026-01-28 08:45:15.28	108.11	14.33	-44.3	-47.5	15.5	0.00e+00	0	43	0	154140672	59	5421
2026-01-28 08:45:16.29	107.99	14.42	-44.3	-47.5	15.5	0.00e+00	0	43	0	156237824	59	5446
2026-01-28 08:45:17.28	107.86	14.50	-44.0	-47.0	16.0	0.00e+00	0	43	0	158334976	59	5148
2026-01-28 08:45:18.28	107.73	14.58	-43.9	-46.9	16.1	0.00e+00	0	43	0	159383552	59	5054
2026-01-28 08:45:19.28	107.61	14.67	-43.8	-46.8	16.2	0.00e+00	0	43	0	161480704	59	4997
2026-01-28 08:45:20.28	107.48	14.75	-43.9	-46.9	16.1	0.00e+00	0	43	0	163577856	59	5091
2026-01-28 08:45:21.28	107.35	14.83	-43.9	-47.0	16.0	0.00e+00	0	43	0	165675008	59	5109
2026-01-28 08:45:22.28	107.22	14.92	-43.8	-46.7	16.2	0.00e+00	0	43	0	166723584	59	4957
2026-01-28 08:45:23.28	107.09	15.00	-43.7	-46.6	16.4	0.00e+00	0	43	0	168820736	59	4913
2026-01-28 08:45:24.28	106.95	15.09	-43.6	-46.4	16.6	0.00e+00	0	43	0	170917888	59	4789
2026-01-28 08:45:25.28	106.82	15.17	-43.3	-46.1	17.0	0.00e+00	0	43	0	173015040	58	4887
2026-01-28 08:45:26.28	106.69	15.26	-43.1	-45.7	17.2	0.00e+00	0	43	0	175112192	58	4699
2026-01-28 08:45:27.28	106.55	15.34	-43.2	-45.9	17.1	0.00e+00	0	43	0	176160768	58	4785
2026-01-28 08:45:28.28	106.42	15.43	-43.3	-46.0	17.1	0.00e+00	0	43	0	178257920	58	4816
2026-01-28 08:45:29.28	106.28	15.51	-43.4	-46.1	16.9	0.00e+00	0	43	0	180355072	58	4913
2026-01-28 08:45:30.27	106.15	15.59	-43.1	-45.7	17.2	0.00e+00	0	43	0	182452224	58	4686
2026-01-28 08:45:31.27	106.01	15.68	-43.1	-45.7	17.3	0.00e+00	0	43	0	184549376	58	4696
2026-01-28 08:45:32.27	105.87	15.77	-43.0	-45.6	17.4	0.00e+00	0	43	0	185597952	58	4622
2026-01-28 08:45:33.27	105.73	15.85	-42.9	-45.5	17.5	0.00e+00	0	43	0	187695104	57	4818
2026-01-28 08:45:34.27	105.59	15.94	-43.0	-45.6	17.4	0.00e+00	0	43	0	189792256	57	4920
2026-01-28 08:45:35.26	105.45	16.02	-43.1	-45.8	17.3	0.00e+00	0	43	0	191889408	57	4998
2026-01-28 08:45:36.26	105.31	16.11	-43.1	-45.8	17.2	0.00e+00	0	43	0	193986560	57	5000
2026-01-28 08:45:37.26	105.17	16.19	-43.1	-45.8	17.2	0.00e+00	0	43	0	195035136	57	5008
2026-01-28 08:45:38.26	105.03	16.28	-42.9	-45.4	17.5	0.00e+00	0	43	0	197132288	57	4812
2026-01-28 08:45:39.25	104.88	16.37	-42.7	-45.2	17.9	0.00e+00	0	43	0	199229440	57	4652
2026-01-28 08:45:40.25	104.74	16.45	-42.7	-45.1	17.8	0.00e+00	0	43	0	201326592	57	4647
2026-01-28 08:45:41.24	104.60	16.54	-42.7	-45.2	17.8	0.00e+00	0	43	0	202375168	57	4673
2026-01-28 08:45:42.24	104.45	16.62	-43.2	-45.9	17.1	0.00e+00	0	43	0	204472320	57	5091
2026-01-28 08:45:43.24	104.30	16.71	-43.3	-46.0	17.0	0.00e+00	0	43	0	206569472	57	5151
2026-01-28 08:45:44.24	104.15	16.80	-43.0	-45.6	17.4	0.00e+00	0	43	0	208666624	57	4900
2026-01-28 08:45:45.23	104.01	16.88	-42.7	-45.2	17.8	0.00e+00	0	43	0	210763776	57	4687
2026-01-28 08:45:46.24	103.85	16.97	-42.6	-45.1	17.9	0.00e+00	0	43	0	211812352	57	4604
2026-01-28 08:45:47.23	103.71	17.06	-42.7	-45.2	17.9	0.00e+00	0	43	0	213909504	56	4932
2026-01-28 08:45:48.24	103.55	17.15	-42.8	-45.4	17.7	0.00e+00	0	43	0	216006656	56	5058
2026-01-28 08:45:49.23	103.40	17.23	-43.0	-45.6	17.4	0.00e+00	0	43	0	218103808	56	5218
2026-01-28 08:45:50.23	103.25	17.32	-43.1	-45.7	17.3	0.00e+00	0	43	0	219152384	56	5279
2026-01-28 08:45:51.23	103.09	17.41	-43.1	-45.7	17.3	0.00e+00	0	43	0	221249536	56	5239
2026-01-28 08:45:52.23	102.94	17.50	-43.1	-45.7	17.3	0.00e+00	0	43	0	223346688	56	5268
2026-01-28 08:45:53.23	102.78	17.59	-43.0	-45.6	17.5	0.00e+00	0	43	0	225443840	56	5165
2026-01-28 08:45:54.22	102.63	17.67	-42.8	-45.3	17.7	0.00e+00	0	43	0	227540992	56	5036
2026-01-28 08:45:55.22	102.47	17.76	-42.8	-45.3	17.7	0.00e+00	0	43	0	228589568	56	5034
2026-01-28 08:45:56.22	102.31	17.85	-43.0	-45.6	17.5	0.00e+00	0	43	0	230686720	56	5191
2026-01-28 08:45:57.22	102.15	17.94	-43.4	-46.1	17.0	0.00e+00	0	43	0	232783872	57	5203
2026-01-28 08:45:58.22	101.99	18.02	-43.2	-45.8	17.2	0.00e+00	0	43	0	234881024	57	5036
2026-01-28 08:45:59.22	101.83	18.11	-42.8	-45.3	17.7	0.00e+00	0	43	0	236978176	57	4733
2026-01-28 08:46:00.22	101.66	18.20	-42.8	-45.3	17.8	0.00e+00	0	43	0	238026752	57	4709
2026-01-28 08:46:01.22	101.50	18.29	-42.7	-45.2	17.9	0.00e+00	0	43	0	240123904	57	4654
2026-01-28 08:46:02.21	101.34	18.38	-43.0	-45.7	17.5	0.00e+00	0	43	0	242221056	57	4937
2026-01-28 08:46:03.21	101.17	18.47	-43.2	-45.9	17.1	0.00e+00	0	43	0	244318208	57	5077
2026-01-28 08:46:04.21	101.00	18.56	-43.4	-46.2	16.9	0.00e+00	0	43	0	245366784	57	5226
2026-01-28 08:46:05.21	100.84	18.64	-43.2	-45.8	17.3	0.00e+00	0	43	0	247463936	57	5020
2026-01-28 08:46:06.20	100.67	18.73	-42.7	-45.2	17.8	0.00e+00	0	43	0	249561088	57	4698
2026-01-28 08:46:07.21	100.50	18.82	-42.6	-45.1	17.9	0.00e+00	0	43	0	251658240	57	4636
2026-01-28 08:46:08.20	100.33	18.91	-43.1	-45.8	17.3	0.00e+00	0	43	0	253755392	57	5025
2026-01-28 08:46:09.20	100.16	19.00	-43.4	-46.2	16.9	0.00e+00	0	43	0	254803968	57	5260
2026-01-28 08:46:10.21	99.98	19.09	-43.7	-46.6	16.6	0.00e+00	0	43	0	256901120	57	5488
2026-01-28 08:46:11.21	99.81	19.18	-43.3	-46.0	17.1	0.00e+00	0	43	0	258998272	57	5120
2026-01-28 08:46:12.20	99.64	19.27	-43.2	-45.9	17.2	0.00e+00	0	43	0	261095424	57	5048
2026-01-28 08:46:13.21	99.46	19.36	-43.1	-45.8	17.4	0.00e+00	0	43	0	263192576	57	4987
2026-01-28 08:46:14.21	99.28	19.45	-43.4	-46.2	16.9	0.00e+00	0	43	0	264241152	57	5276
2026-01-28 08:46:15.21	99.11	19.54	-43.9	-46.9	16.3	0.00e+00	0	43	0	266338304	58	5343
2026-01-28 08:46:16.21	98.93	19.63	-44.0	-47.1	16.1	0.00e+00	0	43	0	268435456	59	5200
2026-01-28 08:46:17.20	98.75	19.71	-43.8	-46.8	16.3	0.00e+00	0	43	0	270532608	59	5000
2026-01-28 08:46:18.20	98.57	19.80	-43.4	-46.1	16.9	0.00e+00	0	43	0	272629760	58	4908
2026-01-28 08:46:19.20	98.39	19.89	-43.2	-45.9	17.1	0.00e+00	0	43	0	273678336	58	4798
2026-01-28 08:46:20.19	98.20	19.98	-43.4	-46.2	16.9	0.00e+00	0	43	0	275775488	58	4961
2026-01-28 08:46:21.19	98.02	20.07	-43.4	-46.1	17.0	0.00e+00	0	43	0	277872640	58	4923
2026-01-28 08:46:22.19	97.84	20.16	-43.7	-46.6	16.6	0.00e+00	0	43	0	279969792	58	5189
2026-01-28 08:46:23.19	97.65	20.25	-43.5	-46.3	16.9	0.00e+00	0	43	0	281018368	58	4993
2026-01-28 08:46:24.19	97.46	20.34	-43.5	-46.2	16.9	0.00e+00	0	43	0	283115520	58	4967
2026-01-28 08:46:25.18	97.27	20.43	-43.4	-46.1	17.0	0.00e+00	0	43	0	285212672	58	4896
2026-01-28 08:46:26.18	97.08	20.52	-43.3	-46.0	17.0	0.00e+00	0	43	0	287309824	58	4867
2026-01-28 08:46:27.18	96.89	20.61	-43.7	-46.6	16.6	0.00e+00	0	43	0	289406976	58	5199
2026-01-28 08:46:28.19	96.70	20.70	-43.7	-46.6	16.6	0.00e+00	0	43	0	290455552	58	5189
2026-01-28 08:46:29.19	96.51	20.79	-43.7	-46.5	16.7	0.00e+00	0	43	0	292552704	58	5130
2026-01-28 08:46:30.18	96.32	20.88	-43.5	-46.3	16.9	0.00e+00	0	43	0	294649856	58	4988
2026-01-28 08:46:31.18	96.12	20.96	-43.4	-46.2	17.0	0.00e+00	0	43	0	296747008	58	4934
2026-01-28 08:46:32.18	95.92	21.05	-43.3	-46.0	17.2	0.00e+00	0	43	0	297795584	58	4824
2026-01-28 08:46:33.17	95.73	21.14	-43.0	-45.7	17.5	0.00e+00	0	43	0	299892736	57	4932
2026-01-28 08:46:34.17	95.53	21.23	-42.8	-45.4	17.7	0.00e+00	0	43	0	301989888	57	4773
2026-01-28 08:46:35.16	95.33	21.32	-42.8	-45.4	17.7	0.00e+00	0	43	0	304087040	57	4793
2026-01-28 08:46:36.16	95.13	21.41	-42.8	-45.4	17.7	0.00e+00	0	43	0	306184192	57	4809
2026-01-28 08:46:37.16	94.93	21.50	-43.0	-45.7	17.4	0.00e+00	0	43	0	307232768	57	4927
2026-01-28 08:46:38.17	94.72	21.59	-42.7	-45.3	17.9	0.00e+00	0	43	0	309329920	57	4708
2026-01-28 08:46:39.16	94.52	21.68	-42.9	-45.4	17.7	0.00e+00	0	43	0	311427072	57	4798
2026-01-28 08:46:40.17	94.31	21.77	-42.9	-45.4	17.7	0.00e+00	0	43	0	313524224	57	4783
2026-01-28 08:46:41.17	94.11	21.85	-42.8	-45.4	17.8	0.00e+00	0	43	0	315621376	57	4768
2026-01-28 08:46:42.17	93.90	21.94	-43.2	-45.9	17.2	0.00e+00	0	43	0	316669952	57	5071
2026-01-28 08:46:43.17	93.69	22.03	-43.2	-45.9	17.3	0.00e+00	0	43	0	318767104	57	5048
2026-01-28 08:46:44.17	93.48	22.12	-43.1	-45.8	17.4	0.00e+00	0	43	0	320864256	57	5012
2026-01-28 08:46:45.17	93.27	22.21	-42.9	-45.5	17.6	0.00e+00	0	43	0	322961408	57	4836
2026-01-28 08:46:46.17	93.05	22.30	-42.8	-45.4	17.7	0.00e+00	0	43	0	325058560	57	4785
2026-01-28 08:46:47.17	92.84	22.38	-42.7	-45.3	17.8	0.00e+00	0	43	0	326107136	57	4751
2026-01-28 08:46:48.16	92.63	22.47	-42.5	-45.0	18.1	0.00e+00	0	43	0	328204288	56	4861
2026-01-28 08:46:49.17	92.41	22.56	-42.3	-44.8	18.3	0.00e+00	0	43	0	330301440	56	4717
2026-01-28 08:46:50.17	92.19	22.65	-41.8	-44.1	18.7	0.00e+00	0	43	0	332398592	55	4644
2026-01-28 08:46:51.16	91.97	22.73	-41.5	-43.8	19.1	0.00e+00	0	43	0	333447168	55	4445
2026-01-28 08:46:52.16	91.75	22.82	-41.3	-43.5	19.3	0.00e+00	0	43	0	335544320	54	4582
2026-01-28 08:46:53.15	91.53	22.91	-41.4	-43.7	19.2	0.00e+00	0	43	0	337641472	54	4664
2026-01-28 08:46:54.15	91.31	23.00	-41.6	-43.9	19.0	0.00e+00	0	43	0	339738624	54	4762
2026-01-28 08:46:55.15	91.09	23.08	-41.5	-43.8	19.1	0.00e+00	0	43	0	341835776	54	4725
2026-01-28 08:46:56.15	90.86	23.17	-41.8	-44.1	18.8	0.00e+00	0	43	0	342884352	54	4897
2026-01-28 08:46:57.15	90.63	23.26	-41.8	-44.1	18.8	0.00e+00	0	43	0	344981504	54	4906
2026-01-28 08:46:58.15	90.41	23.34	-42.0	-44.4	18.5	0.00e+00	0	43	0	347078656	54	5077
2026-01-28 08:46:59.15	90.18	23.43	-42.2	-44.7	18.2	0.00e+00	0	43	0	349175808	55	4974
2026-01-28 08:47:00.14	89.95	23.51	-42.2	-44.7	18.3	0.00e+00	0	43	0	351272960	55	4944
2026-01-28 08:47:01.14	89.72	23.60	-42.3	-44.8	18.2	0.00e+00	0	43	0	352321536	55	5032
2026-01-28 08:47:02.14	89.48	23.68	-42.4	-45.0	18.0	0.00e+00	0	43	0	354418688	55	5131
2026-01-28 08:47:03.14	89.25	23.77	-41.9	-44.3	18.6	0.00e+00	0	43	0	356515840	55	4735
2026-01-28 08:47:04.14	89.01	23.85	-41.6	-44.0	18.9	0.00e+00	0	43	0	358612992	55	4569
2026-01-28 08:47:05.14	88.78	23.94	-41.6	-43.9	19.0	0.00e+00	0	43	0	359661568	55	4536
2026-01-28 08:47:06.14	88.54	24.02	-41.6	-43.9	19.0	0.00e+00	0	43	0	361758720	54	4794
2026-01-28 08:47:07.14	88.30	24.11	-41.4	-43.7	19.2	0.00e+00	0	43	0	363855872	54	4693
2026-01-28 08:47:08.14	88.06	24.19	-41.5	-43.8	19.1	0.00e+00	0	43	0	365953024	54	4756
2026-01-28 08:47:09.13	87.82	24.27	-41.5	-43.8	19.1	0.00e+00	0	43	0	368050176	54	4743
2026-01-28 08:47:10.13	87.58	24.36	-41.7	-44.0	18.9	0.00e+00	0	43	0	369098752	54	4869
2026-01-28 08:47:11.12	87.33	24.44	-41.5	-43.9	19.1	0.00e+00	0	43	0	371195904	54	4761
2026-01-28 08:47:12.12	87.09	24.52	-41.5	-43.8	19.0	0.00e+00	0	43	0	373293056	54	4753
2026-01-28 08:47:13.11	86.84	24.60	-41.7	-44.1	18.8	0.00e+00	0	43	0	375390208	54	4909
2026-01-28 08:47:14.11	86.60	24.69	-41.7	-44.1	18.9	0.00e+00	0	43	0	376438784	54	4903
2026-01-28 08:47:15.11	86.35	24.77	-41.4	-43.7	19.2	0.00e+00	0	43	0	378535936	54	4685
2026-01-28 08:47:16.11	86.10	24.85	-41.3	-43.5	19.4	0.00e+00	0	43	0	380633088	54	4578
2026-01-28 08:47:17.10	85.85	24.93	-41.4	-43.6	19.2	0.00e+00	0	43	0	382730240	54	4639
2026-01-28 08:47:18.10	85.59	25.01	-41.5	-43.8	19.1	0.00e+00	0	43	0	384827392	54	4747
2026-01-28 08:47:19.09	85.34	25.09	-41.7	-44.0	18.9	0.00e+00	0	43	0	385875968	54	4867
2026-01-28 08:47:20.10	85.08	25.17	-41.4	-43.7	19.2	0.00e+00	0	43	0	387973120	54	4688
2026-01-28 08:47:21.09	84.83	25.25	-41.1	-43.4	19.5	0.00e+00	0	43	0	390070272	54	4519
2026-01-28 08:47:22.09	84.57	25.33	-41.3	-43.6	19.3	0.00e+00	0	43	0	392167424	54	4628
2026-01-28 08:47:23.09	84.31	25.41	-41.2	-43.7	19.1	0.00e+00	0	43	0	394264576	54	4658
2026-01-28 08:47:24.09	84.05	25.49	-41.6	-44.1	18.7	0.00e+00	0	43	0	395313152	54	4874
2026-01-28 08:47:25.08	83.79	25.56	-41.7	-44.2	18.7	0.00e+00	0	43	0	397410304	54	4953
2026-01-28 08:47:26.08	83.52	25.64	-42.0	-44.6	18.2	0.00e+00	0	43	0	399507456	54	5202
2026-01-28 08:47:27.08	83.26	25.72	-42.2	-44.9	18.0	0.00e+00	0	43	0	401604608	55	5062
2026-01-28 08:47:28.07	82.99	25.79	-42.2	-44.9	18.0	0.00e+00	0	43	0	402653184	55	5069
2026-01-28 08:47:29.08	82.72	25.87	-42.3	-45.0	17.9	0.00e+00	0	43	0	404750336	55	5136
2026-01-28 08:47:30.07	82.46	25.94	-42.1	-44.7	18.2	0.00e+00	0	43	0	406847488	55	4966
2026-01-28 08:47:31.07	82.19	26.02	-42.1	-44.7	18.3	0.00e+00	0	43	0	408944640	55	4936
2026-01-28 08:47:32.07	81.91	26.09	-42.0	-44.6	18.3	0.00e+00	0	43	0	411041792	55	4874
2026-01-28 08:47:33.07	81.64	26.17	-42.1	-44.7	18.2	0.00e+00	0	43	0	412090368	55	4955
2026-01-28 08:47:34.07	81.37	26.24	-41.9	-44.5	18.4	0.00e+00	0	43	0	414187520	55	4815
2026-01-28 08:47:35.07	81.09	26.32	-42.0	-44.5	18.3	0.00e+00	0	43	0	416284672	55	4853
2026-01-28 08:47:36.06	80.82	26.39	-41.9	-44.4	18.5	0.00e+00	0	43	0	418381824	55	4775
2026-01-28 08:47:37.06	80.54	26.46	-41.9	-44.4	18.4	0.00e+00	0	43	0	420478976	55	4804
2026-01-28 08:47:38.06	80.26	26.53	-42.3	-44.9	18.0	0.00e+00	0	43	0	421527552	55	5067
2026-01-28 08:47:39.05	79.98	26.60	-42.3	-44.9	18.0	0.00e+00	0	43	0	423624704	55	5067
2026-01-28 08:47:40.04	79.70	26.67	-42.3	-45.0	17.9	0.00e+00	0	43	0	425721856	55	5116
2026-01-28 08:47:41.04	79.42	26.74	-41.9	-44.5	18.4	0.00e+00	0	43	0	427819008	55	4845
2026-01-28 08:47:42.03	79.14	26.81	-41.9	-44.4	18.5	0.00e+00	0	43	0	428867584	55	4783
2026-01-28 08:47:43.03	78.85	26.88	-41.8	-44.4	18.5	0.00e+00	0	43	0	430964736	55	4774
2026-01-28 08:47:44.03	78.57	26.95	-41.9	-44.4	18.5	0.00e+00	0	43	0	433061888	55	4785
2026-01-28 08:47:45.03	78.28	27.01	-42.0	-44.5	18.2	0.00e+00	0	43	0	435159040	55	4837
2026-01-28 08:47:46.03	77.99	27.08	-41.9	-44.5	18.4	0.00e+00	0	43	0	437256192	55	4823
2026-01-28 08:47:47.02	77.70	27.15	-41.8	-44.3	18.5	0.00e+00	0	43	0	438304768	55	4737
2026-01-28 08:47:48.02	77.41	27.21	-42.1	-44.7	18.2	0.00e+00	0	43	0	440401920	55	4968
2026-01-28 08:47:49.02	77.12	27.28	-42.5	-45.2	17.8	0.00e+00	0	43	0	442499072	55	5261
2026-01-28 08:47:50.01	76.83	27.34	-42.5	-45.3	17.7	0.00e+00	0	43	0	444596224	55	5282
2026-01-28 08:47:51.01	76.53	27.40	-42.2	-44.8	18.1	0.00e+00	0	43	0	445644800	55	5005
2026-01-28 08:47:52.01	76.24	27.46	-41.9	-44.4	18.4	0.00e+00	0	43	0	447741952	55	4808
2026-01-28 08:47:53.01	75.94	27.53	-41.9	-44.4	18.5	0.00e+00	0	43	0	449839104	55	4764
2026-01-28 08:47:54.00	75.64	27.59	-42.0	-44.5	18.4	0.00e+00	0	43	0	451936256	55	4837
2026-01-28 08:47:55.00	75.35	27.65	-42.0	-44.5	18.3	0.00e+00	0	43	0	454033408	55	4847
2026-01-28 08:47:56.00	75.04	27.71	-41.8	-44.2	18.6	0.00e+00	0	43	0	455081984	55	4682
2026-01-28 08:47:57.00	74.74	27.77	-42.0	-44.5	18.4	0.00e+00	0	43	0	457179136	55	4828
2026-01-28 08:47:57.99	74.44	27.82	-41.6	-44.0	18.9	0.00e+00	0	43	0	459276288	55	4562
2026-01-28 08:47:58.99	74.14	27.88	-41.8	-44.2	18.7	0.00e+00	0	43	0	461373440	55	4683
2026-01-28 08:47:59.98	73.84	27.94	-41.8	-44.3	18.6	0.00e+00	0	43	0	462422016	55	4716
2026-01-28 08:48:00.96	73.54	27.99	-41.9	-44.4	18.5	0.00e+00	0	43	0	464519168	55	4766
2026-01-28 08:48:01.96	73.23	28.05	-42.1	-44.7	18.2	0.00e+00	0	43	0	466616320	55	4962
2026-01-28 08:48:02.96	72.92	28.10	-42.4	-45.1	17.8	0.00e+00	0	43	0	468713472	55	5182
2026-01-28 08:48:03.95	72.61	28.16	-42.5	-45.2	17.7	0.00e+00	0	43	0	470810624	55	5256
2026-01-28 08:48:04.95	72.30	28.21	-42.1	-44.6	18.3	0.00e+00	0	43	0	471859200	55	4899
2026-01-28 08:48:05.95	71.99	28.26	-42.0	-44.5	18.4	0.00e+00	0	43	0	473956352	55	4817
2026-01-28 08:48:06.94	71.68	28.31	-41.9	-44.4	18.5	0.00e+00	0	43	0	476053504	55	4800
2026-01-28 08:48:07.94	71.37	28.36	-42.2	-44.7	18.2	0.00e+00	0	43	0	478150656	55	4973
2026-01-28 08:48:08.94	71.06	28.41	-42.0	-44.5	18.4	0.00e+00	0	43	0	480247808	55	4858
2026-01-28 08:48:09.94	70.74	28.46	-42.2	-44.7	18.2	0.00e+00	0	43	0	481296384	55	4971
2026-01-28 08:48:10.94	70.42	28.51	-42.2	-44.6	18.3	0.00e+00	0	43	0	483393536	55	4921
2026-01-28 08:48:11.93	70.11	28.55	-42.3	-44.8	18.1	0.00e+00	0	43	0	485490688	55	5022
2026-01-28 08:48:12.93	69.79	28.60	-42.9	-45.5	17.6	0.00e+00	0	43	0	487587840	56	5152
2026-01-28 08:48:13.93	69.47	28.64	-42.9	-45.5	17.6	0.00e+00	0	43	0	488636416	56	5142
2026-01-28 08:48:14.92	69.16	28.69	-43.2	-45.9	17.2	0.00e+00	0	43	0	490733568	56	5394
2026-01-28 08:48:15.92	68.84	28.73	-43.7	-46.8	16.4	0.00e+00	0	43	0	492830720	58	5307
2026-01-28 08:48:16.92	68.51	28.77	-43.9	-47.0	16.2	0.00e+00	0	43	0	494927872	58	5452
2026-01-28 08:48:17.91	68.20	28.81	-43.8	-46.9	16.3	0.00e+00	0	43	0	497025024	58	5373
2026-01-28 08:48:18.91	67.87	28.85	-43.9	-46.9	16.2	0.00e+00	0	43	0	498073600	58	5387
2026-01-28 08:48:19.90	67.55	28.89	-43.7	-46.7	16.4	0.00e+00	0	43	0	500170752	58	5269
2026-01-28 08:48:20.90	67.23	28.93	-43.8	-46.8	16.5	0.00e+00	0	43	0	502267904	58	5326
2026-01-28 08:48:21.89	66.90	28.97	-44.0	-47.1	16.0	0.00e+00	0	43	0	504365056	58	5526
2026-01-28 08:48:22.89	66.58	29.00	-44.0	-47.2	16.0	0.00e+00	0	43	0	506462208	58	5569
2026-01-28 08:48:23.89	66.25	29.04	-43.8	-47.0	16.2	0.00e+00	0	43	0	507510784	58	5417
2026-01-28 08:48:24.88	65.93	29.07	-43.9	-47.1	16.1	0.00e+00	0	43	0	509607936	58	5488
2026-01-28 08:48:25.88	65.60	29.11	-43.8	-46.9	16.3	0.00e+00	0	43	0	511705088	58	5345
2026-01-28 08:48:26.87	65.27	29.14	-43.4	-46.4	16.7	0.00e+00	0	43	0	513802240	58	5057
2026-01-28 08:48:27.87	64.94	29.17	-43.1	-45.9	17.2	0.00e+00	0	43	0	514850816	58	4803
2026-01-28 08:48:28.87	64.61	29.20	-42.9	-45.6	17.4	0.00e+00	0	43	0	516947968	57	4924
2026-01-28 08:48:29.87	64.28	29.23	-43.0	-45.8	17.3	0.00e+00	0	43	0	519045120	57	4989
2026-01-28 08:48:30.87	63.95	29.26	-43.5	-46.5	16.7	0.00e+00	0	43	0	521142272	57	5421
2026-01-28 08:48:31.86	63.62	29.28	-43.9	-47.1	16.1	0.00e+00	0	43	0	523239424	58	5516
2026-01-28 08:48:32.86	63.29	29.31	-44.0	-47.4	15.8	0.00e+00	0	43	0	524288000	58	5662
2026-01-28 08:48:33.85	62.96	29.33	-43.9	-47.2	15.9	0.00e+00	0	43	0	526385152	58	5584
2026-01-28 08:48:34.85	62.63	29.36	-43.5	-46.6	16.5	0.00e+00	0	43	0	528482304	58	5177
2026-01-28 08:48:35.84	62.29	29.38	-43.4	-46.4	16.7	0.00e+00	0	43	0	530579456	58	5058
2026-01-28 08:48:36.84	61.96	29.40	-43.3	-46.3	16.8	0.00e+00	0	43	0	531628032	58	5025
2026-01-28 08:48:37.84	61.63	29.42	-43.9	-47.3	15.8	0.00e+00	0	43	0	533725184	58	5598
2026-01-28 08:48:38.82	61.30	29.44	-44.3	-47.8	15.3	0.00e+00	0	43	0	535822336	59	5608
2026-01-28 08:48:39.82	60.96	29.46	-44.4	-48.0	15.2	0.00e+00	0	43	0	537919488	59	5724
2026-01-28 08:48:40.82	60.62	29.48	-44.4	-47.9	15.2	0.00e+00	0	43	0	540016640	59	5709
2026-01-28 08:48:41.82	60.29	29.50	-44.2	-47.6	15.5	0.00e+00	0	43	0	541065216	59	5494
2026-01-28 08:48:42.82	59.95	29.51	-43.8	-47.0	16.2	0.00e+00	0	43	0	543162368	59	5116
2026-01-28 08:48:43.81	59.62	29.52	-43.4	-46.4	16.7	0.00e+00	0	43	0	545259520	58	5086
2026-01-28 08:48:44.81	59.28	29.54	-42.7	-45.4	17.6	0.00e+00	0	43	0	547356672	57	4812
2026-01-28 08:48:45.81	58.94	29.55	-42.3	-44.8	18.2	0.00e+00	0	43	0	548405248	56	4754
2026-01-28 08:48:46.81	58.60	29.56	-42.3	-44.8	18.2	0.00e+00	0	43	0	550502400	56	4758
2026-01-28 08:48:47.81	58.27	29.57	-42.5	-45.2	17.8	0.00e+00	0	43	0	552599552	56	4957
2026-01-28 08:48:48.81	57.93	29.58	-43.0	-45.9	17.2	0.00e+00	0	43	0	554696704	56	5352
2026-01-28 08:48:49.80	57.59	29.59	-43.3	-46.2	16.9	0.00e+00	0	43	0	556793856	57	5256
2026-01-28 08:48:50.80	57.25	29.59	-43.5	-46.5	16.7	0.00e+00	0	43	0	557842432	57	5428
2026-01-28 08:48:51.80	56.92	29.60	-43.7	-46.8	16.4	0.00e+00	0	43	0	559939584	58	5287
2026-01-28 08:48:52.80	56.58	29.60	-44.0	-47.1	16.0	0.00e+00	0	43	0	562036736	58	5468
2026-01-28 08:48:53.79	56.24	29.61	-44.2	-47.4	15.9	0.00e+00	0	43	0	564133888	59	5359
2026-01-28 08:48:54.79	55.90	29.61	-43.9	-47.0	16.2	0.00e+00	0	43	0	566231040	59	5128
2026-01-28 08:48:55.78	55.57	29.61	-43.5	-46.5	16.8	0.00e+00	0	43	0	567279616	59	4821
2026-01-28 08:48:56.78	55.23	29.61	-43.3	-46.1	17.1	0.00e+00	0	43	0	569376768	58	4886
2026-01-28 08:48:57.78	54.89	29.61	-43.0	-45.7	17.4	0.00e+00	0	43	0	571473920	57	4965
2026-01-28 08:48:58.78	54.55	29.60	-42.9	-45.6	17.5	0.00e+00	0	43	0	573571072	57	4908
2026-01-28 08:48:59.78	54.21	29.60	-43.2	-46.0	17.2	0.00e+00	0	43	0	574619648	57	5106
2026-01-28 08:49:00.77	53.88	29.60	-43.7	-46.7	16.5	0.00e+00	0	43	0	576716800	58	5221
2026-01-28 08:49:01.77	53.54	29.59	-43.7	-46.7	16.5	0.00e+00	0	43	0	578813952	58	5266
2026-01-28 08:49:02.77	53.20	29.58	-43.7	-46.7	16.5	0.00e+00	0	43	0	580911104	58	5272
2026-01-28 08:49:03.77	52.86	29.58	-43.3	-46.2	17.0	0.00e+00	0	43	0	583008256	58	4939
2026-01-28 08:49:04.76	52.53	29.57	-43.5	-46.5	16.7	0.00e+00	0	43	0	584056832	58	5140
2026-01-28 08:49:05.77	52.19	29.56	-43.3	-46.1	17.1	0.00e+00	0	43	0	586153984	58	4923
2026-01-28 08:49:06.76	51.85	29.55	-43.0	-45.7	17.4	0.00e+00	0	43	0	588251136	58	4694
2026-01-28 08:49:07.76	51.51	29.53	-42.8	-45.5	17.7	0.00e+00	0	43	0	590348288	57	4847
2026-01-28 08:49:08.76	51.18	29.52	-43.0	-45.8	17.5	0.00e+00	0	43	0	591396864	57	4984
2026-01-28 08:49:09.76	50.84	29.50	-43.0	-45.8	17.3	0.00e+00	0	43	0	593494016	57	5040
2026-01-28 08:49:10.75	50.51	29.49	-43.4	-46.3	16.9	0.00e+00	0	43	0	595591168	57	5337
2026-01-28 08:49:11.75	50.17	29.47	-43.2	-46.1	17.1	0.00e+00	0	43	0	597688320	57	5186
2026-01-28 08:49:12.75	49.83	29.45	-43.4	-46.3	16.9	0.00e+00	0	43	0	599785472	57	5305
2026-01-28 08:49:13.74	49.50	29.44	-43.0	-45.9	17.3	0.00e+00	0	43	0	600834048	57	5051
2026-01-28 08:49:14.74	49.17	29.42	-42.8	-45.6	17.5	0.00e+00	0	43	0	602931200	57	4890
2026-01-28 08:49:15.74	48.83	29.39	-42.4	-45.0	18.1	0.00e+00	0	43	0	605028352	56	4863
2026-01-28 08:49:16.74	48.50	29.37	-42.3	-44.9	18.3	0.00e+00	0	43	0	607125504	56	4760
2026-01-28 08:49:17.74	48.17	29.35	-42.3	-44.9	18.2	0.00e+00	0	43	0	609222656	56	4803
2026-01-28 08:49:18.74	47.83	29.32	-42.3	-44.9	18.2	0.00e+00	0	43	0	610271232	56	4786
2026-01-28 08:49:19.73	47.50	29.30	-42.0	-44.5	18.5	0.00e+00	0	43	0	612368384	56	4560
2026-01-28 08:49:20.73	47.17	29.27	-42.1	-44.6	18.4	0.00e+00	0	43	0	614465536	56	4644
2026-01-28 08:49:21.73	46.84	29.24	-42.1	-44.6	18.5	0.00e+00	0	43	0	616562688	56	4624
2026-01-28 08:49:22.73	46.51	29.22	-41.7	-44.1	18.7	0.00e+00	0	43	0	618659840	55	4649
2026-01-28 08:49:23.72	46.18	29.19	-42.1	-44.6	18.3	0.00e+00	0	43	0	619708416	55	4895
2026-01-28 08:49:24.72	45.85	29.16	-42.3	-44.9	18.0	0.00e+00	0	43	0	621805568	55	5070
2026-01-28 08:49:25.72	45.52	29.12	-42.2	-44.8	18.1	0.00e+00	0	43	0	623902720	55	5008
2026-01-28 08:49:26.71	45.20	29.09	-42.2	-44.8	18.1	0.00e+00	0	43	0	625999872	55	5011
2026-01-28 08:49:27.71	44.87	29.06	-42.5	-45.1	17.8	0.00e+00	0	43	0	627048448	55	5212
2026-01-28 08:49:28.71	44.54	29.02	-42.5	-45.1	17.8	0.00e+00	0	43	0	629145600	55	5205
2026-01-28 08:49:29.70	44.22	28.99	-43.0	-45.8	17.4	0.00e+00	0	43	0	631242752	56	5290
2026-01-28 08:49:30.70	43.90	28.95	-43.2	-46.0	17.3	0.00e+00	0	43	0	633339904	57	5114
2026-01-28 08:49:31.70	43.57	28.91	-43.1	-45.9	17.3	0.00e+00	0	43	0	635437056	57	5075
2026-01-28 08:49:32.69	43.25	28.88	-43.1	-45.8	17.4	0.00e+00	0	43	0	636485632	57	5028
2026-01-28 08:49:33.69	42.93	28.84	-42.6	-45.2	17.9	0.00e+00	0	43	0	638582784	57	4666
2026-01-28 08:49:34.69	42.61	28.80	-42.3	-44.7	18.4	0.00e+00	0	43	0	640679936	56	4688
2026-01-28 08:49:35.68	42.29	28.76	-42.4	-44.9	18.2	0.00e+00	0	43	0	642777088	56	4813
2026-01-28 08:49:36.68	41.97	28.71	-42.6	-45.2	18.0	0.00e+00	0	43	0	643825664	56	4939
2026-01-28 08:49:37.68	41.65	28.67	-43.0	-45.6	17.6	0.00e+00	0	43	0	645922816	56	5214
2026-01-28 08:49:38.68	41.33	28.63	-43.3	-46.1	17.1	0.00e+00	0	43	0	648019968	57	5171
2026-01-28 08:49:39.67	41.01	28.58	-43.3	-46.0	17.2	0.00e+00	0	43	0	650117120	57	5147
2026-01-28 08:49:40.67	40.70	28.53	-43.1	-45.8	17.4	0.00e+00	0	43	0	652214272	57	5029
2026-01-28 08:49:41.66	40.38	28.49	-42.9	-45.5	17.7	0.00e+00	0	43	0	653262848	57	4840
2026-01-28 08:49:42.66	40.07	28.44	-43.1	-45.8	17.4	0.00e+00	0	43	0	655360000	57	5006
2026-01-28 08:49:43.66	39.75	28.39	-43.3	-46.1	17.1	0.00e+00	0	43	0	657457152	57	5198
2026-01-28 08:49:44.65	39.44	28.34	-43.2	-45.9	17.3	0.00e+00	0	43	0	659554304	57	5049
2026-01-28 08:49:45.65	39.13	28.29	-43.4	-46.2	17.1	0.00e+00	0	43	0	660602880	57	5261
2026-01-28 08:49:46.65	38.82	28.24	-43.6	-46.5	16.8	0.00e+00	0	43	0	662700032	58	5124
2026-01-28 08:49:47.64	38.51	28.19	-43.5	-46.4	16.8	0.00e+00	0	43	0	664797184	58	5056
2026-01-28 08:49:48.64	38.20	28.14	-43.5	-46.3	16.9	0.00e+00	0	43	0	666894336	58	5035
2026-01-28 08:49:49.64	37.90	28.08	-43.3	-46.1	17.1	0.00e+00	0	43	0	668991488	58	4914
2026-01-28 08:49:50.63	37.59	28.03	-43.4	-46.2	17.0	0.00e+00	0	43	0	670040064	58	4963
2026-01-28 08:49:51.63	37.29	27.97	-43.7	-46.7	16.5	0.00e+00	0	43	0	672137216	58	5240
2026-01-28 08:49:52.63	36.98	27.92	-44.1	-47.3	15.9	0.00e+00	0	43	0	674234368	58	5655
2026-01-28 08:49:53.63	36.68	27.86	-44.5	-47.9	15.3	0.00e+00	0	43	0	676331520	59	5697
2026-01-28 08:49:54.62	36.38	27.80	-44.5	-48.0	15.2	0.00e+00	0	43	0	677380096	59	5725
2026-01-28 08:49:55.61	36.08	27.75	-44.5	-47.9	15.3	0.00e+00	0	43	0	679477248	59	5701
2026-01-28 08:49:56.61	35.78	27.69	-44.7	-48.3	15.0	0.00e+00	0	43	0	681574400	60	5614
2026-01-28 08:49:57.61	35.48	27.63	-45.0	-48.7	14.6	1.50e-06	0	43	0	683671552	60	5892
2026-01-28 08:49:58.60	35.18	27.57	-45.2	-49.1	14.2	0.00e+00	0	43	0	685768704	61	5794
2026-01-28 08:49:59.61	34.88	27.50	-45.0	-48.8	14.4	7.00e-07	0	43	0	686817280	61	5636
2026-01-28 08:50:00.59	34.59	27.44	-44.8	-48.5	14.8	7.00e-07	0	43	0	688914432	61	5437
2026-01-28 08:50:01.59	34.30	27.38	-44.8	-48.6	14.7	0.00e+00	0	43	0	691011584	61	5491
2026-01-28 08:50:02.59	34.01	27.32	-44.7	-48.5	14.7	7.00e-07	0	43	0	693108736	61	5432
2026-01-28 08:50:03.58	33.72	27.25	-44.4	-47.9	15.4	0.00e+00	0	43	0	695205888	60	5380
2026-01-28 08:50:04.58	33.42	27.19	-44.0	-47.3	15.9	0.00e+00	0	43	0	696254464	60	5004
2026-01-28 08:50:05.58	33.13	27.12	-43.3	-46.3	16.9	0.00e+00	0	43	0	698351616	58	4998
2026-01-28 08:50:06.57	32.85	27.06	-43.1	-46.0	17.2	0.00e+00	0	43	0	700448768	58	4856
2026-01-28 08:50:07.57	32.56	26.99	-42.9	-45.8	17.4	0.00e+00	0	43	0	702545920	57	4998
2026-01-28 08:50:08.57	32.27	26.92	-42.2	-44.8	18.2	0.00e+00	0	43	0	704643072	56	4738
2026-01-28 08:50:09.57	31.99	26.86	-42.1	-44.6	18.5	0.00e+00	0	43	0	705691648	56	4628
2026-01-28 08:50:10.56	31.71	26.79	-41.8	-44.3	18.7	0.00e+00	0	43	0	707788800	55	4710
2026-01-28 08:50:11.56	31.43	26.72	-42.0	-44.5	18.5	0.00e+00	0	43	0	709885952	55	4832
2026-01-28 08:50:12.56	31.14	26.65	-42.2	-44.8	18.2	0.00e+00	0	43	0	711983104	55	4991
2026-01-28 08:50:13.56	30.86	26.58	-42.3	-44.9	18.0	0.00e+00	0	43	0	713031680	55	5070
2026-01-28 08:50:14.56	30.59	26.51	-42.2	-44.7	18.2	0.00e+00	0	43	0	715128832	55	4979
2026-01-28 08:50:15.55	30.31	26.44	-42.0	-44.5	18.3	0.00e+00	0	43	0	717225984	55	4867
2026-01-28 08:50:16.55	30.03	26.37	-41.9	-44.5	18.4	0.00e+00	0	43	0	719323136	55	4848
2026-01-28 08:50:17.55	29.76	26.29	-42.4	-45.2	17.8	0.00e+00	0	43	0	721420288	55	5235
2026-01-28 08:50:18.54	29.49	26.22	-43.1	-46.0	17.2	0.00e+00	0	43	0	722468864	56	5407
2026-01-28 08:50:19.54	29.21	26.15	-43.2	-46.1	17.0	0.00e+00	0	43	0	724566016	57	5189
2026-01-28 08:50:20.53	28.95	26.07	-43.1	-45.9	17.2	0.00e+00	0	43	0	726663168	57	5083
2026-01-28 08:50:21.53	28.68	26.00	-42.9	-45.6	17.5	0.00e+00	0	43	0	728760320	57	4924
2026-01-28 08:50:22.53	28.41	25.92	-43.2	-46.1	17.0	0.00e+00	0	43	0	729808896	57	5194
2026-01-28 08:50:23.52	28.14	25.85	-43.4	-46.4	16.9	0.00e+00	0	43	0	731906048	57	5349
2026-01-28 08:50:24.52	27.88	25.77	-43.7	-46.9	16.3	0.00e+00	0	43	0	734003200	58	5354
2026-01-28 08:50:25.52	27.61	25.70	-44.0	-47.3	15.9	0.00e+00	0	43	0	736100352	58	5639
2026-01-28 08:50:26.51	27.35	25.62	-44.3	-47.7	15.6	0.00e+00	0	43	0	738197504	59	5541
2026-01-28 08:50:27.50	27.09	25.54	-44.0	-47.2	16.0	0.00e+00	0	43	0	739246080	59	5249
2026-01-28 08:50:28.50	26.83	25.47	-43.7	-46.7	16.5	0.00e+00	0	43	0	741343232	59	4979
2026-01-28 08:50:29.50	26.57	25.39	-43.4	-46.3	16.9	0.00e+00	0	43	0	743440384	58	5020
2026-01-28 08:50:30.49	26.31	25.31	-42.9	-45.6	17.5	0.00e+00	0	43	0	745537536	57	4917
2026-01-28 08:50:31.49	26.06	25.23	-42.4	-45.0	18.0	0.00e+00	0	43	0	746586112	57	4567
2026-01-28 08:50:32.49	25.80	25.15	-41.8	-44.2	18.7	0.00e+00	0	43	0	748683264	55	4692
2026-01-28 08:50:33.49	25.55	25.07	-41.7	-44.1	18.8	0.00e+00	0	43	0	750780416	55	4627
2026-01-28 08:50:34.49	25.29	24.99	-41.8	-44.2	18.7	0.00e+00	0	43	0	752877568	55	4695
2026-01-28 08:50:35.49	25.04	24.91	-41.8	-44.3	18.6	0.00e+00	0	43	0	754974720	55	4733
2026-01-28 08:50:36.49	24.79	24.83	-41.7	-44.1	18.8	0.00e+00	0	43	0	756023296	55	4612
2026-01-28 08:50:37.49	24.54	24.75	-41.6	-44.0	18.9	0.00e+00	0	43	0	758120448	55	4557
2026-01-28 08:50:38.48	24.30	24.67	-41.4	-43.8	19.0	0.00e+00	0	43	0	760217600	54	4743
2026-01-28 08:50:39.48	24.05	24.59	-41.3	-43.7	19.1	0.00e+00	0	43	0	762314752	54	4673
2026-01-28 08:50:40.48	23.80	24.50	-41.2	-43.6	19.2	0.00e+00	0	43	0	764411904	54	4646
2026-01-28 08:50:41.48	23.56	24.42	-41.3	-43.8	19.1	0.00e+00	0	43	0	765460480	54	4708
2026-01-28 08:50:42.47	23.32	24.34	-41.2	-43.7	19.1	0.00e+00	0	43	0	767557632	54	4666
2026-01-28 08:50:43.47	23.08	24.26	-41.1	-43.6	19.3	0.00e+00	0	43	0	769654784	54	4602
2026-01-28 08:50:44.47	22.84	24.17	-40.9	-43.3	19.5	0.00e+00	0	43	0	771751936	53	4706
2026-01-28 08:50:45.46	22.60	24.09	-40.9	-43.3	19.5	0.00e+00	0	43	0	772800512	53	4734
2026-01-28 08:50:46.45	22.37	24.01	-40.6	-42.9	19.8	0.00e+00	0	43	0	774897664	53	4520
2026-01-28 08:50:47.45	22.13	23.92	-40.7	-43.0	19.7	0.00e+00	0	43	0	776994816	53	4562
2026-01-28 08:50:48.45	21.89	23.84	-40.8	-43.1	19.7	0.00e+00	0	43	0	779091968	53	4610
2026-01-28 08:50:49.44	21.66	23.75	-41.0	-43.3	19.4	0.00e+00	0	43	0	781189120	53	4738
2026-01-28 08:50:50.44	21.43	23.67	-41.3	-43.7	19.1	0.00e+00	0	43	0	782237696	53	4963
2026-01-28 08:50:51.43	21.20	23.59	-41.5	-44.0	18.9	0.00e+00	0	43	0	784334848	53	5119
2026-01-28 08:50:52.43	20.97	23.50	-41.7	-44.2	18.7	0.00e+00	0	43	0	786432000	54	4949
2026-01-28 08:50:53.43	20.74	23.41	-41.7	-44.2	18.6	0.00e+00	0	43	0	788529152	54	4972
2026-01-28 08:50:54.43	20.51	23.33	-41.8	-44.4	18.6	0.00e+00	0	43	0	790626304	54	5052
2026-01-28 08:50:55.43	20.29	23.24	-41.8	-44.4	18.6	0.00e+00	0	43	0	791674880	54	5057
2026-01-28 08:50:56.42	20.07	23.16	-41.7	-44.2	18.7	0.00e+00	0	43	0	793772032	54	4957
2026-01-28 08:50:57.42	19.84	23.07	-41.7	-44.2	18.7	0.00e+00	0	43	0	795869184	54	4953
2026-01-28 08:50:58.42	19.62	22.98	-41.6	-44.1	18.8	0.00e+00	0	43	0	797966336	54	4901
2026-01-28 08:50:59.42	19.40	22.90	-41.6	-44.0	18.9	0.00e+00	0	43	0	799014912	54	4865
2026-01-28 08:51:00.41	19.18	22.81	-41.5	-43.9	19.0	0.00e+00	0	43	0	801112064	54	4813
2026-01-28 08:51:01.41	18.96	22.72	-41.3	-43.7	19.2	0.00e+00	0	43	0	803209216	54	4677
2026-01-28 08:51:02.40	18.75	22.64	-41.1	-43.5	19.4	0.00e+00	0	43	0	805306368	54	4549
2026-01-28 08:51:03.40	18.53	22.55	-40.9	-43.2	19.6	0.00e+00	0	43	0	807403520	53	4677
2026-01-28 08:51:04.39	18.32	22.46	-40.5	-42.8	20.0	0.00e+00	0	43	0	808452096	53	4480
2026-01-28 08:51:05.39	18.10	22.38	-40.3	-42.5	20.2	0.00e+00	0	43	0	810549248	52	4595
2026-01-28 08:51:06.38	17.89	22.29	-40.1	-42.2	20.5	0.00e+00	0	43	0	812646400	52	4421
2026-01-28 08:51:07.38	17.68	22.20	-40.2	-42.4	20.4	0.00e+00	0	43	0	814743552	52	4506
2026-01-28 08:51:08.38	17.47	22.11	-40.3	-42.5	20.2	0.00e+00	0	43	0	815792128	52	4576
2026-01-28 08:51:09.37	17.26	22.03	-40.7	-42.9	20.0	0.00e+00	0	43	0	817889280	52	4779
2026-01-28 08:51:10.37	17.06	21.94	-40.8	-43.1	19.8	0.00e+00	0	43	0	819986432	52	4880
2026-01-28 08:51:11.37	16.85	21.85	-41.1	-43.4	19.5	0.00e+00	0	43	0	822083584	52	5077
2026-01-28 08:51:12.37	16.64	21.76	-41.3	-43.7	19.2	0.00e+00	0	43	0	824180736	53	4967
2026-01-28 08:51:13.37	16.44	21.67	-41.3	-43.7	19.2	0.00e+00	0	43	0	825229312	53	4945
2026-01-28 08:51:14.37	16.24	21.59	-41.1	-43.5	19.4	0.00e+00	0	43	0	827326464	53	4848
2026-01-28 08:51:15.36	16.04	21.50	-41.1	-43.6	19.3	0.00e+00	0	43	0	829423616	53	4873
2026-01-28 08:51:16.36	15.84	21.41	-41.1	-43.5	19.4	0.00e+00	0	43	0	831520768	53	4837
2026-01-28 08:51:17.35	15.64	21.32	-41.0	-43.4	19.4	0.00e+00	0	43	0	832569344	53	4788
2026-01-28 08:51:18.35	15.44	21.23	-41.1	-43.6	19.2	0.00e+00	0	43	0	834666496	53	4899
2026-01-28 08:51:19.34	15.25	21.14	-41.3	-43.7	19.1	0.00e+00	0	43	0	836763648	53	4982
2026-01-28 08:51:20.34	15.05	21.06	-41.2	-43.7	19.2	0.00e+00	0	43	0	838860800	53	4943
2026-01-28 08:51:21.33	14.86	20.97	-41.2	-43.7	19.2	0.00e+00	0	43	0	840957952	53	4929
2026-01-28 08:51:22.33	14.66	20.88	-41.4	-43.9	19.0	0.00e+00	0	43	0	842006528	53	5044
2026-01-28 08:51:23.32	14.47	20.79	-41.2	-43.7	19.1	0.00e+00	0	43	0	844103680	53	4961
2026-01-28 08:51:24.32	14.28	20.70	-41.2	-43.6	19.3	0.00e+00	0	43	0	846200832	53	4895
2026-01-28 08:51:25.32	14.09	20.61	-41.3	-43.7	19.2	0.00e+00	0	43	0	848297984	53	4928
2026-01-28 08:51:26.31	13.90	20.52	-41.4	-43.7	19.2	0.00e+00	0	43	0	849346560	53	4950
2026-01-28 08:51:27.31	13.71	20.44	-41.4	-43.7	19.3	0.00e+00	0	43	0	851443712	53	4932
2026-01-28 08:51:28.31	13.53	20.35	-41.1	-43.4	19.5	0.00e+00	0	43	0	853540864	53	4766
2026-01-28 08:51:29.31	13.34	20.26	-41.0	-43.2	19.6	0.00e+00	0	43	0	855638016	53	4685
2026-01-28 08:51:30.30	13.16	20.17	-40.6	-42.8	20.0	0.00e+00	0	43	0	857735168	53	4460
2026-01-28 08:51:31.30	12.97	20.08	-40.6	-42.8	20.0	0.00e+00	0	44	0	858783744	52	4709
2026-01-28 08:51:32.30	12.79	19.99	-40.7	-42.9	19.9	0.00e+00	0	43	0	860880896	52	4811
2026-01-28 08:51:33.30	12.61	19.90	-40.9	-43.3	19.6	0.00e+00	0	43	0	862978048	52	5001
2026-01-28 08:51:34.30	12.43	19.81	-41.2	-43.7	19.3	0.00e+00	0	43	0	865075200	53	4927
2026-01-28 08:51:35.30	12.25	19.72	-41.5	-44.0	18.9	0.00e+00	0	43	0	867172352	53	5145
2026-01-28 08:51:36.30	12.07	19.64	-41.9	-44.5	18.5	0.00e+00	0	43	0	868220928	54	5121
2026-01-28 08:51:37.30	11.89	19.55	-42.0	-44.6	18.4	0.00e+00	0	43	0	870318080	54	5197
2026-01-28 08:51:38.30	11.72	19.46	-42.0	-44.7	18.3	0.00e+00	0	43	0	872415232	54	5230
2026-01-28 08:51:39.30	11.54	19.37	-42.0	-44.6	18.4	0.00e+00	0	43	0	874512384	55	4872
2026-01-28 08:51:40.30	11.37	19.28	-41.9	-44.4	18.5	0.00e+00	0	43	0	875560960	55	4796
2026-01-28 08:51:41.29	11.20	19.19	-41.3	-43.7	19.2	0.00e+00	0	43	0	877658112	54	4669
2026-01-28 08:51:42.29	11.02	19.10	-41.3	-43.7	19.2	0.00e+00	0	43	0	879755264	54	4678
2026-01-28 08:51:43.29	10.85	19.01	-41.2	-43.6	19.3	0.00e+00	0	43	0	881852416	54	4629
2026-01-28 08:51:44.28	10.68	18.93	-40.9	-43.2	19.6	0.00e+00	0	43	0	883949568	53	4701
2026-01-28 08:51:45.28	10.52	18.84	-40.8	-43.2	19.7	0.00e+00	0	43	0	884998144	53	4652
2026-01-28 08:51:46.28	10.35	18.75	-40.9	-43.2	19.6	0.00e+00	0	43	0	887095296	53	4683
2026-01-28 08:51:47.28	10.18	18.66	-41.1	-43.5	19.4	0.00e+00	0	43	0	889192448	53	4832
2026-01-28 08:51:48.28	10.01	18.57	-41.3	-43.7	19.2	0.00e+00	0	43	0	891289600	53	4934
2026-01-28 08:51:49.28	9.85	18.48	-41.7	-44.2	18.8	0.00e+00	0	43	0	893386752	53	5241
2026-01-28 08:51:50.27	9.69	18.40	-41.8	-44.4	18.6	0.00e+00	0	43	0	894435328	54	5049
2026-01-28 08:51:51.27	9.52	18.31	-42.1	-44.8	18.2	0.00e+00	0	43	0	896532480	54	5309
2026-01-28 08:51:52.27	9.36	18.22	-42.4	-45.2	17.8	0.00e+00	0	43	0	898629632	55	5224
2026-01-28 08:51:53.27	9.20	18.13	-42.9	-45.8	17.4	0.00e+00	0	43	0	900726784	56	5334
2026-01-28 08:51:54.27	9.04	18.04	-42.8	-45.7	17.5	0.00e+00	0	43	0	901775360	56	5272
2026-01-28 08:51:55.26	8.88	17.96	-42.8	-45.9	17.3	0.00e+00	0	43	0	903872512	56	5365
2026-01-28 08:51:56.27	8.72	17.87	-42.7	-45.8	17.4	0.00e+00	0	43	0	905969664	56	5321
2026-01-28 08:51:57.27	8.56	17.78	-42.4	-45.3	17.8	0.00e+00	0	43	0	908066816	56	5035
2026-01-28 08:51:58.27	8.41	17.69	-42.4	-45.3	17.9	0.00e+00	0	43	0	910163968	56	5006
2026-01-28 08:51:59.27	8.25	17.61	-42.3	-45.1	18.0	0.00e+00	0	43	0	911212544	56	4925
2026-01-28 08:52:00.27	8.10	17.52	-42.3	-45.1	18.1	0.00e+00	0	43	0	913309696	56	4881
2026-01-28 08:52:01.27	7.94	17.43	-42.4	-45.0	18.2	0.00e+00	0	43	0	915406848	56	4847
2026-01-28 08:52:02.26	7.79	17.35	-42.7	-45.4	17.7	0.00e+00	0	43	0	917504000	56	5093
2026-01-28 08:52:03.26	7.64	17.26	-42.7	-45.4	17.7	0.00e+00	0	43	0	919601152	56	5093
2026-01-28 08:52:04.27	7.49	17.17	-42.9	-45.7	17.5	0.00e+00	0	43	0	920649728	56	5261
2026-01-28 08:52:05.27	7.34	17.08	-43.2	-46.2	17.0	0.00e+00	0	43	0	922746880	57	5238
2026-01-28 08:52:06.27	7.19	17.00	-43.1	-46.0	17.1	0.00e+00	0	43	0	924844032	57	5153
2026-01-28 08:52:07.27	7.04	16.91	-42.9	-45.9	17.3	0.00e+00	0	43	0	926941184	57	5049
2026-01-28 08:52:08.27	6.89	16.82	-42.6	-45.4	17.7	0.00e+00	0	43	0	927989760	57	4796
2026-01-28 08:52:09.27	6.74	16.74	-42.6	-45.5	17.6	0.00e+00	0	43	0	930086912	57	4847
2026-01-28 08:52:10.27	6.60	16.65	-42.2	-44.9	18.2	0.00e+00	0	43	0	932184064	56	4779
2026-01-28 08:52:11.26	6.45	16.56	-42.2	-44.9	18.2	0.00e+00	0	43	0	934281216	56	4763
2026-01-28 08:52:12.26	6.31	16.48	-41.8	-44.4	18.5	0.00e+00	0	43	0	936378368	55	4796
2026-01-28 08:52:13.26	6.17	16.39	-41.7	-44.3	18.6	0.00e+00	0	43	0	937426944	55	4727
2026-01-28 08:52:14.26	6.02	16.31	-41.5	-44.0	18.9	0.00e+00	0	43	0	939524096	54	4848
2026-01-28 08:52:15.26	5.88	16.22	-41.5	-44.0	18.9	0.00e+00	0	43	0	941621248	54	4847
2026-01-28 08:52:16.26	5.74	16.14	-41.7	-44.3	18.6	0.00e+00	0	43	0	943718400	54	5003
2026-01-28 08:52:17.26	5.60	16.05	-41.5	-44.1	18.8	0.00e+00	0	43	0	945815552	54	4907
2026-01-28 08:52:18.26	5.46	15.96	-41.7	-44.3	18.6	0.00e+00	0	43	0	946864128	54	4998
2026-01-28 08:52:19.26	5.32	15.88	-41.6	-44.1	18.7	0.00e+00	0	43	0	948961280	54	4919
2026-01-28 08:52:20.26	5.18	15.79	-42.0	-44.6	18.3	0.00e+00	0	43	0	951058432	54	5184
2026-01-28 08:52:21.26	5.05	15.71	-42.1	-44.7	18.2	0.00e+00	0	43	0	953155584	54	5266
2026-01-28 08:52:22.25	4.91	15.62	-42.2	-44.9	18.0	0.00e+00	0	43	0	954204160	55	5057
2026-01-28 08:52:23.25	4.78	15.54	-42.3	-45.0	17.9	0.00e+00	0	43	0	956301312	55	5133
2026-01-28 08:52:24.25	4.64	15.46	-42.1	-44.8	18.1	0.00e+00	0	43	0	958398464	55	5018
2026-01-28 08:52:25.25	4.51	15.37	-42.3	-45.1	17.8	0.00e+00	0	43	0	960495616	55	5193
2026-01-28 08:52:26.24	4.38	15.29	-41.9	-44.5	18.4	0.00e+00	0	43	0	962592768	55	4862
2026-01-28 08:52:27.24	4.25	15.20	-41.9	-44.6	18.3	0.00e+00	0	43	0	963641344	55	4907
2026-01-28 08:52:28.24	4.11	15.12	-41.9	-44.6	18.3	0.00e+00	0	43	0	965738496	55	4902
2026-01-28 08:52:29.24	3.98	15.03	-41.8	-44.4	18.5	0.00e+00	0	43	0	967835648	55	4768
2026-01-28 08:52:30.24	3.85	14.95	-41.9	-44.5	18.4	0.00e+00	0	43	0	969932800	55	4847
2026-01-28 08:52:31.24	3.72	14.87	-42.1	-44.8	18.1	0.00e+00	0	43	0	972029952	55	4985
2026-01-28 08:52:32.24	3.60	14.78	-42.4	-45.2	17.7	0.00e+00	0	43	0	973078528	55	5254
2026-01-28 08:52:33.23	3.47	14.70	-42.4	-45.2	17.7	0.00e+00	0	43	0	975175680	55	5273
2026-01-28 08:52:34.23	3.34	14.62	-43.0	-46.1	17.0	0.00e+00	0	43	0	977272832	56	5505
2026-01-28 08:52:35.23	3.22	14.53	-43.3	-46.6	16.6	0.00e+00	0	43	0	979369984	57	5465
2026-01-28 08:52:36.23	3.09	14.45	-43.3	-46.8	16.4	0.00e+00	0	43	0	981467136	57	5625
2026-01-28 08:52:37.23	2.97	14.37	-43.7	-47.4	15.8	0.00e+00	0	43	0	982515712	57	6044
2026-01-28 08:52:38.23	2.84	14.29	-43.8	-47.6	15.6	0.00e+00	0	43	0	984612864	58	5830
2026-01-28 08:52:39.23	2.72	14.20	-43.8	-47.5	15.7	0.00e+00	0	43	0	986710016	58	5773
2026-01-28 08:52:40.23	2.60	14.12	-43.4	-46.6	16.5	0.00e+00	0	43	0	988807168	58	5193
2026-01-28 08:52:41.23	2.47	14.04	-43.2	-46.2	16.9	0.00e+00	0	43	0	989855744	58	4967
2026-01-28 08:52:42.23	2.35	13.96	-42.8	-45.6	17.5	0.00e+00	0	43	0	991952896	57	4871
2026-01-28 08:52:43.23	2.23	13.87	-42.6	-45.2	17.7	0.00e+00	0	43	0	994050048	57	4682
2026-01-28 08:52:44.22	2.11	13.79	-42.3	-44.8	18.2	0.00e+00	0	43	0	996147200	56	4720
2026-01-28 08:52:45.23	1.99	13.71	-42.0	-44.5	18.5	0.00e+00	0	43	0	998244352	56	4570
2026-01-28 08:52:46.22	1.88	13.63	-41.8	-44.3	18.6	0.00e+00	0	43	0	999292928	55	4726
2026-01-28 08:52:47.23	1.76	13.55	-41.7	-44.2	18.2	0.00e+00	0	43	0	1001390080	55	4654
2026-01-28 08:52:48.23	1.64	13.47	-41.9	-44.5	18.4	0.00e+00	0	43	0	1003487232	55	4852
2026-01-28 08:52:49.22	1.52	13.39	-42.0	-44.7	18.2	0.00e+00	0	43	0	1005584384	55	4930
2026-01-28 08:52:50.22	1.41	13.31	-42.3	-45.1	17.9	0.00e+00	0	43	0	1006632960	55	5160
2026-01-28 08:52:51.22	1.29	13.23	-42.6	-45.5	17.4	0.00e+00	0	43	0	1008730112	55	5436
2026-01-28 08:52:52.22	1.18	13.14	-43.0	-46.0	17.1	0.00e+00	0	43	0	1010827264	56	5431
2026-01-28 08:52:53.22	1.06	13.06	-43.5	-46.7	16.5	0.00e+00	0	43	0	1012924416	57	5533
2026-01-28 08:52:54.22	0.95	12.98	-43.7	-46.9	16.2	0.00e+00	0	43	0	1015021568	58	5398
2026-01-28 08:52:55.21	0.84	12.90	-44.0	-47.3	15.8	0.00e+00	0	43	0	1016070144	58	5638
2026-01-28 08:52:56.21	0.73	12.82	-44.1	-47.5	15.6	0.00e+00	0	44	0	1018167296	59	5404
2026-01-28 08:52:57.21	0.62	12.74	-44.2	-47.8	15.3	0.00e+00	0	43	0	1020264448	59	5624
2026-01-28 08:52:58.21	0.51	12.66	-44.2	-47.9	15.2	0.00e+00	0	43	0	1022361600	59	5660
2026-01-28 08:52:59.21	0.40	12.59	-44.1	-47.9	15.3	0.00e+00	0	43	0	1024458752	59	5659
2026-01-28 08:53:00.21	0.29	12.51	-44.0	-47.9	15.3	0.00e+00	0	44	0	1025507328	59	5682
2026-01-28 08:53:01.21	0.18	12.43	-44.0	-48.0	15.2	0.00e+00	0	44	0	1027604480	59	5728
2026-01-28 08:53:02.21	0.07	12.35	-43.9	-47.8	15.4	0.00e+00	0	43	0	1029701632	59	5600
2026-01-28 08:53:03.22	359.96	12.27	-43.9	-47.8	15.4	0.00e+00	0	43	0	1031798784	59	5604
2026-01-28 08:53:04.21	359.85	12.19	-44.1	-47.9	15.3	0.00e+00	0	43	0	1033895936	59	5665
2026-01-28 08:53:05.22	359.75	12.11	-44.0	-47.5	15.6	0.00e+00	0	43	0	1034944512	59	5443
2026-01-28 08:53:06.22	359.64	12.03	-44.1	-47.5	15.7	0.00e+00	0	43	0	1037041664	59	5435
2026-01-28 08:53:07.22	359.53	11.95	-44.0	-47.4	15.7	0.00e+00	0	44	0	1039138816	59	5379
2026-01-28 08:53:08.22	359.43	11.88	-44.0	-47.4	15.7	0.00e+00	0	43	0	1041235968	59	5341
2026-01-28 08:53:09.22	359.33	11.80	-43.9	-47.3	15.8	0.00e+00	0	43	0	1043333120	59	5294
2026-01-28 08:53:10.22	359.22	11.72	-44.0	-47.3	15.8	0.00e+00	0	43	0	1044381696	59	5325
2026-01-28 08:53:11.22	359.12	11.64	-44.1	-47.5	15.6	0.00e+00	0	43	0	1046478848	59	5423
2026-01-28 08:53:12.22	359.02	11.56	-43.9	-47.3	15.8	0.00e+00	0	43	0	1048576000	59	5315
2026-01-28 08:53:13.22	358.91	11.49	-44.0	-47.5	15.5	0.00e+00	0	43	0	1050673152	59	5448
2026-01-28 08:53:14.22	358.81	11.41	-43.8	-47.4	15.7	0.00e+00	0	43	0	1051721728	59	5391
2026-01-28 08:53:15.22	358.71	11.33	-43.9	-47.6	15.4	0.00e+00	0	43	0	1053818880	59	5527
2026-01-28 08:53:16.22	358.61	11.26	-43.8	-47.6	15.4	0.00e+00	0	43	0	1055916032	59	5523
2026-01-28 08:53:17.22	358.51	11.18	-43.8	-47.7	15.3	0.00e+00	0	43	0	1058013184	59	5584
2026-01-28 08:53:18.22	358.41	11.10	-43.8	-47.8	15.3	0.00e+00	0	43	0	1060110336	59	5614
2026-01-28 08:53:19.22	358.31	11.03	-43.7	-47.7	15.4	0.00e+00	0	43	0	1061158912	59	5540
2026-01-28 08:53:20.22	358.22	10.95	-43.7	-47.6	15.4	0.00e+00	0	43	0	1063256064	59	5525
2026-01-28 08:53:21.22	358.12	10.87	-43.6	-47.4	15.6	0.00e+00	0	44	0	1065353216	59	5348
2026-01-28 08:53:22.21	358.02	10.80	-43.5	-47.1	15.9	0.00e+00	0	43	0	1067450368	58	5519
2026-01-28 08:53:23.21	357.92	10.72	-43.4	-46.8	16.2	0.00e+00	0	43	0	1068498944	58	5303
2026-01-28 08:53:24.22	357.83	10.65	-43.3	-46.7	16.4	0.00e+00	0	43	0	1070596096	58	5235
2026-01-28 08:53:25.21	357.73	10.57	-43.1	-46.3	16.7	0.00e+00	0	43	0	1072693248	58	4988
2026-01-28 08:53:26.21	357.64	10.50	-43.1	-46.1	16.8	0.00e+00	0	43	0	1074790400	58	4922
2026-01-28 08:53:27.21	357.54	10.42	-42.9	-45.9	17.1	0.00e+00	0	43	0	1076887552	57	5054
2026-01-28 08:53:28.21	357.45	10.35	-43.1	-46.1	16.9	0.00e+00	0	43	0	1077936128	57	5163
2026-01-28 08:53:29.20	357.36	10.27	-43.0	-46.0	17.0	0.00e+00	0	43	0	1080033280	57	5123
2026-01-28 08:53:30.20	357.26	10.20	-43.0	-46.0	16.9	0.00e+00	0	43	0	1082130432	57	5153
2026-01-28 08:53:31.20	357.17	10.12	-43.1	-46.2	16.8	0.00e+00	0	43	0	1084227584	57	5249
2026-01-28 08:53:32.20	357.08	10.05	-43.1	-46.4	16.6	0.00e+00	0	43	0	1086324736	57	5344
2026-01-28 08:53:33.20	356.99	9.97	-43.4	-46.7	16.3	0.00e+00	0	43	0	1087373312	57	5536
2026-01-28 08:53:34.20	356.90	9.90	-43.4	-46.8	16.2	0.00e+00	0	43	0	1089470464	57	5601
2026-01-28 08:53:35.20	356.81	9.82	-43.7	-47.3	15.7	0.00e+00	0	43	0	1091567616	58	5602
2026-01-28 08:53:36.20	356.72	9.75	-43.7	-47.6	15.4	0.00e+00	0	43	0	1093664768	58	5823
2026-01-28 08:53:37.20	356.63	9.68	-43.6	-47.7	15.3	0.00e+00	0	43	0	1095761920	58	5882
2026-01-28 08:53:38.19	356.54	9.60	-43.5	-47.8	15.3	0.00e+00	0	43	0	1096810496	58	5947
2026-01-28 08:53:39.19	356.45	9.53	-43.4	-48.3	14.8	7.00e-07	0	43	0	1098907648	58	6282
2026-01-28 08:53:40.19	356.36	9.46	-43.1	-48.4	14.6	7.00e-07	0	43	0	1101004800	58	6388
2026-01-28 08:53:41.19	356.27	9.38	-42.9	-48.6	14.4	7.00e-07	0	43	0	1103101952	57	6903
2026-01-28 08:53:42.19	356.19	9.31	-42.6	-48.6	14.4	0.00e+00	0	43	0	1104150528	57	6896
2026-01-28 08:53:43.18	356.10	9.24	-42.6	-48.9	14.1	1.50e-06	0	43	0	1106247680	56	7573
2026-01-28 08:53:44.18	356.01	9.17	-42.5	-48.7	14.3	3.00e-06	0	43	0	1108344832	56	7397
2026-01-28 08:53:45.18	355.93	9.09	-42.7	-49.0	14.1	7.00e-07	0	44	0	1110441984	56	7639
2026-01-28 08:53:46.18	355.84	9.02	-42.9	-49.0	13.9	2.20e-06	0	44	0	1112539136	56	7716
2026-01-28 08:53:47.18	355.76	8.95	-46.4	-63.6	3.8	4.84e-01	0	43	104	1113587712	64	26018
2026-01-28 08:53:48.18	355.67	8.88	-48.4	-64.5	3.9	1.49e+00	0	43	104	1113587712	67	24265
2026-01-28 08:53:49.17	355.59	8.81	-48.7	-64.7	3.8	1.49e+00	0	43	104	1113587712	68	23505
2026-01-28 08:53:50.18	355.50	8.73	-48.2	-64.8	3.8	1.49e+00	0	43	104	1113587712	68	23758
2026-01-28 08:53:51.18	355.42	8.66	-49.6	-64.8	3.8	1.49e+00	0	43	104	1113587712	69	22503
2026-01-28 08:53:52.18	355.34	8.59	-47.6	-64.8	3.8	1.49e+00	0	43	104	1113587712	67	24985
2026-01-28 08:53:53.18	355.25	8.52	-49.4	-65.0	3.8	1.49e+00	0	43	104	1113587712	69	22817
2026-01-28 08:53:54.18	355.17	8.45	-49.5	-65.0	3.8	1.49e+00	0	43	104	1113587712	69	22818
2026-01-28 08:53:55.18	355.09	8.38	-49.5	-64.9	3.8	1.49e+00	0	43	104	1113587712	69	22695
2026-01-28 08:53:56.17	355.01	8.31	-48.5	-65.0	3.8	1.49e+00	0	43	104	1113587712	69	22799
2026-01-28 08:53:57.18	354.93	8.23	-49.2	-65.0	3.8	1.49e+00	0	43	104	1113587712	69	22847
2026-01-28 08:53:58.17	354.85	8.16	-48.8	-65.0	3.8	1.49e+00	0	43	104	1113587712	69	22916
2026-01-28 08:53:59.17	354.77	8.09	-49.1	-64.9	3.8	1.49e+00	0	43	104	1113587712	69	22756
2026-01-28 08:54:00.17	354.69	8.02	-49.4	-64.9	3.8	1.49e+00	0	44	104	1113587712	69	22762
2026-01-28 08:54:01.17	354.61	7.95	-49.5	-64.9	3.8	1.49e+00	0	43	104	1113587712	69	22709
2026-01-28 08:54:02.17	354.53	7.88	-49.6	-64.9	3.8	1.49e+00	0	43	104	1113587712	69	22641
2026-01-28 08:54:03.17	354.45	7.81	-49.6	-64.8	3.8	1.49e+00	0	43	104	1113587712	69	22455
2026-01-28 08:54:04.16	354.38	7.74	-49.7	-64.9	3.8	1.49e+00	0	43	104	1113587712	69	22531
2026-01-28 08:54:05.16	354.30	7.67	-49.4	-64.7	3.8	1.49e+00	0	43	104	1113587712	69	22140
2026-01-28 08:54:06.16	354.22	7.60	-49.4	-64.6	3.8	1.49e+00	0	44	104	1113587712	69	21942
2026-01-28 08:54:07.16	354.14	7.54	-49.2	-64.5	3.8	1.49e+00	0	44	104	1113587712	69	21570
2026-01-28 08:54:08.16	354.07	7.47	-49.0	-64.4	3.8	1.49e+00	0	43	104	1113587712	69	21305
2026-01-28 08:54:09.15	353.99	7.40	-49.0	-64.4	3.8	1.49e+00	0	43	104	1113587712	69	21361
2026-01-28 08:54:10.15	353.92	7.33	-49.0	-64.4	3.8	1.49e+00	0	43	104	1113587712	69	21310
2026-01-28 08:54:11.15	353.84	7.26	-49.0	-64.4	3.8	1.49e+00	0	43	104	1113587712	69	21343
2026-01-28 08:54:12.15	353.77	7.19	-49.0	-64.4	3.8	1.49e+00	0	43	104	1113587712	69	21311
2026-01-28 08:54:13.14	353.69	7.12	-49.0	-64.4	3.8	1.49e+00	0	43	104	1113587712	69	21324
2026-01-28 08:54:14.14	353.62	7.05	-49.0	-64.4	3.8	1.49e+00	0	44	104	1113587712	69	21318
2026-01-28 08:54:15.14	353.54	6.99	-49.0	-64.4	3.8	1.49e+00	0	43	104	1113587712	69	21311
2026-01-28 08:54:16.14	353.47	6.92	-49.0	-64.3	3.8	1.49e+00	0	43	104	1113587712	69	21224
2026-01-28 08:54:17.14	353.40	6.85	-49.0	-64.4	3.8	1.49e+00	0	43	104	1113587712	69	21367
2026-01-28 08:54:18.15	353.32	6.78	-49.0	-64.3	3.8	1.49e+00	0	43	104	1113587712	69	21200
2026-01-28 08:54:19.14	353.25	6.71	-49.0	-64.3	3.8	1.49e+00	0	43	104	1113587712	69	21234
2026-01-28 08:54:20.14	353.18	6.65	-49.0	-64.4	3.8	1.49e+00	0	43	104	1113587712	69	21280
2026-01-28 08:54:21.14	353.11	6.58	-49.0	-64.3	3.8	1.49e+00	0	43	104	1113587712	69	21211
2026-01-28 08:54:22.14	353.04	6.51	-49.0	-64.4	3.8	1.49e+00	0	43	104	1113587712	69	21270
2026-01-28 08:54:23.14	352.97	6.44	-49.0	-64.4	3.8	1.49e+00	0	43	104	1113587712	69	21265
2026-01-28 08:54:24.14	352.89	6.38	-49.0	-64.4	3.8	1.49e+00	0	44	104	1113587712	69	21313
2026-01-28 08:54:25.14	352.82	6.31	-49.0	-64.4	3.8	1.49e+00	0	43	104	1113587712	69	21308
2026-01-28 08:54:26.14	352.75	6.24	-49.0	-64.4	3.8	1.49e+00	0	43	104	1113587712	69	21280
2026-01-28 08:54:27.13	352.69	6.18	-48.9	-64.4	3.8	1.49e+00	0	43	104	1113587712	69	21319
2026-01-28 08:54:28.13	352.62	6.11	-49.0	-64.4	3.8	1.49e+00	0	43	104	1113587712	69	21280
2026-01-28 08:54:29.13	352.55	6.04	-49.0	-64.3	3.8	1.49e+00	0	43	104	1113587712	69	21216
2026-01-28 08:54:30.14	352.48	5.98	-48.9	-64.3	3.8	1.49e+00	0	43	104	1113587712	69	21233
2026-01-28 08:54:31.14	352.41	5.91	-49.0	-64.4	3.8	1.49e+00	0	43	104	1113587712	69	21308
2026-01-28 08:54:32.13	352.34	5.85	-49.0	-64.3	3.8	1.49e+00	0	43	104	1113587712	69	21209
2026-01-28 08:54:33.13	352.27	5.78	-49.0	-64.3	3.8	1.49e+00	0	44	104	1113587712	69	21248
2026-01-28 08:54:34.13	352.21	5.71	-48.9	-64.3	3.8	1.49e+00	0	43	104	1113587712	69	21257
2026-01-28 08:54:35.13	352.14	5.65	-48.9	-64.3	3.8	1.49e+00	0	43	104	1113587712	69	21249
2026-01-28 08:54:36.12	352.07	5.58	-48.9	-64.4	3.8	1.49e+00	0	43	104	1113587712	69	21273
2026-01-28 08:54:37.12	352.01	5.52	-48.9	-64.4	3.8	1.49e+00	0	43	104	1113587712	69	21264
2026-01-28 08:54:38.12	351.94	5.45	-48.9	-64.3	3.8	1.49e+00	0	43	104	1113587712	69	21196
2026-01-28 08:54:39.12	351.88	5.39	-49.0	-64.3	3.8	1.49e+00	0	44	104	1113587712	69	21255
2026-01-28 08:54:40.12	351.81	5.32	-49.0	-64.3	3.8	1.49e+00	0	43	104	1113587712	69	21246
