passes_logs/2026/01/28/T1/T1__20260128_065405_KHAYYAM_rec.log

#Pass ID: 20260128_065405_KHAYYAM
#Satellite: KHAYYAM
#Configuration: KHAYYAM_480M
#almurnet v.1.7.20251203
#Start time: 2026-01-28 06:54:05

#Version: 2.0.20230620
#Station: T1
#Location: 37.570604 lon 55.790049 lat
#TLE: 1 53370U 22096A   26027.62333840  .00009189  00000+0  37322-3 0  9999
#TLE: 2 53370  97.3550 294.4067 0002110 106.9293 253.2176 15.24792297193169

#Time	Az	El	Level	Level2	SNR	BER	BlckErr	Temp	State	Recorded	gain1	gain2
2026-01-28 06:54:05.05	126.46	5.00	-52.3	-57.1	3.5	0.00e+00	0	42	0	0	76	24588
2026-01-28 06:54:06.05	126.36	5.08	-53.1	-57.8	3.7	0.00e+00	0	43	104	0	77	25136
2026-01-28 06:54:07.05	126.27	5.15	-53.0	-57.7	3.7	0.00e+00	0	43	104	0	77	24841
2026-01-28 06:54:08.04	126.17	5.22	-52.8	-57.6	3.7	0.00e+00	0	43	104	0	76	26179
2026-01-28 06:54:09.04	126.08	5.30	-53.4	-57.8	3.7	0.00e+00	0	43	104	0	77	25274
2026-01-28 06:54:10.04	125.98	5.37	-53.3	-57.8	3.7	0.00e+00	0	43	104	0	77	25225
2026-01-28 06:54:11.03	125.89	5.45	-52.8	-57.5	3.7	0.00e+00	0	43	104	0	77	24426
2026-01-28 06:54:12.03	125.79	5.52	-53.3	-57.8	3.7	0.00e+00	0	43	104	0	77	25171
2026-01-28 06:54:13.03	125.69	5.60	-53.0	-57.6	3.7	0.00e+00	0	43	104	0	77	24738
2026-01-28 06:54:14.03	125.59	5.67	-53.0	-57.6	3.7	0.00e+00	0	43	104	0	77	24566
2026-01-28 06:54:15.02	125.50	5.75	-53.1	-57.6	3.7	0.00e+00	0	44	104	0	77	24658
2026-01-28 06:54:16.02	125.40	5.82	-53.0	-57.5	3.7	0.00e+00	0	43	104	0	77	24321
2026-01-28 06:54:17.02	125.30	5.90	-53.1	-57.6	3.7	0.00e+00	0	44	104	0	77	24728
2026-01-28 06:54:18.02	125.20	5.98	-53.0	-57.5	3.7	0.00e+00	0	44	104	0	77	24386
2026-01-28 06:54:19.02	125.09	6.05	-53.0	-57.5	3.7	0.00e+00	0	44	104	0	77	24376
2026-01-28 06:54:20.01	124.99	6.13	-52.9	-57.4	3.7	0.00e+00	0	44	104	0	77	24047
2026-01-28 06:54:21.01	124.89	6.21	-52.8	-57.3	3.7	0.00e+00	0	44	104	0	77	23903
2026-01-28 06:54:22.01	124.79	6.28	-52.9	-57.4	3.7	0.00e+00	0	44	104	0	77	24206
2026-01-28 06:54:23.01	124.68	6.36	-52.8	-57.3	3.7	0.00e+00	0	44	104	0	77	23757
2026-01-28 06:54:24.01	124.58	6.44	-52.6	-57.1	3.7	0.00e+00	0	44	104	0	76	24558
2026-01-28 06:54:25.00	124.47	6.52	-52.1	-56.7	3.7	0.00e+00	0	44	104	0	76	23687
2026-01-28 06:54:26.00	124.36	6.59	-52.1	-56.7	3.7	0.00e+00	0	44	104	0	76	23667
2026-01-28 06:54:27.00	124.26	6.67	-52.1	-56.7	3.7	0.00e+00	0	44	104	0	76	23616
2026-01-28 06:54:28.00	124.15	6.75	-52.1	-56.7	3.6	0.00e+00	0	45	104	0	76	23667
2026-01-28 06:54:28.99	124.04	6.83	-52.1	-56.7	3.7	0.00e+00	0	45	104	0	76	23593
2026-01-28 06:54:29.98	123.93	6.91	-52.1	-56.7	3.7	0.00e+00	0	45	104	0	76	23535
2026-01-28 06:54:30.98	123.82	6.99	-52.1	-56.7	3.7	0.00e+00	0	45	104	0	76	23599
2026-01-28 06:54:31.98	123.71	7.07	-52.1	-56.7	3.7	0.00e+00	0	45	104	0	76	23618
2026-01-28 06:54:32.98	123.60	7.15	-52.1	-56.7	3.7	0.00e+00	0	45	104	0	76	23502
2026-01-28 06:54:33.97	123.49	7.23	-52.1	-56.7	3.7	0.00e+00	0	45	104	0	76	23544
2026-01-28 06:54:34.97	123.37	7.31	-52.1	-56.7	3.7	0.00e+00	0	45	104	0	76	23511
2026-01-28 06:54:35.97	123.26	7.39	-52.1	-56.7	3.7	0.00e+00	0	45	104	0	76	23501
2026-01-28 06:54:36.97	123.14	7.47	-52.1	-56.7	3.7	0.00e+00	0	45	104	0	76	23549
2026-01-28 06:54:37.97	123.03	7.55	-52.1	-56.7	3.7	0.00e+00	0	45	104	0	76	23577
2026-01-28 06:54:38.96	122.91	7.63	-52.1	-56.7	3.7	0.00e+00	0	45	104	0	76	23484
2026-01-28 06:54:39.96	122.79	7.71	-52.1	-56.7	3.7	0.00e+00	0	45	104	0	76	23497
2026-01-28 06:54:40.97	122.67	7.80	-52.1	-56.7	3.7	0.00e+00	0	45	104	0	76	23546
2026-01-28 06:54:41.96	122.55	7.88	-52.0	-56.7	3.7	0.00e+00	0	46	104	0	76	23448
2026-01-28 06:54:42.95	122.43	7.96	-52.1	-56.7	3.7	0.00e+00	0	45	104	0	76	23550
2026-01-28 06:54:43.95	122.31	8.04	-52.1	-56.7	3.7	0.00e+00	0	45	104	0	76	23543
2026-01-28 06:54:44.95	122.19	8.12	-52.1	-56.6	3.7	0.00e+00	0	46	104	0	76	23418
2026-01-28 06:54:45.94	122.07	8.21	-52.0	-56.6	3.7	0.00e+00	0	46	104	0	76	23389
2026-01-28 06:54:46.94	121.94	8.29	-52.0	-56.6	3.7	0.00e+00	0	46	104	0	76	23238
2026-01-28 06:54:47.93	121.82	8.37	-52.0	-56.5	3.7	0.00e+00	0	46	104	0	75	24414
2026-01-28 06:54:48.93	121.69	8.46	-51.9	-56.5	3.7	0.00e+00	0	46	104	0	75	24273
2026-01-28 06:54:49.93	121.57	8.54	-51.8	-56.2	3.7	0.00e+00	0	46	104	0	75	23558
2026-01-28 06:54:50.93	121.44	8.63	-51.8	-56.2	3.7	0.00e+00	0	46	104	0	75	23486
2026-01-28 06:54:51.93	121.31	8.71	-51.8	-56.2	3.7	0.00e+00	0	46	104	0	75	23655
2026-01-28 06:54:52.94	121.18	8.80	-51.9	-56.4	3.7	0.00e+00	0	46	104	0	75	24048
2026-01-28 06:54:53.94	121.05	8.88	-52.0	-56.5	3.7	0.00e+00	0	46	104	0	75	24403
2026-01-28 06:54:54.93	120.92	8.97	-52.0	-56.6	3.7	0.00e+00	0	46	104	0	75	24606
2026-01-28 06:54:55.93	120.79	9.06	-52.0	-56.6	3.7	0.00e+00	0	46	104	0	75	24803
2026-01-28 06:54:56.93	120.65	9.14	-52.1	-56.7	3.7	0.00e+00	0	46	104	0	75	24824
2026-01-28 06:54:57.93	120.52	9.23	-52.2	-56.8	3.7	0.00e+00	0	46	104	0	75	25277
2026-01-28 06:54:58.93	120.38	9.32	-52.3	-56.8	3.7	0.00e+00	0	46	104	0	75	25226
2026-01-28 06:54:59.93	120.25	9.40	-52.1	-56.6	3.7	0.00e+00	0	46	104	0	75	24757
2026-01-28 06:55:00.93	120.11	9.49	-52.3	-56.8	3.7	0.00e+00	0	46	104	0	75	25296
2026-01-28 06:55:01.93	119.97	9.58	-52.3	-56.8	3.7	0.00e+00	0	46	104	0	75	25350
2026-01-28 06:55:02.92	119.83	9.66	-52.2	-56.7	3.7	0.00e+00	0	46	104	0	75	25020
2026-01-28 06:55:03.92	119.69	9.75	-52.1	-56.6	3.7	0.00e+00	0	46	104	0	75	24790
2026-01-28 06:55:04.92	119.55	9.84	-52.2	-56.7	3.7	0.00e+00	0	47	104	0	75	25069
2026-01-28 06:55:05.92	119.41	9.93	-52.3	-56.8	3.7	0.00e+00	0	46	104	0	75	25234
2026-01-28 06:55:06.91	119.26	10.02	-52.0	-56.7	3.6	0.00e+00	0	46	104	0	75	24915
2026-01-28 06:55:07.91	119.12	10.11	-52.1	-56.7	3.7	0.00e+00	0	46	104	0	75	25061
2026-01-28 06:55:08.91	118.97	10.20	-52.2	-56.8	3.7	0.00e+00	0	47	104	0	75	25169
2026-01-28 06:55:09.91	118.82	10.29	-52.2	-56.7	3.7	0.00e+00	0	47	104	0	75	25087
2026-01-28 06:55:10.91	118.68	10.38	-52.2	-56.8	3.7	0.00e+00	0	47	104	0	75	25149
2026-01-28 06:55:11.90	118.53	10.47	-52.1	-56.7	3.7	0.00e+00	0	46	104	0	75	24892
2026-01-28 06:55:12.90	118.38	10.56	-52.1	-56.7	3.7	0.00e+00	0	47	104	0	75	24942
2026-01-28 06:55:13.89	118.23	10.65	-52.3	-56.8	3.7	0.00e+00	0	46	104	0	75	25379
2026-01-28 06:55:14.89	118.07	10.74	-52.1	-56.8	3.7	0.00e+00	0	47	104	0	75	25142
2026-01-28 06:55:15.89	117.92	10.83	-52.2	-56.9	3.7	0.00e+00	0	47	104	0	75	25398
2026-01-28 06:55:16.89	117.76	10.93	-52.2	-56.7	3.7	0.00e+00	0	47	104	0	75	25046
2026-01-28 06:55:17.89	117.61	11.02	-52.3	-56.8	3.7	0.00e+00	0	47	104	0	75	25368
2026-01-28 06:55:18.88	117.45	11.11	-52.1	-56.8	3.7	0.00e+00	0	47	104	0	75	25106
2026-01-28 06:55:19.88	117.29	11.20	-52.2	-56.8	3.7	0.00e+00	0	47	104	0	75	25103
2026-01-28 06:55:20.87	117.13	11.29	-52.2	-56.8	3.7	0.00e+00	0	47	104	0	75	25225
2026-01-28 06:55:21.87	116.97	11.39	-52.1	-56.8	3.7	0.00e+00	0	47	104	0	75	25280
2026-01-28 06:55:22.87	116.81	11.48	-52.2	-56.7	3.7	0.00e+00	0	47	104	0	75	25060
2026-01-28 06:55:23.87	116.64	11.58	-52.3	-56.9	3.7	0.00e+00	0	47	104	0	75	25458
2026-01-28 06:55:24.86	116.48	11.67	-52.1	-56.8	3.7	0.00e+00	0	47	104	0	75	25152
2026-01-28 06:55:25.86	116.31	11.76	-52.3	-56.9	3.7	0.00e+00	0	47	104	0	75	25511
2026-01-28 06:55:26.85	116.14	11.86	-52.4	-56.9	3.7	0.00e+00	0	47	104	0	75	25608
2026-01-28 06:55:27.84	115.98	11.95	-52.5	-56.9	3.7	0.00e+00	0	47	104	0	75	25596
2026-01-28 06:55:28.83	115.81	12.05	-52.5	-57.0	3.7	0.00e+00	0	47	104	0	75	25770
2026-01-28 06:55:29.83	115.63	12.14	-52.6	-57.0	3.7	0.00e+00	0	47	104	0	75	25927
2026-01-28 06:55:30.83	115.46	12.24	-52.5	-57.0	3.7	0.00e+00	0	47	104	0	75	25693
2026-01-28 06:55:31.83	115.28	12.34	-52.4	-56.8	3.7	0.00e+00	0	47	104	0	75	25326
2026-01-28 06:55:32.83	115.11	12.43	-52.5	-57.0	3.7	0.00e+00	0	47	104	0	75	25873
2026-01-28 06:55:33.83	114.93	12.53	-52.5	-57.0	3.7	0.00e+00	0	47	104	0	75	25769
2026-01-28 06:55:34.83	114.75	12.63	-52.3	-56.9	3.7	0.00e+00	0	47	104	0	75	25388
2026-01-28 06:55:35.83	114.57	12.72	-52.3	-56.8	3.7	0.00e+00	0	47	104	0	75	25363
2026-01-28 06:55:36.83	114.39	12.82	-52.4	-56.9	3.7	0.00e+00	0	47	104	0	75	25606
2026-01-28 06:55:37.83	114.20	12.92	-52.5	-57.0	3.7	0.00e+00	0	47	104	0	75	25837
2026-01-28 06:55:38.83	114.02	13.02	-52.4	-56.9	3.7	0.00e+00	0	47	104	0	75	25573
2026-01-28 06:55:39.82	113.83	13.12	-52.5	-57.0	3.7	0.00e+00	0	47	104	0	75	25911
2026-01-28 06:55:40.82	113.64	13.21	-52.5	-57.0	3.7	0.00e+00	0	47	104	0	75	25815
2026-01-28 06:55:41.81	113.46	13.31	-52.6	-57.1	3.7	0.00e+00	0	47	104	0	75	26202
2026-01-28 06:55:42.81	113.26	13.41	-52.4	-57.0	3.7	0.00e+00	0	47	104	0	75	25951
2026-01-28 06:55:43.81	113.07	13.51	-52.3	-57.0	3.7	0.00e+00	0	47	104	0	75	25695
2026-01-28 06:55:44.81	112.88	13.61	-52.4	-57.1	3.7	0.00e+00	0	47	104	0	75	26021
2026-01-28 06:55:45.80	112.68	13.71	-52.3	-57.0	3.7	0.00e+00	0	47	104	0	75	25930
2026-01-28 06:55:46.80	112.48	13.81	-52.3	-57.0	3.7	0.00e+00	0	47	104	0	75	25908
2026-01-28 06:55:47.79	112.29	13.91	-52.5	-57.0	3.7	0.00e+00	0	47	104	0	75	25901
2026-01-28 06:55:48.79	112.08	14.01	-52.4	-57.0	3.7	0.00e+00	0	47	104	0	75	25966
2026-01-28 06:55:49.79	111.88	14.11	-52.3	-57.1	3.7	0.00e+00	0	48	104	0	75	26071
2026-01-28 06:55:50.78	111.68	14.21	-52.5	-57.1	3.7	0.00e+00	0	47	104	0	75	26137
2026-01-28 06:55:51.78	111.47	14.32	-52.4	-57.0	3.7	0.00e+00	0	48	104	0	75	25945
2026-01-28 06:55:52.78	111.26	14.42	-52.5	-57.1	3.7	0.00e+00	0	47	104	0	75	26256
2026-01-28 06:55:53.78	111.05	14.52	-52.6	-57.2	3.7	0.00e+00	0	48	104	0	75	26529
2026-01-28 06:55:54.79	110.84	14.62	-52.5	-57.2	3.7	0.00e+00	0	48	104	0	75	26381
2026-01-28 06:55:55.79	110.63	14.73	-52.4	-57.1	3.7	0.00e+00	0	47	104	0	75	26129
2026-01-28 06:55:56.78	110.41	14.83	-52.4	-57.2	3.7	0.00e+00	0	48	104	0	75	26505
2026-01-28 06:55:57.78	110.20	14.93	-52.5	-57.3	3.7	0.00e+00	0	48	104	0	75	26615
2026-01-28 06:55:58.78	109.98	15.03	-52.4	-57.1	3.7	0.00e+00	0	48	104	0	75	26189
2026-01-28 06:55:59.78	109.76	15.14	-52.6	-57.1	3.7	0.00e+00	0	48	104	0	75	26270
2026-01-28 06:56:00.77	109.54	15.24	-52.5	-57.2	3.7	0.00e+00	0	48	104	0	75	26412
2026-01-28 06:56:01.77	109.31	15.34	-52.0	-56.1	3.7	0.00e+00	0	48	104	0	75	23262
2026-01-28 06:56:02.77	109.09	15.45	-52.0	-56.0	3.7	0.00e+00	0	48	104	0	75	22981
2026-01-28 06:56:03.77	108.86	15.55	-51.9	-55.7	3.7	0.00e+00	0	48	104	0	75	22286
2026-01-28 06:56:04.76	108.63	15.66	-51.8	-55.5	3.7	0.00e+00	0	48	104	0	75	21719
2026-01-28 06:56:05.76	108.40	15.76	-50.3	-52.9	3.8	0.00e+00	0	48	104	0	72	19151
2026-01-28 06:56:06.76	108.17	15.87	-52.2	-56.1	3.7	0.00e+00	0	47	104	0	75	23222
2026-01-28 06:56:07.76	107.93	15.97	-38.9	-40.4	4.5	0.00e+00	0	47	104	0	50	16106
2026-01-28 06:56:08.75	107.70	16.07	-34.0	-35.0	4.6	0.00e+00	0	47	104	0	39	16211
2026-01-28 06:56:09.75	107.46	16.18	-43.6	-44.9	4.3	0.00e+00	0	47	104	0	57	18093
2026-01-28 06:56:10.76	107.21	16.29	-34.1	-35.1	4.5	0.00e+00	0	48	104	0	40	15569
2026-01-28 06:56:11.75	106.97	16.39	-34.6	-35.6	4.5	0.00e+00	0	47	104	0	39	17453
2026-01-28 06:56:12.75	106.73	16.50	-33.7	-34.7	4.6	0.00e+00	0	47	104	0	39	15685
2026-01-28 06:56:13.75	106.48	16.60	-33.1	-34.0	4.6	0.00e+00	0	48	104	0	38	15384
2026-01-28 06:56:14.75	106.23	16.71	-40.3	-41.4	4.5	0.00e+00	0	48	104	0	51	16978
2026-01-28 06:56:15.74	105.98	16.81	-32.7	-33.6	4.5	0.00e+00	0	48	104	0	36	16566
2026-01-28 06:56:16.74	105.73	16.92	-51.7	-55.1	3.7	0.00e+00	0	48	104	0	73	23291
2026-01-28 06:56:17.74	105.47	17.03	-35.3	-36.2	12.9	0.00e+00	0	48	104	0	42	15698
2026-01-28 06:56:18.74	105.21	17.13	-41.9	-43.0	12.8	0.00e+00	0	48	0	41943040	54	17216
2026-01-28 06:56:19.74	104.95	17.24	-33.0	-33.9	19.4	2.04e-01	0	48	0	109051904	38	15188
2026-01-28 06:56:20.73	104.69	17.34	-32.8	-33.7	19.5	0.00e+00	0	48	0	167772160	37	15723
2026-01-28 06:56:21.73	104.43	17.45	-32.3	-33.2	19.9	0.00e+00	0	48	0	226492416	36	15775
2026-01-28 06:56:22.73	104.16	17.56	-30.4	-31.2	19.6	0.00e+00	0	48	0	285212672	32	15801
2026-01-28 06:56:23.73	103.89	17.66	-30.2	-31.1	19.7	0.00e+00	0	48	0	343932928	32	15503
2026-01-28 06:56:24.73	103.62	17.77	-29.7	-30.5	19.9	0.00e+00	0	48	0	402653184	31	15448
2026-01-28 06:56:25.73	103.34	17.88	-29.4	-30.2	20.0	0.00e+00	0	48	0	469762048	30	15817
2026-01-28 06:56:26.72	103.07	17.98	-29.2	-30.0	20.2	0.00e+00	0	48	0	528482304	30	15444
2026-01-28 06:56:27.72	102.79	18.09	-29.1	-29.9	20.3	0.00e+00	0	49	0	587202560	30	15251
2026-01-28 06:56:28.72	102.51	18.20	-28.4	-29.2	20.7	0.00e+00	0	48	0	645922816	28	15721
2026-01-28 06:56:29.72	102.23	18.30	-28.3	-29.1	20.7	0.00e+00	0	49	0	704643072	28	15613
2026-01-28 06:56:30.72	101.94	18.41	-28.4	-29.3	20.6	0.00e+00	0	48	0	763363328	28	15857
2026-01-28 06:56:31.72	101.66	18.52	-28.5	-29.3	20.6	0.00e+00	0	48	0	822083584	28	15905
2026-01-28 06:56:32.72	101.37	18.62	-28.3	-29.1	20.7	0.00e+00	0	49	0	889192448	28	15546
2026-01-28 06:56:33.72	101.07	18.73	-28.3	-29.1	20.7	0.00e+00	0	49	0	947912704	28	15631
2026-01-28 06:56:34.72	100.78	18.84	-28.3	-29.1	20.7	0.00e+00	0	48	0	1006632960	28	15541
2026-01-28 06:56:35.72	100.48	18.94	-28.0	-28.8	20.8	0.00e+00	0	49	0	1065353216	28	15115
2026-01-28 06:56:36.72	100.18	19.05	-28.1	-28.9	20.9	0.00e+00	0	49	0	1124073472	27	16125
2026-01-28 06:56:37.72	99.88	19.15	-28.2	-29.1	20.8	0.00e+00	0	49	0	1182793728	27	16414
2026-01-28 06:56:38.72	99.58	19.26	-28.2	-29.1	20.8	0.00e+00	0	49	0	1249902592	27	16400
2026-01-28 06:56:39.72	99.27	19.36	-27.9	-28.8	20.8	0.00e+00	0	49	0	1308622848	27	15877
2026-01-28 06:56:40.71	98.96	19.47	-28.1	-29.0	20.7	0.00e+00	0	49	0	1367343104	27	16241
2026-01-28 06:56:41.71	98.65	19.57	-28.2	-29.0	20.7	0.00e+00	0	49	0	1426063360	27	16261
2026-01-28 06:56:42.71	98.34	19.68	-28.2	-29.1	20.7	0.00e+00	0	49	0	1484783616	27	16414
2026-01-28 06:56:43.70	98.03	19.78	-27.9	-28.7	20.9	0.00e+00	0	49	0	1543503872	27	15759
2026-01-28 06:56:44.70	97.71	19.89	-28.1	-28.9	20.9	0.00e+00	0	49	0	1602224128	27	16060
2026-01-28 06:56:45.70	97.38	19.99	-28.0	-28.8	20.9	0.00e+00	0	49	0	1660944384	27	15983
2026-01-28 06:56:46.70	97.06	20.09	-27.8	-28.6	21.0	0.00e+00	0	49	0	1719664640	27	15615
2026-01-28 06:56:47.69	96.74	20.20	-27.9	-28.8	20.9	0.00e+00	0	49	0	1786773504	27	15849
2026-01-28 06:56:48.69	96.41	20.30	-27.8	-28.7	21.0	0.00e+00	0	49	0	1845493760	27	15706
2026-01-28 06:56:49.68	96.08	20.40	-28.1	-28.9	20.8	0.00e+00	0	49	0	1904214016	27	16092
2026-01-28 06:56:50.68	95.75	20.50	-27.7	-28.5	21.0	0.00e+00	0	49	0	1962934272	27	15457
2026-01-28 06:56:51.68	95.41	20.61	-27.8	-28.7	20.9	0.00e+00	0	49	0	2021654528	27	15703
2026-01-28 06:56:52.68	95.07	20.71	-27.8	-28.7	20.9	0.00e+00	0	49	0	2080374784	27	15708
2026-01-28 06:56:53.68	94.73	20.81	-27.4	-28.3	21.0	0.00e+00	0	49	0	2139095040	26	15878
2026-01-28 06:56:54.68	94.38	20.91	-27.5	-28.4	21.0	0.00e+00	0	49	0	2206203904	26	16051
2026-01-28 06:56:55.68	94.04	21.01	-27.7	-28.5	21.0	0.00e+00	0	49	0	2264924160	26	16337
2026-01-28 06:56:56.68	93.69	21.11	-27.7	-28.5	21.0	0.00e+00	0	49	0	2323644416	26	16304
2026-01-28 06:56:57.68	93.33	21.21	-27.4	-28.3	21.1	0.00e+00	0	49	0	2382364672	26	15841
2026-01-28 06:56:58.68	92.98	21.31	-27.5	-28.3	21.0	0.00e+00	0	49	0	2441084928	26	15917
2026-01-28 06:56:59.67	92.63	21.41	-27.7	-28.6	20.8	0.00e+00	0	49	0	2499805184	26	16410
2026-01-28 06:57:00.68	92.26	21.50	-27.4	-28.3	20.9	0.00e+00	0	49	0	2566914048	26	15864
2026-01-28 06:57:01.68	91.90	21.60	-27.4	-28.2	20.9	0.00e+00	0	49	0	2625634304	26	15761
2026-01-28 06:57:02.67	91.54	21.70	-27.4	-28.3	20.9	0.00e+00	0	49	0	2684354560	26	15885
2026-01-28 06:57:03.67	91.17	21.79	-27.1	-28.0	21.2	0.00e+00	0	49	0	2743074816	26	15320
2026-01-28 06:57:04.67	90.80	21.89	-27.2	-28.0	21.2	0.00e+00	0	49	0	2801795072	26	15437
2026-01-28 06:57:05.67	90.43	21.98	-27.3	-28.2	21.2	0.00e+00	0	49	0	2860515328	26	15670
2026-01-28 06:57:06.66	90.05	22.07	-27.1	-28.0	21.2	0.00e+00	0	49	0	2919235584	26	15344
2026-01-28 06:57:07.66	89.68	22.17	-27.2	-28.0	21.1	0.00e+00	0	49	0	2986344448	26	15451
2026-01-28 06:57:08.66	89.30	22.26	-27.3	-28.1	21.1	0.00e+00	0	49	0	3045064704	26	15608
2026-01-28 06:57:09.65	88.92	22.35	-27.1	-27.9	21.2	0.00e+00	0	49	0	3103784960	26	15262
2026-01-28 06:57:10.65	88.53	22.44	-27.2	-28.0	21.1	0.00e+00	0	49	0	3162505216	26	15451
2026-01-28 06:57:11.65	88.14	22.53	-27.3	-28.2	21.0	0.00e+00	0	49	0	3221225472	26	15669
2026-01-28 06:57:12.65	87.75	22.62	-27.0	-27.8	21.2	0.00e+00	0	49	0	3279945728	26	15100
2026-01-28 06:57:13.64	87.36	22.70	-27.0	-27.9	21.1	0.00e+00	0	49	0	3338665984	26	15145
2026-01-28 06:57:14.64	86.97	22.79	-27.2	-28.0	21.1	0.00e+00	0	49	0	3397386240	26	15415
2026-01-28 06:57:15.64	86.57	22.88	-27.0	-27.8	21.1	0.00e+00	0	49	0	3456106496	25	15952
2026-01-28 06:57:16.64	86.17	22.96	-27.0	-27.8	21.1	0.00e+00	0	49	0	3523215360	25	15986
2026-01-28 06:57:17.64	85.77	23.05	-27.2	-28.0	21.0	0.00e+00	0	49	0	3581935616	25	16310
2026-01-28 06:57:18.63	85.36	23.13	-26.9	-27.7	21.2	0.00e+00	0	49	0	3640655872	25	15726
2026-01-28 06:57:19.63	84.96	23.21	-26.9	-27.8	21.1	0.00e+00	0	49	0	3699376128	25	15885
2026-01-28 06:57:20.63	84.55	23.29	-27.0	-27.8	21.0	0.00e+00	0	49	0	3758096384	25	16014
2026-01-28 06:57:21.62	84.14	23.37	-26.8	-27.6	21.1	0.00e+00	0	49	0	3816816640	25	15545
2026-01-28 06:57:22.62	83.72	23.45	-26.8	-27.7	21.2	0.00e+00	0	49	0	3883925504	25	15669
2026-01-28 06:57:23.62	83.31	23.52	-27.1	-27.9	21.1	0.00e+00	0	49	0	3942645760	25	16084
2026-01-28 06:57:24.61	82.89	23.60	-26.8	-27.6	21.2	0.00e+00	0	50	0	4001366016	25	15542
2026-01-28 06:57:25.61	82.47	23.67	-26.8	-27.7	21.2	0.00e+00	0	49	0	4060086272	25	15687
2026-01-28 06:57:26.61	82.04	23.75	-27.0	-27.9	21.1	0.00e+00	0	50	0	4118806528	25	16019
2026-01-28 06:57:27.60	81.62	23.82	-26.7	-27.5	21.3	0.00e+00	0	50	0	4177526784	25	15445
2026-01-28 06:57:28.60	81.19	23.89	-26.9	-27.7	21.2	0.00e+00	0	50	0	4236247040	25	15747
2026-01-28 06:57:29.59	80.77	23.96	-27.1	-28.0	21.1	0.00e+00	0	49	0	4294967296	25	16203
2026-01-28 06:57:30.59	80.33	24.03	-26.8	-27.6	21.3	0.00e+00	0	50	0	4353687552	25	15592
2026-01-28 06:57:31.59	79.90	24.09	-26.9	-27.7	21.3	0.00e+00	0	49	0	4420796416	25	15794
2026-01-28 06:57:32.59	79.46	24.16	-27.1	-27.9	21.2	0.00e+00	0	49	0	4479516672	25	16115
2026-01-28 06:57:33.59	79.02	24.22	-26.8	-27.6	21.2	0.00e+00	0	49	0	4538236928	25	15641
2026-01-28 06:57:34.59	78.58	24.29	-26.9	-27.8	21.1	0.00e+00	0	50	0	4596957184	25	15898
2026-01-28 06:57:35.59	78.14	24.35	-26.7	-27.5	21.3	0.00e+00	0	49	0	4655677440	25	15410
2026-01-28 06:57:36.59	77.70	24.41	-26.8	-27.6	21.3	0.00e+00	0	50	0	4714397696	25	15575
2026-01-28 06:57:37.59	77.25	24.47	-27.0	-27.8	21.2	0.00e+00	0	50	0	4773117952	25	15948
2026-01-28 06:57:38.59	76.80	24.52	-26.7	-27.6	21.1	0.00e+00	0	49	0	4840226816	25	15517
2026-01-28 06:57:39.59	76.35	24.58	-26.9	-27.7	21.1	0.00e+00	0	50	0	4898947072	25	15794
2026-01-28 06:57:40.59	75.90	24.63	-27.1	-27.9	21.1	0.00e+00	0	50	0	4957667328	25	16121
2026-01-28 06:57:41.59	75.45	24.68	-26.8	-27.6	21.2	0.00e+00	0	50	0	5016387584	25	15643
2026-01-28 06:57:42.59	74.99	24.73	-27.0	-27.9	21.1	0.00e+00	0	50	0	5075107840	25	16054
2026-01-28 06:57:43.59	74.53	24.78	-27.2	-28.0	21.0	0.00e+00	0	50	0	5133828096	25	16323
2026-01-28 06:57:44.59	74.08	24.83	-26.9	-27.7	21.2	0.00e+00	0	50	0	5200936960	25	15752
2026-01-28 06:57:45.58	73.62	24.87	-27.1	-27.9	21.1	0.00e+00	0	50	0	5259657216	25	16134
2026-01-28 06:57:46.59	73.16	24.91	-26.7	-27.6	21.3	0.00e+00	0	50	0	5318377472	25	15532
2026-01-28 06:57:47.58	72.70	24.96	-27.0	-27.8	21.0	0.00e+00	0	50	0	5377097728	25	15996
2026-01-28 06:57:48.58	72.23	24.99	-27.2	-28.0	21.0	0.00e+00	0	50	0	5435817984	25	16388
2026-01-28 06:57:49.58	71.77	25.03	-26.9	-27.7	21.2	0.00e+00	0	50	0	5494538240	25	15772
2026-01-28 06:57:50.58	71.30	25.07	-27.2	-28.1	21.0	0.00e+00	0	49	0	5553258496	25	16418
2026-01-28 06:57:51.58	70.84	25.10	-27.5	-28.3	20.9	0.00e+00	0	50	0	5620367360	25	16909
2026-01-28 06:57:52.58	70.37	25.14	-27.1	-28.0	21.0	0.00e+00	0	49	0	5679087616	25	16259
2026-01-28 06:57:53.58	69.90	25.17	-27.3	-28.1	21.0	0.00e+00	0	50	0	5737807872	25	16493
2026-01-28 06:57:54.58	69.43	25.19	-27.1	-27.9	21.0	0.00e+00	0	50	0	5796528128	25	16135
2026-01-28 06:57:55.58	68.96	25.22	-27.3	-28.1	20.9	0.00e+00	0	50	0	5855248384	25	16518
2026-01-28 06:57:56.58	68.48	25.25	-27.5	-28.3	20.8	0.00e+00	0	50	0	5913968640	25	16889
2026-01-28 06:57:57.58	68.01	25.27	-27.3	-28.1	20.9	0.00e+00	0	50	0	5981077504	25	16507
2026-01-28 06:57:58.58	67.54	25.29	-27.4	-28.2	20.8	0.00e+00	0	50	0	6039797760	25	16664
2026-01-28 06:57:59.57	67.07	25.31	-27.2	-28.0	20.9	0.00e+00	0	50	0	6098518016	25	16318
2026-01-28 06:58:00.57	66.59	25.33	-27.3	-28.2	20.8	0.00e+00	0	50	0	6157238272	25	16595
2026-01-28 06:58:01.57	66.12	25.34	-27.6	-28.4	20.7	0.00e+00	0	50	0	6215958528	25	17120
2026-01-28 06:58:02.57	65.64	25.35	-27.4	-28.2	20.9	0.00e+00	0	50	0	6274678784	26	15746
2026-01-28 06:58:03.57	65.17	25.37	-27.5	-28.4	20.9	0.00e+00	0	49	0	6333399040	26	16067
2026-01-28 06:58:04.57	64.69	25.38	-27.7	-28.6	20.7	0.00e+00	0	50	0	6400507904	26	16458
2026-01-28 06:58:05.57	64.21	25.38	-27.5	-28.3	20.8	0.00e+00	0	50	0	6459228160	26	15916
2026-01-28 06:58:06.57	63.74	25.39	-27.6	-28.4	20.7	0.00e+00	0	50	0	6517948416	26	16125
2026-01-28 06:58:07.57	63.26	25.39	-27.3	-28.1	20.9	0.00e+00	0	50	0	6576668672	26	15647
2026-01-28 06:58:08.57	62.78	25.39	-27.5	-28.4	20.8	0.00e+00	0	50	0	6635388928	26	16027
2026-01-28 06:58:09.57	62.30	25.39	-27.7	-28.5	20.7	0.00e+00	0	50	0	6694109184	26	16366
2026-01-28 06:58:10.57	61.83	25.39	-27.3	-28.1	20.9	0.00e+00	0	50	0	6752829440	26	15630
2026-01-28 06:58:11.57	61.35	25.39	-27.6	-28.4	20.7	0.00e+00	0	50	0	6819938304	26	16136
2026-01-28 06:58:12.57	60.87	25.38	-27.7	-28.5	20.7	0.00e+00	0	50	0	6878658560	26	16354
2026-01-28 06:58:13.56	60.40	25.37	-27.4	-28.2	20.8	0.00e+00	0	50	0	6937378816	26	15777
2026-01-28 06:58:14.56	59.93	25.36	-27.5	-28.3	20.7	0.00e+00	0	50	0	6996099072	26	15995
2026-01-28 06:58:15.56	59.45	25.35	-27.2	-28.1	20.8	0.00e+00	0	50	0	7054819328	26	15512
2026-01-28 06:58:16.56	58.97	25.33	-27.3	-28.2	20.8	0.00e+00	0	50	0	7113539584	26	15653
2026-01-28 06:58:17.56	58.50	25.32	-27.5	-28.3	20.7	0.00e+00	0	50	0	7180648448	26	15949
2026-01-28 06:58:18.55	58.03	25.30	-27.2	-28.0	20.8	0.00e+00	0	50	0	7239368704	26	15405
2026-01-28 06:58:19.55	57.56	25.28	-27.3	-28.2	20.7	0.00e+00	0	50	0	7298088960	26	15684
2026-01-28 06:58:20.54	57.09	25.26	-27.4	-28.3	20.6	0.00e+00	0	50	0	7356809216	26	15855
2026-01-28 06:58:21.54	56.62	25.24	-27.2	-28.0	20.7	0.00e+00	0	49	0	7415529472	26	15410
2026-01-28 06:58:22.54	56.14	25.21	-27.2	-28.1	20.7	0.00e+00	0	50	0	7474249728	26	15545
2026-01-28 06:58:23.53	55.68	25.18	-27.0	-27.8	21.0	0.00e+00	0	50	0	7532969984	26	15065
2026-01-28 06:58:24.53	55.21	25.15	-27.1	-27.9	20.8	0.00e+00	0	50	0	7591690240	26	15220
2026-01-28 06:58:25.53	54.74	25.12	-27.2	-28.1	20.8	0.00e+00	0	50	0	7650410496	26	15544
2026-01-28 06:58:26.53	54.27	25.09	-26.4	-27.7	21.0	0.00e+00	0	50	0	7717519360	25	15817
2026-01-28 06:58:27.53	53.81	25.05	-27.2	-28.0	20.7	0.00e+00	0	50	0	7776239616	25	16306
2026-01-28 06:58:28.53	53.34	25.02	-27.2	-28.1	20.6	0.00e+00	0	50	0	7834959872	25	16465
2026-01-28 06:58:29.53	52.88	24.98	-26.9	-27.8	20.8	0.00e+00	0	50	0	7893680128	25	15901
2026-01-28 06:58:30.53	52.42	24.94	-27.1	-27.9	20.8	0.00e+00	0	50	0	7952400384	25	16151
2026-01-28 06:58:31.53	51.96	24.90	-26.9	-27.7	20.8	0.00e+00	0	50	0	8011120640	25	15769
2026-01-28 06:58:32.53	51.50	24.85	-27.0	-27.9	20.7	0.00e+00	0	50	0	8069840896	25	16022
2026-01-28 06:58:33.53	51.04	24.81	-27.2	-28.0	20.6	0.00e+00	0	50	0	8136949760	25	16307
2026-01-28 06:58:34.53	50.58	24.76	-26.9	-27.7	20.7	0.00e+00	0	50	0	8195670016	25	15783
2026-01-28 06:58:35.53	50.13	24.71	-27.1	-27.9	20.6	0.00e+00	0	50	0	8254390272	25	16125
2026-01-28 06:58:36.52	49.68	24.66	-27.2	-28.0	20.6	0.00e+00	0	50	0	8313110528	25	16308
2026-01-28 06:58:37.52	49.23	24.61	-26.9	-27.7	20.8	0.00e+00	0	50	0	8371830784	25	15813
2026-01-28 06:58:38.52	48.78	24.55	-27.0	-27.9	20.6	0.00e+00	0	50	0	8430551040	25	16079
2026-01-28 06:58:39.51	48.33	24.50	-27.2	-28.0	20.5	0.00e+00	0	50	0	8497659904	25	16387
2026-01-28 06:58:40.51	47.89	24.44	-27.0	-27.8	20.6	0.00e+00	0	50	0	8556380160	25	15981
2026-01-28 06:58:41.52	47.44	24.38	-27.2	-28.0	20.5	0.00e+00	0	50	0	8615100416	25	16313
2026-01-28 06:58:42.51	47.00	24.32	-27.3	-28.1	20.5	0.00e+00	0	50	0	8673820672	25	16527
2026-01-28 06:58:43.51	46.56	24.26	-27.0	-27.9	20.7	0.00e+00	0	50	0	8732540928	25	16060
2026-01-28 06:58:44.51	46.12	24.20	-27.2	-28.0	20.6	0.00e+00	0	50	0	8791261184	25	16365
2026-01-28 06:58:45.50	45.69	24.14	-27.3	-28.2	20.5	0.00e+00	0	50	0	8849981440	25	16669
2026-01-28 06:58:46.50	45.25	24.07	-27.1	-28.0	20.8	0.00e+00	0	50	0	8908701696	25	16244
2026-01-28 06:58:47.50	44.82	24.00	-27.1	-28.0	20.6	0.00e+00	0	50	0	8975810560	25	16221
2026-01-28 06:58:48.50	44.39	23.93	-27.3	-28.1	20.5	0.00e+00	0	50	0	9034530816	25	16495
2026-01-28 06:58:49.50	43.96	23.86	-27.1	-27.9	20.8	0.00e+00	0	50	0	9093251072	25	16193
2026-01-28 06:58:50.50	43.54	23.79	-27.2	-28.1	20.6	0.00e+00	0	50	0	9151971328	25	16429
2026-01-28 06:58:51.50	43.11	23.72	-27.4	-28.3	20.5	0.00e+00	0	50	0	9210691584	25	16785
2026-01-28 06:58:52.50	42.69	23.65	-27.2	-28.1	20.7	0.00e+00	0	50	0	9277800448	25	16420
2026-01-28 06:58:53.50	42.27	23.57	-27.3	-28.1	20.5	0.00e+00	0	50	0	9328132096	25	16548
2026-01-28 06:58:54.50	41.85	23.50	-27.5	-28.3	20.4	0.00e+00	0	50	0	9386852352	25	16873
2026-01-28 06:58:55.50	41.44	23.42	-27.2	-28.0	20.7	0.00e+00	0	50	0	9453961216	25	16325
2026-01-28 06:58:56.49	41.03	23.34	-27.4	-28.3	20.6	0.00e+00	0	50	0	9512681472	25	16851
2026-01-28 06:58:57.49	40.62	23.26	-27.5	-28.4	20.3	0.00e+00	0	50	0	9571401728	25	16983
2026-01-28 06:58:58.49	40.21	23.18	-27.2	-28.1	20.4	0.00e+00	0	50	0	9630121984	25	16401
2026-01-28 06:58:59.48	39.81	23.10	-27.5	-28.4	20.0	0.00e+00	0	50	0	9688842240	25	16993
2026-01-28 06:59:00.48	39.41	23.02	-27.6	-28.4	19.7	0.00e+00	0	50	0	9747562496	25	17120
2026-01-28 06:59:01.48	39.01	22.93	-27.4	-28.3	19.9	0.00e+00	0	50	0	9814671360	25	16821
2026-01-28 06:59:02.48	38.61	22.85	-27.4	-28.3	20.1	0.00e+00	0	50	0	9873391616	25	16856
2026-01-28 06:59:03.48	38.21	22.76	-27.6	-28.5	20.0	0.00e+00	0	50	0	9932111872	26	16213
2026-01-28 06:59:04.48	37.82	22.67	-27.6	-28.4	20.0	0.00e+00	0	50	0	9990832128	26	16121
2026-01-28 06:59:05.47	37.43	22.59	-27.4	-28.3	19.9	0.00e+00	0	50	0	10049552384	26	15884
2026-01-28 06:59:06.47	37.05	22.50	-27.7	-28.6	19.8	0.00e+00	0	50	0	10108272640	26	16408
2026-01-28 06:59:07.47	36.66	22.41	-27.7	-28.5	19.8	0.00e+00	0	50	0	10166992896	26	16346
2026-01-28 06:59:08.47	36.28	22.32	-27.4	-28.3	20.1	0.00e+00	0	50	0	10234101760	26	15894
2026-01-28 06:59:09.47	35.90	22.23	-27.7	-28.6	20.0	0.00e+00	0	50	0	10292822016	26	16460
2026-01-28 06:59:10.47	35.52	22.14	-27.7	-28.6	20.0	0.00e+00	0	50	0	10351542272	26	16437
2026-01-28 06:59:11.46	35.15	22.04	-27.7	-28.6	20.2	0.00e+00	0	50	0	10410262528	26	16398
2026-01-28 06:59:12.46	34.78	21.95	-27.7	-28.5	20.3	0.00e+00	0	50	0	10468982784	26	16323
2026-01-28 06:59:13.46	34.41	21.86	-27.7	-28.6	20.2	0.00e+00	0	50	0	10527703040	26	16434
2026-01-28 06:59:14.46	34.04	21.76	-27.9	-28.8	20.1	0.00e+00	0	50	0	10594811904	26	16842
2026-01-28 06:59:15.46	33.67	21.67	-27.7	-28.6	20.4	0.00e+00	0	50	0	10653532160	26	16418
2026-01-28 06:59:16.46	33.31	21.57	-28.0	-28.8	20.1	0.00e+00	0	50	0	10712252416	26	16890
2026-01-28 06:59:17.45	32.95	21.47	-27.9	-28.8	19.9	0.00e+00	0	50	0	10770972672	26	16868
2026-01-28 06:59:18.45	32.60	21.38	-28.0	-28.9	20.0	0.00e+00	0	50	0	10829692928	26	17015
2026-01-28 06:59:19.45	32.24	21.28	-27.9	-28.7	20.1	0.00e+00	0	50	0	10888413184	26	16683
2026-01-28 06:59:20.45	31.89	21.18	-27.9	-28.8	19.9	0.00e+00	0	50	0	10947133440	27	15919
2026-01-28 06:59:21.44	31.54	21.08	-28.1	-28.9	19.5	0.00e+00	0	50	0	11005853696	27	16201
2026-01-28 06:59:22.44	31.20	20.98	-28.3	-29.1	19.5	0.00e+00	0	50	0	11064573952	27	16512
2026-01-28 06:59:23.45	30.85	20.88	-28.3	-29.1	19.7	0.00e+00	0	50	0	11131682816	27	16494
2026-01-28 06:59:24.44	30.51	20.78	-28.2	-29.1	19.7	0.00e+00	0	50	0	11190403072	27	16415
2026-01-28 06:59:25.44	30.17	20.68	-28.3	-29.1	19.5	0.00e+00	0	50	0	11249123328	27	16506
2026-01-28 06:59:26.44	29.84	20.58	-28.1	-28.9	19.6	0.00e+00	0	50	0	11307843584	27	16137
2026-01-28 06:59:27.44	29.50	20.48	-28.3	-29.2	19.5	0.00e+00	0	50	0	11366563840	27	16669
2026-01-28 06:59:28.44	29.17	20.38	-28.2	-29.0	19.7	0.00e+00	0	50	0	11425284096	27	16366
2026-01-28 06:59:29.44	28.84	20.27	-28.3	-29.2	19.7	0.00e+00	0	50	0	11484004352	27	16648
2026-01-28 06:59:30.44	28.52	20.17	-28.5	-29.4	19.6	0.00e+00	0	50	0	11551113216	27	16968
2026-01-28 06:59:31.44	28.19	20.07	-28.5	-29.3	19.6	0.00e+00	0	50	0	11609833472	27	16907
2026-01-28 06:59:32.44	27.87	19.97	-28.3	-29.2	19.5	0.00e+00	0	50	0	11668553728	27	16654
2026-01-28 06:59:33.44	27.55	19.86	-28.5	-29.3	19.3	0.00e+00	0	49	0	11727273984	27	16897
2026-01-28 06:59:34.44	27.24	19.76	-28.6	-29.4	19.2	0.00e+00	0	50	0	11785994240	28	16189
2026-01-28 06:59:35.44	26.92	19.65	-28.3	-29.1	19.4	0.00e+00	0	50	0	11844714496	28	15624
2026-01-28 06:59:36.45	26.61	19.55	-28.4	-29.3	19.4	0.00e+00	0	50	0	11911823360	28	15916
2026-01-28 06:59:37.45	26.30	19.44	-28.5	-29.4	19.4	0.00e+00	0	50	0	11970543616	28	16028
2026-01-28 06:59:38.45	25.99	19.34	-28.7	-29.6	19.2	0.00e+00	0	50	0	12029263872	28	16449
2026-01-28 06:59:39.45	25.69	19.23	-28.3	-29.2	19.4	0.00e+00	0	50	0	12087984128	28	15739
2026-01-28 06:59:40.44	25.39	19.13	-28.5	-29.4	19.3	0.00e+00	0	50	0	12146704384	28	16066
2026-01-28 06:59:41.45	25.09	19.02	-28.6	-29.4	19.3	0.00e+00	0	50	0	12205424640	28	16140
2026-01-28 06:59:42.44	24.79	18.92	-28.7	-29.6	19.2	0.00e+00	0	50	0	12264144896	28	16498
2026-01-28 06:59:43.44	24.50	18.81	-28.7	-29.6	19.4	0.00e+00	0	50	0	12331253760	28	16478
2026-01-28 06:59:44.44	24.21	18.71	-28.7	-29.6	19.6	0.00e+00	0	50	0	12389974016	28	16426
2026-01-28 06:59:45.43	23.92	18.60	-28.8	-29.6	19.5	0.00e+00	0	50	0	12448694272	28	16506
2026-01-28 06:59:46.43	23.63	18.50	-29.0	-29.8	19.4	0.00e+00	0	50	0	12507414528	28	16943
2026-01-28 06:59:47.43	23.35	18.39	-29.2	-30.1	19.1	0.00e+00	0	50	0	12566134784	29	16431
2026-01-28 06:59:48.43	23.07	18.29	-29.0	-29.8	19.4	0.00e+00	0	49	0	12624855040	29	15982
2026-01-28 06:59:49.43	22.79	18.18	-28.7	-29.6	19.5	0.00e+00	0	50	0	12691963904	29	15564
2026-01-28 06:59:50.43	22.51	18.07	-28.8	-29.7	19.4	0.00e+00	0	50	0	12750684160	29	15761
2026-01-28 06:59:51.43	22.23	17.97	-29.2	-30.1	19.2	0.00e+00	0	50	0	12809404416	29	16427
2026-01-28 06:59:52.43	21.96	17.86	-29.1	-29.9	19.2	0.00e+00	0	50	0	12868124672	29	16195
2026-01-28 06:59:53.43	21.69	17.76	-29.1	-30.0	19.2	0.00e+00	0	50	0	12926844928	29	16306
2026-01-28 06:59:54.43	21.42	17.65	-29.0	-29.9	19.3	0.00e+00	0	50	0	12985565184	29	16077
2026-01-28 06:59:55.43	21.15	17.54	-29.1	-30.0	19.3	0.00e+00	0	50	0	13044285440	29	16262
2026-01-28 06:59:56.43	20.89	17.44	-29.1	-30.0	19.2	0.00e+00	0	50	0	13111394304	29	16306
2026-01-28 06:59:57.43	20.63	17.33	-29.3	-30.1	19.2	0.00e+00	0	50	0	13170114560	29	16515
2026-01-28 06:59:58.42	20.37	17.23	-29.3	-30.2	18.6	0.00e+00	0	50	0	13228834816	29	16711
2026-01-28 06:59:59.42	20.11	17.12	-29.6	-30.4	18.9	0.00e+00	0	50	0	13287555072	29	17094
2026-01-28 07:00:00.42	19.86	17.02	-29.6	-30.4	18.9	0.00e+00	0	50	0	13346275328	29	17144
2026-01-28 07:00:01.41	19.61	16.91	-29.3	-30.2	19.0	0.00e+00	0	50	0	13404995584	29	16687
2026-01-28 07:00:02.41	19.35	16.81	-29.4	-30.3	18.9	0.00e+00	0	49	0	13463715840	29	16864
2026-01-28 07:00:03.41	19.10	16.70	-29.5	-30.4	18.8	0.00e+00	0	50	0	13530824704	29	17026
2026-01-28 07:00:04.41	18.86	16.59	-29.6	-30.5	18.7	0.00e+00	0	49	0	13589544960	29	17201
2026-01-28 07:00:05.41	18.61	16.49	-30.7	-31.1	18.4	0.00e+00	0	50	0	13648265216	31	16509
2026-01-28 07:00:06.41	18.37	16.38	-29.5	-30.4	18.9	0.00e+00	0	50	0	13706985472	30	16120
2026-01-28 07:00:07.41	18.13	16.28	-29.6	-30.4	19.0	0.00e+00	0	49	0	13765705728	30	16176
2026-01-28 07:00:08.41	17.89	16.17	-29.8	-30.7	19.0	0.00e+00	0	50	0	13824425984	30	16591
2026-01-28 07:00:09.40	17.65	16.07	-29.9	-30.7	19.1	0.00e+00	0	50	0	13891534848	30	16736
2026-01-28 07:00:10.40	17.42	15.97	-29.8	-30.7	19.2	0.00e+00	0	50	0	13950255104	31	15661
2026-01-28 07:00:11.40	17.19	15.86	-29.9	-30.8	19.1	0.00e+00	0	50	0	14008975360	31	15938
2026-01-28 07:00:12.40	16.95	15.76	-29.7	-30.5	19.3	0.00e+00	0	50	0	14067695616	31	15443
2026-01-28 07:00:13.40	16.72	15.65	-29.8	-30.6	19.3	0.00e+00	0	50	0	14126415872	31	15602
2026-01-28 07:00:14.39	16.50	15.55	-30.0	-30.8	19.0	0.00e+00	0	50	0	14185136128	31	15964
2026-01-28 07:00:15.39	16.27	15.45	-29.9	-30.7	18.9	0.00e+00	0	50	0	14243856384	31	15814
2026-01-28 07:00:16.39	16.05	15.34	-29.9	-30.8	18.7	0.00e+00	0	50	0	14302576640	31	15852
2026-01-28 07:00:17.38	15.83	15.24	-30.0	-30.9	18.5	0.00e+00	0	50	0	14361296896	31	16043
2026-01-28 07:00:18.37	15.61	15.14	-30.2	-31.0	18.1	0.00e+00	0	50	0	14428405760	31	16373
2026-01-28 07:00:19.37	15.39	15.04	-30.3	-31.1	17.8	0.00e+00	0	49	0	14487126016	31	16549
2026-01-28 07:00:20.37	15.18	14.93	-30.1	-31.0	17.8	0.00e+00	0	50	0	14545846272	31	16362
2026-01-28 07:00:21.36	14.97	14.83	-30.1	-30.9	17.9	0.00e+00	0	49	0	14604566528	31	16199
2026-01-28 07:00:22.36	14.75	14.73	-30.2	-31.1	17.9	0.00e+00	0	50	0	14663286784	31	16402
2026-01-28 07:00:23.36	14.54	14.63	-30.2	-31.1	17.9	0.00e+00	0	50	0	14722007040	31	16464
2026-01-28 07:00:24.35	14.33	14.53	-30.4	-31.3	17.9	0.00e+00	0	50	0	14780727296	31	16801
2026-01-28 07:00:25.35	14.13	14.43	-30.5	-31.4	17.8	0.00e+00	0	50	0	14839447552	31	17135
2026-01-28 07:00:26.34	13.92	14.33	-30.5	-31.4	18.0	0.00e+00	0	49	0	14898167808	32	16053
2026-01-28 07:00:27.34	13.72	14.23	-30.6	-31.5	17.8	0.00e+00	0	50	0	14965276672	32	16293
2026-01-28 07:00:28.34	13.52	14.13	-30.5	-31.4	18.1	0.00e+00	0	50	0	15023996928	32	16097
2026-01-28 07:00:29.34	13.32	14.02	-30.6	-31.5	18.1	0.00e+00	0	50	0	15082717184	32	16217
2026-01-28 07:00:30.34	13.12	13.92	-30.7	-31.6	18.2	0.00e+00	0	50	0	15141437440	32	16461
2026-01-28 07:00:31.34	12.92	13.82	-30.8	-31.7	18.3	0.00e+00	0	50	0	15200157696	32	16675
2026-01-28 07:00:32.34	12.72	13.72	-30.7	-31.6	18.4	0.00e+00	0	50	0	15258877952	32	16478
2026-01-28 07:00:33.33	12.53	13.63	-30.7	-31.6	18.4	0.00e+00	0	50	0	15317598208	32	16493
2026-01-28 07:00:34.33	12.34	13.53	-30.9	-31.8	18.1	0.00e+00	0	50	0	15384707072	32	16825
2026-01-28 07:00:35.32	12.15	13.43	-31.0	-31.9	17.8	0.00e+00	0	50	0	15443427328	32	17096
2026-01-28 07:00:36.32	11.96	13.33	-31.1	-32.0	17.5	0.00e+00	0	50	0	15502147584	32	17311
2026-01-28 07:00:37.32	11.77	13.23	-31.0	-31.8	17.7	0.00e+00	0	50	0	15560867840	33	15994
2026-01-28 07:00:38.32	11.58	13.13	-30.8	-31.7	17.7	0.00e+00	0	49	0	15619588096	33	15745
2026-01-28 07:00:39.31	11.40	13.04	-31.0	-31.8	17.7	0.00e+00	0	49	0	15678308352	33	16006
2026-01-28 07:00:40.32	11.22	12.94	-31.0	-31.9	17.7	0.00e+00	0	50	0	15745417216	33	16124
2026-01-28 07:00:41.31	11.04	12.84	-31.1	-32.0	17.7	0.00e+00	0	50	0	15804137472	33	16254
2026-01-28 07:00:42.31	10.85	12.74	-31.2	-32.1	17.5	0.00e+00	0	50	0	15862857728	33	16507
2026-01-28 07:00:43.31	10.68	12.65	-31.3	-32.2	17.3	0.00e+00	0	50	0	15921577984	33	16644
2026-01-28 07:00:44.31	10.50	12.55	-31.2	-32.1	17.2	0.00e+00	0	49	0	15980298240	33	16515
2026-01-28 07:00:45.31	10.32	12.46	-31.3	-32.2	17.0	0.00e+00	0	50	0	16039018496	33	16689
2026-01-28 07:00:46.31	10.15	12.36	-31.4	-32.3	17.0	0.00e+00	0	50	0	16097738752	33	16882
2026-01-28 07:00:47.31	9.97	12.26	-31.4	-32.3	17.1	0.00e+00	0	49	0	16164847616	33	16865
2026-01-28 07:00:48.30	9.80	12.17	-31.6	-32.5	17.2	0.00e+00	0	49	0	16223567872	33	17177
2026-01-28 07:00:49.30	9.63	12.07	-31.4	-32.3	17.5	0.00e+00	0	50	0	16282288128	34	15886
2026-01-28 07:00:50.30	9.46	11.98	-31.2	-32.1	17.5	0.00e+00	0	50	0	16341008384	34	15604
2026-01-28 07:00:51.30	9.30	11.88	-31.3	-32.2	17.1	0.00e+00	0	49	0	16399728640	34	15778
2026-01-28 07:00:52.29	9.13	11.79	-31.3	-32.3	16.9	0.00e+00	0	49	0	16458448896	34	15847
2026-01-28 07:00:53.28	8.97	11.70	-31.5	-32.5	16.7	0.00e+00	0	50	0	16517169152	34	16247
2026-01-28 07:00:54.29	8.80	11.60	-31.6	-32.6	16.7	0.00e+00	0	50	0	16575889408	34	16420
2026-01-28 07:00:55.29	8.64	11.51	-31.7	-32.6	16.8	0.00e+00	0	49	0	16634609664	34	16459
2026-01-28 07:00:56.29	8.48	11.42	-31.8	-32.7	16.9	0.00e+00	0	49	0	16701718528	34	16704
2026-01-28 07:00:57.29	8.32	11.32	-31.7	-32.6	17.1	0.00e+00	0	49	0	16760438784	34	16527
2026-01-28 07:00:58.29	8.16	11.23	-31.7	-32.6	17.1	0.00e+00	0	50	0	16819159040	34	16551
2026-01-28 07:00:59.29	8.00	11.14	-31.8	-32.7	17.1	0.00e+00	0	50	0	16877879296	34	16673
2026-01-28 07:01:00.29	7.85	11.05	-31.9	-32.8	17.0	0.00e+00	0	50	0	16936599552	34	16925
2026-01-28 07:01:01.29	7.69	10.96	-31.9	-32.9	17.1	0.00e+00	0	49	0	16995319808	34	16982
2026-01-28 07:01:02.29	7.54	10.86	-32.1	-33.0	17.1	0.00e+00	0	49	0	17062428672	34	17224
2026-01-28 07:01:03.29	7.38	10.77	-32.3	-33.2	17.1	0.00e+00	0	50	0	17121148928	35	16660
2026-01-28 07:01:04.29	7.23	10.68	-32.1	-33.0	17.3	0.00e+00	0	49	0	17179869184	35	16294
2026-01-28 07:01:05.28	7.08	10.59	-32.0	-32.9	17.4	0.00e+00	0	50	0	17238589440	35	16080
2026-01-28 07:01:06.29	6.93	10.50	-31.9	-32.8	17.3	0.00e+00	0	49	0	17297309696	35	16013
2026-01-28 07:01:07.28	6.79	10.41	-32.0	-32.9	17.1	0.00e+00	0	49	0	17356029952	35	16174
2026-01-28 07:01:08.28	6.64	10.32	-32.1	-33.0	16.8	0.00e+00	0	50	0	17414750208	35	16387
2026-01-28 07:01:09.28	6.49	10.23	-32.1	-33.0	16.6	0.00e+00	0	49	0	17481859072	35	16377
2026-01-28 07:01:10.28	6.35	10.14	-32.3	-33.2	16.1	0.00e+00	0	49	0	17540579328	35	16672
2026-01-28 07:01:11.27	6.21	10.06	-32.4	-33.4	15.7	0.00e+00	0	49	0	17599299584	35	17005
2026-01-28 07:01:12.28	6.06	9.97	-32.2	-33.2	15.8	0.00e+00	0	49	0	17658019840	35	16662
2026-01-28 07:01:13.28	5.92	9.88	-32.2	-33.2	15.6	0.00e+00	0	49	0	17716740096	35	16721
2026-01-28 07:01:14.28	5.78	9.79	-32.3	-33.3	15.6	0.00e+00	0	49	0	17775460352	35	16853
2026-01-28 07:01:15.28	5.64	9.70	-32.5	-33.5	15.4	0.00e+00	0	49	0	17842569216	35	17251
2026-01-28 07:01:16.28	5.51	9.61	-32.4	-33.4	15.6	0.00e+00	0	49	0	17901289472	35	16967
2026-01-28 07:01:17.28	5.37	9.53	-32.5	-33.5	15.6	0.00e+00	0	50	0	17960009728	35	17201
2026-01-28 07:01:18.28	5.23	9.44	-32.7	-33.6	15.5	0.00e+00	0	49	0	18018729984	35	17520
2026-01-28 07:01:19.28	5.10	9.35	-33.7	-34.7	16.0	0.00e+00	0	49	0	18077450240	39	15688
2026-01-28 07:01:20.28	4.96	9.27	-33.9	-34.8	15.9	0.00e+00	0	49	0	18136170496	39	15987
2026-01-28 07:01:21.28	4.83	9.18	-33.9	-34.8	16.0	0.00e+00	0	49	0	18194890752	39	16016
2026-01-28 07:01:22.27	4.70	9.10	-33.9	-34.8	16.4	0.00e+00	0	49	0	18261999616	39	15983
2026-01-28 07:01:23.27	4.57	9.01	-34.1	-35.0	16.4	0.00e+00	0	50	0	18320719872	39	16318
2026-01-28 07:01:24.27	4.44	8.93	-48.5	-53.9	3.7	3.46e-02	0	49	104	18362662912	67	28811
2026-01-28 07:01:25.26	4.31	8.84	-50.3	-55.9	3.7	3.46e-02	0	49	104	18362662912	72	27036
2026-01-28 07:01:26.26	4.18	8.76	-51.0	-56.3	3.7	3.46e-02	0	49	104	18362662912	73	26694
2026-01-28 07:01:27.26	4.06	8.67	-50.7	-56.0	3.7	3.46e-02	0	49	104	18362662912	72	27442
2026-01-28 07:01:28.26	3.93	8.59	-52.0	-56.8	3.7	3.46e-02	0	49	104	18362662912	74	26816
2026-01-28 07:01:29.26	3.81	8.50	-53.0	-57.4	3.7	3.46e-02	0	49	104	18362662912	76	25553
2026-01-28 07:01:30.27	3.68	8.42	-52.7	-57.4	3.7	3.46e-02	0	49	104	18362662912	76	25533
2026-01-28 07:01:31.26	3.56	8.34	-53.0	-57.6	3.7	3.46e-02	0	49	104	18362662912	76	26209
2026-01-28 07:01:32.26	3.44	8.25	-51.8	-57.0	3.7	3.46e-02	0	49	104	18362662912	75	25810
2026-01-28 07:01:33.26	3.31	8.17	-53.1	-57.8	3.7	3.46e-02	0	49	104	18362662912	77	25097
2026-01-28 07:01:34.25	3.19	8.09	-52.9	-57.7	3.7	3.46e-02	0	49	104	18362662912	77	24901
2026-01-28 07:01:35.25	3.07	8.01	-52.5	-57.4	3.7	3.46e-02	0	49	104	18362662912	76	25646
2026-01-28 07:01:36.25	2.96	7.92	-52.9	-57.7	3.7	3.46e-02	0	49	104	18362662912	76	26346
2026-01-28 07:01:37.24	2.84	7.84	-53.4	-58.0	3.7	3.46e-02	0	49	104	18362662912	77	25738
2026-01-28 07:01:38.24	2.72	7.76	-52.2	-57.3	3.7	3.46e-02	0	49	104	18362662912	76	25144
2026-01-28 07:01:39.23	2.61	7.68	-53.4	-58.0	3.7	3.46e-02	0	49	104	18362662912	77	25731
2026-01-28 07:01:40.23	2.49	7.60	-52.6	-57.5	3.7	3.46e-02	0	49	104	18362662912	76	25698
2026-01-28 07:01:41.22	2.38	7.52	-52.5	-57.3	3.7	3.46e-02	0	49	104	18362662912	76	25345
2026-01-28 07:01:42.22	2.26	7.44	-52.4	-57.4	3.7	3.46e-02	0	49	104	18362662912	76	25445
2026-01-28 07:01:43.22	2.15	7.36	-53.1	-57.7	3.7	3.46e-02	0	49	104	18362662912	77	24925
2026-01-28 07:01:44.22	2.04	7.28	-53.0	-57.6	3.7	3.46e-02	0	49	104	18362662912	77	24591
2026-01-28 07:01:45.22	1.93	7.20	-53.2	-57.6	3.7	3.46e-02	0	49	104	18362662912	77	24791
2026-01-28 07:01:46.22	1.82	7.12	-53.1	-57.5	3.7	3.46e-02	0	49	104	18362662912	77	24426
2026-01-28 07:01:47.21	1.71	7.04	-53.0	-57.6	3.7	3.46e-02	0	49	104	18362662912	77	24621
2026-01-28 07:01:48.21	1.60	6.96	-53.0	-57.6	3.7	3.46e-02	0	49	104	18362662912	77	24736
2026-01-28 07:01:49.21	1.49	6.88	-53.1	-57.6	3.7	3.46e-02	0	48	104	18362662912	77	24702
2026-01-28 07:01:50.21	1.38	6.81	-52.7	-57.4	3.7	3.46e-02	0	49	104	18362662912	77	24105
2026-01-28 07:01:51.21	1.28	6.73	-52.6	-57.3	3.7	3.46e-02	0	48	104	18362662912	77	23882
2026-01-28 07:01:52.20	1.17	6.65	-52.9	-57.6	3.7	3.46e-02	0	48	104	18362662912	77	24568
2026-01-28 07:01:53.20	1.07	6.57	-52.9	-57.4	3.7	3.46e-02	0	49	104	18362662912	77	24237
2026-01-28 07:01:54.20	0.96	6.49	-52.1	-56.0	3.7	3.46e-02	0	49	104	18362662912	76	21638
2026-01-28 07:01:55.20	0.86	6.42	-52.5	-56.6	3.7	3.46e-02	0	49	104	18362662912	76	23304
2026-01-28 07:01:56.20	0.75	6.34	-51.6	-55.4	3.7	3.46e-02	0	48	104	18362662912	75	21588
2026-01-28 07:01:57.20	0.65	6.26	-51.4	-55.1	3.7	3.46e-02	0	48	104	18362662912	74	22095
2026-01-28 07:01:58.20	0.55	6.19	-51.4	-55.1	3.7	3.46e-02	0	49	104	18362662912	74	22106
2026-01-28 07:01:59.20	0.45	6.11	-51.4	-55.2	3.7	3.46e-02	0	49	104	18362662912	74	22168
2026-01-28 07:02:00.20	0.35	6.03	-51.4	-55.2	3.7	3.46e-02	0	48	104	18362662912	74	22153
2026-01-28 07:02:01.20	0.25	5.96	-51.4	-55.2	3.7	0.00e+00	0	49	104	18362662912	74	22140
2026-01-28 07:02:02.19	0.15	5.88	-51.4	-55.1	3.7	0.00e+00	0	48	104	18362662912	74	22055
2026-01-28 07:02:03.19	0.05	5.81	-51.4	-55.1	3.7	0.00e+00	0	48	104	18362662912	74	22084
2026-01-28 07:02:04.19	359.96	5.73	-51.4	-55.2	3.7	0.00e+00	0	48	104	18362662912	74	22120
2026-01-28 07:02:05.19	359.86	5.66	-51.4	-55.2	3.7	0.00e+00	0	48	104	18362662912	74	22134
2026-01-28 07:02:06.18	359.76	5.58	-51.4	-55.2	3.7	0.00e+00	0	48	104	18362662912	74	22174
2026-01-28 07:02:07.18	359.67	5.51	-51.4	-55.2	3.7	0.00e+00	0	48	104	18362662912	74	22128
2026-01-28 07:02:08.18	359.57	5.44	-51.4	-55.1	3.7	0.00e+00	0	49	104	18362662912	74	22100
2026-01-28 07:02:09.18	359.48	5.36	-51.4	-55.2	3.7	0.00e+00	0	49	104	18362662912	74	22159
2026-01-28 07:02:10.18	359.38	5.29	-51.4	-55.1	3.7	0.00e+00	0	48	104	18362662912	74	22035
2026-01-28 07:02:11.18	359.29	5.21	-51.4	-55.1	3.7	0.00e+00	0	48	104	18362662912	74	22058
2026-01-28 07:02:12.17	359.20	5.14	-51.4	-55.2	3.7	0.00e+00	0	48	104	18362662912	74	22143
2026-01-28 07:02:13.17	359.11	5.07	-51.4	-55.2	3.7	0.00e+00	0	49	104	18362662912	74	22114
2026-01-28 07:02:14.17	359.02	4.99	-51.4	-55.2	3.7	0.00e+00	0	48	104	18362662912	74	22112

#Closed at: 2026-01-28 07:02:15
#Recorded file [18362 MB]: D:/Data/31040_260128_095405.dat