passes_logs/2026/01/28/T1/T1__20260128_000203_NOAA_21_JPSS-2_rec.log

#Pass ID: 20260128_000203_NOAA 21 (JPSS-2)
#Satellite: NOAA 21 (JPSS-2)
#Configuration: NOAA 21
#almurnet v.1.7.20251203
#Start time: 2026-01-28 00:02:04

#Version: 2.0.20230620
#Station: T1
#Location: 37.570604 lon 55.790049 lat
#TLE: 1 54234U 22150A   26027.41809747  .00000179  00000+0  10565-3 0  9991
#TLE: 2 54234  98.7510 328.1683 0000854 205.0798 155.0336 14.19540145166571

#Time	Az	El	Level	Level2	SNR	BER	BlckErr	Temp	State	Recorded	gain1	gain2
2026-01-28 00:02:04.97	14.10	5.13	-50.3	-63.4	3.8	1.49e+00	0	41	0	0	71	16983
2026-01-28 00:02:05.96	14.08	5.20	-50.4	-63.4	3.8	1.49e+00	0	41	104	0	72	16062
2026-01-28 00:02:06.96	14.07	5.27	-50.4	-63.4	3.8	1.49e+00	0	42	104	0	72	16109
2026-01-28 00:02:07.95	14.05	5.34	-50.4	-63.4	3.8	1.49e+00	0	41	104	0	72	16094
2026-01-28 00:02:08.94	14.04	5.42	-50.4	-63.4	3.8	1.49e+00	0	42	104	0	72	16096
2026-01-28 00:02:09.94	14.02	5.49	-50.3	-63.4	3.8	1.49e+00	0	42	104	0	72	15998
2026-01-28 00:02:10.93	14.01	5.56	-50.2	-63.4	3.8	1.49e+00	0	42	104	0	72	15962
2026-01-28 00:02:11.92	13.99	5.63	-50.3	-63.3	3.8	1.49e+00	0	42	104	0	72	15917
2026-01-28 00:02:12.91	13.98	5.70	-50.3	-63.3	3.8	1.49e+00	0	42	104	0	72	15865
2026-01-28 00:02:13.91	13.96	5.78	-50.2	-63.3	3.8	1.49e+00	0	42	104	0	72	15821
2026-01-28 00:02:14.90	13.95	5.85	-50.2	-63.3	3.8	1.49e+00	0	42	104	0	72	15766
2026-01-28 00:02:15.89	13.93	5.92	-50.1	-63.2	3.8	1.49e+00	0	42	104	0	72	15678
2026-01-28 00:02:16.89	13.92	5.99	-50.0	-63.1	3.8	1.49e+00	0	42	104	0	72	15504
2026-01-28 00:02:17.88	13.90	6.07	-49.6	-63.1	3.8	1.49e+00	0	42	104	0	71	16408
2026-01-28 00:02:18.87	13.88	6.14	-49.9	-63.0	3.8	1.49e+00	0	42	104	0	71	16269
2026-01-28 00:02:19.87	13.87	6.21	-49.7	-63.0	3.8	1.49e+00	0	42	104	0	71	16267
2026-01-28 00:02:20.86	13.85	6.29	-49.4	-63.0	3.8	1.49e+00	0	42	104	0	70	17118
2026-01-28 00:02:21.85	13.84	6.36	-49.4	-62.9	3.8	1.49e+00	0	42	104	0	70	17038
2026-01-28 00:02:22.85	13.82	6.43	-48.5	-62.9	3.8	1.49e+00	0	42	104	0	69	17901
2026-01-28 00:02:23.84	13.80	6.51	-49.5	-62.7	3.8	1.49e+00	0	42	104	0	69	17554
2026-01-28 00:02:24.83	13.79	6.58	-47.6	-62.5	3.8	1.49e+00	0	42	104	0	67	19222
2026-01-28 00:02:25.82	13.77	6.66	-49.1	-62.4	3.8	1.49e+00	0	42	104	0	68	17938
2026-01-28 00:02:26.82	13.75	6.73	-49.0	-62.0	3.8	1.49e+00	0	42	104	0	68	17151
2026-01-28 00:02:27.81	13.74	6.81	-49.0	-61.9	3.8	1.49e+00	0	42	104	0	68	16889
2026-01-28 00:02:28.80	13.72	6.88	-49.0	-61.7	3.8	1.49e+00	0	42	104	0	68	16562
2026-01-28 00:02:29.80	13.70	6.96	-49.0	-61.6	3.8	1.49e+00	0	42	104	0	68	16362
2026-01-28 00:02:30.79	13.69	7.03	-49.0	-61.6	3.8	1.49e+00	0	42	104	0	68	16315
2026-01-28 00:02:31.78	13.67	7.11	-49.0	-61.4	3.8	1.49e+00	0	42	104	0	68	16026
2026-01-28 00:02:32.77	13.65	7.19	-49.0	-61.3	3.8	1.49e+00	0	42	104	0	68	15879
2026-01-28 00:02:33.77	13.63	7.26	-48.9	-61.2	3.8	1.49e+00	0	42	104	0	68	15716
2026-01-28 00:02:34.76	13.62	7.34	-48.9	-61.0	3.8	1.49e+00	0	42	104	0	68	15355
2026-01-28 00:02:35.75	13.60	7.42	-48.9	-60.5	3.9	1.49e+00	0	42	104	0	68	14419
2026-01-28 00:02:36.75	13.58	7.49	-48.9	-60.2	4.0	1.49e+00	0	43	104	0	68	13938
2026-01-28 00:02:37.74	13.56	7.57	-48.8	-59.7	4.0	1.48e+00	0	42	104	0	68	13172
2026-01-28 00:02:38.73	13.54	7.65	-48.7	-59.0	4.2	1.47e+00	0	42	104	0	68	12169
2026-01-28 00:02:39.73	13.53	7.73	-48.6	-58.8	3.9	1.45e+00	0	43	104	0	68	11895
2026-01-28 00:02:40.72	13.51	7.80	-48.5	-57.5	4.8	1.16e+00	0	43	104	0	68	10188
2026-01-28 00:02:41.71	13.49	7.88	-48.3	-56.5	5.3	5.77e-01	0	43	0	0	68	9074
2026-01-28 00:02:42.70	13.47	7.96	-48.1	-55.5	6.0	3.62e-01	0	43	0	0	68	8141
2026-01-28 00:02:43.70	13.45	8.04	-47.7	-54.3	6.8	2.27e-01	0	43	0	0	67	7468
2026-01-28 00:02:44.69	13.43	8.12	-47.4	-53.3	7.8	1.14e-01	0	43	0	0	66	7056
2026-01-28 00:02:45.68	13.42	8.20	-47.1	-52.5	8.5	4.40e-02	0	43	0	0	66	6486
2026-01-28 00:02:46.68	13.40	8.28	-46.7	-51.6	9.5	1.81e-02	0	43	0	0	65	6142
2026-01-28 00:02:47.67	13.38	8.36	-46.5	-51.0	10.0	1.24e-02	0	43	0	0	64	6130
2026-01-28 00:02:48.66	13.36	8.44	-46.2	-50.4	10.7	4.17e-03	0	43	0	0	64	5716
2026-01-28 00:02:49.65	13.34	8.52	-46.0	-50.1	11.1	2.06e-03	0	43	0	0	64	5479
2026-01-28 00:02:50.65	13.32	8.60	-45.8	-49.7	11.5	9.39e-04	0	43	0	0	63	5575
2026-01-28 00:02:51.64	13.30	8.68	-45.8	-49.7	11.6	1.07e-03	0	43	0	0	63	5530
2026-01-28 00:02:52.63	13.28	8.76	-45.8	-49.7	11.6	7.61e-04	0	43	0	0	63	5550
2026-01-28 00:02:53.62	13.26	8.84	-46.0	-50.0	11.2	9.91e-04	0	43	0	0	63	5746
2026-01-28 00:02:54.62	13.24	8.92	-46.1	-50.1	11.1	1.32e-03	0	43	0	0	63	5851
2026-01-28 00:02:55.61	13.22	9.00	-46.3	-50.7	10.5	3.29e-03	0	43	0	0	63	6228
2026-01-28 00:02:56.60	13.20	9.08	-47.2	-52.7	8.4	2.15e-02	0	43	0	0	64	7410
2026-01-28 00:02:57.60	13.18	9.17	-46.2	-50.5	10.6	1.01e-01	0	43	0	0	64	5771
2026-01-28 00:02:58.59	13.16	9.25	-47.0	-52.2	9.1	9.28e-04	0	43	0	0	64	7015
2026-01-28 00:02:59.58	13.14	9.33	-48.0	-55.9	5.6	7.68e-01	0	43	0	0	67	9020
2026-01-28 00:03:00.58	13.12	9.42	-45.0	-48.4	12.7	1.05e-01	0	43	0	0	62	5052
2026-01-28 00:03:01.57	13.09	9.50	-42.7	-45.1	16.1	0.00e+00	0	43	0	0	57	4624
2026-01-28 00:03:02.56	13.07	9.58	-42.2	-44.5	16.7	0.00e+00	0	43	0	0	56	4579
2026-01-28 00:03:03.55	13.05	9.67	-41.6	-43.8	17.2	0.00e+00	0	43	0	0	55	4483
2026-01-28 00:03:04.55	13.03	9.75	-41.6	-43.8	17.2	0.00e+00	0	43	0	0	55	4458
2026-01-28 00:03:05.54	13.01	9.84	-41.5	-43.7	17.3	0.00e+00	0	43	0	0	55	4413
2026-01-28 00:03:06.53	12.99	9.92	-41.5	-43.7	17.3	0.00e+00	0	43	0	0	54	4665
2026-01-28 00:03:07.53	12.96	10.01	-41.6	-43.7	17.3	0.00e+00	0	43	0	0	54	4695
2026-01-28 00:03:08.52	12.94	10.09	-41.4	-43.5	17.5	0.00e+00	0	43	0	0	54	4597
2026-01-28 00:03:09.51	12.92	10.18	-41.5	-43.6	17.4	0.00e+00	0	43	0	0	54	4633
2026-01-28 00:03:10.50	12.90	10.26	-41.4	-43.5	17.5	0.00e+00	0	43	0	0	54	4587
2026-01-28 00:03:11.50	12.88	10.35	-41.4	-43.5	17.5	0.00e+00	0	43	0	0	54	4575
2026-01-28 00:03:12.49	12.85	10.43	-41.4	-43.5	17.5	0.00e+00	0	43	0	0	54	4577
2026-01-28 00:03:13.48	12.83	10.52	-41.2	-43.3	17.7	0.00e+00	0	43	0	0	54	4459
2026-01-28 00:03:14.48	12.81	10.61	-41.3	-43.4	17.6	0.00e+00	0	43	0	0	54	4508
2026-01-28 00:03:15.47	12.78	10.70	-41.3	-43.4	17.6	0.00e+00	0	43	0	0	54	4516
2026-01-28 00:03:16.46	12.76	10.78	-41.3	-43.5	17.5	0.00e+00	0	43	0	0	54	4560
2026-01-28 00:03:17.46	12.74	10.87	-41.2	-43.3	17.7	0.00e+00	0	43	0	0	54	4473
2026-01-28 00:03:18.45	12.71	10.96	-41.2	-43.4	17.7	0.00e+00	0	43	0	0	54	4497
2026-01-28 00:03:19.44	12.69	11.05	-41.1	-43.2	17.8	0.00e+00	0	43	0	0	54	4412
2026-01-28 00:03:20.44	12.67	11.14	-41.1	-43.2	17.8	0.00e+00	0	43	0	0	54	4418
2026-01-28 00:03:21.43	12.64	11.23	-41.0	-43.0	18.0	0.00e+00	0	43	0	0	53	4582
2026-01-28 00:03:22.42	12.62	11.32	-40.9	-43.0	18.0	0.00e+00	0	43	0	0	53	4555
2026-01-28 00:03:23.41	12.59	11.41	-41.0	-43.0	18.0	0.00e+00	0	43	0	0	53	4591
2026-01-28 00:03:24.41	12.57	11.50	-40.9	-43.0	18.1	0.00e+00	0	43	0	0	53	4550
2026-01-28 00:03:25.40	12.54	11.59	-40.9	-43.0	18.1	0.00e+00	0	43	0	0	53	4559
2026-01-28 00:03:26.39	12.52	11.68	-40.9	-43.0	18.0	0.00e+00	0	43	0	0	53	4590
2026-01-28 00:03:27.38	12.49	11.77	-40.8	-42.9	18.1	0.00e+00	0	43	0	0	53	4526
2026-01-28 00:03:28.38	12.47	11.86	-40.9	-43.0	18.1	0.00e+00	0	43	0	0	53	4553
2026-01-28 00:03:29.37	12.44	11.95	-40.9	-42.9	18.1	0.00e+00	0	43	0	0	53	4539
2026-01-28 00:03:30.36	12.42	12.05	-40.7	-42.7	18.3	0.00e+00	0	43	0	0	53	4439
2026-01-28 00:03:31.36	12.39	12.14	-40.7	-42.8	18.3	0.00e+00	0	43	0	0	53	4449
2026-01-28 00:03:32.35	12.36	12.23	-40.6	-42.7	18.4	0.00e+00	0	43	0	0	53	4401
2026-01-28 00:03:33.34	12.34	12.32	-40.6	-42.6	18.4	0.00e+00	0	43	0	0	53	4377
2026-01-28 00:03:34.34	12.31	12.42	-40.6	-42.6	18.4	0.00e+00	0	43	0	0	53	4363
2026-01-28 00:03:35.33	12.28	12.51	-40.7	-42.7	18.3	0.00e+00	0	43	0	0	53	4420
2026-01-28 00:03:36.32	12.26	12.61	-40.6	-42.6	18.4	0.00e+00	0	43	0	0	53	4380
2026-01-28 00:03:37.32	12.23	12.70	-40.6	-42.6	18.5	0.00e+00	0	43	0	0	53	4361
2026-01-28 00:03:38.31	12.20	12.80	-40.5	-42.5	18.6	0.00e+00	0	43	0	0	53	4311
2026-01-28 00:03:39.30	12.17	12.89	-40.5	-42.5	18.5	0.00e+00	0	43	0	0	53	4329
2026-01-28 00:03:40.29	12.15	12.99	-40.6	-42.5	18.5	0.00e+00	0	43	0	0	52	4594
2026-01-28 00:03:41.29	12.12	13.08	-40.6	-42.5	18.6	0.00e+00	0	43	0	0	52	4591
2026-01-28 00:03:42.28	12.09	13.18	-40.6	-42.5	18.6	0.00e+00	0	43	0	0	52	4594
2026-01-28 00:03:43.27	12.06	13.28	-40.7	-42.7	18.4	0.00e+00	0	43	0	0	52	4683
2026-01-28 00:03:44.27	12.03	13.38	-40.8	-42.8	18.3	0.00e+00	0	43	0	0	52	4754
2026-01-28 00:03:45.26	12.00	13.47	-40.7	-42.7	18.4	0.00e+00	0	43	0	0	52	4664
2026-01-28 00:03:46.25	11.97	13.57	-40.7	-42.6	18.4	0.00e+00	0	43	0	0	52	4650
2026-01-28 00:03:47.25	11.95	13.67	-40.7	-42.8	18.4	0.00e+00	0	43	0	0	52	4708
2026-01-28 00:03:48.24	11.92	13.77	-40.6	-42.5	18.6	0.00e+00	0	44	0	0	52	4596
2026-01-28 00:03:49.23	11.89	13.87	-40.6	-42.6	18.5	0.00e+00	0	43	0	0	52	4643
2026-01-28 00:03:50.22	11.86	13.97	-40.5	-42.5	18.6	0.00e+00	0	43	0	0	52	4577
2026-01-28 00:03:51.22	11.83	14.07	-40.6	-42.5	18.6	0.00e+00	0	43	0	0	52	4592
2026-01-28 00:03:52.21	11.80	14.17	-40.6	-42.5	18.6	0.00e+00	0	43	0	0	52	4594
2026-01-28 00:03:53.20	11.77	14.27	-40.6	-42.5	18.6	0.00e+00	0	44	0	0	52	4593
2026-01-28 00:03:54.20	11.73	14.37	-40.5	-42.5	18.6	0.00e+00	0	43	0	0	52	4582
2026-01-28 00:03:55.19	11.70	14.47	-40.6	-42.6	18.5	0.00e+00	0	43	0	0	52	4636
2026-01-28 00:03:56.18	11.67	14.57	-40.6	-42.5	18.6	0.00e+00	0	43	0	0	52	4591
2026-01-28 00:03:57.17	11.64	14.68	-40.5	-42.5	18.6	0.00e+00	0	43	0	0	52	4583
2026-01-28 00:03:58.17	11.61	14.78	-40.7	-42.7	18.4	0.00e+00	0	43	0	0	52	4683
2026-01-28 00:03:59.16	11.58	14.88	-40.6	-42.6	18.5	0.00e+00	0	43	0	0	52	4612
2026-01-28 00:04:00.15	11.54	14.99	-40.7	-42.6	18.5	0.00e+00	0	43	0	0	52	4640
2026-01-28 00:04:01.15	11.51	15.09	-40.6	-42.5	18.6	0.00e+00	0	43	0	0	52	4594
2026-01-28 00:04:02.14	11.48	15.20	-40.6	-42.6	18.5	0.00e+00	0	43	0	0	52	4631
2026-01-28 00:04:03.13	11.45	15.30	-40.7	-42.7	18.4	0.00e+00	0	43	0	0	52	4671
2026-01-28 00:04:04.13	11.41	15.41	-40.6	-42.6	18.5	0.00e+00	0	43	0	0	52	4620
2026-01-28 00:04:05.12	11.38	15.51	-40.6	-42.6	18.6	0.00e+00	0	44	0	0	52	4617
2026-01-28 00:04:06.11	11.34	15.62	-40.6	-42.5	18.6	0.00e+00	0	43	0	0	52	4596
2026-01-28 00:04:07.10	11.31	15.73	-40.6	-42.6	18.6	0.00e+00	0	44	0	0	52	4613
2026-01-28 00:04:08.10	11.28	15.83	-40.6	-42.6	18.6	0.00e+00	0	44	0	0	52	4611
2026-01-28 00:04:09.09	11.24	15.94	-40.6	-42.5	18.6	0.00e+00	0	43	0	0	52	4576
2026-01-28 00:04:10.08	11.21	16.05	-40.6	-42.6	18.6	0.00e+00	0	43	0	0	52	4604
2026-01-28 00:04:11.08	11.17	16.16	-40.6	-42.5	18.6	0.00e+00	0	44	0	0	52	4580
2026-01-28 00:04:12.07	11.13	16.27	-40.7	-42.7	18.5	0.00e+00	0	43	0	0	52	4666
2026-01-28 00:04:13.06	11.10	16.38	-40.6	-42.5	18.6	0.00e+00	0	43	0	0	52	4598
2026-01-28 00:04:14.05	11.06	16.49	-40.6	-42.6	18.6	0.00e+00	0	43	0	0	52	4616
2026-01-28 00:04:15.05	11.03	16.60	-40.7	-42.6	18.6	0.00e+00	0	44	0	0	52	4628
2026-01-28 00:04:16.04	10.99	16.71	-40.7	-42.7	18.5	0.00e+00	0	44	0	0	52	4679
2026-01-28 00:04:17.03	10.95	16.82	-40.7	-42.7	18.6	0.00e+00	0	43	0	0	52	4657
2026-01-28 00:04:18.03	10.91	16.94	-40.7	-42.6	18.6	0.00e+00	0	44	0	0	52	4646
2026-01-28 00:04:19.02	10.88	17.05	-40.6	-42.5	18.7	0.00e+00	0	43	0	0	52	4576
2026-01-28 00:04:20.01	10.84	17.16	-40.6	-42.5	18.7	0.00e+00	0	43	0	0	52	4598
2026-01-28 00:04:21.01	10.80	17.28	-40.7	-42.6	18.6	0.00e+00	0	43	0	0	52	4639
2026-01-28 00:04:22.00	10.76	17.39	-40.6	-42.5	18.7	0.00e+00	0	43	0	0	52	4592
2026-01-28 00:04:22.99	10.72	17.50	-40.7	-42.6	18.6	0.00e+00	0	44	0	0	52	4637
2026-01-28 00:04:23.99	10.68	17.62	-40.6	-42.5	18.7	0.00e+00	0	43	0	0	52	4591
2026-01-28 00:04:24.98	10.64	17.74	-40.6	-42.6	18.7	0.00e+00	0	43	0	0	52	4606
2026-01-28 00:04:25.97	10.60	17.85	-40.6	-42.5	18.8	0.00e+00	0	43	0	0	52	4598
2026-01-28 00:04:26.96	10.56	17.97	-40.6	-42.6	18.7	0.00e+00	0	44	0	0	52	4612
2026-01-28 00:04:27.96	10.52	18.09	-40.7	-42.6	18.7	0.00e+00	0	43	0	0	52	4646
2026-01-28 00:04:28.95	10.48	18.20	-40.6	-42.5	18.8	0.00e+00	0	44	0	0	52	4569
2026-01-28 00:04:29.94	10.44	18.32	-40.6	-42.6	18.7	0.00e+00	0	44	0	0	52	4610
2026-01-28 00:04:30.93	10.40	18.44	-40.5	-42.5	18.8	0.00e+00	0	44	0	0	52	4550
2026-01-28 00:04:31.93	10.36	18.56	-40.6	-42.5	18.8	0.00e+00	0	43	0	0	52	4564
2026-01-28 00:04:32.92	10.31	18.68	-40.6	-42.5	18.8	0.00e+00	0	43	0	0	52	4570
2026-01-28 00:04:33.91	10.27	18.80	-40.6	-42.5	18.7	0.00e+00	0	44	0	0	52	4595
2026-01-28 00:04:34.91	10.23	18.93	-40.5	-42.4	18.8	0.00e+00	0	44	0	0	52	4543
2026-01-28 00:04:35.90	10.19	19.05	-40.5	-42.5	18.8	0.00e+00	0	43	0	0	52	4560
2026-01-28 00:04:36.89	10.14	19.17	-40.5	-42.4	18.9	0.00e+00	0	43	0	0	52	4515
2026-01-28 00:04:37.89	10.10	19.29	-40.4	-42.3	19.0	0.00e+00	0	44	0	0	52	4476
2026-01-28 00:04:38.88	10.05	19.42	-40.4	-42.3	18.9	0.00e+00	0	44	0	0	52	4488
2026-01-28 00:04:39.87	10.01	19.54	-40.4	-42.3	19.0	0.00e+00	0	44	0	0	52	4474
2026-01-28 00:04:40.86	9.96	19.67	-40.4	-42.3	19.0	0.00e+00	0	44	0	0	52	4471
2026-01-28 00:04:41.86	9.92	19.79	-40.4	-42.3	19.0	0.00e+00	0	44	0	0	52	4451
2026-01-28 00:04:42.85	9.87	19.92	-40.3	-42.1	19.1	0.00e+00	0	44	0	0	52	4391
2026-01-28 00:04:43.84	9.82	20.04	-40.3	-42.2	19.1	0.00e+00	0	44	0	0	52	4414
2026-01-28 00:04:44.83	9.78	20.17	-40.3	-42.2	19.0	0.00e+00	0	43	0	0	52	4425
2026-01-28 00:04:45.83	9.73	20.30	-40.2	-42.1	19.2	0.00e+00	0	44	0	0	52	4355
2026-01-28 00:04:46.82	9.68	20.43	-40.2	-42.1	19.1	0.00e+00	0	44	0	0	52	4356
2026-01-28 00:04:47.81	9.63	20.56	-40.2	-42.0	19.2	0.00e+00	0	44	0	0	52	4336
2026-01-28 00:04:48.80	9.58	20.69	-40.1	-41.9	19.3	0.00e+00	0	44	0	0	52	4266
2026-01-28 00:04:49.80	9.53	20.82	-40.0	-41.9	19.3	0.00e+00	0	44	0	0	52	4255
2026-01-28 00:04:50.79	9.48	20.95	-40.0	-41.8	19.4	0.00e+00	0	44	0	0	52	4218
2026-01-28 00:04:51.78	9.43	21.08	-40.0	-41.8	19.4	0.00e+00	0	44	0	0	51	4464
2026-01-28 00:04:52.78	9.38	21.22	-40.0	-41.8	19.4	0.00e+00	0	44	0	0	51	4477
2026-01-28 00:04:53.77	9.33	21.35	-40.1	-41.9	19.3	0.00e+00	0	44	0	0	51	4512
2026-01-28 00:04:54.76	9.28	21.48	-39.9	-41.7	19.5	0.00e+00	0	44	0	0	51	4419
2026-01-28 00:04:55.76	9.23	21.62	-39.8	-41.6	19.6	0.00e+00	0	43	0	0	51	4383
2026-01-28 00:04:56.75	9.18	21.75	-39.7	-41.5	19.7	0.00e+00	0	44	0	0	51	4314
2026-01-28 00:04:57.74	9.12	21.89	-39.9	-41.6	19.6	0.00e+00	0	44	0	0	51	4383
2026-01-28 00:04:58.73	9.07	22.03	-39.7	-41.5	19.7	0.00e+00	0	43	0	0	51	4310
2026-01-28 00:04:59.73	9.01	22.16	-39.6	-41.4	19.8	0.00e+00	0	44	0	0	51	4253
2026-01-28 00:05:00.72	8.96	22.30	-39.5	-41.3	19.9	0.00e+00	0	44	0	0	51	4212
2026-01-28 00:05:01.71	8.91	22.44	-39.5	-41.2	20.0	0.00e+00	0	44	0	0	50	4424
2026-01-28 00:05:02.71	8.85	22.58	-39.3	-41.1	20.2	0.00e+00	0	43	0	0	50	4350
2026-01-28 00:05:03.70	8.79	22.72	-39.3	-41.1	20.2	0.00e+00	0	44	0	0	50	4351
2026-01-28 00:05:04.69	8.74	22.86	-39.3	-41.1	20.2	0.00e+00	0	44	0	0	50	4345
2026-01-28 00:05:05.68	8.68	23.00	-39.2	-40.9	20.3	0.00e+00	0	44	0	0	50	4283
2026-01-28 00:05:06.68	8.62	23.15	-39.2	-40.9	20.4	0.00e+00	0	43	0	0	50	4287
2026-01-28 00:05:07.67	8.56	23.29	-39.2	-40.9	20.4	0.00e+00	0	44	0	0	50	4283
2026-01-28 00:05:08.66	8.50	23.43	-39.2	-41.0	20.3	0.00e+00	0	44	0	0	50	4298
2026-01-28 00:05:09.66	8.44	23.58	-39.1	-40.8	20.5	0.00e+00	0	43	0	0	50	4228
2026-01-28 00:05:10.65	8.38	23.73	-39.1	-40.8	20.6	0.00e+00	0	44	0	0	50	4208
2026-01-28 00:05:11.64	8.32	23.87	-39.1	-40.8	20.5	0.00e+00	0	44	0	0	50	4218
2026-01-28 00:05:12.63	8.26	24.02	-39.2	-40.8	20.5	0.00e+00	0	44	0	0	50	4229
2026-01-28 00:05:13.63	8.20	24.17	-39.2	-40.8	20.5	0.00e+00	0	44	0	0	50	4238
2026-01-28 00:05:14.62	8.14	24.32	-39.3	-41.0	20.4	0.00e+00	0	44	0	0	50	4308
2026-01-28 00:05:15.61	8.07	24.47	-39.1	-40.8	20.6	0.00e+00	0	43	0	0	50	4203
2026-01-28 00:05:16.61	8.01	24.62	-39.2	-40.9	20.5	0.00e+00	0	44	0	0	50	4257
2026-01-28 00:05:17.60	7.95	24.77	-39.2	-40.9	20.5	0.00e+00	0	44	0	0	50	4267
2026-01-28 00:05:18.59	7.88	24.92	-39.3	-41.0	20.4	0.00e+00	0	44	0	0	50	4306
2026-01-28 00:05:19.59	7.81	25.08	-39.4	-41.0	20.4	0.00e+00	0	44	0	0	50	4324
2026-01-28 00:05:20.58	7.75	25.23	-39.4	-41.1	20.3	0.00e+00	0	44	0	0	50	4362
2026-01-28 00:05:21.57	7.68	25.38	-39.6	-41.2	20.2	0.00e+00	0	44	0	0	50	4441
2026-01-28 00:05:22.56	7.61	25.54	-39.6	-41.3	20.1	0.00e+00	0	44	0	0	50	4485
2026-01-28 00:05:23.55	7.54	25.70	-39.7	-41.4	20.0	0.00e+00	0	43	0	0	50	4495
2026-01-28 00:05:24.55	7.47	25.85	-39.7	-41.4	20.0	0.00e+00	0	44	0	0	50	4532
2026-01-28 00:05:25.54	7.40	26.01	-39.8	-41.5	19.9	0.00e+00	0	44	0	0	50	4567
2026-01-28 00:05:26.53	7.33	26.17	-39.8	-41.6	19.9	0.00e+00	0	43	0	0	50	4600
2026-01-28 00:05:27.53	7.26	26.33	-39.9	-41.6	19.8	0.00e+00	0	44	0	0	50	4628
2026-01-28 00:05:28.52	7.19	26.49	-39.9	-41.7	19.8	0.00e+00	0	44	0	0	50	4659
2026-01-28 00:05:29.51	7.12	26.65	-40.0	-41.7	19.7	0.00e+00	0	44	0	0	50	4688
2026-01-28 00:05:30.51	7.04	26.82	-40.1	-41.8	19.7	0.00e+00	0	44	0	0	50	4730
2026-01-28 00:05:31.50	6.97	26.98	-40.1	-41.8	19.6	0.00e+00	0	44	0	0	50	4735
2026-01-28 00:05:32.49	6.89	27.15	-40.2	-42.0	19.5	0.00e+00	0	44	0	0	51	4546
2026-01-28 00:05:33.48	6.82	27.31	-40.2	-41.9	19.6	0.00e+00	0	44	0	0	51	4518
2026-01-28 00:05:34.48	6.74	27.48	-40.2	-41.9	19.5	0.00e+00	0	44	0	0	51	4536
2026-01-28 00:05:35.47	6.66	27.65	-40.2	-41.9	19.5	0.00e+00	0	44	0	0	51	4523
2026-01-28 00:05:36.46	6.58	27.82	-40.1	-41.9	19.6	0.00e+00	0	44	0	0	51	4506
2026-01-28 00:05:37.46	6.50	27.99	-40.1	-41.9	19.6	0.00e+00	0	44	0	0	51	4508
2026-01-28 00:05:38.45	6.42	28.16	-40.2	-42.0	19.5	0.00e+00	0	44	0	0	51	4560
2026-01-28 00:05:39.44	6.34	28.33	-40.2	-42.0	19.5	0.00e+00	0	44	0	0	51	4552
2026-01-28 00:05:40.44	6.26	28.50	-40.2	-42.0	19.4	0.00e+00	0	44	0	0	51	4564
2026-01-28 00:05:41.43	6.17	28.67	-40.2	-42.0	19.5	0.00e+00	0	44	0	0	51	4552
2026-01-28 00:05:42.42	6.09	28.85	-40.2	-42.0	19.4	0.00e+00	0	44	0	0	51	4574
2026-01-28 00:05:43.41	6.00	29.02	-40.3	-42.1	19.3	0.00e+00	0	44	0	0	51	4625
2026-01-28 00:05:44.41	5.92	29.20	-40.3	-42.0	19.4	0.00e+00	0	44	0	0	51	4592
2026-01-28 00:05:45.40	5.83	29.38	-40.4	-42.1	19.3	0.00e+00	0	43	0	0	51	4644
2026-01-28 00:05:46.39	5.74	29.56	-40.4	-42.1	19.3	0.00e+00	0	44	0	0	51	4647
2026-01-28 00:05:47.39	5.65	29.74	-40.5	-42.3	19.1	0.00e+00	0	44	0	0	51	4709
2026-01-28 00:05:48.38	5.56	29.92	-40.3	-42.1	19.3	0.00e+00	0	44	0	0	51	4640
2026-01-28 00:05:49.37	5.47	30.10	-40.3	-42.1	19.3	0.00e+00	0	44	0	0	51	4604
2026-01-28 00:05:50.37	5.38	30.28	-40.3	-42.0	19.3	0.00e+00	0	44	0	0	51	4584
2026-01-28 00:05:51.36	5.28	30.47	-40.3	-42.0	19.4	0.00e+00	0	44	0	0	51	4585
2026-01-28 00:05:52.35	5.19	30.65	-40.1	-41.8	19.5	0.00e+00	0	44	0	0	51	4489
2026-01-28 00:05:53.34	5.09	30.84	-40.1	-41.9	19.5	0.00e+00	0	44	0	0	51	4531
2026-01-28 00:05:54.34	5.00	31.03	-40.1	-41.9	19.5	0.00e+00	0	44	0	0	51	4505
2026-01-28 00:05:55.33	4.90	31.22	-40.1	-41.9	19.4	0.00e+00	0	44	0	0	51	4526
2026-01-28 00:05:56.32	4.80	31.40	-40.1	-41.9	19.5	0.00e+00	0	44	0	0	51	4500
2026-01-28 00:05:57.32	4.70	31.60	-40.1	-41.9	19.5	0.00e+00	0	44	0	0	51	4507
2026-01-28 00:05:58.31	4.59	31.79	-40.1	-41.9	19.5	0.00e+00	0	44	0	0	51	4519
2026-01-28 00:05:59.30	4.49	31.98	-40.2	-42.0	19.4	0.00e+00	0	44	0	0	51	4568
2026-01-28 00:06:00.29	4.39	32.17	-40.2	-42.0	19.4	0.00e+00	0	44	0	0	51	4581
2026-01-28 00:06:01.29	4.28	32.37	-40.3	-42.1	19.3	0.00e+00	0	44	0	0	51	4629
2026-01-28 00:06:02.28	4.17	32.57	-40.4	-42.2	19.2	0.00e+00	0	44	0	0	51	4669
2026-01-28 00:06:03.27	4.07	32.76	-40.5	-42.3	19.1	0.00e+00	0	44	0	0	51	4712
2026-01-28 00:06:04.27	3.96	32.97	-40.6	-42.4	19.0	0.00e+00	0	44	0	0	51	4809
2026-01-28 00:06:05.26	3.84	33.16	-40.6	-42.5	19.0	0.00e+00	0	44	0	0	51	4822
2026-01-28 00:06:06.25	3.73	33.37	-40.6	-42.5	19.0	0.00e+00	0	44	0	0	51	4823
2026-01-28 00:06:07.24	3.62	33.57	-40.6	-42.4	19.0	0.00e+00	0	44	0	0	51	4812
2026-01-28 00:06:08.24	3.50	33.77	-40.7	-42.6	18.8	0.00e+00	0	44	0	0	52	4602
2026-01-28 00:06:09.23	3.39	33.98	-40.7	-42.5	18.9	0.00e+00	0	44	0	0	52	4557
2026-01-28 00:06:10.22	3.27	34.18	-40.7	-42.5	18.9	0.00e+00	0	44	0	0	52	4579
2026-01-28 00:06:11.22	3.15	34.39	-40.8	-42.7	18.7	0.00e+00	0	44	0	0	52	4667
2026-01-28 00:06:12.21	3.02	34.60	-40.8	-42.7	18.7	0.00e+00	0	44	0	0	52	4681
2026-01-28 00:06:13.20	2.90	34.81	-40.9	-42.8	18.6	0.00e+00	0	44	0	0	52	4741
2026-01-28 00:06:14.19	2.78	35.02	-41.0	-42.9	18.5	0.00e+00	0	43	0	0	52	4806
2026-01-28 00:06:15.19	2.65	35.23	-41.1	-43.1	18.4	0.00e+00	0	44	0	0	52	4889
2026-01-28 00:06:16.18	2.52	35.45	-41.2	-43.2	18.3	0.00e+00	0	44	0	0	53	4671
2026-01-28 00:06:17.17	2.39	35.66	-41.4	-43.4	18.1	0.00e+00	0	43	0	0	53	4799
2026-01-28 00:06:18.17	2.26	35.88	-41.6	-43.6	17.9	0.00e+00	0	44	0	0	53	4886
2026-01-28 00:06:19.16	2.13	36.10	-41.8	-43.9	17.6	0.00e+00	0	44	0	0	54	4788
2026-01-28 00:06:20.15	1.99	36.32	-41.9	-44.0	17.6	0.00e+00	0	44	0	0	54	4829
2026-01-28 00:06:21.15	1.85	36.54	-42.0	-44.2	17.4	0.00e+00	0	44	0	0	54	4943
2026-01-28 00:06:22.14	1.71	36.76	-42.1	-44.2	17.4	0.00e+00	0	44	0	0	54	4982
2026-01-28 00:06:23.13	1.57	36.98	-42.2	-44.4	17.2	0.00e+00	0	44	0	0	55	4761
2026-01-28 00:06:24.12	1.43	37.20	-42.2	-44.4	17.2	0.00e+00	0	43	0	0	55	4793
2026-01-28 00:06:25.12	1.28	37.43	-42.1	-44.3	17.3	0.00e+00	0	44	0	0	55	4714
2026-01-28 00:06:26.11	1.13	37.66	-42.2	-44.3	17.2	0.00e+00	0	44	0	0	55	4737
2026-01-28 00:06:27.10	0.99	37.89	-42.1	-44.2	17.3	0.00e+00	0	44	0	0	55	4704
2026-01-28 00:06:28.09	0.83	38.11	-42.0	-44.0	17.5	0.00e+00	0	44	0	0	55	4591
2026-01-28 00:06:29.09	0.68	38.35	-41.9	-43.9	17.6	0.00e+00	0	44	0	0	55	4537
2026-01-28 00:06:30.08	0.52	38.58	-42.0	-44.0	17.6	0.00e+00	0	44	0	0	55	4555
2026-01-28 00:06:31.07	0.36	38.81	-41.9	-43.9	17.7	0.00e+00	0	44	0	0	55	4498
2026-01-28 00:06:32.06	0.20	39.05	-42.0	-44.0	17.6	0.00e+00	0	44	0	0	55	4560
2026-01-28 00:06:33.06	0.04	39.28	-41.9	-43.9	17.7	0.00e+00	0	44	0	0	55	4514
2026-01-28 00:06:34.05	359.87	39.52	-42.0	-44.0	17.5	0.00e+00	0	44	0	0	55	4580
2026-01-28 00:06:35.04	359.71	39.76	-42.1	-44.2	17.4	0.00e+00	0	44	0	0	55	4686
2026-01-28 00:06:36.04	359.53	40.00	-42.0	-44.1	17.5	0.00e+00	0	44	0	0	55	4621
2026-01-28 00:06:37.03	359.36	40.24	-41.8	-43.9	17.8	0.00e+00	0	43	0	0	55	4504
2026-01-28 00:06:38.02	359.19	40.48	-41.6	-43.6	18.0	0.00e+00	0	44	0	0	55	4369
2026-01-28 00:06:39.02	359.01	40.73	-41.4	-43.3	18.3	0.00e+00	0	44	0	0	54	4478
2026-01-28 00:06:40.01	358.82	40.98	-41.2	-43.1	18.6	0.00e+00	0	44	0	0	54	4343
2026-01-28 00:06:41.00	358.64	41.22	-41.1	-42.9	18.7	0.00e+00	0	44	0	0	54	4268
2026-01-28 00:06:42.00	358.45	41.47	-41.1	-43.0	18.6	0.00e+00	0	44	0	0	54	4293
2026-01-28 00:06:42.99	358.26	41.72	-41.5	-43.5	18.1	0.00e+00	0	44	0	0	54	4559
2026-01-28 00:06:43.98	358.07	41.97	-41.6	-43.5	18.0	0.00e+00	0	44	0	0	54	4585
2026-01-28 00:06:44.97	357.87	42.22	-41.8	-43.8	17.6	0.00e+00	0	44	0	0	54	4758
2026-01-28 00:06:45.97	357.67	42.48	-42.1	-44.2	17.3	0.00e+00	0	44	0	0	54	4932
2026-01-28 00:06:46.96	357.47	42.73	-42.2	-44.3	17.1	0.00e+00	0	44	0	0	55	4754
2026-01-28 00:06:47.95	357.26	42.99	-42.3	-44.4	17.1	0.00e+00	0	44	0	0	55	4808
2026-01-28 00:06:48.94	357.06	43.25	-42.3	-44.4	17.3	0.00e+00	0	44	0	0	55	4789
2026-01-28 00:06:49.94	356.84	43.51	-42.3	-44.4	17.2	0.00e+00	0	44	0	0	55	4812
2026-01-28 00:06:50.93	356.63	43.77	-42.3	-44.5	17.3	0.00e+00	0	44	0	0	55	4816
2026-01-28 00:06:51.92	356.41	44.03	-42.3	-44.5	17.3	0.00e+00	0	44	0	0	55	4817
2026-01-28 00:06:52.92	356.18	44.29	-42.5	-44.7	17.0	0.00e+00	0	44	0	0	55	4939
2026-01-28 00:06:53.91	355.95	44.56	-42.6	-44.8	16.9	0.00e+00	0	44	0	0	55	4999
2026-01-28 00:06:54.90	355.72	44.82	-42.5	-44.7	17.0	0.00e+00	0	44	0	0	55	4931
2026-01-28 00:06:55.90	355.48	45.09	-42.6	-44.7	16.9	0.00e+00	0	44	0	0	55	4964
2026-01-28 00:06:56.89	355.25	45.36	-42.9	-45.1	16.8	0.00e+00	0	44	0	0	56	4883
2026-01-28 00:06:57.88	355.00	45.63	-43.0	-45.3	16.6	0.00e+00	0	44	0	0	56	5005
2026-01-28 00:06:58.87	354.76	45.90	-43.1	-45.4	16.6	0.00e+00	0	44	0	0	56	5042
2026-01-28 00:06:59.87	354.50	46.17	-42.8	-45.0	16.9	0.00e+00	0	44	0	0	56	4857
2026-01-28 00:07:00.86	354.24	46.44	-42.7	-44.9	17.0	0.00e+00	0	44	0	0	56	4777
2026-01-28 00:07:01.85	353.98	46.72	-42.5	-44.6	17.2	0.00e+00	0	44	0	0	56	4617
2026-01-28 00:07:02.84	353.72	46.99	-42.3	-44.3	17.4	0.00e+00	0	44	0	0	56	4485
2026-01-28 00:07:03.84	353.45	47.27	-42.2	-44.2	17.5	0.00e+00	0	44	0	0	56	4418
2026-01-28 00:07:04.83	353.17	47.55	-42.1	-44.1	17.7	0.00e+00	0	44	0	0	56	4378
2026-01-28 00:07:05.82	352.89	47.83	-42.0	-44.0	17.8	0.00e+00	0	44	0	0	56	4321
2026-01-28 00:07:06.82	352.60	48.11	-41.7	-43.7	18.0	0.00e+00	0	44	0	0	55	4400
2026-01-28 00:07:07.81	352.31	48.39	-41.5	-43.5	18.2	0.00e+00	0	44	0	0	55	4296
2026-01-28 00:07:08.80	352.02	48.67	-41.2	-43.0	18.6	0.00e+00	0	44	0	0	54	4337
2026-01-28 00:07:09.80	351.71	48.95	-41.2	-43.1	18.6	0.00e+00	0	44	0	0	54	4341
2026-01-28 00:07:10.79	351.40	49.24	-41.5	-43.4	18.2	0.00e+00	0	44	0	0	54	4543
2026-01-28 00:07:11.78	351.09	49.52	-41.9	-43.9	17.8	0.00e+00	0	44	0	0	54	4789
2026-01-28 00:07:12.77	350.77	49.80	-42.1	-44.2	17.5	0.00e+00	0	44	0	0	54	4928
2026-01-28 00:07:13.77	350.44	50.09	-42.0	-44.0	17.6	0.00e+00	0	44	0	0	54	4858
2026-01-28 00:07:14.76	350.11	50.38	-41.9	-43.9	17.7	0.00e+00	0	44	0	0	54	4800
2026-01-28 00:07:15.75	349.78	50.67	-41.9	-43.9	17.7	0.00e+00	0	44	0	0	54	4787
2026-01-28 00:07:16.74	349.43	50.95	-41.8	-43.8	17.8	0.00e+00	0	44	0	0	54	4715
2026-01-28 00:07:17.74	349.08	51.24	-41.7	-43.6	18.0	0.00e+00	0	44	0	0	54	4623
2026-01-28 00:07:18.73	348.72	51.53	-41.7	-43.7	18.0	0.00e+00	0	44	0	0	54	4656
2026-01-28 00:07:19.72	348.35	51.82	-41.7	-43.7	18.0	0.00e+00	0	44	0	0	54	4666
2026-01-28 00:07:20.72	347.98	52.12	-41.8	-43.8	17.9	0.00e+00	0	44	0	0	54	4712
2026-01-28 00:07:21.71	347.60	52.41	-41.7	-43.7	18.0	0.00e+00	0	44	0	0	54	4686
2026-01-28 00:07:22.70	347.21	52.70	-41.6	-43.6	18.1	0.00e+00	0	43	0	0	54	4622
2026-01-28 00:07:23.70	346.81	52.99	-41.4	-43.4	18.3	0.00e+00	0	44	0	0	54	4526
2026-01-28 00:07:24.69	346.41	53.28	-41.4	-43.4	18.2	0.00e+00	0	44	0	0	54	4520
2026-01-28 00:07:25.68	346.00	53.57	-41.4	-43.4	18.2	0.00e+00	0	44	0	0	54	4510
2026-01-28 00:07:26.67	345.58	53.87	-41.5	-43.4	18.3	0.00e+00	0	44	0	0	54	4512
2026-01-28 00:07:27.67	345.14	54.16	-41.3	-43.2	18.4	0.00e+00	0	44	0	0	54	4434
2026-01-28 00:07:28.66	344.70	54.45	-41.0	-42.8	18.8	0.00e+00	0	44	0	0	53	4457
2026-01-28 00:07:29.65	344.26	54.75	-40.6	-42.4	19.2	0.00e+00	0	44	0	0	53	4262
2026-01-28 00:07:30.65	343.80	55.04	-40.2	-41.9	19.5	0.00e+00	0	44	0	0	52	4289
2026-01-28 00:07:31.64	343.33	55.33	-39.9	-41.6	19.8	0.00e+00	0	44	0	0	51	4377
2026-01-28 00:07:32.63	342.86	55.62	-40.0	-41.7	19.6	0.00e+00	0	44	0	0	51	4439
2026-01-28 00:07:33.63	342.37	55.92	-40.3	-42.1	19.4	0.00e+00	0	44	0	0	51	4643
2026-01-28 00:07:34.62	341.87	56.21	-40.5	-42.3	19.3	0.00e+00	0	44	0	0	51	4731
2026-01-28 00:07:35.61	341.36	56.50	-40.4	-42.2	19.4	0.00e+00	0	44	0	0	51	4695
2026-01-28 00:07:36.61	340.84	56.79	-40.2	-41.9	19.5	0.00e+00	0	44	0	0	51	4544
2026-01-28 00:07:37.60	340.31	57.08	-39.7	-41.4	19.6	0.00e+00	0	44	0	0	51	4276
2026-01-28 00:07:38.59	339.77	57.36	-39.9	-41.7	19.5	0.00e+00	0	44	0	0	51	4399
2026-01-28 00:07:39.58	339.22	57.65	-40.1	-41.8	19.5	0.00e+00	0	44	0	0	51	4491
2026-01-28 00:07:40.58	338.65	57.94	-40.0	-41.8	19.6	0.00e+00	0	44	0	0	51	4467
2026-01-28 00:07:41.57	338.08	58.22	-40.0	-41.8	19.6	0.00e+00	0	44	0	0	51	4442
2026-01-28 00:07:42.56	337.49	58.50	-39.9	-41.6	19.7	0.00e+00	0	44	0	0	51	4384
2026-01-28 00:07:43.55	336.89	58.78	-39.9	-41.6	19.7	0.00e+00	0	44	0	0	51	4390
2026-01-28 00:07:44.55	336.27	59.06	-39.9	-41.6	19.5	0.00e+00	0	44	0	0	51	4364
2026-01-28 00:07:45.54	335.64	59.34	-40.0	-41.8	19.4	0.00e+00	0	44	0	0	51	4471
2026-01-28 00:07:46.53	335.00	59.62	-39.6	-41.3	20.1	0.00e+00	0	44	0	0	51	4208
2026-01-28 00:07:47.53	334.34	59.89	-39.5	-41.2	20.3	0.00e+00	0	44	0	0	50	4416
2026-01-28 00:07:48.52	333.67	60.16	-39.4	-41.1	20.4	0.00e+00	0	44	0	0	50	4362
2026-01-28 00:07:49.51	332.99	60.43	-39.3	-41.0	20.5	0.00e+00	0	43	0	0	50	4306
2026-01-28 00:07:50.51	332.29	60.70	-39.5	-41.1	20.3	0.00e+00	0	44	0	0	50	4382
2026-01-28 00:07:51.50	331.58	60.96	-39.4	-41.1	20.4	0.00e+00	0	44	0	0	50	4356
2026-01-28 00:07:52.49	330.85	61.22	-39.1	-40.8	20.7	0.00e+00	0	44	0	0	50	4206
2026-01-28 00:07:53.48	330.11	61.48	-38.8	-40.5	21.0	0.00e+00	0	43	0	0	49	4299
2026-01-28 00:07:54.48	329.34	61.74	-38.6	-40.1	21.2	0.00e+00	0	44	0	0	49	4145
2026-01-28 00:07:55.47	328.57	61.99	-38.6	-40.2	21.0	0.00e+00	0	44	0	0	49	4181
2026-01-28 00:07:56.46	327.78	62.23	-39.0	-40.6	20.8	0.00e+00	0	44	0	0	49	4346
2026-01-28 00:07:57.45	326.97	62.48	-38.8	-40.3	21.0	0.00e+00	0	44	0	0	49	4242
2026-01-28 00:07:58.45	326.14	62.72	-38.9	-40.5	20.7	0.00e+00	0	44	0	0	49	4339
2026-01-28 00:07:59.44	325.30	62.95	-39.1	-40.7	20.6	0.00e+00	0	44	0	0	49	4417
2026-01-28 00:08:00.43	324.45	63.18	-39.1	-40.8	20.5	0.00e+00	0	44	0	0	49	4463
2026-01-28 00:08:01.42	323.58	63.41	-39.0	-40.7	20.7	0.00e+00	0	44	0	0	49	4411
2026-01-28 00:08:02.42	322.68	63.63	-38.9	-40.5	20.8	0.00e+00	0	44	0	0	49	4333
2026-01-28 00:08:03.41	321.78	63.84	-39.2	-40.8	20.5	0.00e+00	0	44	0	0	49	4468
2026-01-28 00:08:04.40	320.85	64.05	-39.6	-41.3	20.2	0.00e+00	0	44	0	0	49	4724
2026-01-28 00:08:05.40	319.91	64.26	-39.8	-41.5	20.0	0.00e+00	0	44	0	0	50	4584
2026-01-28 00:08:06.39	318.95	64.46	-39.6	-41.3	20.3	0.00e+00	0	44	0	0	50	4443
2026-01-28 00:08:07.39	317.97	64.65	-38.9	-40.5	20.9	0.00e+00	0	44	0	0	49	4314
2026-01-28 00:08:08.38	316.98	64.84	-39.1	-40.7	20.7	0.00e+00	0	44	0	0	49	4420
2026-01-28 00:08:09.37	315.98	65.02	-39.5	-41.2	20.3	0.00e+00	0	44	0	0	49	4658
2026-01-28 00:08:10.36	314.95	65.19	-39.4	-41.1	20.5	0.00e+00	0	44	0	0	49	4609
2026-01-28 00:08:11.36	313.91	65.36	-39.5	-41.2	20.2	0.00e+00	0	44	0	0	49	4685
2026-01-28 00:08:12.35	312.86	65.52	-39.5	-41.1	20.2	0.00e+00	0	44	0	0	49	4649
2026-01-28 00:08:13.34	311.79	65.67	-39.1	-40.7	20.6	0.00e+00	0	44	0	0	49	4429
2026-01-28 00:08:14.33	310.71	65.81	-39.1	-40.7	20.6	0.00e+00	0	44	0	0	49	4419
2026-01-28 00:08:15.33	309.60	65.95	-39.1	-40.7	20.6	0.00e+00	0	44	0	0	49	4441
2026-01-28 00:08:16.32	308.49	66.08	-39.2	-40.8	20.6	0.00e+00	0	44	0	0	49	4468
2026-01-28 00:08:17.31	307.37	66.20	-39.2	-40.8	20.7	0.00e+00	0	44	0	0	49	4482
2026-01-28 00:08:18.31	306.22	66.31	-39.0	-40.6	20.9	0.00e+00	0	44	0	0	49	4353
2026-01-28 00:08:19.30	305.08	66.42	-38.8	-40.3	21.1	0.00e+00	0	44	0	0	49	4242
2026-01-28 00:08:20.29	303.92	66.51	-38.6	-40.2	21.2	0.00e+00	0	44	0	0	49	4161
2026-01-28 00:08:21.28	302.76	66.60	-38.6	-40.2	21.2	0.00e+00	0	44	0	0	49	4147
2026-01-28 00:08:22.28	301.57	66.68	-38.4	-40.0	21.3	0.00e+00	0	44	0	0	48	4308
2026-01-28 00:08:23.27	300.38	66.75	-38.2	-39.7	21.5	0.00e+00	0	44	0	0	48	4192
2026-01-28 00:08:24.26	299.19	66.81	-38.4	-39.9	21.3	0.00e+00	0	44	0	0	48	4286
2026-01-28 00:08:25.26	297.98	66.86	-38.6	-40.1	21.1	0.00e+00	0	44	0	0	48	4385
2026-01-28 00:08:26.25	296.78	66.90	-38.8	-40.4	20.9	0.00e+00	0	44	0	0	48	4526
2026-01-28 00:08:27.24	295.57	66.93	-38.6	-40.2	21.1	0.00e+00	0	44	0	0	48	4424
2026-01-28 00:08:28.24	294.35	66.95	-38.5	-40.1	21.2	0.00e+00	0	44	0	0	48	4342
2026-01-28 00:08:29.23	293.14	66.96	-38.7	-40.3	21.0	0.00e+00	0	44	0	0	48	4443
2026-01-28 00:08:30.22	291.93	66.97	-39.0	-40.7	20.7	0.00e+00	0	44	0	0	48	4654
2026-01-28 00:08:31.22	290.70	66.96	-39.3	-40.9	20.5	0.00e+00	0	44	0	0	49	4542
2026-01-28 00:08:32.21	289.49	66.94	-38.8	-40.4	20.9	0.00e+00	0	44	0	0	49	4270
2026-01-28 00:08:33.20	288.28	66.92	-38.3	-39.8	21.4	0.00e+00	0	44	0	0	48	4232
2026-01-28 00:08:34.20	287.06	66.88	-38.3	-39.8	21.4	0.00e+00	0	44	0	0	48	4232
2026-01-28 00:08:35.19	285.86	66.84	-38.6	-40.2	21.0	0.00e+00	0	44	0	0	48	4400
2026-01-28 00:08:36.18	284.67	66.79	-39.2	-40.8	20.3	0.00e+00	0	44	0	0	48	4741
2026-01-28 00:08:37.17	283.48	66.72	-39.5	-41.1	20.2	0.00e+00	0	44	0	0	49	4646
2026-01-28 00:08:38.16	282.30	66.65	-39.3	-40.9	20.4	0.00e+00	0	44	0	0	49	4528
2026-01-28 00:08:39.16	281.11	66.57	-39.2	-40.9	20.4	0.00e+00	0	44	0	0	49	4503
2026-01-28 00:08:40.15	279.95	66.48	-39.2	-40.8	20.6	0.00e+00	0	44	0	0	49	4488
2026-01-28 00:08:41.14	278.79	66.38	-39.3	-41.0	20.5	0.00e+00	0	44	0	0	49	4549
2026-01-28 00:08:42.14	277.64	66.28	-39.2	-40.8	20.6	0.00e+00	0	44	0	0	49	4471
2026-01-28 00:08:43.13	276.51	66.16	-38.8	-40.5	20.7	0.00e+00	0	44	0	0	49	4300
2026-01-28 00:08:44.12	275.39	66.04	-38.8	-40.4	20.8	0.00e+00	0	44	0	0	49	4251
2026-01-28 00:08:45.11	274.28	65.91	-39.1	-40.7	20.6	0.00e+00	0	44	0	0	49	4415
2026-01-28 00:08:46.11	273.18	65.77	-39.1	-40.7	20.7	0.00e+00	0	44	0	0	49	4424
2026-01-28 00:08:47.10	272.10	65.62	-38.7	-40.2	21.0	0.00e+00	0	44	0	0	49	4188
2026-01-28 00:08:48.09	271.04	65.46	-38.7	-40.3	20.8	0.00e+00	0	44	0	0	49	4234
2026-01-28 00:08:49.09	269.98	65.30	-39.0	-40.7	20.7	0.00e+00	0	44	0	0	49	4402
2026-01-28 00:08:50.08	268.95	65.13	-38.9	-40.5	20.8	0.00e+00	0	44	0	0	49	4309
2026-01-28 00:08:51.07	267.93	64.96	-38.9	-40.5	20.9	0.00e+00	0	44	0	0	49	4295
2026-01-28 00:08:52.07	266.92	64.77	-38.9	-40.5	20.7	0.00e+00	0	44	0	0	49	4313
2026-01-28 00:08:53.06	265.94	64.58	-39.5	-41.2	20.1	0.00e+00	0	44	0	0	49	4665
2026-01-28 00:08:54.05	264.97	64.39	-39.7	-41.4	20.1	0.00e+00	0	44	0	0	50	4521
2026-01-28 00:08:55.04	264.02	64.19	-39.4	-41.1	20.5	0.00e+00	0	44	0	0	50	4352
2026-01-28 00:08:56.04	263.07	63.98	-39.1	-40.7	20.7	0.00e+00	0	44	0	0	50	4184
2026-01-28 00:08:57.03	262.16	63.77	-39.0	-40.7	20.8	0.00e+00	0	44	0	0	49	4392
2026-01-28 00:08:58.02	261.26	63.55	-39.0	-40.6	20.8	0.00e+00	0	44	0	0	49	4383
2026-01-28 00:08:59.02	260.36	63.33	-38.8	-40.4	21.0	0.00e+00	0	44	0	0	49	4273
2026-01-28 00:09:00.01	259.50	63.10	-38.9	-40.5	20.7	0.00e+00	0	43	0	0	49	4326
2026-01-28 00:09:01.00	258.64	62.87	-39.3	-40.9	20.3	0.00e+00	0	44	0	0	49	4538
2026-01-28 00:09:02.00	257.80	62.63	-39.4	-41.0	20.3	0.00e+00	0	44	0	0	49	4596
2026-01-28 00:09:02.99	256.98	62.39	-39.2	-40.9	20.6	0.00e+00	0	44	0	0	49	4500
2026-01-28 00:09:03.98	256.18	62.14	-39.1	-40.8	20.5	0.00e+00	0	44	0	0	49	4460
2026-01-28 00:09:04.97	255.40	61.90	-39.5	-41.2	20.1	0.00e+00	0	44	0	0	49	4684
2026-01-28 00:09:05.97	254.62	61.64	-39.5	-41.2	20.3	0.00e+00	0	44	0	0	49	4683
2026-01-28 00:09:06.96	253.87	61.39	-39.5	-41.2	20.3	0.00e+00	0	44	0	0	49	4699
2026-01-28 00:09:07.95	253.13	61.13	-39.2	-40.8	20.6	0.00e+00	0	44	0	0	49	4492
2026-01-28 00:09:08.94	252.40	60.87	-38.9	-40.5	20.8	0.00e+00	0	44	0	0	49	4315
2026-01-28 00:09:09.94	251.69	60.60	-38.9	-40.5	20.6	0.00e+00	0	44	0	0	49	4326
2026-01-28 00:09:10.93	251.00	60.33	-39.3	-41.0	20.3	0.00e+00	0	44	0	0	49	4566
2026-01-28 00:09:11.92	250.32	60.06	-39.4	-41.1	20.3	0.00e+00	0	44	0	0	49	4632
2026-01-28 00:09:12.91	249.65	59.79	-39.4	-41.0	20.5	0.00e+00	0	44	0	0	49	4574
2026-01-28 00:09:13.91	249.00	59.51	-39.4	-41.1	20.2	0.00e+00	0	44	0	0	49	4606
2026-01-28 00:09:14.90	248.36	59.24	-39.8	-41.5	19.7	0.00e+00	0	44	0	0	50	4588
2026-01-28 00:09:15.89	247.74	58.96	-39.9	-41.6	19.7	0.00e+00	0	44	0	0	50	4626
2026-01-28 00:09:16.89	247.12	58.67	-40.0	-41.7	19.6	0.00e+00	0	44	0	0	50	4662
2026-01-28 00:09:17.88	246.52	58.39	-39.3	-40.9	20.1	0.00e+00	0	44	0	0	50	4275
2026-01-28 00:09:18.88	245.93	58.10	-38.9	-40.5	20.6	0.00e+00	0	44	0	0	49	4304
2026-01-28 00:09:19.87	245.36	57.82	-39.2	-40.8	20.3	0.00e+00	0	44	0	0	49	4484
2026-01-28 00:09:20.86	244.80	57.53	-40.5	-42.4	19.1	0.00e+00	0	44	0	0	51	4760
2026-01-28 00:09:21.85	244.25	57.25	-41.2	-43.1	18.4	0.00e+00	0	44	0	0	53	4641
2026-01-28 00:09:22.85	243.71	56.96	-40.8	-42.6	18.9	0.00e+00	0	44	0	0	53	4366
2026-01-28 00:09:23.84	243.18	56.67	-40.0	-41.7	19.6	0.00e+00	0	44	0	0	51	4434
2026-01-28 00:09:24.83	242.67	56.38	-39.4	-41.0	20.3	0.00e+00	0	44	0	0	50	4326
2026-01-28 00:09:25.83	242.16	56.08	-39.6	-41.2	20.2	0.00e+00	0	44	0	0	50	4427
2026-01-28 00:09:26.82	241.67	55.79	-39.9	-41.6	19.9	0.00e+00	0	44	0	0	50	4647
2026-01-28 00:09:27.81	241.18	55.50	-40.4	-42.2	19.5	0.00e+00	0	44	0	0	51	4666
2026-01-28 00:09:28.80	240.71	55.21	-40.5	-42.2	19.3	0.00e+00	0	44	0	0	51	4695
2026-01-28 00:09:29.80	240.24	54.91	-40.6	-42.4	19.1	0.00e+00	0	44	0	0	52	4508
2026-01-28 00:09:30.79	239.79	54.62	-41.8	-43.8	17.6	0.00e+00	0	44	0	0	54	4734
2026-01-28 00:09:31.78	239.34	54.33	-41.6	-43.6	17.5	0.00e+00	0	44	0	0	54	4616
2026-01-28 00:09:32.77	238.91	54.03	-41.2	-43.0	17.9	0.00e+00	0	44	0	0	54	4340
2026-01-28 00:09:33.77	238.48	53.74	-40.5	-42.3	18.6	0.00e+00	0	44	0	0	53	4202
2026-01-28 00:09:34.76	238.06	53.44	-39.8	-41.5	19.5	0.00e+00	0	44	0	0	51	4308
2026-01-28 00:09:35.75	237.65	53.15	-39.9	-41.6	19.7	0.00e+00	0	44	0	0	51	4388
2026-01-28 00:09:36.74	237.25	52.86	-40.4	-42.2	19.3	0.00e+00	0	44	0	0	51	4652
2026-01-28 00:09:37.74	236.85	52.56	-40.9	-42.8	18.7	0.00e+00	0	44	0	0	52	4723
2026-01-28 00:09:38.73	236.46	52.27	-41.4	-43.3	18.2	0.00e+00	0	44	0	0	53	4731
2026-01-28 00:09:39.72	236.09	51.98	-41.6	-43.6	18.0	0.00e+00	0	44	0	0	53	4889
2026-01-28 00:09:40.72	235.71	51.69	-41.8	-43.8	17.8	0.00e+00	0	44	0	0	54	4709
2026-01-28 00:09:41.71	235.35	51.40	-41.8	-43.8	17.6	0.00e+00	0	44	0	0	54	4731
2026-01-28 00:09:42.70	234.99	51.11	-41.3	-43.2	18.1	0.00e+00	0	44	0	0	54	4421
2026-01-28 00:09:43.69	234.64	50.82	-41.0	-42.9	18.4	0.00e+00	0	44	0	0	54	4255
2026-01-28 00:09:44.69	234.30	50.52	-40.9	-42.8	18.7	0.00e+00	0	44	0	0	53	4445
2026-01-28 00:09:45.68	233.96	50.24	-41.0	-42.9	18.6	0.00e+00	0	44	0	0	53	4505
2026-01-28 00:09:46.67	233.63	49.95	-41.8	-43.8	17.7	0.00e+00	0	44	0	0	54	4733
2026-01-28 00:09:47.67	233.30	49.66	-42.4	-44.6	17.0	0.00e+00	0	44	0	0	55	4878
2026-01-28 00:09:48.66	232.99	49.38	-42.6	-44.8	16.7	0.00e+00	0	44	0	0	55	5008
2026-01-28 00:09:49.65	232.67	49.09	-42.5	-44.6	16.7	0.00e+00	0	44	0	0	55	4892
2026-01-28 00:09:50.64	232.37	48.81	-42.4	-44.4	16.8	0.00e+00	0	44	0	0	55	4799
2026-01-28 00:09:51.64	232.06	48.52	-42.4	-44.5	16.6	0.00e+00	0	44	0	0	55	4825
2026-01-28 00:09:52.63	231.77	48.24	-43.0	-45.2	16.2	0.00e+00	0	44	0	0	56	4930
2026-01-28 00:09:53.62	231.48	47.96	-42.8	-44.9	16.5	0.00e+00	0	44	0	0	56	4778
2026-01-28 00:09:54.62	231.19	47.68	-42.4	-44.4	17.0	0.00e+00	0	44	0	0	56	4506
2026-01-28 00:09:55.61	230.91	47.40	-42.3	-44.2	17.4	0.00e+00	0	44	0	0	56	4441
2026-01-28 00:09:56.60	230.64	47.12	-42.0	-43.9	17.7	0.00e+00	0	44	0	0	56	4291
2026-01-28 00:09:57.60	230.37	46.84	-41.8	-43.7	17.8	0.00e+00	0	44	0	0	55	4429
2026-01-28 00:09:58.59	230.10	46.57	-42.3	-44.4	17.1	0.00e+00	0	44	0	0	55	4787
2026-01-28 00:09:59.58	229.84	46.29	-43.1	-45.3	16.5	0.00e+00	0	44	0	0	56	5028
2026-01-28 00:10:00.57	229.59	46.02	-43.1	-45.3	16.3	0.00e+00	0	44	0	0	57	4753
2026-01-28 00:10:01.57	229.34	45.74	-42.8	-45.0	16.4	0.00e+00	0	44	0	0	57	4591
2026-01-28 00:10:02.56	229.09	45.47	-42.5	-44.6	17.0	0.00e+00	0	44	0	0	56	4623
2026-01-28 00:10:03.55	228.85	45.20	-42.2	-44.2	17.4	0.00e+00	0	44	0	0	56	4433
2026-01-28 00:10:04.54	228.61	44.94	-42.3	-44.4	17.4	0.00e+00	0	44	0	0	56	4496
2026-01-28 00:10:05.54	228.37	44.67	-42.5	-44.5	17.3	0.00e+00	0	44	0	0	56	4583
2026-01-28 00:10:06.53	228.14	44.40	-42.4	-44.4	17.4	0.00e+00	0	44	0	0	56	4509
2026-01-28 00:10:07.53	227.91	44.13	-42.0	-44.0	17.7	0.00e+00	0	44	0	0	56	4308
2026-01-28 00:10:08.52	227.69	43.87	-41.7	-43.6	17.8	0.00e+00	0	44	0	0	55	4380
2026-01-28 00:10:09.51	227.47	43.61	-41.7	-43.6	17.9	0.00e+00	0	44	0	0	55	4359
2026-01-28 00:10:10.51	227.25	43.35	-41.7	-43.6	18.0	0.00e+00	0	43	0	0	55	4368
2026-01-28 00:10:11.50	227.04	43.09	-42.0	-43.9	17.6	0.00e+00	0	44	0	0	55	4544
2026-01-28 00:10:12.49	226.83	42.83	-42.4	-44.5	17.2	0.00e+00	0	44	0	0	55	4825
2026-01-28 00:10:13.48	226.63	42.57	-43.2	-45.4	16.5	0.00e+00	0	44	0	0	56	5047
2026-01-28 00:10:14.48	226.42	42.31	-43.4	-45.6	16.1	0.00e+00	0	44	0	0	57	4922
2026-01-28 00:10:15.47	226.23	42.06	-43.0	-45.2	16.3	0.00e+00	0	44	0	0	57	4695
2026-01-28 00:10:16.46	226.03	41.81	-42.6	-44.7	16.6	0.00e+00	0	44	0	0	57	4436
2026-01-28 00:10:17.45	225.84	41.56	-42.6	-44.6	16.7	0.00e+00	0	44	0	0	57	4388
2026-01-28 00:10:18.45	225.65	41.31	-42.3	-44.4	17.2	0.00e+00	0	44	0	0	56	4496
2026-01-28 00:10:19.44	225.46	41.06	-41.7	-43.7	17.8	0.00e+00	0	44	0	0	55	4413
2026-01-28 00:10:20.43	225.28	40.81	-41.7	-43.6	17.9	0.00e+00	0	44	0	0	55	4378
2026-01-28 00:10:21.43	225.09	40.56	-42.0	-44.0	17.6	0.00e+00	0	44	0	0	55	4580
2026-01-28 00:10:22.42	224.92	40.32	-42.3	-44.3	17.3	0.00e+00	0	44	0	0	55	4746
2026-01-28 00:10:23.41	224.74	40.07	-42.2	-44.3	17.3	0.00e+00	0	44	0	0	55	4719
2026-01-28 00:10:24.40	224.57	39.83	-42.0	-44.0	17.6	0.00e+00	0	44	0	0	55	4557
2026-01-28 00:10:25.40	224.40	39.59	-41.8	-43.7	17.8	0.00e+00	0	44	0	0	55	4441
2026-01-28 00:10:26.39	224.23	39.35	-41.9	-43.8	17.7	0.00e+00	0	44	0	0	55	4484
2026-01-28 00:10:27.38	224.06	39.11	-41.9	-43.9	17.7	0.00e+00	0	44	0	0	55	4513
2026-01-28 00:10:28.38	223.90	38.88	-41.9	-43.9	17.6	0.00e+00	0	44	0	0	55	4535
2026-01-28 00:10:29.37	223.74	38.64	-42.0	-44.1	17.5	0.00e+00	0	44	0	0	55	4600
2026-01-28 00:10:30.36	223.58	38.41	-42.3	-44.4	17.1	0.00e+00	0	44	0	0	55	4791
2026-01-28 00:10:31.36	223.43	38.17	-42.4	-44.6	16.9	0.00e+00	0	44	0	0	55	4890
2026-01-28 00:10:32.35	223.27	37.94	-42.4	-44.5	16.9	0.00e+00	0	44	0	0	55	4854
2026-01-28 00:10:33.34	223.12	37.71	-42.2	-44.3	17.2	0.00e+00	0	44	0	0	55	4720
2026-01-28 00:10:34.33	222.97	37.48	-41.9	-43.9	17.5	0.00e+00	0	44	0	0	55	4538
2026-01-28 00:10:35.33	222.82	37.26	-41.9	-43.9	17.5	0.00e+00	0	44	0	0	55	4518
2026-01-28 00:10:36.32	222.68	37.03	-41.5	-43.4	17.9	0.00e+00	0	44	0	0	55	4281
2026-01-28 00:10:37.31	222.54	36.81	-41.3	-43.2	18.2	0.00e+00	0	44	0	0	54	4427
2026-01-28 00:10:38.30	222.39	36.58	-41.4	-43.3	18.2	0.00e+00	0	44	0	0	54	4463
2026-01-28 00:10:39.30	222.25	36.36	-41.6	-43.5	18.0	0.00e+00	0	44	0	0	54	4585
2026-01-28 00:10:40.29	222.12	36.14	-42.2	-44.2	17.4	0.00e+00	0	43	0	0	54	4957
2026-01-28 00:10:41.28	221.98	35.92	-42.4	-44.6	17.0	0.00e+00	0	44	0	0	55	4872
2026-01-28 00:10:42.28	221.85	35.70	-42.6	-44.8	16.8	0.00e+00	0	44	0	0	55	5000
2026-01-28 00:10:43.27	221.72	35.48	-42.4	-44.5	17.0	0.00e+00	0	44	0	0	55	4846
2026-01-28 00:10:44.26	221.59	35.27	-42.2	-44.2	17.3	0.00e+00	0	44	0	0	55	4678
2026-01-28 00:10:45.25	221.46	35.06	-42.0	-44.1	17.4	0.00e+00	0	44	0	0	55	4616
2026-01-28 00:10:46.25	221.33	34.84	-41.5	-43.5	17.9	0.00e+00	0	44	0	0	55	4300
2026-01-28 00:10:47.24	221.21	34.63	-41.5	-43.4	17.9	0.00e+00	0	44	0	0	54	4541
2026-01-28 00:10:48.23	221.08	34.42	-41.2	-43.1	18.3	0.00e+00	0	44	0	0	54	4345
2026-01-28 00:10:49.23	220.96	34.21	-41.1	-42.9	18.4	0.00e+00	0	44	0	0	54	4277
2026-01-28 00:10:50.22	220.84	34.00	-41.0	-42.9	18.5	0.00e+00	0	44	0	0	54	4254
2026-01-28 00:10:51.21	220.72	33.80	-41.1	-43.0	18.4	0.00e+00	0	44	0	0	54	4292
2026-01-28 00:10:52.20	220.60	33.59	-41.2	-43.0	18.4	0.00e+00	0	44	0	0	54	4328
2026-01-28 00:10:53.20	220.49	33.39	-40.9	-42.8	18.6	0.00e+00	0	44	0	0	53	4461
2026-01-28 00:10:54.19	220.37	33.18	-40.9	-42.8	18.7	0.00e+00	0	44	0	0	53	4453
2026-01-28 00:10:55.18	220.26	32.98	-41.0	-42.8	18.6	0.00e+00	0	44	0	0	53	4466
2026-01-28 00:10:56.17	220.15	32.78	-40.9	-42.7	18.7	0.00e+00	0	43	0	0	53	4423
2026-01-28 00:10:57.17	220.04	32.58	-40.8	-42.6	18.9	0.00e+00	0	44	0	0	53	4356
2026-01-28 00:10:58.16	219.93	32.38	-40.5	-42.3	19.1	0.00e+00	0	44	0	0	53	4238
2026-01-28 00:10:59.15	219.83	32.19	-40.6	-42.4	19.1	0.00e+00	0	44	0	0	52	4514
2026-01-28 00:11:00.15	219.72	31.99	-40.5	-42.3	19.2	0.00e+00	0	44	0	0	52	4449
2026-01-28 00:11:01.14	219.61	31.80	-40.6	-42.4	19.0	0.00e+00	0	44	0	0	52	4526
2026-01-28 00:11:02.13	219.51	31.60	-40.8	-42.6	18.8	0.00e+00	0	44	0	0	52	4635
2026-01-28 00:11:03.13	219.41	31.41	-40.9	-42.8	18.6	0.00e+00	0	44	0	0	52	4737
2026-01-28 00:11:04.12	219.31	31.22	-41.0	-42.9	18.6	0.00e+00	0	43	0	0	52	4772
2026-01-28 00:11:05.11	219.21	31.03	-40.9	-42.8	18.6	0.00e+00	0	44	0	0	52	4742
2026-01-28 00:11:06.10	219.11	30.84	-40.9	-42.8	18.6	0.00e+00	0	44	0	0	52	4744
2026-01-28 00:11:07.10	219.01	30.65	-40.8	-42.6	18.8	0.00e+00	0	44	0	0	52	4644
2026-01-28 00:11:08.09	218.92	30.46	-40.5	-42.3	19.0	0.00e+00	0	44	0	0	52	4458
2026-01-28 00:11:09.08	218.82	30.28	-40.4	-42.1	19.1	0.00e+00	0	44	0	0	52	4386
2026-01-28 00:11:10.08	218.73	30.09	-40.3	-42.0	19.3	0.00e+00	0	44	0	0	52	4315
2026-01-28 00:11:11.07	218.63	29.91	-40.3	-42.1	19.2	0.00e+00	0	44	0	0	52	4354
2026-01-28 00:11:12.06	218.54	29.73	-40.0	-41.7	19.6	0.00e+00	0	44	0	0	51	4428
2026-01-28 00:11:13.05	218.45	29.55	-39.9	-41.6	19.6	0.00e+00	0	44	0	0	51	4374
2026-01-28 00:11:14.05	218.36	29.37	-39.9	-41.6	19.6	0.00e+00	0	44	0	0	51	4379
2026-01-28 00:11:15.04	218.27	29.19	-39.8	-41.5	19.6	0.00e+00	0	44	0	0	51	4321
2026-01-28 00:11:16.03	218.19	29.01	-39.8	-41.5	19.6	0.00e+00	0	44	0	0	51	4319
2026-01-28 00:11:17.03	218.10	28.83	-39.9	-41.6	19.5	0.00e+00	0	44	0	0	51	4355
2026-01-28 00:11:18.02	218.01	28.66	-40.0	-41.7	19.5	0.00e+00	0	44	0	0	51	4410
2026-01-28 00:11:19.01	217.93	28.48	-40.0	-41.7	19.5	0.00e+00	0	44	0	0	51	4437
2026-01-28 00:11:20.00	217.85	28.31	-40.0	-41.8	19.5	0.00e+00	0	44	0	0	51	4462
2026-01-28 00:11:21.00	217.76	28.13	-40.1	-41.8	19.5	0.00e+00	0	44	0	0	51	4474
2026-01-28 00:11:21.99	217.68	27.96	-40.0	-41.8	19.6	0.00e+00	0	44	0	0	51	4447
2026-01-28 00:11:22.98	217.60	27.79	-40.1	-41.8	19.5	0.00e+00	0	44	0	0	51	4469
2026-01-28 00:11:23.98	217.52	27.62	-40.0	-41.7	19.6	0.00e+00	0	44	0	0	51	4433
2026-01-28 00:11:24.97	217.44	27.45	-40.0	-41.7	19.7	0.00e+00	0	44	0	0	51	4423
2026-01-28 00:11:25.96	217.36	27.29	-39.9	-41.7	19.7	0.00e+00	0	44	0	0	51	4402
2026-01-28 00:11:26.95	217.29	27.12	-40.0	-41.8	19.6	0.00e+00	0	44	0	0	51	4460
2026-01-28 00:11:27.95	217.21	26.95	-40.1	-41.8	19.6	0.00e+00	0	44	0	0	51	4482
2026-01-28 00:11:28.94	217.13	26.79	-40.1	-41.8	19.5	0.00e+00	0	44	0	0	51	4487
2026-01-28 00:11:29.93	217.06	26.62	-40.0	-41.8	19.6	0.00e+00	0	44	0	0	51	4452
2026-01-28 00:11:30.93	216.98	26.46	-40.1	-41.9	19.4	0.00e+00	0	44	0	0	51	4511
2026-01-28 00:11:31.92	216.91	26.30	-40.2	-42.0	19.3	0.00e+00	0	44	0	0	51	4565
2026-01-28 00:11:32.91	216.84	26.14	-40.0	-41.8	19.5	0.00e+00	0	44	0	0	51	4456
2026-01-28 00:11:33.91	216.76	25.97	-40.0	-41.8	19.5	0.00e+00	0	44	0	0	51	4468
2026-01-28 00:11:34.90	216.69	25.82	-39.9	-41.7	19.6	0.00e+00	0	44	0	0	51	4400
2026-01-28 00:11:35.89	216.62	25.66	-39.8	-41.5	19.8	0.00e+00	0	44	0	0	51	4337
2026-01-28 00:11:36.88	216.55	25.50	-39.9	-41.6	19.7	0.00e+00	0	44	0	0	51	4367
2026-01-28 00:11:37.88	216.48	25.34	-39.6	-41.3	20.0	0.00e+00	0	44	0	0	51	4212
2026-01-28 00:11:38.87	216.42	25.19	-39.7	-41.4	19.9	0.00e+00	0	44	0	0	51	4255
2026-01-28 00:11:39.86	216.35	25.03	-39.4	-41.1	20.1	0.00e+00	0	44	0	0	50	4369
2026-01-28 00:11:40.86	216.28	24.88	-39.3	-41.0	20.2	0.00e+00	0	44	0	0	50	4313
2026-01-28 00:11:41.85	216.21	24.72	-39.4	-41.1	20.1	0.00e+00	0	44	0	0	50	4357
2026-01-28 00:11:42.84	216.15	24.57	-39.4	-41.0	20.2	0.00e+00	0	44	0	0	50	4330
2026-01-28 00:11:43.84	216.08	24.42	-39.5	-41.1	20.1	0.00e+00	0	44	0	0	50	4384
2026-01-28 00:11:44.83	216.02	24.27	-39.5	-41.2	20.0	0.00e+00	0	44	0	0	50	4398
2026-01-28 00:11:45.82	215.96	24.12	-39.6	-41.3	20.0	0.00e+00	0	44	0	0	50	4455
2026-01-28 00:11:46.81	215.89	23.97	-39.7	-41.4	19.9	0.00e+00	0	44	0	0	50	4497
2026-01-28 00:11:47.80	215.83	23.82	-39.7	-41.3	19.9	0.00e+00	0	44	0	0	50	4488
2026-01-28 00:11:48.80	215.77	23.67	-39.7	-41.4	19.9	0.00e+00	0	44	0	0	50	4500
2026-01-28 00:11:49.79	215.71	23.53	-39.7	-41.4	19.8	0.00e+00	0	44	0	0	50	4534
2026-01-28 00:11:50.78	215.65	23.38	-39.8	-41.5	19.8	0.00e+00	0	44	0	0	50	4551
2026-01-28 00:11:51.78	215.59	23.23	-39.7	-41.4	19.8	0.00e+00	0	44	0	0	50	4502
2026-01-28 00:11:52.77	215.53	23.09	-39.8	-41.5	19.7	0.00e+00	0	44	0	0	50	4553
2026-01-28 00:11:53.76	215.47	22.95	-39.8	-41.5	19.7	0.00e+00	0	44	0	0	50	4562
2026-01-28 00:11:54.76	215.41	22.80	-39.8	-41.5	19.7	0.00e+00	0	44	0	0	50	4580
2026-01-28 00:11:55.75	215.35	22.66	-39.8	-41.5	19.7	0.00e+00	0	44	0	0	50	4588
2026-01-28 00:11:56.74	215.30	22.52	-39.9	-41.7	19.5	0.00e+00	0	44	0	0	50	4657
2026-01-28 00:11:57.74	215.24	22.38	-39.9	-41.6	19.6	0.00e+00	0	44	0	0	50	4619
2026-01-28 00:11:58.73	215.18	22.24	-40.0	-41.7	19.5	0.00e+00	0	44	0	0	50	4698
2026-01-28 00:11:59.72	215.13	22.10	-39.9	-41.7	19.5	0.00e+00	0	44	0	0	50	4655
2026-01-28 00:12:00.71	215.07	21.96	-39.9	-41.7	19.5	0.00e+00	0	44	0	0	50	4668
2026-01-28 00:12:01.71	215.02	21.82	-39.9	-41.7	19.6	0.00e+00	0	44	0	0	50	4662
2026-01-28 00:12:02.70	214.96	21.69	-39.9	-41.6	19.6	0.00e+00	0	44	0	0	50	4645
2026-01-28 00:12:03.69	214.91	21.55	-39.9	-41.6	19.6	0.00e+00	0	44	0	0	50	4646
2026-01-28 00:12:04.68	214.86	21.41	-39.9	-41.6	19.6	0.00e+00	0	44	0	0	50	4621
2026-01-28 00:12:05.68	214.80	21.28	-39.8	-41.5	19.7	0.00e+00	0	44	0	0	50	4589
2026-01-28 00:12:06.67	214.75	21.14	-39.8	-41.5	19.7	0.00e+00	0	44	0	0	50	4564
2026-01-28 00:12:07.66	214.70	21.01	-39.7	-41.4	19.8	0.00e+00	0	44	0	0	50	4540
2026-01-28 00:12:08.66	214.65	20.88	-39.8	-41.5	19.7	0.00e+00	0	44	0	0	50	4588
2026-01-28 00:12:09.65	214.60	20.75	-39.8	-41.5	19.7	0.00e+00	0	44	0	0	50	4577
2026-01-28 00:12:10.64	214.55	20.61	-39.8	-41.5	19.7	0.00e+00	0	44	0	0	50	4579
2026-01-28 00:12:11.64	214.50	20.48	-39.7	-41.4	19.8	0.00e+00	0	44	0	0	50	4530
2026-01-28 00:12:12.63	214.45	20.35	-39.7	-41.4	19.8	0.00e+00	0	44	0	0	50	4533
2026-01-28 00:12:13.62	214.40	20.22	-39.7	-41.4	19.8	0.00e+00	0	44	0	0	50	4537
2026-01-28 00:12:14.61	214.35	20.10	-39.8	-41.6	19.6	0.00e+00	0	44	0	0	50	4607
2026-01-28 00:12:15.61	214.30	19.97	-39.9	-41.7	19.6	0.00e+00	0	44	0	0	50	4652
2026-01-28 00:12:16.60	214.25	19.84	-39.9	-41.7	19.5	0.00e+00	0	44	0	0	50	4677
2026-01-28 00:12:17.59	214.21	19.71	-39.9	-41.7	19.5	0.00e+00	0	44	0	0	50	4701
2026-01-28 00:12:18.59	214.16	19.58	-40.0	-41.8	19.4	0.00e+00	0	44	0	0	50	4739
2026-01-28 00:12:19.58	214.11	19.46	-40.0	-41.9	19.4	0.00e+00	0	44	0	0	50	4762
2026-01-28 00:12:20.57	214.07	19.33	-40.1	-41.9	19.4	0.00e+00	0	44	0	0	50	4787
2026-01-28 00:12:21.57	214.02	19.21	-40.2	-42.0	19.3	0.00e+00	0	44	0	0	50	4827
2026-01-28 00:12:22.56	213.98	19.09	-40.2	-42.1	19.2	0.00e+00	0	44	0	0	51	4607
2026-01-28 00:12:23.55	213.93	18.96	-40.3	-42.1	19.2	0.00e+00	0	44	0	0	51	4617
2026-01-28 00:12:24.54	213.89	18.84	-40.3	-42.2	19.1	0.00e+00	0	44	0	0	51	4658
2026-01-28 00:12:25.53	213.84	18.72	-40.4	-42.2	19.1	0.00e+00	0	44	0	0	51	4672
2026-01-28 00:12:26.53	213.80	18.60	-40.3	-42.1	19.1	0.00e+00	0	44	0	0	51	4641
2026-01-28 00:12:27.52	213.76	18.47	-40.3	-42.1	19.1	0.00e+00	0	44	0	0	51	4649
2026-01-28 00:12:28.51	213.71	18.35	-40.3	-42.1	19.1	0.00e+00	0	44	0	0	51	4640
2026-01-28 00:12:29.51	213.67	18.23	-40.4	-42.2	19.0	0.00e+00	0	44	0	0	51	4679
2026-01-28 00:12:30.50	213.63	18.11	-40.4	-42.2	19.0	0.00e+00	0	44	0	0	51	4671
2026-01-28 00:12:31.49	213.59	18.00	-40.4	-42.2	19.0	0.00e+00	0	44	0	0	51	4697
2026-01-28 00:12:32.49	213.54	17.88	-40.4	-42.2	19.0	0.00e+00	0	44	0	0	51	4660
2026-01-28 00:12:33.48	213.50	17.76	-40.4	-42.3	18.9	0.00e+00	0	44	0	0	51	4721
2026-01-28 00:12:34.47	213.46	17.64	-40.4	-42.3	18.9	0.00e+00	0	44	0	0	51	4708
2026-01-28 00:12:35.46	213.42	17.53	-40.5	-42.3	18.9	0.00e+00	0	44	0	0	51	4723
2026-01-28 00:12:36.46	213.38	17.41	-40.5	-42.4	18.9	0.00e+00	0	44	0	0	51	4762
2026-01-28 00:12:37.45	213.34	17.29	-40.5	-42.4	18.8	0.00e+00	0	44	0	0	51	4763
2026-01-28 00:12:38.44	213.30	17.18	-40.5	-42.3	18.9	0.00e+00	0	44	0	0	51	4759
2026-01-28 00:12:39.43	213.26	17.07	-40.6	-42.4	18.8	0.00e+00	0	44	0	0	51	4780
2026-01-28 00:12:40.43	213.22	16.95	-40.5	-42.4	18.8	0.00e+00	0	44	0	0	51	4763
2026-01-28 00:12:41.42	213.19	16.84	-40.7	-42.5	18.7	0.00e+00	0	44	0	0	51	4846
2026-01-28 00:12:42.41	213.15	16.73	-40.6	-42.4	18.7	0.00e+00	0	44	0	0	52	4518
2026-01-28 00:12:43.41	213.11	16.61	-40.6	-42.5	18.6	0.00e+00	0	44	0	0	52	4566
2026-01-28 00:12:44.40	213.07	16.50	-40.8	-42.7	18.4	0.00e+00	0	44	0	0	52	4663
2026-01-28 00:12:45.39	213.03	16.39	-40.8	-42.7	18.4	0.00e+00	0	44	0	0	52	4695
2026-01-28 00:12:46.38	213.00	16.28	-40.7	-42.6	18.6	0.00e+00	0	44	0	0	52	4607
2026-01-28 00:12:47.38	212.96	16.17	-40.7	-42.6	18.5	0.00e+00	0	44	0	0	52	4629
2026-01-28 00:12:48.37	212.92	16.06	-40.7	-42.6	18.5	0.00e+00	0	44	0	0	52	4619
2026-01-28 00:12:49.36	212.89	15.95	-40.8	-42.7	18.4	0.00e+00	0	44	0	0	52	4694
2026-01-28 00:12:50.36	212.85	15.84	-40.8	-42.7	18.4	0.00e+00	0	44	0	0	52	4677
2026-01-28 00:12:51.35	212.81	15.73	-40.8	-42.7	18.4	0.00e+00	0	44	0	0	52	4683
2026-01-28 00:12:52.34	212.78	15.62	-40.8	-42.7	18.4	0.00e+00	0	44	0	0	52	4700
2026-01-28 00:12:53.34	212.74	15.51	-40.8	-42.7	18.4	0.00e+00	0	44	0	0	52	4677
2026-01-28 00:12:54.33	212.71	15.41	-40.8	-42.7	18.4	0.00e+00	0	44	0	0	52	4679
2026-01-28 00:12:55.32	212.67	15.30	-40.9	-42.8	18.3	0.00e+00	0	44	0	0	52	4735
2026-01-28 00:12:56.31	212.64	15.20	-40.7	-42.6	18.5	0.00e+00	0	44	0	0	52	4645
2026-01-28 00:12:57.31	212.61	15.09	-40.8	-42.8	18.3	0.00e+00	0	44	0	0	52	4713
2026-01-28 00:12:58.30	212.57	14.98	-40.9	-42.8	18.3	0.00e+00	0	44	0	0	52	4738
2026-01-28 00:12:59.29	212.54	14.88	-41.0	-42.9	18.2	0.00e+00	0	44	0	0	52	4777
2026-01-28 00:13:00.29	212.50	14.77	-40.8	-42.7	18.4	0.00e+00	0	44	0	0	52	4681
2026-01-28 00:13:01.28	212.47	14.67	-40.6	-42.5	18.6	0.00e+00	0	44	0	0	52	4576
2026-01-28 00:13:02.27	212.44	14.57	-40.8	-42.7	18.4	0.00e+00	0	44	0	0	52	4664
2026-01-28 00:13:03.27	212.41	14.46	-40.6	-42.5	18.5	0.00e+00	0	44	0	0	52	4570
2026-01-28 00:13:04.26	212.37	14.36	-40.7	-42.5	18.5	0.00e+00	0	44	0	0	52	4586
2026-01-28 00:13:05.25	212.34	14.26	-40.7	-42.5	18.5	0.00e+00	0	44	0	0	52	4592
2026-01-28 00:13:06.25	212.31	14.16	-40.7	-42.6	18.5	0.00e+00	0	44	0	0	52	4608
2026-01-28 00:13:07.24	212.28	14.05	-40.7	-42.6	18.5	0.00e+00	0	44	0	0	52	4601
2026-01-28 00:13:08.23	212.25	13.95	-40.7	-42.6	18.5	0.00e+00	0	44	0	0	52	4608
2026-01-28 00:13:09.23	212.22	13.85	-40.6	-42.5	18.5	0.00e+00	0	44	0	0	52	4572
2026-01-28 00:13:10.22	212.18	13.75	-40.8	-42.7	18.4	0.00e+00	0	44	0	0	52	4659
2026-01-28 00:13:11.21	212.15	13.65	-40.7	-42.6	18.4	0.00e+00	0	44	0	0	52	4619
2026-01-28 00:13:12.20	212.12	13.55	-40.8	-42.6	18.4	0.00e+00	0	44	0	0	52	4646
2026-01-28 00:13:13.20	212.09	13.45	-40.9	-42.8	18.2	0.00e+00	0	44	0	0	52	4747
2026-01-28 00:13:14.19	212.06	13.36	-40.8	-42.7	18.4	0.00e+00	0	44	0	0	52	4669
2026-01-28 00:13:15.18	212.03	13.26	-40.7	-42.6	18.4	0.00e+00	0	44	0	0	52	4611
2026-01-28 00:13:16.18	212.00	13.16	-40.7	-42.6	18.4	0.00e+00	0	44	0	0	52	4636
2026-01-28 00:13:17.17	211.97	13.06	-40.7	-42.6	18.4	0.00e+00	0	44	0	0	52	4610
2026-01-28 00:13:18.16	211.94	12.97	-40.8	-42.6	18.4	0.00e+00	0	44	0	0	52	4651
2026-01-28 00:13:19.16	211.92	12.87	-40.6	-42.5	18.5	0.00e+00	0	44	0	0	52	4573
2026-01-28 00:13:20.15	211.89	12.77	-40.8	-42.7	18.3	0.00e+00	0	44	0	0	52	4660
2026-01-28 00:13:21.14	211.86	12.68	-40.8	-42.7	18.3	0.00e+00	0	44	0	0	52	4654
2026-01-28 00:13:22.13	211.83	12.58	-40.8	-42.7	18.3	0.00e+00	0	44	0	0	52	4656
2026-01-28 00:13:23.13	211.80	12.49	-40.8	-42.7	18.3	0.00e+00	0	44	0	0	52	4687
2026-01-28 00:13:24.12	211.77	12.39	-40.9	-42.8	18.2	0.00e+00	0	44	0	0	52	4715
2026-01-28 00:13:25.11	211.75	12.30	-40.8	-42.7	18.3	0.00e+00	0	44	0	0	52	4656
2026-01-28 00:13:26.11	211.72	12.20	-40.8	-42.7	18.3	0.00e+00	0	44	0	0	52	4655
2026-01-28 00:13:27.10	211.69	12.11	-40.9	-42.8	18.2	0.00e+00	0	44	0	0	52	4714
2026-01-28 00:13:28.09	211.66	12.01	-40.8	-42.7	18.2	0.00e+00	0	44	0	0	52	4694
2026-01-28 00:13:29.08	211.64	11.92	-40.7	-42.6	18.4	0.00e+00	0	44	0	0	52	4604
2026-01-28 00:13:30.08	211.61	11.83	-40.7	-42.6	18.3	0.00e+00	0	44	0	0	52	4645
2026-01-28 00:13:31.07	211.58	11.74	-40.8	-42.7	18.3	0.00e+00	0	44	0	0	52	4657
2026-01-28 00:13:32.06	211.56	11.64	-40.8	-42.7	18.3	0.00e+00	0	44	0	0	52	4678
2026-01-28 00:13:33.06	211.53	11.55	-40.7	-42.6	18.4	0.00e+00	0	44	0	0	52	4617
2026-01-28 00:13:34.05	211.50	11.46	-40.7	-42.7	18.3	0.00e+00	0	44	0	0	52	4652
2026-01-28 00:13:35.04	211.48	11.37	-40.8	-42.7	18.3	0.00e+00	0	44	0	0	52	4666
2026-01-28 00:13:36.03	211.45	11.28	-40.7	-42.6	18.3	0.00e+00	0	44	0	0	52	4647
2026-01-28 00:13:37.03	211.43	11.19	-40.7	-42.7	18.3	0.00e+00	0	44	0	0	52	4657
2026-01-28 00:13:38.02	211.40	11.10	-40.6	-42.5	18.4	0.00e+00	0	44	0	0	52	4589
2026-01-28 00:13:39.01	211.38	11.01	-40.8	-42.7	18.2	0.00e+00	0	44	0	0	52	4680
2026-01-28 00:13:40.01	211.35	10.92	-40.8	-42.8	18.2	0.00e+00	0	44	0	0	52	4712
2026-01-28 00:13:41.00	211.33	10.83	-40.7	-42.7	18.2	0.00e+00	0	44	0	0	52	4676
2026-01-28 00:13:41.99	211.30	10.74	-40.9	-42.9	18.1	0.00e+00	0	44	0	0	52	4760
2026-01-28 00:13:42.98	211.28	10.65	-40.8	-42.8	18.1	0.00e+00	0	44	0	0	52	4720
2026-01-28 00:13:43.98	211.25	10.57	-40.6	-42.6	18.3	0.00e+00	0	44	0	0	52	4606
2026-01-28 00:13:44.97	211.23	10.48	-40.9	-42.9	18.0	0.00e+00	0	44	0	0	52	4788
2026-01-28 00:13:45.96	211.20	10.39	-40.9	-42.9	18.0	0.00e+00	0	44	0	0	52	4787
2026-01-28 00:13:46.95	211.18	10.30	-40.8	-42.8	18.1	0.00e+00	0	44	0	0	52	4748
2026-01-28 00:13:47.95	211.16	10.22	-40.9	-42.9	18.0	0.00e+00	0	44	0	0	52	4813
2026-01-28 00:13:48.94	211.13	10.13	-40.9	-42.9	18.0	0.00e+00	0	44	0	0	52	4782
2026-01-28 00:13:49.93	211.11	10.04	-41.0	-42.9	17.9	0.00e+00	0	44	0	0	52	4814
2026-01-28 00:13:50.93	211.09	9.96	-41.0	-43.0	17.9	0.00e+00	0	44	0	0	52	4841
2026-01-28 00:13:51.92	211.06	9.87	-40.9	-42.9	18.0	0.00e+00	0	44	0	0	52	4785
2026-01-28 00:13:52.91	211.04	9.79	-41.3	-43.3	17.6	0.00e+00	0	44	0	0	53	4709
2026-01-28 00:13:53.91	211.02	9.70	-41.3	-43.3	17.6	0.00e+00	0	44	0	0	53	4714
2026-01-28 00:13:54.90	210.99	9.62	-41.1	-43.1	17.8	0.00e+00	0	44	0	0	53	4630
2026-01-28 00:13:55.89	210.97	9.53	-41.2	-43.1	17.7	0.00e+00	0	44	0	0	53	4646
2026-01-28 00:13:56.89	210.95	9.45	-41.4	-43.5	17.5	0.00e+00	0	44	0	0	53	4817
2026-01-28 00:13:57.88	210.93	9.36	-41.4	-43.5	17.4	0.00e+00	0	44	0	0	53	4833
2026-01-28 00:13:58.87	210.90	9.28	-41.5	-43.5	17.3	0.00e+00	0	44	0	0	53	4850
2026-01-28 00:13:59.86	210.88	9.20	-41.5	-43.6	17.2	0.00e+00	0	44	0	0	54	4637
2026-01-28 00:14:00.86	210.86	9.11	-41.5	-43.6	17.3	0.00e+00	0	44	0	0	54	4603
2026-01-28 00:14:01.85	210.84	9.03	-41.4	-43.5	17.4	0.00e+00	0	43	0	0	54	4557
2026-01-28 00:14:02.84	210.82	8.95	-47.3	-52.6	9.1	0.00e+00	0	44	0	0	64	7295
2026-01-28 00:14:03.84	210.79	8.86	-48.9	-62.0	3.8	1.49e+00	0	44	104	0	69	16128
2026-01-28 00:14:04.83	210.77	8.78	-48.2	-61.7	3.8	1.49e+00	0	44	104	0	66	18724
2026-01-28 00:14:05.82	210.75	8.70	-44.6	-61.2	3.8	1.49e+00	0	44	104	0	61	23406
2026-01-28 00:14:06.81	210.73	8.62	-46.7	-60.7	3.8	1.49e+00	0	44	104	0	64	18676
2026-01-28 00:14:07.81	210.71	8.54	-48.4	-62.1	3.8	1.49e+00	0	44	104	0	67	18476
2026-01-28 00:14:08.80	210.69	8.46	-49.4	-62.5	3.8	1.49e+00	0	44	104	0	69	17215
2026-01-28 00:14:09.79	210.67	8.38	-49.4	-62.6	3.8	1.49e+00	0	44	104	0	69	17302
2026-01-28 00:14:10.79	210.65	8.29	-49.5	-62.5	3.8	1.49e+00	0	44	104	0	69	17261
2026-01-28 00:14:11.78	210.63	8.21	-49.6	-62.6	3.8	1.49e+00	0	44	104	0	69	17407
2026-01-28 00:14:12.77	210.61	8.13	-49.3	-62.7	3.8	1.49e+00	0	44	104	0	69	17493
2026-01-28 00:14:13.77	210.59	8.05	-49.5	-62.6	3.8	1.49e+00	0	44	104	0	69	17475
2026-01-28 00:14:14.76	210.57	7.97	-49.6	-62.6	3.8	1.49e+00	0	44	104	0	69	17473
2026-01-28 00:14:15.75	210.55	7.90	-49.3	-62.6	3.8	1.49e+00	0	44	104	0	69	17407
2026-01-28 00:14:16.74	210.53	7.82	-49.4	-62.6	3.8	1.49e+00	0	44	104	0	69	17447
2026-01-28 00:14:17.74	210.51	7.74	-49.4	-62.6	3.8	1.49e+00	0	44	104	0	69	17388
2026-01-28 00:14:18.73	210.49	7.66	-49.3	-62.6	3.8	1.49e+00	0	44	104	0	69	17455
2026-01-28 00:14:19.72	210.47	7.58	-49.3	-62.6	3.8	1.49e+00	0	44	104	0	69	17437
2026-01-28 00:14:20.72	210.45	7.50	-49.4	-62.6	3.8	1.49e+00	0	44	104	0	69	17478
2026-01-28 00:14:21.71	210.43	7.42	-49.3	-62.6	3.8	1.49e+00	0	44	104	0	69	17360
2026-01-28 00:14:22.70	210.41	7.35	-49.3	-62.6	3.8	1.49e+00	0	44	104	0	69	17412
2026-01-28 00:14:23.69	210.39	7.27	-49.2	-62.7	3.8	1.49e+00	0	44	104	0	69	17499
2026-01-28 00:14:24.69	210.37	7.19	-49.5	-62.7	3.8	1.49e+00	0	44	104	0	69	17488
2026-01-28 00:14:25.68	210.35	7.12	-49.4	-62.6	3.8	1.49e+00	0	44	104	0	69	17424
2026-01-28 00:14:26.68	210.34	7.04	-49.5	-62.6	3.8	1.49e+00	0	44	104	0	69	17454
2026-01-28 00:14:27.67	210.32	6.96	-49.6	-62.6	3.8	1.49e+00	0	44	104	0	69	17348
2026-01-28 00:14:28.66	210.30	6.89	-49.5	-62.6	3.8	1.49e+00	0	44	104	0	69	17321
2026-01-28 00:14:29.65	210.28	6.81	-49.4	-62.5	3.8	1.49e+00	0	44	104	0	69	17225
2026-01-28 00:14:30.65	210.26	6.73	-49.4	-62.5	3.8	1.49e+00	0	44	104	0	69	17227
2026-01-28 00:14:31.64	210.24	6.66	-49.4	-62.5	3.8	1.49e+00	0	44	104	0	69	17203
2026-01-28 00:14:32.63	210.23	6.58	-49.3	-62.5	3.8	1.49e+00	0	44	104	0	69	17178
2026-01-28 00:14:33.63	210.21	6.51	-49.3	-62.5	3.8	1.49e+00	0	44	104	0	69	17140
2026-01-28 00:14:34.62	210.19	6.43	-49.4	-62.5	3.8	1.49e+00	0	44	104	0	69	17156
2026-01-28 00:14:35.61	210.17	6.36	-49.4	-62.5	3.8	1.49e+00	0	44	104	0	69	17158
2026-01-28 00:14:36.61	210.16	6.28	-49.4	-62.5	3.8	1.49e+00	0	44	104	0	69	17205
