passes_logs/2026/01/28/T1/T1__20260128_223254_SUOMI_NPP_rec.log

#Pass ID: 20260128_223254_SUOMI NPP
#Satellite: SUOMI NPP
#Configuration: NPP
#almurnet v.1.7.20251203
#Start time: 2026-01-28 22:32:53

#Version: 2.0.20230620
#Station: T1
#Location: 37.570604 lon 55.790049 lat
#TLE: 1 37849U 11061A   26027.86188320  .00000172  00000+0  10275-3 0  9990
#TLE: 2 37849  98.7823 329.8005 0002088  41.4184 318.7150 14.19530883738530

#Time	Az	El	Level	Level2	SNR	BER	BlckErr	Temp	State	Recorded	gain1	gain2
2026-01-28 22:32:53.89	26.33	4.97	-49.7	-65.2	3.8	1.49e+00	0	36	0	0	70	22098
2026-01-28 22:32:54.88	26.40	5.03	-50.0	-65.2	3.8	1.49e+00	0	37	104	0	71	20957
2026-01-28 22:32:55.87	26.47	5.10	-50.0	-65.3	3.8	1.49e+00	0	37	104	0	71	21067
2026-01-28 22:32:56.87	26.55	5.16	-50.1	-65.3	3.8	1.49e+00	0	37	104	0	71	21154
2026-01-28 22:32:57.86	26.62	5.22	-50.2	-65.3	3.8	1.49e+00	0	37	104	0	71	21177
2026-01-28 22:32:58.85	26.69	5.28	-50.2	-65.3	3.8	1.49e+00	0	37	104	0	71	21119
2026-01-28 22:32:59.85	26.76	5.35	-50.1	-65.3	3.8	1.49e+00	0	37	104	0	71	21109
2026-01-28 22:33:00.84	26.83	5.41	-50.0	-65.3	3.8	1.49e+00	0	37	104	0	71	21107
2026-01-28 22:33:01.83	26.91	5.47	-50.0	-65.3	3.8	1.49e+00	0	37	104	0	71	21055
2026-01-28 22:33:02.82	26.98	5.54	-50.1	-65.2	3.8	1.49e+00	0	37	104	0	71	20919
2026-01-28 22:33:03.82	27.05	5.60	-50.0	-65.2	3.8	1.49e+00	0	37	104	0	71	20895
2026-01-28 22:33:04.81	27.13	5.66	-50.0	-65.2	3.8	1.49e+00	0	37	104	0	71	20910
2026-01-28 22:33:05.80	27.20	5.73	-50.0	-65.1	3.8	1.49e+00	0	37	104	0	71	20743
2026-01-28 22:33:06.80	27.27	5.79	-49.9	-65.1	3.8	1.49e+00	0	37	104	0	71	20675
2026-01-28 22:33:07.79	27.35	5.85	-49.8	-65.0	3.8	1.49e+00	0	37	104	0	71	20477
2026-01-28 22:33:08.78	27.42	5.92	-49.5	-65.0	3.8	1.49e+00	0	37	104	0	71	20321
2026-01-28 22:33:09.78	27.50	5.98	-49.6	-64.9	3.8	1.49e+00	0	37	104	0	70	21363
2026-01-28 22:33:10.77	27.57	6.05	-49.1	-64.7	3.8	1.49e+00	0	37	104	0	69	22180
2026-01-28 22:33:11.76	27.65	6.11	-48.9	-64.6	3.8	1.49e+00	0	37	104	0	69	21851
2026-01-28 22:33:12.76	27.72	6.17	-48.9	-64.6	3.8	1.49e+00	0	37	104	0	69	21773
2026-01-28 22:33:13.75	27.80	6.24	-48.9	-64.6	3.8	1.49e+00	0	37	104	0	69	21933
2026-01-28 22:33:14.74	27.88	6.30	-48.9	-64.6	3.8	1.49e+00	0	38	104	0	69	21877
2026-01-28 22:33:15.74	27.95	6.37	-48.9	-64.6	3.8	1.49e+00	0	38	104	0	69	21838
2026-01-28 22:33:16.73	28.03	6.43	-48.9	-64.6	3.8	1.49e+00	0	38	104	0	69	21814
2026-01-28 22:33:17.72	28.11	6.50	-48.9	-64.6	3.8	1.49e+00	0	38	104	0	69	21767
2026-01-28 22:33:18.72	28.19	6.56	-48.9	-64.6	3.8	1.49e+00	0	38	104	0	69	21803
2026-01-28 22:33:19.71	28.27	6.63	-48.9	-64.6	3.8	1.49e+00	0	38	104	0	69	21756
2026-01-28 22:33:20.70	28.34	6.69	-48.9	-64.5	3.8	1.49e+00	0	38	104	0	69	21616
2026-01-28 22:33:21.70	28.42	6.76	-48.9	-64.5	3.8	1.49e+00	0	38	104	0	69	21543
2026-01-28 22:33:22.69	28.50	6.83	-48.9	-64.5	3.8	1.49e+00	0	38	104	0	69	21533
2026-01-28 22:33:23.68	28.58	6.89	-48.9	-64.5	3.8	1.49e+00	0	38	104	0	69	21637
2026-01-28 22:33:24.68	28.66	6.96	-48.9	-64.5	3.8	1.49e+00	0	38	104	0	69	21543
2026-01-28 22:33:25.67	28.74	7.02	-48.9	-64.5	3.8	1.49e+00	0	38	104	0	69	21516
2026-01-28 22:33:26.66	28.82	7.09	-48.9	-64.4	3.8	1.49e+00	0	38	104	0	69	21371
2026-01-28 22:33:27.66	28.90	7.16	-48.9	-64.3	3.8	1.49e+00	0	38	104	0	69	21174
2026-01-28 22:33:28.65	28.98	7.22	-48.9	-64.3	3.8	1.49e+00	0	38	104	0	69	21051
2026-01-28 22:33:29.64	29.07	7.29	-48.9	-64.2	3.8	1.49e+00	0	38	104	0	69	20824
2026-01-28 22:33:30.64	29.15	7.35	-48.9	-64.1	3.8	1.49e+00	0	38	104	0	69	20658
2026-01-28 22:33:31.63	29.23	7.42	-48.9	-64.1	3.8	1.49e+00	0	38	104	0	69	20552
2026-01-28 22:33:32.62	29.31	7.49	-48.9	-64.1	3.8	1.49e+00	0	38	104	0	69	20715
2026-01-28 22:33:33.62	29.40	7.56	-48.9	-64.2	3.8	1.49e+00	0	38	104	0	69	20830
2026-01-28 22:33:34.61	29.48	7.62	-48.9	-64.4	3.8	1.49e+00	0	38	104	0	69	21268
2026-01-28 22:33:35.60	29.56	7.69	-48.9	-64.4	3.8	1.49e+00	0	38	104	0	69	21504
2026-01-28 22:33:36.60	29.65	7.76	-48.9	-64.5	3.8	1.49e+00	0	38	104	0	69	21614
2026-01-28 22:33:37.59	29.73	7.82	-48.9	-64.6	3.8	1.49e+00	0	38	104	0	69	21805
2026-01-28 22:33:38.58	29.82	7.89	-48.9	-64.5	3.8	1.49e+00	0	38	104	0	69	21633
2026-01-28 22:33:39.58	29.90	7.96	-48.9	-64.5	3.8	1.49e+00	0	38	104	0	69	21693
2026-01-28 22:33:40.57	29.99	8.03	-48.9	-64.5	3.8	1.49e+00	0	38	104	0	69	21513
2026-01-28 22:33:41.56	30.07	8.10	-48.9	-64.4	3.8	1.49e+00	0	38	104	0	69	21396
2026-01-28 22:33:42.55	30.16	8.16	-48.9	-64.3	3.8	1.49e+00	0	38	104	0	69	21229
2026-01-28 22:33:43.55	30.25	8.23	-48.9	-64.4	3.8	1.49e+00	0	38	104	0	69	21323
2026-01-28 22:33:44.54	30.33	8.30	-48.9	-64.3	3.8	1.49e+00	0	38	104	0	69	21115
2026-01-28 22:33:45.54	30.42	8.37	-48.9	-64.3	3.8	1.49e+00	0	38	104	0	69	21022
2026-01-28 22:33:46.53	30.51	8.44	-48.8	-64.2	3.8	1.49e+00	0	38	104	0	69	20846
2026-01-28 22:33:47.52	30.60	8.51	-48.8	-64.0	3.8	1.49e+00	0	38	104	0	69	20402
2026-01-28 22:33:48.51	30.69	8.58	-48.8	-63.7	3.8	1.49e+00	0	38	104	0	69	19719
2026-01-28 22:33:49.51	30.78	8.64	-48.8	-63.2	3.8	1.49e+00	0	38	104	0	69	18657
2026-01-28 22:33:50.50	30.87	8.71	-48.8	-62.4	3.9	1.49e+00	0	38	104	0	69	16926
2026-01-28 22:33:51.49	30.96	8.78	-48.7	-61.0	4.2	1.47e+00	0	39	0	0	69	14485
2026-01-28 22:33:52.49	31.05	8.85	-48.5	-59.7	4.6	1.05e+00	0	38	0	1048576	69	12491
2026-01-28 22:33:53.48	31.14	8.92	-48.3	-57.8	5.8	5.31e-01	0	38	0	2097152	68	10548
2026-01-28 22:33:54.47	31.23	8.99	-48.0	-56.1	7.1	2.44e-01	0	38	0	4194304	68	8724
2026-01-28 22:33:55.47	31.32	9.06	-47.7	-55.2	7.8	1.00e-01	0	38	0	6291456	67	8339
2026-01-28 22:33:56.46	31.41	9.13	-48.1	-57.3	6.1	1.10e-01	0	38	0	8388608	67	10638
2026-01-28 22:33:57.46	31.51	9.20	-48.1	-57.2	5.9	1.30e+00	0	39	0	9437184	67	10484
2026-01-28 22:33:58.45	31.60	9.27	-47.8	-55.5	7.9	3.98e-03	0	39	0	11534336	66	9108
2026-01-28 22:33:59.45	31.69	9.34	-47.1	-53.4	5.2	1.47e+00	0	39	104	11534336	66	7136
2026-01-28 22:34:00.44	31.79	9.41	-44.0	-47.1	16.2	0.00e+00	0	39	0	12582912	59	5167
2026-01-28 22:34:01.44	31.88	9.49	-44.0	-47.0	16.2	0.00e+00	0	39	0	13631488	59	5155
2026-01-28 22:34:02.43	31.97	9.56	-43.7	-46.7	16.5	0.00e+00	0	39	0	15728640	59	4971
2026-01-28 22:34:03.47	32.07	9.63	-43.4	-46.2	17.0	0.00e+00	0	39	0	17825792	58	4937
2026-01-28 22:34:04.42	32.17	9.70	-43.4	-46.2	17.0	0.00e+00	0	38	0	19922944	58	4972
2026-01-28 22:34:05.41	32.26	9.77	-43.3	-46.1	17.1	0.00e+00	0	39	0	22020096	58	4902
2026-01-28 22:34:06.41	32.36	9.84	-43.1	-45.9	17.3	0.00e+00	0	38	0	23068672	58	4779
2026-01-28 22:34:07.40	32.45	9.91	-43.2	-46.0	17.2	0.00e+00	0	39	0	25165824	58	4857
2026-01-28 22:34:08.40	32.55	9.98	-43.2	-46.0	17.2	0.00e+00	0	39	0	27262976	58	4841
2026-01-28 22:34:09.39	32.65	10.06	-43.2	-46.0	17.2	0.00e+00	0	39	0	29360128	58	4856
2026-01-28 22:34:10.38	32.75	10.13	-43.3	-46.2	17.0	0.00e+00	0	39	0	30408704	58	4939
2026-01-28 22:34:11.38	32.85	10.20	-43.4	-46.3	16.9	0.00e+00	0	39	0	32505856	58	5016
2026-01-28 22:34:12.37	32.95	10.27	-43.4	-46.3	17.0	0.00e+00	0	39	0	34603008	58	5007
2026-01-28 22:34:13.37	33.05	10.35	-43.5	-46.5	16.8	0.00e+00	0	39	0	36700160	58	5121
2026-01-28 22:34:14.37	33.15	10.42	-43.6	-46.6	16.7	0.00e+00	0	39	0	38797312	58	5164
2026-01-28 22:34:15.36	33.25	10.49	-43.6	-46.6	16.7	0.00e+00	0	39	0	39845888	58	5198
2026-01-28 22:34:16.35	33.35	10.56	-44.0	-47.1	16.2	0.00e+00	0	39	0	41943040	58	5493
2026-01-28 22:34:17.35	33.45	10.64	-43.8	-46.9	16.4	0.00e+00	0	39	0	44040192	58	5364
2026-01-28 22:34:18.35	33.55	10.71	-43.6	-46.6	16.7	0.00e+00	0	39	0	46137344	58	5164
2026-01-28 22:34:19.34	33.66	10.78	-43.9	-47.0	16.3	0.00e+00	0	39	0	47185920	58	5452
2026-01-28 22:34:20.40	33.77	10.86	-43.9	-46.9	16.3	0.00e+00	0	39	0	49283072	58	5402
2026-01-28 22:34:21.28	33.86	10.93	-43.8	-46.7	16.6	0.00e+00	0	39	0	51380224	58	5238
2026-01-28 22:34:22.61	34.00	11.03	-43.8	-46.7	16.6	0.00e+00	0	39	0	53477376	58	5248
2026-01-28 22:34:23.71	34.11	11.11	-43.8	-46.6	16.7	0.00e+00	0	39	0	55574528	58	5200
2026-01-28 22:34:24.56	34.20	11.17	-43.7	-46.5	16.7	0.00e+00	0	39	0	57671680	58	5150
2026-01-28 22:34:25.70	34.32	11.26	-43.7	-46.5	16.8	0.00e+00	0	39	0	59768832	58	5147
2026-01-28 22:34:26.55	34.41	11.32	-43.6	-46.4	16.8	0.00e+00	0	39	0	60817408	58	5077
2026-01-28 22:34:27.69	34.54	11.40	-43.6	-46.5	16.8	0.00e+00	0	39	0	62914560	58	5102
2026-01-28 22:34:28.54	34.63	11.47	-43.6	-46.5	16.8	0.00e+00	0	39	0	65011712	58	5103
2026-01-28 22:34:29.68	34.75	11.55	-43.5	-46.2	17.1	0.00e+00	0	39	0	67108864	58	4957
2026-01-28 22:34:30.53	34.84	11.62	-43.5	-46.3	17.0	0.00e+00	0	39	0	68157440	58	5015
2026-01-28 22:34:31.67	34.97	11.70	-43.6	-46.4	16.9	0.00e+00	0	39	0	71303168	58	5045
2026-01-28 22:34:32.52	35.06	11.77	-43.6	-46.3	16.9	0.00e+00	0	39	0	72351744	58	5034
2026-01-28 22:34:33.66	35.19	11.86	-43.5	-46.2	17.1	0.00e+00	0	39	0	74448896	58	4979
2026-01-28 22:34:34.68	35.30	11.93	-43.4	-46.2	17.1	0.00e+00	0	39	0	76546048	58	4941
2026-01-28 22:34:35.85	35.43	12.02	-43.3	-46.0	17.2	0.00e+00	0	39	0	78643200	58	4865
2026-01-28 22:34:36.73	35.53	12.09	-43.3	-46.0	17.3	0.00e+00	0	39	0	80740352	58	4844
2026-01-28 22:34:37.87	35.66	12.18	-43.3	-46.0	17.3	0.00e+00	0	39	0	82837504	58	4829
2026-01-28 22:34:38.80	35.77	12.25	-43.3	-46.1	17.2	0.00e+00	0	39	0	83886080	58	4904
2026-01-28 22:34:39.97	35.90	12.34	-43.2	-46.0	17.4	0.00e+00	0	39	0	85983232	58	4827
2026-01-28 22:34:40.84	36.00	12.40	-43.3	-46.0	17.3	0.00e+00	0	39	0	88080384	58	4860
2026-01-28 22:34:41.98	36.13	12.49	-43.2	-46.0	17.3	0.00e+00	0	39	0	90177536	58	4822
2026-01-28 22:34:42.83	36.23	12.56	-43.3	-46.0	17.3	0.00e+00	0	39	0	91226112	58	4847
2026-01-28 22:34:43.97	36.36	12.64	-43.3	-46.1	17.2	0.00e+00	0	39	0	94371840	58	4889
2026-01-28 22:34:44.82	36.46	12.71	-43.3	-46.0	17.3	0.00e+00	0	39	0	95420416	58	4840
2026-01-28 22:34:45.96	36.60	12.80	-43.1	-45.8	17.5	0.00e+00	0	39	0	97517568	58	4708
2026-01-28 22:34:46.81	36.70	12.86	-43.2	-45.9	17.5	0.00e+00	0	39	0	99614720	58	4774
2026-01-28 22:34:47.94	36.83	12.95	-43.1	-45.7	17.6	0.00e+00	0	39	0	101711872	58	4682
2026-01-28 22:34:48.80	36.93	13.02	-43.1	-45.7	17.6	0.00e+00	0	39	0	102760448	58	4668
2026-01-28 22:34:49.93	37.07	13.11	-43.3	-46.0	17.4	0.00e+00	0	39	0	104857600	58	4824
2026-01-28 22:34:50.78	37.17	13.17	-43.0	-45.6	17.7	0.00e+00	0	39	0	106954752	58	4605
2026-01-28 22:34:51.98	37.32	13.27	-43.0	-45.6	17.7	0.00e+00	0	39	0	109051904	57	4905
2026-01-28 22:34:52.84	37.42	13.34	-43.0	-45.6	17.8	0.00e+00	0	39	0	110100480	57	4883
2026-01-28 22:34:54.04	37.57	13.43	-42.8	-45.4	17.9	0.00e+00	0	39	0	112197632	57	4765
2026-01-28 22:34:54.89	37.67	13.50	-42.9	-45.4	17.9	0.00e+00	0	39	0	114294784	57	4784
2026-01-28 22:34:56.03	37.82	13.59	-43.0	-45.5	17.8	0.00e+00	0	39	0	116391936	57	4866
2026-01-28 22:34:56.88	37.92	13.65	-43.0	-45.5	17.7	0.00e+00	0	39	0	118489088	57	4870
2026-01-28 22:34:58.02	38.06	13.75	-42.9	-45.4	17.9	0.00e+00	0	39	0	120586240	57	4814
2026-01-28 22:34:58.87	38.17	13.81	-43.1	-45.7	17.6	0.00e+00	0	39	0	121634816	57	4934
2026-01-28 22:35:00.01	38.31	13.90	-43.2	-45.8	17.6	0.00e+00	0	39	0	123731968	57	5006
2026-01-28 22:35:00.86	38.42	13.97	-43.2	-45.9	17.5	0.00e+00	0	39	0	125829120	57	5049
2026-01-28 22:35:02.00	38.57	14.06	-43.5	-46.3	17.1	0.00e+00	0	39	0	127926272	57	5290
2026-01-28 22:35:02.86	38.68	14.13	-43.6	-46.3	17.0	0.00e+00	0	39	0	128974848	57	5318
2026-01-28 22:35:03.99	38.82	14.22	-43.7	-46.4	17.0	0.00e+00	0	39	0	131072000	57	5380
2026-01-28 22:35:04.84	38.93	14.29	-43.6	-46.3	17.1	0.00e+00	0	39	0	133169152	57	5314
2026-01-28 22:35:05.98	39.08	14.38	-43.7	-46.5	16.9	0.00e+00	0	39	0	135266304	58	5107
2026-01-28 22:35:06.84	39.20	14.45	-43.6	-46.3	17.1	0.00e+00	0	39	0	136314880	58	5002
2026-01-28 22:35:07.98	39.35	14.54	-43.6	-46.3	17.1	0.00e+00	0	39	0	138412032	58	5030
2026-01-28 22:35:08.83	39.46	14.61	-43.7	-46.4	17.0	0.00e+00	0	39	0	140509184	58	5082
2026-01-28 22:35:09.96	39.61	14.70	-43.5	-46.2	17.2	0.00e+00	0	39	0	142606336	58	4935
2026-01-28 22:35:10.81	39.72	14.77	-43.6	-46.2	17.2	0.00e+00	0	39	0	144703488	58	4979
2026-01-28 22:35:11.95	39.88	14.86	-43.6	-46.4	17.0	0.00e+00	0	39	0	146800640	58	5050
2026-01-28 22:35:12.80	39.99	14.93	-43.3	-46.0	17.4	0.00e+00	0	39	0	147849216	58	4818
2026-01-28 22:35:13.94	40.15	15.02	-43.3	-45.9	17.4	0.00e+00	0	39	0	149946368	58	4791
2026-01-28 22:35:14.79	40.26	15.09	-43.2	-45.8	17.5	0.00e+00	0	39	0	152043520	58	4756
2026-01-28 22:35:15.98	40.43	15.19	-43.1	-45.7	17.7	0.00e+00	0	39	0	154140672	58	4675
2026-01-28 22:35:16.83	40.54	15.26	-43.1	-45.6	17.8	0.00e+00	0	39	0	155189248	58	4638
2026-01-28 22:35:18.01	40.71	15.36	-42.9	-45.5	17.9	0.00e+00	0	39	0	157286400	57	4816
2026-01-28 22:35:18.86	40.83	15.43	-42.8	-45.3	18.1	0.00e+00	0	39	0	159383552	57	4724
2026-01-28 22:35:20.06	40.99	15.52	-42.8	-45.3	18.0	0.00e+00	0	39	0	161480704	57	4717
2026-01-28 22:35:20.91	41.11	15.59	-42.8	-45.2	18.1	0.00e+00	0	39	0	163577856	57	4704
2026-01-28 22:35:22.12	41.29	15.69	-42.8	-45.3	18.0	0.00e+00	0	39	0	165675008	57	4737
2026-01-28 22:35:22.97	41.41	15.76	-42.7	-45.2	18.1	0.00e+00	0	39	0	166723584	57	4657
2026-01-28 22:35:24.10	41.57	15.86	-42.7	-45.2	18.2	0.00e+00	0	39	0	168820736	57	4657
2026-01-28 22:35:24.96	41.69	15.93	-42.7	-45.1	18.2	0.00e+00	0	39	0	170917888	57	4636
2026-01-28 22:35:26.09	41.86	16.02	-42.6	-45.1	18.2	0.00e+00	0	39	0	173015040	57	4616
2026-01-28 22:35:26.94	41.98	16.09	-42.6	-45.0	18.3	0.00e+00	0	39	0	174063616	57	4572
2026-01-28 22:35:28.08	42.15	16.19	-42.5	-45.0	18.4	0.00e+00	0	39	0	176160768	56	4841
2026-01-28 22:35:28.94	42.27	16.26	-42.4	-44.8	18.5	0.00e+00	0	39	0	178257920	56	4750
2026-01-28 22:35:30.07	42.44	16.35	-42.4	-44.8	18.6	0.00e+00	0	39	0	180355072	56	4717
2026-01-28 22:35:31.22	42.61	16.45	-42.4	-44.8	18.6	0.00e+00	0	39	0	182452224	56	4711
2026-01-28 22:35:32.08	42.74	16.52	-42.4	-44.8	18.5	0.00e+00	0	39	0	184549376	56	4758
2026-01-28 22:35:33.22	42.91	16.62	-42.3	-44.7	18.6	0.00e+00	0	39	0	186646528	56	4673
2026-01-28 22:35:34.07	43.04	16.69	-42.3	-44.7	18.6	0.00e+00	0	39	0	187695104	56	4666
2026-01-28 22:35:35.21	43.22	16.78	-42.3	-44.6	18.7	0.00e+00	0	39	0	189792256	56	4627
2026-01-28 22:35:36.06	43.35	16.85	-42.4	-44.8	18.6	0.00e+00	0	39	0	191889408	56	4713
2026-01-28 22:35:37.21	43.52	16.95	-42.4	-44.7	18.6	0.00e+00	0	39	0	193986560	56	4686
2026-01-28 22:35:38.07	43.66	17.02	-42.5	-44.8	18.5	0.00e+00	0	39	0	195035136	56	4748
2026-01-28 22:35:39.28	43.85	17.12	-42.6	-45.0	18.3	0.00e+00	0	39	0	197132288	56	4838
2026-01-28 22:35:40.14	43.98	17.20	-42.6	-45.0	18.4	0.00e+00	0	39	0	199229440	56	4830
2026-01-28 22:35:41.27	44.16	17.29	-42.6	-45.0	18.4	0.00e+00	0	39	0	201326592	56	4828
2026-01-28 22:35:42.13	44.29	17.36	-42.7	-45.1	18.3	0.00e+00	0	39	0	202375168	56	4897
2026-01-28 22:35:43.26	44.47	17.46	-42.7	-45.1	18.2	0.00e+00	0	39	0	205520896	56	4915
2026-01-28 22:35:44.11	44.61	17.53	-42.7	-45.2	18.2	0.00e+00	0	39	0	206569472	56	4954
2026-01-28 22:35:45.25	44.79	17.63	-42.6	-45.0	18.4	0.00e+00	0	39	0	208666624	56	4838
2026-01-28 22:35:46.10	44.93	17.70	-42.5	-44.9	18.4	0.00e+00	0	39	0	210763776	56	4785
2026-01-28 22:35:47.24	45.12	17.80	-42.3	-44.7	18.6	0.00e+00	0	39	0	212860928	56	4672
2026-01-28 22:35:48.09	45.25	17.87	-42.4	-44.7	18.6	0.00e+00	0	39	0	213909504	56	4697
2026-01-28 22:35:49.23	45.44	17.97	-42.2	-44.5	18.8	0.00e+00	0	39	0	216006656	56	4589
2026-01-28 22:35:50.08	45.58	18.04	-42.2	-44.6	18.7	0.00e+00	0	39	0	218103808	56	4608
2026-01-28 22:35:51.22	45.77	18.14	-42.1	-44.4	18.8	0.00e+00	0	39	0	220200960	56	4545
2026-01-28 22:35:52.07	45.91	18.21	-41.9	-44.2	19.0	0.00e+00	0	39	0	221249536	55	4660
2026-01-28 22:35:53.21	46.11	18.31	-41.8	-44.1	19.0	0.00e+00	0	39	0	223346688	55	4636
2026-01-28 22:35:54.06	46.25	18.38	-41.9	-44.3	18.8	0.00e+00	0	39	0	225443840	55	4717
2026-01-28 22:35:55.20	46.44	18.48	-41.9	-44.2	19.0	0.00e+00	0	39	0	227540992	55	4660
2026-01-28 22:35:56.05	46.59	18.55	-41.8	-44.1	18.9	0.00e+00	0	39	0	228589568	55	4618
2026-01-28 22:35:57.18	46.78	18.64	-41.7	-44.0	19.2	0.00e+00	0	39	0	230686720	55	4563
2026-01-28 22:35:58.04	46.93	18.72	-41.5	-43.7	19.4	0.00e+00	0	39	0	232783872	54	4668
2026-01-28 22:35:59.17	47.13	18.81	-41.7	-44.0	19.1	0.00e+00	0	39	0	234881024	54	4839
2026-01-28 22:36:00.10	47.29	18.89	-41.5	-43.7	19.4	0.00e+00	0	39	0	236978176	54	4696
2026-01-28 22:36:01.29	47.50	19.00	-41.6	-43.9	19.2	0.00e+00	0	39	0	239075328	54	4775
2026-01-28 22:36:02.14	47.65	19.07	-41.7	-44.0	19.1	0.00e+00	0	39	0	240123904	54	4845
2026-01-28 22:36:03.47	47.88	19.18	-41.9	-44.3	18.9	0.00e+00	0	39	0	243269632	54	4989
2026-01-28 22:36:04.18	48.01	19.24	-41.9	-44.2	18.9	0.00e+00	0	39	0	244318208	54	4958
2026-01-28 22:36:05.46	48.24	19.35	-41.9	-44.3	18.9	0.00e+00	0	39	0	246415360	54	4988
2026-01-28 22:36:06.17	48.37	19.41	-42.0	-44.3	18.9	0.00e+00	0	39	0	248512512	54	5002
2026-01-28 22:36:07.73	48.65	19.55	-41.7	-44.0	19.2	0.00e+00	0	40	0	250609664	54	4818
2026-01-28 22:36:08.36	48.77	19.60	-41.8	-44.0	19.1	0.00e+00	0	39	0	251658240	54	4847
2026-01-28 22:36:10.01	49.07	19.74	-41.7	-44.0	19.2	0.00e+00	0	39	0	254803968	54	4820
2026-01-28 22:36:10.58	49.18	19.79	-41.7	-44.0	19.1	0.00e+00	0	39	0	255852544	54	4842
2026-01-28 22:36:12.28	49.49	19.94	-41.7	-43.9	19.2	0.00e+00	0	39	0	258998272	54	4798
2026-01-28 22:36:12.85	49.60	19.99	-41.8	-44.1	19.0	0.00e+00	0	39	0	260046848	54	4922
2026-01-28 22:36:14.56	49.92	20.14	-41.9	-44.2	19.0	0.00e+00	0	39	0	264241152	54	4950
2026-01-28 22:36:15.12	50.03	20.18	-41.9	-44.2	19.0	0.00e+00	0	39	0	265289728	54	4932
2026-01-28 22:36:16.97	50.38	20.34	-42.0	-44.4	18.8	0.00e+00	0	39	0	268435456	54	5061
2026-01-28 22:36:17.54	50.49	20.39	-41.8	-44.1	19.0	0.00e+00	0	39	0	269484032	54	4917
2026-01-28 22:36:19.24	50.82	20.54	-41.6	-43.9	19.3	0.00e+00	0	39	0	272629760	54	4778
2026-01-28 22:36:19.81	50.93	20.59	-41.7	-44.0	19.1	0.00e+00	0	39	0	273678336	54	4832
2026-01-28 22:36:21.52	51.26	20.73	-41.8	-44.0	19.1	0.00e+00	0	39	0	276824064	54	4869
2026-01-28 22:36:22.09	51.38	20.78	-41.9	-44.2	19.0	0.00e+00	0	39	0	277872640	54	4940
2026-01-28 22:36:23.79	51.71	20.93	-42.1	-44.4	18.8	0.00e+00	0	39	0	281018368	54	5065
2026-01-28 22:36:24.36	51.83	20.98	-41.9	-44.2	18.9	0.00e+00	0	39	0	282066944	54	4961
2026-01-28 22:36:26.07	52.17	21.12	-41.9	-44.2	19.0	0.00e+00	0	39	0	285212672	54	4950
2026-01-28 22:36:26.64	52.29	21.17	-41.7	-44.0	19.2	0.00e+00	0	40	0	286261248	54	4836
2026-01-28 22:36:28.34	52.63	21.32	-41.8	-44.1	19.1	0.00e+00	0	39	0	289406976	54	4892
2026-01-28 22:36:28.91	52.75	21.36	-41.6	-43.8	19.3	0.00e+00	0	39	0	290455552	54	4759
2026-01-28 22:36:30.62	53.10	21.51	-41.7	-44.0	19.2	0.00e+00	0	39	0	293601280	54	4838
2026-01-28 22:36:31.50	53.28	21.59	-41.8	-44.0	19.2	0.00e+00	0	39	0	295698432	54	4862
2026-01-28 22:36:32.64	53.52	21.68	-41.8	-44.1	19.1	0.00e+00	0	39	0	297795584	54	4878
2026-01-28 22:36:33.82	53.77	21.78	-41.8	-44.0	19.1	0.00e+00	0	39	0	299892736	54	4856
2026-01-28 22:36:34.68	53.95	21.86	-41.7	-43.9	19.2	0.00e+00	0	39	0	300941312	54	4813
2026-01-28 22:36:35.81	54.19	21.95	-41.6	-43.9	19.3	0.00e+00	0	39	0	304087040	54	4773
2026-01-28 22:36:36.67	54.37	22.02	-41.7	-43.9	19.2	0.00e+00	0	39	0	305135616	54	4801
2026-01-28 22:36:37.81	54.61	22.12	-41.7	-44.0	19.2	0.00e+00	0	39	0	307232768	54	4828
2026-01-28 22:36:38.66	54.80	22.19	-41.9	-44.1	19.0	0.00e+00	0	39	0	309329920	54	4916
2026-01-28 22:36:39.80	55.04	22.29	-41.8	-44.1	19.1	0.00e+00	0	39	0	311427072	54	4881
2026-01-28 22:36:40.65	55.23	22.36	-41.8	-44.0	19.2	0.00e+00	0	39	0	312475648	54	4848
2026-01-28 22:36:41.88	55.50	22.46	-42.0	-44.3	18.9	0.00e+00	0	39	0	314572800	54	5009
2026-01-28 22:36:42.74	55.69	22.54	-42.0	-44.3	18.9	0.00e+00	0	39	0	316669952	54	5009
2026-01-28 22:36:43.88	55.94	22.63	-41.9	-44.2	19.0	0.00e+00	0	39	0	318767104	54	4936
2026-01-28 22:36:44.73	56.13	22.70	-42.0	-44.3	18.9	0.00e+00	0	39	0	319815680	54	4998
2026-01-28 22:36:45.87	56.38	22.80	-42.0	-44.3	18.9	0.00e+00	0	39	0	321912832	54	4999
2026-01-28 22:36:46.72	56.57	22.87	-41.8	-44.1	19.1	0.00e+00	0	39	0	324009984	54	4893
2026-01-28 22:36:47.86	56.83	22.96	-41.8	-44.0	19.2	0.00e+00	0	39	0	326107136	54	4847
2026-01-28 22:36:48.71	57.02	23.03	-41.8	-44.1	19.1	0.00e+00	0	39	0	328204288	54	4902
2026-01-28 22:36:49.85	57.28	23.13	-41.6	-43.9	19.3	0.00e+00	0	39	0	330301440	54	4778
2026-01-28 22:36:50.70	57.48	23.20	-41.7	-43.9	19.2	0.00e+00	0	39	0	331350016	54	4809
2026-01-28 22:36:51.84	57.74	23.29	-41.6	-43.8	19.4	0.00e+00	0	39	0	333447168	54	4728
2026-01-28 22:36:52.69	57.94	23.36	-41.6	-43.8	19.4	0.00e+00	0	39	0	335544320	54	4729
2026-01-28 22:36:53.83	58.21	23.45	-41.8	-44.0	19.1	0.00e+00	0	39	0	337641472	54	4845
2026-01-28 22:36:54.68	58.40	23.52	-41.7	-43.9	19.3	0.00e+00	0	39	0	338690048	54	4799
2026-01-28 22:36:55.81	58.67	23.62	-41.8	-44.1	19.1	0.00e+00	0	39	0	340787200	54	4901
2026-01-28 22:36:56.67	58.87	23.69	-42.2	-44.5	18.6	0.00e+00	0	39	0	342884352	55	4848
2026-01-28 22:36:57.82	59.15	23.78	-42.3	-44.7	18.5	0.00e+00	0	39	0	344981504	55	4965
2026-01-28 22:36:58.67	59.35	23.85	-42.4	-44.8	18.4	0.00e+00	0	39	0	346030080	55	5027
2026-01-28 22:36:59.81	59.62	23.94	-42.3	-44.7	18.5	0.00e+00	0	39	0	348127232	55	4959
2026-01-28 22:37:00.66	59.83	24.01	-42.1	-44.5	18.7	0.00e+00	0	39	0	350224384	55	4852
2026-01-28 22:37:01.93	60.14	24.11	-42.2	-44.5	18.7	0.00e+00	0	39	0	352321536	55	4848
2026-01-28 22:37:02.72	60.33	24.17	-42.0	-44.3	18.9	0.00e+00	0	39	0	354418688	55	4756
2026-01-28 22:37:03.92	60.62	24.27	-41.8	-44.1	19.1	0.00e+00	0	39	0	356515840	55	4605
2026-01-28 22:37:04.77	60.83	24.33	-41.8	-44.0	19.2	0.00e+00	0	39	0	357564416	55	4589
2026-01-28 22:37:05.91	61.12	24.42	-41.7	-44.0	19.2	0.00e+00	0	39	0	359661568	55	4553
2026-01-28 22:37:06.76	61.33	24.49	-41.8	-44.0	19.2	0.00e+00	0	39	0	361758720	55	4595
2026-01-28 22:37:08.13	61.67	24.60	-41.6	-43.9	19.4	0.00e+00	0	39	0	363855872	55	4498
2026-01-28 22:37:08.84	61.85	24.65	-41.6	-43.8	19.5	0.00e+00	0	39	0	365953024	54	4721
2026-01-28 22:37:10.12	62.17	24.75	-41.9	-44.1	19.1	0.00e+00	0	39	0	368050176	54	4918
2026-01-28 22:37:10.85	62.36	24.81	-42.2	-44.5	18.8	0.00e+00	0	39	0	369098752	54	5153
2026-01-28 22:37:12.13	62.68	24.90	-42.3	-44.6	18.6	0.00e+00	0	39	0	371195904	55	4924
2026-01-28 22:37:12.85	62.87	24.96	-42.6	-45.1	18.2	0.00e+00	0	39	0	373293056	55	5183
2026-01-28 22:37:14.13	63.20	25.06	-42.4	-44.9	18.5	0.00e+00	0	39	0	375390208	55	5048
2026-01-28 22:37:14.88	63.39	25.11	-42.3	-44.7	18.6	0.00e+00	0	39	0	376438784	55	4962
2026-01-28 22:37:16.15	63.72	25.21	-41.9	-44.2	19.0	0.00e+00	0	39	0	379584512	55	4654
2026-01-28 22:37:16.86	63.91	25.26	-41.8	-44.1	19.1	0.00e+00	0	39	0	380633088	55	4629
2026-01-28 22:37:18.15	64.24	25.36	-41.7	-43.9	19.3	0.00e+00	0	39	0	382730240	55	4515
2026-01-28 22:37:19.06	64.48	25.42	-42.0	-44.3	18.9	0.00e+00	0	39	0	384827392	55	4739
2026-01-28 22:37:20.37	64.83	25.52	-42.7	-45.1	18.2	0.00e+00	0	39	0	386924544	55	5207
2026-01-28 22:37:21.08	65.02	25.57	-43.1	-45.6	17.9	0.00e+00	0	39	0	387973120	56	5201
2026-01-28 22:37:22.71	65.46	25.69	-43.3	-45.9	17.6	0.00e+00	0	39	0	391118848	57	5081
2026-01-28 22:37:23.28	65.61	25.73	-43.3	-45.9	17.6	0.00e+00	0	39	0	392167424	57	5042
2026-01-28 22:37:24.98	66.07	25.85	-42.7	-45.2	18.3	0.00e+00	0	39	0	395313152	57	4659
2026-01-28 22:37:25.55	66.23	25.89	-42.6	-45.0	18.4	0.00e+00	0	39	0	396361728	57	4578
2026-01-28 22:37:27.26	66.69	26.01	-42.6	-45.0	18.5	0.00e+00	0	39	0	400556032	57	4566
2026-01-28 22:37:27.83	66.85	26.05	-42.7	-45.1	18.3	0.00e+00	0	39	0	401604608	57	4641
2026-01-28 22:37:29.54	67.32	26.17	-43.1	-45.6	17.9	0.00e+00	0	39	0	404750336	57	4893
2026-01-28 22:37:30.10	67.48	26.21	-43.1	-45.6	17.9	0.00e+00	0	39	0	405798912	57	4908
2026-01-28 22:37:31.89	67.97	26.33	-43.4	-46.0	17.5	0.00e+00	0	39	0	408944640	57	5146
2026-01-28 22:37:32.46	68.13	26.37	-43.2	-45.8	17.7	0.00e+00	0	39	0	409993216	57	5011
2026-01-28 22:37:34.16	68.61	26.48	-43.6	-46.3	17.2	0.00e+00	0	39	0	413138944	57	5311
2026-01-28 22:37:34.73	68.77	26.52	-43.5	-46.1	17.4	0.00e+00	0	39	0	414187520	57	5211
2026-01-28 22:37:36.45	69.26	26.63	-43.2	-45.7	17.8	0.00e+00	0	40	0	417333248	57	4970
2026-01-28 22:37:37.02	69.42	26.67	-43.3	-45.9	17.6	0.00e+00	0	39	0	418381824	57	5090
2026-01-28 22:37:38.72	69.91	26.78	-43.1	-45.6	17.9	0.00e+00	0	39	0	421527552	57	4887
2026-01-28 22:37:39.42	70.11	26.82	-43.2	-45.8	17.7	0.00e+00	0	39	0	422576128	57	4992
2026-01-28 22:37:40.84	70.52	26.91	-43.1	-45.7	18.0	0.00e+00	0	39	0	425721856	57	4927
2026-01-28 22:37:41.55	70.73	26.96	-43.2	-45.7	17.7	0.00e+00	0	40	0	426770432	57	4963
2026-01-28 22:37:42.83	71.10	27.03	-43.3	-45.8	17.7	0.00e+00	0	40	0	428867584	57	5034
2026-01-28 22:37:43.56	71.32	27.08	-43.5	-46.1	17.5	0.00e+00	0	39	0	430964736	57	5187
2026-01-28 22:37:44.83	71.69	27.15	-43.8	-46.5	17.0	0.00e+00	0	39	0	433061888	58	5129
2026-01-28 22:37:45.58	71.91	27.20	-43.8	-46.5	17.0	0.00e+00	0	39	0	434110464	58	5157
2026-01-28 22:37:47.31	72.42	27.30	-43.4	-46.1	17.5	0.00e+00	0	39	0	437256192	58	4879
2026-01-28 22:37:47.88	72.59	27.33	-43.1	-45.6	17.9	0.00e+00	0	39	0	438304768	58	4649
2026-01-28 22:37:49.59	73.10	27.43	-42.7	-45.1	18.4	0.00e+00	0	39	0	441450496	57	4620
2026-01-28 22:37:50.16	73.27	27.46	-42.8	-45.3	18.2	0.00e+00	0	39	0	442499072	57	4710
2026-01-28 22:37:51.87	73.79	27.56	-43.5	-46.2	17.4	0.00e+00	0	39	0	446693376	57	5236
2026-01-28 22:37:52.43	73.96	27.59	-44.0	-46.8	16.8	0.00e+00	0	39	0	446693376	58	5298
2026-01-28 22:37:54.14	74.47	27.68	-44.4	-47.4	16.2	0.00e+00	0	40	0	450887680	59	5366
2026-01-28 22:37:54.82	74.68	27.72	-44.6	-47.6	16.0	0.00e+00	0	39	0	451936256	59	5475
2026-01-28 22:37:56.24	75.11	27.79	-44.3	-47.2	16.4	0.00e+00	0	39	0	454033408	59	5220
2026-01-28 22:37:57.04	75.36	27.83	-44.7	-47.7	15.9	0.00e+00	0	39	0	456130560	59	5545
2026-01-28 22:37:58.18	75.71	27.89	-44.8	-48.0	15.7	0.00e+00	0	39	0	458227712	60	5417
2026-01-28 22:37:59.03	75.97	27.93	-45.1	-48.4	15.2	0.00e+00	0	39	0	459276288	60	5714
2026-01-28 22:38:00.16	76.32	27.99	-45.4	-49.0	14.7	0.00e+00	0	39	0	461373440	61	5756
2026-01-28 22:38:01.02	76.59	28.03	-45.5	-49.3	14.5	7.00e-07	0	39	0	463470592	61	5945
2026-01-28 22:38:02.15	76.94	28.08	-45.4	-49.0	14.7	0.00e+00	0	39	0	465567744	61	5740
2026-01-28 22:38:03.01	77.21	28.12	-45.2	-48.6	15.0	0.00e+00	0	39	0	466616320	61	5510
2026-01-28 22:38:04.15	77.56	28.17	-45.3	-48.7	15.0	0.00e+00	0	39	0	469762048	61	5549
2026-01-28 22:38:05.00	77.83	28.21	-45.5	-49.0	14.7	0.00e+00	0	39	0	470810624	61	5746
2026-01-28 22:38:06.13	78.19	28.26	-45.8	-49.5	14.2	3.00e-06	0	39	0	472907776	62	5747
2026-01-28 22:38:07.03	78.47	28.30	-45.7	-49.4	14.3	1.50e-06	0	39	0	475004928	62	5678
2026-01-28 22:38:08.15	78.83	28.35	-44.9	-48.1	15.5	7.00e-07	0	39	0	477102080	61	5218
2026-01-28 22:38:09.01	79.10	28.38	-44.5	-47.5	16.1	0.00e+00	0	39	0	478150656	61	4870
2026-01-28 22:38:10.14	79.46	28.43	-44.2	-47.2	16.5	0.00e+00	0	39	0	480247808	60	4934
2026-01-28 22:38:11.12	79.77	28.47	-44.3	-47.3	16.4	0.00e+00	0	39	0	482344960	60	5001
2026-01-28 22:38:12.29	80.14	28.51	-44.7	-47.7	15.8	0.00e+00	0	39	0	484442112	60	5276
2026-01-28 22:38:13.14	80.42	28.54	-45.2	-48.6	15.0	0.00e+00	0	39	0	486539264	61	5520
2026-01-28 22:38:14.48	80.85	28.59	-45.1	-48.4	15.2	0.00e+00	0	40	0	488636416	61	5371
2026-01-28 22:38:15.19	81.07	28.62	-44.8	-47.9	15.7	0.00e+00	0	39	0	489684992	61	5090
2026-01-28 22:38:16.47	81.49	28.66	-44.7	-47.8	15.9	0.00e+00	0	39	0	491782144	60	5329
2026-01-28 22:38:17.18	81.72	28.69	-44.4	-47.5	16.2	0.00e+00	0	39	0	493879296	60	5108
2026-01-28 22:38:18.46	82.13	28.73	-44.2	-47.2	16.4	0.00e+00	0	39	0	495976448	60	4930
2026-01-28 22:38:19.19	82.37	28.75	-44.4	-47.5	16.0	0.00e+00	0	39	0	497025024	60	5157
2026-01-28 22:38:20.78	82.89	28.80	-44.2	-47.3	16.3	0.00e+00	0	40	0	500170752	60	4992
2026-01-28 22:38:21.35	83.07	28.82	-44.0	-46.9	16.6	0.00e+00	0	39	0	501219328	59	5075
2026-01-28 22:38:23.06	83.63	28.87	-43.6	-46.3	17.3	0.00e+00	0	39	0	504365056	59	4738
2026-01-28 22:38:23.63	83.82	28.88	-43.7	-46.5	17.0	0.00e+00	0	39	0	505413632	58	5148
2026-01-28 22:38:25.34	84.38	28.93	-43.8	-46.6	16.9	0.00e+00	0	39	0	508559360	58	5216
2026-01-28 22:38:25.91	84.57	28.94	-43.7	-46.5	17.1	0.00e+00	0	39	0	509607936	58	5142
2026-01-28 22:38:27.61	85.13	28.98	-43.5	-46.3	17.3	0.00e+00	0	39	0	512753664	58	4995
2026-01-28 22:38:28.31	85.36	29.00	-43.5	-46.2	17.4	0.00e+00	0	39	0	514850816	58	4951
2026-01-28 22:38:29.73	85.83	29.03	-43.6	-46.3	17.3	0.00e+00	0	39	0	516947968	58	5032
2026-01-28 22:38:30.44	86.06	29.05	-43.3	-45.9	17.7	0.00e+00	0	39	0	519045120	58	4794
2026-01-28 22:38:31.72	86.48	29.07	-43.4	-46.1	17.4	0.00e+00	0	39	0	521142272	58	4917
2026-01-28 22:38:32.60	86.78	29.09	-43.3	-46.0	17.4	0.00e+00	0	39	0	522190848	58	4817
2026-01-28 22:38:34.02	87.25	29.11	-43.3	-46.0	17.5	0.00e+00	0	39	0	525336576	58	4821
2026-01-28 22:38:34.73	87.48	29.13	-43.4	-46.0	17.5	0.00e+00	0	39	0	526385152	58	4868
2026-01-28 22:38:36.22	87.98	29.15	-43.2	-45.9	17.6	0.00e+00	0	39	0	529530880	58	4784
2026-01-28 22:38:36.93	88.22	29.16	-43.1	-45.7	17.7	0.00e+00	0	39	0	530579456	58	4701
2026-01-28 22:38:38.21	88.64	29.18	-43.4	-46.0	17.5	0.00e+00	0	39	0	532676608	58	4860
2026-01-28 22:38:38.93	88.88	29.19	-43.5	-46.2	17.4	0.00e+00	0	39	0	534773760	58	4930
2026-01-28 22:38:40.21	89.31	29.20	-43.6	-46.3	17.3	0.00e+00	0	39	0	536870912	58	5016
2026-01-28 22:38:40.96	89.56	29.21	-43.5	-46.2	17.3	0.00e+00	0	40	0	537919488	58	4939
2026-01-28 22:38:42.23	89.99	29.22	-43.2	-45.7	17.7	0.00e+00	0	39	0	541065216	58	4674
2026-01-28 22:38:42.99	90.24	29.23	-43.1	-45.5	17.9	0.00e+00	0	39	0	542113792	58	4598
2026-01-28 22:38:44.27	90.67	29.23	-42.8	-45.3	18.2	0.00e+00	0	39	0	544210944	57	4725
2026-01-28 22:38:45.01	90.92	29.24	-43.2	-45.7	17.8	0.00e+00	0	39	0	546308096	57	4956
2026-01-28 22:38:46.29	91.34	29.25	-43.8	-46.5	17.1	0.00e+00	0	39	0	548405248	58	5142
2026-01-28 22:38:47.01	91.59	29.25	-44.2	-47.1	16.5	0.00e+00	0	39	0	549453824	59	5176
2026-01-28 22:38:48.29	92.02	29.25	-44.5	-47.4	16.2	0.00e+00	0	39	0	551550976	59	5383
2026-01-28 22:38:49.00	92.25	29.25	-44.4	-47.4	16.2	0.00e+00	0	39	0	553648128	59	5382
2026-01-28 22:38:50.28	92.68	29.25	-44.3	-47.2	16.3	0.00e+00	0	39	0	555745280	59	5246
2026-01-28 22:38:50.99	92.92	29.25	-44.4	-47.3	16.2	0.00e+00	0	39	0	556793856	59	5327
2026-01-28 22:38:52.27	93.35	29.25	-44.4	-47.5	16.1	0.00e+00	0	39	0	559939584	59	5410
2026-01-28 22:38:53.09	93.62	29.25	-44.4	-47.3	16.3	0.00e+00	0	39	0	560988160	59	5335
2026-01-28 22:38:54.23	94.01	29.25	-43.9	-46.7	16.9	0.00e+00	0	40	0	563085312	59	4981
2026-01-28 22:38:55.28	94.36	29.24	-43.2	-45.7	17.8	0.00e+00	0	40	0	565182464	58	4685
2026-01-28 22:38:56.35	94.72	29.24	-42.9	-45.3	18.1	0.00e+00	0	39	0	567279616	57	4748
2026-01-28 22:38:57.34	95.05	29.23	-43.1	-45.6	17.9	0.00e+00	0	39	0	569376768	57	4893
2026-01-28 22:38:58.33	95.38	29.22	-43.6	-46.2	17.3	0.00e+00	0	39	0	570425344	57	5255
2026-01-28 22:38:59.33	95.71	29.21	-44.1	-47.0	16.6	0.00e+00	0	39	0	572522496	58	5427
2026-01-28 22:39:00.32	96.05	29.20	-44.7	-47.8	15.8	0.00e+00	0	40	0	574619648	60	5302
2026-01-28 22:39:01.32	96.38	29.19	-44.8	-47.9	15.7	0.00e+00	0	39	0	576716800	60	5396
2026-01-28 22:39:02.31	96.71	29.18	-44.8	-48.1	15.6	0.00e+00	0	39	0	577765376	60	5477
2026-01-28 22:39:03.30	97.04	29.17	-44.6	-47.7	16.0	0.00e+00	0	40	0	579862528	60	5236
2026-01-28 22:39:04.30	97.37	29.15	-44.5	-47.6	16.0	0.00e+00	0	39	0	581959680	60	5184
2026-01-28 22:39:05.29	97.70	29.14	-44.7	-47.9	15.7	0.00e+00	0	39	0	584056832	60	5345
2026-01-28 22:39:06.29	98.04	29.12	-44.6	-47.7	15.9	0.00e+00	0	40	0	586153984	60	5255
2026-01-28 22:39:07.28	98.37	29.11	-44.7	-47.8	15.8	0.00e+00	0	39	0	587202560	60	5319
2026-01-28 22:39:08.28	98.70	29.09	-44.2	-47.1	16.5	0.00e+00	0	39	0	589299712	60	4893
2026-01-28 22:39:09.35	99.05	29.07	-44.6	-47.6	16.0	0.00e+00	0	39	0	591396864	60	5180
2026-01-28 22:39:10.24	99.35	29.05	-44.8	-48.0	15.6	0.00e+00	0	39	0	593494016	60	5439
2026-01-28 22:39:11.37	99.72	29.03	-45.5	-49.2	14.5	0.00e+00	0	39	0	595591168	61	5858
2026-01-28 22:39:12.23	100.01	29.01	-45.9	-49.7	14.0	1.50e-06	0	39	0	596639744	62	5922
2026-01-28 22:39:13.59	100.46	28.98	-46.0	-50.0	13.7	5.30e-06	0	39	0	599785472	62	6074
2026-01-28 22:39:14.30	100.69	28.96	-45.6	-49.2	14.4	7.00e-07	0	39	0	600834048	62	5566
2026-01-28 22:39:15.58	101.11	28.93	-45.5	-48.9	14.7	0.00e+00	0	39	0	602931200	62	5389
2026-01-28 22:39:16.29	101.35	28.91	-45.5	-48.9	14.7	0.00e+00	0	39	0	605028352	62	5399
2026-01-28 22:39:17.58	101.77	28.87	-45.9	-49.6	14.1	1.50e-06	0	39	0	607125504	62	5841
2026-01-28 22:39:18.29	102.00	28.85	-45.8	-49.5	14.2	5.30e-06	0	39	0	608174080	62	5750
2026-01-28 22:39:19.57	102.42	28.81	-45.7	-49.3	14.4	0.00e+00	0	39	0	610271232	62	5635
2026-01-28 22:39:20.29	102.65	28.79	-45.3	-48.6	15.0	0.00e+00	0	39	0	612368384	62	5213
2026-01-28 22:39:21.57	103.07	28.75	-44.7	-47.8	15.8	0.00e+00	0	39	0	614465536	61	5041
2026-01-28 22:39:22.28	103.30	28.73	-44.6	-47.7	15.9	7.00e-07	0	39	0	615514112	61	4942
2026-01-28 22:39:23.57	103.72	28.69	-45.0	-48.1	15.5	0.00e+00	0	39	0	617611264	61	5208
2026-01-28 22:39:24.28	103.95	28.66	-45.5	-48.9	14.7	7.00e-07	0	39	0	619708416	61	5718
2026-01-28 22:39:25.58	104.37	28.62	-46.1	-50.0	13.6	7.60e-06	0	39	0	621805568	62	6123
2026-01-28 22:39:26.29	104.60	28.59	-45.7	-49.4	14.2	2.20e-06	0	39	0	622854144	62	5693
2026-01-28 22:39:27.57	105.01	28.55	-45.2	-48.5	15.2	0.00e+00	0	40	0	625999872	62	5136
2026-01-28 22:39:28.30	105.25	28.52	-44.6	-47.7	15.9	0.00e+00	0	39	0	627048448	61	4940
2026-01-28 22:39:29.67	105.69	28.47	-44.5	-47.6	16.0	0.00e+00	0	39	0	629145600	60	5168
2026-01-28 22:39:30.62	105.99	28.43	-44.3	-47.3	16.3	0.00e+00	0	39	0	631242752	60	5005
2026-01-28 22:39:31.93	106.41	28.38	-44.0	-46.9	16.7	0.00e+00	0	40	0	633339904	60	4762
2026-01-28 22:39:32.67	106.64	28.34	-43.9	-46.7	16.9	0.00e+00	0	39	0	635437056	59	4927
2026-01-28 22:39:33.95	107.05	28.29	-43.8	-46.5	17.0	0.00e+00	0	39	0	637534208	59	4832
2026-01-28 22:39:34.74	107.30	28.26	-43.5	-46.2	17.3	0.00e+00	0	40	0	638582784	59	4675
2026-01-28 22:39:36.24	107.77	28.19	-43.5	-46.2	17.3	0.00e+00	0	39	0	641728512	58	4952
2026-01-28 22:39:36.95	107.99	28.16	-43.8	-46.5	17.0	0.00e+00	0	39	0	642777088	58	5148
2026-01-28 22:39:38.22	108.39	28.10	-44.2	-47.0	16.6	0.00e+00	0	39	0	645922816	58	5447
2026-01-28 22:39:38.95	108.62	28.07	-44.2	-47.1	16.4	0.00e+00	0	39	0	646971392	59	5197
2026-01-28 22:39:40.23	109.02	28.00	-44.3	-47.1	16.4	0.00e+00	0	39	0	649068544	59	5214
2026-01-28 22:39:40.95	109.24	27.97	-44.2	-47.1	16.5	0.00e+00	0	39	0	651165696	59	5181
2026-01-28 22:39:42.23	109.64	27.91	-43.7	-46.3	17.2	0.00e+00	0	39	0	653262848	59	4749
2026-01-28 22:39:43.01	109.88	27.87	-43.8	-46.5	17.0	0.00e+00	0	39	0	654311424	59	4844
2026-01-28 22:39:44.28	110.27	27.80	-43.8	-46.5	17.0	0.00e+00	0	39	0	656408576	59	4823
2026-01-28 22:39:44.99	110.49	27.77	-43.9	-46.6	16.8	0.00e+00	0	39	0	658505728	59	4914
2026-01-28 22:39:46.29	110.88	27.70	-44.0	-46.8	16.7	0.00e+00	0	39	0	660602880	59	5011
2026-01-28 22:39:47.15	111.15	27.65	-43.9	-46.7	16.8	0.00e+00	0	39	0	662700032	59	4958
2026-01-28 22:39:48.61	111.59	27.57	-43.5	-46.2	17.3	0.00e+00	0	39	0	664797184	59	4681
2026-01-28 22:39:49.32	111.80	27.53	-43.5	-46.1	17.4	0.00e+00	0	39	0	666894336	58	4890
2026-01-28 22:39:50.60	112.19	27.46	-43.8	-46.5	17.0	0.00e+00	0	39	0	668991488	58	5123
2026-01-28 22:39:51.33	112.41	27.42	-44.1	-46.9	16.6	0.00e+00	0	39	0	670040064	58	5381
2026-01-28 22:39:52.61	112.79	27.35	-44.1	-47.0	16.5	0.00e+00	0	40	0	672137216	59	5141
2026-01-28 22:39:53.32	113.00	27.31	-44.1	-46.9	16.6	0.00e+00	0	39	0	674234368	59	5089
2026-01-28 22:39:54.60	113.39	27.23	-44.0	-46.8	16.7	0.00e+00	0	40	0	676331520	59	5017
2026-01-28 22:39:55.31	113.60	27.19	-43.9	-46.7	16.8	0.00e+00	0	39	0	677380096	59	4947
2026-01-28 22:39:56.59	113.97	27.11	-44.2	-47.2	16.4	0.00e+00	0	39	0	679477248	59	5231
2026-01-28 22:39:57.30	114.18	27.07	-44.5	-47.6	16.0	0.00e+00	0	39	0	681574400	59	5484
2026-01-28 22:39:58.58	114.56	26.99	-45.2	-48.7	15.0	0.00e+00	0	40	0	683671552	61	5555
2026-01-28 22:39:59.29	114.76	26.95	-45.6	-49.2	14.4	0.00e+00	0	39	0	684720128	61	5905
2026-01-28 22:40:00.57	115.14	26.87	-45.7	-49.5	14.2	0.00e+00	0	39	0	687865856	62	5733
2026-01-28 22:40:01.28	115.34	26.82	-45.7	-49.3	14.3	7.00e-07	0	39	0	688914432	62	5651
2026-01-28 22:40:02.56	115.71	26.74	-44.6	-47.7	15.9	0.00e+00	0	39	0	691011584	61	4954
2026-01-28 22:40:03.28	115.92	26.70	-44.6	-47.6	16.0	0.00e+00	0	39	0	692060160	61	4907
2026-01-28 22:40:04.69	116.32	26.60	-44.3	-47.1	16.4	0.00e+00	0	39	0	695205888	60	4925
2026-01-28 22:40:05.40	116.52	26.56	-44.4	-47.3	16.2	0.00e+00	0	39	0	696254464	60	5041
2026-01-28 22:40:06.76	116.91	26.47	-44.9	-48.1	15.6	0.00e+00	0	39	0	699400192	60	5489
2026-01-28 22:40:07.74	117.19	26.40	-44.9	-48.1	15.6	0.00e+00	0	39	0	701497344	60	5469
2026-01-28 22:40:08.73	117.47	26.33	-44.2	-47.1	16.5	0.00e+00	0	39	0	702545920	60	4876
2026-01-28 22:40:09.73	117.75	26.27	-44.1	-47.0	16.6	0.00e+00	0	40	0	704643072	60	4853
2026-01-28 22:40:10.72	118.02	26.20	-44.0	-46.9	16.7	0.00e+00	0	40	0	706740224	60	4775
2026-01-28 22:40:11.72	118.30	26.13	-44.3	-47.2	16.3	0.00e+00	0	40	0	708837376	59	5252
2026-01-28 22:40:12.71	118.57	26.06	-44.3	-47.3	16.2	0.00e+00	0	40	0	709885952	59	5319
2026-01-28 22:40:13.71	118.85	25.99	-44.3	-47.3	16.2	0.00e+00	0	40	0	711983104	59	5309
2026-01-28 22:40:14.73	119.13	25.92	-44.4	-47.4	16.2	0.00e+00	0	39	0	714080256	59	5348
2026-01-28 22:40:15.77	119.41	25.84	-44.1	-46.9	16.6	0.00e+00	0	39	0	716177408	59	5073
2026-01-28 22:40:16.73	119.67	25.78	-44.0	-46.7	16.7	0.00e+00	0	39	0	718274560	59	4982
2026-01-28 22:40:17.73	119.94	25.70	-43.7	-46.4	17.0	0.00e+00	0	39	0	719323136	59	4808
2026-01-28 22:40:18.72	120.21	25.63	-43.7	-46.4	17.0	0.00e+00	0	39	0	721420288	59	4806
2026-01-28 22:40:19.72	120.48	25.56	-43.9	-46.7	16.9	0.00e+00	0	39	0	723517440	59	4934
2026-01-28 22:40:20.71	120.74	25.49	-43.9	-46.6	16.9	0.00e+00	0	39	0	725614592	59	4907
2026-01-28 22:40:21.71	121.01	25.41	-44.0	-46.7	16.8	0.00e+00	0	40	0	726663168	59	4966
2026-01-28 22:40:22.94	121.33	25.32	-43.8	-46.4	17.0	0.00e+00	0	39	0	729808896	59	4814
2026-01-28 22:40:23.84	121.57	25.25	-43.6	-46.3	17.1	0.00e+00	0	40	0	730857472	59	4739
2026-01-28 22:40:25.10	121.90	25.16	-43.3	-45.8	17.6	0.00e+00	0	39	0	734003200	58	4739
2026-01-28 22:40:25.89	122.11	25.10	-43.4	-46.1	17.4	0.00e+00	0	39	0	735051776	58	4880
2026-01-28 22:40:27.07	122.41	25.01	-43.8	-46.5	17.0	0.00e+00	0	39	0	737148928	58	5158
2026-01-28 22:40:27.92	122.63	24.94	-43.8	-46.6	16.9	0.00e+00	0	39	0	739246080	58	5185
2026-01-28 22:40:29.06	122.93	24.86	-43.8	-46.5	17.0	0.00e+00	0	39	0	741343232	58	5137
2026-01-28 22:40:29.91	123.14	24.79	-43.3	-45.9	17.6	0.00e+00	0	39	0	742391808	58	4784
2026-01-28 22:40:31.05	123.43	24.70	-42.7	-45.1	18.3	0.00e+00	0	39	0	744488960	57	4618
2026-01-28 22:40:31.91	123.65	24.64	-42.4	-44.8	18.6	0.00e+00	0	39	0	746586112	56	4716
2026-01-28 22:40:33.04	123.94	24.55	-42.3	-44.7	18.7	0.00e+00	0	40	0	748683264	56	4663
2026-01-28 22:40:33.90	124.15	24.48	-42.6	-45.0	18.5	0.00e+00	0	39	0	749731840	56	4822
2026-01-28 22:40:35.03	124.43	24.39	-43.0	-45.4	17.9	0.00e+00	0	39	0	751828992	56	5097
2026-01-28 22:40:35.89	124.65	24.32	-43.2	-45.8	17.7	0.00e+00	0	39	0	753926144	57	4987
2026-01-28 22:40:37.02	124.93	24.23	-42.9	-45.4	18.0	0.00e+00	0	40	0	756023296	57	4796
2026-01-28 22:40:37.88	125.14	24.16	-42.4	-44.8	18.6	0.00e+00	0	39	0	757071872	56	4730
2026-01-28 22:40:39.01	125.41	24.07	-42.4	-44.7	18.6	0.00e+00	0	40	0	759169024	56	4702
2026-01-28 22:40:39.86	125.62	24.01	-42.3	-44.7	18.7	0.00e+00	0	39	0	761266176	56	4663
2026-01-28 22:40:41.00	125.90	23.91	-42.8	-45.2	18.2	0.00e+00	0	39	0	763363328	56	4950
2026-01-28 22:40:41.85	126.10	23.85	-43.0	-45.5	17.9	0.00e+00	0	40	0	764411904	56	5126
2026-01-28 22:40:43.10	126.40	23.74	-43.3	-45.8	17.6	0.00e+00	0	40	0	767557632	57	5037
2026-01-28 22:40:43.95	126.61	23.67	-43.1	-45.6	17.8	0.00e+00	0	40	0	768606208	57	4924
2026-01-28 22:40:45.09	126.88	23.58	-42.7	-45.1	18.2	0.00e+00	0	39	0	770703360	57	4651
2026-01-28 22:40:45.94	127.08	23.51	-42.5	-44.9	18.5	0.00e+00	0	39	0	772800512	57	4497
2026-01-28 22:40:47.08	127.34	23.42	-42.3	-44.7	18.7	0.00e+00	0	39	0	774897664	56	4664
2026-01-28 22:40:47.94	127.55	23.35	-42.3	-44.7	18.6	0.00e+00	0	39	0	775946240	55	4929
2026-01-28 22:40:49.08	127.81	23.25	-42.6	-45.1	18.2	0.00e+00	0	39	0	778043392	55	5168
2026-01-28 22:40:49.93	128.01	23.18	-43.3	-46.0	17.5	0.00e+00	0	39	0	780140544	57	5115
2026-01-28 22:40:51.07	128.27	23.09	-44.2	-47.2	16.3	0.00e+00	0	39	0	782237696	59	5229
2026-01-28 22:40:51.92	128.46	23.02	-44.0	-46.9	16.6	0.00e+00	0	39	0	783286272	59	5060
2026-01-28 22:40:53.06	128.72	22.92	-43.3	-45.9	17.5	0.00e+00	0	40	0	786432000	58	4769
2026-01-28 22:40:53.91	128.92	22.85	-42.8	-45.3	18.1	0.00e+00	0	40	0	787480576	57	4736
2026-01-28 22:40:55.05	129.17	22.75	-42.1	-44.3	19.0	0.00e+00	0	39	0	789577728	56	4482
2026-01-28 22:40:55.91	129.37	22.68	-41.8	-44.1	19.0	0.00e+00	0	39	0	791674880	55	4602
2026-01-28 22:40:57.04	129.62	22.59	-41.7	-43.9	19.3	0.00e+00	0	39	0	793772032	55	4515
2026-01-28 22:40:57.89	129.81	22.52	-41.8	-44.0	19.1	0.00e+00	0	39	0	794820608	55	4571
2026-01-28 22:40:59.03	130.06	22.42	-41.7	-43.9	19.2	0.00e+00	0	40	0	796917760	55	4498
2026-01-28 22:40:59.89	130.25	22.35	-41.5	-43.7	19.4	0.00e+00	0	39	0	799014912	55	4411
2026-01-28 22:41:01.02	130.50	22.25	-41.4	-43.5	19.5	0.00e+00	0	40	0	801112064	54	4591
2026-01-28 22:41:01.88	130.68	22.18	-41.3	-43.5	19.6	0.00e+00	0	39	0	802160640	54	4576
2026-01-28 22:41:03.01	130.93	22.08	-41.8	-44.1	19.0	0.00e+00	0	39	0	804257792	54	4901
2026-01-28 22:41:03.87	131.11	22.01	-42.4	-44.8	18.4	0.00e+00	0	40	0	806354944	55	4997
2026-01-28 22:41:05.00	131.35	21.91	-43.5	-46.1	17.3	0.00e+00	0	39	0	808452096	57	5203
2026-01-28 22:41:05.85	131.53	21.84	-44.4	-47.4	16.2	0.00e+00	0	39	0	809500672	59	5347
2026-01-28 22:41:06.99	131.77	21.74	-45.1	-48.5	15.0	0.00e+00	0	40	0	811597824	60	5753
2026-01-28 22:41:07.84	131.95	21.67	-45.0	-48.3	15.2	0.00e+00	0	40	0	813694976	60	5605
2026-01-28 22:41:08.98	132.19	21.57	-44.4	-47.5	16.0	0.00e+00	0	39	0	815792128	60	5133
2026-01-28 22:41:09.83	132.37	21.50	-44.1	-47.0	16.5	0.00e+00	0	39	0	816840704	60	4850
2026-01-28 22:41:10.97	132.61	21.40	-44.0	-46.8	16.6	0.00e+00	0	39	0	819986432	59	5029
2026-01-28 22:41:11.82	132.78	21.33	-43.7	-46.4	17.0	0.00e+00	0	39	0	821035008	59	4806
2026-01-28 22:41:12.99	133.02	21.23	-43.3	-45.9	17.5	0.00e+00	0	40	0	823132160	58	4779
2026-01-28 22:41:13.84	133.19	21.15	-43.2	-45.7	17.7	0.00e+00	0	39	0	825229312	58	4670
2026-01-28 22:41:15.04	133.44	21.05	-43.2	-45.8	17.6	0.00e+00	0	39	0	827326464	58	4721
2026-01-28 22:41:15.89	133.61	20.98	-43.2	-45.8	17.6	0.00e+00	0	39	0	828375040	58	4706
2026-01-28 22:41:17.03	133.84	20.88	-42.7	-45.1	18.3	0.00e+00	0	40	0	830472192	57	4621
2026-01-28 22:41:17.88	134.01	20.81	-42.3	-44.6	18.7	0.00e+00	0	39	0	832569344	56	4622
2026-01-28 22:41:19.02	134.23	20.71	-42.2	-44.6	18.8	0.00e+00	0	39	0	834666496	56	4599
2026-01-28 22:41:19.87	134.40	20.63	-42.1	-44.4	18.9	0.00e+00	0	39	0	835715072	56	4505
2026-01-28 22:41:21.01	134.62	20.54	-41.7	-44.0	19.1	0.00e+00	0	39	0	837812224	55	4567
2026-01-28 22:41:21.86	134.79	20.46	-41.9	-44.2	18.9	0.00e+00	0	39	0	839909376	55	4697
2026-01-28 22:41:23.00	135.01	20.36	-42.3	-44.7	18.5	0.00e+00	0	40	0	842006528	55	4927
2026-01-28 22:41:23.85	135.17	20.29	-42.4	-44.8	18.3	0.00e+00	0	40	0	844103680	55	5020
2026-01-28 22:41:24.99	135.39	20.19	-42.7	-45.1	18.1	0.00e+00	0	39	0	846200832	55	5216
2026-01-28 22:41:25.84	135.55	20.12	-42.6	-45.0	18.3	0.00e+00	0	39	0	847249408	56	4840
2026-01-28 22:41:26.98	135.77	20.02	-42.4	-44.8	18.5	0.00e+00	0	39	0	849346560	56	4724
2026-01-28 22:41:27.83	135.93	19.94	-42.4	-44.8	18.5	0.00e+00	0	39	0	851443712	56	4750
2026-01-28 22:41:28.98	136.15	19.85	-42.5	-44.9	18.4	0.00e+00	0	39	0	853540864	56	4799
2026-01-28 22:41:29.83	136.31	19.77	-42.7	-45.1	18.2	0.00e+00	0	39	0	854589440	56	4922
2026-01-28 22:41:30.97	136.52	19.67	-43.0	-45.5	17.8	0.00e+00	0	39	0	856686592	56	5150
2026-01-28 22:41:31.82	136.67	19.60	-43.2	-45.8	17.5	0.00e+00	0	39	0	858783744	57	5009
2026-01-28 22:41:33.15	136.92	19.48	-43.1	-45.7	17.6	0.00e+00	0	40	0	860880896	57	4972
2026-01-28 22:41:33.86	137.05	19.42	-43.0	-45.6	17.8	0.00e+00	0	39	0	861929472	57	4885
2026-01-28 22:41:35.14	137.28	19.31	-42.7	-45.2	18.1	0.00e+00	0	39	0	865075200	57	4674
2026-01-28 22:41:35.88	137.41	19.25	-42.6	-45.0	18.3	0.00e+00	0	39	0	866123776	57	4565
2026-01-28 22:41:37.16	137.64	19.14	-42.1	-44.5	18.8	0.00e+00	0	39	0	868220928	56	4553
2026-01-28 22:41:37.90	137.77	19.07	-41.6	-43.8	19.2	0.00e+00	0	39	0	870318080	55	4485
2026-01-28 22:41:39.17	138.00	18.96	-41.4	-43.7	19.4	0.00e+00	0	39	0	872415232	54	4664
2026-01-28 22:41:39.91	138.13	18.90	-41.2	-43.5	19.5	0.00e+00	0	39	0	873463808	54	4561
2026-01-28 22:41:41.19	138.36	18.79	-41.4	-43.6	19.4	0.00e+00	0	39	0	876609536	54	4636
2026-01-28 22:41:41.92	138.48	18.73	-41.5	-43.8	19.3	0.00e+00	0	39	0	877658112	54	4714
2026-01-28 22:41:43.20	138.71	18.62	-41.6	-43.8	19.2	0.00e+00	0	39	0	879755264	54	4740
2026-01-28 22:41:43.91	138.83	18.55	-41.5	-43.8	19.2	0.00e+00	0	39	0	880803840	54	4707
2026-01-28 22:41:45.19	139.05	18.44	-41.6	-43.8	19.2	0.00e+00	0	39	0	883949568	54	4733
2026-01-28 22:41:46.09	139.20	18.37	-41.6	-43.8	19.2	0.00e+00	0	39	0	884998144	54	4724
2026-01-28 22:41:47.40	139.42	18.25	-41.5	-43.7	19.4	0.00e+00	0	39	0	888143872	54	4655
2026-01-28 22:41:48.11	139.54	18.19	-41.4	-43.6	19.4	0.00e+00	0	39	0	889192448	54	4620
2026-01-28 22:41:49.75	139.82	18.05	-41.6	-43.8	19.2	0.00e+00	0	39	0	892338176	54	4754
2026-01-28 22:41:50.32	139.91	18.00	-41.6	-43.8	19.2	0.00e+00	0	39	0	893386752	54	4728
2026-01-28 22:41:52.02	140.19	17.86	-41.7	-44.0	19.2	0.00e+00	0	39	0	896532480	54	4818
2026-01-28 22:41:52.59	140.29	17.81	-41.8	-44.0	19.0	0.00e+00	0	39	0	897581056	54	4856
2026-01-28 22:41:54.30	140.57	17.66	-41.9	-44.2	18.9	0.00e+00	0	39	0	900726784	54	4938
2026-01-28 22:41:54.87	140.66	17.61	-41.9	-44.2	18.9	0.00e+00	0	39	0	901775360	54	4946
2026-01-28 22:41:56.57	140.93	17.47	-41.8	-44.1	19.0	0.00e+00	0	39	0	904921088	54	4887
2026-01-28 22:41:57.14	141.03	17.42	-41.9	-44.2	18.8	0.00e+00	0	39	0	905969664	54	4982
2026-01-28 22:41:58.97	141.32	17.26	-41.7	-44.0	19.0	0.00e+00	0	39	0	909115392	54	4850
2026-01-28 22:41:59.54	141.41	17.22	-41.7	-44.0	19.0	0.00e+00	0	39	0	910163968	54	4864
2026-01-28 22:42:01.25	141.68	17.07	-41.6	-43.9	19.1	0.00e+00	0	39	0	913309696	54	4771
2026-01-28 22:42:01.81	141.76	17.02	-41.5	-43.7	19.3	0.00e+00	0	39	0	914358272	54	4698
2026-01-28 22:42:03.60	142.04	16.87	-41.5	-43.8	19.2	0.00e+00	0	39	0	918552576	54	4748
2026-01-28 22:42:04.52	142.18	16.79	-41.6	-43.9	19.1	0.00e+00	0	39	0	919601152	54	4794
2026-01-28 22:42:05.53	142.34	16.71	-41.5	-43.8	19.2	0.00e+00	0	39	0	921698304	54	4723
2026-01-28 22:42:06.52	142.49	16.62	-41.6	-44.0	19.1	0.00e+00	0	39	0	923795456	54	4825
2026-01-28 22:42:07.52	142.64	16.54	-41.6	-43.9	19.1	0.00e+00	0	39	0	925892608	54	4793
2026-01-28 22:42:08.51	142.79	16.46	-41.8	-44.2	18.9	0.00e+00	0	39	0	926941184	54	4939
2026-01-28 22:42:09.54	142.95	16.37	-41.7	-44.1	18.9	0.00e+00	0	39	0	929038336	54	4904
2026-01-28 22:42:10.54	143.10	16.29	-41.8	-44.2	18.8	0.00e+00	0	39	0	931135488	54	4951
2026-01-28 22:42:11.56	143.25	16.20	-41.8	-44.2	18.8	0.00e+00	0	39	0	933232640	54	4929
2026-01-28 22:42:12.55	143.39	16.12	-41.6	-44.0	19.0	0.00e+00	0	39	0	935329792	54	4820
2026-01-28 22:42:13.55	143.54	16.03	-41.5	-43.8	19.2	0.00e+00	0	39	0	936378368	54	4733
2026-01-28 22:42:14.54	143.69	15.95	-41.7	-44.0	19.0	0.00e+00	0	39	0	938475520	54	4844
2026-01-28 22:42:15.54	143.83	15.87	-41.7	-44.0	19.0	0.00e+00	0	39	0	940572672	54	4818
2026-01-28 22:42:16.53	143.97	15.78	-41.9	-44.3	18.7	0.00e+00	0	39	0	942669824	54	5001
2026-01-28 22:42:17.53	144.12	15.70	-42.1	-44.5	18.5	0.00e+00	0	39	0	944766976	54	5131
2026-01-28 22:42:18.53	144.26	15.62	-42.3	-44.8	18.3	0.00e+00	0	39	0	945815552	55	4989
2026-01-28 22:42:19.52	144.40	15.54	-42.6	-45.1	18.0	0.00e+00	0	39	0	947912704	55	5173
2026-01-28 22:42:20.52	144.54	15.45	-43.0	-45.6	17.7	0.00e+00	0	39	0	950009856	56	5188
2026-01-28 22:42:21.51	144.68	15.37	-43.4	-46.1	17.2	0.00e+00	0	39	0	952107008	57	5183
2026-01-28 22:42:22.50	144.82	15.29	-43.3	-45.9	17.3	0.00e+00	0	39	0	953155584	57	5078
2026-01-28 22:42:23.50	144.96	15.21	-43.1	-45.8	17.5	0.00e+00	0	39	0	955252736	57	4996
2026-01-28 22:42:24.49	145.10	15.12	-43.3	-45.9	17.3	0.00e+00	0	39	0	957349888	57	5099
2026-01-28 22:42:25.49	145.23	15.04	-43.0	-45.6	17.6	0.00e+00	0	39	0	959447040	57	4907
2026-01-28 22:42:26.49	145.37	14.96	-43.0	-45.6	17.6	0.00e+00	0	39	0	961544192	57	4908
2026-01-28 22:42:27.48	145.51	14.88	-43.1	-45.8	17.5	0.00e+00	0	39	0	962592768	57	4985
2026-01-28 22:42:28.48	145.64	14.80	-43.0	-45.6	17.7	0.00e+00	0	39	0	964689920	57	4875
2026-01-28 22:42:29.47	145.78	14.72	-42.8	-45.4	17.8	0.00e+00	0	39	0	966787072	57	4783
2026-01-28 22:42:30.47	145.91	14.63	-42.8	-45.3	17.9	0.00e+00	0	39	0	968884224	57	4759
2026-01-28 22:42:31.46	146.04	14.55	-42.7	-45.3	18.0	0.00e+00	0	39	0	969932800	57	4709
2026-01-28 22:42:32.46	146.17	14.47	-43.1	-45.7	17.5	0.00e+00	0	39	0	972029952	57	4959
2026-01-28 22:42:33.45	146.30	14.39	-43.3	-46.0	17.3	0.00e+00	0	39	0	974127104	57	5125
2026-01-28 22:42:34.45	146.44	14.31	-43.3	-46.0	17.3	0.00e+00	0	39	0	976224256	57	5127
2026-01-28 22:42:35.44	146.57	14.23	-43.7	-46.5	16.7	0.00e+00	0	39	0	978321408	57	5450
2026-01-28 22:42:36.43	146.69	14.15	-43.8	-46.7	16.6	0.00e+00	0	40	0	979369984	58	5269
2026-01-28 22:42:37.43	146.82	14.07	-44.1	-47.2	16.2	0.00e+00	0	39	0	981467136	58	5553
2026-01-28 22:42:38.43	146.95	13.99	-44.1	-47.2	16.1	0.00e+00	0	39	0	983564288	59	5271
2026-01-28 22:42:39.42	147.08	13.91	-44.2	-47.4	15.9	0.00e+00	0	39	0	985661440	59	5359
2026-01-28 22:42:40.41	147.20	13.83	-44.4	-47.8	15.5	0.00e+00	0	39	0	986710016	59	5597
2026-01-28 22:42:41.41	147.33	13.75	-43.9	-47.0	16.3	0.00e+00	0	39	0	988807168	59	5140
2026-01-28 22:42:42.45	147.46	13.67	-44.0	-47.1	16.2	0.00e+00	0	39	0	990904320	59	5172
2026-01-28 22:42:43.48	147.59	13.58	-44.0	-47.0	16.3	0.00e+00	0	39	0	993001472	59	5143
2026-01-28 22:42:44.47	147.71	13.50	-44.0	-47.0	16.3	0.00e+00	0	39	0	995098624	59	5134
2026-01-28 22:42:45.55	147.85	13.42	-44.1	-47.2	16.1	0.00e+00	0	39	0	997195776	59	5231
2026-01-28 22:42:46.40	147.95	13.35	-43.9	-46.8	16.4	0.00e+00	0	39	0	998244352	59	5036
2026-01-28 22:42:47.54	148.09	13.26	-43.8	-46.7	16.5	0.00e+00	0	39	0	1000341504	59	4938
2026-01-28 22:42:48.39	148.20	13.19	-43.9	-46.9	16.4	0.00e+00	0	39	0	1002438656	59	5068
2026-01-28 22:42:49.53	148.33	13.10	-43.7	-46.6	16.6	0.00e+00	0	39	0	1004535808	59	4887
2026-01-28 22:42:50.38	148.44	13.04	-43.7	-46.6	16.7	0.00e+00	0	39	0	1005584384	59	4898
2026-01-28 22:42:51.52	148.57	12.95	-43.6	-46.5	16.7	0.00e+00	0	39	0	1007681536	59	4853
2026-01-28 22:42:52.37	148.68	12.88	-43.6	-46.5	16.8	0.00e+00	0	39	0	1009778688	59	4821
2026-01-28 22:42:53.51	148.81	12.79	-43.6	-46.5	16.7	0.00e+00	0	39	0	1011875840	58	5149
2026-01-28 22:42:54.36	148.91	12.72	-43.4	-46.2	16.9	0.00e+00	0	39	0	1012924416	58	4980
2026-01-28 22:42:55.50	149.05	12.63	-43.3	-46.1	17.1	0.00e+00	0	39	0	1015021568	58	4874
2026-01-28 22:42:56.36	149.15	12.57	-43.4	-46.3	16.9	0.00e+00	0	39	0	1017118720	58	4992
2026-01-28 22:42:57.49	149.28	12.48	-43.2	-45.9	17.3	0.00e+00	0	39	0	1019215872	58	4773
2026-01-28 22:42:58.35	149.38	12.41	-43.0	-45.6	17.5	0.00e+00	0	39	0	1021313024	57	4913
2026-01-28 22:42:59.49	149.51	12.32	-43.0	-45.7	17.5	0.00e+00	0	39	0	1023410176	57	4928
2026-01-28 22:43:00.34	149.61	12.26	-42.7	-45.2	17.9	0.00e+00	0	39	0	1024458752	57	4678
2026-01-28 22:43:01.47	149.74	12.17	-42.9	-45.5	17.7	0.00e+00	0	39	0	1026555904	57	4847
2026-01-28 22:43:02.33	149.83	12.10	-42.7	-45.2	17.9	0.00e+00	0	39	0	1028653056	57	4662
2026-01-28 22:43:03.47	149.96	12.02	-42.7	-45.2	18.0	0.00e+00	0	39	0	1030750208	57	4667
2026-01-28 22:43:04.32	150.06	11.95	-42.8	-45.4	17.7	0.00e+00	0	39	0	1031798784	57	4780
2026-01-28 22:43:05.45	150.18	11.86	-42.7	-45.3	17.8	0.00e+00	0	39	0	1033895936	57	4749
2026-01-28 22:43:06.31	150.28	11.80	-42.9	-45.6	17.6	0.00e+00	0	39	0	1035993088	57	4887
2026-01-28 22:43:07.44	150.41	11.71	-43.1	-45.8	17.3	0.00e+00	0	39	0	1038090240	57	5040
2026-01-28 22:43:08.30	150.50	11.65	-43.0	-45.8	17.4	0.00e+00	0	39	0	1039138816	57	5000
2026-01-28 22:43:09.43	150.62	11.56	-43.3	-46.1	17.1	0.00e+00	0	39	0	1041235968	57	5206
2026-01-28 22:43:10.29	150.72	11.49	-43.5	-46.3	16.8	0.00e+00	0	39	0	1043333120	57	5340
2026-01-28 22:43:11.42	150.84	11.41	-43.5	-46.4	16.8	0.00e+00	0	39	0	1045430272	57	5367
2026-01-28 22:43:12.27	150.93	11.34	-43.8	-46.8	16.4	0.00e+00	0	39	0	1046478848	58	5293
2026-01-28 22:43:13.58	151.07	11.24	-43.7	-46.7	16.5	0.00e+00	0	39	0	1049624576	58	5252
2026-01-28 22:43:14.30	151.15	11.19	-43.8	-46.8	16.4	0.00e+00	0	39	0	1050673152	58	5316
2026-01-28 22:43:15.57	151.29	11.09	-43.9	-46.9	16.3	0.00e+00	0	39	0	1052770304	58	5382
2026-01-28 22:43:16.30	151.36	11.04	-43.7	-46.7	16.5	0.00e+00	0	39	0	1054867456	58	5236
2026-01-28 22:43:17.83	151.52	10.93	-43.9	-46.9	16.3	0.00e+00	0	39	0	1056964608	58	5387
2026-01-28 22:43:18.54	151.60	10.87	-43.7	-46.7	16.5	0.00e+00	0	40	0	1059061760	58	5234
2026-01-28 22:43:19.83	151.73	10.78	-43.7	-46.6	16.6	5.30e-06	0	40	0	1061158912	58	5176
2026-01-28 22:43:20.54	151.81	10.72	-43.7	-46.6	16.5	0.00e+00	0	39	0	1062207488	58	5202
2026-01-28 22:43:21.82	151.94	10.63	-43.5	-46.3	16.8	0.00e+00	0	40	0	1064304640	58	5022
2026-01-28 22:43:22.53	152.01	10.57	-43.6	-46.5	16.6	0.00e+00	0	39	0	1066401792	58	5136
2026-01-28 22:43:23.81	152.14	10.48	-43.5	-46.3	16.8	0.00e+00	0	40	0	1068498944	58	5030
2026-01-28 22:43:24.52	152.21	10.43	-43.5	-46.4	16.7	0.00e+00	0	39	0	1069547520	58	5069
2026-01-28 22:43:25.80	152.34	10.33	-43.8	-46.7	16.4	0.00e+00	0	39	0	1072693248	58	5262
2026-01-28 22:43:26.51	152.42	10.28	-43.6	-46.4	16.7	0.00e+00	0	39	0	1073741824	58	5071
2026-01-28 22:43:27.78	152.54	10.19	-43.8	-46.7	16.5	0.00e+00	0	39	0	1075838976	58	5222
2026-01-28 22:43:28.50	152.61	10.13	-44.0	-47.0	16.2	0.00e+00	0	39	0	1076887552	58	5421
2026-01-28 22:43:29.78	152.74	10.04	-43.8	-46.8	16.4	0.00e+00	0	39	0	1080033280	58	5288
2026-01-28 22:43:30.50	152.81	9.99	-44.0	-47.0	15.7	0.00e+00	0	40	0	1081081856	58	5462
2026-01-28 22:43:31.78	152.94	9.89	-44.1	-47.2	16.0	0.00e+00	0	40	0	1083179008	58	5552
2026-01-28 22:43:32.76	153.03	9.82	-44.0	-47.2	15.9	0.00e+00	0	39	0	1085276160	58	5562
2026-01-28 22:43:33.75	153.13	9.75	-44.1	-47.3	15.8	0.00e+00	0	39	0	1087373312	59	5340
2026-01-28 22:43:34.75	153.23	9.68	-44.1	-47.3	15.8	0.00e+00	0	39	0	1089470464	59	5320
2026-01-28 22:43:35.74	153.32	9.61	-43.9	-47.2	15.9	0.00e+00	0	39	0	1090519040	59	5227
2026-01-28 22:43:36.74	153.42	9.53	-43.7	-46.9	16.2	6.10e-06	0	39	0	1092616192	59	5071
2026-01-28 22:43:37.73	153.51	9.46	-43.5	-46.5	16.5	0.00e+00	0	39	0	1094713344	58	5146
2026-01-28 22:43:38.73	153.61	9.39	-43.7	-46.7	16.4	0.00e+00	0	39	0	1096810496	58	5268
2026-01-28 22:43:39.72	153.70	9.32	-43.5	-46.4	16.6	7.00e-07	0	39	0	1097859072	58	5089
2026-01-28 22:43:40.78	153.80	9.24	-43.4	-46.3	16.7	0.00e+00	0	39	0	1099956224	58	5021
2026-01-28 22:43:41.63	153.88	9.18	-43.5	-46.4	16.6	0.00e+00	0	39	0	1102053376	58	5078
2026-01-28 22:43:42.77	153.99	9.10	-43.4	-46.3	16.8	0.00e+00	0	39	0	1104150528	58	5003
2026-01-28 22:43:43.62	154.07	9.04	-43.4	-46.3	16.7	0.00e+00	0	39	0	1105199104	58	5023
2026-01-28 22:43:44.76	154.17	8.96	-47.1	-53.4	10.2	3.98e-04	0	39	0	1108344832	64	8023
2026-01-28 22:43:45.61	154.25	8.90	-48.9	-64.2	3.8	1.15e+00	0	39	104	1108344832	68	22228
2026-01-28 22:43:46.75	154.36	8.82	-49.2	-64.5	3.8	1.49e+00	0	39	104	1108344832	69	21718
2026-01-28 22:43:47.60	154.43	8.76	-49.2	-64.8	3.8	1.49e+00	0	39	104	1108344832	69	22361
2026-01-28 22:43:48.73	154.53	8.68	-49.4	-64.9	3.8	1.49e+00	0	40	104	1108344832	69	22663
2026-01-28 22:43:49.58	154.61	8.62	-49.7	-65.0	3.8	1.49e+00	0	39	104	1108344832	69	22885
2026-01-28 22:43:50.72	154.71	8.54	-49.7	-65.1	3.8	1.49e+00	0	39	104	1108344832	70	21789
2026-01-28 22:43:51.57	154.79	8.48	-49.8	-65.1	3.8	1.49e+00	0	39	104	1108344832	70	21797
2026-01-28 22:43:52.70	154.89	8.40	-49.9	-65.1	3.8	1.49e+00	0	39	104	1108344832	70	21963
2026-01-28 22:43:53.56	154.97	8.34	-49.9	-65.1	3.8	1.49e+00	0	39	104	1108344832	70	21996
2026-01-28 22:43:54.69	155.07	8.26	-50.0	-65.2	3.8	1.49e+00	0	39	104	1108344832	70	22108
2026-01-28 22:43:55.54	155.14	8.20	-50.1	-65.2	3.8	1.49e+00	0	40	104	1108344832	70	22187
2026-01-28 22:43:56.68	155.24	8.12	-50.0	-65.2	3.8	1.49e+00	0	39	104	1108344832	70	22204
2026-01-28 22:43:57.53	155.32	8.06	-50.0	-65.3	3.8	1.49e+00	0	39	104	1108344832	70	22273
2026-01-28 22:43:58.67	155.41	7.98	-50.0	-65.3	3.8	1.49e+00	0	39	104	1108344832	70	22380
2026-01-28 22:43:59.52	155.49	7.93	-49.8	-65.3	3.8	1.49e+00	0	39	104	1108344832	70	22321
2026-01-28 22:44:00.65	155.58	7.85	-49.8	-65.3	3.8	1.49e+00	0	39	104	1108344832	70	22423
2026-01-28 22:44:01.50	155.66	7.79	-50.1	-65.3	3.8	1.49e+00	0	40	104	1108344832	70	22282
2026-01-28 22:44:02.64	155.75	7.71	-50.1	-65.3	3.8	1.49e+00	0	39	104	1108344832	71	21071
2026-01-28 22:44:03.49	155.83	7.65	-50.1	-65.3	3.8	1.49e+00	0	39	104	1108344832	71	21039
2026-01-28 22:44:04.63	155.92	7.57	-50.1	-65.3	3.8	1.49e+00	0	39	104	1108344832	71	21079
2026-01-28 22:44:05.48	155.99	7.52	-50.0	-65.3	3.8	1.49e+00	0	39	104	1108344832	71	21210
2026-01-28 22:44:06.61	156.09	7.44	-50.1	-65.3	3.8	1.49e+00	0	39	104	1108344832	71	21225
2026-01-28 22:44:07.47	156.16	7.38	-50.0	-65.3	3.8	1.49e+00	0	40	104	1108344832	71	21157
2026-01-28 22:44:08.63	156.26	7.30	-50.1	-65.3	3.8	1.49e+00	0	39	104	1108344832	71	21166
2026-01-28 22:44:09.48	156.33	7.24	-50.0	-65.3	3.8	1.49e+00	0	39	104	1108344832	71	21237
2026-01-28 22:44:10.68	156.42	7.16	-50.1	-65.3	3.8	1.49e+00	0	40	104	1108344832	71	21155
2026-01-28 22:44:11.53	156.49	7.11	-49.9	-65.3	3.8	1.49e+00	0	39	104	1108344832	71	21116
2026-01-28 22:44:12.67	156.59	7.03	-50.1	-65.3	3.8	1.49e+00	0	39	104	1108344832	71	21103
2026-01-28 22:44:13.52	156.66	6.97	-50.1	-65.3	3.8	1.49e+00	0	40	104	1108344832	71	21067
2026-01-28 22:44:14.66	156.75	6.90	-50.1	-65.3	3.8	1.49e+00	0	39	104	1108344832	71	21128
2026-01-28 22:44:15.51	156.82	6.84	-50.1	-65.2	3.8	1.49e+00	0	39	104	1108344832	71	20963
2026-01-28 22:44:16.64	156.91	6.76	-49.9	-65.2	3.8	1.49e+00	0	40	104	1108344832	71	20948
2026-01-28 22:44:17.50	156.97	6.71	-49.9	-65.2	3.8	1.49e+00	0	39	104	1108344832	71	20979
2026-01-28 22:44:18.63	157.06	6.63	-49.8	-65.2	3.8	1.49e+00	0	39	104	1108344832	71	20871
2026-01-28 22:44:19.48	157.13	6.57	-49.8	-65.1	3.8	1.49e+00	0	39	104	1108344832	71	20766
2026-01-28 22:44:20.62	157.22	6.50	-49.8	-65.1	3.8	1.49e+00	0	39	104	1108344832	71	20652
2026-01-28 22:44:21.47	157.29	6.44	-49.7	-65.1	3.8	1.49e+00	0	39	104	1108344832	71	20593
2026-01-28 22:44:22.60	157.37	6.37	-49.7	-64.9	3.8	1.49e+00	0	39	104	1108344832	71	20267
2026-01-28 22:44:23.45	157.44	6.31	-49.4	-64.8	3.8	1.49e+00	0	39	104	1108344832	70	21054
2026-01-28 22:44:24.62	157.53	6.23	-49.3	-64.6	3.8	1.49e+00	0	39	104	1108344832	70	20741
2026-01-28 22:44:25.47	157.60	6.18	-49.3	-64.6	3.8	1.49e+00	0	39	104	1108344832	70	20728
2026-01-28 22:44:26.61	157.68	6.10	-49.3	-64.6	3.8	1.49e+00	0	39	104	1108344832	70	20743
2026-01-28 22:44:27.46	157.75	6.05	-49.3	-64.6	3.8	1.49e+00	0	40	104	1108344832	70	20711
2026-01-28 22:44:28.59	157.83	5.97	-49.3	-64.6	3.8	1.49e+00	0	40	104	1108344832	70	20632
2026-01-28 22:44:29.45	157.90	5.92	-49.3	-64.6	3.8	1.49e+00	0	40	104	1108344832	70	20639
2026-01-28 22:44:30.58	157.98	5.84	-49.3	-64.6	3.8	1.49e+00	0	40	104	1108344832	70	20739
2026-01-28 22:44:31.43	158.05	5.79	-49.3	-64.6	3.8	1.49e+00	0	39	104	1108344832	70	20602
2026-01-28 22:44:32.57	158.13	5.71	-49.3	-64.6	3.8	1.49e+00	0	40	104	1108344832	70	20683
2026-01-28 22:44:33.42	158.20	5.66	-49.3	-64.6	3.8	1.49e+00	0	39	104	1108344832	70	20622
2026-01-28 22:44:34.55	158.28	5.59	-49.3	-64.6	3.8	1.49e+00	0	40	104	1108344832	70	20593
2026-01-28 22:44:35.41	158.34	5.53	-49.3	-64.6	3.8	1.49e+00	0	40	104	1108344832	70	20660
2026-01-28 22:44:36.54	158.43	5.46	-49.3	-64.6	3.8	1.49e+00	0	39	104	1108344832	70	20579
2026-01-28 22:44:37.39	158.49	5.40	-49.3	-64.6	3.8	1.49e+00	0	39	104	1108344832	70	20635
2026-01-28 22:44:38.53	158.57	5.33	-49.3	-64.6	3.8	1.49e+00	0	40	104	1108344832	70	20545
2026-01-28 22:44:39.38	158.63	5.28	-49.3	-64.6	3.8	1.49e+00	0	39	104	1108344832	70	20588
