passes_logs/2026/01/28/T1/T1__20260128_012836_FENGYUN_3D_rec.log

#Pass ID: 20260128_012836_FENGYUN 3D
#Satellite: FENGYUN 3D
#Configuration: FENGYUN 3D
#almurnet v.1.7.20251203
#Start time: 2026-01-28 01:28:35

#Version: 2.0.20230620
#Station: T1
#Location: 37.570604 lon 55.790049 lat
#TLE: 1 43010U 17072A   26027.47796828  .00000374  00000+0  19850-3 0  9992
#TLE: 2 43010  98.9960 359.4888 0002523  87.5419 272.6045 14.19701595425023

#Time	Az	El	Level	Level2	SNR	BER	BlckErr	Temp	State	Recorded	gain1	gain2
2026-01-28 01:28:35.74	18.99	4.97	-50.0	-62.4	3.8	8.47e-01	0	39	0	0	71	15137
2026-01-28 01:28:36.73	19.01	5.04	-50.3	-62.4	3.8	8.46e-01	0	39	104	0	72	14326
2026-01-28 01:28:37.72	19.04	5.11	-50.3	-62.5	3.8	8.47e-01	0	39	104	0	72	14400
2026-01-28 01:28:38.71	19.06	5.18	-50.4	-62.4	3.8	8.47e-01	0	40	104	0	72	14358
2026-01-28 01:28:39.71	19.08	5.25	-50.4	-62.4	3.8	8.48e-01	0	39	104	0	72	14371
2026-01-28 01:28:40.70	19.10	5.32	-50.3	-62.4	3.8	8.46e-01	0	40	104	0	72	14370
2026-01-28 01:28:41.69	19.12	5.39	-50.3	-62.4	3.8	8.47e-01	0	40	104	0	72	14351
2026-01-28 01:28:42.69	19.14	5.47	-50.2	-62.4	3.8	8.47e-01	0	40	104	0	72	14332
2026-01-28 01:28:43.68	19.17	5.54	-50.2	-62.4	3.8	8.47e-01	0	40	104	0	72	14370
2026-01-28 01:28:44.67	19.19	5.61	-50.2	-62.4	3.8	8.48e-01	0	40	104	0	72	14308
2026-01-28 01:28:45.66	19.21	5.68	-50.2	-62.4	3.8	8.49e-01	0	40	104	0	72	14254
2026-01-28 01:28:46.66	19.23	5.75	-50.2	-62.4	3.8	8.47e-01	0	40	104	0	72	14288
2026-01-28 01:28:47.65	19.25	5.82	-50.2	-62.3	3.8	8.47e-01	0	40	104	0	72	14148
2026-01-28 01:28:48.64	19.28	5.90	-50.0	-62.2	3.8	8.47e-01	0	40	104	0	72	14031
2026-01-28 01:28:49.64	19.30	5.97	-50.0	-62.2	3.8	8.46e-01	0	40	104	0	72	14000
2026-01-28 01:28:50.63	19.32	6.04	-50.0	-62.2	3.8	8.47e-01	0	40	104	0	71	14794
2026-01-28 01:28:51.62	19.34	6.11	-49.9	-62.1	3.8	8.46e-01	0	40	104	0	71	14676
2026-01-28 01:28:52.61	19.37	6.19	-49.6	-62.0	3.8	8.46e-01	0	40	104	0	70	15396
2026-01-28 01:28:53.61	19.39	6.26	-49.4	-62.0	3.8	8.46e-01	0	40	104	0	70	15322
2026-01-28 01:28:54.60	19.41	6.33	-48.8	-62.0	3.8	8.46e-01	0	40	104	0	69	16132
2026-01-28 01:28:55.59	19.44	6.41	-49.2	-61.8	3.8	8.48e-01	0	40	104	0	69	15803
2026-01-28 01:28:56.59	19.46	6.48	-47.5	-61.6	3.8	8.48e-01	0	40	104	0	67	17336
2026-01-28 01:28:57.58	19.48	6.55	-47.2	-61.1	3.8	8.46e-01	0	40	104	0	66	17457
2026-01-28 01:28:58.57	19.51	6.63	-47.2	-60.8	3.8	8.47e-01	0	40	104	0	66	16850
2026-01-28 01:28:59.57	19.53	6.70	-47.1	-60.5	3.8	8.46e-01	0	40	104	0	66	16289
2026-01-28 01:29:00.56	19.55	6.78	-47.1	-60.1	3.8	8.46e-01	0	40	104	0	66	15557
2026-01-28 01:29:01.55	19.58	6.85	-47.1	-59.7	3.9	8.46e-01	0	40	104	0	66	14724
2026-01-28 01:29:02.55	19.60	6.93	-47.0	-59.3	3.9	8.45e-01	0	40	104	0	66	14087
2026-01-28 01:29:03.54	19.62	7.00	-46.9	-58.8	4.0	8.46e-01	0	40	104	0	65	14165
2026-01-28 01:29:04.53	19.65	7.08	-46.9	-58.4	4.1	8.41e-01	0	41	0	0	65	13558
2026-01-28 01:29:05.52	19.67	7.15	-46.9	-58.1	4.2	8.38e-01	0	41	0	0	65	13090
2026-01-28 01:29:06.51	19.70	7.23	-46.8	-57.7	4.3	8.35e-01	0	40	0	0	65	12439
2026-01-28 01:29:07.51	19.72	7.31	-46.8	-57.4	4.4	8.29e-01	0	41	0	0	65	12070
2026-01-28 01:29:08.50	19.74	7.38	-46.8	-57.2	4.5	8.25e-01	0	40	0	0	65	11684
2026-01-28 01:29:09.49	19.77	7.46	-46.7	-56.9	4.6	8.16e-01	0	41	0	0	65	11397
2026-01-28 01:29:10.49	19.79	7.54	-46.7	-56.8	4.7	8.11e-01	0	41	0	0	65	11242
2026-01-28 01:29:11.48	19.82	7.61	-46.7	-56.6	4.7	8.02e-01	0	41	0	0	65	10992
2026-01-28 01:29:12.47	19.84	7.69	-46.6	-56.4	4.8	7.94e-01	0	41	0	0	65	10726
2026-01-28 01:29:13.47	19.87	7.77	-46.7	-56.3	4.9	7.90e-01	0	40	0	0	65	10551
2026-01-28 01:29:14.46	19.89	7.85	-46.7	-56.1	5.0	7.77e-01	0	41	0	0	65	10412
2026-01-28 01:29:15.45	19.92	7.93	-46.6	-56.0	5.1	7.59e-01	0	41	0	0	65	10196
2026-01-28 01:29:16.44	19.94	8.00	-46.6	-55.6	5.2	7.43e-01	0	41	0	0	65	9824
2026-01-28 01:29:17.44	19.97	8.08	-46.5	-55.4	5.4	7.24e-01	0	41	0	0	65	9563
2026-01-28 01:29:18.43	19.99	8.16	-46.4	-55.0	5.7	5.68e-01	0	41	0	2097152	64	9643
2026-01-28 01:29:19.42	20.02	8.24	-46.3	-54.5	6.1	3.73e-01	0	41	0	8388608	64	9105
2026-01-28 01:29:20.42	20.04	8.32	-46.2	-53.8	6.6	2.85e-01	0	41	0	13631488	64	8453
2026-01-28 01:29:21.41	20.07	8.40	-46.1	-53.4	6.9	1.91e-01	0	41	0	18874368	64	8064
2026-01-28 01:29:22.40	20.09	8.48	-46.0	-52.8	7.6	1.34e-01	0	41	0	25165824	63	7982
2026-01-28 01:29:23.40	20.12	8.56	-45.8	-52.3	8.1	8.44e-02	0	41	0	30408704	63	7502
2026-01-28 01:29:24.39	20.15	8.64	-45.7	-51.7	8.7	4.86e-02	0	41	0	35651584	63	7021
2026-01-28 01:29:25.38	20.17	8.72	-45.4	-51.3	9.2	2.97e-02	0	41	0	41943040	62	7042
2026-01-28 01:29:26.37	20.20	8.80	-45.2	-50.8	9.6	1.64e-02	0	41	0	47185920	62	6653
2026-01-28 01:29:27.37	20.23	8.88	-45.1	-50.5	10.0	1.10e-02	0	41	0	52428800	62	6421
2026-01-28 01:29:28.36	20.25	8.96	-45.0	-50.2	10.3	8.69e-03	0	41	0	58720256	62	6217
2026-01-28 01:29:29.35	20.28	9.04	-45.1	-50.4	10.1	6.84e-03	0	41	0	63963136	62	6348
2026-01-28 01:29:30.35	20.31	9.13	-46.3	-53.2	7.4	1.68e-02	0	41	0	69206016	63	8303
2026-01-28 01:29:31.34	20.33	9.21	-47.2	-57.4	4.0	8.46e-01	0	41	104	70254592	65	11975
2026-01-28 01:29:32.33	20.36	9.29	-41.4	-44.1	16.4	0.00e+00	0	41	0	73400320	54	4890
2026-01-28 01:29:33.32	20.39	9.37	-43.0	-46.0	14.6	3.54e-05	0	41	0	79691776	58	4836
2026-01-28 01:29:34.32	20.41	9.46	-41.5	-44.3	16.1	0.00e+00	0	41	0	84934656	54	4989
2026-01-28 01:29:35.31	20.44	9.54	-40.8	-43.2	17.1	0.00e+00	0	41	0	90177536	53	4694
2026-01-28 01:29:36.30	20.47	9.62	-40.7	-43.2	17.2	0.00e+00	0	41	0	96468992	53	4665
2026-01-28 01:29:37.30	20.50	9.71	-40.4	-42.7	17.7	0.00e+00	0	41	0	101711872	52	4698
2026-01-28 01:29:38.29	20.52	9.79	-40.0	-42.2	18.2	0.00e+00	0	41	0	106954752	52	4422
2026-01-28 01:29:39.28	20.55	9.88	-39.7	-41.8	18.6	0.00e+00	0	41	0	112197632	51	4487
2026-01-28 01:29:40.28	20.58	9.96	-39.5	-41.6	18.8	0.00e+00	0	41	0	118489088	51	4380
2026-01-28 01:29:41.27	20.61	10.05	-39.3	-41.4	19.1	0.00e+00	0	41	0	123731968	50	4525
2026-01-28 01:29:42.26	20.64	10.13	-39.2	-41.3	19.2	0.00e+00	0	41	0	130023424	50	4461
2026-01-28 01:29:43.25	20.67	10.22	-39.2	-41.3	19.2	0.00e+00	0	41	0	135266304	50	4458
2026-01-28 01:29:44.25	20.69	10.30	-39.2	-41.2	19.2	0.00e+00	0	41	0	140509184	50	4440
2026-01-28 01:29:45.24	20.72	10.39	-39.1	-41.1	19.3	0.00e+00	0	41	0	146800640	50	4384
2026-01-28 01:29:46.23	20.75	10.47	-39.1	-41.2	19.3	0.00e+00	0	41	0	152043520	50	4400
2026-01-28 01:29:47.23	20.78	10.56	-39.0	-41.0	19.5	0.00e+00	0	41	0	157286400	50	4327
2026-01-28 01:29:48.22	20.81	10.65	-39.0	-41.0	19.5	0.00e+00	0	41	0	162529280	50	4331
2026-01-28 01:29:49.21	20.84	10.74	-39.0	-41.0	19.5	0.00e+00	0	41	0	168820736	49	4563
2026-01-28 01:29:50.21	20.87	10.82	-39.0	-41.0	19.5	0.00e+00	0	41	0	174063616	49	4570
2026-01-28 01:29:51.20	20.90	10.91	-39.0	-41.0	19.5	0.00e+00	0	41	0	180355072	49	4570
2026-01-28 01:29:52.19	20.93	11.00	-39.0	-41.0	19.5	0.00e+00	0	41	0	185597952	49	4546
2026-01-28 01:29:53.18	20.96	11.09	-39.0	-41.0	19.5	0.00e+00	0	41	0	190840832	49	4552
2026-01-28 01:29:54.18	20.99	11.18	-38.9	-40.9	19.6	0.00e+00	0	41	0	196083712	49	4503
2026-01-28 01:29:55.17	21.02	11.27	-39.0	-40.9	19.6	0.00e+00	0	41	0	202375168	49	4527
2026-01-28 01:29:56.16	21.05	11.35	-39.0	-40.9	19.6	0.00e+00	0	41	0	207618048	49	4534
2026-01-28 01:29:57.16	21.08	11.45	-38.9	-40.9	19.6	0.00e+00	0	42	0	212860928	49	4508
2026-01-28 01:29:58.15	21.11	11.54	-39.0	-40.9	19.6	0.00e+00	0	41	0	219152384	49	4538
2026-01-28 01:29:59.14	21.14	11.63	-39.1	-41.1	19.4	0.00e+00	0	41	0	224395264	49	4617
2026-01-28 01:30:00.13	21.17	11.72	-38.9	-40.8	19.7	0.00e+00	0	41	0	229638144	49	4476
2026-01-28 01:30:01.13	21.21	11.81	-38.8	-40.8	19.7	0.00e+00	0	41	0	235929600	49	4464
2026-01-28 01:30:02.12	21.24	11.90	-38.9	-40.9	19.6	0.00e+00	0	41	0	241172480	49	4533
2026-01-28 01:30:03.11	21.27	11.99	-38.7	-40.7	19.8	0.00e+00	0	41	0	246415360	49	4417
2026-01-28 01:30:04.11	21.30	12.08	-38.9	-40.8	19.7	0.00e+00	0	41	0	252706816	49	4484
2026-01-28 01:30:05.10	21.33	12.18	-38.9	-40.9	19.6	0.00e+00	0	41	0	257949696	49	4512
2026-01-28 01:30:06.09	21.36	12.27	-38.7	-40.7	19.8	0.00e+00	0	41	0	264241152	49	4413
2026-01-28 01:30:07.09	21.40	12.36	-38.8	-40.8	19.8	0.00e+00	0	41	0	269484032	49	4451
2026-01-28 01:30:08.08	21.43	12.46	-38.7	-40.7	19.9	0.00e+00	0	41	0	274726912	49	4402
2026-01-28 01:30:09.07	21.46	12.55	-38.8	-40.7	19.8	0.00e+00	0	41	0	279969792	49	4423
2026-01-28 01:30:10.06	21.49	12.64	-38.8	-40.8	19.8	0.00e+00	0	41	0	286261248	49	4453
2026-01-28 01:30:11.05	21.53	12.74	-38.8	-40.8	19.8	0.00e+00	0	42	0	291504128	49	4453
2026-01-28 01:30:12.05	21.56	12.83	-38.8	-40.7	19.8	0.00e+00	0	42	0	296747008	49	4436
2026-01-28 01:30:13.04	21.59	12.93	-38.8	-40.8	19.8	0.00e+00	0	41	0	303038464	49	4446
2026-01-28 01:30:14.03	21.63	13.02	-38.8	-40.7	19.8	0.00e+00	0	42	0	308281344	49	4416
2026-01-28 01:30:15.03	21.66	13.12	-38.9	-40.8	19.8	0.00e+00	0	41	0	313524224	49	4450
2026-01-28 01:30:16.02	21.70	13.22	-38.9	-40.8	19.8	0.00e+00	0	41	0	319815680	49	4447
2026-01-28 01:30:17.01	21.73	13.31	-38.9	-40.8	19.7	0.00e+00	0	42	0	325058560	49	4483
2026-01-28 01:30:18.01	21.77	13.41	-38.8	-40.7	19.9	0.00e+00	0	41	0	330301440	49	4392
2026-01-28 01:30:19.00	21.80	13.51	-38.9	-40.8	19.8	0.00e+00	0	41	0	336592896	49	4450
2026-01-28 01:30:19.99	21.83	13.61	-38.9	-40.8	19.8	0.00e+00	0	42	0	341835776	49	4454
2026-01-28 01:30:20.99	21.87	13.71	-38.7	-40.5	20.0	0.00e+00	0	42	0	347078656	49	4338
2026-01-28 01:30:21.98	21.90	13.80	-38.8	-40.6	20.0	0.00e+00	0	42	0	353370112	49	4378
2026-01-28 01:30:22.97	21.94	13.90	-38.8	-40.7	19.9	0.00e+00	0	42	0	358612992	49	4420
2026-01-28 01:30:23.96	21.98	14.00	-38.8	-40.7	19.9	0.00e+00	0	42	0	363855872	49	4402
2026-01-28 01:30:24.95	22.01	14.10	-38.7	-40.6	20.0	0.00e+00	0	42	0	370147328	49	4363
2026-01-28 01:30:25.95	22.05	14.20	-38.6	-40.5	20.1	0.00e+00	0	41	0	375390208	49	4308
2026-01-28 01:30:26.94	22.08	14.30	-38.7	-40.5	20.0	0.00e+00	0	42	0	380633088	49	4329
2026-01-28 01:30:27.93	22.12	14.40	-38.6	-40.5	20.1	0.00e+00	0	42	0	385875968	49	4296
2026-01-28 01:30:28.93	22.16	14.51	-38.7	-40.5	20.1	0.00e+00	0	42	0	392167424	49	4318
2026-01-28 01:30:29.92	22.19	14.61	-38.6	-40.4	20.1	0.00e+00	0	41	0	397410304	49	4259
2026-01-28 01:30:30.91	22.23	14.71	-38.6	-40.5	20.1	0.00e+00	0	42	0	403701760	49	4296
2026-01-28 01:30:31.90	22.27	14.81	-38.6	-40.4	20.1	0.00e+00	0	42	0	408944640	49	4282
2026-01-28 01:30:32.90	22.31	14.92	-38.4	-40.2	20.3	0.00e+00	0	41	0	414187520	48	4439
2026-01-28 01:30:33.89	22.34	15.02	-38.5	-40.3	20.3	0.00e+00	0	42	0	419430400	48	4471
2026-01-28 01:30:34.88	22.38	15.12	-38.3	-40.1	20.5	0.00e+00	0	42	0	425721856	48	4371
2026-01-28 01:30:35.88	22.42	15.23	-38.2	-40.1	20.5	0.00e+00	0	41	0	430964736	48	4341
2026-01-28 01:30:36.87	22.46	15.33	-38.2	-40.1	20.5	0.00e+00	0	42	0	436207616	48	4344
2026-01-28 01:30:37.86	22.50	15.44	-38.1	-39.9	20.6	0.00e+00	0	42	0	442499072	48	4274
2026-01-28 01:30:38.85	22.54	15.55	-38.1	-39.9	20.7	0.00e+00	0	42	0	447741952	48	4262
2026-01-28 01:30:39.84	22.58	15.65	-38.1	-39.9	20.6	0.00e+00	0	41	0	454033408	48	4280
2026-01-28 01:30:40.84	22.62	15.76	-37.9	-39.7	20.6	0.00e+00	0	41	0	459276288	47	4420
2026-01-28 01:30:41.83	22.66	15.87	-37.8	-39.6	20.7	0.00e+00	0	42	0	464519168	47	4381
2026-01-28 01:30:42.82	22.70	15.97	-37.8	-39.6	20.7	0.00e+00	0	42	0	469762048	47	4368
2026-01-28 01:30:43.82	22.74	16.08	-37.8	-39.6	20.7	0.00e+00	0	41	0	476053504	47	4375
2026-01-28 01:30:44.81	22.78	16.19	-37.8	-39.6	20.7	0.00e+00	0	42	0	481296384	47	4375
2026-01-28 01:30:45.80	22.82	16.30	-37.8	-39.6	20.8	0.00e+00	0	42	0	486539264	47	4351
2026-01-28 01:30:46.79	22.86	16.41	-37.6	-39.4	20.9	0.00e+00	0	42	0	492830720	47	4282
2026-01-28 01:30:47.78	22.90	16.52	-37.6	-39.4	20.9	0.00e+00	0	42	0	498073600	47	4284
2026-01-28 01:30:48.78	22.94	16.63	-37.6	-39.4	20.9	0.00e+00	0	42	0	503316480	47	4269
2026-01-28 01:30:49.77	22.98	16.74	-37.7	-39.5	20.9	0.00e+00	0	42	0	509607936	47	4298
2026-01-28 01:30:50.76	23.03	16.85	-37.6	-39.4	21.0	0.00e+00	0	42	0	514850816	47	4259
2026-01-28 01:30:51.76	23.07	16.97	-37.6	-39.4	20.9	0.00e+00	0	42	0	520093696	47	4264
2026-01-28 01:30:52.75	23.11	17.08	-37.6	-39.4	21.0	0.00e+00	0	42	0	526385152	47	4261
2026-01-28 01:30:53.74	23.15	17.19	-37.5	-39.3	21.0	0.00e+00	0	42	0	531628032	47	4234
2026-01-28 01:30:54.74	23.20	17.31	-37.5	-39.3	21.1	0.00e+00	0	42	0	536870912	46	4444
2026-01-28 01:30:55.73	23.24	17.42	-37.4	-39.2	21.2	0.00e+00	0	42	0	543162368	46	4408
2026-01-28 01:30:56.72	23.29	17.53	-37.4	-39.2	21.2	0.00e+00	0	42	0	548405248	46	4407
2026-01-28 01:30:57.71	23.33	17.65	-37.4	-39.2	21.1	0.00e+00	0	42	0	553648128	46	4427
2026-01-28 01:30:58.71	23.37	17.77	-37.4	-39.2	21.1	0.00e+00	0	42	0	559939584	46	4422
2026-01-28 01:30:59.70	23.42	17.88	-37.3	-39.1	21.2	0.00e+00	0	42	0	565182464	46	4360
2026-01-28 01:31:00.69	23.46	18.00	-37.3	-39.0	21.3	0.00e+00	0	41	0	570425344	46	4327
2026-01-28 01:31:01.69	23.51	18.12	-37.2	-39.0	21.4	0.00e+00	0	42	0	576716800	46	4307
2026-01-28 01:31:02.68	23.56	18.24	-37.3	-39.0	21.3	0.00e+00	0	41	0	581959680	46	4335
2026-01-28 01:31:03.67	23.60	18.35	-37.2	-38.9	21.4	0.00e+00	0	42	0	587202560	46	4286
2026-01-28 01:31:04.66	23.65	18.47	-37.3	-39.0	21.3	0.00e+00	0	41	0	593494016	46	4337
2026-01-28 01:31:05.66	23.70	18.59	-37.2	-39.0	21.3	0.00e+00	0	42	0	598736896	46	4307
2026-01-28 01:31:06.65	23.74	18.71	-37.1	-38.9	21.5	0.00e+00	0	42	0	603979776	46	4253
2026-01-28 01:31:07.64	23.79	18.83	-37.2	-39.0	21.4	0.00e+00	0	42	0	610271232	46	4293
2026-01-28 01:31:08.64	23.84	18.96	-37.1	-38.9	21.4	0.00e+00	0	41	0	615514112	46	4245
2026-01-28 01:31:09.63	23.89	19.08	-37.1	-38.9	21.4	0.00e+00	0	41	0	620756992	46	4253
2026-01-28 01:31:10.62	23.94	19.20	-37.2	-38.9	21.4	0.00e+00	0	42	0	627048448	46	4291
2026-01-28 01:31:11.62	23.98	19.32	-37.0	-38.8	21.5	0.00e+00	0	41	0	632291328	45	4452
2026-01-28 01:31:12.61	24.03	19.45	-37.0	-38.7	21.6	0.00e+00	0	42	0	637534208	45	4416
2026-01-28 01:31:13.60	24.08	19.57	-36.9	-38.7	21.6	0.00e+00	0	42	0	643825664	45	4395
2026-01-28 01:31:14.59	24.13	19.70	-36.8	-38.6	21.7	0.00e+00	0	42	0	649068544	45	4347
2026-01-28 01:31:15.59	24.18	19.82	-36.9	-38.6	21.6	0.00e+00	0	42	0	654311424	45	4374
2026-01-28 01:31:16.58	24.23	19.95	-36.8	-38.5	21.8	0.00e+00	0	42	0	659554304	45	4313
2026-01-28 01:31:17.57	24.29	20.07	-36.8	-38.5	21.8	0.00e+00	0	42	0	665845760	45	4316
2026-01-28 01:31:18.57	24.34	20.20	-36.8	-38.6	21.7	0.00e+00	0	42	0	671088640	45	4343
2026-01-28 01:31:19.56	24.39	20.33	-36.8	-38.5	21.7	0.00e+00	0	42	0	677380096	45	4335
2026-01-28 01:31:20.55	24.44	20.46	-36.7	-38.4	21.9	0.00e+00	0	42	0	682622976	45	4263
2026-01-28 01:31:21.55	24.50	20.59	-36.7	-38.4	21.9	0.00e+00	0	42	0	687865856	45	4279
2026-01-28 01:31:22.54	24.55	20.72	-36.7	-38.4	21.8	0.00e+00	0	42	0	693108736	45	4273
2026-01-28 01:31:23.53	24.60	20.85	-36.6	-38.3	22.0	0.00e+00	0	42	0	699400192	45	4224
2026-01-28 01:31:24.52	24.66	20.98	-36.6	-38.3	22.0	0.00e+00	0	42	0	704643072	45	4217
2026-01-28 01:31:25.52	24.71	21.11	-36.5	-38.2	22.1	0.00e+00	0	42	0	709885952	45	4177
2026-01-28 01:31:26.51	24.77	21.25	-36.7	-38.4	21.9	0.00e+00	0	42	0	716177408	45	4255
2026-01-28 01:31:27.50	24.82	21.38	-36.5	-38.3	22.1	0.00e+00	0	42	0	721420288	45	4197
2026-01-28 01:31:28.50	24.88	21.51	-36.5	-38.2	22.1	0.00e+00	0	42	0	727711744	45	4166
2026-01-28 01:31:29.49	24.93	21.65	-36.5	-38.2	22.1	0.00e+00	0	42	0	732954624	44	4423
2026-01-28 01:31:30.48	24.99	21.78	-36.5	-38.2	22.1	0.00e+00	0	42	0	738197504	44	4432
2026-01-28 01:31:31.48	25.05	21.92	-36.5	-38.2	22.1	0.00e+00	0	42	0	743440384	44	4433
2026-01-28 01:31:32.47	25.10	22.06	-36.4	-38.2	22.1	0.00e+00	0	42	0	749731840	44	4395
2026-01-28 01:31:33.46	25.16	22.20	-36.5	-38.2	22.0	0.00e+00	0	42	0	754974720	44	4422
2026-01-28 01:31:34.46	25.22	22.33	-36.5	-38.3	22.0	0.00e+00	0	42	0	760217600	44	4462
2026-01-28 01:31:35.45	25.28	22.47	-36.5	-38.2	22.1	0.00e+00	0	42	0	766509056	44	4419
2026-01-28 01:31:36.44	25.34	22.61	-36.2	-38.0	22.3	0.00e+00	0	42	0	771751936	44	4299
2026-01-28 01:31:37.43	25.40	22.75	-36.3	-38.0	22.2	0.00e+00	0	42	0	776994816	44	4338
2026-01-28 01:31:38.43	25.46	22.90	-36.4	-38.1	22.2	0.00e+00	0	42	0	783286272	44	4350
2026-01-28 01:31:39.42	25.52	23.04	-36.5	-38.2	22.1	0.00e+00	0	42	0	788529152	44	4411
2026-01-28 01:31:40.41	25.58	23.18	-36.2	-37.9	22.3	0.00e+00	0	42	0	793772032	44	4267
2026-01-28 01:31:41.40	25.65	23.32	-36.1	-37.8	22.5	0.00e+00	0	42	0	800063488	44	4220
2026-01-28 01:31:42.40	25.71	23.47	-36.1	-37.8	22.4	0.00e+00	0	42	0	805306368	44	4219
2026-01-28 01:31:43.39	25.77	23.61	-36.1	-37.8	22.5	0.00e+00	0	42	0	810549248	44	4197
2026-01-28 01:31:44.38	25.84	23.76	-36.1	-37.8	22.5	0.00e+00	0	42	0	816840704	44	4200
2026-01-28 01:31:45.38	25.90	23.91	-36.0	-37.7	22.6	0.00e+00	0	42	0	822083584	44	4167
2026-01-28 01:31:46.37	25.96	24.05	-36.0	-37.7	22.6	0.00e+00	0	42	0	827326464	44	4159
2026-01-28 01:31:47.36	26.03	24.20	-36.1	-37.8	22.5	0.00e+00	0	42	0	833617920	44	4207
2026-01-28 01:31:48.36	26.10	24.35	-36.1	-37.8	22.5	0.00e+00	0	42	0	838860800	44	4205
2026-01-28 01:31:49.35	26.16	24.50	-36.0	-37.7	22.6	0.00e+00	0	42	0	844103680	44	4157
2026-01-28 01:31:50.34	26.23	24.65	-36.1	-37.8	22.4	0.00e+00	0	42	0	850395136	44	4228
2026-01-28 01:31:51.33	26.30	24.80	-36.0	-37.7	22.5	0.00e+00	0	42	0	855638016	44	4181
2026-01-28 01:31:52.33	26.37	24.96	-36.1	-37.7	22.5	0.00e+00	0	42	0	860880896	44	4181
2026-01-28 01:31:53.32	26.44	25.11	-36.0	-37.7	22.5	0.00e+00	0	41	0	867172352	44	4178
2026-01-28 01:31:54.31	26.51	25.26	-36.0	-37.7	22.5	0.00e+00	0	41	0	872415232	44	4165
2026-01-28 01:31:55.31	26.58	25.42	-35.8	-37.5	22.6	0.00e+00	0	42	0	877658112	43	4309
2026-01-28 01:31:56.30	26.65	25.58	-35.9	-37.6	22.5	0.00e+00	0	42	0	883949568	43	4362
2026-01-28 01:31:57.29	26.72	25.73	-35.9	-37.6	22.5	0.00e+00	0	42	0	889192448	43	4362
2026-01-28 01:31:58.28	26.79	25.89	-35.8	-37.5	22.6	0.00e+00	0	42	0	894435328	43	4303
2026-01-28 01:31:59.28	26.87	26.05	-35.7	-37.4	22.7	0.00e+00	0	42	0	900726784	43	4261
2026-01-28 01:32:00.27	26.94	26.21	-35.8	-37.4	22.7	0.00e+00	0	42	0	905969664	43	4286
2026-01-28 01:32:01.26	27.01	26.37	-35.7	-37.3	22.7	0.00e+00	0	42	0	911212544	43	4225
2026-01-28 01:32:02.26	27.09	26.53	-35.6	-37.3	22.8	0.00e+00	0	41	0	917504000	43	4195
2026-01-28 01:32:03.25	27.16	26.69	-35.7	-37.3	22.7	0.00e+00	0	42	0	922746880	43	4234
2026-01-28 01:32:04.24	27.24	26.86	-35.7	-37.4	22.7	0.00e+00	0	42	0	927989760	43	4245
2026-01-28 01:32:05.24	27.32	27.02	-35.7	-37.3	22.8	0.00e+00	0	42	0	933232640	43	4227
2026-01-28 01:32:06.23	27.40	27.19	-35.7	-37.3	22.7	0.00e+00	0	42	0	939524096	43	4240
2026-01-28 01:32:07.22	27.48	27.35	-35.7	-37.4	22.7	0.00e+00	0	42	0	944766976	43	4254
2026-01-28 01:32:08.21	27.56	27.52	-35.7	-37.3	22.7	0.00e+00	0	42	0	951058432	43	4232
2026-01-28 01:32:09.21	27.64	27.69	-35.6	-37.3	22.8	0.00e+00	0	42	0	956301312	43	4215
2026-01-28 01:32:10.20	27.72	27.86	-35.7	-37.3	22.7	0.00e+00	0	42	0	961544192	43	4241
2026-01-28 01:32:11.19	27.80	28.03	-35.5	-37.2	22.9	0.00e+00	0	42	0	967835648	43	4178
2026-01-28 01:32:12.18	27.88	28.20	-35.6	-37.2	22.8	0.00e+00	0	42	0	973078528	43	4189
2026-01-28 01:32:13.18	27.97	28.37	-35.4	-37.1	23.0	0.00e+00	0	42	0	978321408	42	4353
2026-01-28 01:32:14.17	28.05	28.54	-35.5	-37.2	22.9	0.00e+00	0	42	0	983564288	42	4420
2026-01-28 01:32:15.16	28.14	28.72	-35.5	-37.1	22.9	0.00e+00	0	42	0	989855744	42	4379
2026-01-28 01:32:16.16	28.22	28.89	-35.5	-37.1	23.0	0.00e+00	0	42	0	995098624	42	4374
2026-01-28 01:32:17.15	28.31	29.07	-35.5	-37.2	22.9	0.00e+00	0	42	0	1001390080	42	4402
2026-01-28 01:32:18.14	28.40	29.24	-35.6	-37.3	22.8	0.00e+00	0	42	0	1006632960	42	4479
2026-01-28 01:32:19.13	28.49	29.42	-35.6	-37.3	22.8	0.00e+00	0	42	0	1011875840	42	4453
2026-01-28 01:32:20.13	28.58	29.60	-35.7	-37.4	22.7	0.00e+00	0	42	0	1017118720	42	4505
2026-01-28 01:32:21.12	28.67	29.78	-35.8	-37.5	22.6	0.00e+00	0	42	0	1023410176	42	4550
2026-01-28 01:32:22.11	28.76	29.96	-35.9	-37.5	22.6	0.00e+00	0	42	0	1028653056	42	4596
2026-01-28 01:32:23.11	28.86	30.15	-35.8	-37.5	22.6	0.00e+00	0	42	0	1033895936	42	4582
2026-01-28 01:32:24.10	28.95	30.33	-35.8	-37.5	22.6	0.00e+00	0	42	0	1040187392	42	4575
2026-01-28 01:32:25.09	29.05	30.52	-35.8	-37.5	22.6	0.00e+00	0	42	0	1045430272	42	4559
2026-01-28 01:32:26.08	29.14	30.70	-35.6	-37.3	22.8	0.00e+00	0	42	0	1050673152	42	4460
2026-01-28 01:32:27.08	29.24	30.89	-35.4	-37.1	23.0	0.00e+00	0	42	0	1056964608	42	4341
2026-01-28 01:32:28.07	29.34	31.08	-35.4	-37.0	23.1	0.00e+00	0	42	0	1062207488	42	4323
2026-01-28 01:32:29.06	29.44	31.27	-35.3	-37.0	23.1	0.00e+00	0	42	0	1067450368	42	4294
2026-01-28 01:32:30.06	29.54	31.46	-35.2	-36.8	23.2	0.00e+00	0	42	0	1073741824	42	4241
2026-01-28 01:32:31.05	29.64	31.65	-35.3	-37.0	23.1	0.00e+00	0	42	0	1078984704	42	4312
2026-01-28 01:32:32.04	29.74	31.84	-35.4	-37.0	23.0	0.00e+00	0	42	0	1084227584	42	4325
2026-01-28 01:32:33.04	29.85	32.04	-35.5	-37.1	23.0	0.00e+00	0	42	0	1090519040	42	4383
2026-01-28 01:32:34.03	29.95	32.23	-35.5	-37.1	23.0	0.00e+00	0	42	0	1095761920	42	4387
2026-01-28 01:32:35.02	30.06	32.43	-35.5	-37.2	22.9	0.00e+00	0	42	0	1101004800	42	4392
2026-01-28 01:32:36.01	30.17	32.62	-35.3	-37.0	23.1	0.00e+00	0	42	0	1107296256	42	4300
2026-01-28 01:32:37.01	30.28	32.82	-35.4	-37.0	23.1	0.00e+00	0	42	0	1112539136	42	4317
2026-01-28 01:32:38.00	30.39	33.02	-35.2	-36.9	23.2	0.00e+00	0	42	0	1117782016	42	4256
2026-01-28 01:32:38.99	30.50	33.22	-35.3	-37.0	23.1	0.00e+00	0	42	0	1124073472	42	4296
2026-01-28 01:32:39.98	30.61	33.43	-35.3	-36.9	23.2	0.00e+00	0	42	0	1129316352	42	4261
2026-01-28 01:32:40.98	30.73	33.63	-35.2	-36.9	23.2	0.00e+00	0	42	0	1134559232	42	4249
2026-01-28 01:32:41.97	30.84	33.83	-35.2	-36.9	23.2	0.00e+00	0	42	0	1140850688	42	4246
2026-01-28 01:32:42.96	30.96	34.04	-35.1	-36.8	23.3	0.00e+00	0	42	0	1146093568	42	4194
2026-01-28 01:32:43.96	31.08	34.25	-35.2	-36.8	23.2	0.00e+00	0	42	0	1151336448	42	4220
2026-01-28 01:32:44.95	31.20	34.46	-35.1	-36.7	23.3	0.00e+00	0	42	0	1157627904	42	4161
2026-01-28 01:32:45.94	31.32	34.67	-35.1	-36.7	23.3	0.00e+00	0	42	0	1162870784	42	4171
2026-01-28 01:32:46.94	31.45	34.88	-35.2	-36.9	23.2	0.00e+00	0	42	0	1168113664	42	4258
2026-01-28 01:32:47.93	31.57	35.09	-35.2	-36.9	23.2	0.00e+00	0	42	0	1173356544	42	4249
2026-01-28 01:32:48.92	31.70	35.30	-35.2	-36.9	23.2	0.00e+00	0	42	0	1179648000	42	4262
2026-01-28 01:32:49.91	31.82	35.52	-35.3	-36.9	23.1	0.00e+00	0	42	0	1184890880	42	4290
2026-01-28 01:32:50.91	31.96	35.74	-35.3	-36.9	23.1	0.00e+00	0	42	0	1191182336	42	4267
2026-01-28 01:32:51.90	32.09	35.95	-35.3	-37.0	23.1	0.00e+00	0	42	0	1196425216	42	4301
2026-01-28 01:32:52.89	32.22	36.17	-35.2	-36.8	23.2	0.00e+00	0	42	0	1201668096	42	4232
2026-01-28 01:32:53.88	32.35	36.39	-35.0	-36.6	23.5	0.00e+00	0	42	0	1206910976	42	4113
2026-01-28 01:32:54.88	32.49	36.62	-34.8	-36.5	23.5	0.00e+00	0	42	0	1213202432	41	4307
2026-01-28 01:32:55.87	32.63	36.84	-34.9	-36.5	23.5	0.00e+00	0	42	0	1218445312	41	4307
2026-01-28 01:32:56.86	32.77	37.06	-34.9	-36.5	23.5	0.00e+00	0	42	0	1223688192	41	4310
2026-01-28 01:32:57.85	32.91	37.29	-34.8	-36.5	23.5	0.00e+00	0	42	0	1229979648	41	4304
2026-01-28 01:32:58.85	33.06	37.52	-34.8	-36.5	23.5	0.00e+00	0	42	0	1235222528	41	4303
2026-01-28 01:32:59.84	33.20	37.74	-34.9	-36.5	23.5	0.00e+00	0	42	0	1240465408	41	4321
2026-01-28 01:33:00.83	33.35	37.97	-34.7	-36.3	23.6	0.00e+00	0	42	0	1246756864	41	4237
2026-01-28 01:33:01.83	33.50	38.21	-34.7	-36.3	23.7	0.00e+00	0	42	0	1251999744	41	4233
2026-01-28 01:33:02.82	33.65	38.44	-34.8	-36.4	23.6	0.00e+00	0	42	0	1257242624	41	4276
2026-01-28 01:33:03.81	33.81	38.67	-34.9	-36.5	23.5	0.00e+00	0	42	0	1263534080	41	4307
2026-01-28 01:33:04.80	33.96	38.91	-35.0	-36.7	22.7	0.00e+00	0	42	0	1268776960	41	4427
2026-01-28 01:33:05.80	34.12	39.15	-35.2	-37.0	22.5	0.00e+00	0	42	0	1275068416	41	4551
2026-01-28 01:33:06.79	34.28	39.38	-35.3	-37.1	22.4	0.00e+00	0	42	0	1280311296	41	4600
2026-01-28 01:33:07.78	34.45	39.62	-35.2	-36.9	22.6	0.00e+00	0	42	0	1285554176	41	4520
2026-01-28 01:33:08.78	34.62	39.87	-35.1	-36.8	22.7	0.00e+00	0	42	0	1290797056	41	4481
2026-01-28 01:33:09.77	34.78	40.11	-34.9	-36.6	22.8	0.00e+00	0	42	0	1297088512	41	4390
2026-01-28 01:33:10.76	34.95	40.35	-35.1	-36.8	22.7	0.00e+00	0	42	0	1302331392	41	4482
2026-01-28 01:33:11.75	35.13	40.60	-35.1	-36.9	22.7	0.00e+00	0	42	0	1307574272	41	4503
2026-01-28 01:33:12.75	35.30	40.85	-35.0	-36.7	22.7	0.00e+00	0	42	0	1313865728	41	4435
2026-01-28 01:33:13.74	35.48	41.09	-35.1	-36.8	22.7	0.00e+00	0	42	0	1319108608	41	4468
2026-01-28 01:33:14.73	35.66	41.34	-35.2	-36.9	22.6	0.00e+00	0	42	0	1324351488	41	4542
2026-01-28 01:33:15.73	35.85	41.59	-35.3	-37.0	22.6	0.00e+00	0	42	0	1330642944	41	4570
2026-01-28 01:33:16.72	36.03	41.85	-35.2	-37.0	22.6	0.00e+00	0	42	0	1335885824	41	4556
2026-01-28 01:33:17.71	36.22	42.10	-35.4	-37.2	22.4	0.00e+00	0	42	0	1341128704	41	4668
2026-01-28 01:33:18.71	36.42	42.36	-35.4	-37.1	22.5	0.00e+00	0	42	0	1347420160	41	4624
2026-01-28 01:33:19.70	36.61	42.61	-35.3	-37.0	22.5	0.00e+00	0	42	0	1352663040	41	4589
2026-01-28 01:33:20.69	36.81	42.87	-35.2	-36.9	22.6	0.00e+00	0	42	0	1357905920	41	4540
2026-01-28 01:33:21.69	37.02	43.13	-35.1	-36.8	22.7	0.00e+00	0	42	0	1364197376	41	4488
2026-01-28 01:33:22.68	37.22	43.39	-35.1	-36.8	22.7	0.00e+00	0	42	0	1369440256	41	4472
2026-01-28 01:33:23.67	37.43	43.65	-35.2	-37.0	22.6	0.00e+00	0	42	0	1374683136	41	4553
2026-01-28 01:33:24.66	37.64	43.92	-35.3	-37.0	22.6	0.00e+00	0	42	0	1380974592	41	4564
2026-01-28 01:33:25.66	37.86	44.19	-35.5	-37.3	22.3	0.00e+00	0	42	0	1386217472	41	4725
2026-01-28 01:33:26.65	38.08	44.45	-35.8	-37.6	22.1	0.00e+00	0	42	0	1391460352	42	4601
2026-01-28 01:33:27.64	38.30	44.72	-36.0	-37.8	21.8	0.00e+00	0	42	0	1397751808	42	4752
2026-01-28 01:33:28.64	38.53	44.99	-36.0	-37.9	21.8	0.00e+00	0	42	0	1402994688	42	4760
2026-01-28 01:33:29.63	38.76	45.26	-35.8	-37.5	22.1	0.00e+00	0	42	0	1408237568	42	4596
2026-01-28 01:33:30.62	38.99	45.53	-35.7	-37.4	22.2	0.00e+00	0	42	0	1414529024	42	4537
2026-01-28 01:33:31.61	39.23	45.80	-35.4	-37.1	22.5	0.00e+00	0	42	0	1419771904	42	4377
2026-01-28 01:33:32.61	39.47	46.08	-35.3	-37.1	22.6	0.00e+00	0	42	0	1425014784	42	4342
2026-01-28 01:33:33.60	39.72	46.36	-35.5	-37.2	22.5	0.00e+00	0	42	0	1431306240	42	4428
2026-01-28 01:33:34.59	39.97	46.63	-35.4	-37.1	22.6	0.00e+00	0	42	0	1436549120	42	4373
2026-01-28 01:33:35.59	40.23	46.91	-35.4	-37.1	22.6	0.00e+00	0	42	0	1441792000	42	4371
2026-01-28 01:33:36.58	40.48	47.19	-35.5	-37.2	22.5	0.00e+00	0	42	0	1447034880	42	4411
2026-01-28 01:33:37.57	40.75	47.47	-35.5	-37.2	22.5	0.00e+00	0	42	0	1453326336	42	4432
2026-01-28 01:33:38.57	41.02	47.76	-35.5	-37.3	22.5	0.00e+00	0	42	0	1458569216	42	4460
2026-01-28 01:33:39.56	41.29	48.04	-35.5	-37.2	22.5	0.00e+00	0	42	0	1464860672	42	4426
2026-01-28 01:33:40.55	41.57	48.33	-35.5	-37.2	22.6	0.00e+00	0	42	0	1470103552	42	4419
2026-01-28 01:33:41.54	41.86	48.61	-35.6	-37.3	22.5	0.00e+00	0	42	0	1475346432	42	4452
2026-01-28 01:33:42.53	42.14	48.90	-35.8	-37.5	22.3	0.00e+00	0	42	0	1480589312	42	4585
2026-01-28 01:33:43.53	42.44	49.19	-35.8	-37.5	22.2	0.00e+00	0	42	0	1486880768	42	4596
2026-01-28 01:33:44.52	42.74	49.48	-35.8	-37.5	22.2	0.00e+00	0	42	0	1492123648	42	4587
2026-01-28 01:33:45.51	43.05	49.77	-35.7	-37.4	22.3	0.00e+00	0	42	0	1497366528	42	4534
2026-01-28 01:33:46.51	43.36	50.06	-35.6	-37.3	22.4	0.00e+00	0	42	0	1503657984	42	4492
2026-01-28 01:33:47.50	43.68	50.35	-36.0	-37.7	22.1	0.00e+00	0	42	0	1508900864	42	4701
2026-01-28 01:33:48.49	44.00	50.64	-36.3	-38.0	21.8	0.00e+00	0	42	0	1515192320	43	4584
2026-01-28 01:33:49.49	44.33	50.94	-36.2	-38.0	21.8	0.00e+00	0	42	0	1520435200	43	4562
2026-01-28 01:33:50.48	44.67	51.23	-35.9	-37.6	22.1	0.00e+00	0	42	0	1525678080	43	4369
2026-01-28 01:33:51.47	45.01	51.53	-35.8	-37.6	22.2	0.00e+00	0	42	0	1530920960	43	4344
2026-01-28 01:33:52.47	45.37	51.83	-36.0	-37.7	22.1	0.00e+00	0	42	0	1537212416	43	4409
2026-01-28 01:33:53.46	45.72	52.12	-36.1	-37.8	22.1	0.00e+00	0	42	0	1542455296	43	4469
2026-01-28 01:33:54.45	46.09	52.42	-36.1	-37.8	22.1	0.00e+00	0	42	0	1547698176	43	4467
2026-01-28 01:33:55.44	46.46	52.72	-36.2	-37.9	22.0	0.00e+00	0	42	0	1553989632	43	4521
2026-01-28 01:33:56.44	46.84	53.02	-36.3	-38.1	21.8	0.00e+00	0	42	0	1559232512	43	4616
2026-01-28 01:33:57.43	47.23	53.32	-36.4	-38.1	21.8	0.00e+00	0	42	0	1564475392	43	4633
2026-01-28 01:33:58.42	47.62	53.62	-36.4	-38.1	21.8	0.00e+00	0	42	0	1570766848	43	4644
2026-01-28 01:33:59.42	48.03	53.92	-36.6	-38.4	21.5	0.00e+00	0	42	0	1576009728	43	4784
2026-01-28 01:34:00.41	48.44	54.22	-36.5	-38.3	21.6	0.00e+00	0	42	0	1581252608	43	4729
2026-01-28 01:34:01.40	48.86	54.52	-36.4	-38.1	21.7	0.00e+00	0	42	0	1587544064	43	4650
2026-01-28 01:34:02.40	49.29	54.83	-36.2	-37.9	21.9	0.00e+00	0	42	0	1592786944	43	4523
2026-01-28 01:34:03.39	49.73	55.13	-36.3	-38.1	21.8	0.00e+00	0	42	0	1598029824	43	4610
2026-01-28 01:34:04.38	50.17	55.43	-36.9	-38.7	21.3	0.00e+00	0	42	0	1604321280	44	4694
2026-01-28 01:34:05.37	50.63	55.73	-37.0	-38.8	21.2	0.00e+00	0	42	0	1609564160	44	4721
2026-01-28 01:34:06.37	51.10	56.04	-36.6	-38.4	21.6	0.00e+00	0	42	0	1614807040	44	4536
2026-01-28 01:34:07.36	51.58	56.34	-36.5	-38.3	21.8	0.00e+00	0	42	0	1621098496	44	4459
2026-01-28 01:34:08.36	52.07	56.64	-36.5	-38.3	21.8	0.00e+00	0	42	0	1626341376	44	4453
2026-01-28 01:34:09.35	52.57	56.94	-36.3	-38.0	21.9	0.00e+00	0	42	0	1631584256	44	4327
2026-01-28 01:34:10.34	53.08	57.24	-36.3	-38.0	21.9	0.00e+00	0	42	0	1637875712	44	4328
2026-01-28 01:34:11.33	53.60	57.54	-36.3	-38.1	21.8	0.00e+00	0	42	0	1643118592	44	4376
2026-01-28 01:34:12.33	54.13	57.84	-36.4	-38.2	21.8	0.00e+00	0	42	0	1648361472	44	4400
2026-01-28 01:34:13.32	54.68	58.14	-36.4	-38.1	21.9	0.00e+00	0	42	0	1654652928	44	4376
2026-01-28 01:34:14.31	55.23	58.43	-36.2	-37.9	22.0	0.00e+00	0	42	0	1659895808	44	4277
2026-01-28 01:34:15.30	55.80	58.73	-36.0	-37.8	22.2	0.00e+00	0	42	0	1665138688	44	4213
2026-01-28 01:34:16.29	56.38	59.02	-36.0	-37.7	22.3	0.00e+00	0	42	0	1671430144	44	4183
2026-01-28 01:34:17.29	56.98	59.32	-35.7	-37.4	22.4	0.00e+00	0	42	0	1676673024	43	4285
2026-01-28 01:34:18.28	57.59	59.61	-35.7	-37.3	22.4	0.00e+00	0	42	0	1681915904	43	4242
2026-01-28 01:34:19.27	58.21	59.90	-35.6	-37.3	22.5	0.00e+00	0	42	0	1688207360	43	4195
2026-01-28 01:34:20.27	58.85	60.19	-35.4	-37.1	22.6	0.00e+00	0	42	0	1693450240	42	4384
2026-01-28 01:34:21.26	59.50	60.48	-35.0	-36.7	23.0	0.00e+00	0	42	0	1698693120	42	4156
2026-01-28 01:34:22.25	60.16	60.76	-35.3	-37.0	22.8	0.00e+00	0	42	0	1704984576	42	4294
2026-01-28 01:34:23.24	60.84	61.05	-35.4	-37.1	22.6	0.00e+00	0	42	0	1710227456	42	4363
2026-01-28 01:34:24.24	61.54	61.33	-35.3	-37.0	22.7	0.00e+00	0	42	0	1715470336	42	4322
2026-01-28 01:34:25.23	62.25	61.61	-35.2	-36.9	22.8	0.00e+00	0	42	0	1720713216	42	4247
2026-01-28 01:34:26.22	62.98	61.88	-35.0	-36.7	22.9	0.00e+00	0	42	0	1727004672	42	4162
2026-01-28 01:34:27.22	63.73	62.16	-34.8	-36.5	23.0	0.00e+00	0	42	0	1732247552	41	4328
2026-01-28 01:34:28.21	64.49	62.43	-34.9	-36.6	22.9	0.00e+00	0	42	0	1738539008	41	4385
2026-01-28 01:34:29.20	65.26	62.69	-35.2	-36.9	22.6	0.00e+00	0	42	0	1743781888	41	4534
2026-01-28 01:34:30.19	66.06	62.95	-35.1	-36.8	22.8	0.00e+00	0	42	0	1749024768	41	4481
2026-01-28 01:34:31.19	66.88	63.22	-34.8	-36.5	23.0	0.00e+00	0	42	0	1754267648	41	4327
2026-01-28 01:34:32.18	67.70	63.47	-34.7	-36.4	23.1	0.00e+00	0	42	0	1760559104	41	4259
2026-01-28 01:34:33.17	68.55	63.72	-35.0	-36.7	22.9	0.00e+00	0	42	0	1765801984	41	4439
2026-01-28 01:34:34.17	69.42	63.97	-35.0	-36.7	22.8	0.00e+00	0	42	0	1771044864	41	4423
2026-01-28 01:34:35.16	70.31	64.21	-34.9	-36.6	23.0	0.00e+00	0	42	0	1777336320	41	4361
2026-01-28 01:34:36.15	71.21	64.45	-34.7	-36.4	23.1	0.00e+00	0	42	0	1782579200	41	4267
2026-01-28 01:34:37.15	72.14	64.68	-34.6	-36.3	23.2	0.00e+00	0	42	0	1788870656	41	4229
2026-01-28 01:34:38.14	73.08	64.91	-34.8	-36.5	23.1	0.00e+00	0	42	0	1794113536	41	4304
2026-01-28 01:34:39.13	74.03	65.13	-34.8	-36.5	23.1	0.00e+00	0	42	0	1799356416	41	4303
2026-01-28 01:34:40.12	75.01	65.35	-34.8	-36.5	23.1	0.00e+00	0	42	0	1804599296	41	4297
2026-01-28 01:34:41.12	76.02	65.56	-34.9	-36.6	22.9	0.00e+00	0	42	0	1810890752	41	4378
2026-01-28 01:34:42.11	77.03	65.76	-34.9	-36.6	22.9	0.00e+00	0	42	0	1816133632	41	4367
2026-01-28 01:34:43.10	78.06	65.96	-34.8	-36.5	23.1	0.00e+00	0	42	0	1821376512	41	4292
2026-01-28 01:34:44.09	79.12	66.15	-34.9	-36.5	23.0	0.00e+00	0	42	0	1827667968	41	4339
2026-01-28 01:34:45.09	80.20	66.34	-35.1	-36.8	22.7	0.00e+00	0	42	0	1832910848	41	4475
2026-01-28 01:34:46.08	81.28	66.51	-34.6	-36.2	23.2	0.00e+00	0	42	0	1838153728	41	4190
2026-01-28 01:34:47.07	82.39	66.68	-34.4	-36.1	23.3	0.00e+00	0	42	0	1844445184	40	4370
2026-01-28 01:34:48.07	83.52	66.84	-34.7	-36.5	23.0	0.00e+00	0	42	0	1849688064	40	4553
2026-01-28 01:34:49.06	84.66	67.00	-34.4	-36.1	23.3	0.00e+00	0	42	0	1854930944	40	4371
2026-01-28 01:34:50.05	85.82	67.14	-34.4	-36.1	23.3	0.00e+00	0	42	0	1861222400	40	4363
2026-01-28 01:34:51.05	87.00	67.28	-34.4	-36.1	23.3	0.00e+00	0	42	0	1866465280	40	4380
2026-01-28 01:34:52.04	88.19	67.41	-34.6	-36.3	23.2	0.00e+00	0	42	0	1871708160	40	4468
2026-01-28 01:34:53.03	89.39	67.53	-34.5	-36.2	23.4	0.00e+00	0	42	0	1877999616	40	4400
2026-01-28 01:34:54.02	90.61	67.64	-34.5	-36.2	23.4	0.00e+00	0	42	0	1883242496	40	4428
2026-01-28 01:34:55.02	91.85	67.74	-34.5	-36.2	23.3	0.00e+00	0	42	0	1888485376	40	4425
2026-01-28 01:34:56.01	93.09	67.83	-34.8	-36.5	23.1	0.00e+00	0	42	0	1894776832	40	4554
2026-01-28 01:34:57.00	94.34	67.91	-34.6	-36.3	23.2	0.00e+00	0	42	0	1900019712	40	4490
2026-01-28 01:34:57.99	95.59	67.99	-34.4	-36.1	23.4	0.00e+00	0	42	0	1905262592	40	4371
2026-01-28 01:34:58.99	96.88	68.05	-34.2	-35.9	23.5	0.00e+00	0	42	0	1910505472	40	4281
2026-01-28 01:34:59.98	98.15	68.10	-34.1	-35.8	23.6	0.00e+00	0	42	0	1916796928	40	4199
2026-01-28 01:35:00.97	99.43	68.15	-34.1	-35.8	23.6	0.00e+00	0	42	0	1922039808	40	4219
2026-01-28 01:35:01.97	100.73	68.18	-34.2	-35.8	23.5	0.00e+00	0	42	0	1928331264	40	4238
2026-01-28 01:35:02.96	102.02	68.20	-34.2	-35.8	23.5	0.00e+00	0	42	0	1933574144	40	4239
2026-01-28 01:35:03.95	103.31	68.22	-34.6	-36.3	23.2	0.00e+00	0	42	0	1938817024	40	4483
2026-01-28 01:35:04.94	104.61	68.22	-34.7	-36.5	23.1	0.00e+00	0	42	0	1945108480	40	4549
2026-01-28 01:35:05.94	105.91	68.21	-34.7	-36.4	23.2	0.00e+00	0	42	0	1950351360	40	4495
2026-01-28 01:35:06.93	107.20	68.20	-34.6	-36.3	23.3	0.00e+00	0	42	0	1955594240	40	4452
2026-01-28 01:35:07.92	108.49	68.17	-34.5	-36.2	23.3	0.00e+00	0	42	0	1961885696	40	4423
2026-01-28 01:35:08.92	109.79	68.13	-34.5	-36.2	23.3	0.00e+00	0	42	0	1967128576	40	4421
2026-01-28 01:35:09.91	111.07	68.08	-34.6	-36.3	23.2	0.00e+00	0	42	0	1972371456	40	4483
2026-01-28 01:35:10.90	112.34	68.02	-34.7	-36.4	23.1	0.00e+00	0	42	0	1978662912	40	4519
2026-01-28 01:35:11.90	113.62	67.95	-34.6	-36.3	23.2	0.00e+00	0	42	0	1983905792	40	4475
2026-01-28 01:35:12.89	114.87	67.88	-34.6	-36.3	23.2	0.00e+00	0	42	0	1989148672	40	4484
2026-01-28 01:35:13.88	116.12	67.79	-34.7	-36.5	23.1	0.00e+00	0	42	0	1994391552	40	4558
2026-01-28 01:35:14.87	117.35	67.69	-34.6	-36.3	23.2	0.00e+00	0	42	0	2000683008	40	4450
2026-01-28 01:35:15.87	118.59	67.59	-34.6	-36.2	23.2	0.00e+00	0	42	0	2005925888	40	4441
2026-01-28 01:35:16.86	119.80	67.47	-34.8	-36.5	23.0	0.00e+00	0	42	0	2012217344	40	4569
2026-01-28 01:35:17.85	120.99	67.35	-34.8	-36.6	22.9	0.00e+00	0	42	0	2017460224	40	4600
2026-01-28 01:35:18.84	122.17	67.22	-34.8	-36.5	23.0	0.00e+00	0	42	0	2022703104	40	4562
2026-01-28 01:35:19.84	123.35	67.07	-34.4	-36.1	23.3	0.00e+00	0	42	0	2027945984	40	4386
2026-01-28 01:35:20.83	124.50	66.92	-34.6	-36.3	23.2	0.00e+00	0	42	0	2034237440	40	4462
2026-01-28 01:35:21.82	125.63	66.77	-34.6	-36.4	23.1	0.00e+00	0	42	0	2039480320	40	4494
2026-01-28 01:35:22.82	126.76	66.60	-34.6	-36.3	23.2	0.00e+00	0	42	0	2044723200	40	4484
2026-01-28 01:35:23.81	127.86	66.43	-34.9	-36.6	23.0	0.00e+00	0	42	0	2051014656	40	4615
2026-01-28 01:35:24.80	128.94	66.25	-34.7	-36.4	23.1	0.00e+00	0	42	0	2056257536	40	4537
2026-01-28 01:35:25.79	130.00	66.06	-34.8	-36.5	23.1	0.00e+00	0	42	0	2062548992	40	4558
2026-01-28 01:35:26.79	131.06	65.87	-35.1	-36.8	22.8	0.00e+00	0	43	0	2067791872	41	4491
2026-01-28 01:35:27.78	132.08	65.67	-35.2	-36.9	22.7	0.00e+00	0	42	0	2073034752	41	4506
2026-01-28 01:35:28.77	133.09	65.46	-35.0	-36.7	22.8	0.00e+00	0	42	0	2078277632	41	4415
2026-01-28 01:35:29.76	134.08	65.25	-34.8	-36.6	22.9	0.00e+00	0	43	0	2084569088	41	4341
2026-01-28 01:35:30.76	135.06	65.02	-35.0	-36.7	22.8	0.00e+00	0	42	0	2089811968	41	4424
2026-01-28 01:35:31.75	136.01	64.80	-34.9	-36.6	23.0	0.00e+00	0	42	0	2095054848	41	4353
2026-01-28 01:35:32.74	136.94	64.57	-34.7	-36.4	23.1	0.00e+00	0	42	0	2101346304	41	4249
2026-01-28 01:35:33.74	137.86	64.33	-34.6	-36.3	23.1	0.00e+00	0	42	0	2106589184	41	4236
2026-01-28 01:35:34.73	138.75	64.09	-34.7	-36.4	23.1	0.00e+00	0	42	0	2111832064	41	4289
2026-01-28 01:35:35.72	139.63	63.85	-34.7	-36.4	23.1	0.00e+00	0	42	0	2118123520	41	4281
2026-01-28 01:35:36.72	140.49	63.60	-34.7	-36.4	23.2	0.00e+00	0	42	0	2123366400	41	4261
2026-01-28 01:35:37.71	141.33	63.34	-34.9	-36.6	23.0	0.00e+00	0	42	0	2128609280	41	4352
2026-01-28 01:35:38.70	142.15	63.09	-35.0	-36.7	22.9	0.00e+00	0	42	0	2134900736	41	4415
2026-01-28 01:35:39.70	142.97	62.82	-34.9	-36.6	23.0	0.00e+00	0	42	0	2140143616	41	4368
2026-01-28 01:35:40.69	143.75	62.56	-35.0	-36.7	23.0	0.00e+00	0	42	0	2145386496	41	4392
2026-01-28 01:35:41.68	144.52	62.29	-35.2	-36.9	22.8	0.00e+00	0	42	0	2151677952	41	4520
2026-01-28 01:35:42.68	145.28	62.02	-35.4	-37.1	22.6	0.00e+00	0	42	0	2156920832	41	4635
2026-01-28 01:35:43.67	146.02	61.74	-35.3	-37.0	22.7	0.00e+00	0	42	0	2162163712	41	4595
2026-01-28 01:35:44.66	146.73	61.47	-35.3	-37.0	22.7	0.00e+00	0	42	0	2168455168	41	4565
2026-01-28 01:35:45.65	147.44	61.19	-35.1	-36.8	22.8	0.00e+00	0	42	0	2173698048	41	4491
2026-01-28 01:35:46.65	148.13	60.90	-35.0	-36.7	22.9	0.00e+00	0	42	0	2178940928	41	4436
2026-01-28 01:35:47.64	148.81	60.62	-35.1	-36.8	22.9	0.00e+00	0	42	0	2185232384	41	4451
2026-01-28 01:35:48.63	149.46	60.33	-35.2	-37.0	22.7	0.00e+00	0	42	0	2190475264	41	4556
2026-01-28 01:35:49.63	150.11	60.04	-35.4	-37.1	22.6	0.00e+00	0	42	0	2195718144	41	4632
2026-01-28 01:35:50.62	150.74	59.75	-35.3	-37.0	22.7	0.00e+00	0	42	0	2202009600	41	4568
2026-01-28 01:35:51.61	151.36	59.46	-35.4	-37.1	22.6	0.00e+00	0	42	0	2207252480	41	4612
2026-01-28 01:35:52.61	151.96	59.16	-35.6	-37.4	22.4	0.00e+00	0	42	0	2212495360	41	4773
2026-01-28 01:35:53.60	152.55	58.87	-35.7	-37.5	22.3	0.00e+00	0	42	0	2218786816	42	4559
2026-01-28 01:35:54.59	153.13	58.57	-35.9	-37.6	22.2	0.00e+00	0	42	0	2224029696	42	4635
2026-01-28 01:35:55.58	153.69	58.27	-35.7	-37.4	22.4	0.00e+00	0	42	0	2229272576	42	4528
2026-01-28 01:35:56.58	154.25	57.97	-35.9	-37.6	22.2	0.00e+00	0	42	0	2234515456	42	4625
2026-01-28 01:35:57.57	154.78	57.67	-36.1	-37.9	22.0	0.00e+00	0	42	0	2240806912	42	4793
2026-01-28 01:35:58.56	155.31	57.37	-36.3	-38.1	21.8	0.00e+00	0	42	0	2246049792	43	4630
2026-01-28 01:35:59.56	155.83	57.07	-36.3	-38.1	21.8	0.00e+00	0	42	0	2252341248	43	4605
2026-01-28 01:36:00.55	156.33	56.77	-36.2	-37.9	21.9	0.00e+00	0	42	0	2257584128	43	4520
2026-01-28 01:36:01.54	156.83	56.47	-36.1	-37.8	22.0	0.00e+00	0	42	0	2262827008	43	4456
2026-01-28 01:36:02.54	157.31	56.16	-36.1	-37.8	22.0	0.00e+00	0	42	0	2268069888	43	4479
2026-01-28 01:36:03.53	157.79	55.86	-36.1	-37.8	21.9	0.00e+00	0	43	0	2274361344	43	4479
2026-01-28 01:36:04.52	158.25	55.56	-36.1	-37.8	22.0	0.00e+00	0	42	0	2279604224	43	4482
2026-01-28 01:36:05.51	158.70	55.26	-36.1	-37.8	22.0	0.00e+00	0	42	0	2284847104	43	4479
2026-01-28 01:36:06.51	159.15	54.95	-36.2	-37.9	21.9	0.00e+00	0	42	0	2291138560	43	4539
2026-01-28 01:36:07.50	159.58	54.65	-36.2	-37.9	21.9	0.00e+00	0	42	0	2296381440	43	4530
2026-01-28 01:36:08.49	160.01	54.35	-36.1	-37.9	22.0	0.00e+00	0	42	0	2302672896	43	4497
2026-01-28 01:36:09.48	160.42	54.05	-36.2	-37.9	21.9	0.00e+00	0	42	0	2307915776	43	4539
2026-01-28 01:36:10.48	160.83	53.74	-36.3	-38.0	21.8	0.00e+00	0	42	0	2313158656	43	4595
2026-01-28 01:36:11.47	161.23	53.44	-36.4	-38.1	21.7	0.00e+00	0	42	0	2318401536	43	4644
2026-01-28 01:36:12.46	161.62	53.14	-36.4	-38.2	21.6	0.00e+00	0	42	0	2324692992	43	4691
2026-01-28 01:36:13.46	162.01	52.84	-36.4	-38.2	21.6	0.00e+00	0	42	0	2329935872	43	4665
2026-01-28 01:36:14.45	162.39	52.54	-36.2	-37.9	21.8	0.00e+00	0	42	0	2336227328	43	4545
2026-01-28 01:36:15.44	162.75	52.24	-36.0	-37.7	22.1	0.00e+00	0	42	0	2341470208	43	4410
2026-01-28 01:36:16.44	163.12	51.94	-35.9	-37.6	22.1	0.00e+00	0	42	0	2346713088	43	4372
2026-01-28 01:36:17.43	163.47	51.64	-35.8	-37.5	22.2	0.00e+00	0	42	0	2351955968	43	4332
2026-01-28 01:36:18.42	163.82	51.34	-35.7	-37.4	22.3	0.00e+00	0	42	0	2358247424	43	4256
2026-01-28 01:36:19.41	164.16	51.05	-35.6	-37.3	22.4	0.00e+00	0	42	0	2363490304	43	4216
2026-01-28 01:36:20.40	164.49	50.75	-35.7	-37.4	22.3	0.00e+00	0	42	0	2368733184	43	4273
2026-01-28 01:36:21.40	164.82	50.45	-35.7	-37.4	22.3	0.00e+00	0	42	0	2375024640	43	4268
2026-01-28 01:36:22.39	165.14	50.16	-35.7	-37.4	22.4	0.00e+00	0	42	0	2380267520	43	4276
2026-01-28 01:36:23.38	165.46	49.87	-35.7	-37.5	22.3	0.00e+00	0	42	0	2385510400	43	4292
2026-01-28 01:36:24.38	165.77	49.58	-35.7	-37.4	22.4	0.00e+00	0	42	0	2391801856	43	4256
2026-01-28 01:36:25.37	166.07	49.28	-35.5	-37.3	22.5	0.00e+00	0	42	0	2397044736	43	4194
2026-01-28 01:36:26.36	166.37	49.00	-35.5	-37.2	22.5	0.00e+00	0	42	0	2402287616	42	4408
2026-01-28 01:36:27.36	166.66	48.70	-35.5	-37.2	22.6	0.00e+00	0	42	0	2408579072	42	4397
2026-01-28 01:36:28.35	166.95	48.42	-35.6	-37.3	22.5	0.00e+00	0	42	0	2413821952	42	4459
2026-01-28 01:36:29.34	167.23	48.13	-35.7	-37.4	22.3	0.00e+00	0	42	0	2419064832	42	4534
2026-01-28 01:36:30.33	167.51	47.85	-35.9	-37.7	22.0	0.00e+00	0	42	0	2425356288	42	4690
2026-01-28 01:36:31.33	167.78	47.56	-36.1	-37.9	21.9	0.00e+00	0	42	0	2430599168	42	4777
2026-01-28 01:36:32.32	168.05	47.28	-35.9	-37.7	22.0	0.00e+00	0	42	0	2435842048	42	4670
2026-01-28 01:36:33.31	168.31	47.00	-35.7	-37.5	22.2	0.00e+00	0	42	0	2442133504	42	4556
2026-01-28 01:36:34.31	168.57	46.72	-35.4	-37.1	22.5	0.00e+00	0	42	0	2447376384	42	4373
2026-01-28 01:36:35.30	168.82	46.44	-35.4	-37.1	22.5	0.00e+00	0	42	0	2452619264	42	4352
2026-01-28 01:36:36.29	169.07	46.16	-35.2	-36.9	22.6	0.00e+00	0	42	0	2458910720	42	4270
2026-01-28 01:36:37.28	169.31	45.88	-35.2	-36.9	22.6	0.00e+00	0	42	0	2464153600	42	4291
2026-01-28 01:36:38.28	169.55	45.61	-35.3	-37.0	22.5	0.00e+00	0	42	0	2469396480	42	4337
2026-01-28 01:36:39.27	169.79	45.33	-35.3	-37.0	22.5	0.00e+00	0	42	0	2475687936	42	4318
2026-01-28 01:36:40.26	170.02	45.06	-35.3	-37.0	22.5	0.00e+00	0	42	0	2480930816	42	4330
2026-01-28 01:36:41.26	170.25	44.79	-35.3	-37.0	22.5	0.00e+00	0	42	0	2486173696	42	4311
2026-01-28 01:36:42.25	170.48	44.52	-35.3	-37.0	22.5	0.00e+00	0	42	0	2492465152	42	4310
2026-01-28 01:36:43.24	170.70	44.25	-35.3	-37.0	22.5	0.00e+00	0	42	0	2497708032	42	4325
2026-01-28 01:36:44.23	170.91	43.98	-35.4	-37.1	22.5	0.00e+00	0	42	0	2502950912	42	4382
2026-01-28 01:36:45.23	171.13	43.72	-35.3	-37.1	22.5	0.00e+00	0	42	0	2508193792	42	4352
2026-01-28 01:36:46.22	171.34	43.45	-35.2	-36.9	22.7	0.00e+00	0	42	0	2514485248	42	4262
2026-01-28 01:36:47.21	171.55	43.19	-35.1	-36.8	22.7	0.00e+00	0	42	0	2519728128	42	4241
2026-01-28 01:36:48.20	171.75	42.93	-35.0	-36.7	22.8	0.00e+00	0	42	0	2526019584	42	4163
2026-01-28 01:36:49.20	171.95	42.67	-35.0	-36.6	22.8	0.00e+00	0	42	0	2531262464	42	4145
2026-01-28 01:36:50.19	172.15	42.41	-34.8	-36.4	23.0	0.00e+00	0	42	0	2536505344	41	4290
2026-01-28 01:36:51.18	172.34	42.15	-34.9	-36.6	22.9	0.00e+00	0	42	0	2541748224	41	4365
2026-01-28 01:36:52.18	172.53	41.90	-35.0	-36.7	22.8	0.00e+00	0	42	0	2548039680	41	4403
2026-01-28 01:36:53.17	172.72	41.64	-35.2	-36.9	22.6	0.00e+00	0	42	0	2553282560	41	4507
2026-01-28 01:36:54.16	172.91	41.39	-35.1	-36.8	22.6	0.00e+00	0	42	0	2558525440	41	4488
2026-01-28 01:36:55.16	173.09	41.14	-35.0	-36.7	22.7	0.00e+00	0	42	0	2564816896	41	4439
2026-01-28 01:36:56.15	173.27	40.89	-35.1	-36.8	22.7	0.00e+00	0	42	0	2570059776	41	4446
2026-01-28 01:36:57.14	173.45	40.64	-35.0	-36.7	22.7	0.00e+00	0	42	0	2576351232	41	4411
2026-01-28 01:36:58.13	173.62	40.39	-35.0	-36.7	22.7	0.00e+00	0	42	0	2581594112	41	4434
2026-01-28 01:36:59.13	173.79	40.15	-34.9	-36.6	22.8	0.00e+00	0	42	0	2586836992	41	4366
2026-01-28 01:37:00.12	173.96	39.90	-35.0	-36.7	22.8	0.00e+00	0	42	0	2592079872	41	4401
2026-01-28 01:37:01.11	174.13	39.66	-34.9	-36.6	22.8	0.00e+00	0	42	0	2598371328	41	4390
2026-01-28 01:37:02.11	174.30	39.42	-35.0	-36.7	22.7	0.00e+00	0	42	0	2603614208	41	4414
2026-01-28 01:37:03.10	174.46	39.18	-35.0	-36.7	22.7	0.00e+00	0	42	0	2608857088	41	4438
2026-01-28 01:37:04.09	174.62	38.94	-35.0	-36.8	22.7	0.00e+00	0	42	0	2615148544	41	4445
2026-01-28 01:37:05.08	174.77	38.70	-35.1	-36.8	22.6	0.00e+00	0	42	0	2620391424	41	4492
2026-01-28 01:37:06.08	174.93	38.46	-35.1	-36.9	22.6	0.00e+00	0	42	0	2625634304	41	4500
2026-01-28 01:37:07.07	175.08	38.23	-35.0	-36.7	22.7	0.00e+00	0	42	0	2631925760	41	4426
2026-01-28 01:37:08.06	175.23	38.00	-34.8	-36.5	22.8	0.00e+00	0	42	0	2637168640	41	4326
2026-01-28 01:37:09.06	175.38	37.76	-34.7	-36.4	22.9	0.00e+00	0	42	0	2642411520	41	4286
2026-01-28 01:37:10.05	175.53	37.54	-34.7	-36.4	22.9	0.00e+00	0	42	0	2648702976	41	4279
2026-01-28 01:37:11.04	175.68	37.31	-34.8	-36.5	22.9	0.00e+00	0	42	0	2653945856	41	4315
2026-01-28 01:37:12.04	175.82	37.08	-34.8	-36.6	22.8	0.00e+00	0	42	0	2659188736	41	4353
2026-01-28 01:37:13.03	175.96	36.85	-34.9	-36.7	22.7	0.00e+00	0	42	0	2665480192	41	4416
2026-01-28 01:37:14.02	176.10	36.63	-35.0	-36.8	22.7	0.00e+00	0	42	0	2670723072	41	4447
2026-01-28 01:37:15.01	176.24	36.41	-34.9	-36.7	22.7	0.00e+00	0	42	0	2675965952	41	4404
2026-01-28 01:37:16.01	176.37	36.18	-35.0	-36.7	22.6	0.00e+00	0	42	0	2682257408	41	4414
2026-01-28 01:37:17.00	176.51	35.96	-34.9	-36.6	22.7	0.00e+00	0	42	0	2687500288	41	4354
2026-01-28 01:37:17.99	176.64	35.74	-35.0	-36.7	22.7	0.00e+00	0	42	0	2692743168	41	4415
2026-01-28 01:37:18.99	176.77	35.52	-34.8	-36.5	22.9	0.00e+00	0	42	0	2699034624	41	4301
2026-01-28 01:37:19.98	176.90	35.31	-34.7	-36.5	22.8	0.00e+00	0	42	0	2704277504	41	4293
2026-01-28 01:37:20.97	177.02	35.09	-34.7	-36.4	22.8	0.00e+00	0	42	0	2709520384	41	4277
2026-01-28 01:37:21.97	177.15	34.88	-34.8	-36.5	22.8	0.00e+00	0	42	0	2715811840	41	4335
2026-01-28 01:37:22.96	177.27	34.66	-34.9	-36.6	22.8	0.00e+00	0	42	0	2721054720	41	4353
2026-01-28 01:37:23.95	177.40	34.45	-35.0	-36.7	22.6	0.00e+00	0	42	0	2726297600	41	4410
2026-01-28 01:37:24.94	177.52	34.24	-35.0	-36.8	22.6	0.00e+00	0	42	0	2732589056	41	4450
2026-01-28 01:37:25.94	177.64	34.03	-35.1	-36.8	22.5	0.00e+00	0	42	0	2737831936	41	4493
2026-01-28 01:37:26.93	177.75	33.83	-35.1	-36.9	22.5	0.00e+00	0	42	0	2743074816	41	4508
2026-01-28 01:37:27.92	177.87	33.62	-35.1	-36.8	22.6	0.00e+00	0	42	0	2749366272	41	4472
2026-01-28 01:37:28.92	177.99	33.41	-35.2	-36.9	22.5	0.00e+00	0	42	0	2754609152	41	4519
2026-01-28 01:37:29.91	178.10	33.21	-35.1	-36.8	22.5	0.00e+00	0	42	0	2759852032	41	4488
2026-01-28 01:37:30.90	178.21	33.01	-35.0	-36.8	22.6	0.00e+00	0	42	0	2766143488	41	4448
2026-01-28 01:37:31.90	178.32	32.81	-35.1	-36.9	22.4	0.00e+00	0	42	0	2771386368	41	4502
2026-01-28 01:37:32.89	178.43	32.61	-35.2	-36.9	22.4	0.00e+00	0	42	0	2776629248	41	4540
2026-01-28 01:37:33.88	178.54	32.41	-35.1	-36.9	22.4	0.00e+00	0	42	0	2781872128	41	4523
2026-01-28 01:37:34.87	178.65	32.21	-35.1	-36.9	22.4	0.00e+00	0	42	0	2788163584	41	4519
2026-01-28 01:37:35.87	178.75	32.01	-35.2	-37.0	22.4	0.00e+00	0	42	0	2793406464	41	4546
2026-01-28 01:37:36.86	178.86	31.82	-35.3	-37.1	22.3	0.00e+00	0	42	0	2799697920	41	4605
2026-01-28 01:37:37.85	178.96	31.62	-35.3	-37.1	22.2	0.00e+00	0	42	0	2804940800	41	4629
2026-01-28 01:37:38.85	179.06	31.43	-35.3	-37.1	22.2	0.00e+00	0	42	0	2810183680	41	4637
2026-01-28 01:37:39.84	179.16	31.24	-35.4	-37.1	22.2	0.00e+00	0	42	0	2815426560	41	4649
2026-01-28 01:37:40.83	179.26	31.05	-35.4	-37.2	22.2	0.00e+00	0	42	0	2821718016	41	4677
2026-01-28 01:37:41.82	179.36	30.86	-35.4	-37.2	22.2	0.00e+00	0	42	0	2826960896	41	4655
2026-01-28 01:37:42.82	179.46	30.67	-35.5	-37.3	22.1	0.00e+00	0	42	0	2832203776	41	4729
2026-01-28 01:37:43.81	179.56	30.48	-35.4	-37.2	22.2	0.00e+00	0	42	0	2838495232	41	4665
2026-01-28 01:37:44.80	179.65	30.30	-35.2	-37.0	22.4	0.00e+00	0	42	0	2843738112	41	4566
2026-01-28 01:37:45.80	179.75	30.11	-35.2	-36.9	22.4	0.00e+00	0	42	0	2850029568	41	4539
2026-01-28 01:37:46.79	179.84	29.93	-35.2	-36.9	22.4	0.00e+00	0	42	0	2855272448	41	4542
2026-01-28 01:37:47.78	179.93	29.75	-35.1	-36.8	22.5	0.00e+00	0	42	0	2860515328	41	4485
2026-01-28 01:37:48.77	180.02	29.56	-35.2	-36.9	22.5	0.00e+00	0	42	0	2865758208	41	4503
2026-01-28 01:37:49.77	180.11	29.38	-35.2	-37.0	22.4	0.00e+00	0	42	0	2872049664	41	4546
2026-01-28 01:37:50.76	180.20	29.20	-35.2	-36.9	22.5	0.00e+00	0	42	0	2877292544	41	4533
2026-01-28 01:37:51.75	180.29	29.03	-35.2	-37.0	22.4	0.00e+00	0	42	0	2882535424	41	4547
2026-01-28 01:37:52.75	180.38	28.85	-35.2	-37.0	22.4	0.00e+00	0	42	0	2888826880	41	4552
2026-01-28 01:37:53.74	180.47	28.67	-35.2	-36.9	22.5	0.00e+00	0	42	0	2894069760	41	4525
2026-01-28 01:37:54.73	180.55	28.50	-35.2	-37.0	22.4	0.00e+00	0	42	0	2899312640	41	4552
2026-01-28 01:37:55.73	180.64	28.32	-35.2	-36.9	22.5	0.00e+00	0	42	0	2905604096	41	4525
2026-01-28 01:37:56.72	180.72	28.15	-35.2	-37.0	22.4	0.00e+00	0	42	0	2910846976	41	4563
2026-01-28 01:37:57.71	180.80	27.98	-35.3	-37.0	22.4	0.00e+00	0	42	0	2916089856	41	4584
2026-01-28 01:37:58.71	180.89	27.80	-35.2	-37.0	22.4	0.00e+00	0	42	0	2922381312	41	4549
2026-01-28 01:37:59.70	180.97	27.63	-35.2	-37.0	22.4	0.00e+00	0	42	0	2927624192	41	4547
2026-01-28 01:38:00.69	181.05	27.47	-35.3	-37.1	22.3	0.00e+00	0	42	0	2932867072	41	4603
2026-01-28 01:38:01.68	181.13	27.30	-35.2	-36.9	22.4	0.00e+00	0	42	0	2939158528	41	4517
2026-01-28 01:38:02.68	181.21	27.13	-35.3	-37.0	22.4	0.00e+00	0	42	0	2944401408	41	4568
2026-01-28 01:38:03.67	181.28	26.96	-35.3	-37.0	22.3	0.00e+00	0	42	0	2949644288	41	4580
2026-01-28 01:38:04.66	181.36	26.80	-35.2	-36.9	22.4	0.00e+00	0	42	0	2955935744	41	4534
2026-01-28 01:38:05.65	181.44	26.63	-35.2	-37.0	22.4	0.00e+00	0	42	0	2961178624	41	4563
2026-01-28 01:38:06.65	181.51	26.47	-35.3	-37.0	22.3	0.00e+00	0	42	0	2966421504	41	4589
2026-01-28 01:38:07.64	181.59	26.31	-35.3	-37.1	22.3	0.00e+00	0	42	0	2972712960	41	4606
2026-01-28 01:38:08.63	181.66	26.15	-35.4	-37.1	22.3	0.00e+00	0	42	0	2977955840	41	4644
2026-01-28 01:38:09.63	181.74	25.99	-35.5	-37.3	22.2	0.00e+00	0	42	0	2983198720	41	4715
2026-01-28 01:38:10.62	181.81	25.83	-35.5	-37.3	22.2	0.00e+00	0	42	0	2989490176	41	4721
2026-01-28 01:38:11.61	181.88	25.67	-35.6	-37.4	22.1	0.00e+00	0	42	0	2994733056	42	4497
2026-01-28 01:38:12.60	181.95	25.51	-35.6	-37.4	22.1	0.00e+00	0	42	0	2999975936	42	4531
2026-01-28 01:38:13.60	182.02	25.35	-35.8	-37.6	22.0	0.00e+00	0	42	0	3006267392	42	4617
2026-01-28 01:38:14.59	182.09	25.20	-35.8	-37.6	21.9	0.00e+00	0	42	0	3011510272	42	4623
2026-01-28 01:38:15.58	182.16	25.04	-35.8	-37.6	21.9	0.00e+00	0	42	0	3016753152	42	4624
2026-01-28 01:38:16.57	182.23	24.89	-35.9	-37.7	21.8	0.00e+00	0	42	0	3021996032	42	4670
2026-01-28 01:38:17.57	182.30	24.73	-36.0	-37.8	21.7	0.00e+00	0	42	0	3028287488	42	4731
2026-01-28 01:38:18.56	182.37	24.58	-35.9	-37.7	21.8	0.00e+00	0	42	0	3033530368	42	4665
2026-01-28 01:38:19.55	182.44	24.43	-36.0	-37.8	21.7	0.00e+00	0	42	0	3039821824	42	4727
2026-01-28 01:38:20.55	182.50	24.28	-36.0	-37.8	21.7	0.00e+00	0	42	0	3045064704	42	4735
2026-01-28 01:38:21.54	182.57	24.13	-36.0	-37.8	21.7	0.00e+00	0	42	0	3050307584	42	4742
2026-01-28 01:38:22.53	182.63	23.98	-36.0	-37.8	21.7	0.00e+00	0	42	0	3055550464	42	4752
2026-01-28 01:38:23.52	182.70	23.83	-36.0	-37.8	21.7	0.00e+00	0	42	0	3061841920	42	4757
2026-01-28 01:38:24.52	182.76	23.68	-36.0	-37.8	21.7	0.00e+00	0	42	0	3067084800	42	4733
2026-01-28 01:38:25.51	182.83	23.53	-36.1	-37.9	21.7	0.00e+00	0	42	0	3072327680	42	4772
2026-01-28 01:38:26.50	182.89	23.39	-36.0	-37.8	21.7	0.00e+00	0	42	0	3078619136	42	4742
2026-01-28 01:38:27.50	182.95	23.24	-36.0	-37.8	21.7	0.00e+00	0	42	0	3083862016	42	4727
2026-01-28 01:38:28.49	183.01	23.10	-36.0	-37.8	21.8	0.00e+00	0	42	0	3089104896	42	4716
2026-01-28 01:38:29.48	183.07	22.96	-36.0	-37.7	21.8	0.00e+00	0	42	0	3095396352	42	4695
2026-01-28 01:38:30.47	183.13	22.81	-36.0	-37.7	21.8	0.00e+00	0	42	0	3100639232	42	4705
2026-01-28 01:38:31.47	183.20	22.67	-35.9	-37.7	21.8	0.00e+00	0	42	0	3105882112	42	4657
2026-01-28 01:38:32.46	183.26	22.53	-36.0	-37.8	21.8	0.00e+00	0	42	0	3112173568	42	4714
2026-01-28 01:38:33.45	183.31	22.39	-35.9	-37.7	21.8	0.00e+00	0	42	0	3117416448	42	4684
2026-01-28 01:38:34.45	183.37	22.25	-35.9	-37.7	21.8	0.00e+00	0	42	0	3123707904	42	4682
2026-01-28 01:38:35.44	183.43	22.11	-35.9	-37.7	21.8	0.00e+00	0	42	0	3128950784	42	4657
2026-01-28 01:38:36.43	183.49	21.97	-36.0	-37.7	21.7	0.00e+00	0	42	0	3134193664	42	4705
2026-01-28 01:38:37.43	183.55	21.83	-36.0	-37.7	21.8	0.00e+00	0	42	0	3139436544	42	4689
2026-01-28 01:38:38.42	183.60	21.69	-36.0	-37.7	21.8	0.00e+00	0	42	0	3145728000	42	4687
2026-01-28 01:38:39.41	183.66	21.56	-36.0	-37.8	21.7	0.00e+00	0	42	0	3150970880	42	4715
2026-01-28 01:38:40.40	183.72	21.42	-36.0	-37.8	21.7	0.00e+00	0	42	0	3156213760	42	4722
2026-01-28 01:38:41.40	183.77	21.29	-36.1	-37.9	21.6	0.00e+00	0	42	0	3162505216	42	4787
2026-01-28 01:38:42.39	183.83	21.15	-36.1	-37.9	21.6	0.00e+00	0	42	0	3167748096	43	4529
2026-01-28 01:38:43.38	183.88	21.02	-36.1	-37.9	21.6	0.00e+00	0	42	0	3172990976	43	4531
2026-01-28 01:38:44.37	183.93	20.89	-36.3	-38.0	21.5	0.00e+00	0	42	0	3179282432	43	4597
2026-01-28 01:38:45.37	183.99	20.75	-36.2	-38.1	21.5	0.00e+00	0	42	0	3184525312	43	4603
2026-01-28 01:38:46.36	184.04	20.62	-36.3	-38.1	21.4	0.00e+00	0	42	0	3189768192	43	4631
2026-01-28 01:38:47.35	184.09	20.49	-36.3	-38.1	21.4	0.00e+00	0	42	0	3196059648	43	4646
2026-01-28 01:38:48.35	184.15	20.36	-36.4	-38.2	21.4	0.00e+00	0	42	0	3201302528	43	4686
2026-01-28 01:38:49.34	184.20	20.23	-36.4	-38.2	21.3	0.00e+00	0	42	0	3206545408	43	4704
2026-01-28 01:38:50.33	184.25	20.10	-36.5	-38.3	21.3	0.00e+00	0	42	0	3212836864	43	4756
2026-01-28 01:38:51.32	184.30	19.98	-36.6	-38.5	21.2	0.00e+00	0	42	0	3218079744	43	4816
2026-01-28 01:38:52.32	184.35	19.85	-36.5	-38.3	21.2	0.00e+00	0	42	0	3223322624	43	4758
2026-01-28 01:38:53.31	184.40	19.72	-36.6	-38.4	21.2	0.00e+00	0	42	0	3229614080	43	4807
2026-01-28 01:38:54.30	184.45	19.59	-36.7	-38.5	21.1	0.00e+00	0	42	0	3234856960	43	4847
2026-01-28 01:38:55.30	184.50	19.47	-36.9	-38.7	21.1	0.00e+00	0	42	0	3240099840	44	4691
2026-01-28 01:38:56.29	184.55	19.34	-37.0	-38.8	21.0	0.00e+00	0	42	0	3245342720	44	4749
2026-01-28 01:38:57.28	184.60	19.22	-37.0	-38.9	20.9	0.00e+00	0	42	0	3251634176	44	4766
2026-01-28 01:38:58.28	184.65	19.09	-37.0	-38.9	20.9	0.00e+00	0	42	0	3256877056	44	4772
2026-01-28 01:38:59.27	184.70	18.97	-37.1	-39.0	20.8	0.00e+00	0	42	0	3263168512	44	4844
2026-01-28 01:39:00.26	184.74	18.85	-37.1	-39.0	20.8	0.00e+00	0	42	0	3268411392	45	4582
2026-01-28 01:39:01.25	184.79	18.73	-37.0	-38.9	20.9	0.00e+00	0	42	0	3273654272	45	4525
2026-01-28 01:39:02.25	184.84	18.60	-37.1	-38.9	20.9	0.00e+00	0	42	0	3279945728	45	4541
2026-01-28 01:39:03.24	184.88	18.48	-37.0	-38.9	20.9	0.00e+00	0	42	0	3285188608	45	4533
2026-01-28 01:39:04.23	184.93	18.36	-37.0	-38.8	20.9	0.00e+00	0	42	0	3290431488	45	4490
2026-01-28 01:39:05.23	184.98	18.24	-37.0	-38.9	20.9	0.00e+00	0	42	0	3295674368	45	4514
2026-01-28 01:39:06.22	185.02	18.12	-37.0	-38.9	20.9	0.00e+00	0	42	0	3301965824	45	4527
2026-01-28 01:39:07.21	185.07	18.01	-37.1	-38.9	20.9	0.00e+00	0	42	0	3307208704	45	4532
2026-01-28 01:39:08.20	185.11	17.89	-37.0	-38.9	20.9	0.00e+00	0	42	0	3313500160	45	4507
2026-01-28 01:39:09.20	185.16	17.77	-37.1	-39.0	20.8	0.00e+00	0	42	0	3318743040	45	4566
2026-01-28 01:39:10.19	185.20	17.65	-37.1	-39.0	20.8	0.00e+00	0	42	0	3323985920	45	4577
2026-01-28 01:39:11.18	185.25	17.54	-37.1	-39.0	20.8	0.00e+00	0	42	0	3329228800	45	4560
2026-01-28 01:39:12.18	185.29	17.42	-37.2	-39.0	20.8	0.00e+00	0	42	0	3335520256	45	4586
2026-01-28 01:39:13.17	185.33	17.31	-37.2	-39.0	20.8	0.00e+00	0	42	0	3340763136	45	4583
2026-01-28 01:39:14.16	185.38	17.19	-37.1	-39.0	20.8	0.00e+00	0	42	0	3346006016	45	4569
2026-01-28 01:39:15.15	185.42	17.08	-37.2	-39.1	20.7	0.00e+00	0	42	0	3352297472	45	4612
2026-01-28 01:39:16.15	185.46	16.96	-37.2	-39.0	20.8	0.00e+00	0	42	0	3357540352	45	4577
2026-01-28 01:39:17.14	185.50	16.85	-37.3	-39.1	20.7	0.00e+00	0	42	0	3362783232	45	4641
2026-01-28 01:39:18.13	185.55	16.74	-37.2	-39.1	20.7	0.00e+00	0	42	0	3369074688	45	4620
2026-01-28 01:39:19.13	185.59	16.62	-37.3	-39.2	20.6	0.00e+00	0	42	0	3374317568	45	4658
2026-01-28 01:39:20.12	185.63	16.51	-37.4	-39.2	20.6	0.00e+00	0	42	0	3379560448	45	4687
2026-01-28 01:39:21.11	185.67	16.40	-37.3	-39.2	20.6	0.00e+00	0	42	0	3385851904	45	4661
2026-01-28 01:39:22.11	185.71	16.29	-37.5	-39.3	20.5	0.00e+00	0	42	0	3391094784	45	4745
2026-01-28 01:39:23.10	185.75	16.18	-37.5	-39.3	20.5	0.00e+00	0	42	0	3396337664	45	4753
2026-01-28 01:39:24.09	185.79	16.07	-37.6	-39.4	20.4	0.00e+00	0	42	0	3402629120	45	4805
2026-01-28 01:39:25.08	185.83	15.96	-37.6	-39.4	20.4	0.00e+00	0	42	0	3407872000	45	4803
2026-01-28 01:39:26.08	185.87	15.85	-37.6	-39.5	20.4	0.00e+00	0	42	0	3413114880	45	4818
2026-01-28 01:39:27.07	185.91	15.74	-37.6	-39.5	20.4	0.00e+00	0	42	0	3419406336	45	4820
2026-01-28 01:39:28.06	185.95	15.64	-37.7	-39.5	20.4	0.00e+00	0	42	0	3424649216	46	4580
2026-01-28 01:39:29.05	185.99	15.53	-37.7	-39.6	20.2	0.00e+00	0	42	0	3429892096	46	4629
2026-01-28 01:39:30.05	186.03	15.42	-37.8	-39.7	20.2	0.00e+00	0	42	0	3436183552	46	4673
2026-01-28 01:39:31.04	186.07	15.31	-38.0	-39.9	20.1	0.00e+00	0	42	0	3441426432	46	4765
2026-01-28 01:39:32.03	186.10	15.21	-38.0	-39.9	20.1	0.00e+00	0	42	0	3446669312	46	4764
2026-01-28 01:39:33.03	186.14	15.10	-37.9	-39.8	20.1	0.00e+00	0	42	0	3452960768	46	4713
2026-01-28 01:39:34.02	186.18	15.00	-38.0	-39.9	20.0	0.00e+00	0	42	0	3458203648	46	4790
2026-01-28 01:39:35.01	186.22	14.89	-38.0	-39.9	20.1	0.00e+00	0	42	0	3463446528	46	4777
2026-01-28 01:39:36.00	186.25	14.79	-38.1	-40.0	20.0	0.00e+00	0	42	0	3469737984	46	4823
2026-01-28 01:39:37.00	186.29	14.68	-38.1	-40.0	20.0	0.00e+00	0	42	0	3474980864	46	4832
2026-01-28 01:39:37.99	186.33	14.58	-38.1	-40.0	19.9	0.00e+00	0	42	0	3480223744	46	4862
2026-01-28 01:39:38.98	186.36	14.48	-38.2	-40.1	19.8	0.00e+00	0	42	0	3486515200	47	4644
2026-01-28 01:39:39.98	186.40	14.37	-38.2	-40.2	19.8	0.00e+00	0	42	0	3491758080	47	4655
2026-01-28 01:39:40.97	186.44	14.27	-38.2	-40.1	19.8	0.00e+00	0	42	0	3497000960	47	4650
2026-01-28 01:39:41.96	186.47	14.17	-38.2	-40.2	19.8	0.00e+00	0	42	0	3503292416	47	4663
2026-01-28 01:39:42.95	186.51	14.07	-38.3	-40.3	19.7	0.00e+00	0	42	0	3508535296	47	4716
2026-01-28 01:39:43.95	186.54	13.97	-38.3	-40.3	19.7	0.00e+00	0	42	0	3513778176	47	4726
2026-01-28 01:39:44.94	186.58	13.87	-38.4	-40.4	19.6	0.00e+00	0	42	0	3519021056	47	4772
2026-01-28 01:39:45.93	186.61	13.77	-38.4	-40.4	19.6	0.00e+00	0	42	0	3525312512	47	4782
2026-01-28 01:39:46.93	186.65	13.67	-38.4	-40.4	19.5	0.00e+00	0	42	0	3530555392	47	4783
2026-01-28 01:39:47.92	186.68	13.57	-38.6	-40.5	19.4	0.00e+00	0	42	0	3536846848	47	4861
2026-01-28 01:39:48.91	186.72	13.47	-38.6	-40.5	19.4	0.00e+00	0	42	0	3542089728	47	4854
2026-01-28 01:39:49.90	186.75	13.37	-38.6	-40.6	19.4	0.00e+00	0	42	0	3547332608	47	4890
2026-01-28 01:39:50.90	186.78	13.27	-38.4	-40.4	19.5	0.00e+00	0	42	0	3553624064	47	4797
2026-01-28 01:39:51.89	186.82	13.18	-38.5	-40.5	19.5	0.00e+00	0	42	0	3558866944	47	4831
2026-01-28 01:39:52.88	186.85	13.08	-38.6	-40.6	19.4	0.00e+00	0	42	0	3564109824	47	4879
2026-01-28 01:39:53.88	186.88	12.98	-38.5	-40.5	19.5	0.00e+00	0	42	0	3569352704	47	4827
2026-01-28 01:39:54.87	186.92	12.88	-38.5	-40.5	19.4	0.00e+00	0	42	0	3575644160	47	4834
2026-01-28 01:39:55.86	186.95	12.79	-38.5	-40.5	19.4	0.00e+00	0	42	0	3580887040	47	4854
2026-01-28 01:39:56.85	186.98	12.69	-38.6	-40.5	19.4	0.00e+00	0	42	0	3587178496	47	4869
2026-01-28 01:39:57.85	187.01	12.60	-38.6	-40.5	19.4	0.00e+00	0	42	0	3592421376	47	4865
