passes_logs/2026/01/28/T1/T1__20260128_120450_AQUA_rec.log

#Pass ID: 20260128_120450_AQUA
#Satellite: AQUA
#Configuration: AQUA
#almurnet v.1.7.20251203
#Start time: 2026-01-28 12:04:50

#Version: 2.0.20230620
#Station: T1
#Location: 37.570604 lon 55.790049 lat
#TLE: 1 27424U 02022A   26027.63960626  .00001831  00000+0  37607-3 0  9998
#TLE: 2 27424  98.4102 354.2809 0001844  63.7090 108.5242 14.61867354262735

#Time	Az	El	Level	Level2	SNR	BER	BlckErr	Temp	State	Recorded	gain1	gain2
2026-01-28 12:04:50.02	173.72	5.00	-50.8	-71.6	3.8	7.48e-01	0	36	0	0	73	39126
2026-01-28 12:04:51.01	173.75	5.07	-51.6	-71.7	3.8	7.45e-01	0	36	104	0	74	37061
2026-01-28 12:04:52.01	173.78	5.15	-51.0	-71.7	3.8	7.46e-01	0	36	104	0	74	37107
2026-01-28 12:04:53.00	173.81	5.22	-51.7	-71.7	3.8	7.44e-01	0	37	104	0	73	39263
2026-01-28 12:04:53.99	173.83	5.30	-51.6	-71.7	3.8	7.43e-01	0	36	104	0	74	37177
2026-01-28 12:04:54.98	173.86	5.37	-51.0	-71.7	3.8	7.44e-01	0	36	104	0	73	39292
2026-01-28 12:04:55.98	173.89	5.45	-51.0	-71.7	3.8	7.44e-01	0	37	104	0	73	39268
2026-01-28 12:04:56.97	173.92	5.52	-51.4	-71.7	3.8	7.46e-01	0	36	104	0	73	39200
2026-01-28 12:04:57.96	173.94	5.60	-51.7	-71.7	3.8	7.46e-01	0	37	104	0	74	37108
2026-01-28 12:04:58.96	173.97	5.67	-51.7	-71.7	3.8	7.43e-01	0	37	104	0	74	37048
2026-01-28 12:04:59.95	174.00	5.75	-51.5	-71.7	3.8	7.48e-01	0	37	104	0	73	39177
2026-01-28 12:05:00.94	174.03	5.83	-51.8	-71.7	3.8	7.44e-01	0	37	104	0	74	36978
2026-01-28 12:05:01.93	174.06	5.90	-51.7	-71.6	3.8	7.46e-01	0	37	104	0	74	36827
2026-01-28 12:05:02.92	174.09	5.98	-51.4	-71.7	3.8	7.44e-01	0	37	104	0	74	36981
2026-01-28 12:05:03.92	174.12	6.06	-51.6	-71.6	3.8	7.43e-01	0	37	104	0	74	36890
2026-01-28 12:05:04.91	174.14	6.13	-51.5	-71.6	3.8	7.45e-01	0	37	104	0	74	36742
2026-01-28 12:05:05.90	174.17	6.21	-51.5	-71.6	3.8	7.47e-01	0	37	104	0	74	36748
2026-01-28 12:05:06.90	174.20	6.29	-51.3	-71.6	3.8	7.47e-01	0	37	104	0	74	36528
2026-01-28 12:05:07.89	174.23	6.37	-51.4	-71.6	3.8	7.49e-01	0	37	104	0	74	36647
2026-01-28 12:05:08.88	174.26	6.45	-51.3	-71.5	3.8	7.45e-01	0	37	104	0	74	36444
2026-01-28 12:05:09.88	174.29	6.53	-51.1	-71.5	3.8	7.43e-01	0	37	104	0	74	36335
2026-01-28 12:05:10.87	174.32	6.60	-51.1	-71.5	3.8	7.42e-01	0	37	104	0	73	38391
2026-01-28 12:05:11.86	174.35	6.68	-50.7	-71.4	3.8	7.44e-01	0	37	104	0	72	40320
2026-01-28 12:05:12.86	174.38	6.76	-50.6	-71.2	3.8	7.44e-01	0	37	104	0	72	39417
2026-01-28 12:05:13.85	174.41	6.84	-49.5	-71.3	3.8	7.44e-01	0	37	104	0	71	42305
2026-01-28 12:05:14.84	174.44	6.92	-49.4	-70.2	3.8	7.44e-01	0	37	104	0	70	39181
2026-01-28 12:05:15.83	174.47	7.00	-46.6	-68.3	4.1	7.45e-01	0	37	104	0	65	42199
2026-01-28 12:05:16.83	174.51	7.08	-44.5	-68.6	3.9	7.42e-01	0	37	104	0	60	58358
2026-01-28 12:05:17.82	174.54	7.16	-44.5	-67.6	3.8	7.40e-01	0	37	104	0	60	51638
2026-01-28 12:05:18.81	174.57	7.25	-44.4	-65.3	4.1	7.29e-01	0	38	104	0	60	39775
2026-01-28 12:05:19.81	174.60	7.33	-44.4	-62.5	7.0	6.64e-01	0	38	0	1048576	60	28919
2026-01-28 12:05:20.80	174.63	7.41	-44.4	-60.1	9.5	6.28e-01	0	37	0	3145728	60	21795
2026-01-28 12:05:21.79	174.66	7.49	-44.2	-58.0	11.5	6.12e-01	0	38	0	4718592	60	17184
2026-01-28 12:05:22.79	174.70	7.57	-44.1	-56.1	13.6	6.10e-01	0	37	0	6815744	60	13772
2026-01-28 12:05:23.78	174.73	7.66	-44.3	-54.7	15.1	6.06e-01	0	37	0	8388608	59	12483
2026-01-28 12:05:24.77	174.76	7.74	-44.1	-53.5	16.3	6.05e-01	0	37	0	10485760	59	10890
2026-01-28 12:05:25.77	174.79	7.82	-43.9	-52.4	17.4	6.07e-01	0	38	0	12058624	59	9599
2026-01-28 12:05:26.76	174.83	7.91	-43.7	-51.6	18.3	6.06e-01	0	38	0	14155776	59	8697
2026-01-28 12:05:27.75	174.86	7.99	-43.4	-51.0	18.8	6.06e-01	0	38	0	15728640	58	8635
2026-01-28 12:05:28.74	174.89	8.07	-43.4	-50.8	19.1	6.07e-01	0	38	0	17825792	58	8379
2026-01-28 12:05:29.74	174.92	8.16	-43.3	-50.6	19.3	6.07e-01	0	38	0	19922944	58	8231
2026-01-28 12:05:30.73	174.96	8.24	-43.3	-50.7	19.1	6.06e-01	0	37	0	21495808	58	8367
2026-01-28 12:05:31.72	174.99	8.33	-43.4	-51.2	18.7	6.07e-01	0	38	0	23592960	58	8779
2026-01-28 12:05:32.71	175.03	8.41	-43.6	-51.8	18.1	6.08e-01	0	38	0	25165824	58	9397
2026-01-28 12:05:33.71	175.06	8.50	-43.7	-52.7	17.2	6.04e-01	0	38	0	27262976	58	10462
2026-01-28 12:05:34.70	175.09	8.58	-43.9	-53.8	16.1	6.06e-01	0	38	0	28835840	58	11911
2026-01-28 12:05:35.69	175.13	8.67	-44.1	-55.4	14.4	6.08e-01	0	38	0	30932992	59	13417
2026-01-28 12:05:36.69	175.16	8.76	-44.3	-57.1	12.8	6.11e-01	0	38	0	33030144	59	16321
2026-01-28 12:05:37.68	175.20	8.84	-44.6	-59.2	10.6	6.22e-01	0	38	0	34603008	59	20834
2026-01-28 12:05:38.67	175.23	8.93	-44.5	-61.2	8.4	6.43e-01	0	38	0	36175872	60	24903
2026-01-28 12:05:39.67	175.27	9.02	-44.5	-63.8	6.0	6.84e-01	0	38	0	38273024	60	33564
2026-01-28 12:05:40.66	175.30	9.11	-44.2	-55.5	13.6	6.09e-01	0	38	0	39321600	59	13691
2026-01-28 12:05:41.65	175.34	9.19	-44.4	-62.1	8.2	6.53e-01	0	38	0	40894464	60	27619
2026-01-28 12:05:42.65	175.38	9.28	-44.1	-63.2	6.0	6.84e-01	0	38	0	42467328	60	31356
2026-01-28 12:05:43.64	175.41	9.37	-44.3	-52.7	16.7	6.07e-01	0	38	0	44040192	60	9360
2026-01-28 12:05:44.63	175.45	9.46	-44.5	-67.1	4.6	7.60e-01	0	38	104	46137344	60	48759
2026-01-28 12:05:45.62	175.49	9.55	-45.1	-59.7	5.3	7.15e-01	0	38	104	46137344	60	20884
2026-01-28 12:05:46.62	175.52	9.64	-44.2	-49.0	20.6	6.08e-01	0	38	0	47185920	60	6076
2026-01-28 12:05:47.61	175.56	9.73	-44.2	-48.5	21.3	6.04e-01	0	38	0	48758784	59	6068
2026-01-28 12:05:48.60	175.60	9.82	-43.7	-47.6	22.2	6.07e-01	0	38	0	50855936	59	5514
2026-01-28 12:05:49.60	175.63	9.91	-43.6	-47.5	22.4	6.08e-01	0	38	0	52953088	59	5416
2026-01-28 12:05:50.59	175.67	10.01	-43.7	-47.6	22.2	6.04e-01	0	38	0	54525952	58	5826
2026-01-28 12:05:51.58	175.71	10.10	-43.2	-46.9	22.9	6.06e-01	0	38	0	56623104	58	5374
2026-01-28 12:05:52.57	175.75	10.19	-43.1	-46.8	23.1	6.07e-01	0	38	0	58195968	58	5294
2026-01-28 12:05:53.57	175.79	10.28	-42.8	-46.3	23.4	6.08e-01	0	38	0	60293120	57	5335
2026-01-28 12:05:54.56	175.83	10.38	-42.7	-46.3	23.6	6.08e-01	0	38	0	61865984	57	5284
2026-01-28 12:05:55.55	175.86	10.47	-42.6	-46.2	23.6	6.05e-01	0	38	0	63963136	57	5231
2026-01-28 12:05:56.55	175.90	10.56	-42.6	-46.2	23.6	6.08e-01	0	38	0	65536000	57	5230
2026-01-28 12:05:57.54	175.94	10.66	-42.6	-46.2	23.6	6.07e-01	0	38	0	67633152	57	5249
2026-01-28 12:05:58.53	175.98	10.75	-42.7	-46.2	23.6	6.06e-01	0	38	0	69730304	57	5271
2026-01-28 12:05:59.53	176.02	10.85	-42.5	-46.1	23.7	6.09e-01	0	38	0	71303168	57	5184
2026-01-28 12:06:00.52	176.06	10.94	-42.6	-46.1	23.7	6.05e-01	0	38	0	72876032	57	5208
2026-01-28 12:06:01.51	176.10	11.04	-42.6	-46.1	23.7	6.06e-01	0	38	0	74973184	57	5218
2026-01-28 12:06:02.51	176.15	11.13	-42.7	-46.0	23.8	6.07e-01	0	38	0	77070336	57	5114
2026-01-28 12:06:03.50	176.19	11.23	-42.8	-46.0	23.8	6.08e-01	0	38	0	78643200	57	5148
2026-01-28 12:06:04.49	176.23	11.33	-43.0	-46.1	23.8	6.08e-01	0	38	0	80740352	57	5161
2026-01-28 12:06:05.49	176.27	11.42	-43.0	-46.0	23.9	6.05e-01	0	38	0	82313216	57	5105
2026-01-28 12:06:06.48	176.31	11.52	-43.1	-46.0	23.8	6.06e-01	0	38	0	84410368	57	5123
2026-01-28 12:06:07.47	176.35	11.62	-43.1	-45.9	23.9	6.05e-01	0	38	0	85983232	57	5093
2026-01-28 12:06:08.46	176.40	11.72	-43.1	-45.9	23.9	6.07e-01	0	38	0	88080384	57	5072
2026-01-28 12:06:09.46	176.44	11.82	-43.2	-46.0	23.9	6.08e-01	0	38	0	89653248	57	5140
2026-01-28 12:06:10.45	176.48	11.92	-43.2	-45.9	23.9	6.05e-01	0	38	0	91750400	57	5091
2026-01-28 12:06:11.44	176.52	12.02	-43.2	-45.8	24.0	6.06e-01	0	38	0	93847552	57	5034
2026-01-28 12:06:12.44	176.57	12.12	-43.3	-45.9	24.0	6.07e-01	0	38	0	95420416	57	5089
2026-01-28 12:06:13.43	176.61	12.22	-43.4	-46.0	23.8	6.06e-01	0	38	0	97517568	57	5156
2026-01-28 12:06:14.42	176.66	12.32	-43.2	-45.8	24.1	6.05e-01	0	38	0	99090432	57	5023
2026-01-28 12:06:15.42	176.70	12.42	-43.3	-45.9	24.1	6.07e-01	0	38	0	101187584	57	5042
2026-01-28 12:06:16.41	176.75	12.52	-43.2	-45.8	23.8	6.07e-01	0	38	0	102760448	57	5021
2026-01-28 12:06:17.40	176.79	12.63	-43.3	-45.9	24.0	6.06e-01	0	38	0	104857600	57	5049
2026-01-28 12:06:18.39	176.84	12.73	-43.3	-45.9	24.0	6.05e-01	0	38	0	106954752	57	5048
2026-01-28 12:06:19.39	176.88	12.83	-43.1	-45.7	24.1	6.08e-01	0	38	0	108527616	57	4976
2026-01-28 12:06:20.38	176.93	12.94	-43.1	-45.7	24.1	6.08e-01	0	38	0	110624768	57	4980
2026-01-28 12:06:21.37	176.97	13.04	-43.1	-45.7	24.2	6.06e-01	0	38	0	112197632	57	4965
2026-01-28 12:06:22.37	177.02	13.15	-43.1	-45.8	24.2	6.08e-01	0	38	0	114294784	57	4995
2026-01-28 12:06:23.36	177.07	13.25	-43.1	-45.7	24.1	6.07e-01	0	38	0	115867648	57	4964
2026-01-28 12:06:24.35	177.12	13.36	-43.0	-45.6	24.3	6.05e-01	0	38	0	117964800	57	4900
2026-01-28 12:06:25.35	177.16	13.47	-43.0	-45.7	24.2	6.06e-01	0	39	0	119537664	57	4962
2026-01-28 12:06:26.34	177.21	13.57	-43.0	-45.7	24.2	6.07e-01	0	38	0	121634816	57	4937
2026-01-28 12:06:27.33	177.26	13.68	-43.0	-45.6	24.3	6.07e-01	0	38	0	123731968	57	4911
2026-01-28 12:06:28.32	177.31	13.79	-42.9	-45.5	24.3	6.07e-01	0	38	0	125304832	57	4870
2026-01-28 12:06:29.32	177.36	13.90	-42.9	-45.6	24.1	6.08e-01	0	38	0	126877696	57	4876
2026-01-28 12:06:30.31	177.41	14.01	-42.9	-45.6	24.3	6.04e-01	0	39	0	128974848	57	4909
2026-01-28 12:06:31.30	177.46	14.12	-42.9	-45.6	24.3	6.07e-01	0	38	0	131072000	57	4918
2026-01-28 12:06:32.30	177.51	14.23	-42.8	-45.5	24.4	6.07e-01	0	38	0	132644864	57	4836
2026-01-28 12:06:33.29	177.56	14.34	-42.8	-45.5	24.4	6.05e-01	0	38	0	134742016	57	4831
2026-01-28 12:06:34.28	177.61	14.45	-42.7	-45.4	24.5	6.07e-01	0	38	0	136314880	57	4783
2026-01-28 12:06:35.28	177.66	14.56	-42.8	-45.5	24.5	6.03e-01	0	39	0	138412032	57	4823
2026-01-28 12:06:36.27	177.71	14.67	-42.7	-45.4	24.5	6.08e-01	0	38	0	139984896	57	4779
2026-01-28 12:06:37.26	177.77	14.79	-42.7	-45.4	24.5	6.07e-01	0	38	0	142082048	57	4764
2026-01-28 12:06:38.25	177.82	14.90	-42.8	-45.5	24.4	6.04e-01	0	39	0	143654912	57	4830
2026-01-28 12:06:39.25	177.87	15.01	-42.8	-45.4	24.5	6.06e-01	0	39	0	145752064	57	4777
2026-01-28 12:06:40.24	177.93	15.13	-42.9	-45.5	24.4	6.08e-01	0	38	0	147849216	57	4855
2026-01-28 12:06:41.23	177.98	15.24	-42.8	-45.4	24.5	6.05e-01	0	39	0	149422080	57	4810
2026-01-28 12:06:42.23	178.03	15.36	-42.8	-45.5	24.5	6.06e-01	0	38	0	151519232	57	4845
2026-01-28 12:06:43.22	178.09	15.48	-42.8	-45.5	24.5	6.10e-01	0	38	0	153092096	57	4827
2026-01-28 12:06:44.21	178.14	15.59	-42.8	-45.6	24.4	6.06e-01	0	39	0	155189248	57	4878
2026-01-28 12:06:45.21	178.20	15.71	-42.8	-45.5	24.1	6.07e-01	0	39	0	156762112	57	4865
2026-01-28 12:06:46.20	178.26	15.83	-42.8	-45.5	24.5	6.05e-01	0	39	0	158859264	57	4829
2026-01-28 12:06:47.19	178.31	15.95	-42.9	-45.5	24.4	6.08e-01	0	39	0	160956416	57	4867
2026-01-28 12:06:48.18	178.37	16.07	-42.9	-45.5	24.5	6.08e-01	0	39	0	162529280	57	4828
2026-01-28 12:06:49.18	178.43	16.19	-42.8	-45.4	24.5	6.07e-01	0	38	0	164626432	57	4775
2026-01-28 12:06:50.17	178.48	16.31	-42.9	-45.5	24.5	6.06e-01	0	39	0	166199296	57	4826
2026-01-28 12:06:51.16	178.54	16.43	-42.8	-45.3	24.6	6.05e-01	0	39	0	168296448	57	4719
2026-01-28 12:06:52.15	178.60	16.55	-42.7	-45.2	24.7	6.06e-01	0	39	0	169869312	57	4696
2026-01-28 12:06:53.15	178.66	16.67	-42.8	-45.3	24.7	6.04e-01	0	38	0	171966464	57	4718
2026-01-28 12:06:54.14	178.72	16.80	-42.7	-45.2	24.7	6.08e-01	0	39	0	173539328	57	4703
2026-01-28 12:06:55.13	178.78	16.92	-42.7	-45.2	24.7	6.06e-01	0	39	0	175636480	57	4704
2026-01-28 12:06:56.13	178.84	17.05	-42.8	-45.3	24.6	6.06e-01	0	39	0	177733632	57	4741
2026-01-28 12:06:57.12	178.90	17.17	-42.9	-45.5	24.5	6.07e-01	0	39	0	179306496	57	4820
2026-01-28 12:06:58.11	178.96	17.30	-42.9	-45.4	24.6	6.04e-01	0	39	0	180879360	57	4795
2026-01-28 12:06:59.11	179.03	17.42	-42.9	-45.5	24.6	6.07e-01	0	39	0	182976512	57	4816
2026-01-28 12:07:00.10	179.09	17.55	-42.9	-45.5	24.5	6.06e-01	0	39	0	185073664	57	4820
2026-01-28 12:07:01.09	179.15	17.68	-42.9	-45.5	24.5	6.06e-01	0	39	0	186646528	57	4827
2026-01-28 12:07:02.08	179.22	17.81	-42.9	-45.4	24.6	6.08e-01	0	39	0	188743680	57	4804
2026-01-28 12:07:03.08	179.28	17.94	-42.9	-45.4	24.6	6.07e-01	0	39	0	190316544	57	4782
2026-01-28 12:07:04.07	179.35	18.07	-43.0	-45.5	24.5	6.06e-01	0	38	0	192413696	57	4816
2026-01-28 12:07:05.06	179.41	18.20	-42.9	-45.4	24.6	6.07e-01	0	39	0	193986560	57	4783
2026-01-28 12:07:06.05	179.48	18.33	-42.9	-45.3	24.7	6.06e-01	0	39	0	196083712	57	4732
2026-01-28 12:07:07.05	179.54	18.46	-42.9	-45.3	24.7	6.05e-01	0	39	0	197656576	57	4743
2026-01-28 12:07:08.04	179.61	18.60	-42.9	-45.3	24.7	6.09e-01	0	39	0	199753728	57	4729
2026-01-28 12:07:09.03	179.68	18.73	-42.8	-45.2	24.7	6.08e-01	0	39	0	201850880	57	4705
2026-01-28 12:07:10.03	179.75	18.87	-42.8	-45.3	24.7	6.06e-01	0	38	0	203423744	57	4747
2026-01-28 12:07:11.02	179.82	19.00	-42.8	-45.3	24.7	6.07e-01	0	39	0	205520896	57	4748
2026-01-28 12:07:12.01	179.89	19.14	-42.9	-45.3	24.7	6.06e-01	0	39	0	207093760	57	4755
2026-01-28 12:07:13.01	179.96	19.28	-42.8	-45.3	24.7	6.06e-01	0	38	0	209190912	57	4725
2026-01-28 12:07:14.00	180.03	19.41	-42.9	-45.3	24.6	6.07e-01	0	38	0	210763776	57	4759
2026-01-28 12:07:14.99	180.10	19.55	-42.9	-45.4	24.7	6.05e-01	0	39	0	212860928	57	4761
2026-01-28 12:07:15.98	180.17	19.69	-42.8	-45.3	24.7	6.07e-01	0	39	0	214958080	57	4754
2026-01-28 12:07:16.98	180.25	19.83	-42.8	-45.4	24.6	6.06e-01	0	39	0	216530944	57	4799
2026-01-28 12:07:17.97	180.32	19.97	-42.8	-45.4	24.7	6.06e-01	0	39	0	218103808	57	4783
2026-01-28 12:07:18.96	180.39	20.11	-42.8	-45.4	24.6	6.07e-01	0	39	0	220200960	57	4805
2026-01-28 12:07:19.96	180.47	20.26	-42.7	-45.3	24.7	6.06e-01	0	39	0	222298112	57	4729
2026-01-28 12:07:20.95	180.55	20.40	-42.6	-45.1	24.9	6.03e-01	0	39	0	223870976	57	4646
2026-01-28 12:07:21.94	180.62	20.55	-42.7	-45.2	24.8	6.07e-01	0	39	0	225968128	57	4693
2026-01-28 12:07:22.94	180.70	20.69	-42.7	-45.2	24.8	6.07e-01	0	39	0	227540992	57	4699
2026-01-28 12:07:23.93	180.78	20.84	-42.8	-45.4	24.7	6.06e-01	0	39	0	229638144	57	4764
2026-01-28 12:07:24.92	180.86	20.99	-42.9	-45.4	24.6	6.07e-01	0	39	0	231211008	57	4790
2026-01-28 12:07:25.91	180.93	21.13	-43.0	-45.5	24.5	6.08e-01	0	39	0	233308160	57	4867
2026-01-28 12:07:26.91	181.02	21.28	-43.0	-45.6	24.5	6.06e-01	0	39	0	234881024	57	4906
2026-01-28 12:07:27.90	181.10	21.43	-43.1	-45.6	24.5	6.05e-01	0	39	0	236978176	57	4910
2026-01-28 12:07:28.89	181.18	21.58	-43.1	-45.6	24.5	6.05e-01	0	39	0	239075328	57	4906
2026-01-28 12:07:29.89	181.26	21.74	-43.0	-45.5	24.5	6.06e-01	0	39	0	240648192	57	4862
2026-01-28 12:07:30.88	181.34	21.89	-42.8	-45.4	24.7	6.06e-01	0	39	0	242745344	57	4777
2026-01-28 12:07:31.87	181.43	22.04	-42.8	-45.3	24.7	6.06e-01	0	39	0	244318208	57	4758
2026-01-28 12:07:32.87	181.51	22.20	-42.9	-45.4	24.6	6.06e-01	0	39	0	246415360	57	4809
2026-01-28 12:07:33.86	181.60	22.35	-43.0	-45.6	24.5	6.06e-01	0	39	0	247988224	57	4875
2026-01-28 12:07:34.85	181.69	22.51	-43.2	-45.7	24.4	6.08e-01	0	39	0	250085376	57	4979
2026-01-28 12:07:35.85	181.78	22.67	-43.2	-45.7	24.4	6.07e-01	0	39	0	251658240	57	4956
2026-01-28 12:07:36.84	181.86	22.83	-43.2	-45.8	24.3	6.04e-01	0	39	0	253755392	57	4993
2026-01-28 12:07:37.83	181.95	22.99	-43.2	-45.7	24.5	6.06e-01	0	39	0	255852544	57	4951
2026-01-28 12:07:38.82	182.04	23.15	-43.1	-45.7	24.4	6.07e-01	0	39	0	257425408	57	4952
2026-01-28 12:07:39.82	182.14	23.31	-43.1	-45.7	24.4	6.05e-01	0	39	0	259522560	57	4941
2026-01-28 12:07:40.81	182.23	23.47	-43.1	-45.6	24.5	6.06e-01	0	39	0	261095424	57	4911
2026-01-28 12:07:41.80	182.32	23.63	-43.0	-45.5	24.6	6.06e-01	0	39	0	263192576	57	4835
2026-01-28 12:07:42.79	182.41	23.80	-43.1	-45.6	24.5	6.06e-01	0	39	0	264765440	57	4910
2026-01-28 12:07:43.79	182.51	23.97	-43.2	-45.7	24.4	6.06e-01	0	39	0	266862592	57	4938
2026-01-28 12:07:44.78	182.61	24.13	-43.2	-45.7	24.4	6.05e-01	0	39	0	268959744	57	4943
2026-01-28 12:07:45.77	182.70	24.30	-43.2	-45.8	24.4	6.06e-01	0	39	0	270532608	57	4997
2026-01-28 12:07:46.77	182.80	24.47	-43.2	-45.7	24.4	6.06e-01	0	39	0	272105472	57	4970
2026-01-28 12:07:47.76	182.90	24.64	-43.3	-45.7	24.4	6.06e-01	0	39	0	274202624	57	4971
2026-01-28 12:07:48.75	183.00	24.81	-43.2	-45.6	24.5	6.10e-01	0	39	0	276299776	57	4908
2026-01-28 12:07:49.75	183.11	24.98	-43.1	-45.6	24.5	6.06e-01	0	39	0	277872640	57	4892
2026-01-28 12:07:50.74	183.21	25.16	-43.2	-45.7	24.5	6.06e-01	0	39	0	279969792	57	4937
2026-01-28 12:07:51.73	183.31	25.33	-43.1	-45.5	24.6	6.05e-01	0	39	0	281542656	57	4858
2026-01-28 12:07:52.73	183.42	25.51	-43.2	-45.7	24.4	6.06e-01	0	39	0	283639808	57	4930
2026-01-28 12:07:53.72	183.52	25.69	-43.3	-45.8	24.3	6.07e-01	0	39	0	285212672	57	5004
2026-01-28 12:07:54.71	183.63	25.86	-43.3	-45.8	24.3	6.05e-01	0	39	0	287309824	57	5018
2026-01-28 12:07:55.71	183.74	26.04	-43.3	-45.8	24.3	6.06e-01	0	39	0	288882688	57	5007
2026-01-28 12:07:56.70	183.85	26.22	-43.3	-45.8	24.4	6.07e-01	0	39	0	290979840	57	4985
2026-01-28 12:07:57.69	183.96	26.41	-43.2	-45.7	24.4	6.06e-01	0	39	0	293076992	57	4959
2026-01-28 12:07:58.68	184.07	26.59	-43.1	-45.6	24.5	6.05e-01	0	39	0	294649856	57	4892
2026-01-28 12:07:59.68	184.19	26.77	-43.0	-45.5	24.7	6.04e-01	0	39	0	296747008	57	4821
2026-01-28 12:08:00.67	184.30	26.96	-43.0	-45.5	24.7	6.07e-01	0	39	0	298319872	57	4818
2026-01-28 12:08:01.66	184.42	27.15	-43.0	-45.4	24.8	6.05e-01	0	39	0	300417024	57	4774
2026-01-28 12:08:02.65	184.54	27.33	-43.0	-45.4	24.7	6.07e-01	0	39	0	301989888	57	4797
2026-01-28 12:08:03.65	184.66	27.52	-43.0	-45.5	24.6	6.05e-01	0	39	0	304087040	57	4821
2026-01-28 12:08:04.64	184.78	27.71	-42.7	-45.1	25.0	6.08e-01	0	39	0	305659904	57	4647
2026-01-28 12:08:05.63	184.90	27.91	-42.7	-45.1	25.0	6.06e-01	0	39	0	307757056	57	4627
2026-01-28 12:08:06.63	185.03	28.10	-42.8	-45.2	24.9	6.07e-01	0	39	0	309854208	57	4674
2026-01-28 12:08:07.62	185.15	28.29	-42.9	-45.3	24.8	6.07e-01	0	39	0	311427072	57	4737
2026-01-28 12:08:08.61	185.28	28.49	-42.9	-45.3	24.7	6.08e-01	0	39	0	313524224	57	4738
2026-01-28 12:08:09.60	185.41	28.69	-42.9	-45.3	24.8	6.05e-01	0	39	0	315097088	57	4749
2026-01-28 12:08:10.60	185.54	28.89	-42.8	-45.2	24.9	6.06e-01	0	39	0	317194240	57	4676
2026-01-28 12:08:11.59	185.67	29.09	-42.8	-45.2	24.9	6.07e-01	0	39	0	318767104	57	4688
2026-01-28 12:08:12.58	185.80	29.29	-42.7	-45.1	25.0	6.07e-01	0	39	0	320864256	57	4601
2026-01-28 12:08:13.58	185.94	29.49	-42.6	-44.9	25.2	6.05e-01	0	39	0	322961408	57	4533
2026-01-28 12:08:14.57	186.07	29.70	-42.6	-44.9	25.1	6.06e-01	0	39	0	324534272	57	4535
2026-01-28 12:08:15.56	186.21	29.90	-42.7	-45.1	25.0	6.06e-01	0	39	0	326107136	57	4632
2026-01-28 12:08:16.55	186.35	30.11	-42.7	-45.1	25.0	6.05e-01	0	39	0	328204288	57	4638
2026-01-28 12:08:17.55	186.50	30.32	-42.7	-45.1	25.0	6.06e-01	0	39	0	330301440	57	4636
2026-01-28 12:08:18.54	186.64	30.53	-42.6	-45.0	25.1	6.07e-01	0	39	0	331874304	57	4557
2026-01-28 12:08:19.53	186.78	30.74	-42.6	-44.9	25.2	6.04e-01	0	39	0	333971456	57	4519
2026-01-28 12:08:20.53	186.93	30.95	-42.6	-45.0	25.1	6.05e-01	0	39	0	335544320	57	4566
2026-01-28 12:08:21.52	187.08	31.17	-42.9	-45.3	24.8	6.09e-01	0	39	0	337641472	57	4746
2026-01-28 12:08:22.51	187.23	31.38	-43.1	-45.5	24.7	6.07e-01	0	39	0	339214336	57	4836
2026-01-28 12:08:23.50	187.39	31.60	-43.1	-45.5	24.6	6.05e-01	0	39	0	341311488	57	4858
2026-01-28 12:08:24.50	187.55	31.82	-43.1	-45.5	24.7	6.06e-01	0	39	0	342884352	57	4829
2026-01-28 12:08:25.49	187.70	32.04	-43.1	-45.5	24.7	6.06e-01	0	39	0	344981504	57	4851
2026-01-28 12:08:26.48	187.86	32.26	-43.3	-45.7	24.5	6.07e-01	0	39	0	347078656	57	4929
2026-01-28 12:08:27.48	188.03	32.49	-43.6	-46.1	24.2	6.06e-01	0	39	0	348651520	57	5160
2026-01-28 12:08:28.47	188.19	32.71	-43.2	-45.7	24.5	6.07e-01	0	39	0	350748672	57	4928
2026-01-28 12:08:29.46	188.36	32.94	-43.1	-45.5	24.7	6.07e-01	0	39	0	352321536	57	4848
2026-01-28 12:08:30.45	188.53	33.16	-43.3	-45.7	24.5	6.06e-01	0	39	0	354418688	57	4948
2026-01-28 12:08:31.45	188.70	33.39	-43.3	-45.8	24.4	6.08e-01	0	39	0	355991552	57	5003
2026-01-28 12:08:32.44	188.87	33.63	-43.4	-45.8	24.4	6.04e-01	0	39	0	358088704	57	5007
2026-01-28 12:08:33.43	189.05	33.86	-43.5	-45.9	24.3	6.06e-01	0	39	0	359661568	57	5077
2026-01-28 12:08:34.43	189.23	34.09	-43.6	-46.0	24.2	6.07e-01	0	39	0	361758720	57	5158
2026-01-28 12:08:35.42	189.41	34.33	-43.6	-46.2	24.0	6.07e-01	0	39	0	363331584	57	5257
2026-01-28 12:08:36.41	189.60	34.57	-43.6	-46.1	24.2	6.07e-01	0	39	0	365428736	57	5173
2026-01-28 12:08:37.40	189.78	34.81	-43.7	-46.2	24.1	6.06e-01	0	39	0	367525888	58	4961
2026-01-28 12:08:38.40	189.98	35.05	-43.7	-46.3	24.0	6.06e-01	0	39	0	369098752	58	5011
2026-01-28 12:08:39.39	190.17	35.29	-43.8	-46.4	23.9	6.09e-01	0	39	0	371195904	58	5082
2026-01-28 12:08:40.38	190.36	35.53	-44.0	-46.6	23.7	6.08e-01	0	39	0	372768768	58	5195
2026-01-28 12:08:41.37	190.56	35.78	-44.3	-46.9	23.4	6.07e-01	0	39	0	374865920	59	5074
2026-01-28 12:08:42.37	190.77	36.03	-44.2	-46.8	23.4	6.10e-01	0	39	0	376438784	59	5031
2026-01-28 12:08:43.36	190.97	36.28	-44.2	-46.8	23.6	6.07e-01	0	39	0	378535936	59	4993
2026-01-28 12:08:44.35	191.18	36.53	-44.2	-46.8	23.6	6.06e-01	0	39	0	380108800	59	4989
2026-01-28 12:08:45.35	191.39	36.78	-44.5	-47.2	23.2	6.04e-01	0	39	0	382205952	59	5223
2026-01-28 12:08:46.34	191.61	37.03	-44.6	-47.3	22.9	6.08e-01	0	39	0	384303104	60	5037
2026-01-28 12:08:47.33	191.82	37.29	-44.4	-47.1	23.2	6.06e-01	0	39	0	385875968	60	4882
2026-01-28 12:08:48.32	192.05	37.55	-44.3	-47.0	23.2	6.07e-01	0	39	0	387973120	60	4853
2026-01-28 12:08:49.32	192.27	37.81	-44.4	-47.2	23.1	6.07e-01	0	39	0	389545984	60	4940
2026-01-28 12:08:50.31	192.50	38.07	-44.9	-47.7	22.6	6.06e-01	0	39	0	391643136	60	5243
2026-01-28 12:08:51.30	192.73	38.33	-44.7	-47.5	22.8	6.07e-01	0	39	0	393216000	60	5133
2026-01-28 12:08:52.30	192.97	38.59	-44.5	-47.2	23.0	6.06e-01	0	39	0	395313152	60	4960
2026-01-28 12:08:53.29	193.21	38.86	-44.4	-47.1	23.0	6.04e-01	0	39	0	396886016	60	4916
2026-01-28 12:08:54.28	193.45	39.13	-44.4	-47.2	23.1	6.07e-01	0	39	0	398983168	60	4931
2026-01-28 12:08:55.27	193.70	39.39	-44.2	-46.9	23.3	6.07e-01	0	39	0	400556032	60	4791
2026-01-28 12:08:56.27	193.96	39.67	-44.2	-46.9	23.3	6.06e-01	0	39	0	402653184	60	4777
2026-01-28 12:08:57.26	194.21	39.94	-44.3	-46.9	23.3	6.06e-01	0	39	0	404750336	60	4794
2026-01-28 12:08:58.25	194.47	40.21	-44.2	-46.9	23.4	6.06e-01	0	39	0	406323200	60	4773
2026-01-28 12:08:59.25	194.74	40.49	-44.1	-46.8	23.5	6.09e-01	0	39	0	408420352	60	4711
2026-01-28 12:09:00.24	195.01	40.76	-44.1	-46.7	23.7	6.08e-01	0	39	0	409993216	59	4962
2026-01-28 12:09:01.23	195.29	41.04	-44.0	-46.6	23.7	6.07e-01	0	39	0	412090368	59	4898
2026-01-28 12:09:02.23	195.57	41.32	-44.0	-46.6	23.7	6.06e-01	0	39	0	413663232	59	4898
2026-01-28 12:09:03.22	195.85	41.60	-43.8	-46.3	24.0	6.08e-01	0	39	0	415760384	59	4743
2026-01-28 12:09:04.21	196.14	41.89	-43.6	-46.0	24.2	6.08e-01	0	39	0	417333248	59	4596
2026-01-28 12:09:05.20	196.43	42.17	-43.3	-45.8	24.5	6.04e-01	0	39	0	419430400	58	4720
2026-01-28 12:09:06.20	196.74	42.46	-43.1	-45.4	24.8	6.05e-01	0	39	0	421527552	58	4545
2026-01-28 12:09:07.19	197.04	42.75	-43.1	-45.5	24.8	6.05e-01	0	39	0	423100416	58	4546
2026-01-28 12:09:08.18	197.35	43.03	-42.8	-45.2	24.9	6.05e-01	0	39	0	425197568	57	4701
2026-01-28 12:09:09.18	197.67	43.33	-42.8	-45.2	24.9	6.06e-01	0	39	0	426770432	57	4697
2026-01-28 12:09:10.17	197.99	43.62	-42.9	-45.3	24.9	6.06e-01	0	39	0	428867584	57	4740
2026-01-28 12:09:11.16	198.32	43.91	-42.8	-45.1	25.0	6.07e-01	0	39	0	430440448	57	4645
2026-01-28 12:09:12.15	198.65	44.20	-42.8	-45.2	24.9	6.04e-01	0	39	0	432537600	57	4692
2026-01-28 12:09:13.14	198.99	44.50	-42.8	-45.2	25.0	6.06e-01	0	39	0	434110464	57	4655
2026-01-28 12:09:14.14	199.34	44.80	-42.8	-45.2	25.0	6.05e-01	0	39	0	436207616	57	4658
2026-01-28 12:09:15.13	199.70	45.09	-42.8	-45.1	25.1	6.07e-01	0	39	0	438304768	57	4614
2026-01-28 12:09:16.12	200.06	45.39	-42.8	-45.1	25.1	6.06e-01	0	39	0	439877632	57	4615
2026-01-28 12:09:17.12	200.43	45.69	-42.9	-45.2	24.9	6.06e-01	0	39	0	441974784	57	4690
2026-01-28 12:09:18.11	200.80	45.99	-42.5	-44.8	25.4	6.05e-01	0	39	0	443547648	57	4462
2026-01-28 12:09:19.10	201.18	46.30	-42.5	-44.9	25.3	6.06e-01	0	39	0	445644800	56	4765
2026-01-28 12:09:20.10	201.57	46.60	-42.6	-44.9	25.2	6.07e-01	0	39	0	447217664	56	4790
2026-01-28 12:09:21.09	201.97	46.91	-42.7	-45.0	25.2	6.06e-01	0	39	0	449314816	56	4848
2026-01-28 12:09:22.08	202.37	47.21	-42.7	-45.1	25.1	6.08e-01	0	39	0	450887680	56	4872
2026-01-28 12:09:23.07	202.78	47.51	-42.5	-44.9	25.2	6.05e-01	0	39	0	452984832	56	4813
2026-01-28 12:09:24.07	203.21	47.82	-42.3	-44.8	25.4	6.08e-01	0	39	0	454557696	56	4726
2026-01-28 12:09:25.06	203.64	48.13	-42.5	-44.9	25.3	6.07e-01	0	39	0	456654848	56	4783
2026-01-28 12:09:26.05	204.07	48.44	-42.5	-44.9	25.2	6.06e-01	0	39	0	458752000	56	4802
2026-01-28 12:09:27.05	204.52	48.75	-42.5	-44.8	25.3	6.07e-01	0	39	0	460324864	56	4756
2026-01-28 12:09:28.04	204.98	49.05	-42.7	-45.0	25.2	6.08e-01	0	39	0	462422016	56	4842
2026-01-28 12:09:29.03	205.44	49.36	-42.8	-45.1	25.1	6.04e-01	0	39	0	463994880	56	4879
2026-01-28 12:09:30.02	205.92	49.67	-42.9	-45.3	24.9	6.08e-01	0	39	0	466092032	56	5013
2026-01-28 12:09:31.02	206.40	49.98	-42.7	-45.0	25.1	6.08e-01	0	39	0	467664896	56	4829
2026-01-28 12:09:32.01	206.90	50.29	-42.7	-45.0	25.1	6.08e-01	0	39	0	469762048	56	4830
2026-01-28 12:09:33.00	207.40	50.60	-42.6	-44.9	25.2	6.04e-01	0	39	0	471334912	56	4809
2026-01-28 12:09:34.00	207.92	50.91	-42.5	-44.8	25.4	6.06e-01	0	39	0	473432064	56	4706
2026-01-28 12:09:34.99	208.44	51.22	-42.6	-44.8	25.3	6.07e-01	0	39	0	475529216	56	4756
2026-01-28 12:09:35.98	208.98	51.53	-42.7	-45.0	25.1	6.06e-01	0	39	0	477102080	56	4849
2026-01-28 12:09:36.97	209.53	51.83	-42.5	-44.8	25.3	6.06e-01	0	39	0	479199232	56	4751
2026-01-28 12:09:37.97	210.09	52.14	-42.6	-44.9	25.3	6.08e-01	0	39	0	480772096	56	4762
2026-01-28 12:09:38.96	210.66	52.45	-42.7	-45.0	25.2	6.05e-01	0	39	0	482869248	56	4822
2026-01-28 12:09:39.95	211.24	52.75	-42.2	-44.4	25.6	6.06e-01	0	39	0	484442112	56	4539
2026-01-28 12:09:40.95	211.84	53.06	-42.4	-44.7	25.4	6.08e-01	0	39	0	486539264	56	4653
2026-01-28 12:09:41.94	212.45	53.36	-42.4	-44.7	25.4	6.03e-01	0	39	0	488112128	56	4692
2026-01-28 12:09:42.93	213.06	53.66	-42.4	-44.7	25.4	6.08e-01	0	39	0	490209280	56	4664
2026-01-28 12:09:43.92	213.70	53.96	-42.5	-44.8	25.3	6.06e-01	0	39	0	491782144	56	4726
2026-01-28 12:09:44.92	214.35	54.26	-42.5	-44.7	25.3	6.05e-01	0	39	0	493879296	56	4703
2026-01-28 12:09:45.91	215.01	54.56	-42.9	-45.3	24.9	6.06e-01	0	39	0	495976448	56	4984
2026-01-28 12:09:46.90	215.68	54.85	-42.8	-45.1	25.1	6.09e-01	0	39	0	497549312	56	4882
2026-01-28 12:09:47.90	216.37	55.15	-42.9	-45.2	25.0	6.06e-01	0	39	0	499646464	56	4961
2026-01-28 12:09:48.89	217.07	55.44	-43.1	-45.5	24.7	6.04e-01	0	39	0	501219328	56	5118
2026-01-28 12:09:49.88	217.79	55.72	-43.2	-45.6	24.7	6.08e-01	0	39	0	503316480	56	5184
2026-01-28 12:09:50.88	218.53	56.01	-43.4	-45.9	24.4	6.06e-01	0	39	0	504889344	57	5073
2026-01-28 12:09:51.87	219.27	56.29	-43.3	-45.8	24.4	6.07e-01	0	39	0	506986496	57	5039
2026-01-28 12:09:52.86	220.03	56.57	-43.6	-46.3	24.0	6.03e-01	0	39	0	508559360	57	5319
2026-01-28 12:09:53.85	220.81	56.84	-43.9	-46.5	23.9	6.07e-01	0	39	0	510656512	58	5136
2026-01-28 12:09:54.85	221.61	57.11	-44.3	-47.0	23.4	6.07e-01	0	39	0	512753664	59	5117
2026-01-28 12:09:55.84	222.41	57.38	-43.9	-46.3	24.0	6.06e-01	0	39	0	514326528	59	4748
2026-01-28 12:09:56.83	223.23	57.64	-44.4	-47.0	23.4	6.07e-01	0	39	0	516423680	59	5102
2026-01-28 12:09:57.83	224.08	57.90	-44.3	-47.0	23.4	6.04e-01	0	39	0	517996544	59	5121
2026-01-28 12:09:58.82	224.94	58.15	-44.3	-46.9	23.5	6.06e-01	0	39	0	520093696	59	5094
2026-01-28 12:09:59.81	225.81	58.40	-44.5	-47.1	23.3	6.06e-01	0	39	0	521666560	59	5162
2026-01-28 12:10:00.80	226.69	58.65	-44.3	-46.9	23.4	6.07e-01	0	39	0	523763712	59	5090
2026-01-28 12:10:01.80	227.61	58.89	-44.6	-47.3	23.1	6.07e-01	0	39	0	525336576	59	5293
2026-01-28 12:10:02.79	228.53	59.12	-44.5	-47.3	23.0	6.06e-01	0	39	0	527433728	60	5032
2026-01-28 12:10:03.78	229.46	59.34	-44.3	-47.1	23.2	6.05e-01	0	39	0	529530880	60	4907
2026-01-28 12:10:04.78	230.42	59.57	-44.7	-47.5	22.8	6.06e-01	0	39	0	531103744	60	5156
2026-01-28 12:10:05.77	231.39	59.78	-44.7	-47.6	22.8	6.07e-01	0	39	0	533200896	60	5179
2026-01-28 12:10:06.76	232.38	59.99	-44.9	-47.8	22.6	6.06e-01	0	39	0	534773760	60	5304
2026-01-28 12:10:07.75	233.38	60.19	-45.1	-48.1	22.3	6.05e-01	0	39	0	536870912	60	5495
2026-01-28 12:10:08.75	234.40	60.38	-45.2	-48.0	22.2	6.08e-01	0	39	0	538443776	61	5145
2026-01-28 12:10:09.74	235.43	60.56	-45.2	-48.0	22.3	6.07e-01	0	39	0	540540928	61	5151
2026-01-28 12:10:10.73	236.48	60.74	-45.4	-48.4	22.0	6.10e-01	0	39	0	542113792	61	5376
2026-01-28 12:10:11.73	237.55	60.91	-45.1	-48.0	22.4	6.08e-01	0	39	0	544210944	61	5103
2026-01-28 12:10:12.72	238.62	61.07	-45.3	-48.2	22.3	6.07e-01	0	39	0	545783808	61	5226
2026-01-28 12:10:13.71	239.71	61.23	-45.0	-47.7	22.6	6.06e-01	0	39	0	547880960	61	4982
2026-01-28 12:10:14.71	240.82	61.37	-45.1	-47.9	22.4	6.07e-01	0	39	0	549978112	61	5089
2026-01-28 12:10:15.70	241.93	61.51	-44.9	-47.8	22.6	6.07e-01	0	39	0	551550976	61	4996
2026-01-28 12:10:16.69	243.06	61.63	-45.2	-48.1	22.2	6.07e-01	0	39	0	553648128	61	5217
2026-01-28 12:10:17.68	244.19	61.75	-45.0	-47.7	22.7	6.07e-01	0	39	0	555220992	61	4952
2026-01-28 12:10:18.68	245.35	61.86	-45.2	-48.1	22.3	6.07e-01	0	39	0	557318144	61	5185
2026-01-28 12:10:19.67	246.50	61.96	-45.2	-48.0	22.3	6.07e-01	0	39	0	558891008	61	5148
2026-01-28 12:10:20.66	247.67	62.05	-45.2	-48.0	22.4	6.11e-01	0	39	0	560988160	61	5136
2026-01-28 12:10:21.65	248.84	62.12	-45.5	-48.5	21.9	6.05e-01	0	39	0	562561024	61	5412
2026-01-28 12:10:22.65	250.03	62.19	-45.6	-48.5	21.9	6.08e-01	0	39	0	564658176	61	5454
2026-01-28 12:10:23.64	251.22	62.25	-45.4	-48.4	22.0	6.06e-01	0	39	0	566755328	61	5387
2026-01-28 12:10:24.63	252.41	62.30	-45.1	-47.9	22.4	6.09e-01	0	39	0	568328192	61	5099
2026-01-28 12:10:25.63	253.61	62.33	-45.8	-48.9	21.6	6.06e-01	0	39	0	570425344	62	5341
2026-01-28 12:10:26.62	254.81	62.36	-45.2	-48.1	22.2	6.07e-01	0	39	0	571998208	62	4904
2026-01-28 12:10:27.61	256.01	62.38	-45.2	-48.1	22.3	6.05e-01	0	39	0	574095360	61	5161
2026-01-28 12:10:28.60	257.21	62.38	-45.4	-48.2	22.1	6.07e-01	0	39	0	575668224	61	5272
2026-01-28 12:10:29.60	258.42	62.38	-44.9	-47.8	22.5	6.07e-01	0	40	0	577765376	61	5003
2026-01-28 12:10:30.59	259.62	62.36	-44.6	-47.5	22.8	6.06e-01	0	39	0	579338240	61	4844
2026-01-28 12:10:31.58	260.82	62.33	-45.1	-48.0	22.4	6.08e-01	0	39	0	581435392	61	5146
2026-01-28 12:10:32.57	262.01	62.30	-45.1	-47.9	22.4	6.05e-01	0	39	0	583008256	61	5081
2026-01-28 12:10:33.57	263.22	62.25	-44.7	-47.5	22.9	6.06e-01	0	39	0	585105408	61	4818
2026-01-28 12:10:34.56	264.40	62.19	-44.9	-47.8	22.6	6.09e-01	0	39	0	587202560	61	4998
2026-01-28 12:10:35.55	265.58	62.13	-45.1	-47.9	22.4	6.07e-01	0	39	0	588775424	61	5099
2026-01-28 12:10:36.55	266.76	62.05	-44.8	-47.6	22.7	6.05e-01	0	39	0	590872576	61	4874
2026-01-28 12:10:37.54	267.93	61.96	-44.8	-47.6	22.8	6.07e-01	0	39	0	592445440	61	4877
2026-01-28 12:10:38.53	269.08	61.86	-44.9	-47.7	22.7	6.07e-01	0	39	0	594542592	61	4939
2026-01-28 12:10:39.52	270.23	61.75	-45.1	-47.9	22.5	6.07e-01	0	39	0	596115456	61	5089
2026-01-28 12:10:40.52	271.37	61.64	-44.8	-47.5	22.8	6.04e-01	0	39	0	598212608	61	4840
2026-01-28 12:10:41.51	272.50	61.51	-44.5	-47.3	23.0	6.07e-01	0	39	0	599785472	61	4723
2026-01-28 12:10:42.50	273.61	61.38	-44.5	-47.2	23.1	6.06e-01	0	39	0	601882624	60	4982
2026-01-28 12:10:43.50	274.72	61.23	-44.5	-47.2	23.1	6.09e-01	0	39	0	603979776	60	4944
2026-01-28 12:10:44.49	275.80	61.08	-44.3	-47.0	23.3	6.08e-01	0	39	0	605552640	60	4842
2026-01-28 12:10:45.48	276.88	60.92	-44.2	-46.7	23.7	6.08e-01	0	39	0	607649792	59	4965
2026-01-28 12:10:46.48	277.95	60.75	-44.5	-47.2	23.2	6.08e-01	0	39	0	609222656	60	4928
2026-01-28 12:10:47.47	278.99	60.57	-44.4	-47.0	23.3	6.07e-01	0	39	0	611319808	60	4849
2026-01-28 12:10:48.46	280.02	60.39	-44.1	-46.7	23.6	6.05e-01	0	39	0	612892672	60	4697
2026-01-28 12:10:49.45	281.03	60.19	-44.3	-46.8	23.6	6.06e-01	0	39	0	614989824	59	5038
2026-01-28 12:10:50.45	282.04	59.99	-44.6	-47.4	23.1	6.07e-01	0	40	0	616562688	59	5341
2026-01-28 12:10:51.44	283.02	59.79	-44.5	-47.2	23.2	6.06e-01	0	40	0	618659840	59	5247
2026-01-28 12:10:52.43	283.99	59.57	-44.3	-47.0	23.4	6.07e-01	0	39	0	620756992	59	5125
2026-01-28 12:10:53.42	284.94	59.35	-44.3	-47.0	23.4	6.07e-01	0	39	0	622329856	59	5126
2026-01-28 12:10:54.42	285.89	59.13	-44.2	-46.9	23.5	6.07e-01	0	39	0	624427008	59	5079
2026-01-28 12:10:55.41	286.80	58.89	-44.4	-47.1	23.3	6.06e-01	0	39	0	625999872	59	5193
2026-01-28 12:10:56.41	287.72	58.66	-43.7	-46.2	24.1	6.07e-01	0	39	0	628097024	59	4673
2026-01-28 12:10:57.40	288.60	58.41	-43.8	-46.3	24.1	6.05e-01	0	39	0	629669888	59	4729
2026-01-28 12:10:58.39	289.47	58.17	-44.0	-46.6	23.8	6.06e-01	0	39	0	631767040	59	4886
2026-01-28 12:10:59.38	290.32	57.91	-43.9	-46.4	24.0	6.07e-01	0	39	0	633339904	59	4782
2026-01-28 12:11:00.38	291.17	57.65	-43.6	-46.1	24.3	6.05e-01	0	39	0	635437056	59	4604
2026-01-28 12:11:01.37	291.99	57.39	-43.5	-46.0	24.4	6.08e-01	0	39	0	637009920	58	4837
2026-01-28 12:11:02.36	292.80	57.13	-43.5	-46.0	24.3	6.07e-01	0	40	0	639107072	58	4815
2026-01-28 12:11:03.36	293.60	56.86	-43.6	-46.1	24.2	6.06e-01	0	39	0	641204224	58	4898
2026-01-28 12:11:04.35	294.37	56.58	-43.5	-46.0	24.3	6.07e-01	0	39	0	642777088	58	4828
2026-01-28 12:11:05.34	295.13	56.31	-43.2	-45.6	24.7	6.05e-01	0	39	0	644874240	58	4624
2026-01-28 12:11:06.34	295.88	56.02	-43.1	-45.5	24.8	6.07e-01	0	39	0	646447104	58	4582
2026-01-28 12:11:07.33	296.61	55.74	-42.9	-45.4	24.9	6.05e-01	0	39	0	648544256	57	4773
2026-01-28 12:11:08.32	297.32	55.46	-43.1	-45.5	24.7	6.05e-01	0	39	0	650117120	57	4866
2026-01-28 12:11:09.31	298.02	55.17	-43.1	-45.5	24.8	6.08e-01	0	39	0	652214272	57	4844
2026-01-28 12:11:10.31	298.72	54.88	-43.0	-45.4	24.8	6.07e-01	0	39	0	653787136	57	4786
2026-01-28 12:11:11.30	299.39	54.58	-42.7	-45.1	25.1	6.06e-01	0	39	0	655884288	57	4601
2026-01-28 12:11:12.29	300.04	54.29	-42.7	-45.0	25.3	6.06e-01	0	39	0	657981440	57	4552
2026-01-28 12:11:13.29	300.70	53.99	-43.0	-45.3	25.0	6.07e-01	0	39	0	659554304	57	4756
2026-01-28 12:11:14.28	301.33	53.69	-42.9	-45.3	25.0	6.07e-01	0	39	0	661651456	57	4707
2026-01-28 12:11:15.27	301.94	53.39	-43.0	-45.5	24.8	6.06e-01	0	39	0	663224320	57	4817
2026-01-28 12:11:16.26	302.55	53.09	-42.6	-44.9	25.3	6.06e-01	0	39	0	665321472	57	4520
2026-01-28 12:11:17.26	303.15	52.78	-42.7	-45.0	25.2	6.08e-01	0	39	0	666894336	57	4592
2026-01-28 12:11:18.25	303.73	52.48	-43.0	-45.4	24.8	6.04e-01	0	39	0	668991488	57	4813
2026-01-28 12:11:19.25	304.30	52.17	-43.3	-45.8	24.5	6.09e-01	0	39	0	670564352	57	4997
2026-01-28 12:11:20.24	304.86	51.87	-43.2	-45.7	24.6	6.07e-01	0	39	0	672661504	57	4961
2026-01-28 12:11:21.23	305.41	51.56	-43.4	-45.9	24.5	6.08e-01	0	39	0	674758656	57	5058
2026-01-28 12:11:22.22	305.94	51.26	-43.3	-45.8	24.5	6.05e-01	0	39	0	676331520	57	5002
2026-01-28 12:11:23.22	306.47	50.95	-43.2	-45.6	24.7	6.09e-01	0	39	0	678428672	57	4895
2026-01-28 12:11:24.21	306.98	50.64	-43.3	-45.8	24.3	6.09e-01	0	39	0	680001536	57	5029
2026-01-28 12:11:25.20	307.49	50.33	-43.6	-46.3	24.1	6.05e-01	0	39	0	682098688	57	5300
2026-01-28 12:11:26.19	307.98	50.03	-43.7	-46.4	23.9	6.06e-01	0	39	0	683671552	58	5072
2026-01-28 12:11:27.19	308.47	49.72	-43.8	-46.4	23.9	6.06e-01	0	39	0	685768704	58	5074
2026-01-28 12:11:28.18	308.94	49.41	-43.7	-46.2	24.2	6.05e-01	0	39	0	687341568	58	4932
2026-01-28 12:11:29.17	309.40	49.10	-43.6	-46.1	24.1	6.09e-01	0	39	0	689438720	58	4926
2026-01-28 12:11:30.17	309.86	48.79	-43.5	-46.0	24.3	6.08e-01	0	39	0	691011584	58	4842
2026-01-28 12:11:31.16	310.31	48.49	-43.5	-46.2	24.2	6.07e-01	0	39	0	693108736	58	4928
2026-01-28 12:11:32.15	310.74	48.18	-43.6	-46.2	24.0	6.08e-01	0	39	0	695205888	58	4974
2026-01-28 12:11:33.14	311.17	47.88	-43.6	-46.2	24.1	6.07e-01	0	39	0	696778752	58	4951
2026-01-28 12:11:34.14	311.59	47.57	-43.6	-46.0	24.3	6.06e-01	0	39	0	698875904	58	4863
2026-01-28 12:11:35.13	312.01	47.27	-43.5	-46.0	24.2	6.07e-01	0	39	0	700448768	58	4853
2026-01-28 12:11:36.12	312.41	46.96	-43.4	-45.8	24.5	6.05e-01	0	39	0	702545920	58	4731
2026-01-28 12:11:37.12	312.81	46.66	-43.4	-45.9	24.4	6.06e-01	0	39	0	704118784	58	4761
2026-01-28 12:11:38.11	313.20	46.36	-43.3	-45.8	24.5	6.08e-01	0	39	0	706215936	58	4740
2026-01-28 12:11:39.10	313.58	46.06	-43.3	-45.9	24.4	6.08e-01	0	40	0	707788800	58	4772
2026-01-28 12:11:40.09	313.95	45.76	-43.3	-45.8	24.5	6.06e-01	0	39	0	709885952	58	4748
2026-01-28 12:11:41.09	314.32	45.46	-43.3	-45.8	24.5	6.08e-01	0	39	0	711983104	58	4758
2026-01-28 12:11:42.08	314.68	45.16	-43.2	-45.7	24.6	6.05e-01	0	39	0	713555968	58	4658
2026-01-28 12:11:43.07	315.03	44.86	-43.2	-45.7	24.6	6.05e-01	0	39	0	715653120	58	4687
2026-01-28 12:11:44.07	315.38	44.57	-43.3	-45.9	24.4	6.07e-01	0	39	0	717225984	58	4762
2026-01-28 12:11:45.06	315.72	44.27	-43.4	-45.9	24.4	6.05e-01	0	40	0	719323136	58	4814
2026-01-28 12:11:46.05	316.05	43.98	-43.3	-45.8	24.5	6.04e-01	0	39	0	720896000	58	4740
2026-01-28 12:11:47.04	316.38	43.69	-43.3	-45.8	24.5	6.07e-01	0	39	0	722993152	58	4749
2026-01-28 12:11:48.04	316.71	43.40	-43.4	-45.9	24.4	6.07e-01	0	39	0	724566016	58	4782
2026-01-28 12:11:49.03	317.02	43.11	-43.5	-46.1	24.2	6.09e-01	0	40	0	726663168	58	4879
2026-01-28 12:11:50.02	317.33	42.82	-43.7	-46.2	24.1	6.07e-01	0	39	0	728236032	58	4982
2026-01-28 12:11:51.02	317.64	42.53	-43.5	-46.0	24.3	6.05e-01	0	39	0	730333184	58	4847
2026-01-28 12:11:52.01	317.94	42.25	-43.5	-46.0	24.3	6.06e-01	0	39	0	732430336	58	4853
2026-01-28 12:11:53.00	318.23	41.97	-44.1	-56.1	3.7	7.50e-01	0	40	104	732430336	58	15546
2026-01-28 12:11:53.99	318.52	41.69	-44.1	-56.2	3.8	7.46e-01	0	40	104	732430336	58	15656
2026-01-28 12:11:54.99	318.81	41.40	-44.2	-56.1	3.8	7.49e-01	0	39	104	732430336	59	14648
2026-01-28 12:11:55.98	319.09	41.13	-46.8	-59.7	3.8	7.44e-01	0	39	104	732430336	64	16656
2026-01-28 12:11:56.97	319.36	40.85	-44.5	-56.8	3.8	7.45e-01	0	39	104	732430336	61	14129
2026-01-28 12:11:57.96	319.63	40.58	-50.8	-69.6	3.8	7.46e-01	0	39	104	732430336	72	32788
2026-01-28 12:11:58.96	319.90	40.30	-47.6	-61.0	3.7	7.50e-01	0	39	104	732430336	66	17116
2026-01-28 12:11:59.95	320.16	40.03	-45.9	-58.4	3.8	7.51e-01	0	39	104	732430336	62	16017
2026-01-28 12:12:00.94	320.42	39.76	-44.5	-56.5	3.8	7.50e-01	0	40	104	732430336	60	14414
2026-01-28 12:12:01.94	320.67	39.49	-44.4	-56.1	3.8	7.49e-01	0	39	104	732430336	60	13743
2026-01-28 12:12:02.93	320.92	39.22	-44.4	-56.1	3.9	7.49e-01	0	39	104	732430336	60	13834
2026-01-28 12:12:03.92	321.16	38.95	-44.3	-56.1	3.9	7.43e-01	0	40	104	732430336	60	13788
2026-01-28 12:12:04.91	321.40	38.69	-45.5	-58.0	3.7	7.45e-01	0	39	104	732430336	61	16155
2026-01-28 12:12:05.91	321.64	38.43	-44.3	-56.2	3.4	7.62e-01	0	40	104	732430336	60	14038
2026-01-28 12:12:06.90	321.87	38.17	-50.9	-68.9	3.8	7.48e-01	0	39	104	732430336	72	30149
2026-01-28 12:12:07.89	322.10	37.91	-46.9	-60.2	3.9	7.37e-01	0	39	104	732430336	65	16608
2026-01-28 12:12:08.89	322.33	37.65	-44.9	-57.5	3.6	7.57e-01	0	39	104	732430336	60	16253
2026-01-28 12:12:09.88	322.55	37.39	-44.2	-56.6	4.0	7.38e-01	0	40	104	732430336	59	15427
2026-01-28 12:12:10.87	322.77	37.14	-43.9	-56.3	4.1	7.37e-01	0	39	104	732430336	59	14969
2026-01-28 12:12:11.86	322.98	36.89	-44.0	-56.5	4.1	7.32e-01	0	40	104	732430336	59	15317
2026-01-28 12:12:12.86	323.19	36.63	-43.6	-56.0	3.7	7.48e-01	0	40	104	732430336	59	14420
2026-01-28 12:12:13.85	323.40	36.38	-43.8	-55.9	3.8	7.44e-01	0	39	104	732430336	58	15114
2026-01-28 12:12:14.84	323.61	36.14	-43.6	-55.6	3.8	7.45e-01	0	39	104	732430336	58	14547
2026-01-28 12:12:15.84	323.81	35.89	-48.4	-67.4	3.8	7.48e-01	0	40	104	732430336	67	33737
2026-01-28 12:12:16.83	324.01	35.64	-46.4	-59.3	3.8	7.44e-01	0	39	104	732430336	64	15869
2026-01-28 12:12:17.82	324.20	35.40	-44.3	-56.1	3.8	7.45e-01	0	39	104	732430336	59	14597
2026-01-28 12:12:18.82	324.40	35.16	-43.7	-55.3	3.8	7.44e-01	0	39	104	732430336	59	13411
2026-01-28 12:12:19.81	324.59	34.92	-43.5	-55.1	3.8	7.48e-01	0	39	104	732430336	59	13009
2026-01-28 12:12:20.80	324.78	34.68	-43.5	-55.0	3.8	7.44e-01	0	40	104	732430336	58	13715
2026-01-28 12:12:21.79	324.96	34.45	-43.0	-54.6	3.8	7.46e-01	0	40	104	732430336	58	13067
2026-01-28 12:12:22.79	325.14	34.21	-43.4	-55.4	3.8	7.47e-01	0	39	104	732430336	57	15188
2026-01-28 12:12:23.78	325.32	33.98	-42.9	-54.8	3.8	7.46e-01	0	40	104	732430336	57	14190
2026-01-28 12:12:24.77	325.50	33.75	-49.2	-65.0	3.7	7.49e-01	0	40	104	732430336	68	24392
2026-01-28 12:12:25.77	325.68	33.51	-45.5	-58.4	3.9	7.46e-01	0	40	104	732430336	62	16032
2026-01-28 12:12:26.76	325.85	33.29	-43.2	-55.1	3.8	7.44e-01	0	40	104	732430336	57	14652
2026-01-28 12:12:27.75	326.02	33.06	-43.0	-54.9	3.9	7.48e-01	0	40	104	732430336	58	13427
2026-01-28 12:12:28.75	326.19	32.83	-42.8	-54.7	3.8	7.41e-01	0	39	104	732430336	57	13901
2026-01-28 12:12:29.74	326.35	32.61	-42.5	-54.3	3.8	7.44e-01	0	39	104	732430336	57	13411
2026-01-28 12:12:30.73	326.51	32.39	-42.7	-54.5	3.8	7.45e-01	0	39	104	732430336	57	13640
2026-01-28 12:12:31.73	326.67	32.16	-43.7	-55.6	3.8	7.47e-01	0	40	104	732430336	57	15432
2026-01-28 12:12:32.72	326.83	31.94	-42.9	-54.7	3.8	7.47e-01	0	39	104	732430336	57	13893
2026-01-28 12:12:33.71	326.99	31.73	-48.7	-63.9	3.8	7.52e-01	0	39	104	732430336	67	22760
2026-01-28 12:12:34.70	327.14	31.51	-45.5	-58.0	3.8	7.48e-01	0	40	104	732430336	63	14433
2026-01-28 12:12:35.70	327.30	31.29	-42.9	-54.6	3.8	7.44e-01	0	39	104	732430336	57	13804
2026-01-28 12:12:36.69	327.45	31.08	-43.1	-54.8	3.8	7.42e-01	0	39	104	732430336	58	13319
2026-01-28 12:12:37.68	327.59	30.87	-42.9	-54.5	3.8	7.45e-01	0	39	104	732430336	57	13710
2026-01-28 12:12:38.68	327.74	30.66	-42.6	-54.3	3.8	7.47e-01	0	39	104	732430336	57	13293
2026-01-28 12:12:39.67	327.88	30.45	-42.4	-54.0	3.8	7.46e-01	0	39	104	732430336	56	13687
2026-01-28 12:12:40.66	328.03	30.24	-43.0	-54.9	3.8	7.47e-01	0	39	104	732430336	56	15128
2026-01-28 12:12:41.66	328.17	30.04	-42.5	-54.3	3.8	7.46e-01	0	39	104	732430336	56	14099
2026-01-28 12:12:42.65	328.31	29.83	-48.0	-62.4	3.8	7.48e-01	0	39	104	732430336	66	20093
2026-01-28 12:12:43.64	328.44	29.63	-45.8	-58.9	3.8	7.46e-01	0	40	104	732430336	63	16024
2026-01-28 12:12:44.63	328.58	29.43	-42.7	-54.7	3.8	7.45e-01	0	39	104	732430336	57	13946
2026-01-28 12:12:45.63	328.71	29.22	-42.8	-55.0	3.8	7.47e-01	0	40	104	732430336	57	14395
2026-01-28 12:12:46.62	328.84	29.03	-42.9	-55.0	3.8	7.45e-01	0	40	104	732430336	57	14493
2026-01-28 12:12:47.61	328.97	28.83	-42.8	-54.9	3.8	7.46e-01	0	40	104	732430336	57	14256
2026-01-28 12:12:48.60	329.10	28.63	-42.8	-54.9	3.8	7.42e-01	0	39	104	732430336	57	14232
2026-01-28 12:12:49.60	329.23	28.44	-43.4	-55.4	3.8	7.49e-01	0	40	104	732430336	57	15103
2026-01-28 12:12:50.59	329.36	28.24	-43.4	-55.3	3.8	7.48e-01	0	40	104	732430336	58	14132
2026-01-28 12:12:51.58	329.48	28.05	-47.1	-60.9	3.8	7.47e-01	0	39	104	732430336	64	19140
2026-01-28 12:12:52.58	329.60	27.86	-45.9	-59.2	3.9	7.46e-01	0	40	104	732430336	64	15740
2026-01-28 12:12:53.57	329.73	27.67	-43.3	-55.0	3.9	7.48e-01	0	40	104	732430336	58	13597
2026-01-28 12:12:54.56	329.84	27.48	-43.9	-55.7	3.7	7.44e-01	0	40	104	732430336	59	13966
2026-01-28 12:12:55.55	329.96	27.29	-43.3	-55.1	3.8	7.43e-01	0	40	104	732430336	58	13847
2026-01-28 12:12:56.55	330.08	27.11	-42.9	-54.7	3.8	7.45e-01	0	40	104	732430336	57	13993
2026-01-28 12:12:57.54	330.20	26.92	-42.7	-54.7	3.8	7.47e-01	0	40	104	732430336	57	14046
2026-01-28 12:12:58.53	330.31	26.74	-43.1	-55.3	3.8	7.46e-01	0	39	104	732430336	57	14896
2026-01-28 12:12:59.53	330.42	26.56	-43.1	-55.2	3.8	7.47e-01	0	40	104	732430336	58	14040
2026-01-28 12:13:00.52	330.54	26.37	-45.7	-59.1	3.8	7.45e-01	0	39	104	732430336	61	18502
2026-01-28 12:13:01.51	330.65	26.20	-47.0	-62.4	3.9	7.44e-01	0	40	104	732430336	66	20082
2026-01-28 12:13:02.51	330.76	26.01	-43.7	-56.1	3.8	7.46e-01	0	39	104	732430336	59	14635
2026-01-28 12:13:03.50	330.86	25.84	-44.1	-56.6	3.8	7.44e-01	0	40	104	732430336	59	15402
2026-01-28 12:13:04.49	330.97	25.66	-43.6	-55.9	3.8	7.47e-01	0	39	104	732430336	59	14216
2026-01-28 12:13:05.49	331.08	25.49	-43.7	-55.8	3.8	7.45e-01	0	40	104	732430336	59	14093
2026-01-28 12:13:06.48	331.18	25.31	-43.5	-55.6	3.8	7.46e-01	0	39	104	732430336	59	13759
2026-01-28 12:13:07.47	331.28	25.14	-43.7	-55.7	3.8	7.43e-01	0	40	104	732430336	59	13915
2026-01-28 12:13:08.47	331.39	24.97	-44.1	-56.2	3.8	7.46e-01	0	40	104	732430336	59	14711
2026-01-28 12:13:09.46	331.49	24.80	-45.9	-58.6	3.8	7.45e-01	0	40	104	732430336	62	16344
2026-01-28 12:13:10.45	331.59	24.63	-48.6	-63.3	4.0	7.44e-01	0	40	104	732430336	69	18762
2026-01-28 12:13:11.44	331.69	24.46	-44.5	-56.8	3.8	7.45e-01	0	40	104	732430336	61	14066
2026-01-28 12:13:12.44	331.78	24.29	-44.2	-56.4	3.8	7.42e-01	0	40	104	732430336	60	14212
2026-01-28 12:13:13.43	331.88	24.12	-43.8	-55.7	3.8	7.44e-01	0	40	104	732430336	59	14038
2026-01-28 12:13:14.42	331.98	23.96	-43.4	-55.3	3.8	7.46e-01	0	39	104	732430336	58	14113
2026-01-28 12:13:15.42	332.07	23.79	-43.3	-55.1	3.8	7.46e-01	0	40	104	732430336	58	13826
2026-01-28 12:13:16.41	332.17	23.63	-43.3	-55.0	3.8	7.47e-01	0	39	104	732430336	58	13677
2026-01-28 12:13:17.40	332.26	23.47	-43.7	-55.6	3.8	7.45e-01	0	40	104	732430336	58	14684
2026-01-28 12:13:18.40	332.35	23.31	-45.1	-57.3	3.9	7.46e-01	0	39	104	732430336	60	15865
2026-01-28 12:13:19.39	332.44	23.15	-48.4	-64.1	4.0	7.42e-01	0	40	104	732430336	69	20618
2026-01-28 12:13:20.38	332.53	22.99	-44.6	-57.3	3.8	7.43e-01	0	39	104	732430336	61	14946
2026-01-28 12:13:21.38	332.62	22.83	-43.8	-56.1	3.8	7.45e-01	0	40	104	732430336	59	14650
2026-01-28 12:13:22.37	332.71	22.67	-43.3	-55.4	3.8	7.45e-01	0	39	104	732430336	58	14324
2026-01-28 12:13:23.36	332.80	22.52	-43.1	-55.3	3.8	7.41e-01	0	40	104	732430336	58	14161
2026-01-28 12:13:24.35	332.88	22.36	-43.1	-55.3	3.8	7.47e-01	0	40	104	732430336	58	14111
2026-01-28 12:13:25.35	332.97	22.21	-43.3	-55.4	3.8	7.47e-01	0	40	104	732430336	58	14235
2026-01-28 12:13:26.34	333.05	22.06	-44.3	-56.7	3.8	7.46e-01	0	40	104	732430336	60	14788
2026-01-28 12:13:27.33	333.14	21.90	-44.5	-57.1	3.8	7.47e-01	0	40	104	732430336	59	16383
2026-01-28 12:13:28.33	333.22	21.75	-47.8	-66.5	3.9	7.40e-01	0	40	104	732430336	67	30722
2026-01-28 12:13:29.32	333.30	21.60	-45.8	-58.8	3.9	7.45e-01	0	39	104	732430336	63	15776
2026-01-28 12:13:30.31	333.38	21.45	-44.5	-56.6	3.8	7.47e-01	0	39	104	732430336	59	15402
2026-01-28 12:13:31.31	333.47	21.30	-43.7	-55.6	3.8	7.48e-01	0	40	104	732430336	59	13728
2026-01-28 12:13:32.30	333.55	21.16	-43.4	-55.1	3.9	7.46e-01	0	40	104	732430336	58	13856
2026-01-28 12:13:33.29	333.62	21.01	-43.2	-55.0	3.8	7.50e-01	0	39	104	732430336	58	13631
2026-01-28 12:13:34.28	333.70	20.86	-43.2	-55.0	3.8	7.50e-01	0	39	104	732430336	58	13578
2026-01-28 12:13:35.28	333.78	20.72	-43.6	-55.4	3.8	7.45e-01	0	39	104	732430336	58	14343
2026-01-28 12:13:36.27	333.86	20.58	-44.4	-56.4	3.9	7.44e-01	0	40	104	732430336	59	15115
2026-01-28 12:13:37.26	333.93	20.43	-50.1	-68.0	3.9	7.38e-01	0	40	104	732430336	71	28899
2026-01-28 12:13:38.26	334.01	20.29	-46.1	-59.2	3.9	7.45e-01	0	40	104	732430336	64	15676
2026-01-28 12:13:39.25	334.09	20.15	-44.1	-56.2	3.8	7.47e-01	0	40	104	732430336	59	14829
2026-01-28 12:13:40.24	334.16	20.01	-43.5	-55.4	3.9	7.43e-01	0	40	104	732430336	58	14299
2026-01-28 12:13:41.23	334.23	19.87	-43.3	-55.3	3.8	7.46e-01	0	40	104	732430336	58	14063
2026-01-28 12:13:42.23	334.31	19.73	-43.0	-55.0	3.8	7.44e-01	0	40	104	732430336	58	13607
2026-01-28 12:13:43.22	334.38	19.59	-42.9	-54.9	3.8	7.47e-01	0	40	104	732430336	57	14361
2026-01-28 12:13:44.21	334.45	19.45	-43.9	-56.3	3.8	7.42e-01	0	40	104	732430336	58	15894
2026-01-28 12:13:45.21	334.52	19.32	-43.7	-56.0	3.8	7.48e-01	0	40	104	732430336	58	15268
2026-01-28 12:13:46.20	334.59	19.18	-49.7	-68.6	3.9	7.43e-01	0	40	104	732430336	70	32554
2026-01-28 12:13:47.19	334.66	19.05	-46.0	-60.0	3.8	7.46e-01	0	40	104	732430336	63	18166
2026-01-28 12:13:48.18	334.73	18.91	-43.8	-56.1	3.8	7.44e-01	0	40	104	732430336	58	15501
2026-01-28 12:13:49.18	334.80	18.78	-43.3	-55.4	3.8	7.48e-01	0	40	104	732430336	58	14228
2026-01-28 12:13:50.17	334.87	18.64	-43.1	-55.0	3.8	7.45e-01	0	40	104	732430336	58	13663
2026-01-28 12:13:51.16	334.93	18.51	-43.0	-54.9	3.8	7.44e-01	0	40	104	732430336	58	13493
2026-01-28 12:13:52.16	335.00	18.38	-42.9	-54.8	3.8	7.46e-01	0	40	104	732430336	57	14093
2026-01-28 12:13:53.15	335.07	18.25	-43.8	-55.9	3.8	7.49e-01	0	40	104	732430336	58	15080
2026-01-28 12:13:54.14	335.13	18.12	-43.9	-56.0	3.8	7.46e-01	0	40	104	732430336	58	15261
2026-01-28 12:13:55.13	335.20	17.99	-49.3	-69.2	3.8	7.44e-01	0	40	104	732430336	69	37269
2026-01-28 12:13:56.13	335.26	17.86	-46.8	-60.6	3.8	7.48e-01	0	40	104	732430336	64	18402
2026-01-28 12:13:57.12	335.33	17.74	-43.7	-55.7	3.8	7.44e-01	0	40	104	732430336	58	14746
2026-01-28 12:13:58.11	335.39	17.61	-43.3	-55.2	3.8	7.46e-01	0	40	104	732430336	58	13940
2026-01-28 12:13:59.11	335.45	17.48	-43.2	-55.1	3.8	7.45e-01	0	40	104	732430336	58	13741
2026-01-28 12:14:00.10	335.52	17.36	-43.2	-55.1	3.8	7.46e-01	0	40	104	732430336	58	13782
2026-01-28 12:14:01.09	335.58	17.23	-43.2	-55.0	3.8	7.48e-01	0	40	104	732430336	58	13656
2026-01-28 12:14:02.08	335.64	17.11	-44.7	-57.0	3.8	7.43e-01	0	40	104	732430336	60	15306
2026-01-28 12:14:03.08	335.70	16.98	-43.9	-55.9	3.8	7.44e-01	0	40	104	732430336	59	14361
2026-01-28 12:14:04.07	335.76	16.86	-49.5	-69.2	3.7	7.47e-01	0	40	104	732430336	69	37141
2026-01-28 12:14:05.06	335.82	16.74	-47.3	-61.3	3.8	7.47e-01	0	40	104	732430336	65	18866
2026-01-28 12:14:06.06	335.88	16.62	-43.6	-55.4	3.8	7.43e-01	0	40	104	732430336	58	14358
2026-01-28 12:14:07.05	335.94	16.50	-43.3	-55.0	3.8	7.48e-01	0	40	104	732430336	58	13709
2026-01-28 12:14:08.04	336.00	16.38	-43.1	-54.9	3.8	7.43e-01	0	39	104	732430336	58	13471
2026-01-28 12:14:09.04	336.06	16.26	-42.9	-54.7	3.8	7.45e-01	0	40	104	732430336	57	13957
2026-01-28 12:14:10.03	336.11	16.14	-43.0	-54.7	3.8	7.44e-01	0	40	104	732430336	57	14038
2026-01-28 12:14:11.02	336.17	16.02	-43.4	-55.3	3.8	7.44e-01	0	40	104	732430336	57	15022
2026-01-28 12:14:12.02	336.23	15.90	-44.0	-56.1	3.8	7.47e-01	0	40	104	732430336	58	15512
2026-01-28 12:14:13.01	336.28	15.78	-49.9	-68.7	3.8	7.47e-01	0	39	104	732430336	70	33056
2026-01-28 12:14:14.00	336.34	15.67	-47.3	-61.5	3.8	7.48e-01	0	40	104	732430336	65	19267
2026-01-28 12:14:14.99	336.39	15.55	-43.5	-55.4	3.8	7.44e-01	0	40	104	732430336	58	14343
2026-01-28 12:14:15.99	336.45	15.44	-43.4	-55.3	3.8	7.43e-01	0	40	104	732430336	58	14170
2026-01-28 12:14:16.98	336.50	15.32	-43.2	-55.1	3.9	7.44e-01	0	40	104	732430336	58	13842
2026-01-28 12:14:17.97	336.56	15.21	-43.0	-54.8	3.8	7.45e-01	0	40	104	732430336	58	13323
2026-01-28 12:14:18.97	336.61	15.09	-43.0	-54.8	3.8	7.44e-01	0	40	104	732430336	58	13311
2026-01-28 12:14:19.96	336.67	14.98	-43.4	-55.2	3.8	7.46e-01	0	40	104	732430336	58	14041
2026-01-28 12:14:20.95	336.72	14.87	-44.2	-56.3	3.9	7.45e-01	0	39	104	732430336	59	14969
2026-01-28 12:14:21.94	336.77	14.76	-49.3	-68.0	3.7	7.50e-01	0	40	104	732430336	69	32424
2026-01-28 12:14:22.94	336.82	14.64	-47.7	-62.1	3.8	7.49e-01	0	40	104	732430336	66	19391
2026-01-28 12:14:23.93	336.87	14.53	-43.5	-55.3	3.8	7.43e-01	0	40	104	732430336	58	14185
2026-01-28 12:14:24.92	336.93	14.42	-43.5	-55.3	3.8	7.44e-01	0	40	104	732430336	58	14097
2026-01-28 12:14:25.91	336.98	14.31	-43.5	-55.4	3.8	7.44e-01	0	40	104	732430336	58	14274
2026-01-28 12:14:26.91	337.03	14.20	-43.2	-55.2	3.8	7.46e-01	0	40	104	732430336	58	13948
2026-01-28 12:14:27.90	337.08	14.09	-43.2	-55.2	3.8	7.46e-01	0	40	104	732430336	58	14041
2026-01-28 12:14:28.89	337.13	13.99	-43.3	-55.6	3.8	7.42e-01	0	40	104	732430336	58	14548
2026-01-28 12:14:29.89	337.18	13.88	-44.1	-56.6	3.8	7.44e-01	0	40	104	732430336	58	16328
2026-01-28 12:14:30.88	337.23	13.77	-50.0	-67.7	3.8	7.47e-01	0	40	104	732430336	70	29589
2026-01-28 12:14:31.87	337.28	13.66	-46.8	-61.1	3.8	7.45e-01	0	40	104	732430336	65	18462
2026-01-28 12:14:32.87	337.32	13.56	-43.4	-55.7	3.8	7.46e-01	0	40	104	732430336	58	14805
2026-01-28 12:14:33.86	337.37	13.45	-43.4	-55.8	3.8	7.42e-01	0	39	104	732430336	58	14987
2026-01-28 12:14:34.85	337.42	13.35	-43.5	-55.8	3.8	7.44e-01	0	40	104	732430336	58	15038
2026-01-28 12:14:35.84	337.47	13.24	-43.4	-55.7	3.8	7.44e-01	0	40	104	732430336	58	14854
2026-01-28 12:14:36.84	337.52	13.14	-43.4	-55.6	3.8	7.48e-01	0	40	104	732430336	58	14662
2026-01-28 12:14:37.83	337.56	13.03	-43.6	-56.1	3.8	7.46e-01	0	40	104	732430336	58	15461
2026-01-28 12:14:38.82	337.61	12.93	-44.1	-56.8	3.8	7.45e-01	0	40	104	732430336	58	16702
2026-01-28 12:14:39.82	337.66	12.83	-48.1	-65.9	3.8	7.52e-01	0	40	104	732430336	66	30334
2026-01-28 12:14:40.81	337.70	12.73	-46.6	-61.5	3.8	7.48e-01	0	40	104	732430336	64	20509
2026-01-28 12:14:41.80	337.75	12.62	-43.1	-55.6	3.8	7.44e-01	0	40	104	732430336	58	14655
2026-01-28 12:14:42.79	337.79	12.52	-43.1	-55.7	3.8	7.48e-01	0	40	104	732430336	58	14737
2026-01-28 12:14:43.79	337.84	12.42	-42.9	-55.6	3.8	7.43e-01	0	40	104	732430336	57	15434
2026-01-28 12:14:44.78	337.88	12.32	-42.6	-55.3	3.8	7.47e-01	0	40	104	732430336	57	14993
2026-01-28 12:14:45.77	337.93	12.22	-42.7	-55.4	3.8	7.45e-01	0	40	104	732430336	57	15095
2026-01-28 12:14:46.77	337.97	12.12	-42.8	-55.4	3.8	7.47e-01	0	40	104	732430336	57	15199
2026-01-28 12:14:47.76	338.01	12.02	-43.4	-56.5	3.8	7.45e-01	0	40	104	732430336	57	17116
2026-01-28 12:14:48.75	338.06	11.92	-47.4	-64.9	3.7	7.49e-01	0	40	104	732430336	65	28423
2026-01-28 12:14:49.75	338.10	11.82	-45.9	-61.8	3.8	7.46e-01	0	40	104	732430336	63	22437
2026-01-28 12:14:50.74	338.14	11.73	-43.2	-55.8	3.8	7.42e-01	0	40	104	732430336	58	14957
2026-01-28 12:14:51.73	338.19	11.63	-43.2	-55.7	3.8	7.47e-01	0	40	104	732430336	58	14765
2026-01-28 12:14:52.73	338.23	11.53	-43.4	-55.7	3.8	7.48e-01	0	40	104	732430336	58	14809
2026-01-28 12:14:53.72	338.27	11.43	-43.3	-55.3	3.8	7.47e-01	0	40	104	732430336	58	14173
2026-01-28 12:14:54.71	338.31	11.34	-43.3	-55.4	3.8	7.48e-01	0	40	104	732430336	58	14288
2026-01-28 12:14:55.70	338.36	11.24	-43.3	-55.5	3.8	7.44e-01	0	40	104	732430336	58	14409
2026-01-28 12:14:56.70	338.40	11.15	-44.4	-56.8	3.8	7.47e-01	0	40	104	732430336	59	15882
2026-01-28 12:14:57.69	338.44	11.05	-46.9	-63.4	3.8	7.51e-01	0	40	104	732430336	64	25448
2026-01-28 12:14:58.68	338.48	10.96	-47.0	-62.2	3.8	7.47e-01	0	40	104	732430336	65	20804
2026-01-28 12:14:59.68	338.52	10.86	-43.9	-56.5	3.8	7.47e-01	0	40	104	732430336	59	15239
2026-01-28 12:15:00.67	338.56	10.77	-43.4	-55.9	3.8	7.47e-01	0	40	104	732430336	58	15184
2026-01-28 12:15:01.66	338.60	10.68	-43.3	-55.9	3.8	7.48e-01	0	40	104	732430336	58	15187
2026-01-28 12:15:02.66	338.64	10.58	-43.1	-55.9	3.8	7.45e-01	0	40	104	732430336	58	15166
2026-01-28 12:15:03.65	338.68	10.49	-43.1	-55.9	3.8	7.46e-01	0	40	104	732430336	58	15215
2026-01-28 12:15:04.64	338.72	10.40	-43.1	-56.0	3.8	7.45e-01	0	40	104	732430336	58	15227
2026-01-28 12:15:05.64	338.76	10.31	-44.7	-58.5	3.8	7.44e-01	0	40	104	732430336	59	19359
2026-01-28 12:15:06.63	338.80	10.21	-46.2	-60.9	3.8	7.47e-01	0	40	104	732430336	62	21474
2026-01-28 12:15:07.62	338.84	10.12	-45.5	-60.4	3.8	7.45e-01	0	40	104	732430336	63	18995
2026-01-28 12:15:08.62	338.87	10.03	-46.2	-61.5	3.8	7.45e-01	0	40	104	732430336	62	23005
2026-01-28 12:15:09.61	338.91	9.94	-45.4	-60.5	3.8	7.44e-01	0	40	104	732430336	63	19322
2026-01-28 12:15:10.60	338.95	9.85	-44.8	-57.9	3.8	7.44e-01	0	40	104	732430336	60	16902
2026-01-28 12:15:11.59	338.99	9.76	-44.4	-57.0	3.8	7.46e-01	0	40	104	732430336	60	15384
2026-01-28 12:15:12.59	339.03	9.67	-44.1	-56.5	3.8	7.40e-01	0	40	104	732430336	60	14488
2026-01-28 12:15:13.58	339.06	9.58	-44.0	-56.0	3.8	7.48e-01	0	40	104	732430336	59	14494
2026-01-28 12:15:14.57	339.10	9.50	-43.7	-55.7	3.8	7.46e-01	0	40	104	732430336	59	14010
2026-01-28 12:15:15.57	339.14	9.41	-46.3	-60.6	3.8	7.50e-01	0	40	104	732430336	63	19556
2026-01-28 12:15:16.56	339.17	9.32	-46.8	-62.3	3.9	7.45e-01	0	40	104	732430336	65	21150
2026-01-28 12:15:17.55	339.21	9.23	-45.6	-58.9	3.9	7.44e-01	0	40	104	732430336	63	16081
2026-01-28 12:15:18.55	339.25	9.14	-44.0	-56.4	3.8	7.46e-01	0	40	104	732430336	59	15064
2026-01-28 12:15:19.54	339.28	9.06	-44.0	-56.3	3.8	7.46e-01	0	40	104	732430336	59	14892
2026-01-28 12:15:20.53	339.32	8.97	-45.0	-57.9	3.8	7.45e-01	0	40	104	732430336	60	17005
2026-01-28 12:15:21.52	339.35	8.88	-47.5	-70.8	3.8	7.45e-01	0	40	104	732430336	67	50095
2026-01-28 12:15:22.52	339.39	8.80	-48.5	-70.9	3.8	7.44e-01	0	40	104	732430336	69	45255
2026-01-28 12:15:23.51	339.43	8.71	-50.2	-70.9	3.8	7.46e-01	0	40	104	732430336	71	40088
2026-01-28 12:15:24.50	339.46	8.63	-49.2	-70.8	3.8	7.44e-01	0	40	104	732430336	69	44794
2026-01-28 12:15:25.50	339.50	8.54	-48.3	-70.7	3.8	7.46e-01	0	40	104	732430336	67	49553
2026-01-28 12:15:26.49	339.53	8.46	-48.4	-70.6	3.8	7.42e-01	0	40	104	732430336	68	46486
2026-01-28 12:15:27.48	339.56	8.37	-49.6	-70.7	3.9	7.46e-01	0	40	104	732430336	69	44091
2026-01-28 12:15:28.48	339.60	8.29	-49.9	-70.8	3.8	7.44e-01	0	40	104	732430336	71	39953
2026-01-28 12:15:29.47	339.63	8.20	-49.9	-70.8	3.8	7.46e-01	0	40	104	732430336	71	39789
2026-01-28 12:15:30.46	339.67	8.12	-49.5	-70.8	3.8	7.43e-01	0	40	104	732430336	70	42091
2026-01-28 12:15:31.46	339.70	8.04	-49.4	-70.7	3.8	7.50e-01	0	40	104	732430336	70	41787
2026-01-28 12:15:32.45	339.73	7.95	-50.8	-70.9	3.9	7.45e-01	0	40	104	732430336	72	38096
2026-01-28 12:15:33.44	339.77	7.87	-50.7	-70.9	3.8	7.47e-01	0	40	104	732430336	72	38002
2026-01-28 12:15:34.43	339.80	7.79	-50.7	-70.9	3.8	7.47e-01	0	40	104	732430336	72	38240
2026-01-28 12:15:35.42	339.83	7.71	-50.5	-71.0	3.8	7.48e-01	0	40	104	732430336	72	38288
2026-01-28 12:15:36.42	339.87	7.63	-50.7	-71.0	3.8	7.48e-01	0	40	104	732430336	72	38519
2026-01-28 12:15:37.41	339.90	7.54	-50.6	-71.0	3.8	7.47e-01	0	40	104	732430336	72	38622
2026-01-28 12:15:38.40	339.93	7.46	-49.8	-71.1	3.8	7.45e-01	0	40	104	732430336	71	41277
2026-01-28 12:15:39.40	339.96	7.38	-49.7	-71.1	3.8	7.47e-01	0	40	104	732430336	71	41204
2026-01-28 12:15:40.39	340.00	7.30	-49.8	-71.1	3.8	7.47e-01	0	40	104	732430336	71	41186
2026-01-28 12:15:41.38	340.03	7.22	-49.7	-71.1	3.8	7.48e-01	0	40	104	732430336	71	41130
2026-01-28 12:15:42.38	340.06	7.14	-49.7	-71.1	3.8	7.44e-01	0	40	104	732430336	71	41137
2026-01-28 12:15:43.37	340.09	7.06	-49.7	-71.1	3.8	7.44e-01	0	40	104	732430336	71	41122
2026-01-28 12:15:44.36	340.12	6.98	-49.7	-71.1	3.8	7.45e-01	0	40	104	732430336	71	41068
2026-01-28 12:15:45.35	340.15	6.90	-49.7	-71.1	3.8	7.45e-01	0	40	104	732430336	71	41076
2026-01-28 12:15:46.35	340.19	6.82	-49.7	-71.1	3.8	7.45e-01	0	40	104	732430336	71	41057
2026-01-28 12:15:47.34	340.22	6.75	-49.7	-71.1	3.8	7.48e-01	0	40	104	732430336	71	41077
2026-01-28 12:15:48.33	340.25	6.67	-49.7	-71.1	3.8	7.46e-01	0	40	104	732430336	71	41078
2026-01-28 12:15:49.33	340.28	6.59	-49.7	-71.1	3.8	7.44e-01	0	40	104	732430336	71	40992
2026-01-28 12:15:50.32	340.31	6.51	-49.7	-71.1	3.8	7.45e-01	0	40	104	732430336	71	41013
2026-01-28 12:15:51.31	340.34	6.43	-49.7	-71.1	3.8	7.45e-01	0	40	104	732430336	71	41032
2026-01-28 12:15:52.31	340.37	6.36	-49.7	-71.1	3.8	7.47e-01	0	40	104	732430336	71	41010
2026-01-28 12:15:53.30	340.40	6.28	-49.7	-71.0	3.8	7.44e-01	0	40	104	732430336	71	40961
2026-01-28 12:15:54.29	340.43	6.20	-49.7	-71.1	3.8	7.42e-01	0	40	104	732430336	71	40983
2026-01-28 12:15:55.28	340.46	6.12	-49.7	-71.1	3.8	7.45e-01	0	40	104	732430336	71	40992
2026-01-28 12:15:56.28	340.49	6.05	-49.7	-71.0	3.8	7.47e-01	0	40	104	732430336	71	40926
2026-01-28 12:15:57.27	340.52	5.97	-49.7	-71.0	3.8	7.47e-01	0	40	104	732430336	71	40944
2026-01-28 12:15:58.26	340.55	5.90	-49.7	-71.0	3.8	7.45e-01	0	40	104	732430336	71	40905
2026-01-28 12:15:59.26	340.58	5.82	-49.7	-71.0	3.8	7.46e-01	0	40	104	732430336	71	40932
2026-01-28 12:16:00.25	340.61	5.74	-49.7	-71.0	3.8	7.44e-01	0	40	104	732430336	71	40936
2026-01-28 12:16:01.24	340.64	5.67	-49.7	-71.1	3.8	7.46e-01	0	40	104	732430336	71	40998
2026-01-28 12:16:02.23	340.66	5.60	-49.7	-71.1	3.8	7.45e-01	0	40	104	732430336	71	41025
2026-01-28 12:16:03.23	340.69	5.52	-49.7	-71.0	3.8	7.46e-01	0	40	104	732430336	71	40936
2026-01-28 12:16:04.22	340.72	5.45	-49.7	-71.0	3.8	7.47e-01	0	40	104	732430336	71	40948
2026-01-28 12:16:05.21	340.75	5.37	-49.7	-71.0	3.8	7.46e-01	0	40	104	732430336	71	40804
2026-01-28 12:16:06.21	340.78	5.30	-49.7	-71.0	3.8	7.45e-01	0	40	104	732430336	71	40943
