passes_logs/2026/01/28/T1/T1__20260128_125956_FENGYUN_3D_rec.log

#Pass ID: 20260128_125956_FENGYUN 3D
#Satellite: FENGYUN 3D
#Configuration: FENGYUN 3D
#almurnet v.1.7.20251203
#Start time: 2026-01-28 12:59:58

#Version: 2.0.20230620
#Station: T1
#Location: 37.570604 lon 55.790049 lat
#TLE: 1 43010U 17072A   26027.90082829  .00000305  00000+0  16579-3 0  9998
#TLE: 2 43010  98.9960 359.9183 0002511  88.1058 272.0405 14.19701796425082

#Time	Az	El	Level	Level2	SNR	BER	BlckErr	Temp	State	Recorded	gain1	gain2
2026-01-28 12:59:58.33	192.27	5.17	-49.9	-62.3	3.8	8.47e-01	0	40	0	0	70	15820
2026-01-28 12:59:59.32	192.33	5.23	-50.2	-62.3	3.8	8.46e-01	0	40	104	0	71	15023
2026-01-28 13:00:00.31	192.39	5.30	-50.3	-62.3	3.8	8.47e-01	0	40	104	0	71	15014
2026-01-28 13:00:01.31	192.44	5.37	-50.2	-62.3	3.8	8.47e-01	0	40	104	0	71	15010
2026-01-28 13:00:02.30	192.50	5.43	-50.2	-62.3	3.8	8.47e-01	0	40	104	0	70	15921
2026-01-28 13:00:03.29	192.56	5.50	-50.2	-62.3	3.8	8.47e-01	0	40	104	0	70	15889
2026-01-28 13:00:04.29	192.62	5.57	-50.1	-62.3	3.8	8.46e-01	0	40	104	0	70	15799
2026-01-28 13:00:05.28	192.68	5.63	-50.1	-62.3	3.8	8.46e-01	0	40	104	0	70	15832
2026-01-28 13:00:06.27	192.74	5.70	-50.1	-62.2	3.8	8.46e-01	0	40	104	0	70	15714
2026-01-28 13:00:07.26	192.80	5.77	-50.0	-62.2	3.8	8.47e-01	0	40	104	0	70	15634
2026-01-28 13:00:08.26	192.86	5.84	-49.9	-62.1	3.8	8.47e-01	0	40	104	0	70	15517
2026-01-28 13:00:09.25	192.92	5.91	-50.0	-62.1	3.8	8.46e-01	0	40	104	0	70	15479
2026-01-28 13:00:10.24	192.98	5.97	-49.6	-62.0	3.8	8.46e-01	0	40	104	0	70	15365
2026-01-28 13:00:11.24	193.04	6.04	-49.7	-62.0	3.8	8.46e-01	0	40	104	0	70	15283
2026-01-28 13:00:12.23	193.10	6.11	-49.9	-61.9	3.8	8.46e-01	0	41	104	0	70	15154
2026-01-28 13:00:13.22	193.16	6.18	-49.6	-61.9	3.8	8.47e-01	0	41	104	0	70	15067
2026-01-28 13:00:14.22	193.23	6.25	-49.4	-61.8	3.8	8.46e-01	0	40	104	0	69	15883
2026-01-28 13:00:15.21	193.29	6.32	-47.5	-61.8	3.8	8.47e-01	0	41	104	0	69	15872
2026-01-28 13:00:16.20	193.35	6.39	-47.2	-61.4	3.8	8.47e-01	0	41	104	0	68	15960
2026-01-28 13:00:17.20	193.41	6.46	-49.0	-61.1	3.8	8.47e-01	0	41	104	0	68	15426
2026-01-28 13:00:18.19	193.47	6.53	-48.7	-61.5	3.8	8.47e-01	0	41	104	0	68	16205
2026-01-28 13:00:19.18	193.54	6.60	-48.7	-61.5	3.8	8.47e-01	0	41	104	0	68	16243
2026-01-28 13:00:20.18	193.60	6.67	-48.7	-61.6	3.8	8.47e-01	0	41	104	0	68	16354
2026-01-28 13:00:21.17	193.66	6.74	-48.8	-61.6	3.8	8.46e-01	0	41	104	0	68	16399
2026-01-28 13:00:22.16	193.73	6.80	-48.7	-61.6	3.8	8.46e-01	0	41	104	0	68	16324
2026-01-28 13:00:23.15	193.79	6.88	-48.7	-61.3	3.8	8.47e-01	0	41	104	0	68	15911
2026-01-28 13:00:24.15	193.86	6.95	-48.5	-60.7	3.8	8.47e-01	0	41	104	0	67	15583
2026-01-28 13:00:25.14	193.92	7.02	-48.4	-59.8	3.7	8.46e-01	0	41	104	0	67	14105
2026-01-28 13:00:26.13	193.99	7.09	-48.3	-58.8	3.8	8.45e-01	0	41	104	0	67	12581
2026-01-28 13:00:27.13	194.05	7.16	-48.2	-57.7	4.2	8.39e-01	0	41	0	0	67	11098
2026-01-28 13:00:28.12	194.12	7.23	-48.0	-56.9	4.5	8.27e-01	0	41	0	0	66	10700
2026-01-28 13:00:29.11	194.18	7.30	-47.9	-56.5	4.7	8.13e-01	0	41	0	0	66	10271
2026-01-28 13:00:30.11	194.25	7.37	-48.0	-56.7	4.6	8.14e-01	0	41	0	0	66	10469
2026-01-28 13:00:31.10	194.32	7.44	-48.1	-57.3	4.3	8.27e-01	0	41	0	0	66	11286
2026-01-28 13:00:32.09	194.38	7.52	-48.1	-57.6	4.3	8.37e-01	0	41	0	0	66	11681
2026-01-28 13:00:33.08	194.45	7.59	-47.9	-56.4	4.7	8.25e-01	0	41	0	0	66	10086
2026-01-28 13:00:34.08	194.52	7.66	-47.2	-53.7	6.5	6.28e-01	0	41	0	1048576	65	7834
2026-01-28 13:00:35.07	194.59	7.73	-46.1	-50.9	9.2	5.17e-02	0	41	0	7340032	63	6395
2026-01-28 13:00:36.06	194.65	7.80	-44.6	-48.2	12.1	2.30e-03	0	41	0	12582912	60	5545
2026-01-28 13:00:37.06	194.72	7.88	-43.4	-46.3	13.9	1.94e-05	0	41	0	18874368	58	5034
2026-01-28 13:00:38.05	194.79	7.95	-41.9	-44.4	15.6	0.00e+00	0	41	0	24117248	55	4795
2026-01-28 13:00:39.04	194.86	8.02	-40.8	-43.1	16.9	0.00e+00	0	41	0	29360128	53	4620
2026-01-28 13:00:40.04	194.93	8.10	-40.0	-42.1	17.8	0.00e+00	0	41	0	35651584	52	4373
2026-01-28 13:00:41.03	195.00	8.17	-39.5	-41.5	18.5	0.00e+00	0	41	0	40894464	50	4586
2026-01-28 13:00:42.02	195.07	8.24	-39.2	-41.2	18.8	0.00e+00	0	42	0	46137344	50	4415
2026-01-28 13:00:43.02	195.14	8.32	-39.2	-41.3	18.7	0.00e+00	0	41	0	51380224	50	4463
2026-01-28 13:00:44.01	195.21	8.39	-39.3	-41.4	18.6	0.00e+00	0	41	0	57671680	50	4513
2026-01-28 13:00:45.00	195.28	8.46	-39.8	-41.9	18.1	0.00e+00	0	42	0	62914560	50	4813
2026-01-28 13:00:45.99	195.35	8.54	-40.3	-42.5	17.6	0.00e+00	0	41	0	69206016	51	4847
2026-01-28 13:00:46.99	195.43	8.61	-41.1	-43.4	16.7	0.00e+00	0	41	0	74448896	52	5062
2026-01-28 13:00:47.98	195.50	8.69	-41.8	-44.3	15.8	0.00e+00	0	42	0	79691776	54	5015
2026-01-28 13:00:48.97	195.57	8.76	-42.9	-45.7	14.6	0.00e+00	0	41	0	84934656	56	5238
2026-01-28 13:00:49.96	195.64	8.84	-44.0	-47.2	13.0	1.60e-05	0	42	0	91226112	58	5557
2026-01-28 13:00:50.96	195.72	8.91	-44.8	-48.5	11.7	2.70e-04	0	41	0	96468992	60	5740
2026-01-28 13:00:51.95	195.79	8.99	-45.7	-50.0	10.2	4.80e-03	0	41	0	101711872	62	6088
2026-01-28 13:00:52.94	195.87	9.06	-46.4	-51.4	8.7	2.24e-02	0	42	0	108003328	63	6775
2026-01-28 13:00:53.94	195.94	9.14	-46.6	-51.7	8.4	5.15e-02	0	42	0	113246208	63	7032
2026-01-28 13:00:54.93	196.02	9.21	-42.9	-45.5	14.8	3.31e-04	0	42	0	118489088	57	4851
2026-01-28 13:00:55.92	196.09	9.29	-47.6	-55.0	5.5	3.86e-02	0	42	0	124780544	65	9101
2026-01-28 13:00:56.92	196.17	9.37	-46.2	-50.6	9.5	5.08e-02	0	42	0	128974848	63	6194
2026-01-28 13:00:57.91	196.24	9.44	-43.7	-46.6	13.8	1.14e-05	0	42	0	134217728	57	5470
2026-01-28 13:00:58.90	196.32	9.52	-43.1	-45.8	14.5	3.40e-06	0	42	0	139460608	57	5026
2026-01-28 13:00:59.90	196.40	9.60	-42.6	-45.2	15.1	0.00e+00	0	42	0	145752064	56	4958
2026-01-28 13:01:00.89	196.47	9.67	-41.5	-43.8	16.3	0.00e+00	0	42	0	150994944	55	4484
2026-01-28 13:01:01.88	196.55	9.75	-40.7	-42.9	17.2	0.00e+00	0	42	0	156237824	53	4540
2026-01-28 13:01:02.87	196.63	9.83	-40.3	-42.4	17.6	0.00e+00	0	42	0	162529280	52	4542
2026-01-28 13:01:03.87	196.71	9.91	-40.2	-42.4	17.7	0.00e+00	0	42	0	167772160	52	4504
2026-01-28 13:01:04.86	196.78	9.98	-40.1	-42.2	17.9	0.00e+00	0	42	0	173015040	51	4669
2026-01-28 13:01:05.85	196.86	10.06	-39.9	-42.0	18.1	0.00e+00	0	42	0	179306496	51	4566
2026-01-28 13:01:06.85	196.94	10.14	-39.7	-41.7	18.3	0.00e+00	0	42	0	184549376	51	4431
2026-01-28 13:01:07.84	197.02	10.22	-39.2	-41.2	18.8	0.00e+00	0	42	0	189792256	50	4422
2026-01-28 13:01:08.83	197.10	10.30	-39.1	-41.1	18.9	0.00e+00	0	42	0	195035136	49	4625
2026-01-28 13:01:09.82	197.18	10.38	-39.3	-41.3	18.8	0.00e+00	0	42	0	201326592	49	4731
2026-01-28 13:01:10.82	197.27	10.46	-39.2	-41.2	18.8	0.00e+00	0	42	0	206569472	49	4703
2026-01-28 13:01:11.81	197.35	10.54	-39.1	-41.2	18.9	0.00e+00	0	42	0	212860928	49	4658
2026-01-28 13:01:12.80	197.43	10.62	-39.1	-41.2	18.9	0.00e+00	0	42	0	218103808	49	4659
2026-01-28 13:01:13.80	197.51	10.70	-38.9	-40.9	19.2	0.00e+00	0	42	0	223346688	49	4511
2026-01-28 13:01:14.79	197.59	10.78	-39.0	-41.0	19.1	0.00e+00	0	42	0	229638144	49	4556
2026-01-28 13:01:15.78	197.68	10.85	-38.9	-40.9	19.1	0.00e+00	0	42	0	234881024	49	4525
2026-01-28 13:01:16.78	197.76	10.94	-38.9	-40.9	19.1	0.00e+00	0	42	0	240123904	49	4534
2026-01-28 13:01:17.77	197.85	11.02	-38.8	-40.7	19.3	0.00e+00	0	42	0	245366784	49	4435
2026-01-28 13:01:18.76	197.93	11.10	-38.8	-40.7	19.3	0.00e+00	0	42	0	251658240	49	4427
2026-01-28 13:01:19.75	198.01	11.18	-38.8	-40.7	19.3	0.00e+00	0	42	0	256901120	48	4704
2026-01-28 13:01:20.75	198.10	11.26	-38.7	-40.6	19.4	0.00e+00	0	42	0	263192576	48	4634
2026-01-28 13:01:21.74	198.19	11.34	-38.6	-40.6	19.5	0.00e+00	0	42	0	268435456	48	4599
2026-01-28 13:01:22.73	198.27	11.42	-38.5	-40.5	19.6	0.00e+00	0	42	0	273678336	48	4549
2026-01-28 13:01:23.73	198.36	11.50	-38.5	-40.5	19.6	0.00e+00	0	42	0	278921216	48	4560
2026-01-28 13:01:24.72	198.45	11.59	-38.6	-40.6	19.5	0.00e+00	0	42	0	285212672	48	4609
2026-01-28 13:01:25.71	198.54	11.67	-38.4	-40.3	19.7	0.00e+00	0	42	0	290455552	48	4476
2026-01-28 13:01:26.71	198.62	11.75	-38.3	-40.2	19.8	0.00e+00	0	42	0	295698432	48	4415
2026-01-28 13:01:27.70	198.71	11.83	-38.3	-40.3	19.8	0.00e+00	0	42	0	301989888	48	4442
2026-01-28 13:01:28.69	198.80	11.92	-38.4	-40.3	19.8	0.00e+00	0	42	0	307232768	48	4456
2026-01-28 13:01:29.68	198.89	12.00	-38.4	-40.3	19.7	0.00e+00	0	42	0	312475648	48	4479
2026-01-28 13:01:30.68	198.98	12.08	-38.1	-40.1	19.7	0.00e+00	0	42	0	318767104	47	4631
2026-01-28 13:01:31.67	199.07	12.17	-38.1	-40.0	19.8	0.00e+00	0	42	0	324009984	47	4581
2026-01-28 13:01:32.66	199.16	12.25	-38.0	-39.9	19.8	0.00e+00	0	42	0	329252864	47	4536
2026-01-28 13:01:33.66	199.26	12.33	-38.1	-40.0	19.8	0.00e+00	0	42	0	335544320	47	4569
2026-01-28 13:01:34.65	199.35	12.42	-38.1	-40.0	19.8	0.00e+00	0	42	0	340787200	47	4580
2026-01-28 13:01:35.64	199.44	12.50	-38.1	-40.0	19.8	0.00e+00	0	42	0	346030080	47	4561
2026-01-28 13:01:36.63	199.53	12.59	-38.1	-40.0	19.8	0.00e+00	0	42	0	352321536	47	4577
2026-01-28 13:01:37.63	199.63	12.67	-38.2	-40.1	19.7	0.00e+00	0	42	0	357564416	47	4638
2026-01-28 13:01:38.62	199.72	12.76	-38.1	-40.0	19.8	0.00e+00	0	42	0	362807296	47	4577
2026-01-28 13:01:39.61	199.82	12.84	-38.1	-40.0	19.8	0.00e+00	0	42	0	369098752	47	4588
2026-01-28 13:01:40.61	199.91	12.93	-38.1	-40.0	19.8	0.00e+00	0	42	0	374341632	47	4559
2026-01-28 13:01:41.60	200.01	13.02	-38.0	-40.0	19.8	0.00e+00	0	42	0	379584512	47	4550
2026-01-28 13:01:42.59	200.10	13.10	-38.0	-39.9	19.9	0.00e+00	0	42	0	385875968	47	4527
2026-01-28 13:01:43.58	200.20	13.19	-38.1	-40.0	19.8	0.00e+00	0	42	0	391118848	47	4549
2026-01-28 13:01:44.58	200.30	13.27	-38.0	-39.9	19.9	0.00e+00	0	42	0	396361728	47	4503
2026-01-28 13:01:45.57	200.40	13.36	-37.9	-39.8	20.0	0.00e+00	0	42	0	402653184	47	4467
2026-01-28 13:01:46.56	200.50	13.45	-37.9	-39.8	20.0	0.00e+00	0	42	0	407896064	47	4448
2026-01-28 13:01:47.56	200.60	13.54	-37.9	-39.8	20.0	0.00e+00	0	42	0	413138944	47	4483
2026-01-28 13:01:48.55	200.70	13.62	-37.9	-39.8	20.0	0.00e+00	0	42	0	419430400	47	4459
2026-01-28 13:01:49.54	200.80	13.71	-37.8	-39.7	20.1	0.00e+00	0	42	0	424673280	47	4415
2026-01-28 13:01:50.54	200.90	13.80	-37.9	-39.8	20.1	0.00e+00	0	42	0	429916160	47	4448
2026-01-28 13:01:51.53	201.00	13.89	-37.9	-39.8	20.0	0.00e+00	0	42	0	436207616	46	4740
2026-01-28 13:01:52.52	201.10	13.98	-37.9	-39.8	20.0	0.00e+00	0	42	0	441450496	46	4744
2026-01-28 13:01:53.51	201.20	14.06	-37.9	-39.9	20.0	0.00e+00	0	42	0	446693376	46	4760
2026-01-28 13:01:54.51	201.31	14.15	-37.9	-39.8	20.0	0.00e+00	0	42	0	452984832	46	4757
2026-01-28 13:01:55.50	201.41	14.24	-37.9	-39.8	20.0	0.00e+00	0	42	0	458227712	46	4750
2026-01-28 13:01:56.49	201.51	14.33	-37.9	-39.8	20.0	0.00e+00	0	42	0	463470592	46	4748
2026-01-28 13:01:57.49	201.62	14.42	-37.9	-39.8	20.0	0.00e+00	0	43	0	469762048	46	4729
2026-01-28 13:01:58.48	201.73	14.51	-38.0	-39.9	19.9	0.00e+00	0	42	0	475004928	46	4773
2026-01-28 13:01:59.47	201.83	14.60	-37.8	-39.7	20.2	0.00e+00	0	42	0	480247808	46	4655
2026-01-28 13:02:00.46	201.94	14.69	-37.7	-39.6	20.2	0.00e+00	0	42	0	486539264	46	4606
2026-01-28 13:02:01.46	202.05	14.78	-37.8	-39.7	20.1	0.00e+00	0	42	0	491782144	46	4657
2026-01-28 13:02:02.45	202.16	14.87	-37.6	-39.5	20.3	0.00e+00	0	42	0	497025024	46	4571
2026-01-28 13:02:03.44	202.26	14.96	-37.6	-39.5	20.3	0.00e+00	0	42	0	503316480	46	4552
2026-01-28 13:02:04.44	202.37	15.06	-37.5	-39.4	20.4	0.00e+00	0	42	0	508559360	46	4529
2026-01-28 13:02:05.43	202.48	15.15	-37.5	-39.4	20.4	0.00e+00	0	42	0	513802240	46	4530
2026-01-28 13:02:06.42	202.59	15.24	-37.5	-39.4	20.4	0.00e+00	0	42	0	519045120	45	4776
2026-01-28 13:02:07.42	202.71	15.33	-37.5	-39.3	20.4	0.00e+00	0	42	0	525336576	45	4758
2026-01-28 13:02:08.41	202.82	15.43	-37.5	-39.3	20.4	0.00e+00	0	42	0	530579456	45	4756
2026-01-28 13:02:09.40	202.93	15.52	-37.4	-39.3	20.4	0.00e+00	0	42	0	536870912	45	4733
2026-01-28 13:02:10.39	203.04	15.61	-37.4	-39.3	20.5	0.00e+00	0	42	0	542113792	45	4708
2026-01-28 13:02:11.39	203.16	15.70	-37.5	-39.3	20.4	0.00e+00	0	43	0	547356672	45	4745
2026-01-28 13:02:12.38	203.27	15.80	-37.5	-39.4	20.4	0.00e+00	0	43	0	552599552	45	4778
2026-01-28 13:02:13.37	203.39	15.89	-37.3	-39.1	20.6	0.00e+00	0	42	0	558891008	45	4633
2026-01-28 13:02:14.37	203.51	15.99	-37.2	-39.1	20.7	0.00e+00	0	42	0	564133888	45	4613
2026-01-28 13:02:15.36	203.62	16.08	-37.4	-39.2	20.6	0.00e+00	0	42	0	569376768	45	4676
2026-01-28 13:02:16.35	203.74	16.17	-37.2	-39.1	20.7	0.00e+00	0	42	0	575668224	45	4600
2026-01-28 13:02:17.35	203.86	16.27	-37.2	-39.1	20.7	0.00e+00	0	42	0	580911104	45	4601
2026-01-28 13:02:18.34	203.98	16.36	-37.0	-38.8	20.9	0.00e+00	0	43	0	587202560	45	4479
2026-01-28 13:02:19.33	204.10	16.46	-37.0	-38.8	20.9	0.00e+00	0	42	0	592445440	45	4490
2026-01-28 13:02:20.32	204.22	16.55	-37.0	-38.8	20.9	0.00e+00	0	42	0	597688320	45	4464
2026-01-28 13:02:21.32	204.34	16.65	-37.0	-38.9	20.9	0.00e+00	0	42	0	602931200	45	4504
2026-01-28 13:02:22.31	204.46	16.75	-37.1	-38.9	20.9	0.00e+00	0	42	0	609222656	45	4501
2026-01-28 13:02:23.30	204.59	16.84	-37.2	-39.1	20.7	0.00e+00	0	42	0	614465536	45	4605
2026-01-28 13:02:24.30	204.71	16.94	-37.4	-39.2	20.6	0.00e+00	0	43	0	619708416	45	4677
2026-01-28 13:02:25.29	204.83	17.04	-37.3	-39.1	20.7	0.00e+00	0	42	0	625999872	45	4626
2026-01-28 13:02:26.28	204.96	17.13	-37.3	-39.1	20.7	0.00e+00	0	42	0	631242752	45	4623
2026-01-28 13:02:27.27	205.08	17.23	-37.4	-39.2	20.6	0.00e+00	0	42	0	636485632	45	4701
2026-01-28 13:02:28.27	205.21	17.33	-37.3	-39.2	20.6	0.00e+00	0	42	0	642777088	45	4666
2026-01-28 13:02:29.26	205.34	17.42	-37.1	-38.9	20.9	0.00e+00	0	43	0	648019968	45	4534
2026-01-28 13:02:30.25	205.47	17.52	-37.1	-38.9	20.8	0.00e+00	0	42	0	653262848	45	4540
2026-01-28 13:02:31.25	205.60	17.62	-37.1	-38.9	20.9	0.00e+00	0	43	0	659554304	45	4513
2026-01-28 13:02:32.24	205.73	17.72	-37.1	-38.9	20.9	0.00e+00	0	43	0	664797184	45	4522
2026-01-28 13:02:33.23	205.86	17.82	-36.9	-38.8	21.0	0.00e+00	0	42	0	670040064	45	4450
2026-01-28 13:02:34.23	205.99	17.92	-36.9	-38.7	21.0	0.00e+00	0	43	0	676331520	45	4419
2026-01-28 13:02:35.22	206.12	18.02	-36.9	-38.7	21.0	0.00e+00	0	42	0	681574400	45	4429
2026-01-28 13:02:36.21	206.26	18.12	-36.8	-38.6	21.1	0.00e+00	0	43	0	686817280	45	4387
2026-01-28 13:02:37.20	206.39	18.22	-36.3	-38.7	21.1	0.00e+00	0	43	0	693108736	44	4661
2026-01-28 13:02:38.20	206.53	18.32	-36.9	-38.7	21.0	0.00e+00	0	43	0	698351616	44	4701
2026-01-28 13:02:39.19	206.66	18.42	-36.9	-38.8	21.0	0.00e+00	0	42	0	703594496	44	4709
2026-01-28 13:02:40.18	206.80	18.52	-36.8	-38.7	21.1	0.00e+00	0	43	0	709885952	44	4656
2026-01-28 13:02:41.18	206.94	18.62	-36.7	-38.5	21.2	0.00e+00	0	43	0	715128832	44	4593
2026-01-28 13:02:42.17	207.07	18.72	-36.8	-38.6	21.2	0.00e+00	0	43	0	720371712	44	4618
2026-01-28 13:02:43.16	207.21	18.82	-36.8	-38.6	21.2	0.00e+00	0	42	0	726663168	44	4605
2026-01-28 13:02:44.15	207.35	18.92	-36.7	-38.5	21.3	0.00e+00	0	43	0	731906048	44	4556
2026-01-28 13:02:45.15	207.50	19.02	-36.6	-38.4	21.3	0.00e+00	0	42	0	737148928	44	4529
2026-01-28 13:02:46.14	207.64	19.13	-36.7	-38.5	21.2	0.00e+00	0	42	0	743440384	44	4578
2026-01-28 13:02:47.13	207.78	19.23	-36.6	-38.4	21.3	0.00e+00	0	43	0	748683264	44	4521
2026-01-28 13:02:48.13	207.93	19.33	-36.6	-38.4	21.3	0.00e+00	0	43	0	753926144	44	4521
2026-01-28 13:02:49.12	208.07	19.43	-36.6	-38.4	21.3	0.00e+00	0	43	0	760217600	44	4505
2026-01-28 13:02:50.11	208.22	19.54	-36.6	-38.4	21.3	0.00e+00	0	43	0	765460480	44	4502
2026-01-28 13:02:51.11	208.36	19.64	-36.6	-38.3	21.4	0.00e+00	0	42	0	770703360	44	4486
2026-01-28 13:02:52.10	208.51	19.74	-36.4	-38.1	21.6	0.00e+00	0	42	0	776994816	44	4388
2026-01-28 13:02:53.09	208.66	19.85	-36.4	-38.1	21.6	0.00e+00	0	42	0	782237696	44	4383
2026-01-28 13:02:54.08	208.81	19.95	-36.3	-38.1	21.6	0.00e+00	0	43	0	787480576	44	4377
2026-01-28 13:02:55.08	208.96	20.06	-36.4	-38.2	21.6	0.00e+00	0	42	0	792723456	44	4394
2026-01-28 13:02:56.07	209.11	20.16	-36.3	-38.1	21.6	0.00e+00	0	42	0	799014912	44	4362
2026-01-28 13:02:57.06	209.26	20.27	-36.4	-38.2	21.6	0.00e+00	0	42	0	804257792	44	4392
2026-01-28 13:02:58.06	209.42	20.37	-36.3	-38.0	21.6	0.00e+00	0	42	0	810549248	44	4333
2026-01-28 13:02:59.05	209.57	20.48	-36.2	-38.0	21.7	0.00e+00	0	43	0	815792128	44	4314
2026-01-28 13:03:00.04	209.73	20.58	-36.3	-38.1	21.6	0.00e+00	0	42	0	821035008	44	4342
2026-01-28 13:03:01.03	209.89	20.69	-36.2	-38.0	21.7	0.00e+00	0	42	0	826277888	44	4294
2026-01-28 13:03:02.03	210.05	20.79	-36.2	-38.0	21.7	0.00e+00	0	43	0	832569344	44	4300
2026-01-28 13:03:03.02	210.20	20.90	-36.2	-37.9	21.7	0.00e+00	0	42	0	837812224	44	4291
2026-01-28 13:03:04.01	210.36	21.01	-36.1	-37.9	21.7	0.00e+00	0	42	0	843055104	44	4276
2026-01-28 13:03:05.01	210.53	21.11	-36.2	-37.9	21.7	0.00e+00	0	43	0	849346560	44	4284
2026-01-28 13:03:06.00	210.69	21.22	-36.2	-38.0	21.7	0.00e+00	0	42	0	854589440	44	4319
2026-01-28 13:03:06.99	210.85	21.33	-36.2	-38.0	21.7	0.00e+00	0	42	0	860880896	44	4308
2026-01-28 13:03:07.99	211.02	21.44	-36.3	-38.0	21.7	0.00e+00	0	42	0	866123776	44	4331
2026-01-28 13:03:08.98	211.18	21.54	-36.3	-38.1	21.6	0.00e+00	0	43	0	871366656	44	4373
2026-01-28 13:03:09.97	211.35	21.65	-36.3	-38.1	21.6	0.00e+00	0	43	0	876609536	44	4363
2026-01-28 13:03:10.97	211.52	21.76	-36.3	-38.1	21.6	0.00e+00	0	43	0	882900992	44	4361
2026-01-28 13:03:11.96	211.69	21.87	-36.2	-38.0	21.7	0.00e+00	0	43	0	888143872	44	4323
2026-01-28 13:03:12.95	211.86	21.98	-36.2	-38.0	21.7	0.00e+00	0	43	0	893386752	44	4329
2026-01-28 13:03:13.94	212.03	22.08	-36.2	-38.0	21.7	0.00e+00	0	43	0	899678208	44	4294
2026-01-28 13:03:14.94	212.20	22.19	-36.1	-37.9	21.8	0.00e+00	0	43	0	904921088	44	4258
2026-01-28 13:03:15.93	212.38	22.30	-36.1	-37.9	21.8	0.00e+00	0	43	0	910163968	44	4253
2026-01-28 13:03:16.92	212.55	22.41	-35.8	-37.5	22.0	0.00e+00	0	42	0	916455424	43	4337
2026-01-28 13:03:17.92	212.73	22.52	-35.7	-37.5	22.1	0.00e+00	0	43	0	921698304	43	4293
2026-01-28 13:03:18.91	212.90	22.63	-35.5	-37.3	22.2	0.00e+00	0	43	0	926941184	43	4197
2026-01-28 13:03:19.90	213.08	22.74	-35.6	-37.3	22.2	0.00e+00	0	42	0	933232640	43	4222
2026-01-28 13:03:20.89	213.26	22.85	-35.5	-37.2	22.2	0.00e+00	0	42	0	938475520	43	4181
2026-01-28 13:03:21.89	213.44	22.96	-35.4	-37.2	22.3	0.00e+00	0	43	0	943718400	42	4403
2026-01-28 13:03:22.88	213.63	23.07	-35.3	-37.1	22.4	0.00e+00	0	43	0	950009856	42	4346
2026-01-28 13:03:23.87	213.81	23.18	-35.3	-37.0	22.4	0.00e+00	0	43	0	955252736	42	4336
2026-01-28 13:03:24.87	214.00	23.29	-35.3	-37.0	22.4	0.00e+00	0	42	0	960495616	42	4311
2026-01-28 13:03:25.86	214.18	23.40	-35.3	-37.1	22.4	0.00e+00	0	42	0	966787072	42	4348
2026-01-28 13:03:26.85	214.37	23.52	-35.4	-37.1	22.3	0.00e+00	0	42	0	972029952	42	4382
2026-01-28 13:03:27.84	214.56	23.63	-35.5	-37.2	22.2	0.00e+00	0	43	0	977272832	42	4416
2026-01-28 13:03:28.84	214.75	23.74	-35.6	-37.3	22.2	0.00e+00	0	43	0	983564288	42	4467
2026-01-28 13:03:29.83	214.94	23.85	-35.6	-37.3	22.2	0.00e+00	0	43	0	988807168	42	4466
2026-01-28 13:03:30.82	215.13	23.96	-35.5	-37.3	22.2	0.00e+00	0	42	0	994050048	42	4463
2026-01-28 13:03:31.82	215.33	24.07	-35.6	-37.3	22.1	0.00e+00	0	43	0	1000341504	42	4490
2026-01-28 13:03:32.81	215.52	24.19	-35.4	-37.2	22.3	0.00e+00	0	43	0	1005584384	42	4399
2026-01-28 13:03:33.80	215.72	24.30	-35.5	-37.3	22.2	0.00e+00	0	42	0	1010827264	42	4445
2026-01-28 13:03:34.80	215.92	24.41	-35.4	-37.1	22.3	0.00e+00	0	43	0	1017118720	42	4377
2026-01-28 13:03:35.79	216.12	24.52	-35.5	-37.2	22.2	0.00e+00	0	43	0	1022361600	42	4437
2026-01-28 13:03:36.78	216.32	24.64	-35.6	-37.3	22.2	0.00e+00	0	43	0	1027604480	42	4477
2026-01-28 13:03:37.78	216.52	24.75	-35.6	-37.4	22.2	0.00e+00	0	43	0	1033895936	42	4494
2026-01-28 13:03:38.77	216.72	24.86	-35.6	-37.3	22.2	0.00e+00	0	43	0	1039138816	42	4469
2026-01-28 13:03:39.76	216.93	24.97	-35.5	-37.2	22.3	0.00e+00	0	43	0	1044381696	42	4427
2026-01-28 13:03:40.75	217.14	25.09	-35.5	-37.2	22.2	0.00e+00	0	43	0	1050673152	42	4433
2026-01-28 13:03:41.75	217.34	25.20	-35.5	-37.2	22.2	0.00e+00	0	43	0	1055916032	42	4431
2026-01-28 13:03:42.74	217.55	25.31	-35.4	-37.2	22.2	0.00e+00	0	42	0	1061158912	42	4406
2026-01-28 13:03:43.73	217.76	25.43	-35.4	-37.2	22.3	0.00e+00	0	43	0	1066401792	42	4411
2026-01-28 13:03:44.73	217.98	25.54	-35.4	-37.2	22.3	0.00e+00	0	43	0	1072693248	42	4409
2026-01-28 13:03:45.72	218.19	25.65	-35.4	-37.2	22.3	0.00e+00	0	43	0	1077936128	42	4400
2026-01-28 13:03:46.71	218.41	25.77	-35.5	-37.2	22.3	0.00e+00	0	43	0	1084227584	42	4432
2026-01-28 13:03:47.71	218.63	25.88	-35.2	-37.0	22.4	0.00e+00	0	43	0	1089470464	42	4301
2026-01-28 13:03:48.70	218.84	25.99	-35.1	-36.9	22.5	0.00e+00	0	43	0	1094713344	42	4243
2026-01-28 13:03:49.69	219.06	26.11	-35.1	-36.8	22.6	0.00e+00	0	43	0	1101004800	42	4207
2026-01-28 13:03:50.68	219.28	26.22	-35.2	-36.9	22.5	0.00e+00	0	43	0	1106247680	42	4260
2026-01-28 13:03:51.68	219.51	26.34	-35.2	-37.0	22.5	0.00e+00	0	43	0	1111490560	42	4299
2026-01-28 13:03:52.67	219.73	26.45	-35.3	-37.0	22.4	0.00e+00	0	43	0	1116733440	42	4313
2026-01-28 13:03:53.66	219.96	26.56	-35.3	-37.0	22.4	0.00e+00	0	43	0	1123024896	42	4325
2026-01-28 13:03:54.65	220.19	26.68	-35.2	-36.9	22.5	0.00e+00	0	43	0	1128267776	42	4266
2026-01-28 13:03:55.65	220.42	26.79	-35.1	-36.8	22.5	0.00e+00	0	43	0	1134559232	42	4234
2026-01-28 13:03:56.64	220.65	26.90	-35.0	-36.7	22.7	0.00e+00	0	43	0	1139802112	42	4166
2026-01-28 13:03:57.63	220.88	27.02	-35.0	-36.7	22.7	0.00e+00	0	43	0	1145044992	42	4189
2026-01-28 13:03:58.63	221.12	27.13	-34.9	-36.6	22.7	0.00e+00	0	43	0	1150287872	41	4370
2026-01-28 13:03:59.62	221.35	27.25	-35.0	-36.7	22.6	0.00e+00	0	42	0	1156579328	41	4429
2026-01-28 13:04:00.61	221.59	27.36	-35.0	-36.8	22.6	0.00e+00	0	43	0	1161822208	41	4447
2026-01-28 13:04:01.60	221.83	27.47	-35.1	-36.9	22.5	0.00e+00	0	43	0	1167065088	41	4505
2026-01-28 13:04:02.60	222.07	27.59	-35.0	-36.7	22.6	0.00e+00	0	43	0	1173356544	41	4415
2026-01-28 13:04:03.59	222.31	27.70	-34.9	-36.6	22.7	0.00e+00	0	43	0	1178599424	41	4380
2026-01-28 13:04:04.58	222.56	27.81	-34.8	-36.5	22.8	0.00e+00	0	43	0	1183842304	41	4331
2026-01-28 13:04:05.58	222.81	27.93	-34.8	-36.5	22.8	0.00e+00	0	43	0	1190133760	41	4319
2026-01-28 13:04:06.57	223.05	28.04	-35.0	-36.7	22.6	0.00e+00	0	43	0	1195376640	41	4404
2026-01-28 13:04:07.56	223.30	28.15	-35.0	-36.7	22.6	0.00e+00	0	43	0	1200619520	41	4408
2026-01-28 13:04:08.55	223.55	28.27	-35.1	-36.8	22.5	0.00e+00	0	43	0	1206910976	41	4482
2026-01-28 13:04:09.55	223.81	28.38	-35.0	-36.7	22.6	0.00e+00	0	43	0	1212153856	41	4430
2026-01-28 13:04:10.54	224.06	28.49	-35.0	-36.7	22.7	0.00e+00	0	43	0	1217396736	41	4396
2026-01-28 13:04:11.53	224.32	28.60	-34.9	-36.6	22.8	0.00e+00	0	43	0	1223688192	41	4346
2026-01-28 13:04:12.53	224.58	28.72	-34.8	-36.6	22.8	0.00e+00	0	43	0	1228931072	41	4344
2026-01-28 13:04:13.52	224.84	28.83	-34.9	-36.6	22.7	0.00e+00	0	43	0	1234173952	41	4379
2026-01-28 13:04:14.51	225.10	28.94	-34.9	-36.6	22.7	0.00e+00	0	42	0	1240465408	41	4386
2026-01-28 13:04:15.51	225.36	29.05	-34.9	-36.6	22.8	0.00e+00	0	43	0	1245708288	41	4366
2026-01-28 13:04:16.50	225.63	29.16	-34.9	-36.6	22.8	0.00e+00	0	43	0	1250951168	41	4377
2026-01-28 13:04:17.49	225.90	29.28	-34.9	-36.6	22.8	0.00e+00	0	43	0	1257242624	41	4357
2026-01-28 13:04:18.48	226.16	29.39	-34.9	-36.6	22.8	0.00e+00	0	43	0	1262485504	41	4361
2026-01-28 13:04:19.48	226.44	29.50	-34.8	-36.5	22.9	0.00e+00	0	43	0	1267728384	41	4313
2026-01-28 13:04:20.47	226.71	29.61	-34.4	-36.1	23.2	0.00e+00	0	43	0	1274019840	40	4343
2026-01-28 13:04:21.46	226.98	29.72	-34.3	-36.0	23.3	0.00e+00	0	43	0	1279262720	40	4322
2026-01-28 13:04:22.46	227.26	29.83	-34.5	-36.2	23.2	0.00e+00	0	43	0	1284505600	40	4406
2026-01-28 13:04:23.45	227.54	29.94	-34.6	-36.3	23.0	0.00e+00	0	43	0	1290797056	40	4480
2026-01-28 13:04:24.44	227.82	30.05	-34.8	-36.5	22.9	0.00e+00	0	43	0	1296039936	40	4570
2026-01-28 13:04:25.44	228.10	30.16	-34.7	-36.5	22.9	0.00e+00	0	43	0	1301282816	40	4549
2026-01-28 13:04:26.43	228.39	30.27	-34.7	-36.4	23.0	0.00e+00	0	43	0	1306525696	40	4511
2026-01-28 13:04:27.42	228.67	30.38	-34.6	-36.3	23.0	0.00e+00	0	43	0	1312817152	40	4485
2026-01-28 13:04:28.42	228.96	30.48	-34.7	-36.4	23.0	0.00e+00	0	43	0	1318060032	40	4508
2026-01-28 13:04:29.41	229.25	30.59	-34.9	-36.6	22.8	0.00e+00	0	43	0	1324351488	40	4628
2026-01-28 13:04:30.40	229.54	30.70	-34.7	-36.4	22.9	0.00e+00	0	43	0	1329594368	40	4538
2026-01-28 13:04:31.39	229.83	30.81	-34.7	-36.4	22.9	0.00e+00	0	43	0	1334837248	40	4504
2026-01-28 13:04:32.39	230.13	30.91	-34.8	-36.5	22.8	0.00e+00	0	43	0	1341128704	40	4565
2026-01-28 13:04:33.38	230.43	31.02	-34.6	-36.3	23.0	0.00e+00	0	43	0	1346371584	40	4455
2026-01-28 13:04:34.37	230.73	31.12	-34.5	-36.2	23.1	0.00e+00	0	43	0	1351614464	40	4405
2026-01-28 13:04:35.36	231.03	31.23	-34.5	-36.2	23.1	0.00e+00	0	43	0	1356857344	40	4425
2026-01-28 13:04:36.36	231.33	31.33	-34.6	-36.3	23.0	0.00e+00	0	43	0	1363148800	40	4457
2026-01-28 13:04:37.35	231.64	31.44	-34.7	-36.4	22.9	0.00e+00	0	43	0	1368391680	40	4504
2026-01-28 13:04:38.34	231.94	31.54	-34.7	-36.4	22.8	0.00e+00	0	43	0	1374683136	40	4542
2026-01-28 13:04:39.34	232.25	31.65	-34.8	-36.5	22.8	0.00e+00	0	43	0	1379926016	40	4576
2026-01-28 13:04:40.33	232.56	31.75	-34.8	-36.5	22.8	0.00e+00	0	43	0	1385168896	40	4554
2026-01-28 13:04:41.32	232.87	31.85	-34.8	-36.5	22.8	0.00e+00	0	43	0	1390411776	40	4573
2026-01-28 13:04:42.31	233.19	31.95	-34.6	-36.4	22.9	0.00e+00	0	43	0	1396703232	40	4499
2026-01-28 13:04:43.31	233.51	32.05	-34.6	-36.3	22.9	0.00e+00	0	43	0	1401946112	40	4473
2026-01-28 13:04:44.30	233.83	32.15	-34.6	-36.3	23.0	0.00e+00	0	43	0	1408237568	40	4465
2026-01-28 13:04:45.29	234.14	32.25	-34.5	-36.2	23.1	0.00e+00	0	43	0	1413480448	40	4397
2026-01-28 13:04:46.29	234.47	32.35	-34.6	-36.3	23.0	0.00e+00	0	43	0	1418723328	40	4465
2026-01-28 13:04:47.28	234.79	32.45	-34.7	-36.4	22.9	0.00e+00	0	43	0	1423966208	40	4519
2026-01-28 13:04:48.27	235.12	32.55	-34.8	-36.5	22.8	0.00e+00	0	43	0	1430257664	40	4565
2026-01-28 13:04:49.26	235.45	32.64	-34.7	-36.5	22.9	0.00e+00	0	43	0	1435500544	40	4553
2026-01-28 13:04:50.26	235.78	32.74	-34.7	-36.4	22.9	0.00e+00	0	43	0	1440743424	40	4516
2026-01-28 13:04:51.25	236.11	32.84	-34.7	-36.4	22.9	0.00e+00	0	43	0	1447034880	40	4529
2026-01-28 13:04:52.24	236.44	32.93	-34.8	-36.6	22.8	0.00e+00	0	43	0	1452277760	40	4600
2026-01-28 13:04:53.24	236.78	33.02	-34.8	-36.5	22.8	0.00e+00	0	43	0	1458569216	40	4594
2026-01-28 13:04:54.23	237.12	33.12	-34.7	-36.4	22.9	0.00e+00	0	43	0	1463812096	40	4526
2026-01-28 13:04:55.22	237.46	33.21	-34.8	-36.5	22.9	0.00e+00	0	43	0	1469054976	40	4559
2026-01-28 13:04:56.21	237.80	33.30	-34.7	-36.4	23.0	0.00e+00	0	43	0	1474297856	40	4508
2026-01-28 13:04:57.21	238.14	33.39	-34.6	-36.3	23.0	0.00e+00	0	42	0	1480589312	40	4460
2026-01-28 13:04:58.20	238.49	33.48	-34.7	-36.4	22.9	0.00e+00	0	43	0	1485832192	40	4509
2026-01-28 13:04:59.19	238.83	33.57	-34.7	-36.5	22.8	0.00e+00	0	43	0	1491075072	40	4557
2026-01-28 13:05:00.19	239.18	33.66	-34.8	-36.5	22.8	0.00e+00	0	43	0	1497366528	40	4564
2026-01-28 13:05:01.18	239.53	33.75	-34.6	-36.3	22.9	0.00e+00	0	43	0	1502609408	40	4474
2026-01-28 13:05:02.17	239.89	33.83	-34.5	-36.2	23.0	0.00e+00	0	43	0	1507852288	40	4427
2026-01-28 13:05:03.16	240.24	33.92	-34.3	-36.0	23.1	0.00e+00	0	43	0	1514143744	40	4335
2026-01-28 13:05:04.16	240.60	34.00	-34.4	-36.1	23.1	0.00e+00	0	43	0	1519386624	40	4380
2026-01-28 13:05:05.15	240.95	34.08	-34.5	-36.2	23.0	0.00e+00	0	43	0	1524629504	40	4409
2026-01-28 13:05:06.14	241.31	34.17	-34.7	-36.4	22.8	0.00e+00	0	43	0	1530920960	40	4509
2026-01-28 13:05:07.14	241.68	34.25	-34.6	-36.3	22.9	0.00e+00	0	43	0	1536163840	40	4453
2026-01-28 13:05:08.13	242.04	34.33	-34.6	-36.3	22.9	0.00e+00	0	43	0	1541406720	40	4492
2026-01-28 13:05:09.12	242.40	34.41	-34.6	-36.3	22.9	0.00e+00	0	42	0	1547698176	40	4472
2026-01-28 13:05:10.12	242.77	34.49	-34.5	-36.2	23.0	0.00e+00	0	43	0	1552941056	40	4433
2026-01-28 13:05:11.11	243.14	34.56	-34.6	-36.3	23.0	0.00e+00	0	43	0	1558183936	40	4448
2026-01-28 13:05:12.10	243.51	34.64	-34.3	-36.0	23.2	0.00e+00	0	43	0	1564475392	40	4306
2026-01-28 13:05:13.09	243.88	34.71	-34.2	-35.9	23.3	0.00e+00	0	43	0	1569718272	40	4262
2026-01-28 13:05:14.08	244.25	34.79	-34.4	-36.1	23.2	0.00e+00	0	43	0	1574961152	40	4365
2026-01-28 13:05:15.08	244.63	34.86	-34.6	-36.3	23.0	0.00e+00	0	43	0	1580204032	40	4466
2026-01-28 13:05:16.07	245.01	34.93	-34.6	-36.4	22.9	0.00e+00	0	43	0	1586495488	40	4504
2026-01-28 13:05:17.06	245.39	35.00	-34.5	-36.2	23.0	0.00e+00	0	43	0	1591738368	40	4434
2026-01-28 13:05:18.05	245.77	35.07	-34.5	-36.2	23.1	0.00e+00	0	43	0	1598029824	40	4429
2026-01-28 13:05:19.05	246.15	35.14	-34.5	-36.2	23.1	0.00e+00	0	43	0	1603272704	40	4419
2026-01-28 13:05:20.04	246.53	35.20	-34.5	-36.2	23.1	0.00e+00	0	43	0	1608515584	40	4392
2026-01-28 13:05:21.03	246.92	35.27	-34.3	-36.0	23.3	0.00e+00	0	43	0	1613758464	40	4320
2026-01-28 13:05:22.03	247.30	35.33	-34.4	-36.1	23.2	0.00e+00	0	43	0	1620049920	40	4350
2026-01-28 13:05:23.02	247.69	35.39	-34.3	-36.0	23.3	0.00e+00	0	43	0	1625292800	40	4311
2026-01-28 13:05:24.01	248.08	35.45	-34.3	-36.0	23.3	0.00e+00	0	43	0	1630535680	40	4303
2026-01-28 13:05:25.00	248.47	35.51	-34.4	-36.1	23.2	0.00e+00	0	43	0	1636827136	40	4360
2026-01-28 13:05:26.00	248.86	35.57	-34.3	-35.9	23.3	0.00e+00	0	43	0	1642070016	40	4288
2026-01-28 13:05:26.99	249.26	35.63	-34.1	-35.7	23.5	0.00e+00	0	43	0	1648361472	40	4180
2026-01-28 13:05:27.98	249.65	35.68	-34.1	-35.8	23.4	0.00e+00	0	43	0	1653604352	40	4227
2026-01-28 13:05:28.98	250.05	35.74	-34.3	-36.0	23.2	0.00e+00	0	43	0	1658847232	40	4314
2026-01-28 13:05:29.97	250.44	35.79	-34.4	-36.1	23.1	0.00e+00	0	43	0	1664090112	40	4385
2026-01-28 13:05:30.96	250.84	35.84	-34.4	-36.1	23.1	0.00e+00	0	43	0	1670381568	40	4367
2026-01-28 13:05:31.96	251.24	35.89	-34.5	-36.2	23.1	0.00e+00	0	43	0	1675624448	40	4395
2026-01-28 13:05:32.95	251.64	35.94	-34.3	-36.0	23.2	0.00e+00	0	43	0	1680867328	40	4326
2026-01-28 13:05:33.94	252.04	35.99	-34.3	-36.0	23.2	0.00e+00	0	43	0	1687158784	40	4304
2026-01-28 13:05:34.94	252.45	36.03	-34.2	-35.9	23.3	0.00e+00	0	43	0	1692401664	40	4277
2026-01-28 13:05:35.93	252.85	36.08	-34.3	-36.0	23.3	0.00e+00	0	43	0	1697644544	40	4293
2026-01-28 13:05:36.92	253.26	36.12	-34.5	-36.2	23.1	0.00e+00	0	43	0	1703936000	40	4408
2026-01-28 13:05:37.92	253.67	36.16	-34.5	-36.2	23.0	0.00e+00	0	43	0	1709178880	40	4436
2026-01-28 13:05:38.91	254.07	36.20	-34.6	-36.3	23.0	0.00e+00	0	43	0	1714421760	40	4455
2026-01-28 13:05:39.90	254.48	36.24	-34.5	-36.2	23.1	0.00e+00	0	43	0	1720713216	40	4425
2026-01-28 13:05:40.89	254.89	36.27	-34.4	-36.1	23.2	0.00e+00	0	43	0	1725956096	40	4375
2026-01-28 13:05:41.89	255.30	36.31	-34.4	-36.1	23.2	0.00e+00	0	43	0	1731198976	40	4373
2026-01-28 13:05:42.88	255.71	36.34	-34.1	-35.8	23.5	0.00e+00	0	43	0	1737490432	40	4199
2026-01-28 13:05:43.87	256.12	36.37	-34.1	-35.8	23.4	0.00e+00	0	43	0	1742733312	40	4215
2026-01-28 13:05:44.86	256.53	36.40	-34.2	-35.9	23.3	0.00e+00	0	43	0	1747976192	40	4256
2026-01-28 13:05:45.86	256.95	36.43	-34.2	-35.9	23.3	0.00e+00	0	43	0	1754267648	40	4274
2026-01-28 13:05:46.85	257.36	36.46	-34.3	-36.0	23.2	0.00e+00	0	43	0	1759510528	40	4308
2026-01-28 13:05:47.84	257.77	36.48	-34.2	-35.9	23.3	0.00e+00	0	43	0	1764753408	40	4276
2026-01-28 13:05:48.84	258.19	36.50	-34.2	-35.9	23.3	0.00e+00	0	43	0	1771044864	40	4276
2026-01-28 13:05:49.83	258.61	36.52	-34.2	-35.9	23.3	0.00e+00	0	43	0	1776287744	40	4258
2026-01-28 13:05:50.82	259.02	36.54	-34.2	-35.9	23.3	0.00e+00	0	43	0	1781530624	40	4249
2026-01-28 13:05:51.82	259.44	36.56	-34.3	-36.0	23.2	0.00e+00	0	43	0	1787822080	40	4304
2026-01-28 13:05:52.81	259.86	36.58	-34.3	-36.0	23.2	0.00e+00	0	43	0	1793064960	40	4306
2026-01-28 13:05:53.80	260.27	36.59	-34.3	-36.1	23.2	0.00e+00	0	43	0	1798307840	40	4349
2026-01-28 13:05:54.79	260.69	36.61	-34.3	-36.0	23.2	0.00e+00	0	43	0	1804599296	40	4334
2026-01-28 13:05:55.79	261.11	36.62	-34.3	-35.9	23.9	0.00e+00	0	43	0	1809842176	40	4265
2026-01-28 13:05:56.78	261.53	36.63	-34.4	-36.0	23.8	0.00e+00	0	43	0	1815085056	40	4328
2026-01-28 13:05:57.77	261.94	36.64	-34.4	-36.1	23.7	0.00e+00	0	43	0	1821376512	40	4351
2026-01-28 13:05:58.77	262.37	36.65	-34.5	-36.1	23.8	0.00e+00	0	43	0	1826619392	40	4371
2026-01-28 13:05:59.76	262.78	36.65	-34.5	-36.2	23.7	0.00e+00	0	43	0	1831862272	40	4405
2026-01-28 13:06:00.75	263.20	36.65	-34.5	-36.1	23.8	0.00e+00	0	43	0	1838153728	40	4359
2026-01-28 13:06:01.74	263.62	36.65	-34.5	-36.1	23.7	0.00e+00	0	43	0	1843396608	40	4381
2026-01-28 13:06:02.74	264.04	36.65	-34.4	-36.0	23.9	0.00e+00	0	43	0	1848639488	40	4299
2026-01-28 13:06:03.73	264.46	36.65	-34.3	-35.9	24.0	0.00e+00	0	43	0	1853882368	40	4248
2026-01-28 13:06:04.72	264.88	36.65	-34.3	-35.9	23.9	0.00e+00	0	43	0	1860173824	40	4264
2026-01-28 13:06:05.72	265.30	36.64	-34.4	-36.0	23.8	0.00e+00	0	43	0	1865416704	40	4310
2026-01-28 13:06:06.71	265.71	36.64	-34.4	-36.0	23.8	0.00e+00	0	43	0	1871708160	40	4324
2026-01-28 13:06:07.70	266.13	36.63	-34.4	-36.0	23.8	0.00e+00	0	43	0	1876951040	40	4327
2026-01-28 13:06:08.70	266.55	36.62	-34.2	-35.8	23.9	0.00e+00	0	43	0	1882193920	40	4242
2026-01-28 13:06:09.69	266.97	36.61	-34.3	-35.9	23.9	0.00e+00	0	43	0	1888485376	40	4255
2026-01-28 13:06:10.68	267.39	36.59	-34.4	-36.0	23.8	0.00e+00	0	43	0	1893728256	40	4308
2026-01-28 13:06:11.67	267.80	36.58	-34.4	-36.1	23.8	0.00e+00	0	43	0	1898971136	40	4342
2026-01-28 13:06:12.67	268.22	36.56	-34.5	-36.1	23.7	0.00e+00	0	43	0	1904214016	40	4371
2026-01-28 13:06:13.66	268.64	36.54	-34.5	-36.1	23.7	0.00e+00	0	43	0	1910505472	40	4366
2026-01-28 13:06:14.65	269.05	36.52	-34.5	-36.1	23.7	0.00e+00	0	43	0	1915748352	40	4376
2026-01-28 13:06:15.64	269.46	36.50	-34.5	-36.1	23.7	0.00e+00	0	43	0	1922039808	40	4381
2026-01-28 13:06:16.64	269.88	36.48	-34.4	-36.0	23.8	0.00e+00	0	43	0	1927282688	40	4328
2026-01-28 13:06:17.63	270.29	36.45	-34.4	-36.1	23.8	0.00e+00	0	43	0	1932525568	40	4345
2026-01-28 13:06:18.62	270.71	36.43	-34.2	-35.9	24.0	0.00e+00	0	43	0	1937768448	40	4243
2026-01-28 13:06:19.61	271.12	36.40	-34.2	-35.8	24.0	0.00e+00	0	43	0	1944059904	40	4209
2026-01-28 13:06:20.61	271.53	36.37	-34.2	-35.8	24.0	0.00e+00	0	43	0	1949302784	40	4234
2026-01-28 13:06:21.60	271.94	36.34	-34.3	-35.9	23.9	0.00e+00	0	43	0	1954545664	40	4263
2026-01-28 13:06:22.59	272.35	36.30	-34.4	-36.0	23.8	0.00e+00	0	43	0	1960837120	40	4320
2026-01-28 13:06:23.59	272.76	36.27	-34.5	-36.1	23.7	0.00e+00	0	43	0	1966080000	40	4360
2026-01-28 13:06:24.58	273.17	36.23	-34.5	-36.2	23.7	0.00e+00	0	43	0	1971322880	40	4401
2026-01-28 13:06:25.57	273.58	36.19	-34.3	-35.9	23.9	0.00e+00	0	43	0	1977614336	40	4258
2026-01-28 13:06:26.57	273.99	36.15	-34.3	-35.9	23.9	0.00e+00	0	43	0	1982857216	40	4251
2026-01-28 13:06:27.56	274.39	36.11	-34.3	-35.9	23.9	0.00e+00	0	43	0	1988100096	40	4255
2026-01-28 13:06:28.55	274.80	36.07	-34.4	-36.0	23.8	0.00e+00	0	43	0	1994391552	40	4308
2026-01-28 13:06:29.54	275.20	36.03	-34.4	-36.1	23.8	0.00e+00	0	43	0	1999634432	40	4347
2026-01-28 13:06:30.54	275.60	35.98	-34.3	-35.9	23.9	0.00e+00	0	43	0	2004877312	40	4266
2026-01-28 13:06:31.53	276.00	35.93	-34.2	-35.8	24.0	0.00e+00	0	43	0	2011168768	40	4205
2026-01-28 13:06:32.52	276.40	35.89	-34.3	-35.8	23.9	0.00e+00	0	43	0	2016411648	40	4242
2026-01-28 13:06:33.52	276.80	35.84	-34.2	-35.8	24.0	0.00e+00	0	43	0	2021654528	40	4231
2026-01-28 13:06:34.51	277.20	35.79	-34.4	-36.0	23.9	0.00e+00	0	43	0	2027945984	40	4304
2026-01-28 13:06:35.50	277.60	35.73	-34.4	-36.0	23.8	0.00e+00	0	43	0	2033188864	40	4329
2026-01-28 13:06:36.49	277.99	35.68	-34.4	-36.0	23.8	0.00e+00	0	43	0	2038431744	40	4308
2026-01-28 13:06:37.49	278.39	35.62	-34.4	-36.0	23.8	0.00e+00	0	43	0	2044723200	40	4325
2026-01-28 13:06:38.48	278.78	35.57	-34.4	-36.0	23.8	0.00e+00	0	43	0	2049966080	40	4309
2026-01-28 13:06:39.47	279.17	35.51	-34.5	-36.1	23.8	0.00e+00	0	43	0	2055208960	40	4354
2026-01-28 13:06:40.47	279.56	35.45	-34.6	-36.2	23.6	0.00e+00	0	43	0	2061500416	40	4440
2026-01-28 13:06:41.46	279.95	35.39	-34.8	-36.5	23.5	0.00e+00	0	43	0	2066743296	40	4549
2026-01-28 13:06:42.45	280.33	35.33	-34.7	-36.4	23.5	0.00e+00	0	43	0	2071986176	40	4495
2026-01-28 13:06:43.45	280.72	35.26	-34.6	-36.2	23.6	0.00e+00	0	43	0	2078277632	40	4436
2026-01-28 13:06:44.44	281.10	35.20	-34.6	-36.2	23.6	0.00e+00	0	43	0	2083520512	40	4412
2026-01-28 13:06:45.43	281.48	35.13	-34.7	-36.3	23.6	0.00e+00	0	43	0	2088763392	40	4453
2026-01-28 13:06:46.43	281.87	35.06	-34.5	-36.2	23.7	0.00e+00	0	43	0	2094006272	40	4394
2026-01-28 13:06:47.42	282.25	34.99	-34.7	-36.3	23.6	0.00e+00	0	43	0	2100297728	40	4470
2026-01-28 13:06:48.41	282.62	34.93	-34.6	-36.3	23.6	0.00e+00	0	43	0	2105540608	40	4443
2026-01-28 13:06:49.40	283.00	34.85	-34.6	-36.2	23.6	0.00e+00	0	43	0	2111832064	40	4436
2026-01-28 13:06:50.40	283.37	34.78	-34.6	-36.3	23.6	0.00e+00	0	43	0	2117074944	40	4458
2026-01-28 13:06:51.39	283.75	34.71	-34.6	-36.2	23.6	0.00e+00	0	43	0	2122317824	40	4440
2026-01-28 13:06:52.38	284.12	34.63	-34.7	-36.3	23.6	0.00e+00	0	43	0	2127560704	40	4457
2026-01-28 13:06:53.38	284.49	34.56	-34.5	-36.1	23.8	0.00e+00	0	43	0	2133852160	40	4352
2026-01-28 13:06:54.37	284.85	34.48	-34.5	-36.1	23.7	0.00e+00	0	43	0	2139095040	40	4389
2026-01-28 13:06:55.36	285.22	34.40	-34.5	-36.1	23.7	0.00e+00	0	43	0	2145386496	40	4383
2026-01-28 13:06:56.35	285.58	34.33	-34.7	-36.3	23.6	0.00e+00	0	43	0	2150629376	40	4463
2026-01-28 13:06:57.35	285.95	34.25	-34.7	-36.4	23.5	0.00e+00	0	43	0	2155872256	40	4501
2026-01-28 13:06:58.34	286.31	34.16	-34.6	-36.2	23.6	0.00e+00	0	43	0	2162163712	40	4432
2026-01-28 13:06:59.33	286.66	34.08	-34.5	-36.1	23.7	0.00e+00	0	43	0	2167406592	40	4365
2026-01-28 13:07:00.33	287.02	34.00	-34.6	-36.2	23.7	0.00e+00	0	43	0	2172649472	40	4423
2026-01-28 13:07:01.32	287.38	33.92	-34.8	-36.4	23.5	0.00e+00	0	43	0	2177892352	40	4543
2026-01-28 13:07:02.31	287.73	33.83	-34.9	-36.6	23.4	0.00e+00	0	43	0	2184183808	40	4602
2026-01-28 13:07:03.31	288.08	33.74	-34.8	-36.5	23.4	0.00e+00	0	43	0	2189426688	40	4573
2026-01-28 13:07:04.30	288.43	33.66	-34.8	-36.4	23.5	0.00e+00	0	43	0	2195718144	40	4532
2026-01-28 13:07:05.29	288.78	33.57	-34.8	-36.4	23.5	0.00e+00	0	43	0	2200961024	40	4517
2026-01-28 13:07:06.28	289.12	33.48	-34.8	-36.4	23.5	0.00e+00	0	43	0	2206203904	40	4539
2026-01-28 13:07:07.28	289.47	33.39	-34.9	-36.5	23.4	0.00e+00	0	43	0	2211446784	40	4586
2026-01-28 13:07:08.27	289.81	33.30	-35.0	-36.6	23.3	0.00e+00	0	43	0	2217738240	40	4627
2026-01-28 13:07:09.26	290.15	33.21	-34.9	-36.5	23.4	0.00e+00	0	43	0	2222981120	40	4597
2026-01-28 13:07:10.25	290.49	33.12	-35.1	-36.7	23.2	0.00e+00	0	43	0	2228224000	40	4676
2026-01-28 13:07:11.25	290.83	33.03	-35.1	-36.7	23.3	0.00e+00	0	43	0	2234515456	40	4682
2026-01-28 13:07:12.24	291.16	32.93	-34.9	-36.5	23.4	0.00e+00	0	43	0	2239758336	40	4593
2026-01-28 13:07:13.23	291.49	32.84	-35.1	-36.8	23.2	0.00e+00	0	43	0	2245001216	40	4713
2026-01-28 13:07:14.23	291.83	32.74	-35.0	-36.6	23.3	0.00e+00	0	43	0	2251292672	40	4642
2026-01-28 13:07:15.22	292.16	32.65	-35.0	-36.7	23.3	0.00e+00	0	43	0	2256535552	40	4660
2026-01-28 13:07:16.21	292.48	32.55	-34.9	-36.6	23.3	0.00e+00	0	43	0	2261778432	40	4606
2026-01-28 13:07:17.21	292.81	32.45	-35.0	-36.6	23.3	0.00e+00	0	43	0	2268069888	40	4644
2026-01-28 13:07:18.20	293.13	32.36	-35.0	-36.6	23.3	0.00e+00	0	43	0	2273312768	40	4642
2026-01-28 13:07:19.19	293.45	32.26	-35.0	-36.6	23.3	0.00e+00	0	43	0	2278555648	40	4644
2026-01-28 13:07:20.19	293.77	32.16	-35.0	-36.6	23.3	0.00e+00	0	43	0	2284847104	40	4650
2026-01-28 13:07:21.18	294.09	32.06	-35.0	-36.6	23.3	0.00e+00	0	43	0	2290089984	40	4634
2026-01-28 13:07:22.17	294.40	31.96	-35.1	-36.7	23.2	0.00e+00	0	43	0	2295332864	40	4689
2026-01-28 13:07:23.16	294.72	31.86	-35.0	-36.7	23.3	0.00e+00	0	43	0	2301624320	40	4660
2026-01-28 13:07:24.16	295.03	31.76	-35.0	-36.7	23.3	0.00e+00	0	43	0	2306867200	40	4660
2026-01-28 13:07:25.15	295.34	31.65	-35.0	-36.6	23.3	0.00e+00	0	43	0	2312110080	40	4651
2026-01-28 13:07:26.14	295.65	31.55	-35.0	-36.6	23.3	0.00e+00	0	43	0	2318401536	40	4643
2026-01-28 13:07:27.14	295.95	31.45	-35.0	-36.7	23.2	0.00e+00	0	43	0	2323644416	40	4662
2026-01-28 13:07:28.13	296.26	31.34	-34.9	-36.6	23.3	0.00e+00	0	43	0	2328887296	40	4617
2026-01-28 13:07:29.12	296.56	31.24	-34.9	-36.6	23.3	0.00e+00	0	43	0	2335178752	40	4603
2026-01-28 13:07:30.11	296.86	31.14	-35.0	-36.6	23.3	0.00e+00	0	43	0	2340421632	40	4651
2026-01-28 13:07:31.11	297.16	31.03	-34.9	-36.5	23.4	0.00e+00	0	43	0	2345664512	40	4584
2026-01-28 13:07:32.10	297.45	30.92	-35.0	-36.6	23.3	0.00e+00	0	43	0	2351955968	40	4608
2026-01-28 13:07:33.09	297.75	30.82	-34.7	-36.3	23.6	0.00e+00	0	43	0	2357198848	40	4454
2026-01-28 13:07:34.09	298.04	30.71	-34.8	-36.4	23.5	0.00e+00	0	43	0	2362441728	40	4533
2026-01-28 13:07:35.08	298.33	30.61	-34.9	-36.5	23.4	0.00e+00	0	43	0	2367684608	40	4574
2026-01-28 13:07:36.07	298.62	30.50	-35.0	-36.6	23.3	0.00e+00	0	43	0	2373976064	40	4643
2026-01-28 13:07:37.07	298.91	30.39	-35.1	-36.8	23.1	0.00e+00	0	43	0	2379218944	40	4726
2026-01-28 13:07:38.06	299.19	30.28	-35.0	-36.7	23.2	0.00e+00	0	43	0	2385510400	40	4668
2026-01-28 13:07:39.05	299.47	30.17	-34.9	-36.6	23.3	0.00e+00	0	43	0	2390753280	40	4619
2026-01-28 13:07:40.04	299.75	30.07	-35.0	-36.7	23.2	0.00e+00	0	43	0	2395996160	40	4660
2026-01-28 13:07:41.04	300.03	29.96	-34.9	-36.5	23.3	0.00e+00	0	43	0	2402287616	40	4579
2026-01-28 13:07:42.03	300.31	29.85	-34.9	-36.6	23.3	0.00e+00	0	43	0	2407530496	40	4604
2026-01-28 13:07:43.02	300.59	29.74	-35.0	-36.7	23.2	0.00e+00	0	43	0	2412773376	40	4653
2026-01-28 13:07:44.01	300.86	29.63	-35.0	-36.6	23.3	0.00e+00	0	43	0	2418016256	40	4630
2026-01-28 13:07:45.01	301.13	29.52	-35.0	-36.7	23.2	0.00e+00	0	43	0	2424307712	40	4676
2026-01-28 13:07:46.00	301.40	29.41	-35.0	-36.6	23.3	0.00e+00	0	43	0	2429550592	40	4635
2026-01-28 13:07:46.99	301.67	29.30	-35.1	-36.7	23.2	0.00e+00	0	43	0	2435842048	40	4681
2026-01-28 13:07:47.98	301.93	29.19	-35.1	-36.7	23.1	0.00e+00	0	43	0	2441084928	40	4699
2026-01-28 13:07:48.98	302.20	29.08	-35.0	-36.7	23.2	0.00e+00	0	43	0	2446327808	40	4665
2026-01-28 13:07:49.97	302.46	28.97	-35.2	-36.8	23.1	0.00e+00	0	43	0	2451570688	40	4727
2026-01-28 13:07:50.96	302.72	28.85	-35.1	-36.7	23.2	0.00e+00	0	43	0	2457862144	41	4431
2026-01-28 13:07:51.96	302.98	28.74	-35.1	-36.8	23.1	0.00e+00	0	43	0	2463105024	41	4442
2026-01-28 13:07:52.95	303.24	28.63	-35.1	-36.7	23.2	0.00e+00	0	43	0	2468347904	41	4435
2026-01-28 13:07:53.94	303.50	28.52	-35.2	-36.8	23.1	0.00e+00	0	43	0	2474639360	41	4488
2026-01-28 13:07:54.94	303.75	28.41	-35.2	-36.8	23.1	0.00e+00	0	43	0	2479882240	41	4472
2026-01-28 13:07:55.93	304.00	28.30	-35.3	-36.9	23.0	0.00e+00	0	43	0	2485125120	41	4525
2026-01-28 13:07:56.92	304.25	28.18	-35.4	-37.0	22.9	0.00e+00	0	43	0	2491416576	41	4580
2026-01-28 13:07:57.91	304.50	28.07	-35.3	-37.0	22.9	0.00e+00	0	43	0	2496659456	41	4576
2026-01-28 13:07:58.91	304.75	27.96	-35.4	-37.0	22.9	0.00e+00	0	43	0	2501902336	41	4591
2026-01-28 13:07:59.90	304.99	27.85	-35.3	-37.0	22.9	0.00e+00	0	43	0	2508193792	41	4571
2026-01-28 13:08:00.89	305.24	27.73	-35.4	-37.1	22.9	0.00e+00	0	43	0	2513436672	41	4600
2026-01-28 13:08:01.89	305.48	27.62	-35.1	-36.7	23.2	0.00e+00	0	43	0	2519728128	41	4422
2026-01-28 13:08:02.88	305.72	27.51	-35.1	-36.8	23.2	0.00e+00	0	43	0	2524971008	41	4447
2026-01-28 13:08:03.87	305.96	27.39	-35.2	-36.9	23.1	0.00e+00	0	43	0	2530213888	41	4512
2026-01-28 13:08:04.87	306.20	27.28	-35.3	-37.0	23.0	0.00e+00	0	43	0	2535456768	41	4562
2026-01-28 13:08:05.86	306.43	27.17	-35.4	-37.1	22.9	0.00e+00	0	43	0	2541748224	41	4599
2026-01-28 13:08:06.85	306.67	27.06	-35.5	-37.2	22.8	0.00e+00	0	43	0	2546991104	41	4685
2026-01-28 13:08:07.84	306.90	26.94	-35.6	-37.3	22.7	0.00e+00	0	43	0	2552233984	41	4716
2026-01-28 13:08:08.84	307.13	26.83	-35.4	-37.1	22.8	0.00e+00	0	43	0	2558525440	41	4631
2026-01-28 13:08:09.83	307.36	26.72	-35.5	-37.1	22.8	0.00e+00	0	43	0	2563768320	41	4651
2026-01-28 13:08:10.82	307.58	26.60	-35.6	-37.2	22.7	0.00e+00	0	43	0	2569011200	41	4701
2026-01-28 13:08:11.82	307.81	26.49	-35.5	-37.2	22.7	0.00e+00	0	43	0	2575302656	41	4675
2026-01-28 13:08:12.81	308.03	26.38	-35.5	-37.1	22.8	0.00e+00	0	43	0	2580545536	41	4647
2026-01-28 13:08:13.80	308.26	26.27	-35.4	-37.0	22.9	0.00e+00	0	43	0	2585788416	41	4588
2026-01-28 13:08:14.80	308.48	26.15	-35.4	-37.0	22.9	0.00e+00	0	43	0	2592079872	41	4598
2026-01-28 13:08:15.79	308.70	26.04	-35.3	-37.0	23.0	0.00e+00	0	43	0	2597322752	41	4547
2026-01-28 13:08:16.78	308.92	25.93	-35.3	-36.9	23.0	0.00e+00	0	43	0	2602565632	41	4529
2026-01-28 13:08:17.77	309.13	25.81	-35.3	-36.9	23.0	0.00e+00	0	43	0	2608857088	41	4539
2026-01-28 13:08:18.77	309.35	25.70	-35.2	-36.9	23.0	0.00e+00	0	43	0	2614099968	41	4519
2026-01-28 13:08:19.76	309.56	25.59	-35.3	-37.0	22.9	0.00e+00	0	43	0	2619342848	41	4565
2026-01-28 13:08:20.75	309.77	25.48	-35.2	-36.8	23.1	0.00e+00	0	43	0	2625634304	41	4471
2026-01-28 13:08:21.75	309.98	25.36	-35.1	-36.7	23.2	0.00e+00	0	43	0	2630877184	41	4437
2026-01-28 13:08:22.74	310.19	25.25	-35.1	-36.8	23.1	0.00e+00	0	43	0	2636120064	41	4456
2026-01-28 13:08:23.73	310.40	25.14	-35.1	-36.7	23.2	0.00e+00	0	43	0	2641362944	41	4411
2026-01-28 13:08:24.72	310.60	25.03	-35.1	-36.7	23.1	0.00e+00	0	43	0	2647654400	41	4433
2026-01-28 13:08:25.72	310.81	24.91	-35.1	-36.8	23.1	0.00e+00	0	43	0	2652897280	41	4453
2026-01-28 13:08:26.71	311.01	24.80	-35.2	-36.9	23.0	0.00e+00	0	43	0	2659188736	41	4501
2026-01-28 13:08:27.70	311.22	24.69	-35.3	-36.9	23.0	0.00e+00	0	43	0	2664431616	41	4538
2026-01-28 13:08:28.70	311.42	24.58	-35.4	-37.0	22.8	0.00e+00	0	43	0	2669674496	41	4598
2026-01-28 13:08:29.69	311.62	24.47	-35.3	-37.0	22.9	0.00e+00	0	43	0	2675965952	41	4586
2026-01-28 13:08:30.68	311.81	24.36	-35.4	-37.1	22.8	0.00e+00	0	43	0	2681208832	41	4642
2026-01-28 13:08:31.68	312.01	24.24	-35.5	-37.2	22.7	0.00e+00	0	43	0	2686451712	41	4693
2026-01-28 13:08:32.67	312.20	24.13	-35.6	-37.3	22.7	0.00e+00	0	43	0	2691694592	41	4706
2026-01-28 13:08:33.66	312.40	24.02	-35.6	-37.3	22.7	0.00e+00	0	43	0	2697986048	41	4712
2026-01-28 13:08:34.65	312.59	23.91	-35.6	-37.3	22.7	0.00e+00	0	43	0	2703228928	41	4717
2026-01-28 13:08:35.64	312.78	23.80	-35.7	-37.4	22.6	0.00e+00	0	43	0	2709520384	42	4514
2026-01-28 13:08:36.64	312.97	23.69	-35.6	-37.3	22.7	0.00e+00	0	43	0	2714763264	42	4463
2026-01-28 13:08:37.63	313.16	23.58	-35.7	-37.4	22.6	0.00e+00	0	43	0	2720006144	42	4512
2026-01-28 13:08:38.62	313.35	23.47	-35.7	-37.4	22.6	0.00e+00	0	43	0	2725249024	42	4514
2026-01-28 13:08:39.62	313.53	23.36	-35.8	-37.4	22.6	0.00e+00	0	43	0	2731540480	42	4530
2026-01-28 13:08:40.61	313.72	23.25	-35.9	-37.5	22.5	0.00e+00	0	43	0	2736783360	42	4584
2026-01-28 13:08:41.60	313.90	23.14	-35.9	-37.6	22.4	0.00e+00	0	43	0	2742026240	42	4602
2026-01-28 13:08:42.60	314.08	23.03	-35.9	-37.5	22.4	0.00e+00	0	43	0	2748317696	42	4597
2026-01-28 13:08:43.59	314.26	22.92	-35.9	-37.6	22.4	0.00e+00	0	43	0	2753560576	42	4617
2026-01-28 13:08:44.58	314.44	22.81	-36.0	-37.7	22.3	0.00e+00	0	43	0	2758803456	42	4679
2026-01-28 13:08:45.57	314.62	22.70	-36.0	-37.7	22.3	0.00e+00	0	43	0	2765094912	42	4663
2026-01-28 13:08:46.57	314.80	22.59	-36.1	-37.7	22.3	0.00e+00	0	43	0	2770337792	42	4703
2026-01-28 13:08:47.56	314.97	22.48	-36.0	-37.7	22.3	0.00e+00	0	43	0	2775580672	42	4672
2026-01-28 13:08:48.55	315.15	22.38	-35.9	-37.6	22.4	0.00e+00	0	43	0	2781872128	42	4639
2026-01-28 13:08:49.55	315.32	22.27	-35.9	-37.6	22.4	0.00e+00	0	43	0	2787115008	42	4622
2026-01-28 13:08:50.54	315.49	22.16	-36.0	-37.7	22.3	0.00e+00	0	43	0	2792357888	42	4675
2026-01-28 13:08:51.53	315.66	22.05	-35.9	-37.6	22.4	0.00e+00	0	43	0	2798649344	42	4621
2026-01-28 13:08:52.53	315.84	21.94	-35.9	-37.5	22.4	0.00e+00	0	43	0	2803892224	42	4585
2026-01-28 13:08:53.52	316.00	21.84	-35.9	-37.6	22.4	0.00e+00	0	43	0	2809135104	42	4625
2026-01-28 13:08:54.51	316.17	21.73	-35.9	-37.6	22.4	0.00e+00	0	43	0	2815426560	42	4613
2026-01-28 13:08:55.50	316.34	21.62	-35.9	-37.6	22.4	0.00e+00	0	43	0	2820669440	42	4621
2026-01-28 13:08:56.50	316.50	21.51	-36.0	-37.6	22.3	0.00e+00	0	43	0	2825912320	42	4645
2026-01-28 13:08:57.49	316.67	21.41	-36.0	-37.7	22.2	0.00e+00	0	43	0	2832203776	42	4695
2026-01-28 13:08:58.48	316.83	21.30	-36.2	-37.9	22.1	0.00e+00	0	43	0	2837446656	42	4766
2026-01-28 13:08:59.48	316.99	21.19	-36.2	-37.9	22.1	0.00e+00	0	43	0	2842689536	43	4532
2026-01-28 13:09:00.47	317.15	21.09	-36.3	-38.0	22.0	0.00e+00	0	43	0	2848980992	43	4583
2026-01-28 13:09:01.46	317.31	20.98	-36.3	-38.0	22.0	0.00e+00	0	43	0	2854223872	43	4570
2026-01-28 13:09:02.46	317.47	20.88	-36.3	-38.0	22.0	0.00e+00	0	43	0	2859466752	43	4590
2026-01-28 13:09:03.45	317.63	20.77	-36.3	-38.1	21.9	0.00e+00	0	43	0	2865758208	43	4606
2026-01-28 13:09:04.44	317.79	20.67	-36.4	-38.1	21.9	0.00e+00	0	43	0	2871001088	43	4621
2026-01-28 13:09:05.43	317.94	20.56	-36.4	-38.1	21.9	0.00e+00	0	43	0	2876243968	43	4632
2026-01-28 13:09:06.43	318.10	20.46	-36.4	-38.1	21.9	0.00e+00	0	43	0	2882535424	43	4622
2026-01-28 13:09:07.42	318.25	20.35	-36.3	-38.0	21.9	0.00e+00	0	43	0	2887778304	43	4598
2026-01-28 13:09:08.41	318.41	20.25	-36.2	-37.9	22.0	0.00e+00	0	43	0	2893021184	43	4536
2026-01-28 13:09:09.41	318.56	20.15	-36.2	-38.0	22.0	0.00e+00	0	43	0	2899312640	43	4557
2026-01-28 13:09:10.40	318.71	20.04	-36.3	-38.0	21.9	0.00e+00	0	43	0	2904555520	43	4589
2026-01-28 13:09:11.39	318.86	19.94	-36.3	-38.1	21.9	0.00e+00	0	43	0	2909798400	43	4608
2026-01-28 13:09:12.39	319.01	19.84	-36.5	-38.2	21.8	0.00e+00	0	43	0	2916089856	43	4683
2026-01-28 13:09:13.38	319.16	19.73	-36.5	-38.3	21.7	0.00e+00	0	43	0	2921332736	43	4728
2026-01-28 13:09:14.37	319.30	19.63	-36.6	-38.3	21.7	0.00e+00	0	43	0	2926575616	43	4748
2026-01-28 13:09:15.36	319.45	19.53	-36.9	-38.6	21.6	0.00e+00	0	43	0	2932867072	44	4644
2026-01-28 13:09:16.36	319.59	19.43	-37.0	-38.7	21.5	0.00e+00	0	43	0	2938109952	44	4682
2026-01-28 13:09:17.35	319.74	19.32	-37.1	-38.9	21.3	0.00e+00	0	43	0	2943352832	44	4789
2026-01-28 13:09:18.34	319.88	19.22	-37.2	-39.0	21.3	0.00e+00	0	43	0	2949644288	45	4547
2026-01-28 13:09:19.34	320.02	19.12	-37.1	-38.9	21.3	0.00e+00	0	43	0	2954887168	45	4516
2026-01-28 13:09:20.33	320.16	19.02	-37.2	-39.0	21.2	0.00e+00	0	43	0	2960130048	45	4555
2026-01-28 13:09:21.32	320.30	18.92	-37.1	-38.9	21.4	0.00e+00	0	43	0	2965372928	45	4501
2026-01-28 13:09:22.31	320.44	18.82	-37.1	-38.9	21.3	0.00e+00	0	43	0	2971664384	45	4503
2026-01-28 13:09:23.31	320.58	18.72	-37.2	-38.9	21.2	0.00e+00	0	43	0	2976907264	45	4544
2026-01-28 13:09:24.30	320.72	18.62	-37.2	-38.9	21.3	0.00e+00	0	43	0	2983198720	45	4532
2026-01-28 13:09:25.29	320.86	18.52	-37.2	-39.0	21.2	0.00e+00	0	43	0	2988441600	45	4572
2026-01-28 13:09:26.29	320.99	18.42	-37.3	-39.1	21.2	0.00e+00	0	43	0	2993684480	45	4603
2026-01-28 13:09:27.28	321.13	18.32	-37.3	-39.1	21.1	0.00e+00	0	43	0	2998927360	45	4610
2026-01-28 13:09:28.27	321.26	18.22	-37.4	-39.2	21.1	0.00e+00	0	43	0	3005218816	45	4652
2026-01-28 13:09:29.26	321.39	18.12	-37.3	-39.1	21.1	0.00e+00	0	43	0	3010461696	45	4634
2026-01-28 13:09:30.26	321.53	18.02	-37.5	-39.3	20.9	0.00e+00	0	43	0	3015704576	45	4712
2026-01-28 13:09:31.25	321.66	17.92	-37.4	-39.2	21.0	0.00e+00	0	43	0	3021996032	45	4660
2026-01-28 13:09:32.24	321.79	17.83	-37.4	-39.2	21.1	0.00e+00	0	43	0	3027238912	45	4660
2026-01-28 13:09:33.24	321.92	17.73	-37.4	-39.1	21.1	0.00e+00	0	43	0	3033530368	45	4646
2026-01-28 13:09:34.23	322.05	17.63	-37.3	-39.1	21.1	0.00e+00	0	43	0	3038773248	45	4632
2026-01-28 13:09:35.22	322.18	17.53	-37.3	-39.1	21.1	0.00e+00	0	43	0	3044016128	45	4630
2026-01-28 13:09:36.21	322.31	17.44	-37.3	-39.1	21.1	0.00e+00	0	43	0	3049259008	45	4651
2026-01-28 13:09:37.21	322.43	17.34	-37.3	-39.1	21.1	0.00e+00	0	43	0	3055550464	45	4619
2026-01-28 13:09:38.20	322.56	17.24	-37.4	-39.2	21.0	0.00e+00	0	43	0	3060793344	45	4667
2026-01-28 13:09:39.19	322.68	17.15	-37.3	-39.1	21.1	0.00e+00	0	43	0	3066036224	45	4641
2026-01-28 13:09:40.19	322.81	17.05	-37.3	-39.1	21.1	0.00e+00	0	43	0	3072327680	45	4636
2026-01-28 13:09:41.18	322.93	16.96	-37.3	-39.1	21.0	0.00e+00	0	43	0	3077570560	45	4631
2026-01-28 13:09:42.17	323.06	16.86	-37.2	-39.0	21.2	0.00e+00	0	43	0	3082813440	45	4569
2026-01-28 13:09:43.16	323.18	16.76	-37.3	-39.1	21.0	0.00e+00	0	43	0	3089104896	45	4622
2026-01-28 13:09:44.16	323.30	16.67	-37.3	-39.1	21.0	0.00e+00	0	43	0	3094347776	45	4620
2026-01-28 13:09:45.15	323.42	16.57	-37.3	-39.0	21.1	0.00e+00	0	43	0	3099590656	45	4585
2026-01-28 13:09:46.14	323.54	16.48	-37.3	-39.1	21.1	0.00e+00	0	43	0	3105882112	45	4600
2026-01-28 13:09:47.14	323.66	16.39	-37.4	-39.2	21.0	0.00e+00	0	43	0	3111124992	45	4673
2026-01-28 13:09:48.13	323.78	16.29	-37.4	-39.1	21.0	0.00e+00	0	43	0	3116367872	45	4629
2026-01-28 13:09:49.12	323.90	16.20	-37.4	-39.1	21.0	0.00e+00	0	43	0	3122659328	45	4640
2026-01-28 13:09:50.11	324.01	16.10	-37.4	-39.1	21.0	0.00e+00	0	43	0	3127902208	45	4628
2026-01-28 13:09:51.11	324.13	16.01	-37.4	-39.1	21.0	0.00e+00	0	43	0	3133145088	45	4640
2026-01-28 13:09:52.10	324.25	15.92	-37.5	-39.2	20.9	0.00e+00	0	43	0	3139436544	45	4691
2026-01-28 13:09:53.09	324.36	15.83	-37.4	-39.2	20.9	0.00e+00	0	43	0	3144679424	45	4675
2026-01-28 13:09:54.09	324.48	15.73	-37.5	-39.2	20.9	0.00e+00	0	43	0	3149922304	45	4705
2026-01-28 13:09:55.08	324.59	15.64	-37.4	-39.2	20.9	0.00e+00	0	43	0	3155165184	45	4687
2026-01-28 13:09:56.07	324.70	15.55	-37.5	-39.4	20.8	0.00e+00	0	43	0	3161456640	45	4777
2026-01-28 13:09:57.07	324.82	15.46	-37.6	-39.5	20.7	0.00e+00	0	43	0	3166699520	45	4825
2026-01-28 13:09:58.06	324.93	15.36	-37.5	-39.4	20.7	0.00e+00	0	43	0	3172990976	45	4803
2026-01-28 13:09:59.05	325.04	15.27	-37.5	-39.4	20.8	0.00e+00	0	43	0	3178233856	45	4775
2026-01-28 13:10:00.04	325.15	15.18	-37.6	-39.5	20.7	0.00e+00	0	43	0	3183476736	45	4845
2026-01-28 13:10:01.04	325.26	15.09	-37.6	-39.5	20.6	0.00e+00	0	43	0	3189768192	45	4862
2026-01-28 13:10:02.03	325.37	15.00	-37.6	-39.6	20.6	0.00e+00	0	43	0	3195011072	45	4873
2026-01-28 13:10:03.02	325.48	14.91	-37.7	-39.6	20.6	0.00e+00	0	43	0	3200253952	46	4644
2026-01-28 13:10:04.01	325.58	14.82	-37.7	-39.7	20.5	0.00e+00	0	43	0	3205496832	46	4655
2026-01-28 13:10:05.01	325.69	14.73	-37.7	-39.7	20.5	0.00e+00	0	43	0	3211788288	46	4656
2026-01-28 13:10:06.00	325.80	14.64	-37.9	-39.8	20.4	0.00e+00	0	43	0	3217031168	46	4723
2026-01-28 13:10:06.99	325.90	14.55	-37.9	-39.8	20.4	0.00e+00	0	43	0	3223322624	46	4739
2026-01-28 13:10:07.99	326.01	14.46	-38.0	-39.9	20.3	0.00e+00	0	43	0	3228565504	46	4784
2026-01-28 13:10:08.98	326.11	14.37	-37.9	-39.8	20.4	0.00e+00	0	43	0	3233808384	46	4743
2026-01-28 13:10:09.97	326.22	14.29	-37.8	-39.7	20.5	0.00e+00	0	43	0	3239051264	46	4656
2026-01-28 13:10:10.97	326.32	14.20	-37.8	-39.7	20.5	0.00e+00	0	43	0	3245342720	46	4664
2026-01-28 13:10:11.96	326.43	14.11	-37.9	-39.7	20.4	0.00e+00	0	43	0	3250585600	46	4702
2026-01-28 13:10:12.95	326.53	14.02	-37.8	-39.6	20.5	0.00e+00	0	43	0	3255828480	46	4649
2026-01-28 13:10:13.94	326.63	13.93	-37.9	-39.8	20.4	0.00e+00	0	43	0	3262119936	46	4729
2026-01-28 13:10:14.94	326.73	13.85	-38.0	-39.8	20.3	0.00e+00	0	43	0	3267362816	46	4758
2026-01-28 13:10:15.93	326.83	13.76	-37.9	-39.7	20.4	0.00e+00	0	43	0	3272605696	46	4703
2026-01-28 13:10:16.92	326.93	13.67	-38.0	-39.9	20.3	0.00e+00	0	43	0	3278897152	46	4771
2026-01-28 13:10:17.91	327.03	13.59	-38.0	-39.9	20.3	0.00e+00	0	43	0	3284140032	46	4775
2026-01-28 13:10:18.91	327.13	13.50	-38.1	-39.9	20.2	0.00e+00	0	43	0	3289382912	46	4814
2026-01-28 13:10:19.90	327.23	13.41	-38.1	-40.0	20.1	0.00e+00	0	43	0	3295674368	46	4851
2026-01-28 13:10:20.89	327.33	13.33	-38.2	-40.0	20.1	0.00e+00	0	43	0	3300917248	47	4576
2026-01-28 13:10:21.89	327.43	13.24	-38.3	-40.1	20.0	0.00e+00	0	43	0	3307208704	47	4640
2026-01-28 13:10:22.88	327.52	13.16	-38.3	-40.2	20.0	0.00e+00	0	43	0	3312451584	47	4667
2026-01-28 13:10:23.87	327.62	13.07	-38.4	-40.2	19.9	0.00e+00	0	43	0	3317694464	47	4692
2026-01-28 13:10:24.87	327.71	12.99	-38.5	-40.4	19.8	0.00e+00	0	43	0	3322937344	47	4768
2026-01-28 13:10:25.86	327.81	12.90	-38.5	-40.3	19.8	0.00e+00	0	43	0	3329228800	47	4759
2026-01-28 13:10:26.85	327.90	12.82	-38.4	-40.3	19.8	0.00e+00	0	43	0	3334471680	47	4722
2026-01-28 13:10:27.84	328.00	12.73	-38.5	-40.3	19.8	0.00e+00	0	43	0	3339714560	47	4755
2026-01-28 13:10:28.84	328.09	12.65	-38.5	-40.4	19.8	0.00e+00	0	43	0	3346006016	47	4765
2026-01-28 13:10:29.83	328.19	12.56	-38.5	-40.4	19.8	0.00e+00	0	43	0	3351248896	47	4764
2026-01-28 13:10:30.82	328.28	12.48	-38.6	-40.4	19.7	0.00e+00	0	43	0	3356491776	47	4809
2026-01-28 13:10:31.81	328.37	12.40	-38.7	-40.6	19.5	0.00e+00	0	43	0	3362783232	47	4884
2026-01-28 13:10:32.81	328.46	12.31	-38.6	-40.5	19.6	0.00e+00	0	43	0	3368026112	47	4848
2026-01-28 13:10:33.80	328.55	12.23	-38.5	-40.4	19.7	0.00e+00	0	43	0	3373268992	47	4792
2026-01-28 13:10:34.79	328.64	12.15	-38.5	-40.4	19.7	0.00e+00	0	43	0	3379560448	47	4777
2026-01-28 13:10:35.79	328.74	12.06	-38.6	-40.5	19.6	0.00e+00	0	43	0	3384803328	47	4855
2026-01-28 13:10:36.78	328.82	11.98	-38.6	-40.5	19.6	0.00e+00	0	43	0	3390046208	47	4834
2026-01-28 13:10:37.77	328.91	11.90	-38.7	-40.6	19.5	0.00e+00	0	43	0	3396337664	47	4878
2026-01-28 13:10:38.77	329.00	11.82	-38.6	-40.5	19.6	0.00e+00	0	43	0	3401580544	47	4865
2026-01-28 13:10:39.76	329.09	11.74	-38.6	-40.5	19.6	0.00e+00	0	43	0	3406823424	47	4845
2026-01-28 13:10:40.75	329.18	11.66	-38.7	-40.6	19.7	0.00e+00	0	43	0	3413114880	48	4641
2026-01-28 13:10:41.74	329.27	11.57	-38.8	-40.7	19.6	0.00e+00	0	43	0	3418357760	48	4662
2026-01-28 13:10:42.74	329.35	11.49	-38.8	-40.7	19.6	0.00e+00	0	43	0	3423600640	48	4705
2026-01-28 13:10:43.73	329.44	11.41	-38.9	-40.8	19.5	0.00e+00	0	43	0	3428843520	48	4724
2026-01-28 13:10:44.72	329.53	11.33	-38.9	-40.8	19.5	0.00e+00	0	43	0	3435134976	48	4745
2026-01-28 13:10:45.71	329.61	11.25	-39.0	-40.9	19.4	0.00e+00	0	43	0	3440377856	48	4793
2026-01-28 13:10:46.71	329.70	11.17	-38.9	-40.9	19.4	0.00e+00	0	43	0	3446669312	48	4771
2026-01-28 13:10:47.70	329.78	11.09	-39.0	-41.0	19.3	0.00e+00	0	43	0	3451912192	48	4823
2026-01-28 13:10:48.70	329.87	11.01	-39.1	-41.0	19.3	0.00e+00	0	43	0	3457155072	48	4848
2026-01-28 13:10:49.69	329.95	10.93	-39.0	-41.0	19.3	0.00e+00	0	43	0	3463446528	48	4820
2026-01-28 13:10:50.68	330.03	10.85	-39.0	-41.0	19.3	0.00e+00	0	43	0	3468689408	48	4843
2026-01-28 13:10:51.67	330.12	10.77	-39.0	-41.0	19.3	0.00e+00	0	43	0	3473932288	48	4834
2026-01-28 13:10:52.67	330.20	10.69	-39.0	-41.0	19.3	0.00e+00	0	43	0	3479175168	48	4838
2026-01-28 13:10:53.66	330.28	10.61	-39.0	-41.0	19.3	0.00e+00	0	43	0	3485466624	48	4820
2026-01-28 13:10:54.65	330.36	10.54	-39.2	-41.1	19.2	0.00e+00	0	43	0	3490709504	48	4896
2026-01-28 13:10:55.64	330.44	10.46	-39.2	-41.1	19.2	0.00e+00	0	43	0	3497000960	49	4636
2026-01-28 13:10:56.64	330.53	10.38	-39.1	-41.0	19.2	0.00e+00	0	43	0	3502243840	49	4598
2026-01-28 13:10:57.63	330.61	10.30	-39.0	-40.9	19.4	0.00e+00	0	43	0	3507486720	49	4516
2026-01-28 13:10:58.62	330.69	10.22	-39.0	-40.9	19.3	0.00e+00	0	43	0	3512729600	49	4536
2026-01-28 13:10:59.62	330.77	10.15	-39.0	-40.9	19.3	0.00e+00	0	43	0	3519021056	49	4519
2026-01-28 13:11:00.61	330.85	10.07	-39.0	-40.9	19.3	0.00e+00	0	43	0	3524263936	49	4536
2026-01-28 13:11:01.60	330.92	9.99	-39.0	-40.9	19.3	0.00e+00	0	43	0	3529506816	49	4531
2026-01-28 13:11:02.60	331.00	9.91	-39.0	-40.9	19.4	0.00e+00	0	43	0	3535798272	49	4507
2026-01-28 13:11:03.59	331.08	9.84	-39.0	-40.9	19.4	0.00e+00	0	43	0	3541041152	49	4498
2026-01-28 13:11:04.58	331.16	9.76	-39.1	-41.0	19.2	0.00e+00	0	43	0	3546284032	49	4578
2026-01-28 13:11:05.57	331.24	9.69	-39.2	-41.1	19.1	0.00e+00	0	43	0	3552575488	49	4627
2026-01-28 13:11:06.57	331.31	9.61	-39.1	-41.0	19.2	0.00e+00	0	43	0	3557818368	49	4597
2026-01-28 13:11:07.56	331.39	9.53	-39.0	-40.9	19.3	0.00e+00	0	43	0	3563061248	49	4545
2026-01-28 13:11:08.55	331.47	9.46	-39.1	-41.1	19.1	0.00e+00	0	43	0	3569352704	49	4609
2026-01-28 13:11:09.54	331.54	9.38	-39.1	-41.0	19.1	0.00e+00	0	43	0	3574595584	49	4598
2026-01-28 13:11:10.54	331.62	9.31	-39.1	-41.1	19.1	0.00e+00	0	43	0	3579838464	49	4618
2026-01-28 13:11:11.53	331.69	9.23	-39.2	-41.2	19.0	0.00e+00	0	43	0	3586129920	49	4676
2026-01-28 13:11:12.52	331.77	9.16	-39.3	-41.3	18.9	0.00e+00	0	43	0	3591372800	49	4715
2026-01-28 13:11:13.52	331.84	9.08	-39.2	-41.2	19.0	0.00e+00	0	43	0	3596615680	49	4674
2026-01-28 13:11:14.51	331.92	9.01	-40.1	-42.2	18.1	0.00e+00	0	43	0	3602907136	50	4933
2026-01-28 13:11:15.50	331.99	8.93	-48.2	-60.9	3.8	8.41e-01	0	43	104	3606052864	67	15998
