passes_logs/2026/01/28/T1/T1__20260128_111925_FENGYUN_3D_rec.log

#Pass ID: 20260128_111925_FENGYUN 3D
#Satellite: FENGYUN 3D
#Configuration: FENGYUN 3D
#almurnet v.1.7.20251203
#Start time: 2026-01-28 11:19:27

#Version: 2.0.20230620
#Station: T1
#Location: 37.570604 lon 55.790049 lat
#TLE: 1 43010U 17072A   26027.90082829  .00000305  00000+0  16579-3 0  9998
#TLE: 2 43010  98.9960 359.9183 0002511  88.1058 272.0405 14.19701796425082

#Time	Az	El	Level	Level2	SNR	BER	BlckErr	Temp	State	Recorded	gain1	gain2
2026-01-28 11:19:27.20	138.96	5.12	-49.8	-62.2	3.8	8.48e-01	0	38	0	0	70	15679
2026-01-28 11:19:28.18	138.93	5.18	-50.2	-62.2	3.8	8.47e-01	0	38	104	0	71	14817
2026-01-28 11:19:29.18	138.89	5.26	-50.0	-62.2	3.8	8.46e-01	0	38	104	0	71	14817
2026-01-28 11:19:30.17	138.86	5.33	-50.0	-62.2	3.8	8.46e-01	0	38	104	0	71	14789
2026-01-28 11:19:31.16	138.82	5.40	-50.1	-62.2	3.8	8.47e-01	0	38	104	0	71	14737
2026-01-28 11:19:32.16	138.79	5.47	-50.1	-62.1	3.8	8.48e-01	0	38	104	0	71	14690
2026-01-28 11:19:33.15	138.75	5.54	-50.1	-62.2	3.8	8.46e-01	0	38	104	0	71	14752
2026-01-28 11:19:34.14	138.72	5.61	-50.0	-62.2	3.8	8.47e-01	0	38	104	0	71	14726
2026-01-28 11:19:35.14	138.68	5.68	-50.0	-62.1	3.8	8.47e-01	0	38	104	0	71	14577
2026-01-28 11:19:36.13	138.65	5.75	-49.9	-62.1	3.8	8.47e-01	0	38	104	0	71	14597
2026-01-28 11:19:37.12	138.61	5.82	-49.8	-62.0	3.8	8.46e-01	0	38	104	0	71	14499
2026-01-28 11:19:38.11	138.57	5.89	-49.8	-62.0	3.8	8.47e-01	0	38	104	0	71	14428
2026-01-28 11:19:39.11	138.54	5.97	-49.6	-61.9	3.8	8.46e-01	0	38	104	0	71	14320
2026-01-28 11:19:40.10	138.50	6.04	-49.7	-61.8	3.8	8.47e-01	0	38	104	0	70	14961
2026-01-28 11:19:41.09	138.47	6.11	-49.7	-61.7	3.8	8.47e-01	0	39	104	0	70	14721
2026-01-28 11:19:42.09	138.43	6.18	-49.5	-61.6	3.8	8.47e-01	0	39	104	0	70	14588
2026-01-28 11:19:43.08	138.39	6.26	-49.1	-59.9	3.8	8.45e-01	0	39	104	0	70	12043
2026-01-28 11:19:44.07	138.35	6.33	-49.2	-60.3	3.8	8.47e-01	0	39	104	0	70	12571
2026-01-28 11:19:45.06	138.32	6.40	-49.2	-60.6	3.8	8.47e-01	0	39	104	0	70	13071
2026-01-28 11:19:46.06	138.28	6.47	-49.2	-60.9	3.8	8.46e-01	0	39	104	0	70	13460
2026-01-28 11:19:47.05	138.24	6.55	-49.3	-61.2	3.8	8.47e-01	0	39	104	0	70	13904
2026-01-28 11:19:48.04	138.20	6.62	-49.3	-61.3	3.8	8.47e-01	0	39	104	0	70	14163
2026-01-28 11:19:49.04	138.17	6.70	-49.3	-61.3	3.8	8.47e-01	0	39	104	0	70	14195
2026-01-28 11:19:50.03	138.13	6.77	-49.3	-61.3	3.8	8.48e-01	0	39	104	0	70	14108
2026-01-28 11:19:51.02	138.09	6.84	-49.2	-61.1	3.8	8.47e-01	0	39	104	0	70	13843
2026-01-28 11:19:52.01	138.05	6.92	-49.2	-60.9	3.8	8.47e-01	0	39	104	0	70	13546
2026-01-28 11:19:53.01	138.01	6.99	-49.2	-60.7	3.8	8.48e-01	0	39	104	0	70	13228
2026-01-28 11:19:54.00	137.97	7.07	-49.2	-60.5	3.8	8.45e-01	0	39	104	0	70	12881
2026-01-28 11:19:54.99	137.93	7.14	-49.1	-60.1	3.8	8.47e-01	0	39	104	0	70	12284
2026-01-28 11:19:55.99	137.89	7.22	-49.0	-59.2	3.9	8.45e-01	0	39	104	0	70	11134
2026-01-28 11:19:56.98	137.85	7.29	-48.8	-58.1	3.9	8.43e-01	0	39	104	0	69	10323
2026-01-28 11:19:57.97	137.81	7.37	-48.4	-56.1	4.8	8.23e-01	0	39	0	0	68	8760
2026-01-28 11:19:58.97	137.77	7.44	-47.7	-54.0	6.2	4.67e-01	0	39	0	2097152	67	7224
2026-01-28 11:19:59.96	137.73	7.52	-47.0	-52.1	7.8	1.53e-01	0	39	0	7340032	66	6170
2026-01-28 11:20:00.95	137.69	7.60	-46.1	-50.3	9.6	2.53e-02	0	39	0	12582912	64	5631
2026-01-28 11:20:01.95	137.65	7.67	-45.3	-48.8	11.3	3.57e-03	0	39	0	18874368	62	5296
2026-01-28 11:20:02.94	137.61	7.75	-44.3	-47.4	12.7	3.97e-04	0	39	0	24117248	60	5082
2026-01-28 11:20:03.93	137.57	7.83	-43.5	-46.3	13.9	1.71e-05	0	39	0	29360128	59	4725
2026-01-28 11:20:04.93	137.52	7.90	-42.8	-45.3	14.8	2.20e-06	0	39	0	34603008	57	4753
2026-01-28 11:20:05.92	137.48	7.98	-42.2	-44.6	15.5	0.00e+00	0	39	0	40894464	56	4617
2026-01-28 11:20:06.91	137.44	8.06	-41.5	-43.8	16.1	0.00e+00	0	39	0	46137344	55	4463
2026-01-28 11:20:07.90	137.40	8.14	-41.2	-43.4	16.5	0.00e+00	0	39	0	52428800	54	4517
2026-01-28 11:20:08.90	137.36	8.21	-40.9	-43.2	16.7	0.00e+00	0	39	0	57671680	53	4653
2026-01-28 11:20:09.89	137.31	8.29	-40.9	-43.1	16.7	0.00e+00	0	39	0	62914560	53	4650
2026-01-28 11:20:10.88	137.27	8.37	-41.2	-43.4	16.5	0.00e+00	0	39	0	68157440	53	4813
2026-01-28 11:20:11.88	137.23	8.45	-41.6	-43.9	16.0	0.00e+00	0	39	0	74448896	53	5085
2026-01-28 11:20:12.87	137.18	8.53	-42.1	-44.6	15.4	0.00e+00	0	39	0	79691776	54	5161
2026-01-28 11:20:13.86	137.14	8.61	-42.9	-45.6	14.6	0.00e+00	0	39	0	84934656	56	5172
2026-01-28 11:20:14.85	137.09	8.69	-43.9	-46.8	13.4	5.70e-06	0	39	0	91226112	58	5294
2026-01-28 11:20:15.85	137.05	8.77	-44.7	-48.0	12.1	2.01e-04	0	40	0	96468992	60	5433
2026-01-28 11:20:16.84	137.01	8.85	-45.8	-49.6	10.5	2.38e-03	0	39	0	101711872	62	5820
2026-01-28 11:20:17.83	136.96	8.93	-46.7	-51.4	8.5	3.40e-02	0	39	0	108003328	64	6381
2026-01-28 11:20:18.83	136.92	9.01	-47.6	-53.6	6.4	1.80e-01	0	39	0	113246208	65	7801
2026-01-28 11:20:19.82	136.87	9.09	-47.1	-52.4	7.5	3.21e-01	0	39	0	118489088	66	6404
2026-01-28 11:20:20.81	136.82	9.17	-43.6	-46.4	13.7	1.88e-03	0	39	0	124780544	59	4775
2026-01-28 11:20:21.81	136.78	9.25	-49.2	-61.1	3.8	1.12e-01	0	40	104	128974848	69	14557
2026-01-28 11:20:22.80	136.73	9.33	-45.4	-49.0	10.9	8.13e-01	0	40	104	128974848	62	5433
2026-01-28 11:20:23.79	136.69	9.41	-43.2	-45.9	14.3	2.97e-05	0	40	0	133169152	58	4778
2026-01-28 11:20:24.78	136.64	9.49	-43.1	-45.7	14.4	1.37e-05	0	40	0	138412032	58	4704
2026-01-28 11:20:25.78	136.59	9.58	-43.2	-45.9	14.3	0.00e+00	0	40	0	143654912	58	4762
2026-01-28 11:20:26.77	136.54	9.66	-42.1	-44.5	15.6	0.00e+00	0	40	0	149946368	56	4583
2026-01-28 11:20:27.76	136.50	9.74	-41.1	-43.4	16.6	0.00e+00	0	40	0	155189248	54	4515
2026-01-28 11:20:28.76	136.45	9.83	-40.5	-42.7	17.3	0.00e+00	0	39	0	161480704	53	4413
2026-01-28 11:20:29.75	136.40	9.91	-40.1	-42.2	17.7	0.00e+00	0	40	0	166723584	52	4422
2026-01-28 11:20:30.74	136.35	9.99	-40.0	-42.1	17.9	0.00e+00	0	40	0	171966464	51	4613
2026-01-28 11:20:31.73	136.30	10.07	-39.8	-41.9	18.1	0.00e+00	0	40	0	177209344	51	4508
2026-01-28 11:20:32.73	136.25	10.16	-39.9	-41.9	18.1	0.00e+00	0	40	0	183500800	51	4534
2026-01-28 11:20:33.72	136.20	10.24	-39.7	-41.7	18.2	0.00e+00	0	40	0	188743680	51	4441
2026-01-28 11:20:34.71	136.16	10.33	-39.6	-41.6	18.4	0.00e+00	0	40	0	193986560	51	4370
2026-01-28 11:20:35.71	136.10	10.41	-39.6	-41.7	18.3	0.00e+00	0	40	0	200278016	51	4410
2026-01-28 11:20:36.70	136.05	10.50	-39.6	-41.6	18.4	0.00e+00	0	40	0	205520896	51	4373
2026-01-28 11:20:37.69	136.00	10.58	-39.5	-41.6	18.4	0.00e+00	0	40	0	210763776	51	4351
2026-01-28 11:20:38.69	135.95	10.67	-39.4	-41.5	18.5	0.00e+00	0	40	0	217055232	50	4558
2026-01-28 11:20:39.68	135.90	10.75	-39.4	-41.4	18.6	0.00e+00	0	40	0	222298112	50	4540
2026-01-28 11:20:40.67	135.85	10.84	-39.5	-41.5	18.5	0.00e+00	0	40	0	227540992	50	4559
2026-01-28 11:20:41.67	135.80	10.93	-39.4	-41.4	18.6	0.00e+00	0	40	0	233832448	50	4528
2026-01-28 11:20:42.66	135.75	11.01	-39.4	-41.4	18.6	0.00e+00	0	40	0	239075328	50	4536
2026-01-28 11:20:43.65	135.69	11.10	-39.4	-41.4	18.6	0.00e+00	0	40	0	244318208	50	4535
2026-01-28 11:20:44.64	135.64	11.19	-39.3	-41.3	18.7	0.00e+00	0	40	0	250609664	50	4488
2026-01-28 11:20:45.64	135.59	11.28	-39.3	-41.4	18.7	0.00e+00	0	40	0	255852544	50	4497
2026-01-28 11:20:46.63	135.53	11.36	-39.2	-41.2	18.8	0.00e+00	0	40	0	261095424	50	4415
2026-01-28 11:20:47.62	135.48	11.45	-39.2	-41.2	18.8	0.00e+00	0	40	0	267386880	50	4435
2026-01-28 11:20:48.62	135.43	11.54	-39.2	-41.2	18.8	0.00e+00	0	40	0	272629760	50	4420
2026-01-28 11:20:49.61	135.37	11.63	-39.2	-41.2	18.9	0.00e+00	0	40	0	277872640	50	4397
2026-01-28 11:20:50.60	135.32	11.72	-39.2	-41.3	18.8	0.00e+00	0	40	0	284164096	50	4442
2026-01-28 11:20:51.59	135.26	11.81	-39.1	-41.1	19.0	0.00e+00	0	40	0	289406976	50	4351
2026-01-28 11:20:52.59	135.21	11.90	-39.2	-41.2	18.8	0.00e+00	0	40	0	294649856	50	4413
2026-01-28 11:20:53.58	135.15	11.99	-38.9	-40.9	19.1	0.00e+00	0	40	0	300941312	49	4521
2026-01-28 11:20:54.57	135.09	12.08	-38.9	-40.9	19.1	0.00e+00	0	40	0	306184192	49	4525
2026-01-28 11:20:55.57	135.04	12.17	-38.9	-40.8	19.2	0.00e+00	0	40	0	311427072	49	4474
2026-01-28 11:20:56.56	134.98	12.26	-38.9	-40.9	19.2	0.00e+00	0	40	0	317718528	49	4499
2026-01-28 11:20:57.55	134.92	12.35	-38.7	-40.7	19.3	0.00e+00	0	40	0	322961408	49	4406
2026-01-28 11:20:58.55	134.87	12.44	-38.7	-40.6	19.4	0.00e+00	0	40	0	328204288	49	4371
2026-01-28 11:20:59.54	134.81	12.53	-38.7	-40.6	19.4	0.00e+00	0	40	0	334495744	49	4364
2026-01-28 11:21:00.53	134.75	12.62	-38.6	-40.6	19.4	0.00e+00	0	40	0	339738624	49	4350
2026-01-28 11:21:01.52	134.69	12.72	-38.6	-40.5	19.5	0.00e+00	0	40	0	344981504	49	4316
2026-01-28 11:21:02.52	134.63	12.81	-38.6	-40.5	19.5	0.00e+00	0	40	0	351272960	49	4319
2026-01-28 11:21:03.51	134.57	12.90	-38.6	-40.5	19.5	0.00e+00	0	40	0	356515840	49	4302
2026-01-28 11:21:04.50	134.51	12.99	-38.6	-40.5	19.4	0.00e+00	0	40	0	361758720	49	4339
2026-01-28 11:21:05.50	134.45	13.09	-38.5	-40.5	19.5	0.00e+00	0	40	0	367001600	49	4292
2026-01-28 11:21:06.49	134.39	13.18	-38.4	-40.4	19.6	0.00e+00	0	40	0	373293056	48	4500
2026-01-28 11:21:07.48	134.33	13.28	-38.5	-40.5	19.6	0.00e+00	0	40	0	378535936	48	4554
2026-01-28 11:21:08.48	134.27	13.37	-38.5	-40.4	19.6	0.00e+00	0	40	0	384827392	48	4529
2026-01-28 11:21:09.47	134.20	13.47	-38.4	-40.3	19.7	0.00e+00	0	40	0	390070272	48	4474
2026-01-28 11:21:10.46	134.14	13.56	-38.4	-40.3	19.7	0.00e+00	0	40	0	395313152	48	4486
2026-01-28 11:21:11.45	134.08	13.66	-38.3	-40.2	19.8	0.00e+00	0	40	0	401604608	48	4416
2026-01-28 11:21:12.44	134.02	13.75	-38.2	-40.1	19.9	0.00e+00	0	40	0	406847488	48	4383
2026-01-28 11:21:13.44	133.95	13.85	-38.3	-40.2	19.8	0.00e+00	0	40	0	412090368	48	4395
2026-01-28 11:21:14.43	133.89	13.95	-38.1	-40.0	19.9	0.00e+00	0	40	0	417333248	48	4323
2026-01-28 11:21:15.42	133.82	14.04	-38.1	-40.0	19.9	0.00e+00	0	40	0	423624704	48	4332
2026-01-28 11:21:16.42	133.76	14.14	-38.3	-40.2	19.9	0.00e+00	0	40	0	428867584	48	4394
2026-01-28 11:21:17.41	133.69	14.24	-38.2	-40.1	19.9	0.00e+00	0	40	0	435159040	48	4349
2026-01-28 11:21:18.40	133.63	14.34	-38.1	-40.0	20.0	0.00e+00	0	40	0	440401920	48	4320
2026-01-28 11:21:19.40	133.56	14.44	-38.0	-39.9	20.0	0.00e+00	0	40	0	445644800	48	4276
2026-01-28 11:21:20.39	133.49	14.53	-38.1	-39.9	20.0	0.00e+00	0	40	0	450887680	48	4287
2026-01-28 11:21:21.38	133.43	14.63	-38.1	-40.0	20.0	0.00e+00	0	40	0	457179136	48	4302
2026-01-28 11:21:22.37	133.36	14.73	-38.0	-39.9	20.1	0.00e+00	0	40	0	462422016	48	4254
2026-01-28 11:21:23.37	133.29	14.83	-38.1	-39.9	20.0	0.00e+00	0	40	0	467664896	48	4286
2026-01-28 11:21:24.36	133.22	14.93	-37.9	-39.8	20.0	0.00e+00	0	40	0	473956352	47	4451
2026-01-28 11:21:25.35	133.15	15.03	-37.8	-39.7	20.0	0.00e+00	0	40	0	479199232	47	4431
2026-01-28 11:21:26.34	133.08	15.13	-37.9	-39.8	19.9	0.00e+00	0	40	0	484442112	47	4493
2026-01-28 11:21:27.34	133.01	15.24	-37.9	-39.8	19.9	0.00e+00	0	40	0	490733568	47	4480
2026-01-28 11:21:28.33	132.94	15.34	-37.9	-39.8	19.9	0.00e+00	0	40	0	495976448	47	4487
2026-01-28 11:21:29.32	132.87	15.44	-37.9	-39.8	20.0	0.00e+00	0	40	0	501219328	47	4454
2026-01-28 11:21:30.31	132.80	15.54	-37.7	-39.5	20.2	0.00e+00	0	40	0	507510784	47	4330
2026-01-28 11:21:31.31	132.73	15.65	-37.6	-39.5	20.2	0.00e+00	0	40	0	512753664	47	4312
2026-01-28 11:21:32.30	132.65	15.75	-37.8	-39.6	20.1	0.00e+00	0	40	0	517996544	47	4390
2026-01-28 11:21:33.29	132.58	15.85	-37.6	-39.5	20.2	0.00e+00	0	40	0	524288000	47	4310
2026-01-28 11:21:34.29	132.51	15.96	-37.6	-39.5	20.2	0.00e+00	0	40	0	529530880	47	4312
2026-01-28 11:21:35.28	132.43	16.06	-37.7	-39.6	20.1	0.00e+00	0	40	0	534773760	47	4352
2026-01-28 11:21:36.27	132.36	16.17	-37.6	-39.5	20.2	0.00e+00	0	40	0	541065216	47	4307
2026-01-28 11:21:37.27	132.28	16.27	-37.7	-39.6	20.2	0.00e+00	0	40	0	546308096	47	4352
2026-01-28 11:21:38.26	132.21	16.38	-37.6	-39.5	20.2	0.00e+00	0	40	0	551550976	47	4335
2026-01-28 11:21:39.25	132.13	16.48	-37.5	-39.4	20.3	0.00e+00	0	40	0	557842432	47	4282
2026-01-28 11:21:40.24	132.05	16.59	-37.5	-39.4	20.3	0.00e+00	0	40	0	563085312	47	4284
2026-01-28 11:21:41.24	131.98	16.70	-37.5	-39.3	20.4	0.00e+00	0	40	0	568328192	46	4485
2026-01-28 11:21:42.23	131.90	16.80	-37.5	-39.3	20.4	0.00e+00	0	40	0	574619648	46	4490
2026-01-28 11:21:43.22	131.82	16.91	-37.4	-39.3	20.4	0.00e+00	0	40	0	579862528	46	4446
2026-01-28 11:21:44.22	131.74	17.02	-37.4	-39.2	20.5	0.00e+00	0	40	0	585105408	46	4441
2026-01-28 11:21:45.21	131.66	17.13	-37.3	-39.1	20.6	0.00e+00	0	40	0	591396864	46	4376
2026-01-28 11:21:46.20	131.58	17.24	-37.3	-39.2	20.5	0.00e+00	0	40	0	596639744	46	4400
2026-01-28 11:21:47.20	131.50	17.35	-37.4	-39.2	20.5	0.00e+00	0	40	0	601882624	46	4440
2026-01-28 11:21:48.19	131.42	17.46	-37.2	-39.1	20.6	0.00e+00	0	40	0	607125504	46	4357
2026-01-28 11:21:49.18	131.33	17.57	-37.2	-39.0	20.7	0.00e+00	0	40	0	613416960	46	4315
2026-01-28 11:21:50.17	131.25	17.68	-37.2	-39.0	20.7	0.00e+00	0	40	0	618659840	46	4318
2026-01-28 11:21:51.17	131.17	17.79	-37.1	-39.0	20.7	0.00e+00	0	40	0	624951296	46	4297
2026-01-28 11:21:52.16	131.08	17.90	-37.1	-38.9	20.8	0.00e+00	0	40	0	630194176	46	4258
2026-01-28 11:21:53.15	131.00	18.01	-37.1	-38.9	20.7	0.00e+00	0	40	0	635437056	46	4284
2026-01-28 11:21:54.15	130.91	18.13	-37.2	-39.0	20.7	0.00e+00	0	40	0	641728512	46	4318
2026-01-28 11:21:55.14	130.83	18.24	-37.1	-38.9	20.8	0.00e+00	0	40	0	646971392	46	4267
2026-01-28 11:21:56.13	130.74	18.35	-37.2	-39.0	20.7	0.00e+00	0	40	0	652214272	46	4317
2026-01-28 11:21:57.13	130.65	18.47	-37.2	-39.0	20.6	0.00e+00	0	40	0	658505728	46	4327
2026-01-28 11:21:58.12	130.56	18.58	-37.1	-39.0	20.7	0.00e+00	0	40	0	663748608	46	4294
2026-01-28 11:21:59.11	130.48	18.70	-37.1	-39.0	20.7	0.00e+00	0	40	0	668991488	46	4295
2026-01-28 11:22:00.10	130.39	18.81	-37.1	-38.9	20.7	0.00e+00	0	40	0	675282944	46	4291
2026-01-28 11:22:01.10	130.29	18.93	-37.0	-38.9	20.7	0.00e+00	0	40	0	680525824	46	4268
2026-01-28 11:22:02.09	130.20	19.04	-37.1	-39.0	20.7	0.00e+00	0	40	0	685768704	46	4310
2026-01-28 11:22:03.08	130.11	19.16	-37.1	-38.9	20.7	0.00e+00	0	40	0	691011584	46	4272
2026-01-28 11:22:04.08	130.02	19.28	-37.0	-38.9	20.8	0.00e+00	0	40	0	697303040	46	4252
2026-01-28 11:22:05.07	129.93	19.40	-36.8	-38.6	20.9	0.00e+00	0	40	0	702545920	45	4391
2026-01-28 11:22:06.06	129.83	19.51	-36.7	-38.5	21.1	0.00e+00	0	40	0	708837376	45	4327
2026-01-28 11:22:07.05	129.74	19.63	-36.7	-38.5	21.1	0.00e+00	0	40	0	714080256	45	4323
2026-01-28 11:22:08.05	129.64	19.75	-36.5	-38.3	21.2	0.00e+00	0	40	0	719323136	45	4240
2026-01-28 11:22:09.04	129.55	19.87	-36.6	-38.4	21.2	0.00e+00	0	40	0	724566016	45	4253
2026-01-28 11:22:10.04	129.45	19.99	-36.7	-38.5	21.1	0.00e+00	0	40	0	730857472	45	4308
2026-01-28 11:22:11.03	129.35	20.11	-36.5	-38.3	21.3	0.00e+00	0	40	0	736100352	45	4241
2026-01-28 11:22:12.02	129.25	20.23	-36.5	-38.3	21.3	0.00e+00	0	40	0	741343232	45	4215
2026-01-28 11:22:13.01	129.15	20.35	-36.5	-38.3	21.2	0.00e+00	0	40	0	747634688	45	4236
2026-01-28 11:22:14.00	129.05	20.48	-36.5	-38.3	21.3	0.00e+00	0	40	0	752877568	44	4443
2026-01-28 11:22:15.00	128.95	20.60	-36.4	-38.3	21.3	0.00e+00	0	40	0	759169024	44	4444
2026-01-28 11:22:15.99	128.85	20.72	-36.5	-38.3	21.3	0.00e+00	0	40	0	764411904	44	4456
2026-01-28 11:22:16.98	128.75	20.85	-36.6	-38.4	21.2	0.00e+00	0	40	0	769654784	44	4502
2026-01-28 11:22:17.98	128.65	20.97	-36.6	-38.4	21.2	0.00e+00	0	40	0	774897664	44	4532
2026-01-28 11:22:18.97	128.54	21.09	-36.5	-38.3	21.3	0.00e+00	0	40	0	781189120	44	4482
2026-01-28 11:22:19.96	128.44	21.22	-36.5	-38.3	21.3	0.00e+00	0	40	0	786432000	44	4463
2026-01-28 11:22:20.95	128.33	21.34	-36.5	-38.3	21.3	0.00e+00	0	40	0	791674880	44	4492
2026-01-28 11:22:21.95	128.22	21.47	-36.4	-38.2	21.4	0.00e+00	0	40	0	797966336	44	4404
2026-01-28 11:22:22.94	128.12	21.60	-36.3	-38.1	21.4	0.00e+00	0	40	0	803209216	44	4368
2026-01-28 11:22:23.93	128.01	21.72	-36.3	-38.1	21.5	0.00e+00	0	40	0	808452096	44	4369
2026-01-28 11:22:24.93	127.90	21.85	-36.2	-38.1	21.5	0.00e+00	0	40	0	814743552	44	4344
2026-01-28 11:22:25.92	127.79	21.98	-36.2	-38.0	21.5	0.00e+00	0	40	0	819986432	44	4334
2026-01-28 11:22:26.91	127.68	22.11	-36.1	-37.9	21.7	0.00e+00	0	40	0	825229312	44	4250
2026-01-28 11:22:27.91	127.56	22.24	-36.0	-37.8	21.8	0.00e+00	0	40	0	831520768	44	4218
2026-01-28 11:22:28.90	127.45	22.37	-36.1	-37.8	21.7	0.00e+00	0	40	0	836763648	44	4239
2026-01-28 11:22:29.89	127.33	22.50	-35.8	-37.5	21.8	0.00e+00	0	40	0	842006528	43	4332
2026-01-28 11:22:30.89	127.22	22.63	-35.8	-37.6	21.8	0.00e+00	0	40	0	848297984	43	4351
2026-01-28 11:22:31.88	127.10	22.76	-35.7	-37.5	21.9	0.00e+00	0	40	0	853540864	43	4306
2026-01-28 11:22:32.87	126.99	22.89	-35.8	-37.6	21.8	0.00e+00	0	40	0	858783744	43	4357
2026-01-28 11:22:33.86	126.87	23.03	-35.7	-37.5	21.9	0.00e+00	0	40	0	865075200	43	4327
2026-01-28 11:22:34.86	126.75	23.16	-35.7	-37.5	21.9	0.00e+00	0	40	0	870318080	43	4312
2026-01-28 11:22:35.85	126.63	23.29	-35.7	-37.5	21.9	0.00e+00	0	40	0	875560960	43	4325
2026-01-28 11:22:36.84	126.51	23.43	-35.7	-37.5	21.8	0.00e+00	0	40	0	880803840	43	4319
2026-01-28 11:22:37.84	126.38	23.56	-35.7	-37.5	21.8	0.00e+00	0	40	0	887095296	43	4332
2026-01-28 11:22:38.83	126.26	23.70	-35.7	-37.5	21.9	0.00e+00	0	40	0	892338176	43	4297
2026-01-28 11:22:39.82	126.13	23.83	-35.7	-37.5	21.8	0.00e+00	0	40	0	898629632	43	4323
2026-01-28 11:22:40.82	126.01	23.97	-35.7	-37.5	21.8	0.00e+00	0	40	0	903872512	43	4302
2026-01-28 11:22:41.81	125.88	24.11	-35.6	-37.4	21.9	0.00e+00	0	40	0	909115392	43	4253
2026-01-28 11:22:42.80	125.75	24.25	-35.7	-37.4	21.9	0.00e+00	0	40	0	915406848	43	4291
2026-01-28 11:22:43.80	125.62	24.39	-35.5	-37.3	22.0	0.00e+00	0	40	0	920649728	43	4201
2026-01-28 11:22:44.79	125.49	24.52	-35.5	-37.2	22.1	0.00e+00	0	40	0	925892608	42	4422
2026-01-28 11:22:45.78	125.36	24.66	-35.4	-37.2	22.1	0.00e+00	0	40	0	931135488	42	4407
2026-01-28 11:22:46.77	125.23	24.80	-35.3	-37.1	22.2	0.00e+00	0	40	0	937426944	42	4356
2026-01-28 11:22:47.77	125.09	24.94	-35.4	-37.1	22.1	0.00e+00	0	40	0	942669824	42	4385
2026-01-28 11:22:48.76	124.96	25.08	-35.3	-37.1	22.2	0.00e+00	0	41	0	948961280	42	4344
2026-01-28 11:22:49.75	124.82	25.23	-35.4	-37.1	22.2	0.00e+00	0	40	0	954204160	42	4387
2026-01-28 11:22:50.75	124.68	25.37	-35.4	-37.2	22.1	0.00e+00	0	40	0	959447040	42	4406
2026-01-28 11:22:51.74	124.55	25.51	-35.5	-37.3	22.0	0.00e+00	0	40	0	964689920	42	4448
2026-01-28 11:22:52.73	124.41	25.65	-35.4	-37.2	22.1	0.00e+00	0	40	0	970981376	42	4423
2026-01-28 11:22:53.72	124.27	25.80	-35.3	-37.1	22.1	0.00e+00	0	40	0	976224256	42	4377
2026-01-28 11:22:54.72	124.12	25.94	-35.4	-37.1	22.1	0.00e+00	0	40	0	981467136	42	4390
2026-01-28 11:22:55.71	123.98	26.09	-35.2	-37.0	22.2	0.00e+00	0	40	0	987758592	42	4312
2026-01-28 11:22:56.70	123.83	26.23	-35.2	-37.0	22.2	0.00e+00	0	40	0	993001472	42	4316
2026-01-28 11:22:57.70	123.68	26.38	-35.2	-37.0	22.3	0.00e+00	0	40	0	999292928	42	4313
2026-01-28 11:22:58.69	123.54	26.53	-35.2	-37.0	22.3	0.00e+00	0	40	0	1004535808	42	4298
2026-01-28 11:22:59.68	123.39	26.67	-35.2	-36.9	22.3	0.00e+00	0	40	0	1009778688	42	4288
2026-01-28 11:23:00.67	123.24	26.82	-35.2	-36.9	22.3	0.00e+00	0	40	0	1015021568	42	4288
2026-01-28 11:23:01.67	123.08	26.97	-35.3	-37.0	22.2	0.00e+00	0	40	0	1021313024	42	4336
2026-01-28 11:23:02.66	122.93	27.12	-35.3	-37.1	22.1	0.00e+00	0	40	0	1026555904	42	4373
2026-01-28 11:23:03.65	122.77	27.27	-35.3	-37.1	22.1	0.00e+00	0	40	0	1032847360	42	4362
2026-01-28 11:23:04.65	122.62	27.42	-35.4	-37.1	22.1	0.00e+00	0	40	0	1038090240	42	4391
2026-01-28 11:23:05.64	122.46	27.57	-35.2	-37.0	22.3	0.00e+00	0	40	0	1043333120	42	4309
2026-01-28 11:23:06.63	122.30	27.72	-35.3	-37.0	22.2	0.00e+00	0	40	0	1048576000	42	4337
2026-01-28 11:23:07.63	122.14	27.88	-35.2	-36.9	22.3	0.00e+00	0	40	0	1054867456	42	4274
2026-01-28 11:23:08.62	121.97	28.03	-35.1	-36.9	22.4	0.00e+00	0	40	0	1060110336	42	4246
2026-01-28 11:23:09.61	121.81	28.18	-35.1	-36.8	22.4	0.00e+00	0	40	0	1065353216	42	4241
2026-01-28 11:23:10.60	121.64	28.34	-34.9	-36.7	22.5	0.00e+00	0	40	0	1071644672	41	4392
2026-01-28 11:23:11.60	121.47	28.49	-34.9	-36.6	22.6	0.00e+00	0	40	0	1076887552	41	4366
2026-01-28 11:23:12.59	121.30	28.65	-34.9	-36.6	22.6	0.00e+00	0	40	0	1082130432	41	4360
2026-01-28 11:23:13.58	121.13	28.80	-34.8	-36.5	22.7	0.00e+00	0	40	0	1088421888	41	4326
2026-01-28 11:23:14.58	120.96	28.96	-34.8	-36.6	22.6	0.00e+00	0	40	0	1093664768	41	4349
2026-01-28 11:23:15.57	120.79	29.11	-34.8	-36.5	22.6	0.00e+00	0	40	0	1098907648	41	4333
2026-01-28 11:23:16.56	120.61	29.27	-34.9	-36.6	22.6	0.00e+00	0	40	0	1105199104	41	4371
2026-01-28 11:23:17.56	120.43	29.43	-34.9	-36.7	22.5	0.00e+00	0	40	0	1110441984	41	4417
2026-01-28 11:23:18.55	120.25	29.59	-34.9	-36.7	22.5	0.00e+00	0	40	0	1115684864	41	4403
2026-01-28 11:23:19.54	120.07	29.75	-35.0	-36.8	22.4	0.00e+00	0	40	0	1121976320	41	4444
2026-01-28 11:23:20.54	119.88	29.91	-35.1	-36.9	22.3	0.00e+00	0	40	0	1127219200	41	4498
2026-01-28 11:23:21.53	119.70	30.07	-35.1	-36.9	22.3	0.00e+00	0	40	0	1132462080	41	4507
2026-01-28 11:23:22.52	119.51	30.23	-35.0	-36.8	22.4	0.00e+00	0	40	0	1138753536	41	4460
2026-01-28 11:23:23.52	119.32	30.39	-35.1	-36.8	22.4	0.00e+00	0	40	0	1143996416	41	4488
2026-01-28 11:23:24.51	119.13	30.55	-34.9	-36.7	22.5	0.00e+00	0	40	0	1149239296	41	4415
2026-01-28 11:23:25.50	118.94	30.71	-35.0	-36.7	22.5	0.00e+00	0	40	0	1155530752	41	4433
2026-01-28 11:23:26.49	118.74	30.88	-35.0	-36.8	22.5	0.00e+00	0	40	0	1160773632	41	4453
2026-01-28 11:23:27.49	118.55	31.04	-34.9	-36.6	22.6	0.00e+00	0	40	0	1166016512	41	4385
2026-01-28 11:23:28.48	118.35	31.20	-34.9	-36.6	22.6	0.00e+00	0	40	0	1172307968	41	4383
2026-01-28 11:23:29.47	118.15	31.37	-35.0	-36.8	22.5	0.00e+00	0	40	0	1177550848	41	4460
2026-01-28 11:23:30.46	117.94	31.53	-35.1	-36.8	22.4	0.00e+00	0	40	0	1182793728	41	4466
2026-01-28 11:23:31.46	117.74	31.70	-35.0	-36.8	22.5	0.00e+00	0	41	0	1189085184	41	4464
2026-01-28 11:23:32.45	117.53	31.87	-35.1	-36.8	22.4	0.00e+00	0	40	0	1194328064	41	4481
2026-01-28 11:23:33.44	117.32	32.03	-35.1	-36.8	22.5	0.00e+00	0	40	0	1199570944	41	4475
2026-01-28 11:23:34.44	117.11	32.20	-35.2	-37.0	22.3	0.00e+00	0	40	0	1204813824	41	4563
2026-01-28 11:23:35.43	116.90	32.37	-35.2	-37.0	22.3	0.00e+00	0	40	0	1211105280	41	4588
2026-01-28 11:23:36.42	116.68	32.54	-35.2	-37.0	22.3	0.00e+00	0	40	0	1216348160	41	4553
2026-01-28 11:23:37.41	116.46	32.70	-35.2	-37.0	22.3	0.00e+00	0	40	0	1222639616	41	4569
2026-01-28 11:23:38.41	116.24	32.87	-35.1	-36.9	22.4	0.00e+00	0	40	0	1227882496	41	4500
2026-01-28 11:23:39.40	116.02	33.04	-34.8	-36.5	22.7	0.00e+00	0	40	0	1233125376	41	4318
2026-01-28 11:23:40.39	115.79	33.21	-34.6	-36.4	22.8	0.00e+00	0	40	0	1238368256	41	4246
2026-01-28 11:23:41.39	115.56	33.38	-34.7	-36.5	22.7	0.00e+00	0	40	0	1244659712	41	4296
2026-01-28 11:23:42.38	115.33	33.55	-34.8	-36.5	22.7	0.00e+00	0	40	0	1249902592	41	4337
2026-01-28 11:23:43.37	115.10	33.72	-34.7	-36.5	22.7	0.00e+00	0	40	0	1255145472	41	4303
2026-01-28 11:23:44.37	114.86	33.90	-34.9	-36.6	22.6	0.00e+00	0	40	0	1261436928	41	4378
2026-01-28 11:23:45.36	114.63	34.07	-34.9	-36.6	22.6	0.00e+00	0	40	0	1266679808	41	4374
2026-01-28 11:23:46.35	114.39	34.24	-34.7	-36.4	22.7	0.00e+00	0	40	0	1272971264	41	4267
2026-01-28 11:23:47.35	114.14	34.41	-34.7	-36.4	22.7	0.00e+00	0	40	0	1278214144	41	4277
2026-01-28 11:23:48.34	113.90	34.59	-34.7	-36.4	22.7	0.00e+00	0	40	0	1283457024	41	4255
2026-01-28 11:23:49.33	113.65	34.76	-34.7	-36.4	22.7	0.00e+00	0	40	0	1288699904	41	4281
2026-01-28 11:23:50.33	113.40	34.94	-34.7	-36.4	22.7	0.00e+00	0	40	0	1294991360	41	4269
2026-01-28 11:23:51.32	113.15	35.11	-34.7	-36.4	22.7	0.00e+00	0	40	0	1300234240	41	4279
2026-01-28 11:23:52.31	112.89	35.28	-34.7	-36.4	22.7	0.00e+00	0	40	0	1305477120	41	4283
2026-01-28 11:23:53.30	112.63	35.46	-34.8	-36.5	22.6	0.00e+00	0	40	0	1311768576	41	4312
2026-01-28 11:23:54.30	112.37	35.63	-34.8	-36.5	22.6	0.00e+00	0	40	0	1317011456	41	4324
2026-01-28 11:23:55.29	112.10	35.81	-34.7	-36.5	22.7	0.00e+00	0	40	0	1322254336	41	4304
2026-01-28 11:23:56.28	111.84	35.98	-34.8	-36.5	22.7	0.00e+00	0	40	0	1328545792	41	4332
2026-01-28 11:23:57.28	111.56	36.16	-34.7	-36.5	22.7	0.00e+00	0	40	0	1333788672	41	4295
2026-01-28 11:23:58.27	111.29	36.34	-34.9	-36.6	22.6	0.00e+00	0	40	0	1339031552	41	4363
2026-01-28 11:23:59.26	111.02	36.51	-34.9	-36.6	22.6	0.00e+00	0	40	0	1345323008	41	4382
2026-01-28 11:24:00.26	110.73	36.69	-34.9	-36.6	22.7	0.00e+00	0	40	0	1350565888	41	4377
2026-01-28 11:24:01.25	110.45	36.87	-34.7	-36.4	22.8	0.00e+00	0	40	0	1356857344	41	4288
2026-01-28 11:24:02.24	110.17	37.04	-34.7	-36.5	22.7	0.00e+00	0	40	0	1362100224	41	4294
2026-01-28 11:24:03.23	109.88	37.22	-34.7	-36.4	22.8	0.00e+00	0	40	0	1367343104	41	4252
2026-01-28 11:24:04.23	109.59	37.40	-34.7	-36.4	22.8	0.00e+00	0	40	0	1372585984	41	4278
2026-01-28 11:24:05.22	109.29	37.57	-34.7	-36.4	22.8	0.00e+00	0	40	0	1378877440	41	4261
2026-01-28 11:24:06.21	108.99	37.75	-34.7	-36.4	22.8	0.00e+00	0	40	0	1384120320	41	4288
2026-01-28 11:24:07.21	108.69	37.93	-34.7	-36.4	22.8	0.00e+00	0	40	0	1389363200	41	4274
2026-01-28 11:24:08.20	108.39	38.10	-34.7	-36.4	22.8	0.00e+00	0	40	0	1395654656	41	4271
2026-01-28 11:24:09.19	108.08	38.28	-34.8	-36.5	22.7	0.00e+00	0	40	0	1400897536	41	4326
2026-01-28 11:24:10.19	107.76	38.46	-34.8	-36.5	22.7	0.00e+00	0	40	0	1406140416	41	4301
2026-01-28 11:24:11.18	107.45	38.64	-34.8	-36.5	22.7	0.00e+00	0	40	0	1412431872	41	4336
2026-01-28 11:24:12.17	107.13	38.81	-35.0	-36.7	22.6	0.00e+00	0	40	0	1417674752	41	4420
2026-01-28 11:24:13.16	106.81	38.99	-35.1	-36.9	22.4	0.00e+00	0	40	0	1422917632	41	4507
2026-01-28 11:24:14.16	106.48	39.17	-34.9	-36.7	22.6	0.00e+00	0	40	0	1429209088	41	4399
2026-01-28 11:24:15.15	106.16	39.34	-34.8	-36.6	22.7	0.00e+00	0	41	0	1434451968	41	4341
2026-01-28 11:24:16.14	105.82	39.52	-34.8	-36.6	22.7	0.00e+00	0	40	0	1439694848	41	4349
2026-01-28 11:24:17.13	105.49	39.69	-34.9	-36.6	22.7	0.00e+00	0	40	0	1445986304	41	4375
2026-01-28 11:24:18.13	105.15	39.87	-34.8	-36.6	22.7	0.00e+00	0	40	0	1451229184	41	4348
2026-01-28 11:24:19.12	104.80	40.05	-34.7	-36.4	22.8	0.00e+00	0	40	0	1456472064	41	4277
2026-01-28 11:24:20.11	104.46	40.22	-34.6	-36.3	23.0	0.00e+00	0	40	0	1462763520	41	4201
2026-01-28 11:24:21.10	104.11	40.40	-34.7	-36.4	22.9	0.00e+00	0	40	0	1468006400	41	4263
2026-01-28 11:24:22.10	103.75	40.57	-34.7	-36.5	22.8	0.00e+00	0	40	0	1473249280	41	4295
2026-01-28 11:24:23.09	103.39	40.74	-34.9	-36.6	22.7	0.00e+00	0	40	0	1478492160	41	4377
2026-01-28 11:24:24.08	103.03	40.92	-34.9	-36.6	22.7	0.00e+00	0	40	0	1484783616	41	4383
2026-01-28 11:24:25.08	102.66	41.09	-35.0	-36.7	22.6	0.00e+00	0	40	0	1490026496	41	4432
2026-01-28 11:24:26.07	102.29	41.26	-34.9	-36.6	22.7	0.00e+00	0	40	0	1496317952	41	4381
2026-01-28 11:24:27.06	101.91	41.44	-34.8	-36.6	22.8	0.00e+00	0	40	0	1501560832	41	4351
2026-01-28 11:24:28.05	101.54	41.61	-34.5	-36.2	23.0	0.00e+00	0	40	0	1506803712	41	4188
2026-01-28 11:24:29.05	101.15	41.78	-34.6	-36.3	23.0	0.00e+00	0	40	0	1513095168	41	4200
2026-01-28 11:24:30.04	100.76	41.95	-34.5	-36.2	23.0	0.00e+00	0	40	0	1518338048	41	4172
2026-01-28 11:24:31.03	100.37	42.12	-34.6	-36.3	23.0	0.00e+00	0	40	0	1523580928	41	4205
2026-01-28 11:24:32.03	99.98	42.29	-34.7	-36.4	22.9	0.00e+00	0	40	0	1528823808	41	4263
2026-01-28 11:24:33.02	99.58	42.46	-34.6	-36.3	22.9	0.00e+00	0	40	0	1535115264	41	4232
2026-01-28 11:24:34.01	99.18	42.62	-34.6	-36.3	22.9	0.00e+00	0	40	0	1540358144	41	4231
2026-01-28 11:24:35.00	98.77	42.79	-34.7	-36.4	22.9	0.00e+00	0	40	0	1546649600	41	4271
2026-01-28 11:24:36.00	98.35	42.95	-34.8	-36.6	22.8	0.00e+00	0	40	0	1551892480	41	4351
2026-01-28 11:24:36.99	97.94	43.12	-34.9	-36.6	22.8	0.00e+00	0	40	0	1557135360	41	4369
2026-01-28 11:24:37.98	97.52	43.28	-34.9	-36.6	22.8	0.00e+00	0	40	0	1562378240	41	4351
2026-01-28 11:24:38.98	97.09	43.44	-34.9	-36.7	22.7	0.00e+00	0	40	0	1568669696	41	4396
2026-01-28 11:24:39.97	96.66	43.60	-34.7	-36.4	22.9	0.00e+00	0	40	0	1573912576	41	4289
2026-01-28 11:24:40.96	96.23	43.76	-34.8	-36.5	22.8	0.00e+00	0	40	0	1579155456	41	4329
2026-01-28 11:24:41.96	95.79	43.92	-34.7	-36.5	22.9	0.00e+00	0	40	0	1585446912	41	4305
2026-01-28 11:24:42.95	95.35	44.08	-34.7	-36.4	22.9	0.00e+00	0	40	0	1590689792	41	4274
2026-01-28 11:24:43.94	94.90	44.24	-34.5	-36.2	23.1	0.00e+00	0	40	0	1595932672	41	4174
2026-01-28 11:24:44.93	94.45	44.39	-34.5	-36.1	23.1	0.00e+00	0	40	0	1602224128	40	4386
2026-01-28 11:24:45.93	93.99	44.55	-34.5	-36.2	23.1	0.00e+00	0	40	0	1607467008	40	4410
2026-01-28 11:24:46.92	93.54	44.70	-34.5	-36.2	23.1	0.00e+00	0	40	0	1612709888	40	4434
2026-01-28 11:24:47.91	93.07	44.85	-34.4	-36.1	23.1	0.00e+00	0	40	0	1619001344	40	4383
2026-01-28 11:24:48.90	92.61	45.00	-34.4	-36.2	23.1	0.00e+00	0	40	0	1624244224	40	4398
2026-01-28 11:24:49.90	92.13	45.14	-34.5	-36.2	23.0	0.00e+00	0	40	0	1629487104	40	4432
2026-01-28 11:24:50.89	91.65	45.29	-34.7	-36.4	22.9	0.00e+00	0	40	0	1635778560	40	4528
2026-01-28 11:24:51.88	91.17	45.43	-34.9	-36.6	22.6	0.00e+00	0	40	0	1641021440	40	4650
2026-01-28 11:24:52.88	90.68	45.58	-35.1	-36.8	22.5	0.00e+00	0	40	0	1646264320	40	4743
2026-01-28 11:24:53.87	90.19	45.72	-35.0	-36.8	22.5	0.00e+00	0	40	0	1652555776	40	4737
2026-01-28 11:24:54.86	89.70	45.86	-34.9	-36.7	22.7	0.00e+00	0	40	0	1657798656	40	4654
2026-01-28 11:24:55.85	89.20	45.99	-34.8	-36.5	22.9	0.00e+00	0	40	0	1663041536	40	4566
2026-01-28 11:24:56.85	88.69	46.13	-34.9	-36.6	22.8	0.00e+00	0	40	0	1669332992	40	4616
2026-01-28 11:24:57.84	88.19	46.26	-35.2	-37.0	22.4	0.00e+00	0	40	0	1674575872	41	4578
2026-01-28 11:24:58.83	87.68	46.39	-35.3	-37.0	22.4	0.00e+00	0	40	0	1679818752	41	4598
2026-01-28 11:24:59.83	87.16	46.52	-35.3	-37.0	22.4	0.00e+00	0	40	0	1686110208	41	4580
2026-01-28 11:25:00.82	86.64	46.64	-35.3	-37.0	22.4	0.00e+00	0	40	0	1691353088	41	4587
2026-01-28 11:25:01.81	86.11	46.77	-35.4	-37.2	22.2	0.00e+00	0	40	0	1696595968	41	4677
2026-01-28 11:25:02.80	85.59	46.89	-35.4	-37.2	22.2	0.00e+00	0	40	0	1702887424	41	4686
2026-01-28 11:25:03.80	85.05	47.01	-35.3	-37.0	22.4	0.00e+00	0	40	0	1708130304	41	4594
2026-01-28 11:25:04.79	84.51	47.13	-35.2	-36.9	22.5	0.00e+00	0	40	0	1713373184	41	4526
2026-01-28 11:25:05.78	83.97	47.24	-35.0	-36.8	22.6	0.00e+00	0	40	0	1719664640	41	4446
2026-01-28 11:25:06.78	83.42	47.35	-35.1	-36.9	22.5	0.00e+00	0	40	0	1724907520	41	4506
2026-01-28 11:25:07.77	82.88	47.46	-35.3	-37.1	22.4	0.00e+00	0	40	0	1730150400	41	4612
2026-01-28 11:25:08.76	82.33	47.57	-35.5	-37.2	22.2	0.00e+00	0	40	0	1736441856	41	4689
2026-01-28 11:25:09.75	81.77	47.67	-35.6	-37.4	22.1	0.00e+00	0	40	0	1741684736	41	4762
2026-01-28 11:25:10.75	81.21	47.77	-35.7	-37.4	22.1	0.00e+00	0	40	0	1746927616	41	4803
2026-01-28 11:25:11.74	80.64	47.87	-35.5	-37.3	22.2	0.00e+00	0	40	0	1752170496	42	4471
2026-01-28 11:25:12.73	80.08	47.97	-35.6	-37.4	22.2	0.00e+00	0	40	0	1758461952	42	4499
2026-01-28 11:25:13.72	79.51	48.06	-35.5	-37.3	22.2	0.00e+00	0	40	0	1763704832	42	4464
2026-01-28 11:25:14.72	78.93	48.15	-35.5	-37.2	22.2	0.00e+00	0	40	0	1769996288	42	4426
2026-01-28 11:25:15.71	78.35	48.24	-35.6	-37.4	22.1	0.00e+00	0	40	0	1775239168	42	4501
2026-01-28 11:25:16.70	77.78	48.32	-35.4	-37.1	22.3	0.00e+00	0	40	0	1780482048	42	4380
2026-01-28 11:25:17.70	77.19	48.40	-35.4	-37.1	22.3	0.00e+00	0	40	0	1786773504	42	4382
2026-01-28 11:25:18.69	76.60	48.48	-35.4	-37.1	22.3	0.00e+00	0	40	0	1792016384	42	4377
2026-01-28 11:25:19.68	76.01	48.55	-35.3	-37.1	22.4	0.00e+00	0	40	0	1797259264	42	4347
2026-01-28 11:25:20.67	75.42	48.63	-35.2	-36.9	22.5	0.00e+00	0	40	0	1802502144	42	4290
2026-01-28 11:25:21.67	74.82	48.69	-35.2	-36.9	22.6	0.00e+00	0	40	0	1808793600	42	4257
2026-01-28 11:25:22.66	74.23	48.76	-35.1	-36.9	22.6	0.00e+00	0	40	0	1814036480	42	4249
2026-01-28 11:25:23.65	73.63	48.82	-35.1	-36.8	22.7	0.00e+00	0	40	0	1820327936	42	4198
2026-01-28 11:25:24.65	73.02	48.88	-35.1	-36.8	22.7	0.00e+00	0	40	0	1825570816	42	4225
2026-01-28 11:25:25.64	72.42	48.94	-35.4	-37.1	22.3	0.00e+00	0	40	0	1830813696	42	4390
2026-01-28 11:25:26.63	71.81	48.99	-35.5	-37.3	22.2	0.00e+00	0	40	0	1836056576	42	4464
2026-01-28 11:25:27.63	71.20	49.04	-35.3	-37.1	22.4	0.00e+00	0	40	0	1842348032	42	4347
2026-01-28 11:25:28.62	70.59	49.08	-35.2	-36.9	22.6	0.00e+00	0	40	0	1847590912	42	4246
2026-01-28 11:25:29.61	69.98	49.12	-35.4	-37.2	22.3	0.00e+00	0	40	0	1852833792	42	4414
2026-01-28 11:25:30.60	69.37	49.16	-35.5	-37.3	22.2	0.00e+00	0	40	0	1859125248	42	4456
2026-01-28 11:25:31.60	68.75	49.19	-35.4	-37.1	22.3	0.00e+00	0	40	0	1864368128	42	4391
2026-01-28 11:25:32.59	68.13	49.22	-35.2	-37.0	22.5	0.00e+00	0	40	0	1869611008	42	4300
2026-01-28 11:25:33.58	67.52	49.25	-35.4	-37.1	22.4	0.00e+00	0	40	0	1875902464	42	4350
2026-01-28 11:25:34.58	66.89	49.28	-35.5	-37.3	22.3	0.00e+00	0	40	0	1881145344	42	4446
2026-01-28 11:25:35.57	66.27	49.30	-35.5	-37.3	22.3	0.00e+00	0	40	0	1886388224	42	4450
2026-01-28 11:25:36.56	65.66	49.31	-35.4	-37.2	22.4	0.00e+00	0	40	0	1892679680	42	4398
2026-01-28 11:25:37.55	65.04	49.32	-35.1	-36.8	22.6	0.00e+00	0	40	0	1897922560	42	4231
2026-01-28 11:25:38.55	64.41	49.33	-35.2	-36.9	22.6	0.00e+00	0	40	0	1903165440	42	4267
2026-01-28 11:25:39.54	63.79	49.34	-35.5	-37.3	22.3	0.00e+00	0	40	0	1909456896	42	4442
2026-01-28 11:25:40.53	63.17	49.34	-35.7	-37.4	22.1	0.00e+00	0	40	0	1914699776	42	4517
2026-01-28 11:25:41.52	62.55	49.34	-35.5	-37.2	22.3	0.00e+00	0	40	0	1919942656	42	4439
2026-01-28 11:25:42.52	61.92	49.34	-35.6	-37.3	22.2	0.00e+00	0	40	0	1926234112	42	4479
2026-01-28 11:25:43.51	61.30	49.33	-35.4	-37.2	22.3	0.00e+00	0	40	0	1931476992	42	4406
2026-01-28 11:25:44.50	60.68	49.31	-35.4	-37.2	22.4	0.00e+00	0	40	0	1936719872	42	4398
2026-01-28 11:25:45.50	60.06	49.30	-35.7	-37.5	22.1	0.00e+00	0	40	0	1941962752	42	4550
2026-01-28 11:25:46.49	59.44	49.28	-35.7	-37.4	22.1	0.00e+00	0	40	0	1948254208	42	4536
2026-01-28 11:25:47.48	58.82	49.26	-35.9	-37.7	21.9	0.00e+00	0	40	0	1953497088	42	4653
2026-01-28 11:25:48.47	58.21	49.23	-35.5	-37.3	22.2	0.00e+00	0	40	0	1959788544	42	4452
2026-01-28 11:25:49.47	57.59	49.20	-35.3	-37.0	22.5	0.00e+00	0	40	0	1965031424	42	4332
2026-01-28 11:25:50.46	56.97	49.16	-35.3	-37.1	22.4	0.00e+00	0	40	0	1970274304	42	4344
2026-01-28 11:25:51.45	56.36	49.13	-35.3	-37.0	22.5	0.00e+00	0	40	0	1976565760	42	4321
2026-01-28 11:25:52.45	55.74	49.09	-35.3	-37.1	22.4	0.00e+00	0	40	0	1981808640	42	4348
2026-01-28 11:25:53.44	55.13	49.04	-35.5	-37.3	22.2	0.00e+00	0	40	0	1987051520	42	4464
2026-01-28 11:25:54.43	54.53	48.99	-35.5	-37.3	22.2	0.00e+00	0	40	0	1992294400	42	4466
2026-01-28 11:25:55.42	53.92	48.94	-35.5	-37.3	22.3	0.00e+00	0	40	0	1998585856	42	4454
2026-01-28 11:25:56.42	53.31	48.89	-35.3	-37.0	22.5	0.00e+00	0	40	0	2003828736	42	4333
2026-01-28 11:25:57.41	52.71	48.83	-35.1	-36.8	22.6	0.00e+00	0	40	0	2010120192	42	4225
2026-01-28 11:25:58.41	52.11	48.77	-35.2	-36.9	22.5	0.00e+00	0	40	0	2015363072	42	4286
2026-01-28 11:25:59.40	51.51	48.70	-35.2	-36.9	22.5	0.00e+00	0	40	0	2020605952	42	4288
2026-01-28 11:26:00.39	50.92	48.64	-35.3	-37.1	22.4	0.00e+00	0	40	0	2025848832	42	4341
2026-01-28 11:26:01.38	50.33	48.57	-35.4	-37.2	22.4	0.00e+00	0	40	0	2032140288	42	4394
2026-01-28 11:26:02.37	49.74	48.49	-35.2	-36.9	22.6	0.00e+00	0	40	0	2037383168	42	4265
2026-01-28 11:26:03.37	49.15	48.41	-35.1	-36.8	22.6	0.00e+00	0	40	0	2043674624	42	4219
2026-01-28 11:26:04.36	48.57	48.33	-35.4	-37.1	22.4	0.00e+00	0	40	0	2048917504	42	4379
2026-01-28 11:26:05.35	47.99	48.25	-35.4	-37.2	22.3	0.00e+00	0	40	0	2054160384	42	4392
2026-01-28 11:26:06.34	47.41	48.16	-35.4	-37.1	22.3	0.00e+00	0	40	0	2059403264	42	4390
2026-01-28 11:26:07.34	46.83	48.07	-35.4	-37.2	22.3	0.00e+00	0	40	0	2065694720	42	4392
2026-01-28 11:26:08.33	46.27	47.98	-35.5	-37.2	22.2	0.00e+00	0	40	0	2070937600	42	4436
2026-01-28 11:26:09.32	45.70	47.89	-35.4	-37.2	22.3	0.00e+00	0	40	0	2076180480	42	4400
2026-01-28 11:26:10.32	45.13	47.79	-35.4	-37.1	22.4	0.00e+00	0	40	0	2082471936	42	4376
2026-01-28 11:26:11.31	44.57	47.69	-35.3	-37.0	22.5	0.00e+00	0	40	0	2087714816	42	4330
2026-01-28 11:26:12.30	44.02	47.59	-35.1	-36.8	22.6	0.00e+00	0	40	0	2094006272	42	4240
2026-01-28 11:26:13.30	43.46	47.48	-35.2	-36.9	22.6	0.00e+00	0	40	0	2099249152	42	4287
2026-01-28 11:26:14.29	42.92	47.37	-35.3	-37.0	22.4	0.00e+00	0	40	0	2104492032	42	4337
2026-01-28 11:26:15.28	42.37	47.26	-35.2	-36.9	22.5	0.00e+00	0	40	0	2109734912	42	4281
2026-01-28 11:26:16.27	41.83	47.15	-35.2	-36.9	22.5	0.00e+00	0	40	0	2116026368	42	4265
2026-01-28 11:26:17.27	41.29	47.03	-35.2	-36.9	22.5	0.00e+00	0	40	0	2121269248	42	4277
2026-01-28 11:26:18.26	40.76	46.91	-35.2	-36.9	22.5	0.00e+00	0	40	0	2126512128	42	4288
2026-01-28 11:26:19.25	40.23	46.79	-35.2	-37.0	22.4	0.00e+00	0	40	0	2132803584	42	4313
2026-01-28 11:26:20.25	39.71	46.67	-35.3	-37.1	22.4	0.00e+00	0	40	0	2138046464	42	4348
2026-01-28 11:26:21.24	39.19	46.54	-35.3	-37.1	22.4	0.00e+00	0	40	0	2143289344	42	4369
2026-01-28 11:26:22.23	38.67	46.41	-35.3	-37.1	22.5	0.00e+00	0	40	0	2149580800	42	4346
2026-01-28 11:26:23.22	38.16	46.28	-35.1	-36.8	22.7	0.00e+00	0	40	0	2154823680	42	4227
2026-01-28 11:26:24.22	37.65	46.15	-34.7	-36.4	23.1	0.00e+00	0	40	0	2160066560	41	4247
2026-01-28 11:26:25.21	37.15	46.02	-34.6	-36.3	23.1	0.00e+00	0	40	0	2166358016	41	4232
2026-01-28 11:26:26.20	36.65	45.88	-34.7	-36.5	23.0	0.00e+00	0	40	0	2171600896	41	4294
2026-01-28 11:26:27.20	36.15	45.74	-34.7	-36.4	23.0	0.00e+00	0	40	0	2176843776	41	4265
2026-01-28 11:26:28.19	35.66	45.60	-34.6	-36.3	23.1	0.00e+00	0	40	0	2183135232	41	4225
2026-01-28 11:26:29.18	35.18	45.46	-34.6	-36.3	23.1	0.00e+00	0	40	0	2188378112	41	4226
2026-01-28 11:26:30.18	34.69	45.32	-34.6	-36.3	23.0	0.00e+00	0	40	0	2193620992	41	4230
2026-01-28 11:26:31.17	34.22	45.17	-34.6	-36.3	23.0	0.00e+00	0	40	0	2199912448	41	4239
2026-01-28 11:26:32.16	33.75	45.03	-34.7	-36.4	22.9	0.00e+00	0	40	0	2205155328	41	4282
2026-01-28 11:26:33.15	33.28	44.88	-34.7	-36.4	22.9	0.00e+00	0	40	0	2210398208	41	4278
2026-01-28 11:26:34.15	32.81	44.73	-34.7	-36.4	22.9	0.00e+00	0	40	0	2216689664	41	4271
2026-01-28 11:26:35.14	32.35	44.58	-34.7	-36.4	22.9	0.00e+00	0	40	0	2221932544	41	4279
2026-01-28 11:26:36.13	31.90	44.42	-34.9	-36.6	22.7	0.00e+00	0	40	0	2227175424	41	4364
2026-01-28 11:26:37.12	31.45	44.27	-34.7	-36.4	22.9	0.00e+00	0	40	0	2233466880	41	4279
2026-01-28 11:26:38.12	31.00	44.11	-34.5	-36.2	23.1	0.00e+00	0	40	0	2238709760	40	4399
2026-01-28 11:26:39.11	30.56	43.96	-34.5	-36.2	23.0	0.00e+00	0	40	0	2243952640	40	4435
2026-01-28 11:26:40.10	30.12	43.80	-34.6	-36.3	23.0	0.00e+00	0	40	0	2250244096	40	4477
2026-01-28 11:26:41.10	29.69	43.64	-34.5	-36.2	23.1	0.00e+00	0	40	0	2255486976	40	4441
2026-01-28 11:26:42.09	29.26	43.48	-34.4	-36.1	23.1	0.00e+00	0	40	0	2260729856	40	4378
2026-01-28 11:26:43.08	28.84	43.32	-34.4	-36.1	23.2	0.00e+00	0	40	0	2265972736	40	4365
2026-01-28 11:26:44.08	28.41	43.16	-34.4	-36.1	23.2	0.00e+00	0	40	0	2272264192	40	4354
2026-01-28 11:26:45.07	28.00	42.99	-34.5	-36.2	23.2	0.00e+00	0	40	0	2277507072	40	4392
2026-01-28 11:26:46.06	27.59	42.83	-34.1	-35.8	23.5	0.00e+00	0	40	0	2283798528	40	4217
2026-01-28 11:26:47.05	27.18	42.66	-34.2	-35.9	23.4	0.00e+00	0	40	0	2289041408	40	4272
2026-01-28 11:26:48.05	26.78	42.50	-34.4	-36.1	23.2	0.00e+00	0	40	0	2294284288	40	4367
2026-01-28 11:26:49.04	26.38	42.33	-34.6	-36.3	23.0	0.00e+00	0	40	0	2299527168	40	4464
2026-01-28 11:26:50.03	25.99	42.16	-34.7	-36.5	22.9	0.00e+00	0	40	0	2305818624	40	4551
2026-01-28 11:26:51.03	25.59	41.99	-34.8	-36.6	22.8	0.00e+00	0	40	0	2311061504	40	4600
2026-01-28 11:26:52.02	25.21	41.82	-34.8	-36.6	22.7	0.00e+00	0	40	0	2316304384	40	4606
2026-01-28 11:26:53.01	24.83	41.65	-34.7	-36.4	22.9	0.00e+00	0	40	0	2322595840	40	4516
2026-01-28 11:26:54.00	24.45	41.48	-34.7	-36.3	23.5	0.00e+00	0	40	0	2327838720	40	4490
2026-01-28 11:26:55.00	24.07	41.31	-34.6	-36.2	23.6	0.00e+00	0	40	0	2334130176	40	4407
2026-01-28 11:26:55.99	23.70	41.14	-34.6	-36.2	23.6	0.00e+00	0	40	0	2339373056	40	4441
2026-01-28 11:26:56.98	23.34	40.97	-34.6	-36.2	23.6	0.00e+00	0	40	0	2344615936	40	4413
2026-01-28 11:26:57.98	22.97	40.79	-34.7	-36.3	23.5	0.00e+00	0	40	0	2349858816	40	4461
2026-01-28 11:26:58.97	22.61	40.62	-34.8	-36.5	23.4	0.00e+00	0	40	0	2356150272	40	4547
2026-01-28 11:26:59.96	22.26	40.45	-34.7	-36.4	23.5	0.00e+00	0	40	0	2361393152	40	4515
2026-01-28 11:27:00.96	21.91	40.27	-34.8	-36.4	23.4	0.00e+00	0	40	0	2366636032	40	4525
2026-01-28 11:27:01.95	21.56	40.10	-34.7	-36.4	23.4	0.00e+00	0	40	0	2372927488	40	4497
2026-01-28 11:27:02.94	21.22	39.92	-34.6	-36.2	23.6	0.00e+00	0	40	0	2378170368	40	4426
2026-01-28 11:27:03.93	20.88	39.75	-34.6	-36.2	23.6	0.00e+00	0	40	0	2383413248	40	4425
2026-01-28 11:27:04.93	20.54	39.57	-34.6	-36.2	23.6	0.00e+00	0	40	0	2389704704	40	4431
2026-01-28 11:27:05.92	20.21	39.40	-34.5	-36.2	23.6	0.00e+00	0	40	0	2394947584	40	4407
2026-01-28 11:27:06.91	19.88	39.22	-34.6	-36.3	23.5	0.00e+00	0	40	0	2400190464	40	4449
2026-01-28 11:27:07.90	19.56	39.04	-34.3	-35.9	23.8	0.00e+00	0	40	0	2406481920	40	4272
2026-01-28 11:27:08.90	19.23	38.87	-34.1	-35.8	23.9	0.00e+00	0	40	0	2411724800	40	4201
2026-01-28 11:27:09.89	18.92	38.69	-34.2	-35.8	23.9	0.00e+00	0	40	0	2416967680	40	4240
2026-01-28 11:27:10.88	18.60	38.52	-34.2	-35.8	23.9	0.00e+00	0	40	0	2423259136	40	4217
2026-01-28 11:27:11.88	18.29	38.34	-34.2	-35.8	23.9	0.00e+00	0	40	0	2428502016	40	4241
2026-01-28 11:27:12.87	17.98	38.16	-34.2	-35.8	23.9	0.00e+00	0	40	0	2433744896	40	4232
2026-01-28 11:27:13.86	17.68	37.99	-34.4	-36.0	23.7	0.00e+00	0	40	0	2440036352	40	4312
2026-01-28 11:27:14.86	17.37	37.81	-34.5	-36.1	23.7	0.00e+00	0	40	0	2445279232	40	4362
2026-01-28 11:27:15.85	17.08	37.63	-34.4	-36.1	23.7	0.00e+00	0	40	0	2450522112	40	4346
2026-01-28 11:27:16.84	16.78	37.46	-34.5	-36.2	23.6	0.00e+00	0	40	0	2456813568	40	4396
2026-01-28 11:27:17.83	16.49	37.28	-34.6	-36.2	23.6	0.00e+00	0	40	0	2462056448	40	4432
2026-01-28 11:27:18.83	16.20	37.10	-34.5	-36.2	23.6	0.00e+00	0	40	0	2467299328	40	4408
2026-01-28 11:27:19.82	15.92	36.93	-34.4	-36.0	23.7	0.00e+00	0	40	0	2473590784	40	4334
2026-01-28 11:27:20.81	15.64	36.75	-34.4	-36.0	23.7	0.00e+00	0	40	0	2478833664	40	4326
2026-01-28 11:27:21.80	15.36	36.58	-34.3	-35.9	23.8	0.00e+00	0	40	0	2484076544	40	4276
2026-01-28 11:27:22.80	15.08	36.40	-34.1	-35.7	23.9	0.00e+00	0	40	0	2489319424	40	4187
2026-01-28 11:27:23.79	14.81	36.23	-34.2	-35.8	23.9	0.00e+00	0	40	0	2495610880	40	4235
2026-01-28 11:27:24.78	14.54	36.05	-34.3	-36.0	23.8	0.00e+00	0	40	0	2500853760	40	4299
2026-01-28 11:27:25.77	14.27	35.88	-34.4	-36.0	23.7	0.00e+00	0	40	0	2507145216	40	4305
2026-01-28 11:27:26.77	14.01	35.70	-34.4	-36.1	23.7	0.00e+00	0	40	0	2512388096	40	4343
2026-01-28 11:27:27.76	13.75	35.53	-34.4	-36.1	23.7	0.00e+00	0	40	0	2517630976	40	4341
2026-01-28 11:27:28.75	13.49	35.35	-34.2	-35.8	23.9	0.00e+00	0	40	0	2523922432	40	4235
2026-01-28 11:27:29.74	13.23	35.18	-34.2	-35.9	23.8	0.00e+00	0	40	0	2529165312	40	4256
2026-01-28 11:27:30.74	12.98	35.01	-34.3	-35.9	23.8	0.00e+00	0	40	0	2534408192	40	4288
2026-01-28 11:27:31.73	12.73	34.83	-34.3	-36.0	23.7	0.00e+00	0	40	0	2539651072	40	4304
2026-01-28 11:27:32.72	12.48	34.66	-34.1	-35.7	23.9	0.00e+00	0	40	0	2545942528	40	4185
2026-01-28 11:27:33.72	12.24	34.49	-34.0	-35.6	24.1	0.00e+00	0	40	0	2551185408	40	4124
2026-01-28 11:27:34.71	11.99	34.32	-34.0	-35.6	24.0	0.00e+00	0	40	0	2557476864	40	4136
2026-01-28 11:27:35.70	11.75	34.14	-34.1	-35.7	24.0	0.00e+00	0	40	0	2562719744	40	4151
2026-01-28 11:27:36.70	11.52	33.97	-34.2	-35.8	23.9	0.00e+00	0	40	0	2567962624	40	4204
2026-01-28 11:27:37.69	11.28	33.80	-34.2	-35.9	23.8	0.00e+00	0	40	0	2573205504	40	4251
2026-01-28 11:27:38.68	11.05	33.63	-34.2	-35.9	23.8	0.00e+00	0	40	0	2579496960	40	4250
2026-01-28 11:27:39.67	10.82	33.46	-34.3	-35.9	23.8	0.00e+00	0	40	0	2584739840	40	4267
2026-01-28 11:27:40.67	10.59	33.29	-34.4	-36.0	23.7	0.00e+00	0	40	0	2589982720	40	4317
2026-01-28 11:27:41.66	10.37	33.12	-34.5	-36.2	23.6	0.00e+00	0	40	0	2596274176	40	4409
2026-01-28 11:27:42.65	10.15	32.95	-34.6	-36.3	23.5	0.00e+00	0	40	0	2601517056	40	4444
2026-01-28 11:27:43.64	9.93	32.79	-34.6	-36.3	23.5	0.00e+00	0	40	0	2606759936	40	4472
2026-01-28 11:27:44.64	9.71	32.62	-34.6	-36.3	23.5	0.00e+00	0	40	0	2613051392	40	4458
2026-01-28 11:27:45.63	9.49	32.45	-34.5	-36.2	23.5	0.00e+00	0	40	0	2618294272	40	4414
2026-01-28 11:27:46.62	9.28	32.28	-34.4	-36.0	23.7	0.00e+00	0	40	0	2623537152	40	4318
2026-01-28 11:27:47.62	9.07	32.12	-34.4	-36.0	23.7	0.00e+00	0	40	0	2629828608	40	4322
2026-01-28 11:27:48.61	8.86	31.95	-34.4	-36.0	23.7	0.00e+00	0	40	0	2635071488	40	4336
2026-01-28 11:27:49.60	8.65	31.78	-34.5	-36.2	23.6	0.00e+00	0	40	0	2640314368	40	4402
2026-01-28 11:27:50.59	8.45	31.62	-34.7	-36.3	23.4	0.00e+00	0	40	0	2646605824	40	4464
2026-01-28 11:27:51.59	8.24	31.45	-34.8	-36.4	23.3	0.00e+00	0	40	0	2651848704	40	4545
2026-01-28 11:27:52.58	8.04	31.29	-34.8	-36.5	23.3	0.00e+00	0	40	0	2657091584	40	4557
2026-01-28 11:27:53.57	7.84	31.13	-34.9	-36.5	23.2	0.00e+00	0	40	0	2663383040	40	4575
2026-01-28 11:27:54.56	7.65	30.97	-34.9	-36.5	23.3	0.00e+00	0	40	0	2668625920	40	4589
2026-01-28 11:27:55.56	7.45	30.80	-34.8	-36.5	23.3	0.00e+00	0	40	0	2673868800	40	4569
2026-01-28 11:27:56.55	7.26	30.64	-34.9	-36.6	23.2	0.00e+00	0	40	0	2680160256	40	4604
2026-01-28 11:27:57.54	7.07	30.48	-35.0	-36.7	23.1	0.00e+00	0	40	0	2685403136	40	4654
2026-01-28 11:27:58.53	6.88	30.32	-35.1	-36.7	23.1	0.00e+00	0	40	0	2690646016	40	4700
2026-01-28 11:27:59.53	6.69	30.16	-35.0	-36.7	23.1	0.00e+00	0	40	0	2696937472	40	4667
2026-01-28 11:28:00.52	6.51	30.00	-35.1	-36.7	23.1	0.00e+00	0	40	0	2702180352	40	4696
2026-01-28 11:28:01.51	6.33	29.84	-35.0	-36.7	23.1	0.00e+00	0	40	0	2707423232	40	4671
2026-01-28 11:28:02.51	6.14	29.68	-35.0	-36.7	23.1	0.00e+00	0	40	0	2713714688	40	4669
2026-01-28 11:28:03.50	5.97	29.52	-35.0	-36.6	23.2	0.00e+00	0	40	0	2718957568	40	4628
2026-01-28 11:28:04.49	5.79	29.37	-35.0	-36.6	23.1	0.00e+00	0	40	0	2724200448	40	4637
2026-01-28 11:28:05.48	5.61	29.21	-35.0	-36.6	23.2	0.00e+00	0	40	0	2729443328	40	4623
2026-01-28 11:28:06.48	5.44	29.05	-35.0	-36.7	23.1	0.00e+00	0	40	0	2735734784	40	4664
2026-01-28 11:28:07.47	5.27	28.90	-35.0	-36.6	23.2	0.00e+00	0	40	0	2740977664	40	4635
2026-01-28 11:28:08.46	5.09	28.74	-35.0	-36.7	23.1	0.00e+00	0	40	0	2747269120	40	4660
2026-01-28 11:28:09.45	4.93	28.59	-35.1	-36.7	23.1	0.00e+00	0	40	0	2752512000	40	4687
2026-01-28 11:28:10.45	4.76	28.43	-35.1	-36.7	23.1	0.00e+00	0	40	0	2757754880	40	4685
2026-01-28 11:28:11.44	4.59	28.28	-35.1	-36.8	23.0	0.00e+00	0	40	0	2762997760	40	4708
2026-01-28 11:28:12.43	4.43	28.13	-35.2	-36.9	22.9	0.00e+00	0	40	0	2769289216	40	4768
2026-01-28 11:28:13.43	4.26	27.97	-35.1	-36.8	23.0	0.00e+00	0	40	0	2774532096	41	4451
2026-01-28 11:28:14.42	4.10	27.82	-35.1	-36.7	23.1	0.00e+00	0	40	0	2779774976	41	4429
2026-01-28 11:28:15.41	3.95	27.67	-35.1	-36.8	22.3	0.00e+00	0	40	0	2786066432	41	4459
2026-01-28 11:28:16.41	3.79	27.52	-35.1	-36.7	23.0	0.00e+00	0	40	0	2791309312	41	4439
2026-01-28 11:28:17.40	3.63	27.37	-35.1	-36.7	23.1	0.00e+00	0	40	0	2797600768	41	4426
2026-01-28 11:28:18.39	3.48	27.22	-35.1	-36.7	23.1	0.00e+00	0	40	0	2802843648	41	4407
2026-01-28 11:28:19.38	3.32	27.07	-35.1	-36.7	23.0	0.00e+00	0	40	0	2808086528	41	4434
2026-01-28 11:28:20.38	3.17	26.93	-35.1	-36.7	23.1	0.00e+00	0	40	0	2813329408	41	4422
2026-01-28 11:28:21.37	3.02	26.78	-35.1	-36.8	23.0	0.00e+00	0	40	0	2819620864	41	4461
2026-01-28 11:28:22.36	2.87	26.63	-35.1	-36.8	23.0	0.00e+00	0	40	0	2824863744	41	4456
2026-01-28 11:28:23.36	2.72	26.48	-35.2	-36.9	22.9	0.00e+00	0	40	0	2831155200	41	4497
2026-01-28 11:28:24.35	2.58	26.34	-35.1	-36.8	23.0	0.00e+00	0	40	0	2836398080	41	4452
2026-01-28 11:28:25.34	2.43	26.19	-35.1	-36.8	23.0	0.00e+00	0	40	0	2841640960	41	4448
2026-01-28 11:28:26.34	2.29	26.05	-35.2	-36.9	22.9	0.00e+00	0	40	0	2846883840	41	4505
2026-01-28 11:28:27.33	2.14	25.90	-35.1	-36.8	23.0	0.00e+00	0	40	0	2853175296	41	4468
2026-01-28 11:28:28.32	2.00	25.76	-35.2	-36.8	22.9	0.00e+00	0	40	0	2858418176	41	4480
2026-01-28 11:28:29.31	1.86	25.62	-35.2	-36.9	22.9	0.00e+00	0	40	0	2863661056	41	4506
2026-01-28 11:28:30.31	1.73	25.48	-35.2	-36.9	22.9	0.00e+00	0	40	0	2869952512	41	4516
2026-01-28 11:28:31.30	1.59	25.33	-35.3	-36.9	22.8	0.00e+00	0	40	0	2875195392	41	4537
2026-01-28 11:28:32.29	1.45	25.19	-35.2	-36.9	22.9	0.00e+00	0	40	0	2880438272	41	4512
2026-01-28 11:28:33.28	1.32	25.05	-35.3	-37.0	22.8	0.00e+00	0	40	0	2886729728	41	4556
2026-01-28 11:28:34.28	1.18	24.91	-35.2	-36.9	22.9	0.00e+00	0	40	0	2891972608	41	4515
2026-01-28 11:28:35.27	1.05	24.77	-35.1	-36.8	23.0	0.00e+00	0	40	0	2897215488	41	4465
2026-01-28 11:28:36.26	0.92	24.63	-35.2	-36.8	22.9	0.00e+00	0	40	0	2903506944	41	4493
2026-01-28 11:28:37.26	0.79	24.49	-35.2	-36.9	22.9	0.00e+00	0	40	0	2908749824	41	4495
2026-01-28 11:28:38.25	0.66	24.36	-35.2	-36.8	22.9	0.00e+00	0	40	0	2913992704	41	4489
2026-01-28 11:28:39.24	0.54	24.22	-35.3	-37.0	22.8	0.00e+00	0	40	0	2920284160	41	4546
2026-01-28 11:28:40.24	0.41	24.08	-35.2	-36.9	22.8	0.00e+00	0	40	0	2925527040	41	4518
2026-01-28 11:28:41.23	0.28	23.95	-35.3	-37.0	22.8	0.00e+00	0	40	0	2930769920	41	4561
2026-01-28 11:28:42.22	0.16	23.81	-35.3	-37.0	22.8	0.00e+00	0	40	0	2937061376	41	4580
2026-01-28 11:28:43.22	0.04	23.68	-35.4	-37.1	22.7	0.00e+00	0	40	0	2942304256	41	4602
2026-01-28 11:28:44.21	359.91	23.54	-35.3	-37.0	22.8	0.00e+00	0	40	0	2947547136	41	4560
2026-01-28 11:28:45.20	359.79	23.41	-35.3	-37.0	22.8	0.00e+00	0	40	0	2953838592	41	4549
2026-01-28 11:28:46.19	359.67	23.28	-35.1	-36.8	22.9	0.00e+00	0	40	0	2959081472	41	4477
2026-01-28 11:28:47.19	359.55	23.14	-35.1	-36.8	22.9	0.00e+00	0	40	0	2964324352	41	4464
2026-01-28 11:28:48.18	359.44	23.01	-35.2	-36.8	22.9	0.00e+00	0	40	0	2970615808	41	4492
2026-01-28 11:28:49.17	359.32	22.88	-35.2	-36.8	22.9	0.00e+00	0	40	0	2975858688	41	4475
2026-01-28 11:28:50.17	359.20	22.75	-35.2	-36.9	22.9	0.00e+00	0	40	0	2981101568	41	4500
2026-01-28 11:28:51.16	359.09	22.62	-35.4	-37.0	22.7	0.00e+00	0	40	0	2987393024	41	4585
2026-01-28 11:28:52.15	358.98	22.49	-35.4	-37.1	22.7	0.00e+00	0	40	0	2992635904	41	4610
2026-01-28 11:28:53.15	358.86	22.36	-35.6	-37.2	22.6	0.00e+00	0	40	0	2997878784	41	4695
2026-01-28 11:28:54.14	358.75	22.23	-35.7	-37.4	22.5	0.00e+00	0	40	0	3003121664	42	4513
2026-01-28 11:28:55.13	358.64	22.10	-35.7	-37.4	22.4	0.00e+00	0	40	0	3009413120	42	4521
2026-01-28 11:28:56.13	358.53	21.97	-35.8	-37.5	22.3	0.00e+00	0	40	0	3014656000	42	4578
2026-01-28 11:28:57.12	358.42	21.84	-35.8	-37.6	22.3	0.00e+00	0	40	0	3020947456	42	4599
2026-01-28 11:28:58.11	358.31	21.72	-35.8	-37.5	22.3	0.00e+00	0	40	0	3026190336	42	4590
2026-01-28 11:28:59.11	358.20	21.59	-35.9	-37.6	22.2	0.00e+00	0	40	0	3031433216	42	4631
2026-01-28 11:29:00.10	358.10	21.46	-35.9	-37.6	22.3	0.00e+00	0	40	0	3037724672	42	4621
2026-01-28 11:29:01.09	357.99	21.34	-35.9	-37.6	22.3	0.00e+00	0	40	0	3042967552	42	4616
2026-01-28 11:29:02.08	357.89	21.22	-35.8	-37.5	22.3	0.00e+00	0	40	0	3048210432	42	4579
2026-01-28 11:29:03.08	357.78	21.09	-35.8	-37.5	22.3	0.00e+00	0	40	0	3053453312	42	4567
2026-01-28 11:29:04.07	357.68	20.97	-35.9	-37.5	22.3	0.00e+00	0	40	0	3059744768	42	4598
2026-01-28 11:29:05.06	357.58	20.84	-35.8	-37.5	22.3	0.00e+00	0	40	0	3064987648	42	4566
2026-01-28 11:29:06.05	357.48	20.72	-35.9	-37.6	22.3	0.00e+00	0	40	0	3071279104	42	4608
2026-01-28 11:29:07.05	357.38	20.60	-35.9	-37.6	22.2	0.00e+00	0	40	0	3076521984	42	4626
2026-01-28 11:29:08.04	357.28	20.48	-36.0	-37.7	22.1	0.00e+00	0	40	0	3081764864	42	4678
2026-01-28 11:29:09.03	357.18	20.36	-36.0	-37.7	22.1	0.00e+00	0	40	0	3087007744	42	4687
2026-01-28 11:29:10.03	357.08	20.23	-36.0	-37.7	22.1	0.00e+00	0	40	0	3093299200	42	4691
2026-01-28 11:29:11.02	356.99	20.11	-36.0	-37.7	22.1	0.00e+00	0	40	0	3098542080	42	4692
2026-01-28 11:29:12.01	356.89	20.00	-36.1	-37.7	22.1	0.00e+00	0	40	0	3103784960	42	4705
2026-01-28 11:29:13.01	356.79	19.88	-36.0	-37.7	22.1	0.00e+00	0	40	0	3110076416	42	4661
2026-01-28 11:29:14.00	356.70	19.76	-36.1	-37.7	22.1	0.00e+00	0	40	0	3115319296	42	4700
2026-01-28 11:29:14.99	356.61	19.64	-36.1	-37.8	22.0	0.00e+00	0	40	0	3120562176	42	4740
2026-01-28 11:29:15.98	356.51	19.52	-36.1	-37.8	22.0	0.00e+00	0	40	0	3126853632	42	4751
2026-01-28 11:29:16.98	356.42	19.40	-36.1	-37.8	22.0	0.00e+00	0	40	0	3132096512	42	4733
2026-01-28 11:29:17.97	356.33	19.29	-36.1	-37.8	22.0	0.00e+00	0	40	0	3137339392	42	4744
2026-01-28 11:29:18.96	356.24	19.17	-36.1	-37.9	22.0	0.00e+00	0	40	0	3143630848	42	4776
2026-01-28 11:29:19.96	356.15	19.05	-36.2	-38.0	21.9	0.00e+00	0	40	0	3148873728	43	4549
2026-01-28 11:29:20.95	356.06	18.94	-36.2	-38.0	21.9	0.00e+00	0	40	0	3154116608	43	4565
2026-01-28 11:29:21.94	355.97	18.82	-36.3	-38.1	21.7	0.00e+00	0	40	0	3160408064	43	4628
2026-01-28 11:29:22.94	355.88	18.71	-36.3	-38.1	21.7	0.00e+00	0	40	0	3165650944	43	4625
2026-01-28 11:29:23.93	355.79	18.60	-36.4	-38.2	21.6	0.00e+00	0	40	0	3170893824	43	4685
2026-01-28 11:29:24.92	355.71	18.48	-36.5	-38.2	21.6	0.00e+00	0	40	0	3177185280	43	4698
2026-01-28 11:29:25.91	355.62	18.37	-36.5	-38.2	21.6	0.00e+00	0	40	0	3182428160	43	4687
2026-01-28 11:29:26.91	355.53	18.26	-36.6	-38.3	21.5	0.00e+00	0	40	0	3187671040	43	4745
2026-01-28 11:29:27.90	355.45	18.14	-36.6	-38.3	21.5	0.00e+00	0	40	0	3193962496	43	4753
2026-01-28 11:29:28.89	355.36	18.03	-36.5	-38.3	21.5	0.00e+00	0	40	0	3199205376	43	4738
2026-01-28 11:29:29.88	355.28	17.92	-36.6	-38.4	21.5	0.00e+00	0	40	0	3204448256	43	4773
2026-01-28 11:29:30.88	355.20	17.81	-36.6	-38.4	21.5	0.00e+00	0	40	0	3210739712	43	4786
2026-01-28 11:29:31.87	355.12	17.70	-36.6	-38.4	21.5	0.00e+00	0	40	0	3215982592	43	4769
2026-01-28 11:29:32.86	355.03	17.59	-36.6	-38.4	21.5	0.00e+00	0	40	0	3221225472	43	4763
2026-01-28 11:29:33.86	354.95	17.48	-36.5	-38.3	21.5	0.00e+00	0	40	0	3227516928	43	4759
2026-01-28 11:29:34.85	354.87	17.37	-36.6	-38.4	21.5	0.00e+00	0	40	0	3232759808	43	4767
2026-01-28 11:29:35.84	354.79	17.26	-36.5	-38.3	21.5	0.00e+00	0	40	0	3238002688	43	4737
2026-01-28 11:29:36.83	354.71	17.15	-36.6	-38.4	21.5	0.00e+00	0	40	0	3244294144	43	4773
2026-01-28 11:29:37.83	354.63	17.04	-36.6	-38.4	21.5	0.00e+00	0	40	0	3249537024	43	4764
2026-01-28 11:29:38.82	354.56	16.94	-36.8	-38.6	21.4	0.00e+00	0	40	0	3254779904	44	4622
2026-01-28 11:29:39.81	354.48	16.83	-36.9	-38.6	21.4	0.00e+00	0	40	0	3261071360	44	4650
2026-01-28 11:29:40.81	354.40	16.72	-36.9	-38.6	21.4	0.00e+00	0	40	0	3266314240	44	4645
2026-01-28 11:29:41.80	354.33	16.62	-37.0	-38.7	21.3	0.00e+00	0	40	0	3271557120	44	4686
2026-01-28 11:29:42.79	354.25	16.51	-37.1	-38.9	21.1	0.00e+00	0	40	0	3276800000	44	4779
2026-01-28 11:29:43.78	354.18	16.41	-37.1	-38.8	21.2	0.00e+00	0	40	0	3283091456	44	4749
2026-01-28 11:29:44.78	354.10	16.30	-37.1	-38.9	21.1	0.00e+00	0	40	0	3288334336	44	4779
2026-01-28 11:29:45.77	354.03	16.20	-37.2	-39.0	21.1	0.00e+00	0	40	0	3294625792	45	4551
2026-01-28 11:29:46.76	353.95	16.09	-37.2	-39.0	21.0	0.00e+00	0	40	0	3299868672	45	4574
2026-01-28 11:29:47.76	353.88	15.99	-37.3	-39.1	20.9	0.00e+00	0	40	0	3305111552	45	4626
2026-01-28 11:29:48.75	353.81	15.88	-37.3	-39.1	20.9	0.00e+00	0	40	0	3311403008	45	4640
2026-01-28 11:29:49.74	353.74	15.78	-37.3	-39.1	20.9	0.00e+00	0	40	0	3316645888	45	4627
2026-01-28 11:29:50.74	353.66	15.68	-37.4	-39.3	20.8	0.00e+00	0	40	0	3321888768	45	4711
2026-01-28 11:29:51.73	353.59	15.58	-37.4	-39.2	20.8	0.00e+00	0	40	0	3327131648	45	4688
2026-01-28 11:29:52.72	353.52	15.47	-37.4	-39.2	20.8	0.00e+00	0	40	0	3333423104	45	4695
2026-01-28 11:29:53.71	353.45	15.37	-37.6	-39.4	20.7	0.00e+00	0	40	0	3338665984	45	4782
2026-01-28 11:29:54.71	353.38	15.27	-37.5	-39.3	20.7	0.00e+00	0	40	0	3344957440	45	4733
2026-01-28 11:29:55.70	353.31	15.17	-37.5	-39.3	20.8	0.00e+00	0	40	0	3350200320	45	4728
2026-01-28 11:29:56.69	353.25	15.07	-37.6	-39.5	20.6	0.00e+00	0	40	0	3355443200	45	4830
2026-01-28 11:29:57.68	353.18	14.97	-37.5	-39.4	20.7	0.00e+00	0	40	0	3360686080	45	4784
2026-01-28 11:29:58.68	353.11	14.87	-37.6	-39.4	20.6	0.00e+00	0	40	0	3366977536	45	4806
2026-01-28 11:29:59.67	353.04	14.77	-37.5	-39.4	20.6	0.00e+00	0	40	0	3372220416	45	4792
2026-01-28 11:30:00.66	352.98	14.67	-37.6	-39.5	20.6	0.00e+00	0	40	0	3377463296	45	4835
2026-01-28 11:30:01.65	352.91	14.57	-37.7	-39.6	20.5	0.00e+00	0	40	0	3383754752	46	4605
2026-01-28 11:30:02.65	352.85	14.48	-37.7	-39.5	20.5	0.00e+00	0	40	0	3388997632	46	4577
2026-01-28 11:30:03.64	352.78	14.38	-37.7	-39.5	20.5	0.00e+00	0	40	0	3394240512	46	4585
2026-01-28 11:30:04.63	352.72	14.28	-37.8	-39.7	20.4	0.00e+00	0	40	0	3400531968	46	4676
2026-01-28 11:30:05.63	352.65	14.18	-37.7	-39.6	20.5	0.00e+00	0	40	0	3405774848	46	4630
2026-01-28 11:30:06.62	352.59	14.09	-37.7	-39.6	20.4	0.00e+00	0	40	0	3411017728	46	4644
2026-01-28 11:30:07.61	352.52	13.99	-37.7	-39.6	20.5	0.00e+00	0	40	0	3417309184	46	4605
2026-01-28 11:30:08.61	352.46	13.89	-37.7	-39.6	20.4	0.00e+00	0	40	0	3422552064	46	4636
2026-01-28 11:30:09.60	352.40	13.80	-37.7	-39.6	20.4	0.00e+00	0	40	0	3427794944	46	4615
2026-01-28 11:30:10.59	352.34	13.70	-37.8	-39.7	20.4	0.00e+00	0	40	0	3434086400	46	4652
2026-01-28 11:30:11.59	352.27	13.61	-37.8	-39.6	20.4	0.00e+00	0	40	0	3439329280	46	4636
2026-01-28 11:30:12.58	352.21	13.51	-37.7	-39.6	20.5	0.00e+00	0	40	0	3444572160	46	4611
2026-01-28 11:30:13.57	352.15	13.42	-37.8	-39.7	20.3	0.00e+00	0	40	0	3450863616	46	4670
2026-01-28 11:30:14.56	352.09	13.32	-37.8	-39.6	20.4	0.00e+00	0	40	0	3456106496	46	4645
2026-01-28 11:30:15.55	352.03	13.23	-37.7	-39.6	20.4	0.00e+00	0	40	0	3461349376	46	4626
2026-01-28 11:30:16.55	351.97	13.14	-37.7	-39.7	20.3	0.00e+00	0	40	0	3467640832	46	4703
2026-01-28 11:30:17.54	351.91	13.04	-37.6	-39.6	20.4	0.00e+00	0	40	0	3472883712	46	4634
2026-01-28 11:30:18.53	351.86	12.95	-37.6	-39.6	20.4	0.00e+00	0	40	0	3478126592	46	4633
2026-01-28 11:30:19.53	351.80	12.86	-37.6	-39.7	20.3	0.00e+00	0	40	0	3484418048	46	4683
2026-01-28 11:30:20.52	351.74	12.77	-37.6	-39.7	20.3	0.00e+00	0	40	0	3489660928	46	4698
2026-01-28 11:30:21.51	351.68	12.67	-37.7	-39.8	20.3	0.00e+00	0	40	0	3494903808	46	4718
2026-01-28 11:30:22.51	351.62	12.58	-37.8	-39.9	20.1	0.00e+00	0	40	0	3501195264	46	4773
2026-01-28 11:30:23.50	351.57	12.49	-37.8	-39.9	20.1	0.00e+00	0	40	0	3506438144	46	4791
2026-01-28 11:30:24.49	351.51	12.40	-37.7	-39.8	20.2	0.00e+00	0	40	0	3511681024	46	4735
2026-01-28 11:30:25.48	351.45	12.31	-37.9	-40.0	20.1	0.00e+00	0	40	0	3516923904	46	4822
2026-01-28 11:30:26.47	351.40	12.22	-37.9	-39.9	20.1	0.00e+00	0	40	0	3523215360	46	4803
2026-01-28 11:30:27.47	351.34	12.13	-37.9	-40.0	20.0	0.00e+00	0	40	0	3528458240	46	4835
2026-01-28 11:30:28.46	351.29	12.04	-38.0	-40.0	20.0	0.00e+00	0	40	0	3534749696	46	4849
2026-01-28 11:30:29.45	351.23	11.95	-38.0	-40.0	20.0	0.00e+00	0	40	0	3539992576	46	4853
2026-01-28 11:30:30.45	351.18	11.86	-38.0	-40.1	19.9	0.00e+00	0	40	0	3545235456	46	4878
2026-01-28 11:30:31.44	351.12	11.77	-38.1	-40.1	19.9	0.00e+00	0	40	0	3550478336	46	4900
2026-01-28 11:30:32.43	351.07	11.68	-38.2	-40.2	19.8	0.00e+00	0	40	0	3556769792	47	4704
2026-01-28 11:30:33.43	351.02	11.60	-38.1	-40.2	19.8	0.00e+00	0	40	0	3562012672	47	4654
2026-01-28 11:30:34.42	350.96	11.51	-38.1	-40.1	19.9	0.00e+00	0	40	0	3568304128	47	4637
2026-01-28 11:30:35.41	350.91	11.42	-38.2	-40.2	19.8	0.00e+00	0	40	0	3573547008	47	4704
2026-01-28 11:30:36.40	350.86	11.33	-38.1	-40.2	19.8	0.00e+00	0	40	0	3578789888	47	4675
2026-01-28 11:30:37.40	350.81	11.25	-38.2	-40.3	19.7	0.00e+00	0	40	0	3585081344	47	4736
2026-01-28 11:30:38.39	350.76	11.16	-38.3	-40.4	19.7	0.00e+00	0	40	0	3590324224	47	4763
2026-01-28 11:30:39.38	350.71	11.07	-38.3	-40.4	19.6	0.00e+00	0	40	0	3595567104	47	4794
2026-01-28 11:30:40.37	350.65	10.99	-38.2	-40.4	19.6	0.00e+00	0	40	0	3600809984	47	4789
2026-01-28 11:30:41.37	350.60	10.90	-38.2	-40.4	19.5	0.00e+00	0	40	0	3607101440	47	4809
2026-01-28 11:30:42.36	350.55	10.82	-38.1	-40.4	19.5	0.00e+00	0	40	0	3612344320	47	4806
2026-01-28 11:30:43.35	350.50	10.73	-38.0	-40.4	19.6	0.00e+00	0	40	0	3618635776	47	4767
2026-01-28 11:30:44.35	350.45	10.64	-38.1	-40.5	19.5	0.00e+00	0	40	0	3623878656	47	4816
2026-01-28 11:30:45.34	350.40	10.56	-38.1	-40.5	19.5	0.00e+00	0	40	0	3629121536	47	4822
2026-01-28 11:30:46.33	350.36	10.48	-38.0	-40.4	19.5	0.00e+00	0	40	0	3634364416	47	4808
